passes_logs/2026/01/08/R3.2S_Murmansk/R3.2S_Murmansk__20260108_102037_NOAA_20_JPSS-1_rec.log

#Pass ID: 20260108_102037_NOAA 20 (JPSS-1)
#Satellite: NOAA 20 (JPSS-1)
#Configuration: NOAA 20
#almurnet v.1.7.20251203
#Start time: 2026-01-08 10:20:38

#Version: 2.2.20231116
#Station: R3.2S_Murmansk
#Location: 33.079688 lon 68.888172 lat
#TLE: 1 43013U 17073A   26007.92906311  .00000097  00000+0  67117-4 0  9996
#TLE: 2 43013  98.7630 308.9434 0001752  49.5597 310.5732 14.19534161421734

#Time	Az	El	Level	Level2	SNR	BER	BlckErr	Temp	State	Recorded	gain1	gain2
2026-01-08 10:20:38.65	171.72	2.08	-58.1	-74.0	3.8	1.49e+00	0	24	0	0	82	22499
2026-01-08 10:20:39.64	171.74	2.14	-58.0	-73.9	3.8	1.49e+00	0	24	104	0	81	23581
2026-01-08 10:20:40.65	171.77	2.20	-58.0	-73.9	3.8	1.49e+00	0	24	104	0	81	23456
2026-01-08 10:20:41.66	171.79	2.27	-58.0	-73.9	3.8	1.49e+00	0	24	104	0	81	23367
2026-01-08 10:20:42.67	171.82	2.33	-58.0	-73.8	3.8	1.49e+00	0	24	104	0	81	23290
2026-01-08 10:20:43.68	171.85	2.40	-58.0	-73.8	3.8	1.49e+00	0	24	104	0	81	23111
2026-01-08 10:20:44.69	171.87	2.46	-58.0	-73.8	3.8	1.49e+00	0	24	104	0	81	23203
2026-01-08 10:20:45.70	171.90	2.53	-58.0	-73.9	3.8	1.49e+00	0	24	104	0	81	23390
2026-01-08 10:20:46.71	171.93	2.59	-58.0	-73.9	3.8	1.49e+00	0	25	104	0	81	23432
2026-01-08 10:20:47.72	171.95	2.66	-58.0	-73.9	3.8	1.49e+00	0	25	104	0	81	23568
2026-01-08 10:20:48.72	171.98	2.72	-58.0	-74.0	3.8	1.49e+00	0	25	104	0	81	23688
2026-01-08 10:20:49.74	172.01	2.79	-58.0	-74.0	3.8	1.49e+00	0	25	104	0	81	23632
2026-01-08 10:20:50.74	172.03	2.85	-58.1	-74.0	3.8	1.49e+00	0	25	104	0	81	23660
2026-01-08 10:20:51.75	172.06	2.92	-58.0	-73.9	3.8	1.49e+00	0	25	104	0	81	23564
2026-01-08 10:20:52.76	172.09	2.98	-58.0	-73.8	3.8	1.49e+00	0	25	104	0	81	23296
2026-01-08 10:20:53.76	172.12	3.05	-58.0	-73.8	3.8	1.49e+00	0	25	104	0	81	23152
2026-01-08 10:20:54.78	172.14	3.11	-58.0	-73.9	3.8	1.49e+00	0	25	104	0	81	23387
2026-01-08 10:20:55.79	172.17	3.18	-58.0	-73.9	3.8	1.49e+00	0	25	104	0	81	23446
2026-01-08 10:20:56.79	172.20	3.25	-58.0	-74.0	3.8	1.49e+00	0	25	104	0	81	23661
2026-01-08 10:20:57.80	172.23	3.31	-58.0	-74.1	3.8	1.49e+00	0	25	104	0	81	23930
2026-01-08 10:20:58.81	172.26	3.38	-58.0	-74.0	3.8	1.49e+00	0	25	104	0	81	23786
2026-01-08 10:20:59.82	172.28	3.45	-58.0	-73.8	3.8	1.49e+00	0	25	104	0	81	23160
2026-01-08 10:21:00.83	172.31	3.51	-58.0	-73.3	3.8	1.49e+00	0	25	104	0	81	21824
2026-01-08 10:21:01.84	172.34	3.58	-58.0	-72.5	3.8	1.49e+00	0	25	104	0	81	19921
2026-01-08 10:21:02.85	172.37	3.65	-57.9	-71.3	4.0	1.48e+00	0	25	104	0	81	17397
2026-01-08 10:21:03.86	172.40	3.72	-57.9	-70.4	4.2	1.45e+00	0	25	0	0	81	15756
2026-01-08 10:21:04.87	172.43	3.79	-57.8	-69.5	4.5	1.32e+00	0	25	0	1048576	81	14053
2026-01-08 10:21:05.87	172.46	3.85	-57.8	-68.6	4.9	8.19e-01	0	25	0	2097152	81	12728
2026-01-08 10:21:06.88	172.48	3.92	-57.7	-67.9	5.2	5.80e-01	0	25	0	4194304	81	11767
2026-01-08 10:21:07.89	172.51	3.99	-57.6	-67.4	5.6	4.55e-01	0	25	0	6291456	81	11085
2026-01-08 10:21:08.90	172.54	4.06	-57.6	-67.1	5.7	4.26e-01	0	25	0	8388608	81	10720
2026-01-08 10:21:09.91	172.57	4.13	-57.6	-66.8	5.9	3.16e-01	0	25	0	10485760	81	10383
2026-01-08 10:21:10.91	172.60	4.19	-57.5	-66.1	6.4	2.49e-01	0	25	0	11534336	81	9529
2026-01-08 10:21:11.92	172.63	4.26	-57.4	-65.9	6.5	1.77e-01	0	25	0	13631488	81	9284
2026-01-08 10:21:12.92	172.66	4.33	-57.4	-65.6	6.8	1.46e-01	0	25	0	15728640	81	8999
2026-01-08 10:21:13.92	172.69	4.40	-57.3	-64.9	7.4	8.61e-02	0	25	0	17825792	81	8273
2026-01-08 10:21:14.93	172.72	4.47	-57.2	-64.7	7.5	7.08e-02	0	25	0	18874368	81	8106
2026-01-08 10:21:15.93	172.75	4.54	-57.0	-63.9	8.3	3.61e-02	0	25	0	20971520	80	7842
2026-01-08 10:21:16.94	172.78	4.61	-57.0	-63.6	8.4	2.39e-02	0	25	0	23068672	80	7620
2026-01-08 10:21:17.95	172.81	4.68	-56.8	-63.1	8.9	1.81e-02	0	25	0	25165824	80	7158
2026-01-08 10:21:18.96	172.84	4.75	-56.8	-62.8	9.2	8.22e-03	0	26	0	27262976	80	6906
2026-01-08 10:21:19.96	172.87	4.82	-56.7	-62.6	9.4	5.87e-03	0	25	0	29360128	80	6748
2026-01-08 10:21:20.97	172.90	4.89	-56.7	-62.6	9.3	7.76e-03	0	26	0	30408704	80	6793
2026-01-08 10:21:21.97	172.93	4.96	-56.7	-62.7	9.3	5.10e-03	0	25	0	32505856	79	7245
2026-01-08 10:21:23.04	172.96	5.03	-56.8	-62.9	9.1	7.30e-03	0	25	0	34603008	79	7406
2026-01-08 10:21:23.91	172.99	5.09	-56.3	-61.3	10.6	1.33e-03	0	26	0	35651584	79	6151
2026-01-08 10:21:25.05	173.03	5.18	-57.0	-63.6	8.6	2.84e-03	0	25	0	37748736	79	8023
2026-01-08 10:21:25.91	173.05	5.24	-57.7	-68.0	5.3	8.87e-03	0	25	0	39845888	80	12662
2026-01-08 10:21:27.06	173.09	5.32	-58.0	-73.7	3.8	1.48e+00	0	26	104	40894464	81	22822
2026-01-08 10:21:27.92	173.12	5.38	-54.2	-57.1	13.0	1.15e+00	0	25	104	40894464	75	4803
2026-01-08 10:21:29.08	173.15	5.46	-53.9	-56.7	13.4	0.00e+00	0	26	0	41943040	74	4846
2026-01-08 10:21:29.94	173.18	5.52	-54.0	-56.7	13.4	0.00e+00	0	26	0	44040192	74	4855
2026-01-08 10:21:31.10	173.22	5.61	-53.8	-56.4	13.5	0.00e+00	0	26	0	46137344	74	4705
2026-01-08 10:21:31.96	173.24	5.67	-53.5	-56.1	13.7	0.00e+00	0	26	0	48234496	73	4767
2026-01-08 10:21:33.11	173.28	5.75	-53.6	-56.2	13.6	0.00e+00	0	26	0	50331648	73	4852
2026-01-08 10:21:33.98	173.31	5.81	-53.6	-56.1	13.6	0.00e+00	0	26	0	51380224	73	4797
2026-01-08 10:21:35.13	173.35	5.90	-53.5	-56.0	13.7	0.00e+00	0	25	0	53477376	73	4708
2026-01-08 10:21:35.99	173.37	5.96	-53.5	-56.0	13.7	0.00e+00	0	26	0	55574528	73	4712
2026-01-08 10:21:37.14	173.41	6.04	-53.5	-56.0	13.7	0.00e+00	0	26	0	57671680	73	4706
2026-01-08 10:21:38.01	173.44	6.11	-53.4	-55.8	13.8	0.00e+00	0	26	0	58720256	73	4648
2026-01-08 10:21:39.15	173.48	6.19	-53.4	-55.9	13.8	0.00e+00	0	26	0	60817408	73	4675
2026-01-08 10:21:40.01	173.51	6.25	-53.4	-55.9	13.8	0.00e+00	0	26	0	62914560	73	4665
2026-01-08 10:21:41.16	173.54	6.34	-53.3	-55.6	13.9	0.00e+00	0	26	0	65011712	73	4542
2026-01-08 10:21:42.03	173.57	6.40	-53.3	-55.7	13.9	0.00e+00	0	26	0	67108864	73	4572
2026-01-08 10:21:43.18	173.61	6.49	-53.3	-55.6	13.9	0.00e+00	0	26	0	69206016	73	4533
2026-01-08 10:21:44.04	173.64	6.55	-53.3	-55.8	13.9	0.00e+00	0	26	0	70254592	73	4604
2026-01-08 10:21:45.19	173.68	6.64	-53.3	-55.7	13.9	0.00e+00	0	26	0	72351744	73	4576
2026-01-08 10:21:46.06	173.71	6.70	-53.3	-55.7	13.9	0.00e+00	0	26	0	74448896	73	4552
2026-01-08 10:21:47.21	173.75	6.79	-53.3	-55.7	13.9	0.00e+00	0	26	0	76546048	73	4566
2026-01-08 10:21:48.07	173.78	6.85	-53.3	-55.7	13.9	0.00e+00	0	26	0	77594624	73	4564
2026-01-08 10:21:49.21	173.82	6.94	-53.3	-55.6	14.0	0.00e+00	0	26	0	79691776	73	4509
2026-01-08 10:21:50.07	173.85	7.00	-53.3	-55.6	14.0	0.00e+00	0	26	0	81788928	73	4540
2026-01-08 10:21:51.22	173.89	7.09	-53.3	-55.7	13.9	0.00e+00	0	26	0	83886080	73	4554
2026-01-08 10:21:52.09	173.92	7.16	-53.2	-55.5	14.0	0.00e+00	0	26	0	85983232	73	4482
2026-01-08 10:21:53.24	173.96	7.25	-53.2	-55.6	14.0	0.00e+00	0	26	0	88080384	73	4496
2026-01-08 10:21:54.10	173.99	7.31	-53.2	-55.5	14.1	0.00e+00	0	26	0	89128960	73	4462
2026-01-08 10:21:55.25	174.03	7.40	-53.2	-55.5	13.9	0.00e+00	0	26	0	91226112	72	4725
2026-01-08 10:21:56.12	174.06	7.47	-53.2	-55.5	13.9	0.00e+00	0	26	0	93323264	72	4737
2026-01-08 10:21:57.27	174.10	7.55	-53.2	-55.4	13.9	0.00e+00	0	26	0	95420416	72	4702
2026-01-08 10:21:58.13	174.13	7.62	-53.1	-55.4	14.0	0.00e+00	0	26	0	96468992	72	4658
2026-01-08 10:21:59.28	174.17	7.71	-53.2	-55.4	14.0	0.00e+00	0	26	0	98566144	72	4695
2026-01-08 10:22:00.14	174.20	7.78	-53.2	-55.5	13.9	0.00e+00	0	26	0	100663296	72	4717
2026-01-08 10:22:01.29	174.25	7.87	-53.3	-55.6	13.9	0.00e+00	0	26	0	102760448	72	4765
2026-01-08 10:22:02.16	174.28	7.94	-53.2	-55.5	13.9	0.00e+00	0	26	0	104857600	72	4732
2026-01-08 10:22:03.31	174.32	8.03	-53.2	-55.5	13.9	0.00e+00	0	26	0	106954752	72	4735
2026-01-08 10:22:04.17	174.35	8.09	-53.3	-55.6	13.9	0.00e+00	0	26	0	108003328	72	4765
2026-01-08 10:22:05.32	174.40	8.18	-53.1	-55.3	14.0	0.00e+00	0	26	0	110100480	72	4635
2026-01-08 10:22:06.19	174.43	8.25	-53.1	-55.3	14.0	0.00e+00	0	26	0	112197632	72	4632
2026-01-08 10:22:07.34	174.47	8.34	-53.0	-55.2	14.1	0.00e+00	0	26	0	114294784	72	4582
2026-01-08 10:22:08.20	174.50	8.41	-53.0	-55.2	14.1	0.00e+00	0	26	0	115343360	72	4590
2026-01-08 10:22:09.36	174.55	8.51	-53.1	-55.3	14.1	0.00e+00	0	26	0	117440512	72	4620
2026-01-08 10:22:10.22	174.58	8.57	-53.1	-55.3	14.0	0.00e+00	0	26	0	119537664	72	4634
2026-01-08 10:22:11.37	174.62	8.67	-52.9	-55.1	14.2	0.00e+00	0	26	0	121634816	72	4505
2026-01-08 10:22:12.23	174.66	8.74	-53.0	-55.2	14.1	0.00e+00	0	26	0	123731968	72	4553
2026-01-08 10:22:13.38	174.70	8.83	-52.9	-55.0	14.2	0.00e+00	0	26	0	125829120	72	4484
2026-01-08 10:22:14.24	174.74	8.90	-52.9	-55.0	14.2	0.00e+00	0	26	0	126877696	72	4452
2026-01-08 10:22:15.40	174.78	8.99	-52.9	-55.0	14.2	0.00e+00	0	26	0	128974848	72	4477
2026-01-08 10:22:16.26	174.81	9.06	-52.9	-55.1	14.2	0.00e+00	0	26	0	131072000	72	4500
2026-01-08 10:22:17.41	174.86	9.16	-52.9	-55.1	14.2	0.00e+00	0	26	0	133169152	72	4497
2026-01-08 10:22:18.28	174.89	9.23	-52.8	-54.8	14.3	0.00e+00	0	26	0	134217728	72	4382
2026-01-08 10:22:19.43	174.94	9.33	-52.8	-54.9	14.3	0.00e+00	0	26	0	136314880	72	4409
2026-01-08 10:22:20.29	174.98	9.40	-52.9	-55.0	14.2	0.00e+00	0	26	0	138412032	72	4458
2026-01-08 10:22:21.44	175.02	9.49	-52.8	-54.9	14.3	0.00e+00	0	26	0	140509184	72	4392
2026-01-08 10:22:22.31	175.06	9.56	-52.8	-54.9	14.3	0.00e+00	0	26	0	142606336	72	4410
2026-01-08 10:22:23.46	175.10	9.66	-52.8	-54.8	14.3	0.00e+00	0	26	0	144703488	72	4382
2026-01-08 10:22:24.32	175.14	9.73	-52.8	-54.9	14.3	0.00e+00	0	26	0	145752064	72	4393
2026-01-08 10:22:25.47	175.19	9.83	-52.8	-54.9	14.3	0.00e+00	0	26	0	147849216	72	4420
2026-01-08 10:22:26.34	175.22	9.90	-52.7	-54.7	14.4	0.00e+00	0	26	0	149946368	72	4329
2026-01-08 10:22:27.49	175.27	10.00	-52.8	-54.8	14.3	0.00e+00	0	26	0	152043520	72	4387
2026-01-08 10:22:28.35	175.31	10.07	-52.7	-54.8	14.4	0.00e+00	0	26	0	153092096	72	4351
2026-01-08 10:22:29.50	175.35	10.17	-52.7	-54.8	14.4	0.00e+00	0	26	0	155189248	72	4345
2026-01-08 10:22:30.36	175.39	10.24	-52.7	-54.7	14.4	0.00e+00	0	26	0	157286400	72	4301
2026-01-08 10:22:31.52	175.44	10.34	-52.7	-54.7	14.2	0.00e+00	0	26	0	159383552	71	4595
2026-01-08 10:22:32.38	175.48	10.42	-52.7	-54.7	14.3	0.00e+00	0	27	0	161480704	71	4572
2026-01-08 10:22:33.54	175.53	10.52	-52.6	-54.6	14.3	0.00e+00	0	27	0	163577856	71	4529
2026-01-08 10:22:34.40	175.56	10.59	-52.7	-54.7	14.3	0.00e+00	0	26	0	164626432	71	4582
2026-01-08 10:22:35.55	175.61	10.69	-52.6	-54.6	14.3	0.00e+00	0	26	0	166723584	71	4538
2026-01-08 10:22:36.41	175.65	10.77	-52.6	-54.7	14.3	0.00e+00	0	26	0	168820736	71	4553
2026-01-08 10:22:37.56	175.70	10.87	-52.7	-54.7	14.3	0.00e+00	0	26	0	170917888	71	4569
2026-01-08 10:22:38.43	175.74	10.95	-52.7	-54.7	14.3	0.00e+00	0	26	0	171966464	71	4566
2026-01-08 10:22:39.58	175.79	11.05	-52.6	-54.6	14.3	0.00e+00	0	26	0	175112192	71	4538
2026-01-08 10:22:40.45	175.83	11.12	-52.6	-54.6	14.3	0.00e+00	0	26	0	176160768	71	4518
2026-01-08 10:22:41.59	175.88	11.23	-52.6	-54.5	14.4	0.00e+00	0	26	0	178257920	71	4475
2026-01-08 10:22:42.46	175.92	11.30	-52.5	-54.5	14.4	0.00e+00	0	26	0	180355072	71	4454
2026-01-08 10:22:43.61	175.97	11.41	-52.6	-54.5	14.4	0.00e+00	0	27	0	182452224	71	4482
2026-01-08 10:22:44.48	176.01	11.48	-52.6	-54.6	14.3	0.00e+00	0	26	0	183500800	71	4499
2026-01-08 10:22:45.63	176.07	11.59	-52.6	-54.5	14.4	0.00e+00	0	26	0	185597952	71	4480
2026-01-08 10:22:46.50	176.11	11.67	-52.5	-54.5	14.4	0.00e+00	0	26	0	187695104	71	4463
2026-01-08 10:22:47.65	176.16	11.77	-52.6	-54.6	14.3	0.00e+00	0	26	0	189792256	71	4533
2026-01-08 10:22:48.52	176.20	11.85	-52.6	-54.5	14.4	0.00e+00	0	27	0	191889408	71	4475
2026-01-08 10:22:49.67	176.25	11.96	-52.6	-54.6	14.4	0.00e+00	0	26	0	193986560	71	4504
2026-01-08 10:22:50.54	176.30	12.03	-52.5	-54.4	14.4	0.00e+00	0	26	0	195035136	71	4413
2026-01-08 10:22:51.69	176.35	12.14	-52.4	-54.3	14.5	0.00e+00	0	27	0	197132288	71	4384
2026-01-08 10:22:52.55	176.39	12.22	-52.4	-54.3	14.5	0.00e+00	0	27	0	199229440	71	4355
2026-01-08 10:22:53.71	176.45	12.33	-52.4	-54.3	14.5	0.00e+00	0	27	0	201326592	71	4376
2026-01-08 10:22:54.57	176.49	12.41	-52.4	-54.3	14.5	0.00e+00	0	27	0	202375168	71	4366
2026-01-08 10:22:55.73	176.55	12.52	-52.4	-54.3	14.5	0.00e+00	0	26	0	204472320	71	4371
2026-01-08 10:22:56.59	176.59	12.60	-52.4	-54.4	14.5	0.00e+00	0	26	0	206569472	71	4395
2026-01-08 10:22:57.74	176.64	12.71	-52.4	-54.3	14.5	0.00e+00	0	27	0	208666624	71	4354
2026-01-08 10:22:58.60	176.69	12.79	-52.3	-54.2	14.5	0.00e+00	0	26	0	209715200	71	4327
2026-01-08 10:22:59.75	176.74	12.90	-52.4	-54.3	14.5	0.00e+00	0	26	0	212860928	71	4345
2026-01-08 10:23:00.62	176.79	12.98	-52.4	-54.2	14.5	0.00e+00	0	27	0	213909504	71	4334
2026-01-08 10:23:01.77	176.85	13.09	-52.3	-54.1	14.6	0.00e+00	0	26	0	216006656	71	4284
2026-01-08 10:23:02.64	176.89	13.17	-52.4	-54.2	14.5	0.00e+00	0	27	0	218103808	71	4332
2026-01-08 10:23:03.79	176.95	13.28	-52.4	-54.3	14.5	0.00e+00	0	27	0	220200960	71	4353
2026-01-08 10:23:04.65	176.99	13.37	-52.4	-54.3	14.5	0.00e+00	0	26	0	221249536	71	4389
2026-01-08 10:23:05.81	177.05	13.48	-52.3	-54.2	14.6	0.00e+00	0	27	0	223346688	71	4292
2026-01-08 10:23:06.67	177.10	13.56	-52.2	-54.0	14.6	0.00e+00	0	27	0	225443840	71	4242
2026-01-08 10:23:07.82	177.16	13.67	-52.3	-54.2	14.6	0.00e+00	0	27	0	227540992	71	4305
2026-01-08 10:23:08.69	177.20	13.76	-52.3	-54.1	14.6	0.00e+00	0	26	0	229638144	71	4290
2026-01-08 10:23:09.84	177.26	13.87	-52.3	-54.2	14.6	0.00e+00	0	27	0	231735296	71	4292
2026-01-08 10:23:10.70	177.31	13.96	-52.3	-54.2	14.6	0.00e+00	0	27	0	232783872	71	4318
2026-01-08 10:23:11.84	177.37	14.07	-52.3	-54.2	14.6	0.00e+00	0	27	0	234881024	71	4309
2026-01-08 10:23:12.70	177.42	14.16	-52.3	-54.2	14.6	0.00e+00	0	27	0	236978176	71	4303
2026-01-08 10:23:13.85	177.48	14.27	-52.4	-54.3	14.5	0.00e+00	0	26	0	239075328	71	4363
2026-01-08 10:23:14.72	177.53	14.36	-52.4	-54.3	14.5	0.00e+00	0	27	0	240123904	71	4351
2026-01-08 10:23:15.87	177.59	14.48	-52.3	-54.2	14.6	0.00e+00	0	27	0	242221056	71	4316
2026-01-08 10:23:16.73	177.64	14.56	-52.4	-54.2	14.5	0.00e+00	0	27	0	244318208	71	4332
2026-01-08 10:23:17.88	177.70	14.68	-52.4	-54.3	14.5	0.00e+00	0	27	0	246415360	71	4341
2026-01-08 10:23:18.75	177.75	14.77	-52.3	-54.2	14.6	0.00e+00	0	27	0	248512512	71	4317
2026-01-08 10:23:19.90	177.82	14.89	-52.4	-54.3	14.5	0.00e+00	0	27	0	250609664	71	4357
2026-01-08 10:23:20.76	177.87	14.97	-52.3	-54.2	14.6	0.00e+00	0	27	0	251658240	71	4311
2026-01-08 10:23:21.91	177.93	15.09	-52.4	-54.2	14.6	0.00e+00	0	27	0	253755392	71	4325
2026-01-08 10:23:22.78	177.98	15.18	-52.4	-54.2	14.5	0.00e+00	0	27	0	255852544	71	4333
2026-01-08 10:23:23.93	178.05	15.30	-52.4	-54.3	14.5	0.00e+00	0	27	0	257949696	71	4358
2026-01-08 10:23:24.79	178.10	15.39	-52.4	-54.2	14.6	0.00e+00	0	27	0	258998272	71	4317
2026-01-08 10:23:25.94	178.17	15.51	-52.3	-54.1	14.6	0.00e+00	0	27	0	261095424	71	4290
2026-01-08 10:23:26.81	178.22	15.61	-52.3	-54.1	14.6	0.00e+00	0	27	0	263192576	71	4258
2026-01-08 10:23:27.96	178.29	15.73	-52.3	-54.2	14.6	0.00e+00	0	27	0	265289728	71	4299
2026-01-08 10:23:28.82	178.34	15.82	-52.3	-54.1	14.6	0.00e+00	0	27	0	267386880	71	4271
2026-01-08 10:23:29.97	178.41	15.94	-52.3	-54.1	14.6	0.00e+00	0	27	0	269484032	71	4270
2026-01-08 10:23:30.84	178.46	16.03	-52.4	-54.2	14.6	0.00e+00	0	27	0	270532608	71	4319
2026-01-08 10:23:31.99	178.53	16.16	-52.3	-54.2	14.6	0.00e+00	0	27	0	272629760	71	4293
2026-01-08 10:23:32.85	178.58	16.25	-52.4	-54.2	14.6	0.00e+00	0	27	0	274726912	71	4340
2026-01-08 10:23:34.00	178.65	16.38	-52.3	-54.1	14.6	0.00e+00	0	27	0	276824064	71	4276
2026-01-08 10:23:34.86	178.71	16.47	-52.2	-54.0	14.7	0.00e+00	0	27	0	277872640	71	4241
2026-01-08 10:23:36.01	178.78	16.60	-52.4	-54.2	14.6	0.00e+00	0	27	0	279969792	71	4325
2026-01-08 10:23:36.88	178.83	16.69	-52.4	-54.3	14.5	0.00e+00	0	27	0	282066944	71	4370
2026-01-08 10:23:38.03	178.91	16.82	-52.4	-54.2	14.6	0.00e+00	0	27	0	284164096	71	4325
2026-01-08 10:23:38.89	178.96	16.91	-52.4	-54.2	14.6	0.00e+00	0	27	0	286261248	71	4313
2026-01-08 10:23:40.05	179.04	17.04	-52.4	-54.3	14.5	0.00e+00	0	27	0	288358400	71	4344
2026-01-08 10:23:40.91	179.09	17.14	-52.4	-54.3	14.5	0.00e+00	0	27	0	289406976	71	4352
2026-01-08 10:23:42.06	179.17	17.27	-52.4	-54.3	14.5	0.00e+00	0	27	0	291504128	71	4366
2026-01-08 10:23:42.93	179.23	17.37	-52.4	-54.2	14.6	0.00e+00	0	27	0	293601280	71	4336
2026-01-08 10:23:44.08	179.30	17.50	-52.4	-54.2	14.6	0.00e+00	0	27	0	295698432	71	4337
2026-01-08 10:23:44.94	179.36	17.59	-52.4	-54.3	14.6	0.00e+00	0	27	0	296747008	71	4347
2026-01-08 10:23:46.09	179.44	17.73	-52.5	-54.3	14.5	0.00e+00	0	27	0	298844160	71	4385
2026-01-08 10:23:46.96	179.50	17.83	-52.4	-54.2	14.5	0.00e+00	0	27	0	300941312	71	4329
2026-01-08 10:23:48.10	179.58	17.96	-52.4	-54.2	14.6	0.00e+00	0	27	0	303038464	71	4333
2026-01-08 10:23:48.97	179.64	18.06	-52.4	-54.2	14.6	0.00e+00	0	27	0	305135616	71	4315
2026-01-08 10:23:50.12	179.71	18.19	-52.4	-54.3	14.5	0.00e+00	0	27	0	307232768	71	4350
2026-01-08 10:23:50.99	179.78	18.29	-52.4	-54.2	14.6	0.00e+00	0	27	0	308281344	71	4340
2026-01-08 10:23:52.13	179.86	18.43	-52.4	-54.3	14.6	0.00e+00	0	27	0	310378496	71	4342
2026-01-08 10:23:53.00	179.92	18.53	-52.4	-54.3	14.5	0.00e+00	0	27	0	312475648	71	4360
2026-01-08 10:23:54.15	180.00	18.67	-52.5	-54.3	14.6	0.00e+00	0	27	0	314572800	71	4368
2026-01-08 10:23:55.01	180.06	18.77	-52.4	-54.3	14.5	0.00e+00	0	27	0	315621376	71	4352
2026-01-08 10:23:56.17	180.15	18.91	-52.4	-54.2	14.6	0.00e+00	0	27	0	317718528	71	4323
2026-01-08 10:23:57.03	180.21	19.01	-52.4	-54.2	14.6	0.00e+00	0	27	0	319815680	71	4313
2026-01-08 10:23:58.18	180.29	19.15	-52.4	-54.3	14.6	0.00e+00	0	27	0	321912832	71	4353
2026-01-08 10:23:59.04	180.36	19.25	-52.5	-54.3	14.5	0.00e+00	0	27	0	324009984	71	4385
2026-01-08 10:24:00.19	180.44	19.39	-52.4	-54.3	14.6	0.00e+00	0	27	0	326107136	71	4343
2026-01-08 10:24:01.06	180.51	19.50	-52.5	-54.4	14.5	0.00e+00	0	27	0	327155712	71	4393
2026-01-08 10:24:02.21	180.60	19.64	-52.4	-54.2	14.6	0.00e+00	0	27	0	329252864	71	4308
2026-01-08 10:24:03.07	180.66	19.75	-52.4	-54.2	14.6	0.00e+00	0	27	0	331350016	71	4311
2026-01-08 10:24:04.23	180.75	19.89	-52.3	-54.2	14.6	0.00e+00	0	27	0	333447168	71	4293
2026-01-08 10:24:05.09	180.82	20.00	-52.3	-54.1	14.6	0.00e+00	0	27	0	334495744	71	4265
2026-01-08 10:24:06.24	180.91	20.14	-52.4	-54.2	14.6	0.00e+00	0	27	0	336592896	71	4309
2026-01-08 10:24:07.11	180.98	20.25	-52.4	-54.3	14.6	0.00e+00	0	27	0	338690048	71	4343
2026-01-08 10:24:08.26	181.07	20.40	-52.2	-54.0	14.7	0.00e+00	0	27	0	340787200	71	4216
2026-01-08 10:24:09.13	181.14	20.51	-52.1	-53.9	14.7	0.00e+00	0	27	0	342884352	70	4415
2026-01-08 10:24:10.28	181.23	20.65	-52.1	-53.9	14.6	0.00e+00	0	27	0	344981504	70	4429
2026-01-08 10:24:11.14	181.30	20.76	-52.1	-53.9	14.6	0.00e+00	0	27	0	346030080	70	4413
2026-01-08 10:24:12.28	181.39	20.91	-52.1	-53.9	14.6	0.00e+00	0	27	0	348127232	70	4409
2026-01-08 10:24:13.14	181.46	21.02	-52.1	-53.9	14.6	0.00e+00	0	27	0	350224384	70	4415
2026-01-08 10:24:14.29	181.56	21.17	-52.1	-53.8	14.7	0.00e+00	0	27	0	352321536	70	4368
2026-01-08 10:24:15.15	181.63	21.28	-51.9	-53.6	14.7	0.00e+00	0	27	0	353370112	70	4256
2026-01-08 10:24:16.30	181.73	21.43	-51.6	-53.2	14.8	0.00e+00	0	27	0	355467264	69	4335
2026-01-08 10:24:17.17	181.80	21.55	-51.5	-53.2	14.8	0.00e+00	0	27	0	357564416	69	4300
2026-01-08 10:24:18.31	181.90	21.70	-51.5	-53.1	14.8	0.00e+00	0	27	0	359661568	69	4271
2026-01-08 10:24:19.18	181.98	21.81	-51.5	-53.1	14.8	0.00e+00	0	27	0	361758720	69	4288
2026-01-08 10:24:20.33	182.08	21.97	-51.4	-53.0	14.9	0.00e+00	0	27	0	363855872	69	4204
2026-01-08 10:24:21.19	182.15	22.08	-51.5	-53.0	14.8	0.00e+00	0	27	0	364904448	69	4241
2026-01-08 10:24:22.35	182.26	22.24	-51.3	-52.8	14.9	0.00e+00	0	27	0	367001600	69	4129
2026-01-08 10:24:23.21	182.33	22.36	-51.2	-52.7	14.8	0.00e+00	0	27	0	369098752	68	4322
2026-01-08 10:24:24.36	182.44	22.51	-51.1	-52.7	14.8	0.00e+00	0	27	0	371195904	68	4313
2026-01-08 10:24:25.22	182.52	22.63	-51.0	-52.6	14.9	0.00e+00	0	27	0	372244480	68	4254
2026-01-08 10:24:26.37	182.62	22.79	-51.0	-52.5	14.9	0.00e+00	0	27	0	374341632	68	4201
2026-01-08 10:24:27.24	182.70	22.91	-51.0	-52.5	14.9	0.00e+00	0	27	0	376438784	68	4227
2026-01-08 10:24:28.38	182.81	23.07	-51.0	-52.5	14.9	0.00e+00	0	27	0	378535936	68	4224
2026-01-08 10:24:29.24	182.89	23.19	-50.9	-52.4	15.0	0.00e+00	0	27	0	380633088	68	4171
2026-01-08 10:24:30.40	183.00	23.35	-50.9	-52.4	15.0	0.00e+00	0	27	0	382730240	68	4153
2026-01-08 10:24:31.26	183.08	23.47	-50.9	-52.4	14.9	0.00e+00	0	27	0	383778816	68	4184
2026-01-08 10:24:32.41	183.20	23.64	-50.9	-52.5	14.9	0.00e+00	0	27	0	385875968	68	4200
2026-01-08 10:24:33.28	183.28	23.76	-50.8	-52.3	15.0	0.00e+00	0	27	0	387973120	68	4138
2026-01-08 10:24:34.43	183.39	23.92	-50.8	-52.3	15.0	0.00e+00	0	27	0	390070272	68	4139
2026-01-08 10:24:35.29	183.48	24.05	-50.8	-52.3	15.0	0.00e+00	0	27	0	391118848	68	4126
2026-01-08 10:24:36.45	183.60	24.22	-50.9	-52.4	15.0	0.00e+00	0	27	0	393216000	68	4156
2026-01-08 10:24:37.32	183.68	24.34	-50.8	-52.3	15.0	0.00e+00	0	27	0	395313152	68	4141
2026-01-08 10:24:38.47	183.80	24.51	-50.9	-52.4	15.0	0.00e+00	0	27	0	397410304	68	4150
2026-01-08 10:24:39.33	183.89	24.64	-50.8	-52.3	15.0	0.00e+00	0	27	0	399507456	68	4143
2026-01-08 10:24:40.49	184.01	24.81	-50.8	-52.3	15.0	0.00e+00	0	27	0	401604608	68	4117
2026-01-08 10:24:41.35	184.10	24.94	-50.7	-52.2	15.0	0.00e+00	0	27	0	402653184	68	4082
2026-01-08 10:24:42.50	184.22	25.11	-50.8	-52.2	15.0	0.00e+00	0	27	0	404750336	68	4089
2026-01-08 10:24:43.36	184.31	25.24	-50.5	-52.0	15.0	0.00e+00	0	27	0	406847488	67	4214
2026-01-08 10:24:44.52	184.44	25.41	-50.6	-52.1	14.9	0.00e+00	0	27	0	408944640	67	4262
2026-01-08 10:24:45.38	184.53	25.54	-50.7	-52.2	14.9	0.00e+00	0	27	0	409993216	67	4314
2026-01-08 10:24:46.53	184.66	25.72	-50.6	-52.1	14.9	0.00e+00	0	27	0	413138944	67	4283
2026-01-08 10:24:47.39	184.75	25.85	-50.8	-52.3	14.8	0.00e+00	0	27	0	414187520	67	4387
2026-01-08 10:24:48.55	184.88	26.02	-50.8	-52.3	14.8	0.00e+00	0	27	0	416284672	67	4371
2026-01-08 10:24:49.41	184.98	26.16	-50.8	-52.4	14.8	0.00e+00	0	27	0	418381824	67	4401
2026-01-08 10:24:50.57	185.11	26.34	-50.9	-52.5	14.8	0.00e+00	0	27	0	420478976	67	4442
2026-01-08 10:24:51.43	185.21	26.47	-50.9	-52.4	14.8	0.00e+00	0	27	0	421527552	67	4410
2026-01-08 10:24:52.58	185.35	26.65	-50.9	-52.5	14.8	0.00e+00	0	27	0	423624704	67	4452
2026-01-08 10:24:53.44	185.45	26.79	-51.0	-52.6	14.7	0.00e+00	0	27	0	425721856	67	4494
2026-01-08 10:24:54.60	185.59	26.97	-51.0	-52.6	14.8	0.00e+00	0	27	0	427819008	67	4504
2026-01-08 10:24:55.46	185.69	27.11	-51.1	-52.6	14.8	0.00e+00	0	27	0	428867584	67	4529
2026-01-08 10:24:56.61	185.83	27.29	-51.1	-52.7	14.7	0.00e+00	0	27	0	430964736	67	4573
2026-01-08 10:24:57.47	185.93	27.43	-51.2	-52.8	14.7	0.00e+00	0	27	0	433061888	67	4618
2026-01-08 10:24:58.63	186.07	27.62	-51.3	-52.9	14.6	0.00e+00	0	27	0	435159040	67	4658
2026-01-08 10:24:59.48	186.18	27.76	-51.3	-53.0	14.6	0.00e+00	0	27	0	437256192	67	4713
2026-01-08 10:25:00.64	186.33	27.95	-51.3	-52.9	14.6	0.00e+00	0	27	0	439353344	67	4704
2026-01-08 10:25:01.50	186.44	28.09	-51.4	-53.0	14.6	0.00e+00	0	27	0	440401920	67	4745
2026-01-08 10:25:02.65	186.58	28.28	-51.8	-53.5	14.6	0.00e+00	0	27	0	442499072	68	4712
2026-01-08 10:25:03.52	186.70	28.42	-51.9	-53.5	14.5	0.00e+00	0	27	0	444596224	68	4755
2026-01-08 10:25:04.67	186.85	28.61	-52.2	-53.9	14.5	0.00e+00	0	27	0	446693376	69	4703
2026-01-08 10:25:05.53	186.96	28.76	-52.4	-54.2	14.4	0.00e+00	0	27	0	448790528	69	4845
2026-01-08 10:25:06.68	187.11	28.95	-52.6	-54.4	14.4	0.00e+00	0	27	0	450887680	70	4699
2026-01-08 10:25:07.54	187.23	29.09	-52.7	-54.6	14.4	0.00e+00	0	27	0	451936256	70	4774
2026-01-08 10:25:08.69	187.39	29.29	-52.9	-54.8	14.2	0.00e+00	0	27	0	454033408	70	4902
2026-01-08 10:25:09.55	187.50	29.44	-53.1	-55.0	14.2	0.00e+00	0	27	0	456130560	71	4741
2026-01-08 10:25:10.70	187.66	29.63	-53.2	-55.1	14.2	0.00e+00	0	27	0	458227712	71	4810
2026-01-08 10:25:11.57	187.79	29.78	-53.3	-55.3	14.1	0.00e+00	0	27	0	459276288	71	4897
2026-01-08 10:25:12.72	187.95	29.98	-53.4	-55.5	14.1	0.00e+00	0	27	0	461373440	72	4720
2026-01-08 10:25:13.58	188.07	30.13	-53.7	-55.8	14.0	0.00e+00	0	27	0	463470592	72	4895
2026-01-08 10:25:14.73	188.24	30.34	-53.9	-56.1	13.9	0.00e+00	0	27	0	465567744	73	4808
2026-01-08 10:25:15.59	188.37	30.49	-54.2	-56.5	13.8	0.00e+00	0	27	0	466616320	73	4988
2026-01-08 10:25:16.74	188.54	30.69	-54.3	-56.7	13.7	0.00e+00	0	27	0	469762048	73	5114
2026-01-08 10:25:17.61	188.67	30.85	-54.5	-57.0	13.6	0.00e+00	0	27	0	470810624	74	4994
2026-01-08 10:25:18.76	188.84	31.05	-54.6	-57.1	13.6	0.00e+00	0	27	0	472907776	74	5048
2026-01-08 10:25:19.62	188.97	31.21	-54.7	-57.2	13.5	0.00e+00	0	27	0	475004928	74	5123
2026-01-08 10:25:20.78	189.15	31.42	-54.8	-57.5	13.4	0.00e+00	0	27	0	477102080	74	5281
2026-01-08 10:25:21.64	189.29	31.57	-54.8	-57.4	13.4	0.00e+00	0	27	0	478150656	74	5229
2026-01-08 10:25:22.79	189.47	31.78	-54.9	-57.5	13.4	0.00e+00	0	27	0	480247808	75	5022
2026-01-08 10:25:23.66	189.61	31.94	-54.9	-57.5	13.4	0.00e+00	0	27	0	482344960	75	5033
2026-01-08 10:25:24.81	189.79	32.15	-54.7	-57.2	13.6	0.00e+00	0	27	0	484442112	75	4835
2026-01-08 10:25:25.67	189.93	32.31	-54.7	-57.2	13.6	0.00e+00	0	27	0	486539264	75	4837
2026-01-08 10:25:26.82	190.12	32.53	-54.7	-57.1	13.6	0.00e+00	0	27	0	488636416	75	4805
2026-01-08 10:25:27.69	190.27	32.69	-54.5	-56.9	13.8	0.00e+00	0	27	0	489684992	75	4705
2026-01-08 10:25:28.84	190.46	32.90	-54.3	-56.6	14.0	0.00e+00	0	27	0	491782144	75	4516
2026-01-08 10:25:29.70	190.61	33.07	-54.1	-56.4	13.9	0.00e+00	0	27	0	493879296	74	4678
2026-01-08 10:25:30.85	190.81	33.29	-54.2	-56.4	13.9	0.00e+00	0	27	0	495976448	74	4689
2026-01-08 10:25:31.72	190.96	33.45	-53.9	-56.0	14.1	0.00e+00	0	27	0	497025024	74	4488
2026-01-08 10:25:32.87	191.17	33.67	-53.7	-55.8	14.2	0.00e+00	0	27	0	499122176	74	4389
2026-01-08 10:25:33.73	191.32	33.84	-53.8	-55.9	14.2	0.00e+00	0	27	0	501219328	74	4392
2026-01-08 10:25:34.88	191.53	34.06	-53.8	-56.0	14.2	0.00e+00	0	27	0	503316480	74	4447
2026-01-08 10:25:35.74	191.69	34.23	-53.9	-56.0	14.1	0.00e+00	0	27	0	505413632	74	4489
2026-01-08 10:25:36.90	191.90	34.45	-54.0	-56.1	14.1	0.00e+00	0	27	0	507510784	74	4535
2026-01-08 10:25:37.76	192.06	34.62	-53.9	-56.0	14.2	0.00e+00	0	27	0	508559360	74	4456
2026-01-08 10:25:38.92	192.28	34.85	-54.0	-56.2	14.1	0.00e+00	0	27	0	510656512	74	4548
2026-01-08 10:25:39.78	192.45	35.02	-54.0	-56.2	14.1	0.00e+00	0	27	0	512753664	74	4562
2026-01-08 10:25:40.93	192.67	35.25	-53.9	-56.1	14.1	0.00e+00	0	27	0	514850816	74	4508
2026-01-08 10:25:41.79	192.84	35.42	-53.8	-56.0	14.2	0.00e+00	0	27	0	515899392	74	4457
2026-01-08 10:25:42.93	193.07	35.65	-53.9	-56.0	14.1	0.00e+00	0	27	0	517996544	74	4493
2026-01-08 10:25:43.80	193.24	35.82	-53.9	-56.0	14.2	0.00e+00	0	27	0	520093696	74	4458
2026-01-08 10:25:44.94	193.48	36.05	-53.5	-55.5	14.3	0.00e+00	0	27	0	522190848	73	4476
2026-01-08 10:25:45.81	193.66	36.23	-53.5	-55.5	14.3	0.00e+00	0	27	0	523239424	73	4449
2026-01-08 10:25:46.96	193.90	36.47	-53.3	-55.2	14.4	0.00e+00	0	27	0	526385152	73	4340
2026-01-08 10:25:47.82	194.08	36.64	-53.3	-55.2	14.4	0.00e+00	0	27	0	527433728	73	4333
2026-01-08 10:25:48.97	194.32	36.88	-53.1	-55.0	14.4	0.00e+00	0	27	0	529530880	72	4474
2026-01-08 10:25:49.84	194.51	37.06	-53.1	-55.0	14.4	0.00e+00	0	27	0	531628032	72	4442
2026-01-08 10:25:50.99	194.77	37.30	-53.1	-55.0	14.4	0.00e+00	0	27	0	533725184	72	4457
2026-01-08 10:25:51.85	194.96	37.48	-53.1	-55.0	14.4	0.00e+00	0	27	0	534773760	72	4443
2026-01-08 10:25:53.00	195.22	37.72	-53.1	-55.0	14.4	0.00e+00	0	27	0	536870912	72	4490
2026-01-08 10:25:53.87	195.42	37.90	-53.2	-55.1	14.4	0.00e+00	0	27	0	538968064	72	4511
2026-01-08 10:25:55.01	195.68	38.14	-53.3	-55.3	14.3	0.00e+00	0	27	0	541065216	72	4600
2026-01-08 10:25:55.88	195.88	38.33	-53.4	-55.4	14.2	0.00e+00	0	27	0	543162368	72	4656
2026-01-08 10:25:57.03	196.16	38.57	-53.4	-55.4	14.2	0.00e+00	0	27	0	545259520	72	4681
2026-01-08 10:25:57.88	196.36	38.75	-53.4	-55.4	14.2	0.00e+00	0	27	0	546308096	72	4661
2026-01-08 10:25:59.03	196.64	39.00	-53.3	-55.2	14.3	0.00e+00	0	27	0	548405248	72	4594
2026-01-08 10:25:59.89	196.85	39.18	-53.1	-55.0	14.4	0.00e+00	0	27	0	550502400	72	4477
2026-01-08 10:26:01.04	197.14	39.43	-52.8	-54.6	14.6	0.00e+00	0	27	0	552599552	72	4280
2026-01-08 10:26:01.90	197.36	39.62	-52.8	-54.6	14.6	0.00e+00	0	27	0	553648128	72	4254
2026-01-08 10:26:03.05	197.65	39.87	-52.5	-54.3	14.6	0.00e+00	0	27	0	555745280	71	4359
2026-01-08 10:26:03.92	197.88	40.06	-52.1	-53.8	14.7	0.00e+00	0	27	0	557842432	70	4348
2026-01-08 10:26:05.06	198.18	40.30	-52.0	-53.6	14.8	0.00e+00	0	27	0	559939584	70	4290
2026-01-08 10:26:05.93	198.41	40.50	-51.9	-53.6	14.8	0.00e+00	0	27	0	562036736	70	4253
2026-01-08 10:26:07.08	198.72	40.75	-52.1	-53.7	14.7	0.00e+00	0	27	0	564133888	70	4317
2026-01-08 10:26:07.94	198.96	40.94	-52.3	-54.0	14.6	0.00e+00	0	27	0	565182464	70	4453
2026-01-08 10:26:09.09	199.28	41.19	-52.3	-54.1	14.6	0.00e+00	0	27	0	567279616	70	4507
2026-01-08 10:26:09.96	199.52	41.39	-52.4	-54.1	14.6	0.00e+00	0	27	0	569376768	70	4525
2026-01-08 10:26:11.11	199.85	41.64	-52.5	-54.3	14.5	0.00e+00	0	27	0	571473920	70	4601
2026-01-08 10:26:11.97	200.10	41.83	-52.4	-54.1	14.6	0.00e+00	0	27	0	572522496	70	4523
2026-01-08 10:26:13.12	200.44	42.09	-52.3	-54.0	14.6	0.00e+00	0	27	0	574619648	70	4448
2026-01-08 10:26:13.98	200.69	42.28	-52.4	-54.1	14.6	0.00e+00	0	27	0	576716800	70	4522
2026-01-08 10:26:15.12	201.04	42.54	-52.3	-54.0	14.6	0.00e+00	0	27	0	578813952	70	4486
2026-01-08 10:26:15.98	201.30	42.73	-52.5	-54.2	14.5	0.00e+00	0	27	0	579862528	70	4575
2026-01-08 10:26:17.13	201.65	42.99	-52.8	-54.6	14.4	0.00e+00	0	27	0	583008256	70	4790
2026-01-08 10:26:17.99	201.93	43.19	-52.7	-54.5	14.4	0.00e+00	0	27	0	584056832	70	4758
2026-01-08 10:26:19.15	202.29	43.45	-52.8	-54.6	14.4	0.00e+00	0	27	0	586153984	70	4778
2026-01-08 10:26:20.01	202.57	43.64	-52.8	-54.6	14.4	0.00e+00	0	27	0	588251136	70	4770
2026-01-08 10:26:21.16	202.95	43.90	-52.9	-54.7	14.5	0.00e+00	0	27	0	590348288	71	4547
2026-01-08 10:26:22.03	203.24	44.10	-52.8	-54.7	14.5	0.00e+00	0	27	0	591396864	71	4548
2026-01-08 10:26:23.18	203.63	44.36	-53.3	-55.2	14.2	0.00e+00	0	27	0	593494016	71	4851
2026-01-08 10:26:24.05	203.92	44.56	-53.5	-55.5	14.2	0.00e+00	0	27	0	595591168	72	4738
2026-01-08 10:26:25.20	204.32	44.82	-53.9	-56.0	14.0	0.00e+00	0	27	0	597688320	72	5018
2026-01-08 10:26:26.06	204.63	45.02	-54.1	-56.2	13.9	0.00e+00	0	27	0	598736896	73	4869
2026-01-08 10:26:27.21	205.04	45.28	-54.1	-56.3	13.8	0.00e+00	0	27	0	601882624	73	4890
2026-01-08 10:26:28.08	205.35	45.48	-54.4	-56.6	13.8	0.00e+00	0	27	0	602931200	73	5092
2026-01-08 10:26:29.23	205.77	45.74	-54.2	-56.4	13.9	0.00e+00	0	27	0	605028352	73	4933
2026-01-08 10:26:30.09	206.10	45.94	-54.2	-56.4	13.9	0.00e+00	0	27	0	607125504	73	4960
2026-01-08 10:26:31.24	206.53	46.20	-54.4	-56.7	13.7	0.00e+00	0	27	0	609222656	73	5110
2026-01-08 10:26:32.11	206.86	46.40	-54.5	-56.8	13.8	0.00e+00	0	27	0	610271232	74	4898
2026-01-08 10:26:33.26	207.31	46.67	-54.9	-57.4	13.6	0.00e+00	0	27	0	612368384	75	4968
2026-01-08 10:26:34.13	207.66	46.86	-55.3	-58.0	13.3	0.00e+00	0	27	0	614465536	75	5324
2026-01-08 10:26:35.27	208.11	47.12	-55.9	-58.9	12.9	0.00e+00	0	27	0	616562688	77	5269
2026-01-08 10:26:36.14	208.47	47.32	-56.3	-59.5	12.6	0.00e+00	0	27	0	618659840	77	5649
2026-01-08 10:26:37.29	208.94	47.58	-56.3	-59.6	12.5	0.00e+00	0	27	0	620756992	77	5712
2026-01-08 10:26:38.15	209.30	47.78	-56.3	-59.6	12.5	0.00e+00	0	27	0	621805568	77	5673
2026-01-08 10:26:39.31	209.79	48.04	-56.2	-59.5	12.6	0.00e+00	0	27	0	623902720	77	5598
2026-01-08 10:26:40.17	210.16	48.23	-56.2	-59.4	12.5	0.00e+00	0	27	0	625999872	77	5573
2026-01-08 10:26:41.32	210.67	48.49	-56.7	-60.4	12.1	0.00e+00	0	27	0	628097024	78	5864
2026-01-08 10:26:42.19	211.05	48.69	-57.1	-61.3	11.6	7.00e-07	0	27	0	629145600	79	6141
2026-01-08 10:26:43.34	211.57	48.95	-57.1	-61.2	11.7	1.75e-05	0	27	0	631242752	79	6070
2026-01-08 10:26:44.21	211.97	49.14	-56.8	-60.5	12.0	2.20e-06	0	27	0	633339904	79	5655
2026-01-08 10:26:45.36	212.50	49.40	-56.3	-59.6	12.7	0.00e+00	0	27	0	635437056	79	5082
2026-01-08 10:26:46.22	212.90	49.59	-55.9	-58.9	13.1	0.00e+00	0	27	0	637534208	78	4928
2026-01-08 10:26:47.38	213.46	49.84	-55.4	-58.1	13.5	0.00e+00	0	27	0	639631360	77	4770
2026-01-08 10:26:48.24	213.87	50.03	-55.4	-58.1	13.5	0.00e+00	0	27	0	640679936	77	4796
2026-01-08 10:26:49.40	214.44	50.29	-55.4	-58.0	13.5	0.00e+00	0	27	0	642777088	77	4747
2026-01-08 10:26:50.26	214.87	50.47	-55.3	-57.9	13.6	0.00e+00	0	27	0	644874240	77	4695
2026-01-08 10:26:51.41	215.45	50.72	-54.9	-57.4	13.7	0.00e+00	0	27	0	646971392	76	4665
2026-01-08 10:26:52.28	215.90	50.91	-54.5	-56.7	14.0	0.00e+00	0	27	0	648019968	75	4595
2026-01-08 10:26:53.43	216.49	51.15	-53.7	-55.7	14.4	0.00e+00	0	27	0	650117120	74	4310
2026-01-08 10:26:54.29	216.95	51.33	-53.3	-55.2	14.5	0.00e+00	0	27	0	652214272	73	4299
2026-01-08 10:26:55.43	217.56	51.57	-53.0	-54.9	14.5	0.00e+00	0	27	0	654311424	72	4412
2026-01-08 10:26:56.30	218.03	51.76	-52.9	-54.6	14.6	0.00e+00	0	27	0	656408576	72	4289
2026-01-08 10:26:57.45	218.66	51.99	-52.8	-54.6	14.7	0.00e+00	0	27	0	658505728	72	4258
2026-01-08 10:26:58.31	219.14	52.17	-52.9	-54.7	14.6	0.00e+00	0	27	0	659554304	72	4310
2026-01-08 10:26:59.46	219.79	52.40	-52.8	-54.6	14.6	0.00e+00	0	27	0	661651456	72	4247
2026-01-08 10:27:00.32	220.28	52.58	-52.7	-54.4	14.7	0.00e+00	0	27	0	663748608	72	4179
2026-01-08 10:27:01.47	220.95	52.80	-52.3	-54.0	14.8	0.00e+00	0	27	0	665845760	71	4203
2026-01-08 10:27:02.33	221.45	52.97	-52.3	-54.0	14.8	0.00e+00	0	27	0	666894336	71	4199
2026-01-08 10:27:03.49	222.15	53.20	-52.4	-54.1	14.7	0.00e+00	0	27	0	668991488	71	4269
2026-01-08 10:27:04.35	222.66	53.36	-52.7	-54.4	14.6	0.00e+00	0	27	0	671088640	71	4430
2026-01-08 10:27:05.51	223.37	53.58	-52.5	-54.2	14.7	0.00e+00	0	27	0	673185792	71	4322
2026-01-08 10:27:06.37	223.91	53.74	-52.1	-53.8	14.7	0.00e+00	0	27	0	675282944	70	4351
2026-01-08 10:27:07.53	224.64	53.96	-51.9	-53.5	14.8	0.00e+00	0	27	0	677380096	70	4227
2026-01-08 10:27:08.39	225.18	54.11	-51.9	-53.6	14.8	0.00e+00	0	27	0	678428672	70	4244
2026-01-08 10:27:09.54	225.92	54.32	-52.1	-53.7	14.7	0.00e+00	0	27	0	680525824	70	4339
2026-01-08 10:27:10.40	226.48	54.47	-52.3	-54.0	14.7	0.00e+00	0	27	0	682622976	70	4460
2026-01-08 10:27:11.55	227.24	54.67	-52.5	-54.3	14.6	0.00e+00	0	27	0	684720128	70	4606
2026-01-08 10:27:12.41	227.82	54.81	-52.6	-54.3	14.5	0.00e+00	0	27	0	685768704	70	4628
2026-01-08 10:27:13.56	228.59	55.00	-52.1	-53.7	14.8	0.00e+00	0	27	0	687865856	70	4315
2026-01-08 10:27:14.42	229.18	55.14	-51.7	-53.3	14.9	0.00e+00	0	27	0	689963008	70	4112
2026-01-08 10:27:15.57	229.98	55.32	-51.8	-53.4	14.9	0.00e+00	0	27	0	692060160	70	4161
2026-01-08 10:27:16.43	230.58	55.45	-52.3	-54.0	14.6	0.00e+00	0	27	0	694157312	70	4477
2026-01-08 10:27:17.58	231.39	55.63	-52.7	-54.5	14.4	0.00e+00	0	27	0	696254464	70	4710
2026-01-08 10:27:18.44	232.00	55.76	-52.7	-54.5	14.4	0.00e+00	0	27	0	697303040	70	4739
2026-01-08 10:27:19.59	232.83	55.92	-52.2	-53.8	14.8	0.00e+00	0	27	0	699400192	70	4364
2026-01-08 10:27:20.46	233.47	56.04	-52.2	-53.9	14.7	0.00e+00	0	27	0	701497344	70	4400
2026-01-08 10:27:21.61	234.31	56.20	-52.2	-53.8	14.8	0.00e+00	0	27	0	703594496	70	4389
2026-01-08 10:27:22.47	234.95	56.31	-52.3	-54.0	14.7	0.00e+00	0	27	0	704643072	70	4470
2026-01-08 10:27:23.62	235.81	56.45	-52.6	-54.3	14.5	0.00e+00	0	27	0	706740224	70	4618
2026-01-08 10:27:24.48	236.47	56.56	-52.6	-54.3	14.5	0.00e+00	0	27	0	708837376	70	4636
2026-01-08 10:27:25.63	237.34	56.69	-52.6	-54.4	14.5	0.00e+00	0	27	0	710934528	70	4672
2026-01-08 10:27:26.50	238.01	56.79	-52.4	-54.0	14.6	0.00e+00	0	27	0	713031680	70	4481
2026-01-08 10:27:27.65	238.90	56.92	-52.4	-54.1	14.6	0.00e+00	0	27	0	715128832	70	4528
2026-01-08 10:27:28.51	239.58	57.00	-52.7	-54.4	14.5	0.00e+00	0	27	0	716177408	70	4685
2026-01-08 10:27:29.67	240.49	57.12	-52.8	-54.5	14.4	0.00e+00	0	27	0	718274560	70	4753
2026-01-08 10:27:30.53	241.17	57.20	-52.9	-54.7	14.4	0.00e+00	0	27	0	720371712	70	4843
2026-01-08 10:27:31.68	242.09	57.30	-53.8	-55.9	14.1	0.00e+00	0	27	0	722468864	72	4961
2026-01-08 10:27:32.54	242.78	57.37	-54.0	-56.1	14.1	0.00e+00	0	27	0	723517440	73	4808
2026-01-08 10:27:33.70	243.72	57.46	-53.9	-56.0	14.2	0.00e+00	0	27	0	725614592	73	4717
2026-01-08 10:27:34.56	244.42	57.52	-54.0	-56.1	14.1	0.00e+00	0	27	0	727711744	73	4794
2026-01-08 10:27:35.71	245.35	57.60	-55.1	-57.6	13.5	0.00e+00	0	27	0	729808896	75	5083
2026-01-08 10:27:36.58	246.07	57.65	-55.8	-58.7	13.1	0.00e+00	0	27	0	731906048	76	5427
2026-01-08 10:27:37.72	247.01	57.72	-55.6	-58.3	13.3	0.00e+00	0	27	0	734003200	76	5165
2026-01-08 10:27:38.59	247.73	57.76	-55.3	-57.9	13.5	0.00e+00	0	27	0	735051776	76	4974
2026-01-08 10:27:39.74	248.68	57.81	-55.0	-57.3	13.8	0.00e+00	0	27	0	737148928	76	4645
2026-01-08 10:27:40.60	249.40	57.85	-54.6	-56.8	14.0	0.00e+00	0	27	0	739246080	75	4645
2026-01-08 10:27:41.75	250.36	57.88	-55.0	-57.4	13.7	0.00e+00	0	27	0	741343232	75	4936
2026-01-08 10:27:42.62	251.09	57.91	-55.3	-57.9	13.3	0.00e+00	0	27	0	742391808	75	5234
2026-01-08 10:27:43.77	252.05	57.93	-55.3	-57.8	13.6	0.00e+00	0	27	0	744488960	76	4878
2026-01-08 10:27:44.64	252.78	57.95	-54.8	-57.1	13.9	0.00e+00	0	27	0	746586112	76	4538
2026-01-08 10:27:45.79	253.75	57.96	-54.9	-57.4	13.6	0.00e+00	0	27	0	748683264	75	4941
2026-01-08 10:27:46.65	254.47	57.97	-55.4	-58.0	13.4	0.00e+00	0	27	0	750780416	75	5324
2026-01-08 10:27:47.80	255.44	57.96	-55.1	-57.7	13.5	0.00e+00	0	27	0	752877568	75	5105
2026-01-08 10:27:48.67	256.17	57.96	-55.1	-57.6	13.6	0.00e+00	0	27	0	753926144	75	5086
2026-01-08 10:27:49.82	257.13	57.95	-55.6	-58.3	13.3	0.00e+00	0	27	0	756023296	76	5184
2026-01-08 10:27:50.68	257.86	57.93	-55.0	-57.4	13.8	0.00e+00	0	27	0	758120448	76	4693
2026-01-08 10:27:51.84	258.83	57.90	-54.4	-56.7	14.1	0.00e+00	0	27	0	760217600	75	4548
2026-01-08 10:27:52.70	259.55	57.88	-54.4	-56.6	14.1	0.00e+00	0	27	0	761266176	75	4530
2026-01-08 10:27:53.85	260.51	57.84	-53.5	-55.5	14.4	0.00e+00	0	27	0	763363328	73	4450
2026-01-08 10:27:54.72	261.23	57.80	-52.9	-54.6	14.6	0.00e+00	0	27	0	765460480	72	4273
2026-01-08 10:27:55.87	262.18	57.75	-53.0	-54.7	14.6	0.00e+00	0	27	0	767557632	72	4333
2026-01-08 10:27:56.73	262.89	57.70	-53.8	-55.8	14.1	0.00e+00	0	27	0	769654784	72	4879
2026-01-08 10:27:57.88	263.84	57.64	-54.2	-56.3	14.0	0.00e+00	0	27	0	771751936	73	4900
2026-01-08 10:27:58.74	264.54	57.58	-53.9	-56.0	14.1	0.00e+00	0	27	0	772800512	73	4731
2026-01-08 10:27:59.89	265.48	57.50	-54.0	-56.1	14.2	0.00e+00	0	27	0	774897664	73	4784
2026-01-08 10:28:00.75	266.18	57.44	-54.6	-56.9	13.8	0.00e+00	0	27	0	776994816	74	4961
2026-01-08 10:28:01.90	267.11	57.35	-55.3	-58.0	13.3	0.00e+00	0	27	0	779091968	75	5289
2026-01-08 10:28:02.76	267.79	57.28	-56.1	-59.2	13.0	0.00e+00	0	27	0	780140544	77	5410
2026-01-08 10:28:03.91	268.71	57.18	-56.7	-60.3	12.3	0.00e+00	0	27	0	783286272	78	5803
2026-01-08 10:28:04.78	269.40	57.09	-56.5	-59.8	12.5	7.00e-07	0	27	0	784334848	78	5517
2026-01-08 10:28:05.93	270.30	56.98	-56.2	-59.3	12.9	0.00e+00	0	27	0	786432000	78	5197
2026-01-08 10:28:06.80	270.98	56.89	-56.5	-59.7	12.7	0.00e+00	0	27	0	788529152	78	5439
2026-01-08 10:28:07.95	271.87	56.76	-55.6	-58.2	13.4	0.00e+00	0	27	0	790626304	77	4863
2026-01-08 10:28:08.81	272.53	56.67	-54.9	-57.3	13.8	0.00e+00	0	27	0	791674880	76	4602
2026-01-08 10:28:09.96	273.40	56.53	-54.8	-57.0	14.0	0.00e+00	0	27	0	793772032	76	4482
2026-01-08 10:28:10.82	274.05	56.43	-55.2	-57.6	13.7	0.00e+00	0	27	0	795869184	76	4793
2026-01-08 10:28:11.97	274.91	56.28	-55.6	-58.3	13.3	0.00e+00	0	27	0	797966336	76	5215
2026-01-08 10:28:12.84	275.56	56.17	-55.1	-57.5	13.7	0.00e+00	0	27	0	799014912	76	4746
2026-01-08 10:28:13.99	276.40	56.01	-54.4	-56.5	14.1	0.00e+00	0	27	0	801112064	75	4470
2026-01-08 10:28:14.85	277.02	55.89	-53.9	-55.9	14.4	0.00e+00	0	27	0	803209216	74	4395
2026-01-08 10:28:15.99	277.84	55.72	-53.5	-55.5	14.4	0.00e+00	0	27	0	805306368	73	4462
2026-01-08 10:28:16.86	278.46	55.60	-53.6	-55.5	14.4	0.00e+00	0	27	0	807403520	73	4475
2026-01-08 10:28:18.01	279.27	55.42	-52.7	-54.5	14.7	0.00e+00	0	27	0	809500672	72	4200
2026-01-08 10:28:18.87	279.87	55.29	-52.0	-53.6	14.8	0.00e+00	0	27	0	810549248	70	4273
2026-01-08 10:28:20.02	280.66	55.11	-51.6	-53.1	14.9	0.00e+00	0	27	0	812646400	69	4254
2026-01-08 10:28:20.89	281.25	54.96	-51.1	-52.5	15.0	0.00e+00	0	27	0	814743552	68	4224
2026-01-08 10:28:22.04	282.03	54.77	-50.8	-52.2	15.1	0.00e+00	0	27	0	816840704	68	4077
2026-01-08 10:28:22.90	282.60	54.63	-50.6	-52.0	15.0	0.00e+00	0	27	0	817889280	67	4237
2026-01-08 10:28:24.05	283.35	54.43	-50.2	-51.6	15.1	0.00e+00	0	27	0	819986432	67	4021
2026-01-08 10:28:24.92	283.92	54.28	-50.1	-51.4	15.1	0.00e+00	0	27	0	822083584	66	4167
2026-01-08 10:28:26.07	284.66	54.07	-49.5	-50.8	15.1	0.00e+00	0	27	0	824180736	65	4125
2026-01-08 10:28:26.93	285.20	53.92	-49.6	-50.8	15.1	0.00e+00	0	27	0	826277888	65	4141
2026-01-08 10:28:28.08	285.92	53.70	-50.0	-51.3	15.0	0.00e+00	0	27	0	828375040	65	4368
2026-01-08 10:28:28.95	286.46	53.54	-49.9	-51.2	15.0	0.00e+00	0	27	0	829423616	65	4334
2026-01-08 10:28:30.10	287.16	53.32	-49.6	-50.9	15.1	0.00e+00	0	27	0	831520768	65	4155
2026-01-08 10:28:30.97	287.68	53.16	-49.6	-50.9	15.1	0.00e+00	0	27	0	833617920	65	4167
2026-01-08 10:28:32.12	288.36	52.93	-49.8	-51.1	15.1	0.00e+00	0	27	0	835715072	65	4255
2026-01-08 10:28:32.98	288.87	52.77	-50.0	-51.3	15.0	0.00e+00	0	27	0	836763648	65	4360
2026-01-08 10:28:34.13	289.53	52.54	-50.9	-52.3	14.8	0.00e+00	0	27	0	839909376	66	4626
2026-01-08 10:28:35.00	290.03	52.36	-51.3	-52.8	14.7	0.00e+00	0	27	0	840957952	67	4621
2026-01-08 10:28:36.15	290.67	52.13	-51.3	-52.8	14.7	0.00e+00	0	27	0	843055104	67	4629
2026-01-08 10:28:37.01	291.15	51.95	-51.2	-52.7	14.8	0.00e+00	0	27	0	845152256	67	4571
2026-01-08 10:28:38.16	291.78	51.72	-52.1	-53.7	14.7	0.00e+00	0	27	0	847249408	69	4548
2026-01-08 10:28:39.03	292.25	51.53	-53.2	-55.1	14.4	0.00e+00	0	27	0	848297984	71	4768
2026-01-08 10:28:40.18	292.86	51.29	-54.5	-56.8	13.9	0.00e+00	0	27	0	850395136	74	4889
2026-01-08 10:28:41.04	293.31	51.11	-54.3	-56.5	14.0	0.00e+00	0	27	0	852492288	74	4739
2026-01-08 10:28:42.19	293.90	50.87	-53.6	-55.5	14.4	0.00e+00	0	27	0	854589440	73	4468
2026-01-08 10:28:43.06	294.35	50.68	-53.5	-55.4	14.4	0.00e+00	0	27	0	855638016	73	4424
2026-01-08 10:28:44.21	294.92	50.43	-54.7	-57.0	13.7	0.00e+00	0	27	0	857735168	74	5032
2026-01-08 10:28:45.07	295.35	50.25	-56.3	-59.5	12.7	0.00e+00	0	27	0	859832320	77	5615
2026-01-08 10:28:46.22	295.91	49.99	-56.8	-60.3	12.2	3.00e-06	0	27	0	861929472	79	5525
2026-01-08 10:28:47.09	296.33	49.80	-55.6	-58.3	13.4	0.00e+00	0	27	0	864026624	77	4900
2026-01-08 10:28:48.24	296.88	49.55	-54.8	-57.1	13.9	0.00e+00	0	27	0	866123776	76	4526
2026-01-08 10:28:49.10	297.28	49.36	-55.2	-57.6	13.7	0.00e+00	0	27	0	867172352	76	4791
2026-01-08 10:28:50.25	297.81	49.11	-55.6	-58.3	13.3	0.00e+00	0	27	0	869269504	76	5198
2026-01-08 10:28:51.12	298.20	48.91	-56.0	-58.9	13.1	0.00e+00	0	27	0	871366656	77	5248
2026-01-08 10:28:52.27	298.72	48.65	-56.0	-59.0	12.9	0.00e+00	0	27	0	873463808	77	5304
2026-01-08 10:28:53.14	299.10	48.46	-55.6	-58.3	13.4	0.00e+00	0	27	0	874512384	77	4899
2026-01-08 10:28:54.28	299.60	48.20	-55.0	-57.4	13.8	0.00e+00	0	27	0	877658112	76	4653
2026-01-08 10:28:55.15	299.97	48.01	-54.7	-56.9	14.1	0.00e+00	0	27	0	878706688	76	4410
2026-01-08 10:28:56.30	300.46	47.75	-55.1	-57.6	13.6	0.00e+00	0	27	0	880803840	75	5045
2026-01-08 10:28:57.16	300.81	47.55	-56.2	-59.2	12.9	0.00e+00	0	27	0	882900992	77	5411
2026-01-08 10:28:58.31	301.29	47.29	-56.9	-60.5	12.2	2.20e-06	0	28	0	884998144	79	5653
2026-01-08 10:28:59.18	301.64	47.10	-56.0	-59.0	13.1	0.00e+00	0	27	0	886046720	78	5017
2026-01-08 10:29:00.33	302.10	46.83	-54.5	-56.7	14.0	0.00e+00	0	27	0	888143872	75	4595
2026-01-08 10:29:01.19	302.43	46.64	-54.4	-56.6	14.1	0.00e+00	0	27	0	890241024	75	4498
2026-01-08 10:29:02.34	302.88	46.38	-54.5	-56.8	14.0	0.00e+00	0	27	0	892338176	75	4614
2026-01-08 10:29:03.21	303.21	46.18	-55.3	-57.9	13.5	0.00e+00	0	27	0	893386752	75	5224
2026-01-08 10:29:04.36	303.64	45.92	-55.9	-58.9	13.1	0.00e+00	0	27	0	896532480	77	5219
2026-01-08 10:29:05.22	303.96	45.72	-55.9	-58.8	13.1	0.00e+00	0	27	0	897581056	77	5209
2026-01-08 10:29:06.37	304.38	45.46	-54.9	-57.2	13.9	0.00e+00	0	27	0	899678208	76	4594
2026-01-08 10:29:07.23	304.69	45.26	-54.3	-56.5	14.2	0.00e+00	0	27	0	901775360	75	4449
2026-01-08 10:29:08.38	305.10	45.00	-53.9	-56.0	14.3	0.00e+00	0	27	0	903872512	74	4450
2026-01-08 10:29:09.24	305.40	44.81	-54.4	-56.6	14.0	0.00e+00	0	27	0	904921088	74	4786
2026-01-08 10:29:10.40	305.81	44.54	-55.0	-57.5	13.7	0.00e+00	0	27	0	907018240	75	4984
2026-01-08 10:29:11.26	306.10	44.35	-55.3	-57.9	13.4	0.00e+00	0	27	0	909115392	75	5266
2026-01-08 10:29:12.41	306.48	44.09	-54.9	-57.3	13.7	0.00e+00	0	27	0	911212544	75	4882
2026-01-08 10:29:13.27	306.77	43.89	-54.6	-56.8	13.9	0.00e+00	0	27	0	913309696	75	4643
2026-01-08 10:29:14.42	307.14	43.63	-54.6	-56.9	13.9	0.00e+00	0	27	0	915406848	75	4699
2026-01-08 10:29:15.29	307.42	43.44	-55.0	-57.4	13.7	0.00e+00	0	27	0	916455424	75	4968
2026-01-08 10:29:16.44	307.79	43.18	-54.9	-57.3	13.7	0.00e+00	0	27	0	918552576	75	4881
2026-01-08 10:29:17.30	308.06	42.98	-54.6	-56.8	13.9	0.00e+00	0	27	0	920649728	75	4624
2026-01-08 10:29:18.45	308.41	42.73	-54.4	-56.6	14.1	0.00e+00	0	27	0	922746880	75	4516
2026-01-08 10:29:19.32	308.68	42.53	-54.7	-57.0	13.9	0.00e+00	0	27	0	923795456	75	4746
2026-01-08 10:29:20.47	309.02	42.27	-55.7	-58.5	13.2	0.00e+00	0	27	0	925892608	76	5303
2026-01-08 10:29:21.33	309.28	42.08	-56.2	-59.2	12.8	0.00e+00	0	27	0	927989760	77	5458
2026-01-08 10:29:22.49	309.62	41.82	-55.5	-58.1	13.5	0.00e+00	0	27	0	930086912	77	4808
2026-01-08 10:29:23.35	309.86	41.63	-54.5	-56.7	14.0	0.00e+00	0	27	0	931135488	75	4592
2026-01-08 10:29:24.50	310.19	41.38	-53.9	-55.9	14.3	0.00e+00	0	27	0	934281216	74	4394
2026-01-08 10:29:25.36	310.43	41.19	-53.9	-55.9	14.3	0.00e+00	0	27	0	935329792	74	4430
2026-01-08 10:29:26.51	310.75	40.94	-54.6	-56.8	13.8	0.00e+00	0	27	0	937426944	74	4914
2026-01-08 10:29:27.37	310.99	40.75	-55.0	-57.5	13.6	0.00e+00	0	27	0	939524096	75	4994
2026-01-08 10:29:28.52	311.30	40.50	-55.3	-57.8	13.4	0.00e+00	0	27	0	941621248	75	5206
2026-01-08 10:29:29.39	311.53	40.31	-55.6	-58.4	13.2	0.00e+00	0	27	0	942669824	76	5245
2026-01-08 10:29:30.54	311.83	40.06	-55.6	-58.4	13.2	0.00e+00	0	27	0	944766976	76	5247
2026-01-08 10:29:31.40	312.05	39.87	-55.2	-57.8	13.5	0.00e+00	0	27	0	946864128	76	4881
2026-01-08 10:29:32.56	312.35	39.62	-54.2	-56.3	14.2	0.00e+00	0	27	0	948961280	75	4350
2026-01-08 10:29:33.42	312.56	39.43	-53.8	-55.8	14.3	0.00e+00	0	27	0	951058432	74	4374
2026-01-08 10:29:34.57	312.85	39.19	-53.9	-55.8	14.4	0.00e+00	0	27	0	953155584	74	4388
2026-01-08 10:29:35.44	313.06	39.00	-54.5	-56.8	13.9	0.00e+00	0	27	0	954204160	74	4891
2026-01-08 10:29:36.59	313.34	38.76	-55.9	-58.9	12.9	0.00e+00	0	27	0	956301312	76	5553
2026-01-08 10:29:37.45	313.55	38.57	-56.6	-60.0	12.4	0.00e+00	0	27	0	958398464	78	5652
2026-01-08 10:29:38.61	313.82	38.33	-55.9	-58.8	13.1	0.00e+00	0	27	0	960495616	78	4915
2026-01-08 10:29:39.47	314.02	38.15	-54.8	-57.1	13.9	0.00e+00	0	27	0	961544192	76	4541
2026-01-08 10:29:40.62	314.29	37.90	-54.3	-56.4	14.2	0.00e+00	0	27	0	963641344	75	4412
2026-01-08 10:29:41.48	314.48	37.73	-53.8	-55.7	14.4	0.00e+00	0	27	0	965738496	74	4340
2026-01-08 10:29:42.64	314.74	37.48	-53.7	-55.7	14.4	0.00e+00	0	27	0	967835648	74	4303
2026-01-08 10:29:43.50	314.93	37.31	-54.3	-56.5	14.0	0.00e+00	0	27	0	969932800	74	4759
2026-01-08 10:29:44.65	315.19	37.07	-55.6	-58.4	13.2	0.00e+00	0	27	0	972029952	76	5254
2026-01-08 10:29:45.51	315.37	36.89	-55.9	-58.9	13.0	0.00e+00	0	27	0	973078528	77	5277
2026-01-08 10:29:46.66	315.62	36.66	-55.6	-58.3	13.4	0.00e+00	0	27	0	975175680	77	4900
2026-01-08 10:29:47.53	315.80	36.48	-54.7	-57.0	14.0	0.00e+00	0	27	0	977272832	76	4450
2026-01-08 10:29:48.68	316.04	36.24	-53.4	-55.3	14.4	0.00e+00	0	27	0	979369984	73	4389
2026-01-08 10:29:49.54	316.22	36.07	-53.0	-54.8	14.6	0.00e+00	0	27	0	980418560	72	4348
2026-01-08 10:29:50.69	316.45	35.84	-52.6	-54.2	14.6	0.00e+00	0	27	0	982515712	71	4331
2026-01-08 10:29:51.55	316.62	35.67	-52.1	-53.7	14.7	0.00e+00	0	27	0	984612864	70	4331
2026-01-08 10:29:52.71	316.85	35.44	-52.1	-53.7	14.8	0.00e+00	0	27	0	986710016	70	4320
2026-01-08 10:29:53.56	317.02	35.27	-52.4	-54.1	14.6	0.00e+00	0	27	0	988807168	70	4523
2026-01-08 10:29:54.72	317.25	35.04	-53.3	-55.1	14.3	0.00e+00	0	27	0	990904320	71	4811
2026-01-08 10:29:55.58	317.41	34.87	-53.8	-55.9	14.1	0.00e+00	0	27	0	991952896	72	4944
2026-01-08 10:29:56.73	317.63	34.64	-54.6	-57.0	13.7	0.00e+00	0	27	0	994050048	74	5025
2026-01-08 10:29:57.59	317.79	34.47	-54.7	-57.1	13.7	0.00e+00	0	27	0	996147200	74	5087
2026-01-08 10:29:58.74	318.00	34.25	-54.5	-56.8	13.9	0.00e+00	0	27	0	998244352	74	4884
2026-01-08 10:29:59.60	318.16	34.09	-54.5	-56.8	13.8	0.00e+00	0	27	0	999292928	74	4895
2026-01-08 10:30:00.76	318.37	33.86	-54.4	-56.6	13.9	0.00e+00	0	27	0	1001390080	74	4783
2026-01-08 10:30:01.62	318.52	33.70	-54.3	-56.5	14.0	0.00e+00	0	27	0	1003487232	74	4729
2026-01-08 10:30:02.77	318.72	33.48	-53.7	-55.7	14.4	0.00e+00	0	27	0	1005584384	74	4310
2026-01-08 10:30:03.63	318.87	33.32	-54.1	-56.2	14.1	0.00e+00	0	27	0	1007681536	74	4551
2026-01-08 10:30:04.78	319.07	33.10	-54.2	-56.4	14.0	0.00e+00	0	27	0	1009778688	74	4684
2026-01-08 10:30:05.64	319.22	32.94	-54.3	-56.5	13.9	0.00e+00	0	27	0	1010827264	74	4737
2026-01-08 10:30:06.79	319.41	32.72	-54.6	-57.0	13.7	0.00e+00	0	27	0	1012924416	74	5009
2026-01-08 10:30:07.65	319.56	32.56	-54.7	-57.1	13.7	0.00e+00	0	27	0	1015021568	74	5054
2026-01-08 10:30:08.81	319.75	32.35	-54.7	-57.2	13.7	0.00e+00	0	27	0	1017118720	74	5103
2026-01-08 10:30:09.67	319.89	32.19	-54.7	-57.1	13.7	0.00e+00	0	27	0	1018167296	74	5078
2026-01-08 10:30:10.82	320.07	31.98	-54.8	-57.2	13.6	0.00e+00	0	27	0	1020264448	74	5133
2026-01-08 10:30:11.68	320.21	31.82	-54.8	-57.3	13.6	0.00e+00	0	27	0	1022361600	74	5165
2026-01-08 10:30:12.84	320.39	31.61	-54.8	-57.2	13.6	0.00e+00	0	27	0	1024458752	74	5148
2026-01-08 10:30:13.70	320.53	31.46	-54.7	-57.1	13.7	0.00e+00	0	27	0	1026555904	74	5069
2026-01-08 10:30:14.85	320.71	31.25	-54.5	-56.8	13.8	0.00e+00	0	27	0	1028653056	74	4893
2026-01-08 10:30:15.71	320.84	31.10	-54.4	-56.6	13.9	0.00e+00	0	27	0	1029701632	74	4806
2026-01-08 10:30:16.86	321.01	30.89	-54.0	-56.0	14.2	0.00e+00	0	27	0	1031798784	74	4493
2026-01-08 10:30:17.72	321.14	30.74	-54.0	-56.1	14.2	0.00e+00	0	27	0	1033895936	74	4498
2026-01-08 10:30:18.87	321.31	30.54	-53.7	-55.8	14.3	0.00e+00	0	27	0	1035993088	74	4346
2026-01-08 10:30:19.74	321.44	30.38	-53.7	-55.7	14.4	0.00e+00	0	27	0	1037041664	74	4306
2026-01-08 10:30:20.89	321.60	30.18	-53.7	-55.7	14.3	0.00e+00	0	27	0	1039138816	73	4557
2026-01-08 10:30:21.76	321.73	30.03	-53.9	-55.9	14.1	0.00e+00	0	27	0	1041235968	73	4700
2026-01-08 10:30:22.91	321.89	29.83	-54.0	-56.2	14.0	0.00e+00	0	27	0	1043333120	73	4841
2026-01-08 10:30:23.78	322.01	29.68	-54.0	-56.2	14.0	0.00e+00	0	27	0	1045430272	73	4854
2026-01-08 10:30:24.93	322.17	29.49	-54.2	-56.4	13.9	0.00e+00	0	27	0	1047527424	73	4948
2026-01-08 10:30:25.80	322.29	29.34	-54.1	-56.3	13.9	0.00e+00	0	27	0	1048576000	73	4879
2026-01-08 10:30:26.94	322.45	29.15	-54.1	-56.3	13.9	0.00e+00	0	27	0	1050673152	73	4907
2026-01-08 10:30:27.81	322.56	29.00	-54.1	-56.3	13.9	0.00e+00	0	27	0	1052770304	73	4884
2026-01-08 10:30:28.96	322.72	28.81	-54.0	-56.1	14.0	0.00e+00	0	27	0	1054867456	73	4788
2026-01-08 10:30:29.82	322.83	28.67	-53.9	-56.1	14.0	0.00e+00	0	27	0	1055916032	73	4768
2026-01-08 10:30:30.97	322.98	28.47	-53.5	-55.5	14.3	0.00e+00	0	27	0	1058013184	73	4447
2026-01-08 10:30:31.83	323.09	28.33	-53.4	-55.3	14.4	0.00e+00	0	27	0	1060110336	73	4373
2026-01-08 10:30:32.98	323.24	28.14	-53.4	-55.3	14.4	0.00e+00	0	27	0	1062207488	73	4367
2026-01-08 10:30:33.85	323.35	28.00	-53.4	-55.3	14.4	0.00e+00	0	27	0	1064304640	73	4359
2026-01-08 10:30:35.00	323.49	27.82	-53.4	-55.4	14.4	0.00e+00	0	27	0	1066401792	73	4414
2026-01-08 10:30:35.86	323.60	27.68	-53.6	-55.7	14.2	0.00e+00	0	27	0	1067450368	73	4567
2026-01-08 10:30:37.01	323.74	27.49	-53.8	-55.9	14.2	0.00e+00	0	27	0	1069547520	73	4653
2026-01-08 10:30:37.87	323.85	27.35	-53.9	-56.1	14.0	0.00e+00	0	27	0	1071644672	73	4769
2026-01-08 10:30:39.03	323.99	27.17	-54.1	-56.4	13.9	0.00e+00	0	27	0	1073741824	73	4944
2026-01-08 10:30:39.89	324.09	27.03	-54.3	-56.6	13.8	0.00e+00	0	27	0	1074790400	73	5065
2026-01-08 10:30:41.04	324.23	26.85	-54.5	-56.9	13.7	0.00e+00	0	27	0	1076887552	74	4960
2026-01-08 10:30:41.91	324.33	26.72	-54.6	-57.0	13.7	0.00e+00	0	27	0	1078984704	74	5026
2026-01-08 10:30:43.06	324.46	26.54	-54.4	-56.8	13.7	0.00e+00	0	27	0	1081081856	74	4884
2026-01-08 10:30:43.93	324.56	26.40	-54.4	-56.7	13.8	0.00e+00	0	27	0	1083179008	74	4849
2026-01-08 10:30:45.08	324.69	26.22	-54.4	-56.8	13.8	0.00e+00	0	27	0	1085276160	74	4875
2026-01-08 10:30:45.95	324.79	26.09	-54.1	-56.4	13.9	0.00e+00	0	27	0	1086324736	74	4677
2026-01-08 10:30:47.10	324.92	25.91	-54.2	-56.4	13.9	0.00e+00	0	27	0	1088421888	74	4701
2026-01-08 10:30:47.96	325.01	25.78	-54.1	-56.3	14.0	0.00e+00	0	27	0	1090519040	74	4646
2026-01-08 10:30:49.12	325.14	25.61	-53.9	-56.1	14.1	0.00e+00	0	27	0	1092616192	74	4506
2026-01-08 10:30:49.98	325.24	25.48	-53.9	-56.1	14.2	0.00e+00	0	27	0	1093664768	74	4506
2026-01-08 10:30:51.12	325.36	25.31	-53.7	-55.8	14.3	0.00e+00	0	27	0	1095761920	74	4352
2026-01-08 10:30:51.99	325.45	25.18	-53.6	-55.6	14.2	0.00e+00	0	27	0	1097859072	73	4529
2026-01-08 10:30:53.14	325.57	25.01	-53.4	-55.4	14.3	0.00e+00	0	27	0	1099956224	73	4406
2026-01-08 10:30:54.01	325.66	24.88	-53.2	-55.1	14.4	0.00e+00	0	27	0	1102053376	72	4502
2026-01-08 10:30:55.16	325.78	24.71	-53.0	-54.8	14.5	0.00e+00	0	27	0	1104150528	72	4389
2026-01-08 10:30:56.02	325.87	24.59	-53.0	-54.8	14.5	0.00e+00	0	27	0	1105199104	72	4377
2026-01-08 10:30:57.18	325.99	24.42	-52.8	-54.6	14.6	0.00e+00	0	27	0	1107296256	72	4263
2026-01-08 10:30:58.04	326.08	24.29	-52.7	-54.5	14.6	0.00e+00	0	27	0	1109393408	72	4235
2026-01-08 10:30:59.19	326.19	24.13	-52.7	-54.5	14.6	0.00e+00	0	27	0	1111490560	72	4226
2026-01-08 10:31:00.06	326.28	24.00	-52.8	-54.6	14.6	0.00e+00	0	27	0	1112539136	72	4289
2026-01-08 10:31:01.20	326.39	23.84	-53.0	-54.8	14.5	0.00e+00	0	27	0	1114636288	72	4375
2026-01-08 10:31:02.06	326.48	23.72	-53.1	-55.0	14.4	0.00e+00	0	27	0	1116733440	72	4487
2026-01-08 10:31:03.21	326.59	23.56	-53.4	-55.4	14.2	0.00e+00	0	27	0	1118830592	72	4662
2026-01-08 10:31:04.07	326.67	23.44	-53.4	-55.5	14.2	0.00e+00	0	27	0	1120927744	72	4710
2026-01-08 10:31:05.23	326.78	23.27	-53.6	-55.7	14.1	0.00e+00	0	27	0	1123024896	72	4824
2026-01-08 10:31:06.09	326.86	23.15	-53.5	-55.6	14.1	0.00e+00	0	27	0	1124073472	72	4778
2026-01-08 10:31:07.24	326.97	22.99	-53.5	-55.6	14.1	0.00e+00	0	27	0	1126170624	72	4795
2026-01-08 10:31:08.11	327.05	22.87	-53.5	-55.6	14.1	0.00e+00	0	27	0	1128267776	72	4780
2026-01-08 10:31:09.26	327.16	22.72	-53.3	-55.3	14.2	0.00e+00	0	27	0	1130364928	72	4628
2026-01-08 10:31:10.12	327.24	22.60	-53.1	-55.0	14.4	0.00e+00	0	27	0	1131413504	72	4492
2026-01-08 10:31:11.28	327.34	22.44	-52.9	-54.7	14.5	0.00e+00	0	27	0	1134559232	72	4335
2026-01-08 10:31:12.14	327.42	22.33	-52.8	-54.6	14.5	0.00e+00	0	27	0	1135607808	72	4285
2026-01-08 10:31:13.29	327.52	22.17	-52.8	-54.6	14.6	0.00e+00	0	27	0	1137704960	72	4270
2026-01-08 10:31:14.16	327.60	22.06	-52.6	-54.4	14.5	0.00e+00	0	27	0	1139802112	71	4435
2026-01-08 10:31:15.30	327.70	21.90	-52.5	-54.3	14.6	0.00e+00	0	27	0	1141899264	71	4358
2026-01-08 10:31:16.16	327.77	21.79	-52.5	-54.2	14.6	0.00e+00	0	27	0	1142947840	71	4334
2026-01-08 10:31:17.31	327.87	21.64	-52.5	-54.2	14.6	0.00e+00	0	27	0	1145044992	71	4338
2026-01-08 10:31:18.17	327.94	21.53	-52.5	-54.3	14.6	0.00e+00	0	27	0	1147142144	71	4345
2026-01-08 10:31:19.32	328.04	21.38	-52.6	-54.4	14.5	0.00e+00	0	27	0	1149239296	71	4432
2026-01-08 10:31:20.18	328.11	21.26	-52.6	-54.5	14.5	0.00e+00	0	27	0	1150287872	71	4454
2026-01-08 10:31:21.33	328.21	21.12	-52.7	-54.5	14.5	0.00e+00	0	27	0	1152385024	71	4481
2026-01-08 10:31:22.20	328.28	21.00	-52.7	-54.6	14.5	0.00e+00	0	27	0	1154482176	71	4498
2026-01-08 10:31:23.34	328.38	20.86	-52.8	-54.6	14.4	0.00e+00	0	27	0	1156579328	71	4539
2026-01-08 10:31:24.20	328.45	20.75	-52.8	-54.6	14.4	0.00e+00	0	27	0	1158676480	71	4545
2026-01-08 10:31:25.35	328.54	20.60	-52.8	-54.7	14.4	0.00e+00	0	27	0	1160773632	71	4558
2026-01-08 10:31:26.21	328.61	20.49	-52.7	-54.6	14.4	0.00e+00	0	27	0	1161822208	71	4530
2026-01-08 10:31:27.36	328.70	20.35	-52.7	-54.5	14.5	0.00e+00	0	27	0	1163919360	71	4477
2026-01-08 10:31:28.23	328.77	20.24	-52.6	-54.5	14.5	0.00e+00	0	27	0	1166016512	71	4450
2026-01-08 10:31:29.38	328.86	20.10	-52.6	-54.5	14.5	0.00e+00	0	27	0	1168113664	71	4453
2026-01-08 10:31:30.24	328.93	19.99	-52.5	-54.3	14.5	0.00e+00	0	27	0	1169162240	71	4378
2026-01-08 10:31:31.40	329.02	19.85	-52.4	-54.2	14.6	0.00e+00	0	27	0	1171259392	71	4323
2026-01-08 10:31:32.26	329.08	19.74	-52.3	-54.0	14.7	0.00e+00	0	27	0	1173356544	71	4239
2026-01-08 10:31:33.40	329.17	19.60	-52.3	-54.0	14.7	0.00e+00	0	27	0	1175453696	71	4225
2026-01-08 10:31:34.26	329.23	19.50	-52.3	-54.0	14.7	0.00e+00	0	27	0	1177550848	71	4236
2026-01-08 10:31:35.41	329.32	19.36	-52.1	-53.8	14.6	0.00e+00	0	27	0	1179648000	70	4358
2026-01-08 10:31:36.27	329.38	19.25	-51.9	-53.6	14.7	0.00e+00	0	27	0	1180696576	70	4263
2026-01-08 10:31:37.42	329.47	19.12	-51.9	-53.5	14.8	0.00e+00	0	27	0	1182793728	70	4222
2026-01-08 10:31:38.28	329.53	19.01	-51.8	-53.5	14.8	0.00e+00	0	27	0	1184890880	70	4209
2026-01-08 10:31:39.44	329.62	18.88	-51.8	-53.4	14.8	0.00e+00	0	27	0	1186988032	70	4188
2026-01-08 10:31:40.30	329.68	18.77	-51.8	-53.4	14.8	0.00e+00	0	27	0	1188036608	70	4161
2026-01-08 10:31:41.45	329.76	18.64	-51.7	-53.4	14.8	0.00e+00	0	27	0	1190133760	70	4152
2026-01-08 10:31:42.31	329.82	18.54	-51.7	-53.3	14.7	0.00e+00	0	27	0	1192230912	69	4376
2026-01-08 10:31:43.46	329.90	18.40	-51.7	-53.4	14.7	0.00e+00	0	27	0	1194328064	69	4411
2026-01-08 10:31:44.32	329.96	18.30	-51.6	-53.3	14.7	0.00e+00	0	27	0	1196425216	69	4349
2026-01-08 10:31:45.48	330.04	18.17	-51.6	-53.2	14.8	0.00e+00	0	27	0	1198522368	69	4306
2026-01-08 10:31:46.34	330.10	18.07	-51.7	-53.3	14.7	0.00e+00	0	27	0	1199570944	69	4380
2026-01-08 10:31:47.49	330.18	17.94	-51.8	-53.4	14.7	0.00e+00	0	27	0	1201668096	69	4427
2026-01-08 10:31:48.35	330.24	17.84	-51.8	-53.4	14.7	0.00e+00	0	27	0	1203765248	69	4437
2026-01-08 10:31:49.50	330.32	17.71	-51.7	-53.4	14.7	0.00e+00	0	27	0	1205862400	69	4415
2026-01-08 10:31:50.36	330.38	17.61	-51.9	-53.5	14.6	0.00e+00	0	27	0	1206910976	69	4485
2026-01-08 10:31:51.51	330.45	17.48	-51.8	-53.5	14.6	0.00e+00	0	27	0	1209008128	69	4487
2026-01-08 10:31:52.37	330.51	17.38	-52.0	-53.7	14.6	0.00e+00	0	27	0	1211105280	69	4571
2026-01-08 10:31:53.52	330.59	17.26	-52.1	-53.8	14.5	0.00e+00	0	27	0	1213202432	69	4637
2026-01-08 10:31:54.39	330.64	17.16	-52.2	-54.0	14.4	0.00e+00	0	27	0	1215299584	69	4744
2026-01-08 10:31:55.54	330.72	17.03	-52.2	-54.0	14.4	0.00e+00	0	27	0	1217396736	69	4748
2026-01-08 10:31:56.41	330.77	16.93	-52.4	-54.3	14.2	0.00e+00	0	27	0	1218445312	69	4873
2026-01-08 10:31:57.56	330.85	16.81	-52.5	-54.3	14.4	0.00e+00	0	27	0	1220542464	70	4631
2026-01-08 10:31:58.42	330.90	16.71	-52.5	-54.4	14.4	0.00e+00	0	27	0	1222639616	70	4657
2026-01-08 10:31:59.57	330.97	16.59	-52.7	-54.6	14.3	0.00e+00	0	27	0	1224736768	70	4792
2026-01-08 10:32:00.43	331.03	16.50	-52.6	-54.5	14.3	0.00e+00	0	27	0	1225785344	70	4729
2026-01-08 10:32:01.59	331.10	16.37	-52.6	-54.5	14.3	0.00e+00	0	27	0	1227882496	70	4741
2026-01-08 10:32:02.45	331.15	16.28	-52.5	-54.4	14.3	0.00e+00	0	27	0	1229979648	70	4685
2026-01-08 10:32:03.59	331.22	16.16	-52.4	-54.3	14.4	0.00e+00	0	27	0	1232076800	70	4632
2026-01-08 10:32:04.45	331.28	16.06	-52.5	-54.3	14.4	0.00e+00	0	27	0	1234173952	70	4643
2026-01-08 10:32:05.61	331.35	15.94	-52.4	-54.3	14.4	0.00e+00	0	27	0	1236271104	70	4631
2026-01-08 10:32:06.47	331.40	15.85	-52.3	-54.2	14.5	0.00e+00	0	27	0	1237319680	70	4550
2026-01-08 10:32:07.63	331.47	15.73	-52.3	-54.1	14.5	0.00e+00	0	27	0	1239416832	70	4498
2026-01-08 10:32:08.49	331.52	15.64	-52.2	-54.0	14.5	0.00e+00	0	27	0	1241513984	70	4451
