passes_logs/2026/01/08/R3.2S_Murmansk/R3.2S_Murmansk__20260108_140637_AQUA_rec.log

#Pass ID: 20260108_140637_AQUA
#Satellite: AQUA
#Configuration: AQUA
#almurnet v.1.7.20251203
#Start time: 2026-01-08 14:06:38

#Version: 2.2.20231116
#Station: R3.2S_Murmansk
#Location: 33.079688 lon 68.888172 lat
#TLE: 1 27424U 02022A   26004.96787593  .00001598  00000+0  32997-3 0  9996
#TLE: 2 27424  98.4069 331.2279 0002002  90.2377   0.6092 14.61798176259425

#Time	Az	El	Level	Level2	SNR	BER	BlckErr	Temp	State	Recorded	gain1	gain2
2026-01-08 14:06:38.77	229.40	2.08	-57.6	-76.9	3.8	7.44e-01	0	22	0	0	84	32246
2026-01-08 14:06:39.77	229.50	2.13	-57.3	-76.6	3.8	7.45e-01	0	22	104	0	82	35143
2026-01-08 14:06:40.78	229.60	2.18	-57.3	-76.6	3.8	7.50e-01	0	22	104	0	82	35260
2026-01-08 14:06:41.79	229.70	2.24	-57.3	-76.6	3.8	7.43e-01	0	22	104	0	82	34987
2026-01-08 14:06:42.79	229.80	2.29	-57.3	-76.5	3.8	7.43e-01	0	22	104	0	82	34845
2026-01-08 14:06:43.80	229.91	2.34	-57.3	-76.5	3.8	7.46e-01	0	22	104	0	82	34717
2026-01-08 14:06:44.81	230.01	2.39	-57.3	-76.5	3.8	7.47e-01	0	22	104	0	82	34847
2026-01-08 14:06:45.81	230.11	2.44	-57.3	-76.6	3.8	7.45e-01	0	22	104	0	82	35001
2026-01-08 14:06:46.82	230.21	2.49	-57.3	-76.6	3.8	7.44e-01	0	22	104	0	82	35150
2026-01-08 14:06:47.83	230.32	2.54	-57.3	-76.7	3.8	7.46e-01	0	22	104	0	82	35367
2026-01-08 14:06:48.83	230.42	2.60	-57.3	-76.7	3.8	7.45e-01	0	22	104	0	82	35356
2026-01-08 14:06:49.84	230.52	2.65	-57.3	-76.6	3.8	7.44e-01	0	22	104	0	82	35194
2026-01-08 14:06:50.85	230.63	2.70	-57.3	-76.6	3.8	7.43e-01	0	22	104	0	82	35085
2026-01-08 14:06:51.86	230.74	2.75	-57.3	-76.6	3.8	7.52e-01	0	22	104	0	82	35123
2026-01-08 14:06:52.87	230.84	2.80	-57.3	-76.7	3.8	7.47e-01	0	22	104	0	82	35310
2026-01-08 14:06:53.88	230.95	2.86	-57.3	-76.7	3.8	7.47e-01	0	23	104	0	82	35349
2026-01-08 14:06:54.89	231.05	2.91	-57.3	-76.6	3.8	7.45e-01	0	22	104	0	82	35168
2026-01-08 14:06:55.90	231.16	2.96	-57.3	-76.5	3.8	7.47e-01	0	22	104	0	82	34626
2026-01-08 14:06:56.90	231.27	3.01	-57.3	-76.3	3.8	7.43e-01	0	23	104	0	82	33922
2026-01-08 14:06:57.91	231.37	3.06	-57.3	-76.2	3.8	7.47e-01	0	23	104	0	82	33391
2026-01-08 14:06:58.92	231.48	3.11	-57.3	-76.1	3.8	7.46e-01	0	23	104	0	82	33188
2026-01-08 14:06:59.93	231.59	3.17	-57.3	-76.2	3.8	7.48e-01	0	23	104	0	82	33477
2026-01-08 14:07:00.93	231.70	3.22	-57.3	-76.2	3.8	7.44e-01	0	23	104	0	82	33598
2026-01-08 14:07:01.94	231.81	3.27	-57.3	-76.3	3.8	7.49e-01	0	23	104	0	82	33697
2026-01-08 14:07:02.95	231.92	3.32	-57.3	-76.3	3.8	7.48e-01	0	23	104	0	82	33972
2026-01-08 14:07:03.96	232.03	3.38	-57.3	-76.3	3.8	7.47e-01	0	23	104	0	82	34070
2026-01-08 14:07:04.97	232.14	3.43	-57.3	-76.6	3.8	7.49e-01	0	23	104	0	82	34966
2026-01-08 14:07:05.98	232.25	3.48	-57.3	-76.6	3.8	7.46e-01	0	23	104	0	82	35095
2026-01-08 14:07:06.98	232.36	3.53	-57.3	-76.5	3.8	7.45e-01	0	23	104	0	82	34670
2026-01-08 14:07:07.99	232.47	3.58	-57.3	-76.2	3.8	7.45e-01	0	23	104	0	82	33372
2026-01-08 14:07:09.00	232.58	3.64	-57.3	-75.8	3.8	7.46e-01	0	23	104	0	82	31965
2026-01-08 14:07:10.01	232.70	3.69	-57.3	-75.5	3.8	7.42e-01	0	23	104	0	82	30913
2026-01-08 14:07:11.02	232.81	3.74	-57.3	-75.7	3.8	7.46e-01	0	23	104	0	82	31601
2026-01-08 14:07:12.02	232.92	3.79	-57.3	-75.9	3.8	7.45e-01	0	23	104	0	82	32194
2026-01-08 14:07:13.03	233.04	3.85	-57.3	-76.1	3.8	7.48e-01	0	23	104	0	82	33297
2026-01-08 14:07:14.04	233.15	3.90	-57.3	-76.5	3.8	7.49e-01	0	23	104	0	82	34689
2026-01-08 14:07:15.05	233.26	3.95	-57.3	-76.7	3.8	7.45e-01	0	23	104	0	82	35305
2026-01-08 14:07:16.05	233.38	4.00	-57.3	-76.6	3.8	7.42e-01	0	23	104	0	82	35051
2026-01-08 14:07:17.06	233.49	4.06	-57.3	-76.4	3.8	7.49e-01	0	23	104	0	82	34350
2026-01-08 14:07:18.07	233.61	4.11	-57.3	-76.3	3.8	7.48e-01	0	23	104	0	82	33730
2026-01-08 14:07:19.07	233.73	4.16	-57.3	-76.1	3.8	7.49e-01	0	23	104	0	82	33154
2026-01-08 14:07:20.08	233.84	4.21	-57.3	-75.8	3.8	7.46e-01	0	23	104	0	82	32108
2026-01-08 14:07:21.10	233.96	4.27	-57.3	-75.5	3.8	7.43e-01	0	23	104	0	82	31017
2026-01-08 14:07:22.10	234.08	4.32	-57.3	-75.0	3.8	7.44e-01	0	23	104	0	82	29243
2026-01-08 14:07:23.11	234.20	4.37	-57.3	-74.3	3.9	7.46e-01	0	23	104	0	82	26834
2026-01-08 14:07:24.12	234.31	4.42	-57.3	-73.1	4.2	7.34e-01	0	23	104	0	82	23424
2026-01-08 14:07:25.13	234.43	4.48	-57.3	-73.9	3.8	7.46e-01	0	23	104	0	82	25586
2026-01-08 14:07:26.14	234.55	4.53	-57.3	-74.7	4.0	7.39e-01	0	23	104	0	82	28137
2026-01-08 14:07:27.15	234.67	4.58	-57.3	-76.4	3.8	7.46e-01	0	23	104	0	82	34356
2026-01-08 14:07:28.15	234.79	4.63	-57.3	-75.9	3.8	7.45e-01	0	23	104	0	82	32385
2026-01-08 14:07:29.16	234.91	4.69	-57.2	-72.9	3.9	7.38e-01	0	23	104	0	82	22852
2026-01-08 14:07:30.17	235.03	4.74	-57.1	-69.4	5.9	6.82e-01	93	23	0	524288	82	15275
2026-01-08 14:07:31.18	235.16	4.79	-56.9	-67.4	7.5	6.48e-01	87	23	0	2097152	82	12148
2026-01-08 14:07:32.19	235.28	4.85	-56.8	-66.5	8.3	6.37e-01	0	23	0	4194304	82	10948
2026-01-08 14:07:33.19	235.40	4.90	-56.8	-66.0	8.7	6.32e-01	0	23	0	5767168	82	10362
2026-01-08 14:07:34.21	235.52	4.95	-56.7	-65.3	9.3	6.26e-01	0	23	0	7864320	82	9551
2026-01-08 14:07:35.22	235.65	5.01	-56.2	-63.4	10.8	6.13e-01	0	23	0	9961472	81	8114
2026-01-08 14:07:36.22	235.77	5.06	-55.4	-60.6	12.9	6.06e-01	0	23	0	11534336	80	6263
2026-01-08 14:07:37.23	235.90	5.11	-55.7	-61.4	12.6	6.07e-01	0	23	0	13631488	80	6834
2026-01-08 14:07:38.24	236.02	5.16	-57.2	-72.1	4.4	7.28e-01	0	23	104	14155776	82	20841
2026-01-08 14:07:39.25	236.15	5.22	-54.6	-58.6	14.1	6.06e-01	0	24	0	15728640	77	5871
2026-01-08 14:07:40.26	236.27	5.27	-55.9	-61.9	12.0	6.10e-01	0	23	0	17301504	80	7224
2026-01-08 14:07:41.26	236.40	5.32	-51.7	-54.1	15.4	6.06e-01	0	23	0	19398656	72	4681
2026-01-08 14:07:42.27	236.53	5.38	-51.3	-53.5	15.4	6.06e-01	0	23	0	21495808	71	4648
2026-01-08 14:07:43.28	236.65	5.43	-51.3	-53.6	15.5	6.05e-01	0	23	0	23068672	71	4657
2026-01-08 14:07:44.29	236.78	5.48	-51.4	-53.7	15.4	6.05e-01	0	24	0	25165824	71	4758
2026-01-08 14:07:45.30	236.91	5.53	-51.1	-53.3	15.6	6.05e-01	0	23	0	26738688	71	4527
2026-01-08 14:07:46.30	237.04	5.59	-51.2	-53.4	15.5	6.06e-01	0	23	0	28835840	71	4583
2026-01-08 14:07:47.31	237.17	5.64	-51.2	-53.4	15.5	6.08e-01	0	24	0	30408704	71	4582
2026-01-08 14:07:48.32	237.30	5.69	-51.2	-53.4	15.5	6.06e-01	0	24	0	32505856	71	4598
2026-01-08 14:07:49.33	237.43	5.75	-51.2	-53.4	15.5	6.08e-01	0	23	0	34603008	71	4586
2026-01-08 14:07:50.33	237.56	5.80	-51.2	-53.4	15.5	6.06e-01	0	23	0	36175872	71	4593
2026-01-08 14:07:51.34	237.69	5.85	-51.0	-53.1	15.6	6.05e-01	0	23	0	38273024	71	4435
2026-01-08 14:07:52.35	237.82	5.91	-51.1	-53.3	15.6	6.07e-01	0	24	0	40370176	71	4498
2026-01-08 14:07:53.36	237.95	5.96	-51.1	-53.3	15.6	6.07e-01	0	23	0	41943040	71	4507
2026-01-08 14:07:54.37	238.09	6.01	-51.0	-53.2	15.6	6.06e-01	0	24	0	44040192	71	4460
2026-01-08 14:07:55.38	238.22	6.06	-51.0	-53.1	15.7	6.07e-01	0	24	0	45613056	71	4422
2026-01-08 14:07:56.39	238.35	6.12	-51.0	-53.1	15.7	6.08e-01	0	23	0	47710208	71	4418
2026-01-08 14:07:57.40	238.49	6.17	-51.0	-53.2	15.6	6.05e-01	0	23	0	49807360	71	4459
2026-01-08 14:07:58.41	238.62	6.22	-50.9	-53.0	15.7	6.03e-01	0	23	0	51380224	71	4380
2026-01-08 14:07:59.41	238.76	6.28	-50.9	-53.0	15.7	6.07e-01	0	24	0	53477376	71	4366
2026-01-08 14:08:00.42	238.89	6.33	-50.8	-52.8	15.6	6.07e-01	0	23	0	55050240	70	4539
2026-01-08 14:08:01.42	239.03	6.38	-50.8	-52.9	15.6	6.05e-01	0	23	0	57147392	70	4568
2026-01-08 14:08:02.44	239.17	6.44	-50.8	-52.9	15.6	6.06e-01	0	24	0	59244544	70	4574
2026-01-08 14:08:03.44	239.30	6.49	-51.0	-53.2	15.5	6.06e-01	0	24	0	60817408	70	4710
2026-01-08 14:08:04.45	239.44	6.54	-50.8	-52.9	15.5	6.08e-01	0	23	0	62914560	70	4595
2026-01-08 14:08:05.46	239.58	6.59	-50.8	-52.9	15.6	6.04e-01	0	23	0	64487424	70	4577
2026-01-08 14:08:06.47	239.72	6.65	-50.6	-52.7	15.7	6.06e-01	0	24	0	66584576	70	4445
2026-01-08 14:08:07.47	239.86	6.70	-50.5	-52.5	15.7	6.08e-01	0	23	0	68681728	70	4348
2026-01-08 14:08:08.48	240.00	6.75	-50.6	-52.6	15.7	6.06e-01	0	23	0	70254592	70	4415
2026-01-08 14:08:09.49	240.14	6.81	-50.6	-52.6	15.7	6.08e-01	0	23	0	72351744	70	4395
2026-01-08 14:08:10.50	240.28	6.86	-50.6	-52.6	15.7	6.05e-01	0	24	0	73924608	70	4441
2026-01-08 14:08:11.50	240.42	6.91	-50.8	-52.9	15.6	6.07e-01	0	24	0	76021760	70	4546
2026-01-08 14:08:12.51	240.56	6.96	-50.9	-53.0	15.5	6.06e-01	0	24	0	78118912	70	4610
2026-01-08 14:08:13.51	240.71	7.02	-50.8	-52.9	15.6	6.08e-01	0	24	0	79691776	70	4570
2026-01-08 14:08:14.52	240.85	7.07	-50.7	-52.7	15.6	6.06e-01	0	23	0	81788928	70	4476
2026-01-08 14:08:15.53	240.99	7.12	-50.7	-52.7	15.7	6.06e-01	0	24	0	83886080	70	4460
2026-01-08 14:08:16.54	241.14	7.18	-50.6	-52.7	15.6	6.05e-01	0	24	0	85458944	70	4445
2026-01-08 14:08:17.54	241.28	7.23	-50.6	-52.6	15.7	6.06e-01	0	24	0	87556096	70	4428
2026-01-08 14:08:18.55	241.43	7.28	-50.7	-52.7	15.6	6.06e-01	0	24	0	89128960	70	4471
2026-01-08 14:08:19.56	241.57	7.33	-50.6	-52.6	15.7	6.06e-01	0	24	0	91226112	70	4420
2026-01-08 14:08:20.56	241.72	7.39	-50.5	-52.6	15.7	6.07e-01	0	24	0	92798976	70	4392
2026-01-08 14:08:21.57	241.87	7.44	-50.6	-52.5	15.7	6.07e-01	0	23	0	94896128	70	4391
2026-01-08 14:08:22.58	242.01	7.49	-50.5	-52.5	15.7	6.05e-01	0	24	0	96993280	70	4349
2026-01-08 14:08:23.59	242.16	7.54	-50.5	-52.5	15.7	6.07e-01	0	24	0	98566144	70	4389
2026-01-08 14:08:24.59	242.31	7.60	-50.5	-52.4	15.7	6.06e-01	0	24	0	100663296	70	4331
2026-01-08 14:08:25.60	242.46	7.65	-50.5	-52.4	15.8	6.08e-01	0	24	0	102236160	70	4338
2026-01-08 14:08:26.60	242.61	7.70	-50.4	-52.4	15.8	6.06e-01	0	24	0	104333312	70	4314
2026-01-08 14:08:27.61	242.76	7.75	-50.4	-52.3	15.8	6.05e-01	0	24	0	106430464	70	4280
2026-01-08 14:08:28.62	242.91	7.81	-50.4	-52.4	15.8	6.08e-01	0	24	0	108003328	70	4317
2026-01-08 14:08:29.63	243.06	7.86	-50.5	-52.4	15.7	6.05e-01	0	24	0	110100480	70	4334
2026-01-08 14:08:30.63	243.21	7.91	-50.4	-52.3	15.6	6.07e-01	0	24	0	112197632	69	4540
2026-01-08 14:08:31.64	243.37	7.96	-50.2	-52.1	15.7	6.05e-01	0	24	0	113770496	69	4410
2026-01-08 14:08:32.65	243.52	8.01	-50.4	-52.4	15.6	6.06e-01	0	24	0	115867648	69	4546
2026-01-08 14:08:33.65	243.67	8.07	-50.4	-52.4	15.6	6.05e-01	0	24	0	117440512	69	4568
2026-01-08 14:08:34.66	243.83	8.12	-50.5	-52.5	15.6	6.08e-01	0	24	0	119537664	69	4599
2026-01-08 14:08:35.66	243.98	8.17	-50.4	-52.4	15.6	6.08e-01	0	24	0	121110528	69	4582
2026-01-08 14:08:36.67	244.14	8.22	-50.3	-52.3	15.6	6.07e-01	0	24	0	123207680	69	4502
2026-01-08 14:08:37.68	244.30	8.27	-50.3	-52.3	15.7	6.10e-01	0	24	0	125304832	69	4498
2026-01-08 14:08:38.69	244.45	8.33	-50.3	-52.3	15.6	6.07e-01	0	24	0	126877696	69	4516
2026-01-08 14:08:39.70	244.61	8.38	-50.4	-52.3	15.6	6.06e-01	0	24	0	128974848	69	4532
2026-01-08 14:08:40.70	244.77	8.43	-50.3	-52.2	15.7	6.06e-01	0	24	0	130547712	69	4456
2026-01-08 14:08:41.71	244.93	8.48	-50.3	-52.2	15.7	6.07e-01	0	24	0	132644864	69	4484
2026-01-08 14:08:42.72	245.09	8.53	-50.1	-52.0	15.7	6.06e-01	0	24	0	134742016	69	4358
2026-01-08 14:08:43.73	245.25	8.59	-50.2	-52.2	15.7	6.09e-01	0	24	0	136314880	69	4442
2026-01-08 14:08:44.73	245.40	8.64	-50.1	-52.0	15.7	6.08e-01	0	24	0	138412032	69	4367
2026-01-08 14:08:45.74	245.57	8.69	-50.2	-52.2	15.7	6.06e-01	0	24	0	140509184	69	4447
2026-01-08 14:08:46.75	245.73	8.74	-50.1	-52.0	15.7	6.07e-01	0	24	0	142082048	69	4390
2026-01-08 14:08:47.76	245.89	8.79	-50.1	-52.0	15.7	6.05e-01	0	24	0	144179200	69	4381
2026-01-08 14:08:48.76	246.05	8.84	-50.2	-52.1	15.7	6.06e-01	0	24	0	145752064	69	4398
2026-01-08 14:08:49.77	246.22	8.89	-50.1	-52.0	15.8	6.05e-01	0	24	0	147849216	69	4356
2026-01-08 14:08:50.78	246.38	8.94	-50.1	-52.0	15.7	6.07e-01	0	24	0	149946368	69	4367
2026-01-08 14:08:51.79	246.54	9.00	-50.0	-51.9	15.8	6.04e-01	0	24	0	151519232	69	4307
2026-01-08 14:08:52.80	246.71	9.05	-50.0	-51.9	15.8	6.06e-01	0	24	0	153616384	69	4292
2026-01-08 14:08:53.81	246.88	9.10	-50.0	-51.9	15.8	6.07e-01	0	24	0	155189248	69	4300
2026-01-08 14:08:54.82	247.04	9.15	-49.9	-51.8	15.8	6.06e-01	0	24	0	157286400	69	4252
2026-01-08 14:08:55.82	247.21	9.20	-50.0	-51.9	15.8	6.06e-01	0	24	0	159383552	69	4295
2026-01-08 14:08:56.83	247.38	9.25	-50.0	-51.8	15.8	6.08e-01	0	24	0	160956416	69	4274
2026-01-08 14:08:57.84	247.54	9.30	-50.0	-51.8	15.8	6.07e-01	0	24	0	163053568	69	4275
2026-01-08 14:08:58.85	247.71	9.35	-50.0	-51.8	15.8	6.07e-01	0	24	0	164626432	69	4273
2026-01-08 14:08:59.85	247.88	9.40	-50.0	-51.9	15.8	6.07e-01	0	24	0	166723584	69	4304
2026-01-08 14:09:00.86	248.05	9.45	-50.0	-51.8	15.8	6.06e-01	0	24	0	168820736	69	4282
2026-01-08 14:09:01.87	248.22	9.50	-49.9	-51.7	15.8	6.09e-01	0	24	0	170393600	69	4232
2026-01-08 14:09:02.87	248.39	9.55	-49.7	-51.5	15.7	6.06e-01	0	24	0	172490752	68	4385
2026-01-08 14:09:03.88	248.57	9.60	-49.9	-51.7	15.7	6.07e-01	0	24	0	174063616	68	4481
2026-01-08 14:09:04.89	248.74	9.65	-49.9	-51.8	15.7	6.06e-01	0	24	0	176160768	68	4511
2026-01-08 14:09:05.89	248.91	9.70	-49.9	-51.8	15.7	6.07e-01	0	24	0	178257920	68	4509
2026-01-08 14:09:06.90	249.08	9.75	-49.9	-51.8	15.7	6.05e-01	0	24	0	179830784	68	4506
2026-01-08 14:09:07.90	249.26	9.80	-50.0	-51.9	15.6	6.06e-01	0	24	0	181927936	68	4548
2026-01-08 14:09:08.91	249.43	9.85	-50.0	-51.8	15.6	6.06e-01	0	24	0	183500800	68	4537
2026-01-08 14:09:09.92	249.61	9.90	-49.9	-51.8	15.6	6.06e-01	0	24	0	185597952	68	4507
2026-01-08 14:09:10.92	249.78	9.95	-49.7	-51.5	15.7	6.05e-01	0	24	0	187695104	68	4379
2026-01-08 14:09:11.93	249.96	10.00	-49.8	-51.6	15.7	6.06e-01	0	24	0	189267968	68	4437
2026-01-08 14:09:12.94	250.14	10.05	-49.8	-51.6	15.7	6.05e-01	0	24	0	191365120	68	4438
2026-01-08 14:09:13.95	250.32	10.10	-49.9	-51.8	15.6	6.05e-01	0	24	0	192937984	68	4508
2026-01-08 14:09:14.96	250.50	10.14	-49.7	-51.5	15.8	6.05e-01	0	24	0	195035136	68	4363
2026-01-08 14:09:15.97	250.68	10.19	-49.8	-51.6	15.7	6.07e-01	0	24	0	197132288	68	4399
2026-01-08 14:09:16.98	250.86	10.24	-49.8	-51.7	15.7	6.07e-01	0	24	0	198705152	68	4446
2026-01-08 14:09:17.98	251.03	10.29	-49.8	-51.6	15.7	6.08e-01	0	24	0	200802304	68	4420
2026-01-08 14:09:18.99	251.22	10.34	-49.7	-51.5	15.8	6.06e-01	0	24	0	202375168	68	4351
2026-01-08 14:09:19.99	251.40	10.39	-49.8	-51.7	15.7	6.05e-01	0	24	0	204472320	68	4446
2026-01-08 14:09:21.00	251.58	10.43	-49.7	-51.5	15.8	6.08e-01	0	24	0	206569472	68	4351
2026-01-08 14:09:22.01	251.76	10.48	-49.8	-51.6	15.7	6.07e-01	0	24	0	208142336	68	4404
2026-01-08 14:09:23.02	251.95	10.53	-49.7	-51.5	15.7	6.07e-01	0	24	0	210239488	68	4374
2026-01-08 14:09:24.03	252.13	10.58	-49.8	-51.6	15.7	6.05e-01	0	24	0	211812352	68	4405
2026-01-08 14:09:25.04	252.32	10.62	-49.7	-51.5	15.7	6.08e-01	0	24	0	213909504	68	4388
2026-01-08 14:09:26.05	252.50	10.67	-49.7	-51.5	15.7	6.09e-01	0	24	0	216006656	68	4380
2026-01-08 14:09:27.05	252.69	10.72	-49.7	-51.4	15.8	6.06e-01	0	24	0	217579520	68	4338
2026-01-08 14:09:28.06	252.87	10.77	-49.7	-51.4	15.8	6.07e-01	0	24	0	219676672	68	4334
2026-01-08 14:09:29.07	253.06	10.81	-49.5	-51.2	15.8	6.04e-01	0	24	0	221249536	68	4227
2026-01-08 14:09:30.08	253.25	10.86	-49.5	-51.2	15.8	6.06e-01	0	24	0	223346688	68	4228
2026-01-08 14:09:31.09	253.44	10.91	-49.7	-51.5	15.8	6.07e-01	0	24	0	225443840	68	4367
2026-01-08 14:09:32.09	253.63	10.95	-49.6	-51.3	15.8	6.07e-01	0	24	0	227016704	68	4273
2026-01-08 14:09:33.10	253.82	11.00	-49.5	-51.3	15.8	6.06e-01	0	24	0	229113856	68	4267
2026-01-08 14:09:34.10	254.01	11.04	-49.6	-51.4	15.8	6.06e-01	0	24	0	230686720	68	4300
2026-01-08 14:09:35.11	254.20	11.09	-49.6	-51.3	15.8	6.07e-01	0	24	0	232783872	68	4277
2026-01-08 14:09:36.11	254.39	11.14	-49.5	-51.2	15.8	6.06e-01	0	24	0	234881024	68	4242
2026-01-08 14:09:37.12	254.58	11.18	-49.6	-51.4	15.8	6.05e-01	0	24	0	236453888	68	4295
2026-01-08 14:09:38.13	254.77	11.23	-49.5	-51.3	15.8	6.04e-01	0	24	0	238551040	68	4252
2026-01-08 14:09:39.14	254.97	11.27	-49.4	-51.1	15.9	6.08e-01	0	24	0	240123904	68	4183
2026-01-08 14:09:40.15	255.16	11.32	-49.4	-51.1	15.7	6.08e-01	0	24	0	242221056	67	4414
2026-01-08 14:09:41.16	255.36	11.36	-49.3	-51.0	15.8	6.06e-01	0	24	0	244318208	67	4361
2026-01-08 14:09:42.16	255.55	11.41	-49.3	-51.1	15.7	6.05e-01	0	24	0	245891072	67	4410
2026-01-08 14:09:43.17	255.75	11.45	-49.4	-51.1	15.7	6.06e-01	0	24	0	247988224	67	4427
2026-01-08 14:09:44.18	255.95	11.49	-49.4	-51.2	15.7	6.07e-01	0	24	0	250085376	67	4474
2026-01-08 14:09:45.19	256.14	11.54	-49.4	-51.1	15.7	6.05e-01	0	24	0	251658240	67	4428
2026-01-08 14:09:46.20	256.34	11.58	-49.4	-51.2	15.7	6.06e-01	0	24	0	253755392	67	4444
2026-01-08 14:09:47.20	256.54	11.63	-49.5	-51.2	15.7	6.08e-01	0	24	0	255328256	67	4473
2026-01-08 14:09:48.20	256.74	11.67	-49.3	-51.1	15.7	6.08e-01	0	24	0	257425408	67	4399
2026-01-08 14:09:49.21	256.94	11.71	-49.4	-51.2	15.7	6.06e-01	0	24	0	258998272	67	4450
2026-01-08 14:09:50.22	257.14	11.75	-49.5	-51.2	15.7	6.06e-01	0	24	0	261095424	67	4472
2026-01-08 14:09:51.23	257.34	11.80	-49.4	-51.2	15.7	6.05e-01	0	24	0	263192576	67	4464
2026-01-08 14:09:52.23	257.54	11.84	-49.4	-51.1	15.7	6.07e-01	0	24	0	264765440	67	4428
2026-01-08 14:09:53.24	257.74	11.88	-49.2	-51.0	15.8	6.07e-01	0	24	0	266862592	67	4345
2026-01-08 14:09:54.24	257.94	11.92	-49.1	-50.8	15.8	6.07e-01	0	24	0	268435456	67	4277
2026-01-08 14:09:55.25	258.15	11.97	-49.3	-51.0	15.8	6.05e-01	0	24	0	270532608	67	4372
2026-01-08 14:09:56.26	258.35	12.01	-49.4	-51.1	15.7	6.07e-01	0	24	0	272629760	67	4430
2026-01-08 14:09:57.27	258.56	12.05	-49.4	-51.2	15.7	6.07e-01	0	24	0	274202624	67	4442
2026-01-08 14:09:58.28	258.76	12.09	-49.3	-51.0	15.8	6.08e-01	0	24	0	276299776	67	4351
2026-01-08 14:09:59.28	258.97	12.13	-49.2	-50.9	15.8	6.06e-01	0	24	0	278396928	67	4328
2026-01-08 14:10:00.29	259.17	12.17	-49.3	-51.0	15.8	6.06e-01	0	24	0	279969792	67	4364
2026-01-08 14:10:01.30	259.38	12.21	-49.4	-51.2	15.7	6.05e-01	0	24	0	282066944	67	4468
2026-01-08 14:10:02.30	259.59	12.25	-49.5	-51.2	15.7	6.07e-01	0	24	0	283639808	67	4467
2026-01-08 14:10:03.31	259.80	12.29	-49.3	-51.0	15.8	6.09e-01	0	24	0	285736960	67	4355
2026-01-08 14:10:04.32	260.01	12.33	-49.1	-50.8	15.8	6.09e-01	0	24	0	287834112	67	4257
2026-01-08 14:10:05.33	260.21	12.37	-49.1	-50.8	15.8	6.05e-01	0	24	0	289406976	67	4283
2026-01-08 14:10:06.34	260.43	12.41	-49.5	-51.2	15.7	6.06e-01	0	24	0	291504128	67	4475
2026-01-08 14:10:07.35	260.64	12.45	-49.3	-51.0	15.8	6.08e-01	0	24	0	293076992	67	4389
2026-01-08 14:10:08.36	260.85	12.49	-49.2	-50.9	15.8	6.08e-01	0	24	0	295174144	67	4337
2026-01-08 14:10:09.36	261.06	12.52	-49.2	-50.9	15.8	6.06e-01	0	24	0	296747008	67	4329
2026-01-08 14:10:10.37	261.27	12.56	-49.2	-50.9	15.8	6.05e-01	0	24	0	298844160	67	4335
2026-01-08 14:10:11.38	261.48	12.60	-49.4	-51.1	15.7	6.06e-01	0	24	0	300941312	67	4420
2026-01-08 14:10:12.39	261.70	12.64	-49.4	-51.1	15.7	6.08e-01	0	24	0	302514176	67	4421
2026-01-08 14:10:13.40	261.91	12.68	-49.2	-50.9	15.8	6.06e-01	0	24	0	304611328	67	4298
2026-01-08 14:10:14.40	262.12	12.71	-49.0	-50.6	15.9	6.05e-01	0	24	0	306708480	67	4182
2026-01-08 14:10:15.41	262.34	12.75	-49.1	-50.8	15.8	6.08e-01	0	24	0	308281344	67	4261
2026-01-08 14:10:16.42	262.56	12.79	-49.3	-51.0	15.7	6.05e-01	0	24	0	310378496	67	4356
2026-01-08 14:10:17.42	262.77	12.82	-49.3	-51.0	15.7	6.06e-01	0	24	0	311951360	67	4377
2026-01-08 14:10:18.43	262.99	12.86	-49.1	-50.8	15.8	6.07e-01	0	24	0	314048512	67	4264
2026-01-08 14:10:19.44	263.21	12.89	-49.2	-50.9	15.8	6.07e-01	0	24	0	316145664	67	4328
2026-01-08 14:10:20.44	263.42	12.93	-49.2	-50.9	15.8	6.08e-01	0	24	0	317718528	67	4321
2026-01-08 14:10:21.46	263.64	12.96	-49.2	-50.9	15.8	6.07e-01	0	24	0	319815680	67	4336
2026-01-08 14:10:22.46	263.86	13.00	-49.2	-50.9	15.8	6.06e-01	0	24	0	321388544	67	4292
2026-01-08 14:10:23.47	264.08	13.03	-49.2	-50.9	15.8	6.07e-01	0	24	0	323485696	67	4295
2026-01-08 14:10:24.48	264.30	13.07	-49.2	-50.9	15.8	6.06e-01	0	24	0	325582848	67	4335
2026-01-08 14:10:25.49	264.52	13.10	-49.1	-50.8	15.8	6.07e-01	0	24	0	327155712	67	4277
2026-01-08 14:10:26.49	264.74	13.13	-49.1	-50.8	15.8	6.07e-01	0	24	0	329252864	67	4254
2026-01-08 14:10:27.50	264.96	13.16	-49.2	-50.9	15.8	6.07e-01	0	24	0	330825728	67	4310
2026-01-08 14:10:28.51	265.18	13.20	-49.1	-50.8	15.8	6.06e-01	0	24	0	332922880	67	4268
2026-01-08 14:10:29.51	265.41	13.23	-49.2	-50.8	15.8	6.07e-01	0	24	0	335020032	67	4285
2026-01-08 14:10:30.52	265.63	13.26	-49.1	-50.8	15.9	6.05e-01	0	24	0	336592896	67	4244
2026-01-08 14:10:31.53	265.85	13.29	-49.0	-50.7	15.9	6.07e-01	0	24	0	338690048	67	4206
2026-01-08 14:10:32.54	266.08	13.32	-49.1	-50.8	15.8	6.05e-01	0	24	0	340262912	67	4255
2026-01-08 14:10:33.54	266.30	13.36	-49.3	-51.0	15.8	6.06e-01	0	24	0	342360064	67	4351
2026-01-08 14:10:34.55	266.52	13.39	-49.2	-50.9	15.8	6.08e-01	0	24	0	344457216	67	4328
2026-01-08 14:10:35.55	266.75	13.42	-49.0	-50.7	15.9	6.06e-01	0	24	0	346030080	67	4198
2026-01-08 14:10:36.56	266.97	13.45	-49.0	-50.6	15.9	6.06e-01	0	24	0	348127232	67	4191
2026-01-08 14:10:37.57	267.20	13.48	-49.1	-50.8	15.8	6.06e-01	0	24	0	349700096	67	4261
2026-01-08 14:10:38.57	267.43	13.51	-49.2	-50.8	15.8	6.06e-01	0	24	0	351797248	67	4285
2026-01-08 14:10:39.58	267.65	13.53	-49.1	-50.8	15.9	6.04e-01	0	24	0	353894400	67	4256
2026-01-08 14:10:40.59	267.88	13.56	-49.1	-50.7	15.8	6.07e-01	0	24	0	355467264	67	4238
2026-01-08 14:10:41.60	268.11	13.59	-49.2	-50.8	15.8	6.06e-01	0	24	0	357564416	67	4276
2026-01-08 14:10:42.60	268.34	13.62	-49.2	-50.9	15.8	6.09e-01	0	24	0	359137280	67	4340
2026-01-08 14:10:43.61	268.57	13.65	-49.2	-50.9	15.8	6.08e-01	0	24	0	361234432	67	4308
2026-01-08 14:10:44.62	268.80	13.67	-49.2	-50.9	15.8	6.07e-01	0	24	0	363331584	67	4328
2026-01-08 14:10:45.63	269.03	13.70	-48.9	-50.6	15.9	6.06e-01	0	24	0	364904448	67	4159
2026-01-08 14:10:46.64	269.26	13.73	-49.0	-50.6	15.9	6.06e-01	0	24	0	367001600	67	4165
2026-01-08 14:10:47.65	269.49	13.75	-49.1	-50.7	15.8	6.08e-01	0	24	0	368574464	67	4238
2026-01-08 14:10:48.66	269.72	13.78	-49.1	-50.8	15.8	6.07e-01	0	24	0	370671616	67	4260
2026-01-08 14:10:49.67	269.95	13.80	-49.0	-50.7	15.9	6.07e-01	0	24	0	372768768	67	4199
2026-01-08 14:10:50.67	270.18	13.83	-48.9	-50.6	15.9	6.06e-01	0	24	0	374341632	67	4146
2026-01-08 14:10:51.68	270.42	13.85	-49.0	-50.6	15.9	6.06e-01	0	24	0	376438784	67	4183
2026-01-08 14:10:52.69	270.65	13.88	-49.1	-50.7	15.8	6.06e-01	0	24	0	378535936	67	4233
2026-01-08 14:10:53.70	270.88	13.90	-49.1	-50.8	15.8	6.06e-01	0	24	0	380108800	67	4261
2026-01-08 14:10:54.71	271.12	13.92	-49.1	-50.8	15.8	6.07e-01	0	24	0	382205952	67	4251
2026-01-08 14:10:55.72	271.35	13.95	-49.1	-50.7	15.9	6.06e-01	0	24	0	383778816	67	4234
2026-01-08 14:10:56.73	271.59	13.97	-49.1	-50.8	15.8	6.07e-01	0	24	0	385875968	67	4270
2026-01-08 14:10:57.74	271.82	13.99	-49.1	-50.8	15.8	6.08e-01	0	24	0	387973120	67	4271
2026-01-08 14:10:58.75	272.06	14.01	-49.1	-50.7	15.9	6.07e-01	0	24	0	389545984	67	4235
2026-01-08 14:10:59.76	272.29	14.03	-49.0	-50.6	15.9	6.07e-01	0	24	0	391643136	67	4173
2026-01-08 14:11:00.76	272.53	14.05	-49.1	-50.8	15.8	6.05e-01	0	24	0	393216000	67	4256
2026-01-08 14:11:01.77	272.77	14.08	-49.1	-50.7	15.9	6.07e-01	0	24	0	395313152	67	4224
2026-01-08 14:11:02.78	273.00	14.10	-49.1	-50.7	15.9	6.07e-01	0	24	0	397410304	67	4229
2026-01-08 14:11:03.79	273.24	14.12	-49.2	-50.8	15.8	6.05e-01	0	24	0	398983168	67	4286
2026-01-08 14:11:04.80	273.48	14.13	-49.3	-51.0	15.8	6.08e-01	0	24	0	401080320	67	4353
2026-01-08 14:11:05.80	273.71	14.15	-49.2	-50.8	15.8	6.06e-01	0	24	0	402653184	67	4276
2026-01-08 14:11:06.81	273.95	14.17	-49.1	-50.8	15.8	6.05e-01	0	24	0	404750336	67	4261
2026-01-08 14:11:07.82	274.19	14.19	-49.3	-51.0	15.8	6.05e-01	0	24	0	406847488	67	4368
2026-01-08 14:11:08.83	274.43	14.21	-49.3	-51.0	15.7	6.08e-01	0	24	0	408420352	67	4386
2026-01-08 14:11:09.84	274.67	14.22	-49.2	-50.8	15.8	6.07e-01	0	24	0	410517504	67	4284
2026-01-08 14:11:10.85	274.91	14.24	-49.2	-50.9	15.8	6.08e-01	0	24	0	412090368	67	4299
2026-01-08 14:11:11.86	275.15	14.26	-49.3	-51.0	15.8	6.06e-01	0	24	0	414187520	67	4361
2026-01-08 14:11:12.87	275.39	14.27	-49.3	-51.0	15.8	6.05e-01	0	24	0	416284672	67	4358
2026-01-08 14:11:13.88	275.63	14.29	-49.2	-50.9	15.8	6.05e-01	0	24	0	417857536	67	4319
2026-01-08 14:11:14.88	275.86	14.30	-49.2	-50.9	15.8	6.09e-01	0	24	0	419954688	67	4323
2026-01-08 14:11:15.89	276.10	14.32	-49.2	-50.8	15.8	6.05e-01	0	24	0	421527552	67	4275
2026-01-08 14:11:16.90	276.35	14.33	-49.1	-50.8	15.8	6.06e-01	0	24	0	423624704	67	4263
2026-01-08 14:11:17.91	276.59	14.35	-49.2	-50.8	15.8	6.07e-01	0	24	0	425721856	67	4284
2026-01-08 14:11:18.91	276.83	14.36	-49.2	-50.9	15.8	6.07e-01	0	24	0	427294720	67	4299
2026-01-08 14:11:19.92	277.07	14.37	-49.2	-50.9	15.8	6.02e-01	0	24	0	429391872	67	4324
2026-01-08 14:11:20.94	277.31	14.38	-49.3	-51.0	15.8	6.04e-01	0	24	0	431489024	67	4366
2026-01-08 14:11:21.94	277.55	14.40	-49.3	-51.0	15.7	6.03e-01	0	24	0	433061888	67	4372
2026-01-08 14:11:22.95	277.79	14.41	-49.2	-50.8	15.8	6.03e-01	0	24	0	435159040	67	4283
2026-01-08 14:11:23.96	278.04	14.42	-49.1	-50.8	15.8	6.04e-01	0	24	0	436731904	67	4262
2026-01-08 14:11:24.97	278.28	14.43	-49.2	-50.9	15.8	6.04e-01	0	24	0	438829056	67	4310
2026-01-08 14:11:25.98	278.52	14.44	-49.2	-50.8	15.8	6.03e-01	0	24	0	440926208	67	4278
2026-01-08 14:11:26.99	278.76	14.45	-49.3	-50.9	15.8	6.02e-01	0	24	0	442499072	67	4327
2026-01-08 14:11:27.99	279.00	14.46	-49.2	-50.8	15.8	6.04e-01	0	24	0	444596224	67	4266
2026-01-08 14:11:28.99	279.24	14.47	-49.2	-50.8	15.8	6.04e-01	0	24	0	446169088	67	4282
2026-01-08 14:11:30.00	279.49	14.48	-49.3	-51.0	15.7	6.03e-01	0	24	0	448266240	67	4368
2026-01-08 14:11:31.01	279.73	14.48	-49.3	-50.9	15.8	6.05e-01	0	24	0	449839104	67	4332
2026-01-08 14:11:32.02	279.97	14.49	-49.2	-50.9	15.8	6.02e-01	0	24	0	451936256	67	4302
2026-01-08 14:11:33.03	280.22	14.50	-49.3	-50.9	15.8	6.04e-01	0	24	0	454033408	67	4339
2026-01-08 14:11:34.03	280.46	14.50	-49.3	-51.0	15.7	6.03e-01	0	24	0	455606272	67	4384
2026-01-08 14:11:35.04	280.70	14.51	-49.1	-50.7	15.8	6.02e-01	0	24	0	457703424	67	4234
2026-01-08 14:11:36.05	280.95	14.52	-49.2	-50.9	15.8	6.04e-01	0	24	0	459800576	67	4306
2026-01-08 14:11:37.06	281.19	14.52	-49.3	-51.0	15.8	6.04e-01	0	24	0	461373440	67	4361
2026-01-08 14:11:38.07	281.44	14.53	-49.3	-51.0	15.8	6.05e-01	0	24	0	463470592	67	4341
2026-01-08 14:11:39.07	281.68	14.53	-49.3	-51.0	15.7	6.04e-01	0	24	0	465043456	67	4380
2026-01-08 14:11:40.08	281.92	14.53	-49.1	-50.8	15.8	6.02e-01	0	24	0	467140608	67	4249
2026-01-08 14:11:41.09	282.17	14.54	-49.2	-50.8	15.8	6.02e-01	0	24	0	469237760	67	4280
2026-01-08 14:11:42.10	282.41	14.54	-49.2	-50.9	15.8	6.05e-01	0	24	0	470810624	67	4298
2026-01-08 14:11:43.11	282.66	14.54	-49.4	-51.1	15.7	6.05e-01	0	24	0	472907776	67	4415
2026-01-08 14:11:44.12	282.90	14.54	-49.3	-51.0	15.7	6.04e-01	0	24	0	474480640	67	4367
2026-01-08 14:11:45.13	283.14	14.55	-49.3	-51.0	15.7	6.02e-01	0	24	0	476577792	67	4363
2026-01-08 14:11:46.13	283.39	14.55	-49.4	-51.1	15.7	6.05e-01	0	24	0	478674944	67	4435
2026-01-08 14:11:47.14	283.63	14.55	-49.4	-51.1	15.7	6.04e-01	0	24	0	480247808	67	4410
2026-01-08 14:11:48.15	283.88	14.55	-49.4	-51.1	15.7	6.04e-01	0	24	0	482344960	67	4423
2026-01-08 14:11:49.16	284.12	14.55	-49.5	-51.2	15.7	6.03e-01	0	24	0	483917824	67	4474
2026-01-08 14:11:50.16	284.36	14.55	-49.4	-51.1	15.7	6.04e-01	0	24	0	486014976	67	4437
2026-01-08 14:11:51.18	284.61	14.54	-49.6	-51.3	15.6	6.03e-01	0	24	0	488112128	67	4525
2026-01-08 14:11:52.18	284.85	14.54	-49.6	-51.3	15.6	6.04e-01	0	24	0	489684992	67	4537
2026-01-08 14:11:53.19	285.09	14.54	-49.5	-51.2	15.7	6.03e-01	0	24	0	491782144	67	4492
2026-01-08 14:11:54.20	285.34	14.54	-49.6	-51.4	15.6	6.02e-01	0	24	0	493355008	67	4550
2026-01-08 14:11:55.21	285.58	14.54	-49.5	-51.2	15.7	6.03e-01	0	24	0	495452160	67	4463
2026-01-08 14:11:56.22	285.83	14.53	-49.4	-51.1	15.7	6.05e-01	0	24	0	497549312	67	4395
2026-01-08 14:11:57.23	286.07	14.53	-49.2	-50.8	15.8	6.04e-01	0	24	0	499122176	67	4279
2026-01-08 14:11:58.24	286.32	14.52	-49.2	-50.8	15.8	6.04e-01	0	24	0	501219328	67	4283
2026-01-08 14:11:59.25	286.56	14.52	-49.3	-51.0	15.7	6.05e-01	0	24	0	503316480	67	4357
2026-01-08 14:12:00.25	286.80	14.51	-49.4	-51.1	15.7	6.04e-01	0	24	0	504889344	67	4400
2026-01-08 14:12:01.26	287.05	14.51	-49.4	-51.1	15.7	6.03e-01	0	24	0	506986496	67	4421
2026-01-08 14:12:02.27	287.29	14.50	-49.4	-51.1	15.7	6.02e-01	0	24	0	508559360	67	4406
2026-01-08 14:12:03.28	287.53	14.49	-49.4	-51.1	15.7	6.03e-01	0	24	0	510656512	67	4397
2026-01-08 14:12:04.28	287.77	14.49	-49.3	-51.0	15.7	6.03e-01	0	24	0	512753664	67	4386
2026-01-08 14:12:05.29	288.02	14.48	-49.4	-51.1	15.7	6.04e-01	0	24	0	514326528	67	4402
2026-01-08 14:12:06.30	288.26	14.47	-49.3	-51.0	15.7	6.03e-01	0	24	0	516423680	67	4368
2026-01-08 14:12:07.31	288.50	14.46	-49.4	-51.1	15.7	6.03e-01	0	24	0	517996544	67	4406
2026-01-08 14:12:08.32	288.75	14.45	-49.4	-51.1	15.7	6.03e-01	0	24	0	520093696	67	4404
2026-01-08 14:12:09.32	288.99	14.44	-49.5	-51.3	15.7	6.05e-01	0	24	0	522190848	67	4497
2026-01-08 14:12:10.33	289.23	14.43	-49.5	-51.2	15.7	6.05e-01	0	24	0	523763712	67	4460
2026-01-08 14:12:11.34	289.47	14.42	-49.5	-51.2	15.7	6.05e-01	0	24	0	525860864	67	4482
2026-01-08 14:12:12.35	289.71	14.41	-49.4	-51.1	15.7	6.05e-01	0	24	0	527433728	67	4408
2026-01-08 14:12:13.36	289.96	14.40	-49.3	-50.9	15.8	6.03e-01	0	24	0	529530880	67	4332
2026-01-08 14:12:14.37	290.20	14.39	-49.4	-51.1	15.7	6.04e-01	0	24	0	531628032	67	4407
2026-01-08 14:12:15.37	290.44	14.38	-49.5	-51.2	15.7	6.03e-01	0	24	0	533200896	67	4474
2026-01-08 14:12:16.38	290.68	14.36	-49.4	-51.1	15.7	6.02e-01	0	24	0	535298048	67	4417
2026-01-08 14:12:17.39	290.92	14.35	-49.4	-51.1	15.7	6.03e-01	0	24	0	536870912	67	4407
2026-01-08 14:12:18.40	291.16	14.34	-49.3	-51.0	15.8	6.05e-01	0	24	0	538968064	67	4342
2026-01-08 14:12:19.41	291.40	14.32	-49.2	-50.8	15.8	6.07e-01	0	24	0	541065216	67	4289
2026-01-08 14:12:20.42	291.64	14.31	-49.4	-51.1	15.7	6.04e-01	0	24	0	542638080	67	4395
2026-01-08 14:12:21.43	291.88	14.29	-49.4	-51.1	15.7	6.03e-01	0	24	0	544735232	67	4430
2026-01-08 14:12:22.44	292.12	14.28	-49.4	-51.1	15.7	6.03e-01	0	24	0	546308096	67	4397
2026-01-08 14:12:23.45	292.36	14.26	-49.2	-50.9	15.8	6.02e-01	0	24	0	548405248	67	4319
2026-01-08 14:12:24.45	292.60	14.25	-49.2	-50.8	15.8	6.05e-01	0	24	0	550502400	67	4284
2026-01-08 14:12:25.46	292.84	14.23	-49.3	-51.0	15.8	6.02e-01	0	24	0	552075264	67	4365
2026-01-08 14:12:26.47	293.07	14.21	-49.6	-51.3	15.7	6.04e-01	0	24	0	554172416	67	4520
2026-01-08 14:12:27.48	293.31	14.20	-49.5	-51.3	15.7	6.03e-01	0	24	0	556269568	67	4500
2026-01-08 14:12:28.49	293.55	14.18	-49.4	-51.0	15.7	6.04e-01	0	24	0	557842432	67	4383
2026-01-08 14:12:29.49	293.79	14.16	-49.2	-50.9	15.8	6.03e-01	0	24	0	559939584	67	4316
2026-01-08 14:12:30.50	294.02	14.14	-49.3	-50.9	15.8	6.04e-01	0	24	0	561512448	67	4338
2026-01-08 14:12:31.51	294.26	14.12	-49.5	-51.2	15.7	6.02e-01	0	24	0	563609600	67	4452
2026-01-08 14:12:32.51	294.50	14.10	-49.4	-51.1	15.7	6.01e-01	0	24	0	565182464	67	4411
2026-01-08 14:12:33.52	294.73	14.08	-49.3	-50.9	15.8	6.05e-01	0	24	0	567279616	67	4332
2026-01-08 14:12:34.52	294.97	14.06	-49.2	-50.9	15.8	6.03e-01	0	24	0	569376768	67	4327
2026-01-08 14:12:35.52	295.20	14.04	-49.3	-50.9	15.8	6.02e-01	0	24	0	570949632	67	4338
2026-01-08 14:12:36.53	295.44	14.02	-49.3	-51.0	15.8	6.04e-01	0	24	0	573046784	67	4363
2026-01-08 14:12:37.54	295.67	14.00	-49.4	-51.1	15.7	6.03e-01	0	24	0	574619648	67	4406
2026-01-08 14:12:38.55	295.91	13.98	-49.5	-51.2	15.7	6.02e-01	0	24	0	576716800	67	4457
2026-01-08 14:12:39.55	296.14	13.96	-49.5	-51.2	15.7	6.04e-01	0	24	0	578813952	67	4468
2026-01-08 14:12:40.56	296.37	13.93	-49.3	-51.0	15.7	6.03e-01	0	24	0	580386816	67	4371
2026-01-08 14:12:41.57	296.61	13.91	-49.4	-51.2	15.7	6.06e-01	0	24	0	582483968	67	4449
2026-01-08 14:12:42.57	296.84	13.89	-49.2	-50.9	15.8	6.04e-01	0	24	0	584581120	67	4330
2026-01-08 14:12:43.58	297.07	13.86	-49.3	-51.0	15.7	6.04e-01	0	24	0	586153984	67	4387
2026-01-08 14:12:44.59	297.30	13.84	-49.3	-50.9	15.8	6.02e-01	0	24	0	588251136	67	4334
2026-01-08 14:12:45.59	297.53	13.82	-49.3	-51.1	15.7	6.02e-01	0	24	0	589824000	67	4392
2026-01-08 14:12:46.60	297.76	13.79	-49.4	-51.1	15.7	6.04e-01	0	24	0	591921152	67	4427
2026-01-08 14:12:47.61	298.00	13.77	-49.3	-51.0	15.7	6.06e-01	0	24	0	593494016	67	4373
2026-01-08 14:12:48.61	298.22	13.74	-49.3	-51.0	15.7	6.02e-01	0	24	0	595591168	67	4386
2026-01-08 14:12:49.61	298.45	13.71	-49.4	-51.1	15.7	6.05e-01	0	24	0	597688320	67	4401
2026-01-08 14:12:50.61	298.68	13.69	-49.5	-51.2	15.7	6.03e-01	0	24	0	599261184	67	4469
2026-01-08 14:12:51.62	298.91	13.66	-49.5	-51.2	15.7	6.04e-01	0	24	0	601358336	67	4461
2026-01-08 14:12:52.62	299.14	13.63	-49.3	-51.0	15.7	6.03e-01	0	24	0	602931200	67	4365
2026-01-08 14:12:53.63	299.37	13.61	-49.2	-50.8	15.8	6.02e-01	0	24	0	605028352	67	4284
2026-01-08 14:12:54.64	299.59	13.58	-49.3	-50.9	15.7	6.02e-01	0	24	0	607125504	67	4332
2026-01-08 14:12:55.65	299.82	13.55	-49.3	-51.0	15.7	6.01e-01	0	24	0	608698368	67	4371
2026-01-08 14:12:56.66	300.05	13.52	-49.3	-51.0	15.7	6.04e-01	0	24	0	610795520	67	4371
2026-01-08 14:12:57.67	300.28	13.49	-49.3	-51.1	15.7	6.05e-01	0	24	0	612368384	67	4392
2026-01-08 14:12:58.68	300.50	13.46	-49.3	-51.0	15.7	6.03e-01	0	24	0	614465536	67	4357
2026-01-08 14:12:59.68	300.73	13.43	-49.3	-50.9	15.7	6.05e-01	0	24	0	616562688	67	4337
2026-01-08 14:13:00.69	300.95	13.40	-49.4	-51.1	15.7	6.04e-01	0	24	0	618135552	67	4427
2026-01-08 14:13:01.69	301.17	13.37	-49.3	-51.0	15.7	6.03e-01	0	24	0	620232704	67	4373
2026-01-08 14:13:02.70	301.40	13.34	-49.3	-51.0	15.7	6.04e-01	0	24	0	621805568	67	4367
2026-01-08 14:13:03.71	301.62	13.31	-49.3	-51.0	15.7	6.04e-01	0	24	0	623902720	67	4359
2026-01-08 14:13:04.71	301.84	13.28	-49.3	-51.0	15.7	6.03e-01	0	24	0	625999872	67	4356
2026-01-08 14:13:05.72	302.07	13.25	-49.2	-50.8	15.8	6.05e-01	0	24	0	627572736	67	4286
2026-01-08 14:13:06.72	302.29	13.22	-49.3	-50.9	15.8	6.03e-01	0	24	0	629669888	67	4337
2026-01-08 14:13:07.73	302.51	13.18	-49.4	-51.1	15.7	6.02e-01	0	24	0	631242752	67	4396
2026-01-08 14:13:08.74	302.73	13.15	-49.3	-51.0	15.7	6.05e-01	0	24	0	633339904	67	4370
2026-01-08 14:13:09.75	302.95	13.12	-49.3	-51.0	15.7	6.04e-01	0	24	0	635437056	67	4386
2026-01-08 14:13:10.76	303.17	13.08	-49.3	-51.0	15.7	6.03e-01	0	24	0	637009920	67	4375
2026-01-08 14:13:11.76	303.39	13.05	-49.2	-50.9	15.8	6.03e-01	0	24	0	639107072	67	4331
2026-01-08 14:13:12.77	303.61	13.02	-49.3	-50.9	15.8	6.02e-01	0	24	0	641204224	67	4339
2026-01-08 14:13:13.78	303.83	12.98	-49.2	-50.9	15.8	6.05e-01	0	24	0	642777088	67	4334
2026-01-08 14:13:14.79	304.05	12.95	-49.2	-50.9	15.7	6.03e-01	0	24	0	644874240	67	4321
2026-01-08 14:13:15.80	304.26	12.91	-49.2	-50.9	15.8	6.04e-01	0	24	0	646447104	67	4333
2026-01-08 14:13:16.80	304.48	12.88	-49.3	-51.0	15.8	6.05e-01	0	24	0	648544256	67	4341
2026-01-08 14:13:17.81	304.70	12.84	-49.2	-50.9	15.7	6.03e-01	0	24	0	650117120	67	4320
2026-01-08 14:13:18.82	304.91	12.81	-49.3	-50.9	15.7	6.03e-01	0	24	0	652214272	67	4340
2026-01-08 14:13:19.83	305.13	12.77	-49.3	-51.0	15.7	6.05e-01	0	24	0	654311424	67	4356
2026-01-08 14:13:20.84	305.34	12.74	-49.4	-51.1	15.7	6.03e-01	0	24	0	655884288	67	4431
2026-01-08 14:13:21.85	305.56	12.70	-49.4	-51.1	15.7	6.05e-01	0	24	0	657981440	67	4407
2026-01-08 14:13:22.85	305.77	12.66	-49.5	-51.2	15.7	6.05e-01	0	24	0	659554304	67	4462
2026-01-08 14:13:23.86	305.98	12.62	-49.4	-51.1	15.7	6.05e-01	0	24	0	661651456	67	4412
2026-01-08 14:13:24.87	306.20	12.59	-49.3	-51.0	15.7	6.07e-01	0	24	0	663748608	67	4350
2026-01-08 14:13:25.88	306.41	12.55	-49.2	-50.9	15.8	6.01e-01	0	24	0	665321472	67	4332
2026-01-08 14:13:26.89	306.62	12.51	-49.3	-51.0	15.7	6.04e-01	0	24	0	667418624	67	4374
2026-01-08 14:13:27.89	306.83	12.47	-49.4	-51.1	15.7	6.02e-01	0	24	0	669515776	67	4420
2026-01-08 14:13:28.90	307.04	12.43	-49.3	-51.0	15.7	6.02e-01	0	24	0	671088640	67	4374
2026-01-08 14:13:29.91	307.25	12.40	-49.3	-51.0	15.7	6.05e-01	0	24	0	673185792	67	4384
2026-01-08 14:13:30.91	307.46	12.36	-49.3	-51.0	15.7	6.03e-01	0	24	0	674758656	67	4380
2026-01-08 14:13:31.92	307.66	12.32	-49.3	-51.1	15.7	6.03e-01	0	24	0	676855808	67	4399
2026-01-08 14:13:32.93	307.87	12.28	-49.3	-51.0	15.7	6.03e-01	0	24	0	678952960	67	4365
2026-01-08 14:13:33.94	308.08	12.24	-49.3	-51.0	15.7	6.02e-01	0	24	0	680525824	67	4365
2026-01-08 14:13:34.94	308.29	12.20	-49.4	-51.2	15.7	6.04e-01	0	24	0	682622976	67	4454
2026-01-08 14:13:35.95	308.49	12.16	-49.3	-51.0	15.7	6.03e-01	0	24	0	684195840	67	4385
2026-01-08 14:13:36.96	308.70	12.12	-49.3	-51.0	15.8	6.04e-01	0	24	0	686292992	67	4358
2026-01-08 14:13:37.96	308.90	12.08	-49.3	-50.9	15.7	6.04e-01	0	24	0	687865856	67	4340
2026-01-08 14:13:38.97	309.11	12.04	-49.3	-51.1	15.7	6.04e-01	0	24	0	689963008	67	4401
2026-01-08 14:13:39.97	309.31	12.00	-49.4	-51.1	15.7	6.04e-01	0	24	0	692060160	67	4406
2026-01-08 14:13:40.98	309.51	11.95	-49.4	-51.1	15.7	6.04e-01	0	24	0	693633024	67	4420
2026-01-08 14:13:41.99	309.71	11.91	-49.4	-51.1	15.7	6.03e-01	0	24	0	695730176	67	4408
2026-01-08 14:13:43.00	309.92	11.87	-49.4	-51.1	15.7	6.03e-01	0	24	0	697827328	67	4432
2026-01-08 14:13:44.01	310.12	11.83	-49.4	-51.1	15.7	6.02e-01	0	24	0	699400192	67	4427
2026-01-08 14:13:45.02	310.32	11.79	-49.4	-51.1	15.7	6.01e-01	0	24	0	701497344	67	4409
2026-01-08 14:13:46.03	310.52	11.74	-49.3	-51.0	15.7	6.05e-01	0	24	0	703070208	67	4390
2026-01-08 14:13:47.03	310.72	11.70	-49.3	-51.0	15.7	6.04e-01	0	24	0	705167360	67	4378
2026-01-08 14:13:48.03	310.91	11.66	-49.3	-51.0	15.7	6.02e-01	0	24	0	707264512	67	4379
2026-01-08 14:13:49.04	311.11	11.61	-49.4	-51.1	15.7	6.00e-01	0	24	0	708837376	67	4431
2026-01-08 14:13:50.05	311.31	11.57	-49.4	-51.1	15.7	6.04e-01	0	24	0	710934528	67	4430
2026-01-08 14:13:51.05	311.51	11.53	-49.3	-51.0	15.7	6.03e-01	0	24	0	712507392	67	4370
2026-01-08 14:13:52.06	311.70	11.48	-49.2	-50.9	15.8	6.02e-01	0	24	0	714604544	67	4326
2026-01-08 14:13:53.06	311.90	11.44	-49.1	-50.8	15.8	6.03e-01	0	24	0	716177408	67	4274
2026-01-08 14:13:54.07	312.09	11.40	-49.2	-50.9	15.8	6.04e-01	0	24	0	718274560	67	4330
2026-01-08 14:13:55.08	312.29	11.35	-49.3	-51.0	15.7	6.02e-01	0	24	0	720371712	67	4361
2026-01-08 14:13:56.08	312.48	11.31	-49.4	-51.1	15.7	6.04e-01	0	24	0	721944576	67	4435
2026-01-08 14:13:57.09	312.67	11.26	-49.4	-51.2	15.7	6.03e-01	0	24	0	724041728	67	4453
2026-01-08 14:13:58.09	312.86	11.22	-49.5	-51.2	15.6	6.02e-01	0	24	0	726138880	67	4492
2026-01-08 14:13:59.10	313.06	11.17	-49.5	-51.2	15.6	6.05e-01	0	24	0	727711744	67	4476
2026-01-08 14:14:00.10	313.25	11.13	-49.3	-51.1	15.7	6.04e-01	0	24	0	729808896	67	4397
2026-01-08 14:14:01.11	313.44	11.08	-49.3	-51.0	15.7	6.03e-01	0	24	0	731381760	67	4381
2026-01-08 14:14:02.12	313.63	11.04	-49.3	-51.0	15.7	6.04e-01	0	24	0	733478912	67	4379
2026-01-08 14:14:03.13	313.82	10.99	-49.4	-51.1	15.7	6.02e-01	0	24	0	735576064	67	4427
2026-01-08 14:14:04.14	314.01	10.95	-49.3	-51.0	15.7	6.02e-01	0	24	0	737148928	67	4382
2026-01-08 14:14:05.15	314.19	10.90	-49.4	-51.1	15.7	6.02e-01	0	24	0	739246080	67	4437
2026-01-08 14:14:06.16	314.38	10.85	-49.4	-51.1	15.7	6.04e-01	0	24	0	740818944	67	4434
2026-01-08 14:14:07.16	314.57	10.81	-49.4	-51.1	15.7	6.04e-01	0	24	0	742916096	67	4430
2026-01-08 14:14:08.17	314.76	10.76	-49.4	-51.1	15.7	6.03e-01	0	24	0	745013248	67	4431
2026-01-08 14:14:09.18	314.94	10.71	-49.4	-51.2	15.7	6.03e-01	0	24	0	746586112	67	4470
2026-01-08 14:14:10.18	315.12	10.67	-49.4	-51.2	15.7	6.03e-01	0	24	0	748683264	67	4479
2026-01-08 14:14:11.19	315.31	10.62	-49.4	-51.2	15.7	6.07e-01	0	24	0	750256128	67	4466
2026-01-08 14:14:12.19	315.49	10.57	-49.4	-51.2	15.7	6.04e-01	0	24	0	752353280	67	4457
2026-01-08 14:14:13.20	315.68	10.53	-49.2	-51.0	15.7	6.02e-01	0	24	0	754450432	67	4344
2026-01-08 14:14:14.21	315.86	10.48	-49.3	-51.1	15.7	6.04e-01	0	24	0	756023296	67	4418
2026-01-08 14:14:15.22	316.04	10.43	-49.3	-51.1	15.7	6.03e-01	0	24	0	758120448	67	4412
2026-01-08 14:14:16.23	316.22	10.38	-49.3	-51.1	15.7	6.03e-01	0	24	0	759693312	67	4400
2026-01-08 14:14:17.23	316.40	10.33	-49.4	-51.2	15.7	6.05e-01	0	24	0	761790464	67	4459
2026-01-08 14:14:18.24	316.58	10.29	-49.5	-51.3	15.6	6.04e-01	0	24	0	763887616	67	4532
2026-01-08 14:14:19.25	316.76	10.24	-49.6	-51.4	15.6	6.03e-01	0	24	0	765460480	67	4561
2026-01-08 14:14:20.26	316.94	10.19	-49.7	-51.5	15.5	6.04e-01	0	24	0	767557632	67	4639
2026-01-08 14:14:21.27	317.12	10.14	-49.6	-51.4	15.6	6.01e-01	0	24	0	769130496	67	4576
2026-01-08 14:14:22.28	317.30	10.09	-49.7	-51.5	15.6	6.02e-01	0	24	0	771227648	67	4626
2026-01-08 14:14:23.28	317.47	10.05	-49.7	-51.5	15.5	6.05e-01	0	24	0	773324800	67	4642
2026-01-08 14:14:24.29	317.65	10.00	-49.5	-51.3	15.6	6.05e-01	0	24	0	774897664	67	4509
2026-01-08 14:14:25.30	317.83	9.95	-49.5	-51.3	15.6	5.99e-01	0	24	0	776994816	67	4494
2026-01-08 14:14:26.31	318.00	9.90	-49.5	-51.3	15.6	6.02e-01	0	24	0	778567680	67	4499
2026-01-08 14:14:27.32	318.18	9.85	-49.5	-51.2	15.6	6.00e-01	0	24	0	780664832	67	4489
2026-01-08 14:14:28.33	318.35	9.80	-49.3	-51.1	15.7	6.01e-01	0	24	0	782761984	67	4427
2026-01-08 14:14:29.33	318.52	9.75	-49.4	-51.2	15.7	6.04e-01	0	24	0	784334848	67	4446
2026-01-08 14:14:30.34	318.70	9.70	-49.4	-51.1	15.6	6.01e-01	0	24	0	786432000	67	4438
2026-01-08 14:14:31.34	318.87	9.65	-49.6	-51.4	15.6	6.03e-01	0	24	0	788004864	67	4588
2026-01-08 14:14:32.35	319.04	9.60	-49.6	-51.4	15.6	6.03e-01	0	24	0	790102016	67	4584
2026-01-08 14:14:33.36	319.21	9.55	-49.6	-51.4	15.6	6.02e-01	0	24	0	792199168	67	4593
2026-01-08 14:14:34.36	319.38	9.50	-49.7	-51.5	15.5	6.05e-01	0	24	0	793772032	67	4641
2026-01-08 14:14:35.37	319.55	9.45	-49.5	-51.4	15.6	6.03e-01	0	24	0	795869184	67	4547
2026-01-08 14:14:36.37	319.72	9.40	-49.6	-51.4	15.6	6.04e-01	0	24	0	797966336	67	4577
2026-01-08 14:14:37.38	319.89	9.35	-49.7	-51.6	15.5	6.04e-01	0	24	0	799539200	67	4656
2026-01-08 14:14:38.38	320.05	9.30	-49.5	-51.3	15.6	6.03e-01	0	24	0	801636352	67	4528
2026-01-08 14:14:39.39	320.22	9.25	-49.5	-51.3	15.6	6.02e-01	0	24	0	803209216	67	4519
2026-01-08 14:14:40.40	320.39	9.20	-49.5	-51.3	15.6	6.05e-01	0	24	0	805306368	67	4511
2026-01-08 14:14:41.41	320.55	9.15	-49.5	-51.3	15.6	6.02e-01	0	24	0	806879232	67	4525
2026-01-08 14:14:42.42	320.72	9.10	-49.6	-51.4	15.6	6.03e-01	0	24	0	808976384	67	4569
2026-01-08 14:14:43.43	320.88	9.05	-49.6	-51.4	15.6	6.05e-01	0	24	0	811073536	67	4577
2026-01-08 14:14:44.44	321.05	9.00	-49.7	-51.6	15.5	6.05e-01	0	24	0	812646400	67	4657
2026-01-08 14:14:45.44	321.21	8.95	-49.7	-51.5	15.5	6.03e-01	0	24	0	814743552	67	4646
2026-01-08 14:14:46.45	321.38	8.90	-49.5	-51.4	15.6	6.03e-01	0	24	0	816316416	67	4558
2026-01-08 14:14:47.46	321.54	8.85	-49.6	-51.5	15.6	6.03e-01	0	24	0	818413568	67	4600
2026-01-08 14:14:48.47	321.70	8.80	-49.6	-51.5	15.5	6.03e-01	0	24	0	820510720	67	4625
2026-01-08 14:14:49.47	321.86	8.75	-49.7	-51.6	15.5	6.03e-01	0	24	0	822083584	67	4687
2026-01-08 14:14:50.47	322.02	8.70	-49.6	-51.5	15.6	6.05e-01	0	24	0	824180736	67	4603
2026-01-08 14:14:51.48	322.18	8.64	-49.6	-51.4	15.6	6.03e-01	0	24	0	826277888	67	4565
2026-01-08 14:14:52.49	322.34	8.59	-49.5	-51.4	15.6	6.03e-01	0	24	0	827850752	67	4563
2026-01-08 14:14:53.50	322.50	8.54	-49.5	-51.4	15.6	6.02e-01	0	24	0	829947904	67	4562
2026-01-08 14:14:54.50	322.66	8.49	-49.7	-51.5	15.5	6.02e-01	0	24	0	831520768	67	4645
2026-01-08 14:14:55.51	322.81	8.44	-49.7	-51.5	15.5	6.00e-01	0	24	0	833617920	67	4645
2026-01-08 14:14:56.52	322.97	8.39	-49.8	-51.7	15.5	6.04e-01	0	24	0	835190784	67	4738
2026-01-08 14:14:57.52	323.13	8.34	-49.8	-51.7	15.5	6.05e-01	0	24	0	837287936	67	4729
2026-01-08 14:14:58.53	323.28	8.29	-49.9	-51.9	15.4	6.03e-01	0	24	0	839385088	67	4815
2026-01-08 14:14:59.54	323.44	8.23	-49.7	-51.6	15.5	6.01e-01	0	24	0	840957952	67	4666
2026-01-08 14:15:00.55	323.59	8.18	-49.6	-51.4	15.6	6.03e-01	0	24	0	843055104	67	4560
2026-01-08 14:15:01.56	323.75	8.13	-49.7	-51.6	15.5	6.04e-01	0	24	0	844627968	67	4668
2026-01-08 14:15:02.56	323.90	8.08	-49.8	-51.7	15.5	6.03e-01	0	24	0	846725120	67	4706
2026-01-08 14:15:03.57	324.05	8.03	-49.8	-51.7	15.5	6.03e-01	0	24	0	848822272	67	4707
2026-01-08 14:15:04.58	324.21	7.98	-49.8	-51.7	15.5	6.04e-01	0	24	0	850395136	67	4734
2026-01-08 14:15:05.59	324.36	7.92	-49.9	-51.9	15.4	6.04e-01	0	24	0	852492288	67	4821
2026-01-08 14:15:06.59	324.51	7.87	-50.0	-51.9	15.4	6.02e-01	0	24	0	854589440	67	4866
2026-01-08 14:15:07.60	324.66	7.82	-50.0	-51.9	15.4	6.02e-01	0	24	0	856162304	67	4847
2026-01-08 14:15:08.61	324.81	7.77	-50.1	-52.0	15.3	6.04e-01	0	24	0	858259456	67	4913
2026-01-08 14:15:09.62	324.96	7.72	-49.9	-51.9	15.4	6.02e-01	0	24	0	859832320	67	4822
2026-01-08 14:15:10.62	325.11	7.66	-49.7	-51.6	15.5	6.01e-01	0	24	0	861929472	67	4698
2026-01-08 14:15:11.63	325.26	7.61	-50.0	-51.9	15.4	6.04e-01	0	24	0	864026624	67	4853
2026-01-08 14:15:12.64	325.41	7.56	-49.8	-51.8	15.4	6.05e-01	0	24	0	865599488	67	4773
2026-01-08 14:15:13.65	325.55	7.51	-49.9	-51.8	15.4	6.04e-01	0	24	0	867696640	67	4798
2026-01-08 14:15:14.66	325.70	7.45	-49.9	-51.8	15.4	6.03e-01	0	24	0	869269504	67	4785
2026-01-08 14:15:15.66	325.85	7.40	-50.0	-52.0	15.4	6.03e-01	0	24	0	871366656	67	4875
2026-01-08 14:15:16.67	325.99	7.35	-49.9	-51.9	15.4	6.03e-01	0	24	0	873463808	67	4820
2026-01-08 14:15:17.68	326.14	7.30	-50.2	-52.1	15.5	6.04e-01	0	24	0	875036672	68	4695
2026-01-08 14:15:18.69	326.28	7.25	-50.1	-52.1	15.5	6.02e-01	0	24	0	877133824	68	4692
2026-01-08 14:15:19.70	326.43	7.19	-50.1	-52.1	15.5	6.04e-01	0	24	0	878706688	68	4654
2026-01-08 14:15:20.70	326.57	7.14	-50.2	-52.1	15.5	6.03e-01	0	24	0	880803840	68	4703
2026-01-08 14:15:21.71	326.71	7.09	-50.1	-52.1	15.5	6.01e-01	0	24	0	882900992	68	4654
2026-01-08 14:15:22.72	326.86	7.04	-50.0	-52.0	15.5	6.03e-01	0	24	0	884473856	68	4611
2026-01-08 14:15:23.73	327.00	6.98	-50.1	-52.0	15.5	6.04e-01	0	24	0	886571008	68	4639
2026-01-08 14:15:24.73	327.14	6.93	-50.1	-52.1	15.5	6.04e-01	0	24	0	888143872	68	4653
2026-01-08 14:15:25.74	327.28	6.88	-50.1	-52.0	15.5	6.04e-01	0	24	0	890241024	68	4649
2026-01-08 14:15:26.75	327.42	6.83	-50.2	-52.2	15.4	6.04e-01	0	24	0	892338176	68	4715
2026-01-08 14:15:27.76	327.56	6.77	-50.1	-52.1	15.5	6.02e-01	0	24	0	893911040	68	4656
2026-01-08 14:15:28.77	327.70	6.72	-50.2	-52.2	15.4	6.03e-01	0	24	0	896008192	68	4711
2026-01-08 14:15:29.78	327.84	6.67	-50.1	-52.1	15.5	6.02e-01	0	24	0	897581056	68	4683
2026-01-08 14:15:30.79	327.98	6.62	-50.1	-52.1	15.5	6.05e-01	0	24	0	899678208	68	4674
2026-01-08 14:15:31.80	328.12	6.56	-50.1	-52.1	15.4	6.04e-01	0	24	0	901775360	68	4703
2026-01-08 14:15:32.81	328.25	6.51	-50.2	-52.2	15.4	6.05e-01	0	24	0	903348224	68	4745
2026-01-08 14:15:33.81	328.39	6.46	-50.2	-52.2	15.4	6.03e-01	0	24	0	905445376	68	4758
2026-01-08 14:15:34.82	328.53	6.41	-50.2	-52.2	15.4	6.02e-01	0	24	0	907542528	68	4732
2026-01-08 14:15:35.83	328.66	6.35	-50.2	-52.2	15.4	6.04e-01	0	24	0	909115392	68	4729
2026-01-08 14:15:36.84	328.80	6.30	-50.2	-52.2	15.4	6.02e-01	0	24	0	911212544	68	4733
2026-01-08 14:15:37.85	328.93	6.25	-50.2	-52.3	15.4	6.04e-01	0	24	0	912785408	68	4775
2026-01-08 14:15:38.86	329.07	6.20	-50.2	-52.2	15.4	6.05e-01	0	24	0	914882560	68	4742
2026-01-08 14:15:39.87	329.20	6.14	-50.2	-52.2	15.4	6.06e-01	0	24	0	916455424	68	4756
2026-01-08 14:15:40.88	329.33	6.09	-50.4	-52.4	15.4	6.04e-01	0	24	0	918552576	68	4861
2026-01-08 14:15:41.88	329.47	6.04	-50.5	-52.6	15.4	6.04e-01	0	24	0	920649728	69	4685
2026-01-08 14:15:42.89	329.60	5.99	-50.4	-52.5	15.5	6.03e-01	0	24	0	922222592	69	4634
2026-01-08 14:15:43.90	329.73	5.93	-50.4	-52.4	15.5	6.04e-01	0	24	0	924319744	69	4588
2026-01-08 14:15:44.91	329.86	5.88	-50.5	-52.6	15.5	6.03e-01	0	24	0	925892608	69	4704
2026-01-08 14:15:45.92	329.99	5.83	-50.7	-52.9	15.3	6.03e-01	0	24	0	927989760	69	4849
2026-01-08 14:15:46.93	330.12	5.77	-50.6	-52.8	15.4	6.04e-01	0	24	0	930086912	69	4788
2026-01-08 14:15:47.94	330.25	5.72	-50.7	-52.9	15.3	6.03e-01	0	24	0	931659776	69	4815
2026-01-08 14:15:48.94	330.38	5.67	-50.9	-53.1	15.2	6.05e-01	0	24	0	933756928	69	4961
2026-01-08 14:15:49.95	330.51	5.62	-50.6	-52.8	15.3	6.03e-01	0	24	0	935854080	69	4796
2026-01-08 14:15:50.96	330.64	5.56	-50.2	-52.3	15.6	6.03e-01	0	24	0	937426944	69	4516
2026-01-08 14:15:51.97	330.77	5.51	-50.3	-52.4	15.5	6.05e-01	0	24	0	939524096	69	4566
2026-01-08 14:15:52.97	330.89	5.46	-50.4	-52.5	15.5	6.03e-01	0	24	0	941096960	69	4601
2026-01-08 14:15:53.98	331.02	5.41	-50.5	-52.7	15.4	6.02e-01	0	24	0	943194112	69	4726
2026-01-08 14:15:54.99	331.15	5.35	-50.6	-52.7	15.4	6.03e-01	0	24	0	945291264	69	4748
2026-01-08 14:15:56.00	331.27	5.30	-50.6	-52.8	15.4	6.04e-01	0	24	0	946864128	69	4766
2026-01-08 14:15:57.01	331.40	5.25	-50.6	-52.7	15.4	6.04e-01	0	24	0	948961280	69	4737
2026-01-08 14:15:58.02	331.52	5.20	-50.5	-52.7	15.4	6.04e-01	0	24	0	950534144	69	4724
2026-01-08 14:15:59.03	331.65	5.14	-50.7	-52.9	15.3	6.04e-01	0	24	0	952631296	69	4847
2026-01-08 14:16:00.03	331.77	5.09	-50.4	-52.6	15.5	6.04e-01	0	24	0	954728448	69	4652
2026-01-08 14:16:01.04	331.89	5.04	-50.6	-52.9	15.4	6.03e-01	0	24	0	956301312	69	4815
2026-01-08 14:16:02.05	332.02	4.99	-57.1	-69.1	7.5	6.61e-01	80	24	0	958398464	81	15718
2026-01-08 14:16:03.06	332.14	4.93	-57.9	-77.1	3.8	7.47e-01	0	24	104	958398464	83	35129
2026-01-08 14:16:04.07	332.26	4.88	-58.5	-77.8	3.8	7.45e-01	0	24	104	958398464	84	36021
2026-01-08 14:16:05.08	332.39	4.83	-58.8	-78.2	3.8	7.46e-01	0	24	104	958398464	85	35349
2026-01-08 14:16:06.08	332.51	4.78	-59.0	-78.4	3.8	7.45e-01	0	24	104	958398464	85	36128
2026-01-08 14:16:07.09	332.63	4.73	-59.2	-78.6	3.8	7.46e-01	0	24	104	958398464	86	34971
2026-01-08 14:16:08.10	332.75	4.67	-59.4	-78.7	3.8	7.47e-01	0	24	104	958398464	86	35514
2026-01-08 14:16:09.11	332.87	4.62	-59.5	-78.8	3.8	7.45e-01	0	24	104	958398464	86	35849
2026-01-08 14:16:10.11	332.99	4.57	-59.6	-78.9	3.8	7.45e-01	0	24	104	958398464	86	36378
2026-01-08 14:16:11.12	333.10	4.52	-59.6	-78.9	3.8	7.47e-01	0	24	104	958398464	86	36522
2026-01-08 14:16:12.13	333.22	4.46	-59.7	-79.1	3.8	7.47e-01	0	24	104	958398464	87	34905
2026-01-08 14:16:13.13	333.34	4.41	-59.7	-79.1	3.8	7.46e-01	0	24	104	958398464	87	34974
2026-01-08 14:16:14.14	333.46	4.36	-59.8	-79.1	3.8	7.44e-01	0	24	104	958398464	87	35162
2026-01-08 14:16:15.15	333.58	4.31	-59.8	-79.1	3.8	7.47e-01	0	24	104	958398464	87	35203
2026-01-08 14:16:16.16	333.69	4.25	-59.8	-79.1	3.8	7.48e-01	0	24	104	958398464	87	35196
2026-01-08 14:16:17.16	333.81	4.20	-59.8	-79.2	3.8	7.45e-01	0	24	104	958398464	87	35365
2026-01-08 14:16:18.17	333.92	4.15	-59.8	-79.2	3.8	7.46e-01	0	24	104	958398464	87	35379
2026-01-08 14:16:19.18	334.04	4.10	-59.8	-79.2	3.8	7.47e-01	0	24	104	958398464	87	35362
2026-01-08 14:16:20.20	334.16	4.05	-59.8	-79.2	3.8	7.43e-01	0	24	104	958398464	87	35457
2026-01-08 14:16:21.20	334.27	3.99	-59.8	-79.2	3.8	7.44e-01	0	25	104	958398464	87	35476
2026-01-08 14:16:22.21	334.38	3.94	-59.8	-79.2	3.8	7.47e-01	0	24	104	958398464	87	35490
2026-01-08 14:16:23.22	334.50	3.89	-59.8	-79.2	3.8	7.43e-01	0	24	104	958398464	87	35481
2026-01-08 14:16:24.23	334.61	3.84	-59.8	-79.1	3.8	7.45e-01	0	25	104	958398464	87	35187
2026-01-08 14:16:25.24	334.72	3.79	-59.7	-79.1	3.8	7.45e-01	0	24	104	958398464	87	35102
2026-01-08 14:16:26.25	334.84	3.73	-59.7	-79.1	3.8	7.42e-01	0	24	104	958398464	87	35047
2026-01-08 14:16:27.26	334.95	3.68	-59.7	-79.1	3.8	7.44e-01	0	24	104	958398464	87	34947
2026-01-08 14:16:28.27	335.06	3.63	-59.7	-79.1	3.8	7.47e-01	0	24	104	958398464	87	34968
2026-01-08 14:16:29.27	335.17	3.58	-59.7	-79.0	3.8	7.47e-01	0	24	104	958398464	87	34794
2026-01-08 14:16:30.29	335.28	3.53	-59.7	-79.0	3.8	7.46e-01	0	24	104	958398464	87	34748
2026-01-08 14:16:31.29	335.39	3.48	-59.6	-79.0	3.8	7.47e-01	0	24	104	958398464	87	34700
2026-01-08 14:16:32.30	335.50	3.42	-59.6	-79.0	3.8	7.50e-01	0	24	104	958398464	87	34588
2026-01-08 14:16:33.31	335.61	3.37	-59.6	-79.0	3.8	7.48e-01	0	24	104	958398464	87	34639
2026-01-08 14:16:34.32	335.72	3.32	-59.6	-79.0	3.8	7.45e-01	0	24	104	958398464	87	34566
2026-01-08 14:16:35.33	335.83	3.27	-59.6	-79.0	3.8	7.45e-01	0	24	104	958398464	87	34590
2026-01-08 14:16:36.33	335.94	3.22	-59.6	-79.0	3.8	7.45e-01	0	24	104	958398464	87	34531
2026-01-08 14:16:37.34	336.05	3.16	-59.6	-79.0	3.8	7.50e-01	0	24	104	958398464	87	34552
2026-01-08 14:16:38.35	336.16	3.11	-59.6	-78.9	3.8	7.45e-01	0	24	104	958398464	87	34390
2026-01-08 14:16:39.35	336.26	3.06	-59.6	-78.9	3.8	7.45e-01	0	24	104	958398464	87	34478
2026-01-08 14:16:40.36	336.37	3.01	-59.6	-78.9	3.8	7.48e-01	0	24	104	958398464	87	34418
2026-01-08 14:16:41.37	336.48	2.96	-59.5	-78.9	3.8	7.46e-01	0	24	104	958398464	87	34391
2026-01-08 14:16:42.37	336.58	2.91	-59.6	-78.9	3.8	7.45e-01	0	24	104	958398464	87	34331
2026-01-08 14:16:43.38	336.69	2.86	-59.5	-78.9	3.8	7.46e-01	0	24	104	958398464	87	34341
2026-01-08 14:16:44.39	336.79	2.81	-59.5	-78.9	3.8	7.47e-01	0	25	104	958398464	87	34313
2026-01-08 14:16:45.40	336.90	2.75	-59.5	-78.9	3.8	7.42e-01	0	24	104	958398464	87	34131
2026-01-08 14:16:46.41	337.00	2.70	-59.5	-78.9	3.8	7.47e-01	0	24	104	958398464	87	34198
2026-01-08 14:16:47.42	337.11	2.65	-59.5	-78.9	3.8	7.47e-01	0	24	104	958398464	87	34274
2026-01-08 14:16:48.43	337.21	2.60	-59.5	-78.9	3.8	7.45e-01	0	24	104	958398464	87	34233
2026-01-08 14:16:49.43	337.31	2.55	-59.5	-78.9	3.8	7.49e-01	0	24	104	958398464	87	34117
2026-01-08 14:16:50.44	337.42	2.50	-59.5	-78.9	3.8	7.45e-01	0	24	104	958398464	87	34278
2026-01-08 14:16:51.45	337.52	2.45	-59.5	-78.9	3.8	7.47e-01	0	25	104	958398464	87	34177
2026-01-08 14:16:52.46	337.62	2.40	-59.5	-78.9	3.8	7.49e-01	0	25	104	958398464	87	34148
2026-01-08 14:16:53.46	337.72	2.34	-59.5	-78.9	3.8	7.45e-01	0	24	104	958398464	87	34122
2026-01-08 14:16:54.47	337.82	2.29	-59.5	-78.9	3.8	7.44e-01	0	25	104	958398464	87	34120
2026-01-08 14:16:55.48	337.93	2.24	-59.5	-78.9	3.8	7.48e-01	0	25	104	958398464	87	34129
2026-01-08 14:16:56.49	338.03	2.19	-59.5	-78.8	3.8	7.45e-01	0	24	104	958398464	87	34065
2026-01-08 14:16:57.50	338.13	2.14	-59.5	-78.8	3.8	7.49e-01	0	24	104	958398464	87	34001
2026-01-08 14:16:58.51	338.23	2.09	-59.5	-78.8	3.8	7.44e-01	0	24	104	958398464	87	33986
2026-01-08 14:16:59.52	338.33	2.04	-59.5	-78.9	3.8	7.47e-01	0	25	104	958398464	87	34108
2026-01-08 14:17:00.53	338.43	1.99	-59.5	-78.9	3.8	7.47e-01	0	24	104	958398464	87	34100
2026-01-08 14:17:01.53	338.53	1.94	-59.5	-78.8	3.8	7.47e-01	0	24	104	958398464	87	34035

#Closed at: 2026-01-08 14:17:01
#Recorded file [958 MB]: D:/lorett/data/31004_260108_170638.dat