passes_logs/2026/01/08/R3.2S_Murmansk/R3.2S_Murmansk__20260108_024256_FENGYUN_3D_rec.log

#Pass ID: 20260108_024256_FENGYUN 3D
#Satellite: FENGYUN 3D
#Configuration: FENGYUN 3D
#almurnet v.1.7.20251203
#Start time: 2026-01-08 02:42:57

#Version: 2.2.20231116
#Station: R3.2S_Murmansk
#Location: 33.079688 lon 68.888172 lat
#TLE: 1 43010U 17072A   26006.26440730  .00000376  00000+0  19957-3 0  9994
#TLE: 2 43010  98.9925 337.9455 0002045 123.9195 236.2175 14.19693586422016

#Time	Az	El	Level	Level2	SNR	BER	BlckErr	Temp	State	Recorded	gain1	gain2
2026-01-08 02:42:57.16	24.97	2.02	-57.5	-70.5	3.8	8.45e-01	0	23	0	0	81	15831
2026-01-08 02:42:58.16	24.97	2.08	-57.4	-70.5	3.8	8.45e-01	0	23	104	0	79	17762
2026-01-08 02:42:59.16	24.98	2.15	-57.4	-70.5	3.8	8.45e-01	0	22	104	0	79	17707
2026-01-08 02:43:00.16	24.98	2.21	-57.4	-70.5	3.8	8.46e-01	0	23	104	0	79	17733
2026-01-08 02:43:01.15	24.99	2.28	-57.4	-70.4	3.8	8.45e-01	0	23	104	0	79	17614
2026-01-08 02:43:02.15	24.99	2.34	-57.4	-70.4	3.8	8.46e-01	0	23	104	0	79	17619
2026-01-08 02:43:03.15	25.00	2.40	-57.4	-70.4	3.8	8.46e-01	0	23	104	0	79	17590
2026-01-08 02:43:04.14	25.01	2.47	-57.4	-70.4	3.8	8.46e-01	0	23	104	0	79	17612
2026-01-08 02:43:05.14	25.01	2.53	-57.4	-70.4	3.8	8.47e-01	0	23	104	0	79	17620
2026-01-08 02:43:06.14	25.02	2.60	-57.4	-70.4	3.8	8.46e-01	0	23	104	0	79	17659
2026-01-08 02:43:07.13	25.02	2.66	-57.4	-70.4	3.8	8.46e-01	0	23	104	0	79	17663
2026-01-08 02:43:08.14	25.03	2.73	-57.4	-70.5	3.8	8.46e-01	0	23	104	0	79	17695
2026-01-08 02:43:09.13	25.03	2.79	-57.4	-70.5	3.8	8.45e-01	0	23	104	0	80	16713
2026-01-08 02:43:10.13	25.04	2.86	-57.4	-70.4	3.8	8.47e-01	0	23	104	0	80	16530
2026-01-08 02:43:11.14	25.04	2.93	-57.4	-70.2	3.8	8.46e-01	0	23	104	0	80	16214
2026-01-08 02:43:12.14	25.05	2.99	-57.4	-70.0	3.8	8.45e-01	0	23	104	0	80	15855
2026-01-08 02:43:13.14	25.05	3.06	-57.4	-69.5	3.8	8.45e-01	0	23	104	0	80	15037
2026-01-08 02:43:14.14	25.06	3.12	-57.3	-69.3	3.8	8.46e-01	0	23	104	0	80	14700
2026-01-08 02:43:15.14	25.06	3.19	-57.3	-68.9	3.8	8.44e-01	0	23	104	0	80	14017
2026-01-08 02:43:16.14	25.07	3.26	-57.3	-68.6	3.8	8.43e-01	0	23	104	0	80	13436
2026-01-08 02:43:17.14	25.08	3.32	-57.3	-68.5	3.8	8.45e-01	0	23	104	0	80	13304
2026-01-08 02:43:18.15	25.08	3.39	-57.3	-68.8	3.8	8.45e-01	0	23	104	0	80	13871
2026-01-08 02:43:19.15	25.09	3.46	-57.3	-69.2	3.8	8.44e-01	0	23	104	0	80	14525
2026-01-08 02:43:20.15	25.09	3.53	-57.4	-69.5	3.8	8.44e-01	0	23	104	0	80	14954
2026-01-08 02:43:21.15	25.10	3.59	-57.4	-70.0	3.8	8.46e-01	0	23	104	0	80	15887
2026-01-08 02:43:22.15	25.10	3.66	-57.4	-70.3	3.8	8.47e-01	0	23	104	0	80	16396
2026-01-08 02:43:23.15	25.11	3.73	-57.4	-70.4	3.8	8.46e-01	0	23	104	0	80	16539
2026-01-08 02:43:24.15	25.11	3.80	-57.4	-70.1	3.8	8.45e-01	0	23	104	0	80	16034
2026-01-08 02:43:25.16	25.12	3.87	-57.4	-69.4	3.8	8.45e-01	0	23	104	0	80	14805
2026-01-08 02:43:26.15	25.12	3.93	-57.2	-68.0	3.8	8.45e-01	0	24	104	0	80	12630
2026-01-08 02:43:27.16	25.13	4.00	-57.0	-66.1	4.4	8.35e-01	0	24	0	0	80	10163
2026-01-08 02:43:28.16	25.14	4.07	-56.7	-64.3	5.2	7.71e-01	0	24	0	0	80	8264
2026-01-08 02:43:29.16	25.14	4.14	-56.5	-63.3	5.9	6.45e-01	0	23	0	1048576	79	7795
2026-01-08 02:43:30.17	25.15	4.21	-56.2	-62.1	6.8	2.26e-01	0	24	0	7340032	79	6780
2026-01-08 02:43:31.17	25.15	4.28	-55.9	-61.1	7.6	1.04e-01	0	23	0	12582912	78	6393
2026-01-08 02:43:32.17	25.16	4.35	-55.8	-60.8	7.9	6.93e-02	0	23	0	17825792	78	6172
2026-01-08 02:43:33.17	25.16	4.42	-55.5	-60.2	8.3	3.97e-02	0	23	0	24117248	77	6122
2026-01-08 02:43:34.17	25.17	4.49	-55.4	-59.9	8.6	2.74e-02	0	24	0	29360128	77	5908
2026-01-08 02:43:35.17	25.17	4.56	-55.2	-59.5	9.1	1.78e-02	0	23	0	34603008	77	5607
2026-01-08 02:43:36.17	25.18	4.63	-55.1	-59.2	9.3	9.27e-03	0	23	0	40894464	76	5749
2026-01-08 02:43:37.17	25.18	4.70	-54.8	-58.7	9.7	4.74e-03	0	24	0	46137344	76	5420
2026-01-08 02:43:38.17	25.19	4.77	-55.0	-59.0	9.4	8.12e-03	0	24	0	51380224	76	5619
2026-01-08 02:43:39.17	25.20	4.84	-55.0	-59.1	9.3	8.78e-03	0	24	0	57671680	76	5699
2026-01-08 02:43:40.18	25.20	4.91	-55.0	-59.1	9.4	8.60e-03	0	24	0	62914560	76	5698
2026-01-08 02:43:41.17	25.21	4.98	-55.1	-59.2	9.3	1.03e-02	0	24	0	69206016	76	5754
2026-01-08 02:43:42.17	25.21	5.05	-55.1	-59.2	9.2	1.15e-02	0	24	0	74448896	76	5742
2026-01-08 02:43:43.16	25.22	5.12	-50.9	-52.7	13.7	0.00e+00	0	24	0	79691776	68	4326
2026-01-08 02:43:44.17	25.22	5.19	-55.0	-58.9	9.5	8.83e-03	0	24	0	85983232	75	5878
2026-01-08 02:43:45.16	25.23	5.27	-56.3	-62.9	6.0	2.32e-01	0	24	0	91226112	78	7830
2026-01-08 02:43:46.16	25.23	5.34	-51.6	-53.6	13.3	8.81e-05	0	24	0	96468992	69	4506
2026-01-08 02:43:47.15	25.24	5.41	-56.9	-64.4	5.3	5.39e-01	0	24	0	100663296	78	9302
2026-01-08 02:43:48.15	25.25	5.48	-51.6	-53.6	13.3	1.14e-05	0	24	0	105906176	69	4494
2026-01-08 02:43:49.15	25.25	5.55	-50.9	-52.7	13.7	0.00e+00	0	24	0	112197632	68	4327
2026-01-08 02:43:50.15	25.26	5.63	-50.3	-52.0	14.0	0.00e+00	0	24	0	117440512	67	4240
2026-01-08 02:43:51.15	25.26	5.70	-49.8	-51.4	14.3	0.00e+00	0	24	0	122683392	66	4165
2026-01-08 02:43:52.14	25.27	5.77	-49.8	-51.4	14.3	0.00e+00	0	24	0	128974848	66	4149
2026-01-08 02:43:53.14	25.27	5.84	-49.5	-51.1	14.3	0.00e+00	0	24	0	134217728	65	4248
2026-01-08 02:43:54.14	25.28	5.92	-49.3	-50.7	14.5	0.00e+00	0	24	0	139460608	65	4093
2026-01-08 02:43:55.13	25.28	5.99	-48.9	-50.3	14.6	0.00e+00	0	24	0	145752064	64	4126
2026-01-08 02:43:56.13	25.29	6.07	-48.7	-50.1	14.7	0.00e+00	0	24	0	150994944	64	4044
2026-01-08 02:43:57.13	25.30	6.14	-48.8	-50.2	14.7	0.00e+00	0	24	0	156237824	64	4065
2026-01-08 02:43:58.13	25.30	6.21	-48.7	-50.1	14.8	0.00e+00	0	24	0	162529280	64	4034
2026-01-08 02:43:59.13	25.31	6.29	-48.8	-50.2	14.7	0.00e+00	0	24	0	167772160	64	4082
2026-01-08 02:44:00.13	25.31	6.36	-49.0	-50.4	14.6	0.00e+00	0	24	0	174063616	64	4179
2026-01-08 02:44:01.13	25.32	6.44	-48.6	-50.0	14.7	0.00e+00	0	24	0	179306496	63	4227
2026-01-08 02:44:02.12	25.32	6.51	-48.5	-49.9	14.7	0.00e+00	0	24	0	184549376	63	4177
2026-01-08 02:44:03.12	25.33	6.59	-48.5	-49.9	14.7	0.00e+00	0	24	0	190840832	63	4169
2026-01-08 02:44:04.12	25.34	6.66	-48.6	-50.0	14.7	0.00e+00	0	24	0	196083712	63	4203
2026-01-08 02:44:05.12	25.34	6.74	-48.5	-49.9	14.7	0.00e+00	0	24	0	201326592	63	4172
2026-01-08 02:44:06.11	25.35	6.82	-48.5	-49.9	14.8	0.00e+00	0	24	0	207618048	63	4157
2026-01-08 02:44:07.11	25.35	6.89	-48.4	-49.8	14.8	0.00e+00	0	24	0	212860928	63	4121
2026-01-08 02:44:08.10	25.36	6.97	-48.6	-49.9	14.7	0.00e+00	0	24	0	218103808	63	4189
2026-01-08 02:44:09.10	25.36	7.04	-48.5	-49.8	14.8	0.00e+00	0	24	0	224395264	63	4129
2026-01-08 02:44:10.10	25.37	7.12	-48.5	-49.8	14.8	0.00e+00	0	24	0	229638144	63	4142
2026-01-08 02:44:11.09	25.37	7.20	-48.5	-49.8	14.8	0.00e+00	0	24	0	234881024	63	4134
2026-01-08 02:44:12.09	25.38	7.28	-48.4	-49.7	14.8	0.00e+00	0	24	0	241172480	63	4092
2026-01-08 02:44:13.09	25.39	7.35	-48.4	-49.8	14.8	0.00e+00	0	24	0	246415360	63	4103
2026-01-08 02:44:14.10	25.39	7.43	-48.3	-49.6	14.9	0.00e+00	0	24	0	251658240	63	4043
2026-01-08 02:44:15.09	25.40	7.51	-48.3	-49.7	14.9	0.00e+00	0	24	0	257949696	63	4053
2026-01-08 02:44:16.09	25.40	7.59	-48.2	-49.5	15.0	0.00e+00	0	24	0	263192576	63	4004
2026-01-08 02:44:17.09	25.41	7.67	-48.1	-49.4	14.9	0.00e+00	0	24	0	268435456	62	4181
2026-01-08 02:44:18.09	25.41	7.75	-48.1	-49.4	14.8	0.00e+00	0	24	0	274726912	62	4184
2026-01-08 02:44:19.09	25.42	7.82	-48.1	-49.5	14.9	0.00e+00	0	24	0	279969792	62	4195
2026-01-08 02:44:20.09	25.43	7.90	-48.1	-49.4	14.9	0.00e+00	0	24	0	286261248	62	4151
2026-01-08 02:44:21.09	25.43	7.98	-48.1	-49.4	14.9	0.00e+00	0	24	0	291504128	62	4156
2026-01-08 02:44:22.09	25.44	8.06	-48.1	-49.4	14.9	0.00e+00	0	24	0	296747008	62	4179
2026-01-08 02:44:23.09	25.44	8.14	-48.0	-49.3	15.0	0.00e+00	0	24	0	303038464	62	4099
2026-01-08 02:44:24.08	25.45	8.22	-48.0	-49.3	14.9	0.00e+00	0	24	0	308281344	62	4139
2026-01-08 02:44:25.09	25.46	8.31	-48.0	-49.3	14.9	0.00e+00	0	24	0	313524224	62	4116
2026-01-08 02:44:26.08	25.46	8.39	-48.1	-49.4	14.9	0.00e+00	0	24	0	319815680	62	4190
2026-01-08 02:44:27.08	25.47	8.47	-48.1	-49.4	14.9	0.00e+00	0	24	0	325058560	62	4154
2026-01-08 02:44:28.08	25.47	8.55	-48.1	-49.4	14.9	0.00e+00	0	24	0	331350016	62	4153
2026-01-08 02:44:29.08	25.48	8.63	-48.1	-49.5	14.9	0.00e+00	0	24	0	336592896	62	4196
2026-01-08 02:44:30.08	25.48	8.71	-48.1	-49.4	14.9	0.00e+00	0	24	0	341835776	62	4151
2026-01-08 02:44:31.08	25.49	8.79	-48.0	-49.3	14.9	0.00e+00	0	24	0	348127232	62	4127
2026-01-08 02:44:32.08	25.50	8.88	-48.0	-49.3	15.0	0.00e+00	0	24	0	353370112	62	4114
2026-01-08 02:44:33.08	25.50	8.96	-47.9	-49.2	15.0	0.00e+00	0	24	0	358612992	62	4083
2026-01-08 02:44:34.07	25.51	9.04	-47.9	-49.2	15.0	0.00e+00	0	24	0	364904448	62	4059
2026-01-08 02:44:35.07	25.51	9.13	-47.8	-49.1	15.1	0.00e+00	0	24	0	370147328	62	4026
2026-01-08 02:44:36.07	25.52	9.21	-48.0	-49.3	15.0	0.00e+00	0	24	0	375390208	62	4112
2026-01-08 02:44:37.07	25.53	9.29	-47.9	-49.2	15.0	0.00e+00	0	24	0	381681664	62	4055
2026-01-08 02:44:38.07	25.53	9.38	-47.8	-49.1	15.1	0.00e+00	0	24	0	386924544	62	4024
2026-01-08 02:44:39.07	25.54	9.46	-47.9	-49.2	15.0	0.00e+00	0	24	0	393216000	62	4055
2026-01-08 02:44:40.07	25.54	9.55	-47.8	-49.1	15.1	0.00e+00	0	24	0	398458880	62	4021
2026-01-08 02:44:41.06	25.55	9.63	-47.8	-49.1	15.1	0.00e+00	0	24	0	403701760	62	4012
2026-01-08 02:44:42.06	25.55	9.72	-47.9	-49.2	15.0	0.00e+00	0	24	0	409993216	62	4060
2026-01-08 02:44:43.06	25.56	9.80	-47.8	-49.1	15.1	0.00e+00	0	24	0	415236096	62	4008
2026-01-08 02:44:44.06	25.57	9.89	-47.8	-49.0	15.1	0.00e+00	0	24	0	420478976	62	4000
2026-01-08 02:44:45.06	25.57	9.97	-47.9	-49.2	15.0	0.00e+00	0	24	0	426770432	62	4064
2026-01-08 02:44:46.06	25.58	10.06	-47.8	-49.0	15.1	0.00e+00	0	24	0	432013312	62	3994
2026-01-08 02:44:47.06	25.58	10.15	-47.8	-49.1	15.1	0.00e+00	0	24	0	437256192	62	4033
2026-01-08 02:44:48.06	25.59	10.24	-47.7	-48.9	15.1	0.00e+00	0	24	0	443547648	62	3948
2026-01-08 02:44:49.07	25.60	10.32	-47.5	-48.7	15.1	0.00e+00	0	24	0	448790528	61	4089
2026-01-08 02:44:50.06	25.60	10.41	-47.5	-48.8	15.1	0.00e+00	0	24	0	455081984	61	4099
2026-01-08 02:44:51.06	25.61	10.50	-47.5	-48.8	15.0	0.00e+00	0	24	0	460324864	61	4113
2026-01-08 02:44:52.05	25.61	10.59	-47.6	-48.8	15.0	0.00e+00	0	25	0	465567744	61	4141
2026-01-08 02:44:53.05	25.62	10.68	-47.6	-48.8	15.0	0.00e+00	0	24	0	470810624	61	4140
2026-01-08 02:44:54.05	25.63	10.76	-47.4	-48.7	15.1	0.00e+00	0	24	0	477102080	61	4058
2026-01-08 02:44:55.04	25.63	10.85	-47.5	-48.7	15.1	0.00e+00	0	24	0	482344960	61	4095
2026-01-08 02:44:56.04	25.64	10.94	-47.6	-48.8	15.1	0.00e+00	0	24	0	487587840	61	4124
2026-01-08 02:44:57.04	25.64	11.03	-47.5	-48.8	15.1	0.00e+00	0	24	0	493879296	61	4101
2026-01-08 02:44:58.03	25.65	11.12	-47.4	-48.7	15.1	0.00e+00	0	24	0	499122176	61	4061
2026-01-08 02:44:59.03	25.66	11.21	-47.5	-48.8	15.1	0.00e+00	0	24	0	505413632	61	4113
2026-01-08 02:45:00.02	25.66	11.30	-47.6	-48.8	15.0	0.00e+00	0	24	0	510656512	61	4136
2026-01-08 02:45:01.02	25.67	11.39	-47.5	-48.8	15.0	0.00e+00	0	24	0	515899392	61	4117
2026-01-08 02:45:02.02	25.68	11.49	-47.6	-48.8	15.0	0.00e+00	0	24	0	522190848	61	4127
2026-01-08 02:45:03.01	25.68	11.58	-47.5	-48.8	15.1	0.00e+00	0	24	0	527433728	61	4102
2026-01-08 02:45:04.01	25.69	11.67	-47.3	-48.6	15.2	0.00e+00	0	24	0	532676608	61	4020
2026-01-08 02:45:05.01	25.69	11.76	-47.4	-48.7	15.1	0.00e+00	0	24	0	538968064	61	4059
2026-01-08 02:45:06.00	25.70	11.86	-47.4	-48.6	15.2	0.00e+00	0	24	0	544210944	61	4019
2026-01-08 02:45:07.00	25.71	11.95	-47.4	-48.7	15.1	0.00e+00	0	24	0	549453824	61	4057
2026-01-08 02:45:08.00	25.71	12.04	-47.3	-48.6	15.2	0.00e+00	0	24	0	555745280	61	4005
2026-01-08 02:45:09.00	25.72	12.14	-47.5	-48.7	15.1	0.00e+00	0	24	0	560988160	61	4076
2026-01-08 02:45:10.00	25.72	12.23	-47.5	-48.8	15.1	0.00e+00	0	24	0	566231040	61	4113
2026-01-08 02:45:11.00	25.73	12.33	-47.3	-48.5	15.2	0.00e+00	0	24	0	572522496	61	3994
2026-01-08 02:45:12.00	25.74	12.42	-47.3	-48.5	15.2	0.00e+00	0	24	0	577765376	61	3972
2026-01-08 02:45:12.99	25.74	12.52	-47.3	-48.5	15.2	0.00e+00	0	24	0	583008256	61	3970
2026-01-08 02:45:13.99	25.75	12.61	-47.2	-48.4	15.3	0.00e+00	0	24	0	589299712	61	3916
2026-01-08 02:45:14.99	25.76	12.71	-47.1	-48.3	15.1	0.00e+00	0	25	0	594542592	60	4131
2026-01-08 02:45:15.99	25.76	12.81	-47.1	-48.3	15.1	0.00e+00	0	25	0	599785472	60	4117
2026-01-08 02:45:16.99	25.77	12.90	-47.2	-48.4	15.1	0.00e+00	0	24	0	606076928	60	4169
2026-01-08 02:45:17.99	25.77	13.00	-47.0	-48.2	15.2	0.00e+00	0	24	0	611319808	60	4073
2026-01-08 02:45:18.98	25.78	13.10	-47.0	-48.2	15.2	0.00e+00	0	24	0	617611264	60	4085
2026-01-08 02:45:19.98	25.79	13.20	-47.1	-48.3	15.1	0.00e+00	0	24	0	622854144	60	4135
2026-01-08 02:45:20.98	25.79	13.30	-47.0	-48.2	15.2	0.00e+00	0	24	0	628097024	60	4056
2026-01-08 02:45:21.98	25.80	13.39	-47.0	-48.1	15.2	0.00e+00	0	24	0	634388480	60	4038
2026-01-08 02:45:22.98	25.81	13.49	-46.9	-48.1	15.2	0.00e+00	0	24	0	639631360	60	4037
2026-01-08 02:45:23.99	25.81	13.60	-46.8	-48.0	15.3	0.00e+00	0	24	0	644874240	60	3968
2026-01-08 02:45:24.99	25.82	13.70	-46.9	-48.0	15.3	0.00e+00	0	24	0	651165696	60	3995
2026-01-08 02:45:25.99	25.83	13.80	-46.8	-47.9	15.3	0.00e+00	0	24	0	656408576	60	3955
2026-01-08 02:45:26.99	25.83	13.90	-46.8	-47.9	15.3	0.00e+00	0	24	0	661651456	60	3953
2026-01-08 02:45:27.99	25.84	14.00	-46.7	-47.9	15.3	0.00e+00	0	25	0	667942912	60	3941
2026-01-08 02:45:28.98	25.85	14.10	-46.7	-47.9	15.3	0.00e+00	0	25	0	673185792	60	3921
2026-01-08 02:45:29.98	25.85	14.20	-46.8	-47.9	15.3	0.00e+00	0	24	0	679477248	60	3949
2026-01-08 02:45:30.98	25.86	14.31	-46.7	-47.8	15.4	0.00e+00	0	24	0	684720128	60	3899
2026-01-08 02:45:31.98	25.86	14.41	-47.0	-48.2	15.1	0.00e+00	0	24	0	689963008	59	4311
2026-01-08 02:45:32.98	25.87	14.51	-47.1	-48.3	15.1	0.00e+00	0	25	0	696254464	59	4356
2026-01-08 02:45:33.97	25.88	14.62	-46.9	-48.1	15.1	0.00e+00	0	24	0	701497344	59	4281
2026-01-08 02:45:34.96	25.88	14.72	-47.0	-48.2	15.1	0.00e+00	0	25	0	706740224	59	4307
2026-01-08 02:45:35.95	25.89	14.83	-47.0	-48.2	15.1	0.00e+00	0	24	0	711983104	59	4331
2026-01-08 02:45:36.96	25.90	14.93	-47.0	-48.2	15.1	0.00e+00	0	24	0	718274560	59	4315
2026-01-08 02:45:37.96	25.90	15.04	-47.0	-48.2	15.1	0.00e+00	0	24	0	723517440	59	4302
2026-01-08 02:45:38.95	25.91	15.14	-46.9	-48.1	15.1	0.00e+00	0	24	0	729808896	59	4286
2026-01-08 02:45:39.95	25.92	15.25	-46.9	-48.1	15.1	0.00e+00	0	24	0	735051776	59	4278
2026-01-08 02:45:40.94	25.92	15.36	-46.8	-48.0	15.2	0.00e+00	0	24	0	740294656	59	4236
2026-01-08 02:45:41.94	25.93	15.47	-46.8	-48.0	15.2	0.00e+00	0	24	0	746586112	59	4240
2026-01-08 02:45:42.93	25.94	15.57	-46.8	-47.9	15.2	0.00e+00	0	24	0	751828992	59	4191
2026-01-08 02:45:43.93	25.94	15.68	-46.7	-47.9	15.2	0.00e+00	0	24	0	757071872	59	4167
2026-01-08 02:45:44.92	25.95	15.79	-46.7	-47.9	15.2	0.00e+00	0	24	0	763363328	59	4174
2026-01-08 02:45:45.93	25.96	15.90	-46.7	-47.9	15.2	0.00e+00	0	24	0	768606208	59	4173
2026-01-08 02:45:46.93	25.96	16.01	-46.7	-47.9	15.2	0.00e+00	0	24	0	773849088	59	4175
2026-01-08 02:45:47.93	25.97	16.12	-46.7	-47.9	15.2	0.00e+00	0	25	0	780140544	59	4170
2026-01-08 02:45:48.93	25.98	16.23	-46.6	-47.8	15.2	0.00e+00	0	24	0	785383424	59	4131
2026-01-08 02:45:49.93	25.98	16.35	-46.6	-47.8	15.2	0.00e+00	0	25	0	791674880	59	4130
2026-01-08 02:45:50.93	25.99	16.46	-46.6	-47.7	15.3	0.00e+00	0	24	0	796917760	59	4089
2026-01-08 02:45:51.92	26.00	16.57	-46.6	-47.7	15.3	0.00e+00	0	24	0	802160640	59	4085
2026-01-08 02:45:52.92	26.01	16.68	-46.5	-47.7	15.3	0.00e+00	0	25	0	808452096	59	4078
2026-01-08 02:45:53.91	26.01	16.80	-46.6	-47.8	15.3	0.00e+00	0	24	0	813694976	59	4117
2026-01-08 02:45:54.91	26.02	16.91	-46.6	-47.7	15.3	0.00e+00	0	24	0	818937856	59	4088
2026-01-08 02:45:55.91	26.03	17.03	-46.5	-47.7	15.3	0.00e+00	0	25	0	825229312	59	4074
2026-01-08 02:45:56.90	26.03	17.14	-46.4	-47.5	15.4	0.00e+00	0	24	0	830472192	59	3999
2026-01-08 02:45:57.90	26.04	17.26	-46.3	-47.5	15.4	0.00e+00	0	24	0	835715072	59	3984
2026-01-08 02:45:58.90	26.05	17.38	-46.4	-47.5	15.4	0.00e+00	0	24	0	842006528	59	4002
2026-01-08 02:45:59.90	26.05	17.49	-46.4	-47.5	15.4	0.00e+00	0	24	0	847249408	59	3991
2026-01-08 02:46:00.89	26.06	17.61	-46.3	-47.4	15.4	0.00e+00	0	24	0	852492288	59	3942
2026-01-08 02:46:01.89	26.07	17.73	-46.3	-47.4	15.4	0.00e+00	0	24	0	858783744	59	3952
2026-01-08 02:46:02.89	26.08	17.85	-46.2	-47.4	15.4	0.00e+00	0	24	0	864026624	59	3927
2026-01-08 02:46:03.89	26.08	17.97	-46.2	-47.4	15.4	0.00e+00	0	24	0	869269504	59	3923
2026-01-08 02:46:04.89	26.09	18.09	-46.1	-47.2	15.3	0.00e+00	0	24	0	875560960	58	4079
2026-01-08 02:46:05.88	26.10	18.21	-46.0	-47.1	15.4	0.00e+00	0	25	0	880803840	58	4032
2026-01-08 02:46:06.88	26.10	18.33	-45.9	-47.0	15.4	0.00e+00	0	25	0	887095296	58	3977
2026-01-08 02:46:07.87	26.11	18.45	-45.9	-47.0	15.4	0.00e+00	0	24	0	892338176	58	3997
2026-01-08 02:46:08.87	26.12	18.57	-45.9	-47.0	15.4	0.00e+00	0	24	0	897581056	58	3990
2026-01-08 02:46:09.86	26.13	18.69	-45.7	-46.8	15.5	0.00e+00	0	24	0	903872512	58	3912
2026-01-08 02:46:10.86	26.13	18.82	-45.7	-46.8	15.5	0.00e+00	0	24	0	909115392	58	3888
2026-01-08 02:46:11.85	26.14	18.94	-45.7	-46.8	15.5	0.00e+00	0	24	0	914358272	58	3907
2026-01-08 02:46:12.86	26.15	19.07	-45.7	-46.8	15.5	0.00e+00	0	25	0	920649728	58	3899
2026-01-08 02:46:13.85	26.15	19.19	-45.5	-46.6	15.4	0.00e+00	0	25	0	925892608	57	4030
2026-01-08 02:46:14.85	26.16	19.32	-45.4	-46.5	15.4	0.00e+00	0	25	0	931135488	57	3995
2026-01-08 02:46:15.86	26.17	19.45	-45.4	-46.5	15.5	0.00e+00	0	24	0	937426944	57	3971
2026-01-08 02:46:16.87	26.18	19.58	-45.4	-46.5	15.5	0.00e+00	0	24	0	942669824	57	3961
2026-01-08 02:46:17.86	26.18	19.70	-45.3	-46.4	15.5	0.00e+00	0	24	0	948961280	57	3931
2026-01-08 02:46:18.86	26.19	19.83	-45.4	-46.4	15.5	0.00e+00	0	24	0	954204160	57	3955
2026-01-08 02:46:19.85	26.20	19.96	-45.3	-46.4	15.5	0.00e+00	0	24	0	959447040	57	3923
2026-01-08 02:46:20.85	26.21	20.09	-45.4	-46.5	15.5	0.00e+00	0	24	0	964689920	57	3972
2026-01-08 02:46:21.85	26.21	20.22	-45.4	-46.5	15.4	0.00e+00	0	25	0	970981376	57	3993
2026-01-08 02:46:22.85	26.22	20.35	-45.2	-46.3	15.5	0.00e+00	0	25	0	976224256	57	3891
2026-01-08 02:46:23.85	26.23	20.49	-45.2	-46.3	15.5	0.00e+00	0	24	0	981467136	57	3886
2026-01-08 02:46:24.85	26.24	20.62	-45.3	-46.4	15.5	0.00e+00	0	25	0	987758592	57	3917
2026-01-08 02:46:25.85	26.25	20.75	-45.3	-46.3	15.5	0.00e+00	0	24	0	993001472	57	3910
2026-01-08 02:46:26.85	26.25	20.89	-45.3	-46.3	15.5	0.00e+00	0	25	0	999292928	57	3897
2026-01-08 02:46:27.85	26.26	21.02	-45.2	-46.3	15.5	0.00e+00	0	25	0	1004535808	57	3884
2026-01-08 02:46:28.85	26.27	21.16	-45.3	-46.4	15.5	0.00e+00	0	25	0	1009778688	57	3920
2026-01-08 02:46:29.84	26.28	21.30	-45.3	-46.4	15.5	0.00e+00	0	25	0	1016070144	57	3914
2026-01-08 02:46:30.84	26.28	21.43	-45.3	-46.3	15.5	0.00e+00	0	25	0	1021313024	57	3904
2026-01-08 02:46:31.83	26.29	21.57	-45.3	-46.4	15.5	0.00e+00	0	24	0	1026555904	57	3914
2026-01-08 02:46:32.83	26.30	21.71	-45.3	-46.4	15.5	0.00e+00	0	24	0	1032847360	57	3919
2026-01-08 02:46:33.82	26.31	21.85	-45.4	-46.4	15.5	0.00e+00	0	25	0	1038090240	57	3953
2026-01-08 02:46:34.82	26.32	21.99	-45.3	-46.4	15.5	0.00e+00	0	25	0	1043333120	57	3943
2026-01-08 02:46:35.81	26.32	22.13	-45.3	-46.4	15.5	0.00e+00	0	25	0	1049624576	57	3924
2026-01-08 02:46:36.81	26.33	22.27	-45.2	-46.3	15.5	0.00e+00	0	24	0	1054867456	57	3889
2026-01-08 02:46:37.81	26.34	22.41	-45.2	-46.2	15.4	0.00e+00	0	24	0	1061158912	56	4089
2026-01-08 02:46:38.82	26.35	22.56	-45.1	-46.2	15.4	0.00e+00	0	25	0	1066401792	56	4082
2026-01-08 02:46:39.83	26.36	22.71	-45.1	-46.2	15.4	0.00e+00	0	25	0	1071644672	56	4067
2026-01-08 02:46:40.83	26.36	22.85	-45.2	-46.2	15.4	0.00e+00	0	25	0	1077936128	56	4090
2026-01-08 02:46:41.83	26.37	23.00	-45.1	-46.2	15.4	0.00e+00	0	25	0	1083179008	56	4065
2026-01-08 02:46:42.82	26.38	23.14	-45.1	-46.2	15.4	0.00e+00	0	24	0	1088421888	56	4085
2026-01-08 02:46:43.82	26.39	23.29	-45.0	-46.1	15.5	0.00e+00	0	24	0	1094713344	56	4021
2026-01-08 02:46:44.82	26.40	23.44	-45.0	-46.0	15.5	0.00e+00	0	24	0	1099956224	56	3996
2026-01-08 02:46:45.82	26.41	23.59	-45.0	-46.0	15.5	0.00e+00	0	24	0	1105199104	56	4003
2026-01-08 02:46:46.82	26.41	23.74	-45.0	-46.0	15.5	0.00e+00	0	25	0	1111490560	56	3999
2026-01-08 02:46:47.82	26.42	23.89	-45.0	-46.0	15.5	0.00e+00	0	24	0	1116733440	56	3994
2026-01-08 02:46:48.82	26.43	24.04	-45.0	-46.0	15.5	0.00e+00	0	25	0	1123024896	56	3994
2026-01-08 02:46:49.82	26.44	24.20	-44.9	-46.0	15.5	0.00e+00	0	24	0	1128267776	56	3964
2026-01-08 02:46:50.81	26.45	24.35	-45.0	-46.0	15.5	0.00e+00	0	25	0	1133510656	56	4002
2026-01-08 02:46:51.81	26.46	24.51	-44.9	-46.0	15.5	0.00e+00	0	25	0	1139802112	56	3975
2026-01-08 02:46:52.81	26.47	24.66	-44.8	-45.8	15.6	0.00e+00	0	25	0	1145044992	56	3901
2026-01-08 02:46:53.81	26.47	24.82	-44.8	-45.8	15.6	0.00e+00	0	25	0	1150287872	56	3908
2026-01-08 02:46:54.80	26.48	24.98	-44.8	-45.8	15.6	0.00e+00	0	25	0	1155530752	56	3898
2026-01-08 02:46:55.80	26.49	25.13	-44.7	-45.8	15.6	0.00e+00	0	25	0	1161822208	56	3885
2026-01-08 02:46:56.80	26.50	25.29	-44.5	-45.5	15.5	0.00e+00	0	24	0	1167065088	55	3994
2026-01-08 02:46:57.80	26.51	25.45	-44.5	-45.5	15.5	0.00e+00	0	25	0	1173356544	55	3997
2026-01-08 02:46:58.80	26.52	25.62	-44.5	-45.5	15.5	0.00e+00	0	25	0	1178599424	55	3993
2026-01-08 02:46:59.80	26.53	25.78	-44.5	-45.5	15.5	0.00e+00	0	25	0	1183842304	55	3984
2026-01-08 02:47:00.80	26.54	25.94	-44.5	-45.5	15.5	0.00e+00	0	25	0	1190133760	55	3998
2026-01-08 02:47:01.80	26.55	26.11	-44.4	-45.5	15.5	0.00e+00	0	25	0	1195376640	55	3973
2026-01-08 02:47:02.80	26.56	26.27	-44.4	-45.5	15.5	0.00e+00	0	25	0	1200619520	55	3968
2026-01-08 02:47:03.80	26.56	26.44	-44.5	-45.5	15.5	0.00e+00	0	25	0	1206910976	55	3992
2026-01-08 02:47:04.80	26.57	26.61	-44.4	-45.4	15.6	0.00e+00	0	24	0	1212153856	55	3933
2026-01-08 02:47:05.80	26.58	26.78	-44.4	-45.4	15.6	0.00e+00	0	24	0	1217396736	55	3950
2026-01-08 02:47:06.80	26.59	26.95	-44.3	-45.4	15.6	0.00e+00	0	25	0	1223688192	55	3932
2026-01-08 02:47:07.80	26.60	27.12	-44.3	-45.3	15.6	0.00e+00	0	24	0	1228931072	55	3912
2026-01-08 02:47:08.80	26.61	27.29	-44.3	-45.3	15.6	0.00e+00	0	24	0	1235222528	55	3897
2026-01-08 02:47:09.79	26.62	27.46	-44.2	-45.3	15.6	0.00e+00	0	25	0	1240465408	55	3882
2026-01-08 02:47:10.79	26.63	27.64	-44.2	-45.2	15.6	0.00e+00	0	24	0	1245708288	55	3847
2026-01-08 02:47:11.80	26.64	27.81	-44.1	-45.1	15.5	0.00e+00	0	25	0	1251999744	54	4020
2026-01-08 02:47:12.80	26.65	27.99	-44.1	-45.2	15.5	0.00e+00	0	25	0	1257242624	54	4058
2026-01-08 02:47:13.79	26.66	28.17	-44.1	-45.1	15.5	0.00e+00	0	24	0	1262485504	54	4029
2026-01-08 02:47:14.79	26.67	28.34	-44.2	-45.3	15.5	0.00e+00	0	25	0	1268776960	54	4105
2026-01-08 02:47:15.79	26.68	28.53	-44.3	-45.4	15.5	0.00e+00	0	25	0	1274019840	54	4150
2026-01-08 02:47:16.78	26.69	28.70	-44.4	-45.4	15.4	0.00e+00	0	25	0	1279262720	54	4190
2026-01-08 02:47:17.78	26.70	28.89	-44.5	-45.5	15.4	0.00e+00	0	24	0	1285554176	54	4230
2026-01-08 02:47:18.77	26.71	29.07	-44.5	-45.6	15.4	0.00e+00	0	25	0	1290797056	54	4275
2026-01-08 02:47:19.78	26.72	29.26	-44.6	-45.6	15.4	0.00e+00	0	24	0	1297088512	54	4282
2026-01-08 02:47:20.77	26.73	29.44	-44.5	-45.6	15.4	0.00e+00	0	25	0	1302331392	54	4266
2026-01-08 02:47:21.78	26.74	29.63	-44.5	-45.6	15.4	0.00e+00	0	25	0	1307574272	54	4258
2026-01-08 02:47:22.78	26.75	29.82	-44.4	-45.5	15.4	0.00e+00	0	25	0	1313865728	54	4211
2026-01-08 02:47:23.77	26.76	30.00	-44.5	-45.5	15.4	0.00e+00	0	25	0	1319108608	54	4232
2026-01-08 02:47:24.78	26.77	30.20	-44.4	-45.5	15.4	0.00e+00	0	25	0	1324351488	54	4215
2026-01-08 02:47:25.77	26.78	30.39	-44.5	-45.6	15.4	0.00e+00	0	25	0	1330642944	54	4271
2026-01-08 02:47:26.78	26.79	30.58	-44.6	-45.7	15.4	0.00e+00	0	25	0	1335885824	54	4295
2026-01-08 02:47:27.78	26.80	30.78	-44.7	-45.8	15.4	0.00e+00	0	25	0	1342177280	54	4353
2026-01-08 02:47:28.79	26.82	30.98	-44.6	-45.7	15.4	0.00e+00	0	25	0	1347420160	54	4299
2026-01-08 02:47:29.79	26.83	31.17	-44.6	-45.7	15.4	0.00e+00	0	24	0	1352663040	54	4319
2026-01-08 02:47:30.78	26.84	31.37	-44.5	-45.6	15.4	0.00e+00	0	25	0	1358954496	54	4246
2026-01-08 02:47:31.78	26.85	31.57	-44.4	-45.5	15.4	0.00e+00	0	25	0	1364197376	54	4214
2026-01-08 02:47:32.78	26.86	31.77	-44.5	-45.5	15.4	0.00e+00	0	25	0	1369440256	54	4229
2026-01-08 02:47:33.78	26.87	31.98	-44.2	-45.2	15.5	0.00e+00	0	24	0	1375731712	54	4097
2026-01-08 02:47:34.77	26.88	32.18	-44.1	-45.1	15.5	0.00e+00	0	24	0	1380974592	54	4032
2026-01-08 02:47:35.77	26.89	32.38	-44.1	-45.1	15.5	0.00e+00	0	25	0	1386217472	54	4030
2026-01-08 02:47:36.77	26.91	32.59	-44.1	-45.1	15.5	0.00e+00	0	25	0	1392508928	54	4019
2026-01-08 02:47:37.77	26.92	32.80	-43.9	-44.9	15.6	0.00e+00	0	24	0	1397751808	54	3930
2026-01-08 02:47:38.77	26.93	33.01	-43.9	-44.9	15.5	0.00e+00	0	25	0	1404043264	54	3957
2026-01-08 02:47:39.77	26.94	33.22	-44.0	-45.0	15.5	0.00e+00	0	25	0	1409286144	54	3987
2026-01-08 02:47:40.78	26.95	33.44	-44.1	-45.1	15.5	0.00e+00	0	25	0	1414529024	54	4049
2026-01-08 02:47:41.79	26.97	33.65	-44.1	-45.1	15.5	0.00e+00	0	25	0	1420820480	54	4024
2026-01-08 02:47:42.79	26.98	33.87	-44.1	-45.1	15.5	0.00e+00	0	25	0	1426063360	54	4045
2026-01-08 02:47:43.79	26.99	34.09	-44.0	-45.1	15.5	0.00e+00	0	25	0	1431306240	54	4025
2026-01-08 02:47:44.79	27.00	34.31	-44.1	-45.1	15.5	0.00e+00	0	25	0	1437597696	54	4037
2026-01-08 02:47:45.78	27.01	34.53	-44.0	-45.0	15.5	0.00e+00	0	25	0	1442840576	54	3985
2026-01-08 02:47:46.78	27.03	34.75	-44.0	-45.0	15.5	0.00e+00	0	25	0	1448083456	54	4001
2026-01-08 02:47:47.78	27.04	34.97	-44.0	-45.1	15.5	0.00e+00	0	25	0	1454374912	54	4014
2026-01-08 02:47:48.77	27.05	35.20	-44.1	-45.1	15.5	0.00e+00	0	25	0	1459617792	54	4043
2026-01-08 02:47:49.78	27.07	35.43	-44.0	-45.1	15.5	0.00e+00	0	25	0	1465909248	54	4016
2026-01-08 02:47:50.77	27.08	35.65	-44.1	-45.1	15.5	0.00e+00	0	25	0	1471152128	54	4039
2026-01-08 02:47:51.78	27.09	35.89	-44.1	-45.1	15.5	0.00e+00	0	25	0	1476395008	54	4022
2026-01-08 02:47:52.77	27.11	36.12	-44.1	-45.2	15.5	0.00e+00	0	25	0	1482686464	54	4059
2026-01-08 02:47:53.77	27.12	36.35	-44.0	-45.1	15.5	0.00e+00	0	25	0	1487929344	54	4019
2026-01-08 02:47:54.77	27.13	36.58	-44.1	-45.1	15.5	0.00e+00	0	25	0	1493172224	54	4048
2026-01-08 02:47:55.76	27.15	36.82	-43.9	-44.9	15.6	0.00e+00	0	25	0	1499463680	54	3952
2026-01-08 02:47:56.76	27.16	37.06	-43.9	-45.0	15.6	0.00e+00	0	25	0	1504706560	54	3962
2026-01-08 02:47:57.76	27.17	37.30	-43.8	-44.8	15.6	0.00e+00	0	25	0	1509949440	54	3898
2026-01-08 02:47:58.76	27.19	37.54	-43.8	-44.9	15.6	0.00e+00	0	25	0	1516240896	54	3914
2026-01-08 02:47:59.76	27.20	37.79	-43.9	-44.9	15.6	0.00e+00	0	25	0	1521483776	54	3938
2026-01-08 02:48:00.73	27.22	38.03	-44.1	-45.1	15.5	0.00e+00	0	25	0	1526726656	54	4030
2026-01-08 02:48:01.73	27.23	38.27	-44.1	-45.2	15.5	0.00e+00	0	25	0	1533018112	54	4059
2026-01-08 02:48:02.72	27.25	38.52	-44.1	-45.2	15.5	0.00e+00	0	25	0	1538260992	54	4052
2026-01-08 02:48:03.72	27.26	38.77	-44.0	-45.0	15.5	0.00e+00	0	25	0	1543503872	54	3985
2026-01-08 02:48:04.71	27.28	39.02	-44.0	-45.0	15.5	0.00e+00	0	25	0	1549795328	54	3976
2026-01-08 02:48:05.70	27.29	39.28	-44.0	-45.0	15.5	0.00e+00	0	25	0	1555038208	54	3997
2026-01-08 02:48:06.70	27.31	39.53	-43.8	-44.8	15.6	0.00e+00	0	25	0	1560281088	54	3908
2026-01-08 02:48:07.69	27.32	39.79	-44.0	-45.0	15.5	0.00e+00	0	25	0	1566572544	54	3997
2026-01-08 02:48:08.68	27.34	40.05	-44.1	-45.2	15.5	0.00e+00	0	25	0	1571815424	54	4059
2026-01-08 02:48:09.68	27.35	40.31	-44.1	-45.2	15.5	0.00e+00	0	25	0	1577058304	54	4059
2026-01-08 02:48:10.68	27.37	40.58	-44.2	-45.2	15.5	0.00e+00	0	25	0	1583349760	54	4084
2026-01-08 02:48:11.68	27.39	40.84	-44.1	-45.2	15.5	0.00e+00	0	25	0	1588592640	54	4062
2026-01-08 02:48:12.68	27.40	41.11	-44.1	-45.2	15.5	0.00e+00	0	25	0	1593835520	54	4061
2026-01-08 02:48:13.69	27.42	41.39	-44.1	-45.1	15.5	0.00e+00	0	25	0	1600126976	54	4021
2026-01-08 02:48:14.68	27.44	41.66	-44.2	-45.3	15.5	0.00e+00	0	25	0	1605369856	54	4107
2026-01-08 02:48:15.67	27.46	41.93	-44.2	-45.2	15.5	0.00e+00	0	25	0	1610612736	54	4077
2026-01-08 02:48:16.67	27.47	42.21	-44.2	-45.3	15.5	0.00e+00	0	25	0	1616904192	54	4115
2026-01-08 02:48:17.67	27.49	42.48	-44.4	-45.4	15.4	0.00e+00	0	25	0	1622147072	54	4184
2026-01-08 02:48:18.67	27.51	42.77	-44.6	-45.6	15.4	0.00e+00	0	25	0	1628438528	54	4277
2026-01-08 02:48:19.66	27.53	43.05	-44.6	-45.7	15.4	0.00e+00	0	25	0	1633681408	54	4293
2026-01-08 02:48:20.66	27.55	43.33	-44.6	-45.7	15.4	0.00e+00	0	25	0	1638924288	54	4315
2026-01-08 02:48:21.67	27.56	43.62	-44.6	-45.7	15.4	0.00e+00	0	25	0	1645215744	54	4295
2026-01-08 02:48:22.66	27.58	43.91	-44.5	-45.5	15.4	0.00e+00	0	25	0	1650458624	54	4229
2026-01-08 02:48:23.66	27.60	44.20	-44.5	-45.5	15.4	0.00e+00	0	25	0	1655701504	54	4236
2026-01-08 02:48:24.66	27.62	44.50	-44.5	-45.6	15.4	0.00e+00	0	25	0	1661992960	54	4258
2026-01-08 02:48:25.66	27.64	44.79	-44.8	-45.8	15.4	0.00e+00	0	25	0	1667235840	54	4379
2026-01-08 02:48:26.65	27.66	45.09	-45.0	-46.1	15.4	0.00e+00	0	25	0	1672478720	55	4254
2026-01-08 02:48:27.65	27.68	45.39	-45.0	-46.1	15.4	0.00e+00	0	25	0	1678770176	55	4286
2026-01-08 02:48:28.65	27.70	45.69	-44.8	-45.9	15.4	0.00e+00	0	25	0	1684013056	55	4175
2026-01-08 02:48:29.65	27.73	46.00	-44.8	-45.8	15.4	0.00e+00	0	25	0	1689255936	55	4139
2026-01-08 02:48:30.65	27.75	46.31	-44.4	-45.4	15.5	0.00e+00	0	25	0	1695547392	55	3946
2026-01-08 02:48:31.66	27.77	46.62	-44.2	-45.2	15.6	0.00e+00	0	25	0	1700790272	55	3859
2026-01-08 02:48:32.66	27.79	46.93	-44.3	-45.3	15.6	0.00e+00	0	25	0	1707081728	55	3899
2026-01-08 02:48:33.66	27.81	47.25	-44.3	-45.3	15.6	0.00e+00	0	24	0	1712324608	55	3898
2026-01-08 02:48:34.65	27.84	47.56	-44.2	-45.3	15.6	0.00e+00	0	25	0	1717567488	55	3888
2026-01-08 02:48:35.65	27.86	47.88	-44.4	-45.4	15.6	0.00e+00	0	25	0	1722810368	55	3953
2026-01-08 02:48:36.65	27.88	48.20	-44.3	-45.4	15.6	0.00e+00	0	25	0	1729101824	55	3919
2026-01-08 02:48:37.64	27.91	48.52	-44.5	-45.5	15.5	0.00e+00	0	25	0	1734344704	55	3990
2026-01-08 02:48:38.63	27.93	48.85	-44.5	-45.6	15.5	0.00e+00	0	25	0	1740636160	55	4013
2026-01-08 02:48:39.63	27.96	49.18	-44.7	-45.8	15.4	0.00e+00	0	25	0	1745879040	55	4121
2026-01-08 02:48:40.63	27.98	49.51	-44.8	-45.9	15.4	0.00e+00	0	25	0	1751121920	55	4146
2026-01-08 02:48:41.63	28.01	49.84	-44.9	-46.0	15.4	0.00e+00	0	25	0	1757413376	55	4196
2026-01-08 02:48:42.64	28.04	50.18	-45.0	-46.1	15.4	0.00e+00	0	25	0	1762656256	55	4246
2026-01-08 02:48:43.63	28.06	50.52	-45.0	-46.1	15.4	0.00e+00	0	25	0	1767899136	55	4262
2026-01-08 02:48:44.62	28.09	50.86	-45.0	-46.0	15.4	0.00e+00	0	25	0	1774190592	55	4240
2026-01-08 02:48:45.61	28.12	51.20	-44.9	-46.0	15.4	0.00e+00	0	25	0	1779433472	55	4202
2026-01-08 02:48:46.61	28.15	51.55	-45.1	-46.2	15.4	0.00e+00	0	25	0	1784676352	55	4311
2026-01-08 02:48:47.61	28.18	51.90	-45.2	-46.2	15.4	0.00e+00	0	25	0	1790967808	55	4335
2026-01-08 02:48:48.61	28.21	52.25	-45.2	-46.3	15.4	0.00e+00	0	25	0	1796210688	55	4350
2026-01-08 02:48:49.62	28.24	52.61	-45.6	-46.7	15.3	0.00e+00	0	25	0	1802502144	56	4331
2026-01-08 02:48:50.62	28.27	52.96	-45.8	-46.9	15.3	0.00e+00	0	25	0	1807745024	56	4429
2026-01-08 02:48:51.61	28.30	53.32	-45.7	-46.9	15.3	0.00e+00	0	25	0	1812987904	56	4392
2026-01-08 02:48:52.62	28.33	53.68	-45.6	-46.8	15.3	0.00e+00	0	25	0	1819279360	56	4341
2026-01-08 02:48:53.62	28.36	54.05	-45.7	-46.7	15.3	0.00e+00	0	25	0	1824522240	56	4337
2026-01-08 02:48:54.61	28.40	54.41	-45.5	-46.6	15.3	0.00e+00	0	25	0	1829765120	56	4267
2026-01-08 02:48:55.62	28.43	54.79	-45.6	-46.7	15.3	0.00e+00	0	25	0	1836056576	56	4311
2026-01-08 02:48:56.61	28.47	55.16	-45.8	-46.9	15.3	0.00e+00	0	25	0	1841299456	56	4420
2026-01-08 02:48:57.62	28.51	55.53	-45.8	-46.9	15.3	0.00e+00	0	25	0	1847590912	56	4441
2026-01-08 02:48:58.61	28.54	55.91	-45.8	-46.9	15.3	0.00e+00	0	25	0	1852833792	56	4425
2026-01-08 02:48:59.61	28.58	56.29	-46.0	-47.1	15.3	0.00e+00	0	25	0	1858076672	57	4256
2026-01-08 02:49:00.60	28.62	56.67	-46.1	-47.2	15.3	0.00e+00	0	25	0	1863319552	57	4335
2026-01-08 02:49:01.59	28.66	57.05	-46.0	-47.1	15.3	0.00e+00	0	25	0	1869611008	57	4277
2026-01-08 02:49:02.59	28.70	57.44	-46.0	-47.1	15.3	0.00e+00	0	25	0	1874853888	57	4252
2026-01-08 02:49:03.59	28.74	57.83	-45.9	-47.0	15.3	0.00e+00	0	25	0	1880096768	57	4206
2026-01-08 02:49:04.58	28.78	58.22	-45.6	-46.6	15.4	0.00e+00	0	25	0	1886388224	57	4037
2026-01-08 02:49:05.58	28.83	58.62	-45.4	-46.5	15.5	0.00e+00	0	25	0	1891631104	57	3965
2026-01-08 02:49:06.57	28.87	59.01	-45.3	-46.3	15.6	0.00e+00	0	25	0	1897922560	57	3910
2026-01-08 02:49:07.57	28.92	59.41	-45.3	-46.3	15.6	0.00e+00	0	25	0	1903165440	57	3896
2026-01-08 02:49:08.56	28.97	59.81	-44.9	-45.9	15.5	0.00e+00	0	25	0	1908408320	56	3945
2026-01-08 02:49:09.56	29.02	60.22	-44.3	-45.4	15.6	0.00e+00	0	25	0	1914699776	55	3921
2026-01-08 02:49:10.56	29.07	60.63	-44.3	-45.3	15.6	0.00e+00	0	25	0	1919942656	55	3896
2026-01-08 02:49:11.56	29.12	61.04	-44.2	-45.2	15.6	0.00e+00	0	25	0	1925185536	55	3867
2026-01-08 02:49:12.55	29.18	61.45	-44.1	-45.2	15.5	0.00e+00	0	25	0	1930428416	54	4061
2026-01-08 02:49:13.55	29.23	61.87	-44.2	-45.2	15.5	0.00e+00	0	25	0	1936719872	54	4096
2026-01-08 02:49:14.54	29.29	62.28	-44.1	-45.1	15.5	0.00e+00	0	25	0	1941962752	54	4036
2026-01-08 02:49:15.53	29.35	62.70	-44.4	-45.4	15.5	0.00e+00	0	25	0	1948254208	54	4193
2026-01-08 02:49:16.53	29.41	63.13	-44.7	-45.8	15.4	0.00e+00	0	25	0	1953497088	54	4348
2026-01-08 02:49:17.53	29.48	63.56	-44.8	-45.8	15.4	0.00e+00	0	24	0	1958739968	54	4388
2026-01-08 02:49:18.52	29.54	63.98	-44.6	-45.7	15.4	0.00e+00	0	25	0	1965031424	54	4301
2026-01-08 02:49:19.52	29.61	64.41	-44.2	-45.3	15.5	0.00e+00	0	25	0	1970274304	54	4108
2026-01-08 02:49:20.52	29.68	64.85	-44.2	-45.2	15.5	0.00e+00	0	25	0	1975517184	54	4080
2026-01-08 02:49:21.52	29.75	65.29	-44.2	-45.3	15.5	0.00e+00	0	25	0	1981808640	54	4120
2026-01-08 02:49:22.52	29.83	65.73	-43.6	-44.6	15.6	0.00e+00	0	25	0	1987051520	53	4032
2026-01-08 02:49:23.51	29.91	66.16	-43.6	-44.6	15.5	0.00e+00	0	25	0	1992294400	53	4037
2026-01-08 02:49:24.52	29.99	66.61	-44.0	-45.0	15.5	0.00e+00	0	25	0	1998585856	53	4225
2026-01-08 02:49:25.51	30.08	67.06	-43.9	-44.9	15.5	0.00e+00	0	25	0	2003828736	53	4158
2026-01-08 02:49:26.51	30.17	67.51	-44.0	-45.0	15.5	0.00e+00	0	25	0	2010120192	53	4226
2026-01-08 02:49:27.51	30.26	67.96	-44.0	-45.0	15.5	0.00e+00	0	25	0	2015363072	53	4219
2026-01-08 02:49:28.51	30.36	68.41	-44.1	-45.1	15.5	0.00e+00	0	25	0	2020605952	53	4270
2026-01-08 02:49:29.50	30.46	68.86	-43.8	-44.9	15.5	0.00e+00	0	25	0	2025848832	53	4149
2026-01-08 02:49:30.51	30.57	69.33	-43.8	-44.8	15.5	0.00e+00	0	25	0	2032140288	53	4125
2026-01-08 02:49:31.51	30.68	69.79	-43.7	-44.7	15.5	0.00e+00	0	25	0	2037383168	53	4075
2026-01-08 02:49:32.51	30.79	70.25	-43.6	-44.6	15.5	0.00e+00	0	25	0	2042626048	53	4032
2026-01-08 02:49:33.51	30.92	70.72	-43.6	-44.6	15.6	0.00e+00	0	25	0	2048917504	53	4035
2026-01-08 02:49:34.51	31.04	71.18	-43.6	-44.6	15.6	0.00e+00	0	25	0	2054160384	53	4021
2026-01-08 02:49:35.50	31.18	71.65	-43.6	-44.6	15.5	0.00e+00	0	25	0	2060451840	53	4043
2026-01-08 02:49:36.50	31.32	72.12	-43.5	-44.5	15.6	0.00e+00	0	25	0	2065694720	53	3998
2026-01-08 02:49:37.49	31.47	72.59	-43.2	-44.1	15.5	0.00e+00	0	25	0	2070937600	52	4044
2026-01-08 02:49:38.75	31.67	73.19	-43.3	-44.3	15.5	0.00e+00	0	25	0	2077229056	52	4128
2026-01-08 02:49:39.52	31.81	73.56	-43.6	-44.6	15.5	0.00e+00	0	25	0	2081423360	52	4268
2026-01-08 02:49:40.77	32.03	74.16	-43.2	-44.2	15.5	0.00e+00	0	25	0	2088763392	52	4095
2026-01-08 02:49:41.56	32.18	74.54	-43.1	-44.1	15.6	0.00e+00	0	25	0	2092957696	52	4029
2026-01-08 02:49:42.75	32.43	75.11	-43.2	-44.2	15.5	0.00e+00	0	25	0	2099249152	52	4085
2026-01-08 02:49:43.60	32.62	75.52	-43.2	-44.2	15.5	0.00e+00	0	25	0	2104492032	52	4082
2026-01-08 02:49:44.75	32.89	76.08	-42.9	-43.9	15.6	0.00e+00	0	25	0	2110783488	52	3944
2026-01-08 02:49:45.60	33.10	76.50	-42.7	-43.7	15.7	0.00e+00	0	25	0	2114977792	52	3827
2026-01-08 02:49:46.75	33.41	77.06	-42.7	-43.7	15.6	0.00e+00	0	25	0	2122317824	51	4087
2026-01-08 02:49:47.60	33.66	77.47	-43.0	-44.0	15.5	0.00e+00	0	25	0	2126512128	51	4226
2026-01-08 02:49:48.74	34.02	78.03	-42.5	-43.5	15.6	0.00e+00	0	25	0	2132803584	51	3974
2026-01-08 02:49:49.59	34.32	78.45	-42.4	-43.3	15.6	0.00e+00	0	25	0	2138046464	51	3899
2026-01-08 02:49:50.74	34.75	79.02	-42.4	-43.4	15.6	0.00e+00	0	25	0	2144337920	51	3946
2026-01-08 02:49:51.60	35.11	79.44	-42.6	-43.6	15.6	0.00e+00	0	25	0	2149580800	51	4011
2026-01-08 02:49:52.74	35.62	80.01	-42.4	-43.4	15.6	0.00e+00	0	25	0	2155872256	51	3945
2026-01-08 02:49:53.59	36.05	80.43	-42.5	-43.4	15.6	0.00e+00	0	25	0	2160066560	51	3958
2026-01-08 02:49:54.72	36.68	80.99	-42.4	-43.4	15.6	0.00e+00	0	25	0	2166358016	51	3950
2026-01-08 02:49:55.58	37.21	81.42	-42.3	-43.3	15.6	0.00e+00	0	25	0	2171600896	51	3903
2026-01-08 02:49:56.72	38.00	81.98	-42.1	-43.1	15.6	0.00e+00	0	25	0	2177892352	50	4028
2026-01-08 02:49:57.57	38.67	82.40	-41.9	-42.8	15.6	0.00e+00	0	25	0	2183135232	50	3913
2026-01-08 02:49:58.72	39.71	82.97	-42.0	-43.0	15.6	0.00e+00	0	25	0	2189426688	50	3967
2026-01-08 02:49:59.58	40.60	83.40	-42.0	-43.0	15.6	0.00e+00	0	25	0	2193620992	50	3990
2026-01-08 02:50:00.72	41.98	83.96	-42.0	-42.9	15.6	0.00e+00	0	25	0	2200961024	50	3958
2026-01-08 02:50:01.57	43.18	84.38	-41.9	-42.9	15.6	0.00e+00	0	25	0	2205155328	50	3933
2026-01-08 02:50:02.70	45.09	84.93	-42.3	-43.3	15.6	0.00e+00	0	25	0	2211446784	50	4126
2026-01-08 02:50:03.56	46.84	85.34	-42.3	-43.3	15.6	0.00e+00	0	25	0	2216689664	50	4141
2026-01-08 02:50:04.70	49.71	85.88	-42.2	-43.1	15.6	0.00e+00	0	25	0	2222981120	50	4047
2026-01-08 02:50:05.56	52.42	86.29	-42.3	-43.3	15.6	0.00e+00	0	25	0	2227175424	50	4134
2026-01-08 02:50:06.70	57.05	86.80	-42.4	-43.4	15.6	0.00e+00	0	25	0	2234515456	50	4156
2026-01-08 02:50:07.55	61.58	87.17	-42.3	-43.3	15.6	0.00e+00	0	25	0	2238709760	50	4120
2026-01-08 02:50:08.69	69.78	87.62	-42.3	-43.2	15.6	0.00e+00	0	25	0	2245001216	50	4092
2026-01-08 02:50:09.54	78.09	87.92	-42.4	-43.4	15.5	0.00e+00	0	25	0	2250244096	50	4173
2026-01-08 02:50:10.68	93.11	88.22	-42.7	-43.7	15.6	0.00e+00	0	25	0	2256535552	51	4063
2026-01-08 02:50:11.53	107.17	88.34	-42.4	-43.4	15.6	0.00e+00	0	25	0	2261778432	51	3940
2026-01-08 02:50:12.68	127.70	88.33	-42.2	-43.1	15.5	0.00e+00	0	25	0	2268069888	50	4049
2026-01-08 02:50:13.53	141.45	88.19	-42.4	-43.4	15.5	0.00e+00	0	25	0	2272264192	50	4160
2026-01-08 02:50:14.67	155.97	87.88	-42.4	-43.4	15.5	0.00e+00	0	25	0	2278555648	50	4173
2026-01-08 02:50:15.52	163.97	87.58	-42.6	-43.5	15.5	0.00e+00	0	25	0	2283798528	50	4242
2026-01-08 02:50:16.66	171.86	87.12	-42.6	-43.6	15.5	0.00e+00	0	25	0	2290089984	50	4268
2026-01-08 02:50:17.51	176.23	86.75	-42.7	-43.7	15.6	0.00e+00	0	25	0	2295332864	50	4313
2026-01-08 02:50:18.65	180.72	86.23	-42.6	-43.6	15.6	0.00e+00	0	25	0	2301624320	51	4025
2026-01-08 02:50:19.51	183.35	85.83	-42.4	-43.4	15.6	0.00e+00	0	25	0	2305818624	51	3926
2026-01-08 02:50:20.65	186.15	85.28	-42.6	-43.6	15.6	0.00e+00	0	24	0	2312110080	51	4037
2026-01-08 02:50:21.51	187.86	84.87	-42.5	-43.5	15.6	0.00e+00	0	25	0	2317352960	51	3980
2026-01-08 02:50:22.65	189.74	84.31	-42.4	-43.4	15.6	0.00e+00	0	25	0	2323644416	51	3914
2026-01-08 02:50:23.51	190.93	83.89	-42.4	-43.4	15.6	0.00e+00	0	25	0	2328887296	51	3936
2026-01-08 02:50:24.64	192.26	83.33	-42.3	-43.3	15.6	0.00e+00	0	25	0	2335178752	51	3890
2026-01-08 02:50:25.50	193.14	82.91	-42.3	-43.3	15.6	0.00e+00	0	25	0	2339373056	51	3886
2026-01-08 02:50:26.64	194.15	82.34	-42.3	-43.2	15.6	0.00e+00	0	25	0	2346713088	51	3863
2026-01-08 02:50:27.50	194.81	81.91	-42.1	-43.0	15.6	0.00e+00	0	25	0	2350907392	50	3990
2026-01-08 02:50:28.63	195.59	81.35	-42.4	-43.4	15.6	0.00e+00	0	25	0	2357198848	50	4153
2026-01-08 02:50:29.49	196.12	80.93	-42.4	-43.4	15.6	0.00e+00	0	25	0	2362441728	50	4160
2026-01-08 02:50:30.63	196.74	80.36	-42.0	-42.9	15.6	0.00e+00	0	25	0	2368733184	50	3957
2026-01-08 02:50:31.49	197.16	79.93	-42.1	-43.0	15.6	0.00e+00	0	25	0	2373976064	50	4003
2026-01-08 02:50:32.63	197.67	79.37	-42.1	-43.1	15.6	0.00e+00	0	25	0	2380267520	50	4033
2026-01-08 02:50:33.49	198.02	78.94	-42.2	-43.1	15.6	0.00e+00	0	25	0	2384461824	50	4046
2026-01-08 02:50:34.63	198.45	78.38	-42.2	-43.2	15.6	0.00e+00	0	25	0	2391801856	50	4073
2026-01-08 02:50:35.48	198.74	77.96	-42.3	-43.4	15.6	0.00e+00	0	25	0	2395996160	50	4149
2026-01-08 02:50:36.62	199.10	77.40	-42.4	-43.4	15.6	0.00e+00	0	25	0	2402287616	50	4160
2026-01-08 02:50:37.49	199.35	76.98	-42.3	-43.2	15.6	0.00e+00	0	24	0	2407530496	50	4089
2026-01-08 02:50:38.64	199.66	76.41	-42.6	-43.6	15.5	0.00e+00	0	25	0	2413821952	50	4253
2026-01-08 02:50:39.49	199.87	76.00	-42.8	-43.8	15.5	0.00e+00	0	25	0	2419064832	50	4376
2026-01-08 02:50:40.62	200.13	75.45	-42.5	-43.5	15.6	0.00e+00	0	25	0	2425356288	51	3985
2026-01-08 02:50:41.47	200.32	75.04	-42.5	-43.4	15.6	0.00e+00	0	25	0	2429550592	51	3942
2026-01-08 02:50:42.61	200.55	74.49	-43.1	-44.2	15.5	0.00e+00	0	25	0	2435842048	51	4298
2026-01-08 02:50:43.47	200.71	74.07	-43.0	-44.0	15.5	0.00e+00	0	25	0	2441084928	51	4235
2026-01-08 02:50:44.61	200.92	73.52	-42.8	-43.7	15.5	0.00e+00	0	25	0	2447376384	51	4086
2026-01-08 02:50:45.47	201.07	73.11	-43.1	-44.1	15.5	0.00e+00	0	25	0	2452619264	51	4263
2026-01-08 02:50:46.61	201.25	72.57	-43.3	-44.3	15.5	0.00e+00	0	25	0	2458910720	51	4382
2026-01-08 02:50:47.46	201.38	72.17	-43.4	-44.4	15.5	0.00e+00	0	25	0	2463105024	52	4166
2026-01-08 02:50:48.60	201.54	71.63	-43.7	-44.7	15.5	0.00e+00	0	25	0	2469396480	52	4322
2026-01-08 02:50:49.46	201.66	71.22	-43.8	-44.8	15.4	0.00e+00	0	25	0	2474639360	52	4371
2026-01-08 02:50:50.59	201.80	70.70	-44.4	-45.5	15.5	0.00e+00	0	25	0	2480930816	54	4217
2026-01-08 02:50:51.45	201.91	70.29	-44.1	-45.2	15.5	0.00e+00	0	25	0	2486173696	54	4058
2026-01-08 02:50:52.60	202.04	69.76	-44.1	-45.1	15.5	0.00e+00	0	25	0	2492465152	54	4039
2026-01-08 02:50:53.46	202.14	69.36	-43.9	-44.9	15.6	0.00e+00	0	25	0	2496659456	54	3950
2026-01-08 02:50:54.61	202.26	68.84	-43.8	-44.8	15.6	0.00e+00	0	25	0	2503999488	54	3898
2026-01-08 02:50:55.45	202.35	68.45	-43.8	-44.8	15.6	0.00e+00	0	25	0	2508193792	54	3893
2026-01-08 02:50:56.59	202.46	67.93	-44.1	-45.2	15.5	0.00e+00	0	25	0	2514485248	54	4072
2026-01-08 02:50:57.45	202.54	67.54	-44.0	-45.1	15.6	0.00e+00	0	25	0	2519728128	54	4008
2026-01-08 02:50:58.60	202.64	67.02	-43.6	-44.6	15.5	0.00e+00	0	24	0	2526019584	53	4015
2026-01-08 02:50:59.45	202.71	66.64	-43.7	-44.6	15.5	0.00e+00	0	25	0	2531262464	53	4042
2026-01-08 02:51:00.60	202.81	66.13	-44.2	-45.3	15.4	0.00e+00	0	24	0	2537553920	53	4368
2026-01-08 02:51:01.45	202.88	65.75	-44.0	-45.0	15.5	0.00e+00	0	25	0	2541748224	53	4215
2026-01-08 02:51:02.59	202.96	65.25	-43.7	-44.7	15.5	0.00e+00	0	25	0	2548039680	53	4074
2026-01-08 02:51:03.44	203.03	64.88	-43.8	-44.8	15.5	0.00e+00	0	25	0	2553282560	53	4143
2026-01-08 02:51:04.57	203.11	64.39	-44.0	-45.1	15.5	0.00e+00	0	25	0	2559574016	53	4249
2026-01-08 02:51:05.43	203.17	64.01	-43.8	-44.8	15.5	0.00e+00	0	24	0	2564816896	53	4144
2026-01-08 02:51:06.57	203.24	63.52	-43.8	-44.8	15.5	0.00e+00	0	25	0	2571108352	53	4129
2026-01-08 02:51:07.43	203.30	63.15	-43.8	-44.8	15.5	0.00e+00	0	24	0	2575302656	53	4122
2026-01-08 02:51:08.57	203.37	62.67	-43.8	-44.8	15.5	0.00e+00	0	25	0	2582642688	53	4120
2026-01-08 02:51:09.42	203.42	62.31	-43.9	-45.0	15.5	0.00e+00	0	25	0	2586836992	53	4200
2026-01-08 02:51:10.56	203.48	61.83	-44.0	-45.0	15.5	0.00e+00	0	25	0	2593128448	53	4236
2026-01-08 02:51:11.41	203.53	61.47	-44.2	-45.3	15.4	0.00e+00	0	25	0	2598371328	53	4343
2026-01-08 02:51:12.56	203.59	60.99	-44.3	-45.4	15.4	0.00e+00	0	25	0	2604662784	53	4399
2026-01-08 02:51:13.42	203.64	60.64	-44.4	-45.4	15.4	0.00e+00	0	25	0	2609905664	54	4190
2026-01-08 02:51:14.56	203.70	60.17	-44.6	-45.6	15.4	0.00e+00	0	25	0	2616197120	54	4281
2026-01-08 02:51:15.41	203.74	59.82	-44.8	-45.9	15.4	0.00e+00	0	25	0	2620391424	54	4419
2026-01-08 02:51:16.55	203.79	59.36	-44.8	-45.9	15.4	0.00e+00	0	25	0	2626682880	54	4419
2026-01-08 02:51:17.40	203.83	59.02	-44.9	-46.0	15.4	0.00e+00	0	25	0	2631925760	54	4453
2026-01-08 02:51:18.54	203.89	58.56	-44.6	-45.6	15.5	0.00e+00	0	25	0	2638217216	55	4022
2026-01-08 02:51:19.40	203.93	58.22	-44.7	-45.7	15.5	0.00e+00	0	25	0	2643460096	55	4071
2026-01-08 02:51:20.55	203.97	57.77	-45.2	-46.2	15.4	0.00e+00	0	25	0	2649751552	55	4335
2026-01-08 02:51:21.40	204.01	57.44	-45.4	-46.5	15.3	0.00e+00	0	25	0	2653945856	55	4462
2026-01-08 02:51:22.54	204.06	56.99	-45.9	-46.9	15.3	0.00e+00	0	25	0	2660237312	56	4441
2026-01-08 02:51:23.40	204.09	56.66	-45.7	-46.8	15.3	0.00e+00	0	25	0	2665480192	56	4373
2026-01-08 02:51:24.53	204.14	56.22	-45.6	-46.7	15.3	0.00e+00	0	25	0	2671771648	56	4317
2026-01-08 02:51:25.38	204.17	55.90	-45.7	-46.8	15.3	0.00e+00	0	25	0	2677014528	56	4350
2026-01-08 02:51:26.53	204.21	55.46	-45.8	-46.9	15.3	0.00e+00	0	25	0	2683305984	56	4396
2026-01-08 02:51:27.38	204.24	55.14	-45.8	-46.9	15.3	0.00e+00	0	25	0	2687500288	56	4422
2026-01-08 02:51:28.52	204.28	54.72	-45.9	-47.0	15.3	0.00e+00	0	25	0	2694840320	57	4219
2026-01-08 02:51:29.37	204.31	54.40	-45.7	-46.8	15.4	0.00e+00	0	25	0	2699034624	57	4118
2026-01-08 02:51:30.52	204.35	53.98	-45.8	-46.9	15.4	0.00e+00	0	25	0	2705326080	57	4173
2026-01-08 02:51:31.38	204.38	53.67	-46.0	-47.1	15.3	0.00e+00	0	25	0	2710568960	57	4244
2026-01-08 02:51:32.52	204.42	53.25	-45.8	-46.9	15.4	0.00e+00	0	25	0	2716860416	57	4164
2026-01-08 02:51:33.37	204.44	52.94	-45.8	-46.9	15.3	0.00e+00	0	25	0	2722103296	57	4173
2026-01-08 02:51:34.52	204.48	52.53	-45.7	-46.8	15.4	0.00e+00	0	25	0	2728394752	57	4115
2026-01-08 02:51:35.38	204.50	52.23	-45.6	-46.6	15.4	0.00e+00	0	25	0	2732589056	57	4042
2026-01-08 02:51:36.52	204.54	51.83	-45.4	-46.5	15.5	0.00e+00	0	25	0	2739929088	57	3970
2026-01-08 02:51:37.37	204.56	51.53	-45.3	-46.3	15.6	0.00e+00	0	25	0	2744123392	57	3903
2026-01-08 02:51:38.51	204.60	51.13	-45.3	-46.4	15.5	0.00e+00	0	25	0	2750414848	57	3916
2026-01-08 02:51:39.36	204.62	50.84	-45.1	-46.2	15.5	0.00e+00	0	25	0	2755657728	56	4068
2026-01-08 02:51:40.51	204.65	50.44	-45.0	-46.1	15.5	0.00e+00	0	25	0	2761949184	56	4005
2026-01-08 02:51:41.36	204.67	50.15	-44.9	-46.0	15.5	0.00e+00	0	25	0	2766143488	56	3965
2026-01-08 02:51:42.50	204.70	49.77	-44.5	-45.5	15.5	0.00e+00	0	25	0	2772434944	55	3971
2026-01-08 02:51:43.35	204.73	49.48	-44.3	-45.3	15.6	0.00e+00	0	25	0	2777677824	55	3885
2026-01-08 02:51:44.50	204.75	49.10	-44.4	-45.4	15.6	0.00e+00	0	25	0	2783969280	55	3937
2026-01-08 02:51:45.35	204.78	48.82	-44.6	-45.6	15.5	0.00e+00	0	25	0	2789212160	55	4025
2026-01-08 02:51:46.49	204.80	48.45	-44.7	-45.8	15.5	0.00e+00	0	25	0	2795503616	55	4121
2026-01-08 02:51:47.34	204.82	48.17	-44.8	-45.8	15.5	0.00e+00	0	25	0	2799697920	55	4144
2026-01-08 02:51:48.48	204.85	47.80	-44.7	-45.8	15.5	0.00e+00	0	25	0	2807037952	55	4104
2026-01-08 02:51:49.34	204.87	47.53	-44.6	-45.6	15.5	0.00e+00	0	25	0	2811232256	55	4044
2026-01-08 02:51:50.48	204.90	47.16	-44.5	-45.5	15.5	0.00e+00	0	25	0	2817523712	55	4000
2026-01-08 02:51:51.33	204.92	46.90	-44.4	-45.5	15.5	0.00e+00	0	25	0	2822766592	55	3972
2026-01-08 02:51:52.48	204.94	46.53	-44.4	-45.4	15.5	0.00e+00	0	25	0	2829058048	55	3949
2026-01-08 02:51:53.33	204.96	46.27	-44.4	-45.4	15.6	0.00e+00	0	25	0	2834300928	55	3948
2026-01-08 02:51:54.48	204.98	45.92	-44.4	-45.4	15.5	0.00e+00	0	25	0	2840592384	55	3958
2026-01-08 02:51:55.33	205.00	45.65	-44.4	-45.4	15.6	0.00e+00	0	25	0	2844786688	55	3936
2026-01-08 02:51:56.47	205.03	45.31	-44.4	-45.4	15.6	0.00e+00	0	25	0	2852126720	55	3955
2026-01-08 02:51:57.33	205.04	45.05	-44.4	-45.4	15.6	0.00e+00	0	25	0	2856321024	55	3930
2026-01-08 02:51:58.47	205.07	44.71	-44.3	-45.3	15.6	0.00e+00	0	25	0	2862612480	55	3889
2026-01-08 02:51:59.33	205.08	44.45	-44.2	-45.2	15.6	0.00e+00	0	25	0	2867855360	55	3841
2026-01-08 02:52:00.47	205.11	44.11	-44.2	-45.2	15.6	0.00e+00	0	25	0	2874146816	55	3846
2026-01-08 02:52:01.32	205.12	43.87	-44.2	-45.2	15.5	0.00e+00	0	25	0	2879389696	54	4095
2026-01-08 02:52:02.46	205.14	43.53	-44.3	-45.3	15.5	0.00e+00	0	25	0	2884632576	54	4121
2026-01-08 02:52:03.32	205.16	43.29	-44.5	-45.5	15.4	0.00e+00	0	25	0	2889875456	54	4233
2026-01-08 02:52:04.46	205.18	42.96	-44.6	-45.6	15.4	0.00e+00	0	25	0	2896166912	54	4279
2026-01-08 02:52:05.31	205.20	42.72	-44.5	-45.6	15.4	0.00e+00	0	25	0	2901409792	54	4263
2026-01-08 02:52:06.45	205.22	42.40	-44.6	-45.6	15.4	0.00e+00	0	25	0	2907701248	54	4277
2026-01-08 02:52:07.30	205.23	42.16	-44.5	-45.5	15.4	0.00e+00	0	25	0	2912944128	54	4219
2026-01-08 02:52:08.44	205.25	41.84	-44.5	-45.5	15.4	0.00e+00	0	25	0	2919235584	54	4226
2026-01-08 02:52:09.29	205.27	41.61	-44.4	-45.4	15.4	0.00e+00	0	25	0	2923429888	54	4186
2026-01-08 02:52:10.43	205.28	41.29	-44.4	-45.4	15.4	0.00e+00	0	25	0	2929721344	54	4182
2026-01-08 02:52:11.29	205.30	41.06	-44.3	-45.3	15.5	0.00e+00	0	25	0	2934964224	54	4144
2026-01-08 02:52:12.43	205.32	40.75	-44.1	-45.2	15.5	0.00e+00	0	25	0	2941255680	54	4059
2026-01-08 02:52:13.28	205.33	40.53	-44.1	-45.1	15.5	0.00e+00	0	25	0	2946498560	54	4039
2026-01-08 02:52:14.42	205.35	40.22	-44.1	-45.1	15.5	0.00e+00	0	25	0	2952790016	54	4019
2026-01-08 02:52:15.27	205.36	40.00	-44.0	-45.0	15.5	0.00e+00	0	25	0	2956984320	54	3983
2026-01-08 02:52:16.42	205.38	39.70	-43.9	-44.9	15.6	0.00e+00	0	25	0	2964324352	54	3933
2026-01-08 02:52:17.26	205.39	39.48	-43.9	-44.9	15.6	0.00e+00	0	25	0	2968518656	54	3941
2026-01-08 02:52:18.39	205.41	39.19	-43.8	-44.8	15.6	0.00e+00	0	25	0	2974810112	54	3909
2026-01-08 02:52:19.24	205.42	38.97	-43.8	-44.8	15.6	0.00e+00	0	25	0	2980052992	54	3878
2026-01-08 02:52:20.38	205.44	38.68	-43.5	-44.5	15.5	0.00e+00	0	25	0	2986344448	53	4000
2026-01-08 02:52:21.23	205.45	38.47	-43.6	-44.6	15.5	0.00e+00	0	25	0	2990538752	53	4009
2026-01-08 02:52:22.38	205.47	38.18	-43.4	-44.4	15.6	0.00e+00	0	25	0	2997878784	53	3934
2026-01-08 02:52:23.24	205.48	37.96	-43.4	-44.4	15.6	0.00e+00	0	25	0	3002073088	53	3927
2026-01-08 02:52:24.37	205.50	37.68	-43.5	-44.5	15.5	0.00e+00	0	24	0	3008364544	53	3973
2026-01-08 02:52:25.23	205.51	37.47	-43.5	-44.5	15.5	0.00e+00	0	25	0	3013607424	53	3966
2026-01-08 02:52:26.37	205.53	37.20	-43.7	-44.7	15.5	0.00e+00	0	25	0	3019898880	53	4087
2026-01-08 02:52:27.23	205.54	36.99	-43.8	-44.8	15.5	0.00e+00	0	25	0	3025141760	53	4134
2026-01-08 02:52:28.38	205.56	36.71	-44.0	-45.1	15.4	0.00e+00	0	25	0	3031433216	53	4252
2026-01-08 02:52:29.23	205.57	36.51	-44.1	-45.1	15.5	0.00e+00	0	25	0	3035627520	53	4279
2026-01-08 02:52:30.37	205.58	36.24	-44.1	-45.2	15.4	0.00e+00	0	25	0	3041918976	53	4324
2026-01-08 02:52:31.22	205.59	36.04	-44.2	-45.3	15.4	0.00e+00	0	25	0	3047161856	53	4343
2026-01-08 02:52:32.36	205.61	35.78	-44.2	-45.2	15.4	0.00e+00	0	25	0	3053453312	53	4334
2026-01-08 02:52:33.22	205.62	35.58	-44.2	-45.3	15.4	0.00e+00	0	25	0	3058696192	53	4353
2026-01-08 02:52:34.36	205.63	35.32	-44.1	-45.1	15.4	0.00e+00	0	25	0	3064987648	53	4286
2026-01-08 02:52:35.22	205.65	35.12	-44.0	-45.0	15.4	0.00e+00	0	25	0	3069181952	53	4228
2026-01-08 02:52:36.36	205.66	34.86	-44.0	-45.0	15.4	0.00e+00	0	25	0	3075473408	53	4232
2026-01-08 02:52:37.22	205.67	34.67	-43.9	-44.9	15.5	0.00e+00	0	25	0	3080716288	53	4165
2026-01-08 02:52:38.36	205.68	34.42	-43.9	-44.9	15.4	0.00e+00	0	25	0	3087007744	53	4176
2026-01-08 02:52:39.22	205.70	34.22	-44.1	-45.1	15.4	0.00e+00	0	25	0	3092250624	53	4251
2026-01-08 02:52:40.36	205.71	33.97	-44.2	-45.2	15.4	0.00e+00	0	25	0	3098542080	53	4308
2026-01-08 02:52:41.21	205.72	33.79	-44.1	-45.2	15.4	0.00e+00	0	25	0	3102736384	53	4297
2026-01-08 02:52:42.35	205.73	33.54	-44.2	-45.3	15.4	0.00e+00	0	25	0	3110076416	53	4343
2026-01-08 02:52:43.22	205.74	33.35	-44.3	-45.4	15.4	0.00e+00	0	25	0	3114270720	53	4406
2026-01-08 02:52:44.36	205.76	33.11	-44.5	-45.5	15.4	0.00e+00	0	25	0	3120562176	54	4220
2026-01-08 02:52:45.22	205.77	32.93	-44.5	-45.6	15.4	0.00e+00	0	25	0	3125805056	54	4251
2026-01-08 02:52:46.35	205.78	32.69	-44.6	-45.7	15.4	0.00e+00	0	25	0	3132096512	54	4304
2026-01-08 02:52:47.21	205.79	32.51	-44.7	-45.8	15.4	0.00e+00	0	25	0	3136290816	54	4346
2026-01-08 02:52:48.35	205.80	32.27	-44.6	-45.7	15.4	0.00e+00	0	25	0	3143630848	54	4329
2026-01-08 02:52:49.20	205.81	32.10	-44.7	-45.8	15.4	0.00e+00	0	25	0	3147825152	54	4362
2026-01-08 02:52:50.34	205.82	31.86	-44.7	-45.8	15.4	0.00e+00	0	25	0	3154116608	54	4364
2026-01-08 02:52:51.20	205.83	31.69	-44.8	-45.8	15.4	0.00e+00	0	25	0	3159359488	54	4383
2026-01-08 02:52:52.34	205.85	31.46	-44.5	-45.6	15.4	0.00e+00	0	25	0	3165650944	54	4271
2026-01-08 02:52:53.20	205.86	31.29	-44.6	-45.7	15.4	0.00e+00	0	25	0	3170893824	54	4310
2026-01-08 02:52:54.34	205.87	31.06	-44.4	-45.5	15.4	0.00e+00	0	25	0	3177185280	54	4200
2026-01-08 02:52:55.20	205.88	30.89	-44.4	-45.4	15.4	0.00e+00	0	25	0	3181379584	54	4173
2026-01-08 02:52:56.35	205.89	30.66	-44.2	-45.2	15.5	0.00e+00	0	25	0	3188719616	54	4074
2026-01-08 02:52:57.20	205.90	30.50	-44.3	-45.3	15.4	0.00e+00	0	25	0	3192913920	54	4123
2026-01-08 02:52:58.35	205.91	30.27	-44.2	-45.2	15.5	0.00e+00	0	24	0	3199205376	54	4075
2026-01-08 02:52:59.21	205.92	30.11	-44.2	-45.2	15.4	0.00e+00	0	25	0	3204448256	54	4093
2026-01-08 02:53:00.35	205.93	29.89	-44.2	-45.2	15.5	0.00e+00	0	25	0	3210739712	54	4072
2026-01-08 02:53:01.20	205.94	29.73	-44.2	-45.3	15.4	0.00e+00	0	25	0	3215982592	54	4103
2026-01-08 02:53:02.35	205.95	29.51	-44.2	-45.2	15.4	0.00e+00	0	25	0	3222274048	54	4086
2026-01-08 02:53:03.20	205.96	29.35	-44.3	-45.4	15.4	0.00e+00	0	25	0	3226468352	54	4146
2026-01-08 02:53:04.34	205.97	29.14	-44.3	-45.3	15.4	0.00e+00	0	25	0	3233808384	54	4120
2026-01-08 02:53:05.20	205.98	28.98	-44.3	-45.3	15.4	0.00e+00	0	25	0	3238002688	54	4130
2026-01-08 02:53:06.33	205.99	28.77	-44.4	-45.5	15.4	0.00e+00	0	25	0	3244294144	54	4218
2026-01-08 02:53:07.19	206.00	28.61	-44.3	-45.4	15.4	0.00e+00	0	25	0	3249537024	54	4168
2026-01-08 02:53:08.32	206.01	28.41	-44.4	-45.5	15.4	0.00e+00	0	25	0	3255828480	54	4207
2026-01-08 02:53:09.17	206.02	28.25	-44.2	-45.3	15.5	0.00e+00	0	25	0	3261071360	54	4128
2026-01-08 02:53:10.31	206.03	28.05	-44.3	-45.3	15.4	0.00e+00	0	25	0	3266314240	54	4126
2026-01-08 02:53:11.16	206.04	27.90	-44.3	-45.3	15.4	0.00e+00	0	25	0	3271557120	54	4132
2026-01-08 02:53:12.30	206.05	27.70	-44.4	-45.4	15.4	0.00e+00	0	25	0	3277848576	54	4172
2026-01-08 02:53:13.15	206.06	27.55	-44.2	-45.2	15.4	0.00e+00	0	25	0	3283091456	54	4087
2026-01-08 02:53:14.30	206.07	27.35	-44.1	-45.1	15.5	0.00e+00	0	25	0	3289382912	54	4045
2026-01-08 02:53:15.14	206.07	27.20	-44.2	-45.2	15.5	0.00e+00	0	25	0	3293577216	54	4071
2026-01-08 02:53:16.27	206.08	27.00	-44.1	-45.1	15.5	0.00e+00	0	25	0	3300917248	54	4047
2026-01-08 02:53:17.12	206.09	26.86	-44.1	-45.1	15.5	0.00e+00	0	25	0	3305111552	54	4029
2026-01-08 02:53:18.27	206.10	26.66	-44.2	-45.2	15.5	0.00e+00	0	25	0	3311403008	54	4063
2026-01-08 02:53:19.12	206.11	26.52	-44.2	-45.2	15.5	0.00e+00	0	25	0	3316645888	54	4082
2026-01-08 02:53:20.26	206.12	26.33	-44.2	-45.2	15.5	0.00e+00	0	25	0	3322937344	54	4087
2026-01-08 02:53:21.12	206.13	26.18	-44.3	-45.4	15.4	0.00e+00	0	25	0	3328180224	54	4151
2026-01-08 02:53:22.26	206.14	25.99	-44.4	-45.5	15.4	0.00e+00	0	25	0	3334471680	54	4207
2026-01-08 02:53:23.12	206.15	25.85	-44.4	-45.5	15.4	0.00e+00	0	25	0	3338665984	54	4205
2026-01-08 02:53:24.26	206.16	25.66	-44.6	-45.6	15.4	0.00e+00	0	25	0	3344957440	54	4280
2026-01-08 02:53:25.11	206.16	25.52	-44.6	-45.7	15.4	0.00e+00	0	25	0	3350200320	54	4328
2026-01-08 02:53:26.25	206.17	25.34	-44.6	-45.6	15.4	0.00e+00	0	25	0	3356491776	54	4289
2026-01-08 02:53:27.10	206.18	25.20	-44.7	-45.7	15.4	0.00e+00	0	25	0	3361734656	54	4330
2026-01-08 02:53:28.24	206.19	25.02	-44.7	-45.8	15.4	0.00e+00	0	25	0	3368026112	54	4360
2026-01-08 02:53:29.10	206.20	24.88	-44.6	-45.7	15.4	0.00e+00	0	25	0	3372220416	54	4331
2026-01-08 02:53:30.25	206.21	24.70	-44.7	-45.8	15.4	0.00e+00	0	25	0	3378511872	54	4360
2026-01-08 02:53:31.10	206.21	24.57	-44.8	-45.9	15.3	0.00e+00	0	25	0	3383754752	54	4396
2026-01-08 02:53:32.25	206.22	24.39	-44.7	-45.8	15.4	0.00e+00	0	25	0	3390046208	54	4344
2026-01-08 02:53:33.11	206.23	24.25	-44.8	-45.8	15.3	0.00e+00	0	25	0	3395289088	54	4384
2026-01-08 02:53:34.24	206.24	24.08	-44.8	-45.9	15.3	0.00e+00	0	25	0	3401580544	54	4392
2026-01-08 02:53:35.10	206.25	23.95	-44.8	-45.8	15.3	0.00e+00	0	25	0	3405774848	54	4389
2026-01-08 02:53:36.24	206.26	23.77	-44.9	-46.0	15.3	0.00e+00	0	25	0	3413114880	54	4453
2026-01-08 02:53:37.10	206.26	23.64	-44.8	-45.8	15.3	0.00e+00	0	25	0	3417309184	54	4377
2026-01-08 02:53:38.25	206.27	23.47	-44.8	-45.9	15.3	0.00e+00	0	25	0	3423600640	54	4400
2026-01-08 02:53:39.11	206.28	23.34	-44.9	-45.9	15.3	0.00e+00	0	25	0	3428843520	54	4432
2026-01-08 02:53:40.25	206.29	23.17	-44.9	-46.0	15.3	0.00e+00	0	25	0	3435134976	54	4464
2026-01-08 02:53:41.10	206.30	23.04	-45.0	-46.0	15.3	0.00e+00	0	25	0	3440377856	55	4234
2026-01-08 02:53:42.24	206.30	22.87	-44.9	-45.9	15.4	0.00e+00	0	25	0	3446669312	55	4180
2026-01-08 02:53:43.09	206.31	22.75	-44.9	-45.9	15.4	0.00e+00	0	25	0	3450863616	55	4187
2026-01-08 02:53:44.23	206.32	22.58	-45.0	-46.1	15.4	0.00e+00	0	25	0	3458203648	55	4255
2026-01-08 02:53:45.09	206.33	22.46	-45.0	-46.0	15.4	0.00e+00	0	25	0	3462397952	55	4239
2026-01-08 02:53:46.22	206.34	22.30	-45.1	-46.1	15.3	0.00e+00	0	25	0	3468689408	55	4284
2026-01-08 02:53:47.08	206.34	22.17	-45.2	-46.2	15.3	0.00e+00	0	25	0	3473932288	55	4339
2026-01-08 02:53:48.23	206.35	22.01	-45.1	-46.2	15.3	0.00e+00	0	25	0	3480223744	55	4331
2026-01-08 02:53:49.09	206.36	21.89	-45.2	-46.2	15.3	0.00e+00	0	25	0	3485466624	55	4333
2026-01-08 02:53:50.23	206.37	21.73	-45.2	-46.3	15.3	0.00e+00	0	25	0	3491758080	55	4348
2026-01-08 02:53:51.09	206.37	21.60	-45.2	-46.3	15.3	0.00e+00	0	25	0	3495952384	55	4362
2026-01-08 02:53:52.23	206.38	21.45	-45.2	-46.3	15.3	0.00e+00	0	25	0	3502243840	55	4372
2026-01-08 02:53:53.09	206.39	21.33	-45.3	-46.4	15.3	0.00e+00	0	25	0	3507486720	55	4394
2026-01-08 02:53:54.23	206.40	21.17	-45.2	-46.3	15.3	0.00e+00	0	25	0	3513778176	55	4380
2026-01-08 02:53:55.08	206.40	21.05	-45.4	-46.5	15.3	0.00e+00	0	25	0	3519021056	55	4445
2026-01-08 02:53:56.22	206.41	20.90	-45.6	-46.7	15.3	0.00e+00	0	25	0	3525312512	56	4316
2026-01-08 02:53:57.09	206.42	20.78	-45.5	-46.6	15.3	0.00e+00	0	25	0	3530555392	56	4258
2026-01-08 02:53:58.23	206.43	20.62	-45.5	-46.6	15.3	0.00e+00	0	25	0	3536846848	56	4282
2026-01-08 02:53:59.08	206.43	20.51	-45.6	-46.7	15.3	0.00e+00	0	25	0	3541041152	56	4310
2026-01-08 02:54:00.23	206.44	20.36	-45.6	-46.7	15.3	0.00e+00	0	25	0	3547332608	56	4316
2026-01-08 02:54:01.08	206.45	20.24	-45.7	-46.8	15.2	0.00e+00	0	25	0	3552575488	56	4348
2026-01-08 02:54:02.23	206.45	20.09	-45.6	-46.7	15.3	0.00e+00	0	25	0	3558866944	56	4319
2026-01-08 02:54:03.09	206.46	19.98	-45.6	-46.7	15.3	0.00e+00	0	25	0	3564109824	56	4325
2026-01-08 02:54:04.24	206.47	19.83	-45.6	-46.7	15.3	0.00e+00	0	25	0	3570401280	56	4329
2026-01-08 02:54:05.09	206.47	19.72	-45.7	-46.8	15.3	0.00e+00	0	25	0	3574595584	56	4353
2026-01-08 02:54:06.23	206.48	19.57	-45.7	-46.8	15.3	0.00e+00	0	25	0	3581935616	56	4343
2026-01-08 02:54:07.09	206.49	19.46	-45.8	-46.9	15.2	0.00e+00	0	25	0	3586129920	56	4413
2026-01-08 02:54:08.23	206.50	19.31	-45.8	-46.9	15.2	0.00e+00	0	25	0	3592421376	56	4415
2026-01-08 02:54:09.09	206.50	19.20	-45.9	-47.0	15.2	0.00e+00	0	25	0	3597664256	56	4446
2026-01-08 02:54:10.22	206.51	19.06	-46.0	-47.1	15.2	0.00e+00	0	25	0	3603955712	57	4255
2026-01-08 02:54:11.08	206.52	18.95	-46.0	-47.1	15.2	0.00e+00	0	25	0	3609198592	57	4263
2026-01-08 02:54:12.22	206.52	18.81	-45.9	-47.0	15.3	0.00e+00	0	25	0	3615490048	57	4236
2026-01-08 02:54:13.08	206.53	18.70	-45.9	-47.0	15.3	0.00e+00	0	25	0	3619684352	57	4220
2026-01-08 02:54:14.21	206.54	18.56	-45.9	-47.0	15.3	0.00e+00	0	25	0	3625975808	57	4240
2026-01-08 02:54:15.07	206.54	18.46	-45.9	-47.0	15.3	0.00e+00	0	25	0	3631218688	57	4233
2026-01-08 02:54:16.21	206.55	18.31	-46.0	-47.1	15.2	0.00e+00	0	25	0	3637510144	57	4284
2026-01-08 02:54:17.07	206.56	18.21	-46.0	-47.2	15.2	0.00e+00	0	25	0	3642753024	57	4304
2026-01-08 02:54:18.21	206.57	18.07	-46.2	-47.3	15.2	0.00e+00	0	25	0	3649044480	57	4349
2026-01-08 02:54:19.06	206.57	17.97	-46.2	-47.3	15.2	0.00e+00	0	25	0	3654287360	57	4360
2026-01-08 02:54:20.20	206.58	17.83	-46.2	-47.3	15.2	0.00e+00	0	25	0	3659530240	57	4371
2026-01-08 02:54:21.06	206.58	17.73	-46.2	-47.3	15.2	0.00e+00	0	25	0	3664773120	57	4383
2026-01-08 02:54:22.20	206.59	17.59	-46.3	-47.4	15.1	0.00e+00	0	25	0	3671064576	57	4441
