passes_logs/2026/01/08/R3.2S_Murmansk/R3.2S_Murmansk__20260108_060255_FENGYUN_3D_rec.log

#Pass ID: 20260108_060255_FENGYUN 3D
#Satellite: FENGYUN 3D
#Configuration: FENGYUN 3D
#almurnet v.1.7.20251203
#Start time: 2026-01-08 06:02:55

#Version: 2.2.20231116
#Station: R3.2S_Murmansk
#Location: 33.079688 lon 68.888172 lat
#TLE: 1 43010U 17072A   26007.95585757  .00000190  00000+0  11182-3 0  9996
#TLE: 2 43010  98.9933 339.6629 0002109 121.4202 238.7180 14.19694196422257

#Time	Az	El	Level	Level2	SNR	BER	BlckErr	Temp	State	Recorded	gain1	gain2
2026-01-08 06:02:55.67	47.71	1.98	-57.3	-70.3	3.8	8.46e-01	0	23	0	0	81	15418
2026-01-08 06:02:56.68	47.65	2.04	-57.3	-70.2	3.8	8.45e-01	0	23	104	0	79	17231
2026-01-08 06:02:57.69	47.59	2.10	-57.3	-70.2	3.8	8.47e-01	0	23	104	0	79	17190
2026-01-08 06:02:58.69	47.53	2.16	-57.3	-70.2	3.8	8.47e-01	0	23	104	0	79	17181
2026-01-08 06:02:59.68	47.48	2.22	-57.3	-70.2	3.8	8.44e-01	0	23	104	0	79	17115
2026-01-08 06:03:00.68	47.42	2.28	-57.3	-70.2	3.8	8.47e-01	0	23	104	0	79	17191
2026-01-08 06:03:01.68	47.36	2.33	-57.3	-70.2	3.8	8.46e-01	0	23	104	0	79	17232
2026-01-08 06:03:02.67	47.30	2.39	-57.3	-70.2	3.8	8.45e-01	0	23	104	0	79	17145
2026-01-08 06:03:03.67	47.24	2.45	-57.3	-70.2	3.8	8.46e-01	0	23	104	0	79	17206
2026-01-08 06:03:04.67	47.18	2.51	-57.3	-70.2	3.8	8.46e-01	0	23	104	0	79	17226
2026-01-08 06:03:05.66	47.12	2.57	-57.3	-70.2	3.8	8.47e-01	0	23	104	0	79	17247
2026-01-08 06:03:06.66	47.06	2.63	-57.3	-70.2	3.8	8.45e-01	0	23	104	0	79	17258
2026-01-08 06:03:07.66	47.00	2.69	-57.3	-70.3	3.8	8.46e-01	0	23	104	0	79	17336
2026-01-08 06:03:08.66	46.94	2.74	-57.3	-70.3	3.8	8.47e-01	0	23	104	0	79	17331
2026-01-08 06:03:09.65	46.88	2.80	-57.3	-70.3	3.8	8.46e-01	0	23	104	0	79	17306
2026-01-08 06:03:10.66	46.82	2.86	-57.3	-70.3	3.8	8.46e-01	0	23	104	0	79	17336
2026-01-08 06:03:11.65	46.76	2.92	-57.3	-70.3	3.8	8.45e-01	0	23	104	0	79	17331
2026-01-08 06:03:12.64	46.70	2.98	-57.3	-70.3	3.8	8.47e-01	0	23	104	0	79	17365
2026-01-08 06:03:13.64	46.63	3.04	-57.3	-70.3	3.8	8.46e-01	0	23	104	0	79	17367
2026-01-08 06:03:14.63	46.57	3.10	-57.3	-70.3	3.8	8.46e-01	0	23	104	0	79	17413
2026-01-08 06:03:15.63	46.51	3.16	-57.3	-70.3	3.8	8.46e-01	0	23	104	0	79	17413
2026-01-08 06:03:16.63	46.45	3.22	-57.3	-70.2	3.8	8.45e-01	0	23	104	0	79	17275
2026-01-08 06:03:17.63	46.38	3.28	-57.3	-70.2	3.8	8.46e-01	0	23	104	0	79	17178
2026-01-08 06:03:18.64	46.32	3.34	-57.3	-70.1	3.8	8.44e-01	0	23	104	0	79	17014
2026-01-08 06:03:19.64	46.26	3.40	-57.3	-70.0	3.8	8.45e-01	0	23	104	0	79	16780
2026-01-08 06:03:20.64	46.19	3.46	-57.3	-70.1	3.8	8.45e-01	0	23	104	0	79	16913
2026-01-08 06:03:21.64	46.13	3.52	-57.2	-70.0	3.8	8.45e-01	0	23	104	0	79	16858
2026-01-08 06:03:22.65	46.06	3.58	-57.3	-70.1	3.8	8.46e-01	0	23	104	0	79	16893
2026-01-08 06:03:23.65	46.00	3.64	-57.3	-70.2	3.8	8.45e-01	0	23	104	0	79	17126
2026-01-08 06:03:24.64	45.93	3.70	-57.3	-70.2	3.8	8.45e-01	0	23	104	0	79	17266
2026-01-08 06:03:25.64	45.87	3.76	-57.3	-70.3	3.8	8.45e-01	0	23	104	0	79	17301
2026-01-08 06:03:26.64	45.80	3.82	-57.3	-70.2	3.8	8.45e-01	0	23	104	0	79	17266
2026-01-08 06:03:27.64	45.74	3.88	-57.3	-70.2	3.8	8.45e-01	0	23	104	0	79	17122
2026-01-08 06:03:28.63	45.67	3.94	-57.2	-70.1	3.8	8.46e-01	0	24	104	0	79	17028
2026-01-08 06:03:29.64	45.61	4.01	-57.2	-70.2	3.8	8.46e-01	0	23	104	0	79	17096
2026-01-08 06:03:30.64	45.54	4.07	-57.2	-70.2	3.8	8.46e-01	0	24	104	0	79	17201
2026-01-08 06:03:31.64	45.47	4.13	-57.2	-70.3	3.8	8.45e-01	0	24	104	0	79	17303
2026-01-08 06:03:32.64	45.40	4.19	-57.2	-70.3	3.8	8.45e-01	0	24	104	0	79	17324
2026-01-08 06:03:33.65	45.34	4.25	-57.2	-70.1	3.8	8.46e-01	0	24	104	0	79	17020
2026-01-08 06:03:34.64	45.27	4.31	-57.2	-69.7	3.8	8.47e-01	0	23	104	0	79	16180
2026-01-08 06:03:35.65	45.20	4.37	-57.2	-69.1	3.8	8.46e-01	0	24	104	0	79	15122
2026-01-08 06:03:36.65	45.13	4.44	-57.1	-68.2	3.8	8.44e-01	0	24	104	0	79	13625
2026-01-08 06:03:37.64	45.06	4.50	-57.1	-67.4	4.1	8.43e-01	0	24	0	0	79	12380
2026-01-08 06:03:38.64	44.99	4.56	-56.9	-66.3	4.3	8.36e-01	0	24	0	0	79	11029
2026-01-08 06:03:39.64	44.92	4.62	-56.8	-65.4	4.6	8.24e-01	0	24	0	0	79	9923
2026-01-08 06:03:40.64	44.85	4.68	-56.6	-64.4	5.0	7.74e-01	0	24	0	0	79	8783
2026-01-08 06:03:41.64	44.78	4.75	-56.4	-63.2	5.8	6.45e-01	0	24	0	1048576	79	7702
2026-01-08 06:03:42.64	44.71	4.81	-56.1	-62.0	6.6	2.23e-01	0	24	0	6291456	78	7062
2026-01-08 06:03:43.64	44.64	4.87	-55.8	-61.1	7.4	1.11e-01	0	24	0	12582912	78	6364
2026-01-08 06:03:44.64	44.57	4.93	-55.4	-60.0	8.3	5.47e-02	0	24	0	17825792	77	5986
2026-01-08 06:03:45.64	44.50	5.00	-55.1	-59.3	9.0	1.56e-02	0	24	0	23068672	76	5829
2026-01-08 06:03:46.64	44.43	5.06	-56.3	-62.2	6.8	6.31e-03	0	24	0	29360128	77	7660
2026-01-08 06:03:47.64	44.36	5.12	-56.8	-64.6	5.1	7.97e-01	0	24	0	29360128	79	9007
2026-01-08 06:03:48.64	44.29	5.19	-54.7	-58.5	9.8	1.57e-01	0	24	0	34603008	76	5289
2026-01-08 06:03:49.64	44.21	5.25	-51.5	-53.5	13.1	2.06e-04	0	24	0	39845888	69	4460
2026-01-08 06:03:50.64	44.14	5.31	-55.4	-60.4	7.9	5.83e-05	0	24	0	45088768	75	7019
2026-01-08 06:03:51.65	44.07	5.38	-52.8	-55.3	12.0	5.37e-01	0	24	0	49283072	72	4616
2026-01-08 06:03:52.66	43.99	5.44	-49.8	-51.4	14.1	0.00e+00	0	24	0	54525952	66	4187
2026-01-08 06:03:53.65	43.92	5.50	-49.0	-50.4	14.5	0.00e+00	0	24	0	59768832	64	4182
2026-01-08 06:03:54.65	43.84	5.57	-49.3	-50.8	14.2	0.00e+00	0	24	0	66060288	64	4389
2026-01-08 06:03:55.66	43.77	5.63	-49.1	-50.6	14.4	0.00e+00	0	24	0	71303168	64	4249
2026-01-08 06:03:56.66	43.69	5.69	-49.0	-50.5	14.5	0.00e+00	0	24	0	76546048	64	4195
2026-01-08 06:03:57.66	43.62	5.76	-48.8	-50.2	14.6	0.00e+00	0	24	0	82837504	64	4091
2026-01-08 06:03:58.66	43.54	5.82	-49.1	-50.6	14.4	0.00e+00	0	24	0	88080384	64	4263
2026-01-08 06:03:59.66	43.47	5.89	-49.0	-50.5	14.5	0.00e+00	0	24	0	94371840	64	4195
2026-01-08 06:04:00.66	43.39	5.95	-49.0	-50.4	14.5	0.00e+00	0	24	0	99614720	64	4184
2026-01-08 06:04:01.66	43.31	6.02	-49.0	-50.5	14.4	0.00e+00	0	24	0	104857600	64	4214
2026-01-08 06:04:02.65	43.24	6.08	-48.8	-50.3	14.6	0.00e+00	0	24	0	111149056	64	4118
2026-01-08 06:04:03.64	43.16	6.14	-48.9	-50.4	14.5	0.00e+00	0	24	0	116391936	64	4171
2026-01-08 06:04:04.64	43.08	6.21	-49.0	-50.5	14.5	0.00e+00	0	24	0	121634816	64	4228
2026-01-08 06:04:05.64	43.00	6.27	-48.8	-50.2	14.7	0.00e+00	0	24	0	127926272	64	4083
2026-01-08 06:04:06.63	42.93	6.34	-48.8	-50.2	14.6	0.00e+00	0	24	0	133169152	64	4080
2026-01-08 06:04:07.63	42.85	6.40	-48.6	-50.0	14.6	0.00e+00	0	24	0	138412032	63	4213
2026-01-08 06:04:08.63	42.77	6.47	-48.8	-50.3	14.4	0.00e+00	0	24	0	144703488	63	4356
2026-01-08 06:04:09.62	42.69	6.53	-48.8	-50.2	14.5	0.00e+00	0	24	0	149946368	63	4339
2026-01-08 06:04:10.62	42.61	6.60	-48.8	-50.3	14.5	0.00e+00	0	24	0	156237824	63	4343
2026-01-08 06:04:11.62	42.53	6.66	-48.8	-50.3	14.5	0.00e+00	0	24	0	161480704	63	4346
2026-01-08 06:04:12.62	42.45	6.73	-48.9	-50.4	14.4	0.00e+00	0	24	0	166723584	63	4419
2026-01-08 06:04:13.61	42.37	6.79	-48.9	-50.3	14.4	0.00e+00	0	24	0	171966464	63	4371
2026-01-08 06:04:14.61	42.29	6.86	-48.9	-50.4	14.4	0.00e+00	0	24	0	178257920	63	4418
2026-01-08 06:04:15.61	42.20	6.93	-48.8	-50.2	14.5	0.00e+00	0	24	0	183500800	63	4329
2026-01-08 06:04:16.60	42.12	6.99	-48.6	-50.0	14.6	0.00e+00	0	24	0	189792256	63	4227
2026-01-08 06:04:17.60	42.04	7.06	-48.6	-50.0	14.6	0.00e+00	0	24	0	195035136	63	4241
2026-01-08 06:04:18.60	41.96	7.12	-48.7	-50.1	14.5	0.00e+00	0	24	0	200278016	63	4281
2026-01-08 06:04:19.59	41.87	7.19	-48.7	-50.2	14.5	0.00e+00	0	24	0	206569472	63	4294
2026-01-08 06:04:20.59	41.79	7.26	-48.8	-50.2	14.5	0.00e+00	0	24	0	211812352	63	4308
2026-01-08 06:04:21.60	41.70	7.32	-48.7	-50.1	14.6	0.00e+00	0	24	0	217055232	63	4280
2026-01-08 06:04:22.59	41.62	7.39	-48.6	-50.0	14.7	0.00e+00	0	24	0	223346688	63	4218
2026-01-08 06:04:23.59	41.54	7.46	-48.5	-49.9	14.7	0.00e+00	0	24	0	228589568	63	4185
2026-01-08 06:04:24.59	41.45	7.52	-48.5	-49.8	14.7	0.00e+00	0	24	0	233832448	63	4137
2026-01-08 06:04:25.60	41.36	7.59	-48.4	-49.8	14.8	0.00e+00	0	24	0	240123904	63	4106
2026-01-08 06:04:26.60	41.28	7.66	-48.4	-49.7	14.8	0.00e+00	0	24	0	245366784	63	4097
2026-01-08 06:04:27.60	41.19	7.73	-48.2	-49.6	14.9	0.00e+00	0	24	0	251658240	63	4016
2026-01-08 06:04:28.59	41.10	7.79	-48.3	-49.6	14.8	0.00e+00	0	24	0	256901120	63	4047
2026-01-08 06:04:29.59	41.02	7.86	-48.4	-49.8	14.7	0.00e+00	0	24	0	262144000	63	4123
2026-01-08 06:04:30.58	40.93	7.93	-48.4	-49.7	14.8	0.00e+00	0	24	0	268435456	63	4077
2026-01-08 06:04:31.58	40.84	7.99	-48.4	-49.7	14.8	0.00e+00	0	24	0	273678336	63	4094
2026-01-08 06:04:32.58	40.75	8.06	-48.3	-49.7	14.8	0.00e+00	0	24	0	278921216	63	4057
2026-01-08 06:04:33.57	40.66	8.13	-48.3	-49.6	14.9	0.00e+00	0	24	0	285212672	63	4025
2026-01-08 06:04:34.57	40.57	8.20	-48.3	-49.6	14.9	0.00e+00	0	24	0	290455552	63	4042
2026-01-08 06:04:35.58	40.48	8.27	-48.3	-49.7	14.7	0.00e+00	0	24	0	295698432	62	4296
2026-01-08 06:04:36.59	40.39	8.34	-48.4	-49.7	14.7	0.00e+00	0	24	0	301989888	62	4327
2026-01-08 06:04:37.58	40.30	8.40	-48.5	-49.8	14.6	0.00e+00	0	24	0	307232768	62	4386
2026-01-08 06:04:38.58	40.21	8.47	-48.2	-49.6	14.7	0.00e+00	0	24	0	313524224	62	4258
2026-01-08 06:04:39.57	40.12	8.54	-48.2	-49.5	14.7	0.00e+00	0	24	0	318767104	62	4241
2026-01-08 06:04:40.56	40.03	8.61	-48.2	-49.6	14.8	0.00e+00	0	24	0	324009984	62	4251
2026-01-08 06:04:41.56	39.93	8.68	-48.2	-49.5	14.7	0.00e+00	0	24	0	329252864	62	4220
2026-01-08 06:04:42.56	39.84	8.75	-48.1	-49.4	14.6	0.00e+00	0	24	0	335544320	62	4192
2026-01-08 06:04:43.56	39.75	8.81	-48.1	-49.4	14.6	0.00e+00	0	24	0	340787200	62	4184
2026-01-08 06:04:44.56	39.65	8.88	-48.2	-49.6	14.4	0.00e+00	0	24	0	346030080	62	4261
2026-01-08 06:04:45.55	39.56	8.95	-48.3	-49.6	14.2	0.00e+00	0	24	0	352321536	62	4275
2026-01-08 06:04:46.55	39.46	9.02	-48.2	-49.5	14.2	0.00e+00	0	24	0	357564416	62	4242
2026-01-08 06:04:47.55	39.37	9.09	-48.0	-49.3	14.3	0.00e+00	0	24	0	363855872	62	4135
2026-01-08 06:04:48.55	39.27	9.16	-48.0	-49.3	14.4	0.00e+00	0	24	0	369098752	62	4141
2026-01-08 06:04:49.55	39.18	9.23	-48.0	-49.3	14.4	0.00e+00	0	24	0	374341632	62	4143
2026-01-08 06:04:50.55	39.08	9.30	-47.9	-49.2	14.4	0.00e+00	0	24	0	380633088	62	4066
2026-01-08 06:04:51.55	38.98	9.37	-47.9	-49.2	14.4	0.00e+00	0	24	0	385875968	62	4066
2026-01-08 06:04:52.56	38.88	9.44	-47.9	-49.2	14.4	0.00e+00	0	24	0	391118848	62	4062
2026-01-08 06:04:53.56	38.78	9.51	-47.9	-49.2	14.4	0.00e+00	0	24	0	397410304	62	4090
2026-01-08 06:04:54.55	38.68	9.58	-47.7	-49.0	14.8	0.00e+00	0	24	0	402653184	62	3987
2026-01-08 06:04:55.55	38.59	9.65	-47.7	-49.0	14.9	0.00e+00	0	24	0	407896064	61	4212
2026-01-08 06:04:56.56	38.48	9.72	-47.7	-49.0	14.8	0.00e+00	0	24	0	414187520	61	4227
2026-01-08 06:04:57.56	38.38	9.80	-47.6	-48.9	14.7	0.00e+00	0	24	0	419430400	61	4148
2026-01-08 06:04:58.55	38.28	9.87	-47.6	-48.9	14.8	0.00e+00	0	24	0	425721856	61	4151
2026-01-08 06:04:59.56	38.18	9.94	-47.7	-49.0	14.7	0.00e+00	0	24	0	430964736	61	4209
2026-01-08 06:05:00.56	38.08	10.01	-47.7	-49.0	14.7	0.00e+00	0	24	0	436207616	61	4220
2026-01-08 06:05:01.56	37.98	10.08	-47.6	-48.9	14.8	0.00e+00	0	24	0	442499072	61	4170
2026-01-08 06:05:02.56	37.87	10.15	-47.7	-48.9	14.8	0.00e+00	0	24	0	447741952	61	4179
2026-01-08 06:05:03.55	37.77	10.22	-47.6	-48.9	14.9	0.00e+00	0	24	0	452984832	61	4176
2026-01-08 06:05:04.54	37.67	10.29	-47.6	-48.8	14.9	0.00e+00	0	24	0	459276288	61	4138
2026-01-08 06:05:05.54	37.56	10.36	-47.6	-48.8	14.9	0.00e+00	0	24	0	464519168	61	4137
2026-01-08 06:05:06.54	37.46	10.44	-47.7	-48.9	14.9	0.00e+00	0	24	0	469762048	61	4183
2026-01-08 06:05:07.54	37.35	10.51	-47.6	-48.8	14.9	0.00e+00	0	24	0	476053504	61	4138
2026-01-08 06:05:08.53	37.25	10.58	-47.5	-48.8	15.0	0.00e+00	0	24	0	481296384	61	4107
2026-01-08 06:05:09.53	37.14	10.65	-47.6	-48.9	15.0	0.00e+00	0	24	0	487587840	61	4153
2026-01-08 06:05:10.53	37.03	10.72	-47.6	-48.9	15.0	0.00e+00	0	25	0	492830720	61	4152
2026-01-08 06:05:11.53	36.93	10.80	-47.5	-48.7	15.0	0.00e+00	0	24	0	498073600	61	4075
2026-01-08 06:05:12.54	36.82	10.87	-47.5	-48.7	15.0	0.00e+00	0	24	0	504365056	61	4070
2026-01-08 06:05:13.53	36.71	10.94	-47.5	-48.8	15.0	0.00e+00	0	24	0	509607936	61	4102
2026-01-08 06:05:14.53	36.60	11.01	-47.5	-48.8	15.0	0.00e+00	0	24	0	514850816	61	4107
2026-01-08 06:05:15.53	36.49	11.09	-47.5	-48.8	15.0	0.00e+00	0	24	0	521142272	61	4100
2026-01-08 06:05:16.53	36.38	11.16	-47.6	-48.9	15.0	0.00e+00	0	24	0	526385152	61	4148
2026-01-08 06:05:17.53	36.27	11.23	-47.6	-48.8	15.0	0.00e+00	0	24	0	531628032	61	4133
2026-01-08 06:05:18.53	36.15	11.30	-47.7	-48.9	14.9	0.00e+00	0	24	0	537919488	61	4189
2026-01-08 06:05:19.52	36.04	11.38	-47.6	-48.9	15.0	0.00e+00	0	24	0	543162368	61	4157
2026-01-08 06:05:20.52	35.93	11.45	-47.5	-48.8	15.0	0.00e+00	0	24	0	549453824	61	4112
2026-01-08 06:05:21.52	35.82	11.52	-47.6	-48.8	15.0	0.00e+00	0	25	0	554696704	61	4123
2026-01-08 06:05:22.52	35.70	11.60	-47.5	-48.8	15.0	0.00e+00	0	24	0	559939584	61	4100
2026-01-08 06:05:23.52	35.59	11.67	-47.6	-48.8	15.0	0.00e+00	0	24	0	566231040	61	4119
2026-01-08 06:05:24.53	35.47	11.75	-47.3	-48.6	15.1	0.00e+00	0	25	0	571473920	61	4007
2026-01-08 06:05:25.53	35.36	11.82	-47.4	-48.6	15.1	0.00e+00	0	24	0	576716800	61	4023
2026-01-08 06:05:26.53	35.24	11.89	-47.4	-48.6	15.1	0.00e+00	0	25	0	583008256	61	4029
2026-01-08 06:05:27.53	35.12	11.97	-47.4	-48.7	15.1	0.00e+00	0	24	0	588251136	61	4053
2026-01-08 06:05:28.53	35.00	12.04	-47.4	-48.6	15.1	0.00e+00	0	24	0	593494016	61	4033
2026-01-08 06:05:29.53	34.89	12.12	-47.3	-48.6	15.1	0.00e+00	0	25	0	599785472	61	4013
2026-01-08 06:05:30.53	34.77	12.19	-47.3	-48.5	15.1	0.00e+00	0	24	0	605028352	61	4002
2026-01-08 06:05:31.53	34.65	12.27	-47.3	-48.5	15.1	0.00e+00	0	24	0	611319808	61	3996
2026-01-08 06:05:32.53	34.53	12.34	-47.4	-48.6	15.0	0.00e+00	0	24	0	616562688	61	4049
2026-01-08 06:05:33.52	34.41	12.41	-47.3	-48.5	15.1	0.00e+00	0	25	0	621805568	61	3994
2026-01-08 06:05:34.51	34.29	12.49	-47.3	-48.5	15.1	0.00e+00	0	24	0	627048448	61	4001
2026-01-08 06:05:35.51	34.16	12.56	-47.3	-48.5	15.2	0.00e+00	0	24	0	633339904	61	4000
2026-01-08 06:05:36.51	34.04	12.64	-47.1	-48.3	15.1	0.00e+00	0	24	0	638582784	60	4138
2026-01-08 06:05:37.50	33.92	12.71	-47.1	-48.3	15.1	0.00e+00	0	25	0	643825664	60	4118
2026-01-08 06:05:38.51	33.79	12.79	-47.0	-48.2	15.1	0.00e+00	0	24	0	650117120	60	4086
2026-01-08 06:05:39.50	33.67	12.86	-47.0	-48.2	15.2	0.00e+00	0	24	0	655360000	60	4069
2026-01-08 06:05:40.50	33.55	12.94	-47.0	-48.1	15.2	0.00e+00	0	24	0	661651456	60	4050
2026-01-08 06:05:41.50	33.42	13.01	-46.8	-48.0	15.2	0.00e+00	0	25	0	666894336	60	3973
2026-01-08 06:05:42.50	33.29	13.09	-46.8	-48.0	15.2	0.00e+00	0	25	0	672137216	60	3995
2026-01-08 06:05:43.50	33.17	13.16	-46.8	-48.0	15.3	0.00e+00	0	24	0	678428672	60	3967
2026-01-08 06:05:44.49	33.04	13.24	-46.8	-48.0	15.2	0.00e+00	0	24	0	683671552	60	3985
2026-01-08 06:05:45.49	32.91	13.32	-46.8	-48.0	15.3	0.00e+00	0	24	0	688914432	60	3962
2026-01-08 06:05:46.49	32.78	13.39	-46.7	-47.9	15.3	0.00e+00	0	24	0	695205888	60	3925
2026-01-08 06:05:47.48	32.65	13.47	-47.0	-48.3	15.0	0.00e+00	0	24	0	700448768	59	4347
2026-01-08 06:05:48.48	32.52	13.54	-47.2	-48.4	15.0	0.00e+00	0	24	0	706740224	59	4413
2026-01-08 06:05:49.48	32.39	13.62	-47.0	-48.2	15.0	0.00e+00	0	24	0	711983104	59	4340
2026-01-08 06:05:50.48	32.26	13.70	-47.2	-48.4	15.0	0.00e+00	0	24	0	717225984	59	4424
2026-01-08 06:05:51.48	32.13	13.77	-47.0	-48.2	15.0	0.00e+00	0	24	0	723517440	59	4330
2026-01-08 06:05:52.48	31.99	13.85	-47.1	-48.3	15.0	0.00e+00	0	24	0	728760320	59	4376
2026-01-08 06:05:53.48	31.86	13.92	-47.1	-48.3	15.0	0.00e+00	0	24	0	734003200	59	4382
2026-01-08 06:05:54.48	31.72	14.00	-47.0	-48.2	15.1	0.00e+00	0	25	0	740294656	59	4327
2026-01-08 06:05:55.49	31.59	14.08	-47.0	-48.2	15.1	0.00e+00	0	24	0	745537536	59	4338
2026-01-08 06:05:56.49	31.45	14.16	-47.0	-48.2	15.1	0.00e+00	0	24	0	750780416	59	4312
2026-01-08 06:05:57.49	31.31	14.23	-47.0	-48.2	15.1	0.00e+00	0	24	0	757071872	59	4317
2026-01-08 06:05:58.49	31.17	14.31	-46.9	-48.1	15.1	0.00e+00	0	25	0	762314752	59	4276
2026-01-08 06:05:59.49	31.04	14.39	-46.9	-48.1	15.1	0.00e+00	0	24	0	768606208	59	4273
2026-01-08 06:06:00.49	30.90	14.46	-46.9	-48.1	15.1	0.00e+00	0	24	0	773849088	59	4258
2026-01-08 06:06:01.48	30.76	14.54	-46.8	-48.0	15.2	0.00e+00	0	25	0	779091968	59	4217
2026-01-08 06:06:02.48	30.62	14.62	-46.9	-48.1	15.1	0.00e+00	0	24	0	785383424	59	4260
2026-01-08 06:06:03.48	30.48	14.69	-46.7	-47.9	15.2	0.00e+00	0	25	0	790626304	59	4188
2026-01-08 06:06:04.48	30.33	14.77	-46.8	-48.0	15.2	0.00e+00	0	25	0	795869184	59	4194
2026-01-08 06:06:05.48	30.19	14.85	-46.8	-48.0	15.1	0.00e+00	0	25	0	802160640	59	4195
2026-01-08 06:06:06.47	30.05	14.93	-46.8	-48.0	15.1	0.00e+00	0	25	0	807403520	59	4195
2026-01-08 06:06:07.47	29.90	15.00	-46.7	-47.9	15.2	0.00e+00	0	24	0	812646400	59	4176
2026-01-08 06:06:08.47	29.76	15.08	-46.8	-47.9	15.2	0.00e+00	0	25	0	818937856	59	4190
2026-01-08 06:06:09.47	29.61	15.16	-46.8	-47.9	15.2	0.00e+00	0	24	0	824180736	59	4188
2026-01-08 06:06:10.47	29.47	15.24	-46.7	-47.9	15.2	0.00e+00	0	24	0	830472192	59	4148
2026-01-08 06:06:11.47	29.32	15.31	-46.7	-47.9	15.2	0.00e+00	0	24	0	835715072	59	4171
2026-01-08 06:06:12.47	29.17	15.39	-46.8	-48.0	15.1	0.00e+00	0	25	0	840957952	59	4232
2026-01-08 06:06:13.47	29.02	15.47	-46.8	-48.0	15.2	0.00e+00	0	24	0	846200832	59	4210
2026-01-08 06:06:14.46	28.87	15.55	-46.8	-47.9	15.2	0.00e+00	0	24	0	852492288	59	4192
2026-01-08 06:06:15.45	28.72	15.62	-46.7	-47.9	15.2	0.00e+00	0	25	0	857735168	59	4171
2026-01-08 06:06:16.45	28.57	15.70	-46.7	-47.9	15.2	0.00e+00	0	25	0	862978048	59	4182
2026-01-08 06:06:17.45	28.42	15.78	-46.8	-48.0	15.2	0.00e+00	0	24	0	869269504	59	4195
2026-01-08 06:06:18.44	28.27	15.86	-46.5	-47.7	15.3	0.00e+00	0	24	0	874512384	59	4065
2026-01-08 06:06:19.44	28.11	15.94	-46.6	-47.8	15.3	0.00e+00	0	24	0	880803840	59	4102
2026-01-08 06:06:20.44	27.96	16.01	-46.4	-47.6	15.3	0.00e+00	0	24	0	886046720	59	4020
2026-01-08 06:06:21.44	27.80	16.09	-46.5	-47.7	15.3	0.00e+00	0	24	0	891289600	59	4068
2026-01-08 06:06:22.44	27.65	16.17	-46.4	-47.6	15.3	0.00e+00	0	25	0	897581056	59	4021
2026-01-08 06:06:23.43	27.49	16.25	-46.5	-47.6	15.3	0.00e+00	0	24	0	902823936	59	4037
2026-01-08 06:06:24.43	27.33	16.33	-46.4	-47.5	15.3	0.00e+00	0	24	0	908066816	59	4004
2026-01-08 06:06:25.43	27.17	16.40	-46.3	-47.5	15.4	0.00e+00	0	25	0	914358272	59	3968
2026-01-08 06:06:26.43	27.01	16.48	-46.3	-47.4	15.4	0.00e+00	0	24	0	919601152	59	3938
2026-01-08 06:06:27.43	26.85	16.56	-46.2	-47.3	15.3	0.00e+00	0	24	0	924844032	58	4121
2026-01-08 06:06:28.43	26.69	16.64	-46.2	-47.4	15.3	0.00e+00	0	25	0	931135488	58	4156
2026-01-08 06:06:29.44	26.53	16.72	-46.2	-47.4	15.3	0.00e+00	0	25	0	936378368	58	4160
2026-01-08 06:06:30.43	26.36	16.80	-46.3	-47.5	15.2	0.00e+00	0	24	0	942669824	58	4204
2026-01-08 06:06:31.43	26.20	16.87	-46.4	-47.5	15.2	0.00e+00	0	25	0	947912704	58	4236
2026-01-08 06:06:32.44	26.03	16.95	-46.3	-47.5	15.2	0.00e+00	0	24	0	953155584	58	4218
2026-01-08 06:06:33.44	25.87	17.03	-46.3	-47.4	15.3	0.00e+00	0	24	0	959447040	58	4177
2026-01-08 06:06:34.43	25.70	17.11	-46.3	-47.5	15.2	0.00e+00	0	24	0	964689920	58	4204
2026-01-08 06:06:35.43	25.54	17.19	-46.1	-47.2	15.3	0.00e+00	0	24	0	969932800	58	4073
2026-01-08 06:06:36.42	25.37	17.27	-46.0	-47.1	15.3	0.00e+00	0	24	0	976224256	58	4044
2026-01-08 06:06:37.42	25.20	17.34	-46.0	-47.1	15.4	0.00e+00	0	25	0	981467136	58	4027
2026-01-08 06:06:38.42	25.03	17.42	-46.1	-47.2	15.3	0.00e+00	0	25	0	986710016	58	4065
2026-01-08 06:06:39.42	24.86	17.50	-46.2	-47.3	15.3	0.00e+00	0	25	0	993001472	58	4132
2026-01-08 06:06:40.42	24.68	17.58	-46.2	-47.4	15.3	0.00e+00	0	24	0	998244352	58	4159
2026-01-08 06:06:41.42	24.51	17.66	-46.3	-47.4	15.2	0.00e+00	0	25	0	1004535808	58	4188
2026-01-08 06:06:42.41	24.34	17.73	-46.3	-47.4	15.3	0.00e+00	0	25	0	1009778688	58	4189
2026-01-08 06:06:43.41	24.16	17.81	-46.3	-47.4	15.3	0.00e+00	0	25	0	1015021568	58	4172
2026-01-08 06:06:44.41	23.99	17.89	-46.3	-47.5	15.2	0.00e+00	0	25	0	1020264448	58	4212
2026-01-08 06:06:45.41	23.81	17.97	-46.1	-47.3	15.3	0.00e+00	0	25	0	1026555904	58	4110
2026-01-08 06:06:46.40	23.64	18.05	-46.1	-47.3	15.3	0.00e+00	0	25	0	1031798784	58	4110
2026-01-08 06:06:47.41	23.46	18.13	-46.0	-47.2	15.4	0.00e+00	0	25	0	1037041664	58	4060
2026-01-08 06:06:48.40	23.28	18.20	-46.0	-47.1	15.4	0.00e+00	0	25	0	1043333120	58	4042
2026-01-08 06:06:49.40	23.10	18.28	-46.0	-47.1	15.4	0.00e+00	0	25	0	1048576000	58	4023
2026-01-08 06:06:50.39	22.92	18.36	-46.1	-47.2	15.4	0.00e+00	0	25	0	1054867456	58	4061
2026-01-08 06:06:51.39	22.74	18.44	-46.1	-47.2	15.3	0.00e+00	0	25	0	1060110336	58	4076
2026-01-08 06:06:52.40	22.55	18.52	-46.0	-47.1	15.4	0.00e+00	0	25	0	1065353216	58	4018
2026-01-08 06:06:53.39	22.37	18.59	-46.0	-47.1	15.4	0.00e+00	0	25	0	1071644672	58	4033
2026-01-08 06:06:54.38	22.18	18.67	-45.9	-47.0	15.4	0.00e+00	0	25	0	1076887552	58	3995
2026-01-08 06:06:55.39	22.00	18.75	-45.8	-46.9	15.4	0.00e+00	0	25	0	1082130432	58	3949
2026-01-08 06:06:56.38	21.81	18.82	-45.9	-47.0	15.4	0.00e+00	0	25	0	1088421888	58	3993
2026-01-08 06:06:57.39	21.62	18.90	-45.8	-46.9	15.5	0.00e+00	0	25	0	1093664768	58	3935
2026-01-08 06:06:58.39	21.43	18.98	-45.8	-46.9	15.5	0.00e+00	0	25	0	1098907648	58	3926
2026-01-08 06:06:59.39	21.24	19.06	-45.8	-46.9	15.5	0.00e+00	0	25	0	1105199104	58	3932
2026-01-08 06:07:00.39	21.05	19.14	-45.8	-46.9	15.5	0.00e+00	0	25	0	1110441984	58	3953
2026-01-08 06:07:01.39	20.86	19.21	-46.0	-47.1	15.4	0.00e+00	0	25	0	1116733440	58	4050
2026-01-08 06:07:02.39	20.67	19.29	-45.9	-47.0	15.4	0.00e+00	0	24	0	1121976320	58	3993
2026-01-08 06:07:03.39	20.47	19.37	-45.9	-47.0	15.4	0.00e+00	0	24	0	1127219200	58	3984
2026-01-08 06:07:04.39	20.28	19.44	-45.9	-47.0	15.4	0.00e+00	0	25	0	1133510656	58	3984
2026-01-08 06:07:05.38	20.08	19.52	-46.0	-47.1	15.4	0.00e+00	0	25	0	1138753536	58	4021
2026-01-08 06:07:06.37	19.89	19.60	-45.7	-46.9	15.5	0.00e+00	0	25	0	1143996416	58	3917
2026-01-08 06:07:07.37	19.69	19.67	-45.8	-46.9	15.3	0.00e+00	0	25	0	1149239296	57	4163
2026-01-08 06:07:08.36	19.49	19.75	-45.8	-46.9	15.3	0.00e+00	0	25	0	1155530752	57	4172
2026-01-08 06:07:09.35	19.29	19.82	-45.8	-47.0	15.3	0.00e+00	0	25	0	1160773632	57	4202
2026-01-08 06:07:10.35	19.09	19.90	-45.7	-46.9	15.4	0.00e+00	0	25	0	1167065088	57	4146
2026-01-08 06:07:11.35	18.89	19.97	-45.6	-46.7	15.4	0.00e+00	0	25	0	1172307968	57	4093
2026-01-08 06:07:12.34	18.69	20.05	-45.6	-46.7	15.4	0.00e+00	0	25	0	1177550848	57	4054
2026-01-08 06:07:13.34	18.49	20.13	-45.4	-46.5	15.5	0.00e+00	0	25	0	1183842304	57	3975
2026-01-08 06:07:14.33	18.28	20.20	-45.3	-46.4	15.5	0.00e+00	0	25	0	1189085184	57	3941
2026-01-08 06:07:15.32	18.08	20.28	-45.3	-46.4	15.5	0.00e+00	0	25	0	1194328064	57	3938
2026-01-08 06:07:16.32	17.87	20.35	-45.3	-46.4	15.5	0.00e+00	0	25	0	1200619520	57	3956
2026-01-08 06:07:17.32	17.66	20.43	-45.4	-46.5	15.4	0.00e+00	0	25	0	1205862400	57	3983
2026-01-08 06:07:18.32	17.45	20.50	-45.5	-46.6	15.4	0.00e+00	0	25	0	1211105280	57	4005
2026-01-08 06:07:19.32	17.24	20.57	-45.4	-46.5	15.5	0.00e+00	0	25	0	1217396736	57	3963
2026-01-08 06:07:20.32	17.03	20.65	-45.3	-46.4	15.5	0.00e+00	0	25	0	1222639616	57	3939
2026-01-08 06:07:21.32	16.82	20.72	-45.3	-46.4	15.5	0.00e+00	0	25	0	1228931072	57	3921
2026-01-08 06:07:22.32	16.61	20.80	-45.2	-46.3	15.5	0.00e+00	0	25	0	1234173952	57	3886
2026-01-08 06:07:23.32	16.39	20.87	-45.1	-46.2	15.4	0.00e+00	0	25	0	1239416832	56	4075
2026-01-08 06:07:24.31	16.18	20.94	-45.1	-46.1	15.4	0.00e+00	0	25	0	1244659712	56	4051
2026-01-08 06:07:25.32	15.96	21.02	-45.2	-46.2	15.4	0.00e+00	0	25	0	1250951168	56	4098
2026-01-08 06:07:26.32	15.74	21.09	-45.1	-46.1	15.5	0.00e+00	0	25	0	1256194048	56	4045
2026-01-08 06:07:27.32	15.52	21.16	-45.2	-46.3	15.4	0.00e+00	0	25	0	1262485504	56	4100
2026-01-08 06:07:28.32	15.30	21.24	-45.1	-46.2	15.4	0.00e+00	0	24	0	1267728384	56	4083
2026-01-08 06:07:29.32	15.08	21.31	-45.1	-46.2	15.4	0.00e+00	0	25	0	1274019840	56	4083
2026-01-08 06:07:30.32	14.86	21.38	-45.1	-46.2	15.4	0.00e+00	0	25	0	1279262720	56	4085
2026-01-08 06:07:31.32	14.64	21.45	-45.2	-46.3	15.4	0.00e+00	0	25	0	1284505600	56	4106
2026-01-08 06:07:32.32	14.42	21.53	-45.3	-46.4	15.4	0.00e+00	0	25	0	1289748480	56	4149
2026-01-08 06:07:33.32	14.19	21.60	-45.3	-46.4	15.3	0.00e+00	0	25	0	1296039936	56	4190
2026-01-08 06:07:34.32	13.96	21.67	-45.4	-46.5	15.3	0.00e+00	0	25	0	1301282816	56	4214
2026-01-08 06:07:35.32	13.74	21.74	-45.4	-46.5	15.3	0.00e+00	0	25	0	1306525696	56	4236
2026-01-08 06:07:36.32	13.51	21.81	-45.3	-46.4	15.4	0.00e+00	0	25	0	1312817152	56	4161
2026-01-08 06:07:37.32	13.28	21.88	-45.3	-46.4	15.4	0.00e+00	0	25	0	1318060032	56	4181
2026-01-08 06:07:38.32	13.05	21.95	-45.3	-46.4	15.4	0.00e+00	0	25	0	1324351488	56	4147
2026-01-08 06:07:39.32	12.82	22.02	-45.3	-46.4	15.4	0.00e+00	0	25	0	1329594368	56	4171
2026-01-08 06:07:40.32	12.59	22.09	-45.3	-46.4	15.4	0.00e+00	0	25	0	1334837248	56	4154
2026-01-08 06:07:41.31	12.36	22.16	-45.3	-46.4	15.4	0.00e+00	0	25	0	1341128704	56	4174
2026-01-08 06:07:42.31	12.12	22.23	-45.2	-46.3	15.4	0.00e+00	0	25	0	1346371584	56	4107
2026-01-08 06:07:43.30	11.89	22.29	-45.1	-46.2	15.4	0.00e+00	0	25	0	1351614464	56	4077
2026-01-08 06:07:44.30	11.65	22.36	-45.1	-46.2	15.4	0.00e+00	0	25	0	1357905920	56	4080
2026-01-08 06:07:45.30	11.41	22.43	-45.2	-46.3	15.4	0.00e+00	0	25	0	1363148800	56	4114
2026-01-08 06:07:46.30	11.18	22.50	-45.2	-46.3	15.4	0.00e+00	0	25	0	1368391680	56	4138
2026-01-08 06:07:47.30	10.94	22.56	-45.3	-46.4	15.4	0.00e+00	0	25	0	1374683136	56	4179
2026-01-08 06:07:48.30	10.70	22.63	-45.4	-46.5	15.3	0.00e+00	0	25	0	1379926016	56	4209
2026-01-08 06:07:49.31	10.45	22.70	-45.3	-46.3	15.4	0.00e+00	0	25	0	1386217472	56	4144
2026-01-08 06:07:50.31	10.21	22.76	-45.4	-46.4	15.3	0.00e+00	0	25	0	1391460352	56	4192
2026-01-08 06:07:51.31	9.97	22.83	-45.1	-46.2	15.4	0.00e+00	0	25	0	1396703232	56	4064
2026-01-08 06:07:52.30	9.72	22.89	-44.9	-45.9	15.5	0.00e+00	0	25	0	1402994688	56	3947
2026-01-08 06:07:53.31	9.48	22.96	-44.9	-46.0	15.5	0.00e+00	0	25	0	1408237568	56	3981
2026-01-08 06:07:54.31	9.23	23.02	-45.0	-46.1	15.4	0.00e+00	0	25	0	1413480448	56	4036
2026-01-08 06:07:55.31	8.98	23.09	-45.1	-46.1	15.4	0.00e+00	0	25	0	1419771904	56	4050
2026-01-08 06:07:56.31	8.73	23.15	-45.1	-46.1	15.4	0.00e+00	0	25	0	1425014784	56	4050
2026-01-08 06:07:57.31	8.48	23.21	-45.0	-46.1	15.5	0.00e+00	0	25	0	1430257664	56	4038
2026-01-08 06:07:58.30	8.23	23.28	-45.0	-46.1	15.4	0.00e+00	0	25	0	1436549120	56	4005
2026-01-08 06:07:59.30	7.98	23.34	-45.1	-46.1	15.4	0.00e+00	0	25	0	1441792000	56	4044
2026-01-08 06:08:00.30	7.73	23.40	-45.0	-46.1	15.4	0.00e+00	0	25	0	1448083456	56	4032
2026-01-08 06:08:01.30	7.47	23.46	-45.0	-46.1	15.5	0.00e+00	0	25	0	1453326336	56	4012
2026-01-08 06:08:02.30	7.22	23.52	-45.1	-46.1	15.4	0.00e+00	0	25	0	1458569216	56	4049
2026-01-08 06:08:03.29	6.97	23.58	-44.8	-45.9	15.5	0.00e+00	0	25	0	1464860672	56	3935
2026-01-08 06:08:04.29	6.71	23.64	-44.8	-45.8	15.6	0.00e+00	0	25	0	1470103552	56	3906
2026-01-08 06:08:05.29	6.45	23.70	-44.5	-45.6	15.5	0.00e+00	0	25	0	1475346432	55	4025
2026-01-08 06:08:06.29	6.19	23.76	-44.5	-45.6	15.5	0.00e+00	0	25	0	1481637888	55	4024
2026-01-08 06:08:07.29	5.93	23.82	-44.6	-45.7	15.4	0.00e+00	0	25	0	1486880768	55	4056
2026-01-08 06:08:08.29	5.67	23.88	-44.6	-45.6	15.4	0.00e+00	0	25	0	1492123648	55	4043
2026-01-08 06:08:09.29	5.41	23.93	-44.7	-45.7	15.4	0.00e+00	0	25	0	1498415104	55	4091
2026-01-08 06:08:10.27	5.15	23.99	-44.7	-45.7	15.4	0.00e+00	0	25	0	1503657984	55	4089
2026-01-08 06:08:11.27	4.89	24.05	-44.7	-45.8	15.4	0.00e+00	0	25	0	1509949440	55	4113
2026-01-08 06:08:12.26	4.63	24.10	-44.6	-45.7	15.4	0.00e+00	0	25	0	1515192320	55	4076
2026-01-08 06:08:13.27	4.36	24.16	-44.7	-45.7	15.4	0.00e+00	0	25	0	1520435200	55	4092
2026-01-08 06:08:14.27	4.09	24.21	-44.8	-45.8	15.4	0.00e+00	0	25	0	1526726656	55	4142
2026-01-08 06:08:15.26	3.83	24.26	-44.7	-45.8	15.4	0.00e+00	0	25	0	1531969536	55	4124
2026-01-08 06:08:16.27	3.56	24.32	-44.7	-45.7	15.4	0.00e+00	0	25	0	1537212416	55	4087
2026-01-08 06:08:17.26	3.29	24.37	-44.5	-45.6	15.5	0.00e+00	0	25	0	1542455296	55	4005
2026-01-08 06:08:18.26	3.02	24.42	-44.5	-45.6	15.5	0.00e+00	0	25	0	1548746752	55	4012
2026-01-08 06:08:19.27	2.74	24.48	-44.6	-45.6	15.5	0.00e+00	0	25	0	1553989632	55	4029
2026-01-08 06:08:20.27	2.47	24.53	-44.5	-45.5	15.5	0.00e+00	0	25	0	1560281088	55	3985
2026-01-08 06:08:21.26	2.20	24.58	-44.4	-45.5	15.5	0.00e+00	0	25	0	1565523968	55	3976
2026-01-08 06:08:22.25	1.93	24.63	-44.4	-45.5	15.5	0.00e+00	0	25	0	1570766848	55	3976
2026-01-08 06:08:23.25	1.66	24.68	-44.4	-45.4	15.5	0.00e+00	0	25	0	1577058304	55	3956
2026-01-08 06:08:24.25	1.38	24.72	-44.5	-45.5	15.5	0.00e+00	0	25	0	1582301184	55	3990
2026-01-08 06:08:25.25	1.10	24.77	-44.5	-45.5	15.5	0.00e+00	0	25	0	1587544064	55	3994
2026-01-08 06:08:26.24	0.83	24.82	-44.5	-45.6	15.5	0.00e+00	0	25	0	1593835520	55	4010
2026-01-08 06:08:27.24	0.55	24.87	-44.4	-45.5	15.5	0.00e+00	0	25	0	1599078400	55	3977
2026-01-08 06:08:28.24	0.27	24.91	-44.5	-45.5	15.5	0.00e+00	0	25	0	1604321280	55	3983
2026-01-08 06:08:29.23	360.00	24.96	-44.4	-45.5	15.5	0.00e+00	0	25	0	1610612736	55	3972
2026-01-08 06:08:30.23	359.72	25.00	-44.3	-45.4	15.5	0.00e+00	0	25	0	1615855616	55	3931
2026-01-08 06:08:31.23	359.43	25.05	-44.3	-45.3	15.6	0.00e+00	0	25	0	1622147072	55	3895
2026-01-08 06:08:32.23	359.15	25.09	-44.2	-45.3	15.6	0.00e+00	0	25	0	1627389952	55	3874
2026-01-08 06:08:33.23	358.87	25.13	-44.3	-45.3	15.5	0.00e+00	0	25	0	1632632832	55	3895
2026-01-08 06:08:34.23	358.59	25.17	-44.2	-45.2	15.5	0.00e+00	0	25	0	1638924288	54	4075
2026-01-08 06:08:35.23	358.30	25.21	-44.3	-45.4	15.4	0.00e+00	0	25	0	1644167168	54	4149
2026-01-08 06:08:36.22	358.02	25.25	-44.5	-45.5	15.4	0.00e+00	0	25	0	1649410048	54	4239
2026-01-08 06:08:37.22	357.73	25.29	-44.6	-45.7	15.4	0.00e+00	0	25	0	1654652928	54	4308
2026-01-08 06:08:38.21	357.45	25.33	-44.7	-45.8	15.3	0.00e+00	0	25	0	1660944384	54	4370
2026-01-08 06:08:39.21	357.16	25.37	-44.7	-45.7	15.3	0.00e+00	0	25	0	1666187264	54	4333
2026-01-08 06:08:40.21	356.87	25.41	-44.6	-45.7	15.4	0.00e+00	0	25	0	1672478720	54	4306
2026-01-08 06:08:41.22	356.58	25.45	-44.5	-45.5	15.4	0.00e+00	0	25	0	1677721600	54	4231
2026-01-08 06:08:42.22	356.29	25.48	-44.5	-45.5	15.4	0.00e+00	0	25	0	1682964480	54	4232
2026-01-08 06:08:43.22	356.00	25.52	-44.4	-45.5	15.4	0.00e+00	0	25	0	1689255936	54	4208
2026-01-08 06:08:44.21	355.71	25.55	-44.4	-45.4	15.4	0.00e+00	0	25	0	1694498816	54	4193
2026-01-08 06:08:45.22	355.42	25.59	-44.4	-45.4	15.4	0.00e+00	0	25	0	1699741696	54	4185
2026-01-08 06:08:46.21	355.13	25.62	-44.4	-45.4	15.4	0.00e+00	0	25	0	1706033152	54	4185
2026-01-08 06:08:47.21	354.84	25.65	-44.4	-45.4	15.4	0.00e+00	0	25	0	1711276032	54	4177
2026-01-08 06:08:48.21	354.55	25.68	-44.4	-45.4	15.4	0.00e+00	0	25	0	1716518912	54	4177
2026-01-08 06:08:49.21	354.25	25.71	-44.3	-45.4	15.4	0.00e+00	0	25	0	1722810368	54	4157
2026-01-08 06:08:50.22	353.95	25.74	-44.4	-45.5	15.4	0.00e+00	0	25	0	1728053248	54	4195
2026-01-08 06:08:51.22	353.66	25.77	-44.4	-45.5	15.4	0.00e+00	0	25	0	1734344704	54	4195
2026-01-08 06:08:52.22	353.36	25.80	-44.5	-45.6	15.4	0.00e+00	0	25	0	1739587584	54	4256
2026-01-08 06:08:53.21	353.07	25.83	-44.6	-45.7	15.4	0.00e+00	0	25	0	1744830464	54	4297
2026-01-08 06:08:54.22	352.77	25.86	-44.6	-45.7	15.4	0.00e+00	0	25	0	1751121920	54	4317
2026-01-08 06:08:55.22	352.47	25.88	-44.6	-45.7	15.3	0.00e+00	0	25	0	1756364800	54	4319
2026-01-08 06:08:56.22	352.18	25.91	-44.5	-45.6	15.4	0.00e+00	0	25	0	1761607680	54	4259
2026-01-08 06:08:57.21	351.88	25.93	-44.4	-45.5	15.4	0.00e+00	0	25	0	1767899136	54	4205
2026-01-08 06:08:58.21	351.58	25.95	-44.4	-45.5	15.4	0.00e+00	0	25	0	1773142016	54	4221
2026-01-08 06:08:59.21	351.29	25.98	-44.4	-45.5	15.4	0.00e+00	0	25	0	1779433472	54	4210
2026-01-08 06:09:00.21	350.99	26.00	-44.5	-45.6	15.4	0.00e+00	0	25	0	1784676352	54	4246
2026-01-08 06:09:01.21	350.69	26.02	-44.5	-45.6	15.4	0.00e+00	0	25	0	1789919232	54	4247
2026-01-08 06:09:02.21	350.39	26.04	-44.6	-45.7	15.4	0.00e+00	0	25	0	1796210688	54	4319
2026-01-08 06:09:03.21	350.09	26.06	-44.7	-45.8	15.4	0.00e+00	0	25	0	1801453568	54	4351
2026-01-08 06:09:04.20	349.79	26.08	-44.8	-45.8	15.3	0.00e+00	0	25	0	1806696448	54	4376
2026-01-08 06:09:05.21	349.48	26.09	-44.8	-45.8	15.3	0.00e+00	0	25	0	1812987904	54	4370
2026-01-08 06:09:06.21	349.18	26.11	-44.8	-45.8	15.3	0.00e+00	0	25	0	1818230784	54	4384
2026-01-08 06:09:07.20	348.88	26.13	-44.8	-45.8	15.3	0.00e+00	0	25	0	1823473664	54	4384
2026-01-08 06:09:08.20	348.58	26.14	-44.7	-45.8	15.3	0.00e+00	0	25	0	1829765120	54	4371
2026-01-08 06:09:09.20	348.28	26.16	-44.7	-45.7	15.4	0.00e+00	0	25	0	1835008000	54	4329
2026-01-08 06:09:10.20	347.98	26.17	-44.7	-45.7	15.3	0.00e+00	0	25	0	1841299456	54	4332
2026-01-08 06:09:11.20	347.67	26.18	-44.7	-45.7	15.3	0.00e+00	0	25	0	1846542336	54	4339
2026-01-08 06:09:12.19	347.37	26.19	-44.5	-45.5	15.4	0.00e+00	0	25	0	1851785216	54	4229
2026-01-08 06:09:13.18	347.07	26.20	-44.4	-45.4	15.4	0.00e+00	0	25	0	1858076672	54	4170
2026-01-08 06:09:14.18	346.77	26.21	-44.3	-45.3	15.4	0.00e+00	0	25	0	1863319552	54	4141
2026-01-08 06:09:15.17	346.47	26.22	-44.1	-45.1	15.5	0.00e+00	0	25	0	1868562432	54	4043
2026-01-08 06:09:16.18	346.16	26.23	-44.2	-45.2	15.5	0.00e+00	0	25	0	1874853888	54	4082
2026-01-08 06:09:17.17	345.86	26.24	-44.2	-45.3	15.5	0.00e+00	0	25	0	1880096768	54	4106
2026-01-08 06:09:18.16	345.56	26.24	-44.1	-45.2	15.5	0.00e+00	0	25	0	1885339648	54	4060
2026-01-08 06:09:19.16	345.26	26.25	-44.2	-45.2	15.4	0.00e+00	0	25	0	1891631104	54	4094
2026-01-08 06:09:20.16	344.95	26.25	-44.2	-45.2	15.4	0.00e+00	0	25	0	1896873984	54	4094
2026-01-08 06:09:21.16	344.65	26.26	-44.3	-45.4	15.4	0.00e+00	0	25	0	1902116864	54	4167
2026-01-08 06:09:22.16	344.34	26.26	-44.4	-45.4	15.4	0.00e+00	0	25	0	1908408320	54	4187
2026-01-08 06:09:23.15	344.04	26.26	-44.6	-45.6	15.4	0.00e+00	0	25	0	1913651200	54	4291
2026-01-08 06:09:24.15	343.74	26.26	-44.7	-45.8	15.4	0.00e+00	0	25	0	1918894080	54	4348
2026-01-08 06:09:25.15	343.43	26.26	-44.8	-45.8	15.3	0.00e+00	0	25	0	1925185536	54	4383
2026-01-08 06:09:26.14	343.13	26.26	-44.7	-45.8	15.3	0.00e+00	0	25	0	1930428416	54	4360
2026-01-08 06:09:27.13	342.83	26.26	-44.6	-45.7	15.4	0.00e+00	0	25	0	1935671296	54	4306
2026-01-08 06:09:28.14	342.52	26.26	-44.5	-45.5	15.4	0.00e+00	0	25	0	1941962752	54	4234
2026-01-08 06:09:29.13	342.22	26.25	-44.5	-45.5	15.4	0.00e+00	0	25	0	1947205632	54	4219
2026-01-08 06:09:30.13	341.92	26.25	-44.5	-45.6	15.4	0.00e+00	0	25	0	1953497088	54	4269
2026-01-08 06:09:31.13	341.61	26.24	-44.5	-45.6	15.4	0.00e+00	0	25	0	1958739968	54	4248
2026-01-08 06:09:32.13	341.31	26.24	-44.3	-45.4	15.4	0.00e+00	0	25	0	1963982848	54	4175
2026-01-08 06:09:33.13	341.00	26.23	-44.2	-45.2	15.5	0.00e+00	0	25	0	1970274304	54	4085
2026-01-08 06:09:34.13	340.70	26.22	-44.2	-45.2	15.5	0.00e+00	0	25	0	1975517184	54	4092
2026-01-08 06:09:35.13	340.40	26.21	-44.1	-45.1	15.5	0.00e+00	0	25	0	1980760064	54	4047
2026-01-08 06:09:36.13	340.09	26.20	-44.2	-45.2	15.5	0.00e+00	0	25	0	1987051520	54	4076
2026-01-08 06:09:37.13	339.79	26.19	-44.3	-45.3	15.4	0.00e+00	0	25	0	1992294400	54	4136
2026-01-08 06:09:38.13	339.49	26.18	-44.5	-45.5	15.4	0.00e+00	0	25	0	1997537280	54	4236
2026-01-08 06:09:39.12	339.19	26.17	-44.5	-45.6	15.4	0.00e+00	0	25	0	2003828736	54	4248
2026-01-08 06:09:40.12	338.88	26.15	-44.6	-45.6	15.4	0.00e+00	0	25	0	2009071616	54	4287
2026-01-08 06:09:41.12	338.58	26.14	-44.5	-45.6	15.4	0.00e+00	0	25	0	2014314496	54	4267
2026-01-08 06:09:42.11	338.28	26.12	-44.5	-45.6	15.4	0.00e+00	0	25	0	2020605952	54	4261
2026-01-08 06:09:43.11	337.98	26.11	-44.6	-45.7	15.4	0.00e+00	0	25	0	2025848832	54	4318
2026-01-08 06:09:44.11	337.68	26.09	-44.7	-45.8	15.3	0.00e+00	0	25	0	2031091712	54	4348
2026-01-08 06:09:45.11	337.38	26.07	-44.6	-45.7	15.3	0.00e+00	0	25	0	2037383168	54	4313
2026-01-08 06:09:46.10	337.08	26.06	-44.5	-45.6	15.4	0.00e+00	0	25	0	2042626048	54	4248
2026-01-08 06:09:47.10	336.78	26.04	-44.4	-45.4	15.4	0.00e+00	0	25	0	2047868928	54	4172
2026-01-08 06:09:48.10	336.48	26.02	-44.3	-45.3	15.4	0.00e+00	0	25	0	2054160384	54	4129
2026-01-08 06:09:49.10	336.18	25.99	-44.3	-45.3	15.4	0.00e+00	0	25	0	2059403264	54	4117
2026-01-08 06:09:50.10	335.88	25.97	-44.4	-45.5	15.4	0.00e+00	0	25	0	2065694720	54	4222
2026-01-08 06:09:51.10	335.58	25.95	-44.4	-45.4	15.4	0.00e+00	0	25	0	2070937600	54	4184
2026-01-08 06:09:52.10	335.28	25.93	-44.1	-45.1	15.5	0.00e+00	0	25	0	2076180480	54	4050
2026-01-08 06:09:53.10	334.99	25.90	-44.1	-45.1	15.5	0.00e+00	0	25	0	2082471936	54	4032
2026-01-08 06:09:54.10	334.69	25.88	-44.1	-45.2	15.5	0.00e+00	0	25	0	2087714816	54	4055
2026-01-08 06:09:55.10	334.39	25.85	-44.1	-45.2	15.5	0.00e+00	0	25	0	2092957696	54	4054
2026-01-08 06:09:56.10	334.09	25.82	-44.1	-45.2	15.5	0.00e+00	0	25	0	2099249152	54	4072
2026-01-08 06:09:57.09	333.80	25.80	-44.3	-45.3	15.4	0.00e+00	0	25	0	2104492032	54	4142
2026-01-08 06:09:58.10	333.50	25.77	-44.4	-45.4	15.4	0.00e+00	0	25	0	2109734912	54	4184
2026-01-08 06:09:59.10	333.21	25.74	-44.5	-45.6	15.4	0.00e+00	0	25	0	2116026368	54	4257
2026-01-08 06:10:00.10	332.91	25.71	-44.7	-45.7	15.4	0.00e+00	0	25	0	2121269248	54	4333
2026-01-08 06:10:01.10	332.62	25.68	-44.6	-45.7	15.4	0.00e+00	0	25	0	2127560704	54	4306
2026-01-08 06:10:02.09	332.33	25.65	-44.5	-45.6	15.4	0.00e+00	0	25	0	2132803584	54	4262
2026-01-08 06:10:03.09	332.04	25.61	-44.6	-45.7	15.3	0.00e+00	0	25	0	2138046464	54	4312
2026-01-08 06:10:04.09	331.75	25.58	-44.5	-45.6	15.3	0.00e+00	0	25	0	2144337920	54	4270
2026-01-08 06:10:05.08	331.46	25.55	-44.4	-45.5	15.4	0.00e+00	0	25	0	2149580800	54	4214
2026-01-08 06:10:06.07	331.17	25.51	-44.4	-45.5	15.4	0.00e+00	0	25	0	2154823680	54	4196
2026-01-08 06:10:07.06	330.88	25.48	-44.2	-45.3	15.4	0.00e+00	0	25	0	2160066560	54	4118
2026-01-08 06:10:08.06	330.59	25.44	-44.1	-45.2	15.5	0.00e+00	0	25	0	2166358016	54	4062
2026-01-08 06:10:09.05	330.31	25.40	-44.2	-45.3	15.4	0.00e+00	0	25	0	2171600896	54	4110
2026-01-08 06:10:10.05	330.02	25.37	-44.4	-45.4	15.4	0.00e+00	0	25	0	2177892352	54	4170
2026-01-08 06:10:11.04	329.73	25.33	-44.3	-45.4	15.4	0.00e+00	0	25	0	2183135232	54	4165
2026-01-08 06:10:12.04	329.45	25.29	-44.3	-45.3	15.4	0.00e+00	0	25	0	2188378112	54	4142
2026-01-08 06:10:13.03	329.16	25.25	-44.3	-45.4	15.4	0.00e+00	0	25	0	2194669568	54	4159
2026-01-08 06:10:14.03	328.88	25.21	-44.2	-45.2	15.5	0.00e+00	0	25	0	2199912448	54	4098
2026-01-08 06:10:15.03	328.59	25.17	-44.2	-45.3	15.4	0.00e+00	0	25	0	2205155328	54	4114
2026-01-08 06:10:16.02	328.31	25.13	-44.4	-45.4	15.4	0.00e+00	0	25	0	2211446784	54	4189
2026-01-08 06:10:17.02	328.03	25.08	-44.5	-45.6	15.4	0.00e+00	0	25	0	2216689664	54	4255
2026-01-08 06:10:18.02	327.75	25.04	-44.5	-45.6	15.4	0.00e+00	0	25	0	2221932544	54	4263
2026-01-08 06:10:19.01	327.47	25.00	-44.6	-45.7	15.4	0.00e+00	0	25	0	2228224000	54	4295
2026-01-08 06:10:20.01	327.19	24.95	-44.6	-45.7	15.4	0.00e+00	0	25	0	2233466880	54	4319
2026-01-08 06:10:21.01	326.91	24.90	-44.6	-45.7	15.4	0.00e+00	0	25	0	2238709760	54	4296
2026-01-08 06:10:22.01	326.63	24.86	-44.5	-45.6	15.4	0.00e+00	0	25	0	2245001216	54	4266
2026-01-08 06:10:23.01	326.35	24.81	-44.6	-45.6	15.4	0.00e+00	0	25	0	2250244096	54	4281
2026-01-08 06:10:24.01	326.07	24.76	-44.5	-45.5	15.4	0.00e+00	0	25	0	2255486976	54	4236
2026-01-08 06:10:25.00	325.80	24.72	-44.4	-45.5	15.4	0.00e+00	0	25	0	2261778432	54	4203
2026-01-08 06:10:26.00	325.52	24.67	-44.5	-45.5	15.4	0.00e+00	0	25	0	2267021312	54	4222
2026-01-08 06:10:27.00	325.25	24.62	-44.4	-45.4	15.4	0.00e+00	0	25	0	2272264192	54	4189
2026-01-08 06:10:28.00	324.98	24.57	-44.2	-45.3	15.5	0.00e+00	0	25	0	2278555648	54	4118
2026-01-08 06:10:29.00	324.70	24.52	-44.2	-45.2	15.5	0.00e+00	0	25	0	2283798528	54	4084
2026-01-08 06:10:29.99	324.43	24.47	-44.2	-45.2	15.5	0.00e+00	0	25	0	2290089984	54	4075
2026-01-08 06:10:30.99	324.16	24.42	-44.2	-45.3	15.4	0.00e+00	0	25	0	2295332864	54	4110
2026-01-08 06:10:31.99	323.89	24.36	-44.4	-45.4	15.4	0.00e+00	0	25	0	2300575744	54	4181
2026-01-08 06:10:32.99	323.62	24.31	-44.4	-45.4	15.4	0.00e+00	0	25	0	2306867200	54	4176
2026-01-08 06:10:33.99	323.35	24.26	-44.3	-45.3	15.4	0.00e+00	0	25	0	2312110080	54	4139
2026-01-08 06:10:34.99	323.09	24.20	-44.3	-45.4	15.4	0.00e+00	0	25	0	2317352960	54	4148
2026-01-08 06:10:35.99	322.82	24.15	-44.2	-45.2	15.4	0.00e+00	0	25	0	2323644416	54	4095
2026-01-08 06:10:37.00	322.55	24.09	-44.2	-45.3	15.4	0.00e+00	0	25	0	2328887296	54	4118
2026-01-08 06:10:38.00	322.29	24.04	-44.3	-45.4	15.4	0.00e+00	0	25	0	2334130176	54	4168
2026-01-08 06:10:38.99	322.02	23.98	-44.4	-45.5	15.4	0.00e+00	0	25	0	2340421632	54	4211
2026-01-08 06:10:39.99	321.76	23.92	-44.5	-45.6	15.4	0.00e+00	0	25	0	2345664512	54	4247
2026-01-08 06:10:40.98	321.50	23.87	-44.5	-45.6	15.4	0.00e+00	0	25	0	2351955968	54	4268
2026-01-08 06:10:41.99	321.24	23.81	-44.6	-45.6	15.4	0.00e+00	0	25	0	2357198848	54	4282
2026-01-08 06:10:42.99	320.98	23.75	-44.6	-45.7	15.4	0.00e+00	0	25	0	2362441728	54	4320
2026-01-08 06:10:43.99	320.72	23.69	-44.6	-45.6	15.4	0.00e+00	0	25	0	2368733184	54	4269
2026-01-08 06:10:44.99	320.46	23.63	-44.6	-45.6	15.4	0.00e+00	0	25	0	2373976064	54	4290
2026-01-08 06:10:45.99	320.20	23.57	-44.7	-45.7	15.3	0.00e+00	0	25	0	2379218944	54	4334
2026-01-08 06:10:46.99	319.95	23.51	-44.5	-45.6	15.4	0.00e+00	0	25	0	2385510400	54	4267
2026-01-08 06:10:47.98	319.70	23.45	-44.6	-45.7	15.4	0.00e+00	0	25	0	2390753280	54	4297
2026-01-08 06:10:48.99	319.44	23.39	-44.5	-45.6	15.4	0.00e+00	0	25	0	2397044736	54	4246
2026-01-08 06:10:49.99	319.19	23.33	-44.5	-45.6	15.4	0.00e+00	0	25	0	2402287616	54	4245
2026-01-08 06:10:50.98	318.94	23.26	-44.3	-45.4	15.4	0.00e+00	0	25	0	2407530496	54	4149
2026-01-08 06:10:51.97	318.69	23.20	-44.4	-45.4	15.4	0.00e+00	0	25	0	2413821952	54	4183
2026-01-08 06:10:52.97	318.44	23.14	-44.4	-45.5	15.4	0.00e+00	0	25	0	2419064832	54	4210
2026-01-08 06:10:53.97	318.19	23.08	-44.6	-45.7	15.4	0.00e+00	0	25	0	2424307712	54	4298
2026-01-08 06:10:54.97	317.94	23.01	-44.7	-45.7	15.3	0.00e+00	0	25	0	2429550592	54	4325
2026-01-08 06:10:55.97	317.69	22.95	-44.7	-45.7	15.4	0.00e+00	0	25	0	2435842048	54	4333
2026-01-08 06:10:56.97	317.45	22.88	-44.6	-45.7	15.4	0.00e+00	0	25	0	2441084928	54	4315
2026-01-08 06:10:57.96	317.21	22.82	-44.7	-45.7	15.3	0.00e+00	0	25	0	2447376384	54	4340
2026-01-08 06:10:58.96	316.96	22.75	-44.6	-45.7	15.3	0.00e+00	0	25	0	2452619264	54	4297
2026-01-08 06:10:59.97	316.72	22.68	-44.7	-45.8	15.3	0.00e+00	0	25	0	2457862144	54	4350
2026-01-08 06:11:00.97	316.47	22.62	-44.9	-45.9	15.3	0.00e+00	0	25	0	2464153600	54	4433
2026-01-08 06:11:01.96	316.24	22.55	-44.9	-46.0	15.4	0.00e+00	0	25	0	2469396480	55	4208
2026-01-08 06:11:02.96	316.00	22.49	-44.8	-45.9	15.4	0.00e+00	0	25	0	2474639360	55	4163
2026-01-08 06:11:03.96	315.76	22.42	-44.7	-45.8	15.4	0.00e+00	0	25	0	2480930816	55	4114
2026-01-08 06:11:04.97	315.52	22.35	-44.6	-45.7	15.4	0.00e+00	0	25	0	2486173696	55	4069
2026-01-08 06:11:05.97	315.28	22.28	-44.6	-45.7	15.5	0.00e+00	0	25	0	2491416576	55	4054
2026-01-08 06:11:06.96	315.05	22.21	-44.5	-45.5	15.5	0.00e+00	0	25	0	2497708032	55	4000
2026-01-08 06:11:07.96	314.81	22.14	-44.6	-45.7	15.4	0.00e+00	0	25	0	2502950912	55	4064
2026-01-08 06:11:08.95	314.58	22.08	-44.5	-45.6	15.5	0.00e+00	0	25	0	2509242368	55	4008
2026-01-08 06:11:09.95	314.35	22.01	-44.6	-45.6	15.5	0.00e+00	0	25	0	2514485248	55	4035
2026-01-08 06:11:10.95	314.12	21.94	-44.6	-45.7	15.5	0.00e+00	0	25	0	2519728128	55	4055
2026-01-08 06:11:11.94	313.89	21.87	-44.7	-45.8	15.4	0.00e+00	0	25	0	2526019584	55	4117
2026-01-08 06:11:12.94	313.66	21.80	-44.8	-45.9	15.4	0.00e+00	0	25	0	2531262464	55	4176
2026-01-08 06:11:13.93	313.44	21.73	-44.9	-46.0	15.4	0.00e+00	0	25	0	2536505344	55	4205
2026-01-08 06:11:14.94	313.21	21.65	-45.0	-46.1	15.4	0.00e+00	0	25	0	2542796800	55	4252
2026-01-08 06:11:15.93	312.98	21.58	-45.0	-46.1	15.3	0.00e+00	0	25	0	2548039680	55	4265
2026-01-08 06:11:16.93	312.76	21.51	-44.9	-46.0	15.4	0.00e+00	0	25	0	2553282560	55	4213
2026-01-08 06:11:17.92	312.54	21.44	-45.0	-46.1	15.3	0.00e+00	0	25	0	2559574016	55	4261
2026-01-08 06:11:18.91	312.31	21.37	-44.9	-46.0	15.4	0.00e+00	0	25	0	2564816896	55	4203
2026-01-08 06:11:19.91	312.09	21.30	-44.9	-46.0	15.4	0.00e+00	0	25	0	2570059776	55	4197
2026-01-08 06:11:20.90	311.87	21.23	-44.8	-45.9	15.4	0.00e+00	0	25	0	2576351232	55	4174
2026-01-08 06:11:21.89	311.66	21.15	-44.8	-45.9	15.4	0.00e+00	0	25	0	2581594112	55	4157
2026-01-08 06:11:22.88	311.44	21.08	-44.9	-45.9	15.3	0.00e+00	0	25	0	2586836992	55	4178
2026-01-08 06:11:23.89	311.22	21.01	-45.0	-46.1	15.3	0.00e+00	0	25	0	2593128448	55	4262
2026-01-08 06:11:24.89	311.00	20.93	-45.0	-46.1	15.4	0.00e+00	0	25	0	2598371328	55	4277
2026-01-08 06:11:25.89	310.79	20.86	-45.2	-46.3	15.3	0.00e+00	0	25	0	2603614208	55	4352
2026-01-08 06:11:26.88	310.58	20.79	-45.2	-46.3	15.3	0.00e+00	0	25	0	2609905664	55	4377
2026-01-08 06:11:27.87	310.36	20.71	-45.2	-46.3	15.3	0.00e+00	0	25	0	2615148544	55	4372
2026-01-08 06:11:28.88	310.15	20.64	-45.1	-46.2	15.3	0.00e+00	0	25	0	2621440000	55	4316
2026-01-08 06:11:29.87	309.94	20.56	-45.1	-46.2	15.3	0.00e+00	0	25	0	2626682880	55	4304
2026-01-08 06:11:30.87	309.73	20.49	-45.3	-46.3	15.3	0.00e+00	0	25	0	2631925760	55	4387
2026-01-08 06:11:31.87	309.52	20.41	-45.6	-46.7	15.3	0.00e+00	0	25	0	2637168640	56	4302
2026-01-08 06:11:32.87	309.31	20.34	-45.6	-46.7	15.3	0.00e+00	0	25	0	2643460096	56	4331
2026-01-08 06:11:33.87	309.10	20.26	-45.7	-46.8	15.3	0.00e+00	0	25	0	2648702976	56	4344
2026-01-08 06:11:34.88	308.90	20.19	-45.6	-46.7	15.3	0.00e+00	0	25	0	2654994432	56	4319
2026-01-08 06:11:35.88	308.69	20.11	-45.6	-46.7	15.3	0.00e+00	0	25	0	2660237312	56	4325
2026-01-08 06:11:36.88	308.49	20.04	-45.6	-46.6	15.3	0.00e+00	0	25	0	2665480192	56	4284
2026-01-08 06:11:37.88	308.28	19.96	-45.6	-46.7	15.3	0.00e+00	0	25	0	2671771648	56	4335
2026-01-08 06:11:38.88	308.08	19.88	-45.8	-46.9	15.3	0.00e+00	0	25	0	2677014528	56	4412
2026-01-08 06:11:39.89	307.88	19.81	-45.9	-47.0	15.3	0.00e+00	0	25	0	2683305984	57	4226
2026-01-08 06:11:40.89	307.68	19.73	-45.9	-47.0	15.3	0.00e+00	0	25	0	2688548864	57	4240
2026-01-08 06:11:41.88	307.48	19.65	-45.8	-46.9	15.3	0.00e+00	0	25	0	2693791744	57	4180
2026-01-08 06:11:42.88	307.28	19.58	-45.8	-46.9	15.3	0.00e+00	0	25	0	2700083200	57	4177
2026-01-08 06:11:43.87	307.09	19.50	-45.7	-46.8	15.3	0.00e+00	0	25	0	2705326080	57	4109
2026-01-08 06:11:44.87	306.89	19.42	-45.6	-46.7	15.4	0.00e+00	0	25	0	2710568960	57	4083
2026-01-08 06:11:45.87	306.69	19.35	-45.6	-46.7	15.4	0.00e+00	0	25	0	2716860416	57	4086
2026-01-08 06:11:46.87	306.50	19.27	-45.6	-46.7	15.4	0.00e+00	0	25	0	2722103296	57	4070
2026-01-08 06:11:47.87	306.31	19.19	-45.7	-46.8	15.3	0.00e+00	0	25	0	2727346176	57	4142
2026-01-08 06:11:48.87	306.11	19.12	-45.6	-46.7	15.4	0.00e+00	0	25	0	2733637632	57	4095
2026-01-08 06:11:49.87	305.92	19.04	-45.6	-46.7	15.4	0.00e+00	0	25	0	2738880512	57	4090
2026-01-08 06:11:50.87	305.73	18.96	-45.7	-46.8	15.4	0.00e+00	0	25	0	2744123392	57	4115
2026-01-08 06:11:51.87	305.54	18.88	-45.7	-46.8	15.4	0.00e+00	0	25	0	2750414848	57	4105
2026-01-08 06:11:52.87	305.36	18.81	-45.7	-46.8	15.3	0.00e+00	0	25	0	2755657728	57	4142
2026-01-08 06:11:53.86	305.17	18.73	-45.6	-46.7	15.4	0.00e+00	0	25	0	2760900608	57	4089
2026-01-08 06:11:54.87	304.98	18.65	-45.6	-46.7	15.4	0.00e+00	0	25	0	2767192064	57	4078
2026-01-08 06:11:55.86	304.80	18.57	-45.5	-46.6	15.4	0.00e+00	0	25	0	2772434944	57	4033
2026-01-08 06:11:56.86	304.61	18.50	-45.5	-46.6	15.4	0.00e+00	0	25	0	2777677824	57	4039
2026-01-08 06:11:57.87	304.43	18.42	-45.6	-46.7	15.4	0.00e+00	0	25	0	2783969280	57	4073
2026-01-08 06:11:58.87	304.25	18.34	-45.7	-46.8	15.3	0.00e+00	0	25	0	2789212160	57	4114
2026-01-08 06:11:59.87	304.06	18.26	-45.8	-46.9	15.3	0.00e+00	0	25	0	2795503616	57	4180
2026-01-08 06:12:00.88	303.88	18.18	-45.8	-46.9	15.3	0.00e+00	0	25	0	2800746496	57	4193
2026-01-08 06:12:01.87	303.70	18.10	-45.9	-47.0	15.3	0.00e+00	0	25	0	2807037952	57	4226
2026-01-08 06:12:02.87	303.52	18.03	-46.0	-47.1	15.2	0.00e+00	0	25	0	2812280832	57	4273
2026-01-08 06:12:03.86	303.35	17.95	-46.1	-47.2	15.2	0.00e+00	0	25	0	2817523712	57	4317
2026-01-08 06:12:04.86	303.17	17.87	-46.1	-47.2	15.2	0.00e+00	0	25	0	2822766592	57	4332
2026-01-08 06:12:05.87	302.99	17.79	-46.0	-47.1	15.2	0.00e+00	0	25	0	2829058048	57	4289
2026-01-08 06:12:06.88	302.82	17.71	-46.0	-47.2	15.2	0.00e+00	0	25	0	2834300928	57	4296
2026-01-08 06:12:07.86	302.65	17.63	-46.0	-47.2	15.2	0.00e+00	0	25	0	2839543808	57	4300
2026-01-08 06:12:08.87	302.47	17.55	-46.0	-47.2	15.2	0.00e+00	0	25	0	2845835264	57	4300
2026-01-08 06:12:09.87	302.30	17.48	-46.0	-47.1	15.2	0.00e+00	0	25	0	2851078144	57	4269
2026-01-08 06:12:10.87	302.13	17.40	-45.9	-47.0	15.3	0.00e+00	0	25	0	2857369600	57	4235
2026-01-08 06:12:11.85	301.96	17.32	-45.9	-47.0	15.2	0.00e+00	0	25	0	2862612480	57	4241
2026-01-08 06:12:12.85	301.79	17.24	-45.9	-47.1	15.3	0.00e+00	0	25	0	2867855360	57	4246
2026-01-08 06:12:13.85	301.62	17.16	-45.9	-47.0	15.3	0.00e+00	0	25	0	2874146816	57	4240
2026-01-08 06:12:14.85	301.45	17.09	-46.1	-47.2	15.2	0.00e+00	0	25	0	2879389696	57	4309
2026-01-08 06:12:15.85	301.29	17.01	-46.0	-47.2	15.2	0.00e+00	0	25	0	2884632576	57	4292
2026-01-08 06:12:16.84	301.12	16.93	-46.1	-47.2	15.2	0.00e+00	0	25	0	2890924032	57	4340
2026-01-08 06:12:17.83	300.96	16.85	-46.2	-47.3	15.2	0.00e+00	0	25	0	2896166912	57	4384
2026-01-08 06:12:18.82	300.80	16.77	-46.3	-47.4	15.2	0.00e+00	0	25	0	2901409792	57	4430
2026-01-08 06:12:19.82	300.63	16.70	-46.3	-47.4	15.1	0.00e+00	0	25	0	2907701248	57	4418
2026-01-08 06:12:20.82	300.47	16.62	-46.3	-47.5	15.1	0.00e+00	0	25	0	2912944128	57	4445
2026-01-08 06:12:21.82	300.31	16.54	-46.4	-47.5	15.2	0.00e+00	0	25	0	2918187008	58	4226
2026-01-08 06:12:22.82	300.15	16.46	-46.5	-47.6	15.2	0.00e+00	0	25	0	2924478464	58	4274
2026-01-08 06:12:23.83	299.99	16.38	-46.5	-47.6	15.2	0.00e+00	0	25	0	2929721344	58	4267
2026-01-08 06:12:24.82	299.83	16.30	-46.5	-47.7	15.1	0.00e+00	0	25	0	2936012800	58	4320
2026-01-08 06:12:25.82	299.67	16.22	-46.5	-47.7	15.1	0.00e+00	0	25	0	2941255680	58	4313
2026-01-08 06:12:26.83	299.51	16.15	-46.6	-47.8	15.1	0.00e+00	0	25	0	2946498560	58	4356
2026-01-08 06:12:27.83	299.35	16.07	-46.5	-47.6	15.2	0.00e+00	0	25	0	2952790016	58	4290
2026-01-08 06:12:28.83	299.20	15.99	-46.5	-47.6	15.2	0.00e+00	0	25	0	2958032896	58	4291
2026-01-08 06:12:29.83	299.04	15.91	-46.6	-47.8	15.1	0.00e+00	0	25	0	2963275776	58	4341
2026-01-08 06:12:30.84	298.89	15.83	-46.7	-47.8	15.1	0.00e+00	0	25	0	2969567232	58	4377
2026-01-08 06:12:31.84	298.73	15.75	-46.6	-47.8	15.1	0.00e+00	0	25	0	2974810112	58	4370
2026-01-08 06:12:32.83	298.58	15.68	-46.7	-47.8	15.1	0.00e+00	0	25	0	2981101568	58	4384
2026-01-08 06:12:33.84	298.43	15.60	-46.7	-47.8	15.1	0.00e+00	0	25	0	2986344448	58	4391
2026-01-08 06:12:34.84	298.28	15.52	-46.7	-47.8	15.1	0.00e+00	0	25	0	2991587328	58	4387
2026-01-08 06:12:35.84	298.13	15.44	-46.7	-47.8	15.1	0.00e+00	0	25	0	2997878784	58	4381
2026-01-08 06:12:36.84	297.98	15.36	-46.7	-47.8	15.1	0.00e+00	0	25	0	3003121664	58	4372
2026-01-08 06:12:37.83	297.83	15.29	-46.7	-47.9	15.1	0.00e+00	0	25	0	3008364544	58	4409
2026-01-08 06:12:38.84	297.68	15.21	-46.7	-47.8	15.1	0.00e+00	0	25	0	3014656000	58	4387
2026-01-08 06:12:39.84	297.54	15.13	-46.8	-48.0	15.1	0.00e+00	0	25	0	3019898880	58	4454
2026-01-08 06:12:40.84	297.39	15.05	-46.8	-48.0	15.0	0.00e+00	0	25	0	3026190336	58	4452
2026-01-08 06:12:41.84	297.24	14.97	-46.8	-48.0	15.1	0.00e+00	0	25	0	3031433216	58	4467
2026-01-08 06:12:42.85	297.10	14.90	-46.8	-48.0	15.1	0.00e+00	0	25	0	3036676096	58	4483
2026-01-08 06:12:43.85	296.95	14.82	-46.9	-48.1	15.1	0.00e+00	0	25	0	3042967552	59	4285
2026-01-08 06:12:44.85	296.81	14.74	-46.8	-48.0	15.2	0.00e+00	0	25	0	3048210432	59	4203
2026-01-08 06:12:45.85	296.67	14.66	-46.7	-47.8	15.2	0.00e+00	0	25	0	3053453312	59	4139
2026-01-08 06:12:46.85	296.53	14.59	-46.7	-47.8	15.2	0.00e+00	0	25	0	3059744768	59	4143
2026-01-08 06:12:47.85	296.39	14.51	-46.8	-47.9	15.2	0.00e+00	0	25	0	3064987648	59	4185
2026-01-08 06:12:48.85	296.25	14.43	-46.9	-48.1	15.1	0.00e+00	0	25	0	3070230528	59	4272
2026-01-08 06:12:49.85	296.11	14.35	-46.8	-48.0	15.1	0.00e+00	0	25	0	3076521984	59	4212
2026-01-08 06:12:50.85	295.97	14.28	-47.0	-48.2	15.1	0.00e+00	0	25	0	3081764864	59	4299
2026-01-08 06:12:51.85	295.83	14.20	-47.1	-48.3	15.1	0.00e+00	0	25	0	3088056320	59	4344
2026-01-08 06:12:52.85	295.69	14.12	-47.0	-48.2	15.1	0.00e+00	0	25	0	3093299200	59	4307
2026-01-08 06:12:53.85	295.56	14.05	-47.1	-48.3	15.1	0.00e+00	0	25	0	3098542080	59	4345
2026-01-08 06:12:54.85	295.42	13.97	-47.0	-48.2	15.1	0.00e+00	0	25	0	3104833536	59	4308
2026-01-08 06:12:55.85	295.29	13.89	-47.1	-48.3	15.1	0.00e+00	0	25	0	3110076416	59	4346
2026-01-08 06:12:56.86	295.15	13.81	-47.1	-48.3	15.0	0.00e+00	0	25	0	3115319296	59	4366
2026-01-08 06:12:57.86	295.02	13.74	-47.0	-48.2	15.1	0.00e+00	0	25	0	3121610752	59	4309
2026-01-08 06:12:58.86	294.88	13.66	-47.1	-48.3	15.0	0.00e+00	0	25	0	3126853632	59	4353
2026-01-08 06:12:59.86	294.75	13.59	-47.2	-48.3	15.0	0.00e+00	0	25	0	3132096512	59	4381
2026-01-08 06:13:00.86	294.62	13.51	-47.2	-48.4	15.0	0.00e+00	0	25	0	3138387968	59	4422
2026-01-08 06:13:01.87	294.49	13.43	-47.2	-48.4	15.0	0.00e+00	0	25	0	3143630848	59	4424
2026-01-08 06:13:02.86	294.36	13.36	-47.2	-48.4	15.0	0.00e+00	0	25	0	3149922304	59	4423
2026-01-08 06:13:03.86	294.23	13.28	-47.2	-48.3	15.0	0.00e+00	0	25	0	3155165184	59	4382
2026-01-08 06:13:04.86	294.10	13.20	-47.2	-48.4	15.0	0.00e+00	0	25	0	3160408064	59	4407
2026-01-08 06:13:05.86	293.97	13.13	-47.3	-48.5	15.0	0.00e+00	0	25	0	3166699520	59	4461
2026-01-08 06:13:06.85	293.85	13.05	-47.3	-48.5	15.0	0.00e+00	0	25	0	3171942400	59	4472
2026-01-08 06:13:07.85	293.72	12.98	-47.4	-48.6	15.0	0.00e+00	0	25	0	3177185280	59	4509
2026-01-08 06:13:08.85	293.59	12.90	-47.2	-48.4	15.1	0.00e+00	0	25	0	3183476736	60	4168
2026-01-08 06:13:09.85	293.47	12.83	-47.5	-48.7	15.0	0.00e+00	0	25	0	3188719616	60	4305
2026-01-08 06:13:10.85	293.34	12.75	-47.3	-48.5	15.0	0.00e+00	0	25	0	3193962496	60	4222
2026-01-08 06:13:11.85	293.22	12.68	-47.2	-48.4	15.1	0.00e+00	0	25	0	3200253952	60	4190
2026-01-08 06:13:12.85	293.10	12.60	-47.4	-48.6	15.0	0.00e+00	0	25	0	3205496832	60	4250
2026-01-08 06:13:13.85	292.97	12.53	-47.3	-48.5	15.0	0.00e+00	0	25	0	3211788288	60	4212
2026-01-08 06:13:14.85	292.85	12.45	-47.4	-48.6	15.0	0.00e+00	0	25	0	3217031168	60	4280
2026-01-08 06:13:15.84	292.73	12.38	-47.3	-48.5	15.0	0.00e+00	0	25	0	3222274048	60	4221
2026-01-08 06:13:16.84	292.61	12.30	-47.4	-48.7	15.0	0.00e+00	0	25	0	3228565504	60	4292
2026-01-08 06:13:17.84	292.49	12.23	-47.3	-48.5	15.0	0.00e+00	0	25	0	3233808384	60	4218
2026-01-08 06:13:18.83	292.37	12.15	-47.3	-48.5	15.0	0.00e+00	0	25	0	3239051264	60	4231
2026-01-08 06:13:19.83	292.25	12.08	-47.4	-48.6	15.0	0.00e+00	0	25	0	3245342720	60	4284
2026-01-08 06:13:20.83	292.13	12.01	-47.5	-48.7	15.0	0.00e+00	0	25	0	3250585600	60	4307
2026-01-08 06:13:21.83	292.01	11.93	-47.4	-48.6	15.0	0.00e+00	0	25	0	3255828480	60	4254
2026-01-08 06:13:22.82	291.90	11.86	-47.4	-48.6	15.0	0.00e+00	0	25	0	3262119936	60	4255
2026-01-08 06:13:23.82	291.78	11.78	-47.4	-48.6	15.0	0.00e+00	0	25	0	3267362816	60	4244
2026-01-08 06:13:24.82	291.67	11.71	-47.3	-48.5	15.0	0.00e+00	0	25	0	3273654272	60	4220
2026-01-08 06:13:25.82	291.55	11.64	-47.4	-48.6	15.0	0.00e+00	0	25	0	3278897152	60	4254
2026-01-08 06:13:26.81	291.44	11.56	-47.4	-48.6	15.0	0.00e+00	0	25	0	3284140032	60	4253
2026-01-08 06:13:27.81	291.32	11.49	-47.3	-48.5	15.0	0.00e+00	0	25	0	3289382912	60	4200
2026-01-08 06:13:28.81	291.21	11.42	-47.3	-48.5	15.0	0.00e+00	0	25	0	3295674368	60	4233
2026-01-08 06:13:29.80	291.10	11.34	-47.3	-48.5	15.0	0.00e+00	0	25	0	3300917248	60	4229
2026-01-08 06:13:30.79	290.99	11.27	-47.3	-48.5	15.0	0.00e+00	0	25	0	3306160128	60	4230
2026-01-08 06:13:31.79	290.87	11.20	-47.5	-48.7	14.9	0.00e+00	0	25	0	3312451584	60	4316
2026-01-08 06:13:32.78	290.76	11.12	-47.5	-48.8	14.9	0.00e+00	0	25	0	3317694464	60	4353
2026-01-08 06:13:33.78	290.65	11.05	-47.5	-48.8	14.9	0.00e+00	0	25	0	3323985920	60	4348
2026-01-08 06:13:34.79	290.54	10.98	-47.7	-48.9	14.9	0.00e+00	0	25	0	3329228800	60	4417
2026-01-08 06:13:35.79	290.43	10.91	-47.7	-48.9	14.8	0.00e+00	0	25	0	3334471680	60	4428
2026-01-08 06:13:36.79	290.32	10.83	-47.7	-48.9	14.9	0.00e+00	0	25	0	3340763136	60	4432
2026-01-08 06:13:37.79	290.21	10.76	-47.6	-48.9	14.9	0.00e+00	0	25	0	3346006016	60	4395
2026-01-08 06:13:38.79	290.11	10.69	-47.7	-49.0	14.8	0.00e+00	0	25	0	3351248896	60	4445
2026-01-08 06:13:39.79	290.00	10.62	-47.6	-48.9	14.9	0.00e+00	0	25	0	3357540352	60	4416
2026-01-08 06:13:40.79	289.89	10.54	-47.7	-48.9	14.8	0.00e+00	0	25	0	3362783232	60	4439
2026-01-08 06:13:41.80	289.78	10.47	-47.7	-49.0	14.8	0.00e+00	0	25	0	3368026112	60	4444
2026-01-08 06:13:42.80	289.68	10.40	-47.7	-48.9	14.8	0.00e+00	0	25	0	3374317568	60	4435
2026-01-08 06:13:43.80	289.57	10.33	-47.8	-49.0	14.8	0.00e+00	0	25	0	3379560448	60	4477
2026-01-08 06:13:44.79	289.47	10.26	-47.7	-48.9	14.8	0.00e+00	0	25	0	3385851904	60	4416
2026-01-08 06:13:45.79	289.36	10.18	-47.7	-49.0	14.8	0.00e+00	0	25	0	3391094784	60	4459
2026-01-08 06:13:46.80	289.26	10.11	-47.9	-49.2	14.7	0.00e+00	0	25	0	3396337664	60	4547
2026-01-08 06:13:47.80	289.16	10.04	-47.9	-49.1	14.9	0.00e+00	0	25	0	3402629120	61	4281
2026-01-08 06:13:48.80	289.05	9.97	-47.9	-49.2	14.8	0.00e+00	0	25	0	3407872000	61	4322
2026-01-08 06:13:49.79	288.95	9.90	-48.0	-49.2	14.8	0.00e+00	0	25	0	3413114880	61	4336
2026-01-08 06:13:50.79	288.85	9.83	-47.9	-49.1	14.8	0.00e+00	0	25	0	3419406336	61	4276
2026-01-08 06:13:51.80	288.75	9.76	-48.0	-49.3	14.8	0.00e+00	0	25	0	3424649216	61	4361
2026-01-08 06:13:52.80	288.65	9.69	-47.9	-49.2	14.8	0.00e+00	0	25	0	3429892096	61	4318
2026-01-08 06:13:53.80	288.55	9.61	-47.9	-49.2	14.8	0.00e+00	0	25	0	3436183552	61	4314
2026-01-08 06:13:54.80	288.45	9.54	-47.9	-49.2	14.8	0.00e+00	0	25	0	3441426432	61	4293
2026-01-08 06:13:55.80	288.35	9.47	-48.0	-49.3	14.8	0.00e+00	0	25	0	3447717888	61	4346
2026-01-08 06:13:56.81	288.25	9.40	-48.0	-49.3	14.8	0.00e+00	0	25	0	3452960768	61	4344
2026-01-08 06:13:57.81	288.15	9.33	-48.0	-49.2	14.8	0.00e+00	0	25	0	3458203648	61	4336
2026-01-08 06:13:58.80	288.05	9.26	-48.0	-49.3	14.8	0.00e+00	0	25	0	3464495104	61	4359
2026-01-08 06:13:59.81	287.96	9.19	-48.1	-49.4	14.7	0.00e+00	0	25	0	3469737984	61	4413
2026-01-08 06:14:00.81	287.86	9.12	-48.1	-49.4	14.7	0.00e+00	0	25	0	3474980864	61	4422
2026-01-08 06:14:01.81	287.76	9.05	-48.2	-49.5	14.7	0.00e+00	0	25	0	3481272320	61	4472
2026-01-08 06:14:02.81	287.67	8.98	-48.3	-49.7	14.6	0.00e+00	0	25	0	3486515200	61	4552
2026-01-08 06:14:03.81	287.57	8.91	-48.3	-49.7	14.6	0.00e+00	0	25	0	3491758080	61	4551
2026-01-08 06:14:04.81	287.48	8.84	-48.5	-49.9	14.7	0.00e+00	0	25	0	3498049536	62	4412
2026-01-08 06:14:05.82	287.38	8.77	-48.4	-49.7	14.7	0.00e+00	0	25	0	3503292416	62	4333
2026-01-08 06:14:06.82	287.29	8.70	-48.3	-49.7	14.7	0.00e+00	0	25	0	3509583872	62	4305
2026-01-08 06:14:07.81	287.19	8.64	-48.4	-49.7	14.7	0.00e+00	0	25	0	3514826752	62	4329
2026-01-08 06:14:08.81	287.10	8.57	-48.4	-49.8	14.7	0.00e+00	0	25	0	3520069632	62	4343
2026-01-08 06:14:09.81	287.01	8.50	-48.4	-49.8	14.7	0.00e+00	0	25	0	3526361088	62	4350
2026-01-08 06:14:10.81	286.92	8.43	-48.5	-49.9	14.6	0.00e+00	0	25	0	3531603968	62	4418
2026-01-08 06:14:11.80	286.83	8.36	-48.5	-49.8	14.6	0.00e+00	0	25	0	3536846848	62	4385
2026-01-08 06:14:12.80	286.73	8.29	-48.5	-49.8	14.7	0.00e+00	0	25	0	3543138304	62	4362
2026-01-08 06:14:13.81	286.64	8.22	-48.5	-49.9	14.6	0.00e+00	0	25	0	3548381184	62	4392
2026-01-08 06:14:14.80	286.55	8.16	-48.4	-49.7	14.7	0.00e+00	0	25	0	3553624064	62	4333
2026-01-08 06:14:15.80	286.46	8.09	-48.4	-49.7	14.7	0.00e+00	0	25	0	3559915520	62	4317
2026-01-08 06:14:16.80	286.37	8.02	-48.3	-49.7	14.7	0.00e+00	0	25	0	3565158400	62	4304
2026-01-08 06:14:17.80	286.29	7.95	-48.4	-49.7	14.7	0.00e+00	0	25	0	3571449856	62	4335
2026-01-08 06:14:18.80	286.20	7.88	-48.4	-49.8	14.6	0.00e+00	0	25	0	3576692736	62	4348
2026-01-08 06:14:19.79	286.11	7.82	-48.2	-49.5	14.8	0.00e+00	0	25	0	3581935616	62	4227
2026-01-08 06:14:20.80	286.02	7.75	-48.3	-49.6	14.7	0.00e+00	0	25	0	3588227072	62	4270
2026-01-08 06:14:21.79	285.93	7.68	-48.3	-49.7	14.7	0.00e+00	0	25	0	3593469952	62	4293
