passes_logs/2026/01/08/R3.2S_Murmansk/R3.2S_Murmansk__20260108_020323_NOAA_20_JPSS-1_rec.log

#Pass ID: 20260108_020323_NOAA 20 (JPSS-1)
#Satellite: NOAA 20 (JPSS-1)
#Configuration: NOAA 20
#almurnet v.1.7.20251203
#Start time: 2026-01-08 02:03:24

#Version: 2.2.20231116
#Station: R3.2S_Murmansk
#Location: 33.079688 lon 68.888172 lat
#TLE: 1 43013U 17073A   26006.30790171  .00000126  00000+0  80695-4 0  9991
#TLE: 2 43013  98.7629 307.3394 0001808  51.8724 308.2615 14.19533762421505

#Time	Az	El	Level	Level2	SNR	BER	BlckErr	Temp	State	Recorded	gain1	gain2
2026-01-08 02:03:24.20	31.07	2.04	-57.4	-73.4	3.8	1.49e+00	0	23	0	0	81	22136
2026-01-08 02:03:25.20	31.04	2.10	-57.4	-73.4	3.8	1.49e+00	0	23	104	0	79	24787
2026-01-08 02:03:26.20	31.01	2.16	-57.4	-73.4	3.8	1.49e+00	0	23	104	0	79	24822
2026-01-08 02:03:27.20	30.98	2.22	-57.4	-73.4	3.8	1.49e+00	0	23	104	0	79	24825
2026-01-08 02:03:28.20	30.95	2.29	-57.4	-73.4	3.8	1.49e+00	0	23	104	0	79	24829
2026-01-08 02:03:29.20	30.92	2.35	-57.4	-73.4	3.8	1.49e+00	0	23	104	0	79	24844
2026-01-08 02:03:30.20	30.89	2.41	-57.4	-73.4	3.8	1.49e+00	0	23	104	0	79	24805
2026-01-08 02:03:31.20	30.86	2.48	-57.4	-73.4	3.8	1.49e+00	0	23	104	0	79	24748
2026-01-08 02:03:32.20	30.83	2.54	-57.4	-73.4	3.8	1.49e+00	0	23	104	0	79	24755
2026-01-08 02:03:33.19	30.80	2.60	-57.4	-73.4	3.8	1.49e+00	0	23	104	0	79	24715
2026-01-08 02:03:34.20	30.77	2.67	-57.4	-73.3	3.8	1.49e+00	0	23	104	0	79	24656
2026-01-08 02:03:35.20	30.74	2.73	-57.4	-73.4	3.8	1.49e+00	0	23	104	0	79	24731
2026-01-08 02:03:36.21	30.70	2.80	-57.4	-73.3	3.8	1.49e+00	0	23	104	0	79	24630
2026-01-08 02:03:37.21	30.67	2.86	-57.4	-73.3	3.8	1.49e+00	0	23	104	0	79	24688
2026-01-08 02:03:38.21	30.64	2.92	-57.4	-73.4	3.8	1.49e+00	0	23	104	0	79	24744
2026-01-08 02:03:39.20	30.61	2.99	-57.4	-73.4	3.8	1.49e+00	0	23	104	0	79	24754
2026-01-08 02:03:40.21	30.58	3.05	-57.4	-73.4	3.8	1.49e+00	0	23	104	0	79	24787
2026-01-08 02:03:41.21	30.55	3.12	-57.4	-73.4	3.8	1.49e+00	0	23	104	0	79	24789
2026-01-08 02:03:42.21	30.52	3.18	-57.4	-73.4	3.8	1.49e+00	0	23	104	0	79	24812
2026-01-08 02:03:43.21	30.48	3.25	-57.4	-73.3	3.8	1.49e+00	0	23	104	0	79	24645
2026-01-08 02:03:44.21	30.45	3.31	-57.4	-73.3	3.8	1.49e+00	0	23	104	0	79	24643
2026-01-08 02:03:45.22	30.42	3.38	-57.4	-73.3	3.8	1.49e+00	0	23	104	0	79	24685
2026-01-08 02:03:46.22	30.39	3.44	-57.4	-73.3	3.8	1.49e+00	0	23	104	0	79	24613
2026-01-08 02:03:47.21	30.35	3.51	-57.4	-73.3	3.8	1.49e+00	0	23	104	0	79	24481
2026-01-08 02:03:48.21	30.32	3.57	-57.4	-73.2	3.8	1.49e+00	0	23	104	0	79	24281
2026-01-08 02:03:49.20	30.29	3.64	-57.4	-73.1	3.8	1.49e+00	0	23	104	0	79	23860
2026-01-08 02:03:50.20	30.25	3.70	-57.4	-72.8	3.8	1.49e+00	0	23	104	0	79	23241
2026-01-08 02:03:51.20	30.22	3.77	-57.4	-72.5	3.8	1.49e+00	0	23	104	0	79	22508
2026-01-08 02:03:52.20	30.19	3.84	-57.3	-72.2	3.8	1.49e+00	0	23	104	0	79	21580
2026-01-08 02:03:53.20	30.15	3.90	-57.3	-72.0	3.8	1.49e+00	0	24	104	0	79	21141
2026-01-08 02:03:54.20	30.12	3.97	-57.3	-71.8	3.8	1.49e+00	0	24	104	0	79	20742
2026-01-08 02:03:55.20	30.09	4.04	-57.3	-71.8	3.8	1.49e+00	0	24	104	0	79	20591
2026-01-08 02:03:56.19	30.05	4.10	-57.3	-71.5	3.8	1.49e+00	0	23	104	0	79	19842
2026-01-08 02:03:57.19	30.02	4.17	-57.3	-71.4	3.9	1.49e+00	0	23	104	0	79	19730
2026-01-08 02:03:58.19	29.98	4.24	-57.3	-71.3	3.8	1.49e+00	0	24	104	0	79	19447
2026-01-08 02:03:59.18	29.95	4.30	-57.3	-71.0	4.0	1.48e+00	0	24	104	0	79	18744
2026-01-08 02:04:00.17	29.91	4.37	-57.3	-70.8	3.8	1.47e+00	0	23	104	0	79	18373
2026-01-08 02:04:01.17	29.88	4.44	-57.2	-70.4	3.9	1.45e+00	0	23	104	0	79	17591
2026-01-08 02:04:02.17	29.84	4.51	-57.2	-69.3	4.3	1.39e+00	31	24	0	0	79	15463
2026-01-08 02:04:03.16	29.81	4.57	-57.1	-68.8	4.5	1.28e+00	0	24	0	1048576	79	14650
2026-01-08 02:04:04.16	29.77	4.64	-57.1	-67.8	4.9	7.90e-01	0	24	0	3145728	79	12968
2026-01-08 02:04:05.16	29.74	4.71	-56.9	-66.6	5.6	5.09e-01	0	24	0	5242880	79	11371
2026-01-08 02:04:06.16	29.70	4.78	-56.8	-65.6	6.2	2.86e-01	0	24	0	7340032	79	10137
2026-01-08 02:04:07.16	29.66	4.85	-56.7	-64.7	7.0	1.41e-01	0	24	0	8388608	79	9173
2026-01-08 02:04:08.15	29.63	4.91	-56.6	-64.4	7.3	1.12e-01	0	24	0	10485760	79	8806
2026-01-08 02:04:09.15	29.59	4.98	-56.5	-63.9	7.7	7.92e-02	0	24	0	12582912	79	8285
2026-01-08 02:04:10.15	29.55	5.05	-56.5	-63.8	7.9	5.99e-02	0	24	0	14680064	79	8203
2026-01-08 02:04:11.15	29.52	5.12	-57.3	-69.3	4.4	1.09e+00	68	24	0	15728640	79	15518
2026-01-08 02:04:12.15	29.48	5.19	-57.3	-67.9	4.9	9.73e-01	0	24	0	17825792	79	13209
2026-01-08 02:04:13.15	29.44	5.26	-56.7	-65.1	6.5	6.22e-02	0	24	0	19922944	79	9501
2026-01-08 02:04:14.15	29.40	5.33	-54.6	-58.3	12.4	0.00e+00	0	24	0	22020096	75	5478
2026-01-08 02:04:15.15	29.37	5.40	-57.1	-69.1	4.3	7.29e-01	27	24	0	23068672	79	15122
2026-01-08 02:04:16.15	29.33	5.47	-54.3	-57.8	12.6	1.53e-02	0	24	0	25165824	75	5166
2026-01-08 02:04:17.15	29.29	5.54	-53.5	-56.2	13.5	0.00e+00	0	24	0	27262976	73	4864
2026-01-08 02:04:18.16	29.25	5.61	-52.9	-55.4	13.9	0.00e+00	0	24	0	29360128	72	4672
2026-01-08 02:04:19.15	29.21	5.68	-52.9	-55.4	14.0	0.00e+00	0	24	0	30408704	72	4654
2026-01-08 02:04:20.15	29.17	5.75	-52.8	-55.2	14.0	0.00e+00	0	24	0	32505856	72	4588
2026-01-08 02:04:21.15	29.13	5.82	-52.9	-55.3	14.0	0.00e+00	0	24	0	34603008	72	4631
2026-01-08 02:04:22.15	29.10	5.90	-52.7	-55.1	14.1	0.00e+00	0	24	0	36700160	72	4519
2026-01-08 02:04:23.14	29.06	5.97	-52.8	-55.2	13.9	0.00e+00	0	24	0	38797312	71	4840
2026-01-08 02:04:24.14	29.02	6.04	-52.8	-55.2	13.9	0.00e+00	0	24	0	39845888	71	4838
2026-01-08 02:04:25.14	28.98	6.11	-52.8	-55.2	13.9	0.00e+00	0	24	0	41943040	71	4839
2026-01-08 02:04:26.14	28.94	6.18	-52.7	-55.0	14.1	0.00e+00	0	24	0	44040192	71	4746
2026-01-08 02:04:27.14	28.90	6.25	-52.7	-55.1	14.0	0.00e+00	0	24	0	46137344	71	4784
2026-01-08 02:04:28.13	28.86	6.32	-52.6	-54.9	14.1	0.00e+00	0	24	0	47185920	71	4669
2026-01-08 02:04:29.14	28.82	6.40	-52.7	-55.0	14.1	0.00e+00	0	24	0	49283072	71	4748
2026-01-08 02:04:30.13	28.77	6.47	-52.6	-54.9	14.1	0.00e+00	0	24	0	51380224	71	4690
2026-01-08 02:04:31.13	28.73	6.54	-52.6	-55.0	14.1	0.00e+00	0	24	0	53477376	71	4708
2026-01-08 02:04:32.12	28.69	6.61	-52.6	-54.9	14.1	0.00e+00	0	24	0	55574528	71	4676
2026-01-08 02:04:33.12	28.65	6.69	-52.6	-54.9	14.1	0.00e+00	0	24	0	56623104	71	4704
2026-01-08 02:04:34.12	28.61	6.76	-52.7	-55.0	14.1	0.00e+00	0	24	0	58720256	71	4709
2026-01-08 02:04:35.12	28.57	6.83	-52.6	-54.8	14.2	0.00e+00	0	24	0	60817408	71	4645
2026-01-08 02:04:36.11	28.52	6.91	-52.7	-55.0	14.1	0.00e+00	0	24	0	62914560	71	4715
2026-01-08 02:04:37.11	28.48	6.98	-52.6	-54.8	14.2	0.00e+00	0	24	0	65011712	71	4625
2026-01-08 02:04:38.11	28.44	7.06	-52.6	-54.8	14.2	0.00e+00	0	24	0	66060288	71	4641
2026-01-08 02:04:39.12	28.40	7.13	-52.6	-54.9	14.2	0.00e+00	0	24	0	68157440	71	4664
2026-01-08 02:04:40.11	28.35	7.20	-52.6	-54.9	14.2	0.00e+00	0	24	0	70254592	71	4657
2026-01-08 02:04:41.10	28.31	7.28	-52.6	-54.9	14.2	0.00e+00	0	24	0	72351744	71	4670
2026-01-08 02:04:42.10	28.27	7.35	-52.6	-54.9	14.2	0.00e+00	0	24	0	74448896	71	4676
2026-01-08 02:04:43.10	28.22	7.43	-52.5	-54.7	14.3	0.00e+00	0	24	0	75497472	71	4567
2026-01-08 02:04:44.10	28.18	7.50	-52.5	-54.7	14.3	0.00e+00	0	24	0	77594624	71	4587
2026-01-08 02:04:45.10	28.13	7.58	-52.5	-54.7	14.3	0.00e+00	0	24	0	79691776	71	4582
2026-01-08 02:04:46.09	28.09	7.65	-52.6	-54.8	14.2	0.00e+00	0	24	0	81788928	71	4629
2026-01-08 02:04:47.09	28.04	7.73	-52.5	-54.6	14.3	0.00e+00	0	24	0	82837504	71	4545
2026-01-08 02:04:48.09	28.00	7.81	-52.5	-54.7	14.3	0.00e+00	0	24	0	84934656	71	4591
2026-01-08 02:04:49.09	27.95	7.88	-52.5	-54.7	14.3	0.00e+00	0	24	0	87031808	71	4581
2026-01-08 02:04:50.09	27.91	7.96	-52.5	-54.6	14.4	0.00e+00	0	24	0	89128960	71	4530
2026-01-08 02:04:51.09	27.86	8.04	-52.5	-54.6	14.4	0.00e+00	0	24	0	91226112	71	4542
2026-01-08 02:04:52.08	27.81	8.11	-52.5	-54.6	14.4	0.00e+00	0	24	0	92274688	71	4530
2026-01-08 02:04:53.08	27.77	8.19	-52.5	-54.7	14.4	0.00e+00	0	24	0	94371840	71	4560
2026-01-08 02:04:54.08	27.72	8.27	-52.4	-54.6	14.4	0.00e+00	0	24	0	96468992	71	4497
2026-01-08 02:04:55.07	27.67	8.34	-52.5	-54.7	14.3	0.00e+00	0	24	0	98566144	71	4553
2026-01-08 02:04:56.08	27.63	8.42	-52.4	-54.6	14.4	0.00e+00	0	24	0	99614720	71	4522
2026-01-08 02:04:57.07	27.58	8.50	-52.5	-54.6	14.4	0.00e+00	0	24	0	101711872	71	4542
2026-01-08 02:04:58.07	27.53	8.58	-52.4	-54.5	14.4	0.00e+00	0	24	0	103809024	71	4479
2026-01-08 02:04:59.06	27.48	8.66	-52.5	-54.6	14.4	0.00e+00	0	24	0	105906176	71	4544
2026-01-08 02:05:00.06	27.43	8.74	-52.4	-54.5	14.4	0.00e+00	0	24	0	108003328	71	4478
2026-01-08 02:05:01.06	27.38	8.81	-52.4	-54.5	14.5	0.00e+00	0	24	0	109051904	71	4455
2026-01-08 02:05:02.06	27.34	8.89	-52.4	-54.6	14.4	0.00e+00	0	24	0	111149056	71	4504
2026-01-08 02:05:03.06	27.29	8.97	-52.4	-54.6	14.4	0.00e+00	0	24	0	113246208	71	4515
2026-01-08 02:05:04.06	27.24	9.05	-52.6	-54.8	14.3	0.00e+00	0	24	0	115343360	71	4614
2026-01-08 02:05:05.06	27.19	9.13	-52.4	-54.5	14.5	0.00e+00	0	24	0	117440512	71	4455
2026-01-08 02:05:06.06	27.14	9.21	-52.5	-54.7	14.3	0.00e+00	0	24	0	118489088	71	4554
2026-01-08 02:05:07.06	27.09	9.29	-52.7	-54.9	14.3	0.00e+00	0	24	0	120586240	71	4666
2026-01-08 02:05:08.05	27.03	9.37	-52.4	-54.6	14.4	0.00e+00	0	24	0	122683392	71	4508
2026-01-08 02:05:09.05	26.98	9.45	-52.3	-54.4	14.5	0.00e+00	0	24	0	124780544	71	4422
2026-01-08 02:05:10.06	26.93	9.54	-52.3	-54.4	14.5	0.00e+00	0	24	0	125829120	71	4421
2026-01-08 02:05:11.05	26.88	9.62	-52.4	-54.5	14.5	0.00e+00	0	24	0	127926272	71	4475
2026-01-08 02:05:12.05	26.83	9.70	-52.3	-54.4	14.5	0.00e+00	0	24	0	130023424	71	4407
2026-01-08 02:05:13.06	26.78	9.78	-52.3	-54.4	14.5	0.00e+00	0	24	0	132120576	71	4414
2026-01-08 02:05:14.05	26.72	9.86	-52.4	-54.5	14.5	0.00e+00	0	24	0	134217728	71	4487
2026-01-08 02:05:15.05	26.67	9.94	-52.4	-54.5	14.5	0.00e+00	0	24	0	135266304	71	4451
2026-01-08 02:05:16.06	26.62	10.03	-52.2	-54.3	14.6	0.00e+00	0	24	0	137363456	71	4361
2026-01-08 02:05:17.06	26.56	10.11	-52.2	-54.3	14.6	0.00e+00	0	24	0	139460608	71	4355
2026-01-08 02:05:18.06	26.51	10.19	-52.2	-54.2	14.6	0.00e+00	0	24	0	141557760	71	4327
2026-01-08 02:05:19.06	26.45	10.28	-52.3	-54.3	14.6	0.00e+00	0	24	0	143654912	71	4362
2026-01-08 02:05:20.06	26.40	10.36	-52.2	-54.2	14.7	0.00e+00	0	24	0	144703488	71	4323
2026-01-08 02:05:21.05	26.34	10.44	-52.1	-54.2	14.5	0.00e+00	0	24	0	146800640	70	4549
2026-01-08 02:05:22.06	26.29	10.53	-52.1	-54.1	14.6	0.00e+00	0	24	0	148897792	70	4513
2026-01-08 02:05:23.06	26.23	10.61	-52.2	-54.2	14.5	0.00e+00	0	24	0	150994944	70	4558
2026-01-08 02:05:24.06	26.18	10.70	-52.0	-54.0	14.6	0.00e+00	0	24	0	153092096	70	4453
2026-01-08 02:05:25.06	26.12	10.78	-52.0	-54.0	14.6	0.00e+00	0	24	0	154140672	70	4454
2026-01-08 02:05:26.06	26.06	10.87	-52.0	-54.0	14.6	0.00e+00	0	24	0	156237824	70	4455
2026-01-08 02:05:27.07	26.01	10.95	-52.0	-54.0	14.6	0.00e+00	0	24	0	158334976	70	4462
2026-01-08 02:05:28.07	25.95	11.04	-52.0	-53.9	14.7	0.00e+00	0	24	0	160432128	70	4424
2026-01-08 02:05:29.07	25.89	11.13	-52.0	-53.9	14.7	0.00e+00	0	24	0	161480704	70	4432
2026-01-08 02:05:30.07	25.83	11.21	-52.0	-54.0	14.6	0.00e+00	0	24	0	163577856	70	4452
2026-01-08 02:05:31.07	25.77	11.30	-52.0	-53.9	14.7	0.00e+00	0	24	0	165675008	70	4404
2026-01-08 02:05:32.07	25.71	11.39	-51.9	-53.7	14.8	0.00e+00	0	24	0	167772160	70	4338
2026-01-08 02:05:33.06	25.65	11.47	-51.8	-53.7	14.8	0.00e+00	0	24	0	169869312	70	4318
2026-01-08 02:05:34.06	25.60	11.56	-51.9	-53.8	14.8	0.00e+00	0	24	0	170917888	70	4359
2026-01-08 02:05:35.06	25.53	11.65	-51.9	-53.8	14.7	0.00e+00	0	24	0	173015040	70	4373
2026-01-08 02:05:36.06	25.47	11.73	-51.9	-53.8	14.7	0.00e+00	0	24	0	175112192	70	4367
2026-01-08 02:05:37.06	25.41	11.82	-51.9	-53.8	14.8	0.00e+00	0	24	0	177209344	70	4347
2026-01-08 02:05:38.06	25.35	11.91	-51.9	-53.8	14.8	0.00e+00	0	24	0	179306496	70	4349
2026-01-08 02:05:39.05	25.29	12.00	-51.8	-53.7	14.8	0.00e+00	0	24	0	180355072	70	4319
2026-01-08 02:05:40.05	25.23	12.09	-51.9	-53.7	14.8	0.00e+00	0	24	0	182452224	70	4340
2026-01-08 02:05:41.05	25.17	12.18	-51.9	-53.8	14.8	0.00e+00	0	24	0	184549376	70	4346
2026-01-08 02:05:42.05	25.10	12.27	-51.7	-53.6	14.9	0.00e+00	0	24	0	186646528	70	4263
2026-01-08 02:05:43.04	25.04	12.36	-51.8	-53.7	14.8	0.00e+00	0	24	0	187695104	70	4296
2026-01-08 02:05:44.04	24.98	12.45	-51.9	-53.7	14.8	0.00e+00	0	24	0	189792256	70	4339
2026-01-08 02:05:45.04	24.91	12.54	-51.9	-53.7	14.8	0.00e+00	0	24	0	191889408	70	4337
2026-01-08 02:05:46.04	24.85	12.63	-51.8	-53.7	14.8	0.00e+00	0	24	0	193986560	70	4324
2026-01-08 02:05:47.03	24.78	12.72	-51.8	-53.7	14.8	0.00e+00	0	24	0	196083712	70	4320
2026-01-08 02:05:48.03	24.72	12.81	-51.6	-53.5	14.7	0.00e+00	0	25	0	197132288	69	4458
2026-01-08 02:05:49.02	24.65	12.90	-51.6	-53.4	14.8	0.00e+00	0	24	0	199229440	69	4414
2026-01-08 02:05:50.02	24.59	12.99	-51.6	-53.4	14.8	0.00e+00	0	25	0	201326592	69	4415
2026-01-08 02:05:51.02	24.52	13.08	-51.7	-53.5	14.8	0.00e+00	0	24	0	203423744	69	4460
2026-01-08 02:05:52.02	24.45	13.18	-51.6	-53.5	14.8	0.00e+00	0	24	0	205520896	69	4459
2026-01-08 02:05:53.02	24.39	13.27	-51.6	-53.4	14.8	0.00e+00	0	24	0	206569472	69	4439
2026-01-08 02:05:54.01	24.32	13.36	-51.5	-53.4	14.8	0.00e+00	0	24	0	208666624	69	4392
2026-01-08 02:05:55.01	24.25	13.46	-51.6	-53.5	14.8	0.00e+00	0	24	0	210763776	69	4449
2026-01-08 02:05:56.01	24.18	13.55	-51.7	-53.5	14.7	0.00e+00	0	24	0	212860928	69	4465
2026-01-08 02:05:57.00	24.11	13.64	-51.6	-53.4	14.8	0.00e+00	0	24	0	213909504	69	4437
2026-01-08 02:05:58.01	24.04	13.74	-51.5	-53.4	14.8	0.00e+00	0	24	0	216006656	69	4396
2026-01-08 02:05:59.00	23.97	13.83	-51.6	-53.4	14.8	0.00e+00	0	25	0	218103808	69	4395
2026-01-08 02:06:00.00	23.90	13.93	-51.6	-53.4	14.8	0.00e+00	0	24	0	220200960	69	4430
2026-01-08 02:06:00.99	23.83	14.02	-51.6	-53.4	14.8	0.00e+00	0	24	0	222298112	69	4403
2026-01-08 02:06:01.99	23.76	14.12	-51.6	-53.3	14.8	0.00e+00	0	24	0	223346688	69	4387
2026-01-08 02:06:02.98	23.69	14.21	-51.5	-53.3	14.8	0.00e+00	0	24	0	225443840	69	4385
2026-01-08 02:06:03.98	23.61	14.31	-51.6	-53.4	14.8	0.00e+00	0	24	0	227540992	69	4393
2026-01-08 02:06:04.99	23.54	14.41	-51.5	-53.3	14.8	0.00e+00	0	24	0	229638144	69	4387
2026-01-08 02:06:05.99	23.47	14.50	-51.5	-53.3	14.9	0.00e+00	0	24	0	230686720	69	4349
2026-01-08 02:06:06.98	23.39	14.60	-51.6	-53.4	14.8	0.00e+00	0	24	0	232783872	69	4402
2026-01-08 02:06:07.97	23.32	14.70	-51.5	-53.2	14.9	0.00e+00	0	24	0	234881024	69	4325
2026-01-08 02:06:08.98	23.24	14.80	-51.5	-53.2	14.9	0.00e+00	0	24	0	236978176	69	4339
2026-01-08 02:06:09.97	23.17	14.89	-51.6	-53.4	14.8	0.00e+00	0	24	0	239075328	69	4394
2026-01-08 02:06:10.97	23.09	14.99	-51.5	-53.3	14.8	0.00e+00	0	24	0	240123904	69	4380
2026-01-08 02:06:11.97	23.02	15.09	-51.5	-53.3	14.8	0.00e+00	0	24	0	242221056	69	4382
2026-01-08 02:06:12.97	22.94	15.19	-51.6	-53.4	14.8	0.00e+00	0	24	0	244318208	69	4431
2026-01-08 02:06:13.97	22.86	15.29	-51.7	-53.5	14.8	0.00e+00	0	24	0	246415360	69	4459
2026-01-08 02:06:14.97	22.78	15.39	-51.6	-53.4	14.8	0.00e+00	0	25	0	248512512	69	4412
2026-01-08 02:06:15.97	22.70	15.49	-51.7	-53.5	14.8	0.00e+00	0	24	0	249561088	69	4451
2026-01-08 02:06:16.96	22.62	15.59	-51.6	-53.4	14.8	0.00e+00	0	25	0	251658240	69	4427
2026-01-08 02:06:17.96	22.54	15.69	-51.6	-53.4	14.8	0.00e+00	0	25	0	253755392	69	4410
2026-01-08 02:06:18.96	22.46	15.80	-51.6	-53.4	14.8	0.00e+00	0	25	0	255852544	69	4441
2026-01-08 02:06:19.96	22.38	15.90	-51.6	-53.4	14.8	0.00e+00	0	24	0	256901120	69	4434
2026-01-08 02:06:20.96	22.30	16.00	-51.6	-53.3	14.8	0.00e+00	0	24	0	258998272	69	4390
2026-01-08 02:06:21.96	22.22	16.10	-51.5	-53.3	14.9	0.00e+00	0	25	0	261095424	69	4368
2026-01-08 02:06:22.96	22.13	16.21	-51.6	-53.4	14.8	0.00e+00	0	25	0	263192576	69	4408
2026-01-08 02:06:23.96	22.05	16.31	-51.6	-53.4	14.8	0.00e+00	0	24	0	265289728	69	4405
2026-01-08 02:06:24.96	21.97	16.41	-51.5	-53.3	14.9	0.00e+00	0	25	0	266338304	69	4376
2026-01-08 02:06:25.96	21.88	16.52	-51.5	-53.3	14.9	0.00e+00	0	24	0	268435456	69	4355
2026-01-08 02:06:26.96	21.80	16.62	-51.5	-53.3	14.9	0.00e+00	0	24	0	270532608	69	4372
2026-01-08 02:06:27.96	21.71	16.73	-51.5	-53.3	14.9	0.00e+00	0	25	0	272629760	69	4365
2026-01-08 02:06:28.96	21.62	16.83	-51.5	-53.3	14.9	0.00e+00	0	25	0	274726912	69	4366
2026-01-08 02:06:29.95	21.54	16.94	-51.5	-53.3	14.9	0.00e+00	0	24	0	275775488	69	4360
2026-01-08 02:06:30.95	21.45	17.04	-51.6	-53.3	14.9	0.00e+00	0	24	0	277872640	69	4376
2026-01-08 02:06:31.94	21.36	17.15	-51.6	-53.4	14.8	0.00e+00	0	24	0	279969792	69	4406
2026-01-08 02:06:32.94	21.27	17.26	-51.5	-53.2	14.9	0.00e+00	0	25	0	282066944	69	4339
2026-01-08 02:06:33.94	21.18	17.36	-51.6	-53.3	14.9	0.00e+00	0	25	0	283115520	69	4387
2026-01-08 02:06:34.94	21.09	17.47	-51.6	-53.3	14.9	0.00e+00	0	25	0	285212672	69	4382
2026-01-08 02:06:35.93	21.00	17.58	-51.5	-53.3	14.9	0.00e+00	0	25	0	287309824	69	4355
2026-01-08 02:06:36.92	20.91	17.69	-51.5	-53.3	14.9	0.00e+00	0	25	0	289406976	69	4347
2026-01-08 02:06:37.92	20.82	17.79	-51.5	-53.3	14.9	0.00e+00	0	25	0	291504128	69	4354
2026-01-08 02:06:38.92	20.72	17.90	-51.6	-53.3	14.9	0.00e+00	0	25	0	292552704	69	4367
2026-01-08 02:06:39.92	20.63	18.01	-51.6	-53.4	14.8	0.00e+00	0	24	0	294649856	69	4409
2026-01-08 02:06:40.92	20.53	18.12	-51.6	-53.4	14.8	0.00e+00	0	24	0	296747008	69	4398
2026-01-08 02:06:41.92	20.44	18.23	-51.6	-53.3	14.9	0.00e+00	0	25	0	298844160	69	4387
2026-01-08 02:06:42.91	20.34	18.34	-51.6	-53.4	14.8	0.00e+00	0	24	0	300941312	69	4425
2026-01-08 02:06:43.91	20.25	18.46	-51.7	-53.5	14.8	0.00e+00	0	24	0	301989888	69	4471
2026-01-08 02:06:44.91	20.15	18.57	-51.7	-53.5	14.8	0.00e+00	0	24	0	304087040	69	4457
2026-01-08 02:06:45.91	20.05	18.68	-51.8	-53.6	14.8	0.00e+00	0	25	0	306184192	69	4499
2026-01-08 02:06:46.91	19.95	18.79	-51.9	-53.7	14.7	0.00e+00	0	25	0	308281344	69	4571
2026-01-08 02:06:47.90	19.85	18.90	-51.8	-53.6	14.7	0.00e+00	0	25	0	309329920	69	4501
2026-01-08 02:06:48.90	19.75	19.02	-51.8	-53.6	14.7	0.00e+00	0	25	0	311427072	69	4536
2026-01-08 02:06:49.89	19.65	19.13	-51.8	-53.6	14.7	0.00e+00	0	24	0	313524224	69	4544
2026-01-08 02:06:50.89	19.55	19.25	-51.9	-53.7	14.7	0.00e+00	0	25	0	315621376	69	4571
2026-01-08 02:06:51.89	19.44	19.36	-51.9	-53.7	14.7	0.00e+00	0	24	0	317718528	69	4571
2026-01-08 02:06:52.89	19.34	19.48	-51.9	-53.8	14.7	0.00e+00	0	24	0	318767104	69	4608
2026-01-08 02:06:53.89	19.24	19.59	-51.9	-53.8	14.7	0.00e+00	0	25	0	320864256	69	4606
2026-01-08 02:06:54.89	19.13	19.71	-51.9	-53.8	14.7	0.00e+00	0	24	0	322961408	69	4610
2026-01-08 02:06:55.89	19.02	19.82	-52.0	-53.8	14.6	0.00e+00	0	24	0	325058560	69	4651
2026-01-08 02:06:56.88	18.92	19.94	-52.0	-53.9	14.6	0.00e+00	0	24	0	326107136	69	4690
2026-01-08 02:06:57.88	18.81	20.06	-52.1	-54.0	14.5	0.00e+00	0	25	0	328204288	69	4753
2026-01-08 02:06:58.87	18.70	20.17	-52.2	-54.1	14.5	0.00e+00	0	25	0	330301440	69	4803
2026-01-08 02:06:59.87	18.59	20.29	-52.2	-54.1	14.5	0.00e+00	0	25	0	332398592	69	4808
2026-01-08 02:07:00.86	18.48	20.41	-52.2	-54.1	14.5	0.00e+00	0	25	0	334495744	69	4809
2026-01-08 02:07:01.84	18.37	20.53	-52.2	-54.1	14.5	0.00e+00	0	25	0	335544320	69	4804
2026-01-08 02:07:02.83	18.26	20.64	-52.2	-54.1	14.5	0.00e+00	0	24	0	337641472	69	4800
2026-01-08 02:07:03.83	18.15	20.76	-52.2	-54.1	14.5	0.00e+00	0	25	0	339738624	69	4796
2026-01-08 02:07:04.82	18.03	20.88	-52.2	-54.2	14.5	0.00e+00	0	24	0	341835776	69	4817
2026-01-08 02:07:05.82	17.92	21.00	-52.3	-54.3	14.4	0.00e+00	0	25	0	342884352	69	4878
2026-01-08 02:07:06.82	17.80	21.13	-52.4	-54.3	14.5	0.00e+00	0	25	0	344981504	70	4632
2026-01-08 02:07:07.81	17.69	21.25	-52.4	-54.3	14.5	0.00e+00	0	25	0	347078656	70	4627
2026-01-08 02:07:08.81	17.57	21.37	-52.3	-54.2	14.6	0.00e+00	0	24	0	349175808	70	4549
2026-01-08 02:07:09.81	17.45	21.49	-52.4	-54.3	14.5	0.00e+00	0	25	0	351272960	70	4645
2026-01-08 02:07:10.80	17.33	21.61	-52.4	-54.3	14.5	0.00e+00	0	25	0	352321536	70	4634
2026-01-08 02:07:11.80	17.21	21.74	-52.5	-54.5	14.4	0.00e+00	0	25	0	354418688	70	4722
2026-01-08 02:07:12.80	17.09	21.86	-52.4	-54.4	14.5	0.00e+00	0	25	0	356515840	70	4678
2026-01-08 02:07:13.80	16.97	21.99	-52.5	-54.5	14.5	0.00e+00	0	25	0	358612992	70	4742
2026-01-08 02:07:14.81	16.84	22.11	-52.6	-54.6	14.4	0.00e+00	0	25	0	360710144	70	4761
2026-01-08 02:07:15.80	16.72	22.24	-52.5	-54.5	14.5	0.00e+00	0	25	0	361758720	70	4718
2026-01-08 02:07:16.79	16.59	22.36	-52.6	-54.6	14.4	0.00e+00	0	24	0	363855872	70	4771
2026-01-08 02:07:17.80	16.46	22.49	-52.6	-54.6	14.4	0.00e+00	0	25	0	365953024	70	4761
2026-01-08 02:07:18.80	16.34	22.62	-52.5	-54.4	14.5	0.00e+00	0	24	0	368050176	70	4696
2026-01-08 02:07:19.80	16.21	22.74	-52.5	-54.5	14.4	0.00e+00	0	24	0	370147328	70	4739
2026-01-08 02:07:20.80	16.08	22.87	-52.5	-54.4	14.5	0.00e+00	0	25	0	371195904	70	4690
2026-01-08 02:07:21.80	15.94	23.00	-52.4	-54.3	14.5	0.00e+00	0	25	0	373293056	70	4642
2026-01-08 02:07:22.80	15.81	23.13	-52.5	-54.4	14.5	0.00e+00	0	25	0	375390208	70	4694
2026-01-08 02:07:23.79	15.68	23.26	-52.6	-54.6	14.4	0.00e+00	0	25	0	377487360	70	4769
2026-01-08 02:07:24.79	15.54	23.39	-52.6	-54.6	14.4	0.00e+00	0	25	0	378535936	70	4760
2026-01-08 02:07:25.79	15.41	23.52	-52.6	-54.6	14.4	0.00e+00	0	25	0	380633088	70	4767
2026-01-08 02:07:26.79	15.27	23.65	-52.6	-54.6	14.4	0.00e+00	0	25	0	382730240	70	4791
2026-01-08 02:07:27.78	15.13	23.78	-52.6	-54.6	14.4	0.00e+00	0	25	0	384827392	70	4770
2026-01-08 02:07:28.78	14.99	23.91	-52.5	-54.5	14.4	0.00e+00	0	25	0	386924544	70	4748
2026-01-08 02:07:29.78	14.85	24.04	-52.5	-54.5	14.5	0.00e+00	0	25	0	387973120	70	4708
2026-01-08 02:07:30.79	14.71	24.18	-52.4	-54.3	14.6	0.00e+00	0	25	0	390070272	70	4617
2026-01-08 02:07:31.79	14.57	24.31	-52.3	-54.3	14.6	0.00e+00	0	25	0	392167424	70	4602
2026-01-08 02:07:32.79	14.42	24.44	-52.3	-54.1	14.6	0.00e+00	0	25	0	394264576	70	4540
2026-01-08 02:07:33.79	14.28	24.58	-52.3	-54.2	14.6	0.00e+00	0	25	0	395313152	70	4581
2026-01-08 02:07:34.79	14.13	24.71	-52.2	-54.1	14.7	0.00e+00	0	25	0	397410304	70	4500
2026-01-08 02:07:35.80	13.98	24.85	-52.2	-54.1	14.7	0.00e+00	0	25	0	399507456	70	4500
2026-01-08 02:07:36.79	13.83	24.98	-52.2	-54.1	14.7	0.00e+00	0	25	0	401604608	70	4504
2026-01-08 02:07:37.79	13.68	25.12	-52.3	-54.2	14.6	0.00e+00	0	25	0	403701760	70	4564
2026-01-08 02:07:38.79	13.53	25.25	-52.3	-54.1	14.7	0.00e+00	0	25	0	404750336	70	4529
2026-01-08 02:07:39.79	13.38	25.39	-52.3	-54.2	14.6	0.00e+00	0	25	0	406847488	70	4560
2026-01-08 02:07:40.79	13.22	25.53	-52.3	-54.3	14.6	0.00e+00	0	25	0	408944640	70	4599
2026-01-08 02:07:41.79	13.06	25.67	-52.3	-54.3	14.6	0.00e+00	0	25	0	411041792	70	4599
2026-01-08 02:07:42.78	12.91	25.80	-52.4	-54.3	14.6	0.00e+00	0	25	0	413138944	70	4641
2026-01-08 02:07:43.78	12.75	25.94	-52.4	-54.3	14.6	0.00e+00	0	25	0	414187520	70	4616
2026-01-08 02:07:44.79	12.59	26.08	-52.3	-54.2	14.6	0.00e+00	0	25	0	416284672	70	4565
2026-01-08 02:07:45.79	12.43	26.22	-52.4	-54.3	14.6	0.00e+00	0	24	0	418381824	70	4631
2026-01-08 02:07:46.78	12.26	26.36	-52.4	-54.4	14.5	0.00e+00	0	25	0	420478976	70	4669
2026-01-08 02:07:47.78	12.10	26.50	-52.3	-54.2	14.6	0.00e+00	0	25	0	421527552	70	4581
2026-01-08 02:07:48.78	11.93	26.64	-52.4	-54.3	14.6	0.00e+00	0	25	0	423624704	70	4625
2026-01-08 02:07:49.78	11.76	26.79	-52.4	-54.3	14.6	0.00e+00	0	24	0	425721856	70	4633
2026-01-08 02:07:50.77	11.60	26.93	-52.4	-54.3	14.6	0.00e+00	0	24	0	427819008	70	4607
2026-01-08 02:07:51.77	11.43	27.07	-52.3	-54.2	14.6	0.00e+00	0	25	0	429916160	70	4552
2026-01-08 02:07:52.78	11.25	27.21	-52.3	-54.2	14.6	0.00e+00	0	25	0	430964736	70	4558
2026-01-08 02:07:53.77	11.08	27.36	-52.4	-54.3	14.6	0.00e+00	0	25	0	433061888	70	4626
2026-01-08 02:07:54.77	10.90	27.50	-52.5	-54.4	14.5	0.00e+00	0	25	0	435159040	70	4701
2026-01-08 02:07:55.76	10.73	27.64	-52.5	-54.4	14.5	0.00e+00	0	25	0	437256192	70	4701
2026-01-08 02:07:56.76	10.55	27.79	-52.5	-54.5	14.5	0.00e+00	0	25	0	439353344	70	4713
2026-01-08 02:07:57.75	10.37	27.93	-52.7	-54.6	14.4	0.00e+00	0	25	0	440401920	70	4801
2026-01-08 02:07:58.75	10.19	28.08	-52.5	-54.5	14.5	0.00e+00	0	25	0	442499072	70	4713
2026-01-08 02:07:59.75	10.00	28.22	-52.5	-54.4	14.5	0.00e+00	0	25	0	444596224	70	4704
2026-01-08 02:08:00.74	9.82	28.37	-52.5	-54.4	14.6	0.00e+00	0	25	0	446693376	70	4667
2026-01-08 02:08:01.73	9.63	28.51	-52.5	-54.4	14.6	0.00e+00	0	25	0	447741952	70	4670
2026-01-08 02:08:02.73	9.44	28.66	-52.4	-54.3	14.6	0.00e+00	0	25	0	449839104	70	4610
2026-01-08 02:08:03.73	9.25	28.81	-52.4	-54.2	14.6	0.00e+00	0	25	0	451936256	70	4578
2026-01-08 02:08:04.72	9.06	28.96	-52.5	-54.3	14.6	0.00e+00	0	25	0	454033408	70	4648
2026-01-08 02:08:05.72	8.87	29.11	-52.6	-54.6	14.5	0.00e+00	0	25	0	456130560	70	4762
2026-01-08 02:08:06.71	8.67	29.25	-52.7	-54.6	14.4	0.00e+00	0	25	0	457179136	70	4814
2026-01-08 02:08:07.70	8.48	29.40	-52.7	-54.6	14.4	0.00e+00	0	25	0	459276288	70	4803
2026-01-08 02:08:08.70	8.28	29.55	-52.8	-54.8	14.4	0.00e+00	0	25	0	461373440	70	4878
2026-01-08 02:08:09.69	8.08	29.70	-52.9	-54.9	14.3	0.00e+00	0	24	0	463470592	70	4952
2026-01-08 02:08:10.69	7.87	29.85	-53.2	-55.3	14.2	0.00e+00	0	25	0	464519168	71	4923
2026-01-08 02:08:11.69	7.67	30.00	-53.5	-55.7	14.1	0.00e+00	0	24	0	466616320	72	4835
2026-01-08 02:08:12.69	7.46	30.15	-53.6	-55.8	14.1	0.00e+00	0	25	0	468713472	72	4906
2026-01-08 02:08:13.68	7.25	30.30	-53.8	-56.1	13.9	0.00e+00	0	25	0	470810624	72	5093
2026-01-08 02:08:14.68	7.04	30.46	-53.8	-56.2	13.9	0.00e+00	0	25	0	472907776	72	5110
2026-01-08 02:08:15.67	6.83	30.61	-53.9	-56.3	13.9	0.00e+00	0	25	0	473956352	73	4901
2026-01-08 02:08:16.66	6.61	30.76	-54.0	-56.5	13.9	0.00e+00	0	25	0	476053504	73	4992
2026-01-08 02:08:17.66	6.39	30.91	-54.2	-56.7	13.7	0.00e+00	0	25	0	478150656	73	5104
2026-01-08 02:08:18.66	6.17	31.07	-54.3	-56.8	13.7	0.00e+00	0	25	0	480247808	73	5194
2026-01-08 02:08:19.67	5.95	31.22	-54.3	-56.8	13.7	0.00e+00	0	25	0	482344960	73	5200
2026-01-08 02:08:20.66	5.73	31.37	-54.5	-57.1	13.6	0.00e+00	0	25	0	483393536	74	5084
2026-01-08 02:08:21.66	5.50	31.53	-54.5	-57.1	13.6	0.00e+00	0	25	0	485490688	74	5092
2026-01-08 02:08:22.66	5.27	31.68	-54.4	-57.0	13.6	0.00e+00	0	25	0	487587840	74	5036
2026-01-08 02:08:23.66	5.04	31.84	-54.6	-57.2	13.5	0.00e+00	0	24	0	489684992	74	5137
2026-01-08 02:08:24.65	4.81	31.99	-54.5	-57.1	13.6	0.00e+00	0	25	0	490733568	74	5082
2026-01-08 02:08:25.66	4.57	32.15	-54.6	-57.3	13.5	0.00e+00	0	25	0	492830720	74	5207
2026-01-08 02:08:26.66	4.33	32.31	-54.6	-57.4	13.4	0.00e+00	0	25	0	494927872	74	5222
2026-01-08 02:08:27.65	4.10	32.46	-54.7	-57.4	13.4	0.00e+00	0	25	0	497025024	74	5231
2026-01-08 02:08:28.66	3.85	32.62	-54.5	-57.1	13.6	0.00e+00	0	25	0	499122176	74	5084
2026-01-08 02:08:29.65	3.61	32.77	-54.5	-57.1	13.6	0.00e+00	0	25	0	500170752	74	5093
2026-01-08 02:08:30.65	3.36	32.93	-54.5	-57.1	13.6	0.00e+00	0	25	0	502267904	74	5069
2026-01-08 02:08:31.65	3.11	33.09	-54.7	-57.4	13.5	0.00e+00	0	25	0	504365056	74	5249
2026-01-08 02:08:32.64	2.86	33.24	-54.6	-57.3	13.5	0.00e+00	0	25	0	506462208	74	5205
2026-01-08 02:08:33.64	2.61	33.40	-54.8	-57.6	13.3	0.00e+00	0	25	0	507510784	74	5344
2026-01-08 02:08:34.63	2.35	33.56	-54.8	-57.6	13.3	0.00e+00	0	25	0	509607936	74	5390
2026-01-08 02:08:35.63	2.09	33.71	-54.9	-57.8	13.4	0.00e+00	0	25	0	511705088	75	5174
2026-01-08 02:08:36.63	1.83	33.87	-54.8	-57.6	13.5	0.00e+00	0	25	0	513802240	75	5058
2026-01-08 02:08:37.63	1.56	34.03	-54.8	-57.5	13.5	0.00e+00	0	25	0	515899392	75	5040
2026-01-08 02:08:38.63	1.30	34.19	-54.7	-57.4	13.6	0.00e+00	0	25	0	516947968	75	4971
2026-01-08 02:08:39.64	1.02	34.35	-54.7	-57.4	13.6	0.00e+00	0	25	0	519045120	75	4940
2026-01-08 02:08:40.64	0.75	34.51	-54.9	-57.7	13.4	0.00e+00	0	25	0	521142272	75	5146
2026-01-08 02:08:41.63	0.48	34.66	-54.9	-57.7	13.4	0.00e+00	0	24	0	523239424	75	5122
2026-01-08 02:08:42.63	0.20	34.82	-54.8	-57.6	13.5	0.00e+00	0	24	0	525336576	75	5071
2026-01-08 02:08:43.64	359.92	34.98	-54.7	-57.4	13.6	0.00e+00	0	25	0	526385152	75	4950
2026-01-08 02:08:44.64	359.63	35.14	-54.5	-57.1	13.8	0.00e+00	0	25	0	528482304	75	4789
2026-01-08 02:08:45.64	359.35	35.30	-54.3	-56.7	14.0	0.00e+00	0	25	0	530579456	75	4558
2026-01-08 02:08:46.64	359.06	35.46	-54.1	-56.4	14.1	0.00e+00	0	24	0	532676608	74	4687
2026-01-08 02:08:47.64	358.76	35.61	-54.2	-56.5	14.0	0.00e+00	0	24	0	534773760	74	4753
2026-01-08 02:08:48.64	358.47	35.77	-54.1	-56.5	14.1	0.00e+00	0	25	0	535822336	74	4706
2026-01-08 02:08:49.64	358.17	35.93	-54.1	-56.4	14.0	0.00e+00	0	25	0	537919488	74	4700
2026-01-08 02:08:50.64	357.87	36.09	-54.1	-56.4	14.1	0.00e+00	0	25	0	540016640	74	4676
2026-01-08 02:08:51.64	357.57	36.24	-53.8	-56.0	14.3	0.00e+00	0	25	0	542113792	74	4478
2026-01-08 02:08:52.64	357.26	36.40	-53.7	-55.9	14.4	0.00e+00	0	25	0	543162368	74	4413
2026-01-08 02:08:53.64	356.95	36.56	-53.5	-55.6	14.4	0.00e+00	0	25	0	545259520	73	4519
2026-01-08 02:08:54.64	356.64	36.72	-53.5	-55.6	14.3	0.00e+00	0	25	0	547356672	73	4534
2026-01-08 02:08:55.64	356.32	36.87	-53.4	-55.6	14.4	0.00e+00	0	25	0	549453824	73	4499
2026-01-08 02:08:56.63	356.00	37.03	-53.4	-55.5	14.4	0.00e+00	0	25	0	551550976	73	4473
2026-01-08 02:08:57.63	355.68	37.19	-53.3	-55.3	14.6	0.00e+00	0	25	0	552599552	73	4374
2026-01-08 02:08:58.63	355.36	37.34	-53.4	-55.4	14.5	0.00e+00	0	25	0	554696704	73	4439
2026-01-08 02:08:59.62	355.03	37.50	-53.6	-55.8	14.3	0.00e+00	0	25	0	556793856	73	4619
2026-01-08 02:09:00.61	354.70	37.65	-53.8	-56.1	14.2	0.00e+00	0	25	0	558891008	73	4779
2026-01-08 02:09:01.61	354.37	37.80	-53.8	-56.1	14.1	0.00e+00	0	25	0	560988160	73	4777
2026-01-08 02:09:02.61	354.03	37.96	-53.7	-56.0	14.2	0.00e+00	0	25	0	562036736	73	4714
2026-01-08 02:09:03.60	353.69	38.11	-53.5	-55.7	14.3	0.00e+00	0	25	0	564133888	73	4547
2026-01-08 02:09:04.60	353.35	38.27	-53.5	-55.6	14.4	0.00e+00	0	25	0	566231040	73	4536
2026-01-08 02:09:05.59	353.00	38.42	-53.7	-55.9	14.3	0.00e+00	0	25	0	568328192	73	4658
2026-01-08 02:09:06.59	352.65	38.57	-53.8	-56.1	14.1	0.00e+00	0	25	0	569376768	73	4763
2026-01-08 02:09:07.59	352.30	38.72	-53.9	-56.1	14.1	0.00e+00	0	25	0	571473920	73	4801
2026-01-08 02:09:08.59	351.94	38.87	-53.9	-56.2	14.1	0.00e+00	0	25	0	573571072	73	4851
2026-01-08 02:09:09.57	351.59	39.02	-53.9	-56.1	14.1	0.00e+00	0	25	0	575668224	73	4794
2026-01-08 02:09:10.57	351.22	39.17	-53.9	-56.2	14.1	0.00e+00	0	25	0	577765376	73	4838
2026-01-08 02:09:11.57	350.86	39.32	-54.1	-56.4	14.0	0.00e+00	0	25	0	578813952	73	4954
2026-01-08 02:09:12.56	350.49	39.47	-54.3	-56.7	13.8	0.00e+00	0	25	0	580911104	73	5151
2026-01-08 02:09:13.56	350.11	39.62	-54.4	-56.9	13.7	0.00e+00	0	25	0	583008256	73	5249
2026-01-08 02:09:14.56	349.74	39.76	-54.5	-57.0	13.8	0.00e+00	0	25	0	585105408	74	5005
2026-01-08 02:09:15.56	349.35	39.91	-54.4	-57.0	13.8	0.00e+00	0	25	0	586153984	74	4989
2026-01-08 02:09:16.57	348.96	40.06	-54.4	-56.9	13.9	0.00e+00	0	25	0	588251136	74	4972
2026-01-08 02:09:17.57	348.58	40.20	-54.3	-56.8	13.9	0.00e+00	0	25	0	590348288	74	4888
2026-01-08 02:09:18.57	348.18	40.35	-54.1	-56.5	14.1	0.00e+00	0	25	0	592445440	74	4719
2026-01-08 02:09:19.57	347.79	40.49	-54.1	-56.4	14.1	0.00e+00	0	25	0	594542592	74	4676
2026-01-08 02:09:20.57	347.39	40.63	-53.8	-56.0	14.3	0.00e+00	0	25	0	595591168	74	4489
2026-01-08 02:09:21.56	346.99	40.77	-53.5	-55.5	14.5	0.00e+00	0	25	0	597688320	73	4485
2026-01-08 02:09:22.56	346.58	40.91	-53.4	-55.4	14.5	0.00e+00	0	25	0	599785472	73	4416
2026-01-08 02:09:23.56	346.18	41.05	-53.4	-55.5	14.5	0.00e+00	0	25	0	601882624	73	4468
2026-01-08 02:09:24.56	345.76	41.18	-53.0	-54.9	14.6	0.00e+00	0	25	0	603979776	72	4436
2026-01-08 02:09:25.56	345.35	41.32	-52.8	-54.6	14.8	0.00e+00	0	25	0	605028352	72	4280
2026-01-08 02:09:26.56	344.92	41.46	-52.5	-54.4	14.8	0.00e+00	0	25	0	607125504	71	4398
2026-01-08 02:09:27.57	344.50	41.59	-52.3	-54.0	15.0	0.00e+00	0	25	0	609222656	71	4217
2026-01-08 02:09:28.57	344.07	41.72	-52.1	-53.8	14.9	0.00e+00	0	25	0	611319808	70	4342
2026-01-08 02:09:29.56	343.64	41.85	-52.1	-53.8	14.9	0.00e+00	0	25	0	613416960	70	4379
2026-01-08 02:09:30.56	343.21	41.98	-51.9	-53.6	15.0	0.00e+00	0	25	0	614465536	70	4278
2026-01-08 02:09:31.56	342.77	42.11	-51.6	-53.2	15.0	0.00e+00	0	25	0	616562688	69	4330
2026-01-08 02:09:32.55	342.33	42.24	-51.6	-53.2	15.1	0.00e+00	0	25	0	618659840	69	4301
2026-01-08 02:09:33.55	341.89	42.36	-51.5	-53.1	15.1	0.00e+00	0	25	0	620756992	69	4276
2026-01-08 02:09:34.55	341.44	42.49	-51.4	-53.0	15.1	0.00e+00	0	25	0	621805568	69	4214
2026-01-08 02:09:35.55	340.99	42.61	-51.7	-53.3	15.0	0.00e+00	0	25	0	623902720	69	4373
2026-01-08 02:09:36.55	340.53	42.73	-51.6	-53.2	15.0	0.00e+00	0	25	0	625999872	69	4335
2026-01-08 02:09:37.54	340.08	42.85	-51.6	-53.2	15.0	0.00e+00	0	25	0	628097024	69	4334
2026-01-08 02:09:38.54	339.62	42.96	-51.5	-53.0	15.1	0.00e+00	0	25	0	630194176	69	4240
2026-01-08 02:09:39.54	339.15	43.08	-51.5	-53.0	15.1	0.00e+00	0	25	0	631242752	69	4241
2026-01-08 02:09:40.54	338.68	43.19	-51.6	-53.3	15.0	0.00e+00	0	25	0	633339904	69	4348
2026-01-08 02:09:41.54	338.21	43.30	-52.0	-53.8	14.8	0.00e+00	0	25	0	635437056	69	4602
2026-01-08 02:09:42.54	337.74	43.41	-52.3	-54.0	14.7	0.00e+00	0	25	0	637534208	69	4752
2026-01-08 02:09:43.53	337.26	43.52	-52.6	-54.4	14.7	0.00e+00	0	24	0	638582784	70	4665
2026-01-08 02:09:44.53	336.78	43.63	-52.8	-54.6	14.5	0.00e+00	0	25	0	640679936	70	4806
2026-01-08 02:09:45.52	336.30	43.73	-53.1	-55.1	14.4	0.00e+00	0	25	0	642777088	71	4787
2026-01-08 02:09:46.53	335.81	43.83	-53.2	-55.2	14.4	0.00e+00	0	25	0	644874240	71	4858
2026-01-08 02:09:47.53	335.31	43.93	-53.2	-55.2	14.4	0.00e+00	0	25	0	646971392	71	4828
2026-01-08 02:09:48.53	334.82	44.03	-53.1	-55.1	14.5	0.00e+00	0	25	0	648019968	71	4770
2026-01-08 02:09:49.53	334.32	44.13	-52.9	-54.9	14.5	0.00e+00	0	24	0	650117120	71	4664
2026-01-08 02:09:50.51	333.83	44.22	-52.9	-54.8	14.6	0.00e+00	0	24	0	652214272	71	4615
2026-01-08 02:09:51.51	333.33	44.31	-53.0	-54.9	14.5	0.00e+00	0	25	0	654311424	71	4682
2026-01-08 02:09:52.51	332.82	44.40	-53.0	-54.9	14.5	0.00e+00	0	25	0	656408576	71	4698
2026-01-08 02:09:53.51	332.31	44.49	-52.9	-54.9	14.6	0.00e+00	0	25	0	657457152	71	4662
2026-01-08 02:09:54.50	331.81	44.57	-52.9	-54.8	14.6	0.00e+00	0	25	0	659554304	71	4633
2026-01-08 02:09:55.51	331.29	44.65	-52.9	-54.8	14.6	0.00e+00	0	25	0	661651456	71	4611
2026-01-08 02:09:56.50	330.78	44.73	-52.8	-54.7	14.6	0.00e+00	0	25	0	663748608	71	4569
2026-01-08 02:09:57.50	330.26	44.81	-52.9	-54.8	14.6	0.00e+00	0	25	0	665845760	71	4616
2026-01-08 02:09:58.50	329.73	44.88	-53.0	-54.9	14.6	0.00e+00	0	25	0	666894336	71	4673
2026-01-08 02:09:59.50	329.21	44.95	-52.8	-54.6	14.7	0.00e+00	0	25	0	668991488	71	4542
2026-01-08 02:10:00.49	328.69	45.02	-52.8	-54.6	14.7	0.00e+00	0	25	0	671088640	71	4534
2026-01-08 02:10:01.49	328.16	45.09	-52.9	-54.8	14.6	0.00e+00	0	25	0	673185792	71	4621
2026-01-08 02:10:02.49	327.63	45.15	-53.3	-55.3	14.3	0.00e+00	0	25	0	674234368	71	4924
2026-01-08 02:10:03.48	327.10	45.21	-53.8	-56.0	14.1	0.00e+00	0	25	0	676331520	72	5033
2026-01-08 02:10:04.47	326.57	45.27	-54.1	-56.4	14.1	0.00e+00	0	25	0	678428672	73	4930
2026-01-08 02:10:05.47	326.03	45.33	-54.0	-56.2	14.1	0.00e+00	0	25	0	680525824	73	4853
2026-01-08 02:10:06.46	325.50	45.38	-53.9	-56.2	14.2	0.00e+00	0	25	0	682622976	73	4821
2026-01-08 02:10:07.46	324.96	45.43	-54.1	-56.3	14.1	0.00e+00	0	25	0	683671552	73	4915
2026-01-08 02:10:08.46	324.41	45.48	-54.2	-56.5	14.0	0.00e+00	0	25	0	685768704	73	5023
2026-01-08 02:10:09.47	323.86	45.53	-53.7	-55.9	14.3	0.00e+00	0	25	0	687865856	73	4664
2026-01-08 02:10:10.47	323.32	45.57	-53.4	-55.5	14.6	0.00e+00	0	25	0	689963008	73	4443
2026-01-08 02:10:11.46	322.77	45.61	-53.1	-55.1	14.6	0.00e+00	0	25	0	691011584	72	4497
2026-01-08 02:10:12.46	322.23	45.64	-53.3	-55.3	14.4	0.00e+00	0	25	0	693108736	72	4636
2026-01-08 02:10:13.46	321.68	45.68	-53.7	-55.9	14.1	0.00e+00	0	25	0	695205888	72	4942
2026-01-08 02:10:14.46	321.12	45.71	-54.3	-56.6	13.9	0.00e+00	0	25	0	697303040	73	5071
2026-01-08 02:10:15.46	320.57	45.74	-54.8	-57.4	13.6	0.00e+00	0	25	0	699400192	74	5276
2026-01-08 02:10:16.46	320.02	45.76	-55.0	-57.6	13.6	0.00e+00	0	25	0	700448768	75	5094
2026-01-08 02:10:17.46	319.46	45.78	-54.8	-57.3	13.8	0.00e+00	0	25	0	702545920	75	4909
2026-01-08 02:10:18.45	318.92	45.80	-54.6	-57.1	13.9	0.00e+00	0	25	0	704643072	75	4761
2026-01-08 02:10:19.45	318.36	45.82	-54.5	-56.9	14.0	0.00e+00	0	25	0	706740224	75	4703
2026-01-08 02:10:20.45	317.80	45.83	-54.6	-57.0	14.0	0.00e+00	0	25	0	708837376	75	4719
2026-01-08 02:10:21.46	317.24	45.84	-54.3	-56.6	14.2	0.00e+00	0	25	0	709885952	75	4531
2026-01-08 02:10:22.46	316.69	45.85	-54.1	-56.4	14.2	0.00e+00	0	25	0	711983104	74	4655
2026-01-08 02:10:23.45	316.13	45.85	-54.0	-56.2	14.3	0.00e+00	0	25	0	714080256	74	4571
2026-01-08 02:10:24.45	315.58	45.85	-53.6	-55.7	14.6	0.00e+00	0	25	0	716177408	73	4551
2026-01-08 02:10:25.46	315.02	45.85	-53.5	-55.5	14.5	0.00e+00	0	25	0	717225984	73	4470
2026-01-08 02:10:26.46	314.46	45.85	-53.7	-55.8	14.4	0.00e+00	0	25	0	719323136	73	4623
2026-01-08 02:10:27.46	313.90	45.84	-54.0	-56.3	14.1	0.00e+00	0	25	0	721420288	73	4888
2026-01-08 02:10:28.46	313.35	45.83	-54.2	-56.5	14.0	0.00e+00	0	25	0	723517440	73	5022
2026-01-08 02:10:29.45	312.80	45.81	-54.4	-56.8	14.0	0.00e+00	0	25	0	725614592	74	4878
2026-01-08 02:10:30.45	312.24	45.80	-54.7	-57.2	13.7	0.00e+00	0	25	0	726663168	74	5107
2026-01-08 02:10:31.45	311.69	45.78	-54.7	-57.2	13.7	0.00e+00	0	25	0	728760320	74	5150
2026-01-08 02:10:32.44	311.14	45.76	-54.6	-57.1	13.8	0.00e+00	0	25	0	730857472	74	5059
2026-01-08 02:10:33.44	310.58	45.73	-54.5	-56.8	14.0	0.00e+00	0	25	0	732954624	74	4918
2026-01-08 02:10:34.43	310.04	45.70	-54.4	-56.8	14.0	0.00e+00	0	25	0	734003200	74	4894
2026-01-08 02:10:35.43	309.49	45.67	-54.0	-56.2	14.3	0.00e+00	0	25	0	736100352	74	4559
2026-01-08 02:10:36.42	308.94	45.64	-53.8	-55.9	14.4	0.00e+00	0	25	0	738197504	74	4437
2026-01-08 02:10:37.42	308.39	45.60	-54.1	-56.2	14.3	0.00e+00	0	25	0	740294656	74	4585
2026-01-08 02:10:38.42	307.85	45.56	-54.4	-56.8	13.9	0.00e+00	0	25	0	742391808	74	4887
2026-01-08 02:10:39.42	307.30	45.52	-54.7	-57.1	13.8	0.00e+00	0	25	0	743440384	74	5085
2026-01-08 02:10:40.41	306.76	45.47	-55.0	-57.6	13.5	0.00e+00	0	25	0	745537536	75	5089
2026-01-08 02:10:41.40	306.22	45.42	-55.6	-58.6	13.2	0.00e+00	0	25	0	747634688	76	5368
2026-01-08 02:10:42.40	305.68	45.37	-55.7	-58.8	13.0	0.00e+00	0	25	0	749731840	76	5471
2026-01-08 02:10:43.40	305.14	45.32	-55.3	-58.1	13.5	0.00e+00	0	25	0	751828992	76	5045
2026-01-08 02:10:44.40	304.61	45.26	-54.7	-57.1	14.0	0.00e+00	0	25	0	752877568	76	4513
2026-01-08 02:10:45.40	304.07	45.20	-54.2	-56.4	14.3	0.00e+00	0	25	0	754974720	75	4433
2026-01-08 02:10:46.39	303.54	45.14	-54.2	-56.5	14.2	0.00e+00	0	25	0	757071872	74	4728
2026-01-08 02:10:47.39	303.01	45.07	-54.5	-56.9	13.9	0.00e+00	0	25	0	759169024	74	4933
2026-01-08 02:10:48.39	302.48	45.01	-55.0	-57.7	13.6	0.00e+00	0	25	0	760217600	75	5102
2026-01-08 02:10:49.39	301.96	44.94	-55.6	-58.5	13.2	0.00e+00	0	25	0	762314752	76	5294
2026-01-08 02:10:50.39	301.43	44.86	-55.5	-58.3	13.3	0.00e+00	0	25	0	764411904	76	5189
2026-01-08 02:10:51.39	300.91	44.79	-55.1	-57.7	13.7	0.00e+00	0	25	0	766509056	76	4840
2026-01-08 02:10:52.39	300.39	44.71	-54.8	-57.2	14.0	0.00e+00	0	25	0	768606208	76	4560
2026-01-08 02:10:53.39	299.87	44.63	-54.3	-56.5	14.3	0.00e+00	0	25	0	769654784	75	4483
2026-01-08 02:10:54.39	299.36	44.55	-53.9	-56.0	14.4	0.00e+00	0	25	0	771751936	74	4472
2026-01-08 02:10:55.38	298.85	44.46	-53.9	-56.1	14.4	0.00e+00	0	25	0	773849088	74	4506
2026-01-08 02:10:56.38	298.34	44.38	-53.7	-55.8	14.5	0.00e+00	0	25	0	775946240	74	4374
2026-01-08 02:10:57.38	297.84	44.29	-53.8	-55.9	14.4	0.00e+00	0	25	0	778043392	74	4426
2026-01-08 02:10:58.38	297.33	44.20	-53.8	-55.9	14.4	0.00e+00	0	25	0	779091968	74	4411
2026-01-08 02:10:59.37	296.84	44.10	-53.7	-55.7	14.5	0.00e+00	0	25	0	781189120	74	4340
2026-01-08 02:11:00.37	296.34	44.01	-53.5	-55.5	14.5	0.00e+00	0	25	0	783286272	73	4482
2026-01-08 02:11:01.37	295.85	43.91	-53.5	-55.5	14.6	0.00e+00	0	25	0	785383424	73	4474
2026-01-08 02:11:02.37	295.36	43.81	-53.2	-55.1	14.7	0.00e+00	0	25	0	786432000	73	4262
2026-01-08 02:11:03.36	294.87	43.71	-53.1	-55.0	14.7	0.00e+00	0	25	0	788529152	72	4475
2026-01-08 02:11:04.36	294.39	43.60	-53.0	-54.9	14.7	0.00e+00	0	25	0	790626304	72	4423
2026-01-08 02:11:05.36	293.91	43.49	-53.1	-55.0	14.6	0.00e+00	0	25	0	792723456	72	4469
2026-01-08 02:11:06.36	293.43	43.39	-52.8	-54.6	14.8	0.00e+00	0	25	0	794820608	72	4271
2026-01-08 02:11:07.36	292.95	43.28	-52.4	-54.1	14.9	0.00e+00	0	25	0	795869184	71	4272
2026-01-08 02:11:08.35	292.49	43.16	-52.3	-53.9	15.0	0.00e+00	0	25	0	797966336	71	4191
2026-01-08 02:11:09.34	292.02	43.05	-52.2	-53.9	15.0	0.00e+00	0	25	0	800063488	71	4168
2026-01-08 02:11:10.34	291.56	42.93	-52.0	-53.6	15.0	0.00e+00	0	25	0	802160640	70	4262
2026-01-08 02:11:11.34	291.10	42.82	-51.7	-53.3	15.2	0.00e+00	0	25	0	803209216	70	4107
2026-01-08 02:11:12.33	290.64	42.70	-51.4	-53.0	15.1	0.00e+00	0	25	0	805306368	69	4195
2026-01-08 02:11:13.33	290.19	42.58	-51.3	-52.8	15.2	0.00e+00	0	25	0	807403520	69	4133
2026-01-08 02:11:14.32	289.74	42.46	-51.3	-52.9	15.1	0.00e+00	0	25	0	809500672	69	4168
2026-01-08 02:11:15.32	289.29	42.33	-51.2	-52.8	15.2	0.00e+00	0	25	0	811597824	69	4100
2026-01-08 02:11:16.31	288.85	42.21	-50.9	-52.4	15.2	0.00e+00	0	25	0	812646400	68	4171
2026-01-08 02:11:17.31	288.41	42.08	-50.4	-51.8	15.3	0.00e+00	0	25	0	814743552	67	4131
2026-01-08 02:11:18.31	287.97	41.95	-50.2	-51.6	15.4	0.00e+00	0	25	0	816840704	67	4034
2026-01-08 02:11:19.30	287.54	41.82	-50.2	-51.6	15.2	0.00e+00	0	25	0	818937856	66	4253
2026-01-08 02:11:20.31	287.11	41.69	-50.4	-51.8	15.2	0.00e+00	0	25	0	821035008	66	4363
2026-01-08 02:11:21.30	286.68	41.56	-50.4	-51.8	15.2	0.00e+00	0	25	0	822083584	66	4363
2026-01-08 02:11:22.31	286.26	41.42	-50.5	-51.9	15.1	0.00e+00	0	25	0	824180736	66	4417
2026-01-08 02:11:23.31	285.84	41.29	-50.4	-51.8	15.1	0.00e+00	0	25	0	826277888	66	4351
2026-01-08 02:11:24.31	285.42	41.15	-50.3	-51.7	15.2	0.00e+00	0	25	0	828375040	66	4333
2026-01-08 02:11:25.31	285.01	41.01	-50.2	-51.6	15.2	0.00e+00	0	25	0	830472192	66	4259
2026-01-08 02:11:26.29	284.61	40.88	-50.4	-51.8	15.2	0.00e+00	0	25	0	831520768	66	4360
2026-01-08 02:11:27.30	284.20	40.73	-50.4	-51.9	15.1	0.00e+00	0	25	0	833617920	66	4405
2026-01-08 02:11:28.30	283.79	40.59	-50.6	-52.0	15.1	0.00e+00	0	25	0	835715072	66	4483
2026-01-08 02:11:29.30	283.39	40.45	-50.6	-52.1	15.0	0.00e+00	0	25	0	837812224	66	4513
2026-01-08 02:11:30.30	283.00	40.31	-50.7	-52.1	15.0	0.00e+00	0	25	0	838860800	66	4535
2026-01-08 02:11:31.29	282.61	40.16	-50.5	-52.0	15.1	0.00e+00	0	25	0	840957952	66	4470
2026-01-08 02:11:32.29	282.22	40.02	-50.4	-51.9	15.1	0.00e+00	0	25	0	843055104	66	4406
2026-01-08 02:11:33.28	281.84	39.87	-50.4	-51.8	15.1	0.00e+00	0	25	0	845152256	66	4373
2026-01-08 02:11:34.28	281.46	39.73	-50.5	-52.0	15.1	0.00e+00	0	25	0	847249408	66	4458
2026-01-08 02:11:35.28	281.08	39.58	-50.7	-52.2	15.0	0.00e+00	0	25	0	848297984	66	4553
2026-01-08 02:11:36.27	280.71	39.43	-50.9	-52.4	14.9	0.00e+00	0	25	0	850395136	66	4686
2026-01-08 02:11:37.27	280.34	39.28	-51.0	-52.5	14.9	0.00e+00	0	25	0	852492288	67	4456
2026-01-08 02:11:38.27	279.97	39.13	-51.0	-52.5	15.0	0.00e+00	0	25	0	854589440	67	4491
2026-01-08 02:11:39.27	279.61	38.98	-50.9	-52.4	15.0	0.00e+00	0	25	0	855638016	67	4411
2026-01-08 02:11:40.27	279.25	38.83	-50.7	-52.2	15.1	0.00e+00	0	25	0	857735168	67	4327
2026-01-08 02:11:41.27	278.89	38.68	-50.7	-52.2	15.1	0.00e+00	0	25	0	859832320	67	4328
2026-01-08 02:11:42.27	278.53	38.53	-50.8	-52.3	15.1	0.00e+00	0	25	0	861929472	67	4372
2026-01-08 02:11:43.27	278.18	38.37	-51.0	-52.5	15.0	0.00e+00	0	25	0	864026624	67	4456
2026-01-08 02:11:44.27	277.84	38.22	-51.2	-52.7	14.9	0.00e+00	0	25	0	865075200	67	4591
2026-01-08 02:11:45.26	277.50	38.07	-51.6	-53.2	14.9	0.00e+00	0	25	0	867172352	68	4581
2026-01-08 02:11:46.26	277.15	37.91	-51.8	-53.5	14.7	0.00e+00	0	25	0	869269504	68	4725
2026-01-08 02:11:47.26	276.82	37.76	-51.8	-53.5	14.7	0.00e+00	0	25	0	871366656	68	4733
2026-01-08 02:11:48.25	276.49	37.60	-51.8	-53.4	14.9	0.00e+00	0	25	0	873463808	69	4422
2026-01-08 02:11:49.25	276.15	37.45	-51.8	-53.4	14.9	0.00e+00	0	25	0	874512384	69	4433
2026-01-08 02:11:50.25	275.83	37.29	-52.0	-53.7	14.8	0.00e+00	0	25	0	876609536	69	4570
2026-01-08 02:11:51.24	275.50	37.14	-52.0	-53.7	14.8	0.00e+00	0	25	0	878706688	69	4591
2026-01-08 02:11:52.25	275.18	36.98	-52.2	-53.9	14.7	0.00e+00	0	25	0	880803840	69	4677
2026-01-08 02:11:53.24	274.86	36.82	-52.1	-53.8	14.7	0.00e+00	0	25	0	881852416	69	4616
2026-01-08 02:11:54.24	274.55	36.67	-52.0	-53.7	14.8	0.00e+00	0	25	0	883949568	69	4580
2026-01-08 02:11:55.24	274.23	36.51	-52.1	-53.8	14.7	0.00e+00	0	25	0	886046720	69	4633
2026-01-08 02:11:56.24	273.92	36.35	-52.1	-53.8	14.7	0.00e+00	0	25	0	888143872	69	4622
2026-01-08 02:11:57.24	273.62	36.19	-52.1	-53.8	14.7	0.00e+00	0	25	0	890241024	69	4645
2026-01-08 02:11:58.24	273.31	36.04	-52.3	-54.1	14.6	0.00e+00	0	25	0	891289600	69	4801
2026-01-08 02:11:59.24	273.01	35.88	-52.7	-54.6	14.5	0.00e+00	0	25	0	893386752	70	4799
2026-01-08 02:12:00.24	272.71	35.72	-53.0	-55.0	14.5	0.00e+00	0	25	0	895483904	71	4730
2026-01-08 02:12:01.23	272.42	35.56	-53.3	-55.4	14.3	0.00e+00	0	25	0	897581056	71	4942
2026-01-08 02:12:02.23	272.13	35.40	-53.3	-55.4	14.3	0.00e+00	0	25	0	898629632	71	4944
2026-01-08 02:12:03.23	271.84	35.24	-53.3	-55.3	14.3	0.00e+00	0	25	0	900726784	71	4887
2026-01-08 02:12:04.22	271.56	35.09	-53.2	-55.2	14.4	0.00e+00	0	25	0	902823936	71	4831
2026-01-08 02:12:05.22	271.27	34.93	-53.2	-55.2	14.3	0.00e+00	0	25	0	904921088	71	4849
2026-01-08 02:12:06.21	271.00	34.77	-53.4	-55.5	14.3	0.00e+00	0	25	0	907018240	72	4724
2026-01-08 02:12:07.21	270.72	34.61	-53.8	-56.0	14.1	0.00e+00	0	25	0	908066816	72	4986
2026-01-08 02:12:08.21	270.44	34.46	-54.0	-56.2	14.1	0.00e+00	0	25	0	910163968	73	4854
2026-01-08 02:12:09.20	270.17	34.30	-54.3	-56.7	13.8	0.00e+00	0	25	0	912261120	73	5101
2026-01-08 02:12:10.19	269.90	34.14	-54.5	-57.0	13.8	0.00e+00	0	25	0	914358272	74	4997
2026-01-08 02:12:11.18	269.64	33.98	-54.3	-56.7	13.9	0.00e+00	0	25	0	915406848	74	4831
2026-01-08 02:12:12.19	269.37	33.82	-54.3	-56.7	13.9	0.00e+00	0	25	0	917504000	74	4848
2026-01-08 02:12:13.18	269.11	33.67	-54.3	-56.6	14.0	0.00e+00	0	25	0	919601152	74	4805
2026-01-08 02:12:14.18	268.85	33.51	-54.4	-56.8	13.8	0.00e+00	0	25	0	921698304	74	4915
2026-01-08 02:12:15.18	268.60	33.35	-54.7	-57.3	13.6	0.00e+00	0	25	0	923795456	74	5177
2026-01-08 02:12:16.18	268.34	33.19	-54.8	-57.5	13.4	0.00e+00	0	25	0	924844032	74	5300
2026-01-08 02:12:17.17	268.09	33.04	-55.1	-57.9	13.4	0.00e+00	0	25	0	926941184	75	5239
2026-01-08 02:12:18.17	267.84	32.88	-55.0	-57.7	13.4	0.00e+00	0	25	0	929038336	75	5155
2026-01-08 02:12:19.17	267.59	32.72	-55.0	-57.7	13.4	0.00e+00	0	25	0	931135488	75	5153
2026-01-08 02:12:20.16	267.35	32.57	-55.1	-58.0	13.3	0.00e+00	0	25	0	933232640	75	5295
2026-01-08 02:12:21.15	267.11	32.41	-55.1	-57.8	13.4	0.00e+00	0	25	0	934281216	75	5209
2026-01-08 02:12:22.15	266.87	32.26	-54.8	-57.4	13.6	0.00e+00	0	25	0	936378368	75	4971
2026-01-08 02:12:23.14	266.63	32.10	-54.7	-57.3	13.7	0.00e+00	0	25	0	938475520	75	4892
2026-01-08 02:12:24.13	266.40	31.95	-54.7	-57.3	13.7	0.00e+00	0	25	0	940572672	75	4914
2026-01-08 02:12:25.13	266.17	31.79	-54.6	-57.2	13.8	0.00e+00	0	25	0	941621248	75	4838
2026-01-08 02:12:26.13	265.94	31.64	-54.6	-57.1	13.8	0.00e+00	0	25	0	943718400	75	4814
2026-01-08 02:12:27.14	265.70	31.48	-54.6	-57.2	13.8	0.00e+00	0	25	0	945815552	75	4822
2026-01-08 02:12:28.13	265.48	31.33	-54.7	-57.2	13.7	0.00e+00	0	25	0	947912704	75	4853
2026-01-08 02:12:29.13	265.26	31.17	-54.8	-57.5	13.6	0.00e+00	0	25	0	950009856	75	4993
2026-01-08 02:12:30.13	265.03	31.02	-54.9	-57.6	13.5	0.00e+00	0	25	0	951058432	75	5057
2026-01-08 02:12:31.13	264.81	30.86	-54.7	-57.3	13.7	0.00e+00	0	25	0	953155584	75	4879
2026-01-08 02:12:32.13	264.59	30.71	-54.7	-57.3	13.7	0.00e+00	0	25	0	955252736	75	4886
2026-01-08 02:12:33.12	264.38	30.56	-54.3	-56.7	14.0	0.00e+00	0	25	0	957349888	75	4581
2026-01-08 02:12:34.12	264.17	30.41	-54.4	-56.8	14.0	0.00e+00	0	25	0	959447040	75	4643
2026-01-08 02:12:35.11	263.96	30.25	-54.3	-56.7	14.0	0.00e+00	0	25	0	960495616	75	4578
2026-01-08 02:12:36.11	263.75	30.10	-54.3	-56.7	14.1	0.00e+00	0	25	0	962592768	75	4576
2026-01-08 02:12:37.11	263.54	29.95	-54.3	-56.6	14.1	0.00e+00	0	25	0	964689920	75	4543
2026-01-08 02:12:38.11	263.33	29.80	-54.3	-56.7	14.1	0.00e+00	0	25	0	966787072	75	4563
2026-01-08 02:12:39.10	263.13	29.65	-54.1	-56.5	14.0	0.00e+00	0	25	0	967835648	74	4724
2026-01-08 02:12:40.10	262.93	29.50	-54.1	-56.4	14.1	0.00e+00	0	25	0	969932800	74	4682
2026-01-08 02:12:41.09	262.73	29.35	-53.9	-56.1	14.2	0.00e+00	0	25	0	972029952	74	4544
2026-01-08 02:12:42.09	262.53	29.20	-53.8	-56.0	14.3	0.00e+00	0	25	0	974127104	74	4458
2026-01-08 02:12:43.10	262.33	29.05	-53.6	-55.7	14.3	0.00e+00	0	25	0	976224256	73	4569
2026-01-08 02:12:44.09	262.14	28.90	-53.5	-55.7	14.4	0.00e+00	0	25	0	977272832	73	4548
2026-01-08 02:12:45.09	261.95	28.75	-53.5	-55.7	14.3	0.00e+00	0	25	0	979369984	73	4569
2026-01-08 02:12:46.08	261.76	28.61	-53.7	-55.9	14.2	0.00e+00	0	25	0	981467136	73	4675
2026-01-08 02:12:47.08	261.57	28.46	-53.8	-56.0	14.2	0.00e+00	0	25	0	983564288	73	4741
2026-01-08 02:12:48.08	261.38	28.31	-53.8	-56.1	14.1	0.00e+00	0	25	0	984612864	73	4783
2026-01-08 02:12:49.07	261.20	28.17	-53.9	-56.2	14.1	0.00e+00	0	25	0	986710016	73	4825
2026-01-08 02:12:50.08	261.01	28.02	-53.9	-56.3	14.0	0.00e+00	0	25	0	988807168	73	4873
2026-01-08 02:12:51.08	260.83	27.87	-53.9	-56.2	14.1	0.00e+00	0	25	0	990904320	73	4853
2026-01-08 02:12:52.09	260.64	27.72	-53.8	-56.0	14.1	0.00e+00	0	25	0	993001472	73	4729
2026-01-08 02:12:53.09	260.46	27.58	-53.5	-55.7	14.3	0.00e+00	0	25	0	994050048	73	4550
2026-01-08 02:12:54.08	260.29	27.44	-53.3	-55.3	14.5	0.00e+00	0	25	0	996147200	73	4361
2026-01-08 02:12:55.09	260.11	27.29	-53.3	-55.4	14.5	0.00e+00	0	25	0	998244352	73	4398
2026-01-08 02:12:56.09	259.94	27.15	-53.2	-55.2	14.4	0.00e+00	0	25	0	1000341504	72	4566
2026-01-08 02:12:57.10	259.76	27.00	-53.1	-55.1	14.5	0.00e+00	0	25	0	1002438656	72	4533
2026-01-08 02:12:58.09	259.59	26.86	-53.2	-55.3	14.4	0.00e+00	0	25	0	1003487232	72	4607
2026-01-08 02:12:59.10	259.42	26.72	-53.4	-55.5	14.3	0.00e+00	0	25	0	1005584384	72	4727
2026-01-08 02:13:00.09	259.26	26.58	-53.3	-55.4	14.3	0.00e+00	0	25	0	1007681536	72	4698
2026-01-08 02:13:01.10	259.09	26.43	-53.4	-55.5	14.3	0.00e+00	0	25	0	1009778688	72	4756
2026-01-08 02:13:02.10	258.92	26.29	-53.5	-55.7	14.2	0.00e+00	0	25	0	1011875840	72	4829
2026-01-08 02:13:03.10	258.76	26.15	-53.6	-55.7	14.2	0.00e+00	0	25	0	1012924416	72	4865
2026-01-08 02:13:04.09	258.60	26.01	-53.6	-55.7	14.1	0.00e+00	0	25	0	1015021568	72	4869
2026-01-08 02:13:05.09	258.44	25.87	-53.6	-55.8	14.2	0.00e+00	0	25	0	1017118720	72	4874
2026-01-08 02:13:06.08	258.28	25.74	-53.5	-55.6	14.2	0.00e+00	0	25	0	1019215872	72	4810
2026-01-08 02:13:07.07	258.12	25.60	-53.3	-55.4	14.3	0.00e+00	0	25	0	1020264448	72	4682
2026-01-08 02:13:08.06	257.97	25.46	-53.1	-55.1	14.5	0.00e+00	0	25	0	1022361600	72	4538
2026-01-08 02:13:09.06	257.81	25.32	-53.0	-55.0	14.5	0.00e+00	0	25	0	1024458752	72	4451
2026-01-08 02:13:10.06	257.66	25.19	-52.8	-54.7	14.7	0.00e+00	0	25	0	1026555904	72	4329
2026-01-08 02:13:11.06	257.51	25.05	-52.8	-54.7	14.7	0.00e+00	0	25	0	1028653056	72	4337
2026-01-08 02:13:12.06	257.36	24.91	-52.8	-54.7	14.7	0.00e+00	0	25	0	1029701632	72	4319
2026-01-08 02:13:13.06	257.21	24.78	-52.8	-54.7	14.7	0.00e+00	0	25	0	1031798784	72	4297
2026-01-08 02:13:14.05	257.06	24.64	-52.7	-54.6	14.7	0.00e+00	0	25	0	1033895936	72	4277
2026-01-08 02:13:15.05	256.91	24.51	-52.9	-54.9	14.6	0.00e+00	0	25	0	1035993088	72	4393
2026-01-08 02:13:16.04	256.77	24.38	-52.8	-54.7	14.7	0.00e+00	0	25	0	1037041664	72	4305
2026-01-08 02:13:17.04	256.62	24.24	-52.8	-54.7	14.7	0.00e+00	0	25	0	1039138816	72	4296
2026-01-08 02:13:18.04	256.48	24.11	-52.7	-54.5	14.6	0.00e+00	0	25	0	1041235968	71	4493
2026-01-08 02:13:19.04	256.34	23.98	-52.8	-54.8	14.5	0.00e+00	0	25	0	1043333120	71	4601
2026-01-08 02:13:20.04	256.20	23.84	-52.9	-54.9	14.4	0.00e+00	0	25	0	1045430272	71	4681
2026-01-08 02:13:21.04	256.06	23.71	-52.9	-54.9	14.4	0.00e+00	0	25	0	1046478848	71	4700
2026-01-08 02:13:22.04	255.92	23.58	-53.1	-55.2	14.3	0.00e+00	0	25	0	1048576000	71	4824
2026-01-08 02:13:23.03	255.78	23.45	-53.2	-55.3	14.2	0.00e+00	0	25	0	1050673152	71	4889
2026-01-08 02:13:24.03	255.65	23.32	-53.2	-55.3	14.2	0.00e+00	0	25	0	1052770304	71	4879
2026-01-08 02:13:25.03	255.51	23.19	-53.2	-55.3	14.3	0.00e+00	0	25	0	1054867456	71	4886
2026-01-08 02:13:26.03	255.38	23.06	-53.1	-55.2	14.3	0.00e+00	0	25	0	1055916032	71	4849
2026-01-08 02:13:27.03	255.24	22.93	-53.1	-55.2	14.3	0.00e+00	0	25	0	1058013184	71	4833
2026-01-08 02:13:28.02	255.11	22.80	-53.1	-55.1	14.3	0.00e+00	0	25	0	1060110336	71	4800
2026-01-08 02:13:29.02	254.98	22.68	-53.1	-55.1	14.3	0.00e+00	0	25	0	1062207488	71	4791
2026-01-08 02:13:30.02	254.85	22.55	-53.0	-55.1	14.3	0.00e+00	0	25	0	1063256064	71	4766
2026-01-08 02:13:31.02	254.73	22.42	-53.0	-55.0	14.4	0.00e+00	0	25	0	1065353216	71	4722
2026-01-08 02:13:32.02	254.60	22.30	-52.9	-54.9	14.4	0.00e+00	0	25	0	1067450368	71	4696
2026-01-08 02:13:33.02	254.47	22.17	-52.9	-54.9	14.4	0.00e+00	0	25	0	1069547520	71	4674
2026-01-08 02:13:34.01	254.35	22.04	-52.8	-54.7	14.5	0.00e+00	0	25	0	1071644672	71	4598
2026-01-08 02:13:35.01	254.22	21.92	-52.8	-54.8	14.5	0.00e+00	0	25	0	1072693248	71	4631
2026-01-08 02:13:36.01	254.10	21.79	-52.7	-54.7	14.5	0.00e+00	0	25	0	1074790400	71	4568
2026-01-08 02:13:37.02	253.98	21.67	-52.8	-54.8	14.5	0.00e+00	0	25	0	1076887552	71	4600
2026-01-08 02:13:38.02	253.86	21.55	-52.7	-54.7	14.5	0.00e+00	0	25	0	1078984704	71	4556
2026-01-08 02:13:39.02	253.74	21.42	-52.7	-54.6	14.5	0.00e+00	0	25	0	1081081856	71	4533
2026-01-08 02:13:40.02	253.62	21.30	-52.8	-54.8	14.5	0.00e+00	0	25	0	1082130432	71	4605
2026-01-08 02:13:41.03	253.50	21.18	-52.8	-54.8	14.4	0.00e+00	0	25	0	1084227584	71	4632
2026-01-08 02:13:42.02	253.38	21.05	-52.7	-54.6	14.5	0.00e+00	0	25	0	1086324736	71	4533
2026-01-08 02:13:43.02	253.26	20.93	-52.7	-54.6	14.5	0.00e+00	0	25	0	1088421888	71	4541
2026-01-08 02:13:44.01	253.15	20.81	-52.7	-54.6	14.6	0.00e+00	0	25	0	1090519040	71	4524
2026-01-08 02:13:45.01	253.04	20.69	-52.6	-54.5	14.6	0.00e+00	0	25	0	1091567616	71	4493
2026-01-08 02:13:46.01	252.92	20.57	-52.7	-54.7	14.5	0.00e+00	0	25	0	1093664768	71	4575
2026-01-08 02:13:47.01	252.81	20.45	-52.7	-54.7	14.5	0.00e+00	0	25	0	1095761920	71	4559
2026-01-08 02:13:48.00	252.70	20.33	-52.8	-54.7	14.5	0.00e+00	0	25	0	1097859072	71	4589
2026-01-08 02:13:49.01	252.59	20.21	-52.9	-54.9	14.4	0.00e+00	0	25	0	1098907648	71	4692
2026-01-08 02:13:50.01	252.48	20.10	-52.8	-54.8	14.5	0.00e+00	0	25	0	1101004800	71	4599
2026-01-08 02:13:51.00	252.37	19.98	-52.9	-54.9	14.4	0.00e+00	0	25	0	1103101952	71	4679
2026-01-08 02:13:52.00	252.26	19.86	-52.9	-54.9	14.4	0.00e+00	0	25	0	1105199104	71	4664
2026-01-08 02:13:53.01	252.15	19.74	-52.8	-54.8	14.5	0.00e+00	0	25	0	1107296256	71	4628
2026-01-08 02:13:54.01	252.05	19.63	-52.7	-54.7	14.5	0.00e+00	0	25	0	1108344832	71	4554
2026-01-08 02:13:55.01	251.94	19.51	-52.7	-54.7	14.5	0.00e+00	0	25	0	1110441984	71	4556
2026-01-08 02:13:56.01	251.83	19.39	-52.6	-54.6	14.6	0.00e+00	0	25	0	1112539136	71	4494
2026-01-08 02:13:57.00	251.73	19.28	-52.7	-54.6	14.6	0.00e+00	0	25	0	1114636288	71	4524
2026-01-08 02:13:58.00	251.63	19.17	-52.7	-54.6	14.6	0.00e+00	0	25	0	1116733440	71	4531
2026-01-08 02:13:59.00	251.53	19.05	-52.8	-54.8	14.5	0.00e+00	0	25	0	1117782016	71	4622
2026-01-08 02:14:00.00	251.42	18.94	-52.9	-54.9	14.4	0.00e+00	0	25	0	1119879168	71	4671
2026-01-08 02:14:01.00	251.32	18.82	-52.8	-54.8	14.4	0.00e+00	0	25	0	1121976320	71	4642
2026-01-08 02:14:01.99	251.22	18.71	-53.0	-55.0	14.3	0.00e+00	0	25	0	1124073472	71	4754
2026-01-08 02:14:02.99	251.12	18.60	-53.1	-55.2	14.2	0.00e+00	0	25	0	1125122048	71	4858
2026-01-08 02:14:03.98	251.03	18.49	-53.1	-55.2	14.2	0.00e+00	0	25	0	1127219200	71	4830
2026-01-08 02:14:04.97	250.93	18.38	-53.1	-55.3	14.2	0.00e+00	0	25	0	1129316352	71	4873
2026-01-08 02:14:05.97	250.83	18.26	-53.0	-55.1	14.3	0.00e+00	0	25	0	1131413504	71	4795
2026-01-08 02:14:06.97	250.74	18.15	-53.0	-55.1	14.3	0.00e+00	0	25	0	1133510656	71	4774
2026-01-08 02:14:07.97	250.64	18.04	-53.0	-55.2	14.3	0.00e+00	0	25	0	1134559232	71	4815
2026-01-08 02:14:08.97	250.54	17.93	-52.9	-54.9	14.4	0.00e+00	0	25	0	1136656384	71	4691
2026-01-08 02:14:09.96	250.45	17.82	-52.9	-55.0	14.3	0.00e+00	0	25	0	1138753536	71	4721
2026-01-08 02:14:10.96	250.36	17.71	-53.0	-55.0	14.3	0.00e+00	0	25	0	1140850688	71	4752
2026-01-08 02:14:11.96	250.26	17.61	-52.8	-54.8	14.4	0.00e+00	0	25	0	1141899264	71	4615
2026-01-08 02:14:12.95	250.17	17.50	-52.7	-54.7	14.5	0.00e+00	0	25	0	1143996416	71	4592
2026-01-08 02:14:13.94	250.08	17.39	-52.9	-54.9	14.4	0.00e+00	0	25	0	1146093568	71	4683
2026-01-08 02:14:14.94	249.99	17.28	-52.8	-54.8	14.4	0.00e+00	0	25	0	1148190720	71	4625
2026-01-08 02:14:15.94	249.90	17.18	-52.8	-54.8	14.4	0.00e+00	0	25	0	1150287872	71	4618
2026-01-08 02:14:16.93	249.81	17.07	-52.9	-54.9	14.4	0.00e+00	0	25	0	1151336448	71	4688
2026-01-08 02:14:17.92	249.72	16.96	-52.9	-55.0	14.3	0.00e+00	0	25	0	1153433600	71	4749
2026-01-08 02:14:18.92	249.64	16.86	-52.9	-55.0	14.3	0.00e+00	0	25	0	1155530752	71	4750
2026-01-08 02:14:19.92	249.55	16.75	-53.1	-55.2	14.2	0.00e+00	0	25	0	1157627904	71	4849
2026-01-08 02:14:20.91	249.46	16.65	-53.1	-55.3	14.2	0.00e+00	0	25	0	1158676480	71	4871
2026-01-08 02:14:21.91	249.38	16.54	-53.1	-55.2	14.2	0.00e+00	0	25	0	1160773632	71	4860
2026-01-08 02:14:22.91	249.29	16.44	-53.1	-55.3	14.2	0.00e+00	0	25	0	1162870784	71	4900
2026-01-08 02:14:23.91	249.20	16.33	-53.2	-55.4	14.1	0.00e+00	0	25	0	1164967936	71	4957
2026-01-08 02:14:24.90	249.12	16.23	-53.0	-55.2	14.3	0.00e+00	0	25	0	1167065088	71	4821
2026-01-08 02:14:25.91	249.04	16.12	-53.1	-55.3	14.2	0.00e+00	0	25	0	1168113664	71	4894
2026-01-08 02:14:26.90	248.95	16.02	-53.2	-55.3	14.1	0.00e+00	0	25	0	1170210816	71	4922
2026-01-08 02:14:27.90	248.87	15.92	-53.1	-55.3	14.2	0.00e+00	0	25	0	1172307968	71	4877
2026-01-08 02:14:28.90	248.79	15.82	-53.2	-55.4	14.1	0.00e+00	0	25	0	1174405120	71	4929
2026-01-08 02:14:29.91	248.71	15.71	-53.1	-55.3	14.1	0.00e+00	0	25	0	1176502272	71	4897
2026-01-08 02:14:30.91	248.62	15.61	-53.1	-55.2	14.2	0.00e+00	0	25	0	1177550848	71	4843
2026-01-08 02:14:31.91	248.54	15.51	-53.1	-55.2	14.2	0.00e+00	0	25	0	1179648000	71	4853
2026-01-08 02:14:32.92	248.46	15.41	-53.1	-55.3	14.2	0.00e+00	0	25	0	1181745152	71	4882
2026-01-08 02:14:33.92	248.38	15.31	-53.1	-55.3	14.2	0.00e+00	0	25	0	1183842304	71	4889
2026-01-08 02:14:34.93	248.30	15.21	-53.2	-55.4	14.1	0.00e+00	0	25	0	1185939456	71	4978
2026-01-08 02:14:35.93	248.23	15.11	-53.2	-55.4	14.1	0.00e+00	0	25	0	1186988032	71	4946
2026-01-08 02:14:36.93	248.15	15.01	-53.2	-55.4	14.1	0.00e+00	0	25	0	1189085184	71	4967
2026-01-08 02:14:37.92	248.07	14.91	-53.2	-55.5	14.0	0.00e+00	0	25	0	1191182336	71	4997
2026-01-08 02:14:38.92	248.00	14.81	-53.2	-55.4	14.1	0.00e+00	0	25	0	1193279488	71	4981
2026-01-08 02:14:39.92	247.92	14.71	-53.2	-55.4	14.1	0.00e+00	0	25	0	1194328064	71	4957
2026-01-08 02:14:40.92	247.84	14.61	-53.2	-55.4	14.1	0.00e+00	0	25	0	1196425216	71	4963
2026-01-08 02:14:41.93	247.77	14.51	-53.2	-55.4	14.1	0.00e+00	0	25	0	1198522368	71	4970
2026-01-08 02:14:42.92	247.69	14.42	-53.1	-55.3	14.1	0.00e+00	0	25	0	1200619520	71	4923
2026-01-08 02:14:43.91	247.62	14.32	-53.2	-55.4	14.1	0.00e+00	0	25	0	1202716672	71	4951
2026-01-08 02:14:44.90	247.55	14.23	-53.3	-55.5	14.0	0.00e+00	0	25	0	1203765248	71	5031
2026-01-08 02:14:45.90	247.47	14.13	-53.2	-55.4	14.1	0.00e+00	0	25	0	1205862400	71	4975
2026-01-08 02:14:46.90	247.40	14.03	-53.4	-55.7	13.9	0.00e+00	0	25	0	1207959552	71	5102
2026-01-08 02:14:47.90	247.33	13.94	-53.3	-55.6	14.0	0.00e+00	0	25	0	1210056704	71	5054
2026-01-08 02:14:48.90	247.26	13.84	-53.3	-55.6	14.0	0.00e+00	0	25	0	1212153856	71	5063
2026-01-08 02:14:49.90	247.19	13.75	-53.3	-55.6	14.0	0.00e+00	0	25	0	1213202432	71	5047
2026-01-08 02:14:50.90	247.12	13.65	-53.2	-55.5	14.0	0.00e+00	0	25	0	1215299584	71	5010
2026-01-08 02:14:51.89	247.05	13.56	-53.3	-55.6	14.0	0.00e+00	0	25	0	1217396736	71	5082
2026-01-08 02:14:52.89	246.98	13.46	-53.4	-55.7	13.9	0.00e+00	0	25	0	1219493888	71	5130
