passes_logs/2026/01/08/R3.2S_Murmansk/R3.2S_Murmansk__20260108_042311_FENGYUN_3D_rec.log

#Pass ID: 20260108_042311_FENGYUN 3D
#Satellite: FENGYUN 3D
#Configuration: FENGYUN 3D
#almurnet v.1.7.20251203
#Start time: 2026-01-08 04:23:11

#Version: 2.2.20231116
#Station: R3.2S_Murmansk
#Location: 33.079688 lon 68.888172 lat
#TLE: 1 43010U 17072A   26006.26440730  .00000376  00000+0  19957-3 0  9994
#TLE: 2 43010  98.9925 337.9455 0002045 123.9195 236.2175 14.19693586422016

#Time	Az	El	Level	Level2	SNR	BER	BlckErr	Temp	State	Recorded	gain1	gain2
2026-01-08 04:23:11.26	33.39	1.98	-56.9	-68.6	3.8	8.44e-01	0	23	0	0	79	14344
2026-01-08 04:23:12.26	33.35	2.04	-57.2	-70.1	3.8	8.46e-01	0	23	104	0	79	17011
2026-01-08 04:23:13.25	33.32	2.11	-57.2	-70.2	3.8	8.46e-01	0	23	104	0	79	17092
2026-01-08 04:23:14.25	33.29	2.17	-57.2	-69.9	3.8	8.46e-01	0	23	104	0	79	16674
2026-01-08 04:23:15.24	33.25	2.23	-57.1	-69.8	3.8	8.45e-01	0	23	104	0	79	16328
2026-01-08 04:23:16.24	33.22	2.29	-57.2	-69.9	3.8	8.46e-01	0	23	104	0	79	16604
2026-01-08 04:23:17.24	33.18	2.35	-57.2	-70.1	3.8	8.47e-01	0	23	104	0	79	16908
2026-01-08 04:23:18.24	33.15	2.42	-57.2	-70.1	3.8	8.47e-01	0	23	104	0	79	16974
2026-01-08 04:23:19.24	33.11	2.48	-57.2	-70.0	3.8	8.46e-01	0	23	104	0	79	16783
2026-01-08 04:23:20.24	33.08	2.54	-57.2	-69.9	3.8	8.45e-01	0	23	104	0	79	16641
2026-01-08 04:23:21.24	33.04	2.61	-57.2	-70.0	3.8	8.45e-01	0	23	104	0	79	16774
2026-01-08 04:23:22.24	33.01	2.67	-57.2	-70.0	3.8	8.46e-01	0	23	104	0	79	16784
2026-01-08 04:23:23.23	32.97	2.73	-57.2	-69.9	3.8	8.46e-01	0	23	104	0	79	16652
2026-01-08 04:23:24.23	32.94	2.80	-57.2	-70.0	3.8	8.45e-01	0	23	104	0	79	16852
2026-01-08 04:23:25.23	32.90	2.86	-57.2	-70.0	3.8	8.45e-01	0	23	104	0	79	16874
2026-01-08 04:23:26.22	32.86	2.92	-57.2	-69.9	3.8	8.45e-01	0	23	104	0	79	16543
2026-01-08 04:23:27.21	32.83	2.99	-57.2	-69.7	3.8	8.45e-01	0	23	104	0	79	16314
2026-01-08 04:23:28.21	32.79	3.05	-57.2	-69.7	3.8	8.45e-01	0	23	104	0	79	16183
2026-01-08 04:23:29.21	32.76	3.11	-57.1	-69.6	3.8	8.45e-01	0	23	104	0	79	16016
2026-01-08 04:23:30.21	32.72	3.18	-57.2	-69.8	3.8	8.44e-01	0	23	104	0	79	16353
2026-01-08 04:23:31.20	32.68	3.24	-57.2	-70.0	3.8	8.45e-01	0	23	104	0	79	16733
2026-01-08 04:23:32.20	32.64	3.31	-57.2	-70.2	3.8	8.46e-01	0	23	104	0	79	17150
2026-01-08 04:23:33.19	32.61	3.37	-57.2	-70.2	3.8	8.47e-01	0	23	104	0	79	17166
2026-01-08 04:23:34.19	32.57	3.43	-57.2	-70.1	3.8	8.45e-01	0	23	104	0	79	17003
2026-01-08 04:23:35.18	32.53	3.50	-57.2	-70.0	3.8	8.45e-01	0	23	104	0	79	16815
2026-01-08 04:23:36.17	32.49	3.56	-57.2	-70.0	3.8	8.46e-01	0	23	104	0	79	16745
2026-01-08 04:23:37.17	32.46	3.63	-57.2	-69.9	3.8	8.46e-01	0	23	104	0	79	16677
2026-01-08 04:23:38.17	32.42	3.69	-57.2	-69.8	3.8	8.45e-01	0	23	104	0	79	16458
2026-01-08 04:23:39.16	32.38	3.76	-57.2	-69.7	3.8	8.45e-01	0	23	104	0	79	16152
2026-01-08 04:23:40.16	32.34	3.82	-57.1	-69.3	3.8	8.46e-01	0	23	104	0	79	15451
2026-01-08 04:23:41.15	32.30	3.89	-57.1	-69.0	3.8	8.45e-01	0	23	104	0	79	14973
2026-01-08 04:23:42.16	32.26	3.96	-57.1	-68.6	3.8	8.45e-01	0	23	104	0	79	14288
2026-01-08 04:23:43.15	32.22	4.02	-57.1	-68.3	3.9	8.45e-01	0	23	104	0	79	13744
2026-01-08 04:23:44.14	32.19	4.09	-57.1	-68.1	3.9	8.44e-01	0	23	104	0	79	13520
2026-01-08 04:23:45.14	32.15	4.15	-57.0	-67.6	4.0	8.44e-01	0	23	104	0	79	12793
2026-01-08 04:23:46.14	32.11	4.22	-57.0	-67.3	4.0	8.42e-01	0	24	0	0	79	12278
2026-01-08 04:23:47.14	32.07	4.29	-57.0	-67.6	3.9	8.41e-01	0	24	104	0	79	12774
2026-01-08 04:23:48.13	32.03	4.35	-57.0	-67.4	3.9	8.41e-01	0	24	104	0	79	12455
2026-01-08 04:23:49.13	31.98	4.42	-57.0	-67.0	4.1	8.40e-01	0	24	0	0	79	11884
2026-01-08 04:23:50.13	31.94	4.49	-56.9	-66.2	4.3	8.34e-01	0	24	0	0	79	10809
2026-01-08 04:23:51.13	31.90	4.55	-56.7	-65.2	4.7	8.18e-01	0	24	0	0	79	9612
2026-01-08 04:23:52.13	31.86	4.62	-56.5	-63.7	5.4	7.32e-01	0	24	0	0	79	8134
2026-01-08 04:23:53.14	31.82	4.69	-56.3	-62.8	6.1	3.60e-01	0	24	0	4194304	79	7366
2026-01-08 04:23:54.13	31.78	4.76	-56.0	-62.0	6.6	1.92e-01	0	24	0	10485760	78	7120
2026-01-08 04:23:55.12	31.74	4.82	-55.7	-61.0	7.5	1.03e-01	0	24	0	15728640	78	6309
2026-01-08 04:23:56.12	31.70	4.89	-55.3	-60.0	8.4	4.03e-02	0	24	0	22020096	77	5924
2026-01-08 04:23:57.12	31.65	4.96	-54.9	-59.0	9.3	1.47e-02	0	24	0	27262976	76	5623
2026-01-08 04:23:58.12	31.61	5.03	-54.8	-58.8	9.4	1.03e-02	0	24	0	32505856	76	5527
2026-01-08 04:23:59.13	31.57	5.10	-57.2	-66.6	4.3	8.34e-01	0	24	0	35651584	79	11386
2026-01-08 04:24:00.13	31.53	5.17	-51.5	-53.6	13.2	1.10e-06	0	24	0	40894464	69	4497
2026-01-08 04:24:01.13	31.48	5.23	-56.4	-64.2	5.1	7.17e-01	0	24	0	45088768	78	9151
2026-01-08 04:24:02.13	31.44	5.30	-56.5	-63.0	6.0	4.62e-01	0	24	0	49283072	78	7959
2026-01-08 04:24:03.13	31.40	5.37	-52.3	-54.8	12.2	0.00e+00	0	24	0	54525952	69	5163
2026-01-08 04:24:04.13	31.35	5.44	-51.2	-53.2	13.4	0.00e+00	0	24	0	60817408	69	4294
2026-01-08 04:24:05.13	31.31	5.51	-50.4	-52.2	13.8	0.00e+00	0	24	0	66060288	67	4319
2026-01-08 04:24:06.13	31.26	5.58	-49.8	-51.4	14.1	0.00e+00	0	24	0	72351744	66	4181
2026-01-08 04:24:07.12	31.22	5.65	-49.5	-51.2	14.2	0.00e+00	0	24	0	77594624	65	4293
2026-01-08 04:24:08.12	31.18	5.72	-49.4	-51.0	14.3	0.00e+00	0	24	0	82837504	65	4223
2026-01-08 04:24:09.12	31.13	5.79	-49.6	-51.2	14.2	0.00e+00	0	24	0	89128960	65	4310
2026-01-08 04:24:10.12	31.09	5.86	-49.1	-50.6	14.4	0.00e+00	0	24	0	94371840	64	4268
2026-01-08 04:24:11.12	31.04	5.93	-48.8	-50.2	14.6	0.00e+00	0	24	0	99614720	64	4078
2026-01-08 04:24:12.12	30.99	6.00	-48.6	-50.0	14.5	0.00e+00	0	24	0	105906176	63	4220
2026-01-08 04:24:13.12	30.95	6.07	-48.7	-50.2	14.5	0.00e+00	0	24	0	111149056	63	4310
2026-01-08 04:24:14.11	30.90	6.14	-48.7	-50.1	14.5	0.00e+00	0	24	0	116391936	63	4268
2026-01-08 04:24:15.10	30.86	6.21	-48.8	-50.2	14.5	0.00e+00	0	24	0	122683392	63	4333
2026-01-08 04:24:16.09	30.81	6.28	-48.7	-50.1	14.6	0.00e+00	0	24	0	127926272	63	4288
2026-01-08 04:24:17.09	30.76	6.35	-48.7	-50.1	14.6	0.00e+00	0	24	0	133169152	63	4274
2026-01-08 04:24:18.09	30.72	6.43	-48.4	-49.8	14.7	0.00e+00	0	24	0	139460608	63	4127
2026-01-08 04:24:19.09	30.67	6.50	-48.6	-50.0	14.6	0.00e+00	0	24	0	144703488	63	4227
2026-01-08 04:24:20.09	30.62	6.57	-48.5	-49.9	14.7	0.00e+00	0	24	0	149946368	63	4164
2026-01-08 04:24:21.10	30.57	6.64	-48.5	-49.8	14.7	0.00e+00	0	24	0	156237824	63	4140
2026-01-08 04:24:22.10	30.53	6.72	-48.5	-49.9	14.7	0.00e+00	0	24	0	161480704	63	4165
2026-01-08 04:24:23.09	30.48	6.79	-48.5	-49.9	14.7	0.00e+00	0	24	0	166723584	63	4165
2026-01-08 04:24:24.09	30.43	6.86	-48.5	-49.9	14.7	0.00e+00	0	24	0	173015040	63	4152
2026-01-08 04:24:25.09	30.38	6.93	-48.5	-49.9	14.7	0.00e+00	0	24	0	178257920	63	4173
2026-01-08 04:24:26.09	30.33	7.01	-48.6	-50.0	14.7	0.00e+00	0	24	0	184549376	63	4206
2026-01-08 04:24:27.08	30.28	7.08	-48.6	-50.0	14.7	0.00e+00	0	24	0	189792256	63	4214
2026-01-08 04:24:28.08	30.23	7.15	-48.7	-50.1	14.6	0.00e+00	0	24	0	195035136	63	4282
2026-01-08 04:24:29.07	30.18	7.23	-48.6	-50.0	14.7	0.00e+00	0	24	0	201326592	63	4204
2026-01-08 04:24:30.07	30.13	7.30	-48.6	-50.0	14.6	0.00e+00	0	24	0	206569472	63	4217
2026-01-08 04:24:31.07	30.08	7.37	-48.6	-50.0	14.6	0.00e+00	0	24	0	211812352	63	4236
2026-01-08 04:24:32.06	30.03	7.45	-48.6	-50.0	14.6	0.00e+00	0	24	0	218103808	63	4228
2026-01-08 04:24:33.06	29.98	7.52	-48.5	-49.9	14.7	0.00e+00	0	24	0	223346688	63	4187
2026-01-08 04:24:34.06	29.93	7.60	-48.5	-49.9	14.7	0.00e+00	0	24	0	228589568	63	4172
2026-01-08 04:24:35.05	29.88	7.67	-48.6	-50.0	14.7	0.00e+00	0	24	0	234881024	63	4223
2026-01-08 04:24:36.06	29.83	7.75	-48.7	-50.1	14.6	0.00e+00	0	24	0	240123904	63	4246
2026-01-08 04:24:37.05	29.77	7.82	-48.6	-49.9	14.7	0.00e+00	0	24	0	245366784	63	4187
2026-01-08 04:24:38.05	29.72	7.90	-48.5	-49.9	14.7	0.00e+00	0	24	0	251658240	63	4181
2026-01-08 04:24:39.05	29.67	7.97	-48.6	-50.0	14.7	0.00e+00	0	24	0	256901120	63	4220
2026-01-08 04:24:40.04	29.62	8.05	-48.5	-49.9	14.7	0.00e+00	0	24	0	262144000	63	4164
2026-01-08 04:24:41.04	29.56	8.12	-48.5	-49.8	14.8	0.00e+00	0	24	0	268435456	63	4127
2026-01-08 04:24:42.04	29.51	8.20	-48.5	-49.8	14.8	0.00e+00	0	24	0	273678336	63	4131
2026-01-08 04:24:43.04	29.46	8.28	-48.4	-49.7	14.8	0.00e+00	0	24	0	278921216	63	4090
2026-01-08 04:24:44.04	29.40	8.35	-48.4	-49.8	14.8	0.00e+00	0	24	0	285212672	63	4104
2026-01-08 04:24:45.03	29.35	8.43	-48.3	-49.7	14.9	0.00e+00	0	24	0	290455552	63	4056
2026-01-08 04:24:46.03	29.29	8.51	-48.3	-49.6	14.9	0.00e+00	0	24	0	296747008	63	4024
2026-01-08 04:24:47.04	29.24	8.58	-48.3	-49.7	14.9	0.00e+00	0	24	0	301989888	63	4075
2026-01-08 04:24:48.03	29.18	8.66	-48.4	-49.7	14.8	0.00e+00	0	24	0	307232768	63	4084
2026-01-08 04:24:49.03	29.13	8.74	-48.4	-49.7	14.8	0.00e+00	0	24	0	313524224	63	4093
2026-01-08 04:24:50.03	29.07	8.82	-48.4	-49.7	14.8	0.00e+00	0	24	0	318767104	63	4098
2026-01-08 04:24:51.03	29.01	8.89	-48.4	-49.8	14.8	0.00e+00	0	24	0	324009984	63	4119
2026-01-08 04:24:52.02	28.96	8.97	-48.4	-49.7	14.9	0.00e+00	0	24	0	330301440	63	4091
2026-01-08 04:24:53.02	28.90	9.05	-48.2	-49.5	14.9	0.00e+00	0	24	0	335544320	63	4002
2026-01-08 04:24:54.02	28.84	9.13	-48.2	-49.5	14.9	0.00e+00	0	24	0	340787200	63	3998
2026-01-08 04:24:55.02	28.78	9.21	-48.2	-49.5	15.0	0.00e+00	0	24	0	347078656	63	4000
2026-01-08 04:24:56.01	28.73	9.29	-48.2	-49.5	14.8	0.00e+00	0	24	0	352321536	62	4213
2026-01-08 04:24:57.01	28.67	9.37	-48.2	-49.5	14.8	0.00e+00	0	24	0	358612992	62	4215
2026-01-08 04:24:58.00	28.61	9.44	-48.3	-49.6	14.8	0.00e+00	0	24	0	363855872	62	4272
2026-01-08 04:24:59.00	28.55	9.52	-48.2	-49.6	14.8	0.00e+00	0	24	0	369098752	62	4247
2026-01-08 04:25:00.00	28.49	9.60	-48.3	-49.6	14.8	0.00e+00	0	24	0	374341632	62	4259
2026-01-08 04:25:01.00	28.43	9.69	-48.1	-49.4	14.9	0.00e+00	0	24	0	380633088	62	4158
2026-01-08 04:25:01.99	28.37	9.77	-48.0	-49.3	14.9	0.00e+00	0	24	0	385875968	62	4126
2026-01-08 04:25:02.99	28.31	9.85	-48.1	-49.4	14.9	0.00e+00	0	24	0	391118848	62	4152
2026-01-08 04:25:04.00	28.25	9.93	-48.1	-49.5	14.8	0.00e+00	0	24	0	397410304	62	4198
2026-01-08 04:25:04.99	28.19	10.01	-47.9	-49.2	15.0	0.00e+00	0	24	0	402653184	62	4056
2026-01-08 04:25:05.99	28.13	10.09	-47.8	-49.1	15.0	0.00e+00	0	24	0	408944640	62	4016
2026-01-08 04:25:06.98	28.07	10.17	-47.8	-49.1	15.1	0.00e+00	0	24	0	414187520	62	4009
2026-01-08 04:25:07.98	28.00	10.25	-47.8	-49.1	15.0	0.00e+00	0	24	0	419430400	62	4007
2026-01-08 04:25:08.99	27.94	10.34	-47.7	-49.0	15.1	0.00e+00	0	24	0	425721856	62	3974
2026-01-08 04:25:09.99	27.88	10.42	-47.8	-49.1	15.0	0.00e+00	0	24	0	430964736	62	4028
2026-01-08 04:25:10.99	27.81	10.50	-47.8	-49.1	15.0	0.00e+00	0	25	0	436207616	62	4036
2026-01-08 04:25:11.99	27.75	10.58	-47.8	-49.0	15.1	0.00e+00	0	24	0	442499072	62	3999
2026-01-08 04:25:12.99	27.69	10.67	-47.8	-49.1	15.0	0.00e+00	0	24	0	447741952	62	4032
2026-01-08 04:25:13.98	27.62	10.75	-47.8	-49.1	15.0	0.00e+00	0	25	0	454033408	62	4033
2026-01-08 04:25:14.98	27.56	10.83	-47.9	-49.1	15.0	0.00e+00	0	24	0	459276288	62	4035
2026-01-08 04:25:15.98	27.49	10.92	-47.9	-49.2	15.0	0.00e+00	0	24	0	464519168	62	4056
2026-01-08 04:25:16.98	27.43	11.00	-47.7	-49.0	15.1	0.00e+00	0	24	0	470810624	62	3982
2026-01-08 04:25:17.98	27.36	11.09	-47.8	-49.0	15.1	0.00e+00	0	24	0	476053504	62	3997
2026-01-08 04:25:18.98	27.29	11.17	-47.9	-49.1	15.0	0.00e+00	0	24	0	481296384	62	4038
2026-01-08 04:25:19.98	27.23	11.26	-47.8	-49.1	15.0	0.00e+00	0	24	0	487587840	62	4025
2026-01-08 04:25:20.98	27.16	11.34	-47.9	-49.1	15.0	0.00e+00	0	24	0	492830720	62	4034
2026-01-08 04:25:21.97	27.09	11.43	-47.9	-49.1	15.0	0.00e+00	0	24	0	498073600	62	4047
2026-01-08 04:25:22.96	27.02	11.51	-47.9	-49.2	15.0	0.00e+00	0	25	0	504365056	62	4076
2026-01-08 04:25:23.96	26.96	11.60	-47.8	-49.1	15.1	0.00e+00	0	25	0	509607936	62	4010
2026-01-08 04:25:24.96	26.89	11.68	-47.7	-49.0	15.1	0.00e+00	0	24	0	515899392	62	3968
2026-01-08 04:25:25.96	26.82	11.77	-47.6	-48.9	15.0	0.00e+00	0	24	0	521142272	61	4156
2026-01-08 04:25:26.96	26.75	11.86	-47.7	-49.0	14.9	0.00e+00	0	25	0	526385152	61	4209
2026-01-08 04:25:27.96	26.68	11.94	-47.8	-49.0	14.9	0.00e+00	0	24	0	532676608	61	4237
2026-01-08 04:25:28.96	26.61	12.03	-47.7	-49.0	14.9	0.00e+00	0	25	0	537919488	61	4220
2026-01-08 04:25:29.95	26.53	12.12	-47.7	-49.0	14.9	0.00e+00	0	25	0	543162368	61	4213
2026-01-08 04:25:30.95	26.46	12.20	-47.7	-49.0	15.0	0.00e+00	0	24	0	548405248	61	4202
2026-01-08 04:25:31.95	26.39	12.29	-47.4	-48.6	15.1	0.00e+00	0	25	0	554696704	61	4046
2026-01-08 04:25:32.95	26.32	12.38	-47.3	-48.5	15.1	0.00e+00	0	25	0	559939584	61	4004
2026-01-08 04:25:33.94	26.25	12.47	-47.2	-48.4	15.2	0.00e+00	0	24	0	566231040	61	3954
2026-01-08 04:25:34.93	26.17	12.56	-47.1	-48.3	15.1	0.00e+00	0	24	0	571473920	60	4138
2026-01-08 04:25:35.93	26.10	12.65	-47.2	-48.4	15.1	0.00e+00	0	25	0	576716800	60	4152
2026-01-08 04:25:36.92	26.03	12.73	-47.2	-48.4	15.0	0.00e+00	0	25	0	583008256	60	4169
2026-01-08 04:25:37.92	25.95	12.82	-47.0	-48.2	15.2	0.00e+00	0	25	0	588251136	60	4067
2026-01-08 04:25:38.92	25.87	12.91	-47.1	-48.3	15.1	0.00e+00	0	24	0	593494016	60	4113
2026-01-08 04:25:39.92	25.80	13.00	-47.0	-48.2	15.1	0.00e+00	0	25	0	599785472	60	4088
2026-01-08 04:25:40.92	25.72	13.09	-46.9	-48.1	15.2	0.00e+00	0	25	0	605028352	60	4029
2026-01-08 04:25:41.92	25.65	13.18	-47.0	-48.1	15.2	0.00e+00	0	25	0	610271232	60	4051
2026-01-08 04:25:42.92	25.57	13.28	-47.1	-48.2	15.1	0.00e+00	0	25	0	616562688	60	4091
2026-01-08 04:25:43.91	25.49	13.37	-46.9	-48.1	15.2	0.00e+00	0	25	0	621805568	60	4030
2026-01-08 04:25:44.91	25.41	13.46	-46.9	-48.0	15.2	0.00e+00	0	24	0	628097024	60	4003
2026-01-08 04:25:45.91	25.33	13.55	-46.9	-48.1	15.2	0.00e+00	0	25	0	633339904	60	4041
2026-01-08 04:25:46.91	25.25	13.64	-46.9	-48.1	15.2	0.00e+00	0	24	0	638582784	60	4025
2026-01-08 04:25:47.90	25.17	13.73	-46.9	-48.1	15.2	0.00e+00	0	25	0	643825664	60	4041
2026-01-08 04:25:48.91	25.09	13.83	-46.9	-48.1	15.2	0.00e+00	0	25	0	650117120	60	4019
2026-01-08 04:25:49.91	25.01	13.92	-47.0	-48.2	15.2	0.00e+00	0	25	0	655360000	60	4060
2026-01-08 04:25:50.90	24.93	14.01	-46.9	-48.1	15.2	0.00e+00	0	25	0	660602880	60	4009
2026-01-08 04:25:51.90	24.85	14.11	-47.0	-48.1	15.2	0.00e+00	0	25	0	666894336	60	4050
2026-01-08 04:25:52.90	24.77	14.20	-46.8	-48.0	15.3	0.00e+00	0	25	0	672137216	60	3980
2026-01-08 04:25:53.90	24.68	14.30	-46.9	-48.0	15.2	0.00e+00	0	25	0	678428672	60	4003
2026-01-08 04:25:54.90	24.60	14.39	-46.8	-47.9	15.3	0.00e+00	0	25	0	683671552	60	3945
2026-01-08 04:25:55.90	24.52	14.49	-46.8	-47.9	15.3	0.00e+00	0	25	0	688914432	60	3954
2026-01-08 04:25:56.90	24.43	14.58	-46.8	-48.0	15.3	0.00e+00	0	25	0	695205888	60	3961
2026-01-08 04:25:57.91	24.34	14.68	-46.7	-47.9	15.3	0.00e+00	0	24	0	700448768	60	3933
2026-01-08 04:25:58.91	24.26	14.77	-46.8	-47.9	15.3	0.00e+00	0	25	0	706740224	60	3943
2026-01-08 04:25:59.90	24.17	14.87	-46.8	-48.0	15.3	0.00e+00	0	25	0	711983104	60	3975
2026-01-08 04:26:00.90	24.09	14.96	-46.8	-48.0	15.2	0.00e+00	0	25	0	717225984	60	3962
2026-01-08 04:26:01.89	24.00	15.06	-47.0	-48.2	15.1	0.00e+00	0	25	0	722468864	59	4315
2026-01-08 04:26:02.89	23.91	15.16	-47.0	-48.2	15.1	0.00e+00	0	25	0	728760320	59	4293
2026-01-08 04:26:03.89	23.82	15.26	-47.0	-48.2	15.1	0.00e+00	0	24	0	734003200	59	4319
2026-01-08 04:26:04.89	23.73	15.35	-47.0	-48.2	15.1	0.00e+00	0	25	0	740294656	59	4313
2026-01-08 04:26:05.89	23.64	15.45	-46.9	-48.1	15.1	0.00e+00	0	25	0	745537536	59	4256
2026-01-08 04:26:06.89	23.55	15.55	-46.7	-47.9	15.2	0.00e+00	0	25	0	750780416	59	4179
2026-01-08 04:26:07.89	23.46	15.65	-46.8	-47.9	15.2	0.00e+00	0	25	0	757071872	59	4183
2026-01-08 04:26:08.89	23.37	15.75	-46.7	-47.9	15.2	0.00e+00	0	25	0	762314752	59	4157
2026-01-08 04:26:09.89	23.27	15.85	-46.7	-47.9	15.2	0.00e+00	0	25	0	767557632	59	4172
2026-01-08 04:26:10.90	23.18	15.95	-46.8	-48.0	15.2	0.00e+00	0	25	0	773849088	59	4212
2026-01-08 04:26:11.90	23.09	16.05	-46.7	-47.9	15.2	0.00e+00	0	25	0	779091968	59	4176
2026-01-08 04:26:12.90	22.99	16.15	-46.8	-47.9	15.2	0.00e+00	0	25	0	784334848	59	4190
2026-01-08 04:26:13.89	22.90	16.25	-46.7	-47.9	15.2	0.00e+00	0	25	0	790626304	59	4160
2026-01-08 04:26:14.89	22.80	16.35	-46.5	-47.6	15.3	0.00e+00	0	25	0	795869184	59	4049
2026-01-08 04:26:15.88	22.70	16.45	-46.5	-47.7	15.3	0.00e+00	0	25	0	802160640	59	4058
2026-01-08 04:26:16.88	22.61	16.55	-46.4	-47.5	15.3	0.00e+00	0	25	0	807403520	59	3982
2026-01-08 04:26:17.87	22.51	16.65	-46.3	-47.4	15.4	0.00e+00	0	25	0	812646400	59	3957
2026-01-08 04:26:18.87	22.41	16.75	-46.4	-47.5	15.3	0.00e+00	0	25	0	818937856	59	4004
2026-01-08 04:26:19.87	22.31	16.86	-46.3	-47.5	15.4	0.00e+00	0	25	0	824180736	59	3973
2026-01-08 04:26:20.87	22.21	16.96	-46.3	-47.4	15.4	0.00e+00	0	25	0	829423616	59	3958
2026-01-08 04:26:21.87	22.11	17.06	-46.4	-47.6	15.3	0.00e+00	0	25	0	835715072	59	4008
2026-01-08 04:26:22.87	22.01	17.17	-46.4	-47.5	15.4	0.00e+00	0	25	0	840957952	59	3997
2026-01-08 04:26:23.87	21.91	17.27	-46.4	-47.5	15.3	0.00e+00	0	25	0	846200832	59	4000
2026-01-08 04:26:24.87	21.80	17.38	-46.4	-47.5	15.3	0.00e+00	0	25	0	852492288	59	4001
2026-01-08 04:26:25.87	21.70	17.48	-46.4	-47.6	15.3	0.00e+00	0	25	0	857735168	59	4008
2026-01-08 04:26:26.87	21.60	17.58	-46.5	-47.6	15.3	0.00e+00	0	25	0	864026624	59	4044
2026-01-08 04:26:27.86	21.49	17.69	-46.6	-47.8	15.2	0.00e+00	0	25	0	869269504	59	4107
2026-01-08 04:26:28.87	21.38	17.80	-46.4	-47.5	15.3	0.00e+00	0	25	0	874512384	59	3996
2026-01-08 04:26:29.85	21.28	17.90	-46.4	-47.5	15.4	0.00e+00	0	25	0	879755264	59	3982
2026-01-08 04:26:30.85	21.17	18.01	-46.4	-47.6	15.3	0.00e+00	0	25	0	886046720	59	4015
2026-01-08 04:26:31.84	21.07	18.11	-46.3	-47.4	15.4	0.00e+00	0	25	0	891289600	59	3929
2026-01-08 04:26:32.84	20.96	18.22	-46.3	-47.4	15.4	0.00e+00	0	25	0	896532480	59	3958
2026-01-08 04:26:33.84	20.85	18.33	-46.2	-47.3	15.4	0.00e+00	0	25	0	902823936	59	3907
2026-01-08 04:26:34.84	20.74	18.44	-46.1	-47.2	15.3	0.00e+00	0	25	0	908066816	58	4067
2026-01-08 04:26:35.83	20.62	18.54	-46.0	-47.1	15.4	0.00e+00	0	25	0	914358272	58	4045
2026-01-08 04:26:36.82	20.51	18.65	-46.0	-47.1	15.4	0.00e+00	0	25	0	919601152	58	4027
2026-01-08 04:26:37.81	20.40	18.76	-45.9	-47.0	15.4	0.00e+00	0	25	0	924844032	58	3992
2026-01-08 04:26:38.81	20.29	18.87	-46.0	-47.1	15.4	0.00e+00	0	25	0	931135488	58	4009
2026-01-08 04:26:39.81	20.17	18.98	-45.9	-47.0	15.4	0.00e+00	0	25	0	936378368	58	3973
2026-01-08 04:26:40.80	20.06	19.09	-45.9	-47.0	15.4	0.00e+00	0	25	0	941621248	58	3972
2026-01-08 04:26:41.80	19.94	19.20	-45.9	-47.0	15.4	0.00e+00	0	25	0	947912704	58	3992
2026-01-08 04:26:42.81	19.82	19.31	-46.0	-47.1	15.4	0.00e+00	0	25	0	953155584	58	4023
2026-01-08 04:26:43.80	19.71	19.42	-46.0	-47.1	15.4	0.00e+00	0	25	0	958398464	58	4011
2026-01-08 04:26:44.79	19.59	19.53	-45.9	-47.1	15.4	0.00e+00	0	25	0	964689920	58	4008
2026-01-08 04:26:45.80	19.47	19.64	-45.9	-47.1	15.4	0.00e+00	0	25	0	969932800	58	4006
2026-01-08 04:26:46.79	19.35	19.75	-45.8	-46.9	15.4	0.00e+00	0	25	0	975175680	58	3933
2026-01-08 04:26:47.79	19.22	19.87	-45.8	-46.9	15.5	0.00e+00	0	25	0	981467136	58	3934
2026-01-08 04:26:48.78	19.10	19.98	-45.9	-47.0	15.4	0.00e+00	0	25	0	986710016	58	3973
2026-01-08 04:26:49.78	18.98	20.09	-45.8	-46.9	15.5	0.00e+00	0	25	0	991952896	58	3923
2026-01-08 04:26:50.78	18.85	20.21	-45.7	-46.8	15.5	0.00e+00	0	25	0	998244352	58	3891
2026-01-08 04:26:51.78	18.73	20.32	-45.7	-46.8	15.5	0.00e+00	0	25	0	1003487232	58	3906
2026-01-08 04:26:52.78	18.60	20.43	-45.7	-46.8	15.5	0.00e+00	0	25	0	1009778688	58	3889
2026-01-08 04:26:53.78	18.47	20.55	-45.7	-46.8	15.5	0.00e+00	0	25	0	1015021568	58	3891
2026-01-08 04:26:54.78	18.35	20.66	-45.7	-46.8	15.5	0.00e+00	0	25	0	1020264448	58	3912
2026-01-08 04:26:55.78	18.22	20.78	-45.5	-46.6	15.4	0.00e+00	0	25	0	1026555904	57	4029
2026-01-08 04:26:56.78	18.09	20.90	-45.4	-46.5	15.4	0.00e+00	0	25	0	1031798784	57	4001
2026-01-08 04:26:57.77	17.95	21.01	-45.4	-46.5	15.4	0.00e+00	0	25	0	1037041664	57	3985
2026-01-08 04:26:58.77	17.82	21.13	-45.5	-46.5	15.4	0.00e+00	0	25	0	1043333120	57	4004
2026-01-08 04:26:59.76	17.69	21.24	-45.5	-46.5	15.4	0.00e+00	0	25	0	1048576000	57	4003
2026-01-08 04:27:00.77	17.55	21.36	-45.5	-46.6	15.4	0.00e+00	0	25	0	1053818880	57	4010
2026-01-08 04:27:01.77	17.42	21.48	-45.5	-46.5	15.5	0.00e+00	0	25	0	1060110336	57	4003
2026-01-08 04:27:02.78	17.28	21.60	-45.5	-46.6	15.4	0.00e+00	0	25	0	1065353216	57	4025
2026-01-08 04:27:03.78	17.14	21.72	-45.5	-46.6	15.4	0.00e+00	0	25	0	1071644672	57	4037
2026-01-08 04:27:04.78	17.00	21.84	-45.5	-46.6	15.4	0.00e+00	0	25	0	1076887552	57	4009
2026-01-08 04:27:05.78	16.86	21.96	-45.4	-46.5	15.4	0.00e+00	0	25	0	1082130432	57	3998
2026-01-08 04:27:06.78	16.72	22.08	-45.5	-46.6	15.4	0.00e+00	0	25	0	1088421888	57	4024
2026-01-08 04:27:07.78	16.58	22.20	-45.5	-46.6	15.4	0.00e+00	0	25	0	1093664768	57	4035
2026-01-08 04:27:08.77	16.44	22.32	-45.5	-46.6	15.4	0.00e+00	0	25	0	1098907648	57	4010
2026-01-08 04:27:09.77	16.29	22.44	-45.5	-46.6	15.4	0.00e+00	0	25	0	1105199104	57	4030
2026-01-08 04:27:10.77	16.15	22.56	-45.4	-46.5	15.5	0.00e+00	0	25	0	1110441984	57	3969
2026-01-08 04:27:11.77	16.00	22.68	-45.2	-46.3	15.5	0.00e+00	0	25	0	1115684864	57	3897
2026-01-08 04:27:12.77	15.85	22.80	-45.1	-46.2	15.4	0.00e+00	0	25	0	1121976320	56	4089
2026-01-08 04:27:13.77	15.70	22.92	-45.1	-46.2	15.4	0.00e+00	0	25	0	1127219200	56	4090
2026-01-08 04:27:14.76	15.55	23.05	-45.2	-46.2	15.4	0.00e+00	0	25	0	1133510656	56	4095
2026-01-08 04:27:15.76	15.40	23.17	-45.0	-46.1	15.4	0.00e+00	0	25	0	1138753536	56	4033
2026-01-08 04:27:16.76	15.25	23.29	-45.0	-46.0	15.5	0.00e+00	0	25	0	1143996416	56	3997
2026-01-08 04:27:17.75	15.10	23.41	-45.0	-46.1	15.4	0.00e+00	0	25	0	1149239296	56	4014
2026-01-08 04:27:18.75	14.94	23.54	-45.1	-46.1	15.4	0.00e+00	0	25	0	1155530752	56	4050
2026-01-08 04:27:19.76	14.78	23.66	-45.0	-46.1	15.5	0.00e+00	0	25	0	1160773632	56	4037
2026-01-08 04:27:20.75	14.62	23.79	-45.1	-46.2	15.4	0.00e+00	0	25	0	1166016512	56	4065
2026-01-08 04:27:21.75	14.47	23.91	-45.2	-46.2	15.4	0.00e+00	0	25	0	1172307968	56	4095
2026-01-08 04:27:22.75	14.30	24.04	-45.1	-46.2	15.4	0.00e+00	0	25	0	1177550848	56	4077
2026-01-08 04:27:23.75	14.14	24.16	-45.2	-46.3	15.4	0.00e+00	0	25	0	1183842304	56	4123
2026-01-08 04:27:24.75	13.98	24.29	-45.1	-46.2	15.4	0.00e+00	0	25	0	1189085184	56	4086
2026-01-08 04:27:25.74	13.82	24.42	-45.2	-46.3	15.4	0.00e+00	0	25	0	1194328064	56	4104
2026-01-08 04:27:26.74	13.65	24.54	-45.2	-46.2	15.4	0.00e+00	0	25	0	1200619520	56	4094
2026-01-08 04:27:27.74	13.48	24.67	-45.0	-46.0	15.5	0.00e+00	0	25	0	1205862400	56	3995
2026-01-08 04:27:28.74	13.31	24.80	-45.0	-46.1	15.5	0.00e+00	0	25	0	1211105280	56	4007
2026-01-08 04:27:29.74	13.14	24.93	-45.0	-46.1	15.5	0.00e+00	0	25	0	1217396736	56	4034
2026-01-08 04:27:30.74	12.97	25.06	-45.1	-46.2	15.4	0.00e+00	0	25	0	1222639616	56	4055
2026-01-08 04:27:31.74	12.80	25.18	-45.0	-46.1	15.5	0.00e+00	0	25	0	1227882496	56	4034
2026-01-08 04:27:32.73	12.63	25.31	-44.9	-46.0	15.5	0.00e+00	0	25	0	1234173952	56	3986
2026-01-08 04:27:33.73	12.45	25.44	-44.9	-46.0	15.5	0.00e+00	0	25	0	1239416832	56	3982
2026-01-08 04:27:34.73	12.27	25.57	-45.0	-46.1	15.5	0.00e+00	0	25	0	1245708288	56	4008
2026-01-08 04:27:35.73	12.10	25.70	-45.0	-46.0	15.5	0.00e+00	0	25	0	1250951168	56	3997
2026-01-08 04:27:36.73	11.91	25.83	-44.9	-46.0	15.5	0.00e+00	0	25	0	1256194048	56	3973
2026-01-08 04:27:37.73	11.73	25.96	-44.8	-45.8	15.5	0.00e+00	0	25	0	1262485504	56	3911
2026-01-08 04:27:38.72	11.55	26.09	-44.8	-45.8	15.5	0.00e+00	0	25	0	1267728384	56	3913
2026-01-08 04:27:39.71	11.37	26.22	-44.8	-45.8	15.5	0.00e+00	0	25	0	1272971264	56	3909
2026-01-08 04:27:40.71	11.18	26.35	-44.8	-45.8	15.6	0.00e+00	0	25	0	1279262720	56	3887
2026-01-08 04:27:41.72	10.99	26.49	-44.8	-45.8	15.5	0.00e+00	0	25	0	1284505600	56	3901
2026-01-08 04:27:42.72	10.80	26.62	-44.9	-46.0	15.5	0.00e+00	0	25	0	1289748480	56	3964
2026-01-08 04:27:43.70	10.61	26.75	-44.9	-45.9	15.5	0.00e+00	0	25	0	1296039936	56	3952
2026-01-08 04:27:44.70	10.42	26.88	-45.0	-46.1	15.4	0.00e+00	0	25	0	1301282816	56	4027
2026-01-08 04:27:45.69	10.23	27.01	-45.1	-46.1	15.4	0.00e+00	0	25	0	1306525696	56	4045
2026-01-08 04:27:46.68	10.03	27.15	-45.1	-46.2	15.4	0.00e+00	0	25	0	1312817152	56	4057
2026-01-08 04:27:47.68	9.84	27.28	-45.0	-46.1	15.5	0.00e+00	0	25	0	1318060032	56	4031
2026-01-08 04:27:48.68	9.64	27.41	-45.0	-46.1	15.5	0.00e+00	0	25	0	1323302912	56	4030
2026-01-08 04:27:49.68	9.44	27.55	-45.0	-46.1	15.4	0.00e+00	0	25	0	1329594368	56	4032
2026-01-08 04:27:50.68	9.23	27.68	-44.8	-45.9	15.5	0.00e+00	0	25	0	1334837248	56	3932
2026-01-08 04:27:51.68	9.03	27.82	-44.7	-45.8	15.6	0.00e+00	0	25	0	1340080128	56	3888
2026-01-08 04:27:52.68	8.82	27.95	-44.7	-45.8	15.6	0.00e+00	0	25	0	1346371584	56	3869
2026-01-08 04:27:53.67	8.62	28.09	-44.5	-45.5	15.5	0.00e+00	0	25	0	1351614464	55	3990
2026-01-08 04:27:54.67	8.41	28.22	-44.5	-45.5	15.5	0.00e+00	0	25	0	1357905920	55	4004
2026-01-08 04:27:55.67	8.19	28.36	-44.5	-45.6	15.5	0.00e+00	0	25	0	1363148800	55	4019
2026-01-08 04:27:56.67	7.98	28.49	-44.6	-45.6	15.5	0.00e+00	0	25	0	1368391680	55	4032
2026-01-08 04:27:57.66	7.77	28.63	-44.5	-45.6	15.5	0.00e+00	0	25	0	1374683136	55	4021
2026-01-08 04:27:58.66	7.55	28.76	-44.4	-45.5	15.5	0.00e+00	0	25	0	1379926016	55	3974
2026-01-08 04:27:59.66	7.33	28.90	-44.5	-45.6	15.5	0.00e+00	0	25	0	1385168896	55	4006
2026-01-08 04:28:00.66	7.11	29.04	-44.4	-45.5	15.5	0.00e+00	0	25	0	1391460352	55	3960
2026-01-08 04:28:01.66	6.89	29.17	-44.4	-45.4	15.5	0.00e+00	0	25	0	1396703232	55	3930
2026-01-08 04:28:02.65	6.66	29.31	-44.3	-45.4	15.5	0.00e+00	0	25	0	1401946112	55	3926
2026-01-08 04:28:03.65	6.44	29.45	-44.4	-45.5	15.5	0.00e+00	0	25	0	1408237568	55	3962
2026-01-08 04:28:04.66	6.21	29.59	-44.4	-45.4	15.5	0.00e+00	0	25	0	1413480448	55	3953
2026-01-08 04:28:05.65	5.98	29.72	-44.4	-45.5	15.5	0.00e+00	0	25	0	1418723328	55	3971
2026-01-08 04:28:06.65	5.74	29.86	-44.6	-45.6	15.4	0.00e+00	0	25	0	1425014784	55	4037
2026-01-08 04:28:07.64	5.51	30.00	-44.5	-45.6	15.5	0.00e+00	0	25	0	1430257664	55	4025
2026-01-08 04:28:08.65	5.27	30.13	-44.5	-45.6	15.5	0.00e+00	0	25	0	1435500544	55	4018
2026-01-08 04:28:09.64	5.04	30.27	-44.4	-45.4	15.5	0.00e+00	0	25	0	1441792000	55	3939
2026-01-08 04:28:10.64	4.79	30.41	-44.3	-45.4	15.5	0.00e+00	0	25	0	1447034880	55	3924
2026-01-08 04:28:11.64	4.55	30.55	-44.4	-45.5	15.5	0.00e+00	0	25	0	1453326336	55	3960
2026-01-08 04:28:12.63	4.31	30.68	-44.4	-45.4	15.5	0.00e+00	0	25	0	1458569216	55	3943
2026-01-08 04:28:13.63	4.06	30.82	-44.4	-45.4	15.5	0.00e+00	0	25	0	1463812096	55	3940
2026-01-08 04:28:14.62	3.81	30.96	-44.4	-45.5	15.5	0.00e+00	0	25	0	1470103552	55	3971
2026-01-08 04:28:15.62	3.56	31.10	-44.4	-45.4	15.5	0.00e+00	0	25	0	1475346432	55	3950
2026-01-08 04:28:16.62	3.31	31.24	-44.4	-45.5	15.5	0.00e+00	0	25	0	1480589312	55	3979
2026-01-08 04:28:17.63	3.05	31.38	-44.5	-45.6	15.5	0.00e+00	0	25	0	1486880768	55	4019
2026-01-08 04:28:18.62	2.79	31.51	-44.3	-45.4	15.6	0.00e+00	0	25	0	1492123648	55	3915
2026-01-08 04:28:19.62	2.53	31.65	-44.1	-45.2	15.5	0.00e+00	0	25	0	1497366528	54	4058
2026-01-08 04:28:20.62	2.27	31.79	-44.1	-45.1	15.5	0.00e+00	0	25	0	1503657984	54	4032
2026-01-08 04:28:21.62	2.00	31.93	-44.2	-45.2	15.5	0.00e+00	0	25	0	1508900864	54	4074
2026-01-08 04:28:22.62	1.74	32.07	-44.2	-45.2	15.5	0.00e+00	0	25	0	1515192320	54	4093
2026-01-08 04:28:23.62	1.47	32.20	-44.2	-45.3	15.5	0.00e+00	0	25	0	1520435200	54	4111
2026-01-08 04:28:24.61	1.20	32.34	-44.3	-45.4	15.4	0.00e+00	0	25	0	1525678080	54	4149
2026-01-08 04:28:25.62	0.92	32.48	-44.2	-45.3	15.5	0.00e+00	0	25	0	1531969536	54	4105
2026-01-08 04:28:26.61	0.65	32.62	-44.3	-45.4	15.4	0.00e+00	0	25	0	1537212416	54	4172
2026-01-08 04:28:27.61	0.37	32.75	-44.4	-45.5	15.4	0.00e+00	0	25	0	1542455296	54	4211
2026-01-08 04:28:28.62	0.08	32.89	-44.4	-45.4	15.4	0.00e+00	0	25	0	1548746752	54	4183
2026-01-08 04:28:29.61	359.80	33.03	-44.5	-45.5	15.4	0.00e+00	0	25	0	1553989632	54	4226
2026-01-08 04:28:30.61	359.52	33.17	-44.4	-45.5	15.4	0.00e+00	0	25	0	1559232512	54	4212
2026-01-08 04:28:31.60	359.23	33.30	-44.5	-45.5	15.4	0.00e+00	0	25	0	1565523968	54	4226
2026-01-08 04:28:32.60	358.94	33.44	-44.4	-45.5	15.4	0.00e+00	0	25	0	1570766848	54	4218
2026-01-08 04:28:33.59	358.65	33.57	-44.4	-45.5	15.4	0.00e+00	0	25	0	1576009728	54	4223
2026-01-08 04:28:34.58	358.35	33.71	-44.3	-45.4	15.4	0.00e+00	0	25	0	1582301184	54	4153
2026-01-08 04:28:35.58	358.06	33.85	-44.2	-45.2	15.5	0.00e+00	0	25	0	1587544064	54	4068
2026-01-08 04:28:36.57	357.76	33.98	-44.1	-45.2	15.5	0.00e+00	0	25	0	1592786944	54	4062
2026-01-08 04:28:37.57	357.45	34.12	-44.0	-45.0	15.5	0.00e+00	0	25	0	1599078400	54	3991
2026-01-08 04:28:38.56	357.15	34.25	-44.1	-45.1	15.5	0.00e+00	0	25	0	1604321280	54	4022
2026-01-08 04:28:39.55	356.84	34.38	-44.2	-45.3	15.5	0.00e+00	0	25	0	1609564160	54	4100
2026-01-08 04:28:40.55	356.53	34.52	-44.2	-45.2	15.5	0.00e+00	0	25	0	1615855616	54	4091
2026-01-08 04:28:41.54	356.22	34.65	-44.3	-45.3	15.4	0.00e+00	0	25	0	1621098496	54	4129
2026-01-08 04:28:42.54	355.90	34.78	-44.3	-45.3	15.4	0.00e+00	0	25	0	1626341376	54	4115
2026-01-08 04:28:43.53	355.59	34.91	-44.2	-45.2	15.5	0.00e+00	0	25	0	1632632832	54	4079
2026-01-08 04:28:44.53	355.27	35.05	-44.1	-45.2	15.5	0.00e+00	0	25	0	1637875712	54	4056
2026-01-08 04:28:45.52	354.95	35.18	-44.1	-45.1	15.5	0.00e+00	0	25	0	1643118592	54	4033
2026-01-08 04:28:46.52	354.62	35.31	-44.0	-45.1	15.5	0.00e+00	0	25	0	1649410048	54	4012
2026-01-08 04:28:47.51	354.29	35.44	-44.0	-45.0	15.5	0.00e+00	0	25	0	1654652928	54	3998
2026-01-08 04:28:48.51	353.96	35.57	-44.1	-45.1	15.5	0.00e+00	0	25	0	1659895808	54	4027
2026-01-08 04:28:49.51	353.62	35.70	-44.1	-45.2	15.5	0.00e+00	0	25	0	1666187264	54	4053
2026-01-08 04:28:50.50	353.29	35.83	-44.3	-45.3	15.5	0.00e+00	0	25	0	1671430144	54	4131
2026-01-08 04:28:51.50	352.95	35.96	-44.4	-45.5	15.4	0.00e+00	0	25	0	1676673024	54	4200
2026-01-08 04:28:52.49	352.61	36.08	-44.5	-45.5	15.4	0.00e+00	0	25	0	1682964480	54	4233
2026-01-08 04:28:53.49	352.26	36.21	-44.6	-45.6	15.4	0.00e+00	0	25	0	1688207360	54	4285
2026-01-08 04:28:54.49	351.91	36.34	-44.5	-45.6	15.4	0.00e+00	0	25	0	1693450240	54	4259
2026-01-08 04:28:55.48	351.57	36.46	-44.5	-45.5	15.4	0.00e+00	0	25	0	1699741696	54	4227
2026-01-08 04:28:56.48	351.21	36.59	-44.6	-45.7	15.4	0.00e+00	0	25	0	1704984576	54	4302
2026-01-08 04:28:57.48	350.86	36.71	-44.7	-45.8	15.4	0.00e+00	0	25	0	1710227456	54	4367
2026-01-08 04:28:58.48	350.50	36.84	-44.9	-46.0	15.4	0.00e+00	0	25	0	1716518912	54	4460
2026-01-08 04:28:59.47	350.14	36.96	-45.0	-46.1	15.4	0.00e+00	0	25	0	1721761792	55	4249
2026-01-08 04:29:00.47	349.77	37.08	-44.7	-45.7	15.5	0.00e+00	0	25	0	1728053248	55	4083
2026-01-08 04:29:01.46	349.41	37.20	-44.5	-45.5	15.5	0.00e+00	0	25	0	1733296128	55	3978
2026-01-08 04:29:02.46	349.04	37.32	-44.3	-45.4	15.6	0.00e+00	0	25	0	1738539008	55	3917
2026-01-08 04:29:03.46	348.66	37.44	-44.3	-45.3	15.6	0.00e+00	0	25	0	1744830464	55	3904
2026-01-08 04:29:04.47	348.28	37.56	-44.4	-45.5	15.5	0.00e+00	0	25	0	1750073344	55	3968
2026-01-08 04:29:05.47	347.90	37.67	-44.6	-45.6	15.5	0.00e+00	0	25	0	1755316224	55	4048
2026-01-08 04:29:06.46	347.53	37.79	-44.3	-45.4	15.6	0.00e+00	0	25	0	1761607680	55	3928
2026-01-08 04:29:07.46	347.14	37.90	-44.3	-45.3	15.6	0.00e+00	0	25	0	1766850560	55	3895
2026-01-08 04:29:08.46	346.75	38.02	-44.3	-45.4	15.6	0.00e+00	0	25	0	1772093440	55	3914
2026-01-08 04:29:09.45	346.37	38.13	-44.4	-45.5	15.5	0.00e+00	0	25	0	1778384896	55	3975
2026-01-08 04:29:10.46	345.97	38.24	-44.5	-45.6	15.5	0.00e+00	0	25	0	1783627776	55	4011
2026-01-08 04:29:11.46	345.58	38.35	-44.6	-45.7	15.5	0.00e+00	0	25	0	1789919232	55	4056
2026-01-08 04:29:12.46	345.18	38.46	-44.5	-45.6	15.5	0.00e+00	0	25	0	1795162112	55	4013
2026-01-08 04:29:13.45	344.78	38.57	-44.3	-45.4	15.6	0.00e+00	0	25	0	1800404992	55	3926
2026-01-08 04:29:14.45	344.38	38.68	-44.4	-45.4	15.5	0.00e+00	0	25	0	1805647872	55	3951
2026-01-08 04:29:15.46	343.97	38.78	-44.4	-45.5	15.5	0.00e+00	0	25	0	1811939328	55	3961
2026-01-08 04:29:16.46	343.56	38.89	-44.5	-45.5	15.5	0.00e+00	0	25	0	1817182208	55	3985
2026-01-08 04:29:17.46	343.15	38.99	-44.4	-45.4	15.5	0.00e+00	0	25	0	1823473664	55	3950
2026-01-08 04:29:18.46	342.73	39.09	-44.4	-45.4	15.5	0.00e+00	0	25	0	1828716544	55	3946
2026-01-08 04:29:19.45	342.32	39.19	-44.4	-45.5	15.5	0.00e+00	0	25	0	1833959424	55	3959
2026-01-08 04:29:20.45	341.90	39.29	-44.3	-45.3	15.6	0.00e+00	0	25	0	1840250880	55	3884
2026-01-08 04:29:21.45	341.48	39.39	-44.4	-45.4	15.6	0.00e+00	0	25	0	1845493760	55	3936
2026-01-08 04:29:22.45	341.06	39.48	-44.5	-45.6	15.5	0.00e+00	0	25	0	1850736640	55	4010
2026-01-08 04:29:23.44	340.63	39.57	-44.5	-45.5	15.5	0.00e+00	0	25	0	1857028096	55	3994
2026-01-08 04:29:24.44	340.21	39.67	-44.3	-45.3	15.6	0.00e+00	0	25	0	1862270976	55	3907
2026-01-08 04:29:25.45	339.77	39.76	-44.2	-45.2	15.6	0.00e+00	0	25	0	1867513856	55	3864
2026-01-08 04:29:26.45	339.34	39.85	-44.2	-45.2	15.6	0.00e+00	0	25	0	1873805312	55	3862
2026-01-08 04:29:27.44	338.90	39.93	-44.2	-45.3	15.5	0.00e+00	0	25	0	1879048192	54	4113
2026-01-08 04:29:28.45	338.46	40.02	-44.2	-45.3	15.5	0.00e+00	0	25	0	1884291072	54	4106
2026-01-08 04:29:29.45	338.02	40.11	-44.1	-45.2	15.5	0.00e+00	0	25	0	1890582528	54	4060
2026-01-08 04:29:30.44	337.58	40.19	-44.1	-45.2	15.5	0.00e+00	0	25	0	1895825408	54	4057
2026-01-08 04:29:31.45	337.13	40.27	-44.3	-45.3	15.5	0.00e+00	0	25	0	1902116864	54	4118
2026-01-08 04:29:32.43	336.69	40.35	-44.4	-45.4	15.4	0.00e+00	0	25	0	1907359744	54	4189
2026-01-08 04:29:33.43	336.24	40.42	-44.5	-45.6	15.4	0.00e+00	0	25	0	1912602624	54	4267
2026-01-08 04:29:34.42	335.79	40.50	-44.5	-45.6	15.4	0.00e+00	0	25	0	1918894080	54	4259
2026-01-08 04:29:35.41	335.34	40.57	-44.5	-45.6	15.4	0.00e+00	0	25	0	1924136960	54	4259
2026-01-08 04:29:36.40	334.89	40.64	-44.7	-45.7	15.4	0.00e+00	0	25	0	1929379840	54	4339
2026-01-08 04:29:37.39	334.44	40.71	-44.5	-45.5	15.4	0.00e+00	0	25	0	1935671296	54	4233
2026-01-08 04:29:38.38	333.98	40.78	-44.3	-45.3	15.4	0.00e+00	0	25	0	1940914176	54	4143
2026-01-08 04:29:39.38	333.52	40.84	-44.2	-45.2	15.5	0.00e+00	0	25	0	1946157056	54	4089
2026-01-08 04:29:40.38	333.06	40.91	-44.2	-45.2	15.5	0.00e+00	0	25	0	1952448512	54	4077
2026-01-08 04:29:41.38	332.59	40.97	-44.2	-45.2	15.5	0.00e+00	0	25	0	1957691392	54	4070
2026-01-08 04:29:42.37	332.13	41.03	-44.1	-45.1	15.5	0.00e+00	0	25	0	1962934272	54	4040
2026-01-08 04:29:43.36	331.66	41.08	-44.0	-45.1	15.5	0.00e+00	0	25	0	1969225728	54	4010
2026-01-08 04:29:44.35	331.20	41.14	-44.0	-45.1	15.5	0.00e+00	0	25	0	1974468608	54	4006
2026-01-08 04:29:45.35	330.73	41.19	-44.1	-45.1	15.5	0.00e+00	0	25	0	1979711488	54	4017
2026-01-08 04:29:46.35	330.25	41.24	-44.0	-45.0	15.5	0.00e+00	0	25	0	1986002944	54	3971
2026-01-08 04:29:47.34	329.78	41.29	-44.0	-45.0	15.5	0.00e+00	0	25	0	1991245824	54	3989
2026-01-08 04:29:48.34	329.30	41.34	-44.2	-45.2	15.5	0.00e+00	0	25	0	1996488704	54	4065
2026-01-08 04:29:49.35	328.82	41.38	-44.3	-45.4	15.4	0.00e+00	0	25	0	2002780160	54	4151
2026-01-08 04:29:50.34	328.35	41.43	-44.3	-45.3	15.5	0.00e+00	0	25	0	2008023040	54	4136
2026-01-08 04:29:51.33	327.87	41.46	-44.4	-45.4	15.4	0.00e+00	0	25	0	2013265920	54	4165
2026-01-08 04:29:52.33	327.39	41.50	-44.4	-45.4	15.4	0.00e+00	0	25	0	2019557376	54	4176
2026-01-08 04:29:53.33	326.91	41.54	-44.3	-45.3	15.5	0.00e+00	0	25	0	2024800256	54	4115
2026-01-08 04:29:54.32	326.43	41.57	-44.2	-45.2	15.5	0.00e+00	0	25	0	2030043136	54	4067
2026-01-08 04:29:55.32	325.94	41.60	-44.1	-45.1	15.5	0.00e+00	0	25	0	2036334592	54	4012
2026-01-08 04:29:56.32	325.46	41.63	-43.9	-44.9	15.5	0.00e+00	0	25	0	2041577472	54	3946
2026-01-08 04:29:57.32	324.97	41.66	-44.1	-45.1	15.5	0.00e+00	0	25	0	2047868928	54	4037
2026-01-08 04:29:58.31	324.49	41.68	-44.3	-45.4	15.5	0.00e+00	0	25	0	2053111808	54	4150
2026-01-08 04:29:59.30	324.00	41.70	-44.4	-45.4	15.4	0.00e+00	0	25	0	2058354688	54	4190
2026-01-08 04:30:00.30	323.51	41.72	-44.2	-45.2	15.5	0.00e+00	0	25	0	2063597568	54	4064
2026-01-08 04:30:01.31	323.02	41.74	-44.2	-45.3	15.5	0.00e+00	0	25	0	2069889024	54	4099
2026-01-08 04:30:02.29	322.54	41.76	-44.3	-45.3	15.5	0.00e+00	0	25	0	2075131904	54	4141
2026-01-08 04:30:03.29	322.05	41.77	-44.3	-45.3	15.5	0.00e+00	0	25	0	2080374784	54	4144
2026-01-08 04:30:04.30	321.55	41.78	-44.0	-45.0	15.5	0.00e+00	0	25	0	2086666240	54	3975
2026-01-08 04:30:05.30	321.06	41.79	-43.9	-44.9	15.5	0.00e+00	0	25	0	2091909120	54	3948
2026-01-08 04:30:06.30	320.57	41.79	-44.3	-45.4	15.4	0.00e+00	0	25	0	2098200576	54	4156
2026-01-08 04:30:07.30	320.08	41.79	-44.7	-45.7	15.4	0.00e+00	0	25	0	2103443456	54	4329
2026-01-08 04:30:08.29	319.59	41.79	-44.5	-45.6	15.4	0.00e+00	0	25	0	2108686336	54	4243
2026-01-08 04:30:09.29	319.10	41.79	-44.3	-45.4	15.4	0.00e+00	0	25	0	2114977792	54	4156
2026-01-08 04:30:10.29	318.61	41.79	-44.2	-45.2	15.4	0.00e+00	0	25	0	2120220672	54	4092
2026-01-08 04:30:11.28	318.12	41.78	-44.5	-45.5	15.4	0.00e+00	0	25	0	2125463552	54	4222
2026-01-08 04:30:12.27	317.64	41.77	-44.4	-45.5	15.4	0.00e+00	0	25	0	2131755008	54	4198
2026-01-08 04:30:13.27	317.15	41.76	-44.2	-45.2	15.5	0.00e+00	0	25	0	2136997888	54	4090
2026-01-08 04:30:14.25	316.67	41.75	-44.0	-45.0	15.5	0.00e+00	0	25	0	2142240768	54	3970
2026-01-08 04:30:15.25	316.18	41.73	-43.9	-44.9	15.5	0.00e+00	0	25	0	2148532224	54	3933
2026-01-08 04:30:16.25	315.69	41.71	-44.1	-45.1	15.5	0.00e+00	0	25	0	2153775104	54	4044
2026-01-08 04:30:17.25	315.20	41.69	-44.3	-45.3	15.5	0.00e+00	0	25	0	2159017984	54	4133
2026-01-08 04:30:18.25	314.71	41.67	-44.3	-45.3	15.5	0.00e+00	0	25	0	2165309440	54	4141
2026-01-08 04:30:19.25	314.22	41.65	-44.3	-45.4	15.4	0.00e+00	0	25	0	2170552320	54	4153
2026-01-08 04:30:20.25	313.74	41.62	-44.3	-45.4	15.4	0.00e+00	0	25	0	2175795200	54	4158
2026-01-08 04:30:21.25	313.25	41.59	-44.4	-45.5	15.4	0.00e+00	0	25	0	2182086656	54	4199
2026-01-08 04:30:22.24	312.77	41.56	-44.5	-45.5	15.4	0.00e+00	0	25	0	2187329536	54	4232
2026-01-08 04:30:23.25	312.28	41.52	-44.5	-45.5	15.4	0.00e+00	0	25	0	2192572416	54	4228
2026-01-08 04:30:24.25	311.80	41.48	-44.4	-45.5	15.4	0.00e+00	0	25	0	2198863872	54	4212
2026-01-08 04:30:25.25	311.32	41.45	-44.3	-45.3	15.4	0.00e+00	0	25	0	2204106752	54	4145
2026-01-08 04:30:26.25	310.84	41.40	-44.4	-45.4	15.4	0.00e+00	0	25	0	2210398208	54	4165
2026-01-08 04:30:27.25	310.36	41.36	-44.3	-45.3	15.5	0.00e+00	0	25	0	2215641088	54	4144
2026-01-08 04:30:28.24	309.88	41.31	-44.3	-45.3	15.5	0.00e+00	0	25	0	2220883968	54	4142
2026-01-08 04:30:29.23	309.41	41.27	-44.0	-45.0	15.5	0.00e+00	0	25	0	2227175424	54	3999
2026-01-08 04:30:30.22	308.94	41.22	-44.0	-45.0	15.5	0.00e+00	0	25	0	2232418304	54	3998
2026-01-08 04:30:31.22	308.47	41.17	-44.0	-45.0	15.5	0.00e+00	0	25	0	2237661184	54	3998
2026-01-08 04:30:32.21	308.00	41.11	-44.2	-45.3	15.5	0.00e+00	0	25	0	2243952640	54	4101
2026-01-08 04:30:33.21	307.53	41.06	-44.3	-45.4	15.5	0.00e+00	0	25	0	2249195520	54	4160
2026-01-08 04:30:34.20	307.07	41.00	-44.1	-45.2	15.5	0.00e+00	0	25	0	2254438400	54	4057
2026-01-08 04:30:35.20	306.60	40.94	-44.2	-45.2	15.5	0.00e+00	0	25	0	2260729856	54	4079
2026-01-08 04:30:36.19	306.14	40.87	-44.4	-45.4	15.4	0.00e+00	0	25	0	2265972736	54	4175
2026-01-08 04:30:37.19	305.68	40.81	-44.5	-45.5	15.4	0.00e+00	0	25	0	2271215616	54	4224
2026-01-08 04:30:38.18	305.22	40.74	-44.4	-45.5	15.5	0.00e+00	0	25	0	2277507072	54	4203
2026-01-08 04:30:39.17	304.76	40.68	-44.4	-45.4	15.4	0.00e+00	0	25	0	2282749952	54	4168
2026-01-08 04:30:40.17	304.31	40.61	-44.3	-45.3	15.4	0.00e+00	0	25	0	2287992832	54	4113
2026-01-08 04:30:41.17	303.85	40.53	-44.2	-45.3	15.4	0.00e+00	0	25	0	2294284288	54	4100
2026-01-08 04:30:42.16	303.40	40.46	-44.2	-45.2	15.5	0.00e+00	0	25	0	2299527168	54	4080
2026-01-08 04:30:43.15	302.95	40.38	-44.1	-45.2	15.5	0.00e+00	0	25	0	2304770048	54	4061
2026-01-08 04:30:44.14	302.51	40.31	-44.0	-45.0	15.5	0.00e+00	0	25	0	2311061504	54	3986
2026-01-08 04:30:45.14	302.06	40.23	-43.9	-45.0	15.5	0.00e+00	0	25	0	2316304384	54	3961
2026-01-08 04:30:46.14	301.62	40.15	-44.0	-45.0	15.5	0.00e+00	0	25	0	2321547264	54	3989
2026-01-08 04:30:47.14	301.17	40.06	-44.1	-45.1	15.5	0.00e+00	0	25	0	2327838720	54	4029
2026-01-08 04:30:48.13	300.74	39.98	-44.2	-45.2	15.5	0.00e+00	0	25	0	2333081600	54	4074
2026-01-08 04:30:49.13	300.30	39.89	-44.3	-45.4	15.5	0.00e+00	0	25	0	2338324480	54	4152
2026-01-08 04:30:50.13	299.86	39.80	-44.4	-45.4	15.4	0.00e+00	0	25	0	2344615936	54	4172
2026-01-08 04:30:51.12	299.44	39.71	-44.4	-45.4	15.4	0.00e+00	0	25	0	2349858816	54	4170
2026-01-08 04:30:52.12	299.00	39.62	-44.4	-45.5	15.4	0.00e+00	0	25	0	2355101696	54	4200
2026-01-08 04:30:53.11	298.58	39.53	-44.3	-45.3	15.5	0.00e+00	0	25	0	2361393152	54	4126
2026-01-08 04:30:54.10	298.16	39.43	-44.2	-45.2	15.5	0.00e+00	0	25	0	2366636032	54	4080
2026-01-08 04:30:55.10	297.73	39.34	-44.1	-45.2	15.5	0.00e+00	0	25	0	2371878912	54	4061
2026-01-08 04:30:56.10	297.31	39.24	-44.1	-45.1	15.5	0.00e+00	0	25	0	2378170368	54	4029
2026-01-08 04:30:57.09	296.90	39.14	-44.2	-45.2	15.5	0.00e+00	0	25	0	2383413248	54	4090
2026-01-08 04:30:58.08	296.49	39.04	-44.4	-45.4	15.5	0.00e+00	0	25	0	2388656128	54	4165
2026-01-08 04:30:59.08	296.07	38.94	-44.4	-45.4	15.5	0.00e+00	0	25	0	2394947584	54	4169
2026-01-08 04:31:00.08	295.66	38.84	-44.3	-45.4	15.5	0.00e+00	0	25	0	2400190464	54	4149
2026-01-08 04:31:01.09	295.25	38.73	-44.1	-45.1	15.5	0.00e+00	0	25	0	2406481920	54	4030
2026-01-08 04:31:02.09	294.85	38.62	-44.1	-45.2	15.5	0.00e+00	0	25	0	2411724800	54	4058
2026-01-08 04:31:03.09	294.44	38.52	-44.1	-45.1	15.5	0.00e+00	0	25	0	2416967680	54	4047
2026-01-08 04:31:04.09	294.04	38.41	-44.2	-45.2	15.5	0.00e+00	0	25	0	2423259136	54	4080
2026-01-08 04:31:05.09	293.65	38.30	-44.1	-45.1	15.5	0.00e+00	0	25	0	2428502016	54	4048
2026-01-08 04:31:06.08	293.26	38.19	-44.1	-45.2	15.5	0.00e+00	0	25	0	2433744896	54	4057
2026-01-08 04:31:07.08	292.86	38.07	-44.2	-45.3	15.5	0.00e+00	0	25	0	2440036352	54	4110
2026-01-08 04:31:08.08	292.47	37.96	-44.1	-45.1	15.5	0.00e+00	0	25	0	2445279232	54	4042
2026-01-08 04:31:09.09	292.08	37.84	-44.1	-45.1	15.5	0.00e+00	0	25	0	2450522112	54	4045
2026-01-08 04:31:10.09	291.70	37.73	-44.0	-45.0	15.5	0.00e+00	0	25	0	2456813568	54	3976
2026-01-08 04:31:11.10	291.31	37.61	-44.0	-45.0	15.5	0.00e+00	0	25	0	2462056448	54	4004
2026-01-08 04:31:12.10	290.94	37.49	-44.1	-45.2	15.5	0.00e+00	0	25	0	2468347904	54	4065
2026-01-08 04:31:13.10	290.56	37.37	-44.0	-45.1	15.5	0.00e+00	0	25	0	2473590784	54	4011
2026-01-08 04:31:14.09	290.19	37.26	-44.1	-45.1	15.5	0.00e+00	0	25	0	2478833664	54	4045
2026-01-08 04:31:15.09	289.82	37.13	-44.2	-45.3	15.5	0.00e+00	0	25	0	2485125120	54	4106
2026-01-08 04:31:16.08	289.46	37.01	-44.3	-45.3	15.5	0.00e+00	0	25	0	2490368000	54	4119
2026-01-08 04:31:17.09	289.09	36.89	-44.3	-45.4	15.4	0.00e+00	0	25	0	2495610880	54	4150
2026-01-08 04:31:18.08	288.73	36.77	-44.2	-45.2	15.5	0.00e+00	0	25	0	2501902336	54	4097
2026-01-08 04:31:19.08	288.37	36.64	-44.3	-45.4	15.5	0.00e+00	0	25	0	2507145216	54	4151
2026-01-08 04:31:20.08	288.02	36.52	-44.3	-45.4	15.5	0.00e+00	0	25	0	2512388096	54	4158
2026-01-08 04:31:21.08	287.66	36.39	-44.3	-45.4	15.4	0.00e+00	0	25	0	2518679552	54	4149
2026-01-08 04:31:22.07	287.32	36.27	-44.3	-45.3	15.5	0.00e+00	0	25	0	2523922432	54	4114
2026-01-08 04:31:23.08	286.96	36.14	-44.3	-45.4	15.4	0.00e+00	0	25	0	2530213888	54	4156
2026-01-08 04:31:24.07	286.62	36.01	-44.4	-45.5	15.4	0.00e+00	0	25	0	2535456768	54	4198
2026-01-08 04:31:25.07	286.28	35.88	-44.5	-45.6	15.4	0.00e+00	0	25	0	2540699648	54	4245
2026-01-08 04:31:26.07	285.94	35.75	-44.5	-45.5	15.4	0.00e+00	0	25	0	2546991104	54	4242
2026-01-08 04:31:27.07	285.60	35.62	-44.2	-45.2	15.5	0.00e+00	0	25	0	2552233984	54	4096
2026-01-08 04:31:28.07	285.27	35.49	-44.0	-45.0	15.5	0.00e+00	0	25	0	2557476864	54	4001
2026-01-08 04:31:29.07	284.94	35.36	-44.1	-45.1	15.5	0.00e+00	0	25	0	2563768320	54	4043
2026-01-08 04:31:30.07	284.61	35.23	-44.2	-45.2	15.5	0.00e+00	0	25	0	2569011200	54	4077
2026-01-08 04:31:31.07	284.28	35.10	-44.1	-45.1	15.5	0.00e+00	0	25	0	2574254080	54	4035
2026-01-08 04:31:32.07	283.96	34.97	-44.0	-45.0	15.5	0.00e+00	0	25	0	2580545536	54	4004
2026-01-08 04:31:33.05	283.64	34.84	-44.0	-45.1	15.5	0.00e+00	0	25	0	2585788416	54	4014
2026-01-08 04:31:34.05	283.32	34.70	-44.1	-45.2	15.5	0.00e+00	0	25	0	2591031296	54	4057
2026-01-08 04:31:35.05	283.01	34.57	-44.1	-45.2	15.5	0.00e+00	0	25	0	2597322752	54	4058
2026-01-08 04:31:36.04	282.70	34.43	-44.1	-45.1	15.5	0.00e+00	0	25	0	2602565632	54	4045
2026-01-08 04:31:37.03	282.39	34.30	-44.0	-45.0	15.5	0.00e+00	0	25	0	2607808512	54	3974
2026-01-08 04:31:38.02	282.08	34.17	-43.8	-44.8	15.6	0.00e+00	0	25	0	2614099968	54	3895
2026-01-08 04:31:39.02	281.78	34.03	-43.8	-44.9	15.6	0.00e+00	0	25	0	2619342848	54	3919
2026-01-08 04:31:40.02	281.48	33.90	-43.9	-45.0	15.5	0.00e+00	0	25	0	2624585728	54	3960
2026-01-08 04:31:41.01	281.18	33.76	-44.0	-45.1	15.5	0.00e+00	0	25	0	2630877184	54	4011
2026-01-08 04:31:42.00	280.88	33.63	-44.1	-45.1	15.5	0.00e+00	0	25	0	2636120064	54	4025
2026-01-08 04:31:43.00	280.59	33.49	-43.9	-44.9	15.5	0.00e+00	0	25	0	2642411520	54	3930
2026-01-08 04:31:44.00	280.29	33.35	-43.9	-45.0	15.6	0.00e+00	0	25	0	2647654400	54	3968
2026-01-08 04:31:45.01	280.00	33.21	-44.0	-45.0	15.5	0.00e+00	0	25	0	2652897280	54	4000
2026-01-08 04:31:46.00	279.71	33.08	-44.1	-45.1	15.5	0.00e+00	0	25	0	2658140160	54	4020
2026-01-08 04:31:46.99	279.43	32.94	-44.1	-45.1	15.5	0.00e+00	0	25	0	2664431616	54	4042
2026-01-08 04:31:47.98	279.15	32.80	-44.1	-45.1	15.5	0.00e+00	0	25	0	2669674496	54	4024
2026-01-08 04:31:48.98	278.87	32.67	-44.3	-45.3	15.4	0.00e+00	0	25	0	2674917376	54	4137
2026-01-08 04:31:49.98	278.59	32.53	-44.4	-45.5	15.4	0.00e+00	0	25	0	2681208832	54	4208
2026-01-08 04:31:50.97	278.32	32.39	-44.5	-45.6	15.4	0.00e+00	0	25	0	2686451712	54	4267
2026-01-08 04:31:51.96	278.05	32.25	-44.5	-45.6	15.4	0.00e+00	0	25	0	2692743168	54	4250
2026-01-08 04:31:52.96	277.78	32.12	-44.5	-45.6	15.4	0.00e+00	0	25	0	2697986048	54	4249
2026-01-08 04:31:53.95	277.51	31.98	-44.2	-45.2	15.4	0.00e+00	0	25	0	2703228928	54	4079
2026-01-08 04:31:54.95	277.24	31.84	-44.1	-45.1	15.5	0.00e+00	0	25	0	2708471808	54	4047
2026-01-08 04:31:55.95	276.98	31.70	-44.1	-45.2	15.5	0.00e+00	0	25	0	2714763264	54	4065
2026-01-08 04:31:56.94	276.72	31.56	-44.3	-45.3	15.5	0.00e+00	0	25	0	2720006144	54	4120
2026-01-08 04:31:57.94	276.46	31.43	-44.4	-45.4	15.4	0.00e+00	0	25	0	2725249024	54	4175
2026-01-08 04:31:58.94	276.20	31.29	-44.5	-45.5	15.4	0.00e+00	0	25	0	2731540480	54	4232
2026-01-08 04:31:59.94	275.94	31.15	-44.5	-45.5	15.4	0.00e+00	0	25	0	2736783360	54	4235
2026-01-08 04:32:00.95	275.69	31.01	-44.6	-45.6	15.4	0.00e+00	0	25	0	2743074816	54	4275
2026-01-08 04:32:01.95	275.44	30.87	-44.6	-45.7	15.4	0.00e+00	0	25	0	2748317696	54	4302
2026-01-08 04:32:02.95	275.19	30.73	-44.8	-45.8	15.4	0.00e+00	0	25	0	2754609152	54	4387
2026-01-08 04:32:03.95	274.94	30.59	-44.9	-45.9	15.3	0.00e+00	0	25	0	2759852032	54	4434
2026-01-08 04:32:04.95	274.70	30.45	-44.9	-46.0	15.4	0.00e+00	0	25	0	2765094912	55	4230
2026-01-08 04:32:05.95	274.45	30.31	-45.0	-46.0	15.4	0.00e+00	0	25	0	2770337792	55	4240
2026-01-08 04:32:06.95	274.21	30.18	-44.9	-46.0	15.4	0.00e+00	0	25	0	2776629248	55	4224
2026-01-08 04:32:07.95	273.97	30.04	-44.7	-45.7	15.4	0.00e+00	0	25	0	2781872128	55	4096
2026-01-08 04:32:08.95	273.74	29.90	-44.8	-45.8	15.4	0.00e+00	0	25	0	2787115008	55	4136
2026-01-08 04:32:09.95	273.50	29.76	-44.8	-45.9	15.4	0.00e+00	0	25	0	2793406464	55	4172
2026-01-08 04:32:10.94	273.27	29.62	-44.7	-45.8	15.4	0.00e+00	0	25	0	2798649344	55	4103
2026-01-08 04:32:11.95	273.04	29.49	-44.7	-45.8	15.4	0.00e+00	0	25	0	2804940800	55	4113
2026-01-08 04:32:12.94	272.81	29.35	-44.8	-45.8	15.4	0.00e+00	0	25	0	2810183680	55	4120
2026-01-08 04:32:13.94	272.59	29.21	-44.7	-45.7	15.4	0.00e+00	0	25	0	2815426560	55	4097
2026-01-08 04:32:14.93	272.37	29.08	-44.6	-45.6	15.4	0.00e+00	0	25	0	2821718016	55	4037
2026-01-08 04:32:15.93	272.14	28.94	-44.6	-45.6	15.5	0.00e+00	0	25	0	2826960896	55	4050
2026-01-08 04:32:16.93	271.92	28.80	-44.6	-45.6	15.5	0.00e+00	0	25	0	2832203776	55	4032
2026-01-08 04:32:17.92	271.71	28.67	-44.6	-45.7	15.4	0.00e+00	0	25	0	2838495232	55	4054
2026-01-08 04:32:18.92	271.49	28.53	-44.5	-45.6	15.5	0.00e+00	0	25	0	2843738112	55	4011
2026-01-08 04:32:19.92	271.27	28.39	-44.6	-45.6	15.5	0.00e+00	0	25	0	2848980992	55	4029
2026-01-08 04:32:20.92	271.06	28.26	-44.5	-45.5	15.5	0.00e+00	0	25	0	2855272448	55	3984
2026-01-08 04:32:21.90	270.85	28.12	-44.5	-45.6	15.5	0.00e+00	0	25	0	2860515328	55	4018
2026-01-08 04:32:22.89	270.65	27.99	-44.6	-45.6	15.5	0.00e+00	0	25	0	2865758208	55	4051
2026-01-08 04:32:23.89	270.44	27.85	-44.7	-45.8	15.4	0.00e+00	0	25	0	2872049664	55	4102
2026-01-08 04:32:24.89	270.23	27.72	-44.7	-45.8	15.4	0.00e+00	0	25	0	2877292544	55	4127
2026-01-08 04:32:25.88	270.03	27.59	-44.8	-45.9	15.4	0.00e+00	0	25	0	2882535424	55	4158
2026-01-08 04:32:26.88	269.83	27.45	-44.8	-45.8	15.4	0.00e+00	0	25	0	2888826880	55	4144
2026-01-08 04:32:27.88	269.63	27.32	-44.7	-45.8	15.4	0.00e+00	0	25	0	2894069760	55	4106
2026-01-08 04:32:28.87	269.43	27.18	-44.8	-45.8	15.4	0.00e+00	0	25	0	2899312640	55	4132
2026-01-08 04:32:29.87	269.23	27.05	-44.7	-45.8	15.4	0.00e+00	0	25	0	2905604096	55	4111
2026-01-08 04:32:30.87	269.03	26.92	-44.8	-45.8	15.4	0.00e+00	0	25	0	2910846976	55	4128
2026-01-08 04:32:31.87	268.84	26.78	-44.9	-45.9	15.4	0.00e+00	0	25	0	2917138432	55	4184
2026-01-08 04:32:32.87	268.65	26.65	-44.9	-45.9	15.4	0.00e+00	0	25	0	2922381312	55	4178
2026-01-08 04:32:33.87	268.46	26.52	-44.9	-45.9	15.4	0.00e+00	0	25	0	2927624192	55	4179
2026-01-08 04:32:34.86	268.27	26.39	-44.8	-45.9	15.4	0.00e+00	0	25	0	2933915648	55	4151
2026-01-08 04:32:35.86	268.08	26.25	-44.8	-45.8	15.4	0.00e+00	0	25	0	2939158528	55	4138
2026-01-08 04:32:36.87	267.89	26.12	-44.9	-45.9	15.4	0.00e+00	0	25	0	2944401408	55	4181
2026-01-08 04:32:37.86	267.71	25.99	-45.0	-46.0	15.3	0.00e+00	0	25	0	2950692864	55	4242
2026-01-08 04:32:38.85	267.53	25.86	-45.0	-46.1	15.3	0.00e+00	0	25	0	2955935744	55	4257
2026-01-08 04:32:39.84	267.35	25.73	-45.0	-46.1	15.3	0.00e+00	0	25	0	2961178624	55	4279
2026-01-08 04:32:40.84	267.17	25.60	-45.0	-46.1	15.3	0.00e+00	0	25	0	2967470080	55	4277
2026-01-08 04:32:41.84	266.99	25.47	-45.0	-46.1	15.4	0.00e+00	0	25	0	2972712960	55	4243
2026-01-08 04:32:42.83	266.82	25.34	-45.0	-46.1	15.3	0.00e+00	0	25	0	2977955840	55	4263
2026-01-08 04:32:43.83	266.64	25.21	-44.9	-46.0	15.4	0.00e+00	0	25	0	2984247296	55	4212
2026-01-08 04:32:44.82	266.47	25.08	-44.9	-45.9	15.4	0.00e+00	0	25	0	2989490176	55	4186
2026-01-08 04:32:45.82	266.29	24.95	-44.9	-46.0	15.3	0.00e+00	0	25	0	2994733056	55	4209
2026-01-08 04:32:46.81	266.12	24.83	-45.0	-46.1	15.3	0.00e+00	0	25	0	3001024512	55	4251
2026-01-08 04:32:47.81	265.95	24.70	-45.1	-46.1	15.3	0.00e+00	0	25	0	3006267392	55	4280
2026-01-08 04:32:48.80	265.79	24.57	-45.2	-46.3	15.3	0.00e+00	0	25	0	3011510272	55	4364
2026-01-08 04:32:49.79	265.62	24.45	-45.1	-46.2	15.3	0.00e+00	0	25	0	3017801728	55	4304
2026-01-08 04:32:50.79	265.46	24.32	-45.1	-46.2	15.3	0.00e+00	0	25	0	3023044608	55	4297
2026-01-08 04:32:51.78	265.29	24.19	-45.0	-46.0	15.3	0.00e+00	0	25	0	3028287488	55	4239
2026-01-08 04:32:52.77	265.13	24.07	-45.0	-46.1	15.3	0.00e+00	0	25	0	3034578944	55	4256
2026-01-08 04:32:53.78	264.97	23.94	-44.9	-46.0	15.3	0.00e+00	0	25	0	3039821824	55	4202
2026-01-08 04:32:54.78	264.81	23.81	-44.9	-46.0	15.4	0.00e+00	0	25	0	3045064704	55	4199
2026-01-08 04:32:55.78	264.65	23.69	-44.9	-45.9	15.4	0.00e+00	0	25	0	3051356160	55	4176
2026-01-08 04:32:56.77	264.49	23.56	-44.9	-46.0	15.4	0.00e+00	0	25	0	3056599040	55	4203
2026-01-08 04:32:57.78	264.33	23.44	-44.9	-46.0	15.3	0.00e+00	0	25	0	3062890496	55	4217
2026-01-08 04:32:58.78	264.18	23.31	-45.0	-46.1	15.3	0.00e+00	0	25	0	3068133376	55	4244
2026-01-08 04:32:59.78	264.02	23.19	-44.9	-46.0	15.3	0.00e+00	0	25	0	3073376256	55	4214
2026-01-08 04:33:00.77	263.87	23.07	-44.8	-45.9	15.4	0.00e+00	0	25	0	3079667712	55	4167
2026-01-08 04:33:01.77	263.72	22.94	-44.9	-46.0	15.4	0.00e+00	0	25	0	3084910592	55	4197
2026-01-08 04:33:02.77	263.57	22.82	-45.0	-46.0	15.3	0.00e+00	0	25	0	3090153472	55	4227
2026-01-08 04:33:03.77	263.42	22.70	-45.1	-46.2	15.3	0.00e+00	0	25	0	3096444928	55	4299
2026-01-08 04:33:04.78	263.27	22.58	-45.1	-46.1	15.3	0.00e+00	0	25	0	3101687808	55	4287
2026-01-08 04:33:05.78	263.12	22.45	-45.1	-46.2	15.3	0.00e+00	0	25	0	3106930688	55	4316
2026-01-08 04:33:06.77	262.98	22.33	-45.2	-46.3	15.3	0.00e+00	0	25	0	3113222144	55	4384
2026-01-08 04:33:07.77	262.84	22.21	-45.3	-46.4	15.3	0.00e+00	0	25	0	3118465024	55	4395
2026-01-08 04:33:08.77	262.69	22.09	-45.3	-46.4	15.3	0.00e+00	0	25	0	3124756480	55	4410
2026-01-08 04:33:09.77	262.55	21.97	-45.5	-46.6	15.3	0.00e+00	0	25	0	3129999360	56	4253
2026-01-08 04:33:10.77	262.41	21.85	-45.5	-46.5	15.3	0.00e+00	0	25	0	3135242240	56	4241
2026-01-08 04:33:11.77	262.27	21.73	-45.4	-46.5	15.3	0.00e+00	0	25	0	3141533696	56	4222
2026-01-08 04:33:12.76	262.13	21.61	-45.5	-46.6	15.3	0.00e+00	0	25	0	3146776576	56	4251
2026-01-08 04:33:13.76	261.99	21.50	-45.4	-46.5	15.3	0.00e+00	0	25	0	3152019456	56	4204
2026-01-08 04:33:14.75	261.86	21.38	-45.5	-46.6	15.3	0.00e+00	0	25	0	3158310912	56	4245
2026-01-08 04:33:15.75	261.72	21.26	-45.4	-46.5	15.3	0.00e+00	0	25	0	3163553792	56	4226
2026-01-08 04:33:16.74	261.59	21.14	-45.4	-46.5	15.3	0.00e+00	0	25	0	3168796672	56	4212
2026-01-08 04:33:17.75	261.45	21.03	-45.5	-46.6	15.3	0.00e+00	0	25	0	3175088128	56	4252
2026-01-08 04:33:18.75	261.32	20.91	-45.5	-46.6	15.3	0.00e+00	0	25	0	3180331008	56	4252
2026-01-08 04:33:19.75	261.19	20.79	-45.5	-46.6	15.3	0.00e+00	0	25	0	3185573888	56	4286
2026-01-08 04:33:20.75	261.06	20.68	-45.5	-46.6	15.3	0.00e+00	0	25	0	3191865344	56	4280
2026-01-08 04:33:21.75	260.93	20.56	-45.7	-46.8	15.2	0.00e+00	0	25	0	3197108224	56	4367
2026-01-08 04:33:22.74	260.80	20.45	-45.6	-46.7	15.2	0.00e+00	0	25	0	3202351104	56	4340
2026-01-08 04:33:23.73	260.68	20.33	-45.6	-46.7	15.3	0.00e+00	0	25	0	3208642560	56	4330
2026-01-08 04:33:24.74	260.55	20.22	-45.7	-46.8	15.2	0.00e+00	0	25	0	3213885440	56	4387
2026-01-08 04:33:25.74	260.42	20.10	-45.7	-46.8	15.2	0.00e+00	0	25	0	3219128320	56	4379
2026-01-08 04:33:26.75	260.30	19.99	-45.8	-46.9	15.2	0.00e+00	0	25	0	3225419776	56	4412
2026-01-08 04:33:27.75	260.17	19.87	-45.9	-47.0	15.2	0.00e+00	0	25	0	3230662656	56	4462
2026-01-08 04:33:28.75	260.05	19.76	-45.9	-47.0	15.2	0.00e+00	0	25	0	3236954112	56	4473
2026-01-08 04:33:29.75	259.93	19.65	-46.0	-47.1	15.3	0.00e+00	0	25	0	3242196992	57	4266
2026-01-08 04:33:30.74	259.81	19.54	-45.9	-47.0	15.3	0.00e+00	0	25	0	3247439872	57	4204
2026-01-08 04:33:31.74	259.69	19.42	-45.9	-47.0	15.3	0.00e+00	0	25	0	3253731328	57	4238
2026-01-08 04:33:32.74	259.57	19.31	-45.9	-47.0	15.3	0.00e+00	0	25	0	3258974208	57	4230
2026-01-08 04:33:33.74	259.45	19.20	-45.8	-47.0	15.3	0.00e+00	0	25	0	3264217088	57	4198
2026-01-08 04:33:34.74	259.33	19.09	-45.7	-46.8	15.3	0.00e+00	0	25	0	3270508544	57	4119
2026-01-08 04:33:35.74	259.21	18.98	-45.8	-46.9	15.3	0.00e+00	0	25	0	3275751424	57	4150
2026-01-08 04:33:36.75	259.10	18.87	-45.7	-46.8	15.3	0.00e+00	0	25	0	3280994304	57	4140
2026-01-08 04:33:37.74	258.98	18.76	-45.8	-46.9	15.3	0.00e+00	0	25	0	3287285760	57	4168
2026-01-08 04:33:38.74	258.87	18.65	-45.7	-46.8	15.3	0.00e+00	0	25	0	3292528640	57	4138
2026-01-08 04:33:39.73	258.76	18.54	-45.9	-47.0	15.3	0.00e+00	0	25	0	3298820096	57	4223
2026-01-08 04:33:40.73	258.65	18.43	-45.9	-47.0	15.3	0.00e+00	0	25	0	3304062976	57	4220
2026-01-08 04:33:41.73	258.53	18.32	-46.0	-47.1	15.2	0.00e+00	0	25	0	3309305856	57	4286
2026-01-08 04:33:42.71	258.42	18.22	-46.1	-47.2	15.2	0.00e+00	0	25	0	3315597312	57	4331
2026-01-08 04:33:43.71	258.31	18.11	-46.1	-47.3	15.2	0.00e+00	0	25	0	3320840192	57	4342
2026-01-08 04:33:44.70	258.21	18.01	-46.3	-47.4	15.2	0.00e+00	0	25	0	3326083072	57	4425
2026-01-08 04:33:45.70	258.10	17.90	-46.2	-47.4	15.2	0.00e+00	0	25	0	3331325952	57	4408
2026-01-08 04:33:46.70	257.99	17.79	-46.3	-47.5	15.1	0.00e+00	0	25	0	3337617408	57	4458
2026-01-08 04:33:47.69	257.88	17.69	-46.4	-47.5	15.2	0.00e+00	0	25	0	3342860288	58	4219
2026-01-08 04:33:48.68	257.78	17.58	-46.3	-47.5	15.2	0.00e+00	0	25	0	3349151744	58	4209
2026-01-08 04:33:49.68	257.67	17.48	-46.6	-47.7	15.1	0.00e+00	0	25	0	3354394624	58	4323
2026-01-08 04:33:50.67	257.57	17.37	-46.4	-47.5	15.2	0.00e+00	0	25	0	3359637504	58	4215
2026-01-08 04:33:51.67	257.47	17.27	-46.4	-47.5	15.2	0.00e+00	0	25	0	3365928960	58	4238
2026-01-08 04:33:52.66	257.36	17.16	-46.4	-47.5	15.2	0.00e+00	0	25	0	3371171840	58	4242
2026-01-08 04:33:53.66	257.26	17.06	-46.4	-47.6	15.2	0.00e+00	0	25	0	3376414720	58	4253
2026-01-08 04:33:54.65	257.16	16.96	-46.4	-47.5	15.2	0.00e+00	0	25	0	3381657600	58	4228
2026-01-08 04:33:55.65	257.06	16.85	-46.4	-47.6	15.2	0.00e+00	0	25	0	3387949056	58	4245
2026-01-08 04:33:56.65	256.96	16.75	-46.4	-47.5	15.2	0.00e+00	0	25	0	3393191936	58	4231
2026-01-08 04:33:57.65	256.86	16.65	-46.5	-47.6	15.2	0.00e+00	0	25	0	3399483392	58	4275
2026-01-08 04:33:58.65	256.76	16.54	-46.6	-47.7	15.1	0.00e+00	0	25	0	3404726272	58	4311
2026-01-08 04:33:59.64	256.66	16.44	-46.5	-47.6	15.2	0.00e+00	0	25	0	3409969152	58	4288
2026-01-08 04:34:00.64	256.57	16.34	-46.6	-47.7	15.1	0.00e+00	0	25	0	3416260608	58	4329
2026-01-08 04:34:01.64	256.47	16.24	-46.6	-47.7	15.1	0.00e+00	0	25	0	3421503488	58	4317
2026-01-08 04:34:02.63	256.38	16.14	-46.6	-47.7	15.1	0.00e+00	0	25	0	3426746368	58	4333
2026-01-08 04:34:03.63	256.28	16.04	-46.7	-47.9	15.1	0.00e+00	0	25	0	3433037824	58	4398
2026-01-08 04:34:04.63	256.19	15.94	-46.8	-47.9	15.1	0.00e+00	0	25	0	3438280704	58	4433
2026-01-08 04:34:05.64	256.09	15.84	-46.7	-47.9	15.1	0.00e+00	0	25	0	3443523584	58	4413
2026-01-08 04:34:06.64	256.00	15.74	-46.8	-48.0	15.1	0.00e+00	0	25	0	3449815040	58	4442
2026-01-08 04:34:07.64	255.90	15.64	-46.8	-48.0	15.1	0.00e+00	0	25	0	3455057920	58	4451
2026-01-08 04:34:08.64	255.81	15.54	-46.8	-48.0	15.1	0.00e+00	0	25	0	3461349376	58	4465
2026-01-08 04:34:09.64	255.72	15.44	-46.9	-48.0	15.1	0.00e+00	0	25	0	3466592256	58	4487
2026-01-08 04:34:10.64	255.63	15.34	-47.0	-48.1	15.1	0.00e+00	0	25	0	3471835136	59	4277
2026-01-08 04:34:11.64	255.54	15.24	-47.0	-48.1	15.1	0.00e+00	0	25	0	3478126592	59	4283
2026-01-08 04:34:12.64	255.45	15.15	-46.9	-48.0	15.1	0.00e+00	0	25	0	3483369472	59	4233
2026-01-08 04:34:13.65	255.36	15.05	-46.9	-48.1	15.1	0.00e+00	0	25	0	3488612352	59	4282
2026-01-08 04:34:14.65	255.27	14.95	-47.0	-48.1	15.1	0.00e+00	0	25	0	3494903808	59	4291
2026-01-08 04:34:15.65	255.18	14.85	-47.0	-48.1	15.1	0.00e+00	0	25	0	3500146688	59	4289
2026-01-08 04:34:16.65	255.09	14.76	-47.0	-48.2	15.1	0.00e+00	0	25	0	3505389568	59	4326
2026-01-08 04:34:17.64	255.01	14.66	-47.0	-48.2	15.1	0.00e+00	0	25	0	3511681024	59	4320
2026-01-08 04:34:18.64	254.92	14.57	-47.0	-48.2	15.1	0.00e+00	0	25	0	3516923904	59	4308
2026-01-08 04:34:19.64	254.84	14.47	-47.1	-48.2	15.1	0.00e+00	0	25	0	3523215360	59	4335
2026-01-08 04:34:20.64	254.75	14.37	-47.1	-48.3	15.0	0.00e+00	0	25	0	3528458240	59	4368
2026-01-08 04:34:21.63	254.67	14.28	-47.1	-48.3	15.0	0.00e+00	0	25	0	3533701120	59	4389
2026-01-08 04:34:22.62	254.58	14.19	-47.2	-48.4	15.0	0.00e+00	0	25	0	3539992576	59	4392
2026-01-08 04:34:23.63	254.50	14.09	-47.2	-48.4	15.0	0.00e+00	0	25	0	3545235456	59	4422
2026-01-08 04:34:24.62	254.42	14.00	-47.2	-48.4	15.0	0.00e+00	0	25	0	3550478336	59	4398
2026-01-08 04:34:25.62	254.34	13.90	-47.1	-48.3	15.0	0.00e+00	0	25	0	3556769792	59	4372
2026-01-08 04:34:26.63	254.25	13.81	-47.1	-48.3	15.0	0.00e+00	0	25	0	3562012672	59	4368
2026-01-08 04:34:27.63	254.17	13.72	-47.2	-48.4	15.0	0.00e+00	0	25	0	3568304128	59	4401
2026-01-08 04:34:28.62	254.09	13.63	-47.2	-48.4	15.0	0.00e+00	0	25	0	3573547008	59	4405
2026-01-08 04:34:29.62	254.01	13.53	-47.1	-48.3	15.0	0.00e+00	0	25	0	3578789888	59	4374
2026-01-08 04:34:30.62	253.93	13.44	-47.2	-48.4	15.0	0.00e+00	0	25	0	3585081344	59	4427
2026-01-08 04:34:31.62	253.85	13.35	-47.3	-48.4	15.0	0.00e+00	0	25	0	3590324224	59	4436
2026-01-08 04:34:32.62	253.77	13.26	-47.2	-48.4	15.0	0.00e+00	0	25	0	3595567104	59	4430
2026-01-08 04:34:33.61	253.70	13.17	-47.3	-48.4	15.0	0.00e+00	0	25	0	3601858560	59	4440
2026-01-08 04:34:34.61	253.62	13.07	-47.3	-48.5	15.0	0.00e+00	0	25	0	3607101440	59	4454
2026-01-08 04:34:35.61	253.54	12.98	-47.3	-48.5	15.0	0.00e+00	0	25	0	3612344320	59	4458
