passes_logs/2026/01/08/R3.2S_Murmansk/R3.2S_Murmansk__20260108_064052_SUOMI_NPP_rec.log

#Pass ID: 20260108_064052_SUOMI NPP
#Satellite: SUOMI NPP
#Configuration: NPP
#almurnet v.1.7.20251203
#Start time: 2026-01-08 06:40:51

#Version: 2.2.20231116
#Station: R3.2S_Murmansk
#Location: 33.079688 lon 68.888172 lat
#TLE: 1 37849U 11061A   26005.94084933  .00000134  00000+0  84554-4 0  9990
#TLE: 2 37849  98.7803 308.0679 0002567  79.1029 281.0436 14.19522657735426

#Time	Az	El	Level	Level2	SNR	BER	BlckErr	Temp	State	Recorded	gain1	gain2
2026-01-08 06:40:51.61	87.22	1.97	-57.4	-73.4	3.8	1.49e+00	0	22	0	0	81	22177
2026-01-08 06:40:52.61	87.17	2.02	-57.3	-73.3	3.8	1.49e+00	0	23	104	0	79	24630
2026-01-08 06:40:53.61	87.11	2.08	-57.3	-73.3	3.8	1.49e+00	0	22	104	0	79	24693
2026-01-08 06:40:54.61	87.06	2.14	-57.3	-73.3	3.8	1.49e+00	0	22	104	0	79	24648
2026-01-08 06:40:55.61	87.00	2.20	-57.3	-73.3	3.8	1.49e+00	0	23	104	0	79	24641
2026-01-08 06:40:56.61	86.95	2.26	-57.3	-73.3	3.8	1.49e+00	0	23	104	0	79	24693
2026-01-08 06:40:57.61	86.89	2.32	-57.4	-73.4	3.8	1.49e+00	0	23	104	0	79	24723
2026-01-08 06:40:58.62	86.83	2.38	-57.3	-73.3	3.8	1.49e+00	0	23	104	0	79	24645
2026-01-08 06:40:59.62	86.77	2.44	-57.3	-73.3	3.8	1.49e+00	0	23	104	0	79	24631
2026-01-08 06:41:00.61	86.72	2.50	-57.3	-73.3	3.8	1.49e+00	0	23	104	0	79	24668
2026-01-08 06:41:01.61	86.66	2.56	-57.4	-73.3	3.8	1.49e+00	0	23	104	0	79	24684
2026-01-08 06:41:02.61	86.60	2.61	-57.3	-73.3	3.8	1.49e+00	0	23	104	0	79	24655
2026-01-08 06:41:03.61	86.54	2.67	-57.3	-73.3	3.8	1.49e+00	0	23	104	0	79	24647
2026-01-08 06:41:04.61	86.49	2.73	-57.3	-73.4	3.8	1.49e+00	0	23	104	0	79	24709
2026-01-08 06:41:05.60	86.43	2.79	-57.3	-73.3	3.8	1.49e+00	0	23	104	0	79	24665
2026-01-08 06:41:06.61	86.37	2.85	-57.3	-73.4	3.8	1.49e+00	0	23	104	0	79	24710
2026-01-08 06:41:07.61	86.31	2.91	-57.4	-73.4	3.8	1.49e+00	0	23	104	0	79	24733
2026-01-08 06:41:08.62	86.25	2.97	-57.3	-73.4	3.8	1.49e+00	0	23	104	0	79	24710
2026-01-08 06:41:09.62	86.19	3.03	-57.4	-73.4	3.8	1.49e+00	0	23	104	0	79	24763
2026-01-08 06:41:10.62	86.13	3.10	-57.3	-73.4	3.8	1.49e+00	0	23	104	0	79	24782
2026-01-08 06:41:11.63	86.07	3.16	-57.3	-73.3	3.8	1.49e+00	0	23	104	0	79	24667
2026-01-08 06:41:12.63	86.01	3.22	-57.3	-73.3	3.8	1.49e+00	0	23	104	0	79	24690
2026-01-08 06:41:13.63	85.95	3.28	-57.3	-73.3	3.8	1.49e+00	0	23	104	0	79	24605
2026-01-08 06:41:14.63	85.89	3.34	-57.3	-73.3	3.8	1.49e+00	0	23	104	0	79	24589
2026-01-08 06:41:15.63	85.83	3.40	-57.3	-73.3	3.8	1.49e+00	0	23	104	0	79	24611
2026-01-08 06:41:16.64	85.76	3.46	-57.3	-73.3	3.8	1.49e+00	0	23	104	0	79	24652
2026-01-08 06:41:17.64	85.70	3.52	-57.3	-73.3	3.8	1.49e+00	0	23	104	0	79	24661
2026-01-08 06:41:18.64	85.64	3.58	-57.3	-73.4	3.8	1.49e+00	0	23	104	0	79	24715
2026-01-08 06:41:19.64	85.58	3.64	-57.4	-73.4	3.8	1.49e+00	0	23	104	0	79	24742
2026-01-08 06:41:20.64	85.51	3.71	-57.4	-73.3	3.8	1.49e+00	0	23	104	0	79	24690
2026-01-08 06:41:21.64	85.45	3.77	-57.4	-73.3	3.8	1.49e+00	0	23	104	0	79	24594
2026-01-08 06:41:22.63	85.39	3.83	-57.3	-73.3	3.8	1.49e+00	0	23	104	0	79	24478
2026-01-08 06:41:23.63	85.33	3.89	-57.3	-73.2	3.8	1.49e+00	0	23	104	0	79	24315
2026-01-08 06:41:24.64	85.26	3.95	-57.3	-73.2	3.8	1.49e+00	0	23	104	0	79	24359
2026-01-08 06:41:25.63	85.20	4.01	-57.3	-73.3	3.8	1.49e+00	0	23	104	0	79	24423
2026-01-08 06:41:26.63	85.13	4.08	-57.3	-73.3	3.8	1.49e+00	0	23	104	0	79	24634
2026-01-08 06:41:27.63	85.07	4.14	-57.4	-73.3	3.8	1.49e+00	0	23	104	0	79	24683
2026-01-08 06:41:28.63	85.00	4.20	-57.3	-73.3	3.8	1.49e+00	0	23	104	0	79	24591
2026-01-08 06:41:29.62	84.94	4.26	-57.3	-73.0	3.8	1.49e+00	0	23	104	0	79	23790
2026-01-08 06:41:30.62	84.87	4.32	-57.3	-72.7	3.8	1.49e+00	0	23	104	0	79	22813
2026-01-08 06:41:31.62	84.81	4.39	-57.3	-72.0	3.8	1.49e+00	0	23	104	0	79	21090
2026-01-08 06:41:32.62	84.74	4.45	-57.3	-71.3	3.8	1.49e+00	0	23	104	0	79	19544
2026-01-08 06:41:33.61	84.68	4.51	-57.2	-70.6	3.9	1.49e+00	0	23	104	0	79	18066
2026-01-08 06:41:34.61	84.61	4.57	-57.2	-69.8	4.2	1.42e+00	0	24	0	0	79	16503
2026-01-08 06:41:35.61	84.54	4.64	-57.1	-69.3	4.4	1.32e+00	73	24	0	0	79	15437
2026-01-08 06:41:36.61	84.48	4.70	-57.1	-68.2	4.7	9.51e-01	0	23	0	2097152	79	13643
2026-01-08 06:41:37.61	84.41	4.76	-57.0	-67.5	5.1	6.64e-01	0	24	0	4194304	79	12556
2026-01-08 06:41:38.62	84.34	4.83	-57.0	-66.9	5.4	5.43e-01	0	23	0	5242880	79	11799
2026-01-08 06:41:39.62	84.27	4.89	-56.9	-66.2	5.8	3.85e-01	0	23	0	7340032	79	10858
2026-01-08 06:41:40.62	84.20	4.95	-56.8	-65.8	6.2	2.99e-01	0	24	0	9437184	79	10309
2026-01-08 06:41:41.61	84.14	5.02	-56.8	-65.7	6.2	2.67e-01	0	23	0	11534336	79	10257
2026-01-08 06:41:42.61	84.07	5.08	-56.8	-65.1	6.7	1.79e-01	0	24	0	13631488	79	9551
2026-01-08 06:41:43.61	84.00	5.14	-56.5	-63.0	8.6	1.60e-01	0	24	0	14680064	79	7502
2026-01-08 06:41:44.61	83.93	5.21	-57.1	-67.7	5.1	1.28e-01	0	24	0	16777216	79	12874
2026-01-08 06:41:45.61	83.86	5.27	-57.3	-67.5	5.3	1.15e+00	0	24	0	16777216	79	12656
2026-01-08 06:41:46.62	83.79	5.34	-55.4	-60.0	10.9	1.04e+00	0	24	0	17825792	77	5956
2026-01-08 06:41:47.61	83.72	5.40	-55.1	-59.4	11.5	1.14e-04	0	24	0	19922944	76	5868
2026-01-08 06:41:48.61	83.65	5.47	-55.1	-59.3	11.5	5.03e-05	0	24	0	22020096	76	5845
2026-01-08 06:41:49.60	83.58	5.53	-54.9	-59.0	11.8	7.70e-05	0	24	0	23068672	76	5599
2026-01-08 06:41:50.60	83.50	5.59	-54.6	-58.3	12.2	4.50e-06	0	24	0	25165824	75	5509
2026-01-08 06:41:51.60	83.43	5.66	-54.4	-58.0	12.4	3.00e-06	0	24	0	27262976	75	5294
2026-01-08 06:41:52.59	83.36	5.72	-54.4	-57.9	12.5	1.50e-06	0	24	0	29360128	75	5272
2026-01-08 06:41:53.59	83.29	5.79	-54.1	-57.3	12.8	0.00e+00	0	24	0	30408704	74	5199
2026-01-08 06:41:54.58	83.22	5.85	-54.3	-57.7	12.6	0.00e+00	0	24	0	32505856	74	5406
2026-01-08 06:41:55.58	83.14	5.92	-54.0	-57.2	13.0	0.00e+00	0	24	0	34603008	74	5108
2026-01-08 06:41:56.58	83.07	5.98	-54.1	-57.3	12.9	0.00e+00	0	24	0	36700160	74	5160
2026-01-08 06:41:57.58	82.99	6.05	-54.1	-57.4	12.8	0.00e+00	0	24	0	38797312	74	5233
2026-01-08 06:41:58.57	82.92	6.11	-54.1	-57.2	12.9	0.00e+00	0	24	0	39845888	74	5150
2026-01-08 06:41:59.56	82.85	6.18	-54.0	-57.2	12.9	0.00e+00	0	24	0	41943040	74	5153
2026-01-08 06:42:00.55	82.77	6.24	-53.7	-57.2	13.0	0.00e+00	0	24	0	44040192	74	5115
2026-01-08 06:42:01.55	82.70	6.31	-53.7	-57.1	13.0	0.00e+00	0	24	0	46137344	74	5091
2026-01-08 06:42:02.54	82.62	6.38	-53.7	-57.2	12.8	0.00e+00	0	24	0	47185920	73	5407
2026-01-08 06:42:03.53	82.55	6.44	-53.3	-56.4	13.3	0.00e+00	0	24	0	49283072	73	4980
2026-01-08 06:42:04.52	82.47	6.51	-53.4	-56.6	13.3	0.00e+00	0	24	0	51380224	73	5046
2026-01-08 06:42:05.52	82.39	6.57	-53.3	-56.4	13.4	0.00e+00	0	24	0	53477376	73	4983
2026-01-08 06:42:06.51	82.32	6.64	-53.1	-56.0	13.5	0.00e+00	0	24	0	55574528	72	5027
2026-01-08 06:42:07.51	82.24	6.71	-53.1	-56.2	13.4	0.00e+00	0	24	0	56623104	72	5112
2026-01-08 06:42:08.51	82.16	6.77	-53.1	-56.1	13.4	0.00e+00	0	24	0	58720256	72	5098
2026-01-08 06:42:09.51	82.08	6.84	-53.1	-56.1	13.5	0.00e+00	0	24	0	60817408	72	5053
2026-01-08 06:42:10.51	82.01	6.91	-53.2	-56.2	13.4	0.00e+00	0	24	0	62914560	72	5142
2026-01-08 06:42:11.50	81.93	6.97	-53.1	-56.0	13.6	0.00e+00	0	24	0	65011712	72	5032
2026-01-08 06:42:12.50	81.85	7.04	-52.8	-55.7	13.8	0.00e+00	0	24	0	66060288	72	4831
2026-01-08 06:42:13.49	81.77	7.11	-52.9	-55.8	13.7	0.00e+00	0	24	0	68157440	72	4894
2026-01-08 06:42:14.49	81.69	7.17	-52.8	-55.6	13.8	0.00e+00	0	24	0	70254592	72	4773
2026-01-08 06:42:15.49	81.61	7.24	-52.9	-55.8	13.7	0.00e+00	0	24	0	72351744	72	4893
2026-01-08 06:42:16.48	81.53	7.31	-52.7	-55.5	13.9	0.00e+00	0	24	0	73400320	72	4736
2026-01-08 06:42:17.48	81.45	7.38	-52.9	-55.8	13.7	0.00e+00	0	24	0	75497472	72	4895
2026-01-08 06:42:18.48	81.37	7.44	-52.7	-55.5	13.9	0.00e+00	0	24	0	77594624	72	4754
2026-01-08 06:42:19.47	81.28	7.51	-52.8	-55.6	13.8	0.00e+00	0	24	0	79691776	72	4778
2026-01-08 06:42:20.48	81.20	7.58	-52.8	-55.8	13.7	0.00e+00	0	24	0	81788928	72	4872
2026-01-08 06:42:21.48	81.12	7.65	-53.0	-56.1	13.5	0.00e+00	0	24	0	82837504	72	5055
2026-01-08 06:42:22.48	81.03	7.72	-52.9	-55.8	13.7	0.00e+00	0	24	0	84934656	72	4888
2026-01-08 06:42:23.47	80.95	7.79	-53.0	-55.9	13.6	0.00e+00	0	24	0	87031808	72	4981
2026-01-08 06:42:24.47	80.87	7.85	-53.0	-56.0	13.6	0.00e+00	0	24	0	89128960	72	5005
2026-01-08 06:42:25.47	80.78	7.92	-53.0	-55.9	13.6	0.00e+00	0	24	0	90177536	72	4956
2026-01-08 06:42:26.47	80.70	7.99	-53.0	-55.9	13.6	0.00e+00	0	24	0	92274688	72	4977
2026-01-08 06:42:27.47	80.61	8.06	-52.9	-55.8	13.7	0.00e+00	0	24	0	94371840	72	4905
2026-01-08 06:42:28.47	80.53	8.13	-52.9	-55.7	13.8	0.00e+00	0	24	0	96468992	72	4849
2026-01-08 06:42:29.47	80.44	8.20	-53.0	-56.0	13.6	0.00e+00	0	24	0	98566144	72	5011
2026-01-08 06:42:30.46	80.35	8.27	-53.0	-55.9	13.7	0.00e+00	0	24	0	99614720	72	4939
2026-01-08 06:42:31.46	80.27	8.34	-53.0	-55.9	13.7	0.00e+00	0	24	0	101711872	72	4948
2026-01-08 06:42:32.45	80.18	8.41	-53.1	-56.1	13.6	0.00e+00	0	24	0	103809024	72	5049
2026-01-08 06:42:33.45	80.09	8.48	-53.2	-56.2	13.5	0.00e+00	0	24	0	105906176	72	5121
2026-01-08 06:42:34.45	80.00	8.55	-53.0	-55.9	13.7	0.00e+00	0	24	0	106954752	72	4932
2026-01-08 06:42:35.46	79.91	8.62	-52.9	-55.7	13.8	0.00e+00	0	24	0	109051904	72	4842
2026-01-08 06:42:36.45	79.83	8.69	-52.9	-55.7	13.8	0.00e+00	0	24	0	111149056	72	4852
2026-01-08 06:42:37.44	79.74	8.76	-53.0	-55.8	13.7	0.00e+00	0	24	0	113246208	72	4915
2026-01-08 06:42:38.44	79.65	8.83	-52.9	-55.6	13.8	0.00e+00	0	24	0	115343360	72	4805
2026-01-08 06:42:39.45	79.56	8.90	-53.1	-55.9	13.7	0.00e+00	0	24	0	116391936	72	4951
2026-01-08 06:42:40.45	79.46	8.97	-53.1	-56.0	13.6	0.00e+00	0	24	0	118489088	72	5001
2026-01-08 06:42:41.44	79.37	9.04	-53.2	-56.0	13.6	0.00e+00	0	24	0	120586240	72	5036
2026-01-08 06:42:42.43	79.28	9.11	-53.1	-56.0	13.6	0.00e+00	0	24	0	122683392	72	5030
2026-01-08 06:42:43.44	79.19	9.18	-53.2	-56.1	13.6	0.00e+00	0	24	0	124780544	72	5066
2026-01-08 06:42:44.44	79.10	9.25	-53.0	-55.9	13.7	0.00e+00	0	24	0	125829120	72	4946
2026-01-08 06:42:45.43	79.00	9.33	-53.3	-56.3	13.4	0.00e+00	0	24	0	127926272	72	5168
2026-01-08 06:42:46.43	78.91	9.40	-53.0	-55.8	13.7	0.00e+00	0	24	0	130023424	72	4910
2026-01-08 06:42:47.43	78.82	9.47	-52.9	-55.6	13.8	0.00e+00	0	24	0	132120576	72	4814
2026-01-08 06:42:48.43	78.72	9.54	-53.0	-55.8	13.7	0.00e+00	0	24	0	134217728	72	4891
2026-01-08 06:42:49.43	78.63	9.61	-52.9	-55.6	13.8	0.00e+00	0	24	0	135266304	72	4809
2026-01-08 06:42:50.43	78.53	9.68	-52.6	-55.3	13.9	0.00e+00	0	24	0	137363456	71	4917
2026-01-08 06:42:51.43	78.43	9.76	-52.9	-55.7	13.7	0.00e+00	0	24	0	139460608	71	5157
2026-01-08 06:42:52.43	78.34	9.83	-52.9	-55.7	13.7	0.00e+00	0	24	0	141557760	71	5148
2026-01-08 06:42:53.43	78.24	9.90	-53.1	-56.0	13.5	0.00e+00	0	24	0	142606336	71	5339
2026-01-08 06:42:54.43	78.14	9.97	-53.0	-55.9	13.6	0.00e+00	0	24	0	144703488	71	5279
2026-01-08 06:42:55.43	78.04	10.05	-53.0	-56.0	13.6	0.00e+00	0	24	0	146800640	71	5305
2026-01-08 06:42:56.43	77.94	10.12	-53.1	-56.1	13.4	0.00e+00	0	24	0	148897792	71	5359
2026-01-08 06:42:57.44	77.84	10.19	-52.9	-55.8	13.6	0.00e+00	0	24	0	150994944	71	5186
2026-01-08 06:42:58.43	77.75	10.27	-52.8	-55.6	13.8	0.00e+00	0	24	0	152043520	71	5062
2026-01-08 06:42:59.43	77.64	10.34	-52.7	-55.5	13.9	0.00e+00	0	24	0	154140672	71	4997
2026-01-08 06:43:00.43	77.54	10.41	-52.7	-55.5	13.8	0.00e+00	0	24	0	156237824	71	5004
2026-01-08 06:43:01.44	77.44	10.49	-52.8	-55.7	13.7	0.00e+00	0	24	0	158334976	71	5101
2026-01-08 06:43:02.44	77.34	10.56	-52.5	-55.2	14.0	0.00e+00	0	24	0	160432128	71	4864
2026-01-08 06:43:03.45	77.24	10.64	-52.6	-55.3	13.9	0.00e+00	0	24	0	161480704	71	4925
2026-01-08 06:43:04.45	77.13	10.71	-52.6	-55.5	13.9	0.00e+00	0	24	0	163577856	71	4984
2026-01-08 06:43:05.45	77.03	10.78	-52.6	-55.5	13.8	0.00e+00	0	24	0	165675008	71	4985
2026-01-08 06:43:06.45	76.93	10.86	-52.6	-55.3	13.9	0.00e+00	0	24	0	167772160	71	4916
2026-01-08 06:43:07.45	76.82	10.93	-52.7	-55.6	13.8	0.00e+00	0	24	0	168820736	71	5085
2026-01-08 06:43:08.45	76.72	11.01	-52.7	-55.6	13.7	0.00e+00	0	24	0	170917888	71	5084
2026-01-08 06:43:09.46	76.61	11.08	-52.7	-55.5	13.8	0.00e+00	0	24	0	173015040	71	5040
2026-01-08 06:43:10.46	76.50	11.16	-52.7	-55.4	13.9	0.00e+00	0	24	0	175112192	71	4959
2026-01-08 06:43:11.46	76.40	11.23	-52.5	-55.2	14.0	0.00e+00	0	24	0	177209344	71	4866
2026-01-08 06:43:12.47	76.29	11.31	-52.6	-55.3	14.0	0.00e+00	0	24	0	179306496	71	4882
2026-01-08 06:43:13.48	76.18	11.38	-52.6	-55.3	13.9	0.00e+00	0	24	0	180355072	71	4898
2026-01-08 06:43:14.48	76.07	11.46	-52.7	-55.5	13.9	0.00e+00	0	24	0	182452224	71	4995
2026-01-08 06:43:15.48	75.96	11.53	-52.8	-55.7	13.7	0.00e+00	0	24	0	184549376	71	5140
2026-01-08 06:43:16.48	75.85	11.61	-52.9	-55.8	13.7	0.00e+00	0	24	0	186646528	71	5187
2026-01-08 06:43:17.48	75.74	11.68	-52.9	-55.8	13.7	0.00e+00	0	24	0	187695104	71	5181
2026-01-08 06:43:18.47	75.63	11.76	-52.6	-55.4	13.9	0.00e+00	0	24	0	189792256	71	4938
2026-01-08 06:43:19.48	75.52	11.84	-52.6	-55.3	14.0	0.00e+00	0	24	0	191889408	71	4876
2026-01-08 06:43:20.48	75.41	11.91	-52.5	-55.1	14.1	0.00e+00	0	24	0	193986560	71	4770
2026-01-08 06:43:21.48	75.29	11.99	-52.5	-55.1	14.1	0.00e+00	0	24	0	196083712	71	4778
2026-01-08 06:43:22.48	75.18	12.06	-52.3	-54.8	14.2	0.00e+00	0	24	0	197132288	71	4647
2026-01-08 06:43:23.49	75.07	12.14	-52.5	-55.1	14.1	0.00e+00	0	24	0	199229440	71	4768
2026-01-08 06:43:24.49	74.95	12.22	-52.3	-54.7	14.3	0.00e+00	0	24	0	201326592	71	4591
2026-01-08 06:43:25.50	74.84	12.30	-52.5	-55.0	14.1	0.00e+00	0	24	0	203423744	71	4739
2026-01-08 06:43:26.49	74.72	12.37	-52.4	-54.9	14.2	0.00e+00	0	24	0	205520896	71	4701
2026-01-08 06:43:27.49	74.60	12.45	-52.4	-54.9	14.2	0.00e+00	0	24	0	206569472	71	4672
2026-01-08 06:43:28.50	74.49	12.53	-52.4	-54.9	14.2	0.00e+00	0	24	0	208666624	71	4697
2026-01-08 06:43:29.50	74.37	12.60	-52.5	-55.1	14.1	0.00e+00	0	24	0	210763776	71	4762
2026-01-08 06:43:30.50	74.25	12.68	-52.4	-54.8	14.2	0.00e+00	0	24	0	212860928	71	4647
2026-01-08 06:43:31.51	74.13	12.76	-52.5	-55.1	14.1	0.00e+00	0	24	0	214958080	71	4808
2026-01-08 06:43:32.50	74.01	12.84	-52.7	-55.4	14.0	0.00e+00	0	24	0	216006656	71	4930
2026-01-08 06:43:33.51	73.89	12.91	-52.6	-55.1	14.1	0.00e+00	0	24	0	218103808	71	4806
2026-01-08 06:43:34.51	73.77	12.99	-52.6	-55.2	14.0	0.00e+00	0	24	0	220200960	71	4836
2026-01-08 06:43:35.51	73.65	13.07	-52.7	-55.4	13.9	0.00e+00	0	24	0	222298112	71	4953
2026-01-08 06:43:36.51	73.53	13.15	-52.7	-55.3	13.9	0.00e+00	0	24	0	224395264	71	4922
2026-01-08 06:43:37.51	73.40	13.23	-52.9	-55.7	13.8	0.00e+00	0	24	0	225443840	71	5110
2026-01-08 06:43:38.51	73.28	13.30	-52.9	-55.6	13.8	0.00e+00	0	24	0	227540992	71	5096
2026-01-08 06:43:39.52	73.16	13.38	-53.0	-55.8	13.7	0.00e+00	0	24	0	229638144	71	5201
2026-01-08 06:43:40.52	73.03	13.46	-52.9	-55.8	13.7	0.00e+00	0	24	0	231735296	71	5171
2026-01-08 06:43:41.52	72.90	13.54	-52.8	-55.5	13.9	0.00e+00	0	24	0	232783872	71	4999
2026-01-08 06:43:42.52	72.78	13.62	-52.7	-55.4	13.9	0.00e+00	0	24	0	234881024	71	4970
2026-01-08 06:43:43.52	72.65	13.70	-52.7	-55.4	13.9	0.00e+00	0	24	0	236978176	71	4953
2026-01-08 06:43:44.52	72.52	13.78	-52.7	-55.4	13.9	0.00e+00	0	24	0	239075328	71	4934
2026-01-08 06:43:45.52	72.40	13.85	-52.7	-55.4	14.0	0.00e+00	0	24	0	241172480	71	4927
2026-01-08 06:43:46.53	72.27	13.93	-52.5	-55.0	14.2	0.00e+00	0	25	0	242221056	71	4749
2026-01-08 06:43:47.53	72.14	14.01	-52.5	-55.1	14.1	0.00e+00	0	24	0	244318208	71	4803
2026-01-08 06:43:48.54	72.00	14.09	-52.4	-54.9	14.2	0.00e+00	0	24	0	246415360	71	4693
2026-01-08 06:43:49.54	71.87	14.17	-52.3	-54.7	14.2	0.00e+00	0	24	0	248512512	70	4846
2026-01-08 06:43:50.53	71.74	14.25	-52.3	-54.8	14.1	0.00e+00	0	24	0	250609664	70	4871
2026-01-08 06:43:51.54	71.61	14.33	-52.0	-54.3	14.4	0.00e+00	0	24	0	251658240	70	4617
2026-01-08 06:43:52.53	71.48	14.41	-51.8	-54.1	14.5	0.00e+00	0	24	0	253755392	70	4533
2026-01-08 06:43:53.54	71.34	14.49	-51.8	-54.1	14.5	0.00e+00	0	24	0	255852544	70	4528
2026-01-08 06:43:54.54	71.21	14.57	-51.6	-53.8	14.5	0.00e+00	0	24	0	257949696	69	4622
2026-01-08 06:43:55.53	71.07	14.65	-51.6	-53.8	14.5	0.00e+00	0	24	0	260046848	69	4610
2026-01-08 06:43:56.53	70.94	14.73	-51.7	-54.0	14.4	0.00e+00	0	24	0	261095424	69	4728
2026-01-08 06:43:57.54	70.80	14.81	-51.6	-53.8	14.6	0.00e+00	0	24	0	263192576	69	4625
2026-01-08 06:43:58.53	70.66	14.89	-51.7	-53.9	14.5	0.00e+00	0	24	0	265289728	69	4697
2026-01-08 06:43:59.54	70.52	14.97	-51.7	-54.0	14.5	0.00e+00	0	24	0	267386880	69	4717
2026-01-08 06:44:00.54	70.38	15.05	-51.6	-53.8	14.5	0.00e+00	0	24	0	268435456	69	4649
2026-01-08 06:44:01.54	70.24	15.14	-51.7	-54.0	14.5	0.00e+00	0	25	0	270532608	69	4716
2026-01-08 06:44:02.55	70.10	15.22	-51.6	-53.9	14.5	0.00e+00	0	24	0	272629760	69	4655
2026-01-08 06:44:03.55	69.96	15.30	-51.7	-54.0	14.4	0.00e+00	0	24	0	274726912	69	4719
2026-01-08 06:44:04.54	69.82	15.38	-51.8	-54.1	14.4	0.00e+00	0	24	0	276824064	69	4782
2026-01-08 06:44:05.54	69.68	15.46	-51.7	-54.0	14.4	0.00e+00	0	24	0	277872640	69	4737
2026-01-08 06:44:06.54	69.53	15.54	-51.8	-54.0	14.4	0.00e+00	0	24	0	279969792	69	4754
2026-01-08 06:44:07.54	69.39	15.62	-51.8	-54.1	14.4	0.00e+00	0	24	0	282066944	69	4781
2026-01-08 06:44:08.54	69.24	15.70	-51.9	-54.2	14.4	0.00e+00	0	24	0	284164096	69	4842
2026-01-08 06:44:09.52	69.10	15.78	-51.7	-53.9	14.5	0.00e+00	0	24	0	286261248	69	4673
2026-01-08 06:44:10.52	68.95	15.86	-51.7	-53.9	14.5	0.00e+00	0	24	0	287309824	69	4677
2026-01-08 06:44:11.51	68.81	15.94	-51.8	-54.1	14.4	0.00e+00	0	24	0	289406976	69	4766
2026-01-08 06:44:12.51	68.66	16.03	-51.8	-54.0	14.5	0.00e+00	0	24	0	291504128	69	4729
2026-01-08 06:44:13.50	68.51	16.11	-51.6	-53.8	14.5	0.00e+00	0	24	0	293601280	69	4639
2026-01-08 06:44:14.50	68.36	16.19	-51.5	-53.6	14.6	0.00e+00	0	24	0	294649856	69	4544
2026-01-08 06:44:15.49	68.21	16.27	-51.7	-53.9	14.5	0.00e+00	0	25	0	296747008	69	4670
2026-01-08 06:44:16.49	68.06	16.35	-51.7	-54.0	14.5	0.00e+00	0	24	0	298844160	69	4712
2026-01-08 06:44:17.49	67.90	16.43	-51.6	-53.9	14.5	0.00e+00	0	24	0	300941312	69	4665
2026-01-08 06:44:18.49	67.75	16.51	-51.5	-53.7	14.6	0.00e+00	0	24	0	303038464	69	4564
2026-01-08 06:44:19.49	67.60	16.60	-51.6	-53.8	14.5	0.00e+00	0	24	0	304087040	69	4644
2026-01-08 06:44:20.48	67.44	16.68	-51.6	-53.9	14.5	0.00e+00	0	24	0	306184192	69	4654
2026-01-08 06:44:21.47	67.29	16.76	-51.5	-53.8	14.6	0.00e+00	0	24	0	308281344	69	4641
2026-01-08 06:44:22.47	67.13	16.84	-51.7	-54.0	14.5	0.00e+00	0	25	0	310378496	69	4735
2026-01-08 06:44:23.47	66.97	16.92	-51.7	-54.1	14.4	0.00e+00	0	24	0	311427072	69	4808
2026-01-08 06:44:24.46	66.81	17.01	-51.6	-54.0	14.5	0.00e+00	0	24	0	313524224	69	4713
2026-01-08 06:44:25.47	66.65	17.09	-51.6	-53.9	14.5	0.00e+00	0	24	0	315621376	69	4689
2026-01-08 06:44:26.46	66.49	17.17	-51.7	-54.1	14.4	0.00e+00	0	24	0	317718528	69	4790
2026-01-08 06:44:27.46	66.33	17.25	-51.7	-54.2	14.4	0.00e+00	0	24	0	319815680	69	4830
2026-01-08 06:44:28.46	66.17	17.34	-51.8	-54.3	14.3	0.00e+00	0	24	0	320864256	69	4891
2026-01-08 06:44:29.46	66.01	17.42	-52.0	-54.5	14.2	0.00e+00	0	24	0	322961408	69	5006
2026-01-08 06:44:30.46	65.84	17.50	-51.8	-54.2	14.4	0.00e+00	0	24	0	325058560	69	4862
2026-01-08 06:44:31.46	65.68	17.58	-51.9	-54.3	14.3	0.00e+00	0	24	0	327155712	69	4907
2026-01-08 06:44:32.45	65.51	17.66	-52.1	-54.6	14.2	0.00e+00	0	24	0	328204288	69	5073
2026-01-08 06:44:33.45	65.35	17.75	-52.1	-54.6	14.1	0.00e+00	0	24	0	330301440	69	5095
2026-01-08 06:44:34.46	65.18	17.83	-52.2	-54.8	14.1	0.00e+00	0	24	0	332398592	69	5162
2026-01-08 06:44:35.45	65.01	17.91	-52.3	-55.0	14.0	0.00e+00	0	24	0	334495744	69	5320
2026-01-08 06:44:36.44	64.84	17.99	-52.3	-54.9	14.0	0.00e+00	0	24	0	336592896	69	5253
2026-01-08 06:44:37.44	64.67	18.08	-52.2	-54.8	14.1	0.00e+00	0	24	0	337641472	69	5163
2026-01-08 06:44:38.44	64.50	18.16	-52.3	-54.9	14.0	0.00e+00	0	24	0	339738624	69	5227
2026-01-08 06:44:39.44	64.33	18.24	-52.1	-54.5	14.2	0.00e+00	0	24	0	341835776	69	5020
2026-01-08 06:44:40.44	64.15	18.33	-52.1	-54.6	14.2	0.00e+00	0	24	0	343932928	69	5052
2026-01-08 06:44:41.44	63.98	18.41	-52.1	-54.6	14.1	0.00e+00	0	24	0	346030080	69	5083
2026-01-08 06:44:42.44	63.80	18.49	-52.0	-54.4	14.3	0.00e+00	0	24	0	347078656	69	4941
2026-01-08 06:44:43.44	63.63	18.57	-52.1	-54.6	14.2	0.00e+00	0	24	0	349175808	69	5058
2026-01-08 06:44:44.44	63.45	18.66	-52.3	-54.8	14.1	0.00e+00	0	25	0	351272960	69	5172
2026-01-08 06:44:45.44	63.27	18.74	-52.0	-54.5	14.2	0.00e+00	0	24	0	353370112	69	5007
2026-01-08 06:44:46.43	63.09	18.82	-52.0	-54.4	14.2	0.00e+00	0	24	0	355467264	69	4982
2026-01-08 06:44:47.43	62.91	18.90	-51.8	-54.2	14.4	0.00e+00	0	24	0	356515840	69	4849
2026-01-08 06:44:48.43	62.73	18.99	-51.8	-54.2	14.4	0.00e+00	0	24	0	358612992	69	4846
2026-01-08 06:44:49.42	62.55	19.07	-51.7	-54.0	14.4	0.00e+00	0	24	0	360710144	69	4756
2026-01-08 06:44:50.42	62.37	19.15	-51.6	-53.9	14.5	0.00e+00	0	25	0	362807296	69	4687
2026-01-08 06:44:51.43	62.18	19.23	-51.7	-54.1	14.4	0.00e+00	0	25	0	363855872	69	4780
2026-01-08 06:44:52.42	62.00	19.32	-51.8	-54.3	14.3	0.00e+00	0	24	0	365953024	69	4889
2026-01-08 06:44:53.42	61.81	19.40	-52.0	-54.5	14.2	0.00e+00	0	24	0	368050176	69	5026
2026-01-08 06:44:54.43	61.62	19.48	-52.0	-54.6	14.2	0.00e+00	0	24	0	370147328	69	5063
2026-01-08 06:44:55.43	61.43	19.56	-52.2	-54.7	14.1	0.00e+00	0	24	0	372244480	69	5135
2026-01-08 06:44:56.44	61.24	19.65	-52.3	-54.8	14.1	0.00e+00	0	24	0	373293056	69	5193
2026-01-08 06:44:57.44	61.05	19.73	-52.3	-54.9	14.0	0.00e+00	0	24	0	375390208	69	5229
2026-01-08 06:44:58.44	60.86	19.81	-52.2	-54.7	14.1	0.00e+00	0	25	0	377487360	69	5132
2026-01-08 06:44:59.43	60.67	19.89	-52.0	-54.4	14.3	0.00e+00	0	24	0	379584512	69	4945
2026-01-08 06:45:00.43	60.47	19.98	-51.9	-54.3	14.4	0.00e+00	0	24	0	381681664	69	4878
2026-01-08 06:45:01.42	60.28	20.06	-51.9	-54.2	14.4	0.00e+00	0	25	0	382730240	69	4843
2026-01-08 06:45:02.43	60.08	20.14	-51.7	-53.9	14.6	0.00e+00	0	24	0	384827392	69	4683
2026-01-08 06:45:03.42	59.89	20.22	-51.6	-53.8	14.6	0.00e+00	0	25	0	386924544	69	4631
2026-01-08 06:45:04.42	59.69	20.30	-51.7	-53.9	14.5	0.00e+00	0	25	0	389021696	69	4677
2026-01-08 06:45:05.42	59.49	20.38	-51.4	-53.5	14.7	0.00e+00	0	25	0	390070272	69	4472
2026-01-08 06:45:06.41	59.29	20.46	-51.5	-53.7	14.7	0.00e+00	0	24	0	392167424	69	4553
2026-01-08 06:45:07.41	59.09	20.55	-51.5	-53.6	14.7	0.00e+00	0	24	0	394264576	69	4533
2026-01-08 06:45:08.41	58.89	20.63	-51.8	-54.0	14.5	0.00e+00	0	25	0	396361728	69	4743
2026-01-08 06:45:09.41	58.69	20.71	-51.9	-54.3	14.3	0.00e+00	0	24	0	398458880	69	4882
2026-01-08 06:45:10.41	58.48	20.79	-51.9	-54.3	14.4	0.00e+00	0	24	0	399507456	69	4878
2026-01-08 06:45:11.41	58.28	20.87	-52.0	-54.4	14.3	0.00e+00	0	25	0	401604608	69	4934
2026-01-08 06:45:12.40	58.07	20.95	-52.0	-54.3	14.4	0.00e+00	0	24	0	403701760	69	4900
2026-01-08 06:45:13.40	57.86	21.03	-52.0	-54.3	14.3	0.00e+00	0	24	0	405798912	69	4902
2026-01-08 06:45:14.39	57.66	21.11	-52.1	-54.5	14.3	0.00e+00	0	24	0	407896064	69	4986
2026-01-08 06:45:15.39	57.45	21.19	-51.8	-54.2	14.4	0.00e+00	0	25	0	408944640	69	4823
2026-01-08 06:45:16.39	57.24	21.27	-51.8	-54.0	14.5	0.00e+00	0	24	0	411041792	69	4731
2026-01-08 06:45:17.38	57.03	21.35	-51.3	-53.3	14.8	0.00e+00	0	24	0	413138944	69	4375
2026-01-08 06:45:18.38	56.81	21.43	-50.9	-52.9	14.9	0.00e+00	0	24	0	415236096	68	4419
2026-01-08 06:45:19.38	56.60	21.51	-50.7	-52.6	15.0	0.00e+00	0	24	0	416284672	68	4264
2026-01-08 06:45:20.38	56.38	21.59	-50.5	-52.4	14.9	0.00e+00	0	24	0	418381824	67	4416
2026-01-08 06:45:21.38	56.17	21.67	-50.6	-52.5	14.8	0.00e+00	0	24	0	420478976	67	4493
2026-01-08 06:45:22.38	55.95	21.75	-50.6	-52.7	14.8	0.00e+00	0	25	0	422576128	67	4549
2026-01-08 06:45:23.37	55.73	21.83	-50.7	-52.7	14.7	0.00e+00	0	24	0	424673280	67	4588
2026-01-08 06:45:24.37	55.51	21.90	-50.8	-52.9	14.7	0.00e+00	0	25	0	425721856	67	4695
2026-01-08 06:45:25.37	55.29	21.98	-50.8	-52.9	14.7	0.00e+00	0	25	0	427819008	67	4700
2026-01-08 06:45:26.37	55.07	22.06	-50.8	-52.9	14.7	0.00e+00	0	24	0	429916160	67	4696
2026-01-08 06:45:27.37	54.85	22.14	-50.8	-52.9	14.7	0.00e+00	0	24	0	432013312	67	4686
2026-01-08 06:45:28.38	54.62	22.22	-50.8	-52.9	14.7	0.00e+00	0	24	0	434110464	67	4668
2026-01-08 06:45:29.39	54.39	22.30	-50.8	-52.8	14.7	0.00e+00	0	24	0	435159040	67	4607
2026-01-08 06:45:30.38	54.17	22.37	-50.6	-52.6	14.8	0.00e+00	0	24	0	437256192	67	4526
2026-01-08 06:45:31.38	53.94	22.45	-50.4	-52.4	14.9	0.00e+00	0	25	0	439353344	67	4398
2026-01-08 06:45:32.38	53.71	22.53	-50.3	-52.2	15.0	0.00e+00	0	24	0	441450496	67	4312
2026-01-08 06:45:33.38	53.48	22.60	-50.2	-52.0	15.1	0.00e+00	0	24	0	442499072	67	4200
2026-01-08 06:45:34.38	53.25	22.68	-50.0	-51.8	15.0	0.00e+00	0	24	0	444596224	66	4349
2026-01-08 06:45:35.39	53.01	22.76	-50.1	-51.9	15.0	0.00e+00	0	24	0	446693376	66	4398
2026-01-08 06:45:36.38	52.78	22.83	-50.2	-52.0	14.9	0.00e+00	0	24	0	448790528	66	4490
2026-01-08 06:45:37.38	52.55	22.91	-50.4	-52.3	14.8	0.00e+00	0	24	0	450887680	66	4637
2026-01-08 06:45:38.38	52.31	22.98	-50.5	-52.4	14.8	0.00e+00	0	24	0	451936256	66	4676
2026-01-08 06:45:39.38	52.07	23.06	-50.6	-52.5	14.7	0.00e+00	0	24	0	454033408	66	4756
2026-01-08 06:45:40.38	51.84	23.13	-50.3	-52.1	14.9	0.00e+00	0	24	0	456130560	66	4507
2026-01-08 06:45:41.37	51.60	23.20	-50.3	-52.1	14.9	0.00e+00	0	24	0	458227712	66	4511
2026-01-08 06:45:42.37	51.36	23.28	-50.0	-51.8	15.0	0.00e+00	0	24	0	460324864	66	4366
2026-01-08 06:45:43.37	51.12	23.35	-50.0	-51.8	15.0	0.00e+00	0	24	0	461373440	66	4343
2026-01-08 06:45:44.37	50.88	23.42	-49.8	-51.5	15.1	0.00e+00	0	24	0	463470592	66	4199
2026-01-08 06:45:45.37	50.63	23.50	-49.6	-51.4	15.0	0.00e+00	0	24	0	465567744	65	4397
2026-01-08 06:45:46.37	50.39	23.57	-49.7	-51.5	15.0	0.00e+00	0	24	0	467664896	65	4465
2026-01-08 06:45:47.37	50.14	23.64	-49.9	-51.7	14.9	0.00e+00	0	25	0	469762048	65	4552
2026-01-08 06:45:48.37	49.89	23.71	-50.1	-51.9	14.8	0.00e+00	0	24	0	470810624	65	4691
2026-01-08 06:45:49.37	49.64	23.79	-50.2	-52.0	14.8	0.00e+00	0	25	0	472907776	65	4742
2026-01-08 06:45:50.38	49.39	23.86	-50.1	-51.9	14.8	0.00e+00	0	24	0	475004928	65	4703
2026-01-08 06:45:51.37	49.14	23.93	-49.9	-51.6	14.9	0.00e+00	0	24	0	477102080	65	4543
2026-01-08 06:45:52.37	48.89	24.00	-49.9	-51.6	15.0	0.00e+00	0	24	0	478150656	65	4529
2026-01-08 06:45:53.38	48.64	24.07	-50.0	-51.8	14.9	0.00e+00	0	24	0	480247808	65	4622
2026-01-08 06:45:54.38	48.38	24.14	-50.1	-51.9	14.8	0.00e+00	0	25	0	482344960	65	4676
2026-01-08 06:45:55.39	48.13	24.21	-50.2	-52.0	14.8	0.00e+00	0	24	0	484442112	65	4713
2026-01-08 06:45:56.38	47.87	24.27	-50.3	-52.1	14.7	0.00e+00	0	25	0	486539264	65	4811
2026-01-08 06:45:57.38	47.61	24.34	-50.3	-52.1	14.7	0.00e+00	0	24	0	487587840	65	4787
2026-01-08 06:45:58.38	47.36	24.41	-50.7	-52.6	14.7	0.00e+00	0	24	0	489684992	66	4786
2026-01-08 06:45:59.38	47.10	24.48	-51.0	-52.9	14.5	0.00e+00	0	25	0	491782144	67	4702
2026-01-08 06:46:00.38	46.83	24.54	-51.0	-53.0	14.6	0.00e+00	0	24	0	493879296	67	4753
2026-01-08 06:46:01.38	46.57	24.61	-50.9	-52.9	14.7	0.00e+00	0	24	0	495976448	67	4665
2026-01-08 06:46:02.38	46.31	24.67	-50.7	-52.6	14.9	0.00e+00	0	25	0	497025024	67	4506
2026-01-08 06:46:03.37	46.05	24.74	-50.6	-52.5	14.9	0.00e+00	0	24	0	499122176	67	4461
2026-01-08 06:46:04.37	45.78	24.80	-50.8	-52.7	14.8	0.00e+00	0	24	0	501219328	67	4568
2026-01-08 06:46:05.37	45.52	24.87	-50.8	-52.7	14.8	0.00e+00	0	24	0	503316480	67	4592
2026-01-08 06:46:06.37	45.25	24.93	-50.7	-52.6	14.8	0.00e+00	0	24	0	504365056	67	4532
2026-01-08 06:46:07.37	44.98	24.99	-50.6	-52.5	14.8	0.00e+00	0	24	0	506462208	67	4471
2026-01-08 06:46:08.37	44.71	25.06	-50.6	-52.5	14.9	0.00e+00	0	24	0	508559360	67	4477
2026-01-08 06:46:09.36	44.44	25.12	-50.4	-52.2	15.0	0.00e+00	0	25	0	510656512	67	4319
2026-01-08 06:46:10.35	44.17	25.18	-50.4	-52.3	15.0	0.00e+00	0	24	0	512753664	67	4364
2026-01-08 06:46:11.35	43.90	25.24	-50.6	-52.5	14.9	0.00e+00	0	24	0	513802240	67	4466
2026-01-08 06:46:12.34	43.63	25.30	-50.6	-52.4	14.9	0.00e+00	0	24	0	515899392	67	4425
2026-01-08 06:46:13.33	43.36	25.36	-50.2	-52.0	15.1	0.00e+00	0	24	0	517996544	67	4210
2026-01-08 06:46:14.32	43.09	25.42	-50.1	-51.9	15.1	0.00e+00	0	25	0	520093696	66	4393
2026-01-08 06:46:15.32	42.81	25.47	-49.8	-51.5	15.2	0.00e+00	0	24	0	521142272	66	4240
2026-01-08 06:46:16.32	42.53	25.53	-49.7	-51.4	15.2	0.00e+00	0	24	0	523239424	66	4175
2026-01-08 06:46:17.32	42.25	25.59	-49.6	-51.3	15.1	0.00e+00	0	24	0	525336576	65	4390
2026-01-08 06:46:18.32	41.97	25.65	-49.6	-51.3	15.1	0.00e+00	0	24	0	527433728	65	4368
2026-01-08 06:46:19.32	41.69	25.70	-49.5	-51.1	15.2	0.00e+00	0	25	0	529530880	65	4291
2026-01-08 06:46:20.31	41.41	25.76	-49.6	-51.3	15.1	0.00e+00	0	25	0	530579456	65	4358
2026-01-08 06:46:21.31	41.13	25.81	-49.8	-51.4	15.0	0.00e+00	0	24	0	532676608	65	4426
2026-01-08 06:46:22.31	40.84	25.86	-49.9	-51.6	15.0	0.00e+00	0	24	0	534773760	65	4523
2026-01-08 06:46:23.31	40.56	25.92	-50.1	-51.8	14.9	0.00e+00	0	24	0	536870912	65	4635
2026-01-08 06:46:24.31	40.27	25.97	-50.1	-51.9	14.9	0.00e+00	0	24	0	538968064	65	4659
2026-01-08 06:46:25.30	39.99	26.02	-50.1	-51.8	14.9	0.00e+00	0	25	0	540016640	65	4647
2026-01-08 06:46:26.30	39.70	26.07	-50.2	-52.0	14.8	0.00e+00	0	25	0	542113792	65	4721
2026-01-08 06:46:27.30	39.41	26.12	-50.3	-52.2	14.7	0.00e+00	0	24	0	544210944	65	4838
2026-01-08 06:46:28.29	39.13	26.17	-50.6	-52.4	14.7	0.00e+00	0	24	0	546308096	66	4691
2026-01-08 06:46:29.29	38.84	26.22	-50.7	-52.6	14.7	0.00e+00	0	24	0	547356672	66	4765
2026-01-08 06:46:30.30	38.54	26.27	-50.6	-52.5	14.8	0.00e+00	0	24	0	549453824	66	4714
2026-01-08 06:46:31.30	38.25	26.32	-50.6	-52.4	14.7	0.00e+00	0	25	0	551550976	66	4696
2026-01-08 06:46:32.30	37.96	26.37	-50.7	-52.6	14.7	0.00e+00	0	24	0	553648128	66	4772
2026-01-08 06:46:33.30	37.66	26.41	-51.0	-53.0	14.6	0.00e+00	0	24	0	555745280	67	4751
2026-01-08 06:46:34.31	37.37	26.46	-51.1	-53.1	14.5	0.00e+00	0	25	0	556793856	67	4798
2026-01-08 06:46:35.31	37.07	26.50	-51.1	-53.2	14.5	0.00e+00	0	24	0	558891008	67	4841
2026-01-08 06:46:36.30	36.78	26.55	-51.3	-53.4	14.5	0.00e+00	0	25	0	560988160	67	4931
2026-01-08 06:46:37.30	36.48	26.59	-51.6	-53.8	14.5	0.00e+00	0	25	0	563085312	68	4880
2026-01-08 06:46:38.29	36.18	26.63	-51.6	-53.7	14.5	0.00e+00	0	25	0	565182464	68	4826
2026-01-08 06:46:39.29	35.89	26.67	-51.9	-54.0	14.3	0.00e+00	0	24	0	566231040	68	5031
2026-01-08 06:46:40.29	35.59	26.71	-51.9	-54.1	14.5	0.00e+00	0	25	0	568328192	69	4778
2026-01-08 06:46:41.28	35.29	26.75	-51.7	-53.8	14.6	0.00e+00	0	24	0	570425344	69	4639
2026-01-08 06:46:42.28	34.99	26.79	-51.7	-53.7	14.6	0.00e+00	0	24	0	572522496	69	4596
2026-01-08 06:46:43.28	34.69	26.83	-51.4	-53.3	14.7	0.00e+00	0	25	0	573571072	69	4389
2026-01-08 06:46:44.28	34.38	26.87	-51.4	-53.3	14.8	0.00e+00	0	25	0	575668224	69	4378
2026-01-08 06:46:45.28	34.08	26.90	-51.4	-53.3	14.8	0.00e+00	0	25	0	577765376	69	4374
2026-01-08 06:46:46.28	33.78	26.94	-51.7	-53.7	14.7	0.00e+00	0	25	0	579862528	69	4571
2026-01-08 06:46:47.28	33.47	26.97	-51.8	-53.9	14.6	0.00e+00	0	25	0	581959680	69	4680
2026-01-08 06:46:48.29	33.16	27.01	-52.1	-54.3	14.3	0.00e+00	0	24	0	583008256	69	4924
2026-01-08 06:46:49.29	32.86	27.04	-52.3	-54.6	14.2	0.00e+00	0	24	0	585105408	69	5100
2026-01-08 06:46:50.29	32.55	27.07	-52.3	-54.7	14.1	0.00e+00	0	24	0	587202560	69	5116
2026-01-08 06:46:51.28	32.25	27.11	-52.5	-54.9	14.2	0.00e+00	0	25	0	589299712	70	4940
2026-01-08 06:46:52.28	31.94	27.14	-52.4	-54.9	14.1	0.00e+00	0	25	0	591396864	70	4932
2026-01-08 06:46:53.27	31.63	27.17	-52.3	-54.7	14.3	0.00e+00	0	25	0	592445440	70	4827
2026-01-08 06:46:54.27	31.32	27.19	-52.2	-54.5	14.2	0.00e+00	0	24	0	594542592	70	4758
2026-01-08 06:46:55.26	31.02	27.22	-52.1	-54.4	14.3	0.00e+00	0	24	0	596639744	70	4704
2026-01-08 06:46:56.25	30.71	27.25	-51.9	-54.1	14.6	0.00e+00	0	25	0	598736896	70	4504
2026-01-08 06:46:57.25	30.40	27.28	-51.8	-54.0	14.7	0.00e+00	0	25	0	599785472	70	4467
2026-01-08 06:46:58.25	30.09	27.30	-52.0	-54.4	14.5	0.00e+00	0	24	0	601882624	70	4664
2026-01-08 06:46:59.24	29.78	27.32	-51.8	-54.1	14.6	0.00e+00	0	24	0	603979776	70	4526
2026-01-08 06:47:00.23	29.47	27.35	-51.9	-54.2	14.5	0.00e+00	0	24	0	606076928	70	4597
2026-01-08 06:47:01.24	29.15	27.37	-52.0	-54.4	14.3	0.00e+00	0	25	0	608174080	70	4703
2026-01-08 06:47:02.24	28.84	27.39	-51.8	-54.1	14.5	0.00e+00	0	25	0	609222656	70	4540
2026-01-08 06:47:03.24	28.53	27.41	-51.6	-53.9	14.5	0.00e+00	0	25	0	611319808	69	4672
2026-01-08 06:47:04.23	28.22	27.43	-51.5	-53.7	14.6	0.00e+00	0	24	0	613416960	69	4598
2026-01-08 06:47:05.23	27.90	27.45	-51.6	-53.8	14.5	0.00e+00	0	25	0	615514112	69	4618
2026-01-08 06:47:06.22	27.59	27.47	-51.4	-53.6	14.6	0.00e+00	0	24	0	617611264	69	4524
2026-01-08 06:47:07.21	27.28	27.49	-51.6	-53.9	14.5	0.00e+00	0	25	0	618659840	69	4659
2026-01-08 06:47:08.21	26.97	27.50	-51.7	-54.1	14.4	0.00e+00	0	24	0	620756992	69	4775
2026-01-08 06:47:09.21	26.65	27.52	-51.9	-54.3	14.3	0.00e+00	0	25	0	622854144	69	4906
2026-01-08 06:47:10.20	26.34	27.53	-52.3	-54.9	14.0	0.00e+00	0	24	0	624951296	69	5234
2026-01-08 06:47:11.20	26.02	27.54	-52.5	-55.2	13.9	0.00e+00	0	25	0	625999872	70	5133
2026-01-08 06:47:12.19	25.71	27.55	-52.6	-55.3	13.9	0.00e+00	0	24	0	628097024	70	5186
2026-01-08 06:47:13.18	25.40	27.57	-52.6	-55.2	14.0	0.00e+00	0	24	0	630194176	70	5136
2026-01-08 06:47:14.18	25.08	27.58	-52.7	-55.4	13.9	0.00e+00	0	25	0	632291328	70	5256
2026-01-08 06:47:15.18	24.76	27.59	-52.6	-55.1	14.1	0.00e+00	0	24	0	634388480	70	5084
2026-01-08 06:47:16.17	24.45	27.59	-52.0	-54.3	14.5	0.00e+00	0	25	0	635437056	70	4636
2026-01-08 06:47:17.17	24.13	27.60	-51.6	-53.7	14.6	0.00e+00	0	25	0	637534208	69	4576
2026-01-08 06:47:18.17	23.81	27.61	-51.3	-53.3	14.8	0.00e+00	0	25	0	639631360	69	4378
2026-01-08 06:47:19.17	23.50	27.61	-51.2	-53.1	14.7	0.00e+00	0	25	0	641728512	68	4540
2026-01-08 06:47:20.16	23.18	27.62	-51.3	-53.4	14.6	0.00e+00	0	24	0	642777088	68	4662
2026-01-08 06:47:21.16	22.86	27.62	-51.6	-53.7	14.5	0.00e+00	0	25	0	644874240	68	4849
2026-01-08 06:47:22.16	22.55	27.62	-51.7	-53.8	14.3	0.00e+00	0	25	0	646971392	68	4913
2026-01-08 06:47:23.16	22.23	27.62	-51.8	-54.0	14.4	0.00e+00	0	25	0	649068544	69	4759
2026-01-08 06:47:24.15	21.91	27.62	-52.0	-54.3	14.4	0.00e+00	0	24	0	651165696	69	4878
2026-01-08 06:47:25.15	21.60	27.62	-52.1	-54.3	14.3	0.00e+00	0	25	0	652214272	69	4922
2026-01-08 06:47:26.15	21.28	27.62	-52.1	-54.4	14.2	0.00e+00	0	24	0	654311424	69	4976
2026-01-08 06:47:27.15	20.96	27.62	-52.1	-54.4	14.3	0.00e+00	0	24	0	656408576	69	4948
2026-01-08 06:47:28.14	20.65	27.62	-52.0	-54.2	14.4	0.00e+00	0	24	0	658505728	69	4826
2026-01-08 06:47:29.15	20.33	27.61	-51.6	-53.7	14.7	0.00e+00	0	24	0	659554304	69	4578
2026-01-08 06:47:30.14	20.01	27.61	-51.3	-53.3	14.8	0.00e+00	0	24	0	661651456	69	4366
2026-01-08 06:47:31.15	19.69	27.60	-51.3	-53.3	14.8	0.00e+00	0	25	0	663748608	69	4352
2026-01-08 06:47:32.14	19.38	27.59	-51.4	-53.4	14.8	0.00e+00	0	25	0	665845760	69	4395
2026-01-08 06:47:33.14	19.06	27.58	-51.7	-53.8	14.6	0.00e+00	0	24	0	667942912	69	4603
2026-01-08 06:47:34.15	18.74	27.58	-51.7	-53.8	14.6	0.00e+00	0	25	0	668991488	69	4626
2026-01-08 06:47:35.15	18.42	27.56	-51.9	-54.0	14.5	0.00e+00	0	24	0	671088640	69	4744
2026-01-08 06:47:36.15	18.11	27.55	-52.1	-54.4	14.3	0.00e+00	0	24	0	673185792	69	4939
2026-01-08 06:47:37.15	17.79	27.54	-52.0	-54.2	14.4	0.00e+00	0	25	0	675282944	69	4868
2026-01-08 06:47:38.14	17.48	27.53	-51.9	-54.1	14.5	0.00e+00	0	24	0	677380096	69	4793
2026-01-08 06:47:39.14	17.16	27.51	-51.6	-53.6	14.7	0.00e+00	0	25	0	678428672	69	4543
2026-01-08 06:47:40.15	16.85	27.50	-51.4	-53.4	14.8	0.00e+00	0	24	0	680525824	69	4437
2026-01-08 06:47:41.15	16.53	27.48	-51.0	-52.9	14.9	0.00e+00	0	24	0	682622976	68	4434
2026-01-08 06:47:42.14	16.22	27.47	-50.5	-52.3	15.0	0.00e+00	0	24	0	684720128	67	4348
2026-01-08 06:47:43.15	15.90	27.45	-50.5	-52.2	15.0	0.00e+00	0	25	0	685768704	67	4322
2026-01-08 06:47:44.15	15.59	27.43	-50.4	-52.1	15.1	0.00e+00	0	24	0	687865856	67	4263
2026-01-08 06:47:45.15	15.27	27.41	-50.4	-52.1	15.1	0.00e+00	0	25	0	689963008	67	4269
2026-01-08 06:47:46.14	14.96	27.39	-50.5	-52.3	15.0	0.00e+00	0	24	0	692060160	67	4350
2026-01-08 06:47:47.14	14.65	27.37	-50.5	-52.3	14.9	0.00e+00	0	25	0	694157312	67	4367
2026-01-08 06:47:48.13	14.34	27.34	-50.5	-52.2	15.0	0.00e+00	0	24	0	695205888	67	4330
2026-01-08 06:47:49.14	14.03	27.32	-50.8	-52.6	14.8	0.00e+00	0	25	0	697303040	67	4530
2026-01-08 06:47:50.13	13.72	27.30	-50.6	-52.4	14.9	0.00e+00	0	24	0	699400192	67	4394
2026-01-08 06:47:51.13	13.41	27.27	-50.4	-52.2	15.0	0.00e+00	0	24	0	701497344	67	4295
2026-01-08 06:47:52.14	13.09	27.24	-50.5	-52.3	15.0	0.00e+00	0	24	0	703594496	67	4381
2026-01-08 06:47:53.13	12.79	27.22	-50.5	-52.3	15.0	0.00e+00	0	24	0	704643072	67	4363
2026-01-08 06:47:54.13	12.48	27.19	-50.6	-52.4	14.9	0.00e+00	0	24	0	706740224	67	4424
2026-01-08 06:47:55.13	12.17	27.16	-51.1	-53.0	14.6	0.00e+00	0	24	0	708837376	67	4752
2026-01-08 06:47:56.12	11.86	27.13	-51.3	-53.3	14.5	0.00e+00	0	24	0	710934528	67	4916
2026-01-08 06:47:57.12	11.56	27.10	-51.3	-53.3	14.5	0.00e+00	0	25	0	713031680	67	4890
2026-01-08 06:47:58.12	11.25	27.07	-51.5	-53.5	14.6	0.00e+00	0	25	0	714080256	68	4726
2026-01-08 06:47:59.12	10.94	27.04	-51.4	-53.3	14.7	0.00e+00	0	24	0	716177408	68	4610
2026-01-08 06:48:00.11	10.64	27.00	-51.2	-53.1	14.8	0.00e+00	0	25	0	718274560	68	4499
2026-01-08 06:48:01.11	10.34	26.97	-51.3	-53.2	14.7	0.00e+00	0	24	0	720371712	68	4559
2026-01-08 06:48:02.11	10.03	26.93	-51.5	-53.5	14.6	0.00e+00	0	24	0	721420288	68	4721
2026-01-08 06:48:03.11	9.73	26.90	-51.7	-53.7	14.5	0.00e+00	0	25	0	723517440	68	4869
2026-01-08 06:48:04.11	9.42	26.86	-51.6	-53.5	14.6	0.00e+00	0	24	0	725614592	68	4754
2026-01-08 06:48:05.10	9.13	26.82	-51.6	-53.5	14.6	0.00e+00	0	25	0	727711744	68	4722
2026-01-08 06:48:06.10	8.82	26.79	-51.8	-53.8	14.4	0.00e+00	0	24	0	729808896	68	4908
2026-01-08 06:48:07.09	8.53	26.75	-51.9	-53.9	14.6	0.00e+00	0	25	0	730857472	69	4658
2026-01-08 06:48:08.09	8.23	26.71	-51.7	-53.7	14.7	0.00e+00	0	25	0	732954624	69	4556
2026-01-08 06:48:09.09	7.93	26.67	-51.4	-53.2	14.9	0.00e+00	0	25	0	735051776	69	4328
2026-01-08 06:48:10.09	7.63	26.63	-50.9	-52.7	15.0	0.00e+00	0	24	0	737148928	68	4307
2026-01-08 06:48:11.09	7.33	26.58	-50.9	-52.7	14.9	0.00e+00	0	25	0	738197504	68	4311
2026-01-08 06:48:12.08	7.04	26.54	-51.1	-52.8	14.9	0.00e+00	0	24	0	740294656	68	4390
2026-01-08 06:48:13.07	6.74	26.50	-51.4	-53.3	14.7	0.00e+00	0	25	0	742391808	68	4622
2026-01-08 06:48:14.06	6.45	26.45	-51.4	-53.3	14.7	0.00e+00	0	25	0	744488960	68	4641
2026-01-08 06:48:15.05	6.16	26.41	-51.1	-53.0	14.8	0.00e+00	0	25	0	746586112	68	4444
2026-01-08 06:48:16.04	5.87	26.36	-51.1	-52.9	14.8	0.00e+00	0	24	0	747634688	68	4414
2026-01-08 06:48:17.04	5.58	26.31	-51.2	-53.1	14.8	0.00e+00	0	24	0	749731840	68	4519
2026-01-08 06:48:18.03	5.29	26.27	-51.5	-53.5	14.6	0.00e+00	0	24	0	751828992	68	4735
2026-01-08 06:48:19.03	5.00	26.22	-51.6	-53.6	14.6	0.00e+00	0	25	0	753926144	68	4804
2026-01-08 06:48:20.03	4.71	26.17	-51.6	-53.6	14.5	0.00e+00	0	25	0	754974720	68	4810
2026-01-08 06:48:21.03	4.42	26.12	-51.8	-53.9	14.4	0.00e+00	0	25	0	757071872	68	4959
2026-01-08 06:48:22.03	4.13	26.07	-51.9	-54.0	14.5	0.00e+00	0	25	0	759169024	69	4714
2026-01-08 06:48:23.02	3.84	26.02	-52.1	-54.3	14.4	0.00e+00	0	25	0	761266176	69	4880
2026-01-08 06:48:24.01	3.56	25.97	-52.3	-54.6	14.3	0.00e+00	0	25	0	763363328	70	4790
2026-01-08 06:48:25.01	3.28	25.91	-52.6	-54.9	14.2	0.00e+00	0	25	0	764411904	70	4978
2026-01-08 06:48:26.00	2.99	25.86	-52.6	-54.9	14.2	0.00e+00	0	24	0	766509056	70	4977
2026-01-08 06:48:27.01	2.71	25.81	-52.7	-55.1	14.1	0.00e+00	0	25	0	768606208	70	5079
2026-01-08 06:48:28.01	2.42	25.75	-52.5	-54.9	14.1	0.00e+00	0	25	0	770703360	70	4970
2026-01-08 06:48:29.01	2.14	25.70	-52.5	-54.8	14.3	0.00e+00	0	25	0	772800512	70	4902
2026-01-08 06:48:30.01	1.86	25.64	-52.6	-55.0	14.1	0.00e+00	0	25	0	773849088	70	5027
2026-01-08 06:48:31.00	1.59	25.59	-52.7	-55.1	14.1	0.00e+00	0	24	0	775946240	70	5065
2026-01-08 06:48:32.01	1.30	25.53	-52.6	-55.0	14.1	0.00e+00	0	24	0	778043392	70	5011
2026-01-08 06:48:33.01	1.03	25.47	-52.5	-54.9	14.2	0.00e+00	0	25	0	780140544	70	4934
2026-01-08 06:48:34.00	0.75	25.41	-52.2	-54.4	14.4	0.00e+00	0	25	0	781189120	70	4687
2026-01-08 06:48:35.00	0.48	25.35	-51.9	-54.1	14.6	0.00e+00	0	25	0	783286272	70	4501
2026-01-08 06:48:36.00	0.20	25.29	-51.9	-54.0	14.6	0.00e+00	0	25	0	785383424	70	4464
2026-01-08 06:48:37.00	359.93	25.23	-52.0	-54.2	14.5	0.00e+00	0	25	0	787480576	70	4589
2026-01-08 06:48:38.00	359.66	25.17	-52.1	-54.3	14.4	0.00e+00	0	25	0	789577728	70	4643
2026-01-08 06:48:38.99	359.39	25.11	-51.8	-53.9	14.7	0.00e+00	0	25	0	790626304	70	4413
2026-01-08 06:48:39.98	359.12	25.05	-51.6	-53.7	14.6	0.00e+00	0	25	0	792723456	69	4590
2026-01-08 06:48:40.98	358.85	24.99	-51.7	-53.9	14.5	0.00e+00	0	25	0	794820608	69	4656
2026-01-08 06:48:41.97	358.59	24.93	-51.8	-54.1	14.4	0.00e+00	0	25	0	796917760	69	4763
2026-01-08 06:48:42.97	358.32	24.86	-51.8	-54.1	14.4	0.00e+00	0	25	0	799014912	69	4795
2026-01-08 06:48:43.97	358.05	24.80	-51.7	-53.9	14.5	0.00e+00	0	25	0	800063488	69	4687
2026-01-08 06:48:44.97	357.79	24.73	-51.4	-53.5	14.7	0.00e+00	0	24	0	802160640	69	4489
2026-01-08 06:48:45.97	357.53	24.67	-50.9	-52.8	14.9	0.00e+00	0	25	0	804257792	68	4382
2026-01-08 06:48:46.96	357.27	24.60	-50.4	-52.3	14.9	0.00e+00	0	24	0	806354944	67	4376
2026-01-08 06:48:47.96	357.00	24.54	-50.8	-52.8	14.8	0.00e+00	0	25	0	807403520	67	4607
2026-01-08 06:48:48.96	356.74	24.47	-51.2	-53.3	14.5	0.00e+00	0	24	0	809500672	67	4912
2026-01-08 06:48:49.96	356.49	24.40	-51.8	-54.1	14.3	0.00e+00	0	25	0	811597824	68	5042
2026-01-08 06:48:50.96	356.23	24.34	-52.1	-54.6	14.2	0.00e+00	0	25	0	813694976	69	5060
2026-01-08 06:48:51.95	355.97	24.27	-52.4	-54.9	14.1	0.00e+00	0	25	0	815792128	70	4968
2026-01-08 06:48:52.96	355.71	24.20	-52.3	-54.9	14.2	0.00e+00	0	24	0	816840704	70	4937
2026-01-08 06:48:53.96	355.46	24.13	-52.6	-55.3	13.9	0.00e+00	0	24	0	818937856	70	5198
2026-01-08 06:48:54.95	355.21	24.06	-52.4	-55.1	14.0	0.00e+00	0	24	0	821035008	70	5052
2026-01-08 06:48:55.96	354.95	23.99	-52.5	-55.2	14.0	0.00e+00	0	25	0	823132160	70	5128
2026-01-08 06:48:56.95	354.70	23.92	-52.2	-54.6	14.3	0.00e+00	0	24	0	824180736	70	4811
2026-01-08 06:48:57.96	354.45	23.85	-52.0	-54.4	14.4	0.00e+00	0	24	0	826277888	70	4696
2026-01-08 06:48:58.96	354.20	23.78	-51.8	-54.1	14.6	0.00e+00	0	25	0	828375040	70	4535
2026-01-08 06:48:59.97	353.95	23.71	-51.6	-53.8	14.6	0.00e+00	0	25	0	830472192	69	4618
2026-01-08 06:49:00.94	353.71	23.64	-51.5	-53.6	14.7	0.00e+00	0	25	0	832569344	69	4498
2026-01-08 06:49:01.94	353.47	23.57	-51.5	-53.7	14.6	0.00e+00	0	25	0	833617920	69	4553
2026-01-08 06:49:02.94	353.22	23.50	-51.6	-53.8	14.6	0.00e+00	0	25	0	835715072	69	4628
2026-01-08 06:49:03.93	352.98	23.42	-51.6	-53.8	14.6	0.00e+00	0	24	0	837812224	69	4639
2026-01-08 06:49:04.94	352.74	23.35	-51.6	-53.9	14.5	0.00e+00	0	25	0	839909376	69	4673
2026-01-08 06:49:05.94	352.50	23.28	-51.6	-53.8	14.5	0.00e+00	0	25	0	842006528	69	4633
2026-01-08 06:49:06.94	352.26	23.20	-51.7	-54.0	14.5	0.00e+00	0	25	0	843055104	69	4728
2026-01-08 06:49:07.94	352.02	23.13	-51.5	-53.7	14.6	0.00e+00	0	25	0	845152256	69	4552
2026-01-08 06:49:08.94	351.78	23.05	-51.3	-53.3	14.7	0.00e+00	0	24	0	847249408	68	4637
2026-01-08 06:49:09.94	351.54	22.98	-51.0	-53.0	14.8	0.00e+00	0	24	0	849346560	68	4464
2026-01-08 06:49:10.94	351.31	22.90	-50.9	-52.9	14.9	0.00e+00	0	25	0	850395136	68	4412
2026-01-08 06:49:11.93	351.08	22.83	-50.5	-52.3	14.9	0.00e+00	0	25	0	852492288	67	4365
2026-01-08 06:49:12.93	350.84	22.75	-50.6	-52.5	14.9	0.00e+00	0	25	0	854589440	67	4463
2026-01-08 06:49:13.94	350.61	22.68	-50.6	-52.5	14.9	0.00e+00	0	25	0	856686592	67	4480
2026-01-08 06:49:14.94	350.38	22.60	-50.7	-52.6	14.8	0.00e+00	0	24	0	858783744	67	4503
2026-01-08 06:49:15.93	350.15	22.53	-50.6	-52.5	14.8	0.00e+00	0	24	0	859832320	67	4453
2026-01-08 06:49:16.93	349.92	22.45	-50.6	-52.5	14.9	0.00e+00	0	24	0	861929472	67	4476
2026-01-08 06:49:17.92	349.70	22.37	-50.3	-52.1	15.1	0.00e+00	0	25	0	864026624	67	4254
2026-01-08 06:49:18.92	349.47	22.30	-50.3	-52.0	15.1	0.00e+00	0	25	0	866123776	67	4238
2026-01-08 06:49:19.91	349.25	22.22	-50.0	-51.7	15.0	0.00e+00	0	25	0	868220928	66	4340
2026-01-08 06:49:20.91	349.02	22.14	-50.1	-51.9	15.0	0.00e+00	0	25	0	869269504	66	4397
2026-01-08 06:49:21.91	348.80	22.06	-50.0	-51.7	15.0	0.00e+00	0	25	0	871366656	66	4338
2026-01-08 06:49:22.91	348.58	21.99	-49.8	-51.5	15.2	0.00e+00	0	25	0	873463808	66	4225
2026-01-08 06:49:23.90	348.36	21.91	-49.7	-51.4	15.2	0.00e+00	0	25	0	875560960	66	4182
2026-01-08 06:49:24.90	348.14	21.83	-49.6	-51.2	15.1	0.00e+00	0	25	0	876609536	65	4324
2026-01-08 06:49:25.90	347.92	21.75	-49.8	-51.6	15.0	0.00e+00	0	24	0	878706688	65	4498
2026-01-08 06:49:26.90	347.71	21.67	-50.0	-51.8	14.9	0.00e+00	0	24	0	880803840	65	4649
2026-01-08 06:49:27.90	347.49	21.59	-50.2	-52.1	14.7	0.00e+00	0	25	0	882900992	65	4782
2026-01-08 06:49:28.90	347.27	21.51	-50.4	-52.4	14.8	0.00e+00	0	24	0	884998144	66	4652
2026-01-08 06:49:29.89	347.06	21.43	-50.7	-52.7	14.6	0.00e+00	0	25	0	886046720	66	4837
2026-01-08 06:49:30.89	346.85	21.35	-50.9	-52.9	14.5	0.00e+00	0	24	0	888143872	66	4972
2026-01-08 06:49:31.88	346.64	21.28	-51.1	-53.2	14.6	0.00e+00	0	24	0	890241024	67	4849
2026-01-08 06:49:32.89	346.43	21.19	-51.2	-53.4	14.5	0.00e+00	0	24	0	892338176	67	4967
2026-01-08 06:49:33.89	346.22	21.11	-51.6	-53.9	14.4	0.00e+00	0	25	0	894435328	68	4937
2026-01-08 06:49:34.89	346.01	21.03	-51.6	-53.8	14.4	0.00e+00	0	24	0	895483904	68	4910
2026-01-08 06:49:35.90	345.80	20.95	-51.6	-53.8	14.5	0.00e+00	0	25	0	897581056	68	4884
2026-01-08 06:49:36.90	345.59	20.87	-51.0	-53.0	14.7	0.00e+00	0	24	0	899678208	68	4471
2026-01-08 06:49:37.90	345.39	20.79	-50.7	-52.7	14.9	1.50e-06	0	24	0	901775360	68	4320
2026-01-08 06:49:38.90	345.19	20.71	-50.6	-52.6	14.7	0.00e+00	0	24	0	902823936	67	4523
2026-01-08 06:49:39.90	344.98	20.63	-50.7	-52.7	14.7	0.00e+00	0	25	0	904921088	67	4580
2026-01-08 06:49:40.90	344.78	20.55	-50.9	-53.0	14.6	0.00e+00	0	25	0	907018240	67	4731
2026-01-08 06:49:41.90	344.58	20.47	-50.8	-52.8	14.7	0.00e+00	0	25	0	909115392	67	4624
2026-01-08 06:49:42.90	344.38	20.39	-50.6	-52.5	14.8	0.00e+00	0	25	0	911212544	67	4468
2026-01-08 06:49:43.90	344.18	20.30	-50.3	-52.2	15.0	0.00e+00	0	24	0	912261120	67	4303
2026-01-08 06:49:44.90	343.98	20.22	-49.7	-51.3	15.2	0.00e+00	0	25	0	914358272	66	4145
2026-01-08 06:49:45.90	343.79	20.14	-49.4	-51.0	15.2	0.00e+00	0	24	0	916455424	65	4205
2026-01-08 06:49:46.89	343.59	20.06	-49.2	-50.7	15.2	0.00e+00	0	25	0	918552576	64	4340
2026-01-08 06:49:47.89	343.40	19.98	-49.4	-50.9	15.1	0.00e+00	0	25	0	920649728	64	4441
2026-01-08 06:49:48.89	343.21	19.90	-49.2	-50.8	15.1	0.00e+00	0	24	0	921698304	64	4367
2026-01-08 06:49:49.89	343.01	19.81	-49.3	-50.9	15.1	0.00e+00	0	25	0	923795456	64	4405
2026-01-08 06:49:50.88	342.83	19.73	-49.5	-51.1	15.0	0.00e+00	0	24	0	925892608	64	4501
2026-01-08 06:49:51.88	342.64	19.65	-49.5	-51.1	15.0	0.00e+00	0	24	0	927989760	64	4498
2026-01-08 06:49:52.89	342.44	19.57	-49.6	-51.2	15.0	0.00e+00	0	24	0	929038336	64	4564
2026-01-08 06:49:53.88	342.26	19.49	-49.7	-51.4	14.9	0.00e+00	0	25	0	931135488	64	4660
2026-01-08 06:49:54.88	342.07	19.40	-49.9	-51.6	14.9	0.00e+00	0	25	0	933232640	65	4517
2026-01-08 06:49:55.89	341.88	19.32	-50.0	-51.7	14.9	0.00e+00	0	25	0	935329792	65	4562
2026-01-08 06:49:56.89	341.70	19.24	-50.0	-51.7	14.9	0.00e+00	0	25	0	937426944	65	4553
2026-01-08 06:49:57.90	341.51	19.16	-49.9	-51.6	14.9	0.00e+00	0	25	0	938475520	65	4523
2026-01-08 06:49:58.89	341.33	19.07	-49.9	-51.6	14.9	0.00e+00	0	25	0	940572672	65	4499
2026-01-08 06:49:59.89	341.15	18.99	-49.9	-51.6	14.9	0.00e+00	0	25	0	942669824	65	4499
2026-01-08 06:50:00.89	340.97	18.91	-49.9	-51.6	14.9	0.00e+00	0	25	0	944766976	65	4514
2026-01-08 06:50:01.90	340.79	18.83	-50.0	-51.7	14.9	0.00e+00	0	25	0	946864128	65	4560
2026-01-08 06:50:02.90	340.61	18.74	-50.1	-51.9	14.8	0.00e+00	0	24	0	947912704	65	4679
2026-01-08 06:50:03.90	340.43	18.66	-50.2	-52.0	14.7	0.00e+00	0	24	0	950009856	65	4746
2026-01-08 06:50:04.89	340.25	18.58	-50.5	-52.4	14.7	7.00e-07	0	25	0	952107008	66	4654
2026-01-08 06:50:05.89	340.08	18.50	-50.6	-52.4	14.8	0.00e+00	0	25	0	954204160	66	4701
2026-01-08 06:50:06.88	339.90	18.41	-50.6	-52.5	14.8	0.00e+00	0	25	0	956301312	66	4706
2026-01-08 06:50:07.88	339.73	18.33	-50.8	-52.6	14.7	0.00e+00	0	24	0	957349888	66	4786
2026-01-08 06:50:08.87	339.56	18.25	-50.4	-52.2	14.8	0.00e+00	0	25	0	959447040	66	4588
2026-01-08 06:50:09.87	339.39	18.17	-50.4	-52.2	14.9	0.00e+00	0	24	0	961544192	66	4570
2026-01-08 06:50:10.87	339.22	18.08	-50.2	-51.9	15.0	0.00e+00	0	25	0	963641344	66	4428
2026-01-08 06:50:11.87	339.04	18.00	-50.1	-51.8	15.0	0.00e+00	0	25	0	964689920	66	4363
2026-01-08 06:50:12.87	338.88	17.92	-49.8	-51.4	15.1	0.00e+00	0	24	0	966787072	66	4192
2026-01-08 06:50:13.87	338.71	17.84	-49.6	-51.2	15.1	0.00e+00	0	25	0	968884224	65	4313
2026-01-08 06:50:14.86	338.54	17.76	-49.8	-51.4	15.0	0.00e+00	0	25	0	970981376	65	4409
2026-01-08 06:50:15.86	338.37	17.67	-49.7	-51.3	15.1	0.00e+00	0	25	0	973078528	65	4352
2026-01-08 06:50:16.86	338.21	17.59	-49.9	-51.6	14.9	0.00e+00	0	25	0	974127104	65	4512
2026-01-08 06:50:17.86	338.04	17.51	-50.2	-51.9	14.8	0.00e+00	0	25	0	976224256	65	4690
2026-01-08 06:50:18.86	337.88	17.43	-50.5	-52.4	14.7	0.00e+00	0	25	0	978321408	66	4672
2026-01-08 06:50:19.86	337.72	17.34	-50.8	-52.7	14.7	0.00e+00	0	25	0	980418560	66	4824
2026-01-08 06:50:20.86	337.56	17.26	-51.1	-53.1	14.6	0.00e+00	0	25	0	982515712	67	4787
2026-01-08 06:50:21.86	337.39	17.18	-51.1	-53.0	14.6	0.00e+00	0	24	0	983564288	67	4742
2026-01-08 06:50:22.86	337.23	17.10	-51.0	-53.0	14.6	0.00e+00	0	25	0	985661440	67	4717
2026-01-08 06:50:23.86	337.07	17.01	-51.1	-53.0	14.6	0.00e+00	0	25	0	987758592	67	4729
2026-01-08 06:50:24.85	336.92	16.93	-50.9	-52.8	14.7	0.00e+00	0	24	0	989855744	67	4615
2026-01-08 06:50:25.81	336.77	16.85	-50.6	-52.5	14.9	0.00e+00	0	25	0	990904320	67	4444
2026-01-08 06:50:26.81	336.61	16.77	-50.4	-52.1	15.0	0.00e+00	0	25	0	993001472	67	4284
2026-01-08 06:50:27.81	336.45	16.69	-50.4	-52.2	15.0	0.00e+00	0	25	0	995098624	67	4299
2026-01-08 06:50:28.80	336.30	16.61	-50.5	-52.3	14.9	0.00e+00	0	25	0	997195776	67	4364
2026-01-08 06:50:29.80	336.15	16.53	-50.5	-52.3	14.9	0.00e+00	0	24	0	999292928	67	4372
2026-01-08 06:50:30.81	335.99	16.44	-50.5	-52.3	14.9	0.00e+00	0	24	0	1000341504	67	4378
2026-01-08 06:50:31.81	335.84	16.36	-50.6	-52.4	14.9	0.00e+00	0	25	0	1002438656	67	4408
2026-01-08 06:50:32.81	335.69	16.28	-50.8	-52.6	14.8	0.00e+00	0	24	0	1004535808	67	4518
2026-01-08 06:50:33.80	335.54	16.20	-50.9	-52.8	14.7	0.00e+00	0	25	0	1006632960	67	4618
2026-01-08 06:50:34.79	335.39	16.12	-51.2	-53.1	14.5	0.00e+00	0	25	0	1008730112	67	4794
2026-01-08 06:50:35.79	335.24	16.04	-51.3	-53.3	14.4	0.00e+00	0	25	0	1009778688	67	4917
2026-01-08 06:50:36.79	335.09	15.96	-51.6	-53.6	14.5	0.00e+00	0	25	0	1011875840	68	4814
2026-01-08 06:50:37.78	334.95	15.88	-51.9	-54.1	14.4	0.00e+00	0	24	0	1013972992	69	4776
2026-01-08 06:50:38.78	334.80	15.79	-51.8	-53.9	14.4	0.00e+00	0	25	0	1016070144	69	4689
2026-01-08 06:50:39.78	334.65	15.71	-51.9	-54.0	14.4	0.00e+00	0	25	0	1017118720	69	4721
2026-01-08 06:50:40.78	334.51	15.63	-51.6	-53.6	14.6	0.00e+00	0	25	0	1019215872	69	4521
2026-01-08 06:50:41.78	334.36	15.55	-51.4	-53.3	14.8	0.00e+00	0	25	0	1021313024	69	4360
2026-01-08 06:50:42.78	334.22	15.47	-50.9	-52.8	14.9	0.00e+00	0	25	0	1023410176	68	4354
2026-01-08 06:50:43.78	334.08	15.39	-51.0	-52.8	14.9	0.00e+00	0	25	0	1025507328	68	4355
2026-01-08 06:50:44.78	333.94	15.31	-51.0	-52.8	14.9	0.00e+00	0	24	0	1026555904	68	4352
2026-01-08 06:50:45.78	333.80	15.23	-50.9	-52.8	14.9	0.00e+00	0	25	0	1028653056	68	4349
2026-01-08 06:50:46.77	333.66	15.15	-51.1	-53.0	14.8	0.00e+00	0	25	0	1030750208	68	4469
2026-01-08 06:50:47.76	333.52	15.07	-51.2	-53.1	14.7	0.00e+00	0	24	0	1032847360	68	4521
2026-01-08 06:50:48.76	333.38	14.99	-51.4	-53.4	14.6	0.00e+00	0	25	0	1033895936	68	4697
2026-01-08 06:50:49.76	333.24	14.91	-51.5	-53.5	14.5	0.00e+00	0	25	0	1035993088	68	4755
2026-01-08 06:50:50.76	333.10	14.83	-51.7	-53.7	14.4	0.00e+00	0	25	0	1038090240	68	4853
2026-01-08 06:50:51.75	332.97	14.75	-51.4	-53.4	14.6	0.00e+00	0	25	0	1040187392	68	4686
2026-01-08 06:50:52.75	332.83	14.67	-51.4	-53.3	14.6	0.00e+00	0	25	0	1042284544	68	4637
2026-01-08 06:50:53.75	332.70	14.59	-51.3	-53.2	14.7	0.00e+00	0	25	0	1043333120	68	4571
2026-01-08 06:50:54.75	332.56	14.51	-51.1	-53.0	14.7	0.00e+00	0	25	0	1045430272	68	4487
2026-01-08 06:50:55.75	332.43	14.43	-51.0	-52.9	14.8	0.00e+00	0	25	0	1047527424	68	4413
2026-01-08 06:50:56.75	332.30	14.35	-50.9	-52.8	14.9	0.00e+00	0	24	0	1049624576	68	4350
2026-01-08 06:50:57.75	332.17	14.27	-50.9	-52.7	14.9	0.00e+00	0	25	0	1051721728	68	4339
2026-01-08 06:50:58.75	332.03	14.19	-50.5	-52.3	14.9	0.00e+00	0	24	0	1052770304	67	4370
2026-01-08 06:50:59.75	331.90	14.11	-50.7	-52.6	14.7	0.00e+00	0	25	0	1054867456	67	4506
2026-01-08 06:51:00.74	331.77	14.03	-50.7	-52.5	14.8	0.00e+00	0	25	0	1056964608	67	4490
2026-01-08 06:51:01.74	331.65	13.95	-50.6	-52.5	14.8	0.00e+00	0	25	0	1059061760	67	4446
2026-01-08 06:51:02.75	331.52	13.87	-50.8	-52.7	14.7	0.00e+00	0	25	0	1060110336	67	4547
2026-01-08 06:51:03.74	331.39	13.79	-50.7	-52.6	14.8	0.00e+00	0	25	0	1062207488	67	4519
2026-01-08 06:51:04.74	331.26	13.72	-50.7	-52.6	14.8	0.00e+00	0	25	0	1064304640	67	4515
2026-01-08 06:51:05.72	331.14	13.64	-50.7	-52.6	14.8	0.00e+00	0	25	0	1066401792	67	4524
2026-01-08 06:51:06.73	331.01	13.56	-51.1	-53.0	14.5	0.00e+00	0	25	0	1068498944	67	4749
2026-01-08 06:51:07.73	330.89	13.48	-50.9	-52.8	14.6	0.00e+00	0	25	0	1069547520	67	4645
2026-01-08 06:51:08.72	330.76	13.40	-51.2	-53.2	14.5	0.00e+00	0	25	0	1071644672	67	4827
2026-01-08 06:51:09.71	330.64	13.33	-51.5	-53.5	14.5	0.00e+00	0	25	0	1073741824	68	4734
2026-01-08 06:51:10.70	330.52	13.25	-51.6	-53.6	14.4	0.00e+00	0	25	0	1075838976	68	4799
2026-01-08 06:51:11.69	330.40	13.17	-51.7	-53.8	14.4	0.00e+00	0	25	0	1076887552	68	4908
2026-01-08 06:51:12.69	330.28	13.09	-51.7	-53.8	14.3	0.00e+00	0	25	0	1078984704	68	4924
2026-01-08 06:51:13.69	330.15	13.02	-51.6	-53.7	14.3	0.00e+00	0	25	0	1081081856	68	4856
2026-01-08 06:51:14.68	330.04	12.94	-51.6	-53.7	14.4	0.00e+00	0	25	0	1083179008	68	4829
2026-01-08 06:51:15.67	329.92	12.86	-51.7	-53.8	14.3	0.00e+00	0	25	0	1085276160	68	4898
2026-01-08 06:51:16.67	329.80	12.79	-51.6	-53.6	14.4	0.00e+00	0	25	0	1086324736	68	4792
2026-01-08 06:51:17.66	329.68	12.71	-51.6	-53.6	14.4	0.00e+00	0	25	0	1088421888	68	4798
2026-01-08 06:51:18.65	329.56	12.63	-51.6	-53.7	14.4	0.00e+00	0	25	0	1090519040	68	4829
2026-01-08 06:51:19.64	329.45	12.56	-51.6	-53.7	14.4	0.00e+00	0	25	0	1092616192	68	4848
2026-01-08 06:51:20.63	329.33	12.48	-51.8	-54.0	14.3	0.00e+00	0	25	0	1093664768	68	4996
2026-01-08 06:51:21.63	329.22	12.40	-52.0	-54.2	14.3	0.00e+00	0	25	0	1095761920	69	4835
2026-01-08 06:51:22.63	329.10	12.33	-52.1	-54.4	14.2	0.00e+00	0	25	0	1097859072	69	4937
2026-01-08 06:51:23.63	328.99	12.25	-52.4	-54.7	14.0	0.00e+00	0	25	0	1099956224	69	5146
2026-01-08 06:51:24.62	328.87	12.17	-52.5	-55.0	14.0	0.00e+00	0	25	0	1102053376	70	4996
2026-01-08 06:51:25.62	328.76	12.10	-52.8	-55.4	13.7	0.00e+00	0	25	0	1103101952	70	5252
2026-01-08 06:51:26.61	328.65	12.02	-52.8	-55.4	13.8	0.00e+00	0	25	0	1105199104	70	5227
2026-01-08 06:51:27.61	328.53	11.95	-53.0	-55.7	13.8	0.00e+00	0	25	0	1107296256	71	5140
2026-01-08 06:51:28.60	328.42	11.87	-52.8	-55.4	13.9	0.00e+00	0	25	0	1109393408	71	4943
2026-01-08 06:51:29.61	328.31	11.80	-52.7	-55.2	14.0	0.00e+00	0	25	0	1110441984	71	4819
2026-01-08 06:51:30.60	328.20	11.72	-52.5	-54.9	14.2	0.00e+00	0	25	0	1112539136	71	4677
2026-01-08 06:51:31.60	328.09	11.64	-52.2	-54.4	14.4	0.00e+00	0	25	0	1114636288	71	4432
2026-01-08 06:51:32.61	327.98	11.57	-52.0	-54.2	14.4	0.00e+00	0	25	0	1116733440	70	4560
2026-01-08 06:51:33.61	327.87	11.49	-51.8	-53.9	14.6	0.00e+00	0	25	0	1118830592	70	4403
2026-01-08 06:51:34.60	327.77	11.42	-51.8	-54.0	14.5	0.00e+00	0	25	0	1119879168	70	4449
2026-01-08 06:51:35.61	327.66	11.34	-51.5	-53.5	14.6	0.00e+00	0	24	0	1121976320	69	4457
2026-01-08 06:51:36.59	327.55	11.27	-51.5	-53.5	14.6	0.00e+00	0	25	0	1124073472	69	4484
2026-01-08 06:51:37.59	327.45	11.20	-51.5	-53.6	14.5	0.00e+00	0	24	0	1126170624	69	4530
2026-01-08 06:51:38.59	327.34	11.12	-51.5	-53.6	14.5	0.00e+00	0	25	0	1128267776	69	4530
2026-01-08 06:51:39.59	327.23	11.05	-51.8	-53.9	14.4	0.00e+00	0	25	0	1129316352	69	4694
2026-01-08 06:51:40.59	327.13	10.97	-51.8	-54.0	14.3	0.00e+00	0	25	0	1131413504	69	4756
2026-01-08 06:51:41.58	327.03	10.90	-52.2	-54.5	14.1	0.00e+00	0	25	0	1133510656	69	5034
2026-01-08 06:51:42.57	326.92	10.82	-52.3	-54.7	14.0	0.00e+00	0	25	0	1135607808	69	5129
2026-01-08 06:51:43.57	326.82	10.75	-52.6	-55.2	13.9	0.00e+00	0	25	0	1137704960	70	5106
2026-01-08 06:51:44.56	326.72	10.68	-52.8	-55.4	13.7	0.00e+00	0	25	0	1138753536	70	5270
2026-01-08 06:51:45.56	326.62	10.60	-53.0	-55.7	13.7	0.00e+00	0	25	0	1140850688	71	5104
2026-01-08 06:51:46.56	326.51	10.53	-53.1	-55.9	13.6	0.00e+00	0	25	0	1142947840	71	5231
2026-01-08 06:51:47.56	326.41	10.46	-53.1	-55.9	13.5	0.00e+00	0	25	0	1145044992	71	5245
2026-01-08 06:51:48.56	326.31	10.38	-53.2	-56.0	13.4	0.00e+00	0	25	0	1146093568	71	5323
2026-01-08 06:51:49.55	326.21	10.31	-53.2	-56.0	13.5	0.00e+00	0	25	0	1148190720	71	5326
2026-01-08 06:51:50.55	326.11	10.24	-53.1	-55.9	13.5	0.00e+00	0	25	0	1150287872	71	5261
2026-01-08 06:51:51.55	326.01	10.17	-53.3	-56.2	13.4	0.00e+00	0	25	0	1152385024	71	5409
2026-01-08 06:51:52.55	325.92	10.09	-53.2	-56.1	13.4	0.00e+00	0	25	0	1154482176	71	5362
2026-01-08 06:51:53.55	325.82	10.02	-53.1	-55.8	13.6	0.00e+00	0	25	0	1155530752	71	5194
2026-01-08 06:51:54.54	325.72	9.95	-53.0	-55.7	13.7	0.00e+00	0	25	0	1157627904	71	5145
2026-01-08 06:51:55.54	325.62	9.88	-53.0	-55.6	13.6	0.00e+00	0	25	0	1159725056	71	5098
2026-01-08 06:51:56.54	325.53	9.80	-53.0	-55.7	13.6	0.00e+00	0	25	0	1161822208	71	5106
2026-01-08 06:51:57.54	325.43	9.73	-53.0	-55.7	13.6	0.00e+00	0	25	0	1162870784	71	5155
2026-01-08 06:51:58.54	325.34	9.66	-52.9	-55.6	13.7	0.00e+00	0	25	0	1164967936	71	5045
2026-01-08 06:51:59.55	325.24	9.59	-52.8	-55.4	13.8	0.00e+00	0	25	0	1167065088	71	4972
2026-01-08 06:52:00.55	325.14	9.51	-53.0	-55.7	13.7	0.00e+00	0	25	0	1169162240	71	5125
2026-01-08 06:52:01.55	325.05	9.44	-53.1	-55.8	13.6	0.00e+00	0	25	0	1171259392	71	5186
2026-01-08 06:52:02.55	324.96	9.37	-53.2	-55.9	13.5	0.00e+00	0	25	0	1172307968	71	5264
2026-01-08 06:52:03.55	324.86	9.30	-53.3	-56.1	13.4	0.00e+00	0	25	0	1174405120	71	5346
2026-01-08 06:52:04.54	324.77	9.23	-53.3	-56.1	13.4	0.00e+00	0	25	0	1176502272	71	5379
2026-01-08 06:52:05.54	324.68	9.16	-53.4	-56.2	13.4	0.00e+00	0	25	0	1178599424	72	5136
2026-01-08 06:52:06.54	324.59	9.09	-53.5	-56.5	13.3	0.00e+00	0	25	0	1180696576	72	5302
2026-01-08 06:52:07.54	324.50	9.02	-53.5	-56.5	13.3	0.00e+00	0	25	0	1181745152	72	5318
2026-01-08 06:52:08.54	324.41	8.95	-53.7	-56.8	13.1	0.00e+00	0	25	0	1183842304	72	5474
2026-01-08 06:52:09.53	324.32	8.88	-53.8	-57.0	12.9	0.00e+00	0	25	0	1185939456	72	5653
2026-01-08 06:52:10.52	324.23	8.81	-53.8	-57.0	12.9	0.00e+00	0	25	0	1188036608	72	5656
2026-01-08 06:52:11.52	324.14	8.74	-53.7	-56.9	13.0	0.00e+00	0	25	0	1189085184	72	5565
2026-01-08 06:52:12.51	324.05	8.67	-53.6	-56.8	13.1	0.00e+00	0	25	0	1191182336	72	5477
2026-01-08 06:52:13.51	323.96	8.60	-53.7	-56.8	13.0	0.00e+00	0	25	0	1193279488	72	5488
2026-01-08 06:52:14.52	323.87	8.53	-53.5	-56.5	13.2	0.00e+00	0	25	0	1195376640	72	5295
2026-01-08 06:52:15.52	323.78	8.46	-53.4	-56.4	13.3	0.00e+00	0	25	0	1197473792	72	5234
2026-01-08 06:52:16.51	323.70	8.39	-53.2	-56.0	13.5	0.00e+00	0	25	0	1198522368	72	5017
2026-01-08 06:52:17.51	323.61	8.32	-53.0	-55.7	13.7	0.00e+00	0	25	0	1200619520	72	4832
2026-01-08 06:52:18.51	323.52	8.25	-52.8	-55.4	13.9	0.00e+00	0	25	0	1202716672	72	4685
2026-01-08 06:52:19.50	323.44	8.18	-52.7	-55.2	14.0	0.00e+00	0	25	0	1204813824	72	4573
2026-01-08 06:52:20.51	323.35	8.11	-52.6	-55.0	14.0	0.00e+00	0	25	0	1206910976	71	4758
2026-01-08 06:52:21.50	323.27	8.04	-52.5	-54.9	14.0	0.00e+00	0	25	0	1207959552	71	4696
2026-01-08 06:52:22.50	323.18	7.97	-52.3	-54.6	14.2	0.00e+00	0	25	0	1210056704	71	4530
2026-01-08 06:52:23.50	323.10	7.90	-52.2	-54.5	14.3	0.00e+00	0	25	0	1212153856	71	4446
