passes_logs/2026/01/08/R3.2S_Murmansk/R3.2S_Murmansk__20260108_120245_NOAA_20_JPSS-1_rec.log

#Pass ID: 20260108_120245_NOAA 20 (JPSS-1)
#Satellite: NOAA 20 (JPSS-1)
#Configuration: NOAA 20
#almurnet v.1.7.20251203
#Start time: 2026-01-08 12:02:47

#Version: 2.2.20231116
#Station: R3.2S_Murmansk
#Location: 33.079688 lon 68.888172 lat
#TLE: 1 43013U 17073A   26007.92906311  .00000097  00000+0  67117-4 0  9996
#TLE: 2 43013  98.7630 308.9434 0001752  49.5597 310.5732 14.19534161421734

#Time	Az	El	Level	Level2	SNR	BER	BlckErr	Temp	State	Recorded	gain1	gain2
2026-01-08 12:02:47.94	215.89	2.11	-57.9	-73.9	3.8	1.49e+00	0	22	0	0	82	22018
2026-01-08 12:02:48.95	215.96	2.16	-57.8	-73.8	3.8	1.49e+00	0	23	104	0	80	24478
2026-01-08 12:02:49.96	216.04	2.22	-57.8	-73.8	3.8	1.49e+00	0	23	104	0	80	24454
2026-01-08 12:02:50.97	216.12	2.27	-57.8	-73.8	3.8	1.49e+00	0	23	104	0	80	24513
2026-01-08 12:02:51.98	216.19	2.33	-57.8	-73.8	3.8	1.49e+00	0	23	104	0	80	24525
2026-01-08 12:02:52.98	216.27	2.38	-57.8	-73.8	3.8	1.49e+00	0	23	104	0	80	24418
2026-01-08 12:02:53.99	216.35	2.44	-57.8	-73.7	3.8	1.49e+00	0	23	104	0	80	24276
2026-01-08 12:02:55.01	216.42	2.49	-57.8	-73.7	3.8	1.49e+00	0	23	104	0	80	24299
2026-01-08 12:02:56.02	216.50	2.55	-57.8	-73.7	3.8	1.49e+00	0	23	104	0	80	24347
2026-01-08 12:02:57.03	216.58	2.60	-57.8	-73.8	3.8	1.49e+00	0	23	104	0	80	24572
2026-01-08 12:02:58.03	216.65	2.66	-57.8	-73.8	3.8	1.49e+00	0	23	104	0	80	24567
2026-01-08 12:02:59.04	216.73	2.72	-57.8	-73.8	3.8	1.49e+00	0	23	104	0	80	24583
2026-01-08 12:03:00.05	216.81	2.77	-57.8	-73.8	3.8	1.49e+00	0	23	104	0	80	24597
2026-01-08 12:03:01.06	216.89	2.83	-57.8	-73.8	3.8	1.49e+00	0	23	104	0	80	24474
2026-01-08 12:03:02.07	216.97	2.88	-57.8	-73.7	3.8	1.49e+00	0	23	104	0	80	24390
2026-01-08 12:03:03.08	217.05	2.94	-57.8	-73.7	3.8	1.49e+00	0	23	104	0	80	24248
2026-01-08 12:03:04.09	217.13	2.99	-57.8	-73.7	3.8	1.49e+00	0	23	104	0	80	24321
2026-01-08 12:03:05.10	217.21	3.05	-57.8	-73.7	3.8	1.49e+00	0	23	104	0	80	24332
2026-01-08 12:03:06.10	217.29	3.11	-57.8	-73.7	3.8	1.49e+00	0	23	104	0	80	24341
2026-01-08 12:03:07.11	217.37	3.16	-57.8	-73.8	3.8	1.49e+00	0	23	104	0	80	24447
2026-01-08 12:03:08.12	217.45	3.22	-57.8	-73.8	3.8	1.49e+00	0	23	104	0	80	24485
2026-01-08 12:03:09.13	217.53	3.27	-57.8	-73.8	3.8	1.49e+00	0	23	104	0	80	24579
2026-01-08 12:03:10.13	217.61	3.33	-57.8	-73.8	3.8	1.49e+00	0	23	104	0	80	24619
2026-01-08 12:03:11.14	217.69	3.39	-57.8	-73.8	3.8	1.49e+00	0	23	104	0	80	24623
2026-01-08 12:03:12.15	217.77	3.44	-57.8	-73.8	3.8	1.49e+00	0	23	104	0	80	24469
2026-01-08 12:03:13.16	217.85	3.50	-57.8	-73.7	3.8	1.49e+00	0	23	104	0	80	24392
2026-01-08 12:03:14.17	217.94	3.55	-57.8	-73.7	3.8	1.49e+00	0	23	104	0	80	24204
2026-01-08 12:03:15.18	218.02	3.61	-57.8	-73.6	3.8	1.49e+00	0	23	104	0	80	23982
2026-01-08 12:03:16.19	218.10	3.67	-57.8	-73.6	3.8	1.49e+00	0	23	104	0	80	23907
2026-01-08 12:03:17.19	218.19	3.72	-57.8	-73.4	3.8	1.49e+00	0	23	104	0	80	23520
2026-01-08 12:03:18.20	218.27	3.78	-57.8	-73.4	3.8	1.49e+00	0	23	104	0	80	23555
2026-01-08 12:03:19.21	218.35	3.84	-57.8	-73.5	3.8	1.49e+00	0	23	104	0	80	23652
2026-01-08 12:03:20.22	218.44	3.90	-57.8	-73.4	3.8	1.49e+00	0	23	104	0	80	23313
2026-01-08 12:03:21.22	218.52	3.95	-57.8	-73.3	3.8	1.49e+00	0	23	104	0	80	23143
2026-01-08 12:03:22.23	218.61	4.01	-57.8	-73.0	3.8	1.49e+00	0	23	104	0	80	22366
2026-01-08 12:03:23.24	218.69	4.07	-57.8	-73.1	3.8	1.49e+00	0	23	104	0	80	22632
2026-01-08 12:03:24.25	218.78	4.12	-57.8	-73.2	3.8	1.49e+00	0	23	104	0	80	22818
2026-01-08 12:03:25.25	218.86	4.18	-57.8	-73.3	3.8	1.49e+00	0	24	104	0	80	23251
2026-01-08 12:03:26.26	218.95	4.24	-57.8	-73.7	3.8	1.49e+00	0	24	104	0	80	24239
2026-01-08 12:03:27.27	219.03	4.29	-57.8	-73.8	3.8	1.49e+00	0	23	104	0	80	24476
2026-01-08 12:03:28.28	219.12	4.35	-57.8	-73.5	3.8	1.49e+00	0	23	104	0	80	23663
2026-01-08 12:03:29.29	219.21	4.41	-57.8	-72.9	3.8	1.49e+00	0	23	104	0	80	22178
2026-01-08 12:03:30.30	219.30	4.47	-57.7	-72.0	3.8	1.49e+00	0	24	104	0	80	19941
2026-01-08 12:03:31.31	219.38	4.53	-57.7	-70.9	4.1	1.49e+00	0	24	104	0	80	17630
2026-01-08 12:03:32.32	219.47	4.58	-57.7	-70.7	4.1	1.45e+00	0	24	0	0	80	17233
2026-01-08 12:03:33.32	219.56	4.64	-57.6	-70.0	4.2	1.40e+00	0	24	0	0	80	15858
2026-01-08 12:03:34.33	219.65	4.70	-57.7	-70.5	4.1	1.35e+00	0	24	0	0	80	16787
2026-01-08 12:03:35.34	219.74	4.76	-57.7	-70.7	4.1	1.48e+00	0	24	104	0	80	17145
2026-01-08 12:03:36.35	219.83	4.81	-57.6	-68.9	4.6	1.27e+00	0	24	0	0	80	13950
2026-01-08 12:03:37.36	219.92	4.87	-57.5	-68.2	4.9	8.41e-01	0	24	0	2097152	80	12880
2026-01-08 12:03:38.36	220.01	4.93	-57.3	-66.2	6.2	3.60e-01	0	24	0	4194304	80	10196
2026-01-08 12:03:39.37	220.10	4.99	-57.0	-64.8	7.3	1.24e-01	0	24	0	6291456	80	8718
2026-01-08 12:03:40.37	220.19	5.05	-56.9	-64.0	8.0	5.91e-02	0	24	0	7340032	80	7933
2026-01-08 12:03:41.38	220.28	5.10	-57.5	-68.0	5.3	9.73e-02	0	24	0	9437184	80	12545
2026-01-08 12:03:42.39	220.37	5.16	-57.5	-68.8	4.0	1.49e+00	0	24	104	9437184	80	13772
2026-01-08 12:03:43.40	220.46	5.22	-55.9	-60.6	11.0	4.01e-02	0	24	0	9437184	77	6413
2026-01-08 12:03:44.41	220.55	5.28	-55.9	-60.5	10.9	3.59e-02	0	24	0	11534336	78	5982
2026-01-08 12:03:45.42	220.65	5.34	-53.7	-56.5	13.5	0.00e+00	0	24	0	13631488	73	4988
2026-01-08 12:03:46.42	220.74	5.40	-53.6	-56.3	13.6	0.00e+00	0	24	0	15728640	73	4878
2026-01-08 12:03:47.43	220.83	5.46	-53.9	-56.9	13.2	0.00e+00	0	24	0	17825792	73	5238
2026-01-08 12:03:48.44	220.93	5.52	-53.8	-56.6	13.4	0.00e+00	0	24	0	18874368	73	5060
2026-01-08 12:03:49.45	221.02	5.57	-53.6	-56.4	13.5	0.00e+00	0	24	0	20971520	73	4963
2026-01-08 12:03:50.45	221.11	5.63	-53.7	-56.6	13.5	0.00e+00	0	24	0	23068672	73	5048
2026-01-08 12:03:51.46	221.21	5.69	-53.5	-56.2	13.7	0.00e+00	0	24	0	25165824	73	4842
2026-01-08 12:03:52.47	221.30	5.75	-53.9	-56.7	13.3	0.00e+00	0	24	0	26214400	73	5151
2026-01-08 12:03:53.47	221.40	5.81	-53.6	-56.3	13.6	0.00e+00	0	24	0	28311552	73	4880
2026-01-08 12:03:54.48	221.49	5.87	-53.6	-56.3	13.6	0.00e+00	0	24	0	30408704	73	4920
2026-01-08 12:03:55.49	221.59	5.93	-53.6	-56.4	13.6	0.00e+00	0	24	0	32505856	73	4929
2026-01-08 12:03:56.50	221.69	5.99	-53.5	-56.2	13.7	0.00e+00	0	24	0	34603008	73	4828
2026-01-08 12:03:57.50	221.78	6.05	-53.6	-56.2	13.7	0.00e+00	0	24	0	36700160	73	4860
2026-01-08 12:03:58.51	221.88	6.11	-53.6	-56.3	13.7	0.00e+00	0	24	0	37748736	73	4909
2026-01-08 12:03:59.52	221.98	6.17	-53.6	-56.3	13.6	0.00e+00	0	24	0	39845888	73	4901
2026-01-08 12:04:00.53	222.07	6.23	-53.5	-56.2	13.7	0.00e+00	0	24	0	41943040	73	4822
2026-01-08 12:04:01.54	222.17	6.29	-53.4	-56.0	13.8	0.00e+00	0	24	0	44040192	73	4738
2026-01-08 12:04:02.54	222.27	6.35	-53.4	-56.0	13.9	0.00e+00	0	24	0	46137344	73	4743
2026-01-08 12:04:03.54	222.37	6.40	-53.5	-56.1	13.8	0.00e+00	0	24	0	47185920	73	4770
2026-01-08 12:04:04.55	222.47	6.47	-53.5	-56.0	13.9	0.00e+00	0	24	0	49283072	73	4747
2026-01-08 12:04:05.55	222.57	6.52	-53.6	-56.2	13.8	0.00e+00	0	24	0	51380224	73	4818
2026-01-08 12:04:06.56	222.67	6.58	-53.5	-56.1	13.8	0.00e+00	0	24	0	53477376	73	4807
2026-01-08 12:04:07.57	222.77	6.64	-53.5	-56.0	13.9	0.00e+00	0	24	0	54525952	73	4734
2026-01-08 12:04:08.58	222.87	6.71	-53.4	-55.9	13.9	0.00e+00	0	24	0	56623104	73	4702
2026-01-08 12:04:09.58	222.97	6.77	-53.4	-56.0	13.9	0.00e+00	0	24	0	58720256	73	4726
2026-01-08 12:04:10.59	223.07	6.83	-53.4	-55.8	14.0	0.00e+00	0	24	0	60817408	73	4651
2026-01-08 12:04:11.59	223.17	6.89	-53.4	-55.9	13.9	0.00e+00	0	24	0	62914560	73	4672
2026-01-08 12:04:12.60	223.28	6.95	-53.3	-55.8	14.0	0.00e+00	0	24	0	65011712	73	4639
2026-01-08 12:04:13.61	223.38	7.01	-53.4	-55.9	13.9	0.00e+00	0	24	0	66060288	73	4673
2026-01-08 12:04:14.62	223.48	7.07	-53.5	-56.1	13.8	0.00e+00	0	24	0	68157440	73	4771
2026-01-08 12:04:15.62	223.59	7.13	-53.5	-56.0	13.9	0.00e+00	0	24	0	70254592	73	4720
2026-01-08 12:04:16.63	223.69	7.19	-53.4	-55.9	14.0	0.00e+00	0	24	0	72351744	73	4700
2026-01-08 12:04:17.64	223.80	7.25	-53.5	-56.1	13.8	0.00e+00	0	24	0	74448896	73	4793
2026-01-08 12:04:18.64	223.90	7.31	-53.6	-56.2	13.8	0.00e+00	0	24	0	75497472	73	4832
2026-01-08 12:04:19.65	224.01	7.37	-53.6	-56.2	13.8	0.00e+00	0	24	0	77594624	73	4833
2026-01-08 12:04:20.66	224.11	7.43	-53.6	-56.1	13.8	0.00e+00	0	24	0	79691776	73	4807
2026-01-08 12:04:21.67	224.22	7.49	-53.5	-56.0	13.9	0.00e+00	0	24	0	81788928	73	4747
2026-01-08 12:04:22.68	224.33	7.55	-53.5	-56.1	13.9	0.00e+00	0	24	0	82837504	73	4760
2026-01-08 12:04:23.68	224.43	7.62	-53.5	-56.0	13.9	0.00e+00	0	24	0	84934656	73	4740
2026-01-08 12:04:24.69	224.54	7.68	-53.4	-55.9	13.9	0.00e+00	0	24	0	87031808	73	4702
2026-01-08 12:04:25.69	224.65	7.74	-53.5	-56.0	13.9	0.00e+00	0	24	0	89128960	73	4725
2026-01-08 12:04:26.69	224.76	7.80	-53.5	-56.1	13.9	0.00e+00	0	24	0	91226112	73	4769
2026-01-08 12:04:27.70	224.87	7.86	-53.5	-56.0	13.9	0.00e+00	0	24	0	93323264	73	4752
2026-01-08 12:04:28.71	224.98	7.92	-53.5	-56.0	14.0	0.00e+00	0	24	0	94371840	73	4720
2026-01-08 12:04:29.72	225.09	7.98	-53.4	-55.9	14.0	0.00e+00	0	24	0	96468992	73	4683
2026-01-08 12:04:30.73	225.20	8.04	-53.4	-55.9	14.0	0.00e+00	0	24	0	98566144	73	4672
2026-01-08 12:04:31.74	225.31	8.11	-53.5	-55.9	14.0	0.00e+00	0	24	0	100663296	73	4701
2026-01-08 12:04:32.75	225.42	8.17	-53.4	-55.8	14.1	0.00e+00	0	24	0	102760448	73	4617
2026-01-08 12:04:33.75	225.53	8.23	-53.4	-55.8	14.1	0.00e+00	0	24	0	103809024	73	4624
2026-01-08 12:04:34.76	225.64	8.29	-53.3	-55.7	14.1	0.00e+00	0	24	0	105906176	73	4594
2026-01-08 12:04:35.76	225.75	8.35	-53.4	-55.8	14.1	0.00e+00	0	24	0	108003328	73	4615
2026-01-08 12:04:36.77	225.87	8.42	-53.3	-55.7	14.2	0.00e+00	0	24	0	110100480	73	4547
2026-01-08 12:04:37.78	225.98	8.48	-53.3	-55.7	14.1	0.00e+00	0	24	0	112197632	73	4596
2026-01-08 12:04:38.79	226.09	8.54	-53.4	-55.9	14.1	0.00e+00	0	24	0	113246208	73	4654
2026-01-08 12:04:39.80	226.21	8.60	-53.2	-55.6	14.2	0.00e+00	0	24	0	115343360	73	4505
2026-01-08 12:04:40.81	226.32	8.66	-53.1	-55.4	14.2	0.00e+00	0	24	0	117440512	72	4685
2026-01-08 12:04:41.81	226.44	8.73	-53.1	-55.4	14.2	0.00e+00	0	24	0	119537664	72	4684
2026-01-08 12:04:42.82	226.55	8.79	-53.1	-55.3	14.2	0.00e+00	0	24	0	121634816	72	4644
2026-01-08 12:04:43.83	226.67	8.85	-53.1	-55.4	14.2	0.00e+00	0	24	0	122683392	72	4689
2026-01-08 12:04:44.84	226.79	8.91	-53.1	-55.5	14.1	0.00e+00	0	24	0	124780544	72	4725
2026-01-08 12:04:45.85	226.91	8.98	-53.0	-55.3	14.2	0.00e+00	0	24	0	126877696	72	4622
2026-01-08 12:04:46.86	227.02	9.04	-53.1	-55.4	14.2	0.00e+00	0	24	0	128974848	72	4661
2026-01-08 12:04:47.87	227.14	9.10	-53.0	-55.2	14.3	0.00e+00	0	24	0	131072000	72	4585
2026-01-08 12:04:48.88	227.26	9.16	-53.0	-55.2	14.3	0.00e+00	0	24	0	132120576	72	4591
2026-01-08 12:04:49.89	227.38	9.23	-52.9	-55.2	14.3	0.00e+00	0	24	0	134217728	72	4550
2026-01-08 12:04:50.90	227.50	9.29	-52.9	-55.2	14.3	0.00e+00	0	24	0	136314880	72	4556
2026-01-08 12:04:51.90	227.62	9.35	-53.0	-55.3	14.2	0.00e+00	0	24	0	138412032	72	4622
2026-01-08 12:04:52.91	227.74	9.42	-52.8	-55.0	14.4	0.00e+00	0	24	0	140509184	72	4450
2026-01-08 12:04:53.92	227.86	9.48	-52.7	-54.9	14.5	0.00e+00	0	24	0	141557760	72	4425
2026-01-08 12:04:54.93	227.98	9.54	-52.7	-54.9	14.5	0.00e+00	0	24	0	143654912	72	4415
2026-01-08 12:04:55.94	228.11	9.60	-52.8	-54.9	14.5	0.00e+00	0	24	0	145752064	72	4424
2026-01-08 12:04:56.94	228.23	9.67	-52.7	-54.8	14.5	0.00e+00	0	24	0	147849216	72	4391
2026-01-08 12:04:57.95	228.35	9.73	-52.6	-54.8	14.4	0.00e+00	0	24	0	149946368	71	4612
2026-01-08 12:04:58.96	228.48	9.79	-52.7	-54.8	14.4	0.00e+00	0	24	0	150994944	71	4644
2026-01-08 12:04:59.97	228.60	9.86	-52.6	-54.7	14.4	0.00e+00	0	24	0	153092096	71	4557
2026-01-08 12:05:00.98	228.73	9.92	-52.7	-54.8	14.4	0.00e+00	0	24	0	155189248	71	4651
2026-01-08 12:05:01.99	228.85	9.98	-52.7	-54.8	14.4	0.00e+00	0	24	0	157286400	71	4640
2026-01-08 12:05:02.99	228.98	10.05	-52.7	-54.8	14.4	0.00e+00	0	24	0	159383552	71	4647
2026-01-08 12:05:04.00	229.10	10.11	-52.7	-54.9	14.4	0.00e+00	0	24	0	160432128	71	4652
2026-01-08 12:05:05.01	229.23	10.17	-52.7	-54.9	14.3	0.00e+00	0	24	0	162529280	71	4671
2026-01-08 12:05:06.02	229.36	10.24	-52.7	-54.8	14.4	0.00e+00	0	24	0	164626432	71	4645
2026-01-08 12:05:07.03	229.49	10.30	-52.7	-54.8	14.4	0.00e+00	0	24	0	166723584	71	4630
2026-01-08 12:05:08.04	229.61	10.36	-52.7	-54.9	14.4	0.00e+00	0	24	0	168820736	71	4666
2026-01-08 12:05:09.04	229.74	10.43	-52.7	-54.9	14.4	0.00e+00	0	24	0	169869312	71	4653
2026-01-08 12:05:10.05	229.87	10.49	-52.6	-54.7	14.5	0.00e+00	0	24	0	171966464	71	4569
2026-01-08 12:05:11.06	230.00	10.56	-52.7	-54.8	14.4	0.00e+00	0	24	0	174063616	71	4621
2026-01-08 12:05:12.07	230.13	10.62	-52.7	-54.8	14.4	0.00e+00	0	24	0	176160768	71	4623
2026-01-08 12:05:13.08	230.26	10.68	-52.6	-54.7	14.5	0.00e+00	0	24	0	178257920	71	4566
2026-01-08 12:05:14.09	230.40	10.75	-52.7	-54.8	14.4	0.00e+00	0	24	0	179306496	71	4621
2026-01-08 12:05:15.10	230.53	10.81	-52.7	-54.8	14.4	0.00e+00	0	24	0	181403648	71	4640
2026-01-08 12:05:16.11	230.66	10.87	-52.6	-54.8	14.4	0.00e+00	0	24	0	183500800	71	4602
2026-01-08 12:05:17.12	230.80	10.94	-52.6	-54.7	14.5	0.00e+00	0	24	0	185597952	71	4581
2026-01-08 12:05:18.13	230.93	11.00	-52.6	-54.7	14.4	0.00e+00	0	24	0	187695104	71	4585
2026-01-08 12:05:19.13	231.06	11.07	-52.6	-54.7	14.5	0.00e+00	0	24	0	189792256	71	4591
2026-01-08 12:05:20.14	231.20	11.13	-52.6	-54.7	14.5	0.00e+00	0	24	0	190840832	71	4577
2026-01-08 12:05:21.13	231.33	11.19	-52.6	-54.7	14.5	0.00e+00	0	24	0	192937984	71	4556
2026-01-08 12:05:22.15	231.47	11.26	-52.5	-54.6	14.5	0.00e+00	0	24	0	195035136	71	4526
2026-01-08 12:05:23.15	231.61	11.32	-52.5	-54.6	14.5	0.00e+00	0	24	0	197132288	71	4511
2026-01-08 12:05:24.16	231.74	11.38	-52.5	-54.5	14.6	0.00e+00	0	24	0	198180864	71	4460
2026-01-08 12:05:25.17	231.88	11.45	-52.4	-54.4	14.6	0.00e+00	0	24	0	200278016	71	4416
2026-01-08 12:05:26.17	232.02	11.51	-52.4	-54.4	14.6	0.00e+00	0	24	0	202375168	71	4422
2026-01-08 12:05:27.18	232.16	11.58	-52.4	-54.4	14.7	0.00e+00	0	24	0	204472320	71	4396
2026-01-08 12:05:28.19	232.30	11.64	-52.4	-54.3	14.7	0.00e+00	0	24	0	206569472	71	4385
2026-01-08 12:05:29.20	232.44	11.71	-52.3	-54.3	14.7	0.00e+00	0	24	0	207618048	71	4372
2026-01-08 12:05:30.21	232.58	11.77	-52.4	-54.3	14.7	0.00e+00	0	24	0	209715200	71	4389
2026-01-08 12:05:31.22	232.72	11.83	-52.3	-54.3	14.7	0.00e+00	0	24	0	211812352	71	4342
2026-01-08 12:05:32.22	232.86	11.90	-52.3	-54.3	14.7	0.00e+00	0	24	0	213909504	71	4374
2026-01-08 12:05:33.23	233.01	11.96	-52.3	-54.3	14.7	0.00e+00	0	24	0	216006656	71	4368
2026-01-08 12:05:34.24	233.15	12.03	-52.3	-54.3	14.7	0.00e+00	0	24	0	218103808	71	4352
2026-01-08 12:05:35.25	233.29	12.09	-52.4	-54.4	14.7	0.00e+00	0	24	0	219152384	71	4405
2026-01-08 12:05:36.26	233.44	12.15	-52.3	-54.3	14.7	0.00e+00	0	24	0	221249536	71	4383
2026-01-08 12:05:37.27	233.58	12.22	-52.2	-54.2	14.8	0.00e+00	0	24	0	223346688	71	4310
2026-01-08 12:05:38.27	233.73	12.28	-52.3	-54.3	14.7	0.00e+00	0	24	0	225443840	71	4363
2026-01-08 12:05:39.28	233.88	12.35	-52.4	-54.4	14.7	0.00e+00	0	24	0	226492416	71	4419
2026-01-08 12:05:40.28	234.02	12.41	-52.3	-54.3	14.7	0.00e+00	0	24	0	228589568	71	4345
2026-01-08 12:05:41.29	234.17	12.48	-52.3	-54.3	14.7	0.00e+00	0	24	0	230686720	71	4349
2026-01-08 12:05:42.30	234.32	12.54	-52.3	-54.3	14.7	0.00e+00	0	24	0	232783872	71	4381
2026-01-08 12:05:43.31	234.47	12.60	-52.4	-54.3	14.7	0.00e+00	0	24	0	234881024	71	4390
2026-01-08 12:05:44.32	234.62	12.67	-52.3	-54.3	14.7	0.00e+00	0	24	0	235929600	71	4374
2026-01-08 12:05:45.33	234.77	12.73	-52.3	-54.3	14.7	0.00e+00	0	24	0	238026752	71	4355
2026-01-08 12:05:46.33	234.92	12.80	-52.4	-54.4	14.6	0.00e+00	0	25	0	240123904	71	4415
2026-01-08 12:05:47.35	235.07	12.86	-52.4	-54.3	14.7	0.00e+00	0	24	0	242221056	71	4387
2026-01-08 12:05:48.36	235.22	12.93	-52.4	-54.5	14.6	0.00e+00	0	24	0	244318208	71	4442
2026-01-08 12:05:49.37	235.37	12.99	-52.3	-54.2	14.7	0.00e+00	0	24	0	246415360	71	4332
2026-01-08 12:05:50.38	235.53	13.05	-52.3	-54.2	14.7	0.00e+00	0	25	0	247463936	71	4339
2026-01-08 12:05:51.39	235.68	13.12	-52.2	-54.1	14.8	0.00e+00	0	24	0	249561088	71	4273
2026-01-08 12:05:52.39	235.84	13.18	-52.2	-54.1	14.7	0.00e+00	0	24	0	251658240	70	4521
2026-01-08 12:05:53.40	235.99	13.25	-52.3	-54.3	14.6	0.00e+00	0	24	0	253755392	70	4601
2026-01-08 12:05:54.41	236.15	13.31	-52.4	-54.3	14.5	0.00e+00	0	24	0	255852544	70	4646
2026-01-08 12:05:55.41	236.30	13.37	-52.4	-54.4	14.5	0.00e+00	0	25	0	256901120	70	4655
2026-01-08 12:05:56.42	236.46	13.44	-52.3	-54.3	14.6	0.00e+00	0	25	0	258998272	70	4604
2026-01-08 12:05:57.43	236.62	13.50	-52.2	-54.2	14.6	0.00e+00	0	24	0	261095424	70	4564
2026-01-08 12:05:58.44	236.78	13.57	-52.3	-54.2	14.6	0.00e+00	0	25	0	263192576	70	4576
2026-01-08 12:05:59.45	236.94	13.63	-52.2	-54.2	14.6	0.00e+00	0	24	0	265289728	70	4566
2026-01-08 12:06:00.46	237.10	13.69	-52.3	-54.2	14.6	0.00e+00	0	24	0	266338304	70	4584
2026-01-08 12:06:01.47	237.26	13.76	-52.2	-54.1	14.6	0.00e+00	0	24	0	268435456	70	4531
2026-01-08 12:06:02.47	237.42	13.82	-52.1	-53.9	14.7	0.00e+00	0	24	0	270532608	70	4433
2026-01-08 12:06:03.48	237.58	13.89	-52.0	-53.9	14.8	0.00e+00	0	24	0	272629760	70	4415
2026-01-08 12:06:04.49	237.74	13.95	-52.0	-53.9	14.8	0.00e+00	0	24	0	274726912	70	4430
2026-01-08 12:06:05.50	237.91	14.01	-52.0	-53.9	14.7	0.00e+00	0	24	0	275775488	70	4431
2026-01-08 12:06:06.50	238.07	14.08	-52.1	-54.0	14.7	0.00e+00	0	24	0	277872640	70	4468
2026-01-08 12:06:07.51	238.23	14.14	-52.2	-54.1	14.6	0.00e+00	0	24	0	279969792	70	4531
2026-01-08 12:06:08.52	238.40	14.20	-52.2	-54.1	14.7	0.00e+00	0	24	0	282066944	70	4512
2026-01-08 12:06:09.52	238.56	14.27	-52.2	-54.1	14.6	0.00e+00	0	24	0	284164096	70	4519
2026-01-08 12:06:10.53	238.73	14.33	-52.1	-54.1	14.7	0.00e+00	0	24	0	285212672	70	4496
2026-01-08 12:06:11.53	238.90	14.39	-52.1	-54.0	14.7	0.00e+00	0	25	0	287309824	70	4490
2026-01-08 12:06:12.54	239.06	14.46	-52.2	-54.2	14.6	0.00e+00	0	25	0	289406976	70	4552
2026-01-08 12:06:13.55	239.23	14.52	-52.3	-54.2	14.6	0.00e+00	0	24	0	291504128	70	4587
2026-01-08 12:06:14.56	239.40	14.58	-52.4	-54.4	14.5	0.00e+00	0	24	0	293601280	70	4675
2026-01-08 12:06:15.57	239.57	14.65	-52.4	-54.3	14.5	0.00e+00	0	24	0	294649856	70	4636
2026-01-08 12:06:16.58	239.74	14.71	-52.3	-54.3	14.5	0.00e+00	0	24	0	296747008	70	4611
2026-01-08 12:06:17.58	239.91	14.77	-52.3	-54.2	14.6	0.00e+00	0	24	0	298844160	70	4578
2026-01-08 12:06:18.59	240.09	14.84	-52.3	-54.3	14.6	0.00e+00	0	24	0	300941312	70	4606
2026-01-08 12:06:19.60	240.26	14.90	-52.3	-54.2	14.6	0.00e+00	0	24	0	303038464	70	4584
2026-01-08 12:06:20.61	240.43	14.96	-52.2	-54.2	14.6	0.00e+00	0	24	0	304087040	70	4564
2026-01-08 12:06:21.61	240.61	15.02	-52.3	-54.2	14.6	0.00e+00	0	24	0	306184192	70	4587
2026-01-08 12:06:22.62	240.78	15.09	-52.3	-54.2	14.6	0.00e+00	0	24	0	308281344	70	4588
2026-01-08 12:06:23.63	240.96	15.15	-52.3	-54.2	14.6	0.00e+00	0	24	0	310378496	70	4575
2026-01-08 12:06:24.63	241.13	15.21	-52.2	-54.1	14.6	0.00e+00	0	24	0	312475648	70	4512
2026-01-08 12:06:25.64	241.31	15.27	-52.1	-54.0	14.7	0.00e+00	0	25	0	313524224	70	4470
2026-01-08 12:06:26.64	241.49	15.33	-52.2	-54.1	14.6	0.00e+00	0	25	0	315621376	70	4535
2026-01-08 12:06:27.66	241.67	15.40	-52.2	-54.1	14.6	0.00e+00	0	24	0	317718528	70	4525
2026-01-08 12:06:28.66	241.85	15.46	-52.1	-54.0	14.7	0.00e+00	0	25	0	319815680	70	4470
2026-01-08 12:06:29.67	242.03	15.52	-52.1	-54.0	14.7	0.00e+00	0	24	0	321912832	70	4473
2026-01-08 12:06:30.68	242.21	15.58	-52.1	-53.9	14.8	0.00e+00	0	24	0	322961408	70	4428
2026-01-08 12:06:31.69	242.39	15.64	-52.1	-53.9	14.8	0.00e+00	0	24	0	325058560	70	4430
2026-01-08 12:06:32.70	242.57	15.71	-52.0	-53.9	14.8	0.00e+00	0	24	0	327155712	70	4414
2026-01-08 12:06:33.71	242.75	15.77	-51.9	-53.7	14.9	0.00e+00	0	24	0	329252864	70	4304
2026-01-08 12:06:34.72	242.94	15.83	-51.8	-53.6	14.9	0.00e+00	0	24	0	331350016	70	4257
2026-01-08 12:06:35.72	243.12	15.89	-51.8	-53.5	15.0	0.00e+00	0	24	0	332398592	70	4235
2026-01-08 12:06:36.73	243.31	15.95	-51.7	-53.5	15.0	0.00e+00	0	24	0	334495744	70	4209
2026-01-08 12:06:37.73	243.49	16.01	-51.6	-53.3	14.8	0.00e+00	0	24	0	336592896	69	4387
2026-01-08 12:06:38.74	243.68	16.07	-51.5	-53.2	14.9	0.00e+00	0	24	0	338690048	69	4330
2026-01-08 12:06:39.75	243.86	16.13	-51.4	-53.1	15.0	0.00e+00	0	24	0	340787200	69	4283
2026-01-08 12:06:40.75	244.05	16.19	-51.5	-53.2	15.0	0.00e+00	0	24	0	341835776	69	4296
2026-01-08 12:06:41.76	244.24	16.25	-51.3	-53.0	15.0	0.00e+00	0	24	0	343932928	69	4228
2026-01-08 12:06:42.77	244.43	16.32	-51.3	-53.0	15.1	0.00e+00	0	24	0	346030080	69	4238
2026-01-08 12:06:43.77	244.62	16.37	-51.3	-53.0	15.1	0.00e+00	0	25	0	348127232	69	4235
2026-01-08 12:06:44.78	244.81	16.43	-51.2	-52.9	15.2	0.00e+00	0	24	0	350224384	69	4153
2026-01-08 12:06:45.78	245.00	16.49	-51.3	-52.9	15.1	0.00e+00	0	25	0	351272960	69	4178
2026-01-08 12:06:46.79	245.19	16.55	-51.2	-52.9	15.2	0.00e+00	0	24	0	353370112	69	4147
2026-01-08 12:06:47.80	245.39	16.61	-51.2	-52.8	15.0	0.00e+00	0	25	0	355467264	68	4382
2026-01-08 12:06:48.81	245.58	16.67	-51.2	-52.8	15.0	0.00e+00	0	24	0	357564416	68	4380
2026-01-08 12:06:49.81	245.77	16.73	-51.1	-52.8	15.0	0.00e+00	0	24	0	359661568	68	4354
2026-01-08 12:06:50.82	245.97	16.79	-51.2	-52.9	15.0	0.00e+00	0	25	0	360710144	68	4408
2026-01-08 12:06:51.83	246.17	16.85	-51.3	-53.0	14.9	0.00e+00	0	24	0	362807296	68	4447
2026-01-08 12:06:52.84	246.36	16.91	-51.1	-52.8	15.0	0.00e+00	0	24	0	364904448	68	4366
2026-01-08 12:06:53.85	246.56	16.97	-51.2	-52.9	15.0	0.00e+00	0	24	0	367001600	68	4395
2026-01-08 12:06:54.86	246.76	17.03	-51.2	-52.9	15.0	0.00e+00	0	24	0	369098752	68	4394
2026-01-08 12:06:55.87	246.96	17.08	-51.2	-52.8	15.0	0.00e+00	0	25	0	370147328	68	4386
2026-01-08 12:06:56.88	247.16	17.14	-51.1	-52.8	15.0	0.00e+00	0	24	0	372244480	68	4347
2026-01-08 12:06:57.89	247.36	17.20	-51.1	-52.8	15.0	0.00e+00	0	25	0	374341632	68	4341
2026-01-08 12:06:58.90	247.56	17.26	-51.1	-52.8	15.0	0.00e+00	0	25	0	376438784	68	4359
2026-01-08 12:06:59.91	247.77	17.31	-51.2	-52.8	15.0	0.00e+00	0	24	0	378535936	68	4383
2026-01-08 12:07:00.91	247.97	17.37	-51.2	-52.9	15.0	0.00e+00	0	24	0	379584512	68	4400
2026-01-08 12:07:01.92	248.17	17.43	-51.3	-53.0	14.9	0.00e+00	0	25	0	381681664	68	4467
2026-01-08 12:07:02.93	248.38	17.49	-51.4	-53.1	14.9	0.00e+00	0	25	0	383778816	68	4510
2026-01-08 12:07:03.93	248.58	17.54	-51.5	-53.3	14.8	0.00e+00	0	24	0	385875968	68	4616
2026-01-08 12:07:04.94	248.78	17.60	-51.5	-53.2	14.8	0.00e+00	0	25	0	387973120	68	4591
2026-01-08 12:07:05.95	248.99	17.65	-51.7	-53.5	14.7	0.00e+00	0	24	0	389021696	68	4711
2026-01-08 12:07:06.96	249.20	17.71	-51.7	-53.5	14.7	0.00e+00	0	25	0	391118848	68	4721
2026-01-08 12:07:07.97	249.41	17.77	-51.8	-53.6	14.6	0.00e+00	0	25	0	393216000	68	4760
2026-01-08 12:07:08.98	249.62	17.82	-51.7	-53.5	14.7	0.00e+00	0	25	0	395313152	68	4726
2026-01-08 12:07:09.99	249.83	17.88	-51.8	-53.5	14.7	0.00e+00	0	24	0	397410304	68	4755
2026-01-08 12:07:10.99	250.04	17.93	-51.8	-53.6	14.6	0.00e+00	0	25	0	399507456	68	4779
2026-01-08 12:07:12.00	250.25	17.99	-51.8	-53.6	14.7	0.00e+00	0	24	0	400556032	68	4766
2026-01-08 12:07:13.01	250.46	18.04	-51.8	-53.6	14.6	0.00e+00	0	24	0	402653184	68	4775
2026-01-08 12:07:14.01	250.67	18.09	-51.8	-53.6	14.6	0.00e+00	0	24	0	404750336	68	4774
2026-01-08 12:07:15.02	250.88	18.15	-51.8	-53.7	14.6	0.00e+00	0	24	0	406847488	68	4817
2026-01-08 12:07:16.03	251.10	18.20	-51.9	-53.7	14.6	0.00e+00	0	24	0	408944640	68	4864
2026-01-08 12:07:17.03	251.31	18.25	-52.0	-53.9	14.6	0.00e+00	0	25	0	409993216	69	4688
2026-01-08 12:07:18.04	251.53	18.31	-52.1	-53.9	14.6	0.00e+00	0	25	0	412090368	69	4701
2026-01-08 12:07:19.05	251.74	18.36	-52.2	-54.0	14.6	0.00e+00	0	25	0	414187520	69	4757
2026-01-08 12:07:20.06	251.96	18.41	-52.2	-54.1	14.5	0.00e+00	0	24	0	416284672	69	4787
2026-01-08 12:07:21.06	252.18	18.46	-52.3	-54.2	14.5	0.00e+00	0	24	0	417333248	69	4863
2026-01-08 12:07:22.08	252.40	18.52	-52.4	-54.4	14.5	0.00e+00	0	25	0	419430400	70	4655
2026-01-08 12:07:23.08	252.61	18.57	-52.5	-54.5	14.5	0.00e+00	0	24	0	421527552	70	4747
2026-01-08 12:07:24.09	252.83	18.62	-52.5	-54.5	14.5	0.00e+00	0	25	0	423624704	70	4758
2026-01-08 12:07:25.10	253.05	18.67	-52.7	-54.7	14.4	0.00e+00	0	24	0	425721856	70	4858
2026-01-08 12:07:26.11	253.28	18.72	-52.8	-54.8	14.3	0.00e+00	0	24	0	427819008	70	4910
2026-01-08 12:07:27.12	253.50	18.77	-52.7	-54.8	14.3	0.00e+00	0	24	0	428867584	70	4889
2026-01-08 12:07:28.12	253.72	18.82	-52.9	-55.0	14.2	0.00e+00	0	25	0	430964736	70	5008
2026-01-08 12:07:29.13	253.94	18.87	-52.9	-55.1	14.2	0.00e+00	0	24	0	433061888	70	5049
2026-01-08 12:07:30.14	254.17	18.92	-53.0	-55.2	14.2	0.00e+00	0	25	0	435159040	71	4821
2026-01-08 12:07:31.15	254.39	18.97	-53.0	-55.2	14.3	0.00e+00	0	24	0	437256192	71	4828
2026-01-08 12:07:32.16	254.62	19.02	-53.0	-55.2	14.3	0.00e+00	0	25	0	438304768	71	4842
2026-01-08 12:07:33.17	254.84	19.07	-53.1	-55.2	14.2	0.00e+00	0	24	0	440401920	71	4861
2026-01-08 12:07:34.18	255.07	19.11	-53.2	-55.3	14.2	0.00e+00	0	24	0	442499072	71	4925
2026-01-08 12:07:35.18	255.30	19.16	-53.1	-55.3	14.2	0.00e+00	0	25	0	444596224	71	4914
2026-01-08 12:07:36.18	255.52	19.21	-53.2	-55.4	14.1	0.00e+00	0	25	0	446693376	71	4954
2026-01-08 12:07:37.19	255.75	19.26	-53.3	-55.5	14.1	0.00e+00	0	25	0	447741952	71	5012
2026-01-08 12:07:38.20	255.98	19.30	-53.3	-55.6	14.1	0.00e+00	0	25	0	449839104	71	5044
2026-01-08 12:07:39.21	256.21	19.35	-53.4	-55.7	14.0	0.00e+00	0	24	0	451936256	71	5104
2026-01-08 12:07:40.22	256.45	19.39	-53.3	-55.5	14.1	0.00e+00	0	25	0	454033408	71	5008
2026-01-08 12:07:41.23	256.68	19.44	-53.3	-55.5	14.1	0.00e+00	0	24	0	456130560	71	5021
2026-01-08 12:07:42.23	256.91	19.48	-53.2	-55.4	14.2	0.00e+00	0	25	0	457179136	71	4946
2026-01-08 12:07:43.24	257.14	19.53	-52.8	-54.9	14.4	0.00e+00	0	25	0	459276288	71	4685
2026-01-08 12:07:44.25	257.37	19.57	-52.7	-54.8	14.5	0.00e+00	0	24	0	461373440	71	4606
2026-01-08 12:07:45.26	257.61	19.62	-52.8	-54.8	14.5	0.00e+00	0	24	0	463470592	71	4641
2026-01-08 12:07:46.27	257.84	19.66	-52.8	-54.8	14.5	0.00e+00	0	25	0	465567744	71	4627
2026-01-08 12:07:47.28	258.08	19.71	-52.8	-54.8	14.4	0.00e+00	0	25	0	466616320	71	4632
2026-01-08 12:07:48.29	258.32	19.75	-52.9	-55.0	14.4	0.00e+00	0	25	0	468713472	71	4713
2026-01-08 12:07:49.30	258.55	19.79	-52.9	-54.9	14.4	0.00e+00	0	25	0	470810624	71	4700
2026-01-08 12:07:50.31	258.79	19.83	-52.9	-55.0	14.4	0.00e+00	0	25	0	472907776	71	4716
2026-01-08 12:07:51.31	259.03	19.87	-53.0	-55.1	14.3	0.00e+00	0	25	0	475004928	71	4775
2026-01-08 12:07:52.32	259.27	19.92	-52.9	-55.0	14.4	0.00e+00	0	25	0	476053504	71	4709
2026-01-08 12:07:53.33	259.51	19.96	-52.8	-54.9	14.4	0.00e+00	0	24	0	478150656	71	4674
2026-01-08 12:07:54.34	259.75	20.00	-52.8	-54.8	14.4	0.00e+00	0	25	0	480247808	71	4642
2026-01-08 12:07:55.34	259.99	20.04	-52.8	-54.8	14.5	0.00e+00	0	24	0	482344960	71	4634
2026-01-08 12:07:56.35	260.23	20.08	-52.7	-54.7	14.5	0.00e+00	0	25	0	484442112	71	4562
2026-01-08 12:07:57.36	260.47	20.11	-52.7	-54.8	14.5	0.00e+00	0	25	0	485490688	71	4610
2026-01-08 12:07:58.37	260.71	20.15	-52.6	-54.6	14.6	0.00e+00	0	24	0	487587840	71	4543
2026-01-08 12:07:59.38	260.96	20.19	-52.7	-54.7	14.5	0.00e+00	0	25	0	489684992	71	4589
2026-01-08 12:08:00.38	261.20	20.23	-52.7	-54.7	14.6	0.00e+00	0	25	0	491782144	71	4546
2026-01-08 12:08:01.40	261.44	20.27	-52.7	-54.7	14.5	0.00e+00	0	25	0	493879296	71	4593
2026-01-08 12:08:02.40	261.69	20.30	-52.7	-54.7	14.6	0.00e+00	0	24	0	494927872	71	4551
2026-01-08 12:08:03.41	261.93	20.34	-52.8	-54.8	14.5	0.00e+00	0	24	0	497025024	71	4639
2026-01-08 12:08:04.42	262.18	20.37	-52.7	-54.8	14.5	0.00e+00	0	25	0	499122176	71	4601
2026-01-08 12:08:05.42	262.42	20.41	-52.8	-54.8	14.5	0.00e+00	0	25	0	501219328	71	4644
2026-01-08 12:08:06.42	262.67	20.44	-52.8	-54.9	14.4	0.00e+00	0	25	0	503316480	71	4670
2026-01-08 12:08:07.43	262.92	20.48	-52.9	-55.0	14.4	0.00e+00	0	25	0	504365056	71	4733
2026-01-08 12:08:08.44	263.16	20.51	-52.6	-54.6	14.5	0.00e+00	0	25	0	506462208	71	4534
2026-01-08 12:08:09.44	263.41	20.55	-52.6	-54.6	14.6	0.00e+00	0	25	0	508559360	71	4518
2026-01-08 12:08:10.45	263.66	20.58	-52.4	-54.3	14.7	0.00e+00	0	25	0	510656512	71	4380
2026-01-08 12:08:11.46	263.91	20.61	-52.4	-54.3	14.8	0.00e+00	0	25	0	512753664	71	4350
2026-01-08 12:08:12.47	264.16	20.64	-52.3	-54.3	14.8	0.00e+00	0	25	0	513802240	71	4342
2026-01-08 12:08:13.47	264.41	20.67	-52.2	-54.1	14.9	0.00e+00	0	24	0	515899392	71	4252
2026-01-08 12:08:14.48	264.66	20.71	-52.1	-53.9	14.8	0.00e+00	0	25	0	517996544	70	4412
2026-01-08 12:08:15.49	264.91	20.74	-52.1	-54.0	14.7	0.00e+00	0	24	0	520093696	70	4465
2026-01-08 12:08:16.50	265.16	20.77	-52.2	-54.1	14.7	0.00e+00	0	24	0	522190848	70	4498
2026-01-08 12:08:17.51	265.42	20.80	-52.3	-54.2	14.7	0.00e+00	0	24	0	523239424	70	4561
2026-01-08 12:08:18.52	265.67	20.82	-52.3	-54.2	14.6	0.00e+00	0	24	0	525336576	70	4569
2026-01-08 12:08:19.53	265.92	20.85	-52.3	-54.2	14.7	0.00e+00	0	24	0	527433728	70	4569
2026-01-08 12:08:20.54	266.18	20.88	-52.4	-54.3	14.6	0.00e+00	0	24	0	529530880	70	4601
2026-01-08 12:08:21.55	266.43	20.91	-52.3	-54.2	14.6	0.00e+00	0	25	0	531628032	70	4571
2026-01-08 12:08:22.56	266.69	20.93	-52.0	-53.8	14.8	0.00e+00	0	24	0	532676608	70	4387
2026-01-08 12:08:23.56	266.94	20.96	-52.0	-53.8	14.8	0.00e+00	0	25	0	534773760	70	4382
2026-01-08 12:08:24.56	267.19	20.99	-52.0	-53.8	14.9	0.00e+00	0	25	0	536870912	70	4361
2026-01-08 12:08:25.56	267.45	21.01	-52.0	-53.7	14.9	0.00e+00	0	25	0	538968064	70	4334
2026-01-08 12:08:26.57	267.70	21.04	-52.0	-53.8	14.9	0.00e+00	0	25	0	541065216	70	4343
2026-01-08 12:08:27.57	267.96	21.06	-51.9	-53.7	14.9	0.00e+00	0	25	0	542113792	70	4315
2026-01-08 12:08:28.57	268.21	21.08	-51.9	-53.6	15.0	0.00e+00	0	24	0	544210944	70	4272
2026-01-08 12:08:29.58	268.47	21.11	-51.9	-53.7	14.9	0.00e+00	0	25	0	546308096	70	4326
2026-01-08 12:08:30.58	268.73	21.13	-52.1	-53.9	14.8	0.00e+00	0	24	0	548405248	70	4403
2026-01-08 12:08:31.59	268.99	21.15	-52.1	-53.9	14.8	0.00e+00	0	25	0	550502400	70	4405
2026-01-08 12:08:32.59	269.24	21.17	-52.1	-54.0	14.8	0.00e+00	0	25	0	551550976	70	4444
2026-01-08 12:08:33.60	269.50	21.19	-52.2	-54.1	14.7	0.00e+00	0	25	0	553648128	70	4516
2026-01-08 12:08:34.61	269.76	21.21	-52.1	-54.0	14.8	0.00e+00	0	25	0	555745280	70	4460
2026-01-08 12:08:35.62	270.02	21.23	-52.3	-54.2	14.7	0.00e+00	0	25	0	557842432	70	4566
2026-01-08 12:08:36.63	270.28	21.25	-52.3	-54.2	14.7	0.00e+00	0	25	0	559939584	70	4562
2026-01-08 12:08:37.64	270.54	21.27	-52.5	-54.4	14.6	0.00e+00	0	24	0	560988160	70	4672
2026-01-08 12:08:38.65	270.80	21.29	-52.5	-54.4	14.6	0.00e+00	0	24	0	563085312	70	4683
2026-01-08 12:08:39.66	271.06	21.30	-52.6	-54.6	14.4	0.00e+00	0	24	0	565182464	70	4790
2026-01-08 12:08:40.66	271.32	21.32	-52.7	-54.7	14.4	0.00e+00	0	25	0	567279616	70	4867
2026-01-08 12:08:41.67	271.58	21.34	-52.8	-54.8	14.4	0.00e+00	0	24	0	569376768	70	4885
2026-01-08 12:08:42.68	271.85	21.35	-52.8	-54.9	14.3	0.00e+00	0	25	0	570425344	70	4949
2026-01-08 12:08:43.68	272.11	21.37	-52.8	-54.9	14.3	0.00e+00	0	24	0	572522496	70	4933
2026-01-08 12:08:44.69	272.37	21.38	-52.8	-54.9	14.3	0.00e+00	0	25	0	574619648	70	4929
2026-01-08 12:08:45.70	272.63	21.40	-52.9	-55.0	14.3	0.00e+00	0	24	0	576716800	70	5003
2026-01-08 12:08:46.71	272.89	21.41	-52.6	-54.6	14.5	0.00e+00	0	25	0	578813952	70	4772
2026-01-08 12:08:47.72	273.16	21.42	-52.3	-54.1	14.7	0.00e+00	0	25	0	579862528	70	4535
2026-01-08 12:08:48.73	273.42	21.43	-52.1	-54.0	14.8	0.00e+00	0	25	0	581959680	70	4461
2026-01-08 12:08:49.73	273.68	21.44	-52.1	-54.0	14.8	0.00e+00	0	24	0	584056832	70	4446
2026-01-08 12:08:50.74	273.94	21.46	-52.2	-54.1	14.7	0.00e+00	0	24	0	586153984	70	4505
2026-01-08 12:08:51.74	274.21	21.47	-52.3	-54.1	14.7	0.00e+00	0	25	0	588251136	70	4544
2026-01-08 12:08:52.75	274.47	21.47	-52.6	-54.5	14.5	0.00e+00	0	24	0	589299712	70	4758
2026-01-08 12:08:53.76	274.73	21.48	-52.7	-54.7	14.4	0.00e+00	0	24	0	591396864	70	4850
2026-01-08 12:08:54.76	275.00	21.49	-52.8	-54.9	14.3	0.00e+00	0	25	0	593494016	70	4941
2026-01-08 12:08:55.77	275.26	21.50	-52.9	-55.0	14.4	0.00e+00	0	25	0	595591168	71	4718
2026-01-08 12:08:56.77	275.52	21.51	-52.9	-55.0	14.4	0.00e+00	0	25	0	597688320	71	4722
2026-01-08 12:08:57.78	275.79	21.51	-52.9	-54.9	14.4	0.00e+00	0	25	0	598736896	71	4692
2026-01-08 12:08:58.79	276.05	21.52	-52.9	-54.9	14.5	0.00e+00	0	25	0	600834048	71	4670
2026-01-08 12:08:59.80	276.32	21.52	-52.6	-54.5	14.6	0.00e+00	0	25	0	602931200	71	4474
2026-01-08 12:09:00.81	276.58	21.53	-52.6	-54.5	14.7	0.00e+00	0	25	0	605028352	71	4470
2026-01-08 12:09:01.82	276.85	21.53	-52.5	-54.4	14.7	0.00e+00	0	25	0	607125504	71	4423
2026-01-08 12:09:02.83	277.11	21.54	-52.7	-54.7	14.6	0.00e+00	0	25	0	608174080	71	4579
2026-01-08 12:09:03.84	277.38	21.54	-52.8	-54.9	14.5	0.00e+00	0	25	0	610271232	71	4669
2026-01-08 12:09:04.85	277.64	21.54	-52.9	-54.9	14.5	0.00e+00	0	25	0	612368384	71	4671
2026-01-08 12:09:05.85	277.90	21.54	-52.9	-55.0	14.4	0.00e+00	0	25	0	614465536	71	4725
2026-01-08 12:09:06.86	278.17	21.55	-52.9	-55.0	14.4	0.00e+00	0	25	0	616562688	71	4730
2026-01-08 12:09:07.87	278.43	21.55	-52.9	-55.0	14.4	0.00e+00	0	25	0	617611264	71	4708
2026-01-08 12:09:08.88	278.70	21.55	-52.8	-54.9	14.4	0.00e+00	0	24	0	619708416	71	4657
2026-01-08 12:09:09.89	278.96	21.54	-52.8	-54.8	14.5	0.00e+00	0	25	0	621805568	71	4602
2026-01-08 12:09:10.90	279.23	21.54	-52.8	-54.8	14.5	0.00e+00	0	25	0	623902720	71	4638
2026-01-08 12:09:11.91	279.49	21.54	-52.6	-54.5	14.6	0.00e+00	0	24	0	625999872	71	4484
2026-01-08 12:09:12.92	279.76	21.54	-52.4	-54.3	14.8	0.00e+00	0	25	0	627048448	71	4380
2026-01-08 12:09:13.93	280.02	21.54	-52.1	-54.0	14.9	0.00e+00	0	25	0	629145600	70	4444
2026-01-08 12:09:14.94	280.29	21.53	-52.1	-53.9	14.8	0.00e+00	0	25	0	631242752	70	4419
2026-01-08 12:09:15.94	280.55	21.53	-52.0	-53.8	14.9	0.00e+00	0	25	0	633339904	70	4363
2026-01-08 12:09:16.95	280.81	21.52	-52.0	-53.8	14.8	0.00e+00	0	25	0	635437056	70	4382
2026-01-08 12:09:17.96	281.08	21.52	-52.1	-53.9	14.8	0.00e+00	0	25	0	637534208	70	4426
2026-01-08 12:09:18.97	281.34	21.51	-52.3	-54.2	14.7	0.00e+00	0	25	0	638582784	70	4572
2026-01-08 12:09:19.98	281.61	21.50	-52.4	-54.3	14.6	0.00e+00	0	25	0	640679936	70	4616
2026-01-08 12:09:20.98	281.87	21.50	-52.5	-54.4	14.6	0.00e+00	0	25	0	642777088	70	4666
2026-01-08 12:09:21.98	282.13	21.49	-52.6	-54.5	14.5	0.00e+00	0	25	0	644874240	70	4738
2026-01-08 12:09:22.99	282.40	21.48	-52.7	-54.7	14.4	0.00e+00	0	25	0	646971392	70	4846
2026-01-08 12:09:24.00	282.66	21.47	-52.9	-54.9	14.3	0.00e+00	0	25	0	648019968	70	4952
2026-01-08 12:09:25.01	282.92	21.46	-52.9	-55.0	14.4	0.00e+00	0	25	0	650117120	71	4716
2026-01-08 12:09:26.01	283.18	21.45	-52.9	-54.9	14.5	0.00e+00	0	25	0	652214272	71	4674
2026-01-08 12:09:27.02	283.45	21.44	-52.9	-54.9	14.4	0.00e+00	0	25	0	654311424	71	4701
2026-01-08 12:09:28.02	283.71	21.43	-52.8	-54.8	14.5	0.00e+00	0	25	0	655360000	71	4633
2026-01-08 12:09:29.03	283.97	21.41	-52.9	-54.9	14.4	0.00e+00	0	25	0	657457152	71	4683
2026-01-08 12:09:30.04	284.23	21.40	-52.9	-54.9	14.5	0.00e+00	0	25	0	659554304	71	4669
2026-01-08 12:09:31.05	284.50	21.39	-52.9	-55.0	14.4	0.00e+00	0	25	0	661651456	71	4714
2026-01-08 12:09:32.05	284.76	21.37	-52.8	-54.8	14.5	0.00e+00	0	24	0	663748608	71	4640
2026-01-08 12:09:33.06	285.02	21.36	-52.8	-54.7	14.5	0.00e+00	0	25	0	665845760	71	4595
2026-01-08 12:09:34.07	285.28	21.34	-52.7	-54.7	14.5	0.00e+00	0	25	0	666894336	71	4568
2026-01-08 12:09:35.08	285.54	21.33	-52.8	-54.8	14.5	0.00e+00	0	24	0	668991488	71	4616
2026-01-08 12:09:36.08	285.80	21.31	-53.0	-55.0	14.3	0.00e+00	0	25	0	671088640	71	4750
2026-01-08 12:09:37.09	286.06	21.30	-53.0	-55.0	14.4	0.00e+00	0	25	0	673185792	71	4742
2026-01-08 12:09:38.10	286.32	21.28	-53.1	-55.1	14.3	0.00e+00	0	25	0	675282944	71	4813
2026-01-08 12:09:39.11	286.58	21.26	-52.9	-55.0	14.4	0.00e+00	0	25	0	676331520	71	4713
2026-01-08 12:09:40.11	286.84	21.24	-52.8	-54.7	14.5	0.00e+00	0	25	0	678428672	71	4594
2026-01-08 12:09:41.12	287.10	21.22	-52.8	-54.7	14.6	0.00e+00	0	25	0	680525824	71	4579
2026-01-08 12:09:42.13	287.36	21.20	-52.6	-54.6	14.6	0.00e+00	0	25	0	682622976	71	4513
2026-01-08 12:09:43.14	287.62	21.18	-52.6	-54.5	14.7	0.00e+00	0	25	0	684720128	71	4442
2026-01-08 12:09:44.15	287.88	21.16	-52.5	-54.3	14.8	0.00e+00	0	25	0	685768704	71	4374
2026-01-08 12:09:45.15	288.13	21.14	-52.5	-54.4	14.7	0.00e+00	0	25	0	687865856	71	4405
2026-01-08 12:09:46.16	288.39	21.12	-52.5	-54.4	14.7	0.00e+00	0	25	0	689963008	71	4426
2026-01-08 12:09:47.17	288.65	21.09	-52.6	-54.4	14.7	0.00e+00	0	25	0	692060160	71	4440
2026-01-08 12:09:48.18	288.90	21.07	-52.5	-54.4	14.7	0.00e+00	0	25	0	694157312	71	4432
2026-01-08 12:09:49.19	289.16	21.05	-52.5	-54.3	14.8	0.00e+00	0	25	0	695205888	71	4384
2026-01-08 12:09:50.20	289.42	21.02	-52.4	-54.2	14.8	0.00e+00	0	25	0	697303040	71	4331
2026-01-08 12:09:51.20	289.67	21.00	-52.3	-54.2	14.9	0.00e+00	0	25	0	699400192	71	4307
2026-01-08 12:09:52.21	289.93	20.97	-52.4	-54.3	14.8	0.00e+00	0	25	0	701497344	71	4358
2026-01-08 12:09:53.22	290.18	20.95	-52.2	-54.0	14.9	0.00e+00	0	25	0	703594496	71	4225
2026-01-08 12:09:54.23	290.44	20.92	-52.1	-54.0	14.8	0.00e+00	0	25	0	704643072	70	4443
2026-01-08 12:09:55.24	290.69	20.89	-52.1	-53.9	14.8	0.00e+00	0	25	0	706740224	70	4431
2026-01-08 12:09:56.25	290.94	20.87	-52.1	-53.9	14.8	0.00e+00	0	25	0	708837376	70	4439
2026-01-08 12:09:57.26	291.20	20.84	-52.0	-53.7	14.9	0.00e+00	0	25	0	710934528	70	4328
2026-01-08 12:09:58.26	291.45	20.81	-52.0	-53.7	14.9	0.00e+00	0	25	0	713031680	70	4339
2026-01-08 12:09:59.27	291.70	20.78	-51.9	-53.6	15.0	0.00e+00	0	25	0	714080256	70	4273
2026-01-08 12:10:00.28	291.95	20.75	-51.9	-53.6	15.0	0.00e+00	0	25	0	716177408	70	4254
2026-01-08 12:10:01.29	292.20	20.72	-52.0	-53.7	14.9	0.00e+00	0	25	0	718274560	70	4315
2026-01-08 12:10:02.30	292.46	20.69	-52.0	-53.8	14.9	0.00e+00	0	25	0	720371712	70	4380
2026-01-08 12:10:03.31	292.71	20.66	-52.2	-54.1	14.8	0.00e+00	0	25	0	722468864	70	4496
2026-01-08 12:10:04.32	292.96	20.63	-52.3	-54.2	14.7	0.00e+00	0	25	0	723517440	70	4574
2026-01-08 12:10:05.32	293.20	20.60	-52.3	-54.1	14.7	0.00e+00	0	25	0	725614592	70	4518
2026-01-08 12:10:06.33	293.45	20.56	-52.2	-54.1	14.8	0.00e+00	0	24	0	727711744	70	4496
2026-01-08 12:10:07.34	293.70	20.53	-52.0	-53.8	14.9	0.00e+00	0	25	0	729808896	70	4364
2026-01-08 12:10:08.35	293.95	20.50	-51.9	-53.6	15.0	0.00e+00	0	25	0	731906048	70	4280
2026-01-08 12:10:09.36	294.20	20.46	-51.8	-53.5	15.0	0.00e+00	0	24	0	732954624	70	4216
2026-01-08 12:10:10.37	294.44	20.43	-51.7	-53.4	15.1	0.00e+00	0	25	0	735051776	70	4178
2026-01-08 12:10:11.38	294.69	20.39	-51.6	-53.3	15.0	0.00e+00	0	25	0	737148928	69	4342
2026-01-08 12:10:12.38	294.93	20.36	-51.3	-52.9	15.2	0.00e+00	0	24	0	739246080	69	4163
2026-01-08 12:10:13.39	295.18	20.32	-51.0	-52.5	15.2	0.00e+00	0	24	0	741343232	68	4230
2026-01-08 12:10:14.40	295.42	20.28	-50.8	-52.4	15.2	0.00e+00	0	25	0	742391808	68	4148
2026-01-08 12:10:15.41	295.67	20.25	-50.8	-52.4	15.3	0.00e+00	0	24	0	744488960	68	4149
2026-01-08 12:10:16.42	295.91	20.21	-50.9	-52.4	15.2	0.00e+00	0	25	0	746586112	68	4179
2026-01-08 12:10:17.43	296.15	20.17	-51.0	-52.5	15.2	0.00e+00	0	25	0	748683264	68	4229
2026-01-08 12:10:18.44	296.40	20.13	-51.1	-52.7	15.1	0.00e+00	0	25	0	750780416	68	4325
2026-01-08 12:10:19.44	296.64	20.10	-51.2	-52.8	15.0	0.00e+00	0	25	0	751828992	68	4389
2026-01-08 12:10:20.45	296.88	20.06	-51.3	-53.0	14.9	0.00e+00	0	24	0	753926144	68	4465
2026-01-08 12:10:21.46	297.12	20.02	-51.4	-53.1	14.9	0.00e+00	0	25	0	756023296	68	4508
2026-01-08 12:10:22.47	297.36	19.98	-51.3	-53.0	14.9	0.00e+00	0	25	0	758120448	68	4468
2026-01-08 12:10:23.48	297.60	19.94	-51.4	-53.0	14.9	0.00e+00	0	25	0	760217600	68	4469
2026-01-08 12:10:24.49	297.84	19.90	-51.4	-53.1	14.9	0.00e+00	0	25	0	762314752	68	4500
2026-01-08 12:10:25.49	298.07	19.86	-51.3	-52.9	15.0	0.00e+00	0	25	0	763363328	68	4431
2026-01-08 12:10:26.50	298.31	19.81	-51.2	-52.9	15.0	0.00e+00	0	25	0	765460480	68	4399
2026-01-08 12:10:27.50	298.54	19.77	-51.2	-52.9	15.0	0.00e+00	0	25	0	767557632	68	4395
2026-01-08 12:10:28.51	298.78	19.73	-51.1	-52.7	15.1	0.00e+00	0	25	0	769654784	68	4331
2026-01-08 12:10:29.51	299.01	19.69	-51.1	-52.7	15.1	0.00e+00	0	25	0	770703360	68	4329
2026-01-08 12:10:30.52	299.25	19.64	-51.1	-52.7	15.1	0.00e+00	0	25	0	772800512	68	4297
2026-01-08 12:10:31.53	299.48	19.60	-50.9	-52.4	15.2	0.00e+00	0	25	0	774897664	68	4184
2026-01-08 12:10:32.54	299.72	19.56	-50.9	-52.4	15.2	0.00e+00	0	25	0	776994816	68	4190
2026-01-08 12:10:33.55	299.95	19.51	-50.5	-52.0	15.2	0.00e+00	0	24	0	779091968	67	4228
2026-01-08 12:10:34.56	300.18	19.47	-50.3	-51.7	15.3	0.00e+00	0	24	0	780140544	67	4097
2026-01-08 12:10:35.57	300.41	19.42	-50.2	-51.7	15.4	0.00e+00	0	25	0	782237696	67	4055
2026-01-08 12:10:36.58	300.64	19.38	-50.3	-51.8	15.3	0.00e+00	0	25	0	784334848	67	4136
2026-01-08 12:10:37.59	300.87	19.33	-50.3	-51.8	15.3	0.00e+00	0	25	0	786432000	67	4111
2026-01-08 12:10:38.60	301.10	19.28	-50.3	-51.8	15.3	0.00e+00	0	25	0	788529152	67	4138
2026-01-08 12:10:39.60	301.33	19.24	-50.5	-52.0	15.2	0.00e+00	0	25	0	790626304	67	4213
2026-01-08 12:10:40.61	301.56	19.19	-50.5	-52.0	15.2	0.00e+00	0	25	0	791674880	67	4236
2026-01-08 12:10:41.62	301.78	19.14	-50.6	-52.1	15.2	0.00e+00	0	25	0	793772032	67	4282
2026-01-08 12:10:42.61	302.01	19.10	-50.8	-52.4	15.0	0.00e+00	0	25	0	795869184	67	4407
2026-01-08 12:10:43.62	302.23	19.05	-50.9	-52.4	15.0	0.00e+00	0	25	0	797966336	67	4441
2026-01-08 12:10:44.63	302.46	19.00	-51.0	-52.6	15.0	0.00e+00	0	25	0	800063488	67	4521
2026-01-08 12:10:45.64	302.68	18.95	-51.0	-52.6	14.9	0.00e+00	0	24	0	801112064	67	4536
2026-01-08 12:10:46.65	302.91	18.90	-51.1	-52.7	14.9	0.00e+00	0	25	0	803209216	67	4579
2026-01-08 12:10:47.66	303.13	18.85	-51.0	-52.6	14.9	0.00e+00	0	25	0	805306368	67	4535
2026-01-08 12:10:48.66	303.35	18.80	-51.0	-52.6	14.9	0.00e+00	0	25	0	807403520	67	4521
2026-01-08 12:10:49.67	303.57	18.75	-51.1	-52.7	14.9	0.00e+00	0	25	0	808452096	67	4574
2026-01-08 12:10:50.68	303.79	18.70	-51.0	-52.7	14.9	0.00e+00	0	24	0	810549248	67	4557
2026-01-08 12:10:51.69	304.01	18.65	-51.1	-52.8	14.9	0.00e+00	0	25	0	812646400	67	4631
2026-01-08 12:10:52.69	304.23	18.60	-51.1	-52.8	14.9	0.00e+00	0	25	0	814743552	67	4614
2026-01-08 12:10:53.70	304.45	18.55	-51.2	-52.9	14.8	0.00e+00	0	24	0	816840704	67	4671
2026-01-08 12:10:54.71	304.67	18.50	-51.3	-53.0	14.7	0.00e+00	0	25	0	818937856	67	4730
2026-01-08 12:10:55.72	304.89	18.45	-51.2	-52.8	14.8	0.00e+00	0	25	0	819986432	67	4638
2026-01-08 12:10:56.73	305.10	18.40	-51.1	-52.8	14.9	0.00e+00	0	25	0	822083584	67	4617
2026-01-08 12:10:57.73	305.32	18.34	-51.3	-53.0	14.8	0.00e+00	0	24	0	824180736	67	4724
2026-01-08 12:10:58.74	305.53	18.29	-51.7	-53.4	14.7	0.00e+00	0	25	0	826277888	68	4674
2026-01-08 12:10:59.75	305.75	18.24	-51.8	-53.6	14.7	0.00e+00	0	25	0	828375040	68	4776
2026-01-08 12:11:00.76	305.96	18.18	-52.0	-53.8	14.7	0.00e+00	0	25	0	829423616	69	4606
2026-01-08 12:11:01.77	306.17	18.13	-52.1	-53.9	14.6	0.00e+00	0	25	0	831520768	69	4686
2026-01-08 12:11:02.77	306.39	18.08	-52.0	-53.9	14.6	0.00e+00	0	24	0	833617920	69	4659
2026-01-08 12:11:03.78	306.60	18.02	-52.2	-54.1	14.6	0.00e+00	0	25	0	835715072	69	4767
2026-01-08 12:11:04.78	306.81	17.97	-52.1	-54.0	14.6	0.00e+00	0	25	0	837812224	69	4723
2026-01-08 12:11:05.79	307.02	17.92	-52.2	-54.1	14.5	0.00e+00	0	25	0	838860800	69	4795
2026-01-08 12:11:06.80	307.23	17.86	-52.2	-54.1	14.6	0.00e+00	0	24	0	840957952	69	4790
2026-01-08 12:11:07.81	307.43	17.81	-52.4	-54.3	14.5	0.00e+00	0	25	0	843055104	69	4897
2026-01-08 12:11:08.82	307.64	17.75	-52.3	-54.3	14.5	0.00e+00	0	25	0	845152256	69	4878
2026-01-08 12:11:09.82	307.85	17.70	-52.4	-54.3	14.4	0.00e+00	0	25	0	847249408	69	4892
2026-01-08 12:11:10.83	308.05	17.64	-52.5	-54.4	14.5	0.00e+00	0	25	0	848297984	70	4704
2026-01-08 12:11:11.84	308.26	17.58	-52.5	-54.5	14.5	0.00e+00	0	25	0	850395136	70	4706
2026-01-08 12:11:12.84	308.46	17.53	-52.5	-54.5	14.5	0.00e+00	0	25	0	852492288	70	4706
2026-01-08 12:11:13.85	308.67	17.47	-52.5	-54.4	14.5	0.00e+00	0	25	0	854589440	70	4686
2026-01-08 12:11:14.86	308.87	17.42	-52.5	-54.5	14.5	0.00e+00	0	25	0	856686592	70	4710
2026-01-08 12:11:15.87	309.07	17.36	-52.4	-54.4	14.5	0.00e+00	0	25	0	857735168	70	4663
2026-01-08 12:11:16.88	309.28	17.30	-52.3	-54.2	14.7	0.00e+00	0	25	0	859832320	70	4554
2026-01-08 12:11:17.88	309.48	17.25	-52.2	-54.1	14.7	0.00e+00	0	25	0	861929472	70	4518
2026-01-08 12:11:18.88	309.67	17.19	-52.2	-54.1	14.7	0.00e+00	0	25	0	864026624	70	4529
2026-01-08 12:11:19.89	309.87	17.13	-52.3	-54.2	14.6	0.00e+00	0	25	0	866123776	70	4566
2026-01-08 12:11:20.90	310.07	17.07	-52.4	-54.3	14.6	0.00e+00	0	24	0	867172352	70	4649
2026-01-08 12:11:21.90	310.27	17.02	-52.4	-54.3	14.6	0.00e+00	0	25	0	869269504	70	4629
2026-01-08 12:11:22.91	310.47	16.96	-52.5	-54.4	14.5	0.00e+00	0	25	0	871366656	70	4672
2026-01-08 12:11:23.92	310.66	16.90	-52.5	-54.4	14.5	0.00e+00	0	25	0	873463808	70	4685
2026-01-08 12:11:24.93	310.86	16.84	-52.6	-54.5	14.5	0.00e+00	0	25	0	875560960	70	4759
2026-01-08 12:11:25.94	311.06	16.78	-52.5	-54.5	14.5	0.00e+00	0	25	0	876609536	70	4712
2026-01-08 12:11:26.95	311.25	16.72	-52.6	-54.6	14.5	0.00e+00	0	24	0	878706688	70	4760
2026-01-08 12:11:27.95	311.44	16.67	-52.5	-54.5	14.5	0.00e+00	0	25	0	880803840	70	4709
2026-01-08 12:11:28.96	311.64	16.61	-52.3	-54.2	14.6	0.00e+00	0	25	0	882900992	70	4547
2026-01-08 12:11:29.97	311.83	16.55	-52.2	-54.1	14.7	0.00e+00	0	25	0	884998144	70	4501
2026-01-08 12:11:30.98	312.02	16.49	-52.1	-54.0	14.8	0.00e+00	0	25	0	886046720	70	4444
2026-01-08 12:11:31.98	312.21	16.43	-52.0	-53.9	14.8	0.00e+00	0	25	0	888143872	70	4401
2026-01-08 12:11:32.99	312.40	16.37	-52.1	-54.0	14.8	0.00e+00	0	25	0	890241024	70	4456
2026-01-08 12:11:34.00	312.59	16.31	-51.9	-53.7	14.8	0.00e+00	0	25	0	892338176	70	4336
2026-01-08 12:11:35.00	312.78	16.25	-51.9	-53.7	14.9	0.00e+00	0	25	0	894435328	70	4298
2026-01-08 12:11:36.01	312.96	16.19	-51.9	-53.7	14.8	0.00e+00	0	25	0	895483904	70	4336
2026-01-08 12:11:37.02	313.15	16.13	-51.9	-53.7	14.9	0.00e+00	0	25	0	897581056	70	4312
2026-01-08 12:11:38.02	313.34	16.07	-51.9	-53.7	14.9	0.00e+00	0	25	0	899678208	70	4300
2026-01-08 12:11:39.03	313.52	16.01	-51.9	-53.7	14.9	0.00e+00	0	25	0	901775360	70	4319
2026-01-08 12:11:40.04	313.71	15.95	-52.0	-53.8	14.8	0.00e+00	0	25	0	903872512	70	4357
2026-01-08 12:11:41.05	313.89	15.89	-52.0	-53.9	14.8	0.00e+00	0	24	0	904921088	70	4406
2026-01-08 12:11:42.05	314.07	15.83	-52.1	-54.0	14.7	0.00e+00	0	24	0	907018240	70	4482
2026-01-08 12:11:43.06	314.26	15.77	-52.4	-54.3	14.6	0.00e+00	0	25	0	909115392	70	4621
2026-01-08 12:11:44.06	314.44	15.70	-52.5	-54.5	14.5	0.00e+00	0	24	0	911212544	70	4726
2026-01-08 12:11:45.07	314.62	15.64	-52.8	-55.0	14.2	0.00e+00	0	25	0	913309696	70	4987
2026-01-08 12:11:46.07	314.80	15.58	-52.9	-55.1	14.2	0.00e+00	0	24	0	914358272	70	5058
2026-01-08 12:11:47.07	314.97	15.52	-52.9	-55.1	14.3	0.00e+00	0	25	0	916455424	71	4765
2026-01-08 12:11:48.08	315.15	15.46	-52.7	-54.8	14.5	0.00e+00	0	25	0	918552576	71	4614
2026-01-08 12:11:49.09	315.33	15.40	-52.5	-54.5	14.6	0.00e+00	0	25	0	920649728	71	4445
2026-01-08 12:11:50.09	315.51	15.34	-52.3	-54.2	14.8	0.00e+00	0	25	0	922746880	71	4338
2026-01-08 12:11:51.10	315.69	15.28	-52.2	-54.1	14.8	0.00e+00	0	25	0	923795456	71	4280
2026-01-08 12:11:52.11	315.86	15.21	-52.0	-53.8	14.8	0.00e+00	0	25	0	925892608	70	4368
2026-01-08 12:11:53.12	316.04	15.15	-51.9	-53.7	14.9	0.00e+00	0	25	0	927989760	70	4332
2026-01-08 12:11:54.13	316.21	15.09	-52.0	-53.8	14.8	0.00e+00	0	25	0	930086912	70	4354
2026-01-08 12:11:55.13	316.39	15.03	-52.1	-53.9	14.7	0.00e+00	0	25	0	932184064	70	4425
2026-01-08 12:11:56.15	316.56	14.96	-52.1	-54.0	14.7	0.00e+00	0	25	0	933232640	70	4462
2026-01-08 12:11:57.15	316.73	14.90	-52.2	-54.1	14.6	0.00e+00	0	24	0	935329792	70	4527
2026-01-08 12:11:58.16	316.90	14.84	-52.2	-54.2	14.6	0.00e+00	0	25	0	937426944	70	4557
2026-01-08 12:11:59.17	317.08	14.78	-52.2	-54.1	14.7	0.00e+00	0	25	0	939524096	70	4499
2026-01-08 12:12:00.18	317.25	14.71	-52.1	-54.0	14.7	0.00e+00	0	25	0	941621248	70	4449
2026-01-08 12:12:01.18	317.42	14.65	-52.0	-53.9	14.8	0.00e+00	0	25	0	942669824	70	4395
2026-01-08 12:12:02.19	317.58	14.59	-52.0	-53.8	14.8	0.00e+00	0	25	0	944766976	70	4386
2026-01-08 12:12:03.20	317.75	14.53	-51.9	-53.7	14.9	0.00e+00	0	25	0	946864128	70	4334
2026-01-08 12:12:04.21	317.92	14.46	-51.9	-53.8	14.8	0.00e+00	0	25	0	948961280	70	4348
2026-01-08 12:12:05.21	318.09	14.40	-52.0	-53.9	14.8	0.00e+00	0	25	0	951058432	70	4425
2026-01-08 12:12:06.22	318.25	14.34	-52.1	-54.0	14.7	0.00e+00	0	25	0	952107008	70	4475
2026-01-08 12:12:07.23	318.42	14.28	-52.1	-54.0	14.7	0.00e+00	0	25	0	954204160	70	4488
2026-01-08 12:12:08.23	318.58	14.21	-52.1	-54.0	14.7	0.00e+00	0	25	0	956301312	70	4492
2026-01-08 12:12:09.24	318.75	14.15	-52.1	-54.0	14.7	0.00e+00	0	25	0	958398464	70	4482
2026-01-08 12:12:10.25	318.91	14.09	-52.1	-54.0	14.7	0.00e+00	0	24	0	960495616	70	4444
2026-01-08 12:12:11.26	319.08	14.02	-52.0	-53.8	14.8	0.00e+00	0	25	0	961544192	70	4389
2026-01-08 12:12:12.27	319.24	13.96	-51.7	-53.5	15.0	0.00e+00	0	25	0	963641344	70	4213
2026-01-08 12:12:13.27	319.40	13.90	-51.6	-53.3	14.9	0.00e+00	0	25	0	965738496	69	4387
2026-01-08 12:12:14.28	319.56	13.83	-51.6	-53.4	14.9	0.00e+00	0	25	0	967835648	69	4407
2026-01-08 12:12:15.29	319.72	13.77	-51.8	-53.6	14.8	0.00e+00	0	24	0	969932800	69	4500
2026-01-08 12:12:16.30	319.88	13.71	-51.9	-53.8	14.6	0.00e+00	0	25	0	970981376	69	4631
2026-01-08 12:12:17.30	320.04	13.64	-52.0	-53.9	14.6	0.00e+00	0	25	0	973078528	69	4697
2026-01-08 12:12:18.31	320.20	13.58	-52.1	-54.1	14.5	0.00e+00	0	24	0	975175680	69	4764
2026-01-08 12:12:19.32	320.35	13.52	-52.2	-54.2	14.5	0.00e+00	0	25	0	977272832	69	4826
2026-01-08 12:12:20.33	320.51	13.45	-52.1	-54.0	14.5	0.00e+00	0	25	0	979369984	69	4759
2026-01-08 12:12:21.34	320.67	13.39	-52.0	-53.9	14.6	0.00e+00	0	25	0	980418560	69	4669
2026-01-08 12:12:22.34	320.82	13.33	-51.8	-53.6	14.7	0.00e+00	0	25	0	982515712	69	4526
2026-01-08 12:12:23.35	320.98	13.26	-51.6	-53.3	14.9	0.00e+00	0	25	0	984612864	69	4383
2026-01-08 12:12:24.36	321.13	13.20	-51.6	-53.3	14.8	0.00e+00	0	25	0	986710016	69	4386
2026-01-08 12:12:25.37	321.29	13.13	-51.6	-53.3	14.9	0.00e+00	0	25	0	988807168	69	4390
2026-01-08 12:12:26.38	321.44	13.07	-51.6	-53.4	14.8	0.00e+00	0	25	0	989855744	69	4413
2026-01-08 12:12:27.39	321.59	13.01	-51.8	-53.6	14.7	0.00e+00	0	25	0	991952896	69	4520
2026-01-08 12:12:28.39	321.74	12.94	-52.0	-53.9	14.6	0.00e+00	0	25	0	994050048	69	4671
2026-01-08 12:12:29.40	321.90	12.88	-52.1	-54.0	14.5	0.00e+00	0	25	0	996147200	69	4734
2026-01-08 12:12:30.41	322.05	12.82	-52.3	-54.3	14.4	0.00e+00	0	25	0	998244352	69	4907
2026-01-08 12:12:31.41	322.20	12.75	-52.3	-54.3	14.5	0.00e+00	0	25	0	999292928	70	4647
2026-01-08 12:12:32.42	322.35	12.69	-52.3	-54.3	14.5	0.00e+00	0	25	0	1001390080	70	4633
2026-01-08 12:12:33.43	322.49	12.63	-52.2	-54.2	14.6	0.00e+00	0	25	0	1003487232	70	4565
2026-01-08 12:12:34.44	322.64	12.56	-52.3	-54.2	14.5	0.00e+00	0	25	0	1005584384	70	4596
2026-01-08 12:12:35.44	322.79	12.50	-52.1	-54.0	14.6	0.00e+00	0	25	0	1007681536	70	4482
2026-01-08 12:12:36.45	322.94	12.43	-52.1	-54.0	14.7	0.00e+00	0	25	0	1008730112	70	4456
2026-01-08 12:12:37.46	323.08	12.37	-52.2	-54.1	14.6	0.00e+00	0	25	0	1010827264	70	4521
2026-01-08 12:12:38.47	323.23	12.31	-52.2	-54.1	14.6	0.00e+00	0	25	0	1012924416	70	4540
2026-01-08 12:12:39.48	323.37	12.24	-52.3	-54.3	14.5	0.00e+00	0	25	0	1015021568	70	4635
2026-01-08 12:12:40.48	323.52	12.18	-52.4	-54.4	14.4	0.00e+00	0	25	0	1017118720	70	4672
2026-01-08 12:12:41.49	323.66	12.12	-52.5	-54.6	14.3	0.00e+00	0	25	0	1018167296	70	4792
2026-01-08 12:12:42.50	323.81	12.05	-52.6	-54.7	14.3	0.00e+00	0	25	0	1020264448	70	4816
2026-01-08 12:12:43.51	323.95	11.99	-52.5	-54.6	14.4	0.00e+00	0	25	0	1022361600	70	4774
2026-01-08 12:12:44.52	324.09	11.92	-52.5	-54.5	14.4	0.00e+00	0	25	0	1024458752	70	4752
2026-01-08 12:12:45.53	324.23	11.86	-52.6	-54.7	14.3	0.00e+00	0	25	0	1026555904	70	4828
2026-01-08 12:12:46.54	324.37	11.80	-52.3	-54.3	14.5	0.00e+00	0	24	0	1028653056	70	4599
2026-01-08 12:12:47.55	324.51	11.73	-52.2	-54.1	14.6	0.00e+00	0	25	0	1029701632	70	4535
2026-01-08 12:12:48.55	324.65	11.67	-52.2	-54.1	14.6	0.00e+00	0	25	0	1031798784	70	4526
2026-01-08 12:12:49.56	324.79	11.61	-52.2	-54.1	14.6	0.00e+00	0	25	0	1033895936	70	4522
2026-01-08 12:12:50.57	324.93	11.54	-52.1	-54.1	14.6	0.00e+00	0	25	0	1035993088	70	4526
2026-01-08 12:12:51.58	325.07	11.48	-52.1	-54.1	14.6	0.00e+00	0	25	0	1037041664	70	4494
2026-01-08 12:12:52.58	325.21	11.42	-52.2	-54.2	14.5	0.00e+00	0	25	0	1039138816	70	4578
2026-01-08 12:12:53.59	325.34	11.35	-52.4	-54.4	14.4	0.00e+00	0	24	0	1041235968	70	4687
2026-01-08 12:12:54.60	325.48	11.29	-52.5	-54.6	14.3	0.00e+00	0	25	0	1043333120	70	4785
2026-01-08 12:12:55.60	325.61	11.23	-52.6	-54.8	14.2	0.00e+00	0	25	0	1045430272	70	4873
2026-01-08 12:12:56.61	325.75	11.16	-52.7	-54.8	14.2	0.00e+00	0	25	0	1046478848	70	4901
2026-01-08 12:12:57.62	325.88	11.10	-52.7	-54.8	14.2	0.00e+00	0	25	0	1048576000	70	4926
2026-01-08 12:12:58.62	326.02	11.04	-52.7	-54.9	14.1	0.00e+00	0	25	0	1050673152	70	4957
2026-01-08 12:12:59.63	326.15	10.97	-52.8	-54.9	14.1	0.00e+00	0	25	0	1052770304	70	4981
2026-01-08 12:13:00.64	326.28	10.91	-52.7	-54.8	14.2	0.00e+00	0	25	0	1054867456	70	4919
2026-01-08 12:13:01.65	326.42	10.85	-52.5	-54.6	14.3	0.00e+00	0	25	0	1056964608	70	4787
2026-01-08 12:13:02.65	326.55	10.78	-52.4	-54.5	14.4	0.00e+00	0	25	0	1058013184	70	4728
2026-01-08 12:13:03.66	326.68	10.72	-52.4	-54.5	14.4	0.00e+00	0	24	0	1060110336	70	4724
2026-01-08 12:13:04.67	326.81	10.66	-52.5	-54.6	14.3	0.00e+00	0	25	0	1062207488	70	4763
2026-01-08 12:13:05.67	326.94	10.59	-52.5	-54.6	14.3	0.00e+00	0	25	0	1064304640	70	4775
2026-01-08 12:13:06.67	327.07	10.53	-52.6	-54.7	14.2	0.00e+00	0	25	0	1065353216	70	4859
2026-01-08 12:13:07.68	327.20	10.47	-52.7	-54.9	14.2	0.00e+00	0	25	0	1067450368	70	4931
2026-01-08 12:13:08.68	327.32	10.41	-52.7	-54.9	14.1	0.00e+00	0	25	0	1069547520	70	4960
2026-01-08 12:13:09.69	327.45	10.34	-52.9	-55.1	14.0	0.00e+00	0	25	0	1071644672	70	5097
2026-01-08 12:13:10.70	327.58	10.28	-52.9	-55.1	14.0	0.00e+00	0	25	0	1073741824	70	5083
2026-01-08 12:13:11.71	327.71	10.22	-52.9	-55.1	14.0	0.00e+00	0	25	0	1074790400	70	5098
2026-01-08 12:13:12.72	327.83	10.15	-52.8	-55.0	14.1	0.00e+00	0	25	0	1076887552	70	4992
2026-01-08 12:13:13.72	327.96	10.09	-52.7	-54.9	14.1	0.00e+00	0	24	0	1078984704	70	4954
2026-01-08 12:13:14.73	328.08	10.03	-52.8	-55.1	14.1	0.00e+00	0	25	0	1081081856	70	5042
2026-01-08 12:13:15.74	328.21	9.96	-52.8	-55.0	14.0	0.00e+00	0	25	0	1083179008	70	5041
2026-01-08 12:13:16.75	328.33	9.90	-52.8	-55.1	14.0	0.00e+00	0	25	0	1085276160	70	5051
2026-01-08 12:13:17.75	328.46	9.84	-52.7	-55.0	14.1	0.00e+00	0	25	0	1086324736	70	4992
2026-01-08 12:13:18.76	328.58	9.78	-52.9	-55.2	14.0	0.00e+00	0	25	0	1088421888	71	4849
2026-01-08 12:13:19.77	328.70	9.71	-52.9	-55.2	14.1	0.00e+00	0	25	0	1090519040	71	4868
2026-01-08 12:13:20.77	328.83	9.65	-53.1	-55.4	14.0	0.00e+00	0	25	0	1092616192	71	4956
2026-01-08 12:13:21.78	328.95	9.59	-53.2	-55.6	13.9	0.00e+00	0	24	0	1094713344	71	5055
2026-01-08 12:13:22.79	329.07	9.53	-53.3	-55.8	13.8	0.00e+00	0	25	0	1095761920	71	5171
2026-01-08 12:13:23.79	329.19	9.47	-53.4	-55.9	13.7	0.00e+00	0	25	0	1097859072	71	5252
2026-01-08 12:13:24.81	329.31	9.40	-53.4	-56.0	13.8	0.00e+00	0	25	0	1099956224	72	4990
2026-01-08 12:13:25.82	329.43	9.34	-53.4	-55.9	13.8	0.00e+00	0	25	0	1102053376	72	4968
2026-01-08 12:13:26.82	329.55	9.28	-53.3	-55.8	13.8	0.00e+00	0	25	0	1103101952	72	4908
2026-01-08 12:13:27.83	329.67	9.22	-53.3	-55.7	13.9	0.00e+00	0	25	0	1105199104	72	4840
2026-01-08 12:13:28.84	329.79	9.15	-53.3	-55.8	13.9	0.00e+00	0	25	0	1107296256	72	4873
2026-01-08 12:13:29.85	329.91	9.09	-53.2	-55.7	13.9	0.00e+00	0	25	0	1109393408	72	4820
2026-01-08 12:13:30.85	330.02	9.03	-53.1	-55.5	14.0	0.00e+00	0	25	0	1111490560	72	4740
2026-01-08 12:13:31.86	330.14	8.97	-53.1	-55.5	14.1	0.00e+00	0	25	0	1113587712	72	4713
2026-01-08 12:13:32.87	330.26	8.91	-52.8	-55.1	14.3	0.00e+00	0	25	0	1114636288	72	4504
2026-01-08 12:13:33.88	330.37	8.84	-52.9	-55.1	14.2	0.00e+00	0	25	0	1116733440	72	4519
2026-01-08 12:13:34.89	330.49	8.78	-53.0	-55.3	14.1	0.00e+00	0	24	0	1118830592	72	4627
2026-01-08 12:13:35.89	330.60	8.72	-53.0	-55.3	14.2	0.00e+00	0	25	0	1120927744	72	4602
2026-01-08 12:13:36.90	330.72	8.66	-53.0	-55.3	14.2	0.00e+00	0	24	0	1123024896	72	4599
2026-01-08 12:13:37.91	330.83	8.60	-53.1	-55.4	14.1	0.00e+00	0	25	0	1124073472	72	4683
2026-01-08 12:13:38.92	330.94	8.53	-52.9	-55.2	14.2	0.00e+00	0	25	0	1126170624	72	4589
2026-01-08 12:13:39.93	331.06	8.47	-53.1	-55.4	14.0	0.00e+00	0	25	0	1128267776	72	4695
2026-01-08 12:13:40.94	331.17	8.41	-53.0	-55.4	14.1	0.00e+00	0	25	0	1130364928	72	4662
2026-01-08 12:13:41.95	331.28	8.35	-53.1	-55.5	14.0	0.00e+00	0	25	0	1132462080	72	4730
2026-01-08 12:13:42.96	331.40	8.29	-53.1	-55.6	14.0	0.00e+00	0	24	0	1133510656	72	4762
2026-01-08 12:13:43.96	331.51	8.23	-53.2	-55.6	13.9	0.00e+00	0	25	0	1135607808	72	4775
2026-01-08 12:13:44.97	331.62	8.17	-53.3	-55.7	13.8	0.00e+00	0	25	0	1137704960	72	4851
2026-01-08 12:13:45.98	331.73	8.11	-53.3	-55.7	13.9	0.00e+00	0	25	0	1139802112	72	4854
2026-01-08 12:13:46.99	331.84	8.04	-53.2	-55.7	13.9	0.00e+00	0	25	0	1141899264	72	4833
2026-01-08 12:13:48.00	331.95	7.98	-53.3	-55.8	13.8	0.00e+00	0	25	0	1142947840	72	4926
2026-01-08 12:13:49.01	332.06	7.92	-53.4	-55.9	13.7	0.00e+00	0	25	0	1145044992	72	4944
2026-01-08 12:13:50.02	332.17	7.86	-53.4	-56.0	13.7	0.00e+00	0	25	0	1147142144	72	4988
2026-01-08 12:13:51.03	332.28	7.80	-53.5	-56.1	13.6	0.00e+00	0	25	0	1149239296	72	5085
2026-01-08 12:13:52.04	332.38	7.74	-53.5	-56.1	13.6	0.00e+00	0	25	0	1151336448	72	5100
2026-01-08 12:13:53.04	332.49	7.68	-53.7	-56.4	13.4	0.00e+00	0	25	0	1152385024	72	5248
2026-01-08 12:13:54.05	332.60	7.62	-53.6	-56.4	13.4	0.00e+00	0	25	0	1154482176	72	5228
2026-01-08 12:13:55.06	332.70	7.56	-53.7	-56.5	13.3	0.00e+00	0	25	0	1156579328	72	5339
2026-01-08 12:13:56.07	332.81	7.50	-53.7	-56.5	13.3	0.00e+00	0	25	0	1158676480	72	5318
2026-01-08 12:13:57.07	332.92	7.44	-53.8	-56.6	13.3	0.00e+00	0	25	0	1160773632	72	5364
2026-01-08 12:13:58.08	333.02	7.38	-53.7	-56.4	13.4	0.00e+00	0	25	0	1161822208	72	5263
2026-01-08 12:13:59.09	333.13	7.32	-53.6	-56.4	13.5	0.00e+00	0	25	0	1163919360	72	5221
2026-01-08 12:14:00.10	333.23	7.25	-53.6	-56.3	13.5	0.00e+00	0	25	0	1166016512	72	5180
2026-01-08 12:14:01.11	333.34	7.19	-53.5	-56.1	13.5	0.00e+00	0	25	0	1168113664	72	5092
2026-01-08 12:14:02.11	333.44	7.13	-53.4	-56.0	13.7	0.00e+00	0	25	0	1170210816	72	5015
2026-01-08 12:14:03.12	333.54	7.07	-53.3	-55.9	13.7	0.00e+00	0	24	0	1171259392	72	4946
2026-01-08 12:14:04.13	333.65	7.01	-53.3	-55.9	13.7	0.00e+00	0	25	0	1173356544	72	4944
2026-01-08 12:14:05.13	333.75	6.95	-53.5	-56.2	13.6	0.00e+00	0	25	0	1175453696	72	5111
2026-01-08 12:14:06.14	333.85	6.89	-53.5	-56.2	13.5	0.00e+00	0	25	0	1177550848	72	5122
2026-01-08 12:14:07.14	333.95	6.84	-53.5	-56.2	13.5	0.00e+00	0	25	0	1179648000	72	5125
2026-01-08 12:14:08.15	334.05	6.78	-53.6	-56.3	13.4	0.00e+00	0	25	0	1180696576	72	5205
2026-01-08 12:14:09.16	334.15	6.72	-53.8	-56.6	13.2	0.00e+00	0	25	0	1182793728	72	5400
2026-01-08 12:14:10.16	334.25	6.66	-53.7	-56.6	13.3	0.00e+00	0	25	0	1184890880	72	5356
2026-01-08 12:14:11.17	334.35	6.60	-53.8	-56.7	13.2	0.00e+00	0	25	0	1186988032	72	5449
2026-01-08 12:14:12.18	334.45	6.54	-54.0	-57.0	13.1	0.00e+00	0	25	0	1189085184	73	5315
2026-01-08 12:14:13.18	334.55	6.48	-53.9	-56.9	13.1	0.00e+00	0	25	0	1190133760	73	5248
2026-01-08 12:14:14.18	334.65	6.42	-54.1	-57.2	13.0	0.00e+00	0	24	0	1192230912	73	5428
2026-01-08 12:14:15.19	334.75	6.36	-54.1	-57.2	12.9	0.00e+00	0	25	0	1194328064	73	5440
2026-01-08 12:14:16.20	334.85	6.30	-54.1	-57.2	12.9	0.00e+00	0	24	0	1196425216	73	5426
2026-01-08 12:14:17.21	334.95	6.24	-54.1	-57.2	12.9	0.00e+00	0	25	0	1198522368	73	5438
2026-01-08 12:14:18.22	335.04	6.18	-54.1	-57.3	12.9	0.00e+00	0	25	0	1199570944	73	5473
2026-01-08 12:14:19.23	335.14	6.12	-54.1	-57.3	12.8	0.00e+00	0	25	0	1201668096	73	5524
2026-01-08 12:14:20.24	335.24	6.06	-54.1	-57.3	12.9	0.00e+00	0	25	0	1203765248	73	5465
2026-01-08 12:14:21.24	335.33	6.01	-54.2	-57.4	12.8	0.00e+00	0	24	0	1205862400	73	5550
