passes_logs/2026/01/08/R3.2S_Murmansk/R3.2S_Murmansk__20260108_070112_NOAA_20_JPSS-1_rec.log

#Pass ID: 20260108_070112_NOAA 20 (JPSS-1)
#Satellite: NOAA 20 (JPSS-1)
#Configuration: NOAA 20
#almurnet v.1.7.20251203
#Start time: 2026-01-08 07:01:12

#Version: 2.2.20231116
#Station: R3.2S_Murmansk
#Location: 33.079688 lon 68.888172 lat
#TLE: 1 43013U 17073A   26007.92906311  .00000097  00000+0  67117-4 0  9996
#TLE: 2 43013  98.7630 308.9434 0001752  49.5597 310.5732 14.19534161421734

#Time	Az	El	Level	Level2	SNR	BER	BlckErr	Temp	State	Recorded	gain1	gain2
2026-01-08 07:01:12.43	95.42	1.97	-57.4	-73.4	3.8	1.49e+00	0	23	0	0	81	22241
2026-01-08 07:01:13.43	95.37	2.03	-57.4	-73.4	3.8	1.49e+00	0	23	104	0	79	24841
2026-01-08 07:01:14.43	95.32	2.09	-57.4	-73.4	3.8	1.49e+00	0	23	104	0	79	24805
2026-01-08 07:01:15.43	95.27	2.15	-57.4	-73.4	3.8	1.49e+00	0	23	104	0	79	24764
2026-01-08 07:01:16.44	95.21	2.21	-57.4	-73.4	3.8	1.49e+00	0	23	104	0	79	24762
2026-01-08 07:01:17.44	95.16	2.27	-57.4	-73.4	3.8	1.49e+00	0	23	104	0	79	24761
2026-01-08 07:01:18.44	95.11	2.33	-57.4	-73.4	3.8	1.49e+00	0	23	104	0	79	24785
2026-01-08 07:01:19.45	95.06	2.39	-57.4	-73.4	3.8	1.49e+00	0	23	104	0	79	24732
2026-01-08 07:01:20.44	95.01	2.45	-57.4	-73.4	3.8	1.49e+00	0	23	104	0	79	24825
2026-01-08 07:01:21.45	94.96	2.51	-57.4	-73.4	3.8	1.49e+00	0	23	104	0	79	24831
2026-01-08 07:01:22.46	94.90	2.57	-57.4	-73.4	3.8	1.49e+00	0	23	104	0	79	24769
2026-01-08 07:01:23.46	94.85	2.63	-57.4	-73.4	3.8	1.49e+00	0	23	104	0	79	24803
2026-01-08 07:01:24.45	94.80	2.69	-57.4	-73.4	3.8	1.49e+00	0	23	104	0	79	24764
2026-01-08 07:01:25.46	94.74	2.75	-57.4	-73.4	3.8	1.49e+00	0	23	104	0	79	24866
2026-01-08 07:01:26.46	94.69	2.81	-57.4	-73.4	3.8	1.49e+00	0	23	104	0	79	24922
2026-01-08 07:01:27.46	94.64	2.88	-57.4	-73.4	3.8	1.49e+00	0	23	104	0	79	24850
2026-01-08 07:01:28.46	94.58	2.94	-57.4	-73.4	3.8	1.49e+00	0	23	104	0	79	24951
2026-01-08 07:01:29.46	94.53	3.00	-57.4	-73.4	3.8	1.49e+00	0	23	104	0	79	24878
2026-01-08 07:01:30.45	94.48	3.06	-57.4	-73.4	3.8	1.49e+00	0	23	104	0	79	24805
2026-01-08 07:01:31.45	94.42	3.12	-57.4	-73.4	3.8	1.49e+00	0	23	104	0	79	24756
2026-01-08 07:01:32.45	94.37	3.18	-57.4	-73.4	3.8	1.49e+00	0	23	104	0	79	24729
2026-01-08 07:01:33.44	94.31	3.24	-57.4	-73.4	3.8	1.49e+00	0	23	104	0	79	24731
2026-01-08 07:01:34.43	94.26	3.31	-57.4	-73.3	3.8	1.49e+00	0	23	104	0	79	24637
2026-01-08 07:01:35.43	94.20	3.37	-57.4	-73.4	3.8	1.49e+00	0	23	104	0	79	24754
2026-01-08 07:01:36.42	94.15	3.43	-57.4	-73.4	3.8	1.49e+00	0	23	104	0	79	24772
2026-01-08 07:01:37.42	94.09	3.49	-57.4	-73.4	3.8	1.49e+00	0	23	104	0	79	24904
2026-01-08 07:01:38.41	94.04	3.55	-57.4	-73.4	3.8	1.49e+00	0	23	104	0	79	24842
2026-01-08 07:01:39.41	93.98	3.61	-57.4	-73.3	3.8	1.49e+00	0	23	104	0	79	24682
2026-01-08 07:01:40.41	93.92	3.68	-57.4	-73.3	3.8	1.49e+00	0	23	104	0	79	24596
2026-01-08 07:01:41.40	93.87	3.74	-57.4	-73.3	3.8	1.49e+00	0	23	104	0	79	24415
2026-01-08 07:01:42.40	93.81	3.80	-57.4	-73.2	3.8	1.49e+00	0	23	104	0	79	24324
2026-01-08 07:01:43.40	93.75	3.87	-57.4	-73.2	3.8	1.49e+00	0	23	104	0	79	24387
2026-01-08 07:01:44.40	93.69	3.93	-57.4	-73.3	3.8	1.49e+00	0	23	104	0	79	24479
2026-01-08 07:01:45.40	93.64	3.99	-57.4	-73.4	3.8	1.49e+00	0	23	104	0	79	24700
2026-01-08 07:01:46.40	93.58	4.05	-57.4	-73.4	3.8	1.49e+00	0	24	104	0	79	24755
2026-01-08 07:01:47.40	93.52	4.12	-57.4	-73.4	3.8	1.49e+00	0	23	104	0	79	24817
2026-01-08 07:01:48.40	93.46	4.18	-57.4	-73.3	3.8	1.49e+00	0	24	104	0	79	24511
2026-01-08 07:01:49.40	93.40	4.25	-57.4	-73.0	3.8	1.49e+00	0	23	104	0	79	23610
2026-01-08 07:01:50.39	93.34	4.31	-57.4	-72.4	3.8	1.49e+00	0	23	104	0	79	22185
2026-01-08 07:01:51.39	93.28	4.37	-57.3	-71.8	3.8	1.49e+00	0	23	104	0	79	20624
2026-01-08 07:01:52.40	93.22	4.44	-57.3	-71.2	3.8	1.49e+00	0	24	104	0	79	19249
2026-01-08 07:01:53.40	93.16	4.50	-57.3	-70.3	4.1	1.46e+00	0	24	0	0	79	17283
2026-01-08 07:01:54.39	93.10	4.56	-57.2	-69.5	4.3	1.39e+00	0	24	0	0	79	15918
2026-01-08 07:01:55.39	93.04	4.63	-57.2	-68.8	4.5	1.03e+00	1	24	0	1048576	79	14600
2026-01-08 07:01:56.39	92.98	4.69	-57.1	-68.0	4.8	8.07e-01	0	24	0	3145728	79	13392
2026-01-08 07:01:57.39	92.92	4.76	-57.0	-67.5	5.2	6.69e-01	0	23	0	5242880	79	12521
2026-01-08 07:01:58.39	92.86	4.82	-57.0	-66.8	5.5	5.18e-01	0	24	0	6291456	79	11589
2026-01-08 07:01:59.39	92.80	4.89	-56.9	-66.0	6.0	3.09e-01	0	24	0	8388608	79	10647
2026-01-08 07:02:00.38	92.74	4.95	-56.8	-65.6	6.2	2.61e-01	0	24	0	10485760	79	10161
2026-01-08 07:02:01.39	92.67	5.02	-56.8	-65.3	6.6	1.92e-01	0	24	0	12582912	79	9733
2026-01-08 07:02:02.38	92.61	5.08	-56.8	-65.3	6.6	1.76e-01	0	24	0	14680064	79	9735
2026-01-08 07:02:03.37	92.55	5.15	-56.9	-65.6	6.4	1.74e-01	0	24	0	15728640	79	10094
2026-01-08 07:02:04.37	92.49	5.21	-56.9	-65.9	6.1	6.03e-01	0	24	0	17825792	79	10484
2026-01-08 07:02:05.36	92.42	5.28	-56.7	-64.8	6.7	3.31e-01	0	24	0	19922944	79	9235
2026-01-08 07:02:06.36	92.36	5.34	-56.1	-61.7	10.0	1.91e-04	0	24	0	22020096	77	7225
2026-01-08 07:02:07.37	92.29	5.41	-57.2	-68.1	4.7	1.46e+00	1	24	104	22020096	79	13513
2026-01-08 07:02:08.37	92.23	5.48	-55.4	-59.7	11.5	1.26e-03	0	24	0	23068672	77	5780
2026-01-08 07:02:09.37	92.16	5.54	-55.2	-59.3	11.8	4.57e-05	0	24	0	25165824	77	5515
2026-01-08 07:02:10.37	92.10	5.61	-55.0	-59.0	11.9	1.52e-05	0	24	0	27262976	76	5605
2026-01-08 07:02:11.37	92.03	5.67	-54.8	-58.4	12.4	3.00e-06	0	24	0	28311552	76	5255
2026-01-08 07:02:12.38	91.97	5.74	-54.5	-58.1	12.6	0.00e+00	0	24	0	30408704	75	5343
2026-01-08 07:02:13.38	91.90	5.81	-54.5	-57.9	12.6	1.50e-06	0	24	0	32505856	75	5269
2026-01-08 07:02:14.38	91.84	5.87	-54.3	-57.7	12.8	0.00e+00	0	24	0	34603008	75	5126
2026-01-08 07:02:15.38	91.77	5.94	-54.2	-57.5	12.9	0.00e+00	0	24	0	36700160	75	5011
2026-01-08 07:02:16.38	91.70	6.01	-54.0	-57.2	13.0	0.00e+00	0	24	0	37748736	74	5124
2026-01-08 07:02:17.37	91.63	6.08	-53.9	-56.9	13.3	0.00e+00	0	24	0	39845888	74	4967
2026-01-08 07:02:18.37	91.57	6.14	-54.0	-57.0	13.2	0.00e+00	0	24	0	41943040	74	5031
2026-01-08 07:02:19.37	91.50	6.21	-54.0	-57.0	13.2	0.00e+00	0	24	0	44040192	74	5009
2026-01-08 07:02:20.37	91.43	6.28	-54.0	-57.1	13.1	0.00e+00	0	24	0	45088768	74	5074
2026-01-08 07:02:21.37	91.36	6.35	-54.0	-57.2	13.1	0.00e+00	0	24	0	47185920	74	5108
2026-01-08 07:02:22.36	91.29	6.41	-54.0	-57.0	13.2	0.00e+00	0	24	0	49283072	74	5031
2026-01-08 07:02:23.36	91.22	6.48	-53.9	-57.0	13.2	0.00e+00	0	24	0	51380224	74	4992
2026-01-08 07:02:24.36	91.16	6.55	-53.9	-57.0	13.2	0.00e+00	0	24	0	53477376	74	4999
2026-01-08 07:02:25.36	91.09	6.62	-53.8	-56.8	13.3	0.00e+00	0	24	0	54525952	74	4913
2026-01-08 07:02:26.36	91.01	6.69	-53.7	-56.6	13.5	0.00e+00	0	24	0	56623104	74	4793
2026-01-08 07:02:27.36	90.94	6.75	-53.8	-56.7	13.4	0.00e+00	0	24	0	58720256	74	4859
2026-01-08 07:02:28.36	90.87	6.82	-53.7	-56.6	13.5	0.00e+00	0	24	0	60817408	74	4792
2026-01-08 07:02:29.35	90.80	6.89	-53.8	-56.6	13.5	0.00e+00	0	24	0	62914560	74	4813
2026-01-08 07:02:30.34	90.73	6.96	-53.7	-56.6	13.5	0.00e+00	0	24	0	63963136	74	4767
2026-01-08 07:02:31.34	90.66	7.03	-53.8	-56.7	13.5	0.00e+00	0	24	0	66060288	74	4834
2026-01-08 07:02:32.34	90.59	7.10	-53.8	-56.6	13.5	0.00e+00	0	24	0	68157440	74	4805
2026-01-08 07:02:33.33	90.51	7.17	-53.6	-56.5	13.5	0.00e+00	0	24	0	70254592	73	4985
2026-01-08 07:02:34.33	90.44	7.24	-53.6	-56.5	13.5	0.00e+00	0	24	0	71303168	73	4997
2026-01-08 07:02:35.32	90.37	7.30	-53.7	-56.6	13.4	0.00e+00	0	24	0	73400320	73	5051
2026-01-08 07:02:36.32	90.30	7.37	-53.6	-56.4	13.5	0.00e+00	0	24	0	75497472	73	4936
2026-01-08 07:02:37.31	90.22	7.44	-53.5	-56.3	13.6	0.00e+00	0	24	0	77594624	73	4878
2026-01-08 07:02:38.31	90.15	7.51	-53.5	-56.2	13.6	0.00e+00	0	24	0	79691776	73	4861
2026-01-08 07:02:39.31	90.07	7.58	-53.4	-56.1	13.7	0.00e+00	0	24	0	80740352	73	4810
2026-01-08 07:02:40.31	90.00	7.65	-53.5	-56.2	13.6	0.00e+00	0	24	0	82837504	73	4863
2026-01-08 07:02:41.31	89.92	7.73	-53.4	-56.1	13.7	0.00e+00	0	24	0	84934656	73	4804
2026-01-08 07:02:42.31	89.84	7.80	-53.5	-56.2	13.7	0.00e+00	0	24	0	87031808	73	4819
2026-01-08 07:02:43.31	89.77	7.87	-53.4	-56.1	13.7	0.00e+00	0	24	0	89128960	73	4779
2026-01-08 07:02:44.30	89.69	7.94	-53.4	-56.1	13.7	0.00e+00	0	24	0	90177536	73	4774
2026-01-08 07:02:45.29	89.62	8.01	-53.4	-56.1	13.7	0.00e+00	0	24	0	92274688	73	4782
2026-01-08 07:02:46.28	89.54	8.08	-53.4	-56.0	13.7	0.00e+00	0	24	0	94371840	73	4742
2026-01-08 07:02:47.28	89.46	8.15	-53.3	-56.0	13.8	0.00e+00	0	24	0	96468992	73	4716
2026-01-08 07:02:48.28	89.38	8.22	-53.3	-55.9	13.9	0.00e+00	0	24	0	97517568	73	4662
2026-01-08 07:02:49.27	89.30	8.29	-53.3	-55.9	13.8	0.00e+00	0	24	0	99614720	73	4686
2026-01-08 07:02:50.27	89.22	8.36	-53.2	-55.7	13.9	0.00e+00	0	24	0	101711872	73	4584
2026-01-08 07:02:51.27	89.15	8.44	-53.2	-55.7	13.9	0.00e+00	0	24	0	103809024	73	4582
2026-01-08 07:02:52.27	89.06	8.51	-53.2	-55.7	13.8	0.00e+00	0	24	0	105906176	72	4857
2026-01-08 07:02:53.28	88.98	8.58	-53.1	-55.6	13.9	0.00e+00	0	24	0	106954752	72	4801
2026-01-08 07:02:54.28	88.90	8.65	-53.1	-55.6	13.9	0.00e+00	0	24	0	109051904	72	4776
2026-01-08 07:02:55.28	88.82	8.73	-53.1	-55.6	13.9	0.00e+00	0	24	0	111149056	72	4811
2026-01-08 07:02:56.28	88.74	8.80	-53.2	-55.8	13.8	0.00e+00	0	24	0	113246208	72	4873
2026-01-08 07:02:57.28	88.66	8.87	-53.1	-55.6	13.9	0.00e+00	0	24	0	115343360	72	4776
2026-01-08 07:02:58.28	88.57	8.95	-53.1	-55.5	13.9	0.00e+00	0	24	0	116391936	72	4759
2026-01-08 07:02:59.28	88.49	9.02	-53.1	-55.6	13.9	0.00e+00	0	24	0	118489088	72	4779
2026-01-08 07:03:00.28	88.41	9.09	-53.2	-55.7	13.8	0.00e+00	0	24	0	120586240	72	4857
2026-01-08 07:03:01.28	88.32	9.17	-53.0	-55.5	14.0	0.00e+00	0	24	0	122683392	72	4708
2026-01-08 07:03:02.28	88.24	9.24	-53.1	-55.5	14.0	0.00e+00	0	24	0	123731968	72	4744
2026-01-08 07:03:03.28	88.16	9.31	-53.0	-55.4	14.0	0.00e+00	0	24	0	125829120	72	4692
2026-01-08 07:03:04.28	88.07	9.39	-53.0	-55.5	14.0	0.00e+00	0	24	0	127926272	72	4737
2026-01-08 07:03:05.28	87.98	9.46	-53.0	-55.4	14.0	0.00e+00	0	24	0	130023424	72	4698
2026-01-08 07:03:06.28	87.90	9.54	-53.0	-55.4	14.0	0.00e+00	0	24	0	132120576	72	4685
2026-01-08 07:03:07.27	87.81	9.61	-52.9	-55.3	14.1	0.00e+00	0	24	0	133169152	72	4617
2026-01-08 07:03:08.27	87.73	9.68	-52.9	-55.2	14.2	0.00e+00	0	24	0	135266304	72	4577
2026-01-08 07:03:09.28	87.64	9.76	-52.9	-55.3	14.1	0.00e+00	0	24	0	137363456	72	4622
2026-01-08 07:03:10.27	87.55	9.83	-53.0	-55.4	14.1	0.00e+00	0	24	0	139460608	72	4672
2026-01-08 07:03:11.27	87.46	9.91	-52.9	-55.2	14.2	0.00e+00	0	24	0	140509184	72	4592
2026-01-08 07:03:12.27	87.37	9.98	-52.9	-55.3	14.2	0.00e+00	0	24	0	142606336	72	4599
2026-01-08 07:03:13.27	87.28	10.06	-52.8	-55.2	14.2	0.00e+00	0	24	0	144703488	72	4563
2026-01-08 07:03:14.27	87.19	10.14	-52.9	-55.2	14.2	0.00e+00	0	24	0	146800640	72	4583
2026-01-08 07:03:15.27	87.10	10.21	-52.8	-55.1	14.2	0.00e+00	0	24	0	148897792	72	4538
2026-01-08 07:03:16.26	87.01	10.29	-52.8	-55.0	14.3	0.00e+00	0	24	0	149946368	72	4493
2026-01-08 07:03:17.26	86.92	10.36	-52.8	-55.1	14.2	0.00e+00	0	25	0	152043520	72	4539
2026-01-08 07:03:18.26	86.83	10.44	-52.8	-55.1	14.3	0.00e+00	0	24	0	154140672	72	4527
2026-01-08 07:03:19.26	86.74	10.52	-52.8	-55.1	14.3	0.00e+00	0	24	0	156237824	72	4507
2026-01-08 07:03:20.26	86.64	10.59	-52.8	-55.1	14.2	0.00e+00	0	24	0	158334976	72	4544
2026-01-08 07:03:21.25	86.55	10.67	-52.7	-55.0	14.3	0.00e+00	0	24	0	159383552	72	4458
2026-01-08 07:03:22.25	86.46	10.75	-52.7	-55.0	14.3	0.00e+00	0	24	0	161480704	72	4483
2026-01-08 07:03:23.24	86.36	10.82	-52.7	-55.0	14.3	0.00e+00	0	24	0	163577856	72	4459
2026-01-08 07:03:24.24	86.27	10.90	-52.8	-55.1	14.2	0.00e+00	0	24	0	165675008	72	4528
2026-01-08 07:03:25.23	86.18	10.98	-52.8	-55.1	14.3	0.00e+00	0	24	0	167772160	72	4518
2026-01-08 07:03:26.23	86.08	11.05	-52.9	-55.2	14.2	0.00e+00	0	24	0	168820736	72	4580
2026-01-08 07:03:27.23	85.98	11.13	-52.9	-55.2	14.2	0.00e+00	0	24	0	170917888	72	4588
2026-01-08 07:03:28.23	85.89	11.21	-52.8	-55.1	14.2	0.00e+00	0	24	0	173015040	72	4535
2026-01-08 07:03:29.24	85.79	11.29	-52.7	-55.0	14.3	0.00e+00	0	24	0	175112192	72	4477
2026-01-08 07:03:30.23	85.69	11.37	-52.8	-55.1	14.2	0.00e+00	0	24	0	176160768	72	4526
2026-01-08 07:03:31.23	85.59	11.44	-52.8	-55.1	14.3	0.00e+00	0	24	0	178257920	72	4517
2026-01-08 07:03:32.22	85.49	11.52	-52.8	-55.1	14.2	0.00e+00	0	24	0	180355072	72	4536
2026-01-08 07:03:33.22	85.39	11.60	-52.9	-55.2	14.2	0.00e+00	0	24	0	182452224	72	4577
2026-01-08 07:03:34.21	85.30	11.68	-52.8	-55.1	14.3	0.00e+00	0	24	0	184549376	72	4522
2026-01-08 07:03:35.20	85.20	11.76	-52.8	-55.0	14.3	0.00e+00	0	24	0	185597952	72	4484
2026-01-08 07:03:36.21	85.09	11.84	-52.8	-55.1	14.3	0.00e+00	0	24	0	187695104	72	4511
2026-01-08 07:03:37.20	84.99	11.92	-52.7	-55.0	14.3	0.00e+00	0	24	0	189792256	72	4472
2026-01-08 07:03:38.20	84.89	11.99	-52.8	-55.1	14.3	0.00e+00	0	24	0	191889408	72	4509
2026-01-08 07:03:39.20	84.79	12.07	-52.7	-55.0	14.3	0.00e+00	0	24	0	192937984	72	4458
2026-01-08 07:03:40.19	84.68	12.15	-52.8	-55.1	14.3	0.00e+00	0	24	0	195035136	72	4502
2026-01-08 07:03:41.19	84.58	12.23	-52.8	-55.0	14.3	0.00e+00	0	24	0	197132288	72	4490
2026-01-08 07:03:42.18	84.48	12.31	-52.8	-55.0	14.3	0.00e+00	0	24	0	199229440	72	4486
2026-01-08 07:03:43.18	84.37	12.39	-52.8	-55.2	14.3	0.00e+00	0	24	0	201326592	72	4546
2026-01-08 07:03:44.17	84.27	12.47	-52.8	-55.1	14.3	0.00e+00	0	24	0	202375168	72	4502
2026-01-08 07:03:45.17	84.16	12.55	-52.8	-55.1	14.3	0.00e+00	0	24	0	204472320	72	4515
2026-01-08 07:03:46.17	84.05	12.63	-52.8	-55.1	14.3	0.00e+00	0	24	0	206569472	72	4541
2026-01-08 07:03:47.17	83.94	12.72	-52.7	-54.9	14.4	0.00e+00	0	25	0	208666624	72	4439
2026-01-08 07:03:48.18	83.84	12.80	-52.8	-55.0	14.3	0.00e+00	0	24	0	209715200	72	4477
2026-01-08 07:03:49.17	83.73	12.88	-52.8	-55.1	14.3	0.00e+00	0	24	0	211812352	72	4497
2026-01-08 07:03:50.17	83.62	12.96	-52.8	-55.0	14.3	0.00e+00	0	24	0	213909504	72	4489
2026-01-08 07:03:51.17	83.51	13.04	-52.8	-55.0	14.4	0.00e+00	0	24	0	216006656	72	4472
2026-01-08 07:03:52.16	83.40	13.12	-52.8	-55.1	14.3	0.00e+00	0	24	0	218103808	72	4523
2026-01-08 07:03:53.16	83.29	13.21	-52.8	-55.0	14.4	0.00e+00	0	24	0	219152384	72	4466
2026-01-08 07:03:54.16	83.17	13.29	-52.8	-55.1	14.3	0.00e+00	0	24	0	221249536	72	4509
2026-01-08 07:03:55.16	83.06	13.37	-52.8	-55.0	14.3	0.00e+00	0	24	0	223346688	72	4471
2026-01-08 07:03:56.16	82.95	13.45	-52.9	-55.1	14.3	0.00e+00	0	24	0	225443840	72	4534
2026-01-08 07:03:57.16	82.83	13.54	-52.8	-55.1	14.3	0.00e+00	0	24	0	227540992	72	4532
2026-01-08 07:03:58.16	82.72	13.62	-52.8	-55.1	14.3	0.00e+00	0	25	0	228589568	72	4540
2026-01-08 07:03:59.16	82.60	13.70	-52.8	-55.1	14.3	0.00e+00	0	24	0	230686720	72	4520
2026-01-08 07:04:00.17	82.49	13.79	-52.8	-55.1	14.3	0.00e+00	0	24	0	232783872	72	4514
2026-01-08 07:04:01.17	82.37	13.87	-52.7	-55.0	14.4	0.00e+00	0	24	0	234881024	72	4447
2026-01-08 07:04:02.17	82.25	13.95	-52.8	-55.0	14.3	0.00e+00	0	25	0	235929600	72	4484
2026-01-08 07:04:03.17	82.14	14.04	-52.6	-54.8	14.3	0.00e+00	0	24	0	238026752	71	4629
2026-01-08 07:04:04.17	82.02	14.12	-52.7	-54.9	14.3	0.00e+00	0	25	0	240123904	71	4686
2026-01-08 07:04:05.17	81.90	14.20	-52.7	-55.0	14.2	0.00e+00	0	24	0	242221056	71	4711
2026-01-08 07:04:06.17	81.78	14.29	-52.7	-54.9	14.3	0.00e+00	0	25	0	244318208	71	4670
2026-01-08 07:04:07.18	81.66	14.37	-52.6	-54.8	14.3	0.00e+00	0	24	0	245366784	71	4635
2026-01-08 07:04:08.17	81.53	14.46	-52.6	-54.8	14.3	0.00e+00	0	25	0	247463936	71	4606
2026-01-08 07:04:09.17	81.41	14.54	-52.5	-54.7	14.4	0.00e+00	0	24	0	249561088	71	4551
2026-01-08 07:04:10.17	81.29	14.63	-52.6	-54.7	14.3	0.00e+00	0	24	0	251658240	71	4590
2026-01-08 07:04:11.17	81.17	14.71	-52.4	-54.5	14.5	0.00e+00	0	24	0	253755392	71	4460
2026-01-08 07:04:12.18	81.04	14.80	-52.5	-54.6	14.4	0.00e+00	0	25	0	254803968	71	4536
2026-01-08 07:04:13.17	80.92	14.88	-52.6	-54.7	14.4	0.00e+00	0	24	0	256901120	71	4596
2026-01-08 07:04:14.18	80.79	14.97	-52.6	-54.7	14.4	0.00e+00	0	24	0	258998272	71	4587
2026-01-08 07:04:15.17	80.66	15.05	-52.5	-54.7	14.4	0.00e+00	0	24	0	261095424	71	4571
2026-01-08 07:04:16.17	80.54	15.14	-52.6	-54.7	14.4	0.00e+00	0	24	0	263192576	71	4582
2026-01-08 07:04:17.17	80.41	15.23	-52.7	-54.9	14.3	0.00e+00	0	24	0	264241152	71	4664
2026-01-08 07:04:18.16	80.28	15.31	-52.6	-54.7	14.4	0.00e+00	0	24	0	266338304	71	4593
2026-01-08 07:04:19.17	80.15	15.40	-52.6	-54.7	14.4	0.00e+00	0	24	0	268435456	71	4580
2026-01-08 07:04:20.16	80.02	15.48	-52.6	-54.8	14.3	0.00e+00	0	25	0	270532608	71	4605
2026-01-08 07:04:21.16	79.89	15.57	-52.6	-54.7	14.4	0.00e+00	0	24	0	271581184	71	4581
2026-01-08 07:04:22.16	79.76	15.66	-52.6	-54.8	14.3	0.00e+00	0	25	0	273678336	71	4607
2026-01-08 07:04:23.16	79.63	15.74	-52.6	-54.8	14.4	0.00e+00	0	25	0	275775488	71	4611
2026-01-08 07:04:24.16	79.49	15.83	-52.6	-54.7	14.4	0.00e+00	0	24	0	277872640	71	4585
2026-01-08 07:04:25.16	79.36	15.92	-52.7	-54.9	14.3	0.00e+00	0	25	0	279969792	71	4656
2026-01-08 07:04:26.16	79.22	16.01	-52.5	-54.6	14.4	0.00e+00	0	24	0	281018368	71	4533
2026-01-08 07:04:27.16	79.09	16.09	-52.5	-54.6	14.5	0.00e+00	0	24	0	283115520	71	4502
2026-01-08 07:04:28.16	78.95	16.18	-52.4	-54.5	14.5	0.00e+00	0	24	0	285212672	71	4483
2026-01-08 07:04:29.15	78.81	16.27	-52.4	-54.5	14.6	0.00e+00	0	24	0	287309824	71	4444
2026-01-08 07:04:30.15	78.68	16.36	-52.3	-54.3	14.6	0.00e+00	0	24	0	289406976	71	4388
2026-01-08 07:04:31.15	78.54	16.44	-52.3	-54.4	14.6	0.00e+00	0	24	0	290455552	71	4395
2026-01-08 07:04:32.15	78.40	16.53	-52.1	-54.1	14.6	0.00e+00	0	24	0	292552704	70	4544
2026-01-08 07:04:33.15	78.26	16.62	-52.2	-54.2	14.5	0.00e+00	0	25	0	294649856	70	4560
2026-01-08 07:04:34.14	78.12	16.71	-52.0	-54.0	14.7	0.00e+00	0	24	0	296747008	70	4458
2026-01-08 07:04:35.13	77.97	16.80	-52.0	-54.0	14.7	0.00e+00	0	24	0	297795584	70	4447
2026-01-08 07:04:36.13	77.83	16.88	-52.1	-54.0	14.6	0.00e+00	0	24	0	299892736	70	4481
2026-01-08 07:04:37.13	77.69	16.97	-52.1	-54.1	14.6	0.00e+00	0	24	0	301989888	70	4497
2026-01-08 07:04:38.12	77.54	17.06	-52.1	-54.0	14.6	0.00e+00	0	24	0	304087040	70	4485
2026-01-08 07:04:39.12	77.40	17.15	-52.0	-54.0	14.6	0.00e+00	0	24	0	306184192	70	4468
2026-01-08 07:04:40.11	77.25	17.24	-52.1	-54.0	14.6	0.00e+00	0	24	0	307232768	70	4488
2026-01-08 07:04:41.11	77.10	17.33	-51.9	-53.9	14.7	0.00e+00	0	25	0	309329920	70	4408
2026-01-08 07:04:42.10	76.96	17.42	-51.9	-53.8	14.7	0.00e+00	0	25	0	311427072	70	4391
2026-01-08 07:04:43.09	76.81	17.51	-51.9	-53.8	14.7	0.00e+00	0	24	0	313524224	70	4367
2026-01-08 07:04:44.09	76.66	17.60	-51.9	-53.8	14.7	0.00e+00	0	25	0	315621376	70	4388
2026-01-08 07:04:45.08	76.51	17.68	-51.9	-53.8	14.8	0.00e+00	0	25	0	316669952	70	4357
2026-01-08 07:04:46.09	76.36	17.78	-51.9	-53.9	14.7	0.00e+00	0	25	0	318767104	70	4392
2026-01-08 07:04:47.08	76.20	17.86	-51.8	-53.7	14.8	0.00e+00	0	25	0	320864256	70	4325
2026-01-08 07:04:48.09	76.05	17.96	-51.9	-53.9	14.7	0.00e+00	0	24	0	322961408	70	4394
2026-01-08 07:04:49.09	75.89	18.05	-52.0	-53.9	14.7	0.00e+00	0	24	0	324009984	70	4408
2026-01-08 07:04:50.09	75.74	18.14	-51.9	-53.8	14.8	0.00e+00	0	24	0	326107136	70	4355
2026-01-08 07:04:51.09	75.58	18.23	-51.9	-53.8	14.8	0.00e+00	0	24	0	328204288	70	4360
2026-01-08 07:04:52.09	75.42	18.32	-51.9	-53.9	14.7	0.00e+00	0	24	0	330301440	70	4395
2026-01-08 07:04:53.10	75.26	18.41	-51.9	-53.8	14.8	0.00e+00	0	24	0	332398592	70	4356
2026-01-08 07:04:54.10	75.10	18.50	-51.8	-53.7	14.8	0.00e+00	0	25	0	333447168	70	4300
2026-01-08 07:04:55.10	74.94	18.59	-51.8	-53.7	14.8	0.00e+00	0	25	0	335544320	70	4303
2026-01-08 07:04:56.10	74.78	18.68	-51.8	-53.6	14.9	0.00e+00	0	24	0	337641472	70	4278
2026-01-08 07:04:57.10	74.62	18.77	-51.7	-53.6	14.9	0.00e+00	0	24	0	339738624	70	4255
2026-01-08 07:04:58.10	74.45	18.87	-51.8	-53.7	14.8	0.00e+00	0	24	0	341835776	70	4304
2026-01-08 07:04:59.10	74.29	18.96	-51.7	-53.6	14.9	0.00e+00	0	24	0	342884352	70	4250
2026-01-08 07:05:00.11	74.12	19.05	-51.7	-53.6	14.9	0.00e+00	0	24	0	344981504	70	4260
2026-01-08 07:05:01.10	73.96	19.14	-51.8	-53.7	14.8	0.00e+00	0	25	0	347078656	70	4297
2026-01-08 07:05:02.10	73.79	19.23	-51.9	-53.8	14.8	0.00e+00	0	24	0	349175808	70	4349
2026-01-08 07:05:03.10	73.62	19.32	-52.0	-53.9	14.7	0.00e+00	0	25	0	350224384	70	4411
2026-01-08 07:05:04.11	73.45	19.42	-52.0	-54.0	14.7	0.00e+00	0	24	0	352321536	70	4461
2026-01-08 07:05:05.10	73.28	19.51	-52.0	-53.9	14.7	0.00e+00	0	24	0	354418688	70	4423
2026-01-08 07:05:06.10	73.11	19.60	-52.1	-54.0	14.6	0.00e+00	0	24	0	356515840	70	4486
2026-01-08 07:05:07.11	72.93	19.69	-52.1	-54.0	14.6	0.00e+00	0	24	0	358612992	70	4483
2026-01-08 07:05:08.10	72.76	19.78	-52.1	-54.1	14.6	0.00e+00	0	25	0	359661568	70	4507
2026-01-08 07:05:09.10	72.58	19.88	-52.2	-54.1	14.6	0.00e+00	0	24	0	361758720	70	4545
2026-01-08 07:05:10.10	72.41	19.97	-52.3	-54.3	14.5	0.00e+00	0	24	0	363855872	70	4608
2026-01-08 07:05:11.11	72.23	20.06	-52.2	-54.2	14.5	0.00e+00	0	24	0	365953024	70	4597
2026-01-08 07:05:12.10	72.05	20.15	-52.3	-54.3	14.5	0.00e+00	0	24	0	368050176	70	4645
2026-01-08 07:05:13.11	71.87	20.25	-52.3	-54.3	14.5	0.00e+00	0	25	0	369098752	70	4610
2026-01-08 07:05:14.11	71.69	20.34	-52.2	-54.2	14.5	0.00e+00	0	24	0	371195904	70	4579
2026-01-08 07:05:15.11	71.51	20.43	-52.3	-54.3	14.5	0.00e+00	0	25	0	373293056	70	4638
2026-01-08 07:05:16.11	71.33	20.52	-52.3	-54.2	14.5	0.00e+00	0	25	0	375390208	70	4593
2026-01-08 07:05:17.11	71.14	20.62	-52.4	-54.4	14.4	0.00e+00	0	24	0	377487360	70	4680
2026-01-08 07:05:18.11	70.96	20.71	-52.5	-54.6	14.4	0.00e+00	0	24	0	378535936	70	4777
2026-01-08 07:05:19.11	70.77	20.80	-52.4	-54.4	14.4	0.00e+00	0	24	0	380633088	70	4693
2026-01-08 07:05:20.11	70.58	20.89	-52.4	-54.4	14.4	0.00e+00	0	24	0	382730240	70	4684
2026-01-08 07:05:21.10	70.40	20.98	-52.4	-54.4	14.5	0.00e+00	0	25	0	384827392	70	4675
2026-01-08 07:05:22.10	70.21	21.08	-52.4	-54.4	14.5	0.00e+00	0	24	0	385875968	70	4673
2026-01-08 07:05:23.10	70.02	21.17	-52.3	-54.3	14.5	0.00e+00	0	24	0	387973120	70	4610
2026-01-08 07:05:24.10	69.83	21.26	-52.3	-54.3	14.5	0.00e+00	0	24	0	390070272	70	4638
2026-01-08 07:05:25.10	69.63	21.35	-52.3	-54.3	14.5	0.00e+00	0	24	0	392167424	70	4613
2026-01-08 07:05:26.10	69.44	21.45	-52.1	-54.1	14.7	0.00e+00	0	24	0	394264576	70	4510
2026-01-08 07:05:27.10	69.24	21.54	-52.0	-53.9	14.7	0.00e+00	0	25	0	395313152	70	4429
2026-01-08 07:05:28.10	69.05	21.63	-51.9	-53.8	14.8	0.00e+00	0	24	0	397410304	70	4379
2026-01-08 07:05:29.10	68.85	21.72	-51.9	-53.8	14.8	0.00e+00	0	25	0	399507456	70	4360
2026-01-08 07:05:30.10	68.65	21.82	-51.8	-53.7	14.8	0.00e+00	0	24	0	401604608	70	4311
2026-01-08 07:05:31.09	68.45	21.91	-51.9	-53.7	14.8	0.00e+00	0	24	0	403701760	70	4321
2026-01-08 07:05:32.09	68.25	22.00	-51.8	-53.6	14.9	0.00e+00	0	25	0	404750336	70	4268
2026-01-08 07:05:33.08	68.05	22.09	-51.8	-53.6	14.9	0.00e+00	0	24	0	406847488	70	4266
2026-01-08 07:05:34.08	67.85	22.18	-51.8	-53.7	14.8	0.00e+00	0	24	0	408944640	70	4311
2026-01-08 07:05:35.08	67.64	22.28	-51.9	-53.8	14.8	0.00e+00	0	25	0	411041792	70	4348
2026-01-08 07:05:36.07	67.44	22.37	-51.8	-53.6	14.9	0.00e+00	0	24	0	412090368	70	4287
2026-01-08 07:05:37.07	67.23	22.46	-51.6	-53.4	14.9	0.00e+00	0	24	0	414187520	69	4413
2026-01-08 07:05:38.06	67.02	22.55	-51.6	-53.4	14.8	0.00e+00	0	24	0	416284672	69	4392
2026-01-08 07:05:39.07	66.81	22.64	-51.6	-53.5	14.8	0.00e+00	0	24	0	418381824	69	4449
2026-01-08 07:05:40.06	66.60	22.73	-51.5	-53.3	14.9	0.00e+00	0	24	0	420478976	69	4342
2026-01-08 07:05:41.05	66.39	22.83	-51.5	-53.2	14.9	0.00e+00	0	24	0	421527552	69	4337
2026-01-08 07:05:42.05	66.18	22.92	-51.4	-53.1	15.0	0.00e+00	0	25	0	423624704	69	4269
2026-01-08 07:05:43.05	65.96	23.01	-51.4	-53.2	14.9	0.00e+00	0	24	0	425721856	69	4300
2026-01-08 07:05:44.05	65.75	23.10	-51.4	-53.2	15.0	0.00e+00	0	24	0	427819008	69	4297
2026-01-08 07:05:45.04	65.53	23.19	-51.4	-53.2	14.9	0.00e+00	0	25	0	429916160	69	4316
2026-01-08 07:05:46.04	65.31	23.28	-51.4	-53.2	14.9	0.00e+00	0	24	0	430964736	69	4322
2026-01-08 07:05:47.04	65.09	23.37	-51.4	-53.2	14.9	0.00e+00	0	24	0	433061888	69	4297
2026-01-08 07:05:48.04	64.87	23.46	-51.4	-53.1	15.0	0.00e+00	0	24	0	435159040	69	4276
2026-01-08 07:05:49.03	64.65	23.55	-51.3	-53.0	15.1	0.00e+00	0	24	0	437256192	69	4223
2026-01-08 07:05:50.03	64.43	23.64	-51.3	-53.0	15.0	0.00e+00	0	24	0	438304768	69	4218
2026-01-08 07:05:51.03	64.20	23.73	-51.1	-52.8	15.1	0.00e+00	0	24	0	440401920	68	4367
2026-01-08 07:05:52.03	63.98	23.82	-51.1	-52.7	15.0	0.00e+00	0	25	0	442499072	68	4331
2026-01-08 07:05:53.02	63.75	23.91	-51.1	-52.8	15.0	0.00e+00	0	24	0	444596224	68	4347
2026-01-08 07:05:54.01	63.52	24.00	-51.0	-52.7	15.0	0.00e+00	0	24	0	446693376	68	4320
2026-01-08 07:05:55.02	63.29	24.09	-51.0	-52.7	14.9	0.00e+00	0	24	0	447741952	68	4316
2026-01-08 07:05:56.01	63.06	24.18	-51.0	-52.7	15.0	0.00e+00	0	24	0	449839104	68	4315
2026-01-08 07:05:57.01	62.83	24.27	-51.1	-52.7	15.0	0.00e+00	0	25	0	451936256	68	4327
2026-01-08 07:05:58.01	62.59	24.36	-51.1	-52.8	15.0	0.00e+00	0	24	0	454033408	68	4349
2026-01-08 07:05:59.01	62.36	24.45	-51.0	-52.7	15.0	0.00e+00	0	24	0	455081984	68	4309
2026-01-08 07:06:00.00	62.12	24.54	-51.0	-52.7	15.0	0.00e+00	0	24	0	457179136	68	4305
2026-01-08 07:06:01.01	61.88	24.63	-51.1	-52.8	15.0	0.00e+00	0	24	0	459276288	68	4355
2026-01-08 07:06:02.00	61.64	24.71	-51.2	-52.9	14.9	0.00e+00	0	24	0	461373440	68	4426
2026-01-08 07:06:03.01	61.40	24.80	-51.0	-52.7	15.0	0.00e+00	0	24	0	463470592	68	4313
2026-01-08 07:06:04.01	61.16	24.89	-51.0	-52.6	15.1	0.00e+00	0	24	0	464519168	68	4289
2026-01-08 07:06:05.00	60.92	24.98	-51.0	-52.7	15.0	0.00e+00	0	24	0	466616320	68	4316
2026-01-08 07:06:06.01	60.67	25.06	-51.0	-52.6	15.1	0.00e+00	0	24	0	468713472	68	4282
2026-01-08 07:06:07.00	60.43	25.15	-51.2	-52.8	14.9	0.00e+00	0	25	0	470810624	68	4391
2026-01-08 07:06:08.00	60.18	25.24	-51.3	-53.0	14.9	0.00e+00	0	25	0	472907776	68	4461
2026-01-08 07:06:09.01	59.93	25.32	-51.3	-53.0	14.9	0.00e+00	0	24	0	473956352	68	4486
2026-01-08 07:06:10.01	59.67	25.41	-51.4	-53.2	14.8	0.00e+00	0	24	0	476053504	68	4552
2026-01-08 07:06:11.00	59.42	25.49	-51.4	-53.2	14.8	0.00e+00	0	24	0	478150656	68	4558
2026-01-08 07:06:12.01	59.17	25.58	-51.5	-53.3	14.8	0.00e+00	0	24	0	480247808	68	4629
2026-01-08 07:06:13.00	58.92	25.66	-51.6	-53.4	14.7	0.00e+00	0	24	0	481296384	68	4664
2026-01-08 07:06:14.00	58.66	25.75	-51.5	-53.3	14.8	0.00e+00	0	25	0	483393536	68	4613
2026-01-08 07:06:14.99	58.41	25.83	-51.6	-53.4	14.7	0.00e+00	0	25	0	485490688	68	4655
2026-01-08 07:06:16.00	58.14	25.91	-51.5	-53.2	14.8	0.00e+00	0	25	0	487587840	68	4593
2026-01-08 07:06:16.99	57.89	26.00	-51.6	-53.4	14.7	0.00e+00	0	24	0	489684992	68	4662
2026-01-08 07:06:17.99	57.62	26.08	-51.7	-53.5	14.6	0.00e+00	0	25	0	490733568	68	4733
2026-01-08 07:06:19.00	57.36	26.16	-51.8	-53.7	14.6	0.00e+00	0	25	0	492830720	68	4827
2026-01-08 07:06:19.99	57.10	26.24	-51.7	-53.5	14.6	0.00e+00	0	24	0	494927872	68	4743
2026-01-08 07:06:20.98	56.83	26.32	-51.7	-53.6	14.6	0.00e+00	0	25	0	497025024	68	4766
2026-01-08 07:06:21.96	56.57	26.40	-51.7	-53.5	14.7	0.00e+00	0	25	0	498073600	68	4726
2026-01-08 07:06:22.97	56.30	26.49	-51.7	-53.5	14.6	0.00e+00	0	25	0	500170752	68	4746
2026-01-08 07:06:23.96	56.03	26.57	-51.7	-53.6	14.6	0.00e+00	0	24	0	502267904	68	4772
2026-01-08 07:06:24.95	55.76	26.64	-51.9	-53.7	14.7	0.00e+00	0	24	0	504365056	69	4582
2026-01-08 07:06:25.94	55.49	26.72	-52.0	-53.8	14.6	0.00e+00	0	25	0	506462208	69	4644
2026-01-08 07:06:26.94	55.22	26.80	-51.9	-53.8	14.7	0.00e+00	0	25	0	507510784	69	4612
2026-01-08 07:06:27.94	54.94	26.88	-52.1	-54.0	14.6	0.00e+00	0	24	0	509607936	69	4723
2026-01-08 07:06:28.95	54.67	26.96	-52.0	-53.9	14.6	0.00e+00	0	25	0	511705088	69	4661
2026-01-08 07:06:29.95	54.39	27.04	-52.0	-53.9	14.6	0.00e+00	0	25	0	513802240	69	4681
2026-01-08 07:06:30.95	54.11	27.11	-52.1	-54.0	14.5	0.00e+00	0	25	0	515899392	69	4716
2026-01-08 07:06:31.95	53.83	27.19	-52.1	-54.0	14.5	0.00e+00	0	25	0	516947968	69	4748
2026-01-08 07:06:32.95	53.54	27.26	-52.1	-53.9	14.6	0.00e+00	0	25	0	519045120	69	4702
2026-01-08 07:06:33.95	53.26	27.34	-52.0	-53.9	14.6	0.00e+00	0	24	0	521142272	69	4692
2026-01-08 07:06:34.94	52.98	27.41	-52.1	-54.0	14.5	0.00e+00	0	24	0	523239424	69	4724
2026-01-08 07:06:35.94	52.69	27.49	-52.0	-53.8	14.6	0.00e+00	0	25	0	525336576	69	4628
2026-01-08 07:06:36.93	52.41	27.56	-52.0	-53.9	14.6	0.00e+00	0	24	0	526385152	69	4667
2026-01-08 07:06:37.91	52.13	27.63	-52.0	-53.8	14.7	0.00e+00	0	25	0	528482304	69	4624
2026-01-08 07:06:38.91	51.84	27.70	-52.0	-53.8	14.6	0.00e+00	0	25	0	530579456	69	4627
2026-01-08 07:06:39.91	51.54	27.77	-52.0	-53.8	14.6	0.00e+00	0	25	0	532676608	69	4638
2026-01-08 07:06:40.90	51.25	27.84	-52.0	-53.9	14.6	0.00e+00	0	25	0	533725184	69	4666
2026-01-08 07:06:41.89	50.96	27.91	-51.9	-53.7	14.7	0.00e+00	0	25	0	535822336	69	4597
2026-01-08 07:06:42.89	50.67	27.98	-51.9	-53.7	14.7	0.00e+00	0	25	0	537919488	69	4589
2026-01-08 07:06:43.89	50.37	28.05	-51.9	-53.8	14.7	0.00e+00	0	25	0	540016640	69	4605
2026-01-08 07:06:44.88	50.08	28.12	-51.9	-53.8	14.7	0.00e+00	0	25	0	542113792	69	4620
2026-01-08 07:06:45.87	49.78	28.19	-52.0	-53.9	14.6	0.00e+00	0	25	0	543162368	69	4657
2026-01-08 07:06:46.87	49.48	28.25	-52.0	-53.8	14.6	0.00e+00	0	25	0	545259520	69	4636
2026-01-08 07:06:47.86	49.18	28.32	-52.0	-53.9	14.6	0.00e+00	0	25	0	547356672	69	4690
2026-01-08 07:06:48.85	48.88	28.38	-52.1	-54.0	14.5	0.00e+00	0	25	0	549453824	69	4745
2026-01-08 07:06:49.86	48.57	28.45	-52.2	-54.2	14.5	0.00e+00	0	25	0	550502400	69	4819
2026-01-08 07:06:50.85	48.27	28.51	-52.3	-54.3	14.5	0.00e+00	0	25	0	552599552	69	4896
2026-01-08 07:06:51.85	47.97	28.57	-52.2	-54.2	14.5	0.00e+00	0	25	0	554696704	69	4821
2026-01-08 07:06:52.85	47.66	28.64	-52.2	-54.1	14.5	0.00e+00	0	25	0	556793856	69	4808
2026-01-08 07:06:53.84	47.35	28.70	-52.3	-54.2	14.5	0.00e+00	0	25	0	558891008	69	4864
2026-01-08 07:06:54.84	47.04	28.76	-52.2	-54.2	14.5	0.00e+00	0	24	0	559939584	69	4825
2026-01-08 07:06:55.85	46.73	28.82	-52.3	-54.3	14.5	0.00e+00	0	25	0	562036736	69	4873
2026-01-08 07:06:56.85	46.42	28.88	-52.2	-54.1	14.5	0.00e+00	0	25	0	564133888	69	4783
2026-01-08 07:06:57.84	46.10	28.93	-52.1	-54.0	14.6	0.00e+00	0	25	0	566231040	69	4732
2026-01-08 07:06:58.84	45.79	28.99	-52.2	-54.1	14.5	0.00e+00	0	25	0	567279616	69	4765
2026-01-08 07:06:59.84	45.47	29.05	-52.2	-54.1	14.5	0.00e+00	0	25	0	569376768	69	4794
2026-01-08 07:07:00.83	45.16	29.10	-52.3	-54.2	14.5	0.00e+00	0	25	0	571473920	69	4869
2026-01-08 07:07:01.84	44.84	29.16	-52.4	-54.4	14.5	0.00e+00	0	25	0	573571072	70	4680
2026-01-08 07:07:02.84	44.52	29.21	-52.6	-54.7	14.4	0.00e+00	0	25	0	575668224	70	4823
2026-01-08 07:07:03.84	44.20	29.26	-52.7	-54.7	14.3	0.00e+00	0	24	0	576716800	70	4839
2026-01-08 07:07:04.83	43.88	29.32	-52.8	-54.9	14.3	0.00e+00	0	25	0	578813952	70	4940
2026-01-08 07:07:05.84	43.56	29.37	-52.9	-55.1	14.3	0.00e+00	0	25	0	580911104	71	4774
2026-01-08 07:07:06.83	43.24	29.42	-52.8	-54.9	14.4	0.00e+00	0	25	0	583008256	71	4659
2026-01-08 07:07:07.83	42.91	29.47	-52.8	-54.8	14.4	0.00e+00	0	25	0	585105408	71	4647
2026-01-08 07:07:08.83	42.59	29.51	-52.6	-54.6	14.5	0.00e+00	0	24	0	586153984	71	4526
2026-01-08 07:07:09.83	42.26	29.56	-52.8	-54.8	14.4	0.00e+00	0	25	0	588251136	71	4651
2026-01-08 07:07:10.82	41.94	29.61	-53.0	-55.2	14.2	0.00e+00	0	25	0	590348288	71	4847
2026-01-08 07:07:11.82	41.61	29.65	-53.0	-55.1	14.3	0.00e+00	0	25	0	592445440	71	4784
2026-01-08 07:07:12.83	41.28	29.70	-52.8	-54.9	14.4	0.00e+00	0	25	0	593494016	71	4684
2026-01-08 07:07:13.82	40.95	29.74	-52.7	-54.8	14.5	0.00e+00	0	25	0	595591168	71	4613
2026-01-08 07:07:14.82	40.62	29.78	-52.8	-54.8	14.4	0.00e+00	0	24	0	597688320	71	4625
2026-01-08 07:07:15.81	40.29	29.82	-52.9	-55.0	14.4	0.00e+00	0	25	0	599785472	71	4714
2026-01-08 07:07:16.81	39.96	29.86	-52.8	-54.9	14.4	0.00e+00	0	25	0	601882624	71	4688
2026-01-08 07:07:17.80	39.63	29.90	-52.9	-55.0	14.3	0.00e+00	0	24	0	602931200	71	4730
2026-01-08 07:07:18.80	39.30	29.94	-52.7	-54.7	14.5	0.00e+00	0	25	0	605028352	71	4560
2026-01-08 07:07:19.80	38.96	29.98	-52.7	-54.7	14.5	0.00e+00	0	24	0	607125504	71	4558
2026-01-08 07:07:20.80	38.62	30.02	-52.6	-54.5	14.6	0.00e+00	0	25	0	609222656	71	4493
2026-01-08 07:07:21.79	38.29	30.05	-52.5	-54.5	14.6	0.00e+00	0	25	0	611319808	71	4473
2026-01-08 07:07:22.79	37.95	30.08	-52.7	-54.7	14.5	0.00e+00	0	25	0	612368384	71	4593
2026-01-08 07:07:23.78	37.62	30.12	-52.8	-54.8	14.4	0.00e+00	0	25	0	614465536	71	4634
2026-01-08 07:07:24.78	37.28	30.15	-52.8	-54.9	14.5	0.00e+00	0	24	0	616562688	71	4668
2026-01-08 07:07:25.78	36.94	30.18	-52.9	-54.9	14.4	0.00e+00	0	25	0	618659840	71	4701
2026-01-08 07:07:26.79	36.60	30.21	-53.0	-55.1	14.3	0.00e+00	0	25	0	619708416	71	4784
2026-01-08 07:07:27.79	36.26	30.24	-53.1	-55.2	14.2	0.00e+00	0	25	0	621805568	71	4857
2026-01-08 07:07:28.78	35.92	30.27	-53.1	-55.3	14.2	0.00e+00	0	25	0	623902720	71	4892
2026-01-08 07:07:29.78	35.58	30.29	-53.2	-55.3	14.2	0.00e+00	0	25	0	625999872	71	4919
2026-01-08 07:07:30.78	35.24	30.32	-53.2	-55.4	14.2	0.00e+00	0	25	0	628097024	71	4929
2026-01-08 07:07:31.79	34.89	30.34	-53.2	-55.4	14.1	0.00e+00	0	25	0	629145600	71	4958
2026-01-08 07:07:32.78	34.55	30.36	-53.2	-55.4	14.1	0.00e+00	0	25	0	631242752	71	4983
2026-01-08 07:07:33.79	34.21	30.39	-53.3	-55.5	14.1	0.00e+00	0	25	0	633339904	71	5006
2026-01-08 07:07:34.79	33.86	30.41	-53.3	-55.5	14.1	0.00e+00	0	25	0	635437056	71	5001
2026-01-08 07:07:35.80	33.51	30.43	-53.4	-55.7	14.0	0.00e+00	0	25	0	637534208	71	5103
2026-01-08 07:07:36.79	33.17	30.44	-53.6	-55.9	14.0	0.00e+00	0	25	0	638582784	72	4957
2026-01-08 07:07:37.78	32.83	30.46	-53.6	-56.0	13.9	0.00e+00	0	25	0	640679936	72	5004
2026-01-08 07:07:38.78	32.48	30.48	-53.6	-55.9	13.9	0.00e+00	0	25	0	642777088	72	4960
2026-01-08 07:07:39.77	32.14	30.49	-53.5	-55.8	14.0	0.00e+00	0	25	0	644874240	72	4921
2026-01-08 07:07:40.78	31.79	30.51	-53.5	-55.8	14.0	0.00e+00	0	25	0	645922816	72	4881
2026-01-08 07:07:41.77	31.45	30.52	-53.6	-56.0	14.0	0.00e+00	0	25	0	648019968	72	5007
2026-01-08 07:07:42.78	31.10	30.53	-53.7	-56.1	13.9	0.00e+00	0	25	0	650117120	72	5075
2026-01-08 07:07:43.77	30.76	30.54	-53.8	-56.2	13.8	0.00e+00	0	25	0	652214272	72	5133
2026-01-08 07:07:44.77	30.41	30.55	-53.7	-56.0	13.9	0.00e+00	0	25	0	654311424	72	5022
2026-01-08 07:07:45.78	30.06	30.56	-53.6	-55.9	14.0	0.00e+00	0	25	0	655360000	72	4983
2026-01-08 07:07:46.76	29.72	30.56	-53.6	-56.0	13.9	0.00e+00	0	25	0	657457152	72	5010
2026-01-08 07:07:47.76	29.37	30.57	-53.7	-56.1	13.9	0.00e+00	0	25	0	659554304	72	5088
2026-01-08 07:07:48.75	29.03	30.57	-53.8	-56.2	13.8	0.00e+00	0	25	0	661651456	72	5119
2026-01-08 07:07:49.75	28.68	30.58	-53.8	-56.2	13.8	0.00e+00	0	24	0	662700032	72	5143
2026-01-08 07:07:50.75	28.33	30.58	-53.7	-56.1	13.9	0.00e+00	0	25	0	664797184	72	5049
2026-01-08 07:07:51.74	27.99	30.58	-53.6	-56.0	14.0	0.00e+00	0	25	0	666894336	72	4992
2026-01-08 07:07:52.74	27.64	30.58	-53.7	-56.0	13.9	0.00e+00	0	25	0	668991488	72	5025
2026-01-08 07:07:53.74	27.29	30.58	-53.5	-55.8	14.1	0.00e+00	0	25	0	671088640	72	4888
2026-01-08 07:07:54.74	26.94	30.57	-53.3	-55.5	14.2	0.00e+00	0	25	0	672137216	72	4743
2026-01-08 07:07:55.73	26.60	30.57	-53.4	-55.6	14.2	0.00e+00	0	25	0	674234368	72	4784
2026-01-08 07:07:56.73	26.25	30.57	-53.3	-55.5	14.2	0.00e+00	0	25	0	676331520	72	4759
2026-01-08 07:07:57.74	25.90	30.56	-53.3	-55.4	14.2	0.00e+00	0	25	0	678428672	72	4705
2026-01-08 07:07:58.73	25.56	30.55	-53.1	-55.2	14.4	0.00e+00	0	25	0	680525824	72	4559
2026-01-08 07:07:59.73	25.21	30.54	-52.9	-55.0	14.6	0.00e+00	0	25	0	681574400	72	4446
2026-01-08 07:08:00.73	24.86	30.53	-52.9	-54.9	14.6	0.00e+00	0	25	0	683671552	72	4411
2026-01-08 07:08:01.72	24.52	30.52	-53.0	-55.0	14.5	0.00e+00	0	25	0	685768704	72	4489
2026-01-08 07:08:02.71	24.18	30.51	-53.1	-55.2	14.4	0.00e+00	0	25	0	687865856	72	4560
2026-01-08 07:08:03.71	23.83	30.50	-53.0	-55.0	14.5	0.00e+00	0	25	0	688914432	72	4483
2026-01-08 07:08:04.71	23.48	30.48	-52.7	-54.7	14.7	0.00e+00	0	25	0	691011584	72	4303
2026-01-08 07:08:05.71	23.14	30.47	-52.6	-54.6	14.6	0.00e+00	0	25	0	693108736	71	4504
2026-01-08 07:08:06.70	22.80	30.45	-52.6	-54.6	14.6	0.00e+00	0	25	0	695205888	71	4512
2026-01-08 07:08:07.69	22.45	30.43	-52.8	-54.9	14.4	0.00e+00	0	25	0	697303040	71	4667
2026-01-08 07:08:08.69	22.11	30.41	-53.0	-55.1	14.3	0.00e+00	0	25	0	698351616	71	4803
2026-01-08 07:08:09.69	21.77	30.39	-53.1	-55.3	14.3	0.00e+00	0	25	0	700448768	71	4876
2026-01-08 07:08:10.69	21.42	30.37	-53.2	-55.3	14.2	0.00e+00	0	25	0	702545920	71	4912
2026-01-08 07:08:11.69	21.08	30.35	-53.2	-55.4	14.2	0.00e+00	0	25	0	704643072	71	4962
2026-01-08 07:08:12.69	20.74	30.32	-53.2	-55.3	14.2	0.00e+00	0	25	0	706740224	71	4925
2026-01-08 07:08:13.69	20.39	30.30	-53.1	-55.3	14.2	0.00e+00	0	25	0	707788800	71	4891
2026-01-08 07:08:14.69	20.05	30.27	-52.8	-54.9	14.4	0.00e+00	0	25	0	709885952	71	4657
2026-01-08 07:08:15.69	19.71	30.25	-52.7	-54.7	14.5	0.00e+00	0	25	0	711983104	71	4584
2026-01-08 07:08:16.69	19.37	30.22	-52.8	-54.8	14.5	0.00e+00	0	25	0	714080256	71	4629
2026-01-08 07:08:17.69	19.03	30.19	-52.8	-54.8	14.5	0.00e+00	0	25	0	715128832	71	4624
2026-01-08 07:08:18.69	18.69	30.16	-52.8	-54.8	14.5	0.00e+00	0	25	0	717225984	71	4651
2026-01-08 07:08:19.69	18.36	30.13	-52.8	-54.9	14.4	0.00e+00	0	25	0	719323136	71	4653
2026-01-08 07:08:20.69	18.02	30.09	-52.8	-54.9	14.4	0.00e+00	0	25	0	721420288	71	4658
2026-01-08 07:08:21.69	17.68	30.06	-52.9	-55.0	14.4	0.00e+00	0	25	0	723517440	71	4722
2026-01-08 07:08:22.69	17.34	30.02	-52.9	-54.9	14.4	0.00e+00	0	25	0	724566016	71	4670
2026-01-08 07:08:23.69	17.01	29.99	-52.9	-54.9	14.4	0.00e+00	0	25	0	726663168	71	4686
2026-01-08 07:08:24.69	16.67	29.95	-52.8	-54.8	14.5	0.00e+00	0	25	0	728760320	71	4630
2026-01-08 07:08:25.69	16.34	29.91	-52.6	-54.6	14.5	0.00e+00	0	25	0	730857472	71	4526
2026-01-08 07:08:26.70	16.00	29.87	-52.6	-54.5	14.6	0.00e+00	0	24	0	732954624	71	4474
2026-01-08 07:08:27.70	15.67	29.83	-52.6	-54.6	14.6	0.00e+00	0	25	0	734003200	71	4516
2026-01-08 07:08:28.70	15.34	29.79	-52.7	-54.7	14.5	0.00e+00	0	25	0	736100352	71	4555
2026-01-08 07:08:29.70	15.01	29.75	-52.8	-54.8	14.4	0.00e+00	0	25	0	738197504	71	4642
2026-01-08 07:08:30.69	14.68	29.71	-52.9	-54.9	14.4	0.00e+00	0	25	0	740294656	71	4682
2026-01-08 07:08:31.69	14.35	29.66	-53.0	-55.1	14.4	0.00e+00	0	25	0	741343232	71	4775
2026-01-08 07:08:32.69	14.03	29.62	-53.0	-55.1	14.3	0.00e+00	0	25	0	743440384	71	4767
2026-01-08 07:08:33.69	13.70	29.57	-53.0	-55.1	14.3	0.00e+00	0	25	0	745537536	71	4806
2026-01-08 07:08:34.68	13.38	29.53	-53.1	-55.2	14.2	0.00e+00	0	25	0	747634688	71	4849
2026-01-08 07:08:35.69	13.05	29.48	-53.1	-55.3	14.2	0.00e+00	0	25	0	749731840	71	4891
2026-01-08 07:08:36.68	12.73	29.43	-53.2	-55.3	14.2	0.00e+00	0	25	0	750780416	71	4920
2026-01-08 07:08:37.69	12.40	29.38	-53.2	-55.3	14.2	0.00e+00	0	25	0	752877568	71	4908
2026-01-08 07:08:38.68	12.08	29.33	-53.2	-55.4	14.2	0.00e+00	0	25	0	754974720	71	4940
2026-01-08 07:08:39.69	11.76	29.28	-53.4	-55.6	14.0	0.00e+00	0	25	0	757071872	71	5096
2026-01-08 07:08:40.68	11.44	29.22	-53.5	-55.8	14.1	0.00e+00	0	25	0	759169024	72	4889
2026-01-08 07:08:41.68	11.12	29.17	-53.5	-55.7	14.1	0.00e+00	0	25	0	760217600	72	4847
2026-01-08 07:08:42.68	10.80	29.12	-53.5	-55.7	14.1	0.00e+00	0	25	0	762314752	72	4857
2026-01-08 07:08:43.67	10.49	29.06	-53.4	-55.7	14.1	0.00e+00	0	25	0	764411904	72	4834
2026-01-08 07:08:44.67	10.17	29.01	-53.5	-55.8	14.1	0.00e+00	0	25	0	766509056	72	4885
2026-01-08 07:08:45.67	9.86	28.95	-53.5	-55.8	14.1	0.00e+00	0	25	0	767557632	72	4891
2026-01-08 07:08:46.68	9.54	28.89	-53.4	-55.6	14.2	0.00e+00	0	25	0	769654784	72	4794
2026-01-08 07:08:47.67	9.23	28.83	-53.4	-55.7	14.1	0.00e+00	0	25	0	771751936	72	4841
2026-01-08 07:08:48.67	8.92	28.77	-53.5	-55.7	14.1	0.00e+00	0	25	0	773849088	72	4861
2026-01-08 07:08:49.66	8.62	28.71	-53.6	-55.9	14.0	0.00e+00	0	25	0	775946240	72	4973
2026-01-08 07:08:50.67	8.30	28.65	-53.8	-56.2	13.8	0.00e+00	0	25	0	776994816	72	5150
2026-01-08 07:08:51.66	8.00	28.59	-53.9	-56.3	13.7	0.00e+00	0	25	0	779091968	72	5216
2026-01-08 07:08:52.65	7.70	28.53	-53.9	-56.3	13.9	0.00e+00	0	25	0	781189120	73	4909
2026-01-08 07:08:53.64	7.39	28.46	-53.9	-56.3	14.0	0.00e+00	0	25	0	783286272	73	4886
2026-01-08 07:08:54.63	7.09	28.40	-53.8	-56.1	14.0	0.00e+00	0	25	0	785383424	73	4802
2026-01-08 07:08:55.63	6.79	28.34	-53.7	-56.0	14.1	0.00e+00	0	25	0	786432000	73	4729
2026-01-08 07:08:56.63	6.49	28.27	-53.7	-56.0	14.1	0.00e+00	0	25	0	788529152	73	4727
2026-01-08 07:08:57.62	6.19	28.20	-53.6	-55.8	14.2	0.00e+00	0	25	0	790626304	73	4635
2026-01-08 07:08:58.62	5.89	28.14	-53.4	-55.6	14.4	0.00e+00	0	25	0	792723456	73	4505
2026-01-08 07:08:59.61	5.60	28.07	-53.3	-55.5	14.4	0.00e+00	0	25	0	793772032	73	4454
2026-01-08 07:09:00.62	5.30	28.00	-53.3	-55.5	14.4	0.00e+00	0	25	0	795869184	73	4447
2026-01-08 07:09:01.62	5.00	27.93	-53.1	-55.2	14.4	0.00e+00	0	25	0	797966336	72	4592
2026-01-08 07:09:02.62	4.71	27.86	-53.1	-55.2	14.4	0.00e+00	0	25	0	800063488	72	4589
2026-01-08 07:09:03.61	4.42	27.79	-53.2	-55.3	14.3	0.00e+00	0	25	0	802160640	72	4649
2026-01-08 07:09:04.62	4.13	27.72	-53.2	-55.4	14.3	0.00e+00	0	25	0	803209216	72	4669
2026-01-08 07:09:05.62	3.84	27.65	-53.3	-55.4	14.2	0.00e+00	0	25	0	805306368	72	4695
2026-01-08 07:09:06.61	3.55	27.58	-53.3	-55.5	14.3	0.00e+00	0	25	0	807403520	72	4711
2026-01-08 07:09:07.61	3.26	27.50	-53.2	-55.3	14.4	0.00e+00	0	25	0	809500672	72	4624
2026-01-08 07:09:08.61	2.98	27.43	-53.1	-55.2	14.4	0.00e+00	0	25	0	810549248	72	4565
2026-01-08 07:09:09.61	2.69	27.36	-53.1	-55.2	14.4	0.00e+00	0	25	0	812646400	72	4555
2026-01-08 07:09:10.62	2.41	27.28	-53.0	-55.0	14.5	0.00e+00	0	25	0	814743552	72	4489
2026-01-08 07:09:11.61	2.13	27.21	-52.8	-54.8	14.6	0.00e+00	0	25	0	816840704	72	4379
2026-01-08 07:09:12.61	1.85	27.13	-52.7	-54.7	14.7	0.00e+00	0	25	0	818937856	72	4319
2026-01-08 07:09:13.61	1.57	27.05	-52.7	-54.7	14.7	0.00e+00	0	25	0	819986432	72	4320
2026-01-08 07:09:14.60	1.29	26.98	-52.8	-54.8	14.6	0.00e+00	0	25	0	822083584	72	4361
2026-01-08 07:09:15.60	1.02	26.90	-52.8	-54.8	14.6	0.00e+00	0	25	0	824180736	72	4385
2026-01-08 07:09:16.60	0.74	26.82	-52.9	-54.9	14.6	0.00e+00	0	25	0	826277888	72	4409
2026-01-08 07:09:17.59	0.47	26.74	-52.8	-54.8	14.6	0.00e+00	0	25	0	828375040	72	4391
2026-01-08 07:09:18.59	0.20	26.67	-52.6	-54.6	14.6	0.00e+00	0	25	0	829423616	71	4529
2026-01-08 07:09:19.60	359.92	26.58	-52.5	-54.5	14.6	0.00e+00	0	25	0	831520768	71	4453
2026-01-08 07:09:20.59	359.66	26.51	-52.6	-54.5	14.6	0.00e+00	0	25	0	833617920	71	4473
2026-01-08 07:09:21.59	359.39	26.43	-52.5	-54.4	14.7	0.00e+00	0	25	0	835715072	71	4425
2026-01-08 07:09:22.59	359.12	26.34	-52.5	-54.4	14.7	0.00e+00	0	25	0	837812224	71	4424
2026-01-08 07:09:23.58	358.86	26.26	-52.4	-54.3	14.7	0.00e+00	0	25	0	838860800	71	4390
2026-01-08 07:09:24.58	358.59	26.18	-52.3	-54.2	14.8	0.00e+00	0	25	0	840957952	71	4324
2026-01-08 07:09:25.57	358.33	26.10	-52.2	-54.0	14.9	0.00e+00	0	25	0	843055104	71	4241
2026-01-08 07:09:26.57	358.07	26.02	-52.3	-54.2	14.8	0.00e+00	0	25	0	845152256	71	4312
2026-01-08 07:09:27.58	357.81	25.93	-52.4	-54.3	14.8	0.00e+00	0	25	0	846200832	71	4351
2026-01-08 07:09:28.58	357.55	25.85	-52.3	-54.1	14.8	0.00e+00	0	25	0	848297984	71	4282
2026-01-08 07:09:29.57	357.30	25.77	-52.3	-54.1	14.8	0.00e+00	0	25	0	850395136	71	4274
2026-01-08 07:09:30.57	357.04	25.68	-52.2	-54.1	14.9	0.00e+00	0	25	0	852492288	71	4259
2026-01-08 07:09:31.57	356.78	25.60	-52.1	-54.0	14.7	0.00e+00	0	25	0	854589440	70	4457
2026-01-08 07:09:32.57	356.53	25.51	-52.1	-53.9	14.8	0.00e+00	0	25	0	855638016	70	4408
2026-01-08 07:09:33.57	356.28	25.43	-51.9	-53.7	14.9	0.00e+00	0	25	0	857735168	70	4292
2026-01-08 07:09:34.57	356.03	25.34	-51.9	-53.7	14.9	0.00e+00	0	25	0	859832320	70	4308
2026-01-08 07:09:35.57	355.78	25.26	-51.8	-53.6	14.9	0.00e+00	0	25	0	861929472	70	4263
2026-01-08 07:09:36.56	355.53	25.17	-51.6	-53.3	14.9	0.00e+00	0	25	0	862978048	69	4352
2026-01-08 07:09:37.57	355.29	25.09	-51.6	-53.3	14.9	0.00e+00	0	24	0	865075200	69	4387
2026-01-08 07:09:38.57	355.04	25.00	-51.6	-53.4	14.9	0.00e+00	0	25	0	867172352	69	4407
2026-01-08 07:09:39.57	354.80	24.91	-51.5	-53.2	15.0	0.00e+00	0	25	0	869269504	69	4304
2026-01-08 07:09:40.57	354.55	24.82	-51.4	-53.1	15.0	0.00e+00	0	25	0	871366656	69	4262
2026-01-08 07:09:41.56	354.32	24.74	-51.3	-52.9	15.1	0.00e+00	0	24	0	872415232	69	4193
2026-01-08 07:09:42.56	354.08	24.65	-51.1	-52.7	15.0	0.00e+00	0	25	0	874512384	68	4338
2026-01-08 07:09:43.55	353.84	24.56	-51.0	-52.6	15.1	0.00e+00	0	25	0	876609536	68	4291
2026-01-08 07:09:44.54	353.61	24.47	-51.0	-52.5	15.1	0.00e+00	0	25	0	878706688	68	4240
2026-01-08 07:09:45.53	353.37	24.39	-50.9	-52.5	15.2	0.00e+00	0	25	0	880803840	68	4201
2026-01-08 07:09:46.53	353.14	24.30	-50.8	-52.4	15.2	0.00e+00	0	25	0	881852416	68	4176
2026-01-08 07:09:47.52	352.91	24.21	-50.8	-52.3	15.2	0.00e+00	0	24	0	883949568	68	4115
2026-01-08 07:09:48.52	352.68	24.12	-50.4	-52.0	15.2	0.00e+00	0	25	0	886046720	67	4194
2026-01-08 07:09:49.51	352.45	24.03	-50.4	-52.0	15.2	0.00e+00	0	24	0	888143872	67	4199
2026-01-08 07:09:50.51	352.22	23.94	-50.4	-51.9	15.2	0.00e+00	0	25	0	889192448	67	4176
2026-01-08 07:09:51.50	351.99	23.85	-50.5	-52.0	15.2	0.00e+00	0	25	0	891289600	67	4237
2026-01-08 07:09:52.49	351.77	23.77	-50.4	-52.0	15.2	0.00e+00	0	25	0	893386752	67	4208
2026-01-08 07:09:53.50	351.54	23.67	-50.5	-52.0	15.2	0.00e+00	0	25	0	895483904	67	4236
2026-01-08 07:09:54.49	351.32	23.58	-50.3	-51.8	15.3	0.00e+00	0	25	0	897581056	67	4130
2026-01-08 07:09:55.49	351.10	23.49	-50.2	-51.7	15.3	0.00e+00	0	25	0	898629632	67	4079
2026-01-08 07:09:56.49	350.88	23.40	-50.2	-51.6	15.3	0.00e+00	0	25	0	900726784	67	4051
2026-01-08 07:09:57.49	350.66	23.31	-49.9	-51.3	15.3	0.00e+00	0	25	0	902823936	66	4143
2026-01-08 07:09:58.48	350.44	23.22	-49.7	-51.1	15.4	0.00e+00	0	25	0	904921088	66	4038
2026-01-08 07:09:59.48	350.22	23.13	-49.6	-51.0	15.3	0.00e+00	0	25	0	905969664	65	4237
2026-01-08 07:10:00.48	350.01	23.04	-49.6	-51.0	15.3	0.00e+00	0	25	0	908066816	65	4238
2026-01-08 07:10:01.48	349.79	22.95	-49.6	-51.0	15.3	0.00e+00	0	25	0	910163968	65	4227
2026-01-08 07:10:02.48	349.58	22.86	-49.6	-51.0	15.2	0.00e+00	0	25	0	912261120	65	4226
2026-01-08 07:10:03.47	349.37	22.77	-49.6	-51.0	15.3	0.00e+00	0	25	0	914358272	65	4224
2026-01-08 07:10:04.47	349.16	22.68	-49.7	-51.1	15.3	0.00e+00	0	25	0	915406848	65	4289
2026-01-08 07:10:05.47	348.95	22.58	-49.8	-51.2	15.2	0.00e+00	0	25	0	917504000	65	4320
2026-01-08 07:10:06.47	348.74	22.49	-49.6	-51.1	15.3	0.00e+00	0	25	0	919601152	65	4258
2026-01-08 07:10:07.48	348.53	22.40	-49.5	-51.0	15.3	0.00e+00	0	25	0	921698304	65	4196
2026-01-08 07:10:08.48	348.33	22.31	-49.5	-50.9	15.3	0.00e+00	0	25	0	922746880	65	4165
2026-01-08 07:10:09.47	348.12	22.22	-49.4	-50.8	15.4	0.00e+00	0	25	0	924844032	65	4116
2026-01-08 07:10:10.47	347.92	22.12	-49.4	-50.8	15.3	0.00e+00	0	25	0	926941184	65	4144
2026-01-08 07:10:11.47	347.72	22.03	-49.4	-50.8	15.4	0.00e+00	0	25	0	929038336	65	4140
2026-01-08 07:10:12.48	347.51	21.94	-49.6	-51.0	15.3	0.00e+00	0	25	0	931135488	65	4211
2026-01-08 07:10:13.47	347.32	21.85	-49.7	-51.1	15.2	0.00e+00	0	25	0	932184064	65	4265
2026-01-08 07:10:14.47	347.12	21.76	-49.7	-51.1	15.2	0.00e+00	0	25	0	934281216	65	4277
2026-01-08 07:10:15.46	346.92	21.66	-49.8	-51.2	15.2	0.00e+00	0	25	0	936378368	65	4337
2026-01-08 07:10:16.46	346.73	21.57	-49.9	-51.3	15.1	0.00e+00	0	25	0	938475520	65	4385
2026-01-08 07:10:17.46	346.53	21.48	-49.8	-51.3	15.2	0.00e+00	0	24	0	940572672	65	4363
2026-01-08 07:10:18.46	346.34	21.39	-49.8	-51.3	15.2	0.00e+00	0	25	0	941621248	65	4346
2026-01-08 07:10:19.46	346.14	21.30	-49.9	-51.4	15.1	0.00e+00	0	25	0	943718400	65	4398
2026-01-08 07:10:20.46	345.95	21.20	-49.8	-51.3	15.2	0.00e+00	0	25	0	945815552	65	4359
2026-01-08 07:10:21.45	345.76	21.11	-49.9	-51.3	15.1	0.00e+00	0	25	0	947912704	65	4380
2026-01-08 07:10:22.45	345.58	21.02	-49.9	-51.4	15.1	0.00e+00	0	25	0	950009856	65	4426
2026-01-08 07:10:23.45	345.39	20.93	-50.1	-51.6	15.1	0.00e+00	0	25	0	951058432	65	4501
2026-01-08 07:10:24.45	345.20	20.83	-50.0	-51.5	15.1	0.00e+00	0	25	0	953155584	65	4487
2026-01-08 07:10:25.45	345.01	20.74	-50.1	-51.6	15.0	0.00e+00	0	25	0	955252736	65	4532
2026-01-08 07:10:26.45	344.83	20.65	-50.1	-51.7	15.0	0.00e+00	0	25	0	957349888	65	4551
2026-01-08 07:10:27.44	344.65	20.56	-50.1	-51.6	15.1	0.00e+00	0	24	0	958398464	65	4499
2026-01-08 07:10:28.45	344.46	20.47	-50.2	-51.7	15.0	0.00e+00	0	25	0	960495616	65	4571
2026-01-08 07:10:29.45	344.28	20.37	-50.1	-51.6	15.0	0.00e+00	0	25	0	962592768	65	4504
2026-01-08 07:10:30.45	344.10	20.28	-50.2	-51.7	15.0	0.00e+00	0	25	0	964689920	65	4571
2026-01-08 07:10:31.45	343.92	20.19	-50.2	-51.8	15.0	0.00e+00	0	25	0	966787072	65	4615
2026-01-08 07:10:32.46	343.74	20.10	-50.5	-52.0	15.0	0.00e+00	0	25	0	967835648	66	4481
2026-01-08 07:10:33.46	343.57	20.00	-50.6	-52.2	14.9	0.00e+00	0	25	0	969932800	66	4595
2026-01-08 07:10:34.45	343.39	19.91	-50.7	-52.3	14.9	0.00e+00	0	25	0	972029952	66	4630
2026-01-08 07:10:35.45	343.22	19.82	-50.8	-52.5	14.8	0.00e+00	0	24	0	974127104	66	4715
2026-01-08 07:10:36.46	343.04	19.73	-50.8	-52.4	14.9	0.00e+00	0	25	0	976224256	66	4695
2026-01-08 07:10:37.46	342.87	19.64	-50.8	-52.4	14.8	0.00e+00	0	25	0	977272832	66	4695
2026-01-08 07:10:38.46	342.70	19.54	-50.8	-52.4	14.8	0.00e+00	0	25	0	979369984	66	4701
2026-01-08 07:10:39.45	342.53	19.45	-50.8	-52.4	14.8	0.00e+00	0	25	0	981467136	66	4673
2026-01-08 07:10:40.45	342.36	19.36	-50.8	-52.4	14.8	0.00e+00	0	25	0	983564288	66	4691
2026-01-08 07:10:41.45	342.19	19.27	-50.9	-52.6	14.9	0.00e+00	0	24	0	985661440	67	4495
2026-01-08 07:10:42.45	342.02	19.18	-51.0	-52.7	14.9	0.00e+00	0	25	0	986710016	67	4569
2026-01-08 07:10:43.45	341.86	19.09	-51.1	-52.8	14.8	0.00e+00	0	24	0	988807168	67	4627
2026-01-08 07:10:44.45	341.69	19.00	-51.2	-52.9	14.8	0.00e+00	0	25	0	990904320	67	4698
2026-01-08 07:10:45.45	341.53	18.91	-51.2	-52.9	14.8	0.00e+00	0	25	0	993001472	67	4670
2026-01-08 07:10:46.45	341.36	18.81	-51.1	-52.9	14.8	0.00e+00	0	25	0	994050048	67	4658
2026-01-08 07:10:47.44	341.20	18.72	-51.2	-52.9	14.7	0.00e+00	0	24	0	996147200	67	4691
2026-01-08 07:10:48.43	341.04	18.63	-51.2	-52.9	14.8	0.00e+00	0	25	0	998244352	67	4674
2026-01-08 07:10:49.43	340.88	18.54	-51.2	-53.0	14.7	0.00e+00	0	25	0	1000341504	67	4712
2026-01-08 07:10:50.43	340.72	18.45	-51.2	-52.9	14.7	0.00e+00	0	24	0	1002438656	67	4672
2026-01-08 07:10:51.42	340.57	18.36	-51.1	-52.8	14.8	0.00e+00	0	25	0	1003487232	67	4622
2026-01-08 07:10:52.42	340.41	18.27	-51.1	-52.9	14.8	0.00e+00	0	25	0	1005584384	67	4662
2026-01-08 07:10:53.41	340.25	18.18	-51.2	-52.9	14.7	0.00e+00	0	25	0	1007681536	67	4695
2026-01-08 07:10:54.41	340.10	18.09	-51.2	-53.0	14.7	0.00e+00	0	25	0	1009778688	67	4726
2026-01-08 07:10:55.40	339.94	18.00	-51.3	-53.0	14.7	0.00e+00	0	25	0	1010827264	67	4756
2026-01-08 07:10:56.39	339.79	17.91	-51.3	-53.0	14.7	0.00e+00	0	25	0	1012924416	67	4743
2026-01-08 07:10:57.39	339.64	17.82	-51.4	-53.1	14.6	0.00e+00	0	25	0	1015021568	67	4806
2026-01-08 07:10:58.39	339.49	17.73	-51.6	-53.4	14.7	0.00e+00	0	25	0	1017118720	68	4661
2026-01-08 07:10:59.39	339.34	17.64	-51.6	-53.5	14.7	0.00e+00	0	25	0	1019215872	68	4712
2026-01-08 07:11:00.38	339.19	17.56	-51.6	-53.3	14.7	0.00e+00	0	25	0	1020264448	68	4650
2026-01-08 07:11:01.37	339.04	17.47	-51.6	-53.4	14.7	0.00e+00	0	24	0	1022361600	68	4666
2026-01-08 07:11:02.38	338.89	17.38	-51.6	-53.5	14.6	0.00e+00	0	25	0	1024458752	68	4707
2026-01-08 07:11:03.38	338.74	17.29	-51.6	-53.3	14.7	0.00e+00	0	25	0	1026555904	68	4643
2026-01-08 07:11:04.38	338.59	17.20	-51.5	-53.2	14.8	0.00e+00	0	25	0	1027604480	68	4592
2026-01-08 07:11:05.37	338.45	17.11	-51.6	-53.4	14.7	0.00e+00	0	25	0	1029701632	68	4684
2026-01-08 07:11:06.37	338.31	17.02	-51.7	-53.5	14.6	0.00e+00	0	25	0	1031798784	68	4724
2026-01-08 07:11:07.37	338.16	16.93	-51.7	-53.5	14.6	0.00e+00	0	25	0	1033895936	68	4746
2026-01-08 07:11:08.37	338.02	16.84	-51.8	-53.6	14.6	0.00e+00	0	25	0	1035993088	68	4814
2026-01-08 07:11:09.37	337.88	16.76	-51.9	-53.8	14.5	0.00e+00	0	25	0	1037041664	68	4876
2026-01-08 07:11:10.37	337.73	16.67	-52.0	-53.9	14.6	0.00e+00	0	25	0	1039138816	69	4656
2026-01-08 07:11:11.36	337.60	16.58	-52.0	-53.9	14.6	0.00e+00	0	25	0	1041235968	69	4678
2026-01-08 07:11:12.36	337.46	16.49	-52.0	-54.0	14.5	0.00e+00	0	25	0	1043333120	69	4709
2026-01-08 07:11:13.36	337.32	16.40	-51.9	-53.8	14.6	0.00e+00	0	25	0	1045430272	69	4624
2026-01-08 07:11:14.36	337.18	16.32	-52.0	-53.9	14.6	0.00e+00	0	25	0	1046478848	69	4657
2026-01-08 07:11:15.34	337.04	16.23	-52.0	-53.9	14.6	0.00e+00	0	25	0	1048576000	69	4656
2026-01-08 07:11:16.33	336.91	16.14	-52.0	-53.9	14.6	0.00e+00	0	25	0	1050673152	69	4683
2026-01-08 07:11:17.33	336.77	16.06	-52.0	-53.9	14.6	0.00e+00	0	25	0	1052770304	69	4692
2026-01-08 07:11:18.33	336.64	15.97	-52.1	-54.0	14.5	0.00e+00	0	24	0	1053818880	69	4735
2026-01-08 07:11:19.33	336.50	15.88	-52.1	-54.0	14.5	0.00e+00	0	25	0	1055916032	69	4722
2026-01-08 07:11:20.33	336.37	15.80	-52.0	-53.9	14.6	0.00e+00	0	25	0	1058013184	69	4668
2026-01-08 07:11:21.33	336.24	15.71	-52.1	-54.0	14.5	0.00e+00	0	25	0	1060110336	69	4725
2026-01-08 07:11:22.33	336.11	15.62	-52.1	-54.0	14.5	0.00e+00	0	25	0	1062207488	69	4759
2026-01-08 07:11:23.33	335.98	15.54	-52.2	-54.1	14.5	0.00e+00	0	25	0	1063256064	69	4795
2026-01-08 07:11:24.33	335.85	15.45	-52.2	-54.1	14.4	0.00e+00	0	25	0	1065353216	69	4792
2026-01-08 07:11:25.32	335.72	15.36	-52.2	-54.1	14.4	0.00e+00	0	25	0	1067450368	69	4803
2026-01-08 07:11:26.32	335.59	15.28	-52.2	-54.2	14.4	0.00e+00	0	25	0	1069547520	69	4819
2026-01-08 07:11:27.32	335.46	15.19	-52.1	-54.1	14.5	0.00e+00	0	25	0	1070596096	69	4778
2026-01-08 07:11:28.32	335.34	15.11	-52.2	-54.2	14.4	0.00e+00	0	25	0	1072693248	69	4821
2026-01-08 07:11:29.32	335.21	15.02	-52.2	-54.2	14.4	0.00e+00	0	25	0	1074790400	69	4826
2026-01-08 07:11:30.31	335.08	14.94	-52.2	-54.2	14.4	0.00e+00	0	25	0	1076887552	69	4852
2026-01-08 07:11:31.32	334.96	14.85	-52.3	-54.2	14.4	0.00e+00	0	25	0	1078984704	69	4870
2026-01-08 07:11:32.32	334.83	14.77	-52.3	-54.3	14.3	0.00e+00	0	25	0	1080033280	69	4899
2026-01-08 07:11:33.33	334.71	14.68	-52.3	-54.4	14.3	0.00e+00	0	25	0	1082130432	69	4935
2026-01-08 07:11:34.32	334.59	14.60	-52.3	-54.3	14.3	0.00e+00	0	25	0	1084227584	69	4915
2026-01-08 07:11:35.32	334.47	14.51	-52.4	-54.4	14.3	0.00e+00	0	25	0	1086324736	69	4982
2026-01-08 07:11:36.32	334.34	14.43	-52.4	-54.5	14.4	0.00e+00	0	25	0	1088421888	70	4707
2026-01-08 07:11:37.31	334.23	14.34	-52.5	-54.5	14.4	0.00e+00	0	25	0	1089470464	70	4757
2026-01-08 07:11:38.31	334.11	14.26	-52.5	-54.6	14.3	0.00e+00	0	25	0	1091567616	70	4772
2026-01-08 07:11:39.31	333.99	14.18	-52.5	-54.5	14.4	0.00e+00	0	25	0	1093664768	70	4740
2026-01-08 07:11:40.31	333.87	14.09	-52.5	-54.6	14.3	0.00e+00	0	25	0	1095761920	70	4776
2026-01-08 07:11:41.30	333.75	14.01	-52.4	-54.4	14.4	0.00e+00	0	25	0	1097859072	70	4701
2026-01-08 07:11:42.30	333.63	13.93	-52.4	-54.4	14.4	0.00e+00	0	25	0	1098907648	70	4697
2026-01-08 07:11:43.30	333.52	13.84	-52.3	-54.3	14.5	0.00e+00	0	25	0	1101004800	70	4626
2026-01-08 07:11:44.30	333.40	13.76	-52.3	-54.3	14.4	0.00e+00	0	25	0	1103101952	70	4648
2026-01-08 07:11:45.30	333.29	13.68	-52.3	-54.3	14.4	0.00e+00	0	25	0	1105199104	70	4648
2026-01-08 07:11:46.29	333.17	13.59	-52.4	-54.4	14.4	0.00e+00	0	25	0	1106247680	70	4665
2026-01-08 07:11:47.29	333.06	13.51	-52.4	-54.4	14.4	0.00e+00	0	25	0	1108344832	70	4684
2026-01-08 07:11:48.29	332.95	13.43	-52.5	-54.5	14.4	0.00e+00	0	25	0	1110441984	70	4753
2026-01-08 07:11:49.28	332.84	13.35	-52.5	-54.5	14.3	0.00e+00	0	25	0	1112539136	70	4754
2026-01-08 07:11:50.27	332.72	13.27	-52.6	-54.7	14.3	0.00e+00	0	25	0	1114636288	70	4825
2026-01-08 07:11:51.26	332.61	13.18	-52.5	-54.7	14.3	0.00e+00	0	25	0	1115684864	70	4824
2026-01-08 07:11:52.26	332.50	13.10	-52.6	-54.7	14.2	0.00e+00	0	24	0	1117782016	70	4868
2026-01-08 07:11:53.26	332.39	13.02	-52.7	-54.8	14.2	0.00e+00	0	25	0	1119879168	70	4907
2026-01-08 07:11:54.25	332.29	12.94	-52.8	-55.0	14.1	0.00e+00	0	25	0	1121976320	70	4984
2026-01-08 07:11:55.25	332.18	12.86	-52.7	-54.9	14.1	0.00e+00	0	25	0	1123024896	70	4956
2026-01-08 07:11:56.25	332.07	12.78	-52.8	-55.0	14.1	0.00e+00	0	25	0	1125122048	70	5001
2026-01-08 07:11:57.25	331.96	12.70	-52.8	-55.0	14.1	0.00e+00	0	25	0	1127219200	70	4988
2026-01-08 07:11:58.25	331.85	12.62	-52.8	-55.0	14.1	0.00e+00	0	24	0	1129316352	70	5011
2026-01-08 07:11:59.25	331.75	12.54	-52.7	-54.9	14.1	0.00e+00	0	25	0	1131413504	70	4941
2026-01-08 07:12:00.25	331.64	12.46	-52.7	-54.9	14.1	0.00e+00	0	25	0	1132462080	70	4944
2026-01-08 07:12:01.24	331.54	12.38	-52.7	-54.9	14.1	0.00e+00	0	25	0	1134559232	70	4946
2026-01-08 07:12:02.24	331.43	12.30	-52.7	-54.8	14.1	0.00e+00	0	25	0	1136656384	70	4923
2026-01-08 07:12:03.24	331.33	12.22	-52.7	-54.9	14.1	0.00e+00	0	25	0	1138753536	70	4937
2026-01-08 07:12:04.24	331.23	12.14	-52.8	-55.0	14.1	0.00e+00	0	25	0	1140850688	70	5002
2026-01-08 07:12:05.24	331.12	12.06	-52.8	-55.0	14.0	0.00e+00	0	25	0	1141899264	70	5023
2026-01-08 07:12:06.23	331.02	11.98	-52.8	-55.0	14.2	0.00e+00	0	25	0	1143996416	71	4751
2026-01-08 07:12:07.24	330.92	11.90	-52.9	-55.1	14.2	0.00e+00	0	25	0	1146093568	71	4786
2026-01-08 07:12:08.24	330.82	11.82	-53.0	-55.2	14.0	0.00e+00	0	25	0	1148190720	71	4852
2026-01-08 07:12:09.24	330.72	11.74	-52.9	-55.2	14.0	0.00e+00	0	25	0	1150287872	71	4851
2026-01-08 07:12:10.24	330.62	11.66	-53.1	-55.4	13.9	0.00e+00	0	25	0	1151336448	71	4978
2026-01-08 07:12:11.24	330.52	11.58	-53.1	-55.5	13.9	0.00e+00	0	25	0	1153433600	71	4989
2026-01-08 07:12:12.25	330.42	11.50	-53.2	-55.6	13.9	0.00e+00	0	25	0	1155530752	71	5059
2026-01-08 07:12:13.24	330.32	11.43	-53.2	-55.6	13.8	0.00e+00	0	25	0	1157627904	71	5087
2026-01-08 07:12:14.23	330.23	11.35	-53.1	-55.5	13.9	0.00e+00	0	25	0	1158676480	71	5019
2026-01-08 07:12:15.23	330.13	11.27	-53.1	-55.5	13.9	0.00e+00	0	25	0	1160773632	71	5011
2026-01-08 07:12:16.22	330.03	11.19	-53.1	-55.5	13.9	0.00e+00	0	25	0	1162870784	71	4999
2026-01-08 07:12:17.23	329.94	11.11	-53.1	-55.4	14.0	0.00e+00	0	25	0	1164967936	71	4979
2026-01-08 07:12:18.23	329.84	11.04	-53.0	-55.4	14.0	0.00e+00	0	25	0	1167065088	71	4928
2026-01-08 07:12:19.23	329.74	10.96	-53.0	-55.3	14.0	0.00e+00	0	24	0	1168113664	71	4910
2026-01-08 07:12:20.23	329.65	10.88	-52.9	-55.2	14.1	0.00e+00	0	25	0	1170210816	71	4829
2026-01-08 07:12:21.22	329.56	10.81	-52.9	-55.2	14.0	0.00e+00	0	25	0	1172307968	71	4841
2026-01-08 07:12:22.22	329.46	10.73	-52.9	-55.1	14.1	0.00e+00	0	25	0	1174405120	71	4792
2026-01-08 07:12:23.22	329.37	10.65	-52.9	-55.2	14.1	0.00e+00	0	25	0	1175453696	71	4830
2026-01-08 07:12:24.22	329.28	10.58	-52.8	-55.1	14.2	0.00e+00	0	24	0	1177550848	71	4774
2026-01-08 07:12:25.22	329.19	10.50	-52.8	-55.0	14.2	0.00e+00	0	25	0	1179648000	71	4742
2026-01-08 07:12:26.21	329.10	10.42	-52.9	-55.2	14.1	0.00e+00	0	25	0	1181745152	71	4839
2026-01-08 07:12:27.21	329.00	10.35	-52.9	-55.2	14.1	0.00e+00	0	25	0	1183842304	71	4820
2026-01-08 07:12:28.21	328.91	10.27	-53.0	-55.3	14.0	0.00e+00	0	25	0	1184890880	71	4898
2026-01-08 07:12:29.22	328.82	10.20	-53.0	-55.4	13.9	0.00e+00	0	25	0	1186988032	71	4960
2026-01-08 07:12:30.21	328.73	10.12	-53.1	-55.5	13.9	0.00e+00	0	25	0	1189085184	71	4992
2026-01-08 07:12:31.20	328.65	10.05	-53.1	-55.4	13.9	0.00e+00	0	25	0	1191182336	71	4964
2026-01-08 07:12:32.20	328.56	9.97	-53.0	-55.4	13.9	0.00e+00	0	25	0	1193279488	71	4953
2026-01-08 07:12:33.19	328.47	9.90	-53.1	-55.5	13.9	0.00e+00	0	25	0	1194328064	71	4986
2026-01-08 07:12:34.19	328.38	9.82	-53.2	-55.6	13.8	0.00e+00	0	25	0	1196425216	71	5081
2026-01-08 07:12:35.19	328.29	9.75	-53.2	-55.6	13.8	0.00e+00	0	25	0	1198522368	71	5063
2026-01-08 07:12:36.19	328.21	9.67	-53.2	-55.7	13.7	0.00e+00	0	25	0	1200619520	71	5144
2026-01-08 07:12:37.19	328.12	9.60	-53.2	-55.6	13.8	0.00e+00	0	25	0	1201668096	71	5081
2026-01-08 07:12:38.19	328.04	9.52	-53.2	-55.7	13.7	0.00e+00	0	25	0	1203765248	71	5140
2026-01-08 07:12:39.19	327.95	9.45	-53.3	-55.7	13.7	0.00e+00	0	25	0	1205862400	71	5157
2026-01-08 07:12:40.19	327.87	9.38	-53.3	-55.8	13.7	0.00e+00	0	25	0	1207959552	71	5201
2026-01-08 07:12:41.18	327.78	9.30	-53.4	-55.9	13.6	0.00e+00	0	25	0	1210056704	71	5268
2026-01-08 07:12:42.18	327.70	9.23	-53.3	-55.8	13.7	0.00e+00	0	25	0	1211105280	71	5194
2026-01-08 07:12:43.17	327.61	9.16	-53.4	-55.9	13.6	0.00e+00	0	25	0	1213202432	71	5272
2026-01-08 07:12:44.16	327.53	9.08	-53.4	-55.9	13.7	0.00e+00	0	25	0	1215299584	72	4977
