passes_logs/2026/01/08/R3.2S_Murmansk/R3.2S_Murmansk__20260108_014240_SUOMI_NPP_rec.log

#Pass ID: 20260108_014240_SUOMI NPP
#Satellite: SUOMI NPP
#Configuration: NPP
#almurnet v.1.7.20251203
#Start time: 2026-01-08 01:42:42

#Version: 2.2.20231116
#Station: R3.2S_Murmansk
#Location: 33.079688 lon 68.888172 lat
#TLE: 1 37849U 11061A   26005.94084933  .00000134  00000+0  84554-4 0  9990
#TLE: 2 37849  98.7803 308.0679 0002567  79.1029 281.0436 14.19522657735426

#Time	Az	El	Level	Level2	SNR	BER	BlckErr	Temp	State	Recorded	gain1	gain2
2026-01-08 01:42:42.64	28.75	2.11	-57.3	-73.3	3.8	1.49e+00	0	23	0	0	80	23121
2026-01-08 01:42:43.64	28.73	2.18	-57.3	-73.3	3.8	1.49e+00	0	23	104	0	79	24515
2026-01-08 01:42:44.64	28.71	2.24	-57.3	-73.3	3.8	1.49e+00	0	23	104	0	79	24472
2026-01-08 01:42:45.63	28.69	2.31	-57.3	-73.3	3.8	1.49e+00	0	23	104	0	79	24514
2026-01-08 01:42:46.63	28.67	2.37	-57.2	-73.3	3.8	1.49e+00	0	23	104	0	79	24494
2026-01-08 01:42:47.63	28.65	2.43	-57.2	-73.2	3.8	1.49e+00	0	23	104	0	79	24368
2026-01-08 01:42:48.62	28.63	2.50	-57.3	-73.2	3.8	1.49e+00	0	23	104	0	79	24295
2026-01-08 01:42:49.62	28.61	2.56	-57.3	-73.2	3.8	1.49e+00	0	23	104	0	79	24334
2026-01-08 01:42:50.63	28.59	2.63	-57.2	-73.2	3.8	1.49e+00	0	23	104	0	79	24279
2026-01-08 01:42:51.63	28.57	2.69	-57.2	-73.2	3.8	1.49e+00	0	23	104	0	79	24369
2026-01-08 01:42:52.62	28.55	2.75	-57.3	-73.3	3.8	1.49e+00	0	23	104	0	79	24470
2026-01-08 01:42:53.62	28.53	2.82	-57.2	-73.2	3.8	1.49e+00	0	23	104	0	79	24390
2026-01-08 01:42:54.62	28.51	2.88	-57.3	-73.3	3.8	1.49e+00	0	23	104	0	79	24485
2026-01-08 01:42:55.62	28.48	2.95	-57.2	-73.3	3.8	1.49e+00	0	23	104	0	79	24501
2026-01-08 01:42:56.61	28.46	3.01	-57.3	-73.3	3.8	1.49e+00	0	23	104	0	79	24430
2026-01-08 01:42:57.61	28.44	3.08	-57.3	-73.3	3.8	1.49e+00	0	23	104	0	79	24412
2026-01-08 01:42:58.61	28.42	3.15	-57.3	-73.2	3.8	1.49e+00	0	23	104	0	79	24336
2026-01-08 01:42:59.60	28.40	3.21	-57.3	-73.1	3.8	1.49e+00	0	23	104	0	79	24106
2026-01-08 01:43:00.59	28.38	3.28	-57.2	-73.0	3.8	1.49e+00	0	23	104	0	79	23835
2026-01-08 01:43:01.59	28.35	3.34	-57.2	-72.9	3.8	1.49e+00	0	23	104	0	79	23488
2026-01-08 01:43:02.59	28.33	3.41	-57.2	-72.9	3.8	1.49e+00	0	23	104	0	79	23356
2026-01-08 01:43:03.59	28.31	3.47	-57.2	-72.6	3.8	1.49e+00	0	23	104	0	79	22701
2026-01-08 01:43:04.59	28.29	3.54	-57.2	-72.5	3.8	1.49e+00	0	23	104	0	79	22404
2026-01-08 01:43:05.59	28.26	3.61	-57.2	-72.2	3.8	1.49e+00	0	23	104	0	79	21753
2026-01-08 01:43:06.58	28.24	3.67	-57.2	-71.9	3.8	1.49e+00	0	23	104	0	79	20980
2026-01-08 01:43:07.59	28.22	3.74	-57.2	-71.6	3.8	1.49e+00	0	23	104	0	79	20140
2026-01-08 01:43:08.59	28.19	3.81	-57.2	-71.4	3.8	1.49e+00	0	23	104	0	79	19626
2026-01-08 01:43:09.59	28.17	3.88	-57.2	-71.2	3.8	1.49e+00	0	23	104	0	79	19352
2026-01-08 01:43:10.59	28.15	3.94	-57.2	-71.4	3.8	1.49e+00	0	23	104	0	79	19777
2026-01-08 01:43:11.59	28.12	4.01	-57.2	-71.7	3.8	1.49e+00	0	23	104	0	79	20449
2026-01-08 01:43:12.59	28.10	4.08	-57.2	-71.6	3.8	1.49e+00	0	23	104	0	79	20243
2026-01-08 01:43:13.58	28.08	4.15	-57.2	-71.6	3.8	1.49e+00	0	24	104	0	79	20148
2026-01-08 01:43:14.58	28.05	4.21	-57.2	-71.6	3.8	1.49e+00	0	23	104	0	79	20162
2026-01-08 01:43:15.59	28.03	4.28	-57.2	-71.3	3.8	1.49e+00	0	23	104	0	79	19396
2026-01-08 01:43:16.59	28.01	4.35	-57.1	-70.4	4.0	1.48e+00	0	23	104	0	79	17644
2026-01-08 01:43:17.59	27.98	4.42	-57.1	-69.4	4.3	1.42e+00	0	24	0	0	79	15669
2026-01-08 01:43:18.58	27.96	4.49	-57.0	-68.2	4.7	1.16e+00	0	24	0	1048576	79	13581
2026-01-08 01:43:19.58	27.93	4.56	-56.9	-67.2	5.2	5.30e-01	0	24	0	3145728	79	12096
2026-01-08 01:43:20.58	27.91	4.63	-56.8	-66.1	5.9	4.52e-01	0	24	0	5242880	79	10720
2026-01-08 01:43:21.58	27.88	4.70	-56.7	-65.5	6.2	2.96e-01	0	24	0	6291456	79	10028
2026-01-08 01:43:22.57	27.86	4.76	-56.5	-64.5	7.0	1.32e-01	0	24	0	8388608	79	8964
2026-01-08 01:43:23.57	27.83	4.83	-56.5	-64.3	7.2	8.69e-02	0	24	0	10485760	79	8711
2026-01-08 01:43:24.56	27.81	4.90	-56.5	-64.3	7.3	9.31e-02	0	24	0	12582912	79	8702
2026-01-08 01:43:25.55	27.78	4.97	-56.3	-63.6	7.9	7.43e-02	0	24	0	13631488	79	8067
2026-01-08 01:43:26.54	27.76	5.04	-56.9	-66.3	6.0	9.67e-02	0	24	0	15728640	79	10931
2026-01-08 01:43:27.53	27.73	5.11	-57.3	-68.7	4.6	1.13e+00	0	24	0	17825792	79	14447
2026-01-08 01:43:28.53	27.71	5.18	-56.4	-63.7	7.8	8.05e-01	0	24	0	19922944	79	8158
2026-01-08 01:43:29.51	27.68	5.25	-56.0	-62.4	8.7	2.48e-01	0	24	0	20971520	78	7399
2026-01-08 01:43:30.51	27.66	5.32	-56.3	-63.5	8.3	5.10e-04	0	24	0	23068672	77	8890
2026-01-08 01:43:31.51	27.63	5.39	-56.4	-63.9	7.4	9.83e-01	0	24	0	25165824	79	8320
2026-01-08 01:43:32.51	27.60	5.47	-54.4	-58.2	12.3	4.27e-05	0	24	0	27262976	75	5436
2026-01-08 01:43:33.50	27.58	5.54	-54.3	-58.0	12.5	0.00e+00	0	24	0	29360128	75	5297
2026-01-08 01:43:34.50	27.55	5.61	-54.3	-57.9	12.5	0.00e+00	0	24	0	30408704	75	5229
2026-01-08 01:43:35.49	27.52	5.68	-53.8	-57.1	13.0	0.00e+00	0	24	0	32505856	74	5055
2026-01-08 01:43:36.49	27.50	5.75	-53.4	-56.3	13.4	0.00e+00	0	24	0	34603008	73	4923
2026-01-08 01:43:37.49	27.47	5.82	-53.3	-56.3	13.4	0.00e+00	0	24	0	36700160	73	4882
2026-01-08 01:43:38.48	27.44	5.89	-52.9	-55.6	13.8	0.00e+00	0	24	0	37748736	72	4786
2026-01-08 01:43:39.48	27.42	5.97	-52.5	-55.1	13.9	0.00e+00	0	24	0	39845888	71	4798
2026-01-08 01:43:40.47	27.39	6.04	-52.4	-54.9	14.1	0.00e+00	0	24	0	41943040	71	4676
2026-01-08 01:43:41.46	27.36	6.11	-52.4	-54.9	14.1	0.00e+00	0	24	0	44040192	71	4687
2026-01-08 01:43:42.45	27.33	6.18	-52.5	-55.1	14.0	0.00e+00	0	24	0	46137344	71	4763
2026-01-08 01:43:43.45	27.31	6.26	-52.5	-55.1	13.9	0.00e+00	0	24	0	47185920	71	4793
2026-01-08 01:43:44.45	27.28	6.33	-52.7	-55.2	13.9	0.00e+00	0	24	0	49283072	71	4865
2026-01-08 01:43:45.44	27.25	6.40	-52.5	-55.1	14.0	0.00e+00	0	24	0	51380224	71	4769
2026-01-08 01:43:46.45	27.22	6.48	-52.5	-55.0	14.0	0.00e+00	0	24	0	53477376	71	4752
2026-01-08 01:43:47.45	27.19	6.55	-52.3	-54.7	14.2	0.00e+00	0	24	0	55574528	71	4594
2026-01-08 01:43:48.44	27.16	6.63	-52.4	-54.9	14.1	0.00e+00	0	24	0	56623104	71	4661
2026-01-08 01:43:49.44	27.13	6.70	-52.1	-54.5	14.2	0.00e+00	0	24	0	58720256	70	4732
2026-01-08 01:43:50.44	27.10	6.78	-52.2	-54.6	14.1	0.00e+00	0	24	0	60817408	70	4812
2026-01-08 01:43:51.43	27.08	6.85	-52.2	-54.6	14.2	0.00e+00	0	24	0	62914560	70	4783
2026-01-08 01:43:52.44	27.05	6.93	-52.1	-54.5	14.2	0.00e+00	0	24	0	63963136	70	4743
2026-01-08 01:43:53.44	27.02	7.00	-52.0	-54.3	14.3	0.00e+00	0	24	0	66060288	70	4649
2026-01-08 01:43:54.44	26.99	7.08	-51.9	-54.2	14.4	0.00e+00	0	24	0	68157440	70	4546
2026-01-08 01:43:55.43	26.96	7.15	-51.9	-54.2	14.4	0.00e+00	0	24	0	70254592	70	4594
2026-01-08 01:43:56.43	26.93	7.23	-51.9	-54.2	14.4	0.00e+00	0	24	0	72351744	70	4579
2026-01-08 01:43:57.42	26.90	7.30	-51.9	-54.2	14.4	0.00e+00	0	24	0	73400320	70	4562
2026-01-08 01:43:58.41	26.87	7.38	-52.0	-54.2	14.4	0.00e+00	0	24	0	75497472	70	4598
2026-01-08 01:43:59.41	26.84	7.46	-51.9	-54.2	14.4	0.00e+00	0	24	0	77594624	70	4556
2026-01-08 01:44:00.41	26.80	7.53	-51.7	-53.9	14.6	0.00e+00	0	24	0	79691776	70	4426
2026-01-08 01:44:01.41	26.77	7.61	-51.8	-54.1	14.5	0.00e+00	0	24	0	81788928	70	4520
2026-01-08 01:44:02.41	26.74	7.69	-52.0	-54.3	14.4	0.00e+00	0	24	0	82837504	70	4605
2026-01-08 01:44:03.41	26.71	7.77	-51.8	-54.1	14.5	0.00e+00	0	24	0	84934656	70	4515
2026-01-08 01:44:04.40	26.68	7.84	-51.9	-54.2	14.4	0.00e+00	0	24	0	87031808	70	4561
2026-01-08 01:44:05.40	26.65	7.92	-51.6	-53.7	14.5	0.00e+00	0	24	0	89128960	69	4572
2026-01-08 01:44:06.40	26.61	8.00	-51.6	-53.7	14.5	0.00e+00	0	24	0	90177536	69	4592
2026-01-08 01:44:07.40	26.58	8.08	-51.5	-53.6	14.6	0.00e+00	0	24	0	92274688	69	4544
2026-01-08 01:44:08.40	26.55	8.16	-51.5	-53.7	14.5	0.00e+00	0	24	0	94371840	69	4565
2026-01-08 01:44:09.39	26.52	8.24	-51.6	-53.8	14.5	0.00e+00	0	24	0	96468992	69	4630
2026-01-08 01:44:10.40	26.48	8.32	-51.5	-53.6	14.6	0.00e+00	0	24	0	98566144	69	4515
2026-01-08 01:44:11.40	26.45	8.40	-51.4	-53.5	14.6	0.00e+00	0	24	0	99614720	69	4457
2026-01-08 01:44:12.40	26.42	8.47	-51.5	-53.5	14.6	0.00e+00	0	24	0	101711872	69	4482
2026-01-08 01:44:13.40	26.38	8.55	-51.4	-53.5	14.6	0.00e+00	0	24	0	103809024	69	4476
2026-01-08 01:44:14.40	26.35	8.64	-51.5	-53.6	14.5	0.00e+00	0	24	0	105906176	69	4529
2026-01-08 01:44:15.40	26.32	8.72	-51.4	-53.5	14.6	0.00e+00	0	24	0	108003328	69	4444
2026-01-08 01:44:16.40	26.28	8.80	-51.4	-53.4	14.7	0.00e+00	0	24	0	109051904	69	4406
2026-01-08 01:44:17.39	26.25	8.88	-51.4	-53.4	14.7	0.00e+00	0	24	0	111149056	69	4423
2026-01-08 01:44:18.39	26.21	8.96	-51.3	-53.4	14.7	0.00e+00	0	24	0	113246208	69	4395
2026-01-08 01:44:19.39	26.18	9.04	-51.3	-53.4	14.7	0.00e+00	0	24	0	115343360	69	4398
2026-01-08 01:44:20.39	26.14	9.12	-51.3	-53.3	14.7	0.00e+00	0	24	0	116391936	69	4390
2026-01-08 01:44:21.39	26.11	9.20	-51.3	-53.2	14.7	0.00e+00	0	24	0	118489088	69	4336
2026-01-08 01:44:22.39	26.07	9.29	-51.2	-53.1	14.8	0.00e+00	0	24	0	120586240	69	4284
2026-01-08 01:44:23.38	26.04	9.37	-51.2	-53.2	14.6	0.00e+00	0	24	0	122683392	68	4568
2026-01-08 01:44:24.39	26.00	9.45	-51.2	-53.2	14.6	0.00e+00	0	24	0	124780544	68	4585
2026-01-08 01:44:25.38	25.97	9.53	-51.1	-53.1	14.7	0.00e+00	0	24	0	125829120	68	4516
2026-01-08 01:44:26.39	25.93	9.62	-51.0	-53.0	14.7	0.00e+00	0	24	0	127926272	68	4449
2026-01-08 01:44:27.38	25.89	9.70	-51.1	-53.1	14.7	0.00e+00	0	25	0	130023424	68	4494
2026-01-08 01:44:28.37	25.86	9.78	-51.0	-52.9	14.7	0.00e+00	0	24	0	132120576	68	4422
2026-01-08 01:44:29.37	25.82	9.87	-51.0	-52.9	14.8	0.00e+00	0	24	0	133169152	68	4417
2026-01-08 01:44:30.36	25.78	9.95	-51.1	-53.0	14.7	0.00e+00	0	24	0	135266304	68	4467
2026-01-08 01:44:31.36	25.75	10.04	-51.0	-52.9	14.8	0.00e+00	0	24	0	137363456	68	4415
2026-01-08 01:44:32.35	25.71	10.12	-51.0	-52.9	14.8	0.00e+00	0	24	0	139460608	68	4407
2026-01-08 01:44:33.35	25.67	10.20	-51.1	-53.0	14.7	0.00e+00	0	24	0	141557760	68	4447
2026-01-08 01:44:34.34	25.63	10.29	-51.0	-52.9	14.8	0.00e+00	0	24	0	142606336	68	4426
2026-01-08 01:44:35.33	25.59	10.37	-51.0	-52.9	14.8	0.00e+00	0	24	0	144703488	68	4418
2026-01-08 01:44:36.34	25.55	10.46	-51.0	-52.9	14.8	0.00e+00	0	24	0	146800640	68	4403
2026-01-08 01:44:37.33	25.52	10.55	-51.0	-52.9	14.8	0.00e+00	0	24	0	148897792	68	4437
2026-01-08 01:44:38.33	25.48	10.63	-51.0	-52.9	14.8	0.00e+00	0	24	0	150994944	68	4401
2026-01-08 01:44:39.33	25.44	10.72	-50.9	-52.8	14.8	0.00e+00	0	25	0	152043520	68	4378
2026-01-08 01:44:40.33	25.40	10.81	-51.0	-52.9	14.8	0.00e+00	0	24	0	154140672	68	4422
2026-01-08 01:44:41.34	25.36	10.90	-50.9	-52.7	14.9	0.00e+00	0	24	0	156237824	68	4333
2026-01-08 01:44:42.34	25.32	10.98	-51.0	-52.9	14.8	0.00e+00	0	25	0	158334976	68	4407
2026-01-08 01:44:43.34	25.28	11.07	-50.9	-52.8	14.8	0.00e+00	0	24	0	160432128	68	4365
2026-01-08 01:44:44.34	25.24	11.16	-50.9	-52.8	14.8	0.00e+00	0	24	0	161480704	68	4350
2026-01-08 01:44:45.35	25.19	11.25	-50.9	-52.8	14.8	0.00e+00	0	24	0	163577856	68	4353
2026-01-08 01:44:46.34	25.15	11.34	-50.9	-52.8	14.8	0.00e+00	0	24	0	165675008	68	4347
2026-01-08 01:44:47.34	25.11	11.43	-50.9	-52.7	14.9	0.00e+00	0	24	0	167772160	68	4334
2026-01-08 01:44:48.33	25.07	11.52	-50.8	-52.6	14.9	0.00e+00	0	24	0	168820736	68	4287
2026-01-08 01:44:49.32	25.03	11.60	-50.8	-52.6	15.0	0.00e+00	0	25	0	170917888	68	4255
2026-01-08 01:44:50.32	24.99	11.70	-50.9	-52.7	14.9	0.00e+00	0	25	0	173015040	68	4330
2026-01-08 01:44:51.32	24.94	11.79	-50.8	-52.6	15.0	0.00e+00	0	24	0	175112192	68	4256
2026-01-08 01:44:52.31	24.90	11.88	-50.7	-52.6	15.0	0.00e+00	0	24	0	177209344	68	4252
2026-01-08 01:44:53.31	24.86	11.97	-50.9	-52.7	14.9	0.00e+00	0	24	0	178257920	68	4326
2026-01-08 01:44:54.31	24.81	12.06	-50.8	-52.6	14.9	0.00e+00	0	25	0	180355072	68	4270
2026-01-08 01:44:55.31	24.77	12.15	-50.7	-52.5	15.0	0.00e+00	0	24	0	182452224	68	4231
2026-01-08 01:44:56.31	24.72	12.24	-50.8	-52.6	14.9	0.00e+00	0	24	0	184549376	68	4267
2026-01-08 01:44:57.31	24.68	12.33	-50.9	-52.7	14.9	0.00e+00	0	24	0	185597952	68	4330
2026-01-08 01:44:58.30	24.64	12.43	-50.8	-52.6	14.9	0.00e+00	0	24	0	187695104	68	4275
2026-01-08 01:44:59.30	24.59	12.52	-50.8	-52.7	14.9	0.00e+00	0	24	0	189792256	68	4313
2026-01-08 01:45:00.30	24.55	12.61	-51.0	-52.9	14.8	0.00e+00	0	24	0	191889408	68	4399
2026-01-08 01:45:01.29	24.50	12.71	-51.0	-52.9	14.8	0.00e+00	0	24	0	193986560	68	4423
2026-01-08 01:45:02.29	24.45	12.80	-50.8	-52.6	14.9	0.00e+00	0	25	0	195035136	68	4276
2026-01-08 01:45:03.29	24.41	12.90	-50.9	-52.8	14.9	0.00e+00	0	25	0	197132288	68	4370
2026-01-08 01:45:04.29	24.36	12.99	-50.8	-52.6	14.9	0.00e+00	0	24	0	199229440	68	4283
2026-01-08 01:45:05.28	24.31	13.08	-50.6	-52.4	14.8	0.00e+00	0	25	0	201326592	67	4427
2026-01-08 01:45:06.28	24.27	13.18	-50.7	-52.6	14.7	0.00e+00	0	25	0	202375168	67	4539
2026-01-08 01:45:07.27	24.22	13.28	-50.7	-52.6	14.8	0.00e+00	0	24	0	204472320	67	4494
2026-01-08 01:45:08.27	24.17	13.37	-50.6	-52.5	14.8	0.00e+00	0	24	0	206569472	67	4461
2026-01-08 01:45:09.27	24.12	13.47	-50.8	-52.7	14.7	0.00e+00	0	25	0	208666624	67	4564
2026-01-08 01:45:10.28	24.07	13.57	-50.6	-52.5	14.8	0.00e+00	0	25	0	210763776	67	4482
2026-01-08 01:45:11.28	24.02	13.66	-50.5	-52.4	14.9	0.00e+00	0	25	0	211812352	67	4402
2026-01-08 01:45:12.28	23.98	13.76	-50.5	-52.4	14.8	0.00e+00	0	25	0	213909504	67	4411
2026-01-08 01:45:13.29	23.92	13.86	-50.6	-52.5	14.8	0.00e+00	0	25	0	216006656	67	4447
2026-01-08 01:45:14.30	23.87	13.96	-50.6	-52.4	14.8	0.00e+00	0	24	0	218103808	67	4425
2026-01-08 01:45:15.30	23.82	14.06	-50.6	-52.5	14.8	0.00e+00	0	25	0	220200960	67	4442
2026-01-08 01:45:16.30	23.77	14.16	-50.6	-52.5	14.8	0.00e+00	0	24	0	221249536	67	4442
2026-01-08 01:45:17.30	23.72	14.26	-50.6	-52.5	14.8	0.00e+00	0	25	0	223346688	67	4467
2026-01-08 01:45:18.30	23.67	14.36	-50.5	-52.3	14.9	0.00e+00	0	25	0	225443840	67	4387
2026-01-08 01:45:19.29	23.62	14.46	-50.4	-52.3	14.9	0.00e+00	0	24	0	227540992	67	4368
2026-01-08 01:45:20.29	23.57	14.56	-50.5	-52.3	14.9	0.00e+00	0	24	0	229638144	67	4371
2026-01-08 01:45:21.28	23.51	14.66	-50.4	-52.3	14.9	0.00e+00	0	25	0	230686720	67	4352
2026-01-08 01:45:22.29	23.46	14.76	-50.4	-52.2	15.0	0.00e+00	0	25	0	232783872	67	4333
2026-01-08 01:45:23.29	23.41	14.86	-50.4	-52.2	14.9	0.00e+00	0	24	0	234881024	67	4340
2026-01-08 01:45:24.28	23.35	14.96	-50.4	-52.2	15.0	0.00e+00	0	25	0	236978176	67	4312
2026-01-08 01:45:25.28	23.30	15.07	-50.4	-52.3	14.9	0.00e+00	0	24	0	238026752	67	4365
2026-01-08 01:45:26.28	23.24	15.17	-50.4	-52.3	14.9	0.00e+00	0	25	0	240123904	67	4353
2026-01-08 01:45:27.28	23.19	15.27	-50.3	-52.1	15.0	0.00e+00	0	24	0	242221056	67	4270
2026-01-08 01:45:28.28	23.13	15.38	-50.2	-52.0	15.0	0.00e+00	0	24	0	244318208	67	4221
2026-01-08 01:45:29.28	23.08	15.48	-50.4	-52.2	15.0	0.00e+00	0	25	0	246415360	67	4315
2026-01-08 01:45:30.27	23.02	15.59	-50.4	-52.3	15.0	0.00e+00	0	25	0	247463936	67	4343
2026-01-08 01:45:31.27	22.96	15.69	-50.4	-52.2	15.0	0.00e+00	0	24	0	249561088	67	4311
2026-01-08 01:45:32.26	22.91	15.80	-50.4	-52.2	15.0	0.00e+00	0	25	0	251658240	67	4331
2026-01-08 01:45:33.26	22.85	15.90	-50.4	-52.2	14.9	0.00e+00	0	25	0	253755392	67	4330
2026-01-08 01:45:34.25	22.79	16.01	-50.4	-52.2	14.9	0.00e+00	0	25	0	255852544	67	4327
2026-01-08 01:45:35.25	22.73	16.12	-50.3	-52.0	15.0	0.00e+00	0	25	0	256901120	67	4229
2026-01-08 01:45:36.24	22.68	16.22	-50.2	-52.0	15.1	0.00e+00	0	24	0	258998272	67	4214
2026-01-08 01:45:37.24	22.62	16.33	-50.4	-52.2	15.0	0.00e+00	0	25	0	261095424	67	4314
2026-01-08 01:45:38.24	22.56	16.44	-50.3	-52.1	15.0	0.00e+00	0	24	0	263192576	67	4281
2026-01-08 01:45:39.24	22.50	16.55	-50.2	-52.0	15.1	0.00e+00	0	24	0	264241152	67	4214
2026-01-08 01:45:40.23	22.43	16.65	-50.3	-52.0	15.1	0.00e+00	0	24	0	266338304	67	4217
2026-01-08 01:45:41.23	22.37	16.76	-50.2	-52.0	15.1	0.00e+00	0	24	0	268435456	67	4210
2026-01-08 01:45:42.22	22.31	16.87	-50.2	-52.0	14.9	0.00e+00	0	25	0	270532608	66	4454
2026-01-08 01:45:43.22	22.25	16.98	-50.1	-51.8	15.0	0.00e+00	0	25	0	272629760	66	4379
2026-01-08 01:45:44.22	22.19	17.10	-50.0	-51.7	15.0	0.00e+00	0	25	0	273678336	66	4314
2026-01-08 01:45:45.22	22.12	17.21	-50.2	-51.9	14.9	0.00e+00	0	25	0	275775488	66	4414
2026-01-08 01:45:46.22	22.06	17.32	-50.2	-51.8	14.9	0.00e+00	0	25	0	277872640	66	4389
2026-01-08 01:45:47.23	22.00	17.43	-50.2	-51.9	14.9	0.00e+00	0	24	0	279969792	66	4408
2026-01-08 01:45:48.23	21.93	17.55	-50.4	-52.2	14.8	0.00e+00	0	25	0	281018368	66	4554
2026-01-08 01:45:49.22	21.87	17.66	-50.1	-51.7	15.0	0.00e+00	0	25	0	283115520	66	4322
2026-01-08 01:45:50.22	21.80	17.77	-50.1	-51.8	15.0	0.00e+00	0	25	0	285212672	66	4364
2026-01-08 01:45:51.21	21.73	17.88	-50.2	-51.9	14.9	0.00e+00	0	25	0	287309824	66	4428
2026-01-08 01:45:52.21	21.67	18.00	-50.2	-51.9	15.0	0.00e+00	0	25	0	289406976	66	4395
2026-01-08 01:45:53.21	21.60	18.12	-50.1	-51.8	15.0	0.00e+00	0	25	0	290455552	66	4348
2026-01-08 01:45:54.21	21.53	18.23	-50.2	-51.9	14.9	0.00e+00	0	25	0	292552704	66	4415
2026-01-08 01:45:55.21	21.46	18.35	-50.2	-51.9	14.9	0.00e+00	0	25	0	294649856	66	4437
2026-01-08 01:45:56.20	21.40	18.46	-50.1	-51.8	15.0	0.00e+00	0	24	0	296747008	66	4389
2026-01-08 01:45:57.19	21.33	18.58	-50.2	-51.9	15.0	0.00e+00	0	24	0	298844160	66	4398
2026-01-08 01:45:58.19	21.26	18.70	-50.3	-52.0	14.9	0.00e+00	0	25	0	299892736	66	4448
2026-01-08 01:45:59.18	21.19	18.81	-50.2	-51.9	15.0	0.00e+00	0	25	0	301989888	66	4402
2026-01-08 01:46:00.18	21.11	18.93	-50.3	-52.0	14.9	0.00e+00	0	25	0	304087040	66	4475
2026-01-08 01:46:01.17	21.04	19.05	-50.5	-52.2	14.8	0.00e+00	0	25	0	306184192	66	4598
2026-01-08 01:46:02.17	20.97	19.17	-50.4	-52.2	14.9	0.00e+00	0	25	0	307232768	66	4552
2026-01-08 01:46:03.17	20.90	19.29	-50.4	-52.1	14.9	0.00e+00	0	25	0	309329920	66	4527
2026-01-08 01:46:04.17	20.82	19.41	-50.5	-52.3	14.8	0.00e+00	0	25	0	311427072	66	4608
2026-01-08 01:46:05.17	20.75	19.54	-50.3	-52.0	14.9	0.00e+00	0	25	0	313524224	66	4463
2026-01-08 01:46:06.16	20.68	19.66	-50.2	-52.0	14.9	0.00e+00	0	25	0	315621376	66	4454
2026-01-08 01:46:07.17	20.60	19.78	-50.4	-52.2	14.8	0.00e+00	0	25	0	316669952	66	4579
2026-01-08 01:46:08.16	20.52	19.90	-50.2	-52.0	14.9	0.00e+00	0	25	0	318767104	66	4449
2026-01-08 01:46:09.15	20.45	20.03	-50.3	-52.1	14.9	0.00e+00	0	25	0	320864256	66	4530
2026-01-08 01:46:10.15	20.37	20.15	-50.4	-52.1	14.9	0.00e+00	0	25	0	322961408	66	4543
2026-01-08 01:46:11.14	20.29	20.27	-50.5	-52.3	14.8	0.00e+00	0	25	0	325058560	66	4603
2026-01-08 01:46:12.14	20.21	20.40	-50.5	-52.4	14.7	0.00e+00	0	25	0	326107136	66	4668
2026-01-08 01:46:13.13	20.13	20.52	-50.4	-52.2	14.8	0.00e+00	0	25	0	328204288	66	4546
2026-01-08 01:46:14.14	20.05	20.65	-50.7	-52.5	14.7	0.00e+00	0	25	0	330301440	66	4750
2026-01-08 01:46:15.13	19.97	20.78	-50.8	-52.7	14.6	0.00e+00	0	25	0	332398592	66	4868
2026-01-08 01:46:16.13	19.89	20.91	-50.7	-52.6	14.8	0.00e+00	0	25	0	333447168	67	4517
2026-01-08 01:46:17.12	19.81	21.03	-51.0	-52.9	14.7	0.00e+00	0	25	0	335544320	67	4674
2026-01-08 01:46:18.12	19.73	21.16	-51.1	-53.1	14.6	0.00e+00	0	25	0	337641472	67	4790
2026-01-08 01:46:19.12	19.64	21.29	-51.0	-52.9	14.7	0.00e+00	0	25	0	339738624	67	4683
2026-01-08 01:46:20.12	19.56	21.42	-50.9	-52.8	14.7	0.00e+00	0	25	0	341835776	67	4638
2026-01-08 01:46:21.12	19.47	21.55	-50.5	-52.3	14.9	0.00e+00	0	25	0	342884352	67	4365
2026-01-08 01:46:22.12	19.39	21.68	-50.7	-52.6	14.8	0.00e+00	0	25	0	344981504	67	4498
2026-01-08 01:46:23.11	19.30	21.81	-50.7	-52.6	14.8	0.00e+00	0	25	0	347078656	67	4497
2026-01-08 01:46:24.11	19.21	21.95	-50.3	-52.1	15.1	0.00e+00	0	25	0	349175808	67	4252
2026-01-08 01:46:25.10	19.13	22.08	-50.5	-52.3	14.9	0.00e+00	0	25	0	350224384	67	4363
2026-01-08 01:46:26.11	19.04	22.21	-50.6	-52.4	14.8	0.00e+00	0	25	0	352321536	67	4441
2026-01-08 01:46:27.10	18.95	22.35	-50.5	-52.3	14.9	0.00e+00	0	25	0	354418688	67	4366
2026-01-08 01:46:28.10	18.86	22.48	-50.6	-52.4	14.9	0.00e+00	0	25	0	356515840	67	4398
2026-01-08 01:46:29.10	18.76	22.62	-50.4	-52.2	15.0	0.00e+00	0	25	0	358612992	67	4297
2026-01-08 01:46:30.09	18.67	22.75	-50.6	-52.4	14.9	0.00e+00	0	25	0	359661568	67	4413
2026-01-08 01:46:31.09	18.58	22.89	-50.7	-52.6	14.9	0.00e+00	0	25	0	361758720	67	4494
2026-01-08 01:46:32.09	18.49	23.03	-50.9	-52.8	14.7	0.00e+00	0	25	0	363855872	67	4600
2026-01-08 01:46:33.08	18.39	23.16	-51.1	-53.0	14.6	0.00e+00	0	25	0	365953024	67	4758
2026-01-08 01:46:34.08	18.30	23.30	-51.0	-52.9	14.7	0.00e+00	0	25	0	367001600	67	4673
2026-01-08 01:46:35.07	18.20	23.44	-51.2	-53.1	14.6	0.00e+00	0	25	0	369098752	67	4812
2026-01-08 01:46:36.07	18.10	23.58	-51.1	-53.1	14.5	0.00e+00	0	25	0	371195904	67	4776
2026-01-08 01:46:37.07	18.00	23.72	-51.0	-52.9	14.7	0.00e+00	0	25	0	373293056	67	4687
2026-01-08 01:46:38.06	17.91	23.86	-51.3	-53.3	14.5	0.00e+00	0	25	0	375390208	67	4892
2026-01-08 01:46:39.06	17.81	24.01	-51.7	-53.7	14.5	0.00e+00	0	25	0	376438784	68	4857
2026-01-08 01:46:40.05	17.70	24.15	-51.3	-53.2	14.7	0.00e+00	0	25	0	378535936	68	4577
2026-01-08 01:46:41.06	17.60	24.29	-51.7	-53.7	14.5	0.00e+00	0	25	0	380633088	68	4856
2026-01-08 01:46:42.05	17.50	24.43	-51.7	-53.7	14.5	0.00e+00	0	24	0	382730240	68	4859
2026-01-08 01:46:43.05	17.39	24.58	-51.7	-53.8	14.4	0.00e+00	0	25	0	384827392	68	4916
2026-01-08 01:46:44.05	17.29	24.73	-51.8	-54.0	14.5	0.00e+00	0	25	0	385875968	69	4716
2026-01-08 01:46:45.05	17.18	24.87	-51.8	-53.9	14.5	0.00e+00	0	25	0	387973120	69	4680
2026-01-08 01:46:46.05	17.08	25.02	-52.0	-54.2	14.4	0.00e+00	0	25	0	390070272	69	4838
2026-01-08 01:46:47.05	16.97	25.17	-52.0	-54.3	14.3	0.00e+00	0	25	0	392167424	69	4877
2026-01-08 01:46:48.04	16.86	25.31	-51.9	-54.1	14.5	0.00e+00	0	25	0	393216000	69	4799
2026-01-08 01:46:49.04	16.75	25.46	-51.9	-54.1	14.4	0.00e+00	0	25	0	395313152	69	4784
2026-01-08 01:46:50.03	16.64	25.61	-52.2	-54.5	14.2	0.00e+00	0	25	0	397410304	69	5022
2026-01-08 01:46:51.03	16.53	25.76	-52.1	-54.4	14.3	0.00e+00	0	25	0	399507456	69	4934
2026-01-08 01:46:52.03	16.41	25.91	-51.9	-54.1	14.4	0.00e+00	0	25	0	401604608	69	4785
2026-01-08 01:46:53.03	16.30	26.07	-51.9	-54.0	14.3	0.00e+00	0	25	0	402653184	69	4759
2026-01-08 01:46:54.03	16.18	26.22	-52.3	-54.5	14.2	0.00e+00	0	25	0	404750336	69	5033
2026-01-08 01:46:55.03	16.06	26.37	-52.2	-54.4	14.3	0.00e+00	0	25	0	406847488	69	4959
2026-01-08 01:46:56.03	15.95	26.53	-52.2	-54.4	14.3	0.00e+00	0	25	0	408944640	69	4935
2026-01-08 01:46:57.02	15.83	26.68	-52.4	-54.6	14.4	0.00e+00	0	25	0	411041792	70	4779
2026-01-08 01:46:58.01	15.71	26.84	-52.7	-55.0	14.1	0.00e+00	0	25	0	412090368	70	5004
2026-01-08 01:46:59.01	15.59	26.99	-52.5	-54.7	14.3	0.00e+00	0	25	0	414187520	70	4844
2026-01-08 01:47:00.00	15.46	27.15	-52.6	-54.8	14.2	0.00e+00	0	25	0	416284672	70	4925
2026-01-08 01:47:00.99	15.34	27.30	-52.3	-54.5	14.4	0.00e+00	0	25	0	418381824	70	4721
2026-01-08 01:47:01.99	15.21	27.46	-52.5	-54.7	14.3	0.00e+00	0	25	0	419430400	70	4848
2026-01-08 01:47:02.99	15.09	27.62	-52.3	-54.4	14.4	0.00e+00	0	25	0	421527552	70	4677
2026-01-08 01:47:03.98	14.96	27.78	-52.1	-54.2	14.5	0.00e+00	0	25	0	423624704	70	4573
2026-01-08 01:47:04.98	14.83	27.94	-52.1	-54.2	14.5	0.00e+00	0	25	0	425721856	70	4592
2026-01-08 01:47:05.97	14.70	28.10	-52.3	-54.4	14.4	0.00e+00	0	25	0	427819008	70	4703
2026-01-08 01:47:06.97	14.57	28.27	-52.4	-54.7	14.3	0.00e+00	0	25	0	428867584	70	4831
2026-01-08 01:47:07.97	14.43	28.43	-52.4	-54.6	14.3	0.00e+00	0	25	0	430964736	70	4809
2026-01-08 01:47:08.96	14.30	28.59	-52.5	-54.8	14.2	0.00e+00	0	25	0	433061888	70	4876
2026-01-08 01:47:09.96	14.16	28.76	-52.8	-55.2	14.1	0.00e+00	0	25	0	435159040	70	5115
2026-01-08 01:47:10.96	14.03	28.92	-52.8	-55.2	14.0	0.00e+00	0	25	0	436207616	70	5134
2026-01-08 01:47:11.96	13.89	29.09	-52.8	-55.1	14.3	0.00e+00	0	25	0	438304768	71	4776
2026-01-08 01:47:12.96	13.75	29.26	-52.8	-55.2	14.2	0.00e+00	0	25	0	440401920	71	4833
2026-01-08 01:47:13.96	13.60	29.43	-52.8	-55.1	14.1	0.00e+00	0	25	0	442499072	71	4798
2026-01-08 01:47:14.96	13.46	29.60	-52.9	-55.2	14.2	0.00e+00	0	25	0	444596224	71	4842
2026-01-08 01:47:15.96	13.31	29.77	-52.8	-55.0	14.3	0.00e+00	0	25	0	445644800	71	4755
2026-01-08 01:47:16.96	13.17	29.94	-52.3	-54.4	14.6	0.00e+00	0	25	0	447741952	71	4407
2026-01-08 01:47:17.96	13.02	30.11	-52.4	-54.6	14.4	0.00e+00	0	25	0	449839104	70	4776
2026-01-08 01:47:18.96	12.87	30.28	-52.5	-54.8	14.3	0.00e+00	0	25	0	451936256	70	4871
2026-01-08 01:47:19.96	12.71	30.45	-52.3	-54.4	14.5	0.00e+00	0	25	0	454033408	70	4672
2026-01-08 01:47:20.96	12.56	30.63	-52.4	-54.5	14.4	0.00e+00	0	25	0	455081984	70	4731
2026-01-08 01:47:21.96	12.40	30.80	-52.7	-54.9	14.2	0.00e+00	0	25	0	457179136	70	4972
2026-01-08 01:47:22.96	12.25	30.98	-52.5	-54.7	14.3	0.00e+00	0	25	0	459276288	70	4829
2026-01-08 01:47:23.96	12.09	31.15	-52.5	-54.6	14.3	0.00e+00	0	25	0	461373440	70	4805
2026-01-08 01:47:24.95	11.93	31.33	-52.4	-54.6	14.4	0.00e+00	0	25	0	462422016	70	4777
2026-01-08 01:47:25.95	11.77	31.51	-52.6	-54.8	14.2	0.00e+00	0	25	0	464519168	70	4893
2026-01-08 01:47:26.94	11.60	31.68	-52.6	-54.8	14.3	0.00e+00	0	25	0	466616320	70	4898
2026-01-08 01:47:27.94	11.44	31.86	-52.2	-54.2	14.5	0.00e+00	0	25	0	468713472	70	4591
2026-01-08 01:47:28.94	11.27	32.04	-52.7	-54.9	14.2	0.00e+00	0	25	0	470810624	70	4980
2026-01-08 01:47:29.93	11.10	32.22	-52.6	-54.9	14.2	0.00e+00	0	25	0	471859200	70	4943
2026-01-08 01:47:30.92	10.93	32.40	-53.0	-55.4	14.1	0.00e+00	0	25	0	473956352	71	4944
2026-01-08 01:47:31.92	10.76	32.59	-52.9	-55.2	14.2	0.00e+00	0	25	0	476053504	71	4847
2026-01-08 01:47:32.92	10.58	32.77	-53.2	-55.7	13.9	0.00e+00	0	25	0	478150656	71	5156
2026-01-08 01:47:33.91	10.40	32.95	-53.4	-56.0	13.8	0.00e+00	0	25	0	479199232	72	5019
2026-01-08 01:47:34.91	10.22	33.14	-53.3	-55.9	13.9	0.00e+00	0	25	0	481296384	72	4966
2026-01-08 01:47:35.91	10.04	33.32	-52.8	-55.2	14.3	0.00e+00	0	25	0	483393536	72	4569
2026-01-08 01:47:36.91	9.86	33.51	-53.2	-55.9	13.9	0.00e+00	0	25	0	485490688	72	4946
2026-01-08 01:47:37.90	9.67	33.70	-53.0	-55.6	14.1	0.00e+00	0	25	0	487587840	72	4780
2026-01-08 01:47:38.90	9.48	33.89	-52.9	-55.5	14.0	0.00e+00	0	25	0	488636416	71	5025
2026-01-08 01:47:39.90	9.29	34.08	-53.0	-55.8	13.9	0.00e+00	0	25	0	490733568	71	5161
2026-01-08 01:47:40.89	9.10	34.26	-53.3	-56.2	13.7	0.00e+00	0	25	0	492830720	71	5460
2026-01-08 01:47:41.88	8.91	34.45	-53.4	-56.4	13.6	0.00e+00	0	25	0	494927872	72	5270
2026-01-08 01:47:42.89	8.71	34.65	-53.7	-56.8	13.4	0.00e+00	0	25	0	497025024	72	5507
2026-01-08 01:47:43.89	8.51	34.84	-53.7	-56.9	13.5	0.00e+00	0	25	0	498073600	73	5239
2026-01-08 01:47:44.89	8.31	35.03	-54.1	-57.4	13.2	0.00e+00	0	25	0	500170752	73	5568
2026-01-08 01:47:45.89	8.10	35.23	-54.1	-57.4	13.2	0.00e+00	0	25	0	502267904	73	5529
2026-01-08 01:47:46.89	7.89	35.42	-54.0	-57.3	13.3	0.00e+00	0	25	0	504365056	73	5469
2026-01-08 01:47:47.89	7.68	35.62	-54.1	-57.3	13.2	0.00e+00	0	25	0	505413632	73	5525
2026-01-08 01:47:48.89	7.47	35.81	-54.5	-58.1	12.9	0.00e+00	0	25	0	507510784	74	5687
2026-01-08 01:47:49.89	7.25	36.01	-54.9	-58.8	12.5	0.00e+00	0	25	0	509607936	74	6158
2026-01-08 01:47:50.88	7.04	36.21	-55.2	-59.5	12.1	1.50e-06	0	25	0	511705088	75	6329
2026-01-08 01:47:51.88	6.82	36.40	-55.1	-59.0	12.5	6.10e-06	0	25	0	513802240	76	5632
2026-01-08 01:47:52.88	6.59	36.60	-55.1	-59.2	12.3	2.20e-06	0	25	0	514850816	76	5732
2026-01-08 01:47:53.89	6.37	36.80	-54.6	-58.3	12.9	1.50e-06	0	25	0	516947968	75	5467
2026-01-08 01:47:54.89	6.14	37.01	-54.0	-57.2	13.3	0.00e+00	0	25	0	519045120	74	5159
2026-01-08 01:47:55.89	5.90	37.21	-53.5	-56.6	13.7	0.00e+00	0	25	0	521142272	73	5044
2026-01-08 01:47:56.88	5.67	37.41	-53.0	-55.8	13.9	0.00e+00	0	25	0	523239424	72	4886
2026-01-08 01:47:57.87	5.44	37.61	-52.6	-55.1	14.2	0.00e+00	0	25	0	524288000	71	4772
2026-01-08 01:47:58.87	5.20	37.81	-52.4	-54.9	14.3	0.00e+00	0	25	0	526385152	71	4703
2026-01-08 01:47:59.87	4.95	38.01	-52.4	-54.8	14.4	0.00e+00	0	25	0	528482304	71	4629
2026-01-08 01:48:00.84	4.71	38.21	-52.5	-54.9	14.3	0.00e+00	0	25	0	530579456	71	4698
2026-01-08 01:48:01.83	4.46	38.42	-52.3	-54.6	14.4	0.00e+00	0	25	0	531628032	70	4814
2026-01-08 01:48:02.83	4.21	38.62	-52.6	-55.2	14.1	0.00e+00	0	25	0	533725184	70	5105
2026-01-08 01:48:03.83	3.95	38.83	-52.7	-55.2	14.1	0.00e+00	0	25	0	535822336	70	5110
2026-01-08 01:48:04.83	3.69	39.04	-53.2	-56.0	13.8	0.00e+00	0	25	0	537919488	71	5333
2026-01-08 01:48:05.83	3.43	39.24	-53.9	-57.2	13.2	0.00e+00	0	25	0	540016640	72	5761
2026-01-08 01:48:06.84	3.16	39.45	-53.7	-56.9	13.4	0.00e+00	0	25	0	541065216	72	5539
2026-01-08 01:48:07.84	2.89	39.66	-54.3	-58.1	12.8	0.00e+00	0	25	0	543162368	73	6043
2026-01-08 01:48:08.83	2.62	39.87	-53.9	-57.3	13.3	0.00e+00	0	25	0	545259520	73	5510
2026-01-08 01:48:09.84	2.34	40.08	-53.8	-57.0	13.4	0.00e+00	0	25	0	547356672	73	5316
2026-01-08 01:48:10.84	2.06	40.29	-54.0	-57.4	13.1	0.00e+00	0	25	0	548405248	73	5586
2026-01-08 01:48:11.83	1.78	40.50	-54.4	-58.2	12.6	0.00e+00	0	25	0	550502400	73	6063
2026-01-08 01:48:12.83	1.49	40.71	-54.6	-58.6	12.4	0.00e+00	0	25	0	552599552	74	6014
2026-01-08 01:48:13.83	1.20	40.92	-55.3	-60.1	11.6	5.30e-06	0	25	0	554696704	75	6755
2026-01-08 01:48:14.82	0.90	41.13	-55.4	-60.1	11.7	3.20e-05	0	25	0	556793856	76	6381
2026-01-08 01:48:15.81	0.60	41.34	-55.5	-60.2	11.6	2.59e-05	0	25	0	557842432	76	6461
2026-01-08 01:48:16.81	0.30	41.55	-55.1	-59.6	12.0	5.30e-06	0	25	0	559939584	76	6053
2026-01-08 01:48:17.81	359.99	41.77	-54.9	-59.2	12.2	0.00e+00	0	25	0	562036736	76	5764
2026-01-08 01:48:18.82	359.68	41.98	-54.6	-58.8	12.4	0.00e+00	0	25	0	564133888	75	5802
2026-01-08 01:48:19.81	359.36	42.19	-54.5	-58.5	12.7	7.00e-07	0	25	0	566231040	75	5624
2026-01-08 01:48:20.81	359.04	42.41	-53.9	-57.3	13.5	0.00e+00	0	25	0	567279616	74	5191
2026-01-08 01:48:21.81	358.72	42.62	-53.5	-56.5	13.7	0.00e+00	0	25	0	569376768	73	5028
2026-01-08 01:48:22.80	358.39	42.83	-53.2	-55.9	14.1	0.00e+00	0	25	0	571473920	73	4701
2026-01-08 01:48:23.81	358.05	43.05	-53.1	-55.7	14.1	0.00e+00	0	25	0	573571072	72	4869
2026-01-08 01:48:24.81	357.72	43.26	-53.2	-55.8	14.0	0.00e+00	0	25	0	575668224	72	4889
2026-01-08 01:48:25.80	357.38	43.47	-52.8	-55.3	14.3	0.00e+00	0	25	0	576716800	72	4645
2026-01-08 01:48:26.80	357.03	43.69	-52.9	-55.5	14.2	0.00e+00	0	25	0	578813952	72	4732
2026-01-08 01:48:27.80	356.68	43.90	-53.0	-55.6	14.1	0.00e+00	0	25	0	580911104	72	4805
2026-01-08 01:48:28.79	356.32	44.11	-53.0	-55.6	14.0	0.00e+00	0	25	0	583008256	72	4811
2026-01-08 01:48:29.79	355.96	44.33	-53.0	-55.6	14.1	0.00e+00	0	25	0	584056832	72	4782
2026-01-08 01:48:30.78	355.60	44.54	-53.1	-55.7	14.1	0.00e+00	0	25	0	586153984	72	4847
2026-01-08 01:48:31.78	355.22	44.75	-53.3	-55.9	14.0	0.00e+00	0	25	0	588251136	72	4967
2026-01-08 01:48:32.78	354.85	44.97	-53.8	-56.7	13.6	0.00e+00	0	25	0	590348288	72	5463
2026-01-08 01:48:33.77	354.47	45.18	-54.0	-57.0	13.5	0.00e+00	0	25	0	592445440	73	5283
2026-01-08 01:48:34.76	354.08	45.39	-53.7	-56.7	13.6	0.00e+00	0	25	0	593494016	73	5123
2026-01-08 01:48:35.76	353.69	45.60	-53.6	-56.5	13.8	0.00e+00	0	25	0	595591168	73	5013
2026-01-08 01:48:36.75	353.30	45.81	-53.3	-56.1	14.0	0.00e+00	0	25	0	597688320	73	4785
2026-01-08 01:48:37.74	352.90	46.02	-52.9	-55.5	14.2	0.00e+00	0	25	0	599785472	72	4709
2026-01-08 01:48:38.74	352.49	46.23	-52.6	-55.0	14.3	0.00e+00	0	25	0	600834048	71	4715
2026-01-08 01:48:39.73	352.08	46.44	-52.4	-54.8	14.5	0.00e+00	0	25	0	602931200	71	4630
2026-01-08 01:48:40.74	351.66	46.65	-52.8	-55.5	14.0	0.00e+00	0	25	0	605028352	71	5019
2026-01-08 01:48:41.73	351.23	46.86	-53.2	-56.3	13.6	0.00e+00	0	25	0	607125504	71	5502
2026-01-08 01:48:42.73	350.80	47.07	-53.1	-56.1	13.7	0.00e+00	0	25	0	609222656	71	5359
2026-01-08 01:48:43.73	350.36	47.28	-52.5	-55.0	14.3	0.00e+00	0	25	0	610271232	71	4737
2026-01-08 01:48:44.73	349.92	47.48	-52.2	-54.4	14.6	0.00e+00	0	25	0	612368384	71	4426
2026-01-08 01:48:45.73	349.47	47.69	-52.1	-54.3	14.6	0.00e+00	0	25	0	614465536	70	4641
2026-01-08 01:48:46.72	349.02	47.89	-52.3	-54.6	14.4	0.00e+00	0	25	0	616562688	70	4785
2026-01-08 01:48:47.72	348.56	48.10	-52.7	-55.3	14.1	0.00e+00	0	25	0	617611264	70	5186
2026-01-08 01:48:48.71	348.10	48.30	-52.9	-55.6	13.8	0.00e+00	0	25	0	619708416	70	5388
2026-01-08 01:48:49.72	347.62	48.50	-52.9	-55.7	13.9	0.00e+00	0	25	0	621805568	71	5153
2026-01-08 01:48:50.72	347.14	48.70	-53.1	-56.1	13.7	0.00e+00	0	25	0	623902720	71	5372
2026-01-08 01:48:51.72	346.65	48.90	-53.0	-55.9	13.8	0.00e+00	0	25	0	625999872	71	5242
2026-01-08 01:48:52.72	346.16	49.10	-52.7	-55.4	14.1	0.00e+00	0	25	0	627048448	71	4943
2026-01-08 01:48:53.71	345.67	49.29	-52.8	-55.5	14.0	0.00e+00	0	25	0	629145600	71	5024
2026-01-08 01:48:54.71	345.16	49.49	-52.9	-55.6	14.1	0.00e+00	0	25	0	631242752	71	5096
2026-01-08 01:48:55.72	344.64	49.68	-52.5	-55.0	14.3	0.00e+00	0	25	0	633339904	71	4755
2026-01-08 01:48:56.71	344.13	49.87	-51.8	-54.0	14.7	0.00e+00	0	25	0	635437056	70	4478
2026-01-08 01:48:57.71	343.61	50.06	-51.0	-52.9	14.9	0.00e+00	0	25	0	636485632	68	4406
2026-01-08 01:48:58.71	343.07	50.25	-51.0	-52.8	15.0	0.00e+00	0	25	0	638582784	68	4357
2026-01-08 01:48:59.70	342.54	50.44	-51.3	-53.1	14.8	0.00e+00	0	25	0	640679936	68	4538
2026-01-08 01:49:00.69	342.00	50.62	-51.2	-53.2	14.8	0.00e+00	0	25	0	642777088	68	4546
2026-01-08 01:49:01.70	341.45	50.80	-51.1	-52.9	14.9	0.00e+00	0	25	0	643825664	68	4441
2026-01-08 01:49:02.70	340.89	50.98	-50.2	-51.9	15.2	0.00e+00	0	25	0	645922816	67	4186
2026-01-08 01:49:03.70	340.32	51.16	-50.0	-51.7	15.1	0.00e+00	0	25	0	648019968	66	4324
2026-01-08 01:49:04.70	339.75	51.34	-50.4	-52.2	14.9	0.00e+00	0	25	0	650117120	66	4583
2026-01-08 01:49:05.70	339.17	51.51	-51.1	-53.2	14.6	0.00e+00	0	25	0	652214272	67	4866
2026-01-08 01:49:06.69	338.59	51.68	-51.8	-54.1	14.4	0.00e+00	0	25	0	653262848	68	5087
2026-01-08 01:49:07.68	338.01	51.85	-51.9	-54.3	14.4	0.00e+00	0	25	0	655360000	69	4902
2026-01-08 01:49:08.68	337.41	52.01	-51.9	-54.3	14.4	0.00e+00	0	25	0	657457152	69	4892
2026-01-08 01:49:09.67	336.81	52.17	-51.6	-53.9	14.6	0.00e+00	0	25	0	659554304	69	4660
2026-01-08 01:49:10.67	336.20	52.33	-51.3	-53.4	14.8	0.00e+00	0	25	0	661651456	69	4436
2026-01-08 01:49:11.66	335.58	52.49	-51.3	-53.4	14.8	0.00e+00	0	25	0	662700032	69	4424
2026-01-08 01:49:12.67	334.95	52.64	-52.0	-54.5	14.3	0.00e+00	0	25	0	664797184	69	5011
2026-01-08 01:49:13.67	334.32	52.80	-52.3	-55.0	14.1	0.00e+00	0	25	0	666894336	69	5284
2026-01-08 01:49:14.67	333.68	52.94	-52.1	-54.6	14.2	0.00e+00	0	25	0	668991488	69	5068
2026-01-08 01:49:15.67	333.04	53.09	-51.4	-53.6	14.7	0.00e+00	0	25	0	670040064	69	4532
2026-01-08 01:49:16.67	332.38	53.23	-50.7	-52.7	15.0	0.00e+00	0	25	0	672137216	68	4324
2026-01-08 01:49:17.68	331.72	53.37	-50.1	-51.9	15.0	0.00e+00	0	25	0	674234368	66	4409
2026-01-08 01:49:18.68	331.06	53.50	-49.8	-51.5	15.2	0.00e+00	0	25	0	676331520	66	4220
2026-01-08 01:49:19.68	330.39	53.63	-50.1	-51.9	15.0	0.00e+00	0	25	0	678428672	66	4440
2026-01-08 01:49:20.68	329.71	53.76	-51.0	-53.3	14.6	0.00e+00	0	25	0	679477248	67	4871
2026-01-08 01:49:21.67	329.04	53.88	-51.0	-53.2	14.5	0.00e+00	0	25	0	681574400	67	4830
2026-01-08 01:49:22.67	328.35	54.00	-50.8	-52.9	14.7	0.00e+00	0	25	0	683671552	67	4656
2026-01-08 01:49:23.67	327.65	54.12	-51.0	-53.1	14.6	0.00e+00	0	25	0	685768704	67	4786
2026-01-08 01:49:24.67	326.96	54.23	-51.2	-53.5	14.4	0.00e+00	0	25	0	687865856	67	5029
2026-01-08 01:49:25.67	326.25	54.34	-51.2	-53.6	14.4	0.00e+00	0	25	0	688914432	67	5090
2026-01-08 01:49:26.67	325.54	54.44	-50.8	-53.0	14.6	0.00e+00	0	25	0	691011584	67	4756
2026-01-08 01:49:27.67	324.83	54.54	-50.8	-52.9	14.7	0.00e+00	0	25	0	693108736	67	4686
2026-01-08 01:49:28.66	324.12	54.63	-50.7	-52.9	14.7	0.00e+00	0	25	0	695205888	67	4687
2026-01-08 01:49:29.66	323.39	54.72	-50.5	-52.7	14.8	0.00e+00	0	25	0	696254464	67	4585
2026-01-08 01:49:30.65	322.67	54.81	-50.7	-53.0	14.7	0.00e+00	0	25	0	698351616	67	4723
2026-01-08 01:49:31.64	321.94	54.89	-50.8	-53.1	14.7	0.00e+00	0	25	0	700448768	67	4771
2026-01-08 01:49:32.64	321.21	54.96	-50.5	-52.6	14.9	0.00e+00	0	25	0	702545920	67	4511
2026-01-08 01:49:33.62	320.48	55.04	-50.1	-52.1	15.0	0.00e+00	0	25	0	704643072	66	4498
2026-01-08 01:49:34.62	319.74	55.10	-49.3	-51.2	15.2	0.00e+00	0	25	0	705691648	65	4320
2026-01-08 01:49:35.62	318.99	55.17	-49.0	-50.8	15.3	0.00e+00	0	25	0	707788800	64	4341
2026-01-08 01:49:36.61	318.25	55.22	-48.7	-50.4	15.2	0.00e+00	0	25	0	709885952	63	4428
2026-01-08 01:49:37.60	317.50	55.28	-48.9	-50.7	15.1	0.00e+00	0	25	0	711983104	63	4575
2026-01-08 01:49:38.53	316.80	55.32	-49.2	-51.1	14.9	0.00e+00	0	25	0	713031680	63	4793
2026-01-08 01:49:39.53	316.04	55.36	-49.4	-51.3	15.0	0.00e+00	0	25	0	715128832	64	4615
2026-01-08 01:49:40.52	315.28	55.40	-49.6	-51.5	14.9	0.00e+00	0	25	0	717225984	64	4756
2026-01-08 01:49:41.52	314.52	55.44	-49.3	-51.2	15.0	0.00e+00	0	25	0	719323136	64	4564
2026-01-08 01:49:42.52	313.76	55.47	-48.9	-50.6	15.3	0.00e+00	0	25	0	721420288	64	4260
2026-01-08 01:49:43.51	313.00	55.49	-48.4	-50.0	15.4	0.00e+00	0	25	0	722468864	63	4212
2026-01-08 01:49:44.51	312.23	55.51	-48.7	-50.5	15.2	0.00e+00	0	25	0	724566016	63	4443
2026-01-08 01:49:45.50	311.47	55.52	-49.2	-50.9	15.0	0.00e+00	0	25	0	726663168	63	4702
2026-01-08 01:49:46.50	310.70	55.53	-49.7	-51.7	14.9	0.00e+00	0	25	0	728760320	64	4817
2026-01-08 01:49:47.49	309.94	55.53	-50.1	-52.2	14.8	0.00e+00	0	25	0	729808896	65	4824
2026-01-08 01:49:48.50	309.16	55.53	-49.5	-51.3	15.1	0.00e+00	0	25	0	731906048	65	4384
2026-01-08 01:49:49.50	308.39	55.53	-48.7	-50.4	15.4	0.00e+00	0	25	0	734003200	64	4148
2026-01-08 01:49:50.49	307.63	55.51	-48.6	-50.2	15.3	0.00e+00	0	25	0	736100352	63	4297
2026-01-08 01:49:51.49	306.86	55.50	-49.2	-50.9	15.0	0.00e+00	0	25	0	738197504	63	4693
2026-01-08 01:49:52.49	306.09	55.48	-49.3	-51.2	15.0	0.00e+00	0	25	0	739246080	64	4558
2026-01-08 01:49:53.49	305.33	55.45	-49.4	-51.2	15.1	0.00e+00	0	25	0	741343232	64	4563
2026-01-08 01:49:54.48	304.57	55.42	-49.3	-51.1	15.1	0.00e+00	0	25	0	743440384	64	4498
2026-01-08 01:49:55.48	303.81	55.38	-49.1	-50.8	15.2	0.00e+00	0	25	0	745537536	64	4363
2026-01-08 01:49:56.48	303.05	55.34	-49.1	-50.8	15.2	0.00e+00	0	25	0	747634688	64	4373
2026-01-08 01:49:57.48	302.29	55.29	-49.2	-51.0	15.2	0.00e+00	0	25	0	748683264	64	4462
2026-01-08 01:49:58.48	301.54	55.24	-49.6	-51.5	14.9	0.00e+00	0	25	0	750780416	64	4729
2026-01-08 01:49:59.47	300.79	55.18	-49.6	-51.5	14.9	0.00e+00	0	25	0	752877568	64	4736
2026-01-08 01:50:00.48	300.04	55.12	-49.7	-51.6	14.9	0.00e+00	0	25	0	754974720	64	4766
2026-01-08 01:50:01.47	299.30	55.06	-49.0	-50.7	15.2	0.00e+00	0	25	0	756023296	64	4340
2026-01-08 01:50:02.46	298.56	54.99	-48.3	-49.9	15.4	0.00e+00	0	25	0	758120448	63	4186
2026-01-08 01:50:03.46	297.82	54.91	-48.1	-49.6	15.4	0.00e+00	0	25	0	760217600	62	4286
2026-01-08 01:50:04.46	297.09	54.83	-48.1	-49.7	15.3	0.00e+00	0	25	0	762314752	62	4304
2026-01-08 01:50:05.46	296.36	54.75	-48.4	-50.0	15.2	0.00e+00	0	25	0	764411904	62	4479
2026-01-08 01:50:06.45	295.64	54.66	-48.4	-50.1	15.1	0.00e+00	0	25	0	765460480	62	4497
2026-01-08 01:50:07.45	294.92	54.56	-48.5	-50.2	15.2	0.00e+00	0	25	0	767557632	62	4552
2026-01-08 01:50:08.45	294.20	54.47	-48.4	-50.0	15.2	0.00e+00	0	25	0	769654784	62	4442
2026-01-08 01:50:09.44	293.50	54.37	-48.1	-49.6	15.3	0.00e+00	0	25	0	771751936	62	4280
2026-01-08 01:50:10.44	292.79	54.26	-48.5	-50.0	15.2	0.00e+00	0	25	0	773849088	62	4484
2026-01-08 01:50:11.44	292.09	54.15	-48.5	-50.0	15.2	0.00e+00	0	25	0	774897664	62	4486
2026-01-08 01:50:12.44	291.40	54.03	-48.4	-49.9	15.2	0.00e+00	0	25	0	776994816	62	4433
2026-01-08 01:50:13.43	290.71	53.92	-48.6	-50.2	15.1	0.00e+00	0	25	0	779091968	62	4556
2026-01-08 01:50:14.43	290.03	53.80	-49.6	-51.4	15.0	0.00e+00	0	25	0	781189120	64	4652
2026-01-08 01:50:15.44	289.34	53.67	-49.7	-51.5	15.0	0.00e+00	0	25	0	782237696	64	4737
2026-01-08 01:50:16.44	288.67	53.54	-49.3	-50.9	15.3	0.00e+00	0	25	0	784334848	65	4188
2026-01-08 01:50:17.43	288.01	53.41	-49.1	-50.7	15.3	0.00e+00	0	25	0	786432000	64	4329
2026-01-08 01:50:18.44	287.35	53.27	-49.3	-50.8	15.2	0.00e+00	0	25	0	788529152	64	4385
2026-01-08 01:50:19.44	286.69	53.13	-50.2	-52.0	14.9	0.00e+00	0	25	0	790626304	65	4742
2026-01-08 01:50:20.43	286.05	52.98	-51.0	-53.0	14.7	0.00e+00	0	25	0	791674880	67	4721
2026-01-08 01:50:21.43	285.41	52.84	-51.2	-53.3	14.6	0.00e+00	0	25	0	793772032	67	4876
2026-01-08 01:50:22.43	284.78	52.69	-51.3	-53.3	14.5	0.00e+00	0	25	0	795869184	67	4899
2026-01-08 01:50:23.43	284.15	52.53	-51.2	-53.3	14.6	0.00e+00	0	25	0	797966336	67	4896
2026-01-08 01:50:24.42	283.53	52.38	-50.6	-52.4	15.0	0.00e+00	0	25	0	800063488	67	4398
2026-01-08 01:50:25.42	282.92	52.22	-50.8	-52.7	14.9	0.00e+00	0	25	0	801112064	67	4552
2026-01-08 01:50:26.42	282.31	52.06	-51.7	-53.8	14.6	0.00e+00	0	25	0	803209216	68	4888
2026-01-08 01:50:27.41	281.72	51.89	-52.5	-54.9	14.3	0.00e+00	0	25	0	805306368	70	4956
2026-01-08 01:50:28.41	281.12	51.73	-52.2	-54.4	14.5	0.00e+00	0	25	0	807403520	70	4701
2026-01-08 01:50:29.40	280.54	51.56	-52.7	-55.2	14.1	0.00e+00	0	25	0	808452096	70	5113
2026-01-08 01:50:30.40	279.96	51.38	-52.1	-54.2	14.5	0.00e+00	0	25	0	810549248	70	4595
2026-01-08 01:50:31.39	279.39	51.21	-51.4	-53.3	14.9	0.00e+00	0	25	0	812646400	69	4389
2026-01-08 01:50:32.40	278.82	51.03	-51.3	-53.3	14.7	0.00e+00	0	25	0	814743552	68	4621
2026-01-08 01:50:33.39	278.26	50.85	-51.6	-53.7	14.6	0.00e+00	0	25	0	816840704	68	4847
2026-01-08 01:50:34.39	277.71	50.67	-52.6	-55.0	14.2	0.00e+00	0	25	0	817889280	70	5024
2026-01-08 01:50:35.39	277.16	50.49	-52.6	-55.0	14.2	0.00e+00	0	25	0	819986432	70	5041
2026-01-08 01:50:36.38	276.62	50.30	-52.5	-54.9	14.3	0.00e+00	0	25	0	822083584	70	4934
2026-01-08 01:50:37.37	276.09	50.12	-51.8	-54.0	14.5	0.00e+00	0	25	0	824180736	69	4731
2026-01-08 01:50:38.37	275.57	49.93	-51.1	-53.1	14.8	0.00e+00	0	25	0	825229312	68	4541
2026-01-08 01:50:39.37	275.04	49.73	-51.2	-53.2	14.8	0.00e+00	0	25	0	827326464	68	4581
2026-01-08 01:50:40.36	274.53	49.54	-51.6	-53.7	14.5	0.00e+00	0	25	0	829423616	68	4860
2026-01-08 01:50:41.36	274.03	49.35	-51.6	-53.7	14.5	0.00e+00	0	25	0	831520768	68	4851
2026-01-08 01:50:42.36	273.53	49.15	-51.1	-53.1	14.8	0.00e+00	0	25	0	833617920	68	4499
2026-01-08 01:50:43.36	273.03	48.95	-51.9	-54.1	14.5	0.00e+00	0	25	0	834666496	69	4786
2026-01-08 01:50:44.35	272.55	48.76	-52.2	-54.5	14.4	0.00e+00	0	25	0	836763648	69	4985
2026-01-08 01:50:45.35	272.06	48.56	-52.9	-55.4	14.0	0.00e+00	0	25	0	838860800	70	5235
2026-01-08 01:50:46.34	271.59	48.36	-52.5	-54.8	14.3	0.00e+00	0	25	0	840957952	70	4917
2026-01-08 01:50:47.33	271.13	48.16	-52.0	-54.0	14.7	0.00e+00	0	25	0	843055104	70	4472
2026-01-08 01:50:48.32	270.67	47.95	-52.1	-54.1	14.7	0.00e+00	0	25	0	844103680	70	4516
2026-01-08 01:50:49.32	270.21	47.75	-53.0	-55.4	14.2	0.00e+00	0	25	0	846200832	71	4952
2026-01-08 01:50:50.32	269.76	47.54	-53.6	-56.4	13.9	0.00e+00	0	25	0	848297984	72	5225
2026-01-08 01:50:51.33	269.31	47.33	-54.5	-57.8	13.2	0.00e+00	0	25	0	850395136	74	5490
2026-01-08 01:50:52.33	268.87	47.12	-56.0	-60.9	11.6	0.00e+00	0	25	0	851443712	77	6598
2026-01-08 01:50:53.32	268.44	46.92	-56.6	-62.6	10.1	2.14e-04	0	25	0	853540864	78	7613
2026-01-08 01:50:54.31	268.01	46.71	-56.4	-61.6	11.1	2.62e-04	0	25	0	855638016	78	6733
2026-01-08 01:50:55.30	267.60	46.50	-56.2	-60.7	11.6	1.44e-05	0	25	0	857735168	78	6128
2026-01-08 01:50:56.31	267.17	46.29	-55.9	-60.1	12.2	8.30e-06	0	25	0	859832320	78	5667
2026-01-08 01:50:57.31	266.76	46.08	-55.6	-59.5	12.4	9.90e-06	0	25	0	860880896	77	5649
2026-01-08 01:50:58.31	266.36	45.87	-54.5	-57.6	13.4	0.00e+00	0	25	0	862978048	75	5095
2026-01-08 01:50:59.30	265.96	45.66	-54.3	-57.1	13.8	0.00e+00	0	25	0	865075200	75	4797
2026-01-08 01:51:00.30	265.57	45.44	-54.2	-57.0	13.7	0.00e+00	0	25	0	867172352	74	5012
2026-01-08 01:51:01.30	265.18	45.23	-54.2	-57.0	13.6	0.00e+00	0	25	0	868220928	74	5025
2026-01-08 01:51:02.29	264.80	45.02	-54.0	-56.6	13.9	0.00e+00	0	25	0	870318080	74	4801
2026-01-08 01:51:03.29	264.42	44.80	-53.2	-55.5	14.4	0.00e+00	0	25	0	872415232	73	4463
2026-01-08 01:51:04.28	264.05	44.59	-52.7	-54.8	14.5	0.00e+00	0	25	0	874512384	71	4609
2026-01-08 01:51:05.28	263.68	44.38	-52.5	-54.6	14.6	0.00e+00	0	25	0	876609536	71	4527
2026-01-08 01:51:06.28	263.31	44.16	-52.5	-54.6	14.6	0.00e+00	0	25	0	877658112	71	4544
2026-01-08 01:51:07.27	262.96	43.95	-53.4	-55.8	14.1	0.00e+00	0	25	0	879755264	72	4903
2026-01-08 01:51:08.26	262.60	43.74	-53.7	-56.5	13.7	0.00e+00	0	25	0	881852416	72	5293
2026-01-08 01:51:09.26	262.25	43.52	-54.4	-57.5	13.3	0.00e+00	0	25	0	883949568	73	5626
2026-01-08 01:51:10.26	261.91	43.31	-54.4	-57.5	13.3	0.00e+00	0	25	0	884998144	74	5321
2026-01-08 01:51:11.25	261.57	43.10	-54.3	-57.3	13.5	0.00e+00	0	25	0	887095296	74	5207
2026-01-08 01:51:12.25	261.24	42.88	-54.6	-58.0	13.1	0.00e+00	0	25	0	889192448	74	5600
2026-01-08 01:51:13.24	260.91	42.67	-55.1	-59.0	12.5	0.00e+00	0	25	0	891289600	75	5973
2026-01-08 01:51:14.25	260.58	42.45	-55.6	-59.8	12.1	7.00e-07	0	25	0	893386752	76	6143
2026-01-08 01:51:15.25	260.25	42.24	-55.3	-59.2	12.5	0.00e+00	0	25	0	894435328	76	5743
2026-01-08 01:51:16.25	259.94	42.03	-54.8	-58.3	13.2	0.00e+00	0	25	0	896532480	76	5162
2026-01-08 01:51:17.25	259.62	41.81	-54.5	-58.0	13.0	0.00e+00	0	25	0	898629632	74	5596
2026-01-08 01:51:18.25	259.31	41.60	-53.9	-56.9	13.7	0.00e+00	0	25	0	900726784	74	4933
2026-01-08 01:51:19.26	259.00	41.38	-53.9	-56.8	13.6	0.00e+00	0	25	0	902823936	74	4918
2026-01-08 01:51:20.26	258.70	41.17	-53.2	-55.8	14.1	0.00e+00	0	25	0	903872512	73	4649
2026-01-08 01:51:21.26	258.40	40.96	-53.4	-56.2	13.7	0.00e+00	0	25	0	905969664	72	5130
2026-01-08 01:51:22.26	258.11	40.75	-53.9	-57.1	13.3	0.00e+00	0	25	0	908066816	73	5387
2026-01-08 01:51:23.25	257.82	40.54	-54.3	-57.9	12.9	0.00e+00	0	25	0	910163968	73	5896
2026-01-08 01:51:24.25	257.54	40.33	-54.4	-58.1	12.8	0.00e+00	0	25	0	911212544	73	6057
2026-01-08 01:51:25.25	257.25	40.12	-54.6	-58.3	12.8	7.00e-07	0	25	0	913309696	74	5849
2026-01-08 01:51:26.24	256.98	39.91	-54.4	-57.9	13.0	0.00e+00	0	25	0	915406848	74	5558
2026-01-08 01:51:27.24	256.70	39.70	-54.7	-58.6	12.5	0.00e+00	0	25	0	917504000	74	6025
2026-01-08 01:51:28.25	256.43	39.49	-54.3	-57.8	13.1	0.00e+00	0	25	0	919601152	74	5493
2026-01-08 01:51:29.25	256.16	39.28	-53.8	-56.8	13.8	0.00e+00	0	25	0	920649728	74	4898
2026-01-08 01:51:30.24	255.90	39.07	-53.9	-56.9	13.8	0.00e+00	0	25	0	922746880	74	4934
2026-01-08 01:51:31.23	255.64	38.87	-54.0	-57.1	13.7	0.00e+00	0	25	0	924844032	74	5070
2026-01-08 01:51:32.22	255.38	38.66	-54.0	-57.1	13.6	0.00e+00	0	25	0	926941184	74	5051
2026-01-08 01:51:33.22	255.13	38.45	-53.9	-56.8	13.6	0.00e+00	0	25	0	927989760	73	5217
2026-01-08 01:51:34.21	254.88	38.25	-53.0	-55.5	14.2	0.00e+00	0	25	0	930086912	72	4730
2026-01-08 01:51:35.20	254.63	38.05	-53.2	-55.8	14.0	0.00e+00	0	25	0	932184064	72	4907
2026-01-08 01:51:36.20	254.39	37.84	-53.7	-56.6	13.6	0.00e+00	0	25	0	934281216	72	5373
2026-01-08 01:51:37.20	254.14	37.64	-53.9	-56.8	13.5	0.00e+00	0	25	0	936378368	72	5522
2026-01-08 01:51:38.19	253.91	37.44	-54.1	-57.3	13.4	0.00e+00	0	25	0	937426944	73	5510
2026-01-08 01:51:39.19	253.67	37.24	-54.2	-57.4	13.4	0.00e+00	0	25	0	939524096	74	5269
2026-01-08 01:51:40.18	253.44	37.04	-54.3	-57.7	13.1	0.00e+00	0	25	0	941621248	74	5437
2026-01-08 01:51:41.17	253.21	36.84	-54.2	-57.6	13.2	0.00e+00	0	25	0	943718400	74	5374
2026-01-08 01:51:42.16	252.98	36.64	-54.6	-58.2	12.9	0.00e+00	0	25	0	944766976	74	5729
2026-01-08 01:51:43.16	252.76	36.44	-54.2	-57.5	13.2	0.00e+00	0	25	0	946864128	74	5330
2026-01-08 01:51:44.16	252.54	36.24	-54.2	-57.4	13.4	0.00e+00	0	25	0	948961280	74	5254
2026-01-08 01:51:45.16	252.32	36.04	-53.6	-56.5	13.7	0.00e+00	0	25	0	951058432	73	4998
2026-01-08 01:51:46.16	252.10	35.84	-53.8	-56.7	13.8	0.00e+00	0	25	0	953155584	73	5149
2026-01-08 01:51:47.16	251.89	35.65	-53.6	-56.4	13.9	0.00e+00	0	25	0	954204160	73	4952
2026-01-08 01:51:48.14	251.68	35.45	-53.7	-56.7	13.6	0.00e+00	0	25	0	956301312	73	5103
2026-01-08 01:51:49.14	251.47	35.26	-54.2	-57.3	13.3	0.00e+00	0	25	0	958398464	73	5514
2026-01-08 01:51:50.14	251.26	35.06	-54.3	-57.5	13.2	0.00e+00	0	25	0	960495616	73	5622
2026-01-08 01:51:51.14	251.06	34.87	-54.7	-58.1	13.0	0.00e+00	0	25	0	962592768	74	5718
2026-01-08 01:51:52.14	250.86	34.68	-54.4	-57.5	13.3	0.00e+00	0	25	0	963641344	74	5320
2026-01-08 01:51:53.13	250.66	34.48	-53.9	-56.7	13.9	0.00e+00	0	25	0	965738496	74	4831
2026-01-08 01:51:54.12	250.47	34.30	-53.6	-56.1	14.2	0.00e+00	0	25	0	967835648	73	4769
2026-01-08 01:51:55.12	250.27	34.10	-52.8	-55.0	14.5	0.00e+00	0	25	0	969932800	72	4456
2026-01-08 01:51:56.13	250.08	33.91	-52.2	-54.2	14.8	0.00e+00	0	25	0	972029952	71	4321
2026-01-08 01:51:57.13	249.89	33.72	-52.4	-54.4	14.5	0.00e+00	0	25	0	973078528	70	4659
2026-01-08 01:51:58.12	249.70	33.54	-52.8	-55.1	14.2	0.00e+00	0	25	0	975175680	70	5045
2026-01-08 01:51:59.12	249.52	33.35	-53.0	-55.3	14.2	0.00e+00	0	25	0	977272832	71	4891
2026-01-08 01:52:00.12	249.33	33.16	-53.0	-55.4	14.1	0.00e+00	0	25	0	979369984	71	4929
2026-01-08 01:52:01.12	249.15	32.98	-53.3	-55.7	14.0	0.00e+00	0	25	0	980418560	71	5107
2026-01-08 01:52:02.12	248.97	32.79	-53.0	-55.3	14.1	0.00e+00	0	25	0	982515712	71	4904
2026-01-08 01:52:03.12	248.80	32.61	-53.3	-55.7	14.0	0.00e+00	0	25	0	984612864	71	5141
2026-01-08 01:52:04.12	248.62	32.42	-53.4	-55.9	13.9	0.00e+00	0	25	0	986710016	71	5242
2026-01-08 01:52:05.12	248.45	32.24	-53.6	-56.2	13.8	0.00e+00	0	25	0	988807168	72	5149
2026-01-08 01:52:06.12	248.28	32.06	-53.8	-56.5	13.8	0.00e+00	0	25	0	989855744	73	5001
2026-01-08 01:52:07.11	248.11	31.88	-53.8	-56.6	13.7	0.00e+00	0	25	0	991952896	73	5064
2026-01-08 01:52:08.11	247.94	31.70	-54.0	-56.9	13.6	0.00e+00	0	25	0	994050048	73	5256
2026-01-08 01:52:09.11	247.78	31.52	-54.2	-57.3	13.3	0.00e+00	0	25	0	996147200	73	5494
2026-01-08 01:52:10.09	247.62	31.34	-54.6	-57.9	13.1	0.00e+00	0	25	0	997195776	74	5580
2026-01-08 01:52:11.10	247.45	31.16	-54.5	-57.8	13.1	0.00e+00	0	25	0	999292928	74	5526
2026-01-08 01:52:12.10	247.29	30.99	-54.6	-57.9	13.1	0.00e+00	0	25	0	1001390080	74	5549
2026-01-08 01:52:13.11	247.13	30.81	-54.1	-57.2	13.5	0.00e+00	0	25	0	1003487232	74	5123
2026-01-08 01:52:14.11	246.98	30.63	-53.6	-56.2	13.9	0.00e+00	0	25	0	1005584384	73	4869
2026-01-08 01:52:15.11	246.82	30.46	-53.2	-55.6	14.3	0.00e+00	0	25	0	1006632960	73	4514
2026-01-08 01:52:16.11	246.67	30.29	-52.9	-55.2	14.4	0.00e+00	0	25	0	1008730112	72	4578
2026-01-08 01:52:17.12	246.52	30.11	-52.4	-54.5	14.6	0.00e+00	0	25	0	1010827264	71	4490
2026-01-08 01:52:18.12	246.37	29.94	-52.4	-54.5	14.6	0.00e+00	0	25	0	1012924416	71	4492
2026-01-08 01:52:19.12	246.22	29.77	-52.5	-54.6	14.6	0.00e+00	0	25	0	1015021568	71	4528
2026-01-08 01:52:20.13	246.07	29.59	-52.6	-54.7	14.4	0.00e+00	0	25	0	1016070144	71	4597
2026-01-08 01:52:21.13	245.92	29.42	-52.7	-54.9	14.4	0.00e+00	0	25	0	1018167296	71	4672
2026-01-08 01:52:22.13	245.78	29.26	-52.7	-54.9	14.4	0.00e+00	0	25	0	1020264448	71	4682
2026-01-08 01:52:23.13	245.64	29.09	-52.9	-55.1	14.3	0.00e+00	0	25	0	1022361600	71	4800
2026-01-08 01:52:24.13	245.50	28.92	-52.9	-55.1	14.3	0.00e+00	0	25	0	1024458752	71	4804
2026-01-08 01:52:25.14	245.36	28.75	-53.4	-55.9	13.9	0.00e+00	0	25	0	1025507328	71	5275
2026-01-08 01:52:26.13	245.22	28.59	-53.5	-56.1	13.9	0.00e+00	0	25	0	1027604480	72	5050
2026-01-08 01:52:27.13	245.09	28.42	-53.6	-56.1	13.9	0.00e+00	0	25	0	1029701632	72	5097
2026-01-08 01:52:28.13	244.95	28.26	-53.2	-55.5	14.2	0.00e+00	0	25	0	1031798784	72	4752
2026-01-08 01:52:29.13	244.82	28.10	-52.8	-55.0	14.5	0.00e+00	0	25	0	1033895936	72	4476
2026-01-08 01:52:30.13	244.69	27.93	-52.0	-53.9	14.7	0.00e+00	0	25	0	1034944512	70	4439
2026-01-08 01:52:31.13	244.56	27.77	-51.9	-53.7	14.8	0.00e+00	0	25	0	1037041664	70	4335
2026-01-08 01:52:32.12	244.43	27.61	-51.9	-53.8	14.8	0.00e+00	0	25	0	1039138816	70	4342
2026-01-08 01:52:33.12	244.30	27.45	-51.6	-53.4	14.8	0.00e+00	0	25	0	1041235968	69	4438
2026-01-08 01:52:34.11	244.18	27.29	-51.8	-53.7	14.6	0.00e+00	0	25	0	1042284544	69	4596
2026-01-08 01:52:35.11	244.05	27.13	-51.9	-53.8	14.6	0.00e+00	0	25	0	1044381696	69	4651
2026-01-08 01:52:36.11	243.93	26.98	-52.0	-54.0	14.5	0.00e+00	0	25	0	1046478848	69	4710
2026-01-08 01:52:37.11	243.80	26.82	-51.8	-53.8	14.6	0.00e+00	0	25	0	1048576000	69	4612
2026-01-08 01:52:38.11	243.68	26.66	-52.0	-54.0	14.5	0.00e+00	0	25	0	1050673152	69	4759
2026-01-08 01:52:39.10	243.56	26.51	-52.0	-54.0	14.5	0.00e+00	0	25	0	1051721728	69	4725
2026-01-08 01:52:40.09	243.45	26.36	-52.0	-54.0	14.5	0.00e+00	0	25	0	1053818880	69	4716
2026-01-08 01:52:41.08	243.33	26.20	-52.3	-54.2	14.4	0.00e+00	0	25	0	1055916032	69	4829
2026-01-08 01:52:42.08	243.21	26.05	-52.7	-54.6	14.4	0.00e+00	0	25	0	1058013184	70	4803
2026-01-08 01:52:43.07	243.10	25.90	-52.9	-54.9	14.2	0.00e+00	0	25	0	1059061760	70	4954
2026-01-08 01:52:44.07	242.98	25.75	-52.9	-55.0	14.4	0.00e+00	0	25	0	1061158912	71	4724
2026-01-08 01:52:45.06	242.87	25.60	-53.0	-55.0	14.3	0.00e+00	0	25	0	1063256064	71	4753
2026-01-08 01:52:46.06	242.76	25.45	-52.8	-54.8	14.4	0.00e+00	0	25	0	1065353216	71	4631
2026-01-08 01:52:47.05	242.65	25.30	-52.5	-54.3	14.6	0.00e+00	0	25	0	1067450368	71	4380
2026-01-08 01:52:48.05	242.54	25.15	-52.1	-53.8	14.7	0.00e+00	0	25	0	1068498944	70	4380
2026-01-08 01:52:49.05	242.43	25.00	-51.8	-53.5	14.9	0.00e+00	0	25	0	1070596096	70	4214
2026-01-08 01:52:50.04	242.32	24.85	-51.6	-53.3	14.9	0.00e+00	0	25	0	1072693248	69	4359
2026-01-08 01:52:51.04	242.22	24.71	-51.7	-53.4	14.8	0.00e+00	0	25	0	1074790400	69	4433
2026-01-08 01:52:52.04	242.11	24.56	-51.7	-53.4	14.8	0.00e+00	0	25	0	1075838976	69	4441
2026-01-08 01:52:53.04	242.00	24.42	-52.0	-53.8	14.6	0.00e+00	0	25	0	1077936128	69	4646
2026-01-08 01:52:54.03	241.90	24.27	-52.2	-54.1	14.5	0.00e+00	0	25	0	1080033280	69	4765
2026-01-08 01:52:55.03	241.80	24.13	-52.2	-54.1	14.5	0.00e+00	0	25	0	1082130432	69	4771
2026-01-08 01:52:56.04	241.70	23.98	-52.2	-54.0	14.5	0.00e+00	0	25	0	1084227584	69	4753
2026-01-08 01:52:57.03	241.60	23.84	-52.3	-54.1	14.5	0.00e+00	0	25	0	1085276160	69	4806
2026-01-08 01:52:58.03	241.50	23.70	-52.0	-53.8	14.6	0.00e+00	0	25	0	1087373312	69	4611
2026-01-08 01:52:59.03	241.40	23.56	-52.0	-53.8	14.6	0.00e+00	0	25	0	1089470464	69	4615
2026-01-08 01:53:00.04	241.30	23.42	-52.1	-54.0	14.5	0.00e+00	0	25	0	1091567616	69	4713
2026-01-08 01:53:01.03	241.20	23.28	-52.3	-54.1	14.5	0.00e+00	0	25	0	1093664768	69	4802
2026-01-08 01:53:02.03	241.10	23.14	-52.5	-54.4	14.5	0.00e+00	0	25	0	1094713344	70	4672
2026-01-08 01:53:03.03	241.01	23.00	-52.7	-54.7	14.3	0.00e+00	0	25	0	1096810496	70	4866
2026-01-08 01:53:04.03	240.91	22.86	-53.2	-55.3	14.1	0.00e+00	0	25	0	1098907648	71	4924
2026-01-08 01:53:05.04	240.82	22.72	-53.5	-55.8	14.1	0.00e+00	0	25	0	1101004800	72	4883
2026-01-08 01:53:06.04	240.73	22.58	-53.6	-55.9	14.0	0.00e+00	0	25	0	1103101952	72	4932
2026-01-08 01:53:07.03	240.63	22.45	-53.7	-56.1	13.9	0.00e+00	0	25	0	1104150528	72	5047
2026-01-08 01:53:08.03	240.54	22.31	-53.6	-55.9	13.8	0.00e+00	0	25	0	1106247680	72	4939
2026-01-08 01:53:09.03	240.45	22.18	-53.3	-55.5	14.1	0.00e+00	0	25	0	1108344832	72	4739
2026-01-08 01:53:10.03	240.36	22.04	-53.0	-55.1	14.4	0.00e+00	0	25	0	1110441984	72	4504
2026-01-08 01:53:11.03	240.27	21.91	-52.9	-54.9	14.5	0.00e+00	0	25	0	1111490560	72	4395
2026-01-08 01:53:12.03	240.19	21.78	-52.8	-54.8	14.6	0.00e+00	0	25	0	1113587712	72	4346
2026-01-08 01:53:13.03	240.10	21.65	-52.9	-54.9	14.5	0.00e+00	0	25	0	1115684864	72	4413
2026-01-08 01:53:14.03	240.01	21.51	-52.8	-54.8	14.5	0.00e+00	0	25	0	1117782016	72	4379
2026-01-08 01:53:15.02	239.93	21.38	-53.1	-55.1	14.4	0.00e+00	0	25	0	1119879168	72	4536
2026-01-08 01:53:16.02	239.84	21.25	-53.1	-55.2	14.4	0.00e+00	0	25	0	1120927744	72	4558
2026-01-08 01:53:17.03	239.76	21.12	-53.4	-55.7	14.1	0.00e+00	0	25	0	1123024896	72	4822
2026-01-08 01:53:18.02	239.67	20.99	-53.6	-55.9	14.0	0.00e+00	0	25	0	1125122048	72	4930
2026-01-08 01:53:19.02	239.59	20.87	-53.6	-55.9	13.9	0.00e+00	0	25	0	1127219200	72	4953
2026-01-08 01:53:20.03	239.51	20.74	-53.4	-55.6	14.1	0.00e+00	0	25	0	1129316352	72	4772
2026-01-08 01:53:21.02	239.43	20.61	-53.2	-55.4	14.2	0.00e+00	0	25	0	1130364928	72	4676
2026-01-08 01:53:22.03	239.34	20.48	-53.1	-55.1	14.3	0.00e+00	0	25	0	1132462080	72	4534
2026-01-08 01:53:23.03	239.26	20.35	-52.7	-54.6	14.6	0.00e+00	0	25	0	1134559232	72	4279
2026-01-08 01:53:24.03	239.19	20.23	-52.3	-54.2	14.7	0.00e+00	0	25	0	1136656384	71	4314
2026-01-08 01:53:25.03	239.11	20.10	-51.9	-53.6	14.8	0.00e+00	0	25	0	1137704960	70	4276
2026-01-08 01:53:26.03	239.03	19.98	-51.6	-53.3	14.8	0.00e+00	0	25	0	1139802112	69	4380
2026-01-08 01:53:27.03	238.95	19.85	-51.4	-53.1	14.9	0.00e+00	0	25	0	1141899264	69	4253
2026-01-08 01:53:28.03	238.87	19.73	-51.3	-52.9	15.0	0.00e+00	0	25	0	1143996416	69	4178
2026-01-08 01:53:29.02	238.80	19.61	-51.2	-52.8	15.0	0.00e+00	0	25	0	1146093568	69	4125
2026-01-08 01:53:30.02	238.72	19.49	-51.3	-52.9	15.0	0.00e+00	0	25	0	1147142144	69	4190
2026-01-08 01:53:31.01	238.65	19.37	-51.4	-53.0	14.9	0.00e+00	0	25	0	1149239296	69	4242
2026-01-08 01:53:32.00	238.58	19.25	-51.4	-53.1	14.9	0.00e+00	0	25	0	1151336448	69	4253
2026-01-08 01:53:32.99	238.50	19.13	-51.7	-53.5	14.8	0.00e+00	0	25	0	1153433600	69	4452
2026-01-08 01:53:33.99	238.43	19.01	-51.8	-53.6	14.7	0.00e+00	0	25	0	1154482176	69	4531
2026-01-08 01:53:34.99	238.36	18.89	-51.9	-53.7	14.6	0.00e+00	0	25	0	1156579328	69	4556
2026-01-08 01:53:35.98	238.29	18.77	-52.2	-54.0	14.4	0.00e+00	0	25	0	1158676480	69	4753
2026-01-08 01:53:36.98	238.21	18.65	-52.5	-54.5	14.4	0.00e+00	0	25	0	1160773632	70	4731
2026-01-08 01:53:37.98	238.14	18.53	-52.7	-54.7	14.2	0.00e+00	0	25	0	1162870784	70	4859
2026-01-08 01:53:38.98	238.07	18.41	-52.6	-54.6	14.3	0.00e+00	0	25	0	1163919360	70	4814
2026-01-08 01:53:39.98	238.00	18.30	-53.0	-55.1	14.2	0.00e+00	0	25	0	1166016512	71	4783
2026-01-08 01:53:40.98	237.93	18.18	-52.8	-54.8	14.3	0.00e+00	0	25	0	1168113664	71	4624
2026-01-08 01:53:41.98	237.87	18.06	-53.0	-55.1	14.2	0.00e+00	0	25	0	1170210816	71	4783
2026-01-08 01:53:42.97	237.80	17.95	-53.2	-55.4	14.1	0.00e+00	0	25	0	1171259392	71	4933
2026-01-08 01:53:43.97	237.73	17.83	-52.9	-55.0	14.2	0.00e+00	0	25	0	1173356544	71	4731
2026-01-08 01:53:44.96	237.67	17.72	-53.2	-55.4	14.0	0.00e+00	0	25	0	1175453696	71	4958
2026-01-08 01:53:45.96	237.60	17.60	-53.2	-55.5	14.0	0.00e+00	0	25	0	1177550848	71	4988
2026-01-08 01:53:46.95	237.53	17.49	-53.0	-55.2	14.1	0.00e+00	0	25	0	1179648000	71	4842
2026-01-08 01:53:47.95	237.47	17.38	-53.2	-55.4	14.1	0.00e+00	0	25	0	1180696576	71	4927
2026-01-08 01:53:48.95	237.40	17.27	-53.3	-55.6	13.9	0.00e+00	0	25	0	1182793728	71	5079
2026-01-08 01:53:49.94	237.34	17.16	-53.1	-55.3	14.1	0.00e+00	0	25	0	1184890880	71	4893
2026-01-08 01:53:50.94	237.28	17.04	-53.1	-55.3	14.1	0.00e+00	0	25	0	1186988032	71	4877
2026-01-08 01:53:51.94	237.21	16.93	-53.2	-55.4	14.2	0.00e+00	0	25	0	1189085184	72	4701
2026-01-08 01:53:52.94	237.15	16.82	-53.1	-55.2	14.3	0.00e+00	0	25	0	1190133760	72	4588
2026-01-08 01:53:53.94	237.09	16.71	-53.2	-55.4	14.2	0.00e+00	0	25	0	1192230912	72	4653
2026-01-08 01:53:54.93	237.03	16.60	-53.4	-55.6	14.0	0.00e+00	0	25	0	1194328064	72	4810
2026-01-08 01:53:55.93	236.96	16.49	-53.2	-55.4	14.2	0.00e+00	0	25	0	1196425216	72	4690
2026-01-08 01:53:56.93	236.90	16.38	-53.2	-55.5	14.1	0.00e+00	0	25	0	1198522368	72	4725
2026-01-08 01:53:57.92	236.84	16.28	-53.3	-55.5	14.1	0.00e+00	0	25	0	1199570944	72	4740
2026-01-08 01:53:58.92	236.78	16.17	-53.1	-55.3	14.2	0.00e+00	0	25	0	1201668096	72	4633
2026-01-08 01:53:59.92	236.72	16.06	-53.1	-55.3	14.2	0.00e+00	0	25	0	1203765248	72	4615
2026-01-08 01:54:00.91	236.67	15.95	-53.2	-55.4	14.2	0.00e+00	0	25	0	1205862400	72	4684
2026-01-08 01:54:01.92	236.61	15.85	-53.1	-55.3	14.2	0.00e+00	0	25	0	1206910976	72	4651
2026-01-08 01:54:02.91	236.55	15.74	-52.9	-55.0	14.4	0.00e+00	0	25	0	1209008128	72	4472
2026-01-08 01:54:03.91	236.49	15.63	-53.1	-55.3	14.2	0.00e+00	0	25	0	1211105280	72	4613
2026-01-08 01:54:04.91	236.43	15.53	-52.9	-55.1	14.3	0.00e+00	0	25	0	1213202432	72	4495
2026-01-08 01:54:05.91	236.38	15.42	-53.2	-55.4	14.2	0.00e+00	0	25	0	1215299584	72	4666
2026-01-08 01:54:06.91	236.32	15.32	-53.1	-55.2	14.3	0.00e+00	0	25	0	1216348160	72	4587
2026-01-08 01:54:07.91	236.26	15.21	-53.1	-55.2	14.2	0.00e+00	0	25	0	1218445312	72	4594
2026-01-08 01:54:08.91	236.21	15.11	-53.1	-55.3	14.2	0.00e+00	0	25	0	1220542464	72	4647
2026-01-08 01:54:09.91	236.15	15.01	-53.2	-55.5	14.1	0.00e+00	0	25	0	1222639616	72	4713
2026-01-08 01:54:10.91	236.10	14.90	-53.1	-55.3	14.2	0.00e+00	0	25	0	1223688192	72	4611
