passes_logs/2026/01/08/R3.2S_Murmansk/R3.2S_Murmansk__20260108_114122_SUOMI_NPP_rec.log

#Pass ID: 20260108_114122_SUOMI NPP
#Satellite: SUOMI NPP
#Configuration: NPP
#almurnet v.1.7.20251203
#Start time: 2026-01-08 11:41:23

#Version: 2.2.20231116
#Station: R3.2S_Murmansk
#Location: 33.079688 lon 68.888172 lat
#TLE: 1 37849U 11061A   26005.94084933  .00000134  00000+0  84554-4 0  9990
#TLE: 2 37849  98.7803 308.0679 0002567  79.1029 281.0436 14.19522657735426

#Time	Az	El	Level	Level2	SNR	BER	BlckErr	Temp	State	Recorded	gain1	gain2
2026-01-08 11:41:23.66	204.35	2.09	-57.8	-73.7	3.8	1.49e+00	0	22	0	0	82	21736
2026-01-08 11:41:24.64	204.41	2.14	-57.7	-73.7	3.8	1.49e+00	0	23	104	0	80	24168
2026-01-08 11:41:25.60	204.47	2.20	-57.7	-73.7	3.8	1.49e+00	0	22	104	0	80	24262
2026-01-08 11:41:26.57	204.53	2.26	-57.7	-73.7	3.8	1.49e+00	0	22	104	0	80	24195
2026-01-08 11:41:27.54	204.59	2.31	-57.7	-73.7	3.8	1.49e+00	0	23	104	0	80	24138
2026-01-08 11:41:28.51	204.66	2.37	-57.7	-73.7	3.8	1.49e+00	0	23	104	0	80	24194
2026-01-08 11:41:29.48	204.72	2.42	-57.7	-73.6	3.8	1.49e+00	0	23	104	0	80	24128
2026-01-08 11:41:30.44	204.78	2.48	-57.7	-73.6	3.8	1.49e+00	0	23	104	0	80	24121
2026-01-08 11:41:31.41	204.84	2.54	-57.7	-73.6	3.8	1.49e+00	0	23	104	0	80	24061
2026-01-08 11:41:32.38	204.90	2.59	-57.7	-73.6	3.8	1.49e+00	0	23	104	0	80	24106
2026-01-08 11:41:33.34	204.97	2.65	-57.7	-73.7	3.8	1.49e+00	0	23	104	0	80	24141
2026-01-08 11:41:34.31	205.03	2.70	-57.7	-73.7	3.8	1.49e+00	0	23	104	0	80	24160
2026-01-08 11:41:35.28	205.09	2.76	-57.7	-73.7	3.8	1.49e+00	0	23	104	0	80	24165
2026-01-08 11:41:36.25	205.16	2.82	-57.7	-73.7	3.8	1.49e+00	0	23	104	0	80	24285
2026-01-08 11:41:37.21	205.22	2.87	-57.7	-73.7	3.8	1.49e+00	0	23	104	0	80	24189
2026-01-08 11:41:38.18	205.28	2.93	-57.7	-73.7	3.8	1.49e+00	0	23	104	0	80	24180
2026-01-08 11:41:39.14	205.35	2.99	-57.7	-73.7	3.8	1.49e+00	0	23	104	0	80	24176
2026-01-08 11:41:40.11	205.41	3.05	-57.7	-73.7	3.8	1.49e+00	0	23	104	0	80	24219
2026-01-08 11:41:41.08	205.47	3.10	-57.7	-73.7	3.8	1.49e+00	0	23	104	0	80	24145
2026-01-08 11:41:42.05	205.54	3.16	-57.7	-73.7	3.8	1.49e+00	0	23	104	0	80	24157
2026-01-08 11:41:43.01	205.60	3.22	-57.7	-73.6	3.8	1.49e+00	0	23	104	0	80	24088
2026-01-08 11:41:43.98	205.67	3.27	-57.7	-73.6	3.8	1.49e+00	0	23	104	0	80	24002
2026-01-08 11:41:44.95	205.73	3.33	-57.7	-73.6	3.8	1.49e+00	0	23	104	0	80	23950
2026-01-08 11:41:45.93	205.80	3.39	-57.7	-73.5	3.8	1.49e+00	0	23	104	0	80	23716
2026-01-08 11:41:46.89	205.87	3.45	-57.7	-73.5	3.8	1.49e+00	0	23	104	0	80	23664
2026-01-08 11:41:47.86	205.93	3.51	-57.7	-73.4	3.8	1.49e+00	0	23	104	0	80	23516
2026-01-08 11:41:48.83	206.00	3.56	-57.7	-73.4	3.8	1.49e+00	0	23	104	0	80	23560
2026-01-08 11:41:49.80	206.07	3.62	-57.7	-73.5	3.8	1.49e+00	0	23	104	0	80	23595
2026-01-08 11:41:50.77	206.13	3.68	-57.7	-73.4	3.8	1.49e+00	0	23	104	0	80	23526
2026-01-08 11:41:51.74	206.20	3.74	-57.7	-73.3	3.8	1.49e+00	0	23	104	0	80	23239
2026-01-08 11:41:52.70	206.27	3.80	-57.7	-73.3	3.8	1.49e+00	0	23	104	0	80	23111
2026-01-08 11:41:53.67	206.33	3.85	-57.7	-73.2	3.8	1.49e+00	0	23	104	0	80	22949
2026-01-08 11:41:54.64	206.40	3.91	-57.7	-73.3	3.8	1.49e+00	0	23	104	0	80	23092
2026-01-08 11:41:55.61	206.47	3.97	-57.7	-73.4	3.8	1.49e+00	0	23	104	0	80	23433
2026-01-08 11:41:56.58	206.54	4.03	-57.7	-73.5	3.8	1.49e+00	0	24	104	0	80	23741
2026-01-08 11:41:57.54	206.61	4.09	-57.7	-73.6	3.8	1.49e+00	0	23	104	0	80	24068
2026-01-08 11:41:58.51	206.68	4.15	-57.7	-73.6	3.8	1.49e+00	0	23	104	0	80	24075
2026-01-08 11:41:59.48	206.75	4.21	-57.7	-73.5	3.8	1.49e+00	0	23	104	0	80	23615
2026-01-08 11:42:00.45	206.82	4.26	-57.7	-72.9	3.8	1.49e+00	0	24	104	0	80	22161
2026-01-08 11:42:01.41	206.88	4.32	-57.6	-72.3	3.8	1.49e+00	0	24	104	0	80	20746
2026-01-08 11:42:02.38	206.95	4.38	-57.6	-71.8	3.8	1.49e+00	0	24	104	0	80	19568
2026-01-08 11:42:03.35	207.03	4.44	-57.6	-71.1	3.8	1.49e+00	0	24	104	0	80	17925
2026-01-08 11:42:04.32	207.10	4.50	-57.6	-71.1	4.0	1.49e+00	0	24	104	0	80	17907
2026-01-08 11:42:05.29	207.17	4.56	-57.6	-71.1	3.9	1.48e+00	0	24	104	0	80	17961
2026-01-08 11:42:06.25	207.24	4.62	-57.6	-70.6	4.1	1.44e+00	0	24	0	0	80	16942
2026-01-08 11:42:07.22	207.31	4.68	-57.6	-70.8	3.9	1.46e+00	0	24	104	0	80	17438
2026-01-08 11:42:08.19	207.38	4.74	-57.6	-70.2	4.2	1.44e+00	0	24	0	0	80	16192
2026-01-08 11:42:09.15	207.45	4.80	-57.5	-69.4	4.4	1.35e+00	48	24	0	0	80	14771
2026-01-08 11:42:10.12	207.52	4.86	-57.4	-68.1	4.9	1.02e+00	0	24	0	2097152	80	12748
2026-01-08 11:42:11.09	207.60	4.92	-57.3	-67.0	5.6	4.55e-01	0	24	0	3145728	80	11216
2026-01-08 11:42:12.06	207.67	4.98	-57.1	-65.8	6.3	2.76e-01	0	24	0	5242880	80	9830
2026-01-08 11:42:13.03	207.74	5.04	-57.0	-65.0	7.0	1.33e-01	0	24	0	7340032	80	8864
2026-01-08 11:42:13.99	207.82	5.10	-57.7	-70.6	4.1	4.43e-01	0	24	0	8388608	80	17052
2026-01-08 11:42:14.96	207.89	5.16	-57.6	-69.9	4.3	1.38e+00	0	24	0	8388608	80	15606
2026-01-08 11:42:15.93	207.96	5.22	-56.8	-64.1	7.8	8.64e-02	0	24	0	10485760	80	8065
2026-01-08 11:42:16.89	208.04	5.28	-57.6	-72.6	3.8	1.05e+00	0	24	104	11534336	80	21456
2026-01-08 11:42:17.86	208.11	5.34	-54.0	-57.0	12.9	1.44e+00	0	24	104	11534336	74	4984
2026-01-08 11:42:18.82	208.19	5.40	-53.9	-56.8	13.3	0.00e+00	0	24	0	12582912	74	4889
2026-01-08 11:42:19.79	208.26	5.46	-53.7	-56.5	13.5	0.00e+00	0	24	0	14680064	74	4722
2026-01-08 11:42:20.76	208.34	5.53	-53.6	-56.4	13.5	0.00e+00	0	24	0	16777216	73	4933
2026-01-08 11:42:21.73	208.41	5.59	-53.6	-56.3	13.5	0.00e+00	0	24	0	17825792	73	4917
2026-01-08 11:42:22.70	208.49	5.65	-53.5	-56.2	13.6	0.00e+00	0	24	0	19922944	73	4842
2026-01-08 11:42:23.66	208.56	5.71	-53.5	-56.2	13.6	0.00e+00	0	24	0	22020096	73	4860
2026-01-08 11:42:24.63	208.64	5.77	-53.5	-56.2	13.6	0.00e+00	0	24	0	24117248	73	4826
2026-01-08 11:42:25.60	208.72	5.83	-53.4	-56.1	13.7	0.00e+00	0	24	0	25165824	73	4801
2026-01-08 11:42:26.56	208.79	5.89	-53.2	-55.8	13.9	0.00e+00	0	24	0	27262976	73	4609
2026-01-08 11:42:27.53	208.87	5.96	-53.3	-55.9	13.8	0.00e+00	0	24	0	29360128	73	4700
2026-01-08 11:42:28.51	208.95	6.02	-53.4	-56.0	13.8	0.00e+00	0	24	0	31457280	73	4709
2026-01-08 11:42:29.47	209.03	6.08	-53.3	-55.9	13.8	0.00e+00	0	24	0	32505856	73	4683
2026-01-08 11:42:30.44	209.11	6.14	-53.3	-55.9	13.8	0.00e+00	0	24	0	34603008	73	4691
2026-01-08 11:42:31.40	209.18	6.20	-53.3	-55.9	13.8	0.00e+00	0	24	0	36700160	73	4686
2026-01-08 11:42:32.37	209.26	6.27	-53.1	-55.6	13.9	0.00e+00	0	24	0	37748736	72	4763
2026-01-08 11:42:33.34	209.34	6.33	-53.2	-55.7	13.8	0.00e+00	0	24	0	39845888	72	4840
2026-01-08 11:42:34.30	209.42	6.39	-53.0	-55.5	13.9	0.00e+00	0	24	0	41943040	72	4720
2026-01-08 11:42:35.27	209.50	6.45	-53.0	-55.5	13.9	0.00e+00	0	24	0	44040192	72	4710
2026-01-08 11:42:36.23	209.58	6.52	-52.9	-55.3	14.0	0.00e+00	0	24	0	45088768	72	4642
2026-01-08 11:42:37.20	209.66	6.58	-53.0	-55.3	14.0	0.00e+00	0	24	0	47185920	72	4651
2026-01-08 11:42:38.17	209.74	6.64	-53.0	-55.3	14.0	0.00e+00	0	24	0	49283072	72	4638
2026-01-08 11:42:39.14	209.83	6.70	-52.9	-55.3	14.0	0.00e+00	0	24	0	50331648	72	4609
2026-01-08 11:42:40.11	209.91	6.77	-53.0	-55.3	14.0	0.00e+00	0	24	0	52428800	72	4644
2026-01-08 11:42:41.08	209.99	6.83	-52.9	-55.3	14.0	0.00e+00	0	24	0	54525952	72	4629
2026-01-08 11:42:42.04	210.07	6.89	-52.8	-55.0	14.2	0.00e+00	0	24	0	56623104	72	4489
2026-01-08 11:42:43.01	210.15	6.96	-52.8	-55.1	14.2	0.00e+00	0	24	0	57671680	72	4509
2026-01-08 11:42:43.97	210.24	7.02	-52.7	-54.9	14.1	0.00e+00	0	24	0	59768832	71	4690
2026-01-08 11:42:44.94	210.32	7.09	-52.7	-55.0	14.1	0.00e+00	0	24	0	61865984	71	4718
2026-01-08 11:42:45.91	210.40	7.15	-52.6	-54.9	14.1	0.00e+00	0	24	0	63963136	71	4673
2026-01-08 11:42:46.88	210.49	7.21	-52.6	-54.9	14.1	0.00e+00	0	24	0	65011712	71	4668
2026-01-08 11:42:47.84	210.57	7.28	-52.7	-55.0	14.1	0.00e+00	0	24	0	67108864	71	4726
2026-01-08 11:42:48.81	210.66	7.34	-52.6	-54.7	14.2	0.00e+00	0	24	0	69206016	71	4589
2026-01-08 11:42:49.78	210.74	7.41	-52.5	-54.7	14.3	0.00e+00	0	24	0	71303168	71	4572
2026-01-08 11:42:50.75	210.83	7.47	-52.6	-54.9	14.2	0.00e+00	0	24	0	72351744	71	4660
2026-01-08 11:42:51.72	210.91	7.53	-52.6	-54.7	14.3	0.00e+00	0	24	0	74448896	71	4597
2026-01-08 11:42:52.68	211.00	7.60	-52.6	-54.8	14.2	0.00e+00	0	24	0	76546048	71	4625
2026-01-08 11:42:53.65	211.09	7.66	-52.7	-54.9	14.2	0.00e+00	0	24	0	77594624	71	4684
2026-01-08 11:42:54.61	211.17	7.73	-52.7	-55.0	14.1	0.00e+00	0	24	0	79691776	71	4728
2026-01-08 11:42:55.58	211.26	7.79	-52.6	-54.8	14.2	0.00e+00	0	24	0	81788928	71	4610
2026-01-08 11:42:56.55	211.35	7.86	-52.6	-54.8	14.2	0.00e+00	0	24	0	83886080	71	4625
2026-01-08 11:42:57.52	211.44	7.92	-52.6	-54.8	14.2	0.00e+00	0	24	0	84934656	71	4639
2026-01-08 11:42:58.48	211.52	7.99	-52.5	-54.7	14.2	0.00e+00	0	24	0	87031808	71	4585
2026-01-08 11:42:59.45	211.61	8.05	-52.7	-54.9	14.1	0.00e+00	0	24	0	89128960	71	4686
2026-01-08 11:43:00.42	211.70	8.12	-52.8	-55.1	14.1	0.00e+00	0	24	0	91226112	71	4788
2026-01-08 11:43:01.39	211.79	8.18	-52.8	-55.1	14.1	0.00e+00	0	24	0	92274688	71	4768
2026-01-08 11:43:02.36	211.88	8.25	-52.6	-54.8	14.2	0.00e+00	0	24	0	94371840	71	4635
2026-01-08 11:43:03.33	211.97	8.32	-52.6	-54.9	14.2	0.00e+00	0	24	0	96468992	71	4658
2026-01-08 11:43:04.29	212.06	8.38	-52.8	-55.1	14.1	0.00e+00	0	24	0	97517568	71	4769
2026-01-08 11:43:05.25	212.15	8.45	-52.7	-55.0	14.2	0.00e+00	0	24	0	99614720	71	4706
2026-01-08 11:43:06.22	212.25	8.51	-52.7	-54.9	14.2	0.00e+00	0	24	0	101711872	71	4670
2026-01-08 11:43:07.19	212.34	8.58	-52.7	-54.9	14.2	0.00e+00	0	24	0	103809024	71	4692
2026-01-08 11:43:08.16	212.43	8.65	-52.6	-54.9	14.2	0.00e+00	0	24	0	104857600	71	4660
2026-01-08 11:43:09.12	212.52	8.71	-52.6	-54.8	14.3	0.00e+00	0	24	0	106954752	71	4623
2026-01-08 11:43:10.09	212.62	8.78	-52.5	-54.6	14.4	0.00e+00	0	24	0	109051904	71	4510
2026-01-08 11:43:11.06	212.71	8.85	-52.5	-54.6	14.4	0.00e+00	0	24	0	111149056	71	4528
2026-01-08 11:43:12.02	212.80	8.91	-52.4	-54.5	14.4	0.00e+00	0	24	0	112197632	71	4461
2026-01-08 11:43:12.99	212.90	8.98	-52.5	-54.6	14.4	0.00e+00	0	24	0	114294784	71	4500
2026-01-08 11:43:13.96	212.99	9.05	-52.4	-54.5	14.4	0.00e+00	0	24	0	116391936	71	4453
2026-01-08 11:43:14.93	213.09	9.11	-52.1	-54.1	14.5	0.00e+00	0	24	0	117440512	70	4530
2026-01-08 11:43:15.89	213.18	9.18	-52.3	-54.3	14.4	0.00e+00	0	24	0	119537664	70	4645
2026-01-08 11:43:16.86	213.28	9.25	-52.2	-54.3	14.4	0.00e+00	0	24	0	121634816	70	4608
2026-01-08 11:43:17.83	213.38	9.32	-52.2	-54.2	14.4	0.00e+00	0	24	0	123731968	70	4563
2026-01-08 11:43:18.80	213.47	9.38	-52.2	-54.2	14.4	0.00e+00	0	24	0	124780544	70	4578
2026-01-08 11:43:19.76	213.57	9.45	-52.1	-54.1	14.5	0.00e+00	0	24	0	126877696	70	4530
2026-01-08 11:43:20.72	213.67	9.52	-52.1	-54.1	14.5	0.00e+00	0	24	0	128974848	70	4539
2026-01-08 11:43:21.69	213.76	9.59	-52.2	-54.3	14.4	0.00e+00	0	24	0	131072000	70	4614
2026-01-08 11:43:22.66	213.86	9.66	-52.3	-54.4	14.3	0.00e+00	0	24	0	132120576	70	4661
2026-01-08 11:43:23.63	213.96	9.72	-52.4	-54.5	14.3	0.00e+00	0	24	0	134217728	70	4708
2026-01-08 11:43:24.60	214.06	9.79	-52.4	-54.5	14.3	0.00e+00	0	24	0	136314880	70	4717
2026-01-08 11:43:25.56	214.16	9.86	-52.5	-54.7	14.2	0.00e+00	0	24	0	138412032	70	4855
2026-01-08 11:43:26.53	214.26	9.93	-52.4	-54.4	14.3	0.00e+00	0	24	0	139460608	70	4701
2026-01-08 11:43:27.50	214.36	10.00	-52.4	-54.6	14.3	0.00e+00	0	24	0	141557760	70	4760
2026-01-08 11:43:28.47	214.47	10.07	-52.6	-54.7	14.2	0.00e+00	0	24	0	143654912	70	4849
2026-01-08 11:43:29.43	214.57	10.13	-52.5	-54.6	14.2	0.00e+00	0	24	0	144703488	70	4775
2026-01-08 11:43:30.40	214.67	10.20	-52.4	-54.5	14.3	0.00e+00	0	24	0	146800640	70	4735
2026-01-08 11:43:31.36	214.77	10.27	-52.4	-54.5	14.3	0.00e+00	0	24	0	148897792	70	4744
2026-01-08 11:43:32.33	214.87	10.34	-52.4	-54.4	14.3	0.00e+00	0	24	0	150994944	70	4705
2026-01-08 11:43:33.30	214.98	10.41	-52.3	-54.4	14.3	0.00e+00	0	24	0	152043520	70	4683
2026-01-08 11:43:34.27	215.08	10.48	-52.3	-54.4	14.4	0.00e+00	0	24	0	154140672	70	4653
2026-01-08 11:43:35.23	215.19	10.55	-52.3	-54.3	14.4	0.00e+00	0	24	0	156237824	70	4651
2026-01-08 11:43:36.20	215.29	10.62	-52.1	-54.0	14.6	0.00e+00	0	24	0	157286400	70	4473
2026-01-08 11:43:37.16	215.40	10.69	-52.0	-54.0	14.6	0.00e+00	0	24	0	159383552	70	4468
2026-01-08 11:43:38.13	215.50	10.76	-52.0	-53.9	14.6	0.00e+00	0	24	0	161480704	70	4417
2026-01-08 11:43:39.10	215.61	10.83	-51.9	-53.8	14.7	0.00e+00	0	24	0	163577856	70	4374
2026-01-08 11:43:40.06	215.72	10.90	-52.1	-54.0	14.6	0.00e+00	0	24	0	164626432	70	4456
2026-01-08 11:43:41.03	215.82	10.97	-52.0	-54.0	14.6	0.00e+00	0	24	0	166723584	70	4453
2026-01-08 11:43:42.00	215.93	11.04	-52.0	-53.9	14.6	0.00e+00	0	24	0	168820736	70	4435
2026-01-08 11:43:42.96	216.04	11.11	-51.9	-53.7	14.7	0.00e+00	0	24	0	170917888	70	4325
2026-01-08 11:43:43.93	216.15	11.18	-52.0	-53.9	14.6	0.00e+00	0	24	0	171966464	70	4398
2026-01-08 11:43:44.90	216.26	11.25	-52.0	-53.9	14.7	0.00e+00	0	24	0	174063616	70	4396
2026-01-08 11:43:45.87	216.37	11.32	-52.1	-54.1	14.5	0.00e+00	0	24	0	176160768	70	4503
2026-01-08 11:43:46.83	216.48	11.39	-52.3	-54.3	14.4	0.00e+00	0	24	0	178257920	70	4637
2026-01-08 11:43:47.80	216.59	11.46	-52.3	-54.3	14.4	0.00e+00	0	24	0	179306496	70	4606
2026-01-08 11:43:48.77	216.70	11.54	-52.4	-54.4	14.4	0.00e+00	0	25	0	181403648	70	4694
2026-01-08 11:43:49.74	216.81	11.61	-52.5	-54.7	14.2	0.00e+00	0	24	0	183500800	70	4821
2026-01-08 11:43:50.70	216.92	11.68	-52.4	-54.4	14.3	0.00e+00	0	24	0	185597952	70	4690
2026-01-08 11:43:51.67	217.04	11.75	-52.4	-54.5	14.3	0.00e+00	0	24	0	186646528	70	4730
2026-01-08 11:43:52.64	217.15	11.82	-52.4	-54.4	14.3	0.00e+00	0	24	0	188743680	70	4701
2026-01-08 11:43:53.61	217.27	11.89	-52.5	-54.5	14.3	0.00e+00	0	24	0	190840832	70	4759
2026-01-08 11:43:54.58	217.38	11.97	-52.6	-54.7	14.2	0.00e+00	0	24	0	191889408	70	4817
2026-01-08 11:43:55.54	217.50	12.04	-52.5	-54.6	14.3	0.00e+00	0	24	0	193986560	70	4768
2026-01-08 11:43:56.51	217.61	12.11	-52.5	-54.6	14.3	0.00e+00	0	24	0	196083712	70	4800
2026-01-08 11:43:57.48	217.73	12.18	-52.4	-54.4	14.3	0.00e+00	0	24	0	198180864	70	4700
2026-01-08 11:43:58.45	217.85	12.25	-52.4	-54.4	14.3	0.00e+00	0	24	0	199229440	70	4687
2026-01-08 11:43:59.41	217.96	12.33	-52.4	-54.4	14.4	0.00e+00	0	24	0	201326592	70	4698
2026-01-08 11:44:00.38	218.08	12.40	-52.1	-54.1	14.5	0.00e+00	0	24	0	203423744	70	4530
2026-01-08 11:44:01.35	218.20	12.47	-52.3	-54.3	14.4	0.00e+00	0	24	0	204472320	70	4621
2026-01-08 11:44:02.32	218.32	12.54	-52.4	-54.4	14.4	0.00e+00	0	24	0	206569472	70	4675
2026-01-08 11:44:03.28	218.44	12.62	-52.3	-54.4	14.4	0.00e+00	0	25	0	208666624	70	4663
2026-01-08 11:44:04.25	218.56	12.69	-52.4	-54.4	14.4	0.00e+00	0	24	0	210763776	70	4681
2026-01-08 11:44:05.22	218.68	12.76	-52.3	-54.3	14.4	0.00e+00	0	24	0	211812352	70	4646
2026-01-08 11:44:06.19	218.80	12.84	-52.3	-54.2	14.5	0.00e+00	0	24	0	213909504	70	4593
2026-01-08 11:44:07.16	218.92	12.91	-52.2	-54.2	14.5	0.00e+00	0	24	0	216006656	70	4574
2026-01-08 11:44:08.13	219.05	12.98	-52.3	-54.3	14.4	0.00e+00	0	24	0	218103808	70	4629
2026-01-08 11:44:09.10	219.17	13.06	-52.2	-54.1	14.5	0.00e+00	0	24	0	219152384	70	4528
2026-01-08 11:44:10.07	219.29	13.13	-52.2	-54.1	14.5	0.00e+00	0	24	0	221249536	70	4536
2026-01-08 11:44:11.03	219.42	13.20	-52.3	-54.3	14.4	0.00e+00	0	24	0	223346688	70	4612
2026-01-08 11:44:12.00	219.54	13.28	-52.1	-54.1	14.5	0.00e+00	0	25	0	225443840	70	4515
2026-01-08 11:44:12.97	219.67	13.35	-52.2	-54.2	14.5	0.00e+00	0	24	0	226492416	70	4573
2026-01-08 11:44:13.94	219.79	13.43	-52.2	-54.1	14.5	0.00e+00	0	24	0	228589568	70	4540
2026-01-08 11:44:14.91	219.92	13.50	-52.3	-54.3	14.4	0.00e+00	0	25	0	230686720	70	4603
2026-01-08 11:44:15.87	220.05	13.57	-52.1	-54.0	14.6	0.00e+00	0	24	0	231735296	70	4475
2026-01-08 11:44:16.85	220.18	13.65	-52.1	-54.0	14.6	0.00e+00	0	24	0	233832448	70	4491
2026-01-08 11:44:17.81	220.31	13.72	-52.1	-54.0	14.6	0.00e+00	0	25	0	235929600	70	4468
2026-01-08 11:44:18.78	220.44	13.80	-51.8	-53.6	14.7	0.00e+00	0	24	0	238026752	70	4291
2026-01-08 11:44:19.75	220.57	13.87	-51.8	-53.6	14.8	0.00e+00	0	24	0	239075328	70	4289
2026-01-08 11:44:20.71	220.69	13.95	-51.8	-53.6	14.8	0.00e+00	0	25	0	241172480	70	4269
2026-01-08 11:44:21.68	220.83	14.02	-51.7	-53.5	14.7	0.00e+00	0	24	0	243269632	69	4470
2026-01-08 11:44:22.64	220.96	14.10	-51.6	-53.4	14.7	0.00e+00	0	24	0	245366784	69	4440
2026-01-08 11:44:23.61	221.09	14.17	-51.7	-53.5	14.7	0.00e+00	0	24	0	246415360	69	4477
2026-01-08 11:44:24.58	221.22	14.25	-51.7	-53.5	14.7	0.00e+00	0	24	0	248512512	69	4485
2026-01-08 11:44:25.54	221.36	14.32	-51.7	-53.5	14.7	0.00e+00	0	24	0	250609664	69	4490
2026-01-08 11:44:26.51	221.49	14.40	-51.9	-53.8	14.5	0.00e+00	0	24	0	252706816	69	4646
2026-01-08 11:44:27.48	221.63	14.47	-52.0	-53.9	14.5	0.00e+00	0	24	0	253755392	69	4662
2026-01-08 11:44:28.45	221.76	14.55	-52.1	-54.0	14.5	0.00e+00	0	24	0	255852544	69	4742
2026-01-08 11:44:29.41	221.90	14.62	-52.2	-54.2	14.3	0.00e+00	0	24	0	257949696	69	4845
2026-01-08 11:44:30.37	222.03	14.70	-52.3	-54.3	14.3	0.00e+00	0	25	0	258998272	69	4877
2026-01-08 11:44:31.34	222.17	14.77	-52.2	-54.2	14.3	0.00e+00	0	24	0	261095424	69	4833
2026-01-08 11:44:32.31	222.31	14.85	-52.1	-54.1	14.4	0.00e+00	0	24	0	263192576	69	4769
2026-01-08 11:44:33.27	222.45	14.92	-52.3	-54.3	14.3	0.00e+00	0	25	0	265289728	69	4873
2026-01-08 11:44:34.24	222.59	15.00	-52.1	-54.1	14.4	0.00e+00	0	24	0	266338304	69	4760
2026-01-08 11:44:35.21	222.73	15.08	-52.1	-54.0	14.5	0.00e+00	0	24	0	268435456	69	4732
2026-01-08 11:44:36.17	222.87	15.15	-52.1	-54.0	14.5	0.00e+00	0	25	0	270532608	69	4740
2026-01-08 11:44:37.14	223.01	15.23	-52.0	-53.9	14.5	0.00e+00	0	24	0	271581184	69	4697
2026-01-08 11:44:38.11	223.15	15.30	-52.1	-54.1	14.4	0.00e+00	0	24	0	273678336	69	4787
2026-01-08 11:44:39.07	223.30	15.38	-52.0	-53.9	14.5	0.00e+00	0	24	0	275775488	69	4696
2026-01-08 11:44:40.04	223.44	15.46	-52.0	-53.9	14.5	0.00e+00	0	24	0	277872640	69	4683
2026-01-08 11:44:41.01	223.59	15.53	-52.0	-54.0	14.5	0.00e+00	0	24	0	278921216	69	4719
2026-01-08 11:44:41.98	223.73	15.61	-52.0	-53.9	14.5	0.00e+00	0	24	0	281018368	69	4660
2026-01-08 11:44:42.94	223.88	15.68	-51.9	-53.8	14.6	0.00e+00	0	25	0	283115520	69	4634
2026-01-08 11:44:43.91	224.02	15.76	-52.0	-53.8	14.5	0.00e+00	0	24	0	285212672	69	4649
2026-01-08 11:44:44.88	224.17	15.84	-51.8	-53.7	14.6	0.00e+00	0	24	0	286261248	69	4562
2026-01-08 11:44:45.84	224.32	15.91	-51.8	-53.7	14.6	0.00e+00	0	25	0	288358400	69	4574
2026-01-08 11:44:46.81	224.47	15.99	-51.7	-53.6	14.6	0.00e+00	0	25	0	290455552	69	4503
2026-01-08 11:44:47.77	224.62	16.07	-51.7	-53.5	14.7	0.00e+00	0	25	0	292552704	69	4449
2026-01-08 11:44:48.74	224.77	16.14	-51.5	-53.3	14.8	0.00e+00	0	25	0	293601280	69	4368
2026-01-08 11:44:49.71	224.92	16.22	-51.6	-53.4	14.8	0.00e+00	0	24	0	295698432	69	4417
2026-01-08 11:44:50.68	225.07	16.30	-51.5	-53.2	14.8	0.00e+00	0	24	0	297795584	69	4325
2026-01-08 11:44:51.65	225.22	16.38	-51.4	-53.1	14.9	0.00e+00	0	25	0	298844160	69	4263
2026-01-08 11:44:52.61	225.38	16.45	-51.3	-53.0	15.0	0.00e+00	0	24	0	300941312	69	4196
2026-01-08 11:44:53.58	225.53	16.53	-51.2	-52.9	15.0	0.00e+00	0	24	0	303038464	69	4169
2026-01-08 11:44:54.54	225.68	16.61	-51.2	-52.9	14.9	0.00e+00	0	24	0	305135616	68	4399
2026-01-08 11:44:55.51	225.84	16.68	-51.3	-53.0	14.8	0.00e+00	0	25	0	306184192	68	4455
2026-01-08 11:44:56.48	226.00	16.76	-51.0	-52.7	14.9	0.00e+00	0	25	0	308281344	68	4313
2026-01-08 11:44:57.44	226.15	16.84	-51.1	-52.8	14.9	0.00e+00	0	25	0	310378496	68	4345
2026-01-08 11:44:58.41	226.31	16.92	-51.1	-52.8	14.9	0.00e+00	0	24	0	312475648	68	4369
2026-01-08 11:44:59.38	226.47	16.99	-51.1	-52.8	14.9	0.00e+00	0	25	0	313524224	68	4367
2026-01-08 11:45:00.35	226.63	17.07	-51.1	-52.8	14.9	0.00e+00	0	24	0	315621376	68	4343
2026-01-08 11:45:01.32	226.79	17.15	-51.2	-52.8	14.9	0.00e+00	0	25	0	317718528	68	4388
2026-01-08 11:45:02.28	226.95	17.23	-51.3	-53.0	14.8	0.00e+00	0	25	0	318767104	68	4471
2026-01-08 11:45:03.25	227.12	17.30	-51.3	-53.0	14.8	0.00e+00	0	25	0	320864256	68	4469
2026-01-08 11:45:04.21	227.28	17.38	-51.4	-53.1	14.8	0.00e+00	0	25	0	322961408	68	4515
2026-01-08 11:45:05.18	227.44	17.46	-51.5	-53.3	14.7	0.00e+00	0	25	0	325058560	68	4614
2026-01-08 11:45:06.15	227.61	17.54	-51.4	-53.1	14.8	0.00e+00	0	25	0	326107136	68	4515
2026-01-08 11:45:07.11	227.77	17.61	-51.4	-53.1	14.7	0.00e+00	0	25	0	328204288	68	4539
2026-01-08 11:45:08.08	227.94	17.69	-51.5	-53.3	14.7	0.00e+00	0	25	0	330301440	68	4617
2026-01-08 11:45:09.04	228.10	17.77	-51.4	-53.1	14.8	0.00e+00	0	25	0	332398592	68	4504
2026-01-08 11:45:10.01	228.27	17.85	-51.2	-52.9	14.8	0.00e+00	0	24	0	333447168	68	4428
2026-01-08 11:45:10.98	228.44	17.93	-51.4	-53.1	14.8	0.00e+00	0	25	0	335544320	68	4505
2026-01-08 11:45:11.95	228.61	18.00	-51.2	-52.9	14.8	0.00e+00	0	24	0	337641472	68	4436
2026-01-08 11:45:12.92	228.78	18.08	-51.2	-52.8	14.9	0.00e+00	0	24	0	338690048	68	4390
2026-01-08 11:45:13.89	228.95	18.16	-51.1	-52.8	14.9	0.00e+00	0	25	0	340787200	68	4362
2026-01-08 11:45:14.86	229.13	18.24	-51.2	-52.8	14.9	0.00e+00	0	25	0	342884352	68	4390
2026-01-08 11:45:15.82	229.30	18.31	-50.9	-52.5	15.0	0.00e+00	0	25	0	344981504	68	4236
2026-01-08 11:45:16.79	229.47	18.39	-50.8	-52.4	15.0	0.00e+00	0	25	0	346030080	68	4190
2026-01-08 11:45:17.76	229.65	18.47	-50.8	-52.4	15.1	0.00e+00	0	24	0	348127232	68	4190
2026-01-08 11:45:18.72	229.82	18.55	-50.7	-52.3	15.1	0.00e+00	0	24	0	350224384	68	4141
2026-01-08 11:45:19.69	230.00	18.63	-50.8	-52.3	15.1	0.00e+00	0	25	0	352321536	68	4145
2026-01-08 11:45:20.66	230.18	18.70	-50.6	-52.2	15.0	0.00e+00	0	25	0	353370112	67	4295
2026-01-08 11:45:21.63	230.35	18.78	-50.4	-52.0	15.1	0.00e+00	0	24	0	355467264	67	4209
2026-01-08 11:45:22.60	230.53	18.86	-50.5	-52.1	15.0	0.00e+00	0	25	0	357564416	67	4269
2026-01-08 11:45:23.56	230.71	18.94	-50.3	-51.9	15.1	0.00e+00	0	24	0	359661568	67	4165
2026-01-08 11:45:24.53	230.89	19.01	-50.5	-52.1	15.0	0.00e+00	0	25	0	360710144	67	4280
2026-01-08 11:45:25.50	231.08	19.09	-50.7	-52.3	14.9	0.00e+00	0	24	0	362807296	67	4368
2026-01-08 11:45:26.46	231.26	19.17	-50.8	-52.5	14.9	0.00e+00	0	25	0	364904448	67	4463
2026-01-08 11:45:27.43	231.44	19.25	-50.8	-52.4	14.9	0.00e+00	0	25	0	365953024	67	4407
2026-01-08 11:45:28.39	231.62	19.32	-50.9	-52.6	14.8	0.00e+00	0	25	0	368050176	67	4495
2026-01-08 11:45:29.36	231.81	19.40	-50.7	-52.4	14.9	0.00e+00	0	25	0	370147328	67	4403
2026-01-08 11:45:30.33	232.00	19.48	-50.7	-52.3	15.0	0.00e+00	0	25	0	372244480	67	4378
2026-01-08 11:45:31.30	232.18	19.56	-50.7	-52.3	14.9	0.00e+00	0	25	0	373293056	67	4378
2026-01-08 11:45:32.27	232.37	19.63	-50.6	-52.1	15.0	0.00e+00	0	24	0	375390208	67	4288
2026-01-08 11:45:33.24	232.56	19.71	-50.7	-52.3	15.0	0.00e+00	0	24	0	377487360	67	4354
2026-01-08 11:45:34.20	232.75	19.79	-50.7	-52.3	15.0	0.00e+00	0	25	0	379584512	67	4377
2026-01-08 11:45:35.17	232.94	19.86	-50.7	-52.4	14.9	0.00e+00	0	25	0	380633088	67	4402
2026-01-08 11:45:36.14	233.13	19.94	-50.9	-52.6	14.8	0.00e+00	0	25	0	382730240	67	4505
2026-01-08 11:45:37.11	233.33	20.02	-51.1	-52.8	14.8	0.00e+00	0	24	0	384827392	67	4600
2026-01-08 11:45:38.08	233.52	20.09	-50.8	-52.4	14.9	0.00e+00	0	24	0	385875968	67	4420
2026-01-08 11:45:39.04	233.71	20.17	-50.8	-52.4	14.9	0.00e+00	0	25	0	387973120	67	4436
2026-01-08 11:45:40.01	233.91	20.25	-50.7	-52.3	14.9	0.00e+00	0	25	0	390070272	67	4361
2026-01-08 11:45:40.98	234.11	20.32	-50.8	-52.4	14.9	0.00e+00	0	25	0	392167424	67	4401
2026-01-08 11:45:41.96	234.31	20.40	-50.8	-52.4	14.9	0.00e+00	0	25	0	393216000	67	4439
2026-01-08 11:45:42.92	234.50	20.48	-50.8	-52.4	14.9	0.00e+00	0	25	0	395313152	67	4420
2026-01-08 11:45:43.89	234.70	20.55	-51.0	-52.6	14.8	0.00e+00	0	25	0	397410304	67	4540
2026-01-08 11:45:44.86	234.91	20.63	-51.0	-52.6	14.8	0.00e+00	0	25	0	399507456	67	4527
2026-01-08 11:45:45.83	235.11	20.71	-51.0	-52.7	14.8	0.00e+00	0	25	0	400556032	67	4577
2026-01-08 11:45:46.80	235.31	20.78	-50.9	-52.5	14.8	0.00e+00	0	25	0	402653184	67	4489
2026-01-08 11:45:47.77	235.51	20.86	-50.6	-52.2	15.0	0.00e+00	0	25	0	404750336	67	4333
2026-01-08 11:45:48.74	235.72	20.93	-50.5	-52.1	15.0	0.00e+00	0	25	0	406847488	67	4274
2026-01-08 11:45:49.71	235.92	21.01	-50.4	-51.9	15.1	0.00e+00	0	25	0	407896064	67	4167
2026-01-08 11:45:50.68	236.13	21.08	-50.4	-52.0	15.1	0.00e+00	0	25	0	409993216	67	4211
2026-01-08 11:45:51.64	236.34	21.16	-50.5	-52.0	15.1	0.00e+00	0	25	0	412090368	67	4229
2026-01-08 11:45:52.61	236.55	21.23	-50.5	-52.1	15.1	0.00e+00	0	25	0	413138944	67	4253
2026-01-08 11:45:53.57	236.75	21.31	-50.6	-52.2	15.0	0.00e+00	0	25	0	415236096	67	4313
2026-01-08 11:45:54.54	236.96	21.38	-50.7	-52.3	14.9	0.00e+00	0	25	0	417333248	67	4370
2026-01-08 11:45:55.51	237.18	21.46	-50.5	-52.1	15.1	0.00e+00	0	25	0	419430400	67	4247
2026-01-08 11:45:56.48	237.39	21.53	-50.6	-52.1	15.0	0.00e+00	0	25	0	420478976	67	4283
2026-01-08 11:45:57.44	237.60	21.61	-50.6	-52.2	15.0	0.00e+00	0	25	0	422576128	67	4325
2026-01-08 11:45:58.41	237.81	21.68	-50.3	-51.8	15.2	0.00e+00	0	25	0	424673280	67	4123
2026-01-08 11:45:59.37	238.03	21.75	-50.4	-51.9	15.2	0.00e+00	0	25	0	426770432	67	4175
2026-01-08 11:46:00.34	238.24	21.83	-50.4	-52.0	15.1	0.00e+00	0	25	0	427819008	67	4194
2026-01-08 11:46:01.30	238.46	21.90	-50.5	-52.1	15.1	0.00e+00	0	25	0	429916160	67	4249
2026-01-08 11:46:02.27	238.68	21.97	-50.6	-52.2	15.0	0.00e+00	0	25	0	432013312	67	4300
2026-01-08 11:46:03.24	238.90	22.05	-50.4	-51.9	15.1	0.00e+00	0	25	0	433061888	67	4176
2026-01-08 11:46:04.21	239.12	22.12	-50.6	-52.1	15.0	0.00e+00	0	25	0	435159040	67	4279
2026-01-08 11:46:05.17	239.34	22.19	-50.5	-52.1	15.0	0.00e+00	0	25	0	437256192	67	4266
2026-01-08 11:46:06.14	239.56	22.27	-50.6	-52.1	15.0	0.00e+00	0	25	0	439353344	67	4282
2026-01-08 11:46:07.11	239.78	22.34	-50.5	-52.0	15.1	0.00e+00	0	25	0	440401920	67	4223
2026-01-08 11:46:08.07	240.01	22.41	-50.4	-52.0	15.1	0.00e+00	0	24	0	442499072	67	4210
2026-01-08 11:46:09.04	240.23	22.48	-50.4	-51.9	15.1	0.00e+00	0	25	0	444596224	67	4182
2026-01-08 11:46:10.01	240.46	22.55	-50.4	-51.9	15.1	0.00e+00	0	25	0	446693376	67	4165
2026-01-08 11:46:10.97	240.68	22.62	-50.3	-51.8	15.2	0.00e+00	0	25	0	447741952	67	4129
2026-01-08 11:46:11.94	240.91	22.69	-49.6	-51.3	15.2	0.00e+00	0	25	0	449839104	66	4136
2026-01-08 11:46:12.91	241.14	22.76	-50.2	-51.7	15.0	0.00e+00	0	24	0	451936256	66	4319
2026-01-08 11:46:13.88	241.37	22.84	-50.1	-51.6	15.1	0.00e+00	0	25	0	452984832	66	4282
2026-01-08 11:46:14.84	241.60	22.90	-50.3	-51.8	15.0	0.00e+00	0	24	0	455081984	66	4390
2026-01-08 11:46:15.81	241.84	22.97	-50.3	-51.9	15.0	0.00e+00	0	25	0	457179136	66	4409
2026-01-08 11:46:16.78	242.07	23.04	-50.5	-52.1	14.9	0.00e+00	0	24	0	459276288	66	4522
2026-01-08 11:46:17.74	242.30	23.11	-50.7	-52.3	14.8	0.00e+00	0	25	0	460324864	66	4600
2026-01-08 11:46:18.71	242.54	23.18	-51.0	-52.7	14.8	0.00e+00	0	25	0	462422016	67	4551
2026-01-08 11:46:19.68	242.78	23.25	-50.9	-52.6	14.8	0.00e+00	0	25	0	464519168	67	4509
2026-01-08 11:46:20.65	243.01	23.32	-50.8	-52.4	14.9	0.00e+00	0	24	0	466616320	67	4430
2026-01-08 11:46:21.61	243.25	23.39	-50.8	-52.4	14.9	0.00e+00	0	25	0	467664896	67	4428
2026-01-08 11:46:22.58	243.49	23.45	-50.8	-52.4	14.9	0.00e+00	0	25	0	469762048	67	4417
2026-01-08 11:46:23.55	243.73	23.52	-50.6	-52.2	15.0	0.00e+00	0	24	0	471859200	67	4292
2026-01-08 11:46:24.51	243.97	23.59	-50.6	-52.2	15.0	0.00e+00	0	25	0	473956352	67	4330
2026-01-08 11:46:25.47	244.21	23.65	-50.7	-52.3	15.0	0.00e+00	0	25	0	475004928	67	4383
2026-01-08 11:46:26.44	244.45	23.72	-50.7	-52.2	15.0	0.00e+00	0	25	0	477102080	67	4337
2026-01-08 11:46:27.41	244.70	23.79	-50.5	-52.1	15.1	0.00e+00	0	25	0	479199232	67	4250
2026-01-08 11:46:28.38	244.94	23.85	-50.3	-51.9	15.2	0.00e+00	0	25	0	480247808	67	4153
2026-01-08 11:46:29.34	245.19	23.92	-50.2	-51.7	15.1	0.00e+00	0	25	0	482344960	66	4330
2026-01-08 11:46:30.31	245.44	23.98	-50.5	-52.0	14.9	0.00e+00	0	25	0	484442112	66	4486
2026-01-08 11:46:31.28	245.69	24.05	-50.7	-52.3	14.8	0.00e+00	0	25	0	486539264	66	4604
2026-01-08 11:46:32.25	245.94	24.11	-51.0	-52.7	14.8	0.00e+00	0	25	0	487587840	67	4548
2026-01-08 11:46:33.22	246.19	24.17	-51.2	-52.9	14.7	0.00e+00	0	25	0	489684992	67	4667
2026-01-08 11:46:34.18	246.44	24.24	-50.9	-52.6	14.8	0.00e+00	0	24	0	491782144	67	4508
2026-01-08 11:46:35.15	246.69	24.30	-50.6	-52.1	15.0	0.00e+00	0	25	0	492830720	67	4290
2026-01-08 11:46:36.12	246.94	24.36	-50.1	-51.6	15.2	0.00e+00	0	25	0	494927872	66	4244
2026-01-08 11:46:37.08	247.20	24.42	-50.1	-51.6	15.1	0.00e+00	0	25	0	497025024	66	4267
2026-01-08 11:46:38.05	247.45	24.49	-50.3	-51.8	15.0	0.00e+00	0	25	0	499122176	66	4376
2026-01-08 11:46:39.02	247.71	24.55	-50.8	-52.4	14.8	0.00e+00	0	25	0	500170752	66	4657
2026-01-08 11:46:39.99	247.97	24.61	-51.0	-52.9	14.7	0.00e+00	0	25	0	502267904	67	4676
2026-01-08 11:46:40.95	248.22	24.67	-51.4	-53.4	14.5	0.00e+00	0	25	0	504365056	67	4937
2026-01-08 11:46:41.92	248.48	24.73	-51.8	-53.9	14.5	0.00e+00	0	24	0	506462208	68	4955
2026-01-08 11:46:42.88	248.74	24.79	-52.0	-54.2	14.5	0.00e+00	0	25	0	507510784	69	4825
2026-01-08 11:46:43.85	249.00	24.84	-52.0	-54.1	14.5	0.00e+00	0	24	0	509607936	69	4781
2026-01-08 11:46:44.82	249.26	24.90	-52.1	-54.2	14.4	0.00e+00	0	25	0	511705088	69	4848
2026-01-08 11:46:45.78	249.52	24.96	-52.0	-54.1	14.5	0.00e+00	0	25	0	513802240	69	4793
2026-01-08 11:46:46.76	249.79	25.02	-52.2	-54.5	14.3	0.00e+00	0	25	0	514850816	69	4987
2026-01-08 11:46:47.72	250.05	25.07	-52.0	-54.1	14.5	0.00e+00	0	25	0	516947968	69	4794
2026-01-08 11:46:48.69	250.32	25.13	-51.9	-54.0	14.5	0.00e+00	0	25	0	519045120	69	4724
2026-01-08 11:46:49.66	250.59	25.19	-51.6	-53.6	14.7	0.00e+00	0	25	0	521142272	69	4496
2026-01-08 11:46:50.62	250.85	25.24	-51.7	-53.6	14.7	0.00e+00	0	25	0	522190848	69	4544
2026-01-08 11:46:51.59	251.12	25.30	-51.8	-53.8	14.6	0.00e+00	0	25	0	524288000	69	4612
2026-01-08 11:46:52.55	251.39	25.35	-51.9	-54.0	14.5	0.00e+00	0	25	0	526385152	69	4742
2026-01-08 11:46:53.52	251.66	25.40	-52.3	-54.5	14.3	0.00e+00	0	25	0	527433728	69	4985
2026-01-08 11:46:54.49	251.93	25.46	-52.7	-55.0	14.2	0.00e+00	0	25	0	529530880	70	5041
2026-01-08 11:46:55.45	252.20	25.51	-53.2	-55.7	14.0	0.00e+00	0	25	0	531628032	71	5146
2026-01-08 11:46:56.42	252.47	25.56	-53.1	-55.6	14.0	0.00e+00	0	25	0	533725184	71	5081
2026-01-08 11:46:57.39	252.75	25.61	-53.2	-55.8	13.9	0.00e+00	0	25	0	534773760	71	5184
2026-01-08 11:46:58.35	253.02	25.66	-53.2	-55.8	13.9	0.00e+00	0	25	0	536870912	71	5173
2026-01-08 11:46:59.32	253.30	25.71	-53.1	-55.7	14.0	0.00e+00	0	25	0	538968064	71	5109
2026-01-08 11:47:00.29	253.57	25.76	-53.0	-55.4	14.1	0.00e+00	0	25	0	540016640	71	4954
2026-01-08 11:47:01.26	253.85	25.81	-52.7	-55.0	14.3	0.00e+00	0	25	0	542113792	71	4745
2026-01-08 11:47:02.22	254.13	25.86	-52.7	-55.0	14.4	0.00e+00	0	25	0	544210944	71	4729
2026-01-08 11:47:03.19	254.41	25.91	-52.8	-55.2	14.2	0.00e+00	0	25	0	546308096	71	4847
2026-01-08 11:47:04.15	254.68	25.95	-53.2	-55.7	13.9	0.00e+00	0	25	0	547356672	71	5151
2026-01-08 11:47:05.12	254.97	26.00	-53.6	-56.3	13.7	0.00e+00	0	25	0	549453824	72	5218
2026-01-08 11:47:06.09	255.25	26.05	-53.6	-56.5	13.6	0.00e+00	0	25	0	551550976	72	5314
2026-01-08 11:47:07.05	255.53	26.09	-53.6	-56.4	13.7	0.00e+00	0	25	0	553648128	72	5240
2026-01-08 11:47:08.02	255.81	26.14	-53.3	-55.9	13.9	0.00e+00	0	25	0	554696704	72	4975
2026-01-08 11:47:08.98	256.09	26.18	-52.8	-55.1	14.4	0.00e+00	0	25	0	556793856	72	4502
2026-01-08 11:47:09.95	256.38	26.22	-52.4	-54.7	14.5	0.00e+00	0	25	0	558891008	71	4546
2026-01-08 11:47:10.92	256.66	26.26	-52.3	-54.5	14.4	0.00e+00	0	25	0	559939584	70	4732
2026-01-08 11:47:11.88	256.95	26.31	-52.4	-54.7	14.3	0.00e+00	0	24	0	562036736	70	4867
2026-01-08 11:47:12.85	257.23	26.35	-52.9	-55.4	14.0	0.00e+00	0	25	0	564133888	70	5264
2026-01-08 11:47:13.82	257.52	26.39	-53.0	-55.6	14.0	0.00e+00	0	25	0	566231040	71	5057
2026-01-08 11:47:14.79	257.81	26.43	-52.8	-55.3	14.2	0.00e+00	0	25	0	567279616	71	4900
2026-01-08 11:47:15.75	258.10	26.47	-52.6	-55.0	14.3	0.00e+00	0	25	0	569376768	71	4759
2026-01-08 11:47:16.72	258.39	26.50	-52.7	-55.2	14.3	0.00e+00	0	25	0	571473920	71	4827
2026-01-08 11:47:17.68	258.67	26.54	-52.9	-55.6	14.1	0.00e+00	0	25	0	573571072	71	5046
2026-01-08 11:47:18.65	258.96	26.58	-53.4	-56.3	13.7	0.00e+00	0	25	0	574619648	71	5476
2026-01-08 11:47:19.62	259.26	26.62	-53.6	-56.6	13.6	0.00e+00	0	25	0	576716800	72	5379
2026-01-08 11:47:20.58	259.55	26.65	-53.7	-56.8	13.5	0.00e+00	0	25	0	578813952	72	5478
2026-01-08 11:47:21.55	259.84	26.69	-53.4	-56.3	13.7	0.00e+00	0	24	0	579862528	72	5168
2026-01-08 11:47:22.51	260.13	26.72	-53.1	-55.9	14.0	0.00e+00	0	25	0	581959680	72	4931
2026-01-08 11:47:23.48	260.42	26.75	-53.3	-56.1	14.0	0.00e+00	0	25	0	584056832	72	5045
2026-01-08 11:47:24.45	260.72	26.78	-53.5	-56.4	13.7	0.00e+00	0	25	0	586153984	72	5240
2026-01-08 11:47:25.42	261.01	26.82	-54.0	-57.4	13.3	0.00e+00	0	25	0	587202560	73	5549
2026-01-08 11:47:26.38	261.31	26.85	-54.3	-57.7	13.0	0.00e+00	0	25	0	589299712	73	5780
2026-01-08 11:47:27.35	261.60	26.88	-54.0	-57.1	13.4	0.00e+00	0	25	0	591396864	73	5400
2026-01-08 11:47:28.31	261.90	26.91	-53.6	-56.6	13.7	0.00e+00	0	25	0	593494016	73	5048
2026-01-08 11:47:29.28	262.20	26.94	-53.1	-55.8	14.1	0.00e+00	0	25	0	594542592	72	4874
2026-01-08 11:47:30.24	262.49	26.96	-52.9	-55.5	14.2	0.00e+00	0	25	0	596639744	72	4742
2026-01-08 11:47:31.21	262.79	26.99	-52.9	-55.5	14.2	0.00e+00	0	25	0	598736896	72	4726
2026-01-08 11:47:32.18	263.09	27.02	-52.8	-55.4	14.4	0.00e+00	0	25	0	599785472	72	4653
2026-01-08 11:47:33.14	263.39	27.04	-53.0	-55.5	14.2	0.00e+00	0	25	0	601882624	72	4758
2026-01-08 11:47:34.11	263.69	27.07	-53.1	-55.8	14.1	0.00e+00	0	25	0	603979776	72	4912
2026-01-08 11:47:35.07	263.98	27.09	-53.4	-56.4	13.8	0.00e+00	0	25	0	606076928	72	5222
2026-01-08 11:47:36.04	264.28	27.11	-53.6	-56.7	13.6	0.00e+00	0	25	0	607125504	72	5414
2026-01-08 11:47:37.01	264.59	27.14	-53.9	-57.1	13.3	0.00e+00	0	25	0	609222656	72	5670
2026-01-08 11:47:37.98	264.89	27.16	-54.1	-57.4	13.3	0.00e+00	0	25	0	611319808	73	5540
2026-01-08 11:47:38.94	265.19	27.18	-54.1	-57.2	13.3	0.00e+00	0	24	0	613416960	73	5442
2026-01-08 11:47:39.90	265.49	27.20	-54.0	-57.1	13.4	0.00e+00	0	25	0	614465536	73	5362
2026-01-08 11:47:40.87	265.79	27.22	-53.8	-56.8	13.6	0.00e+00	0	25	0	616562688	73	5162
2026-01-08 11:47:41.84	266.09	27.24	-53.8	-56.6	13.7	0.00e+00	0	25	0	618659840	73	5086
2026-01-08 11:47:42.80	266.39	27.25	-53.6	-56.3	13.9	0.00e+00	0	25	0	620756992	73	4913
2026-01-08 11:47:43.77	266.70	27.27	-53.5	-56.2	13.9	0.00e+00	0	25	0	621805568	73	4850
2026-01-08 11:47:44.74	267.00	27.28	-53.4	-56.0	14.1	0.00e+00	0	25	0	623902720	73	4707
2026-01-08 11:47:45.70	267.30	27.30	-53.5	-56.1	14.0	0.00e+00	0	25	0	625999872	73	4813
2026-01-08 11:47:46.67	267.61	27.31	-53.8	-56.6	13.7	0.00e+00	0	25	0	627048448	73	5086
2026-01-08 11:47:47.64	267.91	27.33	-53.9	-56.8	13.6	0.00e+00	0	25	0	629145600	73	5173
2026-01-08 11:47:48.61	268.22	27.34	-53.9	-56.8	13.6	0.00e+00	0	25	0	631242752	73	5216
2026-01-08 11:47:49.58	268.52	27.35	-53.8	-56.6	13.7	0.00e+00	0	25	0	633339904	73	5080
2026-01-08 11:47:50.55	268.83	27.36	-53.6	-56.4	13.9	0.00e+00	0	25	0	634388480	73	4930
2026-01-08 11:47:51.51	269.13	27.37	-53.6	-56.2	13.9	0.00e+00	0	25	0	636485632	73	4840
2026-01-08 11:47:52.48	269.44	27.38	-53.1	-55.5	14.2	0.00e+00	0	25	0	638582784	72	4749
2026-01-08 11:47:53.44	269.74	27.39	-53.0	-55.5	14.3	0.00e+00	0	25	0	639631360	72	4722
2026-01-08 11:47:54.41	270.05	27.40	-52.9	-55.4	14.3	0.00e+00	0	25	0	641728512	72	4659
2026-01-08 11:47:55.38	270.35	27.40	-52.9	-55.4	14.3	0.00e+00	0	25	0	643825664	72	4660
2026-01-08 11:47:56.34	270.66	27.41	-53.1	-55.5	14.2	0.00e+00	0	25	0	645922816	72	4751
2026-01-08 11:47:57.31	270.96	27.41	-52.9	-55.3	14.3	0.00e+00	0	25	0	646971392	72	4635
2026-01-08 11:47:58.28	271.27	27.42	-52.7	-55.0	14.5	0.00e+00	0	25	0	649068544	72	4471
2026-01-08 11:47:59.25	271.58	27.42	-52.8	-55.2	14.3	0.00e+00	0	25	0	651165696	72	4579
2026-01-08 11:48:00.21	271.88	27.42	-53.1	-55.6	14.2	0.00e+00	0	25	0	653262848	72	4794
2026-01-08 11:48:01.18	272.19	27.42	-53.5	-56.2	13.8	0.00e+00	0	25	0	654311424	72	5132
2026-01-08 11:48:02.15	272.49	27.42	-53.8	-56.7	13.5	0.00e+00	0	25	0	656408576	72	5440
2026-01-08 11:48:03.12	272.80	27.42	-53.6	-56.4	13.7	0.00e+00	0	25	0	658505728	72	5226
2026-01-08 11:48:04.08	273.10	27.42	-53.7	-56.5	13.7	0.00e+00	0	25	0	660602880	72	5286
2026-01-08 11:48:05.05	273.41	27.42	-53.8	-56.6	13.6	0.00e+00	0	25	0	661651456	72	5368
2026-01-08 11:48:06.02	273.72	27.42	-54.0	-56.9	13.5	0.00e+00	0	25	0	663748608	73	5279
2026-01-08 11:48:06.98	274.02	27.41	-54.2	-57.4	13.2	0.00e+00	0	25	0	665845760	73	5548
2026-01-08 11:48:07.95	274.33	27.41	-54.3	-57.5	13.2	0.00e+00	0	25	0	666894336	73	5621
2026-01-08 11:48:08.92	274.63	27.40	-54.1	-57.2	13.4	0.00e+00	0	25	0	668991488	73	5419
2026-01-08 11:48:09.89	274.94	27.39	-53.7	-56.4	13.8	0.00e+00	0	25	0	671088640	73	4932
2026-01-08 11:48:10.85	275.24	27.39	-53.2	-55.7	14.3	0.00e+00	0	25	0	673185792	73	4550
2026-01-08 11:48:11.82	275.55	27.38	-53.0	-55.4	14.3	0.00e+00	0	25	0	674234368	72	4667
2026-01-08 11:48:12.78	275.85	27.37	-52.9	-55.1	14.4	0.00e+00	0	25	0	676331520	72	4537
2026-01-08 11:48:13.75	276.16	27.36	-52.7	-54.9	14.4	0.00e+00	0	25	0	678428672	71	4675
2026-01-08 11:48:14.72	276.46	27.35	-52.5	-54.7	14.4	0.00e+00	0	25	0	680525824	71	4588
2026-01-08 11:48:15.69	276.77	27.34	-52.2	-54.3	14.7	0.00e+00	0	25	0	681574400	71	4355
2026-01-08 11:48:16.65	277.07	27.32	-52.3	-54.4	14.5	0.00e+00	0	25	0	683671552	70	4663
2026-01-08 11:48:17.62	277.38	27.31	-52.2	-54.3	14.6	0.00e+00	0	25	0	685768704	70	4622
2026-01-08 11:48:18.58	277.68	27.30	-52.4	-54.6	14.4	0.00e+00	0	25	0	686817280	70	4794
2026-01-08 11:48:19.55	277.98	27.28	-52.8	-55.2	14.1	0.00e+00	0	25	0	688914432	70	5139
2026-01-08 11:48:20.52	278.29	27.27	-53.2	-55.7	14.0	0.00e+00	0	25	0	691011584	71	5157
2026-01-08 11:48:21.49	278.59	27.25	-53.3	-56.0	13.8	0.00e+00	0	25	0	693108736	71	5340
2026-01-08 11:48:22.46	278.89	27.23	-53.3	-56.1	13.9	0.00e+00	0	25	0	694157312	72	5056
2026-01-08 11:48:23.42	279.19	27.21	-53.1	-55.7	14.1	0.00e+00	0	25	0	696254464	72	4828
2026-01-08 11:48:24.39	279.50	27.19	-53.1	-55.7	14.1	0.00e+00	0	25	0	698351616	72	4863
2026-01-08 11:48:25.35	279.79	27.17	-53.0	-55.5	14.2	0.00e+00	0	25	0	700448768	72	4739
2026-01-08 11:48:26.32	280.10	27.15	-52.8	-55.2	14.4	0.00e+00	0	25	0	701497344	72	4585
2026-01-08 11:48:27.29	280.40	27.13	-52.9	-55.3	14.3	0.00e+00	0	25	0	703594496	72	4639
2026-01-08 11:48:28.26	280.70	27.11	-52.9	-55.3	14.3	0.00e+00	0	25	0	705691648	72	4629
2026-01-08 11:48:29.22	281.00	27.09	-53.0	-55.5	14.2	0.00e+00	0	25	0	707788800	72	4736
2026-01-08 11:48:30.19	281.30	27.06	-52.9	-55.3	14.3	0.00e+00	0	25	0	708837376	72	4647
2026-01-08 11:48:31.16	281.60	27.04	-52.9	-55.4	14.3	0.00e+00	0	25	0	710934528	72	4659
2026-01-08 11:48:32.12	281.89	27.01	-52.8	-55.2	14.4	0.00e+00	0	25	0	713031680	72	4582
2026-01-08 11:48:33.09	282.19	26.99	-52.7	-55.0	14.3	0.00e+00	0	25	0	714080256	71	4719
2026-01-08 11:48:34.06	282.49	26.96	-52.5	-54.7	14.5	0.00e+00	0	25	0	716177408	71	4570
2026-01-08 11:48:35.02	282.78	26.93	-52.7	-55.0	14.4	0.00e+00	0	25	0	718274560	71	4747
2026-01-08 11:48:36.00	283.08	26.90	-52.7	-55.0	14.4	0.00e+00	0	25	0	720371712	71	4708
2026-01-08 11:48:36.96	283.38	26.87	-52.8	-55.1	14.3	0.00e+00	0	25	0	721420288	71	4784
2026-01-08 11:48:37.93	283.67	26.84	-52.7	-55.0	14.4	0.00e+00	0	25	0	723517440	71	4709
2026-01-08 11:48:38.90	283.97	26.81	-52.7	-55.0	14.4	0.00e+00	0	25	0	725614592	71	4721
2026-01-08 11:48:39.87	284.26	26.78	-52.6	-54.9	14.4	0.00e+00	0	25	0	727711744	71	4653
2026-01-08 11:48:40.84	284.56	26.75	-52.1	-54.2	14.6	0.00e+00	0	25	0	728760320	70	4566
2026-01-08 11:48:41.80	284.85	26.71	-51.8	-53.8	14.8	0.00e+00	0	25	0	730857472	70	4387
2026-01-08 11:48:42.77	285.14	26.68	-51.7	-53.8	14.7	0.00e+00	0	25	0	732954624	69	4620
2026-01-08 11:48:43.74	285.44	26.64	-51.8	-53.9	14.6	0.00e+00	0	25	0	734003200	69	4701
2026-01-08 11:48:44.71	285.73	26.61	-52.1	-54.4	14.4	0.00e+00	0	25	0	736100352	69	4934
2026-01-08 11:48:45.67	286.02	26.57	-52.6	-55.0	14.3	0.00e+00	0	25	0	738197504	70	4991
2026-01-08 11:48:46.64	286.31	26.54	-52.8	-55.4	14.2	0.00e+00	0	25	0	740294656	71	4939
2026-01-08 11:48:47.61	286.60	26.50	-52.9	-55.6	14.1	0.00e+00	0	25	0	741343232	71	5057
2026-01-08 11:48:48.58	286.89	26.46	-52.9	-55.5	14.0	0.00e+00	0	25	0	743440384	71	5038
2026-01-08 11:48:49.54	287.17	26.42	-52.5	-55.0	14.4	0.00e+00	0	25	0	745537536	71	4715
2026-01-08 11:48:50.51	287.46	26.38	-52.1	-54.4	14.6	0.00e+00	0	25	0	747634688	70	4665
2026-01-08 11:48:51.48	287.75	26.34	-51.9	-54.1	14.7	0.00e+00	0	25	0	748683264	70	4508
2026-01-08 11:48:52.45	288.03	26.30	-51.5	-53.5	14.8	0.00e+00	0	25	0	750780416	69	4479
2026-01-08 11:48:53.42	288.32	26.26	-51.3	-53.3	15.0	0.00e+00	0	25	0	752877568	69	4343
2026-01-08 11:48:54.38	288.60	26.21	-51.1	-53.0	14.9	0.00e+00	0	25	0	753926144	68	4470
2026-01-08 11:48:55.35	288.88	26.17	-50.7	-52.4	15.2	0.00e+00	0	25	0	756023296	68	4172
2026-01-08 11:48:56.32	289.17	26.13	-50.3	-51.9	15.2	0.00e+00	0	25	0	758120448	67	4188
2026-01-08 11:48:57.28	289.45	26.08	-50.1	-51.8	15.1	0.00e+00	0	25	0	760217600	66	4347
2026-01-08 11:48:58.24	289.73	26.04	-50.1	-51.7	15.1	0.00e+00	0	25	0	761266176	66	4338
2026-01-08 11:48:59.21	290.01	25.99	-50.6	-52.3	14.9	0.00e+00	0	25	0	763363328	66	4646
2026-01-08 11:49:00.18	290.29	25.95	-51.1	-52.9	14.8	0.00e+00	0	25	0	765460480	67	4689
2026-01-08 11:49:01.15	290.57	25.90	-51.6	-53.6	14.6	0.00e+00	0	25	0	767557632	68	4805
2026-01-08 11:49:02.12	290.85	25.85	-51.6	-53.6	14.6	0.00e+00	0	25	0	768606208	68	4768
2026-01-08 11:49:03.09	291.12	25.80	-51.4	-53.3	14.8	0.00e+00	0	25	0	770703360	68	4630
2026-01-08 11:49:04.06	291.40	25.75	-51.0	-52.8	15.0	0.00e+00	0	25	0	772800512	68	4366
2026-01-08 11:49:05.02	291.67	25.70	-50.3	-52.0	15.2	0.00e+00	0	25	0	774897664	67	4206
2026-01-08 11:49:05.99	291.95	25.65	-50.3	-52.0	15.2	0.00e+00	0	25	0	775946240	67	4198
2026-01-08 11:49:06.96	292.22	25.60	-50.4	-52.0	15.1	0.00e+00	0	25	0	778043392	67	4242
2026-01-08 11:49:07.93	292.50	25.55	-50.3	-51.9	15.2	0.00e+00	0	25	0	780140544	67	4186
2026-01-08 11:49:08.89	292.77	25.50	-50.1	-51.7	15.1	0.00e+00	0	25	0	781189120	66	4337
2026-01-08 11:49:09.86	293.04	25.45	-50.2	-51.8	15.1	0.00e+00	0	25	0	783286272	66	4347
2026-01-08 11:49:10.83	293.31	25.40	-49.8	-51.4	15.3	0.00e+00	0	25	0	785383424	66	4150
2026-01-08 11:49:11.79	293.58	25.34	-49.8	-51.3	15.3	0.00e+00	0	25	0	787480576	66	4110
2026-01-08 11:49:12.76	293.84	25.29	-49.4	-50.9	15.2	0.00e+00	0	25	0	788529152	65	4174
2026-01-08 11:49:13.73	294.11	25.23	-49.3	-50.7	15.3	0.00e+00	0	25	0	790626304	65	4098
2026-01-08 11:49:14.70	294.38	25.18	-49.6	-51.1	15.1	0.00e+00	0	25	0	792723456	65	4278
2026-01-08 11:49:15.67	294.65	25.12	-49.7	-51.2	15.1	0.00e+00	0	25	0	794820608	65	4331
2026-01-08 11:49:16.63	294.91	25.07	-50.3	-51.9	14.8	0.00e+00	0	25	0	795869184	65	4692
2026-01-08 11:49:17.60	295.17	25.01	-50.6	-52.3	14.8	0.00e+00	0	25	0	797966336	66	4615
2026-01-08 11:49:18.57	295.44	24.95	-50.6	-52.3	14.8	0.00e+00	0	25	0	800063488	66	4642
2026-01-08 11:49:19.53	295.70	24.90	-50.6	-52.3	14.8	0.00e+00	0	25	0	801112064	66	4631
2026-01-08 11:49:20.50	295.96	24.84	-50.3	-51.9	15.0	0.00e+00	0	25	0	803209216	66	4418
2026-01-08 11:49:21.47	296.22	24.78	-49.9	-51.5	15.2	0.00e+00	0	25	0	805306368	66	4195
2026-01-08 11:49:22.44	296.48	24.72	-49.7	-51.3	15.1	0.00e+00	0	25	0	807403520	65	4365
2026-01-08 11:49:23.40	296.73	24.66	-49.7	-51.2	15.1	0.00e+00	0	25	0	808452096	65	4335
2026-01-08 11:49:24.37	296.99	24.60	-49.8	-51.4	15.1	0.00e+00	0	25	0	810549248	65	4435
2026-01-08 11:49:25.34	297.25	24.54	-49.7	-51.3	15.1	0.00e+00	0	25	0	812646400	65	4351
2026-01-08 11:49:26.31	297.50	24.48	-49.8	-51.4	15.1	0.00e+00	0	25	0	814743552	65	4405
2026-01-08 11:49:27.27	297.76	24.42	-49.7	-51.3	15.1	0.00e+00	0	25	0	815792128	65	4387
2026-01-08 11:49:28.24	298.01	24.36	-49.8	-51.4	15.1	0.00e+00	0	25	0	817889280	65	4398
2026-01-08 11:49:29.20	298.26	24.30	-49.8	-51.4	15.1	0.00e+00	0	25	0	819986432	65	4431
2026-01-08 11:49:30.17	298.51	24.23	-50.0	-51.7	14.9	0.00e+00	0	25	0	821035008	65	4568
2026-01-08 11:49:31.14	298.76	24.17	-50.0	-51.6	15.0	0.00e+00	0	25	0	823132160	65	4534
2026-01-08 11:49:32.11	299.01	24.11	-49.9	-51.5	15.0	0.00e+00	0	25	0	825229312	65	4491
2026-01-08 11:49:33.07	299.26	24.04	-49.9	-51.5	15.0	0.00e+00	0	25	0	827326464	65	4489
2026-01-08 11:49:34.04	299.51	23.98	-49.9	-51.5	15.0	0.00e+00	0	25	0	828375040	65	4493
2026-01-08 11:49:35.00	299.75	23.91	-50.0	-51.7	14.9	0.00e+00	0	25	0	830472192	65	4581
2026-01-08 11:49:35.96	300.00	23.85	-50.1	-51.8	14.9	0.00e+00	0	25	0	832569344	65	4625
2026-01-08 11:49:36.93	300.24	23.78	-50.1	-51.8	14.9	0.00e+00	0	25	0	834666496	65	4644
2026-01-08 11:49:37.90	300.49	23.72	-50.5	-52.3	14.8	0.00e+00	0	25	0	835715072	66	4621
2026-01-08 11:49:38.86	300.73	23.65	-50.3	-52.1	14.9	0.00e+00	0	25	0	837812224	66	4508
2026-01-08 11:49:39.83	300.97	23.59	-50.3	-52.0	14.9	0.00e+00	0	25	0	839909376	66	4493
2026-01-08 11:49:40.80	301.21	23.52	-50.0	-51.6	15.1	0.00e+00	0	25	0	840957952	66	4281
2026-01-08 11:49:41.76	301.45	23.45	-49.9	-51.6	15.1	0.00e+00	0	25	0	843055104	66	4266
2026-01-08 11:49:42.73	301.69	23.39	-49.8	-51.4	15.2	0.00e+00	0	25	0	845152256	66	4191
2026-01-08 11:49:43.69	301.92	23.32	-50.0	-51.7	15.1	0.00e+00	0	25	0	847249408	66	4298
2026-01-08 11:49:44.66	302.16	23.25	-50.4	-52.1	14.9	0.00e+00	0	25	0	848297984	66	4528
2026-01-08 11:49:45.63	302.39	23.18	-50.7	-52.6	14.7	0.00e+00	0	25	0	850395136	66	4762
2026-01-08 11:49:46.59	302.63	23.11	-51.0	-53.0	14.7	0.00e+00	0	25	0	852492288	67	4709
2026-01-08 11:49:47.56	302.86	23.04	-51.3	-53.4	14.5	0.00e+00	0	25	0	854589440	67	4930
2026-01-08 11:49:48.53	303.09	22.98	-51.3	-53.3	14.5	0.00e+00	0	25	0	855638016	67	4901
2026-01-08 11:49:49.49	303.32	22.91	-51.1	-53.1	14.6	0.00e+00	0	25	0	857735168	67	4763
2026-01-08 11:49:50.46	303.55	22.84	-50.8	-52.7	14.8	0.00e+00	0	25	0	859832320	67	4557
2026-01-08 11:49:51.42	303.78	22.77	-50.7	-52.5	14.9	0.00e+00	0	25	0	860880896	67	4458
2026-01-08 11:49:52.39	304.01	22.70	-50.5	-52.3	15.0	0.00e+00	0	25	0	862978048	67	4347
2026-01-08 11:49:53.36	304.24	22.63	-50.6	-52.5	14.9	0.00e+00	0	25	0	865075200	67	4457
2026-01-08 11:49:54.33	304.46	22.56	-50.3	-52.1	15.0	0.00e+00	0	25	0	867172352	67	4287
2026-01-08 11:49:55.29	304.69	22.48	-50.4	-52.3	15.0	0.00e+00	0	25	0	868220928	67	4352
2026-01-08 11:49:56.26	304.91	22.41	-50.3	-52.1	15.0	0.00e+00	0	25	0	870318080	67	4274
2026-01-08 11:49:57.23	305.14	22.34	-50.3	-52.1	15.1	0.00e+00	0	25	0	872415232	67	4254
2026-01-08 11:49:58.20	305.36	22.27	-50.1	-51.8	15.0	0.00e+00	0	25	0	874512384	66	4386
2026-01-08 11:49:59.16	305.58	22.20	-49.8	-51.5	15.1	0.00e+00	0	25	0	875560960	66	4225
2026-01-08 11:50:00.13	305.80	22.13	-49.9	-51.5	15.2	0.00e+00	0	25	0	877658112	66	4240
2026-01-08 11:50:01.09	306.02	22.05	-50.1	-51.8	14.9	0.00e+00	0	25	0	879755264	66	4385
2026-01-08 11:50:02.06	306.24	21.98	-50.3	-52.1	14.9	0.00e+00	0	25	0	881852416	66	4515
2026-01-08 11:50:03.02	306.45	21.91	-50.6	-52.5	14.7	0.00e+00	0	25	0	882900992	66	4716
2026-01-08 11:50:03.99	306.67	21.84	-50.6	-52.4	14.8	0.00e+00	0	25	0	884998144	66	4704
2026-01-08 11:50:04.96	306.88	21.76	-50.8	-52.7	14.7	0.00e+00	0	25	0	887095296	66	4864
2026-01-08 11:50:05.93	307.10	21.69	-50.9	-52.8	14.6	0.00e+00	0	25	0	888143872	66	4917
2026-01-08 11:50:06.89	307.31	21.62	-50.8	-52.7	14.6	0.00e+00	0	25	0	890241024	66	4865
2026-01-08 11:50:07.85	307.52	21.54	-50.8	-52.7	14.8	0.00e+00	0	25	0	892338176	67	4559
2026-01-08 11:50:08.82	307.73	21.47	-50.8	-52.7	14.8	0.00e+00	0	25	0	894435328	67	4587
2026-01-08 11:50:09.79	307.94	21.39	-51.0	-52.9	14.7	0.00e+00	0	25	0	895483904	67	4703
2026-01-08 11:50:10.75	308.15	21.32	-51.0	-53.0	14.7	0.00e+00	0	25	0	897581056	67	4727
2026-01-08 11:50:11.72	308.36	21.25	-50.8	-52.7	14.8	0.00e+00	0	25	0	899678208	67	4589
2026-01-08 11:50:12.68	308.57	21.17	-50.7	-52.7	14.8	0.00e+00	0	25	0	900726784	67	4551
2026-01-08 11:50:13.65	308.77	21.10	-50.8	-52.7	14.7	0.00e+00	0	25	0	902823936	67	4586
2026-01-08 11:50:14.62	308.98	21.02	-50.6	-52.4	14.9	0.00e+00	0	25	0	904921088	67	4427
2026-01-08 11:50:15.59	309.18	20.95	-50.7	-52.5	14.9	0.00e+00	0	25	0	907018240	67	4487
2026-01-08 11:50:16.55	309.39	20.87	-50.7	-52.6	14.8	0.00e+00	0	25	0	908066816	67	4519
2026-01-08 11:50:17.52	309.59	20.80	-50.9	-52.9	14.7	0.00e+00	0	25	0	910163968	67	4680
2026-01-08 11:50:18.49	309.79	20.72	-51.2	-53.2	14.6	0.00e+00	0	25	0	912261120	67	4837
2026-01-08 11:50:19.45	309.99	20.65	-51.3	-53.5	14.4	0.00e+00	0	25	0	914358272	67	4986
2026-01-08 11:50:20.42	310.19	20.57	-51.9	-54.1	14.3	0.00e+00	0	25	0	915406848	68	5072
2026-01-08 11:50:21.39	310.39	20.49	-51.7	-53.9	14.5	0.00e+00	0	25	0	917504000	69	4666
2026-01-08 11:50:22.35	310.58	20.42	-51.4	-53.5	14.7	0.00e+00	0	25	0	919601152	69	4458
2026-01-08 11:50:23.32	310.78	20.34	-51.3	-53.2	14.9	0.00e+00	0	25	0	921698304	69	4339
2026-01-08 11:50:24.29	310.98	20.27	-50.8	-52.6	15.0	0.00e+00	0	25	0	922746880	68	4258
2026-01-08 11:50:25.26	311.17	20.19	-50.0	-51.7	15.1	0.00e+00	0	25	0	924844032	66	4305
2026-01-08 11:50:26.22	311.37	20.11	-49.8	-51.4	15.2	0.00e+00	0	25	0	926941184	66	4188
2026-01-08 11:50:27.19	311.56	20.04	-49.9	-51.6	15.2	0.00e+00	0	25	0	927989760	66	4247
2026-01-08 11:50:28.16	311.75	19.96	-50.3	-52.0	14.9	0.00e+00	0	25	0	930086912	66	4492
2026-01-08 11:50:29.13	311.94	19.88	-50.7	-52.5	14.8	0.00e+00	0	25	0	932184064	66	4741
2026-01-08 11:50:30.10	312.13	19.81	-51.0	-52.9	14.7	0.00e+00	0	25	0	934281216	67	4704
2026-01-08 11:50:31.06	312.32	19.73	-51.2	-53.2	14.5	0.00e+00	0	25	0	935329792	67	4855
2026-01-08 11:50:32.03	312.51	19.66	-51.5	-53.6	14.5	0.00e+00	0	25	0	937426944	68	4785
2026-01-08 11:50:33.00	312.70	19.58	-51.5	-53.5	14.6	0.00e+00	0	25	0	939524096	68	4730
2026-01-08 11:50:33.97	312.89	19.50	-51.3	-53.3	14.6	0.00e+00	0	25	0	941621248	68	4639
2026-01-08 11:50:34.93	313.07	19.43	-51.4	-53.4	14.6	0.00e+00	0	25	0	942669824	68	4688
2026-01-08 11:50:35.90	313.25	19.35	-51.2	-53.2	14.7	0.00e+00	0	25	0	944766976	68	4598
2026-01-08 11:50:36.87	313.44	19.27	-51.3	-53.3	14.6	0.00e+00	0	25	0	946864128	68	4647
2026-01-08 11:50:37.83	313.62	19.19	-51.4	-53.4	14.6	0.00e+00	0	25	0	947912704	68	4699
2026-01-08 11:50:38.80	313.80	19.12	-51.3	-53.4	14.6	0.00e+00	0	25	0	950009856	68	4667
2026-01-08 11:50:39.77	313.98	19.04	-51.4	-53.4	14.6	0.00e+00	0	25	0	952107008	68	4691
2026-01-08 11:50:40.75	314.17	18.96	-50.9	-52.8	14.9	0.00e+00	0	25	0	954204160	68	4349
2026-01-08 11:50:41.72	314.35	18.88	-50.4	-52.3	15.0	0.00e+00	0	25	0	955252736	67	4353
2026-01-08 11:50:42.68	314.52	18.81	-50.1	-51.9	15.0	0.00e+00	0	25	0	957349888	66	4413
2026-01-08 11:50:43.65	314.70	18.73	-50.2	-51.9	15.0	0.00e+00	0	25	0	959447040	66	4416
2026-01-08 11:50:44.62	314.88	18.65	-50.2	-52.0	14.9	0.00e+00	0	25	0	961544192	66	4453
2026-01-08 11:50:45.59	315.05	18.58	-50.4	-52.2	14.8	0.00e+00	0	25	0	962592768	66	4576
2026-01-08 11:50:46.56	315.23	18.50	-50.7	-52.6	14.7	0.00e+00	0	25	0	964689920	66	4767
2026-01-08 11:50:47.52	315.40	18.42	-51.0	-53.0	14.6	0.00e+00	0	25	0	966787072	67	4738
2026-01-08 11:50:48.49	315.58	18.34	-51.0	-53.0	14.6	0.00e+00	0	25	0	967835648	67	4758
2026-01-08 11:50:49.46	315.75	18.27	-51.1	-53.2	14.5	0.00e+00	0	25	0	969932800	67	4825
2026-01-08 11:50:50.44	315.92	18.19	-51.1	-53.1	14.6	0.00e+00	0	25	0	972029952	67	4768
2026-01-08 11:50:51.41	316.09	18.11	-50.7	-52.6	14.8	0.00e+00	0	25	0	974127104	67	4527
2026-01-08 11:50:52.38	316.26	18.03	-50.7	-52.5	14.9	0.00e+00	0	25	0	975175680	67	4481
2026-01-08 11:50:53.35	316.43	17.96	-50.3	-52.1	15.1	0.00e+00	0	25	0	977272832	67	4259
2026-01-08 11:50:54.32	316.60	17.88	-50.3	-52.1	15.1	0.00e+00	0	25	0	979369984	67	4254
2026-01-08 11:50:55.30	316.77	17.80	-50.3	-52.1	15.1	0.00e+00	0	25	0	981467136	67	4259
2026-01-08 11:50:56.29	316.94	17.72	-50.6	-52.4	14.9	0.00e+00	0	25	0	982515712	67	4422
2026-01-08 11:50:57.27	317.11	17.64	-50.9	-52.8	14.7	0.00e+00	0	25	0	984612864	67	4613
2026-01-08 11:50:58.26	317.28	17.56	-51.0	-53.0	14.6	0.00e+00	0	25	0	986710016	67	4714
2026-01-08 11:50:59.24	317.44	17.49	-51.1	-53.1	14.6	0.00e+00	0	25	0	988807168	67	4805
2026-01-08 11:51:00.22	317.61	17.41	-51.0	-53.0	14.6	0.00e+00	0	25	0	990904320	67	4711
2026-01-08 11:51:01.20	317.77	17.33	-50.8	-52.7	14.7	0.00e+00	0	25	0	991952896	67	4571
2026-01-08 11:51:02.18	317.94	17.25	-50.5	-52.4	14.9	0.00e+00	0	25	0	994050048	67	4396
2026-01-08 11:51:03.16	318.10	17.17	-50.5	-52.2	15.0	0.00e+00	0	25	0	996147200	67	4338
2026-01-08 11:51:04.15	318.26	17.10	-50.3	-52.0	15.1	0.00e+00	0	25	0	997195776	67	4241
2026-01-08 11:51:05.13	318.42	17.02	-50.4	-52.1	15.0	0.00e+00	0	25	0	999292928	67	4276
2026-01-08 11:51:06.11	318.59	16.94	-50.4	-52.2	15.0	0.00e+00	0	25	0	1001390080	67	4296
2026-01-08 11:51:07.10	318.75	16.86	-50.6	-52.4	14.8	0.00e+00	0	25	0	1003487232	67	4439
2026-01-08 11:51:08.10	318.91	16.78	-50.8	-52.8	14.7	0.00e+00	0	25	0	1005584384	67	4601
2026-01-08 11:51:09.10	319.07	16.70	-50.7	-52.6	14.8	0.00e+00	0	25	0	1006632960	67	4513
2026-01-08 11:51:10.11	319.23	16.62	-50.7	-52.6	14.8	0.00e+00	0	25	0	1008730112	67	4520
2026-01-08 11:51:11.10	319.39	16.54	-50.7	-52.6	14.8	0.00e+00	0	25	0	1010827264	67	4533
2026-01-08 11:51:12.09	319.55	16.47	-50.7	-52.6	14.8	0.00e+00	0	25	0	1012924416	67	4513
2026-01-08 11:51:13.08	319.70	16.39	-50.5	-52.3	14.9	0.00e+00	0	25	0	1013972992	67	4342
2026-01-08 11:51:14.08	319.86	16.31	-50.4	-52.2	15.0	0.00e+00	0	25	0	1016070144	67	4312
2026-01-08 11:51:15.08	320.02	16.23	-50.5	-52.3	14.9	0.00e+00	0	25	0	1018167296	67	4377
2026-01-08 11:51:16.07	320.17	16.15	-50.7	-52.5	14.8	0.00e+00	0	25	0	1020264448	67	4477
2026-01-08 11:51:17.07	320.32	16.07	-50.9	-52.8	14.7	0.00e+00	0	25	0	1022361600	67	4609
2026-01-08 11:51:18.06	320.48	15.99	-51.1	-53.1	14.6	0.00e+00	0	25	0	1023410176	67	4760
2026-01-08 11:51:19.06	320.63	15.91	-51.7	-53.8	14.4	0.00e+00	0	25	0	1025507328	68	4898
2026-01-08 11:51:20.05	320.78	15.84	-51.9	-54.1	14.3	0.00e+00	0	24	0	1027604480	68	5047
2026-01-08 11:51:21.04	320.93	15.76	-52.0	-54.3	14.3	0.00e+00	0	25	0	1029701632	69	4893
2026-01-08 11:51:22.03	321.08	15.68	-52.0	-54.3	14.3	0.00e+00	0	25	0	1030750208	69	4877
2026-01-08 11:51:23.03	321.23	15.60	-52.0	-54.2	14.3	0.00e+00	0	25	0	1032847360	69	4868
2026-01-08 11:51:24.02	321.38	15.53	-51.9	-54.1	14.4	0.00e+00	0	25	0	1034944512	69	4767
2026-01-08 11:51:25.01	321.52	15.45	-51.9	-54.1	14.4	0.00e+00	0	25	0	1037041664	69	4780
2026-01-08 11:51:26.00	321.67	15.37	-51.8	-54.0	14.4	0.00e+00	0	25	0	1039138816	69	4731
2026-01-08 11:51:26.99	321.82	15.29	-51.8	-54.0	14.4	0.00e+00	0	25	0	1040187392	69	4736
2026-01-08 11:51:27.98	321.96	15.22	-51.7	-53.8	14.5	0.00e+00	0	25	0	1042284544	69	4623
2026-01-08 11:51:28.98	322.11	15.14	-51.6	-53.6	14.6	0.00e+00	0	25	0	1044381696	69	4536
2026-01-08 11:51:29.98	322.25	15.06	-51.3	-53.2	14.8	0.00e+00	0	25	0	1046478848	69	4335
2026-01-08 11:51:30.98	322.40	14.98	-51.1	-53.0	14.7	0.00e+00	0	25	0	1047527424	68	4487
2026-01-08 11:51:31.99	322.54	14.90	-51.0	-52.9	14.8	0.00e+00	0	25	0	1049624576	68	4431
2026-01-08 11:51:33.00	322.69	14.82	-50.9	-52.8	14.9	0.00e+00	0	25	0	1051721728	68	4345
2026-01-08 11:51:34.08	322.84	14.74	-50.4	-52.2	14.9	0.00e+00	0	25	0	1053818880	67	4319
2026-01-08 11:51:34.94	322.96	14.67	-50.3	-52.0	15.0	0.00e+00	0	25	0	1054867456	67	4234
2026-01-08 11:51:36.09	323.12	14.58	-50.2	-51.9	14.9	0.00e+00	0	25	0	1058013184	66	4419
2026-01-08 11:51:36.96	323.24	14.52	-50.3	-52.0	14.9	0.00e+00	0	25	0	1059061760	66	4474
2026-01-08 11:51:38.11	323.40	14.43	-50.2	-52.0	14.9	0.00e+00	0	25	0	1061158912	66	4444
2026-01-08 11:51:38.97	323.52	14.36	-50.2	-51.9	14.9	0.00e+00	0	25	0	1063256064	66	4441
2026-01-08 11:51:40.13	323.68	14.27	-50.4	-52.2	14.8	0.00e+00	0	25	0	1065353216	66	4575
2026-01-08 11:51:40.99	323.80	14.21	-50.5	-52.3	14.7	0.00e+00	0	25	0	1066401792	66	4639
2026-01-08 11:51:42.14	323.96	14.12	-50.9	-52.7	14.6	0.00e+00	0	25	0	1068498944	66	4861
2026-01-08 11:51:43.01	324.07	14.05	-51.1	-53.1	14.5	0.00e+00	0	25	0	1070596096	67	4789
2026-01-08 11:51:44.16	324.23	13.96	-51.6	-53.7	14.4	0.00e+00	0	25	0	1072693248	68	4854
2026-01-08 11:51:45.03	324.35	13.90	-51.8	-54.0	14.3	0.00e+00	0	25	0	1073741824	68	5011
2026-01-08 11:51:46.18	324.50	13.81	-52.1	-54.3	14.3	0.00e+00	0	25	0	1075838976	69	4922
2026-01-08 11:51:47.04	324.61	13.74	-52.2	-54.4	14.2	0.00e+00	0	25	0	1077936128	69	4976
2026-01-08 11:51:48.19	324.77	13.66	-52.3	-54.6	14.1	0.00e+00	0	25	0	1080033280	69	5084
2026-01-08 11:51:49.05	324.88	13.59	-52.2	-54.5	14.2	0.00e+00	0	25	0	1082130432	69	5014
2026-01-08 11:51:50.21	325.03	13.50	-52.0	-54.2	14.3	0.00e+00	0	25	0	1084227584	69	4859
2026-01-08 11:51:51.07	325.14	13.44	-52.0	-54.2	14.3	0.00e+00	0	25	0	1085276160	69	4820
2026-01-08 11:51:52.22	325.29	13.35	-51.8	-53.9	14.5	0.00e+00	0	25	0	1087373312	69	4667
2026-01-08 11:51:53.09	325.41	13.28	-51.7	-53.7	14.5	0.00e+00	0	25	0	1089470464	69	4581
2026-01-08 11:51:54.25	325.55	13.20	-51.5	-53.5	14.6	0.00e+00	0	25	0	1091567616	69	4489
2026-01-08 11:51:55.11	325.66	13.13	-51.5	-53.5	14.7	0.00e+00	0	25	0	1092616192	69	4446
2026-01-08 11:51:56.26	325.81	13.04	-51.4	-53.4	14.7	0.00e+00	0	25	0	1095761920	69	4411
2026-01-08 11:51:57.12	325.92	12.98	-51.3	-53.3	14.8	0.00e+00	0	25	0	1096810496	69	4351
2026-01-08 11:51:58.28	326.07	12.89	-51.3	-53.2	14.8	0.00e+00	0	25	0	1098907648	69	4340
2026-01-08 11:51:59.14	326.17	12.83	-51.4	-53.4	14.7	0.00e+00	0	25	0	1101004800	69	4398
2026-01-08 11:52:00.29	326.32	12.74	-51.2	-53.1	14.8	0.00e+00	0	25	0	1103101952	69	4284
2026-01-08 11:52:01.15	326.42	12.68	-51.4	-53.4	14.7	0.00e+00	0	25	0	1104150528	69	4397
2026-01-08 11:52:02.30	326.56	12.59	-51.4	-53.4	14.7	0.00e+00	0	25	0	1106247680	69	4419
2026-01-08 11:52:03.17	326.67	12.53	-51.4	-53.5	14.7	0.00e+00	0	25	0	1108344832	69	4442
2026-01-08 11:52:04.32	326.81	12.44	-51.5	-53.5	14.6	0.00e+00	0	25	0	1110441984	69	4484
2026-01-08 11:52:05.19	326.92	12.38	-51.5	-53.6	14.6	0.00e+00	0	25	0	1112539136	69	4498
2026-01-08 11:52:06.34	327.06	12.29	-51.5	-53.5	14.6	0.00e+00	0	25	0	1114636288	69	4467
2026-01-08 11:52:07.21	327.16	12.23	-51.4	-53.5	14.7	0.00e+00	0	25	0	1115684864	69	4452
2026-01-08 11:52:08.36	327.30	12.14	-51.5	-53.5	14.6	0.00e+00	0	25	0	1117782016	69	4466
2026-01-08 11:52:09.22	327.40	12.08	-51.5	-53.5	14.7	0.00e+00	0	25	0	1119879168	69	4474
2026-01-08 11:52:10.37	327.54	11.99	-51.6	-53.6	14.6	0.00e+00	0	25	0	1121976320	69	4543
2026-01-08 11:52:11.23	327.64	11.93	-51.6	-53.7	14.6	0.00e+00	0	25	0	1123024896	69	4555
2026-01-08 11:52:12.39	327.78	11.84	-51.9	-54.0	14.4	0.00e+00	0	25	0	1125122048	69	4737
2026-01-08 11:52:13.25	327.88	11.78	-51.8	-54.0	14.4	0.00e+00	0	25	0	1127219200	69	4729
2026-01-08 11:52:14.40	328.01	11.70	-51.9	-54.1	14.4	0.00e+00	0	25	0	1129316352	69	4764
2026-01-08 11:52:15.27	328.11	11.63	-52.0	-54.3	14.2	0.00e+00	0	25	0	1131413504	69	4897
2026-01-08 11:52:16.41	328.24	11.55	-52.1	-54.3	14.2	0.00e+00	0	25	0	1133510656	69	4926
2026-01-08 11:52:17.27	328.34	11.49	-52.3	-54.7	14.0	0.00e+00	0	25	0	1134559232	69	5126
2026-01-08 11:52:18.43	328.47	11.40	-52.4	-54.8	13.9	0.00e+00	0	25	0	1136656384	69	5199
2026-01-08 11:52:19.29	328.57	11.34	-52.5	-54.9	14.0	0.00e+00	0	25	0	1138753536	70	4968
2026-01-08 11:52:20.45	328.70	11.26	-52.7	-55.2	13.8	0.00e+00	0	25	0	1140850688	70	5159
2026-01-08 11:52:21.31	328.80	11.19	-52.6	-55.0	13.9	0.00e+00	0	25	0	1141899264	70	5036
2026-01-08 11:52:22.46	328.93	11.11	-52.6	-55.0	14.0	0.00e+00	0	25	0	1143996416	70	5039
2026-01-08 11:52:23.32	329.03	11.05	-52.7	-55.2	13.8	0.00e+00	0	25	0	1146093568	70	5146
2026-01-08 11:52:24.48	329.15	10.96	-52.4	-54.7	14.1	0.00e+00	0	25	0	1148190720	70	4852
2026-01-08 11:52:25.34	329.25	10.90	-52.5	-54.9	14.0	0.00e+00	0	25	0	1150287872	70	4982
2026-01-08 11:52:26.49	329.38	10.82	-52.5	-54.9	14.0	0.00e+00	0	25	0	1152385024	70	4962
2026-01-08 11:52:27.35	329.47	10.76	-52.4	-54.7	14.1	0.00e+00	0	25	0	1153433600	70	4846
2026-01-08 11:52:28.50	329.59	10.68	-52.3	-54.6	14.2	0.00e+00	0	25	0	1155530752	70	4802
2026-01-08 11:52:29.36	329.69	10.61	-52.2	-54.5	14.2	0.00e+00	0	25	0	1157627904	70	4709
2026-01-08 11:52:30.51	329.81	10.53	-52.3	-54.7	14.1	0.00e+00	0	25	0	1159725056	70	4820
2026-01-08 11:52:31.38	329.91	10.47	-52.3	-54.7	14.1	0.00e+00	0	25	0	1160773632	70	4819
2026-01-08 11:52:32.53	330.03	10.39	-52.3	-54.6	14.2	0.00e+00	0	25	0	1162870784	70	4767
