passes_logs/2026/01/08/R3.2S_Murmansk/R3.2S_Murmansk__20260108_034315_NOAA_20_JPSS-1_rec.log

#Pass ID: 20260108_034315_NOAA 20 (JPSS-1)
#Satellite: NOAA 20 (JPSS-1)
#Configuration: NOAA 20
#almurnet v.1.7.20251203
#Start time: 2026-01-08 03:43:17

#Version: 2.2.20231116
#Station: R3.2S_Murmansk
#Location: 33.079688 lon 68.888172 lat
#TLE: 1 43013U 17073A   26006.30790171  .00000126  00000+0  80695-4 0  9991
#TLE: 2 43013  98.7629 307.3394 0001808  51.8724 308.2615 14.19533762421505

#Time	Az	El	Level	Level2	SNR	BER	BlckErr	Temp	State	Recorded	gain1	gain2
2026-01-08 03:43:17.53	44.08	2.10	-57.4	-73.4	3.8	1.49e+00	0	23	0	0	81	22206
2026-01-08 03:43:18.52	44.02	2.16	-57.4	-73.4	3.8	1.49e+00	0	23	104	0	79	24779
2026-01-08 03:43:19.52	43.97	2.22	-57.4	-73.4	3.8	1.49e+00	0	23	104	0	79	24753
2026-01-08 03:43:20.52	43.91	2.28	-57.4	-73.4	3.8	1.49e+00	0	23	104	0	79	24789
2026-01-08 03:43:21.52	43.85	2.34	-57.4	-73.4	3.8	1.49e+00	0	23	104	0	79	24799
2026-01-08 03:43:22.51	43.80	2.39	-57.3	-73.4	3.8	1.49e+00	0	23	104	0	79	24737
2026-01-08 03:43:23.51	43.74	2.45	-57.4	-73.4	3.8	1.49e+00	0	23	104	0	79	24772
2026-01-08 03:43:24.50	43.68	2.51	-57.4	-73.4	3.8	1.49e+00	0	23	104	0	79	24829
2026-01-08 03:43:25.50	43.62	2.57	-57.3	-73.4	3.8	1.49e+00	0	23	104	0	79	24773
2026-01-08 03:43:26.51	43.56	2.63	-57.3	-73.4	3.8	1.49e+00	0	23	104	0	79	24761
2026-01-08 03:43:27.51	43.50	2.69	-57.4	-73.4	3.8	1.49e+00	0	23	104	0	79	24790
2026-01-08 03:43:28.50	43.45	2.75	-57.3	-73.4	3.8	1.49e+00	0	23	104	0	79	24700
2026-01-08 03:43:29.49	43.39	2.81	-57.3	-73.4	3.8	1.49e+00	0	23	104	0	79	24796
2026-01-08 03:43:30.49	43.33	2.87	-57.4	-73.4	3.8	1.49e+00	0	23	104	0	79	24728
2026-01-08 03:43:31.48	43.27	2.93	-57.3	-73.4	3.8	1.49e+00	0	23	104	0	79	24747
2026-01-08 03:43:32.47	43.21	2.99	-57.4	-73.4	3.8	1.49e+00	0	23	104	0	79	24731
2026-01-08 03:43:33.47	43.15	3.05	-57.3	-73.4	3.8	1.49e+00	0	23	104	0	79	24800
2026-01-08 03:43:34.46	43.09	3.11	-57.4	-73.4	3.8	1.49e+00	0	23	104	0	79	24815
2026-01-08 03:43:35.46	43.03	3.17	-57.3	-73.4	3.8	1.49e+00	0	23	104	0	79	24755
2026-01-08 03:43:36.45	42.97	3.22	-57.3	-73.4	3.8	1.49e+00	0	23	104	0	79	24705
2026-01-08 03:43:37.45	42.91	3.29	-57.3	-73.3	3.8	1.49e+00	0	23	104	0	79	24628
2026-01-08 03:43:38.44	42.84	3.34	-57.3	-73.3	3.8	1.49e+00	0	23	104	0	79	24660
2026-01-08 03:43:39.44	42.78	3.41	-57.4	-73.3	3.8	1.49e+00	0	23	104	0	79	24551
2026-01-08 03:43:40.44	42.72	3.47	-57.4	-73.3	3.8	1.49e+00	0	23	104	0	79	24548
2026-01-08 03:43:41.44	42.66	3.53	-57.3	-73.3	3.8	1.49e+00	0	23	104	0	79	24594
2026-01-08 03:43:42.43	42.60	3.59	-57.3	-73.3	3.8	1.49e+00	0	23	104	0	79	24584
2026-01-08 03:43:43.42	42.53	3.65	-57.4	-73.4	3.8	1.49e+00	0	23	104	0	79	24709
2026-01-08 03:43:44.43	42.47	3.71	-57.3	-73.4	3.8	1.49e+00	0	23	104	0	79	24723
2026-01-08 03:43:45.42	42.41	3.77	-57.3	-73.4	3.8	1.49e+00	0	24	104	0	79	24805
2026-01-08 03:43:46.43	42.34	3.83	-57.3	-73.4	3.8	1.49e+00	0	24	104	0	79	24771
2026-01-08 03:43:47.43	42.28	3.89	-57.3	-73.4	3.8	1.49e+00	0	23	104	0	79	24740
2026-01-08 03:43:48.43	42.21	3.95	-57.4	-73.3	3.8	1.49e+00	0	24	104	0	79	24542
2026-01-08 03:43:49.44	42.15	4.02	-57.3	-73.4	3.8	1.49e+00	0	24	104	0	79	24702
2026-01-08 03:43:50.43	42.08	4.08	-57.3	-73.4	3.8	1.49e+00	0	24	104	0	79	24738
2026-01-08 03:43:51.41	42.02	4.14	-57.3	-73.4	3.8	1.49e+00	0	24	104	0	79	24795
2026-01-08 03:43:52.42	41.95	4.20	-57.3	-73.4	3.8	1.49e+00	0	24	104	0	79	24703
2026-01-08 03:43:53.42	41.89	4.26	-57.3	-73.2	3.8	1.49e+00	0	23	104	0	79	24213
2026-01-08 03:43:54.41	41.82	4.32	-57.3	-73.0	3.8	1.49e+00	0	24	104	0	79	23678
2026-01-08 03:43:55.42	41.76	4.39	-57.3	-72.6	3.8	1.49e+00	0	24	104	0	79	22644
2026-01-08 03:43:56.42	41.69	4.45	-57.3	-72.2	3.8	1.49e+00	0	23	104	0	79	21628
2026-01-08 03:43:57.42	41.62	4.51	-57.3	-71.7	3.8	1.49e+00	0	24	104	0	79	20333
2026-01-08 03:43:58.41	41.55	4.57	-57.3	-71.0	4.0	1.49e+00	0	24	104	0	79	18921
2026-01-08 03:43:59.41	41.49	4.63	-57.2	-70.7	4.0	1.48e+00	0	24	0	0	79	18213
2026-01-08 03:44:00.41	41.42	4.70	-57.2	-69.8	4.2	1.44e+00	0	24	0	0	79	16462
2026-01-08 03:44:01.42	41.35	4.76	-57.1	-69.1	4.4	1.25e+00	39	24	0	0	79	15052
2026-01-08 03:44:02.41	41.28	4.82	-57.1	-68.3	4.7	9.64e-01	0	24	0	2097152	79	13877
2026-01-08 03:44:03.41	41.21	4.89	-57.0	-67.5	5.1	7.46e-01	0	24	0	4194304	79	12599
2026-01-08 03:44:04.41	41.14	4.95	-56.9	-66.4	5.8	5.24e-01	0	24	0	6291456	79	11067
2026-01-08 03:44:05.41	41.07	5.01	-56.8	-65.7	6.2	2.69e-01	0	24	0	7340032	79	10284
2026-01-08 03:44:06.41	41.00	5.07	-56.9	-65.5	6.4	2.33e-01	0	24	0	9437184	79	10024
2026-01-08 03:44:07.40	40.93	5.14	-57.4	-70.0	4.2	1.25e+00	0	24	0	10485760	80	15819
2026-01-08 03:44:08.40	40.86	5.20	-57.0	-66.8	5.4	1.03e+00	0	24	0	11534336	80	11003
2026-01-08 03:44:09.40	40.79	5.26	-56.4	-63.3	8.0	1.95e-01	0	24	0	13631488	79	7795
2026-01-08 03:44:10.40	40.72	5.33	-56.1	-62.4	9.2	4.42e-05	0	24	0	15728640	77	7873
2026-01-08 03:44:11.39	40.65	5.39	-56.9	-67.3	5.0	1.03e+00	0	24	104	15728640	79	12235
2026-01-08 03:44:12.39	40.58	5.46	-54.7	-58.4	12.4	1.29e-05	0	24	0	16777216	76	5238
2026-01-08 03:44:13.39	40.51	5.52	-54.1	-57.4	12.8	0.00e+00	0	24	0	18874368	74	5261
2026-01-08 03:44:14.39	40.44	5.58	-54.1	-57.2	13.0	0.00e+00	0	24	0	20971520	74	5141
2026-01-08 03:44:15.38	40.36	5.65	-54.0	-57.2	13.0	0.00e+00	0	24	0	22020096	74	5104
2026-01-08 03:44:16.38	40.29	5.71	-54.1	-57.3	13.0	0.00e+00	0	24	0	24117248	74	5199
2026-01-08 03:44:17.38	40.22	5.78	-54.1	-57.3	13.0	7.00e-07	0	24	0	26214400	74	5205
2026-01-08 03:44:18.38	40.14	5.84	-54.1	-57.4	12.9	0.00e+00	0	24	0	28311552	74	5231
2026-01-08 03:44:19.39	40.07	5.91	-54.0	-57.1	13.1	7.00e-07	0	24	0	30408704	74	5056
2026-01-08 03:44:20.39	39.99	5.97	-53.9	-56.9	13.2	0.00e+00	0	24	0	31457280	74	4962
2026-01-08 03:44:21.39	39.92	6.04	-54.0	-57.1	13.1	0.00e+00	0	24	0	33554432	74	5075
2026-01-08 03:44:22.38	39.84	6.10	-54.1	-57.2	13.0	0.00e+00	0	24	0	35651584	74	5152
2026-01-08 03:44:23.38	39.77	6.17	-54.1	-57.2	13.0	0.00e+00	0	24	0	37748736	74	5140
2026-01-08 03:44:24.38	39.69	6.23	-54.0	-57.1	13.0	0.00e+00	0	24	0	38797312	74	5085
2026-01-08 03:44:25.38	39.62	6.30	-53.8	-56.8	13.3	0.00e+00	0	24	0	40894464	74	4873
2026-01-08 03:44:26.37	39.54	6.36	-53.8	-56.7	13.4	0.00e+00	0	24	0	42991616	74	4863
2026-01-08 03:44:27.36	39.46	6.43	-53.8	-56.7	13.4	0.00e+00	0	24	0	45088768	74	4855
2026-01-08 03:44:28.35	39.39	6.49	-53.9	-56.8	13.3	0.00e+00	0	24	0	47185920	74	4922
2026-01-08 03:44:29.35	39.31	6.56	-53.8	-56.7	13.4	0.00e+00	0	24	0	48234496	74	4821
2026-01-08 03:44:30.34	39.23	6.62	-53.7	-56.6	13.5	0.00e+00	0	24	0	50331648	74	4781
2026-01-08 03:44:31.33	39.15	6.69	-53.7	-56.5	13.6	0.00e+00	0	24	0	52428800	74	4741
2026-01-08 03:44:32.32	39.08	6.75	-53.7	-56.5	13.4	0.00e+00	0	24	0	54525952	73	5013
2026-01-08 03:44:33.31	39.00	6.82	-53.6	-56.4	13.5	0.00e+00	0	24	0	55574528	73	4967
2026-01-08 03:44:34.31	38.92	6.89	-53.7	-56.5	13.4	0.00e+00	0	24	0	57671680	73	5037
2026-01-08 03:44:35.30	38.84	6.95	-53.6	-56.4	13.5	0.00e+00	0	24	0	59768832	73	4949
2026-01-08 03:44:36.29	38.76	7.02	-53.6	-56.4	13.5	0.00e+00	0	24	0	61865984	73	4981
2026-01-08 03:44:37.29	38.68	7.08	-53.5	-56.3	13.5	0.00e+00	0	24	0	63963136	73	4886
2026-01-08 03:44:38.29	38.60	7.15	-53.6	-56.3	13.6	0.00e+00	0	24	0	65011712	73	4916
2026-01-08 03:44:39.28	38.52	7.22	-53.5	-56.2	13.6	0.00e+00	0	24	0	67108864	73	4856
2026-01-08 03:44:40.27	38.44	7.28	-53.6	-56.3	13.5	0.00e+00	0	24	0	69206016	73	4924
2026-01-08 03:44:41.26	38.35	7.35	-53.5	-56.2	13.6	0.00e+00	0	24	0	71303168	73	4862
2026-01-08 03:44:42.26	38.27	7.42	-53.5	-56.3	13.6	0.00e+00	0	24	0	72351744	73	4875
2026-01-08 03:44:43.26	38.19	7.49	-53.5	-56.1	13.7	0.00e+00	0	24	0	74448896	73	4813
2026-01-08 03:44:44.25	38.11	7.55	-53.4	-56.1	13.8	0.00e+00	0	24	0	76546048	73	4773
2026-01-08 03:44:45.25	38.02	7.62	-53.4	-56.1	13.7	0.00e+00	0	24	0	78643200	73	4782
2026-01-08 03:44:46.26	37.94	7.69	-53.5	-56.1	13.7	0.00e+00	0	24	0	80740352	73	4812
2026-01-08 03:44:47.26	37.85	7.76	-53.3	-55.9	13.8	0.00e+00	0	24	0	81788928	73	4693
2026-01-08 03:44:48.25	37.77	7.82	-53.3	-55.9	13.9	0.00e+00	0	24	0	83886080	73	4678
2026-01-08 03:44:49.24	37.68	7.89	-53.4	-56.0	13.8	0.00e+00	0	24	0	85983232	73	4726
2026-01-08 03:44:50.24	37.60	7.96	-53.5	-56.1	13.8	0.00e+00	0	24	0	88080384	73	4775
2026-01-08 03:44:51.25	37.51	8.03	-53.3	-55.9	13.9	0.00e+00	0	24	0	89128960	73	4665
2026-01-08 03:44:52.25	37.42	8.10	-53.3	-55.8	13.9	0.00e+00	0	24	0	91226112	73	4641
2026-01-08 03:44:53.25	37.34	8.17	-53.3	-55.9	13.9	0.00e+00	0	24	0	93323264	73	4689
2026-01-08 03:44:54.24	37.25	8.23	-53.5	-56.1	13.7	0.00e+00	0	24	0	95420416	73	4793
2026-01-08 03:44:55.24	37.16	8.30	-53.3	-55.9	13.9	0.00e+00	0	24	0	97517568	73	4662
2026-01-08 03:44:56.24	37.07	8.37	-53.4	-56.0	13.8	0.00e+00	0	24	0	98566144	73	4744
2026-01-08 03:44:57.24	36.98	8.44	-53.3	-55.9	13.9	0.00e+00	0	24	0	100663296	73	4669
2026-01-08 03:44:58.24	36.89	8.51	-53.2	-55.7	14.0	0.00e+00	0	24	0	102760448	73	4597
2026-01-08 03:44:59.24	36.80	8.58	-53.3	-55.9	13.9	0.00e+00	0	24	0	104857600	73	4665
2026-01-08 03:45:00.23	36.72	8.65	-53.4	-56.0	13.8	0.00e+00	0	24	0	106954752	73	4753
2026-01-08 03:45:01.23	36.62	8.72	-53.3	-55.9	13.9	0.00e+00	0	24	0	108003328	73	4679
2026-01-08 03:45:02.24	36.53	8.79	-53.4	-56.0	13.8	0.00e+00	0	24	0	110100480	73	4732
2026-01-08 03:45:03.24	36.44	8.86	-53.3	-55.9	13.9	0.00e+00	0	24	0	112197632	73	4671
2026-01-08 03:45:04.24	36.35	8.93	-53.4	-56.0	13.9	0.00e+00	0	24	0	114294784	73	4710
2026-01-08 03:45:05.24	36.26	9.00	-53.5	-56.1	13.8	0.00e+00	0	24	0	116391936	73	4761
2026-01-08 03:45:06.23	36.16	9.07	-53.3	-55.9	13.9	0.00e+00	0	24	0	117440512	73	4665
2026-01-08 03:45:07.23	36.07	9.14	-53.4	-55.9	13.9	0.00e+00	0	24	0	119537664	73	4699
2026-01-08 03:45:08.23	35.98	9.21	-53.5	-56.0	13.8	0.00e+00	0	24	0	121634816	73	4750
2026-01-08 03:45:09.24	35.88	9.28	-53.4	-56.0	13.8	0.00e+00	0	24	0	123731968	73	4741
2026-01-08 03:45:10.23	35.79	9.35	-53.4	-55.9	13.9	0.00e+00	0	24	0	124780544	73	4701
2026-01-08 03:45:11.23	35.69	9.42	-53.4	-56.0	13.9	0.00e+00	0	24	0	126877696	73	4720
2026-01-08 03:45:12.23	35.60	9.49	-53.4	-55.9	13.9	0.00e+00	0	24	0	128974848	73	4696
2026-01-08 03:45:13.22	35.50	9.56	-53.3	-55.7	14.0	0.00e+00	0	24	0	131072000	73	4598
2026-01-08 03:45:14.22	35.40	9.64	-53.3	-55.8	14.0	0.00e+00	0	24	0	133169152	73	4645
2026-01-08 03:45:15.22	35.31	9.71	-53.3	-55.8	14.0	0.00e+00	0	24	0	134217728	73	4600
2026-01-08 03:45:16.22	35.21	9.78	-53.4	-55.9	13.9	0.00e+00	0	24	0	136314880	73	4662
2026-01-08 03:45:17.22	35.11	9.85	-53.4	-55.9	13.9	0.00e+00	0	24	0	138412032	73	4685
2026-01-08 03:45:18.22	35.01	9.92	-53.4	-55.9	13.9	0.00e+00	0	24	0	140509184	73	4661
2026-01-08 03:45:19.22	34.91	9.99	-53.5	-56.0	13.9	0.00e+00	0	24	0	141557760	73	4737
2026-01-08 03:45:20.21	34.81	10.07	-53.3	-55.8	14.0	0.00e+00	0	24	0	143654912	73	4641
2026-01-08 03:45:21.22	34.71	10.14	-53.3	-55.8	14.0	0.00e+00	0	24	0	145752064	73	4633
2026-01-08 03:45:22.22	34.61	10.21	-53.3	-55.8	14.0	0.00e+00	0	24	0	147849216	73	4601
2026-01-08 03:45:23.22	34.51	10.28	-53.2	-55.6	14.1	0.00e+00	0	24	0	149946368	73	4539
2026-01-08 03:45:24.22	34.41	10.36	-53.3	-55.7	14.0	0.00e+00	0	24	0	150994944	73	4593
2026-01-08 03:45:25.21	34.31	10.43	-53.3	-55.8	14.0	0.00e+00	0	24	0	153092096	73	4615
2026-01-08 03:45:26.22	34.20	10.50	-53.3	-55.7	14.0	0.00e+00	0	24	0	155189248	73	4598
2026-01-08 03:45:27.21	34.10	10.57	-53.3	-55.7	14.0	0.00e+00	0	24	0	157286400	73	4579
2026-01-08 03:45:28.21	34.00	10.65	-53.3	-55.7	14.0	0.00e+00	0	24	0	159383552	73	4595
2026-01-08 03:45:29.20	33.89	10.72	-53.3	-55.8	14.0	0.00e+00	0	24	0	160432128	73	4640
2026-01-08 03:45:30.21	33.79	10.79	-53.3	-55.8	14.0	0.00e+00	0	24	0	162529280	73	4616
2026-01-08 03:45:31.21	33.68	10.87	-53.2	-55.7	14.1	0.00e+00	0	24	0	164626432	73	4557
2026-01-08 03:45:32.20	33.58	10.94	-53.3	-55.8	14.0	0.00e+00	0	24	0	166723584	73	4635
2026-01-08 03:45:33.20	33.47	11.01	-53.4	-55.9	13.9	0.00e+00	0	24	0	167772160	73	4654
2026-01-08 03:45:34.19	33.36	11.08	-53.4	-55.9	14.0	0.00e+00	0	24	0	169869312	73	4660
2026-01-08 03:45:35.19	33.26	11.16	-53.5	-56.0	13.9	0.00e+00	0	24	0	171966464	73	4726
2026-01-08 03:45:36.18	33.15	11.23	-53.4	-55.8	14.0	0.00e+00	0	24	0	174063616	73	4629
2026-01-08 03:45:37.19	33.04	11.31	-53.3	-55.7	14.1	0.00e+00	0	24	0	176160768	73	4556
2026-01-08 03:45:38.18	32.93	11.38	-53.2	-55.6	14.1	0.00e+00	0	24	0	177209344	73	4519
2026-01-08 03:45:39.18	32.82	11.45	-53.3	-55.8	14.1	0.00e+00	0	24	0	179306496	73	4611
2026-01-08 03:45:40.18	32.71	11.53	-53.3	-55.7	14.0	0.00e+00	0	24	0	181403648	73	4593
2026-01-08 03:45:41.18	32.60	11.60	-53.2	-55.6	14.1	0.00e+00	0	24	0	183500800	73	4528
2026-01-08 03:45:42.17	32.49	11.68	-53.1	-55.4	14.1	0.00e+00	0	25	0	184549376	72	4699
2026-01-08 03:45:43.17	32.38	11.75	-53.1	-55.5	14.1	0.00e+00	0	24	0	186646528	72	4722
2026-01-08 03:45:44.17	32.26	11.83	-53.1	-55.4	14.1	0.00e+00	0	24	0	188743680	72	4655
2026-01-08 03:45:45.17	32.15	11.90	-53.0	-55.3	14.2	0.00e+00	0	24	0	190840832	72	4615
2026-01-08 03:45:46.17	32.03	11.98	-52.9	-55.2	14.3	0.00e+00	0	24	0	192937984	72	4561
2026-01-08 03:45:47.17	31.92	12.05	-52.9	-55.1	14.3	0.00e+00	0	24	0	195035136	72	4519
2026-01-08 03:45:48.17	31.80	12.13	-52.9	-55.1	14.3	0.00e+00	0	24	0	196083712	72	4510
2026-01-08 03:45:49.17	31.69	12.20	-52.9	-55.1	14.3	0.00e+00	0	24	0	198180864	72	4512
2026-01-08 03:45:50.17	31.57	12.28	-52.9	-55.1	14.3	0.00e+00	0	24	0	200278016	72	4508
2026-01-08 03:45:51.17	31.45	12.35	-52.9	-55.2	14.3	0.00e+00	0	24	0	202375168	72	4565
2026-01-08 03:45:52.16	31.34	12.43	-52.9	-55.1	14.3	0.00e+00	0	24	0	203423744	72	4533
2026-01-08 03:45:53.16	31.22	12.51	-52.9	-55.1	14.3	0.00e+00	0	24	0	205520896	72	4505
2026-01-08 03:45:54.16	31.10	12.58	-52.9	-55.2	14.3	0.00e+00	0	24	0	207618048	72	4550
2026-01-08 03:45:55.16	30.98	12.66	-52.8	-55.0	14.3	0.00e+00	0	24	0	209715200	72	4482
2026-01-08 03:45:56.17	30.86	12.74	-52.9	-55.1	14.3	0.00e+00	0	24	0	211812352	72	4537
2026-01-08 03:45:57.16	30.74	12.81	-52.9	-55.1	14.3	0.00e+00	0	24	0	212860928	72	4510
2026-01-08 03:45:58.16	30.62	12.89	-52.8	-55.0	14.4	0.00e+00	0	24	0	214958080	72	4454
2026-01-08 03:45:59.16	30.50	12.96	-52.9	-55.1	14.3	0.00e+00	0	24	0	217055232	72	4508
2026-01-08 03:46:00.16	30.37	13.04	-52.9	-55.1	14.3	0.00e+00	0	24	0	219152384	72	4523
2026-01-08 03:46:01.17	30.25	13.12	-53.0	-55.2	14.3	0.00e+00	0	24	0	220200960	72	4570
2026-01-08 03:46:02.17	30.12	13.20	-53.0	-55.2	14.3	0.00e+00	0	25	0	222298112	72	4565
2026-01-08 03:46:03.16	30.00	13.27	-52.9	-55.2	14.3	0.00e+00	0	24	0	224395264	72	4547
2026-01-08 03:46:04.16	29.87	13.35	-52.9	-55.1	14.3	0.00e+00	0	25	0	226492416	72	4545
2026-01-08 03:46:05.16	29.75	13.43	-53.0	-55.2	14.3	0.00e+00	0	24	0	228589568	72	4562
2026-01-08 03:46:06.15	29.62	13.50	-52.9	-55.2	14.3	0.00e+00	0	24	0	229638144	72	4556
2026-01-08 03:46:07.15	29.49	13.58	-52.9	-55.1	14.3	0.00e+00	0	24	0	231735296	72	4531
2026-01-08 03:46:08.15	29.37	13.66	-53.0	-55.2	14.3	0.00e+00	0	25	0	233832448	72	4563
2026-01-08 03:46:09.14	29.24	13.73	-52.9	-55.1	14.3	0.00e+00	0	24	0	235929600	72	4500
2026-01-08 03:46:10.14	29.11	13.81	-52.8	-55.0	14.4	0.00e+00	0	24	0	238026752	72	4460
2026-01-08 03:46:11.14	28.98	13.89	-52.9	-55.0	14.4	0.00e+00	0	24	0	239075328	72	4487
2026-01-08 03:46:12.15	28.85	13.97	-52.8	-55.0	14.4	0.00e+00	0	24	0	241172480	72	4450
2026-01-08 03:46:13.14	28.72	14.05	-52.7	-54.8	14.4	0.00e+00	0	24	0	243269632	71	4612
2026-01-08 03:46:14.14	28.58	14.12	-52.6	-54.8	14.4	0.00e+00	0	24	0	245366784	71	4608
2026-01-08 03:46:15.14	28.45	14.20	-52.7	-54.9	14.3	0.00e+00	0	25	0	247463936	71	4654
2026-01-08 03:46:16.12	28.32	14.28	-52.7	-54.8	14.4	0.00e+00	0	24	0	248512512	71	4627
2026-01-08 03:46:17.13	28.18	14.36	-52.7	-54.9	14.3	0.00e+00	0	25	0	250609664	71	4664
2026-01-08 03:46:18.13	28.05	14.44	-52.8	-54.9	14.3	0.00e+00	0	25	0	252706816	71	4686
2026-01-08 03:46:19.12	27.91	14.52	-52.7	-54.8	14.4	0.00e+00	0	24	0	254803968	71	4623
2026-01-08 03:46:20.13	27.77	14.59	-52.6	-54.7	14.4	0.00e+00	0	24	0	255852544	71	4560
2026-01-08 03:46:21.13	27.64	14.67	-52.6	-54.8	14.4	0.00e+00	0	24	0	257949696	71	4603
2026-01-08 03:46:22.14	27.50	14.75	-52.5	-54.6	14.5	0.00e+00	0	24	0	260046848	71	4529
2026-01-08 03:46:23.14	27.36	14.83	-52.5	-54.5	14.5	0.00e+00	0	24	0	262144000	71	4486
2026-01-08 03:46:24.14	27.22	14.91	-52.5	-54.5	14.5	0.00e+00	0	24	0	264241152	71	4487
2026-01-08 03:46:25.14	27.08	14.99	-52.4	-54.4	14.6	0.00e+00	0	25	0	265289728	71	4425
2026-01-08 03:46:26.13	26.94	15.07	-52.4	-54.5	14.6	0.00e+00	0	25	0	267386880	71	4452
2026-01-08 03:46:27.13	26.79	15.15	-52.3	-54.3	14.7	0.00e+00	0	25	0	269484032	71	4358
2026-01-08 03:46:28.12	26.65	15.23	-52.3	-54.3	14.6	0.00e+00	0	25	0	271581184	71	4345
2026-01-08 03:46:29.12	26.51	15.31	-52.3	-54.2	14.7	0.00e+00	0	24	0	272629760	71	4333
2026-01-08 03:46:30.11	26.37	15.38	-52.2	-54.1	14.6	0.00e+00	0	25	0	274726912	70	4528
2026-01-08 03:46:31.10	26.22	15.46	-52.2	-54.2	14.5	0.00e+00	0	25	0	276824064	70	4575
2026-01-08 03:46:32.10	26.08	15.54	-52.3	-54.3	14.5	0.00e+00	0	25	0	278921216	70	4622
2026-01-08 03:46:33.10	25.93	15.62	-52.3	-54.2	14.5	0.00e+00	0	25	0	281018368	70	4589
2026-01-08 03:46:34.08	25.78	15.70	-52.3	-54.3	14.5	0.00e+00	0	24	0	282066944	70	4643
2026-01-08 03:46:35.08	25.64	15.78	-52.2	-54.2	14.6	0.00e+00	0	25	0	284164096	70	4558
2026-01-08 03:46:36.07	25.49	15.86	-52.3	-54.3	14.5	0.00e+00	0	24	0	286261248	70	4630
2026-01-08 03:46:37.06	25.34	15.94	-52.3	-54.3	14.5	0.00e+00	0	25	0	288358400	70	4618
2026-01-08 03:46:38.05	25.19	16.02	-52.3	-54.3	14.5	0.00e+00	0	25	0	289406976	70	4624
2026-01-08 03:46:39.04	25.04	16.10	-52.3	-54.3	14.5	0.00e+00	0	24	0	291504128	70	4642
2026-01-08 03:46:40.04	24.89	16.18	-52.2	-54.2	14.6	0.00e+00	0	25	0	293601280	70	4573
2026-01-08 03:46:41.02	24.74	16.26	-52.2	-54.2	14.5	0.00e+00	0	25	0	295698432	70	4555
2026-01-08 03:46:42.02	24.58	16.34	-52.2	-54.2	14.6	0.00e+00	0	25	0	297795584	70	4558
2026-01-08 03:46:43.01	24.43	16.42	-52.1	-54.0	14.7	0.00e+00	0	25	0	298844160	70	4482
2026-01-08 03:46:44.01	24.27	16.50	-52.2	-54.1	14.6	0.00e+00	0	25	0	300941312	70	4534
2026-01-08 03:46:45.01	24.12	16.58	-52.2	-54.2	14.6	0.00e+00	0	25	0	303038464	70	4549
2026-01-08 03:46:46.01	23.96	16.66	-52.2	-54.2	14.6	0.00e+00	0	24	0	305135616	70	4546
2026-01-08 03:46:47.00	23.80	16.74	-52.2	-54.2	14.6	0.00e+00	0	24	0	306184192	70	4570
2026-01-08 03:46:48.00	23.64	16.82	-52.3	-54.2	14.6	0.00e+00	0	24	0	308281344	70	4578
2026-01-08 03:46:49.00	23.48	16.90	-52.1	-54.0	14.7	0.00e+00	0	25	0	310378496	70	4481
2026-01-08 03:46:49.99	23.32	16.98	-52.2	-54.2	14.5	0.00e+00	0	25	0	312475648	70	4570
2026-01-08 03:46:51.00	23.16	17.06	-52.2	-54.2	14.5	0.00e+00	0	24	0	314572800	70	4577
2026-01-08 03:46:51.99	23.00	17.14	-52.1	-54.1	14.6	0.00e+00	0	24	0	315621376	70	4501
2026-01-08 03:46:52.98	22.84	17.22	-52.2	-54.2	14.6	0.00e+00	0	24	0	317718528	70	4556
2026-01-08 03:46:53.98	22.67	17.30	-52.2	-54.2	14.6	0.00e+00	0	25	0	319815680	70	4572
2026-01-08 03:46:54.97	22.51	17.38	-52.2	-54.2	14.6	0.00e+00	0	24	0	321912832	70	4550
2026-01-08 03:46:55.96	22.34	17.46	-52.3	-54.2	14.5	0.00e+00	0	24	0	322961408	70	4581
2026-01-08 03:46:56.96	22.18	17.54	-52.3	-54.2	14.6	0.00e+00	0	25	0	325058560	70	4596
2026-01-08 03:46:57.97	22.01	17.62	-52.3	-54.3	14.5	0.00e+00	0	24	0	327155712	70	4600
2026-01-08 03:46:58.97	21.84	17.70	-52.5	-54.5	14.4	0.00e+00	0	25	0	329252864	70	4714
2026-01-08 03:46:59.97	21.67	17.78	-52.5	-54.5	14.4	0.00e+00	0	24	0	331350016	70	4717
2026-01-08 03:47:00.96	21.50	17.86	-52.5	-54.6	14.4	0.00e+00	0	25	0	332398592	70	4774
2026-01-08 03:47:01.96	21.33	17.94	-52.6	-54.7	14.3	0.00e+00	0	25	0	334495744	70	4816
2026-01-08 03:47:02.96	21.15	18.02	-52.6	-54.6	14.4	0.00e+00	0	25	0	336592896	70	4786
2026-01-08 03:47:03.96	20.98	18.11	-52.5	-54.6	14.4	0.00e+00	0	25	0	338690048	70	4775
2026-01-08 03:47:04.96	20.80	18.19	-52.6	-54.7	14.3	0.00e+00	0	25	0	340787200	70	4818
2026-01-08 03:47:05.96	20.63	18.27	-52.5	-54.6	14.4	0.00e+00	0	25	0	341835776	70	4760
2026-01-08 03:47:06.96	20.45	18.35	-52.4	-54.4	14.4	0.00e+00	0	25	0	343932928	70	4695
2026-01-08 03:47:07.95	20.28	18.43	-52.5	-54.5	14.4	0.00e+00	0	25	0	346030080	70	4726
2026-01-08 03:47:08.96	20.10	18.51	-52.5	-54.6	14.4	0.00e+00	0	25	0	348127232	70	4768
2026-01-08 03:47:09.96	19.92	18.59	-52.4	-54.4	14.4	0.00e+00	0	24	0	349175808	70	4699
2026-01-08 03:47:10.95	19.74	18.67	-52.4	-54.4	14.5	0.00e+00	0	24	0	351272960	70	4658
2026-01-08 03:47:11.95	19.56	18.75	-52.5	-54.5	14.4	0.00e+00	0	25	0	353370112	70	4707
2026-01-08 03:47:12.95	19.37	18.83	-52.4	-54.3	14.5	0.00e+00	0	25	0	355467264	70	4648
2026-01-08 03:47:13.95	19.19	18.91	-52.4	-54.4	14.5	0.00e+00	0	25	0	357564416	70	4680
2026-01-08 03:47:14.96	19.01	18.99	-52.4	-54.3	14.5	0.00e+00	0	24	0	358612992	70	4634
2026-01-08 03:47:15.96	18.82	19.07	-52.5	-54.5	14.4	0.00e+00	0	24	0	360710144	70	4735
2026-01-08 03:47:16.96	18.63	19.15	-52.5	-54.5	14.4	0.00e+00	0	25	0	362807296	70	4711
2026-01-08 03:47:17.95	18.45	19.23	-52.5	-54.5	14.4	0.00e+00	0	25	0	364904448	70	4756
2026-01-08 03:47:18.94	18.26	19.31	-52.5	-54.5	14.4	0.00e+00	0	25	0	367001600	70	4713
2026-01-08 03:47:19.94	18.07	19.39	-52.5	-54.6	14.4	0.00e+00	0	25	0	368050176	70	4787
2026-01-08 03:47:20.93	17.88	19.47	-52.6	-54.6	14.4	0.00e+00	0	25	0	370147328	70	4804
2026-01-08 03:47:21.93	17.69	19.55	-52.5	-54.5	14.4	0.00e+00	0	25	0	372244480	70	4751
2026-01-08 03:47:22.93	17.50	19.63	-52.6	-54.6	14.4	0.00e+00	0	25	0	374341632	70	4813
2026-01-08 03:47:23.93	17.31	19.71	-52.5	-54.5	14.4	0.00e+00	0	24	0	376438784	70	4743
2026-01-08 03:47:24.92	17.11	19.79	-52.5	-54.5	14.4	0.00e+00	0	24	0	377487360	70	4743
2026-01-08 03:47:25.92	16.92	19.87	-52.4	-54.3	14.5	0.00e+00	0	25	0	379584512	70	4640
2026-01-08 03:47:26.92	16.72	19.95	-52.3	-54.2	14.6	0.00e+00	0	25	0	381681664	70	4592
2026-01-08 03:47:27.91	16.53	20.03	-52.2	-54.1	14.7	0.00e+00	0	25	0	383778816	70	4503
2026-01-08 03:47:28.91	16.33	20.11	-52.2	-54.1	14.7	0.00e+00	0	25	0	384827392	70	4502
2026-01-08 03:47:29.91	16.13	20.18	-52.2	-54.2	14.6	0.00e+00	0	25	0	386924544	70	4546
2026-01-08 03:47:30.91	15.93	20.26	-52.1	-54.0	14.7	0.00e+00	0	25	0	389021696	70	4466
2026-01-08 03:47:31.90	15.73	20.34	-52.1	-54.0	14.7	0.00e+00	0	25	0	391118848	70	4483
2026-01-08 03:47:32.89	15.53	20.42	-52.1	-54.0	14.7	0.00e+00	0	25	0	393216000	70	4476
2026-01-08 03:47:33.90	15.32	20.50	-52.1	-53.9	14.7	0.00e+00	0	25	0	394264576	70	4429
2026-01-08 03:47:34.90	15.12	20.58	-52.0	-53.9	14.8	0.00e+00	0	25	0	396361728	70	4396
2026-01-08 03:47:35.89	14.91	20.66	-52.0	-53.9	14.8	0.00e+00	0	24	0	398458880	70	4405
2026-01-08 03:47:36.89	14.71	20.73	-51.9	-53.8	14.8	0.00e+00	0	24	0	400556032	70	4352
2026-01-08 03:47:37.89	14.50	20.81	-52.0	-53.9	14.8	0.00e+00	0	25	0	401604608	70	4403
2026-01-08 03:47:38.87	14.29	20.89	-52.0	-53.8	14.8	0.00e+00	0	25	0	403701760	70	4353
2026-01-08 03:47:39.87	14.08	20.97	-51.8	-53.6	14.9	0.00e+00	0	25	0	405798912	70	4280
2026-01-08 03:47:40.87	13.87	21.04	-51.7	-53.5	14.9	0.00e+00	0	25	0	407896064	70	4199
2026-01-08 03:47:41.86	13.66	21.12	-51.7	-53.5	15.0	0.00e+00	0	24	0	409993216	70	4219
2026-01-08 03:47:42.85	13.45	21.20	-51.6	-53.3	14.9	0.00e+00	0	25	0	411041792	69	4385
2026-01-08 03:47:43.85	13.24	21.27	-51.7	-53.4	14.9	0.00e+00	0	25	0	413138944	69	4422
2026-01-08 03:47:44.85	13.02	21.35	-51.6	-53.4	14.9	0.00e+00	0	25	0	415236096	69	4392
2026-01-08 03:47:45.84	12.81	21.43	-51.5	-53.3	14.9	0.00e+00	0	24	0	417333248	69	4360
2026-01-08 03:47:46.85	12.59	21.50	-51.6	-53.3	14.9	0.00e+00	0	24	0	418381824	69	4384
2026-01-08 03:47:47.84	12.37	21.58	-51.5	-53.2	14.9	0.00e+00	0	24	0	420478976	69	4307
2026-01-08 03:47:48.84	12.15	21.65	-51.5	-53.3	14.9	0.00e+00	0	25	0	422576128	69	4350
2026-01-08 03:47:49.84	11.93	21.73	-51.4	-53.1	15.0	0.00e+00	0	25	0	424673280	69	4288
2026-01-08 03:47:50.83	11.71	21.80	-51.1	-52.7	15.0	0.00e+00	0	25	0	426770432	68	4339
2026-01-08 03:47:51.83	11.49	21.88	-50.9	-52.5	15.1	0.00e+00	0	24	0	427819008	68	4222
2026-01-08 03:47:52.83	11.26	21.95	-50.9	-52.5	15.1	0.00e+00	0	25	0	429916160	68	4240
2026-01-08 03:47:53.83	11.04	22.03	-50.8	-52.4	15.2	0.00e+00	0	25	0	432013312	68	4171
2026-01-08 03:47:54.83	10.81	22.10	-50.9	-52.4	15.2	0.00e+00	0	25	0	434110464	68	4193
2026-01-08 03:47:55.83	10.58	22.18	-50.8	-52.4	15.2	0.00e+00	0	25	0	436207616	68	4180
2026-01-08 03:47:56.83	10.35	22.25	-50.9	-52.6	15.1	0.00e+00	0	25	0	437256192	68	4247
2026-01-08 03:47:57.83	10.12	22.33	-50.9	-52.6	15.1	0.00e+00	0	24	0	439353344	68	4245
2026-01-08 03:47:58.83	9.89	22.40	-50.8	-52.4	15.2	0.00e+00	0	25	0	441450496	68	4191
2026-01-08 03:47:59.82	9.66	22.47	-50.9	-52.5	15.2	0.00e+00	0	24	0	443547648	68	4194
2026-01-08 03:48:00.80	9.44	22.54	-50.8	-52.4	15.2	0.00e+00	0	25	0	444596224	68	4189
2026-01-08 03:48:01.80	9.20	22.62	-50.9	-52.5	15.1	0.00e+00	0	25	0	446693376	68	4198
2026-01-08 03:48:02.80	8.97	22.69	-50.9	-52.4	15.1	0.00e+00	0	25	0	448790528	68	4193
2026-01-08 03:48:03.79	8.73	22.76	-50.9	-52.5	15.1	0.00e+00	0	25	0	450887680	68	4210
2026-01-08 03:48:04.79	8.50	22.83	-51.0	-52.6	15.1	0.00e+00	0	25	0	452984832	68	4281
2026-01-08 03:48:05.79	8.26	22.90	-51.0	-52.7	15.0	0.00e+00	0	25	0	454033408	68	4299
2026-01-08 03:48:06.79	8.02	22.97	-51.0	-52.6	15.1	0.00e+00	0	25	0	456130560	68	4258
2026-01-08 03:48:07.79	7.78	23.04	-51.0	-52.6	15.1	0.00e+00	0	25	0	458227712	68	4277
2026-01-08 03:48:08.79	7.54	23.11	-50.9	-52.5	15.1	0.00e+00	0	25	0	460324864	68	4240
2026-01-08 03:48:09.79	7.29	23.18	-50.9	-52.5	15.1	0.00e+00	0	25	0	462422016	68	4201
2026-01-08 03:48:10.79	7.05	23.25	-51.0	-52.6	15.1	0.00e+00	0	25	0	463470592	68	4253
2026-01-08 03:48:11.78	6.81	23.32	-50.9	-52.5	15.2	0.00e+00	0	25	0	465567744	68	4197
2026-01-08 03:48:12.77	6.56	23.39	-50.8	-52.4	15.2	0.00e+00	0	25	0	467664896	68	4148
2026-01-08 03:48:13.77	6.31	23.46	-50.8	-52.4	15.2	0.00e+00	0	24	0	469762048	68	4164
2026-01-08 03:48:14.77	6.07	23.52	-50.8	-52.4	15.2	0.00e+00	0	25	0	470810624	68	4170
2026-01-08 03:48:15.77	5.82	23.59	-50.9	-52.4	15.2	0.00e+00	0	25	0	472907776	68	4182
2026-01-08 03:48:16.76	5.57	23.66	-50.8	-52.4	15.2	0.00e+00	0	24	0	475004928	68	4176
2026-01-08 03:48:17.76	5.32	23.73	-51.0	-52.6	15.1	0.00e+00	0	25	0	477102080	68	4245
2026-01-08 03:48:18.76	5.06	23.79	-51.0	-52.6	15.1	0.00e+00	0	25	0	479199232	68	4279
2026-01-08 03:48:19.75	4.81	23.86	-51.0	-52.6	15.1	0.00e+00	0	24	0	480247808	68	4257
2026-01-08 03:48:20.75	4.56	23.92	-51.0	-52.6	15.1	0.00e+00	0	25	0	482344960	68	4289
2026-01-08 03:48:21.75	4.30	23.99	-51.0	-52.7	15.0	0.00e+00	0	25	0	484442112	68	4297
2026-01-08 03:48:22.75	4.05	24.05	-51.0	-52.6	15.1	0.00e+00	0	25	0	486539264	68	4291
2026-01-08 03:48:23.75	3.79	24.11	-51.2	-52.8	15.0	0.00e+00	0	25	0	487587840	68	4369
2026-01-08 03:48:24.74	3.53	24.18	-51.1	-52.8	15.0	0.00e+00	0	25	0	489684992	68	4355
2026-01-08 03:48:25.74	3.27	24.24	-51.1	-52.7	15.1	0.00e+00	0	24	0	491782144	68	4311
2026-01-08 03:48:26.74	3.01	24.30	-51.1	-52.7	15.0	0.00e+00	0	24	0	493879296	68	4324
2026-01-08 03:48:27.75	2.75	24.37	-51.1	-52.7	15.1	0.00e+00	0	25	0	495976448	68	4308
2026-01-08 03:48:28.74	2.49	24.43	-51.0	-52.6	15.1	0.00e+00	0	24	0	497025024	68	4244
2026-01-08 03:48:29.74	2.22	24.49	-50.9	-52.5	15.1	0.00e+00	0	24	0	499122176	68	4213
2026-01-08 03:48:30.74	1.96	24.55	-50.9	-52.5	15.1	0.00e+00	0	25	0	501219328	68	4198
2026-01-08 03:48:31.74	1.69	24.61	-50.8	-52.4	15.2	0.00e+00	0	24	0	503316480	68	4175
2026-01-08 03:48:32.74	1.42	24.67	-50.9	-52.4	15.2	0.00e+00	0	25	0	505413632	68	4190
2026-01-08 03:48:33.73	1.16	24.72	-50.8	-52.4	15.2	0.00e+00	0	24	0	506462208	68	4159
2026-01-08 03:48:34.73	0.89	24.78	-50.8	-52.4	15.2	0.00e+00	0	25	0	508559360	68	4160
2026-01-08 03:48:35.73	0.62	24.84	-50.8	-52.3	15.2	0.00e+00	0	25	0	510656512	68	4134
2026-01-08 03:48:36.72	0.35	24.90	-50.7	-52.3	15.3	0.00e+00	0	24	0	512753664	68	4107
2026-01-08 03:48:37.72	0.08	24.95	-50.9	-52.4	15.1	0.00e+00	0	25	0	513802240	68	4192
2026-01-08 03:48:38.71	359.81	25.01	-50.8	-52.4	15.2	0.00e+00	0	25	0	515899392	68	4176
2026-01-08 03:48:39.72	359.53	25.06	-50.8	-52.4	15.2	0.00e+00	0	24	0	517996544	68	4162
2026-01-08 03:48:40.71	359.26	25.12	-50.9	-52.4	15.2	0.00e+00	0	25	0	520093696	68	4178
2026-01-08 03:48:41.71	358.98	25.17	-50.7	-52.2	15.3	0.00e+00	0	24	0	522190848	68	4081
2026-01-08 03:48:42.71	358.70	25.23	-50.5	-52.0	15.2	0.00e+00	0	25	0	523239424	67	4225
2026-01-08 03:48:43.70	358.43	25.28	-50.4	-51.9	15.2	0.00e+00	0	25	0	525336576	67	4191
2026-01-08 03:48:44.70	358.15	25.33	-50.5	-52.0	15.2	0.00e+00	0	25	0	527433728	67	4217
2026-01-08 03:48:45.70	357.87	25.38	-50.4	-51.9	15.2	0.00e+00	0	25	0	529530880	67	4189
2026-01-08 03:48:46.69	357.59	25.43	-50.4	-51.9	15.2	0.00e+00	0	25	0	530579456	67	4193
2026-01-08 03:48:47.68	357.31	25.48	-50.5	-52.0	15.2	0.00e+00	0	25	0	532676608	67	4219
2026-01-08 03:48:48.68	357.03	25.53	-50.6	-52.1	15.1	0.00e+00	0	25	0	534773760	67	4283
2026-01-08 03:48:49.68	356.75	25.58	-50.7	-52.3	15.0	0.00e+00	0	24	0	536870912	67	4376
2026-01-08 03:48:50.67	356.46	25.63	-50.8	-52.4	15.0	0.00e+00	0	25	0	538968064	67	4422
2026-01-08 03:48:51.67	356.18	25.68	-51.0	-52.6	14.9	0.00e+00	0	25	0	540016640	67	4507
2026-01-08 03:48:52.67	355.89	25.72	-50.9	-52.6	14.9	0.00e+00	0	25	0	542113792	67	4498
2026-01-08 03:48:53.66	355.61	25.77	-51.0	-52.7	14.9	0.00e+00	0	25	0	544210944	67	4570
2026-01-08 03:48:54.67	355.32	25.81	-51.0	-52.7	14.9	0.00e+00	0	25	0	546308096	67	4555
2026-01-08 03:48:55.67	355.03	25.86	-51.2	-52.8	14.8	0.00e+00	0	25	0	548405248	67	4645
2026-01-08 03:48:56.67	354.74	25.90	-51.2	-52.8	14.8	0.00e+00	0	25	0	549453824	67	4647
2026-01-08 03:48:57.67	354.45	25.95	-51.3	-53.0	14.7	0.00e+00	0	25	0	551550976	67	4746
2026-01-08 03:48:58.67	354.16	25.99	-51.4	-53.1	14.7	0.00e+00	0	25	0	553648128	67	4788
2026-01-08 03:48:59.67	353.87	26.03	-51.6	-53.3	14.7	0.00e+00	0	25	0	555745280	68	4635
2026-01-08 03:49:00.65	353.58	26.07	-51.4	-53.1	14.8	0.00e+00	0	25	0	556793856	68	4524
2026-01-08 03:49:01.65	353.29	26.11	-51.5	-53.2	14.8	0.00e+00	0	25	0	558891008	68	4567
2026-01-08 03:49:02.65	352.99	26.15	-51.7	-53.5	14.7	0.00e+00	0	25	0	560988160	68	4714
2026-01-08 03:49:03.64	352.70	26.19	-51.8	-53.5	14.7	0.00e+00	0	25	0	563085312	68	4754
2026-01-08 03:49:04.64	352.41	26.23	-52.0	-53.8	14.7	0.00e+00	0	25	0	565182464	69	4610
2026-01-08 03:49:05.64	352.11	26.26	-52.0	-53.8	14.7	0.00e+00	0	25	0	566231040	69	4647
2026-01-08 03:49:06.65	351.81	26.30	-51.9	-53.7	14.7	0.00e+00	0	25	0	568328192	69	4598
2026-01-08 03:49:07.64	351.51	26.33	-51.9	-53.7	14.7	0.00e+00	0	25	0	570425344	69	4590
2026-01-08 03:49:08.64	351.22	26.37	-51.9	-53.7	14.7	0.00e+00	0	25	0	572522496	69	4584
2026-01-08 03:49:09.64	350.92	26.40	-52.0	-53.8	14.7	0.00e+00	0	25	0	574619648	69	4641
2026-01-08 03:49:10.63	350.62	26.44	-52.1	-53.9	14.6	0.00e+00	0	25	0	575668224	69	4705
2026-01-08 03:49:11.63	350.32	26.47	-52.2	-54.1	14.6	0.00e+00	0	25	0	577765376	69	4761
2026-01-08 03:49:12.63	350.02	26.50	-52.3	-54.2	14.5	0.00e+00	0	25	0	579862528	69	4826
2026-01-08 03:49:13.62	349.72	26.53	-52.4	-54.3	14.4	0.00e+00	0	25	0	581959680	69	4917
2026-01-08 03:49:14.62	349.42	26.56	-52.4	-54.3	14.6	0.00e+00	0	25	0	583008256	70	4624
2026-01-08 03:49:15.63	349.11	26.59	-52.4	-54.2	14.6	0.00e+00	0	25	0	585105408	70	4595
2026-01-08 03:49:16.62	348.81	26.62	-52.4	-54.4	14.6	0.00e+00	0	25	0	587202560	70	4653
2026-01-08 03:49:17.62	348.51	26.64	-52.3	-54.2	14.6	0.00e+00	0	24	0	589299712	70	4577
2026-01-08 03:49:18.62	348.21	26.67	-52.5	-54.4	14.5	0.00e+00	0	25	0	591396864	70	4694
2026-01-08 03:49:19.63	347.90	26.70	-52.6	-54.5	14.5	0.00e+00	0	25	0	592445440	70	4736
2026-01-08 03:49:20.63	347.59	26.72	-52.6	-54.5	14.5	0.00e+00	0	25	0	594542592	70	4750
2026-01-08 03:49:21.63	347.29	26.74	-52.5	-54.5	14.5	0.00e+00	0	25	0	596639744	70	4717
2026-01-08 03:49:22.63	346.98	26.77	-52.4	-54.3	14.6	0.00e+00	0	25	0	598736896	70	4612
2026-01-08 03:49:23.63	346.68	26.79	-52.4	-54.3	14.6	0.00e+00	0	25	0	600834048	70	4601
2026-01-08 03:49:24.64	346.37	26.81	-52.4	-54.3	14.6	0.00e+00	0	25	0	601882624	70	4630
2026-01-08 03:49:25.64	346.06	26.83	-52.5	-54.5	14.5	0.00e+00	0	25	0	603979776	70	4709
2026-01-08 03:49:26.64	345.75	26.85	-52.8	-54.7	14.4	0.00e+00	0	25	0	606076928	70	4870
2026-01-08 03:49:27.64	345.44	26.87	-52.8	-54.7	14.4	0.00e+00	0	25	0	608174080	70	4862
2026-01-08 03:49:28.64	345.13	26.88	-52.7	-54.7	14.4	0.00e+00	0	25	0	610271232	70	4851
2026-01-08 03:49:29.64	344.83	26.90	-52.7	-54.7	14.4	0.00e+00	0	25	0	611319808	70	4823
2026-01-08 03:49:30.64	344.52	26.92	-52.6	-54.6	14.5	0.00e+00	0	24	0	613416960	70	4776
2026-01-08 03:49:31.64	344.21	26.93	-52.7	-54.7	14.4	0.00e+00	0	25	0	615514112	70	4842
2026-01-08 03:49:32.64	343.90	26.94	-52.7	-54.7	14.4	0.00e+00	0	25	0	617611264	70	4856
2026-01-08 03:49:33.64	343.59	26.96	-52.8	-54.8	14.3	0.00e+00	0	25	0	618659840	70	4895
2026-01-08 03:49:34.64	343.28	26.97	-53.0	-55.0	14.4	0.00e+00	0	25	0	620756992	71	4750
2026-01-08 03:49:35.63	342.97	26.98	-52.9	-55.0	14.4	0.00e+00	0	25	0	622854144	71	4733
2026-01-08 03:49:36.63	342.66	26.99	-53.0	-55.1	14.3	0.00e+00	0	25	0	624951296	71	4784
2026-01-08 03:49:37.63	342.35	27.00	-52.9	-55.0	14.4	0.00e+00	0	25	0	627048448	71	4706
2026-01-08 03:49:38.63	342.04	27.01	-53.0	-55.0	14.4	0.00e+00	0	24	0	628097024	71	4737
2026-01-08 03:49:39.63	341.73	27.02	-52.9	-54.9	14.4	0.00e+00	0	25	0	630194176	71	4697
2026-01-08 03:49:40.62	341.42	27.02	-52.9	-54.9	14.5	0.00e+00	0	25	0	632291328	71	4664
2026-01-08 03:49:41.62	341.11	27.03	-52.9	-54.9	14.4	0.00e+00	0	24	0	634388480	71	4690
2026-01-08 03:49:42.61	340.80	27.03	-52.7	-54.6	14.6	0.00e+00	0	25	0	635437056	71	4529
2026-01-08 03:49:43.61	340.49	27.03	-52.5	-54.4	14.7	0.00e+00	0	25	0	637534208	71	4396
2026-01-08 03:49:44.61	340.18	27.04	-52.5	-54.4	14.7	0.00e+00	0	25	0	639631360	71	4397
2026-01-08 03:49:45.60	339.87	27.04	-52.2	-54.1	14.9	0.00e+00	0	25	0	641728512	71	4252
2026-01-08 03:49:46.60	339.56	27.04	-52.3	-54.1	14.9	0.00e+00	0	25	0	643825664	71	4270
2026-01-08 03:49:47.60	339.25	27.04	-52.3	-54.1	14.9	0.00e+00	0	25	0	644874240	71	4262
2026-01-08 03:49:48.60	338.93	27.04	-52.4	-54.2	14.8	0.00e+00	0	25	0	646971392	71	4310
2026-01-08 03:49:49.59	338.63	27.04	-52.4	-54.2	14.8	0.00e+00	0	25	0	649068544	71	4336
2026-01-08 03:49:50.59	338.31	27.03	-52.4	-54.2	14.8	0.00e+00	0	25	0	651165696	71	4323
2026-01-08 03:49:51.59	338.00	27.03	-52.3	-54.1	14.9	0.00e+00	0	25	0	653262848	71	4259
2026-01-08 03:49:52.59	337.69	27.02	-52.2	-54.0	14.9	0.00e+00	0	25	0	654311424	71	4230
2026-01-08 03:49:53.58	337.38	27.02	-52.1	-53.8	14.8	0.00e+00	0	25	0	656408576	70	4378
2026-01-08 03:49:54.58	337.07	27.01	-52.0	-53.8	14.9	0.00e+00	0	25	0	658505728	70	4352
2026-01-08 03:49:55.58	336.76	27.00	-51.8	-53.5	15.1	0.00e+00	0	25	0	660602880	70	4207
2026-01-08 03:49:56.58	336.45	27.00	-51.7	-53.4	15.1	0.00e+00	0	25	0	661651456	70	4146
2026-01-08 03:49:57.58	336.14	26.99	-51.8	-53.5	15.0	0.00e+00	0	25	0	663748608	70	4220
2026-01-08 03:49:58.58	335.83	26.98	-51.8	-53.5	15.0	0.00e+00	0	25	0	665845760	70	4234
2026-01-08 03:49:59.59	335.52	26.96	-51.9	-53.6	15.0	0.00e+00	0	25	0	667942912	70	4262
2026-01-08 03:50:00.59	335.21	26.95	-51.9	-53.6	15.0	0.00e+00	0	25	0	670040064	70	4268
2026-01-08 03:50:01.59	334.90	26.94	-51.8	-53.5	15.0	0.00e+00	0	25	0	671088640	70	4218
2026-01-08 03:50:02.59	334.59	26.92	-51.6	-53.3	14.9	0.00e+00	0	25	0	673185792	69	4360
2026-01-08 03:50:03.60	334.27	26.91	-51.6	-53.3	14.9	0.00e+00	0	25	0	675282944	69	4363
2026-01-08 03:50:04.59	333.97	26.89	-51.5	-53.2	15.0	0.00e+00	0	25	0	677380096	69	4307
2026-01-08 03:50:05.59	333.66	26.88	-51.4	-53.0	15.1	0.00e+00	0	25	0	679477248	69	4234
2026-01-08 03:50:06.60	333.35	26.86	-51.2	-52.8	15.2	0.00e+00	0	24	0	680525824	69	4127
2026-01-08 03:50:07.59	333.04	26.84	-51.2	-52.7	15.0	0.00e+00	0	25	0	682622976	68	4333
2026-01-08 03:50:08.58	332.74	26.82	-51.1	-52.7	15.1	0.00e+00	0	25	0	684720128	68	4300
2026-01-08 03:50:09.58	332.43	26.80	-50.9	-52.5	15.2	0.00e+00	0	25	0	686817280	68	4213
2026-01-08 03:50:10.57	332.13	26.78	-51.0	-52.6	15.1	0.00e+00	0	25	0	687865856	68	4247
2026-01-08 03:50:11.57	331.82	26.76	-51.1	-52.6	15.1	0.00e+00	0	25	0	689963008	68	4286
2026-01-08 03:50:12.57	331.52	26.73	-51.1	-52.6	15.1	0.00e+00	0	24	0	692060160	68	4272
2026-01-08 03:50:13.57	331.21	26.71	-50.9	-52.4	15.2	0.00e+00	0	25	0	694157312	68	4188
2026-01-08 03:50:14.57	330.91	26.68	-50.8	-52.3	15.2	0.00e+00	0	25	0	696254464	68	4121
2026-01-08 03:50:15.57	330.60	26.66	-50.8	-52.3	15.2	0.00e+00	0	25	0	697303040	68	4131
2026-01-08 03:50:16.57	330.30	26.63	-50.9	-52.4	15.2	0.00e+00	0	25	0	699400192	68	4163
2026-01-08 03:50:17.57	329.99	26.60	-50.9	-52.4	15.2	0.00e+00	0	25	0	701497344	68	4183
2026-01-08 03:50:18.57	329.69	26.58	-50.9	-52.4	15.2	0.00e+00	0	25	0	703594496	68	4181
2026-01-08 03:50:19.57	329.39	26.55	-51.0	-52.5	15.1	0.00e+00	0	25	0	705691648	68	4237
2026-01-08 03:50:20.57	329.09	26.52	-50.9	-52.5	15.2	0.00e+00	0	25	0	706740224	68	4207
2026-01-08 03:50:21.57	328.79	26.49	-51.0	-52.5	15.2	0.00e+00	0	25	0	708837376	68	4229
2026-01-08 03:50:22.57	328.49	26.45	-51.0	-52.5	15.1	0.00e+00	0	24	0	710934528	68	4233
2026-01-08 03:50:23.57	328.19	26.42	-51.1	-52.7	15.1	0.00e+00	0	25	0	713031680	68	4294
2026-01-08 03:50:24.58	327.88	26.39	-51.1	-52.7	15.1	0.00e+00	0	25	0	714080256	68	4327
2026-01-08 03:50:25.58	327.58	26.35	-51.1	-52.7	15.1	0.00e+00	0	25	0	716177408	68	4320
2026-01-08 03:50:26.57	327.29	26.32	-51.0	-52.6	15.1	0.00e+00	0	25	0	718274560	68	4272
2026-01-08 03:50:27.57	326.99	26.28	-51.0	-52.5	15.1	0.00e+00	0	25	0	720371712	68	4240
2026-01-08 03:50:28.57	326.70	26.25	-51.0	-52.6	15.1	0.00e+00	0	25	0	722468864	68	4254
2026-01-08 03:50:29.57	326.40	26.21	-51.1	-52.7	15.0	0.00e+00	0	25	0	723517440	68	4323
2026-01-08 03:50:30.57	326.10	26.17	-51.3	-52.9	15.0	0.00e+00	0	25	0	725614592	68	4420
2026-01-08 03:50:31.56	325.81	26.13	-51.4	-53.0	14.9	0.00e+00	0	25	0	727711744	68	4479
2026-01-08 03:50:32.56	325.52	26.09	-51.5	-53.2	14.9	0.00e+00	0	25	0	729808896	68	4559
2026-01-08 03:50:33.56	325.23	26.05	-51.4	-53.1	14.9	0.00e+00	0	25	0	731906048	68	4518
2026-01-08 03:50:34.56	324.93	26.01	-51.5	-53.2	14.9	0.00e+00	0	25	0	732954624	68	4564
2026-01-08 03:50:35.56	324.64	25.97	-51.4	-53.0	14.9	0.00e+00	0	25	0	735051776	68	4467
2026-01-08 03:50:36.55	324.35	25.93	-51.4	-53.1	14.9	0.00e+00	0	25	0	737148928	68	4515
2026-01-08 03:50:37.55	324.06	25.88	-51.5	-53.1	14.8	0.00e+00	0	25	0	739246080	68	4541
2026-01-08 03:50:38.55	323.77	25.84	-51.5	-53.1	14.9	0.00e+00	0	24	0	741343232	68	4545
2026-01-08 03:50:39.55	323.49	25.79	-51.5	-53.2	14.9	0.00e+00	0	25	0	742391808	68	4568
2026-01-08 03:50:40.54	323.20	25.75	-51.6	-53.2	14.8	0.00e+00	0	25	0	744488960	68	4592
2026-01-08 03:50:41.54	322.91	25.70	-51.8	-53.5	14.7	0.00e+00	0	25	0	746586112	68	4722
2026-01-08 03:50:42.54	322.63	25.65	-51.9	-53.7	14.6	0.00e+00	0	25	0	748683264	69	4568
2026-01-08 03:50:43.53	322.35	25.61	-52.0	-53.7	14.7	0.00e+00	0	25	0	749731840	69	4578
2026-01-08 03:50:44.53	322.06	25.56	-52.2	-54.0	14.6	0.00e+00	0	25	0	751828992	69	4756
2026-01-08 03:50:45.52	321.78	25.51	-52.3	-54.1	14.6	0.00e+00	0	25	0	753926144	69	4793
2026-01-08 03:50:46.52	321.50	25.46	-52.4	-54.2	14.5	0.00e+00	0	25	0	756023296	69	4867
2026-01-08 03:50:47.52	321.22	25.41	-52.3	-54.2	14.5	0.00e+00	0	24	0	758120448	69	4829
2026-01-08 03:50:48.51	320.94	25.36	-52.3	-54.2	14.5	0.00e+00	0	25	0	759169024	69	4818
2026-01-08 03:50:49.51	320.66	25.31	-52.3	-54.1	14.5	0.00e+00	0	25	0	761266176	69	4807
2026-01-08 03:50:50.50	320.38	25.25	-52.2	-54.0	14.6	0.00e+00	0	25	0	763363328	69	4755
2026-01-08 03:50:51.51	320.10	25.20	-52.2	-54.0	14.6	0.00e+00	0	24	0	765460480	69	4746
2026-01-08 03:50:52.51	319.83	25.15	-52.2	-54.1	14.6	0.00e+00	0	25	0	766509056	69	4790
2026-01-08 03:50:53.51	319.55	25.09	-52.3	-54.2	14.5	0.00e+00	0	25	0	768606208	69	4841
2026-01-08 03:50:54.50	319.28	25.04	-52.4	-54.3	14.5	0.00e+00	0	25	0	770703360	69	4899
2026-01-08 03:50:55.50	319.00	24.98	-52.5	-54.4	14.6	0.00e+00	0	25	0	772800512	70	4667
2026-01-08 03:50:56.50	318.73	24.93	-52.5	-54.4	14.5	0.00e+00	0	25	0	774897664	70	4690
2026-01-08 03:50:57.51	318.46	24.87	-52.8	-54.7	14.4	0.00e+00	0	25	0	775946240	70	4857
2026-01-08 03:50:58.50	318.19	24.81	-52.7	-54.7	14.4	0.00e+00	0	25	0	778043392	70	4830
2026-01-08 03:50:59.50	317.92	24.75	-52.7	-54.7	14.4	0.00e+00	0	25	0	780140544	70	4817
2026-01-08 03:51:00.50	317.65	24.70	-52.6	-54.6	14.5	0.00e+00	0	24	0	782237696	70	4767
2026-01-08 03:51:01.50	317.38	24.64	-52.5	-54.4	14.6	0.00e+00	0	25	0	784334848	70	4687
2026-01-08 03:51:02.49	317.12	24.58	-52.5	-54.4	14.6	0.00e+00	0	25	0	785383424	70	4657
2026-01-08 03:51:03.50	316.85	24.52	-52.3	-54.2	14.7	0.00e+00	0	25	0	787480576	70	4568
2026-01-08 03:51:04.50	316.58	24.46	-52.4	-54.3	14.6	0.00e+00	0	25	0	789577728	70	4629
2026-01-08 03:51:05.50	316.32	24.40	-52.4	-54.2	14.6	0.00e+00	0	24	0	791674880	70	4598
2026-01-08 03:51:06.49	316.06	24.33	-52.5	-54.4	14.6	0.00e+00	0	24	0	792723456	70	4675
2026-01-08 03:51:07.50	315.79	24.27	-52.4	-54.3	14.6	0.00e+00	0	25	0	794820608	70	4634
2026-01-08 03:51:08.50	315.53	24.21	-52.6	-54.5	14.5	0.00e+00	0	24	0	796917760	70	4715
2026-01-08 03:51:09.49	315.28	24.15	-52.6	-54.5	14.5	0.00e+00	0	24	0	799014912	70	4717
2026-01-08 03:51:10.49	315.02	24.08	-52.6	-54.6	14.5	0.00e+00	0	25	0	801112064	70	4770
2026-01-08 03:51:11.49	314.76	24.02	-52.7	-54.7	14.4	0.00e+00	0	25	0	802160640	70	4817
2026-01-08 03:51:12.48	314.51	23.95	-52.6	-54.6	14.5	0.00e+00	0	25	0	804257792	70	4767
2026-01-08 03:51:13.49	314.25	23.89	-52.4	-54.3	14.6	0.00e+00	0	25	0	806354944	70	4606
2026-01-08 03:51:14.49	313.99	23.82	-52.3	-54.1	14.7	0.00e+00	0	25	0	808452096	70	4536
2026-01-08 03:51:15.49	313.74	23.76	-52.3	-54.1	14.7	0.00e+00	0	25	0	810549248	70	4539
2026-01-08 03:51:16.49	313.49	23.69	-52.4	-54.2	14.6	0.00e+00	0	25	0	811597824	70	4584
2026-01-08 03:51:17.48	313.24	23.62	-52.4	-54.3	14.6	0.00e+00	0	25	0	813694976	70	4601
2026-01-08 03:51:18.49	312.99	23.56	-52.6	-54.5	14.5	0.00e+00	0	25	0	815792128	70	4728
2026-01-08 03:51:19.49	312.74	23.49	-52.6	-54.5	14.5	0.00e+00	0	24	0	817889280	70	4741
2026-01-08 03:51:20.50	312.49	23.42	-52.6	-54.5	14.5	0.00e+00	0	25	0	819986432	70	4754
2026-01-08 03:51:21.50	312.24	23.35	-52.5	-54.3	14.6	0.00e+00	0	25	0	821035008	70	4650
2026-01-08 03:51:22.50	311.99	23.28	-52.3	-54.1	14.7	0.00e+00	0	25	0	823132160	70	4543
2026-01-08 03:51:23.51	311.75	23.21	-52.2	-54.0	14.7	0.00e+00	0	25	0	825229312	70	4473
2026-01-08 03:51:24.51	311.50	23.14	-52.1	-53.9	14.8	0.00e+00	0	25	0	827326464	70	4434
2026-01-08 03:51:25.50	311.26	23.07	-52.1	-53.9	14.8	0.00e+00	0	25	0	828375040	70	4406
2026-01-08 03:51:26.50	311.02	23.00	-52.0	-53.7	14.9	0.00e+00	0	24	0	830472192	70	4328
2026-01-08 03:51:27.50	310.78	22.93	-51.9	-53.6	15.0	0.00e+00	0	25	0	832569344	70	4268
2026-01-08 03:51:28.50	310.54	22.86	-51.8	-53.5	15.0	0.00e+00	0	25	0	834666496	70	4220
2026-01-08 03:51:29.50	310.30	22.79	-51.9	-53.6	14.9	0.00e+00	0	25	0	836763648	70	4291
2026-01-08 03:51:30.50	310.07	22.72	-51.8	-53.6	15.0	0.00e+00	0	25	0	837812224	70	4254
2026-01-08 03:51:31.50	309.83	22.65	-51.7	-53.4	15.1	0.00e+00	0	25	0	839909376	70	4177
2026-01-08 03:51:32.50	309.60	22.57	-51.6	-53.2	15.0	0.00e+00	0	25	0	842006528	69	4333
2026-01-08 03:51:33.50	309.36	22.50	-51.5	-53.2	15.0	0.00e+00	0	25	0	844103680	69	4323
2026-01-08 03:51:34.50	309.13	22.43	-51.5	-53.1	15.0	0.00e+00	0	25	0	846200832	69	4266
2026-01-08 03:51:35.50	308.90	22.35	-51.3	-52.9	15.2	0.00e+00	0	25	0	847249408	69	4168
2026-01-08 03:51:36.50	308.67	22.28	-51.3	-52.9	15.1	0.00e+00	0	25	0	849346560	69	4186
2026-01-08 03:51:37.49	308.44	22.21	-51.3	-52.9	15.1	0.00e+00	0	25	0	851443712	69	4181
2026-01-08 03:51:38.49	308.21	22.13	-51.3	-52.9	15.1	0.00e+00	0	25	0	853540864	69	4180
2026-01-08 03:51:39.48	307.99	22.06	-51.3	-52.9	15.1	0.00e+00	0	25	0	854589440	69	4183
2026-01-08 03:51:40.47	307.76	21.99	-51.4	-53.0	15.1	0.00e+00	0	25	0	856686592	69	4220
2026-01-08 03:51:41.46	307.54	21.91	-51.4	-53.1	15.0	0.00e+00	0	25	0	858783744	69	4246
2026-01-08 03:51:42.45	307.32	21.84	-51.4	-53.0	15.1	0.00e+00	0	25	0	860880896	69	4221
2026-01-08 03:51:43.45	307.10	21.76	-51.4	-53.0	15.1	0.00e+00	0	25	0	862978048	69	4234
2026-01-08 03:51:44.45	306.88	21.69	-51.4	-53.0	15.1	0.00e+00	0	25	0	864026624	69	4222
2026-01-08 03:51:45.45	306.66	21.61	-51.3	-52.9	15.1	0.00e+00	0	25	0	866123776	69	4180
2026-01-08 03:51:46.44	306.44	21.53	-51.3	-52.9	15.1	0.00e+00	0	25	0	868220928	69	4178
2026-01-08 03:51:47.44	306.22	21.46	-51.4	-53.0	15.1	0.00e+00	0	25	0	870318080	69	4217
2026-01-08 03:51:48.45	306.00	21.38	-51.4	-53.0	15.1	0.00e+00	0	25	0	871366656	69	4234
2026-01-08 03:51:49.44	305.79	21.31	-51.4	-53.1	15.0	0.00e+00	0	25	0	873463808	69	4257
2026-01-08 03:51:50.44	305.57	21.23	-51.5	-53.1	15.0	0.00e+00	0	25	0	875560960	69	4287
2026-01-08 03:51:51.44	305.36	21.15	-51.4	-53.1	15.1	0.00e+00	0	25	0	877658112	69	4254
2026-01-08 03:51:52.44	305.14	21.07	-51.4	-53.1	15.1	0.00e+00	0	25	0	879755264	69	4251
2026-01-08 03:51:53.44	304.93	21.00	-51.4	-53.1	15.1	0.00e+00	0	24	0	880803840	69	4259
2026-01-08 03:51:54.44	304.72	20.92	-51.2	-52.8	15.1	0.00e+00	0	25	0	882900992	69	4143
2026-01-08 03:51:55.43	304.51	20.84	-51.3	-52.9	15.1	0.00e+00	0	25	0	884998144	69	4159
2026-01-08 03:51:56.43	304.30	20.76	-51.3	-52.9	15.1	0.00e+00	0	25	0	887095296	69	4152
2026-01-08 03:51:57.43	304.10	20.69	-51.2	-52.8	15.0	0.00e+00	0	25	0	888143872	68	4346
2026-01-08 03:51:58.42	303.89	20.61	-51.0	-52.6	15.1	0.00e+00	0	25	0	890241024	68	4258
2026-01-08 03:51:59.41	303.69	20.53	-50.9	-52.5	15.1	0.00e+00	0	25	0	892338176	68	4219
2026-01-08 03:52:00.41	303.48	20.45	-50.9	-52.5	15.2	0.00e+00	0	25	0	894435328	68	4207
2026-01-08 03:52:01.41	303.28	20.37	-50.9	-52.4	15.2	0.00e+00	0	25	0	896532480	68	4190
2026-01-08 03:52:02.41	303.08	20.29	-50.8	-52.4	15.2	0.00e+00	0	25	0	897581056	68	4159
2026-01-08 03:52:03.41	302.88	20.21	-50.9	-52.4	15.2	0.00e+00	0	25	0	899678208	68	4173
2026-01-08 03:52:04.41	302.68	20.14	-50.7	-52.3	15.3	0.00e+00	0	25	0	901775360	68	4105
2026-01-08 03:52:05.41	302.48	20.06	-50.7	-52.2	15.3	0.00e+00	0	25	0	903872512	68	4085
2026-01-08 03:52:06.42	302.28	19.98	-50.5	-52.1	15.2	0.00e+00	0	25	0	905969664	67	4243
2026-01-08 03:52:07.42	302.08	19.90	-50.5	-52.0	15.2	0.00e+00	0	25	0	907018240	67	4225
2026-01-08 03:52:08.42	301.88	19.82	-50.5	-52.0	15.2	0.00e+00	0	25	0	909115392	67	4233
2026-01-08 03:52:09.42	301.69	19.74	-50.5	-52.1	15.2	0.00e+00	0	25	0	911212544	67	4251
2026-01-08 03:52:10.41	301.50	19.66	-50.6	-52.1	15.1	0.00e+00	0	25	0	913309696	67	4282
2026-01-08 03:52:11.42	301.30	19.58	-50.8	-52.3	15.0	0.00e+00	0	25	0	915406848	67	4391
2026-01-08 03:52:12.41	301.11	19.50	-50.5	-52.0	15.2	0.00e+00	0	25	0	916455424	67	4208
2026-01-08 03:52:13.41	300.92	19.42	-50.3	-51.7	15.3	0.00e+00	0	25	0	918552576	67	4090
2026-01-08 03:52:14.41	300.73	19.34	-50.3	-51.7	15.3	0.00e+00	0	25	0	920649728	67	4087
2026-01-08 03:52:15.40	300.54	19.26	-50.3	-51.8	15.3	0.00e+00	0	25	0	922746880	67	4106
2026-01-08 03:52:16.39	300.36	19.18	-50.4	-51.8	15.3	0.00e+00	0	24	0	923795456	67	4144
2026-01-08 03:52:17.39	300.17	19.10	-50.4	-51.9	15.2	0.00e+00	0	25	0	925892608	67	4183
2026-01-08 03:52:18.39	299.99	19.02	-50.4	-51.9	15.2	0.00e+00	0	25	0	927989760	67	4165
2026-01-08 03:52:19.38	299.80	18.94	-50.3	-51.8	15.3	0.00e+00	0	24	0	930086912	67	4110
2026-01-08 03:52:20.38	299.62	18.86	-50.3	-51.7	15.3	0.00e+00	0	24	0	932184064	67	4098
2026-01-08 03:52:21.39	299.43	18.78	-50.2	-51.7	15.3	0.00e+00	0	25	0	933232640	67	4064
2026-01-08 03:52:22.39	299.25	18.70	-50.2	-51.7	15.2	0.00e+00	0	25	0	935329792	66	4328
2026-01-08 03:52:23.38	299.07	18.62	-50.1	-51.5	15.2	0.00e+00	0	25	0	937426944	66	4231
2026-01-08 03:52:24.39	298.89	18.54	-50.1	-51.6	15.2	0.00e+00	0	25	0	939524096	66	4264
2026-01-08 03:52:25.38	298.71	18.46	-50.1	-51.5	15.2	0.00e+00	0	25	0	940572672	66	4242
2026-01-08 03:52:26.38	298.53	18.37	-50.1	-51.5	15.2	0.00e+00	0	25	0	942669824	66	4225
2026-01-08 03:52:27.38	298.36	18.29	-50.1	-51.6	15.2	0.00e+00	0	25	0	944766976	66	4259
2026-01-08 03:52:28.37	298.18	18.21	-50.2	-51.7	15.2	0.00e+00	0	25	0	946864128	66	4299
2026-01-08 03:52:29.38	298.01	18.13	-50.3	-51.7	15.1	0.00e+00	0	24	0	948961280	66	4331
2026-01-08 03:52:30.38	297.83	18.05	-50.3	-51.8	15.1	0.00e+00	0	25	0	950009856	66	4358
2026-01-08 03:52:31.37	297.66	17.97	-50.3	-51.8	15.1	0.00e+00	0	25	0	952107008	66	4343
2026-01-08 03:52:32.37	297.49	17.89	-50.3	-51.7	15.1	0.00e+00	0	25	0	954204160	66	4340
2026-01-08 03:52:33.36	297.32	17.81	-50.3	-51.8	15.1	0.00e+00	0	25	0	956301312	66	4364
2026-01-08 03:52:34.36	297.15	17.73	-50.3	-51.8	15.1	0.00e+00	0	25	0	958398464	66	4362
2026-01-08 03:52:35.36	296.98	17.65	-50.4	-51.9	15.1	0.00e+00	0	25	0	959447040	66	4392
2026-01-08 03:52:36.36	296.81	17.57	-50.3	-51.8	15.0	0.00e+00	0	25	0	961544192	66	4377
2026-01-08 03:52:37.34	296.64	17.49	-50.4	-51.9	15.1	0.00e+00	0	25	0	963641344	66	4397
2026-01-08 03:52:38.34	296.48	17.41	-50.4	-51.9	15.0	0.00e+00	0	25	0	965738496	66	4425
2026-01-08 03:52:39.32	296.31	17.33	-50.5	-52.0	15.0	0.00e+00	0	25	0	966787072	66	4465
2026-01-08 03:52:40.32	296.15	17.25	-50.4	-52.0	15.0	0.00e+00	0	25	0	968884224	66	4452
2026-01-08 03:52:41.31	295.98	17.17	-50.6	-52.2	15.0	0.00e+00	0	25	0	970981376	66	4550
2026-01-08 03:52:42.31	295.82	17.09	-50.6	-52.2	14.9	0.00e+00	0	25	0	973078528	66	4555
2026-01-08 03:52:43.31	295.66	17.01	-50.5	-52.1	15.0	0.00e+00	0	25	0	975175680	66	4495
2026-01-08 03:52:44.30	295.50	16.93	-50.5	-52.1	15.0	0.00e+00	0	25	0	976224256	66	4495
2026-01-08 03:52:45.31	295.34	16.85	-50.5	-52.0	15.0	0.00e+00	0	25	0	978321408	66	4469
2026-01-08 03:52:46.30	295.18	16.77	-50.6	-52.1	14.9	0.00e+00	0	25	0	980418560	66	4516
2026-01-08 03:52:47.30	295.02	16.69	-50.8	-52.3	14.9	0.00e+00	0	25	0	982515712	66	4636
2026-01-08 03:52:48.29	294.86	16.61	-50.8	-52.4	14.8	0.00e+00	0	25	0	984612864	66	4685
2026-01-08 03:52:49.28	294.71	16.53	-51.0	-52.6	14.9	0.00e+00	0	25	0	985661440	67	4504
2026-01-08 03:52:50.28	294.55	16.45	-51.0	-52.7	14.8	0.00e+00	0	25	0	987758592	67	4565
2026-01-08 03:52:51.28	294.39	16.36	-51.2	-52.9	14.8	0.00e+00	0	25	0	989855744	67	4675
2026-01-08 03:52:52.27	294.24	16.29	-51.2	-52.9	14.7	0.00e+00	0	25	0	991952896	67	4673
2026-01-08 03:52:53.25	294.09	16.21	-51.2	-52.8	14.8	0.00e+00	0	25	0	993001472	67	4638
2026-01-08 03:52:54.25	293.94	16.13	-51.3	-53.0	14.8	0.00e+00	0	25	0	995098624	67	4713
2026-01-08 03:52:55.25	293.78	16.05	-51.3	-52.9	14.7	0.00e+00	0	25	0	997195776	67	4705
2026-01-08 03:52:56.24	293.63	15.97	-51.3	-52.9	14.7	0.00e+00	0	25	0	999292928	67	4700
2026-01-08 03:52:57.24	293.48	15.89	-51.4	-53.1	14.6	0.00e+00	0	25	0	1000341504	67	4794
2026-01-08 03:52:58.23	293.34	15.81	-51.6	-53.3	14.8	0.00e+00	0	24	0	1002438656	68	4613
2026-01-08 03:52:59.22	293.19	15.73	-51.7	-53.4	14.7	0.00e+00	0	25	0	1004535808	68	4685
2026-01-08 03:53:00.23	293.04	15.65	-51.7	-53.4	14.7	0.00e+00	0	25	0	1006632960	68	4692
2026-01-08 03:53:01.22	292.89	15.57	-51.7	-53.4	14.6	0.00e+00	0	25	0	1008730112	68	4699
2026-01-08 03:53:02.23	292.74	15.49	-51.6	-53.4	14.7	0.00e+00	0	25	0	1009778688	68	4673
2026-01-08 03:53:03.22	292.60	15.41	-51.8	-53.5	14.7	0.00e+00	0	25	0	1011875840	68	4742
2026-01-08 03:53:04.22	292.45	15.33	-51.5	-53.2	14.7	0.00e+00	0	25	0	1013972992	68	4590
2026-01-08 03:53:05.22	292.31	15.25	-51.7	-53.4	14.7	0.00e+00	0	25	0	1016070144	68	4679
2026-01-08 03:53:06.23	292.16	15.17	-51.5	-53.2	14.7	0.00e+00	0	25	0	1018167296	68	4595
2026-01-08 03:53:07.22	292.02	15.09	-51.6	-53.3	14.7	0.00e+00	0	25	0	1019215872	68	4644
2026-01-08 03:53:08.22	291.88	15.01	-51.5	-53.2	14.7	0.00e+00	0	25	0	1021313024	68	4589
2026-01-08 03:53:09.21	291.74	14.93	-51.6	-53.4	14.7	0.00e+00	0	25	0	1023410176	68	4663
2026-01-08 03:53:10.22	291.60	14.85	-51.7	-53.5	14.6	0.00e+00	0	25	0	1025507328	68	4736
2026-01-08 03:53:11.22	291.46	14.77	-51.7	-53.5	14.6	0.00e+00	0	25	0	1026555904	68	4739
2026-01-08 03:53:12.23	291.32	14.69	-51.6	-53.4	14.7	0.00e+00	0	25	0	1028653056	68	4671
2026-01-08 03:53:13.22	291.18	14.62	-51.7	-53.5	14.7	0.00e+00	0	25	0	1030750208	68	4728
2026-01-08 03:53:14.23	291.04	14.54	-51.9	-53.7	14.5	0.00e+00	0	25	0	1032847360	68	4836
2026-01-08 03:53:15.23	290.91	14.46	-51.8	-53.6	14.6	0.00e+00	0	25	0	1034944512	68	4789
2026-01-08 03:53:16.22	290.77	14.38	-52.0	-53.8	14.6	0.00e+00	0	25	0	1035993088	69	4644
2026-01-08 03:53:17.22	290.64	14.30	-52.0	-53.9	14.6	0.00e+00	0	25	0	1038090240	69	4665
2026-01-08 03:53:18.22	290.50	14.22	-52.0	-53.8	14.6	0.00e+00	0	25	0	1040187392	69	4634
2026-01-08 03:53:19.22	290.37	14.14	-52.0	-53.9	14.6	0.00e+00	0	25	0	1042284544	69	4652
2026-01-08 03:53:20.22	290.24	14.07	-51.9	-53.8	14.6	0.00e+00	0	25	0	1044381696	69	4611
2026-01-08 03:53:21.22	290.10	13.99	-52.0	-53.9	14.6	0.00e+00	0	25	0	1045430272	69	4666
2026-01-08 03:53:22.22	289.97	13.91	-52.0	-53.8	14.6	0.00e+00	0	25	0	1047527424	69	4633
2026-01-08 03:53:23.22	289.84	13.83	-52.1	-54.0	14.5	0.00e+00	0	25	0	1049624576	69	4724
2026-01-08 03:53:24.22	289.71	13.75	-52.1	-54.0	14.5	0.00e+00	0	25	0	1051721728	69	4720
2026-01-08 03:53:25.23	289.58	13.68	-52.2	-54.1	14.5	0.00e+00	0	25	0	1052770304	69	4761
2026-01-08 03:53:26.23	289.45	13.60	-52.2	-54.2	14.4	0.00e+00	0	25	0	1054867456	69	4830
2026-01-08 03:53:27.23	289.32	13.52	-52.3	-54.3	14.4	0.00e+00	0	25	0	1056964608	69	4873
2026-01-08 03:53:28.24	289.19	13.44	-52.4	-54.4	14.3	0.00e+00	0	25	0	1059061760	69	4950
2026-01-08 03:53:29.23	289.07	13.37	-52.4	-54.3	14.5	0.00e+00	0	25	0	1061158912	70	4623
2026-01-08 03:53:30.24	288.94	13.29	-52.4	-54.4	14.5	0.00e+00	0	25	0	1063256064	70	4681
2026-01-08 03:53:31.24	288.82	13.21	-52.3	-54.3	14.5	0.00e+00	0	25	0	1064304640	70	4614
2026-01-08 03:53:32.24	288.69	13.13	-52.4	-54.3	14.5	0.00e+00	0	25	0	1066401792	70	4651
2026-01-08 03:53:33.23	288.57	13.06	-52.3	-54.2	14.6	0.00e+00	0	25	0	1068498944	70	4563
2026-01-08 03:53:34.23	288.44	12.98	-52.1	-54.0	14.6	0.00e+00	0	25	0	1070596096	70	4479
2026-01-08 03:53:35.21	288.32	12.91	-52.2	-54.1	14.6	0.00e+00	0	25	0	1071644672	70	4504
2026-01-08 03:53:36.21	288.20	12.83	-52.3	-54.2	14.5	0.00e+00	0	25	0	1073741824	70	4554
2026-01-08 03:53:37.21	288.08	12.75	-52.2	-54.1	14.6	0.00e+00	0	25	0	1075838976	70	4532
2026-01-08 03:53:38.21	287.96	12.68	-52.3	-54.3	14.5	0.00e+00	0	25	0	1077936128	70	4601
2026-01-08 03:53:39.20	287.84	12.60	-52.3	-54.2	14.5	0.00e+00	0	25	0	1080033280	70	4598
2026-01-08 03:53:40.20	287.72	12.52	-52.4	-54.4	14.4	0.00e+00	0	25	0	1081081856	70	4653
2026-01-08 03:53:41.19	287.60	12.45	-52.5	-54.4	14.4	0.00e+00	0	25	0	1083179008	70	4701
2026-01-08 03:53:42.18	287.49	12.37	-52.5	-54.5	14.4	0.00e+00	0	25	0	1085276160	70	4744
2026-01-08 03:53:43.17	287.37	12.30	-52.6	-54.7	14.3	0.00e+00	0	25	0	1087373312	70	4826
2026-01-08 03:53:44.17	287.25	12.22	-52.6	-54.6	14.3	0.00e+00	0	25	0	1088421888	70	4783
2026-01-08 03:53:45.16	287.14	12.15	-52.6	-54.7	14.3	0.00e+00	0	25	0	1090519040	70	4835
2026-01-08 03:53:46.16	287.02	12.07	-52.6	-54.7	14.3	0.00e+00	0	25	0	1092616192	70	4822
2026-01-08 03:53:47.16	286.91	12.00	-52.6	-54.7	14.3	0.00e+00	0	25	0	1094713344	70	4819
2026-01-08 03:53:48.15	286.79	11.92	-52.7	-54.8	14.2	0.00e+00	0	25	0	1096810496	70	4884
2026-01-08 03:53:49.15	286.68	11.85	-52.8	-54.9	14.2	0.00e+00	0	25	0	1097859072	70	4940
2026-01-08 03:53:50.14	286.57	11.77	-52.8	-54.9	14.2	0.00e+00	0	25	0	1099956224	70	4983
2026-01-08 03:53:51.13	286.45	11.70	-53.0	-55.2	14.2	0.00e+00	0	25	0	1102053376	71	4821
2026-01-08 03:53:52.13	286.34	11.62	-53.0	-55.2	14.2	0.00e+00	0	25	0	1104150528	71	4817
2026-01-08 03:53:53.12	286.23	11.55	-53.2	-55.4	14.0	0.00e+00	0	25	0	1105199104	71	4982
2026-01-08 03:53:54.12	286.12	11.48	-53.1	-55.4	14.0	0.00e+00	0	25	0	1107296256	71	4939
2026-01-08 03:53:55.11	286.01	11.40	-53.3	-55.6	13.9	0.00e+00	0	25	0	1109393408	71	5055
2026-01-08 03:53:56.11	285.90	11.33	-53.3	-55.7	13.9	0.00e+00	0	25	0	1111490560	71	5103
2026-01-08 03:53:57.10	285.79	11.25	-53.3	-55.6	13.9	0.00e+00	0	25	0	1113587712	71	5058
2026-01-08 03:53:58.10	285.68	11.18	-53.3	-55.6	13.9	0.00e+00	0	25	0	1114636288	71	5062
2026-01-08 03:53:59.10	285.58	11.11	-53.3	-55.7	13.9	0.00e+00	0	25	0	1116733440	71	5105
2026-01-08 03:54:00.10	285.47	11.03	-53.3	-55.7	13.8	0.00e+00	0	25	0	1118830592	71	5137
2026-01-08 03:54:01.10	285.36	10.96	-53.3	-55.6	13.9	0.00e+00	0	25	0	1120927744	71	5055
2026-01-08 03:54:02.09	285.25	10.89	-53.2	-55.5	14.0	0.00e+00	0	25	0	1121976320	71	5010
2026-01-08 03:54:03.09	285.15	10.81	-53.2	-55.5	14.0	0.00e+00	0	25	0	1124073472	71	5028
2026-01-08 03:54:04.09	285.04	10.74	-53.3	-55.6	13.9	0.00e+00	0	25	0	1126170624	71	5061
2026-01-08 03:54:05.10	284.94	10.66	-53.2	-55.5	13.9	0.00e+00	0	25	0	1128267776	71	5014
2026-01-08 03:54:06.09	284.83	10.59	-53.2	-55.5	14.0	0.00e+00	0	25	0	1130364928	71	5024
2026-01-08 03:54:07.09	284.73	10.52	-53.4	-55.7	13.8	0.00e+00	0	25	0	1131413504	71	5136
2026-01-08 03:54:08.08	284.63	10.45	-53.3	-55.6	13.9	0.00e+00	0	25	0	1133510656	71	5062
2026-01-08 03:54:09.09	284.52	10.37	-53.4	-55.7	13.8	0.00e+00	0	25	0	1135607808	71	5151
2026-01-08 03:54:10.09	284.42	10.30	-53.4	-55.8	13.8	0.00e+00	0	25	0	1137704960	71	5175
2026-01-08 03:54:11.09	284.32	10.23	-53.5	-55.9	13.9	0.00e+00	0	25	0	1139802112	72	4952
2026-01-08 03:54:12.08	284.22	10.16	-53.4	-55.8	13.9	0.00e+00	0	25	0	1140850688	72	4876
2026-01-08 03:54:13.08	284.12	10.08	-53.4	-55.7	14.0	0.00e+00	0	25	0	1142947840	72	4865
2026-01-08 03:54:14.07	284.02	10.01	-53.4	-55.7	13.9	0.00e+00	0	25	0	1145044992	72	4860
2026-01-08 03:54:15.07	283.92	9.94	-53.3	-55.7	14.0	0.00e+00	0	25	0	1147142144	72	4831
2026-01-08 03:54:16.07	283.82	9.87	-53.4	-55.8	13.9	0.00e+00	0	25	0	1148190720	72	4916
2026-01-08 03:54:17.06	283.72	9.80	-53.4	-55.8	13.9	0.00e+00	0	25	0	1150287872	72	4898
2026-01-08 03:54:18.05	283.62	9.73	-53.4	-55.7	13.9	0.00e+00	0	25	0	1152385024	72	4857
2026-01-08 03:54:19.05	283.53	9.66	-53.3	-55.7	13.9	0.00e+00	0	25	0	1154482176	72	4844
2026-01-08 03:54:20.05	283.43	9.58	-53.3	-55.6	14.0	0.00e+00	0	25	0	1156579328	72	4804
2026-01-08 03:54:21.05	283.33	9.51	-53.2	-55.6	14.0	0.00e+00	0	25	0	1157627904	72	4763
2026-01-08 03:54:22.05	283.24	9.44	-53.3	-55.6	14.0	0.00e+00	0	25	0	1159725056	72	4807
2026-01-08 03:54:23.05	283.14	9.37	-53.4	-55.8	13.9	0.00e+00	0	25	0	1161822208	72	4875
2026-01-08 03:54:24.06	283.04	9.30	-53.4	-55.8	13.9	0.00e+00	0	25	0	1163919360	72	4897
2026-01-08 03:54:25.06	282.95	9.23	-53.5	-56.0	13.8	0.00e+00	0	25	0	1166016512	72	4997
2026-01-08 03:54:26.07	282.85	9.16	-53.5	-56.0	13.7	0.00e+00	0	25	0	1167065088	72	5003
2026-01-08 03:54:27.07	282.76	9.09	-53.5	-56.0	13.7	0.00e+00	0	25	0	1169162240	72	4999
2026-01-08 03:54:28.07	282.67	9.02	-53.6	-56.1	13.6	0.00e+00	0	25	0	1171259392	72	5048
2026-01-08 03:54:29.08	282.57	8.95	-53.6	-56.1	13.7	0.00e+00	0	25	0	1173356544	72	5066
2026-01-08 03:54:30.07	282.48	8.88	-53.7	-56.3	13.5	0.00e+00	0	25	0	1174405120	72	5207
2026-01-08 03:54:31.08	282.39	8.81	-53.8	-56.4	13.6	0.00e+00	0	25	0	1176502272	72	5232
2026-01-08 03:54:32.07	282.30	8.74	-53.8	-56.3	13.5	0.00e+00	0	25	0	1178599424	72	5215
2026-01-08 03:54:33.07	282.21	8.67	-53.7	-56.3	13.6	0.00e+00	0	25	0	1180696576	72	5164
2026-01-08 03:54:34.08	282.11	8.60	-53.8	-56.4	13.5	0.00e+00	0	25	0	1182793728	72	5256
2026-01-08 03:54:35.08	282.02	8.53	-53.7	-56.3	13.6	0.00e+00	0	25	0	1183842304	72	5202
2026-01-08 03:54:36.07	281.93	8.46	-53.7	-56.3	13.5	0.00e+00	0	25	0	1185939456	72	5207
2026-01-08 03:54:37.06	281.85	8.39	-53.8	-56.4	13.5	0.00e+00	0	25	0	1188036608	72	5238
2026-01-08 03:54:38.06	281.76	8.32	-53.9	-56.6	13.4	0.00e+00	0	25	0	1190133760	72	5362
2026-01-08 03:54:39.05	281.67	8.25	-54.0	-56.7	13.4	0.00e+00	0	25	0	1192230912	73	5157
2026-01-08 03:54:40.06	281.58	8.18	-54.0	-56.8	13.4	0.00e+00	0	25	0	1193279488	73	5165
2026-01-08 03:54:41.06	281.49	8.11	-54.0	-56.8	13.4	0.00e+00	0	25	0	1195376640	73	5194
2026-01-08 03:54:42.05	281.41	8.04	-54.1	-56.9	13.3	0.00e+00	0	25	0	1197473792	73	5256
2026-01-08 03:54:43.05	281.32	7.98	-54.2	-57.1	13.2	0.00e+00	0	25	0	1199570944	73	5358
2026-01-08 03:54:44.04	281.23	7.91	-54.2	-57.1	13.2	0.00e+00	0	25	0	1200619520	73	5353
2026-01-08 03:54:45.04	281.15	7.84	-54.3	-57.2	13.1	0.00e+00	0	25	0	1202716672	73	5453
2026-01-08 03:54:46.04	281.06	7.77	-54.2	-57.2	13.1	0.00e+00	0	25	0	1204813824	73	5405
2026-01-08 03:54:47.04	280.98	7.70	-54.3	-57.3	13.0	0.00e+00	0	25	0	1206910976	73	5506
