passes_logs/2026/01/08/R3.2S_Murmansk/R3.2S_Murmansk__20260108_202439_TY-42_rec.log

#Pass ID: 20260108_202439_TY-42
#Satellite: TY-42
#Configuration: TY-42_900M
#almurnet v.1.7.20251203
#Start time: 2026-01-08 20:24:40

#Version: 2.2.20231116
#Station: R3.2S_Murmansk
#Location: 33.079688 lon 68.888172 lat
#TLE: 1 64048U 25103A   26008.64993056  .00008011  00000-0  38191-3 0 09996
#TLE: 2 64048 097.4110 084.1864 0001712 091.7426 302.1052 15.19171442 35856

#Time	Az	El	Level	Level2	SNR	BER	BlckErr	Temp	State	Recorded	gain1	gain2
2026-01-08 20:24:40.32	202.83	2.05	-57.2	-60.4	6.2	0.00e+00	0	29	0	0	81	20624
2026-01-08 20:24:41.32	202.91	2.11	-57.3	-60.5	6.2	0.00e+00	0	29	104	0	81	20710
2026-01-08 20:24:42.32	202.99	2.17	-57.3	-60.5	6.2	0.00e+00	0	29	104	0	81	20743
2026-01-08 20:24:43.33	203.08	2.24	-57.3	-60.5	6.2	0.00e+00	0	29	104	0	81	20659
2026-01-08 20:24:44.31	203.16	2.30	-57.3	-60.5	6.2	0.00e+00	0	29	104	0	81	20732
2026-01-08 20:24:45.31	203.24	2.36	-57.3	-60.5	6.2	0.00e+00	0	29	104	0	81	20730
2026-01-08 20:24:46.30	203.32	2.43	-57.3	-60.5	6.2	0.00e+00	0	29	104	0	81	20780
2026-01-08 20:24:47.29	203.41	2.49	-57.3	-60.5	6.2	0.00e+00	0	29	104	0	81	20689
2026-01-08 20:24:48.29	203.49	2.55	-57.3	-60.5	6.2	0.00e+00	0	29	104	0	81	20755
2026-01-08 20:24:49.27	203.57	2.62	-57.3	-60.5	6.2	0.00e+00	0	29	104	0	81	20720
2026-01-08 20:24:50.27	203.66	2.68	-57.3	-60.5	6.2	0.00e+00	0	29	104	0	81	20784
2026-01-08 20:24:51.26	203.74	2.75	-57.3	-60.5	6.2	0.00e+00	0	29	104	0	81	20775
2026-01-08 20:24:52.26	203.83	2.81	-57.3	-60.5	6.2	0.00e+00	0	30	104	0	81	20762
2026-01-08 20:24:53.24	203.92	2.87	-57.3	-60.5	6.2	0.00e+00	0	29	104	0	81	20807
2026-01-08 20:24:54.24	204.00	2.94	-57.3	-60.5	6.2	0.00e+00	0	30	104	0	81	20767
2026-01-08 20:24:55.24	204.09	3.00	-57.3	-60.5	6.2	0.00e+00	0	30	104	0	81	20779
2026-01-08 20:24:56.24	204.18	3.07	-57.3	-60.5	6.2	0.00e+00	0	30	104	0	81	20847
2026-01-08 20:24:57.23	204.27	3.13	-57.3	-60.5	6.2	0.00e+00	0	30	104	0	81	20828
2026-01-08 20:24:58.22	204.35	3.20	-57.3	-60.5	6.2	0.00e+00	0	30	104	0	81	20813
2026-01-08 20:24:59.21	204.44	3.26	-57.3	-60.5	6.2	0.00e+00	0	30	104	0	81	20841
2026-01-08 20:25:00.21	204.53	3.33	-57.3	-60.5	6.2	0.00e+00	0	30	104	0	81	20856
2026-01-08 20:25:01.20	204.62	3.40	-57.3	-60.5	6.2	0.00e+00	0	30	104	0	81	20807
2026-01-08 20:25:02.20	204.71	3.46	-57.3	-60.5	6.2	0.00e+00	0	30	104	0	81	20826
2026-01-08 20:25:03.20	204.80	3.53	-57.3	-60.5	6.2	0.00e+00	0	30	104	0	81	20850
2026-01-08 20:25:04.20	204.90	3.60	-57.3	-60.6	6.2	0.00e+00	0	30	104	0	81	20888
2026-01-08 20:25:05.20	204.99	3.66	-57.3	-60.6	6.2	0.00e+00	0	30	104	0	81	20890
2026-01-08 20:25:06.19	205.08	3.73	-57.3	-60.6	6.2	0.00e+00	0	30	104	0	81	20940
2026-01-08 20:25:07.19	205.17	3.80	-57.3	-60.6	6.2	0.00e+00	0	30	104	0	81	20901
2026-01-08 20:25:08.18	205.27	3.86	-57.3	-60.6	6.2	0.00e+00	0	31	104	0	81	20911
2026-01-08 20:25:09.18	205.36	3.93	-57.3	-60.6	6.2	0.00e+00	0	31	104	0	81	20916
2026-01-08 20:25:10.18	205.46	4.00	-57.3	-60.6	6.2	0.00e+00	0	31	104	0	81	20940
2026-01-08 20:25:11.18	205.55	4.06	-57.3	-60.6	6.2	0.00e+00	0	31	104	0	81	20937
2026-01-08 20:25:12.18	205.65	4.13	-57.3	-60.6	6.2	0.00e+00	0	31	104	0	81	20973
2026-01-08 20:25:13.18	205.74	4.20	-57.3	-60.6	6.2	0.00e+00	0	31	104	0	81	20939
2026-01-08 20:25:14.18	205.84	4.27	-57.3	-60.6	6.2	0.00e+00	0	31	104	0	81	20929
2026-01-08 20:25:15.18	205.94	4.34	-57.4	-60.6	6.2	0.00e+00	0	31	104	0	81	20959
2026-01-08 20:25:16.18	206.04	4.41	-57.3	-60.6	6.2	0.00e+00	0	31	104	0	81	20902
2026-01-08 20:25:17.18	206.14	4.47	-57.3	-60.6	6.2	0.00e+00	0	31	104	0	81	20970
2026-01-08 20:25:18.17	206.23	4.54	-57.3	-60.6	6.2	0.00e+00	0	31	104	0	81	20987
2026-01-08 20:25:19.17	206.33	4.61	-57.4	-60.6	6.1	0.00e+00	0	31	104	0	81	20942
2026-01-08 20:25:20.17	206.43	4.68	-57.4	-60.6	6.2	0.00e+00	0	31	104	0	81	21008
2026-01-08 20:25:21.17	206.53	4.75	-57.3	-60.6	6.1	0.00e+00	0	31	104	0	81	20966
2026-01-08 20:25:22.17	206.64	4.82	-57.4	-60.6	6.2	0.00e+00	0	31	104	0	81	20999
2026-01-08 20:25:23.17	206.74	4.89	-57.3	-60.6	6.2	0.00e+00	0	31	104	0	81	20934
2026-01-08 20:25:24.18	206.84	4.96	-57.3	-60.6	6.2	0.00e+00	0	31	104	0	81	20945
2026-01-08 20:25:25.18	206.95	5.03	-57.4	-60.6	6.1	0.00e+00	0	31	104	0	81	21011
2026-01-08 20:25:26.18	207.05	5.10	-57.4	-60.6	6.2	0.00e+00	0	31	104	0	81	21005
2026-01-08 20:25:27.18	207.15	5.17	-57.4	-60.7	6.2	0.00e+00	0	31	104	0	81	21174
2026-01-08 20:25:28.17	207.26	5.24	-57.4	-60.6	6.2	0.00e+00	0	31	104	0	81	20993
2026-01-08 20:25:29.16	207.36	5.31	-57.3	-60.5	6.2	0.00e+00	0	31	104	0	81	20858
2026-01-08 20:25:30.16	207.47	5.38	-57.5	-60.8	6.2	0.00e+00	0	31	104	0	81	21388
2026-01-08 20:25:31.16	207.58	5.46	-53.6	-54.9	7.2	0.00e+00	0	31	104	0	73	17218
2026-01-08 20:25:32.15	207.68	5.53	-47.5	-48.0	9.9	0.00e+00	5517	32	104	0	61	15621
2026-01-08 20:25:33.15	207.79	5.60	-56.2	-58.6	6.2	1.14e-01	0	31	104	25165824	78	19930
2026-01-08 20:25:34.15	207.90	5.67	-42.2	-42.6	12.0	2.40e-02	0	32	0	50331648	51	14823
2026-01-08 20:25:35.15	208.01	5.74	-42.5	-42.8	11.9	2.40e-02	0	32	0	167772160	51	15176
2026-01-08 20:25:36.14	208.12	5.81	-42.3	-42.6	11.9	2.40e-02	0	32	0	276824064	51	14924
2026-01-08 20:25:37.14	208.23	5.89	-42.4	-42.8	11.9	2.40e-02	0	32	0	394264576	51	15133
2026-01-08 20:25:38.15	208.34	5.96	-42.4	-42.8	11.9	3.58e-02	0	33	0	503316480	51	15140
2026-01-08 20:25:39.14	208.45	6.03	-42.5	-42.9	11.9	3.58e-02	0	32	0	612368384	51	15313
2026-01-08 20:25:40.14	208.57	6.10	-42.3	-42.7	11.9	3.58e-02	0	33	0	729808896	51	14981
2026-01-08 20:25:41.14	208.68	6.18	-42.2	-42.6	12.0	3.45e-02	0	32	0	838860800	51	14797
2026-01-08 20:25:42.14	208.80	6.25	-42.4	-42.7	11.9	3.45e-02	0	32	0	956301312	51	15058
2026-01-08 20:25:43.14	208.91	6.32	-42.4	-42.7	11.9	3.45e-02	0	33	0	1065353216	51	15042
2026-01-08 20:25:44.14	209.03	6.40	-42.1	-42.5	12.0	2.99e-02	0	33	0	1182793728	51	14623
2026-01-08 20:25:45.13	209.14	6.47	-41.7	-42.0	12.1	2.99e-02	0	33	0	1291845632	50	14687
2026-01-08 20:25:46.14	209.26	6.55	-41.4	-41.7	12.3	2.99e-02	0	33	0	1400897536	50	14181
2026-01-08 20:25:47.13	209.38	6.62	-42.1	-42.4	12.0	2.44e-02	0	33	0	1518338048	50	15446
2026-01-08 20:25:48.13	209.50	6.70	-42.0	-42.3	12.0	2.44e-02	0	33	0	1627389952	50	15201
2026-01-08 20:25:49.12	209.61	6.77	-41.8	-42.1	12.1	2.44e-02	0	33	0	1744830464	50	14874
2026-01-08 20:25:50.11	209.73	6.84	-41.9	-42.2	12.1	2.57e-02	0	33	0	1845493760	50	14997
2026-01-08 20:25:51.10	209.85	6.92	-41.6	-41.9	12.3	2.57e-02	0	33	0	1962934272	50	14555
2026-01-08 20:25:52.10	209.97	6.99	-41.6	-41.9	12.3	2.57e-02	0	33	0	2071986176	50	14494
2026-01-08 20:25:53.09	210.09	7.07	-41.5	-41.8	12.4	1.44e-02	0	33	0	2189426688	50	14319
2026-01-08 20:25:54.08	210.22	7.14	-41.7	-42.0	12.3	1.44e-02	0	33	0	2298478592	50	14656
2026-01-08 20:25:55.08	210.34	7.22	-41.6	-41.9	12.3	1.44e-02	0	33	0	2407530496	50	14546
2026-01-08 20:25:56.07	210.46	7.29	-41.6	-41.9	12.3	1.17e-02	0	33	0	2524971008	50	14593
2026-01-08 20:25:57.07	210.59	7.37	-41.7	-42.0	12.3	1.17e-02	0	34	0	2634022912	50	14661
2026-01-08 20:25:58.06	210.71	7.45	-41.7	-42.0	12.3	1.17e-02	0	33	0	2743074816	50	14714
2026-01-08 20:25:59.06	210.84	7.52	-41.7	-42.0	12.3	1.06e-02	0	34	0	2852126720	50	14678
2026-01-08 20:26:00.06	210.97	7.60	-41.5	-41.8	12.4	1.06e-02	0	34	0	2969567232	50	14316
2026-01-08 20:26:01.06	211.10	7.68	-41.4	-41.7	12.4	1.06e-02	0	34	0	3078619136	50	14175
2026-01-08 20:26:02.06	211.23	7.76	-41.4	-41.7	12.3	9.51e-03	0	34	0	3196059648	49	15101
2026-01-08 20:26:03.05	211.36	7.83	-41.4	-41.7	12.3	9.51e-03	0	34	0	3305111552	49	15086
2026-01-08 20:26:04.04	211.49	7.91	-41.2	-41.6	12.4	9.51e-03	0	34	0	3414163456	49	14782
2026-01-08 20:26:05.04	211.62	7.99	-41.2	-41.5	12.4	9.51e-03	0	34	0	3531603968	49	14635
2026-01-08 20:26:06.03	211.75	8.07	-41.3	-41.6	12.3	8.20e-03	0	34	0	3640655872	49	14933
2026-01-08 20:26:07.02	211.88	8.14	-41.2	-41.5	12.4	8.20e-03	0	34	0	3758096384	49	14618
2026-01-08 20:26:08.02	212.02	8.22	-41.3	-41.6	12.3	8.20e-03	0	34	0	3867148288	49	14793
2026-01-08 20:26:09.02	212.15	8.30	-41.2	-41.5	12.4	7.88e-03	0	34	0	3976200192	49	14756
2026-01-08 20:26:10.03	212.29	8.38	-41.1	-41.4	12.4	7.88e-03	0	34	0	4093640704	49	14591
2026-01-08 20:26:11.03	212.43	8.46	-41.0	-41.3	12.5	7.88e-03	0	34	0	4202692608	49	14380
2026-01-08 20:26:12.02	212.56	8.54	-41.2	-41.5	12.4	7.21e-03	0	34	0	4320133120	49	14690
2026-01-08 20:26:13.02	212.70	8.62	-41.3	-41.6	12.3	7.21e-03	0	34	0	4429185024	49	14913
2026-01-08 20:26:14.02	212.84	8.70	-41.1	-41.4	12.4	7.21e-03	0	34	0	4546625536	49	14520
2026-01-08 20:26:15.02	212.98	8.78	-41.0	-41.4	12.4	7.21e-03	0	34	0	4655677440	49	14459
2026-01-08 20:26:16.02	213.12	8.86	-41.0	-41.3	12.5	6.78e-03	0	34	0	4764729344	49	14337
2026-01-08 20:26:17.01	213.26	8.94	-41.1	-41.4	12.4	6.78e-03	0	34	0	4873781248	49	14483
2026-01-08 20:26:18.01	213.41	9.02	-40.9	-41.2	12.5	6.78e-03	0	34	0	4982833152	49	14247
2026-01-08 20:26:19.02	213.55	9.10	-40.9	-41.3	12.4	6.08e-03	0	34	0	5108662272	48	15123
2026-01-08 20:26:20.01	213.70	9.18	-40.8	-41.1	12.5	6.08e-03	0	34	0	5209325568	48	14813
2026-01-08 20:26:21.01	213.84	9.26	-40.8	-41.2	12.5	6.08e-03	0	34	0	5326766080	48	14973
2026-01-08 20:26:22.00	213.99	9.34	-40.9	-41.2	12.4	4.76e-03	0	34	0	5435817984	48	15023
2026-01-08 20:26:23.01	214.14	9.43	-40.8	-41.2	12.5	4.76e-03	0	34	0	5553258496	48	14954
2026-01-08 20:26:24.00	214.29	9.51	-40.8	-41.1	12.5	4.76e-03	0	35	0	5662310400	48	14842
2026-01-08 20:26:24.99	214.44	9.59	-40.9	-41.3	12.4	5.32e-03	0	35	0	5771362304	48	15127
2026-01-08 20:26:25.99	214.59	9.67	-40.8	-41.2	12.5	5.32e-03	0	35	0	5888802816	48	14975
2026-01-08 20:26:26.98	214.74	9.75	-40.7	-41.0	12.5	5.32e-03	0	35	0	5997854720	48	14689
2026-01-08 20:26:27.98	214.89	9.84	-40.8	-41.1	12.5	4.01e-03	0	34	0	6106906624	48	14939
2026-01-08 20:26:28.98	215.05	9.92	-40.7	-41.0	12.5	4.01e-03	0	34	0	6224347136	48	14638
2026-01-08 20:26:29.96	215.20	10.00	-40.7	-41.0	12.5	4.09e-03	0	35	0	6333399040	48	14718
2026-01-08 20:26:30.95	215.35	10.09	-40.6	-40.9	12.6	4.09e-03	0	35	0	6442450944	48	14589
2026-01-08 20:26:31.95	215.51	10.17	-40.5	-40.8	12.6	4.09e-03	0	35	0	6559891456	48	14438
2026-01-08 20:26:32.95	215.67	10.25	-40.6	-40.9	12.6	3.59e-03	0	35	0	6668943360	48	14535
2026-01-08 20:26:33.95	215.83	10.34	-40.6	-40.9	12.6	3.59e-03	0	35	0	6777995264	48	14527
2026-01-08 20:26:34.95	215.99	10.42	-40.5	-40.7	12.6	3.59e-03	0	35	0	6895435776	48	14272
2026-01-08 20:26:35.93	216.15	10.50	-40.8	-41.1	12.5	3.78e-03	0	35	0	7004487680	48	14838
2026-01-08 20:26:36.93	216.31	10.59	-40.6	-40.9	12.5	3.78e-03	0	35	0	7121928192	48	14570
2026-01-08 20:26:37.93	216.48	10.67	-39.6	-39.9	12.5	4.29e-03	0	35	0	7230980096	46	14521
2026-01-08 20:26:38.93	216.64	10.76	-39.5	-39.8	12.6	4.29e-03	0	35	0	7340032000	46	14340
2026-01-08 20:26:39.93	216.81	10.85	-39.3	-39.7	12.5	4.29e-03	0	35	0	7457472512	45	14966
2026-01-08 20:26:40.92	216.97	10.93	-39.1	-39.4	12.6	4.35e-03	0	35	0	7566524416	45	14473
2026-01-08 20:26:41.92	217.14	11.02	-39.2	-39.6	12.5	4.35e-03	0	35	0	7675576320	45	14806
2026-01-08 20:26:42.92	217.31	11.10	-39.2	-39.5	12.6	4.35e-03	0	35	0	7793016832	45	14675
2026-01-08 20:26:43.91	217.48	11.19	-39.2	-39.5	12.6	3.56e-03	0	35	0	7902068736	45	14725
2026-01-08 20:26:44.91	217.65	11.27	-39.2	-39.5	12.6	3.56e-03	0	35	0	8011120640	45	14704
2026-01-08 20:26:45.91	217.83	11.36	-38.9	-39.2	12.7	3.56e-03	0	35	0	8128561152	45	14244
2026-01-08 20:26:46.91	218.00	11.45	-38.9	-39.2	12.7	3.56e-03	0	35	0	8237613056	45	14191
2026-01-08 20:26:47.90	218.17	11.53	-38.9	-39.2	12.6	2.67e-03	0	35	0	8346664960	44	15052
2026-01-08 20:26:48.90	218.35	11.62	-38.9	-39.2	12.6	2.67e-03	0	35	0	8464105472	44	15045
2026-01-08 20:26:49.91	218.53	11.71	-38.7	-39.0	12.7	2.67e-03	0	35	0	8573157376	44	14718
2026-01-08 20:26:50.90	218.71	11.80	-38.6	-38.9	12.7	2.27e-03	0	35	0	8690597888	44	14590
2026-01-08 20:26:51.89	218.89	11.88	-38.8	-39.1	12.6	2.27e-03	0	35	0	8799649792	44	14844
2026-01-08 20:26:52.88	219.07	11.97	-38.7	-39.0	12.6	2.27e-03	0	35	0	8917090304	44	14745
2026-01-08 20:26:53.87	219.25	12.06	-38.6	-38.9	12.7	2.27e-03	0	35	0	9026142208	44	14554
2026-01-08 20:26:54.86	219.43	12.15	-38.7	-39.0	12.7	2.82e-03	0	35	0	9135194112	44	14677
2026-01-08 20:26:55.85	219.62	12.23	-38.7	-39.0	12.7	2.82e-03	0	35	0	9244246016	44	14664
2026-01-08 20:26:56.85	219.80	12.32	-38.5	-38.8	12.7	2.70e-03	0	35	0	9353297920	44	14338
2026-01-08 20:26:57.84	219.99	12.41	-38.5	-38.8	12.7	2.70e-03	0	35	0	9470738432	44	14370
2026-01-08 20:26:58.83	220.18	12.50	-38.6	-38.9	12.7	2.70e-03	0	35	0	9579790336	44	14484
2026-01-08 20:26:59.83	220.37	12.59	-38.4	-38.7	12.7	2.70e-03	0	35	0	9697230848	43	15008
2026-01-08 20:27:00.82	220.56	12.68	-38.4	-38.7	12.7	1.50e-03	0	35	0	9806282752	43	15067
2026-01-08 20:27:01.82	220.75	12.77	-38.3	-38.6	12.7	1.50e-03	0	35	0	9923723264	43	14929
2026-01-08 20:27:02.82	220.95	12.86	-38.2	-38.5	12.8	1.60e-03	0	35	0	10032775168	43	14647
2026-01-08 20:27:03.83	221.15	12.95	-38.2	-38.5	12.8	1.60e-03	0	35	0	10141827072	43	14668
2026-01-08 20:27:04.82	221.34	13.04	-38.2	-38.5	12.8	1.60e-03	0	35	0	10250878976	43	14614
2026-01-08 20:27:05.82	221.54	13.13	-38.2	-38.5	12.7	1.18e-03	0	35	0	10368319488	43	14761
2026-01-08 20:27:06.81	221.74	13.22	-38.2	-38.5	12.8	1.18e-03	0	35	0	10477371392	43	14703
2026-01-08 20:27:07.80	221.94	13.31	-38.1	-38.4	12.8	1.18e-03	0	35	0	10586423296	43	14603
2026-01-08 20:27:08.80	222.15	13.40	-38.1	-38.4	12.8	1.09e-03	0	35	0	10703863808	43	14517
2026-01-08 20:27:09.80	222.35	13.49	-38.0	-38.3	12.8	1.09e-03	0	35	0	10812915712	43	14314
2026-01-08 20:27:10.80	222.56	13.58	-38.0	-38.3	12.8	8.77e-04	0	35	0	10930356224	43	14425
2026-01-08 20:27:11.80	222.77	13.67	-38.0	-38.3	12.8	8.77e-04	0	36	0	11039408128	43	14292
2026-01-08 20:27:12.79	222.97	13.76	-37.8	-38.1	12.8	8.77e-04	0	35	0	11148460032	42	14907
2026-01-08 20:27:13.80	223.19	13.85	-37.9	-38.2	12.8	9.20e-04	0	35	0	11265900544	42	15008
2026-01-08 20:27:14.80	223.40	13.94	-37.8	-38.1	12.8	9.20e-04	0	36	0	11374952448	42	14848
2026-01-08 20:27:15.80	223.61	14.04	-37.9	-38.2	12.8	9.20e-04	0	35	0	11492392960	42	15082
2026-01-08 20:27:16.80	223.83	14.13	-37.8	-38.2	12.8	6.91e-04	0	36	0	11601444864	42	14967
2026-01-08 20:27:17.79	224.04	14.22	-37.8	-38.1	12.8	6.91e-04	0	36	0	11710496768	42	14840
2026-01-08 20:27:18.79	224.26	14.31	-37.6	-37.9	12.9	7.34e-04	0	35	0	11827937280	42	14547
2026-01-08 20:27:19.79	224.48	14.40	-37.5	-37.8	12.9	7.34e-04	0	35	0	11936989184	42	14362
2026-01-08 20:27:20.78	224.70	14.50	-37.6	-37.9	12.9	7.34e-04	0	36	0	12054429696	42	14584
2026-01-08 20:27:21.78	224.93	14.59	-37.5	-37.9	12.9	4.20e-04	0	36	0	12163481600	42	14446
2026-01-08 20:27:22.78	225.15	14.68	-37.6	-37.9	12.9	4.20e-04	0	36	0	12280922112	42	14472
2026-01-08 20:27:23.78	225.38	14.77	-37.5	-37.8	12.9	4.20e-04	0	36	0	12389974016	42	14405
2026-01-08 20:27:24.78	225.61	14.87	-37.7	-38.0	12.9	4.48e-04	0	36	0	12499025920	42	14619
2026-01-08 20:27:25.78	225.84	14.96	-37.6	-37.9	12.9	4.48e-04	0	36	0	12616466432	42	14474
2026-01-08 20:27:26.77	226.07	15.05	-37.4	-37.7	12.9	5.86e-04	0	35	0	12725518336	42	14149
2026-01-08 20:27:27.77	226.30	15.14	-37.3	-37.6	12.9	5.86e-04	0	36	0	12842958848	41	14807
2026-01-08 20:27:28.77	226.53	15.24	-37.2	-37.5	12.9	5.86e-04	0	36	0	12943622144	41	14682
2026-01-08 20:27:29.76	226.77	15.33	-37.2	-37.5	12.9	5.86e-04	0	36	0	13061062656	41	14640
2026-01-08 20:27:30.75	227.01	15.42	-37.3	-37.5	12.9	3.43e-04	0	36	0	13170114560	41	14769
2026-01-08 20:27:31.75	227.25	15.51	-37.3	-37.5	12.9	3.43e-04	0	36	0	13287555072	41	14764
2026-01-08 20:27:32.74	227.48	15.61	-37.1	-37.4	12.9	4.05e-04	0	36	0	13396606976	41	14553
2026-01-08 20:27:33.74	227.73	15.70	-37.0	-37.3	13.0	4.05e-04	0	36	0	13505658880	41	14375
2026-01-08 20:27:34.74	227.97	15.79	-37.1	-37.4	12.9	4.05e-04	0	36	0	13623099392	41	14556
2026-01-08 20:27:35.73	228.22	15.89	-37.1	-37.4	12.9	3.96e-04	0	36	0	13732151296	41	14474
2026-01-08 20:27:36.73	228.47	15.98	-36.9	-37.3	13.0	3.96e-04	0	36	0	13849591808	41	14276
2026-01-08 20:27:37.73	228.72	16.07	-36.9	-37.2	13.0	3.96e-04	0	36	0	13958643712	41	14195
2026-01-08 20:27:38.73	228.97	16.17	-36.8	-37.1	12.9	3.48e-04	0	36	0	14067695616	40	14872
2026-01-08 20:27:39.73	229.22	16.26	-36.8	-37.2	12.9	3.48e-04	0	36	0	14185136128	40	14972
2026-01-08 20:27:40.73	229.48	16.35	-36.9	-37.2	12.9	3.48e-04	0	36	0	14294188032	40	14986
2026-01-08 20:27:41.72	229.73	16.44	-36.9	-37.2	12.9	2.96e-04	0	36	0	14411628544	40	15038
2026-01-08 20:27:42.72	229.99	16.54	-36.8	-37.1	12.9	2.96e-04	0	36	0	14520680448	40	14851
2026-01-08 20:27:43.72	230.26	16.63	-36.8	-37.1	12.9	2.86e-04	0	36	0	14629732352	40	14826
2026-01-08 20:27:44.72	230.52	16.72	-36.8	-37.1	12.9	2.86e-04	0	36	0	14747172864	40	14813
2026-01-08 20:27:45.71	230.78	16.82	-36.8	-37.1	12.9	2.86e-04	0	36	0	14856224768	40	14789
2026-01-08 20:27:46.70	231.05	16.91	-36.8	-37.2	12.9	3.24e-04	0	36	0	14965276672	40	14957
2026-01-08 20:27:47.70	231.31	17.00	-36.7	-37.0	13.0	3.24e-04	0	36	0	15074328576	40	14700
2026-01-08 20:27:48.70	231.59	17.09	-36.7	-37.0	12.9	3.24e-04	0	36	0	15191769088	40	14679
2026-01-08 20:27:49.69	231.86	17.18	-36.6	-36.9	13.0	3.58e-04	0	36	0	15300820992	40	14454
2026-01-08 20:27:50.69	232.13	17.28	-36.5	-36.8	13.0	3.58e-04	0	36	0	15418261504	40	14434
2026-01-08 20:27:51.69	232.41	17.37	-36.5	-36.8	13.0	3.58e-04	0	36	0	15527313408	40	14398
2026-01-08 20:27:52.69	232.68	17.46	-36.6	-36.9	13.0	2.86e-04	0	36	0	15636365312	40	14477
2026-01-08 20:27:53.69	232.96	17.55	-36.4	-36.7	13.0	2.86e-04	0	36	0	15753805824	40	14250
2026-01-08 20:27:54.69	233.25	17.65	-36.5	-36.8	13.0	2.86e-04	0	36	0	15862857728	40	14299
2026-01-08 20:27:55.69	233.53	17.74	-36.4	-36.8	13.0	4.86e-04	0	36	0	15980298240	40	14277
2026-01-08 20:27:56.69	233.82	17.83	-36.4	-36.7	12.9	4.86e-04	0	36	0	16089350144	39	15088
2026-01-08 20:27:57.69	234.11	17.92	-36.4	-36.7	13.0	4.86e-04	0	36	0	16206790656	39	14994
2026-01-08 20:27:58.68	234.39	18.01	-36.3	-36.6	12.9	5.25e-04	0	36	0	16315842560	39	14940
2026-01-08 20:27:59.67	234.68	18.10	-36.3	-36.6	13.0	5.25e-04	0	36	0	16424894464	39	14849
2026-01-08 20:28:00.68	234.98	18.19	-36.4	-36.7	12.9	2.19e-04	0	36	0	16542334976	39	14979
2026-01-08 20:28:01.68	235.27	18.28	-36.4	-36.8	12.9	2.19e-04	0	36	0	16651386880	39	15121
2026-01-08 20:28:02.68	235.57	18.37	-36.3	-36.6	13.0	2.19e-04	0	36	0	16768827392	39	14818
2026-01-08 20:28:03.67	235.87	18.46	-36.2	-36.5	13.0	1.91e-04	0	36	0	16877879296	39	14687
2026-01-08 20:28:04.66	236.17	18.55	-36.2	-36.5	13.0	1.91e-04	0	36	0	16986931200	39	14681
2026-01-08 20:28:05.65	236.47	18.64	-36.2	-36.6	13.0	1.91e-04	0	36	0	17095983104	39	14793
2026-01-08 20:28:06.65	236.78	18.73	-36.2	-36.5	13.0	1.91e-04	0	36	0	17213423616	39	14644
2026-01-08 20:28:07.64	237.08	18.82	-36.2	-36.5	13.0	2.05e-04	0	36	0	17322475520	39	14630
2026-01-08 20:28:08.63	237.39	18.91	-36.1	-36.4	13.0	2.05e-04	0	36	0	17431527424	39	14559
2026-01-08 20:28:09.63	237.70	18.99	-36.2	-36.5	13.0	1.62e-04	0	36	0	17548967936	39	14687
2026-01-08 20:28:10.63	238.01	19.08	-36.1	-36.4	13.0	1.62e-04	0	36	0	17658019840	39	14486
2026-01-08 20:28:11.62	238.33	19.17	-36.0	-36.3	13.0	1.62e-04	0	36	0	17775460352	39	14310
2026-01-08 20:28:12.63	238.65	19.26	-36.0	-36.3	13.0	1.29e-04	0	36	0	17884512256	39	14394
2026-01-08 20:28:13.63	238.97	19.34	-35.9	-36.2	13.0	1.29e-04	0	36	0	17993564160	39	14245
2026-01-08 20:28:14.63	239.29	19.43	-35.9	-36.1	13.0	1.29e-04	0	36	0	18111004672	39	14106
2026-01-08 20:28:15.62	239.61	19.51	-35.8	-36.1	13.0	1.48e-04	0	36	0	18220056576	38	14937
2026-01-08 20:28:16.62	239.94	19.60	-35.8	-36.1	13.0	1.48e-04	0	36	0	18329108480	38	14835
2026-01-08 20:28:17.61	240.26	19.68	-35.7	-36.0	13.0	9.53e-05	0	36	0	18438160384	38	14676
2026-01-08 20:28:18.61	240.59	19.77	-35.8	-36.1	13.0	9.53e-05	0	36	0	18555600896	38	14818
2026-01-08 20:28:19.61	240.92	19.85	-35.9	-36.2	13.0	9.53e-05	0	36	0	18664652800	38	14990
2026-01-08 20:28:20.61	241.26	19.93	-35.7	-36.0	13.0	1.29e-04	0	36	0	18782093312	38	14722
2026-01-08 20:28:21.61	241.59	20.02	-35.6	-35.9	13.0	1.29e-04	0	36	0	18891145216	38	14569
2026-01-08 20:28:22.62	241.94	20.10	-35.7	-36.0	13.0	1.24e-04	0	36	0	19008585728	38	14694
2026-01-08 20:28:23.61	242.27	20.18	-35.7	-36.0	13.0	1.24e-04	0	36	0	19117637632	38	14708
2026-01-08 20:28:24.61	242.62	20.26	-35.7	-36.0	13.0	1.24e-04	0	36	0	19226689536	38	14696
2026-01-08 20:28:25.60	242.96	20.34	-35.7	-36.0	13.0	1.52e-04	0	36	0	19344130048	38	14656
2026-01-08 20:28:26.59	243.30	20.42	-35.7	-36.0	13.0	1.52e-04	0	36	0	19453181952	38	14633
2026-01-08 20:28:27.59	243.65	20.50	-35.6	-35.9	13.1	1.52e-04	0	36	0	19570622464	38	14462
2026-01-08 20:28:28.58	244.00	20.58	-35.7	-36.0	13.0	9.05e-05	0	36	0	19679674368	38	14638
2026-01-08 20:28:29.59	244.35	20.66	-35.6	-35.8	13.0	9.05e-05	0	36	0	19788726272	38	14428
2026-01-08 20:28:30.59	244.71	20.73	-35.5	-35.8	13.1	9.05e-05	0	36	0	19906166784	38	14282
2026-01-08 20:28:31.59	245.06	20.81	-35.5	-35.8	13.1	1.05e-04	0	36	0	20015218688	38	14285
2026-01-08 20:28:32.58	245.42	20.89	-35.3	-35.6	13.0	1.05e-04	0	36	0	20132659200	37	14792
2026-01-08 20:28:33.58	245.78	20.96	-35.2	-35.5	13.1	9.05e-05	0	36	0	20241711104	37	14695
2026-01-08 20:28:34.58	246.14	21.04	-35.2	-35.5	13.1	9.05e-05	0	36	0	20350763008	37	14721
2026-01-08 20:28:35.57	246.50	21.11	-35.1	-35.4	13.1	9.05e-05	0	36	0	20468203520	37	14541
2026-01-08 20:28:36.57	246.87	21.18	-35.0	-35.3	13.1	9.05e-05	0	36	0	20577255424	37	14387
2026-01-08 20:28:37.57	247.23	21.25	-35.0	-35.3	13.1	1.00e-04	0	36	0	20694695936	37	14381
2026-01-08 20:28:38.57	247.60	21.32	-35.1	-35.4	13.1	1.00e-04	0	36	0	20795359232	37	14504
2026-01-08 20:28:39.57	247.97	21.39	-35.1	-35.4	13.1	1.00e-04	0	36	0	20912799744	37	14515
2026-01-08 20:28:40.57	248.35	21.46	-35.0	-35.3	13.1	8.58e-05	0	36	0	21021851648	37	14325
2026-01-08 20:28:41.56	248.72	21.53	-35.1	-35.3	13.1	8.58e-05	0	36	0	21139292160	37	14430
2026-01-08 20:28:42.57	249.10	21.60	-35.0	-35.3	13.1	8.58e-05	0	36	0	21256732672	37	14374
2026-01-08 20:28:43.56	249.48	21.67	-35.0	-35.3	13.1	4.76e-05	0	36	0	21357395968	37	14424
2026-01-08 20:28:44.56	249.86	21.73	-35.0	-35.3	13.1	4.76e-05	0	36	0	21474836480	37	14353
2026-01-08 20:28:45.56	250.24	21.80	-35.0	-35.3	13.1	4.76e-05	0	36	0	21583888384	37	14359
2026-01-08 20:28:46.56	250.62	21.86	-34.9	-35.2	13.1	4.76e-05	0	36	0	21701328896	37	14240
2026-01-08 20:28:47.56	251.01	21.92	-35.0	-35.3	13.1	6.19e-05	0	36	0	21810380800	37	14281
2026-01-08 20:28:48.55	251.39	21.98	-35.0	-35.3	13.1	6.19e-05	0	36	0	21927821312	37	14362
2026-01-08 20:28:49.54	251.78	22.05	-35.1	-35.3	13.1	6.19e-05	0	36	0	22036873216	37	14411
2026-01-08 20:28:50.54	252.17	22.10	-35.0	-35.3	13.1	5.24e-05	0	36	0	22145925120	37	14387
2026-01-08 20:28:51.54	252.56	22.16	-35.0	-35.3	13.1	5.24e-05	0	36	0	22263365632	37	14392
2026-01-08 20:28:52.54	252.96	22.22	-35.1	-35.4	13.1	6.19e-05	0	36	0	22372417536	37	14473
2026-01-08 20:28:53.54	253.35	22.28	-35.1	-35.4	13.1	6.19e-05	0	36	0	22489858048	37	14444
2026-01-08 20:28:54.54	253.75	22.33	-35.2	-35.5	13.1	6.19e-05	0	36	0	22598909952	37	14609
2026-01-08 20:28:55.53	254.15	22.39	-35.1	-35.4	13.1	1.24e-04	0	36	0	22707961856	37	14495
2026-01-08 20:28:56.52	254.54	22.44	-35.1	-35.4	13.1	1.24e-04	0	36	0	22825402368	37	14473
2026-01-08 20:28:57.52	254.94	22.49	-35.0	-35.3	13.1	1.24e-04	0	36	0	22934454272	37	14367
2026-01-08 20:28:58.51	255.34	22.54	-35.0	-35.3	13.1	2.10e-04	0	36	0	23043506176	37	14368
2026-01-08 20:28:59.51	255.75	22.59	-35.0	-35.3	13.1	2.10e-04	0	36	0	23152558080	37	14297
2026-01-08 20:29:00.51	256.16	22.64	-35.0	-35.3	13.1	2.10e-04	0	36	0	23269998592	37	14339
2026-01-08 20:29:01.50	256.56	22.69	-35.1	-35.4	13.1	3.81e-05	0	36	0	23379050496	37	14468
2026-01-08 20:29:02.49	256.96	22.73	-35.1	-35.4	13.1	3.81e-05	0	36	0	23496491008	37	14459
2026-01-08 20:29:03.49	257.37	22.77	-35.0	-35.3	13.1	3.81e-05	0	36	0	23605542912	37	14383
2026-01-08 20:29:04.47	257.78	22.82	-35.1	-35.4	13.1	8.58e-05	0	36	0	23714594816	37	14458
2026-01-08 20:29:05.47	258.19	22.86	-35.1	-35.3	13.0	8.58e-05	0	36	0	23832035328	37	14433
2026-01-08 20:29:06.46	258.60	22.90	-35.0	-35.3	13.1	5.72e-05	0	36	0	23941087232	37	14360
2026-01-08 20:29:07.46	259.02	22.94	-35.0	-35.3	13.1	5.72e-05	0	36	0	24050139136	37	14360
2026-01-08 20:29:08.46	259.43	22.98	-35.1	-35.3	13.0	5.72e-05	0	36	0	24159191040	37	14438
2026-01-08 20:29:09.45	259.84	23.01	-35.1	-35.4	13.0	5.72e-05	0	36	0	24276631552	37	14456
2026-01-08 20:29:10.45	260.26	23.05	-35.2	-35.5	13.0	4.29e-05	0	36	0	24385683456	37	14616
2026-01-08 20:29:11.45	260.68	23.08	-35.0	-35.3	13.1	4.29e-05	0	36	0	24503123968	37	14300
2026-01-08 20:29:12.44	261.10	23.11	-35.0	-35.3	13.1	4.29e-05	0	36	0	24612175872	37	14283
2026-01-08 20:29:13.45	261.52	23.15	-35.0	-35.3	13.0	8.10e-05	0	36	0	24721227776	37	14357
2026-01-08 20:29:14.44	261.94	23.18	-35.0	-35.3	13.0	8.10e-05	0	36	0	24838668288	37	14378
2026-01-08 20:29:15.44	262.36	23.20	-35.0	-35.3	13.1	2.86e-05	0	36	0	24947720192	37	14328
2026-01-08 20:29:16.45	262.79	23.23	-34.9	-35.2	13.1	2.86e-05	0	36	0	25065160704	37	14215
2026-01-08 20:29:17.45	263.22	23.26	-35.0	-35.3	13.0	8.10e-05	0	36	0	25174212608	37	14326
2026-01-08 20:29:18.45	263.64	23.28	-34.9	-35.2	13.0	8.10e-05	0	36	0	25291653120	37	14187
2026-01-08 20:29:19.45	264.07	23.30	-35.0	-35.2	13.0	8.10e-05	0	36	0	25400705024	37	14268
2026-01-08 20:29:20.45	264.50	23.32	-35.0	-35.2	13.0	8.10e-05	0	36	0	25509756928	37	14252
2026-01-08 20:29:21.45	264.92	23.34	-35.0	-35.2	13.0	7.15e-05	0	36	0	25627197440	37	14269
2026-01-08 20:29:22.44	265.35	23.36	-35.1	-35.4	13.0	7.15e-05	0	36	0	25736249344	37	14519
2026-01-08 20:29:23.44	265.77	23.38	-34.9	-35.2	13.0	7.15e-05	0	36	0	25853689856	37	14155
2026-01-08 20:29:24.43	266.20	23.39	-34.9	-35.2	13.0	9.53e-05	0	36	0	25962741760	37	14181
2026-01-08 20:29:25.42	266.62	23.41	-34.9	-35.2	13.0	9.53e-05	0	36	0	26071793664	37	14185
2026-01-08 20:29:26.42	267.05	23.42	-34.9	-35.2	13.0	9.53e-05	0	36	0	26189234176	37	14177
2026-01-08 20:29:27.42	267.48	23.43	-35.0	-35.3	13.0	1.10e-04	0	36	0	26298286080	37	14326
2026-01-08 20:29:28.42	267.91	23.44	-34.9	-35.2	13.0	1.10e-04	0	36	0	26415726592	37	14202
2026-01-08 20:29:29.41	268.34	23.44	-35.0	-35.3	13.0	1.10e-04	0	36	0	26516389888	37	14296
2026-01-08 20:29:30.42	268.77	23.45	-35.0	-35.2	13.0	1.00e-04	0	36	0	26633830400	37	14216
2026-01-08 20:29:31.41	269.20	23.45	-35.0	-35.3	13.0	1.00e-04	0	36	0	26742882304	37	14322
2026-01-08 20:29:32.40	269.63	23.46	-35.0	-35.3	13.0	3.81e-05	0	36	0	26860322816	37	14294
2026-01-08 20:29:33.38	270.05	23.46	-35.1	-35.4	13.0	3.81e-05	0	36	0	26969374720	37	14462
2026-01-08 20:29:34.39	270.48	23.46	-35.1	-35.4	13.0	3.81e-05	0	36	0	27078426624	37	14464
2026-01-08 20:29:35.39	270.91	23.46	-35.0	-35.3	13.0	5.72e-05	0	36	0	27195867136	37	14317
2026-01-08 20:29:36.39	271.35	23.45	-35.1	-35.4	12.9	5.72e-05	0	36	0	27304919040	37	14497
2026-01-08 20:29:37.39	271.78	23.45	-35.2	-35.5	13.0	5.72e-05	0	36	0	27422359552	37	14644
2026-01-08 20:29:38.39	272.21	23.44	-35.1	-35.3	13.0	9.53e-05	0	36	0	27531411456	37	14393
2026-01-08 20:29:39.39	272.64	23.44	-35.2	-35.5	13.0	9.53e-05	0	36	0	27640463360	37	14609
2026-01-08 20:29:40.39	273.07	23.43	-35.1	-35.4	13.0	6.67e-05	0	36	0	27757903872	37	14451
2026-01-08 20:29:41.39	273.50	23.42	-35.2	-35.4	12.9	6.67e-05	0	36	0	27866955776	37	14605
2026-01-08 20:29:42.38	273.92	23.40	-35.2	-35.4	13.0	6.67e-05	0	36	0	27984396288	37	14581
2026-01-08 20:29:43.39	274.35	23.39	-35.2	-35.5	12.9	8.58e-05	0	36	0	28093448192	37	14687
2026-01-08 20:29:44.39	274.78	23.37	-35.2	-35.5	12.9	8.58e-05	0	36	0	28210888704	37	14667
2026-01-08 20:29:45.38	275.21	23.36	-35.2	-35.5	12.9	8.58e-05	0	36	0	28319940608	37	14610
2026-01-08 20:29:46.37	275.63	23.34	-35.3	-35.6	12.9	1.19e-04	0	36	0	28428992512	37	14821
2026-01-08 20:29:47.37	276.06	23.32	-35.3	-35.6	12.9	1.19e-04	0	36	0	28538044416	37	14780
2026-01-08 20:29:48.36	276.48	23.30	-35.4	-35.7	12.9	1.19e-04	0	36	0	28655484928	37	15021
2026-01-08 20:29:49.36	276.90	23.28	-35.2	-35.5	12.9	1.57e-04	0	36	0	28764536832	37	14740
2026-01-08 20:29:50.36	277.33	23.25	-35.2	-35.5	12.9	1.57e-04	0	36	0	28873588736	37	14752
2026-01-08 20:29:51.35	277.75	23.23	-35.3	-35.6	12.9	2.62e-04	0	36	0	28991029248	37	14932
2026-01-08 20:29:52.35	278.17	23.20	-35.4	-35.7	12.9	2.62e-04	0	36	0	29100081152	37	14993
2026-01-08 20:29:53.35	278.59	23.17	-35.5	-35.8	12.8	4.72e-04	0	36	0	29217521664	37	15165
2026-01-08 20:29:54.34	279.01	23.14	-35.4	-35.7	12.9	4.72e-04	0	36	0	29326573568	37	15035
2026-01-08 20:29:55.34	279.43	23.11	-35.4	-35.7	12.9	4.72e-04	0	36	0	29435625472	37	14955
2026-01-08 20:29:56.34	279.85	23.08	-35.4	-35.7	12.9	6.44e-04	0	36	0	29553065984	37	14982
2026-01-08 20:29:57.34	280.27	23.04	-35.5	-35.8	12.9	6.44e-04	0	36	0	29662117888	37	15125
2026-01-08 20:29:58.33	280.68	23.01	-35.3	-35.6	12.9	6.44e-04	0	36	0	29779558400	37	14895
2026-01-08 20:29:59.33	281.10	22.97	-35.3	-35.6	12.9	5.20e-04	0	36	0	29888610304	37	14841
2026-01-08 20:30:00.32	281.51	22.94	-35.4	-35.7	12.9	5.20e-04	0	37	0	29997662208	37	15101
2026-01-08 20:30:01.31	281.92	22.90	-35.4	-35.7	12.9	5.20e-04	0	36	0	30106714112	37	15025
2026-01-08 20:30:02.30	282.33	22.86	-35.5	-35.7	12.9	1.43e-04	0	36	0	30224154624	37	15099
2026-01-08 20:30:03.30	282.74	22.81	-35.5	-35.8	12.9	1.43e-04	0	36	0	30333206528	37	15182
2026-01-08 20:30:04.30	283.15	22.77	-35.6	-35.8	12.9	1.76e-04	0	36	0	30442258432	37	15270
2026-01-08 20:30:05.29	283.56	22.73	-35.4	-35.6	12.9	1.76e-04	0	36	0	30559698944	37	14922
2026-01-08 20:30:06.29	283.96	22.68	-35.4	-35.7	12.9	1.05e-04	0	36	0	30668750848	37	15077
2026-01-08 20:30:07.29	284.37	22.63	-35.5	-35.8	12.9	1.05e-04	0	36	0	30786191360	37	15251
2026-01-08 20:30:08.27	284.77	22.59	-35.6	-35.9	12.9	1.05e-04	0	36	0	30895243264	37	15378
2026-01-08 20:30:09.26	285.17	22.54	-35.6	-35.9	12.9	1.05e-04	0	36	0	31004295168	37	15383
2026-01-08 20:30:10.26	285.57	22.49	-35.6	-35.9	12.9	1.24e-04	0	36	0	31113347072	37	15417
2026-01-08 20:30:11.26	285.97	22.44	-35.5	-35.8	12.9	1.24e-04	0	36	0	31230787584	37	15219
2026-01-08 20:30:12.26	286.37	22.38	-35.6	-35.9	12.9	9.53e-05	0	36	0	31339839488	37	15339
2026-01-08 20:30:13.25	286.76	22.33	-35.6	-35.9	12.9	9.53e-05	0	36	0	31448891392	37	15367
2026-01-08 20:30:14.25	287.16	22.27	-35.5	-35.8	13.0	9.53e-05	0	36	0	31566331904	37	15197
2026-01-08 20:30:15.25	287.56	22.22	-35.6	-35.9	12.9	9.53e-05	0	36	0	31675383808	37	15380
2026-01-08 20:30:16.25	287.95	22.16	-35.7	-36.0	12.9	9.53e-05	0	36	0	31792824320	37	15477
2026-01-08 20:30:17.25	288.34	22.10	-35.7	-36.0	12.9	9.53e-05	0	36	0	31901876224	37	15499
2026-01-08 20:30:18.25	288.73	22.04	-35.7	-35.9	12.9	6.19e-05	0	36	0	32010928128	37	15473
2026-01-08 20:30:19.25	289.12	21.98	-35.6	-35.9	13.0	6.19e-05	0	36	0	32128368640	37	15386
2026-01-08 20:30:20.25	289.50	21.92	-35.7	-35.9	13.0	6.19e-05	0	36	0	32237420544	37	15454
2026-01-08 20:30:21.25	289.89	21.86	-35.7	-35.9	13.0	6.19e-05	0	36	0	32354861056	37	15465
2026-01-08 20:30:22.24	290.27	21.79	-35.7	-36.0	13.0	8.10e-05	0	36	0	32463912960	37	15511
2026-01-08 20:30:23.24	290.65	21.73	-35.8	-36.1	13.0	8.10e-05	0	36	0	32581353472	37	15724
2026-01-08 20:30:24.23	291.03	21.66	-35.8	-36.1	13.0	1.00e-04	0	36	0	32690405376	37	15827
2026-01-08 20:30:25.23	291.40	21.60	-35.8	-36.1	13.0	1.00e-04	0	36	0	32799457280	37	15778
2026-01-08 20:30:26.22	291.78	21.53	-36.0	-36.3	12.9	1.72e-04	0	36	0	32916897792	37	16046
2026-01-08 20:30:27.22	292.15	21.46	-35.8	-36.1	13.0	1.72e-04	0	36	0	33025949696	37	15734
2026-01-08 20:30:28.21	292.52	21.39	-35.9	-36.2	13.0	1.72e-04	0	36	0	33135001600	37	15847
2026-01-08 20:30:29.21	292.89	21.32	-36.0	-36.3	13.0	1.72e-04	0	37	0	33244053504	37	16057
2026-01-08 20:30:30.20	293.25	21.25	-36.0	-36.3	13.0	7.15e-05	0	36	0	33361494016	37	16051
2026-01-08 20:30:31.20	293.62	21.18	-36.0	-36.3	13.0	7.15e-05	0	36	0	33470545920	37	16035
2026-01-08 20:30:32.20	293.98	21.11	-36.0	-36.3	12.9	7.15e-05	0	36	0	33587986432	37	16024
2026-01-08 20:30:33.19	294.34	21.04	-35.9	-36.2	13.0	1.10e-04	0	37	0	33697038336	37	15996
2026-01-08 20:30:34.19	294.70	20.96	-36.0	-36.3	13.0	1.10e-04	0	36	0	33806090240	37	16073
2026-01-08 20:30:35.19	295.06	20.89	-36.1	-36.4	13.0	1.10e-04	0	36	0	33923530752	37	16264
2026-01-08 20:30:36.19	295.42	20.81	-35.9	-36.2	13.0	1.62e-04	0	36	0	34032582656	37	15974
2026-01-08 20:30:37.19	295.77	20.74	-35.9	-36.2	13.0	1.62e-04	0	36	0	34150023168	37	15912
2026-01-08 20:30:38.18	296.12	20.66	-36.0	-36.3	13.0	1.62e-04	0	36	0	34259075072	37	16116
2026-01-08 20:30:39.18	296.47	20.58	-36.0	-36.3	13.0	1.43e-04	0	37	0	34368126976	38	15193
2026-01-08 20:30:40.18	296.82	20.50	-36.1	-36.4	13.0	1.43e-04	0	36	0	34485567488	38	15358
2026-01-08 20:30:41.18	297.17	20.43	-36.1	-36.4	13.0	1.43e-04	0	36	0	34594619392	38	15433
2026-01-08 20:30:42.18	297.52	20.35	-36.1	-36.4	13.0	1.43e-04	0	36	0	34712059904	38	15342
2026-01-08 20:30:43.18	297.86	20.27	-36.2	-36.5	13.0	1.43e-04	0	37	0	34821111808	38	15544
2026-01-08 20:30:44.17	298.20	20.19	-36.3	-36.5	13.0	1.43e-04	0	36	0	34930163712	38	15642
2026-01-08 20:30:45.17	298.54	20.10	-36.2	-36.5	13.0	1.14e-04	0	36	0	35039215616	38	15504
2026-01-08 20:30:46.16	298.87	20.02	-36.3	-36.5	13.0	1.14e-04	0	36	0	35156656128	38	15646
2026-01-08 20:30:47.16	299.20	19.94	-36.4	-36.7	13.0	1.05e-04	0	36	0	35265708032	38	15885
2026-01-08 20:30:48.16	299.54	19.86	-36.2	-36.5	13.0	1.05e-04	0	36	0	35374759936	38	15628
2026-01-08 20:30:49.16	299.87	19.77	-36.3	-36.6	13.0	1.05e-04	0	36	0	35492200448	38	15655
2026-01-08 20:30:50.16	300.20	19.69	-36.4	-36.7	13.0	1.19e-04	0	36	0	35601252352	38	15917
2026-01-08 20:30:51.15	300.52	19.61	-36.2	-36.5	13.1	1.19e-04	0	36	0	35718692864	38	15483
2026-01-08 20:30:52.14	300.84	19.52	-36.3	-36.6	13.0	8.58e-05	0	36	0	35827744768	38	15746
2026-01-08 20:30:53.14	301.16	19.44	-36.3	-36.6	13.0	8.58e-05	0	37	0	35936796672	38	15711
2026-01-08 20:30:54.14	301.48	19.35	-36.3	-36.5	13.0	8.58e-05	0	36	0	36054237184	38	15648
2026-01-08 20:30:55.14	301.80	19.27	-36.3	-36.5	13.0	2.24e-04	0	36	0	36163289088	38	15643
2026-01-08 20:30:56.14	302.12	19.18	-36.3	-36.6	13.0	2.24e-04	0	36	0	36280729600	38	15658
2026-01-08 20:30:57.13	302.43	19.09	-36.3	-36.6	13.0	2.24e-04	0	36	0	36389781504	38	15757
2026-01-08 20:30:58.13	302.74	19.01	-36.3	-36.6	13.0	3.29e-04	0	36	0	36507222016	38	15667
2026-01-08 20:30:59.12	303.05	18.92	-36.5	-36.8	13.0	3.29e-04	0	36	0	36616273920	38	16054
2026-01-08 20:31:00.11	303.36	18.83	-36.5	-36.8	13.0	3.29e-04	0	36	0	36725325824	38	16161
2026-01-08 20:31:01.11	303.66	18.74	-36.6	-36.9	13.0	2.34e-04	0	37	0	36834377728	38	16230
2026-01-08 20:31:02.10	303.97	18.66	-36.6	-36.9	13.0	2.34e-04	0	36	0	36951818240	39	15432
2026-01-08 20:31:03.10	304.27	18.57	-36.6	-36.9	13.0	2.05e-04	0	37	0	37060870144	39	15399
2026-01-08 20:31:04.09	304.57	18.48	-36.8	-37.1	13.0	2.05e-04	0	36	0	37169922048	39	15707
2026-01-08 20:31:05.09	304.86	18.39	-36.8	-37.1	13.0	2.05e-04	0	36	0	37287362560	39	15672
2026-01-08 20:31:06.08	305.16	18.30	-36.8	-37.1	13.0	1.86e-04	0	36	0	37396414464	39	15788
2026-01-08 20:31:07.08	305.45	18.21	-36.7	-37.0	13.0	1.86e-04	0	36	0	37513854976	39	15550
2026-01-08 20:31:08.08	305.74	18.12	-36.8	-37.1	13.0	1.86e-04	0	36	0	37622906880	39	15754
2026-01-08 20:31:09.08	306.04	18.03	-36.9	-37.2	13.0	2.00e-04	0	36	0	37731958784	39	15889
2026-01-08 20:31:10.07	306.32	17.94	-36.9	-37.2	13.0	2.00e-04	0	36	0	37849399296	39	15876
2026-01-08 20:31:11.07	306.61	17.85	-36.8	-37.1	13.0	2.00e-04	0	37	0	37958451200	39	15756
2026-01-08 20:31:12.06	306.89	17.76	-37.0	-37.3	13.0	2.05e-04	0	36	0	38067503104	39	16025
2026-01-08 20:31:13.06	307.17	17.67	-36.9	-37.2	13.0	2.05e-04	0	36	0	38176555008	39	15845
2026-01-08 20:31:14.06	307.45	17.58	-37.0	-37.3	13.0	2.05e-04	0	36	0	38293995520	39	16138
2026-01-08 20:31:15.05	307.73	17.49	-36.9	-37.2	13.0	1.91e-04	0	36	0	38403047424	39	15958
2026-01-08 20:31:16.05	308.01	17.39	-37.0	-37.3	13.0	1.91e-04	0	37	0	38520487936	39	16035
2026-01-08 20:31:17.04	308.28	17.30	-37.1	-37.4	13.0	1.81e-04	0	36	0	38629539840	39	16243
2026-01-08 20:31:18.04	308.55	17.21	-37.0	-37.3	13.0	1.81e-04	0	36	0	38738591744	40	15158
2026-01-08 20:31:19.03	308.82	17.12	-37.1	-37.4	13.0	1.81e-04	0	36	0	38856032256	40	15322
2026-01-08 20:31:20.04	309.09	17.03	-37.1	-37.4	13.0	1.24e-04	0	36	0	38965084160	40	15344
2026-01-08 20:31:21.03	309.36	16.94	-37.0	-37.3	13.0	1.24e-04	0	37	0	39082524672	40	15133
2026-01-08 20:31:22.02	309.62	16.84	-37.0	-37.3	13.0	1.24e-04	0	37	0	39191576576	40	15241
2026-01-08 20:31:23.02	309.89	16.75	-37.0	-37.3	13.0	1.91e-04	0	36	0	39300628480	40	15204
2026-01-08 20:31:24.02	310.15	16.66	-37.0	-37.3	13.0	1.91e-04	0	37	0	39409680384	40	15266
2026-01-08 20:31:25.02	310.41	16.57	-37.2	-37.5	12.9	1.91e-04	0	37	0	39527120896	40	15595
2026-01-08 20:31:26.01	310.66	16.47	-37.1	-37.4	12.9	2.34e-04	0	37	0	39636172800	40	15435
2026-01-08 20:31:27.01	310.92	16.38	-37.1	-37.4	13.0	2.34e-04	0	37	0	39745224704	40	15365
2026-01-08 20:31:28.00	311.17	16.29	-37.0	-37.3	13.0	2.34e-04	0	37	0	39862665216	40	15185
2026-01-08 20:31:29.00	311.43	16.20	-37.1	-37.3	13.0	2.24e-04	0	36	0	39971717120	40	15272
2026-01-08 20:31:29.99	311.67	16.11	-37.0	-37.3	13.0	2.24e-04	0	36	0	40089157632	40	15222
2026-01-08 20:31:30.99	311.92	16.01	-37.1	-37.4	13.0	2.24e-04	0	37	0	40198209536	40	15371
2026-01-08 20:31:31.99	312.17	15.92	-37.1	-37.3	13.0	1.38e-04	0	37	0	40315650048	40	15280
2026-01-08 20:31:32.99	312.42	15.83	-37.0	-37.3	13.0	1.38e-04	0	36	0	40424701952	40	15218
2026-01-08 20:31:33.99	312.66	15.74	-37.1	-37.4	12.9	2.57e-04	0	36	0	40533753856	40	15330
2026-01-08 20:31:34.99	312.90	15.64	-37.2	-37.5	12.9	2.57e-04	0	36	0	40651194368	40	15519
2026-01-08 20:31:35.98	313.14	15.55	-37.2	-37.5	12.9	2.38e-04	0	36	0	40760246272	40	15493
2026-01-08 20:31:36.98	313.38	15.46	-37.3	-37.6	12.9	2.38e-04	0	36	0	40877686784	40	15773
2026-01-08 20:31:37.98	313.62	15.37	-37.2	-37.5	12.9	2.38e-04	0	36	0	40986738688	40	15605
2026-01-08 20:31:38.98	313.86	15.27	-37.3	-37.6	12.9	2.57e-04	0	36	0	41095790592	40	15754
2026-01-08 20:31:39.98	314.09	15.18	-37.4	-37.7	12.9	2.57e-04	0	37	0	41213231104	40	15934
2026-01-08 20:31:40.97	314.32	15.09	-37.4	-37.7	12.9	2.57e-04	0	36	0	41322283008	40	15863
2026-01-08 20:31:41.96	314.55	15.00	-37.4	-37.7	12.9	2.96e-04	0	36	0	41431334912	40	15874
2026-01-08 20:31:42.95	314.77	14.91	-37.4	-37.7	12.9	2.96e-04	0	37	0	41540386816	40	16012
2026-01-08 20:31:43.95	315.00	14.82	-37.5	-37.9	12.8	2.96e-04	0	36	0	41657827328	40	16227
2026-01-08 20:31:44.96	315.23	14.72	-37.7	-38.0	12.8	4.10e-04	0	37	0	41766879232	41	15615
2026-01-08 20:31:45.95	315.45	14.63	-37.6	-37.9	12.8	4.10e-04	0	37	0	41884319744	41	15386
2026-01-08 20:31:46.95	315.67	14.54	-37.6	-37.9	12.9	4.10e-04	0	36	0	41993371648	41	15320
2026-01-08 20:31:47.95	315.90	14.45	-37.7	-38.0	12.8	4.62e-04	0	36	0	42102423552	41	15532
2026-01-08 20:31:48.95	316.12	14.36	-37.6	-37.9	12.8	4.62e-04	0	37	0	42219864064	41	15411
2026-01-08 20:31:49.94	316.33	14.27	-37.8	-38.0	12.8	4.48e-04	0	36	0	42328915968	41	15642
2026-01-08 20:31:50.95	316.55	14.17	-37.7	-38.0	12.8	4.48e-04	0	37	0	42446356480	41	15497
2026-01-08 20:31:51.95	316.76	14.08	-37.8	-38.1	12.8	4.48e-04	0	37	0	42555408384	41	15661
2026-01-08 20:31:52.94	316.98	13.99	-37.9	-38.2	12.7	4.48e-04	0	37	0	42664460288	41	15991
2026-01-08 20:31:53.94	317.19	13.90	-37.8	-38.1	12.8	5.86e-04	0	36	0	42781900800	41	15680
2026-01-08 20:31:54.94	317.40	13.81	-37.9	-38.2	12.7	5.86e-04	0	36	0	42890952704	41	15877
2026-01-08 20:31:55.94	317.61	13.72	-38.0	-38.3	12.7	5.86e-04	0	37	0	43008393216	41	16067
2026-01-08 20:31:56.94	317.81	13.63	-37.9	-38.2	12.7	1.01e-03	0	37	0	43117445120	41	15870
2026-01-08 20:31:57.95	318.02	13.54	-37.8	-38.1	12.7	1.01e-03	0	37	0	43234885632	41	15804
2026-01-08 20:31:58.95	318.23	13.45	-38.1	-38.4	12.7	1.15e-03	0	37	0	43343937536	41	16241
2026-01-08 20:31:59.94	318.43	13.36	-38.1	-38.4	12.7	1.15e-03	0	37	0	43452989440	41	16233
2026-01-08 20:32:00.94	318.63	13.27	-38.0	-38.3	12.7	9.77e-04	0	37	0	43570429952	41	16132
2026-01-08 20:32:01.93	318.83	13.18	-38.2	-38.5	12.7	9.77e-04	0	37	0	43679481856	42	15501
2026-01-08 20:32:02.93	319.02	13.09	-38.1	-38.4	12.7	9.77e-04	0	37	0	43796922368	42	15316
2026-01-08 20:32:03.92	319.22	13.00	-38.2	-38.5	12.6	9.77e-04	0	36	0	43897585664	42	15585
2026-01-08 20:32:04.92	319.42	12.91	-38.2	-38.5	12.6	9.92e-04	0	37	0	44015026176	42	15607
2026-01-08 20:32:05.91	319.61	12.82	-38.2	-38.4	12.7	9.92e-04	0	36	0	44124078080	42	15464
2026-01-08 20:32:06.91	319.80	12.73	-38.3	-38.6	12.7	1.41e-03	0	37	0	44241518592	42	15729
2026-01-08 20:32:07.91	319.99	12.64	-38.3	-38.6	12.6	1.41e-03	0	37	0	44350570496	42	15832
2026-01-08 20:32:08.90	320.18	12.56	-38.5	-38.8	12.6	1.41e-03	0	37	0	44459622400	42	16182
2026-01-08 20:32:09.90	320.37	12.47	-38.6	-38.9	12.6	1.41e-03	0	37	0	44577062912	43	15332
2026-01-08 20:32:10.90	320.56	12.38	-38.6	-38.9	12.6	1.18e-03	0	37	0	44686114816	43	15302
2026-01-08 20:32:11.89	320.74	12.29	-38.5	-38.8	12.6	1.18e-03	0	37	0	44803555328	43	15279
2026-01-08 20:32:12.88	320.93	12.20	-38.6	-38.9	12.6	1.40e-03	0	37	0	44912607232	43	15433
2026-01-08 20:32:13.88	321.11	12.12	-38.5	-38.8	12.6	1.40e-03	0	37	0	45021659136	43	15221
2026-01-08 20:32:14.87	321.29	12.03	-38.4	-38.7	12.7	1.40e-03	0	37	0	45139099648	43	15030
2026-01-08 20:32:15.88	321.47	11.94	-38.7	-39.0	12.6	1.43e-03	0	37	0	45248151552	43	15524
2026-01-08 20:32:16.86	321.65	11.86	-38.8	-39.1	12.5	1.43e-03	0	37	0	45357203456	43	15820
2026-01-08 20:32:17.87	321.83	11.77	-38.7	-39.0	12.6	1.43e-03	0	37	0	45466255360	43	15498
2026-01-08 20:32:18.86	322.01	11.68	-38.6	-38.9	12.5	1.89e-03	0	37	0	45583695872	43	15385
2026-01-08 20:32:19.86	322.18	11.60	-38.7	-38.9	12.4	1.89e-03	0	37	0	45692747776	43	15434
2026-01-08 20:32:20.86	322.36	11.51	-38.7	-39.0	12.5	1.89e-03	0	37	0	45810188288	43	15596
2026-01-08 20:32:21.85	322.53	11.42	-38.8	-39.1	12.6	2.28e-03	0	37	0	45919240192	43	15727
2026-01-08 20:32:22.86	322.71	11.34	-38.8	-39.1	12.5	2.28e-03	0	37	0	46028292096	43	15789
2026-01-08 20:32:23.86	322.88	11.25	-38.9	-39.2	12.5	1.89e-03	0	37	0	46145732608	43	15915
2026-01-08 20:32:24.86	323.05	11.17	-38.7	-39.0	12.6	1.89e-03	0	37	0	46254784512	43	15540
2026-01-08 20:32:25.85	323.22	11.08	-38.8	-39.1	12.5	1.89e-03	0	37	0	46372225024	43	15807
2026-01-08 20:32:26.85	323.38	11.00	-38.8	-39.1	12.5	1.81e-03	0	37	0	46481276928	43	15775
2026-01-08 20:32:27.85	323.55	10.91	-38.9	-39.2	12.6	1.81e-03	0	37	0	46598717440	44	15070
2026-01-08 20:32:28.84	323.72	10.83	-38.8	-39.1	12.6	2.19e-03	0	37	0	46707769344	44	14829
2026-01-08 20:32:29.84	323.88	10.74	-38.8	-39.1	12.6	2.19e-03	0	37	0	46816821248	44	14881
2026-01-08 20:32:30.83	324.04	10.66	-39.0	-39.2	12.5	1.81e-03	0	37	0	46934261760	44	15100
2026-01-08 20:32:31.82	324.20	10.57	-38.7	-39.0	12.6	1.81e-03	0	37	0	47043313664	44	14744
2026-01-08 20:32:32.82	324.36	10.49	-38.8	-39.0	12.6	1.81e-03	0	37	0	47160754176	44	14765
2026-01-08 20:32:33.83	324.53	10.41	-38.8	-39.1	12.6	2.19e-03	0	37	0	47269806080	44	14865
2026-01-08 20:32:34.83	324.69	10.32	-38.9	-39.2	12.6	2.19e-03	0	37	0	47378857984	44	15002
2026-01-08 20:32:35.83	324.84	10.24	-38.8	-39.1	12.6	2.19e-03	0	37	0	47496298496	44	14819
2026-01-08 20:32:36.82	325.00	10.16	-39.0	-39.3	12.5	2.19e-03	0	37	0	47605350400	44	15127
2026-01-08 20:32:37.82	325.15	10.07	-38.8	-39.1	12.6	2.02e-03	0	36	0	47722790912	44	14824
2026-01-08 20:32:38.81	325.31	9.99	-38.8	-39.1	12.6	2.02e-03	0	37	0	47823454208	44	14896
2026-01-08 20:32:39.81	325.46	9.91	-38.9	-39.2	12.6	2.02e-03	0	37	0	47940894720	44	15011
2026-01-08 20:32:40.81	325.62	9.83	-38.8	-39.2	12.5	2.31e-03	0	37	0	48049946624	44	14948
2026-01-08 20:32:41.80	325.77	9.74	-38.8	-39.1	12.5	2.31e-03	0	37	0	48167387136	44	14877
2026-01-08 20:32:42.81	325.92	9.66	-38.9	-39.2	12.5	2.31e-03	0	37	0	48276439040	44	14964
2026-01-08 20:32:43.80	326.07	9.58	-38.8	-39.1	12.4	2.47e-03	0	37	0	48385490944	44	14860
2026-01-08 20:32:44.80	326.22	9.50	-38.8	-39.1	12.2	2.47e-03	0	37	0	48502931456	44	14883
2026-01-08 20:32:45.81	326.36	9.42	-39.0	-39.3	12.3	2.47e-03	0	37	0	48611983360	44	15232
2026-01-08 20:32:46.80	326.51	9.34	-38.8	-39.1	12.5	5.88e-03	0	37	0	48729423872	44	14882
2026-01-08 20:32:47.80	326.66	9.26	-38.8	-39.1	12.5	5.88e-03	0	37	0	48838475776	44	14829
2026-01-08 20:32:48.80	326.80	9.18	-38.9	-39.2	12.5	5.88e-03	0	37	0	48947527680	44	15000
2026-01-08 20:32:49.80	326.95	9.09	-38.9	-39.2	12.5	3.14e-03	0	37	0	49064968192	44	14991
2026-01-08 20:32:50.79	327.09	9.02	-38.9	-39.2	12.5	3.14e-03	0	37	0	49174020096	44	15030
2026-01-08 20:32:51.79	327.23	8.94	-38.8	-39.1	12.5	3.14e-03	0	37	0	49291460608	44	14804
2026-01-08 20:32:52.78	327.37	8.86	-39.2	-39.5	12.2	3.00e-03	0	37	0	49400512512	44	15596
2026-01-08 20:32:53.77	327.51	8.78	-39.0	-39.3	12.4	3.00e-03	0	37	0	49517953024	44	15264
2026-01-08 20:32:54.76	327.65	8.70	-38.9	-39.3	12.4	3.00e-03	0	37	0	49618616320	44	15138
2026-01-08 20:32:55.75	327.78	8.62	-39.1	-39.4	12.4	5.17e-03	0	37	0	49736056832	44	15387
2026-01-08 20:32:56.74	327.92	8.54	-39.0	-39.3	12.5	5.17e-03	0	37	0	49845108736	44	15160
2026-01-08 20:32:57.73	328.06	8.46	-39.2	-39.5	12.4	4.92e-03	0	37	0	49954160640	44	15530
2026-01-08 20:32:58.73	328.19	8.39	-39.1	-39.4	12.4	4.92e-03	0	37	0	50071601152	44	15442
2026-01-08 20:32:59.72	328.32	8.31	-39.0	-39.3	12.4	4.92e-03	0	37	0	50180653056	44	15280
2026-01-08 20:33:00.72	328.46	8.23	-39.2	-39.5	12.3	5.61e-03	0	37	0	50289704960	44	15582
2026-01-08 20:33:01.71	328.59	8.15	-39.3	-39.6	12.4	5.61e-03	0	37	0	50398756864	44	15718
2026-01-08 20:33:02.71	328.72	8.07	-39.4	-39.7	12.3	5.61e-03	0	37	0	50516197376	44	15899
2026-01-08 20:33:03.70	328.85	8.00	-39.4	-39.7	12.3	4.43e-03	0	37	0	50625249280	44	15904
2026-01-08 20:33:04.70	328.99	7.92	-39.5	-39.8	12.3	4.43e-03	0	37	0	50742689792	44	16158
2026-01-08 20:33:05.70	329.12	7.84	-39.2	-39.6	12.4	4.43e-03	0	37	0	50851741696	44	15657
2026-01-08 20:33:06.70	329.24	7.77	-39.3	-39.7	12.3	4.59e-03	0	37	0	50969182208	44	15873
2026-01-08 20:33:07.69	329.37	7.69	-39.6	-39.9	12.3	4.59e-03	0	37	0	51078234112	45	15367
2026-01-08 20:33:08.69	329.50	7.61	-39.5	-39.8	12.4	4.59e-03	0	37	0	51187286016	45	15217
2026-01-08 20:33:09.68	329.62	7.54	-39.8	-40.2	12.3	5.22e-03	0	37	0	51304726528	45	15855
2026-01-08 20:33:10.68	329.75	7.46	-39.5	-39.8	12.4	5.22e-03	0	37	0	51413778432	45	15202
2026-01-08 20:33:11.68	329.88	7.39	-39.6	-39.9	12.2	5.22e-03	0	37	0	51531218944	45	15350
2026-01-08 20:33:12.69	330.00	7.31	-39.5	-39.8	12.2	1.05e-02	0	37	0	51640270848	45	15203
2026-01-08 20:33:13.68	330.12	7.23	-39.8	-40.2	12.1	1.05e-02	0	37	0	51749322752	45	15844
2026-01-08 20:33:14.67	330.25	7.16	-40.0	-40.3	12.1	2.07e-02	0	37	0	51866763264	45	16200
2026-01-08 20:33:15.67	330.37	7.08	-39.7	-40.1	12.1	2.07e-02	0	37	0	51975815168	45	15664
2026-01-08 20:33:16.67	330.49	7.01	-40.0	-40.4	12.1	2.07e-02	0	37	0	52093255680	46	15326
2026-01-08 20:33:17.67	330.61	6.93	-40.0	-40.3	12.1	2.27e-02	0	37	0	52202307584	46	15271
2026-01-08 20:33:18.67	330.73	6.86	-39.9	-40.2	12.2	2.27e-02	0	37	0	52311359488	46	15112
2026-01-08 20:33:19.67	330.85	6.79	-39.9	-40.2	12.2	2.20e-02	0	37	0	52420411392	46	15082
2026-01-08 20:33:20.67	330.97	6.71	-57.8	-61.1	6.2	2.20e-02	0	36	104	52479131648	81	22249
2026-01-08 20:33:21.66	331.08	6.64	-57.9	-61.1	6.2	2.20e-02	0	36	104	52479131648	81	22196
2026-01-08 20:33:22.66	331.20	6.56	-57.9	-61.1	6.1	2.20e-02	0	36	104	52479131648	81	22270
2026-01-08 20:33:23.67	331.32	6.49	-57.9	-61.1	6.2	2.20e-02	0	36	104	52479131648	81	22197
2026-01-08 20:33:24.66	331.43	6.42	-57.8	-61.0	6.1	2.20e-02	0	36	104	52479131648	81	21956
2026-01-08 20:33:25.66	331.55	6.34	-57.8	-61.0	6.1	2.20e-02	0	36	104	52479131648	81	21977
2026-01-08 20:33:26.66	331.66	6.27	-57.8	-61.1	6.1	2.20e-02	0	36	104	52479131648	81	22123
2026-01-08 20:33:27.65	331.78	6.20	-57.7	-61.0	6.2	2.20e-02	0	36	104	52479131648	81	21858
2026-01-08 20:33:28.65	331.89	6.13	-57.8	-61.0	6.1	2.20e-02	0	36	104	52479131648	81	22030
2026-01-08 20:33:29.65	332.00	6.05	-57.7	-60.9	6.2	2.20e-02	0	36	104	52479131648	81	21813
2026-01-08 20:33:30.65	332.11	5.98	-57.7	-60.9	6.2	2.20e-02	0	36	104	52479131648	81	21776
2026-01-08 20:33:31.65	332.22	5.91	-57.6	-60.9	6.2	2.20e-02	0	36	104	52479131648	81	21697
2026-01-08 20:33:32.64	332.33	5.84	-57.7	-61.0	6.2	2.63e-03	0	36	104	52479131648	81	21961
2026-01-08 20:33:33.63	332.44	5.77	-57.6	-60.9	6.2	2.63e-03	0	36	104	52479131648	81	21662
2026-01-08 20:33:34.62	332.55	5.70	-57.6	-60.9	6.2	2.63e-03	0	36	104	52479131648	81	21684
2026-01-08 20:33:35.62	332.66	5.63	-57.5	-60.8	6.1	2.63e-03	0	36	104	52479131648	81	21480
2026-01-08 20:33:36.62	332.77	5.56	-57.7	-60.9	6.2	2.63e-03	0	36	104	52479131648	81	21758
2026-01-08 20:33:37.62	332.87	5.48	-57.6	-60.8	6.2	2.63e-03	0	36	104	52479131648	81	21402
2026-01-08 20:33:38.61	332.98	5.41	-57.6	-60.8	6.2	2.63e-03	0	36	104	52479131648	81	21446
2026-01-08 20:33:39.62	333.09	5.34	-57.5	-60.7	6.2	2.63e-03	0	35	104	52479131648	81	21252
2026-01-08 20:33:40.61	333.19	5.27	-57.6	-60.8	6.1	2.63e-03	0	36	104	52479131648	81	21481
2026-01-08 20:33:41.62	333.30	5.20	-57.5	-60.7	6.2	2.63e-03	0	35	104	52479131648	81	21260
2026-01-08 20:33:42.61	333.40	5.13	-57.5	-60.8	6.1	2.63e-03	0	35	104	52479131648	81	21407
2026-01-08 20:33:43.61	333.50	5.06	-57.4	-60.6	6.2	2.63e-03	0	35	104	52479131648	81	21009
2026-01-08 20:33:44.61	333.60	4.99	-57.4	-60.6	6.2	2.63e-03	0	35	104	52479131648	81	21093
2026-01-08 20:33:45.60	333.71	4.93	-58.0	-61.3	6.2	0.00e+00	0	35	104	52479131648	81	22717
2026-01-08 20:33:46.60	333.81	4.86	-58.6	-61.8	6.1	0.00e+00	0	35	104	52479131648	82	22694
2026-01-08 20:33:47.60	333.91	4.79	-58.9	-62.2	6.2	0.00e+00	0	35	104	52479131648	83	22442
2026-01-08 20:33:48.61	334.01	4.72	-59.4	-62.6	6.1	0.00e+00	0	35	104	52479131648	84	22217
2026-01-08 20:33:49.59	334.11	4.65	-59.6	-62.8	6.2	0.00e+00	0	35	104	52479131648	84	22740
2026-01-08 20:33:50.59	334.21	4.58	-59.7	-63.0	6.1	0.00e+00	0	35	104	52479131648	85	21863
2026-01-08 20:33:51.59	334.31	4.51	-59.8	-63.1	6.1	0.00e+00	0	35	104	52479131648	85	22157
2026-01-08 20:33:52.59	334.41	4.44	-59.9	-63.1	6.1	0.00e+00	0	35	104	52479131648	85	22240
2026-01-08 20:33:53.59	334.50	4.38	-59.9	-63.1	6.2	0.00e+00	0	35	104	52479131648	85	22283
2026-01-08 20:33:54.58	334.60	4.31	-60.0	-63.2	6.1	0.00e+00	0	35	104	52479131648	85	22600
2026-01-08 20:33:55.58	334.70	4.24	-60.1	-63.3	6.1	0.00e+00	0	35	104	52479131648	85	22824
2026-01-08 20:33:56.59	334.79	4.17	-60.1	-63.3	6.1	0.00e+00	0	35	104	52479131648	85	22844
2026-01-08 20:33:57.59	334.89	4.11	-60.2	-63.4	6.2	0.00e+00	0	35	104	52479131648	86	21779
2026-01-08 20:33:58.59	334.98	4.04	-60.2	-63.5	6.1	0.00e+00	0	35	104	52479131648	86	21860
2026-01-08 20:33:59.58	335.08	3.97	-60.2	-63.5	6.2	0.00e+00	0	35	104	52479131648	86	21874
2026-01-08 20:34:00.58	335.17	3.91	-60.2	-63.5	6.2	0.00e+00	0	35	104	52479131648	86	21888
2026-01-08 20:34:01.58	335.27	3.84	-60.2	-63.5	6.2	0.00e+00	0	35	104	52479131648	86	21884
2026-01-08 20:34:02.57	335.36	3.77	-60.2	-63.4	6.1	0.00e+00	0	35	104	52479131648	86	21802
2026-01-08 20:34:03.57	335.45	3.71	-60.2	-63.4	6.1	0.00e+00	0	35	104	52479131648	86	21790
2026-01-08 20:34:04.56	335.54	3.64	-60.2	-63.4	6.2	0.00e+00	0	35	104	52479131648	86	21672
2026-01-08 20:34:05.55	335.63	3.58	-60.2	-63.4	6.1	0.00e+00	0	35	104	52479131648	86	21780
2026-01-08 20:34:06.56	335.72	3.51	-60.2	-63.5	6.1	0.00e+00	0	35	104	52479131648	86	21878
2026-01-08 20:34:07.56	335.81	3.44	-60.1	-63.4	6.2	0.00e+00	0	35	104	52479131648	86	21677
2026-01-08 20:34:08.56	335.90	3.38	-60.1	-63.3	6.2	0.00e+00	0	35	104	52479131648	86	21525
2026-01-08 20:34:09.56	335.99	3.31	-60.1	-63.3	6.1	0.00e+00	0	35	104	52479131648	86	21506
2026-01-08 20:34:10.55	336.08	3.25	-60.0	-63.3	6.1	0.00e+00	0	35	104	52479131648	86	21463
2026-01-08 20:34:11.55	336.17	3.18	-60.0	-63.3	6.1	0.00e+00	0	35	104	52479131648	86	21431
2026-01-08 20:34:12.55	336.26	3.12	-60.0	-63.2	6.1	0.00e+00	0	35	104	52479131648	86	21289
2026-01-08 20:34:13.55	336.35	3.05	-60.0	-63.2	6.2	0.00e+00	0	35	104	52479131648	86	21333
2026-01-08 20:34:14.55	336.43	2.99	-60.0	-63.2	6.2	0.00e+00	0	35	104	52479131648	86	21311
2026-01-08 20:34:15.55	336.52	2.92	-60.0	-63.3	6.1	0.00e+00	0	35	104	52479131648	86	21359
2026-01-08 20:34:16.55	336.61	2.86	-60.0	-63.2	6.2	0.00e+00	0	35	104	52479131648	86	21324
2026-01-08 20:34:17.55	336.69	2.79	-60.0	-63.2	6.2	0.00e+00	0	35	104	52479131648	86	21284
2026-01-08 20:34:18.55	336.78	2.73	-60.0	-63.2	6.2	0.00e+00	0	35	104	52479131648	86	21281
2026-01-08 20:34:19.55	336.86	2.67	-60.0	-63.2	6.2	0.00e+00	0	35	104	52479131648	86	21240
2026-01-08 20:34:20.54	336.95	2.60	-59.9	-63.2	6.2	0.00e+00	0	35	104	52479131648	86	21225
2026-01-08 20:34:21.53	337.03	2.54	-59.9	-63.2	6.2	0.00e+00	0	35	104	52479131648	86	21224
2026-01-08 20:34:22.54	337.12	2.48	-59.9	-63.2	6.2	0.00e+00	0	35	104	52479131648	86	21165
2026-01-08 20:34:23.54	337.20	2.41	-59.9	-63.2	6.1	0.00e+00	0	35	104	52479131648	86	21151
2026-01-08 20:34:24.54	337.28	2.35	-59.9	-63.2	6.2	0.00e+00	0	35	104	52479131648	86	21126
2026-01-08 20:34:25.55	337.36	2.29	-59.9	-63.2	6.2	0.00e+00	0	35	104	52479131648	86	21123
2026-01-08 20:34:26.55	337.45	2.22	-59.9	-63.1	6.2	0.00e+00	0	35	104	52479131648	86	21092
2026-01-08 20:34:27.55	337.53	2.16	-59.9	-63.1	6.2	0.00e+00	0	35	104	52479131648	86	21020
2026-01-08 20:34:28.54	337.61	2.10	-59.9	-63.1	6.2	0.00e+00	0	35	104	52479131648	86	21095
2026-01-08 20:34:29.54	337.69	2.04	-59.9	-63.1	6.2	0.00e+00	0	34	104	52479131648	86	21096

#Closed at: 2026-01-08 20:34:30
#Recorded file [52479 MB]: D:/lorett/data/31004_260108_232440.dat