passes_logs/2026/01/08/R3.2S_Murmansk/R3.2S_Murmansk__20260108_122652_AQUA_rec.log

#Pass ID: 20260108_122652_AQUA
#Satellite: AQUA
#Configuration: AQUA
#almurnet v.1.7.20251203
#Start time: 2026-01-08 12:26:54

#Version: 2.2.20231116
#Station: R3.2S_Murmansk
#Location: 33.079688 lon 68.888172 lat
#TLE: 1 27424U 02022A   26004.96787593  .00001598  00000+0  32997-3 0  9996
#TLE: 2 27424  98.4069 331.2279 0002002  90.2377   0.6092 14.61798176259425

#Time	Az	El	Level	Level2	SNR	BER	BlckErr	Temp	State	Recorded	gain1	gain2
2026-01-08 12:26:54.64	182.84	2.15	-57.2	-76.3	3.8	7.41e-01	0	22	0	0	83	31924
2026-01-08 12:26:55.65	182.88	2.22	-57.1	-76.1	3.8	7.46e-01	0	22	104	0	81	35029
2026-01-08 12:26:56.66	182.93	2.28	-57.1	-76.0	3.8	7.44e-01	0	22	104	0	81	34855
2026-01-08 12:26:57.67	182.97	2.35	-57.1	-76.0	3.8	7.45e-01	0	22	104	0	81	34647
2026-01-08 12:26:58.68	183.01	2.41	-57.1	-76.1	3.8	7.47e-01	0	22	104	0	81	34921
2026-01-08 12:26:59.69	183.06	2.48	-57.1	-76.1	3.8	7.47e-01	0	23	104	0	81	35223
2026-01-08 12:27:00.70	183.10	2.54	-57.1	-76.1	3.8	7.46e-01	0	23	104	0	81	35268
2026-01-08 12:27:01.71	183.15	2.61	-57.1	-76.0	3.8	7.46e-01	0	22	104	0	81	34856
2026-01-08 12:27:02.72	183.19	2.68	-57.1	-76.0	3.8	7.42e-01	0	23	104	0	81	34644
2026-01-08 12:27:03.73	183.24	2.74	-57.1	-75.8	3.8	7.46e-01	0	23	104	0	81	33793
2026-01-08 12:27:04.74	183.28	2.81	-57.1	-75.7	3.8	7.44e-01	0	23	104	0	81	33612
2026-01-08 12:27:05.74	183.33	2.87	-57.1	-75.6	3.8	7.47e-01	0	23	104	0	81	33127
2026-01-08 12:27:06.75	183.37	2.94	-57.1	-75.5	3.9	7.45e-01	0	23	104	0	81	32890
2026-01-08 12:27:07.76	183.42	3.01	-57.1	-75.4	3.8	7.46e-01	0	23	104	0	81	32490
2026-01-08 12:27:08.77	183.46	3.08	-57.1	-75.6	3.8	7.46e-01	0	23	104	0	81	33269
2026-01-08 12:27:09.78	183.51	3.14	-57.1	-75.5	3.8	7.46e-01	0	23	104	0	81	32773
2026-01-08 12:27:10.79	183.56	3.21	-57.1	-75.6	3.8	7.40e-01	0	23	104	0	81	33138
2026-01-08 12:27:11.80	183.60	3.28	-57.1	-75.3	3.8	7.44e-01	0	23	104	0	81	31992
2026-01-08 12:27:12.81	183.65	3.35	-57.1	-75.1	3.8	7.47e-01	0	23	104	0	81	31111
2026-01-08 12:27:13.81	183.70	3.41	-57.1	-74.9	3.8	7.46e-01	0	23	104	0	81	30389
2026-01-08 12:27:14.81	183.74	3.48	-57.0	-74.7	3.8	7.45e-01	0	23	104	0	81	29937
2026-01-08 12:27:15.82	183.79	3.55	-57.1	-75.4	3.8	7.46e-01	0	23	104	0	81	32551
2026-01-08 12:27:16.83	183.84	3.62	-57.1	-76.0	3.8	7.46e-01	0	23	104	0	81	34574
2026-01-08 12:27:17.84	183.89	3.69	-57.1	-76.4	3.8	7.48e-01	0	23	104	0	81	36250
2026-01-08 12:27:18.85	183.93	3.76	-57.1	-76.2	3.8	7.43e-01	0	23	104	0	81	35482
2026-01-08 12:27:19.86	183.98	3.83	-57.1	-74.7	3.9	7.43e-01	0	23	104	0	81	29925
2026-01-08 12:27:20.86	184.03	3.89	-57.0	-72.4	4.3	7.30e-01	0	23	104	0	81	22822
2026-01-08 12:27:21.87	184.08	3.96	-56.9	-70.2	5.2	7.06e-01	0	23	0	0	81	17888
2026-01-08 12:27:22.88	184.13	4.03	-56.8	-68.1	6.6	6.65e-01	92	23	0	1048576	81	13980
2026-01-08 12:27:23.89	184.18	4.10	-56.7	-67.0	7.6	6.49e-01	73	23	0	2621440	81	12242
2026-01-08 12:27:24.90	184.23	4.17	-56.5	-65.9	8.6	6.31e-01	0	23	0	4718592	81	10868
2026-01-08 12:27:25.91	184.28	4.24	-56.4	-65.1	9.3	6.24e-01	0	23	0	6815744	81	9942
2026-01-08 12:27:26.92	184.33	4.31	-56.4	-64.7	9.6	6.25e-01	0	23	0	8388608	81	9488
2026-01-08 12:27:27.92	184.38	4.38	-56.3	-64.7	9.7	6.20e-01	0	23	0	10485760	81	9393
2026-01-08 12:27:28.93	184.43	4.45	-56.3	-64.4	9.9	6.20e-01	0	23	0	12058624	81	9164
2026-01-08 12:27:29.94	184.48	4.52	-56.2	-64.1	10.2	6.17e-01	0	23	0	14155776	81	8788
2026-01-08 12:27:30.95	184.53	4.60	-56.3	-64.5	9.8	6.22e-01	0	23	0	16252928	81	9199
2026-01-08 12:27:31.96	184.58	4.67	-56.1	-63.6	10.6	6.15e-01	0	23	0	17825792	81	8315
2026-01-08 12:27:32.96	184.63	4.74	-56.1	-63.3	10.8	6.15e-01	0	23	0	19922944	81	8072
2026-01-08 12:27:33.97	184.68	4.81	-55.8	-62.3	11.6	6.13e-01	0	23	0	21495808	80	7617
2026-01-08 12:27:34.98	184.74	4.88	-55.8	-62.0	11.8	6.13e-01	0	23	0	23592960	80	7366
2026-01-08 12:27:35.98	184.79	4.95	-55.7	-61.7	12.1	6.10e-01	0	23	0	25690112	80	7085
2026-01-08 12:27:36.99	184.84	5.03	-55.5	-61.3	12.4	6.10e-01	0	23	0	27262976	80	6767
2026-01-08 12:27:38.01	184.89	5.10	-55.8	-62.1	11.8	6.09e-01	0	23	0	29360128	80	7397
2026-01-08 12:27:39.01	184.95	5.17	-56.2	-63.7	10.5	6.16e-01	0	23	0	31457280	80	8868
2026-01-08 12:27:40.02	185.00	5.24	-56.5	-66.1	8.5	6.36e-01	0	23	0	33030144	80	11798
2026-01-08 12:27:41.03	185.05	5.32	-56.9	-71.8	4.5	7.23e-01	0	24	104	34078720	81	21460
2026-01-08 12:27:42.03	185.11	5.39	-51.7	-54.1	15.3	6.05e-01	0	23	0	34603008	72	4672
2026-01-08 12:27:43.04	185.16	5.46	-51.5	-53.8	15.5	6.07e-01	0	23	0	36700160	72	4525
2026-01-08 12:27:44.05	185.21	5.54	-51.1	-53.3	15.6	6.06e-01	0	23	0	38797312	71	4540
2026-01-08 12:27:45.06	185.27	5.61	-51.5	-53.8	15.3	6.05e-01	0	24	0	40370176	71	4797
2026-01-08 12:27:46.06	185.32	5.68	-51.5	-53.8	15.3	6.06e-01	0	24	0	42467328	71	4811
2026-01-08 12:27:47.07	185.38	5.76	-51.0	-53.1	15.6	6.08e-01	0	24	0	44040192	71	4419
2026-01-08 12:27:48.08	185.43	5.83	-51.0	-53.1	15.6	6.07e-01	0	23	0	46137344	71	4427
2026-01-08 12:27:49.09	185.49	5.91	-51.0	-53.2	15.6	6.07e-01	0	23	0	48234496	71	4475
2026-01-08 12:27:50.10	185.55	5.98	-50.8	-52.9	15.6	6.08e-01	0	23	0	49807360	70	4569
2026-01-08 12:27:51.11	185.60	6.06	-50.6	-52.7	15.6	6.06e-01	0	23	0	51904512	70	4455
2026-01-08 12:27:52.12	185.66	6.13	-50.8	-52.9	15.6	6.07e-01	0	24	0	54001664	70	4556
2026-01-08 12:27:53.12	185.72	6.21	-50.8	-52.9	15.6	6.06e-01	0	23	0	55574528	70	4583
2026-01-08 12:27:54.13	185.77	6.29	-50.7	-52.7	15.6	6.05e-01	0	23	0	57671680	70	4488
2026-01-08 12:27:55.14	185.83	6.36	-50.7	-52.8	15.6	6.05e-01	0	23	0	59244544	70	4541
2026-01-08 12:27:56.15	185.89	6.44	-50.7	-52.8	15.6	6.07e-01	0	24	0	61341696	70	4516
2026-01-08 12:27:57.16	185.95	6.52	-50.7	-52.7	15.6	6.06e-01	0	24	0	63438848	70	4488
2026-01-08 12:27:58.16	186.01	6.59	-50.5	-52.6	15.7	6.05e-01	0	24	0	65011712	70	4401
2026-01-08 12:27:59.17	186.06	6.67	-50.7	-52.8	15.6	6.06e-01	0	24	0	67108864	70	4539
2026-01-08 12:28:00.18	186.12	6.75	-50.8	-52.8	15.6	6.07e-01	0	24	0	68681728	70	4534
2026-01-08 12:28:01.18	186.18	6.82	-50.6	-52.7	15.7	6.08e-01	0	24	0	70778880	70	4474
2026-01-08 12:28:02.19	186.24	6.90	-50.8	-52.9	15.5	6.06e-01	0	24	0	72351744	70	4567
2026-01-08 12:28:03.19	186.30	6.98	-50.7	-52.7	15.6	6.07e-01	0	23	0	74448896	70	4482
2026-01-08 12:28:04.20	186.36	7.06	-50.7	-52.7	15.6	6.06e-01	0	24	0	76546048	70	4471
2026-01-08 12:28:05.21	186.42	7.13	-50.7	-52.8	15.6	6.05e-01	0	24	0	78118912	70	4512
2026-01-08 12:28:06.22	186.49	7.21	-50.8	-52.9	15.5	6.05e-01	0	23	0	80216064	70	4570
2026-01-08 12:28:07.22	186.55	7.29	-50.8	-52.9	15.6	6.06e-01	0	24	0	82313216	70	4547
2026-01-08 12:28:08.23	186.61	7.37	-50.6	-52.6	15.7	6.06e-01	0	24	0	83886080	70	4410
2026-01-08 12:28:09.24	186.67	7.45	-50.6	-52.6	15.7	6.05e-01	0	24	0	85983232	70	4427
2026-01-08 12:28:10.25	186.73	7.53	-50.5	-52.5	15.8	6.07e-01	0	24	0	87556096	70	4351
2026-01-08 12:28:11.25	186.80	7.61	-50.5	-52.5	15.7	6.06e-01	0	24	0	89653248	70	4387
2026-01-08 12:28:12.26	186.86	7.69	-50.5	-52.5	15.7	6.04e-01	0	24	0	91750400	70	4384
2026-01-08 12:28:13.27	186.92	7.77	-50.5	-52.5	15.7	6.04e-01	0	24	0	93323264	70	4355
2026-01-08 12:28:14.28	186.99	7.85	-50.4	-52.4	15.8	6.05e-01	0	24	0	95420416	70	4319
2026-01-08 12:28:15.29	187.05	7.93	-50.4	-52.3	15.8	6.07e-01	0	24	0	96993280	70	4289
2026-01-08 12:28:16.30	187.12	8.01	-50.2	-52.2	15.7	6.06e-01	0	24	0	99090432	69	4453
2026-01-08 12:28:17.31	187.18	8.10	-50.1	-52.1	15.7	6.05e-01	0	24	0	101187584	69	4403
2026-01-08 12:28:18.31	187.25	8.18	-50.1	-52.1	15.7	6.06e-01	0	24	0	102760448	69	4401
2026-01-08 12:28:19.32	187.31	8.26	-50.1	-52.0	15.7	6.06e-01	0	24	0	104857600	69	4390
2026-01-08 12:28:20.33	187.38	8.34	-50.3	-52.2	15.7	6.06e-01	0	24	0	106430464	69	4482
2026-01-08 12:28:21.33	187.44	8.42	-50.2	-52.1	15.7	6.07e-01	0	24	0	108527616	69	4413
2026-01-08 12:28:22.34	187.51	8.51	-50.2	-52.2	15.7	6.07e-01	0	24	0	110624768	69	4452
2026-01-08 12:28:23.35	187.58	8.59	-50.1	-52.1	15.7	6.07e-01	0	24	0	112197632	69	4399
2026-01-08 12:28:24.35	187.64	8.67	-50.2	-52.1	15.7	6.06e-01	0	24	0	114294784	69	4431
2026-01-08 12:28:25.35	187.71	8.76	-50.1	-52.1	15.7	6.05e-01	0	24	0	115867648	69	4394
2026-01-08 12:28:26.36	187.78	8.84	-50.1	-52.0	15.8	6.05e-01	0	24	0	117964800	69	4370
2026-01-08 12:28:27.37	187.85	8.92	-50.2	-52.2	15.7	6.06e-01	0	24	0	120061952	69	4451
2026-01-08 12:28:28.38	187.92	9.01	-50.2	-52.1	15.7	6.06e-01	0	24	0	121634816	69	4398
2026-01-08 12:28:29.39	187.99	9.09	-50.2	-52.1	15.7	6.05e-01	0	24	0	123731968	69	4426
2026-01-08 12:28:30.39	188.06	9.18	-50.0	-51.9	15.8	6.05e-01	0	24	0	125829120	69	4325
2026-01-08 12:28:31.40	188.13	9.26	-50.1	-52.0	15.7	6.08e-01	0	24	0	127401984	69	4384
2026-01-08 12:28:32.41	188.20	9.35	-50.0	-51.9	15.8	6.09e-01	0	24	0	129499136	69	4322
2026-01-08 12:28:33.42	188.27	9.44	-50.0	-51.9	15.8	6.05e-01	0	24	0	131072000	69	4317
2026-01-08 12:28:34.42	188.34	9.52	-49.9	-51.8	15.9	6.08e-01	0	24	0	133169152	69	4244
2026-01-08 12:28:35.41	188.41	9.61	-49.9	-51.7	15.9	6.06e-01	0	24	0	134742016	69	4216
2026-01-08 12:28:36.42	188.49	9.69	-49.9	-51.8	15.9	6.07e-01	0	24	0	136839168	69	4249
2026-01-08 12:28:37.43	188.56	9.78	-49.9	-51.8	15.8	6.05e-01	0	24	0	138936320	69	4262
2026-01-08 12:28:38.44	188.63	9.87	-50.0	-51.8	15.8	6.07e-01	0	24	0	140509184	69	4289
2026-01-08 12:28:39.45	188.71	9.96	-49.9	-51.7	15.9	6.07e-01	0	24	0	142606336	69	4231
2026-01-08 12:28:40.46	188.78	10.04	-50.0	-51.8	15.8	6.06e-01	0	24	0	144179200	69	4272
2026-01-08 12:28:41.47	188.86	10.13	-50.1	-52.0	15.8	6.06e-01	0	24	0	146276352	69	4368
2026-01-08 12:28:42.47	188.93	10.22	-50.0	-51.9	15.8	6.08e-01	0	24	0	148373504	69	4299
2026-01-08 12:28:43.48	189.01	10.31	-50.0	-51.9	15.8	6.08e-01	0	24	0	149946368	69	4292
2026-01-08 12:28:44.49	189.08	10.40	-50.0	-51.8	15.8	6.07e-01	0	24	0	152043520	69	4287
2026-01-08 12:28:45.50	189.16	10.49	-49.9	-51.7	15.9	6.06e-01	0	24	0	154140672	69	4241
2026-01-08 12:28:46.50	189.24	10.58	-49.9	-51.7	15.9	6.06e-01	0	24	0	155713536	69	4242
2026-01-08 12:28:47.52	189.32	10.67	-49.9	-51.7	15.7	6.05e-01	0	24	0	157810688	68	4471
2026-01-08 12:28:48.53	189.40	10.76	-49.9	-51.7	15.7	6.07e-01	0	24	0	159383552	68	4466
2026-01-08 12:28:49.54	189.47	10.85	-50.0	-51.8	15.6	6.07e-01	0	24	0	161480704	68	4532
2026-01-08 12:28:50.55	189.55	10.94	-49.9	-51.7	15.7	6.04e-01	0	24	0	163577856	68	4492
2026-01-08 12:28:51.55	189.63	11.03	-49.8	-51.6	15.7	6.04e-01	0	24	0	165150720	68	4413
2026-01-08 12:28:52.55	189.71	11.13	-49.6	-51.4	15.8	6.08e-01	0	24	0	167247872	68	4314
2026-01-08 12:28:53.56	189.79	11.22	-49.7	-51.5	15.8	6.06e-01	0	24	0	168820736	68	4342
2026-01-08 12:28:54.57	189.87	11.31	-49.7	-51.5	15.8	6.05e-01	0	24	0	170917888	68	4357
2026-01-08 12:28:55.58	189.96	11.40	-49.6	-51.4	15.8	6.05e-01	0	24	0	172490752	68	4327
2026-01-08 12:28:56.59	190.04	11.50	-49.5	-51.3	15.8	6.06e-01	0	24	0	174587904	68	4266
2026-01-08 12:28:57.59	190.12	11.59	-49.5	-51.3	15.9	6.06e-01	0	24	0	176685056	68	4263
2026-01-08 12:28:58.60	190.21	11.69	-49.5	-51.3	15.9	6.07e-01	0	24	0	178257920	68	4243
2026-01-08 12:28:59.62	190.29	11.78	-49.5	-51.3	15.9	6.07e-01	0	24	0	180355072	68	4252
2026-01-08 12:29:00.62	190.37	11.88	-49.6	-51.3	15.8	6.06e-01	0	24	0	182452224	68	4269
2026-01-08 12:29:01.63	190.46	11.97	-49.6	-51.4	15.8	6.07e-01	0	24	0	184025088	68	4294
2026-01-08 12:29:02.63	190.54	12.07	-49.5	-51.3	15.8	6.06e-01	0	24	0	186122240	68	4254
2026-01-08 12:29:03.64	190.63	12.16	-49.6	-51.3	15.8	6.04e-01	0	24	0	187695104	68	4283
2026-01-08 12:29:04.65	190.72	12.26	-49.6	-51.3	15.8	6.06e-01	0	24	0	189792256	68	4275
2026-01-08 12:29:05.66	190.81	12.35	-49.6	-51.4	15.8	6.06e-01	0	24	0	191889408	68	4316
2026-01-08 12:29:06.67	190.89	12.45	-49.6	-51.4	15.8	6.06e-01	0	24	0	193462272	68	4305
2026-01-08 12:29:07.68	190.98	12.55	-49.5	-51.2	15.9	6.06e-01	0	24	0	195559424	68	4235
2026-01-08 12:29:08.69	191.07	12.65	-49.4	-51.2	15.9	6.06e-01	0	24	0	197656576	68	4200
2026-01-08 12:29:09.70	191.16	12.75	-49.4	-51.1	15.9	6.07e-01	0	24	0	199229440	68	4170
2026-01-08 12:29:10.71	191.25	12.84	-49.5	-51.2	15.9	6.05e-01	0	24	0	201326592	68	4210
2026-01-08 12:29:11.72	191.34	12.94	-49.5	-51.2	15.9	6.07e-01	0	24	0	202899456	68	4230
2026-01-08 12:29:12.73	191.44	13.04	-49.5	-51.2	15.9	6.06e-01	0	24	0	204996608	68	4232
2026-01-08 12:29:13.73	191.53	13.14	-49.4	-51.1	15.9	6.05e-01	0	24	0	206569472	68	4190
2026-01-08 12:29:14.74	191.62	13.24	-49.3	-51.1	15.7	6.06e-01	0	24	0	208666624	67	4400
2026-01-08 12:29:15.74	191.71	13.34	-49.3	-51.1	15.7	6.08e-01	0	24	0	210763776	67	4396
2026-01-08 12:29:16.75	191.81	13.44	-49.3	-51.0	15.7	6.09e-01	0	24	0	212336640	67	4375
2026-01-08 12:29:17.75	191.90	13.54	-49.3	-51.0	15.8	6.06e-01	0	24	0	214433792	67	4386
2026-01-08 12:29:18.76	192.00	13.64	-49.3	-51.0	15.8	6.06e-01	0	24	0	216006656	67	4353
2026-01-08 12:29:19.77	192.09	13.75	-49.2	-50.9	15.8	6.08e-01	0	24	0	218103808	67	4332
2026-01-08 12:29:20.78	192.19	13.85	-49.2	-50.9	15.8	6.06e-01	0	24	0	220200960	67	4303
2026-01-08 12:29:21.79	192.29	13.95	-49.3	-51.0	15.8	6.07e-01	0	24	0	221773824	67	4361
2026-01-08 12:29:22.78	192.39	14.05	-49.3	-51.1	15.8	6.06e-01	0	24	0	223870976	67	4398
2026-01-08 12:29:23.79	192.49	14.16	-49.3	-51.0	15.8	6.07e-01	0	24	0	225968128	67	4350
2026-01-08 12:29:24.80	192.59	14.26	-49.2	-50.9	15.8	6.06e-01	0	24	0	227540992	67	4308
2026-01-08 12:29:25.81	192.69	14.37	-49.2	-50.9	15.8	6.07e-01	0	24	0	229638144	67	4337
2026-01-08 12:29:26.82	192.79	14.47	-49.1	-50.8	15.6	6.05e-01	0	24	0	231211008	67	4270
2026-01-08 12:29:27.82	192.89	14.58	-49.0	-50.7	15.9	6.07e-01	0	24	0	233308160	67	4207
2026-01-08 12:29:28.83	192.99	14.68	-49.1	-50.8	15.9	6.07e-01	0	24	0	234881024	67	4254
2026-01-08 12:29:29.84	193.10	14.79	-49.1	-50.8	15.8	6.05e-01	0	24	0	236978176	67	4258
2026-01-08 12:29:30.85	193.20	14.90	-49.2	-50.9	15.8	6.05e-01	0	24	0	239075328	67	4308
2026-01-08 12:29:31.86	193.30	15.00	-49.1	-50.7	15.9	6.03e-01	0	24	0	240648192	67	4228
2026-01-08 12:29:32.87	193.41	15.11	-49.1	-50.8	15.9	6.05e-01	0	24	0	242745344	67	4248
2026-01-08 12:29:33.87	193.52	15.22	-49.2	-50.8	15.8	6.06e-01	0	24	0	244318208	67	4289
2026-01-08 12:29:34.88	193.62	15.33	-49.1	-50.8	15.9	6.08e-01	0	24	0	246415360	67	4244
2026-01-08 12:29:35.89	193.73	15.44	-49.2	-50.8	15.8	6.05e-01	0	24	0	248512512	67	4284
2026-01-08 12:29:36.90	193.84	15.55	-49.1	-50.7	15.9	6.07e-01	0	24	0	250085376	67	4241
2026-01-08 12:29:37.90	193.95	15.65	-49.0	-50.7	15.9	6.07e-01	0	24	0	252182528	67	4204
2026-01-08 12:29:38.91	194.06	15.77	-49.0	-50.7	15.9	6.06e-01	0	24	0	254279680	67	4195
2026-01-08 12:29:39.92	194.17	15.88	-48.9	-50.6	15.9	6.03e-01	0	24	0	255852544	67	4150
2026-01-08 12:29:40.92	194.28	15.99	-49.0	-50.7	15.9	6.06e-01	0	24	0	257949696	67	4203
2026-01-08 12:29:41.93	194.40	16.10	-49.0	-50.7	15.9	6.06e-01	0	24	0	259522560	67	4204
2026-01-08 12:29:42.94	194.51	16.21	-49.1	-50.7	15.9	6.06e-01	0	24	0	261619712	67	4236
2026-01-08 12:29:43.95	194.63	16.32	-49.0	-50.7	15.9	6.08e-01	0	24	0	263716864	67	4201
2026-01-08 12:29:44.96	194.74	16.44	-49.1	-50.8	15.9	6.06e-01	0	24	0	265289728	67	4260
2026-01-08 12:29:45.97	194.86	16.55	-49.1	-50.8	15.9	6.07e-01	0	24	0	267386880	67	4259
2026-01-08 12:29:46.97	194.98	16.66	-49.1	-50.7	15.9	6.09e-01	0	24	0	268959744	67	4242
2026-01-08 12:29:47.98	195.09	16.78	-48.8	-50.4	15.8	6.06e-01	0	24	0	271056896	66	4335
2026-01-08 12:29:48.99	195.21	16.89	-48.8	-50.4	15.8	6.06e-01	0	24	0	273154048	66	4340
2026-01-08 12:29:50.00	195.33	17.01	-48.9	-50.5	15.7	6.08e-01	0	24	0	274726912	66	4390
2026-01-08 12:29:51.01	195.46	17.13	-48.9	-50.6	15.7	6.08e-01	0	24	0	276824064	66	4397
2026-01-08 12:29:52.02	195.58	17.24	-48.9	-50.6	15.8	6.08e-01	0	24	0	278396928	66	4404
2026-01-08 12:29:53.02	195.70	17.36	-48.9	-50.5	15.8	6.09e-01	0	24	0	280494080	66	4388
2026-01-08 12:29:54.03	195.83	17.48	-48.9	-50.5	15.7	6.06e-01	0	24	0	282591232	66	4383
2026-01-08 12:29:55.04	195.95	17.59	-48.9	-50.6	15.7	6.07e-01	0	24	0	284164096	66	4393
2026-01-08 12:29:56.05	196.08	17.71	-48.8	-50.5	15.8	6.07e-01	0	24	0	286261248	66	4355
2026-01-08 12:29:57.06	196.20	17.83	-48.9	-50.5	15.8	6.07e-01	0	24	0	287834112	66	4381
2026-01-08 12:29:58.06	196.33	17.95	-48.8	-50.5	15.8	6.04e-01	0	24	0	289931264	66	4351
2026-01-08 12:29:59.07	196.46	18.07	-48.9	-50.6	15.7	6.07e-01	0	24	0	292028416	66	4405
2026-01-08 12:30:00.08	196.59	18.19	-48.9	-50.6	15.8	6.07e-01	0	24	0	293601280	66	4397
2026-01-08 12:30:01.08	196.72	18.31	-49.0	-50.6	15.8	6.05e-01	0	24	0	295698432	66	4423
2026-01-08 12:30:02.09	196.86	18.43	-49.0	-50.6	15.7	6.06e-01	0	24	0	297271296	66	4416
2026-01-08 12:30:03.09	196.99	18.55	-48.9	-50.6	15.8	6.07e-01	0	24	0	299368448	66	4404
2026-01-08 12:30:04.10	197.12	18.68	-49.0	-50.6	15.7	6.04e-01	0	24	0	301465600	66	4418
2026-01-08 12:30:05.11	197.26	18.80	-49.0	-50.7	15.7	6.08e-01	0	24	0	303038464	66	4451
2026-01-08 12:30:06.12	197.40	18.92	-48.9	-50.5	15.8	6.07e-01	0	24	0	305135616	66	4386
2026-01-08 12:30:07.12	197.53	19.05	-48.9	-50.6	15.7	6.08e-01	0	24	0	306708480	66	4404
2026-01-08 12:30:08.13	197.67	19.17	-49.1	-50.7	15.7	6.05e-01	0	24	0	308805632	66	4482
2026-01-08 12:30:09.14	197.81	19.30	-49.0	-50.7	15.7	6.05e-01	0	24	0	310902784	66	4456
2026-01-08 12:30:10.14	197.95	19.42	-49.1	-50.8	15.7	6.05e-01	0	24	0	312475648	66	4495
2026-01-08 12:30:11.15	198.10	19.55	-49.0	-50.7	15.7	6.06e-01	0	24	0	314572800	66	4462
2026-01-08 12:30:12.16	198.24	19.68	-49.0	-50.7	15.7	6.07e-01	0	24	0	316145664	66	4450
2026-01-08 12:30:13.17	198.39	19.80	-48.8	-50.5	15.8	6.06e-01	0	24	0	318242816	66	4350
2026-01-08 12:30:14.18	198.53	19.93	-48.9	-50.5	15.8	6.06e-01	0	24	0	320339968	66	4360
2026-01-08 12:30:15.18	198.68	20.06	-49.0	-50.7	15.7	6.05e-01	0	24	0	321912832	66	4454
2026-01-08 12:30:16.19	198.83	20.19	-49.1	-50.8	15.7	6.08e-01	0	24	0	324009984	66	4512
2026-01-08 12:30:17.20	198.98	20.32	-49.1	-50.8	15.7	6.03e-01	0	24	0	325582848	66	4518
2026-01-08 12:30:18.20	199.13	20.45	-49.1	-50.8	15.7	6.05e-01	0	24	0	327680000	66	4514
2026-01-08 12:30:19.21	199.28	20.58	-49.2	-50.9	15.6	6.07e-01	0	24	0	329777152	66	4550
2026-01-08 12:30:20.22	199.44	20.71	-49.0	-50.7	15.7	6.08e-01	0	24	0	331350016	66	4465
2026-01-08 12:30:21.22	199.59	20.84	-49.1	-50.7	15.7	6.07e-01	0	24	0	333447168	66	4478
2026-01-08 12:30:22.23	199.75	20.97	-49.1	-50.8	15.7	6.05e-01	0	24	0	335020032	66	4506
2026-01-08 12:30:23.23	199.90	21.11	-49.2	-50.9	15.6	6.06e-01	0	24	0	337117184	66	4562
2026-01-08 12:30:24.24	200.06	21.24	-49.3	-51.0	15.6	6.05e-01	0	24	0	339214336	66	4633
2026-01-08 12:30:25.25	200.23	21.37	-49.3	-51.0	15.6	6.05e-01	0	24	0	340787200	66	4624
2026-01-08 12:30:26.26	200.39	21.51	-49.2	-50.9	15.6	6.06e-01	0	24	0	342884352	66	4581
2026-01-08 12:30:27.27	200.55	21.64	-49.1	-50.8	15.7	6.07e-01	0	24	0	344457216	66	4505
2026-01-08 12:30:28.28	200.72	21.78	-49.3	-51.0	15.6	6.06e-01	0	24	0	346554368	66	4602
2026-01-08 12:30:29.28	200.88	21.91	-49.2	-50.9	15.7	6.04e-01	0	24	0	348651520	66	4568
2026-01-08 12:30:30.29	201.05	22.05	-49.2	-50.9	15.6	6.06e-01	0	24	0	350224384	66	4556
2026-01-08 12:30:31.30	201.22	22.19	-49.2	-50.9	15.7	6.06e-01	0	24	0	352321536	66	4547
2026-01-08 12:30:32.30	201.39	22.33	-49.1	-50.7	15.7	6.07e-01	0	24	0	353894400	66	4478
2026-01-08 12:30:33.31	201.57	22.46	-49.1	-50.7	15.7	6.07e-01	0	24	0	355991552	66	4471
2026-01-08 12:30:34.32	201.74	22.60	-49.1	-50.8	15.7	6.05e-01	0	24	0	358088704	66	4512
2026-01-08 12:30:35.32	201.92	22.74	-49.2	-50.8	15.7	6.05e-01	0	24	0	359661568	66	4542
2026-01-08 12:30:36.33	202.09	22.88	-49.2	-50.9	15.6	6.08e-01	0	24	0	361758720	66	4569
2026-01-08 12:30:37.34	202.27	23.02	-49.2	-50.9	15.6	6.05e-01	0	24	0	363331584	66	4562
2026-01-08 12:30:38.34	202.45	23.16	-49.1	-50.8	15.7	6.05e-01	0	24	0	365428736	66	4509
2026-01-08 12:30:39.35	202.64	23.31	-49.2	-50.8	15.7	6.07e-01	0	24	0	367525888	66	4536
2026-01-08 12:30:40.36	202.82	23.45	-49.1	-50.7	15.7	6.07e-01	0	24	0	369098752	66	4492
2026-01-08 12:30:41.36	203.01	23.59	-49.1	-50.8	15.7	6.04e-01	0	24	0	371195904	66	4510
2026-01-08 12:30:42.37	203.19	23.74	-49.1	-50.7	15.7	6.04e-01	0	24	0	372768768	66	4467
2026-01-08 12:30:43.38	203.38	23.88	-49.1	-50.7	15.7	6.07e-01	0	24	0	374865920	66	4490
2026-01-08 12:30:44.39	203.58	24.02	-49.1	-50.8	15.7	6.05e-01	0	24	0	376963072	66	4519
2026-01-08 12:30:45.39	203.77	24.17	-49.3	-51.0	15.6	6.06e-01	0	24	0	378535936	66	4606
2026-01-08 12:30:46.40	203.96	24.31	-49.1	-50.8	15.7	6.07e-01	0	24	0	380633088	66	4525
2026-01-08 12:30:47.41	204.16	24.46	-49.2	-50.9	15.7	6.06e-01	0	24	0	382205952	66	4549
2026-01-08 12:30:48.42	204.36	24.61	-49.0	-50.6	15.7	6.05e-01	0	24	0	384303104	66	4436
2026-01-08 12:30:49.43	204.56	24.76	-49.0	-50.7	15.7	6.04e-01	0	24	0	386400256	66	4442
2026-01-08 12:30:50.43	204.76	24.90	-49.1	-50.8	15.6	6.06e-01	0	24	0	387973120	66	4523
2026-01-08 12:30:51.44	204.97	25.05	-49.2	-50.9	15.6	6.06e-01	0	24	0	390070272	66	4559
2026-01-08 12:30:52.45	205.17	25.20	-49.2	-50.9	15.6	6.05e-01	0	24	0	392167424	66	4562
2026-01-08 12:30:53.45	205.38	25.35	-49.1	-50.7	15.7	6.05e-01	0	24	0	393740288	66	4493
2026-01-08 12:30:54.46	205.59	25.50	-49.1	-50.7	15.7	6.06e-01	0	24	0	395837440	66	4485
2026-01-08 12:30:55.47	205.80	25.65	-49.1	-50.7	15.7	6.06e-01	0	24	0	397410304	66	4485
2026-01-08 12:30:56.48	206.02	25.80	-49.2	-50.8	15.7	6.08e-01	0	24	0	399507456	66	4542
2026-01-08 12:30:57.49	206.24	25.96	-49.2	-50.9	15.7	6.08e-01	0	24	0	401604608	66	4556
2026-01-08 12:30:58.50	206.46	26.11	-49.1	-50.8	15.7	6.05e-01	0	24	0	403177472	66	4501
2026-01-08 12:30:59.51	206.68	26.26	-49.3	-50.9	15.6	6.06e-01	0	24	0	405274624	66	4579
2026-01-08 12:31:00.51	206.90	26.41	-49.3	-51.0	15.6	6.07e-01	0	24	0	406847488	66	4601
2026-01-08 12:31:01.52	207.12	26.57	-49.2	-50.8	15.6	6.07e-01	0	24	0	408944640	66	4543
2026-01-08 12:31:02.53	207.35	26.72	-49.2	-50.9	15.7	6.05e-01	0	24	0	410517504	66	4550
2026-01-08 12:31:03.53	207.58	26.88	-49.1	-50.8	15.7	6.07e-01	0	24	0	412614656	66	4500
2026-01-08 12:31:04.54	207.81	27.03	-49.2	-50.8	15.7	6.06e-01	0	24	0	414711808	66	4534
2026-01-08 12:31:05.55	208.05	27.19	-49.2	-50.9	15.6	6.03e-01	0	24	0	416284672	66	4558
2026-01-08 12:31:06.56	208.28	27.34	-49.1	-50.8	15.7	6.07e-01	0	24	0	418381824	66	4514
2026-01-08 12:31:07.56	208.52	27.50	-49.2	-50.8	15.7	6.05e-01	0	24	0	420478976	66	4529
2026-01-08 12:31:08.56	208.76	27.65	-49.2	-50.8	15.6	6.04e-01	0	24	0	422051840	66	4544
2026-01-08 12:31:09.57	209.01	27.81	-49.2	-50.9	15.6	6.06e-01	0	24	0	424148992	66	4558
2026-01-08 12:31:10.58	209.25	27.97	-49.3	-51.0	15.6	6.02e-01	0	24	0	425721856	66	4621
2026-01-08 12:31:11.59	209.50	28.13	-49.3	-51.0	15.6	6.05e-01	0	24	0	427819008	66	4626
2026-01-08 12:31:12.60	209.75	28.29	-49.2	-50.8	15.7	6.04e-01	0	24	0	429916160	66	4542
2026-01-08 12:31:13.60	210.01	28.45	-49.1	-50.8	15.7	6.07e-01	0	24	0	431489024	66	4499
2026-01-08 12:31:14.61	210.26	28.61	-49.1	-50.8	15.7	6.07e-01	0	24	0	433586176	66	4502
2026-01-08 12:31:15.62	210.52	28.77	-49.1	-50.8	15.7	6.06e-01	0	24	0	435159040	66	4495
2026-01-08 12:31:16.63	210.78	28.93	-49.1	-50.7	15.7	6.07e-01	0	24	0	437256192	66	4491
2026-01-08 12:31:17.63	211.05	29.09	-49.1	-50.7	15.7	6.05e-01	0	24	0	438829056	66	4488
2026-01-08 12:31:18.64	211.31	29.25	-49.2	-50.8	15.7	6.05e-01	0	24	0	440926208	66	4543
2026-01-08 12:31:19.65	211.58	29.41	-49.1	-50.7	15.7	6.08e-01	0	24	0	443023360	66	4483
2026-01-08 12:31:20.66	211.86	29.57	-49.1	-50.7	15.7	6.05e-01	0	24	0	444596224	66	4483
2026-01-08 12:31:21.67	212.13	29.73	-49.1	-50.8	15.7	6.07e-01	0	24	0	446693376	66	4512
2026-01-08 12:31:22.68	212.41	29.90	-49.2	-50.8	15.7	6.06e-01	0	24	0	448790528	66	4542
2026-01-08 12:31:23.68	212.69	30.06	-49.2	-50.8	15.7	6.08e-01	0	24	0	450363392	66	4543
2026-01-08 12:31:24.69	212.97	30.22	-49.2	-50.8	15.7	6.06e-01	0	24	0	452460544	66	4525
2026-01-08 12:31:25.70	213.26	30.38	-49.2	-50.9	15.7	6.08e-01	0	24	0	454033408	66	4547
2026-01-08 12:31:26.71	213.55	30.55	-49.2	-50.8	15.7	6.04e-01	0	24	0	456130560	66	4529
2026-01-08 12:31:27.72	213.85	30.71	-49.2	-50.9	15.7	6.08e-01	0	24	0	458227712	66	4550
2026-01-08 12:31:28.73	214.14	30.88	-49.2	-50.8	15.7	6.05e-01	0	24	0	459800576	66	4515
2026-01-08 12:31:29.74	214.44	31.04	-49.1	-50.8	15.7	6.08e-01	0	24	0	461897728	66	4501
2026-01-08 12:31:30.75	214.74	31.21	-49.4	-51.1	15.6	6.07e-01	0	24	0	463994880	66	4662
2026-01-08 12:31:31.75	215.05	31.37	-49.3	-51.0	15.6	6.04e-01	0	24	0	465567744	66	4602
2026-01-08 12:31:32.76	215.36	31.53	-49.2	-50.9	15.7	6.06e-01	0	24	0	467664896	66	4546
2026-01-08 12:31:33.77	215.67	31.70	-49.3	-50.9	15.6	6.08e-01	0	24	0	469237760	66	4592
2026-01-08 12:31:34.77	215.98	31.86	-49.1	-50.7	15.7	6.04e-01	0	24	0	471334912	66	4467
2026-01-08 12:31:35.78	216.30	32.03	-49.3	-50.9	15.7	6.07e-01	0	24	0	472907776	66	4570
2026-01-08 12:31:36.78	216.62	32.19	-49.4	-51.0	15.6	6.07e-01	0	24	0	475004928	66	4634
2026-01-08 12:31:37.79	216.94	32.35	-49.4	-51.0	15.6	6.07e-01	0	24	0	477102080	66	4650
2026-01-08 12:31:38.79	217.27	32.52	-49.2	-50.8	15.7	6.04e-01	0	24	0	478674944	66	4534
2026-01-08 12:31:39.79	217.59	32.68	-49.3	-50.9	15.6	6.05e-01	0	24	0	480772096	66	4577
2026-01-08 12:31:40.80	217.93	32.85	-49.6	-51.3	15.6	6.06e-01	0	24	0	482344960	66	4760
2026-01-08 12:31:41.81	218.27	33.01	-49.3	-51.0	15.6	6.06e-01	0	24	0	484442112	66	4602
2026-01-08 12:31:42.82	218.61	33.17	-49.2	-50.9	15.7	6.05e-01	0	24	0	486539264	66	4555
2026-01-08 12:31:43.83	218.96	33.34	-49.4	-51.1	15.6	6.06e-01	0	24	0	488112128	66	4673
2026-01-08 12:31:44.84	219.30	33.50	-49.4	-51.1	15.6	6.07e-01	0	24	0	490209280	66	4689
2026-01-08 12:31:45.85	219.66	33.67	-49.4	-51.1	15.6	6.07e-01	0	24	0	492306432	66	4685
2026-01-08 12:31:46.86	220.01	33.83	-49.5	-51.2	15.5	6.06e-01	0	24	0	493879296	66	4752
2026-01-08 12:31:47.86	220.37	33.99	-49.5	-51.2	15.6	6.07e-01	0	24	0	495976448	66	4713
2026-01-08 12:31:48.87	220.73	34.16	-49.6	-51.3	15.5	6.04e-01	0	24	0	497549312	66	4783
2026-01-08 12:31:49.88	221.10	34.32	-49.7	-51.4	15.6	6.05e-01	0	24	0	499646464	67	4547
2026-01-08 12:31:50.89	221.47	34.48	-49.7	-51.4	15.6	6.06e-01	0	24	0	501219328	67	4565
2026-01-08 12:31:51.89	221.84	34.64	-49.8	-51.5	15.6	6.05e-01	0	24	0	503316480	67	4621
2026-01-08 12:31:52.90	222.22	34.80	-49.7	-51.4	15.6	6.06e-01	0	24	0	505413632	67	4568
2026-01-08 12:31:53.91	222.60	34.97	-49.7	-51.4	15.6	6.05e-01	0	24	0	506986496	67	4587
2026-01-08 12:31:54.92	222.99	35.13	-49.7	-51.5	15.6	6.07e-01	0	24	0	509083648	67	4599
2026-01-08 12:31:55.92	223.37	35.29	-49.8	-51.5	15.6	6.07e-01	0	24	0	510656512	67	4616
2026-01-08 12:31:56.93	223.77	35.44	-49.8	-51.5	15.6	6.07e-01	0	24	0	512753664	67	4647
2026-01-08 12:31:57.94	224.17	35.60	-49.8	-51.5	15.6	6.05e-01	0	24	0	514850816	67	4614
2026-01-08 12:31:58.94	224.56	35.76	-49.5	-51.2	15.7	6.07e-01	0	24	0	516423680	67	4456
2026-01-08 12:31:59.95	224.97	35.92	-49.6	-51.2	15.7	6.06e-01	0	24	0	518520832	67	4489
2026-01-08 12:32:00.96	225.38	36.08	-49.8	-51.5	15.6	6.07e-01	0	24	0	520617984	67	4612
2026-01-08 12:32:01.97	225.79	36.23	-49.6	-51.3	15.7	6.07e-01	0	24	0	522190848	67	4497
2026-01-08 12:32:02.98	226.21	36.39	-49.6	-51.3	15.7	6.07e-01	0	24	0	524288000	67	4513
2026-01-08 12:32:03.98	226.63	36.54	-49.4	-51.0	15.7	6.06e-01	0	24	0	525860864	67	4389
2026-01-08 12:32:05.00	227.05	36.69	-49.6	-51.3	15.7	6.06e-01	0	24	0	527958016	67	4519
2026-01-08 12:32:06.00	227.48	36.85	-49.6	-51.3	15.6	6.06e-01	0	24	0	530055168	67	4525
2026-01-08 12:32:07.01	227.91	37.00	-49.8	-51.5	15.6	6.05e-01	0	24	0	531628032	67	4622
2026-01-08 12:32:08.02	228.35	37.15	-49.5	-51.2	15.7	6.05e-01	0	24	0	533725184	67	4451
2026-01-08 12:32:09.02	228.79	37.30	-49.4	-51.0	15.7	6.06e-01	0	24	0	535298048	67	4376
2026-01-08 12:32:10.03	229.23	37.44	-49.7	-51.4	15.7	6.06e-01	0	24	0	537395200	67	4546
2026-01-08 12:32:11.04	229.68	37.59	-49.6	-51.3	15.6	6.05e-01	0	24	0	538968064	67	4528
2026-01-08 12:32:12.05	230.14	37.74	-49.5	-51.2	15.7	6.04e-01	0	24	0	541065216	67	4459
2026-01-08 12:32:13.05	230.59	37.88	-49.7	-51.4	15.6	6.06e-01	0	24	0	543162368	67	4563
2026-01-08 12:32:14.06	231.05	38.02	-49.7	-51.4	15.6	6.05e-01	0	24	0	544735232	67	4550
2026-01-08 12:32:15.06	231.51	38.16	-49.4	-51.1	15.7	6.06e-01	0	24	0	546832384	67	4403
2026-01-08 12:32:16.07	231.98	38.30	-49.7	-51.3	15.6	6.07e-01	0	24	0	548929536	67	4537
2026-01-08 12:32:17.08	232.46	38.44	-49.8	-51.5	15.6	6.04e-01	0	24	0	550502400	67	4645
2026-01-08 12:32:18.09	232.94	38.58	-49.4	-51.0	15.8	6.07e-01	0	24	0	552599552	67	4385
2026-01-08 12:32:19.09	233.41	38.71	-49.4	-51.1	15.8	6.07e-01	0	24	0	554172416	67	4393
2026-01-08 12:32:20.10	233.90	38.85	-49.4	-51.0	15.8	6.06e-01	0	24	0	556269568	67	4379
2026-01-08 12:32:21.11	234.39	38.98	-49.3	-50.9	15.8	6.05e-01	0	24	0	558366720	67	4321
2026-01-08 12:32:22.12	234.88	39.11	-49.2	-50.8	15.8	6.08e-01	0	24	0	559939584	67	4283
2026-01-08 12:32:23.13	235.38	39.24	-49.3	-51.0	15.8	6.06e-01	0	24	0	562036736	67	4344
2026-01-08 12:32:24.13	235.88	39.36	-49.3	-50.9	15.8	6.06e-01	0	24	0	563609600	67	4319
2026-01-08 12:32:25.14	236.38	39.49	-49.2	-50.9	15.8	6.06e-01	0	24	0	565706752	67	4294
2026-01-08 12:32:26.15	236.89	39.61	-49.1	-50.7	15.9	6.06e-01	0	24	0	567803904	67	4227
2026-01-08 12:32:27.15	237.40	39.73	-49.5	-51.2	15.7	6.05e-01	0	24	0	569376768	67	4464
2026-01-08 12:32:28.17	237.93	39.85	-49.1	-50.7	15.9	6.08e-01	0	24	0	571473920	67	4225
2026-01-08 12:32:29.17	238.44	39.97	-49.1	-50.7	15.9	6.07e-01	0	24	0	573046784	67	4195
2026-01-08 12:32:30.18	238.97	40.08	-49.1	-50.7	15.9	6.05e-01	0	24	0	575143936	67	4199
2026-01-08 12:32:31.19	239.50	40.19	-49.4	-51.0	15.7	6.07e-01	0	24	0	577241088	67	4380
2026-01-08 12:32:32.20	240.03	40.30	-48.9	-50.4	15.9	6.07e-01	0	24	0	578813952	67	4086
2026-01-08 12:32:33.20	240.56	40.41	-49.0	-50.6	15.7	6.07e-01	0	24	0	580911104	66	4435
2026-01-08 12:32:34.21	241.10	40.52	-49.0	-50.6	15.7	6.07e-01	0	24	0	582483968	66	4413
2026-01-08 12:32:35.22	241.64	40.62	-49.2	-50.8	15.7	6.06e-01	0	24	0	584581120	66	4520
2026-01-08 12:32:36.22	242.18	40.72	-49.2	-50.8	15.6	6.08e-01	0	24	0	586678272	66	4541
2026-01-08 12:32:37.23	242.73	40.82	-48.8	-50.3	15.8	6.06e-01	0	24	0	588251136	66	4275
2026-01-08 12:32:38.23	243.28	40.91	-49.0	-50.6	15.7	6.06e-01	0	24	0	590348288	66	4404
2026-01-08 12:32:39.24	243.84	41.00	-49.0	-50.6	15.7	6.04e-01	0	24	0	591921152	66	4425
2026-01-08 12:32:40.25	244.40	41.09	-49.0	-50.6	15.7	6.05e-01	0	24	0	594018304	66	4392
2026-01-08 12:32:41.26	244.96	41.18	-48.8	-50.4	15.8	6.06e-01	0	24	0	596115456	66	4302
2026-01-08 12:32:42.27	245.52	41.26	-48.9	-50.4	15.8	6.07e-01	0	24	0	597688320	66	4332
2026-01-08 12:32:43.28	246.09	41.34	-49.1	-50.8	15.7	6.07e-01	0	24	0	599785472	66	4498
2026-01-08 12:32:44.28	246.66	41.42	-48.9	-50.4	15.8	6.06e-01	0	24	0	601358336	66	4328
2026-01-08 12:32:45.29	247.23	41.50	-48.7	-50.2	15.8	6.01e-01	0	24	0	603455488	66	4216
2026-01-08 12:32:46.30	247.81	41.57	-48.7	-50.3	15.8	6.03e-01	0	24	0	605552640	66	4268
2026-01-08 12:32:47.31	248.39	41.64	-48.8	-50.3	15.8	6.00e-01	0	24	0	607125504	66	4274
2026-01-08 12:32:48.32	248.97	41.71	-48.7	-50.2	15.8	6.01e-01	0	24	0	609222656	66	4232
2026-01-08 12:32:49.33	249.55	41.77	-48.8	-50.4	15.8	6.01e-01	0	24	0	610795520	66	4292
2026-01-08 12:32:50.33	250.13	41.83	-48.7	-50.3	15.8	6.02e-01	0	24	0	612892672	66	4258
2026-01-08 12:32:51.34	250.72	41.89	-48.8	-50.4	15.8	6.02e-01	0	24	0	614989824	66	4301
2026-01-08 12:32:52.35	251.31	41.94	-49.0	-50.5	15.7	6.01e-01	0	25	0	616562688	66	4384
2026-01-08 12:32:53.36	251.90	41.99	-48.9	-50.5	15.7	6.01e-01	0	24	0	618659840	66	4365
2026-01-08 12:32:54.37	252.50	42.04	-48.6	-50.1	15.9	6.00e-01	0	24	0	620232704	66	4170
2026-01-08 12:32:55.38	253.09	42.08	-48.8	-50.4	15.8	6.00e-01	0	24	0	622329856	66	4304
2026-01-08 12:32:56.38	253.68	42.12	-48.9	-50.5	15.7	6.01e-01	0	24	0	624427008	66	4382
2026-01-08 12:32:57.39	254.28	42.16	-48.8	-50.3	15.8	6.00e-01	0	24	0	625999872	66	4281
2026-01-08 12:32:58.40	254.88	42.19	-48.9	-50.5	15.8	6.01e-01	0	24	0	628097024	66	4363
2026-01-08 12:32:59.42	255.49	42.23	-48.9	-50.4	15.8	5.98e-01	0	24	0	630194176	66	4331
2026-01-08 12:33:00.42	256.09	42.25	-48.8	-50.4	15.8	5.98e-01	0	24	0	631767040	66	4307
2026-01-08 12:33:01.43	256.69	42.28	-48.8	-50.3	15.8	6.02e-01	0	24	0	633864192	66	4269
2026-01-08 12:33:02.44	257.29	42.30	-49.0	-50.6	15.7	6.04e-01	0	24	0	635437056	66	4393
2026-01-08 12:33:03.45	257.90	42.31	-48.9	-50.5	15.8	6.01e-01	0	24	0	637534208	66	4353
2026-01-08 12:33:04.46	258.50	42.33	-49.0	-50.5	15.7	6.02e-01	0	24	0	639631360	66	4389
2026-01-08 12:33:05.47	259.11	42.34	-48.8	-50.3	15.8	6.00e-01	0	24	0	641204224	66	4281
2026-01-08 12:33:06.48	259.72	42.35	-48.9	-50.5	15.8	6.01e-01	0	24	0	643301376	66	4358
2026-01-08 12:33:07.48	260.32	42.35	-48.8	-50.4	15.8	6.02e-01	0	24	0	644874240	66	4308
2026-01-08 12:33:08.49	260.92	42.35	-48.8	-50.4	15.8	6.03e-01	0	24	0	646971392	66	4302
2026-01-08 12:33:09.50	261.53	42.35	-49.1	-50.6	15.7	6.01e-01	0	24	0	649068544	66	4435
2026-01-08 12:33:10.51	262.14	42.34	-48.8	-50.4	15.8	6.00e-01	0	24	0	650641408	66	4306
2026-01-08 12:33:11.51	262.74	42.33	-48.9	-50.5	15.8	6.02e-01	0	24	0	652738560	66	4343
2026-01-08 12:33:12.52	263.34	42.31	-49.0	-50.6	15.7	6.00e-01	0	24	0	654311424	66	4408
2026-01-08 12:33:13.53	263.94	42.30	-49.2	-50.8	15.7	6.02e-01	0	24	0	656408576	66	4537
2026-01-08 12:33:14.54	264.55	42.28	-49.0	-50.6	15.7	6.02e-01	0	24	0	658505728	66	4411
2026-01-08 12:33:15.55	265.15	42.25	-49.2	-50.8	15.7	6.00e-01	0	24	0	660078592	66	4523
2026-01-08 12:33:16.56	265.75	42.22	-49.5	-51.1	15.6	6.03e-01	0	24	0	662175744	66	4687
2026-01-08 12:33:17.56	266.35	42.19	-49.2	-50.8	15.7	6.01e-01	0	24	0	663748608	66	4523
2026-01-08 12:33:18.57	266.95	42.16	-49.2	-50.8	15.7	6.00e-01	0	24	0	665845760	66	4522
2026-01-08 12:33:19.57	267.54	42.12	-49.2	-50.8	15.7	5.99e-01	0	24	0	667942912	66	4516
2026-01-08 12:33:20.58	268.14	42.08	-49.0	-50.6	15.7	6.01e-01	0	24	0	669515776	66	4417
2026-01-08 12:33:21.59	268.73	42.04	-49.4	-51.1	15.6	6.01e-01	0	24	0	671612928	66	4658
2026-01-08 12:33:22.60	269.33	41.99	-49.1	-50.7	15.7	6.01e-01	0	24	0	673710080	66	4471
2026-01-08 12:33:23.60	269.91	41.94	-48.9	-50.5	15.7	6.01e-01	0	24	0	675282944	66	4363
2026-01-08 12:33:24.61	270.50	41.88	-49.2	-50.9	15.7	6.01e-01	0	24	0	677380096	66	4551
2026-01-08 12:33:25.62	271.09	41.83	-49.3	-50.9	15.6	6.02e-01	0	24	0	678952960	66	4576
2026-01-08 12:33:26.63	271.67	41.77	-49.4	-51.0	15.6	6.00e-01	0	24	0	681050112	66	4625
2026-01-08 12:33:27.63	272.25	41.70	-49.4	-51.1	15.6	6.01e-01	0	24	0	682622976	66	4676
2026-01-08 12:33:28.64	272.83	41.64	-49.4	-51.0	15.6	6.02e-01	0	24	0	684720128	66	4624
2026-01-08 12:33:29.65	273.41	41.57	-49.4	-51.0	15.6	6.03e-01	0	24	0	686817280	66	4624
2026-01-08 12:33:30.65	273.98	41.49	-49.6	-51.2	15.6	6.01e-01	0	24	0	688390144	67	4488
2026-01-08 12:33:31.66	274.55	41.42	-49.1	-50.6	15.9	6.00e-01	0	24	0	690487296	67	4188
2026-01-08 12:33:32.67	275.12	41.34	-49.3	-50.9	15.8	6.02e-01	0	24	0	692060160	67	4337
2026-01-08 12:33:33.68	275.69	41.26	-49.4	-51.0	15.8	6.01e-01	0	24	0	694157312	67	4370
2026-01-08 12:33:34.68	276.25	41.18	-49.4	-51.0	15.8	6.01e-01	0	24	0	696254464	67	4370
2026-01-08 12:33:35.68	276.81	41.09	-49.4	-51.0	15.7	6.01e-01	0	24	0	697827328	67	4382
2026-01-08 12:33:36.69	277.37	41.00	-49.4	-51.0	15.7	6.01e-01	0	24	0	699924480	67	4365
2026-01-08 12:33:37.70	277.92	40.91	-49.5	-51.1	15.7	5.99e-01	0	25	0	702021632	67	4417
2026-01-08 12:33:38.71	278.47	40.81	-49.6	-51.3	15.7	6.02e-01	0	24	0	703594496	67	4509
2026-01-08 12:33:39.72	279.02	40.72	-49.6	-51.3	15.7	6.00e-01	0	24	0	705691648	67	4513
2026-01-08 12:33:40.72	279.56	40.62	-49.5	-51.1	15.7	6.01e-01	0	24	0	707264512	67	4416
2026-01-08 12:33:41.73	280.10	40.51	-49.5	-51.1	15.7	6.03e-01	0	24	0	709361664	67	4441
2026-01-08 12:33:42.74	280.64	40.41	-49.7	-51.4	15.6	6.01e-01	0	24	0	711458816	67	4558
2026-01-08 12:33:43.75	281.18	40.30	-49.4	-51.0	15.7	6.02e-01	0	24	0	713031680	67	4365
2026-01-08 12:33:44.75	281.70	40.19	-49.5	-51.1	15.7	6.01e-01	0	24	0	715128832	67	4423
2026-01-08 12:33:45.76	282.23	40.08	-49.7	-51.3	15.6	6.02e-01	0	24	0	716701696	67	4526
2026-01-08 12:33:46.77	282.75	39.97	-49.6	-51.3	15.6	6.02e-01	0	24	0	718798848	67	4517
2026-01-08 12:33:47.78	283.27	39.85	-49.6	-51.2	15.6	6.01e-01	0	24	0	720371712	67	4484
2026-01-08 12:33:48.79	283.79	39.73	-49.6	-51.2	15.7	6.02e-01	0	24	0	722468864	67	4490
2026-01-08 12:33:49.80	284.30	39.61	-49.7	-51.3	15.7	6.02e-01	0	24	0	724566016	67	4518
2026-01-08 12:33:50.81	284.81	39.49	-49.7	-51.4	15.6	5.99e-01	0	24	0	726138880	67	4547
2026-01-08 12:33:51.81	285.31	39.36	-49.8	-51.4	15.6	6.01e-01	0	24	0	728236032	67	4598
2026-01-08 12:33:52.81	285.81	39.24	-49.7	-51.3	15.6	6.03e-01	0	24	0	730333184	67	4536
2026-01-08 12:33:53.82	286.30	39.11	-49.6	-51.2	15.6	6.00e-01	0	24	0	731906048	67	4477
2026-01-08 12:33:54.82	286.79	38.98	-49.6	-51.2	15.7	6.02e-01	0	24	0	734003200	67	4453
2026-01-08 12:33:55.83	287.28	38.85	-49.6	-51.2	15.7	6.01e-01	0	24	0	735576064	67	4472
2026-01-08 12:33:56.84	287.77	38.72	-49.7	-51.4	15.6	6.00e-01	0	24	0	737673216	67	4571
2026-01-08 12:33:57.85	288.25	38.58	-49.5	-51.2	15.7	6.01e-01	0	24	0	739770368	67	4451
2026-01-08 12:33:58.86	288.72	38.44	-49.5	-51.2	15.7	6.01e-01	0	24	0	741343232	67	4455
2026-01-08 12:33:59.87	289.20	38.31	-49.7	-51.4	15.6	6.03e-01	0	24	0	743440384	67	4576
2026-01-08 12:34:00.88	289.67	38.17	-49.5	-51.1	15.7	5.99e-01	0	24	0	745013248	67	4436
2026-01-08 12:34:01.88	290.13	38.03	-49.6	-51.2	15.7	6.03e-01	0	24	0	747110400	67	4472
2026-01-08 12:34:02.89	290.59	37.88	-49.6	-51.2	15.7	6.02e-01	0	24	0	749207552	67	4475
2026-01-08 12:34:03.89	291.04	37.74	-49.4	-51.0	15.7	5.98e-01	0	24	0	750780416	67	4385
2026-01-08 12:34:04.89	291.49	37.60	-49.5	-51.1	15.7	6.01e-01	0	24	0	752877568	67	4410
2026-01-08 12:34:05.90	291.94	37.45	-49.4	-51.0	15.7	6.02e-01	0	24	0	754450432	67	4373
2026-01-08 12:34:06.91	292.38	37.30	-49.3	-50.9	15.8	6.00e-01	0	24	0	756547584	67	4297
2026-01-08 12:34:07.91	292.82	37.16	-49.3	-50.9	15.8	5.99e-01	0	24	0	758644736	67	4311
2026-01-08 12:34:08.92	293.25	37.01	-49.2	-50.8	15.8	6.01e-01	0	24	0	760217600	67	4284
2026-01-08 12:34:09.93	293.69	36.86	-49.2	-50.8	15.8	5.99e-01	0	24	0	762314752	67	4289
2026-01-08 12:34:10.93	294.11	36.70	-49.2	-50.8	15.8	6.02e-01	0	24	0	763887616	67	4284
2026-01-08 12:34:11.94	294.53	36.55	-49.2	-50.8	15.8	5.99e-01	0	24	0	765984768	67	4286
2026-01-08 12:34:12.95	294.95	36.40	-49.1	-50.7	15.8	6.02e-01	0	24	0	768081920	67	4221
2026-01-08 12:34:13.95	295.37	36.24	-49.0	-50.6	15.9	6.01e-01	0	24	0	769654784	67	4153
2026-01-08 12:34:14.96	295.78	36.09	-49.1	-50.7	15.8	6.00e-01	0	24	0	771751936	67	4214
2026-01-08 12:34:15.97	296.19	35.93	-49.0	-50.6	15.9	6.00e-01	0	24	0	773324800	67	4158
2026-01-08 12:34:16.97	296.59	35.78	-49.1	-50.7	15.9	6.01e-01	0	24	0	775421952	67	4197
2026-01-08 12:34:17.98	296.99	35.62	-49.0	-50.6	15.9	6.03e-01	0	24	0	776994816	67	4173
2026-01-08 12:34:18.99	297.38	35.46	-49.1	-50.7	15.8	6.02e-01	0	24	0	779091968	67	4222
2026-01-08 12:34:20.00	297.78	35.30	-48.8	-50.3	15.8	5.99e-01	0	24	0	781189120	66	4267
2026-01-08 12:34:21.01	298.16	35.14	-48.7	-50.2	15.8	6.02e-01	0	24	0	782761984	66	4224
2026-01-08 12:34:22.02	298.55	34.98	-48.7	-50.2	15.8	6.03e-01	0	24	0	784859136	66	4210
2026-01-08 12:34:23.03	298.93	34.82	-48.7	-50.2	15.8	6.01e-01	0	24	0	786956288	66	4210
2026-01-08 12:34:24.04	299.31	34.66	-48.7	-50.2	15.8	6.00e-01	0	24	0	788529152	66	4221
2026-01-08 12:34:25.04	299.68	34.50	-48.5	-50.0	15.9	6.00e-01	0	24	0	790626304	66	4132
2026-01-08 12:34:26.04	300.04	34.34	-48.5	-50.0	15.9	6.01e-01	0	24	0	792199168	66	4119
2026-01-08 12:34:27.05	300.41	34.18	-48.4	-49.9	15.9	6.02e-01	0	24	0	794296320	66	4098
2026-01-08 12:34:28.06	300.77	34.02	-48.5	-50.0	15.9	5.99e-01	0	24	0	796393472	66	4139
2026-01-08 12:34:29.07	301.13	33.85	-48.1	-49.6	15.8	6.00e-01	0	24	0	797966336	65	4169
2026-01-08 12:34:30.07	301.48	33.69	-48.0	-49.5	15.9	5.99e-01	0	24	0	800063488	65	4120
2026-01-08 12:34:31.08	301.84	33.53	-48.2	-49.6	15.9	6.04e-01	0	24	0	801636352	65	4192
2026-01-08 12:34:32.08	302.18	33.37	-48.2	-49.7	15.8	6.01e-01	0	24	0	803733504	65	4227
2026-01-08 12:34:33.09	302.52	33.20	-48.3	-49.8	15.8	6.02e-01	0	24	0	805830656	65	4249
2026-01-08 12:34:34.10	302.87	33.04	-47.9	-49.4	15.9	6.01e-01	0	24	0	807403520	65	4065
2026-01-08 12:34:35.11	303.20	32.88	-47.8	-49.3	15.8	5.99e-01	0	24	0	809500672	64	4258
2026-01-08 12:34:36.11	303.53	32.71	-48.0	-49.4	15.7	6.00e-01	0	24	0	811073536	64	4336
2026-01-08 12:34:37.12	303.87	32.55	-48.0	-49.5	15.7	6.01e-01	0	24	0	813170688	64	4375
2026-01-08 12:34:38.12	304.19	32.39	-48.0	-49.5	15.7	6.01e-01	0	24	0	815267840	64	4371
2026-01-08 12:34:39.13	304.51	32.22	-48.0	-49.5	15.7	6.02e-01	0	24	0	816840704	64	4382
2026-01-08 12:34:40.14	304.83	32.06	-48.1	-49.6	15.7	6.02e-01	0	24	0	818937856	64	4438
2026-01-08 12:34:41.14	305.15	31.90	-48.1	-49.6	15.7	6.00e-01	0	24	0	820510720	64	4426
2026-01-08 12:34:42.15	305.46	31.73	-47.9	-49.4	15.8	6.00e-01	0	24	0	822607872	64	4317
2026-01-08 12:34:43.16	305.77	31.57	-47.8	-49.2	15.8	6.03e-01	0	24	0	824705024	64	4229
2026-01-08 12:34:44.17	306.08	31.40	-47.8	-49.2	15.8	6.00e-01	0	24	0	826277888	64	4231
2026-01-08 12:34:45.18	306.39	31.24	-47.9	-49.4	15.8	6.00e-01	0	24	0	828375040	64	4300
2026-01-08 12:34:46.19	306.69	31.08	-48.0	-49.5	15.8	6.00e-01	0	24	0	829947904	64	4363
2026-01-08 12:34:47.20	306.99	30.91	-48.0	-49.5	15.8	6.00e-01	0	24	0	832045056	64	4350
2026-01-08 12:34:48.21	307.28	30.75	-48.1	-49.5	15.8	6.00e-01	0	24	0	834142208	64	4389
2026-01-08 12:34:49.21	307.57	30.59	-48.0	-49.4	15.8	5.99e-01	0	24	0	835715072	64	4340
2026-01-08 12:34:50.22	307.86	30.43	-48.0	-49.5	15.7	6.01e-01	0	24	0	837812224	64	4377
2026-01-08 12:34:51.23	308.15	30.26	-48.0	-49.5	15.8	5.99e-01	0	24	0	839385088	64	4376
2026-01-08 12:34:52.24	308.43	30.10	-48.0	-49.5	15.7	6.02e-01	0	24	0	841482240	64	4374
2026-01-08 12:34:53.25	308.71	29.94	-48.0	-49.5	15.7	6.02e-01	0	24	0	843579392	64	4374
2026-01-08 12:34:54.25	308.99	29.78	-48.0	-49.5	15.7	5.99e-01	0	24	0	845152256	64	4382
2026-01-08 12:34:55.25	309.26	29.62	-48.1	-49.6	15.7	6.01e-01	0	24	0	847249408	64	4394
2026-01-08 12:34:56.26	309.53	29.46	-48.1	-49.6	15.7	6.02e-01	0	24	0	848822272	64	4393
2026-01-08 12:34:57.26	309.80	29.30	-48.1	-49.6	15.7	5.99e-01	0	24	0	850919424	64	4397
2026-01-08 12:34:58.28	310.07	29.14	-48.1	-49.5	15.7	6.01e-01	0	24	0	853016576	64	4391
2026-01-08 12:34:59.29	310.34	28.97	-48.2	-49.7	15.7	6.01e-01	0	24	0	854589440	64	4450
2026-01-08 12:35:00.30	310.60	28.82	-48.2	-49.7	15.7	5.99e-01	0	24	0	856686592	64	4492
2026-01-08 12:35:01.30	310.85	28.66	-48.3	-49.8	15.7	6.00e-01	0	24	0	858259456	64	4513
2026-01-08 12:35:02.31	311.11	28.50	-48.1	-49.6	15.7	6.00e-01	0	24	0	860356608	64	4426
2026-01-08 12:35:03.32	311.36	28.34	-48.3	-49.8	15.7	6.03e-01	0	24	0	862453760	64	4517
2026-01-08 12:35:04.33	311.61	28.18	-48.3	-49.8	15.7	5.98e-01	0	24	0	864026624	64	4530
2026-01-08 12:35:05.33	311.86	28.02	-48.3	-49.9	15.7	6.00e-01	0	24	0	866123776	64	4560
2026-01-08 12:35:06.34	312.11	27.87	-48.4	-50.0	15.7	6.01e-01	0	24	0	868220928	64	4600
2026-01-08 12:35:07.35	312.35	27.71	-48.5	-50.0	15.6	6.04e-01	0	24	0	869793792	64	4649
2026-01-08 12:35:08.36	312.59	27.55	-48.4	-49.9	15.6	6.00e-01	0	24	0	871890944	64	4583
2026-01-08 12:35:09.37	312.83	27.40	-48.5	-50.0	15.6	6.03e-01	0	24	0	873463808	64	4637
2026-01-08 12:35:10.38	313.07	27.24	-48.6	-50.2	15.6	6.01e-01	0	24	0	875560960	64	4722
2026-01-08 12:35:11.38	313.30	27.09	-48.6	-50.2	15.7	6.00e-01	0	24	0	877133824	65	4443
2026-01-08 12:35:12.39	313.53	26.93	-48.5	-50.0	15.7	6.02e-01	0	24	0	879230976	65	4386
2026-01-08 12:35:13.40	313.76	26.78	-48.4	-49.9	15.8	5.98e-01	0	24	0	881328128	65	4326
2026-01-08 12:35:14.40	313.99	26.63	-48.5	-50.0	15.7	6.03e-01	0	24	0	882900992	65	4387
2026-01-08 12:35:15.42	314.22	26.47	-48.6	-50.2	15.7	5.99e-01	0	24	0	884998144	65	4467
2026-01-08 12:35:16.42	314.44	26.32	-48.8	-50.4	15.7	6.02e-01	0	24	0	886571008	65	4566
2026-01-08 12:35:17.43	314.66	26.17	-48.8	-50.4	15.6	6.01e-01	0	24	0	888668160	65	4582
2026-01-08 12:35:18.43	314.87	26.02	-48.9	-50.5	15.6	6.02e-01	0	24	0	890765312	65	4626
2026-01-08 12:35:19.44	315.09	25.87	-48.8	-50.4	15.6	6.00e-01	0	24	0	892338176	65	4555
2026-01-08 12:35:20.45	315.31	25.72	-48.9	-50.4	15.6	6.04e-01	0	24	0	894435328	65	4595
2026-01-08 12:35:21.46	315.52	25.57	-48.9	-50.5	15.6	5.99e-01	0	24	0	896532480	65	4605
2026-01-08 12:35:22.47	315.73	25.42	-48.7	-50.2	15.7	6.03e-01	0	24	0	898105344	65	4483
2026-01-08 12:35:23.47	315.94	25.27	-48.5	-50.1	15.7	6.01e-01	0	24	0	900202496	65	4407
2026-01-08 12:35:24.48	316.14	25.12	-48.6	-50.1	15.7	6.03e-01	0	24	0	901775360	65	4436
2026-01-08 12:35:25.49	316.35	24.97	-48.6	-50.2	15.7	6.01e-01	0	24	0	903872512	65	4467
2026-01-08 12:35:26.50	316.55	24.82	-48.7	-50.2	15.7	6.03e-01	0	24	0	905969664	65	4483
2026-01-08 12:35:27.50	316.75	24.68	-48.7	-50.3	15.6	6.00e-01	0	24	0	907542528	65	4539
2026-01-08 12:35:28.51	316.95	24.53	-48.9	-50.5	15.6	6.01e-01	0	24	0	909639680	65	4601
2026-01-08 12:35:29.52	317.14	24.39	-48.7	-50.3	15.7	6.01e-01	0	24	0	911212544	65	4520
2026-01-08 12:35:30.53	317.34	24.24	-48.7	-50.3	15.7	6.01e-01	0	24	0	913309696	65	4536
2026-01-08 12:35:31.54	317.53	24.10	-48.8	-50.3	15.6	6.01e-01	0	24	0	915406848	65	4545
2026-01-08 12:35:32.55	317.72	23.95	-48.9	-50.5	15.6	6.01e-01	0	24	0	916979712	65	4600
2026-01-08 12:35:33.56	317.91	23.81	-48.9	-50.5	15.6	5.99e-01	0	24	0	919076864	65	4604
2026-01-08 12:35:34.56	318.10	23.67	-48.9	-50.5	15.6	5.99e-01	0	24	0	920649728	65	4633
2026-01-08 12:35:35.57	318.29	23.52	-48.9	-50.6	15.6	6.01e-01	0	24	0	922746880	65	4656
2026-01-08 12:35:36.58	318.47	23.38	-49.0	-50.6	15.6	6.00e-01	0	24	0	924844032	65	4674
2026-01-08 12:35:37.59	318.65	23.24	-48.9	-50.5	15.6	6.02e-01	0	24	0	926416896	65	4617
2026-01-08 12:35:38.59	318.83	23.10	-49.0	-50.6	15.6	6.00e-01	0	24	0	928514048	65	4675
2026-01-08 12:35:39.60	319.01	22.96	-48.9	-50.5	15.6	6.02e-01	0	24	0	930086912	65	4643
2026-01-08 12:35:40.61	319.19	22.82	-48.8	-50.4	15.6	6.02e-01	0	24	0	932184064	65	4572
2026-01-08 12:35:41.61	319.37	22.68	-48.8	-50.5	15.6	6.02e-01	0	24	0	934281216	65	4601
2026-01-08 12:35:42.62	319.54	22.54	-48.8	-50.4	15.7	5.97e-01	0	24	0	935854080	65	4547
2026-01-08 12:35:43.62	319.71	22.41	-48.7	-50.3	15.7	5.99e-01	0	24	0	937951232	65	4501
2026-01-08 12:35:44.64	319.88	22.27	-48.7	-50.3	15.7	6.01e-01	0	24	0	939524096	65	4505
2026-01-08 12:35:45.64	320.05	22.13	-48.8	-50.4	15.6	6.01e-01	0	24	0	941621248	65	4582
2026-01-08 12:35:46.66	320.22	21.99	-48.8	-50.4	15.7	6.00e-01	0	24	0	943718400	65	4549
2026-01-08 12:35:47.67	320.39	21.86	-48.9	-50.5	15.6	5.99e-01	0	24	0	945291264	65	4630
2026-01-08 12:35:48.67	320.55	21.72	-48.7	-50.3	15.7	6.00e-01	0	24	0	947388416	65	4536
2026-01-08 12:35:49.68	320.72	21.59	-48.7	-50.4	15.6	6.01e-01	0	24	0	948961280	65	4547
2026-01-08 12:35:50.69	320.88	21.46	-48.7	-50.3	15.7	6.01e-01	0	24	0	951058432	65	4539
2026-01-08 12:35:51.70	321.04	21.32	-48.7	-50.3	15.7	6.00e-01	0	24	0	953155584	65	4536
2026-01-08 12:35:52.71	321.20	21.19	-48.7	-50.3	15.7	6.01e-01	0	24	0	954728448	65	4524
2026-01-08 12:35:53.72	321.36	21.06	-48.7	-50.3	15.6	6.03e-01	0	24	0	956825600	65	4505
2026-01-08 12:35:54.73	321.52	20.92	-48.8	-50.4	15.6	6.02e-01	0	24	0	958398464	65	4556
2026-01-08 12:35:55.74	321.67	20.79	-48.6	-50.2	15.6	6.02e-01	0	24	0	960495616	65	4478
2026-01-08 12:35:56.75	321.83	20.66	-48.7	-50.3	15.7	6.00e-01	0	24	0	962592768	65	4510
2026-01-08 12:35:57.75	321.98	20.53	-48.6	-50.2	15.7	6.01e-01	0	24	0	964165632	65	4448
2026-01-08 12:35:58.76	322.13	20.40	-48.7	-50.3	15.7	5.98e-01	0	24	0	966262784	65	4501
2026-01-08 12:35:59.77	322.28	20.27	-48.6	-50.2	15.7	6.02e-01	0	24	0	968359936	65	4456
2026-01-08 12:36:00.77	322.43	20.15	-48.7	-50.3	15.7	6.01e-01	0	24	0	969932800	65	4504
2026-01-08 12:36:01.78	322.58	20.02	-48.6	-50.2	15.7	6.00e-01	0	24	0	972029952	65	4485
2026-01-08 12:36:02.79	322.72	19.89	-48.5	-50.1	15.7	5.98e-01	0	24	0	973602816	65	4412
2026-01-08 12:36:03.80	322.87	19.76	-48.6	-50.2	15.7	5.97e-01	0	24	0	975699968	65	4459
2026-01-08 12:36:04.80	323.01	19.64	-48.5	-50.1	15.7	6.01e-01	0	24	0	977797120	65	4410
2026-01-08 12:36:05.81	323.15	19.51	-48.5	-50.1	15.7	6.00e-01	0	24	0	979369984	65	4396
2026-01-08 12:36:06.82	323.30	19.39	-48.6	-50.2	15.7	6.00e-01	0	24	0	981467136	65	4461
2026-01-08 12:36:07.83	323.44	19.26	-48.4	-50.0	15.7	6.00e-01	0	24	0	983040000	65	4362
2026-01-08 12:36:08.84	323.58	19.14	-48.5	-50.0	15.8	6.00e-01	0	24	0	985137152	65	4374
2026-01-08 12:36:09.84	323.71	19.02	-48.5	-50.1	15.7	6.02e-01	0	24	0	987234304	65	4399
2026-01-08 12:36:10.85	323.85	18.89	-48.4	-50.0	15.7	6.02e-01	0	24	0	988807168	65	4359
2026-01-08 12:36:11.85	323.98	18.77	-48.5	-50.0	15.8	5.99e-01	0	24	0	990904320	65	4375
2026-01-08 12:36:12.86	324.12	18.65	-48.5	-50.0	15.7	6.02e-01	0	24	0	992477184	65	4389
2026-01-08 12:36:13.87	324.25	18.53	-48.5	-50.1	15.7	6.02e-01	0	24	0	994574336	65	4415
2026-01-08 12:36:14.88	324.39	18.41	-48.4	-50.0	15.7	6.01e-01	0	24	0	996671488	65	4372
2026-01-08 12:36:15.89	324.52	18.29	-48.5	-50.0	15.7	6.02e-01	0	24	0	998244352	65	4383
2026-01-08 12:36:16.90	324.65	18.17	-48.6	-50.2	15.7	5.98e-01	0	24	0	1000341504	65	4447
2026-01-08 12:36:17.90	324.78	18.05	-48.5	-50.1	15.7	6.02e-01	0	24	0	1001914368	65	4401
2026-01-08 12:36:18.91	324.91	17.93	-48.5	-50.1	15.7	6.00e-01	0	24	0	1004011520	65	4404
2026-01-08 12:36:19.92	325.03	17.81	-48.6	-50.2	15.7	6.00e-01	0	24	0	1006108672	65	4452
2026-01-08 12:36:20.93	325.16	17.69	-48.6	-50.3	15.6	6.03e-01	0	24	0	1007681536	65	4504
2026-01-08 12:36:21.93	325.28	17.57	-48.5	-50.1	15.7	6.01e-01	0	24	0	1009778688	65	4439
2026-01-08 12:36:22.94	325.41	17.46	-48.6	-50.2	15.7	6.02e-01	0	24	0	1011351552	65	4444
2026-01-08 12:36:23.95	325.53	17.34	-48.7	-50.3	15.6	6.01e-01	0	25	0	1013448704	65	4515
2026-01-08 12:36:24.96	325.65	17.22	-48.5	-50.1	15.7	6.01e-01	0	24	0	1015545856	65	4395
2026-01-08 12:36:25.97	325.78	17.11	-48.5	-50.1	15.7	6.00e-01	0	24	0	1017118720	65	4433
2026-01-08 12:36:26.98	325.90	16.99	-48.5	-50.1	15.7	6.04e-01	0	24	0	1019215872	65	4409
2026-01-08 12:36:27.99	326.02	16.88	-48.4	-50.0	15.8	6.00e-01	0	24	0	1020788736	65	4366
2026-01-08 12:36:29.00	326.13	16.76	-48.5	-50.1	15.7	6.02e-01	0	24	0	1022885888	65	4397
2026-01-08 12:36:30.00	326.25	16.65	-48.3	-49.9	15.8	6.01e-01	0	24	0	1024983040	65	4311
2026-01-08 12:36:31.01	326.37	16.54	-48.4	-50.0	15.7	6.01e-01	0	24	0	1026555904	65	4363
2026-01-08 12:36:32.02	326.48	16.43	-48.5	-50.1	15.7	6.01e-01	0	24	0	1028653056	65	4414
2026-01-08 12:36:33.03	326.60	16.31	-48.6	-50.2	15.7	6.02e-01	0	24	0	1030225920	65	4447
2026-01-08 12:36:34.04	326.71	16.20	-48.4	-50.0	15.8	5.99e-01	0	24	0	1032323072	65	4349
2026-01-08 12:36:35.05	326.83	16.09	-48.4	-50.0	15.7	5.99e-01	0	24	0	1034420224	65	4367
2026-01-08 12:36:36.05	326.94	15.98	-48.5	-50.0	15.7	6.00e-01	0	24	0	1035993088	65	4387
2026-01-08 12:36:37.06	327.05	15.87	-48.4	-49.9	15.8	6.01e-01	0	24	0	1038090240	65	4336
2026-01-08 12:36:38.07	327.16	15.76	-48.4	-49.9	15.7	6.03e-01	0	24	0	1039663104	65	4329
2026-01-08 12:36:39.07	327.27	15.65	-48.4	-50.0	15.7	6.01e-01	0	24	0	1041760256	65	4378
2026-01-08 12:36:40.08	327.38	15.54	-48.4	-50.0	15.7	6.00e-01	0	24	0	1043857408	65	4386
2026-01-08 12:36:41.08	327.49	15.44	-48.5	-50.1	15.7	6.01e-01	0	24	0	1045430272	65	4433
2026-01-08 12:36:42.09	327.60	15.33	-48.6	-50.2	15.7	6.02e-01	0	24	0	1047527424	65	4444
2026-01-08 12:36:43.10	327.70	15.22	-48.4	-50.0	15.8	6.02e-01	0	24	0	1049624576	65	4354
2026-01-08 12:36:44.11	327.81	15.11	-48.5	-50.1	15.8	6.00e-01	0	24	0	1051197440	65	4392
2026-01-08 12:36:45.12	327.91	15.01	-48.4	-50.0	15.8	6.00e-01	0	24	0	1053294592	65	4360
2026-01-08 12:36:46.13	328.02	14.90	-48.5	-50.1	15.7	6.02e-01	0	24	0	1054867456	65	4414
2026-01-08 12:36:47.14	328.12	14.79	-48.6	-50.2	15.7	6.01e-01	0	24	0	1056964608	65	4462
2026-01-08 12:36:48.15	328.23	14.69	-48.5	-50.1	15.7	6.01e-01	0	24	0	1059061760	65	4421
2026-01-08 12:36:49.15	328.33	14.58	-48.5	-50.1	15.7	5.99e-01	0	24	0	1060634624	65	4437
2026-01-08 12:36:50.16	328.43	14.48	-48.6	-50.2	15.7	6.00e-01	0	24	0	1062731776	65	4466
2026-01-08 12:36:51.17	328.53	14.37	-48.5	-50.1	15.7	5.99e-01	0	24	0	1064304640	65	4401
2026-01-08 12:36:52.18	328.63	14.27	-48.5	-50.1	15.7	6.00e-01	0	24	0	1066401792	65	4431
2026-01-08 12:36:53.18	328.73	14.17	-48.6	-50.3	15.7	6.01e-01	0	24	0	1067974656	65	4502
2026-01-08 12:36:54.19	328.83	14.07	-48.6	-50.2	15.6	6.02e-01	0	24	0	1070071808	65	4483
2026-01-08 12:36:55.20	328.92	13.96	-48.6	-50.2	15.6	5.99e-01	0	24	0	1072168960	65	4484
2026-01-08 12:36:56.21	329.02	13.86	-48.6	-50.3	15.7	6.02e-01	0	24	0	1073741824	65	4501
2026-01-08 12:36:57.22	329.12	13.76	-48.7	-50.4	15.6	6.01e-01	0	24	0	1075838976	65	4556
2026-01-08 12:36:58.23	329.21	13.66	-48.6	-50.2	15.7	6.01e-01	0	24	0	1077936128	65	4477
2026-01-08 12:36:59.23	329.31	13.56	-48.7	-50.3	15.7	6.00e-01	0	24	0	1079508992	65	4528
2026-01-08 12:37:00.24	329.40	13.46	-48.7	-50.4	15.6	6.02e-01	0	24	0	1081606144	65	4560
2026-01-08 12:37:01.25	329.50	13.36	-48.8	-50.4	15.6	6.03e-01	0	24	0	1083179008	65	4582
2026-01-08 12:37:02.26	329.59	13.26	-48.8	-50.4	15.6	6.00e-01	0	24	0	1085276160	65	4585
2026-01-08 12:37:03.26	329.68	13.16	-48.8	-50.4	15.6	6.02e-01	0	24	0	1087373312	65	4591
2026-01-08 12:37:04.27	329.78	13.06	-48.8	-50.4	15.6	6.01e-01	0	24	0	1088946176	65	4593
2026-01-08 12:37:05.28	329.87	12.96	-48.7	-50.3	15.6	6.01e-01	0	24	0	1091043328	65	4535
2026-01-08 12:37:06.29	329.96	12.86	-48.7	-50.3	15.6	5.99e-01	0	24	0	1093140480	65	4527
2026-01-08 12:37:07.30	330.05	12.76	-48.6	-50.2	15.7	6.03e-01	0	24	0	1094713344	65	4491
2026-01-08 12:37:08.31	330.14	12.67	-48.7	-50.3	15.7	6.01e-01	0	24	0	1096810496	65	4528
2026-01-08 12:37:09.32	330.23	12.57	-48.8	-50.4	15.6	6.01e-01	0	24	0	1098383360	65	4575
2026-01-08 12:37:10.32	330.31	12.47	-48.6	-50.3	15.7	6.00e-01	0	24	0	1100480512	65	4509
2026-01-08 12:37:11.33	330.40	12.38	-48.6	-50.2	15.7	5.99e-01	0	24	0	1102053376	65	4482
2026-01-08 12:37:12.34	330.49	12.28	-48.7	-50.3	15.7	6.01e-01	0	24	0	1104150528	65	4523
2026-01-08 12:37:13.34	330.58	12.19	-48.7	-50.3	15.6	6.00e-01	0	24	0	1106247680	65	4530
2026-01-08 12:37:14.35	330.66	12.09	-48.7	-50.4	15.6	6.03e-01	0	24	0	1107820544	65	4557
2026-01-08 12:37:15.36	330.75	12.00	-48.8	-50.4	15.6	5.99e-01	0	24	0	1109917696	65	4587
2026-01-08 12:37:16.36	330.83	11.90	-48.8	-50.4	15.6	6.00e-01	0	24	0	1111490560	65	4597
2026-01-08 12:37:17.37	330.92	11.81	-48.8	-50.5	15.6	6.02e-01	0	24	0	1113587712	65	4638
2026-01-08 12:37:18.38	331.00	11.71	-48.7	-50.4	15.6	6.01e-01	0	24	0	1115684864	65	4570
2026-01-08 12:37:19.39	331.08	11.62	-48.8	-50.5	15.6	6.00e-01	0	24	0	1117257728	65	4601
2026-01-08 12:37:20.40	331.17	11.53	-48.8	-50.5	15.6	6.02e-01	0	24	0	1119354880	65	4635
2026-01-08 12:37:21.40	331.25	11.44	-48.8	-50.4	15.6	6.00e-01	0	24	0	1121452032	65	4598
2026-01-08 12:37:22.41	331.33	11.34	-48.9	-50.6	15.6	5.99e-01	0	24	0	1123024896	65	4672
2026-01-08 12:37:23.42	331.41	11.25	-48.9	-50.6	15.6	6.00e-01	0	25	0	1125122048	65	4662
2026-01-08 12:37:24.42	331.49	11.16	-48.9	-50.6	15.5	6.02e-01	0	24	0	1126694912	65	4692
2026-01-08 12:37:25.43	331.57	11.07	-49.0	-50.7	15.5	6.01e-01	0	24	0	1128792064	65	4747
2026-01-08 12:37:26.43	331.65	10.98	-49.1	-50.7	15.7	6.02e-01	0	24	0	1130364928	66	4493
2026-01-08 12:37:27.44	331.73	10.89	-49.1	-50.9	15.6	6.01e-01	0	24	0	1132462080	66	4551
2026-01-08 12:37:28.45	331.81	10.80	-49.2	-50.9	15.6	6.00e-01	0	24	0	1134559232	66	4567
2026-01-08 12:37:29.46	331.89	10.71	-49.1	-50.9	15.6	6.01e-01	0	24	0	1136132096	66	4547
2026-01-08 12:37:30.46	331.96	10.62	-49.1	-50.8	15.6	6.00e-01	0	24	0	1138229248	66	4532
2026-01-08 12:37:31.47	332.04	10.53	-49.2	-50.9	15.6	5.98e-01	0	24	0	1139802112	66	4572
2026-01-08 12:37:32.47	332.12	10.44	-49.1	-50.9	15.6	6.02e-01	0	24	0	1141899264	66	4565
2026-01-08 12:37:33.48	332.19	10.35	-49.2	-51.0	15.6	6.02e-01	0	24	0	1143996416	66	4606
2026-01-08 12:37:34.49	332.27	10.26	-49.2	-51.0	15.6	6.00e-01	0	24	0	1145569280	66	4609
2026-01-08 12:37:35.50	332.35	10.17	-49.3	-51.0	15.6	6.01e-01	0	24	0	1147666432	66	4639
2026-01-08 12:37:36.50	332.42	10.09	-49.2	-51.0	15.6	6.01e-01	0	24	0	1149763584	66	4620
2026-01-08 12:37:37.50	332.49	10.00	-49.2	-51.0	15.6	6.00e-01	0	24	0	1151336448	66	4620
2026-01-08 12:37:38.51	332.57	9.91	-49.3	-51.1	15.5	6.01e-01	0	24	0	1153433600	66	4673
2026-01-08 12:37:39.51	332.64	9.83	-49.4	-51.2	15.5	5.97e-01	0	24	0	1155006464	66	4733
2026-01-08 12:37:40.52	332.71	9.74	-49.4	-51.1	15.5	6.01e-01	0	24	0	1157103616	66	4704
2026-01-08 12:37:41.53	332.79	9.65	-49.4	-51.2	15.5	5.99e-01	0	24	0	1158676480	66	4734
2026-01-08 12:37:42.54	332.86	9.57	-49.4	-51.2	15.5	6.01e-01	0	24	0	1160773632	66	4742
2026-01-08 12:37:43.55	332.93	9.48	-49.4	-51.2	15.5	6.01e-01	0	24	0	1162870784	66	4726
2026-01-08 12:37:44.55	333.00	9.40	-49.5	-51.3	15.5	6.02e-01	0	24	0	1164443648	66	4783
2026-01-08 12:37:45.56	333.07	9.31	-49.5	-51.3	15.5	6.00e-01	0	24	0	1166540800	66	4800
2026-01-08 12:37:46.57	333.14	9.23	-49.7	-51.5	15.5	6.03e-01	0	24	0	1168113664	67	4624
2026-01-08 12:37:47.58	333.21	9.14	-49.4	-51.2	15.7	6.00e-01	0	24	0	1170210816	67	4461
2026-01-08 12:37:48.59	333.28	9.06	-49.3	-51.1	15.7	6.00e-01	0	24	0	1172307968	67	4415
2026-01-08 12:37:49.60	333.35	8.97	-49.5	-51.3	15.6	6.00e-01	0	24	0	1173880832	67	4508
2026-01-08 12:37:50.61	333.42	8.89	-49.5	-51.3	15.6	5.99e-01	0	24	0	1175977984	67	4495
2026-01-08 12:37:51.62	333.49	8.81	-49.5	-51.3	15.6	6.01e-01	0	24	0	1178075136	67	4524
2026-01-08 12:37:52.63	333.56	8.72	-49.4	-51.2	15.6	6.00e-01	0	24	0	1179648000	67	4468
2026-01-08 12:37:53.63	333.63	8.64	-49.5	-51.4	15.6	6.01e-01	0	24	0	1181745152	67	4555
2026-01-08 12:37:54.64	333.69	8.56	-49.5	-51.4	15.6	6.00e-01	0	24	0	1183318016	67	4558
2026-01-08 12:37:55.65	333.76	8.48	-49.6	-51.4	15.5	6.04e-01	0	24	0	1185415168	67	4587
2026-01-08 12:37:56.65	333.83	8.40	-49.6	-51.5	15.6	6.01e-01	0	24	0	1187512320	67	4610
2026-01-08 12:37:57.66	333.89	8.31	-49.8	-51.7	15.5	6.01e-01	0	24	0	1189085184	67	4714
2026-01-08 12:37:58.67	333.96	8.23	-49.8	-51.7	15.5	6.01e-01	0	24	0	1191182336	67	4722
2026-01-08 12:37:59.68	334.03	8.15	-49.7	-51.5	15.5	6.00e-01	0	24	0	1192755200	67	4640
2026-01-08 12:38:00.69	334.09	8.07	-49.8	-51.7	15.5	6.01e-01	0	24	0	1194852352	67	4739
2026-01-08 12:38:01.70	334.16	7.99	-49.8	-51.7	15.4	6.01e-01	0	24	0	1196949504	67	4734
2026-01-08 12:38:02.70	334.22	7.91	-49.9	-51.8	15.5	6.02e-01	0	24	0	1198522368	67	4793
2026-01-08 12:38:03.71	334.28	7.83	-49.9	-51.9	15.4	6.00e-01	0	24	0	1200619520	67	4825
2026-01-08 12:38:04.72	334.35	7.75	-49.9	-51.8	15.4	6.01e-01	0	25	0	1202192384	67	4804
2026-01-08 12:38:05.73	334.41	7.67	-49.9	-51.9	15.4	6.02e-01	0	24	0	1204289536	67	4817
2026-01-08 12:38:06.73	334.47	7.59	-50.0	-52.0	15.4	5.99e-01	0	24	0	1206386688	67	4884
2026-01-08 12:38:07.74	334.54	7.51	-50.0	-51.9	15.4	6.02e-01	0	24	0	1207959552	67	4860
2026-01-08 12:38:08.75	334.60	7.43	-50.0	-51.9	15.4	6.02e-01	0	24	0	1210056704	67	4859
2026-01-08 12:38:09.76	334.66	7.35	-50.1	-52.0	15.5	6.02e-01	0	25	0	1211629568	68	4636
2026-01-08 12:38:10.77	334.72	7.27	-50.1	-52.1	15.5	6.02e-01	0	24	0	1213726720	68	4663
2026-01-08 12:38:11.78	334.78	7.20	-50.2	-52.1	15.5	6.02e-01	0	24	0	1215823872	68	4694
2026-01-08 12:38:12.78	334.84	7.12	-50.1	-52.1	15.4	5.99e-01	0	24	0	1217396736	68	4687
2026-01-08 12:38:13.79	334.90	7.04	-50.2	-52.2	15.4	6.00e-01	0	24	0	1219493888	68	4713
2026-01-08 12:38:14.80	334.97	6.96	-50.2	-52.2	15.4	6.02e-01	0	24	0	1221066752	68	4750
2026-01-08 12:38:15.80	335.02	6.89	-50.3	-52.3	15.4	6.02e-01	0	24	0	1223163904	68	4801
2026-01-08 12:38:16.81	335.08	6.81	-50.4	-52.4	15.4	6.02e-01	0	24	0	1225261056	68	4840
2026-01-08 12:38:17.82	335.14	6.73	-50.5	-52.6	15.3	6.02e-01	0	24	0	1226833920	68	4940
2026-01-08 12:38:18.83	335.20	6.66	-50.5	-52.6	15.3	6.03e-01	0	24	0	1228931072	68	4931
2026-01-08 12:38:19.84	335.26	6.58	-50.5	-52.6	15.3	5.99e-01	0	24	0	1230503936	68	4928
2026-01-08 12:38:20.85	335.32	6.50	-50.2	-52.2	15.4	6.00e-01	0	24	0	1232601088	68	4712
2026-01-08 12:38:21.85	335.38	6.43	-50.3	-52.3	15.4	6.00e-01	0	24	0	1234698240	68	4803
2026-01-08 12:38:22.86	335.44	6.35	-50.2	-52.2	15.5	6.03e-01	0	24	0	1236271104	68	4719
2026-01-08 12:38:23.87	335.49	6.28	-50.4	-52.5	15.3	6.02e-01	0	24	0	1238368256	68	4872
2026-01-08 12:38:24.88	335.55	6.20	-50.3	-52.4	15.4	5.99e-01	0	24	0	1239941120	68	4815
2026-01-08 12:38:25.89	335.61	6.13	-50.2	-52.2	15.4	6.01e-01	0	24	0	1242038272	68	4746
