passes_logs/2026/01/08/R3.2S_Murmansk/R3.2S_Murmansk__20260108_011305_NOAA_21_JPSS-2_rec.log

#Pass ID: 20260108_011305_NOAA 21 (JPSS-2)
#Satellite: NOAA 21 (JPSS-2)
#Configuration: NOAA-21
#almurnet v.1.7.20251203
#Start time: 2026-01-08 01:13:05

#Version: 2.2.20231116
#Station: R3.2S_Murmansk
#Location: 33.079688 lon 68.888172 lat
#TLE: 1 54234U 22150A   26005.56767909  .00000152  00000+0  92756-4 0  9990
#TLE: 2 54234  98.7490 306.5820 0001036 340.2747  19.8389 14.19532370163472

#Time	Az	El	Level	Level2	SNR	BER	BlckErr	Temp	State	Recorded	gain1	gain2
2026-01-08 01:13:05.65	26.69	2.02	-57.5	-71.2	3.8	1.49e+00	0	23	0	0	81	17233
2026-01-08 01:13:06.65	26.68	2.08	-57.4	-71.2	3.8	1.49e+00	0	23	104	0	79	19198
2026-01-08 01:13:07.66	26.67	2.15	-57.4	-71.2	3.8	1.49e+00	0	23	104	0	79	19250
2026-01-08 01:13:08.66	26.66	2.21	-57.4	-71.2	3.8	1.49e+00	0	23	104	0	79	19316
2026-01-08 01:13:09.66	26.65	2.28	-57.4	-71.2	3.8	1.49e+00	0	23	104	0	79	19281
2026-01-08 01:13:10.66	26.64	2.34	-57.4	-71.2	3.8	1.49e+00	0	23	104	0	79	19300
2026-01-08 01:13:11.65	26.63	2.40	-57.4	-71.2	3.8	1.49e+00	0	23	104	0	79	19234
2026-01-08 01:13:12.66	26.62	2.47	-57.4	-71.2	3.8	1.49e+00	0	23	104	0	79	19226
2026-01-08 01:13:13.66	26.61	2.53	-57.4	-71.2	3.8	1.49e+00	0	23	104	0	79	19245
2026-01-08 01:13:14.66	26.60	2.60	-57.4	-71.2	3.8	1.49e+00	0	23	104	0	79	19248
2026-01-08 01:13:15.66	26.59	2.66	-57.4	-71.2	3.8	1.49e+00	0	23	104	0	79	19246
2026-01-08 01:13:16.66	26.58	2.73	-57.4	-71.2	3.8	1.49e+00	0	23	104	0	79	19272
2026-01-08 01:13:17.66	26.57	2.79	-57.4	-71.2	3.8	1.49e+00	0	23	104	0	79	19298
2026-01-08 01:13:18.66	26.56	2.86	-57.4	-71.2	3.8	1.49e+00	0	23	104	0	79	19279
2026-01-08 01:13:19.66	26.55	2.92	-57.4	-71.2	3.8	1.49e+00	0	23	104	0	79	19242
2026-01-08 01:13:20.67	26.54	2.99	-57.4	-71.2	3.8	1.49e+00	0	23	104	0	79	19221
2026-01-08 01:13:21.67	26.52	3.06	-57.4	-71.1	3.8	1.49e+00	0	23	104	0	79	19125
2026-01-08 01:13:22.67	26.51	3.12	-57.4	-71.0	3.8	1.49e+00	0	23	104	0	79	18872
2026-01-08 01:13:23.67	26.50	3.19	-57.4	-70.9	3.8	1.49e+00	0	23	104	0	79	18606
2026-01-08 01:13:24.67	26.49	3.26	-57.3	-70.7	3.8	1.49e+00	0	23	104	0	79	18158
2026-01-08 01:13:25.67	26.48	3.32	-57.3	-70.4	3.8	1.49e+00	0	23	104	0	79	17593
2026-01-08 01:13:26.67	26.47	3.39	-57.3	-70.4	3.8	1.49e+00	0	23	104	0	79	17558
2026-01-08 01:13:27.67	26.46	3.46	-57.3	-70.0	3.8	1.49e+00	0	24	104	0	79	16874
2026-01-08 01:13:28.67	26.44	3.52	-57.3	-69.8	3.8	1.49e+00	0	23	104	0	79	16468
2026-01-08 01:13:29.67	26.43	3.59	-57.3	-69.5	3.8	1.49e+00	0	23	104	0	79	15794
2026-01-08 01:13:30.67	26.42	3.66	-57.3	-69.3	3.8	1.49e+00	0	23	104	0	79	15549
2026-01-08 01:13:31.67	26.41	3.73	-57.3	-69.4	3.9	1.49e+00	0	23	104	0	79	15615
2026-01-08 01:13:32.67	26.40	3.79	-57.2	-68.9	4.0	1.49e+00	0	23	104	0	79	14779
2026-01-08 01:13:33.67	26.39	3.86	-57.3	-69.5	3.8	1.49e+00	0	23	104	0	79	15869
2026-01-08 01:13:34.66	26.37	3.93	-57.3	-69.8	3.8	1.49e+00	0	23	104	0	79	16466
2026-01-08 01:13:35.66	26.36	4.00	-57.3	-70.1	3.8	1.49e+00	0	24	104	0	79	16892
2026-01-08 01:13:36.65	26.35	4.06	-57.4	-70.4	3.8	1.49e+00	0	23	104	0	79	17661
2026-01-08 01:13:37.65	26.34	4.13	-57.3	-70.5	3.8	1.49e+00	0	24	104	0	79	17753
2026-01-08 01:13:38.65	26.32	4.20	-57.3	-70.2	3.8	1.49e+00	0	24	104	0	79	17177
2026-01-08 01:13:39.64	26.31	4.27	-57.3	-69.6	3.8	1.49e+00	0	23	104	0	79	16051
2026-01-08 01:13:40.63	26.30	4.34	-57.2	-69.0	3.9	1.49e+00	0	24	104	0	79	14970
2026-01-08 01:13:41.63	26.29	4.41	-57.1	-68.2	3.9	1.48e+00	0	24	104	0	79	13716
2026-01-08 01:13:42.63	26.27	4.48	-57.0	-66.6	4.5	1.42e+00	4	24	104	0	79	11347
2026-01-08 01:13:43.63	26.26	4.55	-56.8	-65.0	5.3	6.66e-01	0	24	0	1048576	79	9390
2026-01-08 01:13:44.63	26.25	4.62	-56.6	-64.0	5.9	3.51e-01	0	24	0	4194304	79	8428
2026-01-08 01:13:45.63	26.24	4.69	-56.5	-63.3	6.4	2.02e-01	0	24	0	7340032	79	7755
2026-01-08 01:13:46.63	26.22	4.76	-56.3	-62.5	7.0	1.28e-01	0	24	0	10485760	79	7109
2026-01-08 01:13:47.62	26.21	4.83	-56.1	-62.0	7.5	9.24e-02	0	24	0	13631488	78	7043
2026-01-08 01:13:48.63	26.20	4.90	-56.1	-61.9	7.5	7.70e-02	0	24	0	16777216	78	7016
2026-01-08 01:13:49.62	26.18	4.97	-56.0	-61.4	8.0	4.75e-02	0	24	0	19922944	78	6615
2026-01-08 01:13:50.61	26.17	5.04	-55.9	-61.1	8.2	3.15e-02	0	24	0	23068672	78	6396
2026-01-08 01:13:51.61	26.16	5.11	-57.1	-65.9	4.9	3.54e-01	0	24	0	26214400	79	10521
2026-01-08 01:13:52.60	26.14	5.18	-57.3	-67.0	4.4	1.45e+00	3	24	104	26214400	79	11937
2026-01-08 01:13:53.60	26.13	5.25	-56.1	-61.9	7.6	2.09e-01	0	24	0	27262976	78	6979
2026-01-08 01:13:54.60	26.12	5.32	-55.4	-59.9	9.2	1.16e-01	0	24	0	30408704	77	5865
2026-01-08 01:13:55.60	26.10	5.39	-56.3	-62.5	7.1	1.80e-02	0	24	0	33554432	77	7906
2026-01-08 01:13:56.60	26.09	5.47	-55.8	-60.8	8.5	1.22e+00	0	24	0	34603008	78	6133
2026-01-08 01:13:57.60	26.08	5.54	-53.3	-56.0	12.3	1.60e-05	0	24	0	37748736	73	4712
2026-01-08 01:13:58.60	26.06	5.61	-52.7	-55.0	12.8	0.00e+00	0	24	0	40894464	71	4726
2026-01-08 01:13:59.60	26.05	5.68	-52.6	-54.8	13.0	0.00e+00	0	24	0	44040192	71	4635
2026-01-08 01:14:00.60	26.03	5.76	-52.0	-54.1	13.4	0.00e+00	0	24	0	47185920	70	4496
2026-01-08 01:14:01.59	26.02	5.83	-51.5	-53.4	13.7	0.00e+00	0	24	0	50331648	69	4438
2026-01-08 01:14:02.59	26.00	5.90	-51.2	-53.0	14.0	0.00e+00	0	24	0	53477376	69	4205
2026-01-08 01:14:03.58	25.99	5.97	-51.2	-53.0	13.8	0.00e+00	0	24	0	55574528	68	4481
2026-01-08 01:14:04.59	25.98	6.05	-51.0	-52.8	14.0	0.00e+00	0	24	0	58720256	68	4349
2026-01-08 01:14:05.58	25.96	6.12	-51.2	-53.0	13.8	0.00e+00	0	24	0	61865984	68	4455
2026-01-08 01:14:06.58	25.95	6.19	-51.0	-52.7	14.0	0.00e+00	0	24	0	65011712	68	4327
2026-01-08 01:14:07.58	25.93	6.27	-50.8	-52.5	14.1	0.00e+00	0	24	0	68157440	68	4226
2026-01-08 01:14:08.58	25.92	6.34	-50.8	-52.5	14.1	0.00e+00	0	24	0	71303168	68	4236
2026-01-08 01:14:09.57	25.90	6.42	-50.8	-52.4	14.2	0.00e+00	0	24	0	74448896	68	4190
2026-01-08 01:14:10.56	25.89	6.49	-51.0	-52.7	14.1	0.00e+00	0	24	0	77594624	68	4299
2026-01-08 01:14:11.56	25.87	6.57	-50.9	-52.6	14.1	0.00e+00	0	24	0	80740352	68	4250
2026-01-08 01:14:12.56	25.86	6.64	-50.7	-52.4	14.2	0.00e+00	0	24	0	83886080	68	4156
2026-01-08 01:14:13.56	25.84	6.72	-50.8	-52.4	14.2	0.00e+00	0	24	0	87031808	68	4185
2026-01-08 01:14:14.57	25.82	6.79	-50.4	-52.0	14.3	0.00e+00	0	24	0	90177536	67	4223
2026-01-08 01:14:15.57	25.81	6.87	-50.5	-52.1	14.2	0.00e+00	0	24	0	93323264	67	4290
2026-01-08 01:14:16.57	25.79	6.95	-50.6	-52.3	14.1	0.00e+00	0	24	0	96468992	67	4341
2026-01-08 01:14:17.57	25.78	7.02	-50.5	-52.2	14.2	0.00e+00	0	24	0	99614720	67	4305
2026-01-08 01:14:18.57	25.76	7.10	-50.4	-52.0	14.3	0.00e+00	0	24	0	102760448	67	4194
2026-01-08 01:14:19.58	25.74	7.18	-50.4	-52.0	14.3	0.00e+00	0	24	0	105906176	67	4231
2026-01-08 01:14:20.57	25.73	7.25	-50.4	-52.0	14.3	0.00e+00	0	24	0	109051904	67	4217
2026-01-08 01:14:21.57	25.71	7.33	-50.3	-51.9	14.3	0.00e+00	0	24	0	112197632	67	4185
2026-01-08 01:14:22.57	25.70	7.41	-50.4	-52.0	14.3	0.00e+00	0	24	0	115343360	67	4196
2026-01-08 01:14:23.58	25.68	7.49	-50.3	-51.8	14.4	0.00e+00	0	24	0	118489088	67	4142
2026-01-08 01:14:24.58	25.66	7.56	-50.3	-51.9	14.3	0.00e+00	0	24	0	121634816	67	4171
2026-01-08 01:14:25.57	25.65	7.64	-50.4	-51.9	14.3	0.00e+00	0	24	0	124780544	67	4189
2026-01-08 01:14:26.58	25.63	7.72	-50.3	-51.9	14.3	0.00e+00	0	24	0	127926272	67	4172
2026-01-08 01:14:27.58	25.61	7.80	-50.4	-52.0	14.3	0.00e+00	0	24	0	131072000	67	4208
2026-01-08 01:14:28.58	25.59	7.88	-50.4	-52.0	14.3	0.00e+00	0	24	0	134217728	67	4211
2026-01-08 01:14:29.58	25.58	7.96	-50.5	-52.2	14.2	0.00e+00	0	24	0	137363456	67	4293
2026-01-08 01:14:30.58	25.56	8.04	-50.4	-52.0	14.3	0.00e+00	0	24	0	140509184	67	4214
2026-01-08 01:14:31.58	25.54	8.12	-50.4	-52.0	14.3	0.00e+00	0	24	0	143654912	67	4204
2026-01-08 01:14:32.57	25.53	8.20	-50.6	-52.2	14.2	0.00e+00	0	24	0	146800640	67	4322
2026-01-08 01:14:33.57	25.51	8.28	-50.4	-52.0	14.3	0.00e+00	0	24	0	149946368	67	4210
2026-01-08 01:14:34.57	25.49	8.36	-50.4	-52.0	14.3	0.00e+00	0	24	0	153092096	67	4210
2026-01-08 01:14:35.57	25.47	8.44	-50.3	-51.9	14.3	0.00e+00	0	24	0	156237824	67	4171
2026-01-08 01:14:36.56	25.45	8.52	-50.2	-51.8	14.4	0.00e+00	0	24	0	159383552	67	4108
2026-01-08 01:14:37.56	25.44	8.60	-50.2	-51.7	14.3	0.00e+00	0	24	0	162529280	66	4331
2026-01-08 01:14:38.55	25.42	8.68	-50.2	-51.8	14.3	0.00e+00	0	24	0	165675008	66	4365
2026-01-08 01:14:39.54	25.40	8.76	-50.1	-51.6	14.4	0.00e+00	0	24	0	168820736	66	4281
2026-01-08 01:14:40.54	25.38	8.84	-49.9	-51.4	14.5	0.00e+00	0	24	0	171966464	66	4189
2026-01-08 01:14:41.54	25.36	8.92	-50.0	-51.5	14.5	0.00e+00	0	24	0	175112192	66	4222
2026-01-08 01:14:42.54	25.34	9.01	-49.9	-51.4	14.5	0.00e+00	0	24	0	178257920	66	4171
2026-01-08 01:14:43.53	25.32	9.09	-50.1	-51.7	14.4	0.00e+00	0	24	0	181403648	66	4296
2026-01-08 01:14:44.53	25.31	9.17	-50.1	-51.6	14.4	0.00e+00	0	24	0	184549376	66	4287
2026-01-08 01:14:45.53	25.29	9.25	-50.2	-51.7	14.3	0.00e+00	0	24	0	187695104	66	4335
2026-01-08 01:14:46.53	25.27	9.34	-50.0	-51.5	14.5	0.00e+00	0	24	0	189792256	66	4222
2026-01-08 01:14:47.53	25.25	9.42	-50.0	-51.5	14.5	0.00e+00	0	24	0	192937984	66	4207
2026-01-08 01:14:48.53	25.23	9.51	-49.9	-51.4	14.5	0.00e+00	0	24	0	196083712	66	4155
2026-01-08 01:14:49.53	25.21	9.59	-49.9	-51.4	14.5	0.00e+00	0	24	0	199229440	66	4177
2026-01-08 01:14:50.52	25.19	9.67	-50.0	-51.5	14.4	0.00e+00	0	24	0	202375168	66	4241
2026-01-08 01:14:51.53	25.17	9.76	-50.0	-51.5	14.5	0.00e+00	0	24	0	205520896	66	4214
2026-01-08 01:14:52.52	25.15	9.84	-49.8	-51.2	14.6	0.00e+00	0	24	0	208666624	66	4080
2026-01-08 01:14:53.52	25.13	9.93	-49.7	-51.1	14.7	0.00e+00	0	25	0	211812352	66	4042
2026-01-08 01:14:54.52	25.11	10.02	-49.6	-51.0	14.6	0.00e+00	0	24	0	214958080	65	4213
2026-01-08 01:14:55.52	25.09	10.10	-49.6	-51.0	14.6	0.00e+00	0	25	0	218103808	65	4225
2026-01-08 01:14:56.51	25.07	10.19	-49.6	-51.0	14.6	0.00e+00	0	24	0	221249536	65	4236
2026-01-08 01:14:57.51	25.05	10.27	-49.5	-51.0	14.6	0.00e+00	0	24	0	224395264	65	4196
2026-01-08 01:14:58.50	25.02	10.36	-49.4	-50.8	14.7	0.00e+00	0	24	0	227540992	65	4115
2026-01-08 01:14:59.50	25.00	10.45	-49.5	-50.9	14.7	0.00e+00	0	24	0	230686720	65	4157
2026-01-08 01:15:00.51	24.98	10.54	-49.5	-50.9	14.6	0.00e+00	0	24	0	233832448	65	4182
2026-01-08 01:15:01.51	24.96	10.62	-49.4	-50.8	14.7	0.00e+00	0	24	0	236978176	65	4135
2026-01-08 01:15:02.50	24.94	10.71	-49.3	-50.7	14.7	0.00e+00	0	24	0	240123904	65	4076
2026-01-08 01:15:03.49	24.92	10.80	-49.4	-50.8	14.7	0.00e+00	0	24	0	243269632	65	4101
2026-01-08 01:15:04.50	24.89	10.89	-49.2	-50.6	14.8	0.00e+00	0	24	0	246415360	65	4035
2026-01-08 01:15:05.50	24.87	10.98	-49.3	-50.6	14.8	0.00e+00	0	25	0	249561088	65	4048
2026-01-08 01:15:06.49	24.85	11.07	-49.3	-50.7	14.8	0.00e+00	0	24	0	252706816	65	4076
2026-01-08 01:15:07.48	24.83	11.16	-49.3	-50.7	14.8	0.00e+00	0	24	0	255852544	65	4073
2026-01-08 01:15:08.49	24.81	11.25	-49.3	-50.6	14.8	0.00e+00	0	24	0	258998272	65	4041
2026-01-08 01:15:09.49	24.78	11.34	-49.2	-50.6	14.8	0.00e+00	0	24	0	262144000	65	4021
2026-01-08 01:15:10.50	24.76	11.43	-49.1	-50.5	14.7	0.00e+00	0	24	0	265289728	64	4216
2026-01-08 01:15:11.50	24.74	11.52	-49.2	-50.5	14.7	0.00e+00	0	24	0	268435456	64	4235
2026-01-08 01:15:12.50	24.71	11.61	-49.1	-50.4	14.7	0.00e+00	0	24	0	271581184	64	4187
2026-01-08 01:15:13.49	24.69	11.70	-49.0	-50.3	14.8	0.00e+00	0	24	0	274726912	64	4144
2026-01-08 01:15:14.49	24.67	11.80	-48.9	-50.2	14.8	0.00e+00	0	24	0	277872640	64	4089
2026-01-08 01:15:15.49	24.64	11.89	-49.0	-50.4	14.8	0.00e+00	0	24	0	281018368	64	4157
2026-01-08 01:15:16.48	24.62	11.98	-49.0	-50.3	14.8	0.00e+00	0	24	0	284164096	64	4135
2026-01-08 01:15:17.48	24.59	12.07	-49.0	-50.3	14.8	0.00e+00	0	24	0	287309824	64	4116
2026-01-08 01:15:18.48	24.57	12.17	-49.0	-50.3	14.8	0.00e+00	0	24	0	290455552	64	4139
2026-01-08 01:15:19.48	24.55	12.26	-48.9	-50.2	14.8	0.00e+00	0	24	0	293601280	64	4093
2026-01-08 01:15:20.48	24.52	12.35	-48.8	-50.1	14.9	0.00e+00	0	24	0	296747008	64	4035
2026-01-08 01:15:21.48	24.50	12.45	-48.8	-50.1	14.9	0.00e+00	0	24	0	299892736	64	4019
2026-01-08 01:15:22.47	24.47	12.54	-48.8	-50.1	14.9	0.00e+00	0	25	0	303038464	64	4051
2026-01-08 01:15:23.47	24.45	12.64	-48.8	-50.1	14.9	0.00e+00	0	24	0	306184192	64	4046
2026-01-08 01:15:24.46	24.42	12.73	-48.8	-50.1	14.9	0.00e+00	0	24	0	309329920	64	4039
2026-01-08 01:15:25.46	24.40	12.83	-48.8	-50.1	14.9	0.00e+00	0	25	0	312475648	64	4019
2026-01-08 01:15:26.47	24.37	12.93	-48.8	-50.2	14.9	0.00e+00	0	24	0	315621376	64	4052
2026-01-08 01:15:27.46	24.34	13.02	-48.8	-50.1	14.9	0.00e+00	0	25	0	318767104	64	4033
2026-01-08 01:15:28.45	24.32	13.12	-48.7	-50.0	15.0	0.00e+00	0	24	0	320864256	64	3982
2026-01-08 01:15:29.45	24.29	13.22	-48.7	-50.0	15.0	0.00e+00	0	24	0	324009984	64	3972
2026-01-08 01:15:30.45	24.26	13.31	-48.7	-50.0	15.0	0.00e+00	0	24	0	327155712	64	3970
2026-01-08 01:15:31.45	24.24	13.41	-48.7	-50.0	15.0	0.00e+00	0	24	0	330301440	64	3992
2026-01-08 01:15:32.45	24.21	13.51	-48.8	-50.1	14.9	0.00e+00	0	24	0	333447168	64	4029
2026-01-08 01:15:33.44	24.18	13.61	-48.8	-50.1	14.9	0.00e+00	0	24	0	336592896	64	4034
2026-01-08 01:15:34.44	24.16	13.71	-48.8	-50.1	14.9	0.00e+00	0	24	0	339738624	64	4039
2026-01-08 01:15:35.44	24.13	13.81	-48.8	-50.1	14.9	0.00e+00	0	25	0	342884352	64	4037
2026-01-08 01:15:36.43	24.10	13.91	-48.8	-50.1	14.9	0.00e+00	0	24	0	346030080	64	4047
2026-01-08 01:15:37.43	24.07	14.01	-48.7	-50.0	15.0	0.00e+00	0	25	0	349175808	64	3988
2026-01-08 01:15:38.44	24.04	14.11	-48.8	-50.1	14.9	0.00e+00	0	25	0	352321536	64	4026
2026-01-08 01:15:39.44	24.02	14.21	-48.9	-50.2	14.9	0.00e+00	0	25	0	355467264	64	4087
2026-01-08 01:15:40.43	23.99	14.31	-48.8	-50.1	14.9	0.00e+00	0	25	0	358612992	64	4024
2026-01-08 01:15:41.43	23.96	14.42	-48.8	-50.1	15.0	0.00e+00	0	24	0	361758720	64	4019
2026-01-08 01:15:42.42	23.93	14.52	-48.9	-50.2	14.9	0.00e+00	0	25	0	364904448	64	4064
2026-01-08 01:15:43.42	23.90	14.62	-48.9	-50.2	14.9	0.00e+00	0	24	0	368050176	64	4078
2026-01-08 01:15:44.42	23.87	14.72	-48.9	-50.2	14.9	0.00e+00	0	24	0	371195904	64	4062
2026-01-08 01:15:45.42	23.84	14.83	-48.8	-50.1	14.9	0.00e+00	0	25	0	374341632	64	4046
2026-01-08 01:15:46.41	23.81	14.93	-48.8	-50.1	14.9	0.00e+00	0	25	0	377487360	64	4016
2026-01-08 01:15:47.41	23.78	15.04	-48.8	-50.1	14.9	0.00e+00	0	24	0	380633088	64	4047
2026-01-08 01:15:48.41	23.75	15.14	-48.8	-50.1	14.9	0.00e+00	0	24	0	383778816	64	4026
2026-01-08 01:15:49.41	23.72	15.25	-48.9	-50.2	14.9	0.00e+00	0	25	0	386924544	64	4068
2026-01-08 01:15:50.40	23.69	15.35	-48.9	-50.2	14.9	0.00e+00	0	25	0	390070272	64	4072
2026-01-08 01:15:51.40	23.66	15.46	-48.9	-50.2	14.9	0.00e+00	0	25	0	393216000	64	4082
2026-01-08 01:15:52.40	23.62	15.57	-49.0	-50.3	14.8	0.00e+00	0	24	0	396361728	64	4112
2026-01-08 01:15:53.39	23.59	15.67	-49.0	-50.3	14.9	0.00e+00	0	24	0	399507456	64	4100
2026-01-08 01:15:54.39	23.56	15.78	-48.8	-50.1	14.9	0.00e+00	0	24	0	402653184	64	4022
2026-01-08 01:15:55.39	23.53	15.89	-48.8	-50.1	14.9	0.00e+00	0	25	0	405798912	64	4017
2026-01-08 01:15:56.39	23.50	16.00	-48.8	-50.1	14.9	0.00e+00	0	25	0	408944640	64	4041
2026-01-08 01:15:57.39	23.46	16.11	-48.9	-50.2	14.9	0.00e+00	0	25	0	412090368	64	4069
2026-01-08 01:15:58.39	23.43	16.22	-48.8	-50.1	14.9	0.00e+00	0	25	0	415236096	64	4007
2026-01-08 01:15:59.39	23.40	16.33	-48.8	-50.1	14.9	0.00e+00	0	25	0	418381824	64	4020
2026-01-08 01:16:00.38	23.36	16.44	-48.8	-50.1	14.9	0.00e+00	0	25	0	421527552	64	4018
2026-01-08 01:16:01.38	23.33	16.55	-48.8	-50.1	15.0	0.00e+00	0	24	0	424673280	64	4007
2026-01-08 01:16:02.38	23.29	16.66	-48.8	-50.1	14.9	0.00e+00	0	25	0	427819008	64	4020
2026-01-08 01:16:03.38	23.26	16.78	-48.8	-50.1	15.0	0.00e+00	0	24	0	430964736	64	4017
2026-01-08 01:16:04.38	23.22	16.89	-48.8	-50.0	15.0	0.00e+00	0	25	0	434110464	64	4003
2026-01-08 01:16:05.38	23.19	17.00	-48.8	-50.1	15.0	0.00e+00	0	25	0	436207616	64	4009
2026-01-08 01:16:06.38	23.15	17.12	-48.8	-50.1	14.9	0.00e+00	0	25	0	439353344	64	4032
2026-01-08 01:16:07.38	23.12	17.23	-48.8	-50.1	14.9	0.00e+00	0	25	0	442499072	64	4041
2026-01-08 01:16:08.38	23.08	17.35	-48.8	-50.1	15.0	0.00e+00	0	25	0	445644800	64	4010
2026-01-08 01:16:09.38	23.05	17.46	-48.8	-50.1	15.0	0.00e+00	0	25	0	448790528	64	4007
2026-01-08 01:16:10.38	23.01	17.58	-48.9	-50.2	14.9	0.00e+00	0	25	0	451936256	64	4055
2026-01-08 01:16:11.38	22.97	17.70	-48.8	-50.1	15.0	0.00e+00	0	24	0	455081984	64	4014
2026-01-08 01:16:12.38	22.93	17.81	-48.8	-50.1	14.9	0.00e+00	0	25	0	458227712	64	4034
2026-01-08 01:16:13.38	22.90	17.93	-49.0	-50.2	14.9	0.00e+00	0	25	0	461373440	64	4096
2026-01-08 01:16:14.37	22.86	18.05	-48.9	-50.1	14.9	0.00e+00	0	25	0	464519168	64	4045
2026-01-08 01:16:15.37	22.82	18.17	-48.9	-50.1	14.9	0.00e+00	0	25	0	467664896	64	4042
2026-01-08 01:16:16.37	22.78	18.29	-48.9	-50.1	14.9	0.00e+00	0	25	0	470810624	64	4042
2026-01-08 01:16:17.38	22.74	18.41	-48.8	-50.1	14.9	0.00e+00	0	25	0	473956352	64	4032
2026-01-08 01:16:18.38	22.70	18.53	-48.8	-50.1	15.0	0.00e+00	0	24	0	477102080	64	4011
2026-01-08 01:16:19.38	22.66	18.65	-48.8	-50.1	14.9	0.00e+00	0	25	0	480247808	64	4027
2026-01-08 01:16:20.38	22.62	18.77	-48.7	-50.0	15.0	0.00e+00	0	25	0	483393536	64	3963
2026-01-08 01:16:21.37	22.58	18.89	-48.8	-50.1	15.0	0.00e+00	0	25	0	486539264	64	4015
2026-01-08 01:16:22.37	22.54	19.02	-48.8	-50.1	14.9	0.00e+00	0	25	0	489684992	64	4035
2026-01-08 01:16:23.37	22.50	19.14	-48.8	-50.1	15.0	0.00e+00	0	25	0	492830720	64	4011
2026-01-08 01:16:24.37	22.46	19.26	-48.8	-50.0	15.0	0.00e+00	0	25	0	495976448	64	3994
2026-01-08 01:16:25.37	22.42	19.39	-48.7	-49.9	15.0	0.00e+00	0	25	0	499122176	64	3954
2026-01-08 01:16:26.37	22.38	19.51	-48.7	-50.0	15.0	0.00e+00	0	24	0	502267904	64	3967
2026-01-08 01:16:27.36	22.33	19.64	-48.7	-50.0	15.0	0.00e+00	0	25	0	505413632	64	3965
2026-01-08 01:16:28.37	22.29	19.77	-48.7	-49.9	14.9	0.00e+00	0	25	0	508559360	63	4186
2026-01-08 01:16:29.37	22.25	19.89	-48.7	-50.0	14.8	0.00e+00	0	25	0	511705088	63	4201
2026-01-08 01:16:30.38	22.20	20.02	-48.7	-49.9	14.9	0.00e+00	0	25	0	514850816	63	4187
2026-01-08 01:16:31.38	22.16	20.15	-48.7	-50.0	14.9	0.00e+00	0	25	0	517996544	63	4202
2026-01-08 01:16:32.38	22.11	20.28	-48.6	-49.8	14.9	0.00e+00	0	25	0	521142272	63	4144
2026-01-08 01:16:33.37	22.07	20.41	-48.6	-49.8	14.9	0.00e+00	0	25	0	524288000	63	4136
2026-01-08 01:16:34.37	22.02	20.54	-48.6	-49.8	14.9	0.00e+00	0	25	0	527433728	63	4126
2026-01-08 01:16:35.36	21.98	20.67	-48.5	-49.8	15.0	0.00e+00	0	25	0	530579456	63	4105
2026-01-08 01:16:36.36	21.93	20.80	-48.4	-49.6	15.0	0.00e+00	0	25	0	533725184	63	4048
2026-01-08 01:16:37.35	21.89	20.93	-48.4	-49.7	15.0	0.00e+00	0	25	0	536870912	63	4053
2026-01-08 01:16:38.35	21.84	21.07	-48.4	-49.6	15.0	0.00e+00	0	25	0	540016640	63	4044
2026-01-08 01:16:39.35	21.79	21.20	-48.3	-49.6	15.1	0.00e+00	0	25	0	543162368	63	4005
2026-01-08 01:16:40.35	21.74	21.33	-48.1	-49.3	15.0	0.00e+00	0	25	0	546308096	62	4139
2026-01-08 01:16:41.34	21.69	21.47	-48.1	-49.3	15.0	0.00e+00	0	25	0	549453824	62	4130
2026-01-08 01:16:42.34	21.65	21.60	-48.1	-49.3	15.0	0.00e+00	0	25	0	552599552	62	4133
2026-01-08 01:16:43.34	21.60	21.74	-48.2	-49.4	15.0	0.00e+00	0	25	0	555745280	62	4161
2026-01-08 01:16:44.34	21.55	21.88	-48.1	-49.3	15.0	0.00e+00	0	25	0	558891008	62	4107
2026-01-08 01:16:45.35	21.50	22.02	-48.0	-49.2	15.0	0.00e+00	0	25	0	562036736	62	4094
2026-01-08 01:16:46.34	21.45	22.15	-47.8	-49.0	15.1	0.00e+00	0	25	0	565182464	62	3981
2026-01-08 01:16:47.34	21.39	22.29	-47.8	-49.0	15.1	0.00e+00	0	25	0	568328192	62	3962
2026-01-08 01:16:48.34	21.34	22.43	-47.9	-49.1	15.1	0.00e+00	0	25	0	570425344	62	4011
2026-01-08 01:16:49.33	21.29	22.57	-47.7	-48.9	15.2	0.00e+00	0	24	0	573571072	62	3915
2026-01-08 01:16:50.33	21.24	22.72	-47.7	-48.9	15.2	0.00e+00	0	25	0	576716800	62	3921
2026-01-08 01:16:51.33	21.18	22.86	-47.4	-48.6	15.2	0.00e+00	0	25	0	579862528	61	4012
2026-01-08 01:16:52.33	21.13	23.00	-47.4	-48.6	15.2	0.00e+00	0	25	0	583008256	61	4006
2026-01-08 01:16:53.32	21.08	23.14	-47.4	-48.5	15.2	0.00e+00	0	25	0	586153984	61	3999
2026-01-08 01:16:54.32	21.02	23.29	-47.2	-48.4	15.2	0.00e+00	0	25	0	589299712	61	3932
2026-01-08 01:16:55.32	20.97	23.43	-47.3	-48.5	15.2	0.00e+00	0	25	0	592445440	61	3960
2026-01-08 01:16:56.33	20.91	23.58	-47.2	-48.4	15.3	0.00e+00	0	25	0	595591168	61	3929
2026-01-08 01:16:57.33	20.85	23.73	-47.3	-48.4	15.2	0.00e+00	0	25	0	598736896	61	3944
2026-01-08 01:16:58.33	20.80	23.88	-47.3	-48.4	15.2	0.00e+00	0	25	0	601882624	61	3933
2026-01-08 01:16:59.33	20.74	24.03	-47.2	-48.3	15.1	0.00e+00	0	25	0	605028352	60	4136
2026-01-08 01:17:00.32	20.68	24.17	-47.3	-48.4	15.1	0.00e+00	0	25	0	608174080	60	4190
2026-01-08 01:17:01.32	20.62	24.33	-47.3	-48.4	15.1	0.00e+00	0	25	0	611319808	60	4178
2026-01-08 01:17:02.33	20.56	24.48	-47.3	-48.4	15.1	0.00e+00	0	25	0	614465536	60	4169
2026-01-08 01:17:03.33	20.50	24.63	-47.4	-48.5	15.1	0.00e+00	0	25	0	617611264	60	4227
2026-01-08 01:17:04.34	20.44	24.78	-47.4	-48.6	15.0	0.00e+00	0	25	0	620756992	60	4252
2026-01-08 01:17:05.33	20.38	24.94	-47.5	-48.6	15.0	0.00e+00	0	25	0	623902720	60	4279
2026-01-08 01:17:06.33	20.32	25.09	-47.6	-48.8	15.0	0.00e+00	0	25	0	627048448	60	4355
2026-01-08 01:17:07.33	20.25	25.25	-47.7	-48.9	15.0	0.00e+00	0	25	0	630194176	60	4399
2026-01-08 01:17:08.33	20.19	25.40	-47.7	-48.9	15.0	0.00e+00	0	25	0	633339904	60	4429
2026-01-08 01:17:09.33	20.13	25.56	-47.8	-49.0	14.9	0.00e+00	0	25	0	636485632	60	4480
2026-01-08 01:17:10.32	20.06	25.72	-47.9	-49.1	14.9	0.00e+00	0	25	0	639631360	60	4515
2026-01-08 01:17:11.32	20.00	25.88	-48.0	-49.2	14.9	0.00e+00	0	25	0	642777088	61	4327
2026-01-08 01:17:12.32	19.93	26.04	-48.1	-49.3	14.9	0.00e+00	0	25	0	645922816	61	4372
2026-01-08 01:17:13.32	19.86	26.20	-48.2	-49.4	14.9	0.00e+00	0	25	0	649068544	61	4422
2026-01-08 01:17:14.32	19.80	26.36	-48.3	-49.5	14.9	0.00e+00	0	25	0	652214272	61	4462
2026-01-08 01:17:15.32	19.73	26.52	-48.4	-49.6	14.8	0.00e+00	0	25	0	655360000	61	4523
2026-01-08 01:17:16.33	19.66	26.69	-48.5	-49.7	14.9	0.00e+00	0	25	0	658505728	62	4326
2026-01-08 01:17:17.33	19.59	26.85	-48.5	-49.7	14.8	0.00e+00	0	25	0	661651456	62	4340
2026-01-08 01:17:18.32	19.52	27.02	-48.6	-49.8	14.8	0.00e+00	0	25	0	664797184	62	4363
2026-01-08 01:17:19.31	19.45	27.18	-48.6	-49.9	14.8	0.00e+00	0	25	0	667942912	62	4407
2026-01-08 01:17:20.31	19.37	27.35	-48.6	-49.8	14.8	0.00e+00	0	25	0	671088640	62	4379
2026-01-08 01:17:21.31	19.30	27.52	-48.7	-50.0	14.8	0.00e+00	0	25	0	674234368	62	4451
2026-01-08 01:17:22.30	19.23	27.69	-48.8	-50.0	14.9	0.00e+00	0	25	0	677380096	63	4235
2026-01-08 01:17:23.30	19.15	27.86	-48.6	-49.8	14.9	0.00e+00	0	25	0	680525824	63	4125
2026-01-08 01:17:24.30	19.08	28.03	-48.7	-49.9	14.9	0.00e+00	0	25	0	683671552	63	4159
2026-01-08 01:17:25.29	19.00	28.20	-48.6	-49.9	14.9	0.00e+00	0	25	0	686817280	63	4153
2026-01-08 01:17:26.29	18.93	28.37	-48.7	-49.9	14.9	0.00e+00	0	25	0	689963008	63	4174
2026-01-08 01:17:27.30	18.85	28.55	-48.8	-50.1	14.8	0.00e+00	0	25	0	693108736	63	4253
2026-01-08 01:17:28.30	18.77	28.72	-48.7	-50.0	14.9	0.00e+00	0	25	0	696254464	63	4203
2026-01-08 01:17:29.31	18.69	28.90	-48.7	-50.0	14.9	0.00e+00	0	25	0	699400192	63	4198
2026-01-08 01:17:30.31	18.61	29.08	-48.8	-50.0	14.9	0.00e+00	0	25	0	702545920	63	4238
2026-01-08 01:17:31.30	18.53	29.26	-48.8	-50.0	14.9	0.00e+00	0	25	0	704643072	63	4223
2026-01-08 01:17:32.30	18.44	29.44	-48.8	-50.1	14.8	0.00e+00	0	25	0	707788800	63	4266
2026-01-08 01:17:33.30	18.36	29.62	-48.9	-50.2	14.8	0.00e+00	0	25	0	710934528	63	4311
2026-01-08 01:17:34.30	18.27	29.80	-48.9	-50.2	14.8	0.00e+00	0	25	0	715128832	63	4314
2026-01-08 01:17:35.30	18.19	29.98	-48.8	-50.1	14.9	0.00e+00	0	25	0	718274560	63	4246
2026-01-08 01:17:36.31	18.10	30.17	-48.7	-49.9	14.9	0.00e+00	0	25	0	721420288	63	4183
2026-01-08 01:17:37.30	18.01	30.35	-48.7	-49.9	14.9	0.00e+00	0	25	0	723517440	63	4180
2026-01-08 01:17:38.30	17.93	30.54	-48.7	-50.0	14.9	0.00e+00	0	25	0	726663168	63	4202
2026-01-08 01:17:39.30	17.84	30.73	-48.5	-49.8	15.0	0.00e+00	0	25	0	729808896	63	4110
2026-01-08 01:17:40.30	17.75	30.92	-48.6	-49.8	14.9	0.00e+00	0	25	0	732954624	63	4135
2026-01-08 01:17:41.30	17.65	31.11	-48.6	-49.9	14.9	0.00e+00	0	24	0	736100352	63	4160
2026-01-08 01:17:42.30	17.56	31.30	-48.5	-49.8	15.0	0.00e+00	0	25	0	739246080	63	4107
2026-01-08 01:17:43.30	17.47	31.49	-48.6	-49.9	14.9	0.00e+00	0	25	0	742391808	63	4148
2026-01-08 01:17:44.30	17.37	31.68	-48.6	-49.9	14.9	0.00e+00	0	25	0	745537536	63	4159
2026-01-08 01:17:45.29	17.27	31.87	-48.8	-50.0	14.9	0.00e+00	0	25	0	748683264	63	4225
2026-01-08 01:17:46.28	17.18	32.07	-48.8	-50.1	14.9	0.00e+00	0	25	0	751828992	63	4245
2026-01-08 01:17:47.28	17.08	32.27	-48.9	-50.2	14.8	0.00e+00	0	25	0	754974720	63	4314
2026-01-08 01:17:48.28	16.98	32.46	-49.0	-50.3	14.8	0.00e+00	0	25	0	758120448	63	4358
2026-01-08 01:17:49.28	16.88	32.66	-49.0	-50.3	14.8	0.00e+00	0	25	0	761266176	63	4352
2026-01-08 01:17:50.27	16.77	32.86	-49.0	-50.3	14.8	0.00e+00	0	25	0	764411904	63	4373
2026-01-08 01:17:51.26	16.67	33.06	-49.1	-50.3	14.8	0.00e+00	0	25	0	767557632	63	4390
2026-01-08 01:17:52.25	16.57	33.26	-49.1	-50.4	14.7	0.00e+00	0	25	0	770703360	63	4412
2026-01-08 01:17:53.25	16.46	33.47	-49.2	-50.5	14.7	0.00e+00	0	25	0	773849088	63	4480
2026-01-08 01:17:54.25	16.35	33.67	-49.3	-50.6	14.7	0.00e+00	0	25	0	776994816	63	4507
2026-01-08 01:17:55.25	16.24	33.88	-49.3	-50.6	14.6	0.00e+00	0	25	0	780140544	63	4544
2026-01-08 01:17:56.25	16.13	34.09	-49.4	-50.7	14.6	0.00e+00	0	25	0	783286272	63	4573
2026-01-08 01:17:57.26	16.02	34.30	-49.4	-50.7	14.7	0.00e+00	0	25	0	786432000	64	4333
2026-01-08 01:17:58.26	15.90	34.51	-49.4	-50.7	14.7	0.00e+00	0	25	0	789577728	64	4339
2026-01-08 01:17:59.26	15.79	34.72	-49.5	-50.8	14.7	0.00e+00	0	25	0	792723456	64	4382
2026-01-08 01:18:00.25	15.67	34.93	-49.6	-50.9	14.6	0.00e+00	0	25	0	795869184	64	4441
2026-01-08 01:18:01.25	15.55	35.15	-49.8	-51.2	14.5	0.00e+00	0	25	0	799014912	64	4555
2026-01-08 01:18:02.24	15.43	35.36	-50.0	-51.4	14.6	0.00e+00	0	25	0	802160640	65	4404
2026-01-08 01:18:03.23	15.31	35.57	-50.1	-51.5	14.5	0.00e+00	0	25	0	805306368	65	4450
2026-01-08 01:18:04.22	15.19	35.79	-50.2	-51.6	14.5	0.00e+00	0	25	0	808452096	65	4536
2026-01-08 01:18:05.22	15.06	36.01	-50.3	-51.7	14.4	0.00e+00	0	25	0	811597824	65	4588
2026-01-08 01:18:06.22	14.93	36.23	-50.5	-51.9	14.4	0.00e+00	0	25	0	814743552	66	4423
2026-01-08 01:18:07.22	14.80	36.45	-50.5	-52.0	14.4	0.00e+00	0	25	0	817889280	66	4472
2026-01-08 01:18:08.22	14.67	36.68	-50.6	-52.1	14.4	0.00e+00	0	25	0	821035008	66	4496
2026-01-08 01:18:09.22	14.54	36.90	-50.5	-52.0	14.4	0.00e+00	0	25	0	824180736	66	4451
2026-01-08 01:18:10.22	14.41	37.13	-50.6	-52.0	14.4	0.00e+00	0	25	0	827326464	66	4491
2026-01-08 01:18:11.22	14.27	37.36	-50.5	-52.0	14.4	0.00e+00	0	25	0	830472192	66	4446
2026-01-08 01:18:12.22	14.13	37.59	-50.5	-52.0	14.4	0.00e+00	0	25	0	833617920	66	4451
2026-01-08 01:18:13.21	13.99	37.82	-50.5	-51.9	14.4	0.00e+00	0	25	0	836763648	66	4437
2026-01-08 01:18:14.22	13.85	38.05	-50.4	-51.8	14.5	0.00e+00	0	25	0	838860800	66	4383
2026-01-08 01:18:15.22	13.70	38.28	-50.4	-51.8	14.5	0.00e+00	0	25	0	842006528	66	4382
2026-01-08 01:18:16.21	13.56	38.52	-50.4	-51.9	14.5	0.00e+00	0	25	0	845152256	66	4399
2026-01-08 01:18:17.21	13.41	38.75	-50.4	-51.8	14.5	0.00e+00	0	25	0	848297984	66	4368
2026-01-08 01:18:18.21	13.26	38.99	-50.3	-51.7	14.5	0.00e+00	0	25	0	851443712	66	4306
2026-01-08 01:18:19.21	13.10	39.23	-50.4	-51.8	14.5	0.00e+00	0	25	0	854589440	66	4368
2026-01-08 01:18:20.21	12.95	39.47	-50.3	-51.8	14.5	0.00e+00	0	25	0	857735168	66	4343
2026-01-08 01:18:21.21	12.79	39.71	-50.4	-51.8	14.5	0.00e+00	0	25	0	860880896	66	4383
2026-01-08 01:18:22.21	12.63	39.96	-50.4	-51.9	14.5	0.00e+00	0	25	0	864026624	66	4415
2026-01-08 01:18:23.21	12.46	40.20	-50.5	-52.0	14.4	0.00e+00	0	25	0	867172352	66	4460
2026-01-08 01:18:24.21	12.30	40.45	-50.4	-51.8	14.5	0.00e+00	0	25	0	870318080	66	4385
2026-01-08 01:18:25.21	12.13	40.69	-50.3	-51.7	14.6	0.00e+00	0	25	0	873463808	66	4311
2026-01-08 01:18:26.21	11.96	40.94	-50.4	-51.8	14.5	0.00e+00	0	25	0	876609536	66	4367
2026-01-08 01:18:27.20	11.78	41.19	-50.1	-51.5	14.6	0.00e+00	0	25	0	879755264	66	4210
2026-01-08 01:18:28.21	11.61	41.45	-49.7	-51.0	14.9	0.00e+00	0	25	0	882900992	66	3985
2026-01-08 01:18:29.20	11.43	41.70	-49.6	-50.9	14.8	0.00e+00	0	25	0	886046720	65	4177
2026-01-08 01:18:30.21	11.24	41.95	-49.8	-51.1	14.7	0.00e+00	0	25	0	889192448	65	4251
2026-01-08 01:18:31.20	11.06	42.21	-49.9	-51.2	14.6	0.00e+00	0	25	0	892338176	65	4327
2026-01-08 01:18:32.20	10.87	42.47	-50.0	-51.4	14.5	0.00e+00	0	25	0	895483904	65	4409
2026-01-08 01:18:33.19	10.68	42.72	-50.1	-51.5	14.5	0.00e+00	0	25	0	898629632	65	4455
2026-01-08 01:18:34.19	10.49	42.98	-50.4	-51.8	14.4	0.00e+00	0	25	0	901775360	65	4632
2026-01-08 01:18:35.18	10.29	43.24	-50.7	-52.2	14.3	0.00e+00	0	25	0	904921088	66	4550
2026-01-08 01:18:36.18	10.09	43.51	-50.9	-52.4	14.3	0.00e+00	0	25	0	908066816	66	4667
2026-01-08 01:18:37.17	9.89	43.77	-51.0	-52.5	14.3	0.00e+00	0	25	0	911212544	67	4457
2026-01-08 01:18:38.18	9.68	44.04	-51.1	-52.6	14.3	0.00e+00	0	25	0	914358272	67	4513
2026-01-08 01:18:39.17	9.47	44.30	-51.1	-52.6	14.3	0.00e+00	0	25	0	917504000	67	4521
2026-01-08 01:18:40.16	9.25	44.57	-51.2	-52.8	14.2	0.00e+00	0	25	0	920649728	67	4621
2026-01-08 01:18:41.16	9.03	44.84	-51.3	-52.8	14.2	0.00e+00	0	25	0	923795456	67	4618
2026-01-08 01:18:42.16	8.81	45.11	-51.3	-52.9	14.1	0.00e+00	0	25	0	926941184	67	4672
2026-01-08 01:18:43.15	8.59	45.38	-51.3	-52.8	14.2	0.00e+00	0	25	0	930086912	67	4614
2026-01-08 01:18:44.15	8.36	45.66	-51.1	-52.6	14.2	0.00e+00	0	25	0	933232640	67	4543
2026-01-08 01:18:45.14	8.12	45.93	-51.2	-52.7	14.2	0.00e+00	0	25	0	936378368	67	4591
2026-01-08 01:18:46.13	7.89	46.20	-51.2	-52.8	14.2	0.00e+00	0	25	0	939524096	67	4608
2026-01-08 01:18:47.13	7.64	46.48	-51.0	-52.5	14.3	0.00e+00	0	25	0	942669824	67	4468
2026-01-08 01:18:48.13	7.39	46.76	-50.9	-52.4	14.4	0.00e+00	0	25	0	945815552	67	4412
2026-01-08 01:18:49.12	7.14	47.04	-51.0	-52.5	14.3	0.00e+00	0	25	0	948961280	67	4445
2026-01-08 01:18:50.11	6.89	47.32	-50.9	-52.4	14.4	0.00e+00	0	25	0	951058432	67	4394
2026-01-08 01:18:51.11	6.63	47.60	-50.9	-52.3	14.4	0.00e+00	0	25	0	954204160	67	4371
2026-01-08 01:18:52.10	6.36	47.88	-50.7	-52.1	14.5	0.00e+00	0	25	0	957349888	67	4259
2026-01-08 01:18:53.10	6.09	48.17	-50.5	-51.9	14.6	0.00e+00	0	25	0	960495616	67	4190
2026-01-08 01:18:54.10	5.82	48.46	-50.5	-51.8	14.6	0.00e+00	0	25	0	963641344	67	4142
2026-01-08 01:18:55.09	5.54	48.74	-50.3	-51.7	14.7	0.00e+00	0	25	0	966787072	67	4076
2026-01-08 01:18:56.09	5.25	49.03	-50.3	-51.7	14.7	0.00e+00	0	25	0	969932800	67	4061
2026-01-08 01:18:57.09	4.96	49.32	-50.2	-51.5	14.6	0.00e+00	0	25	0	973078528	66	4231
2026-01-08 01:18:58.09	4.66	49.61	-50.2	-51.6	14.6	0.00e+00	0	25	0	976224256	66	4259
2026-01-08 01:18:59.09	4.35	49.91	-50.4	-51.7	14.6	0.00e+00	0	25	0	979369984	66	4338
2026-01-08 01:19:00.09	4.04	50.20	-50.4	-51.8	14.5	0.00e+00	0	25	0	982515712	66	4362
2026-01-08 01:19:01.09	3.73	50.49	-50.4	-51.8	14.5	0.00e+00	0	25	0	985661440	66	4347
2026-01-08 01:19:02.09	3.40	50.79	-50.3	-51.7	14.6	0.00e+00	0	25	0	988807168	66	4323
2026-01-08 01:19:03.09	3.07	51.09	-50.3	-51.6	14.6	0.00e+00	0	25	0	991952896	66	4281
2026-01-08 01:19:04.09	2.74	51.38	-50.2	-51.6	14.6	0.00e+00	0	25	0	995098624	66	4274
2026-01-08 01:19:05.09	2.39	51.68	-50.1	-51.5	14.7	0.00e+00	0	25	0	998244352	66	4218
2026-01-08 01:19:06.09	2.04	51.98	-50.1	-51.5	14.6	0.00e+00	0	25	0	1001390080	66	4205
2026-01-08 01:19:07.08	1.69	52.28	-50.3	-51.7	14.5	0.00e+00	0	25	0	1004535808	66	4334
2026-01-08 01:19:08.08	1.33	52.58	-50.5	-51.9	14.4	0.00e+00	0	25	0	1007681536	66	4420
2026-01-08 01:19:09.07	0.96	52.87	-50.3	-51.8	14.5	0.00e+00	0	25	0	1010827264	66	4344
2026-01-08 01:19:10.07	0.58	53.17	-50.3	-51.7	14.6	0.00e+00	0	25	0	1013972992	66	4334
2026-01-08 01:19:11.07	0.19	53.48	-50.0	-51.4	14.7	0.00e+00	0	25	0	1017118720	66	4167
2026-01-08 01:19:12.07	359.79	53.78	-50.0	-51.3	14.8	0.00e+00	0	25	0	1020264448	66	4111
2026-01-08 01:19:13.07	359.39	54.08	-49.8	-51.1	14.8	0.00e+00	0	25	0	1023410176	66	4036
2026-01-08 01:19:14.07	358.98	54.38	-50.0	-51.4	14.8	0.00e+00	0	25	0	1026555904	66	4177
2026-01-08 01:19:15.07	358.56	54.69	-49.8	-51.1	14.8	0.00e+00	0	25	0	1029701632	66	4044
2026-01-08 01:19:16.06	358.13	54.99	-49.6	-50.9	14.8	0.00e+00	0	25	0	1032847360	65	4170
2026-01-08 01:19:17.06	357.69	55.29	-49.3	-50.5	15.0	0.00e+00	0	25	0	1035993088	65	3998
2026-01-08 01:19:18.06	357.24	55.59	-49.1	-50.4	14.9	0.00e+00	0	25	0	1039138816	64	4161
2026-01-08 01:19:19.07	356.77	55.90	-48.9	-50.2	15.0	0.00e+00	0	25	0	1042284544	64	4054
2026-01-08 01:19:20.06	356.31	56.20	-49.0	-50.3	14.9	0.00e+00	0	25	0	1045430272	64	4099
2026-01-08 01:19:21.06	355.83	56.50	-49.3	-50.5	14.9	0.00e+00	0	25	0	1048576000	64	4232
2026-01-08 01:19:22.07	355.33	56.81	-49.3	-50.5	14.8	0.00e+00	0	25	0	1051721728	64	4231
2026-01-08 01:19:23.06	354.83	57.11	-48.9	-50.2	15.0	0.00e+00	0	25	0	1054867456	64	4059
2026-01-08 01:19:24.07	354.31	57.41	-48.6	-49.8	15.0	0.00e+00	0	25	0	1058013184	63	4127
2026-01-08 01:19:25.06	353.79	57.71	-48.5	-49.7	15.0	0.00e+00	0	25	0	1061158912	63	4067
2026-01-08 01:19:26.06	353.26	58.01	-48.5	-49.6	15.0	0.00e+00	0	25	0	1064304640	63	4041
2026-01-08 01:19:27.06	352.71	58.31	-48.5	-49.7	15.0	0.00e+00	0	25	0	1067450368	63	4065
2026-01-08 01:19:28.06	352.15	58.61	-48.2	-49.4	15.2	0.00e+00	0	25	0	1070596096	63	3915
2026-01-08 01:19:29.06	351.57	58.90	-48.0	-49.2	15.0	0.00e+00	0	25	0	1073741824	62	4054
2026-01-08 01:19:30.05	350.99	59.19	-48.2	-49.3	15.0	0.00e+00	0	25	0	1076887552	62	4128
2026-01-08 01:19:31.05	350.39	59.49	-47.9	-49.0	15.1	0.00e+00	0	25	0	1078984704	62	3984
2026-01-08 01:19:32.05	349.77	59.78	-47.6	-48.7	15.1	0.00e+00	0	25	0	1082130432	61	4068
2026-01-08 01:19:33.05	349.14	60.07	-47.7	-48.8	15.1	0.00e+00	0	25	0	1085276160	61	4125
2026-01-08 01:19:34.05	348.50	60.36	-47.6	-48.7	15.1	0.00e+00	0	25	0	1088421888	61	4074
2026-01-08 01:19:35.05	347.84	60.65	-47.8	-49.0	15.0	0.00e+00	0	25	0	1091567616	61	4207
2026-01-08 01:19:36.05	347.17	60.93	-48.0	-49.1	15.0	0.00e+00	0	25	0	1094713344	61	4286
2026-01-08 01:19:37.04	346.49	61.21	-47.9	-49.0	15.1	0.00e+00	0	25	0	1097859072	61	4209
2026-01-08 01:19:38.11	345.73	61.51	-47.9	-49.0	15.1	0.00e+00	0	25	0	1101004800	61	4228
2026-01-08 01:19:38.96	345.12	61.75	-48.0	-49.1	15.1	0.00e+00	0	25	0	1104150528	61	4283
2026-01-08 01:19:40.10	344.28	62.06	-48.0	-49.1	15.0	0.00e+00	0	25	0	1107296256	61	4288
2026-01-08 01:19:40.95	343.64	62.29	-47.8	-48.9	15.1	0.00e+00	0	25	0	1110441984	61	4171
2026-01-08 01:19:42.09	342.76	62.60	-47.6	-48.7	15.2	0.00e+00	0	25	0	1113587712	61	4072
2026-01-08 01:19:42.95	342.09	62.82	-47.5	-48.6	15.2	0.00e+00	0	25	0	1116733440	61	4022
2026-01-08 01:19:44.08	341.18	63.12	-48.1	-49.2	15.0	0.00e+00	0	25	0	1119879168	61	4335
2026-01-08 01:19:44.95	340.46	63.34	-48.0	-49.2	15.0	0.00e+00	0	25	0	1123024896	61	4297
2026-01-08 01:19:46.08	339.51	63.63	-47.8	-48.9	15.1	0.00e+00	0	25	0	1126170624	61	4180
2026-01-08 01:19:46.93	338.78	63.84	-47.7	-48.9	15.1	0.00e+00	0	25	0	1129316352	61	4148
2026-01-08 01:19:48.06	337.79	64.12	-47.7	-48.8	15.1	0.00e+00	0	25	0	1132462080	61	4139
2026-01-08 01:19:48.91	337.03	64.32	-47.9	-49.1	15.0	0.00e+00	0	25	0	1134559232	61	4263
2026-01-08 01:19:50.05	335.98	64.59	-48.0	-49.2	15.1	0.00e+00	0	25	0	1138753536	61	4294
2026-01-08 01:19:50.90	335.19	64.78	-47.9	-49.0	15.0	0.00e+00	0	25	0	1140850688	61	4211
2026-01-08 01:19:52.04	334.11	65.04	-47.9	-49.0	15.0	0.00e+00	0	25	0	1145044992	61	4241
2026-01-08 01:19:52.90	333.27	65.23	-47.8	-48.9	15.0	0.00e+00	0	25	0	1147142144	61	4174
2026-01-08 01:19:54.03	332.15	65.46	-47.5	-48.6	15.2	0.00e+00	0	25	0	1151336448	61	4014
2026-01-08 01:19:54.88	331.29	65.64	-47.4	-48.5	15.3	0.00e+00	0	25	0	1153433600	61	3978
2026-01-08 01:19:56.02	330.12	65.87	-47.5	-48.6	15.2	0.00e+00	0	25	0	1157627904	61	4006
2026-01-08 01:19:56.87	329.23	66.03	-47.8	-48.9	15.1	0.00e+00	0	25	0	1159725056	61	4162
2026-01-08 01:19:58.00	328.03	66.24	-47.8	-48.9	15.1	0.00e+00	0	25	0	1163919360	61	4179
2026-01-08 01:19:58.86	327.10	66.40	-47.8	-48.9	15.1	0.00e+00	0	25	0	1166016512	61	4174
2026-01-08 01:20:00.00	325.85	66.59	-47.9	-49.0	15.1	0.00e+00	0	25	0	1170210816	61	4212
2026-01-08 01:20:00.85	324.90	66.73	-48.0	-49.1	15.0	0.00e+00	0	25	0	1172307968	61	4288
2026-01-08 01:20:01.99	323.60	66.91	-48.0	-49.2	15.0	0.00e+00	0	25	0	1175453696	61	4295
2026-01-08 01:20:02.85	322.61	67.04	-48.1	-49.3	15.0	0.00e+00	0	25	0	1178599424	61	4345
2026-01-08 01:20:03.99	321.28	67.19	-48.0	-49.2	15.0	0.00e+00	0	25	0	1181745152	61	4311
2026-01-08 01:20:04.85	320.26	67.31	-47.8	-49.0	15.1	0.00e+00	0	25	0	1184890880	61	4207
2026-01-08 01:20:05.99	318.90	67.45	-47.5	-48.5	15.2	0.00e+00	0	25	0	1188036608	61	4002
2026-01-08 01:20:06.85	317.86	67.54	-47.2	-48.3	15.3	0.00e+00	0	25	0	1191182336	61	3893
2026-01-08 01:20:07.99	316.46	67.66	-47.2	-48.2	15.2	0.00e+00	0	25	0	1194328064	60	4095
2026-01-08 01:20:08.85	315.40	67.74	-47.4	-48.5	15.1	0.00e+00	0	25	0	1197473792	60	4213
2026-01-08 01:20:09.99	313.98	67.84	-47.8	-49.0	15.0	0.00e+00	0	25	0	1200619520	61	4196
2026-01-08 01:20:10.85	312.90	67.90	-47.4	-48.5	15.2	0.00e+00	0	25	0	1203765248	61	3970
2026-01-08 01:20:11.99	311.46	67.98	-47.1	-48.1	15.2	0.00e+00	0	25	0	1206910976	60	4027
2026-01-08 01:20:12.85	310.36	68.03	-47.1	-48.1	15.2	0.00e+00	0	25	0	1210056704	60	4039
2026-01-08 01:20:14.00	308.89	68.08	-47.4	-48.4	15.1	0.00e+00	0	25	0	1213202432	60	4192
2026-01-08 01:20:14.85	307.80	68.11	-47.6	-48.7	15.1	0.00e+00	0	25	0	1216348160	60	4297
2026-01-08 01:20:15.99	306.33	68.14	-47.8	-48.9	15.0	0.00e+00	0	25	0	1219493888	60	4440
2026-01-08 01:20:16.84	305.23	68.15	-47.8	-48.9	15.1	0.00e+00	0	25	0	1222639616	61	4193
2026-01-08 01:20:17.98	303.76	68.15	-47.8	-48.9	15.1	0.00e+00	0	25	0	1225785344	61	4188
2026-01-08 01:20:18.85	302.64	68.15	-47.6	-48.7	15.2	0.00e+00	0	25	0	1228931072	61	4082
2026-01-08 01:20:19.99	301.17	68.13	-47.8	-48.9	15.1	0.00e+00	0	25	0	1232076800	61	4178
2026-01-08 01:20:20.83	300.09	68.11	-48.2	-49.4	15.0	0.00e+00	0	25	0	1235222528	61	4403
2026-01-08 01:20:21.97	298.62	68.07	-48.3	-49.5	15.0	0.00e+00	0	25	0	1238368256	62	4216
2026-01-08 01:20:22.83	297.52	68.03	-48.2	-49.4	15.1	0.00e+00	0	25	0	1241513984	62	4149
2026-01-08 01:20:23.97	296.07	67.96	-47.9	-49.0	15.2	0.00e+00	0	25	0	1244659712	62	3978
2026-01-08 01:20:24.82	295.00	67.91	-47.6	-48.7	15.2	0.00e+00	0	25	0	1246756864	61	4068
2026-01-08 01:20:25.97	293.55	67.82	-47.3	-48.4	15.3	0.00e+00	0	25	0	1250951168	61	3931
2026-01-08 01:20:26.83	292.48	67.74	-47.6	-48.7	15.2	0.00e+00	0	25	0	1254096896	61	4063
2026-01-08 01:20:27.98	291.06	67.63	-47.9	-49.0	15.1	0.00e+00	0	25	0	1257242624	61	4226
2026-01-08 01:20:28.84	290.01	67.54	-48.0	-49.2	15.0	0.00e+00	0	25	0	1259339776	61	4309
2026-01-08 01:20:29.98	288.63	67.41	-48.1	-49.2	15.0	0.00e+00	0	25	0	1263534080	61	4336
2026-01-08 01:20:30.84	287.60	67.31	-48.1	-49.2	15.0	0.00e+00	0	25	0	1265631232	61	4340
2026-01-08 01:20:31.98	286.26	67.16	-48.2	-49.3	15.0	0.00e+00	0	25	0	1269825536	61	4376
2026-01-08 01:20:32.84	285.26	67.04	-48.2	-49.4	15.0	0.00e+00	0	25	0	1271922688	61	4422
2026-01-08 01:20:33.98	283.94	66.87	-48.6	-49.7	14.9	0.00e+00	0	25	0	1276116992	62	4339
2026-01-08 01:20:34.83	282.98	66.73	-48.4	-49.6	15.0	0.00e+00	0	25	0	1278214144	62	4252
2026-01-08 01:20:35.97	281.71	66.54	-48.0	-49.1	15.2	0.00e+00	0	25	0	1282408448	62	4023
2026-01-08 01:20:36.82	280.78	66.40	-47.7	-48.8	15.2	0.00e+00	0	25	0	1284505600	62	3880
2026-01-08 01:20:37.97	279.53	66.19	-47.9	-49.1	15.1	0.00e+00	0	25	0	1288699904	61	4248
2026-01-08 01:20:38.83	278.62	66.03	-48.0	-49.1	15.0	0.00e+00	0	25	0	1290797056	61	4272
2026-01-08 01:20:39.97	277.43	65.81	-47.5	-48.6	15.2	0.00e+00	0	25	0	1294991360	61	4023
2026-01-08 01:20:40.83	276.55	65.63	-47.6	-48.7	15.2	0.00e+00	0	25	0	1297088512	61	4064
2026-01-08 01:20:41.97	275.40	65.40	-48.0	-49.1	14.9	0.00e+00	0	25	0	1301282816	61	4281
2026-01-08 01:20:42.82	274.56	65.22	-48.4	-49.6	14.9	0.00e+00	0	25	0	1303379968	62	4251
2026-01-08 01:20:43.96	273.46	64.97	-48.2	-49.4	15.0	0.00e+00	0	25	0	1306525696	62	4167
2026-01-08 01:20:44.81	272.65	64.77	-48.3	-49.5	15.0	0.00e+00	0	25	0	1309671424	62	4198
2026-01-08 01:20:45.95	271.59	64.51	-48.8	-50.0	14.9	0.00e+00	0	25	0	1312817152	62	4475
2026-01-08 01:20:46.80	270.81	64.31	-49.3	-50.6	14.8	0.00e+00	0	25	0	1315962880	63	4513
2026-01-08 01:20:47.94	269.79	64.04	-49.1	-50.4	14.9	0.00e+00	0	25	0	1319108608	64	4170
2026-01-08 01:20:48.79	269.05	63.83	-48.7	-49.9	15.1	0.00e+00	0	25	0	1322254336	64	3947
2026-01-08 01:20:49.92	268.08	63.55	-48.4	-49.5	15.1	0.00e+00	0	25	0	1325400064	63	3990
2026-01-08 01:20:50.78	267.36	63.33	-48.2	-49.3	15.2	0.00e+00	0	25	0	1328545792	63	3896
2026-01-08 01:20:51.92	266.43	63.03	-48.1	-49.2	15.1	0.00e+00	0	25	0	1331691520	62	4094
2026-01-08 01:20:52.77	265.74	62.81	-48.3	-49.5	15.0	0.00e+00	0	25	0	1334837248	62	4219
2026-01-08 01:20:53.91	264.85	62.51	-48.9	-50.2	14.8	0.00e+00	0	25	0	1337982976	62	4566
2026-01-08 01:20:54.77	264.19	62.28	-49.2	-50.5	14.8	0.00e+00	0	25	0	1341128704	63	4462
2026-01-08 01:20:55.90	263.34	61.97	-49.0	-50.2	14.9	0.00e+00	0	25	0	1344274432	63	4336
2026-01-08 01:20:56.75	262.71	61.73	-48.7	-49.9	15.0	0.00e+00	0	25	0	1347420160	63	4192
2026-01-08 01:20:57.89	261.90	61.42	-48.3	-49.4	15.2	0.00e+00	0	25	0	1350565888	63	3932
2026-01-08 01:20:58.74	261.30	61.18	-48.6	-49.7	14.9	0.00e+00	0	25	0	1353711616	62	4339
2026-01-08 01:20:59.89	260.51	60.85	-49.4	-50.7	14.8	0.00e+00	0	25	0	1356857344	64	4313
2026-01-08 01:21:00.74	259.94	60.61	-49.4	-50.6	14.8	0.00e+00	0	25	0	1360003072	64	4274
2026-01-08 01:21:01.88	259.19	60.28	-48.9	-50.1	15.1	0.00e+00	0	25	0	1363148800	64	4008
2026-01-08 01:21:02.73	258.64	60.04	-48.1	-49.2	15.1	0.00e+00	0	25	0	1366294528	62	4070
2026-01-08 01:21:03.87	257.93	59.70	-47.2	-48.2	15.3	0.00e+00	0	25	0	1369440256	61	3857
2026-01-08 01:21:04.73	257.40	59.45	-47.3	-48.4	15.1	0.00e+00	0	25	0	1371537408	60	4187
2026-01-08 01:21:05.87	256.72	59.11	-48.3	-49.5	15.0	0.00e+00	0	25	0	1375731712	61	4454
2026-01-08 01:21:06.72	256.22	58.86	-49.0	-50.2	14.9	0.00e+00	0	25	0	1377828864	63	4338
2026-01-08 01:21:07.86	255.57	58.52	-49.5	-50.8	14.8	0.00e+00	0	25	0	1382023168	64	4344
2026-01-08 01:21:08.72	255.09	58.27	-49.5	-50.8	14.7	0.00e+00	0	25	0	1384120320	64	4356
2026-01-08 01:21:09.87	254.46	57.92	-49.1	-50.4	14.8	0.00e+00	0	25	0	1388314624	64	4148
2026-01-08 01:21:10.72	254.00	57.67	-48.8	-50.0	15.0	0.00e+00	0	25	0	1390411776	64	4001
2026-01-08 01:21:11.86	253.40	57.32	-48.9	-50.1	14.9	0.00e+00	0	25	0	1394606080	63	4265
2026-01-08 01:21:12.71	252.97	57.07	-48.7	-49.9	15.0	0.00e+00	0	25	0	1396703232	63	4176
2026-01-08 01:21:13.86	252.39	56.72	-48.7	-49.9	14.9	0.00e+00	0	25	0	1400897536	63	4163
2026-01-08 01:21:14.72	251.97	56.46	-48.7	-49.9	14.9	0.00e+00	0	25	0	1402994688	63	4173
2026-01-08 01:21:15.86	251.42	56.11	-49.3	-50.5	14.7	0.00e+00	0	25	0	1407188992	63	4476
2026-01-08 01:21:16.72	251.02	55.85	-49.3	-50.5	14.7	0.00e+00	0	25	0	1409286144	63	4481
2026-01-08 01:21:17.86	250.50	55.50	-48.5	-49.6	15.1	0.00e+00	0	25	0	1413480448	63	4035
2026-01-08 01:21:18.72	250.11	55.24	-48.0	-49.1	15.1	0.00e+00	0	25	0	1415577600	62	4037
2026-01-08 01:21:19.86	249.61	54.90	-47.8	-48.8	15.2	0.00e+00	0	25	0	1418723328	62	3906
2026-01-08 01:21:20.73	249.24	54.63	-48.3	-49.4	15.1	0.00e+00	0	25	0	1421869056	62	4169
2026-01-08 01:21:21.86	248.76	54.29	-49.6	-50.9	14.7	0.00e+00	0	25	0	1425014784	64	4408
2026-01-08 01:21:22.72	248.41	54.03	-50.6	-52.0	14.5	0.00e+00	0	25	0	1428160512	66	4491
2026-01-08 01:21:23.86	247.95	53.68	-50.7	-52.1	14.4	0.00e+00	0	25	0	1431306240	66	4513
2026-01-08 01:21:24.72	247.61	53.42	-50.5	-51.9	14.5	0.00e+00	0	25	0	1434451968	66	4410
2026-01-08 01:21:25.86	247.16	53.08	-50.4	-51.8	14.6	0.00e+00	0	25	0	1437597696	66	4372
2026-01-08 01:21:26.71	246.84	52.82	-50.2	-51.5	14.7	0.00e+00	0	25	0	1440743424	66	4223
2026-01-08 01:21:27.85	246.42	52.48	-49.9	-51.2	14.8	0.00e+00	0	25	0	1443889152	66	4082
2026-01-08 01:21:28.71	246.11	52.22	-49.5	-50.8	14.8	0.00e+00	0	25	0	1447034880	65	4114
2026-01-08 01:21:29.86	245.70	51.87	-49.1	-50.3	14.9	0.00e+00	0	25	0	1450180608	64	4117
2026-01-08 01:21:30.72	245.40	51.62	-49.3	-50.5	14.7	0.00e+00	0	25	0	1453326336	64	4223
2026-01-08 01:21:31.86	245.01	51.28	-49.9	-51.2	14.1	0.00e+00	0	25	0	1456472064	64	4547
2026-01-08 01:21:32.72	244.72	51.02	-50.5	-51.9	14.2	0.00e+00	0	25	0	1459617792	66	4403
2026-01-08 01:21:33.86	244.34	50.68	-50.9	-52.3	14.4	0.00e+00	0	25	0	1462763520	67	4373
2026-01-08 01:21:34.72	244.07	50.43	-50.6	-52.0	14.5	0.00e+00	0	25	0	1465909248	67	4214
2026-01-08 01:21:35.87	243.70	50.09	-50.0	-51.2	14.7	0.00e+00	0	25	0	1469054976	66	4097
2026-01-08 01:21:36.72	243.44	49.84	-49.9	-51.2	14.7	0.00e+00	0	25	0	1472200704	66	4064
2026-01-08 01:21:37.85	243.10	49.51	-49.9	-51.1	14.7	0.00e+00	0	25	0	1475346432	66	4048
2026-01-08 01:21:38.72	242.84	49.25	-49.7	-51.0	14.8	0.00e+00	0	25	0	1478492160	66	3960
2026-01-08 01:21:39.86	242.51	48.92	-49.6	-50.8	14.7	0.00e+00	0	25	0	1481637888	65	4138
2026-01-08 01:21:40.72	242.26	48.67	-49.8	-51.1	14.6	0.00e+00	0	25	0	1484783616	65	4248
2026-01-08 01:21:41.86	241.94	48.34	-50.5	-51.9	14.5	0.00e+00	0	25	0	1487929344	66	4410
2026-01-08 01:21:42.72	241.70	48.10	-51.1	-52.6	14.3	0.00e+00	0	25	0	1491075072	67	4495
2026-01-08 01:21:43.85	241.39	47.77	-52.0	-53.7	14.1	0.00e+00	0	25	0	1494220800	69	4564
2026-01-08 01:21:44.71	241.17	47.53	-52.2	-54.0	13.8	0.00e+00	0	25	0	1497366528	69	4731
2026-01-08 01:21:45.85	240.87	47.20	-52.4	-54.2	13.9	0.00e+00	0	25	0	1500512256	70	4557
2026-01-08 01:21:46.70	240.65	46.96	-52.3	-54.0	14.0	0.00e+00	0	25	0	1502609408	70	4465
2026-01-08 01:21:47.84	240.36	46.64	-51.8	-53.3	14.3	0.00e+00	0	25	0	1506803712	70	4141
2026-01-08 01:21:48.70	240.15	46.40	-51.5	-53.0	14.4	0.00e+00	0	25	0	1508900864	69	4194
2026-01-08 01:21:49.85	239.87	46.08	-51.0	-52.5	14.5	0.00e+00	0	25	0	1513095168	68	4199
2026-01-08 01:21:50.69	239.67	45.85	-51.1	-52.5	14.5	0.00e+00	0	25	0	1515192320	68	4218
2026-01-08 01:21:51.84	239.40	45.53	-51.2	-52.7	14.4	0.00e+00	0	25	0	1519386624	68	4307
2026-01-08 01:21:52.69	239.21	45.30	-51.0	-52.4	14.5	0.00e+00	0	25	0	1521483776	68	4177
2026-01-08 01:21:53.83	238.95	44.99	-50.6	-51.9	14.6	0.00e+00	0	25	0	1525678080	67	4186
2026-01-08 01:21:54.67	238.76	44.76	-50.5	-51.9	14.7	0.00e+00	0	25	0	1527775232	67	4159
2026-01-08 01:21:55.81	238.51	44.45	-50.6	-52.0	14.6	0.00e+00	0	25	0	1531969536	67	4220
2026-01-08 01:21:56.66	238.33	44.22	-50.7	-52.1	14.5	0.00e+00	0	25	0	1534066688	67	4269
2026-01-08 01:21:57.80	238.09	43.91	-50.9	-52.4	14.4	0.00e+00	0	25	0	1538260992	67	4423
2026-01-08 01:21:58.65	237.91	43.69	-51.0	-52.5	14.4	0.00e+00	0	25	0	1540358144	67	4454
2026-01-08 01:21:59.80	237.68	43.38	-50.9	-52.4	14.3	0.00e+00	0	25	0	1544552448	67	4416
2026-01-08 01:22:00.65	237.51	43.16	-50.9	-52.4	14.3	0.00e+00	0	25	0	1546649600	67	4397
2026-01-08 01:22:01.79	237.28	42.86	-51.0	-52.5	14.4	0.00e+00	0	25	0	1549795328	67	4449
2026-01-08 01:22:02.65	237.11	42.63	-51.0	-52.5	14.3	0.00e+00	0	25	0	1552941056	67	4463
2026-01-08 01:22:03.78	236.90	42.34	-51.1	-52.6	14.3	0.00e+00	0	25	0	1556086784	67	4498
2026-01-08 01:22:04.64	236.73	42.12	-51.2	-52.7	14.1	0.00e+00	0	25	0	1559232512	67	4586
2026-01-08 01:22:05.78	236.52	41.83	-51.2	-52.7	14.2	0.00e+00	0	25	0	1562378240	67	4579
2026-01-08 01:22:06.63	236.37	41.61	-51.2	-52.7	14.2	0.00e+00	0	25	0	1565523968	67	4574
2026-01-08 01:22:07.77	236.16	41.32	-51.1	-52.6	14.3	0.00e+00	0	25	0	1568669696	67	4511
2026-01-08 01:22:08.63	236.01	41.10	-51.1	-52.6	14.3	0.00e+00	0	25	0	1571815424	67	4502
2026-01-08 01:22:09.77	235.81	40.82	-50.8	-52.2	14.4	0.00e+00	0	25	0	1574961152	67	4308
2026-01-08 01:22:10.63	235.67	40.60	-50.6	-51.9	14.6	0.00e+00	0	25	0	1578106880	67	4190
2026-01-08 01:22:11.77	235.48	40.32	-50.6	-52.1	14.5	0.00e+00	0	25	0	1581252608	67	4244
2026-01-08 01:22:12.63	235.33	40.11	-50.7	-52.1	14.5	0.00e+00	0	25	0	1584398336	67	4279
2026-01-08 01:22:13.77	235.15	39.83	-50.8	-52.3	14.5	0.00e+00	0	25	0	1587544064	67	4341
2026-01-08 01:22:14.63	235.01	39.62	-50.9	-52.4	14.4	0.00e+00	0	25	0	1590689792	67	4410
2026-01-08 01:22:15.77	234.83	39.34	-50.9	-52.4	14.4	0.00e+00	0	25	0	1593835520	67	4398
2026-01-08 01:22:16.63	234.69	39.14	-50.8	-52.3	14.4	0.00e+00	0	25	0	1596981248	67	4365
2026-01-08 01:22:17.76	234.52	38.87	-50.7	-52.1	14.5	0.00e+00	0	25	0	1600126976	67	4288
2026-01-08 01:22:18.62	234.39	38.66	-50.6	-52.0	14.6	0.00e+00	0	25	0	1603272704	67	4237
2026-01-08 01:22:19.76	234.22	38.39	-50.4	-51.8	14.7	0.00e+00	0	25	0	1606418432	67	4123
2026-01-08 01:22:20.61	234.10	38.19	-50.5	-51.8	14.6	0.00e+00	0	25	0	1609564160	67	4142
2026-01-08 01:22:21.76	233.93	37.92	-50.5	-51.9	14.6	0.00e+00	0	25	0	1612709888	67	4150
2026-01-08 01:22:22.61	233.81	37.72	-50.7	-52.2	14.5	0.00e+00	0	25	0	1614807040	67	4296
2026-01-08 01:22:23.76	233.65	37.46	-51.2	-52.7	14.2	0.00e+00	0	25	0	1619001344	67	4581
2026-01-08 01:22:24.62	233.53	37.26	-51.6	-53.2	14.2	0.00e+00	0	25	0	1621098496	68	4586
2026-01-08 01:22:25.76	233.37	37.00	-51.6	-53.2	14.1	0.00e+00	0	25	0	1625292800	68	4586
2026-01-08 01:22:26.61	233.26	36.81	-51.3	-52.9	14.3	0.00e+00	0	25	0	1627389952	68	4421
2026-01-08 01:22:27.75	233.11	36.55	-51.0	-52.4	14.5	0.00e+00	0	25	0	1631584256	68	4176
2026-01-08 01:22:28.61	232.99	36.36	-50.3	-51.7	14.7	0.00e+00	0	25	0	1633681408	67	4076
2026-01-08 01:22:29.75	232.85	36.10	-49.9	-51.3	14.7	0.00e+00	0	25	0	1637875712	66	4106
2026-01-08 01:22:30.60	232.74	35.92	-49.9	-51.3	14.7	0.00e+00	0	25	0	1639972864	66	4101
2026-01-08 01:22:31.75	232.59	35.66	-49.8	-51.1	14.8	0.00e+00	0	25	0	1644167168	66	4008
2026-01-08 01:22:32.61	232.49	35.48	-49.8	-51.0	14.9	0.00e+00	0	25	0	1646264320	66	4004
2026-01-08 01:22:33.75	232.35	35.23	-49.9	-51.2	14.8	0.00e+00	0	25	0	1650458624	66	4076
2026-01-08 01:22:34.61	232.24	35.04	-50.0	-51.3	14.7	0.00e+00	0	25	0	1652555776	66	4141
2026-01-08 01:22:35.75	232.11	34.80	-50.1	-51.5	14.7	0.00e+00	0	25	0	1656750080	66	4209
2026-01-08 01:22:36.60	232.01	34.62	-50.1	-51.5	14.7	0.00e+00	0	25	0	1658847232	66	4202
2026-01-08 01:22:37.74	231.88	34.37	-50.0	-51.4	14.7	0.00e+00	0	25	0	1663041536	66	4163
2026-01-08 01:22:38.60	231.78	34.19	-50.0	-51.4	14.7	0.00e+00	0	25	0	1665138688	66	4176
2026-01-08 01:22:39.74	231.65	33.95	-50.0	-51.4	14.7	0.00e+00	0	25	0	1669332992	66	4171
2026-01-08 01:22:40.59	231.55	33.78	-50.0	-51.4	14.7	0.00e+00	0	25	0	1671430144	66	4177
2026-01-08 01:22:41.73	231.43	33.54	-50.1	-51.4	14.7	0.00e+00	0	25	0	1675624448	66	4191
2026-01-08 01:22:42.58	231.34	33.37	-50.1	-51.5	14.7	0.00e+00	0	25	0	1677721600	66	4209
2026-01-08 01:22:43.72	231.22	33.13	-50.0	-51.3	14.7	0.00e+00	0	25	0	1680867328	66	4130
2026-01-08 01:22:44.58	231.12	32.96	-50.0	-51.4	14.7	0.00e+00	0	25	0	1684013056	66	4161
2026-01-08 01:22:45.73	231.00	32.73	-50.1	-51.5	14.6	0.00e+00	0	25	0	1687158784	66	4228
2026-01-08 01:22:46.58	230.92	32.56	-49.9	-51.2	14.8	0.00e+00	0	25	0	1690304512	66	4095
2026-01-08 01:22:47.72	230.80	32.33	-49.8	-51.1	14.8	0.00e+00	0	25	0	1693450240	66	4022
2026-01-08 01:22:48.58	230.71	32.16	-49.7	-51.0	14.9	0.00e+00	0	25	0	1696595968	66	4002
2026-01-08 01:22:49.72	230.60	31.93	-49.4	-50.6	14.9	0.00e+00	0	25	0	1699741696	65	4051
2026-01-08 01:22:50.57	230.52	31.77	-49.3	-50.5	14.9	0.00e+00	0	25	0	1702887424	65	3990
2026-01-08 01:22:51.70	230.41	31.55	-48.7	-49.9	15.0	0.00e+00	0	25	0	1706033152	64	3943
2026-01-08 01:22:52.56	230.33	31.38	-48.5	-49.7	15.0	0.00e+00	0	25	0	1709178880	63	4079
2026-01-08 01:22:53.70	230.22	31.16	-48.5	-49.7	15.0	0.00e+00	0	25	0	1712324608	63	4095
2026-01-08 01:22:54.55	230.14	31.00	-48.5	-49.7	15.0	0.00e+00	0	25	0	1715470336	63	4079
2026-01-08 01:22:55.69	230.03	30.78	-48.4	-49.6	15.0	0.00e+00	0	25	0	1718616064	63	4031
2026-01-08 01:22:56.54	229.96	30.62	-48.3	-49.5	15.1	0.00e+00	0	25	0	1721761792	63	3972
2026-01-08 01:22:57.68	229.86	30.41	-48.4	-49.5	15.0	0.00e+00	0	25	0	1724907520	63	4001
2026-01-08 01:22:58.53	229.78	30.25	-48.4	-49.6	15.0	0.00e+00	0	25	0	1728053248	63	4016
2026-01-08 01:22:59.67	229.68	30.04	-48.6	-49.8	15.0	0.00e+00	0	25	0	1731198976	63	4112
2026-01-08 01:23:00.52	229.61	29.88	-48.6	-49.8	14.9	0.00e+00	0	25	0	1733296128	63	4128
2026-01-08 01:23:01.67	229.51	29.67	-48.6	-49.8	14.9	0.00e+00	0	25	0	1737490432	63	4136
2026-01-08 01:23:02.52	229.43	29.51	-48.6	-49.8	14.9	0.00e+00	0	25	0	1739587584	63	4116
2026-01-08 01:23:03.67	229.34	29.31	-48.6	-49.8	14.9	0.00e+00	0	25	0	1743781888	63	4135
2026-01-08 01:23:04.52	229.27	29.15	-48.7	-49.9	14.9	0.00e+00	0	25	0	1745879040	63	4166
2026-01-08 01:23:05.65	229.18	28.95	-48.8	-50.0	14.9	0.00e+00	0	25	0	1750073344	63	4213
2026-01-08 01:23:06.50	229.11	28.80	-48.9	-50.1	14.9	0.00e+00	0	25	0	1752170496	63	4265
2026-01-08 01:23:07.64	229.02	28.60	-48.9	-50.1	14.9	0.00e+00	0	25	0	1756364800	63	4281
2026-01-08 01:23:08.49	228.95	28.45	-49.0	-50.3	14.8	0.00e+00	0	25	0	1758461952	63	4370
2026-01-08 01:23:09.63	228.86	28.25	-49.0	-50.3	14.8	0.00e+00	0	25	0	1762656256	63	4362
2026-01-08 01:23:10.49	228.79	28.10	-49.1	-50.4	14.7	0.00e+00	0	25	0	1764753408	63	4419
2026-01-08 01:23:11.62	228.71	27.90	-49.1	-50.4	14.7	0.00e+00	0	25	0	1768947712	63	4421
2026-01-08 01:23:12.48	228.64	27.76	-49.1	-50.4	14.7	0.00e+00	0	25	0	1771044864	63	4421
2026-01-08 01:23:13.62	228.56	27.56	-49.2	-50.5	14.7	0.00e+00	0	25	0	1774190592	63	4467
2026-01-08 01:23:14.47	228.49	27.42	-49.0	-50.3	14.8	0.00e+00	0	25	0	1777336320	63	4384
2026-01-08 01:23:15.61	228.41	27.23	-48.9	-50.2	14.8	0.00e+00	0	25	0	1780482048	63	4320
2026-01-08 01:23:16.48	228.35	27.08	-48.8	-50.1	14.9	0.00e+00	0	25	0	1783627776	63	4254
2026-01-08 01:23:17.61	228.27	26.89	-48.7	-50.0	14.9	0.00e+00	0	25	0	1786773504	63	4212
2026-01-08 01:23:18.47	228.20	26.75	-48.7	-49.9	14.9	0.00e+00	0	25	0	1789919232	63	4178
2026-01-08 01:23:19.62	228.12	26.56	-48.6	-49.9	14.9	0.00e+00	0	25	0	1793064960	63	4165
2026-01-08 01:23:20.47	228.07	26.42	-48.5	-49.7	15.0	0.00e+00	0	25	0	1796210688	63	4076
2026-01-08 01:23:21.62	227.99	26.23	-48.4	-49.6	15.1	0.00e+00	0	25	0	1799356416	63	4012
2026-01-08 01:23:22.47	227.93	26.09	-48.4	-49.6	15.0	0.00e+00	0	25	0	1802502144	63	4051
2026-01-08 01:23:23.61	227.85	25.91	-48.2	-49.4	15.1	0.00e+00	0	25	0	1805647872	63	3934
2026-01-08 01:23:24.46	227.80	25.77	-48.1	-49.2	15.0	0.00e+00	0	25	0	1808793600	62	4098
2026-01-08 01:23:25.60	227.72	25.59	-48.0	-49.2	15.1	0.00e+00	0	25	0	1811939328	62	4074
2026-01-08 01:23:26.45	227.67	25.46	-48.0	-49.2	15.1	0.00e+00	0	25	0	1815085056	62	4075
2026-01-08 01:23:27.59	227.59	25.28	-47.9	-49.1	15.1	0.00e+00	0	25	0	1818230784	62	4033
2026-01-08 01:23:28.45	227.54	25.14	-47.9	-49.0	15.1	0.00e+00	0	25	0	1821376512	62	3990
2026-01-08 01:23:29.58	227.47	24.97	-47.9	-49.1	15.1	0.00e+00	0	25	0	1824522240	62	4009
2026-01-08 01:23:30.44	227.41	24.83	-48.0	-49.2	15.1	0.00e+00	0	25	0	1827667968	62	4061
2026-01-08 01:23:31.58	227.34	24.66	-48.0	-49.2	15.1	0.00e+00	0	25	0	1830813696	62	4065
2026-01-08 01:23:32.44	227.29	24.53	-48.0	-49.2	15.1	0.00e+00	0	25	0	1833959424	62	4080
2026-01-08 01:23:33.58	227.22	24.35	-48.1	-49.3	15.0	0.00e+00	0	25	0	1837105152	62	4104
2026-01-08 01:23:34.44	227.17	24.22	-48.2	-49.4	15.0	0.00e+00	0	25	0	1840250880	62	4161
2026-01-08 01:23:35.57	227.10	24.05	-48.2	-49.4	15.0	0.00e+00	0	25	0	1843396608	62	4178
2026-01-08 01:23:36.43	227.05	23.92	-48.3	-49.5	14.9	0.00e+00	0	25	0	1846542336	62	4235
2026-01-08 01:23:37.57	226.99	23.75	-48.4	-49.6	14.9	0.00e+00	0	25	0	1849688064	62	4285
2026-01-08 01:23:38.43	226.94	23.63	-48.4	-49.6	14.9	0.00e+00	0	25	0	1852833792	62	4259
2026-01-08 01:23:39.57	226.87	23.46	-48.4	-49.6	14.9	0.00e+00	0	25	0	1855979520	62	4277
2026-01-08 01:23:40.43	226.82	23.33	-48.5	-49.7	14.9	0.00e+00	0	25	0	1858076672	62	4313
2026-01-08 01:23:41.57	226.76	23.17	-48.4	-49.6	14.9	0.00e+00	0	25	0	1862270976	62	4281
2026-01-08 01:23:42.43	226.71	23.04	-48.4	-49.6	14.9	0.00e+00	0	25	0	1864368128	62	4265
2026-01-08 01:23:43.56	226.65	22.88	-48.3	-49.5	14.9	0.00e+00	0	25	0	1868562432	62	4242
2026-01-08 01:23:44.42	226.60	22.76	-48.4	-49.6	14.9	0.00e+00	0	25	0	1870659584	62	4252
2026-01-08 01:23:45.56	226.54	22.59	-48.4	-49.6	14.9	0.00e+00	0	25	0	1874853888	62	4287
2026-01-08 01:23:46.41	226.50	22.47	-48.5	-49.7	14.9	0.00e+00	0	25	0	1876951040	62	4316
2026-01-08 01:23:47.54	226.44	22.31	-48.5	-49.7	14.9	0.00e+00	0	25	0	1881145344	62	4310
2026-01-08 01:23:48.40	226.39	22.19	-48.4	-49.6	14.9	0.00e+00	0	25	0	1883242496	62	4273
2026-01-08 01:23:49.54	226.33	22.03	-48.5	-49.7	14.9	0.00e+00	0	25	0	1887436800	62	4307
2026-01-08 01:23:50.39	226.29	21.91	-48.5	-49.7	14.9	0.00e+00	0	25	0	1889533952	62	4317
2026-01-08 01:23:51.53	226.23	21.76	-48.5	-49.7	14.9	0.00e+00	0	25	0	1893728256	62	4306
2026-01-08 01:23:52.39	226.19	21.64	-48.5	-49.8	14.8	0.00e+00	0	25	0	1895825408	62	4355
2026-01-08 01:23:53.52	226.13	21.48	-48.5	-49.7	14.9	0.00e+00	0	25	0	1900019712	62	4322
2026-01-08 01:23:54.37	226.09	21.37	-48.5	-49.7	14.9	0.00e+00	0	25	0	1902116864	62	4336
2026-01-08 01:23:55.51	226.04	21.21	-48.6	-49.8	14.8	0.00e+00	0	25	0	1905262592	62	4385
2026-01-08 01:23:56.36	225.99	21.10	-48.6	-49.8	14.8	0.00e+00	0	25	0	1908408320	62	4384
2026-01-08 01:23:57.50	225.94	20.95	-48.7	-49.9	14.8	0.00e+00	0	25	0	1911554048	62	4419
2026-01-08 01:23:58.36	225.90	20.83	-48.6	-49.8	14.8	0.00e+00	0	25	0	1914699776	62	4372
2026-01-08 01:23:59.50	225.85	20.68	-48.6	-49.8	14.8	0.00e+00	0	25	0	1917845504	62	4377
2026-01-08 01:24:00.35	225.81	20.57	-48.6	-49.8	14.8	0.00e+00	0	25	0	1920991232	62	4375
2026-01-08 01:24:01.49	225.75	20.42	-48.5	-49.7	14.8	0.00e+00	0	25	0	1924136960	62	4339
2026-01-08 01:24:02.35	225.71	20.31	-48.5	-49.8	14.8	0.00e+00	0	25	0	1927282688	62	4356
2026-01-08 01:24:03.48	225.66	20.16	-48.5	-49.7	14.8	0.00e+00	0	25	0	1930428416	62	4340
2026-01-08 01:24:04.34	225.62	20.05	-48.5	-49.7	14.8	0.00e+00	0	25	0	1933574144	62	4333
2026-01-08 01:24:05.48	225.57	19.90	-48.6	-49.9	14.8	0.00e+00	0	25	0	1936719872	62	4408
2026-01-08 01:24:06.33	225.54	19.79	-48.5	-49.7	14.9	0.00e+00	0	25	0	1939865600	62	4326
2026-01-08 01:24:07.47	225.49	19.65	-48.5	-49.8	14.8	0.00e+00	0	25	0	1943011328	62	4362
2026-01-08 01:24:08.33	225.45	19.54	-48.6	-49.9	14.8	0.00e+00	0	25	0	1946157056	62	4403
2026-01-08 01:24:09.48	225.40	19.39	-48.5	-49.8	14.8	0.00e+00	0	25	0	1949302784	62	4365
2026-01-08 01:24:10.33	225.36	19.29	-48.6	-49.9	14.8	0.00e+00	0	25	0	1952448512	62	4397
2026-01-08 01:24:11.47	225.31	19.14	-48.6	-49.8	14.8	0.00e+00	0	25	0	1955594240	62	4376
2026-01-08 01:24:12.33	225.28	19.04	-48.6	-49.9	14.8	0.00e+00	0	25	0	1958739968	62	4398
2026-01-08 01:24:13.47	225.23	18.90	-48.6	-49.8	14.8	0.00e+00	0	25	0	1961885696	62	4386
2026-01-08 01:24:14.33	225.20	18.79	-48.6	-49.8	14.8	0.00e+00	0	25	0	1965031424	62	4369
2026-01-08 01:24:15.47	225.15	18.65	-48.6	-49.8	14.8	0.00e+00	0	25	0	1968177152	62	4378
2026-01-08 01:24:16.33	225.11	18.55	-48.6	-49.9	14.8	0.00e+00	0	25	0	1970274304	62	4402
2026-01-08 01:24:17.48	225.07	18.41	-48.6	-49.9	14.8	0.00e+00	0	25	0	1974468608	62	4418
2026-01-08 01:24:18.33	225.03	18.30	-48.7	-49.9	14.7	0.00e+00	0	25	0	1976565760	62	4438
2026-01-08 01:24:19.47	224.99	18.17	-48.6	-49.9	14.8	0.00e+00	0	25	0	1980760064	62	4424
2026-01-08 01:24:20.34	224.95	18.06	-48.6	-49.9	14.8	0.00e+00	0	25	0	1982857216	62	4408
2026-01-08 01:24:21.48	224.91	17.93	-48.7	-50.0	14.7	0.00e+00	0	25	0	1987051520	62	4478
2026-01-08 01:24:22.33	224.88	17.83	-48.7	-49.9	14.8	0.00e+00	0	25	0	1989148672	62	4429
2026-01-08 01:24:23.47	224.83	17.69	-48.7	-50.0	14.7	0.00e+00	0	25	0	1993342976	62	4462
2026-01-08 01:24:24.33	224.80	17.59	-48.7	-50.0	14.7	0.00e+00	0	25	0	1995440128	62	4450
2026-01-08 01:24:25.47	224.76	17.46	-48.8	-50.1	14.7	0.00e+00	0	25	0	1999634432	62	4529
2026-01-08 01:24:26.32	224.73	17.36	-48.8	-50.1	14.7	0.00e+00	0	25	0	2001731584	62	4526
2026-01-08 01:24:27.46	224.69	17.23	-48.8	-50.1	14.7	0.00e+00	0	25	0	2005925888	62	4529
2026-01-08 01:24:28.32	224.65	17.13	-48.9	-50.1	14.8	0.00e+00	0	25	0	2008023040	63	4287
2026-01-08 01:24:29.46	224.61	17.00	-49.0	-50.3	14.7	0.00e+00	0	25	0	2012217344	63	4349
2026-01-08 01:24:30.32	224.58	16.90	-48.9	-50.2	14.7	0.00e+00	0	25	0	2014314496	63	4333
2026-01-08 01:24:31.46	224.54	16.77	-48.9	-50.2	14.8	0.00e+00	0	25	0	2017460224	63	4314
2026-01-08 01:24:32.31	224.51	16.67	-49.0	-50.3	14.7	0.00e+00	0	25	0	2020605952	63	4360
