passes_logs/2026/01/08/R3.2S_Murmansk/R3.2S_Murmansk__20260108_111216_2024-110A_rec.log

#Pass ID: 20260108_111216_2024-110A
#Satellite: 2024-110A
#Configuration: 01B_900M
#almurnet v.1.7.20251203
#Start time: 2026-01-08 11:12:17

#Version: 2.2.20231116
#Station: R3.2S_Murmansk
#Location: 33.079688 lon 68.888172 lat
#TLE: 1 60012U 24110A   26007.98708826  .00007025  00000+0  42665-3 0  9999
#TLE: 2 60012  97.5753 101.0637 0010585  88.1984 272.0458 15.10762756 87702

#Time	Az	El	Level	Level2	SNR	BER	BlckErr	Temp	State	Recorded	gain1	gain2
2026-01-08 11:12:17.08	21.91	2.07	-57.1	-60.3	6.1	0.00e+00	0	25	0	0	81	20296
2026-01-08 11:12:18.09	21.89	2.14	-57.1	-60.4	6.2	0.00e+00	0	25	104	0	81	20416
2026-01-08 11:12:19.10	21.87	2.21	-57.1	-60.4	6.2	0.00e+00	0	25	104	0	81	20417
2026-01-08 11:12:20.10	21.85	2.28	-57.1	-60.3	6.2	0.00e+00	0	25	104	0	81	20290
2026-01-08 11:12:21.11	21.82	2.35	-57.1	-60.3	6.2	0.00e+00	0	25	104	0	81	20276
2026-01-08 11:12:22.13	21.80	2.42	-57.0	-60.3	6.2	0.00e+00	0	25	104	0	81	20271
2026-01-08 11:12:23.14	21.78	2.49	-57.0	-60.3	6.2	0.00e+00	0	25	104	0	81	20250
2026-01-08 11:12:24.15	21.76	2.56	-57.0	-60.3	6.2	0.00e+00	0	25	104	0	81	20246
2026-01-08 11:12:25.15	21.73	2.63	-57.0	-60.3	6.2	0.00e+00	0	25	104	0	81	20252
2026-01-08 11:12:26.16	21.71	2.70	-57.0	-60.3	6.2	0.00e+00	0	25	104	0	81	20267
2026-01-08 11:12:27.17	21.69	2.78	-57.0	-60.3	6.2	0.00e+00	0	25	104	0	81	20269
2026-01-08 11:12:28.18	21.67	2.85	-57.1	-60.3	6.2	0.00e+00	0	25	104	0	81	20282
2026-01-08 11:12:29.18	21.64	2.92	-57.1	-60.3	6.2	0.00e+00	0	25	104	0	81	20380
2026-01-08 11:12:30.19	21.62	2.99	-57.1	-60.3	6.2	0.00e+00	0	26	104	0	81	20331
2026-01-08 11:12:31.20	21.59	3.06	-57.1	-60.3	6.2	0.00e+00	0	25	104	0	81	20332
2026-01-08 11:12:32.21	21.57	3.14	-57.1	-60.3	6.2	0.00e+00	0	25	104	0	81	20313
2026-01-08 11:12:33.22	21.55	3.21	-57.1	-60.3	6.2	0.00e+00	0	26	104	0	81	20322
2026-01-08 11:12:34.22	21.52	3.28	-57.1	-60.3	6.2	0.00e+00	0	26	104	0	81	20353
2026-01-08 11:12:35.23	21.50	3.36	-57.1	-60.4	6.2	0.00e+00	0	26	104	0	81	20400
2026-01-08 11:12:36.24	21.47	3.43	-57.1	-60.3	6.2	0.00e+00	0	26	104	0	81	20347
2026-01-08 11:12:37.24	21.45	3.50	-57.1	-60.3	6.2	0.00e+00	0	26	104	0	81	20373
2026-01-08 11:12:38.25	21.42	3.58	-57.1	-60.3	6.2	0.00e+00	0	26	104	0	81	20328
2026-01-08 11:12:39.25	21.40	3.65	-57.1	-60.3	6.2	0.00e+00	0	26	104	0	81	20335
2026-01-08 11:12:40.26	21.37	3.73	-57.1	-60.3	6.2	0.00e+00	0	26	104	0	81	20355
2026-01-08 11:12:41.27	21.35	3.80	-57.1	-60.3	6.2	0.00e+00	0	26	104	0	81	20314
2026-01-08 11:12:42.28	21.32	3.88	-57.1	-60.4	6.2	0.00e+00	0	26	104	0	81	20413
2026-01-08 11:12:43.29	21.30	3.95	-57.1	-60.3	6.2	0.00e+00	0	26	104	0	81	20338
2026-01-08 11:12:44.30	21.27	4.03	-57.1	-60.3	6.2	0.00e+00	0	26	104	0	81	20383
2026-01-08 11:12:45.30	21.24	4.10	-57.1	-60.3	6.2	0.00e+00	0	26	104	0	81	20379
2026-01-08 11:12:46.31	21.22	4.18	-57.1	-60.4	6.2	0.00e+00	0	26	104	0	81	20413
2026-01-08 11:12:47.32	21.19	4.26	-57.1	-60.3	6.2	0.00e+00	0	26	104	0	81	20384
2026-01-08 11:12:48.33	21.16	4.33	-57.1	-60.3	6.2	0.00e+00	0	26	104	0	81	20290
2026-01-08 11:12:49.34	21.14	4.41	-57.1	-60.3	6.2	0.00e+00	0	26	104	0	81	20394
2026-01-08 11:12:50.35	21.11	4.49	-57.1	-60.3	6.2	0.00e+00	0	26	104	0	81	20302
2026-01-08 11:12:51.35	21.08	4.57	-57.1	-60.3	6.2	0.00e+00	0	26	104	0	81	20342
2026-01-08 11:12:52.36	21.05	4.64	-57.1	-60.3	6.2	0.00e+00	0	26	104	0	81	20319
2026-01-08 11:12:53.37	21.03	4.72	-57.1	-60.3	6.2	0.00e+00	0	26	104	0	81	20324
2026-01-08 11:12:54.38	21.00	4.80	-57.1	-60.3	6.2	0.00e+00	0	26	104	0	81	20259
2026-01-08 11:12:55.38	20.97	4.88	-57.1	-60.3	6.2	0.00e+00	0	26	104	0	81	20321
2026-01-08 11:12:56.39	20.94	4.96	-57.1	-60.3	6.2	0.00e+00	0	26	104	0	81	20353
2026-01-08 11:12:57.40	20.91	5.04	-57.1	-60.3	6.2	0.00e+00	0	26	104	0	81	20351
2026-01-08 11:12:58.41	20.88	5.12	-57.2	-60.4	6.2	0.00e+00	0	27	104	0	81	20486
2026-01-08 11:12:59.41	20.85	5.20	-57.2	-60.4	6.2	0.00e+00	0	26	104	0	81	20532
2026-01-08 11:13:00.42	20.82	5.28	-57.1	-60.3	6.2	0.00e+00	0	26	104	0	81	20378
2026-01-08 11:13:01.43	20.80	5.36	-57.2	-60.4	6.2	0.00e+00	0	26	104	0	81	20513
2026-01-08 11:13:02.43	20.77	5.44	-57.2	-60.4	6.2	0.00e+00	0	26	104	0	81	20496
2026-01-08 11:13:03.44	20.74	5.52	-57.2	-60.4	6.2	0.00e+00	0	27	104	0	81	20522
2026-01-08 11:13:04.44	20.71	5.60	-57.2	-60.4	6.2	0.00e+00	0	26	104	0	81	20415
2026-01-08 11:13:05.44	20.67	5.68	-57.2	-60.4	6.2	0.00e+00	0	26	104	0	81	20482
2026-01-08 11:13:06.45	20.64	5.76	-57.2	-60.4	6.2	0.00e+00	0	26	104	0	81	20535
2026-01-08 11:13:07.45	20.61	5.85	-57.2	-60.4	6.2	0.00e+00	0	26	104	0	81	20619
2026-01-08 11:13:08.46	20.58	5.93	-57.2	-60.4	6.2	0.00e+00	0	26	104	0	81	20548
2026-01-08 11:13:09.46	20.55	6.01	-57.2	-60.4	6.2	0.00e+00	0	27	104	0	81	20583
2026-01-08 11:13:10.46	20.52	6.09	-57.2	-60.5	6.2	0.00e+00	0	26	104	0	81	20656
2026-01-08 11:13:11.47	20.49	6.18	-57.3	-60.5	6.2	0.00e+00	0	26	104	0	81	20728
2026-01-08 11:13:12.48	20.45	6.26	-57.2	-60.5	6.2	0.00e+00	0	27	104	0	81	20641
2026-01-08 11:13:13.48	20.42	6.35	-57.2	-60.5	6.2	0.00e+00	0	27	104	0	81	20706
2026-01-08 11:13:14.49	20.39	6.43	-57.3	-60.5	6.2	0.00e+00	0	27	104	0	81	20769
2026-01-08 11:13:15.49	20.36	6.52	-57.3	-60.5	6.2	0.00e+00	0	26	104	0	81	20864
2026-01-08 11:13:16.50	20.32	6.60	-57.3	-60.5	6.2	0.00e+00	0	27	104	0	81	20704
2026-01-08 11:13:17.50	20.29	6.69	-57.3	-60.5	6.2	0.00e+00	0	26	104	0	81	20755
2026-01-08 11:13:18.50	20.25	6.77	-57.3	-60.5	6.2	0.00e+00	0	27	104	0	81	20798
2026-01-08 11:13:19.51	20.22	6.86	-57.3	-60.5	6.2	0.00e+00	0	27	104	0	81	20840
2026-01-08 11:13:20.51	20.19	6.94	-57.3	-60.5	6.2	0.00e+00	0	27	104	0	81	20798
2026-01-08 11:13:21.52	20.15	7.03	-57.3	-60.5	6.2	0.00e+00	0	27	104	0	81	20824
2026-01-08 11:13:22.52	20.12	7.12	-57.3	-60.6	6.2	0.00e+00	0	27	104	0	81	20892
2026-01-08 11:13:23.53	20.08	7.21	-57.3	-60.5	6.2	0.00e+00	0	27	104	0	81	20852
2026-01-08 11:13:24.53	20.05	7.30	-57.3	-60.6	6.2	0.00e+00	0	27	104	0	81	20892
2026-01-08 11:13:25.54	20.01	7.38	-57.3	-60.6	6.2	0.00e+00	0	27	104	0	81	20972
2026-01-08 11:13:26.55	19.97	7.47	-57.4	-60.6	6.2	0.00e+00	0	27	104	0	81	21015
2026-01-08 11:13:27.55	19.94	7.56	-57.4	-60.6	6.2	0.00e+00	0	27	104	0	81	21057
2026-01-08 11:13:28.55	19.90	7.65	-57.3	-60.6	6.2	0.00e+00	0	27	104	0	81	20930
2026-01-08 11:13:29.56	19.86	7.74	-57.4	-60.6	6.2	0.00e+00	0	27	104	0	81	20998
2026-01-08 11:13:30.56	19.83	7.83	-57.4	-60.6	6.2	0.00e+00	0	27	104	0	81	21076
2026-01-08 11:13:31.56	19.79	7.92	-57.4	-60.6	6.2	0.00e+00	0	27	104	0	81	21015
2026-01-08 11:13:32.58	19.75	8.02	-57.3	-60.5	6.2	0.00e+00	0	27	104	0	81	20855
2026-01-08 11:13:33.58	19.71	8.11	-57.4	-60.6	6.2	0.00e+00	0	27	104	0	81	21000
2026-01-08 11:13:34.59	19.67	8.20	-57.4	-60.7	6.2	0.00e+00	0	27	104	0	81	21151
2026-01-08 11:13:35.59	19.63	8.29	-57.4	-60.6	6.2	0.00e+00	0	27	104	0	81	21034
2026-01-08 11:13:36.59	19.59	8.39	-57.3	-60.5	6.2	0.00e+00	0	27	104	0	81	20726
2026-01-08 11:13:37.60	19.55	8.48	-57.4	-60.6	6.2	0.00e+00	0	27	104	0	81	20991
2026-01-08 11:13:38.61	19.51	8.58	-57.5	-60.7	6.2	0.00e+00	0	27	104	0	81	21240
2026-01-08 11:13:39.62	19.47	8.67	-57.4	-60.6	6.2	0.00e+00	0	27	104	0	81	20909
2026-01-08 11:13:40.63	19.43	8.77	-57.2	-60.4	6.2	0.00e+00	0	27	104	0	81	20447
2026-01-08 11:13:41.63	19.39	8.86	-57.4	-60.6	6.1	0.00e+00	0	27	104	0	81	20973
2026-01-08 11:13:42.63	19.35	8.96	-57.5	-60.7	6.2	0.00e+00	0	27	104	0	81	21209
2026-01-08 11:13:43.64	19.31	9.05	-57.4	-60.6	6.2	0.00e+00	0	27	104	0	81	20898
2026-01-08 11:13:44.65	19.27	9.15	-57.0	-60.1	6.2	0.00e+00	0	27	104	0	81	19844
2026-01-08 11:13:45.65	19.22	9.25	-57.3	-60.5	6.2	0.00e+00	0	27	104	0	80	22056
2026-01-08 11:13:46.66	19.18	9.35	-57.0	-60.1	6.2	0.00e+00	0	27	104	0	80	20931
2026-01-08 11:13:47.66	19.14	9.44	-56.7	-59.7	6.2	0.00e+00	0	27	104	0	80	20047
2026-01-08 11:13:48.66	19.09	9.54	-56.8	-59.8	6.2	0.00e+00	0	27	104	0	80	20216
2026-01-08 11:13:49.67	19.05	9.64	-57.3	-60.4	6.2	0.00e+00	0	27	104	0	80	21735
2026-01-08 11:13:50.68	19.00	9.74	-56.8	-59.8	6.2	0.00e+00	0	27	104	0	80	20243
2026-01-08 11:13:51.68	18.96	9.84	-57.3	-60.5	6.2	0.00e+00	0	27	104	0	80	21971
2026-01-08 11:13:52.69	18.91	9.94	-57.0	-60.0	6.2	0.00e+00	0	27	104	0	80	20720
2026-01-08 11:13:53.69	18.87	10.04	-57.3	-60.5	6.2	0.00e+00	0	27	104	0	80	21993
2026-01-08 11:13:54.70	18.82	10.15	-57.1	-60.2	6.1	0.00e+00	0	27	104	0	80	21281
2026-01-08 11:13:55.70	18.78	10.25	-57.1	-60.2	6.2	0.00e+00	0	27	104	0	80	21148
2026-01-08 11:13:56.71	18.73	10.35	-57.2	-60.3	6.2	0.00e+00	0	27	104	0	80	21524
2026-01-08 11:13:57.71	18.68	10.45	-57.3	-60.3	6.2	0.00e+00	0	27	104	0	80	21557
2026-01-08 11:13:58.71	18.63	10.56	-57.4	-60.5	6.2	0.00e+00	0	27	104	0	80	22088
2026-01-08 11:13:59.72	18.58	10.66	-57.3	-60.4	6.2	0.00e+00	0	27	104	0	80	21652
2026-01-08 11:14:00.73	18.54	10.77	-57.0	-60.0	6.2	0.00e+00	0	27	104	0	80	20635
2026-01-08 11:14:01.73	18.49	10.87	-57.6	-60.8	6.2	0.00e+00	0	27	104	0	80	22684
2026-01-08 11:14:02.74	18.44	10.98	-57.2	-60.3	6.2	0.00e+00	0	27	104	0	80	21536
2026-01-08 11:14:03.75	18.39	11.09	-57.2	-60.4	6.2	0.00e+00	0	27	104	0	80	21632
2026-01-08 11:14:04.75	18.34	11.19	-57.3	-60.4	6.2	0.00e+00	0	27	104	0	80	21705
2026-01-08 11:14:05.76	18.28	11.30	-57.6	-60.7	6.2	0.00e+00	0	27	104	0	80	22581
2026-01-08 11:14:06.77	18.23	11.41	-57.5	-60.7	6.2	0.00e+00	0	27	104	0	80	22488
2026-01-08 11:14:07.77	18.18	11.52	-57.7	-60.9	6.1	0.00e+00	0	27	104	0	81	21731
2026-01-08 11:14:08.77	18.13	11.63	-57.7	-61.0	6.2	0.00e+00	0	27	104	0	81	21903
2026-01-08 11:14:09.78	18.08	11.74	-57.7	-60.9	6.1	0.00e+00	0	27	104	0	81	21646
2026-01-08 11:14:10.78	18.02	11.85	-57.7	-60.9	6.1	0.00e+00	0	27	104	0	81	21737
2026-01-08 11:14:11.79	17.97	11.96	-57.7	-60.9	6.2	0.00e+00	0	27	104	0	81	21766
2026-01-08 11:14:12.79	17.91	12.07	-57.7	-60.9	6.2	0.00e+00	0	27	104	0	81	21848
2026-01-08 11:14:13.79	17.86	12.19	-57.7	-60.9	6.2	0.00e+00	0	27	104	0	81	21785
2026-01-08 11:14:14.80	17.80	12.30	-57.8	-61.0	6.2	0.00e+00	0	27	104	0	81	21973
2026-01-08 11:14:15.81	17.75	12.42	-57.7	-61.0	6.2	0.00e+00	0	27	104	0	81	21863
2026-01-08 11:14:16.81	17.69	12.53	-57.7	-61.0	6.2	0.00e+00	0	27	104	0	81	21996
2026-01-08 11:14:17.82	17.63	12.65	-57.7	-61.0	6.2	0.00e+00	0	27	104	0	81	21895
2026-01-08 11:14:18.83	17.57	12.76	-57.8	-61.0	6.2	0.00e+00	0	27	104	0	81	22035
2026-01-08 11:14:19.84	17.51	12.88	-57.7	-61.0	6.2	0.00e+00	0	27	104	0	81	21944
2026-01-08 11:14:20.84	17.45	13.00	-57.8	-61.0	6.2	0.00e+00	0	27	104	0	81	22041
2026-01-08 11:14:21.84	17.40	13.11	-57.8	-61.0	6.2	0.00e+00	0	27	104	0	81	22018
2026-01-08 11:14:22.85	17.33	13.23	-57.8	-61.1	6.1	0.00e+00	0	27	104	0	81	22180
2026-01-08 11:14:23.86	17.27	13.35	-57.8	-61.0	6.1	0.00e+00	0	27	104	0	81	22026
2026-01-08 11:14:24.86	17.21	13.47	-57.8	-61.0	6.2	0.00e+00	0	27	104	0	81	22048
2026-01-08 11:14:25.86	17.15	13.60	-57.5	-60.6	6.2	0.00e+00	0	27	104	0	80	22131
2026-01-08 11:14:26.86	17.09	13.72	-55.5	-57.2	6.7	0.00e+00	0	27	104	0	78	16849
2026-01-08 11:14:27.87	17.02	13.84	-54.7	-56.1	7.0	0.00e+00	0	27	104	0	76	16680
2026-01-08 11:14:28.87	16.96	13.96	-54.4	-55.7	7.2	0.00e+00	0	27	104	0	76	15951
2026-01-08 11:14:29.87	16.89	14.09	-55.1	-56.7	6.8	0.00e+00	0	27	104	0	75	18893
2026-01-08 11:14:30.88	16.83	14.21	-54.6	-56.0	7.0	0.00e+00	0	28	104	0	75	17429
2026-01-08 11:14:31.88	16.76	14.34	-57.6	-60.7	6.2	0.00e+00	0	27	104	0	80	22372
2026-01-08 11:14:32.88	16.70	14.46	-57.7	-60.7	6.2	0.00e+00	0	27	104	0	81	21270
2026-01-08 11:14:33.89	16.63	14.59	-55.7	-57.5	6.6	0.00e+00	0	27	104	0	77	18572
2026-01-08 11:14:34.89	16.56	14.72	-54.9	-56.3	6.9	0.00e+00	0	27	104	0	77	16169
2026-01-08 11:14:35.89	16.49	14.85	-42.7	-43.0	10.1	7.61e-03	0	27	104	0	52	14623
2026-01-08 11:14:36.90	16.42	14.98	-42.1	-42.3	13.0	5.34e-05	0	28	0	67108864	51	14413
2026-01-08 11:14:37.91	16.35	15.11	-41.6	-41.8	13.1	3.05e-05	0	28	0	184549376	50	14435
2026-01-08 11:14:38.91	16.28	15.24	-41.2	-41.4	13.2	2.28e-05	0	28	0	293601280	49	14512
2026-01-08 11:14:39.92	16.21	15.37	-41.1	-41.3	13.2	1.90e-05	0	28	0	402653184	49	14397
2026-01-08 11:14:40.92	16.13	15.50	-41.2	-41.4	13.2	1.71e-05	0	28	0	520093696	49	14510
2026-01-08 11:14:41.93	16.06	15.64	-41.0	-41.2	13.3	1.90e-05	0	28	0	637534208	49	14266
2026-01-08 11:14:42.94	15.98	15.78	-40.6	-40.9	13.3	7.60e-06	0	28	0	746586112	48	14474
2026-01-08 11:14:43.95	15.91	15.91	-40.6	-40.8	13.4	1.14e-05	0	28	0	864026624	48	14409
2026-01-08 11:14:44.95	15.83	16.05	-40.5	-40.8	13.4	3.80e-06	0	28	0	973078528	48	14298
2026-01-08 11:14:45.96	15.76	16.19	-40.6	-40.8	13.4	7.60e-06	0	28	0	1082130432	48	14372
2026-01-08 11:14:46.97	15.68	16.33	-40.4	-40.7	13.5	3.80e-06	0	28	0	1199570944	48	14114
2026-01-08 11:14:47.97	15.60	16.47	-40.5	-40.7	13.4	9.50e-06	0	28	0	1308622848	48	14193
2026-01-08 11:14:48.98	15.52	16.61	-40.4	-40.6	13.5	1.90e-06	0	28	0	1426063360	48	14051
2026-01-08 11:14:49.99	15.44	16.75	-40.4	-40.7	13.5	1.90e-06	0	28	0	1543503872	48	14135
2026-01-08 11:14:50.99	15.36	16.89	-39.5	-39.7	13.3	1.14e-05	0	28	0	1652555776	46	14266
2026-01-08 11:14:52.00	15.27	17.03	-39.3	-39.5	13.3	1.33e-05	0	28	0	1761607680	45	14700
2026-01-08 11:14:53.01	15.19	17.18	-39.3	-39.6	13.3	1.33e-05	0	28	0	1879048192	45	14777
2026-01-08 11:14:54.01	15.11	17.33	-39.3	-39.6	13.3	1.14e-05	0	28	0	1988100096	45	14833
2026-01-08 11:14:55.01	15.02	17.47	-39.2	-39.5	13.4	3.80e-06	0	28	0	2105540608	45	14608
2026-01-08 11:14:56.01	14.93	17.62	-39.1	-39.3	13.4	3.80e-06	0	28	0	2214592512	45	14385
2026-01-08 11:14:57.02	14.85	17.77	-39.1	-39.4	13.4	5.70e-06	0	28	0	2332033024	45	14455
2026-01-08 11:14:58.02	14.76	17.92	-39.0	-39.2	13.5	3.80e-06	0	28	0	2441084928	45	14253
2026-01-08 11:14:59.02	14.67	18.07	-39.0	-39.2	13.5	7.60e-06	0	28	0	2550136832	45	14188
2026-01-08 11:15:00.03	14.58	18.22	-38.9	-39.1	13.5	5.70e-06	0	28	0	2675965952	45	14052
2026-01-08 11:15:01.04	14.49	18.37	-38.8	-39.1	13.4	3.80e-06	0	28	0	2785017856	44	14829
2026-01-08 11:15:02.04	14.39	18.53	-38.8	-39.1	13.4	1.90e-06	0	28	0	2894069760	44	14781
2026-01-08 11:15:03.05	14.30	18.68	-38.9	-39.1	13.4	1.90e-06	0	28	0	3011510272	44	14933
2026-01-08 11:15:04.06	14.20	18.84	-38.7	-39.0	13.5	5.70e-06	0	28	0	3120562176	44	14643
2026-01-08 11:15:05.06	14.11	19.00	-38.7	-38.9	13.5	5.70e-06	0	28	0	3238002688	44	14502
2026-01-08 11:15:06.06	14.01	19.16	-38.7	-38.9	13.5	3.80e-06	0	28	0	3347054592	44	14480
2026-01-08 11:15:07.06	13.91	19.31	-38.6	-38.8	13.5	3.80e-06	0	28	0	3456106496	44	14385
2026-01-08 11:15:08.07	13.81	19.48	-38.4	-38.7	13.6	1.90e-06	0	28	0	3573547008	44	14125
2026-01-08 11:15:09.07	13.71	19.64	-38.4	-38.6	13.7	3.80e-06	0	28	0	3682598912	44	14061
2026-01-08 11:15:10.07	13.61	19.80	-38.4	-38.6	13.6	7.60e-06	0	28	0	3800039424	44	14062
2026-01-08 11:15:11.08	13.51	19.97	-38.2	-38.4	13.6	1.90e-06	0	28	0	3917479936	43	14591
2026-01-08 11:15:12.09	13.40	20.13	-38.2	-38.4	13.6	0.00e+00	0	28	0	4026531840	43	14527
2026-01-08 11:15:13.09	13.29	20.30	-38.2	-38.4	13.6	1.90e-06	0	28	0	4143972352	43	14535
2026-01-08 11:15:14.09	13.19	20.47	-38.2	-38.4	13.6	5.70e-06	0	28	0	4253024256	43	14489
2026-01-08 11:15:15.10	13.08	20.64	-38.0	-38.3	13.7	3.80e-06	0	28	0	4362076160	43	14281
2026-01-08 11:15:16.10	12.97	20.81	-37.8	-38.0	13.6	0.00e+00	0	28	0	4479516672	42	14771
2026-01-08 11:15:17.11	12.85	20.98	-37.8	-38.1	13.6	0.00e+00	0	28	0	4588568576	42	14833
2026-01-08 11:15:18.11	12.74	21.16	-37.7	-37.9	13.7	1.90e-06	0	28	0	4706009088	42	14546
2026-01-08 11:15:19.11	12.63	21.33	-37.7	-37.9	13.7	1.90e-06	0	28	0	4815060992	42	14545
2026-01-08 11:15:20.12	12.51	21.51	-37.6	-37.8	13.7	1.90e-06	0	28	0	4924112896	42	14390
2026-01-08 11:15:21.12	12.39	21.69	-37.5	-37.7	13.7	3.80e-06	0	28	0	5041553408	42	14223
2026-01-08 11:15:22.12	12.27	21.86	-37.5	-37.7	13.7	0.00e+00	0	28	0	5150605312	42	14271
2026-01-08 11:15:23.12	12.15	22.04	-37.4	-37.6	13.8	3.80e-06	0	28	0	5268045824	42	14012
2026-01-08 11:15:24.13	12.03	22.23	-37.3	-37.5	13.7	0.00e+00	0	28	0	5385486336	41	14673
2026-01-08 11:15:25.13	11.91	22.41	-37.3	-37.5	13.7	1.90e-06	0	28	0	5494538240	41	14718
2026-01-08 11:15:26.14	11.78	22.60	-37.2	-37.4	13.7	0.00e+00	0	28	0	5611978752	41	14544
2026-01-08 11:15:27.14	11.65	22.78	-37.2	-37.4	13.7	0.00e+00	0	28	0	5721030656	41	14590
2026-01-08 11:15:28.15	11.52	22.97	-37.1	-37.3	13.8	0.00e+00	0	28	0	5830082560	41	14437
2026-01-08 11:15:29.15	11.39	23.16	-37.0	-37.2	13.8	1.90e-06	0	28	0	5947523072	41	14135
2026-01-08 11:15:30.16	11.26	23.35	-36.9	-37.1	13.9	0.00e+00	0	28	0	6056574976	41	14098
2026-01-08 11:15:31.17	11.12	23.55	-36.9	-37.1	13.9	0.00e+00	0	28	0	6174015488	41	14040
2026-01-08 11:15:32.17	10.98	23.74	-36.9	-37.1	13.9	0.00e+00	0	28	0	6283067392	41	13989
2026-01-08 11:15:33.17	10.85	23.94	-36.7	-37.0	13.8	0.00e+00	0	28	0	6392119296	40	14635
2026-01-08 11:15:34.17	10.71	24.13	-36.9	-37.1	13.8	0.00e+00	0	28	0	6509559808	40	14833
2026-01-08 11:15:35.18	10.56	24.34	-36.6	-36.9	13.8	0.00e+00	0	28	0	6618611712	40	14453
2026-01-08 11:15:36.18	10.42	24.54	-36.7	-36.9	13.8	0.00e+00	0	28	0	6736052224	40	14473
2026-01-08 11:15:37.19	10.27	24.74	-36.5	-36.7	13.9	1.90e-06	0	28	0	6853492736	40	14269
2026-01-08 11:15:38.19	10.12	24.94	-36.3	-36.6	13.8	0.00e+00	0	28	0	6962544640	39	14788
2026-01-08 11:15:39.19	9.97	25.15	-36.3	-36.5	13.9	0.00e+00	0	28	0	7079985152	39	14733
2026-01-08 11:15:40.20	9.81	25.36	-36.2	-36.4	13.9	0.00e+00	0	28	0	7189037056	39	14598
2026-01-08 11:15:41.20	9.66	25.57	-36.2	-36.4	13.9	0.00e+00	0	28	0	7298088960	39	14479
2026-01-08 11:15:42.21	9.50	25.78	-36.1	-36.4	13.9	0.00e+00	0	28	0	7415529472	39	14466
2026-01-08 11:15:43.21	9.34	25.99	-36.0	-36.2	14.0	0.00e+00	0	28	0	7524581376	39	14196
2026-01-08 11:15:44.22	9.17	26.21	-36.1	-36.3	14.0	0.00e+00	0	28	0	7642021888	39	14393
2026-01-08 11:15:45.23	9.01	26.43	-35.8	-36.0	13.9	0.00e+00	0	28	0	7751073792	38	14729
2026-01-08 11:15:46.23	8.84	26.64	-35.8	-36.0	13.9	0.00e+00	0	28	0	7868514304	38	14753
2026-01-08 11:15:47.23	8.67	26.86	-35.8	-36.0	13.9	0.00e+00	0	28	0	7977566208	38	14721
2026-01-08 11:15:48.23	8.50	27.08	-35.7	-36.0	13.9	0.00e+00	0	28	0	8095006720	38	14614
2026-01-08 11:15:49.23	8.32	27.31	-35.6	-35.8	14.0	0.00e+00	0	28	0	8204058624	38	14301
2026-01-08 11:15:50.24	8.14	27.54	-35.5	-35.8	14.0	0.00e+00	0	28	0	8321499136	38	14279
2026-01-08 11:15:51.25	7.96	27.76	-35.5	-35.7	14.1	0.00e+00	0	28	0	8430551040	38	14201
2026-01-08 11:15:52.25	7.77	27.99	-35.5	-35.7	14.1	0.00e+00	0	29	0	8547991552	38	14210
2026-01-08 11:15:53.25	7.59	28.23	-35.5	-35.7	14.1	0.00e+00	0	28	0	8657043456	38	14211
2026-01-08 11:15:54.25	7.40	28.46	-35.2	-35.4	14.0	0.00e+00	0	28	0	8766095360	37	14574
2026-01-08 11:15:55.26	7.20	28.70	-35.3	-35.5	14.0	0.00e+00	0	28	0	8883535872	37	14622
2026-01-08 11:15:56.26	7.00	28.93	-35.2	-35.5	14.0	0.00e+00	0	28	0	8992587776	37	14616
2026-01-08 11:15:57.25	6.81	29.17	-35.0	-35.2	14.1	0.00e+00	0	28	0	9110028288	37	14127
2026-01-08 11:15:58.25	6.60	29.41	-34.8	-35.0	14.0	0.00e+00	0	28	0	9219080192	36	14729
2026-01-08 11:15:59.25	6.40	29.65	-34.9	-35.1	14.0	0.00e+00	0	28	0	9328132096	36	14851
2026-01-08 11:16:00.26	6.19	29.90	-34.7	-34.9	14.1	0.00e+00	0	29	0	9445572608	36	14530
2026-01-08 11:16:01.27	5.97	30.15	-34.6	-34.8	14.1	0.00e+00	0	29	0	9554624512	36	14308
2026-01-08 11:16:02.26	5.75	30.40	-34.6	-34.8	14.1	0.00e+00	0	28	0	9672065024	36	14380
2026-01-08 11:16:03.28	5.53	30.65	-34.5	-34.7	14.2	0.00e+00	0	28	0	9781116928	36	14204
2026-01-08 11:16:04.28	5.31	30.91	-34.5	-34.7	14.2	0.00e+00	0	29	0	9890168832	36	14241
2026-01-08 11:16:05.28	5.08	31.16	-32.1	-32.3	14.3	0.00e+00	0	29	0	10015997952	35	11453
2026-01-08 11:16:06.29	4.84	31.42	-31.7	-31.9	14.0	0.00e+00	0	29	0	10125049856	30	14570
2026-01-08 11:16:07.30	4.60	31.69	-31.6	-31.8	14.1	0.00e+00	0	29	0	10234101760	30	14418
2026-01-08 11:16:08.31	4.36	31.95	-31.6	-31.8	14.1	0.00e+00	0	28	0	10351542272	30	14433
2026-01-08 11:16:09.32	4.11	32.22	-31.4	-31.6	14.1	0.00e+00	0	28	0	10460594176	30	14109
2026-01-08 11:16:10.32	3.86	32.48	-31.4	-31.6	14.2	0.00e+00	0	29	0	10578034688	30	14026
2026-01-08 11:16:11.32	3.61	32.75	-31.2	-31.5	14.1	0.00e+00	0	29	0	10687086592	29	14614
2026-01-08 11:16:12.32	3.35	33.02	-31.1	-31.4	14.1	0.00e+00	0	29	0	10804527104	29	14464
2026-01-08 11:16:13.32	3.09	33.30	-31.0	-31.2	14.2	0.00e+00	0	28	0	10913579008	29	14205
2026-01-08 11:16:14.33	2.82	33.57	-31.0	-31.3	14.1	0.00e+00	0	28	0	11031019520	29	14326
2026-01-08 11:16:15.34	2.54	33.85	-31.0	-31.2	14.2	0.00e+00	0	29	0	11140071424	29	14241
2026-01-08 11:16:16.34	2.26	34.13	-30.8	-31.0	14.1	0.00e+00	0	28	0	11257511936	28	14747
2026-01-08 11:16:17.34	1.98	34.42	-30.8	-31.1	14.1	0.00e+00	0	29	0	11366563840	28	14800
2026-01-08 11:16:18.35	1.69	34.70	-30.6	-30.8	14.2	0.00e+00	0	29	0	11484004352	28	14372
2026-01-08 11:16:19.35	1.39	34.99	-30.5	-30.7	14.2	0.00e+00	0	28	0	11593056256	28	14263
2026-01-08 11:16:20.35	1.09	35.28	-30.4	-30.6	14.3	0.00e+00	0	29	0	11702108160	28	14092
2026-01-08 11:16:21.36	0.78	35.57	-30.4	-30.6	14.2	0.00e+00	0	28	0	11819548672	28	14088
2026-01-08 11:16:22.36	0.47	35.86	-30.4	-30.6	14.1	0.00e+00	0	29	0	11928600576	27	14878
2026-01-08 11:16:23.37	0.15	36.16	-30.3	-30.6	14.1	0.00e+00	0	29	0	12046041088	27	14780
2026-01-08 11:16:24.37	359.83	36.46	-30.1	-30.4	14.2	0.00e+00	0	29	0	12155092992	27	14456
2026-01-08 11:16:25.38	359.50	36.76	-30.1	-30.3	14.2	0.00e+00	0	28	0	12272533504	27	14395
2026-01-08 11:16:26.38	359.16	37.06	-30.1	-30.4	14.2	0.00e+00	0	29	0	12389974016	27	14449
2026-01-08 11:16:27.39	358.81	37.37	-30.1	-30.3	14.2	0.00e+00	0	28	0	12499025920	27	14352
2026-01-08 11:16:28.39	358.46	37.67	-30.0	-30.2	14.3	0.00e+00	0	29	0	12608077824	27	14265
2026-01-08 11:16:29.39	358.10	37.98	-29.8	-30.0	14.2	0.00e+00	0	29	0	12725518336	26	14716
2026-01-08 11:16:30.39	357.74	38.29	-29.8	-30.1	14.2	0.00e+00	0	29	0	12834570240	26	14822
2026-01-08 11:16:31.40	357.36	38.60	-29.7	-29.9	14.2	0.00e+00	0	29	0	12952010752	26	14493
2026-01-08 11:16:32.41	356.98	38.92	-29.7	-29.9	14.2	0.00e+00	0	28	0	13061062656	26	14528
2026-01-08 11:16:33.41	356.59	39.23	-29.6	-29.8	14.2	0.00e+00	0	29	0	13170114560	26	14405
2026-01-08 11:16:34.42	356.19	39.55	-29.5	-29.7	14.3	0.00e+00	0	29	0	13287555072	26	14232
2026-01-08 11:16:35.42	355.79	39.87	-29.5	-29.7	14.3	0.00e+00	0	29	0	13396606976	26	14165
2026-01-08 11:16:36.43	355.37	40.19	-29.4	-29.6	14.3	0.00e+00	0	28	0	13514047488	26	14008
2026-01-08 11:16:37.44	354.95	40.52	-29.3	-29.5	14.2	0.00e+00	0	28	0	13631488000	25	14757
2026-01-08 11:16:38.44	354.52	40.84	-29.1	-29.4	14.2	0.00e+00	0	29	0	13740539904	25	14443
2026-01-08 11:16:39.44	354.08	41.16	-29.0	-29.2	14.3	0.00e+00	0	29	0	13857980416	25	14237
2026-01-08 11:16:40.45	353.63	41.49	-29.0	-29.2	14.3	0.00e+00	0	29	0	13967032320	25	14218
2026-01-08 11:16:41.46	353.16	41.82	-29.1	-29.3	14.3	0.00e+00	0	28	0	14076084224	25	14316
2026-01-08 11:16:42.46	352.69	42.15	-29.0	-29.2	14.3	0.00e+00	0	29	0	14193524736	25	14234
2026-01-08 11:16:43.46	352.22	42.48	-28.9	-29.1	14.4	0.00e+00	0	29	0	14302576640	25	14076
2026-01-08 11:16:44.45	351.73	42.81	-28.8	-29.0	14.2	0.00e+00	0	29	0	14420017152	24	14704
2026-01-08 11:16:45.46	351.23	43.14	-28.8	-29.0	14.3	0.00e+00	0	29	0	14529069056	24	14707
2026-01-08 11:16:46.47	350.71	43.48	-28.6	-28.9	14.3	0.00e+00	0	29	0	14638120960	24	14484
2026-01-08 11:16:47.47	350.19	43.81	-28.7	-28.9	14.3	0.00e+00	0	28	0	14755561472	24	14591
2026-01-08 11:16:48.48	349.65	44.15	-28.6	-28.8	14.3	0.00e+00	0	28	0	14873001984	24	14366
2026-01-08 11:16:49.48	349.11	44.48	-28.6	-28.8	14.3	0.00e+00	0	29	0	14982053888	24	14409
2026-01-08 11:16:50.49	348.55	44.82	-28.6	-28.8	14.3	0.00e+00	0	29	0	15099494400	24	14333
2026-01-08 11:16:51.50	347.97	45.16	-28.4	-28.6	14.4	0.00e+00	0	29	0	15208546304	24	14058
2026-01-08 11:16:52.50	347.39	45.49	-28.4	-28.6	14.4	0.00e+00	0	29	0	15325986816	24	14022
2026-01-08 11:16:53.51	346.79	45.83	-28.4	-28.6	14.4	0.00e+00	0	29	0	15435038720	24	14105
2026-01-08 11:16:54.51	346.18	46.17	-28.3	-28.5	14.3	0.00e+00	0	28	0	15544090624	23	14726
2026-01-08 11:16:55.51	345.56	46.50	-28.2	-28.5	14.3	0.00e+00	0	29	0	15661531136	23	14617
2026-01-08 11:16:56.51	344.92	46.83	-28.1	-28.3	14.4	0.00e+00	0	29	0	15770583040	23	14433
2026-01-08 11:16:57.51	344.27	47.16	-28.2	-28.4	14.4	0.00e+00	0	29	0	15888023552	23	14479
2026-01-08 11:16:58.51	343.61	47.50	-28.2	-28.4	14.4	0.00e+00	0	29	0	15997075456	23	14495
2026-01-08 11:16:59.51	342.93	47.82	-28.1	-28.3	14.4	0.00e+00	0	29	0	16114515968	23	14429
2026-01-08 11:17:00.52	342.23	48.16	-28.2	-28.4	14.3	0.00e+00	0	29	0	16223567872	23	14522
2026-01-08 11:17:01.53	341.51	48.48	-28.1	-28.3	14.4	0.00e+00	0	29	0	16341008384	23	14327
2026-01-08 11:17:02.54	340.78	48.81	-28.1	-28.3	14.4	0.00e+00	0	29	0	16450060288	23	14367
2026-01-08 11:17:03.54	340.04	49.13	-28.0	-28.2	14.4	0.00e+00	0	29	0	16567500800	23	14219
2026-01-08 11:17:04.54	339.28	49.45	-28.0	-28.2	14.4	0.00e+00	0	29	0	16676552704	23	14201
2026-01-08 11:17:05.55	338.50	49.77	-28.0	-28.2	14.4	0.00e+00	0	29	0	16793993216	23	14123
2026-01-08 11:17:06.55	337.71	50.08	-27.8	-28.0	14.3	0.00e+00	0	29	0	16903045120	22	14714
2026-01-08 11:17:07.57	336.89	50.40	-27.8	-28.0	14.3	0.00e+00	0	29	0	17012097024	22	14734
2026-01-08 11:17:08.57	336.07	50.70	-27.8	-28.0	14.3	0.00e+00	0	29	0	17129537536	22	14703
2026-01-08 11:17:09.57	335.22	51.01	-27.8	-28.0	14.3	0.00e+00	0	29	0	17238589440	22	14725
2026-01-08 11:17:10.57	334.37	51.30	-27.7	-27.9	14.3	0.00e+00	0	29	0	17356029952	22	14557
2026-01-08 11:17:11.58	333.48	51.60	-27.7	-27.9	14.3	0.00e+00	0	29	0	17465081856	22	14505
2026-01-08 11:17:12.57	332.60	51.88	-27.7	-27.9	14.3	0.00e+00	0	29	0	17582522368	22	14602
2026-01-08 11:17:13.58	331.67	52.17	-27.6	-27.8	14.4	0.00e+00	0	29	0	17699962880	22	14317
2026-01-08 11:17:14.59	330.74	52.44	-27.6	-27.8	14.4	0.00e+00	0	29	0	17809014784	22	14397
2026-01-08 11:17:15.59	329.79	52.71	-27.5	-27.7	14.4	0.00e+00	0	29	0	17918066688	22	14255
2026-01-08 11:17:16.60	328.81	52.98	-27.5	-27.8	14.4	0.00e+00	0	29	0	18035507200	22	14288
2026-01-08 11:17:17.61	327.82	53.24	-27.6	-27.8	14.4	0.00e+00	0	29	0	18144559104	22	14322
2026-01-08 11:17:18.61	326.82	53.49	-27.5	-27.7	14.4	0.00e+00	0	29	0	18261999616	22	14163
2026-01-08 11:17:19.61	325.80	53.73	-27.5	-27.7	14.4	0.00e+00	0	29	0	18371051520	22	14235
2026-01-08 11:17:20.62	324.75	53.96	-27.5	-27.7	14.4	0.00e+00	0	29	0	18480103424	22	14147
2026-01-08 11:17:21.62	323.70	54.19	-27.5	-27.8	14.4	0.00e+00	0	29	0	18597543936	22	14312
2026-01-08 11:17:22.63	322.62	54.41	-27.4	-27.6	14.4	0.00e+00	0	29	0	18706595840	22	14106
2026-01-08 11:17:23.63	321.54	54.61	-27.5	-27.7	14.4	0.00e+00	0	29	0	18824036352	22	14271
2026-01-08 11:17:24.63	320.43	54.81	-27.4	-27.6	14.4	0.00e+00	0	29	0	18941476864	22	14026
2026-01-08 11:17:25.63	319.32	55.00	-27.4	-27.6	14.4	0.00e+00	0	29	0	19050528768	22	14091
2026-01-08 11:17:26.64	318.17	55.18	-27.3	-27.5	14.3	0.00e+00	0	29	0	19167969280	21	14674
2026-01-08 11:17:27.63	317.04	55.34	-27.3	-27.5	14.3	0.00e+00	0	29	0	19277021184	21	14747
2026-01-08 11:17:28.64	315.87	55.50	-27.3	-27.5	14.3	0.00e+00	0	29	0	19386073088	21	14689
2026-01-08 11:17:29.65	314.68	55.65	-27.3	-27.5	14.3	0.00e+00	0	29	0	19503513600	21	14739
2026-01-08 11:17:30.66	313.49	55.78	-27.3	-27.6	14.3	0.00e+00	0	29	0	19612565504	21	14835
2026-01-08 11:17:31.67	312.28	55.91	-27.3	-27.5	14.3	0.00e+00	0	29	0	19730006016	21	14745
2026-01-08 11:17:32.68	311.06	56.02	-27.3	-27.6	14.3	0.00e+00	0	29	0	19839057920	21	14820
2026-01-08 11:17:33.68	309.85	56.12	-27.3	-27.5	14.3	0.00e+00	0	29	0	19956498432	21	14720
2026-01-08 11:17:34.68	308.62	56.20	-27.2	-27.4	14.3	0.00e+00	0	29	0	20073938944	21	14581
2026-01-08 11:17:35.69	307.38	56.27	-27.2	-27.4	14.4	0.00e+00	0	29	0	20182990848	21	14571
2026-01-08 11:17:36.69	306.14	56.33	-27.2	-27.5	14.3	0.00e+00	0	29	0	20292042752	21	14610
2026-01-08 11:17:37.70	304.89	56.38	-27.2	-27.4	14.3	0.00e+00	0	29	0	20409483264	21	14590
2026-01-08 11:17:38.70	303.64	56.42	-27.2	-27.4	14.3	0.00e+00	0	29	0	20518535168	21	14568
2026-01-08 11:17:39.71	302.38	56.44	-27.2	-27.4	14.3	0.00e+00	0	29	0	20635975680	21	14604
2026-01-08 11:17:40.71	301.13	56.45	-27.2	-27.4	14.3	0.00e+00	0	29	0	20745027584	21	14585
2026-01-08 11:17:41.72	299.87	56.44	-27.3	-27.5	14.3	0.00e+00	0	29	0	20854079488	21	14665
2026-01-08 11:17:42.72	298.62	56.42	-27.3	-27.5	14.3	0.00e+00	0	29	0	20971520000	21	14765
2026-01-08 11:17:43.73	297.36	56.39	-27.3	-27.5	14.3	0.00e+00	0	29	0	21080571904	21	14627
2026-01-08 11:17:44.73	296.12	56.35	-27.2	-27.5	14.3	0.00e+00	0	29	0	21198012416	21	14613
2026-01-08 11:17:45.74	294.87	56.29	-27.4	-27.6	14.3	0.00e+00	0	29	0	21315452928	21	14864
2026-01-08 11:17:46.75	293.63	56.22	-27.4	-27.6	14.3	0.00e+00	0	29	0	21424504832	21	14885
2026-01-08 11:17:47.75	292.40	56.14	-27.2	-27.5	14.3	0.00e+00	0	29	0	21541945344	21	14639
2026-01-08 11:17:48.75	291.18	56.05	-27.4	-27.6	14.3	0.00e+00	0	29	0	21650997248	21	14893
2026-01-08 11:17:49.76	289.96	55.94	-27.3	-27.6	14.3	0.00e+00	0	29	0	21760049152	21	14795
2026-01-08 11:17:50.77	288.75	55.82	-27.4	-27.7	14.3	0.00e+00	0	29	0	21877489664	21	14954
2026-01-08 11:17:51.77	287.56	55.69	-27.4	-27.6	14.3	0.00e+00	0	29	0	21986541568	21	14829
2026-01-08 11:17:52.77	286.38	55.55	-27.5	-27.7	14.3	0.00e+00	0	28	0	22103982080	21	15108
2026-01-08 11:17:53.78	285.21	55.39	-27.5	-27.7	14.3	0.00e+00	0	29	0	22213033984	21	15026
2026-01-08 11:17:54.78	284.06	55.23	-27.5	-27.7	14.3	0.00e+00	0	29	0	22330474496	21	15026
2026-01-08 11:17:55.79	282.91	55.05	-27.5	-27.7	14.3	0.00e+00	0	29	0	22447915008	21	15116
2026-01-08 11:17:56.80	281.78	54.86	-27.4	-27.7	14.3	0.00e+00	0	29	0	22556966912	21	14970
2026-01-08 11:17:57.80	280.67	54.67	-27.4	-27.6	14.3	0.00e+00	0	29	0	22666018816	21	14930
2026-01-08 11:17:58.80	279.58	54.46	-27.4	-27.7	14.3	0.00e+00	0	29	0	22783459328	21	14973
2026-01-08 11:17:59.81	278.49	54.25	-27.5	-27.8	14.3	0.00e+00	0	29	0	22892511232	21	15167
2026-01-08 11:18:00.81	277.44	54.03	-27.5	-27.8	14.3	0.00e+00	0	29	0	23009951744	21	15170
2026-01-08 11:18:01.81	276.39	53.79	-27.6	-27.9	14.2	0.00e+00	0	29	0	23119003648	21	15329
2026-01-08 11:18:02.81	275.37	53.56	-27.5	-27.8	14.3	0.00e+00	0	29	0	23228055552	21	15182
2026-01-08 11:18:03.82	274.35	53.31	-27.6	-27.9	14.2	0.00e+00	0	29	0	23345496064	21	15312
2026-01-08 11:18:04.82	273.36	53.05	-27.6	-27.8	14.3	0.00e+00	0	29	0	23454547968	21	15161
2026-01-08 11:18:05.82	272.39	52.79	-27.6	-27.8	14.3	0.00e+00	0	29	0	23571988480	21	15234
2026-01-08 11:18:06.83	271.43	52.52	-27.7	-27.9	14.2	0.00e+00	0	29	0	23689428992	21	15429
2026-01-08 11:18:07.83	270.49	52.25	-27.6	-27.9	14.3	0.00e+00	0	29	0	23798480896	21	15347
2026-01-08 11:18:08.83	269.57	51.97	-27.7	-28.0	14.2	0.00e+00	0	29	0	23915921408	21	15500
2026-01-08 11:18:09.84	268.67	51.68	-27.7	-27.9	14.2	0.00e+00	0	29	0	24024973312	21	15464
2026-01-08 11:18:10.84	267.78	51.39	-27.7	-27.9	14.2	0.00e+00	0	29	0	24134025216	21	15396
2026-01-08 11:18:11.84	266.92	51.09	-27.7	-28.0	14.2	0.00e+00	0	29	0	24251465728	21	15530
2026-01-08 11:18:12.85	266.06	50.79	-27.7	-28.0	14.2	0.00e+00	0	29	0	24360517632	21	15563
2026-01-08 11:18:13.85	265.23	50.48	-27.8	-28.1	14.2	0.00e+00	0	29	0	24477958144	21	15704
2026-01-08 11:18:14.86	264.41	50.17	-27.8	-28.1	14.2	0.00e+00	0	29	0	24587010048	21	15675
2026-01-08 11:18:15.87	263.61	49.85	-27.9	-28.1	14.2	0.00e+00	0	29	0	24696061952	21	15726
2026-01-08 11:18:16.87	262.83	49.54	-27.9	-28.1	14.2	0.00e+00	0	29	0	24813502464	21	15791
2026-01-08 11:18:17.88	262.06	49.22	-27.9	-28.2	14.2	0.00e+00	0	29	0	24930942976	21	15836
2026-01-08 11:18:18.89	261.30	48.89	-28.0	-28.2	14.2	0.00e+00	0	29	0	25039994880	21	15958
2026-01-08 11:18:19.89	260.57	48.57	-28.0	-28.3	14.2	0.00e+00	0	29	0	25157435392	21	16059
2026-01-08 11:18:20.90	259.85	48.24	-28.2	-28.4	14.2	0.00e+00	0	29	0	25266487296	22	15392
2026-01-08 11:18:21.90	259.15	47.91	-28.2	-28.4	14.2	0.00e+00	0	29	0	25383927808	22	15462
2026-01-08 11:18:22.91	258.46	47.58	-28.1	-28.4	14.2	0.00e+00	0	29	0	25492979712	22	15345
2026-01-08 11:18:23.91	257.79	47.25	-28.2	-28.4	14.2	0.00e+00	0	29	0	25602031616	22	15419
2026-01-08 11:18:24.92	257.13	46.91	-28.2	-28.5	14.2	0.00e+00	0	29	0	25719472128	22	15487
2026-01-08 11:18:25.92	256.49	46.58	-28.3	-28.5	14.2	0.00e+00	0	29	0	25828524032	22	15606
2026-01-08 11:18:26.93	255.86	46.24	-28.5	-28.7	14.2	0.00e+00	0	29	0	25945964544	22	15949
2026-01-08 11:18:27.93	255.25	45.91	-28.5	-28.8	14.2	0.00e+00	0	29	0	26063405056	22	16077
2026-01-08 11:18:28.94	254.64	45.57	-28.4	-28.7	14.2	0.00e+00	0	29	0	26172456960	22	15889
2026-01-08 11:18:29.94	254.06	45.23	-28.6	-28.8	14.2	0.00e+00	0	29	0	26289897472	22	16167
2026-01-08 11:18:30.95	253.48	44.90	-28.6	-28.8	14.2	0.00e+00	0	29	0	26398949376	22	16125
2026-01-08 11:18:31.96	252.91	44.56	-28.6	-28.8	14.3	0.00e+00	0	29	0	26508001280	23	15195
2026-01-08 11:18:32.96	252.36	44.22	-28.8	-29.0	14.2	0.00e+00	0	29	0	26625441792	23	15563
2026-01-08 11:18:33.97	251.82	43.88	-58.4	-62.0	6.2	0.00e+00	0	28	104	26642219008	82	23311
2026-01-08 11:18:34.98	251.29	43.55	-58.4	-62.0	6.2	0.00e+00	0	28	104	26642219008	82	23250
2026-01-08 11:18:35.98	250.78	43.21	-58.5	-62.0	6.1	0.00e+00	0	28	104	26642219008	82	23334
2026-01-08 11:18:36.98	250.27	42.88	-58.5	-62.0	6.1	0.00e+00	0	28	104	26642219008	82	23361
2026-01-08 11:18:37.98	249.78	42.55	-59.0	-62.2	6.2	0.00e+00	0	28	104	26642219008	83	22540
2026-01-08 11:18:38.98	249.30	42.22	-58.9	-62.2	6.2	0.00e+00	0	28	104	26642219008	83	22453
2026-01-08 11:18:39.99	248.82	41.89	-58.9	-62.2	6.2	0.00e+00	0	28	104	26642219008	83	22370
2026-01-08 11:18:40.99	248.36	41.56	-58.5	-62.1	6.2	0.00e+00	0	28	104	26642219008	83	22149
2026-01-08 11:18:41.99	247.91	41.23	-58.9	-62.2	6.2	0.00e+00	0	28	104	26642219008	83	22463
2026-01-08 11:18:42.99	247.47	40.91	-58.9	-62.2	6.2	0.00e+00	0	28	104	26642219008	83	22431
2026-01-08 11:18:44.00	247.03	40.58	-58.9	-62.1	6.2	0.00e+00	0	28	104	26642219008	83	22333
2026-01-08 11:18:45.01	246.60	40.25	-58.5	-62.0	6.2	0.00e+00	0	28	104	26642219008	83	22073
2026-01-08 11:18:46.01	246.19	39.93	-58.9	-62.2	6.2	0.00e+00	0	28	104	26642219008	83	22466
2026-01-08 11:18:47.02	245.78	39.61	-58.9	-62.2	6.2	0.00e+00	0	28	104	26642219008	83	22387
2026-01-08 11:18:48.02	245.38	39.29	-58.8	-62.1	6.2	0.00e+00	0	28	104	26642219008	83	22240
2026-01-08 11:18:49.02	244.99	38.98	-58.6	-62.1	6.2	0.00e+00	0	28	104	26642219008	83	22132
2026-01-08 11:18:50.03	244.60	38.66	-58.9	-62.1	6.2	0.00e+00	0	28	104	26642219008	83	22289
2026-01-08 11:18:51.04	244.22	38.34	-58.9	-62.1	6.2	0.00e+00	0	28	104	26642219008	83	22333
2026-01-08 11:18:52.05	243.85	38.03	-58.8	-62.1	6.2	0.00e+00	0	28	104	26642219008	83	22174
2026-01-08 11:18:53.05	243.49	37.72	-58.6	-62.0	6.2	0.00e+00	0	28	104	26642219008	83	22035
2026-01-08 11:18:54.06	243.14	37.41	-58.9	-62.1	6.2	0.00e+00	0	28	104	26642219008	83	22292
2026-01-08 11:18:55.06	242.79	37.11	-58.8	-62.1	6.1	0.00e+00	0	28	104	26642219008	83	22170
2026-01-08 11:18:56.07	242.45	36.80	-58.8	-62.1	6.2	0.00e+00	0	28	104	26642219008	83	22153
2026-01-08 11:18:57.07	242.12	36.50	-58.6	-62.0	6.2	0.00e+00	0	28	104	26642219008	83	21925
2026-01-08 11:18:58.08	241.79	36.20	-58.8	-62.1	6.2	0.00e+00	0	28	104	26642219008	83	22195
2026-01-08 11:18:59.08	241.47	35.91	-58.8	-62.0	6.1	0.00e+00	0	28	104	26642219008	83	22107
2026-01-08 11:19:00.09	241.15	35.61	-58.8	-62.0	6.2	0.00e+00	0	28	104	26642219008	83	22103
2026-01-08 11:19:01.09	240.84	35.32	-58.7	-62.0	6.2	0.00e+00	0	28	104	26642219008	83	21891
2026-01-08 11:19:02.10	240.54	35.03	-58.8	-62.1	6.1	0.00e+00	0	28	104	26642219008	83	22165
2026-01-08 11:19:03.11	240.24	34.73	-58.8	-62.0	6.1	0.00e+00	0	28	104	26642219008	83	22077
2026-01-08 11:19:04.11	239.95	34.45	-58.8	-62.0	6.2	0.00e+00	0	28	104	26642219008	83	21955
2026-01-08 11:19:05.12	239.66	34.16	-58.7	-62.0	6.2	0.00e+00	0	28	104	26642219008	83	21986
2026-01-08 11:19:06.12	239.38	33.88	-58.8	-62.0	6.1	0.00e+00	0	28	104	26642219008	83	21964
2026-01-08 11:19:07.12	239.11	33.60	-58.8	-62.0	6.2	0.00e+00	0	28	104	26642219008	83	21963
2026-01-08 11:19:08.12	238.84	33.33	-58.7	-62.0	6.2	0.00e+00	0	28	104	26642219008	83	21975
2026-01-08 11:19:09.13	238.57	33.05	-58.7	-61.9	6.2	0.00e+00	0	28	104	26642219008	83	21819
2026-01-08 11:19:10.13	238.31	32.78	-58.8	-62.0	6.2	0.00e+00	0	28	104	26642219008	83	21981
2026-01-08 11:19:11.14	238.05	32.51	-58.7	-62.0	6.1	0.00e+00	0	28	104	26642219008	83	21922
2026-01-08 11:19:12.15	237.80	32.24	-58.7	-61.9	6.2	0.00e+00	0	28	104	26642219008	83	21839
2026-01-08 11:19:13.15	237.55	31.97	-58.6	-61.9	6.2	0.00e+00	0	28	104	26642219008	83	21739
2026-01-08 11:19:14.15	237.31	31.71	-58.7	-62.0	6.2	0.00e+00	0	28	104	26642219008	83	21935
2026-01-08 11:19:15.15	237.07	31.45	-58.7	-61.9	6.2	0.00e+00	0	28	104	26642219008	83	21810
2026-01-08 11:19:16.16	236.83	31.19	-58.7	-61.9	6.2	0.00e+00	0	28	104	26642219008	83	21799
2026-01-08 11:19:17.16	236.60	30.93	-58.6	-61.9	6.2	0.00e+00	0	28	104	26642219008	83	21667
2026-01-08 11:19:18.16	236.38	30.67	-58.7	-61.9	6.2	0.00e+00	0	28	104	26642219008	83	21743
2026-01-08 11:19:19.17	236.15	30.42	-58.7	-61.9	6.2	0.00e+00	0	28	104	26642219008	83	21656
2026-01-08 11:19:20.17	235.94	30.17	-58.6	-61.9	6.2	0.00e+00	0	28	104	26642219008	83	21695
2026-01-08 11:19:21.18	235.72	29.92	-58.6	-61.8	6.2	0.00e+00	0	28	104	26642219008	83	21537
2026-01-08 11:19:22.18	235.51	29.67	-58.6	-61.9	6.2	0.00e+00	0	28	104	26642219008	83	21715
2026-01-08 11:19:23.19	235.30	29.43	-58.6	-61.8	6.2	0.00e+00	0	28	104	26642219008	83	21594
2026-01-08 11:19:24.20	235.09	29.18	-58.6	-61.9	6.1	0.00e+00	0	28	104	26642219008	83	21661
2026-01-08 11:19:25.20	234.89	28.94	-58.5	-61.8	6.2	0.00e+00	0	28	104	26642219008	83	21540
2026-01-08 11:19:26.21	234.69	28.70	-58.6	-61.8	6.2	0.00e+00	0	28	104	26642219008	83	21567
2026-01-08 11:19:27.22	234.50	28.46	-58.6	-61.9	6.2	0.00e+00	0	28	104	26642219008	83	21620
2026-01-08 11:19:28.21	234.31	28.23	-58.6	-61.8	6.2	0.00e+00	0	28	104	26642219008	83	21451
2026-01-08 11:19:29.21	234.12	28.00	-58.5	-61.8	6.2	0.00e+00	0	28	104	26642219008	83	21433
2026-01-08 11:19:30.21	233.93	27.77	-58.6	-61.8	6.2	0.00e+00	0	28	104	26642219008	83	21555
2026-01-08 11:19:31.22	233.75	27.54	-58.6	-61.8	6.1	0.00e+00	0	28	104	26642219008	83	21502
2026-01-08 11:19:32.23	233.57	27.31	-58.5	-61.8	6.2	0.00e+00	0	28	104	26642219008	83	21433
2026-01-08 11:19:33.23	233.39	27.09	-58.5	-61.7	6.1	0.00e+00	0	28	104	26642219008	83	21342
2026-01-08 11:19:34.23	233.22	26.86	-58.5	-61.8	6.2	0.00e+00	0	28	104	26642219008	83	21411
2026-01-08 11:19:35.23	233.04	26.64	-58.5	-61.8	6.1	0.00e+00	0	28	104	26642219008	83	21486
2026-01-08 11:19:36.23	232.88	26.42	-58.5	-61.8	6.2	0.00e+00	0	28	104	26642219008	83	21378
2026-01-08 11:19:37.23	232.71	26.21	-58.5	-61.7	6.2	0.00e+00	0	28	104	26642219008	83	21319
2026-01-08 11:19:38.24	232.54	25.99	-58.5	-61.8	6.2	0.00e+00	0	28	104	26642219008	83	21380
2026-01-08 11:19:39.25	232.38	25.77	-58.5	-61.8	6.2	0.00e+00	0	28	104	26642219008	83	21386
2026-01-08 11:19:40.26	232.22	25.56	-58.5	-61.7	6.2	0.00e+00	0	28	104	26642219008	83	21281
2026-01-08 11:19:41.26	232.06	25.35	-58.4	-61.7	6.2	0.00e+00	0	28	104	26642219008	83	21229
2026-01-08 11:19:42.26	231.91	25.14	-58.5	-61.8	6.2	0.00e+00	0	28	104	26642219008	83	21366
2026-01-08 11:19:43.27	231.76	24.94	-58.5	-61.7	6.2	0.00e+00	0	28	104	26642219008	83	21266
2026-01-08 11:19:44.27	231.61	24.73	-58.5	-61.7	6.2	0.00e+00	0	28	104	26642219008	83	21168
2026-01-08 11:19:45.27	231.46	24.53	-58.4	-61.7	6.2	0.00e+00	0	28	104	26642219008	83	21144
2026-01-08 11:19:46.27	231.31	24.33	-58.5	-61.7	6.2	0.00e+00	0	28	104	26642219008	83	21198
2026-01-08 11:19:47.29	231.17	24.12	-58.5	-61.7	6.2	0.00e+00	0	28	104	26642219008	83	21219
2026-01-08 11:19:48.29	231.03	23.93	-58.5	-61.7	6.1	0.00e+00	0	28	104	26642219008	83	21207
2026-01-08 11:19:49.29	230.89	23.73	-58.4	-61.7	6.2	0.00e+00	0	28	104	26642219008	83	21181
2026-01-08 11:19:50.30	230.75	23.53	-58.4	-61.7	6.1	0.00e+00	0	28	104	26642219008	83	21220
2026-01-08 11:19:51.30	230.61	23.34	-58.4	-61.7	6.2	0.00e+00	0	28	104	26642219008	83	21157
2026-01-08 11:19:52.30	230.48	23.15	-58.4	-61.6	6.2	0.00e+00	0	28	104	26642219008	83	21100
2026-01-08 11:19:53.30	230.35	22.96	-58.4	-61.6	6.2	0.00e+00	0	28	104	26642219008	83	21083
2026-01-08 11:19:54.30	230.22	22.77	-58.4	-61.7	6.1	0.00e+00	0	28	104	26642219008	83	21127
2026-01-08 11:19:55.30	230.09	22.58	-58.4	-61.6	6.2	0.00e+00	0	28	104	26642219008	83	21044
2026-01-08 11:19:56.30	229.96	22.40	-58.4	-61.6	6.2	0.00e+00	0	28	104	26642219008	83	20959
2026-01-08 11:19:57.31	229.84	22.21	-58.3	-61.6	6.2	0.00e+00	0	28	104	26642219008	83	20929
2026-01-08 11:19:58.32	229.71	22.03	-58.4	-61.6	6.2	0.00e+00	0	28	104	26642219008	83	20971
2026-01-08 11:19:59.32	229.59	21.85	-58.4	-61.6	6.2	0.00e+00	0	28	104	26642219008	83	21004
2026-01-08 11:20:00.32	229.47	21.67	-58.4	-61.6	6.2	0.00e+00	0	28	104	26642219008	83	20996
2026-01-08 11:20:01.33	229.35	21.49	-58.3	-61.6	6.2	0.00e+00	0	28	104	26642219008	83	20932
2026-01-08 11:20:02.33	229.24	21.31	-58.3	-61.6	6.2	0.00e+00	0	28	104	26642219008	83	20900
2026-01-08 11:20:03.33	229.12	21.14	-58.3	-61.5	6.2	0.00e+00	0	28	104	26642219008	83	20851
2026-01-08 11:20:04.34	229.01	20.96	-58.3	-61.6	6.2	0.00e+00	0	28	104	26642219008	83	20885
2026-01-08 11:20:05.35	228.89	20.79	-58.3	-61.5	6.2	0.00e+00	0	28	104	26642219008	83	20852
2026-01-08 11:20:06.36	228.78	20.61	-58.3	-61.6	6.2	0.00e+00	0	28	104	26642219008	83	20899
2026-01-08 11:20:07.36	228.67	20.44	-58.3	-61.5	6.2	0.00e+00	0	28	104	26642219008	83	20832
2026-01-08 11:20:08.37	228.56	20.27	-58.3	-61.6	6.2	0.00e+00	0	28	104	26642219008	83	20874
2026-01-08 11:20:09.38	228.46	20.11	-58.3	-61.5	6.1	0.00e+00	0	28	104	26642219008	83	20819
2026-01-08 11:20:10.38	228.35	19.94	-58.3	-61.5	6.1	0.00e+00	0	28	104	26642219008	83	20821
2026-01-08 11:20:11.38	228.25	19.77	-58.3	-61.5	6.2	0.00e+00	0	28	104	26642219008	83	20776
2026-01-08 11:20:12.38	228.14	19.61	-58.3	-61.5	6.1	0.00e+00	0	28	104	26642219008	83	20709
2026-01-08 11:20:13.39	228.04	19.45	-58.3	-61.5	6.2	0.00e+00	0	28	104	26642219008	83	20734
2026-01-08 11:20:14.40	227.94	19.29	-58.3	-61.5	6.2	0.00e+00	0	28	104	26642219008	83	20758
2026-01-08 11:20:15.40	227.84	19.13	-58.3	-61.5	6.2	0.00e+00	0	28	104	26642219008	83	20701
2026-01-08 11:20:16.41	227.74	18.97	-58.2	-61.5	6.2	0.00e+00	0	28	104	26642219008	83	20698
2026-01-08 11:20:17.42	227.65	18.81	-58.2	-61.4	6.2	0.00e+00	0	28	104	26642219008	83	20547
2026-01-08 11:20:18.42	227.55	18.65	-58.2	-61.5	6.2	0.00e+00	0	28	104	26642219008	83	20671
2026-01-08 11:20:19.42	227.46	18.49	-58.2	-61.4	6.2	0.00e+00	0	28	104	26642219008	83	20557
2026-01-08 11:20:20.42	227.36	18.34	-58.2	-61.4	6.2	0.00e+00	0	28	104	26642219008	83	20550
2026-01-08 11:20:21.42	227.27	18.19	-58.2	-61.4	6.2	0.00e+00	0	28	104	26642219008	83	20545
2026-01-08 11:20:22.43	227.18	18.03	-58.2	-61.5	6.2	0.00e+00	0	28	104	26642219008	83	20636
2026-01-08 11:20:23.43	227.09	17.88	-58.2	-61.4	6.2	0.00e+00	0	28	104	26642219008	83	20585
2026-01-08 11:20:24.44	227.00	17.73	-58.2	-61.4	6.2	0.00e+00	0	28	104	26642219008	83	20573
2026-01-08 11:20:25.44	226.91	17.58	-58.2	-61.4	6.2	0.00e+00	0	28	104	26642219008	83	20523
2026-01-08 11:20:26.45	226.83	17.44	-58.2	-61.4	6.1	0.00e+00	0	28	104	26642219008	83	20543
2026-01-08 11:20:27.45	226.74	17.29	-58.2	-61.4	6.1	0.00e+00	0	28	104	26642219008	83	20493
2026-01-08 11:20:28.46	226.65	17.14	-58.2	-61.4	6.2	0.00e+00	0	28	104	26642219008	83	20466
2026-01-08 11:20:29.46	226.57	17.00	-58.1	-61.4	6.2	0.00e+00	0	28	104	26642219008	83	20401
2026-01-08 11:20:30.46	226.49	16.85	-58.1	-61.4	6.2	0.00e+00	0	28	104	26642219008	83	20436
2026-01-08 11:20:31.47	226.40	16.71	-58.1	-61.4	6.2	0.00e+00	0	28	104	26642219008	83	20523
2026-01-08 11:20:32.48	226.32	16.57	-58.1	-61.4	6.2	0.00e+00	0	28	104	26642219008	83	20418
2026-01-08 11:20:33.47	226.24	16.43	-58.1	-61.4	6.2	0.00e+00	0	28	104	26642219008	83	20426
2026-01-08 11:20:34.48	226.16	16.29	-58.1	-61.3	6.2	0.00e+00	0	28	104	26642219008	83	20323
2026-01-08 11:20:35.49	226.09	16.15	-58.1	-61.3	6.2	0.00e+00	0	28	104	26642219008	83	20337
2026-01-08 11:20:36.49	226.01	16.01	-58.1	-61.4	6.2	0.00e+00	0	28	104	26642219008	83	20399
2026-01-08 11:20:37.50	225.93	15.87	-58.1	-61.3	6.2	0.00e+00	0	28	104	26642219008	83	20275
2026-01-08 11:20:38.51	225.85	15.74	-58.1	-61.3	6.2	0.00e+00	0	28	104	26642219008	83	20220
2026-01-08 11:20:39.51	225.78	15.60	-58.1	-61.3	6.2	0.00e+00	0	28	104	26642219008	83	20303
2026-01-08 11:20:40.51	225.71	15.47	-58.1	-61.3	6.2	0.00e+00	0	28	104	26642219008	83	20297
2026-01-08 11:20:41.52	225.63	15.33	-58.1	-61.3	6.2	0.00e+00	0	28	104	26642219008	83	20196
2026-01-08 11:20:42.52	225.56	15.20	-58.1	-61.3	6.2	0.00e+00	0	28	104	26642219008	83	20307
2026-01-08 11:20:43.54	225.49	15.07	-58.1	-61.3	6.2	0.00e+00	0	28	104	26642219008	83	20210
2026-01-08 11:20:44.53	225.42	14.94	-58.1	-61.3	6.2	0.00e+00	0	28	104	26642219008	83	20179
2026-01-08 11:20:45.54	225.34	14.81	-58.0	-61.3	6.2	0.00e+00	0	28	104	26642219008	83	20192
2026-01-08 11:20:46.55	225.27	14.68	-58.0	-61.3	6.2	0.00e+00	0	28	104	26642219008	83	20209
2026-01-08 11:20:47.56	225.21	14.55	-58.0	-61.3	6.1	0.00e+00	0	28	104	26642219008	83	20237
2026-01-08 11:20:48.57	225.14	14.42	-58.0	-61.3	6.1	0.00e+00	0	28	104	26642219008	83	20164
2026-01-08 11:20:49.57	225.07	14.29	-58.0	-61.3	6.2	0.00e+00	0	28	104	26642219008	83	20165
2026-01-08 11:20:50.57	225.00	14.17	-58.0	-61.3	6.2	0.00e+00	0	28	104	26642219008	83	20205
2026-01-08 11:20:51.58	224.94	14.04	-58.0	-61.2	6.2	0.00e+00	0	28	104	26642219008	83	20148
2026-01-08 11:20:52.58	224.87	13.92	-58.0	-61.3	6.2	0.00e+00	0	28	104	26642219008	83	20177
2026-01-08 11:20:53.59	224.81	13.79	-58.0	-61.2	6.2	0.00e+00	0	28	104	26642219008	83	20136
2026-01-08 11:20:54.58	224.74	13.67	-58.0	-61.2	6.2	0.00e+00	0	28	104	26642219008	83	20094
2026-01-08 11:20:55.59	224.68	13.55	-58.0	-61.2	6.2	0.00e+00	0	28	104	26642219008	83	20096
2026-01-08 11:20:56.60	224.62	13.43	-58.0	-61.2	6.2	0.00e+00	0	28	104	26642219008	83	20057
2026-01-08 11:20:57.60	224.55	13.31	-58.0	-61.2	6.2	0.00e+00	0	28	104	26642219008	83	20005
2026-01-08 11:20:58.61	224.49	13.19	-57.9	-61.2	6.2	0.00e+00	0	28	104	26642219008	83	19958
2026-01-08 11:20:59.61	224.43	13.07	-58.0	-61.2	6.2	0.00e+00	0	28	104	26642219008	83	20039
2026-01-08 11:21:00.61	224.37	12.95	-58.0	-61.2	6.2	0.00e+00	0	28	104	26642219008	83	20040
2026-01-08 11:21:01.61	224.31	12.83	-57.9	-61.1	6.1	0.00e+00	0	28	104	26642219008	83	19932
2026-01-08 11:21:02.62	224.25	12.71	-57.9	-61.1	6.2	0.00e+00	0	28	104	26642219008	83	19913
2026-01-08 11:21:03.62	224.19	12.60	-57.9	-61.1	6.2	0.00e+00	0	28	104	26642219008	83	19921
2026-01-08 11:21:04.63	224.14	12.48	-57.9	-61.1	6.2	0.00e+00	0	28	104	26642219008	83	19900
2026-01-08 11:21:05.63	224.08	12.37	-57.9	-61.1	6.2	0.00e+00	0	28	104	26642219008	83	19921
2026-01-08 11:21:06.63	224.02	12.25	-57.9	-61.2	6.2	0.00e+00	0	28	104	26642219008	83	19955
2026-01-08 11:21:07.64	223.97	12.14	-57.9	-61.1	6.2	0.00e+00	0	28	104	26642219008	83	19892
2026-01-08 11:21:08.65	223.91	12.02	-57.9	-61.1	6.2	0.00e+00	0	28	104	26642219008	83	19797
2026-01-08 11:21:09.65	223.85	11.91	-57.9	-61.1	6.2	0.00e+00	0	28	104	26642219008	83	19829
2026-01-08 11:21:10.66	223.80	11.80	-57.9	-61.1	6.2	0.00e+00	0	28	104	26642219008	83	19829
2026-01-08 11:21:11.65	223.75	11.69	-57.9	-61.1	6.2	0.00e+00	0	28	104	26642219008	82	20962
2026-01-08 11:21:12.66	223.69	11.58	-57.9	-61.1	6.2	0.00e+00	0	28	104	26642219008	82	20963
2026-01-08 11:21:13.66	223.64	11.47	-57.8	-61.0	6.2	0.00e+00	0	28	104	26642219008	82	20843
2026-01-08 11:21:14.67	223.59	11.36	-57.8	-61.0	6.2	0.00e+00	0	28	104	26642219008	82	20815
2026-01-08 11:21:15.67	223.53	11.25	-57.8	-61.0	6.2	0.00e+00	0	28	104	26642219008	82	20806
2026-01-08 11:21:16.68	223.48	11.14	-57.8	-61.0	6.2	0.00e+00	0	28	104	26642219008	82	20770
2026-01-08 11:21:17.68	223.43	11.04	-57.8	-61.0	6.2	0.00e+00	0	28	104	26642219008	82	20762
2026-01-08 11:21:18.69	223.38	10.93	-57.8	-61.0	6.2	0.00e+00	0	28	104	26642219008	82	20759
2026-01-08 11:21:19.70	223.33	10.82	-57.8	-61.0	6.1	0.00e+00	0	28	104	26642219008	82	20804
2026-01-08 11:21:20.70	223.28	10.72	-57.8	-61.0	6.2	0.00e+00	0	28	104	26642219008	82	20782
2026-01-08 11:21:21.71	223.23	10.61	-57.8	-61.0	6.2	0.00e+00	0	28	104	26642219008	82	20665
2026-01-08 11:21:22.72	223.18	10.50	-57.7	-61.0	6.2	0.00e+00	0	28	104	26642219008	82	20652
2026-01-08 11:21:23.72	223.13	10.40	-57.8	-61.0	6.2	0.00e+00	0	28	104	26642219008	82	20771
2026-01-08 11:21:24.72	223.09	10.30	-57.8	-61.0	6.2	0.00e+00	0	28	104	26642219008	82	20724
2026-01-08 11:21:25.72	223.04	10.19	-57.7	-61.0	6.2	0.00e+00	0	28	104	26642219008	82	20657
2026-01-08 11:21:26.73	222.99	10.09	-57.7	-60.9	6.2	0.00e+00	0	28	104	26642219008	82	20510
2026-01-08 11:21:27.73	222.94	9.99	-57.7	-61.0	6.2	0.00e+00	0	28	104	26642219008	82	20663
2026-01-08 11:21:28.74	222.90	9.89	-57.7	-60.9	6.2	0.00e+00	0	28	104	26642219008	82	20568
2026-01-08 11:21:29.74	222.85	9.79	-57.7	-60.9	6.2	0.00e+00	0	28	104	26642219008	82	20495
2026-01-08 11:21:30.75	222.81	9.69	-57.7	-60.9	6.2	0.00e+00	0	28	104	26642219008	82	20456
2026-01-08 11:21:31.75	222.76	9.59	-57.7	-60.9	6.2	0.00e+00	0	28	104	26642219008	82	20618
2026-01-08 11:21:32.75	222.72	9.49	-57.7	-61.0	6.2	0.00e+00	0	28	104	26642219008	82	20649
2026-01-08 11:21:33.65	222.68	9.40	-57.7	-60.9	6.2	0.00e+00	0	28	104	26642219008	82	20494
2026-01-08 11:21:34.73	222.63	9.29	-57.6	-60.9	6.2	0.00e+00	0	28	104	26642219008	82	20441
2026-01-08 11:21:35.59	222.59	9.21	-57.7	-60.9	6.2	0.00e+00	0	28	104	26642219008	82	20583
2026-01-08 11:21:36.74	222.54	9.10	-57.7	-60.9	6.2	0.00e+00	0	28	104	26642219008	82	20514
2026-01-08 11:21:37.60	222.51	9.01	-57.6	-60.9	6.2	0.00e+00	0	28	104	26642219008	82	20432
2026-01-08 11:21:38.74	222.46	8.90	-57.6	-60.8	6.2	0.00e+00	0	28	104	26642219008	82	20302
2026-01-08 11:21:39.60	222.42	8.82	-57.7	-60.9	6.2	0.00e+00	0	28	104	26642219008	82	20503
2026-01-08 11:21:40.75	222.37	8.71	-57.6	-60.9	6.2	0.00e+00	0	28	104	26642219008	82	20454
2026-01-08 11:21:41.61	222.34	8.63	-57.6	-60.8	6.2	0.00e+00	0	28	104	26642219008	82	20334
2026-01-08 11:21:42.76	222.29	8.52	-57.6	-60.8	6.1	0.00e+00	0	28	104	26642219008	82	20308
2026-01-08 11:21:43.62	222.26	8.44	-57.6	-60.9	6.2	0.00e+00	0	28	104	26642219008	82	20401
2026-01-08 11:21:44.77	222.21	8.33	-57.6	-60.9	6.2	0.00e+00	0	28	104	26642219008	82	20413
2026-01-08 11:21:45.62	222.18	8.26	-57.5	-60.8	6.2	0.00e+00	0	28	104	26642219008	82	20188
2026-01-08 11:21:46.77	222.13	8.15	-57.5	-60.7	6.2	0.00e+00	0	28	104	26642219008	82	20139
2026-01-08 11:21:47.63	222.10	8.07	-57.6	-60.8	6.2	0.00e+00	0	28	104	26642219008	82	20253
2026-01-08 11:21:48.78	222.05	7.96	-57.6	-60.8	6.2	0.00e+00	0	28	104	26642219008	82	20284
2026-01-08 11:21:49.64	222.02	7.89	-57.5	-60.8	6.2	0.00e+00	0	28	104	26642219008	82	20177
2026-01-08 11:21:50.79	221.98	7.78	-57.5	-60.7	6.2	0.00e+00	0	28	104	26642219008	82	19986
2026-01-08 11:21:51.66	221.94	7.70	-57.6	-60.8	6.2	0.00e+00	0	28	104	26642219008	82	20259
2026-01-08 11:21:52.81	221.90	7.60	-57.5	-60.7	6.2	0.00e+00	0	28	104	26642219008	82	20108
2026-01-08 11:21:53.67	221.87	7.52	-57.4	-60.7	6.2	0.00e+00	0	28	104	26642219008	82	19959
2026-01-08 11:21:54.82	221.83	7.42	-57.4	-60.7	6.2	0.00e+00	0	28	104	26642219008	82	19943
2026-01-08 11:21:55.69	221.79	7.34	-57.5	-60.7	6.2	0.00e+00	0	28	104	26642219008	82	20102
2026-01-08 11:21:56.84	221.75	7.24	-57.5	-60.7	6.1	0.00e+00	0	28	104	26642219008	82	20057
2026-01-08 11:21:57.70	221.72	7.16	-57.4	-60.6	6.2	0.00e+00	0	28	104	26642219008	82	19830
2026-01-08 11:21:58.86	221.68	7.06	-57.3	-60.5	6.2	0.00e+00	0	28	104	26642219008	81	20811
2026-01-08 11:21:59.72	221.65	6.99	-57.4	-60.7	6.2	0.00e+00	0	28	104	26642219008	81	21141
2026-01-08 11:22:00.87	221.61	6.89	-57.4	-60.6	6.2	0.00e+00	0	28	104	26642219008	81	21030
2026-01-08 11:22:01.73	221.58	6.81	-57.3	-60.5	6.1	0.00e+00	0	28	104	26642219008	81	20752
2026-01-08 11:22:02.88	221.54	6.71	-57.2	-60.5	6.2	0.00e+00	0	28	104	26642219008	81	20672
2026-01-08 11:22:03.74	221.51	6.64	-57.3	-60.6	6.2	0.00e+00	0	28	104	26642219008	81	20975
2026-01-08 11:22:04.89	221.47	6.54	-57.3	-60.5	6.2	0.00e+00	0	28	104	26642219008	81	20829
2026-01-08 11:22:05.74	221.44	6.47	-57.2	-60.5	6.2	0.00e+00	0	28	104	26642219008	81	20684
2026-01-08 11:22:06.89	221.40	6.37	-57.2	-60.4	6.2	0.00e+00	0	28	104	26642219008	81	20551
2026-01-08 11:22:07.76	221.37	6.30	-57.3	-60.5	6.2	0.00e+00	0	28	104	26642219008	81	20835
2026-01-08 11:22:08.91	221.34	6.20	-57.3	-60.5	6.2	0.00e+00	0	28	104	26642219008	81	20812
2026-01-08 11:22:09.77	221.31	6.13	-57.2	-60.4	6.2	0.00e+00	0	28	104	26642219008	81	20609
2026-01-08 11:22:10.92	221.27	6.03	-57.2	-60.4	6.2	0.00e+00	0	28	104	26642219008	81	20487
2026-01-08 11:22:11.79	221.24	5.96	-57.3	-60.5	6.2	0.00e+00	0	28	104	26642219008	81	20778
2026-01-08 11:22:12.93	221.21	5.87	-57.2	-60.5	6.2	0.00e+00	0	28	104	26642219008	81	20642
2026-01-08 11:22:13.79	221.18	5.80	-57.1	-60.4	6.2	0.00e+00	0	28	104	26642219008	81	20419
2026-01-08 11:22:14.94	221.14	5.70	-57.1	-60.3	6.2	0.00e+00	0	28	104	26642219008	81	20348
2026-01-08 11:22:15.80	221.12	5.63	-57.2	-60.5	6.2	0.00e+00	0	28	104	26642219008	81	20663
2026-01-08 11:22:16.94	221.08	5.54	-57.2	-60.4	6.2	0.00e+00	0	28	104	26642219008	81	20523
2026-01-08 11:22:17.80	221.05	5.47	-57.1	-60.3	6.2	0.00e+00	0	28	104	26642219008	81	20293
2026-01-08 11:22:18.95	221.02	5.38	-57.0	-60.3	6.2	0.00e+00	0	28	104	26642219008	81	20189
2026-01-08 11:22:19.81	220.99	5.31	-57.2	-60.4	6.1	0.00e+00	0	28	104	26642219008	81	20528
2026-01-08 11:22:20.97	220.96	5.21	-57.1	-60.3	6.2	0.00e+00	0	28	104	26642219008	81	20360
2026-01-08 11:22:21.83	220.93	5.15	-57.0	-60.3	6.1	0.00e+00	0	28	104	26642219008	81	20202
2026-01-08 11:22:22.98	220.90	5.05	-57.0	-60.2	6.2	0.00e+00	0	28	104	26642219008	81	20009
2026-01-08 11:22:23.85	220.87	4.99	-57.2	-60.5	6.2	0.00e+00	0	28	104	26642219008	81	20696
2026-01-08 11:22:25.00	220.84	4.89	-57.8	-61.0	6.1	0.00e+00	0	28	104	26642219008	81	21978
2026-01-08 11:22:25.86	220.81	4.83	-58.1	-61.3	6.1	0.00e+00	0	28	104	26642219008	81	22696
2026-01-08 11:22:27.02	220.78	4.74	-58.4	-61.6	6.2	0.00e+00	0	28	104	26642219008	82	22253
2026-01-08 11:22:27.88	220.76	4.67	-58.5	-61.8	6.1	0.00e+00	0	28	104	26642219008	82	22715
2026-01-08 11:22:29.04	220.72	4.58	-58.7	-61.9	6.1	0.00e+00	0	28	104	26642219008	83	21709
2026-01-08 11:22:29.90	220.70	4.51	-58.8	-62.0	6.1	0.00e+00	0	28	104	26642219008	83	22004
2026-01-08 11:22:31.05	220.67	4.42	-58.9	-62.1	6.2	0.00e+00	0	28	104	26642219008	83	22342
2026-01-08 11:22:31.92	220.64	4.36	-59.0	-62.2	6.2	0.00e+00	0	28	104	26642219008	83	22476
2026-01-08 11:22:33.07	220.61	4.27	-59.0	-62.3	6.2	0.00e+00	0	28	104	26642219008	83	22670
2026-01-08 11:22:33.93	220.59	4.20	-59.1	-62.3	6.2	0.00e+00	0	28	104	26642219008	83	22787
2026-01-08 11:22:35.08	220.56	4.12	-59.1	-62.3	6.2	0.00e+00	0	28	104	26642219008	83	22885
2026-01-08 11:22:35.95	220.53	4.05	-59.3	-62.6	6.2	0.00e+00	0	28	104	26642219008	84	22113
2026-01-08 11:22:37.10	220.50	3.96	-59.4	-62.6	6.1	0.00e+00	0	28	104	26642219008	84	22295
2026-01-08 11:22:37.97	220.48	3.90	-59.4	-62.6	6.2	0.00e+00	0	28	104	26642219008	84	22332
2026-01-08 11:22:39.12	220.45	3.81	-59.4	-62.7	6.1	0.00e+00	0	28	104	26642219008	84	22398
2026-01-08 11:22:39.98	220.43	3.75	-59.4	-62.7	6.2	0.00e+00	0	28	104	26642219008	84	22484
2026-01-08 11:22:41.13	220.40	3.66	-59.5	-62.7	6.1	0.00e+00	0	28	104	26642219008	84	22583
2026-01-08 11:22:41.99	220.37	3.60	-59.5	-62.7	6.2	0.00e+00	0	28	104	26642219008	84	22581
2026-01-08 11:22:43.13	220.34	3.51	-59.5	-62.8	6.1	0.00e+00	0	28	104	26642219008	84	22687
2026-01-08 11:22:44.00	220.32	3.45	-59.6	-62.8	6.1	0.00e+00	0	28	104	26642219008	84	22779
2026-01-08 11:22:45.15	220.29	3.36	-59.6	-62.9	6.1	0.00e+00	0	28	104	26642219008	84	22913
2026-01-08 11:22:46.01	220.27	3.30	-59.7	-62.9	6.2	0.00e+00	0	28	104	26642219008	85	21725
2026-01-08 11:22:47.16	220.24	3.22	-59.6	-62.8	6.2	0.00e+00	0	28	104	26642219008	85	21593
2026-01-08 11:22:48.03	220.22	3.15	-59.6	-62.9	6.1	0.00e+00	0	28	104	26642219008	85	21617
2026-01-08 11:22:49.18	220.19	3.07	-59.6	-62.8	6.2	0.00e+00	0	28	104	26642219008	85	21561
2026-01-08 11:22:50.04	220.17	3.01	-59.6	-62.8	6.1	0.00e+00	0	28	104	26642219008	85	21487
2026-01-08 11:22:51.20	220.14	2.93	-59.5	-62.8	6.2	0.00e+00	0	28	104	26642219008	85	21461
2026-01-08 11:22:52.06	220.12	2.86	-59.5	-62.7	6.2	0.00e+00	0	28	104	26642219008	85	21347
2026-01-08 11:22:53.21	220.10	2.78	-59.5	-62.8	6.2	0.00e+00	0	28	104	26642219008	85	21428
2026-01-08 11:22:54.08	220.08	2.72	-59.5	-62.8	6.2	0.00e+00	0	28	104	26642219008	85	21399
2026-01-08 11:22:55.23	220.05	2.64	-59.5	-62.8	6.2	0.00e+00	0	28	104	26642219008	85	21385
2026-01-08 11:22:56.10	220.03	2.58	-59.5	-62.7	6.2	0.00e+00	0	28	104	26642219008	85	21355
2026-01-08 11:22:57.25	220.00	2.49	-59.5	-62.7	6.2	0.00e+00	0	28	104	26642219008	85	21282
2026-01-08 11:22:58.12	219.98	2.43	-59.5	-62.7	6.2	0.00e+00	0	28	104	26642219008	85	21311
2026-01-08 11:22:59.27	219.95	2.35	-59.5	-62.7	6.2	0.00e+00	0	28	104	26642219008	85	21246
2026-01-08 11:23:00.12	219.94	2.29	-59.5	-62.7	6.2	0.00e+00	0	28	104	26642219008	85	21295
2026-01-08 11:23:01.27	219.91	2.21	-59.4	-62.7	6.2	0.00e+00	0	28	104	26642219008	85	21209
2026-01-08 11:23:02.14	219.89	2.15	-59.4	-62.7	6.2	0.00e+00	0	28	104	26642219008	85	21155
2026-01-08 11:23:03.28	219.86	2.07	-59.4	-62.6	6.2	0.00e+00	0	28	104	26642219008	85	21105
2026-01-08 11:23:04.15	219.85	2.01	-59.4	-62.7	6.1	0.00e+00	0	28	104	26642219008	85	21148
2026-01-08 11:23:05.30	219.82	1.93	-59.4	-62.7	6.1	0.00e+00	0	28	104	26642219008	85	21153
2026-01-08 11:23:06.17	219.80	1.87	-59.4	-62.7	6.2	0.00e+00	0	28	104	26642219008	85	21178

#Closed at: 2026-01-08 11:23:06
#Recorded file [26642 MB]: D:/lorett/data/31004_260108_141216.dat