passes_logs/2026/01/08/R3.2S_Murmansk/R3.2S_Murmansk__20260108_142306_FENGYUN_3D_rec.log

#Pass ID: 20260108_142306_FENGYUN 3D
#Satellite: FENGYUN 3D
#Configuration: FENGYUN 3D
#almurnet v.1.7.20251203
#Start time: 2026-01-08 14:23:08

#Version: 2.2.20231116
#Station: R3.2S_Murmansk
#Location: 33.079688 lon 68.888172 lat
#TLE: 1 43010U 17072A   26007.95585757  .00000190  00000+0  11182-3 0  9996
#TLE: 2 43010  98.9933 339.6629 0002109 121.4202 238.7180 14.19694196422257

#Time	Az	El	Level	Level2	SNR	BER	BlckErr	Temp	State	Recorded	gain1	gain2
2026-01-08 14:23:08.36	224.37	2.09	-57.3	-70.6	3.9	8.42e-01	0	23	0	0	81	16113
2026-01-08 14:23:09.37	224.46	2.14	-57.2	-70.6	3.9	8.43e-01	0	23	104	0	79	18015
2026-01-08 14:23:10.37	224.54	2.19	-57.2	-70.6	3.9	8.43e-01	0	23	104	0	79	18049
2026-01-08 14:23:11.38	224.62	2.25	-57.4	-70.7	3.9	8.42e-01	0	23	104	0	79	18133
2026-01-08 14:23:12.39	224.71	2.30	-57.8	-70.8	3.8	8.46e-01	0	23	104	0	80	17295
2026-01-08 14:23:13.40	224.80	2.35	-57.8	-70.7	3.8	8.46e-01	0	23	104	0	80	17226
2026-01-08 14:23:14.41	224.88	2.40	-57.8	-70.7	3.8	8.47e-01	0	23	104	0	80	17168
2026-01-08 14:23:15.42	224.97	2.45	-57.8	-70.7	3.8	8.46e-01	0	23	104	0	80	17125
2026-01-08 14:23:16.43	225.05	2.51	-57.8	-70.7	3.8	8.45e-01	0	23	104	0	80	17159
2026-01-08 14:23:17.44	225.14	2.56	-57.8	-70.7	3.8	8.45e-01	0	23	104	0	80	17172
2026-01-08 14:23:18.45	225.23	2.61	-57.8	-70.7	3.8	8.46e-01	0	23	104	0	80	17187
2026-01-08 14:23:19.46	225.31	2.66	-57.8	-70.7	3.8	8.46e-01	0	23	104	0	80	17201
2026-01-08 14:23:20.47	225.40	2.71	-57.8	-70.8	3.8	8.45e-01	0	23	104	0	80	17282
2026-01-08 14:23:21.47	225.49	2.77	-57.8	-70.7	3.8	8.46e-01	0	23	104	0	80	17167
2026-01-08 14:23:22.48	225.58	2.82	-57.8	-70.7	3.8	8.46e-01	0	23	104	0	80	17281
2026-01-08 14:23:23.49	225.67	2.87	-57.8	-70.8	3.8	8.46e-01	0	23	104	0	80	17333
2026-01-08 14:23:24.50	225.75	2.92	-57.8	-70.9	3.8	8.45e-01	0	23	104	0	80	17489
2026-01-08 14:23:25.50	225.84	2.98	-57.8	-70.8	3.8	8.46e-01	0	23	104	0	80	17443
2026-01-08 14:23:26.50	225.93	3.03	-57.8	-70.8	3.8	8.46e-01	0	23	104	0	80	17372
2026-01-08 14:23:27.51	226.02	3.08	-57.8	-70.7	3.8	8.46e-01	0	23	104	0	80	17239
2026-01-08 14:23:28.52	226.11	3.13	-57.8	-70.6	3.8	8.45e-01	0	23	104	0	80	16934
2026-01-08 14:23:29.53	226.20	3.19	-57.8	-70.5	3.8	8.46e-01	0	23	104	0	80	16835
2026-01-08 14:23:30.54	226.29	3.24	-57.8	-70.5	3.8	8.46e-01	0	23	104	0	80	16773
2026-01-08 14:23:31.54	226.38	3.29	-57.8	-70.4	3.8	8.46e-01	0	23	104	0	80	16603
2026-01-08 14:23:32.56	226.47	3.34	-57.8	-70.5	3.8	8.46e-01	0	23	104	0	80	16874
2026-01-08 14:23:33.56	226.56	3.40	-57.8	-70.7	3.8	8.46e-01	0	23	104	0	80	17120
2026-01-08 14:23:34.58	226.66	3.45	-57.8	-70.7	3.8	8.46e-01	0	23	104	0	80	17269
2026-01-08 14:23:35.58	226.75	3.50	-57.8	-70.8	3.8	8.45e-01	0	23	104	0	80	17444
2026-01-08 14:23:36.58	226.84	3.55	-57.8	-70.8	3.8	8.46e-01	0	23	104	0	80	17466
2026-01-08 14:23:37.59	226.93	3.61	-57.8	-70.8	3.8	8.46e-01	0	23	104	0	80	17368
2026-01-08 14:23:38.60	227.03	3.66	-57.8	-70.7	3.8	8.46e-01	0	23	104	0	80	17147
2026-01-08 14:23:39.61	227.12	3.71	-57.8	-70.5	3.8	8.45e-01	0	23	104	0	80	16751
2026-01-08 14:23:40.62	227.21	3.77	-57.8	-70.4	3.8	8.45e-01	0	24	104	0	80	16620
2026-01-08 14:23:41.63	227.31	3.82	-57.8	-70.2	3.8	8.45e-01	0	23	104	0	80	16245
2026-01-08 14:23:42.64	227.40	3.87	-57.8	-70.2	3.8	8.46e-01	0	23	104	0	80	16130
2026-01-08 14:23:43.65	227.50	3.93	-57.8	-70.2	3.8	8.46e-01	0	24	104	0	80	16283
2026-01-08 14:23:44.66	227.59	3.98	-57.7	-70.2	3.8	8.46e-01	0	23	104	0	80	16265
2026-01-08 14:23:45.66	227.69	4.03	-57.7	-70.1	3.8	8.45e-01	0	23	104	0	80	16119
2026-01-08 14:23:46.68	227.78	4.09	-57.7	-70.0	3.8	8.45e-01	0	23	104	0	80	15924
2026-01-08 14:23:47.69	227.88	4.14	-57.7	-70.0	3.8	8.47e-01	0	24	104	0	80	15867
2026-01-08 14:23:48.69	227.97	4.19	-57.7	-69.8	3.8	8.45e-01	0	24	104	0	80	15526
2026-01-08 14:23:49.70	228.07	4.25	-57.7	-69.8	3.8	8.45e-01	0	24	104	0	80	15539
2026-01-08 14:23:50.71	228.17	4.30	-57.8	-70.1	3.8	8.46e-01	0	24	104	0	80	16071
2026-01-08 14:23:51.72	228.27	4.35	-57.8	-70.5	3.8	8.45e-01	0	24	104	0	80	16848
2026-01-08 14:23:52.73	228.36	4.41	-57.8	-70.8	3.8	8.45e-01	0	24	104	0	80	17321
2026-01-08 14:23:53.74	228.46	4.46	-57.8	-70.3	3.8	8.45e-01	0	24	104	0	80	16406
2026-01-08 14:23:54.74	228.56	4.51	-57.7	-69.2	3.8	8.44e-01	0	24	104	0	80	14406
2026-01-08 14:23:55.74	228.66	4.57	-57.6	-68.0	4.0	8.43e-01	0	24	104	0	80	12541
2026-01-08 14:23:56.75	228.76	4.62	-57.5	-67.0	4.3	8.36e-01	0	24	0	0	80	11258
2026-01-08 14:23:57.76	228.85	4.67	-57.3	-66.1	4.6	8.21e-01	0	24	0	0	80	10076
2026-01-08 14:23:58.77	228.95	4.73	-57.4	-66.5	4.4	8.16e-01	0	24	0	0	80	10559
2026-01-08 14:23:59.78	229.05	4.78	-57.5	-67.2	4.2	8.35e-01	0	24	0	0	80	11537
2026-01-08 14:24:00.79	229.16	4.84	-57.5	-67.5	4.1	8.39e-01	0	24	0	0	80	11872
2026-01-08 14:24:01.80	229.26	4.89	-57.3	-66.1	4.6	8.23e-01	0	24	0	0	80	10147
2026-01-08 14:24:02.81	229.36	4.94	-56.9	-63.7	5.9	6.65e-01	0	24	0	1048576	80	7679
2026-01-08 14:24:03.81	229.46	5.00	-56.3	-61.6	7.6	1.26e-01	0	24	0	6291456	79	6358
2026-01-08 14:24:04.82	229.56	5.05	-56.1	-61.2	7.9	5.86e-02	0	24	0	12582912	78	6439
2026-01-08 14:24:05.83	229.66	5.11	-57.6	-67.3	4.2	8.08e-01	0	24	0	15728640	80	11683
2026-01-08 14:24:06.84	229.77	5.16	-54.7	-57.9	10.7	7.64e-02	0	24	0	18874368	76	4957
2026-01-08 14:24:07.85	229.87	5.21	-57.4	-67.5	4.1	8.37e-01	0	24	0	22020096	79	12574
2026-01-08 14:24:08.85	229.97	5.27	-49.5	-50.9	14.5	1.38e-02	0	24	0	25165824	65	4179
2026-01-08 14:24:09.86	230.07	5.32	-49.2	-50.7	14.7	0.00e+00	0	24	0	31457280	65	4065
2026-01-08 14:24:10.87	230.18	5.38	-49.2	-50.6	14.5	0.00e+00	0	24	0	36700160	64	4279
2026-01-08 14:24:11.88	230.28	5.43	-49.0	-50.4	14.7	0.00e+00	0	24	0	41943040	64	4181
2026-01-08 14:24:12.89	230.39	5.49	-49.3	-50.7	14.5	0.00e+00	0	24	0	48234496	64	4337
2026-01-08 14:24:13.90	230.49	5.54	-49.2	-50.6	14.5	0.00e+00	0	24	0	53477376	64	4285
2026-01-08 14:24:14.90	230.60	5.59	-49.4	-50.9	14.4	0.00e+00	0	24	0	59768832	64	4401
2026-01-08 14:24:15.91	230.70	5.65	-49.6	-51.1	14.3	0.00e+00	0	24	0	65011712	64	4508
2026-01-08 14:24:16.91	230.81	5.70	-49.2	-50.6	14.5	0.00e+00	0	24	0	70254592	64	4280
2026-01-08 14:24:17.92	230.92	5.76	-49.4	-50.8	14.4	0.00e+00	0	24	0	76546048	64	4386
2026-01-08 14:24:18.93	231.02	5.81	-49.2	-50.7	14.5	0.00e+00	0	24	0	81788928	64	4317
2026-01-08 14:24:19.94	231.13	5.87	-49.2	-50.7	14.5	0.00e+00	0	24	0	87031808	64	4308
2026-01-08 14:24:20.95	231.24	5.92	-49.2	-50.7	14.5	0.00e+00	0	24	0	93323264	64	4293
2026-01-08 14:24:21.96	231.35	5.98	-49.2	-50.7	14.5	0.00e+00	0	24	0	98566144	64	4302
2026-01-08 14:24:22.97	231.46	6.03	-49.0	-50.5	14.7	0.00e+00	0	24	0	104857600	64	4198
2026-01-08 14:24:23.98	231.56	6.09	-48.9	-50.3	14.7	0.00e+00	0	24	0	110100480	64	4121
2026-01-08 14:24:24.99	231.67	6.14	-48.9	-50.3	14.8	0.00e+00	0	24	0	116391936	64	4101
2026-01-08 14:24:25.99	231.78	6.19	-48.8	-50.2	14.8	0.00e+00	0	24	0	121634816	64	4057
2026-01-08 14:24:27.00	231.89	6.25	-48.7	-50.1	14.9	0.00e+00	0	24	0	126877696	64	4033
2026-01-08 14:24:28.01	232.00	6.30	-48.7	-50.1	14.9	0.00e+00	0	24	0	133169152	64	4020
2026-01-08 14:24:29.02	232.11	6.36	-48.7	-50.1	14.9	0.00e+00	0	24	0	138412032	64	4014
2026-01-08 14:24:30.03	232.23	6.41	-49.0	-50.3	14.7	0.00e+00	0	24	0	144703488	64	4141
2026-01-08 14:24:31.03	232.34	6.47	-48.7	-50.1	14.9	0.00e+00	0	24	0	149946368	64	4021
2026-01-08 14:24:32.04	232.45	6.52	-48.7	-50.0	14.8	0.00e+00	0	24	0	155189248	63	4237
2026-01-08 14:24:33.05	232.56	6.58	-48.7	-50.1	14.7	0.00e+00	0	24	0	161480704	63	4255
2026-01-08 14:24:34.05	232.67	6.63	-48.6	-50.0	14.8	0.00e+00	0	24	0	166723584	63	4210
2026-01-08 14:24:35.06	232.79	6.69	-48.6	-49.9	14.8	0.00e+00	0	24	0	173015040	63	4183
2026-01-08 14:24:36.06	232.90	6.74	-48.6	-49.9	14.8	0.00e+00	0	24	0	178257920	63	4172
2026-01-08 14:24:37.08	233.02	6.80	-48.7	-50.0	14.8	0.00e+00	0	24	0	183500800	63	4214
2026-01-08 14:24:38.08	233.13	6.85	-48.8	-50.2	14.7	0.00e+00	0	24	0	189792256	63	4292
2026-01-08 14:24:39.09	233.24	6.91	-48.7	-50.0	14.8	0.00e+00	0	24	0	195035136	63	4213
2026-01-08 14:24:40.10	233.36	6.96	-48.5	-49.8	14.8	0.00e+00	0	24	0	201326592	63	4133
2026-01-08 14:24:41.11	233.48	7.02	-48.6	-49.9	14.8	0.00e+00	0	24	0	206569472	63	4175
2026-01-08 14:24:42.12	233.59	7.07	-48.6	-50.0	14.8	0.00e+00	0	24	0	212860928	63	4210
2026-01-08 14:24:43.13	233.71	7.13	-48.7	-50.1	14.7	0.00e+00	0	24	0	218103808	63	4255
2026-01-08 14:24:44.14	233.83	7.18	-48.7	-50.1	14.7	0.00e+00	0	24	0	223346688	63	4252
2026-01-08 14:24:45.15	233.94	7.24	-48.7	-50.0	14.8	0.00e+00	0	24	0	229638144	63	4234
2026-01-08 14:24:46.16	234.06	7.29	-48.6	-49.9	14.8	0.00e+00	0	24	0	234881024	63	4175
2026-01-08 14:24:47.17	234.18	7.35	-48.5	-49.8	14.9	0.00e+00	0	24	0	241172480	63	4116
2026-01-08 14:24:48.18	234.30	7.41	-48.5	-49.8	14.9	0.00e+00	0	24	0	246415360	63	4115
2026-01-08 14:24:49.19	234.42	7.46	-48.3	-49.6	15.0	0.00e+00	0	24	0	251658240	63	4012
2026-01-08 14:24:50.20	234.54	7.52	-48.2	-49.5	15.1	0.00e+00	0	24	0	257949696	63	3985
2026-01-08 14:24:51.21	234.66	7.57	-48.2	-49.5	15.1	0.00e+00	0	24	0	263192576	63	3975
2026-01-08 14:24:52.22	234.78	7.63	-48.1	-49.3	15.0	0.00e+00	0	24	0	269484032	62	4130
2026-01-08 14:24:53.23	234.90	7.68	-48.1	-49.4	14.9	0.00e+00	0	24	0	274726912	62	4177
2026-01-08 14:24:54.24	235.02	7.74	-48.1	-49.4	14.9	0.00e+00	0	24	0	279969792	62	4161
2026-01-08 14:24:55.25	235.14	7.79	-48.1	-49.4	14.9	0.00e+00	0	24	0	286261248	62	4180
2026-01-08 14:24:56.24	235.26	7.85	-48.0	-49.3	15.0	0.00e+00	0	24	0	291504128	62	4120
2026-01-08 14:24:57.25	235.39	7.90	-48.1	-49.4	14.9	0.00e+00	0	24	0	297795584	62	4190
2026-01-08 14:24:58.26	235.51	7.96	-48.0	-49.3	15.0	0.00e+00	0	24	0	303038464	62	4101
2026-01-08 14:24:59.27	235.63	8.01	-48.1	-49.4	15.0	0.00e+00	0	24	0	309329920	62	4148
2026-01-08 14:25:00.28	235.76	8.07	-48.2	-49.5	14.9	0.00e+00	0	24	0	314572800	62	4200
2026-01-08 14:25:01.29	235.88	8.12	-48.3	-49.6	14.9	0.00e+00	0	24	0	319815680	62	4247
2026-01-08 14:25:02.30	236.01	8.18	-48.3	-49.6	14.9	0.00e+00	0	24	0	326107136	62	4243
2026-01-08 14:25:03.30	236.13	8.24	-48.4	-49.8	14.8	0.00e+00	0	24	0	331350016	62	4351
2026-01-08 14:25:04.32	236.26	8.29	-48.3	-49.6	14.9	0.00e+00	0	24	0	337641472	62	4263
2026-01-08 14:25:05.32	236.39	8.35	-48.3	-49.7	14.8	0.00e+00	0	24	0	342884352	62	4300
2026-01-08 14:25:06.33	236.51	8.40	-48.3	-49.7	14.8	0.00e+00	0	24	0	348127232	62	4296
2026-01-08 14:25:07.34	236.64	8.46	-48.3	-49.7	14.8	0.00e+00	0	24	0	354418688	62	4293
2026-01-08 14:25:08.35	236.77	8.51	-48.1	-49.4	14.9	0.00e+00	0	24	0	359661568	62	4184
2026-01-08 14:25:09.36	236.90	8.57	-48.2	-49.5	14.9	0.00e+00	0	24	0	365953024	62	4236
2026-01-08 14:25:10.37	237.03	8.62	-48.3	-49.6	14.9	0.00e+00	0	24	0	371195904	62	4271
2026-01-08 14:25:11.37	237.15	8.68	-48.2	-49.5	14.9	0.00e+00	0	24	0	376438784	62	4210
2026-01-08 14:25:12.38	237.28	8.73	-48.2	-49.5	14.9	0.00e+00	0	24	0	382730240	62	4237
2026-01-08 14:25:13.39	237.41	8.79	-48.2	-49.5	14.9	0.00e+00	0	24	0	387973120	62	4224
2026-01-08 14:25:14.40	237.54	8.85	-48.1	-49.3	15.0	0.00e+00	0	24	0	394264576	62	4141
2026-01-08 14:25:15.41	237.68	8.90	-48.2	-49.5	14.9	0.00e+00	0	24	0	399507456	62	4200
2026-01-08 14:25:16.41	237.81	8.96	-48.2	-49.5	14.9	0.00e+00	0	24	0	405798912	62	4220
2026-01-08 14:25:17.42	237.94	9.01	-48.0	-49.2	15.0	0.00e+00	0	24	0	411041792	62	4085
2026-01-08 14:25:18.43	238.07	9.07	-47.9	-49.2	15.1	0.00e+00	0	24	0	416284672	62	4079
2026-01-08 14:25:19.45	238.21	9.12	-47.9	-49.2	15.1	0.00e+00	0	24	0	422576128	62	4073
2026-01-08 14:25:20.45	238.34	9.18	-47.9	-49.2	15.1	0.00e+00	0	24	0	427819008	62	4077
2026-01-08 14:25:21.46	238.47	9.23	-47.9	-49.2	15.1	0.00e+00	0	24	0	434110464	62	4054
2026-01-08 14:25:22.46	238.61	9.29	-48.0	-49.3	15.0	0.00e+00	0	24	0	439353344	62	4129
2026-01-08 14:25:23.47	238.74	9.34	-48.2	-49.4	14.9	0.00e+00	0	24	0	444596224	62	4193
2026-01-08 14:25:24.48	238.88	9.40	-48.0	-49.2	15.0	0.00e+00	0	24	0	450887680	62	4089
2026-01-08 14:25:25.49	239.01	9.45	-48.0	-49.3	15.0	0.00e+00	0	24	0	456130560	62	4109
2026-01-08 14:25:26.49	239.15	9.51	-48.1	-49.4	15.0	0.00e+00	0	24	0	461373440	62	4175
2026-01-08 14:25:27.50	239.29	9.56	-48.1	-49.3	15.0	0.00e+00	0	24	0	467664896	62	4129
2026-01-08 14:25:28.51	239.42	9.62	-47.8	-49.1	15.1	0.00e+00	0	24	0	472907776	62	4020
2026-01-08 14:25:29.52	239.56	9.67	-47.8	-49.1	15.1	0.00e+00	0	24	0	479199232	62	4017
2026-01-08 14:25:30.53	239.70	9.73	-47.8	-49.1	15.1	0.00e+00	0	24	0	484442112	62	4018
2026-01-08 14:25:31.54	239.84	9.79	-47.7	-49.0	15.2	0.00e+00	0	24	0	490733568	62	3962
2026-01-08 14:25:32.55	239.98	9.84	-47.4	-48.6	15.2	0.00e+00	0	24	0	495976448	61	4032
2026-01-08 14:25:33.56	240.12	9.90	-47.1	-48.3	15.2	0.00e+00	0	24	0	502267904	60	4117
2026-01-08 14:25:34.57	240.26	9.95	-47.2	-48.3	15.1	0.00e+00	0	24	0	507510784	60	4139
2026-01-08 14:25:35.57	240.40	10.01	-47.2	-48.4	15.1	0.00e+00	0	24	0	512753664	60	4166
2026-01-08 14:25:36.58	240.54	10.06	-47.1	-48.3	15.2	0.00e+00	0	24	0	519045120	60	4129
2026-01-08 14:25:37.59	240.68	10.12	-47.2	-48.4	15.1	0.00e+00	0	24	0	524288000	60	4150
2026-01-08 14:25:38.60	240.83	10.17	-47.3	-48.5	15.1	0.00e+00	0	24	0	529530880	60	4195
2026-01-08 14:25:39.60	240.97	10.23	-47.3	-48.5	15.1	0.00e+00	0	24	0	535822336	60	4216
2026-01-08 14:25:40.61	241.11	10.28	-47.5	-48.7	15.0	0.00e+00	0	24	0	541065216	60	4338
2026-01-08 14:25:41.62	241.26	10.34	-47.5	-48.8	15.0	0.00e+00	0	24	0	547356672	60	4359
2026-01-08 14:25:42.63	241.40	10.39	-47.4	-48.6	15.0	0.00e+00	0	24	0	552599552	60	4279
2026-01-08 14:25:43.64	241.55	10.45	-47.4	-48.7	15.0	0.00e+00	0	24	0	557842432	60	4294
2026-01-08 14:25:44.65	241.69	10.50	-47.4	-48.7	15.0	0.00e+00	0	24	0	564133888	60	4295
2026-01-08 14:25:45.65	241.84	10.55	-47.4	-48.6	15.0	0.00e+00	0	24	0	569376768	60	4286
2026-01-08 14:25:46.67	241.99	10.61	-47.4	-48.6	15.1	0.00e+00	0	24	0	575668224	60	4266
2026-01-08 14:25:47.68	242.13	10.66	-47.4	-48.7	15.0	0.00e+00	0	24	0	580911104	60	4305
2026-01-08 14:25:48.69	242.28	10.72	-47.5	-48.7	15.0	0.00e+00	0	24	0	587202560	60	4317
2026-01-08 14:25:49.70	242.43	10.77	-47.5	-48.8	15.0	0.00e+00	0	24	0	592445440	60	4359
2026-01-08 14:25:50.71	242.58	10.83	-47.5	-48.7	15.1	0.00e+00	0	24	0	598736896	60	4308
2026-01-08 14:25:51.72	242.73	10.88	-47.5	-48.7	15.0	0.00e+00	0	24	0	603979776	60	4329
2026-01-08 14:25:52.72	242.88	10.94	-47.5	-48.8	15.0	0.00e+00	0	24	0	609222656	60	4345
2026-01-08 14:25:53.73	243.03	10.99	-47.4	-48.6	15.1	0.00e+00	0	24	0	615514112	60	4282
2026-01-08 14:25:54.74	243.18	11.05	-47.4	-48.7	15.0	0.00e+00	0	24	0	620756992	60	4296
2026-01-08 14:25:55.75	243.33	11.10	-47.4	-48.7	15.0	0.00e+00	0	24	0	625999872	60	4292
2026-01-08 14:25:56.75	243.48	11.15	-47.4	-48.6	15.1	0.00e+00	0	24	0	632291328	60	4284
2026-01-08 14:25:57.76	243.63	11.21	-47.4	-48.6	15.1	0.00e+00	0	24	0	637534208	60	4255
2026-01-08 14:25:58.77	243.79	11.26	-47.4	-48.7	15.0	0.00e+00	0	24	0	643825664	60	4301
2026-01-08 14:25:59.78	243.94	11.32	-47.4	-48.6	15.1	0.00e+00	0	24	0	649068544	60	4279
2026-01-08 14:26:00.79	244.10	11.37	-47.5	-48.7	15.0	0.00e+00	0	24	0	654311424	60	4321
2026-01-08 14:26:01.80	244.25	11.42	-47.4	-48.6	15.0	0.00e+00	0	24	0	660602880	60	4284
2026-01-08 14:26:02.80	244.41	11.48	-47.3	-48.6	15.1	0.00e+00	0	24	0	665845760	60	4248
2026-01-08 14:26:03.81	244.56	11.53	-47.3	-48.5	15.1	0.00e+00	0	24	0	672137216	60	4242
2026-01-08 14:26:04.82	244.72	11.59	-47.3	-48.5	15.1	0.00e+00	0	24	0	677380096	60	4209
2026-01-08 14:26:05.83	244.88	11.64	-47.2	-48.3	15.2	0.00e+00	0	24	0	683671552	60	4145
2026-01-08 14:26:06.84	245.03	11.69	-47.1	-48.3	15.2	0.00e+00	0	24	0	688914432	60	4125
2026-01-08 14:26:07.85	245.19	11.75	-47.1	-48.3	15.2	0.00e+00	0	24	0	694157312	60	4129
2026-01-08 14:26:08.85	245.35	11.80	-47.1	-48.3	15.2	0.00e+00	0	24	0	700448768	60	4135
2026-01-08 14:26:09.85	245.51	11.85	-47.0	-48.2	15.2	0.00e+00	0	24	0	705691648	60	4074
2026-01-08 14:26:10.86	245.67	11.91	-47.1	-48.3	15.2	0.00e+00	0	24	0	711983104	60	4103
2026-01-08 14:26:11.86	245.83	11.96	-47.0	-48.2	15.3	0.00e+00	0	24	0	717225984	60	4055
2026-01-08 14:26:12.87	245.99	12.01	-47.1	-48.3	15.2	0.00e+00	0	24	0	722468864	60	4129
2026-01-08 14:26:13.89	246.15	12.07	-47.1	-48.3	15.2	0.00e+00	0	24	0	728760320	60	4136
2026-01-08 14:26:14.89	246.31	12.12	-47.0	-48.1	15.3	0.00e+00	0	24	0	734003200	60	4048
2026-01-08 14:26:15.90	246.47	12.17	-46.9	-48.1	15.3	0.00e+00	0	24	0	739246080	60	4015
2026-01-08 14:26:16.91	246.64	12.22	-47.0	-48.1	15.3	0.00e+00	0	24	0	745537536	60	4036
2026-01-08 14:26:17.92	246.80	12.28	-47.0	-48.2	15.2	0.00e+00	0	24	0	750780416	60	4064
2026-01-08 14:26:18.93	246.97	12.33	-47.0	-48.1	15.2	0.00e+00	0	24	0	757071872	60	4048
2026-01-08 14:26:19.94	247.13	12.38	-47.1	-48.3	15.2	0.00e+00	0	24	0	762314752	60	4099
2026-01-08 14:26:20.94	247.30	12.43	-47.0	-48.2	15.2	0.00e+00	0	24	0	768606208	60	4084
2026-01-08 14:26:21.95	247.46	12.49	-47.1	-48.3	15.2	0.00e+00	0	24	0	773849088	60	4106
2026-01-08 14:26:22.96	247.63	12.54	-47.0	-48.2	15.2	0.00e+00	0	24	0	780140544	60	4091
2026-01-08 14:26:23.97	247.80	12.59	-47.0	-48.2	15.2	0.00e+00	0	24	0	785383424	60	4058
2026-01-08 14:26:24.98	247.96	12.64	-46.8	-48.0	15.4	0.00e+00	0	24	0	790626304	60	3960
2026-01-08 14:26:25.99	248.13	12.69	-46.7	-47.8	15.4	0.00e+00	0	24	0	796917760	60	3912
2026-01-08 14:26:27.00	248.30	12.75	-46.8	-48.0	15.4	0.00e+00	0	24	0	802160640	60	3961
2026-01-08 14:26:28.00	248.47	12.80	-46.8	-47.9	15.4	0.00e+00	0	24	0	807403520	60	3931
2026-01-08 14:26:29.01	248.64	12.85	-46.8	-48.0	15.4	0.00e+00	0	24	0	813694976	60	3960
2026-01-08 14:26:30.02	248.81	12.90	-46.9	-48.0	15.3	0.00e+00	0	24	0	818937856	60	4001
2026-01-08 14:26:31.03	248.98	12.95	-46.9	-48.0	15.3	0.00e+00	0	24	0	825229312	60	3996
2026-01-08 14:26:32.04	249.15	13.00	-46.9	-48.0	15.3	0.00e+00	0	24	0	830472192	60	3997
2026-01-08 14:26:33.04	249.32	13.05	-46.9	-48.1	15.3	0.00e+00	0	24	0	835715072	60	4012
2026-01-08 14:26:34.05	249.50	13.10	-46.9	-48.1	15.3	0.00e+00	0	24	0	842006528	60	4025
2026-01-08 14:26:35.06	249.67	13.15	-46.8	-48.0	15.3	0.00e+00	0	24	0	847249408	60	3972
2026-01-08 14:26:36.07	249.85	13.20	-46.9	-48.1	15.3	0.00e+00	0	25	0	853540864	60	4017
2026-01-08 14:26:37.07	250.02	13.25	-47.0	-48.2	15.2	0.00e+00	0	24	0	858783744	59	4313
2026-01-08 14:26:38.08	250.19	13.30	-47.1	-48.3	15.1	0.00e+00	0	24	0	865075200	59	4347
2026-01-08 14:26:39.09	250.37	13.35	-47.1	-48.3	15.1	0.00e+00	0	24	0	870318080	59	4383
2026-01-08 14:26:40.10	250.55	13.40	-47.1	-48.3	15.1	0.00e+00	0	24	0	875560960	59	4365
2026-01-08 14:26:41.11	250.72	13.45	-47.0	-48.2	15.2	0.00e+00	0	24	0	881852416	59	4313
2026-01-08 14:26:42.11	250.90	13.50	-47.0	-48.2	15.2	0.00e+00	0	24	0	887095296	59	4331
2026-01-08 14:26:43.12	251.08	13.55	-46.9	-48.1	15.2	0.00e+00	0	25	0	893386752	59	4257
2026-01-08 14:26:44.13	251.26	13.60	-46.9	-48.1	15.2	0.00e+00	0	24	0	898629632	59	4291
2026-01-08 14:26:45.14	251.44	13.65	-46.9	-48.1	15.2	0.00e+00	0	24	0	903872512	59	4262
2026-01-08 14:26:46.15	251.62	13.70	-46.9	-48.1	15.2	0.00e+00	0	24	0	910163968	59	4272
2026-01-08 14:26:47.15	251.80	13.75	-46.9	-48.1	15.2	0.00e+00	0	24	0	915406848	59	4282
2026-01-08 14:26:48.16	251.98	13.80	-46.9	-48.1	15.2	0.00e+00	0	24	0	921698304	59	4262
2026-01-08 14:26:49.17	252.16	13.85	-47.0	-48.2	15.2	0.00e+00	0	24	0	926941184	59	4297
2026-01-08 14:26:50.18	252.34	13.90	-46.9	-48.1	15.2	0.00e+00	0	24	0	932184064	59	4250
2026-01-08 14:26:51.19	252.52	13.94	-46.9	-48.0	15.2	0.00e+00	0	25	0	938475520	59	4229
2026-01-08 14:26:52.19	252.71	13.99	-46.9	-48.0	15.2	0.00e+00	0	24	0	943718400	59	4236
2026-01-08 14:26:53.20	252.89	14.04	-46.9	-48.1	15.2	0.00e+00	0	24	0	950009856	59	4253
2026-01-08 14:26:54.21	253.07	14.09	-46.9	-48.0	15.2	0.00e+00	0	24	0	955252736	59	4233
2026-01-08 14:26:55.22	253.26	14.14	-46.8	-48.0	15.2	0.00e+00	0	24	0	961544192	59	4227
2026-01-08 14:26:56.23	253.44	14.18	-46.8	-48.0	15.3	0.00e+00	0	24	0	966787072	59	4213
2026-01-08 14:26:57.23	253.63	14.23	-46.8	-48.0	15.2	0.00e+00	0	24	0	972029952	59	4228
2026-01-08 14:26:58.24	253.82	14.28	-46.8	-48.0	15.2	0.00e+00	0	24	0	978321408	59	4226
2026-01-08 14:26:59.25	254.00	14.32	-46.9	-48.1	15.2	0.00e+00	0	24	0	983564288	59	4257
2026-01-08 14:27:00.26	254.19	14.37	-47.0	-48.2	15.2	0.00e+00	0	24	0	989855744	59	4313
2026-01-08 14:27:01.27	254.38	14.42	-47.0	-48.1	15.2	0.00e+00	0	24	0	995098624	59	4289
2026-01-08 14:27:02.28	254.57	14.46	-47.0	-48.2	15.2	0.00e+00	0	24	0	1000341504	59	4309
2026-01-08 14:27:03.29	254.76	14.51	-46.8	-47.9	15.3	0.00e+00	0	24	0	1006632960	59	4193
2026-01-08 14:27:04.30	254.95	14.55	-46.7	-47.9	15.2	0.00e+00	0	24	0	1011875840	59	4177
2026-01-08 14:27:05.31	255.14	14.60	-46.7	-47.9	15.3	0.00e+00	0	24	0	1018167296	59	4176
2026-01-08 14:27:06.31	255.33	14.65	-46.7	-47.8	15.3	0.00e+00	0	24	0	1023410176	59	4129
2026-01-08 14:27:07.32	255.52	14.69	-46.6	-47.8	15.3	0.00e+00	0	24	0	1028653056	59	4116
2026-01-08 14:27:08.33	255.71	14.74	-46.7	-47.9	15.3	0.00e+00	0	24	0	1034944512	59	4148
2026-01-08 14:27:09.34	255.91	14.78	-46.6	-47.7	15.3	0.00e+00	0	24	0	1040187392	59	4097
2026-01-08 14:27:10.35	256.10	14.83	-46.7	-47.8	15.3	0.00e+00	0	24	0	1046478848	59	4138
2026-01-08 14:27:11.36	256.30	14.87	-46.7	-47.9	15.3	0.00e+00	0	25	0	1051721728	59	4151
2026-01-08 14:27:12.36	256.49	14.91	-46.8	-48.0	15.2	0.00e+00	0	25	0	1058013184	59	4198
2026-01-08 14:27:13.37	256.68	14.96	-46.7	-47.9	15.3	0.00e+00	0	24	0	1063256064	59	4154
2026-01-08 14:27:14.38	256.88	15.00	-46.8	-48.0	15.2	0.00e+00	0	25	0	1068498944	59	4203
2026-01-08 14:27:15.39	257.08	15.04	-46.6	-47.8	15.3	0.00e+00	0	24	0	1074790400	59	4118
2026-01-08 14:27:16.39	257.27	15.09	-46.7	-47.8	15.3	0.00e+00	0	25	0	1080033280	59	4137
2026-01-08 14:27:17.40	257.47	15.13	-46.6	-47.8	15.3	0.00e+00	0	24	0	1085276160	59	4116
2026-01-08 14:27:18.41	257.67	15.17	-46.7	-47.9	15.3	0.00e+00	0	24	0	1091567616	59	4169
2026-01-08 14:27:19.42	257.87	15.22	-46.8	-48.0	15.2	0.00e+00	0	24	0	1096810496	59	4197
2026-01-08 14:27:20.42	258.06	15.26	-46.6	-47.8	15.3	0.00e+00	0	24	0	1103101952	59	4118
2026-01-08 14:27:21.43	258.26	15.30	-46.6	-47.7	15.3	0.00e+00	0	24	0	1108344832	59	4089
2026-01-08 14:27:22.44	258.46	15.34	-46.7	-47.8	15.3	0.00e+00	0	24	0	1113587712	59	4139
2026-01-08 14:27:23.44	258.66	15.38	-46.7	-47.8	15.3	0.00e+00	0	24	0	1119879168	59	4128
2026-01-08 14:27:24.45	258.86	15.42	-46.7	-47.8	15.3	0.00e+00	0	24	0	1125122048	59	4145
2026-01-08 14:27:25.46	259.07	15.46	-46.8	-47.9	15.3	0.00e+00	0	24	0	1131413504	59	4183
2026-01-08 14:27:26.46	259.27	15.50	-46.7	-47.9	15.3	0.00e+00	0	25	0	1136656384	59	4175
2026-01-08 14:27:27.47	259.47	15.55	-46.7	-47.9	15.3	0.00e+00	0	24	0	1142947840	59	4182
2026-01-08 14:27:28.48	259.67	15.59	-46.6	-47.8	15.3	0.00e+00	0	24	0	1148190720	59	4133
2026-01-08 14:27:29.49	259.88	15.63	-46.6	-47.8	15.3	0.00e+00	0	24	0	1153433600	59	4127
2026-01-08 14:27:30.50	260.08	15.67	-46.6	-47.8	15.3	0.00e+00	0	24	0	1159725056	59	4127
2026-01-08 14:27:31.50	260.29	15.70	-46.7	-47.8	15.3	0.00e+00	0	25	0	1164967936	59	4142
2026-01-08 14:27:32.50	260.49	15.74	-46.6	-47.7	15.3	0.00e+00	0	24	0	1171259392	59	4094
2026-01-08 14:27:33.51	260.69	15.78	-46.6	-47.8	15.3	0.00e+00	0	25	0	1176502272	59	4099
2026-01-08 14:27:34.52	260.90	15.82	-46.4	-47.6	15.4	0.00e+00	0	25	0	1181745152	59	4015
2026-01-08 14:27:35.53	261.11	15.86	-46.5	-47.7	15.3	0.00e+00	0	24	0	1188036608	59	4070
2026-01-08 14:27:36.54	261.32	15.90	-46.6	-47.8	15.3	0.00e+00	0	24	0	1193279488	59	4111
2026-01-08 14:27:37.55	261.52	15.93	-46.7	-47.8	15.3	0.00e+00	0	24	0	1198522368	59	4142
2026-01-08 14:27:38.56	261.73	15.97	-46.6	-47.7	15.3	0.00e+00	0	24	0	1204813824	59	4081
2026-01-08 14:27:39.56	261.94	16.01	-46.6	-47.8	15.3	0.00e+00	0	25	0	1210056704	59	4112
2026-01-08 14:27:40.57	262.15	16.04	-46.5	-47.6	15.4	0.00e+00	0	24	0	1216348160	59	4038
2026-01-08 14:27:41.58	262.36	16.08	-46.4	-47.6	15.4	0.00e+00	0	24	0	1221591040	59	4023
2026-01-08 14:27:42.59	262.57	16.12	-46.5	-47.6	15.4	0.00e+00	0	24	0	1227882496	59	4040
2026-01-08 14:27:43.60	262.78	16.15	-46.5	-47.6	15.4	0.00e+00	0	24	0	1233125376	59	4026
2026-01-08 14:27:44.60	262.99	16.19	-46.5	-47.6	15.4	0.00e+00	0	24	0	1239416832	59	4043
2026-01-08 14:27:45.61	263.20	16.22	-46.4	-47.6	15.4	0.00e+00	0	24	0	1244659712	59	4012
2026-01-08 14:27:46.62	263.42	16.26	-46.3	-47.4	15.5	0.00e+00	0	24	0	1249902592	59	3957
2026-01-08 14:27:47.63	263.63	16.29	-46.3	-47.5	15.5	0.00e+00	0	24	0	1256194048	59	3961
2026-01-08 14:27:48.64	263.84	16.33	-46.4	-47.5	15.4	0.00e+00	0	25	0	1261436928	59	3987
2026-01-08 14:27:49.65	264.06	16.36	-46.4	-47.5	15.4	0.00e+00	0	24	0	1266679808	59	3973
2026-01-08 14:27:50.66	264.27	16.39	-46.3	-47.4	15.5	0.00e+00	0	24	0	1272971264	59	3923
2026-01-08 14:27:51.67	264.49	16.43	-46.2	-47.3	15.5	0.00e+00	0	24	0	1278214144	59	3903
2026-01-08 14:27:52.68	264.70	16.46	-46.2	-47.4	15.3	0.00e+00	0	24	0	1284505600	58	4154
2026-01-08 14:27:53.69	264.92	16.49	-46.2	-47.4	15.3	0.00e+00	0	24	0	1289748480	58	4155
2026-01-08 14:27:54.69	265.13	16.52	-46.3	-47.5	15.3	0.00e+00	0	24	0	1294991360	58	4202
2026-01-08 14:27:55.69	265.35	16.56	-46.3	-47.4	15.3	0.00e+00	0	24	0	1301282816	58	4183
2026-01-08 14:27:56.70	265.56	16.59	-46.3	-47.4	15.3	0.00e+00	0	25	0	1306525696	58	4166
2026-01-08 14:27:57.71	265.78	16.62	-46.3	-47.5	15.3	0.00e+00	0	25	0	1312817152	58	4203
2026-01-08 14:27:58.71	266.00	16.65	-46.3	-47.5	15.3	0.00e+00	0	25	0	1318060032	58	4198
2026-01-08 14:27:59.72	266.22	16.68	-46.3	-47.4	15.3	0.00e+00	0	25	0	1324351488	58	4166
2026-01-08 14:28:00.73	266.44	16.71	-46.3	-47.4	15.3	0.00e+00	0	24	0	1329594368	58	4175
2026-01-08 14:28:01.74	266.65	16.74	-46.3	-47.5	15.3	0.00e+00	0	25	0	1334837248	58	4203
2026-01-08 14:28:02.75	266.87	16.77	-46.4	-47.5	15.3	0.00e+00	0	24	0	1341128704	58	4233
2026-01-08 14:28:03.76	267.09	16.80	-46.5	-47.6	15.3	0.00e+00	0	24	0	1346371584	58	4285
2026-01-08 14:28:04.77	267.32	16.83	-46.4	-47.6	15.3	0.00e+00	0	25	0	1352663040	58	4253
2026-01-08 14:28:05.78	267.54	16.85	-46.6	-47.7	15.2	0.00e+00	0	24	0	1357905920	58	4324
2026-01-08 14:28:06.78	267.76	16.88	-46.4	-47.5	15.3	0.00e+00	0	24	0	1363148800	58	4232
2026-01-08 14:28:07.79	267.98	16.91	-46.4	-47.6	15.3	0.00e+00	0	25	0	1369440256	58	4267
2026-01-08 14:28:08.80	268.20	16.94	-46.5	-47.7	15.3	0.00e+00	0	24	0	1374683136	58	4298
2026-01-08 14:28:09.81	268.42	16.96	-46.3	-47.5	15.3	0.00e+00	0	24	0	1380974592	58	4196
2026-01-08 14:28:10.82	268.64	16.99	-46.3	-47.4	15.3	0.00e+00	0	24	0	1386217472	58	4191
2026-01-08 14:28:11.83	268.87	17.02	-46.3	-47.5	15.3	0.00e+00	0	24	0	1391460352	58	4195
2026-01-08 14:28:12.83	269.09	17.04	-46.4	-47.5	15.3	0.00e+00	0	24	0	1397751808	58	4239
2026-01-08 14:28:13.84	269.31	17.07	-46.4	-47.6	15.3	0.00e+00	0	24	0	1402994688	58	4245
2026-01-08 14:28:14.84	269.54	17.09	-46.5	-47.6	15.3	0.00e+00	0	24	0	1409286144	58	4275
2026-01-08 14:28:15.85	269.76	17.12	-46.5	-47.6	15.3	0.00e+00	0	24	0	1414529024	58	4275
2026-01-08 14:28:16.86	269.99	17.14	-46.6	-47.8	15.2	0.00e+00	0	24	0	1420820480	58	4345
2026-01-08 14:28:17.86	270.21	17.16	-46.6	-47.7	15.2	0.00e+00	0	24	0	1426063360	58	4338
2026-01-08 14:28:18.87	270.43	17.19	-46.7	-47.8	15.2	0.00e+00	0	24	0	1431306240	58	4389
2026-01-08 14:28:19.88	270.66	17.21	-46.6	-47.8	15.2	0.00e+00	0	24	0	1437597696	58	4341
2026-01-08 14:28:20.88	270.89	17.23	-46.5	-47.7	15.3	0.00e+00	0	24	0	1442840576	58	4298
2026-01-08 14:28:21.89	271.11	17.25	-46.4	-47.6	15.3	0.00e+00	0	25	0	1448083456	58	4246
2026-01-08 14:28:22.90	271.34	17.27	-46.3	-47.4	15.3	0.00e+00	0	24	0	1454374912	58	4191
2026-01-08 14:28:23.91	271.57	17.30	-46.2	-47.3	15.4	0.00e+00	0	24	0	1459617792	58	4126
2026-01-08 14:28:24.91	271.79	17.32	-46.3	-47.4	15.3	0.00e+00	0	24	0	1465909248	58	4154
2026-01-08 14:28:25.92	272.02	17.34	-46.2	-47.4	15.3	0.00e+00	0	25	0	1471152128	58	4152
2026-01-08 14:28:26.93	272.25	17.36	-46.3	-47.4	15.3	0.00e+00	0	24	0	1476395008	58	4193
2026-01-08 14:28:27.94	272.48	17.38	-46.5	-47.6	15.3	0.00e+00	0	24	0	1482686464	58	4274
2026-01-08 14:28:28.95	272.71	17.40	-46.5	-47.6	15.3	0.00e+00	0	24	0	1487929344	58	4279
2026-01-08 14:28:29.95	272.93	17.41	-46.5	-47.7	15.2	0.00e+00	0	24	0	1494220800	58	4300
2026-01-08 14:28:30.96	273.16	17.43	-46.4	-47.5	15.3	0.00e+00	0	24	0	1499463680	58	4240
2026-01-08 14:28:31.97	273.39	17.45	-46.4	-47.5	15.3	0.00e+00	0	25	0	1505755136	58	4225
2026-01-08 14:28:32.98	273.62	17.47	-46.5	-47.6	15.3	0.00e+00	0	24	0	1510998016	58	4252
2026-01-08 14:28:33.99	273.85	17.48	-46.3	-47.4	15.3	0.00e+00	0	24	0	1516240896	58	4163
2026-01-08 14:28:35.00	274.08	17.50	-46.3	-47.4	15.3	0.00e+00	0	24	0	1522532352	58	4188
2026-01-08 14:28:36.01	274.31	17.52	-46.4	-47.5	15.3	0.00e+00	0	25	0	1527775232	58	4241
2026-01-08 14:28:37.02	274.54	17.53	-46.3	-47.4	15.3	0.00e+00	0	25	0	1534066688	58	4180
2026-01-08 14:28:38.02	274.77	17.55	-46.3	-47.5	15.3	0.00e+00	0	25	0	1539309568	58	4201
2026-01-08 14:28:39.02	275.00	17.56	-46.2	-47.3	15.4	0.00e+00	0	24	0	1544552448	58	4138
2026-01-08 14:28:40.03	275.23	17.58	-46.2	-47.3	15.4	0.00e+00	0	24	0	1550843904	58	4120
2026-01-08 14:28:41.04	275.46	17.59	-46.2	-47.3	15.4	0.00e+00	0	24	0	1556086784	58	4139
2026-01-08 14:28:42.05	275.70	17.60	-46.2	-47.3	15.4	0.00e+00	0	25	0	1561329664	58	4125
2026-01-08 14:28:43.05	275.93	17.62	-46.3	-47.4	15.3	0.00e+00	0	24	0	1567621120	58	4168
2026-01-08 14:28:44.06	276.16	17.63	-46.3	-47.4	15.3	0.00e+00	0	25	0	1572864000	58	4193
2026-01-08 14:28:45.08	276.39	17.64	-46.3	-47.4	15.3	0.00e+00	0	24	0	1579155456	58	4184
2026-01-08 14:28:46.08	276.62	17.65	-46.3	-47.4	15.3	0.00e+00	0	24	0	1584398336	58	4165
2026-01-08 14:28:47.09	276.86	17.66	-46.4	-47.5	15.3	0.00e+00	0	24	0	1590689792	58	4216
2026-01-08 14:28:48.10	277.09	17.68	-46.4	-47.5	15.3	0.00e+00	0	24	0	1595932672	58	4233
2026-01-08 14:28:49.11	277.32	17.69	-46.4	-47.5	15.3	0.00e+00	0	25	0	1602224128	58	4221
2026-01-08 14:28:50.12	277.56	17.70	-46.4	-47.5	15.3	0.00e+00	0	25	0	1607467008	58	4242
2026-01-08 14:28:51.13	277.79	17.71	-46.2	-47.4	15.3	0.00e+00	0	25	0	1612709888	58	4149
2026-01-08 14:28:52.14	278.02	17.71	-46.2	-47.4	15.3	0.00e+00	0	25	0	1619001344	58	4149
2026-01-08 14:28:53.15	278.26	17.72	-46.1	-47.2	15.4	0.00e+00	0	24	0	1624244224	58	4075
2026-01-08 14:28:54.16	278.49	17.73	-46.2	-47.3	15.4	0.00e+00	0	25	0	1630535680	58	4107
2026-01-08 14:28:55.16	278.72	17.74	-46.2	-47.3	15.4	0.00e+00	0	25	0	1635778560	58	4112
2026-01-08 14:28:56.17	278.96	17.75	-46.2	-47.3	15.3	0.00e+00	0	24	0	1641021440	58	4136
2026-01-08 14:28:57.18	279.19	17.75	-46.3	-47.4	15.3	0.00e+00	0	24	0	1647312896	58	4191
2026-01-08 14:28:58.19	279.42	17.76	-46.2	-47.3	15.4	0.00e+00	0	25	0	1652555776	58	4115
2026-01-08 14:28:59.19	279.66	17.76	-46.2	-47.3	15.4	0.00e+00	0	24	0	1657798656	58	4139
2026-01-08 14:29:00.21	279.89	17.77	-46.2	-47.4	15.3	0.00e+00	0	24	0	1664090112	58	4147
2026-01-08 14:29:01.21	280.13	17.77	-46.3	-47.4	15.3	0.00e+00	0	24	0	1669332992	58	4170
2026-01-08 14:29:02.22	280.36	17.78	-46.3	-47.4	15.3	0.00e+00	0	24	0	1675624448	58	4176
2026-01-08 14:29:03.23	280.60	17.78	-46.3	-47.4	15.3	0.00e+00	0	24	0	1680867328	58	4180
2026-01-08 14:29:04.24	280.83	17.79	-46.3	-47.4	15.3	0.00e+00	0	24	0	1687158784	58	4184
2026-01-08 14:29:05.25	281.06	17.79	-46.4	-47.5	15.3	0.00e+00	0	25	0	1692401664	58	4225
2026-01-08 14:29:06.25	281.30	17.79	-46.2	-47.3	15.3	0.00e+00	0	24	0	1698693120	58	4145
2026-01-08 14:29:07.26	281.53	17.79	-46.3	-47.4	15.3	0.00e+00	0	24	0	1703936000	58	4157
2026-01-08 14:29:08.27	281.77	17.80	-46.4	-47.5	15.3	0.00e+00	0	25	0	1709178880	58	4236
2026-01-08 14:29:09.28	282.00	17.80	-46.4	-47.5	15.3	0.00e+00	0	24	0	1715470336	58	4216
2026-01-08 14:29:10.29	282.24	17.80	-46.4	-47.5	15.3	0.00e+00	0	24	0	1720713216	58	4226
2026-01-08 14:29:11.29	282.47	17.80	-46.4	-47.5	15.3	0.00e+00	0	24	0	1725956096	58	4229
2026-01-08 14:29:12.31	282.71	17.80	-46.4	-47.5	15.3	0.00e+00	0	24	0	1732247552	58	4235
2026-01-08 14:29:13.31	282.94	17.80	-46.4	-47.5	15.3	0.00e+00	0	25	0	1737490432	58	4223
2026-01-08 14:29:14.32	283.17	17.80	-46.4	-47.6	15.3	0.00e+00	0	24	0	1743781888	58	4257
2026-01-08 14:29:15.33	283.41	17.80	-46.5	-47.6	15.3	0.00e+00	0	24	0	1749024768	58	4264
2026-01-08 14:29:16.34	283.64	17.79	-46.5	-47.6	15.3	0.00e+00	0	24	0	1754267648	58	4289
2026-01-08 14:29:17.35	283.88	17.79	-46.5	-47.6	15.3	0.00e+00	0	24	0	1760559104	58	4270
2026-01-08 14:29:18.36	284.11	17.79	-46.5	-47.7	15.3	0.00e+00	0	24	0	1765801984	58	4301
2026-01-08 14:29:19.37	284.35	17.78	-46.5	-47.6	15.3	0.00e+00	0	25	0	1772093440	58	4270
2026-01-08 14:29:20.38	284.58	17.78	-46.5	-47.7	15.3	0.00e+00	0	24	0	1777336320	58	4302
2026-01-08 14:29:21.39	284.82	17.78	-46.6	-47.7	15.2	0.00e+00	0	24	0	1783627776	58	4330
2026-01-08 14:29:22.39	285.05	17.77	-46.7	-47.9	15.2	0.00e+00	0	24	0	1788870656	58	4417
2026-01-08 14:29:23.40	285.28	17.77	-46.8	-48.0	15.2	0.00e+00	0	24	0	1794113536	58	4443
2026-01-08 14:29:24.41	285.52	17.76	-46.7	-47.9	15.2	0.00e+00	0	25	0	1800404992	58	4400
2026-01-08 14:29:25.42	285.75	17.75	-46.7	-47.9	15.2	0.00e+00	0	24	0	1805647872	58	4417
2026-01-08 14:29:26.43	285.99	17.75	-46.7	-47.8	15.2	0.00e+00	0	24	0	1811939328	58	4386
2026-01-08 14:29:27.44	286.22	17.74	-46.5	-47.7	15.3	0.00e+00	0	24	0	1817182208	58	4300
2026-01-08 14:29:28.44	286.45	17.73	-46.6	-47.8	15.2	0.00e+00	0	24	0	1822425088	58	4344
2026-01-08 14:29:29.45	286.68	17.73	-46.6	-47.8	15.2	0.00e+00	0	24	0	1828716544	58	4350
2026-01-08 14:29:30.46	286.92	17.72	-46.6	-47.8	15.2	0.00e+00	0	25	0	1833959424	58	4365
2026-01-08 14:29:31.47	287.15	17.71	-46.6	-47.8	15.2	0.00e+00	0	24	0	1840250880	58	4364
2026-01-08 14:29:32.48	287.38	17.70	-46.6	-47.7	15.2	0.00e+00	0	24	0	1845493760	58	4334
2026-01-08 14:29:33.49	287.62	17.69	-46.6	-47.8	15.2	0.00e+00	0	24	0	1850736640	58	4353
2026-01-08 14:29:34.50	287.85	17.68	-46.4	-47.5	15.3	0.00e+00	0	25	0	1857028096	58	4209
2026-01-08 14:29:35.50	288.08	17.67	-46.3	-47.4	15.3	0.00e+00	0	24	0	1862270976	58	4171
2026-01-08 14:29:36.52	288.32	17.66	-46.3	-47.4	15.3	0.00e+00	0	25	0	1868562432	58	4153
2026-01-08 14:29:37.52	288.55	17.65	-46.3	-47.5	15.3	0.00e+00	0	24	0	1873805312	58	4200
2026-01-08 14:29:38.53	288.78	17.63	-46.5	-47.6	15.3	0.00e+00	0	24	0	1880096768	58	4265
2026-01-08 14:29:39.54	289.01	17.62	-46.5	-47.6	15.3	0.00e+00	0	24	0	1885339648	58	4277
2026-01-08 14:29:40.55	289.24	17.61	-46.6	-47.7	15.2	0.00e+00	0	25	0	1890582528	58	4311
2026-01-08 14:29:41.56	289.48	17.59	-46.6	-47.8	15.2	0.00e+00	0	24	0	1896873984	58	4341
2026-01-08 14:29:42.57	289.71	17.58	-46.5	-47.6	15.3	0.00e+00	0	25	0	1902116864	58	4290
2026-01-08 14:29:43.58	289.94	17.57	-46.5	-47.6	15.3	0.00e+00	0	24	0	1908408320	58	4268
2026-01-08 14:29:44.58	290.17	17.55	-46.6	-47.7	15.2	0.00e+00	0	24	0	1913651200	58	4333
2026-01-08 14:29:45.59	290.40	17.54	-46.7	-47.8	15.2	0.00e+00	0	24	0	1918894080	58	4384
2026-01-08 14:29:46.60	290.63	17.52	-46.6	-47.8	15.2	0.00e+00	0	24	0	1925185536	58	4343
2026-01-08 14:29:47.61	290.86	17.51	-46.6	-47.8	15.2	0.00e+00	0	25	0	1930428416	58	4343
2026-01-08 14:29:48.62	291.09	17.49	-46.8	-48.0	15.2	0.00e+00	0	24	0	1936719872	58	4445
2026-01-08 14:29:49.62	291.32	17.47	-46.8	-47.9	15.2	0.00e+00	0	25	0	1941962752	58	4433
2026-01-08 14:29:50.63	291.55	17.46	-46.8	-47.9	15.2	0.00e+00	0	24	0	1947205632	58	4436
2026-01-08 14:29:51.64	291.78	17.44	-46.8	-48.0	15.2	0.00e+00	0	24	0	1953497088	58	4453
2026-01-08 14:29:52.65	292.01	17.42	-46.8	-48.0	15.2	0.00e+00	0	24	0	1958739968	58	4455
2026-01-08 14:29:53.65	292.23	17.40	-46.7	-47.8	15.2	0.00e+00	0	25	0	1965031424	58	4387
2026-01-08 14:29:54.66	292.46	17.38	-46.7	-47.9	15.2	0.00e+00	0	24	0	1970274304	58	4413
2026-01-08 14:29:55.67	292.69	17.36	-46.8	-47.9	15.2	0.00e+00	0	24	0	1976565760	58	4425
2026-01-08 14:29:56.68	292.92	17.34	-46.9	-48.1	15.2	0.00e+00	0	24	0	1981808640	59	4270
2026-01-08 14:29:57.68	293.14	17.32	-46.9	-48.1	15.2	0.00e+00	0	25	0	1987051520	59	4283
2026-01-08 14:29:58.68	293.37	17.30	-47.1	-48.3	15.2	0.00e+00	0	24	0	1993342976	59	4374
2026-01-08 14:29:59.69	293.59	17.28	-47.1	-48.3	15.2	0.00e+00	0	25	0	1998585856	59	4371
2026-01-08 14:30:00.70	293.82	17.26	-47.1	-48.3	15.2	0.00e+00	0	25	0	2003828736	59	4370
2026-01-08 14:30:01.71	294.05	17.24	-47.0	-48.2	15.2	0.00e+00	0	24	0	2010120192	59	4320
2026-01-08 14:30:02.72	294.27	17.22	-47.0	-48.2	15.2	0.00e+00	0	24	0	2015363072	59	4311
2026-01-08 14:30:03.73	294.50	17.19	-46.9	-48.1	15.2	0.00e+00	0	24	0	2021654528	59	4276
2026-01-08 14:30:04.74	294.73	17.17	-46.8	-48.0	15.3	0.00e+00	0	25	0	2026897408	59	4197
2026-01-08 14:30:05.75	294.95	17.15	-46.7	-47.9	15.3	0.00e+00	0	24	0	2032140288	59	4164
2026-01-08 14:30:06.76	295.18	17.12	-46.8	-47.9	15.3	0.00e+00	0	24	0	2038431744	59	4183
2026-01-08 14:30:07.76	295.40	17.10	-46.8	-48.0	15.3	0.00e+00	0	24	0	2043674624	59	4205
2026-01-08 14:30:08.77	295.62	17.07	-46.8	-48.0	15.2	0.00e+00	0	24	0	2049966080	59	4217
2026-01-08 14:30:09.78	295.85	17.05	-46.7	-47.8	15.3	0.00e+00	0	24	0	2055208960	59	4137
2026-01-08 14:30:10.79	296.07	17.02	-46.7	-47.9	15.3	0.00e+00	0	24	0	2061500416	59	4165
2026-01-08 14:30:11.80	296.29	17.00	-46.8	-48.0	15.2	0.00e+00	0	24	0	2066743296	59	4209
2026-01-08 14:30:12.81	296.51	16.97	-46.8	-48.0	15.2	0.00e+00	0	25	0	2073034752	59	4221
2026-01-08 14:30:13.82	296.74	16.95	-46.8	-48.0	15.2	0.00e+00	0	25	0	2078277632	59	4210
2026-01-08 14:30:14.83	296.96	16.92	-46.9	-48.1	15.2	0.00e+00	0	25	0	2083520512	59	4248
2026-01-08 14:30:15.84	297.18	16.89	-46.9	-48.1	15.2	0.00e+00	0	24	0	2089811968	59	4284
2026-01-08 14:30:16.84	297.40	16.86	-47.0	-48.2	15.2	0.00e+00	0	25	0	2095054848	59	4312
2026-01-08 14:30:17.85	297.62	16.84	-47.0	-48.2	15.2	0.00e+00	0	24	0	2100297728	59	4312
2026-01-08 14:30:18.86	297.84	16.81	-47.0	-48.2	15.2	0.00e+00	0	24	0	2106589184	59	4330
2026-01-08 14:30:19.87	298.06	16.78	-47.1	-48.2	15.2	0.00e+00	0	24	0	2111832064	59	4333
2026-01-08 14:30:20.87	298.28	16.75	-47.0	-48.2	15.2	0.00e+00	0	24	0	2118123520	59	4305
2026-01-08 14:30:21.88	298.50	16.72	-47.0	-48.2	15.2	0.00e+00	0	24	0	2123366400	59	4312
2026-01-08 14:30:22.89	298.71	16.69	-47.0	-48.1	15.2	0.00e+00	0	24	0	2128609280	59	4286
2026-01-08 14:30:23.90	298.93	16.66	-47.0	-48.1	15.2	0.00e+00	0	25	0	2134900736	59	4282
2026-01-08 14:30:24.91	299.15	16.63	-46.9	-48.1	15.2	0.00e+00	0	24	0	2140143616	59	4257
2026-01-08 14:30:25.91	299.37	16.60	-47.0	-48.1	15.2	0.00e+00	0	25	0	2146435072	59	4286
2026-01-08 14:30:26.92	299.58	16.57	-46.8	-48.0	15.2	0.00e+00	0	24	0	2151677952	59	4219
2026-01-08 14:30:27.93	299.80	16.54	-46.9	-48.1	15.2	0.00e+00	0	24	0	2157969408	59	4253
2026-01-08 14:30:28.94	300.01	16.50	-46.9	-48.0	15.2	0.00e+00	0	24	0	2163212288	59	4231
2026-01-08 14:30:29.95	300.23	16.47	-46.9	-48.0	15.2	0.00e+00	0	24	0	2168455168	59	4225
2026-01-08 14:30:30.95	300.44	16.44	-46.9	-48.0	15.2	0.00e+00	0	24	0	2174746624	59	4234
2026-01-08 14:30:31.96	300.66	16.41	-46.9	-48.1	15.2	0.00e+00	0	24	0	2179989504	59	4279
2026-01-08 14:30:32.97	300.87	16.37	-46.9	-48.1	15.2	0.00e+00	0	24	0	2186280960	59	4268
2026-01-08 14:30:33.98	301.09	16.34	-47.0	-48.1	15.2	0.00e+00	0	24	0	2191523840	59	4278
2026-01-08 14:30:35.00	301.30	16.30	-46.9	-48.1	15.2	0.00e+00	0	25	0	2196766720	59	4261
2026-01-08 14:30:36.00	301.51	16.27	-46.9	-48.1	15.2	0.00e+00	0	24	0	2203058176	59	4246
2026-01-08 14:30:37.01	301.72	16.24	-46.9	-48.0	15.2	0.00e+00	0	25	0	2208301056	59	4229
2026-01-08 14:30:38.02	301.94	16.20	-46.8	-48.0	15.2	0.00e+00	0	25	0	2214592512	59	4195
2026-01-08 14:30:39.02	302.14	16.17	-46.9	-48.1	15.2	0.00e+00	0	24	0	2219835392	59	4268
2026-01-08 14:30:40.03	302.36	16.13	-46.8	-48.0	15.2	0.00e+00	0	25	0	2225078272	59	4219
2026-01-08 14:30:41.04	302.57	16.09	-46.8	-48.0	15.2	0.00e+00	0	25	0	2231369728	59	4195
2026-01-08 14:30:42.06	302.78	16.06	-46.9	-48.1	15.2	0.00e+00	0	25	0	2236612608	59	4250
2026-01-08 14:30:43.07	302.99	16.02	-46.9	-48.0	15.2	0.00e+00	0	25	0	2242904064	59	4241
2026-01-08 14:30:44.08	303.20	15.99	-46.9	-48.1	15.2	0.00e+00	0	25	0	2248146944	59	4264
2026-01-08 14:30:45.09	303.40	15.95	-47.0	-48.1	15.2	0.00e+00	0	24	0	2254438400	59	4285
2026-01-08 14:30:46.10	303.61	15.91	-47.0	-48.1	15.2	0.00e+00	0	24	0	2259681280	59	4286
2026-01-08 14:30:47.11	303.82	15.87	-47.0	-48.1	15.2	0.00e+00	0	25	0	2265972736	59	4285
2026-01-08 14:30:48.11	304.02	15.84	-47.1	-48.2	15.1	0.00e+00	0	25	0	2271215616	59	4338
2026-01-08 14:30:49.12	304.23	15.80	-47.0	-48.2	15.1	0.00e+00	0	25	0	2276458496	59	4299
2026-01-08 14:30:50.13	304.44	15.76	-46.9	-48.1	15.2	0.00e+00	0	24	0	2282749952	59	4260
2026-01-08 14:30:51.14	304.64	15.72	-47.0	-48.2	15.2	0.00e+00	0	24	0	2287992832	59	4307
2026-01-08 14:30:52.15	304.85	15.68	-47.1	-48.3	15.1	0.00e+00	0	24	0	2293235712	59	4356
2026-01-08 14:30:53.16	305.05	15.64	-47.2	-48.4	15.1	0.00e+00	0	24	0	2299527168	59	4421
2026-01-08 14:30:54.16	305.25	15.60	-47.3	-48.5	15.1	0.00e+00	0	24	0	2304770048	59	4459
2026-01-08 14:30:55.17	305.45	15.56	-47.3	-48.5	15.1	0.00e+00	0	24	0	2311061504	59	4451
2026-01-08 14:30:56.18	305.66	15.52	-47.4	-48.6	15.0	0.00e+00	0	24	0	2316304384	59	4508
2026-01-08 14:30:57.19	305.86	15.48	-47.2	-48.4	15.1	0.00e+00	0	25	0	2321547264	59	4404
2026-01-08 14:30:58.20	306.06	15.44	-47.1	-48.3	15.1	0.00e+00	0	24	0	2327838720	59	4385
2026-01-08 14:30:59.20	306.26	15.40	-47.1	-48.3	15.1	0.00e+00	0	24	0	2333081600	59	4372
2026-01-08 14:31:00.21	306.46	15.36	-47.0	-48.2	15.1	0.00e+00	0	25	0	2339373056	59	4319
2026-01-08 14:31:01.22	306.66	15.32	-47.1	-48.3	15.1	0.00e+00	0	24	0	2344615936	59	4378
2026-01-08 14:31:02.23	306.86	15.28	-47.1	-48.3	15.1	0.00e+00	0	24	0	2350907392	59	4371
2026-01-08 14:31:03.24	307.06	15.23	-47.2	-48.4	15.1	0.00e+00	0	25	0	2356150272	59	4396
2026-01-08 14:31:04.25	307.26	15.19	-47.1	-48.3	15.1	0.00e+00	0	24	0	2361393152	59	4383
2026-01-08 14:31:05.26	307.45	15.15	-47.2	-48.4	15.1	0.00e+00	0	24	0	2367684608	59	4427
2026-01-08 14:31:06.27	307.65	15.11	-47.2	-48.4	15.1	0.00e+00	0	24	0	2372927488	59	4422
2026-01-08 14:31:07.28	307.85	15.06	-47.2	-48.4	15.1	0.00e+00	0	24	0	2379218944	59	4420
2026-01-08 14:31:08.29	308.04	15.02	-47.2	-48.4	15.1	0.00e+00	0	24	0	2384461824	59	4417
2026-01-08 14:31:09.30	308.24	14.98	-47.1	-48.3	15.1	0.00e+00	0	24	0	2389704704	59	4379
2026-01-08 14:31:10.30	308.43	14.93	-47.1	-48.3	15.1	0.00e+00	0	25	0	2395996160	59	4387
2026-01-08 14:31:11.31	308.63	14.89	-47.1	-48.3	15.1	0.00e+00	0	24	0	2401239040	59	4380
2026-01-08 14:31:12.32	308.82	14.85	-47.3	-48.5	15.1	0.00e+00	0	25	0	2407530496	59	4463
2026-01-08 14:31:13.33	309.01	14.80	-47.4	-48.6	15.0	0.00e+00	0	25	0	2412773376	59	4518
2026-01-08 14:31:14.34	309.21	14.76	-47.3	-48.5	15.1	0.00e+00	0	24	0	2418016256	59	4447
2026-01-08 14:31:15.35	309.40	14.71	-47.2	-48.4	15.1	0.00e+00	0	24	0	2424307712	59	4400
2026-01-08 14:31:16.36	309.59	14.67	-47.2	-48.4	15.1	0.00e+00	0	24	0	2429550592	59	4399
2026-01-08 14:31:17.36	309.78	14.62	-47.1	-48.3	15.1	0.00e+00	0	25	0	2435842048	59	4348
2026-01-08 14:31:18.37	309.97	14.58	-47.1	-48.2	15.1	0.00e+00	0	24	0	2441084928	59	4335
2026-01-08 14:31:19.37	310.16	14.53	-47.0	-48.2	15.1	0.00e+00	0	24	0	2447376384	59	4306
2026-01-08 14:31:20.38	310.35	14.49	-47.1	-48.3	15.1	0.00e+00	0	24	0	2452619264	59	4368
2026-01-08 14:31:21.39	310.54	14.44	-47.2	-48.4	15.1	0.00e+00	0	24	0	2457862144	59	4405
2026-01-08 14:31:22.40	310.72	14.39	-47.2	-48.4	15.1	0.00e+00	0	25	0	2464153600	59	4437
2026-01-08 14:31:23.41	310.91	14.35	-47.3	-48.5	15.0	0.00e+00	0	24	0	2469396480	59	4484
2026-01-08 14:31:24.42	311.10	14.30	-47.3	-48.5	15.0	0.00e+00	0	25	0	2475687936	59	4489
2026-01-08 14:31:25.43	311.29	14.25	-47.3	-48.5	15.1	0.00e+00	0	24	0	2480930816	59	4464
2026-01-08 14:31:26.44	311.47	14.21	-47.4	-48.6	15.0	0.00e+00	0	24	0	2486173696	59	4514
2026-01-08 14:31:27.44	311.66	14.16	-47.1	-48.3	15.2	0.00e+00	0	24	0	2492465152	60	4114
2026-01-08 14:31:28.45	311.84	14.11	-47.2	-48.4	15.1	0.00e+00	0	24	0	2497708032	60	4163
2026-01-08 14:31:29.46	312.02	14.07	-47.0	-48.2	15.2	0.00e+00	0	24	0	2503999488	60	4084
2026-01-08 14:31:30.47	312.21	14.02	-46.9	-48.1	15.3	0.00e+00	0	25	0	2509242368	60	4009
2026-01-08 14:31:31.48	312.39	13.97	-46.9	-48.0	15.3	0.00e+00	0	25	0	2514485248	60	3993
2026-01-08 14:31:32.48	312.57	13.92	-47.1	-48.2	15.2	0.00e+00	0	25	0	2520776704	60	4092
2026-01-08 14:31:33.49	312.75	13.87	-47.0	-48.2	15.2	0.00e+00	0	24	0	2526019584	60	4073
2026-01-08 14:31:34.50	312.93	13.83	-47.0	-48.2	15.2	0.00e+00	0	24	0	2532311040	60	4074
2026-01-08 14:31:35.51	313.12	13.78	-47.1	-48.2	15.2	0.00e+00	0	25	0	2537553920	60	4096
2026-01-08 14:31:36.52	313.30	13.73	-47.2	-48.4	15.1	0.00e+00	0	25	0	2543845376	60	4155
2026-01-08 14:31:37.52	313.47	13.68	-47.2	-48.4	15.1	0.00e+00	0	25	0	2549088256	60	4154
2026-01-08 14:31:38.53	313.65	13.63	-47.1	-48.3	15.2	0.00e+00	0	25	0	2554331136	60	4104
2026-01-08 14:31:39.53	313.83	13.58	-47.2	-48.4	15.1	0.00e+00	0	24	0	2560622592	60	4167
2026-01-08 14:31:40.55	314.01	13.53	-47.2	-48.4	15.1	0.00e+00	0	24	0	2565865472	60	4180
2026-01-08 14:31:41.55	314.18	13.48	-47.2	-48.4	15.1	0.00e+00	0	24	0	2572156928	60	4178
2026-01-08 14:31:42.56	314.36	13.43	-47.3	-48.5	15.1	0.00e+00	0	25	0	2577399808	60	4225
2026-01-08 14:31:43.57	314.54	13.39	-47.3	-48.5	15.1	0.00e+00	0	25	0	2582642688	60	4226
2026-01-08 14:31:44.58	314.71	13.34	-47.2	-48.4	15.1	0.00e+00	0	24	0	2588934144	60	4174
2026-01-08 14:31:45.59	314.89	13.29	-47.2	-48.4	15.1	0.00e+00	0	24	0	2594177024	60	4192
2026-01-08 14:31:46.60	315.06	13.24	-47.2	-48.4	15.1	0.00e+00	0	25	0	2599419904	60	4158
2026-01-08 14:31:47.60	315.23	13.19	-47.2	-48.4	15.1	0.00e+00	0	25	0	2605711360	60	4191
2026-01-08 14:31:48.61	315.41	13.14	-47.3	-48.5	15.1	0.00e+00	0	24	0	2610954240	60	4197
2026-01-08 14:31:49.62	315.58	13.08	-47.2	-48.4	15.1	0.00e+00	0	25	0	2617245696	60	4188
2026-01-08 14:31:50.63	315.75	13.03	-47.1	-48.3	15.1	0.00e+00	0	25	0	2622488576	60	4140
2026-01-08 14:31:51.64	315.92	12.98	-47.2	-48.4	15.1	0.00e+00	0	24	0	2628780032	60	4190
2026-01-08 14:31:52.65	316.10	12.93	-47.3	-48.5	15.1	0.00e+00	0	24	0	2634022912	60	4208
2026-01-08 14:31:53.65	316.26	12.88	-47.4	-48.6	15.0	0.00e+00	0	24	0	2640314368	60	4255
2026-01-08 14:31:54.66	316.43	12.83	-47.3	-48.5	15.1	0.00e+00	0	24	0	2645557248	60	4198
2026-01-08 14:31:55.67	316.60	12.78	-47.3	-48.4	15.1	0.00e+00	0	25	0	2650800128	60	4191
2026-01-08 14:31:56.67	316.77	12.73	-47.3	-48.5	15.1	0.00e+00	0	24	0	2657091584	60	4195
2026-01-08 14:31:57.68	316.94	12.68	-47.3	-48.6	15.1	0.00e+00	0	24	0	2662334464	60	4245
2026-01-08 14:31:58.69	317.11	12.63	-47.3	-48.5	15.1	0.00e+00	0	24	0	2667577344	60	4233
2026-01-08 14:31:59.69	317.27	12.57	-47.4	-48.6	15.0	0.00e+00	0	24	0	2673868800	60	4261
2026-01-08 14:32:00.70	317.44	12.52	-47.4	-48.6	15.0	0.00e+00	0	24	0	2679111680	60	4263
2026-01-08 14:32:01.70	317.60	12.47	-47.4	-48.7	15.0	0.00e+00	0	25	0	2685403136	60	4302
2026-01-08 14:32:02.71	317.77	12.42	-47.5	-48.8	15.0	0.00e+00	0	25	0	2690646016	60	4353
2026-01-08 14:32:03.72	317.93	12.37	-47.4	-48.7	15.0	0.00e+00	0	25	0	2695888896	60	4293
2026-01-08 14:32:04.73	318.10	12.31	-47.5	-48.7	15.0	0.00e+00	0	25	0	2702180352	60	4320
2026-01-08 14:32:05.74	318.26	12.26	-47.5	-48.8	15.0	0.00e+00	0	25	0	2707423232	60	4351
2026-01-08 14:32:06.75	318.42	12.21	-47.5	-48.7	15.0	0.00e+00	0	25	0	2713714688	60	4323
2026-01-08 14:32:07.76	318.59	12.16	-47.4	-48.6	15.0	0.00e+00	0	25	0	2718957568	60	4289
2026-01-08 14:32:08.76	318.75	12.11	-47.3	-48.5	15.1	0.00e+00	0	24	0	2725249024	60	4229
2026-01-08 14:32:09.77	318.91	12.05	-47.3	-48.5	15.1	0.00e+00	0	25	0	2730491904	60	4231
2026-01-08 14:32:10.78	319.07	12.00	-47.3	-48.5	15.1	0.00e+00	0	25	0	2735734784	60	4210
2026-01-08 14:32:11.79	319.23	11.95	-47.2	-48.4	15.1	0.00e+00	0	25	0	2742026240	60	4187
2026-01-08 14:32:12.80	319.39	11.89	-47.2	-48.4	15.1	0.00e+00	0	25	0	2747269120	60	4193
2026-01-08 14:32:13.81	319.55	11.84	-47.4	-48.6	15.0	0.00e+00	0	24	0	2753560576	60	4255
2026-01-08 14:32:14.82	319.71	11.79	-47.4	-48.6	15.0	0.00e+00	0	25	0	2758803456	60	4285
2026-01-08 14:32:15.83	319.86	11.73	-47.4	-48.6	15.0	0.00e+00	0	25	0	2764046336	60	4271
2026-01-08 14:32:16.84	320.02	11.68	-47.4	-48.6	15.0	0.00e+00	0	24	0	2770337792	60	4289
2026-01-08 14:32:17.85	320.18	11.63	-47.4	-48.6	15.0	0.00e+00	0	25	0	2775580672	60	4285
2026-01-08 14:32:18.85	320.33	11.58	-47.4	-48.6	15.0	0.00e+00	0	25	0	2781872128	60	4287
2026-01-08 14:32:19.86	320.49	11.52	-47.4	-48.6	15.0	0.00e+00	0	25	0	2787115008	60	4269
2026-01-08 14:32:20.87	320.64	11.47	-47.4	-48.6	15.0	0.00e+00	0	25	0	2792357888	60	4278
2026-01-08 14:32:21.88	320.80	11.42	-47.4	-48.7	14.9	0.00e+00	0	25	0	2798649344	60	4306
2026-01-08 14:32:22.88	320.95	11.36	-47.5	-48.7	14.9	0.00e+00	0	24	0	2803892224	60	4314
2026-01-08 14:32:23.90	321.11	11.31	-47.5	-48.8	14.9	0.00e+00	0	25	0	2810183680	60	4347
2026-01-08 14:32:24.90	321.26	11.25	-47.4	-48.7	15.0	0.00e+00	0	24	0	2815426560	60	4300
2026-01-08 14:32:25.91	321.41	11.20	-47.4	-48.6	15.0	0.00e+00	0	25	0	2821718016	60	4284
2026-01-08 14:32:26.92	321.56	11.15	-47.3	-48.5	15.0	0.00e+00	0	24	0	2826960896	60	4238
2026-01-08 14:32:27.93	321.72	11.09	-47.5	-48.7	14.9	0.00e+00	0	25	0	2832203776	60	4334
2026-01-08 14:32:28.94	321.87	11.04	-47.5	-48.7	14.9	0.00e+00	0	25	0	2838495232	60	4337
2026-01-08 14:32:29.95	322.02	10.98	-47.6	-48.8	14.9	0.00e+00	0	25	0	2843738112	60	4372
2026-01-08 14:32:30.96	322.17	10.93	-47.6	-48.8	14.9	0.00e+00	0	25	0	2850029568	60	4385
2026-01-08 14:32:31.97	322.32	10.88	-47.6	-48.8	14.9	0.00e+00	0	25	0	2855272448	60	4380
2026-01-08 14:32:32.97	322.46	10.82	-47.7	-48.9	14.9	0.00e+00	0	24	0	2860515328	60	4430
2026-01-08 14:32:33.99	322.61	10.77	-47.7	-49.0	14.8	0.00e+00	0	24	0	2866806784	60	4459
2026-01-08 14:32:35.00	322.76	10.71	-48.0	-49.3	14.9	0.00e+00	0	25	0	2872049664	61	4357
2026-01-08 14:32:36.00	322.91	10.66	-48.0	-49.3	14.8	0.00e+00	0	24	0	2877292544	61	4370
2026-01-08 14:32:37.01	323.05	10.61	-47.9	-49.2	14.9	0.00e+00	0	25	0	2883584000	61	4312
2026-01-08 14:32:38.02	323.20	10.55	-47.8	-49.0	14.9	0.00e+00	0	25	0	2888826880	61	4236
2026-01-08 14:32:39.03	323.35	10.50	-48.0	-49.3	14.8	0.00e+00	0	25	0	2895118336	61	4379
2026-01-08 14:32:40.03	323.49	10.44	-48.2	-49.5	14.7	0.00e+00	0	25	0	2900361216	61	4458
2026-01-08 14:32:41.03	323.63	10.39	-48.1	-49.4	14.8	0.00e+00	0	24	0	2906652672	61	4403
2026-01-08 14:32:42.05	323.78	10.33	-47.9	-49.1	14.9	0.00e+00	0	24	0	2911895552	61	4278
2026-01-08 14:32:43.05	323.92	10.28	-47.9	-49.2	14.8	0.00e+00	0	24	0	2918187008	61	4312
2026-01-08 14:32:44.06	324.06	10.22	-47.8	-49.1	14.9	0.00e+00	0	25	0	2923429888	61	4252
2026-01-08 14:32:45.07	324.21	10.17	-47.8	-49.1	14.9	0.00e+00	0	25	0	2928672768	61	4245
2026-01-08 14:32:46.08	324.35	10.12	-47.8	-49.1	14.8	0.00e+00	0	25	0	2934964224	61	4270
2026-01-08 14:32:47.09	324.49	10.06	-47.8	-49.1	14.9	0.00e+00	0	24	0	2940207104	61	4253
2026-01-08 14:32:48.10	324.63	10.01	-47.8	-49.0	14.9	0.00e+00	0	25	0	2945449984	61	4234
2026-01-08 14:32:49.10	324.77	9.95	-47.8	-49.1	14.8	0.00e+00	0	25	0	2951741440	61	4271
2026-01-08 14:32:50.11	324.91	9.90	-48.0	-49.3	14.8	0.00e+00	0	25	0	2956984320	61	4362
2026-01-08 14:32:51.12	325.05	9.84	-48.0	-49.3	14.8	0.00e+00	0	25	0	2963275776	61	4350
2026-01-08 14:32:52.13	325.19	9.79	-47.8	-49.1	14.9	0.00e+00	0	25	0	2968518656	61	4260
2026-01-08 14:32:53.14	325.33	9.73	-47.9	-49.2	14.8	0.00e+00	0	25	0	2973761536	61	4322
2026-01-08 14:32:54.15	325.46	9.68	-48.0	-49.2	14.8	0.00e+00	0	25	0	2980052992	61	4336
2026-01-08 14:32:55.16	325.60	9.62	-47.9	-49.2	14.8	0.00e+00	0	25	0	2985295872	61	4307
2026-01-08 14:32:56.16	325.74	9.57	-48.0	-49.3	14.8	0.00e+00	0	25	0	2991587328	61	4353
2026-01-08 14:32:57.18	325.88	9.51	-48.0	-49.3	14.8	0.00e+00	0	25	0	2996830208	61	4343
2026-01-08 14:32:58.18	326.01	9.46	-47.9	-49.3	14.8	0.00e+00	0	25	0	3003121664	61	4343
2026-01-08 14:32:59.19	326.15	9.40	-48.0	-49.3	14.8	0.00e+00	0	25	0	3008364544	61	4363
2026-01-08 14:33:00.20	326.28	9.35	-47.9	-49.2	14.9	0.00e+00	0	25	0	3013607424	61	4294
2026-01-08 14:33:01.21	326.42	9.29	-47.8	-49.0	14.9	0.00e+00	0	25	0	3019898880	61	4238
2026-01-08 14:33:02.22	326.55	9.24	-47.6	-48.9	15.0	0.00e+00	0	25	0	3025141760	61	4160
2026-01-08 14:33:03.23	326.68	9.18	-47.8	-49.1	14.9	0.00e+00	0	25	0	3031433216	61	4260
2026-01-08 14:33:04.24	326.82	9.13	-48.1	-49.4	14.7	0.00e+00	0	25	0	3036676096	61	4414
2026-01-08 14:33:05.25	326.95	9.07	-48.0	-49.3	14.8	0.00e+00	0	25	0	3041918976	61	4372
2026-01-08 14:33:06.25	327.08	9.02	-47.9	-49.2	14.8	0.00e+00	0	24	0	3048210432	61	4302
2026-01-08 14:33:07.27	327.21	8.96	-47.9	-49.2	14.8	0.00e+00	0	25	0	3053453312	61	4296
2026-01-08 14:33:08.27	327.34	8.91	-48.0	-49.2	14.8	0.00e+00	0	25	0	3059744768	61	4334
2026-01-08 14:33:09.28	327.47	8.85	-48.0	-49.3	14.8	0.00e+00	0	25	0	3064987648	61	4351
2026-01-08 14:33:10.29	327.60	8.80	-48.1	-49.5	14.7	0.00e+00	0	25	0	3070230528	61	4442
2026-01-08 14:33:11.30	327.73	8.74	-48.2	-49.6	14.7	0.00e+00	0	25	0	3076521984	61	4503
2026-01-08 14:33:12.31	327.86	8.69	-48.4	-49.7	14.6	0.00e+00	0	25	0	3081764864	61	4592
2026-01-08 14:33:13.32	327.99	8.63	-48.4	-49.7	14.6	0.00e+00	0	25	0	3088056320	61	4579
2026-01-08 14:33:14.33	328.12	8.58	-48.3	-49.6	14.7	0.00e+00	0	24	0	3093299200	62	4283
2026-01-08 14:33:15.33	328.25	8.52	-48.5	-49.8	14.7	0.00e+00	0	25	0	3099590656	62	4375
2026-01-08 14:33:16.34	328.37	8.47	-48.5	-49.8	14.6	0.00e+00	0	25	0	3104833536	62	4384
2026-01-08 14:33:17.35	328.50	8.41	-48.5	-49.9	14.6	0.00e+00	0	25	0	3110076416	62	4410
2026-01-08 14:33:18.35	328.63	8.36	-48.4	-49.7	14.7	0.00e+00	0	25	0	3116367872	62	4318
2026-01-08 14:33:19.36	328.75	8.30	-48.6	-49.9	14.6	0.00e+00	0	25	0	3121610752	62	4430
2026-01-08 14:33:20.37	328.88	8.25	-48.6	-50.0	14.6	0.00e+00	0	25	0	3127902208	62	4446
2026-01-08 14:33:21.38	329.00	8.19	-48.7	-50.1	14.5	0.00e+00	0	25	0	3133145088	62	4530
2026-01-08 14:33:22.39	329.13	8.14	-48.8	-50.2	14.5	0.00e+00	0	25	0	3138387968	62	4568
2026-01-08 14:33:23.40	329.25	8.08	-48.8	-50.2	14.5	0.00e+00	0	25	0	3144679424	62	4548
2026-01-08 14:33:24.41	329.38	8.03	-48.6	-50.0	14.5	0.00e+00	0	25	0	3149922304	62	4476
2026-01-08 14:33:25.42	329.50	7.97	-48.7	-50.1	14.5	0.00e+00	0	25	0	3156213760	62	4498
2026-01-08 14:33:26.43	329.62	7.92	-48.7	-50.1	14.5	0.00e+00	0	25	0	3161456640	62	4509
2026-01-08 14:33:27.43	329.74	7.86	-48.6	-49.9	14.6	0.00e+00	0	25	0	3166699520	62	4430
2026-01-08 14:33:28.44	329.87	7.81	-48.7	-50.1	14.5	0.00e+00	0	25	0	3172990976	62	4516
2026-01-08 14:33:29.45	329.99	7.75	-49.0	-50.4	14.5	0.00e+00	0	24	0	3178233856	63	4440
2026-01-08 14:33:30.46	330.11	7.70	-48.8	-50.1	14.6	0.00e+00	0	25	0	3184525312	63	4283
2026-01-08 14:33:31.47	330.23	7.64	-48.8	-50.2	14.6	0.00e+00	0	25	0	3189768192	63	4292
2026-01-08 14:33:32.48	330.35	7.59	-49.0	-50.4	14.5	0.00e+00	0	25	0	3196059648	63	4402
2026-01-08 14:33:33.49	330.47	7.53	-48.8	-50.2	14.6	0.00e+00	0	24	0	3201302528	63	4295
2026-01-08 14:33:34.50	330.59	7.48	-48.7	-50.1	14.6	0.00e+00	0	25	0	3206545408	63	4279
2026-01-08 14:33:35.50	330.71	7.42	-48.9	-50.3	14.5	0.00e+00	0	25	0	3212836864	63	4378
2026-01-08 14:33:36.51	330.82	7.37	-48.8	-50.2	14.5	0.00e+00	0	25	0	3218079744	63	4339
2026-01-08 14:33:37.52	330.94	7.31	-48.9	-50.3	14.5	0.00e+00	0	25	0	3224371200	63	4356
2026-01-08 14:33:38.53	331.06	7.26	-48.8	-50.2	14.6	0.00e+00	0	25	0	3229614080	63	4327
2026-01-08 14:33:39.53	331.18	7.20	-48.7	-50.1	14.6	0.00e+00	0	25	0	3234856960	63	4277
2026-01-08 14:33:40.54	331.29	7.15	-48.7	-50.1	14.6	0.00e+00	0	25	0	3241148416	63	4284
2026-01-08 14:33:41.54	331.41	7.10	-48.9	-50.3	14.5	0.00e+00	0	25	0	3246391296	63	4373
2026-01-08 14:33:42.55	331.52	7.04	-48.8	-50.2	14.6	0.00e+00	0	25	0	3252682752	63	4335
2026-01-08 14:33:43.56	331.64	6.99	-48.9	-50.4	14.5	0.00e+00	0	25	0	3257925632	63	4396
2026-01-08 14:33:44.57	331.76	6.93	-48.9	-50.3	14.5	0.00e+00	0	25	0	3263168512	63	4391
2026-01-08 14:33:45.57	331.87	6.88	-48.9	-50.4	14.5	0.00e+00	0	25	0	3269459968	63	4413
2026-01-08 14:33:46.58	331.98	6.82	-48.8	-50.2	14.5	0.00e+00	0	25	0	3274702848	63	4332
2026-01-08 14:33:47.59	332.10	6.77	-49.0	-50.4	14.4	0.00e+00	0	25	0	3280994304	63	4432
2026-01-08 14:33:48.60	332.21	6.71	-49.3	-50.8	14.2	0.00e+00	0	25	0	3286237184	63	4608
2026-01-08 14:33:49.60	332.32	6.66	-49.3	-50.8	14.2	0.00e+00	0	25	0	3292528640	63	4602
2026-01-08 14:33:50.61	332.44	6.60	-49.0	-50.4	14.4	0.00e+00	0	25	0	3297771520	63	4418
2026-01-08 14:33:51.63	332.55	6.55	-48.8	-50.2	14.5	0.00e+00	0	25	0	3303014400	63	4301
2026-01-08 14:33:52.63	332.66	6.50	-48.9	-50.4	14.4	0.00e+00	0	25	0	3309305856	63	4397
2026-01-08 14:33:53.64	332.77	6.44	-49.0	-50.4	14.4	0.00e+00	0	25	0	3314548736	63	4406
2026-01-08 14:33:54.66	332.88	6.39	-48.6	-50.0	14.6	0.00e+00	0	25	0	3320840192	63	4215
2026-01-08 14:33:55.66	332.99	6.33	-49.0	-50.5	14.4	0.00e+00	0	25	0	3326083072	63	4461
2026-01-08 14:33:56.67	333.10	6.28	-49.2	-50.7	14.3	0.00e+00	0	25	0	3331325952	63	4561
2026-01-08 14:33:57.68	333.21	6.22	-49.3	-50.7	14.2	0.00e+00	0	25	0	3337617408	63	4579
2026-01-08 14:33:58.69	333.32	6.17	-49.0	-50.4	14.4	0.00e+00	0	25	0	3342860288	63	4426
2026-01-08 14:33:59.70	333.43	6.11	-49.1	-50.5	14.3	0.00e+00	0	25	0	3348103168	63	4477
2026-01-08 14:34:00.70	333.54	6.06	-49.2	-50.7	14.2	0.00e+00	0	25	0	3354394624	63	4567
2026-01-08 14:34:01.72	333.65	6.01	-49.4	-50.9	14.1	0.00e+00	0	25	0	3359637504	63	4679
2026-01-08 14:34:02.73	333.76	5.95	-49.2	-50.6	14.4	0.00e+00	0	25	0	3365928960	64	4289
2026-01-08 14:34:03.73	333.86	5.90	-49.4	-51.0	14.2	0.00e+00	0	25	0	3371171840	64	4446
2026-01-08 14:34:04.74	333.97	5.84	-49.4	-51.0	14.2	0.00e+00	0	25	0	3377463296	64	4442
2026-01-08 14:34:05.75	334.08	5.79	-49.1	-50.6	14.4	0.00e+00	0	25	0	3382706176	64	4279
2026-01-08 14:34:06.76	334.19	5.74	-49.0	-50.5	14.5	0.00e+00	0	24	0	3388997632	64	4212
2026-01-08 14:34:07.76	334.29	5.68	-49.5	-51.0	14.2	0.00e+00	0	25	0	3394240512	64	4469
2026-01-08 14:34:08.77	334.40	5.63	-48.8	-50.2	14.6	0.00e+00	0	25	0	3399483392	64	4078
2026-01-08 14:34:09.78	334.50	5.57	-49.3	-50.8	14.3	0.00e+00	0	25	0	3405774848	64	4351
2026-01-08 14:34:10.78	334.61	5.52	-49.4	-51.0	14.1	0.00e+00	0	25	0	3411017728	64	4444
2026-01-08 14:34:11.79	334.71	5.47	-49.1	-50.6	14.3	0.00e+00	0	25	0	3416260608	64	4279
2026-01-08 14:34:12.79	334.81	5.41	-49.3	-50.9	14.1	0.00e+00	0	25	0	3422552064	64	4398
2026-01-08 14:34:13.80	334.92	5.36	-49.1	-50.6	14.3	0.00e+00	0	25	0	3427794944	64	4275
2026-01-08 14:34:14.81	335.02	5.31	-49.0	-50.5	14.3	0.00e+00	0	25	0	3434086400	64	4242
2026-01-08 14:34:15.82	335.12	5.25	-48.8	-50.3	14.5	0.00e+00	0	25	0	3439329280	64	4125
2026-01-08 14:34:16.83	335.23	5.20	-49.3	-50.8	14.2	0.00e+00	0	25	0	3444572160	64	4362
2026-01-08 14:34:17.83	335.33	5.14	-49.3	-50.8	14.2	0.00e+00	0	25	0	3450863616	64	4379
2026-01-08 14:34:18.84	335.43	5.09	-48.9	-50.3	14.5	0.00e+00	0	25	0	3456106496	64	4136
2026-01-08 14:34:19.84	335.53	5.04	-49.0	-50.5	14.4	0.00e+00	0	25	0	3462397952	64	4223
2026-01-08 14:34:20.85	335.63	4.98	-56.0	-60.9	8.1	4.00e-05	0	25	0	3467640832	77	6598
2026-01-08 14:34:21.86	335.73	4.93	-58.4	-71.4	3.8	8.45e-01	0	25	104	3468689408	81	17654
2026-01-08 14:34:22.87	335.84	4.88	-58.9	-71.9	3.8	8.44e-01	0	25	104	3468689408	82	17611
2026-01-08 14:34:23.88	335.94	4.82	-59.2	-72.3	3.8	8.45e-01	0	25	104	3468689408	83	17362
2026-01-08 14:34:24.89	336.04	4.77	-59.4	-72.5	3.8	8.46e-01	0	25	104	3468689408	83	17792
2026-01-08 14:34:25.90	336.14	4.72	-59.8	-72.9	3.8	8.45e-01	0	25	104	3468689408	84	17506
2026-01-08 14:34:26.91	336.23	4.66	-59.9	-73.0	3.8	8.45e-01	0	25	104	3468689408	84	17790
2026-01-08 14:34:27.92	336.33	4.61	-60.0	-73.1	3.8	8.45e-01	0	25	104	3468689408	85	16997
2026-01-08 14:34:28.93	336.43	4.56	-60.1	-73.2	3.8	8.45e-01	0	25	104	3468689408	85	17217
2026-01-08 14:34:29.93	336.53	4.50	-60.2	-73.3	3.8	8.46e-01	0	25	104	3468689408	85	17359
2026-01-08 14:34:30.94	336.63	4.45	-60.2	-73.3	3.8	8.46e-01	0	25	104	3468689408	85	17458
2026-01-08 14:34:31.95	336.73	4.40	-60.3	-73.3	3.8	8.45e-01	0	25	104	3468689408	85	17458
2026-01-08 14:34:32.96	336.82	4.34	-60.3	-73.4	3.8	8.46e-01	0	25	104	3468689408	85	17587
2026-01-08 14:34:33.97	336.92	4.29	-60.3	-73.4	3.8	8.45e-01	0	25	104	3468689408	85	17605
2026-01-08 14:34:34.98	337.02	4.24	-60.3	-73.4	3.8	8.46e-01	0	25	104	3468689408	85	17616
2026-01-08 14:34:35.98	337.11	4.18	-60.4	-73.4	3.8	8.46e-01	0	25	104	3468689408	85	17680
2026-01-08 14:34:36.99	337.21	4.13	-60.4	-73.5	3.8	8.46e-01	0	25	104	3468689408	85	17769
2026-01-08 14:34:38.00	337.30	4.08	-60.4	-73.5	3.8	8.46e-01	0	25	104	3468689408	85	17832
