passes_logs/2026/01/08/R3.2S_Murmansk/R3.2S_Murmansk__20260108_093107_TY-42_rec.log

#Pass ID: 20260108_093107_TY-42
#Satellite: TY-42
#Configuration: TY-42_900M
#almurnet v.1.7.20251203
#Start time: 2026-01-08 09:31:07

#Version: 2.2.20231116
#Station: R3.2S_Murmansk
#Location: 33.079688 lon 68.888172 lat
#TLE: 1 64048U 25103A   26008.20953704  .00008011  00000-0  38191-3 0 09994
#TLE: 2 64048 097.4112 083.7544 0001714 091.7459 055.1126 15.19173368 35784

#Time	Az	El	Level	Level2	SNR	BER	BlckErr	Temp	State	Recorded	gain1	gain2
2026-01-08 09:31:07.70	20.88	2.01	-60.1	-73.2	3.8	8.45e-01	0	24	0	0	85	17271
2026-01-08 09:31:08.71	20.88	2.08	-57.1	-60.3	6.2	0.00e+00	0	27	104	0	81	20281
2026-01-08 09:31:09.71	20.88	2.15	-57.2	-60.4	6.2	0.00e+00	0	27	104	0	81	20473
2026-01-08 09:31:10.72	20.88	2.22	-57.2	-60.4	6.2	0.00e+00	0	27	104	0	81	20540
2026-01-08 09:31:11.72	20.88	2.29	-57.2	-60.4	6.1	0.00e+00	0	28	104	0	81	20590
2026-01-08 09:31:12.73	20.88	2.36	-57.2	-60.5	6.2	0.00e+00	0	28	104	0	81	20698
2026-01-08 09:31:13.74	20.88	2.43	-57.3	-60.5	6.2	0.00e+00	0	28	104	0	81	20732
2026-01-08 09:31:14.74	20.88	2.50	-57.3	-60.5	6.2	0.00e+00	0	28	104	0	81	20786
2026-01-08 09:31:15.74	20.88	2.58	-57.3	-60.5	6.2	0.00e+00	0	28	104	0	81	20769
2026-01-08 09:31:16.75	20.87	2.65	-57.3	-60.5	6.1	0.00e+00	0	28	104	0	81	20825
2026-01-08 09:31:17.76	20.87	2.72	-57.3	-60.6	6.2	0.00e+00	0	29	104	0	81	20895
2026-01-08 09:31:18.77	20.87	2.79	-57.3	-60.6	6.2	0.00e+00	0	29	104	0	81	20909
2026-01-08 09:31:19.78	20.87	2.87	-57.4	-60.6	6.2	0.00e+00	0	29	104	0	81	20917
2026-01-08 09:31:20.79	20.87	2.94	-57.4	-60.6	6.2	0.00e+00	0	29	104	0	81	20950
2026-01-08 09:31:21.79	20.87	3.01	-57.4	-60.6	6.2	0.00e+00	0	29	104	0	81	20999
2026-01-08 09:31:22.80	20.87	3.08	-57.4	-60.6	6.2	0.00e+00	0	29	104	0	81	21099
2026-01-08 09:31:23.81	20.87	3.16	-57.4	-60.7	6.2	0.00e+00	0	29	104	0	81	21122
2026-01-08 09:31:24.82	20.87	3.23	-57.4	-60.7	6.2	0.00e+00	0	30	104	0	81	21132
2026-01-08 09:31:25.82	20.86	3.31	-57.4	-60.7	6.1	0.00e+00	0	30	104	0	81	21225
2026-01-08 09:31:26.82	20.86	3.38	-57.4	-60.7	6.2	0.00e+00	0	30	104	0	81	21253
2026-01-08 09:31:27.83	20.86	3.46	-57.5	-60.7	6.1	0.00e+00	0	30	104	0	81	21230
2026-01-08 09:31:28.83	20.86	3.53	-57.5	-60.8	6.1	0.00e+00	0	30	104	0	81	21363
2026-01-08 09:31:29.84	20.86	3.61	-57.5	-60.7	6.2	0.00e+00	0	30	104	0	81	21333
2026-01-08 09:31:30.85	20.86	3.68	-57.5	-60.7	6.1	0.00e+00	0	30	104	0	81	21268
2026-01-08 09:31:31.85	20.85	3.76	-57.5	-60.8	6.1	0.00e+00	0	31	104	0	81	21362
2026-01-08 09:31:32.86	20.85	3.83	-57.5	-60.8	6.1	0.00e+00	0	31	104	0	81	21376
2026-01-08 09:31:33.86	20.85	3.91	-57.5	-60.8	6.2	0.00e+00	0	31	104	0	81	21414
2026-01-08 09:31:34.87	20.85	3.99	-57.5	-60.8	6.2	0.00e+00	0	31	104	0	81	21399
2026-01-08 09:31:35.87	20.85	4.06	-57.6	-60.8	6.2	0.00e+00	0	31	104	0	81	21493
2026-01-08 09:31:36.87	20.85	4.14	-57.6	-60.8	6.2	0.00e+00	0	31	104	0	81	21505
2026-01-08 09:31:37.88	20.84	4.22	-57.6	-60.8	6.1	0.00e+00	0	31	104	0	81	21517
2026-01-08 09:31:38.88	20.84	4.29	-57.6	-60.8	6.1	0.00e+00	0	31	104	0	81	21540
2026-01-08 09:31:39.90	20.84	4.37	-57.6	-60.8	6.2	0.00e+00	0	31	104	0	81	21543
2026-01-08 09:31:40.91	20.84	4.45	-57.6	-60.9	6.2	0.00e+00	0	31	104	0	81	21612
2026-01-08 09:31:41.91	20.84	4.53	-57.6	-60.8	6.2	0.00e+00	0	31	104	0	81	21585
2026-01-08 09:31:42.92	20.83	4.61	-57.6	-60.9	6.2	0.00e+00	0	32	104	0	81	21655
2026-01-08 09:31:43.92	20.83	4.69	-57.6	-60.9	6.1	0.00e+00	0	32	104	0	81	21621
2026-01-08 09:31:44.92	20.83	4.77	-57.6	-60.9	6.2	0.00e+00	0	32	104	0	81	21681
2026-01-08 09:31:45.93	20.83	4.85	-57.6	-60.9	6.1	0.00e+00	0	32	104	0	81	21675
2026-01-08 09:31:46.93	20.83	4.93	-57.6	-60.9	6.2	0.00e+00	0	32	104	0	81	21702
2026-01-08 09:31:47.94	20.82	5.01	-57.6	-60.9	6.2	0.00e+00	0	32	104	0	81	21693
2026-01-08 09:31:48.94	20.82	5.09	-58.5	-61.7	6.1	0.00e+00	0	32	104	0	82	22501
2026-01-08 09:31:49.94	20.82	5.17	-57.9	-61.2	6.1	0.00e+00	0	32	104	0	82	21232
2026-01-08 09:31:50.94	20.82	5.25	-57.9	-61.1	6.1	0.00e+00	0	32	104	0	82	21086
2026-01-08 09:31:51.95	20.81	5.33	-57.9	-61.2	6.2	0.00e+00	0	32	104	0	82	21162
2026-01-08 09:31:52.96	20.81	5.41	-57.7	-61.0	6.1	0.00e+00	0	33	104	0	82	20734
2026-01-08 09:31:53.96	20.81	5.50	-57.9	-61.1	6.1	0.00e+00	0	33	104	0	82	20959
2026-01-08 09:31:54.97	20.81	5.58	-57.8	-61.1	6.2	0.00e+00	0	33	104	0	82	21017
2026-01-08 09:31:55.97	20.80	5.66	-58.0	-61.2	6.2	0.00e+00	0	33	104	0	82	21287
2026-01-08 09:31:56.98	20.80	5.75	-57.8	-61.0	6.1	0.00e+00	0	33	104	0	82	20748
2026-01-08 09:31:57.97	20.80	5.83	-57.9	-61.1	6.2	0.00e+00	0	33	104	0	82	20993
2026-01-08 09:31:58.98	20.80	5.91	-57.9	-61.1	6.1	0.00e+00	0	33	104	0	82	21021
2026-01-08 09:31:59.98	20.79	6.00	-58.0	-61.3	6.1	0.00e+00	0	33	104	0	82	21408
2026-01-08 09:32:00.99	20.79	6.08	-57.8	-61.1	6.2	0.00e+00	0	33	104	0	82	20948
2026-01-08 09:32:01.99	20.79	6.17	-57.9	-61.1	6.2	0.00e+00	0	33	104	0	82	21091
2026-01-08 09:32:02.99	20.78	6.25	-57.9	-61.2	6.2	0.00e+00	0	33	104	0	82	21167
2026-01-08 09:32:04.00	20.78	6.34	-58.1	-61.3	6.2	0.00e+00	0	33	104	0	82	21558
2026-01-08 09:32:05.00	20.78	6.42	-57.9	-61.1	6.2	0.00e+00	0	34	104	0	82	21053
2026-01-08 09:32:06.01	20.77	6.51	-58.0	-61.2	6.2	0.00e+00	0	34	104	0	82	21281
2026-01-08 09:32:07.02	20.77	6.60	-58.0	-61.2	6.2	0.00e+00	0	34	104	0	82	21244
2026-01-08 09:32:08.03	20.77	6.69	-58.1	-61.4	6.1	0.00e+00	0	34	104	0	82	21729
2026-01-08 09:32:09.04	20.77	6.78	-57.9	-61.2	6.1	0.00e+00	0	34	104	0	82	21260
2026-01-08 09:32:10.04	20.76	6.86	-58.0	-61.3	6.2	0.00e+00	0	34	104	0	82	21436
2026-01-08 09:32:11.04	20.76	6.95	-58.0	-61.3	6.2	0.00e+00	0	34	104	0	82	21436
2026-01-08 09:32:12.04	20.75	7.04	-58.2	-61.4	6.1	0.00e+00	0	34	104	0	82	21740
2026-01-08 09:32:13.05	20.75	7.13	-58.0	-61.3	6.1	0.00e+00	0	34	104	0	82	21362
2026-01-08 09:32:14.06	20.75	7.22	-58.1	-61.3	6.1	0.00e+00	0	34	104	0	82	21514
2026-01-08 09:32:15.06	20.74	7.31	-58.1	-61.3	6.2	0.00e+00	0	34	104	0	82	21586
2026-01-08 09:32:16.07	20.74	7.40	-58.2	-61.5	6.1	0.00e+00	0	34	104	0	82	21962
2026-01-08 09:32:17.08	20.74	7.49	-58.1	-61.3	6.2	0.00e+00	0	34	104	0	82	21497
2026-01-08 09:32:18.09	20.73	7.59	-58.1	-61.4	6.1	0.00e+00	0	35	104	0	82	21646
2026-01-08 09:32:19.09	20.73	7.68	-58.1	-61.4	6.2	0.00e+00	0	34	104	0	82	21684
2026-01-08 09:32:20.10	20.72	7.77	-58.3	-61.5	6.2	0.00e+00	0	35	104	0	82	22005
2026-01-08 09:32:21.10	20.72	7.86	-58.1	-61.3	6.2	0.00e+00	0	35	104	0	82	21518
2026-01-08 09:32:22.10	20.72	7.96	-58.2	-61.4	6.1	0.00e+00	0	35	104	0	82	21845
2026-01-08 09:32:23.11	20.71	8.05	-54.7	-56.1	7.0	0.00e+00	0	35	104	0	75	17636
2026-01-08 09:32:24.11	20.71	8.14	-54.6	-56.0	7.1	0.00e+00	0	35	104	0	75	17370
2026-01-08 09:32:25.11	20.70	8.24	-55.4	-57.0	6.8	0.00e+00	0	35	104	0	77	17524
2026-01-08 09:32:26.11	20.70	8.33	-51.5	-52.3	8.4	0.00e+00	0	35	104	0	70	15258
2026-01-08 09:32:27.11	20.69	8.43	-51.5	-52.3	8.4	0.00e+00	0	35	104	0	70	15219
2026-01-08 09:32:28.12	20.69	8.53	-51.5	-52.3	8.5	0.00e+00	0	35	104	0	70	15145
2026-01-08 09:32:29.12	20.69	8.62	-50.8	-51.5	8.7	0.00e+00	0	35	104	0	68	15525
2026-01-08 09:32:30.12	20.68	8.72	-50.0	-50.7	9.0	0.00e+00	0	35	104	0	67	15008
2026-01-08 09:32:31.13	20.68	8.82	-49.1	-49.7	9.2	0.00e+00	0	35	104	0	65	15018
2026-01-08 09:32:32.12	20.67	8.91	-48.4	-48.9	10.1	9.73e-02	5405	37	0	58720256	64	14598
2026-01-08 09:32:33.13	20.67	9.01	-47.7	-48.2	10.4	9.73e-02	822	37	0	176160768	62	15017
2026-01-08 09:32:34.13	20.66	9.11	-46.9	-47.4	10.8	9.73e-02	0	37	0	285212672	61	14485
2026-01-08 09:32:35.14	20.66	9.21	-45.9	-46.5	11.0	1.88e-01	0	37	0	402653184	59	14696
2026-01-08 09:32:36.14	20.65	9.31	-45.8	-46.2	11.2	1.88e-01	0	37	0	511705088	58	15031
2026-01-08 09:32:37.14	20.65	9.41	-44.9	-45.3	11.6	1.88e-01	0	37	0	620756992	57	14277
2026-01-08 09:32:38.15	20.64	9.52	-44.2	-44.5	11.8	7.26e-02	0	37	0	746586112	55	14744
2026-01-08 09:32:39.15	20.64	9.62	-43.8	-44.1	11.8	7.26e-02	0	37	0	855638016	54	14917
2026-01-08 09:32:40.16	20.63	9.72	-43.8	-44.2	11.9	7.26e-02	0	37	0	964689920	54	14967
2026-01-08 09:32:41.16	20.62	9.82	-43.2	-43.5	12.0	3.18e-02	0	37	0	1082130432	53	14755
2026-01-08 09:32:42.17	20.62	9.93	-43.1	-43.4	12.1	3.18e-02	0	37	0	1191182336	53	14591
2026-01-08 09:32:43.17	20.61	10.03	-42.8	-43.1	12.1	3.18e-02	0	37	0	1308622848	52	14822
2026-01-08 09:32:44.18	20.61	10.14	-42.4	-42.7	12.3	2.07e-02	0	37	0	1417674752	52	14258
2026-01-08 09:32:45.18	20.60	10.24	-42.2	-42.5	12.3	2.07e-02	0	37	0	1526726656	51	14703
2026-01-08 09:32:46.18	20.60	10.35	-42.2	-42.5	12.3	2.07e-02	0	37	0	1644167168	51	14744
2026-01-08 09:32:47.18	20.59	10.45	-42.1	-42.4	12.4	1.21e-02	0	38	0	1753219072	51	14567
2026-01-08 09:32:48.19	20.58	10.56	-42.0	-42.3	12.4	1.21e-02	0	38	0	1870659584	51	14394
2026-01-08 09:32:49.19	20.58	10.67	-41.9	-42.3	12.4	1.21e-02	0	38	0	1979711488	51	14289
2026-01-08 09:32:50.20	20.57	10.78	-41.9	-42.2	12.5	9.54e-03	0	38	0	2097152000	51	14133
2026-01-08 09:32:51.20	20.56	10.89	-41.8	-42.1	12.4	9.54e-03	0	38	0	2214592512	50	14891
2026-01-08 09:32:52.20	20.56	11.00	-41.9	-42.2	12.4	9.54e-03	0	38	0	2323644416	50	15055
2026-01-08 09:32:53.21	20.55	11.11	-41.9	-42.3	12.4	9.54e-03	0	38	0	2432696320	50	15127
2026-01-08 09:32:54.21	20.54	11.22	-41.7	-42.0	12.5	8.45e-03	0	38	0	2550136832	50	14674
2026-01-08 09:32:55.21	20.54	11.33	-41.6	-41.9	12.5	8.45e-03	0	38	0	2659188736	50	14563
2026-01-08 09:32:56.21	20.53	11.44	-41.6	-41.9	12.5	8.45e-03	0	39	0	2776629248	50	14575
2026-01-08 09:32:57.21	20.52	11.55	-41.6	-41.9	12.5	6.85e-03	0	39	0	2885681152	50	14513
2026-01-08 09:32:58.22	20.52	11.67	-41.6	-41.9	12.5	6.85e-03	0	38	0	2994733056	50	14575
2026-01-08 09:32:59.22	20.51	11.78	-41.6	-41.9	12.5	6.85e-03	0	38	0	3112173568	50	14587
2026-01-08 09:33:00.22	20.50	11.90	-41.5	-41.8	12.6	6.87e-03	0	39	0	3221225472	50	14290
2026-01-08 09:33:01.23	20.49	12.01	-41.5	-41.8	12.6	6.87e-03	0	39	0	3338665984	50	14322
2026-01-08 09:33:02.23	20.49	12.13	-41.3	-41.6	12.5	6.87e-03	0	39	0	3447717888	49	14819
2026-01-08 09:33:03.24	20.48	12.25	-41.3	-41.6	12.6	5.49e-03	0	39	0	3565158400	49	14897
2026-01-08 09:33:04.24	20.47	12.36	-41.3	-41.6	12.6	5.49e-03	0	39	0	3674210304	49	14919
2026-01-08 09:33:05.25	20.46	12.48	-41.2	-41.5	12.6	5.49e-03	0	39	0	3791650816	49	14638
2026-01-08 09:33:06.25	20.45	12.60	-41.3	-41.5	12.6	4.74e-03	0	39	0	3900702720	49	14743
2026-01-08 09:33:07.25	20.45	12.72	-41.1	-41.4	12.7	4.74e-03	0	39	0	4018143232	49	14524
2026-01-08 09:33:08.26	20.44	12.84	-41.0	-41.3	12.7	4.74e-03	0	39	0	4127195136	49	14403
2026-01-08 09:33:09.26	20.43	12.97	-41.0	-41.3	12.7	4.24e-03	0	39	0	4244635648	49	14313
2026-01-08 09:33:10.27	20.42	13.09	-41.0	-41.3	12.7	4.24e-03	0	39	0	4353687552	49	14331
2026-01-08 09:33:11.27	20.41	13.21	-41.0	-41.3	12.7	4.24e-03	0	39	0	4462739456	49	14406
2026-01-08 09:33:12.28	20.40	13.34	-40.9	-41.2	12.7	3.84e-03	0	39	0	4580179968	49	14257
2026-01-08 09:33:13.29	20.39	13.46	-40.9	-41.2	12.8	3.84e-03	0	40	0	4689231872	49	14126
2026-01-08 09:33:14.29	20.39	13.59	-40.8	-41.1	12.7	3.84e-03	0	40	0	4806672384	48	14834
2026-01-08 09:33:15.30	20.38	13.72	-40.7	-41.0	12.8	3.50e-03	0	40	0	4924112896	48	14672
2026-01-08 09:33:16.30	20.37	13.84	-40.7	-41.0	12.7	3.50e-03	0	39	0	5033164800	48	14706
2026-01-08 09:33:17.31	20.36	13.97	-40.6	-40.9	12.8	3.50e-03	0	39	0	5150605312	48	14563
2026-01-08 09:33:18.31	20.35	14.10	-40.6	-40.9	12.8	2.77e-03	0	40	0	5259657216	48	14444
2026-01-08 09:33:19.32	20.34	14.23	-40.6	-40.9	12.8	2.77e-03	0	40	0	5368709120	48	14512
2026-01-08 09:33:20.32	20.33	14.36	-40.5	-40.8	12.8	2.77e-03	0	40	0	5486149632	48	14359
2026-01-08 09:33:21.31	20.32	14.49	-40.5	-40.7	12.9	2.52e-03	0	40	0	5595201536	48	14270
2026-01-08 09:33:22.32	20.31	14.63	-39.6	-39.9	12.8	2.52e-03	0	40	0	5712642048	46	14457
2026-01-08 09:33:23.33	20.30	14.76	-39.7	-40.0	12.7	2.52e-03	0	40	0	5821693952	46	14609
2026-01-08 09:33:24.34	20.29	14.90	-39.5	-39.8	12.8	3.06e-03	0	40	0	5930745856	46	14283
2026-01-08 09:33:25.34	20.28	15.03	-39.5	-39.8	12.8	3.06e-03	0	40	0	6048186368	46	14305
2026-01-08 09:33:26.35	20.26	15.17	-39.4	-39.7	12.8	3.06e-03	0	40	0	6165626880	46	14193
2026-01-08 09:33:27.34	20.25	15.31	-39.5	-39.7	12.8	3.06e-03	0	40	0	6274678784	46	14251
2026-01-08 09:33:28.35	20.24	15.45	-39.4	-39.7	12.8	3.16e-03	0	40	0	6392119296	46	14185
2026-01-08 09:33:29.35	20.23	15.59	-39.3	-39.5	12.8	3.16e-03	0	40	0	6501171200	45	14763
2026-01-08 09:33:30.36	20.22	15.73	-39.2	-39.5	12.8	2.55e-03	0	40	0	6618611712	45	14691
2026-01-08 09:33:31.36	20.21	15.87	-39.2	-39.5	12.8	2.55e-03	0	40	0	6727663616	45	14710
2026-01-08 09:33:32.36	20.20	16.01	-39.1	-39.4	12.8	2.55e-03	0	40	0	6836715520	45	14532
2026-01-08 09:33:33.37	20.18	16.16	-39.1	-39.4	12.8	2.34e-03	0	40	0	6954156032	45	14581
2026-01-08 09:33:34.38	20.17	16.31	-39.1	-39.3	12.9	2.34e-03	0	41	0	7063207936	45	14434
2026-01-08 09:33:35.38	20.16	16.45	-38.9	-39.2	12.9	2.34e-03	0	40	0	7180648448	45	14243
2026-01-08 09:33:36.38	20.15	16.60	-39.0	-39.2	12.9	2.13e-03	0	41	0	7289700352	45	14243
2026-01-08 09:33:37.39	20.13	16.75	-38.9	-39.2	12.9	2.13e-03	0	41	0	7407140864	45	14248
2026-01-08 09:33:38.39	20.12	16.90	-38.9	-39.1	12.9	2.13e-03	0	41	0	7524581376	44	14943
2026-01-08 09:33:39.40	20.11	17.05	-38.7	-39.0	12.9	1.70e-03	0	41	0	7633633280	44	14724
2026-01-08 09:33:40.40	20.09	17.20	-38.7	-39.0	12.9	1.70e-03	0	41	0	7742685184	44	14661
2026-01-08 09:33:41.40	20.08	17.35	-38.6	-38.9	13.0	1.70e-03	0	41	0	7860125696	44	14464
2026-01-08 09:33:42.41	20.07	17.51	-38.5	-38.8	13.0	1.40e-03	0	41	0	7969177600	44	14346
2026-01-08 09:33:43.42	20.05	17.67	-38.6	-38.8	13.0	1.40e-03	0	41	0	8086618112	44	14436
2026-01-08 09:33:44.42	20.04	17.82	-38.4	-38.6	13.0	1.40e-03	0	41	0	8195670016	44	14099
2026-01-08 09:33:45.43	20.02	17.98	-38.3	-38.6	13.0	1.10e-03	0	41	0	8304721920	43	14838
2026-01-08 09:33:46.43	20.01	18.14	-38.3	-38.6	13.0	1.10e-03	0	41	0	8422162432	43	14876
2026-01-08 09:33:47.44	19.99	18.31	-38.1	-38.4	13.1	1.10e-03	0	41	0	8531214336	43	14531
2026-01-08 09:33:48.44	19.98	18.47	-38.1	-38.4	13.1	8.34e-04	0	41	0	8648654848	43	14506
2026-01-08 09:33:49.44	19.96	18.63	-38.1	-38.4	13.1	8.34e-04	0	41	0	8757706752	43	14537
2026-01-08 09:33:50.45	19.95	18.80	-38.1	-38.4	13.1	7.30e-04	0	41	0	8875147264	43	14570
2026-01-08 09:33:51.45	19.93	18.96	-38.1	-38.4	13.1	7.30e-04	0	41	0	8992587776	43	14494
2026-01-08 09:33:52.45	19.92	19.13	-37.8	-38.1	13.1	7.30e-04	0	41	0	9101639680	42	14821
2026-01-08 09:33:53.45	19.90	19.30	-37.8	-38.1	13.1	6.77e-04	0	41	0	9210691584	42	14888
2026-01-08 09:33:54.45	19.88	19.47	-37.8	-38.1	13.1	6.77e-04	0	41	0	9328132096	42	14823
2026-01-08 09:33:55.46	19.87	19.64	-37.8	-38.1	13.1	6.77e-04	0	41	0	9437184000	42	14909
2026-01-08 09:33:56.46	19.85	19.82	-37.7	-37.9	13.1	4.62e-04	0	41	0	9554624512	42	14583
2026-01-08 09:33:57.47	19.83	19.99	-37.6	-37.9	13.2	4.62e-04	0	41	0	9663676416	42	14445
2026-01-08 09:33:58.48	19.81	20.17	-37.6	-37.9	13.2	4.62e-04	0	41	0	9772728320	42	14464
2026-01-08 09:33:59.48	19.80	20.35	-37.6	-37.8	13.2	4.62e-04	0	41	0	9890168832	42	14418
2026-01-08 09:34:00.49	19.78	20.53	-37.6	-37.8	13.2	3.62e-04	0	41	0	9999220736	42	14411
2026-01-08 09:34:01.50	19.76	20.72	-37.5	-37.8	13.2	3.62e-04	0	41	0	10116661248	42	14306
2026-01-08 09:34:02.50	19.74	20.90	-37.5	-37.8	13.2	3.62e-04	0	41	0	10234101760	42	14276
2026-01-08 09:34:03.50	19.72	21.08	-37.2	-37.5	13.2	3.15e-04	0	41	0	10343153664	41	14680
2026-01-08 09:34:04.50	19.70	21.27	-37.3	-37.5	13.2	3.15e-04	0	41	0	10460594176	41	14747
2026-01-08 09:34:05.50	19.68	21.46	-37.2	-37.5	13.2	3.15e-04	0	41	0	10569646080	41	14617
2026-01-08 09:34:06.51	19.66	21.65	-37.0	-37.3	13.2	2.14e-04	0	41	0	10678697984	41	14385
2026-01-08 09:34:07.52	19.64	21.84	-37.0	-37.3	13.2	2.14e-04	0	41	0	10796138496	41	14335
2026-01-08 09:34:08.52	19.62	22.04	-36.8	-37.1	13.2	2.14e-04	0	42	0	10905190400	40	14890
2026-01-08 09:34:09.52	19.60	22.23	-36.7	-37.0	13.2	1.76e-04	0	41	0	11022630912	40	14734
2026-01-08 09:34:10.53	19.57	22.43	-36.7	-37.0	13.2	1.76e-04	0	42	0	11131682816	40	14711
2026-01-08 09:34:11.54	19.55	22.63	-36.7	-37.0	13.2	1.43e-04	0	41	0	11240734720	40	14670
2026-01-08 09:34:12.55	19.53	22.84	-36.8	-37.0	13.2	1.43e-04	0	41	0	11358175232	40	14768
2026-01-08 09:34:13.55	19.51	23.04	-36.6	-36.8	13.2	1.43e-04	0	41	0	11475615744	40	14427
2026-01-08 09:34:14.56	19.48	23.25	-36.6	-36.9	13.2	2.10e-04	0	42	0	11584667648	40	14518
2026-01-08 09:34:15.57	19.46	23.46	-36.4	-36.6	13.2	2.10e-04	0	41	0	11702108160	39	14936
2026-01-08 09:34:16.58	19.44	23.67	-36.2	-36.5	13.2	2.10e-04	0	41	0	11811160064	39	14701
2026-01-08 09:34:17.58	19.41	23.88	-36.1	-36.4	13.3	1.33e-04	0	42	0	11928600576	39	14570
2026-01-08 09:34:18.59	19.39	24.09	-36.3	-36.6	13.3	1.33e-04	0	41	0	12037652480	39	14870
2026-01-08 09:34:19.59	19.36	24.31	-36.0	-36.3	13.3	1.33e-04	0	42	0	12146704384	39	14343
2026-01-08 09:34:20.59	19.34	24.53	-35.9	-36.2	13.3	1.33e-04	0	39	0	0	39	14228
2026-01-08 09:34:21.60	19.31	24.75	-35.9	-36.2	13.3	1.33e-04	0	38	0	0	39	14228
2026-01-08 09:34:22.61	19.28	24.97	-35.9	-36.2	13.3	1.33e-04	0	38	0	0	39	14228
2026-01-08 09:34:23.61	19.25	25.20	-35.9	-36.2	13.3	1.33e-04	0	38	0	0	39	14228
2026-01-08 09:34:24.61	19.23	25.43	-35.9	-36.2	13.3	1.33e-04	0	37	0	0	39	14228
2026-01-08 09:34:25.62	19.20	25.66	-35.9	-36.2	13.3	1.33e-04	0	37	0	0	39	14228
2026-01-08 09:34:26.63	19.17	25.89	-35.9	-36.2	13.3	1.33e-04	0	37	0	0	39	14228
2026-01-08 09:34:27.64	19.14	26.13	-35.9	-36.2	13.3	1.33e-04	0	37	0	0	39	14228
2026-01-08 09:34:28.64	19.11	26.36	-35.9	-36.2	13.3	1.33e-04	0	37	0	0	39	14228
2026-01-08 09:34:29.64	19.08	26.60	-35.9	-36.2	13.3	1.33e-04	0	36	0	0	39	14228
2026-01-08 09:34:30.65	19.05	26.85	-35.9	-36.2	13.3	1.33e-04	0	36	0	0	39	14228
2026-01-08 09:34:31.65	19.02	27.09	-35.9	-36.2	13.3	1.33e-04	0	36	0	0	39	14228
2026-01-08 09:34:32.66	18.98	27.34	-35.9	-36.2	13.3	1.33e-04	0	36	0	0	39	14228
2026-01-08 09:34:33.66	18.95	27.59	-35.9	-36.2	13.3	1.33e-04	0	35	0	0	39	14228
2026-01-08 09:34:34.67	18.92	27.85	-35.9	-36.2	13.3	1.33e-04	0	35	0	0	39	14228
2026-01-08 09:34:35.67	18.88	28.10	-35.9	-36.2	13.3	1.33e-04	0	35	0	0	39	14228
2026-01-08 09:34:36.67	18.85	28.36	-35.9	-36.2	13.3	1.33e-04	0	35	0	0	39	14228
2026-01-08 09:34:37.68	18.81	28.62	-35.9	-36.2	13.3	1.33e-04	0	35	0	0	39	14228
2026-01-08 09:34:38.68	18.78	28.89	-35.9	-36.2	13.3	1.33e-04	0	34	0	0	39	14228
2026-01-08 09:34:39.69	18.74	29.16	-35.9	-36.2	13.3	1.33e-04	0	34	0	0	39	14228
2026-01-08 09:34:40.69	18.70	29.43	-35.9	-36.2	13.3	1.33e-04	0	34	0	0	39	14228
2026-01-08 09:34:41.69	18.66	29.70	-35.9	-36.2	13.3	1.33e-04	0	34	0	0	39	14228
2026-01-08 09:34:42.70	18.62	29.98	-35.9	-36.2	13.3	1.33e-04	0	34	0	0	39	14228
2026-01-08 09:34:43.70	18.58	30.26	-35.9	-36.2	13.3	1.33e-04	0	34	0	0	39	14228
2026-01-08 09:34:44.70	18.54	30.54	-35.9	-36.2	13.3	1.33e-04	0	33	0	0	39	14228
2026-01-08 09:34:45.70	18.50	30.83	-35.9	-36.2	13.3	1.33e-04	0	33	0	0	39	14228
2026-01-08 09:34:46.71	18.46	31.12	-35.9	-36.2	13.3	1.33e-04	0	33	0	0	39	14228
2026-01-08 09:34:47.72	18.41	31.42	-35.9	-36.2	13.3	1.33e-04	0	33	0	0	39	14228
2026-01-08 09:34:48.73	18.37	31.72	-35.9	-36.2	13.3	1.33e-04	0	33	0	0	39	14228
2026-01-08 09:34:49.74	18.32	32.02	-35.9	-36.2	13.3	1.33e-04	0	32	0	0	39	14228
2026-01-08 09:34:50.74	18.28	32.32	-35.9	-36.2	13.3	1.33e-04	0	32	0	0	39	14228
2026-01-08 09:34:51.75	18.23	32.63	-35.9	-36.2	13.3	1.33e-04	0	32	0	0	39	14228
2026-01-08 09:34:52.76	18.18	32.95	-35.9	-36.2	13.3	1.33e-04	0	32	0	0	39	14228
2026-01-08 09:34:53.76	18.13	33.26	-35.9	-36.2	13.3	1.33e-04	0	32	0	0	39	14228
2026-01-08 09:34:54.77	18.08	33.58	-35.9	-36.2	13.3	1.33e-04	0	32	0	0	39	14228
2026-01-08 09:34:55.76	18.03	33.90	-35.9	-36.2	13.3	1.33e-04	0	32	0	0	39	14228
2026-01-08 09:34:56.77	17.97	34.23	-35.9	-36.2	13.3	1.33e-04	0	31	0	0	39	14228
2026-01-08 09:34:57.78	17.92	34.57	-35.9	-36.2	13.3	1.33e-04	0	31	0	0	39	14228
2026-01-08 09:34:58.78	17.86	34.90	-35.9	-36.2	13.3	1.33e-04	0	31	0	0	39	14228
2026-01-08 09:34:59.78	17.81	35.24	-35.9	-36.2	13.3	1.33e-04	0	31	0	0	39	14228
2026-01-08 09:35:00.78	17.75	35.58	-35.9	-36.2	13.3	1.33e-04	0	31	0	0	39	14228
2026-01-08 09:35:01.79	17.69	35.93	-35.9	-36.2	13.3	1.33e-04	0	31	0	0	39	14228
2026-01-08 09:35:02.80	17.62	36.29	-35.9	-36.2	13.3	1.33e-04	0	31	0	0	39	14228
2026-01-08 09:35:03.80	17.56	36.64	-35.9	-36.2	13.3	1.33e-04	0	31	0	0	39	14228
2026-01-08 09:35:04.81	17.50	37.01	-35.9	-36.2	13.3	1.33e-04	0	31	0	0	39	14228
2026-01-08 09:35:05.81	17.43	37.37	-35.9	-36.2	13.3	1.33e-04	0	30	0	0	39	14228
2026-01-08 09:35:06.80	17.36	37.74	-35.9	-36.2	13.3	1.33e-04	0	30	0	0	39	14228
2026-01-08 09:35:07.81	17.29	38.12	-35.9	-36.2	13.3	1.33e-04	0	30	0	0	39	14228
2026-01-08 09:35:08.82	17.22	38.50	-35.9	-36.2	13.3	1.33e-04	0	30	0	0	39	14228
2026-01-08 09:35:09.82	17.15	38.88	-35.9	-36.2	13.3	1.33e-04	0	30	0	0	39	14228
2026-01-08 09:35:10.82	17.07	39.27	-35.9	-36.2	13.3	1.33e-04	0	29	0	0	39	14228
2026-01-08 09:35:11.82	17.00	39.67	-35.9	-36.2	13.3	1.33e-04	0	30	0	0	39	14228
2026-01-08 09:35:12.82	16.92	40.06	-35.9	-36.2	13.3	1.33e-04	0	30	0	0	39	14228
2026-01-08 09:35:13.83	16.83	40.47	-35.9	-36.2	13.3	1.33e-04	0	29	0	0	39	14228
2026-01-08 09:35:14.83	16.75	40.88	-35.9	-36.2	13.3	1.33e-04	0	29	0	0	39	14228
2026-01-08 09:35:15.83	16.67	41.30	-35.9	-36.2	13.3	1.33e-04	0	29	0	0	39	14228
2026-01-08 09:35:16.84	16.58	41.72	-35.9	-36.2	13.3	1.33e-04	0	29	0	0	39	14228
2026-01-08 09:35:17.85	16.48	42.15	-35.9	-36.2	13.3	1.33e-04	0	29	0	0	39	14228
2026-01-08 09:35:18.85	16.39	42.58	-35.9	-36.2	13.3	1.33e-04	0	29	0	0	39	14228
2026-01-08 09:35:19.86	16.29	43.02	-35.9	-36.2	13.3	1.33e-04	0	29	0	0	39	14228
2026-01-08 09:35:20.87	16.19	43.47	-35.9	-36.2	13.3	1.33e-04	0	29	0	0	39	14228
2026-01-08 09:35:21.87	16.09	43.92	-35.9	-36.2	13.3	1.33e-04	0	28	0	0	39	14228
2026-01-08 09:35:22.88	15.98	44.38	-35.9	-36.2	13.3	1.33e-04	0	28	0	0	39	14228
2026-01-08 09:35:23.88	15.87	44.84	-35.9	-36.2	13.3	1.33e-04	0	28	0	0	39	14228
2026-01-08 09:35:24.89	15.76	45.31	-35.9	-36.2	13.3	1.33e-04	0	28	0	0	39	14228
2026-01-08 09:35:25.89	15.64	45.78	-35.9	-36.2	13.3	1.33e-04	0	28	0	0	39	14228
2026-01-08 09:35:26.89	15.52	46.26	-35.9	-36.2	13.3	1.33e-04	0	28	0	0	39	14228
2026-01-08 09:35:27.90	15.40	46.75	-35.9	-36.2	13.3	1.33e-04	0	28	0	0	39	14228
2026-01-08 09:35:28.90	15.27	47.24	-35.9	-36.2	13.3	1.33e-04	0	28	0	0	39	14228
2026-01-08 09:35:29.91	15.14	47.74	-35.9	-36.2	13.3	1.33e-04	0	28	0	0	39	14228
2026-01-08 09:35:30.91	15.00	48.24	-35.9	-36.2	13.3	1.33e-04	0	28	0	0	39	14228
2026-01-08 09:35:31.92	14.86	48.76	-35.9	-36.2	13.3	1.33e-04	0	27	0	0	39	14228
2026-01-08 09:35:32.91	14.71	49.27	-35.9	-36.2	13.3	1.33e-04	0	27	0	0	39	14228
2026-01-08 09:35:33.92	14.56	49.79	-35.9	-36.2	13.3	1.33e-04	0	27	0	0	39	14228
2026-01-08 09:35:34.92	14.40	50.32	-35.9	-36.2	13.3	1.33e-04	0	27	0	0	39	14228
2026-01-08 09:35:35.92	14.23	50.86	-35.9	-36.2	13.3	1.33e-04	0	27	0	0	39	14228
2026-01-08 09:35:36.93	14.06	51.41	-35.9	-36.2	13.3	1.33e-04	0	27	0	0	39	14228
2026-01-08 09:35:37.93	13.89	51.95	-35.9	-36.2	13.3	1.33e-04	0	27	0	0	39	14228
2026-01-08 09:35:38.94	13.70	52.52	-35.9	-36.2	13.3	1.33e-04	0	27	0	0	39	14228
2026-01-08 09:35:39.95	13.51	53.08	-35.9	-36.2	13.3	1.33e-04	0	27	0	0	39	14228
2026-01-08 09:35:40.95	13.31	53.65	-35.9	-36.2	13.3	1.33e-04	0	27	0	0	39	14228
2026-01-08 09:35:41.96	13.10	54.23	-35.9	-36.2	13.3	1.33e-04	0	27	0	0	39	14228
2026-01-08 09:35:42.96	12.88	54.82	-35.9	-36.2	13.3	1.33e-04	0	27	0	0	39	14228
2026-01-08 09:35:43.97	12.65	55.41	-35.9	-36.2	13.3	1.33e-04	0	27	0	0	39	14228
2026-01-08 09:35:44.97	12.42	56.01	-35.9	-36.2	13.3	1.33e-04	0	26	0	0	39	14228
2026-01-08 09:35:45.98	12.17	56.62	-35.9	-36.2	13.3	1.33e-04	0	26	0	0	39	14228
2026-01-08 09:35:46.98	11.91	57.23	-35.9	-36.2	13.3	1.33e-04	0	26	0	0	39	14228
2026-01-08 09:35:47.99	11.63	57.85	-35.9	-36.2	13.3	1.33e-04	0	26	0	0	39	14228
2026-01-08 09:35:48.99	11.35	58.47	-35.9	-36.2	13.3	1.33e-04	0	26	0	0	39	14228
2026-01-08 09:35:50.00	11.05	59.11	-35.9	-36.2	13.3	1.33e-04	0	26	0	0	39	14228
2026-01-08 09:35:51.01	10.73	59.75	-35.9	-36.2	13.3	1.33e-04	0	26	0	0	39	14228
2026-01-08 09:35:52.02	10.40	60.40	-35.9	-36.2	13.3	1.33e-04	0	26	0	0	39	14228
2026-01-08 09:35:53.02	10.05	61.05	-35.9	-36.2	13.3	1.33e-04	0	26	0	0	39	14228
2026-01-08 09:35:54.03	9.68	61.71	-35.9	-36.2	13.3	1.33e-04	0	26	0	0	39	14228
2026-01-08 09:35:55.04	9.29	62.38	-35.9	-36.2	13.3	1.33e-04	0	26	0	0	39	14228
2026-01-08 09:35:56.05	8.87	63.05	-35.9	-36.2	13.3	1.33e-04	0	26	0	0	39	14228
2026-01-08 09:35:57.06	8.43	63.73	-35.9	-36.2	13.3	1.33e-04	0	26	0	0	39	14228
2026-01-08 09:35:58.06	7.97	64.40	-35.9	-36.2	13.3	1.33e-04	0	26	0	0	39	14228
2026-01-08 09:35:59.07	7.48	65.09	-35.9	-36.2	13.3	1.33e-04	0	25	0	0	39	14228
2026-01-08 09:36:00.08	6.95	65.79	-35.9	-36.2	13.3	1.33e-04	0	26	0	0	39	14228
2026-01-08 09:36:01.08	6.39	66.48	-35.9	-36.2	13.3	1.33e-04	0	25	0	0	39	14228
2026-01-08 09:36:02.08	5.80	67.18	-35.9	-36.2	13.3	1.33e-04	0	25	0	0	39	14228
2026-01-08 09:36:03.08	5.16	67.88	-35.9	-36.2	13.3	1.33e-04	0	25	0	0	39	14228
2026-01-08 09:36:04.08	4.48	68.58	-35.9	-36.2	13.3	1.33e-04	0	25	0	0	39	14228
2026-01-08 09:36:05.09	3.74	69.30	-35.9	-36.2	13.3	1.33e-04	0	25	0	0	39	14228
2026-01-08 09:36:06.10	2.94	70.01	-35.9	-36.2	13.3	1.33e-04	0	25	0	0	39	14228
2026-01-08 09:36:07.10	2.09	70.72	-35.9	-36.2	13.3	1.33e-04	0	25	0	0	39	14228
2026-01-08 09:36:08.11	1.16	71.44	-35.9	-36.2	13.3	1.33e-04	0	25	0	0	39	14228
2026-01-08 09:36:09.12	0.14	72.16	-35.9	-36.2	13.3	1.33e-04	0	25	0	0	39	14228
2026-01-08 09:36:10.12	359.05	72.87	-35.9	-36.2	13.3	1.33e-04	0	25	0	0	39	14228
2026-01-08 09:36:11.13	357.84	73.59	-35.9	-36.2	13.3	1.33e-04	0	25	0	0	39	14228
2026-01-08 09:36:12.14	356.51	74.31	-35.9	-36.2	13.3	1.33e-04	0	25	0	0	39	14228
2026-01-08 09:36:13.15	355.06	75.02	-35.9	-36.2	13.3	1.33e-04	0	25	0	0	39	14228
2026-01-08 09:36:14.15	353.47	75.71	-35.9	-36.2	13.3	1.33e-04	0	25	0	0	39	14228
2026-01-08 09:36:15.16	351.69	76.41	-35.9	-36.2	13.3	1.33e-04	0	25	0	0	39	14228
2026-01-08 09:36:16.17	349.71	77.09	-35.9	-36.2	13.3	1.33e-04	0	24	0	0	39	14228
2026-01-08 09:36:17.18	347.51	77.76	-35.9	-36.2	13.3	1.33e-04	0	24	0	0	39	14228
2026-01-08 09:36:18.18	345.08	78.41	-35.9	-36.2	13.3	1.33e-04	0	24	0	0	39	14228
2026-01-08 09:36:19.18	342.35	79.04	-35.9	-36.2	13.3	1.33e-04	0	24	0	0	39	14228
2026-01-08 09:36:20.19	339.25	79.65	-35.9	-36.2	13.3	1.33e-04	0	24	0	0	39	14228
2026-01-08 09:36:21.20	335.78	80.23	-35.9	-36.2	13.3	1.33e-04	0	24	0	0	39	14228
2026-01-08 09:36:22.20	331.91	80.76	-35.9	-36.2	13.3	1.33e-04	0	24	0	0	39	14228
2026-01-08 09:36:23.21	327.54	81.25	-35.9	-36.2	13.3	1.33e-04	0	24	0	0	39	14228
2026-01-08 09:36:24.22	322.66	81.69	-35.9	-36.2	13.3	1.33e-04	0	24	0	0	39	14228
2026-01-08 09:36:25.22	317.34	82.06	-35.9	-36.2	13.3	1.33e-04	0	24	0	0	39	14228
2026-01-08 09:36:26.23	311.48	82.36	-35.9	-36.2	13.3	1.33e-04	0	24	0	0	39	14228
2026-01-08 09:36:27.24	305.22	82.58	-35.9	-36.2	13.3	1.33e-04	0	24	0	0	39	14228
2026-01-08 09:36:28.24	298.72	82.70	-35.9	-36.2	13.3	1.33e-04	0	24	0	0	39	14228
2026-01-08 09:36:29.25	292.03	82.72	-35.9	-36.2	13.3	1.33e-04	0	24	0	0	39	14228
2026-01-08 09:36:30.26	285.38	82.65	-35.9	-36.2	13.3	1.33e-04	0	24	0	0	39	14228
2026-01-08 09:36:31.26	279.01	82.48	-35.9	-36.2	13.3	1.33e-04	0	24	0	0	39	14228
2026-01-08 09:36:32.27	272.93	82.22	-35.9	-36.2	13.3	1.33e-04	0	24	0	0	39	14228
2026-01-08 09:36:33.28	267.30	81.89	-35.9	-36.2	13.3	1.33e-04	0	24	0	0	39	14228
2026-01-08 09:36:34.28	262.22	81.49	-35.9	-36.2	13.3	1.33e-04	0	24	0	0	39	14228
2026-01-08 09:36:35.29	257.59	81.02	-35.9	-36.2	13.3	1.33e-04	0	24	0	0	39	14228
2026-01-08 09:36:36.29	253.49	80.51	-35.9	-36.2	13.3	1.33e-04	0	24	0	0	39	14228
2026-01-08 09:36:37.29	249.83	79.95	-35.9	-36.2	13.3	1.33e-04	0	24	0	0	39	14228
2026-01-08 09:36:38.30	246.55	79.36	-35.9	-36.2	13.3	1.33e-04	0	24	0	0	39	14228
2026-01-08 09:36:39.31	243.62	78.74	-35.9	-36.2	13.3	1.33e-04	0	24	0	0	39	14228
2026-01-08 09:36:40.31	241.04	78.10	-35.9	-36.2	13.3	1.33e-04	0	24	0	0	39	14228
2026-01-08 09:36:41.32	238.71	77.43	-35.9	-36.2	13.3	1.33e-04	0	23	0	0	39	14228
2026-01-08 09:36:42.32	236.64	76.76	-35.9	-36.2	13.3	1.33e-04	0	24	0	0	39	14228
2026-01-08 09:36:43.33	234.76	76.07	-35.9	-36.2	13.3	1.33e-04	0	23	0	0	39	14228
2026-01-08 09:36:44.34	233.07	75.37	-35.9	-36.2	13.3	1.33e-04	0	24	0	0	39	14228
2026-01-08 09:36:45.34	231.55	74.67	-35.9	-36.2	13.3	1.33e-04	0	23	0	0	39	14228
2026-01-08 09:36:46.35	230.16	73.96	-35.9	-36.2	13.3	1.33e-04	0	23	0	0	39	14228
2026-01-08 09:36:47.35	228.90	73.25	-35.9	-36.2	13.3	1.33e-04	0	23	0	0	39	14228
2026-01-08 09:36:48.36	227.75	72.53	-35.9	-36.2	13.3	1.33e-04	0	23	0	0	39	14228
2026-01-08 09:36:49.36	226.69	71.81	-35.9	-36.2	13.3	1.33e-04	0	23	0	0	39	14228
2026-01-08 09:36:50.37	225.72	71.09	-35.9	-36.2	13.3	1.33e-04	0	23	0	0	39	14228
2026-01-08 09:36:51.37	224.83	70.38	-35.9	-36.2	13.3	1.33e-04	0	23	0	0	39	14228
2026-01-08 09:36:52.38	224.00	69.66	-35.9	-36.2	13.3	1.33e-04	0	23	0	0	39	14228
2026-01-08 09:36:53.39	223.22	68.95	-35.9	-36.2	13.3	1.33e-04	0	23	0	0	39	14228
2026-01-08 09:36:54.39	222.52	68.24	-35.9	-36.2	13.3	1.33e-04	0	23	0	0	39	14228
2026-01-08 09:36:55.39	221.86	67.54	-35.9	-36.2	13.3	1.33e-04	0	23	0	0	39	14228
2026-01-08 09:36:56.40	221.23	66.83	-35.9	-36.2	13.3	1.33e-04	0	23	0	0	39	14228
2026-01-08 09:36:57.41	220.65	66.13	-35.9	-36.2	13.3	1.33e-04	0	23	0	0	39	14228
2026-01-08 09:36:58.41	220.11	65.43	-35.9	-36.2	13.3	1.33e-04	0	23	0	0	39	14228
2026-01-08 09:36:59.42	219.60	64.74	-35.9	-36.2	13.3	1.33e-04	0	23	0	0	39	14228
2026-01-08 09:37:00.42	219.12	64.06	-35.9	-36.2	13.3	1.33e-04	0	23	0	0	39	14228
2026-01-08 09:37:01.43	218.67	63.38	-35.9	-36.2	13.3	1.33e-04	0	23	0	0	39	14228
2026-01-08 09:37:02.43	218.25	62.71	-35.9	-36.2	13.3	1.33e-04	0	23	0	0	39	14228
2026-01-08 09:37:03.43	217.85	62.04	-35.9	-36.2	13.3	1.33e-04	0	23	0	0	39	14228
2026-01-08 09:37:04.44	217.47	61.37	-35.9	-36.2	13.3	1.33e-04	0	23	0	0	39	14228
2026-01-08 09:37:05.45	217.11	60.71	-35.9	-36.2	13.3	1.33e-04	0	23	0	0	39	14228
2026-01-08 09:37:06.46	216.76	60.06	-35.9	-36.2	13.3	1.33e-04	0	23	0	0	39	14228
2026-01-08 09:37:07.46	216.44	59.42	-35.9	-36.2	13.3	1.33e-04	0	23	0	0	39	14228
2026-01-08 09:37:08.47	216.13	58.78	-35.9	-36.2	13.3	1.33e-04	0	23	0	0	39	14228
2026-01-08 09:37:09.47	215.84	58.15	-35.9	-36.2	13.3	1.33e-04	0	23	0	0	39	14228
2026-01-08 09:37:10.47	215.56	57.53	-35.9	-36.2	13.3	1.33e-04	0	23	0	0	39	14228
2026-01-08 09:37:11.48	215.29	56.91	-35.9	-36.2	13.3	1.33e-04	0	23	0	0	39	14228
2026-01-08 09:37:12.49	215.04	56.30	-35.9	-36.2	13.3	1.33e-04	0	23	0	0	39	14228
2026-01-08 09:37:13.50	214.79	55.69	-35.9	-36.2	13.3	1.33e-04	0	23	0	0	39	14228
2026-01-08 09:37:14.50	214.56	55.09	-35.9	-36.2	13.3	1.33e-04	0	23	0	0	39	14228
2026-01-08 09:37:15.50	214.34	54.51	-35.9	-36.2	13.3	1.33e-04	0	23	0	0	39	14228
2026-01-08 09:37:16.50	214.12	53.93	-35.9	-36.2	13.3	1.33e-04	0	23	0	0	39	14228
2026-01-08 09:37:17.51	213.92	53.35	-35.9	-36.2	13.3	1.33e-04	0	22	0	0	39	14228
2026-01-08 09:37:18.52	213.72	52.77	-35.9	-36.2	13.3	1.33e-04	0	23	0	0	39	14228
2026-01-08 09:37:19.52	213.53	52.21	-35.9	-36.2	13.3	1.33e-04	0	23	0	0	39	14228
2026-01-08 09:37:20.53	213.35	51.65	-35.9	-36.2	13.3	1.33e-04	0	22	0	0	39	14228
2026-01-08 09:37:21.53	213.18	51.11	-35.9	-36.2	13.3	1.33e-04	0	23	0	0	39	14228
2026-01-08 09:37:22.54	213.01	50.56	-35.9	-36.2	13.3	1.33e-04	0	22	0	0	39	14228
2026-01-08 09:37:23.55	212.84	50.02	-35.9	-36.2	13.3	1.33e-04	0	22	0	0	39	14228
2026-01-08 09:37:24.54	212.69	49.50	-35.9	-36.2	13.3	1.33e-04	0	22	0	0	39	14228
2026-01-08 09:37:25.55	212.54	48.97	-35.9	-36.2	13.3	1.33e-04	0	23	0	0	39	14228
2026-01-08 09:37:26.56	212.39	48.45	-35.9	-36.2	13.3	1.33e-04	0	23	0	0	39	14228
2026-01-08 09:37:27.57	212.25	47.94	-35.9	-36.2	13.3	1.33e-04	0	22	0	0	39	14228
2026-01-08 09:37:28.57	212.12	47.44	-35.9	-36.2	13.3	1.33e-04	0	22	0	0	39	14228
2026-01-08 09:37:29.58	211.98	46.94	-35.9	-36.2	13.3	1.33e-04	0	22	0	0	39	14228
2026-01-08 09:37:30.59	211.86	46.45	-35.9	-36.2	13.3	1.33e-04	0	22	0	0	39	14228
2026-01-08 09:37:31.59	211.73	45.96	-35.9	-36.2	13.3	1.33e-04	0	22	0	0	39	14228
2026-01-08 09:37:32.60	211.61	45.48	-35.9	-36.2	13.3	1.33e-04	0	22	0	0	39	14228
2026-01-08 09:37:33.60	211.50	45.01	-35.9	-36.2	13.3	1.33e-04	0	22	0	0	39	14228
2026-01-08 09:37:34.61	211.39	44.54	-35.9	-36.2	13.3	1.33e-04	0	22	0	0	39	14228
2026-01-08 09:37:35.62	211.28	44.08	-35.9	-36.2	13.3	1.33e-04	0	22	0	0	39	14228
2026-01-08 09:37:36.62	211.18	43.63	-35.9	-36.2	13.3	1.33e-04	0	22	0	0	39	14228
2026-01-08 09:37:37.63	211.07	43.18	-35.9	-36.2	13.3	1.33e-04	0	22	0	0	39	14228
2026-01-08 09:37:38.64	210.97	42.73	-35.9	-36.2	13.3	1.33e-04	0	22	0	0	39	14228
2026-01-08 09:37:39.64	210.88	42.30	-35.9	-36.2	13.3	1.33e-04	0	22	0	0	39	14228
2026-01-08 09:37:40.65	210.78	41.86	-35.9	-36.2	13.3	1.33e-04	0	22	0	0	39	14228
2026-01-08 09:37:41.66	210.69	41.44	-35.9	-36.2	13.3	1.33e-04	0	22	0	0	39	14228
2026-01-08 09:37:42.67	210.61	41.01	-35.9	-36.2	13.3	1.33e-04	0	22	0	0	39	14228
2026-01-08 09:37:43.67	210.52	40.60	-35.9	-36.2	13.3	1.33e-04	0	22	0	0	39	14228
2026-01-08 09:37:44.67	210.44	40.19	-35.9	-36.2	13.3	1.33e-04	0	22	0	0	39	14228
2026-01-08 09:37:45.68	210.36	39.79	-35.9	-36.2	13.3	1.33e-04	0	22	0	0	39	14228
2026-01-08 09:37:46.69	210.28	39.38	-35.9	-36.2	13.3	1.33e-04	0	22	0	0	39	14228
2026-01-08 09:37:47.69	210.20	38.99	-35.9	-36.2	13.3	1.33e-04	0	22	0	0	39	14228
2026-01-08 09:37:48.69	210.13	38.60	-35.9	-36.2	13.3	1.33e-04	0	22	0	0	39	14228
2026-01-08 09:37:49.69	210.05	38.22	-35.9	-36.2	13.3	1.33e-04	0	22	0	0	39	14228
2026-01-08 09:37:50.69	209.98	37.84	-35.9	-36.2	13.3	1.33e-04	0	22	0	0	39	14228
2026-01-08 09:37:51.69	209.92	37.47	-35.9	-36.2	13.3	1.33e-04	0	22	0	0	39	14228
2026-01-08 09:37:52.70	209.85	37.10	-35.9	-36.2	13.3	1.33e-04	0	22	0	0	39	14228
2026-01-08 09:37:53.71	209.78	36.73	-35.9	-36.2	13.3	1.33e-04	0	22	0	0	39	14228
2026-01-08 09:37:54.71	209.72	36.37	-35.9	-36.2	13.3	1.33e-04	0	22	0	0	39	14228
2026-01-08 09:37:55.72	209.66	36.02	-35.9	-36.2	13.3	1.33e-04	0	22	0	0	39	14228
2026-01-08 09:37:56.72	209.59	35.67	-35.9	-36.2	13.3	1.33e-04	0	22	0	0	39	14228
2026-01-08 09:37:57.73	209.53	35.32	-35.9	-36.2	13.3	1.33e-04	0	22	0	0	39	14228
2026-01-08 09:37:58.73	209.48	34.97	-35.9	-36.2	13.3	1.33e-04	0	22	0	0	39	14228
2026-01-08 09:37:59.73	209.42	34.64	-35.9	-36.2	13.3	1.33e-04	0	22	0	0	39	14228
2026-01-08 09:38:00.74	209.36	34.30	-35.9	-36.2	13.3	1.33e-04	0	22	0	0	39	14228
2026-01-08 09:38:01.74	209.31	33.97	-35.9	-36.2	13.3	1.33e-04	0	22	0	0	39	14228
2026-01-08 09:38:02.75	209.26	33.64	-35.9	-36.2	13.3	1.33e-04	0	22	0	0	39	14228
2026-01-08 09:38:03.75	209.21	33.32	-35.9	-36.2	13.3	1.33e-04	0	22	0	0	39	14228
2026-01-08 09:38:04.75	209.16	33.01	-35.9	-36.2	13.3	1.33e-04	0	22	0	0	39	14228
2026-01-08 09:38:05.75	209.11	32.69	-35.9	-36.2	13.3	1.33e-04	0	22	0	0	39	14228
2026-01-08 09:38:06.76	209.06	32.38	-35.9	-36.2	13.3	1.33e-04	0	22	0	0	39	14228
2026-01-08 09:38:07.76	209.01	32.07	-35.9	-36.2	13.3	1.33e-04	0	22	0	0	39	14228
2026-01-08 09:38:08.77	208.96	31.77	-35.9	-36.2	13.3	1.33e-04	0	22	0	0	39	14228
2026-01-08 09:38:09.78	208.92	31.47	-35.9	-36.2	13.3	1.33e-04	0	22	0	0	39	14228
2026-01-08 09:38:10.78	208.87	31.17	-35.9	-36.2	13.3	1.33e-04	0	22	0	0	39	14228
2026-01-08 09:38:11.78	208.83	30.88	-35.9	-36.2	13.3	1.33e-04	0	22	0	0	39	14228
2026-01-08 09:38:12.79	208.79	30.59	-35.9	-36.2	13.3	1.33e-04	0	22	0	0	39	14228
2026-01-08 09:38:13.79	208.75	30.30	-35.9	-36.2	13.3	1.33e-04	0	22	0	0	39	14228
2026-01-08 09:38:14.80	208.70	30.02	-35.9	-36.2	13.3	1.33e-04	0	22	0	0	39	14228
2026-01-08 09:38:15.80	208.66	29.74	-35.9	-36.2	13.3	1.33e-04	0	22	0	0	39	14228
2026-01-08 09:38:16.80	208.63	29.46	-35.9	-36.2	13.3	1.33e-04	0	22	0	0	39	14228
2026-01-08 09:38:17.80	208.59	29.19	-35.9	-36.2	13.3	1.33e-04	0	22	0	0	39	14228
2026-01-08 09:38:18.81	208.55	28.92	-35.9	-36.2	13.3	1.33e-04	0	22	0	0	39	14228
2026-01-08 09:38:19.81	208.51	28.65	-35.9	-36.2	13.3	1.33e-04	0	22	0	0	39	14228
2026-01-08 09:38:20.82	208.48	28.39	-35.9	-36.2	13.3	1.33e-04	0	22	0	0	39	14228
2026-01-08 09:38:21.82	208.44	28.13	-35.9	-36.2	13.3	1.33e-04	0	22	0	0	39	14228
2026-01-08 09:38:22.82	208.41	27.87	-35.9	-36.2	13.3	1.33e-04	0	22	0	0	39	14228
2026-01-08 09:38:23.83	208.37	27.61	-35.9	-36.2	13.3	1.33e-04	0	22	0	0	39	14228
2026-01-08 09:38:24.84	208.34	27.36	-35.9	-36.2	13.3	1.33e-04	0	22	0	0	39	14228
2026-01-08 09:38:25.85	208.31	27.11	-35.9	-36.2	13.3	1.33e-04	0	22	0	0	39	14228
2026-01-08 09:38:26.85	208.27	26.86	-35.9	-36.2	13.3	1.33e-04	0	22	0	0	39	14228
2026-01-08 09:38:27.85	208.24	26.62	-35.9	-36.2	13.3	1.33e-04	0	22	0	0	39	14228
2026-01-08 09:38:28.86	208.21	26.37	-35.9	-36.2	13.3	1.33e-04	0	22	0	0	39	14228
2026-01-08 09:38:29.86	208.18	26.13	-35.9	-36.2	13.3	1.33e-04	0	21	0	0	39	14228
2026-01-08 09:38:30.87	208.15	25.90	-35.9	-36.2	13.3	1.33e-04	0	22	0	0	39	14228
2026-01-08 09:38:31.88	208.12	25.66	-35.9	-36.2	13.3	1.33e-04	0	21	0	0	39	14228
2026-01-08 09:38:32.88	208.09	25.43	-35.9	-36.2	13.3	1.33e-04	0	21	0	0	39	14228
2026-01-08 09:38:33.89	208.06	25.20	-35.9	-36.2	13.3	1.33e-04	0	22	0	0	39	14228
2026-01-08 09:38:34.90	208.03	24.97	-35.9	-36.2	13.3	1.33e-04	0	21	0	0	39	14228
2026-01-08 09:38:35.90	208.01	24.75	-35.9	-36.2	13.3	1.33e-04	0	22	0	0	39	14228
2026-01-08 09:38:36.90	207.98	24.52	-35.9	-36.2	13.3	1.33e-04	0	22	0	0	39	14228
2026-01-08 09:38:37.91	207.95	24.30	-35.9	-36.2	13.3	1.33e-04	0	21	0	0	39	14228
2026-01-08 09:38:38.91	207.93	24.09	-35.9	-36.2	13.3	1.33e-04	0	22	0	0	39	14228
2026-01-08 09:38:39.92	207.90	23.87	-35.9	-36.2	13.3	1.33e-04	0	21	0	0	39	14228
2026-01-08 09:38:40.93	207.88	23.65	-35.9	-36.2	13.3	1.33e-04	0	22	0	0	39	14228
2026-01-08 09:38:41.93	207.85	23.44	-35.9	-36.2	13.3	1.33e-04	0	21	0	0	39	14228
2026-01-08 09:38:42.93	207.83	23.23	-35.9	-36.2	13.3	1.33e-04	0	21	0	0	39	14228
2026-01-08 09:38:43.94	207.81	23.03	-35.9	-36.2	13.3	1.33e-04	0	21	0	0	39	14228
2026-01-08 09:38:44.94	207.78	22.82	-35.9	-36.2	13.3	1.33e-04	0	21	0	0	39	14228
2026-01-08 09:38:45.95	207.76	22.62	-35.9	-36.2	13.3	1.33e-04	0	22	0	0	39	14228
2026-01-08 09:38:46.96	207.74	22.41	-35.9	-36.2	13.3	1.33e-04	0	21	0	0	39	14228
2026-01-08 09:38:47.97	207.71	22.21	-35.9	-36.2	13.3	1.33e-04	0	22	0	0	39	14228
2026-01-08 09:38:48.97	207.69	22.02	-35.9	-36.2	13.3	1.33e-04	0	21	0	0	39	14228
2026-01-08 09:38:49.98	207.67	21.82	-35.9	-36.2	13.3	1.33e-04	0	22	0	0	39	14228
2026-01-08 09:38:50.99	207.65	21.63	-35.9	-36.2	13.3	1.33e-04	0	22	0	0	39	14228
2026-01-08 09:38:52.00	207.63	21.43	-35.9	-36.2	13.3	1.33e-04	0	21	0	0	39	14228
2026-01-08 09:38:53.00	207.61	21.24	-35.9	-36.2	13.3	1.33e-04	0	21	0	0	39	14228
2026-01-08 09:38:54.01	207.59	21.05	-35.9	-36.2	13.3	1.33e-04	0	22	0	0	39	14228
2026-01-08 09:38:55.02	207.57	20.87	-35.9	-36.2	13.3	1.33e-04	0	22	0	0	39	14228
2026-01-08 09:38:56.03	207.55	20.68	-35.9	-36.2	13.3	1.33e-04	0	22	0	0	39	14228
2026-01-08 09:38:57.03	207.53	20.50	-35.9	-36.2	13.3	1.33e-04	0	21	0	0	39	14228
2026-01-08 09:38:58.04	207.51	20.31	-35.9	-36.2	13.3	1.33e-04	0	21	0	0	39	14228
2026-01-08 09:38:59.05	207.49	20.13	-35.9	-36.2	13.3	1.33e-04	0	21	0	0	39	14228
2026-01-08 09:39:00.05	207.47	19.96	-35.9	-36.2	13.3	1.33e-04	0	22	0	0	39	14228
2026-01-08 09:39:01.06	207.46	19.78	-35.9	-36.2	13.3	1.33e-04	0	21	0	0	39	14228
2026-01-08 09:39:02.07	207.44	19.60	-35.9	-36.2	13.3	1.33e-04	0	21	0	0	39	14228
2026-01-08 09:39:03.07	207.42	19.43	-35.9	-36.2	13.3	1.33e-04	0	21	0	0	39	14228
2026-01-08 09:39:04.08	207.40	19.26	-35.9	-36.2	13.3	1.33e-04	0	21	0	0	39	14228
2026-01-08 09:39:05.09	207.39	19.08	-35.9	-36.2	13.3	1.33e-04	0	21	0	0	39	14228
2026-01-08 09:39:06.09	207.37	18.91	-35.9	-36.2	13.3	1.33e-04	0	21	0	0	39	14228
2026-01-08 09:39:07.10	207.35	18.75	-35.9	-36.2	13.3	1.33e-04	0	21	0	0	39	14228
2026-01-08 09:39:08.10	207.34	18.58	-35.9	-36.2	13.3	1.33e-04	0	21	0	0	39	14228
2026-01-08 09:39:09.10	207.32	18.42	-35.9	-36.2	13.3	1.33e-04	0	21	0	0	39	14228
2026-01-08 09:39:10.10	207.31	18.25	-35.9	-36.2	13.3	1.33e-04	0	21	0	0	39	14228
2026-01-08 09:39:11.11	207.29	18.09	-35.9	-36.2	13.3	1.33e-04	0	21	0	0	39	14228
2026-01-08 09:39:12.11	207.27	17.93	-35.9	-36.2	13.3	1.33e-04	0	21	0	0	39	14228
2026-01-08 09:39:13.12	207.26	17.77	-35.9	-36.2	13.3	1.33e-04	0	21	0	0	39	14228
2026-01-08 09:39:14.12	207.25	17.61	-35.9	-36.2	13.3	1.33e-04	0	21	0	0	39	14228
2026-01-08 09:39:15.13	207.23	17.45	-35.9	-36.2	13.3	1.33e-04	0	21	0	0	39	14228
2026-01-08 09:39:16.13	207.22	17.30	-35.9	-36.2	13.3	1.33e-04	0	21	0	0	39	14228
2026-01-08 09:39:17.14	207.20	17.14	-35.9	-36.2	13.3	1.33e-04	0	21	0	0	39	14228
2026-01-08 09:39:18.14	207.19	16.99	-35.9	-36.2	13.3	1.33e-04	0	21	0	0	39	14228
2026-01-08 09:39:19.14	207.17	16.84	-35.9	-36.2	13.3	1.33e-04	0	21	0	0	39	14228
2026-01-08 09:39:20.15	207.16	16.69	-35.9	-36.2	13.3	1.33e-04	0	21	0	0	39	14228
2026-01-08 09:39:21.15	207.15	16.54	-35.9	-36.2	13.3	1.33e-04	0	21	0	0	39	14228
2026-01-08 09:39:22.15	207.14	16.39	-35.9	-36.2	13.3	1.33e-04	0	21	0	0	39	14228
2026-01-08 09:39:23.15	207.12	16.24	-35.9	-36.2	13.3	1.33e-04	0	21	0	0	39	14228
2026-01-08 09:39:24.16	207.11	16.10	-35.9	-36.2	13.3	1.33e-04	0	21	0	0	39	14228
2026-01-08 09:39:25.17	207.10	15.95	-35.9	-36.2	13.3	1.33e-04	0	21	0	0	39	14228
2026-01-08 09:39:26.18	207.08	15.81	-35.9	-36.2	13.3	1.33e-04	0	21	0	0	39	14228
2026-01-08 09:39:27.18	207.07	15.66	-35.9	-36.2	13.3	1.33e-04	0	21	0	0	39	14228
2026-01-08 09:39:28.18	207.06	15.52	-35.9	-36.2	13.3	1.33e-04	0	21	0	0	39	14228
2026-01-08 09:39:29.18	207.05	15.38	-35.9	-36.2	13.3	1.33e-04	0	21	0	0	39	14228
2026-01-08 09:39:30.19	207.04	15.24	-35.9	-36.2	13.3	1.33e-04	0	21	0	0	39	14228
2026-01-08 09:39:31.19	207.03	15.10	-35.9	-36.2	13.3	1.33e-04	0	21	0	0	39	14228
2026-01-08 09:39:32.20	207.01	14.96	-35.9	-36.2	13.3	1.33e-04	0	21	0	0	39	14228
2026-01-08 09:39:33.20	207.00	14.83	-35.9	-36.2	13.3	1.33e-04	0	21	0	0	39	14228
2026-01-08 09:39:34.21	206.99	14.69	-35.9	-36.2	13.3	1.33e-04	0	21	0	0	39	14228
2026-01-08 09:39:35.22	206.98	14.56	-35.9	-36.2	13.3	1.33e-04	0	21	0	0	39	14228
2026-01-08 09:39:36.22	206.97	14.42	-35.9	-36.2	13.3	1.33e-04	0	21	0	0	39	14228
2026-01-08 09:39:37.22	206.96	14.29	-35.9	-36.2	13.3	1.33e-04	0	21	0	0	39	14228
2026-01-08 09:39:38.22	206.95	14.16	-35.9	-36.2	13.3	1.33e-04	0	21	0	0	39	14228
2026-01-08 09:39:39.22	206.94	14.03	-35.9	-36.2	13.3	1.33e-04	0	21	0	0	39	14228
2026-01-08 09:39:40.23	206.93	13.90	-35.9	-36.2	13.3	1.33e-04	0	21	0	0	39	14228
2026-01-08 09:39:41.23	206.92	13.77	-35.9	-36.2	13.3	1.33e-04	0	21	0	0	39	14228
2026-01-08 09:39:42.24	206.91	13.64	-35.9	-36.2	13.3	1.33e-04	0	21	0	0	39	14228
2026-01-08 09:39:43.25	206.90	13.51	-35.9	-36.2	13.3	1.33e-04	0	21	0	0	39	14228
2026-01-08 09:39:44.25	206.89	13.39	-35.9	-36.2	13.3	1.33e-04	0	21	0	0	39	14228
2026-01-08 09:39:45.26	206.88	13.26	-35.9	-36.2	13.3	1.33e-04	0	21	0	0	39	14228
2026-01-08 09:39:46.26	206.87	13.13	-35.9	-36.2	13.3	1.33e-04	0	21	0	0	39	14228
2026-01-08 09:39:47.27	206.86	13.01	-35.9	-36.2	13.3	1.33e-04	0	21	0	0	39	14228
2026-01-08 09:39:48.28	206.85	12.89	-35.9	-36.2	13.3	1.33e-04	0	21	0	0	39	14228
2026-01-08 09:39:49.27	206.84	12.77	-35.9	-36.2	13.3	1.33e-04	0	21	0	0	39	14228
2026-01-08 09:39:50.28	206.84	12.64	-35.9	-36.2	13.3	1.33e-04	0	21	0	0	39	14228
2026-01-08 09:39:51.29	206.83	12.52	-35.9	-36.2	13.3	1.33e-04	0	21	0	0	39	14228
2026-01-08 09:39:52.29	206.82	12.40	-35.9	-36.2	13.3	1.33e-04	0	21	0	0	39	14228
2026-01-08 09:39:53.30	206.81	12.28	-35.9	-36.2	13.3	1.33e-04	0	21	0	0	39	14228
2026-01-08 09:39:54.31	206.80	12.16	-35.9	-36.2	13.3	1.33e-04	0	21	0	0	39	14228
2026-01-08 09:39:55.32	206.79	12.04	-35.9	-36.2	13.3	1.33e-04	0	21	0	0	39	14228
2026-01-08 09:39:56.32	206.79	11.93	-35.9	-36.2	13.3	1.33e-04	0	21	0	0	39	14228
2026-01-08 09:39:57.32	206.78	11.81	-35.9	-36.2	13.3	1.33e-04	0	21	0	0	39	14228
2026-01-08 09:39:58.32	206.77	11.70	-35.9	-36.2	13.3	1.33e-04	0	21	0	0	39	14228
2026-01-08 09:39:59.33	206.76	11.58	-35.9	-36.2	13.3	1.33e-04	0	21	0	0	39	14228
2026-01-08 09:40:00.33	206.75	11.47	-35.9	-36.2	13.3	1.33e-04	0	21	0	0	39	14228
2026-01-08 09:40:01.34	206.75	11.35	-35.9	-36.2	13.3	1.33e-04	0	21	0	0	39	14228
2026-01-08 09:40:02.34	206.74	11.24	-35.9	-36.2	13.3	1.33e-04	0	21	0	0	39	14228
2026-01-08 09:40:03.35	206.73	11.13	-35.9	-36.2	13.3	1.33e-04	0	21	0	0	39	14228
2026-01-08 09:40:04.35	206.72	11.02	-35.9	-36.2	13.3	1.33e-04	0	21	0	0	39	14228
2026-01-08 09:40:05.35	206.72	10.91	-35.9	-36.2	13.3	1.33e-04	0	21	0	0	39	14228
2026-01-08 09:40:06.36	206.71	10.80	-35.9	-36.2	13.3	1.33e-04	0	21	0	0	39	14228
2026-01-08 09:40:07.37	206.70	10.69	-35.9	-36.2	13.3	1.33e-04	0	21	0	0	39	14228
2026-01-08 09:40:08.36	206.70	10.58	-35.9	-36.2	13.3	1.33e-04	0	21	0	0	39	14228
2026-01-08 09:40:09.37	206.69	10.47	-35.9	-36.2	13.3	1.33e-04	0	21	0	0	39	14228
2026-01-08 09:40:10.38	206.68	10.36	-35.9	-36.2	13.3	1.33e-04	0	21	0	0	39	14228
2026-01-08 09:40:11.39	206.68	10.25	-35.9	-36.2	13.3	1.33e-04	0	21	0	0	39	14228
2026-01-08 09:40:12.40	206.67	10.15	-35.9	-36.2	13.3	1.33e-04	0	21	0	0	39	14228
2026-01-08 09:40:13.41	206.66	10.04	-35.9	-36.2	13.3	1.33e-04	0	21	0	0	39	14228
2026-01-08 09:40:14.42	206.66	9.93	-35.9	-36.2	13.3	1.33e-04	0	21	0	0	39	14228
2026-01-08 09:40:15.42	206.65	9.83	-35.9	-36.2	13.3	1.33e-04	0	21	0	0	39	14228
2026-01-08 09:40:16.43	206.64	9.73	-35.9	-36.2	13.3	1.33e-04	0	21	0	0	39	14228
2026-01-08 09:40:17.43	206.64	9.62	-35.9	-36.2	13.3	1.33e-04	0	21	0	0	39	14228
2026-01-08 09:40:18.44	206.63	9.52	-35.9	-36.2	13.3	1.33e-04	0	21	0	0	39	14228
2026-01-08 09:40:19.45	206.63	9.42	-35.9	-36.2	13.3	1.33e-04	0	21	0	0	39	14228
2026-01-08 09:40:20.46	206.62	9.31	-35.9	-36.2	13.3	1.33e-04	0	21	0	0	39	14228
2026-01-08 09:40:21.46	206.61	9.21	-35.9	-36.2	13.3	1.33e-04	0	21	0	0	39	14228
2026-01-08 09:40:22.46	206.61	9.11	-35.9	-36.2	13.3	1.33e-04	0	21	0	0	39	14228
2026-01-08 09:40:23.46	206.60	9.01	-35.9	-36.2	13.3	1.33e-04	0	21	0	0	39	14228
2026-01-08 09:40:24.47	206.60	8.91	-35.9	-36.2	13.3	1.33e-04	0	21	0	0	39	14228
2026-01-08 09:40:25.47	206.59	8.81	-35.9	-36.2	13.3	1.33e-04	0	21	0	0	39	14228
2026-01-08 09:40:26.48	206.59	8.71	-35.9	-36.2	13.3	1.33e-04	0	21	0	0	39	14228
2026-01-08 09:40:27.48	206.58	8.62	-35.9	-36.2	13.3	1.33e-04	0	21	0	0	39	14228
2026-01-08 09:40:28.49	206.58	8.52	-35.9	-36.2	13.3	1.33e-04	0	21	0	0	39	14228
2026-01-08 09:40:29.49	206.57	8.42	-35.9	-36.2	13.3	1.33e-04	0	21	0	0	39	14228
2026-01-08 09:40:30.49	206.57	8.33	-35.9	-36.2	13.3	1.33e-04	0	21	0	0	39	14228
2026-01-08 09:40:31.49	206.56	8.23	-35.9	-36.2	13.3	1.33e-04	0	21	0	0	39	14228
2026-01-08 09:40:32.50	206.56	8.13	-35.9	-36.2	13.3	1.33e-04	0	21	0	0	39	14228
2026-01-08 09:40:33.51	206.55	8.04	-35.9	-36.2	13.3	1.33e-04	0	21	0	0	39	14228
2026-01-08 09:40:34.52	206.55	7.94	-35.9	-36.2	13.3	1.33e-04	0	21	0	0	39	14228
2026-01-08 09:40:35.53	206.54	7.85	-35.9	-36.2	13.3	1.33e-04	0	21	0	0	39	14228
2026-01-08 09:40:36.53	206.54	7.76	-35.9	-36.2	13.3	1.33e-04	0	21	0	0	39	14228
2026-01-08 09:40:37.54	206.53	7.66	-35.9	-36.2	13.3	1.33e-04	0	21	0	0	39	14228
2026-01-08 09:40:38.54	206.53	7.57	-35.9	-36.2	13.3	1.33e-04	0	21	0	0	39	14228
2026-01-08 09:40:39.54	206.52	7.48	-35.9	-36.2	13.3	1.33e-04	0	21	0	0	39	14228
2026-01-08 09:40:40.55	206.52	7.38	-35.9	-36.2	13.3	1.33e-04	0	21	0	0	39	14228
2026-01-08 09:40:41.56	206.52	7.29	-35.9	-36.2	13.3	1.33e-04	0	21	0	0	39	14228
2026-01-08 09:40:42.57	206.51	7.20	-35.9	-36.2	13.3	1.33e-04	0	21	0	0	39	14228
2026-01-08 09:40:43.57	206.51	7.11	-35.9	-36.2	13.3	1.33e-04	0	21	0	0	39	14228
2026-01-08 09:40:44.57	206.50	7.02	-35.9	-36.2	13.3	1.33e-04	0	21	0	0	39	14228
2026-01-08 09:40:45.57	206.50	6.93	-35.9	-36.2	13.3	1.33e-04	0	21	0	0	39	14228
2026-01-08 09:40:46.58	206.49	6.84	-35.9	-36.2	13.3	1.33e-04	0	21	0	0	39	14228
2026-01-08 09:40:47.58	206.49	6.75	-35.9	-36.2	13.3	1.33e-04	0	21	0	0	39	14228
2026-01-08 09:40:48.58	206.49	6.66	-35.9	-36.2	13.3	1.33e-04	0	21	0	0	39	14228
2026-01-08 09:40:49.59	206.48	6.58	-35.9	-36.2	13.3	1.33e-04	0	21	0	0	39	14228
2026-01-08 09:40:50.59	206.48	6.49	-35.9	-36.2	13.3	1.33e-04	0	21	0	0	39	14228
2026-01-08 09:40:51.60	206.47	6.40	-35.9	-36.2	13.3	1.33e-04	0	21	0	0	39	14228
2026-01-08 09:40:52.60	206.47	6.31	-35.9	-36.2	13.3	1.33e-04	0	21	0	0	39	14228
2026-01-08 09:40:53.61	206.47	6.23	-35.9	-36.2	13.3	1.33e-04	0	21	0	0	39	14228
2026-01-08 09:40:54.62	206.46	6.14	-35.9	-36.2	13.3	1.33e-04	0	21	0	0	39	14228
2026-01-08 09:40:55.63	206.46	6.05	-35.9	-36.2	13.3	1.33e-04	0	21	0	0	39	14228
2026-01-08 09:40:56.63	206.46	5.97	-35.9	-36.2	13.3	1.33e-04	0	21	0	0	39	14228
2026-01-08 09:40:57.64	206.45	5.88	-35.9	-36.2	13.3	1.33e-04	0	21	0	0	39	14228
2026-01-08 09:40:58.65	206.45	5.80	-35.9	-36.2	13.3	1.33e-04	0	21	0	0	39	14228
2026-01-08 09:40:59.66	206.45	5.71	-35.9	-36.2	13.3	1.33e-04	0	21	0	0	39	14228
2026-01-08 09:41:00.66	206.44	5.63	-35.9	-36.2	13.3	1.33e-04	0	21	0	0	39	14228
2026-01-08 09:41:01.67	206.44	5.55	-35.9	-36.2	13.3	1.33e-04	0	21	0	0	39	14228
2026-01-08 09:41:02.67	206.44	5.46	-35.9	-36.2	13.3	1.33e-04	0	21	0	0	39	14228
2026-01-08 09:41:03.68	206.43	5.38	-35.9	-36.2	13.3	1.33e-04	0	21	0	0	39	14228
2026-01-08 09:41:04.68	206.43	5.30	-35.9	-36.2	13.3	1.33e-04	0	21	0	0	39	14228
2026-01-08 09:41:05.69	206.43	5.21	-35.9	-36.2	13.3	1.33e-04	0	21	0	0	39	14228
2026-01-08 09:41:06.69	206.42	5.13	-35.9	-36.2	13.3	1.33e-04	0	21	0	0	39	14228
2026-01-08 09:41:07.70	206.42	5.05	-35.9	-36.2	13.3	1.33e-04	0	21	0	0	39	14228
2026-01-08 09:41:08.70	206.42	4.97	-35.9	-36.2	13.3	1.33e-04	0	21	0	0	39	14228
2026-01-08 09:41:09.71	206.42	4.89	-35.9	-36.2	13.3	1.33e-04	0	21	0	0	39	14228
2026-01-08 09:41:10.71	206.41	4.81	-35.9	-36.2	13.3	1.33e-04	0	21	0	0	39	14228
2026-01-08 09:41:11.71	206.41	4.73	-35.9	-36.2	13.3	1.33e-04	0	21	0	0	39	14228
2026-01-08 09:41:12.72	206.41	4.65	-35.9	-36.2	13.3	1.33e-04	0	21	0	0	39	14228
2026-01-08 09:41:13.72	206.40	4.57	-35.9	-36.2	13.3	1.33e-04	0	21	0	0	39	14228
2026-01-08 09:41:14.73	206.40	4.49	-35.9	-36.2	13.3	1.33e-04	0	21	0	0	39	14228
2026-01-08 09:41:15.74	206.40	4.41	-35.9	-36.2	13.3	1.33e-04	0	21	0	0	39	14228
2026-01-08 09:41:16.75	206.40	4.33	-35.9	-36.2	13.3	1.33e-04	0	21	0	0	39	14228
2026-01-08 09:41:17.76	206.39	4.25	-35.9	-36.2	13.3	1.33e-04	0	21	0	0	39	14228
2026-01-08 09:41:18.76	206.39	4.17	-35.9	-36.2	13.3	1.33e-04	0	21	0	0	39	14228
2026-01-08 09:41:19.77	206.39	4.10	-35.9	-36.2	13.3	1.33e-04	0	21	0	0	39	14228
2026-01-08 09:41:20.78	206.39	4.02	-35.9	-36.2	13.3	1.33e-04	0	21	0	0	39	14228
2026-01-08 09:41:21.79	206.38	3.94	-35.9	-36.2	13.3	1.33e-04	0	21	0	0	39	14228
2026-01-08 09:41:22.80	206.38	3.86	-35.9	-36.2	13.3	1.33e-04	0	21	0	0	39	14228
2026-01-08 09:41:23.80	206.38	3.79	-35.9	-36.2	13.3	1.33e-04	0	21	0	0	39	14228
2026-01-08 09:41:24.81	206.38	3.71	-35.9	-36.2	13.3	1.33e-04	0	21	0	0	39	14228
2026-01-08 09:41:25.82	206.37	3.63	-35.9	-36.2	13.3	1.33e-04	0	21	0	0	39	14228
2026-01-08 09:41:26.83	206.37	3.56	-35.9	-36.2	13.3	1.33e-04	0	21	0	0	39	14228
2026-01-08 09:41:27.84	206.37	3.48	-35.9	-36.2	13.3	1.33e-04	0	21	0	0	39	14228
2026-01-08 09:41:28.84	206.37	3.41	-35.9	-36.2	13.3	1.33e-04	0	21	0	0	39	14228
2026-01-08 09:41:29.85	206.37	3.33	-35.9	-36.2	13.3	1.33e-04	0	21	0	0	39	14228
2026-01-08 09:41:30.86	206.36	3.26	-35.9	-36.2	13.3	1.33e-04	0	21	0	0	39	14228
2026-01-08 09:41:31.87	206.36	3.18	-35.9	-36.2	13.3	1.33e-04	0	21	0	0	39	14228
2026-01-08 09:41:32.87	206.36	3.11	-35.9	-36.2	13.3	1.33e-04	0	21	0	0	39	14228
2026-01-08 09:41:33.88	206.36	3.03	-35.9	-36.2	13.3	1.33e-04	0	21	0	0	39	14228
2026-01-08 09:41:34.89	206.36	2.96	-35.9	-36.2	13.3	1.33e-04	0	21	0	0	39	14228
2026-01-08 09:41:35.90	206.35	2.88	-35.9	-36.2	13.3	1.33e-04	0	21	0	0	39	14228
2026-01-08 09:41:36.91	206.35	2.81	-35.9	-36.2	13.3	1.33e-04	0	21	0	0	39	14228
2026-01-08 09:41:37.92	206.35	2.74	-35.9	-36.2	13.3	1.33e-04	0	21	0	0	39	14228
2026-01-08 09:41:38.92	206.35	2.67	-35.9	-36.2	13.3	1.33e-04	0	21	0	0	39	14228
2026-01-08 09:41:39.92	206.35	2.59	-35.9	-36.2	13.3	1.33e-04	0	21	0	0	39	14228
2026-01-08 09:41:40.93	206.35	2.52	-35.9	-36.2	13.3	1.33e-04	0	21	0	0	39	14228
2026-01-08 09:41:41.93	206.34	2.45	-35.9	-36.2	13.3	1.33e-04	0	21	0	0	39	14228
2026-01-08 09:41:42.94	206.34	2.38	-35.9	-36.2	13.3	1.33e-04	0	21	0	0	39	14228
2026-01-08 09:41:43.95	206.34	2.31	-35.9	-36.2	13.3	1.33e-04	0	21	0	0	39	14228
2026-01-08 09:41:44.96	206.34	2.23	-35.9	-36.2	13.3	1.33e-04	0	21	0	0	39	14228
2026-01-08 09:41:45.97	206.34	2.16	-35.9	-36.2	13.3	1.33e-04	0	21	0	0	39	14228
2026-01-08 09:41:46.98	206.34	2.09	-35.9	-36.2	13.3	1.33e-04	0	21	0	0	39	14228
2026-01-08 09:41:47.99	206.33	2.02	-35.9	-36.2	13.3	1.33e-04	0	21	0	0	39	14228

#Closed at: 2026-01-08 09:41:48
#Recorded file [0 MB]: D:/lorett/data/31004_260108_123107.dat