passes_logs/2026/01/08/R3.2S_Murmansk/R3.2S_Murmansk__20260108_132518_SUOMI_NPP_rec.log

#Pass ID: 20260108_132518_SUOMI NPP
#Satellite: SUOMI NPP
#Configuration: NPP
#almurnet v.1.7.20251203
#Start time: 2026-01-08 13:25:19

#Version: 2.2.20231116
#Station: R3.2S_Murmansk
#Location: 33.079688 lon 68.888172 lat
#TLE: 1 37849U 11061A   26005.94084933  .00000134  00000+0  84554-4 0  9990
#TLE: 2 37849  98.7803 308.0679 0002567  79.1029 281.0436 14.19522657735426

#Time	Az	El	Level	Level2	SNR	BER	BlckErr	Temp	State	Recorded	gain1	gain2
2026-01-08 13:25:19.30	253.35	2.02	-57.9	-73.9	3.8	1.49e+00	0	22	0	0	82	22039
2026-01-08 13:25:20.32	253.46	2.06	-57.8	-73.8	3.8	1.49e+00	0	22	104	0	80	24551
2026-01-08 13:25:21.33	253.57	2.10	-57.8	-73.8	3.8	1.49e+00	0	22	104	0	80	24518
2026-01-08 13:25:22.34	253.68	2.14	-57.8	-73.8	3.8	1.49e+00	0	22	104	0	80	24494
2026-01-08 13:25:23.35	253.79	2.18	-57.8	-73.8	3.8	1.49e+00	0	22	104	0	80	24524
2026-01-08 13:25:24.35	253.89	2.22	-57.8	-73.8	3.8	1.49e+00	0	22	104	0	80	24552
2026-01-08 13:25:25.36	254.00	2.26	-57.8	-73.8	3.8	1.49e+00	0	22	104	0	80	24538
2026-01-08 13:25:26.37	254.11	2.30	-57.8	-73.8	3.8	1.49e+00	0	22	104	0	80	24543
2026-01-08 13:25:27.38	254.22	2.34	-57.8	-73.8	3.8	1.49e+00	0	22	104	0	80	24540
2026-01-08 13:25:28.39	254.34	2.38	-57.8	-73.8	3.8	1.49e+00	0	22	104	0	80	24532
2026-01-08 13:25:29.39	254.45	2.42	-57.8	-73.8	3.8	1.49e+00	0	22	104	0	80	24544
2026-01-08 13:25:30.40	254.56	2.46	-57.8	-73.8	3.8	1.49e+00	0	22	104	0	80	24532
2026-01-08 13:25:31.41	254.67	2.50	-57.8	-73.8	3.8	1.49e+00	0	23	104	0	80	24527
2026-01-08 13:25:32.42	254.78	2.54	-57.8	-73.8	3.8	1.49e+00	0	22	104	0	80	24605
2026-01-08 13:25:33.43	254.89	2.58	-57.8	-73.8	3.8	1.49e+00	0	22	104	0	80	24626
2026-01-08 13:25:34.44	255.00	2.62	-57.8	-73.8	3.8	1.49e+00	0	22	104	0	80	24463
2026-01-08 13:25:35.45	255.12	2.66	-57.8	-73.8	3.8	1.49e+00	0	23	104	0	80	24486
2026-01-08 13:25:36.46	255.23	2.70	-57.8	-73.8	3.8	1.49e+00	0	23	104	0	80	24510
2026-01-08 13:25:37.47	255.34	2.74	-57.8	-73.8	3.8	1.49e+00	0	23	104	0	80	24501
2026-01-08 13:25:38.47	255.46	2.78	-57.8	-73.8	3.8	1.49e+00	0	23	104	0	80	24483
2026-01-08 13:25:39.48	255.57	2.82	-57.8	-73.8	3.8	1.49e+00	0	23	104	0	80	24435
2026-01-08 13:25:40.49	255.68	2.86	-57.8	-73.8	3.8	1.49e+00	0	23	104	0	80	24525
2026-01-08 13:25:41.50	255.80	2.90	-57.8	-73.8	3.8	1.49e+00	0	23	104	0	80	24477
2026-01-08 13:25:42.50	255.91	2.94	-57.8	-73.8	3.8	1.49e+00	0	23	104	0	80	24497
2026-01-08 13:25:43.50	256.03	2.98	-57.8	-73.8	3.8	1.49e+00	0	23	104	0	80	24563
2026-01-08 13:25:44.51	256.14	3.02	-57.8	-73.8	3.8	1.49e+00	0	23	104	0	80	24504
2026-01-08 13:25:45.52	256.26	3.06	-57.8	-73.8	3.8	1.49e+00	0	23	104	0	80	24450
2026-01-08 13:25:46.53	256.37	3.10	-57.8	-73.7	3.8	1.49e+00	0	23	104	0	80	24403
2026-01-08 13:25:47.53	256.49	3.14	-57.8	-73.7	3.8	1.49e+00	0	23	104	0	80	24371
2026-01-08 13:25:48.53	256.60	3.17	-57.8	-73.7	3.8	1.49e+00	0	23	104	0	80	24408
2026-01-08 13:25:49.55	256.72	3.21	-57.8	-73.8	3.8	1.49e+00	0	23	104	0	80	24438
2026-01-08 13:25:50.56	256.84	3.25	-57.8	-73.7	3.8	1.49e+00	0	23	104	0	80	24396
2026-01-08 13:25:51.57	256.96	3.29	-57.8	-73.8	3.8	1.49e+00	0	23	104	0	80	24439
2026-01-08 13:25:52.57	257.07	3.33	-57.8	-73.8	3.8	1.49e+00	0	23	104	0	80	24502
2026-01-08 13:25:53.58	257.19	3.37	-57.8	-73.8	3.8	1.49e+00	0	23	104	0	80	24546
2026-01-08 13:25:54.59	257.31	3.41	-57.8	-73.8	3.8	1.49e+00	0	23	104	0	80	24593
2026-01-08 13:25:55.60	257.43	3.45	-57.8	-73.8	3.8	1.49e+00	0	23	104	0	80	24507
2026-01-08 13:25:56.61	257.55	3.49	-57.8	-73.8	3.8	1.49e+00	0	23	104	0	80	24426
2026-01-08 13:25:57.62	257.67	3.53	-57.8	-73.7	3.8	1.49e+00	0	23	104	0	80	24347
2026-01-08 13:25:58.63	257.78	3.57	-57.8	-73.7	3.8	1.49e+00	0	23	104	0	80	24237
2026-01-08 13:25:59.64	257.90	3.61	-57.8	-73.7	3.8	1.49e+00	0	23	104	0	80	24207
2026-01-08 13:26:00.65	258.02	3.65	-57.8	-73.7	3.8	1.49e+00	0	23	104	0	80	24170
2026-01-08 13:26:01.66	258.15	3.69	-57.8	-73.7	3.8	1.49e+00	0	23	104	0	80	24233
2026-01-08 13:26:02.67	258.27	3.72	-57.8	-73.7	3.8	1.49e+00	0	23	104	0	80	24265
2026-01-08 13:26:03.67	258.39	3.76	-57.8	-73.7	3.8	1.49e+00	0	23	104	0	80	24289
2026-01-08 13:26:04.68	258.51	3.80	-57.8	-73.7	3.8	1.49e+00	0	23	104	0	80	24358
2026-01-08 13:26:05.69	258.63	3.84	-57.8	-73.8	3.8	1.49e+00	0	23	104	0	80	24494
2026-01-08 13:26:06.70	258.75	3.88	-57.8	-73.8	3.8	1.49e+00	0	23	104	0	80	24590
2026-01-08 13:26:07.71	258.87	3.92	-57.8	-73.8	3.8	1.49e+00	0	23	104	0	80	24449
2026-01-08 13:26:08.72	259.00	3.96	-57.8	-73.7	3.8	1.49e+00	0	23	104	0	80	24203
2026-01-08 13:26:09.73	259.12	4.00	-57.8	-73.6	3.8	1.49e+00	0	23	104	0	80	23988
2026-01-08 13:26:10.73	259.24	4.03	-57.8	-73.6	3.8	1.49e+00	0	23	104	0	80	23896
2026-01-08 13:26:11.74	259.36	4.07	-57.8	-73.6	3.8	1.49e+00	0	23	104	0	80	23892
2026-01-08 13:26:12.75	259.49	4.11	-57.8	-73.5	3.8	1.49e+00	0	23	104	0	80	23853
2026-01-08 13:26:13.76	259.61	4.15	-57.8	-73.6	3.8	1.49e+00	0	23	104	0	80	24110
2026-01-08 13:26:14.77	259.74	4.19	-57.8	-73.7	3.8	1.49e+00	0	23	104	0	80	24366
2026-01-08 13:26:15.78	259.86	4.23	-57.8	-73.8	3.8	1.49e+00	0	23	104	0	80	24432
2026-01-08 13:26:16.79	259.99	4.26	-57.8	-73.8	3.8	1.49e+00	0	23	104	0	80	24530
2026-01-08 13:26:17.80	260.11	4.30	-57.8	-73.7	3.8	1.49e+00	0	23	104	0	80	24353
2026-01-08 13:26:18.81	260.24	4.34	-57.8	-73.6	3.8	1.49e+00	0	23	104	0	80	24044
2026-01-08 13:26:19.82	260.36	4.38	-57.8	-73.5	3.8	1.49e+00	0	23	104	0	80	23739
2026-01-08 13:26:20.82	260.49	4.42	-57.8	-73.3	3.8	1.49e+00	0	23	104	0	80	23126
2026-01-08 13:26:21.84	260.62	4.46	-57.8	-73.2	3.8	1.49e+00	0	23	104	0	80	23036
2026-01-08 13:26:22.84	260.74	4.49	-57.8	-73.3	3.8	1.49e+00	0	23	104	0	80	23058
2026-01-08 13:26:23.85	260.87	4.53	-57.8	-73.2	3.8	1.49e+00	0	23	104	0	80	22834
2026-01-08 13:26:24.86	261.00	4.57	-57.8	-72.9	3.8	1.49e+00	0	24	104	0	80	22212
2026-01-08 13:26:25.86	261.12	4.61	-57.8	-73.0	3.8	1.49e+00	0	23	104	0	80	22519
2026-01-08 13:26:26.88	261.25	4.64	-57.7	-73.1	3.8	1.49e+00	0	23	104	0	80	22552
2026-01-08 13:26:27.88	261.38	4.68	-57.8	-73.6	3.8	1.49e+00	0	23	104	0	80	23878
2026-01-08 13:26:28.89	261.51	4.72	-57.8	-73.7	3.8	1.49e+00	0	24	104	0	80	24377
2026-01-08 13:26:29.90	261.64	4.76	-57.8	-73.2	3.8	1.49e+00	0	23	104	0	80	22922
2026-01-08 13:26:30.91	261.77	4.79	-57.7	-71.8	3.8	1.49e+00	0	24	104	0	80	19614
2026-01-08 13:26:31.92	261.90	4.83	-57.6	-70.1	4.2	1.47e+00	0	24	0	0	80	15947
2026-01-08 13:26:32.92	262.03	4.87	-57.5	-69.0	4.6	1.02e+00	0	24	0	1048576	80	14092
2026-01-08 13:26:33.93	262.16	4.90	-57.5	-68.1	5.0	7.30e-01	0	24	0	2097152	80	12765
2026-01-08 13:26:34.94	262.29	4.94	-57.4	-67.6	5.3	6.08e-01	0	23	0	4194304	80	11996
2026-01-08 13:26:35.94	262.42	4.98	-57.1	-65.4	6.7	2.15e-01	0	24	0	6291456	80	9337
2026-01-08 13:26:36.95	262.55	5.02	-56.5	-62.7	9.1	3.16e-02	0	24	0	8388608	79	7247
2026-01-08 13:26:37.96	262.68	5.05	-56.6	-62.9	8.9	7.18e-03	0	24	0	10485760	79	7409
2026-01-08 13:26:38.96	262.81	5.09	-57.7	-72.9	3.8	1.31e+00	0	24	104	11534336	80	22132
2026-01-08 13:26:39.97	262.94	5.13	-56.6	-62.3	9.7	1.63e-01	0	23	0	11534336	79	6898
2026-01-08 13:26:40.98	263.08	5.16	-57.4	-66.3	6.2	5.19e-02	0	24	0	13631488	79	10971
2026-01-08 13:26:41.99	263.21	5.20	-53.7	-56.4	13.6	4.43e-02	0	24	0	15728640	74	4681
2026-01-08 13:26:43.00	263.34	5.24	-53.6	-56.3	13.5	0.00e+00	0	24	0	16777216	73	4924
2026-01-08 13:26:44.01	263.48	5.27	-53.3	-55.9	13.8	0.00e+00	0	23	0	18874368	73	4698
2026-01-08 13:26:45.01	263.61	5.31	-53.2	-55.7	13.9	0.00e+00	0	24	0	20971520	73	4585
2026-01-08 13:26:46.01	263.74	5.34	-53.3	-55.9	13.6	0.00e+00	0	24	0	23068672	72	4943
2026-01-08 13:26:47.02	263.88	5.38	-53.4	-56.1	13.4	0.00e+00	0	24	0	25165824	72	5061
2026-01-08 13:26:48.03	264.01	5.42	-53.3	-56.0	13.6	0.00e+00	0	24	0	26214400	72	5009
2026-01-08 13:26:49.03	264.15	5.45	-53.2	-55.8	13.7	0.00e+00	0	24	0	28311552	72	4922
2026-01-08 13:26:50.04	264.28	5.49	-53.3	-55.9	13.6	0.00e+00	0	24	0	30408704	72	4963
2026-01-08 13:26:51.05	264.42	5.52	-53.3	-55.9	13.6	0.00e+00	0	24	0	32505856	72	4955
2026-01-08 13:26:52.05	264.55	5.56	-53.2	-55.8	13.7	0.00e+00	0	24	0	33554432	72	4919
2026-01-08 13:26:53.05	264.69	5.60	-53.2	-55.8	13.6	0.00e+00	0	24	0	35651584	72	4924
2026-01-08 13:26:54.05	264.82	5.63	-53.3	-55.9	13.7	0.00e+00	0	24	0	37748736	72	4940
2026-01-08 13:26:55.06	264.96	5.67	-53.4	-56.1	13.5	0.00e+00	0	24	0	39845888	72	5054
2026-01-08 13:26:56.07	265.10	5.70	-53.5	-56.3	13.4	0.00e+00	0	24	0	41943040	72	5190
2026-01-08 13:26:57.08	265.24	5.74	-53.6	-56.5	13.3	0.00e+00	0	24	0	44040192	72	5310
2026-01-08 13:26:58.09	265.37	5.77	-53.6	-56.4	13.4	0.00e+00	0	24	0	45088768	72	5237
2026-01-08 13:26:59.09	265.51	5.81	-53.5	-56.2	13.4	0.00e+00	0	24	0	47185920	72	5153
2026-01-08 13:27:00.10	265.65	5.84	-53.4	-56.1	13.6	0.00e+00	0	24	0	49283072	72	5045
2026-01-08 13:27:01.11	265.79	5.88	-53.4	-56.2	13.5	0.00e+00	0	24	0	51380224	72	5102
2026-01-08 13:27:02.12	265.93	5.91	-53.4	-56.2	13.5	0.00e+00	0	24	0	53477376	72	5108
2026-01-08 13:27:03.12	266.07	5.95	-53.3	-55.9	13.6	0.00e+00	0	24	0	54525952	72	4963
2026-01-08 13:27:04.13	266.21	5.98	-53.3	-56.0	13.6	0.00e+00	0	24	0	56623104	72	4995
2026-01-08 13:27:05.13	266.35	6.02	-53.3	-56.0	13.6	0.00e+00	0	24	0	58720256	72	5013
2026-01-08 13:27:06.14	266.49	6.05	-53.3	-56.0	13.6	0.00e+00	0	24	0	60817408	72	5009
2026-01-08 13:27:07.15	266.63	6.09	-53.5	-56.3	13.4	0.00e+00	0	24	0	61865984	72	5203
2026-01-08 13:27:08.15	266.77	6.12	-53.4	-56.1	13.5	0.00e+00	0	24	0	63963136	72	5056
2026-01-08 13:27:09.16	266.91	6.15	-53.4	-56.1	13.5	0.00e+00	0	24	0	66060288	72	5069
2026-01-08 13:27:10.16	267.05	6.19	-53.3	-56.0	13.6	0.00e+00	0	24	0	68157440	72	4984
2026-01-08 13:27:11.17	267.19	6.22	-53.3	-56.1	13.5	0.00e+00	0	24	0	70254592	72	5044
2026-01-08 13:27:12.18	267.33	6.26	-53.5	-56.3	13.3	0.00e+00	0	24	0	72351744	72	5211
2026-01-08 13:27:13.19	267.48	6.29	-53.6	-56.6	13.1	0.00e+00	0	24	0	73400320	72	5372
2026-01-08 13:27:14.20	267.62	6.32	-53.8	-56.9	12.9	0.00e+00	0	24	0	75497472	72	5561
2026-01-08 13:27:15.21	267.76	6.36	-54.2	-57.5	12.6	0.00e+00	0	24	0	77594624	73	5634
2026-01-08 13:27:16.22	267.91	6.39	-54.5	-58.1	12.3	0.00e+00	0	24	0	79691776	74	5722
2026-01-08 13:27:17.23	268.05	6.42	-54.6	-58.4	12.0	1.50e-06	0	24	0	81788928	74	5919
2026-01-08 13:27:18.24	268.20	6.46	-54.8	-58.9	11.7	3.80e-06	0	24	0	82837504	74	6205
2026-01-08 13:27:19.24	268.34	6.49	-54.9	-59.1	11.4	2.82e-05	0	24	0	84934656	74	6392
2026-01-08 13:27:20.25	268.48	6.52	-54.9	-59.0	11.6	4.04e-05	0	24	0	87031808	75	5966
2026-01-08 13:27:21.26	268.63	6.56	-54.9	-59.2	11.5	3.12e-05	0	24	0	89128960	75	6066
2026-01-08 13:27:22.27	268.78	6.59	-55.0	-59.4	11.3	6.86e-05	0	24	0	91226112	75	6241
2026-01-08 13:27:23.28	268.92	6.62	-55.1	-59.6	11.1	1.05e-04	0	24	0	92274688	75	6366
2026-01-08 13:27:24.28	269.07	6.65	-55.2	-59.8	10.9	1.53e-04	0	24	0	94371840	75	6559
2026-01-08 13:27:25.29	269.21	6.69	-55.2	-59.9	10.9	2.01e-04	0	24	0	96468992	75	6611
2026-01-08 13:27:26.29	269.36	6.72	-55.3	-60.2	10.7	2.96e-04	0	24	0	98566144	75	6806
2026-01-08 13:27:27.30	269.51	6.75	-55.4	-60.3	10.6	5.37e-04	0	24	0	100663296	75	6883
2026-01-08 13:27:28.31	269.65	6.78	-55.3	-60.1	10.8	3.14e-04	0	24	0	101711872	75	6749
2026-01-08 13:27:29.32	269.80	6.82	-55.2	-59.8	11.0	2.27e-04	0	24	0	103809024	75	6515
2026-01-08 13:27:30.33	269.95	6.85	-55.0	-59.2	11.5	5.34e-05	0	24	0	105906176	75	6076
2026-01-08 13:27:31.34	270.10	6.88	-54.7	-58.6	12.0	3.12e-05	0	24	0	108003328	75	5678
2026-01-08 13:27:32.34	270.25	6.91	-54.3	-57.7	12.7	1.50e-06	0	24	0	110100480	75	5148
2026-01-08 13:27:33.35	270.40	6.94	-54.2	-57.5	12.8	0.00e+00	0	24	0	111149056	74	5288
2026-01-08 13:27:34.36	270.54	6.97	-54.1	-57.2	12.9	0.00e+00	0	24	0	113246208	74	5157
2026-01-08 13:27:35.36	270.69	7.00	-53.9	-56.9	13.2	0.00e+00	0	24	0	115343360	74	4963
2026-01-08 13:27:36.37	270.84	7.04	-53.9	-56.9	13.3	0.00e+00	0	24	0	117440512	74	4945
2026-01-08 13:27:37.38	270.99	7.07	-54.1	-57.1	13.1	0.00e+00	0	24	0	119537664	74	5091
2026-01-08 13:27:38.39	271.14	7.10	-54.1	-57.2	13.1	0.00e+00	0	24	0	120586240	74	5124
2026-01-08 13:27:39.40	271.30	7.13	-54.1	-57.2	13.1	0.00e+00	0	24	0	122683392	74	5131
2026-01-08 13:27:40.41	271.45	7.16	-54.2	-57.3	13.0	0.00e+00	0	24	0	124780544	74	5187
2026-01-08 13:27:41.42	271.60	7.19	-54.1	-57.2	13.1	0.00e+00	0	24	0	126877696	74	5140
2026-01-08 13:27:42.42	271.75	7.22	-54.1	-57.2	13.2	0.00e+00	0	24	0	128974848	74	5104
2026-01-08 13:27:43.43	271.90	7.25	-54.0	-56.9	13.3	0.00e+00	0	24	0	130023424	74	4951
2026-01-08 13:27:44.44	272.05	7.28	-54.0	-57.0	13.3	0.00e+00	0	24	0	132120576	74	4989
2026-01-08 13:27:45.45	272.21	7.31	-53.8	-56.7	13.5	0.00e+00	0	24	0	134217728	74	4816
2026-01-08 13:27:46.46	272.36	7.34	-53.9	-56.8	13.4	0.00e+00	0	24	0	136314880	74	4891
2026-01-08 13:27:47.47	272.51	7.37	-54.0	-56.9	13.4	0.00e+00	0	24	0	138412032	74	4933
2026-01-08 13:27:48.48	272.67	7.40	-53.9	-56.7	13.5	0.00e+00	0	24	0	139460608	74	4839
2026-01-08 13:27:49.49	272.82	7.43	-53.8	-56.6	13.5	0.00e+00	0	24	0	141557760	74	4811
2026-01-08 13:27:50.49	272.97	7.46	-53.5	-56.1	13.7	0.00e+00	0	24	0	143654912	73	4800
2026-01-08 13:27:51.50	273.13	7.49	-53.5	-56.2	13.7	0.00e+00	0	24	0	145752064	73	4842
2026-01-08 13:27:52.51	273.28	7.52	-53.5	-56.1	13.7	0.00e+00	0	24	0	147849216	73	4801
2026-01-08 13:27:53.52	273.44	7.55	-53.6	-56.2	13.7	0.00e+00	0	24	0	148897792	73	4846
2026-01-08 13:27:54.52	273.59	7.57	-53.6	-56.3	13.6	0.00e+00	0	24	0	150994944	73	4884
2026-01-08 13:27:55.52	273.75	7.60	-53.5	-56.1	13.7	0.00e+00	0	24	0	153092096	73	4800
2026-01-08 13:27:56.53	273.90	7.63	-53.7	-56.4	13.6	0.00e+00	0	24	0	155189248	73	4935
2026-01-08 13:27:57.54	274.06	7.66	-53.7	-56.4	13.5	0.00e+00	0	24	0	157286400	73	4949
2026-01-08 13:27:58.55	274.22	7.69	-53.8	-56.6	13.5	0.00e+00	0	24	0	158334976	73	5074
2026-01-08 13:27:59.56	274.37	7.72	-53.7	-56.5	13.5	0.00e+00	0	24	0	160432128	73	4998
2026-01-08 13:28:00.57	274.53	7.74	-53.9	-56.8	13.4	0.00e+00	0	24	0	162529280	73	5180
2026-01-08 13:28:01.58	274.69	7.77	-53.8	-56.5	13.4	0.00e+00	0	24	0	164626432	73	5028
2026-01-08 13:28:02.59	274.85	7.80	-53.7	-56.5	13.5	0.00e+00	0	24	0	166723584	73	4986
2026-01-08 13:28:03.60	275.00	7.83	-53.7	-56.4	13.6	0.00e+00	0	24	0	167772160	73	4980
2026-01-08 13:28:04.60	275.16	7.85	-53.5	-56.2	13.7	0.00e+00	0	24	0	169869312	73	4830
2026-01-08 13:28:05.61	275.32	7.88	-53.4	-56.0	13.8	0.00e+00	0	24	0	171966464	73	4710
2026-01-08 13:28:06.62	275.48	7.91	-53.3	-55.8	14.0	0.00e+00	0	24	0	174063616	73	4601
2026-01-08 13:28:07.63	275.64	7.93	-53.1	-55.6	13.9	0.00e+00	0	24	0	176160768	72	4768
2026-01-08 13:28:08.63	275.80	7.96	-53.3	-55.8	13.8	0.00e+00	0	24	0	177209344	72	4875
2026-01-08 13:28:09.64	275.96	7.99	-53.2	-55.7	13.8	0.00e+00	0	24	0	179306496	72	4854
2026-01-08 13:28:10.65	276.12	8.01	-53.4	-56.0	13.7	0.00e+00	0	24	0	181403648	72	5011
2026-01-08 13:28:11.65	276.27	8.04	-53.5	-56.2	13.5	0.00e+00	0	24	0	183500800	72	5117
2026-01-08 13:28:12.66	276.43	8.06	-53.4	-56.6	13.4	0.00e+00	0	24	0	185597952	72	5343
2026-01-08 13:28:13.67	276.60	8.09	-53.3	-56.4	13.5	0.00e+00	0	24	0	186646528	72	5225
2026-01-08 13:28:14.67	276.76	8.12	-53.5	-56.6	13.3	0.00e+00	0	24	0	188743680	72	5392
2026-01-08 13:28:15.68	276.92	8.14	-53.4	-56.6	13.4	0.00e+00	0	24	0	190840832	72	5354
2026-01-08 13:28:16.69	277.08	8.17	-53.6	-56.8	13.2	0.00e+00	0	24	0	192937984	72	5499
2026-01-08 13:28:17.70	277.24	8.19	-53.5	-56.7	13.2	0.00e+00	0	24	0	195035136	72	5446
2026-01-08 13:28:18.71	277.40	8.22	-53.5	-56.6	13.4	0.00e+00	0	24	0	197132288	72	5383
2026-01-08 13:28:19.72	277.57	8.24	-53.5	-56.6	13.3	0.00e+00	0	24	0	198180864	72	5381
2026-01-08 13:28:20.73	277.73	8.27	-53.5	-56.6	13.3	0.00e+00	0	24	0	200278016	72	5349
2026-01-08 13:28:21.74	277.89	8.29	-53.6	-56.8	13.2	0.00e+00	0	24	0	202375168	72	5466
2026-01-08 13:28:22.75	278.05	8.31	-53.5	-56.7	13.3	0.00e+00	0	24	0	204472320	72	5415
2026-01-08 13:28:23.75	278.22	8.34	-53.6	-56.8	13.2	0.00e+00	0	24	0	205520896	72	5469
2026-01-08 13:28:24.76	278.38	8.36	-53.4	-56.4	13.4	0.00e+00	0	24	0	207618048	72	5275
2026-01-08 13:28:25.76	278.54	8.39	-53.3	-56.2	13.6	0.00e+00	0	24	0	209715200	72	5150
2026-01-08 13:28:26.77	278.71	8.41	-53.2	-56.1	13.7	0.00e+00	0	24	0	211812352	72	5078
2026-01-08 13:28:27.78	278.87	8.43	-53.2	-56.0	13.7	0.00e+00	0	24	0	213909504	72	5020
2026-01-08 13:28:28.79	279.04	8.46	-53.2	-55.9	13.8	0.00e+00	0	24	0	214958080	72	4972
2026-01-08 13:28:29.80	279.20	8.48	-53.1	-55.8	13.8	0.00e+00	0	24	0	217055232	72	4899
2026-01-08 13:28:30.81	279.37	8.50	-53.2	-55.9	13.8	0.00e+00	0	24	0	219152384	72	4972
2026-01-08 13:28:31.82	279.53	8.52	-53.4	-56.2	13.6	0.00e+00	0	24	0	221249536	72	5121
2026-01-08 13:28:32.83	279.70	8.55	-53.4	-56.3	13.6	0.00e+00	0	24	0	223346688	72	5161
2026-01-08 13:28:33.84	279.86	8.57	-53.6	-56.6	13.4	0.00e+00	0	24	0	225443840	72	5356
2026-01-08 13:28:34.84	280.03	8.59	-53.7	-56.8	13.2	0.00e+00	0	24	0	226492416	72	5522
2026-01-08 13:28:35.85	280.20	8.61	-54.1	-57.4	13.0	0.00e+00	0	24	0	228589568	73	5554
2026-01-08 13:28:36.86	280.36	8.63	-54.2	-57.6	12.8	0.00e+00	0	24	0	230686720	73	5698
2026-01-08 13:28:37.86	280.53	8.66	-54.4	-57.9	12.8	7.00e-07	0	24	0	232783872	74	5589
2026-01-08 13:28:38.87	280.70	8.68	-54.4	-58.0	12.7	0.00e+00	0	24	0	234881024	74	5620
2026-01-08 13:28:39.88	280.86	8.70	-54.5	-58.1	12.6	7.00e-07	0	24	0	235929600	74	5698
2026-01-08 13:28:40.89	281.03	8.72	-54.4	-57.8	12.8	0.00e+00	0	24	0	238026752	74	5517
2026-01-08 13:28:41.89	281.20	8.74	-54.2	-57.5	13.0	0.00e+00	0	24	0	240123904	74	5305
2026-01-08 13:28:42.90	281.37	8.76	-54.1	-57.3	13.2	0.00e+00	0	24	0	242221056	74	5179
2026-01-08 13:28:43.91	281.53	8.78	-54.0	-57.1	13.3	0.00e+00	0	24	0	244318208	74	5060
2026-01-08 13:28:44.92	281.70	8.80	-54.1	-57.2	13.2	0.00e+00	0	24	0	245366784	74	5147
2026-01-08 13:28:45.92	281.87	8.82	-53.9	-56.8	13.5	0.00e+00	0	24	0	247463936	74	4892
2026-01-08 13:28:46.92	282.04	8.84	-53.9	-56.8	13.5	0.00e+00	0	24	0	249561088	74	4914
2026-01-08 13:28:47.94	282.21	8.86	-53.8	-56.7	13.6	0.00e+00	0	24	0	251658240	74	4855
2026-01-08 13:28:48.95	282.38	8.88	-53.8	-56.7	13.6	0.00e+00	0	24	0	253755392	74	4865
2026-01-08 13:28:49.95	282.55	8.90	-54.0	-57.1	13.3	0.00e+00	0	24	0	254803968	74	5042
2026-01-08 13:28:50.96	282.72	8.92	-53.8	-56.8	13.6	0.00e+00	0	24	0	256901120	74	4872
2026-01-08 13:28:51.97	282.89	8.94	-53.9	-56.8	13.5	0.00e+00	0	24	0	258998272	74	4899
2026-01-08 13:28:52.98	283.06	8.95	-53.5	-56.3	13.7	0.00e+00	0	24	0	261095424	73	4872
2026-01-08 13:28:53.99	283.23	8.97	-53.5	-56.2	13.8	0.00e+00	0	24	0	263192576	73	4842
2026-01-08 13:28:54.99	283.40	8.99	-53.4	-56.0	13.9	0.00e+00	0	24	0	264241152	73	4750
2026-01-08 13:28:56.00	283.57	9.01	-53.5	-56.2	13.8	0.00e+00	0	24	0	266338304	73	4826
2026-01-08 13:28:57.01	283.74	9.03	-53.5	-56.3	13.7	0.00e+00	0	24	0	268435456	73	4876
2026-01-08 13:28:58.02	283.91	9.04	-53.7	-56.5	13.6	0.00e+00	0	24	0	270532608	73	4991
2026-01-08 13:28:59.02	284.08	9.06	-53.9	-56.8	13.4	0.00e+00	0	24	0	272629760	73	5211
2026-01-08 13:29:00.03	284.25	9.08	-54.0	-57.0	13.3	0.00e+00	0	24	0	273678336	73	5285
2026-01-08 13:29:01.04	284.42	9.10	-54.1	-57.2	13.1	0.00e+00	0	24	0	275775488	73	5454
2026-01-08 13:29:02.05	284.59	9.11	-54.0	-57.1	13.3	0.00e+00	0	24	0	277872640	73	5350
2026-01-08 13:29:03.06	284.77	9.13	-54.0	-57.1	13.2	0.00e+00	0	24	0	279969792	73	5364
2026-01-08 13:29:04.07	284.94	9.14	-53.9	-56.8	13.4	0.00e+00	0	24	0	282066944	73	5211
2026-01-08 13:29:05.08	285.11	9.16	-53.6	-56.4	13.7	0.00e+00	0	24	0	283115520	73	4950
2026-01-08 13:29:06.09	285.29	9.18	-53.6	-56.3	13.8	0.00e+00	0	24	0	285212672	73	4884
2026-01-08 13:29:07.10	285.46	9.19	-53.5	-56.2	13.8	0.00e+00	0	24	0	287309824	73	4817
2026-01-08 13:29:08.11	285.63	9.21	-53.5	-56.2	13.8	0.00e+00	0	24	0	289406976	73	4844
2026-01-08 13:29:09.11	285.80	9.22	-53.6	-56.3	13.7	0.00e+00	0	24	0	291504128	73	4921
2026-01-08 13:29:10.12	285.98	9.24	-53.7	-56.6	13.5	0.00e+00	0	24	0	292552704	73	5091
2026-01-08 13:29:11.13	286.15	9.25	-53.9	-56.9	13.3	0.00e+00	0	24	0	294649856	73	5249
2026-01-08 13:29:12.13	286.32	9.27	-53.9	-56.9	13.4	0.00e+00	0	24	0	296747008	73	5272
2026-01-08 13:29:13.14	286.50	9.28	-53.9	-56.9	13.4	0.00e+00	0	24	0	298844160	73	5237
2026-01-08 13:29:14.15	286.67	9.30	-53.7	-56.6	13.5	0.00e+00	0	24	0	300941312	73	5077
2026-01-08 13:29:15.16	286.85	9.31	-53.5	-56.2	13.9	0.00e+00	0	24	0	301989888	73	4829
2026-01-08 13:29:16.17	287.02	9.32	-53.4	-56.1	13.9	0.00e+00	0	24	0	304087040	73	4789
2026-01-08 13:29:17.18	287.19	9.34	-53.6	-56.4	13.7	0.00e+00	0	24	0	306184192	73	4939
2026-01-08 13:29:18.19	287.37	9.35	-53.4	-56.0	14.0	0.00e+00	0	24	0	308281344	73	4749
2026-01-08 13:29:19.19	287.54	9.36	-53.5	-56.2	13.8	0.00e+00	0	24	0	310378496	73	4862
2026-01-08 13:29:20.19	287.72	9.37	-53.6	-56.4	13.7	0.00e+00	0	24	0	311427072	73	4940
2026-01-08 13:29:21.20	287.89	9.39	-53.8	-56.7	13.5	0.00e+00	0	24	0	313524224	73	5132
2026-01-08 13:29:22.21	288.07	9.40	-53.7	-56.6	13.6	0.00e+00	0	24	0	315621376	73	5091
2026-01-08 13:29:23.22	288.24	9.41	-53.9	-56.9	13.4	0.00e+00	0	24	0	317718528	73	5240
2026-01-08 13:29:24.23	288.42	9.42	-53.9	-56.9	13.4	0.00e+00	0	24	0	319815680	73	5270
2026-01-08 13:29:25.23	288.59	9.43	-53.7	-56.6	13.6	0.00e+00	0	24	0	320864256	73	5058
2026-01-08 13:29:26.24	288.77	9.45	-53.8	-56.8	13.5	0.00e+00	0	24	0	322961408	73	5192
2026-01-08 13:29:27.25	288.94	9.46	-53.9	-56.9	13.4	0.00e+00	0	24	0	325058560	73	5269
2026-01-08 13:29:28.26	289.12	9.47	-54.3	-57.6	12.9	0.00e+00	0	24	0	327155712	73	5706
2026-01-08 13:29:29.26	289.30	9.48	-54.8	-58.4	12.6	0.00e+00	0	24	0	329252864	74	5881
2026-01-08 13:29:30.28	289.47	9.49	-54.8	-58.6	12.4	0.00e+00	0	24	0	330301440	74	6002
2026-01-08 13:29:31.28	289.65	9.50	-55.2	-59.3	11.9	3.80e-06	0	24	0	332398592	75	6197
2026-01-08 13:29:32.29	289.83	9.51	-55.3	-59.6	11.7	3.80e-06	0	24	0	334495744	75	6362
2026-01-08 13:29:33.30	290.00	9.52	-55.2	-59.5	11.8	9.10e-06	0	24	0	336592896	75	6284
2026-01-08 13:29:34.31	290.18	9.53	-55.1	-59.2	12.1	1.22e-05	0	24	0	338690048	75	6072
2026-01-08 13:29:35.32	290.36	9.54	-55.0	-58.9	12.2	0.00e+00	0	24	0	339738624	75	5884
2026-01-08 13:29:36.32	290.53	9.55	-54.7	-58.4	12.7	1.50e-06	0	24	0	341835776	75	5561
2026-01-08 13:29:37.32	290.71	9.56	-54.7	-58.4	12.7	0.00e+00	0	24	0	343932928	75	5547
2026-01-08 13:29:38.33	290.88	9.56	-54.8	-58.7	12.5	0.00e+00	0	24	0	346030080	75	5731
2026-01-08 13:29:39.34	291.06	9.57	-54.8	-58.4	12.6	0.00e+00	0	24	0	348127232	75	5583
2026-01-08 13:29:40.34	291.24	9.58	-54.8	-58.5	12.6	0.00e+00	0	24	0	349175808	75	5622
2026-01-08 13:29:41.35	291.41	9.59	-54.7	-58.4	12.6	0.00e+00	0	24	0	351272960	75	5541
2026-01-08 13:29:42.36	291.59	9.60	-54.7	-58.4	12.6	1.50e-06	0	24	0	353370112	75	5581
2026-01-08 13:29:43.36	291.77	9.60	-54.5	-58.1	12.9	0.00e+00	0	24	0	355467264	75	5354
2026-01-08 13:29:44.37	291.95	9.61	-54.6	-58.1	12.8	7.00e-07	0	24	0	357564416	75	5398
2026-01-08 13:29:45.38	292.12	9.62	-54.7	-58.3	12.7	0.00e+00	0	24	0	358612992	75	5526
2026-01-08 13:29:46.39	292.30	9.62	-54.4	-57.7	13.1	0.00e+00	0	24	0	360710144	75	5150
2026-01-08 13:29:47.40	292.48	9.63	-54.3	-57.7	13.1	0.00e+00	0	24	0	362807296	75	5131
2026-01-08 13:29:48.41	292.66	9.64	-54.4	-57.9	13.0	0.00e+00	0	24	0	364904448	75	5224
2026-01-08 13:29:49.42	292.84	9.64	-54.3	-57.7	13.1	0.00e+00	0	24	0	367001600	75	5121
2026-01-08 13:29:50.43	293.02	9.65	-54.4	-57.8	13.0	0.00e+00	0	24	0	368050176	75	5174
2026-01-08 13:29:51.43	293.19	9.65	-54.4	-57.9	13.0	0.00e+00	0	24	0	370147328	75	5244
2026-01-08 13:29:52.44	293.37	9.66	-54.4	-57.8	13.0	0.00e+00	0	24	0	372244480	75	5216
2026-01-08 13:29:53.45	293.55	9.67	-54.2	-57.6	13.1	0.00e+00	0	24	0	374341632	75	5055
2026-01-08 13:29:54.46	293.73	9.67	-54.2	-57.5	13.2	0.00e+00	0	24	0	376438784	75	5039
2026-01-08 13:29:55.46	293.90	9.67	-54.0	-57.2	13.3	0.00e+00	0	24	0	378535936	74	5130
2026-01-08 13:29:56.47	294.08	9.68	-54.1	-57.3	13.3	0.00e+00	0	24	0	379584512	74	5204
2026-01-08 13:29:57.48	294.26	9.68	-53.9	-57.0	13.4	0.00e+00	0	24	0	381681664	74	5026
2026-01-08 13:29:58.49	294.44	9.69	-53.8	-56.8	13.6	0.00e+00	0	24	0	383778816	74	4890
2026-01-08 13:29:59.49	294.62	9.69	-53.7	-56.6	13.7	0.00e+00	0	24	0	385875968	74	4801
2026-01-08 13:30:00.50	294.80	9.69	-53.7	-56.6	13.5	0.00e+00	0	24	0	387973120	73	5085
2026-01-08 13:30:01.51	294.98	9.70	-53.8	-56.8	13.4	0.00e+00	0	24	0	389021696	73	5170
2026-01-08 13:30:02.52	295.15	9.70	-53.6	-56.6	13.5	0.00e+00	0	24	0	391118848	73	5058
2026-01-08 13:30:03.53	295.33	9.70	-53.7	-56.6	13.5	0.00e+00	0	24	0	393216000	73	5080
2026-01-08 13:30:04.54	295.51	9.70	-53.8	-56.8	13.4	0.00e+00	0	24	0	395313152	73	5193
2026-01-08 13:30:05.55	295.69	9.71	-53.6	-56.6	13.5	0.00e+00	0	24	0	396361728	73	5060
2026-01-08 13:30:06.55	295.87	9.71	-53.7	-56.6	13.5	0.00e+00	0	24	0	398458880	73	5087
2026-01-08 13:30:07.56	296.05	9.71	-53.6	-56.6	13.5	0.00e+00	0	24	0	400556032	73	5061
2026-01-08 13:30:08.57	296.23	9.71	-53.4	-56.3	13.7	0.00e+00	0	24	0	402653184	73	4885
2026-01-08 13:30:09.58	296.41	9.71	-53.5	-56.4	13.6	0.00e+00	0	24	0	404750336	73	4966
2026-01-08 13:30:10.59	296.58	9.71	-53.6	-56.5	13.6	0.00e+00	0	24	0	406847488	73	5020
2026-01-08 13:30:11.60	296.76	9.71	-53.7	-56.7	13.4	0.00e+00	0	24	0	407896064	73	5137
2026-01-08 13:30:12.61	296.94	9.72	-53.7	-56.7	13.5	0.00e+00	0	24	0	409993216	73	5111
2026-01-08 13:30:13.61	297.12	9.72	-53.7	-56.7	13.5	0.00e+00	0	24	0	412090368	73	5144
2026-01-08 13:30:14.62	297.30	9.72	-53.7	-56.7	13.5	0.00e+00	0	24	0	414187520	73	5105
2026-01-08 13:30:15.63	297.48	9.71	-53.5	-56.4	13.6	0.00e+00	0	24	0	416284672	73	4948
2026-01-08 13:30:16.64	297.66	9.71	-53.4	-56.2	13.7	0.00e+00	0	24	0	417333248	73	4866
2026-01-08 13:30:17.65	297.84	9.71	-53.3	-56.0	13.9	0.00e+00	0	24	0	419430400	73	4734
2026-01-08 13:30:18.65	298.01	9.71	-53.1	-55.7	13.9	0.00e+00	0	24	0	421527552	72	4857
2026-01-08 13:30:19.66	298.19	9.71	-53.0	-55.6	14.0	0.00e+00	0	24	0	423624704	72	4760
2026-01-08 13:30:20.67	298.37	9.71	-53.0	-55.6	14.0	0.00e+00	0	24	0	425721856	72	4769
2026-01-08 13:30:21.67	298.55	9.71	-53.0	-55.6	14.0	0.00e+00	0	24	0	426770432	72	4770
2026-01-08 13:30:22.68	298.73	9.71	-53.0	-55.6	14.0	0.00e+00	0	24	0	428867584	72	4762
2026-01-08 13:30:23.69	298.91	9.70	-53.0	-55.6	14.0	0.00e+00	0	24	0	430964736	72	4789
2026-01-08 13:30:24.70	299.09	9.70	-52.8	-55.4	14.1	0.00e+00	0	24	0	433061888	72	4655
2026-01-08 13:30:25.71	299.26	9.70	-52.8	-55.2	14.2	0.00e+00	0	24	0	435159040	72	4584
2026-01-08 13:30:26.71	299.44	9.70	-52.6	-55.0	14.3	0.00e+00	0	24	0	436207616	71	4738
2026-01-08 13:30:27.72	299.62	9.69	-52.5	-54.9	14.3	0.00e+00	0	24	0	438304768	71	4658
2026-01-08 13:30:28.73	299.80	9.69	-52.6	-55.0	14.2	0.00e+00	0	24	0	440401920	71	4713
2026-01-08 13:30:29.73	299.98	9.69	-52.5	-54.9	14.3	0.00e+00	0	24	0	442499072	71	4693
2026-01-08 13:30:30.74	300.16	9.68	-52.7	-55.1	14.1	0.00e+00	0	24	0	444596224	71	4786
2026-01-08 13:30:31.75	300.33	9.68	-52.8	-55.3	14.0	0.00e+00	0	24	0	445644800	71	4890
2026-01-08 13:30:32.76	300.51	9.67	-52.9	-55.6	13.9	0.00e+00	0	24	0	447741952	71	5043
2026-01-08 13:30:33.77	300.69	9.67	-53.0	-55.7	13.8	0.00e+00	0	24	0	449839104	71	5118
2026-01-08 13:30:34.77	300.87	9.66	-53.0	-55.6	13.8	0.00e+00	0	24	0	451936256	71	5084
2026-01-08 13:30:35.78	301.05	9.66	-53.0	-55.7	13.8	0.00e+00	0	24	0	454033408	71	5120
2026-01-08 13:30:36.78	301.22	9.65	-52.9	-55.4	14.0	0.00e+00	0	24	0	455081984	71	4966
2026-01-08 13:30:37.79	301.40	9.65	-52.9	-55.5	13.9	0.00e+00	0	24	0	457179136	71	4997
2026-01-08 13:30:38.80	301.58	9.64	-52.8	-55.4	13.9	0.00e+00	0	24	0	459276288	71	4939
2026-01-08 13:30:39.81	301.76	9.64	-52.8	-55.3	14.1	0.00e+00	0	24	0	461373440	71	4872
2026-01-08 13:30:40.81	301.93	9.63	-52.8	-55.3	14.0	0.00e+00	0	24	0	463470592	71	4921
2026-01-08 13:30:41.82	302.11	9.62	-53.0	-55.6	13.8	0.00e+00	0	24	0	464519168	71	5066
2026-01-08 13:30:42.83	302.29	9.62	-53.1	-55.8	13.7	0.00e+00	0	24	0	466616320	71	5207
2026-01-08 13:30:43.84	302.47	9.61	-53.2	-55.9	13.6	0.00e+00	0	24	0	468713472	71	5265
2026-01-08 13:30:44.84	302.64	9.60	-53.1	-55.8	13.7	0.00e+00	0	24	0	470810624	71	5209
2026-01-08 13:30:45.85	302.82	9.59	-53.1	-55.9	13.7	0.00e+00	0	24	0	472907776	71	5232
2026-01-08 13:30:46.86	303.00	9.59	-52.9	-55.5	13.9	0.00e+00	0	24	0	473956352	71	5036
2026-01-08 13:30:47.86	303.17	9.58	-52.9	-55.5	13.8	0.00e+00	0	24	0	476053504	71	5024
2026-01-08 13:30:48.87	303.35	9.57	-52.7	-55.2	14.1	0.00e+00	0	24	0	478150656	71	4820
2026-01-08 13:30:49.88	303.53	9.56	-52.6	-55.1	14.1	0.00e+00	0	24	0	480247808	71	4797
2026-01-08 13:30:50.89	303.71	9.55	-52.6	-55.1	14.1	0.00e+00	0	24	0	482344960	71	4770
2026-01-08 13:30:51.90	303.88	9.54	-52.6	-55.0	14.1	0.00e+00	0	24	0	483393536	71	4747
2026-01-08 13:30:52.91	304.06	9.54	-52.7	-55.2	14.1	0.00e+00	0	24	0	485490688	71	4864
2026-01-08 13:30:53.92	304.24	9.53	-52.6	-55.1	14.1	0.00e+00	0	24	0	487587840	71	4775
2026-01-08 13:30:54.93	304.41	9.52	-52.6	-55.0	14.1	0.00e+00	0	24	0	489684992	71	4749
2026-01-08 13:30:55.94	304.59	9.51	-52.6	-55.1	14.1	0.00e+00	0	24	0	491782144	71	4762
2026-01-08 13:30:56.95	304.77	9.50	-52.5	-55.0	14.2	0.00e+00	0	24	0	492830720	71	4715
2026-01-08 13:30:57.96	304.94	9.49	-52.6	-55.0	14.1	0.00e+00	0	24	0	494927872	71	4735
2026-01-08 13:30:58.96	305.12	9.48	-52.3	-54.7	14.4	0.00e+00	0	24	0	497025024	71	4552
2026-01-08 13:30:59.97	305.29	9.47	-52.2	-54.5	14.3	0.00e+00	0	24	0	499122176	70	4727
2026-01-08 13:31:00.98	305.47	9.45	-51.9	-54.1	14.5	0.00e+00	0	24	0	501219328	70	4531
2026-01-08 13:31:01.99	305.64	9.44	-51.9	-54.0	14.6	0.00e+00	0	24	0	502267904	70	4480
2026-01-08 13:31:03.00	305.82	9.43	-51.7	-53.8	14.7	0.00e+00	0	24	0	504365056	70	4374
2026-01-08 13:31:04.01	306.00	9.42	-51.7	-53.8	14.7	0.00e+00	0	24	0	506462208	70	4389
2026-01-08 13:31:05.02	306.17	9.41	-51.8	-53.9	14.6	0.00e+00	0	24	0	508559360	70	4438
2026-01-08 13:31:06.02	306.34	9.40	-51.8	-53.9	14.6	0.00e+00	0	24	0	510656512	70	4423
2026-01-08 13:31:07.03	306.52	9.38	-52.0	-54.2	14.5	0.00e+00	0	24	0	511705088	70	4565
2026-01-08 13:31:08.04	306.69	9.37	-52.1	-54.3	14.4	0.00e+00	0	24	0	513802240	70	4631
2026-01-08 13:31:09.04	306.87	9.36	-52.2	-54.5	14.3	0.00e+00	0	24	0	515899392	70	4738
2026-01-08 13:31:10.05	307.04	9.35	-52.3	-54.6	14.1	0.00e+00	0	24	0	517996544	70	4811
2026-01-08 13:31:11.06	307.22	9.33	-52.2	-54.4	14.3	0.00e+00	0	24	0	520093696	70	4698
2026-01-08 13:31:12.07	307.39	9.32	-52.2	-54.5	14.3	0.00e+00	0	24	0	521142272	70	4727
2026-01-08 13:31:13.08	307.57	9.31	-52.2	-54.4	14.3	0.00e+00	0	24	0	523239424	70	4698
2026-01-08 13:31:14.08	307.74	9.29	-52.3	-54.6	14.2	0.00e+00	0	24	0	525336576	70	4779
2026-01-08 13:31:15.10	307.91	9.28	-52.1	-54.4	14.3	0.00e+00	0	24	0	527433728	70	4671
2026-01-08 13:31:16.10	308.09	9.26	-52.1	-54.4	14.3	0.00e+00	0	24	0	529530880	70	4672
2026-01-08 13:31:17.10	308.26	9.25	-52.1	-54.4	14.3	0.00e+00	0	24	0	530579456	70	4699
2026-01-08 13:31:18.11	308.43	9.23	-52.2	-54.5	14.3	0.00e+00	0	24	0	532676608	70	4727
2026-01-08 13:31:19.12	308.60	9.22	-52.2	-54.6	14.2	0.00e+00	0	24	0	534773760	70	4785
2026-01-08 13:31:20.13	308.78	9.20	-52.1	-54.5	14.3	0.00e+00	0	24	0	536870912	70	4707
2026-01-08 13:31:21.13	308.95	9.19	-52.1	-54.4	14.3	0.00e+00	0	24	0	538968064	70	4666
2026-01-08 13:31:22.14	309.12	9.17	-52.1	-54.4	14.3	0.00e+00	0	24	0	540016640	70	4697
2026-01-08 13:31:23.15	309.29	9.16	-52.1	-54.4	14.3	0.00e+00	0	24	0	542113792	70	4683
2026-01-08 13:31:24.16	309.47	9.14	-52.2	-54.5	14.3	0.00e+00	0	24	0	544210944	70	4748
2026-01-08 13:31:25.17	309.64	9.12	-52.3	-54.7	14.2	0.00e+00	0	24	0	546308096	70	4854
2026-01-08 13:31:26.17	309.81	9.11	-52.4	-54.8	14.1	0.00e+00	0	24	0	548405248	70	4889
2026-01-08 13:31:27.18	309.98	9.09	-52.2	-54.6	14.2	0.00e+00	0	24	0	549453824	70	4764
2026-01-08 13:31:28.19	310.15	9.07	-52.4	-54.8	14.1	0.00e+00	0	24	0	551550976	70	4885
2026-01-08 13:31:29.20	310.32	9.06	-52.4	-54.8	14.1	0.00e+00	0	25	0	553648128	70	4897
2026-01-08 13:31:30.20	310.49	9.04	-52.4	-54.8	14.1	0.00e+00	0	24	0	555745280	70	4905
2026-01-08 13:31:31.21	310.66	9.02	-52.6	-55.1	13.9	0.00e+00	0	24	0	557842432	70	5095
2026-01-08 13:31:32.22	310.83	9.01	-52.7	-55.2	13.8	0.00e+00	0	24	0	559939584	70	5148
2026-01-08 13:31:33.23	311.00	8.99	-52.8	-55.5	13.7	0.00e+00	0	24	0	560988160	70	5281
2026-01-08 13:31:34.24	311.17	8.97	-53.0	-55.7	13.6	0.00e+00	0	24	0	563085312	71	5138
2026-01-08 13:31:35.24	311.34	8.95	-53.0	-55.7	13.7	0.00e+00	0	24	0	565182464	71	5105
2026-01-08 13:31:36.25	311.51	8.93	-53.0	-55.6	13.7	0.00e+00	0	24	0	567279616	71	5096
2026-01-08 13:31:37.25	311.68	8.91	-53.0	-55.7	13.7	0.00e+00	0	24	0	569376768	71	5137
2026-01-08 13:31:38.26	311.85	8.89	-52.7	-55.2	13.9	0.00e+00	0	24	0	570425344	71	4847
2026-01-08 13:31:39.27	312.02	8.88	-52.7	-55.3	13.9	0.00e+00	0	24	0	572522496	71	4891
2026-01-08 13:31:40.28	312.19	8.86	-52.5	-55.0	14.1	0.00e+00	0	24	0	574619648	71	4724
2026-01-08 13:31:41.28	312.36	8.84	-52.4	-54.8	14.2	0.00e+00	0	24	0	576716800	71	4615
2026-01-08 13:31:42.28	312.52	8.82	-52.3	-54.7	14.3	0.00e+00	0	24	0	577765376	71	4552
2026-01-08 13:31:43.29	312.69	8.80	-52.2	-54.5	14.4	0.00e+00	0	24	0	579862528	71	4482
2026-01-08 13:31:44.30	312.86	8.78	-52.0	-54.3	14.4	0.00e+00	0	24	0	581959680	70	4606
2026-01-08 13:31:45.30	313.03	8.76	-51.8	-53.9	14.6	0.00e+00	0	24	0	584056832	70	4424
2026-01-08 13:31:46.31	313.19	8.74	-51.7	-53.8	14.6	0.00e+00	0	24	0	586153984	70	4375
2026-01-08 13:31:47.32	313.36	8.72	-51.4	-53.4	14.7	0.00e+00	0	24	0	588251136	69	4410
2026-01-08 13:31:48.32	313.53	8.70	-51.3	-53.3	14.7	0.00e+00	0	24	0	589299712	69	4368
2026-01-08 13:31:49.34	313.70	8.67	-51.2	-53.1	14.9	0.00e+00	0	24	0	591396864	69	4261
2026-01-08 13:31:50.34	313.86	8.65	-51.2	-53.1	14.7	0.00e+00	0	24	0	593494016	68	4531
2026-01-08 13:31:51.35	314.03	8.63	-51.2	-53.1	14.7	0.00e+00	0	24	0	595591168	68	4519
2026-01-08 13:31:52.36	314.19	8.61	-51.1	-53.1	14.7	0.00e+00	0	24	0	597688320	68	4512
2026-01-08 13:31:53.37	314.36	8.59	-51.4	-53.4	14.5	0.00e+00	0	24	0	598736896	68	4654
2026-01-08 13:31:54.38	314.53	8.57	-51.5	-53.6	14.4	0.00e+00	0	24	0	600834048	68	4766
2026-01-08 13:31:55.38	314.69	8.54	-51.7	-53.8	14.3	0.00e+00	0	24	0	602931200	68	4887
2026-01-08 13:31:56.39	314.85	8.52	-51.7	-53.9	14.2	0.00e+00	0	24	0	605028352	68	4949
2026-01-08 13:31:57.40	315.02	8.50	-51.5	-53.6	14.4	0.00e+00	0	24	0	606076928	68	4796
2026-01-08 13:31:58.41	315.18	8.48	-51.6	-53.7	14.3	0.00e+00	0	24	0	608174080	68	4869
2026-01-08 13:31:59.42	315.35	8.45	-51.5	-53.6	14.4	0.00e+00	0	24	0	610271232	68	4774
2026-01-08 13:32:00.43	315.51	8.43	-51.6	-53.7	14.4	0.00e+00	0	24	0	612368384	68	4835
2026-01-08 13:32:01.44	315.68	8.41	-51.7	-53.8	14.3	0.00e+00	0	24	0	614465536	68	4892
2026-01-08 13:32:02.44	315.84	8.38	-51.7	-53.9	14.3	0.00e+00	0	24	0	616562688	68	4945
2026-01-08 13:32:03.45	316.00	8.36	-51.7	-53.8	14.3	0.00e+00	0	24	0	617611264	68	4911
2026-01-08 13:32:04.46	316.17	8.34	-51.7	-53.9	14.3	0.00e+00	0	24	0	619708416	68	4935
2026-01-08 13:32:05.47	316.33	8.31	-51.7	-53.8	14.3	0.00e+00	0	24	0	621805568	68	4901
2026-01-08 13:32:06.47	316.49	8.29	-51.6	-53.8	14.3	0.00e+00	0	24	0	623902720	68	4879
2026-01-08 13:32:07.48	316.65	8.26	-51.7	-53.8	14.3	0.00e+00	0	24	0	625999872	68	4896
2026-01-08 13:32:08.48	316.81	8.24	-51.7	-53.9	14.3	0.00e+00	0	24	0	627048448	68	4937
2026-01-08 13:32:09.49	316.98	8.21	-51.9	-54.1	14.2	0.00e+00	0	24	0	629145600	68	5069
2026-01-08 13:32:10.50	317.14	8.19	-52.0	-54.3	14.2	0.00e+00	0	24	0	631242752	69	4892
2026-01-08 13:32:11.51	317.30	8.16	-52.0	-54.3	14.2	0.00e+00	0	24	0	633339904	69	4891
2026-01-08 13:32:12.52	317.46	8.14	-52.0	-54.2	14.2	0.00e+00	0	24	0	635437056	69	4867
2026-01-08 13:32:13.53	317.62	8.11	-51.8	-54.0	14.3	0.00e+00	0	24	0	636485632	69	4741
2026-01-08 13:32:14.54	317.78	8.09	-51.6	-53.7	14.5	0.00e+00	0	24	0	638582784	69	4553
2026-01-08 13:32:15.55	317.94	8.06	-51.4	-53.4	14.6	0.00e+00	0	24	0	640679936	69	4434
2026-01-08 13:32:16.56	318.10	8.04	-51.1	-53.1	14.7	0.00e+00	0	24	0	642777088	68	4501
2026-01-08 13:32:17.57	318.26	8.01	-51.2	-53.1	14.6	0.00e+00	0	24	0	644874240	68	4540
2026-01-08 13:32:18.57	318.42	7.99	-51.1	-53.0	14.7	0.00e+00	0	24	0	645922816	68	4466
2026-01-08 13:32:19.58	318.58	7.96	-51.1	-53.0	14.7	0.00e+00	0	24	0	648019968	68	4489
2026-01-08 13:32:20.59	318.74	7.93	-51.1	-53.0	14.7	0.00e+00	0	24	0	650117120	68	4469
2026-01-08 13:32:21.60	318.90	7.91	-51.5	-53.5	14.4	0.00e+00	0	24	0	652214272	68	4750
2026-01-08 13:32:22.61	319.06	7.88	-51.6	-53.7	14.3	0.00e+00	0	24	0	654311424	68	4849
2026-01-08 13:32:23.62	319.21	7.85	-51.8	-54.0	14.2	0.00e+00	0	24	0	655360000	68	4995
2026-01-08 13:32:24.63	319.37	7.82	-51.9	-54.1	14.1	0.00e+00	0	24	0	657457152	68	5099
2026-01-08 13:32:25.64	319.53	7.80	-52.0	-54.3	14.2	0.00e+00	0	24	0	659554304	69	4879
2026-01-08 13:32:26.64	319.69	7.77	-52.0	-54.2	14.2	0.00e+00	0	24	0	661651456	69	4848
2026-01-08 13:32:27.65	319.84	7.74	-52.1	-54.4	14.1	0.00e+00	0	24	0	663748608	69	4950
2026-01-08 13:32:28.66	320.00	7.71	-52.0	-54.2	14.2	0.00e+00	0	24	0	664797184	69	4858
2026-01-08 13:32:29.66	320.15	7.69	-51.9	-54.2	14.2	0.00e+00	0	24	0	666894336	69	4817
2026-01-08 13:32:30.67	320.31	7.66	-51.8	-54.1	14.3	0.00e+00	0	24	0	668991488	69	4763
2026-01-08 13:32:31.68	320.47	7.63	-51.8	-54.1	14.3	0.00e+00	0	24	0	671088640	69	4781
2026-01-08 13:32:32.69	320.62	7.60	-51.8	-54.1	14.3	0.00e+00	0	24	0	673185792	69	4763
2026-01-08 13:32:33.70	320.78	7.57	-52.1	-54.5	14.0	0.00e+00	0	24	0	674234368	69	5019
2026-01-08 13:32:34.71	320.93	7.55	-52.0	-54.3	14.2	0.00e+00	0	24	0	676331520	69	4889
2026-01-08 13:32:35.71	321.08	7.52	-52.0	-54.3	14.1	0.00e+00	0	24	0	678428672	69	4911
2026-01-08 13:32:36.71	321.24	7.49	-52.3	-54.7	13.9	0.00e+00	0	24	0	680525824	69	5159
2026-01-08 13:32:37.72	321.39	7.46	-52.6	-55.1	13.8	0.00e+00	0	24	0	682622976	70	5086
2026-01-08 13:32:38.73	321.55	7.43	-52.7	-55.4	13.6	0.00e+00	0	24	0	683671552	70	5246
2026-01-08 13:32:39.74	321.70	7.40	-53.1	-55.9	13.5	0.00e+00	0	24	0	685768704	71	5236
2026-01-08 13:32:40.75	321.85	7.37	-52.8	-55.6	13.7	0.00e+00	0	24	0	687865856	71	5059
2026-01-08 13:32:41.76	322.01	7.34	-52.8	-55.5	13.7	0.00e+00	0	24	0	689963008	71	5008
2026-01-08 13:32:42.77	322.16	7.31	-53.0	-55.8	13.5	0.00e+00	0	24	0	692060160	71	5199
2026-01-08 13:32:43.78	322.31	7.28	-53.0	-55.9	13.5	0.00e+00	0	24	0	693108736	71	5235
2026-01-08 13:32:44.78	322.46	7.25	-53.0	-55.7	13.6	0.00e+00	0	24	0	695205888	71	5144
2026-01-08 13:32:45.79	322.61	7.22	-52.9	-55.6	13.7	0.00e+00	0	24	0	697303040	71	5090
2026-01-08 13:32:46.80	322.76	7.19	-52.9	-55.7	13.6	0.00e+00	0	24	0	699400192	71	5136
2026-01-08 13:32:47.81	322.91	7.16	-53.0	-55.9	13.5	0.00e+00	0	24	0	701497344	71	5235
2026-01-08 13:32:48.81	323.06	7.13	-53.2	-56.1	13.3	0.00e+00	0	24	0	702545920	71	5391
2026-01-08 13:32:49.82	323.21	7.10	-53.1	-56.1	13.4	0.00e+00	0	24	0	704643072	71	5347
2026-01-08 13:32:50.83	323.36	7.07	-53.2	-56.1	13.3	0.00e+00	0	24	0	706740224	71	5395
2026-01-08 13:32:51.83	323.51	7.04	-53.3	-56.4	13.2	0.00e+00	0	24	0	708837376	71	5547
2026-01-08 13:32:52.84	323.66	7.01	-53.4	-56.4	13.2	0.00e+00	0	24	0	710934528	71	5566
2026-01-08 13:32:53.85	323.81	6.98	-53.4	-56.4	13.2	0.00e+00	0	24	0	711983104	71	5581
2026-01-08 13:32:54.86	323.96	6.95	-53.1	-56.0	13.4	0.00e+00	0	24	0	714080256	71	5299
2026-01-08 13:32:55.87	324.11	6.91	-52.9	-55.7	13.6	0.00e+00	0	24	0	716177408	71	5159
2026-01-08 13:32:56.88	324.26	6.88	-52.9	-55.7	13.6	0.00e+00	0	24	0	718274560	71	5105
2026-01-08 13:32:57.89	324.41	6.85	-52.9	-55.7	13.6	0.00e+00	0	24	0	720371712	71	5134
2026-01-08 13:32:58.90	324.55	6.82	-52.9	-55.7	13.6	0.00e+00	0	24	0	721420288	71	5140
2026-01-08 13:32:59.90	324.70	6.79	-53.2	-56.2	13.2	0.00e+00	0	24	0	723517440	71	5433
2026-01-08 13:33:00.91	324.85	6.76	-53.2	-56.2	13.2	0.00e+00	0	24	0	725614592	71	5429
2026-01-08 13:33:01.92	324.99	6.72	-53.3	-56.4	13.1	0.00e+00	0	24	0	727711744	71	5573
2026-01-08 13:33:02.93	325.14	6.69	-53.2	-56.3	13.2	0.00e+00	0	24	0	729808896	71	5494
2026-01-08 13:33:03.94	325.29	6.66	-53.3	-56.5	13.1	0.00e+00	0	24	0	730857472	71	5608
2026-01-08 13:33:04.95	325.43	6.63	-53.6	-56.9	12.9	0.00e+00	0	24	0	732954624	72	5569
2026-01-08 13:33:05.96	325.58	6.59	-53.6	-56.8	13.0	0.00e+00	0	24	0	735051776	72	5510
2026-01-08 13:33:06.97	325.72	6.56	-53.8	-57.2	12.8	0.00e+00	0	24	0	737148928	72	5727
2026-01-08 13:33:07.98	325.87	6.53	-53.6	-56.9	12.9	0.00e+00	0	24	0	739246080	72	5573
2026-01-08 13:33:08.98	326.01	6.50	-53.8	-57.2	12.7	0.00e+00	0	24	0	741343232	72	5782
2026-01-08 13:33:10.00	326.16	6.46	-53.9	-57.4	12.7	0.00e+00	0	24	0	742391808	73	5541
2026-01-08 13:33:11.01	326.30	6.43	-54.0	-57.7	12.5	7.00e-07	0	24	0	744488960	73	5733
2026-01-08 13:33:12.01	326.44	6.40	-54.3	-58.3	12.0	7.00e-07	0	24	0	746586112	73	6145
2026-01-08 13:33:13.01	326.58	6.36	-54.3	-58.3	12.0	2.20e-06	0	24	0	748683264	73	6170
2026-01-08 13:33:14.02	326.73	6.33	-54.4	-58.5	11.8	6.80e-06	0	24	0	750780416	73	6322
2026-01-08 13:33:15.02	326.87	6.30	-54.6	-58.9	11.6	9.10e-06	0	24	0	751828992	74	6244
2026-01-08 13:33:16.03	327.01	6.26	-54.6	-58.9	11.6	3.20e-05	0	25	0	753926144	74	6270
2026-01-08 13:33:17.04	327.15	6.23	-54.5	-58.9	11.7	2.59e-05	0	24	0	756023296	74	6222
2026-01-08 13:33:18.05	327.29	6.20	-54.5	-58.7	11.8	1.22e-05	0	24	0	758120448	74	6101
2026-01-08 13:33:19.06	327.43	6.16	-54.5	-58.7	11.8	1.60e-05	0	24	0	760217600	74	6075
2026-01-08 13:33:20.07	327.58	6.13	-54.5	-58.6	11.9	6.80e-06	0	24	0	761266176	74	6039
2026-01-08 13:33:21.08	327.72	6.09	-54.4	-58.4	12.0	1.44e-05	0	24	0	763363328	74	5891
2026-01-08 13:33:22.08	327.86	6.06	-54.2	-58.1	12.2	1.50e-06	0	24	0	765460480	74	5708
2026-01-08 13:33:23.09	328.00	6.03	-54.1	-57.8	12.4	0.00e+00	0	24	0	767557632	74	5508
2026-01-08 13:33:24.10	328.14	5.99	-53.8	-57.3	12.8	1.50e-06	0	24	0	769654784	74	5207
2026-01-08 13:33:25.11	328.28	5.96	-53.7	-57.1	12.9	0.00e+00	0	24	0	770703360	74	5093
2026-01-08 13:33:26.12	328.41	5.92	-53.8	-57.3	12.7	0.00e+00	0	24	0	772800512	73	5479
2026-01-08 13:33:27.12	328.55	5.89	-54.3	-58.2	12.1	0.00e+00	0	24	0	774897664	73	6085
2026-01-08 13:33:28.13	328.69	5.85	-54.2	-58.0	12.3	5.30e-06	0	24	0	776994816	74	5635
2026-01-08 13:33:29.14	328.83	5.82	-53.9	-57.5	12.6	1.50e-06	0	24	0	779091968	74	5330
2026-01-08 13:33:30.15	328.97	5.78	-53.9	-57.4	12.7	0.00e+00	0	24	0	780140544	74	5250
2026-01-08 13:33:31.16	329.10	5.75	-53.9	-57.6	12.6	0.00e+00	0	24	0	782237696	74	5354
2026-01-08 13:33:32.17	329.24	5.71	-54.2	-58.0	12.3	7.00e-07	0	24	0	784334848	74	5640
2026-01-08 13:33:33.18	329.38	5.68	-54.4	-58.5	12.0	6.10e-06	0	24	0	786432000	74	5938
2026-01-08 13:33:34.18	329.51	5.64	-54.6	-58.9	11.6	1.22e-05	0	24	0	788529152	74	6253
2026-01-08 13:33:35.19	329.65	5.61	-54.3	-58.3	12.0	7.60e-06	0	25	0	789577728	74	5836
2026-01-08 13:33:36.19	329.78	5.57	-54.3	-58.3	12.0	4.50e-06	0	24	0	791674880	74	5831
2026-01-08 13:33:37.21	329.92	5.54	-54.4	-58.6	11.9	9.10e-06	0	25	0	793772032	74	6002
2026-01-08 13:33:38.21	330.06	5.50	-54.2	-58.1	12.1	4.50e-06	0	24	0	795869184	74	5677
2026-01-08 13:33:39.22	330.19	5.46	-54.2	-58.1	12.2	6.10e-06	0	24	0	797966336	74	5714
2026-01-08 13:33:40.23	330.33	5.43	-54.0	-57.8	12.3	6.10e-06	0	24	0	799014912	74	5510
2026-01-08 13:33:41.24	330.46	5.39	-54.0	-57.7	12.4	1.50e-06	0	24	0	801112064	74	5458
2026-01-08 13:33:42.25	330.59	5.36	-54.0	-57.6	12.4	0.00e+00	0	24	0	803209216	74	5399
2026-01-08 13:33:43.26	330.73	5.32	-53.9	-57.5	12.6	0.00e+00	0	25	0	805306368	74	5288
2026-01-08 13:33:44.26	330.86	5.29	-53.8	-57.3	12.7	0.00e+00	0	24	0	807403520	74	5214
2026-01-08 13:33:45.27	330.99	5.25	-53.8	-57.3	12.7	0.00e+00	0	24	0	808452096	74	5196
2026-01-08 13:33:46.28	331.13	5.21	-53.6	-57.0	12.8	1.50e-06	0	24	0	810549248	73	5298
2026-01-08 13:33:47.29	331.26	5.18	-53.7	-57.2	12.7	0.00e+00	0	24	0	812646400	73	5404
2026-01-08 13:33:48.30	331.39	5.14	-53.7	-57.2	12.7	0.00e+00	0	24	0	814743552	73	5442
2026-01-08 13:33:49.31	331.52	5.10	-53.7	-57.3	12.6	1.50e-06	0	24	0	816840704	73	5471
2026-01-08 13:33:50.32	331.65	5.07	-53.6	-57.1	12.7	0.00e+00	0	24	0	817889280	73	5385
2026-01-08 13:33:51.32	331.78	5.03	-53.4	-56.8	13.0	0.00e+00	0	24	0	819986432	73	5167
2026-01-08 13:33:52.33	331.91	4.99	-53.8	-57.4	12.5	0.00e+00	0	24	0	822083584	73	5583
2026-01-08 13:33:53.34	332.04	4.96	-58.0	-73.6	3.8	1.19e+00	0	25	104	823132160	81	22537
2026-01-08 13:33:54.35	332.18	4.92	-58.6	-74.6	3.8	1.49e+00	0	24	104	823132160	82	24015
2026-01-08 13:33:55.36	332.31	4.88	-59.0	-75.0	3.8	1.49e+00	0	25	104	823132160	83	23742
2026-01-08 13:33:56.37	332.43	4.85	-59.2	-75.3	3.8	1.49e+00	0	25	104	823132160	83	24494
2026-01-08 13:33:57.38	332.56	4.81	-59.4	-75.5	3.8	1.49e+00	0	24	104	823132160	83	24997
2026-01-08 13:33:58.39	332.69	4.77	-59.8	-75.8	3.8	1.49e+00	0	24	104	823132160	84	24639
2026-01-08 13:33:59.39	332.82	4.74	-59.9	-75.9	3.8	1.49e+00	0	24	104	823132160	84	24912
2026-01-08 13:34:00.40	332.95	4.70	-60.0	-76.1	3.8	1.49e+00	0	24	104	823132160	85	23870
2026-01-08 13:34:01.41	333.08	4.66	-60.1	-76.1	3.8	1.49e+00	0	25	104	823132160	85	24100
2026-01-08 13:34:02.42	333.20	4.62	-60.2	-76.2	3.8	1.49e+00	0	24	104	823132160	85	24314
2026-01-08 13:34:03.42	333.33	4.59	-60.2	-76.3	3.8	1.49e+00	0	25	104	823132160	85	24424
2026-01-08 13:34:04.43	333.46	4.55	-60.2	-76.3	3.8	1.49e+00	0	24	104	823132160	85	24518
2026-01-08 13:34:05.44	333.59	4.51	-60.3	-76.3	3.8	1.49e+00	0	25	104	823132160	85	24656
2026-01-08 13:34:06.45	333.71	4.47	-60.3	-76.3	3.8	1.49e+00	0	25	104	823132160	85	24670
2026-01-08 13:34:07.46	333.84	4.44	-60.3	-76.4	3.8	1.49e+00	0	24	104	823132160	85	24764
2026-01-08 13:34:08.47	333.96	4.40	-60.3	-76.4	3.8	1.49e+00	0	24	104	823132160	85	24780
2026-01-08 13:34:09.48	334.09	4.36	-60.3	-76.4	3.8	1.49e+00	0	24	104	823132160	85	24778
2026-01-08 13:34:10.49	334.21	4.32	-60.3	-76.4	3.8	1.49e+00	0	25	104	823132160	85	24811
2026-01-08 13:34:11.50	334.34	4.28	-60.3	-76.4	3.8	1.49e+00	0	25	104	823132160	85	24834
2026-01-08 13:34:12.51	334.46	4.25	-60.3	-76.4	3.8	1.49e+00	0	25	104	823132160	85	24856
2026-01-08 13:34:13.51	334.59	4.21	-60.3	-76.4	3.8	1.49e+00	0	25	104	823132160	85	24924
2026-01-08 13:34:14.52	334.71	4.17	-60.3	-76.4	3.8	1.49e+00	0	25	104	823132160	85	24850
2026-01-08 13:34:15.53	334.84	4.13	-60.3	-76.3	3.8	1.49e+00	0	25	104	823132160	85	24656
2026-01-08 13:34:16.54	334.96	4.09	-60.3	-76.3	3.8	1.49e+00	0	25	104	823132160	85	24678
2026-01-08 13:34:17.55	335.08	4.06	-60.2	-76.3	3.8	1.49e+00	0	25	104	823132160	85	24557
2026-01-08 13:34:18.56	335.20	4.02	-60.2	-76.3	3.8	1.49e+00	0	25	104	823132160	85	24573
2026-01-08 13:34:19.56	335.33	3.98	-60.2	-76.3	3.8	1.49e+00	0	25	104	823132160	85	24472
2026-01-08 13:34:20.57	335.45	3.94	-60.2	-76.3	3.8	1.49e+00	0	25	104	823132160	85	24449
2026-01-08 13:34:21.58	335.57	3.90	-60.2	-76.3	3.8	1.49e+00	0	25	104	823132160	85	24430
2026-01-08 13:34:22.59	335.69	3.86	-60.2	-76.2	3.8	1.49e+00	0	25	104	823132160	85	24395
2026-01-08 13:34:23.60	335.81	3.83	-60.2	-76.2	3.8	1.49e+00	0	25	104	823132160	85	24368
2026-01-08 13:34:24.61	335.93	3.79	-60.2	-76.2	3.8	1.49e+00	0	25	104	823132160	85	24319
2026-01-08 13:34:25.62	336.05	3.75	-60.1	-76.2	3.8	1.49e+00	0	25	104	823132160	85	24228
2026-01-08 13:34:26.63	336.17	3.71	-60.1	-76.2	3.8	1.49e+00	0	25	104	823132160	85	24263
2026-01-08 13:34:27.64	336.29	3.67	-60.1	-76.2	3.8	1.49e+00	0	25	104	823132160	85	24274
2026-01-08 13:34:28.64	336.41	3.63	-60.1	-76.2	3.8	1.49e+00	0	25	104	823132160	85	24183
2026-01-08 13:34:29.65	336.53	3.59	-60.1	-76.2	3.8	1.49e+00	0	25	104	823132160	85	24232
2026-01-08 13:34:30.66	336.65	3.56	-60.1	-76.2	3.8	1.49e+00	0	25	104	823132160	85	24191
2026-01-08 13:34:31.67	336.77	3.52	-60.1	-76.1	3.8	1.49e+00	0	24	104	823132160	85	24090
2026-01-08 13:34:32.68	336.89	3.48	-60.1	-76.2	3.8	1.49e+00	0	25	104	823132160	85	24226
2026-01-08 13:34:33.69	337.01	3.44	-60.1	-76.2	3.8	1.49e+00	0	25	104	823132160	85	24147
2026-01-08 13:34:34.70	337.13	3.40	-60.1	-76.1	3.8	1.49e+00	0	24	104	823132160	85	24091
2026-01-08 13:34:35.71	337.24	3.36	-60.1	-76.1	3.8	1.49e+00	0	25	104	823132160	85	24094
2026-01-08 13:34:36.72	337.36	3.32	-60.1	-76.1	3.8	1.49e+00	0	25	104	823132160	85	24076
2026-01-08 13:34:37.73	337.48	3.28	-60.1	-76.1	3.8	1.49e+00	0	25	104	823132160	85	24073
2026-01-08 13:34:38.73	337.59	3.24	-60.0	-76.1	3.8	1.49e+00	0	25	104	823132160	85	24042
2026-01-08 13:34:39.74	337.71	3.20	-60.0	-76.1	3.8	1.49e+00	0	25	104	823132160	85	24073
2026-01-08 13:34:40.75	337.83	3.17	-60.0	-76.1	3.8	1.49e+00	0	25	104	823132160	85	23951
2026-01-08 13:34:41.76	337.94	3.13	-60.0	-76.1	3.8	1.49e+00	0	25	104	823132160	85	23952
2026-01-08 13:34:42.77	338.06	3.09	-60.0	-76.1	3.8	1.49e+00	0	25	104	823132160	85	23954
2026-01-08 13:34:43.77	338.17	3.05	-60.0	-76.1	3.8	1.49e+00	0	25	104	823132160	85	23932
2026-01-08 13:34:44.78	338.29	3.01	-60.0	-76.1	3.8	1.49e+00	0	25	104	823132160	85	23929
2026-01-08 13:34:45.79	338.40	2.97	-60.0	-76.1	3.8	1.49e+00	0	25	104	823132160	85	23957
2026-01-08 13:34:46.80	338.52	2.93	-60.0	-76.1	3.8	1.49e+00	0	25	104	823132160	85	23942
2026-01-08 13:34:47.81	338.63	2.89	-60.0	-76.1	3.8	1.49e+00	0	25	104	823132160	85	23859
2026-01-08 13:34:48.82	338.74	2.85	-60.0	-76.0	3.8	1.49e+00	0	25	104	823132160	85	23840
2026-01-08 13:34:49.83	338.86	2.81	-60.0	-76.1	3.8	1.49e+00	0	25	104	823132160	85	23869
2026-01-08 13:34:50.84	338.97	2.77	-60.0	-76.0	3.8	1.49e+00	0	25	104	823132160	85	23831
2026-01-08 13:34:51.85	339.08	2.73	-60.0	-76.0	3.8	1.49e+00	0	25	104	823132160	85	23799
2026-01-08 13:34:52.86	339.20	2.69	-60.0	-76.0	3.8	1.49e+00	0	25	104	823132160	85	23839
2026-01-08 13:34:53.87	339.31	2.65	-60.0	-76.0	3.8	1.49e+00	0	25	104	823132160	85	23839
2026-01-08 13:34:54.88	339.42	2.61	-60.0	-76.0	3.8	1.49e+00	0	25	104	823132160	85	23821
2026-01-08 13:34:55.89	339.53	2.57	-60.0	-76.0	3.8	1.49e+00	0	25	104	823132160	85	23771
2026-01-08 13:34:56.90	339.64	2.53	-60.0	-76.0	3.8	1.49e+00	0	25	104	823132160	85	23777
2026-01-08 13:34:57.90	339.75	2.49	-60.0	-76.0	3.8	1.49e+00	0	25	104	823132160	85	23814
2026-01-08 13:34:58.91	339.86	2.45	-60.0	-76.0	3.8	1.49e+00	0	25	104	823132160	85	23780
2026-01-08 13:34:59.92	339.98	2.41	-59.9	-76.0	3.8	1.49e+00	0	25	104	823132160	85	23765
2026-01-08 13:35:00.93	340.09	2.37	-59.9	-76.0	3.8	1.49e+00	0	25	104	823132160	85	23718
2026-01-08 13:35:01.94	340.20	2.33	-59.9	-76.0	3.8	1.49e+00	0	25	104	823132160	85	23771
2026-01-08 13:35:02.95	340.31	2.29	-59.9	-76.0	3.8	1.49e+00	0	25	104	823132160	85	23710
2026-01-08 13:35:03.96	340.42	2.25	-59.9	-76.0	3.8	1.49e+00	0	25	104	823132160	85	23712
2026-01-08 13:35:04.97	340.52	2.21	-59.9	-76.0	3.8	1.49e+00	0	25	104	823132160	85	23660
2026-01-08 13:35:05.98	340.63	2.17	-59.9	-76.0	3.8	1.49e+00	0	25	104	823132160	85	23740
2026-01-08 13:35:06.99	340.74	2.13	-59.9	-76.0	3.8	1.49e+00	0	25	104	823132160	85	23658
2026-01-08 13:35:08.00	340.85	2.09	-59.9	-76.0	3.8	1.49e+00	0	25	104	823132160	85	23713
2026-01-08 13:35:09.01	340.96	2.05	-59.9	-76.0	3.8	1.49e+00	0	25	104	823132160	85	23692
2026-01-08 13:35:10.02	341.07	2.01	-59.9	-76.0	3.8	1.49e+00	0	25	104	823132160	85	23665
2026-01-08 13:35:11.03	341.17	1.97	-59.9	-76.0	3.8	1.49e+00	0	25	104	823132160	85	23645
2026-01-08 13:35:12.03	341.28	1.93	-59.9	-76.0	3.8	1.49e+00	0	25	104	823132160	85	23654

#Closed at: 2026-01-08 13:35:12
#Recorded file [823 MB]: D:/lorett/data/31004_260108_162519.dat