passes_logs/2026/01/08/R3.2S_Murmansk/R3.2S_Murmansk__20260108_220253_SUOMI_NPP_rec.log

#Pass ID: 20260108_220253_SUOMI NPP
#Satellite: SUOMI NPP
#Configuration: NPP
#almurnet v.1.7.20251203
#Start time: 2026-01-08 22:02:53

#Version: 2.2.20231116
#Station: R3.2S_Murmansk
#Location: 33.079688 lon 68.888172 lat
#TLE: 1 37849U 11061A   26008.05542337  .00000108  00000+0  71976-4 0  9997
#TLE: 2 37849  98.7805 310.1641 0002540  75.6410 284.5048 14.19523335735721

#Time	Az	El	Level	Level2	SNR	BER	BlckErr	Temp	State	Recorded	gain1	gain2
2026-01-08 22:02:53.70	18.54	1.99	-57.5	-73.4	3.8	1.49e+00	0	22	0	0	81	22024
2026-01-08 22:02:54.71	18.62	2.04	-57.5	-73.3	3.8	1.49e+00	0	22	104	0	80	23294
2026-01-08 22:02:55.71	18.70	2.09	-57.5	-73.4	3.8	1.49e+00	0	22	104	0	80	23543
2026-01-08 22:02:56.71	18.78	2.15	-57.5	-73.5	3.8	1.49e+00	0	22	104	0	80	23583
2026-01-08 22:02:57.71	18.86	2.20	-57.5	-73.5	3.8	1.49e+00	0	22	104	0	80	23600
2026-01-08 22:02:58.70	18.94	2.25	-57.5	-73.4	3.8	1.49e+00	0	22	104	0	80	23540
2026-01-08 22:02:59.71	19.03	2.30	-57.5	-73.4	3.8	1.49e+00	0	22	104	0	80	23563
2026-01-08 22:03:00.71	19.11	2.35	-57.5	-73.4	3.8	1.49e+00	0	22	104	0	80	23505
2026-01-08 22:03:01.70	19.19	2.41	-57.5	-73.4	3.8	1.49e+00	0	22	104	0	80	23436
2026-01-08 22:03:02.71	19.27	2.46	-57.5	-73.3	3.8	1.49e+00	0	22	104	0	80	23300
2026-01-08 22:03:03.70	19.35	2.51	-57.5	-73.3	3.8	1.49e+00	0	22	104	0	80	23205
2026-01-08 22:03:04.71	19.44	2.56	-57.5	-73.3	3.8	1.49e+00	0	22	104	0	80	23090
2026-01-08 22:03:05.71	19.52	2.61	-57.5	-73.2	3.8	1.49e+00	0	22	104	0	80	22999
2026-01-08 22:03:06.70	19.60	2.67	-57.5	-73.3	3.8	1.49e+00	0	22	104	0	80	23195
2026-01-08 22:03:07.70	19.69	2.72	-57.5	-73.4	3.8	1.49e+00	0	22	104	0	80	23330
2026-01-08 22:03:08.70	19.77	2.77	-57.5	-73.4	3.8	1.49e+00	0	22	104	0	80	23406
2026-01-08 22:03:09.70	19.85	2.82	-57.5	-73.5	3.8	1.49e+00	0	22	104	0	80	23589
2026-01-08 22:03:10.69	19.94	2.88	-57.5	-73.5	3.8	1.49e+00	0	22	104	0	80	23668
2026-01-08 22:03:11.70	20.02	2.93	-57.5	-73.5	3.8	1.49e+00	0	22	104	0	80	23682
2026-01-08 22:03:12.69	20.11	2.98	-57.5	-73.5	3.8	1.49e+00	0	22	104	0	80	23667
2026-01-08 22:03:13.69	20.19	3.03	-57.5	-73.5	3.8	1.49e+00	0	22	104	0	80	23599
2026-01-08 22:03:14.69	20.28	3.09	-57.5	-73.4	3.8	1.49e+00	0	22	104	0	80	23548
2026-01-08 22:03:15.69	20.36	3.14	-57.5	-73.5	3.8	1.49e+00	0	22	104	0	80	23641
2026-01-08 22:03:16.69	20.45	3.19	-57.5	-73.5	3.8	1.49e+00	0	22	104	0	80	23691
2026-01-08 22:03:17.69	20.54	3.24	-57.5	-73.5	3.8	1.49e+00	0	22	104	0	80	23656
2026-01-08 22:03:18.68	20.62	3.30	-57.5	-73.4	3.8	1.49e+00	0	23	104	0	80	23417
2026-01-08 22:03:19.68	20.71	3.35	-57.5	-73.2	3.8	1.49e+00	0	23	104	0	80	22941
2026-01-08 22:03:20.68	20.80	3.40	-57.5	-72.9	3.8	1.49e+00	0	23	104	0	80	22034
2026-01-08 22:03:21.68	20.88	3.46	-57.5	-72.7	3.8	1.49e+00	0	23	104	0	80	21575
2026-01-08 22:03:22.67	20.97	3.51	-57.4	-72.5	3.8	1.49e+00	0	23	104	0	80	21035
2026-01-08 22:03:23.67	21.06	3.56	-57.4	-72.4	3.8	1.49e+00	0	22	104	0	80	20821
2026-01-08 22:03:24.67	21.15	3.61	-57.5	-72.4	3.8	1.49e+00	0	23	104	0	80	21016
2026-01-08 22:03:25.67	21.24	3.67	-57.5	-72.5	3.8	1.49e+00	0	23	104	0	80	21025
2026-01-08 22:03:26.67	21.32	3.72	-57.5	-72.6	3.8	1.49e+00	0	23	104	0	80	21295
2026-01-08 22:03:27.67	21.41	3.77	-57.4	-72.1	3.8	1.49e+00	0	23	104	0	80	20093
2026-01-08 22:03:28.67	21.50	3.83	-57.4	-71.6	3.8	1.49e+00	0	23	104	0	80	19070
2026-01-08 22:03:29.67	21.59	3.88	-57.4	-70.5	4.1	1.46e+00	0	23	0	0	80	16702
2026-01-08 22:03:30.67	21.68	3.93	-57.3	-69.8	4.2	1.43e+00	0	23	0	0	80	15540
2026-01-08 22:03:31.67	21.77	3.99	-57.3	-68.9	4.5	1.27e+00	0	23	0	1048576	80	13955
2026-01-08 22:03:32.67	21.86	4.04	-57.2	-68.6	4.6	9.09e-01	0	23	0	2097152	80	13517
2026-01-08 22:03:33.67	21.96	4.10	-57.2	-68.1	4.9	7.42e-01	0	23	0	4194304	80	12674
2026-01-08 22:03:34.67	22.05	4.15	-57.2	-67.8	5.0	7.26e-01	0	23	0	6291456	80	12336
2026-01-08 22:03:35.66	22.14	4.20	-57.0	-66.6	5.7	5.23e-01	0	23	0	8388608	80	10673
2026-01-08 22:03:36.66	22.23	4.26	-56.8	-65.3	6.6	2.26e-01	0	23	0	10485760	80	9190
2026-01-08 22:03:37.66	22.32	4.31	-56.5	-63.7	8.0	7.60e-02	0	23	0	11534336	79	8093
2026-01-08 22:03:38.66	22.42	4.36	-55.9	-61.7	9.6	2.09e-02	0	23	0	13631488	78	6826
2026-01-08 22:03:39.66	22.51	4.42	-55.4	-60.2	10.8	2.33e-03	0	23	0	15728640	77	6124
2026-01-08 22:03:40.66	22.60	4.47	-54.7	-58.7	12.0	3.12e-05	0	23	0	17825792	76	5464
2026-01-08 22:03:41.66	22.70	4.53	-54.1	-57.8	12.5	7.00e-07	0	23	0	18874368	74	5497
2026-01-08 22:03:42.66	22.79	4.58	-53.9	-57.4	12.8	0.00e+00	0	23	0	20971520	74	5257
2026-01-08 22:03:43.66	22.89	4.63	-53.5	-56.8	13.1	0.00e+00	0	23	0	23068672	73	5204
2026-01-08 22:03:44.66	22.98	4.69	-53.6	-57.0	13.0	0.00e+00	0	23	0	25165824	73	5281
2026-01-08 22:03:45.65	23.07	4.74	-53.6	-57.0	13.0	0.00e+00	0	23	0	27262976	73	5303
2026-01-08 22:03:46.65	23.17	4.80	-54.2	-58.0	12.2	1.50e-06	0	23	0	28311552	73	5957
2026-01-08 22:03:47.65	23.27	4.85	-54.6	-58.8	11.7	9.10e-06	0	23	0	30408704	74	6197
2026-01-08 22:03:48.65	23.36	4.91	-55.3	-60.4	10.5	9.53e-05	0	23	0	32505856	75	6972
2026-01-08 22:03:49.66	23.46	4.96	-56.0	-62.2	9.2	2.42e-03	0	23	0	34603008	77	7682
2026-01-08 22:03:50.66	23.56	5.01	-56.4	-63.4	8.1	2.72e-02	0	23	0	36700160	77	8843
2026-01-08 22:03:51.66	23.65	5.07	-56.2	-62.6	8.9	4.53e-02	0	23	0	37748736	78	7611
2026-01-08 22:03:52.66	23.75	5.12	-56.6	-64.4	7.4	1.73e-02	0	23	0	39845888	78	9356
2026-01-08 22:03:53.66	23.85	5.18	-56.9	-65.6	6.7	2.63e-01	0	23	0	41943040	78	10656
2026-01-08 22:03:54.66	23.95	5.23	-55.1	-59.4	11.4	4.37e-01	0	23	0	42991616	76	5914
2026-01-08 22:03:55.66	24.04	5.29	-56.9	-66.0	6.2	7.24e-04	0	23	0	45088768	78	11158
2026-01-08 22:03:56.66	24.14	5.34	-55.5	-60.6	10.4	6.34e-01	0	23	0	47185920	77	6358
2026-01-08 22:03:57.65	24.24	5.40	-54.4	-58.3	12.3	7.00e-07	0	23	0	49283072	75	5499
2026-01-08 22:03:58.65	24.34	5.45	-54.2	-57.9	12.6	7.00e-07	0	23	0	50331648	75	5226
2026-01-08 22:03:59.65	24.44	5.51	-54.0	-57.5	12.8	1.50e-06	0	23	0	52428800	74	5293
2026-01-08 22:04:00.64	24.54	5.56	-54.1	-57.6	12.6	7.00e-07	0	23	0	54525952	74	5388
2026-01-08 22:04:01.65	24.64	5.62	-54.0	-57.5	12.8	0.00e+00	0	23	0	56623104	74	5329
2026-01-08 22:04:02.65	24.74	5.67	-53.9	-57.4	12.8	0.00e+00	0	23	0	58720256	74	5252
2026-01-08 22:04:03.65	24.84	5.73	-53.8	-57.1	13.1	0.00e+00	0	23	0	59768832	74	5056
2026-01-08 22:04:04.65	24.95	5.78	-54.0	-57.5	12.8	7.00e-07	0	23	0	61865984	74	5338
2026-01-08 22:04:05.66	25.05	5.84	-53.9	-57.4	12.8	7.00e-07	0	23	0	63963136	74	5241
2026-01-08 22:04:06.66	25.15	5.89	-54.0	-57.5	12.8	0.00e+00	0	23	0	66060288	74	5335
2026-01-08 22:04:07.66	25.26	5.95	-54.1	-57.6	12.7	0.00e+00	0	23	0	68157440	74	5365
2026-01-08 22:04:08.65	25.36	6.00	-53.9	-57.4	12.9	0.00e+00	0	23	0	69206016	74	5220
2026-01-08 22:04:09.65	25.46	6.06	-53.9	-57.4	12.9	0.00e+00	0	23	0	71303168	74	5240
2026-01-08 22:04:10.64	25.56	6.11	-53.8	-57.2	13.0	0.00e+00	0	23	0	73400320	74	5116
2026-01-08 22:04:11.64	25.67	6.17	-53.7	-56.9	13.2	7.00e-07	0	23	0	75497472	74	4978
2026-01-08 22:04:12.64	25.77	6.22	-53.5	-56.7	13.3	0.00e+00	0	23	0	76546048	73	5114
2026-01-08 22:04:13.64	25.88	6.28	-53.4	-56.5	13.4	0.00e+00	0	23	0	78643200	73	5015
2026-01-08 22:04:14.63	25.98	6.33	-53.5	-56.5	13.3	0.00e+00	0	23	0	80740352	73	5036
2026-01-08 22:04:15.63	26.09	6.39	-53.6	-56.7	13.3	0.00e+00	0	23	0	82837504	73	5133
2026-01-08 22:04:16.62	26.19	6.45	-53.2	-56.2	13.6	0.00e+00	0	23	0	84934656	73	4820
2026-01-08 22:04:17.62	26.30	6.50	-53.4	-56.4	13.4	0.00e+00	0	23	0	85983232	73	4955
2026-01-08 22:04:18.61	26.41	6.56	-53.4	-56.4	13.5	0.00e+00	0	23	0	88080384	73	4942
2026-01-08 22:04:19.61	26.51	6.61	-53.3	-56.3	13.6	0.00e+00	0	23	0	90177536	73	4874
2026-01-08 22:04:20.61	26.62	6.67	-53.2	-56.0	13.7	0.00e+00	0	23	0	92274688	73	4744
2026-01-08 22:04:21.60	26.73	6.72	-52.9	-55.5	13.9	0.00e+00	0	23	0	93323264	72	4759
2026-01-08 22:04:22.59	26.84	6.78	-52.7	-55.3	14.0	0.00e+00	0	23	0	95420416	72	4629
2026-01-08 22:04:23.59	26.94	6.83	-52.7	-55.3	13.9	0.00e+00	0	23	0	97517568	71	4879
2026-01-08 22:04:24.60	27.06	6.89	-52.5	-55.1	14.0	0.00e+00	0	23	0	99614720	71	4792
2026-01-08 22:04:25.59	27.16	6.95	-52.5	-55.0	14.1	0.00e+00	0	23	0	101711872	71	4708
2026-01-08 22:04:26.57	27.27	7.00	-52.4	-54.9	14.2	0.00e+00	0	23	0	102760448	71	4652
2026-01-08 22:04:27.57	27.38	7.06	-52.4	-54.8	14.2	0.00e+00	0	23	0	104857600	71	4631
2026-01-08 22:04:28.57	27.49	7.11	-52.4	-54.8	14.2	0.00e+00	0	23	0	106954752	71	4619
2026-01-08 22:04:29.56	27.60	7.17	-52.4	-54.9	14.2	0.00e+00	0	23	0	109051904	71	4652
2026-01-08 22:04:30.56	27.72	7.22	-52.4	-54.9	14.2	0.00e+00	0	23	0	111149056	71	4667
2026-01-08 22:04:31.56	27.83	7.28	-52.4	-54.8	14.2	0.00e+00	0	23	0	112197632	71	4642
2026-01-08 22:04:32.56	27.94	7.34	-52.4	-54.9	14.2	0.00e+00	0	23	0	114294784	71	4657
2026-01-08 22:04:33.55	28.05	7.39	-52.6	-55.1	14.1	0.00e+00	0	23	0	116391936	71	4800
2026-01-08 22:04:34.55	28.17	7.45	-52.6	-55.1	14.1	0.00e+00	0	23	0	118489088	71	4786
2026-01-08 22:04:35.55	28.28	7.51	-52.7	-55.2	14.0	0.00e+00	0	23	0	119537664	71	4853
2026-01-08 22:04:36.55	28.39	7.56	-52.7	-55.3	13.9	0.00e+00	0	23	0	121634816	71	4913
2026-01-08 22:04:37.54	28.51	7.62	-52.5	-55.1	14.1	0.00e+00	0	23	0	123731968	71	4761
2026-01-08 22:04:38.54	28.62	7.67	-52.7	-55.3	14.0	0.00e+00	0	23	0	125829120	71	4886
2026-01-08 22:04:39.54	28.74	7.73	-52.6	-55.2	14.0	0.00e+00	0	23	0	127926272	71	4821
2026-01-08 22:04:40.54	28.85	7.79	-52.6	-55.2	14.0	0.00e+00	0	23	0	128974848	71	4831
2026-01-08 22:04:41.54	28.97	7.84	-52.6	-55.2	14.0	0.00e+00	0	23	0	131072000	71	4839
2026-01-08 22:04:42.54	29.09	7.90	-52.8	-55.4	13.9	0.00e+00	0	23	0	133169152	71	4939
2026-01-08 22:04:43.54	29.20	7.96	-52.8	-55.4	13.9	0.00e+00	0	23	0	135266304	71	4976
2026-01-08 22:04:44.54	29.32	8.01	-52.6	-55.2	14.0	0.00e+00	0	24	0	137363456	71	4817
2026-01-08 22:04:45.53	29.44	8.07	-52.6	-55.2	14.0	0.00e+00	0	23	0	138412032	71	4819
2026-01-08 22:04:46.53	29.56	8.13	-52.5	-55.0	14.1	0.00e+00	0	23	0	140509184	71	4706
2026-01-08 22:04:47.52	29.68	8.18	-52.5	-55.0	14.2	0.00e+00	0	23	0	142606336	71	4747
2026-01-08 22:04:48.52	29.80	8.24	-52.6	-55.1	14.1	0.00e+00	0	23	0	144703488	71	4774
2026-01-08 22:04:49.51	29.91	8.29	-52.5	-55.1	14.1	0.00e+00	0	23	0	145752064	71	4760
2026-01-08 22:04:50.51	30.03	8.35	-52.5	-54.9	14.2	0.00e+00	0	23	0	147849216	71	4681
2026-01-08 22:04:51.51	30.16	8.41	-52.6	-55.0	14.1	0.00e+00	0	23	0	149946368	71	4754
2026-01-08 22:04:52.51	30.28	8.46	-52.7	-55.3	14.0	0.00e+00	0	23	0	152043520	71	4888
2026-01-08 22:04:53.50	30.40	8.52	-52.7	-55.2	14.0	0.00e+00	0	23	0	154140672	71	4837
2026-01-08 22:04:54.50	30.52	8.58	-52.7	-55.2	14.0	0.00e+00	0	24	0	155189248	71	4839
2026-01-08 22:04:55.50	30.64	8.63	-52.6	-55.1	14.1	0.00e+00	0	23	0	157286400	71	4787
2026-01-08 22:04:56.50	30.77	8.69	-52.6	-55.1	14.1	0.00e+00	0	23	0	159383552	71	4768
2026-01-08 22:04:57.50	30.89	8.75	-52.6	-55.1	14.1	0.00e+00	0	24	0	161480704	71	4801
2026-01-08 22:04:58.50	31.01	8.80	-52.5	-55.0	14.2	0.00e+00	0	24	0	162529280	71	4707
2026-01-08 22:04:59.50	31.14	8.86	-52.4	-54.8	14.3	0.00e+00	0	24	0	164626432	71	4634
2026-01-08 22:05:00.51	31.26	8.92	-52.6	-55.1	14.1	0.00e+00	0	23	0	166723584	71	4765
2026-01-08 22:05:01.51	31.39	8.98	-52.5	-54.9	14.2	0.00e+00	0	23	0	168820736	71	4678
2026-01-08 22:05:02.51	31.51	9.03	-52.5	-54.9	14.2	0.00e+00	0	23	0	170917888	71	4688
2026-01-08 22:05:03.51	31.64	9.09	-52.4	-54.8	14.3	0.00e+00	0	23	0	171966464	71	4637
2026-01-08 22:05:04.52	31.77	9.15	-52.2	-54.5	14.5	0.00e+00	0	23	0	174063616	71	4462
2026-01-08 22:05:05.52	31.90	9.20	-52.1	-54.4	14.4	0.00e+00	0	23	0	176160768	70	4675
2026-01-08 22:05:06.52	32.02	9.26	-52.1	-54.4	14.4	0.00e+00	0	24	0	178257920	70	4676
2026-01-08 22:05:07.52	32.15	9.32	-52.2	-54.5	14.3	0.00e+00	0	23	0	180355072	70	4720
2026-01-08 22:05:08.52	32.28	9.38	-52.0	-54.2	14.5	0.00e+00	0	23	0	181403648	70	4578
2026-01-08 22:05:09.52	32.41	9.43	-52.1	-54.4	14.4	0.00e+00	0	24	0	183500800	70	4689
2026-01-08 22:05:10.52	32.54	9.49	-52.2	-54.5	14.3	0.00e+00	0	23	0	185597952	70	4738
2026-01-08 22:05:11.52	32.67	9.55	-52.3	-54.7	14.2	0.00e+00	0	24	0	187695104	70	4818
2026-01-08 22:05:12.52	32.80	9.60	-52.3	-54.7	14.2	0.00e+00	0	23	0	189792256	70	4822
2026-01-08 22:05:13.52	32.93	9.66	-52.2	-54.6	14.3	0.00e+00	0	23	0	190840832	70	4761
2026-01-08 22:05:14.53	33.07	9.72	-52.3	-54.6	14.3	0.00e+00	0	24	0	192937984	70	4780
2026-01-08 22:05:15.53	33.20	9.78	-52.3	-54.7	14.2	0.00e+00	0	23	0	195035136	70	4837
2026-01-08 22:05:16.52	33.33	9.83	-52.4	-54.8	14.2	0.00e+00	0	24	0	197132288	70	4902
2026-01-08 22:05:17.51	33.46	9.89	-52.2	-54.5	14.3	0.00e+00	0	23	0	199229440	70	4755
2026-01-08 22:05:18.51	33.59	9.95	-52.3	-54.6	14.2	0.00e+00	0	24	0	200278016	70	4792
2026-01-08 22:05:19.50	33.73	10.00	-52.3	-54.6	14.2	0.00e+00	0	23	0	202375168	70	4814
2026-01-08 22:05:20.50	33.86	10.06	-52.2	-54.5	14.3	0.00e+00	0	23	0	204472320	70	4752
2026-01-08 22:05:21.49	34.00	10.12	-52.3	-54.6	14.2	0.00e+00	0	23	0	206569472	70	4802
2026-01-08 22:05:22.48	34.13	10.17	-52.2	-54.6	14.3	0.00e+00	0	24	0	207618048	70	4775
2026-01-08 22:05:23.47	34.27	10.23	-52.2	-54.5	14.3	0.00e+00	0	24	0	209715200	70	4734
2026-01-08 22:05:24.47	34.40	10.29	-52.2	-54.6	14.3	0.00e+00	0	23	0	211812352	70	4764
2026-01-08 22:05:25.46	34.54	10.34	-52.2	-54.5	14.3	0.00e+00	0	24	0	213909504	70	4745
2026-01-08 22:05:26.46	34.68	10.40	-52.3	-54.7	14.2	0.00e+00	0	24	0	216006656	70	4816
2026-01-08 22:05:27.46	34.81	10.46	-52.3	-54.7	14.2	0.00e+00	0	24	0	217055232	70	4824
2026-01-08 22:05:28.46	34.95	10.51	-52.3	-54.7	14.2	0.00e+00	0	24	0	219152384	70	4865
2026-01-08 22:05:29.45	35.09	10.57	-52.2	-54.6	14.3	0.00e+00	0	24	0	221249536	70	4774
2026-01-08 22:05:30.46	35.23	10.63	-52.2	-54.6	14.3	0.00e+00	0	23	0	223346688	70	4790
2026-01-08 22:05:31.45	35.37	10.68	-52.4	-54.8	14.1	0.00e+00	0	23	0	224395264	70	4906
2026-01-08 22:05:32.45	35.51	10.74	-52.3	-54.6	14.2	0.00e+00	0	24	0	226492416	70	4802
2026-01-08 22:05:33.44	35.65	10.80	-52.4	-54.8	14.1	0.00e+00	0	24	0	228589568	70	4912
2026-01-08 22:05:34.44	35.79	10.85	-52.4	-54.8	14.2	0.00e+00	0	24	0	230686720	70	4898
2026-01-08 22:05:35.44	35.94	10.91	-52.3	-54.8	14.2	0.00e+00	0	23	0	232783872	70	4886
2026-01-08 22:05:36.44	36.08	10.97	-52.2	-54.6	14.3	0.00e+00	0	24	0	233832448	70	4801
2026-01-08 22:05:37.45	36.22	11.02	-52.3	-54.7	14.2	0.00e+00	0	24	0	235929600	70	4835
2026-01-08 22:05:38.44	36.37	11.08	-52.3	-54.8	14.2	0.00e+00	0	24	0	238026752	70	4884
2026-01-08 22:05:39.45	36.51	11.14	-52.2	-54.6	14.3	0.00e+00	0	24	0	240123904	70	4781
2026-01-08 22:05:40.44	36.66	11.19	-52.1	-54.5	14.3	0.00e+00	0	24	0	241172480	70	4734
2026-01-08 22:05:41.44	36.80	11.25	-52.1	-54.4	14.4	0.00e+00	0	24	0	243269632	70	4652
2026-01-08 22:05:42.45	36.95	11.31	-52.1	-54.4	14.4	0.00e+00	0	24	0	245366784	70	4696
2026-01-08 22:05:43.44	37.09	11.36	-52.0	-54.3	14.5	0.00e+00	0	24	0	247463936	70	4610
2026-01-08 22:05:44.44	37.24	11.42	-52.1	-54.4	14.4	0.00e+00	0	24	0	249561088	70	4698
2026-01-08 22:05:45.44	37.39	11.48	-51.9	-54.1	14.6	0.00e+00	0	24	0	250609664	70	4527
2026-01-08 22:05:46.43	37.54	11.53	-51.9	-54.2	14.5	0.00e+00	0	23	0	252706816	70	4571
2026-01-08 22:05:47.43	37.69	11.59	-51.9	-54.2	14.5	0.00e+00	0	23	0	254803968	70	4573
2026-01-08 22:05:48.43	37.84	11.65	-52.1	-54.4	14.4	0.00e+00	0	24	0	256901120	70	4675
2026-01-08 22:05:49.42	37.98	11.70	-51.9	-54.2	14.5	0.00e+00	0	24	0	258998272	70	4598
2026-01-08 22:05:50.42	38.13	11.76	-51.8	-54.1	14.5	0.00e+00	0	24	0	260046848	70	4522
2026-01-08 22:05:51.42	38.29	11.81	-51.9	-54.1	14.6	0.00e+00	0	24	0	262144000	70	4536
2026-01-08 22:05:52.41	38.44	11.87	-51.9	-54.1	14.6	0.00e+00	0	24	0	264241152	70	4527
2026-01-08 22:05:53.41	38.59	11.93	-51.7	-53.9	14.7	0.00e+00	0	24	0	266338304	70	4424
2026-01-08 22:05:54.41	38.74	11.98	-51.7	-53.9	14.5	0.00e+00	0	23	0	268435456	69	4666
2026-01-08 22:05:55.41	38.89	12.04	-51.2	-53.3	14.8	0.00e+00	0	24	0	269484032	69	4363
2026-01-08 22:05:56.41	39.05	12.09	-51.3	-53.4	14.8	0.00e+00	0	24	0	271581184	69	4405
2026-01-08 22:05:57.40	39.20	12.15	-51.5	-53.6	14.7	0.00e+00	0	24	0	273678336	69	4519
2026-01-08 22:05:58.40	39.36	12.21	-51.5	-53.7	14.7	0.00e+00	0	24	0	275775488	69	4547
2026-01-08 22:05:59.40	39.51	12.26	-51.6	-53.8	14.6	0.00e+00	0	24	0	276824064	69	4642
2026-01-08 22:06:00.39	39.67	12.32	-51.7	-54.0	14.5	0.00e+00	0	24	0	278921216	69	4723
2026-01-08 22:06:01.40	39.83	12.37	-51.8	-54.1	14.4	0.00e+00	0	24	0	281018368	69	4782
2026-01-08 22:06:02.39	39.98	12.43	-51.7	-54.0	14.4	0.00e+00	0	24	0	283115520	69	4754
2026-01-08 22:06:03.40	40.14	12.48	-51.8	-54.1	14.4	0.00e+00	0	24	0	285212672	69	4795
2026-01-08 22:06:04.40	40.30	12.54	-51.7	-54.0	14.5	0.00e+00	0	24	0	286261248	69	4739
2026-01-08 22:06:05.40	40.46	12.60	-51.7	-54.0	14.5	0.00e+00	0	24	0	288358400	69	4711
2026-01-08 22:06:06.40	40.62	12.65	-51.7	-53.9	14.5	0.00e+00	0	24	0	290455552	69	4700
2026-01-08 22:06:07.40	40.78	12.71	-51.6	-53.9	14.5	0.00e+00	0	24	0	292552704	69	4672
2026-01-08 22:06:08.39	40.94	12.76	-51.6	-53.8	14.6	0.00e+00	0	24	0	293601280	69	4627
2026-01-08 22:06:09.39	41.10	12.82	-51.5	-53.8	14.6	0.00e+00	0	24	0	295698432	69	4612
2026-01-08 22:06:10.39	41.26	12.87	-51.5	-53.7	14.6	0.00e+00	0	24	0	297795584	69	4569
2026-01-08 22:06:11.39	41.42	12.93	-51.4	-53.6	14.7	0.00e+00	0	24	0	299892736	69	4528
2026-01-08 22:06:12.39	41.59	12.98	-51.5	-53.7	14.7	0.00e+00	0	24	0	301989888	69	4562
2026-01-08 22:06:13.38	41.75	13.04	-51.5	-53.7	14.6	0.00e+00	0	24	0	303038464	69	4584
2026-01-08 22:06:14.38	41.91	13.09	-51.3	-53.5	14.7	0.00e+00	0	24	0	305135616	69	4481
2026-01-08 22:06:15.37	42.08	13.14	-51.5	-53.7	14.7	0.00e+00	0	24	0	307232768	69	4552
2026-01-08 22:06:16.37	42.24	13.20	-51.4	-53.5	14.7	0.00e+00	0	24	0	309329920	69	4480
2026-01-08 22:06:17.37	42.41	13.25	-51.4	-53.6	14.7	0.00e+00	0	24	0	311427072	69	4524
2026-01-08 22:06:18.37	42.58	13.31	-51.3	-53.4	14.8	0.00e+00	0	24	0	312475648	69	4440
2026-01-08 22:06:19.36	42.74	13.36	-51.5	-53.7	14.7	0.00e+00	0	24	0	314572800	69	4560
2026-01-08 22:06:20.36	42.91	13.42	-51.3	-53.5	14.7	0.00e+00	0	24	0	316669952	69	4485
2026-01-08 22:06:21.34	43.08	13.47	-51.4	-53.6	14.7	0.00e+00	0	24	0	318767104	69	4526
2026-01-08 22:06:22.34	43.24	13.52	-51.5	-53.8	14.6	0.00e+00	0	24	0	319815680	69	4618
2026-01-08 22:06:23.34	43.41	13.58	-51.5	-53.8	14.6	0.00e+00	0	24	0	321912832	69	4635
2026-01-08 22:06:24.34	43.58	13.63	-51.6	-53.9	14.5	0.00e+00	0	24	0	324009984	69	4665
2026-01-08 22:06:25.34	43.76	13.69	-51.5	-53.7	14.6	0.00e+00	0	24	0	326107136	69	4571
2026-01-08 22:06:26.34	43.93	13.74	-51.4	-53.6	14.7	0.00e+00	0	24	0	328204288	69	4532
2026-01-08 22:06:27.34	44.10	13.79	-51.3	-53.5	14.7	0.00e+00	0	24	0	329252864	69	4487
2026-01-08 22:06:28.33	44.27	13.84	-51.3	-53.5	14.7	0.00e+00	0	24	0	331350016	69	4467
2026-01-08 22:06:29.34	44.45	13.90	-51.3	-53.5	14.8	0.00e+00	0	24	0	333447168	69	4446
2026-01-08 22:06:30.34	44.62	13.95	-51.2	-53.4	14.8	0.00e+00	0	24	0	335544320	69	4411
2026-01-08 22:06:31.34	44.79	14.00	-51.4	-53.5	14.7	0.00e+00	0	24	0	336592896	69	4482
2026-01-08 22:06:32.33	44.97	14.06	-51.5	-53.8	14.6	0.00e+00	0	24	0	338690048	69	4604
2026-01-08 22:06:33.33	45.14	14.11	-51.7	-54.0	14.4	0.00e+00	0	24	0	340787200	69	4755
2026-01-08 22:06:34.32	45.32	14.16	-51.8	-54.2	14.4	0.00e+00	0	24	0	342884352	69	4840
2026-01-08 22:06:35.32	45.50	14.21	-51.9	-54.4	14.3	0.00e+00	0	24	0	344981504	69	4952
2026-01-08 22:06:36.32	45.67	14.27	-51.9	-54.3	14.3	0.00e+00	0	24	0	346030080	69	4889
2026-01-08 22:06:37.32	45.85	14.32	-51.8	-54.1	14.4	0.00e+00	0	23	0	348127232	69	4801
2026-01-08 22:06:38.32	46.03	14.37	-51.9	-54.2	14.2	0.00e+00	0	24	0	350224384	69	4865
2026-01-08 22:06:39.31	46.21	14.42	-51.8	-54.2	14.4	0.00e+00	0	24	0	352321536	69	4815
2026-01-08 22:06:40.32	46.39	14.47	-51.8	-54.1	14.4	0.00e+00	0	24	0	354418688	69	4801
2026-01-08 22:06:41.32	46.57	14.53	-51.9	-54.3	14.3	0.00e+00	0	24	0	355467264	69	4908
2026-01-08 22:06:42.32	46.75	14.58	-52.0	-54.4	14.2	0.00e+00	0	24	0	357564416	69	4966
2026-01-08 22:06:43.32	46.93	14.63	-52.0	-54.5	14.2	0.00e+00	0	24	0	359661568	69	4987
2026-01-08 22:06:44.31	47.11	14.68	-52.4	-55.1	14.0	0.00e+00	0	24	0	361758720	70	5049
2026-01-08 22:06:45.31	47.30	14.73	-52.3	-55.0	14.1	0.00e+00	0	24	0	363855872	70	4990
2026-01-08 22:06:46.31	47.48	14.78	-52.4	-55.0	14.0	0.00e+00	0	24	0	364904448	70	5025
2026-01-08 22:06:47.31	47.67	14.83	-52.4	-55.0	14.0	0.00e+00	0	24	0	367001600	70	5001
2026-01-08 22:06:48.31	47.85	14.88	-52.3	-54.8	14.1	0.00e+00	0	24	0	369098752	70	4901
2026-01-08 22:06:49.31	48.04	14.93	-52.1	-54.5	14.3	0.00e+00	0	24	0	371195904	70	4734
2026-01-08 22:06:50.31	48.22	14.98	-52.0	-54.5	14.4	0.00e+00	0	24	0	372244480	70	4732
2026-01-08 22:06:51.31	48.41	15.03	-52.1	-54.5	14.3	0.00e+00	0	24	0	374341632	70	4734
2026-01-08 22:06:52.31	48.60	15.08	-52.0	-54.4	14.4	0.00e+00	0	24	0	376438784	70	4683
2026-01-08 22:06:53.31	48.78	15.13	-52.0	-54.4	14.4	0.00e+00	0	24	0	378535936	70	4698
2026-01-08 22:06:54.31	48.97	15.18	-52.0	-54.4	14.4	0.00e+00	0	24	0	380633088	70	4662
2026-01-08 22:06:55.31	49.16	15.23	-52.0	-54.4	14.4	0.00e+00	0	24	0	381681664	70	4669
2026-01-08 22:06:56.30	49.35	15.28	-52.0	-54.4	14.5	0.00e+00	0	24	0	383778816	70	4654
2026-01-08 22:06:57.30	49.54	15.33	-51.9	-54.3	14.5	0.00e+00	0	24	0	385875968	70	4614
2026-01-08 22:06:58.29	49.73	15.38	-52.1	-54.5	14.4	0.00e+00	0	24	0	387973120	70	4748
2026-01-08 22:06:59.29	49.92	15.43	-52.1	-54.6	14.3	0.00e+00	0	24	0	389021696	70	4805
2026-01-08 22:07:00.29	50.11	15.47	-52.2	-54.8	14.2	0.00e+00	0	24	0	391118848	70	4877
2026-01-08 22:07:01.29	50.31	15.52	-52.3	-54.8	14.2	0.00e+00	0	24	0	393216000	70	4894
2026-01-08 22:07:02.29	50.50	15.57	-52.3	-54.9	14.1	0.00e+00	0	24	0	395313152	70	4976
2026-01-08 22:07:03.30	50.70	15.62	-52.3	-54.8	14.2	0.00e+00	0	24	0	397410304	70	4902
2026-01-08 22:07:04.30	50.89	15.66	-52.3	-54.9	14.1	0.00e+00	0	24	0	398458880	70	4930
2026-01-08 22:07:05.30	51.09	15.71	-52.2	-54.6	14.3	0.00e+00	0	24	0	400556032	70	4781
2026-01-08 22:07:06.30	51.28	15.76	-52.1	-54.5	14.4	0.00e+00	0	24	0	402653184	70	4721
2026-01-08 22:07:07.30	51.48	15.81	-52.0	-54.4	14.4	0.00e+00	0	24	0	404750336	70	4700
2026-01-08 22:07:08.30	51.68	15.85	-52.0	-54.4	14.4	0.00e+00	0	24	0	406847488	70	4694
2026-01-08 22:07:09.30	51.87	15.90	-52.3	-54.8	14.2	0.00e+00	0	24	0	407896064	70	4909
2026-01-08 22:07:10.31	52.07	15.95	-52.4	-55.0	14.1	0.00e+00	0	24	0	409993216	70	4986
2026-01-08 22:07:11.31	52.27	15.99	-52.6	-55.3	13.9	0.00e+00	0	24	0	412090368	70	5164
2026-01-08 22:07:12.31	52.47	16.04	-52.5	-55.1	14.0	0.00e+00	0	24	0	414187520	70	5069
2026-01-08 22:07:13.31	52.67	16.08	-52.5	-55.1	14.0	0.00e+00	0	24	0	416284672	70	5080
2026-01-08 22:07:14.30	52.87	16.13	-52.4	-55.0	14.0	0.00e+00	0	24	0	417333248	70	4991
2026-01-08 22:07:15.30	53.07	16.17	-52.5	-55.1	14.0	0.00e+00	0	24	0	419430400	70	5079
2026-01-08 22:07:16.29	53.27	16.22	-52.5	-55.0	14.0	0.00e+00	0	24	0	421527552	70	5035
2026-01-08 22:07:17.29	53.47	16.26	-52.3	-54.8	14.2	0.00e+00	0	24	0	423624704	70	4888
2026-01-08 22:07:18.29	53.68	16.30	-52.5	-55.1	14.0	0.00e+00	0	24	0	424673280	70	5082
2026-01-08 22:07:19.29	53.88	16.35	-52.5	-55.0	14.0	0.00e+00	0	24	0	426770432	70	5036
2026-01-08 22:07:20.29	54.08	16.39	-52.6	-55.1	14.0	0.00e+00	0	24	0	428867584	70	5100
2026-01-08 22:07:21.28	54.29	16.43	-52.4	-54.9	14.1	0.00e+00	0	24	0	430964736	70	4961
2026-01-08 22:07:22.28	54.49	16.48	-52.4	-54.9	14.1	0.00e+00	0	24	0	433061888	70	4955
2026-01-08 22:07:23.27	54.70	16.52	-52.2	-54.6	14.3	0.00e+00	0	24	0	434110464	70	4801
2026-01-08 22:07:24.26	54.90	16.56	-52.3	-54.6	14.3	0.00e+00	0	24	0	436207616	70	4811
2026-01-08 22:07:25.25	55.11	16.60	-52.0	-54.3	14.5	0.00e+00	0	24	0	438304768	70	4628
2026-01-08 22:07:26.25	55.31	16.65	-52.1	-54.4	14.4	0.00e+00	0	24	0	440401920	70	4684
2026-01-08 22:07:27.25	55.52	16.69	-52.2	-54.5	14.3	0.00e+00	0	24	0	442499072	70	4753
2026-01-08 22:07:28.25	55.73	16.73	-52.2	-54.6	14.3	0.00e+00	0	24	0	443547648	70	4762
2026-01-08 22:07:29.24	55.94	16.77	-52.3	-54.7	14.2	0.00e+00	0	24	0	445644800	70	4855
2026-01-08 22:07:30.25	56.15	16.81	-52.4	-54.8	14.2	0.00e+00	0	24	0	447741952	70	4878
2026-01-08 22:07:31.25	56.36	16.85	-52.5	-55.0	14.1	0.00e+00	0	24	0	449839104	70	4988
2026-01-08 22:07:32.25	56.57	16.89	-52.1	-54.3	14.5	0.00e+00	0	24	0	450887680	70	4640
2026-01-08 22:07:33.24	56.78	16.93	-51.9	-54.1	14.6	0.00e+00	0	24	0	452984832	70	4495
2026-01-08 22:07:34.23	56.99	16.97	-51.9	-54.0	14.6	0.00e+00	0	24	0	455081984	70	4481
2026-01-08 22:07:35.23	57.20	17.01	-51.7	-53.8	14.7	0.00e+00	0	24	0	457179136	70	4371
2026-01-08 22:07:36.23	57.42	17.05	-51.8	-53.8	14.7	0.00e+00	0	24	0	459276288	70	4383
2026-01-08 22:07:37.23	57.63	17.09	-51.7	-53.8	14.6	0.00e+00	0	24	0	460324864	69	4622
2026-01-08 22:07:38.23	57.84	17.13	-51.9	-54.1	14.4	0.00e+00	0	24	0	462422016	69	4795
2026-01-08 22:07:39.23	58.06	17.16	-52.0	-54.2	14.4	0.00e+00	0	24	0	464519168	69	4823
2026-01-08 22:07:40.24	58.27	17.20	-52.1	-54.4	14.3	0.00e+00	0	24	0	466616320	69	4939
2026-01-08 22:07:41.23	58.49	17.24	-52.0	-54.3	14.4	0.00e+00	0	24	0	467664896	69	4872
2026-01-08 22:07:42.23	58.70	17.28	-52.0	-54.2	14.4	0.00e+00	0	24	0	469762048	69	4848
2026-01-08 22:07:43.23	58.92	17.31	-52.0	-54.2	14.4	0.00e+00	0	24	0	471859200	69	4823
2026-01-08 22:07:44.23	59.14	17.35	-52.1	-54.3	14.3	0.00e+00	0	24	0	473956352	69	4917
2026-01-08 22:07:45.23	59.36	17.39	-51.9	-54.1	14.5	0.00e+00	0	24	0	476053504	69	4767
2026-01-08 22:07:46.22	59.57	17.42	-51.9	-54.1	14.4	0.00e+00	0	24	0	477102080	69	4796
2026-01-08 22:07:47.23	59.79	17.46	-51.8	-53.9	14.6	0.00e+00	0	24	0	479199232	69	4704
2026-01-08 22:07:48.23	60.01	17.49	-51.8	-53.9	14.6	0.00e+00	0	24	0	481296384	69	4658
2026-01-08 22:07:49.23	60.23	17.53	-51.6	-53.6	14.7	0.00e+00	0	24	0	483393536	69	4527
2026-01-08 22:07:50.23	60.45	17.56	-51.3	-53.3	14.8	0.00e+00	0	24	0	485490688	69	4362
2026-01-08 22:07:51.23	60.67	17.59	-51.3	-53.3	14.9	0.00e+00	0	24	0	486539264	69	4364
2026-01-08 22:07:52.23	60.90	17.63	-51.3	-53.2	14.9	0.00e+00	0	24	0	488636416	69	4323
2026-01-08 22:07:53.22	61.11	17.66	-51.4	-53.4	14.8	0.00e+00	0	24	0	490733568	69	4395
2026-01-08 22:07:54.23	61.34	17.69	-51.6	-53.6	14.7	0.00e+00	0	24	0	492830720	69	4519
2026-01-08 22:07:55.23	61.56	17.73	-51.8	-54.0	14.5	0.00e+00	0	24	0	494927872	69	4736
2026-01-08 22:07:56.24	61.79	17.76	-51.9	-54.1	14.5	0.00e+00	0	24	0	495976448	69	4781
2026-01-08 22:07:57.24	62.01	17.79	-52.0	-54.2	14.4	0.00e+00	0	24	0	498073600	69	4832
2026-01-08 22:07:58.23	62.23	17.82	-51.9	-54.1	14.4	0.00e+00	0	24	0	500170752	69	4813
2026-01-08 22:07:59.23	62.46	17.85	-51.7	-53.8	14.6	0.00e+00	0	24	0	502267904	69	4627
2026-01-08 22:08:00.22	62.68	17.88	-51.7	-53.8	14.6	0.00e+00	0	24	0	503316480	69	4619
2026-01-08 22:08:01.23	62.91	17.91	-51.5	-53.6	14.7	0.00e+00	0	24	0	505413632	69	4515
2026-01-08 22:08:02.23	63.13	17.94	-51.5	-53.6	14.7	0.00e+00	0	24	0	507510784	69	4510
2026-01-08 22:08:03.22	63.36	17.97	-51.4	-53.5	14.8	0.00e+00	0	24	0	509607936	69	4448
2026-01-08 22:08:04.22	63.58	18.00	-51.4	-53.5	14.8	0.00e+00	0	24	0	511705088	69	4443
2026-01-08 22:08:05.23	63.81	18.03	-51.1	-53.0	14.9	0.00e+00	0	24	0	512753664	68	4460
2026-01-08 22:08:06.23	64.04	18.06	-51.0	-52.8	14.9	0.00e+00	0	24	0	514850816	68	4380
2026-01-08 22:08:07.23	64.27	18.09	-51.0	-52.9	14.9	0.00e+00	0	24	0	516947968	68	4399
2026-01-08 22:08:08.22	64.50	18.11	-51.0	-52.9	14.9	0.00e+00	0	24	0	519045120	68	4439
2026-01-08 22:08:09.22	64.72	18.14	-51.3	-53.3	14.7	0.00e+00	0	24	0	521142272	68	4607
2026-01-08 22:08:10.23	64.96	18.17	-51.4	-53.4	14.7	0.00e+00	0	24	0	522190848	68	4673
2026-01-08 22:08:11.23	65.19	18.19	-51.4	-53.4	14.6	0.00e+00	0	24	0	524288000	68	4682
2026-01-08 22:08:12.23	65.42	18.22	-51.3	-53.2	14.7	0.00e+00	0	24	0	526385152	68	4590
2026-01-08 22:08:13.23	65.65	18.25	-51.1	-53.0	14.8	0.00e+00	0	24	0	528482304	68	4473
2026-01-08 22:08:14.23	65.88	18.27	-51.0	-52.8	14.9	0.00e+00	0	24	0	529530880	68	4386
2026-01-08 22:08:15.23	66.11	18.29	-51.0	-52.8	14.9	0.00e+00	0	24	0	531628032	68	4381
2026-01-08 22:08:16.23	66.34	18.32	-51.1	-53.0	14.8	0.00e+00	0	24	0	533725184	68	4471
2026-01-08 22:08:17.22	66.57	18.34	-51.4	-53.4	14.6	0.00e+00	0	24	0	535822336	68	4668
2026-01-08 22:08:18.22	66.80	18.37	-51.5	-53.6	14.5	0.00e+00	0	24	0	537919488	68	4798
2026-01-08 22:08:19.22	67.03	18.39	-51.9	-54.1	14.3	0.00e+00	0	24	0	538968064	68	5071
2026-01-08 22:08:20.22	67.27	18.41	-51.8	-53.9	14.5	0.00e+00	0	24	0	541065216	69	4695
2026-01-08 22:08:21.22	67.50	18.43	-51.7	-53.8	14.6	0.00e+00	0	24	0	543162368	69	4637
2026-01-08 22:08:22.22	67.73	18.45	-51.6	-53.7	14.7	0.00e+00	0	24	0	545259520	69	4557
2026-01-08 22:08:23.22	67.97	18.48	-51.6	-53.6	14.7	0.00e+00	0	24	0	547356672	69	4518
2026-01-08 22:08:24.22	68.20	18.50	-51.7	-53.8	14.6	0.00e+00	0	24	0	548405248	69	4604
2026-01-08 22:08:25.22	68.44	18.52	-51.9	-54.1	14.4	0.00e+00	0	24	0	550502400	69	4780
2026-01-08 22:08:26.22	68.67	18.54	-52.0	-54.2	14.3	0.00e+00	0	24	0	552599552	69	4858
2026-01-08 22:08:27.21	68.90	18.55	-52.0	-54.2	14.4	0.00e+00	0	24	0	554696704	69	4850
2026-01-08 22:08:28.21	69.14	18.57	-52.0	-54.2	14.4	0.00e+00	0	24	0	556793856	69	4832
2026-01-08 22:08:29.20	69.37	18.59	-51.9	-54.1	14.5	0.00e+00	0	24	0	557842432	69	4763
2026-01-08 22:08:30.21	69.61	18.61	-51.9	-54.0	14.5	0.00e+00	0	24	0	559939584	69	4726
2026-01-08 22:08:31.20	69.85	18.63	-51.9	-54.0	14.5	0.00e+00	0	24	0	562036736	69	4759
2026-01-08 22:08:32.20	70.08	18.64	-51.9	-54.1	14.4	0.00e+00	0	24	0	564133888	69	4786
2026-01-08 22:08:33.21	70.32	18.66	-52.2	-54.5	14.2	0.00e+00	0	24	0	565182464	69	5017
2026-01-08 22:08:34.21	70.56	18.68	-52.4	-54.8	14.2	0.00e+00	0	24	0	567279616	70	4888
2026-01-08 22:08:35.20	70.79	18.69	-52.5	-54.8	14.2	0.00e+00	0	24	0	569376768	70	4919
2026-01-08 22:08:36.20	71.03	18.71	-52.4	-54.8	14.2	0.00e+00	0	24	0	571473920	70	4887
2026-01-08 22:08:37.19	71.27	18.72	-52.3	-54.6	14.3	0.00e+00	0	24	0	573571072	70	4789
2026-01-08 22:08:38.19	71.50	18.74	-52.2	-54.4	14.4	0.00e+00	0	24	0	574619648	70	4700
2026-01-08 22:08:39.19	71.74	18.75	-52.2	-54.4	14.4	0.00e+00	0	24	0	576716800	70	4676
2026-01-08 22:08:40.19	71.98	18.76	-52.2	-54.5	14.4	0.00e+00	0	24	0	578813952	70	4727
2026-01-08 22:08:41.19	72.22	18.78	-52.2	-54.4	14.4	0.00e+00	0	24	0	580911104	70	4678
2026-01-08 22:08:42.19	72.46	18.79	-52.1	-54.4	14.5	0.00e+00	0	24	0	581959680	70	4665
2026-01-08 22:08:43.19	72.70	18.80	-52.1	-54.4	14.4	0.00e+00	0	24	0	584056832	70	4654
2026-01-08 22:08:44.18	72.93	18.81	-52.1	-54.3	14.5	0.00e+00	0	24	0	586153984	70	4625
2026-01-08 22:08:45.18	73.17	18.82	-52.0	-54.1	14.6	0.00e+00	0	24	0	588251136	70	4543
2026-01-08 22:08:46.19	73.41	18.83	-51.9	-54.1	14.6	0.00e+00	0	24	0	590348288	70	4494
2026-01-08 22:08:47.19	73.65	18.84	-52.0	-54.2	14.6	0.00e+00	0	24	0	591396864	70	4555
2026-01-08 22:08:48.18	73.89	18.85	-51.9	-54.0	14.6	0.00e+00	0	24	0	593494016	70	4449
2026-01-08 22:08:49.18	74.13	18.86	-52.1	-54.2	14.5	0.00e+00	0	24	0	595591168	70	4581
2026-01-08 22:08:50.19	74.37	18.87	-52.1	-54.3	14.5	0.00e+00	0	24	0	597688320	70	4620
2026-01-08 22:08:51.19	74.61	18.88	-52.0	-54.1	14.6	0.00e+00	0	24	0	599785472	70	4529
2026-01-08 22:08:52.19	74.85	18.88	-51.9	-54.0	14.6	0.00e+00	0	24	0	600834048	70	4486
2026-01-08 22:08:53.19	75.10	18.89	-51.9	-54.0	14.7	0.00e+00	0	24	0	602931200	70	4447
2026-01-08 22:08:54.19	75.34	18.90	-51.9	-54.0	14.7	0.00e+00	0	24	0	605028352	70	4463
2026-01-08 22:08:55.19	75.58	18.90	-52.0	-54.1	14.6	0.00e+00	0	24	0	607125504	70	4535
2026-01-08 22:08:56.19	75.82	18.91	-52.1	-54.3	14.5	0.00e+00	0	24	0	609222656	70	4641
2026-01-08 22:08:57.18	76.06	18.91	-52.2	-54.4	14.4	0.00e+00	0	24	0	610271232	70	4698
2026-01-08 22:08:58.18	76.30	18.92	-52.3	-54.6	14.4	0.00e+00	0	24	0	612368384	70	4769
2026-01-08 22:08:59.18	76.54	18.92	-52.6	-54.9	14.1	0.00e+00	0	24	0	614465536	70	4983
2026-01-08 22:09:00.17	76.78	18.93	-52.4	-54.7	14.3	0.00e+00	0	24	0	616562688	70	4857
2026-01-08 22:09:01.16	77.01	18.93	-52.5	-54.9	14.2	0.00e+00	0	24	0	617611264	70	4934
2026-01-08 22:09:02.16	77.26	18.93	-52.6	-55.0	14.1	0.00e+00	0	24	0	619708416	70	4987
2026-01-08 22:09:03.16	77.50	18.93	-52.6	-55.0	14.1	0.00e+00	0	24	0	621805568	70	5037
2026-01-08 22:09:04.16	77.74	18.94	-52.5	-55.0	14.1	0.00e+00	0	24	0	623902720	70	5023
2026-01-08 22:09:05.16	77.98	18.94	-52.5	-55.0	14.1	0.00e+00	0	24	0	625999872	70	5030
2026-01-08 22:09:06.16	78.22	18.94	-52.5	-55.0	14.0	0.00e+00	0	24	0	627048448	70	5033
2026-01-08 22:09:07.16	78.46	18.94	-52.3	-54.6	14.3	0.00e+00	0	24	0	629145600	70	4807
2026-01-08 22:09:08.16	78.70	18.94	-52.2	-54.5	14.4	0.00e+00	0	24	0	631242752	70	4745
2026-01-08 22:09:09.16	78.94	18.94	-52.0	-54.3	14.5	0.00e+00	0	24	0	633339904	70	4608
2026-01-08 22:09:10.15	79.18	18.94	-51.8	-53.9	14.7	0.00e+00	0	24	0	635437056	70	4439
2026-01-08 22:09:11.15	79.42	18.93	-51.8	-54.0	14.6	0.00e+00	0	24	0	636485632	70	4489
2026-01-08 22:09:12.14	79.66	18.93	-52.0	-54.3	14.5	0.00e+00	0	24	0	638582784	70	4612
2026-01-08 22:09:13.13	79.90	18.93	-52.1	-54.5	14.4	0.00e+00	0	24	0	640679936	70	4730
2026-01-08 22:09:14.13	80.14	18.92	-52.2	-54.6	14.3	0.00e+00	0	24	0	642777088	70	4814
2026-01-08 22:09:15.12	80.38	18.92	-52.2	-54.6	14.3	0.00e+00	0	24	0	643825664	70	4798
2026-01-08 22:09:16.12	80.62	18.92	-52.3	-54.8	14.2	0.00e+00	0	24	0	645922816	70	4878
2026-01-08 22:09:17.11	80.86	18.91	-52.3	-54.7	14.2	0.00e+00	0	24	0	648019968	70	4855
2026-01-08 22:09:18.10	81.10	18.91	-52.2	-54.7	14.3	0.00e+00	0	24	0	650117120	70	4824
2026-01-08 22:09:19.09	81.34	18.90	-52.4	-54.9	14.2	0.00e+00	0	24	0	651165696	70	4955
2026-01-08 22:09:20.09	81.58	18.89	-52.4	-54.9	14.1	0.00e+00	0	24	0	653262848	70	4935
2026-01-08 22:09:21.08	81.82	18.89	-52.4	-54.9	14.2	0.00e+00	0	24	0	655360000	70	4945
2026-01-08 22:09:22.08	82.06	18.88	-52.2	-54.7	14.3	0.00e+00	0	24	0	657457152	70	4831
2026-01-08 22:09:23.08	82.30	18.87	-52.2	-54.6	14.3	0.00e+00	0	24	0	659554304	70	4792
2026-01-08 22:09:24.07	82.54	18.87	-52.2	-54.7	14.3	0.00e+00	0	24	0	660602880	70	4826
2026-01-08 22:09:25.06	82.77	18.86	-52.4	-54.9	14.2	0.00e+00	0	24	0	662700032	70	4937
2026-01-08 22:09:26.07	83.02	18.85	-52.4	-54.9	14.1	0.00e+00	0	24	0	664797184	70	4931
2026-01-08 22:09:27.07	83.26	18.84	-52.3	-54.8	14.2	0.00e+00	0	24	0	666894336	70	4891
2026-01-08 22:09:28.07	83.50	18.83	-52.3	-54.7	14.3	0.00e+00	0	24	0	668991488	70	4862
2026-01-08 22:09:29.07	83.74	18.82	-52.3	-54.7	14.3	0.00e+00	0	24	0	670040064	70	4853
2026-01-08 22:09:30.06	83.97	18.81	-52.1	-54.5	14.3	0.00e+00	0	24	0	672137216	70	4724
2026-01-08 22:09:31.04	84.21	18.79	-52.0	-54.2	14.5	0.00e+00	0	24	0	674234368	70	4585
2026-01-08 22:09:32.04	84.45	18.78	-51.9	-54.1	14.6	0.00e+00	0	24	0	676331520	70	4500
2026-01-08 22:09:33.04	84.69	18.77	-51.6	-53.8	14.7	0.00e+00	0	24	0	677380096	69	4609
2026-01-08 22:09:34.03	84.92	18.76	-51.5	-53.6	14.7	0.00e+00	0	24	0	679477248	69	4531
2026-01-08 22:09:35.04	85.16	18.74	-51.5	-53.6	14.7	0.00e+00	0	24	0	681574400	69	4529
2026-01-08 22:09:36.03	85.40	18.73	-51.5	-53.6	14.6	0.00e+00	0	24	0	683671552	69	4542
2026-01-08 22:09:37.03	85.64	18.71	-51.6	-53.8	14.6	0.00e+00	0	24	0	685768704	69	4609
2026-01-08 22:09:38.03	85.87	18.70	-51.8	-54.0	14.4	0.00e+00	0	24	0	686817280	69	4752
2026-01-08 22:09:39.03	86.11	18.68	-51.9	-54.2	14.4	0.00e+00	0	24	0	688914432	69	4819
2026-01-08 22:09:40.04	86.35	18.67	-52.0	-54.4	14.3	0.00e+00	0	24	0	691011584	69	4972
2026-01-08 22:09:41.04	86.59	18.65	-52.1	-54.5	14.2	0.00e+00	0	24	0	693108736	69	5008
2026-01-08 22:09:42.03	86.82	18.64	-52.1	-54.5	14.2	0.00e+00	0	24	0	694157312	69	5002
2026-01-08 22:09:43.04	87.06	18.62	-52.1	-54.5	14.2	0.00e+00	0	24	0	696254464	69	5029
2026-01-08 22:09:44.03	87.30	18.60	-52.1	-54.4	14.2	0.00e+00	0	24	0	698351616	69	4982
2026-01-08 22:09:45.03	87.53	18.58	-52.1	-54.6	14.2	0.00e+00	0	24	0	700448768	69	5064
2026-01-08 22:09:46.03	87.77	18.56	-52.1	-54.5	14.2	0.00e+00	0	24	0	702545920	69	5020
2026-01-08 22:09:47.03	88.00	18.54	-52.1	-54.5	14.2	0.00e+00	0	24	0	703594496	69	5028
2026-01-08 22:09:48.02	88.24	18.53	-52.1	-54.4	14.2	0.00e+00	0	24	0	705691648	69	4980
2026-01-08 22:09:49.02	88.47	18.51	-51.9	-54.3	14.3	0.00e+00	0	24	0	707788800	69	4878
2026-01-08 22:09:50.01	88.70	18.49	-51.8	-54.0	14.3	0.00e+00	0	24	0	709885952	69	4743
2026-01-08 22:09:51.02	88.94	18.46	-51.8	-53.9	14.5	0.00e+00	0	24	0	711983104	69	4705
2026-01-08 22:09:52.02	89.18	18.44	-51.8	-54.0	14.4	0.00e+00	0	24	0	713031680	69	4751
2026-01-08 22:09:53.02	89.41	18.42	-51.9	-54.1	14.4	0.00e+00	0	24	0	715128832	69	4778
2026-01-08 22:09:54.01	89.64	18.40	-52.0	-54.3	14.3	0.00e+00	0	24	0	717225984	69	4911
2026-01-08 22:09:55.01	89.87	18.38	-52.3	-54.7	14.1	0.00e+00	0	24	0	719323136	69	5118
2026-01-08 22:09:56.01	90.11	18.35	-52.5	-55.0	14.1	0.00e+00	0	24	0	721420288	70	5004
2026-01-08 22:09:57.00	90.34	18.33	-52.5	-55.0	14.0	0.00e+00	0	24	0	722468864	70	5030
2026-01-08 22:09:58.01	90.57	18.31	-52.4	-54.9	14.1	0.00e+00	0	24	0	724566016	70	4932
2026-01-08 22:09:59.01	90.80	18.28	-52.2	-54.6	14.3	0.00e+00	0	24	0	726663168	70	4762
2026-01-08 22:10:00.00	91.03	18.26	-51.8	-53.9	14.7	0.00e+00	0	24	0	728760320	70	4440
2026-01-08 22:10:01.00	91.26	18.23	-51.6	-53.7	14.7	0.00e+00	0	24	0	729808896	69	4564
2026-01-08 22:10:02.00	91.49	18.21	-51.6	-53.6	14.7	0.00e+00	0	24	0	731906048	69	4525
2026-01-08 22:10:03.00	91.72	18.18	-51.6	-53.7	14.6	0.00e+00	0	24	0	734003200	69	4584
2026-01-08 22:10:04.00	91.95	18.15	-51.8	-54.0	14.5	0.00e+00	0	24	0	736100352	69	4714
2026-01-08 22:10:05.00	92.18	18.13	-52.0	-54.3	14.3	0.00e+00	0	24	0	738197504	69	4891
2026-01-08 22:10:06.00	92.41	18.10	-52.0	-54.2	14.4	0.00e+00	0	24	0	739246080	69	4855
2026-01-08 22:10:07.00	92.64	18.07	-51.8	-54.0	14.5	0.00e+00	0	24	0	741343232	69	4714
2026-01-08 22:10:08.00	92.87	18.04	-51.9	-54.0	14.4	0.00e+00	0	24	0	743440384	69	4759
2026-01-08 22:10:09.00	93.10	18.02	-51.6	-53.6	14.7	0.00e+00	0	24	0	745537536	69	4539
2026-01-08 22:10:10.00	93.32	17.99	-51.5	-53.5	14.8	0.00e+00	0	24	0	746586112	69	4463
2026-01-08 22:10:11.00	93.55	17.96	-51.3	-53.3	14.9	0.00e+00	0	24	0	748683264	69	4371
2026-01-08 22:10:12.00	93.78	17.93	-51.3	-53.3	14.7	0.00e+00	0	24	0	750780416	68	4609
2026-01-08 22:10:13.00	94.00	17.90	-51.4	-53.4	14.7	0.00e+00	0	24	0	752877568	68	4657
2026-01-08 22:10:13.99	94.23	17.87	-51.5	-53.5	14.6	0.00e+00	0	24	0	754974720	68	4755
2026-01-08 22:10:14.99	94.45	17.84	-51.6	-53.7	14.5	0.00e+00	0	24	0	756023296	68	4817
2026-01-08 22:10:15.99	94.68	17.80	-51.6	-53.7	14.5	0.00e+00	0	24	0	758120448	68	4839
2026-01-08 22:10:16.98	94.90	17.77	-51.5	-53.5	14.6	0.00e+00	0	24	0	760217600	68	4742
2026-01-08 22:10:17.98	95.12	17.74	-51.4	-53.4	14.6	0.00e+00	0	24	0	762314752	68	4702
2026-01-08 22:10:18.98	95.35	17.71	-51.3	-53.3	14.6	0.00e+00	0	24	0	764411904	68	4638
2026-01-08 22:10:19.98	95.57	17.68	-51.3	-53.2	14.7	0.00e+00	0	24	0	765460480	68	4579
2026-01-08 22:10:20.98	95.79	17.64	-51.3	-53.2	14.7	0.00e+00	0	24	0	767557632	68	4590
2026-01-08 22:10:21.98	96.01	17.61	-51.1	-53.0	14.8	0.00e+00	0	24	0	769654784	68	4456
2026-01-08 22:10:22.98	96.24	17.58	-51.2	-53.2	14.7	0.00e+00	0	24	0	771751936	68	4569
2026-01-08 22:10:23.97	96.45	17.54	-51.3	-53.3	14.7	0.00e+00	0	24	0	772800512	68	4613
2026-01-08 22:10:24.98	96.68	17.51	-51.4	-53.4	14.6	0.00e+00	0	24	0	774897664	68	4705
2026-01-08 22:10:25.97	96.90	17.47	-51.5	-53.6	14.6	0.00e+00	0	24	0	776994816	68	4768
2026-01-08 22:10:26.97	97.11	17.44	-51.4	-53.5	14.6	0.00e+00	0	24	0	779091968	68	4723
2026-01-08 22:10:27.97	97.33	17.40	-51.5	-53.6	14.6	0.00e+00	0	24	0	781189120	68	4771
2026-01-08 22:10:28.96	97.55	17.37	-51.4	-53.5	14.6	0.00e+00	0	24	0	782237696	68	4746
2026-01-08 22:10:29.95	97.77	17.33	-51.8	-54.0	14.3	0.00e+00	0	24	0	784334848	68	5003
2026-01-08 22:10:30.94	97.98	17.29	-51.7	-53.9	14.4	0.00e+00	0	24	0	786432000	68	4963
2026-01-08 22:10:31.94	98.20	17.26	-51.7	-54.0	14.3	0.00e+00	0	24	0	788529152	68	5003
2026-01-08 22:10:32.94	98.42	17.22	-51.7	-53.9	14.4	0.00e+00	0	24	0	790626304	68	4948
2026-01-08 22:10:33.94	98.63	17.18	-51.5	-53.7	14.5	0.00e+00	0	24	0	791674880	68	4837
2026-01-08 22:10:34.94	98.85	17.14	-51.5	-53.7	14.5	0.00e+00	0	24	0	793772032	68	4838
2026-01-08 22:10:35.93	99.06	17.10	-51.4	-53.6	14.6	0.00e+00	0	24	0	795869184	68	4761
2026-01-08 22:10:36.93	99.27	17.07	-51.6	-53.7	14.5	0.00e+00	0	24	0	797966336	68	4845
2026-01-08 22:10:37.94	99.49	17.03	-51.5	-53.7	14.5	0.00e+00	0	24	0	799014912	68	4831
2026-01-08 22:10:38.94	99.70	16.99	-51.6	-53.8	14.4	0.00e+00	0	24	0	801112064	68	4894
2026-01-08 22:10:39.94	99.92	16.95	-51.8	-54.1	14.3	0.00e+00	0	24	0	803209216	68	5047
2026-01-08 22:10:40.94	100.13	16.91	-51.7	-53.9	14.4	0.00e+00	0	24	0	805306368	68	4976
2026-01-08 22:10:41.94	100.34	16.87	-51.5	-53.7	14.5	0.00e+00	0	24	0	807403520	68	4833
2026-01-08 22:10:42.94	100.55	16.83	-51.4	-53.5	14.6	0.00e+00	0	24	0	808452096	68	4748
2026-01-08 22:10:43.94	100.76	16.79	-51.5	-53.6	14.5	0.00e+00	0	24	0	810549248	68	4798
2026-01-08 22:10:44.93	100.97	16.75	-51.8	-54.0	14.3	0.00e+00	0	24	0	812646400	68	5019
2026-01-08 22:10:45.94	101.18	16.70	-52.0	-54.3	14.3	0.00e+00	0	24	0	814743552	69	4895
2026-01-08 22:10:46.94	101.39	16.66	-52.2	-54.7	14.1	0.00e+00	0	24	0	816840704	69	5113
2026-01-08 22:10:47.94	101.60	16.62	-52.6	-55.2	14.0	0.00e+00	0	24	0	817889280	70	5112
2026-01-08 22:10:48.95	101.81	16.58	-52.3	-54.8	14.2	0.00e+00	0	24	0	819986432	70	4891
2026-01-08 22:10:49.95	102.02	16.53	-52.4	-54.9	14.1	0.00e+00	0	24	0	822083584	70	4949
2026-01-08 22:10:50.94	102.22	16.49	-52.1	-54.5	14.3	0.00e+00	0	24	0	824180736	70	4728
2026-01-08 22:10:51.94	102.43	16.45	-52.1	-54.6	14.3	0.00e+00	0	24	0	825229312	70	4774
2026-01-08 22:10:52.94	102.63	16.41	-51.9	-54.2	14.5	0.00e+00	0	24	0	827326464	70	4574
2026-01-08 22:10:53.93	102.84	16.36	-51.8	-54.1	14.5	0.00e+00	0	24	0	829423616	70	4544
2026-01-08 22:10:54.93	103.04	16.32	-51.6	-53.9	14.5	0.00e+00	0	24	0	831520768	69	4665
2026-01-08 22:10:55.93	103.24	16.27	-51.4	-53.7	14.6	0.00e+00	0	24	0	833617920	69	4569
2026-01-08 22:10:56.93	103.45	16.23	-51.4	-53.7	14.6	0.00e+00	0	24	0	834666496	69	4550
2026-01-08 22:10:57.93	103.65	16.18	-51.3	-53.5	14.7	0.00e+00	0	24	0	836763648	69	4461
2026-01-08 22:10:58.94	103.85	16.14	-51.3	-53.4	14.8	0.00e+00	0	24	0	838860800	69	4427
2026-01-08 22:10:59.95	104.06	16.09	-51.4	-53.6	14.7	0.00e+00	0	24	0	840957952	69	4542
2026-01-08 22:11:00.94	104.26	16.05	-51.4	-53.5	14.7	0.00e+00	0	24	0	843055104	69	4493
2026-01-08 22:11:01.94	104.46	16.00	-51.4	-53.6	14.7	0.00e+00	0	24	0	844103680	69	4539
2026-01-08 22:11:02.94	104.66	15.96	-51.7	-54.0	14.5	0.00e+00	0	24	0	846200832	69	4713
2026-01-08 22:11:03.94	104.86	15.91	-52.0	-54.4	14.2	0.00e+00	0	24	0	848297984	69	4958
2026-01-08 22:11:04.94	105.05	15.86	-52.3	-54.8	14.0	0.00e+00	0	24	0	850395136	69	5213
2026-01-08 22:11:05.94	105.25	15.82	-52.5	-55.2	14.0	0.00e+00	0	24	0	852492288	70	5130
2026-01-08 22:11:06.94	105.45	15.77	-52.7	-55.5	13.7	0.00e+00	0	24	0	853540864	70	5330
2026-01-08 22:11:07.94	105.65	15.72	-52.8	-55.6	13.7	0.00e+00	0	24	0	855638016	70	5397
2026-01-08 22:11:08.94	105.84	15.68	-53.1	-56.1	13.6	0.00e+00	0	24	0	857735168	71	5376
2026-01-08 22:11:09.94	106.04	15.63	-52.9	-55.8	13.8	0.00e+00	0	24	0	859832320	71	5163
2026-01-08 22:11:10.94	106.23	15.58	-52.8	-55.7	13.9	0.00e+00	0	24	0	860880896	71	5104
2026-01-08 22:11:11.94	106.43	15.53	-52.6	-55.3	14.0	0.00e+00	0	24	0	862978048	71	4916
2026-01-08 22:11:12.95	106.62	15.48	-52.3	-54.8	14.3	0.00e+00	0	24	0	865075200	71	4622
2026-01-08 22:11:13.95	106.82	15.44	-52.1	-54.6	14.3	0.00e+00	0	24	0	867172352	70	4768
2026-01-08 22:11:14.95	107.01	15.39	-52.1	-54.5	14.3	0.00e+00	0	24	0	869269504	70	4754
2026-01-08 22:11:15.95	107.20	15.34	-51.9	-54.3	14.4	0.00e+00	0	24	0	870318080	70	4640
2026-01-08 22:11:16.95	107.39	15.29	-51.7	-54.0	14.6	0.00e+00	0	24	0	872415232	70	4469
2026-01-08 22:11:17.94	107.58	15.24	-51.4	-53.7	14.6	0.00e+00	0	24	0	874512384	69	4559
2026-01-08 22:11:18.95	107.77	15.19	-51.5	-53.8	14.6	0.00e+00	0	24	0	876609536	69	4618
2026-01-08 22:11:19.95	107.96	15.14	-51.6	-53.8	14.5	0.00e+00	0	24	0	878706688	69	4640
2026-01-08 22:11:20.94	108.15	15.09	-51.8	-54.2	14.4	0.00e+00	0	24	0	879755264	69	4815
2026-01-08 22:11:21.94	108.34	15.04	-52.0	-54.5	14.2	0.00e+00	0	24	0	881852416	69	5027
2026-01-08 22:11:22.94	108.53	14.99	-52.3	-54.9	14.0	0.00e+00	0	24	0	883949568	69	5254
2026-01-08 22:11:23.94	108.71	14.94	-52.6	-55.4	13.9	0.00e+00	0	24	0	886046720	70	5252
2026-01-08 22:11:24.93	108.90	14.89	-52.7	-55.5	13.8	0.00e+00	0	24	0	887095296	70	5302
2026-01-08 22:11:25.92	109.08	14.84	-52.8	-55.7	13.7	0.00e+00	0	24	0	889192448	70	5421
2026-01-08 22:11:26.93	109.27	14.79	-52.7	-55.5	13.8	0.00e+00	0	24	0	891289600	70	5317
2026-01-08 22:11:27.93	109.45	14.74	-52.4	-55.0	14.0	0.00e+00	0	24	0	893386752	70	5024
2026-01-08 22:11:28.93	109.64	14.69	-52.2	-54.7	14.2	0.00e+00	0	24	0	895483904	70	4858
2026-01-08 22:11:29.92	109.82	14.64	-52.1	-54.6	14.3	0.00e+00	0	24	0	896532480	70	4762
2026-01-08 22:11:30.92	110.00	14.58	-52.1	-54.5	14.3	0.00e+00	0	24	0	898629632	70	4748
2026-01-08 22:11:31.92	110.18	14.53	-52.3	-54.8	14.2	0.00e+00	0	24	0	900726784	70	4912
2026-01-08 22:11:32.92	110.36	14.48	-52.3	-54.8	14.2	0.00e+00	0	24	0	902823936	70	4891
2026-01-08 22:11:33.93	110.55	14.43	-52.4	-55.0	14.1	0.00e+00	0	24	0	904921088	70	5011
2026-01-08 22:11:34.93	110.73	14.38	-52.4	-54.9	14.1	0.00e+00	0	24	0	905969664	70	4942
2026-01-08 22:11:35.92	110.91	14.32	-52.4	-54.9	14.1	0.00e+00	0	24	0	908066816	70	4949
2026-01-08 22:11:36.93	111.09	14.27	-52.4	-54.9	14.1	0.00e+00	0	24	0	910163968	70	4929
2026-01-08 22:11:37.92	111.26	14.22	-52.4	-54.8	14.2	0.00e+00	0	24	0	912261120	70	4918
2026-01-08 22:11:38.92	111.44	14.17	-52.0	-54.3	14.3	0.00e+00	0	24	0	914358272	70	4644
2026-01-08 22:11:39.92	111.62	14.11	-52.1	-54.5	14.3	0.00e+00	0	24	0	915406848	70	4751
2026-01-08 22:11:40.92	111.79	14.06	-52.2	-54.7	14.2	0.00e+00	0	24	0	917504000	70	4820
2026-01-08 22:11:41.91	111.97	14.01	-52.2	-54.7	14.2	0.00e+00	0	24	0	919601152	70	4823
2026-01-08 22:11:42.92	112.15	13.95	-52.6	-55.2	13.9	0.00e+00	0	24	0	921698304	70	5138
2026-01-08 22:11:43.92	112.32	13.90	-52.5	-55.2	13.9	0.00e+00	0	24	0	922746880	70	5114
2026-01-08 22:11:44.92	112.50	13.85	-52.4	-55.1	14.0	0.00e+00	0	24	0	924844032	70	5043
2026-01-08 22:11:45.92	112.67	13.79	-52.2	-54.8	14.1	0.00e+00	0	24	0	926941184	70	4892
2026-01-08 22:11:46.92	112.84	13.74	-52.0	-54.5	14.3	0.00e+00	0	24	0	929038336	70	4711
2026-01-08 22:11:47.92	113.01	13.69	-52.0	-54.4	14.3	0.00e+00	0	24	0	931135488	70	4703
2026-01-08 22:11:48.92	113.19	13.63	-52.1	-54.5	14.3	0.00e+00	0	24	0	932184064	70	4718
2026-01-08 22:11:49.91	113.36	13.58	-52.2	-54.6	14.2	0.00e+00	0	24	0	934281216	70	4788
2026-01-08 22:11:50.92	113.53	13.52	-52.1	-54.5	14.3	0.00e+00	0	24	0	936378368	70	4737
2026-01-08 22:11:51.93	113.70	13.47	-52.3	-54.7	14.2	0.00e+00	0	24	0	938475520	70	4868
2026-01-08 22:11:52.92	113.87	13.42	-52.1	-54.5	14.3	0.00e+00	0	24	0	940572672	70	4737
2026-01-08 22:11:53.92	114.04	13.36	-52.2	-54.6	14.3	0.00e+00	0	24	0	941621248	70	4776
2026-01-08 22:11:54.92	114.20	13.31	-52.3	-54.7	14.2	0.00e+00	0	24	0	943718400	70	4845
2026-01-08 22:11:55.91	114.37	13.25	-52.3	-54.6	14.2	0.00e+00	0	24	0	945815552	70	4811
2026-01-08 22:11:56.91	114.54	13.20	-52.1	-54.4	14.4	0.00e+00	0	24	0	947912704	70	4663
2026-01-08 22:11:57.91	114.70	13.14	-52.1	-54.4	14.4	0.00e+00	0	24	0	948961280	70	4682
2026-01-08 22:11:58.92	114.87	13.09	-51.9	-54.2	14.5	0.00e+00	0	24	0	951058432	70	4586
2026-01-08 22:11:59.92	115.04	13.03	-52.1	-54.5	14.3	0.00e+00	0	24	0	953155584	70	4728
2026-01-08 22:12:00.92	115.20	12.98	-52.2	-54.6	14.2	0.00e+00	0	24	0	955252736	70	4779
2026-01-08 22:12:01.92	115.36	12.92	-52.1	-54.4	14.4	0.00e+00	0	24	0	957349888	70	4684
2026-01-08 22:12:02.91	115.53	12.87	-52.1	-54.4	14.4	0.00e+00	0	24	0	958398464	70	4668
2026-01-08 22:12:03.91	115.69	12.81	-52.1	-54.4	14.4	0.00e+00	0	24	0	960495616	70	4683
2026-01-08 22:12:04.91	115.85	12.75	-52.0	-54.3	14.4	0.00e+00	0	24	0	962592768	70	4640
2026-01-08 22:12:05.91	116.01	12.70	-52.0	-54.2	14.5	0.00e+00	0	24	0	964689920	70	4580
2026-01-08 22:12:06.92	116.17	12.64	-51.7	-53.8	14.7	0.00e+00	0	24	0	966787072	70	4389
2026-01-08 22:12:07.92	116.34	12.59	-51.6	-53.7	14.6	0.00e+00	0	24	0	967835648	69	4568
2026-01-08 22:12:08.92	116.50	12.53	-51.4	-53.5	14.7	0.00e+00	0	24	0	969932800	69	4475
2026-01-08 22:12:09.92	116.65	12.48	-51.2	-53.2	14.7	0.00e+00	0	24	0	972029952	68	4552
2026-01-08 22:12:10.91	116.81	12.42	-51.2	-53.2	14.7	0.00e+00	0	24	0	974127104	68	4573
2026-01-08 22:12:11.91	116.97	12.36	-51.1	-53.1	14.7	0.00e+00	0	24	0	976224256	68	4533
2026-01-08 22:12:12.91	117.13	12.31	-51.2	-53.2	14.6	0.00e+00	0	24	0	977272832	68	4587
2026-01-08 22:12:13.91	117.28	12.25	-51.5	-53.6	14.5	0.00e+00	0	24	0	979369984	68	4804
2026-01-08 22:12:14.91	117.44	12.20	-51.6	-53.9	14.3	0.00e+00	0	24	0	981467136	68	4931
2026-01-08 22:12:15.91	117.60	12.14	-51.8	-54.2	14.1	0.00e+00	0	24	0	983564288	68	5127
2026-01-08 22:12:16.91	117.75	12.08	-51.9	-54.3	14.3	0.00e+00	0	24	0	984612864	69	4881
2026-01-08 22:12:17.90	117.90	12.03	-51.9	-54.3	14.2	0.00e+00	0	24	0	986710016	69	4909
2026-01-08 22:12:18.91	118.06	11.97	-51.9	-54.3	14.2	0.00e+00	0	24	0	988807168	69	4901
2026-01-08 22:12:19.91	118.21	11.91	-51.8	-54.1	14.4	0.00e+00	0	24	0	990904320	69	4776
2026-01-08 22:12:20.92	118.37	11.86	-51.6	-53.8	14.5	0.00e+00	0	24	0	993001472	69	4611
2026-01-08 22:12:21.91	118.52	11.80	-51.5	-53.7	14.6	0.00e+00	0	24	0	994050048	69	4558
2026-01-08 22:12:22.91	118.67	11.74	-51.5	-53.7	14.6	0.00e+00	0	24	0	996147200	69	4562
2026-01-08 22:12:23.90	118.82	11.69	-51.5	-53.6	14.6	0.00e+00	0	24	0	998244352	69	4526
2026-01-08 22:12:24.89	118.97	11.63	-51.7	-53.9	14.5	0.00e+00	0	24	0	1000341504	69	4690
2026-01-08 22:12:25.89	119.12	11.57	-51.8	-53.7	14.5	0.00e+00	0	24	0	1001390080	69	4591
2026-01-08 22:12:26.89	119.27	11.52	-52.0	-54.0	14.4	0.00e+00	0	24	0	1003487232	69	4723
2026-01-08 22:12:27.89	119.42	11.46	-52.0	-54.0	14.4	0.00e+00	0	24	0	1005584384	69	4711
2026-01-08 22:12:28.88	119.57	11.40	-52.1	-54.2	14.3	0.00e+00	0	24	0	1007681536	69	4833
2026-01-08 22:12:29.87	119.71	11.35	-52.2	-54.3	14.2	0.00e+00	0	24	0	1009778688	69	4893
2026-01-08 22:12:30.87	119.86	11.29	-52.2	-54.3	14.3	0.00e+00	0	24	0	1010827264	69	4874
2026-01-08 22:12:31.87	120.01	11.23	-52.1	-54.1	14.3	0.00e+00	0	24	0	1012924416	69	4809
2026-01-08 22:12:32.86	120.15	11.18	-52.0	-54.0	14.4	0.00e+00	0	24	0	1015021568	69	4728
2026-01-08 22:12:33.86	120.30	11.12	-51.9	-53.9	14.4	0.00e+00	0	24	0	1017118720	69	4687
2026-01-08 22:12:34.86	120.44	11.06	-51.8	-53.8	14.5	0.00e+00	0	24	0	1019215872	69	4643
2026-01-08 22:12:35.86	120.59	11.01	-51.9	-53.8	14.5	0.00e+00	0	24	0	1020264448	69	4651
2026-01-08 22:12:36.85	120.73	10.95	-52.1	-54.1	14.3	0.00e+00	0	24	0	1022361600	69	4798
2026-01-08 22:12:37.84	120.87	10.89	-52.2	-54.4	14.2	0.00e+00	0	24	0	1024458752	69	4938
2026-01-08 22:12:38.83	121.01	10.84	-52.4	-54.6	14.1	0.00e+00	0	24	0	1026555904	69	5054
2026-01-08 22:12:39.83	121.15	10.78	-52.6	-54.9	14.1	0.00e+00	0	24	0	1027604480	70	4945
2026-01-08 22:12:40.83	121.30	10.72	-52.7	-55.1	13.9	0.00e+00	0	24	0	1029701632	70	5044
2026-01-08 22:12:41.84	121.44	10.66	-52.8	-55.2	13.9	0.00e+00	0	24	0	1031798784	70	5145
2026-01-08 22:12:42.84	121.58	10.61	-52.8	-55.1	13.9	0.00e+00	0	24	0	1033895936	70	5095
2026-01-08 22:12:43.84	121.72	10.55	-52.7	-55.1	13.9	0.00e+00	0	24	0	1035993088	70	5043
2026-01-08 22:12:44.84	121.86	10.49	-52.6	-54.9	14.1	0.00e+00	0	24	0	1037041664	70	4931
2026-01-08 22:12:45.84	122.00	10.43	-52.6	-54.8	14.1	0.00e+00	0	24	0	1039138816	70	4909
2026-01-08 22:12:46.85	122.14	10.38	-52.6	-54.8	14.1	0.00e+00	0	24	0	1041235968	70	4915
2026-01-08 22:12:47.84	122.28	10.32	-52.4	-54.6	14.2	0.00e+00	0	24	0	1043333120	70	4782
2026-01-08 22:12:48.84	122.41	10.26	-52.3	-54.4	14.3	0.00e+00	0	24	0	1045430272	70	4677
2026-01-08 22:12:49.84	122.55	10.20	-52.4	-54.7	14.2	0.00e+00	0	24	0	1046478848	70	4816
2026-01-08 22:12:50.84	122.69	10.15	-52.5	-54.8	14.1	0.00e+00	0	24	0	1048576000	70	4879
2026-01-08 22:12:51.84	122.82	10.09	-52.4	-54.6	14.2	0.00e+00	0	24	0	1050673152	70	4793
2026-01-08 22:12:52.83	122.96	10.03	-52.5	-54.8	14.1	0.00e+00	0	24	0	1052770304	70	4913
2026-01-08 22:12:53.84	123.10	9.97	-52.5	-54.8	14.1	0.00e+00	0	24	0	1053818880	70	4898
2026-01-08 22:12:54.84	123.23	9.92	-52.5	-54.8	14.1	0.00e+00	0	24	0	1055916032	70	4899
2026-01-08 22:12:55.84	123.36	9.86	-52.4	-54.6	14.2	0.00e+00	0	24	0	1058013184	70	4778
2026-01-08 22:12:56.84	123.50	9.80	-52.3	-54.5	14.2	0.00e+00	0	24	0	1060110336	70	4736
2026-01-08 22:12:57.83	123.63	9.74	-52.3	-54.4	14.3	0.00e+00	0	24	0	1062207488	70	4692
2026-01-08 22:12:58.83	123.76	9.69	-52.3	-54.5	14.3	0.00e+00	0	24	0	1063256064	70	4707
2026-01-08 22:12:59.82	123.89	9.63	-52.2	-54.3	14.3	0.00e+00	0	24	0	1065353216	70	4640
2026-01-08 22:13:00.82	124.02	9.57	-52.3	-54.5	14.2	0.00e+00	0	24	0	1067450368	70	4732
2026-01-08 22:13:01.82	124.16	9.52	-52.4	-54.6	14.2	0.00e+00	0	24	0	1069547520	70	4794
2026-01-08 22:13:02.82	124.29	9.46	-52.6	-54.9	14.0	0.00e+00	0	24	0	1071644672	70	4927
2026-01-08 22:13:03.82	124.42	9.40	-52.8	-55.2	13.8	0.00e+00	0	24	0	1072693248	70	5108
2026-01-08 22:13:04.82	124.55	9.34	-52.7	-55.0	13.9	0.00e+00	0	24	0	1074790400	70	5040
2026-01-08 22:13:05.82	124.67	9.29	-52.7	-55.1	13.9	0.00e+00	0	24	0	1076887552	70	5089
2026-01-08 22:13:06.82	124.80	9.23	-52.7	-55.0	13.9	0.00e+00	0	24	0	1078984704	70	5034
2026-01-08 22:13:07.82	124.93	9.17	-52.7	-55.1	13.9	0.00e+00	0	24	0	1080033280	70	5047
2026-01-08 22:13:08.81	125.06	9.11	-52.5	-54.8	14.1	0.00e+00	0	24	0	1082130432	70	4887
2026-01-08 22:13:09.82	125.19	9.06	-52.5	-54.8	14.0	0.00e+00	0	24	0	1084227584	70	4913
2026-01-08 22:13:10.82	125.31	9.00	-52.5	-54.8	14.0	0.00e+00	0	24	0	1086324736	70	4914
2026-01-08 22:13:11.82	125.44	8.94	-52.3	-54.5	14.2	0.00e+00	0	24	0	1088421888	70	4742
2026-01-08 22:13:12.82	125.56	8.88	-52.4	-54.7	14.1	0.00e+00	0	24	0	1089470464	70	4829
2026-01-08 22:13:13.82	125.69	8.83	-52.4	-54.7	14.1	0.00e+00	0	24	0	1091567616	70	4838
2026-01-08 22:13:14.82	125.82	8.77	-52.6	-54.9	14.0	0.00e+00	0	24	0	1093664768	70	4946
2026-01-08 22:13:15.82	125.94	8.71	-52.7	-55.0	13.9	0.00e+00	0	24	0	1095761920	70	5040
2026-01-08 22:13:16.82	126.06	8.66	-52.8	-55.2	13.8	0.00e+00	0	24	0	1097859072	70	5158
2026-01-08 22:13:17.82	126.19	8.60	-53.0	-55.5	13.7	0.00e+00	0	24	0	1098907648	71	5026
2026-01-08 22:13:18.83	126.31	8.54	-53.0	-55.5	13.8	0.00e+00	0	24	0	1101004800	71	4992
2026-01-08 22:13:19.83	126.43	8.48	-53.0	-55.6	13.7	0.00e+00	0	24	0	1103101952	71	5051
2026-01-08 22:13:20.83	126.56	8.43	-52.9	-55.4	13.8	0.00e+00	0	24	0	1105199104	71	4937
2026-01-08 22:13:21.83	126.68	8.37	-52.8	-55.2	13.9	0.00e+00	0	24	0	1107296256	71	4865
2026-01-08 22:13:22.83	126.80	8.31	-52.7	-55.1	14.0	0.00e+00	0	24	0	1108344832	71	4774
2026-01-08 22:13:23.83	126.92	8.25	-52.7	-55.1	13.9	0.00e+00	0	24	0	1110441984	71	4811
2026-01-08 22:13:24.83	127.04	8.20	-52.6	-54.9	14.1	0.00e+00	0	24	0	1112539136	71	4685
2026-01-08 22:13:25.82	127.16	8.14	-52.3	-54.5	14.4	0.00e+00	0	24	0	1114636288	71	4451
2026-01-08 22:13:26.82	127.28	8.08	-52.0	-54.1	14.4	0.00e+00	0	24	0	1115684864	70	4534
2026-01-08 22:13:27.82	127.40	8.03	-52.0	-54.2	14.4	0.00e+00	0	24	0	1117782016	70	4551
2026-01-08 22:13:28.81	127.51	7.97	-51.9	-53.9	14.5	0.00e+00	0	24	0	1119879168	70	4441
2026-01-08 22:13:29.81	127.63	7.91	-52.0	-54.1	14.4	0.00e+00	0	24	0	1121976320	70	4526
2026-01-08 22:13:30.81	127.75	7.86	-52.0	-54.1	14.4	0.00e+00	0	24	0	1124073472	70	4524
2026-01-08 22:13:31.80	127.86	7.80	-52.4	-54.7	14.1	0.00e+00	0	24	0	1125122048	70	4819
2026-01-08 22:13:32.79	127.98	7.74	-52.4	-54.7	14.1	0.00e+00	0	24	0	1127219200	70	4821
2026-01-08 22:13:33.79	128.10	7.69	-52.6	-55.0	13.9	0.00e+00	0	24	0	1129316352	70	5013
2026-01-08 22:13:34.79	128.21	7.63	-52.8	-55.3	13.7	0.00e+00	0	24	0	1131413504	70	5204
2026-01-08 22:13:35.78	128.33	7.57	-52.9	-55.4	13.7	0.00e+00	0	24	0	1132462080	71	4982
2026-01-08 22:13:36.78	128.44	7.52	-53.0	-55.6	13.6	0.00e+00	0	24	0	1134559232	71	5096
2026-01-08 22:13:37.77	128.55	7.46	-53.1	-55.8	13.5	0.00e+00	0	24	0	1136656384	71	5167
2026-01-08 22:13:38.77	128.67	7.40	-53.3	-56.0	13.4	0.00e+00	0	24	0	1138753536	71	5318
2026-01-08 22:13:39.77	128.78	7.35	-53.3	-56.1	13.3	0.00e+00	0	24	0	1140850688	71	5376
2026-01-08 22:13:40.77	128.89	7.29	-53.4	-56.2	13.3	0.00e+00	0	24	0	1141899264	71	5415
2026-01-08 22:13:41.77	129.01	7.23	-53.4	-56.3	13.3	0.00e+00	0	24	0	1143996416	72	5169
2026-01-08 22:13:42.77	129.12	7.18	-53.5	-56.4	13.3	0.00e+00	0	24	0	1146093568	72	5220
2026-01-08 22:13:43.78	129.23	7.12	-53.4	-56.2	13.3	0.00e+00	0	24	0	1148190720	72	5145
2026-01-08 22:13:44.78	129.34	7.06	-53.6	-56.6	13.1	0.00e+00	0	24	0	1150287872	72	5360
2026-01-08 22:13:45.79	129.46	7.01	-53.7	-56.7	13.0	0.00e+00	0	24	0	1151336448	72	5428
2026-01-08 22:13:46.78	129.57	6.95	-53.8	-57.0	12.9	0.00e+00	0	24	0	1153433600	72	5599
2026-01-08 22:13:47.79	129.68	6.89	-54.0	-57.3	12.8	7.00e-07	0	24	0	1155530752	73	5477
2026-01-08 22:13:48.79	129.79	6.84	-54.1	-57.5	12.6	0.00e+00	0	24	0	1157627904	73	5612
2026-01-08 22:13:49.79	129.90	6.78	-54.2	-57.7	12.5	7.00e-07	0	24	0	1158676480	73	5738
2026-01-08 22:13:50.79	130.01	6.72	-54.2	-57.8	12.4	1.50e-06	0	24	0	1160773632	73	5797
2026-01-08 22:13:51.78	130.11	6.67	-54.0	-57.2	12.7	0.00e+00	0	24	0	1162870784	73	5458
2026-01-08 22:13:52.79	130.22	6.61	-54.1	-57.4	12.6	0.00e+00	0	24	0	1164967936	73	5587
2026-01-08 22:13:53.79	130.33	6.56	-54.0	-57.4	12.6	0.00e+00	0	24	0	1167065088	73	5561
2026-01-08 22:13:54.79	130.44	6.50	-54.0	-57.3	12.7	7.00e-07	0	24	0	1168113664	73	5505
2026-01-08 22:13:55.80	130.55	6.44	-53.9	-57.1	12.8	0.00e+00	0	24	0	1170210816	73	5361
2026-01-08 22:13:56.80	130.65	6.39	-53.7	-56.7	13.1	0.00e+00	0	24	0	1172307968	73	5136
2026-01-08 22:13:57.79	130.76	6.33	-53.7	-56.7	13.1	0.00e+00	0	24	0	1174405120	73	5129
2026-01-08 22:13:58.79	130.86	6.27	-53.6	-56.7	13.1	0.00e+00	0	24	0	1176502272	73	5106
2026-01-08 22:13:59.79	130.97	6.22	-53.5	-56.5	13.2	0.00e+00	0	24	0	1177550848	73	4998
2026-01-08 22:14:00.79	131.08	6.16	-53.5	-56.5	13.2	0.00e+00	0	24	0	1179648000	73	5014
2026-01-08 22:14:01.79	131.18	6.11	-53.4	-56.3	13.4	0.00e+00	0	24	0	1181745152	73	4878
2026-01-08 22:14:02.79	131.28	6.05	-53.4	-56.3	13.3	0.00e+00	0	24	0	1183842304	73	4919
2026-01-08 22:14:03.79	131.39	6.00	-53.5	-56.5	13.2	0.00e+00	0	24	0	1185939456	73	5010
2026-01-08 22:14:04.78	131.49	5.94	-53.3	-56.1	13.5	0.00e+00	0	24	0	1186988032	73	4813
2026-01-08 22:14:05.78	131.59	5.88	-53.4	-56.4	13.3	0.00e+00	0	24	0	1189085184	73	4939
2026-01-08 22:14:06.78	131.70	5.83	-53.4	-56.3	13.3	0.00e+00	0	24	0	1191182336	73	4918
2026-01-08 22:14:07.78	131.80	5.77	-53.4	-56.4	13.2	0.00e+00	0	24	0	1193279488	73	4962
2026-01-08 22:14:08.78	131.90	5.72	-53.5	-56.5	13.1	0.00e+00	0	24	0	1194328064	73	5035
2026-01-08 22:14:09.79	132.00	5.66	-53.4	-56.4	13.3	0.00e+00	0	24	0	1196425216	73	4947
2026-01-08 22:14:10.78	132.10	5.61	-53.5	-56.5	13.2	0.00e+00	0	24	0	1198522368	73	5039
2026-01-08 22:14:11.78	132.21	5.55	-53.4	-56.3	13.3	0.00e+00	0	24	0	1200619520	73	4926
2026-01-08 22:14:12.78	132.31	5.50	-53.1	-55.9	13.4	0.00e+00	0	24	0	1202716672	72	4977
2026-01-08 22:14:13.77	132.41	5.44	-53.3	-56.2	13.2	0.00e+00	0	24	0	1203765248	72	5134
2026-01-08 22:14:14.77	132.51	5.39	-53.1	-56.0	13.4	0.00e+00	0	24	0	1205862400	72	5005
2026-01-08 22:14:15.77	132.61	5.33	-53.1	-55.8	13.4	0.00e+00	0	24	0	1207959552	72	4926
2026-01-08 22:14:16.77	132.70	5.27	-53.1	-55.9	13.4	0.00e+00	0	24	0	1210056704	72	4937
2026-01-08 22:14:17.76	132.80	5.22	-52.9	-55.6	13.6	0.00e+00	0	24	0	1212153856	72	4791
2026-01-08 22:14:18.77	132.90	5.16	-53.2	-56.1	13.3	0.00e+00	0	24	0	1213202432	72	5072
2026-01-08 22:14:19.77	133.00	5.11	-53.1	-55.9	13.4	0.00e+00	0	24	0	1215299584	72	4935
2026-01-08 22:14:20.76	133.10	5.05	-52.9	-55.7	13.6	0.00e+00	0	24	0	1217396736	72	4828
2026-01-08 22:14:21.76	133.19	5.00	-56.4	-64.0	7.9	0.00e+00	0	24	0	1219493888	77	9439
2026-01-08 22:14:22.76	133.29	4.94	-57.7	-73.7	3.8	1.48e+00	0	24	104	1219493888	80	24329
2026-01-08 22:14:23.76	133.39	4.89	-58.1	-74.1	3.8	1.49e+00	0	24	104	1219493888	81	24098
2026-01-08 22:14:24.76	133.48	4.84	-58.3	-74.3	3.8	1.49e+00	0	24	104	1219493888	81	24668
2026-01-08 22:14:25.76	133.58	4.78	-58.5	-74.6	3.8	1.49e+00	0	24	104	1219493888	82	23947
