passes_logs/2026/01/08/R3.2S_Murmansk/R3.2S_Murmansk__20260108_124035_FENGYUN_3D_rec.log

#Pass ID: 20260108_124035_FENGYUN 3D
#Satellite: FENGYUN 3D
#Configuration: FENGYUN 3D
#almurnet v.1.7.20251203
#Start time: 2026-01-08 12:40:35

#Version: 2.2.20231116
#Station: R3.2S_Murmansk
#Location: 33.079688 lon 68.888172 lat
#TLE: 1 43010U 17072A   26007.95585757  .00000190  00000+0  11182-3 0  9996
#TLE: 2 43010  98.9933 339.6629 0002109 121.4202 238.7180 14.19694196422257

#Time	Az	El	Level	Level2	SNR	BER	BlckErr	Temp	State	Recorded	gain1	gain2
2026-01-08 12:40:35.13	179.17	1.99	-57.9	-70.9	3.8	8.45e-01	0	25	0	0	82	15615
2026-01-08 12:40:36.11	179.21	2.06	-57.8	-70.8	3.8	8.45e-01	0	24	104	0	80	17307
2026-01-08 12:40:37.10	179.24	2.12	-57.8	-70.8	3.8	8.45e-01	0	24	104	0	80	17362
2026-01-08 12:40:38.08	179.28	2.18	-57.9	-70.8	3.8	8.45e-01	0	25	104	0	80	17419
2026-01-08 12:40:39.07	179.31	2.24	-57.9	-70.8	3.8	8.46e-01	0	25	104	0	80	17418
2026-01-08 12:40:40.06	179.35	2.30	-57.9	-70.8	3.8	8.45e-01	0	24	104	0	80	17381
2026-01-08 12:40:41.06	179.38	2.37	-57.8	-70.7	3.8	8.45e-01	0	25	104	0	80	17196
2026-01-08 12:40:42.06	179.42	2.43	-57.8	-70.7	3.8	8.46e-01	0	25	104	0	80	17176
2026-01-08 12:40:43.04	179.46	2.49	-57.8	-70.7	3.8	8.45e-01	0	24	104	0	80	17093
2026-01-08 12:40:44.03	179.49	2.55	-57.8	-70.5	3.8	8.45e-01	0	25	104	0	80	16791
2026-01-08 12:40:45.02	179.53	2.62	-57.8	-70.5	3.8	8.45e-01	0	25	104	0	80	16734
2026-01-08 12:40:46.01	179.56	2.68	-57.8	-70.5	3.8	8.45e-01	0	25	104	0	80	16835
2026-01-08 12:40:47.01	179.60	2.74	-57.8	-70.5	3.8	8.46e-01	0	25	104	0	80	16858
2026-01-08 12:40:48.00	179.64	2.80	-57.8	-70.6	3.9	8.47e-01	0	25	104	0	80	16971
2026-01-08 12:40:48.99	179.67	2.87	-57.8	-70.7	3.8	8.45e-01	0	25	104	0	80	17177
2026-01-08 12:40:49.98	179.71	2.93	-57.8	-70.7	3.8	8.46e-01	0	25	104	0	80	17213
2026-01-08 12:40:50.99	179.75	3.00	-57.8	-70.7	3.8	8.46e-01	0	25	104	0	80	17175
2026-01-08 12:40:51.98	179.78	3.06	-57.8	-70.7	3.8	8.45e-01	0	25	104	0	80	17089
2026-01-08 12:40:52.97	179.82	3.12	-57.8	-70.6	3.8	8.46e-01	0	25	104	0	80	16964
2026-01-08 12:40:53.97	179.86	3.19	-57.8	-70.4	3.8	8.45e-01	0	25	104	0	80	16670
2026-01-08 12:40:54.96	179.89	3.25	-57.8	-70.4	3.8	8.45e-01	0	25	104	0	80	16532
2026-01-08 12:40:55.96	179.93	3.32	-57.8	-70.4	3.8	8.45e-01	0	25	104	0	80	16663
2026-01-08 12:40:56.96	179.97	3.38	-57.8	-70.5	3.8	8.46e-01	0	25	104	0	80	16870
2026-01-08 12:40:57.96	180.01	3.45	-57.8	-70.7	3.8	8.45e-01	0	25	104	0	80	17161
2026-01-08 12:40:58.96	180.05	3.51	-57.8	-70.9	3.8	8.46e-01	0	25	104	0	80	17482
2026-01-08 12:40:59.95	180.08	3.58	-57.8	-70.9	3.8	8.46e-01	0	25	104	0	80	17504
2026-01-08 12:41:00.95	180.12	3.64	-57.8	-70.5	3.8	8.44e-01	0	25	104	0	80	16827
2026-01-08 12:41:01.93	180.16	3.71	-57.8	-69.7	3.8	8.46e-01	0	25	104	0	80	15359
2026-01-08 12:41:02.92	180.20	3.77	-57.7	-68.7	3.9	8.44e-01	0	25	104	0	80	13587
2026-01-08 12:41:03.91	180.24	3.84	-57.5	-67.3	4.2	8.39e-01	0	25	0	0	80	11593
2026-01-08 12:41:04.91	180.28	3.90	-57.4	-66.5	4.4	8.30e-01	0	25	0	0	80	10624
2026-01-08 12:41:05.90	180.32	3.97	-57.3	-65.5	4.8	7.84e-01	0	25	0	0	80	9403
2026-01-08 12:41:06.89	180.36	4.04	-57.1	-64.6	5.3	7.43e-01	0	25	0	0	80	8520
2026-01-08 12:41:07.89	180.40	4.10	-57.0	-64.3	5.5	5.06e-01	0	25	0	2097152	80	8230
2026-01-08 12:41:08.88	180.44	4.17	-57.0	-63.9	5.8	5.13e-01	0	25	0	7340032	80	7850
2026-01-08 12:41:09.88	180.48	4.24	-56.8	-63.4	6.1	3.17e-01	0	25	0	12582912	80	7376
2026-01-08 12:41:10.87	180.51	4.30	-56.8	-63.3	6.1	2.88e-01	0	25	0	17825792	80	7343
2026-01-08 12:41:11.86	180.55	4.37	-56.7	-63.1	6.3	2.79e-01	0	25	0	23068672	80	7177
2026-01-08 12:41:12.85	180.60	4.44	-56.7	-62.9	6.4	2.00e-01	0	25	0	29360128	79	7410
2026-01-08 12:41:13.84	180.64	4.50	-56.5	-62.4	6.9	2.07e-01	0	25	0	34603008	79	6980
2026-01-08 12:41:14.83	180.68	4.57	-56.4	-62.0	7.2	1.09e-01	0	25	0	40894464	79	6679
2026-01-08 12:41:15.82	180.72	4.64	-56.2	-61.4	7.7	8.67e-02	0	25	0	46137344	79	6274
2026-01-08 12:41:16.82	180.76	4.71	-55.9	-60.6	8.4	3.68e-02	0	25	0	51380224	78	6006
2026-01-08 12:41:17.81	180.80	4.77	-55.8	-60.4	8.5	3.36e-02	0	25	0	56623104	78	5909
2026-01-08 12:41:18.79	180.84	4.84	-55.6	-59.9	9.0	1.61e-02	0	25	0	62914560	77	5901
2026-01-08 12:41:19.79	180.88	4.91	-55.4	-59.4	9.4	9.40e-03	0	25	0	68157440	77	5564
2026-01-08 12:41:20.77	180.92	4.98	-55.5	-59.7	9.2	9.89e-03	0	25	0	74448896	77	5741
2026-01-08 12:41:21.76	180.96	5.04	-55.5	-59.7	9.1	1.08e-02	0	25	0	79691776	77	5768
2026-01-08 12:41:22.75	181.01	5.11	-55.3	-59.3	9.5	7.72e-03	0	25	0	84934656	77	5492
2026-01-08 12:41:23.74	181.05	5.18	-57.7	-70.2	3.8	4.99e-01	0	25	104	88080384	80	16264
2026-01-08 12:41:24.74	181.09	5.25	-51.2	-53.1	13.3	7.59e-01	0	25	104	88080384	69	4279
2026-01-08 12:41:25.73	181.13	5.32	-52.3	-54.5	12.8	0.00e+00	0	25	0	92274688	69	5028
2026-01-08 12:41:26.72	181.18	5.39	-50.5	-52.3	13.8	0.00e+00	0	25	0	97517568	66	4616
2026-01-08 12:41:27.72	181.22	5.46	-50.0	-51.7	14.1	0.00e+00	0	25	0	102760448	66	4295
2026-01-08 12:41:28.71	181.26	5.53	-49.6	-51.3	14.2	0.00e+00	0	25	0	109051904	65	4356
2026-01-08 12:41:29.69	181.30	5.60	-49.4	-51.0	14.4	0.00e+00	0	25	0	114294784	65	4209
2026-01-08 12:41:30.68	181.35	5.67	-49.2	-50.7	14.4	0.00e+00	0	25	0	119537664	64	4337
2026-01-08 12:41:31.66	181.39	5.74	-48.9	-50.4	14.6	0.00e+00	0	25	0	124780544	64	4169
2026-01-08 12:41:32.65	181.43	5.81	-49.1	-50.6	14.4	0.00e+00	0	25	0	131072000	64	4290
2026-01-08 12:41:33.63	181.48	5.88	-49.1	-50.6	14.4	0.00e+00	0	25	0	136314880	64	4288
2026-01-08 12:41:34.62	181.52	5.95	-49.0	-50.5	14.5	0.00e+00	0	25	0	141557760	64	4234
2026-01-08 12:41:35.60	181.57	6.02	-48.9	-50.4	14.6	0.00e+00	0	25	0	147849216	64	4186
2026-01-08 12:41:36.59	181.61	6.09	-49.0	-50.5	14.5	0.00e+00	0	25	0	153092096	64	4239
2026-01-08 12:41:37.57	181.65	6.16	-49.1	-50.6	14.5	0.00e+00	0	25	0	158334976	64	4264
2026-01-08 12:41:38.55	181.70	6.23	-48.9	-50.5	14.5	0.00e+00	0	25	0	163577856	64	4204
2026-01-08 12:41:39.54	181.74	6.30	-48.7	-50.2	14.7	0.00e+00	0	25	0	169869312	64	4079
2026-01-08 12:41:40.52	181.79	6.37	-48.7	-50.2	14.5	0.00e+00	0	25	0	175112192	63	4315
2026-01-08 12:41:41.50	181.83	6.44	-48.7	-50.2	14.6	0.00e+00	0	25	0	180355072	63	4297
2026-01-08 12:41:42.49	181.88	6.51	-48.6	-50.0	14.7	0.00e+00	0	25	0	186646528	63	4239
2026-01-08 12:41:43.48	181.93	6.58	-48.8	-50.2	14.5	0.00e+00	0	25	0	191889408	63	4336
2026-01-08 12:41:44.46	181.97	6.66	-48.6	-50.1	14.6	0.00e+00	0	25	0	197132288	63	4244
2026-01-08 12:41:45.45	182.02	6.73	-48.6	-50.1	14.6	0.00e+00	0	25	0	202375168	63	4245
2026-01-08 12:41:46.43	182.06	6.80	-48.5	-50.0	14.7	0.00e+00	0	25	0	208666624	63	4196
2026-01-08 12:41:47.41	182.11	6.87	-48.5	-50.0	14.7	0.00e+00	0	25	0	213909504	63	4201
2026-01-08 12:41:48.39	182.16	6.94	-48.4	-49.8	14.8	0.00e+00	0	25	0	219152384	63	4126
2026-01-08 12:41:49.38	182.20	7.02	-48.6	-50.0	14.7	0.00e+00	0	25	0	225443840	63	4230
2026-01-08 12:41:50.37	182.25	7.09	-48.5	-50.0	14.7	0.00e+00	0	25	0	230686720	63	4197
2026-01-08 12:41:51.35	182.30	7.16	-48.4	-49.9	14.8	0.00e+00	0	25	0	235929600	63	4154
2026-01-08 12:41:52.33	182.35	7.24	-48.4	-49.9	14.8	0.00e+00	0	25	0	241172480	63	4164
2026-01-08 12:41:53.32	182.39	7.31	-48.4	-49.8	14.8	0.00e+00	0	25	0	247463936	63	4109
2026-01-08 12:41:54.30	182.44	7.38	-48.4	-49.9	14.8	0.00e+00	0	25	0	252706816	63	4154
2026-01-08 12:41:55.29	182.49	7.46	-48.4	-49.9	14.8	0.00e+00	0	25	0	257949696	63	4158
2026-01-08 12:41:56.29	182.54	7.53	-48.3	-49.8	14.8	0.00e+00	0	25	0	264241152	63	4109
2026-01-08 12:41:57.28	182.59	7.61	-48.5	-50.0	14.7	0.00e+00	0	25	0	269484032	63	4218
2026-01-08 12:41:58.29	182.64	7.69	-48.4	-49.8	14.8	0.00e+00	0	25	0	274726912	63	4114
2026-01-08 12:41:59.29	182.69	7.76	-48.5	-50.0	14.7	0.00e+00	0	25	0	281018368	63	4216
2026-01-08 12:42:00.30	182.74	7.84	-48.3	-49.7	14.9	0.00e+00	0	25	0	286261248	63	4071
2026-01-08 12:42:01.31	182.79	7.92	-48.3	-49.7	14.9	0.00e+00	0	25	0	291504128	63	4095
2026-01-08 12:42:02.32	182.84	7.99	-48.3	-49.7	14.9	0.00e+00	0	25	0	297795584	63	4083
2026-01-08 12:42:03.33	182.89	8.07	-48.4	-49.8	14.8	0.00e+00	0	25	0	303038464	63	4138
2026-01-08 12:42:04.33	182.94	8.15	-48.2	-49.7	14.9	0.00e+00	0	25	0	309329920	63	4059
2026-01-08 12:42:05.34	183.00	8.23	-48.3	-49.7	14.9	0.00e+00	0	25	0	314572800	63	4093
2026-01-08 12:42:06.35	183.05	8.30	-48.2	-49.6	14.9	0.00e+00	0	25	0	320864256	63	4033
2026-01-08 12:42:07.36	183.10	8.38	-48.2	-49.6	14.8	0.00e+00	0	25	0	326107136	62	4261
2026-01-08 12:42:08.37	183.15	8.46	-48.2	-49.7	14.7	0.00e+00	0	25	0	331350016	62	4307
2026-01-08 12:42:09.38	183.21	8.54	-48.2	-49.6	14.8	0.00e+00	0	25	0	337641472	62	4260
2026-01-08 12:42:10.39	183.26	8.62	-48.1	-49.5	14.8	0.00e+00	0	25	0	342884352	62	4239
2026-01-08 12:42:11.40	183.31	8.70	-48.2	-49.6	14.8	0.00e+00	0	25	0	349175808	62	4282
2026-01-08 12:42:12.41	183.37	8.78	-48.1	-49.6	14.8	0.00e+00	0	25	0	354418688	62	4245
2026-01-08 12:42:13.41	183.42	8.86	-48.1	-49.5	14.8	0.00e+00	0	25	0	359661568	62	4206
2026-01-08 12:42:14.42	183.48	8.94	-48.0	-49.4	14.9	0.00e+00	0	25	0	365953024	62	4173
2026-01-08 12:42:15.43	183.53	9.02	-48.0	-49.4	14.9	0.00e+00	0	25	0	371195904	62	4149
2026-01-08 12:42:16.44	183.58	9.10	-47.9	-49.3	15.0	0.00e+00	0	25	0	377487360	62	4099
2026-01-08 12:42:17.45	183.64	9.18	-48.0	-49.4	14.9	0.00e+00	0	25	0	382730240	62	4176
2026-01-08 12:42:18.46	183.70	9.26	-48.1	-49.5	14.9	0.00e+00	0	25	0	387973120	62	4194
2026-01-08 12:42:19.47	183.75	9.34	-47.9	-49.2	15.0	0.00e+00	0	25	0	394264576	62	4089
2026-01-08 12:42:20.47	183.81	9.42	-47.8	-49.2	15.0	0.00e+00	0	25	0	399507456	62	4070
2026-01-08 12:42:21.48	183.86	9.50	-47.8	-49.2	15.0	0.00e+00	0	25	0	405798912	62	4052
2026-01-08 12:42:22.48	183.92	9.59	-47.8	-49.1	15.0	0.00e+00	0	25	0	411041792	62	4037
2026-01-08 12:42:23.49	183.98	9.67	-47.8	-49.1	15.1	0.00e+00	0	25	0	417333248	62	4033
2026-01-08 12:42:24.49	184.03	9.75	-47.8	-49.1	15.0	0.00e+00	0	25	0	422576128	62	4051
2026-01-08 12:42:25.50	184.09	9.83	-47.6	-49.0	14.9	0.00e+00	0	25	0	427819008	61	4212
2026-01-08 12:42:26.51	184.15	9.92	-47.6	-49.0	14.9	0.00e+00	0	25	0	434110464	61	4211
2026-01-08 12:42:27.52	184.21	10.00	-47.7	-49.1	14.9	0.00e+00	0	25	0	439353344	61	4250
2026-01-08 12:42:28.53	184.27	10.08	-47.6	-49.0	15.0	0.00e+00	0	25	0	445644800	61	4198
2026-01-08 12:42:29.54	184.32	10.17	-47.6	-49.0	15.0	0.00e+00	0	25	0	450887680	61	4196
2026-01-08 12:42:30.54	184.38	10.25	-47.5	-48.8	15.0	0.00e+00	0	25	0	456130560	61	4135
2026-01-08 12:42:31.56	184.44	10.33	-47.5	-48.9	15.0	0.00e+00	0	25	0	462422016	61	4150
2026-01-08 12:42:32.57	184.50	10.42	-47.5	-48.8	15.0	0.00e+00	0	25	0	467664896	61	4127
2026-01-08 12:42:33.57	184.56	10.50	-47.5	-48.8	15.0	0.00e+00	0	25	0	473956352	61	4137
2026-01-08 12:42:34.58	184.62	10.59	-47.5	-48.9	15.0	0.00e+00	0	25	0	479199232	61	4156
2026-01-08 12:42:35.59	184.68	10.67	-47.5	-48.8	15.1	0.00e+00	0	25	0	484442112	61	4123
2026-01-08 12:42:36.60	184.74	10.76	-47.5	-48.8	15.0	0.00e+00	0	25	0	490733568	61	4133
2026-01-08 12:42:37.61	184.81	10.85	-47.6	-48.9	15.0	0.00e+00	0	25	0	495976448	61	4179
2026-01-08 12:42:38.62	184.87	10.93	-47.6	-48.9	15.0	0.00e+00	0	25	0	502267904	61	4191
2026-01-08 12:42:39.62	184.93	11.02	-47.5	-48.8	15.1	0.00e+00	0	25	0	507510784	61	4138
2026-01-08 12:42:40.63	184.99	11.10	-47.6	-49.0	15.0	0.00e+00	0	25	0	513802240	61	4206
2026-01-08 12:42:41.64	185.05	11.19	-47.6	-49.0	15.0	0.00e+00	0	25	0	519045120	61	4194
2026-01-08 12:42:42.65	185.12	11.28	-47.6	-49.0	15.0	0.00e+00	0	25	0	524288000	61	4205
2026-01-08 12:42:43.66	185.18	11.37	-47.7	-49.1	14.9	0.00e+00	0	25	0	530579456	61	4251
2026-01-08 12:42:44.66	185.24	11.45	-47.5	-48.9	15.0	0.00e+00	0	25	0	535822336	61	4166
2026-01-08 12:42:45.67	185.31	11.54	-47.7	-49.1	14.9	0.00e+00	0	25	0	541065216	61	4267
2026-01-08 12:42:46.67	185.37	11.63	-47.5	-48.8	15.0	0.00e+00	0	25	0	547356672	61	4129
2026-01-08 12:42:47.68	185.44	11.72	-47.5	-48.8	15.0	0.00e+00	0	25	0	552599552	61	4142
2026-01-08 12:42:48.69	185.50	11.81	-47.4	-48.8	15.1	0.00e+00	0	25	0	558891008	61	4122
2026-01-08 12:42:49.70	185.57	11.90	-47.4	-48.7	15.1	0.00e+00	0	25	0	564133888	61	4079
2026-01-08 12:42:50.71	185.63	11.99	-47.5	-48.8	15.0	0.00e+00	0	25	0	569376768	61	4142
2026-01-08 12:42:51.72	185.70	12.08	-47.4	-48.7	15.1	0.00e+00	0	25	0	575668224	61	4085
2026-01-08 12:42:52.73	185.77	12.17	-47.3	-48.6	15.1	0.00e+00	0	25	0	580911104	61	4038
2026-01-08 12:42:53.73	185.83	12.26	-47.3	-48.6	15.1	0.00e+00	0	25	0	587202560	61	4032
2026-01-08 12:42:54.74	185.90	12.35	-47.3	-48.6	15.2	0.00e+00	0	25	0	592445440	61	4018
2026-01-08 12:42:55.75	185.97	12.44	-47.4	-48.7	15.1	0.00e+00	0	25	0	598736896	61	4071
2026-01-08 12:42:56.76	186.04	12.53	-47.3	-48.6	15.1	0.00e+00	0	25	0	603979776	61	4026
2026-01-08 12:42:57.77	186.11	12.62	-47.2	-48.6	15.2	0.00e+00	0	25	0	609222656	61	4005
2026-01-08 12:42:58.78	186.18	12.71	-47.4	-48.7	15.1	0.00e+00	0	25	0	615514112	61	4069
2026-01-08 12:42:59.78	186.24	12.80	-47.4	-48.7	15.1	0.00e+00	0	25	0	620756992	61	4095
2026-01-08 12:43:00.79	186.31	12.90	-47.2	-48.5	15.2	0.00e+00	0	25	0	627048448	61	3986
2026-01-08 12:43:01.80	186.38	12.99	-47.1	-48.4	15.0	0.00e+00	0	25	0	632291328	60	4192
2026-01-08 12:43:02.81	186.46	13.08	-47.2	-48.6	15.0	0.00e+00	0	25	0	637534208	60	4253
2026-01-08 12:43:03.81	186.53	13.18	-47.2	-48.5	15.0	0.00e+00	0	25	0	643825664	60	4212
2026-01-08 12:43:04.82	186.60	13.27	-47.1	-48.5	15.1	0.00e+00	0	25	0	649068544	60	4202
2026-01-08 12:43:05.83	186.67	13.36	-47.2	-48.5	15.0	0.00e+00	0	25	0	655360000	60	4237
2026-01-08 12:43:06.84	186.74	13.46	-47.2	-48.5	15.0	0.00e+00	0	25	0	660602880	60	4223
2026-01-08 12:43:07.85	186.82	13.55	-47.1	-48.4	15.1	0.00e+00	0	25	0	665845760	60	4172
2026-01-08 12:43:08.86	186.89	13.65	-47.0	-48.4	15.1	0.00e+00	0	25	0	672137216	60	4150
2026-01-08 12:43:09.86	186.96	13.74	-47.1	-48.4	15.1	0.00e+00	0	25	0	677380096	60	4167
2026-01-08 12:43:10.87	187.04	13.84	-47.0	-48.3	15.2	0.00e+00	0	25	0	683671552	60	4103
2026-01-08 12:43:11.88	187.11	13.94	-47.0	-48.3	15.2	0.00e+00	0	25	0	688914432	60	4104
2026-01-08 12:43:12.89	187.19	14.03	-47.0	-48.3	15.1	0.00e+00	0	25	0	695205888	60	4144
2026-01-08 12:43:13.90	187.26	14.13	-47.0	-48.3	15.1	0.00e+00	0	25	0	700448768	60	4121
2026-01-08 12:43:14.91	187.34	14.23	-46.9	-48.2	15.2	0.00e+00	0	25	0	705691648	60	4058
2026-01-08 12:43:15.92	187.42	14.33	-46.8	-48.1	15.2	0.00e+00	0	25	0	711983104	60	4027
2026-01-08 12:43:16.92	187.49	14.42	-46.8	-48.1	15.3	0.00e+00	0	25	0	717225984	60	4016
2026-01-08 12:43:17.94	187.57	14.52	-46.8	-48.1	15.3	0.00e+00	0	25	0	723517440	60	4017
2026-01-08 12:43:18.95	187.65	14.62	-46.8	-48.1	15.2	0.00e+00	0	25	0	728760320	60	4024
2026-01-08 12:43:19.96	187.73	14.72	-46.9	-48.2	15.2	0.00e+00	0	25	0	734003200	60	4088
2026-01-08 12:43:20.97	187.81	14.82	-46.9	-48.2	15.2	0.00e+00	0	25	0	740294656	60	4056
2026-01-08 12:43:21.97	187.88	14.92	-46.8	-48.1	15.3	0.00e+00	0	25	0	745537536	60	4016
2026-01-08 12:43:22.99	187.97	15.02	-46.7	-48.0	15.3	0.00e+00	0	25	0	751828992	60	3986
2026-01-08 12:43:23.99	188.05	15.12	-46.7	-48.0	15.3	0.00e+00	0	25	0	757071872	60	3971
2026-01-08 12:43:25.00	188.13	15.22	-46.9	-48.3	15.1	0.00e+00	0	25	0	762314752	59	4342
2026-01-08 12:43:26.01	188.21	15.32	-46.9	-48.3	15.1	0.00e+00	0	25	0	768606208	59	4343
2026-01-08 12:43:27.02	188.29	15.42	-46.8	-48.1	15.1	0.00e+00	0	25	0	773849088	59	4244
2026-01-08 12:43:28.03	188.37	15.53	-46.6	-47.9	15.2	0.00e+00	0	25	0	780140544	59	4180
2026-01-08 12:43:29.04	188.46	15.63	-46.7	-47.9	15.2	0.00e+00	0	25	0	785383424	59	4188
2026-01-08 12:43:30.05	188.54	15.73	-46.6	-47.9	15.2	0.00e+00	0	25	0	791674880	59	4151
2026-01-08 12:43:31.06	188.62	15.83	-46.4	-47.6	15.3	0.00e+00	0	25	0	796917760	59	4033
2026-01-08 12:43:32.07	188.71	15.94	-46.4	-47.6	15.3	0.00e+00	0	25	0	802160640	59	4051
2026-01-08 12:43:33.08	188.79	16.04	-46.3	-47.6	15.4	0.00e+00	0	25	0	808452096	59	4007
2026-01-08 12:43:34.09	188.88	16.15	-46.3	-47.5	15.4	0.00e+00	0	25	0	813694976	59	3983
2026-01-08 12:43:35.09	188.97	16.25	-46.3	-47.5	15.4	0.00e+00	0	25	0	819986432	59	3992
2026-01-08 12:43:36.10	189.05	16.35	-46.2	-47.4	15.4	0.00e+00	0	25	0	825229312	59	3957
2026-01-08 12:43:37.11	189.14	16.46	-46.3	-47.5	15.4	0.00e+00	0	25	0	830472192	59	3988
2026-01-08 12:43:38.12	189.23	16.57	-46.4	-47.6	15.3	0.00e+00	0	25	0	836763648	59	4039
2026-01-08 12:43:39.12	189.32	16.67	-46.3	-47.6	15.4	0.00e+00	0	25	0	842006528	59	4015
2026-01-08 12:43:40.13	189.41	16.78	-46.4	-47.7	15.3	0.00e+00	0	25	0	848297984	59	4057
2026-01-08 12:43:41.14	189.50	16.88	-46.3	-47.6	15.4	0.00e+00	0	25	0	853540864	59	4009
2026-01-08 12:43:42.15	189.59	16.99	-46.4	-47.6	15.3	0.00e+00	0	25	0	858783744	59	4049
2026-01-08 12:43:43.16	189.68	17.10	-46.3	-47.5	15.4	0.00e+00	0	25	0	865075200	59	3987
2026-01-08 12:43:44.17	189.77	17.21	-46.2	-47.5	15.4	0.00e+00	0	25	0	870318080	59	3970
2026-01-08 12:43:45.17	189.86	17.32	-46.2	-47.5	15.4	0.00e+00	0	25	0	876609536	59	3966
2026-01-08 12:43:46.19	189.96	17.43	-46.1	-47.3	15.3	0.00e+00	0	25	0	881852416	58	4132
2026-01-08 12:43:47.19	190.05	17.53	-46.1	-47.4	15.3	0.00e+00	0	25	0	888143872	58	4154
2026-01-08 12:43:48.20	190.15	17.64	-46.1	-47.3	15.3	0.00e+00	0	25	0	893386752	58	4132
2026-01-08 12:43:49.21	190.24	17.76	-46.1	-47.4	15.3	0.00e+00	0	25	0	898629632	58	4152
2026-01-08 12:43:50.22	190.34	17.87	-46.1	-47.4	15.3	0.00e+00	0	25	0	904921088	58	4158
2026-01-08 12:43:51.22	190.43	17.98	-46.2	-47.5	15.3	0.00e+00	0	25	0	910163968	58	4198
2026-01-08 12:43:52.24	190.53	18.09	-46.1	-47.3	15.3	0.00e+00	0	25	0	916455424	58	4141
2026-01-08 12:43:53.25	190.63	18.20	-46.1	-47.4	15.3	0.00e+00	0	25	0	921698304	58	4164
2026-01-08 12:43:54.26	190.73	18.31	-46.2	-47.5	15.2	0.00e+00	0	25	0	926941184	58	4206
2026-01-08 12:43:55.27	190.83	18.43	-46.1	-47.3	15.3	0.00e+00	0	25	0	933232640	58	4135
2026-01-08 12:43:56.27	190.93	18.54	-46.0	-47.3	15.3	0.00e+00	0	25	0	938475520	58	4119
2026-01-08 12:43:57.28	191.03	18.65	-46.1	-47.3	15.3	0.00e+00	0	25	0	944766976	58	4128
2026-01-08 12:43:58.29	191.13	18.77	-46.1	-47.3	15.3	0.00e+00	0	25	0	950009856	58	4132
2026-01-08 12:43:59.30	191.23	18.88	-46.0	-47.2	15.3	0.00e+00	0	25	0	955252736	58	4086
2026-01-08 12:44:00.30	191.33	19.00	-45.8	-47.1	15.4	0.00e+00	0	25	0	961544192	58	4009
2026-01-08 12:44:01.31	191.44	19.11	-45.9	-47.1	15.4	0.00e+00	0	25	0	966787072	58	4019
2026-01-08 12:44:02.32	191.54	19.23	-45.8	-47.0	15.4	0.00e+00	0	25	0	973078528	58	4003
2026-01-08 12:44:03.32	191.64	19.34	-45.8	-47.0	15.5	0.00e+00	0	25	0	978321408	58	3995
2026-01-08 12:44:04.33	191.75	19.46	-45.8	-47.0	15.4	0.00e+00	0	25	0	984612864	58	3993
2026-01-08 12:44:05.34	191.86	19.58	-45.8	-47.0	15.4	0.00e+00	0	25	0	989855744	58	3996
2026-01-08 12:44:06.35	191.97	19.70	-45.8	-47.0	15.5	0.00e+00	0	25	0	995098624	58	3993
2026-01-08 12:44:07.36	192.07	19.81	-45.9	-47.2	15.4	0.00e+00	0	25	0	1001390080	58	4061
2026-01-08 12:44:08.37	192.18	19.93	-45.9	-47.1	15.4	0.00e+00	0	25	0	1006632960	58	4040
2026-01-08 12:44:09.38	192.29	20.05	-45.8	-47.1	15.4	0.00e+00	0	25	0	1012924416	58	4023
2026-01-08 12:44:10.38	192.40	20.17	-45.8	-47.0	15.5	0.00e+00	0	25	0	1018167296	58	3990
2026-01-08 12:44:11.39	192.51	20.29	-45.7	-46.9	15.5	0.00e+00	0	25	0	1023410176	58	3945
2026-01-08 12:44:12.40	192.63	20.41	-45.7	-46.9	15.5	0.00e+00	0	25	0	1029701632	58	3933
2026-01-08 12:44:13.40	192.74	20.53	-45.5	-46.8	15.4	0.00e+00	0	25	0	1034944512	57	4107
2026-01-08 12:44:14.41	192.85	20.65	-45.5	-46.7	15.4	0.00e+00	0	25	0	1040187392	57	4093
2026-01-08 12:44:15.42	192.97	20.78	-45.4	-46.6	15.4	0.00e+00	0	25	0	1046478848	57	4033
2026-01-08 12:44:16.43	193.08	20.90	-45.5	-46.7	15.4	0.00e+00	0	25	0	1051721728	57	4063
2026-01-08 12:44:17.44	193.20	21.02	-45.5	-46.7	15.4	0.00e+00	0	25	0	1058013184	57	4080
2026-01-08 12:44:18.44	193.32	21.15	-45.5	-46.8	15.4	0.00e+00	0	25	0	1063256064	57	4108
2026-01-08 12:44:19.45	193.44	21.27	-45.4	-46.6	15.5	0.00e+00	0	25	0	1069547520	57	4038
2026-01-08 12:44:20.46	193.56	21.39	-45.4	-46.6	15.5	0.00e+00	0	25	0	1074790400	57	4028
2026-01-08 12:44:21.47	193.68	21.52	-45.5	-46.7	15.4	0.00e+00	0	25	0	1080033280	57	4094
2026-01-08 12:44:22.47	193.80	21.64	-45.4	-46.6	15.4	0.00e+00	0	25	0	1086324736	57	4041
2026-01-08 12:44:23.48	193.92	21.77	-45.4	-46.6	15.5	0.00e+00	0	25	0	1091567616	57	4036
2026-01-08 12:44:24.49	194.04	21.90	-45.4	-46.6	15.5	0.00e+00	0	25	0	1097859072	57	4010
2026-01-08 12:44:25.49	194.17	22.02	-45.3	-46.5	15.5	0.00e+00	0	25	0	1103101952	57	3998
2026-01-08 12:44:26.50	194.29	22.15	-45.3	-46.5	15.5	0.00e+00	0	25	0	1108344832	57	3970
2026-01-08 12:44:27.51	194.42	22.28	-45.3	-46.4	15.5	0.00e+00	0	25	0	1114636288	57	3957
2026-01-08 12:44:28.52	194.54	22.41	-45.1	-46.3	15.4	0.00e+00	0	25	0	1119879168	56	4128
2026-01-08 12:44:29.53	194.67	22.54	-45.0	-46.2	15.5	0.00e+00	0	25	0	1126170624	56	4057
2026-01-08 12:44:30.54	194.80	22.67	-45.1	-46.2	15.4	0.00e+00	0	25	0	1131413504	56	4095
2026-01-08 12:44:31.55	194.93	22.80	-45.0	-46.2	15.5	0.00e+00	0	25	0	1136656384	56	4064
2026-01-08 12:44:32.55	195.06	22.93	-45.1	-46.3	15.4	0.00e+00	0	25	0	1142947840	56	4106
2026-01-08 12:44:33.56	195.20	23.06	-45.1	-46.3	15.4	0.00e+00	0	25	0	1148190720	56	4127
2026-01-08 12:44:34.57	195.33	23.19	-45.2	-46.4	15.4	0.00e+00	0	25	0	1154482176	56	4157
2026-01-08 12:44:35.58	195.46	23.32	-45.2	-46.3	15.4	0.00e+00	0	25	0	1159725056	56	4128
2026-01-08 12:44:36.59	195.60	23.45	-45.2	-46.2	15.5	0.00e+00	0	25	0	1166016512	56	4087
2026-01-08 12:44:37.60	195.74	23.59	-45.2	-46.2	15.4	0.00e+00	0	25	0	1171259392	56	4093
2026-01-08 12:44:38.61	195.88	23.72	-45.2	-46.3	15.4	0.00e+00	0	25	0	1176502272	56	4101
2026-01-08 12:44:39.61	196.01	23.85	-45.2	-46.3	15.4	0.00e+00	0	25	0	1182793728	56	4126
2026-01-08 12:44:40.62	196.15	23.99	-45.2	-46.3	15.4	0.00e+00	0	25	0	1188036608	56	4127
2026-01-08 12:44:41.63	196.30	24.12	-45.2	-46.3	15.4	0.00e+00	0	25	0	1194328064	56	4113
2026-01-08 12:44:42.64	196.44	24.26	-45.2	-46.3	15.4	0.00e+00	0	25	0	1199570944	56	4113
2026-01-08 12:44:43.65	196.58	24.40	-45.3	-46.3	15.4	0.00e+00	0	25	0	1204813824	56	4138
2026-01-08 12:44:44.66	196.73	24.53	-45.1	-46.2	15.4	0.00e+00	0	25	0	1211105280	56	4070
2026-01-08 12:44:45.67	196.87	24.67	-45.0	-46.0	15.5	0.00e+00	0	25	0	1216348160	56	3988
2026-01-08 12:44:46.68	197.02	24.81	-44.8	-45.9	15.5	0.00e+00	0	25	0	1222639616	56	3935
2026-01-08 12:44:47.69	197.17	24.95	-44.8	-45.9	15.6	0.00e+00	0	25	0	1227882496	56	3922
2026-01-08 12:44:48.70	197.32	25.09	-44.7	-45.8	15.6	0.00e+00	0	25	0	1233125376	56	3875
2026-01-08 12:44:49.71	197.47	25.23	-44.8	-45.9	15.6	0.00e+00	0	25	0	1239416832	56	3931
2026-01-08 12:44:50.72	197.62	25.37	-44.9	-45.9	15.6	0.00e+00	0	25	0	1244659712	56	3947
2026-01-08 12:44:51.73	197.78	25.51	-44.9	-45.9	15.6	0.00e+00	0	25	0	1250951168	56	3947
2026-01-08 12:44:52.73	197.93	25.65	-44.9	-45.9	15.5	0.00e+00	0	25	0	1256194048	56	3951
2026-01-08 12:44:53.74	198.09	25.79	-44.9	-45.9	15.5	0.00e+00	0	25	0	1262485504	56	3956
2026-01-08 12:44:54.74	198.25	25.93	-45.0	-46.0	15.5	0.00e+00	0	25	0	1267728384	56	3986
2026-01-08 12:44:55.75	198.41	26.07	-45.1	-46.2	15.5	0.00e+00	0	25	0	1272971264	56	4052
2026-01-08 12:44:56.76	198.57	26.22	-45.0	-46.1	15.5	0.00e+00	0	25	0	1279262720	56	4020
2026-01-08 12:44:57.77	198.73	26.36	-45.0	-46.1	15.5	0.00e+00	0	25	0	1284505600	56	4028
2026-01-08 12:44:58.78	198.89	26.51	-45.0	-46.1	15.5	0.00e+00	0	25	0	1290797056	56	4027
2026-01-08 12:44:59.79	199.06	26.65	-44.9	-45.9	15.5	0.00e+00	0	25	0	1296039936	56	3944
2026-01-08 12:45:00.79	199.22	26.79	-44.8	-45.9	15.6	0.00e+00	0	25	0	1301282816	56	3920
2026-01-08 12:45:01.80	199.39	26.94	-44.7	-45.7	15.6	0.00e+00	0	25	0	1307574272	56	3863
2026-01-08 12:45:02.81	199.56	27.09	-44.8	-45.8	15.6	0.00e+00	0	25	0	1312817152	56	3878
2026-01-08 12:45:03.82	199.73	27.23	-44.8	-45.8	15.6	0.00e+00	0	25	0	1318060032	56	3889
2026-01-08 12:45:04.83	199.90	27.38	-44.7	-45.8	15.6	0.00e+00	0	25	0	1324351488	56	3871
2026-01-08 12:45:05.83	200.08	27.53	-44.5	-45.5	15.5	0.00e+00	0	25	0	1329594368	55	3985
2026-01-08 12:45:06.84	200.25	27.68	-44.5	-45.5	15.5	0.00e+00	0	25	0	1335885824	55	3993
2026-01-08 12:45:07.85	200.43	27.83	-44.6	-45.6	15.5	0.00e+00	0	25	0	1341128704	55	4039
2026-01-08 12:45:08.86	200.61	27.98	-44.6	-45.7	15.5	0.00e+00	0	25	0	1347420160	55	4061
2026-01-08 12:45:09.87	200.79	28.13	-58.9	-71.1	3.8	8.44e-01	0	25	104	1348468736	83	15052
2026-01-08 12:45:10.88	200.97	28.28	-58.8	-71.0	3.8	8.44e-01	0	25	104	1348468736	83	14921
2026-01-08 12:45:11.89	201.16	28.43	-58.8	-70.6	3.8	8.45e-01	0	25	104	1348468736	83	14312
2026-01-08 12:45:12.90	201.34	28.58	-58.8	-71.4	3.8	8.46e-01	0	25	104	1348468736	83	15680
2026-01-08 12:45:13.91	201.53	28.73	-58.6	-68.5	3.9	8.46e-01	0	25	104	1348468736	83	11226
2026-01-08 12:45:14.91	201.72	28.88	-58.7	-69.3	3.9	8.39e-01	0	25	104	1348468736	83	12339
2026-01-08 12:45:15.92	201.91	29.04	-58.6	-68.8	4.1	8.37e-01	0	25	0	1348468736	83	11587
2026-01-08 12:45:16.93	202.10	29.19	-58.5	-68.4	4.2	8.36e-01	0	25	0	1348468736	83	11037
2026-01-08 12:45:17.94	202.30	29.35	-58.6	-68.4	4.2	8.36e-01	0	25	0	1348468736	83	11107
2026-01-08 12:45:18.94	202.49	29.50	-58.6	-68.4	4.2	8.36e-01	0	25	0	1348468736	83	11130
2026-01-08 12:45:19.95	202.69	29.65	-58.6	-68.4	4.2	8.37e-01	0	25	0	1348468736	83	11136
2026-01-08 12:45:20.96	202.89	29.81	-58.6	-68.4	4.2	8.36e-01	0	25	0	1348468736	83	11142
2026-01-08 12:45:21.97	203.09	29.97	-58.6	-68.6	4.2	8.39e-01	0	25	0	1348468736	83	11311
2026-01-08 12:45:22.97	203.29	30.12	-58.8	-70.4	3.8	8.41e-01	0	25	104	1348468736	83	13917
2026-01-08 12:45:23.98	203.50	30.28	-58.6	-68.4	4.2	8.36e-01	0	25	0	1348468736	83	11133
2026-01-08 12:45:24.98	203.70	30.44	-58.9	-71.4	3.8	8.45e-01	0	25	104	1348468736	83	15727
2026-01-08 12:45:25.99	203.91	30.59	-58.7	-69.5	3.9	8.44e-01	0	25	104	1348468736	83	12623
2026-01-08 12:45:27.00	204.13	30.75	-58.6	-68.5	4.2	8.35e-01	0	25	0	1348468736	83	11270
2026-01-08 12:45:28.01	204.34	30.91	-58.6	-68.6	4.2	8.38e-01	0	25	0	1348468736	83	11296
2026-01-08 12:45:29.01	204.55	31.07	-58.6	-68.6	4.1	8.39e-01	0	25	0	1348468736	83	11397
2026-01-08 12:45:30.02	204.77	31.23	-58.6	-68.4	4.2	8.37e-01	0	25	0	1348468736	83	11137
2026-01-08 12:45:31.03	204.99	31.39	-58.6	-68.2	4.2	8.37e-01	0	25	0	1348468736	83	10876
2026-01-08 12:45:32.04	205.21	31.55	-58.6	-68.2	4.3	8.32e-01	0	25	0	1348468736	83	10804
2026-01-08 12:45:33.05	205.44	31.71	-58.6	-68.3	4.2	8.35e-01	0	25	0	1348468736	83	10945
2026-01-08 12:45:34.06	205.67	31.87	-58.6	-68.3	4.2	8.36e-01	0	25	0	1348468736	83	10948
2026-01-08 12:45:35.07	205.89	32.03	-58.8	-70.0	3.8	8.44e-01	0	25	104	1348468736	83	13377
2026-01-08 12:45:36.07	206.12	32.20	-58.9	-70.8	3.8	8.46e-01	0	25	104	1348468736	83	14663
2026-01-08 12:45:37.09	206.36	32.36	-58.7	-68.6	4.1	8.38e-01	0	25	0	1348468736	83	11385
2026-01-08 12:45:38.09	206.59	32.52	-58.9	-71.3	3.8	8.45e-01	0	25	104	1348468736	83	15444
2026-01-08 12:45:39.11	206.83	32.69	-58.6	-68.5	4.2	8.43e-01	0	25	104	1348468736	83	11276
2026-01-08 12:45:40.11	207.07	32.85	-58.6	-68.5	4.2	8.36e-01	0	25	0	1348468736	83	11224
2026-01-08 12:45:41.12	207.31	33.01	-58.7	-68.6	4.1	8.38e-01	0	25	0	1348468736	83	11377
2026-01-08 12:45:42.13	207.56	33.18	-58.6	-68.4	4.2	8.35e-01	0	25	0	1348468736	83	11039
2026-01-08 12:45:43.14	207.81	33.34	-58.6	-68.4	4.2	8.33e-01	0	25	0	1348468736	83	11090
2026-01-08 12:45:44.14	208.05	33.51	-58.6	-68.4	4.2	8.35e-01	0	25	0	1348468736	83	11130
2026-01-08 12:45:45.16	208.31	33.67	-58.7	-68.8	4.1	8.38e-01	0	25	0	1348468736	83	11670
2026-01-08 12:45:46.16	208.56	33.84	-58.9	-70.6	3.8	8.45e-01	0	25	104	1348468736	83	14232
2026-01-08 12:45:47.17	208.82	34.00	-58.9	-70.7	3.8	8.45e-01	0	25	104	1348468736	83	14493
2026-01-08 12:45:48.18	209.08	34.17	-58.6	-68.3	4.2	8.36e-01	0	25	0	1348468736	83	11008
2026-01-08 12:45:49.19	209.34	34.34	-58.9	-71.5	3.8	8.45e-01	0	25	104	1348468736	83	15877
2026-01-08 12:45:50.19	209.61	34.50	-58.6	-68.3	4.2	8.40e-01	0	25	104	1348468736	83	11028
2026-01-08 12:45:51.20	209.87	34.67	-58.7	-68.5	4.2	8.35e-01	0	25	0	1348468736	83	11222
2026-01-08 12:45:52.21	210.14	34.84	-58.6	-68.4	4.2	8.36e-01	0	25	0	1348468736	83	11131
2026-01-08 12:45:53.22	210.42	35.00	-58.6	-68.4	4.2	8.36e-01	0	25	0	1348468736	83	11128
2026-01-08 12:45:54.22	210.69	35.17	-58.6	-68.3	4.2	8.33e-01	0	25	0	1348468736	83	10984
2026-01-08 12:45:55.23	210.97	35.34	-58.7	-68.3	4.2	8.34e-01	0	25	0	1348468736	83	10905
2026-01-08 12:45:56.23	211.25	35.50	-58.7	-68.7	4.1	8.35e-01	0	25	0	1348468736	83	11532
2026-01-08 12:45:57.24	211.53	35.67	-59.0	-71.2	3.8	8.46e-01	0	25	104	1348468736	83	15389
2026-01-08 12:45:58.25	211.82	35.84	-58.9	-70.8	3.8	8.46e-01	0	25	104	1348468736	83	14559
2026-01-08 12:45:59.26	212.11	36.01	-58.7	-68.2	4.3	8.37e-01	0	25	0	1348468736	83	10883
2026-01-08 12:46:00.27	212.41	36.18	-59.0	-71.5	3.8	8.45e-01	0	25	104	1348468736	83	15789
2026-01-08 12:46:01.27	212.70	36.34	-58.7	-68.5	4.2	8.38e-01	0	25	0	1348468736	83	11244
2026-01-08 12:46:02.28	213.00	36.51	-58.7	-68.4	4.2	8.34e-01	0	25	0	1348468736	83	11090
2026-01-08 12:46:03.29	213.30	36.68	-58.7	-68.4	4.2	8.35e-01	0	25	0	1348468736	83	11116
2026-01-08 12:46:04.30	213.61	36.85	-58.7	-68.3	4.2	8.34e-01	0	25	0	1348468736	83	10962
2026-01-08 12:46:05.31	213.92	37.01	-58.7	-68.2	4.3	8.34e-01	0	25	0	1348468736	83	10885
2026-01-08 12:46:06.31	214.23	37.18	-58.7	-68.6	4.2	8.35e-01	0	25	0	1348468736	83	11408
2026-01-08 12:46:07.32	214.54	37.35	-58.8	-69.0	4.1	8.42e-01	0	25	104	1348468736	83	11943
2026-01-08 12:46:08.33	214.86	37.52	-58.9	-70.3	3.8	8.34e-01	0	25	104	1348468736	83	13859
2026-01-08 12:46:09.34	215.18	37.69	-59.0	-72.1	3.8	8.46e-01	0	25	104	1348468736	83	16921
2026-01-08 12:46:10.35	215.51	37.85	-58.7	-68.5	4.2	8.45e-01	0	25	104	1348468736	83	11258
2026-01-08 12:46:11.36	215.83	38.02	-58.7	-68.3	4.2	8.33e-01	0	25	0	1348468736	83	11002
2026-01-08 12:46:12.37	216.16	38.19	-58.7	-68.2	4.3	8.32e-01	0	25	0	1348468736	83	10865
2026-01-08 12:46:13.37	216.50	38.35	-58.7	-68.2	4.3	8.33e-01	0	25	0	1348468736	83	10840
2026-01-08 12:46:14.38	216.83	38.52	-58.7	-68.0	4.3	8.30e-01	0	25	0	1348468736	83	10607
2026-01-08 12:46:15.38	217.17	38.69	-58.7	-67.9	4.4	8.27e-01	0	25	0	1348468736	83	10489
2026-01-08 12:46:16.39	217.52	38.85	-58.7	-68.0	4.4	8.27e-01	0	25	0	1348468736	83	10597
2026-01-08 12:46:17.40	217.87	39.02	-58.7	-68.2	4.3	8.30e-01	0	25	0	1348468736	83	10842
2026-01-08 12:46:18.40	218.21	39.18	-58.7	-68.4	4.3	8.36e-01	0	25	0	1348468736	83	11136
2026-01-08 12:46:19.41	218.57	39.35	-59.0	-71.3	3.8	8.36e-01	0	25	104	1348468736	83	15437
2026-01-08 12:46:20.42	218.93	39.51	-59.1	-71.9	3.8	8.46e-01	0	25	104	1348468736	83	16579
2026-01-08 12:46:21.42	219.29	39.67	-58.8	-68.6	4.2	8.43e-01	0	25	104	1348468736	83	11385
2026-01-08 12:46:22.43	219.65	39.84	-58.7	-68.2	4.3	8.31e-01	0	25	0	1348468736	83	10813
2026-01-08 12:46:23.43	220.02	40.00	-58.7	-68.1	4.3	8.28e-01	0	25	0	1348468736	83	10670
2026-01-08 12:46:24.43	220.39	40.16	-58.7	-68.2	4.3	8.31e-01	0	25	0	1348468736	83	10815
2026-01-08 12:46:25.44	220.77	40.32	-58.7	-68.2	4.3	8.31e-01	0	25	0	1348468736	83	10867
2026-01-08 12:46:26.45	221.15	40.48	-58.7	-68.3	4.3	8.32e-01	0	25	0	1348468736	83	10984
2026-01-08 12:46:27.45	221.53	40.64	-58.7	-68.3	4.3	8.33e-01	0	25	0	1348468736	83	11021
2026-01-08 12:46:28.46	221.92	40.80	-58.8	-68.3	4.3	8.34e-01	0	25	0	1348468736	83	11014
2026-01-08 12:46:29.47	222.31	40.96	-58.9	-69.3	4.1	8.34e-01	0	25	0	1348468736	83	12299
2026-01-08 12:46:30.47	222.70	41.12	-59.1	-71.7	3.8	8.46e-01	0	25	104	1348468736	83	16311
2026-01-08 12:46:31.48	223.10	41.28	-59.0	-70.9	3.8	8.45e-01	0	25	104	1348468736	83	14846
2026-01-08 12:46:32.49	223.51	41.43	-59.1	-71.4	3.8	8.44e-01	0	25	104	1348468736	83	15667
2026-01-08 12:46:33.50	223.91	41.59	-58.7	-67.6	4.5	8.19e-01	0	25	0	1348468736	83	10167
2026-01-08 12:46:34.50	224.32	41.74	-58.7	-67.3	4.7	8.15e-01	0	25	0	1348468736	83	9727
2026-01-08 12:46:35.50	224.73	41.89	-58.6	-66.7	5.0	7.69e-01	0	25	0	1348468736	83	9099
2026-01-08 12:46:36.52	225.15	42.05	-58.6	-66.8	4.9	7.77e-01	0	25	0	1348468736	83	9187
2026-01-08 12:46:37.53	225.58	42.20	-58.6	-66.8	4.9	7.74e-01	0	25	0	1348468736	83	9221
2026-01-08 12:46:38.53	226.00	42.35	-58.6	-67.0	4.8	7.79e-01	0	25	0	1348468736	83	9405
2026-01-08 12:46:39.54	226.43	42.50	-58.7	-67.4	4.6	7.81e-01	0	25	0	1348468736	83	9891
2026-01-08 12:46:40.54	226.86	42.65	-58.6	-67.1	4.7	7.84e-01	0	25	0	1348468736	83	9582
2026-01-08 12:46:41.55	227.30	42.79	-59.1	-71.3	3.8	8.44e-01	0	25	104	1348468736	83	15450
2026-01-08 12:46:42.55	227.74	42.94	-59.0	-70.3	3.8	8.41e-01	0	25	104	1348468736	83	13883
2026-01-08 12:46:43.56	228.19	43.08	-58.8	-68.7	4.2	8.45e-01	0	25	104	1348468736	83	11475
2026-01-08 12:46:44.57	228.64	43.23	-58.8	-68.4	4.2	8.33e-01	0	25	0	1348468736	83	11122
2026-01-08 12:46:45.58	229.09	43.37	-58.8	-68.5	4.2	8.36e-01	0	25	0	1348468736	83	11195
2026-01-08 12:46:46.58	229.55	43.51	-58.8	-68.6	4.2	8.36e-01	0	25	0	1348468736	83	11312
2026-01-08 12:46:47.59	230.01	43.65	-58.8	-68.9	4.1	8.37e-01	0	25	0	1348468736	83	11713
2026-01-08 12:46:48.60	230.47	43.78	-58.9	-68.8	4.2	8.38e-01	0	25	0	1348468736	83	11626
2026-01-08 12:46:49.61	230.94	43.92	-58.9	-68.9	4.2	8.38e-01	0	25	0	1348468736	83	11684
2026-01-08 12:46:50.62	231.42	44.05	-58.9	-68.8	4.2	8.38e-01	0	25	0	1348468736	83	11666
2026-01-08 12:46:51.62	231.89	44.18	-59.2	-72.1	3.8	8.42e-01	0	25	104	1348468736	83	17004
2026-01-08 12:46:52.63	232.37	44.32	-59.2	-71.5	3.8	8.47e-01	0	25	104	1348468736	83	15921
2026-01-08 12:46:53.64	232.86	44.44	-59.2	-71.7	3.8	8.46e-01	0	25	104	1348468736	83	16265
2026-01-08 12:46:54.65	233.35	44.57	-58.9	-68.8	3.9	8.45e-01	0	25	104	1348468736	83	11663
2026-01-08 12:46:55.66	233.84	44.70	-58.8	-67.9	4.4	8.19e-01	0	25	0	1348468736	83	10532
2026-01-08 12:46:56.67	234.34	44.82	-58.8	-67.8	4.5	8.19e-01	0	25	0	1348468736	83	10371
2026-01-08 12:46:57.68	234.84	44.94	-58.7	-67.4	4.6	8.10e-01	0	25	0	1348468736	83	9871
2026-01-08 12:46:58.69	235.35	45.06	-58.7	-67.1	4.7	7.97e-01	0	25	0	1348468736	83	9582
2026-01-08 12:46:59.70	235.86	45.18	-58.7	-67.1	4.8	7.91e-01	0	25	0	1348468736	83	9565
2026-01-08 12:47:00.70	236.37	45.29	-58.8	-67.4	4.7	7.96e-01	0	25	0	1348468736	83	9860
2026-01-08 12:47:01.71	236.88	45.40	-58.9	-68.5	4.3	8.13e-01	0	25	0	1348468736	83	11180
2026-01-08 12:47:02.72	237.40	45.51	-58.8	-67.5	4.6	8.14e-01	0	25	0	1348468736	83	9957
2026-01-08 12:47:03.73	237.92	45.62	-59.1	-70.6	3.8	8.44e-01	0	25	104	1348468736	83	14327
2026-01-08 12:47:04.74	238.45	45.73	-58.9	-68.2	4.0	8.46e-01	0	25	104	1348468736	83	10806
2026-01-08 12:47:05.75	238.98	45.83	-59.0	-69.0	4.1	7.93e-01	0	25	0	1348468736	83	11916
2026-01-08 12:47:06.75	239.51	45.93	-58.7	-67.0	4.8	8.14e-01	0	25	0	1348468736	83	9459
2026-01-08 12:47:07.76	240.05	46.03	-58.7	-67.0	4.8	7.83e-01	0	25	0	1348468736	83	9453
2026-01-08 12:47:08.77	240.59	46.13	-58.7	-67.1	4.8	7.88e-01	0	25	0	1348468736	83	9568
2026-01-08 12:47:09.78	241.13	46.22	-58.7	-67.2	4.7	7.94e-01	0	25	0	1348468736	83	9673
2026-01-08 12:47:10.79	241.68	46.31	-58.7	-67.1	4.8	7.91e-01	0	25	0	1348468736	83	9555
2026-01-08 12:47:11.80	242.23	46.40	-58.7	-67.0	4.8	7.87e-01	0	25	0	1348468736	83	9395
2026-01-08 12:47:12.80	242.78	46.49	-58.7	-66.7	5.0	7.86e-01	0	25	0	1348468736	83	9137
2026-01-08 12:47:13.81	243.33	46.57	-58.7	-66.9	4.9	8.13e-01	0	25	0	1348468736	83	9297
2026-01-08 12:47:14.82	243.89	46.65	-59.2	-70.8	3.8	8.45e-01	0	25	104	1348468736	83	14616
2026-01-08 12:47:15.83	244.45	46.73	-59.0	-68.5	4.3	8.43e-01	0	25	104	1348468736	83	11215
2026-01-08 12:47:16.84	245.02	46.80	-58.9	-68.7	4.2	7.85e-01	0	25	0	1348468736	83	11519
2026-01-08 12:47:17.85	245.58	46.88	-58.7	-66.9	4.8	7.96e-01	0	25	0	1348468736	83	9374
2026-01-08 12:47:18.85	246.15	46.95	-58.7	-66.7	5.0	7.79e-01	0	25	0	1348468736	83	9089
2026-01-08 12:47:19.86	246.72	47.01	-58.6	-66.1	5.3	7.24e-01	0	25	0	1348468736	83	8520
2026-01-08 12:47:20.87	247.29	47.08	-58.5	-65.9	5.5	6.53e-01	0	25	0	1349517312	83	8295
2026-01-08 12:47:21.88	247.87	47.14	-58.5	-65.8	5.5	6.13e-01	0	25	0	1352663040	83	8199
2026-01-08 12:47:22.89	248.45	47.19	-58.4	-65.2	5.9	3.84e-01	0	25	0	1358954496	83	7713
2026-01-08 12:47:23.89	249.02	47.25	-58.7	-66.7	5.0	7.69e-01	0	25	0	1361051648	83	9095
2026-01-08 12:47:24.89	249.60	47.30	-58.7	-66.7	5.0	7.82e-01	0	25	0	1361051648	83	9129
2026-01-08 12:47:25.90	250.18	47.35	-59.2	-71.0	3.8	8.44e-01	0	25	104	1362100224	83	14960
2026-01-08 12:47:26.90	250.76	47.39	-59.0	-68.5	4.3	8.35e-01	0	25	0	1362100224	83	11172
2026-01-08 12:47:27.91	251.35	47.43	-58.9	-68.0	4.4	7.57e-01	0	25	0	1362100224	83	10535
2026-01-08 12:47:28.92	251.94	47.47	-58.6	-66.6	5.0	7.59e-01	0	25	0	1362100224	83	9015
2026-01-08 12:47:29.93	252.53	47.51	-58.6	-66.2	5.2	7.51e-01	0	25	0	1362100224	83	8615
2026-01-08 12:47:30.93	253.12	47.54	-58.5	-65.6	5.6	4.85e-01	0	25	0	1364197376	83	8023
2026-01-08 12:47:31.94	253.71	47.57	-58.4	-65.3	5.9	3.76e-01	0	25	0	1369440256	83	7732
2026-01-08 12:47:32.95	254.30	47.59	-58.4	-65.1	6.0	3.29e-01	0	25	0	1375731712	83	7586
2026-01-08 12:47:33.96	254.90	47.62	-58.3	-64.7	6.3	2.72e-01	0	25	0	1380974592	83	7221
2026-01-08 12:47:34.97	255.49	47.64	-57.5	-62.3	8.3	5.37e-02	0	25	0	1387266048	81	6173
2026-01-08 12:47:35.98	256.09	47.65	-58.6	-66.2	5.2	7.59e-01	0	25	0	1389363200	82	9158
2026-01-08 12:47:36.98	256.68	47.66	-59.2	-71.0	3.8	8.45e-01	0	25	104	1390411776	83	14992
2026-01-08 12:47:37.99	257.28	47.67	-58.9	-67.7	4.6	8.35e-01	0	25	0	1390411776	83	10188
2026-01-08 12:47:39.00	257.88	47.68	-58.9	-67.8	4.5	7.50e-01	0	25	0	1390411776	83	10319
2026-01-08 12:47:40.00	258.47	47.68	-58.7	-66.6	5.0	7.51e-01	0	25	0	1390411776	83	9053
2026-01-08 12:47:41.01	259.07	47.68	-58.6	-66.1	5.3	7.40e-01	0	25	0	1390411776	83	8534
2026-01-08 12:47:42.02	259.66	47.68	-58.4	-65.2	5.9	3.90e-01	0	25	0	1394606080	83	7710
2026-01-08 12:47:43.03	260.26	47.67	-58.3	-64.8	6.2	2.96e-01	0	25	0	1399848960	83	7356
2026-01-08 12:47:44.04	260.86	47.66	-58.3	-64.5	6.4	2.31e-01	0	25	0	1405091840	83	7097
2026-01-08 12:47:45.04	261.45	47.65	-58.2	-64.2	6.7	1.89e-01	0	25	0	1411383296	83	6871
2026-01-08 12:47:46.05	262.05	47.63	-57.8	-63.0	7.8	5.92e-02	0	25	0	1416626176	82	6300
2026-01-08 12:47:47.06	262.64	47.61	-58.7	-66.7	5.0	7.76e-01	0	25	0	1418723328	82	9703
2026-01-08 12:47:48.07	263.23	47.59	-59.3	-71.4	3.8	8.45e-01	0	25	104	1418723328	83	15645
2026-01-08 12:47:49.08	263.83	47.56	-58.9	-67.5	4.7	8.21e-01	0	25	0	1418723328	83	10026
2026-01-08 12:47:50.09	264.42	47.53	-58.9	-67.7	4.6	7.94e-01	0	25	0	1418723328	83	10278
2026-01-08 12:47:51.10	265.01	47.50	-58.7	-66.9	4.9	7.71e-01	0	25	0	1418723328	83	9356
2026-01-08 12:47:52.11	265.60	47.46	-58.6	-66.3	5.3	7.57e-01	0	25	0	1418723328	83	8681
2026-01-08 12:47:53.12	266.19	47.42	-58.5	-65.5	5.7	4.72e-01	0	25	0	1420820480	83	7947
2026-01-08 12:47:54.13	266.78	47.38	-58.4	-65.1	6.1	3.17e-01	0	25	0	1427111936	83	7545
2026-01-08 12:47:55.13	267.36	47.33	-58.3	-64.7	6.3	2.60e-01	0	25	0	1432354816	83	7236
2026-01-08 12:47:56.14	267.94	47.29	-58.3	-64.4	6.5	2.08e-01	0	25	0	1438646272	83	6996
2026-01-08 12:47:57.15	268.52	47.23	-58.4	-64.9	6.2	1.92e-01	0	25	0	1443889152	83	7414
2026-01-08 12:47:58.16	269.10	47.18	-58.8	-67.2	4.8	7.86e-01	0	25	0	1444937728	83	9662
2026-01-08 12:47:59.16	269.67	47.12	-59.3	-71.6	3.8	8.45e-01	0	25	104	1444937728	83	16066
2026-01-08 12:48:00.17	270.25	47.06	-58.8	-66.8	5.0	6.99e-01	0	25	0	1444937728	83	9175
2026-01-08 12:48:01.18	270.82	47.00	-58.7	-66.5	5.1	7.68e-01	0	25	0	1445986304	83	8910
2026-01-08 12:48:02.19	271.39	46.93	-58.6	-66.0	5.5	6.87e-01	0	25	0	1447034880	83	8368
2026-01-08 12:48:03.19	271.96	46.86	-58.4	-65.2	6.0	3.38e-01	0	25	0	1452277760	83	7635
2026-01-08 12:48:04.20	272.52	46.79	-58.3	-64.6	6.4	2.46e-01	0	25	0	1458569216	83	7191
2026-01-08 12:48:05.21	273.08	46.71	-58.3	-64.4	6.5	2.09e-01	0	25	0	1463812096	83	7008
2026-01-08 12:48:06.22	273.64	46.63	-58.3	-64.6	6.4	2.25e-01	0	25	0	1470103552	83	7129
2026-01-08 12:48:07.23	274.20	46.55	-58.3	-64.7	6.3	2.25e-01	0	25	0	1475346432	83	7234
2026-01-08 12:48:08.24	274.76	46.47	-59.2	-69.6	3.9	8.45e-01	0	25	104	1476395008	83	12693
2026-01-08 12:48:09.25	275.31	46.38	-59.2	-69.5	4.1	8.45e-01	0	25	104	1476395008	83	12558
2026-01-08 12:48:10.26	275.86	46.29	-59.4	-72.2	3.8	8.45e-01	0	25	104	1476395008	83	17101
2026-01-08 12:48:11.26	276.40	46.20	-59.2	-70.5	3.8	8.46e-01	0	25	104	1476395008	83	14197
2026-01-08 12:48:12.27	276.94	46.11	-58.8	-66.9	4.9	7.64e-01	0	25	0	1476395008	83	9312
2026-01-08 12:48:13.28	277.48	46.01	-58.7	-66.5	5.1	7.59e-01	0	25	0	1476395008	83	8937
2026-01-08 12:48:14.28	278.01	45.91	-58.4	-65.0	6.1	3.50e-01	0	25	0	1478492160	83	7510
2026-01-08 12:48:15.29	278.54	45.81	-57.8	-62.9	7.8	1.18e-01	0	25	0	1484783616	82	6263
2026-01-08 12:48:16.30	279.07	45.70	-56.9	-60.8	9.6	9.48e-03	0	25	0	1490026496	80	5528
2026-01-08 12:48:17.31	279.59	45.60	-56.0	-59.1	11.0	7.76e-04	0	25	0	1495269376	78	5079
2026-01-08 12:48:18.32	280.12	45.49	-55.4	-58.2	11.6	8.12e-05	0	25	0	1501560832	77	4837
2026-01-08 12:48:19.33	280.63	45.38	-55.0	-57.6	12.0	1.25e-05	0	25	0	1506803712	76	4781
2026-01-08 12:48:20.33	281.14	45.27	-54.8	-57.2	12.3	1.02e-05	0	25	0	1513095168	76	4598
2026-01-08 12:48:21.34	281.65	45.15	-54.5	-56.8	12.5	1.10e-06	0	25	0	1518338048	75	4641
2026-01-08 12:48:22.35	282.16	45.03	-54.5	-56.8	12.5	0.00e+00	0	25	0	1524629504	75	4600
2026-01-08 12:48:23.36	282.67	44.91	-54.6	-56.9	12.4	2.20e-06	0	25	0	1529872384	75	4694
2026-01-08 12:48:24.37	283.17	44.79	-54.7	-57.1	12.3	2.20e-06	0	25	0	1535115264	75	4782
2026-01-08 12:48:25.38	283.66	44.67	-54.4	-56.7	12.6	0.00e+00	0	25	0	1541406720	75	4569
2026-01-08 12:48:26.39	284.15	44.54	-53.6	-55.6	13.2	0.00e+00	0	25	0	1546649600	73	4528
2026-01-08 12:48:27.39	284.64	44.42	-52.7	-54.4	13.8	0.00e+00	0	25	0	1552941056	72	4183
2026-01-08 12:48:28.40	285.12	44.29	-51.6	-53.2	14.2	0.00e+00	0	25	0	1558183936	69	4302
2026-01-08 12:48:29.42	285.61	44.16	-50.3	-51.8	14.7	0.00e+00	0	25	0	1563426816	67	4101
2026-01-08 12:48:30.42	286.08	44.03	-49.0	-50.3	14.9	0.00e+00	0	25	0	1569718272	64	4131
2026-01-08 12:48:31.43	286.55	43.89	-47.8	-49.0	15.3	0.00e+00	0	25	0	1574961152	62	3981
2026-01-08 12:48:32.44	287.02	43.76	-47.0	-48.2	15.5	0.00e+00	0	25	0	1581252608	59	4304
2026-01-08 12:48:33.45	287.48	43.62	-46.6	-47.8	15.3	0.00e+00	0	25	0	1586495488	59	4099
2026-01-08 12:48:34.46	287.94	43.48	-45.8	-46.9	15.5	0.00e+00	0	25	0	1591738368	58	3936
2026-01-08 12:48:35.46	288.40	43.34	-45.4	-46.5	15.5	0.00e+00	0	25	0	1598029824	57	3985
2026-01-08 12:48:36.47	288.85	43.20	-45.5	-46.6	15.5	0.00e+00	0	25	0	1603272704	57	4008
2026-01-08 12:48:37.48	289.30	43.06	-45.4	-46.4	15.5	0.00e+00	0	25	0	1609564160	57	3946
2026-01-08 12:48:38.49	289.74	42.91	-45.4	-46.4	15.5	0.00e+00	0	25	0	1614807040	57	3951
2026-01-08 12:48:39.49	290.18	42.77	-45.4	-46.5	15.5	0.00e+00	0	25	0	1621098496	57	3974
2026-01-08 12:48:40.50	290.62	42.62	-45.6	-46.7	15.4	0.00e+00	0	25	0	1626341376	57	4073
2026-01-08 12:48:41.51	291.05	42.47	-45.6	-46.7	15.5	0.00e+00	0	25	0	1631584256	57	4060
2026-01-08 12:48:42.52	291.48	42.32	-45.6	-46.7	15.4	0.00e+00	0	25	0	1637875712	57	4059
2026-01-08 12:48:43.53	291.91	42.17	-45.6	-46.6	15.5	0.00e+00	0	25	0	1643118592	57	4039
2026-01-08 12:48:44.54	292.33	42.02	-45.6	-46.7	15.5	0.00e+00	0	25	0	1649410048	57	4052
2026-01-08 12:48:45.55	292.74	41.87	-45.5	-46.5	15.5	0.00e+00	0	25	0	1654652928	57	3990
2026-01-08 12:48:46.56	293.16	41.71	-45.5	-46.5	15.5	0.00e+00	0	25	0	1659895808	57	3999
2026-01-08 12:48:47.56	293.56	41.56	-45.3	-46.3	15.6	0.00e+00	0	25	0	1666187264	57	3898
2026-01-08 12:48:48.57	293.97	41.40	-45.4	-46.4	15.5	0.00e+00	0	25	0	1671430144	57	3946
2026-01-08 12:48:49.58	294.37	41.25	-45.3	-46.4	15.6	0.00e+00	0	25	0	1677721600	57	3930
2026-01-08 12:48:50.59	294.77	41.09	-45.4	-46.4	15.5	0.00e+00	0	25	0	1682964480	57	3947
2026-01-08 12:48:51.60	295.16	40.93	-45.4	-46.4	15.5	0.00e+00	0	25	0	1688207360	57	3938
2026-01-08 12:48:52.61	295.55	40.77	-45.2	-46.2	15.5	0.00e+00	0	25	0	1694498816	56	4079
2026-01-08 12:48:53.61	295.94	40.62	-45.2	-46.3	15.4	0.00e+00	0	25	0	1699741696	56	4118
2026-01-08 12:48:54.62	296.32	40.45	-45.3	-46.4	15.4	0.00e+00	0	25	0	1706033152	56	4166
2026-01-08 12:48:55.64	296.70	40.29	-45.4	-46.5	15.4	0.00e+00	0	25	0	1711276032	56	4218
2026-01-08 12:48:56.64	297.07	40.13	-45.6	-46.7	15.4	0.00e+00	0	25	0	1717567488	56	4307
2026-01-08 12:48:57.65	297.45	39.97	-45.5	-46.6	15.4	0.00e+00	0	25	0	1722810368	56	4273
2026-01-08 12:48:58.66	297.81	39.81	-45.6	-46.7	15.3	0.00e+00	0	25	0	1728053248	56	4296
2026-01-08 12:48:59.67	298.18	39.64	-45.5	-46.5	15.4	0.00e+00	0	25	0	1734344704	56	4232
2026-01-08 12:49:00.68	298.54	39.48	-45.4	-46.4	15.4	0.00e+00	0	25	0	1739587584	56	4186
2026-01-08 12:49:01.69	298.90	39.32	-45.3	-46.4	15.4	0.00e+00	0	25	0	1745879040	56	4171
2026-01-08 12:49:02.69	299.25	39.15	-45.4	-46.5	15.4	0.00e+00	0	25	0	1751121920	56	4222
2026-01-08 12:49:03.70	299.60	38.99	-45.3	-46.3	15.4	0.00e+00	0	25	0	1756364800	56	4143
2026-01-08 12:49:04.71	299.94	38.82	-45.3	-46.3	15.4	0.00e+00	0	25	0	1762656256	56	4145
2026-01-08 12:49:05.72	300.29	38.66	-45.4	-46.5	15.4	0.00e+00	0	25	0	1767899136	56	4203
2026-01-08 12:49:06.73	300.63	38.49	-45.4	-46.5	15.4	0.00e+00	0	25	0	1774190592	56	4232
2026-01-08 12:49:07.74	300.96	38.32	-45.5	-46.6	15.4	0.00e+00	0	25	0	1779433472	56	4244
2026-01-08 12:49:08.74	301.29	38.16	-45.5	-46.6	15.4	0.00e+00	0	25	0	1784676352	56	4262
2026-01-08 12:49:09.75	301.62	37.99	-45.3	-46.4	15.4	0.00e+00	0	25	0	1790967808	56	4174
2026-01-08 12:49:10.76	301.95	37.83	-45.3	-46.4	15.4	0.00e+00	0	25	0	1796210688	56	4175
2026-01-08 12:49:11.77	302.27	37.66	-45.3	-46.4	15.4	0.00e+00	0	25	0	1802502144	56	4158
2026-01-08 12:49:12.78	302.59	37.49	-45.5	-46.5	15.4	0.00e+00	0	25	0	1807745024	56	4235
2026-01-08 12:49:13.79	302.91	37.32	-45.6	-46.7	15.4	0.00e+00	0	25	0	1814036480	56	4324
2026-01-08 12:49:14.80	303.22	37.16	-45.7	-46.8	15.3	0.00e+00	0	25	0	1819279360	56	4364
2026-01-08 12:49:15.81	303.53	36.99	-45.8	-46.9	15.3	0.00e+00	0	25	0	1824522240	56	4396
2026-01-08 12:49:16.82	303.84	36.82	-45.6	-46.6	15.4	0.00e+00	0	25	0	1830813696	56	4283
2026-01-08 12:49:17.82	304.14	36.66	-45.7	-46.8	15.3	0.00e+00	0	25	0	1836056576	56	4361
2026-01-08 12:49:18.82	304.44	36.49	-45.7	-46.7	15.3	0.00e+00	0	25	0	1842348032	56	4331
2026-01-08 12:49:19.83	304.74	36.32	-45.6	-46.7	15.3	0.00e+00	0	25	0	1847590912	56	4333
2026-01-08 12:49:20.84	305.03	36.15	-45.8	-46.9	15.3	0.00e+00	0	25	0	1852833792	56	4441
2026-01-08 12:49:21.85	305.33	35.99	-45.8	-46.9	15.4	0.00e+00	0	25	0	1859125248	57	4184
2026-01-08 12:49:22.86	305.61	35.82	-45.8	-46.9	15.4	0.00e+00	0	25	0	1864368128	57	4166
2026-01-08 12:49:23.87	305.90	35.65	-45.8	-46.9	15.4	0.00e+00	0	25	0	1869611008	57	4175
2026-01-08 12:49:24.87	306.18	35.49	-46.0	-47.1	15.3	0.00e+00	0	25	0	1875902464	57	4268
2026-01-08 12:49:25.88	306.46	35.32	-46.1	-47.2	15.3	0.00e+00	0	25	0	1881145344	57	4326
2026-01-08 12:49:26.89	306.74	35.15	-46.2	-47.3	15.3	0.00e+00	0	25	0	1887436800	57	4355
2026-01-08 12:49:27.90	307.02	34.99	-46.0	-47.2	15.3	0.00e+00	0	25	0	1892679680	57	4293
2026-01-08 12:49:28.91	307.29	34.82	-45.9	-47.0	15.4	0.00e+00	0	25	0	1898971136	57	4223
2026-01-08 12:49:29.92	307.56	34.65	-45.8	-46.9	15.4	0.00e+00	0	25	0	1904214016	57	4171
2026-01-08 12:49:30.93	307.82	34.49	-45.9	-47.0	15.3	0.00e+00	0	25	0	1910505472	57	4209
2026-01-08 12:49:31.94	308.09	34.32	-46.1	-47.2	15.3	0.00e+00	0	25	0	1915748352	57	4293
2026-01-08 12:49:32.94	308.35	34.16	-46.3	-47.4	15.3	0.00e+00	0	25	0	1920991232	57	4400
2026-01-08 12:49:33.95	308.61	33.99	-46.3	-47.4	15.2	0.00e+00	0	25	0	1927282688	57	4428
2026-01-08 12:49:34.96	308.86	33.83	-46.3	-47.4	15.3	0.00e+00	0	25	0	1932525568	58	4178
2026-01-08 12:49:35.97	309.12	33.66	-46.2	-47.4	15.4	0.00e+00	0	25	0	1937768448	58	4146
2026-01-08 12:49:36.98	309.37	33.50	-46.2	-47.3	15.4	0.00e+00	0	25	0	1944059904	58	4111
2026-01-08 12:49:37.99	309.62	33.33	-46.3	-47.4	15.3	0.00e+00	0	25	0	1949302784	58	4170
2026-01-08 12:49:39.00	309.86	33.17	-46.5	-47.6	15.3	0.00e+00	0	25	0	1955594240	58	4254
2026-01-08 12:49:40.00	310.11	33.01	-46.2	-47.3	15.4	0.00e+00	0	25	0	1960837120	58	4119
2026-01-08 12:49:41.01	310.35	32.84	-46.3	-47.4	15.3	0.00e+00	0	25	0	1966080000	58	4183
2026-01-08 12:49:42.02	310.59	32.68	-46.4	-47.5	15.3	0.00e+00	0	25	0	1972371456	58	4235
2026-01-08 12:49:43.03	310.82	32.52	-46.5	-47.6	15.3	0.00e+00	0	25	0	1977614336	58	4249
2026-01-08 12:49:44.03	311.06	32.36	-46.7	-47.9	15.2	0.00e+00	0	25	0	1983905792	58	4401
2026-01-08 12:49:45.04	311.29	32.19	-46.8	-48.0	15.2	0.00e+00	0	25	0	1989148672	59	4194
2026-01-08 12:49:46.05	311.52	32.03	-46.7	-47.8	15.3	0.00e+00	0	25	0	1995440128	59	4122
2026-01-08 12:49:47.06	311.75	31.87	-46.7	-47.9	15.3	0.00e+00	0	25	0	2000683008	59	4146
2026-01-08 12:49:48.07	311.97	31.71	-46.7	-47.8	15.3	0.00e+00	0	25	0	2005925888	59	4140
2026-01-08 12:49:49.08	312.20	31.55	-46.9	-48.0	15.2	0.00e+00	0	25	0	2012217344	59	4219
2026-01-08 12:49:50.09	312.42	31.39	-47.0	-48.1	15.2	0.00e+00	0	25	0	2017460224	59	4291
2026-01-08 12:49:51.10	312.64	31.23	-47.1	-48.2	15.2	0.00e+00	0	25	0	2023751680	59	4327
2026-01-08 12:49:52.11	312.85	31.07	-47.0	-48.2	15.2	0.00e+00	0	25	0	2028994560	59	4315
2026-01-08 12:49:53.11	313.07	30.91	-47.1	-48.2	15.2	0.00e+00	0	25	0	2034237440	59	4340
2026-01-08 12:49:54.12	313.28	30.76	-46.9	-48.0	15.2	0.00e+00	0	25	0	2040528896	59	4232
2026-01-08 12:49:55.13	313.49	30.60	-47.1	-48.3	15.2	0.00e+00	0	25	0	2045771776	59	4365
2026-01-08 12:49:56.14	313.70	30.44	-47.2	-48.4	15.2	0.00e+00	0	25	0	2052063232	59	4417
2026-01-08 12:49:57.15	313.91	30.28	-47.1	-48.3	15.2	0.00e+00	0	25	0	2057306112	60	4118
2026-01-08 12:49:58.16	314.11	30.13	-46.9	-48.1	15.3	0.00e+00	0	25	0	2062548992	60	4018
2026-01-08 12:49:59.17	314.31	29.97	-46.9	-48.1	15.3	0.00e+00	0	25	0	2068840448	60	4014
2026-01-08 12:50:00.18	314.52	29.82	-46.7	-47.9	15.4	0.00e+00	0	25	0	2074083328	60	3915
2026-01-08 12:50:01.18	314.71	29.66	-46.8	-47.9	15.4	0.00e+00	0	25	0	2080374784	60	3958
2026-01-08 12:50:02.19	314.91	29.51	-47.0	-48.1	15.3	0.00e+00	0	25	0	2085617664	60	4018
2026-01-08 12:50:03.20	315.11	29.35	-47.2	-48.3	15.2	0.00e+00	0	25	0	2091909120	60	4145
2026-01-08 12:50:04.21	315.30	29.20	-47.3	-48.4	15.2	0.00e+00	0	25	0	2097152000	60	4168
2026-01-08 12:50:05.21	315.49	29.05	-47.2	-48.4	15.2	0.00e+00	0	25	0	2102394880	60	4160
2026-01-08 12:50:06.22	315.68	28.90	-47.5	-48.6	15.1	0.00e+00	0	25	0	2108686336	60	4286
2026-01-08 12:50:07.23	315.87	28.74	-47.7	-48.9	15.0	0.00e+00	0	25	0	2113929216	60	4417
2026-01-08 12:50:08.24	316.06	28.59	-47.7	-48.9	15.0	0.00e+00	0	25	0	2120220672	60	4427
2026-01-08 12:50:09.25	316.24	28.44	-47.4	-48.6	15.1	0.00e+00	0	25	0	2125463552	60	4254
2026-01-08 12:50:10.26	316.42	28.29	-47.3	-48.5	15.2	0.00e+00	0	25	0	2130706432	60	4221
2026-01-08 12:50:11.27	316.61	28.14	-47.4	-48.6	15.1	0.00e+00	0	25	0	2136997888	60	4258
2026-01-08 12:50:12.28	316.79	27.99	-47.8	-49.0	15.0	0.00e+00	0	25	0	2142240768	60	4484
2026-01-08 12:50:13.28	316.96	27.84	-47.5	-48.7	15.1	0.00e+00	0	25	0	2148532224	60	4299
2026-01-08 12:50:14.29	317.14	27.70	-47.6	-48.8	15.0	0.00e+00	0	25	0	2153775104	60	4377
2026-01-08 12:50:15.30	317.32	27.55	-47.6	-48.8	15.0	0.00e+00	0	25	0	2159017984	60	4381
2026-01-08 12:50:16.31	317.49	27.40	-47.5	-48.6	15.1	0.00e+00	0	25	0	2165309440	60	4288
2026-01-08 12:50:17.32	317.66	27.25	-47.6	-48.8	15.0	0.00e+00	0	25	0	2170552320	60	4375
2026-01-08 12:50:18.32	317.83	27.11	-47.5	-48.7	15.1	0.00e+00	0	25	0	2176843776	60	4292
2026-01-08 12:50:19.33	318.00	26.96	-47.6	-48.8	15.0	0.00e+00	0	25	0	2182086656	60	4358
2026-01-08 12:50:20.35	318.17	26.82	-47.9	-49.1	15.0	0.00e+00	0	25	0	2188378112	61	4273
2026-01-08 12:50:21.36	318.34	26.67	-48.0	-49.2	15.0	0.00e+00	0	25	0	2193620992	61	4318
2026-01-08 12:50:22.37	318.50	26.53	-47.9	-49.1	15.0	0.00e+00	0	25	0	2198863872	61	4285
2026-01-08 12:50:23.37	318.66	26.38	-48.1	-49.3	15.0	0.00e+00	0	25	0	2205155328	61	4359
2026-01-08 12:50:24.38	318.82	26.24	-48.5	-49.7	14.9	0.00e+00	0	25	0	2210398208	62	4336
2026-01-08 12:50:25.39	318.98	26.10	-48.4	-49.7	14.9	0.00e+00	0	25	0	2216689664	62	4302
2026-01-08 12:50:26.40	319.14	25.96	-48.6	-49.9	14.8	0.00e+00	0	25	0	2221932544	62	4430
2026-01-08 12:50:27.40	319.30	25.82	-48.7	-50.0	14.8	0.00e+00	0	25	0	2227175424	62	4454
2026-01-08 12:50:28.41	319.46	25.67	-48.7	-50.0	14.8	0.00e+00	0	25	0	2233466880	62	4461
2026-01-08 12:50:29.42	319.61	25.53	-48.5	-49.8	14.9	0.00e+00	0	24	0	2238709760	62	4375
2026-01-08 12:50:30.43	319.76	25.39	-48.6	-49.9	14.9	0.00e+00	0	25	0	2245001216	62	4401
2026-01-08 12:50:31.44	319.92	25.25	-48.6	-49.9	14.8	0.00e+00	0	25	0	2250244096	62	4423
2026-01-08 12:50:32.45	320.07	25.12	-48.9	-50.2	14.8	0.00e+00	0	25	0	2255486976	63	4325
2026-01-08 12:50:33.45	320.22	24.98	-48.6	-49.9	15.0	0.00e+00	0	25	0	2261778432	63	4148
2026-01-08 12:50:34.46	320.37	24.84	-48.3	-49.5	15.1	0.00e+00	0	25	0	2267021312	63	3997
2026-01-08 12:50:35.47	320.51	24.70	-48.3	-49.6	15.1	0.00e+00	0	25	0	2273312768	63	4011
2026-01-08 12:50:36.48	320.66	24.57	-48.6	-49.9	14.9	0.00e+00	0	25	0	2278555648	63	4167
2026-01-08 12:50:37.49	320.80	24.43	-48.6	-49.9	14.9	0.00e+00	0	25	0	2284847104	63	4168
2026-01-08 12:50:38.50	320.95	24.29	-48.6	-49.9	15.0	0.00e+00	0	25	0	2290089984	63	4148
2026-01-08 12:50:39.51	321.09	24.16	-48.8	-50.0	14.9	0.00e+00	0	25	0	2295332864	63	4242
2026-01-08 12:50:40.51	321.23	24.03	-48.9	-50.1	14.8	0.00e+00	0	25	0	2301624320	63	4268
2026-01-08 12:50:41.52	321.37	23.89	-48.8	-50.0	14.9	0.00e+00	0	25	0	2306867200	63	4216
2026-01-08 12:50:42.53	321.51	23.76	-49.1	-50.4	14.6	0.00e+00	0	25	0	2313158656	63	4438
2026-01-08 12:50:43.54	321.65	23.63	-48.9	-50.1	14.6	0.00e+00	0	25	0	2318401536	63	4275
2026-01-08 12:50:44.55	321.78	23.49	-49.3	-50.6	14.3	0.00e+00	0	25	0	2323644416	63	4515
2026-01-08 12:50:45.55	321.92	23.36	-49.5	-50.9	14.3	0.00e+00	0	25	0	2329935872	64	4401
2026-01-08 12:50:46.56	322.05	23.23	-49.4	-50.7	14.4	0.00e+00	0	25	0	2335178752	64	4331
2026-01-08 12:50:47.57	322.19	23.10	-49.7	-51.1	14.4	0.00e+00	0	25	0	2341470208	64	4510
2026-01-08 12:50:48.58	322.32	22.97	-50.1	-51.5	14.4	0.00e+00	0	25	0	2346713088	65	4490
2026-01-08 12:50:49.59	322.45	22.84	-50.0	-51.5	14.4	0.00e+00	0	25	0	2351955968	65	4466
2026-01-08 12:50:50.60	322.58	22.71	-50.6	-52.1	14.3	0.00e+00	0	25	0	2358247424	66	4507
2026-01-08 12:50:51.61	322.71	22.58	-50.5	-52.0	14.3	0.00e+00	0	25	0	2363490304	66	4490
2026-01-08 12:50:52.62	322.84	22.45	-50.6	-52.1	14.2	0.00e+00	0	25	0	2369781760	66	4515
2026-01-08 12:50:53.63	322.96	22.32	-50.7	-52.3	14.2	0.00e+00	0	25	0	2375024640	66	4603
2026-01-08 12:50:54.64	323.09	22.20	-50.3	-51.8	14.4	0.00e+00	0	25	0	2381316096	66	4375
2026-01-08 12:50:55.65	323.22	22.07	-49.9	-51.3	14.7	0.00e+00	0	25	0	2386558976	66	4127
2026-01-08 12:50:56.66	323.34	21.94	-49.6	-50.9	14.7	0.00e+00	0	25	0	2391801856	65	4172
2026-01-08 12:50:57.66	323.46	21.82	-49.9	-51.2	14.5	0.00e+00	0	25	0	2398093312	65	4340
2026-01-08 12:50:58.67	323.58	21.69	-49.8	-51.2	14.6	0.00e+00	0	25	0	2403336192	65	4322
2026-01-08 12:50:59.68	323.71	21.57	-49.9	-51.3	14.5	0.00e+00	0	25	0	2409627648	65	4373
2026-01-08 12:51:00.66	323.82	21.45	-50.0	-51.4	14.4	0.00e+00	0	25	0	2414870528	65	4439
2026-01-08 12:51:01.67	323.94	21.32	-49.9	-51.3	14.4	0.00e+00	0	25	0	2420113408	65	4364
2026-01-08 12:51:02.67	324.06	21.20	-50.1	-51.5	14.3	0.00e+00	0	25	0	2426404864	65	4492
2026-01-08 12:51:03.68	324.18	21.08	-49.9	-51.3	14.6	0.00e+00	0	25	0	2431647744	66	4136
2026-01-08 12:51:04.68	324.29	20.96	-49.7	-51.0	14.8	0.00e+00	0	25	0	2436890624	66	3995
2026-01-08 12:51:05.69	324.41	20.83	-49.6	-50.9	14.7	0.00e+00	0	25	0	2443182080	65	4180
2026-01-08 12:51:06.70	324.52	20.71	-49.7	-51.1	14.6	0.00e+00	0	25	0	2448424960	65	4264
2026-01-08 12:51:07.71	324.64	20.59	-49.9	-51.3	14.4	0.00e+00	0	25	0	2454716416	65	4388
2026-01-08 12:51:08.72	324.75	20.47	-50.2	-51.6	14.3	0.00e+00	0	25	0	2459959296	65	4527
2026-01-08 12:51:09.73	324.86	20.35	-50.1	-51.6	14.2	0.00e+00	0	25	0	2466250752	65	4497
2026-01-08 12:51:10.74	324.97	20.23	-50.3	-51.7	14.2	0.00e+00	0	25	0	2471493632	65	4597
2026-01-08 12:51:11.75	325.09	20.11	-50.3	-51.8	14.2	0.00e+00	0	25	0	2476736512	65	4627
2026-01-08 12:51:12.75	325.19	19.99	-50.4	-51.9	14.3	0.00e+00	0	25	0	2483027968	66	4411
2026-01-08 12:51:13.76	325.30	19.87	-50.6	-52.1	14.2	0.00e+00	0	25	0	2488270848	66	4516
2026-01-08 12:51:14.77	325.41	19.76	-50.5	-51.9	14.3	0.00e+00	0	25	0	2493513728	66	4427
2026-01-08 12:51:15.77	325.52	19.64	-50.7	-52.2	14.2	0.00e+00	0	25	0	2499805184	66	4560
2026-01-08 12:51:16.79	325.63	19.52	-50.5	-52.0	14.4	0.00e+00	0	25	0	2505048064	67	4225
2026-01-08 12:51:17.80	325.73	19.41	-50.3	-51.7	14.6	0.00e+00	0	25	0	2511339520	67	4085
2026-01-08 12:51:18.80	325.84	19.29	-50.2	-51.6	14.6	0.00e+00	0	25	0	2516582400	67	4045
2026-01-08 12:51:19.81	325.94	19.18	-50.3	-51.8	14.5	0.00e+00	0	25	0	2521825280	67	4116
2026-01-08 12:51:20.82	326.05	19.06	-50.6	-52.1	14.3	0.00e+00	0	25	0	2528116736	67	4283
2026-01-08 12:51:21.83	326.15	18.95	-50.7	-52.2	14.3	0.00e+00	0	25	0	2533359616	67	4323
2026-01-08 12:51:22.84	326.25	18.83	-50.7	-52.3	14.2	0.00e+00	0	25	0	2539651072	67	4356
2026-01-08 12:51:23.85	326.35	18.72	-50.9	-52.4	14.2	0.00e+00	0	25	0	2544893952	67	4433
2026-01-08 12:51:24.86	326.45	18.60	-50.8	-52.4	14.2	0.00e+00	0	25	0	2551185408	67	4396
2026-01-08 12:51:25.87	326.55	18.49	-51.1	-52.7	14.0	0.00e+00	0	25	0	2556428288	67	4564
2026-01-08 12:51:26.88	326.65	18.38	-51.2	-52.9	13.9	0.00e+00	0	25	0	2562719744	67	4681
2026-01-08 12:51:27.89	326.75	18.27	-51.3	-52.9	14.1	0.00e+00	0	25	0	2567962624	68	4412
2026-01-08 12:51:28.89	326.85	18.16	-51.5	-53.1	13.9	0.00e+00	0	25	0	2573205504	68	4537
2026-01-08 12:51:29.90	326.95	18.05	-51.8	-53.6	13.6	0.00e+00	0	25	0	2579496960	68	4788
2026-01-08 12:51:30.91	327.04	17.94	-51.7	-53.5	13.7	0.00e+00	0	25	0	2584739840	68	4713
2026-01-08 12:51:31.92	327.14	17.82	-51.7	-53.4	13.9	0.00e+00	0	25	0	2589982720	69	4414
2026-01-08 12:51:32.93	327.23	17.71	-51.7	-53.4	13.9	0.00e+00	0	25	0	2596274176	69	4428
2026-01-08 12:51:33.94	327.33	17.61	-51.6	-53.3	13.9	0.00e+00	0	25	0	2601517056	69	4374
2026-01-08 12:51:34.95	327.42	17.50	-51.8	-53.6	13.8	0.00e+00	0	25	0	2607808512	69	4508
2026-01-08 12:51:35.95	327.52	17.39	-51.6	-53.2	14.0	0.00e+00	0	25	0	2613051392	69	4338
2026-01-08 12:51:36.96	327.61	17.28	-51.7	-53.4	13.8	0.00e+00	0	25	0	2618294272	69	4427
2026-01-08 12:51:37.97	327.70	17.17	-51.7	-53.4	13.9	0.00e+00	0	25	0	2624585728	69	4396
2026-01-08 12:51:38.98	327.79	17.07	-51.8	-53.5	13.8	0.00e+00	0	25	0	2629828608	69	4467
2026-01-08 12:51:39.98	327.88	16.96	-52.3	-54.2	13.3	0.00e+00	0	25	0	2636120064	69	4837
2026-01-08 12:51:40.99	327.97	16.85	-52.0	-53.8	13.6	0.00e+00	0	25	0	2641362944	69	4626
2026-01-08 12:51:42.00	328.06	16.75	-52.3	-54.1	13.4	0.00e+00	0	25	0	2647654400	69	4781
2026-01-08 12:51:43.01	328.15	16.64	-52.2	-54.0	13.6	0.00e+00	0	25	0	2652897280	70	4466
2026-01-08 12:51:44.02	328.24	16.54	-51.7	-53.3	14.0	0.00e+00	0	25	0	2658140160	70	4139
2026-01-08 12:51:45.03	328.33	16.43	-51.4	-53.0	14.1	0.00e+00	0	25	0	2664431616	69	4231
2026-01-08 12:51:46.03	328.41	16.33	-51.6	-53.2	14.0	0.00e+00	0	25	0	2669674496	69	4338
2026-01-08 12:51:47.04	328.50	16.22	-52.0	-53.8	13.6	0.00e+00	0	25	0	2675965952	69	4623
2026-01-08 12:51:48.05	328.59	16.12	-52.1	-53.9	13.5	0.00e+00	0	25	0	2681208832	69	4683
2026-01-08 12:51:49.04	328.67	16.02	-52.2	-54.0	13.4	0.00e+00	0	25	0	2686451712	69	4757
2026-01-08 12:51:50.05	328.76	15.91	-52.4	-54.4	13.2	0.00e+00	0	25	0	2692743168	69	4941
2026-01-08 12:51:51.06	328.84	15.81	-52.4	-54.3	13.3	0.00e+00	0	25	0	2697986048	70	4646
2026-01-08 12:51:52.07	328.92	15.71	-52.7	-54.7	13.2	0.00e+00	0	25	0	2703228928	71	4580
2026-01-08 12:51:53.08	329.01	15.61	-52.6	-54.6	13.3	0.00e+00	0	25	0	2709520384	71	4514
2026-01-08 12:51:54.09	329.09	15.51	-52.6	-54.5	13.4	0.00e+00	0	25	0	2714763264	71	4486
2026-01-08 12:51:55.10	329.17	15.40	-52.9	-55.0	13.1	0.00e+00	0	25	0	2721054720	71	4717
2026-01-08 12:51:56.10	329.25	15.30	-52.6	-54.6	13.3	0.00e+00	0	25	0	2726297600	71	4502
2026-01-08 12:51:57.30	329.35	15.19	-52.3	-54.2	13.6	0.00e+00	0	25	0	2732589056	71	4297
2026-01-08 12:51:58.17	329.42	15.10	-52.1	-53.9	13.6	0.00e+00	0	25	0	2736783360	70	4412
2026-01-08 12:51:59.32	329.51	14.99	-52.1	-53.9	13.6	0.00e+00	0	25	0	2744123392	70	4406
2026-01-08 12:52:00.19	329.58	14.90	-51.9	-53.7	13.8	0.00e+00	0	25	0	2748317696	70	4320
