passes_logs/2026/01/08/R3.2S_Murmansk/R3.2S_Murmansk__20260108_104902_AQUA_rec.log

#Pass ID: 20260108_104902_AQUA
#Satellite: AQUA
#Configuration: AQUA
#almurnet v.1.7.20251203
#Start time: 2026-01-08 10:49:04

#Version: 2.2.20231116
#Station: R3.2S_Murmansk
#Location: 33.079688 lon 68.888172 lat
#TLE: 1 27424U 02022A   26004.96787593  .00001598  00000+0  32997-3 0  9996
#TLE: 2 27424  98.4069 331.2279 0002002  90.2377   0.6092 14.61798176259425

#Time	Az	El	Level	Level2	SNR	BER	BlckErr	Temp	State	Recorded	gain1	gain2
2026-01-08 10:49:04.77	141.07	2.13	-57.1	-76.4	3.8	7.47e-01	0	23	0	0	83	32387
2026-01-08 10:49:05.77	141.06	2.20	-57.0	-76.3	3.8	7.45e-01	0	24	104	0	81	36011
2026-01-08 10:49:06.78	141.04	2.26	-57.0	-76.3	3.8	7.46e-01	0	24	104	0	81	35846
2026-01-08 10:49:07.79	141.03	2.33	-57.0	-76.3	3.8	7.47e-01	0	24	104	0	81	35738
2026-01-08 10:49:08.80	141.02	2.40	-57.0	-76.2	3.8	7.46e-01	0	24	104	0	81	35564
2026-01-08 10:49:09.81	141.00	2.47	-57.0	-76.2	3.8	7.47e-01	0	24	104	0	81	35562
2026-01-08 10:49:10.82	140.99	2.54	-57.0	-76.3	3.8	7.45e-01	0	24	104	0	81	35764
2026-01-08 10:49:11.83	140.98	2.60	-57.0	-76.3	3.8	7.48e-01	0	24	104	0	81	36082
2026-01-08 10:49:12.84	140.97	2.67	-57.0	-76.3	3.8	7.45e-01	0	24	104	0	81	36093
2026-01-08 10:49:13.85	140.95	2.74	-57.0	-76.3	3.8	7.46e-01	0	24	104	0	81	35909
2026-01-08 10:49:14.86	140.94	2.81	-57.0	-76.2	3.8	7.46e-01	0	24	104	0	81	35495
2026-01-08 10:49:15.86	140.92	2.88	-57.0	-75.9	3.8	7.47e-01	0	24	104	0	81	34348
2026-01-08 10:49:16.87	140.91	2.95	-57.0	-75.7	3.8	7.45e-01	0	24	104	0	81	33574
2026-01-08 10:49:17.88	140.90	3.02	-57.0	-75.5	3.8	7.46e-01	0	24	104	0	81	32659
2026-01-08 10:49:18.89	140.88	3.09	-57.0	-75.4	3.8	7.45e-01	0	24	104	0	81	32274
2026-01-08 10:49:19.90	140.87	3.16	-57.0	-75.2	3.8	7.45e-01	0	24	104	0	81	31809
2026-01-08 10:49:20.91	140.86	3.23	-57.0	-75.4	3.8	7.46e-01	0	24	104	0	81	32502
2026-01-08 10:49:21.92	140.84	3.30	-57.0	-75.3	3.9	7.43e-01	0	24	104	0	81	31923
2026-01-08 10:49:22.93	140.83	3.37	-57.0	-75.0	3.9	7.44e-01	0	24	104	0	81	30735
2026-01-08 10:49:23.94	140.81	3.44	-56.9	-74.1	3.8	7.42e-01	0	24	104	0	81	27806
2026-01-08 10:49:24.94	140.80	3.51	-56.9	-71.7	4.6	7.22e-01	0	24	104	0	81	21072
2026-01-08 10:49:25.95	140.78	3.58	-56.8	-70.2	5.2	7.05e-01	0	24	0	0	81	17701
2026-01-08 10:49:26.96	140.77	3.65	-56.7	-68.0	6.6	6.64e-01	92	24	0	1048576	81	13871
2026-01-08 10:49:27.96	140.76	3.72	-56.6	-66.9	7.6	6.46e-01	79	24	0	3145728	81	12156
2026-01-08 10:49:28.97	140.74	3.80	-56.4	-65.3	9.0	6.30e-01	0	24	0	4718592	81	10102
2026-01-08 10:49:29.98	140.73	3.87	-56.2	-64.4	9.8	6.21e-01	0	24	0	6815744	81	9098
2026-01-08 10:49:30.99	140.71	3.94	-56.0	-63.2	10.8	6.14e-01	0	25	0	8388608	81	7923
2026-01-08 10:49:32.00	140.70	4.01	-55.7	-62.2	11.5	6.11e-01	0	24	0	10485760	80	7487
2026-01-08 10:49:33.01	140.68	4.09	-55.2	-60.7	12.5	6.07e-01	0	24	0	12582912	79	6647
2026-01-08 10:49:34.02	140.67	4.16	-54.8	-59.4	13.3	6.07e-01	0	24	0	14155776	78	6118
2026-01-08 10:49:35.02	140.65	4.23	-54.4	-58.5	13.8	6.07e-01	0	24	0	16252928	78	5524
2026-01-08 10:49:36.03	140.64	4.30	-53.9	-57.6	14.2	6.08e-01	0	24	0	17825792	77	5275
2026-01-08 10:49:37.04	140.62	4.38	-53.4	-56.8	14.5	6.08e-01	0	24	0	19922944	76	5072
2026-01-08 10:49:38.04	140.60	4.45	-52.9	-56.1	14.7	6.07e-01	0	24	0	21495808	75	4943
2026-01-08 10:49:39.05	140.59	4.52	-52.7	-55.7	14.7	6.06e-01	0	24	0	23592960	74	5023
2026-01-08 10:49:40.06	140.57	4.60	-52.4	-55.2	15.0	6.06e-01	0	24	0	25690112	74	4750
2026-01-08 10:49:41.07	140.56	4.67	-52.2	-55.0	14.9	6.06e-01	0	25	0	27262976	73	4892
2026-01-08 10:49:42.07	140.54	4.75	-52.1	-54.9	15.0	6.07e-01	0	25	0	29360128	73	4824
2026-01-08 10:49:43.08	140.53	4.82	-52.3	-55.1	14.9	6.06e-01	0	24	0	31457280	73	4957
2026-01-08 10:49:44.09	140.51	4.90	-52.4	-55.2	14.9	6.06e-01	0	25	0	33030144	73	5041
2026-01-08 10:49:45.10	140.49	4.97	-52.8	-55.9	14.5	6.05e-01	0	25	0	35127296	73	5464
2026-01-08 10:49:46.10	140.48	5.05	-53.3	-56.6	14.3	6.07e-01	0	25	0	36700160	74	5583
2026-01-08 10:49:47.11	140.46	5.12	-53.1	-56.3	14.4	6.08e-01	0	25	0	38797312	74	5367
2026-01-08 10:49:48.12	140.44	5.20	-52.6	-55.5	14.7	6.04e-01	0	25	0	40894464	73	5172
2026-01-08 10:49:49.12	140.43	5.27	-56.7	-71.2	4.0	7.37e-01	0	25	104	41943040	81	19951
2026-01-08 10:49:50.14	140.41	5.35	-55.6	-61.3	12.0	6.09e-01	0	25	0	42467328	80	6726
2026-01-08 10:49:51.14	140.39	5.43	-51.0	-53.2	15.2	6.08e-01	0	25	0	44564480	70	4746
2026-01-08 10:49:52.15	140.37	5.51	-50.9	-53.1	15.3	6.06e-01	0	25	0	46137344	70	4694
2026-01-08 10:49:53.16	140.36	5.58	-50.8	-53.0	15.3	6.06e-01	0	25	0	48234496	70	4601
2026-01-08 10:49:54.16	140.34	5.66	-50.7	-52.8	15.4	6.06e-01	0	25	0	50331648	70	4511
2026-01-08 10:49:55.17	140.32	5.74	-50.7	-52.9	15.4	6.06e-01	0	25	0	51904512	70	4547
2026-01-08 10:49:56.18	140.31	5.82	-50.9	-53.1	15.3	6.07e-01	0	25	0	54001664	70	4667
2026-01-08 10:49:57.19	140.29	5.89	-51.0	-53.2	15.2	6.04e-01	0	25	0	55574528	70	4741
2026-01-08 10:49:58.19	140.27	5.97	-50.8	-53.0	15.3	6.05e-01	0	25	0	57671680	70	4616
2026-01-08 10:49:59.20	140.25	6.05	-50.7	-52.8	15.4	6.06e-01	0	25	0	59768832	70	4537
2026-01-08 10:50:00.20	140.23	6.13	-50.5	-52.6	15.5	6.05e-01	0	25	0	61341696	70	4401
2026-01-08 10:50:01.19	140.22	6.21	-50.3	-52.3	15.6	6.06e-01	0	25	0	63438848	69	4527
2026-01-08 10:50:02.20	140.20	6.29	-50.5	-52.6	15.3	6.06e-01	0	25	0	65011712	69	4670
2026-01-08 10:50:03.21	140.18	6.37	-50.4	-52.4	15.4	6.08e-01	0	24	0	67108864	69	4574
2026-01-08 10:50:04.21	140.16	6.45	-50.5	-52.6	15.3	6.07e-01	0	25	0	69206016	69	4673
2026-01-08 10:50:05.22	140.14	6.53	-50.5	-52.6	15.3	6.07e-01	0	25	0	70778880	69	4669
2026-01-08 10:50:06.23	140.12	6.61	-50.4	-52.5	15.4	6.06e-01	0	25	0	72876032	69	4624
2026-01-08 10:50:07.24	140.10	6.69	-50.3	-52.3	15.5	6.09e-01	0	25	0	74448896	69	4511
2026-01-08 10:50:08.25	140.08	6.77	-50.3	-52.3	15.4	6.06e-01	0	25	0	76546048	69	4533
2026-01-08 10:50:09.26	140.07	6.85	-50.3	-52.3	15.5	6.06e-01	0	25	0	78643200	69	4505
2026-01-08 10:50:10.26	140.05	6.93	-50.0	-52.0	15.6	6.06e-01	0	25	0	80216064	69	4357
2026-01-08 10:50:11.27	140.03	7.01	-50.2	-52.2	15.5	6.06e-01	0	25	0	82313216	69	4451
2026-01-08 10:50:12.27	140.01	7.09	-50.2	-52.2	15.5	6.08e-01	0	25	0	83886080	69	4457
2026-01-08 10:50:13.27	139.99	7.18	-50.1	-52.0	15.6	6.07e-01	0	25	0	85983232	69	4388
2026-01-08 10:50:14.28	139.97	7.26	-50.1	-52.1	15.6	6.06e-01	0	25	0	88080384	69	4407
2026-01-08 10:50:15.29	139.95	7.34	-50.1	-52.1	15.6	6.07e-01	0	25	0	89653248	69	4397
2026-01-08 10:50:16.29	139.93	7.43	-50.1	-52.0	15.6	6.07e-01	0	25	0	91750400	69	4380
2026-01-08 10:50:17.30	139.91	7.51	-50.1	-52.0	15.6	6.06e-01	0	25	0	93323264	69	4373
2026-01-08 10:50:18.31	139.89	7.59	-50.0	-52.0	15.6	6.09e-01	0	25	0	95420416	69	4361
2026-01-08 10:50:19.32	139.86	7.68	-50.0	-52.0	15.6	6.07e-01	0	25	0	97517568	69	4351
2026-01-08 10:50:20.32	139.84	7.76	-49.9	-51.8	15.7	6.05e-01	0	25	0	99090432	69	4275
2026-01-08 10:50:21.33	139.82	7.85	-49.8	-51.7	15.5	6.05e-01	0	25	0	101187584	68	4456
2026-01-08 10:50:22.34	139.80	7.93	-49.8	-51.7	15.5	6.05e-01	0	24	0	102760448	68	4449
2026-01-08 10:50:23.34	139.78	8.02	-49.8	-51.6	15.6	6.07e-01	0	25	0	104857600	68	4437
2026-01-08 10:50:24.34	139.76	8.10	-49.8	-51.6	15.5	6.07e-01	0	25	0	106954752	68	4430
2026-01-08 10:50:25.35	139.74	8.19	-49.8	-51.6	15.6	6.07e-01	0	25	0	108527616	68	4428
2026-01-08 10:50:26.36	139.72	8.28	-49.8	-51.7	15.6	6.07e-01	0	25	0	110624768	68	4463
2026-01-08 10:50:27.36	139.69	8.36	-49.7	-51.6	15.6	6.07e-01	0	25	0	112197632	68	4422
2026-01-08 10:50:28.37	139.67	8.45	-49.6	-51.5	15.6	6.07e-01	0	25	0	114294784	68	4342
2026-01-08 10:50:29.37	139.65	8.54	-49.6	-51.4	15.7	6.06e-01	0	24	0	116391936	68	4309
2026-01-08 10:50:30.38	139.63	8.62	-49.6	-51.4	15.6	6.06e-01	0	25	0	117964800	68	4322
2026-01-08 10:50:31.38	139.60	8.71	-49.5	-51.3	15.7	6.07e-01	0	25	0	120061952	68	4258
2026-01-08 10:50:32.39	139.58	8.80	-49.5	-51.3	15.7	6.07e-01	0	25	0	121634816	68	4284
2026-01-08 10:50:33.39	139.56	8.89	-49.5	-51.3	15.7	6.05e-01	0	25	0	123731968	68	4284
2026-01-08 10:50:34.41	139.54	8.98	-49.5	-51.3	15.7	6.07e-01	0	25	0	125829120	68	4244
2026-01-08 10:50:35.41	139.51	9.07	-49.4	-51.2	15.7	6.06e-01	0	25	0	127401984	68	4220
2026-01-08 10:50:36.42	139.49	9.16	-49.4	-51.2	15.7	6.06e-01	0	25	0	129499136	68	4212
2026-01-08 10:50:37.43	139.46	9.25	-49.3	-51.0	15.6	6.04e-01	0	25	0	131072000	67	4389
2026-01-08 10:50:38.43	139.44	9.34	-49.2	-51.0	15.6	6.07e-01	0	25	0	133169152	67	4353
2026-01-08 10:50:39.44	139.42	9.43	-49.2	-51.0	15.7	6.06e-01	0	25	0	135266304	67	4349
2026-01-08 10:50:40.44	139.39	9.52	-49.3	-51.1	15.6	6.06e-01	0	24	0	136839168	67	4409
2026-01-08 10:50:41.45	139.37	9.61	-49.2	-50.9	15.7	6.04e-01	0	25	0	138936320	67	4339
2026-01-08 10:50:42.45	139.34	9.70	-49.2	-51.0	15.7	6.06e-01	0	24	0	140509184	67	4348
2026-01-08 10:50:43.46	139.32	9.80	-49.1	-50.9	15.7	6.05e-01	0	25	0	142606336	67	4316
2026-01-08 10:50:44.46	139.29	9.89	-49.1	-50.9	15.7	6.05e-01	0	25	0	144703488	67	4300
2026-01-08 10:50:45.47	139.27	9.98	-49.1	-50.9	15.7	6.06e-01	0	25	0	146276352	67	4312
2026-01-08 10:50:46.48	139.24	10.08	-49.2	-50.9	15.7	6.05e-01	0	25	0	148373504	67	4324
2026-01-08 10:50:47.48	139.22	10.17	-49.2	-50.9	15.6	6.06e-01	0	25	0	149946368	67	4339
2026-01-08 10:50:48.48	139.19	10.26	-49.2	-51.0	15.6	6.07e-01	0	25	0	152043520	67	4352
2026-01-08 10:50:49.49	139.17	10.36	-49.1	-50.9	15.7	6.07e-01	0	25	0	154140672	67	4299
2026-01-08 10:50:50.50	139.14	10.45	-49.2	-51.0	15.6	6.05e-01	0	24	0	155713536	67	4353
2026-01-08 10:50:51.51	139.11	10.55	-49.2	-50.9	15.7	6.08e-01	0	25	0	157810688	67	4313
2026-01-08 10:50:52.51	139.09	10.65	-49.2	-51.0	15.6	6.08e-01	0	25	0	159383552	67	4341
2026-01-08 10:50:53.52	139.06	10.74	-49.3	-51.0	15.6	6.09e-01	0	24	0	161480704	67	4383
2026-01-08 10:50:54.53	139.03	10.84	-49.2	-51.0	15.7	6.06e-01	0	25	0	163577856	67	4341
2026-01-08 10:50:55.54	139.01	10.94	-49.3	-51.1	15.6	6.07e-01	0	25	0	165150720	67	4396
2026-01-08 10:50:56.54	138.98	11.03	-49.3	-51.1	15.6	6.07e-01	0	25	0	167247872	67	4413
2026-01-08 10:50:57.55	138.95	11.13	-49.4	-51.2	15.6	6.06e-01	0	25	0	168820736	67	4445
2026-01-08 10:50:58.56	138.92	11.23	-49.4	-51.2	15.6	6.07e-01	0	24	0	170917888	67	4458
2026-01-08 10:50:59.57	138.89	11.33	-49.3	-51.1	15.6	6.06e-01	0	24	0	173015040	67	4416
2026-01-08 10:51:00.58	138.87	11.43	-49.4	-51.1	15.6	6.04e-01	0	24	0	174587904	67	4431
2026-01-08 10:51:01.58	138.84	11.53	-49.3	-51.1	15.6	6.05e-01	0	24	0	176685056	67	4420
2026-01-08 10:51:02.59	138.81	11.63	-49.3	-51.0	15.6	6.08e-01	0	25	0	178257920	67	4379
2026-01-08 10:51:03.59	138.78	11.73	-49.3	-51.0	15.6	6.07e-01	0	25	0	180355072	67	4378
2026-01-08 10:51:04.60	138.75	11.83	-49.3	-51.0	15.6	6.06e-01	0	25	0	182452224	67	4378
2026-01-08 10:51:05.60	138.72	11.93	-49.2	-50.9	15.7	6.07e-01	0	25	0	184025088	67	4338
2026-01-08 10:51:06.61	138.69	12.03	-49.2	-50.9	15.7	6.09e-01	0	25	0	186122240	67	4328
2026-01-08 10:51:07.61	138.66	12.14	-49.3	-51.0	15.6	6.08e-01	0	24	0	187695104	67	4380
2026-01-08 10:51:08.62	138.63	12.24	-49.2	-50.9	15.7	6.07e-01	0	25	0	189792256	67	4320
2026-01-08 10:51:09.63	138.60	12.34	-49.2	-51.0	15.6	6.05e-01	0	24	0	191889408	67	4353
2026-01-08 10:51:10.64	138.57	12.45	-49.2	-50.9	15.7	6.06e-01	0	24	0	193462272	67	4329
2026-01-08 10:51:11.65	138.54	12.55	-49.2	-50.9	15.7	6.07e-01	0	25	0	195559424	67	4325
2026-01-08 10:51:12.66	138.51	12.66	-49.2	-51.0	15.7	6.07e-01	0	24	0	197132288	67	4349
2026-01-08 10:51:13.66	138.47	12.76	-49.3	-51.0	15.6	6.06e-01	0	24	0	199229440	67	4381
2026-01-08 10:51:14.67	138.44	12.87	-49.2	-51.0	15.6	6.07e-01	0	24	0	201326592	67	4359
2026-01-08 10:51:15.68	138.41	12.98	-49.1	-50.8	15.7	6.05e-01	0	25	0	202899456	67	4247
2026-01-08 10:51:16.69	138.38	13.08	-49.2	-50.9	15.7	6.06e-01	0	25	0	204996608	67	4326
2026-01-08 10:51:17.69	138.35	13.19	-49.2	-50.9	15.7	6.06e-01	0	24	0	206569472	67	4318
2026-01-08 10:51:18.69	138.31	13.30	-49.1	-50.8	15.7	6.06e-01	0	24	0	208666624	67	4246
2026-01-08 10:51:19.70	138.28	13.41	-49.0	-50.7	15.8	6.07e-01	0	25	0	210763776	67	4196
2026-01-08 10:51:20.71	138.25	13.52	-48.9	-50.5	15.8	6.06e-01	0	24	0	212336640	67	4145
2026-01-08 10:51:21.71	138.21	13.62	-48.9	-50.5	15.8	6.06e-01	0	25	0	214433792	67	4145
2026-01-08 10:51:22.69	138.18	13.73	-48.9	-50.5	15.7	6.09e-01	0	24	0	216006656	66	4381
2026-01-08 10:51:23.70	138.14	13.84	-48.8	-50.5	15.7	6.07e-01	0	25	0	218103808	66	4367
2026-01-08 10:51:24.71	138.11	13.95	-48.8	-50.5	15.7	6.06e-01	0	24	0	220200960	66	4352
2026-01-08 10:51:25.71	138.07	14.07	-48.8	-50.5	15.7	6.06e-01	0	24	0	221773824	66	4353
2026-01-08 10:51:26.72	138.04	14.18	-48.7	-50.3	15.7	6.04e-01	0	24	0	223870976	66	4283
2026-01-08 10:51:27.73	138.00	14.29	-48.7	-50.3	15.7	6.06e-01	0	24	0	225443840	66	4272
2026-01-08 10:51:28.73	137.97	14.40	-48.7	-50.3	15.7	6.07e-01	0	24	0	227540992	66	4289
2026-01-08 10:51:29.74	137.93	14.52	-48.7	-50.4	15.7	6.07e-01	0	24	0	229638144	66	4301
2026-01-08 10:51:30.74	137.89	14.63	-48.7	-50.3	15.7	6.07e-01	0	25	0	231211008	66	4290
2026-01-08 10:51:31.75	137.86	14.75	-48.7	-50.3	15.7	6.03e-01	0	24	0	233308160	66	4258
2026-01-08 10:51:32.76	137.82	14.86	-48.7	-50.3	15.7	6.06e-01	0	24	0	234881024	66	4281
2026-01-08 10:51:33.76	137.78	14.98	-48.7	-50.4	15.7	6.07e-01	0	24	0	236978176	66	4294
2026-01-08 10:51:34.77	137.74	15.10	-48.6	-50.2	15.8	6.06e-01	0	24	0	239075328	66	4202
2026-01-08 10:51:35.77	137.71	15.21	-48.6	-50.2	15.8	6.05e-01	0	24	0	240648192	66	4228
2026-01-08 10:51:36.77	137.67	15.33	-48.6	-50.2	15.8	6.06e-01	0	24	0	242745344	66	4208
2026-01-08 10:51:37.78	137.63	15.45	-48.5	-50.1	15.8	6.05e-01	0	25	0	244318208	66	4193
2026-01-08 10:51:38.79	137.59	15.57	-48.5	-50.1	15.8	6.06e-01	0	24	0	246415360	66	4167
2026-01-08 10:51:39.80	137.55	15.69	-48.6	-50.2	15.8	6.06e-01	0	24	0	248512512	66	4213
2026-01-08 10:51:40.80	137.51	15.81	-48.6	-50.3	15.8	6.06e-01	0	24	0	250085376	66	4244
2026-01-08 10:51:41.81	137.47	15.93	-48.6	-50.2	15.7	6.07e-01	0	24	0	252182528	66	4234
2026-01-08 10:51:42.82	137.43	16.06	-48.6	-50.2	15.8	6.09e-01	0	25	0	253755392	66	4212
2026-01-08 10:51:43.83	137.39	16.18	-48.6	-50.2	15.8	6.07e-01	0	24	0	255852544	66	4230
2026-01-08 10:51:44.83	137.34	16.30	-48.7	-50.3	15.7	6.07e-01	0	24	0	257425408	66	4259
2026-01-08 10:51:45.83	137.30	16.42	-48.7	-50.4	15.7	6.05e-01	0	25	0	259522560	66	4297
2026-01-08 10:51:46.84	137.26	16.55	-48.7	-50.4	15.7	6.05e-01	0	25	0	261619712	66	4295
2026-01-08 10:51:47.84	137.22	16.67	-48.7	-50.3	15.7	6.06e-01	0	24	0	263192576	66	4277
2026-01-08 10:51:48.85	137.17	16.80	-48.8	-50.4	15.7	6.07e-01	0	24	0	265289728	66	4329
2026-01-08 10:51:49.86	137.13	16.93	-48.8	-50.5	15.7	6.05e-01	0	24	0	267386880	66	4354
2026-01-08 10:51:50.86	137.09	17.05	-48.8	-50.5	15.7	6.06e-01	0	24	0	268959744	66	4363
2026-01-08 10:51:51.87	137.04	17.18	-48.8	-50.5	15.7	6.07e-01	0	24	0	271056896	66	4357
2026-01-08 10:51:52.88	137.00	17.31	-48.9	-50.5	15.7	6.05e-01	0	24	0	272629760	66	4391
2026-01-08 10:51:53.88	136.95	17.44	-48.9	-50.6	15.7	6.04e-01	0	25	0	274726912	66	4404
2026-01-08 10:51:54.89	136.90	17.57	-48.8	-50.4	15.7	6.05e-01	0	25	0	276824064	66	4334
2026-01-08 10:51:55.90	136.86	17.70	-48.8	-50.5	15.7	6.05e-01	0	25	0	278396928	66	4360
2026-01-08 10:51:56.91	136.81	17.84	-48.9	-50.5	15.7	6.07e-01	0	24	0	280494080	66	4366
2026-01-08 10:51:57.91	136.76	17.97	-48.9	-50.5	15.7	6.07e-01	0	24	0	282066944	66	4379
2026-01-08 10:51:58.92	136.72	18.10	-48.8	-50.4	15.7	6.06e-01	0	25	0	284164096	66	4329
2026-01-08 10:51:59.92	136.67	18.24	-48.6	-50.2	15.8	6.07e-01	0	24	0	285736960	66	4230
2026-01-08 10:52:00.92	136.62	18.37	-48.5	-50.1	15.8	6.03e-01	0	24	0	287834112	66	4175
2026-01-08 10:52:01.93	136.57	18.51	-48.5	-50.1	15.8	6.06e-01	0	24	0	289931264	66	4178
2026-01-08 10:52:02.94	136.52	18.64	-48.5	-50.0	15.8	6.05e-01	0	24	0	291504128	66	4139
2026-01-08 10:52:03.94	136.47	18.78	-48.3	-49.9	15.7	6.05e-01	0	24	0	293601280	65	4330
2026-01-08 10:52:04.95	136.42	18.92	-48.2	-49.8	15.7	6.06e-01	0	24	0	295698432	65	4273
2026-01-08 10:52:05.96	136.37	19.06	-48.3	-49.9	15.7	6.06e-01	0	25	0	297271296	65	4294
2026-01-08 10:52:06.97	136.32	19.20	-48.4	-50.0	15.7	6.06e-01	0	24	0	299368448	65	4356
2026-01-08 10:52:07.98	136.26	19.34	-48.4	-50.0	15.7	6.07e-01	0	25	0	300941312	65	4349
2026-01-08 10:52:08.98	136.21	19.48	-48.5	-50.1	15.7	6.06e-01	0	25	0	303038464	65	4396
2026-01-08 10:52:09.99	136.16	19.62	-48.5	-50.1	15.6	6.07e-01	0	24	0	305135616	65	4438
2026-01-08 10:52:11.00	136.10	19.77	-48.6	-50.2	15.6	6.07e-01	0	25	0	306708480	65	4454
2026-01-08 10:52:12.01	136.05	19.91	-48.7	-50.4	15.6	6.06e-01	0	24	0	308805632	65	4546
2026-01-08 10:52:13.02	135.99	20.06	-48.7	-50.4	15.6	6.07e-01	0	24	0	310378496	65	4547
2026-01-08 10:52:14.02	135.94	20.20	-48.8	-50.4	15.6	6.08e-01	0	24	0	312475648	65	4574
2026-01-08 10:52:15.03	135.88	20.35	-48.9	-50.5	15.5	6.07e-01	0	24	0	314048512	65	4632
2026-01-08 10:52:16.03	135.82	20.50	-48.9	-50.5	15.5	6.07e-01	0	24	0	316145664	65	4647
2026-01-08 10:52:17.03	135.77	20.64	-48.9	-50.5	15.5	6.06e-01	0	25	0	318242816	65	4637
2026-01-08 10:52:18.04	135.71	20.80	-48.9	-50.6	15.5	6.07e-01	0	24	0	319815680	65	4688
2026-01-08 10:52:19.05	135.65	20.95	-48.9	-50.6	15.5	6.06e-01	0	24	0	321912832	65	4662
2026-01-08 10:52:20.06	135.59	21.10	-48.9	-50.6	15.5	6.09e-01	0	25	0	324009984	65	4679
2026-01-08 10:52:21.06	135.53	21.25	-49.0	-50.6	15.5	6.07e-01	0	24	0	325582848	65	4701
2026-01-08 10:52:22.07	135.47	21.40	-48.9	-50.6	15.5	6.07e-01	0	25	0	327680000	65	4658
2026-01-08 10:52:23.08	135.41	21.56	-48.8	-50.4	15.5	6.06e-01	0	24	0	329252864	65	4594
2026-01-08 10:52:24.09	135.35	21.72	-48.9	-50.6	15.5	6.06e-01	0	25	0	331350016	65	4655
2026-01-08 10:52:25.10	135.28	21.87	-48.9	-50.5	15.5	6.06e-01	0	24	0	333447168	65	4635
2026-01-08 10:52:26.10	135.22	22.03	-48.8	-50.4	15.6	6.05e-01	0	24	0	335020032	65	4575
2026-01-08 10:52:27.11	135.15	22.19	-48.7	-50.4	15.6	6.06e-01	0	24	0	337117184	65	4554
2026-01-08 10:52:28.12	135.09	22.35	-48.7	-50.3	15.6	6.07e-01	0	25	0	338690048	65	4509
2026-01-08 10:52:29.12	135.02	22.51	-48.7	-50.4	15.6	6.07e-01	0	24	0	340787200	65	4546
2026-01-08 10:52:30.13	134.96	22.67	-48.7	-50.3	15.6	6.06e-01	0	25	0	342884352	65	4506
2026-01-08 10:52:31.14	134.89	22.83	-48.7	-50.3	15.6	6.06e-01	0	24	0	344457216	65	4525
2026-01-08 10:52:32.15	134.82	23.00	-48.7	-50.3	15.6	6.08e-01	0	25	0	346554368	65	4542
2026-01-08 10:52:33.16	134.75	23.16	-48.7	-50.4	15.6	6.08e-01	0	25	0	348127232	65	4562
2026-01-08 10:52:34.17	134.68	23.33	-48.8	-50.5	15.5	6.06e-01	0	25	0	350224384	65	4621
2026-01-08 10:52:35.17	134.61	23.50	-48.9	-50.5	15.5	6.07e-01	0	25	0	352321536	65	4641
2026-01-08 10:52:36.18	134.54	23.67	-48.9	-50.6	15.5	6.04e-01	0	24	0	353894400	65	4678
2026-01-08 10:52:37.19	134.47	23.84	-49.1	-50.8	15.5	6.08e-01	0	24	0	355991552	65	4784
2026-01-08 10:52:38.20	134.40	24.01	-49.1	-50.8	15.6	6.06e-01	0	24	0	357564416	66	4526
2026-01-08 10:52:39.20	134.32	24.18	-49.2	-50.9	15.6	6.08e-01	0	25	0	359661568	66	4584
2026-01-08 10:52:40.21	134.25	24.35	-49.2	-50.9	15.6	6.05e-01	0	24	0	361758720	66	4575
2026-01-08 10:52:41.22	134.17	24.53	-49.1	-50.8	15.6	6.06e-01	0	25	0	363331584	66	4530
2026-01-08 10:52:42.22	134.10	24.70	-48.9	-50.6	15.6	6.08e-01	0	25	0	365428736	66	4412
2026-01-08 10:52:43.23	134.02	24.88	-49.3	-60.7	3.8	7.47e-01	0	25	104	367001600	66	14075
2026-01-08 10:52:44.24	133.94	25.06	-49.2	-60.5	3.8	7.50e-01	0	24	104	367001600	66	13751
2026-01-08 10:52:45.25	133.86	25.24	-49.1	-60.3	3.9	7.43e-01	0	25	104	367001600	66	13546
2026-01-08 10:52:46.26	133.78	25.42	-49.2	-60.6	3.8	7.49e-01	0	25	104	367001600	66	13922
2026-01-08 10:52:47.26	133.70	25.60	-49.3	-60.2	4.0	7.42e-01	0	24	104	367001600	67	12544
2026-01-08 10:52:48.27	133.62	25.78	-55.1	-68.2	3.8	7.46e-01	0	25	104	367001600	79	15812
2026-01-08 10:52:49.28	133.53	25.97	-51.0	-62.7	3.8	7.43e-01	0	24	104	367001600	71	13273
2026-01-08 10:52:50.29	133.45	26.15	-51.1	-62.8	3.8	7.50e-01	0	24	104	367001600	71	13481
2026-01-08 10:52:51.30	133.36	26.34	-49.2	-60.4	4.0	7.41e-01	0	24	104	367001600	67	12937
2026-01-08 10:52:52.31	133.27	26.53	-49.3	-60.5	3.8	7.47e-01	0	24	104	367001600	67	13077
2026-01-08 10:52:53.31	133.19	26.72	-49.1	-60.3	3.9	7.41e-01	0	24	104	367001600	67	12682
2026-01-08 10:52:54.32	133.10	26.91	-49.7	-60.9	3.7	7.55e-01	0	24	104	367001600	68	12835
2026-01-08 10:52:55.33	133.01	27.10	-50.1	-61.2	4.1	7.36e-01	0	25	104	367001600	69	12655
2026-01-08 10:52:56.34	132.92	27.30	-53.6	-65.7	3.8	7.47e-01	0	25	104	367001600	76	14131
2026-01-08 10:52:57.34	132.82	27.49	-51.3	-62.8	4.0	7.39e-01	0	25	104	367001600	72	12720
2026-01-08 10:52:58.35	132.73	27.69	-49.8	-61.0	4.0	7.37e-01	0	25	104	367001600	68	13057
2026-01-08 10:52:59.36	132.63	27.89	-48.9	-60.1	3.8	7.45e-01	0	25	104	367001600	66	13254
2026-01-08 10:53:00.37	132.54	28.09	-48.8	-60.1	3.8	7.44e-01	0	25	104	367001600	66	13205
2026-01-08 10:53:01.38	132.44	28.29	-48.7	-59.9	3.8	7.44e-01	0	25	104	367001600	66	12947
2026-01-08 10:53:02.38	132.34	28.49	-49.1	-60.4	3.8	7.46e-01	0	25	104	367001600	66	13610
2026-01-08 10:53:03.38	132.24	28.69	-49.5	-60.8	3.8	7.47e-01	0	24	104	367001600	67	13507
2026-01-08 10:53:04.39	132.14	28.90	-53.9	-66.3	3.9	7.43e-01	0	25	104	367001600	77	14236
2026-01-08 10:53:05.40	132.04	29.11	-49.7	-60.9	3.8	7.46e-01	0	25	104	367001600	68	12928
2026-01-08 10:53:06.40	131.93	29.31	-49.8	-60.8	3.8	7.47e-01	0	24	104	367001600	68	12806
2026-01-08 10:53:07.41	131.83	29.52	-48.7	-59.9	3.8	7.44e-01	0	25	104	367001600	66	12892
2026-01-08 10:53:08.42	131.72	29.74	-48.6	-59.8	3.8	7.44e-01	0	24	104	367001600	66	12792
2026-01-08 10:53:09.42	131.61	29.95	-49.0	-60.3	3.8	7.47e-01	0	25	104	367001600	66	13518
2026-01-08 10:53:10.43	131.50	30.16	-49.9	-61.3	3.8	7.49e-01	0	24	104	367001600	69	12767
2026-01-08 10:53:11.44	131.39	30.38	-49.9	-61.1	3.8	7.43e-01	0	25	104	367001600	67	14024
2026-01-08 10:53:12.45	131.27	30.60	-53.5	-65.6	3.8	7.44e-01	0	25	104	367001600	76	13976
2026-01-08 10:53:13.45	131.16	30.82	-49.0	-60.2	3.9	7.46e-01	0	25	104	367001600	67	12592
2026-01-08 10:53:14.46	131.04	31.04	-49.6	-60.9	3.9	7.43e-01	0	24	104	367001600	68	12935
2026-01-08 10:53:15.46	130.92	31.26	-48.8	-59.9	3.8	7.43e-01	0	25	104	367001600	66	12875
2026-01-08 10:53:16.47	130.80	31.49	-48.8	-59.9	3.8	7.46e-01	0	25	104	367001600	66	12951
2026-01-08 10:53:17.48	130.68	31.71	-48.8	-60.0	3.8	7.46e-01	0	25	104	367001600	66	13027
2026-01-08 10:53:18.49	130.56	31.94	-48.9	-60.1	3.8	7.45e-01	0	25	104	367001600	66	13258
2026-01-08 10:53:19.49	130.43	32.17	-50.7	-62.0	3.8	7.42e-01	0	25	104	367001600	68	14688
2026-01-08 10:53:20.50	130.30	32.40	-54.7	-67.5	3.8	7.46e-01	0	25	104	367001600	77	16391
2026-01-08 10:53:21.51	130.17	32.64	-49.4	-60.6	3.8	7.46e-01	0	24	104	367001600	68	12458
2026-01-08 10:53:22.51	130.04	32.87	-49.7	-61.0	3.8	7.47e-01	0	25	104	367001600	68	13000
2026-01-08 10:53:23.52	129.91	33.11	-49.3	-60.4	3.8	7.44e-01	0	25	104	367001600	67	12951
2026-01-08 10:53:24.53	129.77	33.35	-49.4	-60.7	3.8	7.47e-01	0	24	104	367001600	67	13287
2026-01-08 10:53:25.54	129.63	33.59	-50.4	-61.9	3.8	7.48e-01	0	24	104	367001600	68	14456
2026-01-08 10:53:26.55	129.49	33.83	-50.4	-61.9	3.8	7.46e-01	0	24	104	367001600	69	13576
2026-01-08 10:53:27.55	129.35	34.08	-52.5	-64.3	3.8	7.48e-01	0	25	104	367001600	72	15154
2026-01-08 10:53:28.56	129.21	34.32	-54.0	-66.3	3.8	7.43e-01	0	25	104	367001600	77	14231
2026-01-08 10:53:29.56	129.06	34.57	-49.5	-60.8	3.8	7.47e-01	0	25	104	367001600	68	12742
2026-01-08 10:53:30.57	128.91	34.82	-49.9	-61.3	3.8	7.47e-01	0	25	104	367001600	69	12717
2026-01-08 10:53:31.58	128.76	35.07	-49.7	-61.0	3.8	7.44e-01	0	25	104	367001600	68	13094
2026-01-08 10:53:32.59	128.60	35.33	-49.8	-61.1	3.8	7.45e-01	0	25	104	367001600	68	13256
2026-01-08 10:53:33.60	128.45	35.58	-50.8	-62.3	3.8	7.44e-01	0	25	104	367001600	69	14357
2026-01-08 10:53:34.61	128.29	35.84	-50.8	-62.3	3.8	7.44e-01	0	24	104	367001600	70	13487
2026-01-08 10:53:35.62	128.12	36.10	-54.2	-66.3	3.8	7.48e-01	0	25	104	367001600	75	16071
2026-01-08 10:53:36.62	127.96	36.36	-55.9	-69.3	3.8	7.48e-01	0	25	104	367001600	79	18032
2026-01-08 10:53:37.63	127.79	36.63	-50.4	-61.7	3.8	7.46e-01	0	25	104	367001600	69	13307
2026-01-08 10:53:38.64	127.62	36.89	-50.2	-61.6	3.8	7.42e-01	0	24	104	367001600	69	13178
2026-01-08 10:53:39.65	127.45	37.16	-50.5	-62.0	3.8	7.47e-01	0	24	104	367001600	69	13816
2026-01-08 10:53:40.66	127.27	37.43	-50.9	-62.5	3.8	7.47e-01	0	24	104	367001600	69	14551
2026-01-08 10:53:41.66	127.09	37.70	-51.8	-63.5	3.9	7.46e-01	0	25	104	367001600	71	14636
2026-01-08 10:53:42.67	126.91	37.97	-51.4	-63.0	3.8	7.43e-01	0	24	104	367001600	71	13832
2026-01-08 10:53:43.68	126.72	38.25	-54.8	-67.6	3.8	7.47e-01	0	25	104	367001600	77	16533
2026-01-08 10:53:44.68	126.54	38.53	-56.4	-70.4	3.8	7.47e-01	0	25	104	367001600	80	19237
2026-01-08 10:53:45.69	126.34	38.81	-51.3	-62.7	3.8	7.47e-01	0	25	104	367001600	70	14172
2026-01-08 10:53:46.69	126.15	39.09	-50.8	-62.4	3.8	7.44e-01	0	25	104	367001600	70	13651
2026-01-08 10:53:47.70	125.95	39.37	-51.0	-62.5	3.8	7.45e-01	0	25	104	367001600	70	13867
2026-01-08 10:53:48.71	125.75	39.66	-50.9	-62.5	3.8	7.47e-01	0	24	104	367001600	70	13792
2026-01-08 10:53:49.72	125.54	39.95	-52.8	-64.8	3.8	7.45e-01	0	25	104	367001600	73	15084
2026-01-08 10:53:50.72	125.33	40.23	-51.6	-63.2	3.8	7.47e-01	0	25	104	367001600	72	13353
2026-01-08 10:53:51.73	125.11	40.53	-55.6	-68.7	3.8	7.46e-01	0	25	104	367001600	78	17859
2026-01-08 10:53:52.74	124.90	40.82	-56.7	-71.3	3.8	7.47e-01	0	25	104	367001600	81	20125
2026-01-08 10:53:53.75	124.67	41.12	-51.9	-63.6	3.8	7.50e-01	0	25	104	367001600	71	14836
2026-01-08 10:53:54.76	124.44	41.42	-50.5	-62.0	3.8	7.49e-01	0	25	104	367001600	70	13033
2026-01-08 10:53:55.76	124.21	41.72	-50.5	-61.9	3.8	7.45e-01	0	25	104	367001600	70	12890
2026-01-08 10:53:56.77	123.98	42.02	-50.6	-62.0	3.8	7.46e-01	0	25	104	367001600	70	13044
2026-01-08 10:53:57.78	123.74	42.32	-52.5	-64.4	3.9	7.45e-01	0	25	104	367001600	72	15235
2026-01-08 10:53:58.79	123.49	42.63	-52.9	-64.8	3.8	7.50e-01	0	25	104	367001600	73	15111
2026-01-08 10:53:59.80	123.24	42.94	-56.8	-71.3	3.8	7.47e-01	0	25	104	367001600	81	20288
2026-01-08 10:54:00.80	122.99	43.25	-55.7	-69.0	3.8	7.48e-01	0	25	104	367001600	79	17360
2026-01-08 10:54:01.81	122.73	43.56	-50.4	-61.8	3.8	7.48e-01	0	25	104	367001600	69	13501
2026-01-08 10:54:02.82	122.46	43.88	-49.6	-60.8	3.8	7.44e-01	0	25	104	367001600	68	12715
2026-01-08 10:54:03.83	122.19	44.20	-49.8	-61.2	3.8	7.45e-01	0	25	104	367001600	68	13290
2026-01-08 10:54:04.84	121.91	44.52	-50.1	-61.6	3.8	7.47e-01	0	25	104	367001600	68	13951
2026-01-08 10:54:05.84	121.63	44.83	-51.6	-63.3	3.8	7.46e-01	0	25	104	367001600	70	15070
2026-01-08 10:54:06.85	121.34	45.16	-50.3	-61.7	3.8	7.48e-01	0	25	104	367001600	68	14143
2026-01-08 10:54:07.86	121.04	45.48	-55.8	-69.0	3.8	7.42e-01	0	24	104	367001600	79	17452
2026-01-08 10:54:08.87	120.74	45.81	-56.7	-71.0	3.8	7.46e-01	0	25	104	367001600	81	19393
2026-01-08 10:54:09.88	120.44	46.14	-52.7	-64.3	3.9	7.47e-01	0	25	104	367001600	72	15224
2026-01-08 10:54:10.88	120.12	46.47	-50.0	-61.5	3.8	7.44e-01	0	25	104	367001600	69	13019
2026-01-08 10:54:11.89	119.80	46.80	-50.0	-61.2	3.9	7.44e-01	0	25	104	367001600	69	12649
2026-01-08 10:54:12.90	119.47	47.13	-50.0	-61.3	3.8	7.45e-01	0	25	104	367001600	69	12766
2026-01-08 10:54:13.91	119.14	47.47	-53.1	-65.3	3.8	7.44e-01	0	25	104	367001600	73	16004
2026-01-08 10:54:14.91	118.80	47.80	-53.3	-65.4	3.8	7.44e-01	0	25	104	367001600	74	15271
2026-01-08 10:54:15.92	118.45	48.14	-57.5	-72.9	3.8	7.48e-01	0	25	104	367001600	82	22985
2026-01-08 10:54:16.92	118.09	48.48	-56.0	-69.5	3.8	7.47e-01	0	25	104	367001600	80	17371
2026-01-08 10:54:17.93	117.72	48.82	-50.3	-61.7	3.8	7.48e-01	0	25	104	367001600	68	14123
2026-01-08 10:54:18.94	117.35	49.17	-50.1	-61.6	3.9	7.45e-01	0	25	104	367001600	69	13219
2026-01-08 10:54:19.95	116.96	49.51	-49.6	-61.0	3.9	7.46e-01	0	24	104	367001600	68	12962
2026-01-08 10:54:20.96	116.57	49.86	-49.5	-60.8	3.9	7.45e-01	0	25	104	367001600	68	12760
2026-01-08 10:54:21.97	116.17	50.21	-51.4	-63.0	3.8	7.44e-01	0	25	104	367001600	70	14591
2026-01-08 10:54:22.97	115.76	50.56	-50.0	-61.4	3.8	7.46e-01	0	25	104	367001600	68	13639
2026-01-08 10:54:23.98	115.34	50.91	-55.9	-69.3	3.8	7.46e-01	0	25	104	367001600	79	17944
2026-01-08 10:54:24.98	114.91	51.26	-56.6	-70.9	3.9	7.45e-01	0	25	104	367001600	81	19190
2026-01-08 10:54:25.99	114.47	51.61	-52.3	-64.2	3.8	7.45e-01	0	25	104	367001600	72	14887
2026-01-08 10:54:27.00	114.02	51.96	-49.2	-60.5	3.8	7.44e-01	0	25	104	367001600	67	13028
2026-01-08 10:54:28.00	113.56	52.31	-49.0	-60.1	3.9	7.46e-01	0	25	104	367001600	67	12476
2026-01-08 10:54:29.01	113.08	52.67	-49.1	-60.5	3.9	7.47e-01	0	25	104	367001600	67	12995
2026-01-08 10:54:30.02	112.59	53.02	-51.1	-62.7	3.9	7.42e-01	0	25	104	367001600	71	13299
2026-01-08 10:54:31.02	112.10	53.38	-49.4	-60.7	3.8	7.48e-01	0	24	104	367001600	67	13383
2026-01-08 10:54:32.03	111.59	53.73	-55.6	-68.8	3.9	7.47e-01	0	24	104	367001600	79	16896
2026-01-08 10:54:33.04	111.06	54.09	-55.5	-68.7	3.9	7.44e-01	0	25	104	367001600	80	15838
2026-01-08 10:54:34.04	110.53	54.44	-52.1	-63.9	3.8	7.45e-01	0	25	104	367001600	72	14439
2026-01-08 10:54:35.05	109.98	54.80	-48.7	-59.8	3.9	7.45e-01	0	25	104	367001600	66	12782
2026-01-08 10:54:36.06	109.41	55.16	-48.8	-60.0	3.9	7.46e-01	0	25	104	367001600	66	13059
2026-01-08 10:54:37.06	108.84	55.51	-48.9	-60.1	3.9	7.48e-01	0	25	104	367001600	66	13227
2026-01-08 10:54:38.07	108.24	55.86	-51.2	-62.9	3.9	7.49e-01	0	25	104	367001600	71	13595
2026-01-08 10:54:39.08	107.63	56.22	-49.7	-61.0	3.8	7.44e-01	0	25	104	367001600	68	12997
2026-01-08 10:54:40.09	107.00	56.57	-55.9	-69.3	3.9	7.46e-01	0	25	104	367001600	80	17026
2026-01-08 10:54:41.10	106.36	56.92	-55.2	-67.9	3.9	7.44e-01	0	25	104	367001600	79	15274
2026-01-08 10:54:42.11	105.70	57.28	-52.9	-64.9	3.9	7.42e-01	0	25	104	367001600	74	14435
2026-01-08 10:54:43.12	105.02	57.63	-49.8	-61.1	3.8	7.47e-01	0	25	104	367001600	68	13224
2026-01-08 10:54:44.12	104.33	57.97	-49.8	-61.2	3.9	7.47e-01	0	25	104	367001600	68	13316
2026-01-08 10:54:45.13	103.62	58.32	-50.0	-61.3	3.8	7.48e-01	0	25	104	367001600	68	13485
2026-01-08 10:54:46.13	102.89	58.66	-53.9	-66.2	3.9	7.43e-01	0	25	104	367001600	77	14048
2026-01-08 10:54:47.13	102.15	59.00	-50.2	-61.7	3.9	7.47e-01	0	25	104	367001600	69	13277
2026-01-08 10:54:48.14	101.38	59.34	-56.4	-70.1	3.9	7.47e-01	0	25	104	367001600	81	17507
2026-01-08 10:54:49.15	100.58	59.67	-55.2	-67.9	3.9	7.41e-01	0	25	104	367001600	79	15383
2026-01-08 10:54:50.15	99.78	60.00	-53.3	-65.4	3.9	7.47e-01	0	25	104	367001600	75	14495
2026-01-08 10:54:51.16	98.95	60.33	-50.2	-61.5	3.9	7.45e-01	0	25	104	367001600	69	13064
2026-01-08 10:54:52.17	98.09	60.66	-50.6	-62.0	3.9	7.45e-01	0	25	104	367001600	69	13798
2026-01-08 10:54:53.18	97.21	60.98	-50.5	-62.0	3.9	7.44e-01	0	25	104	367001600	69	13734
2026-01-08 10:54:54.19	96.31	61.30	-51.4	-62.9	3.9	7.46e-01	0	25	104	367001600	72	12838
2026-01-08 10:54:55.19	95.40	61.61	-50.9	-62.4	3.8	7.44e-01	0	25	104	367001600	70	13701
2026-01-08 10:54:56.21	94.44	61.92	-56.7	-70.7	3.9	7.44e-01	0	25	104	367001600	82	17811
2026-01-08 10:54:57.21	93.48	62.22	-54.3	-67.0	3.9	7.44e-01	0	25	104	367001600	78	14545
2026-01-08 10:54:58.21	92.49	62.51	-53.7	-65.7	3.9	7.45e-01	0	25	104	367001600	76	14054
2026-01-08 10:54:59.22	91.47	62.80	-51.5	-63.3	3.9	7.43e-01	0	25	104	367001600	71	14227
2026-01-08 10:55:00.23	90.42	63.08	-51.1	-62.4	3.9	7.45e-01	0	25	104	367001600	71	12956
2026-01-08 10:55:01.24	89.35	63.36	-51.6	-63.1	3.8	7.45e-01	0	25	104	367001600	71	13905
2026-01-08 10:55:02.25	88.26	63.63	-53.9	-66.3	3.8	7.44e-01	0	25	104	367001600	77	14218
2026-01-08 10:55:03.26	87.14	63.89	-51.7	-63.1	3.9	7.44e-01	0	25	104	367001600	72	13221
2026-01-08 10:55:04.27	85.99	64.14	-57.0	-71.3	3.9	7.45e-01	0	25	104	367001600	82	19084
2026-01-08 10:55:05.27	84.83	64.38	-54.6	-67.2	3.9	7.44e-01	0	25	104	367001600	78	14919
2026-01-08 10:55:06.28	83.64	64.62	-54.2	-66.6	3.9	7.48e-01	0	25	104	367001600	77	14776
2026-01-08 10:55:07.29	82.42	64.84	-52.1	-63.6	3.9	7.44e-01	0	25	104	367001600	73	13181
2026-01-08 10:55:08.29	81.18	65.06	-52.6	-64.5	3.9	7.45e-01	0	25	104	367001600	73	14695
2026-01-08 10:55:09.30	79.92	65.26	-53.3	-65.3	3.8	7.47e-01	0	25	104	367001600	74	15156
2026-01-08 10:55:10.31	78.63	65.46	-54.9	-67.4	3.9	7.42e-01	0	25	104	367001600	79	14448
2026-01-08 10:55:11.31	77.32	65.64	-53.5	-65.5	3.8	7.43e-01	0	25	104	367001600	74	15484
2026-01-08 10:55:12.33	75.98	65.82	-57.4	-72.4	3.9	7.44e-01	0	25	104	367001600	83	20391
2026-01-08 10:55:13.33	74.63	65.98	-53.8	-66.2	3.9	7.45e-01	0	25	104	367001600	77	14111
2026-01-08 10:55:14.34	73.26	66.13	-54.8	-67.2	3.9	7.45e-01	0	25	104	367001600	78	14881
2026-01-08 10:55:15.35	71.87	66.26	-53.1	-65.3	3.9	7.44e-01	0	25	104	367001600	75	14235
2026-01-08 10:55:16.35	70.47	66.39	-53.2	-65.2	3.8	7.45e-01	0	25	104	367001600	75	14092
2026-01-08 10:55:17.36	69.04	66.50	-53.2	-64.8	3.8	7.44e-01	0	25	104	367001600	75	13536
2026-01-08 10:55:18.37	67.60	66.60	-54.4	-67.1	3.8	7.45e-01	0	25	104	367001600	78	14719
2026-01-08 10:55:19.37	66.16	66.68	-54.4	-66.8	3.8	7.47e-01	0	25	104	367001600	76	16110
2026-01-08 10:55:20.38	64.70	66.75	-57.5	-72.4	3.9	7.46e-01	0	25	104	367001600	83	20313
2026-01-08 10:55:21.39	63.23	66.81	-53.7	-65.8	3.9	7.42e-01	0	25	104	367001600	76	14257
2026-01-08 10:55:22.40	61.75	66.85	-54.7	-67.1	3.8	7.46e-01	0	25	104	367001600	78	14754
2026-01-08 10:55:23.41	60.26	66.88	-53.7	-65.7	3.9	7.46e-01	0	25	104	367001600	76	14053
2026-01-08 10:55:24.41	58.79	66.90	-53.9	-66.4	3.9	7.45e-01	0	25	104	367001600	76	15227
2026-01-08 10:55:25.42	57.30	66.90	-54.2	-66.1	3.8	7.44e-01	0	25	104	367001600	76	14742
2026-01-08 10:55:26.43	55.82	66.88	-55.0	-67.7	3.9	7.44e-01	0	25	104	367001600	79	14906
2026-01-08 10:55:27.43	54.35	66.86	-56.8	-71.1	3.8	7.47e-01	0	25	104	367001600	81	19654
2026-01-08 10:55:28.44	52.87	66.82	-58.0	-73.4	3.8	7.46e-01	0	25	104	367001600	84	21671
2026-01-08 10:55:29.45	51.39	66.76	-53.6	-65.7	3.9	7.48e-01	0	25	104	367001600	76	14126
2026-01-08 10:55:30.46	49.93	66.69	-54.5	-66.9	3.8	7.43e-01	0	25	104	367001600	78	14382
2026-01-08 10:55:31.46	48.49	66.61	-53.6	-65.5	3.8	7.45e-01	0	25	104	367001600	76	13738
2026-01-08 10:55:32.47	47.05	66.51	-53.7	-65.6	3.9	7.46e-01	0	25	104	367001600	76	14026
2026-01-08 10:55:33.48	45.62	66.40	-55.1	-67.7	3.8	7.48e-01	0	25	104	367001600	77	16842
2026-01-08 10:55:34.49	44.21	66.28	-54.7	-67.2	3.9	7.48e-01	0	25	104	367001600	78	14891
2026-01-08 10:55:35.49	42.83	66.14	-57.5	-72.4	3.8	7.45e-01	0	25	104	367001600	82	21717
2026-01-08 10:55:36.50	41.45	66.00	-58.3	-74.3	3.8	7.47e-01	0	25	104	367001600	85	22722
2026-01-08 10:55:37.51	40.10	65.84	-53.8	-65.6	3.9	7.46e-01	0	25	104	367001600	76	13901
2026-01-08 10:55:38.52	38.76	65.66	-54.6	-67.4	3.8	7.45e-01	0	25	104	367001600	78	15299
2026-01-08 10:55:39.52	37.46	65.48	-53.8	-66.1	3.8	7.48e-01	0	25	104	367001600	76	14723
2026-01-08 10:55:40.53	36.16	65.29	-53.6	-65.1	3.8	7.46e-01	0	25	104	367001600	76	13154
2026-01-08 10:55:41.54	34.89	65.08	-55.3	-68.3	3.9	7.44e-01	0	25	104	367001600	78	16894
2026-01-08 10:55:42.55	33.65	64.87	-54.4	-66.7	3.9	7.44e-01	0	25	104	367001600	78	14081
2026-01-08 10:55:43.55	32.44	64.65	-57.6	-72.4	3.8	7.49e-01	0	25	104	367001600	82	21744
2026-01-08 10:55:44.56	31.24	64.41	-58.3	-73.9	3.8	7.48e-01	0	25	104	367001600	84	23044
2026-01-08 10:55:45.57	30.07	64.17	-53.7	-65.8	3.8	7.47e-01	0	25	104	367001600	76	14363
2026-01-08 10:55:46.57	28.93	63.92	-54.1	-66.1	3.9	7.47e-01	0	25	104	367001600	77	14023
2026-01-08 10:55:47.58	27.81	63.66	-53.1	-65.0	3.8	7.44e-01	0	25	104	367001600	75	13809
2026-01-08 10:55:48.58	26.72	63.39	-53.2	-65.1	3.8	7.45e-01	0	25	104	367001600	75	13980
2026-01-08 10:55:49.59	25.65	63.12	-55.0	-67.8	3.9	7.48e-01	0	25	104	367001600	77	16948
2026-01-08 10:55:50.60	24.60	62.84	-53.2	-64.9	3.9	7.45e-01	0	25	104	367001600	75	13583
2026-01-08 10:55:51.60	23.59	62.55	-57.8	-73.1	3.8	7.46e-01	0	25	104	367001600	83	22083
2026-01-08 10:55:52.61	22.59	62.26	-58.3	-74.3	3.8	7.45e-01	0	25	104	367001600	84	24100
2026-01-08 10:55:53.62	21.62	61.96	-53.0	-65.0	3.8	7.46e-01	0	25	104	367001600	74	14704
2026-01-08 10:55:54.63	20.67	61.65	-52.5	-64.1	3.8	7.46e-01	0	25	104	367001600	74	13111
2026-01-08 10:55:55.63	19.75	61.34	-52.0	-63.6	3.8	7.45e-01	0	25	104	367001600	73	13183
2026-01-08 10:55:56.64	18.85	61.03	-51.9	-63.7	3.9	7.46e-01	0	25	104	367001600	73	13350
2026-01-08 10:55:57.65	17.97	60.71	-53.8	-65.6	3.8	7.48e-01	0	25	104	367001600	75	14816
2026-01-08 10:55:58.66	17.11	60.38	-51.8	-62.9	3.9	7.44e-01	0	25	104	367001600	72	12848
2026-01-08 10:55:59.67	16.27	60.05	-57.8	-73.1	3.8	7.48e-01	0	25	104	367001600	83	22214
2026-01-08 10:56:00.68	15.46	59.72	-58.1	-73.7	3.8	7.51e-01	0	25	104	367001600	84	22355
2026-01-08 10:56:01.68	14.67	59.39	-51.8	-63.4	3.9	7.47e-01	0	25	104	367001600	71	14400
2026-01-08 10:56:02.69	13.90	59.05	-51.2	-62.6	3.8	7.44e-01	0	25	104	367001600	71	13233
2026-01-08 10:56:03.69	13.15	58.71	-50.9	-62.4	3.9	7.48e-01	0	25	104	367001600	71	12954
2026-01-08 10:56:04.69	12.43	58.37	-50.9	-62.2	3.9	7.44e-01	0	25	104	367001600	71	12625
2026-01-08 10:56:05.70	11.71	58.03	-53.4	-65.3	3.9	7.48e-01	0	25	104	367001600	74	15148
2026-01-08 10:56:06.71	11.02	57.68	-51.1	-62.4	3.9	7.48e-01	0	25	104	367001600	71	12847
2026-01-08 10:56:07.71	10.34	57.33	-57.7	-72.9	3.8	7.46e-01	0	25	104	367001600	83	21709
2026-01-08 10:56:08.72	9.68	56.98	-58.0	-73.9	3.8	7.47e-01	0	25	104	367001600	83	24303
2026-01-08 10:56:09.73	9.04	56.63	-51.7	-63.5	3.8	7.46e-01	0	25	104	367001600	71	14624
2026-01-08 10:56:10.73	8.41	56.28	-50.7	-62.0	3.8	7.45e-01	0	25	104	367001600	70	12972
2026-01-08 10:56:11.74	7.80	55.93	-50.2	-61.3	3.8	7.48e-01	0	25	104	367001600	69	12739
2026-01-08 10:56:12.75	7.20	55.57	-50.3	-62.0	3.8	7.47e-01	0	25	104	367001600	69	13780
2026-01-08 10:56:13.75	6.63	55.22	-51.9	-63.2	3.9	7.44e-01	0	25	104	367001600	71	14171
2026-01-08 10:56:14.76	6.06	54.87	-49.8	-60.9	3.8	7.44e-01	0	25	104	367001600	68	12825
2026-01-08 10:56:15.77	5.51	54.51	-57.6	-72.4	3.8	7.47e-01	0	25	104	367001600	82	21525
2026-01-08 10:56:16.78	4.97	54.15	-57.6	-72.5	3.8	7.48e-01	0	25	104	367001600	82	21959
2026-01-08 10:56:17.79	4.44	53.80	-50.9	-62.3	3.8	7.44e-01	0	25	104	367001600	69	14336
2026-01-08 10:56:18.80	3.93	53.44	-49.4	-60.7	3.9	7.48e-01	0	25	104	367001600	68	12627
2026-01-08 10:56:19.80	3.43	53.09	-49.0	-59.9	3.9	7.42e-01	0	25	104	367001600	67	12213
2026-01-08 10:56:20.81	2.95	52.74	-48.8	-59.9	3.9	7.45e-01	0	25	104	367001600	66	12924
2026-01-08 10:56:21.82	2.47	52.38	-50.9	-62.3	3.9	7.43e-01	0	25	104	367001600	69	14258
2026-01-08 10:56:22.83	2.00	52.03	-49.7	-61.1	3.8	7.44e-01	0	25	104	367001600	68	13187
2026-01-08 10:56:23.83	1.56	51.68	-57.9	-73.1	3.9	7.45e-01	0	25	104	367001600	83	22092
2026-01-08 10:56:24.84	1.11	51.33	-57.8	-73.1	3.8	7.47e-01	0	25	104	367001600	83	22147
2026-01-08 10:56:25.85	0.68	50.98	-51.0	-62.5	3.9	7.46e-01	0	25	104	367001600	69	14580
2026-01-08 10:56:26.86	0.26	50.63	-49.6	-61.2	3.9	7.43e-01	0	25	104	367001600	68	13408
2026-01-08 10:56:27.86	359.85	50.28	-49.4	-60.8	3.9	7.45e-01	0	25	104	367001600	68	12726
2026-01-08 10:56:28.87	359.45	49.93	-49.5	-60.7	3.8	7.47e-01	0	25	104	367001600	67	13369
2026-01-08 10:56:29.88	359.05	49.59	-51.8	-63.5	3.9	7.43e-01	0	25	104	367001600	71	14572
2026-01-08 10:56:30.89	358.67	49.24	-50.1	-61.4	3.9	7.43e-01	0	25	104	367001600	69	12892
2026-01-08 10:56:31.89	358.29	48.90	-58.0	-73.8	3.8	7.43e-01	0	25	104	367001600	83	23958
2026-01-08 10:56:32.90	357.93	48.56	-58.0	-74.0	3.8	7.45e-01	0	25	104	367001600	83	24586
2026-01-08 10:56:33.91	357.57	48.22	-51.6	-63.3	3.8	7.48e-01	0	25	104	367001600	70	15201
2026-01-08 10:56:34.91	357.22	47.88	-49.9	-61.3	3.9	7.45e-01	0	25	104	367001600	69	12795
2026-01-08 10:56:35.92	356.88	47.55	-49.6	-61.0	3.8	7.44e-01	0	25	104	367001600	68	12996
2026-01-08 10:56:36.92	356.54	47.21	-49.3	-60.3	3.8	7.45e-01	0	25	104	367001600	67	12773
2026-01-08 10:56:37.93	356.21	46.88	-50.0	-61.1	3.8	7.43e-01	0	25	104	367001600	67	14034
2026-01-08 10:56:38.93	355.89	46.55	-50.3	-61.9	3.8	7.47e-01	0	25	104	367001600	68	14403
2026-01-08 10:56:39.94	355.58	46.22	-58.0	-74.1	3.8	7.44e-01	0	25	104	367001600	83	24721
2026-01-08 10:56:40.95	355.27	45.89	-58.1	-74.3	3.8	7.45e-01	0	25	104	367001600	83	25521
2026-01-08 10:56:41.95	354.97	45.57	-51.3	-62.7	3.9	7.44e-01	0	25	104	367001600	70	14186
2026-01-08 10:56:42.96	354.68	45.25	-49.5	-60.6	3.9	7.46e-01	0	25	104	367001600	68	12422
2026-01-08 10:56:43.97	354.39	44.92	-49.4	-60.5	3.8	7.43e-01	0	25	104	367001600	68	12282
2026-01-08 10:56:44.98	354.10	44.60	-49.3	-60.5	3.8	7.47e-01	0	25	104	367001600	67	13009
2026-01-08 10:56:45.99	353.83	44.28	-51.2	-62.6	3.9	7.47e-01	0	25	104	367001600	70	14021
2026-01-08 10:56:46.98	353.56	43.97	-50.7	-62.2	3.8	7.49e-01	0	25	104	367001600	70	13392
2026-01-08 10:56:47.99	353.29	43.66	-58.2	-74.2	3.8	7.47e-01	0	25	104	367001600	84	23670
2026-01-08 10:56:48.99	353.03	43.35	-58.2	-74.3	3.8	7.44e-01	0	25	104	367001600	84	24119
2026-01-08 10:56:50.00	352.78	43.04	-51.4	-63.0	3.9	7.43e-01	0	25	104	367001600	70	14566
2026-01-08 10:56:51.01	352.53	42.73	-50.2	-61.4	3.9	7.47e-01	0	25	104	367001600	69	12894
2026-01-08 10:56:52.02	352.28	42.42	-50.3	-61.5	3.8	7.47e-01	0	25	104	367001600	69	13039
2026-01-08 10:56:53.03	352.04	42.12	-50.3	-61.9	3.8	7.48e-01	0	25	104	367001600	69	13671
2026-01-08 10:56:54.04	351.80	41.81	-51.3	-63.1	3.8	7.44e-01	0	25	104	367001600	70	14872
2026-01-08 10:56:55.05	351.57	41.51	-51.9	-63.6	3.8	7.45e-01	0	25	104	367001600	71	14842
2026-01-08 10:56:56.06	351.34	41.21	-58.2	-74.0	3.9	7.45e-01	0	25	104	367001600	84	23184
2026-01-08 10:56:57.07	351.12	40.92	-58.2	-74.4	3.9	7.44e-01	0	25	104	367001600	84	24216
2026-01-08 10:56:58.08	350.90	40.62	-52.0	-63.5	3.8	7.47e-01	0	25	104	367001600	72	13820
2026-01-08 10:56:59.08	350.68	40.33	-51.2	-62.4	3.9	7.45e-01	0	25	104	367001600	71	12884
2026-01-08 10:57:00.09	350.47	40.04	-51.1	-62.4	3.8	7.51e-01	0	25	104	367001600	71	12823
2026-01-08 10:57:01.10	350.26	39.76	-51.3	-62.9	3.8	7.44e-01	0	25	104	367001600	71	13675
2026-01-08 10:57:02.11	350.06	39.47	-51.7	-63.4	3.8	7.46e-01	0	25	104	367001600	71	14514
2026-01-08 10:57:03.12	349.86	39.18	-52.7	-64.5	3.8	7.44e-01	0	25	104	367001600	73	14705
2026-01-08 10:57:04.12	349.67	38.91	-58.2	-74.0	3.9	7.43e-01	0	25	104	367001600	84	23174
2026-01-08 10:57:05.12	349.47	38.63	-57.9	-73.4	3.9	7.46e-01	0	25	104	367001600	85	20486
2026-01-08 10:57:06.13	349.29	38.35	-52.2	-63.8	3.8	7.47e-01	0	25	104	367001600	72	14270
2026-01-08 10:57:07.14	349.10	38.07	-51.5	-63.2	3.8	7.46e-01	0	25	104	367001600	72	13384
2026-01-08 10:57:08.15	348.92	37.80	-51.3	-63.0	3.8	7.44e-01	0	25	104	367001600	71	13871
2026-01-08 10:57:09.15	348.74	37.53	-51.1	-62.6	3.8	7.47e-01	0	25	104	367001600	71	13142
2026-01-08 10:57:10.16	348.56	37.26	-51.8	-63.2	3.8	7.47e-01	0	25	104	367001600	71	14160
2026-01-08 10:57:11.16	348.39	37.00	-52.9	-64.6	3.8	7.46e-01	0	25	104	367001600	73	14767
2026-01-08 10:57:12.17	348.22	36.73	-58.0	-73.5	3.9	7.42e-01	0	25	104	367001600	84	21885
2026-01-08 10:57:13.17	348.05	36.47	-57.5	-72.5	3.9	7.41e-01	0	25	104	367001600	84	19430
2026-01-08 10:57:14.18	347.89	36.21	-51.6	-63.2	3.8	7.44e-01	0	25	104	367001600	71	14136
2026-01-08 10:57:15.19	347.72	35.95	-51.0	-62.5	3.9	7.44e-01	0	25	104	367001600	71	13057
2026-01-08 10:57:16.20	347.56	35.69	-50.7	-62.1	3.8	7.49e-01	0	25	104	367001600	70	13197
2026-01-08 10:57:17.20	347.41	35.44	-50.5	-62.0	3.9	7.44e-01	0	25	104	367001600	70	12980
2026-01-08 10:57:18.21	347.25	35.18	-51.0	-62.5	3.9	7.46e-01	0	25	104	367001600	70	13818
2026-01-08 10:57:19.22	347.10	34.93	-52.8	-64.6	3.9	7.43e-01	0	25	104	367001600	73	14771
2026-01-08 10:57:20.23	346.95	34.68	-57.3	-72.0	3.9	7.42e-01	0	25	104	367001600	83	19607
2026-01-08 10:57:21.24	346.80	34.43	-55.2	-67.7	3.9	7.45e-01	0	25	104	367001600	79	15036
2026-01-08 10:57:22.24	346.66	34.19	-50.7	-62.1	3.8	7.45e-01	0	25	104	367001600	70	13260
2026-01-08 10:57:23.25	346.52	33.94	-50.3	-61.7	3.8	7.44e-01	0	25	104	367001600	69	13371
2026-01-08 10:57:24.26	346.38	33.70	-49.7	-61.0	3.8	7.45e-01	0	25	104	367001600	68	12988
2026-01-08 10:57:25.27	346.24	33.46	-49.5	-60.7	3.8	7.44e-01	0	25	104	367001600	68	12611
2026-01-08 10:57:26.28	346.10	33.22	-49.5	-60.7	3.8	7.49e-01	0	25	104	367001600	67	13284
2026-01-08 10:57:27.29	345.97	32.98	-54.2	-66.2	3.8	7.45e-01	0	25	104	367001600	75	15793
2026-01-08 10:57:28.29	345.84	32.75	-56.9	-71.2	3.8	7.41e-01	0	25	104	367001600	83	17734
2026-01-08 10:57:29.30	345.71	32.52	-53.5	-65.6	3.9	7.43e-01	0	25	104	367001600	76	14038
2026-01-08 10:57:30.30	345.58	32.29	-49.9	-61.3	3.8	7.45e-01	0	25	104	367001600	68	13425
2026-01-08 10:57:31.31	345.45	32.06	-49.6	-61.1	3.8	7.42e-01	0	25	104	367001600	68	13137
2026-01-08 10:57:32.32	345.33	31.83	-49.3	-60.8	3.8	7.47e-01	0	25	104	367001600	67	13516
2026-01-08 10:57:33.33	345.21	31.60	-49.4	-60.9	3.8	7.49e-01	0	25	104	367001600	67	13656
2026-01-08 10:57:34.34	345.09	31.37	-50.1	-61.6	3.8	7.45e-01	0	25	104	367001600	67	14739
2026-01-08 10:57:35.34	344.97	31.15	-54.6	-67.1	3.8	7.48e-01	0	25	104	367001600	76	16682
2026-01-08 10:57:36.35	344.85	30.93	-56.7	-70.6	3.9	7.44e-01	0	25	104	367001600	82	17528
2026-01-08 10:57:37.36	344.74	30.71	-52.4	-64.1	3.9	7.45e-01	0	25	104	367001600	74	13208
2026-01-08 10:57:38.37	344.62	30.49	-49.7	-60.8	3.9	7.41e-01	0	25	104	367001600	68	12773
2026-01-08 10:57:39.38	344.51	30.28	-49.3	-60.3	3.8	7.48e-01	0	25	104	367001600	67	12798
2026-01-08 10:57:40.39	344.40	30.06	-49.1	-60.2	3.8	7.45e-01	0	25	104	367001600	67	12604
2026-01-08 10:57:41.39	344.29	29.85	-49.0	-60.2	3.8	7.45e-01	0	25	104	367001600	67	12650
2026-01-08 10:57:42.39	344.18	29.64	-49.8	-61.0	3.8	7.44e-01	0	25	104	367001600	67	13829
2026-01-08 10:57:43.40	344.08	29.43	-55.4	-68.3	3.8	7.45e-01	0	25	104	367001600	78	16890
2026-01-08 10:57:44.41	343.97	29.22	-57.0	-71.2	3.8	7.47e-01	0	25	104	367001600	82	18885
2026-01-08 10:57:45.41	343.87	29.02	-51.5	-63.1	3.9	7.47e-01	0	25	104	367001600	72	13226
2026-01-08 10:57:46.42	343.77	28.81	-49.8	-61.1	3.9	7.49e-01	0	25	104	367001600	68	13191
2026-01-08 10:57:47.43	343.67	28.61	-49.7	-61.0	3.8	7.47e-01	0	25	104	367001600	68	13020
2026-01-08 10:57:48.44	343.57	28.40	-49.8	-61.2	3.9	7.45e-01	0	25	104	367001600	68	13316
2026-01-08 10:57:49.45	343.47	28.20	-50.5	-62.1	3.8	7.45e-01	0	25	104	367001600	68	14725
2026-01-08 10:57:50.45	343.38	28.00	-50.4	-61.9	3.8	7.46e-01	0	25	104	367001600	69	13642
2026-01-08 10:57:51.46	343.28	27.80	-56.0	-69.5	3.8	7.48e-01	0	25	104	367001600	79	18415
2026-01-08 10:57:52.47	343.19	27.61	-57.3	-72.1	3.8	7.49e-01	0	25	104	367001600	83	19707
2026-01-08 10:57:53.47	343.10	27.41	-51.1	-62.6	3.9	7.46e-01	0	25	104	367001600	71	13197
2026-01-08 10:57:54.48	343.00	27.22	-50.1	-61.4	3.9	7.44e-01	0	25	104	367001600	69	12813
2026-01-08 10:57:55.49	342.91	27.03	-49.8	-61.1	3.8	7.45e-01	0	25	104	367001600	68	13160
2026-01-08 10:57:56.50	342.83	26.84	-49.5	-60.8	3.9	7.43e-01	0	25	104	367001600	68	12751
2026-01-08 10:57:57.51	342.74	26.65	-49.5	-60.8	3.8	7.45e-01	0	25	104	367001600	68	12667
2026-01-08 10:57:58.51	342.65	26.46	-50.7	-62.4	3.8	7.47e-01	0	25	104	367001600	69	14500
2026-01-08 10:57:59.52	342.57	26.27	-56.4	-70.1	3.8	7.44e-01	0	25	104	367001600	80	18570
2026-01-08 10:58:00.53	342.48	26.09	-57.7	-73.3	3.8	7.46e-01	0	25	104	367001600	83	22555
2026-01-08 10:58:01.54	342.40	25.90	-50.5	-62.1	3.8	7.45e-01	0	25	104	367001600	70	13129
2026-01-08 10:58:02.54	342.32	25.72	-50.4	-61.7	3.9	7.46e-01	0	25	104	367001600	69	13404
2026-01-08 10:58:03.55	342.23	25.54	-50.1	-61.3	3.8	7.46e-01	0	25	104	367001600	69	12772
2026-01-08 10:58:04.55	342.15	25.36	-49.8	-61.0	3.8	7.43e-01	0	25	104	367001600	68	12972
2026-01-08 10:58:05.57	342.07	25.18	-49.7	-60.9	3.8	7.48e-01	0	25	104	367001600	68	12909
2026-01-08 10:58:06.57	342.00	25.00	-50.9	-62.3	3.8	7.47e-01	0	25	104	367001600	69	14256
2026-01-08 10:58:07.58	341.92	24.82	-57.0	-71.3	3.8	7.46e-01	0	25	104	367001600	81	20153
2026-01-08 10:58:08.59	341.84	24.65	-57.8	-74.0	3.8	7.48e-01	0	25	104	367001600	83	24419
2026-01-08 10:58:09.60	341.77	24.47	-50.4	-61.7	3.8	7.44e-01	0	25	104	367001600	70	12606
2026-01-08 10:58:10.61	341.69	24.30	-50.3	-61.6	3.8	7.45e-01	0	25	104	367001600	69	13257
2026-01-08 10:58:11.62	341.62	24.13	-50.1	-61.3	3.8	7.45e-01	0	25	104	367001600	69	12719
2026-01-08 10:58:12.62	341.55	23.96	-49.8	-60.9	3.8	7.46e-01	0	25	104	367001600	68	12952
2026-01-08 10:58:13.63	341.47	23.79	-49.9	-61.0	3.8	7.47e-01	0	25	104	367001600	68	13072
2026-01-08 10:58:14.64	341.40	23.62	-51.9	-63.5	3.9	7.49e-01	0	25	104	367001600	71	14607
2026-01-08 10:58:15.65	341.33	23.45	-57.2	-72.3	3.8	7.49e-01	0	25	104	367001600	82	21320
2026-01-08 10:58:16.66	341.26	23.29	-58.0	-74.7	3.8	7.47e-01	0	25	104	367001600	83	26676
2026-01-08 10:58:17.66	341.19	23.12	-50.5	-61.8	3.8	7.49e-01	0	25	104	367001600	70	12746
2026-01-08 10:58:18.67	341.13	22.96	-50.6	-62.0	3.8	7.44e-01	0	25	104	367001600	70	13047
2026-01-08 10:58:19.68	341.06	22.79	-50.7	-62.2	3.8	7.47e-01	0	25	104	367001600	70	13299
2026-01-08 10:58:20.69	340.99	22.63	-50.6	-62.1	3.8	7.49e-01	0	25	104	367001600	70	13236
2026-01-08 10:58:21.70	340.93	22.47	-50.0	-61.5	3.8	7.44e-01	0	25	104	367001600	69	13039
2026-01-08 10:58:22.70	340.86	22.31	-54.7	-67.8	3.8	7.46e-01	0	25	104	367001600	77	17027
2026-01-08 10:58:23.71	340.80	22.15	-57.5	-73.2	3.8	7.47e-01	0	25	104	367001600	82	23800
2026-01-08 10:58:24.72	340.73	22.00	-57.6	-73.7	3.8	7.48e-01	0	25	104	367001600	83	23843
2026-01-08 10:58:25.73	340.67	21.84	-51.3	-63.1	3.8	7.45e-01	0	25	104	367001600	72	13188
2026-01-08 10:58:26.74	340.61	21.68	-51.0	-62.5	3.8	7.46e-01	0	25	104	367001600	71	13023
2026-01-08 10:58:27.74	340.55	21.53	-50.6	-62.0	3.8	7.43e-01	0	25	104	367001600	70	13047
2026-01-08 10:58:28.75	340.49	21.38	-50.7	-62.1	3.8	7.41e-01	0	25	104	367001600	70	13240
2026-01-08 10:58:29.76	340.43	21.22	-50.1	-61.4	3.8	7.47e-01	0	25	104	367001600	69	12817
2026-01-08 10:58:30.76	340.37	21.07	-52.4	-64.2	3.9	7.42e-01	0	25	104	367001600	72	14902
2026-01-08 10:58:31.77	340.31	20.92	-57.5	-73.2	3.9	7.45e-01	0	25	104	367001600	82	23754
2026-01-08 10:58:32.78	340.25	20.77	-58.1	-75.7	3.8	7.47e-01	0	25	104	367001600	83	29827
2026-01-08 10:58:33.78	340.20	20.62	-49.9	-51.6	15.7	6.04e-01	0	25	0	367525888	69	4174
2026-01-08 10:58:34.79	340.14	20.47	-49.9	-51.6	15.6	6.02e-01	0	25	0	369623040	68	4441
2026-01-08 10:58:35.80	340.08	20.33	-49.6	-51.4	15.7	5.99e-01	0	25	0	371195904	68	4299
2026-01-08 10:58:36.81	340.03	20.18	-49.3	-51.0	15.6	6.00e-01	0	25	0	373293056	67	4365
2026-01-08 10:58:37.82	339.97	20.04	-49.2	-50.8	15.7	6.02e-01	0	25	0	374865920	67	4283
2026-01-08 10:58:38.82	339.92	19.89	-49.2	-50.9	15.7	6.02e-01	0	25	0	376963072	67	4303
2026-01-08 10:58:39.83	339.86	19.75	-49.3	-51.0	15.6	6.01e-01	0	25	0	379060224	67	4347
2026-01-08 10:58:40.84	339.81	19.61	-49.3	-51.0	15.6	6.02e-01	0	25	0	380633088	67	4352
2026-01-08 10:58:41.85	339.76	19.46	-49.4	-51.0	15.6	6.02e-01	0	25	0	382730240	67	4390
2026-01-08 10:58:42.85	339.71	19.32	-49.5	-51.3	15.6	6.01e-01	0	25	0	384303104	67	4499
2026-01-08 10:58:43.86	339.66	19.18	-49.4	-51.1	15.6	6.03e-01	0	25	0	386400256	67	4424
2026-01-08 10:58:44.87	339.60	19.04	-49.4	-51.1	15.6	6.01e-01	0	25	0	388497408	67	4411
2026-01-08 10:58:45.88	339.55	18.91	-49.4	-51.1	15.6	6.02e-01	0	25	0	390070272	67	4407
2026-01-08 10:58:46.88	339.50	18.77	-49.4	-51.1	15.6	6.03e-01	0	25	0	392167424	67	4435
2026-01-08 10:58:47.89	339.45	18.63	-49.4	-51.1	15.6	6.03e-01	0	25	0	394264576	67	4426
2026-01-08 10:58:48.90	339.41	18.50	-49.4	-51.1	15.6	5.99e-01	0	25	0	395837440	67	4433
2026-01-08 10:58:49.90	339.36	18.36	-49.4	-51.1	15.6	6.04e-01	0	25	0	397934592	67	4431
2026-01-08 10:58:50.91	339.31	18.23	-49.4	-51.1	15.6	6.00e-01	0	25	0	399507456	67	4415
2026-01-08 10:58:51.91	339.26	18.10	-49.4	-51.1	15.6	6.02e-01	0	25	0	401604608	67	4416
2026-01-08 10:58:52.92	339.21	17.96	-49.4	-51.2	15.6	5.98e-01	0	25	0	403177472	67	4443
2026-01-08 10:58:53.93	339.17	17.83	-49.3	-51.0	15.7	6.00e-01	0	25	0	405274624	67	4341
2026-01-08 10:58:54.94	339.12	17.70	-49.2	-50.8	15.7	6.01e-01	0	25	0	407371776	67	4278
2026-01-08 10:58:55.95	339.08	17.57	-49.2	-50.9	15.7	6.02e-01	0	25	0	408944640	67	4322
2026-01-08 10:58:56.96	339.03	17.44	-49.3	-51.0	15.7	6.02e-01	0	25	0	411041792	67	4349
2026-01-08 10:58:57.96	338.99	17.31	-49.1	-50.8	15.7	6.00e-01	0	25	0	412614656	67	4252
2026-01-08 10:58:58.97	338.94	17.18	-49.0	-50.7	15.8	6.03e-01	0	25	0	414711808	67	4209
2026-01-08 10:58:59.98	338.90	17.05	-49.1	-50.7	15.7	6.01e-01	0	25	0	416808960	67	4237
2026-01-08 10:59:00.98	338.86	16.93	-49.1	-50.8	15.7	6.01e-01	0	25	0	418381824	67	4247
2026-01-08 10:59:01.99	338.81	16.80	-49.0	-50.7	15.8	6.01e-01	0	25	0	420478976	67	4203
2026-01-08 10:59:03.00	338.77	16.68	-49.1	-50.8	15.7	6.03e-01	0	25	0	422576128	67	4262
2026-01-08 10:59:04.01	338.73	16.55	-49.1	-50.8	15.7	6.03e-01	0	25	0	424148992	67	4255
2026-01-08 10:59:05.02	338.69	16.43	-48.9	-50.6	15.8	6.03e-01	0	25	0	426246144	67	4154
2026-01-08 10:59:06.03	338.64	16.30	-49.0	-50.7	15.7	6.03e-01	0	25	0	427819008	67	4206
2026-01-08 10:59:07.04	338.60	16.18	-49.0	-50.7	15.8	6.01e-01	0	25	0	429916160	67	4211
2026-01-08 10:59:08.04	338.56	16.06	-49.0	-50.6	15.8	6.01e-01	0	25	0	432013312	67	4186
2026-01-08 10:59:09.05	338.52	15.94	-49.1	-50.8	15.7	6.01e-01	0	25	0	433586176	67	4256
2026-01-08 10:59:10.05	338.48	15.82	-49.1	-50.7	15.8	6.01e-01	0	25	0	435683328	67	4224
2026-01-08 10:59:11.06	338.44	15.70	-49.1	-50.8	15.7	6.01e-01	0	25	0	437256192	67	4269
2026-01-08 10:59:12.06	338.40	15.58	-49.1	-50.8	15.7	6.01e-01	0	25	0	439353344	67	4270
2026-01-08 10:59:13.07	338.37	15.46	-49.2	-50.8	15.7	6.02e-01	0	25	0	440926208	67	4289
2026-01-08 10:59:14.08	338.33	15.34	-49.1	-50.8	15.7	6.02e-01	0	25	0	443023360	67	4272
2026-01-08 10:59:15.09	338.29	15.22	-49.2	-50.9	15.7	6.00e-01	0	25	0	445120512	67	4297
2026-01-08 10:59:16.09	338.25	15.11	-49.1	-50.8	15.7	6.02e-01	0	25	0	446693376	67	4280
2026-01-08 10:59:17.10	338.21	14.99	-49.1	-50.8	15.7	6.01e-01	0	25	0	448790528	67	4248
2026-01-08 10:59:18.11	338.18	14.87	-49.1	-50.8	15.7	6.01e-01	0	25	0	450887680	67	4258
2026-01-08 10:59:19.11	338.14	14.76	-49.0	-50.7	15.8	6.01e-01	0	25	0	452460544	67	4213
2026-01-08 10:59:20.12	338.10	14.65	-49.1	-50.7	15.7	6.02e-01	0	25	0	454557696	67	4242
2026-01-08 10:59:21.13	338.07	14.53	-49.1	-50.7	15.7	6.01e-01	0	25	0	456130560	67	4236
2026-01-08 10:59:22.14	338.03	14.42	-49.1	-50.8	15.7	6.02e-01	0	25	0	458227712	67	4249
2026-01-08 10:59:23.15	338.00	14.30	-49.1	-50.8	15.7	6.00e-01	0	25	0	460324864	67	4260
2026-01-08 10:59:24.16	337.96	14.19	-49.1	-50.8	15.8	6.01e-01	0	25	0	461897728	67	4252
2026-01-08 10:59:25.16	337.93	14.08	-49.1	-50.7	15.7	6.01e-01	0	25	0	463994880	67	4233
2026-01-08 10:59:26.17	337.89	13.97	-49.0	-50.7	15.8	6.02e-01	0	25	0	465567744	67	4199
2026-01-08 10:59:27.18	337.86	13.86	-49.1	-50.7	15.7	6.02e-01	0	25	0	467664896	67	4224
2026-01-08 10:59:28.19	337.83	13.75	-49.0	-50.7	15.8	6.00e-01	0	25	0	469762048	67	4227
2026-01-08 10:59:29.19	337.79	13.64	-49.1	-50.8	15.7	6.00e-01	0	25	0	471334912	67	4256
2026-01-08 10:59:30.19	337.76	13.53	-49.0	-50.7	15.8	6.01e-01	0	25	0	473432064	67	4204
2026-01-08 10:59:31.20	337.73	13.42	-49.0	-50.7	15.8	6.01e-01	0	25	0	475004928	67	4194
2026-01-08 10:59:32.21	337.69	13.31	-49.0	-50.6	15.8	6.02e-01	0	25	0	477102080	67	4183
2026-01-08 10:59:33.21	337.66	13.21	-49.0	-50.7	15.8	6.02e-01	0	25	0	479199232	67	4195
2026-01-08 10:59:34.22	337.63	13.10	-49.1	-50.7	15.7	6.04e-01	0	25	0	480772096	67	4242
2026-01-08 10:59:35.23	337.60	12.99	-49.1	-50.8	15.7	6.01e-01	0	25	0	482869248	67	4246
2026-01-08 10:59:36.24	337.57	12.89	-49.2	-51.0	15.7	5.99e-01	0	25	0	484442112	67	4342
2026-01-08 10:59:37.24	337.53	12.78	-49.1	-50.8	15.7	6.01e-01	0	25	0	486539264	67	4282
2026-01-08 10:59:38.25	337.50	12.68	-49.2	-51.0	15.7	6.00e-01	0	25	0	488636416	67	4346
2026-01-08 10:59:39.26	337.47	12.57	-49.3	-51.0	15.6	6.01e-01	0	25	0	490209280	67	4385
2026-01-08 10:59:40.27	337.44	12.47	-49.2	-51.0	15.7	6.03e-01	0	25	0	492306432	67	4343
2026-01-08 10:59:41.28	337.41	12.37	-49.3	-51.0	15.7	6.00e-01	0	25	0	493879296	67	4373
2026-01-08 10:59:42.29	337.38	12.26	-49.3	-51.0	15.6	6.01e-01	0	25	0	495976448	67	4377
2026-01-08 10:59:43.30	337.35	12.16	-49.3	-51.0	15.6	6.03e-01	0	25	0	498073600	67	4373
2026-01-08 10:59:44.30	337.32	12.06	-49.3	-51.0	15.7	6.00e-01	0	25	0	499646464	67	4350
2026-01-08 10:59:45.31	337.29	11.96	-49.3	-51.0	15.6	5.98e-01	0	25	0	501743616	67	4371
2026-01-08 10:59:46.31	337.27	11.86	-49.2	-50.9	15.7	6.02e-01	0	25	0	503316480	67	4334
2026-01-08 10:59:47.32	337.24	11.76	-49.3	-51.1	15.6	6.02e-01	0	25	0	505413632	67	4405
2026-01-08 10:59:48.32	337.21	11.66	-49.3	-51.0	15.7	6.00e-01	0	25	0	507510784	67	4359
2026-01-08 10:59:49.33	337.18	11.56	-49.3	-51.1	15.6	6.00e-01	0	25	0	509083648	67	4393
2026-01-08 10:59:50.33	337.15	11.46	-49.3	-51.0	15.7	6.01e-01	0	25	0	511180800	67	4380
2026-01-08 10:59:51.34	337.13	11.36	-49.3	-51.0	15.6	6.01e-01	0	25	0	512753664	67	4359
2026-01-08 10:59:52.35	337.10	11.26	-49.3	-51.1	15.6	6.01e-01	0	25	0	514850816	67	4402
2026-01-08 10:59:53.36	337.07	11.16	-49.3	-51.0	15.6	6.01e-01	0	25	0	516947968	67	4383
2026-01-08 10:59:54.37	337.04	11.06	-49.3	-51.1	15.6	6.03e-01	0	25	0	518520832	67	4406
2026-01-08 10:59:55.38	337.02	10.97	-49.4	-51.1	15.6	6.01e-01	0	25	0	520617984	67	4420
2026-01-08 10:59:56.39	336.99	10.87	-49.5	-51.2	15.6	6.02e-01	0	25	0	522190848	67	4479
2026-01-08 10:59:57.40	336.96	10.77	-49.4	-51.2	15.6	6.02e-01	0	25	0	524288000	67	4468
2026-01-08 10:59:58.40	336.94	10.68	-49.5	-51.3	15.5	5.99e-01	0	25	0	526385152	67	4526
2026-01-08 10:59:59.41	336.91	10.58	-49.6	-51.4	15.5	6.01e-01	0	25	0	527958016	67	4553
2026-01-08 11:00:00.42	336.89	10.49	-49.5	-51.3	15.5	6.00e-01	0	25	0	530055168	67	4525
2026-01-08 11:00:01.42	336.86	10.39	-49.4	-51.2	15.6	6.01e-01	0	25	0	531628032	67	4480
2026-01-08 11:00:02.43	336.83	10.30	-49.4	-51.2	15.6	6.02e-01	0	25	0	533725184	67	4466
2026-01-08 11:00:03.44	336.81	10.20	-49.4	-51.1	15.6	6.04e-01	0	25	0	535822336	67	4425
2026-01-08 11:00:04.45	336.78	10.11	-49.5	-51.3	15.6	6.00e-01	0	25	0	537395200	67	4510
2026-01-08 11:00:05.46	336.76	10.02	-49.6	-51.4	15.5	6.01e-01	0	25	0	539492352	67	4578
2026-01-08 11:00:06.46	336.74	9.92	-49.7	-51.5	15.5	6.02e-01	0	25	0	541065216	67	4617
2026-01-08 11:00:07.47	336.71	9.83	-49.6	-51.4	15.5	6.01e-01	0	25	0	543162368	67	4596
2026-01-08 11:00:08.48	336.69	9.74	-49.7	-51.6	15.4	6.02e-01	0	25	0	545259520	67	4672
2026-01-08 11:00:09.49	336.66	9.65	-49.8	-51.6	15.4	6.06e-01	0	25	0	546832384	67	4695
2026-01-08 11:00:10.49	336.64	9.56	-49.7	-51.5	15.5	6.03e-01	0	25	0	548929536	67	4625
2026-01-08 11:00:11.50	336.62	9.47	-49.7	-51.6	15.5	6.03e-01	0	25	0	550502400	67	4652
2026-01-08 11:00:12.51	336.59	9.38	-49.7	-51.6	15.4	6.00e-01	0	25	0	552599552	67	4658
2026-01-08 11:00:13.51	336.57	9.29	-49.6	-51.4	15.5	6.00e-01	0	25	0	554696704	67	4568
2026-01-08 11:00:14.52	336.55	9.20	-49.7	-51.5	15.5	6.03e-01	0	25	0	556269568	67	4629
2026-01-08 11:00:15.53	336.52	9.11	-49.7	-51.6	15.4	6.02e-01	0	25	0	558366720	67	4672
2026-01-08 11:00:16.54	336.50	9.02	-49.7	-51.6	15.4	6.01e-01	0	25	0	560463872	67	4682
2026-01-08 11:00:17.54	336.48	8.93	-49.8	-51.7	15.4	6.01e-01	0	25	0	562036736	67	4735
2026-01-08 11:00:18.55	336.46	8.84	-49.9	-51.8	15.4	6.02e-01	0	25	0	564133888	67	4792
2026-01-08 11:00:19.55	336.43	8.75	-49.7	-51.6	15.4	6.03e-01	0	25	0	565706752	67	4682
2026-01-08 11:00:20.56	336.41	8.66	-49.9	-51.8	15.4	6.01e-01	0	25	0	567803904	67	4767
2026-01-08 11:00:21.57	336.39	8.58	-49.9	-51.8	15.4	6.01e-01	0	25	0	569376768	67	4794
2026-01-08 11:00:22.58	336.37	8.49	-49.9	-51.8	15.4	6.00e-01	0	25	0	571473920	67	4802
2026-01-08 11:00:23.59	336.35	8.40	-49.9	-51.8	15.4	6.01e-01	0	25	0	573571072	67	4775
2026-01-08 11:00:24.60	336.33	8.32	-50.0	-51.9	15.3	6.03e-01	0	25	0	575143936	67	4853
2026-01-08 11:00:25.61	336.31	8.23	-49.9	-51.9	15.3	6.00e-01	0	25	0	577241088	67	4819
2026-01-08 11:00:26.61	336.28	8.15	-50.0	-51.9	15.4	6.00e-01	0	25	0	578813952	67	4840
2026-01-08 11:00:27.61	336.26	8.06	-50.0	-51.9	15.3	6.00e-01	0	25	0	580911104	67	4866
2026-01-08 11:00:28.62	336.24	7.97	-50.0	-51.9	15.4	6.01e-01	0	25	0	583008256	67	4847
2026-01-08 11:00:29.62	336.22	7.89	-50.0	-52.0	15.3	6.01e-01	0	25	0	584581120	67	4882
