passes_logs/2026/01/08/R3.2S_Murmansk/R3.2S_Murmansk__20260108_222340_NOAA_20_JPSS-1_rec.log

#Pass ID: 20260108_222340_NOAA 20 (JPSS-1)
#Satellite: NOAA 20 (JPSS-1)
#Configuration: NOAA 20
#almurnet v.1.7.20251203
#Start time: 2026-01-08 22:23:41

#Version: 2.2.20231116
#Station: R3.2S_Murmansk
#Location: 33.079688 lon 68.888172 lat
#TLE: 1 43013U 17073A   26008.56343035  .00000133  00000+0  84205-4 0  9993
#TLE: 2 43013  98.7630 309.5710 0001731  48.5146 311.6178 14.19534569421822

#Time	Az	El	Level	Level2	SNR	BER	BlckErr	Temp	State	Recorded	gain1	gain2
2026-01-08 22:23:41.18	18.91	2.03	-57.5	-73.4	3.8	1.49e+00	0	22	0	0	81	22109
2026-01-08 22:23:42.18	18.97	2.08	-57.5	-73.3	3.8	1.49e+00	0	22	104	0	80	23249
2026-01-08 22:23:43.19	19.04	2.14	-57.5	-73.3	3.8	1.49e+00	0	22	104	0	80	23174
2026-01-08 22:23:44.19	19.11	2.20	-57.5	-73.4	3.8	1.49e+00	0	22	104	0	80	23449
2026-01-08 22:23:45.20	19.18	2.25	-57.5	-73.4	3.8	1.49e+00	0	22	104	0	80	23452
2026-01-08 22:23:46.20	19.25	2.31	-57.5	-73.5	3.8	1.49e+00	0	22	104	0	80	23629
2026-01-08 22:23:47.20	19.32	2.36	-57.5	-73.5	3.8	1.49e+00	0	22	104	0	80	23627
2026-01-08 22:23:48.19	19.39	2.42	-57.5	-73.5	3.8	1.49e+00	0	22	104	0	80	23609
2026-01-08 22:23:49.20	19.46	2.47	-57.5	-73.5	3.8	1.49e+00	0	22	104	0	80	23598
2026-01-08 22:23:50.20	19.53	2.53	-57.5	-73.4	3.8	1.49e+00	0	22	104	0	80	23538
2026-01-08 22:23:51.19	19.60	2.59	-57.5	-73.4	3.8	1.49e+00	0	22	104	0	80	23485
2026-01-08 22:23:52.19	19.67	2.64	-57.5	-73.4	3.8	1.49e+00	0	22	104	0	80	23501
2026-01-08 22:23:53.19	19.74	2.70	-57.5	-73.4	3.8	1.49e+00	0	22	104	0	80	23492
2026-01-08 22:23:54.19	19.82	2.75	-57.5	-73.4	3.8	1.49e+00	0	22	104	0	80	23514
2026-01-08 22:23:55.19	19.89	2.81	-57.5	-73.4	3.8	1.49e+00	0	22	104	0	80	23402
2026-01-08 22:23:56.19	19.96	2.87	-57.5	-73.3	3.8	1.49e+00	0	23	104	0	80	23162
2026-01-08 22:23:57.20	20.03	2.92	-57.5	-73.0	3.8	1.49e+00	0	22	104	0	80	22495
2026-01-08 22:23:58.20	20.10	2.98	-57.5	-72.7	3.8	1.49e+00	0	22	104	0	80	21751
2026-01-08 22:23:59.20	20.18	3.04	-57.5	-72.4	3.8	1.49e+00	0	22	104	0	80	20892
2026-01-08 22:24:00.20	20.25	3.09	-57.4	-72.3	3.8	1.49e+00	0	23	104	0	80	20586
2026-01-08 22:24:01.20	20.32	3.15	-57.5	-72.2	3.8	1.49e+00	0	22	104	0	80	20312
2026-01-08 22:24:02.20	20.40	3.21	-57.4	-71.9	3.8	1.49e+00	0	23	104	0	80	19784
2026-01-08 22:24:03.19	20.47	3.26	-57.5	-72.3	3.8	1.49e+00	0	23	104	0	80	20720
2026-01-08 22:24:04.18	20.54	3.32	-57.4	-71.9	3.8	1.49e+00	0	23	104	0	80	19784
2026-01-08 22:24:05.17	20.62	3.38	-57.4	-72.2	3.8	1.49e+00	0	22	104	0	80	20356
2026-01-08 22:24:06.17	20.69	3.43	-57.4	-71.8	3.8	1.49e+00	0	23	104	0	80	19407
2026-01-08 22:24:07.18	20.77	3.49	-57.4	-71.4	3.8	1.49e+00	0	23	104	0	80	18600
2026-01-08 22:24:08.18	20.84	3.55	-57.4	-70.3	4.1	1.48e+00	0	23	0	0	80	16461
2026-01-08 22:24:09.18	20.92	3.61	-57.3	-69.5	4.3	1.39e+00	0	23	0	0	80	14896
2026-01-08 22:24:10.18	20.99	3.66	-57.3	-68.7	4.6	1.13e+00	0	23	0	1048576	80	13710
2026-01-08 22:24:11.19	21.07	3.72	-57.2	-68.0	4.9	7.27e-01	0	23	0	3145728	80	12623
2026-01-08 22:24:12.18	21.14	3.78	-57.2	-67.7	5.1	6.75e-01	0	23	0	5242880	80	12108
2026-01-08 22:24:13.18	21.22	3.84	-57.1	-67.4	5.2	6.25e-01	0	23	0	7340032	80	11785
2026-01-08 22:24:14.18	21.30	3.89	-57.1	-67.5	5.2	5.64e-01	0	23	0	8388608	80	11872
2026-01-08 22:24:15.18	21.37	3.95	-57.1	-67.0	5.5	5.47e-01	0	23	0	10485760	80	11207
2026-01-08 22:24:16.18	21.45	4.01	-56.9	-65.7	6.3	3.31e-01	0	23	0	12582912	80	9631
2026-01-08 22:24:17.18	21.53	4.07	-56.7	-64.2	7.5	1.10e-01	0	23	0	14680064	80	8165
2026-01-08 22:24:18.18	21.61	4.13	-56.3	-62.4	9.1	2.45e-02	0	23	0	16777216	79	7013
2026-01-08 22:24:19.18	21.68	4.19	-55.8	-61.1	10.3	5.16e-03	0	23	0	17825792	78	6372
2026-01-08 22:24:20.17	21.76	4.24	-55.3	-59.7	11.4	6.35e-04	0	23	0	19922944	77	5775
2026-01-08 22:24:21.18	21.84	4.30	-54.8	-58.6	12.2	1.75e-05	0	23	0	22020096	76	5344
2026-01-08 22:24:22.18	21.92	4.36	-54.1	-57.3	12.9	1.50e-06	0	23	0	24117248	74	5206
2026-01-08 22:24:23.17	22.00	4.42	-53.8	-56.8	13.3	0.00e+00	0	23	0	26214400	74	4919
2026-01-08 22:24:24.18	22.08	4.48	-53.8	-56.9	13.2	0.00e+00	0	23	0	27262976	74	4936
2026-01-08 22:24:25.18	22.16	4.54	-53.6	-56.6	13.3	0.00e+00	0	23	0	29360128	73	5049
2026-01-08 22:24:26.19	22.24	4.60	-53.9	-57.0	13.0	0.00e+00	0	23	0	31457280	73	5339
2026-01-08 22:24:27.18	22.32	4.65	-54.1	-57.5	12.6	7.00e-07	0	23	0	33554432	73	5634
2026-01-08 22:24:28.18	22.40	4.71	-54.3	-57.9	12.3	3.00e-06	0	23	0	34603008	73	5915
2026-01-08 22:24:29.18	22.48	4.77	-54.8	-58.8	11.8	4.50e-06	0	23	0	36700160	74	6164
2026-01-08 22:24:30.18	22.56	4.83	-55.4	-60.2	10.7	2.74e-05	0	23	0	38797312	75	6870
2026-01-08 22:24:31.18	22.65	4.89	-55.9	-61.5	9.8	2.47e-03	0	23	0	40894464	76	7492
2026-01-08 22:24:32.18	22.73	4.95	-56.3	-62.7	8.8	8.54e-03	0	23	0	42991616	77	8173
2026-01-08 22:24:33.18	22.81	5.01	-56.6	-63.9	7.8	3.15e-02	0	23	0	44040192	78	8790
2026-01-08 22:24:34.18	22.89	5.07	-56.7	-64.4	7.2	9.83e-02	0	23	0	46137344	78	9386
2026-01-08 22:24:35.17	22.97	5.13	-55.1	-59.2	11.9	1.52e-05	0	23	0	48234496	76	5775
2026-01-08 22:24:36.17	23.06	5.19	-57.0	-67.3	5.1	3.52e-01	0	23	0	50331648	79	12306
2026-01-08 22:24:37.17	23.14	5.25	-57.2	-66.7	5.7	1.17e-01	0	23	0	52428800	79	11496
2026-01-08 22:24:38.16	23.22	5.31	-55.4	-59.8	11.4	2.97e-05	0	23	0	53477376	76	6148
2026-01-08 22:24:39.15	23.31	5.37	-57.3	-68.9	4.5	6.23e-01	30	23	0	55574528	79	14803
2026-01-08 22:24:40.15	23.39	5.43	-55.1	-59.1	11.9	3.95e-02	0	23	0	57671680	76	5690
2026-01-08 22:24:41.14	23.48	5.49	-55.1	-59.1	11.9	2.74e-05	0	23	0	59768832	76	5706
2026-01-08 22:24:42.14	23.56	5.55	-54.8	-58.4	12.4	7.00e-07	0	23	0	60817408	76	5270
2026-01-08 22:24:43.13	23.65	5.61	-54.3	-57.6	12.9	1.50e-06	0	23	0	62914560	75	5076
2026-01-08 22:24:44.13	23.73	5.67	-53.9	-56.9	13.3	0.00e+00	0	23	0	65011712	74	4942
2026-01-08 22:24:45.13	23.82	5.73	-53.7	-56.5	13.6	0.00e+00	0	23	0	67108864	74	4753
2026-01-08 22:24:46.12	23.90	5.79	-53.6	-56.4	13.5	0.00e+00	0	23	0	68157440	73	4964
2026-01-08 22:24:47.13	23.99	5.85	-53.6	-56.4	13.6	0.00e+00	0	23	0	70254592	73	4945
2026-01-08 22:24:48.12	24.08	5.91	-53.5	-56.2	13.7	0.00e+00	0	23	0	72351744	73	4847
2026-01-08 22:24:49.11	24.17	5.97	-53.4	-56.1	13.7	0.00e+00	0	23	0	74448896	73	4767
2026-01-08 22:24:50.12	24.25	6.03	-53.3	-55.9	13.8	0.00e+00	0	23	0	76546048	73	4701
2026-01-08 22:24:51.11	24.34	6.09	-53.4	-56.0	13.8	0.00e+00	0	23	0	77594624	73	4753
2026-01-08 22:24:52.11	24.43	6.15	-53.2	-55.8	13.8	0.00e+00	0	23	0	79691776	72	4896
2026-01-08 22:24:53.11	24.52	6.21	-53.3	-56.0	13.7	0.00e+00	0	23	0	81788928	72	5021
2026-01-08 22:24:54.10	24.61	6.27	-53.3	-56.0	13.7	0.00e+00	0	23	0	83886080	72	4985
2026-01-08 22:24:55.10	24.70	6.34	-53.3	-55.9	13.7	0.00e+00	0	23	0	84934656	72	4968
2026-01-08 22:24:56.09	24.79	6.40	-53.3	-55.9	13.8	0.00e+00	0	23	0	87031808	72	4937
2026-01-08 22:24:57.08	24.88	6.46	-53.2	-55.8	13.8	0.00e+00	0	23	0	89128960	72	4925
2026-01-08 22:24:58.09	24.97	6.52	-53.2	-55.7	13.9	0.00e+00	0	23	0	91226112	72	4863
2026-01-08 22:24:59.09	25.06	6.58	-53.2	-55.8	13.8	0.00e+00	0	23	0	93323264	72	4907
2026-01-08 22:25:00.09	25.15	6.64	-53.2	-55.8	13.8	0.00e+00	0	23	0	94371840	72	4904
2026-01-08 22:25:01.08	25.24	6.71	-53.3	-55.9	13.8	0.00e+00	0	23	0	96468992	72	4945
2026-01-08 22:25:02.07	25.33	6.77	-53.2	-55.8	13.8	0.00e+00	0	24	0	98566144	72	4916
2026-01-08 22:25:03.08	25.43	6.83	-53.1	-55.6	14.0	0.00e+00	0	23	0	100663296	72	4769
2026-01-08 22:25:04.08	25.52	6.89	-53.1	-55.6	14.0	0.00e+00	0	23	0	102760448	72	4765
2026-01-08 22:25:05.07	25.61	6.95	-53.1	-55.6	14.0	0.00e+00	0	23	0	103809024	72	4764
2026-01-08 22:25:06.07	25.71	7.02	-53.1	-55.7	13.9	0.00e+00	0	23	0	105906176	72	4817
2026-01-08 22:25:07.07	25.80	7.08	-53.1	-55.6	14.0	0.00e+00	0	24	0	108003328	72	4762
2026-01-08 22:25:08.06	25.89	7.14	-53.1	-55.5	14.0	0.00e+00	0	24	0	110100480	72	4747
2026-01-08 22:25:09.07	25.99	7.20	-52.9	-55.4	14.1	0.00e+00	0	23	0	112197632	72	4654
2026-01-08 22:25:10.07	26.09	7.27	-53.0	-55.4	14.1	0.00e+00	0	23	0	113246208	72	4685
2026-01-08 22:25:11.08	26.18	7.33	-53.0	-55.4	14.1	0.00e+00	0	23	0	115343360	72	4683
2026-01-08 22:25:12.08	26.28	7.39	-53.0	-55.4	14.1	0.00e+00	0	23	0	117440512	72	4688
2026-01-08 22:25:13.08	26.37	7.46	-52.9	-55.3	14.2	0.00e+00	0	24	0	119537664	72	4629
2026-01-08 22:25:14.08	26.47	7.52	-52.9	-55.2	14.2	0.00e+00	0	23	0	120586240	72	4596
2026-01-08 22:25:15.08	26.57	7.58	-52.9	-55.3	14.2	0.00e+00	0	23	0	122683392	72	4601
2026-01-08 22:25:16.07	26.67	7.65	-53.2	-55.7	13.9	0.00e+00	0	24	0	124780544	72	4827
2026-01-08 22:25:17.07	26.76	7.71	-53.0	-55.4	14.1	0.00e+00	0	23	0	126877696	72	4656
2026-01-08 22:25:18.06	26.86	7.77	-52.9	-55.3	14.2	0.00e+00	0	24	0	128974848	72	4627
2026-01-08 22:25:19.06	26.96	7.84	-53.1	-55.6	14.0	0.00e+00	0	24	0	130023424	72	4768
2026-01-08 22:25:20.06	27.06	7.90	-53.2	-55.6	14.0	0.00e+00	0	24	0	132120576	72	4805
2026-01-08 22:25:21.06	27.16	7.96	-53.1	-55.6	14.0	0.00e+00	0	24	0	134217728	72	4770
2026-01-08 22:25:22.05	27.26	8.03	-53.0	-55.4	14.1	0.00e+00	0	24	0	136314880	72	4681
2026-01-08 22:25:23.05	27.36	8.09	-53.0	-55.4	14.1	0.00e+00	0	24	0	137363456	72	4660
2026-01-08 22:25:24.05	27.46	8.15	-53.0	-55.4	14.1	0.00e+00	0	23	0	139460608	72	4692
2026-01-08 22:25:25.04	27.56	8.22	-53.0	-55.4	14.1	0.00e+00	0	24	0	141557760	72	4693
2026-01-08 22:25:26.04	27.66	8.28	-52.9	-55.3	14.2	0.00e+00	0	24	0	143654912	72	4614
2026-01-08 22:25:27.04	27.76	8.35	-53.0	-55.3	14.2	0.00e+00	0	23	0	145752064	72	4640
2026-01-08 22:25:28.04	27.87	8.41	-53.0	-55.4	14.1	0.00e+00	0	24	0	146800640	72	4664
2026-01-08 22:25:29.04	27.97	8.47	-52.9	-55.3	14.2	0.00e+00	0	23	0	148897792	72	4605
2026-01-08 22:25:30.04	28.07	8.54	-53.0	-55.3	14.2	0.00e+00	0	24	0	150994944	72	4637
2026-01-08 22:25:31.04	28.18	8.60	-53.0	-55.4	14.1	0.00e+00	0	24	0	153092096	72	4698
2026-01-08 22:25:32.03	28.28	8.67	-53.1	-55.6	14.0	0.00e+00	0	24	0	155189248	72	4795
2026-01-08 22:25:33.04	28.39	8.73	-53.1	-55.5	14.1	0.00e+00	0	23	0	156237824	72	4724
2026-01-08 22:25:34.05	28.49	8.80	-53.0	-55.3	14.2	0.00e+00	0	24	0	158334976	72	4640
2026-01-08 22:25:35.04	28.60	8.86	-53.0	-55.4	14.2	0.00e+00	0	24	0	160432128	72	4660
2026-01-08 22:25:36.04	28.70	8.93	-53.0	-55.4	14.2	0.00e+00	0	24	0	162529280	72	4660
2026-01-08 22:25:37.05	28.81	8.99	-53.1	-55.5	14.1	0.00e+00	0	24	0	164626432	72	4706
2026-01-08 22:25:38.05	28.92	9.06	-53.0	-55.4	14.2	0.00e+00	0	24	0	165675008	72	4665
2026-01-08 22:25:39.05	29.03	9.12	-53.1	-55.5	14.1	0.00e+00	0	24	0	167772160	72	4745
2026-01-08 22:25:40.05	29.13	9.19	-53.0	-55.4	14.2	0.00e+00	0	24	0	169869312	72	4676
2026-01-08 22:25:41.04	29.24	9.26	-52.9	-55.3	14.2	0.00e+00	0	24	0	171966464	72	4612
2026-01-08 22:25:42.05	29.35	9.32	-53.0	-55.3	14.2	0.00e+00	0	24	0	173015040	72	4630
2026-01-08 22:25:43.04	29.46	9.39	-52.9	-55.1	14.3	0.00e+00	0	24	0	175112192	72	4540
2026-01-08 22:25:44.04	29.57	9.45	-52.8	-55.1	14.3	0.00e+00	0	24	0	177209344	72	4535
2026-01-08 22:25:45.03	29.68	9.52	-52.9	-55.2	14.3	0.00e+00	0	24	0	179306496	72	4559
2026-01-08 22:25:46.03	29.79	9.58	-52.7	-54.9	14.5	0.00e+00	0	24	0	181403648	72	4403
2026-01-08 22:25:47.02	29.90	9.65	-52.8	-55.1	14.4	0.00e+00	0	24	0	182452224	72	4512
2026-01-08 22:25:48.02	30.01	9.72	-52.6	-54.8	14.4	0.00e+00	0	24	0	184549376	71	4607
2026-01-08 22:25:49.01	30.12	9.78	-52.7	-54.9	14.3	0.00e+00	0	24	0	186646528	71	4656
2026-01-08 22:25:50.00	30.23	9.85	-52.5	-54.7	14.4	0.00e+00	0	24	0	188743680	71	4561
2026-01-08 22:25:50.98	30.35	9.91	-52.6	-54.8	14.3	0.00e+00	0	24	0	189792256	71	4640
2026-01-08 22:25:51.98	30.46	9.98	-52.5	-54.6	14.5	0.00e+00	0	24	0	191889408	71	4534
2026-01-08 22:25:52.98	30.57	10.04	-52.4	-54.6	14.5	0.00e+00	0	24	0	193986560	71	4504
2026-01-08 22:25:53.98	30.69	10.11	-52.4	-54.6	14.5	0.00e+00	0	24	0	196083712	71	4501
2026-01-08 22:25:54.98	30.80	10.18	-52.4	-54.6	14.5	0.00e+00	0	24	0	198180864	71	4504
2026-01-08 22:25:55.98	30.92	10.24	-52.5	-54.7	14.5	0.00e+00	0	24	0	199229440	71	4559
2026-01-08 22:25:56.97	31.03	10.31	-52.5	-54.6	14.5	0.00e+00	0	24	0	201326592	71	4541
2026-01-08 22:25:57.97	31.15	10.38	-52.5	-54.6	14.5	0.00e+00	0	24	0	203423744	71	4544
2026-01-08 22:25:58.97	31.27	10.44	-52.5	-54.6	14.5	0.00e+00	0	24	0	205520896	71	4535
2026-01-08 22:25:59.97	31.39	10.51	-52.5	-54.6	14.5	0.00e+00	0	24	0	207618048	71	4527
2026-01-08 22:26:00.97	31.50	10.58	-52.6	-54.7	14.4	0.00e+00	0	24	0	208666624	71	4578
2026-01-08 22:26:01.97	31.62	10.65	-52.6	-54.7	14.4	0.00e+00	0	24	0	210763776	71	4571
2026-01-08 22:26:02.97	31.74	10.71	-52.5	-54.7	14.5	0.00e+00	0	24	0	212860928	71	4558
2026-01-08 22:26:03.96	31.86	10.78	-52.3	-54.4	14.6	0.00e+00	0	24	0	214958080	71	4414
2026-01-08 22:26:04.96	31.98	10.85	-52.2	-54.2	14.7	0.00e+00	0	24	0	216006656	71	4330
2026-01-08 22:26:05.96	32.10	10.92	-52.3	-54.3	14.7	0.00e+00	0	24	0	218103808	71	4371
2026-01-08 22:26:06.96	32.22	10.98	-52.2	-54.2	14.7	0.00e+00	0	24	0	220200960	71	4326
2026-01-08 22:26:07.96	32.35	11.05	-52.2	-54.2	14.7	0.00e+00	0	24	0	222298112	71	4325
2026-01-08 22:26:08.96	32.47	11.12	-52.3	-54.4	14.6	0.00e+00	0	24	0	224395264	71	4419
2026-01-08 22:26:09.96	32.59	11.19	-52.4	-54.5	14.6	0.00e+00	0	24	0	225443840	71	4455
2026-01-08 22:26:10.96	32.71	11.25	-52.3	-54.3	14.7	0.00e+00	0	24	0	227540992	71	4349
2026-01-08 22:26:11.96	32.84	11.32	-52.3	-54.4	14.6	0.00e+00	0	24	0	229638144	71	4416
2026-01-08 22:26:12.96	32.96	11.39	-52.3	-54.4	14.7	0.00e+00	0	24	0	231735296	71	4403
2026-01-08 22:26:13.95	33.09	11.46	-52.2	-54.3	14.7	0.00e+00	0	24	0	232783872	71	4344
2026-01-08 22:26:14.95	33.21	11.53	-52.3	-54.3	14.7	0.00e+00	0	24	0	234881024	71	4369
2026-01-08 22:26:15.95	33.34	11.60	-52.2	-54.3	14.7	0.00e+00	0	24	0	236978176	71	4343
2026-01-08 22:26:16.95	33.47	11.66	-52.3	-54.4	14.7	0.00e+00	0	24	0	239075328	71	4412
2026-01-08 22:26:17.95	33.59	11.73	-52.3	-54.3	14.7	0.00e+00	0	24	0	241172480	71	4372
2026-01-08 22:26:18.95	33.72	11.80	-52.4	-54.4	14.6	0.00e+00	0	24	0	242221056	71	4439
2026-01-08 22:26:19.94	33.85	11.87	-52.3	-54.3	14.7	0.00e+00	0	24	0	244318208	71	4382
2026-01-08 22:26:20.95	33.98	11.94	-52.3	-54.3	14.7	0.00e+00	0	24	0	246415360	71	4369
2026-01-08 22:26:21.95	34.11	12.01	-52.3	-54.3	14.7	0.00e+00	0	24	0	248512512	71	4357
2026-01-08 22:26:22.94	34.24	12.07	-52.3	-54.4	14.7	0.00e+00	0	24	0	250609664	71	4393
2026-01-08 22:26:23.93	34.37	12.14	-52.4	-54.5	14.6	0.00e+00	0	24	0	251658240	71	4452
2026-01-08 22:26:24.93	34.50	12.21	-52.4	-54.5	14.6	0.00e+00	0	24	0	253755392	71	4455
2026-01-08 22:26:25.92	34.63	12.28	-52.1	-54.1	14.6	0.00e+00	0	24	0	255852544	70	4523
2026-01-08 22:26:26.92	34.76	12.35	-52.1	-54.1	14.6	0.00e+00	0	24	0	257949696	70	4520
2026-01-08 22:26:27.91	34.90	12.42	-52.1	-54.1	14.6	0.00e+00	0	24	0	260046848	70	4523
2026-01-08 22:26:28.91	35.03	12.49	-52.3	-54.3	14.6	0.00e+00	0	24	0	261095424	70	4613
2026-01-08 22:26:29.90	35.16	12.56	-52.1	-54.0	14.7	0.00e+00	0	24	0	263192576	70	4478
2026-01-08 22:26:30.91	35.30	12.63	-52.1	-54.0	14.7	0.00e+00	0	24	0	265289728	70	4485
2026-01-08 22:26:31.91	35.44	12.69	-52.0	-54.0	14.7	0.00e+00	0	24	0	267386880	70	4454
2026-01-08 22:26:32.92	35.57	12.76	-52.1	-54.1	14.7	0.00e+00	0	24	0	268435456	70	4494
2026-01-08 22:26:33.92	35.71	12.83	-52.1	-54.1	14.7	0.00e+00	0	24	0	270532608	70	4514
2026-01-08 22:26:34.92	35.85	12.90	-52.1	-54.0	14.7	0.00e+00	0	24	0	272629760	70	4486
2026-01-08 22:26:35.92	35.99	12.97	-52.1	-54.1	14.6	0.00e+00	0	24	0	274726912	70	4495
2026-01-08 22:26:36.92	36.13	13.04	-52.1	-54.1	14.6	0.00e+00	0	24	0	276824064	70	4527
2026-01-08 22:26:37.92	36.27	13.11	-52.1	-54.0	14.7	0.00e+00	0	24	0	277872640	70	4491
2026-01-08 22:26:38.92	36.41	13.18	-52.1	-54.1	14.7	0.00e+00	0	24	0	279969792	70	4535
2026-01-08 22:26:39.92	36.55	13.25	-52.0	-54.0	14.7	0.00e+00	0	24	0	282066944	70	4464
2026-01-08 22:26:40.91	36.69	13.32	-52.0	-53.9	14.8	0.00e+00	0	24	0	284164096	70	4422
2026-01-08 22:26:41.91	36.83	13.39	-52.0	-54.0	14.7	0.00e+00	0	24	0	286261248	70	4445
2026-01-08 22:26:42.92	36.97	13.46	-51.9	-53.9	14.8	0.00e+00	0	24	0	287309824	70	4398
2026-01-08 22:26:43.92	37.12	13.53	-52.0	-53.9	14.8	0.00e+00	0	24	0	289406976	70	4406
2026-01-08 22:26:44.92	37.26	13.60	-51.9	-53.8	14.8	0.00e+00	0	24	0	291504128	70	4370
2026-01-08 22:26:45.92	37.40	13.67	-51.8	-53.7	14.9	0.00e+00	0	24	0	293601280	70	4330
2026-01-08 22:26:46.91	37.55	13.74	-51.9	-53.8	14.8	0.00e+00	0	24	0	294649856	70	4376
2026-01-08 22:26:47.90	37.69	13.81	-52.0	-53.9	14.8	0.00e+00	0	24	0	296747008	70	4400
2026-01-08 22:26:48.90	37.84	13.88	-51.9	-53.8	14.8	0.00e+00	0	24	0	298844160	70	4368
2026-01-08 22:26:49.89	37.99	13.95	-51.9	-53.8	14.9	0.00e+00	0	24	0	300941312	70	4347
2026-01-08 22:26:50.88	38.13	14.02	-51.9	-53.8	14.8	0.00e+00	0	24	0	303038464	70	4379
2026-01-08 22:26:51.88	38.28	14.09	-51.8	-53.7	14.9	0.00e+00	0	24	0	304087040	70	4315
2026-01-08 22:26:52.87	38.43	14.16	-51.8	-53.7	14.9	0.00e+00	0	24	0	306184192	70	4333
2026-01-08 22:26:53.87	38.58	14.23	-52.0	-53.8	14.8	0.00e+00	0	24	0	308281344	70	4390
2026-01-08 22:26:54.86	38.73	14.30	-51.8	-53.6	14.9	0.00e+00	0	24	0	310378496	70	4272
2026-01-08 22:26:55.85	38.88	14.37	-51.8	-53.6	14.9	0.00e+00	0	24	0	311427072	70	4288
2026-01-08 22:26:56.85	39.03	14.44	-51.7	-53.6	15.0	0.00e+00	0	24	0	313524224	70	4259
2026-01-08 22:26:57.84	39.18	14.51	-51.8	-53.6	14.9	0.00e+00	0	24	0	315621376	70	4275
2026-01-08 22:26:58.85	39.34	14.58	-51.8	-53.6	14.9	0.00e+00	0	24	0	317718528	70	4269
2026-01-08 22:26:59.85	39.49	14.65	-51.9	-53.7	14.9	0.00e+00	0	24	0	319815680	70	4340
2026-01-08 22:27:00.84	39.64	14.72	-51.9	-53.8	14.8	0.00e+00	0	24	0	320864256	70	4370
2026-01-08 22:27:01.85	39.80	14.79	-51.9	-53.8	14.9	0.00e+00	0	24	0	322961408	70	4351
2026-01-08 22:27:02.84	39.96	14.86	-51.9	-53.8	14.8	0.00e+00	0	24	0	325058560	70	4382
2026-01-08 22:27:03.84	40.11	14.93	-51.9	-53.8	14.8	0.00e+00	0	24	0	327155712	70	4388
2026-01-08 22:27:04.84	40.27	15.00	-52.0	-54.0	14.7	0.00e+00	0	24	0	329252864	70	4443
2026-01-08 22:27:05.84	40.43	15.07	-52.0	-53.9	14.8	0.00e+00	0	24	0	330301440	70	4392
2026-01-08 22:27:06.84	40.59	15.14	-52.0	-53.9	14.8	0.00e+00	0	24	0	332398592	70	4438
2026-01-08 22:27:07.84	40.75	15.21	-52.0	-53.9	14.8	0.00e+00	0	24	0	334495744	70	4406
2026-01-08 22:27:08.84	40.91	15.28	-51.9	-53.8	14.8	0.00e+00	0	24	0	336592896	70	4353
2026-01-08 22:27:09.82	41.07	15.35	-52.0	-53.9	14.8	0.00e+00	0	24	0	337641472	70	4403
2026-01-08 22:27:10.81	41.23	15.42	-52.0	-53.9	14.8	0.00e+00	0	24	0	339738624	70	4392
2026-01-08 22:27:11.81	41.39	15.49	-52.0	-53.9	14.8	0.00e+00	0	24	0	341835776	70	4394
2026-01-08 22:27:12.81	41.56	15.56	-51.9	-53.8	14.9	0.00e+00	0	24	0	343932928	70	4346
2026-01-08 22:27:13.81	41.72	15.63	-51.9	-53.7	14.9	0.00e+00	0	24	0	346030080	70	4334
2026-01-08 22:27:14.81	41.89	15.70	-51.9	-53.7	14.9	0.00e+00	0	24	0	347078656	70	4337
2026-01-08 22:27:15.82	42.05	15.77	-51.9	-53.8	14.8	0.00e+00	0	24	0	349175808	70	4368
2026-01-08 22:27:16.82	42.22	15.84	-51.9	-53.8	14.9	0.00e+00	0	24	0	351272960	70	4351
2026-01-08 22:27:17.82	42.39	15.91	-52.0	-53.9	14.8	0.00e+00	0	24	0	353370112	70	4435
2026-01-08 22:27:18.82	42.56	15.98	-52.1	-54.0	14.8	0.00e+00	0	24	0	355467264	70	4456
2026-01-08 22:27:19.82	42.72	16.06	-52.1	-54.0	14.7	0.00e+00	0	24	0	356515840	70	4458
2026-01-08 22:27:20.81	42.89	16.12	-52.0	-53.9	14.8	0.00e+00	0	24	0	358612992	70	4419
2026-01-08 22:27:21.81	43.06	16.19	-52.0	-53.9	14.8	0.00e+00	0	24	0	360710144	70	4418
2026-01-08 22:27:22.80	43.23	16.26	-51.9	-53.8	14.9	0.00e+00	0	24	0	362807296	70	4362
2026-01-08 22:27:23.80	43.40	16.33	-51.8	-53.7	14.9	0.00e+00	0	24	0	363855872	70	4313
2026-01-08 22:27:24.80	43.58	16.40	-51.8	-53.7	14.9	0.00e+00	0	24	0	365953024	70	4312
2026-01-08 22:27:25.81	43.75	16.48	-51.8	-53.6	14.9	0.00e+00	0	24	0	368050176	70	4275
2026-01-08 22:27:26.80	43.93	16.54	-51.8	-53.7	15.0	0.00e+00	0	24	0	370147328	70	4297
2026-01-08 22:27:27.81	44.10	16.62	-51.7	-53.6	15.0	0.00e+00	0	24	0	372244480	70	4248
2026-01-08 22:27:28.81	44.28	16.69	-51.6	-53.4	14.9	0.00e+00	0	24	0	373293056	69	4423
2026-01-08 22:27:29.81	44.46	16.76	-51.7	-53.5	14.8	0.00e+00	0	24	0	375390208	69	4490
2026-01-08 22:27:30.81	44.63	16.82	-51.6	-53.5	14.8	0.00e+00	0	24	0	377487360	69	4449
2026-01-08 22:27:31.81	44.81	16.89	-51.7	-53.5	14.8	0.00e+00	0	24	0	379584512	69	4452
2026-01-08 22:27:32.81	44.99	16.96	-51.7	-53.5	14.9	0.00e+00	0	24	0	380633088	69	4457
2026-01-08 22:27:33.80	45.17	17.03	-51.6	-53.5	14.9	0.00e+00	0	24	0	382730240	69	4446
2026-01-08 22:27:34.81	45.35	17.10	-51.6	-53.4	14.9	0.00e+00	0	24	0	384827392	69	4412
2026-01-08 22:27:35.80	45.53	17.17	-51.6	-53.4	14.9	0.00e+00	0	24	0	386924544	69	4423
2026-01-08 22:27:36.80	45.71	17.24	-51.6	-53.4	14.9	0.00e+00	0	24	0	389021696	69	4406
2026-01-08 22:27:37.80	45.90	17.31	-51.6	-53.4	14.9	0.00e+00	0	24	0	390070272	69	4396
2026-01-08 22:27:38.80	46.08	17.38	-51.6	-53.4	14.9	0.00e+00	0	24	0	392167424	69	4440
2026-01-08 22:27:39.80	46.27	17.45	-51.6	-53.4	14.9	0.00e+00	0	24	0	394264576	69	4404
2026-01-08 22:27:40.80	46.45	17.52	-51.7	-53.5	14.9	0.00e+00	0	24	0	396361728	69	4458
2026-01-08 22:27:41.80	46.64	17.59	-51.5	-53.3	15.0	0.00e+00	0	24	0	398458880	69	4374
2026-01-08 22:27:42.80	46.83	17.66	-51.4	-53.2	15.0	0.00e+00	0	24	0	399507456	69	4315
2026-01-08 22:27:43.79	47.01	17.72	-51.4	-53.1	15.1	0.00e+00	0	24	0	401604608	69	4277
2026-01-08 22:27:44.79	47.20	17.79	-51.3	-53.1	15.1	0.00e+00	0	24	0	403701760	69	4244
2026-01-08 22:27:45.79	47.39	17.86	-51.4	-53.1	15.0	0.00e+00	0	24	0	405798912	69	4275
2026-01-08 22:27:46.78	47.58	17.93	-51.3	-53.0	15.1	0.00e+00	0	24	0	407896064	69	4209
2026-01-08 22:27:47.78	47.77	18.00	-51.2	-52.9	15.0	0.00e+00	0	24	0	408944640	68	4409
2026-01-08 22:27:48.78	47.96	18.07	-51.0	-52.7	15.0	0.00e+00	0	24	0	411041792	68	4316
2026-01-08 22:27:49.77	48.16	18.13	-51.1	-52.8	15.0	0.00e+00	0	24	0	413138944	68	4366
2026-01-08 22:27:50.77	48.35	18.20	-51.1	-52.8	15.1	0.00e+00	0	24	0	415236096	68	4341
2026-01-08 22:27:51.77	48.54	18.27	-51.1	-52.7	15.1	0.00e+00	0	24	0	416284672	68	4329
2026-01-08 22:27:52.77	48.74	18.34	-51.0	-52.7	15.1	0.00e+00	0	24	0	418381824	68	4317
2026-01-08 22:27:53.77	48.94	18.40	-51.1	-52.8	15.0	0.00e+00	0	24	0	420478976	68	4368
2026-01-08 22:27:54.76	49.13	18.47	-51.1	-52.8	15.0	0.00e+00	0	24	0	422576128	68	4381
2026-01-08 22:27:55.76	49.33	18.54	-51.1	-52.8	15.0	0.00e+00	0	24	0	424673280	68	4381
2026-01-08 22:27:56.76	49.53	18.61	-51.2	-52.9	15.0	0.00e+00	0	24	0	425721856	68	4433
2026-01-08 22:27:57.74	49.73	18.67	-51.3	-53.0	14.9	0.00e+00	0	24	0	427819008	68	4478
2026-01-08 22:27:58.74	49.93	18.74	-51.4	-53.1	14.9	0.00e+00	0	24	0	429916160	68	4530
2026-01-08 22:27:59.73	50.13	18.80	-51.4	-53.1	14.9	0.00e+00	0	24	0	432013312	68	4530
2026-01-08 22:28:00.73	50.33	18.87	-51.3	-53.0	14.9	0.00e+00	0	24	0	433061888	68	4486
2026-01-08 22:28:01.73	50.53	18.94	-51.2	-52.9	15.0	0.00e+00	0	24	0	435159040	68	4404
2026-01-08 22:28:02.73	50.74	19.00	-51.1	-52.8	15.0	0.00e+00	0	24	0	437256192	68	4376
2026-01-08 22:28:03.73	50.94	19.07	-51.1	-52.8	15.0	0.00e+00	0	24	0	439353344	68	4377
2026-01-08 22:28:04.73	51.15	19.14	-51.2	-52.9	15.0	0.00e+00	0	24	0	441450496	68	4414
2026-01-08 22:28:05.72	51.35	19.20	-51.2	-52.9	15.0	0.00e+00	0	24	0	442499072	68	4411
2026-01-08 22:28:06.72	51.56	19.27	-51.4	-53.1	14.9	0.00e+00	0	24	0	444596224	68	4531
2026-01-08 22:28:07.71	51.77	19.33	-51.6	-53.4	14.7	0.00e+00	0	24	0	446693376	68	4679
2026-01-08 22:28:08.71	51.98	19.40	-51.8	-53.6	14.6	0.00e+00	0	24	0	448790528	68	4795
2026-01-08 22:28:09.71	52.19	19.46	-52.0	-53.9	14.7	0.00e+00	0	24	0	450887680	69	4672
2026-01-08 22:28:10.71	52.40	19.53	-52.0	-53.9	14.7	0.00e+00	0	24	0	451936256	69	4653
2026-01-08 22:28:11.71	52.61	19.59	-52.1	-54.0	14.6	0.00e+00	0	24	0	454033408	69	4747
2026-01-08 22:28:12.71	52.82	19.65	-52.0	-53.8	14.7	0.00e+00	0	24	0	456130560	69	4641
2026-01-08 22:28:13.71	53.04	19.72	-51.9	-53.8	14.7	0.00e+00	0	24	0	458227712	69	4631
2026-01-08 22:28:14.71	53.25	19.78	-52.0	-53.8	14.7	0.00e+00	0	24	0	459276288	69	4643
2026-01-08 22:28:15.71	53.47	19.85	-52.0	-53.8	14.7	0.00e+00	0	24	0	461373440	69	4639
2026-01-08 22:28:16.71	53.68	19.91	-52.0	-53.8	14.7	0.00e+00	0	24	0	463470592	69	4642
2026-01-08 22:28:17.71	53.90	19.97	-52.1	-54.0	14.6	0.00e+00	0	24	0	465567744	69	4749
2026-01-08 22:28:18.71	54.12	20.03	-52.3	-54.2	14.5	0.00e+00	0	24	0	467664896	69	4866
2026-01-08 22:28:19.71	54.34	20.10	-52.5	-54.5	14.5	0.00e+00	0	24	0	468713472	70	4754
2026-01-08 22:28:20.71	54.56	20.16	-52.7	-54.9	14.3	0.00e+00	0	24	0	470810624	70	4931
2026-01-08 22:28:21.71	54.78	20.22	-52.8	-55.0	14.2	0.00e+00	0	24	0	472907776	70	5020
2026-01-08 22:28:22.70	55.00	20.28	-52.9	-55.1	14.3	0.00e+00	0	24	0	475004928	71	4787
2026-01-08 22:28:23.69	55.22	20.34	-53.0	-55.1	14.3	0.00e+00	0	24	0	477102080	71	4813
2026-01-08 22:28:24.68	55.44	20.40	-53.0	-55.2	14.3	0.00e+00	0	24	0	478150656	71	4852
2026-01-08 22:28:25.67	55.66	20.47	-53.0	-55.2	14.2	0.00e+00	0	24	0	480247808	71	4845
2026-01-08 22:28:26.67	55.89	20.53	-53.1	-55.3	14.2	0.00e+00	0	24	0	482344960	71	4893
2026-01-08 22:28:27.67	56.12	20.59	-53.0	-55.2	14.2	0.00e+00	0	24	0	484442112	71	4848
2026-01-08 22:28:28.67	56.34	20.65	-53.1	-55.4	14.2	0.00e+00	0	24	0	485490688	71	4932
2026-01-08 22:28:29.67	56.57	20.71	-53.1	-55.4	14.1	0.00e+00	0	24	0	487587840	71	4952
2026-01-08 22:28:30.67	56.80	20.77	-53.0	-55.2	14.2	0.00e+00	0	24	0	489684992	71	4854
2026-01-08 22:28:31.66	57.03	20.82	-53.0	-55.2	14.3	0.00e+00	0	24	0	491782144	71	4824
2026-01-08 22:28:32.66	57.26	20.88	-52.8	-55.0	14.4	0.00e+00	0	24	0	493879296	71	4712
2026-01-08 22:28:33.66	57.49	20.94	-52.8	-54.9	14.4	0.00e+00	0	24	0	494927872	71	4688
2026-01-08 22:28:34.66	57.72	21.00	-52.5	-54.5	14.6	0.00e+00	0	24	0	497025024	71	4472
2026-01-08 22:28:35.66	57.95	21.06	-52.5	-54.6	14.6	0.00e+00	0	24	0	499122176	71	4494
2026-01-08 22:28:36.65	58.18	21.11	-52.6	-54.7	14.6	0.00e+00	0	24	0	501219328	71	4550
2026-01-08 22:28:37.65	58.42	21.17	-52.4	-54.3	14.7	0.00e+00	0	24	0	502267904	71	4383
2026-01-08 22:28:38.66	58.66	21.23	-52.4	-54.4	14.7	0.00e+00	0	24	0	504365056	71	4408
2026-01-08 22:28:39.66	58.89	21.29	-52.4	-54.3	14.8	0.00e+00	0	24	0	506462208	71	4369
2026-01-08 22:28:40.65	59.13	21.34	-52.4	-54.4	14.7	0.00e+00	0	24	0	508559360	71	4399
2026-01-08 22:28:41.66	59.37	21.40	-52.4	-54.4	14.7	0.00e+00	0	24	0	510656512	71	4406
2026-01-08 22:28:42.65	59.61	21.45	-52.4	-54.4	14.7	0.00e+00	0	24	0	511705088	71	4403
2026-01-08 22:28:43.65	59.85	21.51	-52.2	-54.1	14.9	0.00e+00	0	24	0	513802240	71	4275
2026-01-08 22:28:44.65	60.09	21.56	-52.0	-53.9	14.8	0.00e+00	0	24	0	515899392	70	4409
2026-01-08 22:28:45.65	60.33	21.62	-51.8	-53.6	15.0	0.00e+00	0	24	0	517996544	70	4261
2026-01-08 22:28:46.66	60.57	21.67	-51.7	-53.4	14.9	0.00e+00	0	24	0	520093696	69	4430
2026-01-08 22:28:47.65	60.81	21.72	-51.5	-53.3	15.0	0.00e+00	0	24	0	521142272	69	4342
2026-01-08 22:28:48.66	61.06	21.78	-51.7	-53.4	14.9	0.00e+00	0	24	0	523239424	69	4426
2026-01-08 22:28:49.66	61.30	21.83	-51.9	-53.7	14.8	0.00e+00	0	24	0	525336576	69	4584
2026-01-08 22:28:50.65	61.55	21.88	-52.2	-54.2	14.5	0.00e+00	0	24	0	527433728	69	4820
2026-01-08 22:28:51.65	61.79	21.93	-52.5	-54.5	14.5	0.00e+00	0	24	0	528482304	70	4747
2026-01-08 22:28:52.64	62.04	21.99	-52.7	-54.8	14.4	0.00e+00	0	24	0	530579456	70	4900
2026-01-08 22:28:53.65	62.29	22.04	-52.8	-54.9	14.3	0.00e+00	0	24	0	532676608	70	4967
2026-01-08 22:28:54.65	62.54	22.09	-52.7	-54.8	14.4	0.00e+00	0	24	0	534773760	70	4905
2026-01-08 22:28:55.64	62.78	22.14	-52.7	-54.8	14.4	0.00e+00	0	24	0	536870912	70	4874
2026-01-08 22:28:56.64	63.03	22.19	-52.4	-54.4	14.6	0.00e+00	0	24	0	537919488	70	4662
2026-01-08 22:28:57.64	63.29	22.24	-52.2	-54.2	14.7	0.00e+00	0	24	0	540016640	70	4552
2026-01-08 22:28:58.64	63.54	22.28	-52.2	-54.1	14.7	0.00e+00	0	24	0	542113792	70	4522
2026-01-08 22:28:59.64	63.79	22.33	-52.2	-54.1	14.7	0.00e+00	0	24	0	544210944	70	4506
2026-01-08 22:29:00.64	64.04	22.38	-52.2	-54.2	14.7	0.00e+00	0	24	0	546308096	70	4559
2026-01-08 22:29:01.64	64.30	22.43	-52.3	-54.3	14.6	0.00e+00	0	24	0	547356672	70	4616
2026-01-08 22:29:02.63	64.55	22.47	-52.4	-54.4	14.5	0.00e+00	0	24	0	549453824	70	4692
2026-01-08 22:29:03.63	64.81	22.52	-52.4	-54.4	14.6	0.00e+00	0	24	0	551550976	70	4669
2026-01-08 22:29:04.63	65.06	22.57	-52.4	-54.4	14.5	0.00e+00	0	24	0	553648128	70	4700
2026-01-08 22:29:05.63	65.32	22.61	-52.4	-54.4	14.6	0.00e+00	0	24	0	555745280	70	4689
2026-01-08 22:29:06.63	65.58	22.66	-52.3	-54.2	14.6	0.00e+00	0	24	0	556793856	70	4597
2026-01-08 22:29:07.62	65.83	22.70	-52.1	-53.9	14.8	0.00e+00	0	24	0	558891008	70	4430
2026-01-08 22:29:08.63	66.10	22.75	-52.0	-53.8	14.9	0.00e+00	0	24	0	560988160	70	4373
2026-01-08 22:29:09.62	66.35	22.79	-51.9	-53.7	15.0	0.00e+00	0	24	0	563085312	70	4318
2026-01-08 22:29:10.62	66.61	22.83	-52.0	-53.8	14.9	0.00e+00	0	24	0	564133888	70	4380
2026-01-08 22:29:11.62	66.88	22.87	-52.1	-54.0	14.8	0.00e+00	0	24	0	566231040	70	4465
2026-01-08 22:29:12.63	67.14	22.92	-52.0	-53.9	14.8	0.00e+00	0	24	0	568328192	70	4414
2026-01-08 22:29:13.62	67.40	22.96	-52.1	-54.1	14.7	0.00e+00	0	24	0	570425344	70	4501
2026-01-08 22:29:14.63	67.67	23.00	-52.2	-54.2	14.7	0.00e+00	0	24	0	572522496	70	4551
2026-01-08 22:29:15.64	67.93	23.04	-52.2	-54.1	14.8	0.00e+00	0	24	0	573571072	70	4506
2026-01-08 22:29:16.64	68.20	23.08	-52.1	-54.0	14.8	0.00e+00	0	24	0	575668224	70	4479
2026-01-08 22:29:17.64	68.46	23.12	-52.1	-54.0	14.8	0.00e+00	0	24	0	577765376	70	4481
2026-01-08 22:29:18.64	68.73	23.15	-52.2	-54.0	14.7	0.00e+00	0	24	0	579862528	70	4489
2026-01-08 22:29:19.64	69.00	23.19	-52.1	-54.0	14.8	0.00e+00	0	24	0	581959680	70	4447
2026-01-08 22:29:20.64	69.27	23.23	-52.2	-54.0	14.7	0.00e+00	0	24	0	583008256	70	4489
2026-01-08 22:29:21.64	69.53	23.27	-52.3	-54.2	14.6	0.00e+00	0	24	0	585105408	70	4593
2026-01-08 22:29:22.64	69.80	23.30	-52.4	-54.4	14.6	0.00e+00	0	24	0	587202560	70	4652
2026-01-08 22:29:23.65	70.07	23.34	-52.5	-54.5	14.5	0.00e+00	0	24	0	589299712	70	4722
2026-01-08 22:29:24.65	70.34	23.37	-52.6	-54.6	14.5	0.00e+00	0	24	0	590348288	70	4783
2026-01-08 22:29:25.64	70.61	23.41	-52.7	-54.7	14.4	0.00e+00	0	24	0	592445440	70	4870
2026-01-08 22:29:26.64	70.88	23.44	-52.6	-54.7	14.4	0.00e+00	0	24	0	594542592	70	4834
2026-01-08 22:29:27.64	71.15	23.47	-52.7	-54.8	14.3	0.00e+00	0	24	0	596639744	70	4909
2026-01-08 22:29:28.63	71.42	23.51	-52.7	-54.8	14.4	0.00e+00	0	24	0	598736896	70	4906
2026-01-08 22:29:29.63	71.70	23.54	-52.8	-54.9	14.3	0.00e+00	0	24	0	599785472	70	4938
2026-01-08 22:29:30.63	71.97	23.57	-52.7	-54.8	14.3	0.00e+00	0	24	0	601882624	70	4914
2026-01-08 22:29:31.62	72.24	23.60	-52.7	-54.8	14.3	0.00e+00	0	24	0	603979776	70	4899
2026-01-08 22:29:32.62	72.52	23.63	-52.8	-54.9	14.3	0.00e+00	0	24	0	606076928	70	4944
2026-01-08 22:29:33.62	72.79	23.66	-52.9	-55.0	14.2	0.00e+00	0	24	0	608174080	70	5009
2026-01-08 22:29:34.63	73.07	23.69	-52.8	-54.9	14.3	0.00e+00	0	24	0	609222656	70	4983
2026-01-08 22:29:35.63	73.34	23.72	-52.8	-54.8	14.3	0.00e+00	0	24	0	611319808	70	4917
2026-01-08 22:29:36.63	73.62	23.74	-52.4	-54.4	14.6	0.00e+00	0	24	0	613416960	70	4685
2026-01-08 22:29:37.62	73.90	23.77	-52.2	-54.1	14.8	0.00e+00	0	24	0	615514112	70	4501
2026-01-08 22:29:38.62	74.17	23.80	-52.1	-54.0	14.8	0.00e+00	0	24	0	617611264	70	4467
2026-01-08 22:29:39.63	74.45	23.82	-52.0	-53.9	14.9	0.00e+00	0	24	0	618659840	70	4392
2026-01-08 22:29:40.63	74.73	23.85	-51.8	-53.6	15.0	0.00e+00	0	24	0	620756992	70	4281
2026-01-08 22:29:41.62	75.01	23.87	-51.7	-53.5	15.0	0.00e+00	0	24	0	622854144	70	4213
2026-01-08 22:29:42.63	75.29	23.89	-51.8	-53.6	15.0	0.00e+00	0	24	0	624951296	70	4281
2026-01-08 22:29:43.63	75.57	23.92	-51.9	-53.7	14.9	0.00e+00	0	24	0	625999872	70	4315
2026-01-08 22:29:44.62	75.85	23.94	-52.0	-53.9	14.8	0.00e+00	0	24	0	628097024	70	4397
2026-01-08 22:29:45.62	76.13	23.96	-51.9	-53.8	14.9	0.00e+00	0	24	0	630194176	70	4355
2026-01-08 22:29:46.62	76.41	23.98	-51.9	-53.8	14.9	0.00e+00	0	24	0	632291328	70	4355
2026-01-08 22:29:47.62	76.69	24.00	-52.0	-53.8	14.9	0.00e+00	0	24	0	634388480	70	4369
2026-01-08 22:29:48.62	76.97	24.02	-51.7	-53.5	15.0	0.00e+00	0	24	0	635437056	70	4221
2026-01-08 22:29:49.62	77.25	24.04	-51.7	-53.5	15.0	0.00e+00	0	24	0	637534208	70	4220
2026-01-08 22:29:50.62	77.53	24.06	-51.8	-53.5	15.0	0.00e+00	0	24	0	639631360	70	4238
2026-01-08 22:29:51.62	77.82	24.07	-51.9	-53.7	14.9	0.00e+00	0	24	0	641728512	70	4314
2026-01-08 22:29:52.61	78.09	24.09	-52.1	-53.9	14.8	0.00e+00	0	24	0	643825664	70	4433
2026-01-08 22:29:53.60	78.37	24.10	-52.2	-54.1	14.7	0.00e+00	0	24	0	644874240	70	4536
2026-01-08 22:29:54.59	78.66	24.12	-52.2	-54.1	14.7	0.00e+00	0	24	0	646971392	70	4508
2026-01-08 22:29:55.59	78.94	24.13	-52.2	-54.1	14.7	0.00e+00	0	24	0	649068544	70	4545
2026-01-08 22:29:56.58	79.22	24.15	-52.1	-54.0	14.7	0.00e+00	0	24	0	651165696	70	4493
2026-01-08 22:29:57.58	79.50	24.16	-52.2	-54.1	14.8	0.00e+00	0	24	0	652214272	70	4499
2026-01-08 22:29:58.58	79.79	24.17	-52.1	-54.0	14.8	0.00e+00	0	24	0	654311424	70	4446
2026-01-08 22:29:59.57	80.07	24.18	-52.1	-54.0	14.8	0.00e+00	0	24	0	656408576	70	4460
2026-01-08 22:30:00.57	80.35	24.20	-52.1	-54.0	14.8	0.00e+00	0	24	0	658505728	70	4457
2026-01-08 22:30:01.57	80.64	24.21	-52.0	-53.8	14.8	0.00e+00	0	24	0	660602880	70	4386
2026-01-08 22:30:02.56	80.92	24.21	-52.0	-53.9	14.8	0.00e+00	0	24	0	661651456	70	4412
2026-01-08 22:30:03.56	81.21	24.22	-52.1	-54.0	14.8	0.00e+00	0	24	0	663748608	70	4472
2026-01-08 22:30:04.56	81.49	24.23	-52.1	-53.9	14.8	0.00e+00	0	24	0	665845760	70	4433
2026-01-08 22:30:05.55	81.77	24.24	-52.0	-53.9	14.8	0.00e+00	0	24	0	667942912	70	4404
2026-01-08 22:30:06.55	82.06	24.24	-52.0	-53.9	14.8	0.00e+00	0	24	0	668991488	70	4402
2026-01-08 22:30:07.55	82.34	24.25	-52.0	-53.8	14.9	0.00e+00	0	24	0	671088640	70	4366
2026-01-08 22:30:08.54	82.63	24.26	-51.9	-53.7	14.9	0.00e+00	0	24	0	673185792	70	4319
2026-01-08 22:30:09.54	82.91	24.26	-51.9	-53.7	15.0	0.00e+00	0	24	0	675282944	70	4315
2026-01-08 22:30:10.54	83.20	24.26	-51.9	-53.7	14.9	0.00e+00	0	24	0	677380096	70	4332
2026-01-08 22:30:11.54	83.49	24.27	-52.0	-53.8	14.9	0.00e+00	0	24	0	678428672	70	4365
2026-01-08 22:30:12.54	83.77	24.27	-52.0	-53.9	14.9	0.00e+00	0	24	0	680525824	70	4398
2026-01-08 22:30:13.54	84.06	24.27	-52.3	-54.2	14.6	0.00e+00	0	24	0	682622976	70	4576
2026-01-08 22:30:14.54	84.34	24.27	-52.4	-54.3	14.6	0.00e+00	0	24	0	684720128	70	4644
2026-01-08 22:30:15.53	84.63	24.27	-52.4	-54.4	14.6	0.00e+00	0	24	0	686817280	70	4662
2026-01-08 22:30:16.53	84.91	24.27	-52.4	-54.4	14.6	0.00e+00	0	24	0	687865856	70	4693
2026-01-08 22:30:17.53	85.20	24.27	-52.3	-54.3	14.6	0.00e+00	0	24	0	689963008	70	4618
2026-01-08 22:30:18.53	85.49	24.27	-52.3	-54.2	14.7	0.00e+00	0	24	0	692060160	70	4566
2026-01-08 22:30:19.53	85.77	24.26	-52.0	-53.8	14.9	0.00e+00	0	24	0	694157312	70	4385
2026-01-08 22:30:20.53	86.06	24.26	-52.0	-53.8	14.9	0.00e+00	0	24	0	695205888	70	4364
2026-01-08 22:30:21.53	86.34	24.25	-51.9	-53.8	14.9	0.00e+00	0	24	0	697303040	70	4346
2026-01-08 22:30:22.53	86.63	24.25	-51.8	-53.6	15.0	0.00e+00	0	24	0	699400192	70	4272
2026-01-08 22:30:23.53	86.91	24.24	-51.7	-53.4	14.9	0.00e+00	0	24	0	701497344	69	4425
2026-01-08 22:30:24.53	87.20	24.24	-51.5	-53.3	15.0	0.00e+00	0	24	0	703594496	69	4350
2026-01-08 22:30:25.53	87.49	24.23	-51.7	-53.5	14.9	0.00e+00	0	24	0	704643072	69	4450
2026-01-08 22:30:26.53	87.77	24.22	-51.9	-53.7	14.8	0.00e+00	0	24	0	706740224	69	4561
2026-01-08 22:30:27.54	88.06	24.21	-52.1	-54.1	14.6	0.00e+00	0	24	0	708837376	69	4760
2026-01-08 22:30:28.54	88.34	24.20	-52.4	-54.4	14.4	0.00e+00	0	24	0	710934528	69	4957
2026-01-08 22:30:29.54	88.63	24.19	-52.5	-54.5	14.5	0.00e+00	0	24	0	713031680	70	4710
2026-01-08 22:30:30.54	88.91	24.18	-52.6	-54.6	14.4	0.00e+00	0	24	0	714080256	70	4802
2026-01-08 22:30:31.54	89.20	24.17	-52.5	-54.5	14.5	0.00e+00	0	24	0	716177408	70	4728
2026-01-08 22:30:32.53	89.48	24.16	-52.5	-54.6	14.5	0.00e+00	0	24	0	718274560	70	4773
2026-01-08 22:30:33.52	89.76	24.14	-52.5	-54.5	14.5	0.00e+00	0	24	0	720371712	70	4733
2026-01-08 22:30:34.53	90.05	24.13	-52.5	-54.5	14.5	0.00e+00	0	24	0	721420288	70	4720
2026-01-08 22:30:35.53	90.33	24.12	-52.3	-54.2	14.7	0.00e+00	0	24	0	723517440	70	4589
2026-01-08 22:30:36.53	90.61	24.10	-52.2	-54.1	14.7	0.00e+00	0	24	0	725614592	70	4511
2026-01-08 22:30:37.54	90.90	24.08	-52.2	-54.1	14.7	0.00e+00	0	24	0	727711744	70	4512
2026-01-08 22:30:38.54	91.18	24.07	-52.2	-54.0	14.8	0.00e+00	0	24	0	729808896	70	4487
2026-01-08 22:30:39.54	91.47	24.05	-52.1	-54.0	14.8	0.00e+00	0	24	0	730857472	70	4470
2026-01-08 22:30:40.54	91.75	24.03	-52.1	-54.0	14.7	0.00e+00	0	24	0	732954624	70	4462
2026-01-08 22:30:41.54	92.03	24.01	-52.2	-54.1	14.7	0.00e+00	0	24	0	735051776	70	4497
2026-01-08 22:30:42.54	92.31	23.99	-52.4	-54.3	14.6	0.00e+00	0	24	0	737148928	70	4638
2026-01-08 22:30:43.53	92.59	23.97	-52.4	-54.4	14.6	0.00e+00	0	24	0	739246080	70	4658
2026-01-08 22:30:44.53	92.87	23.95	-52.4	-54.4	14.6	0.00e+00	0	24	0	740294656	70	4666
2026-01-08 22:30:45.53	93.15	23.93	-52.5	-54.5	14.5	0.00e+00	0	24	0	742391808	70	4708
2026-01-08 22:30:46.53	93.43	23.91	-52.5	-54.4	14.6	0.00e+00	0	24	0	744488960	70	4702
2026-01-08 22:30:47.53	93.71	23.89	-52.2	-54.1	14.7	0.00e+00	0	24	0	746586112	70	4537
2026-01-08 22:30:48.53	93.99	23.86	-52.1	-54.0	14.8	0.00e+00	0	24	0	748683264	70	4461
2026-01-08 22:30:49.53	94.27	23.84	-52.0	-53.9	14.8	0.00e+00	0	24	0	749731840	70	4419
2026-01-08 22:30:50.52	94.54	23.81	-52.1	-53.9	14.8	0.00e+00	0	24	0	751828992	70	4435
2026-01-08 22:30:51.52	94.82	23.79	-52.1	-53.9	14.8	0.00e+00	0	24	0	753926144	70	4421
2026-01-08 22:30:52.51	95.10	23.76	-52.1	-54.0	14.8	0.00e+00	0	24	0	756023296	70	4465
2026-01-08 22:30:53.51	95.37	23.73	-52.1	-53.9	14.8	0.00e+00	0	24	0	757071872	70	4440
2026-01-08 22:30:54.51	95.65	23.71	-51.7	-53.5	15.0	0.00e+00	0	24	0	759169024	70	4219
2026-01-08 22:30:55.51	95.93	23.68	-51.5	-53.2	15.0	0.00e+00	0	24	0	761266176	69	4304
2026-01-08 22:30:56.51	96.20	23.65	-51.4	-53.1	15.1	0.00e+00	0	24	0	763363328	69	4283
2026-01-08 22:30:57.50	96.47	23.62	-51.5	-53.2	15.0	0.00e+00	0	24	0	765460480	69	4308
2026-01-08 22:30:58.49	96.75	23.59	-51.4	-53.1	15.1	0.00e+00	0	24	0	766509056	69	4267
2026-01-08 22:30:59.49	97.02	23.56	-51.4	-53.1	15.0	0.00e+00	0	24	0	768606208	69	4277
2026-01-08 22:31:00.48	97.29	23.53	-51.4	-53.2	15.0	0.00e+00	0	24	0	770703360	69	4298
2026-01-08 22:31:01.48	97.56	23.50	-51.5	-53.2	15.0	0.00e+00	0	24	0	772800512	69	4332
2026-01-08 22:31:02.48	97.84	23.46	-51.4	-53.1	15.1	0.00e+00	0	24	0	773849088	69	4269
2026-01-08 22:31:03.48	98.11	23.43	-51.4	-53.1	15.1	0.00e+00	0	24	0	775946240	69	4244
2026-01-08 22:31:04.47	98.38	23.40	-51.4	-53.2	15.0	0.00e+00	0	24	0	778043392	69	4300
2026-01-08 22:31:05.47	98.65	23.36	-51.4	-53.1	15.1	0.00e+00	0	24	0	780140544	69	4274
2026-01-08 22:31:06.47	98.92	23.33	-51.3	-53.0	15.1	0.00e+00	0	24	0	782237696	69	4230
2026-01-08 22:31:07.46	99.19	23.29	-51.3	-52.9	15.2	0.00e+00	0	24	0	783286272	69	4190
2026-01-08 22:31:08.45	99.45	23.26	-51.2	-52.9	15.2	0.00e+00	0	24	0	785383424	69	4177
2026-01-08 22:31:09.46	99.72	23.22	-51.1	-52.8	15.1	0.00e+00	0	24	0	787480576	68	4346
2026-01-08 22:31:10.45	99.99	23.18	-51.1	-52.7	15.1	0.00e+00	0	24	0	789577728	68	4318
2026-01-08 22:31:11.45	100.26	23.14	-51.1	-52.7	15.1	0.00e+00	0	24	0	790626304	68	4331
2026-01-08 22:31:12.45	100.52	23.10	-51.1	-52.7	15.1	0.00e+00	0	24	0	792723456	68	4328
2026-01-08 22:31:13.44	100.79	23.07	-50.9	-52.5	15.2	0.00e+00	0	24	0	794820608	68	4241
2026-01-08 22:31:14.45	101.05	23.03	-50.7	-52.3	15.3	0.00e+00	0	24	0	796917760	68	4128
2026-01-08 22:31:15.45	101.32	22.98	-50.4	-51.9	15.3	0.00e+00	0	24	0	799014912	67	4169
2026-01-08 22:31:16.44	101.58	22.94	-50.0	-51.4	15.3	0.00e+00	0	24	0	800063488	66	4189
2026-01-08 22:31:17.45	101.85	22.90	-49.9	-51.3	15.4	0.00e+00	0	24	0	802160640	66	4134
2026-01-08 22:31:18.45	102.11	22.86	-49.9	-51.4	15.4	0.00e+00	0	24	0	804257792	66	4148
2026-01-08 22:31:19.45	102.37	22.82	-50.0	-51.5	15.3	0.00e+00	0	24	0	806354944	66	4195
2026-01-08 22:31:20.46	102.63	22.77	-50.0	-51.4	15.3	0.00e+00	0	24	0	808452096	66	4183
2026-01-08 22:31:21.46	102.89	22.73	-50.1	-51.5	15.3	0.00e+00	0	24	0	809500672	66	4239
2026-01-08 22:31:22.46	103.15	22.69	-50.0	-51.4	15.3	0.00e+00	0	24	0	811597824	66	4192
2026-01-08 22:31:23.46	103.41	22.64	-49.9	-51.3	15.4	0.00e+00	0	24	0	813694976	66	4142
2026-01-08 22:31:24.46	103.67	22.60	-49.9	-51.4	15.4	0.00e+00	0	24	0	815792128	66	4149
2026-01-08 22:31:25.46	103.93	22.55	-49.9	-51.4	15.4	0.00e+00	0	24	0	817889280	66	4164
2026-01-08 22:31:26.46	104.19	22.51	-50.1	-51.6	15.3	0.00e+00	0	24	0	818937856	66	4259
2026-01-08 22:31:27.46	104.44	22.46	-50.3	-51.8	15.1	0.00e+00	0	24	0	821035008	66	4389
2026-01-08 22:31:28.46	104.70	22.41	-50.6	-52.2	15.0	0.00e+00	0	24	0	823132160	66	4569
2026-01-08 22:31:29.46	104.95	22.36	-50.8	-52.4	14.9	0.00e+00	0	24	0	825229312	66	4684
2026-01-08 22:31:30.46	105.21	22.32	-50.9	-52.5	14.9	0.00e+00	0	24	0	827326464	66	4756
2026-01-08 22:31:31.45	105.46	22.27	-50.9	-52.6	15.0	0.00e+00	0	24	0	828375040	67	4522
2026-01-08 22:31:32.45	105.71	22.22	-50.8	-52.4	15.0	0.00e+00	0	24	0	830472192	67	4424
2026-01-08 22:31:33.44	105.96	22.17	-50.7	-52.3	15.1	0.00e+00	0	24	0	832569344	67	4357
2026-01-08 22:31:34.45	106.21	22.12	-50.6	-52.2	15.1	0.00e+00	0	24	0	834666496	67	4336
2026-01-08 22:31:35.45	106.46	22.07	-50.5	-52.1	15.2	0.00e+00	0	24	0	835715072	67	4271
2026-01-08 22:31:36.44	106.71	22.02	-50.5	-52.1	15.2	0.00e+00	0	24	0	837812224	67	4270
2026-01-08 22:31:37.44	106.96	21.97	-50.6	-52.1	15.2	0.00e+00	0	24	0	839909376	67	4288
2026-01-08 22:31:38.45	107.21	21.91	-50.6	-52.2	15.2	0.00e+00	0	24	0	842006528	67	4308
2026-01-08 22:31:39.44	107.45	21.86	-50.7	-52.3	15.1	0.00e+00	0	24	0	844103680	67	4360
2026-01-08 22:31:40.44	107.70	21.81	-50.7	-52.3	15.1	0.00e+00	0	24	0	845152256	67	4387
2026-01-08 22:31:41.44	107.94	21.76	-50.8	-52.5	15.0	0.00e+00	0	24	0	847249408	67	4453
2026-01-08 22:31:42.44	108.19	21.70	-51.0	-52.7	14.9	0.00e+00	0	24	0	849346560	67	4587
2026-01-08 22:31:43.44	108.43	21.65	-51.3	-53.0	14.8	0.00e+00	0	24	0	851443712	67	4737
2026-01-08 22:31:44.44	108.67	21.60	-51.7	-53.5	14.7	0.00e+00	0	24	0	852492288	68	4733
2026-01-08 22:31:45.44	108.91	21.54	-51.9	-53.8	14.6	0.00e+00	0	24	0	854589440	68	4896
2026-01-08 22:31:46.43	109.15	21.49	-52.1	-53.9	14.6	0.00e+00	0	24	0	856686592	69	4703
2026-01-08 22:31:47.44	109.40	21.43	-52.1	-54.0	14.6	0.00e+00	0	24	0	858783744	69	4741
2026-01-08 22:31:48.44	109.64	21.37	-52.1	-54.0	14.6	0.00e+00	0	24	0	860880896	69	4727
2026-01-08 22:31:49.44	109.87	21.32	-52.1	-54.0	14.6	0.00e+00	0	24	0	861929472	69	4750
2026-01-08 22:31:50.44	110.11	21.26	-52.1	-54.0	14.6	0.00e+00	0	24	0	864026624	69	4707
2026-01-08 22:31:51.44	110.35	21.21	-51.9	-53.8	14.7	0.00e+00	0	24	0	866123776	69	4628
2026-01-08 22:31:52.43	110.58	21.15	-51.8	-53.7	14.8	0.00e+00	0	24	0	868220928	69	4556
2026-01-08 22:31:53.44	110.82	21.09	-51.6	-53.3	14.9	0.00e+00	0	24	0	870318080	69	4386
2026-01-08 22:31:54.43	111.05	21.03	-51.4	-53.1	15.0	0.00e+00	0	24	0	871366656	69	4281
2026-01-08 22:31:55.42	111.28	20.98	-51.3	-53.1	15.1	0.00e+00	0	24	0	873463808	69	4250
2026-01-08 22:31:56.41	111.51	20.92	-51.2	-52.9	15.2	0.00e+00	0	24	0	875560960	69	4177
2026-01-08 22:31:57.41	111.74	20.86	-51.2	-52.9	15.2	0.00e+00	0	24	0	877658112	69	4155
2026-01-08 22:31:58.41	111.98	20.80	-51.2	-52.8	15.0	0.00e+00	0	24	0	878706688	68	4380
2026-01-08 22:31:59.41	112.21	20.74	-51.3	-53.0	14.9	0.00e+00	0	24	0	880803840	68	4452
2026-01-08 22:32:00.41	112.43	20.68	-51.4	-53.1	14.9	0.00e+00	0	24	0	882900992	68	4545
2026-01-08 22:32:01.41	112.66	20.62	-51.5	-53.3	14.8	0.00e+00	0	24	0	884998144	68	4625
2026-01-08 22:32:02.40	112.89	20.56	-51.6	-53.4	14.8	0.00e+00	0	24	0	887095296	68	4652
2026-01-08 22:32:03.40	113.11	20.50	-51.6	-53.3	14.8	0.00e+00	0	24	0	888143872	68	4629
2026-01-08 22:32:04.40	113.34	20.44	-51.6	-53.4	14.8	0.00e+00	0	24	0	890241024	68	4681
2026-01-08 22:32:05.40	113.56	20.38	-51.7	-53.5	14.7	0.00e+00	0	24	0	892338176	68	4726
2026-01-08 22:32:06.40	113.79	20.31	-51.7	-53.5	14.7	0.00e+00	0	24	0	894435328	68	4727
2026-01-08 22:32:07.40	114.01	20.25	-51.8	-53.7	14.6	0.00e+00	0	24	0	896532480	68	4829
2026-01-08 22:32:08.39	114.23	20.19	-51.7	-53.6	14.7	0.00e+00	0	24	0	897581056	68	4762
2026-01-08 22:32:09.40	114.46	20.13	-51.7	-53.5	14.7	0.00e+00	0	24	0	899678208	68	4744
2026-01-08 22:32:10.39	114.67	20.07	-51.7	-53.5	14.7	0.00e+00	0	24	0	901775360	68	4733
2026-01-08 22:32:11.39	114.89	20.00	-51.7	-53.5	14.7	0.00e+00	0	24	0	903872512	68	4744
2026-01-08 22:32:12.38	115.11	19.94	-51.5	-53.2	14.8	0.00e+00	0	24	0	904921088	68	4598
2026-01-08 22:32:13.38	115.33	19.88	-51.4	-53.2	14.9	0.00e+00	0	24	0	907018240	68	4561
2026-01-08 22:32:14.38	115.54	19.81	-51.3	-53.0	15.0	0.00e+00	0	24	0	909115392	68	4458
2026-01-08 22:32:15.38	115.76	19.75	-51.4	-53.1	14.9	0.00e+00	0	24	0	911212544	68	4519
2026-01-08 22:32:16.38	115.98	19.68	-51.5	-53.3	14.8	0.00e+00	0	24	0	913309696	68	4621
2026-01-08 22:32:17.38	116.19	19.62	-51.5	-53.2	14.8	0.00e+00	0	24	0	914358272	68	4592
2026-01-08 22:32:18.38	116.40	19.56	-51.5	-53.3	14.8	0.00e+00	0	24	0	916455424	68	4635
2026-01-08 22:32:19.37	116.61	19.49	-51.4	-53.1	14.9	0.00e+00	0	24	0	918552576	68	4544
2026-01-08 22:32:20.37	116.83	19.43	-51.4	-53.2	14.8	0.00e+00	0	24	0	920649728	68	4561
2026-01-08 22:32:21.37	117.04	19.36	-51.4	-53.2	14.9	0.00e+00	0	24	0	922746880	68	4559
2026-01-08 22:32:22.37	117.25	19.30	-51.5	-53.2	14.8	0.00e+00	0	24	0	923795456	68	4586
2026-01-08 22:32:23.37	117.46	19.23	-51.5	-53.3	14.8	0.00e+00	0	24	0	925892608	68	4632
2026-01-08 22:32:24.37	117.66	19.16	-51.6	-53.4	14.7	0.00e+00	0	24	0	927989760	68	4692
2026-01-08 22:32:25.37	117.87	19.10	-51.7	-53.6	14.7	0.00e+00	0	24	0	930086912	68	4762
2026-01-08 22:32:26.36	118.07	19.03	-51.7	-53.5	14.7	0.00e+00	0	24	0	931135488	68	4726
2026-01-08 22:32:27.36	118.28	18.97	-51.7	-53.6	14.6	0.00e+00	0	24	0	933232640	68	4779
2026-01-08 22:32:28.37	118.49	18.90	-51.7	-53.6	14.6	0.00e+00	0	24	0	935329792	68	4774
2026-01-08 22:32:29.37	118.69	18.83	-51.8	-53.7	14.6	0.00e+00	0	24	0	937426944	68	4838
2026-01-08 22:32:30.37	118.89	18.76	-52.1	-54.0	14.6	0.00e+00	0	24	0	939524096	69	4731
2026-01-08 22:32:31.37	119.10	18.70	-52.3	-54.4	14.4	0.00e+00	0	24	0	940572672	69	4948
2026-01-08 22:32:32.36	119.30	18.63	-52.6	-54.7	14.3	0.00e+00	0	24	0	942669824	70	4826
2026-01-08 22:32:33.36	119.50	18.56	-52.7	-54.8	14.3	0.00e+00	0	24	0	944766976	70	4926
2026-01-08 22:32:34.36	119.70	18.50	-52.6	-54.8	14.3	0.00e+00	0	24	0	946864128	70	4885
2026-01-08 22:32:35.36	119.89	18.43	-52.3	-54.2	14.6	0.00e+00	0	24	0	947912704	70	4598
2026-01-08 22:32:36.35	120.09	18.36	-52.0	-53.9	14.8	0.00e+00	0	24	0	950009856	70	4395
2026-01-08 22:32:37.35	120.29	18.29	-51.8	-53.6	14.9	0.00e+00	0	24	0	952107008	70	4270
2026-01-08 22:32:38.35	120.48	18.22	-51.8	-53.6	15.0	0.00e+00	0	24	0	954204160	70	4246
2026-01-08 22:32:39.36	120.68	18.16	-51.8	-53.6	14.9	0.00e+00	0	24	0	956301312	70	4279
2026-01-08 22:32:40.36	120.87	18.09	-52.1	-54.0	14.7	0.00e+00	0	24	0	958398464	70	4470
2026-01-08 22:32:41.36	121.07	18.02	-52.5	-54.5	14.4	0.00e+00	0	24	0	959447040	70	4748
2026-01-08 22:32:42.36	121.26	17.95	-52.6	-54.7	14.4	0.00e+00	0	24	0	961544192	70	4830
2026-01-08 22:32:43.35	121.45	17.88	-52.6	-54.7	14.3	0.00e+00	0	24	0	963641344	70	4857
2026-01-08 22:32:44.35	121.64	17.81	-52.5	-54.5	14.4	0.00e+00	0	24	0	965738496	70	4755
2026-01-08 22:32:45.36	121.83	17.74	-52.4	-54.4	14.5	0.00e+00	0	24	0	966787072	70	4661
2026-01-08 22:32:46.36	122.02	17.67	-52.2	-54.1	14.7	0.00e+00	0	24	0	968884224	70	4527
2026-01-08 22:32:47.37	122.21	17.60	-52.2	-54.1	14.7	0.00e+00	0	24	0	970981376	70	4524
2026-01-08 22:32:48.37	122.40	17.53	-52.0	-53.9	14.8	0.00e+00	0	24	0	973078528	70	4422
2026-01-08 22:32:49.37	122.59	17.47	-52.1	-54.0	14.7	0.00e+00	0	24	0	975175680	70	4471
2026-01-08 22:32:50.38	122.78	17.39	-52.2	-54.1	14.7	0.00e+00	0	24	0	976224256	70	4540
2026-01-08 22:32:51.38	122.96	17.33	-52.3	-54.3	14.6	0.00e+00	0	24	0	978321408	70	4618
2026-01-08 22:32:52.37	123.14	17.26	-52.3	-54.3	14.5	0.00e+00	0	24	0	980418560	70	4638
2026-01-08 22:32:53.37	123.33	17.19	-52.2	-54.2	14.6	0.00e+00	0	24	0	982515712	70	4577
2026-01-08 22:32:54.37	123.51	17.12	-52.1	-54.0	14.7	0.00e+00	0	24	0	984612864	70	4481
2026-01-08 22:32:55.36	123.69	17.05	-52.1	-54.0	14.7	0.00e+00	0	24	0	985661440	70	4450
2026-01-08 22:32:56.36	123.87	16.98	-51.8	-53.7	14.9	0.00e+00	0	24	0	987758592	70	4297
2026-01-08 22:32:57.36	124.05	16.91	-51.8	-53.7	14.9	0.00e+00	0	24	0	989855744	70	4296
2026-01-08 22:32:58.35	124.23	16.84	-52.0	-53.9	14.7	0.00e+00	0	24	0	991952896	70	4412
2026-01-08 22:32:59.35	124.41	16.77	-52.1	-54.1	14.6	0.00e+00	0	24	0	993001472	70	4498
2026-01-08 22:33:00.35	124.58	16.70	-52.3	-54.3	14.6	0.00e+00	0	24	0	995098624	70	4616
2026-01-08 22:33:01.34	124.76	16.63	-52.4	-54.5	14.4	0.00e+00	0	24	0	997195776	70	4746
2026-01-08 22:33:02.33	124.93	16.56	-52.4	-54.4	14.5	0.00e+00	0	24	0	999292928	70	4703
2026-01-08 22:33:03.33	125.11	16.49	-52.1	-54.1	14.7	0.00e+00	0	24	0	1001390080	70	4527
2026-01-08 22:33:04.32	125.28	16.42	-51.9	-53.8	14.8	0.00e+00	0	24	0	1002438656	70	4386
2026-01-08 22:33:05.31	125.45	16.35	-51.6	-53.4	14.9	0.00e+00	0	24	0	1004535808	69	4404
2026-01-08 22:33:06.31	125.63	16.28	-51.4	-53.1	15.0	0.00e+00	0	24	0	1006632960	69	4290
2026-01-08 22:33:07.31	125.80	16.21	-51.5	-53.2	15.0	0.00e+00	0	24	0	1008730112	69	4335
2026-01-08 22:33:08.31	125.97	16.14	-51.6	-53.5	14.8	0.00e+00	0	24	0	1010827264	69	4455
2026-01-08 22:33:09.31	126.14	16.07	-52.0	-53.9	14.6	0.00e+00	0	24	0	1011875840	69	4698
2026-01-08 22:33:10.31	126.31	15.99	-52.3	-54.4	14.3	0.00e+00	0	24	0	1013972992	69	4941
2026-01-08 22:33:11.31	126.48	15.92	-52.7	-54.9	14.2	0.00e+00	0	24	0	1016070144	70	4950
2026-01-08 22:33:12.31	126.65	15.85	-52.8	-55.0	14.1	0.00e+00	0	24	0	1018167296	70	5036
2026-01-08 22:33:13.31	126.82	15.78	-52.8	-55.1	14.1	0.00e+00	0	24	0	1019215872	70	5065
2026-01-08 22:33:14.30	126.98	15.71	-52.7	-54.9	14.2	0.00e+00	0	24	0	1021313024	70	4976
2026-01-08 22:33:15.30	127.15	15.64	-52.5	-54.6	14.4	0.00e+00	0	24	0	1023410176	70	4766
2026-01-08 22:33:16.29	127.31	15.57	-52.3	-54.4	14.5	0.00e+00	0	24	0	1025507328	70	4655
2026-01-08 22:33:17.29	127.48	15.50	-52.2	-54.3	14.6	0.00e+00	0	24	0	1027604480	70	4603
2026-01-08 22:33:18.29	127.64	15.43	-52.0	-53.9	14.7	0.00e+00	0	24	0	1028653056	70	4434
2026-01-08 22:33:19.28	127.80	15.36	-52.1	-54.0	14.7	0.00e+00	0	24	0	1030750208	70	4475
2026-01-08 22:33:20.28	127.96	15.29	-52.2	-54.2	14.6	0.00e+00	0	24	0	1032847360	70	4595
2026-01-08 22:33:21.28	128.13	15.22	-52.5	-54.6	14.4	0.00e+00	0	24	0	1034944512	70	4776
2026-01-08 22:33:22.28	128.29	15.15	-52.5	-54.6	14.4	0.00e+00	0	24	0	1035993088	70	4773
2026-01-08 22:33:23.28	128.45	15.08	-52.5	-54.6	14.3	0.00e+00	0	24	0	1038090240	70	4798
2026-01-08 22:33:24.28	128.61	15.01	-52.5	-54.6	14.4	0.00e+00	0	24	0	1040187392	70	4797
2026-01-08 22:33:25.28	128.76	14.93	-52.5	-54.6	14.3	0.00e+00	0	24	0	1042284544	70	4804
2026-01-08 22:33:26.27	128.92	14.86	-52.4	-54.5	14.4	0.00e+00	0	24	0	1044381696	70	4725
2026-01-08 22:33:27.27	129.08	14.79	-52.3	-54.4	14.5	0.00e+00	0	24	0	1045430272	70	4664
2026-01-08 22:33:28.27	129.23	14.72	-52.2	-54.3	14.5	0.00e+00	0	24	0	1047527424	70	4606
2026-01-08 22:33:29.27	129.39	14.65	-52.1	-54.1	14.6	0.00e+00	0	24	0	1049624576	70	4539
2026-01-08 22:33:30.26	129.54	14.58	-52.3	-54.3	14.5	0.00e+00	0	24	0	1051721728	70	4627
2026-01-08 22:33:31.26	129.70	14.51	-52.3	-54.4	14.4	0.00e+00	0	24	0	1053818880	70	4682
2026-01-08 22:33:32.26	129.85	14.44	-52.5	-54.6	14.3	0.00e+00	0	24	0	1054867456	70	4814
2026-01-08 22:33:33.26	130.01	14.37	-52.6	-54.7	14.2	0.00e+00	0	24	0	1056964608	70	4866
2026-01-08 22:33:34.25	130.16	14.30	-52.6	-54.8	14.2	0.00e+00	0	24	0	1059061760	70	4906
2026-01-08 22:33:35.25	130.31	14.23	-52.6	-54.8	14.2	0.00e+00	0	24	0	1061158912	70	4888
2026-01-08 22:33:36.25	130.46	14.16	-52.6	-54.7	14.2	0.00e+00	0	24	0	1062207488	70	4869
2026-01-08 22:33:37.25	130.61	14.09	-52.4	-54.5	14.4	0.00e+00	0	24	0	1064304640	70	4753
2026-01-08 22:33:38.24	130.76	14.02	-52.3	-54.4	14.4	0.00e+00	0	24	0	1066401792	70	4669
2026-01-08 22:33:39.24	130.91	13.95	-52.2	-54.2	14.5	0.00e+00	0	24	0	1068498944	70	4577
2026-01-08 22:33:40.24	131.05	13.88	-52.2	-54.2	14.5	0.00e+00	0	24	0	1070596096	70	4589
2026-01-08 22:33:41.24	131.20	13.80	-52.2	-54.3	14.5	0.00e+00	0	24	0	1071644672	70	4607
2026-01-08 22:33:42.25	131.35	13.73	-52.3	-54.4	14.4	0.00e+00	0	24	0	1073741824	70	4683
2026-01-08 22:33:43.25	131.49	13.66	-52.3	-54.4	14.4	0.00e+00	0	24	0	1075838976	70	4691
2026-01-08 22:33:44.24	131.64	13.59	-52.4	-54.5	14.4	0.00e+00	0	24	0	1077936128	70	4754
2026-01-08 22:33:45.24	131.78	13.52	-52.5	-54.6	14.3	0.00e+00	0	24	0	1078984704	70	4789
2026-01-08 22:33:46.24	131.93	13.45	-52.6	-54.9	14.2	0.00e+00	0	24	0	1081081856	70	4928
2026-01-08 22:33:47.24	132.07	13.38	-52.4	-54.6	14.3	0.00e+00	0	24	0	1083179008	70	4763
2026-01-08 22:33:48.24	132.21	13.31	-52.4	-54.6	14.3	0.00e+00	0	24	0	1085276160	70	4783
2026-01-08 22:33:49.24	132.36	13.24	-52.4	-54.6	14.3	0.00e+00	0	24	0	1087373312	70	4776
2026-01-08 22:33:50.23	132.50	13.17	-52.5	-54.7	14.3	0.00e+00	0	24	0	1088421888	70	4829
2026-01-08 22:33:51.24	132.64	13.10	-52.3	-54.3	14.5	0.00e+00	0	24	0	1090519040	70	4650
2026-01-08 22:33:52.24	132.78	13.03	-52.1	-54.2	14.5	0.00e+00	0	24	0	1092616192	70	4566
2026-01-08 22:33:53.24	132.92	12.96	-52.1	-54.2	14.6	0.00e+00	0	24	0	1094713344	70	4551
2026-01-08 22:33:54.24	133.06	12.89	-52.2	-54.2	14.5	0.00e+00	0	24	0	1096810496	70	4581
2026-01-08 22:33:55.24	133.20	12.82	-52.1	-54.2	14.6	0.00e+00	0	24	0	1097859072	70	4552
2026-01-08 22:33:56.23	133.33	12.75	-52.2	-54.2	14.5	0.00e+00	0	24	0	1099956224	70	4588
2026-01-08 22:33:57.23	133.47	12.68	-52.2	-54.2	14.5	0.00e+00	0	24	0	1102053376	70	4571
2026-01-08 22:33:58.23	133.60	12.61	-52.1	-54.1	14.6	0.00e+00	0	24	0	1104150528	70	4543
2026-01-08 22:33:59.23	133.74	12.54	-52.3	-54.3	14.5	0.00e+00	0	24	0	1106247680	70	4641
2026-01-08 22:34:00.23	133.88	12.47	-52.3	-54.4	14.4	0.00e+00	0	24	0	1107296256	70	4689
2026-01-08 22:34:01.23	134.01	12.40	-52.3	-54.4	14.4	0.00e+00	0	24	0	1109393408	70	4675
2026-01-08 22:34:02.23	134.14	12.33	-52.4	-54.5	14.4	0.00e+00	0	24	0	1111490560	70	4720
2026-01-08 22:34:03.22	134.28	12.26	-52.4	-54.6	14.3	0.00e+00	0	24	0	1113587712	70	4760
2026-01-08 22:34:04.22	134.41	12.19	-52.4	-54.5	14.3	0.00e+00	0	24	0	1114636288	70	4758
2026-01-08 22:34:05.22	134.54	12.13	-52.6	-54.8	14.2	0.00e+00	0	24	0	1116733440	70	4890
2026-01-08 22:34:06.21	134.67	12.06	-52.4	-54.6	14.3	0.00e+00	0	24	0	1118830592	70	4761
2026-01-08 22:34:07.21	134.80	11.99	-52.5	-54.7	14.2	0.00e+00	0	24	0	1120927744	70	4856
2026-01-08 22:34:08.21	134.93	11.92	-52.6	-54.8	14.2	0.00e+00	0	24	0	1123024896	70	4905
2026-01-08 22:34:09.21	135.06	11.85	-52.6	-54.8	14.2	0.00e+00	0	24	0	1124073472	70	4914
2026-01-08 22:34:10.21	135.19	11.78	-52.7	-55.0	14.1	0.00e+00	0	24	0	1126170624	70	5012
2026-01-08 22:34:11.21	135.32	11.71	-52.8	-55.2	14.0	0.00e+00	0	24	0	1128267776	70	5107
2026-01-08 22:34:12.22	135.45	11.64	-52.8	-55.1	14.0	0.00e+00	0	24	0	1130364928	70	5050
2026-01-08 22:34:13.22	135.58	11.57	-52.7	-55.0	14.0	0.00e+00	0	24	0	1132462080	70	5037
2026-01-08 22:34:14.20	135.70	11.50	-52.8	-55.1	14.0	0.00e+00	0	24	0	1133510656	70	5075
2026-01-08 22:34:15.21	135.83	11.44	-52.8	-55.1	14.0	0.00e+00	0	24	0	1135607808	70	5061
2026-01-08 22:34:16.21	135.95	11.37	-52.7	-54.9	14.1	0.00e+00	0	24	0	1137704960	70	4965
2026-01-08 22:34:17.20	136.08	11.30	-52.8	-55.1	14.0	0.00e+00	0	24	0	1139802112	70	5060
2026-01-08 22:34:18.20	136.20	11.23	-52.6	-54.8	14.2	0.00e+00	0	24	0	1140850688	70	4894
2026-01-08 22:34:19.20	136.33	11.16	-52.5	-54.7	14.2	0.00e+00	0	24	0	1142947840	70	4851
2026-01-08 22:34:20.20	136.45	11.09	-52.6	-54.8	14.2	0.00e+00	0	24	0	1145044992	70	4881
2026-01-08 22:34:21.20	136.57	11.02	-52.6	-54.9	14.1	0.00e+00	0	24	0	1147142144	70	4940
2026-01-08 22:34:22.20	136.70	10.96	-52.6	-54.8	14.1	0.00e+00	0	24	0	1149239296	70	4919
2026-01-08 22:34:23.19	136.82	10.89	-52.6	-54.8	14.2	0.00e+00	0	24	0	1150287872	70	4907
2026-01-08 22:34:24.19	136.94	10.82	-52.6	-54.9	14.1	0.00e+00	0	24	0	1152385024	70	4965
2026-01-08 22:34:25.19	137.06	10.75	-52.7	-55.1	14.0	0.00e+00	0	24	0	1154482176	70	5045
2026-01-08 22:34:26.19	137.18	10.68	-52.8	-55.2	13.9	0.00e+00	0	24	0	1156579328	70	5123
2026-01-08 22:34:27.18	137.30	10.62	-53.0	-55.4	14.0	0.00e+00	0	24	0	1157627904	71	4947
2026-01-08 22:34:28.18	137.42	10.55	-53.1	-55.5	13.9	0.00e+00	0	24	0	1159725056	71	5022
2026-01-08 22:34:29.18	137.53	10.48	-53.2	-55.7	13.8	0.00e+00	0	24	0	1161822208	71	5101
2026-01-08 22:34:30.18	137.65	10.41	-53.3	-55.9	13.6	0.00e+00	0	24	0	1163919360	71	5238
2026-01-08 22:34:31.18	137.77	10.35	-53.4	-56.1	13.7	0.00e+00	0	24	0	1166016512	72	5046
2026-01-08 22:34:32.18	137.89	10.28	-53.5	-56.2	13.6	0.00e+00	0	24	0	1167065088	72	5117
2026-01-08 22:34:33.18	138.00	10.21	-53.6	-56.3	13.5	0.00e+00	0	24	0	1169162240	72	5182
2026-01-08 22:34:34.18	138.12	10.15	-53.7	-56.5	13.4	0.00e+00	0	24	0	1171259392	72	5307
2026-01-08 22:34:35.17	138.23	10.08	-53.8	-56.6	13.3	0.00e+00	0	24	0	1173356544	72	5398
2026-01-08 22:34:36.17	138.35	10.01	-53.7	-56.6	13.3	0.00e+00	0	24	0	1175453696	72	5353
2026-01-08 22:34:37.17	138.46	9.94	-53.7	-56.5	13.4	0.00e+00	0	24	0	1176502272	72	5321
2026-01-08 22:34:38.17	138.58	9.88	-53.8	-56.7	13.3	0.00e+00	0	24	0	1178599424	72	5408
2026-01-08 22:34:39.16	138.69	9.81	-53.7	-56.6	13.3	0.00e+00	0	24	0	1180696576	72	5350
2026-01-08 22:34:40.16	138.80	9.74	-53.7	-56.5	13.4	0.00e+00	0	24	0	1182793728	72	5323
2026-01-08 22:34:41.16	138.92	9.68	-53.7	-56.5	13.4	0.00e+00	0	24	0	1183842304	72	5300
2026-01-08 22:34:42.16	139.03	9.61	-53.6	-56.4	13.5	0.00e+00	0	24	0	1185939456	72	5230
2026-01-08 22:34:43.16	139.14	9.54	-53.7	-56.5	13.4	0.00e+00	0	24	0	1188036608	72	5317
2026-01-08 22:34:44.16	139.25	9.48	-53.8	-56.7	13.3	0.00e+00	0	24	0	1190133760	72	5403
2026-01-08 22:34:45.16	139.36	9.41	-53.6	-56.3	13.5	0.00e+00	0	24	0	1192230912	72	5173
2026-01-08 22:34:46.14	139.47	9.35	-53.6	-56.4	13.4	0.00e+00	0	24	0	1193279488	72	5266
2026-01-08 22:34:47.14	139.58	9.28	-53.6	-56.4	13.4	0.00e+00	0	24	0	1195376640	72	5235
2026-01-08 22:34:48.14	139.69	9.21	-53.6	-56.4	13.4	0.00e+00	0	24	0	1197473792	72	5243
2026-01-08 22:34:49.14	139.80	9.15	-53.6	-56.4	13.4	0.00e+00	0	24	0	1199570944	72	5236
2026-01-08 22:34:50.14	139.90	9.08	-53.6	-56.4	13.4	0.00e+00	0	24	0	1201668096	72	5235
2026-01-08 22:34:51.13	140.01	9.02	-53.6	-56.4	13.4	0.00e+00	0	24	0	1202716672	72	5260
2026-01-08 22:34:52.14	140.12	8.95	-53.6	-56.3	13.5	0.00e+00	0	24	0	1204813824	72	5191
2026-01-08 22:34:53.12	140.22	8.89	-53.4	-56.0	13.7	0.00e+00	0	24	0	1206910976	72	5014
2026-01-08 22:34:54.12	140.33	8.82	-53.3	-55.9	13.7	0.00e+00	0	24	0	1209008128	72	4964
2026-01-08 22:34:55.10	140.43	8.76	-53.3	-55.9	13.7	0.00e+00	0	24	0	1210056704	72	4938
2026-01-08 22:34:56.10	140.54	8.69	-53.3	-55.8	13.8	0.00e+00	0	24	0	1212153856	72	4924
2026-01-08 22:34:57.10	140.64	8.63	-53.2	-55.7	13.8	0.00e+00	0	24	0	1214251008	72	4861
2026-01-08 22:34:58.09	140.75	8.56	-53.2	-55.7	13.8	0.00e+00	0	24	0	1216348160	72	4841
2026-01-08 22:34:59.08	140.85	8.50	-53.2	-55.8	13.8	0.00e+00	0	24	0	1218445312	72	4892
2026-01-08 22:35:00.08	140.95	8.43	-53.3	-56.0	13.7	0.00e+00	0	24	0	1219493888	72	4985
2026-01-08 22:35:01.08	141.06	8.37	-53.4	-56.0	13.6	0.00e+00	0	24	0	1221591040	72	5009
2026-01-08 22:35:02.08	141.16	8.30	-53.4	-56.1	13.5	0.00e+00	0	24	0	1223688192	72	5094
2026-01-08 22:35:03.08	141.26	8.24	-53.5	-56.3	13.5	0.00e+00	0	24	0	1225785344	72	5168
2026-01-08 22:35:04.08	141.36	8.17	-53.5	-56.3	13.4	0.00e+00	0	24	0	1226833920	72	5187
2026-01-08 22:35:05.07	141.47	8.11	-53.5	-56.2	13.5	0.00e+00	0	24	0	1228931072	72	5159
2026-01-08 22:35:06.07	141.57	8.04	-53.6	-56.4	13.4	0.00e+00	0	24	0	1231028224	72	5220
2026-01-08 22:35:07.07	141.67	7.98	-53.6	-56.5	13.3	0.00e+00	0	24	0	1233125376	72	5282
2026-01-08 22:35:08.07	141.77	7.92	-53.6	-56.4	13.4	0.00e+00	0	24	0	1235222528	72	5238
2026-01-08 22:35:09.07	141.87	7.85	-53.5	-56.3	13.4	0.00e+00	0	24	0	1236271104	72	5195
2026-01-08 22:35:10.06	141.97	7.79	-53.5	-56.3	13.4	0.00e+00	0	24	0	1238368256	72	5179
2026-01-08 22:35:11.06	142.06	7.72	-53.5	-56.2	13.5	0.00e+00	0	24	0	1240465408	72	5126
