passes_logs/2026/01/08/R3.2S_Murmansk/R3.2S_Murmansk__20260108_032241_SUOMI_NPP_rec.log

#Pass ID: 20260108_032241_SUOMI NPP
#Satellite: SUOMI NPP
#Configuration: NPP
#almurnet v.1.7.20251203
#Start time: 2026-01-08 03:22:41

#Version: 2.2.20231116
#Station: R3.2S_Murmansk
#Location: 33.079688 lon 68.888172 lat
#TLE: 1 37849U 11061A   26005.94084933  .00000134  00000+0  84554-4 0  9990
#TLE: 2 37849  98.7803 308.0679 0002567  79.1029 281.0436 14.19522657735426

#Time	Az	El	Level	Level2	SNR	BER	BlckErr	Temp	State	Recorded	gain1	gain2
2026-01-08 03:22:41.79	40.26	2.02	-57.5	-73.5	3.8	1.49e+00	0	22	0	0	81	22271
2026-01-08 03:22:42.79	40.20	2.08	-57.4	-73.4	3.8	1.49e+00	0	23	104	0	79	24932
2026-01-08 03:22:43.79	40.15	2.14	-57.4	-73.4	3.8	1.49e+00	0	23	104	0	79	24953
2026-01-08 03:22:44.79	40.10	2.19	-57.4	-73.4	3.8	1.49e+00	0	22	104	0	79	24944
2026-01-08 03:22:45.79	40.05	2.25	-57.4	-73.4	3.8	1.49e+00	0	23	104	0	79	24893
2026-01-08 03:22:46.79	40.00	2.31	-57.4	-73.4	3.8	1.49e+00	0	23	104	0	79	24882
2026-01-08 03:22:47.78	39.95	2.37	-57.4	-73.4	3.8	1.49e+00	0	23	104	0	79	24904
2026-01-08 03:22:48.79	39.89	2.43	-57.4	-73.4	3.8	1.49e+00	0	23	104	0	79	24930
2026-01-08 03:22:49.79	39.84	2.49	-57.4	-73.4	3.8	1.49e+00	0	23	104	0	79	24918
2026-01-08 03:22:50.79	39.79	2.55	-57.4	-73.4	3.8	1.49e+00	0	23	104	0	79	24960
2026-01-08 03:22:51.79	39.73	2.61	-57.4	-73.4	3.8	1.49e+00	0	23	104	0	79	24887
2026-01-08 03:22:52.79	39.68	2.67	-57.4	-73.5	3.8	1.49e+00	0	23	104	0	79	24979
2026-01-08 03:22:53.79	39.63	2.74	-57.4	-73.4	3.8	1.49e+00	0	23	104	0	79	24974
2026-01-08 03:22:54.79	39.57	2.80	-57.4	-73.5	3.8	1.49e+00	0	23	104	0	79	25014
2026-01-08 03:22:55.79	39.52	2.86	-57.4	-73.4	3.8	1.49e+00	0	23	104	0	79	24949
2026-01-08 03:22:56.79	39.46	2.92	-57.4	-73.4	3.8	1.49e+00	0	23	104	0	79	24971
2026-01-08 03:22:57.78	39.41	2.98	-57.4	-73.4	3.8	1.49e+00	0	23	104	0	79	24918
2026-01-08 03:22:58.78	39.35	3.04	-57.4	-73.4	3.8	1.49e+00	0	23	104	0	79	24918
2026-01-08 03:22:59.77	39.30	3.10	-57.4	-73.4	3.8	1.49e+00	0	23	104	0	79	24893
2026-01-08 03:23:00.77	39.24	3.16	-57.4	-73.4	3.8	1.49e+00	0	23	104	0	79	24726
2026-01-08 03:23:01.77	39.19	3.22	-57.4	-73.3	3.8	1.49e+00	0	23	104	0	79	24670
2026-01-08 03:23:02.76	39.13	3.28	-57.4	-73.3	3.8	1.49e+00	0	23	104	0	79	24610
2026-01-08 03:23:03.76	39.08	3.34	-57.4	-73.3	3.8	1.49e+00	0	23	104	0	79	24599
2026-01-08 03:23:04.76	39.02	3.41	-57.4	-73.3	3.8	1.49e+00	0	23	104	0	79	24682
2026-01-08 03:23:05.76	38.96	3.47	-57.4	-73.4	3.8	1.49e+00	0	23	104	0	79	24821
2026-01-08 03:23:06.75	38.91	3.53	-57.4	-73.4	3.8	1.49e+00	0	23	104	0	79	24803
2026-01-08 03:23:07.76	38.85	3.59	-57.4	-73.4	3.8	1.49e+00	0	23	104	0	79	24898
2026-01-08 03:23:08.76	38.79	3.65	-57.4	-73.4	3.8	1.49e+00	0	23	104	0	79	24948
2026-01-08 03:23:09.76	38.74	3.72	-57.4	-73.4	3.8	1.49e+00	0	23	104	0	79	24876
2026-01-08 03:23:10.76	38.68	3.78	-57.4	-73.4	3.8	1.49e+00	0	23	104	0	79	24955
2026-01-08 03:23:11.76	38.62	3.84	-57.4	-73.4	3.8	1.49e+00	0	23	104	0	79	24916
2026-01-08 03:23:12.77	38.56	3.90	-57.4	-73.4	3.8	1.49e+00	0	23	104	0	79	24829
2026-01-08 03:23:13.78	38.50	3.97	-57.4	-73.4	3.8	1.49e+00	0	23	104	0	79	24828
2026-01-08 03:23:14.78	38.44	4.03	-57.4	-73.4	3.8	1.49e+00	0	23	104	0	79	24907
2026-01-08 03:23:15.78	38.38	4.09	-57.4	-73.4	3.8	1.49e+00	0	23	104	0	79	24900
2026-01-08 03:23:16.77	38.32	4.16	-57.4	-73.4	3.8	1.49e+00	0	23	104	0	79	24714
2026-01-08 03:23:17.77	38.26	4.22	-57.4	-73.2	3.8	1.49e+00	0	23	104	0	79	24245
2026-01-08 03:23:18.78	38.20	4.28	-57.4	-72.9	3.9	1.49e+00	0	23	104	0	79	23475
2026-01-08 03:23:19.78	38.14	4.35	-57.4	-72.5	3.8	1.49e+00	0	23	104	0	79	22444
2026-01-08 03:23:20.78	38.08	4.41	-57.3	-72.2	3.8	1.49e+00	0	24	104	0	79	21679
2026-01-08 03:23:21.78	38.02	4.47	-57.3	-71.8	3.8	1.49e+00	0	23	104	0	79	20741
2026-01-08 03:23:22.78	37.96	4.54	-57.3	-71.4	3.8	1.49e+00	0	24	104	0	79	19737
2026-01-08 03:23:23.78	37.90	4.60	-57.3	-70.7	4.0	1.49e+00	0	24	0	0	79	18264
2026-01-08 03:23:24.78	37.84	4.66	-57.2	-70.1	4.1	1.44e+00	0	24	0	0	79	17046
2026-01-08 03:23:25.78	37.77	4.73	-57.2	-69.4	4.3	1.35e+00	90	24	0	0	79	15621
2026-01-08 03:23:26.78	37.71	4.79	-57.1	-68.8	4.5	1.14e+00	0	24	0	1048576	79	14611
2026-01-08 03:23:27.78	37.65	4.86	-57.1	-67.8	5.0	8.65e-01	0	24	0	3145728	79	13039
2026-01-08 03:23:28.78	37.59	4.92	-57.0	-67.0	5.4	5.59e-01	0	24	0	5242880	79	11850
2026-01-08 03:23:29.78	37.52	4.99	-56.9	-66.4	5.7	4.24e-01	0	24	0	7340032	79	11122
2026-01-08 03:23:30.78	37.46	5.05	-56.8	-65.7	6.2	3.06e-01	0	24	0	8388608	79	10215
2026-01-08 03:23:31.78	37.40	5.12	-57.2	-69.7	4.3	7.26e-01	70	24	0	10485760	79	16264
2026-01-08 03:23:32.78	37.33	5.18	-57.3	-69.5	4.3	1.36e+00	92	24	0	10485760	79	15789
2026-01-08 03:23:33.78	37.27	5.25	-56.7	-65.2	6.7	6.35e-01	0	24	0	12582912	79	9607
2026-01-08 03:23:34.78	37.20	5.31	-55.0	-59.5	11.3	2.07e-01	0	24	0	14680064	76	5987
2026-01-08 03:23:35.78	37.14	5.38	-57.1	-68.6	4.7	1.35e-01	0	24	0	16777216	79	14296
2026-01-08 03:23:36.78	37.07	5.44	-55.5	-60.6	10.4	9.59e-01	0	24	0	16777216	77	6360
2026-01-08 03:23:37.78	37.01	5.51	-54.5	-58.5	12.0	1.90e-05	0	24	0	18874368	75	5636
2026-01-08 03:23:38.77	36.94	5.57	-54.6	-58.7	11.9	5.30e-06	0	24	0	19922944	75	5776
2026-01-08 03:23:39.77	36.88	5.64	-54.4	-58.3	12.2	5.30e-06	0	24	0	22020096	75	5491
2026-01-08 03:23:40.77	36.81	5.70	-54.4	-58.3	12.3	3.80e-06	0	24	0	24117248	75	5513
2026-01-08 03:23:41.78	36.74	5.77	-54.3	-58.2	12.4	3.80e-06	0	24	0	26214400	75	5408
2026-01-08 03:23:42.78	36.67	5.84	-54.0	-57.6	12.6	7.00e-07	0	24	0	27262976	74	5396
2026-01-08 03:23:43.78	36.61	5.90	-54.1	-57.6	12.6	0.00e+00	0	24	0	29360128	74	5392
2026-01-08 03:23:44.78	36.54	5.97	-53.7	-57.0	13.1	0.00e+00	0	24	0	31457280	74	5024
2026-01-08 03:23:45.78	36.47	6.04	-53.5	-56.7	13.2	0.00e+00	0	24	0	33554432	73	5138
2026-01-08 03:23:46.77	36.40	6.10	-53.7	-57.0	12.9	0.00e+00	0	24	0	35651584	73	5334
2026-01-08 03:23:47.78	36.33	6.17	-53.5	-56.7	13.2	0.00e+00	0	24	0	36700160	73	5139
2026-01-08 03:23:48.77	36.26	6.24	-53.5	-56.7	13.2	0.00e+00	0	24	0	38797312	73	5144
2026-01-08 03:23:49.77	36.19	6.30	-53.4	-56.6	13.3	0.00e+00	0	24	0	40894464	73	5073
2026-01-08 03:23:50.77	36.12	6.37	-53.2	-56.2	13.5	0.00e+00	0	24	0	42991616	73	4852
2026-01-08 03:23:51.77	36.05	6.44	-53.3	-56.3	13.3	0.00e+00	0	24	0	45088768	72	5213
2026-01-08 03:23:52.77	35.98	6.50	-53.2	-56.2	13.4	0.00e+00	0	24	0	46137344	72	5144
2026-01-08 03:23:53.77	35.91	6.57	-53.2	-56.2	13.5	0.00e+00	0	24	0	48234496	72	5125
2026-01-08 03:23:54.77	35.84	6.64	-53.2	-56.2	13.4	0.00e+00	0	24	0	50331648	72	5137
2026-01-08 03:23:55.77	35.77	6.71	-53.0	-55.9	13.6	0.00e+00	0	24	0	52428800	72	4963
2026-01-08 03:23:56.77	35.70	6.78	-53.2	-56.2	13.4	0.00e+00	0	24	0	54525952	72	5138
2026-01-08 03:23:57.76	35.63	6.84	-53.0	-55.9	13.6	0.00e+00	0	24	0	55574528	72	4960
2026-01-08 03:23:58.75	35.55	6.91	-53.1	-56.0	13.6	0.00e+00	0	24	0	57671680	72	5016
2026-01-08 03:23:59.75	35.48	6.98	-53.2	-56.3	13.4	0.00e+00	0	24	0	59768832	72	5195
2026-01-08 03:24:00.73	35.41	7.05	-53.2	-56.2	13.5	0.00e+00	0	24	0	61865984	72	5115
2026-01-08 03:24:01.73	35.34	7.12	-53.0	-55.9	13.7	0.00e+00	0	24	0	62914560	72	4963
2026-01-08 03:24:02.73	35.26	7.18	-53.0	-55.9	13.6	0.00e+00	0	24	0	65011712	72	4967
2026-01-08 03:24:03.72	35.19	7.25	-53.0	-55.9	13.7	0.00e+00	0	24	0	67108864	72	4955
2026-01-08 03:24:04.72	35.11	7.32	-53.0	-55.9	13.7	0.00e+00	0	24	0	69206016	72	4929
2026-01-08 03:24:05.70	35.04	7.39	-53.0	-56.0	13.6	0.00e+00	0	24	0	71303168	72	4987
2026-01-08 03:24:06.71	34.96	7.46	-53.0	-56.0	13.6	0.00e+00	0	24	0	72351744	72	5007
2026-01-08 03:24:07.71	34.89	7.53	-53.1	-56.1	13.5	0.00e+00	0	24	0	74448896	72	5098
2026-01-08 03:24:08.71	34.81	7.60	-53.1	-56.0	13.6	0.00e+00	0	24	0	76546048	72	5041
2026-01-08 03:24:09.71	34.73	7.67	-53.0	-55.9	13.6	0.00e+00	0	24	0	78643200	72	4975
2026-01-08 03:24:10.71	34.66	7.74	-53.1	-56.1	13.6	0.00e+00	0	24	0	79691776	72	5052
2026-01-08 03:24:11.71	34.58	7.81	-53.3	-56.3	13.4	0.00e+00	0	24	0	81788928	72	5215
2026-01-08 03:24:12.70	34.50	7.88	-53.2	-56.2	13.5	0.00e+00	0	24	0	83886080	72	5151
2026-01-08 03:24:13.70	34.42	7.95	-53.1	-56.1	13.5	0.00e+00	0	24	0	85983232	72	5067
2026-01-08 03:24:14.70	34.35	8.02	-53.2	-56.2	13.4	0.00e+00	0	24	0	88080384	72	5143
2026-01-08 03:24:15.70	34.27	8.09	-53.3	-56.5	13.3	0.00e+00	0	24	0	89128960	72	5303
2026-01-08 03:24:16.70	34.19	8.16	-53.1	-56.0	13.6	0.00e+00	0	24	0	91226112	72	5013
2026-01-08 03:24:17.70	34.11	8.23	-53.1	-56.0	13.6	0.00e+00	0	24	0	93323264	72	5026
2026-01-08 03:24:18.69	34.03	8.30	-53.1	-56.0	13.6	0.00e+00	0	24	0	95420416	72	5012
2026-01-08 03:24:19.68	33.95	8.37	-53.2	-56.1	13.6	0.00e+00	0	24	0	96468992	72	5051
2026-01-08 03:24:20.68	33.87	8.44	-53.0	-55.8	13.8	0.00e+00	0	24	0	98566144	72	4871
2026-01-08 03:24:21.69	33.78	8.52	-53.0	-55.8	13.8	0.00e+00	0	24	0	100663296	72	4893
2026-01-08 03:24:22.69	33.70	8.59	-53.0	-55.7	13.8	0.00e+00	0	24	0	102760448	72	4861
2026-01-08 03:24:23.69	33.62	8.66	-53.3	-56.2	13.5	0.00e+00	0	24	0	104857600	72	5144
2026-01-08 03:24:24.69	33.54	8.73	-53.0	-55.8	13.8	0.00e+00	0	24	0	105906176	72	4891
2026-01-08 03:24:25.69	33.45	8.80	-52.9	-55.7	13.9	0.00e+00	0	24	0	108003328	72	4838
2026-01-08 03:24:26.69	33.37	8.88	-52.9	-55.6	13.9	0.00e+00	0	24	0	110100480	72	4776
2026-01-08 03:24:27.69	33.29	8.95	-52.9	-55.7	13.8	0.00e+00	0	24	0	112197632	72	4833
2026-01-08 03:24:28.68	33.20	9.02	-53.0	-55.8	13.8	0.00e+00	0	24	0	114294784	72	4898
2026-01-08 03:24:29.68	33.12	9.09	-52.9	-55.6	13.9	0.00e+00	0	24	0	115343360	72	4812
2026-01-08 03:24:30.68	33.03	9.17	-53.1	-55.9	13.7	0.00e+00	0	24	0	117440512	72	4941
2026-01-08 03:24:31.67	32.95	9.24	-53.0	-55.8	13.8	0.00e+00	0	24	0	119537664	72	4904
2026-01-08 03:24:32.67	32.86	9.31	-52.9	-55.5	14.0	0.00e+00	0	24	0	121634816	72	4743
2026-01-08 03:24:33.66	32.77	9.38	-52.8	-55.4	14.0	0.00e+00	0	24	0	122683392	72	4682
2026-01-08 03:24:34.66	32.69	9.46	-52.8	-55.5	14.0	0.00e+00	0	24	0	124780544	72	4731
2026-01-08 03:24:35.67	32.60	9.53	-52.6	-55.3	14.0	0.00e+00	0	24	0	126877696	71	4879
2026-01-08 03:24:36.67	32.51	9.61	-52.6	-55.2	14.0	0.00e+00	0	24	0	128974848	71	4860
2026-01-08 03:24:37.67	32.42	9.68	-52.7	-55.3	13.9	0.00e+00	0	24	0	131072000	71	4916
2026-01-08 03:24:38.67	32.33	9.75	-52.6	-55.3	14.0	0.00e+00	0	24	0	132120576	71	4874
2026-01-08 03:24:39.66	32.24	9.83	-52.7	-55.4	13.9	0.00e+00	0	24	0	134217728	71	4927
2026-01-08 03:24:40.66	32.15	9.90	-52.7	-55.3	14.0	0.00e+00	0	24	0	136314880	71	4909
2026-01-08 03:24:41.66	32.06	9.98	-52.6	-55.3	13.9	0.00e+00	0	24	0	138412032	71	4893
2026-01-08 03:24:42.66	31.97	10.05	-52.6	-55.3	14.0	0.00e+00	0	24	0	140509184	71	4886
2026-01-08 03:24:43.66	31.88	10.13	-52.8	-55.6	13.8	0.00e+00	0	24	0	141557760	71	5050
2026-01-08 03:24:44.66	31.79	10.20	-52.7	-55.5	13.9	0.00e+00	0	24	0	143654912	71	4993
2026-01-08 03:24:45.66	31.70	10.28	-52.7	-55.4	13.9	0.00e+00	0	24	0	145752064	71	4934
2026-01-08 03:24:46.66	31.60	10.35	-52.5	-55.1	14.1	0.00e+00	0	24	0	147849216	71	4764
2026-01-08 03:24:47.67	31.51	10.43	-52.4	-55.0	14.2	0.00e+00	0	24	0	149946368	71	4717
2026-01-08 03:24:48.67	31.42	10.50	-52.4	-54.9	14.2	0.00e+00	0	24	0	150994944	71	4662
2026-01-08 03:24:49.67	31.32	10.58	-52.3	-54.8	14.3	0.00e+00	0	24	0	153092096	71	4628
2026-01-08 03:24:50.67	31.23	10.65	-52.5	-55.0	14.2	0.00e+00	0	24	0	155189248	71	4729
2026-01-08 03:24:51.66	31.13	10.73	-52.3	-54.8	14.3	0.00e+00	0	24	0	157286400	71	4644
2026-01-08 03:24:52.66	31.04	10.81	-52.5	-55.0	14.1	0.00e+00	0	24	0	158334976	71	4725
2026-01-08 03:24:53.66	30.94	10.88	-52.5	-54.9	14.1	0.00e+00	0	24	0	160432128	71	4699
2026-01-08 03:24:54.65	30.84	10.96	-52.5	-55.0	14.2	0.00e+00	0	24	0	162529280	71	4708
2026-01-08 03:24:55.65	30.75	11.03	-52.6	-55.1	14.1	0.00e+00	0	24	0	164626432	71	4797
2026-01-08 03:24:56.64	30.65	11.11	-52.4	-54.8	14.2	0.00e+00	0	24	0	166723584	71	4646
2026-01-08 03:24:57.64	30.55	11.19	-52.4	-54.8	14.2	0.00e+00	0	24	0	167772160	71	4620
2026-01-08 03:24:58.64	30.45	11.26	-52.6	-55.0	14.1	0.00e+00	0	24	0	169869312	71	4727
2026-01-08 03:24:59.63	30.35	11.34	-52.5	-54.9	14.2	0.00e+00	0	24	0	171966464	71	4696
2026-01-08 03:25:00.63	30.25	11.42	-52.4	-54.7	14.3	0.00e+00	0	24	0	174063616	71	4580
2026-01-08 03:25:01.62	30.15	11.50	-52.3	-54.7	14.3	0.00e+00	0	24	0	175112192	71	4564
2026-01-08 03:25:02.62	30.05	11.57	-52.3	-54.7	14.3	0.00e+00	0	24	0	177209344	71	4550
2026-01-08 03:25:03.62	29.95	11.65	-52.3	-54.6	14.3	0.00e+00	0	24	0	179306496	71	4544
2026-01-08 03:25:04.61	29.85	11.73	-52.4	-54.7	14.3	0.00e+00	0	24	0	181403648	71	4592
2026-01-08 03:25:05.61	29.74	11.81	-52.5	-54.8	14.2	0.00e+00	0	24	0	183500800	71	4645
2026-01-08 03:25:06.61	29.64	11.89	-52.4	-54.8	14.2	0.00e+00	0	24	0	184549376	71	4635
2026-01-08 03:25:07.62	29.54	11.96	-52.4	-54.7	14.3	0.00e+00	0	24	0	186646528	71	4584
2026-01-08 03:25:08.62	29.43	12.04	-52.3	-54.6	14.3	0.00e+00	0	24	0	188743680	71	4540
2026-01-08 03:25:09.62	29.33	12.12	-52.4	-54.8	14.3	0.00e+00	0	24	0	190840832	71	4612
2026-01-08 03:25:10.62	29.22	12.20	-52.3	-54.6	14.4	0.00e+00	0	24	0	192937984	71	4538
2026-01-08 03:25:11.62	29.11	12.28	-52.4	-54.7	14.3	0.00e+00	0	24	0	193986560	71	4571
2026-01-08 03:25:12.61	29.01	12.36	-52.3	-54.7	14.3	0.00e+00	0	25	0	196083712	71	4568
2026-01-08 03:25:13.61	28.90	12.44	-52.4	-54.8	14.3	0.00e+00	0	24	0	198180864	71	4606
2026-01-08 03:25:14.61	28.79	12.52	-52.3	-54.7	14.3	0.00e+00	0	24	0	200278016	71	4564
2026-01-08 03:25:15.60	28.68	12.60	-52.3	-54.6	14.4	0.00e+00	0	25	0	202375168	71	4535
2026-01-08 03:25:16.60	28.57	12.68	-52.4	-54.7	14.3	0.00e+00	0	24	0	203423744	71	4593
2026-01-08 03:25:17.60	28.46	12.76	-52.4	-54.8	14.2	0.00e+00	0	24	0	205520896	71	4644
2026-01-08 03:25:18.59	28.35	12.84	-52.5	-55.0	14.2	0.00e+00	0	24	0	207618048	71	4717
2026-01-08 03:25:19.59	28.24	12.92	-52.4	-54.8	14.3	0.00e+00	0	24	0	209715200	71	4604
2026-01-08 03:25:20.60	28.13	13.00	-52.6	-55.2	14.0	0.00e+00	0	24	0	210763776	71	4819
2026-01-08 03:25:21.59	28.02	13.08	-52.7	-55.2	14.0	0.00e+00	0	24	0	212860928	71	4832
2026-01-08 03:25:22.60	27.90	13.16	-52.7	-55.2	14.0	0.00e+00	0	24	0	214958080	71	4846
2026-01-08 03:25:23.60	27.79	13.24	-52.6	-55.1	14.1	0.00e+00	0	24	0	217055232	71	4774
2026-01-08 03:25:24.60	27.68	13.32	-52.6	-55.1	14.1	0.00e+00	0	25	0	219152384	71	4790
2026-01-08 03:25:25.60	27.56	13.40	-52.4	-54.8	14.3	0.00e+00	0	25	0	220200960	71	4626
2026-01-08 03:25:26.60	27.44	13.49	-52.5	-55.0	14.1	0.00e+00	0	24	0	222298112	71	4759
2026-01-08 03:25:27.61	27.33	13.57	-52.4	-54.9	14.2	0.00e+00	0	24	0	224395264	71	4662
2026-01-08 03:25:28.60	27.21	13.65	-52.5	-55.1	14.1	0.00e+00	0	24	0	226492416	71	4772
2026-01-08 03:25:29.59	27.09	13.73	-52.7	-55.3	14.0	0.00e+00	0	24	0	228589568	71	4880
2026-01-08 03:25:30.59	26.98	13.81	-52.6	-55.1	14.1	0.00e+00	0	24	0	229638144	71	4789
2026-01-08 03:25:31.59	26.86	13.89	-52.5	-55.0	14.1	0.00e+00	0	24	0	231735296	71	4749
2026-01-08 03:25:32.59	26.74	13.98	-52.4	-54.9	14.2	0.00e+00	0	24	0	233832448	71	4676
2026-01-08 03:25:33.59	26.62	14.06	-52.6	-55.1	14.1	0.00e+00	0	24	0	235929600	71	4785
2026-01-08 03:25:34.58	26.50	14.14	-52.6	-55.1	14.1	0.00e+00	0	24	0	236978176	71	4764
2026-01-08 03:25:35.58	26.37	14.22	-52.5	-55.0	14.1	0.00e+00	0	24	0	239075328	71	4706
2026-01-08 03:25:36.58	26.25	14.31	-52.9	-55.4	13.9	0.00e+00	0	24	0	241172480	71	4968
2026-01-08 03:25:37.57	26.13	14.39	-52.6	-54.9	14.2	0.00e+00	0	24	0	243269632	71	4693
2026-01-08 03:25:38.57	26.01	14.47	-52.2	-54.4	14.4	0.00e+00	0	24	0	245366784	70	4704
2026-01-08 03:25:39.57	25.88	14.56	-52.3	-54.5	14.3	0.00e+00	0	24	0	246415360	70	4752
2026-01-08 03:25:40.56	25.76	14.64	-52.1	-54.3	14.4	0.00e+00	0	25	0	248512512	70	4612
2026-01-08 03:25:41.56	25.63	14.72	-52.0	-54.1	14.5	0.00e+00	0	24	0	250609664	70	4540
2026-01-08 03:25:42.56	25.50	14.81	-52.0	-54.1	14.5	0.00e+00	0	24	0	252706816	70	4526
2026-01-08 03:25:43.56	25.38	14.89	-51.7	-53.7	14.7	0.00e+00	0	25	0	253755392	70	4319
2026-01-08 03:25:44.56	25.25	14.97	-51.9	-54.0	14.4	0.00e+00	0	24	0	255852544	69	4739
2026-01-08 03:25:45.56	25.12	15.06	-52.1	-54.3	14.3	0.00e+00	0	25	0	257949696	69	4882
2026-01-08 03:25:46.55	24.99	15.14	-52.0	-54.2	14.3	0.00e+00	0	25	0	260046848	69	4850
2026-01-08 03:25:47.55	24.86	15.23	-52.2	-54.4	14.2	0.00e+00	0	24	0	262144000	69	4964
2026-01-08 03:25:48.56	24.73	15.31	-52.2	-54.5	14.2	0.00e+00	0	24	0	263192576	69	5007
2026-01-08 03:25:49.55	24.59	15.40	-52.1	-54.4	14.2	0.00e+00	0	25	0	265289728	69	4942
2026-01-08 03:25:50.54	24.46	15.48	-52.4	-54.7	14.1	0.00e+00	0	24	0	267386880	69	5144
2026-01-08 03:25:51.54	24.33	15.57	-52.4	-54.7	14.2	0.00e+00	0	24	0	269484032	70	4845
2026-01-08 03:25:52.54	24.20	15.65	-52.8	-55.3	13.9	0.00e+00	0	24	0	271581184	70	5211
2026-01-08 03:25:53.54	24.06	15.74	-52.8	-55.3	13.9	0.00e+00	0	24	0	272629760	70	5201
2026-01-08 03:25:54.54	23.92	15.82	-52.8	-55.3	13.9	0.00e+00	0	24	0	274726912	70	5183
2026-01-08 03:25:55.54	23.79	15.91	-53.0	-55.6	13.8	0.00e+00	0	25	0	276824064	71	5082
2026-01-08 03:25:56.54	23.65	15.99	-52.9	-55.5	13.9	0.00e+00	0	24	0	278921216	71	5017
2026-01-08 03:25:57.55	23.51	16.08	-52.8	-55.3	14.0	0.00e+00	0	25	0	281018368	71	4886
2026-01-08 03:25:58.55	23.37	16.17	-52.7	-55.2	14.1	0.00e+00	0	25	0	282066944	71	4854
2026-01-08 03:25:59.55	23.23	16.25	-52.4	-54.7	14.3	0.00e+00	0	24	0	284164096	71	4583
2026-01-08 03:26:00.54	23.09	16.34	-52.7	-55.2	14.1	0.00e+00	0	25	0	286261248	71	4831
2026-01-08 03:26:01.54	22.95	16.43	-52.7	-55.2	14.1	0.00e+00	0	25	0	288358400	71	4859
2026-01-08 03:26:02.54	22.81	16.51	-52.6	-55.1	14.1	0.00e+00	0	25	0	289406976	71	4789
2026-01-08 03:26:03.53	22.66	16.60	-52.8	-55.3	14.0	0.00e+00	0	24	0	291504128	71	4879
2026-01-08 03:26:04.54	22.52	16.69	-52.5	-54.9	14.2	0.00e+00	0	25	0	293601280	71	4681
2026-01-08 03:26:05.54	22.37	16.77	-52.2	-54.5	14.3	0.00e+00	0	24	0	295698432	70	4714
2026-01-08 03:26:06.53	22.23	16.86	-52.3	-54.6	14.3	0.00e+00	0	25	0	297795584	70	4778
2026-01-08 03:26:07.53	22.08	16.95	-52.1	-54.4	14.4	0.00e+00	0	24	0	298844160	70	4668
2026-01-08 03:26:08.51	21.94	17.03	-52.0	-54.2	14.5	0.00e+00	0	25	0	300941312	70	4598
2026-01-08 03:26:09.51	21.79	17.12	-52.0	-54.2	14.5	0.00e+00	0	24	0	303038464	70	4579
2026-01-08 03:26:10.51	21.64	17.21	-51.8	-53.9	14.5	0.00e+00	0	24	0	305135616	69	4680
2026-01-08 03:26:11.50	21.49	17.29	-51.7	-53.9	14.5	0.00e+00	0	24	0	306184192	69	4659
2026-01-08 03:26:12.50	21.34	17.38	-51.8	-54.0	14.4	0.00e+00	0	25	0	308281344	69	4731
2026-01-08 03:26:13.50	21.19	17.47	-51.7	-53.9	14.5	0.00e+00	0	25	0	310378496	69	4662
2026-01-08 03:26:14.49	21.03	17.56	-51.8	-54.0	14.4	0.00e+00	0	24	0	312475648	69	4754
2026-01-08 03:26:15.50	20.88	17.65	-51.8	-54.0	14.5	0.00e+00	0	24	0	314572800	69	4724
2026-01-08 03:26:16.49	20.73	17.73	-51.7	-53.8	14.5	0.00e+00	0	25	0	315621376	69	4626
2026-01-08 03:26:17.49	20.57	17.82	-51.9	-54.0	14.5	0.00e+00	0	24	0	317718528	69	4718
2026-01-08 03:26:18.50	20.41	17.91	-51.8	-53.9	14.5	0.00e+00	0	25	0	319815680	69	4694
2026-01-08 03:26:19.49	20.25	18.00	-51.8	-53.9	14.5	0.00e+00	0	24	0	321912832	69	4653
2026-01-08 03:26:20.49	20.10	18.09	-51.6	-53.6	14.7	0.00e+00	0	24	0	324009984	69	4514
2026-01-08 03:26:21.49	19.94	18.17	-51.6	-53.7	14.6	0.00e+00	0	24	0	325058560	69	4548
2026-01-08 03:26:22.49	19.78	18.26	-51.7	-53.7	14.6	0.00e+00	0	24	0	327155712	69	4583
2026-01-08 03:26:23.49	19.61	18.35	-51.8	-53.9	14.6	0.00e+00	0	25	0	329252864	69	4654
2026-01-08 03:26:24.49	19.45	18.44	-52.0	-54.1	14.4	0.00e+00	0	25	0	331350016	69	4789
2026-01-08 03:26:25.49	19.29	18.53	-52.1	-54.2	14.4	0.00e+00	0	25	0	333447168	69	4860
2026-01-08 03:26:26.49	19.12	18.62	-51.9	-54.1	14.4	0.00e+00	0	25	0	334495744	69	4778
2026-01-08 03:26:27.48	18.96	18.71	-51.8	-54.0	14.5	0.00e+00	0	25	0	336592896	69	4709
2026-01-08 03:26:28.49	18.79	18.80	-51.9	-54.1	14.4	0.00e+00	0	24	0	338690048	69	4790
2026-01-08 03:26:29.49	18.62	18.89	-51.9	-54.1	14.4	0.00e+00	0	25	0	340787200	69	4761
2026-01-08 03:26:30.49	18.46	18.98	-52.0	-54.2	14.3	0.00e+00	0	25	0	341835776	69	4869
2026-01-08 03:26:31.49	18.29	19.07	-52.2	-54.5	14.2	0.00e+00	0	24	0	343932928	69	4999
2026-01-08 03:26:32.48	18.12	19.15	-52.1	-54.4	14.2	0.00e+00	0	24	0	346030080	69	4974
2026-01-08 03:26:33.48	17.95	19.24	-52.2	-54.5	14.2	0.00e+00	0	24	0	348127232	69	5007
2026-01-08 03:26:34.48	17.77	19.33	-52.0	-54.4	14.3	0.00e+00	0	25	0	350224384	69	4939
2026-01-08 03:26:35.48	17.60	19.42	-51.8	-54.0	14.4	0.00e+00	0	24	0	351272960	69	4744
2026-01-08 03:26:36.48	17.43	19.51	-51.6	-53.8	14.6	0.00e+00	0	25	0	353370112	69	4608
2026-01-08 03:26:37.48	17.25	19.60	-51.5	-53.5	14.7	0.00e+00	0	24	0	355467264	69	4482
2026-01-08 03:26:38.48	17.07	19.69	-51.4	-53.4	14.8	0.00e+00	0	24	0	357564416	69	4397
2026-01-08 03:26:39.49	16.89	19.78	-51.3	-53.3	14.7	0.00e+00	0	25	0	358612992	68	4603
2026-01-08 03:26:40.48	16.72	19.87	-51.1	-53.1	14.7	0.00e+00	0	25	0	360710144	68	4523
2026-01-08 03:26:41.48	16.54	19.96	-51.1	-53.0	14.8	0.00e+00	0	25	0	362807296	68	4475
2026-01-08 03:26:42.47	16.36	20.05	-51.3	-53.2	14.7	0.00e+00	0	24	0	364904448	68	4598
2026-01-08 03:26:43.47	16.18	20.14	-51.4	-53.4	14.6	0.00e+00	0	25	0	367001600	68	4696
2026-01-08 03:26:44.47	15.99	20.23	-51.5	-53.6	14.5	0.00e+00	0	25	0	368050176	68	4780
2026-01-08 03:26:45.46	15.81	20.32	-51.5	-53.6	14.5	0.00e+00	0	25	0	370147328	68	4804
2026-01-08 03:26:46.46	15.63	20.41	-51.7	-53.8	14.4	0.00e+00	0	24	0	372244480	68	4901
2026-01-08 03:26:47.46	15.44	20.50	-51.8	-54.0	14.4	0.00e+00	0	24	0	374341632	68	4998
2026-01-08 03:26:48.46	15.25	20.59	-52.1	-54.4	14.3	0.00e+00	0	25	0	376438784	69	4931
2026-01-08 03:26:49.47	15.06	20.68	-52.3	-54.7	14.1	0.00e+00	0	25	0	377487360	69	5115
2026-01-08 03:26:50.46	14.87	20.77	-52.6	-55.0	14.1	0.00e+00	0	25	0	379584512	70	4993
2026-01-08 03:26:51.46	14.68	20.86	-52.8	-55.2	14.0	0.00e+00	0	24	0	381681664	70	5158
2026-01-08 03:26:52.45	14.49	20.95	-52.6	-54.9	14.1	0.00e+00	0	24	0	383778816	70	4983
2026-01-08 03:26:53.44	14.30	21.03	-52.3	-54.5	14.4	0.00e+00	0	25	0	384827392	70	4715
2026-01-08 03:26:54.43	14.11	21.12	-52.1	-54.2	14.5	0.00e+00	0	24	0	386924544	70	4588
2026-01-08 03:26:55.43	13.91	21.21	-52.0	-54.1	14.6	0.00e+00	0	25	0	389021696	70	4521
2026-01-08 03:26:56.42	13.72	21.30	-52.0	-54.1	14.6	0.00e+00	0	24	0	391118848	70	4530
2026-01-08 03:26:57.43	13.52	21.39	-51.9	-54.0	14.7	0.00e+00	0	25	0	393216000	70	4449
2026-01-08 03:26:58.43	13.32	21.48	-52.0	-54.1	14.6	0.00e+00	0	24	0	394264576	70	4519
2026-01-08 03:26:59.42	13.12	21.57	-51.9	-54.1	14.6	0.00e+00	0	25	0	396361728	70	4497
2026-01-08 03:27:00.42	12.92	21.66	-51.9	-54.0	14.7	0.00e+00	0	25	0	398458880	70	4445
2026-01-08 03:27:01.42	12.72	21.75	-52.0	-54.1	14.6	0.00e+00	0	24	0	400556032	70	4542
2026-01-08 03:27:02.41	12.52	21.84	-52.0	-54.1	14.6	0.00e+00	0	24	0	401604608	70	4534
2026-01-08 03:27:03.40	12.32	21.93	-52.0	-54.0	14.5	0.00e+00	0	24	0	403701760	70	4490
2026-01-08 03:27:04.39	12.11	22.01	-52.0	-54.1	14.6	0.00e+00	0	24	0	405798912	70	4497
2026-01-08 03:27:05.39	11.90	22.10	-52.0	-54.1	14.5	0.00e+00	0	24	0	407896064	70	4533
2026-01-08 03:27:06.38	11.70	22.19	-52.5	-54.8	14.3	0.00e+00	0	25	0	409993216	70	4876
2026-01-08 03:27:07.38	11.49	22.28	-52.2	-54.4	14.4	0.00e+00	0	25	0	411041792	70	4656
2026-01-08 03:27:08.38	11.28	22.37	-52.1	-54.2	14.5	0.00e+00	0	25	0	413138944	70	4596
2026-01-08 03:27:09.39	11.06	22.46	-52.1	-54.2	14.5	0.00e+00	0	24	0	415236096	70	4562
2026-01-08 03:27:10.38	10.85	22.55	-51.8	-53.9	14.7	0.00e+00	0	25	0	417333248	70	4396
2026-01-08 03:27:11.37	10.64	22.63	-52.0	-54.0	14.6	0.00e+00	0	25	0	418381824	70	4476
2026-01-08 03:27:12.37	10.43	22.72	-52.2	-54.3	14.5	0.00e+00	0	25	0	420478976	70	4635
2026-01-08 03:27:13.37	10.21	22.81	-52.2	-54.4	14.5	0.00e+00	0	24	0	422576128	70	4659
2026-01-08 03:27:14.37	9.99	22.90	-52.6	-54.9	14.2	0.00e+00	0	24	0	424673280	70	4963
2026-01-08 03:27:15.37	9.77	22.99	-52.6	-54.9	14.2	0.00e+00	0	24	0	426770432	70	4934
2026-01-08 03:27:16.35	9.55	23.07	-52.5	-54.8	14.2	0.00e+00	0	24	0	427819008	70	4876
2026-01-08 03:27:17.35	9.33	23.16	-52.2	-54.2	14.5	0.00e+00	0	24	0	429916160	70	4579
2026-01-08 03:27:18.35	9.11	23.25	-52.0	-54.1	14.6	0.00e+00	0	25	0	432013312	70	4496
2026-01-08 03:27:19.34	8.89	23.33	-51.9	-53.9	14.7	0.00e+00	0	24	0	434110464	70	4427
2026-01-08 03:27:20.33	8.66	23.42	-51.5	-53.4	14.8	0.00e+00	0	24	0	435159040	69	4397
2026-01-08 03:27:21.33	8.44	23.51	-51.5	-53.5	14.7	0.00e+00	0	24	0	437256192	69	4453
2026-01-08 03:27:22.33	8.21	23.59	-51.4	-53.3	14.8	0.00e+00	0	25	0	439353344	69	4355
2026-01-08 03:27:23.32	7.98	23.68	-51.3	-53.1	14.9	0.00e+00	0	24	0	441450496	69	4290
2026-01-08 03:27:24.31	7.75	23.76	-51.0	-52.8	14.9	0.00e+00	0	25	0	443547648	68	4381
2026-01-08 03:27:25.31	7.52	23.85	-51.0	-52.7	14.9	0.00e+00	0	24	0	444596224	68	4336
2026-01-08 03:27:26.31	7.29	23.93	-50.3	-51.9	15.1	0.00e+00	0	25	0	446693376	67	4164
2026-01-08 03:27:27.30	7.06	24.02	-50.0	-51.6	15.1	0.00e+00	0	25	0	448790528	66	4272
2026-01-08 03:27:28.30	6.82	24.10	-50.3	-52.0	14.9	0.00e+00	0	24	0	450887680	66	4480
2026-01-08 03:27:29.30	6.58	24.19	-50.6	-52.4	14.8	0.00e+00	0	25	0	452984832	66	4652
2026-01-08 03:27:30.30	6.34	24.27	-50.8	-52.7	14.8	0.00e+00	0	25	0	454033408	67	4588
2026-01-08 03:27:31.29	6.11	24.36	-50.8	-52.7	14.8	0.00e+00	0	24	0	456130560	67	4573
2026-01-08 03:27:32.29	5.87	24.44	-50.8	-52.7	14.7	0.00e+00	0	25	0	458227712	67	4586
2026-01-08 03:27:33.29	5.62	24.53	-50.8	-52.7	14.8	0.00e+00	0	25	0	460324864	67	4586
2026-01-08 03:27:34.29	5.38	24.61	-50.7	-52.5	14.9	0.00e+00	0	25	0	462422016	67	4486
2026-01-08 03:27:35.29	5.14	24.69	-50.7	-52.6	14.8	0.00e+00	0	25	0	463470592	67	4498
2026-01-08 03:27:36.28	4.89	24.77	-50.8	-52.7	14.8	0.00e+00	0	25	0	465567744	67	4576
2026-01-08 03:27:37.28	4.64	24.86	-51.1	-53.1	14.7	0.00e+00	0	24	0	467664896	67	4786
2026-01-08 03:27:38.28	4.40	24.94	-51.2	-53.2	14.6	0.00e+00	0	24	0	469762048	67	4862
2026-01-08 03:27:39.28	4.14	25.02	-51.0	-53.0	14.6	0.00e+00	0	24	0	470810624	67	4736
2026-01-08 03:27:40.28	3.89	25.10	-50.9	-52.8	14.8	0.00e+00	0	24	0	472907776	67	4622
2026-01-08 03:27:41.28	3.64	25.18	-50.5	-52.3	15.0	0.00e+00	0	24	0	475004928	67	4362
2026-01-08 03:27:42.28	3.39	25.27	-50.5	-52.3	15.0	0.00e+00	0	25	0	477102080	67	4369
2026-01-08 03:27:43.27	3.13	25.35	-50.6	-52.5	14.9	0.00e+00	0	24	0	479199232	67	4446
2026-01-08 03:27:44.28	2.87	25.43	-50.8	-52.7	14.8	0.00e+00	0	25	0	480247808	67	4563
2026-01-08 03:27:45.28	2.62	25.51	-51.2	-53.1	14.6	0.00e+00	0	25	0	482344960	67	4799
2026-01-08 03:27:46.28	2.36	25.59	-51.2	-53.3	14.5	0.00e+00	0	25	0	484442112	67	4873
2026-01-08 03:27:47.28	2.10	25.66	-51.2	-53.2	14.6	0.00e+00	0	24	0	486539264	67	4823
2026-01-08 03:27:48.28	1.83	25.74	-50.9	-52.8	14.7	0.00e+00	0	25	0	487587840	67	4651
2026-01-08 03:27:49.27	1.57	25.82	-50.8	-52.7	14.8	0.00e+00	0	24	0	489684992	67	4573
2026-01-08 03:27:50.27	1.31	25.90	-50.9	-52.8	14.7	0.00e+00	0	25	0	491782144	67	4651
2026-01-08 03:27:51.26	1.05	25.97	-51.2	-53.2	14.5	0.00e+00	0	24	0	493879296	67	4848
2026-01-08 03:27:52.27	0.78	26.05	-51.4	-53.4	14.6	0.00e+00	0	25	0	495976448	68	4686
2026-01-08 03:27:53.27	0.51	26.13	-51.2	-53.1	14.8	0.00e+00	0	25	0	497025024	68	4545
2026-01-08 03:27:54.28	0.23	26.20	-50.9	-52.7	14.9	0.00e+00	0	24	0	499122176	68	4308
2026-01-08 03:27:55.28	359.96	26.28	-50.8	-52.5	15.1	0.00e+00	0	24	0	501219328	68	4208
2026-01-08 03:27:56.26	359.70	26.35	-50.7	-52.4	15.1	0.00e+00	0	24	0	503316480	68	4178
2026-01-08 03:27:57.25	359.42	26.43	-50.6	-52.4	15.0	0.00e+00	0	24	0	505413632	67	4392
2026-01-08 03:27:58.25	359.15	26.50	-51.2	-53.1	14.6	0.00e+00	0	24	0	506462208	67	4789
2026-01-08 03:27:59.24	358.88	26.57	-51.8	-53.8	14.5	0.00e+00	0	25	0	508559360	68	4922
2026-01-08 03:28:00.24	358.60	26.64	-52.0	-54.1	14.5	0.00e+00	0	24	0	510656512	69	4797
2026-01-08 03:28:01.23	358.32	26.72	-52.0	-54.1	14.5	0.00e+00	0	24	0	512753664	69	4780
2026-01-08 03:28:02.23	358.04	26.79	-51.8	-53.9	14.5	0.00e+00	0	25	0	513802240	69	4663
2026-01-08 03:28:03.22	357.76	26.86	-51.7	-53.7	14.7	0.00e+00	0	24	0	515899392	69	4562
2026-01-08 03:28:04.22	357.48	26.93	-51.5	-53.4	14.8	0.00e+00	0	24	0	517996544	69	4427
2026-01-08 03:28:05.21	357.20	27.00	-51.9	-54.0	14.5	0.00e+00	0	25	0	520093696	69	4748
2026-01-08 03:28:06.21	356.92	27.07	-52.0	-54.0	14.5	0.00e+00	0	25	0	522190848	69	4758
2026-01-08 03:28:07.21	356.63	27.13	-52.1	-54.2	14.5	0.00e+00	0	24	0	523239424	69	4835
2026-01-08 03:28:08.20	356.34	27.20	-52.0	-54.1	14.5	0.00e+00	0	25	0	525336576	69	4802
2026-01-08 03:28:09.19	356.06	27.27	-52.0	-54.1	14.5	0.00e+00	0	25	0	527433728	69	4805
2026-01-08 03:28:10.18	355.77	27.33	-51.6	-53.7	14.6	0.00e+00	0	25	0	529530880	69	4558
2026-01-08 03:28:11.18	355.48	27.40	-51.9	-54.1	14.5	0.00e+00	0	25	0	530579456	69	4781
2026-01-08 03:28:12.17	355.19	27.47	-52.0	-54.3	14.4	0.00e+00	0	25	0	532676608	69	4891
2026-01-08 03:28:13.16	354.90	27.53	-52.0	-54.2	14.4	0.00e+00	0	25	0	534773760	69	4855
2026-01-08 03:28:14.16	354.60	27.59	-51.8	-54.0	14.5	0.00e+00	0	25	0	536870912	69	4725
2026-01-08 03:28:15.17	354.31	27.66	-51.7	-53.8	14.6	0.00e+00	0	24	0	538968064	69	4624
2026-01-08 03:28:16.16	354.01	27.72	-51.3	-53.2	14.9	0.00e+00	0	25	0	540016640	69	4319
2026-01-08 03:28:17.16	353.71	27.78	-51.1	-53.0	14.8	0.00e+00	0	25	0	542113792	68	4457
2026-01-08 03:28:18.16	353.41	27.84	-51.6	-53.7	14.6	0.00e+00	0	25	0	544210944	68	4817
2026-01-08 03:28:19.16	353.11	27.90	-51.9	-54.1	14.3	0.00e+00	0	24	0	546308096	68	5089
2026-01-08 03:28:20.16	352.81	27.96	-52.0	-54.2	14.5	0.00e+00	0	25	0	548405248	69	4822
2026-01-08 03:28:21.16	352.51	28.02	-51.8	-54.0	14.5	0.00e+00	0	25	0	549453824	69	4735
2026-01-08 03:28:22.16	352.20	28.08	-51.6	-53.6	14.7	0.00e+00	0	24	0	551550976	69	4543
2026-01-08 03:28:23.16	351.90	28.14	-51.4	-53.3	14.8	0.00e+00	0	25	0	553648128	69	4390
2026-01-08 03:28:24.15	351.59	28.19	-51.3	-53.1	15.0	0.00e+00	0	25	0	555745280	69	4277
2026-01-08 03:28:25.15	351.29	28.25	-51.4	-53.3	14.9	0.00e+00	0	24	0	556793856	69	4362
2026-01-08 03:28:26.15	350.98	28.30	-51.5	-53.5	14.7	0.00e+00	0	25	0	558891008	69	4480
2026-01-08 03:28:27.14	350.67	28.36	-51.9	-53.9	14.6	0.00e+00	0	24	0	560988160	69	4698
2026-01-08 03:28:28.14	350.36	28.41	-51.7	-53.8	14.6	0.00e+00	0	25	0	563085312	69	4623
2026-01-08 03:28:29.13	350.05	28.46	-51.7	-53.7	14.7	0.00e+00	0	25	0	565182464	69	4589
2026-01-08 03:28:30.13	349.74	28.51	-51.3	-53.3	14.9	0.00e+00	0	25	0	566231040	69	4341
2026-01-08 03:28:31.12	349.43	28.56	-51.4	-53.3	14.9	0.00e+00	0	24	0	568328192	69	4348
2026-01-08 03:28:32.12	349.12	28.61	-51.6	-53.7	14.7	0.00e+00	0	25	0	570425344	69	4548
2026-01-08 03:28:33.12	348.80	28.66	-51.9	-54.1	14.5	0.00e+00	0	24	0	572522496	69	4761
2026-01-08 03:28:34.12	348.48	28.71	-52.3	-54.8	14.2	0.00e+00	0	25	0	573571072	69	5179
2026-01-08 03:28:35.12	348.17	28.76	-52.3	-54.7	14.3	0.00e+00	0	25	0	575668224	70	4820
2026-01-08 03:28:36.12	347.85	28.80	-51.8	-54.0	14.7	0.00e+00	0	25	0	577765376	70	4467
2026-01-08 03:28:37.12	347.53	28.85	-51.4	-53.4	14.8	0.00e+00	0	25	0	579862528	69	4423
2026-01-08 03:28:38.12	347.21	28.89	-51.0	-52.8	15.0	0.00e+00	0	25	0	581959680	68	4362
2026-01-08 03:28:39.12	346.89	28.94	-50.9	-52.7	15.0	0.00e+00	0	25	0	583008256	68	4313
2026-01-08 03:28:40.12	346.57	28.98	-51.3	-53.2	14.8	0.00e+00	0	25	0	585105408	68	4566
2026-01-08 03:28:41.12	346.24	29.02	-51.4	-53.3	14.7	0.00e+00	0	24	0	587202560	68	4651
2026-01-08 03:28:42.12	345.92	29.06	-51.4	-53.3	14.7	0.00e+00	0	24	0	589299712	68	4631
2026-01-08 03:28:43.12	345.59	29.10	-51.3	-53.2	14.7	0.00e+00	0	24	0	591396864	68	4550
2026-01-08 03:28:44.11	345.27	29.14	-51.3	-53.1	14.8	0.00e+00	0	25	0	592445440	68	4540
2026-01-08 03:28:45.11	344.95	29.18	-51.7	-53.7	14.5	0.00e+00	0	25	0	594542592	68	4822
2026-01-08 03:28:46.11	344.62	29.21	-52.1	-54.3	14.4	0.00e+00	0	25	0	596639744	69	4898
2026-01-08 03:28:47.10	344.29	29.25	-52.6	-55.0	14.1	0.00e+00	0	25	0	598736896	70	5027
2026-01-08 03:28:48.10	343.97	29.28	-53.1	-55.8	13.8	0.00e+00	0	24	0	599785472	71	5211
2026-01-08 03:28:49.10	343.64	29.32	-53.2	-56.0	13.8	0.00e+00	0	25	0	601882624	71	5325
2026-01-08 03:28:50.10	343.31	29.35	-53.0	-55.7	13.9	0.00e+00	0	25	0	603979776	71	5126
2026-01-08 03:28:51.09	342.98	29.38	-52.8	-55.3	14.1	0.00e+00	0	25	0	606076928	71	4889
2026-01-08 03:28:52.09	342.65	29.41	-52.7	-55.1	14.2	0.00e+00	0	24	0	608174080	71	4812
2026-01-08 03:28:53.10	342.31	29.44	-52.7	-55.3	14.2	0.00e+00	0	25	0	609222656	71	4875
2026-01-08 03:28:54.10	341.98	29.47	-53.2	-55.9	13.8	0.00e+00	0	24	0	611319808	71	5240
2026-01-08 03:28:55.10	341.65	29.50	-53.5	-56.4	13.7	0.00e+00	0	25	0	613416960	72	5258
2026-01-08 03:28:56.11	341.31	29.53	-53.4	-56.2	13.8	0.00e+00	0	25	0	615514112	72	5113
2026-01-08 03:28:57.10	340.98	29.55	-53.1	-55.7	14.1	0.00e+00	0	25	0	617611264	72	4821
2026-01-08 03:28:58.11	340.64	29.57	-52.6	-54.9	14.3	0.00e+00	0	24	0	618659840	71	4692
2026-01-08 03:28:59.11	340.31	29.60	-51.9	-54.0	14.7	0.00e+00	0	24	0	620756992	70	4480
2026-01-08 03:29:00.10	339.98	29.62	-51.9	-54.0	14.7	0.00e+00	0	25	0	622854144	70	4477
2026-01-08 03:29:01.10	339.64	29.64	-52.4	-54.7	14.3	0.00e+00	0	25	0	624951296	70	4863
2026-01-08 03:29:02.09	339.31	29.66	-52.7	-55.2	14.1	0.00e+00	0	25	0	627048448	70	5112
2026-01-08 03:29:03.08	338.98	29.68	-53.1	-55.9	13.9	0.00e+00	0	24	0	628097024	71	5237
2026-01-08 03:29:04.07	338.64	29.70	-53.1	-55.9	13.8	0.00e+00	0	25	0	630194176	71	5255
2026-01-08 03:29:05.08	338.30	29.71	-53.1	-55.9	13.8	0.00e+00	0	25	0	632291328	71	5244
2026-01-08 03:29:06.08	337.96	29.73	-52.6	-55.1	14.2	0.00e+00	0	25	0	634388480	71	4806
2026-01-08 03:29:07.07	337.63	29.74	-52.4	-54.9	14.4	0.00e+00	0	25	0	635437056	71	4687
2026-01-08 03:29:08.07	337.29	29.76	-52.5	-55.1	14.3	0.00e+00	0	25	0	637534208	71	4761
2026-01-08 03:29:09.07	336.95	29.77	-52.7	-55.4	14.1	0.00e+00	0	25	0	639631360	71	4942
2026-01-08 03:29:10.07	336.61	29.78	-53.2	-56.2	13.6	0.00e+00	0	24	0	641728512	71	5443
2026-01-08 03:29:11.06	336.28	29.79	-53.6	-56.9	13.3	0.00e+00	0	25	0	643825664	72	5529
2026-01-08 03:29:12.06	335.94	29.80	-53.5	-56.7	13.4	0.00e+00	0	24	0	644874240	72	5433
2026-01-08 03:29:13.06	335.60	29.81	-53.2	-56.2	13.8	0.00e+00	0	25	0	646971392	72	5102
2026-01-08 03:29:14.05	335.26	29.81	-52.8	-55.4	14.3	0.00e+00	0	24	0	649068544	72	4660
2026-01-08 03:29:15.05	334.92	29.82	-52.1	-54.3	14.5	0.00e+00	0	24	0	651165696	70	4639
2026-01-08 03:29:16.05	334.58	29.82	-51.4	-53.4	14.8	0.00e+00	0	25	0	652214272	69	4415
2026-01-08 03:29:17.06	334.24	29.83	-51.4	-53.4	14.8	0.00e+00	0	24	0	654311424	69	4428
2026-01-08 03:29:18.05	333.90	29.83	-51.9	-54.0	14.5	0.00e+00	0	25	0	656408576	69	4759
2026-01-08 03:29:19.05	333.56	29.83	-52.4	-54.8	14.3	0.00e+00	0	25	0	658505728	70	4920
2026-01-08 03:29:20.05	333.22	29.83	-52.7	-55.3	14.0	0.00e+00	0	25	0	660602880	70	5177
2026-01-08 03:29:21.04	332.88	29.83	-52.8	-55.4	14.0	0.00e+00	0	25	0	661651456	70	5239
2026-01-08 03:29:22.04	332.54	29.82	-52.7	-55.3	14.0	0.00e+00	0	25	0	663748608	70	5163
2026-01-08 03:29:23.04	332.20	29.82	-52.7	-55.1	14.1	0.00e+00	0	25	0	665845760	70	5083
2026-01-08 03:29:24.03	331.87	29.82	-52.6	-54.9	14.2	0.00e+00	0	25	0	667942912	70	4967
2026-01-08 03:29:25.04	331.52	29.81	-52.7	-55.1	14.1	0.00e+00	0	25	0	670040064	70	5057
2026-01-08 03:29:26.04	331.18	29.80	-53.1	-55.6	14.0	0.00e+00	0	24	0	671088640	71	5075
2026-01-08 03:29:27.03	330.85	29.80	-53.0	-55.5	14.1	0.00e+00	0	25	0	673185792	71	5022
2026-01-08 03:29:28.04	330.51	29.79	-52.7	-55.0	14.4	0.00e+00	0	24	0	675282944	71	4732
2026-01-08 03:29:29.03	330.17	29.78	-52.4	-54.5	14.6	0.00e+00	0	24	0	677380096	71	4473
2026-01-08 03:29:30.04	329.83	29.76	-52.1	-54.1	14.7	0.00e+00	0	24	0	679477248	70	4514
2026-01-08 03:29:31.03	329.49	29.75	-52.0	-54.0	14.7	0.00e+00	0	25	0	680525824	70	4442
2026-01-08 03:29:32.03	329.15	29.74	-52.0	-54.0	14.7	0.00e+00	0	24	0	682622976	70	4476
2026-01-08 03:29:33.03	328.82	29.72	-52.1	-54.2	14.6	0.00e+00	0	25	0	684720128	70	4556
2026-01-08 03:29:34.04	328.47	29.71	-52.2	-54.3	14.5	0.00e+00	0	25	0	686817280	70	4651
2026-01-08 03:29:35.03	328.14	29.69	-52.4	-54.5	14.5	0.00e+00	0	25	0	687865856	70	4745
2026-01-08 03:29:36.03	327.80	29.67	-52.3	-54.5	14.4	0.00e+00	0	25	0	689963008	70	4728
2026-01-08 03:29:37.02	327.47	29.65	-52.4	-54.5	14.5	0.00e+00	0	25	0	692060160	70	4742
2026-01-08 03:29:38.03	327.13	29.63	-52.3	-54.4	14.5	0.00e+00	0	25	0	694157312	70	4658
2026-01-08 03:29:39.02	326.80	29.61	-52.6	-54.7	14.3	0.00e+00	0	25	0	696254464	70	4866
2026-01-08 03:29:40.03	326.46	29.59	-52.4	-54.6	14.4	0.00e+00	0	24	0	697303040	70	4770
2026-01-08 03:29:41.02	326.13	29.57	-52.7	-55.1	14.2	0.00e+00	0	25	0	699400192	70	5052
2026-01-08 03:29:42.02	325.79	29.54	-52.7	-55.1	14.2	0.00e+00	0	25	0	701497344	70	5076
2026-01-08 03:29:43.01	325.46	29.52	-52.7	-55.0	14.2	0.00e+00	0	25	0	703594496	70	5029
2026-01-08 03:29:44.01	325.13	29.49	-52.4	-54.7	14.3	0.00e+00	0	24	0	704643072	70	4843
2026-01-08 03:29:45.00	324.80	29.46	-52.2	-54.3	14.5	0.00e+00	0	24	0	706740224	70	4647
2026-01-08 03:29:46.00	324.47	29.43	-52.2	-54.4	14.5	0.00e+00	0	24	0	708837376	70	4662
2026-01-08 03:29:47.00	324.14	29.40	-52.2	-54.4	14.5	0.00e+00	0	25	0	710934528	70	4655
2026-01-08 03:29:47.99	323.81	29.37	-52.2	-54.4	14.5	0.00e+00	0	25	0	713031680	70	4691
2026-01-08 03:29:48.99	323.48	29.34	-52.4	-54.8	14.2	0.00e+00	0	25	0	714080256	70	4880
2026-01-08 03:29:49.99	323.15	29.31	-52.1	-54.3	14.5	0.00e+00	0	25	0	716177408	70	4646
2026-01-08 03:29:50.98	322.82	29.27	-51.7	-53.8	14.8	0.00e+00	0	25	0	718274560	70	4358
2026-01-08 03:29:51.98	322.49	29.24	-51.1	-53.1	14.8	0.00e+00	0	25	0	720371712	68	4509
2026-01-08 03:29:52.98	322.17	29.20	-51.1	-53.0	14.8	0.00e+00	0	25	0	721420288	68	4467
2026-01-08 03:29:53.97	321.84	29.16	-51.3	-53.3	14.7	0.00e+00	0	24	0	723517440	68	4617
2026-01-08 03:29:54.97	321.52	29.13	-51.5	-53.5	14.6	0.00e+00	0	25	0	725614592	68	4729
2026-01-08 03:29:55.97	321.19	29.09	-51.8	-53.9	14.4	0.00e+00	0	24	0	727711744	68	4957
2026-01-08 03:29:56.97	320.87	29.05	-52.0	-54.3	14.4	0.00e+00	0	25	0	729808896	69	4886
2026-01-08 03:29:57.97	320.54	29.01	-52.0	-54.1	14.5	0.00e+00	0	25	0	730857472	69	4793
2026-01-08 03:29:58.96	320.23	28.97	-52.2	-54.4	14.4	0.00e+00	0	25	0	732954624	69	4937
2026-01-08 03:29:59.96	319.90	28.92	-52.6	-55.0	14.2	0.00e+00	0	25	0	735051776	70	4985
2026-01-08 03:30:00.96	319.58	28.88	-52.7	-55.1	14.2	0.00e+00	0	25	0	737148928	70	5046
2026-01-08 03:30:01.96	319.26	28.83	-52.6	-54.9	14.3	0.00e+00	0	25	0	739246080	70	4929
2026-01-08 03:30:02.95	318.95	28.79	-52.3	-54.4	14.5	0.00e+00	0	25	0	740294656	70	4679
2026-01-08 03:30:03.95	318.63	28.74	-52.2	-54.2	14.6	0.00e+00	0	25	0	742391808	70	4594
2026-01-08 03:30:04.94	318.31	28.69	-51.7	-53.6	14.9	0.00e+00	0	24	0	744488960	70	4284
2026-01-08 03:30:05.94	318.00	28.65	-51.4	-53.1	15.0	0.00e+00	0	25	0	746586112	69	4285
2026-01-08 03:30:06.94	317.68	28.60	-51.2	-53.0	14.9	0.00e+00	0	24	0	747634688	68	4463
2026-01-08 03:30:07.94	317.37	28.55	-51.8	-53.7	14.6	0.00e+00	0	25	0	749731840	68	4857
2026-01-08 03:30:08.92	317.06	28.50	-52.3	-54.4	14.4	0.00e+00	0	24	0	751828992	69	4928
2026-01-08 03:30:09.92	316.75	28.45	-52.7	-54.9	14.3	0.00e+00	0	25	0	753926144	70	4968
2026-01-08 03:30:10.91	316.44	28.39	-52.6	-54.8	14.3	0.00e+00	0	25	0	756023296	70	4873
2026-01-08 03:30:11.91	316.13	28.34	-52.5	-54.6	14.4	0.00e+00	0	25	0	757071872	70	4805
2026-01-08 03:30:12.91	315.82	28.29	-52.1	-54.1	14.7	0.00e+00	0	24	0	759169024	70	4507
2026-01-08 03:30:13.90	315.51	28.23	-52.0	-54.0	14.7	0.00e+00	0	25	0	761266176	70	4457
2026-01-08 03:30:14.91	315.20	28.17	-52.1	-54.2	14.6	0.00e+00	0	25	0	763363328	70	4553
2026-01-08 03:30:15.90	314.90	28.12	-52.3	-54.3	14.6	0.00e+00	0	25	0	764411904	70	4649
2026-01-08 03:30:16.89	314.60	28.06	-52.4	-54.5	14.5	0.00e+00	0	25	0	766509056	70	4726
2026-01-08 03:30:17.90	314.29	28.00	-52.4	-54.5	14.5	0.00e+00	0	24	0	768606208	70	4719
2026-01-08 03:30:18.89	313.99	27.94	-52.3	-54.4	14.5	0.00e+00	0	25	0	770703360	70	4678
2026-01-08 03:30:19.88	313.69	27.88	-52.2	-54.3	14.5	0.00e+00	0	25	0	772800512	70	4612
2026-01-08 03:30:20.88	313.39	27.82	-52.2	-54.2	14.6	0.00e+00	0	25	0	773849088	70	4592
2026-01-08 03:30:21.87	313.09	27.76	-52.3	-54.4	14.5	0.00e+00	0	25	0	775946240	70	4675
2026-01-08 03:30:22.87	312.80	27.70	-52.8	-55.1	14.2	0.00e+00	0	25	0	778043392	70	5044
2026-01-08 03:30:23.86	312.50	27.64	-53.1	-55.6	14.0	0.00e+00	0	25	0	780140544	71	5047
2026-01-08 03:30:24.86	312.21	27.57	-53.7	-56.5	13.6	0.00e+00	0	25	0	781189120	72	5335
2026-01-08 03:30:25.86	311.91	27.51	-53.8	-56.6	13.6	0.00e+00	0	25	0	783286272	72	5361
2026-01-08 03:30:26.86	311.62	27.45	-53.8	-56.7	13.6	0.00e+00	0	25	0	785383424	73	5101
2026-01-08 03:30:27.86	311.33	27.38	-53.9	-56.8	13.6	0.00e+00	0	25	0	787480576	73	5196
2026-01-08 03:30:28.85	311.04	27.31	-54.2	-57.4	13.2	0.00e+00	0	25	0	789577728	73	5557
2026-01-08 03:30:29.85	310.75	27.25	-54.1	-57.2	13.3	0.00e+00	0	24	0	790626304	73	5450
2026-01-08 03:30:30.85	310.46	27.18	-53.9	-56.9	13.5	0.00e+00	0	25	0	792723456	73	5219
2026-01-08 03:30:31.85	310.17	27.11	-53.5	-56.3	13.9	0.00e+00	0	25	0	794820608	73	4893
2026-01-08 03:30:32.85	309.88	27.04	-53.5	-56.4	13.9	0.00e+00	0	25	0	796917760	73	4936
2026-01-08 03:30:33.85	309.60	26.97	-53.7	-56.7	13.6	0.00e+00	0	25	0	799014912	73	5101
2026-01-08 03:30:34.85	309.32	26.90	-53.3	-56.0	14.0	0.00e+00	0	25	0	800063488	73	4706
2026-01-08 03:30:35.84	309.04	26.83	-52.6	-55.0	14.3	0.00e+00	0	25	0	802160640	71	4737
2026-01-08 03:30:36.84	308.75	26.76	-52.2	-54.5	14.4	0.00e+00	0	25	0	804257792	70	4736
2026-01-08 03:30:37.83	308.48	26.69	-52.0	-54.2	14.6	0.00e+00	0	25	0	806354944	70	4548
2026-01-08 03:30:38.84	308.20	26.62	-51.8	-53.9	14.7	0.00e+00	0	25	0	808452096	70	4398
2026-01-08 03:30:39.83	307.92	26.55	-51.7	-53.8	14.8	0.00e+00	0	25	0	809500672	70	4358
2026-01-08 03:30:40.82	307.65	26.47	-51.3	-53.2	14.9	0.00e+00	0	25	0	811597824	69	4320
2026-01-08 03:30:41.83	307.37	26.40	-51.1	-53.1	14.8	0.00e+00	0	25	0	813694976	68	4505
2026-01-08 03:30:42.82	307.10	26.32	-51.2	-53.1	14.8	0.00e+00	0	25	0	815792128	68	4510
2026-01-08 03:30:43.82	306.83	26.25	-51.4	-53.5	14.6	0.00e+00	0	25	0	816840704	68	4734
2026-01-08 03:30:44.82	306.56	26.17	-51.6	-53.7	14.5	0.00e+00	0	25	0	818937856	68	4854
2026-01-08 03:30:45.82	306.29	26.10	-51.7	-53.8	14.5	0.00e+00	0	25	0	821035008	68	4921
2026-01-08 03:30:46.82	306.02	26.02	-51.7	-53.8	14.5	0.00e+00	0	24	0	823132160	68	4885
2026-01-08 03:30:47.83	305.75	25.94	-51.6	-53.7	14.5	0.00e+00	0	25	0	825229312	68	4865
2026-01-08 03:30:48.82	305.48	25.87	-51.6	-53.7	14.5	0.00e+00	0	25	0	826277888	68	4841
2026-01-08 03:30:49.82	305.22	25.79	-51.9	-54.1	14.3	0.00e+00	0	25	0	828375040	68	5081
2026-01-08 03:30:50.81	304.96	25.71	-52.4	-54.8	14.2	0.00e+00	0	25	0	830472192	69	5202
2026-01-08 03:30:51.82	304.69	25.63	-52.4	-54.8	14.3	0.00e+00	0	25	0	832569344	70	4879
2026-01-08 03:30:52.81	304.44	25.55	-52.4	-54.8	14.2	0.00e+00	0	25	0	833617920	70	4906
2026-01-08 03:30:53.82	304.17	25.47	-52.4	-54.8	14.2	0.00e+00	0	25	0	835715072	70	4920
2026-01-08 03:30:54.82	303.92	25.39	-52.5	-55.0	14.2	0.00e+00	0	25	0	837812224	70	5020
2026-01-08 03:30:55.82	303.66	25.31	-52.7	-55.3	14.0	0.00e+00	0	25	0	839909376	70	5178
2026-01-08 03:30:56.82	303.40	25.23	-52.9	-55.6	13.9	0.00e+00	0	25	0	842006528	70	5382
2026-01-08 03:30:57.82	303.15	25.15	-52.8	-55.5	14.1	0.00e+00	0	25	0	843055104	71	4993
2026-01-08 03:30:58.81	302.90	25.07	-53.1	-55.8	13.9	0.00e+00	0	25	0	845152256	71	5165
2026-01-08 03:30:59.82	302.65	24.99	-52.8	-55.4	14.1	0.00e+00	0	25	0	847249408	71	4939
2026-01-08 03:31:00.81	302.40	24.91	-52.7	-55.1	14.3	0.00e+00	0	25	0	849346560	71	4802
2026-01-08 03:31:01.81	302.15	24.82	-52.4	-54.6	14.5	0.00e+00	0	24	0	851443712	71	4538
2026-01-08 03:31:02.81	301.90	24.74	-52.0	-54.1	14.6	0.00e+00	0	25	0	852492288	70	4534
2026-01-08 03:31:03.81	301.66	24.66	-51.8	-53.8	14.8	0.00e+00	0	25	0	854589440	70	4372
2026-01-08 03:31:04.80	301.41	24.58	-51.8	-53.8	14.7	0.00e+00	0	25	0	856686592	69	4599
2026-01-08 03:31:05.80	301.17	24.49	-51.5	-53.4	14.9	0.00e+00	0	25	0	858783744	69	4405
2026-01-08 03:31:06.79	300.93	24.41	-51.5	-53.4	14.8	0.00e+00	0	25	0	860880896	69	4439
2026-01-08 03:31:07.79	300.69	24.32	-51.4	-53.3	14.9	0.00e+00	0	25	0	861929472	69	4346
2026-01-08 03:31:08.79	300.45	24.24	-51.3	-53.2	14.9	0.00e+00	0	25	0	864026624	69	4339
2026-01-08 03:31:09.79	300.21	24.15	-51.3	-53.1	15.0	0.00e+00	0	24	0	866123776	69	4287
2026-01-08 03:31:10.79	299.97	24.07	-51.0	-52.9	14.9	0.00e+00	0	25	0	868220928	68	4392
2026-01-08 03:31:11.78	299.74	23.99	-51.0	-52.8	14.9	0.00e+00	0	25	0	869269504	68	4352
2026-01-08 03:31:12.77	299.51	23.90	-51.0	-52.9	14.9	0.00e+00	0	25	0	871366656	68	4394
2026-01-08 03:31:13.77	299.28	23.81	-50.8	-52.5	15.1	0.00e+00	0	25	0	873463808	68	4226
2026-01-08 03:31:14.77	299.04	23.73	-50.5	-52.3	15.0	0.00e+00	0	25	0	875560960	67	4344
2026-01-08 03:31:15.76	298.82	23.64	-50.4	-52.1	15.1	0.00e+00	0	25	0	877658112	67	4287
2026-01-08 03:31:16.76	298.59	23.56	-50.1	-51.8	15.0	0.00e+00	0	24	0	878706688	66	4382
2026-01-08 03:31:17.75	298.36	23.47	-49.9	-51.5	15.2	0.00e+00	0	25	0	880803840	66	4224
2026-01-08 03:31:18.74	298.14	23.38	-49.7	-51.3	15.3	0.00e+00	0	25	0	882900992	66	4120
2026-01-08 03:31:19.74	297.91	23.30	-49.6	-51.1	15.2	0.00e+00	0	25	0	884998144	65	4273
2026-01-08 03:31:20.74	297.69	23.21	-49.6	-51.1	15.2	0.00e+00	0	25	0	886046720	65	4273
2026-01-08 03:31:21.74	297.46	23.12	-49.6	-51.2	15.1	0.00e+00	0	25	0	888143872	65	4329
2026-01-08 03:31:22.74	297.24	23.03	-50.0	-51.6	15.0	0.00e+00	0	24	0	890241024	65	4529
2026-01-08 03:31:23.73	297.02	22.95	-50.2	-51.9	14.9	0.00e+00	0	25	0	892338176	65	4685
2026-01-08 03:31:24.73	296.80	22.86	-50.5	-52.3	14.9	0.00e+00	0	24	0	894435328	66	4622
2026-01-08 03:31:25.72	296.59	22.77	-50.8	-52.6	14.7	0.00e+00	0	25	0	895483904	66	4801
2026-01-08 03:31:26.71	296.37	22.68	-51.1	-53.1	14.6	0.00e+00	0	25	0	897581056	67	4770
2026-01-08 03:31:27.71	296.16	22.60	-51.0	-52.9	14.7	0.00e+00	0	25	0	899678208	67	4665
2026-01-08 03:31:28.70	295.95	22.51	-51.2	-53.2	14.6	0.00e+00	0	25	0	901775360	67	4854
2026-01-08 03:31:29.70	295.73	22.42	-51.2	-53.2	14.6	0.00e+00	0	25	0	902823936	67	4849
2026-01-08 03:31:30.70	295.52	22.33	-51.0	-53.0	14.7	0.00e+00	0	24	0	904921088	67	4712
2026-01-08 03:31:31.71	295.31	22.24	-51.0	-52.9	14.7	0.00e+00	0	25	0	907018240	67	4678
2026-01-08 03:31:32.71	295.10	22.15	-51.0	-52.9	14.7	0.00e+00	0	25	0	909115392	67	4676
2026-01-08 03:31:33.71	294.89	22.06	-51.0	-53.0	14.7	0.00e+00	0	25	0	911212544	67	4708
2026-01-08 03:31:34.72	294.68	21.97	-51.1	-53.0	14.7	0.00e+00	0	25	0	912261120	67	4733
2026-01-08 03:31:35.71	294.48	21.88	-51.0	-52.9	14.7	0.00e+00	0	25	0	914358272	67	4703
2026-01-08 03:31:36.72	294.27	21.79	-50.8	-52.7	14.8	0.00e+00	0	25	0	916455424	67	4576
2026-01-08 03:31:37.72	294.07	21.70	-50.6	-52.4	15.0	0.00e+00	0	25	0	918552576	67	4422
2026-01-08 03:31:38.72	293.87	21.62	-50.1	-51.8	15.2	0.00e+00	0	25	0	920649728	66	4362
2026-01-08 03:31:39.72	293.66	21.53	-49.9	-51.5	15.2	0.00e+00	0	25	0	921698304	66	4202
2026-01-08 03:31:40.73	293.46	21.44	-49.5	-51.1	15.2	0.00e+00	0	24	0	923795456	65	4257
2026-01-08 03:31:41.73	293.26	21.35	-49.6	-51.1	15.2	0.00e+00	0	25	0	925892608	65	4259
2026-01-08 03:31:42.72	293.07	21.26	-49.6	-51.2	15.2	0.00e+00	0	25	0	927989760	65	4317
2026-01-08 03:31:43.71	292.87	21.17	-49.8	-51.4	15.1	0.00e+00	0	25	0	929038336	65	4422
2026-01-08 03:31:44.71	292.68	21.08	-50.0	-51.7	15.0	0.00e+00	0	24	0	931135488	65	4556
2026-01-08 03:31:45.70	292.49	20.99	-50.2	-51.8	14.8	0.00e+00	0	25	0	933232640	65	4641
2026-01-08 03:31:46.70	292.29	20.90	-50.3	-52.0	14.8	0.00e+00	0	25	0	935329792	65	4736
2026-01-08 03:31:47.69	292.10	20.81	-50.3	-51.9	14.9	0.00e+00	0	25	0	937426944	65	4700
2026-01-08 03:31:48.69	291.91	20.72	-50.3	-52.0	14.8	0.00e+00	0	25	0	938475520	65	4750
2026-01-08 03:31:49.68	291.72	20.63	-50.2	-51.9	14.9	0.00e+00	0	25	0	940572672	65	4668
2026-01-08 03:31:50.68	291.54	20.54	-50.3	-51.9	14.9	0.00e+00	0	25	0	942669824	65	4692
2026-01-08 03:31:51.68	291.35	20.45	-50.2	-51.8	14.9	0.00e+00	0	25	0	944766976	65	4650
2026-01-08 03:31:52.68	291.16	20.36	-50.3	-52.0	14.8	0.00e+00	0	25	0	945815552	65	4718
2026-01-08 03:31:53.68	290.98	20.27	-50.2	-51.9	14.9	0.00e+00	0	25	0	947912704	65	4680
2026-01-08 03:31:54.68	290.79	20.18	-50.1	-51.8	14.9	0.00e+00	0	25	0	950009856	65	4626
2026-01-08 03:31:55.68	290.61	20.09	-50.2	-51.8	14.9	0.00e+00	0	25	0	952107008	65	4640
2026-01-08 03:31:56.68	290.43	20.00	-50.2	-51.8	14.9	0.00e+00	0	25	0	954204160	65	4630
2026-01-08 03:31:57.68	290.25	19.91	-50.3	-51.9	14.8	0.00e+00	0	25	0	955252736	65	4703
2026-01-08 03:31:58.68	290.07	19.82	-50.4	-52.1	14.8	0.00e+00	0	25	0	957349888	65	4766
2026-01-08 03:31:59.68	289.89	19.73	-50.6	-52.3	14.8	0.00e+00	0	24	0	959447040	66	4629
2026-01-08 03:32:00.67	289.71	19.64	-50.6	-52.3	14.8	0.00e+00	0	25	0	961544192	66	4638
2026-01-08 03:32:01.68	289.54	19.55	-50.5	-52.3	14.9	0.00e+00	0	25	0	963641344	66	4601
2026-01-08 03:32:02.67	289.36	19.46	-50.6	-52.2	14.9	0.00e+00	0	24	0	964689920	66	4598
2026-01-08 03:32:03.67	289.19	19.37	-50.5	-52.2	14.9	0.00e+00	0	25	0	966787072	66	4562
2026-01-08 03:32:04.66	289.02	19.28	-50.3	-52.0	15.0	0.00e+00	0	24	0	968884224	66	4457
2026-01-08 03:32:05.66	288.84	19.20	-50.0	-51.6	15.2	0.00e+00	0	24	0	970981376	66	4258
2026-01-08 03:32:06.66	288.67	19.11	-50.1	-51.7	15.1	0.00e+00	0	25	0	973078528	66	4294
2026-01-08 03:32:07.65	288.50	19.02	-50.0	-51.6	15.1	0.00e+00	0	25	0	974127104	66	4258
2026-01-08 03:32:08.65	288.33	18.93	-50.2	-51.8	15.0	0.00e+00	0	25	0	976224256	66	4362
2026-01-08 03:32:09.65	288.16	18.84	-50.4	-52.1	14.9	0.00e+00	0	24	0	978321408	66	4501
2026-01-08 03:32:10.64	288.00	18.75	-50.8	-52.6	14.7	0.00e+00	0	24	0	980418560	66	4763
2026-01-08 03:32:11.63	287.83	18.66	-51.0	-52.9	14.7	0.00e+00	0	25	0	981467136	67	4653
2026-01-08 03:32:12.63	287.67	18.57	-51.3	-53.2	14.6	0.00e+00	0	25	0	983564288	67	4831
2026-01-08 03:32:13.63	287.50	18.48	-51.6	-53.6	14.5	0.00e+00	0	25	0	985661440	68	4797
2026-01-08 03:32:14.62	287.34	18.39	-51.6	-53.6	14.5	0.00e+00	0	24	0	987758592	68	4779
2026-01-08 03:32:15.61	287.18	18.31	-51.5	-53.4	14.6	0.00e+00	0	24	0	989855744	68	4687
2026-01-08 03:32:16.61	287.02	18.22	-51.4	-53.3	14.7	0.00e+00	0	24	0	990904320	68	4617
2026-01-08 03:32:17.60	286.86	18.13	-51.2	-53.0	14.8	0.00e+00	0	24	0	993001472	68	4460
2026-01-08 03:32:18.60	286.70	18.04	-50.5	-52.2	15.0	0.00e+00	0	25	0	995098624	67	4331
2026-01-08 03:32:19.59	286.54	17.95	-50.6	-52.3	15.0	0.00e+00	0	25	0	997195776	67	4361
2026-01-08 03:32:20.60	286.39	17.86	-50.6	-52.3	15.0	0.00e+00	0	25	0	998244352	67	4362
2026-01-08 03:32:21.59	286.23	17.78	-50.5	-52.2	15.1	0.00e+00	0	24	0	1000341504	67	4311
2026-01-08 03:32:22.59	286.07	17.69	-50.7	-52.4	14.9	0.00e+00	0	25	0	1002438656	67	4405
2026-01-08 03:32:23.59	285.92	17.60	-50.7	-52.5	14.9	0.00e+00	0	25	0	1004535808	67	4471
2026-01-08 03:32:24.59	285.76	17.51	-50.9	-52.7	14.8	0.00e+00	0	25	0	1006632960	67	4570
2026-01-08 03:32:25.58	285.61	17.42	-51.1	-52.9	14.7	0.00e+00	0	25	0	1007681536	67	4704
2026-01-08 03:32:26.58	285.46	17.34	-51.6	-53.5	14.6	0.00e+00	0	25	0	1009778688	68	4743
2026-01-08 03:32:27.58	285.31	17.25	-51.6	-53.5	14.5	0.00e+00	0	25	0	1011875840	68	4758
2026-01-08 03:32:28.58	285.16	17.16	-51.8	-53.8	14.4	0.00e+00	0	24	0	1013972992	68	4907
2026-01-08 03:32:29.58	285.01	17.07	-52.2	-54.3	14.3	0.00e+00	0	25	0	1015021568	69	4913
2026-01-08 03:32:30.58	284.86	16.99	-52.3	-54.5	14.3	0.00e+00	0	24	0	1017118720	69	4985
2026-01-08 03:32:31.58	284.71	16.90	-52.1	-54.2	14.4	0.00e+00	0	25	0	1019215872	69	4860
2026-01-08 03:32:32.57	284.57	16.81	-52.0	-54.1	14.5	0.00e+00	0	25	0	1021313024	69	4786
2026-01-08 03:32:33.58	284.42	16.72	-51.9	-54.0	14.5	0.00e+00	0	24	0	1023410176	69	4710
2026-01-08 03:32:34.57	284.28	16.64	-51.5	-53.4	14.8	0.00e+00	0	25	0	1024458752	69	4427
2026-01-08 03:32:35.57	284.13	16.55	-51.4	-53.3	14.8	0.00e+00	0	25	0	1026555904	69	4375
2026-01-08 03:32:36.57	283.99	16.46	-51.5	-53.4	14.8	0.00e+00	0	25	0	1028653056	69	4393
2026-01-08 03:32:37.57	283.85	16.38	-51.3	-53.1	14.9	0.00e+00	0	25	0	1030750208	69	4269
2026-01-08 03:32:38.57	283.70	16.29	-51.4	-53.3	14.9	0.00e+00	0	25	0	1032847360	69	4369
2026-01-08 03:32:39.56	283.56	16.20	-51.6	-53.5	14.7	0.00e+00	0	25	0	1033895936	69	4478
2026-01-08 03:32:40.56	283.42	16.12	-51.8	-53.8	14.6	0.00e+00	0	25	0	1035993088	69	4633
2026-01-08 03:32:41.55	283.29	16.03	-52.0	-54.1	14.4	0.00e+00	0	25	0	1038090240	69	4769
2026-01-08 03:32:42.55	283.15	15.95	-52.3	-54.6	14.2	0.00e+00	0	25	0	1040187392	69	5046
2026-01-08 03:32:43.55	283.01	15.86	-52.2	-54.3	14.5	0.00e+00	0	24	0	1041235968	70	4642
2026-01-08 03:32:44.55	282.87	15.78	-52.3	-54.4	14.4	0.00e+00	0	24	0	1043333120	70	4693
2026-01-08 03:32:45.54	282.74	15.69	-52.2	-54.4	14.4	0.00e+00	0	25	0	1045430272	70	4686
2026-01-08 03:32:46.54	282.60	15.61	-52.1	-54.2	14.6	0.00e+00	0	25	0	1047527424	70	4565
2026-01-08 03:32:47.54	282.47	15.52	-51.8	-53.9	14.8	0.00e+00	0	25	0	1049624576	70	4398
2026-01-08 03:32:48.55	282.33	15.43	-51.7	-53.7	14.6	0.00e+00	0	25	0	1050673152	69	4562
2026-01-08 03:32:49.54	282.20	15.35	-51.6	-53.5	14.7	0.00e+00	0	25	0	1052770304	69	4485
2026-01-08 03:32:50.55	282.07	15.26	-51.3	-53.2	14.9	0.00e+00	0	24	0	1054867456	69	4302
2026-01-08 03:32:51.55	281.94	15.18	-51.3	-53.2	14.9	0.00e+00	0	25	0	1056964608	69	4302
2026-01-08 03:32:52.56	281.80	15.09	-51.1	-53.0	14.8	0.00e+00	0	24	0	1059061760	68	4451
2026-01-08 03:32:53.56	281.67	15.01	-51.2	-53.0	14.8	0.00e+00	0	24	0	1060110336	68	4485
2026-01-08 03:32:54.56	281.54	14.92	-51.0	-52.8	14.9	0.00e+00	0	25	0	1062207488	68	4342
2026-01-08 03:32:55.57	281.42	14.84	-51.1	-53.0	14.8	0.00e+00	0	25	0	1064304640	68	4480
2026-01-08 03:32:56.58	281.29	14.75	-51.1	-53.0	14.8	0.00e+00	0	25	0	1066401792	68	4446
2026-01-08 03:32:57.57	281.16	14.67	-51.1	-53.0	14.8	0.00e+00	0	25	0	1068498944	68	4455
2026-01-08 03:32:58.58	281.03	14.59	-51.5	-53.4	14.6	0.00e+00	0	25	0	1069547520	68	4694
2026-01-08 03:32:59.57	280.91	14.50	-51.5	-53.4	14.6	0.00e+00	0	25	0	1071644672	68	4692
2026-01-08 03:33:00.58	280.78	14.42	-51.6	-53.5	14.5	0.00e+00	0	25	0	1073741824	68	4757
2026-01-08 03:33:01.58	280.66	14.34	-51.8	-53.8	14.4	0.00e+00	0	25	0	1075838976	68	4894
2026-01-08 03:33:02.58	280.54	14.25	-52.0	-54.1	14.3	0.00e+00	0	25	0	1076887552	69	4778
2026-01-08 03:33:03.58	280.41	14.17	-52.0	-54.1	14.4	0.00e+00	0	25	0	1078984704	69	4782
2026-01-08 03:33:04.58	280.29	14.09	-52.1	-54.3	14.3	0.00e+00	0	24	0	1081081856	69	4881
2026-01-08 03:33:05.57	280.17	14.00	-52.2	-54.4	14.3	0.00e+00	0	25	0	1083179008	69	4940
2026-01-08 03:33:06.57	280.05	13.92	-52.0	-54.1	14.4	0.00e+00	0	24	0	1085276160	69	4768
2026-01-08 03:33:07.56	279.93	13.84	-52.0	-54.1	14.4	0.00e+00	0	25	0	1086324736	69	4799
2026-01-08 03:33:08.55	279.81	13.76	-51.8	-53.9	14.5	0.00e+00	0	25	0	1088421888	69	4666
2026-01-08 03:33:09.55	279.69	13.68	-51.8	-53.8	14.6	0.00e+00	0	25	0	1090519040	69	4632
2026-01-08 03:33:10.55	279.58	13.59	-51.7	-53.7	14.6	0.00e+00	0	24	0	1092616192	69	4565
2026-01-08 03:33:11.54	279.46	13.51	-51.8	-53.8	14.6	0.00e+00	0	25	0	1094713344	69	4645
2026-01-08 03:33:12.54	279.34	13.43	-52.0	-54.0	14.4	0.00e+00	0	25	0	1095761920	69	4758
2026-01-08 03:33:13.54	279.23	13.35	-52.1	-54.3	14.3	0.00e+00	0	25	0	1097859072	69	4886
2026-01-08 03:33:14.53	279.11	13.27	-52.5	-54.8	14.2	0.00e+00	0	25	0	1099956224	70	4909
2026-01-08 03:33:15.53	279.00	13.19	-52.6	-55.0	14.1	0.00e+00	0	25	0	1102053376	70	5008
2026-01-08 03:33:16.52	278.89	13.11	-52.9	-55.4	13.9	0.00e+00	0	24	0	1103101952	70	5226
2026-01-08 03:33:17.52	278.77	13.03	-53.1	-55.6	13.9	0.00e+00	0	25	0	1105199104	71	5066
2026-01-08 03:33:18.52	278.66	12.95	-53.2	-55.8	13.8	0.00e+00	0	25	0	1107296256	71	5183
2026-01-08 03:33:19.52	278.55	12.87	-53.1	-55.7	13.8	0.00e+00	0	25	0	1109393408	71	5132
2026-01-08 03:33:20.51	278.44	12.79	-53.0	-55.5	14.0	0.00e+00	0	25	0	1111490560	71	5015
2026-01-08 03:33:21.51	278.33	12.71	-52.8	-55.2	14.1	0.00e+00	0	25	0	1112539136	71	4836
2026-01-08 03:33:22.51	278.22	12.63	-52.5	-54.8	14.3	0.00e+00	0	25	0	1114636288	71	4616
2026-01-08 03:33:23.50	278.11	12.55	-52.3	-54.4	14.5	0.00e+00	0	25	0	1116733440	71	4420
2026-01-08 03:33:24.49	278.00	12.47	-52.0	-54.0	14.6	0.00e+00	0	25	0	1118830592	70	4491
2026-01-08 03:33:25.49	277.89	12.39	-51.8	-53.7	14.7	0.00e+00	0	25	0	1120927744	70	4333
2026-01-08 03:33:26.49	277.78	12.31	-51.6	-53.6	14.7	0.00e+00	0	25	0	1121976320	69	4501
2026-01-08 03:33:27.49	277.68	12.23	-51.5	-53.4	14.7	0.00e+00	0	25	0	1124073472	69	4407
2026-01-08 03:33:28.48	277.57	12.15	-51.4	-53.3	14.8	0.00e+00	0	25	0	1126170624	69	4382
2026-01-08 03:33:29.48	277.47	12.07	-51.4	-53.4	14.8	0.00e+00	0	24	0	1128267776	69	4399
2026-01-08 03:33:30.48	277.36	11.99	-51.7	-53.7	14.6	0.00e+00	0	25	0	1129316352	69	4581
2026-01-08 03:33:31.48	277.25	11.91	-51.9	-54.0	14.5	0.00e+00	0	25	0	1131413504	69	4710
2026-01-08 03:33:32.49	277.15	11.83	-52.1	-54.2	14.3	0.00e+00	0	25	0	1133510656	69	4851
2026-01-08 03:33:33.49	277.05	11.76	-52.3	-54.6	14.1	0.00e+00	0	25	0	1135607808	69	5061
2026-01-08 03:33:34.49	276.94	11.68	-52.6	-55.0	14.1	0.00e+00	0	25	0	1137704960	70	4986
2026-01-08 03:33:35.48	276.84	11.60	-52.8	-55.3	13.9	0.00e+00	0	25	0	1138753536	71	4905
2026-01-08 03:33:36.48	276.74	11.52	-53.2	-55.9	13.7	0.00e+00	0	25	0	1140850688	71	5261
2026-01-08 03:33:37.47	276.64	11.44	-53.4	-56.1	13.6	0.00e+00	0	25	0	1142947840	71	5389
2026-01-08 03:33:38.47	276.54	11.37	-53.5	-56.3	13.5	0.00e+00	0	25	0	1145044992	72	5172
2026-01-08 03:33:39.48	276.44	11.29	-53.7	-56.7	13.3	0.00e+00	0	25	0	1146093568	72	5437
2026-01-08 03:33:40.47	276.34	11.21	-53.7	-56.7	13.3	0.00e+00	0	25	0	1148190720	72	5433
2026-01-08 03:33:41.48	276.24	11.13	-53.6	-56.6	13.4	0.00e+00	0	25	0	1150287872	72	5352
2026-01-08 03:33:42.48	276.14	11.06	-53.8	-56.9	13.2	0.00e+00	0	25	0	1152385024	72	5548
2026-01-08 03:33:43.49	276.04	10.98	-54.0	-57.1	13.2	0.00e+00	0	25	0	1154482176	73	5342
2026-01-08 03:33:44.48	275.94	10.90	-53.8	-56.8	13.4	0.00e+00	0	25	0	1155530752	73	5192
2026-01-08 03:33:45.47	275.85	10.83	-53.8	-56.7	13.5	0.00e+00	0	25	0	1157627904	73	5114
2026-01-08 03:33:46.47	275.75	10.75	-53.6	-56.6	13.6	0.00e+00	0	25	0	1159725056	73	5054
2026-01-08 03:33:47.47	275.65	10.68	-53.8	-56.5	13.6	0.00e+00	0	25	0	1161822208	73	4990
2026-01-08 03:33:48.46	275.56	10.60	-53.7	-56.3	13.7	0.00e+00	0	25	0	1163919360	73	4879
2026-01-08 03:33:49.46	275.46	10.52	-53.7	-56.3	13.7	0.00e+00	0	25	0	1164967936	73	4909
2026-01-08 03:33:50.46	275.37	10.45	-53.7	-56.2	13.7	0.00e+00	0	25	0	1167065088	73	4866
2026-01-08 03:33:51.47	275.27	10.37	-53.6	-56.0	13.8	0.00e+00	0	25	0	1169162240	73	4735
2026-01-08 03:33:52.47	275.18	10.30	-53.5	-56.0	13.9	0.00e+00	0	25	0	1171259392	73	4732
2026-01-08 03:33:53.47	275.09	10.22	-53.7	-56.2	13.8	0.00e+00	0	25	0	1172307968	73	4836
2026-01-08 03:33:54.46	275.00	10.15	-53.7	-56.2	13.7	0.00e+00	0	25	0	1174405120	73	4865
2026-01-08 03:33:55.46	274.90	10.07	-53.6	-56.1	13.8	0.00e+00	0	25	0	1176502272	73	4810
2026-01-08 03:33:56.46	274.81	10.00	-53.8	-56.3	13.7	0.00e+00	0	25	0	1178599424	73	4922
2026-01-08 03:33:57.46	274.72	9.92	-53.8	-56.4	13.6	0.00e+00	0	25	0	1180696576	73	4944
2026-01-08 03:33:58.46	274.63	9.85	-53.8	-56.4	13.7	0.00e+00	0	25	0	1181745152	73	4932
2026-01-08 03:33:59.46	274.54	9.77	-53.9	-56.6	13.5	0.00e+00	0	25	0	1183842304	73	5057
2026-01-08 03:34:00.45	274.45	9.70	-54.0	-56.8	13.4	0.00e+00	0	25	0	1185939456	73	5182
2026-01-08 03:34:01.45	274.36	9.63	-54.0	-56.8	13.4	0.00e+00	0	25	0	1188036608	73	5169
2026-01-08 03:34:02.45	274.27	9.55	-54.0	-56.7	13.4	0.00e+00	0	25	0	1190133760	73	5135
2026-01-08 03:34:03.45	274.18	9.48	-53.9	-56.6	13.4	0.00e+00	0	25	0	1191182336	73	5079
2026-01-08 03:34:04.44	274.10	9.41	-53.9	-56.6	13.5	0.00e+00	0	25	0	1193279488	73	5078
2026-01-08 03:34:05.44	274.01	9.33	-53.8	-56.5	13.6	0.00e+00	0	25	0	1195376640	73	5006
2026-01-08 03:34:06.44	273.92	9.26	-53.7	-56.3	13.6	0.00e+00	0	25	0	1197473792	73	4925
2026-01-08 03:34:07.43	273.84	9.19	-53.5	-56.0	13.8	0.00e+00	0	25	0	1198522368	73	4759
2026-01-08 03:34:08.42	273.75	9.11	-53.4	-55.9	13.9	0.00e+00	0	25	0	1200619520	73	4665
2026-01-08 03:34:09.41	273.67	9.04	-53.1	-55.5	14.1	0.00e+00	0	25	0	1202716672	72	4720
2026-01-08 03:34:10.41	273.58	8.97	-53.1	-55.4	14.1	0.00e+00	0	25	0	1204813824	72	4679
2026-01-08 03:34:11.40	273.50	8.90	-52.8	-55.0	14.3	0.00e+00	0	25	0	1206910976	72	4468
