passes_logs/2026/01/08/R3.2S_Murmansk/R3.2S_Murmansk__20260108_075029_NOAA_21_JPSS-2_rec.log

#Pass ID: 20260108_075029_NOAA 21 (JPSS-2)
#Satellite: NOAA 21 (JPSS-2)
#Configuration: NOAA-21
#almurnet v.1.7.20251203
#Start time: 2026-01-08 07:50:31

#Version: 2.2.20231116
#Station: R3.2S_Murmansk
#Location: 33.079688 lon 68.888172 lat
#TLE: 1 54234U 22150A   26007.89369592  .00000099  00000+0  67922-4 0  9991
#TLE: 2 54234  98.7493 308.8796 0000921 330.6018  29.5106 14.19533030163804

#Time	Az	El	Level	Level2	SNR	BER	BlckErr	Temp	State	Recorded	gain1	gain2
2026-01-08 07:50:31.54	112.81	2.14	-57.5	-71.3	3.8	1.49e+00	0	23	0	0	81	17374
2026-01-08 07:50:32.55	112.77	2.20	-57.5	-71.2	3.8	1.49e+00	0	23	104	0	80	18281
2026-01-08 07:50:33.55	112.74	2.26	-57.5	-71.2	3.8	1.49e+00	0	23	104	0	80	18258
2026-01-08 07:50:34.55	112.70	2.32	-57.5	-71.2	3.8	1.49e+00	0	23	104	0	80	18251
2026-01-08 07:50:35.55	112.66	2.39	-57.5	-71.2	3.8	1.49e+00	0	23	104	0	80	18223
2026-01-08 07:50:36.56	112.62	2.45	-57.5	-71.1	3.8	1.49e+00	0	23	104	0	80	18083
2026-01-08 07:50:37.56	112.59	2.51	-57.5	-71.2	3.8	1.49e+00	0	23	104	0	80	18135
2026-01-08 07:50:38.56	112.55	2.57	-57.5	-71.2	3.8	1.49e+00	0	23	104	0	80	18245
2026-01-08 07:50:39.56	112.51	2.64	-57.5	-71.2	3.8	1.49e+00	0	23	104	0	80	18260
2026-01-08 07:50:40.56	112.47	2.70	-57.5	-71.2	3.8	1.49e+00	0	23	104	0	80	18166
2026-01-08 07:50:41.57	112.43	2.77	-57.5	-71.2	3.8	1.49e+00	0	23	104	0	80	18132
2026-01-08 07:50:42.57	112.39	2.83	-57.5	-71.1	3.8	1.49e+00	0	23	104	0	80	18041
2026-01-08 07:50:43.57	112.35	2.89	-57.5	-71.1	3.8	1.49e+00	0	23	104	0	80	17964
2026-01-08 07:50:44.57	112.32	2.96	-57.5	-71.1	3.8	1.49e+00	0	23	104	0	80	17936
2026-01-08 07:50:45.58	112.28	3.02	-57.5	-71.1	3.8	1.49e+00	0	23	104	0	80	17989
2026-01-08 07:50:46.58	112.24	3.08	-57.5	-71.1	3.8	1.49e+00	0	23	104	0	80	17936
2026-01-08 07:50:47.59	112.20	3.15	-57.5	-71.0	3.8	1.49e+00	0	23	104	0	80	17882
2026-01-08 07:50:48.59	112.16	3.21	-57.5	-71.1	3.8	1.49e+00	0	23	104	0	80	17921
2026-01-08 07:50:49.59	112.12	3.28	-57.5	-71.2	3.8	1.49e+00	0	23	104	0	80	18128
2026-01-08 07:50:50.59	112.08	3.34	-57.5	-71.2	3.8	1.49e+00	0	23	104	0	80	18187
2026-01-08 07:50:51.59	112.04	3.41	-57.5	-71.1	3.8	1.49e+00	0	23	104	0	80	17917
2026-01-08 07:50:52.60	111.99	3.47	-57.5	-70.9	3.8	1.49e+00	0	23	104	0	80	17681
2026-01-08 07:50:53.60	111.95	3.54	-57.5	-71.0	3.8	1.49e+00	0	23	104	0	80	17693
2026-01-08 07:50:54.60	111.91	3.60	-57.5	-70.9	3.8	1.49e+00	0	23	104	0	80	17662
2026-01-08 07:50:55.78	111.86	3.68	-57.5	-71.0	3.8	1.49e+00	0	23	104	0	80	17743
2026-01-08 07:50:56.64	111.83	3.74	-57.5	-71.0	3.8	1.49e+00	0	23	104	0	80	17849
2026-01-08 07:50:57.78	111.78	3.81	-57.5	-71.3	3.8	1.49e+00	0	23	104	0	80	18327
2026-01-08 07:50:58.64	111.75	3.87	-57.5	-71.3	3.8	1.49e+00	0	23	104	0	80	18351
2026-01-08 07:50:59.79	111.70	3.94	-57.5	-71.0	3.8	1.49e+00	0	23	104	0	80	17789
2026-01-08 07:51:00.65	111.66	4.00	-57.5	-70.5	3.8	1.49e+00	0	23	104	0	80	16709
2026-01-08 07:51:01.79	111.61	4.07	-57.4	-68.9	4.0	1.49e+00	0	23	104	0	80	13928
2026-01-08 07:51:02.66	111.58	4.13	-57.2	-68.1	3.9	1.47e+00	0	23	104	0	80	12729
2026-01-08 07:51:03.80	111.53	4.21	-57.1	-66.1	4.7	9.79e-01	0	24	104	0	80	10133
2026-01-08 07:51:04.66	111.49	4.26	-56.9	-65.1	5.3	5.97e-01	0	23	0	0	80	9042
2026-01-08 07:51:05.80	111.44	4.34	-56.7	-63.8	6.1	3.39e-01	0	23	0	3145728	80	7788
2026-01-08 07:51:06.66	111.40	4.40	-56.6	-63.4	6.4	2.09e-01	0	23	0	6291456	79	7835
2026-01-08 07:51:07.81	111.35	4.47	-56.3	-62.4	7.2	1.23e-01	0	23	0	9437184	79	7021
2026-01-08 07:51:08.66	111.32	4.53	-56.1	-61.7	7.8	6.87e-02	0	24	0	12582912	78	6863
2026-01-08 07:51:09.81	111.26	4.61	-55.8	-60.7	8.7	2.18e-02	0	23	0	15728640	78	6124
2026-01-08 07:51:10.67	111.23	4.67	-55.5	-60.1	9.2	1.13e-02	0	23	0	18874368	77	6003
2026-01-08 07:51:11.81	111.18	4.74	-55.0	-58.8	10.3	2.18e-03	0	23	0	22020096	76	5494
2026-01-08 07:51:12.67	111.14	4.80	-54.4	-57.8	11.0	4.12e-04	0	23	0	25165824	75	5207
2026-01-08 07:51:13.81	111.09	4.88	-53.8	-56.7	11.8	3.43e-05	0	23	0	28311552	74	4859
2026-01-08 07:51:14.68	111.05	4.94	-53.3	-56.0	12.3	1.50e-06	0	23	0	31457280	73	4737
2026-01-08 07:51:15.82	110.99	5.02	-52.6	-54.9	12.8	0.00e+00	0	24	0	34603008	71	4690
2026-01-08 07:51:16.68	110.96	5.08	-53.2	-55.8	12.3	0.00e+00	0	24	0	37748736	71	5189
2026-01-08 07:51:17.82	110.90	5.15	-55.4	-59.7	9.6	2.23e-04	0	24	0	40894464	75	6437
2026-01-08 07:51:18.68	110.86	5.21	-52.7	-55.0	13.0	1.17e-02	0	24	0	44040192	72	4459
2026-01-08 07:51:19.83	110.81	5.29	-51.8	-53.7	13.5	0.00e+00	0	24	0	47185920	69	4590
2026-01-08 07:51:20.69	110.77	5.35	-51.9	-53.8	13.5	0.00e+00	0	24	0	50331648	69	4648
2026-01-08 07:51:21.84	110.72	5.43	-51.9	-53.9	13.5	2.86e-02	0	24	0	53477376	70	4424
2026-01-08 07:51:22.70	110.68	5.49	-51.4	-53.3	13.8	0.00e+00	0	24	0	56623104	69	4345
2026-01-08 07:51:23.85	110.62	5.57	-51.4	-53.3	13.8	0.00e+00	0	24	0	59768832	69	4354
2026-01-08 07:51:24.71	110.58	5.63	-51.3	-53.1	13.9	0.00e+00	0	24	0	62914560	69	4280
2026-01-08 07:51:25.86	110.53	5.71	-51.3	-53.1	13.8	0.00e+00	0	24	0	66060288	68	4529
2026-01-08 07:51:26.72	110.48	5.77	-51.2	-53.0	13.8	0.00e+00	0	24	0	69206016	68	4493
2026-01-08 07:51:27.86	110.43	5.85	-51.3	-53.1	13.7	0.00e+00	0	24	0	72351744	68	4529
2026-01-08 07:51:28.72	110.39	5.91	-51.1	-52.9	13.8	0.00e+00	0	24	0	75497472	68	4436
2026-01-08 07:51:29.87	110.33	5.99	-51.0	-52.8	13.9	0.00e+00	0	24	0	78643200	68	4360
2026-01-08 07:51:30.73	110.29	6.05	-51.2	-53.0	13.8	0.00e+00	0	24	0	81788928	68	4475
2026-01-08 07:51:31.88	110.23	6.13	-51.2	-53.0	13.8	0.00e+00	0	24	0	84934656	68	4478
2026-01-08 07:51:32.74	110.19	6.20	-51.2	-53.1	13.8	0.00e+00	0	24	0	88080384	68	4501
2026-01-08 07:51:33.88	110.13	6.28	-51.1	-52.8	13.9	0.00e+00	0	24	0	91226112	68	4385
2026-01-08 07:51:34.73	110.09	6.34	-51.1	-52.9	13.9	0.00e+00	0	24	0	94371840	68	4404
2026-01-08 07:51:35.88	110.03	6.42	-51.0	-52.8	14.0	0.00e+00	0	24	0	97517568	68	4359
2026-01-08 07:51:36.73	109.99	6.48	-51.0	-52.8	13.9	0.00e+00	0	24	0	100663296	68	4381
2026-01-08 07:51:37.88	109.93	6.56	-51.0	-52.8	14.0	0.00e+00	0	24	0	103809024	68	4371
2026-01-08 07:51:38.74	109.89	6.62	-51.1	-52.9	13.9	0.00e+00	0	24	0	106954752	68	4409
2026-01-08 07:51:39.88	109.83	6.71	-51.0	-52.7	14.0	0.00e+00	0	24	0	110100480	68	4327
2026-01-08 07:51:40.73	109.78	6.77	-51.0	-52.7	14.0	0.00e+00	0	24	0	112197632	68	4325
2026-01-08 07:51:41.88	109.72	6.85	-51.0	-52.7	14.1	0.00e+00	0	24	0	116391936	68	4321
2026-01-08 07:51:42.74	109.68	6.91	-51.0	-52.7	14.0	0.00e+00	0	24	0	118489088	68	4327
2026-01-08 07:51:43.88	109.62	7.00	-50.9	-52.6	14.1	0.00e+00	0	24	0	122683392	68	4283
2026-01-08 07:51:44.74	109.57	7.06	-50.9	-52.6	14.1	0.00e+00	0	24	0	124780544	68	4288
2026-01-08 07:51:45.89	109.51	7.14	-50.8	-52.5	14.2	0.00e+00	0	24	0	128974848	68	4213
2026-01-08 07:51:46.74	109.47	7.21	-50.8	-52.5	14.2	0.00e+00	0	24	0	131072000	68	4205
2026-01-08 07:51:47.89	109.41	7.29	-50.8	-52.5	14.2	0.00e+00	0	24	0	135266304	68	4203
2026-01-08 07:51:48.74	109.36	7.35	-50.7	-52.3	14.3	0.00e+00	0	24	0	137363456	68	4145
2026-01-08 07:51:49.89	109.30	7.44	-50.5	-52.1	14.2	0.00e+00	0	24	0	141557760	67	4255
2026-01-08 07:51:50.75	109.25	7.50	-50.5	-52.2	14.2	0.00e+00	0	24	0	143654912	67	4315
2026-01-08 07:51:51.90	109.19	7.59	-50.5	-52.2	14.2	0.00e+00	0	24	0	147849216	67	4298
2026-01-08 07:51:52.76	109.14	7.65	-50.5	-52.1	14.2	0.00e+00	0	24	0	149946368	67	4276
2026-01-08 07:51:53.90	109.08	7.74	-50.3	-51.9	14.3	0.00e+00	0	24	0	154140672	67	4168
2026-01-08 07:51:54.77	109.03	7.80	-50.3	-51.8	14.4	0.00e+00	0	24	0	156237824	67	4142
2026-01-08 07:51:55.91	108.97	7.89	-50.3	-51.8	14.4	0.00e+00	0	24	0	160432128	67	4140
2026-01-08 07:51:56.77	108.92	7.95	-50.1	-51.7	14.3	0.00e+00	0	24	0	162529280	66	4297
2026-01-08 07:51:57.91	108.85	8.04	-50.2	-51.8	14.3	0.00e+00	0	24	0	166723584	66	4343
2026-01-08 07:51:58.77	108.80	8.11	-50.2	-51.7	14.3	0.00e+00	0	24	0	168820736	66	4330
2026-01-08 07:51:59.92	108.74	8.19	-50.1	-51.6	14.4	0.00e+00	0	24	0	173015040	66	4274
2026-01-08 07:52:00.78	108.69	8.26	-50.1	-51.7	14.3	0.00e+00	0	24	0	175112192	66	4297
2026-01-08 07:52:01.94	108.62	8.35	-50.2	-51.7	14.3	0.00e+00	0	24	0	179306496	66	4322
2026-01-08 07:52:02.80	108.57	8.41	-50.1	-51.6	14.4	0.00e+00	0	24	0	181403648	66	4263
2026-01-08 07:52:03.94	108.50	8.50	-50.0	-51.5	14.4	0.00e+00	0	24	0	185597952	66	4206
2026-01-08 07:52:04.80	108.45	8.57	-49.9	-51.4	14.5	0.00e+00	0	24	0	187695104	66	4161
2026-01-08 07:52:05.95	108.39	8.66	-49.9	-51.4	14.5	0.00e+00	0	24	0	191889408	66	4190
2026-01-08 07:52:06.80	108.33	8.72	-49.8	-51.3	14.5	0.00e+00	0	24	0	193986560	66	4142
2026-01-08 07:52:07.95	108.27	8.81	-49.8	-51.3	14.5	0.00e+00	0	24	0	198180864	66	4135
2026-01-08 07:52:08.81	108.21	8.88	-49.9	-51.3	14.5	0.00e+00	0	24	0	200278016	66	4145
2026-01-08 07:52:09.96	108.14	8.97	-49.9	-51.5	14.5	0.00e+00	0	24	0	204472320	66	4196
2026-01-08 07:52:10.82	108.09	9.04	-49.7	-51.2	14.6	0.00e+00	0	24	0	206569472	66	4069
2026-01-08 07:52:11.97	108.02	9.13	-49.8	-51.3	14.6	0.00e+00	0	24	0	209715200	66	4101
2026-01-08 07:52:12.83	107.97	9.19	-49.8	-51.3	14.6	0.00e+00	0	24	0	212860928	66	4100
2026-01-08 07:52:13.97	107.90	9.28	-49.7	-51.2	14.7	0.00e+00	0	24	0	217055232	66	4053
2026-01-08 07:52:14.83	107.84	9.35	-49.6	-51.1	14.5	0.00e+00	0	24	0	219152384	65	4273
2026-01-08 07:52:15.98	107.77	9.44	-49.6	-51.1	14.5	0.00e+00	0	24	0	223346688	65	4260
2026-01-08 07:52:16.83	107.72	9.51	-49.6	-51.1	14.5	0.00e+00	0	24	0	225443840	65	4276
2026-01-08 07:52:17.98	107.65	9.60	-49.5	-51.0	14.6	0.00e+00	0	24	0	229638144	65	4195
2026-01-08 07:52:18.84	107.59	9.67	-49.5	-51.0	14.6	0.00e+00	0	24	0	231735296	65	4200
2026-01-08 07:52:19.99	107.52	9.76	-49.5	-50.9	14.6	0.00e+00	0	24	0	234881024	65	4171
2026-01-08 07:52:20.85	107.46	9.83	-49.5	-50.9	14.6	0.00e+00	0	24	0	238026752	65	4177
2026-01-08 07:52:21.99	107.39	9.92	-49.4	-50.8	14.7	0.00e+00	0	24	0	241172480	65	4141
2026-01-08 07:52:22.85	107.33	9.99	-49.4	-50.9	14.7	0.00e+00	0	24	0	244318208	65	4150
2026-01-08 07:52:23.98	107.26	10.09	-49.5	-50.9	14.6	0.00e+00	0	24	0	247463936	65	4167
2026-01-08 07:52:24.84	107.20	10.16	-49.5	-51.0	14.6	0.00e+00	0	24	0	250609664	65	4199
2026-01-08 07:52:25.99	107.13	10.25	-49.3	-50.7	14.8	0.00e+00	0	24	0	253755392	65	4062
2026-01-08 07:52:26.86	107.07	10.32	-49.1	-50.5	14.7	0.00e+00	0	24	0	256901120	64	4225
2026-01-08 07:52:28.01	106.99	10.41	-49.2	-50.6	14.6	0.00e+00	0	24	0	260046848	64	4252
2026-01-08 07:52:28.86	106.93	10.48	-49.2	-50.6	14.6	0.00e+00	0	24	0	263192576	64	4254
2026-01-08 07:52:30.00	106.86	10.58	-49.0	-50.4	14.7	0.00e+00	0	24	0	266338304	64	4163
2026-01-08 07:52:30.86	106.80	10.65	-49.1	-50.5	14.7	0.00e+00	0	24	0	269484032	64	4211
2026-01-08 07:52:32.01	106.72	10.75	-49.0	-50.4	14.7	0.00e+00	0	24	0	272629760	64	4167
2026-01-08 07:52:32.87	106.66	10.82	-48.9	-50.3	14.8	0.00e+00	0	24	0	275775488	64	4124
2026-01-08 07:52:34.01	106.58	10.91	-49.1	-50.5	14.7	0.00e+00	0	24	0	278921216	64	4206
2026-01-08 07:52:34.87	106.52	10.98	-48.9	-50.2	14.8	0.00e+00	0	24	0	282066944	64	4088
2026-01-08 07:52:36.01	106.44	11.08	-48.9	-50.3	14.8	0.00e+00	0	24	0	285212672	64	4107
2026-01-08 07:52:36.86	106.38	11.15	-49.0	-50.3	14.8	0.00e+00	0	24	0	288358400	64	4134
2026-01-08 07:52:38.01	106.30	11.25	-49.0	-50.3	14.8	0.00e+00	0	24	0	291504128	64	4142
2026-01-08 07:52:38.86	106.24	11.32	-49.0	-50.3	14.8	0.00e+00	0	24	0	294649856	64	4129
2026-01-08 07:52:40.01	106.15	11.42	-48.9	-50.3	14.8	0.00e+00	0	24	0	297795584	64	4116
2026-01-08 07:52:40.87	106.09	11.49	-48.9	-50.3	14.8	0.00e+00	0	24	0	300941312	64	4124
2026-01-08 07:52:42.02	106.01	11.59	-49.1	-50.5	14.7	0.00e+00	0	24	0	304087040	64	4201
2026-01-08 07:52:42.88	105.94	11.66	-48.8	-50.2	14.9	0.00e+00	0	24	0	307232768	64	4059
2026-01-08 07:52:44.02	105.86	11.76	-48.8	-50.2	14.9	0.00e+00	0	24	0	310378496	64	4062
2026-01-08 07:52:44.88	105.79	11.84	-48.9	-50.3	14.8	0.00e+00	0	24	0	313524224	64	4116
2026-01-08 07:52:46.03	105.71	11.94	-48.9	-50.3	14.8	0.00e+00	0	24	0	316669952	64	4117
2026-01-08 07:52:46.89	105.64	12.01	-48.8	-50.2	14.9	0.00e+00	0	24	0	319815680	64	4065
2026-01-08 07:52:48.03	105.56	12.11	-48.8	-50.1	14.9	0.00e+00	0	24	0	322961408	64	4050
2026-01-08 07:52:48.88	105.49	12.18	-48.7	-50.0	14.9	0.00e+00	0	24	0	326107136	64	3987
2026-01-08 07:52:50.02	105.41	12.28	-48.7	-50.1	14.9	0.00e+00	0	24	0	329252864	64	4009
2026-01-08 07:52:50.88	105.34	12.36	-48.8	-50.1	14.9	0.00e+00	0	24	0	332398592	64	4038
2026-01-08 07:52:52.03	105.25	12.46	-48.8	-50.1	14.9	0.00e+00	0	24	0	335544320	64	4032
2026-01-08 07:52:52.89	105.18	12.54	-48.7	-50.0	14.9	0.00e+00	0	24	0	338690048	64	3997
2026-01-08 07:52:54.03	105.09	12.64	-48.7	-50.0	14.8	0.00e+00	0	24	0	341835776	63	4235
2026-01-08 07:52:54.89	105.03	12.71	-48.6	-50.0	14.8	0.00e+00	0	24	0	343932928	63	4198
2026-01-08 07:52:56.03	104.93	12.81	-48.6	-49.9	14.9	0.00e+00	0	24	0	348127232	63	4172
2026-01-08 07:52:56.89	104.87	12.89	-48.6	-50.0	14.8	0.00e+00	0	24	0	350224384	63	4195
2026-01-08 07:52:58.03	104.77	12.99	-48.5	-49.8	14.9	0.00e+00	0	24	0	354418688	63	4139
2026-01-08 07:52:58.89	104.70	13.07	-48.6	-49.9	14.9	0.00e+00	0	24	0	356515840	63	4163
2026-01-08 07:53:00.04	104.61	13.17	-48.5	-49.8	14.9	0.00e+00	0	24	0	360710144	63	4133
2026-01-08 07:53:00.90	104.54	13.25	-48.5	-49.8	14.9	0.00e+00	0	24	0	362807296	63	4129
2026-01-08 07:53:02.04	104.45	13.36	-48.5	-49.8	14.9	0.00e+00	0	24	0	367001600	63	4132
2026-01-08 07:53:02.89	104.37	13.43	-48.5	-49.8	14.9	0.00e+00	0	24	0	369098752	63	4130
2026-01-08 07:53:04.03	104.28	13.54	-48.6	-49.9	14.9	0.00e+00	0	24	0	373293056	63	4153
2026-01-08 07:53:04.89	104.21	13.62	-48.5	-49.8	14.9	0.00e+00	0	24	0	375390208	63	4125
2026-01-08 07:53:06.04	104.11	13.72	-48.6	-49.9	14.9	0.00e+00	0	24	0	379584512	63	4179
2026-01-08 07:53:06.90	104.04	13.80	-48.5	-49.8	14.9	0.00e+00	0	24	0	381681664	63	4134
2026-01-08 07:53:08.04	103.94	13.91	-48.6	-49.9	14.9	0.00e+00	0	24	0	385875968	63	4152
2026-01-08 07:53:08.90	103.86	13.99	-48.5	-49.8	14.9	0.00e+00	0	25	0	387973120	63	4131
2026-01-08 07:53:10.04	103.76	14.09	-48.6	-49.8	14.9	0.00e+00	0	24	0	392167424	63	4145
2026-01-08 07:53:10.89	103.69	14.17	-48.6	-49.9	14.9	0.00e+00	0	24	0	394264576	63	4174
2026-01-08 07:53:12.04	103.59	14.28	-48.6	-49.9	14.8	0.00e+00	0	24	0	398458880	63	4172
2026-01-08 07:53:12.89	103.51	14.36	-48.6	-49.9	14.9	0.00e+00	0	24	0	400556032	63	4153
2026-01-08 07:53:14.02	103.41	14.46	-48.6	-49.9	14.9	0.00e+00	0	24	0	404750336	63	4158
2026-01-08 07:53:14.87	103.34	14.54	-48.5	-49.8	14.9	0.00e+00	0	24	0	406847488	63	4131
2026-01-08 07:53:16.01	103.23	14.65	-48.6	-49.9	14.9	0.00e+00	0	24	0	409993216	63	4156
2026-01-08 07:53:16.86	103.16	14.73	-48.4	-49.7	14.9	0.00e+00	0	24	0	413138944	63	4084
2026-01-08 07:53:17.99	103.05	14.84	-48.6	-49.9	14.9	0.00e+00	0	24	0	416284672	63	4166
2026-01-08 07:53:18.85	102.97	14.92	-48.6	-49.9	14.8	0.00e+00	0	24	0	419430400	63	4188
2026-01-08 07:53:19.99	102.87	15.03	-48.6	-49.9	14.9	0.00e+00	0	24	0	422576128	63	4161
2026-01-08 07:53:20.84	102.79	15.11	-48.5	-49.7	14.9	0.00e+00	0	24	0	425721856	63	4093
2026-01-08 07:53:21.98	102.68	15.22	-48.5	-49.8	14.9	0.00e+00	0	24	0	428867584	63	4134
2026-01-08 07:53:22.84	102.60	15.31	-48.5	-49.8	14.9	0.00e+00	0	24	0	432013312	63	4121
2026-01-08 07:53:23.98	102.49	15.42	-48.6	-49.9	14.9	0.00e+00	0	24	0	435159040	63	4162
2026-01-08 07:53:24.83	102.41	15.50	-48.5	-49.8	14.9	0.00e+00	0	24	0	438304768	63	4137
2026-01-08 07:53:25.96	102.30	15.61	-48.6	-49.9	14.9	0.00e+00	0	24	0	441450496	63	4152
2026-01-08 07:53:26.82	102.22	15.70	-48.7	-50.0	14.9	0.00e+00	0	24	0	444596224	63	4196
2026-01-08 07:53:27.95	102.11	15.81	-48.6	-49.9	14.9	0.00e+00	0	24	0	447741952	63	4178
2026-01-08 07:53:28.80	102.02	15.89	-48.7	-50.0	14.8	0.00e+00	0	24	0	450887680	63	4208
2026-01-08 07:53:29.94	101.91	16.00	-48.7	-50.0	14.8	0.00e+00	0	24	0	454033408	63	4231
2026-01-08 07:53:30.79	101.82	16.09	-48.7	-50.0	14.8	0.00e+00	0	24	0	456130560	63	4232
2026-01-08 07:53:31.94	101.71	16.20	-48.6	-49.9	14.9	0.00e+00	0	24	0	460324864	63	4182
2026-01-08 07:53:32.80	101.62	16.29	-48.8	-50.1	14.8	0.00e+00	0	24	0	462422016	63	4261
2026-01-08 07:53:33.93	101.51	16.40	-48.8	-50.1	14.8	0.00e+00	0	24	0	466616320	63	4269
2026-01-08 07:53:34.77	101.42	16.49	-48.8	-50.1	14.8	0.00e+00	0	24	0	468713472	63	4275
2026-01-08 07:53:35.91	101.30	16.60	-48.7	-50.0	14.8	0.00e+00	0	24	0	472907776	63	4230
2026-01-08 07:53:36.76	101.21	16.69	-48.7	-50.0	14.8	0.00e+00	0	24	0	475004928	63	4219
2026-01-08 07:53:37.90	101.09	16.80	-48.8	-50.1	14.8	0.00e+00	0	24	0	479199232	63	4274
2026-01-08 07:53:38.75	101.00	16.89	-48.8	-50.1	14.8	0.00e+00	0	24	0	481296384	63	4277
2026-01-08 07:53:39.89	100.88	17.00	-48.7	-50.0	14.8	0.00e+00	0	24	0	485490688	63	4216
2026-01-08 07:53:40.75	100.79	17.09	-48.7	-50.0	14.8	0.00e+00	0	25	0	487587840	63	4230
2026-01-08 07:53:41.88	100.67	17.21	-48.7	-50.0	14.8	0.00e+00	0	24	0	491782144	63	4226
2026-01-08 07:53:42.74	100.58	17.30	-48.8	-50.1	14.8	0.00e+00	0	24	0	493879296	63	4284
2026-01-08 07:53:43.87	100.45	17.41	-48.8	-50.1	14.8	0.00e+00	0	24	0	497025024	63	4266
2026-01-08 07:53:44.72	100.36	17.50	-48.8	-50.2	14.8	0.00e+00	0	24	0	500170752	63	4295
2026-01-08 07:53:45.85	100.23	17.62	-48.8	-50.1	14.8	0.00e+00	0	25	0	503316480	63	4248
2026-01-08 07:53:46.71	100.14	17.71	-48.7	-50.0	14.8	0.00e+00	0	24	0	506462208	63	4234
2026-01-08 07:53:47.85	100.01	17.83	-48.8	-50.1	14.8	0.00e+00	0	24	0	509607936	63	4276
2026-01-08 07:53:48.70	99.91	17.92	-48.8	-50.1	14.7	0.00e+00	0	24	0	512753664	63	4289
2026-01-08 07:53:49.84	99.78	18.04	-48.9	-50.2	14.7	0.00e+00	0	24	0	515899392	63	4339
2026-01-08 07:53:50.69	99.69	18.13	-48.9	-50.2	14.7	0.00e+00	0	24	0	519045120	63	4333
2026-01-08 07:53:51.83	99.55	18.25	-48.9	-50.3	14.7	0.00e+00	0	24	0	522190848	63	4344
2026-01-08 07:53:52.68	99.45	18.34	-49.0	-50.3	14.7	0.00e+00	0	24	0	525336576	63	4372
2026-01-08 07:53:53.81	99.32	18.46	-48.9	-50.2	14.7	0.00e+00	0	24	0	528482304	63	4310
2026-01-08 07:53:54.66	99.22	18.55	-48.8	-50.1	14.8	0.00e+00	0	24	0	531628032	63	4258
2026-01-08 07:53:55.80	99.09	18.67	-48.9	-50.2	14.8	0.00e+00	0	24	0	534773760	63	4305
2026-01-08 07:53:56.65	98.98	18.76	-48.6	-49.9	14.9	0.00e+00	0	25	0	537919488	63	4188
2026-01-08 07:53:57.79	98.85	18.89	-48.6	-49.9	14.9	0.00e+00	0	24	0	541065216	63	4166
2026-01-08 07:53:58.65	98.74	18.98	-48.7	-49.9	14.9	0.00e+00	0	24	0	543162368	63	4190
2026-01-08 07:53:59.79	98.60	19.10	-48.4	-49.6	15.0	0.00e+00	0	25	0	547356672	63	4024
2026-01-08 07:54:00.64	98.50	19.20	-48.3	-49.5	15.1	0.00e+00	0	24	0	549453824	63	3988
2026-01-08 07:54:01.78	98.36	19.32	-48.3	-49.5	15.0	0.00e+00	0	25	0	553648128	63	3994
2026-01-08 07:54:02.63	98.25	19.41	-48.2	-49.4	15.1	0.00e+00	0	24	0	555745280	63	3936
2026-01-08 07:54:03.77	98.11	19.54	-48.2	-49.4	14.9	0.00e+00	0	25	0	559939584	62	4170
2026-01-08 07:54:04.62	98.00	19.63	-48.1	-49.3	15.0	0.00e+00	0	24	0	562036736	62	4138
2026-01-08 07:54:05.75	97.85	19.76	-48.1	-49.4	15.0	0.00e+00	0	24	0	566231040	62	4152
2026-01-08 07:54:06.61	97.74	19.85	-48.2	-49.5	14.9	0.00e+00	0	24	0	568328192	62	4196
2026-01-08 07:54:07.74	97.60	19.98	-48.2	-49.5	14.9	0.00e+00	0	24	0	572522496	62	4197
2026-01-08 07:54:08.59	97.49	20.07	-48.2	-49.4	14.9	0.00e+00	0	24	0	574619648	62	4191
2026-01-08 07:54:09.74	97.33	20.20	-48.2	-49.4	14.9	0.00e+00	0	24	0	578813952	62	4185
2026-01-08 07:54:10.58	97.22	20.30	-48.1	-49.4	15.0	0.00e+00	0	24	0	580911104	62	4158
2026-01-08 07:54:11.72	97.07	20.43	-48.2	-49.5	14.9	0.00e+00	0	24	0	585105408	62	4214
2026-01-08 07:54:12.57	96.96	20.52	-48.2	-49.5	14.9	0.00e+00	0	25	0	587202560	62	4202
2026-01-08 07:54:13.71	96.80	20.65	-48.1	-49.4	15.0	0.00e+00	0	24	0	590348288	62	4156
2026-01-08 07:54:14.56	96.68	20.75	-48.2	-49.5	15.0	0.00e+00	0	25	0	593494016	62	4195
2026-01-08 07:54:15.69	96.53	20.88	-48.1	-49.3	15.0	0.00e+00	0	24	0	596639744	62	4127
2026-01-08 07:54:16.55	96.41	20.98	-48.0	-49.2	15.0	0.00e+00	0	24	0	599785472	62	4086
2026-01-08 07:54:17.70	96.25	21.11	-47.8	-49.0	15.1	0.00e+00	0	24	0	602931200	62	3977
2026-01-08 07:54:18.55	96.13	21.20	-47.8	-49.0	15.1	0.00e+00	0	24	0	606076928	62	4000
2026-01-08 07:54:19.69	95.97	21.34	-47.8	-49.0	15.1	0.00e+00	0	25	0	609222656	62	3986
2026-01-08 07:54:20.54	95.85	21.43	-47.7	-48.8	15.2	0.00e+00	0	24	0	612368384	62	3912
2026-01-08 07:54:21.68	95.68	21.57	-47.7	-48.9	15.0	0.00e+00	0	24	0	615514112	61	4146
2026-01-08 07:54:22.53	95.56	21.67	-47.6	-48.7	15.1	0.00e+00	0	24	0	618659840	61	4086
2026-01-08 07:54:23.67	95.39	21.80	-47.6	-48.8	15.1	0.00e+00	0	24	0	621805568	61	4113
2026-01-08 07:54:24.52	95.27	21.90	-47.6	-48.8	15.1	0.00e+00	0	24	0	624951296	61	4111
2026-01-08 07:54:25.66	95.10	22.03	-47.8	-49.0	15.0	0.00e+00	0	24	0	628097024	61	4227
2026-01-08 07:54:26.53	94.97	22.13	-47.8	-49.0	15.0	0.00e+00	0	24	0	631242752	61	4219
2026-01-08 07:54:27.67	94.79	22.27	-47.7	-48.9	15.0	0.00e+00	0	25	0	634388480	61	4151
2026-01-08 07:54:28.52	94.66	22.37	-47.6	-48.8	15.1	0.00e+00	0	25	0	637534208	61	4128
2026-01-08 07:54:29.65	94.49	22.50	-47.5	-48.6	15.1	0.00e+00	0	24	0	640679936	61	4046
2026-01-08 07:54:30.50	94.36	22.60	-47.4	-48.5	15.2	0.00e+00	0	24	0	642777088	61	3998
2026-01-08 07:54:31.64	94.18	22.74	-47.3	-48.5	15.2	0.00e+00	0	24	0	646971392	61	3983
2026-01-08 07:54:32.49	94.05	22.84	-47.4	-48.5	15.2	0.00e+00	0	24	0	649068544	61	3996
2026-01-08 07:54:33.63	93.87	22.98	-47.4	-48.5	15.2	0.00e+00	0	24	0	653262848	61	3996
2026-01-08 07:54:34.48	93.73	23.08	-47.5	-48.7	15.1	0.00e+00	0	24	0	655360000	61	4064
2026-01-08 07:54:35.62	93.55	23.22	-47.4	-48.6	15.1	0.00e+00	0	24	0	659554304	61	4030
2026-01-08 07:54:36.47	93.41	23.32	-47.5	-48.7	15.1	0.00e+00	0	25	0	661651456	61	4072
2026-01-08 07:54:37.61	93.23	23.46	-47.5	-48.7	15.1	0.00e+00	0	25	0	665845760	61	4070
2026-01-08 07:54:38.46	93.09	23.56	-47.5	-48.7	15.1	0.00e+00	0	25	0	667942912	61	4061
2026-01-08 07:54:39.60	92.90	23.70	-47.7	-48.9	15.0	0.00e+00	0	24	0	672137216	61	4168
2026-01-08 07:54:40.45	92.76	23.81	-47.6	-48.7	15.1	0.00e+00	0	24	0	674234368	61	4097
2026-01-08 07:54:41.59	92.57	23.94	-47.6	-48.8	15.1	0.00e+00	0	25	0	677380096	61	4102
2026-01-08 07:54:42.45	92.42	24.05	-47.6	-48.8	15.1	0.00e+00	0	24	0	680525824	61	4104
2026-01-08 07:54:43.58	92.23	24.19	-47.6	-48.8	15.1	0.00e+00	0	24	0	683671552	61	4115
2026-01-08 07:54:44.44	92.08	24.30	-47.7	-49.0	15.0	0.00e+00	0	24	0	686817280	61	4196
2026-01-08 07:54:45.57	91.88	24.43	-47.7	-48.9	15.0	0.00e+00	0	25	0	689963008	61	4169
2026-01-08 07:54:46.42	91.73	24.54	-47.8	-49.0	15.0	0.00e+00	0	25	0	693108736	61	4219
2026-01-08 07:54:47.56	91.53	24.68	-47.8	-49.0	15.0	0.00e+00	0	25	0	696254464	61	4222
2026-01-08 07:54:48.41	91.38	24.79	-47.8	-49.0	15.0	0.00e+00	0	24	0	699400192	61	4218
2026-01-08 07:54:49.55	91.18	24.93	-47.7	-48.9	15.0	0.00e+00	0	24	0	702545920	61	4174
2026-01-08 07:54:50.41	91.02	25.04	-47.7	-48.9	15.0	0.00e+00	0	24	0	705691648	61	4174
2026-01-08 07:54:51.55	90.81	25.18	-47.9	-49.1	15.0	0.00e+00	0	24	0	708837376	61	4250
2026-01-08 07:54:52.41	90.66	25.29	-47.9	-49.1	15.0	0.00e+00	0	24	0	711983104	61	4287
2026-01-08 07:54:53.54	90.45	25.43	-48.0	-49.3	14.9	0.00e+00	0	24	0	715128832	61	4344
2026-01-08 07:54:54.39	90.29	25.54	-48.1	-49.3	14.9	0.00e+00	0	24	0	718274560	61	4372
2026-01-08 07:54:55.53	90.07	25.68	-48.2	-49.5	14.8	0.00e+00	0	24	0	721420288	61	4465
2026-01-08 07:54:56.38	89.91	25.79	-48.3	-49.6	14.8	0.00e+00	0	24	0	724566016	61	4499
2026-01-08 07:54:57.52	89.69	25.93	-48.4	-49.7	14.8	0.00e+00	0	24	0	727711744	61	4570
2026-01-08 07:54:58.37	89.53	26.04	-48.5	-49.7	14.8	0.00e+00	0	24	0	729808896	62	4326
2026-01-08 07:54:59.51	89.31	26.19	-48.5	-49.8	14.8	0.00e+00	0	24	0	734003200	62	4364
2026-01-08 07:55:00.35	89.14	26.29	-48.3	-49.6	14.9	0.00e+00	0	24	0	736100352	62	4248
2026-01-08 07:55:01.49	88.92	26.44	-48.1	-49.4	15.0	0.00e+00	0	24	0	740294656	62	4149
2026-01-08 07:55:02.34	88.75	26.55	-48.0	-49.2	15.0	0.00e+00	0	24	0	742391808	62	4087
2026-01-08 07:55:03.48	88.52	26.69	-48.0	-49.2	15.0	0.00e+00	0	24	0	746586112	62	4064
2026-01-08 07:55:04.34	88.35	26.80	-48.1	-49.3	15.0	0.00e+00	0	24	0	748683264	62	4102
2026-01-08 07:55:05.48	88.11	26.95	-48.1	-49.3	15.0	0.00e+00	0	24	0	752877568	62	4126
2026-01-08 07:55:06.33	87.94	27.06	-48.1	-49.4	15.0	0.00e+00	0	24	0	754974720	62	4163
2026-01-08 07:55:07.47	87.70	27.21	-48.2	-49.5	15.0	0.00e+00	0	25	0	759169024	62	4199
2026-01-08 07:55:08.32	87.53	27.32	-48.3	-49.5	15.0	0.00e+00	0	24	0	761266176	62	4217
2026-01-08 07:55:09.46	87.29	27.46	-48.4	-49.6	14.9	0.00e+00	0	25	0	764411904	62	4277
2026-01-08 07:55:10.31	87.11	27.57	-48.3	-49.6	14.9	0.00e+00	0	25	0	767557632	62	4256
2026-01-08 07:55:11.46	86.86	27.72	-48.3	-49.5	14.9	0.00e+00	0	24	0	770703360	62	4241
2026-01-08 07:55:12.31	86.68	27.83	-48.3	-49.6	14.9	0.00e+00	0	25	0	773849088	62	4249
2026-01-08 07:55:13.44	86.43	27.98	-48.2	-49.4	15.0	0.00e+00	0	25	0	776994816	62	4170
2026-01-08 07:55:14.29	86.24	28.09	-48.1	-49.3	15.0	0.00e+00	0	24	0	780140544	62	4139
2026-01-08 07:55:15.43	85.99	28.24	-48.3	-49.5	14.9	0.00e+00	0	24	0	783286272	62	4229
2026-01-08 07:55:16.28	85.80	28.35	-48.3	-49.5	14.9	0.00e+00	0	25	0	786432000	62	4226
2026-01-08 07:55:17.42	85.54	28.50	-48.5	-49.8	14.8	0.00e+00	0	24	0	789577728	62	4350
2026-01-08 07:55:18.27	85.35	28.61	-48.5	-49.8	14.8	0.00e+00	0	25	0	792723456	62	4368
2026-01-08 07:55:19.42	85.09	28.76	-48.6	-49.9	14.8	0.00e+00	0	25	0	795869184	62	4392
2026-01-08 07:55:20.28	84.89	28.87	-48.6	-49.9	14.8	0.00e+00	0	24	0	799014912	62	4400
2026-01-08 07:55:21.41	84.63	29.02	-48.6	-49.9	14.8	0.00e+00	0	24	0	802160640	62	4419
2026-01-08 07:55:22.26	84.43	29.13	-48.7	-49.9	14.8	0.00e+00	0	25	0	805306368	62	4426
2026-01-08 07:55:23.40	84.16	29.28	-48.4	-49.7	14.9	0.00e+00	0	25	0	808452096	62	4302
2026-01-08 07:55:24.25	83.96	29.39	-48.4	-49.6	14.9	0.00e+00	0	25	0	811597824	62	4268
2026-01-08 07:55:25.38	83.69	29.54	-48.5	-49.8	14.8	0.00e+00	0	24	0	814743552	62	4344
2026-01-08 07:55:26.23	83.48	29.65	-48.5	-49.7	14.9	0.00e+00	0	25	0	817889280	62	4326
2026-01-08 07:55:27.37	83.20	29.80	-48.4	-49.6	14.9	0.00e+00	0	25	0	821035008	62	4291
2026-01-08 07:55:28.23	82.99	29.92	-48.4	-49.6	14.9	0.00e+00	0	25	0	824180736	62	4274
2026-01-08 07:55:29.37	82.71	30.07	-48.4	-49.6	14.9	0.00e+00	0	24	0	827326464	62	4284
2026-01-08 07:55:30.22	82.50	30.18	-48.5	-49.7	14.9	0.00e+00	0	25	0	829423616	62	4315
2026-01-08 07:55:31.35	82.21	30.33	-48.4	-49.6	14.9	0.00e+00	0	24	0	833617920	62	4272
2026-01-08 07:55:32.20	81.99	30.44	-48.5	-49.7	14.8	0.00e+00	0	25	0	835715072	62	4339
2026-01-08 07:55:33.34	81.70	30.59	-48.6	-49.8	14.8	0.00e+00	0	24	0	839909376	62	4389
2026-01-08 07:55:34.20	81.48	30.70	-48.6	-49.9	14.8	0.00e+00	0	24	0	842006528	62	4396
2026-01-08 07:55:35.33	81.19	30.85	-48.6	-49.8	14.8	0.00e+00	0	25	0	846200832	62	4391
2026-01-08 07:55:36.19	80.96	30.96	-48.5	-49.7	14.9	0.00e+00	0	24	0	848297984	62	4328
2026-01-08 07:55:37.33	80.66	31.11	-48.3	-49.5	15.0	0.00e+00	0	25	0	852492288	62	4215
2026-01-08 07:55:38.19	80.43	31.22	-48.3	-49.6	14.9	0.00e+00	0	24	0	854589440	62	4245
2026-01-08 07:55:39.32	80.12	31.37	-48.4	-49.6	14.9	0.00e+00	0	25	0	858783744	62	4266
2026-01-08 07:55:40.17	79.89	31.48	-48.5	-49.7	14.9	0.00e+00	0	25	0	860880896	62	4332
2026-01-08 07:55:41.31	79.58	31.63	-48.5	-49.7	14.9	0.00e+00	0	25	0	864026624	62	4325
2026-01-08 07:55:42.16	79.35	31.74	-48.6	-49.9	14.8	0.00e+00	0	25	0	867172352	62	4401
2026-01-08 07:55:43.29	79.03	31.88	-48.6	-49.9	14.8	0.00e+00	0	25	0	870318080	62	4397
2026-01-08 07:55:44.14	78.80	31.99	-48.7	-49.9	14.8	0.00e+00	0	25	0	873463808	62	4433
2026-01-08 07:55:45.27	78.48	32.14	-48.6	-49.9	14.8	0.00e+00	0	25	0	876609536	62	4397
2026-01-08 07:55:46.12	78.23	32.25	-48.7	-50.0	14.8	0.00e+00	0	24	0	879755264	62	4482
2026-01-08 07:55:47.26	77.91	32.40	-48.9	-50.2	14.7	0.00e+00	0	25	0	882900992	62	4570
2026-01-08 07:55:48.12	77.66	32.51	-49.0	-50.3	14.8	0.00e+00	0	24	0	886046720	63	4369
2026-01-08 07:55:49.26	77.33	32.65	-49.1	-50.4	14.7	0.00e+00	0	25	0	889192448	63	4435
2026-01-08 07:55:50.11	77.08	32.76	-49.2	-50.5	14.7	0.00e+00	0	24	0	892338176	63	4470
2026-01-08 07:55:51.25	76.74	32.91	-49.2	-50.5	14.7	0.00e+00	0	24	0	895483904	63	4479
2026-01-08 07:55:52.10	76.49	33.02	-49.2	-50.5	14.6	0.00e+00	0	24	0	898629632	63	4489
2026-01-08 07:55:53.23	76.15	33.16	-49.2	-50.6	14.6	0.00e+00	0	25	0	901775360	63	4507
2026-01-08 07:55:54.08	75.89	33.27	-49.0	-50.3	14.8	0.00e+00	0	24	0	904921088	63	4376
2026-01-08 07:55:55.23	75.54	33.41	-49.0	-50.3	14.8	0.00e+00	0	25	0	908066816	63	4374
2026-01-08 07:55:56.08	75.27	33.52	-49.1	-50.4	14.7	0.00e+00	0	24	0	911212544	63	4398
2026-01-08 07:55:57.22	74.92	33.66	-48.9	-50.2	14.8	0.00e+00	0	25	0	914358272	63	4305
2026-01-08 07:55:58.07	74.66	33.77	-48.9	-50.2	14.8	0.00e+00	0	25	0	916455424	63	4304
2026-01-08 07:55:59.20	74.30	33.91	-49.0	-50.3	14.8	0.00e+00	0	24	0	920649728	63	4351
2026-01-08 07:56:00.05	74.03	34.01	-49.2	-50.5	14.7	0.00e+00	0	25	0	922746880	63	4449
2026-01-08 07:56:01.18	73.67	34.15	-49.2	-50.5	14.7	0.00e+00	0	25	0	926941184	63	4453
2026-01-08 07:56:02.03	73.39	34.26	-49.3	-50.6	14.7	0.00e+00	0	25	0	929038336	63	4520
2026-01-08 07:56:03.17	73.02	34.40	-49.2	-50.6	14.6	0.00e+00	0	25	0	933232640	63	4502
2026-01-08 07:56:04.03	72.74	34.50	-49.4	-50.8	14.7	0.00e+00	0	25	0	935329792	64	4341
2026-01-08 07:56:05.17	72.37	34.64	-49.6	-51.0	14.6	0.00e+00	0	24	0	938475520	64	4449
2026-01-08 07:56:06.02	72.08	34.74	-49.6	-51.0	14.6	0.00e+00	0	25	0	941621248	64	4457
2026-01-08 07:56:07.16	71.70	34.88	-49.6	-51.0	14.6	0.00e+00	0	24	0	944766976	64	4459
2026-01-08 07:56:08.01	71.42	34.98	-49.5	-50.8	14.7	0.00e+00	0	25	0	947912704	64	4372
2026-01-08 07:56:09.15	71.03	35.12	-49.3	-50.6	14.8	0.00e+00	0	24	0	951058432	64	4262
2026-01-08 07:56:10.00	70.74	35.22	-49.4	-50.7	14.7	0.00e+00	0	25	0	954204160	64	4304
2026-01-08 07:56:11.13	70.35	35.35	-49.5	-50.9	14.6	0.00e+00	0	24	0	957349888	64	4401
2026-01-08 07:56:11.98	70.06	35.45	-49.6	-51.0	14.6	0.00e+00	0	24	0	960495616	64	4458
2026-01-08 07:56:13.11	69.66	35.58	-49.6	-50.9	14.6	0.00e+00	0	24	0	963641344	64	4441
2026-01-08 07:56:13.97	69.36	35.68	-49.7	-51.1	14.6	0.00e+00	0	25	0	966787072	64	4497
2026-01-08 07:56:15.10	68.96	35.81	-49.4	-50.8	14.7	0.00e+00	0	25	0	969932800	64	4359
2026-01-08 07:56:15.94	68.66	35.90	-49.4	-50.7	14.7	0.00e+00	0	25	0	973078528	64	4325
2026-01-08 07:56:17.09	68.24	36.03	-49.3	-50.6	14.7	0.00e+00	0	25	0	976224256	64	4267
2026-01-08 07:56:17.94	67.94	36.12	-49.3	-50.6	14.7	0.00e+00	0	25	0	979369984	64	4288
2026-01-08 07:56:19.08	67.52	36.25	-49.5	-50.8	14.7	0.00e+00	0	24	0	982515712	64	4373
2026-01-08 07:56:19.92	67.21	36.34	-49.3	-50.7	14.7	0.00e+00	0	24	0	985661440	64	4303
2026-01-08 07:56:21.07	66.79	36.47	-49.4	-50.7	14.7	0.00e+00	0	25	0	988807168	64	4329
2026-01-08 07:56:21.93	66.47	36.56	-49.4	-50.7	14.7	0.00e+00	0	24	0	991952896	64	4308
2026-01-08 07:56:23.07	66.04	36.68	-49.3	-50.6	14.7	0.00e+00	0	24	0	995098624	64	4283
2026-01-08 07:56:23.92	65.72	36.77	-49.3	-50.6	14.8	0.00e+00	0	25	0	997195776	64	4268
2026-01-08 07:56:25.05	65.30	36.89	-49.5	-50.8	14.7	0.00e+00	0	24	0	1001390080	64	4390
2026-01-08 07:56:25.90	64.97	36.98	-49.7	-51.1	14.5	0.00e+00	0	24	0	1003487232	64	4523
2026-01-08 07:56:27.04	64.53	37.09	-49.9	-51.3	14.5	0.00e+00	0	25	0	1007681536	64	4646
2026-01-08 07:56:27.90	64.20	37.18	-49.9	-51.3	14.6	0.00e+00	0	24	0	1009778688	65	4355
2026-01-08 07:56:29.04	63.76	37.29	-49.7	-51.1	14.7	0.00e+00	0	25	0	1013972992	65	4243
2026-01-08 07:56:29.89	63.43	37.38	-49.5	-50.8	14.8	0.00e+00	0	24	0	1016070144	65	4121
2026-01-08 07:56:31.02	62.98	37.48	-49.6	-51.0	14.7	0.00e+00	0	25	0	1020264448	65	4199
2026-01-08 07:56:31.87	62.65	37.57	-49.6	-50.9	14.8	0.00e+00	0	24	0	1022361600	65	4192
2026-01-08 07:56:33.01	62.19	37.67	-49.5	-50.9	14.8	0.00e+00	0	25	0	1025507328	65	4148
2026-01-08 07:56:33.86	61.85	37.75	-49.3	-50.6	14.9	0.00e+00	0	25	0	1028653056	65	4019
2026-01-08 07:56:34.99	61.40	37.86	-49.3	-50.5	15.0	0.00e+00	0	24	0	1031798784	65	4000
2026-01-08 07:56:35.85	61.05	37.94	-49.1	-50.4	14.9	0.00e+00	0	25	0	1034944512	64	4163
2026-01-08 07:56:36.99	60.59	38.04	-49.1	-50.4	14.8	0.00e+00	0	25	0	1038090240	64	4180
2026-01-08 07:56:37.84	60.24	38.11	-49.5	-50.8	14.6	0.00e+00	0	24	0	1041235968	64	4388
2026-01-08 07:56:38.98	59.77	38.21	-49.9	-51.3	14.4	0.00e+00	0	25	0	1044381696	64	4642
2026-01-08 07:56:39.84	59.42	38.28	-50.2	-51.7	14.4	0.00e+00	0	25	0	1047527424	65	4549
2026-01-08 07:56:40.98	58.94	38.38	-50.2	-51.7	14.4	0.00e+00	0	25	0	1050673152	65	4549
2026-01-08 07:56:41.83	58.59	38.45	-50.1	-51.5	14.5	0.00e+00	0	25	0	1053818880	65	4472
2026-01-08 07:56:42.97	58.11	38.54	-50.0	-51.5	14.5	0.00e+00	0	24	0	1056964608	65	4445
2026-01-08 07:56:43.82	57.75	38.61	-50.1	-51.5	14.5	0.00e+00	0	25	0	1060110336	65	4476
2026-01-08 07:56:44.96	57.27	38.69	-50.3	-51.8	14.4	0.00e+00	0	25	0	1063256064	65	4623
2026-01-08 07:56:45.81	56.91	38.76	-50.3	-51.7	14.4	0.00e+00	0	25	0	1066401792	65	4592
2026-01-08 07:56:46.95	56.42	38.84	-50.3	-51.8	14.4	0.00e+00	0	25	0	1069547520	65	4605
2026-01-08 07:56:47.80	56.05	38.90	-50.4	-51.8	14.3	0.00e+00	0	25	0	1072693248	65	4637
2026-01-08 07:56:48.94	55.56	38.98	-50.5	-52.0	14.4	0.00e+00	0	25	0	1075838976	66	4467
2026-01-08 07:56:49.79	55.19	39.04	-50.6	-52.1	14.4	0.00e+00	0	25	0	1078984704	66	4498
2026-01-08 07:56:50.93	54.70	39.12	-50.6	-52.1	14.4	0.00e+00	0	25	0	1082130432	66	4526
2026-01-08 07:56:51.79	54.32	39.17	-50.6	-52.1	14.4	0.00e+00	0	25	0	1085276160	66	4509
2026-01-08 07:56:52.92	53.83	39.25	-50.2	-51.6	14.6	0.00e+00	0	25	0	1088421888	66	4254
2026-01-08 07:56:53.77	53.45	39.30	-50.2	-51.6	14.6	0.00e+00	0	25	0	1090519040	66	4257
2026-01-08 07:56:54.91	52.95	39.37	-50.2	-51.7	14.6	0.00e+00	0	24	0	1094713344	66	4305
2026-01-08 07:56:55.76	52.57	39.42	-50.3	-51.8	14.5	0.00e+00	0	25	0	1096810496	66	4349
2026-01-08 07:56:56.89	52.07	39.48	-50.4	-51.9	14.4	0.00e+00	0	25	0	1101004800	66	4425
2026-01-08 07:56:57.74	51.69	39.53	-50.3	-51.7	14.5	0.00e+00	0	25	0	1103101952	66	4332
2026-01-08 07:56:58.88	51.18	39.59	-50.6	-52.1	14.4	0.00e+00	0	25	0	1107296256	66	4501
2026-01-08 07:56:59.73	50.80	39.63	-50.8	-52.3	14.3	0.00e+00	0	24	0	1109393408	66	4638
2026-01-08 07:57:00.88	50.28	39.68	-50.8	-52.4	14.2	0.00e+00	0	25	0	1113587712	66	4659
2026-01-08 07:57:01.73	49.89	39.72	-50.7	-52.2	14.3	0.00e+00	0	25	0	1115684864	66	4592
2026-01-08 07:57:02.87	49.38	39.77	-50.6	-52.1	14.4	0.00e+00	0	24	0	1118830592	66	4499
2026-01-08 07:57:03.72	48.99	39.81	-50.6	-52.1	14.3	0.00e+00	0	24	0	1121976320	66	4537
2026-01-08 07:57:04.85	48.47	39.86	-50.6	-52.1	14.4	0.00e+00	0	25	0	1125122048	66	4509
2026-01-08 07:57:05.71	48.08	39.89	-50.8	-52.4	14.2	0.00e+00	0	24	0	1128267776	66	4670
2026-01-08 07:57:06.85	47.56	39.93	-50.9	-52.5	14.3	0.00e+00	0	25	0	1131413504	67	4442
2026-01-08 07:57:07.70	47.17	39.96	-50.7	-52.3	14.4	0.00e+00	0	25	0	1134559232	67	4346
2026-01-08 07:57:08.84	46.64	40.00	-50.6	-52.1	14.5	0.00e+00	0	25	0	1137704960	67	4244
2026-01-08 07:57:09.69	46.25	40.02	-50.4	-51.9	14.6	0.00e+00	0	25	0	1140850688	67	4164
2026-01-08 07:57:10.83	45.73	40.06	-50.3	-51.7	14.7	0.00e+00	0	25	0	1143996416	67	4076
2026-01-08 07:57:11.68	45.33	40.08	-50.2	-51.6	14.7	0.00e+00	0	24	0	1147142144	67	4043
2026-01-08 07:57:12.82	44.81	40.11	-50.2	-51.6	14.7	0.00e+00	0	25	0	1150287872	67	4037
2026-01-08 07:57:13.68	44.41	40.13	-50.1	-51.5	14.6	0.00e+00	0	24	0	1153433600	66	4217
2026-01-08 07:57:14.83	43.87	40.15	-50.4	-51.8	14.5	0.00e+00	0	25	0	1156579328	66	4385
2026-01-08 07:57:15.67	43.48	40.16	-50.5	-52.0	14.4	0.00e+00	0	25	0	1159725056	66	4471
2026-01-08 07:57:16.82	42.95	40.18	-50.5	-52.0	14.4	0.00e+00	0	25	0	1162870784	66	4460
2026-01-08 07:57:17.67	42.55	40.19	-50.6	-52.1	14.3	0.00e+00	0	25	0	1166016512	66	4498
2026-01-08 07:57:18.81	42.02	40.21	-50.7	-52.2	14.3	0.00e+00	0	24	0	1169162240	66	4569
2026-01-08 07:57:19.65	41.63	40.21	-50.6	-52.1	14.4	0.00e+00	0	25	0	1172307968	66	4508
2026-01-08 07:57:20.78	41.10	40.22	-50.8	-52.3	14.3	0.00e+00	0	25	0	1175453696	66	4632
2026-01-08 07:57:21.64	40.70	40.23	-50.9	-52.5	14.3	0.00e+00	0	25	0	1177550848	67	4467
2026-01-08 07:57:22.78	40.17	40.23	-50.9	-52.5	14.3	0.00e+00	0	25	0	1181745152	67	4469
2026-01-08 07:57:23.63	39.77	40.23	-50.9	-52.4	14.3	0.00e+00	0	24	0	1183842304	67	4424
2026-01-08 07:57:24.76	39.24	40.23	-50.8	-52.3	14.4	0.00e+00	0	25	0	1188036608	67	4341
2026-01-08 07:57:25.62	38.84	40.22	-50.7	-52.2	14.4	0.00e+00	0	24	0	1190133760	67	4312
2026-01-08 07:57:26.76	38.31	40.22	-50.7	-52.3	14.4	0.00e+00	0	25	0	1194328064	67	4341
2026-01-08 07:57:27.62	37.91	40.21	-50.7	-52.2	14.4	0.00e+00	0	25	0	1196425216	67	4306
2026-01-08 07:57:28.77	37.37	40.20	-50.7	-52.2	14.4	0.00e+00	0	25	0	1200619520	67	4295
2026-01-08 07:57:29.62	36.98	40.19	-50.7	-52.2	14.4	0.00e+00	0	25	0	1202716672	67	4327
2026-01-08 07:57:30.76	36.45	40.17	-50.7	-52.2	14.4	0.00e+00	0	25	0	1206910976	67	4315
2026-01-08 07:57:31.62	36.05	40.16	-50.6	-52.1	14.5	0.00e+00	0	25	0	1209008128	67	4251
2026-01-08 07:57:32.75	35.52	40.14	-50.4	-51.8	14.6	0.00e+00	0	25	0	1213202432	67	4125
2026-01-08 07:57:33.60	35.13	40.12	-50.3	-51.6	14.7	0.00e+00	0	25	0	1215299584	67	4042
2026-01-08 07:57:34.74	34.60	40.09	-50.1	-51.4	14.7	0.00e+00	0	25	0	1219493888	66	4190
2026-01-08 07:57:35.59	34.21	40.07	-50.1	-51.5	14.6	0.00e+00	0	24	0	1221591040	66	4228
2026-01-08 07:57:36.73	33.68	40.04	-50.2	-51.6	14.6	0.00e+00	0	25	0	1224736768	66	4264
2026-01-08 07:57:37.59	33.28	40.02	-50.1	-51.4	14.7	0.00e+00	0	25	0	1227882496	66	4188
2026-01-08 07:57:38.72	32.76	39.98	-50.2	-51.7	14.6	0.00e+00	0	25	0	1231028224	66	4298
2026-01-08 07:57:39.58	32.37	39.95	-50.2	-51.6	14.6	0.00e+00	0	25	0	1234173952	66	4271
2026-01-08 07:57:40.72	31.85	39.91	-50.2	-51.6	14.6	0.00e+00	0	24	0	1237319680	66	4253
2026-01-08 07:57:41.57	31.46	39.88	-50.1	-51.5	14.6	0.00e+00	0	25	0	1240465408	66	4237
2026-01-08 07:57:42.72	30.93	39.83	-49.9	-51.3	14.7	0.00e+00	0	25	0	1243611136	66	4115
2026-01-08 07:57:43.56	30.55	39.80	-49.9	-51.3	14.8	0.00e+00	0	25	0	1246756864	66	4102
2026-01-08 07:57:44.69	30.04	39.75	-50.0	-51.4	14.7	0.00e+00	0	25	0	1249902592	66	4160
2026-01-08 07:57:45.54	29.65	39.71	-50.3	-51.7	14.6	0.00e+00	0	25	0	1253048320	66	4325
2026-01-08 07:57:46.68	29.14	39.66	-50.5	-52.0	14.4	0.00e+00	0	25	0	1256194048	66	4460
2026-01-08 07:57:47.53	28.76	39.62	-50.5	-52.0	14.4	0.00e+00	0	25	0	1259339776	66	4459
2026-01-08 07:57:48.66	28.25	39.56	-50.4	-51.8	14.4	0.00e+00	0	25	0	1262485504	66	4388
2026-01-08 07:57:49.51	27.87	39.51	-50.2	-51.6	14.5	0.00e+00	0	25	0	1264582656	66	4286
2026-01-08 07:57:50.64	27.36	39.45	-49.9	-51.3	14.7	0.00e+00	0	25	0	1268776960	66	4116
2026-01-08 07:57:51.49	26.99	39.40	-50.0	-51.4	14.6	0.00e+00	0	25	0	1270874112	66	4164
2026-01-08 07:57:52.62	26.49	39.34	-50.1	-51.4	14.7	0.00e+00	0	25	0	1275068416	66	4187
2026-01-08 07:57:53.48	26.11	39.28	-50.0	-51.3	14.7	0.00e+00	0	25	0	1277165568	66	4140
2026-01-08 07:57:54.62	25.61	39.21	-50.0	-51.3	14.7	0.00e+00	0	25	0	1281359872	66	4123
2026-01-08 07:57:55.47	25.24	39.16	-50.1	-51.5	14.7	0.00e+00	0	25	0	1283457024	66	4205
2026-01-08 07:57:56.61	24.74	39.08	-50.1	-51.4	14.7	0.00e+00	0	25	0	1287651328	66	4182
2026-01-08 07:57:57.45	24.37	39.03	-50.1	-51.4	14.7	0.00e+00	0	25	0	1289748480	66	4178
2026-01-08 07:57:58.59	23.88	38.95	-49.9	-51.2	14.8	0.00e+00	0	24	0	1293942784	66	4073
2026-01-08 07:57:59.44	23.52	38.89	-49.7	-51.0	14.9	0.00e+00	0	25	0	1296039936	66	3960
2026-01-08 07:58:00.57	23.03	38.81	-49.2	-50.5	15.0	0.00e+00	0	25	0	1300234240	65	3969
2026-01-08 07:58:01.43	22.66	38.74	-49.6	-50.9	14.8	0.00e+00	0	25	0	1302331392	65	4147
2026-01-08 07:58:02.56	22.19	38.66	-50.2	-51.6	14.5	0.00e+00	0	25	0	1305477120	65	4498
2026-01-08 07:58:03.41	21.83	38.59	-50.2	-51.6	14.5	0.00e+00	0	25	0	1308622848	65	4529
2026-01-08 07:58:04.56	21.34	38.50	-50.3	-51.7	14.4	0.00e+00	0	25	0	1311768576	65	4570
2026-01-08 07:58:05.42	20.98	38.43	-50.3	-51.7	14.4	0.00e+00	0	25	0	1314914304	65	4569
2026-01-08 07:58:06.56	20.51	38.34	-49.9	-51.2	14.6	0.00e+00	0	25	0	1318060032	65	4340
2026-01-08 07:58:07.41	20.16	38.26	-49.5	-50.8	14.8	0.00e+00	0	25	0	1321205760	65	4132
2026-01-08 07:58:08.55	19.69	38.17	-49.4	-50.7	14.8	0.00e+00	0	24	0	1324351488	65	4086
2026-01-08 07:58:09.40	19.34	38.09	-49.5	-50.8	14.8	0.00e+00	0	25	0	1327497216	65	4119
2026-01-08 07:58:10.54	18.87	37.99	-49.8	-51.2	14.6	0.00e+00	0	25	0	1330642944	65	4292
2026-01-08 07:58:11.39	18.53	37.92	-50.1	-51.5	14.5	0.00e+00	0	25	0	1333788672	65	4469
2026-01-08 07:58:12.52	18.07	37.81	-50.2	-51.6	14.5	0.00e+00	0	25	0	1336934400	65	4520
2026-01-08 07:58:13.37	17.73	37.74	-50.0	-51.4	14.6	0.00e+00	0	25	0	1340080128	65	4410
2026-01-08 07:58:14.52	17.27	37.63	-49.9	-51.3	14.6	0.00e+00	0	25	0	1343225856	65	4379
2026-01-08 07:58:15.38	16.93	37.55	-50.0	-51.4	14.6	0.00e+00	0	25	0	1346371584	65	4412
2026-01-08 07:58:16.51	16.49	37.44	-50.1	-51.5	14.5	0.00e+00	0	25	0	1349517312	65	4463
2026-01-08 07:58:17.36	16.16	37.36	-50.5	-52.0	14.4	0.00e+00	0	25	0	1351614464	66	4461
2026-01-08 07:58:18.50	15.71	37.24	-51.1	-52.8	14.1	0.00e+00	0	25	0	1355808768	67	4601
2026-01-08 07:58:19.36	15.38	37.16	-51.0	-52.6	14.2	0.00e+00	0	25	0	1357905920	67	4535
2026-01-08 07:58:20.49	14.94	37.04	-50.6	-52.0	14.5	0.00e+00	0	25	0	1362100224	67	4242
2026-01-08 07:58:21.35	14.62	36.96	-50.3	-51.7	14.7	0.00e+00	0	25	0	1364197376	67	4066
2026-01-08 07:58:22.48	14.19	36.84	-50.3	-51.7	14.6	0.00e+00	0	25	0	1368391680	67	4082
2026-01-08 07:58:23.33	13.87	36.75	-50.1	-51.5	14.6	0.00e+00	0	25	0	1370488832	66	4207
2026-01-08 07:58:24.47	13.44	36.63	-49.9	-51.2	14.8	0.00e+00	0	25	0	1374683136	66	4082
2026-01-08 07:58:25.32	13.12	36.54	-50.1	-51.5	14.6	0.00e+00	0	25	0	1376780288	66	4200
2026-01-08 07:58:26.46	12.70	36.42	-50.8	-52.3	14.3	0.00e+00	0	25	0	1380974592	66	4604
2026-01-08 07:58:27.31	12.39	36.32	-51.6	-53.2	14.0	0.00e+00	0	25	0	1383071744	68	4595
2026-01-08 07:58:28.45	11.97	36.20	-51.3	-52.8	14.3	0.00e+00	0	25	0	1387266048	68	4388
2026-01-08 07:58:29.30	11.66	36.11	-50.5	-51.9	14.6	0.00e+00	0	25	0	1389363200	67	4172
2026-01-08 07:58:30.43	11.26	35.98	-49.6	-50.9	14.8	0.00e+00	0	25	0	1393557504	65	4156
2026-01-08 07:58:31.28	10.95	35.88	-49.4	-50.6	14.9	0.00e+00	0	25	0	1395654656	65	4045
2026-01-08 07:58:32.42	10.55	35.76	-49.0	-50.2	15.0	0.00e+00	0	25	0	1398800384	64	4093
2026-01-08 07:58:33.27	10.25	35.66	-49.1	-50.4	14.9	0.00e+00	0	25	0	1401946112	64	4146
2026-01-08 07:58:34.41	9.85	35.53	-49.3	-50.6	14.8	0.00e+00	0	25	0	1405091840	64	4257
2026-01-08 07:58:35.26	9.55	35.43	-49.6	-50.9	14.7	0.00e+00	0	25	0	1408237568	64	4428
2026-01-08 07:58:36.41	9.16	35.30	-49.7	-51.1	14.6	0.00e+00	0	25	0	1411383296	64	4509
2026-01-08 07:58:37.26	8.87	35.20	-49.7	-51.1	14.6	0.00e+00	0	25	0	1414529024	64	4533
2026-01-08 07:58:38.40	8.48	35.06	-49.7	-51.0	14.6	0.00e+00	0	24	0	1417674752	64	4476
2026-01-08 07:58:39.26	8.19	34.96	-49.4	-50.7	14.8	0.00e+00	0	25	0	1420820480	64	4329
2026-01-08 07:58:40.39	7.81	34.83	-48.9	-50.2	15.0	0.00e+00	0	25	0	1423966208	64	4072
2026-01-08 07:58:41.25	7.52	34.72	-48.9	-50.2	15.0	0.00e+00	0	25	0	1427111936	64	4078
2026-01-08 07:58:42.39	7.15	34.58	-49.5	-50.8	14.7	0.00e+00	0	25	0	1430257664	64	4363
2026-01-08 07:58:43.24	6.87	34.48	-49.8	-51.2	14.6	0.00e+00	0	25	0	1433403392	64	4562
2026-01-08 07:58:44.38	6.50	34.34	-49.8	-51.1	14.5	0.00e+00	0	25	0	1436549120	64	4529
2026-01-08 07:58:45.24	6.22	34.24	-49.5	-50.8	14.6	0.00e+00	0	25	0	1439694848	64	4356
2026-01-08 07:58:46.38	5.85	34.10	-49.0	-50.3	14.9	0.00e+00	0	25	0	1442840576	64	4103
2026-01-08 07:58:47.24	5.58	33.99	-48.7	-49.9	14.9	0.00e+00	0	25	0	1445986304	63	4163
2026-01-08 07:58:48.38	5.22	33.85	-48.5	-49.7	15.0	0.00e+00	0	25	0	1449132032	63	4082
2026-01-08 07:58:49.24	4.95	33.74	-48.6	-49.8	15.0	0.00e+00	0	25	0	1452277760	63	4104
2026-01-08 07:58:50.37	4.60	33.60	-48.8	-50.1	14.9	0.00e+00	0	25	0	1455423488	63	4249
2026-01-08 07:58:51.22	4.34	33.50	-49.1	-50.3	14.8	0.00e+00	0	25	0	1458569216	63	4386
2026-01-08 07:58:52.35	3.99	33.35	-49.3	-50.6	14.7	0.00e+00	0	25	0	1461714944	63	4494
2026-01-08 07:58:53.19	3.73	33.25	-49.3	-50.6	14.7	0.00e+00	0	25	0	1463812096	63	4522
2026-01-08 07:58:54.33	3.39	33.10	-49.3	-50.6	14.7	0.00e+00	0	25	0	1468006400	63	4512
2026-01-08 07:58:55.18	3.14	33.00	-49.3	-50.6	14.7	0.00e+00	0	25	0	1470103552	63	4495
2026-01-08 07:58:56.33	2.79	32.85	-49.0	-50.2	14.8	0.00e+00	0	25	0	1474297856	63	4326
2026-01-08 07:58:57.17	2.55	32.74	-48.9	-50.1	14.9	0.00e+00	0	25	0	1476395008	63	4278
2026-01-08 07:58:58.31	2.21	32.60	-48.8	-50.0	14.9	0.00e+00	0	25	0	1480589312	63	4237
2026-01-08 07:58:59.16	1.97	32.49	-49.0	-50.2	14.8	0.00e+00	0	25	0	1482686464	63	4323
2026-01-08 07:59:00.30	1.64	32.34	-49.2	-50.5	14.7	0.00e+00	0	25	0	1485832192	63	4449
2026-01-08 07:59:01.14	1.40	32.23	-49.3	-50.6	14.7	0.00e+00	0	25	0	1488977920	63	4510
2026-01-08 07:59:02.28	1.08	32.09	-49.2	-50.6	14.7	0.00e+00	0	25	0	1492123648	63	4501
2026-01-08 07:59:03.13	0.84	31.98	-49.1	-50.3	14.8	0.00e+00	0	25	0	1495269376	63	4388
2026-01-08 07:59:04.26	0.52	31.83	-49.0	-50.2	14.8	0.00e+00	0	25	0	1498415104	63	4322
2026-01-08 07:59:05.11	0.29	31.72	-48.7	-49.9	14.9	0.00e+00	0	25	0	1501560832	63	4173
2026-01-08 07:59:06.24	359.98	31.57	-48.5	-49.7	15.0	0.00e+00	0	25	0	1504706560	63	4092
2026-01-08 07:59:07.09	359.75	31.46	-48.7	-50.0	14.9	0.00e+00	0	25	0	1507852288	63	4196
2026-01-08 07:59:08.23	359.44	31.32	-48.9	-50.2	14.9	0.00e+00	0	25	0	1510998016	63	4302
2026-01-08 07:59:09.08	359.21	31.21	-49.0	-50.3	14.8	0.00e+00	0	25	0	1514143744	63	4341
2026-01-08 07:59:10.22	358.91	31.06	-49.1	-50.4	14.8	0.00e+00	0	25	0	1517289472	63	4410
2026-01-08 07:59:11.07	358.69	30.95	-49.2	-50.4	14.7	0.00e+00	0	25	0	1520435200	63	4439
2026-01-08 07:59:12.21	358.39	30.80	-48.8	-50.0	14.9	0.00e+00	0	25	0	1523580928	63	4220
2026-01-08 07:59:13.06	358.17	30.69	-48.6	-49.8	15.0	0.00e+00	0	25	0	1525678080	63	4106
2026-01-08 07:59:14.20	357.88	30.54	-48.4	-49.6	15.1	0.00e+00	0	25	0	1529872384	63	4043
2026-01-08 07:59:15.04	357.66	30.43	-48.3	-49.5	15.1	0.00e+00	0	25	0	1531969536	63	3964
2026-01-08 07:59:16.18	357.37	30.28	-48.2	-49.3	15.2	0.00e+00	0	25	0	1536163840	63	3905
2026-01-08 07:59:17.04	357.16	30.17	-48.2	-49.4	15.0	0.00e+00	0	25	0	1538260992	62	4166
2026-01-08 07:59:18.18	356.87	30.02	-48.3	-49.5	15.0	0.00e+00	0	25	0	1542455296	62	4232
2026-01-08 07:59:19.03	356.66	29.91	-48.2	-49.4	15.0	0.00e+00	0	25	0	1544552448	62	4159
2026-01-08 07:59:20.17	356.39	29.76	-48.2	-49.4	15.0	0.00e+00	0	25	0	1548746752	62	4169
2026-01-08 07:59:21.02	356.18	29.65	-48.3	-49.5	14.9	0.00e+00	0	25	0	1550843904	62	4220
2026-01-08 07:59:22.15	355.91	29.50	-48.2	-49.4	15.0	0.00e+00	0	25	0	1555038208	62	4183
2026-01-08 07:59:23.00	355.70	29.39	-48.1	-49.3	15.0	0.00e+00	0	25	0	1557135360	62	4111
2026-01-08 07:59:24.14	355.43	29.24	-48.2	-49.3	15.0	0.00e+00	0	25	0	1561329664	62	4134
2026-01-08 07:59:25.00	355.23	29.13	-48.2	-49.3	15.0	0.00e+00	0	25	0	1563426816	62	4135
2026-01-08 07:59:26.13	354.97	28.98	-48.1	-49.3	15.0	0.00e+00	0	25	0	1567621120	62	4127
2026-01-08 07:59:26.98	354.77	28.87	-48.3	-49.5	15.0	0.00e+00	0	25	0	1569718272	62	4194
2026-01-08 07:59:28.11	354.51	28.72	-48.5	-49.8	14.9	0.00e+00	0	25	0	1572864000	62	4344
2026-01-08 07:59:28.97	354.32	28.61	-48.8	-50.1	14.8	0.00e+00	0	25	0	1576009728	62	4506
2026-01-08 07:59:30.10	354.06	28.46	-49.1	-50.4	14.8	0.00e+00	0	25	0	1579155456	63	4428
2026-01-08 07:59:30.94	353.88	28.35	-49.2	-50.5	14.7	0.00e+00	0	25	0	1582301184	63	4453
2026-01-08 07:59:32.08	353.62	28.20	-49.0	-50.3	14.8	0.00e+00	0	25	0	1585446912	63	4363
2026-01-08 07:59:32.93	353.44	28.09	-48.8	-50.0	14.9	0.00e+00	0	25	0	1588592640	63	4227
2026-01-08 07:59:34.08	353.18	27.94	-48.6	-49.8	14.9	0.00e+00	0	25	0	1591738368	63	4145
2026-01-08 07:59:34.93	353.00	27.83	-48.4	-49.6	15.1	0.00e+00	0	25	0	1594884096	63	4009
2026-01-08 07:59:36.06	352.76	27.69	-48.1	-49.2	15.1	0.00e+00	0	25	0	1598029824	62	4098
2026-01-08 07:59:36.91	352.58	27.58	-47.9	-49.1	15.1	0.00e+00	0	25	0	1601175552	62	4031
2026-01-08 07:59:38.05	352.34	27.43	-48.2	-49.4	15.0	0.00e+00	0	25	0	1604321280	62	4149
2026-01-08 07:59:38.89	352.16	27.32	-48.2	-49.4	15.0	0.00e+00	0	25	0	1607467008	62	4182
2026-01-08 07:59:40.03	351.92	27.18	-48.4	-49.6	14.9	0.00e+00	0	25	0	1610612736	62	4265
2026-01-08 07:59:40.88	351.75	27.07	-48.4	-49.6	14.9	0.00e+00	0	25	0	1612709888	62	4277
2026-01-08 07:59:42.01	351.52	26.92	-48.5	-49.7	14.9	0.00e+00	0	25	0	1616904192	62	4336
2026-01-08 07:59:42.86	351.34	26.81	-48.6	-49.8	14.9	0.00e+00	0	25	0	1619001344	62	4381
2026-01-08 07:59:44.00	351.12	26.67	-48.5	-49.8	14.9	0.00e+00	0	25	0	1623195648	62	4353
2026-01-08 07:59:44.84	350.95	26.56	-48.5	-49.8	14.9	0.00e+00	0	25	0	1625292800	62	4360
2026-01-08 07:59:45.98	350.72	26.41	-48.3	-49.5	14.9	0.00e+00	0	25	0	1629487104	62	4232
2026-01-08 07:59:46.83	350.56	26.31	-48.2	-49.4	15.0	0.00e+00	0	25	0	1631584256	62	4162
2026-01-08 07:59:47.98	350.33	26.16	-48.1	-49.3	15.0	0.00e+00	0	25	0	1635778560	62	4139
2026-01-08 07:59:48.83	350.17	26.05	-48.1	-49.3	15.0	0.00e+00	0	25	0	1637875712	62	4129
2026-01-08 07:59:49.97	349.95	25.91	-48.1	-49.3	15.0	0.00e+00	0	25	0	1641021440	62	4131
2026-01-08 07:59:50.82	349.79	25.80	-48.1	-49.3	15.0	0.00e+00	0	25	0	1644167168	62	4110
2026-01-08 07:59:51.97	349.57	25.65	-48.3	-49.5	15.0	0.00e+00	0	25	0	1647312896	62	4199
2026-01-08 07:59:52.82	349.41	25.55	-48.3	-49.5	15.0	0.00e+00	0	25	0	1650458624	62	4212
2026-01-08 07:59:53.95	349.20	25.41	-48.5	-49.7	14.9	0.00e+00	0	25	0	1653604352	62	4311
2026-01-08 07:59:54.81	349.04	25.30	-48.5	-49.8	14.9	0.00e+00	0	25	0	1656750080	62	4354
2026-01-08 07:59:55.95	348.84	25.16	-48.6	-49.8	14.8	0.00e+00	0	25	0	1659895808	62	4380
2026-01-08 07:59:56.79	348.68	25.05	-48.5	-49.7	14.9	0.00e+00	0	25	0	1663041536	62	4313
2026-01-08 07:59:57.92	348.48	24.91	-48.3	-49.6	14.9	0.00e+00	0	25	0	1666187264	62	4250
2026-01-08 07:59:58.78	348.33	24.80	-48.3	-49.5	15.0	0.00e+00	0	25	0	1669332992	62	4202
2026-01-08 07:59:59.91	348.13	24.66	-48.1	-49.3	15.0	0.00e+00	0	25	0	1672478720	62	4124
2026-01-08 08:00:00.75	347.98	24.56	-48.1	-49.3	15.0	0.00e+00	0	25	0	1675624448	62	4112
2026-01-08 08:00:01.90	347.78	24.42	-48.1	-49.3	15.1	0.00e+00	0	25	0	1678770176	62	4099
2026-01-08 08:00:02.75	347.63	24.31	-48.0	-49.2	15.1	0.00e+00	0	25	0	1681915904	62	4060
2026-01-08 08:00:03.89	347.44	24.17	-47.9	-49.1	15.1	0.00e+00	0	25	0	1685061632	62	4028
2026-01-08 08:00:04.74	347.29	24.07	-47.9	-49.0	15.2	0.00e+00	0	25	0	1688207360	62	3997
2026-01-08 08:00:05.88	347.10	23.93	-47.9	-49.1	15.1	0.00e+00	0	25	0	1691353088	62	4024
2026-01-08 08:00:06.74	346.96	23.82	-47.9	-49.0	15.2	0.00e+00	0	25	0	1694498816	62	3986
2026-01-08 08:00:07.87	346.77	23.69	-48.0	-49.2	15.1	0.00e+00	0	25	0	1697644544	62	4053
2026-01-08 08:00:08.72	346.63	23.58	-48.0	-49.2	15.1	0.00e+00	0	25	0	1699741696	62	4073
2026-01-08 08:00:09.85	346.44	23.45	-48.1	-49.3	15.1	0.00e+00	0	25	0	1703936000	62	4116
2026-01-08 08:00:10.71	346.30	23.34	-48.1	-49.3	15.0	0.00e+00	0	25	0	1706033152	62	4139
2026-01-08 08:00:11.84	346.12	23.21	-48.2	-49.4	15.0	0.00e+00	0	24	0	1710227456	62	4149
2026-01-08 08:00:12.69	345.99	23.10	-48.2	-49.4	15.0	0.00e+00	0	25	0	1712324608	62	4154
2026-01-08 08:00:13.82	345.81	22.97	-48.0	-49.2	15.1	0.00e+00	0	25	0	1716518912	62	4090
2026-01-08 08:00:14.68	345.67	22.87	-48.0	-49.2	15.1	0.00e+00	0	25	0	1718616064	62	4082
2026-01-08 08:00:15.80	345.50	22.73	-48.1	-49.3	15.0	0.00e+00	0	25	0	1721761792	62	4130
2026-01-08 08:00:16.65	345.37	22.63	-48.1	-49.3	15.0	0.00e+00	0	25	0	1724907520	62	4121
2026-01-08 08:00:17.78	345.19	22.50	-48.1	-49.3	15.1	0.00e+00	0	25	0	1728053248	62	4106
2026-01-08 08:00:18.63	345.06	22.40	-48.1	-49.3	15.0	0.00e+00	0	25	0	1731198976	62	4145
2026-01-08 08:00:19.77	344.89	22.26	-48.2	-49.4	15.0	0.00e+00	0	25	0	1734344704	62	4181
2026-01-08 08:00:20.62	344.76	22.16	-48.3	-49.5	14.9	0.00e+00	0	25	0	1737490432	62	4242
2026-01-08 08:00:21.77	344.59	22.03	-48.5	-49.7	14.9	0.00e+00	0	25	0	1740636160	62	4321
2026-01-08 08:00:22.63	344.47	21.93	-48.5	-49.7	14.9	0.00e+00	0	25	0	1743781888	62	4324
2026-01-08 08:00:23.77	344.30	21.80	-48.6	-49.8	14.8	0.00e+00	0	25	0	1746927616	62	4391
2026-01-08 08:00:24.62	344.17	21.70	-48.5	-49.8	14.9	0.00e+00	0	25	0	1750073344	62	4345
2026-01-08 08:00:25.76	344.01	21.56	-48.1	-49.3	15.0	0.00e+00	0	25	0	1753219072	62	4144
2026-01-08 08:00:26.61	343.89	21.47	-48.0	-49.2	15.1	0.00e+00	0	25	0	1756364800	62	4092
2026-01-08 08:00:27.74	343.73	21.34	-48.0	-49.2	15.1	0.00e+00	0	25	0	1759510528	62	4068
2026-01-08 08:00:28.59	343.61	21.24	-47.9	-49.1	15.1	0.00e+00	0	25	0	1762656256	62	4010
2026-01-08 08:00:29.72	343.45	21.11	-48.0	-49.2	15.1	0.00e+00	0	24	0	1765801984	62	4072
2026-01-08 08:00:30.57	343.33	21.01	-48.0	-49.1	15.1	0.00e+00	0	25	0	1768947712	62	4051
2026-01-08 08:00:31.71	343.17	20.88	-47.9	-49.1	15.1	0.00e+00	0	24	0	1772093440	62	4035
2026-01-08 08:00:32.56	343.06	20.79	-48.0	-49.2	15.1	0.00e+00	0	25	0	1774190592	62	4056
2026-01-08 08:00:33.69	342.90	20.66	-48.0	-49.2	15.1	0.00e+00	0	25	0	1778384896	62	4068
2026-01-08 08:00:34.55	342.79	20.56	-48.1	-49.2	15.1	0.00e+00	0	25	0	1780482048	62	4094
2026-01-08 08:00:35.68	342.64	20.43	-48.0	-49.2	15.1	0.00e+00	0	25	0	1784676352	62	4060
2026-01-08 08:00:36.54	342.52	20.34	-47.9	-49.1	15.1	0.00e+00	0	24	0	1786773504	62	4029
2026-01-08 08:00:37.67	342.37	20.21	-47.9	-49.0	15.1	0.00e+00	0	25	0	1790967808	62	4003
2026-01-08 08:00:38.53	342.26	20.11	-47.8	-49.0	15.2	0.00e+00	0	25	0	1793064960	62	3961
2026-01-08 08:00:39.66	342.11	19.99	-47.7	-48.9	15.2	0.00e+00	0	25	0	1797259264	62	3927
2026-01-08 08:00:40.50	342.00	19.90	-47.7	-48.8	15.1	0.00e+00	0	25	0	1799356416	61	4131
2026-01-08 08:00:41.64	341.86	19.77	-47.5	-48.7	15.1	0.00e+00	0	25	0	1803550720	61	4052
2026-01-08 08:00:42.49	341.75	19.68	-47.5	-48.7	15.1	0.00e+00	0	25	0	1805647872	61	4070
2026-01-08 08:00:43.62	341.61	19.55	-47.5	-48.7	15.1	0.00e+00	0	25	0	1808793600	61	4054
2026-01-08 08:00:44.47	341.50	19.46	-47.6	-48.7	15.1	0.00e+00	0	25	0	1811939328	61	4084
2026-01-08 08:00:45.61	341.36	19.33	-47.6	-48.8	15.1	0.00e+00	0	25	0	1815085056	61	4100
2026-01-08 08:00:46.46	341.25	19.24	-47.6	-48.7	15.1	0.00e+00	0	25	0	1818230784	61	4092
2026-01-08 08:00:47.61	341.11	19.12	-47.7	-48.9	15.1	0.00e+00	0	25	0	1821376512	61	4146
2026-01-08 08:00:48.46	341.01	19.02	-47.7	-48.9	15.0	0.00e+00	0	25	0	1824522240	61	4164
2026-01-08 08:00:49.60	340.87	18.90	-47.8	-49.0	15.0	0.00e+00	0	25	0	1827667968	61	4213
2026-01-08 08:00:50.45	340.77	18.81	-47.9	-49.1	15.0	0.00e+00	0	24	0	1830813696	61	4245
2026-01-08 08:00:51.59	340.63	18.69	-48.0	-49.2	14.9	0.00e+00	0	25	0	1833959424	61	4319
2026-01-08 08:00:52.43	340.53	18.60	-48.1	-49.3	14.9	0.00e+00	0	25	0	1837105152	61	4355
2026-01-08 08:00:53.57	340.40	18.48	-48.1	-49.3	14.9	0.00e+00	0	25	0	1840250880	61	4390
2026-01-08 08:00:54.42	340.30	18.39	-48.2	-49.4	14.9	0.00e+00	0	25	0	1843396608	61	4426
2026-01-08 08:00:55.55	340.17	18.27	-48.4	-49.6	14.8	0.00e+00	0	25	0	1846542336	61	4518
2026-01-08 08:00:56.39	340.07	18.18	-48.4	-49.6	14.8	0.00e+00	0	25	0	1848639488	61	4526
2026-01-08 08:00:57.52	339.95	18.06	-48.5	-49.8	14.8	0.00e+00	0	25	0	1852833792	62	4360
2026-01-08 08:00:58.37	339.85	17.97	-48.5	-49.7	14.8	0.00e+00	0	25	0	1854930944	62	4327
2026-01-08 08:00:59.50	339.72	17.85	-48.6	-49.9	14.8	0.00e+00	0	25	0	1859125248	62	4420
2026-01-08 08:01:00.36	339.63	17.76	-48.5	-49.8	14.8	0.00e+00	0	25	0	1861222400	62	4374
2026-01-08 08:01:01.49	339.50	17.64	-48.5	-49.7	14.9	0.00e+00	0	25	0	1865416704	62	4340
2026-01-08 08:01:02.34	339.41	17.56	-48.6	-49.9	14.8	0.00e+00	0	25	0	1867513856	62	4398
2026-01-08 08:01:03.48	339.28	17.44	-48.5	-49.8	14.8	0.00e+00	0	25	0	1871708160	62	4362
2026-01-08 08:01:04.33	339.19	17.35	-48.4	-49.6	14.9	0.00e+00	0	25	0	1873805312	62	4271
2026-01-08 08:01:05.46	339.07	17.23	-48.4	-49.6	14.9	0.00e+00	0	24	0	1876951040	62	4283
2026-01-08 08:01:06.32	338.98	17.15	-48.3	-49.5	14.9	0.00e+00	0	25	0	1880096768	62	4213
2026-01-08 08:01:07.45	338.86	17.03	-48.3	-49.5	14.9	0.00e+00	0	25	0	1883242496	62	4217
2026-01-08 08:01:08.31	338.76	16.94	-48.1	-49.3	15.0	0.00e+00	0	25	0	1886388224	62	4132
2026-01-08 08:01:09.45	338.64	16.83	-48.1	-49.3	15.0	0.00e+00	0	24	0	1889533952	62	4128
2026-01-08 08:01:10.29	338.56	16.74	-48.0	-49.1	15.1	0.00e+00	0	25	0	1892679680	62	4046
2026-01-08 08:01:11.43	338.44	16.63	-47.9	-49.1	15.1	0.00e+00	0	25	0	1895825408	62	4043
2026-01-08 08:01:12.29	338.35	16.54	-47.9	-49.1	15.1	0.00e+00	0	25	0	1898971136	62	4033
2026-01-08 08:01:13.42	338.24	16.43	-48.0	-49.2	15.0	0.00e+00	0	25	0	1902116864	62	4086
2026-01-08 08:01:14.27	338.15	16.34	-48.1	-49.3	15.0	0.00e+00	0	25	0	1905262592	62	4101
2026-01-08 08:01:15.41	338.03	16.23	-48.1	-49.3	15.0	0.00e+00	0	25	0	1908408320	62	4144
2026-01-08 08:01:16.26	337.95	16.15	-48.3	-49.5	14.9	0.00e+00	0	25	0	1911554048	62	4212
2026-01-08 08:01:17.41	337.84	16.03	-48.4	-49.7	14.9	0.00e+00	0	25	0	1914699776	62	4298
2026-01-08 08:01:18.27	337.75	15.95	-48.4	-49.6	14.9	0.00e+00	0	25	0	1917845504	62	4290
2026-01-08 08:01:19.40	337.64	15.84	-48.5	-49.8	14.8	0.00e+00	0	25	0	1920991232	62	4341
2026-01-08 08:01:20.25	337.56	15.75	-48.5	-49.8	14.8	0.00e+00	0	24	0	1924136960	62	4344
2026-01-08 08:01:21.39	337.45	15.64	-48.7	-49.9	14.7	0.00e+00	0	25	0	1927282688	62	4438
2026-01-08 08:01:22.24	337.37	15.56	-48.6	-49.9	14.8	0.00e+00	0	25	0	1930428416	62	4403
2026-01-08 08:01:23.37	337.26	15.45	-48.6	-49.8	14.8	0.00e+00	0	25	0	1933574144	62	4391
2026-01-08 08:01:24.23	337.18	15.37	-48.6	-49.9	14.7	0.00e+00	0	25	0	1935671296	62	4415
2026-01-08 08:01:25.36	337.07	15.26	-48.6	-49.9	14.8	0.00e+00	0	25	0	1939865600	62	4400
2026-01-08 08:01:26.21	336.99	15.17	-48.6	-49.9	14.8	0.00e+00	0	25	0	1941962752	62	4401
2026-01-08 08:01:27.35	336.88	15.07	-48.7	-49.9	14.7	0.00e+00	0	25	0	1946157056	62	4436
2026-01-08 08:01:28.20	336.81	14.98	-48.6	-49.9	14.8	0.00e+00	0	25	0	1948254208	62	4397
2026-01-08 08:01:29.34	336.70	14.88	-48.5	-49.7	14.8	0.00e+00	0	25	0	1952448512	62	4324
2026-01-08 08:01:30.19	336.62	14.79	-48.5	-49.8	14.8	0.00e+00	0	25	0	1954545664	62	4346
2026-01-08 08:01:31.33	336.52	14.69	-48.5	-49.8	14.8	0.00e+00	0	24	0	1958739968	62	4371
2026-01-08 08:01:32.18	336.44	14.61	-48.4	-49.7	14.9	0.00e+00	0	25	0	1960837120	62	4296
2026-01-08 08:01:33.31	336.34	14.50	-48.5	-49.7	14.8	0.00e+00	0	25	0	1963982848	62	4340
2026-01-08 08:01:34.17	336.27	14.42	-48.5	-49.7	14.8	0.00e+00	0	25	0	1967128576	62	4320
2026-01-08 08:01:35.32	336.17	14.31	-48.4	-49.7	14.8	0.00e+00	0	25	0	1970274304	62	4306
2026-01-08 08:01:36.18	336.09	14.23	-48.5	-49.7	14.8	0.00e+00	0	25	0	1973420032	62	4325
2026-01-08 08:01:37.32	335.99	14.13	-48.4	-49.7	14.8	0.00e+00	0	25	0	1977614336	62	4309
2026-01-08 08:01:38.17	335.92	14.05	-48.4	-49.7	14.9	0.00e+00	0	25	0	1979711488	62	4294
2026-01-08 08:01:39.31	335.82	13.94	-48.4	-49.7	14.8	0.00e+00	0	25	0	1982857216	62	4313
2026-01-08 08:01:40.16	335.75	13.86	-48.5	-49.8	14.8	0.00e+00	0	25	0	1986002944	62	4367
2026-01-08 08:01:41.31	335.65	13.76	-48.5	-49.7	14.8	0.00e+00	0	25	0	1989148672	62	4331
2026-01-08 08:01:42.16	335.58	13.68	-48.4	-49.7	14.8	0.00e+00	0	25	0	1992294400	62	4317
2026-01-08 08:01:43.29	335.48	13.58	-48.6	-49.8	14.8	0.00e+00	0	24	0	1995440128	62	4385
2026-01-08 08:01:44.14	335.41	13.50	-48.5	-49.8	14.8	0.00e+00	0	24	0	1998585856	62	4351
2026-01-08 08:01:45.28	335.32	13.40	-48.5	-49.8	14.8	0.00e+00	0	25	0	2001731584	62	4370
2026-01-08 08:01:46.12	335.25	13.32	-48.6	-49.8	14.8	0.00e+00	0	25	0	2004877312	62	4383
2026-01-08 08:01:47.25	335.16	13.22	-48.5	-49.8	14.8	0.00e+00	0	25	0	2008023040	62	4377
2026-01-08 08:01:48.11	335.09	13.14	-48.6	-49.9	14.8	0.00e+00	0	25	0	2011168768	62	4410
2026-01-08 08:01:49.25	335.00	13.04	-48.7	-50.0	14.7	0.00e+00	0	25	0	2014314496	62	4461
2026-01-08 08:01:50.10	334.93	12.96	-48.8	-50.1	14.7	0.00e+00	0	25	0	2017460224	62	4501
2026-01-08 08:01:51.24	334.84	12.86	-48.9	-50.2	14.6	0.00e+00	0	25	0	2020605952	62	4565
2026-01-08 08:01:52.08	334.77	12.79	-48.8	-50.1	14.6	0.00e+00	0	25	0	2022703104	62	4543
2026-01-08 08:01:53.21	334.68	12.69	-48.9	-50.2	14.6	0.00e+00	0	25	0	2026897408	62	4579
2026-01-08 08:01:54.07	334.62	12.61	-48.8	-50.2	14.8	0.00e+00	0	25	0	2028994560	63	4297
2026-01-08 08:01:55.21	334.53	12.51	-48.8	-50.1	14.8	0.00e+00	0	25	0	2033188864	63	4276
2026-01-08 08:01:56.06	334.46	12.43	-48.8	-50.1	14.8	0.00e+00	0	25	0	2035286016	63	4264
