passes_logs/2026/01/08/R3.2S_Murmansk/R3.2S_Murmansk__20260108_081948_SUOMI_NPP_rec.log

#Pass ID: 20260108_081948_SUOMI NPP
#Satellite: SUOMI NPP
#Configuration: NPP
#almurnet v.1.7.20251203
#Start time: 2026-01-08 08:19:50

#Version: 2.2.20231116
#Station: R3.2S_Murmansk
#Location: 33.079688 lon 68.888172 lat
#TLE: 1 37849U 11061A   26005.94084933  .00000134  00000+0  84554-4 0  9990
#TLE: 2 37849  98.7803 308.0679 0002567  79.1029 281.0436 14.19522657735426

#Time	Az	El	Level	Level2	SNR	BER	BlckErr	Temp	State	Recorded	gain1	gain2
2026-01-08 08:19:50.58	122.09	2.15	-57.3	-73.3	3.8	1.49e+00	0	23	0	0	81	21866
2026-01-08 08:19:51.57	122.06	2.21	-57.3	-73.3	3.8	1.49e+00	0	23	104	0	79	24428
2026-01-08 08:19:52.57	122.04	2.28	-57.2	-73.3	3.8	1.49e+00	0	23	104	0	79	24448
2026-01-08 08:19:53.57	122.01	2.34	-57.2	-73.3	3.8	1.49e+00	0	23	104	0	79	24425
2026-01-08 08:19:54.55	121.98	2.40	-57.2	-73.3	3.8	1.49e+00	0	23	104	0	79	24482
2026-01-08 08:19:55.56	121.95	2.47	-57.2	-73.3	3.8	1.49e+00	0	23	104	0	79	24436
2026-01-08 08:19:56.56	121.92	2.53	-57.2	-73.2	3.8	1.49e+00	0	23	104	0	79	24374
2026-01-08 08:19:57.55	121.89	2.59	-57.2	-73.2	3.8	1.49e+00	0	23	104	0	79	24380
2026-01-08 08:19:58.55	121.86	2.66	-57.2	-73.2	3.8	1.49e+00	0	23	104	0	79	24407
2026-01-08 08:19:59.55	121.83	2.72	-57.2	-73.3	3.8	1.49e+00	0	23	104	0	79	24435
2026-01-08 08:20:00.55	121.80	2.79	-57.2	-73.3	3.8	1.49e+00	0	23	104	0	79	24435
2026-01-08 08:20:01.55	121.77	2.85	-57.2	-73.3	3.8	1.49e+00	0	23	104	0	79	24431
2026-01-08 08:20:02.55	121.74	2.92	-57.3	-73.3	3.8	1.49e+00	0	23	104	0	79	24471
2026-01-08 08:20:03.54	121.71	2.98	-57.2	-73.2	3.8	1.49e+00	0	23	104	0	79	24391
2026-01-08 08:20:04.53	121.68	3.04	-57.2	-73.2	3.8	1.49e+00	0	23	104	0	79	24306
2026-01-08 08:20:05.54	121.65	3.11	-57.2	-73.2	3.8	1.49e+00	0	23	104	0	79	24351
2026-01-08 08:20:06.53	121.62	3.17	-57.3	-73.2	3.8	1.49e+00	0	23	104	0	79	24199
2026-01-08 08:20:07.53	121.59	3.24	-57.2	-73.2	3.8	1.49e+00	0	23	104	0	79	24147
2026-01-08 08:20:08.53	121.56	3.31	-57.2	-73.1	3.8	1.49e+00	0	23	104	0	79	23933
2026-01-08 08:20:09.53	121.53	3.37	-57.2	-73.0	3.8	1.49e+00	0	23	104	0	79	23660
2026-01-08 08:20:10.53	121.50	3.44	-57.2	-72.8	3.8	1.49e+00	0	23	104	0	79	23238
2026-01-08 08:20:11.53	121.47	3.50	-57.2	-72.7	3.8	1.49e+00	0	23	104	0	79	22845
2026-01-08 08:20:12.52	121.44	3.57	-57.2	-72.4	3.8	1.49e+00	0	23	104	0	79	22165
2026-01-08 08:20:13.53	121.41	3.64	-57.2	-72.1	3.8	1.49e+00	0	23	104	0	79	21349
2026-01-08 08:20:14.52	121.37	3.70	-57.2	-71.6	3.8	1.49e+00	0	23	104	0	79	20102
2026-01-08 08:20:15.52	121.34	3.77	-57.2	-71.1	3.8	1.49e+00	0	23	104	0	79	18966
2026-01-08 08:20:16.52	121.31	3.83	-57.1	-70.2	4.1	1.46e+00	0	23	0	0	79	17235
2026-01-08 08:20:17.51	121.28	3.90	-57.1	-69.5	4.3	1.39e+00	0	23	0	0	79	15851
2026-01-08 08:20:18.51	121.25	3.97	-57.0	-68.5	4.6	1.23e+00	0	23	0	1048576	79	14116
2026-01-08 08:20:19.51	121.21	4.04	-57.0	-67.6	5.0	8.36e-01	0	23	0	2097152	79	12707
2026-01-08 08:20:20.50	121.18	4.10	-56.9	-66.7	5.5	5.08e-01	0	23	0	4194304	79	11490
2026-01-08 08:20:21.50	121.15	4.17	-56.7	-65.4	6.3	3.26e-01	0	23	0	6291456	79	9909
2026-01-08 08:20:22.49	121.12	4.24	-56.5	-64.1	7.4	1.40e-01	0	24	0	8388608	79	8530
2026-01-08 08:20:23.48	121.08	4.30	-56.3	-63.2	8.2	4.12e-02	0	24	0	10485760	79	7687
2026-01-08 08:20:24.48	121.05	4.37	-55.9	-61.8	9.4	1.14e-02	0	24	0	11534336	78	6944
2026-01-08 08:20:25.48	121.02	4.44	-55.5	-60.6	10.4	2.19e-03	0	23	0	13631488	77	6351
2026-01-08 08:20:26.48	120.98	4.51	-55.2	-59.8	11.0	5.32e-04	0	24	0	15728640	77	5852
2026-01-08 08:20:27.47	120.95	4.58	-54.9	-59.0	11.6	4.34e-05	0	24	0	17825792	76	5644
2026-01-08 08:20:28.47	120.91	4.65	-54.4	-58.1	12.2	1.29e-05	0	23	0	18874368	75	5383
2026-01-08 08:20:29.46	120.88	4.71	-53.9	-57.2	12.7	0.00e+00	0	24	0	20971520	74	5148
2026-01-08 08:20:30.46	120.85	4.78	-53.7	-56.9	13.0	0.00e+00	0	23	0	23068672	74	4933
2026-01-08 08:20:31.45	120.81	4.85	-53.4	-56.4	13.2	0.00e+00	0	24	0	25165824	73	4958
2026-01-08 08:20:32.45	120.78	4.92	-53.4	-56.4	13.2	0.00e+00	0	23	0	27262976	73	4941
2026-01-08 08:20:33.45	120.74	4.99	-53.4	-56.4	13.3	0.00e+00	0	24	0	28311552	73	4933
2026-01-08 08:20:34.45	120.71	5.06	-53.0	-55.7	13.6	0.00e+00	0	24	0	30408704	72	4852
2026-01-08 08:20:35.45	120.67	5.13	-53.4	-56.3	13.4	7.00e-07	0	24	0	32505856	73	4894
2026-01-08 08:20:36.46	120.64	5.20	-54.0	-57.3	12.7	9.31e-03	0	24	0	34603008	74	5211
2026-01-08 08:20:37.46	120.60	5.27	-53.0	-55.8	13.5	0.00e+00	0	24	0	36700160	72	4895
2026-01-08 08:20:38.46	120.56	5.34	-52.8	-55.4	13.8	0.00e+00	0	24	0	37748736	72	4684
2026-01-08 08:20:39.46	120.53	5.41	-54.4	-58.2	12.0	5.11e-03	0	24	0	39845888	75	5431
2026-01-08 08:20:40.46	120.49	5.48	-52.9	-55.5	13.7	0.00e+00	0	24	0	41943040	72	4756
2026-01-08 08:20:41.46	120.46	5.55	-52.8	-55.4	13.8	0.00e+00	0	24	0	44040192	72	4666
2026-01-08 08:20:42.46	120.42	5.62	-52.8	-55.5	13.6	0.00e+00	0	24	0	45088768	71	4999
2026-01-08 08:20:43.46	120.38	5.70	-52.9	-55.6	13.5	0.00e+00	0	24	0	47185920	71	5086
2026-01-08 08:20:44.45	120.35	5.77	-52.6	-55.2	13.8	0.00e+00	0	24	0	49283072	71	4832
2026-01-08 08:20:45.45	120.31	5.84	-52.6	-55.1	13.9	0.00e+00	0	24	0	51380224	71	4764
2026-01-08 08:20:46.46	120.27	5.91	-52.7	-55.2	13.8	0.00e+00	0	24	0	53477376	71	4836
2026-01-08 08:20:47.45	120.23	5.98	-52.6	-55.1	13.9	0.00e+00	0	24	0	54525952	71	4773
2026-01-08 08:20:48.45	120.20	6.05	-52.5	-54.9	14.0	0.00e+00	0	24	0	56623104	71	4691
2026-01-08 08:20:49.45	120.16	6.13	-52.6	-55.1	13.9	0.00e+00	0	24	0	58720256	71	4773
2026-01-08 08:20:50.45	120.12	6.20	-52.6	-55.1	13.9	0.00e+00	0	24	0	60817408	71	4788
2026-01-08 08:20:51.45	120.08	6.27	-52.6	-55.1	13.9	0.00e+00	0	24	0	62914560	71	4806
2026-01-08 08:20:52.44	120.04	6.34	-52.5	-54.9	14.0	0.00e+00	0	24	0	63963136	71	4676
2026-01-08 08:20:53.44	120.00	6.42	-52.6	-55.1	13.9	0.00e+00	0	24	0	66060288	71	4802
2026-01-08 08:20:54.43	119.97	6.49	-52.6	-55.0	14.0	0.00e+00	0	24	0	68157440	71	4739
2026-01-08 08:20:55.42	119.93	6.56	-52.5	-55.0	14.0	0.00e+00	0	24	0	70254592	71	4707
2026-01-08 08:20:56.18	119.90	6.62	-52.6	-55.1	13.9	0.00e+00	0	24	0	71303168	71	4788
2026-01-08 08:20:57.46	119.85	6.71	-52.6	-55.0	14.0	0.00e+00	0	24	0	74448896	71	4710
2026-01-08 08:20:58.17	119.82	6.77	-52.5	-54.8	14.1	0.00e+00	0	24	0	75497472	71	4646
2026-01-08 08:20:59.45	119.77	6.86	-52.6	-55.0	14.0	0.00e+00	0	24	0	77594624	71	4742
2026-01-08 08:21:00.17	119.74	6.92	-52.6	-55.0	14.0	0.00e+00	0	24	0	79691776	71	4755
2026-01-08 08:21:01.45	119.69	7.01	-52.6	-54.9	14.1	0.00e+00	0	24	0	81788928	71	4696
2026-01-08 08:21:02.16	119.66	7.06	-52.4	-54.7	14.2	0.00e+00	0	24	0	82837504	71	4552
2026-01-08 08:21:03.45	119.60	7.16	-52.5	-54.9	14.1	0.00e+00	0	24	0	84934656	71	4665
2026-01-08 08:21:04.17	119.57	7.22	-52.3	-54.6	14.3	0.00e+00	0	24	0	87031808	71	4517
2026-01-08 08:21:05.45	119.52	7.31	-52.3	-54.6	14.3	0.00e+00	0	24	0	89128960	71	4517
2026-01-08 08:21:06.17	119.49	7.37	-52.4	-54.7	14.2	0.00e+00	0	24	0	90177536	71	4568
2026-01-08 08:21:07.46	119.44	7.47	-52.5	-54.7	14.2	0.00e+00	0	24	0	93323264	71	4597
2026-01-08 08:21:08.17	119.41	7.52	-52.5	-54.8	14.2	0.00e+00	0	24	0	94371840	71	4611
2026-01-08 08:21:09.47	119.35	7.62	-52.4	-54.7	14.2	0.00e+00	0	24	0	96468992	71	4563
2026-01-08 08:21:10.20	119.32	7.67	-52.5	-54.8	14.2	0.00e+00	0	24	0	98566144	71	4623
2026-01-08 08:21:11.47	119.27	7.77	-52.5	-54.8	14.2	0.00e+00	0	24	0	100663296	71	4622
2026-01-08 08:21:12.24	119.23	7.83	-52.4	-54.6	14.3	0.00e+00	0	24	0	101711872	71	4535
2026-01-08 08:21:13.52	119.18	7.93	-52.5	-54.7	14.2	0.00e+00	0	24	0	103809024	71	4594
2026-01-08 08:21:14.25	119.15	7.99	-52.5	-54.8	14.2	0.00e+00	0	24	0	105906176	71	4617
2026-01-08 08:21:15.53	119.09	8.09	-52.3	-54.5	14.3	0.00e+00	0	24	0	108003328	71	4481
2026-01-08 08:21:16.25	119.06	8.14	-52.3	-54.5	14.3	0.00e+00	0	24	0	109051904	71	4481
2026-01-08 08:21:17.54	119.00	8.24	-52.2	-54.4	14.4	0.00e+00	0	24	0	112197632	71	4397
2026-01-08 08:21:18.25	118.97	8.30	-52.2	-54.4	14.4	0.00e+00	0	24	0	113246208	71	4421
2026-01-08 08:21:19.56	118.91	8.40	-52.3	-54.6	14.2	0.00e+00	0	24	0	115343360	70	4775
2026-01-08 08:21:20.27	118.88	8.46	-52.2	-54.4	14.3	0.00e+00	0	24	0	116391936	70	4663
2026-01-08 08:21:21.57	118.82	8.56	-52.1	-54.2	14.4	0.00e+00	0	24	0	119537664	70	4597
2026-01-08 08:21:22.29	118.79	8.62	-52.4	-54.6	14.2	0.00e+00	0	24	0	120586240	70	4769
2026-01-08 08:21:23.58	118.73	8.72	-52.3	-54.5	14.2	0.00e+00	0	24	0	122683392	70	4733
2026-01-08 08:21:24.29	118.69	8.78	-52.2	-54.4	14.2	0.00e+00	0	24	0	124780544	70	4691
2026-01-08 08:21:25.57	118.63	8.88	-52.2	-54.4	14.3	0.00e+00	0	24	0	126877696	70	4683
2026-01-08 08:21:26.36	118.60	8.94	-52.3	-54.4	14.2	0.00e+00	0	24	0	127926272	70	4697
2026-01-08 08:21:27.62	118.54	9.04	-52.3	-54.5	14.2	0.00e+00	0	24	0	131072000	70	4757
2026-01-08 08:21:28.38	118.50	9.11	-52.2	-54.3	14.3	0.00e+00	0	24	0	132120576	70	4644
2026-01-08 08:21:29.67	118.44	9.21	-52.2	-54.3	14.3	0.00e+00	0	24	0	134217728	70	4629
2026-01-08 08:21:30.38	118.41	9.27	-52.2	-54.4	14.3	0.00e+00	0	24	0	136314880	70	4652
2026-01-08 08:21:31.67	118.34	9.37	-52.1	-54.2	14.4	0.00e+00	0	24	0	138412032	70	4566
2026-01-08 08:21:32.38	118.31	9.43	-52.1	-54.2	14.4	0.00e+00	0	24	0	139460608	70	4565
2026-01-08 08:21:33.68	118.25	9.54	-52.0	-54.0	14.5	0.00e+00	0	24	0	142606336	70	4475
2026-01-08 08:21:34.39	118.21	9.60	-51.9	-54.0	14.5	0.00e+00	0	24	0	143654912	70	4454
2026-01-08 08:21:35.73	118.14	9.71	-52.1	-54.1	14.4	0.00e+00	0	24	0	145752064	70	4539
2026-01-08 08:21:36.44	118.11	9.77	-52.0	-54.1	14.5	0.00e+00	0	24	0	146800640	70	4511
2026-01-08 08:21:37.74	118.04	9.87	-52.0	-54.1	14.5	0.00e+00	0	24	0	149946368	70	4516
2026-01-08 08:21:38.47	118.01	9.93	-52.1	-54.2	14.4	0.00e+00	0	24	0	150994944	70	4597
2026-01-08 08:21:39.74	117.94	10.04	-52.1	-54.2	14.4	0.00e+00	0	24	0	153092096	70	4591
2026-01-08 08:21:40.48	117.91	10.10	-52.1	-54.2	14.4	0.00e+00	0	24	0	155189248	70	4595
2026-01-08 08:21:41.76	117.84	10.21	-52.1	-54.2	14.4	0.00e+00	0	24	0	157286400	70	4560
2026-01-08 08:21:42.47	117.80	10.27	-52.0	-54.1	14.5	0.00e+00	0	24	0	158334976	70	4531
2026-01-08 08:21:43.75	117.74	10.38	-52.0	-54.1	14.5	0.00e+00	0	24	0	161480704	70	4526
2026-01-08 08:21:44.48	117.70	10.44	-52.1	-54.2	14.5	0.00e+00	0	24	0	162529280	70	4549
2026-01-08 08:21:45.76	117.63	10.55	-52.0	-54.1	14.5	0.00e+00	0	24	0	164626432	70	4511
2026-01-08 08:21:46.49	117.59	10.61	-51.9	-53.9	14.6	0.00e+00	0	24	0	165675008	70	4426
2026-01-08 08:21:47.77	117.53	10.72	-51.9	-53.9	14.6	0.00e+00	0	24	0	168820736	70	4410
2026-01-08 08:21:48.50	117.49	10.78	-52.0	-54.0	14.6	0.00e+00	0	24	0	169869312	70	4448
2026-01-08 08:21:49.78	117.42	10.89	-52.0	-53.9	14.6	0.00e+00	0	24	0	171966464	70	4439
2026-01-08 08:21:50.50	117.38	10.96	-51.9	-53.9	14.6	0.00e+00	0	24	0	174063616	70	4409
2026-01-08 08:21:51.79	117.31	11.07	-52.0	-54.0	14.6	0.00e+00	0	24	0	176160768	70	4452
2026-01-08 08:21:52.51	117.27	11.13	-52.0	-53.9	14.6	0.00e+00	0	24	0	177209344	70	4436
2026-01-08 08:21:53.78	117.20	11.24	-51.8	-54.1	14.5	0.00e+00	0	24	0	179306496	70	4542
2026-01-08 08:21:54.55	117.16	11.31	-51.7	-53.9	14.5	0.00e+00	0	24	0	181403648	69	4675
2026-01-08 08:21:55.83	117.08	11.42	-51.5	-53.7	14.6	0.00e+00	0	24	0	183500800	69	4567
2026-01-08 08:21:56.59	117.04	11.49	-51.5	-53.7	14.6	0.00e+00	0	24	0	184549376	69	4574
2026-01-08 08:21:57.88	116.97	11.60	-51.5	-53.7	14.6	0.00e+00	0	24	0	187695104	69	4574
2026-01-08 08:21:58.58	116.93	11.67	-51.5	-53.6	14.7	0.00e+00	0	24	0	188743680	69	4519
2026-01-08 08:21:59.90	116.85	11.78	-51.3	-53.4	14.8	0.00e+00	0	24	0	190840832	69	4438
2026-01-08 08:22:00.61	116.81	11.85	-51.5	-53.7	14.6	0.00e+00	0	24	0	192937984	69	4560
2026-01-08 08:22:01.89	116.74	11.96	-51.4	-53.5	14.7	0.00e+00	0	24	0	195035136	69	4476
2026-01-08 08:22:02.61	116.69	12.03	-51.4	-53.5	14.8	0.00e+00	0	24	0	196083712	69	4445
2026-01-08 08:22:03.90	116.62	12.14	-51.5	-53.7	14.6	0.00e+00	0	24	0	199229440	69	4576
2026-01-08 08:22:04.64	116.57	12.21	-51.5	-53.7	14.6	0.00e+00	0	24	0	200278016	69	4570
2026-01-08 08:22:05.93	116.50	12.33	-51.5	-53.6	14.7	0.00e+00	0	24	0	202375168	69	4532
2026-01-08 08:22:06.65	116.45	12.39	-51.4	-53.6	14.7	0.00e+00	0	24	0	203423744	69	4498
2026-01-08 08:22:07.94	116.38	12.51	-51.4	-53.6	14.7	0.00e+00	0	24	0	206569472	69	4521
2026-01-08 08:22:08.65	116.33	12.58	-51.4	-53.6	14.7	0.00e+00	0	24	0	207618048	69	4518
2026-01-08 08:22:09.94	116.25	12.70	-51.4	-53.6	14.7	0.00e+00	0	24	0	209715200	69	4511
2026-01-08 08:22:10.65	116.21	12.76	-51.5	-53.7	14.6	0.00e+00	0	24	0	211812352	69	4573
2026-01-08 08:22:11.95	116.13	12.88	-51.4	-53.5	14.8	0.00e+00	0	24	0	213909504	69	4467
2026-01-08 08:22:12.66	116.09	12.95	-51.3	-53.5	14.8	0.00e+00	0	24	0	214958080	69	4444
2026-01-08 08:22:13.94	116.00	13.07	-51.5	-53.7	14.6	0.00e+00	0	24	0	218103808	69	4568
2026-01-08 08:22:14.69	115.96	13.14	-51.5	-53.6	14.7	0.00e+00	0	24	0	219152384	69	4534
2026-01-08 08:22:15.97	115.88	13.26	-51.3	-53.4	14.8	0.00e+00	0	24	0	221249536	69	4441
2026-01-08 08:22:16.68	115.83	13.33	-51.6	-53.8	14.6	0.00e+00	0	24	0	222298112	69	4647
2026-01-08 08:22:18.02	115.74	13.45	-51.7	-53.9	14.5	0.00e+00	0	24	0	225443840	69	4686
2026-01-08 08:22:18.73	115.70	13.52	-51.6	-53.8	14.6	0.00e+00	0	24	0	226492416	69	4647
2026-01-08 08:22:20.01	115.61	13.64	-51.7	-54.0	14.5	0.00e+00	0	24	0	228589568	69	4731
2026-01-08 08:22:20.75	115.56	13.71	-51.8	-54.1	14.5	0.00e+00	0	24	0	230686720	69	4795
2026-01-08 08:22:22.04	115.48	13.84	-51.7	-54.0	14.5	0.00e+00	0	24	0	232783872	69	4744
2026-01-08 08:22:22.75	115.43	13.91	-51.7	-54.0	14.5	0.00e+00	0	24	0	233832448	69	4730
2026-01-08 08:22:24.03	115.35	14.03	-51.7	-54.0	14.5	0.00e+00	0	24	0	236978176	69	4708
2026-01-08 08:22:24.79	115.29	14.10	-51.6	-53.8	14.6	0.00e+00	0	24	0	238026752	69	4643
2026-01-08 08:22:26.07	115.21	14.23	-51.5	-53.7	14.7	0.00e+00	0	24	0	240123904	69	4559
2026-01-08 08:22:26.84	115.15	14.30	-51.5	-53.7	14.6	0.00e+00	0	24	0	242221056	69	4566
2026-01-08 08:22:28.10	115.07	14.43	-51.5	-53.7	14.7	0.00e+00	0	24	0	244318208	69	4552
2026-01-08 08:22:28.87	115.01	14.50	-51.4	-53.5	14.7	0.00e+00	0	24	0	245366784	69	4487
2026-01-08 08:22:30.15	114.92	14.63	-51.4	-53.6	14.7	0.00e+00	0	24	0	247463936	69	4516
2026-01-08 08:22:30.90	114.87	14.70	-51.2	-53.3	14.9	0.00e+00	0	24	0	249561088	69	4386
2026-01-08 08:22:32.18	114.78	14.83	-51.3	-53.4	14.7	0.00e+00	0	24	0	251658240	68	4684
2026-01-08 08:22:32.90	114.73	14.90	-51.3	-53.4	14.6	0.00e+00	0	24	0	252706816	68	4705
2026-01-08 08:22:34.18	114.63	15.03	-51.4	-53.6	14.6	0.00e+00	0	24	0	255852544	68	4768
2026-01-08 08:22:34.92	114.58	15.11	-51.3	-53.4	14.6	0.00e+00	0	24	0	256901120	68	4705
2026-01-08 08:22:36.20	114.49	15.24	-51.3	-53.5	14.6	0.00e+00	0	24	0	258998272	68	4719
2026-01-08 08:22:36.92	114.43	15.31	-51.3	-53.4	14.7	0.00e+00	0	24	0	261095424	68	4671
2026-01-08 08:22:38.20	114.34	15.44	-51.3	-53.4	14.6	0.00e+00	0	24	0	263192576	68	4698
2026-01-08 08:22:38.91	114.29	15.51	-51.3	-53.4	14.6	0.00e+00	0	24	0	264241152	68	4702
2026-01-08 08:22:40.21	114.19	15.65	-51.4	-53.4	14.7	0.00e+00	0	24	0	266338304	68	4690
2026-01-08 08:22:40.93	114.13	15.72	-51.4	-53.4	14.6	0.00e+00	0	24	0	268435456	68	4693
2026-01-08 08:22:42.21	114.03	15.85	-51.5	-53.6	14.5	0.00e+00	0	24	0	270532608	68	4793
2026-01-08 08:22:42.94	113.98	15.93	-51.4	-53.4	14.6	0.00e+00	0	24	0	271581184	68	4705
2026-01-08 08:22:44.22	113.88	16.06	-51.4	-53.5	14.6	0.00e+00	0	24	0	274726912	68	4745
2026-01-08 08:22:44.96	113.82	16.14	-51.5	-53.6	14.5	0.00e+00	0	24	0	275775488	68	4806
2026-01-08 08:22:46.25	113.72	16.28	-51.5	-53.6	14.5	0.00e+00	0	24	0	277872640	68	4791
2026-01-08 08:22:46.99	113.66	16.35	-51.4	-53.4	14.7	0.00e+00	0	24	0	279969792	68	4683
2026-01-08 08:22:48.28	113.56	16.49	-51.4	-53.4	14.7	0.00e+00	0	24	0	282066944	68	4668
2026-01-08 08:22:48.99	113.50	16.57	-51.4	-53.4	14.6	0.00e+00	0	24	0	283115520	68	4695
2026-01-08 08:22:50.29	113.40	16.70	-51.2	-53.2	14.8	0.00e+00	0	24	0	286261248	68	4577
2026-01-08 08:22:50.99	113.34	16.78	-51.1	-53.1	14.8	0.00e+00	0	24	0	287309824	68	4507
2026-01-08 08:22:52.31	113.23	16.92	-51.2	-53.3	14.7	0.00e+00	0	24	0	289406976	68	4604
2026-01-08 08:22:53.03	113.17	17.00	-51.2	-53.2	14.7	0.00e+00	0	24	0	290455552	68	4557
2026-01-08 08:22:54.30	113.06	17.14	-51.2	-53.2	14.7	0.00e+00	0	24	0	293601280	68	4595
2026-01-08 08:22:55.02	113.00	17.21	-51.2	-53.2	14.7	0.00e+00	0	24	0	294649856	68	4598
2026-01-08 08:22:56.29	112.90	17.35	-51.1	-53.1	14.8	0.00e+00	0	25	0	296747008	68	4497
2026-01-08 08:22:57.01	112.83	17.43	-51.2	-53.3	14.7	0.00e+00	0	24	0	297795584	68	4606
2026-01-08 08:22:58.31	112.72	17.57	-51.2	-53.3	14.7	0.00e+00	0	24	0	300941312	68	4603
2026-01-08 08:22:59.01	112.66	17.65	-51.1	-53.2	14.8	0.00e+00	0	24	0	301989888	68	4555
2026-01-08 08:23:00.35	112.54	17.80	-51.0	-52.9	14.9	0.00e+00	0	24	0	304087040	68	4439
2026-01-08 08:23:01.06	112.48	17.88	-50.9	-52.9	14.9	0.00e+00	0	24	0	306184192	68	4415
2026-01-08 08:23:02.38	112.36	18.03	-51.1	-53.1	14.8	0.00e+00	0	24	0	308281344	68	4523
2026-01-08 08:23:03.09	112.30	18.11	-51.1	-53.1	14.9	0.00e+00	0	24	0	309329920	68	4520
2026-01-08 08:23:04.40	112.18	18.25	-51.1	-53.2	14.8	0.00e+00	0	24	0	312475648	68	4553
2026-01-08 08:23:05.12	112.12	18.33	-51.3	-53.5	14.7	0.00e+00	0	24	0	313524224	68	4709
2026-01-08 08:23:06.40	112.00	18.48	-51.4	-53.5	14.7	0.00e+00	0	24	0	315621376	68	4722
2026-01-08 08:23:07.16	111.93	18.57	-51.3	-53.4	14.7	0.00e+00	0	24	0	317718528	68	4659
2026-01-08 08:23:08.44	111.81	18.71	-51.3	-53.4	14.7	0.00e+00	0	24	0	319815680	68	4681
2026-01-08 08:23:09.17	111.74	18.80	-51.3	-53.4	14.7	0.00e+00	0	24	0	320864256	68	4661
2026-01-08 08:23:10.45	111.62	18.94	-51.3	-53.4	14.7	0.00e+00	0	24	0	324009984	68	4665
2026-01-08 08:23:11.16	111.55	19.03	-51.3	-53.3	14.7	0.00e+00	0	24	0	325058560	68	4647
2026-01-08 08:23:12.47	111.43	19.18	-51.5	-53.6	14.6	0.00e+00	0	25	0	327155712	68	4779
2026-01-08 08:23:13.18	111.36	19.26	-51.4	-53.5	14.6	0.00e+00	0	24	0	328204288	68	4741
2026-01-08 08:23:14.48	111.23	19.41	-51.6	-53.7	14.5	0.00e+00	0	24	0	331350016	68	4867
2026-01-08 08:23:15.19	111.16	19.50	-51.7	-53.9	14.4	0.00e+00	0	24	0	332398592	68	4973
2026-01-08 08:23:16.54	111.03	19.66	-51.9	-54.2	14.4	0.00e+00	0	24	0	334495744	69	4852
2026-01-08 08:23:17.25	110.96	19.74	-52.0	-54.3	14.4	0.00e+00	0	24	0	336592896	69	4892
2026-01-08 08:23:18.54	110.83	19.89	-52.1	-54.3	14.4	0.00e+00	0	24	0	338690048	69	4921
2026-01-08 08:23:19.25	110.76	19.98	-52.0	-54.3	14.4	0.00e+00	0	25	0	339738624	69	4903
2026-01-08 08:23:20.54	110.62	20.13	-52.2	-54.5	14.2	0.00e+00	0	25	0	342884352	69	5024
2026-01-08 08:23:21.26	110.55	20.22	-52.1	-54.4	14.3	0.00e+00	0	25	0	343932928	69	4942
2026-01-08 08:23:22.55	110.42	20.38	-52.2	-54.5	14.3	0.00e+00	0	24	0	346030080	69	5024
2026-01-08 08:23:23.28	110.34	20.47	-52.3	-54.6	14.2	0.00e+00	0	24	0	348127232	69	5079
2026-01-08 08:23:24.56	110.20	20.62	-52.1	-54.3	14.5	0.00e+00	0	24	0	350224384	70	4620
2026-01-08 08:23:25.27	110.13	20.71	-52.2	-54.4	14.5	0.00e+00	0	24	0	351272960	70	4655
2026-01-08 08:23:26.56	109.99	20.87	-52.2	-54.4	14.5	0.00e+00	0	24	0	353370112	70	4675
2026-01-08 08:23:27.27	109.91	20.95	-52.2	-54.4	14.5	0.00e+00	0	25	0	355467264	70	4664
2026-01-08 08:23:28.57	109.77	21.12	-52.0	-54.1	14.6	0.00e+00	0	24	0	357564416	70	4543
2026-01-08 08:23:29.28	109.69	21.20	-52.1	-54.2	14.6	0.00e+00	0	24	0	358612992	70	4567
2026-01-08 08:23:30.56	109.55	21.36	-51.9	-54.0	14.7	0.00e+00	0	24	0	360710144	70	4462
2026-01-08 08:23:31.30	109.47	21.46	-51.7	-53.7	14.8	0.00e+00	0	24	0	362807296	70	4322
2026-01-08 08:23:32.57	109.32	21.62	-51.7	-53.7	14.6	0.00e+00	0	25	0	364904448	69	4584
2026-01-08 08:23:33.30	109.24	21.71	-51.7	-53.8	14.6	0.00e+00	0	24	0	365953024	69	4601
2026-01-08 08:23:34.57	109.10	21.87	-51.7	-53.8	14.6	0.00e+00	0	24	0	369098752	69	4637
2026-01-08 08:23:35.29	109.01	21.96	-51.9	-54.0	14.5	0.00e+00	0	25	0	370147328	69	4730
2026-01-08 08:23:36.58	108.86	22.13	-51.9	-54.0	14.5	0.00e+00	0	24	0	372244480	69	4757
2026-01-08 08:23:37.30	108.78	22.22	-51.9	-54.0	14.5	0.00e+00	0	24	0	374341632	69	4727
2026-01-08 08:23:38.62	108.62	22.39	-51.8	-54.0	14.5	0.00e+00	0	24	0	376438784	69	4727
2026-01-08 08:23:39.32	108.54	22.48	-51.8	-53.9	14.5	0.00e+00	0	24	0	377487360	69	4697
2026-01-08 08:23:40.62	108.38	22.65	-51.8	-54.0	14.6	0.00e+00	0	24	0	379584512	69	4717
2026-01-08 08:23:41.34	108.29	22.74	-52.0	-54.3	14.4	0.00e+00	0	24	0	381681664	69	4911
2026-01-08 08:23:42.64	108.13	22.91	-52.1	-54.4	14.4	0.00e+00	0	24	0	383778816	69	4936
2026-01-08 08:23:43.35	108.04	23.01	-52.0	-54.3	14.4	0.00e+00	0	25	0	384827392	69	4872
2026-01-08 08:23:44.67	107.88	23.18	-52.4	-54.9	14.1	0.00e+00	0	24	0	387973120	69	5224
2026-01-08 08:23:45.39	107.79	23.28	-52.3	-54.9	14.1	0.00e+00	0	24	0	389021696	69	5219
2026-01-08 08:23:46.66	107.63	23.45	-52.3	-54.8	14.3	0.00e+00	0	25	0	391118848	70	4885
2026-01-08 08:23:47.40	107.53	23.54	-52.2	-54.7	14.4	0.00e+00	0	24	0	393216000	70	4821
2026-01-08 08:23:48.68	107.36	23.72	-51.8	-54.1	14.7	0.00e+00	0	24	0	395313152	70	4519
2026-01-08 08:23:49.41	107.27	23.81	-51.9	-54.2	14.6	0.00e+00	0	24	0	396361728	70	4549
2026-01-08 08:23:50.69	107.10	23.99	-51.8	-54.0	14.7	0.00e+00	0	24	0	399507456	70	4468
2026-01-08 08:23:51.42	107.00	24.09	-51.7	-53.9	14.8	0.00e+00	0	24	0	400556032	70	4432
2026-01-08 08:23:52.70	106.83	24.26	-51.9	-54.2	14.5	0.00e+00	0	24	0	402653184	69	4838
2026-01-08 08:23:53.43	106.73	24.36	-51.9	-54.2	14.5	0.00e+00	0	24	0	403701760	69	4854
2026-01-08 08:23:54.71	106.56	24.54	-52.2	-54.7	14.2	0.00e+00	0	24	0	406847488	69	5113
2026-01-08 08:23:55.44	106.46	24.64	-52.3	-54.8	14.2	0.00e+00	0	24	0	407896064	69	5169
2026-01-08 08:23:56.71	106.28	24.81	-52.1	-54.5	14.3	0.00e+00	0	25	0	409993216	69	5029
2026-01-08 08:23:57.44	106.18	24.92	-52.3	-54.7	14.4	0.00e+00	0	25	0	412090368	70	4815
2026-01-08 08:23:58.72	106.00	25.09	-52.3	-54.7	14.3	0.00e+00	0	24	0	414187520	70	4848
2026-01-08 08:23:59.46	105.89	25.20	-52.1	-54.4	14.5	0.00e+00	0	24	0	415236096	70	4659
2026-01-08 08:24:00.74	105.71	25.38	-52.3	-54.7	14.3	0.00e+00	0	24	0	417333248	70	4862
2026-01-08 08:24:01.49	105.60	25.48	-52.2	-54.6	14.4	0.00e+00	0	24	0	419430400	70	4771
2026-01-08 08:24:02.77	105.41	25.67	-52.5	-55.0	14.2	0.00e+00	0	24	0	421527552	70	5008
2026-01-08 08:24:03.49	105.30	25.77	-52.5	-54.9	14.2	0.00e+00	0	25	0	422576128	70	4971
2026-01-08 08:24:04.77	105.11	25.95	-51.8	-53.9	14.7	0.00e+00	0	24	0	425721856	70	4415
2026-01-08 08:24:05.50	105.00	26.06	-51.4	-53.5	14.8	0.00e+00	0	24	0	426770432	69	4464
2026-01-08 08:24:06.78	104.80	26.24	-51.3	-53.4	14.8	0.00e+00	0	24	0	428867584	69	4415
2026-01-08 08:24:07.51	104.69	26.35	-51.3	-53.4	14.8	0.00e+00	0	24	0	430964736	69	4441
2026-01-08 08:24:08.79	104.49	26.53	-51.5	-53.7	14.7	0.00e+00	0	25	0	433061888	69	4582
2026-01-08 08:24:09.50	104.38	26.63	-51.7	-54.1	14.5	0.00e+00	0	25	0	434110464	69	4773
2026-01-08 08:24:10.80	104.18	26.82	-51.8	-54.3	14.4	0.00e+00	0	24	0	436207616	69	4896
2026-01-08 08:24:11.52	104.06	26.93	-52.0	-54.6	14.3	0.00e+00	0	24	0	438304768	69	5063
2026-01-08 08:24:12.80	103.85	27.12	-52.1	-54.8	14.2	0.00e+00	0	24	0	440401920	69	5201
2026-01-08 08:24:13.55	103.73	27.23	-51.7	-54.3	14.4	0.00e+00	0	25	0	441450496	69	4877
2026-01-08 08:24:14.84	103.52	27.42	-51.9	-54.4	14.4	0.00e+00	0	25	0	444596224	69	4950
2026-01-08 08:24:15.55	103.40	27.53	-51.9	-54.4	14.4	0.00e+00	0	25	0	445644800	69	4964
2026-01-08 08:24:16.84	103.19	27.72	-51.9	-54.4	14.3	0.00e+00	0	24	0	447741952	69	4946
2026-01-08 08:24:17.55	103.07	27.83	-51.9	-54.4	14.3	0.00e+00	0	25	0	449839104	69	4949
2026-01-08 08:24:18.83	102.85	28.02	-51.9	-54.2	14.4	0.00e+00	0	25	0	451936256	69	4859
2026-01-08 08:24:19.57	102.72	28.13	-52.0	-54.4	14.3	0.00e+00	0	25	0	452984832	69	4952
2026-01-08 08:24:20.84	102.50	28.32	-52.4	-54.9	14.2	0.00e+00	0	25	0	455081984	69	5260
2026-01-08 08:24:21.61	102.36	28.44	-52.1	-54.5	14.3	0.00e+00	0	24	0	457179136	69	4998
2026-01-08 08:24:22.90	102.13	28.64	-52.3	-54.7	14.2	0.00e+00	0	25	0	459276288	69	5139
2026-01-08 08:24:23.61	102.01	28.75	-52.6	-55.1	14.2	0.00e+00	0	25	0	460324864	70	5060
2026-01-08 08:24:24.89	101.78	28.94	-52.6	-55.1	14.1	0.00e+00	0	25	0	463470592	70	5076
2026-01-08 08:24:25.62	101.64	29.05	-52.7	-55.2	14.1	0.00e+00	0	25	0	464519168	70	5136
2026-01-08 08:24:26.91	101.40	29.25	-52.6	-55.0	14.1	0.00e+00	0	25	0	466616320	70	5040
2026-01-08 08:24:27.64	101.27	29.37	-52.3	-54.6	14.4	0.00e+00	0	24	0	468713472	70	4801
2026-01-08 08:24:28.91	101.03	29.57	-52.3	-54.6	14.4	0.00e+00	0	24	0	470810624	70	4765
2026-01-08 08:24:29.64	100.89	29.68	-52.2	-54.4	14.5	0.00e+00	0	25	0	471859200	70	4699
2026-01-08 08:24:30.92	100.64	29.88	-52.3	-54.7	14.3	0.00e+00	0	25	0	473956352	70	4834
2026-01-08 08:24:31.65	100.50	29.99	-52.5	-55.1	14.2	0.00e+00	0	25	0	476053504	70	5065
2026-01-08 08:24:32.94	100.25	30.20	-52.7	-55.4	14.0	0.00e+00	0	25	0	478150656	70	5265
2026-01-08 08:24:33.65	100.11	30.31	-52.8	-55.6	13.9	0.00e+00	0	25	0	479199232	70	5382
2026-01-08 08:24:34.96	99.85	30.52	-52.6	-55.3	14.0	0.00e+00	0	25	0	482344960	70	5218
2026-01-08 08:24:35.67	99.70	30.63	-52.6	-55.4	14.0	0.00e+00	0	25	0	483393536	70	5229
2026-01-08 08:24:36.96	99.44	30.84	-52.6	-55.3	14.1	0.00e+00	0	25	0	485490688	70	5166
2026-01-08 08:24:37.67	99.30	30.95	-52.6	-55.3	14.0	0.00e+00	0	25	0	486539264	70	5203
2026-01-08 08:24:38.96	99.03	31.16	-52.9	-55.7	14.0	0.00e+00	0	24	0	489684992	71	5145
2026-01-08 08:24:39.67	98.88	31.27	-53.3	-56.4	13.6	0.00e+00	0	25	0	490733568	71	5574
2026-01-08 08:24:40.97	98.60	31.48	-53.1	-56.0	13.8	0.00e+00	0	24	0	492830720	71	5324
2026-01-08 08:24:41.68	98.45	31.60	-53.1	-55.9	13.9	0.00e+00	0	24	0	494927872	71	5246
2026-01-08 08:24:43.02	98.16	31.81	-53.0	-55.7	14.0	0.00e+00	0	25	0	497025024	71	5148
2026-01-08 08:24:43.73	98.00	31.93	-53.0	-55.8	13.9	0.00e+00	0	25	0	498073600	71	5178
2026-01-08 08:24:45.04	97.71	32.14	-53.1	-55.9	13.8	0.00e+00	0	24	0	501219328	71	5253
2026-01-08 08:24:45.75	97.56	32.26	-53.2	-55.9	13.9	0.00e+00	0	25	0	502267904	71	5256
2026-01-08 08:24:47.03	97.27	32.47	-53.0	-55.6	14.0	0.00e+00	0	25	0	504365056	71	5076
2026-01-08 08:24:47.75	97.10	32.59	-52.7	-55.2	14.2	0.00e+00	0	25	0	506462208	71	4825
2026-01-08 08:24:49.04	96.81	32.80	-52.8	-55.1	14.3	0.00e+00	0	25	0	508559360	71	4810
2026-01-08 08:24:49.75	96.64	32.92	-52.9	-55.3	14.1	0.00e+00	0	25	0	509607936	71	4909
2026-01-08 08:24:51.06	96.33	33.13	-53.1	-55.7	14.0	0.00e+00	0	25	0	511705088	71	5119
2026-01-08 08:24:51.77	96.16	33.25	-53.2	-55.7	14.0	0.00e+00	0	25	0	513802240	71	5159
2026-01-08 08:24:53.07	95.85	33.47	-52.9	-55.3	14.2	0.00e+00	0	25	0	515899392	71	4897
2026-01-08 08:24:53.78	95.68	33.59	-53.1	-55.6	14.0	0.00e+00	0	25	0	516947968	71	5082
2026-01-08 08:24:55.13	95.35	33.81	-53.1	-55.7	14.0	0.00e+00	0	25	0	520093696	71	5101
2026-01-08 08:24:55.84	95.17	33.93	-52.8	-55.2	14.2	0.00e+00	0	25	0	521142272	71	4847
2026-01-08 08:24:57.12	94.85	34.14	-53.0	-55.7	13.9	0.00e+00	0	25	0	523239424	71	5120
2026-01-08 08:24:57.87	94.66	34.27	-52.9	-55.6	14.0	0.00e+00	0	25	0	525336576	71	5047
2026-01-08 08:24:59.14	94.34	34.48	-53.0	-55.8	13.9	0.00e+00	0	25	0	527433728	71	5188
2026-01-08 08:24:59.85	94.15	34.60	-52.9	-55.7	13.9	0.00e+00	0	25	0	528482304	71	5136
2026-01-08 08:25:01.13	93.82	34.82	-53.4	-56.5	13.6	0.00e+00	0	25	0	530579456	71	5614
2026-01-08 08:25:01.90	93.62	34.95	-53.7	-57.1	13.2	0.00e+00	0	25	0	532676608	72	5718
2026-01-08 08:25:03.19	93.27	35.17	-54.1	-57.9	12.9	0.00e+00	0	25	0	534773760	73	5878
2026-01-08 08:25:03.89	93.08	35.28	-54.3	-58.1	12.8	0.00e+00	0	25	0	535822336	73	6022
2026-01-08 08:25:05.19	92.73	35.50	-54.4	-57.9	13.0	0.00e+00	0	25	0	538968064	74	5577
2026-01-08 08:25:05.90	92.53	35.62	-54.1	-57.4	13.3	0.00e+00	0	25	0	540016640	74	5278
2026-01-08 08:25:07.20	92.17	35.84	-54.0	-57.1	13.5	0.00e+00	0	25	0	542113792	74	5083
2026-01-08 08:25:07.92	91.97	35.97	-53.8	-56.9	13.6	0.00e+00	0	25	0	544210944	74	4964
2026-01-08 08:25:09.20	91.61	36.18	-53.5	-56.4	13.8	0.00e+00	0	25	0	546308096	73	4966
2026-01-08 08:25:09.95	91.39	36.31	-53.2	-55.9	14.0	0.00e+00	0	25	0	547356672	72	4971
2026-01-08 08:25:11.23	91.02	36.53	-52.8	-55.3	14.3	0.00e+00	0	25	0	549453824	72	4632
2026-01-08 08:25:11.96	90.80	36.65	-52.4	-54.7	14.5	0.00e+00	0	25	0	551550976	71	4577
2026-01-08 08:25:13.23	90.43	36.87	-52.4	-54.8	14.4	0.00e+00	0	25	0	553648128	71	4640
2026-01-08 08:25:13.96	90.21	36.99	-52.4	-54.9	14.4	0.00e+00	0	25	0	554696704	71	4662
2026-01-08 08:25:15.25	89.82	37.21	-52.5	-55.0	14.3	0.00e+00	0	25	0	557842432	71	4730
2026-01-08 08:25:15.95	89.61	37.33	-52.4	-54.9	14.4	0.00e+00	0	25	0	558891008	71	4664
2026-01-08 08:25:17.28	89.19	37.55	-52.4	-54.8	14.5	0.00e+00	0	25	0	560988160	71	4623
2026-01-08 08:25:17.99	88.97	37.68	-52.6	-55.3	14.2	0.00e+00	0	25	0	563085312	71	4883
2026-01-08 08:25:19.33	88.55	37.90	-53.0	-55.9	13.9	0.00e+00	0	25	0	565182464	71	5232
2026-01-08 08:25:20.05	88.32	38.02	-53.0	-55.9	13.9	0.00e+00	0	25	0	566231040	71	5251
2026-01-08 08:25:21.33	87.91	38.24	-53.1	-56.0	13.7	0.00e+00	0	25	0	569376768	71	5309
2026-01-08 08:25:22.04	87.68	38.36	-53.1	-56.0	13.7	0.00e+00	0	25	0	570425344	71	5327
2026-01-08 08:25:23.34	87.25	38.58	-53.3	-56.3	13.7	0.00e+00	0	25	0	572522496	72	5212
2026-01-08 08:25:24.03	87.02	38.70	-53.5	-56.7	13.4	0.00e+00	0	25	0	573571072	72	5447
2026-01-08 08:25:25.41	86.55	38.93	-53.7	-57.1	13.2	0.00e+00	0	25	0	576716800	72	5658
2026-01-08 08:25:26.12	86.31	39.05	-53.8	-57.1	13.2	0.00e+00	0	25	0	577765376	72	5700
2026-01-08 08:25:27.43	85.86	39.27	-53.6	-56.8	13.5	0.00e+00	0	25	0	580911104	73	5187
2026-01-08 08:25:28.14	85.61	39.38	-53.4	-56.4	13.7	0.00e+00	0	25	0	581959680	73	4961
2026-01-08 08:25:29.43	85.16	39.60	-52.4	-54.9	14.2	0.00e+00	0	25	0	584056832	71	4670
2026-01-08 08:25:30.15	84.91	39.72	-52.4	-54.8	14.4	0.00e+00	0	25	0	585105408	71	4613
2026-01-08 08:25:31.44	84.44	39.93	-51.9	-54.2	14.5	0.00e+00	0	25	0	588251136	70	4577
2026-01-08 08:25:32.16	84.18	40.05	-52.5	-55.1	14.1	0.00e+00	0	25	0	589299712	70	5046
2026-01-08 08:25:33.45	83.71	40.26	-53.8	-57.3	13.0	0.00e+00	0	25	0	591396864	72	5837
2026-01-08 08:25:34.16	83.45	40.38	-54.1	-57.9	12.8	0.00e+00	0	25	0	592445440	73	5873
2026-01-08 08:25:35.46	82.97	40.59	-53.8	-57.3	13.2	0.00e+00	0	25	0	595591168	73	5474
2026-01-08 08:25:36.18	82.69	40.71	-53.3	-56.3	13.7	0.00e+00	0	25	0	596639744	73	4915
2026-01-08 08:25:37.45	82.21	40.91	-52.5	-55.1	14.2	0.00e+00	0	25	0	598736896	71	4771
2026-01-08 08:25:38.19	81.93	41.03	-52.3	-54.8	14.3	0.00e+00	0	25	0	600834048	71	4606
2026-01-08 08:25:39.47	81.43	41.24	-52.3	-54.7	14.4	0.00e+00	0	25	0	602931200	71	4552
2026-01-08 08:25:40.20	81.14	41.35	-52.5	-54.9	14.3	0.00e+00	0	25	0	603979776	71	4679
2026-01-08 08:25:41.48	80.63	41.56	-52.5	-54.9	14.3	0.00e+00	0	25	0	607125504	71	4689
2026-01-08 08:25:42.21	80.34	41.67	-52.2	-54.6	14.5	0.00e+00	0	25	0	608174080	71	4522
2026-01-08 08:25:43.48	79.83	41.87	-52.6	-55.2	14.2	0.00e+00	0	25	0	610271232	71	4815
2026-01-08 08:25:44.21	79.53	41.99	-52.6	-55.2	14.2	0.00e+00	0	25	0	611319808	71	4827
2026-01-08 08:25:45.48	79.01	42.18	-52.6	-55.2	14.2	0.00e+00	0	25	0	614465536	71	4839
2026-01-08 08:25:46.21	78.70	42.30	-52.2	-54.7	14.4	0.00e+00	0	25	0	615514112	70	4821
2026-01-08 08:25:47.49	78.17	42.49	-52.1	-54.5	14.4	0.00e+00	0	25	0	617611264	70	4744
2026-01-08 08:25:48.23	77.85	42.60	-51.8	-54.0	14.7	0.00e+00	0	25	0	619708416	70	4488
2026-01-08 08:25:49.51	77.30	42.80	-51.1	-53.1	14.8	0.00e+00	0	25	0	621805568	68	4509
2026-01-08 08:25:50.22	77.00	42.90	-50.7	-52.6	15.1	0.00e+00	0	25	0	622854144	68	4268
2026-01-08 08:25:51.52	76.43	43.09	-50.4	-52.2	14.9	0.00e+00	0	25	0	625999872	66	4587
2026-01-08 08:25:52.23	76.12	43.20	-50.7	-52.6	14.7	0.00e+00	0	25	0	627048448	66	4810
2026-01-08 08:25:53.51	75.55	43.38	-51.8	-54.0	14.3	0.00e+00	0	25	0	629145600	68	5029
2026-01-08 08:25:54.24	75.22	43.49	-52.4	-55.0	14.0	0.00e+00	0	25	0	630194176	69	5309
2026-01-08 08:25:55.52	74.64	43.67	-52.5	-55.2	14.0	0.00e+00	0	25	0	633339904	70	5116
2026-01-08 08:25:56.23	74.32	43.77	-52.3	-55.0	14.1	0.00e+00	0	25	0	634388480	70	5029
2026-01-08 08:25:57.53	73.72	43.95	-52.1	-54.6	14.4	0.00e+00	0	25	0	636485632	70	4792
2026-01-08 08:25:58.24	73.39	44.05	-51.9	-54.2	14.6	0.00e+00	0	25	0	638582784	70	4589
2026-01-08 08:25:59.57	72.76	44.23	-51.1	-53.1	14.8	0.00e+00	0	25	0	640679936	68	4521
2026-01-08 08:26:00.28	72.43	44.33	-51.2	-53.3	14.6	0.00e+00	0	25	0	641728512	68	4607
2026-01-08 08:26:01.58	71.81	44.50	-51.3	-53.5	14.6	0.00e+00	0	25	0	644874240	68	4719
2026-01-08 08:26:02.29	71.47	44.59	-51.0	-53.2	14.8	0.00e+00	0	25	0	645922816	68	4572
2026-01-08 08:26:03.61	70.83	44.76	-50.5	-52.4	14.9	0.00e+00	0	25	0	648019968	67	4433
2026-01-08 08:26:04.32	70.48	44.85	-50.0	-51.8	15.1	0.00e+00	0	25	0	649068544	66	4350
2026-01-08 08:26:05.64	69.83	45.02	-50.1	-51.9	15.0	0.00e+00	0	25	0	652214272	66	4411
2026-01-08 08:26:06.34	69.48	45.10	-50.2	-52.1	14.9	0.00e+00	0	25	0	653262848	66	4494
2026-01-08 08:26:07.67	68.82	45.26	-50.7	-52.7	14.7	0.00e+00	0	25	0	655360000	66	4853
2026-01-08 08:26:08.38	68.46	45.35	-51.4	-53.6	14.4	0.00e+00	0	25	0	657457152	67	5065
2026-01-08 08:26:09.68	67.80	45.50	-52.4	-55.0	14.0	0.00e+00	0	25	0	659554304	69	5340
2026-01-08 08:26:10.39	67.43	45.58	-52.7	-55.6	13.8	0.00e+00	0	25	0	660602880	70	5385
2026-01-08 08:26:11.67	66.77	45.72	-53.4	-56.9	13.3	0.00e+00	0	25	0	663748608	72	5545
2026-01-08 08:26:12.41	66.39	45.80	-53.7	-57.5	12.9	0.00e+00	0	25	0	664797184	72	5932
2026-01-08 08:26:13.68	65.72	45.94	-53.9	-57.8	12.9	0.00e+00	0	25	0	666894336	73	5837
2026-01-08 08:26:14.44	65.32	46.02	-54.3	-58.5	12.5	0.00e+00	0	25	0	668991488	74	5979
2026-01-08 08:26:15.72	64.65	46.15	-54.3	-58.5	12.4	0.00e+00	0	25	0	671088640	74	5984
2026-01-08 08:26:16.49	64.24	46.23	-53.5	-57.0	13.2	0.00e+00	0	24	0	672137216	73	5298
2026-01-08 08:26:17.77	63.55	46.35	-52.8	-55.7	14.0	0.00e+00	0	25	0	674234368	72	4869
2026-01-08 08:26:18.49	63.16	46.42	-52.5	-55.4	14.0	0.00e+00	0	25	0	676331520	71	4929
2026-01-08 08:26:19.78	62.46	46.54	-52.5	-55.3	14.2	0.00e+00	0	25	0	678428672	71	4911
2026-01-08 08:26:20.49	62.07	46.60	-52.2	-54.9	14.3	0.00e+00	0	25	0	679477248	71	4696
2026-01-08 08:26:21.80	61.35	46.72	-53.1	-56.1	13.6	0.00e+00	0	25	0	682622976	71	5392
2026-01-08 08:26:22.51	60.96	46.78	-52.9	-55.7	13.9	0.00e+00	0	25	0	683671552	71	5149
2026-01-08 08:26:23.83	60.22	46.88	-51.7	-54.0	14.7	0.00e+00	0	25	0	685768704	70	4452
2026-01-08 08:26:24.55	59.82	46.94	-51.7	-54.0	14.5	0.00e+00	0	25	0	687865856	69	4745
2026-01-08 08:26:25.83	59.10	47.04	-52.6	-55.3	14.0	0.00e+00	0	25	0	689963008	70	5217
2026-01-08 08:26:26.56	58.69	47.09	-53.3	-56.4	13.5	0.00e+00	0	25	0	691011584	71	5580
2026-01-08 08:26:27.83	57.97	47.18	-52.5	-55.2	14.2	0.00e+00	0	25	0	694157312	71	4841
2026-01-08 08:26:28.58	57.54	47.23	-52.3	-54.9	14.3	0.00e+00	0	25	0	695205888	71	4698
2026-01-08 08:26:29.86	56.81	47.31	-52.4	-55.1	14.3	0.00e+00	0	25	0	697303040	71	4776
2026-01-08 08:26:30.58	56.40	47.35	-52.4	-55.1	14.3	0.00e+00	0	25	0	698351616	71	4776
2026-01-08 08:26:31.85	55.66	47.43	-52.1	-54.7	14.3	0.00e+00	0	25	0	701497344	70	4862
2026-01-08 08:26:32.60	55.23	47.47	-52.4	-55.2	14.0	0.00e+00	0	25	0	702545920	70	5151
2026-01-08 08:26:33.88	54.49	47.53	-53.2	-56.7	13.3	0.00e+00	0	25	0	704643072	71	5774
2026-01-08 08:26:34.62	54.06	47.57	-53.2	-56.7	13.4	0.00e+00	0	25	0	706740224	72	5442
2026-01-08 08:26:35.90	53.31	47.62	-52.8	-56.0	13.8	0.00e+00	0	25	0	708837376	72	4996
2026-01-08 08:26:36.64	52.88	47.65	-52.3	-55.1	14.2	0.00e+00	0	25	0	709885952	71	4806
2026-01-08 08:26:37.92	52.12	47.70	-52.2	-55.1	14.2	0.00e+00	0	25	0	711983104	71	4786
2026-01-08 08:26:38.64	51.70	47.73	-52.0	-54.8	14.2	0.00e+00	0	25	0	714080256	70	4892
2026-01-08 08:26:39.92	50.95	47.77	-51.0	-53.3	14.7	0.00e+00	0	25	0	716177408	68	4610
2026-01-08 08:26:40.63	50.53	47.79	-50.7	-52.8	15.0	0.00e+00	0	25	0	717225984	68	4354
2026-01-08 08:26:41.92	49.76	47.82	-50.7	-53.0	14.7	0.00e+00	0	25	0	720371712	67	4710
2026-01-08 08:26:42.64	49.34	47.84	-51.4	-53.9	14.3	0.00e+00	0	25	0	721420288	67	5239
2026-01-08 08:26:43.93	48.57	47.86	-52.0	-54.7	14.2	0.00e+00	0	25	0	723517440	69	5151
2026-01-08 08:26:44.65	48.14	47.87	-52.1	-54.9	14.0	0.00e+00	0	24	0	725614592	69	5237
2026-01-08 08:26:45.94	47.38	47.89	-52.5	-55.8	13.6	0.00e+00	0	25	0	727711744	70	5472
2026-01-08 08:26:46.65	46.95	47.89	-52.6	-56.1	13.2	0.00e+00	0	25	0	728760320	70	5699
2026-01-08 08:26:47.93	46.19	47.90	-51.8	-54.7	14.2	0.00e+00	0	25	0	730857472	70	4839
2026-01-08 08:26:48.66	45.76	47.90	-51.6	-54.5	14.2	0.00e+00	0	25	0	732954624	69	4989
2026-01-08 08:26:49.94	44.99	47.90	-51.8	-54.9	14.0	0.00e+00	0	25	0	735051776	69	5240
2026-01-08 08:26:50.68	44.55	47.89	-51.9	-54.9	14.0	0.00e+00	0	25	0	736100352	69	5255
2026-01-08 08:26:51.97	43.79	47.88	-51.3	-53.9	14.5	0.00e+00	0	25	0	739246080	69	4670
2026-01-08 08:26:52.68	43.36	47.87	-50.9	-53.3	14.6	0.00e+00	0	25	0	740294656	68	4644
2026-01-08 08:26:53.95	42.61	47.85	-51.0	-53.4	14.4	0.00e+00	0	25	0	742391808	67	4977
2026-01-08 08:26:54.67	42.18	47.84	-51.0	-53.4	14.5	0.00e+00	0	25	0	743440384	67	4959
2026-01-08 08:26:55.96	41.42	47.81	-50.7	-53.1	14.6	0.00e+00	0	25	0	746586112	67	4764
2026-01-08 08:26:56.69	40.99	47.79	-50.4	-52.5	14.9	0.00e+00	0	25	0	747634688	67	4469
2026-01-08 08:26:57.96	40.24	47.76	-50.3	-52.5	14.8	0.00e+00	0	25	0	749731840	67	4464
2026-01-08 08:26:58.72	39.79	47.73	-50.5	-52.8	14.7	0.00e+00	0	25	0	751828992	67	4638
2026-01-08 08:27:00.00	39.04	47.69	-51.9	-54.9	13.9	0.00e+00	0	24	0	753926144	68	5556
2026-01-08 08:27:00.73	38.61	47.66	-52.3	-55.5	13.7	0.00e+00	0	25	0	754974720	69	5593
2026-01-08 08:27:02.01	37.86	47.60	-52.4	-55.8	13.6	0.00e+00	0	25	0	758120448	70	5522
2026-01-08 08:27:02.76	37.42	47.57	-52.4	-55.6	13.7	0.00e+00	0	25	0	759169024	70	5388
2026-01-08 08:27:04.04	36.68	47.51	-52.8	-56.3	13.4	0.00e+00	0	25	0	761266176	70	5820
2026-01-08 08:27:04.77	36.25	47.47	-52.9	-56.3	13.4	0.00e+00	0	24	0	762314752	70	5824
2026-01-08 08:27:06.05	35.52	47.40	-52.7	-55.9	13.7	0.00e+00	0	24	0	765460480	71	5277
2026-01-08 08:27:06.80	35.08	47.36	-52.1	-54.9	14.2	0.00e+00	0	25	0	766509056	70	4963
2026-01-08 08:27:08.09	34.34	47.28	-52.1	-54.9	14.2	0.00e+00	0	25	0	768606208	70	4950
2026-01-08 08:27:08.85	33.91	47.23	-52.6	-55.7	13.8	0.00e+00	0	25	0	770703360	70	5423
2026-01-08 08:27:10.14	33.18	47.14	-52.6	-55.5	13.9	0.00e+00	0	25	0	772800512	71	5032
2026-01-08 08:27:10.86	32.77	47.09	-52.2	-54.9	14.2	0.00e+00	0	25	0	773849088	71	4691
2026-01-08 08:27:12.14	32.05	47.00	-51.8	-54.2	14.4	0.00e+00	0	25	0	776994816	70	4592
2026-01-08 08:27:12.86	31.65	46.94	-51.9	-54.3	14.3	0.00e+00	0	25	0	778043392	69	4887
2026-01-08 08:27:14.14	30.93	46.84	-52.4	-55.1	14.0	0.00e+00	0	25	0	780140544	69	5346
2026-01-08 08:27:14.88	30.52	46.78	-52.1	-54.7	14.2	0.00e+00	0	24	0	782237696	69	5108
2026-01-08 08:27:16.17	29.81	46.67	-52.0	-54.5	14.4	0.00e+00	0	24	0	784334848	70	4722
2026-01-08 08:27:16.90	29.41	46.61	-52.0	-54.4	14.4	0.00e+00	0	25	0	785383424	70	4704
2026-01-08 08:27:18.19	28.70	46.49	-52.1	-54.8	14.3	0.00e+00	0	24	0	788529152	70	4891
2026-01-08 08:27:18.94	28.30	46.42	-52.8	-55.9	13.7	0.00e+00	0	24	0	789577728	70	5586
2026-01-08 08:27:20.23	27.60	46.30	-53.0	-56.3	13.6	0.00e+00	0	25	0	791674880	71	5470
2026-01-08 08:27:20.96	27.21	46.23	-52.9	-55.9	13.7	0.00e+00	0	25	0	792723456	71	5270
2026-01-08 08:27:22.23	26.54	46.10	-51.9	-54.4	14.5	0.00e+00	0	25	0	795869184	70	4667
2026-01-08 08:27:22.99	26.13	46.02	-51.9	-54.3	14.5	0.00e+00	0	25	0	796917760	70	4643
2026-01-08 08:27:24.27	25.46	45.89	-51.8	-54.2	14.5	0.00e+00	0	25	0	799014912	70	4579
2026-01-08 08:27:25.01	25.07	45.81	-51.4	-53.7	14.6	0.00e+00	0	25	0	801112064	69	4568
2026-01-08 08:27:26.29	24.41	45.67	-51.3	-53.5	14.6	0.00e+00	0	24	0	803209216	68	4753
2026-01-08 08:27:27.02	24.04	45.59	-51.6	-54.0	14.3	0.00e+00	0	25	0	804257792	68	5002
2026-01-08 08:27:28.30	23.38	45.44	-52.2	-55.0	14.0	0.00e+00	0	25	0	807403520	69	5300
2026-01-08 08:27:29.04	23.01	45.35	-52.4	-55.2	14.0	0.00e+00	0	25	0	808452096	70	5130
2026-01-08 08:27:30.32	22.36	45.20	-52.7	-55.6	13.9	0.00e+00	0	25	0	810549248	71	5082
2026-01-08 08:27:31.07	21.99	45.11	-52.8	-55.6	13.9	0.00e+00	0	25	0	812646400	71	5053
2026-01-08 08:27:32.34	21.36	44.95	-52.1	-54.6	14.3	0.00e+00	0	25	0	814743552	70	4784
2026-01-08 08:27:33.10	20.99	44.86	-52.4	-54.9	14.2	0.00e+00	0	25	0	815792128	70	4976
2026-01-08 08:27:34.37	20.37	44.70	-52.7	-55.6	13.8	0.00e+00	0	25	0	817889280	70	5364
2026-01-08 08:27:35.10	20.02	44.60	-52.8	-55.8	13.7	0.00e+00	0	25	0	819986432	70	5482
2026-01-08 08:27:36.38	19.40	44.43	-51.8	-54.3	14.5	0.00e+00	0	24	0	822083584	70	4614
2026-01-08 08:27:37.12	19.05	44.34	-51.2	-53.4	14.8	0.00e+00	0	25	0	823132160	69	4425
2026-01-08 08:27:38.39	18.45	44.17	-51.0	-53.1	14.9	0.00e+00	0	25	0	826277888	68	4536
2026-01-08 08:27:39.15	18.10	44.06	-51.4	-53.7	14.6	0.00e+00	0	25	0	827326464	68	4821
2026-01-08 08:27:40.43	17.50	43.89	-51.0	-53.1	14.8	0.00e+00	0	25	0	829423616	68	4502
2026-01-08 08:27:41.15	17.17	43.79	-50.5	-52.5	15.0	0.00e+00	0	25	0	831520768	67	4446
2026-01-08 08:27:42.43	16.59	43.61	-49.9	-51.6	15.2	0.00e+00	0	25	0	833617920	66	4263
2026-01-08 08:27:43.16	16.26	43.50	-50.1	-51.9	15.1	0.00e+00	0	25	0	834666496	66	4395
2026-01-08 08:27:44.44	15.69	43.32	-50.5	-52.3	14.9	0.00e+00	0	25	0	836763648	66	4632
2026-01-08 08:27:45.17	15.37	43.21	-50.7	-52.6	14.7	0.00e+00	0	25	0	838860800	66	4804
2026-01-08 08:27:46.44	14.81	43.03	-49.9	-51.7	15.1	0.00e+00	0	25	0	840957952	66	4292
2026-01-08 08:27:47.21	14.48	42.91	-49.9	-51.7	15.1	0.00e+00	0	25	0	842006528	66	4311
2026-01-08 08:27:48.49	13.92	42.72	-50.2	-52.0	15.0	0.00e+00	0	25	0	845152256	66	4465
2026-01-08 08:27:49.24	13.60	42.61	-50.6	-52.6	14.7	0.00e+00	0	25	0	846200832	66	4766
2026-01-08 08:27:50.53	13.06	42.41	-50.8	-52.7	14.7	0.00e+00	0	24	0	848297984	66	4833
2026-01-08 08:27:51.26	12.75	42.30	-50.9	-52.8	14.7	0.00e+00	0	25	0	850395136	67	4648
2026-01-08 08:27:52.54	12.22	42.10	-51.1	-53.1	14.7	0.00e+00	0	24	0	852492288	67	4786
2026-01-08 08:27:53.32	11.90	41.98	-51.8	-54.0	14.4	0.00e+00	0	25	0	853540864	68	5032
2026-01-08 08:27:54.53	11.41	41.79	-51.9	-54.0	14.6	0.00e+00	0	25	0	856686592	69	4746
2026-01-08 08:27:55.38	11.07	41.66	-51.2	-53.1	15.0	0.00e+00	0	25	0	857735168	69	4286
2026-01-08 08:27:56.52	10.62	41.48	-50.0	-51.7	15.2	0.00e+00	0	25	0	859832320	66	4323
2026-01-08 08:27:57.38	10.28	41.34	-49.8	-51.4	15.3	0.00e+00	0	25	0	861929472	66	4173
2026-01-08 08:27:58.51	9.84	41.16	-50.2	-51.9	15.1	0.00e+00	0	25	0	864026624	66	4416
2026-01-08 08:27:59.36	9.51	41.03	-50.5	-52.4	14.8	0.00e+00	0	24	0	865075200	66	4684
2026-01-08 08:28:00.51	9.07	40.84	-50.9	-52.9	14.6	0.00e+00	0	25	0	867172352	66	4955
2026-01-08 08:28:01.36	8.75	40.71	-50.9	-52.9	14.7	0.00e+00	0	25	0	869269504	67	4702
2026-01-08 08:28:02.50	8.32	40.52	-51.2	-53.4	14.5	0.00e+00	0	24	0	871366656	67	4938
2026-01-08 08:28:03.35	8.00	40.38	-51.2	-53.4	14.6	0.00e+00	0	25	0	872415232	67	4945
2026-01-08 08:28:04.48	7.59	40.20	-50.9	-52.9	14.8	0.00e+00	0	25	0	874512384	67	4667
2026-01-08 08:28:05.34	7.27	40.06	-51.2	-53.3	14.6	0.00e+00	0	25	0	876609536	67	4878
2026-01-08 08:28:06.48	6.86	39.87	-52.0	-54.3	14.3	0.00e+00	0	25	0	878706688	69	4873
2026-01-08 08:28:07.34	6.56	39.73	-52.6	-55.2	14.0	0.00e+00	0	25	0	879755264	70	5120
2026-01-08 08:28:08.47	6.16	39.54	-52.9	-55.7	14.0	0.00e+00	0	25	0	881852416	71	5119
2026-01-08 08:28:09.32	5.86	39.40	-52.9	-55.6	14.0	0.00e+00	0	25	0	883949568	71	5084
2026-01-08 08:28:10.46	5.47	39.21	-52.7	-55.2	14.3	0.00e+00	0	25	0	886046720	71	4834
2026-01-08 08:28:11.31	5.17	39.07	-52.5	-54.9	14.4	0.00e+00	0	24	0	887095296	71	4661
2026-01-08 08:28:12.45	4.79	38.87	-52.7	-55.2	14.3	0.00e+00	0	25	0	890241024	71	4827
2026-01-08 08:28:13.30	4.50	38.73	-52.8	-55.3	14.2	0.00e+00	0	24	0	891289600	71	4902
2026-01-08 08:28:14.43	4.13	38.54	-52.6	-55.0	14.3	0.00e+00	0	25	0	893386752	71	4727
2026-01-08 08:28:15.29	3.85	38.40	-52.9	-55.4	14.1	0.00e+00	0	25	0	895483904	71	4969
2026-01-08 08:28:16.43	3.48	38.21	-52.9	-55.3	14.2	0.00e+00	0	25	0	897581056	71	4897
2026-01-08 08:28:17.28	3.20	38.06	-53.1	-55.7	14.0	0.00e+00	0	25	0	898629632	71	5123
2026-01-08 08:28:18.41	2.84	37.87	-53.6	-56.5	13.6	0.00e+00	0	25	0	900726784	72	5319
2026-01-08 08:28:19.26	2.58	37.73	-53.6	-56.4	13.7	0.00e+00	0	25	0	902823936	72	5255
2026-01-08 08:28:20.38	2.23	37.54	-53.5	-56.3	13.8	0.00e+00	0	25	0	904921088	72	5181
2026-01-08 08:28:21.24	1.96	37.39	-53.9	-57.1	13.4	0.00e+00	0	25	0	905969664	73	5391
2026-01-08 08:28:22.38	1.61	37.20	-53.6	-56.5	13.8	0.00e+00	0	25	0	908066816	73	4988
2026-01-08 08:28:23.23	1.36	37.06	-53.5	-56.3	13.9	0.00e+00	0	25	0	910163968	73	4892
2026-01-08 08:28:24.36	1.02	36.87	-53.6	-56.5	13.6	0.00e+00	0	25	0	912261120	72	5293
2026-01-08 08:28:25.21	0.77	36.72	-54.2	-57.4	13.1	0.00e+00	0	25	0	913309696	73	5589
2026-01-08 08:28:26.35	0.43	36.53	-55.0	-59.1	12.4	0.00e+00	0	25	0	915406848	75	6042
2026-01-08 08:28:27.20	0.19	36.39	-54.8	-58.5	12.7	7.00e-07	0	25	0	917504000	75	5643
2026-01-08 08:28:28.33	359.86	36.19	-54.2	-57.4	13.4	0.00e+00	0	25	0	919601152	75	4956
2026-01-08 08:28:29.18	359.62	36.05	-53.9	-56.9	13.7	0.00e+00	0	25	0	920649728	74	4939
2026-01-08 08:28:30.32	359.30	35.86	-54.6	-58.0	13.0	0.00e+00	0	25	0	922746880	74	5639
2026-01-08 08:28:31.17	359.06	35.71	-55.6	-60.2	11.7	0.00e+00	0	25	0	924844032	76	6446
2026-01-08 08:28:32.30	358.75	35.52	-56.5	-62.7	9.8	9.71e-04	0	25	0	926941184	78	7651
2026-01-08 08:28:33.16	358.52	35.38	-56.3	-61.8	10.5	2.60e-03	0	25	0	929038336	78	6891
2026-01-08 08:28:34.30	358.21	35.19	-55.4	-59.4	12.4	2.05e-05	0	25	0	931135488	77	5541
2026-01-08 08:28:35.14	357.99	35.04	-54.0	-56.9	13.6	0.00e+00	0	25	0	932184064	74	4976
2026-01-08 08:28:36.28	357.69	34.85	-54.0	-56.9	13.7	0.00e+00	0	25	0	934281216	74	4945
2026-01-08 08:28:37.13	357.46	34.71	-53.5	-56.1	14.0	0.00e+00	0	25	0	936378368	73	4796
2026-01-08 08:28:38.27	357.17	34.52	-53.7	-56.4	13.8	0.00e+00	0	25	0	938475520	73	4963
2026-01-08 08:28:39.12	356.95	34.38	-53.6	-56.3	14.0	0.00e+00	0	25	0	939524096	73	4872
2026-01-08 08:28:40.26	356.66	34.19	-53.8	-56.6	13.7	0.00e+00	0	25	0	941621248	73	5042
2026-01-08 08:28:41.11	356.45	34.04	-53.7	-56.3	13.9	0.00e+00	0	25	0	943718400	73	4919
2026-01-08 08:28:42.24	356.17	33.86	-54.3	-57.2	13.3	0.00e+00	0	25	0	945815552	73	5462
2026-01-08 08:28:43.09	355.96	33.71	-53.4	-55.9	14.1	0.00e+00	0	25	0	946864128	73	4682
2026-01-08 08:28:44.21	355.69	33.53	-52.6	-54.8	14.4	0.00e+00	0	25	0	948961280	71	4604
2026-01-08 08:28:45.06	355.49	33.39	-52.0	-54.0	14.6	0.00e+00	0	25	0	951058432	70	4480
2026-01-08 08:28:46.20	355.21	33.20	-52.5	-54.7	14.4	0.00e+00	0	25	0	953155584	70	4815
2026-01-08 08:28:47.05	355.01	33.06	-52.9	-55.2	14.1	0.00e+00	0	25	0	954204160	70	5107
2026-01-08 08:28:48.18	354.75	32.87	-53.7	-56.4	13.7	0.00e+00	0	25	0	956301312	72	5273
2026-01-08 08:28:49.02	354.56	32.73	-54.1	-57.1	13.3	0.00e+00	0	25	0	958398464	73	5389
2026-01-08 08:28:50.16	354.30	32.55	-54.6	-58.0	13.0	0.00e+00	0	25	0	960495616	74	5651
2026-01-08 08:28:51.02	354.10	32.41	-54.5	-57.6	13.1	0.00e+00	0	25	0	961544192	74	5395
2026-01-08 08:28:52.16	353.85	32.22	-54.2	-57.1	13.5	0.00e+00	0	25	0	964689920	74	5074
2026-01-08 08:28:53.02	353.65	32.08	-54.3	-57.4	13.3	0.00e+00	0	25	0	965738496	74	5264
2026-01-08 08:28:54.17	353.40	31.89	-54.3	-57.3	13.5	0.00e+00	0	25	0	967835648	74	5160
2026-01-08 08:28:55.02	353.22	31.76	-54.5	-57.6	13.3	0.00e+00	0	25	0	969932800	74	5360
2026-01-08 08:28:56.17	352.97	31.57	-53.8	-56.4	14.0	0.00e+00	0	25	0	972029952	74	4668
2026-01-08 08:28:57.03	352.79	31.43	-53.9	-56.5	13.9	0.00e+00	0	25	0	973078528	74	4753
2026-01-08 08:28:58.17	352.55	31.25	-53.3	-55.7	14.2	0.00e+00	0	25	0	975175680	72	4842
2026-01-08 08:28:59.03	352.37	31.11	-53.5	-56.1	13.9	0.00e+00	0	25	0	977272832	72	5083
2026-01-08 08:29:00.18	352.13	30.93	-53.7	-56.4	13.6	0.00e+00	0	25	0	979369984	72	5277
2026-01-08 08:29:01.04	351.95	30.79	-54.5	-57.9	13.1	0.00e+00	0	25	0	980418560	74	5538
2026-01-08 08:29:02.19	351.72	30.61	-55.1	-58.8	12.5	0.00e+00	0	25	0	983564288	75	5835
2026-01-08 08:29:03.05	351.55	30.47	-55.6	-59.7	12.0	1.50e-06	0	25	0	984612864	76	6124
2026-01-08 08:29:04.19	351.32	30.29	-55.4	-59.5	12.2	6.10e-06	0	25	0	986710016	76	5943
2026-01-08 08:29:05.05	351.15	30.15	-54.8	-58.3	13.0	0.00e+00	0	25	0	988807168	76	5176
2026-01-08 08:29:06.21	350.93	29.97	-53.5	-56.2	13.9	0.00e+00	0	25	0	990904320	73	4861
2026-01-08 08:29:07.07	350.76	29.84	-53.1	-55.5	14.2	0.00e+00	0	25	0	991952896	72	4724
2026-01-08 08:29:08.22	350.54	29.66	-52.1	-54.1	14.6	0.00e+00	0	25	0	994050048	70	4528
2026-01-08 08:29:09.08	350.38	29.52	-51.9	-53.8	14.8	0.00e+00	0	25	0	996147200	70	4389
2026-01-08 08:29:10.22	350.17	29.35	-51.6	-53.5	14.8	0.00e+00	0	25	0	998244352	69	4460
2026-01-08 08:29:11.08	350.01	29.21	-52.0	-53.9	14.6	0.00e+00	0	25	0	999292928	69	4698
2026-01-08 08:29:12.22	349.80	29.04	-52.7	-54.9	14.2	0.00e+00	0	25	0	1001390080	70	4982
2026-01-08 08:29:13.07	349.65	28.91	-53.2	-55.7	13.9	0.00e+00	0	25	0	1003487232	71	5156
2026-01-08 08:29:14.22	349.44	28.73	-54.1	-57.1	13.3	0.00e+00	0	25	0	1005584384	73	5367
2026-01-08 08:29:15.08	349.29	28.60	-54.5	-57.8	13.0	0.00e+00	0	25	0	1006632960	74	5523
2026-01-08 08:29:16.23	349.08	28.43	-54.5	-57.8	13.0	0.00e+00	0	25	0	1009778688	74	5518
2026-01-08 08:29:17.09	348.93	28.30	-53.8	-56.5	13.8	0.00e+00	0	25	0	1010827264	74	4738
2026-01-08 08:29:18.24	348.73	28.12	-53.3	-55.9	14.1	0.00e+00	0	25	0	1012924416	73	4673
2026-01-08 08:29:19.10	348.59	27.99	-52.9	-55.3	14.3	0.00e+00	0	25	0	1015021568	72	4622
2026-01-08 08:29:20.25	348.39	27.82	-52.6	-54.9	14.4	0.00e+00	0	25	0	1017118720	71	4665
2026-01-08 08:29:21.11	348.25	27.69	-52.2	-54.3	14.6	0.00e+00	0	25	0	1018167296	71	4384
2026-01-08 08:29:22.26	348.06	27.52	-52.5	-54.8	14.3	0.00e+00	0	25	0	1020264448	70	4879
2026-01-08 08:29:23.12	347.91	27.39	-52.2	-54.3	14.5	0.00e+00	0	24	0	1022361600	70	4622
2026-01-08 08:29:24.27	347.73	27.22	-52.3	-54.5	14.4	0.00e+00	0	25	0	1024458752	70	4726
2026-01-08 08:29:25.14	347.59	27.10	-52.5	-54.7	14.3	0.00e+00	0	25	0	1026555904	70	4865
2026-01-08 08:29:26.29	347.40	26.93	-52.6	-54.9	14.2	0.00e+00	0	25	0	1028653056	70	4982
2026-01-08 08:29:27.15	347.27	26.80	-52.5	-54.7	14.3	0.00e+00	0	25	0	1029701632	70	4865
2026-01-08 08:29:28.30	347.08	26.63	-52.2	-54.4	14.5	0.00e+00	0	25	0	1031798784	70	4672
2026-01-08 08:29:29.17	346.95	26.51	-52.2	-54.4	14.5	0.00e+00	0	25	0	1033895936	70	4652
2026-01-08 08:29:30.32	346.77	26.34	-51.9	-53.8	14.7	0.00e+00	0	25	0	1035993088	70	4389
2026-01-08 08:29:31.17	346.64	26.22	-52.1	-54.2	14.6	0.00e+00	0	25	0	1037041664	70	4559
2026-01-08 08:29:32.32	346.47	26.05	-52.1	-54.1	14.6	0.00e+00	0	25	0	1039138816	70	4535
2026-01-08 08:29:33.18	346.34	25.93	-52.4	-54.6	14.3	0.00e+00	0	25	0	1041235968	70	4796
2026-01-08 08:29:34.32	346.17	25.77	-52.8	-55.2	14.0	0.00e+00	0	25	0	1043333120	70	5157
2026-01-08 08:29:35.18	346.04	25.65	-53.5	-56.2	13.8	0.00e+00	0	25	0	1045430272	72	5104
2026-01-08 08:29:36.33	345.87	25.49	-53.9	-56.9	13.5	0.00e+00	0	25	0	1047527424	73	5233
2026-01-08 08:29:37.19	345.75	25.36	-53.9	-56.8	13.5	0.00e+00	0	25	0	1048576000	73	5173
2026-01-08 08:29:38.35	345.58	25.20	-53.8	-56.6	13.6	0.00e+00	0	25	0	1050673152	73	5056
2026-01-08 08:29:39.21	345.46	25.08	-53.4	-56.0	14.0	0.00e+00	0	25	0	1052770304	73	4721
2026-01-08 08:29:40.35	345.30	24.92	-53.2	-55.7	14.2	0.00e+00	0	25	0	1054867456	73	4577
2026-01-08 08:29:41.21	345.18	24.80	-53.0	-55.3	14.3	0.00e+00	0	25	0	1055916032	72	4635
2026-01-08 08:29:42.36	345.02	24.65	-52.8	-55.1	14.4	0.00e+00	0	25	0	1058013184	72	4536
2026-01-08 08:29:43.22	344.91	24.53	-52.6	-54.8	14.4	0.00e+00	0	25	0	1060110336	71	4638
2026-01-08 08:29:44.37	344.75	24.37	-52.4	-54.5	14.5	0.00e+00	0	25	0	1062207488	71	4477
2026-01-08 08:29:45.22	344.63	24.25	-52.3	-54.4	14.6	0.00e+00	0	25	0	1063256064	71	4417
2026-01-08 08:29:46.37	344.48	24.10	-51.9	-53.9	14.7	0.00e+00	0	25	0	1065353216	70	4438
2026-01-08 08:29:47.23	344.37	23.98	-51.8	-53.7	14.8	0.00e+00	0	25	0	1067450368	70	4333
2026-01-08 08:29:48.37	344.22	23.83	-51.6	-53.5	14.8	0.00e+00	0	25	0	1069547520	69	4453
2026-01-08 08:29:49.24	344.11	23.71	-51.4	-53.3	14.9	0.00e+00	0	25	0	1071644672	69	4350
2026-01-08 08:29:50.39	343.96	23.56	-51.7	-53.6	14.7	0.00e+00	0	25	0	1073741824	69	4514
2026-01-08 08:29:51.24	343.85	23.44	-51.7	-53.7	14.7	0.00e+00	0	25	0	1074790400	69	4548
2026-01-08 08:29:52.39	343.70	23.29	-52.0	-54.0	14.5	0.00e+00	0	25	0	1076887552	69	4754
2026-01-08 08:29:53.25	343.60	23.18	-52.1	-54.2	14.4	0.00e+00	0	25	0	1078984704	69	4867
2026-01-08 08:29:54.40	343.45	23.03	-52.0	-54.1	14.4	0.00e+00	0	25	0	1081081856	69	4778
2026-01-08 08:29:55.26	343.35	22.91	-52.2	-54.3	14.3	0.00e+00	0	25	0	1082130432	69	4910
2026-01-08 08:29:56.41	343.21	22.76	-52.1	-54.2	14.4	0.00e+00	0	25	0	1084227584	69	4827
2026-01-08 08:29:57.27	343.10	22.65	-52.1	-54.2	14.3	0.00e+00	0	25	0	1086324736	69	4854
2026-01-08 08:29:58.42	342.96	22.50	-51.8	-53.8	14.5	0.00e+00	0	25	0	1088421888	69	4649
2026-01-08 08:29:59.28	342.86	22.39	-51.8	-53.7	14.6	0.00e+00	0	25	0	1090519040	69	4591
2026-01-08 08:30:00.43	342.73	22.25	-51.8	-53.8	14.6	0.00e+00	0	25	0	1092616192	69	4626
2026-01-08 08:30:01.29	342.63	22.14	-51.9	-54.0	14.5	0.00e+00	0	25	0	1093664768	69	4719
2026-01-08 08:30:02.43	342.49	21.99	-52.1	-54.2	14.4	0.00e+00	0	25	0	1095761920	69	4842
2026-01-08 08:30:03.29	342.39	21.88	-52.3	-54.4	14.3	0.00e+00	0	25	0	1097859072	69	4966
2026-01-08 08:30:04.44	342.26	21.74	-52.5	-54.8	14.2	0.00e+00	0	25	0	1099956224	70	4871
2026-01-08 08:30:05.30	342.17	21.63	-52.5	-54.8	14.2	0.00e+00	0	25	0	1101004800	70	4892
2026-01-08 08:30:06.45	342.04	21.48	-52.5	-54.7	14.3	0.00e+00	0	25	0	1103101952	70	4855
2026-01-08 08:30:07.31	341.94	21.38	-52.5	-54.8	14.3	0.00e+00	0	25	0	1105199104	70	4871
2026-01-08 08:30:08.45	341.82	21.23	-52.4	-54.5	14.4	0.00e+00	0	25	0	1107296256	70	4749
2026-01-08 08:30:09.31	341.72	21.13	-52.3	-54.5	14.4	0.00e+00	0	25	0	1108344832	70	4708
2026-01-08 08:30:10.45	341.60	20.99	-52.1	-54.2	14.5	0.00e+00	0	25	0	1111490560	70	4586
2026-01-08 08:30:11.32	341.50	20.88	-52.2	-54.3	14.5	0.00e+00	0	25	0	1112539136	70	4626
2026-01-08 08:30:12.46	341.38	20.74	-52.2	-54.3	14.5	0.00e+00	0	25	0	1114636288	70	4612
2026-01-08 08:30:13.32	341.29	20.64	-52.3	-54.5	14.4	0.00e+00	0	25	0	1116733440	70	4731
2026-01-08 08:30:14.47	341.17	20.50	-52.3	-54.5	14.4	0.00e+00	0	25	0	1118830592	70	4711
2026-01-08 08:30:15.32	341.08	20.39	-52.3	-54.4	14.4	0.00e+00	0	25	0	1119879168	70	4686
2026-01-08 08:30:16.47	340.96	20.25	-52.3	-54.4	14.4	0.00e+00	0	25	0	1121976320	70	4704
2026-01-08 08:30:17.33	340.88	20.15	-52.2	-54.3	14.5	0.00e+00	0	25	0	1124073472	70	4638
2026-01-08 08:30:18.47	340.76	20.01	-52.2	-54.2	14.5	0.00e+00	0	25	0	1126170624	70	4595
2026-01-08 08:30:19.33	340.67	19.91	-52.2	-54.3	14.5	0.00e+00	0	25	0	1127219200	70	4607
2026-01-08 08:30:20.48	340.56	19.78	-52.2	-54.3	14.4	0.00e+00	0	25	0	1129316352	70	4629
2026-01-08 08:30:21.34	340.47	19.67	-52.2	-54.2	14.5	0.00e+00	0	25	0	1131413504	70	4573
2026-01-08 08:30:22.48	340.36	19.54	-52.1	-54.1	14.5	0.00e+00	0	25	0	1133510656	70	4531
2026-01-08 08:30:23.35	340.28	19.44	-52.2	-54.3	14.5	0.00e+00	0	25	0	1135607808	70	4628
2026-01-08 08:30:24.50	340.16	19.30	-52.3	-54.4	14.4	0.00e+00	0	25	0	1137704960	70	4681
2026-01-08 08:30:25.36	340.08	19.20	-52.2	-54.2	14.5	0.00e+00	0	25	0	1138753536	70	4598
2026-01-08 08:30:26.50	339.97	19.07	-52.2	-54.3	14.4	0.00e+00	0	25	0	1140850688	70	4642
2026-01-08 08:30:27.36	339.89	18.97	-52.3	-54.5	14.3	0.00e+00	0	25	0	1142947840	70	4712
2026-01-08 08:30:28.51	339.78	18.84	-52.2	-54.4	14.4	0.00e+00	0	25	0	1145044992	70	4654
2026-01-08 08:30:29.36	339.70	18.74	-52.5	-54.7	14.2	0.00e+00	0	25	0	1146093568	70	4820
2026-01-08 08:30:30.51	339.60	18.61	-52.4	-54.6	14.3	0.00e+00	0	25	0	1148190720	70	4761
2026-01-08 08:30:31.37	339.52	18.52	-52.3	-54.5	14.3	0.00e+00	0	25	0	1150287872	70	4745
2026-01-08 08:30:32.51	339.42	18.39	-52.5	-54.8	14.2	0.00e+00	0	25	0	1152385024	70	4884
2026-01-08 08:30:33.37	339.34	18.29	-52.5	-54.7	14.2	0.00e+00	0	25	0	1153433600	70	4868
2026-01-08 08:30:34.52	339.24	18.16	-52.6	-55.0	14.1	0.00e+00	0	25	0	1156579328	70	5013
2026-01-08 08:30:35.38	339.16	18.06	-52.7	-55.2	14.0	0.00e+00	0	25	0	1157627904	70	5111
2026-01-08 08:30:36.53	339.06	17.94	-52.9	-55.4	13.9	0.00e+00	0	25	0	1159725056	70	5257
2026-01-08 08:30:37.39	338.98	17.84	-52.8	-55.2	14.1	0.00e+00	0	25	0	1161822208	71	4837
2026-01-08 08:30:38.53	338.88	17.71	-52.9	-55.3	14.0	0.00e+00	0	25	0	1163919360	71	4915
2026-01-08 08:30:39.40	338.81	17.62	-52.9	-55.3	14.0	0.00e+00	0	25	0	1164967936	71	4897
2026-01-08 08:30:40.54	338.71	17.49	-52.7	-55.1	14.2	0.00e+00	0	25	0	1167065088	71	4763
2026-01-08 08:30:41.40	338.64	17.40	-52.7	-55.0	14.2	0.00e+00	0	25	0	1169162240	71	4753
2026-01-08 08:30:42.54	338.54	17.28	-52.5	-54.8	14.3	0.00e+00	0	25	0	1171259392	71	4608
2026-01-08 08:30:43.40	338.47	17.18	-52.2	-54.4	14.6	0.00e+00	0	25	0	1172307968	71	4398
2026-01-08 08:30:44.54	338.38	17.06	-52.1	-54.1	14.5	0.00e+00	0	25	0	1175453696	70	4545
2026-01-08 08:30:45.40	338.30	16.97	-51.9	-53.9	14.6	0.00e+00	0	25	0	1176502272	70	4422
2026-01-08 08:30:46.55	338.21	16.84	-51.5	-53.4	14.7	0.00e+00	0	25	0	1178599424	69	4440
2026-01-08 08:30:47.41	338.14	16.75	-51.5	-53.4	14.7	0.00e+00	0	25	0	1180696576	69	4425
2026-01-08 08:30:48.55	338.05	16.63	-51.3	-53.2	14.9	0.00e+00	0	25	0	1182793728	69	4305
2026-01-08 08:30:49.41	337.98	16.54	-51.3	-53.2	14.8	0.00e+00	0	25	0	1183842304	69	4320
2026-01-08 08:30:50.56	337.89	16.42	-51.5	-53.4	14.8	0.00e+00	0	25	0	1185939456	69	4412
2026-01-08 08:30:51.41	337.82	16.33	-51.4	-53.3	14.8	0.00e+00	0	25	0	1188036608	69	4359
2026-01-08 08:30:52.56	337.73	16.21	-51.6	-53.6	14.6	0.00e+00	0	25	0	1190133760	69	4516
2026-01-08 08:30:53.42	337.67	16.12	-51.8	-53.9	14.5	0.00e+00	0	25	0	1191182336	69	4654
2026-01-08 08:30:54.57	337.58	16.00	-52.0	-54.0	14.4	0.00e+00	0	25	0	1193279488	69	4745
2026-01-08 08:30:55.43	337.51	15.91	-52.2	-54.3	14.3	0.00e+00	0	25	0	1195376640	69	4901
2026-01-08 08:30:56.57	337.42	15.79	-52.5	-54.8	14.2	0.00e+00	0	25	0	1197473792	70	4873
2026-01-08 08:30:57.43	337.36	15.70	-52.7	-55.0	14.1	0.00e+00	0	25	0	1199570944	70	4997
2026-01-08 08:30:58.58	337.27	15.59	-52.9	-55.3	14.0	0.00e+00	0	25	0	1201668096	71	4883
2026-01-08 08:30:59.44	337.21	15.50	-53.2	-55.7	13.8	0.00e+00	0	25	0	1202716672	71	5124
2026-01-08 08:31:00.59	337.12	15.38	-53.5	-56.2	13.7	0.00e+00	0	25	0	1204813824	72	5101
2026-01-08 08:31:01.45	337.06	15.30	-53.5	-56.3	13.6	0.00e+00	0	25	0	1206910976	72	5166
2026-01-08 08:31:02.60	336.98	15.18	-53.7	-56.6	13.4	0.00e+00	0	25	0	1209008128	72	5364
2026-01-08 08:31:03.46	336.92	15.09	-53.6	-56.4	13.5	0.00e+00	0	25	0	1210056704	72	5245
2026-01-08 08:31:04.60	336.83	14.98	-53.7	-56.5	13.4	0.00e+00	0	25	0	1212153856	72	5336
2026-01-08 08:31:05.45	336.77	14.89	-53.7	-56.6	13.4	0.00e+00	0	25	0	1214251008	72	5356
2026-01-08 08:31:06.59	336.69	14.78	-53.6	-56.3	13.5	0.00e+00	0	25	0	1216348160	72	5196
2026-01-08 08:31:07.46	336.63	14.69	-53.6	-56.3	13.6	0.00e+00	0	25	0	1217396736	72	5201
2026-01-08 08:31:08.61	336.55	14.58	-53.3	-55.9	13.7	0.00e+00	0	25	0	1220542464	72	4967
2026-01-08 08:31:09.46	336.49	14.50	-53.3	-55.8	13.8	0.00e+00	0	25	0	1221591040	72	4923
2026-01-08 08:31:10.61	336.41	14.38	-53.2	-55.7	13.9	0.00e+00	0	25	0	1223688192	72	4823
2026-01-08 08:31:11.47	336.36	14.30	-53.2	-55.7	14.0	0.00e+00	0	25	0	1225785344	72	4836
2026-01-08 08:31:12.61	336.28	14.19	-53.1	-55.5	14.0	0.00e+00	0	25	0	1227882496	72	4739
2026-01-08 08:31:13.48	336.22	14.10	-53.0	-55.5	14.0	0.00e+00	0	25	0	1228931072	72	4711
2026-01-08 08:31:14.62	336.14	13.99	-52.9	-55.3	14.1	0.00e+00	0	25	0	1231028224	72	4637
2026-01-08 08:31:15.49	336.09	13.91	-52.7	-55.0	14.3	0.00e+00	0	25	0	1233125376	72	4484
2026-01-08 08:31:16.63	336.01	13.80	-52.9	-55.2	14.2	0.00e+00	0	25	0	1235222528	72	4591
2026-01-08 08:31:17.49	335.95	13.72	-53.0	-55.5	14.0	0.00e+00	0	25	0	1236271104	72	4730
2026-01-08 08:31:18.62	335.88	13.61	-53.0	-55.4	14.1	0.00e+00	0	25	0	1238368256	72	4694
2026-01-08 08:31:19.48	335.82	13.53	-53.1	-55.6	14.0	0.00e+00	0	25	0	1240465408	72	4782
2026-01-08 08:31:20.62	335.75	13.42	-53.1	-55.6	14.0	0.00e+00	0	25	0	1242562560	72	4773
2026-01-08 08:31:21.48	335.70	13.34	-53.0	-55.4	14.1	0.00e+00	0	25	0	1244659712	72	4670
