passes_logs/2026/01/08/R3.2S_Murmansk/R3.2S_Murmansk__20260108_234326_SUOMI_NPP_rec.log

#Pass ID: 20260108_234326_SUOMI NPP
#Satellite: SUOMI NPP
#Configuration: NPP
#almurnet v.1.7.20251203
#Start time: 2026-01-08 23:43:27

#Version: 2.2.20231116
#Station: R3.2S_Murmansk
#Location: 33.079688 lon 68.888172 lat
#TLE: 1 37849U 11061A   26008.05542337  .00000108  00000+0  71976-4 0  9997
#TLE: 2 37849  98.7805 310.1641 0002540  75.6410 284.5048 14.19523335735721

#Time	Az	El	Level	Level2	SNR	BER	BlckErr	Temp	State	Recorded	gain1	gain2
2026-01-08 23:43:27.76	21.32	2.06	-57.5	-72.8	3.8	1.49e+00	0	22	0	0	81	20627
2026-01-08 23:43:28.77	21.36	2.13	-57.4	-72.4	3.8	1.49e+00	0	22	104	0	79	22048
2026-01-08 23:43:29.78	21.39	2.19	-57.4	-72.5	3.8	1.49e+00	0	22	104	0	79	22317
2026-01-08 23:43:30.78	21.42	2.25	-57.4	-72.4	3.8	1.49e+00	0	22	104	0	79	22102
2026-01-08 23:43:31.79	21.45	2.32	-57.4	-72.3	3.8	1.49e+00	0	22	104	0	79	21974
2026-01-08 23:43:32.79	21.49	2.38	-57.4	-72.2	3.8	1.49e+00	0	22	104	0	79	21719
2026-01-08 23:43:33.79	21.52	2.44	-57.4	-72.2	3.8	1.49e+00	0	22	104	0	79	21545
2026-01-08 23:43:34.80	21.56	2.51	-57.4	-72.2	3.8	1.49e+00	0	22	104	0	79	21629
2026-01-08 23:43:35.80	21.59	2.57	-57.4	-72.2	3.8	1.49e+00	0	22	104	0	79	21611
2026-01-08 23:43:36.80	21.62	2.63	-57.3	-71.8	3.8	1.49e+00	0	22	104	0	79	20748
2026-01-08 23:43:37.80	21.66	2.70	-57.3	-71.6	3.8	1.49e+00	0	22	104	0	79	20179
2026-01-08 23:43:38.79	21.69	2.76	-57.3	-71.2	3.9	1.49e+00	0	22	104	0	79	19247
2026-01-08 23:43:39.80	21.72	2.82	-57.3	-71.0	3.8	1.48e+00	0	22	104	0	79	18737
2026-01-08 23:43:40.80	21.76	2.89	-57.2	-70.1	4.1	1.43e+00	0	22	0	0	79	16891
2026-01-08 23:43:41.79	21.79	2.95	-57.2	-69.8	4.2	1.42e+00	0	22	0	0	79	16425
2026-01-08 23:43:42.79	21.83	3.01	-57.2	-69.4	4.3	1.33e+00	0	22	0	0	79	15652
2026-01-08 23:43:43.80	21.86	3.08	-57.2	-69.1	4.4	1.28e+00	73	22	0	1048576	79	15165
2026-01-08 23:43:44.80	21.90	3.14	-57.2	-69.0	4.4	1.11e+00	38	22	0	3145728	79	15008
2026-01-08 23:43:45.79	21.93	3.21	-57.1	-68.8	4.5	1.03e+00	0	22	0	5242880	79	14558
2026-01-08 23:43:46.79	21.97	3.27	-57.1	-68.5	4.6	9.82e-01	0	22	0	7340032	79	14168
2026-01-08 23:43:47.79	22.00	3.34	-57.1	-68.4	4.7	9.93e-01	0	22	0	8388608	79	14005
2026-01-08 23:43:48.79	22.04	3.40	-57.1	-68.1	4.8	8.37e-01	0	22	0	10485760	79	13514
2026-01-08 23:43:49.79	22.07	3.47	-56.9	-66.8	5.5	5.16e-01	0	23	0	12582912	79	11602
2026-01-08 23:43:50.79	22.11	3.53	-56.9	-66.2	5.9	3.86e-01	0	23	0	14680064	79	10795
2026-01-08 23:43:51.79	22.14	3.60	-56.7	-64.9	6.9	1.89e-01	0	23	0	15728640	79	9303
2026-01-08 23:43:52.79	22.18	3.66	-56.5	-63.9	7.7	1.30e-01	0	23	0	17825792	79	8303
2026-01-08 23:43:53.79	22.21	3.73	-56.2	-62.9	8.7	2.54e-02	0	23	0	19922944	79	7392
2026-01-08 23:43:54.78	22.25	3.79	-56.0	-62.1	9.3	8.11e-03	0	23	0	22020096	78	7202
2026-01-08 23:43:55.79	22.29	3.86	-55.5	-60.7	10.5	5.14e-03	0	23	0	24117248	77	6446
2026-01-08 23:43:56.79	22.32	3.93	-55.2	-60.1	11.0	4.27e-04	0	23	0	25165824	77	6016
2026-01-08 23:43:57.79	22.36	3.99	-55.1	-59.9	11.1	4.55e-04	0	23	0	27262976	76	6225
2026-01-08 23:43:58.79	22.40	4.06	-54.9	-59.5	11.4	6.33e-05	0	23	0	29360128	76	5957
2026-01-08 23:43:59.78	22.43	4.12	-54.8	-59.2	11.7	3.43e-05	0	23	0	31457280	76	5750
2026-01-08 23:44:00.77	22.47	4.19	-54.8	-59.2	11.6	3.43e-05	0	23	0	33554432	76	5756
2026-01-08 23:44:01.77	22.51	4.26	-54.7	-59.0	11.9	2.74e-05	0	23	0	34603008	76	5599
2026-01-08 23:44:02.77	22.54	4.32	-54.6	-58.9	11.7	1.75e-05	0	23	0	36700160	75	5912
2026-01-08 23:44:03.77	22.58	4.39	-54.8	-59.3	11.4	5.56e-05	0	23	0	38797312	75	6161
2026-01-08 23:44:04.77	22.62	4.46	-55.1	-60.2	10.7	1.79e-04	0	23	0	40894464	75	6850
2026-01-08 23:44:05.77	22.65	4.53	-55.2	-60.5	10.5	4.95e-04	0	23	0	42991616	75	7043
2026-01-08 23:44:06.78	22.69	4.59	-55.6	-61.2	9.9	2.15e-03	0	23	0	44040192	76	7279
2026-01-08 23:44:07.77	22.73	4.66	-55.9	-62.2	9.1	6.39e-03	0	23	0	46137344	76	8088
2026-01-08 23:44:08.77	22.77	4.73	-56.1	-62.9	8.5	1.42e-02	0	23	0	48234496	77	8303
2026-01-08 23:44:09.77	22.81	4.80	-56.3	-63.6	7.9	3.08e-02	0	23	0	50331648	77	9058
2026-01-08 23:44:10.77	22.85	4.87	-56.6	-64.5	7.2	7.39e-02	0	23	0	51380224	78	9468
2026-01-08 23:44:11.77	22.88	4.93	-56.6	-65.1	6.7	1.23e-01	0	23	0	53477376	78	10073
2026-01-08 23:44:12.77	22.92	5.00	-56.8	-65.9	6.1	1.87e-01	0	23	0	55574528	78	11068
2026-01-08 23:44:13.76	22.96	5.07	-54.9	-59.4	11.5	2.48e-01	0	23	0	57671680	76	5867
2026-01-08 23:44:14.76	23.00	5.14	-56.8	-65.8	6.2	2.13e-02	0	23	0	59768832	78	11024
2026-01-08 23:44:15.76	23.04	5.21	-57.1	-67.2	5.5	3.89e-01	0	23	0	60817408	79	12098
2026-01-08 23:44:16.75	23.08	5.28	-55.9	-61.6	9.7	7.01e-01	0	23	0	62914560	78	6796
2026-01-08 23:44:17.75	23.12	5.35	-57.2	-68.8	4.7	2.62e-01	0	23	0	65011712	79	14568
2026-01-08 23:44:18.75	23.16	5.42	-56.1	-62.1	9.1	8.27e-01	0	23	0	65011712	78	7203
2026-01-08 23:44:19.75	23.20	5.49	-55.0	-59.4	11.6	3.33e-04	0	23	0	67108864	76	5896
2026-01-08 23:44:20.75	23.24	5.56	-54.3	-58.2	12.4	9.10e-06	0	23	0	68157440	75	5439
2026-01-08 23:44:21.75	23.28	5.63	-54.3	-58.2	12.4	1.50e-06	0	23	0	70254592	75	5457
2026-01-08 23:44:22.76	23.32	5.70	-54.2	-57.9	12.5	1.50e-06	0	23	0	72351744	74	5576
2026-01-08 23:44:23.75	23.36	5.77	-53.9	-57.5	12.9	0.00e+00	0	23	0	74448896	74	5283
2026-01-08 23:44:24.75	23.40	5.84	-53.9	-57.5	12.8	0.00e+00	0	23	0	76546048	74	5311
2026-01-08 23:44:25.75	23.44	5.91	-53.8	-57.3	13.0	0.00e+00	0	23	0	77594624	74	5203
2026-01-08 23:44:26.75	23.48	5.98	-53.7	-57.0	13.2	7.00e-07	0	23	0	79691776	74	5034
2026-01-08 23:44:27.75	23.52	6.05	-53.5	-56.8	13.3	0.00e+00	0	23	0	81788928	73	5167
2026-01-08 23:44:28.75	23.56	6.12	-53.3	-56.4	13.5	0.00e+00	0	23	0	83886080	73	4963
2026-01-08 23:44:29.74	23.60	6.20	-53.1	-56.1	13.5	0.00e+00	0	23	0	85983232	72	5097
2026-01-08 23:44:30.75	23.65	6.27	-53.2	-56.4	13.4	0.00e+00	0	23	0	87031808	72	5233
2026-01-08 23:44:31.75	23.69	6.34	-53.3	-56.4	13.4	0.00e+00	0	23	0	89128960	72	5238
2026-01-08 23:44:32.75	23.73	6.41	-53.0	-56.0	13.6	0.00e+00	0	23	0	91226112	72	4993
2026-01-08 23:44:33.75	23.77	6.49	-53.1	-56.0	13.6	0.00e+00	0	23	0	93323264	72	5035
2026-01-08 23:44:34.75	23.82	6.56	-53.0	-55.9	13.7	0.00e+00	0	23	0	94371840	72	4972
2026-01-08 23:44:35.75	23.86	6.63	-53.0	-55.9	13.7	0.00e+00	0	23	0	96468992	72	4936
2026-01-08 23:44:36.75	23.90	6.70	-53.0	-55.9	13.7	0.00e+00	0	23	0	98566144	72	4927
2026-01-08 23:44:37.75	23.94	6.78	-52.9	-55.7	13.8	0.00e+00	0	23	0	100663296	72	4853
2026-01-08 23:44:38.75	23.99	6.85	-52.9	-55.7	13.8	0.00e+00	0	23	0	102760448	72	4866
2026-01-08 23:44:39.74	24.03	6.92	-52.9	-55.7	13.8	0.00e+00	0	23	0	103809024	72	4828
2026-01-08 23:44:40.74	24.07	7.00	-52.9	-55.7	13.8	0.00e+00	0	23	0	105906176	72	4845
2026-01-08 23:44:41.73	24.12	7.07	-53.1	-55.9	13.7	0.00e+00	0	23	0	108003328	72	4964
2026-01-08 23:44:42.73	24.16	7.14	-53.0	-55.7	13.8	0.00e+00	0	23	0	110100480	72	4840
2026-01-08 23:44:43.73	24.21	7.22	-53.0	-55.7	13.8	0.00e+00	0	23	0	112197632	72	4858
2026-01-08 23:44:44.72	24.25	7.29	-52.8	-55.5	13.9	0.00e+00	0	23	0	113246208	72	4736
2026-01-08 23:44:45.72	24.30	7.37	-52.8	-55.5	14.0	0.00e+00	0	23	0	115343360	72	4725
2026-01-08 23:44:46.72	24.34	7.44	-52.9	-55.6	13.9	0.00e+00	0	23	0	117440512	72	4760
2026-01-08 23:44:47.72	24.39	7.52	-52.8	-55.4	14.0	0.00e+00	0	23	0	119537664	72	4679
2026-01-08 23:44:48.72	24.43	7.59	-52.9	-55.6	13.9	0.00e+00	0	23	0	120586240	72	4791
2026-01-08 23:44:49.72	24.48	7.67	-52.8	-55.5	14.0	0.00e+00	0	23	0	122683392	72	4747
2026-01-08 23:44:50.71	24.52	7.74	-52.9	-55.6	13.9	0.00e+00	0	23	0	124780544	72	4800
2026-01-08 23:44:51.70	24.57	7.82	-52.9	-55.6	13.9	0.00e+00	0	23	0	126877696	72	4772
2026-01-08 23:44:52.70	24.61	7.90	-52.9	-55.6	13.9	0.00e+00	0	23	0	128974848	72	4766
2026-01-08 23:44:53.69	24.66	7.97	-52.9	-55.6	13.9	0.00e+00	0	23	0	130023424	72	4770
2026-01-08 23:44:54.68	24.71	8.05	-53.0	-55.7	13.9	0.00e+00	0	23	0	132120576	72	4831
2026-01-08 23:44:55.68	24.75	8.12	-52.9	-55.6	13.9	0.00e+00	0	23	0	134217728	72	4767
2026-01-08 23:44:56.68	24.80	8.20	-52.9	-55.6	13.9	0.00e+00	0	23	0	136314880	72	4785
2026-01-08 23:44:57.68	24.85	8.28	-53.0	-55.7	13.9	0.00e+00	0	23	0	137363456	72	4830
2026-01-08 23:44:58.69	24.89	8.36	-53.0	-55.8	13.8	0.00e+00	0	24	0	139460608	72	4880
2026-01-08 23:44:59.68	24.94	8.44	-53.1	-55.8	13.8	0.00e+00	0	23	0	141557760	72	4894
2026-01-08 23:45:00.69	24.99	8.51	-53.0	-55.6	13.9	0.00e+00	0	23	0	143654912	72	4804
2026-01-08 23:45:01.69	25.04	8.59	-53.0	-55.7	13.9	0.00e+00	0	24	0	145752064	72	4855
2026-01-08 23:45:02.68	25.09	8.67	-52.9	-55.6	13.9	0.00e+00	0	23	0	146800640	72	4785
2026-01-08 23:45:03.69	25.14	8.75	-53.0	-55.7	13.9	0.00e+00	0	23	0	148897792	72	4847
2026-01-08 23:45:04.69	25.18	8.83	-52.9	-55.5	14.0	0.00e+00	0	23	0	150994944	72	4740
2026-01-08 23:45:05.69	25.23	8.91	-52.9	-55.6	13.9	0.00e+00	0	23	0	153092096	72	4788
2026-01-08 23:45:06.70	25.28	8.99	-53.1	-55.8	13.8	0.00e+00	0	23	0	155189248	72	4899
2026-01-08 23:45:07.70	25.33	9.07	-53.0	-55.6	13.9	0.00e+00	0	23	0	156237824	72	4796
2026-01-08 23:45:08.69	25.38	9.15	-53.1	-55.8	13.8	0.00e+00	0	24	0	158334976	72	4915
2026-01-08 23:45:09.69	25.43	9.23	-53.1	-55.8	13.8	0.00e+00	0	23	0	160432128	72	4877
2026-01-08 23:45:10.69	25.48	9.31	-53.0	-55.6	13.9	0.00e+00	0	24	0	162529280	72	4808
2026-01-08 23:45:11.69	25.53	9.39	-53.0	-55.7	13.9	0.00e+00	0	24	0	164626432	72	4821
2026-01-08 23:45:12.69	25.58	9.47	-53.0	-55.7	13.9	0.00e+00	0	24	0	165675008	72	4856
2026-01-08 23:45:13.69	25.64	9.55	-53.1	-55.8	13.9	0.00e+00	0	23	0	167772160	72	4880
2026-01-08 23:45:14.68	25.69	9.63	-52.9	-55.5	14.0	0.00e+00	0	24	0	169869312	72	4728
2026-01-08 23:45:15.68	25.74	9.71	-52.9	-55.5	14.0	0.00e+00	0	24	0	171966464	72	4743
2026-01-08 23:45:16.68	25.79	9.80	-53.0	-55.6	14.0	0.00e+00	0	24	0	173015040	72	4809
2026-01-08 23:45:17.68	25.84	9.88	-52.8	-55.4	14.1	0.00e+00	0	23	0	175112192	72	4654
2026-01-08 23:45:18.68	25.89	9.96	-52.8	-55.3	14.1	0.00e+00	0	24	0	177209344	72	4612
2026-01-08 23:45:19.68	25.95	10.04	-52.7	-55.2	14.2	0.00e+00	0	23	0	179306496	72	4556
2026-01-08 23:45:20.68	26.00	10.13	-52.6	-55.0	14.2	0.00e+00	0	24	0	181403648	71	4739
2026-01-08 23:45:21.69	26.05	10.21	-52.6	-55.1	14.1	0.00e+00	0	24	0	182452224	71	4793
2026-01-08 23:45:22.68	26.11	10.29	-52.6	-55.1	14.1	0.00e+00	0	24	0	184549376	71	4778
2026-01-08 23:45:23.68	26.16	10.38	-52.6	-55.1	14.1	0.00e+00	0	24	0	186646528	71	4769
2026-01-08 23:45:24.68	26.22	10.46	-52.6	-55.0	14.2	0.00e+00	0	24	0	188743680	71	4750
2026-01-08 23:45:25.69	26.27	10.55	-52.6	-55.0	14.2	0.00e+00	0	24	0	190840832	71	4730
2026-01-08 23:45:26.68	26.32	10.63	-52.6	-55.0	14.2	0.00e+00	0	23	0	191889408	71	4749
2026-01-08 23:45:27.69	26.38	10.71	-52.4	-54.8	14.3	0.00e+00	0	23	0	193986560	71	4607
2026-01-08 23:45:28.69	26.43	10.80	-52.6	-55.0	14.3	0.00e+00	0	24	0	196083712	71	4721
2026-01-08 23:45:29.69	26.49	10.89	-52.6	-55.0	14.2	0.00e+00	0	24	0	198180864	71	4731
2026-01-08 23:45:30.69	26.55	10.97	-52.2	-54.5	14.5	0.00e+00	0	23	0	199229440	71	4471
2026-01-08 23:45:31.69	26.60	11.06	-52.4	-54.7	14.4	0.00e+00	0	24	0	201326592	71	4589
2026-01-08 23:45:32.69	26.66	11.14	-52.4	-54.7	14.4	0.00e+00	0	24	0	203423744	71	4567
2026-01-08 23:45:33.69	26.72	11.23	-52.2	-54.5	14.5	0.00e+00	0	24	0	205520896	71	4444
2026-01-08 23:45:34.69	26.77	11.32	-52.3	-54.6	14.5	0.00e+00	0	24	0	207618048	71	4513
2026-01-08 23:45:35.69	26.83	11.40	-52.2	-54.5	14.5	0.00e+00	0	24	0	208666624	71	4488
2026-01-08 23:45:36.69	26.89	11.49	-52.1	-54.4	14.4	0.00e+00	0	24	0	210763776	70	4667
2026-01-08 23:45:37.68	26.95	11.58	-52.1	-54.3	14.4	0.00e+00	0	24	0	212860928	70	4649
2026-01-08 23:45:38.69	27.00	11.67	-52.0	-54.2	14.5	0.00e+00	0	24	0	214958080	70	4557
2026-01-08 23:45:39.68	27.06	11.75	-52.0	-54.2	14.5	0.00e+00	0	24	0	217055232	70	4561
2026-01-08 23:45:40.69	27.12	11.84	-51.9	-54.1	14.6	0.00e+00	0	24	0	218103808	70	4531
2026-01-08 23:45:41.68	27.18	11.93	-51.9	-54.1	14.6	0.00e+00	0	23	0	220200960	70	4543
2026-01-08 23:45:42.68	27.24	12.02	-51.9	-54.1	14.6	0.00e+00	0	24	0	222298112	70	4525
2026-01-08 23:45:43.68	27.30	12.11	-51.8	-53.9	14.7	0.00e+00	0	24	0	224395264	70	4406
2026-01-08 23:45:44.68	27.36	12.20	-51.9	-54.0	14.6	0.00e+00	0	24	0	226492416	70	4479
2026-01-08 23:45:45.67	27.42	12.29	-51.7	-53.8	14.8	0.00e+00	0	24	0	227540992	70	4372
2026-01-08 23:45:46.67	27.48	12.38	-51.9	-54.0	14.7	0.00e+00	0	24	0	229638144	70	4474
2026-01-08 23:45:47.67	27.54	12.47	-51.6	-53.6	14.7	0.00e+00	0	24	0	231735296	69	4539
2026-01-08 23:45:48.66	27.60	12.56	-51.5	-53.5	14.8	0.00e+00	0	24	0	233832448	69	4461
2026-01-08 23:45:49.66	27.67	12.65	-51.4	-53.5	14.8	0.00e+00	0	24	0	234881024	69	4454
2026-01-08 23:45:50.66	27.73	12.74	-51.3	-53.3	14.9	0.00e+00	0	24	0	236978176	69	4370
2026-01-08 23:45:51.66	27.79	12.83	-51.3	-53.3	14.9	0.00e+00	0	24	0	239075328	69	4374
2026-01-08 23:45:52.65	27.85	12.93	-51.3	-53.3	14.9	0.00e+00	0	24	0	241172480	69	4347
2026-01-08 23:45:53.65	27.92	13.02	-51.4	-53.3	14.9	0.00e+00	0	24	0	243269632	69	4386
2026-01-08 23:45:54.65	27.98	13.11	-51.3	-53.2	14.9	0.00e+00	0	24	0	244318208	69	4325
2026-01-08 23:45:55.65	28.05	13.20	-51.3	-53.2	14.9	0.00e+00	0	24	0	246415360	69	4324
2026-01-08 23:45:56.65	28.11	13.30	-51.2	-53.1	14.8	0.00e+00	0	24	0	248512512	68	4513
2026-01-08 23:45:57.66	28.18	13.39	-51.3	-53.2	14.7	0.00e+00	0	24	0	250609664	68	4593
2026-01-08 23:45:58.66	28.24	13.49	-51.1	-53.0	14.9	0.00e+00	0	24	0	252706816	68	4474
2026-01-08 23:45:59.67	28.31	13.58	-51.1	-53.0	14.9	0.00e+00	0	24	0	253755392	68	4461
2026-01-08 23:46:00.66	28.37	13.68	-51.1	-53.0	14.8	0.00e+00	0	24	0	255852544	68	4489
2026-01-08 23:46:01.66	28.44	13.77	-51.1	-53.0	14.9	0.00e+00	0	24	0	257949696	68	4485
2026-01-08 23:46:02.66	28.51	13.87	-51.1	-53.0	14.9	0.00e+00	0	24	0	260046848	68	4453
2026-01-08 23:46:03.66	28.57	13.96	-51.2	-53.2	14.8	0.00e+00	0	24	0	261095424	68	4569
2026-01-08 23:46:04.65	28.64	14.06	-51.2	-53.1	14.8	0.00e+00	0	24	0	263192576	68	4509
2026-01-08 23:46:05.64	28.71	14.15	-51.3	-53.3	14.7	0.00e+00	0	24	0	265289728	68	4629
2026-01-08 23:46:06.65	28.78	14.25	-51.4	-53.4	14.7	0.00e+00	0	24	0	267386880	68	4655
2026-01-08 23:46:07.65	28.85	14.35	-51.1	-53.1	14.9	0.00e+00	0	24	0	269484032	68	4500
2026-01-08 23:46:08.65	28.92	14.45	-51.3	-53.3	14.7	0.00e+00	0	24	0	270532608	68	4616
2026-01-08 23:46:09.64	28.99	14.54	-51.1	-53.0	14.9	0.00e+00	0	24	0	272629760	68	4462
2026-01-08 23:46:10.65	29.06	14.64	-51.1	-53.0	14.9	0.00e+00	0	24	0	274726912	68	4448
2026-01-08 23:46:11.65	29.13	14.74	-51.1	-53.0	14.9	0.00e+00	0	24	0	276824064	68	4454
2026-01-08 23:46:12.65	29.20	14.84	-51.1	-53.0	14.9	0.00e+00	0	24	0	278921216	68	4452
2026-01-08 23:46:13.65	29.27	14.94	-51.0	-52.9	14.9	0.00e+00	0	24	0	279969792	68	4400
2026-01-08 23:46:14.64	29.34	15.04	-50.9	-52.8	15.0	0.00e+00	0	24	0	282066944	68	4347
2026-01-08 23:46:15.64	29.41	15.14	-51.0	-52.8	15.0	0.00e+00	0	24	0	284164096	68	4379
2026-01-08 23:46:16.64	29.49	15.24	-51.0	-52.8	14.9	0.00e+00	0	24	0	286261248	68	4382
2026-01-08 23:46:17.65	29.56	15.34	-50.9	-52.7	15.0	0.00e+00	0	24	0	287309824	68	4326
2026-01-08 23:46:18.64	29.63	15.44	-51.0	-52.9	14.9	0.00e+00	0	24	0	289406976	68	4414
2026-01-08 23:46:19.64	29.71	15.55	-50.9	-52.7	15.0	0.00e+00	0	24	0	291504128	68	4318
2026-01-08 23:46:20.64	29.78	15.65	-50.9	-52.8	15.0	0.00e+00	0	24	0	293601280	68	4366
2026-01-08 23:46:21.63	29.86	15.75	-50.9	-52.8	15.0	0.00e+00	0	24	0	295698432	68	4371
2026-01-08 23:46:22.64	29.94	15.85	-51.0	-52.9	14.9	0.00e+00	0	24	0	296747008	68	4397
2026-01-08 23:46:23.65	30.01	15.96	-51.0	-52.9	14.9	0.00e+00	0	24	0	298844160	68	4421
2026-01-08 23:46:24.65	30.09	16.06	-51.2	-53.2	14.8	0.00e+00	0	24	0	300941312	68	4550
2026-01-08 23:46:25.65	30.17	16.17	-51.0	-52.9	14.9	0.00e+00	0	24	0	303038464	68	4411
2026-01-08 23:46:26.65	30.24	16.27	-50.8	-52.7	15.0	0.00e+00	0	24	0	305135616	68	4316
2026-01-08 23:46:27.65	30.32	16.37	-50.9	-52.7	15.0	0.00e+00	0	24	0	306184192	68	4334
2026-01-08 23:46:28.65	30.40	16.48	-50.8	-52.6	15.1	0.00e+00	0	24	0	308281344	68	4281
2026-01-08 23:46:29.64	30.48	16.58	-50.9	-52.8	15.0	0.00e+00	0	24	0	310378496	68	4367
2026-01-08 23:46:30.63	30.56	16.69	-50.8	-52.7	15.0	0.00e+00	0	24	0	312475648	68	4319
2026-01-08 23:46:31.63	30.64	16.80	-50.8	-52.7	15.0	0.00e+00	0	24	0	313524224	68	4306
2026-01-08 23:46:32.63	30.72	16.90	-50.7	-52.6	15.1	0.00e+00	0	24	0	315621376	68	4249
2026-01-08 23:46:33.63	30.80	17.01	-50.5	-52.4	15.0	0.00e+00	0	24	0	317718528	67	4399
2026-01-08 23:46:34.63	30.88	17.12	-50.6	-52.5	14.9	0.00e+00	0	24	0	319815680	67	4462
2026-01-08 23:46:35.63	30.97	17.23	-50.7	-52.6	14.9	0.00e+00	0	24	0	321912832	67	4512
2026-01-08 23:46:36.63	31.05	17.34	-50.6	-52.5	15.0	0.00e+00	0	24	0	322961408	67	4445
2026-01-08 23:46:37.63	31.13	17.44	-50.7	-52.6	14.9	0.00e+00	0	24	0	325058560	67	4536
2026-01-08 23:46:38.63	31.22	17.55	-50.6	-52.4	15.0	0.00e+00	0	24	0	327155712	67	4441
2026-01-08 23:46:39.63	31.30	17.66	-50.6	-52.4	15.0	0.00e+00	0	24	0	329252864	67	4425
2026-01-08 23:46:40.62	31.39	17.77	-50.6	-52.4	15.0	0.00e+00	0	24	0	331350016	67	4423
2026-01-08 23:46:41.62	31.47	17.88	-50.5	-52.4	15.0	0.00e+00	0	24	0	332398592	67	4405
2026-01-08 23:46:42.62	31.56	18.00	-50.6	-52.5	15.0	0.00e+00	0	24	0	334495744	67	4463
2026-01-08 23:46:43.62	31.65	18.11	-50.6	-52.5	15.0	0.00e+00	0	24	0	336592896	67	4448
2026-01-08 23:46:44.62	31.74	18.22	-50.6	-52.4	15.0	0.00e+00	0	24	0	338690048	67	4431
2026-01-08 23:46:45.62	31.82	18.33	-50.5	-52.3	15.0	0.00e+00	0	24	0	340787200	67	4362
2026-01-08 23:46:46.61	31.91	18.44	-50.4	-52.3	15.1	0.00e+00	0	24	0	341835776	67	4342
2026-01-08 23:46:47.61	32.00	18.56	-50.4	-52.2	15.1	0.00e+00	0	24	0	343932928	67	4320
2026-01-08 23:46:48.61	32.09	18.67	-50.4	-52.2	15.1	0.00e+00	0	24	0	346030080	67	4326
2026-01-08 23:46:49.60	32.18	18.79	-50.5	-52.3	15.0	0.00e+00	0	24	0	348127232	67	4374
2026-01-08 23:46:50.59	32.27	18.90	-50.4	-52.3	15.1	0.00e+00	0	24	0	349175808	67	4342
2026-01-08 23:46:51.58	32.36	19.01	-50.4	-52.2	15.1	0.00e+00	0	24	0	351272960	67	4311
2026-01-08 23:46:52.58	32.46	19.13	-50.4	-52.3	15.1	0.00e+00	0	24	0	353370112	67	4366
2026-01-08 23:46:53.58	32.55	19.25	-50.5	-52.4	15.0	0.00e+00	0	24	0	355467264	67	4395
2026-01-08 23:46:54.58	32.65	19.36	-50.4	-52.3	15.0	0.00e+00	0	24	0	357564416	67	4341
2026-01-08 23:46:55.57	32.74	19.48	-50.4	-52.2	15.0	0.00e+00	0	24	0	358612992	67	4334
2026-01-08 23:46:56.57	32.84	19.60	-50.5	-52.3	15.0	0.00e+00	0	24	0	360710144	67	4387
2026-01-08 23:46:57.58	32.93	19.72	-50.7	-52.6	14.9	0.00e+00	0	24	0	362807296	67	4528
2026-01-08 23:46:58.57	33.03	19.83	-50.6	-52.6	14.9	0.00e+00	0	24	0	364904448	67	4498
2026-01-08 23:46:59.58	33.13	19.95	-50.8	-52.8	14.8	0.00e+00	0	24	0	365953024	67	4624
2026-01-08 23:47:00.58	33.23	20.07	-50.6	-52.6	14.9	0.00e+00	0	24	0	368050176	67	4516
2026-01-08 23:47:01.58	33.33	20.19	-50.8	-52.8	14.8	0.00e+00	0	24	0	370147328	67	4604
2026-01-08 23:47:02.58	33.43	20.32	-50.8	-52.8	14.8	0.00e+00	0	24	0	372244480	67	4600
2026-01-08 23:47:03.58	33.53	20.44	-50.9	-52.9	14.8	0.00e+00	0	24	0	374341632	67	4688
2026-01-08 23:47:04.58	33.63	20.56	-50.6	-52.5	14.9	0.00e+00	0	24	0	375390208	67	4480
2026-01-08 23:47:05.58	33.73	20.68	-50.5	-52.4	15.0	0.00e+00	0	24	0	377487360	67	4418
2026-01-08 23:47:06.57	33.83	20.80	-50.7	-52.6	14.9	0.00e+00	0	24	0	379584512	67	4533
2026-01-08 23:47:07.58	33.94	20.93	-50.5	-52.4	15.0	0.00e+00	0	24	0	381681664	67	4412
2026-01-08 23:47:08.58	34.04	21.05	-50.5	-52.4	15.0	0.00e+00	0	24	0	383778816	67	4430
2026-01-08 23:47:09.57	34.15	21.17	-50.6	-52.6	14.9	0.00e+00	0	24	0	384827392	67	4510
2026-01-08 23:47:10.57	34.25	21.30	-50.6	-52.5	15.0	0.00e+00	0	24	0	386924544	67	4482
2026-01-08 23:47:11.57	34.36	21.42	-50.7	-52.6	14.9	0.00e+00	0	24	0	389021696	67	4527
2026-01-08 23:47:12.57	34.47	21.55	-50.5	-52.4	15.0	0.00e+00	0	24	0	391118848	67	4417
2026-01-08 23:47:13.58	34.58	21.68	-50.5	-52.3	15.1	0.00e+00	0	24	0	392167424	67	4358
2026-01-08 23:47:14.57	34.69	21.80	-50.4	-52.3	15.1	0.00e+00	0	24	0	394264576	67	4350
2026-01-08 23:47:15.57	34.80	21.93	-50.5	-52.4	15.0	0.00e+00	0	24	0	396361728	67	4417
2026-01-08 23:47:16.58	34.91	22.06	-50.3	-52.1	15.2	0.00e+00	0	24	0	398458880	67	4266
2026-01-08 23:47:17.58	35.02	22.19	-50.4	-52.3	15.1	0.00e+00	0	24	0	400556032	67	4359
2026-01-08 23:47:18.58	35.14	22.32	-50.5	-52.4	15.0	0.00e+00	0	24	0	401604608	67	4416
2026-01-08 23:47:19.58	35.25	22.45	-50.5	-52.4	15.0	0.00e+00	0	24	0	403701760	67	4424
2026-01-08 23:47:20.58	35.37	22.58	-50.8	-52.8	14.9	0.00e+00	0	24	0	405798912	67	4620
2026-01-08 23:47:21.58	35.48	22.71	-50.6	-52.6	14.9	0.00e+00	0	24	0	407896064	67	4533
2026-01-08 23:47:22.59	35.60	22.84	-50.7	-52.6	14.9	0.00e+00	0	24	0	409993216	67	4545
2026-01-08 23:47:23.59	35.72	22.97	-50.8	-52.8	14.8	0.00e+00	0	24	0	411041792	67	4635
2026-01-08 23:47:24.59	35.84	23.11	-50.7	-52.7	14.9	0.00e+00	0	24	0	413138944	67	4585
2026-01-08 23:47:25.59	35.96	23.24	-50.8	-52.8	14.8	0.00e+00	0	24	0	415236096	67	4636
2026-01-08 23:47:26.59	36.08	23.37	-50.5	-52.4	14.9	0.00e+00	0	24	0	417333248	67	4437
2026-01-08 23:47:27.59	36.20	23.51	-50.8	-52.8	14.8	0.00e+00	0	24	0	419430400	67	4601
2026-01-08 23:47:28.59	36.32	23.64	-50.6	-52.6	14.9	0.00e+00	0	24	0	420478976	67	4517
2026-01-08 23:47:29.59	36.45	23.78	-50.5	-52.3	15.1	0.00e+00	0	24	0	422576128	67	4390
2026-01-08 23:47:30.60	36.57	23.92	-50.6	-52.6	15.0	0.00e+00	0	24	0	424673280	67	4494
2026-01-08 23:47:31.59	36.70	24.05	-50.6	-52.6	14.9	0.00e+00	0	24	0	426770432	67	4504
2026-01-08 23:47:32.60	36.83	24.19	-50.6	-52.6	15.0	0.00e+00	0	24	0	427819008	67	4494
2026-01-08 23:47:33.60	36.96	24.33	-50.6	-52.5	14.9	0.00e+00	0	24	0	429916160	67	4492
2026-01-08 23:47:34.60	37.08	24.47	-50.9	-52.9	14.7	0.00e+00	0	24	0	432013312	67	4693
2026-01-08 23:47:35.60	37.21	24.60	-50.7	-52.7	14.9	0.00e+00	0	24	0	434110464	67	4559
2026-01-08 23:47:36.59	37.34	24.74	-50.7	-52.7	14.9	0.00e+00	0	24	0	436207616	67	4564
2026-01-08 23:47:37.60	37.48	24.88	-50.8	-52.8	14.8	0.00e+00	0	24	0	437256192	67	4638
2026-01-08 23:47:38.60	37.61	25.02	-50.8	-52.8	14.8	0.00e+00	0	24	0	439353344	67	4641
2026-01-08 23:47:39.60	37.75	25.17	-50.8	-52.8	14.8	0.00e+00	0	24	0	441450496	67	4641
2026-01-08 23:47:40.60	37.88	25.31	-50.7	-52.7	14.9	0.00e+00	0	24	0	443547648	67	4547
2026-01-08 23:47:41.60	38.02	25.45	-50.8	-52.8	14.8	0.00e+00	0	24	0	445644800	67	4636
2026-01-08 23:47:42.59	38.16	25.59	-50.9	-52.9	14.7	0.00e+00	0	24	0	446693376	67	4678
2026-01-08 23:47:43.60	38.30	25.74	-50.8	-52.8	14.8	0.00e+00	0	24	0	448790528	67	4638
2026-01-08 23:47:44.60	38.44	25.88	-50.8	-52.8	14.8	0.00e+00	0	24	0	450887680	67	4642
2026-01-08 23:47:45.60	38.58	26.03	-50.8	-52.9	14.8	0.00e+00	0	24	0	452984832	67	4654
2026-01-08 23:47:46.60	38.73	26.17	-50.9	-52.9	14.8	0.00e+00	0	24	0	455081984	67	4694
2026-01-08 23:47:47.60	38.87	26.32	-50.8	-52.8	14.8	0.00e+00	0	24	0	456130560	67	4630
2026-01-08 23:47:48.60	39.02	26.46	-51.0	-53.0	14.7	0.00e+00	0	24	0	458227712	67	4731
2026-01-08 23:47:49.59	39.16	26.61	-50.7	-52.7	14.9	0.00e+00	0	24	0	460324864	67	4549
2026-01-08 23:47:50.59	39.31	26.76	-50.9	-53.0	14.7	0.00e+00	0	24	0	462422016	67	4710
2026-01-08 23:47:51.59	39.46	26.91	-51.1	-53.1	14.7	0.00e+00	0	24	0	463470592	67	4791
2026-01-08 23:47:52.58	39.61	27.05	-51.0	-53.1	14.7	0.00e+00	0	24	0	465567744	67	4781
2026-01-08 23:47:53.58	39.76	27.20	-51.3	-53.4	14.6	0.00e+00	0	24	0	467664896	67	4949
2026-01-08 23:47:54.57	39.92	27.35	-51.5	-53.6	14.6	0.00e+00	0	24	0	469762048	68	4788
2026-01-08 23:47:55.57	40.07	27.50	-51.6	-53.7	14.5	0.00e+00	0	24	0	471859200	68	4865
2026-01-08 23:47:56.58	40.23	27.66	-51.7	-54.0	14.4	0.00e+00	0	24	0	472907776	68	4991
2026-01-08 23:47:57.57	40.39	27.81	-51.8	-54.0	14.4	0.00e+00	0	24	0	475004928	68	5040
2026-01-08 23:47:58.57	40.55	27.96	-51.8	-54.1	14.4	0.00e+00	0	24	0	477102080	68	5056
2026-01-08 23:47:59.56	40.71	28.11	-52.0	-54.2	14.4	0.00e+00	0	24	0	479199232	69	4861
2026-01-08 23:48:00.57	40.87	28.27	-52.3	-54.7	14.2	0.00e+00	0	24	0	481296384	69	5159
2026-01-08 23:48:01.57	41.04	28.42	-52.3	-54.7	14.2	0.00e+00	0	24	0	482344960	69	5138
2026-01-08 23:48:02.57	41.20	28.58	-52.3	-54.7	14.2	0.00e+00	0	24	0	484442112	69	5140
2026-01-08 23:48:03.57	41.37	28.74	-52.5	-54.9	14.2	0.00e+00	0	24	0	486539264	70	4970
2026-01-08 23:48:04.57	41.54	28.89	-52.5	-54.9	14.2	0.00e+00	0	24	0	488636416	70	4962
2026-01-08 23:48:05.57	41.71	29.05	-52.5	-54.9	14.2	0.00e+00	0	24	0	489684992	70	4972
2026-01-08 23:48:06.57	41.88	29.21	-52.4	-54.9	14.3	0.00e+00	0	24	0	491782144	70	4936
2026-01-08 23:48:07.57	42.06	29.37	-52.6	-55.1	14.1	0.00e+00	0	24	0	493879296	70	5070
2026-01-08 23:48:08.57	42.23	29.53	-52.7	-55.2	14.0	0.00e+00	0	24	0	495976448	70	5138
2026-01-08 23:48:09.58	42.41	29.69	-52.9	-55.5	14.1	0.00e+00	0	24	0	498073600	71	5001
2026-01-08 23:48:10.57	42.59	29.85	-53.0	-55.6	13.9	0.00e+00	0	24	0	499122176	71	5081
2026-01-08 23:48:11.57	42.77	30.01	-53.1	-55.8	13.9	0.00e+00	0	24	0	501219328	71	5171
2026-01-08 23:48:12.57	42.95	30.17	-53.3	-56.1	13.7	0.00e+00	0	24	0	503316480	71	5368
2026-01-08 23:48:13.57	43.14	30.33	-53.0	-55.4	14.3	0.00e+00	0	24	0	505413632	72	4703
2026-01-08 23:48:14.56	43.32	30.49	-52.8	-55.2	14.4	0.00e+00	0	24	0	506462208	72	4577
2026-01-08 23:48:15.57	43.51	30.66	-52.8	-55.1	14.4	0.00e+00	0	24	0	508559360	72	4527
2026-01-08 23:48:16.57	43.70	30.82	-52.7	-55.1	14.5	0.00e+00	0	24	0	510656512	72	4497
2026-01-08 23:48:17.57	43.89	30.98	-53.0	-55.5	14.2	0.00e+00	0	24	0	512753664	72	4708
2026-01-08 23:48:18.57	44.09	31.15	-53.2	-55.8	14.1	0.00e+00	0	24	0	514850816	72	4911
2026-01-08 23:48:19.56	44.28	31.31	-53.4	-56.2	13.8	0.00e+00	0	24	0	515899392	72	5121
2026-01-08 23:48:20.57	44.48	31.48	-53.2	-55.9	13.9	0.00e+00	0	24	0	517996544	72	4946
2026-01-08 23:48:21.57	44.68	31.65	-53.2	-55.8	14.0	0.00e+00	0	24	0	520093696	72	4884
2026-01-08 23:48:22.57	44.88	31.82	-52.9	-55.4	14.2	0.00e+00	0	24	0	522190848	72	4699
2026-01-08 23:48:23.58	45.09	31.99	-52.8	-55.2	14.4	0.00e+00	0	24	0	524288000	72	4568
2026-01-08 23:48:24.57	45.29	32.15	-52.6	-54.9	14.4	0.00e+00	0	24	0	525336576	71	4662
2026-01-08 23:48:25.57	45.50	32.32	-52.5	-54.8	14.5	0.00e+00	0	24	0	527433728	71	4610
2026-01-08 23:48:26.57	45.71	32.49	-52.1	-54.3	14.6	0.00e+00	0	24	0	529530880	70	4633
2026-01-08 23:48:27.58	45.92	32.66	-52.2	-54.4	14.5	0.00e+00	0	24	0	531628032	70	4666
2026-01-08 23:48:28.58	46.14	32.84	-52.2	-54.5	14.4	0.00e+00	0	24	0	533725184	70	4742
2026-01-08 23:48:29.58	46.35	33.01	-52.4	-54.8	14.3	0.00e+00	0	24	0	534773760	70	4913
2026-01-08 23:48:30.59	46.58	33.18	-52.5	-54.9	14.2	0.00e+00	0	24	0	536870912	70	4953
2026-01-08 23:48:31.59	46.80	33.35	-52.6	-55.1	14.2	0.00e+00	0	24	0	538968064	70	5060
2026-01-08 23:48:32.59	47.02	33.53	-52.8	-55.5	14.0	0.00e+00	0	24	0	541065216	70	5301
2026-01-08 23:48:33.60	47.25	33.70	-52.4	-54.7	14.4	0.00e+00	0	24	0	543162368	70	4859
2026-01-08 23:48:34.60	47.48	33.88	-52.2	-54.5	14.5	0.00e+00	0	24	0	544210944	70	4738
2026-01-08 23:48:35.60	47.71	34.05	-52.2	-54.4	14.5	0.00e+00	0	24	0	546308096	70	4691
2026-01-08 23:48:36.60	47.94	34.23	-52.0	-54.2	14.7	0.00e+00	0	24	0	548405248	70	4557
2026-01-08 23:48:37.60	48.18	34.40	-51.5	-53.6	14.8	0.00e+00	0	24	0	550502400	69	4518
2026-01-08 23:48:38.60	48.41	34.58	-51.6	-53.7	14.7	0.00e+00	0	24	0	551550976	69	4590
2026-01-08 23:48:39.60	48.65	34.75	-51.4	-53.5	14.9	0.00e+00	0	24	0	553648128	69	4456
2026-01-08 23:48:40.60	48.90	34.93	-51.4	-53.5	14.8	0.00e+00	0	24	0	555745280	69	4469
2026-01-08 23:48:41.60	49.14	35.11	-51.9	-54.1	14.5	0.00e+00	0	24	0	557842432	69	4804
2026-01-08 23:48:42.59	49.39	35.28	-52.1	-54.5	14.3	0.00e+00	0	24	0	559939584	69	4986
2026-01-08 23:48:43.59	49.64	35.46	-52.4	-55.0	14.2	0.00e+00	0	24	0	560988160	70	4988
2026-01-08 23:48:44.59	49.89	35.64	-52.3	-54.8	14.2	0.00e+00	0	24	0	563085312	70	4921
2026-01-08 23:48:45.59	50.15	35.82	-52.1	-54.7	14.3	0.00e+00	0	24	0	565182464	70	4846
2026-01-08 23:48:46.58	50.41	36.00	-52.1	-54.7	14.4	0.00e+00	0	24	0	567279616	70	4817
2026-01-08 23:48:47.58	50.67	36.18	-51.9	-54.3	14.6	0.00e+00	0	24	0	569376768	70	4617
2026-01-08 23:48:48.57	50.93	36.35	-51.8	-54.3	14.4	0.00e+00	0	24	0	570425344	69	4890
2026-01-08 23:48:49.57	51.20	36.53	-51.9	-54.3	14.4	0.00e+00	0	24	0	572522496	69	4911
2026-01-08 23:48:50.57	51.47	36.72	-51.7	-54.1	14.6	0.00e+00	0	24	0	574619648	69	4761
2026-01-08 23:48:51.57	51.75	36.90	-51.7	-54.1	14.5	0.00e+00	0	24	0	576716800	69	4786
2026-01-08 23:48:52.57	52.02	37.08	-51.5	-53.9	14.6	0.00e+00	0	24	0	578813952	69	4674
2026-01-08 23:48:53.57	52.30	37.26	-51.4	-53.7	14.7	0.00e+00	0	24	0	579862528	69	4594
2026-01-08 23:48:54.57	52.58	37.44	-51.2	-53.6	14.6	0.00e+00	0	24	0	581959680	68	4770
2026-01-08 23:48:55.57	52.87	37.62	-50.9	-53.2	14.8	0.00e+00	0	24	0	584056832	68	4562
2026-01-08 23:48:56.56	53.16	37.80	-50.8	-53.0	14.7	0.00e+00	0	24	0	586153984	67	4733
2026-01-08 23:48:57.55	53.45	37.98	-50.8	-53.0	14.7	0.00e+00	0	24	0	587202560	67	4739
2026-01-08 23:48:58.55	53.74	38.17	-50.6	-52.7	14.9	0.00e+00	0	24	0	589299712	67	4572
2026-01-08 23:48:59.54	54.04	38.35	-50.6	-52.6	14.9	0.00e+00	0	24	0	591396864	67	4534
2026-01-08 23:49:00.54	54.34	38.53	-50.1	-52.0	15.1	0.00e+00	0	24	0	593494016	66	4483
2026-01-08 23:49:01.54	54.65	38.71	-50.2	-52.2	15.0	0.00e+00	0	24	0	595591168	66	4555
2026-01-08 23:49:02.55	54.96	38.90	-50.1	-52.2	15.0	0.00e+00	0	24	0	596639744	66	4552
2026-01-08 23:49:03.54	55.27	39.08	-50.3	-52.4	14.8	0.00e+00	0	24	0	598736896	66	4685
2026-01-08 23:49:04.55	55.59	39.26	-50.5	-52.6	14.7	0.00e+00	0	24	0	600834048	66	4811
2026-01-08 23:49:05.54	55.90	39.45	-50.5	-52.6	14.8	0.00e+00	0	24	0	602931200	66	4775
2026-01-08 23:49:06.54	56.23	39.63	-50.4	-52.5	14.8	0.00e+00	0	24	0	603979776	66	4738
2026-01-08 23:49:07.54	56.55	39.81	-50.6	-52.8	14.7	0.00e+00	0	24	0	606076928	66	4879
2026-01-08 23:49:08.54	56.88	40.00	-50.6	-52.7	14.7	0.00e+00	0	24	0	608174080	66	4861
2026-01-08 23:49:09.54	57.22	40.18	-50.6	-52.8	14.7	0.00e+00	0	24	0	610271232	66	4900
2026-01-08 23:49:10.54	57.55	40.36	-50.7	-52.9	14.6	0.00e+00	0	24	0	612368384	66	4982
2026-01-08 23:49:11.53	57.89	40.54	-51.1	-53.4	14.5	0.00e+00	0	24	0	613416960	67	4941
2026-01-08 23:49:12.53	58.24	40.72	-50.8	-52.9	14.7	0.00e+00	0	24	0	615514112	67	4677
2026-01-08 23:49:13.53	58.59	40.91	-50.9	-53.1	14.7	0.00e+00	0	24	0	617611264	67	4796
2026-01-08 23:49:14.53	58.94	41.09	-51.0	-53.4	14.6	0.00e+00	0	24	0	619708416	67	4934
2026-01-08 23:49:15.53	59.30	41.27	-51.0	-53.3	14.6	0.00e+00	0	24	0	621805568	67	4874
2026-01-08 23:49:16.53	59.66	41.45	-51.1	-53.4	14.5	0.00e+00	0	24	0	622854144	67	4972
2026-01-08 23:49:17.54	60.03	41.64	-50.9	-53.2	14.7	0.00e+00	0	24	0	624951296	67	4840
2026-01-08 23:49:18.54	60.39	41.82	-50.5	-52.5	15.0	0.00e+00	0	24	0	627048448	67	4442
2026-01-08 23:49:19.54	60.77	42.00	-50.4	-52.4	15.0	0.00e+00	0	24	0	629145600	67	4401
2026-01-08 23:49:20.55	61.15	42.18	-50.3	-52.2	15.0	0.00e+00	0	24	0	631242752	66	4560
2026-01-08 23:49:21.54	61.53	42.36	-50.4	-52.3	14.9	0.00e+00	0	24	0	632291328	66	4651
2026-01-08 23:49:22.54	61.91	42.53	-50.7	-52.7	14.8	0.00e+00	0	24	0	634388480	66	4849
2026-01-08 23:49:23.54	62.30	42.71	-50.7	-52.8	14.7	0.00e+00	0	24	0	636485632	66	4874
2026-01-08 23:49:24.54	62.70	42.89	-50.5	-52.5	14.9	0.00e+00	0	24	0	638582784	66	4730
2026-01-08 23:49:25.53	63.09	43.07	-49.9	-51.8	15.2	0.00e+00	0	24	0	639631360	66	4363
2026-01-08 23:49:26.52	63.49	43.24	-49.6	-51.4	15.2	0.00e+00	0	24	0	641728512	65	4395
2026-01-08 23:49:27.52	63.90	43.42	-50.0	-51.8	15.0	0.00e+00	0	24	0	643825664	65	4619
2026-01-08 23:49:28.52	64.31	43.59	-50.3	-52.2	14.8	0.00e+00	0	24	0	645922816	65	4834
2026-01-08 23:49:29.52	64.72	43.77	-50.6	-52.6	14.8	0.00e+00	0	24	0	648019968	66	4774
2026-01-08 23:49:30.52	65.14	43.94	-51.1	-53.2	14.7	0.00e+00	0	24	0	649068544	67	4823
2026-01-08 23:49:31.52	65.57	44.11	-51.6	-53.8	14.6	0.00e+00	0	24	0	651165696	68	4892
2026-01-08 23:49:32.51	66.00	44.28	-52.1	-54.4	14.4	0.00e+00	0	24	0	653262848	69	4959
2026-01-08 23:49:33.51	66.43	44.45	-51.7	-53.9	14.7	0.00e+00	0	24	0	655360000	69	4663
2026-01-08 23:49:34.51	66.87	44.62	-51.3	-53.4	14.9	0.00e+00	0	24	0	656408576	69	4406
2026-01-08 23:49:35.51	67.31	44.79	-51.1	-53.2	14.9	0.00e+00	0	24	0	658505728	68	4564
2026-01-08 23:49:36.51	67.76	44.95	-51.2	-53.4	14.8	0.00e+00	0	24	0	660602880	68	4660
2026-01-08 23:49:37.51	68.21	45.12	-51.7	-53.9	14.5	0.00e+00	0	24	0	662700032	68	4972
2026-01-08 23:49:38.52	68.67	45.29	-52.1	-54.5	14.4	0.00e+00	0	24	0	664797184	69	5017
2026-01-08 23:49:39.53	69.14	45.45	-52.1	-54.4	14.4	0.00e+00	0	24	0	665845760	69	4964
2026-01-08 23:49:40.53	69.61	45.61	-52.1	-54.5	14.3	0.00e+00	0	24	0	667942912	69	5037
2026-01-08 23:49:41.52	70.08	45.77	-51.7	-54.0	14.6	0.00e+00	0	24	0	670040064	69	4722
2026-01-08 23:49:42.52	70.55	45.93	-51.7	-54.0	14.6	0.00e+00	0	24	0	672137216	69	4712
2026-01-08 23:49:43.52	71.03	46.09	-51.6	-53.8	14.8	0.00e+00	0	24	0	674234368	69	4616
2026-01-08 23:49:44.53	71.52	46.25	-51.9	-54.1	14.5	0.00e+00	0	24	0	675282944	69	4813
2026-01-08 23:49:45.53	72.01	46.40	-52.2	-54.6	14.3	0.00e+00	0	24	0	677380096	69	5087
2026-01-08 23:49:46.52	72.51	46.55	-52.7	-55.4	14.0	0.00e+00	0	24	0	679477248	70	5242
2026-01-08 23:49:47.52	73.01	46.70	-52.7	-55.5	14.0	0.00e+00	0	24	0	681574400	70	5322
2026-01-08 23:49:48.52	73.51	46.85	-52.3	-54.7	14.4	0.00e+00	0	24	0	683671552	70	4846
2026-01-08 23:49:49.51	74.02	47.00	-51.9	-54.1	14.7	0.00e+00	0	24	0	684720128	70	4530
2026-01-08 23:49:50.51	74.53	47.14	-52.0	-54.2	14.6	0.00e+00	0	24	0	686817280	70	4589
2026-01-08 23:49:51.50	75.04	47.28	-52.3	-54.7	14.4	0.00e+00	0	24	0	688914432	70	4839
2026-01-08 23:49:52.50	75.57	47.42	-52.5	-54.9	14.3	0.00e+00	0	24	0	691011584	70	4979
2026-01-08 23:49:53.50	76.10	47.56	-52.4	-54.7	14.3	0.00e+00	0	24	0	692060160	70	4841
2026-01-08 23:49:54.50	76.63	47.70	-51.8	-53.9	14.8	0.00e+00	0	24	0	694157312	70	4430
2026-01-08 23:49:55.50	77.17	47.83	-52.1	-54.3	14.6	0.00e+00	0	24	0	696254464	70	4644
2026-01-08 23:49:56.49	77.70	47.96	-52.3	-54.6	14.4	0.00e+00	0	24	0	698351616	70	4795
2026-01-08 23:49:57.49	78.25	48.09	-52.2	-54.5	14.5	0.00e+00	0	24	0	700448768	70	4749
2026-01-08 23:49:58.49	78.80	48.22	-51.8	-53.8	14.9	0.00e+00	0	24	0	701497344	70	4375
2026-01-08 23:49:59.49	79.36	48.35	-51.2	-53.1	15.0	0.00e+00	0	24	0	703594496	69	4265
2026-01-08 23:50:00.48	79.91	48.47	-51.4	-53.3	15.0	0.00e+00	0	24	0	705691648	69	4390
2026-01-08 23:50:01.48	80.48	48.59	-51.1	-53.1	14.9	0.00e+00	0	24	0	707788800	68	4514
2026-01-08 23:50:02.47	81.04	48.70	-51.5	-53.6	14.7	0.00e+00	0	24	0	709885952	68	4782
2026-01-08 23:50:03.47	81.62	48.82	-51.9	-54.2	14.5	0.00e+00	0	24	0	710934528	69	4828
2026-01-08 23:50:04.46	82.19	48.93	-52.0	-54.4	14.5	0.00e+00	0	24	0	713031680	69	4937
2026-01-08 23:50:05.46	82.77	49.04	-51.8	-54.1	14.6	0.00e+00	0	24	0	715128832	69	4767
2026-01-08 23:50:06.45	83.35	49.15	-51.1	-53.1	14.9	0.00e+00	0	24	0	717225984	68	4527
2026-01-08 23:50:07.46	83.95	49.25	-50.9	-52.9	14.9	0.00e+00	0	24	0	718274560	68	4441
2026-01-08 23:50:08.46	84.54	49.35	-50.9	-52.9	15.0	0.00e+00	0	24	0	720371712	68	4435
2026-01-08 23:50:09.47	85.14	49.45	-51.2	-53.3	14.8	0.00e+00	0	24	0	722468864	68	4633
2026-01-08 23:50:10.47	85.74	49.54	-51.1	-53.1	14.9	0.00e+00	0	24	0	724566016	68	4535
2026-01-08 23:50:11.46	86.34	49.63	-50.5	-52.3	15.1	0.00e+00	0	24	0	726663168	67	4388
2026-01-08 23:50:12.46	86.95	49.72	-49.9	-51.6	15.2	0.00e+00	0	24	0	727711744	66	4290
2026-01-08 23:50:13.46	87.56	49.81	-49.4	-51.2	15.3	0.00e+00	0	24	0	729808896	65	4301
2026-01-08 23:50:14.46	88.18	49.89	-49.3	-50.9	15.2	0.00e+00	0	24	0	731906048	64	4433
2026-01-08 23:50:15.46	88.80	49.97	-48.8	-50.4	15.4	0.00e+00	0	24	0	734003200	64	4166
2026-01-08 23:50:16.46	89.42	50.04	-48.8	-50.4	15.3	0.00e+00	0	24	0	735051776	63	4412
2026-01-08 23:50:17.46	90.04	50.11	-49.6	-51.4	15.0	0.00e+00	0	24	0	737148928	64	4673
2026-01-08 23:50:18.46	90.67	50.18	-49.7	-51.5	15.0	0.00e+00	0	24	0	739246080	64	4748
2026-01-08 23:50:19.46	91.30	50.25	-50.0	-51.9	14.9	0.00e+00	0	24	0	741343232	65	4662
2026-01-08 23:50:20.46	91.93	50.31	-50.1	-52.0	14.8	0.00e+00	0	24	0	743440384	65	4757
2026-01-08 23:50:21.45	92.56	50.36	-50.3	-52.3	14.8	0.00e+00	0	24	0	744488960	65	4884
2026-01-08 23:50:22.46	93.21	50.42	-49.9	-51.8	15.0	0.00e+00	0	24	0	746586112	65	4599
2026-01-08 23:50:23.46	93.85	50.47	-50.4	-52.3	14.9	0.00e+00	0	24	0	748683264	66	4635
2026-01-08 23:50:24.46	94.49	50.52	-50.9	-53.1	14.5	0.00e+00	0	24	0	750780416	66	5097
2026-01-08 23:50:25.45	95.13	50.56	-51.4	-53.8	14.4	0.00e+00	0	24	0	752877568	67	5204
2026-01-08 23:50:26.44	95.77	50.60	-51.1	-53.3	14.8	0.00e+00	0	24	0	753926144	68	4640
2026-01-08 23:50:27.43	96.41	50.63	-51.0	-53.3	14.8	0.00e+00	0	24	0	756023296	68	4607
2026-01-08 23:50:28.43	97.06	50.66	-50.9	-53.1	14.9	0.00e+00	0	24	0	758120448	68	4502
2026-01-08 23:50:29.43	97.71	50.69	-50.4	-52.4	15.1	0.00e+00	0	24	0	760217600	67	4394
2026-01-08 23:50:30.43	98.36	50.72	-49.7	-51.4	15.3	0.00e+00	0	24	0	761266176	66	4191
2026-01-08 23:50:31.43	99.01	50.74	-49.6	-51.3	15.2	0.00e+00	0	24	0	763363328	65	4373
2026-01-08 23:50:32.43	99.66	50.75	-50.7	-52.7	14.8	0.00e+00	0	24	0	765460480	66	4857
2026-01-08 23:50:33.43	100.32	50.77	-51.8	-54.2	14.4	0.00e+00	0	24	0	767557632	68	5114
2026-01-08 23:50:34.43	100.97	50.77	-51.8	-54.2	14.5	0.00e+00	0	24	0	769654784	69	4832
2026-01-08 23:50:35.43	101.62	50.78	-50.7	-52.7	15.1	0.00e+00	0	24	0	770703360	68	4333
2026-01-08 23:50:36.43	102.28	50.78	-50.5	-52.5	15.1	0.00e+00	0	24	0	772800512	67	4449
2026-01-08 23:50:37.43	102.93	50.78	-50.9	-52.9	14.9	0.00e+00	0	24	0	774897664	67	4659
2026-01-08 23:50:38.42	103.58	50.77	-50.6	-52.6	15.0	0.00e+00	0	24	0	776994816	67	4498
2026-01-08 23:50:39.42	104.23	50.76	-49.5	-51.2	15.3	0.00e+00	0	24	0	779091968	65	4315
2026-01-08 23:50:40.42	104.89	50.75	-49.1	-50.7	15.4	0.00e+00	0	24	0	780140544	64	4298
2026-01-08 23:50:41.41	105.53	50.73	-49.3	-50.8	15.3	0.00e+00	0	24	0	782237696	64	4374
2026-01-08 23:50:42.41	106.19	50.71	-49.9	-51.6	14.9	0.00e+00	0	24	0	784334848	64	4775
2026-01-08 23:50:43.41	106.84	50.68	-50.0	-51.8	15.0	0.00e+00	0	24	0	786432000	65	4607
2026-01-08 23:50:44.41	107.49	50.65	-50.1	-51.9	15.0	0.00e+00	0	24	0	787480576	65	4675
2026-01-08 23:50:45.41	108.13	50.62	-50.6	-52.5	14.9	0.00e+00	0	24	0	789577728	66	4725
2026-01-08 23:50:46.41	108.78	50.58	-50.8	-52.8	14.9	0.00e+00	0	24	0	791674880	67	4618
2026-01-08 23:50:47.41	109.43	50.54	-50.7	-52.7	15.0	0.00e+00	0	24	0	793772032	67	4556
2026-01-08 23:50:48.42	110.08	50.50	-50.7	-52.6	14.9	0.00e+00	0	24	0	795869184	67	4521
2026-01-08 23:50:49.42	110.72	50.45	-50.6	-52.5	15.0	0.00e+00	0	24	0	796917760	67	4474
2026-01-08 23:50:50.43	111.36	50.40	-50.1	-51.9	15.1	0.00e+00	0	24	0	799014912	66	4414
2026-01-08 23:50:51.42	111.99	50.34	-50.0	-51.8	15.2	0.00e+00	0	24	0	801112064	66	4358
2026-01-08 23:50:52.42	112.63	50.28	-49.9	-51.6	15.3	0.00e+00	0	24	0	803209216	66	4281
2026-01-08 23:50:53.43	113.27	50.22	-50.1	-51.9	15.2	0.00e+00	0	24	0	805306368	66	4396
2026-01-08 23:50:54.42	113.89	50.16	-50.4	-52.3	14.9	0.00e+00	0	24	0	806354944	66	4617
2026-01-08 23:50:55.42	114.52	50.09	-50.2	-52.1	15.1	0.00e+00	0	24	0	808452096	66	4536
2026-01-08 23:50:56.41	115.14	50.01	-50.5	-52.5	14.9	0.00e+00	0	24	0	810549248	66	4724
2026-01-08 23:50:57.40	115.75	49.94	-52.2	-54.9	14.0	0.00e+00	0	24	0	812646400	69	5235
2026-01-08 23:50:58.40	116.37	49.86	-53.0	-56.2	13.6	0.00e+00	0	24	0	813694976	71	5437
2026-01-08 23:50:59.40	116.98	49.78	-52.4	-55.1	14.2	0.00e+00	0	24	0	815792128	71	4799
2026-01-08 23:51:00.40	117.60	49.69	-51.1	-53.7	14.7	0.00e+00	0	24	0	817889280	69	4553
2026-01-08 23:51:01.39	118.20	49.60	-51.3	-53.5	14.7	0.00e+00	0	24	0	819986432	68	4738
2026-01-08 23:51:02.39	118.80	49.51	-52.4	-55.2	14.0	0.00e+00	0	24	0	822083584	69	5407
2026-01-08 23:51:03.39	119.40	49.41	-53.1	-56.1	13.8	0.00e+00	0	24	0	823132160	71	5399
2026-01-08 23:51:04.39	120.00	49.31	-52.4	-55.1	14.3	0.00e+00	0	24	0	825229312	71	4770
2026-01-08 23:51:05.39	120.59	49.21	-52.6	-55.3	14.2	0.00e+00	0	24	0	827326464	71	4894
2026-01-08 23:51:06.40	121.19	49.11	-53.3	-56.4	13.5	0.00e+00	0	24	0	829423616	71	5565
2026-01-08 23:51:07.39	121.77	49.00	-54.4	-58.6	12.4	0.00e+00	0	24	0	831520768	74	6005
2026-01-08 23:51:08.40	122.35	48.89	-54.3	-58.2	12.5	1.50e-06	0	24	0	832569344	74	5746
2026-01-08 23:51:09.40	122.93	48.77	-53.2	-56.3	13.9	0.00e+00	0	24	0	834666496	73	4882
2026-01-08 23:51:10.41	123.51	48.66	-52.4	-55.1	14.3	0.00e+00	0	24	0	836763648	71	4768
2026-01-08 23:51:11.40	124.07	48.54	-52.4	-55.0	14.4	0.00e+00	0	24	0	838860800	71	4708
2026-01-08 23:51:12.40	124.63	48.42	-53.1	-56.0	13.8	0.00e+00	0	24	0	840957952	71	5322
2026-01-08 23:51:13.41	125.20	48.29	-53.5	-56.6	13.5	0.00e+00	0	24	0	842006528	72	5369
2026-01-08 23:51:14.41	125.75	48.17	-52.7	-55.5	14.2	0.00e+00	0	24	0	844103680	72	4707
2026-01-08 23:51:15.40	126.30	48.04	-51.6	-53.8	14.8	0.00e+00	0	24	0	846200832	69	4599
2026-01-08 23:51:16.40	126.85	47.91	-52.4	-54.9	14.1	0.00e+00	0	24	0	848297984	69	5263
2026-01-08 23:51:17.39	127.38	47.78	-53.1	-56.0	13.8	0.00e+00	0	24	0	849346560	71	5291
2026-01-08 23:51:18.40	127.92	47.64	-53.4	-56.6	13.5	0.00e+00	0	24	0	851443712	72	5355
2026-01-08 23:51:19.40	128.46	47.50	-52.9	-55.8	14.0	0.00e+00	0	24	0	853540864	72	4902
2026-01-08 23:51:20.39	128.98	47.36	-52.9	-55.7	13.9	0.00e+00	0	24	0	855638016	71	5159
2026-01-08 23:51:21.39	129.50	47.22	-53.9	-57.7	12.9	0.00e+00	0	24	0	857735168	73	5733
2026-01-08 23:51:22.39	130.02	47.08	-54.6	-59.2	12.0	1.50e-06	0	24	0	858783744	74	6453
2026-01-08 23:51:23.38	130.53	46.93	-54.6	-59.4	11.8	2.36e-05	0	24	0	860880896	74	6631
2026-01-08 23:51:24.38	131.04	46.78	-54.8	-59.5	11.9	7.60e-06	0	24	0	862978048	74	6710
2026-01-08 23:51:25.38	131.54	46.63	-54.4	-58.4	12.7	2.20e-06	0	24	0	865075200	74	5895
2026-01-08 23:51:26.39	132.04	46.48	-54.4	-58.6	12.5	0.00e+00	0	24	0	867172352	74	6005
2026-01-08 23:51:27.38	132.53	46.33	-54.6	-59.1	12.0	0.00e+00	0	24	0	868220928	74	6402
2026-01-08 23:51:28.38	133.02	46.17	-55.1	-60.5	11.1	1.06e-05	0	24	0	870318080	75	7066
2026-01-08 23:51:29.38	133.51	46.02	-54.9	-59.8	11.6	4.65e-05	0	24	0	872415232	75	6531
2026-01-08 23:51:30.38	133.99	45.86	-54.2	-58.4	12.5	1.50e-06	0	24	0	874512384	74	5915
2026-01-08 23:51:31.38	134.46	45.70	-54.8	-60.3	11.2	7.60e-06	0	24	0	875560960	74	7304
2026-01-08 23:51:32.38	134.93	45.54	-55.6	-63.4	8.9	4.44e-03	0	24	0	877658112	76	9304
2026-01-08 23:51:33.38	135.40	45.37	-55.1	-61.1	10.5	3.53e-03	0	24	0	879755264	76	7202
2026-01-08 23:51:34.38	135.86	45.21	-53.4	-57.2	13.1	3.00e-06	0	24	0	881852416	73	5416
2026-01-08 23:51:35.38	136.32	45.04	-53.0	-56.4	13.5	0.00e+00	0	24	0	883949568	72	5257
2026-01-08 23:51:36.38	136.77	44.88	-53.2	-56.7	13.4	0.00e+00	0	24	0	884998144	72	5442
2026-01-08 23:51:37.38	137.22	44.71	-53.6	-57.4	12.9	0.00e+00	0	24	0	887095296	72	5910
2026-01-08 23:51:38.38	137.66	44.54	-53.3	-57.0	13.2	0.00e+00	0	24	0	889192448	72	5621
2026-01-08 23:51:39.36	138.09	44.37	-52.8	-55.9	13.8	0.00e+00	0	24	0	891289600	72	4982
2026-01-08 23:51:40.36	138.52	44.20	-52.8	-56.0	13.7	0.00e+00	0	24	0	893386752	71	5290
2026-01-08 23:51:41.37	138.95	44.03	-52.2	-54.9	14.3	0.00e+00	0	24	0	894435328	71	4705
2026-01-08 23:51:42.36	139.37	43.86	-51.7	-54.1	14.7	0.00e+00	0	24	0	896532480	70	4496
2026-01-08 23:51:43.36	139.79	43.68	-51.5	-53.8	14.7	0.00e+00	0	24	0	898629632	69	4600
2026-01-08 23:51:44.36	140.21	43.51	-51.3	-53.5	14.8	0.00e+00	0	24	0	900726784	69	4491
2026-01-08 23:51:45.35	140.61	43.33	-51.2	-53.4	14.7	0.00e+00	0	24	0	901775360	68	4667
2026-01-08 23:51:46.35	141.02	43.16	-51.3	-53.5	14.7	0.00e+00	0	24	0	903872512	68	4727
2026-01-08 23:51:47.35	141.42	42.98	-51.3	-53.5	14.6	0.00e+00	0	24	0	905969664	68	4756
2026-01-08 23:51:48.35	141.82	42.80	-51.1	-53.2	14.8	0.00e+00	0	24	0	908066816	68	4592
2026-01-08 23:51:49.35	142.21	42.62	-51.0	-53.1	14.9	0.00e+00	0	24	0	910163968	68	4496
2026-01-08 23:51:50.35	142.60	42.44	-50.1	-52.1	15.0	0.00e+00	0	24	0	911212544	66	4526
2026-01-08 23:51:51.35	142.99	42.26	-50.1	-52.1	15.0	0.00e+00	0	24	0	913309696	66	4506
2026-01-08 23:51:52.34	143.36	42.09	-50.6	-52.9	14.7	0.00e+00	0	24	0	915406848	66	4941
2026-01-08 23:51:53.33	143.73	41.91	-51.2	-53.6	14.5	0.00e+00	0	24	0	917504000	67	5045
2026-01-08 23:51:54.34	144.11	41.72	-50.8	-53.0	14.8	0.00e+00	0	24	0	919601152	67	4729
2026-01-08 23:51:55.34	144.48	41.54	-50.4	-52.4	14.9	0.00e+00	0	24	0	920649728	67	4427
2026-01-08 23:51:56.34	144.84	41.36	-50.4	-52.4	15.0	0.00e+00	0	24	0	922746880	67	4432
2026-01-08 23:51:57.33	145.20	41.18	-50.6	-52.7	14.9	0.00e+00	0	24	0	924844032	67	4589
2026-01-08 23:51:58.33	145.55	41.00	-51.6	-54.2	14.3	0.00e+00	0	24	0	926941184	68	5106
2026-01-08 23:51:59.33	145.91	40.82	-52.3	-55.2	13.8	0.00e+00	0	24	0	927989760	69	5462
2026-01-08 23:52:00.32	146.25	40.63	-52.6	-55.7	13.7	0.00e+00	0	24	0	930086912	70	5444
2026-01-08 23:52:01.31	146.59	40.45	-52.3	-55.2	14.0	0.00e+00	0	24	0	932184064	70	5136
2026-01-08 23:52:02.31	146.93	40.27	-52.1	-54.6	14.4	0.00e+00	0	24	0	934281216	70	4798
2026-01-08 23:52:03.31	147.27	40.09	-51.8	-54.2	14.6	0.00e+00	0	24	0	936378368	70	4584
2026-01-08 23:52:04.31	147.60	39.90	-51.9	-54.5	14.4	0.00e+00	0	24	0	937426944	70	4733
2026-01-08 23:52:05.30	147.93	39.72	-52.5	-55.6	13.8	0.00e+00	0	24	0	939524096	70	5362
2026-01-08 23:52:06.31	148.26	39.53	-52.6	-55.8	13.7	0.00e+00	0	24	0	941621248	70	5491
2026-01-08 23:52:07.31	148.58	39.35	-52.1	-54.8	14.2	0.00e+00	0	24	0	943718400	70	4926
2026-01-08 23:52:08.30	148.90	39.17	-51.9	-54.3	14.6	0.00e+00	0	24	0	944766976	70	4639
2026-01-08 23:52:09.31	149.21	38.98	-52.0	-54.5	14.4	0.00e+00	0	24	0	946864128	70	4756
2026-01-08 23:52:10.31	149.53	38.80	-52.5	-55.3	14.0	0.00e+00	0	24	0	948961280	70	5174
2026-01-08 23:52:11.31	149.83	38.62	-53.1	-56.5	13.3	0.00e+00	0	24	0	951058432	71	5650
2026-01-08 23:52:12.30	150.14	38.43	-53.4	-57.3	12.9	0.00e+00	0	24	0	953155584	72	5795
2026-01-08 23:52:13.29	150.43	38.25	-52.4	-55.3	14.1	0.00e+00	0	24	0	954204160	71	4879
2026-01-08 23:52:14.29	150.73	38.07	-51.7	-54.3	14.6	0.00e+00	0	24	0	956301312	70	4604
2026-01-08 23:52:15.28	151.02	37.89	-51.6	-53.9	14.6	0.00e+00	0	24	0	958398464	69	4702
2026-01-08 23:52:16.29	151.32	37.70	-52.0	-54.6	14.2	0.00e+00	0	24	0	960495616	69	5072
2026-01-08 23:52:17.29	151.61	37.52	-52.5	-55.3	14.0	0.00e+00	0	24	0	962592768	70	5198
2026-01-08 23:52:18.29	151.89	37.34	-53.3	-56.7	13.3	0.00e+00	0	24	0	963641344	71	5779
2026-01-08 23:52:19.29	152.17	37.15	-54.0	-58.1	12.6	0.00e+00	0	24	0	965738496	73	6051
2026-01-08 23:52:20.29	152.45	36.97	-53.1	-56.3	13.6	0.00e+00	0	24	0	967835648	72	5212
2026-01-08 23:52:21.29	152.73	36.79	-52.4	-55.0	14.3	0.00e+00	0	24	0	969932800	71	4751
2026-01-08 23:52:22.29	153.00	36.61	-51.8	-54.1	14.7	0.00e+00	0	24	0	970981376	70	4497
2026-01-08 23:52:23.29	153.27	36.43	-51.8	-54.0	14.5	0.00e+00	0	24	0	973078528	69	4753
2026-01-08 23:52:24.29	153.54	36.25	-52.2	-54.6	14.2	0.00e+00	0	24	0	975175680	69	5046
2026-01-08 23:52:25.29	153.80	36.07	-53.1	-55.9	13.8	0.00e+00	0	24	0	977272832	71	5219
2026-01-08 23:52:26.28	154.06	35.89	-54.0	-57.5	13.0	0.00e+00	0	24	0	979369984	73	5610
2026-01-08 23:52:27.28	154.32	35.71	-54.5	-58.3	12.6	7.00e-07	0	24	0	980418560	74	5845
2026-01-08 23:52:28.28	154.58	35.53	-53.3	-56.1	13.9	0.00e+00	0	24	0	982515712	73	4794
2026-01-08 23:52:29.28	154.83	35.35	-52.3	-54.5	14.6	0.00e+00	0	24	0	984612864	71	4473
2026-01-08 23:52:30.28	155.08	35.17	-51.1	-52.9	15.0	0.00e+00	0	24	0	986710016	68	4418
2026-01-08 23:52:31.27	155.33	34.99	-50.9	-52.7	14.9	0.00e+00	0	24	0	988807168	67	4557
2026-01-08 23:52:32.27	155.57	34.82	-51.2	-53.1	14.7	0.00e+00	0	24	0	989855744	67	4778
2026-01-08 23:52:33.27	155.81	34.64	-52.2	-54.4	14.3	0.00e+00	0	24	0	991952896	69	4947
2026-01-08 23:52:34.27	156.05	34.46	-53.7	-56.7	13.4	0.00e+00	0	24	0	994050048	72	5457
2026-01-08 23:52:35.27	156.29	34.28	-54.8	-58.9	12.3	0.00e+00	0	24	0	996147200	74	6211
2026-01-08 23:52:36.26	156.52	34.11	-54.8	-58.9	12.3	2.20e-06	0	24	0	998244352	75	5859
2026-01-08 23:52:37.27	156.76	33.93	-54.0	-57.3	13.3	0.00e+00	0	24	0	999292928	74	5203
2026-01-08 23:52:38.27	156.99	33.76	-53.0	-55.8	14.0	0.00e+00	0	24	0	1001390080	72	4886
2026-01-08 23:52:39.27	157.22	33.58	-52.6	-55.1	14.3	0.00e+00	0	24	0	1003487232	71	4766
2026-01-08 23:52:40.27	157.44	33.41	-52.3	-54.6	14.6	0.00e+00	0	24	0	1005584384	71	4544
2026-01-08 23:52:41.26	157.66	33.24	-52.5	-54.8	14.5	0.00e+00	0	24	0	1006632960	71	4629
2026-01-08 23:52:42.27	157.88	33.06	-53.0	-55.6	14.0	0.00e+00	0	24	0	1008730112	71	5092
2026-01-08 23:52:43.27	158.10	32.89	-53.3	-56.2	13.6	0.00e+00	0	24	0	1010827264	71	5439
2026-01-08 23:52:44.26	158.32	32.72	-54.2	-57.7	12.8	0.00e+00	0	24	0	1012924416	73	5780
2026-01-08 23:52:45.26	158.53	32.55	-54.4	-58.2	12.6	0.00e+00	0	24	0	1015021568	74	5739
2026-01-08 23:52:46.27	158.74	32.38	-53.9	-57.3	13.1	0.00e+00	0	24	0	1016070144	74	5215
2026-01-08 23:52:47.26	158.95	32.21	-53.6	-56.8	13.5	0.00e+00	0	24	0	1018167296	73	5211
2026-01-08 23:52:48.27	159.16	32.04	-53.2	-56.0	13.9	0.00e+00	0	24	0	1020264448	73	4754
2026-01-08 23:52:49.26	159.36	31.87	-52.7	-55.2	14.3	0.00e+00	0	24	0	1022361600	72	4588
2026-01-08 23:52:50.26	159.57	31.70	-52.3	-54.5	14.6	0.00e+00	0	24	0	1024458752	71	4489
2026-01-08 23:52:51.26	159.77	31.53	-52.3	-54.5	14.4	0.00e+00	0	24	0	1025507328	70	4742
2026-01-08 23:52:52.25	159.97	31.37	-52.0	-54.1	14.6	0.00e+00	0	24	0	1027604480	70	4542
2026-01-08 23:52:53.25	160.16	31.20	-52.2	-54.5	14.4	0.00e+00	0	24	0	1029701632	70	4713
2026-01-08 23:52:54.25	160.36	31.03	-52.8	-55.4	13.9	0.00e+00	0	24	0	1031798784	70	5250
2026-01-08 23:52:55.25	160.55	30.87	-53.1	-55.9	13.7	0.00e+00	0	24	0	1032847360	71	5257
2026-01-08 23:52:56.24	160.74	30.70	-54.0	-57.5	13.0	0.00e+00	0	24	0	1034944512	73	5617
2026-01-08 23:52:57.23	160.93	30.54	-54.1	-57.8	12.8	0.00e+00	0	24	0	1037041664	73	5813
2026-01-08 23:52:58.22	161.11	30.38	-53.9	-57.3	13.2	0.00e+00	0	24	0	1039138816	73	5508
2026-01-08 23:52:59.22	161.30	30.22	-54.2	-58.0	12.7	0.00e+00	0	24	0	1041235968	73	5955
2026-01-08 23:53:00.22	161.48	30.05	-53.9	-57.2	13.2	0.00e+00	0	24	0	1042284544	73	5458
2026-01-08 23:53:01.22	161.67	29.89	-53.6	-56.6	13.6	0.00e+00	0	24	0	1044381696	73	5096
2026-01-08 23:53:02.21	161.84	29.73	-53.3	-56.1	13.9	0.00e+00	0	24	0	1046478848	73	4806
2026-01-08 23:53:03.21	162.02	29.57	-53.1	-55.8	14.0	0.00e+00	0	24	0	1048576000	72	4917
2026-01-08 23:53:04.21	162.20	29.41	-53.5	-56.5	13.6	0.00e+00	0	24	0	1049624576	72	5295
2026-01-08 23:53:05.21	162.38	29.25	-53.5	-56.6	13.5	0.00e+00	0	24	0	1051721728	72	5344
2026-01-08 23:53:06.21	162.55	29.09	-53.4	-56.4	13.6	0.00e+00	0	24	0	1053818880	72	5269
2026-01-08 23:53:07.21	162.72	28.93	-53.7	-57.0	13.2	0.00e+00	0	24	0	1055916032	72	5651
2026-01-08 23:53:08.20	162.89	28.78	-53.9	-57.5	13.0	0.00e+00	0	24	0	1058013184	72	5934
2026-01-08 23:53:09.20	163.06	28.62	-53.7	-57.1	13.3	0.00e+00	0	24	0	1059061760	73	5366
2026-01-08 23:53:10.20	163.22	28.46	-53.7	-56.9	13.4	0.00e+00	0	24	0	1061158912	73	5265
2026-01-08 23:53:11.21	163.39	28.31	-53.6	-56.8	13.5	0.00e+00	0	24	0	1063256064	73	5181
2026-01-08 23:53:12.21	163.56	28.15	-52.9	-55.6	14.1	0.00e+00	0	24	0	1065353216	72	4767
2026-01-08 23:53:13.21	163.72	28.00	-52.7	-55.3	14.2	0.00e+00	0	24	0	1067450368	71	4891
2026-01-08 23:53:14.21	163.88	27.84	-52.4	-54.8	14.4	0.00e+00	0	24	0	1068498944	71	4607
2026-01-08 23:53:15.21	164.04	27.69	-51.9	-54.0	14.7	0.00e+00	0	24	0	1070596096	70	4470
2026-01-08 23:53:16.21	164.20	27.54	-51.5	-53.6	14.7	0.00e+00	0	24	0	1072693248	69	4524
2026-01-08 23:53:17.21	164.35	27.38	-51.0	-52.9	14.9	0.00e+00	0	24	0	1074790400	68	4433
2026-01-08 23:53:18.21	164.51	27.23	-51.1	-52.9	14.9	0.00e+00	0	24	0	1075838976	68	4441
2026-01-08 23:53:19.20	164.66	27.08	-51.2	-53.1	14.8	0.00e+00	0	24	0	1077936128	68	4518
2026-01-08 23:53:20.20	164.81	26.93	-51.2	-53.1	14.8	0.00e+00	0	24	0	1080033280	68	4524
2026-01-08 23:53:21.21	164.96	26.78	-51.5	-53.6	14.6	0.00e+00	0	24	0	1082130432	68	4798
2026-01-08 23:53:22.20	165.11	26.63	-51.8	-54.0	14.4	0.00e+00	0	24	0	1084227584	68	5011
2026-01-08 23:53:23.20	165.26	26.49	-52.0	-54.4	14.3	0.00e+00	0	24	0	1085276160	69	4938
2026-01-08 23:53:24.20	165.41	26.34	-52.6	-55.2	14.1	0.00e+00	0	24	0	1087373312	70	5136
2026-01-08 23:53:25.20	165.55	26.19	-53.0	-55.8	13.8	0.00e+00	0	24	0	1089470464	71	5202
2026-01-08 23:53:26.20	165.70	26.04	-53.2	-56.2	13.6	0.00e+00	0	24	0	1091567616	71	5403
2026-01-08 23:53:27.20	165.84	25.90	-53.0	-55.7	13.9	0.00e+00	0	24	0	1093664768	71	5150
2026-01-08 23:53:28.19	165.98	25.76	-52.5	-55.0	14.3	0.00e+00	0	24	0	1094713344	71	4746
2026-01-08 23:53:29.19	166.12	25.61	-52.3	-54.7	14.4	0.00e+00	0	24	0	1096810496	71	4578
2026-01-08 23:53:30.20	166.26	25.46	-51.9	-54.2	14.6	0.00e+00	0	24	0	1098907648	70	4556
2026-01-08 23:53:31.20	166.40	25.32	-51.8	-53.9	14.7	0.00e+00	0	24	0	1101004800	70	4414
2026-01-08 23:53:32.19	166.54	25.18	-51.4	-53.4	14.8	0.00e+00	0	24	0	1102053376	69	4395
2026-01-08 23:53:33.19	166.67	25.04	-51.6	-53.7	14.7	0.00e+00	0	24	0	1104150528	69	4574
2026-01-08 23:53:34.18	166.80	24.90	-51.3	-53.3	14.8	0.00e+00	0	24	0	1106247680	69	4383
2026-01-08 23:53:35.18	166.94	24.76	-51.2	-53.1	14.8	0.00e+00	0	24	0	1108344832	68	4529
2026-01-08 23:53:36.18	167.07	24.62	-51.5	-53.5	14.6	0.00e+00	0	24	0	1110441984	68	4746
2026-01-08 23:53:37.18	167.20	24.48	-51.4	-53.5	14.6	0.00e+00	0	24	0	1111490560	68	4753
2026-01-08 23:53:38.18	167.33	24.34	-51.8	-54.1	14.3	0.00e+00	0	24	0	1113587712	68	5048
2026-01-08 23:53:39.17	167.46	24.20	-52.2	-54.6	14.1	0.00e+00	0	24	0	1115684864	69	5072
2026-01-08 23:53:40.18	167.59	24.06	-52.0	-54.3	14.4	0.00e+00	0	24	0	1117782016	69	4896
2026-01-08 23:53:41.18	167.71	23.92	-52.4	-55.0	14.0	0.00e+00	0	24	0	1119879168	69	5299
2026-01-08 23:53:42.18	167.84	23.79	-52.3	-54.8	14.2	0.00e+00	0	24	0	1120927744	70	4905
2026-01-08 23:53:43.19	167.96	23.65	-52.3	-54.7	14.3	0.00e+00	0	24	0	1123024896	70	4850
2026-01-08 23:53:44.19	168.09	23.51	-52.4	-55.0	14.1	0.00e+00	0	24	0	1125122048	70	5003
2026-01-08 23:53:45.19	168.21	23.38	-52.0	-54.4	14.5	0.00e+00	0	24	0	1127219200	70	4686
2026-01-08 23:53:46.19	168.33	23.24	-51.9	-54.3	14.5	0.00e+00	0	24	0	1129316352	70	4599
2026-01-08 23:53:47.19	168.45	23.11	-51.8	-54.1	14.6	0.00e+00	0	24	0	1130364928	70	4533
2026-01-08 23:53:48.18	168.57	22.98	-51.5	-53.7	14.7	0.00e+00	0	24	0	1132462080	69	4560
2026-01-08 23:53:49.18	168.69	22.84	-51.5	-53.7	14.7	0.00e+00	0	24	0	1134559232	69	4575
2026-01-08 23:53:50.18	168.81	22.71	-51.2	-53.3	14.8	0.00e+00	0	24	0	1136656384	69	4356
2026-01-08 23:53:51.18	168.92	22.58	-51.0	-53.0	14.9	0.00e+00	0	24	0	1137704960	68	4465
2026-01-08 23:53:52.18	169.04	22.45	-51.2	-53.3	14.7	0.00e+00	0	24	0	1139802112	68	4608
2026-01-08 23:53:53.18	169.15	22.32	-51.0	-53.0	14.9	0.00e+00	0	24	0	1141899264	68	4486
2026-01-08 23:53:54.17	169.27	22.19	-51.0	-53.0	14.9	0.00e+00	0	24	0	1143996416	68	4466
2026-01-08 23:53:55.17	169.38	22.06	-51.1	-53.2	14.8	0.00e+00	0	24	0	1146093568	68	4579
2026-01-08 23:53:56.17	169.49	21.93	-51.1	-53.2	14.8	0.00e+00	0	24	0	1147142144	68	4565
2026-01-08 23:53:57.17	169.60	21.80	-51.4	-53.5	14.7	0.00e+00	0	24	0	1149239296	68	4725
2026-01-08 23:53:58.18	169.71	21.67	-51.5	-53.7	14.5	0.00e+00	0	24	0	1151336448	68	4870
2026-01-08 23:53:59.18	169.82	21.55	-51.7	-53.9	14.5	0.00e+00	0	24	0	1153433600	68	4960
2026-01-08 23:54:00.17	169.93	21.42	-51.9	-54.2	14.3	0.00e+00	0	24	0	1155530752	68	5120
2026-01-08 23:54:01.15	170.03	21.30	-51.9	-54.2	14.3	0.00e+00	0	24	0	1156579328	68	5129
2026-01-08 23:54:02.15	170.14	21.17	-52.1	-54.5	14.3	0.00e+00	0	24	0	1158676480	69	5007
2026-01-08 23:54:03.15	170.25	21.04	-52.5	-55.1	14.1	0.00e+00	0	24	0	1160773632	70	5045
2026-01-08 23:54:04.15	170.35	20.92	-52.5	-55.0	14.2	0.00e+00	0	24	0	1162870784	70	5020
2026-01-08 23:54:05.15	170.46	20.80	-52.3	-54.8	14.3	0.00e+00	0	24	0	1163919360	70	4896
2026-01-08 23:54:06.14	170.56	20.67	-52.4	-54.9	14.2	0.00e+00	0	24	0	1166016512	70	4929
2026-01-08 23:54:07.14	170.66	20.55	-52.4	-54.8	14.2	0.00e+00	0	24	0	1168113664	70	4913
2026-01-08 23:54:08.14	170.76	20.43	-52.3	-54.8	14.2	0.00e+00	0	24	0	1170210816	70	4883
2026-01-08 23:54:09.14	170.87	20.31	-52.3	-54.8	14.2	0.00e+00	0	24	0	1172307968	70	4875
2026-01-08 23:54:10.14	170.97	20.18	-52.1	-54.5	14.4	0.00e+00	0	24	0	1173356544	70	4715
2026-01-08 23:54:11.14	171.07	20.06	-52.0	-54.2	14.5	0.00e+00	0	24	0	1175453696	70	4597
2026-01-08 23:54:12.13	171.16	19.94	-51.7	-53.8	14.8	0.00e+00	0	24	0	1177550848	70	4373
2026-01-08 23:54:13.13	171.26	19.82	-51.1	-53.1	14.8	0.00e+00	0	24	0	1179648000	68	4516
2026-01-08 23:54:14.06	171.35	19.71	-51.0	-52.9	14.9	0.00e+00	0	24	0	1180696576	68	4429
2026-01-08 23:54:15.06	171.45	19.59	-51.0	-52.9	14.9	0.00e+00	0	24	0	1182793728	68	4436
2026-01-08 23:54:16.06	171.55	19.47	-51.0	-52.9	14.9	0.00e+00	0	24	0	1184890880	68	4420
2026-01-08 23:54:17.06	171.64	19.36	-51.0	-53.0	14.9	0.00e+00	0	24	0	1186988032	68	4445
2026-01-08 23:54:18.06	171.74	19.24	-51.0	-52.9	14.9	0.00e+00	0	24	0	1189085184	68	4425
2026-01-08 23:54:19.06	171.83	19.12	-51.1	-53.1	14.8	0.00e+00	0	24	0	1190133760	68	4530
2026-01-08 23:54:20.06	171.92	19.00	-51.3	-53.3	14.7	0.00e+00	0	24	0	1192230912	68	4610
2026-01-08 23:54:21.05	172.01	18.89	-51.2	-53.2	14.7	0.00e+00	0	24	0	1194328064	68	4594
2026-01-08 23:54:22.05	172.11	18.77	-51.5	-53.6	14.5	0.00e+00	0	24	0	1196425216	68	4774
2026-01-08 23:54:23.05	172.20	18.66	-51.6	-53.7	14.5	0.00e+00	0	24	0	1197473792	68	4850
2026-01-08 23:54:24.05	172.29	18.54	-51.6	-53.8	14.5	0.00e+00	0	24	0	1199570944	68	4874
2026-01-08 23:54:25.05	172.38	18.43	-51.6	-53.8	14.5	0.00e+00	0	24	0	1201668096	68	4891
2026-01-08 23:54:26.05	172.47	18.32	-51.7	-53.8	14.5	0.00e+00	0	24	0	1203765248	68	4900
2026-01-08 23:54:27.05	172.56	18.20	-51.6	-53.7	14.5	0.00e+00	0	24	0	1205862400	68	4848
2026-01-08 23:54:28.06	172.64	18.09	-51.4	-53.5	14.6	0.00e+00	0	24	0	1207959552	68	4711
2026-01-08 23:54:29.05	172.73	17.98	-51.2	-53.2	14.8	0.00e+00	0	24	0	1209008128	68	4555
2026-01-08 23:54:30.05	172.82	17.86	-51.1	-53.1	14.8	0.00e+00	0	24	0	1211105280	68	4507
2026-01-08 23:54:31.04	172.90	17.75	-51.0	-52.9	14.9	0.00e+00	0	24	0	1213202432	68	4420
2026-01-08 23:54:32.04	172.99	17.64	-50.8	-52.6	15.0	0.00e+00	0	24	0	1215299584	68	4291
2026-01-08 23:54:33.04	173.07	17.53	-50.8	-52.6	15.0	0.00e+00	0	24	0	1216348160	68	4277
2026-01-08 23:54:34.03	173.16	17.42	-50.7	-52.5	15.1	0.00e+00	0	24	0	1218445312	68	4233
2026-01-08 23:54:35.03	173.24	17.31	-50.4	-52.1	15.1	0.00e+00	0	24	0	1220542464	67	4282
2026-01-08 23:54:36.02	173.32	17.20	-50.3	-52.1	15.1	0.00e+00	0	24	0	1222639616	67	4273
2026-01-08 23:54:37.02	173.41	17.10	-50.3	-52.0	15.1	0.00e+00	0	24	0	1224736768	67	4231
2026-01-08 23:54:38.02	173.49	16.99	-50.4	-52.0	15.0	0.00e+00	0	24	0	1225785344	66	4467
2026-01-08 23:54:39.02	173.57	16.88	-50.5	-52.1	14.9	0.00e+00	0	24	0	1227882496	66	4514
2026-01-08 23:54:40.03	173.65	16.77	-50.5	-52.1	15.0	0.00e+00	0	24	0	1229979648	66	4508
2026-01-08 23:54:41.03	173.73	16.66	-50.6	-52.3	14.9	0.00e+00	0	24	0	1232076800	66	4618
2026-01-08 23:54:42.03	173.81	16.56	-50.6	-52.2	14.9	0.00e+00	0	24	0	1233125376	66	4597
2026-01-08 23:54:43.04	173.89	16.45	-50.6	-52.3	14.9	0.00e+00	0	24	0	1235222528	66	4630
2026-01-08 23:54:44.04	173.97	16.34	-50.8	-52.5	14.8	0.00e+00	0	24	0	1237319680	66	4708
2026-01-08 23:54:45.04	174.05	16.24	-51.0	-52.7	14.8	0.00e+00	0	24	0	1239416832	67	4588
2026-01-08 23:54:46.04	174.13	16.13	-51.2	-53.1	14.6	0.00e+00	0	24	0	1241513984	67	4763
2026-01-08 23:54:47.04	174.21	16.03	-51.4	-53.2	14.6	0.00e+00	0	24	0	1242562560	67	4850
2026-01-08 23:54:48.03	174.28	15.92	-51.8	-53.7	14.5	0.00e+00	0	24	0	1244659712	68	4828
2026-01-08 23:54:49.03	174.36	15.82	-51.9	-53.8	14.6	0.00e+00	0	24	0	1246756864	69	4634
2026-01-08 23:54:50.03	174.43	15.72	-52.0	-54.0	14.4	0.00e+00	0	24	0	1248854016	69	4754
2026-01-08 23:54:51.03	174.51	15.61	-52.2	-54.3	14.3	0.00e+00	0	24	0	1250951168	69	4902
2026-01-08 23:54:52.03	174.58	15.51	-52.4	-54.5	14.2	0.00e+00	0	24	0	1251999744	69	5025
2026-01-08 23:54:53.03	174.66	15.41	-52.5	-54.6	14.3	0.00e+00	0	24	0	1254096896	70	4795
2026-01-08 23:54:54.02	174.73	15.31	-52.7	-54.9	14.2	0.00e+00	0	24	0	1256194048	70	4955
2026-01-08 23:54:55.02	174.80	15.21	-52.6	-54.8	14.2	0.00e+00	0	24	0	1258291200	70	4918
2026-01-08 23:54:56.01	174.88	15.10	-52.6	-54.8	14.2	0.00e+00	0	24	0	1259339776	70	4920
2026-01-08 23:54:57.01	174.95	15.00	-52.7	-55.0	14.1	0.00e+00	0	24	0	1261436928	70	5006
