passes_logs/2026/01/08/R3.2S_Murmansk/R3.2S_Murmansk__20260108_002303_NOAA_20_JPSS-1_rec.log

#Pass ID: 20260108_002303_NOAA 20 (JPSS-1)
#Satellite: NOAA 20 (JPSS-1)
#Configuration: NOAA 20
#almurnet v.1.7.20251203
#Start time: 2026-01-08 00:23:04

#Version: 2.2.20231116
#Station: R3.2S_Murmansk
#Location: 33.079688 lon 68.888172 lat
#TLE: 1 43013U 17073A   26006.30790171  .00000126  00000+0  80695-4 0  9991
#TLE: 2 43013  98.7629 307.3394 0001808  51.8724 308.2615 14.19533762421505

#Time	Az	El	Level	Level2	SNR	BER	BlckErr	Temp	State	Recorded	gain1	gain2
2026-01-08 00:23:04.34	23.44	2.05	-57.6	-73.6	3.8	1.49e+00	0	23	0	0	81	22701
2026-01-08 00:23:05.33	23.45	2.12	-57.6	-73.5	3.8	1.49e+00	0	23	104	0	80	23822
2026-01-08 00:23:06.34	23.46	2.18	-57.6	-73.6	3.8	1.49e+00	0	23	104	0	80	23922
2026-01-08 00:23:07.34	23.47	2.25	-57.6	-73.6	3.8	1.49e+00	0	23	104	0	80	23984
2026-01-08 00:23:08.34	23.48	2.31	-57.6	-73.6	3.8	1.49e+00	0	23	104	0	80	23962
2026-01-08 00:23:09.34	23.50	2.37	-57.6	-73.6	3.8	1.49e+00	0	23	104	0	80	24035
2026-01-08 00:23:10.34	23.51	2.44	-57.6	-73.6	3.8	1.49e+00	0	23	104	0	80	24028
2026-01-08 00:23:11.33	23.52	2.50	-57.6	-73.6	3.8	1.49e+00	0	23	104	0	80	23954
2026-01-08 00:23:12.33	23.53	2.57	-57.6	-73.6	3.8	1.49e+00	0	23	104	0	80	23916
2026-01-08 00:23:13.33	23.54	2.63	-57.6	-73.5	3.8	1.49e+00	0	23	104	0	80	23794
2026-01-08 00:23:14.32	23.56	2.70	-57.6	-73.5	3.8	1.49e+00	0	23	104	0	80	23636
2026-01-08 00:23:15.32	23.57	2.76	-57.6	-73.4	3.8	1.49e+00	0	23	104	0	80	23519
2026-01-08 00:23:16.32	23.58	2.83	-57.6	-73.3	3.8	1.49e+00	0	23	104	0	80	23138
2026-01-08 00:23:17.33	23.59	2.89	-57.6	-73.0	3.8	1.49e+00	0	23	104	0	80	22447
2026-01-08 00:23:18.33	23.61	2.96	-57.5	-72.8	3.8	1.49e+00	0	23	104	0	80	21821
2026-01-08 00:23:19.32	23.62	3.02	-57.5	-72.5	3.8	1.49e+00	0	23	104	0	80	21257
2026-01-08 00:23:20.33	23.63	3.09	-57.5	-72.0	3.8	1.49e+00	0	23	104	0	80	19971
2026-01-08 00:23:21.32	23.64	3.16	-57.5	-71.7	3.8	1.49e+00	0	23	104	0	80	19223
2026-01-08 00:23:22.32	23.65	3.22	-57.5	-71.8	3.8	1.49e+00	0	23	104	0	80	19538
2026-01-08 00:23:23.31	23.67	3.29	-57.5	-71.4	3.9	1.49e+00	0	23	104	0	80	18659
2026-01-08 00:23:24.31	23.68	3.36	-57.5	-71.7	3.8	1.49e+00	0	23	104	0	80	19203
2026-01-08 00:23:25.30	23.69	3.42	-57.5	-71.7	3.8	1.48e+00	0	23	104	0	80	19363
2026-01-08 00:23:26.30	23.70	3.49	-57.5	-72.3	3.8	1.49e+00	0	23	104	0	80	20652
2026-01-08 00:23:27.30	23.72	3.56	-57.5	-72.6	3.8	1.49e+00	0	24	104	0	80	21408
2026-01-08 00:23:28.30	23.73	3.62	-57.5	-72.8	3.8	1.49e+00	0	23	104	0	80	21804
2026-01-08 00:23:29.31	23.74	3.69	-57.6	-72.8	3.8	1.49e+00	0	24	104	0	80	21909
2026-01-08 00:23:30.30	23.76	3.76	-57.5	-72.5	3.8	1.49e+00	0	24	104	0	80	21209
2026-01-08 00:23:31.30	23.77	3.83	-57.5	-71.7	3.8	1.49e+00	0	24	104	0	80	19356
2026-01-08 00:23:32.30	23.78	3.89	-57.5	-70.9	3.9	1.48e+00	0	23	104	0	80	17625
2026-01-08 00:23:33.30	23.79	3.96	-57.4	-69.3	4.4	1.40e+00	79	24	0	0	80	14669
2026-01-08 00:23:34.29	23.81	4.03	-57.3	-68.0	4.9	8.05e-01	0	24	0	2097152	80	12605
2026-01-08 00:23:35.29	23.82	4.10	-57.2	-67.2	5.3	5.59e-01	0	23	0	3145728	80	11526
2026-01-08 00:23:36.29	23.83	4.17	-57.1	-66.5	5.8	3.94e-01	0	24	0	5242880	80	10565
2026-01-08 00:23:37.29	23.85	4.24	-57.0	-65.6	6.5	2.27e-01	0	24	0	7340032	80	9505
2026-01-08 00:23:38.29	23.86	4.30	-56.9	-64.9	7.0	1.35e-01	0	24	0	9437184	80	8798
2026-01-08 00:23:39.28	23.87	4.37	-56.8	-64.3	7.6	9.82e-02	0	24	0	10485760	80	8210
2026-01-08 00:23:40.28	23.88	4.44	-56.8	-64.3	7.5	6.17e-02	0	24	0	12582912	80	8228
2026-01-08 00:23:41.29	23.90	4.51	-56.7	-63.9	7.9	5.73e-02	0	24	0	14680064	80	7839
2026-01-08 00:23:42.29	23.91	4.58	-56.6	-63.7	8.0	5.61e-02	0	24	0	16777216	79	8171
2026-01-08 00:23:43.29	23.92	4.65	-56.7	-63.8	7.9	3.95e-02	0	24	0	18874368	79	8262
2026-01-08 00:23:44.30	23.94	4.72	-56.6	-63.9	7.9	4.37e-02	0	24	0	19922944	79	8287
2026-01-08 00:23:45.30	23.95	4.79	-56.6	-63.9	7.9	4.34e-02	0	24	0	22020096	79	8313
2026-01-08 00:23:46.30	23.96	4.86	-56.7	-64.1	7.7	5.87e-02	0	24	0	24117248	79	8464
2026-01-08 00:23:47.30	23.98	4.93	-56.8	-64.3	7.5	6.62e-02	0	24	0	26214400	79	8728
2026-01-08 00:23:48.31	23.99	5.01	-56.9	-64.9	7.0	9.20e-02	0	24	0	28311552	79	9347
2026-01-08 00:23:49.31	24.01	5.08	-56.6	-63.6	8.0	1.09e-01	0	24	0	29360128	79	8061
2026-01-08 00:23:50.31	24.02	5.15	-54.3	-57.6	12.8	3.28e-05	0	24	0	31457280	74	5360
2026-01-08 00:23:51.31	24.03	5.22	-56.6	-63.5	8.3	2.26e-02	0	24	0	33554432	78	8424
2026-01-08 00:23:52.31	24.05	5.29	-57.1	-67.0	5.3	8.01e-01	0	24	0	35651584	79	11863
2026-01-08 00:23:53.31	24.06	5.36	-54.9	-58.9	12.0	1.26e-03	0	24	0	37748736	75	5878
2026-01-08 00:23:54.31	24.07	5.43	-57.6	-69.8	3.9	1.47e+00	0	24	104	37748736	80	15534
2026-01-08 00:23:55.32	24.09	5.51	-54.5	-58.0	12.6	3.80e-06	0	24	0	38797312	75	5296
2026-01-08 00:23:56.31	24.10	5.58	-54.2	-57.5	13.0	0.00e+00	0	24	0	40894464	75	4984
2026-01-08 00:23:57.31	24.12	5.65	-54.1	-57.3	13.0	0.00e+00	0	24	0	41943040	74	5191
2026-01-08 00:23:58.30	24.13	5.72	-53.9	-56.9	13.2	0.00e+00	0	24	0	44040192	74	4980
2026-01-08 00:23:59.30	24.14	5.80	-53.6	-56.5	13.4	0.00e+00	0	24	0	46137344	73	4987
2026-01-08 00:24:00.31	24.16	5.87	-53.6	-56.4	13.5	0.00e+00	0	24	0	48234496	73	4958
2026-01-08 00:24:01.31	24.17	5.94	-53.6	-56.5	13.4	0.00e+00	0	24	0	49283072	73	5000
2026-01-08 00:24:02.31	24.19	6.02	-53.5	-56.2	13.7	0.00e+00	0	24	0	51380224	73	4823
2026-01-08 00:24:03.30	24.20	6.09	-53.5	-56.2	13.6	0.00e+00	0	24	0	53477376	73	4842
2026-01-08 00:24:04.30	24.21	6.16	-53.3	-55.9	13.8	0.00e+00	0	24	0	55574528	73	4685
2026-01-08 00:24:05.30	24.23	6.24	-53.4	-56.1	13.7	0.00e+00	0	24	0	57671680	73	4803
2026-01-08 00:24:06.28	24.24	6.31	-53.3	-56.0	13.8	0.00e+00	0	24	0	58720256	73	4725
2026-01-08 00:24:07.28	24.26	6.39	-53.3	-55.8	13.9	0.00e+00	0	24	0	60817408	73	4636
2026-01-08 00:24:08.28	24.27	6.46	-53.2	-55.7	13.9	0.00e+00	0	24	0	62914560	73	4598
2026-01-08 00:24:09.28	24.29	6.54	-53.3	-55.8	13.9	0.00e+00	0	24	0	65011712	73	4643
2026-01-08 00:24:10.28	24.30	6.61	-53.2	-55.8	13.9	0.00e+00	0	24	0	67108864	73	4621
2026-01-08 00:24:11.28	24.31	6.69	-53.1	-55.6	13.9	0.00e+00	0	24	0	68157440	72	4795
2026-01-08 00:24:12.28	24.33	6.76	-53.2	-55.8	13.8	0.00e+00	0	24	0	70254592	72	4875
2026-01-08 00:24:13.28	24.34	6.84	-53.2	-55.8	13.8	0.00e+00	0	24	0	72351744	72	4874
2026-01-08 00:24:14.27	24.36	6.91	-53.2	-55.8	13.8	0.00e+00	0	24	0	74448896	72	4874
2026-01-08 00:24:15.28	24.37	6.99	-53.2	-55.7	13.8	0.00e+00	0	24	0	75497472	72	4825
2026-01-08 00:24:16.27	24.39	7.07	-53.1	-55.6	13.9	0.00e+00	0	24	0	77594624	72	4769
2026-01-08 00:24:17.27	24.40	7.14	-53.1	-55.5	13.9	0.00e+00	0	24	0	79691776	72	4731
2026-01-08 00:24:18.27	24.42	7.22	-53.1	-55.6	13.9	0.00e+00	0	24	0	81788928	72	4795
2026-01-08 00:24:19.26	24.43	7.30	-53.1	-55.5	14.0	0.00e+00	0	24	0	83886080	72	4715
2026-01-08 00:24:20.26	24.45	7.37	-53.1	-55.5	14.0	0.00e+00	0	24	0	84934656	72	4721
2026-01-08 00:24:21.25	24.46	7.45	-53.0	-55.4	14.0	0.00e+00	0	24	0	87031808	72	4705
2026-01-08 00:24:22.25	24.48	7.53	-53.0	-55.4	14.0	0.00e+00	0	24	0	89128960	72	4698
2026-01-08 00:24:23.24	24.49	7.61	-53.1	-55.5	14.0	0.00e+00	0	24	0	91226112	72	4731
2026-01-08 00:24:24.23	24.51	7.68	-53.0	-55.3	14.1	0.00e+00	0	24	0	93323264	72	4648
2026-01-08 00:24:25.23	24.52	7.76	-52.9	-55.3	14.1	0.00e+00	0	24	0	94371840	72	4602
2026-01-08 00:24:26.22	24.54	7.84	-53.0	-55.3	14.1	0.00e+00	0	24	0	96468992	72	4635
2026-01-08 00:24:27.22	24.55	7.92	-52.9	-55.2	14.2	0.00e+00	0	24	0	98566144	72	4567
2026-01-08 00:24:28.21	24.57	8.00	-52.8	-55.1	14.2	0.00e+00	0	24	0	100663296	72	4534
2026-01-08 00:24:29.21	24.58	8.08	-52.9	-55.2	14.1	0.00e+00	0	24	0	101711872	72	4596
2026-01-08 00:24:30.20	24.60	8.16	-52.8	-55.1	14.3	0.00e+00	0	24	0	103809024	72	4505
2026-01-08 00:24:31.20	24.62	8.24	-52.8	-55.1	14.3	0.00e+00	0	24	0	105906176	72	4523
2026-01-08 00:24:32.19	24.63	8.32	-52.8	-55.1	14.3	0.00e+00	0	24	0	108003328	72	4517
2026-01-08 00:24:33.19	24.65	8.40	-52.7	-55.0	14.3	0.00e+00	0	24	0	110100480	72	4450
2026-01-08 00:24:34.19	24.66	8.48	-52.7	-54.9	14.2	0.00e+00	0	24	0	111149056	71	4689
2026-01-08 00:24:35.19	24.68	8.56	-52.7	-54.9	14.2	0.00e+00	0	24	0	113246208	71	4680
2026-01-08 00:24:36.20	24.70	8.64	-52.6	-54.8	14.3	0.00e+00	0	24	0	115343360	71	4637
2026-01-08 00:24:37.20	24.71	8.72	-52.6	-54.8	14.3	0.00e+00	0	24	0	117440512	71	4647
2026-01-08 00:24:38.20	24.73	8.81	-52.6	-54.8	14.3	0.00e+00	0	24	0	118489088	71	4617
2026-01-08 00:24:39.19	24.74	8.89	-52.7	-54.9	14.2	0.00e+00	0	24	0	120586240	71	4663
2026-01-08 00:24:40.19	24.76	8.97	-52.7	-54.9	14.3	0.00e+00	0	24	0	122683392	71	4670
2026-01-08 00:24:41.19	24.78	9.05	-52.6	-54.8	14.3	0.00e+00	0	24	0	124780544	71	4605
2026-01-08 00:24:42.19	24.79	9.14	-52.5	-54.6	14.4	0.00e+00	0	24	0	126877696	71	4536
2026-01-08 00:24:43.19	24.81	9.22	-52.6	-54.7	14.4	0.00e+00	0	24	0	127926272	71	4580
2026-01-08 00:24:44.19	24.83	9.30	-52.6	-54.8	14.3	0.00e+00	0	25	0	130023424	71	4613
2026-01-08 00:24:45.18	24.84	9.39	-52.5	-54.6	14.4	0.00e+00	0	24	0	132120576	71	4545
2026-01-08 00:24:46.18	24.86	9.47	-52.5	-54.6	14.4	0.00e+00	0	24	0	134217728	71	4516
2026-01-08 00:24:47.18	24.88	9.55	-52.5	-54.6	14.4	0.00e+00	0	24	0	136314880	71	4506
2026-01-08 00:24:48.18	24.89	9.64	-52.4	-54.4	14.5	0.00e+00	0	24	0	137363456	71	4438
2026-01-08 00:24:49.17	24.91	9.72	-52.4	-54.5	14.5	0.00e+00	0	24	0	139460608	71	4462
2026-01-08 00:24:50.17	24.93	9.81	-52.4	-54.4	14.5	0.00e+00	0	24	0	141557760	71	4430
2026-01-08 00:24:51.17	24.94	9.89	-52.4	-54.5	14.5	0.00e+00	0	24	0	143654912	71	4446
2026-01-08 00:24:52.17	24.96	9.98	-52.3	-54.4	14.6	0.00e+00	0	24	0	144703488	71	4405
2026-01-08 00:24:53.17	24.98	10.07	-52.3	-54.3	14.6	0.00e+00	0	24	0	146800640	71	4383
2026-01-08 00:24:54.17	24.99	10.15	-52.3	-54.3	14.6	0.00e+00	0	24	0	148897792	71	4369
2026-01-08 00:24:55.16	25.01	10.24	-52.3	-54.3	14.6	0.00e+00	0	24	0	150994944	71	4358
2026-01-08 00:24:56.16	25.03	10.33	-52.3	-54.3	14.6	0.00e+00	0	25	0	153092096	71	4361
2026-01-08 00:24:57.16	25.05	10.41	-52.3	-54.3	14.6	0.00e+00	0	24	0	154140672	71	4362
2026-01-08 00:24:58.16	25.06	10.50	-52.1	-54.1	14.6	0.00e+00	0	24	0	156237824	70	4503
2026-01-08 00:24:59.16	25.08	10.59	-52.1	-54.1	14.5	0.00e+00	0	24	0	158334976	70	4545
2026-01-08 00:25:00.15	25.10	10.68	-52.1	-54.1	14.6	0.00e+00	0	24	0	160432128	70	4523
2026-01-08 00:25:01.16	25.12	10.77	-52.1	-54.1	14.6	0.00e+00	0	24	0	161480704	70	4516
2026-01-08 00:25:02.16	25.14	10.86	-52.1	-54.1	14.6	0.00e+00	0	24	0	163577856	70	4512
2026-01-08 00:25:03.16	25.15	10.95	-52.0	-54.0	14.6	0.00e+00	0	24	0	165675008	70	4464
2026-01-08 00:25:04.17	25.17	11.04	-52.1	-54.1	14.6	0.00e+00	0	24	0	167772160	70	4494
2026-01-08 00:25:05.17	25.19	11.13	-52.0	-54.0	14.6	0.00e+00	0	24	0	169869312	70	4471
2026-01-08 00:25:06.17	25.21	11.22	-52.0	-53.9	14.7	0.00e+00	0	24	0	170917888	70	4407
2026-01-08 00:25:07.17	25.23	11.31	-52.0	-53.9	14.7	0.00e+00	0	24	0	173015040	70	4431
2026-01-08 00:25:08.17	25.25	11.40	-52.1	-54.0	14.6	0.00e+00	0	24	0	175112192	70	4481
2026-01-08 00:25:09.17	25.26	11.49	-52.1	-54.0	14.6	0.00e+00	0	24	0	177209344	70	4475
2026-01-08 00:25:10.16	25.28	11.58	-52.0	-54.0	14.6	0.00e+00	0	25	0	179306496	70	4461
2026-01-08 00:25:11.15	25.30	11.67	-51.9	-53.8	14.7	0.00e+00	0	25	0	180355072	70	4376
2026-01-08 00:25:12.15	25.32	11.76	-51.9	-53.8	14.7	0.00e+00	0	24	0	182452224	70	4355
2026-01-08 00:25:13.15	25.34	11.86	-51.9	-53.8	14.8	0.00e+00	0	24	0	184549376	70	4342
2026-01-08 00:25:14.16	25.36	11.95	-51.8	-53.7	14.8	0.00e+00	0	24	0	186646528	70	4318
2026-01-08 00:25:15.15	25.38	12.04	-51.9	-53.8	14.7	0.00e+00	0	25	0	188743680	70	4365
2026-01-08 00:25:16.15	25.40	12.14	-51.8	-53.7	14.8	0.00e+00	0	24	0	189792256	70	4317
2026-01-08 00:25:17.15	25.41	12.23	-51.9	-53.7	14.8	0.00e+00	0	25	0	191889408	70	4337
2026-01-08 00:25:18.14	25.43	12.32	-51.8	-53.7	14.8	0.00e+00	0	25	0	193986560	70	4312
2026-01-08 00:25:19.14	25.45	12.42	-51.8	-53.6	14.9	0.00e+00	0	25	0	196083712	70	4268
2026-01-08 00:25:20.13	25.47	12.51	-51.7	-53.5	14.9	0.00e+00	0	25	0	197132288	70	4241
2026-01-08 00:25:21.13	25.49	12.61	-51.8	-53.6	14.9	0.00e+00	0	25	0	199229440	70	4276
2026-01-08 00:25:22.13	25.51	12.70	-51.8	-53.7	14.8	0.00e+00	0	25	0	201326592	70	4305
2026-01-08 00:25:23.12	25.53	12.80	-51.7	-53.6	14.9	0.00e+00	0	24	0	203423744	70	4246
2026-01-08 00:25:24.12	25.55	12.90	-51.8	-53.6	14.8	0.00e+00	0	25	0	205520896	70	4267
2026-01-08 00:25:25.13	25.57	13.00	-51.9	-53.7	14.8	0.00e+00	0	24	0	206569472	70	4329
2026-01-08 00:25:26.13	25.59	13.09	-51.8	-53.6	14.9	0.00e+00	0	24	0	208666624	70	4272
2026-01-08 00:25:27.13	25.61	13.19	-51.8	-53.7	14.8	0.00e+00	0	25	0	210763776	70	4292
2026-01-08 00:25:28.12	25.63	13.29	-51.7	-53.6	14.9	0.00e+00	0	24	0	212860928	70	4244
2026-01-08 00:25:29.12	25.65	13.39	-51.7	-53.5	14.9	0.00e+00	0	25	0	213909504	70	4207
2026-01-08 00:25:30.12	25.67	13.49	-51.6	-53.5	14.8	0.00e+00	0	24	0	216006656	69	4452
2026-01-08 00:25:31.12	25.69	13.59	-51.7	-53.6	14.7	0.00e+00	0	25	0	218103808	69	4501
2026-01-08 00:25:32.12	25.71	13.68	-51.6	-53.4	14.8	0.00e+00	0	25	0	220200960	69	4440
2026-01-08 00:25:33.11	25.73	13.78	-51.7	-53.5	14.7	0.00e+00	0	25	0	222298112	69	4474
2026-01-08 00:25:34.11	25.76	13.88	-51.7	-53.6	14.7	0.00e+00	0	24	0	223346688	69	4506
2026-01-08 00:25:35.10	25.78	13.99	-51.6	-53.4	14.8	0.00e+00	0	25	0	225443840	69	4434
2026-01-08 00:25:36.10	25.80	14.09	-51.6	-53.4	14.8	0.00e+00	0	24	0	227540992	69	4434
2026-01-08 00:25:37.10	25.82	14.19	-51.6	-53.4	14.8	0.00e+00	0	24	0	229638144	69	4422
2026-01-08 00:25:38.10	25.84	14.29	-51.6	-53.4	14.8	0.00e+00	0	25	0	231735296	69	4398
2026-01-08 00:25:39.10	25.86	14.39	-51.6	-53.4	14.8	0.00e+00	0	25	0	232783872	69	4433
2026-01-08 00:25:40.09	25.88	14.50	-51.6	-53.4	14.8	0.00e+00	0	25	0	234881024	69	4420
2026-01-08 00:25:41.09	25.91	14.60	-51.6	-53.4	14.8	0.00e+00	0	25	0	236978176	69	4405
2026-01-08 00:25:42.10	25.93	14.71	-51.6	-53.4	14.8	0.00e+00	0	25	0	239075328	69	4422
2026-01-08 00:25:43.09	25.95	14.81	-51.6	-53.4	14.8	0.00e+00	0	25	0	241172480	69	4436
2026-01-08 00:25:44.10	25.97	14.91	-51.6	-53.3	14.8	0.00e+00	0	25	0	242221056	69	4389
2026-01-08 00:25:45.11	25.99	15.02	-51.5	-53.3	14.9	0.00e+00	0	25	0	244318208	69	4376
2026-01-08 00:25:46.11	26.02	15.13	-51.5	-53.3	14.9	0.00e+00	0	24	0	246415360	69	4373
2026-01-08 00:25:47.11	26.04	15.23	-51.6	-53.4	14.8	0.00e+00	0	25	0	248512512	69	4427
2026-01-08 00:25:48.11	26.06	15.34	-51.6	-53.4	14.8	0.00e+00	0	25	0	249561088	69	4393
2026-01-08 00:25:49.10	26.08	15.45	-51.6	-53.4	14.8	0.00e+00	0	25	0	251658240	69	4419
2026-01-08 00:25:50.10	26.11	15.55	-51.6	-53.4	14.8	0.00e+00	0	25	0	253755392	69	4420
2026-01-08 00:25:51.10	26.13	15.66	-51.7	-53.5	14.8	0.00e+00	0	25	0	255852544	69	4455
2026-01-08 00:25:52.10	26.15	15.77	-51.6	-53.4	14.8	0.00e+00	0	25	0	257949696	69	4399
2026-01-08 00:25:53.09	26.18	15.88	-51.7	-53.5	14.8	0.00e+00	0	25	0	258998272	69	4459
2026-01-08 00:25:54.08	26.20	15.99	-51.6	-53.4	14.8	0.00e+00	0	25	0	261095424	69	4419
2026-01-08 00:25:55.08	26.22	16.10	-51.7	-53.5	14.7	0.00e+00	0	25	0	263192576	69	4466
2026-01-08 00:25:56.08	26.25	16.21	-51.6	-53.4	14.8	0.00e+00	0	25	0	265289728	69	4419
2026-01-08 00:25:57.07	26.27	16.32	-51.7	-53.5	14.8	0.00e+00	0	25	0	266338304	69	4452
2026-01-08 00:25:58.07	26.29	16.43	-51.7	-53.5	14.8	0.00e+00	0	25	0	268435456	69	4449
2026-01-08 00:25:59.07	26.32	16.54	-51.8	-53.6	14.7	0.00e+00	0	25	0	270532608	69	4502
2026-01-08 00:26:00.06	26.34	16.66	-51.7	-53.5	14.8	0.00e+00	0	25	0	272629760	69	4477
2026-01-08 00:26:01.06	26.37	16.77	-51.7	-53.6	14.7	0.00e+00	0	25	0	274726912	69	4502
2026-01-08 00:26:02.06	26.39	16.88	-51.7	-53.5	14.7	0.00e+00	0	25	0	275775488	69	4491
2026-01-08 00:26:03.07	26.42	17.00	-51.9	-53.7	14.6	0.00e+00	0	25	0	277872640	69	4593
2026-01-08 00:26:04.07	26.44	17.11	-51.8	-53.7	14.7	0.00e+00	0	24	0	279969792	69	4557
2026-01-08 00:26:05.06	26.47	17.23	-51.9	-53.7	14.6	0.00e+00	0	25	0	282066944	69	4590
2026-01-08 00:26:06.06	26.49	17.34	-51.8	-53.7	14.7	0.00e+00	0	25	0	284164096	69	4569
2026-01-08 00:26:07.06	26.52	17.46	-51.9	-53.8	14.6	0.00e+00	0	25	0	285212672	69	4632
2026-01-08 00:26:08.06	26.54	17.58	-52.0	-53.9	14.6	0.00e+00	0	25	0	287309824	69	4684
2026-01-08 00:26:09.06	26.57	17.69	-52.0	-53.8	14.6	0.00e+00	0	25	0	289406976	69	4643
2026-01-08 00:26:10.06	26.60	17.81	-52.0	-53.9	14.6	0.00e+00	0	25	0	291504128	69	4652
2026-01-08 00:26:11.06	26.62	17.93	-52.1	-54.0	14.5	0.00e+00	0	25	0	292552704	69	4742
2026-01-08 00:26:12.06	26.65	18.05	-52.1	-54.1	14.5	0.00e+00	0	25	0	294649856	69	4765
2026-01-08 00:26:13.06	26.67	18.17	-52.2	-54.1	14.5	0.00e+00	0	25	0	296747008	69	4787
2026-01-08 00:26:14.06	26.70	18.29	-52.2	-54.1	14.5	0.00e+00	0	25	0	298844160	69	4814
2026-01-08 00:26:15.05	26.73	18.41	-52.1	-54.0	14.5	0.00e+00	0	25	0	300941312	69	4752
2026-01-08 00:26:16.05	26.75	18.53	-52.2	-54.1	14.5	0.00e+00	0	25	0	301989888	69	4788
2026-01-08 00:26:17.05	26.78	18.66	-52.2	-54.2	14.5	0.00e+00	0	25	0	304087040	69	4832
2026-01-08 00:26:18.03	26.81	18.78	-52.3	-54.3	14.4	0.00e+00	0	25	0	306184192	69	4889
2026-01-08 00:26:19.03	26.84	18.90	-52.5	-54.5	14.4	0.00e+00	0	25	0	308281344	70	4748
2026-01-08 00:26:20.02	26.86	19.02	-52.5	-54.5	14.4	0.00e+00	0	25	0	309329920	70	4731
2026-01-08 00:26:21.03	26.89	19.15	-52.5	-54.5	14.4	0.00e+00	0	25	0	311427072	70	4721
2026-01-08 00:26:22.03	26.92	19.27	-52.6	-54.7	14.3	0.00e+00	0	25	0	313524224	70	4838
2026-01-08 00:26:23.03	26.95	19.40	-52.5	-54.6	14.4	0.00e+00	0	25	0	315621376	70	4766
2026-01-08 00:26:24.03	26.98	19.53	-52.5	-54.5	14.4	0.00e+00	0	25	0	317718528	70	4757
2026-01-08 00:26:25.02	27.00	19.65	-52.6	-54.6	14.4	0.00e+00	0	25	0	318767104	70	4792
2026-01-08 00:26:26.01	27.03	19.78	-52.7	-54.8	14.3	0.00e+00	0	24	0	320864256	70	4879
2026-01-08 00:26:27.00	27.06	19.91	-52.7	-54.8	14.2	0.00e+00	0	24	0	322961408	70	4920
2026-01-08 00:26:28.00	27.09	20.03	-52.7	-54.8	14.2	0.00e+00	0	25	0	325058560	70	4916
2026-01-08 00:26:28.99	27.12	20.16	-52.7	-54.8	14.3	0.00e+00	0	25	0	327155712	70	4910
2026-01-08 00:26:29.98	27.15	20.29	-52.7	-54.8	14.3	0.00e+00	0	25	0	328204288	70	4887
2026-01-08 00:26:30.97	27.18	20.42	-52.8	-54.9	14.2	0.00e+00	0	25	0	330301440	70	4953
2026-01-08 00:26:31.97	27.21	20.55	-52.8	-54.9	14.2	0.00e+00	0	25	0	332398592	70	4981
2026-01-08 00:26:32.97	27.24	20.69	-52.8	-54.9	14.2	0.00e+00	0	24	0	334495744	70	4940
2026-01-08 00:26:33.96	27.27	20.82	-52.8	-55.0	14.2	0.00e+00	0	25	0	335544320	70	4999
2026-01-08 00:26:34.95	27.30	20.95	-52.9	-55.0	14.2	0.00e+00	0	25	0	337641472	70	5040
2026-01-08 00:26:35.94	27.33	21.09	-52.9	-55.1	14.2	0.00e+00	0	25	0	339738624	70	5047
2026-01-08 00:26:36.94	27.36	21.22	-52.8	-55.0	14.2	0.00e+00	0	25	0	341835776	70	4985
2026-01-08 00:26:37.95	27.39	21.36	-52.8	-55.0	14.2	0.00e+00	0	24	0	343932928	70	4989
2026-01-08 00:26:38.94	27.43	21.49	-52.8	-55.0	14.2	0.00e+00	0	25	0	344981504	70	4993
2026-01-08 00:26:39.93	27.46	21.63	-52.9	-55.0	14.2	0.00e+00	0	25	0	347078656	70	5005
2026-01-08 00:26:40.93	27.49	21.77	-52.8	-54.9	14.3	0.00e+00	0	25	0	349175808	70	4953
2026-01-08 00:26:41.92	27.52	21.91	-52.8	-54.9	14.2	0.00e+00	0	24	0	351272960	70	4939
2026-01-08 00:26:42.92	27.55	22.05	-52.9	-55.0	14.2	0.00e+00	0	25	0	352321536	70	4993
2026-01-08 00:26:43.92	27.59	22.19	-52.7	-54.8	14.3	0.00e+00	0	25	0	354418688	70	4895
2026-01-08 00:26:44.92	27.62	22.33	-52.7	-54.8	14.3	0.00e+00	0	25	0	356515840	70	4888
2026-01-08 00:26:45.92	27.65	22.47	-52.7	-54.7	14.3	0.00e+00	0	24	0	358612992	70	4860
2026-01-08 00:26:46.92	27.69	22.61	-52.7	-54.7	14.3	0.00e+00	0	25	0	360710144	70	4865
2026-01-08 00:26:47.91	27.72	22.76	-52.6	-54.7	14.4	0.00e+00	0	25	0	361758720	70	4833
2026-01-08 00:26:48.91	27.76	22.90	-52.7	-54.7	14.4	0.00e+00	0	24	0	363855872	70	4838
2026-01-08 00:26:49.91	27.79	23.05	-52.6	-54.6	14.4	0.00e+00	0	25	0	365953024	70	4780
2026-01-08 00:26:50.90	27.83	23.19	-52.7	-54.7	14.3	0.00e+00	0	25	0	368050176	70	4848
2026-01-08 00:26:51.90	27.86	23.34	-52.5	-54.5	14.4	0.00e+00	0	25	0	370147328	70	4742
2026-01-08 00:26:52.90	27.90	23.48	-52.5	-54.4	14.5	0.00e+00	0	25	0	371195904	70	4698
2026-01-08 00:26:53.89	27.93	23.63	-52.4	-54.4	14.5	0.00e+00	0	24	0	373293056	70	4671
2026-01-08 00:26:54.89	27.97	23.78	-52.4	-54.4	14.5	0.00e+00	0	25	0	375390208	70	4661
2026-01-08 00:26:55.89	28.00	23.93	-52.4	-54.3	14.6	0.00e+00	0	25	0	377487360	70	4625
2026-01-08 00:26:56.89	28.04	24.08	-52.4	-54.3	14.5	0.00e+00	0	25	0	378535936	70	4651
2026-01-08 00:26:57.89	28.08	24.24	-52.2	-54.1	14.6	0.00e+00	0	25	0	380633088	70	4531
2026-01-08 00:26:58.89	28.12	24.39	-52.3	-54.2	14.6	0.00e+00	0	24	0	382730240	70	4589
2026-01-08 00:26:59.88	28.15	24.54	-52.1	-54.0	14.7	0.00e+00	0	25	0	384827392	70	4471
2026-01-08 00:27:00.89	28.19	24.70	-52.1	-54.0	14.7	0.00e+00	0	25	0	386924544	70	4447
2026-01-08 00:27:01.88	28.23	24.85	-52.1	-53.9	14.8	0.00e+00	0	25	0	387973120	70	4407
2026-01-08 00:27:02.88	28.27	25.01	-51.9	-53.7	14.9	0.00e+00	0	25	0	390070272	70	4323
2026-01-08 00:27:03.88	28.31	25.17	-51.9	-53.7	14.9	0.00e+00	0	25	0	392167424	70	4300
2026-01-08 00:27:04.88	28.35	25.32	-52.0	-53.8	14.8	0.00e+00	0	25	0	394264576	70	4343
2026-01-08 00:27:05.88	28.39	25.48	-51.8	-53.6	14.9	0.00e+00	0	25	0	396361728	70	4266
2026-01-08 00:27:06.88	28.43	25.64	-51.9	-53.6	14.9	0.00e+00	0	25	0	397410304	70	4291
2026-01-08 00:27:07.89	28.47	25.81	-51.8	-53.6	14.9	0.00e+00	0	24	0	399507456	70	4244
2026-01-08 00:27:08.89	28.51	25.97	-51.8	-53.6	14.9	0.00e+00	0	25	0	401604608	70	4256
2026-01-08 00:27:09.88	28.55	26.13	-51.8	-53.5	15.0	0.00e+00	0	25	0	403701760	70	4219
2026-01-08 00:27:10.88	28.59	26.29	-51.8	-53.6	14.9	0.00e+00	0	24	0	405798912	70	4253
2026-01-08 00:27:11.88	28.63	26.46	-51.9	-53.6	14.9	0.00e+00	0	25	0	406847488	70	4287
2026-01-08 00:27:12.88	28.67	26.63	-51.9	-53.7	14.9	0.00e+00	0	24	0	408944640	70	4304
2026-01-08 00:27:13.88	28.72	26.79	-52.1	-53.9	14.8	0.00e+00	0	25	0	411041792	70	4401
2026-01-08 00:27:14.88	28.76	26.96	-52.2	-54.1	14.7	0.00e+00	0	25	0	413138944	70	4531
2026-01-08 00:27:15.87	28.80	27.13	-52.4	-54.3	14.5	0.00e+00	0	25	0	414187520	70	4631
2026-01-08 00:27:16.87	28.85	27.30	-52.5	-54.5	14.5	0.00e+00	0	25	0	416284672	70	4728
2026-01-08 00:27:17.88	28.89	27.47	-52.6	-54.6	14.5	0.00e+00	0	25	0	418381824	70	4763
2026-01-08 00:27:18.87	28.94	27.64	-52.8	-54.8	14.3	0.00e+00	0	25	0	420478976	70	4909
2026-01-08 00:27:19.87	28.98	27.82	-53.0	-55.1	14.3	0.00e+00	0	25	0	422576128	71	4771
2026-01-08 00:27:20.87	29.03	27.99	-53.0	-55.1	14.3	0.00e+00	0	25	0	423624704	71	4794
2026-01-08 00:27:21.86	29.07	28.17	-53.2	-55.4	14.1	0.00e+00	0	25	0	425721856	71	4964
2026-01-08 00:27:22.86	29.12	28.34	-53.3	-55.6	14.1	0.00e+00	0	25	0	427819008	71	5045
2026-01-08 00:27:23.85	29.17	28.52	-53.4	-55.7	14.1	0.00e+00	0	25	0	429916160	72	4816
2026-01-08 00:27:24.86	29.21	28.70	-53.5	-55.8	14.1	0.00e+00	0	25	0	430964736	72	4885
2026-01-08 00:27:25.86	29.26	28.88	-53.5	-55.8	14.1	0.00e+00	0	25	0	433061888	72	4899
2026-01-08 00:27:26.86	29.31	29.06	-53.6	-55.9	14.0	0.00e+00	0	25	0	435159040	72	4962
2026-01-08 00:27:27.86	29.36	29.24	-53.7	-56.1	13.9	0.00e+00	0	25	0	437256192	72	5055
2026-01-08 00:27:28.85	29.41	29.43	-53.7	-56.1	13.9	0.00e+00	0	25	0	439353344	72	5072
2026-01-08 00:27:29.85	29.46	29.61	-53.7	-56.1	13.9	0.00e+00	0	25	0	440401920	72	5061
2026-01-08 00:27:30.85	29.51	29.80	-53.8	-56.2	13.8	0.00e+00	0	25	0	442499072	72	5159
2026-01-08 00:27:31.84	29.56	29.98	-53.9	-56.3	13.9	0.00e+00	0	25	0	444596224	73	4897
2026-01-08 00:27:32.84	29.61	30.17	-53.9	-56.3	13.9	0.00e+00	0	25	0	446693376	73	4919
2026-01-08 00:27:33.83	29.66	30.36	-53.9	-56.3	13.9	0.00e+00	0	25	0	448790528	73	4892
2026-01-08 00:27:34.82	29.72	30.55	-53.9	-56.4	13.9	0.00e+00	0	25	0	449839104	73	4945
2026-01-08 00:27:35.82	29.77	30.74	-53.9	-56.3	13.9	0.00e+00	0	25	0	451936256	73	4901
2026-01-08 00:27:36.82	29.82	30.93	-54.0	-56.4	13.8	0.00e+00	0	25	0	454033408	73	4969
2026-01-08 00:27:37.81	29.88	31.13	-53.9	-56.4	13.9	0.00e+00	0	25	0	456130560	73	4928
2026-01-08 00:27:38.81	29.93	31.32	-54.0	-56.5	13.8	0.00e+00	0	25	0	457179136	73	5008
2026-01-08 00:27:39.82	29.99	31.52	-53.9	-56.4	13.9	0.00e+00	0	25	0	459276288	73	4939
2026-01-08 00:27:40.81	30.05	31.72	-53.8	-56.2	14.0	0.00e+00	0	25	0	461373440	73	4827
2026-01-08 00:27:41.80	30.10	31.92	-53.7	-56.0	14.1	0.00e+00	0	25	0	463470592	73	4711
2026-01-08 00:27:42.80	30.16	32.12	-53.7	-56.0	14.1	0.00e+00	0	25	0	465567744	73	4720
2026-01-08 00:27:43.79	30.22	32.32	-53.5	-55.8	14.3	0.00e+00	0	25	0	466616320	73	4599
2026-01-08 00:27:44.79	30.28	32.52	-53.5	-55.7	14.3	0.00e+00	0	25	0	468713472	73	4561
2026-01-08 00:27:45.80	30.34	32.73	-53.5	-55.8	14.2	0.00e+00	0	25	0	470810624	73	4605
2026-01-08 00:27:46.80	30.40	32.94	-53.6	-55.9	14.2	0.00e+00	0	25	0	472907776	73	4668
2026-01-08 00:27:47.80	30.46	33.15	-53.6	-55.8	14.2	0.00e+00	0	25	0	473956352	73	4638
2026-01-08 00:27:48.79	30.52	33.35	-53.4	-55.6	14.4	0.00e+00	0	25	0	476053504	73	4531
2026-01-08 00:27:49.80	30.58	33.57	-53.3	-55.5	14.4	0.00e+00	0	25	0	478150656	73	4445
2026-01-08 00:27:50.80	30.65	33.78	-53.3	-55.4	14.5	0.00e+00	0	25	0	480247808	73	4403
2026-01-08 00:27:51.80	30.71	33.99	-53.0	-55.0	14.5	0.00e+00	0	25	0	482344960	72	4486
2026-01-08 00:27:52.80	30.78	34.21	-52.8	-54.7	14.7	0.00e+00	0	25	0	483393536	72	4330
2026-01-08 00:27:53.79	30.84	34.42	-52.8	-54.8	14.7	0.00e+00	0	25	0	485490688	72	4355
2026-01-08 00:27:54.80	30.91	34.64	-52.5	-54.4	14.7	0.00e+00	0	25	0	487587840	71	4392
2026-01-08 00:27:55.80	30.98	34.86	-52.3	-54.2	14.8	0.00e+00	0	25	0	489684992	71	4295
2026-01-08 00:27:56.80	31.05	35.08	-52.0	-53.7	14.9	0.00e+00	0	25	0	491782144	70	4320
2026-01-08 00:27:57.80	31.12	35.31	-51.7	-53.4	15.0	0.00e+00	0	25	0	492830720	70	4175
2026-01-08 00:27:58.81	31.19	35.53	-51.6	-53.3	14.9	0.00e+00	0	25	0	494927872	69	4369
2026-01-08 00:27:59.80	31.26	35.76	-51.6	-53.3	14.9	0.00e+00	0	25	0	497025024	69	4370
2026-01-08 00:28:00.80	31.33	35.98	-51.6	-53.2	15.0	0.00e+00	0	25	0	499122176	69	4338
2026-01-08 00:28:01.80	31.40	36.21	-51.6	-53.3	14.9	0.00e+00	0	25	0	501219328	69	4358
2026-01-08 00:28:02.80	31.48	36.44	-51.8	-53.6	14.8	0.00e+00	0	25	0	502267904	69	4496
2026-01-08 00:28:03.80	31.55	36.68	-51.7	-53.5	14.9	0.00e+00	0	25	0	504365056	69	4443
2026-01-08 00:28:04.80	31.63	36.91	-51.8	-53.5	14.9	0.00e+00	0	25	0	506462208	69	4452
2026-01-08 00:28:05.79	31.70	37.14	-51.8	-53.6	14.8	0.00e+00	0	25	0	508559360	69	4507
2026-01-08 00:28:06.78	31.78	37.38	-52.0	-53.7	14.7	0.00e+00	0	25	0	509607936	69	4597
2026-01-08 00:28:07.77	31.86	37.61	-52.1	-53.8	14.7	0.00e+00	0	25	0	511705088	69	4643
2026-01-08 00:28:08.78	31.94	37.86	-52.3	-54.1	14.6	0.00e+00	0	25	0	513802240	69	4789
2026-01-08 00:28:09.77	32.02	38.10	-52.5	-54.4	14.6	0.00e+00	0	25	0	515899392	70	4677
2026-01-08 00:28:10.77	32.10	38.34	-52.7	-54.6	14.4	0.00e+00	0	25	0	517996544	70	4786
2026-01-08 00:28:11.77	32.19	38.59	-53.4	-55.3	14.3	0.00e+00	0	25	0	519045120	71	4896
2026-01-08 00:28:12.77	32.27	38.83	-53.0	-55.0	14.4	0.00e+00	0	25	0	521142272	71	4752
2026-01-08 00:28:13.78	32.36	39.09	-53.1	-55.2	14.3	0.00e+00	0	25	0	523239424	71	4838
2026-01-08 00:28:14.78	32.45	39.34	-53.1	-55.2	14.3	0.00e+00	0	25	0	525336576	71	4868
2026-01-08 00:28:15.78	32.53	39.59	-53.1	-55.2	14.3	0.00e+00	0	25	0	527433728	71	4846
2026-01-08 00:28:16.78	32.62	39.84	-52.9	-54.9	14.5	0.00e+00	0	25	0	528482304	71	4657
2026-01-08 00:28:17.77	32.72	40.10	-52.8	-54.8	14.6	0.00e+00	0	25	0	530579456	71	4602
2026-01-08 00:28:18.77	32.81	40.35	-52.8	-54.7	14.6	0.00e+00	0	25	0	532676608	71	4588
2026-01-08 00:28:19.77	32.90	40.61	-52.9	-54.9	14.5	0.00e+00	0	25	0	534773760	71	4662
2026-01-08 00:28:20.77	33.00	40.88	-53.0	-55.0	14.4	0.00e+00	0	25	0	535822336	71	4724
2026-01-08 00:28:21.77	33.10	41.14	-53.1	-55.2	14.3	0.00e+00	0	25	0	537919488	71	4820
2026-01-08 00:28:22.77	33.19	41.40	-53.2	-55.3	14.2	0.00e+00	0	25	0	540016640	71	4926
2026-01-08 00:28:23.77	33.29	41.67	-53.5	-55.6	14.2	0.00e+00	0	25	0	542113792	72	4809
2026-01-08 00:28:24.77	33.40	41.94	-53.3	-55.5	14.3	0.00e+00	0	25	0	544210944	72	4712
2026-01-08 00:28:25.76	33.50	42.21	-53.5	-55.7	14.2	0.00e+00	0	25	0	545259520	72	4829
2026-01-08 00:28:26.76	33.60	42.48	-53.5	-55.6	14.2	0.00e+00	0	25	0	547356672	72	4808
2026-01-08 00:28:27.75	33.71	42.75	-53.5	-55.7	14.1	0.00e+00	0	25	0	549453824	72	4848
2026-01-08 00:28:28.74	33.82	43.03	-53.2	-55.3	14.4	0.00e+00	0	25	0	551550976	72	4626
2026-01-08 00:28:29.73	33.93	43.30	-53.3	-55.4	14.3	0.00e+00	0	25	0	552599552	72	4672
2026-01-08 00:28:30.72	34.04	43.58	-53.1	-55.1	14.5	0.00e+00	0	25	0	554696704	72	4512
2026-01-08 00:28:31.72	34.15	43.86	-53.1	-55.1	14.5	0.00e+00	0	25	0	556793856	72	4540
2026-01-08 00:28:32.71	34.27	44.14	-53.1	-55.1	14.5	0.00e+00	0	25	0	558891008	72	4511
2026-01-08 00:28:33.70	34.38	44.43	-53.2	-55.3	14.4	0.00e+00	0	25	0	560988160	72	4640
2026-01-08 00:28:34.69	34.50	44.71	-53.3	-55.4	14.4	0.00e+00	0	24	0	562036736	72	4663
2026-01-08 00:28:35.69	34.63	45.00	-53.2	-55.3	14.4	0.00e+00	0	25	0	564133888	72	4609
2026-01-08 00:28:36.68	34.75	45.29	-53.2	-55.2	14.4	0.00e+00	0	25	0	566231040	72	4597
2026-01-08 00:28:37.67	34.88	45.58	-53.4	-55.6	14.2	0.00e+00	0	25	0	568328192	72	4777
2026-01-08 00:28:38.67	35.00	45.88	-53.4	-55.6	14.2	0.00e+00	0	25	0	569376768	72	4789
2026-01-08 00:28:39.66	35.13	46.17	-53.6	-55.8	14.1	0.00e+00	0	25	0	571473920	72	4916
2026-01-08 00:28:40.66	35.27	46.47	-53.6	-55.8	14.1	0.00e+00	0	25	0	573571072	72	4916
2026-01-08 00:28:41.65	35.40	46.77	-53.6	-55.8	14.2	0.00e+00	0	25	0	575668224	72	4886
2026-01-08 00:28:42.65	35.54	47.08	-53.5	-55.6	14.2	0.00e+00	0	25	0	577765376	72	4811
2026-01-08 00:28:43.65	35.68	47.38	-53.5	-55.6	14.2	0.00e+00	0	25	0	578813952	72	4812
2026-01-08 00:28:44.65	35.83	47.69	-53.4	-55.5	14.3	0.00e+00	0	25	0	580911104	72	4747
2026-01-08 00:28:45.65	35.98	48.00	-53.4	-55.6	14.2	0.00e+00	0	25	0	583008256	72	4784
2026-01-08 00:28:46.65	36.13	48.31	-53.4	-55.5	14.3	0.00e+00	0	25	0	585105408	72	4714
2026-01-08 00:28:47.65	36.28	48.63	-53.2	-55.3	14.4	0.00e+00	0	25	0	587202560	72	4610
2026-01-08 00:28:48.64	36.43	48.94	-53.2	-55.3	14.4	0.00e+00	0	25	0	588251136	72	4608
2026-01-08 00:28:49.63	36.59	49.26	-53.0	-55.0	14.6	0.00e+00	0	25	0	590348288	72	4466
2026-01-08 00:28:50.62	36.75	49.58	-52.6	-54.5	14.7	0.00e+00	0	25	0	592445440	71	4479
2026-01-08 00:28:51.63	36.92	49.90	-51.9	-53.7	14.9	0.00e+00	0	25	0	594542592	70	4303
2026-01-08 00:28:52.62	37.09	50.22	-52.0	-53.7	14.9	0.00e+00	0	25	0	595591168	70	4306
2026-01-08 00:28:53.63	37.26	50.55	-51.7	-53.4	15.1	0.00e+00	0	25	0	597688320	70	4165
2026-01-08 00:28:54.62	37.44	50.88	-51.3	-52.8	15.2	0.00e+00	0	25	0	599785472	69	4144
2026-01-08 00:28:55.62	37.62	51.21	-50.7	-52.2	15.3	0.00e+00	0	25	0	601882624	68	4062
2026-01-08 00:28:56.61	37.80	51.54	-50.4	-51.8	15.3	0.00e+00	0	25	0	603979776	67	4138
2026-01-08 00:28:57.61	37.99	51.87	-50.0	-51.4	15.3	0.00e+00	0	25	0	605028352	66	4164
2026-01-08 00:28:58.61	38.18	52.21	-49.6	-51.0	15.3	0.00e+00	0	25	0	607125504	65	4198
2026-01-08 00:28:59.60	38.38	52.55	-49.4	-50.8	15.4	0.00e+00	0	25	0	609222656	65	4119
2026-01-08 00:29:00.60	38.58	52.89	-49.2	-50.6	15.5	0.00e+00	0	25	0	611319808	65	4010
2026-01-08 00:29:01.59	38.78	53.23	-49.1	-50.3	15.4	0.00e+00	0	25	0	612368384	64	4145
2026-01-08 00:29:02.59	38.99	53.57	-49.2	-50.5	15.3	0.00e+00	0	25	0	614465536	64	4214
2026-01-08 00:29:03.59	39.21	53.92	-49.3	-50.6	15.3	0.00e+00	0	25	0	616562688	64	4290
2026-01-08 00:29:04.59	39.43	54.27	-49.1	-50.4	15.4	0.00e+00	0	25	0	618659840	64	4162
2026-01-08 00:29:05.58	39.65	54.62	-48.9	-50.1	15.5	0.00e+00	0	25	0	620756992	64	4047
2026-01-08 00:29:06.58	39.89	54.97	-48.9	-50.2	15.5	0.00e+00	0	25	0	621805568	64	4053
2026-01-08 00:29:07.58	40.12	55.32	-48.8	-50.0	15.5	0.00e+00	0	25	0	623902720	64	3991
2026-01-08 00:29:08.58	40.37	55.68	-48.9	-50.2	15.4	0.00e+00	0	25	0	625999872	64	4077
2026-01-08 00:29:09.56	40.61	56.03	-49.1	-50.4	15.4	0.00e+00	0	25	0	628097024	64	4162
2026-01-08 00:29:10.55	40.87	56.39	-49.4	-50.8	15.2	0.00e+00	0	25	0	629145600	64	4357
2026-01-08 00:29:11.55	41.13	56.75	-50.0	-51.4	15.1	0.00e+00	0	25	0	631242752	65	4411
2026-01-08 00:29:12.54	41.40	57.11	-50.4	-51.9	15.0	0.00e+00	0	25	0	633339904	65	4676
2026-01-08 00:29:13.54	41.67	57.48	-50.8	-52.4	14.9	0.00e+00	0	25	0	635437056	66	4662
2026-01-08 00:29:14.54	41.96	57.85	-50.8	-52.4	14.9	0.00e+00	0	25	0	637534208	66	4671
2026-01-08 00:29:15.54	42.25	58.21	-50.5	-51.9	15.1	0.00e+00	0	24	0	638582784	66	4440
2026-01-08 00:29:16.53	42.55	58.58	-50.2	-51.7	15.2	0.00e+00	0	25	0	640679936	66	4301
2026-01-08 00:29:17.53	42.85	58.95	-50.2	-51.6	15.2	0.00e+00	0	25	0	642777088	66	4258
2026-01-08 00:29:18.53	43.17	59.33	-49.7	-51.1	15.4	0.00e+00	0	25	0	644874240	66	4027
2026-01-08 00:29:19.52	43.50	59.70	-49.2	-50.5	15.5	0.00e+00	0	25	0	645922816	65	4004
2026-01-08 00:29:20.52	43.83	60.08	-48.8	-50.1	15.5	0.00e+00	0	25	0	648019968	64	4028
2026-01-08 00:29:21.52	44.18	60.45	-48.8	-50.1	15.5	0.00e+00	0	25	0	650117120	64	4022
2026-01-08 00:29:22.52	44.53	60.83	-48.9	-50.2	15.5	0.00e+00	0	25	0	652214272	64	4084
2026-01-08 00:29:23.52	44.90	61.21	-49.2	-50.5	15.4	0.00e+00	0	25	0	654311424	64	4216
2026-01-08 00:29:24.51	45.27	61.59	-49.0	-50.4	15.4	0.00e+00	0	25	0	655360000	64	4147
2026-01-08 00:29:25.51	45.66	61.98	-48.9	-50.2	15.5	0.00e+00	0	25	0	657457152	64	4054
2026-01-08 00:29:26.51	46.06	62.36	-48.6	-49.9	15.4	0.00e+00	0	25	0	659554304	63	4158
2026-01-08 00:29:27.51	46.48	62.75	-48.8	-50.1	15.4	0.00e+00	0	25	0	661651456	63	4247
2026-01-08 00:29:28.50	46.90	63.13	-48.9	-50.2	15.3	0.00e+00	0	25	0	663748608	63	4331
2026-01-08 00:29:29.50	47.34	63.51	-49.1	-50.4	15.2	0.00e+00	0	24	0	664797184	63	4440
2026-01-08 00:29:30.49	47.80	63.90	-49.6	-51.0	15.2	0.00e+00	0	25	0	666894336	64	4466
2026-01-08 00:29:31.49	48.27	64.29	-50.2	-51.7	15.1	0.00e+00	0	24	0	668991488	65	4551
2026-01-08 00:29:32.48	48.75	64.67	-50.5	-52.0	15.1	0.00e+00	0	25	0	671088640	66	4464
2026-01-08 00:29:33.48	49.26	65.06	-50.8	-52.3	15.0	0.00e+00	0	25	0	672137216	66	4611
2026-01-08 00:29:34.47	49.77	65.44	-50.7	-52.2	15.0	0.00e+00	0	25	0	674234368	66	4568
2026-01-08 00:29:35.48	50.32	65.84	-51.0	-52.5	15.0	0.00e+00	0	25	0	676331520	67	4491
2026-01-08 00:29:36.47	50.87	66.22	-51.3	-53.0	14.8	0.00e+00	0	25	0	678428672	67	4708
2026-01-08 00:29:37.46	51.45	66.61	-51.9	-53.6	14.8	0.00e+00	0	25	0	680525824	69	4539
2026-01-08 00:29:38.46	52.05	67.00	-52.3	-54.0	14.6	0.00e+00	0	25	0	681574400	69	4758
2026-01-08 00:29:39.45	52.67	67.38	-52.5	-54.3	14.7	0.00e+00	0	25	0	683671552	70	4627
2026-01-08 00:29:40.44	53.31	67.76	-52.5	-54.3	14.7	0.00e+00	0	25	0	685768704	70	4639
2026-01-08 00:29:41.44	53.98	68.15	-52.7	-54.6	14.6	0.00e+00	0	25	0	687865856	70	4767
2026-01-08 00:29:42.44	54.68	68.53	-53.7	-55.8	14.2	0.00e+00	0	25	0	689963008	72	4917
2026-01-08 00:29:43.43	55.39	68.91	-53.8	-56.0	14.1	0.00e+00	0	25	0	691011584	72	4990
2026-01-08 00:29:44.44	56.16	69.30	-53.1	-55.1	14.5	0.00e+00	0	25	0	693108736	72	4521
2026-01-08 00:29:45.44	56.94	69.68	-52.6	-54.5	14.7	0.00e+00	0	25	0	695205888	71	4452
2026-01-08 00:29:46.43	57.75	70.05	-52.4	-54.2	14.9	0.00e+00	0	25	0	697303040	71	4307
2026-01-08 00:29:47.42	58.59	70.43	-52.0	-53.7	14.9	0.00e+00	0	25	0	698351616	70	4316
2026-01-08 00:29:48.42	59.47	70.80	-52.0	-53.7	15.0	0.00e+00	0	25	0	700448768	70	4294
2026-01-08 00:29:49.42	60.40	71.17	-52.3	-54.0	14.8	0.00e+00	0	25	0	702545920	70	4493
2026-01-08 00:29:50.42	61.36	71.54	-53.1	-55.0	14.5	0.00e+00	0	25	0	704643072	71	4739
2026-01-08 00:29:51.42	62.36	71.90	-54.0	-56.3	14.1	0.00e+00	0	25	0	706740224	73	4884
2026-01-08 00:29:52.42	63.40	72.26	-54.7	-57.3	13.6	0.00e+00	0	25	0	707788800	74	5187
2026-01-08 00:29:53.42	64.49	72.61	-54.5	-57.0	13.8	0.00e+00	0	25	0	709885952	74	4996
2026-01-08 00:29:54.42	65.63	72.96	-53.9	-56.0	14.3	0.00e+00	0	25	0	711983104	74	4488
2026-01-08 00:29:55.41	66.80	73.30	-53.7	-55.8	14.3	0.00e+00	0	25	0	714080256	73	4635
2026-01-08 00:29:56.41	68.04	73.64	-53.7	-55.8	14.4	0.00e+00	0	25	0	715128832	73	4617
2026-01-08 00:29:57.41	69.33	73.97	-53.6	-55.7	14.4	0.00e+00	0	25	0	717225984	73	4559
2026-01-08 00:29:58.42	70.69	74.29	-53.4	-55.5	14.5	0.00e+00	0	25	0	719323136	73	4445
2026-01-08 00:29:59.41	72.08	74.61	-53.3	-55.3	14.6	0.00e+00	0	25	0	721420288	73	4371
2026-01-08 00:30:00.41	73.54	74.91	-52.8	-54.6	14.8	0.00e+00	0	25	0	723517440	72	4256
2026-01-08 00:30:01.41	75.07	75.21	-52.8	-54.6	14.9	0.00e+00	0	25	0	724566016	72	4252
2026-01-08 00:30:02.41	76.66	75.50	-52.6	-54.3	14.8	0.00e+00	0	25	0	726663168	71	4388
2026-01-08 00:30:03.40	78.30	75.78	-52.6	-54.4	14.8	0.00e+00	0	25	0	728760320	71	4417
2026-01-08 00:30:04.40	80.03	76.04	-52.9	-54.7	14.6	0.00e+00	0	25	0	730857472	71	4583
2026-01-08 00:30:05.39	81.80	76.29	-53.3	-55.3	14.3	0.00e+00	0	25	0	732954624	71	4907
2026-01-08 00:30:06.40	83.68	76.54	-54.0	-56.2	14.1	0.00e+00	0	25	0	734003200	73	4859
2026-01-08 00:30:07.38	85.56	76.76	-54.3	-56.7	13.8	0.00e+00	0	25	0	736100352	73	5133
2026-01-08 00:30:08.38	87.56	76.97	-54.4	-56.8	13.9	0.00e+00	0	25	0	738197504	74	4914
2026-01-08 00:30:09.37	89.59	77.17	-54.3	-56.7	14.0	0.00e+00	0	25	0	740294656	74	4855
2026-01-08 00:30:10.37	91.71	77.35	-54.0	-56.2	14.3	0.00e+00	0	25	0	741343232	74	4578
2026-01-08 00:30:11.37	93.90	77.52	-53.8	-56.0	14.3	0.00e+00	0	25	0	743440384	73	4706
2026-01-08 00:30:12.37	96.13	77.66	-53.8	-55.9	14.3	0.00e+00	0	25	0	745537536	73	4701
2026-01-08 00:30:13.37	98.42	77.79	-53.5	-55.6	14.4	0.00e+00	0	25	0	747634688	73	4527
2026-01-08 00:30:14.37	100.76	77.90	-53.2	-55.2	14.7	0.00e+00	0	25	0	749731840	73	4305
2026-01-08 00:30:15.37	103.13	77.99	-53.3	-55.3	14.5	0.00e+00	0	25	0	750780416	72	4627
2026-01-08 00:30:16.37	105.54	78.06	-53.7	-55.8	14.2	0.00e+00	0	25	0	752877568	72	4894
2026-01-08 00:30:17.36	107.95	78.11	-54.5	-56.9	13.9	0.00e+00	0	25	0	754974720	74	4968
2026-01-08 00:30:18.35	110.37	78.13	-54.6	-57.1	13.8	0.00e+00	0	25	0	757071872	74	5057
2026-01-08 00:30:19.35	112.83	78.14	-53.8	-55.9	14.4	0.00e+00	0	25	0	758120448	74	4430
2026-01-08 00:30:20.35	115.28	78.12	-53.3	-55.3	14.6	0.00e+00	0	25	0	760217600	73	4352
2026-01-08 00:30:21.34	117.70	78.09	-53.0	-54.9	14.6	0.00e+00	0	25	0	762314752	72	4437
2026-01-08 00:30:22.34	120.12	78.03	-53.5	-55.6	14.3	0.00e+00	0	25	0	764411904	72	4795
2026-01-08 00:30:23.33	122.49	77.96	-54.3	-56.6	13.9	0.00e+00	0	25	0	766509056	73	5090
2026-01-08 00:30:24.34	124.87	77.86	-55.1	-58.0	13.3	0.00e+00	0	25	0	767557632	75	5283
2026-01-08 00:30:25.33	127.17	77.74	-55.7	-58.7	13.0	0.00e+00	0	25	0	769654784	76	5427
2026-01-08 00:30:26.33	129.44	77.61	-55.5	-58.4	13.2	0.00e+00	0	25	0	771751936	76	5265
2026-01-08 00:30:27.34	131.68	77.45	-55.2	-57.9	13.5	0.00e+00	0	25	0	773849088	76	4957
2026-01-08 00:30:28.33	133.81	77.28	-54.9	-57.4	13.8	0.00e+00	0	25	0	775946240	76	4694
2026-01-08 00:30:29.33	135.91	77.09	-55.2	-58.0	13.5	0.00e+00	0	25	0	776994816	76	4994
2026-01-08 00:30:30.33	137.94	76.89	-55.1	-57.7	13.7	0.00e+00	0	25	0	779091968	76	4834
2026-01-08 00:30:31.33	139.91	76.67	-55.5	-58.5	13.2	0.00e+00	0	25	0	781189120	76	5297
2026-01-08 00:30:32.32	141.79	76.44	-55.6	-58.6	13.0	0.00e+00	0	25	0	783286272	76	5373
2026-01-08 00:30:33.32	143.62	76.19	-55.6	-58.6	13.1	0.00e+00	0	25	0	784334848	76	5362
2026-01-08 00:30:34.30	145.35	75.94	-55.7	-58.8	13.0	0.00e+00	0	25	0	786432000	76	5478
2026-01-08 00:30:35.29	147.03	75.67	-55.7	-58.8	13.0	0.00e+00	0	25	0	788529152	76	5468
2026-01-08 00:30:36.29	148.66	75.39	-55.2	-57.8	13.6	0.00e+00	0	25	0	790626304	76	4915
2026-01-08 00:30:37.29	150.23	75.09	-54.6	-57.0	13.9	0.00e+00	0	25	0	792723456	75	4759
2026-01-08 00:30:38.28	151.71	74.79	-55.2	-57.9	13.4	0.00e+00	0	25	0	793772032	75	5277
2026-01-08 00:30:39.27	153.14	74.49	-54.7	-57.2	13.8	0.00e+00	0	25	0	795869184	75	4851
2026-01-08 00:30:40.27	154.53	74.17	-53.9	-56.0	14.4	0.00e+00	0	25	0	797966336	74	4467
2026-01-08 00:30:41.27	155.85	73.84	-53.5	-55.5	14.5	0.00e+00	0	25	0	800063488	73	4471
2026-01-08 00:30:42.26	157.11	73.51	-53.7	-55.8	14.4	0.00e+00	0	25	0	801112064	73	4629
2026-01-08 00:30:43.26	158.33	73.17	-53.8	-55.9	14.3	0.00e+00	0	25	0	803209216	73	4692
2026-01-08 00:30:44.26	159.50	72.82	-53.8	-55.9	14.3	0.00e+00	0	25	0	805306368	73	4683
2026-01-08 00:30:45.26	160.61	72.47	-52.9	-54.7	14.8	0.00e+00	0	25	0	807403520	72	4321
2026-01-08 00:30:46.26	161.69	72.12	-52.4	-54.1	14.9	0.00e+00	0	25	0	809500672	71	4288
2026-01-08 00:30:47.26	162.71	71.76	-52.7	-54.5	14.8	0.00e+00	0	25	0	810549248	71	4461
2026-01-08 00:30:48.26	163.70	71.39	-52.9	-54.8	14.5	0.00e+00	0	25	0	812646400	71	4645
2026-01-08 00:30:49.25	164.64	71.03	-52.3	-54.1	14.9	0.00e+00	0	25	0	814743552	71	4267
2026-01-08 00:30:50.25	165.54	70.66	-52.4	-54.2	14.9	0.00e+00	0	25	0	816840704	71	4298
2026-01-08 00:30:51.25	166.42	70.28	-52.6	-54.5	14.7	0.00e+00	0	25	0	818937856	71	4452
2026-01-08 00:30:52.24	167.25	69.91	-53.0	-54.9	14.5	0.00e+00	0	25	0	819986432	71	4675
2026-01-08 00:30:53.24	168.05	69.53	-53.7	-55.8	14.2	0.00e+00	0	25	0	822083584	72	4907
2026-01-08 00:30:54.24	168.82	69.15	-54.0	-56.2	14.1	0.00e+00	0	25	0	824180736	73	4837
2026-01-08 00:30:55.24	169.57	68.76	-53.9	-56.1	14.1	0.00e+00	0	25	0	826277888	73	4787
2026-01-08 00:30:56.24	170.28	68.38	-54.4	-56.8	13.9	0.00e+00	0	25	0	827326464	73	5165
2026-01-08 00:30:57.24	170.97	67.99	-54.7	-57.2	13.7	0.00e+00	0	25	0	829423616	74	5140
2026-01-08 00:30:58.24	171.63	67.60	-53.9	-56.1	14.3	0.00e+00	0	25	0	831520768	74	4495
2026-01-08 00:30:59.25	172.28	67.21	-53.5	-55.5	14.5	0.00e+00	0	25	0	833617920	73	4458
2026-01-08 00:31:00.24	172.88	66.83	-53.1	-55.0	14.6	0.00e+00	0	25	0	835715072	72	4453
2026-01-08 00:31:01.24	173.48	66.44	-52.6	-54.4	14.9	0.00e+00	0	25	0	836763648	71	4421
2026-01-08 00:31:02.24	174.05	66.05	-52.1	-53.8	14.9	0.00e+00	0	25	0	838860800	70	4367
2026-01-08 00:31:03.24	174.60	65.66	-51.8	-53.4	15.1	0.00e+00	0	25	0	840957952	70	4176
2026-01-08 00:31:04.24	175.13	65.27	-51.1	-52.7	15.1	0.00e+00	0	25	0	843055104	68	4296
2026-01-08 00:31:05.23	175.64	64.88	-50.7	-52.2	15.3	0.00e+00	0	25	0	845152256	68	4054
2026-01-08 00:31:06.23	176.14	64.49	-50.2	-51.6	15.4	0.00e+00	0	25	0	846200832	67	4020
2026-01-08 00:31:07.23	176.62	64.11	-49.5	-50.8	15.4	0.00e+00	0	25	0	848297984	65	4134
2026-01-08 00:31:08.22	177.08	63.72	-48.8	-50.1	15.5	0.00e+00	0	25	0	850395136	64	4024
2026-01-08 00:31:09.21	177.53	63.34	-49.0	-50.2	15.4	0.00e+00	0	25	0	852492288	64	4090
2026-01-08 00:31:10.21	177.97	62.95	-49.3	-50.6	15.3	0.00e+00	0	25	0	853540864	64	4265
2026-01-08 00:31:11.20	178.38	62.57	-49.4	-50.8	15.3	0.00e+00	0	25	0	855638016	64	4355
2026-01-08 00:31:12.20	178.79	62.18	-49.7	-51.0	15.2	0.00e+00	0	25	0	857735168	64	4475
2026-01-08 00:31:13.20	179.19	61.80	-49.9	-51.3	15.1	0.00e+00	0	25	0	859832320	64	4635
2026-01-08 00:31:14.20	179.58	61.41	-49.9	-51.3	15.1	0.00e+00	0	25	0	861929472	64	4630
2026-01-08 00:31:15.20	179.95	61.03	-50.2	-51.7	15.0	0.00e+00	0	25	0	862978048	65	4552
2026-01-08 00:31:16.20	180.31	60.65	-51.4	-53.0	14.8	0.00e+00	0	25	0	865075200	67	4727
2026-01-08 00:31:17.20	180.66	60.27	-52.8	-54.8	14.5	0.00e+00	0	25	0	867172352	70	4879
2026-01-08 00:31:18.19	181.00	59.90	-52.9	-54.9	14.5	0.00e+00	0	25	0	869269504	71	4662
2026-01-08 00:31:19.19	181.33	59.52	-52.3	-54.0	15.0	0.00e+00	0	25	0	871366656	71	4220
2026-01-08 00:31:20.19	181.65	59.14	-52.1	-53.7	15.0	0.00e+00	0	25	0	872415232	70	4322
2026-01-08 00:31:21.19	181.97	58.77	-52.9	-54.8	14.5	0.00e+00	0	25	0	874512384	70	4873
2026-01-08 00:31:22.19	182.27	58.40	-53.8	-56.1	14.1	0.00e+00	0	25	0	876609536	72	5062
2026-01-08 00:31:23.19	182.57	58.03	-54.1	-56.4	13.9	0.00e+00	0	25	0	878706688	73	4977
2026-01-08 00:31:24.18	182.85	57.66	-53.6	-55.7	14.4	0.00e+00	0	25	0	879755264	73	4573
2026-01-08 00:31:25.19	183.14	57.29	-53.0	-54.9	14.6	0.00e+00	0	25	0	881852416	72	4423
2026-01-08 00:31:26.19	183.41	56.92	-52.6	-54.4	14.8	0.00e+00	0	25	0	883949568	71	4399
2026-01-08 00:31:27.19	183.68	56.56	-51.8	-53.4	15.1	0.00e+00	0	25	0	886046720	70	4164
2026-01-08 00:31:28.19	183.94	56.20	-51.1	-52.6	15.1	0.00e+00	0	25	0	888143872	68	4281
2026-01-08 00:31:29.18	184.19	55.84	-51.4	-52.9	15.0	0.00e+00	0	25	0	889192448	68	4438
2026-01-08 00:31:30.18	184.44	55.48	-51.2	-52.8	15.1	0.00e+00	0	25	0	891289600	68	4342
2026-01-08 00:31:31.17	184.67	55.13	-50.4	-51.9	15.3	0.00e+00	0	25	0	893386752	67	4170
2026-01-08 00:31:32.17	184.91	54.77	-49.8	-51.2	15.4	0.00e+00	0	25	0	895483904	66	4053
2026-01-08 00:31:33.17	185.14	54.42	-49.6	-50.9	15.3	0.00e+00	0	25	0	896532480	65	4189
2026-01-08 00:31:34.16	185.36	54.07	-50.1	-51.6	15.1	0.00e+00	0	25	0	898629632	65	4495
2026-01-08 00:31:35.15	185.58	53.73	-50.7	-52.2	15.0	0.00e+00	0	25	0	900726784	66	4555
2026-01-08 00:31:36.15	185.79	53.38	-50.7	-52.2	15.0	0.00e+00	0	25	0	902823936	66	4548
2026-01-08 00:31:37.14	186.00	53.04	-50.7	-52.2	15.0	0.00e+00	0	25	0	904921088	66	4548
2026-01-08 00:31:38.13	186.20	52.70	-51.3	-53.0	14.8	0.00e+00	0	25	0	905969664	67	4713
2026-01-08 00:31:39.13	186.40	52.36	-52.4	-54.2	14.6	0.00e+00	0	25	0	908066816	69	4853
2026-01-08 00:31:40.11	186.59	52.03	-53.1	-55.0	14.4	0.00e+00	0	25	0	910163968	71	4755
2026-01-08 00:31:41.11	186.78	51.69	-53.2	-55.2	14.4	0.00e+00	0	25	0	912261120	71	4849
2026-01-08 00:31:42.10	186.97	51.36	-53.7	-55.8	14.2	0.00e+00	0	25	0	913309696	72	4909
2026-01-08 00:31:43.10	187.15	51.03	-54.7	-57.3	13.6	0.00e+00	0	25	0	915406848	74	5180
2026-01-08 00:31:44.10	187.33	50.69	-55.8	-59.1	12.8	0.00e+00	0	25	0	917504000	76	5667
2026-01-08 00:31:45.09	187.50	50.37	-56.3	-60.0	12.2	2.20e-06	0	25	0	919601152	77	5969
2026-01-08 00:31:46.09	187.67	50.04	-56.0	-59.4	12.6	2.20e-06	0	25	0	921698304	77	5543
2026-01-08 00:31:47.09	187.84	49.72	-56.0	-59.2	12.7	0.00e+00	0	25	0	922746880	77	5457
2026-01-08 00:31:48.08	188.00	49.40	-56.1	-59.5	12.6	0.00e+00	0	25	0	924844032	77	5624
2026-01-08 00:31:49.08	188.16	49.08	-56.3	-59.8	12.3	7.00e-07	0	25	0	926941184	77	5850
2026-01-08 00:31:50.08	188.32	48.76	-55.7	-58.8	13.0	0.00e+00	0	25	0	929038336	77	5179
2026-01-08 00:31:51.08	188.48	48.44	-55.1	-57.7	13.6	0.00e+00	0	25	0	931135488	76	4864
2026-01-08 00:31:52.08	188.63	48.13	-54.8	-57.3	13.9	0.00e+00	0	25	0	932184064	76	4603
2026-01-08 00:31:53.08	188.78	47.82	-54.5	-56.9	14.0	0.00e+00	0	25	0	934281216	75	4704
2026-01-08 00:31:54.08	188.92	47.51	-54.7	-57.3	13.7	0.00e+00	0	25	0	936378368	75	4910
2026-01-08 00:31:55.08	189.07	47.20	-55.3	-58.2	13.2	0.00e+00	0	25	0	938475520	75	5425
2026-01-08 00:31:56.07	189.20	46.89	-55.2	-58.2	13.1	0.00e+00	0	25	0	939524096	75	5404
2026-01-08 00:31:57.07	189.34	46.59	-54.7	-57.2	13.8	0.00e+00	0	25	0	941621248	75	4864
2026-01-08 00:31:58.06	189.48	46.29	-54.1	-56.5	14.1	0.00e+00	0	25	0	943718400	74	4711
2026-01-08 00:31:59.07	189.61	45.99	-54.1	-56.4	14.2	0.00e+00	0	25	0	945815552	74	4653
2026-01-08 00:32:00.06	189.74	45.69	-53.3	-55.2	14.6	0.00e+00	0	25	0	947912704	73	4326
2026-01-08 00:32:01.06	189.87	45.40	-52.8	-54.6	14.8	0.00e+00	0	25	0	948961280	72	4267
2026-01-08 00:32:02.07	189.99	45.10	-52.7	-54.5	14.8	0.00e+00	0	25	0	951058432	72	4224
2026-01-08 00:32:03.07	190.12	44.81	-52.7	-54.5	14.7	0.00e+00	0	25	0	953155584	71	4492
2026-01-08 00:32:04.07	190.24	44.52	-52.4	-54.2	14.8	0.00e+00	0	25	0	955252736	71	4320
2026-01-08 00:32:05.07	190.36	44.23	-52.6	-54.5	14.7	0.00e+00	0	25	0	956301312	71	4447
2026-01-08 00:32:06.07	190.48	43.94	-52.8	-54.7	14.6	0.00e+00	0	25	0	958398464	71	4588
2026-01-08 00:32:07.07	190.59	43.66	-52.8	-54.7	14.5	0.00e+00	0	25	0	960495616	71	4598
2026-01-08 00:32:08.07	190.70	43.38	-53.0	-55.0	14.4	0.00e+00	0	25	0	962592768	71	4710
2026-01-08 00:32:09.07	190.81	43.10	-53.0	-55.0	14.4	0.00e+00	0	25	0	964689920	71	4719
2026-01-08 00:32:10.06	190.92	42.82	-52.3	-54.1	14.9	0.00e+00	0	25	0	965738496	71	4278
2026-01-08 00:32:11.07	191.03	42.54	-51.8	-53.5	15.0	0.00e+00	0	25	0	967835648	70	4202
2026-01-08 00:32:12.06	191.14	42.27	-51.8	-53.4	15.1	0.00e+00	0	25	0	969932800	70	4162
2026-01-08 00:32:13.06	191.24	42.00	-51.5	-53.0	15.1	0.00e+00	0	25	0	972029952	69	4224
2026-01-08 00:32:14.06	191.34	41.73	-51.1	-52.6	15.1	0.00e+00	0	25	0	974127104	68	4256
2026-01-08 00:32:15.06	191.44	41.46	-51.3	-52.8	15.0	0.00e+00	0	25	0	975175680	68	4385
2026-01-08 00:32:16.06	191.54	41.19	-51.8	-53.5	14.8	0.00e+00	0	25	0	977272832	68	4708
2026-01-08 00:32:17.06	191.64	40.93	-52.3	-54.1	14.6	0.00e+00	0	25	0	979369984	69	4775
2026-01-08 00:32:18.06	191.74	40.67	-52.8	-54.7	14.4	0.00e+00	0	25	0	981467136	70	4837
2026-01-08 00:32:19.05	191.83	40.41	-53.1	-55.1	14.4	0.00e+00	0	25	0	983564288	71	4786
2026-01-08 00:32:20.05	191.92	40.15	-52.9	-54.8	14.5	0.00e+00	0	25	0	984612864	71	4622
2026-01-08 00:32:21.05	192.02	39.89	-52.5	-54.3	14.8	0.00e+00	0	25	0	986710016	71	4375
2026-01-08 00:32:22.06	192.11	39.63	-52.5	-54.3	14.8	0.00e+00	0	25	0	988807168	71	4362
2026-01-08 00:32:23.06	192.20	39.38	-52.3	-54.1	14.9	0.00e+00	0	25	0	990904320	71	4263
2026-01-08 00:32:24.06	192.28	39.13	-52.2	-53.9	15.0	0.00e+00	0	25	0	991952896	71	4177
2026-01-08 00:32:25.05	192.37	38.88	-52.4	-54.2	14.8	0.00e+00	0	25	0	994050048	71	4326
2026-01-08 00:32:26.04	192.46	38.63	-52.4	-54.2	14.8	0.00e+00	0	25	0	996147200	71	4325
2026-01-08 00:32:27.04	192.54	38.39	-52.5	-54.2	14.8	0.00e+00	0	25	0	998244352	71	4340
2026-01-08 00:32:28.04	192.62	38.14	-52.6	-54.5	14.7	0.00e+00	0	25	0	1000341504	71	4462
2026-01-08 00:32:29.04	192.70	37.90	-53.1	-55.1	14.3	0.00e+00	0	25	0	1001390080	71	4802
2026-01-08 00:32:30.03	192.78	37.66	-53.5	-55.7	14.2	0.00e+00	0	25	0	1003487232	72	4858
2026-01-08 00:32:31.04	192.86	37.41	-54.0	-56.4	13.9	0.00e+00	0	25	0	1005584384	73	4978
2026-01-08 00:32:32.03	192.94	37.18	-54.3	-56.8	13.7	0.00e+00	0	25	0	1007681536	73	5207
2026-01-08 00:32:33.02	193.02	36.94	-54.2	-56.6	13.8	0.00e+00	0	25	0	1008730112	73	5099
2026-01-08 00:32:34.01	193.09	36.71	-54.0	-56.3	14.0	0.00e+00	0	25	0	1010827264	73	4925
2026-01-08 00:32:35.00	193.17	36.48	-53.6	-55.8	14.3	0.00e+00	0	25	0	1012924416	73	4624
2026-01-08 00:32:36.00	193.24	36.25	-53.3	-55.4	14.5	0.00e+00	0	25	0	1015021568	73	4402
2026-01-08 00:32:36.99	193.31	36.02	-53.2	-55.2	14.6	0.00e+00	0	25	0	1017118720	73	4331
2026-01-08 00:32:37.99	193.39	35.79	-52.7	-54.6	14.8	0.00e+00	0	25	0	1018167296	72	4267
2026-01-08 00:32:38.98	193.46	35.57	-52.5	-54.3	14.7	0.00e+00	0	25	0	1020264448	71	4389
2026-01-08 00:32:39.97	193.53	35.34	-52.2	-53.9	14.9	0.00e+00	0	25	0	1022361600	71	4193
2026-01-08 00:32:40.96	193.60	35.12	-52.4	-54.2	14.8	0.00e+00	0	25	0	1024458752	71	4333
2026-01-08 00:32:41.96	193.66	34.90	-52.6	-54.4	14.7	0.00e+00	0	25	0	1025507328	71	4417
2026-01-08 00:32:42.95	193.73	34.68	-52.8	-54.7	14.5	0.00e+00	0	25	0	1027604480	71	4580
2026-01-08 00:32:43.95	193.80	34.46	-53.2	-55.2	14.3	0.00e+00	0	25	0	1029701632	71	4852
2026-01-08 00:32:44.94	193.86	34.24	-53.7	-55.9	14.1	0.00e+00	0	25	0	1031798784	72	4971
2026-01-08 00:32:45.94	193.93	34.03	-54.2	-56.7	13.8	0.00e+00	0	25	0	1033895936	73	5151
2026-01-08 00:32:46.93	193.99	33.81	-54.8	-57.6	13.4	0.00e+00	0	25	0	1034944512	74	5351
2026-01-08 00:32:47.94	194.06	33.60	-55.2	-58.3	13.0	0.00e+00	0	25	0	1037041664	75	5509
2026-01-08 00:32:48.93	194.12	33.39	-55.6	-58.9	12.7	0.00e+00	0	25	0	1039138816	76	5588
2026-01-08 00:32:49.93	194.18	33.18	-55.7	-59.0	12.7	0.00e+00	0	25	0	1041235968	76	5625
2026-01-08 00:32:50.93	194.24	32.97	-55.5	-58.7	12.9	0.00e+00	0	25	0	1043333120	76	5406
2026-01-08 00:32:51.93	194.30	32.76	-55.2	-58.2	13.2	0.00e+00	0	25	0	1044381696	76	5116
2026-01-08 00:32:52.93	194.36	32.55	-55.0	-57.8	13.4	0.00e+00	0	25	0	1046478848	76	4911
2026-01-08 00:32:53.93	194.42	32.35	-54.5	-57.1	13.7	0.00e+00	0	25	0	1048576000	75	4809
2026-01-08 00:32:54.92	194.48	32.15	-54.3	-56.8	14.0	0.00e+00	0	25	0	1050673152	75	4607
2026-01-08 00:32:55.92	194.54	31.94	-54.1	-56.5	14.0	0.00e+00	0	25	0	1051721728	74	4742
2026-01-08 00:32:56.91	194.60	31.74	-54.1	-56.6	14.0	0.00e+00	0	25	0	1053818880	74	4760
2026-01-08 00:32:57.91	194.65	31.54	-54.1	-56.5	14.0	0.00e+00	0	25	0	1055916032	74	4752
2026-01-08 00:32:58.91	194.71	31.34	-54.1	-56.5	13.9	0.00e+00	0	25	0	1058013184	74	4754
2026-01-08 00:32:59.90	194.76	31.15	-54.2	-56.6	13.9	0.00e+00	0	25	0	1060110336	74	4807
2026-01-08 00:33:00.90	194.82	30.95	-54.1	-56.5	14.0	0.00e+00	0	25	0	1061158912	74	4728
2026-01-08 00:33:01.90	194.87	30.76	-54.0	-56.3	14.1	0.00e+00	0	25	0	1063256064	74	4619
2026-01-08 00:33:02.90	194.93	30.57	-53.8	-56.1	14.2	0.00e+00	0	25	0	1065353216	74	4520
2026-01-08 00:33:03.90	194.98	30.37	-53.8	-56.1	14.2	0.00e+00	0	25	0	1067450368	74	4506
2026-01-08 00:33:04.90	195.03	30.18	-53.6	-55.7	14.2	0.00e+00	0	25	0	1069547520	73	4593
2026-01-08 00:33:05.90	195.08	29.99	-53.6	-55.8	14.2	0.00e+00	0	25	0	1070596096	73	4620
2026-01-08 00:33:06.89	195.13	29.81	-53.5	-55.7	14.3	0.00e+00	0	25	0	1072693248	73	4584
2026-01-08 00:33:07.90	195.18	29.62	-53.6	-55.8	14.2	0.00e+00	0	25	0	1074790400	73	4616
2026-01-08 00:33:08.89	195.23	29.43	-53.6	-55.8	14.2	0.00e+00	0	25	0	1076887552	73	4616
2026-01-08 00:33:09.88	195.28	29.25	-53.5	-55.7	14.3	0.00e+00	0	25	0	1077936128	73	4564
2026-01-08 00:33:10.88	195.33	29.07	-53.3	-55.5	14.4	0.00e+00	0	25	0	1080033280	73	4447
2026-01-08 00:33:11.89	195.38	28.88	-53.2	-55.3	14.5	0.00e+00	0	25	0	1082130432	73	4389
2026-01-08 00:33:12.88	195.43	28.70	-53.1	-55.1	14.5	0.00e+00	0	25	0	1084227584	72	4527
2026-01-08 00:33:13.89	195.48	28.52	-53.1	-55.1	14.4	0.00e+00	0	25	0	1086324736	72	4542
2026-01-08 00:33:14.89	195.52	28.34	-53.0	-55.0	14.5	0.00e+00	0	25	0	1087373312	72	4475
2026-01-08 00:33:15.88	195.57	28.17	-52.6	-54.5	14.6	0.00e+00	0	25	0	1089470464	71	4469
2026-01-08 00:33:16.89	195.62	27.99	-52.4	-54.3	14.7	0.00e+00	0	25	0	1091567616	71	4347
2026-01-08 00:33:17.89	195.66	27.81	-52.2	-54.0	14.9	0.00e+00	0	25	0	1093664768	71	4196
2026-01-08 00:33:18.88	195.71	27.64	-52.1	-53.9	14.8	0.00e+00	0	25	0	1095761920	70	4400
2026-01-08 00:33:19.88	195.75	27.47	-52.1	-53.8	14.8	0.00e+00	0	25	0	1096810496	70	4375
2026-01-08 00:33:20.88	195.80	27.29	-51.9	-53.6	14.9	0.00e+00	0	25	0	1098907648	70	4288
2026-01-08 00:33:21.88	195.84	27.12	-51.9	-53.6	14.9	0.00e+00	0	25	0	1101004800	70	4258
2026-01-08 00:33:22.88	195.88	26.95	-51.9	-53.6	14.9	0.00e+00	0	25	0	1103101952	70	4279
2026-01-08 00:33:23.88	195.93	26.78	-51.9	-53.7	14.9	0.00e+00	0	25	0	1104150528	70	4304
2026-01-08 00:33:24.87	195.97	26.62	-51.8	-53.5	15.0	0.00e+00	0	25	0	1106247680	70	4216
2026-01-08 00:33:25.87	196.01	26.45	-51.7	-53.4	15.0	0.00e+00	0	25	0	1108344832	70	4170
2026-01-08 00:33:26.87	196.05	26.28	-51.8	-53.6	14.9	0.00e+00	0	25	0	1110441984	70	4247
2026-01-08 00:33:27.87	196.09	26.12	-51.8	-53.6	14.9	0.00e+00	0	25	0	1112539136	70	4249
2026-01-08 00:33:28.87	196.13	25.95	-51.8	-53.5	15.0	0.00e+00	0	25	0	1113587712	70	4242
2026-01-08 00:33:29.87	196.18	25.79	-51.8	-53.6	14.9	0.00e+00	0	25	0	1115684864	70	4247
2026-01-08 00:33:30.86	196.22	25.63	-51.9	-53.7	14.9	0.00e+00	0	25	0	1117782016	70	4293
2026-01-08 00:33:31.86	196.25	25.47	-51.9	-53.7	14.9	0.00e+00	0	25	0	1119879168	70	4297
2026-01-08 00:33:32.86	196.29	25.31	-52.0	-53.7	14.8	0.00e+00	0	25	0	1120927744	70	4335
2026-01-08 00:33:33.86	196.33	25.15	-51.9	-53.6	14.9	0.00e+00	0	25	0	1123024896	70	4269
2026-01-08 00:33:34.86	196.37	24.99	-51.8	-53.5	15.0	0.00e+00	0	25	0	1125122048	70	4207
2026-01-08 00:33:35.86	196.41	24.83	-51.8	-53.5	15.0	0.00e+00	0	25	0	1127219200	70	4225
2026-01-08 00:33:36.85	196.45	24.68	-51.8	-53.5	15.0	0.00e+00	0	25	0	1129316352	70	4215
2026-01-08 00:33:37.86	196.49	24.52	-51.6	-53.2	14.9	0.00e+00	0	25	0	1130364928	69	4339
2026-01-08 00:33:38.86	196.52	24.36	-51.4	-53.1	15.0	0.00e+00	0	25	0	1132462080	69	4259
2026-01-08 00:33:39.85	196.56	24.21	-51.4	-53.0	15.0	0.00e+00	0	25	0	1134559232	69	4237
2026-01-08 00:33:40.85	196.60	24.06	-51.3	-52.9	15.1	0.00e+00	0	25	0	1136656384	69	4187
2026-01-08 00:33:41.85	196.63	23.91	-51.1	-52.7	15.0	0.00e+00	0	25	0	1138753536	68	4310
2026-01-08 00:33:42.83	196.67	23.76	-51.1	-52.7	15.0	0.00e+00	0	25	0	1139802112	68	4300
2026-01-08 00:33:43.82	196.71	23.61	-51.0	-52.6	15.1	0.00e+00	0	25	0	1141899264	68	4259
2026-01-08 00:33:44.82	196.74	23.46	-51.0	-52.6	15.0	0.00e+00	0	25	0	1143996416	68	4278
2026-01-08 00:33:45.82	196.78	23.31	-51.0	-52.6	15.1	0.00e+00	0	25	0	1146093568	68	4272
2026-01-08 00:33:46.81	196.81	23.17	-50.9	-52.5	15.1	0.00e+00	0	25	0	1147142144	68	4223
2026-01-08 00:33:47.81	196.85	23.02	-50.8	-52.3	15.2	0.00e+00	0	25	0	1149239296	68	4123
2026-01-08 00:33:48.81	196.88	22.87	-50.8	-52.4	15.2	0.00e+00	0	25	0	1151336448	68	4149
2026-01-08 00:33:49.81	196.91	22.73	-50.8	-52.3	15.2	0.00e+00	0	25	0	1153433600	68	4140
2026-01-08 00:33:50.80	196.95	22.58	-50.8	-52.4	15.1	0.00e+00	0	25	0	1155530752	68	4167
2026-01-08 00:33:51.81	196.98	22.44	-50.9	-52.5	15.1	0.00e+00	0	25	0	1156579328	68	4212
2026-01-08 00:33:52.79	197.01	22.30	-50.9	-52.4	15.1	0.00e+00	0	25	0	1158676480	68	4181
2026-01-08 00:33:53.79	197.05	22.16	-50.8	-52.4	15.1	0.00e+00	0	25	0	1160773632	68	4173
2026-01-08 00:33:54.79	197.08	22.02	-50.9	-52.4	15.1	0.00e+00	0	25	0	1162870784	68	4182
2026-01-08 00:33:55.79	197.11	21.88	-50.9	-52.5	15.1	0.00e+00	0	25	0	1164967936	68	4215
2026-01-08 00:33:56.80	197.15	21.73	-51.0	-52.5	15.1	0.00e+00	0	25	0	1166016512	68	4239
2026-01-08 00:33:57.80	197.18	21.60	-51.0	-52.6	15.0	0.00e+00	0	25	0	1168113664	68	4284
2026-01-08 00:33:58.80	197.21	21.46	-51.0	-52.6	15.0	0.00e+00	0	25	0	1170210816	68	4290
2026-01-08 00:33:59.80	197.24	21.32	-51.0	-52.6	15.0	0.00e+00	0	25	0	1172307968	68	4284
2026-01-08 00:34:00.80	197.27	21.18	-51.1	-52.7	15.0	0.00e+00	0	25	0	1173356544	68	4314
2026-01-08 00:34:01.79	197.30	21.05	-51.1	-52.7	15.0	0.00e+00	0	25	0	1175453696	68	4327
2026-01-08 00:34:02.80	197.33	20.91	-51.2	-52.9	14.9	0.00e+00	0	25	0	1177550848	68	4400
2026-01-08 00:34:03.80	197.36	20.78	-51.2	-52.8	14.9	0.00e+00	0	25	0	1179648000	68	4379
2026-01-08 00:34:04.79	197.39	20.64	-51.2	-52.8	15.0	0.00e+00	0	25	0	1181745152	68	4371
2026-01-08 00:34:05.79	197.42	20.51	-51.2	-52.8	14.9	0.00e+00	0	25	0	1182793728	68	4380
2026-01-08 00:34:06.79	197.45	20.38	-51.1	-52.7	15.0	0.00e+00	0	25	0	1184890880	68	4326
2026-01-08 00:34:07.78	197.48	20.25	-51.2	-52.9	14.9	0.00e+00	0	25	0	1186988032	68	4392
2026-01-08 00:34:08.77	197.51	20.12	-51.2	-52.8	14.9	0.00e+00	0	25	0	1189085184	68	4364
2026-01-08 00:34:09.78	197.54	19.99	-51.1	-52.7	15.0	0.00e+00	0	25	0	1190133760	68	4303
2026-01-08 00:34:10.77	197.57	19.86	-51.2	-52.8	14.9	0.00e+00	0	25	0	1192230912	68	4388
2026-01-08 00:34:11.77	197.60	19.73	-51.2	-52.9	14.9	0.00e+00	0	25	0	1194328064	68	4412
2026-01-08 00:34:12.78	197.63	19.60	-51.1	-52.7	15.0	0.00e+00	0	25	0	1196425216	68	4325
2026-01-08 00:34:13.78	197.66	19.47	-51.1	-52.8	15.0	0.00e+00	0	25	0	1198522368	68	4347
2026-01-08 00:34:14.78	197.68	19.34	-51.2	-52.8	14.9	0.00e+00	0	25	0	1199570944	68	4367
2026-01-08 00:34:15.78	197.71	19.22	-51.3	-53.0	14.9	0.00e+00	0	25	0	1201668096	68	4453
2026-01-08 00:34:16.79	197.74	19.09	-51.2	-52.9	14.9	0.00e+00	0	25	0	1203765248	68	4415
2026-01-08 00:34:17.79	197.77	18.96	-51.3	-53.0	14.9	0.00e+00	0	25	0	1205862400	68	4453
2026-01-08 00:34:18.79	197.80	18.84	-51.4	-53.1	14.8	0.00e+00	0	25	0	1207959552	68	4500
2026-01-08 00:34:19.79	197.82	18.72	-51.3	-53.0	14.8	0.00e+00	0	25	0	1209008128	68	4484
2026-01-08 00:34:20.79	197.85	18.59	-51.4	-53.1	14.8	0.00e+00	0	25	0	1211105280	68	4533
2026-01-08 00:34:21.79	197.88	18.47	-51.5	-53.2	14.8	0.00e+00	0	25	0	1213202432	68	4563
2026-01-08 00:34:22.79	197.90	18.35	-51.4	-53.1	14.8	0.00e+00	0	25	0	1215299584	68	4506
2026-01-08 00:34:23.79	197.93	18.23	-51.5	-53.3	14.7	0.00e+00	0	25	0	1217396736	68	4599
2026-01-08 00:34:24.79	197.96	18.10	-51.5	-53.3	14.7	0.00e+00	0	25	0	1218445312	68	4605
2026-01-08 00:34:25.79	197.98	17.98	-51.6	-53.4	14.6	0.00e+00	0	25	0	1220542464	68	4684
2026-01-08 00:34:26.79	198.01	17.86	-51.7	-53.4	14.6	0.00e+00	0	25	0	1222639616	68	4699
2026-01-08 00:34:27.78	198.03	17.75	-51.6	-53.4	14.7	0.00e+00	0	25	0	1224736768	68	4654
2026-01-08 00:34:28.79	198.06	17.63	-51.7	-53.5	14.6	0.00e+00	0	25	0	1226833920	68	4714
2026-01-08 00:34:29.78	198.08	17.51	-51.6	-53.3	14.7	0.00e+00	0	25	0	1227882496	68	4643
2026-01-08 00:34:30.78	198.11	17.39	-51.6	-53.4	14.7	0.00e+00	0	25	0	1229979648	68	4670
2026-01-08 00:34:31.77	198.13	17.28	-51.6	-53.4	14.7	0.00e+00	0	25	0	1232076800	68	4677
2026-01-08 00:34:32.77	198.16	17.16	-51.6	-53.4	14.7	0.00e+00	0	25	0	1234173952	68	4661
