passes_logs/2026/01/08/R3.2S_Murmansk/R3.2S_Murmansk__20260108_230304_FENGYUN_3D_rec.log

#Pass ID: 20260108_230304_FENGYUN 3D
#Satellite: FENGYUN 3D
#Configuration: FENGYUN 3D
#almurnet v.1.7.20251203
#Start time: 2026-01-08 23:03:05

#Version: 2.2.20231116
#Station: R3.2S_Murmansk
#Location: 33.079688 lon 68.888172 lat
#TLE: 1 43010U 17072A   26008.59015185 -.00000067  00000+0 -98204-5 0  9997
#TLE: 2 43010  98.9935 340.3069 0002117 119.1923 240.9464 14.19693468422340

#Time	Az	El	Level	Level2	SNR	BER	BlckErr	Temp	State	Recorded	gain1	gain2
2026-01-08 23:03:05.00	19.61	2.01	-57.1	-70.1	3.8	8.46e-01	0	22	0	0	80	16029
2026-01-08 23:03:06.01	19.72	2.05	-57.1	-70.0	3.8	8.45e-01	0	22	104	0	79	16802
2026-01-08 23:03:07.00	19.82	2.09	-57.1	-70.0	3.8	8.45e-01	0	22	104	0	79	16802
2026-01-08 23:03:08.01	19.93	2.13	-57.1	-69.9	3.8	8.46e-01	0	22	104	0	79	16559
2026-01-08 23:03:09.01	20.04	2.17	-57.1	-69.9	3.8	8.47e-01	0	22	104	0	79	16627
2026-01-08 23:03:10.02	20.15	2.21	-57.1	-69.8	3.8	8.45e-01	0	22	104	0	79	16482
2026-01-08 23:03:11.02	20.26	2.25	-57.1	-69.9	3.8	8.45e-01	0	22	104	0	79	16597
2026-01-08 23:03:12.01	20.36	2.29	-57.1	-69.9	3.8	8.45e-01	0	22	104	0	79	16548
2026-01-08 23:03:13.01	20.47	2.33	-57.1	-69.9	3.8	8.46e-01	0	22	104	0	79	16677
2026-01-08 23:03:14.01	20.58	2.37	-57.1	-69.9	3.8	8.46e-01	0	22	104	0	79	16577
2026-01-08 23:03:15.01	20.69	2.41	-57.1	-70.0	3.8	8.46e-01	0	22	104	0	79	16733
2026-01-08 23:03:16.01	20.80	2.45	-57.1	-70.0	3.8	8.44e-01	0	22	104	0	79	16710
2026-01-08 23:03:17.02	20.91	2.49	-57.1	-69.9	3.8	8.46e-01	0	22	104	0	79	16647
2026-01-08 23:03:18.02	21.02	2.53	-57.1	-69.9	3.8	8.45e-01	0	22	104	0	79	16575
2026-01-08 23:03:19.01	21.13	2.57	-57.1	-69.9	3.8	8.46e-01	0	22	104	0	79	16548
2026-01-08 23:03:20.01	21.24	2.61	-57.1	-69.8	3.8	8.46e-01	0	22	104	0	79	16351
2026-01-08 23:03:21.02	21.35	2.65	-57.1	-69.8	3.8	8.46e-01	0	22	104	0	79	16430
2026-01-08 23:03:22.02	21.46	2.69	-57.1	-69.8	3.8	8.46e-01	0	22	104	0	79	16356
2026-01-08 23:03:23.02	21.57	2.73	-57.1	-69.8	3.8	8.47e-01	0	22	104	0	79	16390
2026-01-08 23:03:24.02	21.68	2.77	-57.1	-69.9	3.8	8.44e-01	0	22	104	0	79	16514
2026-01-08 23:03:25.02	21.79	2.81	-57.1	-69.9	3.8	8.44e-01	0	22	104	0	79	16664
2026-01-08 23:03:26.02	21.90	2.85	-57.1	-69.9	3.8	8.45e-01	0	22	104	0	79	16675
2026-01-08 23:03:27.02	22.02	2.89	-57.1	-69.9	3.8	8.46e-01	0	22	104	0	79	16666
2026-01-08 23:03:28.03	22.13	2.93	-57.1	-69.9	3.8	8.45e-01	0	22	104	0	79	16655
2026-01-08 23:03:29.03	22.24	2.97	-57.1	-70.0	3.8	8.45e-01	0	22	104	0	79	16708
2026-01-08 23:03:30.02	22.35	3.01	-57.1	-70.0	3.8	8.46e-01	0	22	104	0	79	16724
2026-01-08 23:03:31.02	22.47	3.05	-57.1	-69.9	3.8	8.45e-01	0	23	104	0	79	16617
2026-01-08 23:03:32.02	22.58	3.09	-57.1	-69.9	3.8	8.46e-01	0	22	104	0	79	16526
2026-01-08 23:03:33.02	22.69	3.13	-57.1	-69.9	3.8	8.45e-01	0	23	104	0	79	16634
2026-01-08 23:03:34.02	22.81	3.17	-57.1	-69.9	3.8	8.45e-01	0	23	104	0	79	16622
2026-01-08 23:03:35.02	22.92	3.21	-57.1	-70.0	3.8	8.46e-01	0	23	104	0	79	16811
2026-01-08 23:03:36.02	23.04	3.24	-57.1	-70.0	3.8	8.46e-01	0	23	104	0	79	16886
2026-01-08 23:03:37.02	23.15	3.28	-57.1	-70.1	3.8	8.45e-01	0	23	104	0	79	16937
2026-01-08 23:03:38.02	23.27	3.32	-57.1	-70.1	3.8	8.45e-01	0	23	104	0	79	16952
2026-01-08 23:03:39.01	23.38	3.36	-57.1	-70.1	3.8	8.45e-01	0	23	104	0	79	17040
2026-01-08 23:03:40.01	23.50	3.40	-57.1	-70.2	3.8	8.45e-01	0	23	104	0	79	17124
2026-01-08 23:03:41.01	23.62	3.44	-57.1	-70.1	3.8	8.46e-01	0	23	104	0	79	17002
2026-01-08 23:03:42.00	23.73	3.48	-57.1	-70.1	3.8	8.45e-01	0	23	104	0	79	16945
2026-01-08 23:03:43.01	23.85	3.52	-57.1	-70.1	3.8	8.46e-01	0	23	104	0	79	16949
2026-01-08 23:03:44.00	23.96	3.56	-57.1	-69.9	3.8	8.46e-01	0	23	104	0	79	16656
2026-01-08 23:03:45.00	24.08	3.60	-57.1	-69.9	3.8	8.46e-01	0	23	104	0	79	16643
2026-01-08 23:03:45.99	24.20	3.63	-57.1	-70.0	3.8	8.45e-01	0	23	104	0	79	16768
2026-01-08 23:03:46.99	24.32	3.67	-57.1	-70.0	3.8	8.45e-01	0	23	104	0	79	16745
2026-01-08 23:03:47.99	24.43	3.71	-57.1	-70.1	3.8	8.45e-01	0	23	104	0	79	16990
2026-01-08 23:03:48.99	24.55	3.75	-57.1	-70.1	3.8	8.46e-01	0	23	104	0	79	17017
2026-01-08 23:03:50.00	24.67	3.79	-57.2	-70.1	3.8	8.46e-01	0	23	104	0	79	17081
2026-01-08 23:03:50.99	24.79	3.83	-57.1	-70.1	3.8	8.46e-01	0	23	104	0	79	16946
2026-01-08 23:03:51.99	24.91	3.87	-57.1	-70.0	3.8	8.46e-01	0	23	104	0	79	16792
2026-01-08 23:03:52.99	25.03	3.90	-57.1	-69.8	3.8	8.45e-01	0	23	104	0	79	16417
2026-01-08 23:03:53.99	25.15	3.94	-57.1	-69.9	3.8	8.46e-01	0	23	104	0	79	16681
2026-01-08 23:03:54.99	25.27	3.98	-57.1	-70.0	3.8	8.44e-01	0	23	104	0	79	16785
2026-01-08 23:03:56.00	25.39	4.02	-57.1	-70.0	3.8	8.45e-01	0	23	104	0	79	16884
2026-01-08 23:03:56.99	25.51	4.06	-57.1	-70.0	3.8	8.46e-01	0	23	104	0	79	16700
2026-01-08 23:03:57.99	25.63	4.10	-57.1	-69.8	3.8	8.45e-01	0	23	104	0	79	16473
2026-01-08 23:03:58.99	25.76	4.13	-57.1	-69.7	3.8	8.46e-01	0	23	104	0	79	16241
2026-01-08 23:03:59.99	25.88	4.17	-57.1	-69.8	3.8	8.45e-01	0	23	104	0	79	16485
2026-01-08 23:04:00.98	26.00	4.21	-57.1	-70.1	3.8	8.45e-01	0	23	104	0	79	16995
2026-01-08 23:04:01.98	26.12	4.25	-57.1	-70.1	3.8	8.46e-01	0	23	104	0	79	17075
2026-01-08 23:04:02.98	26.24	4.29	-57.2	-70.0	3.8	8.45e-01	0	23	104	0	79	16877
2026-01-08 23:04:03.98	26.37	4.32	-57.1	-69.7	3.8	8.45e-01	0	23	104	0	79	16132
2026-01-08 23:04:04.99	26.49	4.36	-57.1	-69.0	3.8	8.45e-01	0	23	104	0	79	14965
2026-01-08 23:04:05.99	26.62	4.40	-57.0	-68.2	3.8	8.45e-01	0	23	104	0	79	13706
2026-01-08 23:04:06.99	26.74	4.44	-57.0	-67.8	3.8	8.43e-01	0	23	104	0	79	12967
2026-01-08 23:04:07.98	26.86	4.48	-57.0	-67.9	3.8	8.43e-01	0	23	104	0	79	13241
2026-01-08 23:04:08.98	26.99	4.51	-56.9	-67.5	3.9	8.44e-01	0	23	104	0	79	12632
2026-01-08 23:04:09.98	27.11	4.55	-56.6	-64.9	4.8	8.31e-01	0	23	0	0	79	9286
2026-01-08 23:04:10.99	27.24	4.59	-55.9	-61.7	6.9	2.48e-01	0	23	0	3145728	78	6845
2026-01-08 23:04:11.99	27.36	4.63	-54.9	-59.1	9.2	3.29e-02	0	23	0	8388608	76	5663
2026-01-08 23:04:12.99	27.49	4.67	-53.8	-56.9	10.9	1.17e-03	0	23	0	14680064	74	4961
2026-01-08 23:04:13.99	27.62	4.70	-52.6	-55.1	12.2	2.97e-05	0	23	0	19922944	71	4779
2026-01-08 23:04:15.00	27.74	4.74	-51.8	-54.0	12.9	0.00e+00	0	23	0	25165824	70	4453
2026-01-08 23:04:16.00	27.87	4.78	-51.5	-53.6	13.1	0.00e+00	0	23	0	31457280	69	4517
2026-01-08 23:04:16.99	28.00	4.81	-51.8	-54.0	12.8	0.00e+00	0	23	0	36700160	69	4751
2026-01-08 23:04:17.99	28.12	4.85	-52.1	-54.4	12.5	0.00e+00	0	23	0	41943040	69	4929
2026-01-08 23:04:19.00	28.25	4.89	-52.7	-55.3	11.8	4.50e-06	0	23	0	48234496	70	5210
2026-01-08 23:04:20.00	28.38	4.93	-53.5	-56.6	11.0	2.06e-04	0	23	0	53477376	72	5344
2026-01-08 23:04:21.01	28.51	4.96	-54.3	-58.1	9.8	1.58e-03	0	23	0	59768832	73	6021
2026-01-08 23:04:22.00	28.64	5.00	-55.0	-59.6	8.6	1.91e-02	0	23	0	65011712	75	6368
2026-01-08 23:04:23.00	28.77	5.04	-50.9	-52.7	13.7	1.10e-06	0	23	0	70254592	68	4325
2026-01-08 23:04:24.00	28.90	5.07	-56.3	-64.8	4.7	4.58e-02	0	23	0	75497472	77	10353
2026-01-08 23:04:25.00	29.03	5.11	-55.3	-60.0	8.5	6.44e-03	0	23	0	79691776	75	6655
2026-01-08 23:04:26.00	29.16	5.15	-50.8	-52.6	13.8	6.80e-06	0	23	0	85983232	68	4256
2026-01-08 23:04:27.00	29.29	5.18	-56.5	-63.8	5.5	2.35e-01	0	23	0	91226112	78	8663
2026-01-08 23:04:27.99	29.42	5.22	-51.4	-53.3	13.4	1.47e-03	0	24	0	96468992	69	4367
2026-01-08 23:04:29.00	29.55	5.26	-50.1	-51.7	14.0	0.00e+00	0	23	0	101711872	66	4337
2026-01-08 23:04:30.00	29.68	5.29	-49.3	-50.8	14.5	0.00e+00	0	23	0	108003328	65	4125
2026-01-08 23:04:30.99	29.81	5.33	-48.7	-50.2	14.7	0.00e+00	0	23	0	113246208	64	4055
2026-01-08 23:04:32.00	29.94	5.37	-48.7	-50.1	14.6	0.00e+00	0	23	0	118489088	63	4281
2026-01-08 23:04:33.00	30.08	5.40	-48.7	-50.1	14.6	0.00e+00	0	23	0	124780544	63	4267
2026-01-08 23:04:34.00	30.21	5.44	-48.8	-50.2	14.5	0.00e+00	0	24	0	130023424	63	4322
2026-01-08 23:04:35.00	30.34	5.47	-48.6	-50.0	14.6	0.00e+00	0	23	0	135266304	63	4239
2026-01-08 23:04:36.00	30.47	5.51	-48.6	-50.1	14.7	0.00e+00	0	24	0	141557760	63	4245
2026-01-08 23:04:37.00	30.61	5.55	-48.5	-50.0	14.7	0.00e+00	0	23	0	146800640	63	4200
2026-01-08 23:04:38.00	30.74	5.58	-48.7	-50.1	14.6	0.00e+00	0	23	0	152043520	63	4271
2026-01-08 23:04:39.00	30.87	5.62	-48.6	-50.0	14.7	0.00e+00	0	23	0	158334976	63	4208
2026-01-08 23:04:39.98	31.01	5.65	-48.8	-50.2	14.6	0.00e+00	0	23	0	163577856	63	4327
2026-01-08 23:04:40.98	31.14	5.69	-48.8	-50.2	14.6	0.00e+00	0	23	0	169869312	63	4335
2026-01-08 23:04:41.98	31.28	5.72	-48.7	-50.2	14.6	0.00e+00	0	23	0	175112192	63	4301
2026-01-08 23:04:42.97	31.41	5.76	-48.9	-50.3	14.5	0.00e+00	0	24	0	180355072	63	4373
2026-01-08 23:04:43.97	31.55	5.79	-48.8	-50.2	14.6	0.00e+00	0	24	0	186646528	63	4323
2026-01-08 23:04:44.97	31.68	5.83	-49.0	-50.5	14.4	0.00e+00	0	24	0	191889408	63	4461
2026-01-08 23:04:45.96	31.82	5.86	-49.1	-50.6	14.3	0.00e+00	0	24	0	197132288	63	4520
2026-01-08 23:04:46.95	31.95	5.90	-48.9	-50.3	14.5	0.00e+00	0	23	0	202375168	63	4388
2026-01-08 23:04:47.95	32.09	5.93	-48.8	-50.3	14.5	0.00e+00	0	24	0	208666624	63	4355
2026-01-08 23:04:48.95	32.23	5.97	-48.8	-50.3	14.5	0.00e+00	0	24	0	213909504	63	4359
2026-01-08 23:04:49.96	32.36	6.00	-48.7	-50.2	14.6	0.00e+00	0	24	0	220200960	63	4301
2026-01-08 23:04:50.95	32.50	6.04	-48.7	-50.1	14.6	0.00e+00	0	24	0	225443840	63	4280
2026-01-08 23:04:51.95	32.64	6.07	-48.5	-49.9	14.8	0.00e+00	0	23	0	230686720	63	4151
2026-01-08 23:04:52.94	32.78	6.11	-48.5	-50.0	14.7	0.00e+00	0	24	0	236978176	63	4195
2026-01-08 23:04:53.94	32.92	6.14	-48.6	-49.9	14.7	0.00e+00	0	24	0	242221056	63	4191
2026-01-08 23:04:54.93	33.05	6.18	-48.5	-49.9	14.8	0.00e+00	0	24	0	247463936	63	4166
2026-01-08 23:04:55.93	33.19	6.21	-48.6	-50.0	14.7	0.00e+00	0	24	0	253755392	63	4219
2026-01-08 23:04:56.92	33.33	6.24	-48.7	-50.1	14.6	0.00e+00	0	24	0	258998272	63	4270
2026-01-08 23:04:57.92	33.47	6.28	-48.7	-50.1	14.6	0.00e+00	0	24	0	264241152	63	4282
2026-01-08 23:04:58.92	33.61	6.31	-48.6	-50.0	14.7	0.00e+00	0	24	0	270532608	63	4235
2026-01-08 23:04:59.91	33.75	6.35	-48.7	-50.2	14.6	0.00e+00	0	23	0	275775488	63	4294
2026-01-08 23:05:00.91	33.89	6.38	-48.6	-50.0	14.7	0.00e+00	0	24	0	281018368	63	4242
2026-01-08 23:05:01.90	34.03	6.41	-48.7	-50.2	14.6	0.00e+00	0	24	0	287309824	63	4303
2026-01-08 23:05:02.90	34.17	6.45	-48.7	-50.1	14.6	0.00e+00	0	24	0	292552704	63	4287
2026-01-08 23:05:03.91	34.32	6.48	-48.9	-50.3	14.5	0.00e+00	0	24	0	298844160	63	4377
2026-01-08 23:05:04.91	34.46	6.51	-48.8	-50.3	14.5	0.00e+00	0	24	0	304087040	63	4368
2026-01-08 23:05:05.91	34.60	6.55	-48.7	-50.1	14.7	0.00e+00	0	24	0	309329920	63	4268
2026-01-08 23:05:06.91	34.74	6.58	-48.6	-50.0	14.7	0.00e+00	0	24	0	315621376	63	4216
2026-01-08 23:05:07.90	34.89	6.61	-48.7	-50.2	14.6	0.00e+00	0	24	0	320864256	63	4307
2026-01-08 23:05:08.90	35.03	6.65	-48.5	-49.9	14.8	0.00e+00	0	24	0	326107136	63	4167
2026-01-08 23:05:09.91	35.17	6.68	-48.5	-49.9	14.8	0.00e+00	0	24	0	332398592	63	4154
2026-01-08 23:05:10.91	35.32	6.71	-48.4	-49.8	14.9	0.00e+00	0	24	0	337641472	63	4114
2026-01-08 23:05:11.91	35.46	6.74	-48.6	-50.0	14.7	0.00e+00	0	24	0	343932928	63	4233
2026-01-08 23:05:12.92	35.61	6.78	-48.5	-49.9	14.8	0.00e+00	0	24	0	349175808	63	4163
2026-01-08 23:05:13.91	35.75	6.81	-48.5	-49.9	14.8	0.00e+00	0	24	0	354418688	63	4167
2026-01-08 23:05:14.91	35.90	6.84	-48.4	-49.8	14.8	0.00e+00	0	24	0	360710144	63	4129
2026-01-08 23:05:15.91	36.04	6.87	-48.5	-49.8	14.8	0.00e+00	0	24	0	365953024	63	4130
2026-01-08 23:05:16.90	36.19	6.91	-48.5	-49.9	14.8	0.00e+00	0	24	0	371195904	63	4150
2026-01-08 23:05:17.89	36.33	6.94	-48.4	-49.7	14.9	0.00e+00	0	24	0	377487360	63	4092
2026-01-08 23:05:18.89	36.48	6.97	-48.3	-49.7	14.9	0.00e+00	0	24	0	382730240	63	4078
2026-01-08 23:05:19.90	36.63	7.00	-48.3	-49.7	14.9	0.00e+00	0	23	0	387973120	63	4052
2026-01-08 23:05:20.90	36.78	7.03	-48.3	-49.7	14.9	0.00e+00	0	24	0	394264576	63	4064
2026-01-08 23:05:21.90	36.92	7.06	-48.3	-49.7	14.9	0.00e+00	0	24	0	399507456	63	4059
2026-01-08 23:05:22.89	37.07	7.10	-48.2	-49.5	15.0	0.00e+00	0	24	0	404750336	63	3996
2026-01-08 23:05:23.89	37.22	7.13	-48.2	-49.5	15.0	0.00e+00	0	24	0	411041792	63	4000
2026-01-08 23:05:24.89	37.37	7.16	-48.0	-49.3	14.9	0.00e+00	0	24	0	416284672	62	4128
2026-01-08 23:05:25.89	37.52	7.19	-48.0	-49.3	14.9	0.00e+00	0	24	0	421527552	62	4104
2026-01-08 23:05:26.89	37.66	7.22	-47.8	-49.1	15.1	0.00e+00	0	24	0	427819008	62	4032
2026-01-08 23:05:27.89	37.81	7.25	-48.0	-49.3	15.0	0.00e+00	0	24	0	433061888	62	4113
2026-01-08 23:05:28.89	37.96	7.28	-48.0	-49.3	14.9	0.00e+00	0	24	0	439353344	62	4123
2026-01-08 23:05:29.89	38.11	7.31	-48.1	-49.4	14.9	0.00e+00	0	24	0	444596224	62	4189
2026-01-08 23:05:30.89	38.26	7.34	-48.0	-49.3	14.9	0.00e+00	0	24	0	449839104	62	4140
2026-01-08 23:05:31.89	38.41	7.37	-48.1	-49.5	14.8	0.00e+00	0	24	0	456130560	62	4202
2026-01-08 23:05:32.88	38.56	7.40	-48.2	-49.6	14.8	0.00e+00	0	24	0	461373440	62	4252
2026-01-08 23:05:33.88	38.72	7.43	-48.2	-49.5	14.9	0.00e+00	0	24	0	466616320	62	4215
2026-01-08 23:05:34.89	38.87	7.46	-48.1	-49.4	14.9	0.00e+00	0	24	0	472907776	62	4193
2026-01-08 23:05:35.88	39.02	7.49	-48.2	-49.5	14.9	0.00e+00	0	24	0	478150656	62	4215
2026-01-08 23:05:36.88	39.17	7.52	-48.2	-49.5	14.8	0.00e+00	0	24	0	483393536	62	4226
2026-01-08 23:05:37.88	39.32	7.55	-48.1	-49.4	14.9	0.00e+00	0	24	0	489684992	62	4186
2026-01-08 23:05:38.88	39.48	7.58	-48.2	-49.5	14.9	0.00e+00	0	24	0	494927872	62	4216
2026-01-08 23:05:39.88	39.63	7.61	-48.0	-49.3	14.9	0.00e+00	0	24	0	501219328	62	4140
2026-01-08 23:05:40.88	39.78	7.64	-48.1	-49.4	14.9	0.00e+00	0	24	0	506462208	62	4182
2026-01-08 23:05:41.88	39.94	7.67	-48.1	-49.4	14.9	0.00e+00	0	24	0	511705088	62	4168
2026-01-08 23:05:42.87	40.09	7.70	-48.1	-49.4	14.9	0.00e+00	0	24	0	517996544	62	4156
2026-01-08 23:05:43.87	40.24	7.72	-47.9	-49.2	15.0	0.00e+00	0	24	0	523239424	62	4067
2026-01-08 23:05:44.87	40.40	7.75	-48.0	-49.3	15.0	0.00e+00	0	24	0	528482304	62	4115
2026-01-08 23:05:45.86	40.55	7.78	-48.0	-49.3	14.9	0.00e+00	0	24	0	534773760	62	4128
2026-01-08 23:05:46.87	40.71	7.81	-48.1	-49.4	14.9	0.00e+00	0	24	0	540016640	62	4191
2026-01-08 23:05:47.86	40.86	7.84	-48.2	-49.5	14.8	0.00e+00	0	24	0	545259520	62	4238
2026-01-08 23:05:48.86	41.02	7.86	-48.2	-49.6	14.8	0.00e+00	0	24	0	551550976	62	4257
2026-01-08 23:05:49.85	41.17	7.89	-48.2	-49.5	14.9	0.00e+00	0	24	0	556793856	62	4222
2026-01-08 23:05:50.84	41.33	7.92	-48.2	-49.6	14.8	0.00e+00	0	24	0	562036736	62	4258
2026-01-08 23:05:51.83	41.48	7.95	-48.2	-49.5	14.9	0.00e+00	0	24	0	568328192	62	4217
2026-01-08 23:05:52.83	41.64	7.97	-48.0	-49.4	14.9	0.00e+00	0	24	0	573571072	62	4147
2026-01-08 23:05:53.83	41.79	8.00	-48.0	-49.3	15.0	0.00e+00	0	24	0	578813952	62	4116
2026-01-08 23:05:54.82	41.95	8.03	-48.0	-49.3	14.9	0.00e+00	0	24	0	585105408	62	4119
2026-01-08 23:05:55.82	42.11	8.05	-48.0	-49.3	15.0	0.00e+00	0	24	0	590348288	62	4119
2026-01-08 23:05:56.82	42.27	8.08	-48.0	-49.3	15.0	0.00e+00	0	24	0	595591168	62	4109
2026-01-08 23:05:57.81	42.42	8.11	-48.0	-49.3	15.0	0.00e+00	0	24	0	601882624	62	4110
2026-01-08 23:05:58.81	42.58	8.13	-48.1	-49.4	14.9	0.00e+00	0	24	0	607125504	62	4175
2026-01-08 23:05:59.81	42.74	8.16	-48.1	-49.4	14.9	0.00e+00	0	24	0	613416960	62	4181
2026-01-08 23:06:00.81	42.90	8.19	-48.1	-49.4	14.9	0.00e+00	0	24	0	618659840	62	4176
2026-01-08 23:06:01.81	43.06	8.21	-48.1	-49.4	15.0	0.00e+00	0	24	0	623902720	62	4169
2026-01-08 23:06:02.81	43.22	8.24	-48.1	-49.4	14.9	0.00e+00	0	24	0	630194176	62	4183
2026-01-08 23:06:03.80	43.38	8.26	-48.0	-49.4	15.0	0.00e+00	0	24	0	635437056	62	4148
2026-01-08 23:06:04.80	43.54	8.29	-48.0	-49.3	15.0	0.00e+00	0	24	0	640679936	62	4132
2026-01-08 23:06:05.80	43.70	8.31	-47.9	-49.2	15.0	0.00e+00	0	24	0	645922816	62	4076
2026-01-08 23:06:06.80	43.86	8.34	-48.0	-49.3	15.0	0.00e+00	0	24	0	652214272	62	4109
2026-01-08 23:06:07.79	44.02	8.36	-47.8	-49.1	15.1	0.00e+00	0	24	0	657457152	62	4030
2026-01-08 23:06:08.78	44.18	8.39	-47.9	-49.2	15.1	0.00e+00	0	24	0	663748608	62	4063
2026-01-08 23:06:09.78	44.34	8.41	-47.8	-49.1	15.1	0.00e+00	0	24	0	668991488	62	4043
2026-01-08 23:06:10.78	44.50	8.44	-48.0	-49.3	15.0	0.00e+00	0	24	0	674234368	62	4117
2026-01-08 23:06:11.78	44.66	8.46	-48.0	-49.3	15.0	0.00e+00	0	24	0	680525824	62	4139
2026-01-08 23:06:12.78	44.82	8.49	-48.0	-49.4	15.0	0.00e+00	0	24	0	685768704	62	4152
2026-01-08 23:06:13.78	44.99	8.51	-48.0	-49.3	15.0	0.00e+00	0	24	0	691011584	62	4143
2026-01-08 23:06:14.79	45.15	8.53	-48.1	-49.4	14.9	0.00e+00	0	24	0	697303040	62	4163
2026-01-08 23:06:15.79	45.31	8.56	-48.1	-49.4	14.9	0.00e+00	0	24	0	702545920	62	4168
2026-01-08 23:06:16.79	45.48	8.58	-48.0	-49.4	14.9	0.00e+00	0	24	0	707788800	62	4160
2026-01-08 23:06:17.79	45.64	8.60	-48.1	-49.4	14.9	0.00e+00	0	24	0	714080256	62	4186
2026-01-08 23:06:18.79	45.80	8.63	-48.0	-49.4	14.9	0.00e+00	0	24	0	719323136	62	4157
2026-01-08 23:06:19.78	45.97	8.65	-48.0	-49.3	15.0	0.00e+00	0	24	0	725614592	62	4123
2026-01-08 23:06:20.78	46.13	8.67	-48.0	-49.3	15.0	0.00e+00	0	24	0	730857472	62	4129
2026-01-08 23:06:21.78	46.29	8.69	-48.0	-49.3	15.0	0.00e+00	0	24	0	736100352	62	4120
2026-01-08 23:06:22.78	46.46	8.72	-48.0	-49.3	15.0	0.00e+00	0	24	0	742391808	62	4123
2026-01-08 23:06:23.78	46.62	8.74	-47.7	-49.0	15.1	0.00e+00	0	24	0	747634688	62	3996
2026-01-08 23:06:24.79	46.79	8.76	-47.6	-48.9	15.0	0.00e+00	0	24	0	752877568	61	4180
2026-01-08 23:06:25.79	46.96	8.78	-47.5	-48.8	15.1	0.00e+00	0	24	0	759169024	61	4111
2026-01-08 23:06:26.79	47.12	8.80	-47.5	-48.7	15.1	0.00e+00	0	24	0	764411904	61	4082
2026-01-08 23:06:27.79	47.29	8.83	-47.6	-48.8	15.0	0.00e+00	0	24	0	769654784	61	4134
2026-01-08 23:06:28.79	47.45	8.85	-47.7	-48.9	15.0	0.00e+00	0	24	0	775946240	61	4188
2026-01-08 23:06:29.78	47.62	8.87	-47.7	-49.0	15.0	0.00e+00	0	24	0	781189120	61	4199
2026-01-08 23:06:30.78	47.79	8.89	-47.7	-49.0	15.0	0.00e+00	0	24	0	787480576	61	4221
2026-01-08 23:06:31.77	47.95	8.91	-47.5	-48.8	15.1	0.00e+00	0	24	0	792723456	61	4124
2026-01-08 23:06:32.77	48.12	8.93	-47.5	-48.8	15.1	0.00e+00	0	24	0	797966336	61	4128
2026-01-08 23:06:33.78	48.29	8.95	-47.7	-49.0	15.0	0.00e+00	0	24	0	804257792	61	4218
2026-01-08 23:06:34.78	48.46	8.97	-47.7	-49.0	15.0	0.00e+00	0	24	0	809500672	61	4194
2026-01-08 23:06:35.77	48.62	8.99	-47.7	-49.0	14.9	0.00e+00	0	24	0	814743552	61	4222
2026-01-08 23:06:36.77	48.79	9.01	-47.7	-49.0	15.0	0.00e+00	0	24	0	821035008	61	4198
2026-01-08 23:06:37.77	48.96	9.03	-47.6	-48.9	15.0	0.00e+00	0	24	0	826277888	61	4171
2026-01-08 23:06:38.77	49.13	9.05	-47.4	-48.7	15.1	0.00e+00	0	24	0	831520768	61	4073
2026-01-08 23:06:39.77	49.30	9.07	-47.4	-48.6	15.2	0.00e+00	0	24	0	837812224	61	4047
2026-01-08 23:06:40.77	49.46	9.08	-47.4	-48.7	15.2	0.00e+00	0	24	0	843055104	61	4054
2026-01-08 23:06:41.76	49.63	9.10	-47.4	-48.7	15.1	0.00e+00	0	24	0	849346560	61	4055
2026-01-08 23:06:42.76	49.80	9.12	-47.3	-48.6	15.2	0.00e+00	0	24	0	854589440	61	4007
2026-01-08 23:06:43.76	49.97	9.14	-47.4	-48.6	15.2	0.00e+00	0	24	0	859832320	61	4032
2026-01-08 23:06:44.76	50.14	9.16	-47.5	-48.7	15.1	0.00e+00	0	24	0	865075200	61	4092
2026-01-08 23:06:45.75	50.31	9.18	-47.5	-48.7	15.1	0.00e+00	0	24	0	871366656	61	4094
2026-01-08 23:06:46.75	50.48	9.19	-47.7	-49.0	15.0	0.00e+00	0	24	0	876609536	61	4204
2026-01-08 23:06:47.74	50.65	9.21	-47.7	-48.9	15.0	0.00e+00	0	24	0	881852416	61	4193
2026-01-08 23:06:48.74	50.82	9.23	-47.7	-49.0	15.0	0.00e+00	0	24	0	888143872	61	4218
2026-01-08 23:06:49.74	50.99	9.24	-47.7	-49.0	14.9	0.00e+00	0	24	0	893386752	61	4241
2026-01-08 23:06:50.73	51.16	9.26	-47.8	-49.1	14.9	0.00e+00	0	24	0	899678208	61	4281
2026-01-08 23:06:51.73	51.33	9.28	-47.6	-48.8	15.1	0.00e+00	0	24	0	904921088	61	4135
2026-01-08 23:06:52.72	51.50	9.29	-47.5	-48.8	15.1	0.00e+00	0	24	0	910163968	61	4117
2026-01-08 23:06:53.73	51.67	9.31	-47.5	-48.8	15.1	0.00e+00	0	24	0	916455424	61	4103
2026-01-08 23:06:54.72	51.84	9.33	-47.6	-48.9	15.0	0.00e+00	0	24	0	921698304	61	4156
2026-01-08 23:06:55.72	52.01	9.34	-47.6	-48.8	15.0	0.00e+00	0	24	0	926941184	61	4133
2026-01-08 23:06:56.72	52.19	9.36	-47.5	-48.7	15.1	0.00e+00	0	24	0	933232640	61	4083
2026-01-08 23:06:57.71	52.36	9.37	-47.5	-48.7	15.1	0.00e+00	0	24	0	938475520	61	4083
2026-01-08 23:06:58.71	52.53	9.39	-47.5	-48.8	15.1	0.00e+00	0	24	0	944766976	61	4104
2026-01-08 23:06:59.70	52.70	9.40	-47.4	-48.6	15.2	0.00e+00	0	24	0	950009856	61	4042
2026-01-08 23:07:00.70	52.87	9.42	-47.4	-48.6	15.2	0.00e+00	0	24	0	955252736	61	4031
2026-01-08 23:07:01.69	53.04	9.43	-47.4	-48.7	15.1	0.00e+00	0	24	0	960495616	61	4058
2026-01-08 23:07:02.68	53.21	9.45	-47.4	-48.7	15.1	0.00e+00	0	24	0	966787072	61	4058
2026-01-08 23:07:03.68	53.39	9.46	-47.6	-48.8	15.1	0.00e+00	0	24	0	972029952	61	4144
2026-01-08 23:07:04.68	53.56	9.47	-47.7	-48.9	15.0	0.00e+00	0	24	0	977272832	61	4189
2026-01-08 23:07:05.68	53.73	9.49	-47.7	-49.0	15.0	0.00e+00	0	24	0	983564288	61	4226
2026-01-08 23:07:06.68	53.91	9.50	-47.6	-48.9	15.0	0.00e+00	0	24	0	988807168	61	4187
2026-01-08 23:07:07.68	54.08	9.51	-47.5	-48.8	15.1	0.00e+00	0	24	0	995098624	61	4107
2026-01-08 23:07:08.68	54.26	9.53	-47.6	-48.9	15.1	0.00e+00	0	24	0	1000341504	61	4149
2026-01-08 23:07:09.68	54.43	9.54	-47.5	-48.7	15.1	0.00e+00	0	24	0	1005584384	61	4089
2026-01-08 23:07:10.69	54.61	9.55	-47.5	-48.7	15.1	0.00e+00	0	24	0	1011875840	61	4092
2026-01-08 23:07:11.69	54.78	9.56	-47.6	-48.8	15.0	0.00e+00	0	24	0	1017118720	61	4145
2026-01-08 23:07:12.69	54.96	9.58	-47.5	-48.8	15.1	0.00e+00	0	24	0	1022361600	61	4127
2026-01-08 23:07:13.68	55.13	9.59	-47.6	-48.8	15.1	0.00e+00	0	24	0	1028653056	61	4131
2026-01-08 23:07:14.68	55.30	9.60	-47.5	-48.8	15.1	0.00e+00	0	24	0	1033895936	61	4115
2026-01-08 23:07:15.67	55.48	9.61	-47.6	-48.9	15.0	0.00e+00	0	24	0	1039138816	61	4175
2026-01-08 23:07:16.67	55.65	9.62	-47.6	-48.9	15.0	0.00e+00	0	24	0	1045430272	61	4170
2026-01-08 23:07:17.67	55.83	9.63	-47.7	-48.9	15.0	0.00e+00	0	24	0	1050673152	61	4192
2026-01-08 23:07:18.66	56.00	9.64	-47.6	-48.9	15.0	0.00e+00	0	24	0	1056964608	61	4154
2026-01-08 23:07:19.65	56.18	9.65	-47.6	-48.8	15.1	0.00e+00	0	24	0	1062207488	61	4144
2026-01-08 23:07:20.65	56.35	9.66	-47.5	-48.8	15.1	0.00e+00	0	24	0	1067450368	61	4099
2026-01-08 23:07:21.66	56.53	9.67	-47.5	-48.8	15.1	0.00e+00	0	24	0	1072693248	61	4103
2026-01-08 23:07:22.65	56.70	9.68	-47.4	-48.6	15.2	0.00e+00	0	24	0	1078984704	61	4031
2026-01-08 23:07:23.66	56.88	9.69	-47.3	-48.6	15.2	0.00e+00	0	24	0	1084227584	61	4009
2026-01-08 23:07:24.65	57.05	9.70	-47.4	-48.7	15.1	0.00e+00	0	24	0	1089470464	61	4058
2026-01-08 23:07:25.65	57.23	9.71	-47.3	-48.5	15.2	0.00e+00	0	24	0	1095761920	61	4000
2026-01-08 23:07:26.64	57.41	9.72	-47.4	-48.6	15.1	0.00e+00	0	24	0	1101004800	61	4031
2026-01-08 23:07:27.65	57.58	9.73	-47.4	-48.6	15.2	0.00e+00	0	24	0	1106247680	61	4050
2026-01-08 23:07:28.64	57.76	9.74	-47.5	-48.8	15.1	0.00e+00	0	24	0	1112539136	61	4100
2026-01-08 23:07:29.64	57.94	9.75	-47.5	-48.8	15.1	0.00e+00	0	24	0	1117782016	61	4109
2026-01-08 23:07:30.64	58.11	9.75	-47.6	-48.9	15.0	0.00e+00	0	24	0	1124073472	61	4155
2026-01-08 23:07:31.64	58.29	9.76	-47.8	-49.0	14.9	0.00e+00	0	24	0	1129316352	61	4239
2026-01-08 23:07:32.64	58.47	9.77	-47.7	-49.0	15.0	0.00e+00	0	24	0	1134559232	61	4198
2026-01-08 23:07:33.64	58.64	9.78	-47.7	-49.0	15.0	0.00e+00	0	24	0	1140850688	61	4235
2026-01-08 23:07:34.64	58.82	9.78	-47.8	-49.0	14.9	0.00e+00	0	24	0	1146093568	61	4239
2026-01-08 23:07:35.64	59.00	9.79	-47.6	-48.9	15.0	0.00e+00	0	24	0	1151336448	61	4186
2026-01-08 23:07:36.65	59.18	9.80	-47.5	-48.8	15.1	0.00e+00	0	24	0	1157627904	61	4123
2026-01-08 23:07:37.65	59.35	9.80	-47.5	-48.8	15.1	0.00e+00	0	24	0	1162870784	61	4121
2026-01-08 23:07:38.65	59.53	9.81	-47.5	-48.7	15.1	0.00e+00	0	24	0	1169162240	61	4085
2026-01-08 23:07:39.65	59.71	9.81	-47.4	-48.7	15.2	0.00e+00	0	24	0	1174405120	61	4054
2026-01-08 23:07:40.65	59.89	9.82	-47.4	-48.6	15.1	0.00e+00	0	24	0	1179648000	61	4051
2026-01-08 23:07:41.65	60.06	9.82	-47.4	-48.6	15.2	0.00e+00	0	24	0	1185939456	61	4050
2026-01-08 23:07:42.64	60.24	9.83	-47.4	-48.6	15.2	0.00e+00	0	24	0	1191182336	61	4046
2026-01-08 23:07:43.64	60.42	9.83	-47.4	-48.6	15.1	0.00e+00	0	24	0	1196425216	61	4036
2026-01-08 23:07:44.63	60.59	9.84	-47.3	-48.5	15.2	0.00e+00	0	24	0	1202716672	61	3997
2026-01-08 23:07:45.64	60.77	9.84	-47.4	-48.6	15.1	0.00e+00	0	24	0	1207959552	61	4036
2026-01-08 23:07:46.64	60.95	9.85	-47.5	-48.7	15.1	0.00e+00	0	24	0	1213202432	61	4097
2026-01-08 23:07:47.62	61.13	9.85	-47.5	-48.7	15.1	0.00e+00	0	24	0	1219493888	61	4096
2026-01-08 23:07:48.62	61.30	9.85	-47.5	-48.8	15.1	0.00e+00	0	24	0	1224736768	61	4128
2026-01-08 23:07:49.61	61.48	9.86	-47.6	-48.9	15.1	0.00e+00	0	24	0	1231028224	61	4147
2026-01-08 23:07:50.61	61.66	9.86	-47.6	-48.9	15.0	0.00e+00	0	24	0	1236271104	61	4163
2026-01-08 23:07:51.61	61.84	9.86	-47.5	-48.8	15.1	0.00e+00	0	24	0	1241513984	61	4133
2026-01-08 23:07:52.60	62.01	9.87	-47.4	-48.6	15.1	0.00e+00	0	24	0	1246756864	61	4038
2026-01-08 23:07:53.61	62.19	9.87	-47.5	-48.7	15.1	0.00e+00	0	24	0	1253048320	61	4077
2026-01-08 23:07:54.61	62.37	9.87	-47.5	-48.8	15.1	0.00e+00	0	24	0	1258291200	61	4111
2026-01-08 23:07:55.61	62.55	9.87	-47.4	-48.7	15.1	0.00e+00	0	24	0	1264582656	61	4055
2026-01-08 23:07:56.60	62.73	9.88	-47.4	-48.6	15.1	0.00e+00	0	24	0	1269825536	61	4048
2026-01-08 23:07:57.60	62.90	9.88	-47.6	-48.8	15.1	0.00e+00	0	24	0	1275068416	61	4137
2026-01-08 23:07:58.60	63.08	9.88	-47.5	-48.8	15.1	0.00e+00	0	24	0	1281359872	61	4111
2026-01-08 23:07:59.59	63.26	9.88	-47.6	-48.9	15.0	0.00e+00	0	24	0	1286602752	61	4171
2026-01-08 23:08:00.59	63.44	9.88	-47.7	-49.0	15.0	0.00e+00	0	24	0	1291845632	61	4219
2026-01-08 23:08:01.59	63.62	9.88	-47.7	-49.0	15.0	0.00e+00	0	24	0	1298137088	61	4196
2026-01-08 23:08:02.59	63.79	9.88	-47.6	-48.9	15.0	0.00e+00	0	24	0	1303379968	61	4151
2026-01-08 23:08:03.59	63.97	9.88	-47.7	-49.0	15.0	0.00e+00	0	24	0	1308622848	61	4199
2026-01-08 23:08:04.59	64.15	9.88	-47.5	-48.8	15.1	0.00e+00	0	24	0	1314914304	61	4108
2026-01-08 23:08:05.58	64.33	9.88	-47.6	-48.9	15.0	0.00e+00	0	24	0	1320157184	61	4167
2026-01-08 23:08:06.58	64.51	9.88	-47.5	-48.8	15.1	0.00e+00	0	24	0	1325400064	61	4101
2026-01-08 23:08:07.58	64.68	9.88	-47.6	-48.9	15.1	0.00e+00	0	24	0	1331691520	61	4156
2026-01-08 23:08:08.59	64.86	9.88	-47.4	-48.7	15.1	0.00e+00	0	24	0	1336934400	61	4080
2026-01-08 23:08:09.58	65.04	9.88	-47.5	-48.8	15.1	0.00e+00	0	24	0	1343225856	61	4129
2026-01-08 23:08:10.58	65.22	9.87	-47.5	-48.7	15.1	0.00e+00	0	24	0	1348468736	61	4094
2026-01-08 23:08:11.58	65.40	9.87	-47.5	-48.7	15.1	0.00e+00	0	24	0	1353711616	61	4085
2026-01-08 23:08:12.58	65.58	9.87	-47.4	-48.7	15.1	0.00e+00	0	24	0	1360003072	61	4074
2026-01-08 23:08:13.58	65.75	9.87	-47.6	-48.9	15.0	0.00e+00	0	24	0	1365245952	61	4149
2026-01-08 23:08:14.57	65.93	9.86	-47.6	-48.9	15.0	0.00e+00	0	24	0	1370488832	61	4167
2026-01-08 23:08:15.57	66.11	9.86	-47.5	-48.8	15.1	0.00e+00	0	24	0	1376780288	61	4118
2026-01-08 23:08:16.56	66.29	9.86	-47.5	-48.8	15.1	0.00e+00	0	24	0	1382023168	61	4112
2026-01-08 23:08:17.56	66.46	9.86	-47.3	-48.6	15.2	0.00e+00	0	24	0	1387266048	61	4019
2026-01-08 23:08:18.57	66.64	9.85	-47.5	-48.7	15.1	0.00e+00	0	24	0	1393557504	61	4079
2026-01-08 23:08:19.56	66.82	9.85	-47.5	-48.7	15.1	0.00e+00	0	24	0	1398800384	61	4075
2026-01-08 23:08:20.56	67.00	9.84	-47.6	-48.8	15.0	0.00e+00	0	24	0	1405091840	61	4134
2026-01-08 23:08:21.56	67.18	9.84	-47.6	-48.8	15.0	0.00e+00	0	24	0	1410334720	61	4122
2026-01-08 23:08:22.55	67.35	9.84	-47.5	-48.8	15.1	0.00e+00	0	24	0	1415577600	61	4131
2026-01-08 23:08:23.55	67.53	9.83	-47.6	-48.9	15.0	0.00e+00	0	24	0	1420820480	61	4175
2026-01-08 23:08:24.54	67.71	9.83	-47.7	-49.0	14.9	0.00e+00	0	24	0	1427111936	61	4237
2026-01-08 23:08:25.54	67.88	9.82	-47.7	-49.0	15.0	0.00e+00	0	24	0	1432354816	61	4212
2026-01-08 23:08:26.53	68.06	9.81	-47.7	-49.0	15.0	0.00e+00	0	24	0	1437597696	61	4198
2026-01-08 23:08:27.53	68.24	9.81	-47.6	-48.9	15.0	0.00e+00	0	24	0	1443889152	61	4175
2026-01-08 23:08:28.54	68.42	9.80	-47.8	-49.1	14.9	0.00e+00	0	24	0	1449132032	61	4264
2026-01-08 23:08:29.54	68.59	9.80	-47.7	-49.0	14.9	0.00e+00	0	24	0	1455423488	61	4241
2026-01-08 23:08:30.54	68.77	9.79	-47.7	-49.0	15.0	0.00e+00	0	24	0	1460666368	61	4216
2026-01-08 23:08:31.54	68.95	9.78	-47.6	-48.9	15.0	0.00e+00	0	24	0	1465909248	61	4156
2026-01-08 23:08:32.54	69.13	9.78	-47.5	-48.8	15.0	0.00e+00	0	24	0	1472200704	61	4122
2026-01-08 23:08:33.54	69.30	9.77	-47.6	-48.9	15.0	0.00e+00	0	24	0	1477443584	61	4171
2026-01-08 23:08:34.55	69.48	9.76	-47.7	-49.0	15.0	0.00e+00	0	24	0	1482686464	61	4199
2026-01-08 23:08:35.54	69.66	9.75	-47.7	-49.1	14.9	0.00e+00	0	24	0	1488977920	61	4245
2026-01-08 23:08:36.54	69.83	9.75	-47.6	-48.9	15.0	0.00e+00	0	24	0	1494220800	61	4158
2026-01-08 23:08:37.53	70.01	9.74	-47.6	-48.9	15.0	0.00e+00	0	24	0	1500512256	61	4183
2026-01-08 23:08:38.53	70.19	9.73	-47.5	-48.8	15.1	0.00e+00	0	24	0	1505755136	61	4111
2026-01-08 23:08:39.53	70.36	9.72	-47.5	-48.7	15.1	0.00e+00	0	24	0	1510998016	61	4076
2026-01-08 23:08:40.53	70.54	9.71	-47.3	-48.6	15.1	0.00e+00	0	24	0	1517289472	61	4022
2026-01-08 23:08:41.53	70.72	9.70	-47.4	-48.6	15.2	0.00e+00	0	24	0	1522532352	61	4030
2026-01-08 23:08:42.53	70.89	9.69	-47.4	-48.7	15.1	0.00e+00	0	24	0	1527775232	61	4055
2026-01-08 23:08:43.53	71.07	9.68	-47.4	-48.6	15.1	0.00e+00	0	24	0	1534066688	61	4046
2026-01-08 23:08:44.52	71.24	9.67	-47.3	-48.5	15.2	0.00e+00	0	24	0	1539309568	61	3979
2026-01-08 23:08:45.53	71.42	9.66	-47.4	-48.7	15.1	0.00e+00	0	24	0	1544552448	61	4063
2026-01-08 23:08:46.53	71.60	9.65	-47.5	-48.8	15.1	0.00e+00	0	24	0	1550843904	61	4104
2026-01-08 23:08:47.52	71.77	9.64	-47.6	-48.9	15.0	0.00e+00	0	24	0	1556086784	61	4148
2026-01-08 23:08:48.52	71.95	9.63	-47.7	-49.0	14.9	0.00e+00	0	24	0	1562378240	61	4235
2026-01-08 23:08:49.52	72.12	9.62	-47.7	-48.9	15.0	0.00e+00	0	24	0	1567621120	61	4193
2026-01-08 23:08:50.51	72.30	9.61	-47.6	-48.9	15.0	0.00e+00	0	24	0	1572864000	61	4189
2026-01-08 23:08:51.50	72.47	9.60	-47.6	-48.9	15.0	0.00e+00	0	24	0	1578106880	61	4154
2026-01-08 23:08:52.50	72.64	9.59	-47.6	-48.9	15.0	0.00e+00	0	24	0	1584398336	61	4154
2026-01-08 23:08:53.51	72.82	9.58	-47.5	-48.8	15.1	0.00e+00	0	24	0	1589641216	61	4099
2026-01-08 23:08:54.51	73.00	9.56	-47.5	-48.7	15.1	0.00e+00	0	24	0	1595932672	61	4088
2026-01-08 23:08:55.51	73.17	9.55	-47.5	-48.7	15.1	0.00e+00	0	24	0	1601175552	61	4077
2026-01-08 23:08:56.50	73.34	9.54	-47.5	-48.8	15.1	0.00e+00	0	24	0	1606418432	61	4099
2026-01-08 23:08:57.50	73.52	9.53	-47.6	-48.8	15.0	0.00e+00	0	24	0	1612709888	61	4139
2026-01-08 23:08:58.50	73.69	9.51	-47.6	-48.9	15.0	0.00e+00	0	24	0	1617952768	61	4163
2026-01-08 23:08:59.49	73.87	9.50	-47.6	-48.9	15.0	0.00e+00	0	24	0	1623195648	61	4177
2026-01-08 23:09:00.49	74.04	9.49	-47.7	-48.9	15.0	0.00e+00	0	24	0	1629487104	61	4193
2026-01-08 23:09:01.49	74.21	9.47	-47.7	-49.0	14.9	0.00e+00	0	24	0	1634729984	61	4221
2026-01-08 23:09:02.49	74.39	9.46	-47.7	-49.0	15.0	0.00e+00	0	24	0	1639972864	61	4213
2026-01-08 23:09:03.49	74.56	9.45	-47.7	-49.0	15.0	0.00e+00	0	24	0	1646264320	61	4212
2026-01-08 23:09:04.48	74.73	9.43	-47.7	-49.0	15.0	0.00e+00	0	24	0	1651507200	61	4202
2026-01-08 23:09:05.48	74.91	9.42	-47.7	-49.0	15.0	0.00e+00	0	24	0	1656750080	61	4226
2026-01-08 23:09:06.48	75.08	9.40	-47.8	-49.2	14.9	0.00e+00	0	24	0	1663041536	61	4295
2026-01-08 23:09:07.48	75.25	9.39	-47.7	-49.1	14.9	0.00e+00	0	24	0	1668284416	61	4280
2026-01-08 23:09:08.47	75.42	9.37	-47.7	-49.2	14.8	0.00e+00	0	24	0	1674575872	61	4303
2026-01-08 23:09:09.47	75.60	9.36	-47.7	-49.2	14.8	0.00e+00	0	24	0	1679818752	61	4296
2026-01-08 23:09:10.47	75.77	9.34	-47.6	-49.0	14.9	0.00e+00	0	24	0	1685061632	61	4224
2026-01-08 23:09:11.46	75.94	9.33	-47.7	-49.2	14.8	0.00e+00	0	24	0	1691353088	61	4293
2026-01-08 23:09:12.46	76.11	9.31	-47.6	-49.1	14.9	0.00e+00	0	24	0	1696595968	61	4256
2026-01-08 23:09:13.47	76.28	9.29	-47.7	-49.2	14.8	0.00e+00	0	24	0	1701838848	61	4302
2026-01-08 23:09:14.47	76.46	9.28	-47.6	-49.1	14.9	0.00e+00	0	24	0	1708130304	61	4262
2026-01-08 23:09:15.47	76.63	9.26	-47.7	-49.2	14.8	0.00e+00	0	24	0	1713373184	61	4297
2026-01-08 23:09:16.46	76.80	9.24	-47.7	-49.2	14.8	0.00e+00	0	24	0	1718616064	61	4313
2026-01-08 23:09:17.46	76.97	9.23	-47.7	-49.2	14.8	0.00e+00	0	24	0	1724907520	61	4313
2026-01-08 23:09:18.46	77.14	9.21	-47.7	-49.1	14.9	0.00e+00	0	24	0	1730150400	61	4278
2026-01-08 23:09:19.47	77.31	9.19	-47.7	-49.2	14.8	0.00e+00	0	24	0	1736441856	61	4294
2026-01-08 23:09:20.46	77.48	9.18	-47.7	-49.2	14.8	0.00e+00	0	24	0	1741684736	61	4314
2026-01-08 23:09:21.46	77.65	9.16	-47.6	-49.1	14.9	0.00e+00	0	24	0	1746927616	61	4259
2026-01-08 23:09:22.47	77.82	9.14	-47.7	-49.2	14.8	0.00e+00	0	24	0	1753219072	61	4305
2026-01-08 23:09:23.46	77.99	9.12	-47.7	-49.1	14.9	0.00e+00	0	24	0	1758461952	61	4286
2026-01-08 23:09:24.46	78.16	9.10	-47.7	-49.2	14.9	0.00e+00	0	24	0	1763704832	61	4299
2026-01-08 23:09:25.45	78.33	9.08	-47.7	-49.1	14.9	0.00e+00	0	24	0	1768947712	61	4283
2026-01-08 23:09:26.46	78.50	9.07	-47.6	-49.1	14.9	0.00e+00	0	24	0	1775239168	61	4256
2026-01-08 23:09:27.46	78.67	9.05	-47.6	-49.0	14.9	0.00e+00	0	24	0	1780482048	61	4210
2026-01-08 23:09:28.45	78.84	9.03	-47.7	-49.1	14.9	0.00e+00	0	24	0	1786773504	61	4264
2026-01-08 23:09:29.45	79.00	9.01	-47.7	-49.1	14.9	0.00e+00	0	24	0	1792016384	61	4268
2026-01-08 23:09:30.45	79.17	8.99	-47.6	-49.1	14.9	0.00e+00	0	24	0	1797259264	61	4245
2026-01-08 23:09:31.45	79.34	8.97	-47.7	-49.1	14.8	0.00e+00	0	24	0	1803550720	61	4285
2026-01-08 23:09:32.44	79.51	8.95	-47.8	-49.3	14.8	0.00e+00	0	24	0	1808793600	61	4372
2026-01-08 23:09:33.44	79.67	8.93	-47.8	-49.2	14.8	0.00e+00	0	24	0	1814036480	61	4339
2026-01-08 23:09:34.44	79.84	8.91	-47.9	-49.4	14.7	0.00e+00	0	24	0	1820327936	61	4392
2026-01-08 23:09:35.43	80.01	8.89	-47.7	-49.2	14.8	0.00e+00	0	24	0	1825570816	61	4319
2026-01-08 23:09:36.44	80.18	8.87	-47.8	-49.3	14.8	0.00e+00	0	24	0	1830813696	61	4347
2026-01-08 23:09:37.43	80.34	8.84	-47.9	-49.4	14.7	0.00e+00	0	24	0	1837105152	61	4398
2026-01-08 23:09:38.43	80.51	8.82	-47.9	-49.4	14.7	0.00e+00	0	24	0	1842348032	61	4435
2026-01-08 23:09:39.44	80.68	8.80	-47.8	-49.3	14.8	0.00e+00	0	24	0	1848639488	61	4371
2026-01-08 23:09:40.44	80.84	8.78	-47.9	-49.4	14.7	0.00e+00	0	24	0	1853882368	61	4402
2026-01-08 23:09:41.45	81.01	8.76	-48.0	-49.5	14.7	0.00e+00	0	24	0	1859125248	61	4468
2026-01-08 23:09:42.45	81.18	8.74	-48.0	-49.5	14.7	0.00e+00	0	24	0	1865416704	61	4480
2026-01-08 23:09:43.46	81.34	8.71	-48.0	-49.5	14.7	0.00e+00	0	24	0	1870659584	61	4458
2026-01-08 23:09:44.46	81.51	8.69	-48.0	-49.5	14.7	0.00e+00	0	24	0	1876951040	61	4470
2026-01-08 23:09:45.46	81.67	8.67	-48.0	-49.5	14.7	0.00e+00	0	24	0	1882193920	61	4454
2026-01-08 23:09:46.45	81.84	8.65	-48.1	-49.6	14.6	0.00e+00	0	24	0	1887436800	61	4498
2026-01-08 23:09:47.45	82.00	8.62	-48.0	-49.5	14.7	0.00e+00	0	24	0	1892679680	61	4455
2026-01-08 23:09:48.45	82.17	8.60	-48.0	-49.5	14.7	0.00e+00	0	24	0	1898971136	61	4483
2026-01-08 23:09:49.45	82.33	8.58	-48.0	-49.5	14.7	0.00e+00	0	24	0	1904214016	61	4462
2026-01-08 23:09:50.44	82.49	8.55	-48.0	-49.5	14.6	0.00e+00	0	24	0	1910505472	61	4483
2026-01-08 23:09:51.45	82.66	8.53	-48.0	-49.5	14.6	0.00e+00	0	24	0	1915748352	61	4492
2026-01-08 23:09:52.44	82.82	8.51	-48.0	-49.6	14.6	0.00e+00	0	24	0	1920991232	61	4498
2026-01-08 23:09:53.44	82.98	8.48	-48.0	-49.5	14.6	0.00e+00	0	24	0	1927282688	61	4482
2026-01-08 23:09:54.43	83.14	8.46	-48.0	-49.5	14.6	0.00e+00	0	24	0	1932525568	61	4489
2026-01-08 23:09:55.44	83.31	8.43	-48.0	-49.5	14.7	0.00e+00	0	24	0	1937768448	61	4459
2026-01-08 23:09:56.44	83.47	8.41	-47.9	-49.4	14.7	0.00e+00	0	24	0	1944059904	61	4415
2026-01-08 23:09:57.44	83.63	8.38	-47.8	-49.3	14.7	0.00e+00	0	24	0	1949302784	61	4370
2026-01-08 23:09:58.43	83.79	8.36	-47.9	-49.4	14.7	0.00e+00	0	24	0	1954545664	61	4409
2026-01-08 23:09:59.43	83.95	8.34	-47.8	-49.2	14.8	0.00e+00	0	24	0	1960837120	61	4337
2026-01-08 23:10:00.43	84.11	8.31	-47.7	-49.2	14.8	0.00e+00	0	24	0	1966080000	61	4319
2026-01-08 23:10:01.43	84.27	8.28	-47.8	-49.3	14.8	0.00e+00	0	24	0	1972371456	61	4352
2026-01-08 23:10:02.42	84.43	8.26	-47.8	-49.3	14.8	0.00e+00	0	24	0	1977614336	61	4367
2026-01-08 23:10:03.43	84.60	8.23	-47.9	-49.3	14.7	0.00e+00	0	24	0	1982857216	61	4373
2026-01-08 23:10:04.42	84.75	8.21	-48.0	-49.5	14.6	0.00e+00	0	24	0	1989148672	61	4477
2026-01-08 23:10:05.42	84.91	8.18	-48.0	-49.5	14.7	0.00e+00	0	24	0	1994391552	61	4450
2026-01-08 23:10:06.41	85.07	8.16	-48.1	-49.6	14.6	0.00e+00	0	24	0	1999634432	61	4500
2026-01-08 23:10:07.41	85.23	8.13	-48.0	-49.5	14.6	0.00e+00	0	24	0	2005925888	61	4481
2026-01-08 23:10:08.41	85.39	8.10	-48.1	-49.6	14.6	0.00e+00	0	24	0	2011168768	61	4517
2026-01-08 23:10:09.41	85.55	8.08	-48.0	-49.5	14.6	0.00e+00	0	24	0	2016411648	61	4473
2026-01-08 23:10:10.41	85.71	8.05	-48.0	-49.4	14.7	0.00e+00	0	24	0	2022703104	61	4438
2026-01-08 23:10:11.41	85.87	8.02	-48.0	-49.4	14.7	0.00e+00	0	24	0	2027945984	61	4437
2026-01-08 23:10:12.41	86.02	8.00	-48.0	-49.5	14.6	0.00e+00	0	24	0	2034237440	61	4485
2026-01-08 23:10:13.41	86.18	7.97	-48.1	-49.6	14.6	0.00e+00	0	24	0	2039480320	61	4519
2026-01-08 23:10:14.41	86.34	7.94	-48.1	-49.6	14.6	0.00e+00	0	24	0	2044723200	61	4525
2026-01-08 23:10:15.41	86.50	7.91	-48.2	-49.7	14.6	0.00e+00	0	24	0	2051014656	61	4565
2026-01-08 23:10:16.40	86.65	7.89	-48.2	-49.8	14.5	0.00e+00	0	24	0	2056257536	61	4622
2026-01-08 23:10:17.41	86.81	7.86	-48.3	-49.8	14.5	0.00e+00	0	24	0	2061500416	61	4631
2026-01-08 23:10:18.41	86.96	7.83	-48.3	-49.9	14.5	0.00e+00	0	24	0	2067791872	61	4669
2026-01-08 23:10:19.40	87.12	7.80	-48.1	-49.6	14.6	0.00e+00	0	24	0	2073034752	61	4544
2026-01-08 23:10:20.40	87.27	7.77	-48.1	-49.6	14.6	0.00e+00	0	24	0	2078277632	61	4526
2026-01-08 23:10:21.40	87.43	7.74	-48.1	-49.6	14.6	0.00e+00	0	24	0	2084569088	61	4535
2026-01-08 23:10:22.39	87.58	7.72	-48.1	-49.6	14.6	0.00e+00	0	24	0	2089811968	61	4538
2026-01-08 23:10:23.39	87.74	7.69	-48.0	-49.4	14.7	0.00e+00	0	24	0	2095054848	61	4432
2026-01-08 23:10:24.40	87.89	7.66	-47.9	-49.3	14.7	0.00e+00	0	24	0	2101346304	61	4380
2026-01-08 23:10:25.40	88.05	7.63	-48.0	-49.4	14.7	0.00e+00	0	24	0	2106589184	61	4425
2026-01-08 23:10:26.40	88.20	7.60	-48.0	-49.5	14.6	0.00e+00	0	24	0	2111832064	61	4461
2026-01-08 23:10:27.39	88.35	7.57	-48.0	-49.5	14.6	0.00e+00	0	24	0	2118123520	61	4455
2026-01-08 23:10:28.39	88.51	7.54	-48.1	-49.6	14.6	0.00e+00	0	24	0	2123366400	61	4524
2026-01-08 23:10:29.39	88.66	7.51	-48.1	-49.6	14.5	0.00e+00	0	24	0	2129657856	61	4529
2026-01-08 23:10:30.39	88.81	7.48	-48.1	-49.7	14.5	0.00e+00	0	24	0	2134900736	61	4559
2026-01-08 23:10:31.39	88.96	7.45	-48.2	-49.7	14.5	0.00e+00	0	24	0	2140143616	61	4580
2026-01-08 23:10:32.39	89.12	7.42	-48.2	-49.7	14.5	0.00e+00	0	24	0	2146435072	61	4588
2026-01-08 23:10:33.38	89.27	7.39	-48.2	-49.8	14.5	0.00e+00	0	24	0	2151677952	61	4629
2026-01-08 23:10:34.38	89.42	7.36	-48.3	-49.8	14.4	0.00e+00	0	24	0	2156920832	61	4650
2026-01-08 23:10:35.38	89.57	7.33	-48.3	-49.9	14.4	0.00e+00	0	24	0	2163212288	61	4664
2026-01-08 23:10:36.38	89.72	7.30	-48.3	-49.8	14.4	0.00e+00	0	24	0	2168455168	61	4627
2026-01-08 23:10:37.38	89.87	7.27	-48.3	-49.9	14.4	0.00e+00	0	24	0	2173698048	61	4679
2026-01-08 23:10:38.38	90.02	7.24	-48.6	-50.1	14.4	0.00e+00	0	24	0	2179989504	62	4541
2026-01-08 23:10:39.38	90.17	7.21	-48.4	-49.9	14.5	0.00e+00	0	24	0	2185232384	62	4436
2026-01-08 23:10:40.37	90.32	7.18	-48.3	-49.8	14.6	0.00e+00	0	24	0	2191523840	62	4389
2026-01-08 23:10:41.37	90.47	7.15	-48.3	-49.8	14.6	0.00e+00	0	24	0	2196766720	62	4386
2026-01-08 23:10:42.37	90.62	7.11	-48.3	-49.9	14.5	0.00e+00	0	24	0	2202009600	62	4406
2026-01-08 23:10:43.38	90.77	7.08	-48.5	-50.0	14.5	0.00e+00	0	24	0	2208301056	62	4492
2026-01-08 23:10:44.37	90.91	7.05	-48.3	-49.9	14.5	0.00e+00	0	24	0	2213543936	62	4412
2026-01-08 23:10:45.37	91.06	7.02	-48.4	-50.0	14.5	0.00e+00	0	24	0	2218786816	62	4444
2026-01-08 23:10:46.37	91.21	6.99	-48.3	-49.8	14.6	0.00e+00	0	24	0	2225078272	62	4376
2026-01-08 23:10:47.37	91.36	6.96	-48.3	-49.8	14.6	0.00e+00	0	24	0	2230321152	62	4361
2026-01-08 23:10:48.36	91.50	6.92	-48.3	-49.8	14.6	0.00e+00	0	24	0	2235564032	62	4382
2026-01-08 23:10:49.37	91.65	6.89	-48.3	-49.8	14.6	0.00e+00	0	24	0	2241855488	62	4371
2026-01-08 23:10:50.37	91.80	6.86	-48.4	-49.9	14.5	0.00e+00	0	24	0	2247098368	62	4415
2026-01-08 23:10:51.36	91.94	6.83	-48.4	-50.0	14.5	0.00e+00	0	24	0	2253389824	62	4447
2026-01-08 23:10:52.36	92.09	6.79	-48.3	-49.8	14.6	0.00e+00	0	24	0	2258632704	62	4374
2026-01-08 23:10:53.36	92.23	6.76	-48.4	-49.9	14.5	0.00e+00	0	24	0	2263875584	62	4418
2026-01-08 23:10:54.36	92.38	6.73	-48.3	-49.8	14.6	0.00e+00	0	24	0	2270167040	62	4358
2026-01-08 23:10:55.35	92.52	6.70	-48.2	-49.7	14.7	0.00e+00	0	24	0	2275409920	62	4313
2026-01-08 23:10:56.34	92.67	6.66	-48.3	-49.8	14.6	0.00e+00	0	24	0	2280652800	62	4383
2026-01-08 23:10:57.34	92.81	6.63	-48.4	-49.9	14.5	0.00e+00	0	24	0	2285895680	62	4412
2026-01-08 23:10:58.34	92.96	6.60	-48.5	-50.0	14.5	0.00e+00	0	24	0	2292187136	62	4465
2026-01-08 23:10:59.33	93.10	6.57	-48.4	-50.0	14.5	0.00e+00	0	24	0	2297430016	62	4460
2026-01-08 23:11:00.32	93.24	6.53	-48.6	-50.1	14.4	0.00e+00	0	24	0	2303721472	62	4539
2026-01-08 23:11:01.32	93.38	6.50	-48.7	-50.3	14.3	0.00e+00	0	24	0	2308964352	62	4628
2026-01-08 23:11:02.32	93.53	6.46	-48.6	-50.2	14.3	0.00e+00	0	24	0	2314207232	62	4586
2026-01-08 23:11:03.32	93.67	6.43	-48.5	-50.1	14.4	0.00e+00	0	24	0	2320498688	62	4526
2026-01-08 23:11:04.32	93.81	6.40	-48.7	-50.3	14.3	0.00e+00	0	24	0	2325741568	62	4628
2026-01-08 23:11:05.32	93.95	6.36	-48.8	-50.5	14.2	0.00e+00	0	24	0	2330984448	62	4731
2026-01-08 23:11:06.32	94.09	6.33	-48.7	-50.3	14.3	0.00e+00	0	24	0	2337275904	62	4620
2026-01-08 23:11:07.31	94.23	6.30	-48.7	-50.3	14.3	0.00e+00	0	24	0	2342518784	62	4614
2026-01-08 23:11:08.31	94.37	6.26	-48.8	-50.4	14.2	0.00e+00	0	24	0	2347761664	62	4673
2026-01-08 23:11:09.31	94.51	6.23	-48.8	-50.4	14.2	0.00e+00	0	24	0	2354053120	62	4685
2026-01-08 23:11:10.31	94.65	6.19	-48.8	-50.4	14.2	0.00e+00	0	24	0	2359296000	62	4689
2026-01-08 23:11:11.31	94.79	6.16	-48.7	-50.3	14.3	0.00e+00	0	24	0	2365587456	62	4610
2026-01-08 23:11:12.31	94.93	6.12	-48.7	-50.3	14.3	0.00e+00	0	24	0	2370830336	62	4628
2026-01-08 23:11:13.31	95.07	6.09	-48.5	-50.1	14.4	0.00e+00	0	24	0	2376073216	62	4538
2026-01-08 23:11:14.30	95.21	6.05	-48.6	-50.2	14.3	0.00e+00	0	24	0	2381316096	62	4580
2026-01-08 23:11:15.30	95.35	6.02	-48.6	-50.2	14.4	0.00e+00	0	24	0	2387607552	62	4550
2026-01-08 23:11:16.30	95.49	5.98	-48.7	-50.2	14.3	0.00e+00	0	24	0	2392850432	62	4596
2026-01-08 23:11:17.29	95.62	5.95	-48.6	-50.1	14.4	0.00e+00	0	24	0	2398093312	62	4540
2026-01-08 23:11:18.29	95.76	5.91	-48.6	-50.2	14.3	0.00e+00	0	24	0	2404384768	62	4564
2026-01-08 23:11:19.28	95.90	5.88	-48.7	-50.3	14.3	0.00e+00	0	24	0	2409627648	62	4605
2026-01-08 23:11:20.28	96.04	5.84	-48.9	-50.5	14.1	0.00e+00	0	24	0	2415919104	62	4757
2026-01-08 23:11:21.27	96.17	5.81	-48.8	-50.4	14.4	0.00e+00	0	24	0	2421161984	63	4405
2026-01-08 23:11:22.28	96.31	5.77	-48.7	-50.3	14.4	0.00e+00	0	24	0	2426404864	63	4388
2026-01-08 23:11:23.27	96.44	5.74	-48.8	-50.5	14.3	0.00e+00	0	24	0	2432696320	63	4455
2026-01-08 23:11:24.27	96.58	5.70	-48.8	-50.4	14.3	0.00e+00	0	24	0	2437939200	63	4419
2026-01-08 23:11:25.26	96.71	5.67	-49.0	-50.6	14.2	0.00e+00	0	24	0	2443182080	63	4531
2026-01-08 23:11:26.26	96.85	5.63	-48.9	-50.5	14.3	0.00e+00	0	24	0	2449473536	63	4487
2026-01-08 23:11:27.26	96.98	5.59	-48.8	-50.5	14.3	0.00e+00	0	24	0	2454716416	63	4447
2026-01-08 23:11:28.25	97.12	5.56	-48.9	-50.5	14.3	0.00e+00	0	24	0	2459959296	63	4476
2026-01-08 23:11:29.25	97.25	5.52	-48.9	-50.5	14.3	0.00e+00	0	24	0	2466250752	63	4491
2026-01-08 23:11:30.24	97.38	5.49	-48.9	-50.5	14.3	0.00e+00	0	24	0	2471493632	63	4483
2026-01-08 23:11:31.24	97.52	5.45	-48.7	-50.3	14.4	0.00e+00	0	24	0	2476736512	63	4357
2026-01-08 23:11:32.24	97.65	5.41	-48.7	-50.3	14.4	0.00e+00	0	24	0	2483027968	63	4360
2026-01-08 23:11:33.25	97.78	5.38	-48.7	-50.3	14.4	0.00e+00	0	24	0	2488270848	63	4372
2026-01-08 23:11:34.26	97.92	5.34	-48.7	-50.3	14.4	0.00e+00	0	24	0	2494562304	63	4367
2026-01-08 23:11:35.25	98.05	5.30	-48.8	-50.4	14.4	0.00e+00	0	24	0	2499805184	63	4400
2026-01-08 23:11:36.24	98.18	5.27	-48.8	-50.3	14.4	0.00e+00	0	24	0	2505048064	63	4383
2026-01-08 23:11:37.25	98.31	5.23	-48.9	-50.5	14.2	0.00e+00	0	24	0	2510290944	63	4486
2026-01-08 23:11:38.24	98.44	5.19	-48.7	-50.2	14.4	0.00e+00	0	24	0	2516582400	63	4333
2026-01-08 23:11:39.23	98.57	5.16	-48.9	-50.5	14.3	0.00e+00	0	24	0	2521825280	63	4446
2026-01-08 23:11:40.23	98.70	5.12	-48.7	-50.3	14.4	0.00e+00	0	24	0	2528116736	63	4352
2026-01-08 23:11:41.23	98.83	5.08	-49.1	-50.7	14.1	0.00e+00	0	24	0	2533359616	63	4588
2026-01-08 23:11:42.22	98.96	5.05	-48.8	-50.5	14.3	0.00e+00	0	24	0	2538602496	63	4450
2026-01-08 23:11:43.22	99.09	5.01	-49.0	-50.6	14.2	0.00e+00	0	24	0	2544893952	63	4537
2026-01-08 23:11:44.23	99.22	4.97	-57.6	-70.5	3.8	8.41e-01	0	24	104	2548039680	80	16858
2026-01-08 23:11:45.22	99.35	4.94	-58.0	-71.0	3.8	8.46e-01	0	24	104	2548039680	81	16849
2026-01-08 23:11:46.22	99.48	4.90	-58.2	-71.2	3.8	8.47e-01	0	24	104	2548039680	81	17278
2026-01-08 23:11:47.21	99.61	4.86	-58.4	-71.5	3.8	8.45e-01	0	24	104	2548039680	81	17710
2026-01-08 23:11:48.20	99.73	4.82	-58.6	-71.6	3.8	8.45e-01	0	24	104	2548039680	82	17034
2026-01-08 23:11:49.21	99.86	4.79	-58.7	-71.8	3.8	8.45e-01	0	24	104	2548039680	82	17365
2026-01-08 23:11:50.20	99.99	4.75	-58.9	-71.9	3.8	8.45e-01	0	24	104	2548039680	82	17650
2026-01-08 23:11:51.20	100.12	4.71	-59.0	-72.1	3.8	8.45e-01	0	24	104	2548039680	83	16933
2026-01-08 23:11:52.20	100.24	4.67	-59.1	-72.1	3.8	8.44e-01	0	24	104	2548039680	83	17074
2026-01-08 23:11:53.20	100.37	4.64	-59.2	-72.2	3.8	8.44e-01	0	24	104	2548039680	83	17247
2026-01-08 23:11:54.20	100.50	4.60	-59.2	-72.3	3.8	8.46e-01	0	24	104	2548039680	83	17351
2026-01-08 23:11:55.21	100.62	4.56	-59.3	-72.4	3.8	8.47e-01	0	24	104	2548039680	83	17514
2026-01-08 23:11:56.21	100.75	4.52	-59.3	-72.4	3.8	8.45e-01	0	24	104	2548039680	83	17544
2026-01-08 23:11:57.21	100.87	4.48	-59.4	-72.4	3.8	8.44e-01	0	24	104	2548039680	83	17652
2026-01-08 23:11:58.20	101.00	4.45	-59.4	-72.5	3.8	8.46e-01	0	24	104	2548039680	83	17740
2026-01-08 23:11:59.20	101.12	4.41	-59.6	-72.7	3.8	8.45e-01	0	24	104	2548039680	84	17272
2026-01-08 23:12:00.20	101.25	4.37	-59.7	-72.8	3.8	8.46e-01	0	24	104	2548039680	84	17315
2026-01-08 23:12:01.20	101.37	4.33	-59.7	-72.8	3.8	8.45e-01	0	24	104	2548039680	84	17384
2026-01-08 23:12:02.19	101.49	4.29	-59.8	-72.8	3.8	8.46e-01	0	24	104	2548039680	84	17383
2026-01-08 23:12:03.19	101.62	4.26	-59.8	-72.9	3.8	8.45e-01	0	24	104	2548039680	84	17537
2026-01-08 23:12:04.19	101.74	4.22	-59.8	-72.9	3.8	8.46e-01	0	24	104	2548039680	84	17523
2026-01-08 23:12:05.19	101.86	4.18	-59.8	-72.9	3.8	8.45e-01	0	24	104	2548039680	84	17573
2026-01-08 23:12:06.18	101.99	4.14	-59.8	-72.9	3.8	8.45e-01	0	24	104	2548039680	84	17596
2026-01-08 23:12:07.18	102.11	4.10	-59.9	-72.9	3.8	8.44e-01	0	24	104	2548039680	84	17655
2026-01-08 23:12:08.17	102.23	4.06	-59.9	-73.0	3.8	8.45e-01	0	24	104	2548039680	84	17692
2026-01-08 23:12:09.16	102.35	4.03	-59.9	-73.0	3.8	8.45e-01	0	24	104	2548039680	84	17816
2026-01-08 23:12:10.17	102.47	3.99	-60.0	-73.1	3.8	8.45e-01	0	24	104	2548039680	85	16899
2026-01-08 23:12:11.17	102.59	3.95	-60.0	-73.1	3.8	8.46e-01	0	24	104	2548039680	85	16893
2026-01-08 23:12:12.18	102.71	3.91	-59.9	-73.0	3.8	8.45e-01	0	24	104	2548039680	85	16794
2026-01-08 23:12:13.17	102.83	3.87	-59.9	-73.0	3.8	8.46e-01	0	24	104	2548039680	85	16746
2026-01-08 23:12:14.18	102.95	3.83	-59.9	-73.0	3.8	8.45e-01	0	24	104	2548039680	85	16760
2026-01-08 23:12:15.18	103.07	3.79	-59.9	-73.0	3.8	8.46e-01	0	24	104	2548039680	85	16695
2026-01-08 23:12:16.18	103.19	3.75	-59.9	-72.9	3.8	8.46e-01	0	24	104	2548039680	85	16667
2026-01-08 23:12:17.18	103.31	3.71	-59.9	-73.0	3.8	8.45e-01	0	24	104	2548039680	85	16713
2026-01-08 23:12:18.19	103.43	3.67	-59.9	-72.9	3.8	8.47e-01	0	24	104	2548039680	85	16668
2026-01-08 23:12:19.19	103.55	3.64	-59.8	-72.9	3.8	8.45e-01	0	24	104	2548039680	85	16639
2026-01-08 23:12:20.19	103.67	3.60	-59.8	-72.9	3.8	8.46e-01	0	24	104	2548039680	85	16616
2026-01-08 23:12:21.19	103.79	3.56	-59.8	-72.9	3.8	8.46e-01	0	24	104	2548039680	85	16648
2026-01-08 23:12:22.19	103.91	3.52	-59.8	-72.9	3.8	8.46e-01	0	24	104	2548039680	85	16622
2026-01-08 23:12:23.19	104.02	3.48	-59.8	-72.9	3.8	8.46e-01	0	24	104	2548039680	85	16534
2026-01-08 23:12:24.19	104.14	3.44	-59.8	-72.9	3.8	8.44e-01	0	24	104	2548039680	85	16543
2026-01-08 23:12:25.19	104.26	3.40	-59.8	-72.9	3.8	8.46e-01	0	24	104	2548039680	85	16546
2026-01-08 23:12:26.19	104.37	3.36	-59.8	-72.9	3.8	8.46e-01	0	24	104	2548039680	85	16580
2026-01-08 23:12:27.20	104.49	3.32	-59.8	-72.9	3.8	8.46e-01	0	24	104	2548039680	85	16523
2026-01-08 23:12:28.20	104.61	3.28	-59.8	-72.9	3.8	8.45e-01	0	24	104	2548039680	85	16529
2026-01-08 23:12:29.20	104.72	3.24	-59.8	-72.9	3.8	8.46e-01	0	24	104	2548039680	85	16527
2026-01-08 23:12:30.20	104.84	3.20	-59.8	-72.8	3.8	8.45e-01	0	24	104	2548039680	85	16497
2026-01-08 23:12:31.20	104.95	3.16	-59.8	-72.9	3.8	8.46e-01	0	24	104	2548039680	85	16568
2026-01-08 23:12:32.20	105.07	3.12	-59.8	-72.9	3.8	8.46e-01	0	24	104	2548039680	85	16506
2026-01-08 23:12:33.20	105.18	3.08	-59.8	-72.9	3.8	8.46e-01	0	24	104	2548039680	85	16521
2026-01-08 23:12:34.20	105.30	3.04	-59.8	-72.9	3.8	8.46e-01	0	24	104	2548039680	85	16505
2026-01-08 23:12:35.19	105.41	3.00	-59.8	-72.9	3.8	8.45e-01	0	24	104	2548039680	85	16508
2026-01-08 23:12:36.19	105.52	2.96	-59.8	-72.9	3.8	8.46e-01	0	24	104	2548039680	85	16521
2026-01-08 23:12:37.20	105.64	2.92	-59.7	-72.8	3.8	8.46e-01	0	24	104	2548039680	85	16480
2026-01-08 23:12:38.20	105.75	2.88	-59.8	-72.8	3.8	8.46e-01	0	24	104	2548039680	85	16487
2026-01-08 23:12:39.20	105.86	2.84	-59.7	-72.8	3.8	8.46e-01	0	24	104	2548039680	85	16489
2026-01-08 23:12:40.20	105.98	2.80	-59.8	-72.8	3.8	8.46e-01	0	24	104	2548039680	85	16484
2026-01-08 23:12:41.20	106.09	2.76	-59.8	-72.8	3.8	8.46e-01	0	24	104	2548039680	85	16473
2026-01-08 23:12:42.20	106.20	2.72	-59.7	-72.8	3.8	8.47e-01	0	24	104	2548039680	85	16392
2026-01-08 23:12:43.20	106.31	2.68	-59.7	-72.8	3.8	8.45e-01	0	24	104	2548039680	85	16452
2026-01-08 23:12:44.20	106.42	2.64	-59.7	-72.8	3.8	8.45e-01	0	24	104	2548039680	85	16427
2026-01-08 23:12:45.20	106.53	2.60	-59.7	-72.8	3.8	8.44e-01	0	24	104	2548039680	85	16424
2026-01-08 23:12:46.20	106.64	2.56	-59.7	-72.8	3.8	8.45e-01	0	24	104	2548039680	85	16455
2026-01-08 23:12:47.20	106.75	2.52	-59.7	-72.8	3.8	8.45e-01	0	24	104	2548039680	85	16445
2026-01-08 23:12:48.20	106.86	2.48	-59.7	-72.8	3.8	8.47e-01	0	24	104	2548039680	85	16494
2026-01-08 23:12:49.21	106.97	2.44	-59.7	-72.8	3.8	8.46e-01	0	24	104	2548039680	85	16451
2026-01-08 23:12:50.21	107.08	2.40	-59.7	-72.8	3.8	8.46e-01	0	24	104	2548039680	85	16413
2026-01-08 23:12:51.20	107.19	2.36	-59.7	-72.8	3.8	8.45e-01	0	24	104	2548039680	85	16380
2026-01-08 23:12:52.20	107.30	2.32	-59.7	-72.8	3.8	8.46e-01	0	24	104	2548039680	85	16410
2026-01-08 23:12:53.20	107.41	2.28	-59.7	-72.8	3.8	8.45e-01	0	24	104	2548039680	85	16390
2026-01-08 23:12:54.20	107.52	2.24	-59.7	-72.8	3.8	8.46e-01	0	24	104	2548039680	85	16475
2026-01-08 23:12:55.19	107.63	2.20	-59.7	-72.8	3.8	8.45e-01	0	24	104	2548039680	85	16430
2026-01-08 23:12:56.19	107.73	2.16	-59.7	-72.8	3.8	8.46e-01	0	24	104	2548039680	85	16358
2026-01-08 23:12:57.20	107.84	2.12	-59.7	-72.8	3.8	8.45e-01	0	24	104	2548039680	85	16384
2026-01-08 23:12:58.19	107.95	2.08	-59.7	-72.8	3.8	8.46e-01	0	24	104	2548039680	85	16363
2026-01-08 23:12:59.19	108.06	2.04	-59.7	-72.8	3.8	8.45e-01	0	24	104	2548039680	85	16424
2026-01-08 23:13:00.19	108.16	2.00	-59.7	-72.8	3.8	8.47e-01	0	24	104	2548039680	85	16379

#Closed at: 2026-01-08 23:13:00
#Recorded file [2548 MB]: D:/lorett/data/31004_260109_020304.dat