passes_logs/2026/01/08/R3.2S_Murmansk/R3.2S_Murmansk__20260108_231346_NOAA_21_JPSS-2_rec.log

#Pass ID: 20260108_231346_NOAA 21 (JPSS-2)
#Satellite: NOAA 21 (JPSS-2)
#Configuration: NOAA-21
#almurnet v.1.7.20251203
#Start time: 2026-01-08 23:13:47

#Version: 2.2.20231116
#Station: R3.2S_Murmansk
#Location: 33.079688 lon 68.888172 lat
#TLE: 1 54234U 22150A   26008.59854928  .00000127  00000+0  81204-4 0  9992
#TLE: 2 54234  98.7494 309.5759 0000887 327.7487  32.3634 14.19533414163905

#Time	Az	El	Level	Level2	SNR	BER	BlckErr	Temp	State	Recorded	gain1	gain2
2026-01-08 23:13:47.82	20.26	2.06	-57.7	-70.9	3.8	1.49e+00	0	24	0	0	82	15711
2026-01-08 23:13:48.82	20.30	2.12	-57.6	-70.5	3.8	1.49e+00	0	24	104	0	80	16696
2026-01-08 23:13:49.82	20.35	2.18	-57.6	-70.5	3.8	1.49e+00	0	24	104	0	80	16835
2026-01-08 23:13:50.81	20.39	2.24	-57.5	-70.2	3.8	1.49e+00	0	24	104	0	80	16132
2026-01-08 23:13:51.81	20.44	2.30	-57.5	-69.8	3.8	1.49e+00	0	24	104	0	80	15446
2026-01-08 23:13:52.80	20.48	2.36	-57.5	-70.1	3.8	1.49e+00	0	24	104	0	80	16033
2026-01-08 23:13:53.80	20.53	2.42	-57.5	-69.9	3.8	1.49e+00	0	24	104	0	80	15649
2026-01-08 23:13:54.80	20.57	2.49	-57.5	-69.7	3.8	1.49e+00	0	24	104	0	80	15325
2026-01-08 23:13:55.80	20.62	2.55	-57.5	-70.0	3.8	1.49e+00	0	24	104	0	80	15806
2026-01-08 23:13:56.80	20.66	2.61	-57.5	-69.9	3.8	1.49e+00	0	24	104	0	80	15591
2026-01-08 23:13:57.79	20.71	2.67	-57.5	-70.0	3.8	1.49e+00	0	24	104	0	80	15870
2026-01-08 23:13:58.79	20.75	2.73	-57.5	-69.8	3.8	1.49e+00	0	24	104	0	80	15574
2026-01-08 23:13:59.78	20.80	2.79	-57.5	-69.6	3.8	1.49e+00	0	24	104	0	80	15187
2026-01-08 23:14:00.78	20.85	2.85	-57.5	-69.1	4.0	1.49e+00	0	24	104	0	80	14365
2026-01-08 23:14:01.79	20.89	2.92	-57.4	-68.7	3.9	1.47e+00	0	24	104	0	80	13627
2026-01-08 23:14:02.79	20.94	2.98	-57.4	-67.7	4.2	1.47e+00	0	24	104	0	80	12171
2026-01-08 23:14:03.79	20.99	3.04	-57.2	-67.3	4.0	1.42e+00	0	24	104	0	80	11660
2026-01-08 23:14:04.79	21.03	3.10	-57.1	-66.7	4.1	1.07e+00	0	24	104	0	80	10781
2026-01-08 23:14:05.79	21.08	3.17	-57.0	-65.1	5.3	5.91e-01	0	24	0	1048576	80	9058
2026-01-08 23:14:06.78	21.13	3.23	-56.9	-64.5	5.7	3.77e-01	0	24	0	4194304	80	8414
2026-01-08 23:14:07.76	21.18	3.29	-56.9	-64.6	5.6	4.43e-01	0	24	0	7340032	80	8504
2026-01-08 23:14:08.76	21.22	3.35	-56.8	-64.1	6.0	2.99e-01	0	24	0	10485760	80	8014
2026-01-08 23:14:09.77	21.27	3.42	-56.8	-64.2	5.9	3.52e-01	0	24	0	13631488	80	8124
2026-01-08 23:14:10.77	21.32	3.48	-56.8	-63.7	6.2	2.61e-01	0	24	0	16777216	80	7662
2026-01-08 23:14:11.77	21.37	3.54	-56.7	-63.6	6.3	2.17e-01	0	24	0	19922944	80	7576
2026-01-08 23:14:12.76	21.42	3.61	-56.4	-62.2	7.4	1.26e-01	0	24	0	23068672	79	6866
2026-01-08 23:14:13.76	21.47	3.67	-56.2	-61.8	7.8	5.43e-02	0	24	0	26214400	79	6550
2026-01-08 23:14:14.76	21.51	3.73	-55.7	-60.2	9.1	1.65e-02	0	24	0	29360128	78	5784
2026-01-08 23:14:15.76	21.56	3.80	-55.3	-59.3	9.9	4.12e-03	0	24	0	32505856	77	5520
2026-01-08 23:14:16.76	21.61	3.86	-54.5	-58.0	10.9	2.80e-04	0	24	0	35651584	75	5319
2026-01-08 23:14:17.76	21.66	3.92	-53.9	-56.9	11.7	8.46e-05	0	24	0	38797312	74	4952
2026-01-08 23:14:18.76	21.71	3.99	-53.2	-55.8	12.4	1.50e-06	0	24	0	41943040	73	4636
2026-01-08 23:14:19.76	21.76	4.05	-53.0	-55.5	12.6	7.00e-07	0	24	0	45088768	72	4714
2026-01-08 23:14:20.76	21.81	4.12	-52.3	-54.5	13.2	0.00e+00	0	24	0	48234496	71	4458
2026-01-08 23:14:21.76	21.86	4.18	-52.0	-54.1	13.3	0.00e+00	0	24	0	51380224	70	4511
2026-01-08 23:14:22.76	21.91	4.25	-52.1	-54.3	13.2	0.00e+00	0	24	0	54525952	70	4603
2026-01-08 23:14:23.76	21.97	4.31	-51.8	-53.8	13.6	0.00e+00	0	24	0	57671680	70	4366
2026-01-08 23:14:24.76	22.02	4.38	-51.7	-53.6	13.5	0.00e+00	0	24	0	60817408	69	4540
2026-01-08 23:14:25.76	22.07	4.44	-52.0	-54.1	13.2	0.00e+00	0	24	0	63963136	69	4791
2026-01-08 23:14:26.76	22.12	4.51	-52.1	-54.2	13.1	0.00e+00	0	24	0	67108864	69	4858
2026-01-08 23:14:27.76	22.17	4.57	-52.6	-54.9	12.7	0.00e+00	0	24	0	70254592	70	4977
2026-01-08 23:14:28.76	22.22	4.64	-53.3	-56.0	12.1	1.50e-06	0	24	0	73400320	71	5302
2026-01-08 23:14:29.76	22.27	4.70	-53.8	-56.8	11.6	1.06e-05	0	24	0	76546048	72	5482
2026-01-08 23:14:30.76	22.33	4.77	-54.4	-57.8	10.9	8.54e-05	0	24	0	79691776	73	5799
2026-01-08 23:14:31.77	22.38	4.84	-54.8	-58.7	10.2	1.20e-03	0	24	0	82837504	74	6101
2026-01-08 23:14:32.77	22.43	4.90	-55.4	-59.9	9.2	6.43e-03	0	24	0	85983232	75	6596
2026-01-08 23:14:33.76	22.48	4.97	-55.9	-61.1	8.3	1.95e-02	0	24	0	89128960	76	7171
2026-01-08 23:14:34.77	22.54	5.04	-56.1	-61.7	7.8	3.86e-02	0	25	0	92274688	77	7264
2026-01-08 23:14:35.77	22.59	5.10	-54.0	-57.0	11.6	8.91e-03	0	24	0	95420416	74	5008
2026-01-08 23:14:36.77	22.65	5.17	-56.5	-63.2	6.5	3.07e-02	0	24	0	98566144	78	8116
2026-01-08 23:14:37.77	22.70	5.24	-56.6	-63.1	6.8	6.81e-02	0	24	0	101711872	78	8037
2026-01-08 23:14:38.77	22.75	5.30	-54.8	-58.3	10.8	9.63e-03	0	24	0	104857600	76	5180
2026-01-08 23:14:39.77	22.81	5.37	-57.1	-65.7	5.0	3.20e-01	0	24	0	108003328	79	10190
2026-01-08 23:14:40.76	22.86	5.44	-55.0	-58.6	10.4	1.58e-01	0	24	0	108003328	76	5360
2026-01-08 23:14:41.77	22.92	5.51	-53.5	-56.2	12.2	5.30e-06	0	24	0	111149056	73	4840
2026-01-08 23:14:42.77	22.97	5.57	-52.7	-55.0	13.1	0.00e+00	0	24	0	114294784	72	4468
2026-01-08 23:14:43.77	23.03	5.64	-52.1	-54.1	13.4	0.00e+00	0	24	0	117440512	70	4532
2026-01-08 23:14:44.77	23.08	5.71	-52.1	-54.2	13.4	0.00e+00	0	24	0	120586240	70	4563
2026-01-08 23:14:45.77	23.14	5.78	-52.0	-54.0	13.5	0.00e+00	0	24	0	123731968	70	4479
2026-01-08 23:14:46.77	23.19	5.85	-51.5	-53.4	13.8	0.00e+00	0	24	0	126877696	69	4395
2026-01-08 23:14:47.76	23.25	5.91	-51.3	-53.1	14.0	0.00e+00	0	24	0	130023424	69	4259
2026-01-08 23:14:48.77	23.31	5.98	-51.2	-53.0	14.1	0.00e+00	0	24	0	133169152	69	4205
2026-01-08 23:14:49.77	23.36	6.05	-51.1	-52.8	14.0	0.00e+00	0	24	0	136314880	68	4370
2026-01-08 23:14:50.77	23.42	6.12	-51.0	-52.7	14.1	0.00e+00	0	24	0	139460608	68	4297
2026-01-08 23:14:51.77	23.48	6.19	-51.0	-52.7	14.1	0.00e+00	0	24	0	142606336	68	4303
2026-01-08 23:14:52.77	23.53	6.26	-51.0	-52.7	14.1	0.00e+00	0	24	0	145752064	68	4323
2026-01-08 23:14:53.77	23.59	6.33	-50.8	-52.5	14.2	0.00e+00	0	24	0	148897792	68	4219
2026-01-08 23:14:54.76	23.65	6.40	-51.0	-52.7	14.1	0.00e+00	0	24	0	152043520	68	4305
2026-01-08 23:14:55.76	23.71	6.47	-50.8	-52.4	14.2	0.00e+00	0	24	0	155189248	68	4186
2026-01-08 23:14:56.76	23.77	6.54	-50.9	-52.6	14.2	0.00e+00	0	24	0	158334976	68	4254
2026-01-08 23:14:57.75	23.82	6.61	-51.0	-52.7	14.1	0.00e+00	0	24	0	161480704	68	4300
2026-01-08 23:14:58.75	23.88	6.68	-50.8	-52.5	14.2	0.00e+00	0	24	0	164626432	68	4220
2026-01-08 23:14:59.75	23.94	6.75	-51.0	-52.7	14.1	0.00e+00	0	24	0	167772160	68	4314
2026-01-08 23:15:00.75	24.00	6.82	-50.8	-52.4	14.3	0.00e+00	0	24	0	170917888	68	4191
2026-01-08 23:15:01.75	24.06	6.89	-50.9	-52.6	14.2	0.00e+00	0	24	0	174063616	68	4260
2026-01-08 23:15:02.74	24.12	6.96	-50.7	-52.3	14.3	0.00e+00	0	24	0	177209344	68	4142
2026-01-08 23:15:03.73	24.18	7.03	-50.5	-52.1	14.3	0.00e+00	0	24	0	180355072	67	4264
2026-01-08 23:15:04.73	24.24	7.10	-50.6	-52.3	14.2	0.00e+00	0	24	0	183500800	67	4343
2026-01-08 23:15:05.72	24.30	7.17	-50.5	-52.1	14.3	0.00e+00	0	24	0	186646528	67	4283
2026-01-08 23:15:06.72	24.36	7.24	-50.6	-52.2	14.2	0.00e+00	0	24	0	189792256	67	4312
2026-01-08 23:15:07.72	24.42	7.32	-50.4	-52.0	14.3	0.00e+00	0	24	0	192937984	67	4230
2026-01-08 23:15:08.71	24.48	7.39	-50.4	-52.0	14.3	0.00e+00	0	24	0	196083712	67	4240
2026-01-08 23:15:09.71	24.55	7.46	-50.5	-52.1	14.3	0.00e+00	0	24	0	199229440	67	4257
2026-01-08 23:15:10.71	24.61	7.53	-50.5	-52.1	14.3	0.00e+00	0	24	0	202375168	67	4249
2026-01-08 23:15:11.71	24.67	7.61	-50.4	-52.0	14.4	0.00e+00	0	24	0	205520896	67	4221
2026-01-08 23:15:12.70	24.73	7.68	-50.3	-51.8	14.4	0.00e+00	0	24	0	208666624	67	4145
2026-01-08 23:15:13.70	24.80	7.75	-50.1	-51.6	14.4	0.00e+00	0	24	0	211812352	66	4275
2026-01-08 23:15:14.70	24.86	7.82	-50.0	-51.5	14.5	0.00e+00	0	24	0	214958080	66	4208
2026-01-08 23:15:15.70	24.92	7.90	-50.0	-51.6	14.5	0.00e+00	0	24	0	218103808	66	4244
2026-01-08 23:15:16.69	24.99	7.97	-50.1	-51.6	14.4	0.00e+00	0	24	0	221249536	66	4265
2026-01-08 23:15:17.68	25.05	8.04	-50.0	-51.6	14.5	0.00e+00	0	24	0	223346688	66	4248
2026-01-08 23:15:18.68	25.11	8.12	-50.0	-51.5	14.5	0.00e+00	0	24	0	226492416	66	4238
2026-01-08 23:15:19.68	25.18	8.19	-50.1	-51.6	14.4	0.00e+00	0	24	0	229638144	66	4284
2026-01-08 23:15:20.67	25.24	8.26	-50.1	-51.7	14.4	0.00e+00	0	24	0	232783872	66	4294
2026-01-08 23:15:21.67	25.31	8.34	-50.0	-51.5	14.5	0.00e+00	0	24	0	235929600	66	4225
2026-01-08 23:15:22.67	25.37	8.41	-50.1	-51.6	14.5	0.00e+00	0	24	0	239075328	66	4259
2026-01-08 23:15:23.67	25.44	8.49	-50.1	-51.6	14.4	0.00e+00	0	24	0	242221056	66	4274
2026-01-08 23:15:24.68	25.51	8.56	-50.1	-51.6	14.5	0.00e+00	0	24	0	245366784	66	4268
2026-01-08 23:15:25.68	25.57	8.64	-50.2	-51.7	14.4	0.00e+00	0	24	0	248512512	66	4310
2026-01-08 23:15:26.68	25.64	8.71	-50.2	-51.8	14.3	0.00e+00	0	24	0	251658240	66	4360
2026-01-08 23:15:27.68	25.71	8.79	-50.1	-51.6	14.4	0.00e+00	0	24	0	254803968	66	4254
2026-01-08 23:15:28.68	25.78	8.87	-50.0	-51.5	14.5	0.00e+00	0	24	0	257949696	66	4207
2026-01-08 23:15:29.69	25.84	8.94	-50.0	-51.5	14.5	0.00e+00	0	24	0	261095424	66	4197
2026-01-08 23:15:30.69	25.91	9.02	-49.9	-51.4	14.6	0.00e+00	0	24	0	264241152	66	4177
2026-01-08 23:15:31.68	25.98	9.09	-49.9	-51.4	14.6	0.00e+00	0	24	0	267386880	66	4174
2026-01-08 23:15:32.68	26.05	9.17	-49.9	-51.4	14.6	0.00e+00	0	24	0	270532608	66	4148
2026-01-08 23:15:33.67	26.12	9.25	-49.8	-51.3	14.6	0.00e+00	0	24	0	273678336	66	4132
2026-01-08 23:15:34.67	26.19	9.32	-49.7	-51.2	14.7	0.00e+00	0	24	0	276824064	66	4062
2026-01-08 23:15:35.67	26.26	9.40	-49.8	-51.2	14.7	0.00e+00	0	24	0	279969792	66	4090
2026-01-08 23:15:36.67	26.33	9.48	-49.8	-51.2	14.7	0.00e+00	0	24	0	283115520	66	4094
2026-01-08 23:15:37.67	26.40	9.56	-49.8	-51.3	14.7	0.00e+00	0	24	0	286261248	66	4101
2026-01-08 23:15:38.67	26.47	9.63	-49.7	-51.2	14.5	0.00e+00	0	24	0	289406976	65	4305
2026-01-08 23:15:39.66	26.54	9.71	-49.8	-51.3	14.5	0.00e+00	0	24	0	292552704	65	4344
2026-01-08 23:15:40.66	26.61	9.79	-49.8	-51.3	14.5	0.00e+00	0	24	0	295698432	65	4342
2026-01-08 23:15:41.66	26.68	9.87	-49.6	-51.1	14.6	0.00e+00	0	24	0	298844160	65	4256
2026-01-08 23:15:42.67	26.76	9.95	-49.6	-51.1	14.6	0.00e+00	0	24	0	301989888	65	4251
2026-01-08 23:15:43.67	26.83	10.03	-49.6	-51.0	14.6	0.00e+00	0	24	0	305135616	65	4229
2026-01-08 23:15:44.67	26.90	10.10	-49.5	-50.9	14.7	0.00e+00	0	24	0	308281344	65	4177
2026-01-08 23:15:45.67	26.98	10.18	-49.5	-50.9	14.7	0.00e+00	0	24	0	311427072	65	4151
2026-01-08 23:15:46.67	27.05	10.26	-49.5	-50.9	14.7	0.00e+00	0	24	0	314572800	65	4162
2026-01-08 23:15:47.66	27.12	10.34	-49.6	-51.0	14.6	0.00e+00	0	24	0	317718528	65	4221
2026-01-08 23:15:48.67	27.20	10.42	-49.5	-50.9	14.7	0.00e+00	0	24	0	320864256	65	4183
2026-01-08 23:15:49.67	27.27	10.50	-49.4	-50.8	14.7	0.00e+00	0	24	0	324009984	65	4124
2026-01-08 23:15:50.67	27.35	10.58	-49.4	-50.8	14.7	0.00e+00	0	24	0	327155712	65	4132
2026-01-08 23:15:51.67	27.43	10.66	-49.3	-50.7	14.8	0.00e+00	0	24	0	330301440	65	4063
2026-01-08 23:15:52.67	27.50	10.75	-49.3	-50.7	14.8	0.00e+00	0	24	0	333447168	65	4084
2026-01-08 23:15:53.66	27.58	10.83	-49.3	-50.7	14.8	0.00e+00	0	24	0	336592896	65	4053
2026-01-08 23:15:54.66	27.65	10.91	-49.3	-50.6	14.9	0.00e+00	0	24	0	339738624	65	4034
2026-01-08 23:15:55.66	27.73	10.99	-49.3	-50.7	14.8	0.00e+00	0	24	0	342884352	65	4058
2026-01-08 23:15:56.66	27.81	11.07	-49.3	-50.7	14.8	0.00e+00	0	24	0	346030080	65	4082
2026-01-08 23:15:57.66	27.89	11.15	-49.3	-50.7	14.8	0.00e+00	0	24	0	349175808	65	4087
2026-01-08 23:15:58.66	27.97	11.23	-49.3	-50.7	14.8	0.00e+00	0	24	0	352321536	65	4065
2026-01-08 23:15:59.65	28.05	11.32	-49.2	-50.6	14.9	0.00e+00	0	24	0	355467264	65	4030
2026-01-08 23:16:00.65	28.12	11.40	-49.3	-50.7	14.8	0.00e+00	0	24	0	357564416	65	4054
2026-01-08 23:16:01.65	28.20	11.48	-49.2	-50.6	14.9	0.00e+00	0	24	0	360710144	65	4024
2026-01-08 23:16:02.64	28.28	11.56	-49.3	-50.7	14.8	0.00e+00	0	24	0	363855872	65	4056
2026-01-08 23:16:03.64	28.36	11.65	-49.3	-50.7	14.8	0.00e+00	0	24	0	367001600	65	4054
2026-01-08 23:16:04.63	28.45	11.73	-49.1	-50.5	14.8	0.00e+00	0	24	0	370147328	64	4201
2026-01-08 23:16:05.64	28.53	11.82	-49.2	-50.6	14.7	0.00e+00	0	24	0	373293056	64	4249
2026-01-08 23:16:06.64	28.61	11.90	-49.1	-50.4	14.8	0.00e+00	0	24	0	376438784	64	4185
2026-01-08 23:16:07.63	28.69	11.98	-49.0	-50.3	14.9	0.00e+00	0	24	0	379584512	64	4137
2026-01-08 23:16:08.63	28.77	12.07	-49.0	-50.3	14.9	0.00e+00	0	24	0	382730240	64	4122
2026-01-08 23:16:09.62	28.86	12.15	-49.0	-50.4	14.9	0.00e+00	0	24	0	385875968	64	4151
2026-01-08 23:16:10.63	28.94	12.24	-49.0	-50.4	14.8	0.00e+00	0	24	0	389021696	64	4149
2026-01-08 23:16:11.63	29.03	12.32	-49.0	-50.3	14.9	0.00e+00	0	24	0	392167424	64	4124
2026-01-08 23:16:12.62	29.11	12.41	-48.8	-50.1	15.0	0.00e+00	0	24	0	395313152	64	4033
2026-01-08 23:16:13.62	29.20	12.49	-48.9	-50.2	14.9	0.00e+00	0	24	0	398458880	64	4091
2026-01-08 23:16:14.61	29.28	12.58	-48.9	-50.3	14.9	0.00e+00	0	24	0	401604608	64	4099
2026-01-08 23:16:15.61	29.37	12.66	-48.9	-50.2	14.9	0.00e+00	0	24	0	404750336	64	4061
2026-01-08 23:16:16.61	29.45	12.75	-48.9	-50.2	14.9	0.00e+00	0	24	0	407896064	64	4067
2026-01-08 23:16:17.61	29.54	12.84	-49.0	-50.3	14.9	0.00e+00	0	24	0	411041792	64	4108
2026-01-08 23:16:18.61	29.63	12.92	-49.1	-50.5	14.8	0.00e+00	0	24	0	414187520	64	4204
2026-01-08 23:16:19.62	29.72	13.01	-49.0	-50.3	14.9	0.00e+00	0	24	0	417333248	64	4108
2026-01-08 23:16:20.61	29.80	13.10	-48.8	-50.1	15.0	0.00e+00	0	24	0	420478976	64	4042
2026-01-08 23:16:21.60	29.89	13.19	-49.0	-50.3	14.9	0.00e+00	0	24	0	423624704	64	4129
2026-01-08 23:16:22.61	29.98	13.28	-48.9	-50.2	14.9	0.00e+00	0	24	0	426770432	64	4071
2026-01-08 23:16:23.61	30.07	13.36	-48.9	-50.2	14.9	0.00e+00	0	24	0	429916160	64	4066
2026-01-08 23:16:24.61	30.16	13.45	-48.8	-50.1	15.0	0.00e+00	0	24	0	433061888	64	4041
2026-01-08 23:16:25.60	30.25	13.54	-48.8	-50.1	15.0	0.00e+00	0	24	0	436207616	64	4008
2026-01-08 23:16:26.60	30.35	13.63	-48.7	-50.0	15.0	0.00e+00	0	24	0	439353344	64	3997
2026-01-08 23:16:27.60	30.44	13.72	-48.8	-50.0	15.0	0.00e+00	0	24	0	442499072	64	4004
2026-01-08 23:16:28.60	30.53	13.81	-48.8	-50.1	15.0	0.00e+00	0	24	0	445644800	64	4026
2026-01-08 23:16:29.60	30.62	13.90	-48.8	-50.1	15.0	0.00e+00	0	24	0	448790528	64	4016
2026-01-08 23:16:30.60	30.72	13.99	-48.8	-50.0	15.0	0.00e+00	0	24	0	451936256	64	4003
2026-01-08 23:16:31.60	30.81	14.08	-48.8	-50.1	15.0	0.00e+00	0	24	0	455081984	64	4022
2026-01-08 23:16:32.61	30.91	14.17	-48.7	-50.0	15.0	0.00e+00	0	24	0	458227712	64	3974
2026-01-08 23:16:33.60	31.00	14.26	-48.7	-50.0	14.9	0.00e+00	0	24	0	461373440	63	4207
2026-01-08 23:16:34.60	31.10	14.35	-48.7	-50.0	14.9	0.00e+00	0	24	0	464519168	63	4211
2026-01-08 23:16:35.60	31.19	14.44	-48.7	-50.0	14.9	0.00e+00	0	24	0	467664896	63	4201
2026-01-08 23:16:36.60	31.29	14.54	-48.6	-49.9	14.9	0.00e+00	0	24	0	470810624	63	4173
2026-01-08 23:16:37.59	31.39	14.63	-48.7	-50.0	14.9	0.00e+00	0	24	0	473956352	63	4213
2026-01-08 23:16:38.59	31.49	14.72	-48.6	-49.9	14.9	0.00e+00	0	24	0	477102080	63	4165
2026-01-08 23:16:39.60	31.59	14.81	-48.6	-49.9	14.9	0.00e+00	0	24	0	480247808	63	4173
2026-01-08 23:16:40.60	31.69	14.91	-48.7	-50.0	14.9	0.00e+00	0	24	0	483393536	63	4230
2026-01-08 23:16:41.60	31.79	15.00	-48.7	-50.0	14.9	0.00e+00	0	24	0	486539264	63	4202
2026-01-08 23:16:42.60	31.89	15.09	-48.7	-49.9	14.9	0.00e+00	0	24	0	489684992	63	4190
2026-01-08 23:16:43.60	31.99	15.19	-48.7	-50.0	14.9	0.00e+00	0	24	0	491782144	63	4235
2026-01-08 23:16:44.60	32.09	15.28	-48.7	-50.0	14.9	0.00e+00	0	24	0	494927872	63	4240
2026-01-08 23:16:45.59	32.19	15.37	-48.8	-50.0	14.9	0.00e+00	0	24	0	498073600	63	4236
2026-01-08 23:16:46.59	32.29	15.47	-48.8	-50.1	14.9	0.00e+00	0	24	0	501219328	63	4278
2026-01-08 23:16:47.59	32.40	15.56	-48.7	-50.0	14.9	0.00e+00	0	24	0	504365056	63	4221
2026-01-08 23:16:48.59	32.50	15.66	-48.6	-49.9	14.9	0.00e+00	0	24	0	507510784	63	4183
2026-01-08 23:16:49.59	32.61	15.75	-48.7	-50.0	14.9	0.00e+00	0	24	0	510656512	63	4215
2026-01-08 23:16:50.59	32.71	15.85	-48.7	-50.0	14.9	0.00e+00	0	24	0	513802240	63	4207
2026-01-08 23:16:51.58	32.82	15.94	-48.7	-50.0	14.9	0.00e+00	0	24	0	516947968	63	4200
2026-01-08 23:16:52.58	32.92	16.04	-48.7	-50.0	14.9	0.00e+00	0	24	0	520093696	63	4218
2026-01-08 23:16:53.58	33.03	16.14	-48.8	-50.1	14.9	0.00e+00	0	24	0	523239424	63	4253
2026-01-08 23:16:54.57	33.14	16.23	-48.8	-50.0	14.9	0.00e+00	0	24	0	526385152	63	4239
2026-01-08 23:16:55.57	33.25	16.33	-48.6	-49.9	15.0	0.00e+00	0	24	0	529530880	63	4158
2026-01-08 23:16:56.56	33.36	16.43	-48.7	-50.0	14.9	0.00e+00	0	24	0	532676608	63	4210
2026-01-08 23:16:57.57	33.47	16.53	-48.7	-50.0	14.9	0.00e+00	0	24	0	535822336	63	4203
2026-01-08 23:16:58.56	33.58	16.62	-48.7	-50.0	14.9	0.00e+00	0	24	0	538968064	63	4219
2026-01-08 23:16:59.56	33.69	16.72	-48.7	-50.0	14.9	0.00e+00	0	24	0	542113792	63	4232
2026-01-08 23:17:00.56	33.80	16.82	-48.9	-50.2	14.8	0.00e+00	0	24	0	545259520	63	4316
2026-01-08 23:17:01.55	33.91	16.92	-48.9	-50.2	14.8	0.00e+00	0	24	0	548405248	63	4300
2026-01-08 23:17:02.54	34.03	17.02	-48.9	-50.3	14.8	0.00e+00	0	24	0	551550976	63	4353
2026-01-08 23:17:03.54	34.14	17.12	-49.0	-50.3	14.8	0.00e+00	0	24	0	554696704	63	4366
2026-01-08 23:17:04.53	34.25	17.22	-49.0	-50.3	14.8	0.00e+00	0	24	0	557842432	63	4362
2026-01-08 23:17:05.54	34.37	17.32	-49.1	-50.4	14.7	0.00e+00	0	24	0	560988160	63	4418
2026-01-08 23:17:06.54	34.49	17.42	-49.0	-50.4	14.8	0.00e+00	0	24	0	564133888	63	4395
2026-01-08 23:17:07.53	34.60	17.52	-49.0	-50.3	14.8	0.00e+00	0	24	0	567279616	63	4355
2026-01-08 23:17:08.53	34.72	17.62	-49.0	-50.3	14.8	0.00e+00	0	24	0	570425344	63	4367
2026-01-08 23:17:09.53	34.84	17.72	-49.0	-50.3	14.8	0.00e+00	0	24	0	573571072	63	4372
2026-01-08 23:17:10.52	34.96	17.82	-49.1	-50.4	14.7	0.00e+00	0	24	0	576716800	63	4416
2026-01-08 23:17:11.52	35.08	17.92	-49.0	-50.3	14.8	0.00e+00	0	24	0	579862528	63	4389
2026-01-08 23:17:12.52	35.20	18.02	-49.0	-50.3	14.8	0.00e+00	0	24	0	583008256	63	4380
2026-01-08 23:17:13.52	35.32	18.13	-49.0	-50.3	14.8	0.00e+00	0	24	0	586153984	63	4362
2026-01-08 23:17:14.52	35.45	18.23	-49.0	-50.4	14.7	0.00e+00	0	24	0	589299712	63	4393
2026-01-08 23:17:15.52	35.57	18.33	-49.1	-50.4	14.7	0.00e+00	0	24	0	592445440	63	4426
2026-01-08 23:17:16.52	35.69	18.44	-49.1	-50.5	14.7	0.00e+00	0	24	0	595591168	63	4462
2026-01-08 23:17:17.52	35.82	18.54	-49.2	-50.5	14.7	0.00e+00	0	24	0	598736896	63	4473
2026-01-08 23:17:18.52	35.95	18.65	-49.1	-50.4	14.8	0.00e+00	0	24	0	601882624	63	4411
2026-01-08 23:17:19.51	36.07	18.75	-49.2	-50.5	14.7	0.00e+00	0	24	0	603979776	63	4473
2026-01-08 23:17:20.51	36.20	18.85	-49.2	-50.5	14.7	0.00e+00	0	24	0	607125504	63	4463
2026-01-08 23:17:21.51	36.33	18.96	-49.1	-50.4	14.8	0.00e+00	0	24	0	610271232	63	4416
2026-01-08 23:17:22.51	36.46	19.06	-49.0	-50.3	14.8	0.00e+00	0	24	0	613416960	63	4367
2026-01-08 23:17:23.50	36.59	19.17	-49.0	-50.3	14.8	0.00e+00	0	24	0	616562688	63	4369
2026-01-08 23:17:24.50	36.72	19.28	-48.9	-50.2	14.9	0.00e+00	0	24	0	619708416	63	4324
2026-01-08 23:17:25.50	36.85	19.38	-48.8	-50.1	14.9	0.00e+00	0	24	0	622854144	63	4290
2026-01-08 23:17:26.51	36.98	19.49	-48.8	-50.1	14.9	0.00e+00	0	24	0	625999872	63	4247
2026-01-08 23:17:27.52	37.12	19.60	-48.8	-50.0	14.9	0.00e+00	0	24	0	629145600	63	4235
2026-01-08 23:17:28.52	37.25	19.70	-48.7	-49.9	14.9	0.00e+00	0	24	0	632291328	63	4193
2026-01-08 23:17:29.53	37.39	19.81	-48.7	-50.0	15.0	0.00e+00	0	24	0	635437056	63	4201
2026-01-08 23:17:30.52	37.52	19.92	-48.8	-50.1	14.9	0.00e+00	0	24	0	638582784	63	4271
2026-01-08 23:17:31.52	37.66	20.03	-48.8	-50.1	14.9	0.00e+00	0	24	0	641728512	63	4258
2026-01-08 23:17:32.51	37.80	20.14	-48.8	-50.1	14.9	0.00e+00	0	24	0	644874240	63	4258
2026-01-08 23:17:33.51	37.94	20.25	-49.0	-50.3	14.8	0.00e+00	0	24	0	648019968	63	4349
2026-01-08 23:17:34.51	38.08	20.35	-48.8	-50.1	14.9	0.00e+00	0	24	0	651165696	63	4258
2026-01-08 23:17:35.50	38.22	20.46	-48.7	-50.0	14.9	0.00e+00	0	24	0	654311424	63	4201
2026-01-08 23:17:36.50	38.36	20.57	-48.6	-49.9	15.0	0.00e+00	0	24	0	657457152	63	4162
2026-01-08 23:17:37.50	38.50	20.68	-48.6	-49.8	15.0	0.00e+00	0	24	0	660602880	63	4130
2026-01-08 23:17:38.50	38.65	20.79	-48.6	-49.8	15.0	0.00e+00	0	24	0	663748608	63	4126
2026-01-08 23:17:39.49	38.79	20.90	-48.5	-49.8	15.0	0.00e+00	0	24	0	666894336	63	4125
2026-01-08 23:17:40.49	38.94	21.01	-48.5	-49.8	15.0	0.00e+00	0	24	0	670040064	63	4107
2026-01-08 23:17:41.49	39.09	21.13	-48.4	-49.7	15.1	0.00e+00	0	24	0	673185792	63	4057
2026-01-08 23:17:42.50	39.24	21.24	-48.6	-49.8	15.0	0.00e+00	0	24	0	676331520	63	4121
2026-01-08 23:17:43.50	39.39	21.35	-48.4	-49.6	15.1	0.00e+00	0	24	0	679477248	63	4051
2026-01-08 23:17:44.50	39.54	21.46	-48.5	-49.7	15.1	0.00e+00	0	24	0	682622976	63	4082
2026-01-08 23:17:45.50	39.69	21.57	-48.5	-49.8	15.0	0.00e+00	0	24	0	685768704	63	4108
2026-01-08 23:17:46.50	39.84	21.69	-48.5	-49.7	15.1	0.00e+00	0	24	0	688914432	63	4083
2026-01-08 23:17:47.50	39.99	21.80	-48.4	-49.7	15.1	0.00e+00	0	24	0	692060160	63	4061
2026-01-08 23:17:48.50	40.15	21.91	-48.3	-49.5	15.1	0.00e+00	0	24	0	695205888	63	3988
2026-01-08 23:17:49.51	40.31	22.03	-48.2	-49.4	15.2	0.00e+00	0	24	0	698351616	63	3954
2026-01-08 23:17:50.52	40.46	22.14	-48.0	-49.2	15.1	0.00e+00	0	24	0	701497344	62	4094
2026-01-08 23:17:51.51	40.62	22.26	-47.8	-49.0	15.2	0.00e+00	0	24	0	704643072	62	3982
2026-01-08 23:17:52.51	40.78	22.37	-47.8	-48.9	15.3	0.00e+00	0	24	0	707788800	62	3953
2026-01-08 23:17:53.51	40.94	22.49	-47.8	-49.0	15.2	0.00e+00	0	24	0	710934528	62	3971
2026-01-08 23:17:54.51	41.10	22.60	-47.8	-48.9	15.3	0.00e+00	0	24	0	714080256	62	3952
2026-01-08 23:17:55.51	41.26	22.72	-47.9	-49.1	15.2	0.00e+00	0	24	0	717225984	62	4019
2026-01-08 23:17:56.50	41.43	22.83	-47.9	-49.1	15.2	0.00e+00	0	24	0	720371712	62	4037
2026-01-08 23:17:57.50	41.59	22.95	-47.9	-49.1	15.2	0.00e+00	0	24	0	723517440	62	4043
2026-01-08 23:17:58.50	41.76	23.07	-47.9	-49.1	15.2	0.00e+00	0	24	0	726663168	62	4042
2026-01-08 23:17:59.49	41.92	23.18	-47.9	-49.1	15.2	0.00e+00	0	24	0	729808896	62	4030
2026-01-08 23:18:00.50	42.09	23.30	-47.9	-49.1	15.2	0.00e+00	0	24	0	732954624	62	4036
2026-01-08 23:18:01.49	42.26	23.42	-47.9	-49.1	15.2	0.00e+00	0	24	0	736100352	62	4044
2026-01-08 23:18:02.48	42.43	23.53	-47.7	-48.9	15.3	0.00e+00	0	24	0	739246080	62	3915
2026-01-08 23:18:03.49	42.61	23.65	-47.6	-48.8	15.2	0.00e+00	0	24	0	742391808	61	4102
2026-01-08 23:18:04.49	42.78	23.77	-47.6	-48.7	15.2	0.00e+00	0	24	0	745537536	61	4082
2026-01-08 23:18:05.48	42.95	23.89	-47.6	-48.8	15.2	0.00e+00	0	24	0	748683264	61	4104
2026-01-08 23:18:06.48	43.13	24.01	-47.7	-48.8	15.2	0.00e+00	0	24	0	751828992	61	4138
2026-01-08 23:18:07.48	43.31	24.13	-47.8	-49.0	15.1	0.00e+00	0	24	0	754974720	61	4230
2026-01-08 23:18:08.47	43.48	24.24	-48.0	-49.2	15.0	0.00e+00	0	24	0	758120448	61	4298
2026-01-08 23:18:09.47	43.66	24.36	-48.0	-49.2	15.0	0.00e+00	0	24	0	761266176	61	4294
2026-01-08 23:18:10.47	43.84	24.48	-48.1	-49.3	15.0	0.00e+00	0	24	0	763363328	61	4345
2026-01-08 23:18:11.47	44.03	24.60	-48.2	-49.4	15.0	0.00e+00	0	24	0	766509056	61	4406
2026-01-08 23:18:12.46	44.21	24.72	-47.9	-49.1	15.1	0.00e+00	0	24	0	769654784	61	4272
2026-01-08 23:18:13.46	44.40	24.84	-47.7	-48.9	15.1	0.00e+00	0	24	0	772800512	61	4178
2026-01-08 23:18:14.46	44.58	24.96	-47.8	-49.0	15.1	0.00e+00	0	24	0	775946240	61	4201
2026-01-08 23:18:15.45	44.77	25.08	-47.8	-49.0	15.1	0.00e+00	0	24	0	779091968	61	4207
2026-01-08 23:18:16.44	44.96	25.20	-47.9	-49.0	15.1	0.00e+00	0	24	0	782237696	61	4238
2026-01-08 23:18:17.45	45.15	25.33	-48.0	-49.2	15.0	0.00e+00	0	24	0	785383424	61	4311
2026-01-08 23:18:18.45	45.34	25.45	-48.2	-49.4	15.0	0.00e+00	0	24	0	788529152	61	4424
2026-01-08 23:18:19.45	45.54	25.57	-48.3	-49.6	14.9	0.00e+00	0	24	0	791674880	61	4505
2026-01-08 23:18:20.44	45.73	25.69	-48.3	-49.6	14.9	0.00e+00	0	24	0	794820608	61	4496
2026-01-08 23:18:21.44	45.93	25.81	-48.4	-49.7	15.0	0.00e+00	0	24	0	797966336	62	4310
2026-01-08 23:18:22.44	46.13	25.94	-48.5	-49.7	14.9	0.00e+00	0	24	0	801112064	62	4317
2026-01-08 23:18:23.44	46.33	26.06	-48.5	-49.8	14.9	0.00e+00	0	24	0	804257792	62	4352
2026-01-08 23:18:24.44	46.53	26.18	-48.1	-49.3	15.1	0.00e+00	0	24	0	807403520	62	4131
2026-01-08 23:18:25.44	46.73	26.31	-48.1	-49.3	15.1	0.00e+00	0	24	0	810549248	62	4133
2026-01-08 23:18:26.45	46.94	26.43	-48.0	-49.1	15.2	0.00e+00	0	24	0	813694976	62	4045
2026-01-08 23:18:27.45	47.14	26.55	-47.9	-49.1	15.2	0.00e+00	0	24	0	816840704	62	4020
2026-01-08 23:18:28.45	47.35	26.68	-48.1	-49.3	15.1	0.00e+00	0	24	0	819986432	62	4111
2026-01-08 23:18:29.45	47.56	26.80	-48.2	-49.4	15.1	0.00e+00	0	24	0	823132160	62	4169
2026-01-08 23:18:30.45	47.77	26.93	-48.4	-49.6	15.0	0.00e+00	0	24	0	826277888	62	4273
2026-01-08 23:18:31.45	47.98	27.05	-48.6	-49.8	14.9	0.00e+00	0	24	0	829423616	62	4381
2026-01-08 23:18:32.45	48.20	27.17	-48.7	-50.0	14.9	0.00e+00	0	24	0	832569344	62	4452
2026-01-08 23:18:33.45	48.41	27.30	-48.6	-49.9	14.9	0.00e+00	0	24	0	835715072	62	4394
2026-01-08 23:18:34.46	48.63	27.43	-48.4	-49.7	15.0	0.00e+00	0	24	0	838860800	62	4304
2026-01-08 23:18:35.46	48.85	27.55	-48.5	-49.7	14.9	0.00e+00	0	24	0	842006528	62	4322
2026-01-08 23:18:36.46	49.07	27.68	-48.4	-49.6	15.0	0.00e+00	0	24	0	845152256	62	4284
2026-01-08 23:18:37.45	49.29	27.80	-48.3	-49.5	15.0	0.00e+00	0	24	0	848297984	62	4224
2026-01-08 23:18:38.45	49.52	27.92	-48.3	-49.5	15.0	0.00e+00	0	24	0	851443712	62	4234
2026-01-08 23:18:39.45	49.74	28.05	-48.4	-49.6	15.0	0.00e+00	0	24	0	854589440	62	4287
2026-01-08 23:18:40.45	49.97	28.18	-48.6	-49.8	14.9	0.00e+00	0	24	0	857735168	62	4370
2026-01-08 23:18:41.45	50.20	28.30	-48.7	-50.0	14.9	0.00e+00	0	24	0	860880896	62	4458
2026-01-08 23:18:42.45	50.43	28.43	-48.7	-50.0	14.9	0.00e+00	0	24	0	864026624	62	4470
2026-01-08 23:18:43.45	50.66	28.55	-48.8	-50.0	14.8	0.00e+00	0	24	0	867172352	62	4479
2026-01-08 23:18:44.45	50.90	28.68	-48.5	-49.7	14.9	0.00e+00	0	24	0	870318080	62	4334
2026-01-08 23:18:45.45	51.14	28.80	-48.5	-49.7	14.9	0.00e+00	0	24	0	873463808	62	4328
2026-01-08 23:18:46.45	51.37	28.93	-48.3	-49.5	15.0	0.00e+00	0	24	0	876609536	62	4201
2026-01-08 23:18:47.45	51.61	29.06	-48.2	-49.4	15.1	0.00e+00	0	24	0	879755264	62	4149
2026-01-08 23:18:48.46	51.86	29.18	-48.3	-49.5	15.1	0.00e+00	0	24	0	882900992	62	4219
2026-01-08 23:18:49.45	52.10	29.31	-48.4	-49.6	15.0	0.00e+00	0	24	0	886046720	62	4267
2026-01-08 23:18:50.46	52.35	29.44	-48.6	-49.8	14.9	0.00e+00	0	24	0	889192448	62	4379
2026-01-08 23:18:51.46	52.60	29.56	-48.5	-49.8	15.0	0.00e+00	0	24	0	892338176	62	4358
2026-01-08 23:18:52.46	52.85	29.69	-48.4	-49.7	15.0	0.00e+00	0	24	0	895483904	62	4294
2026-01-08 23:18:53.46	53.10	29.81	-48.3	-49.5	15.0	0.00e+00	0	24	0	897581056	62	4213
2026-01-08 23:18:54.46	53.35	29.94	-48.0	-49.2	15.1	0.00e+00	0	24	0	900726784	62	4081
2026-01-08 23:18:55.46	53.61	30.07	-48.0	-49.2	15.2	0.00e+00	0	24	0	903872512	62	4071
2026-01-08 23:18:56.46	53.86	30.19	-48.0	-49.2	15.2	0.00e+00	0	24	0	907018240	62	4056
2026-01-08 23:18:57.46	54.12	30.32	-48.1	-49.4	15.1	0.00e+00	0	24	0	910163968	62	4148
2026-01-08 23:18:58.46	54.38	30.44	-48.3	-49.5	15.0	0.00e+00	0	24	0	913309696	62	4239
2026-01-08 23:18:59.47	54.65	30.57	-48.5	-49.8	14.9	0.00e+00	0	24	0	917504000	62	4355
2026-01-08 23:19:00.47	54.92	30.70	-48.6	-49.9	14.9	0.00e+00	0	24	0	919601152	62	4424
2026-01-08 23:19:01.46	55.18	30.82	-48.6	-49.8	14.9	0.00e+00	0	24	0	922746880	62	4386
2026-01-08 23:19:02.46	55.45	30.94	-48.6	-49.8	14.9	0.00e+00	0	24	0	925892608	62	4383
2026-01-08 23:19:03.45	55.72	31.07	-48.5	-49.7	15.0	0.00e+00	0	24	0	929038336	62	4339
2026-01-08 23:19:04.46	55.99	31.19	-48.5	-49.7	15.0	0.00e+00	0	24	0	932184064	62	4307
2026-01-08 23:19:05.46	56.27	31.32	-48.4	-49.6	15.0	0.00e+00	0	24	0	935329792	62	4291
2026-01-08 23:19:06.46	56.55	31.44	-48.4	-49.6	15.0	0.00e+00	0	24	0	938475520	62	4258
2026-01-08 23:19:07.45	56.83	31.57	-48.6	-49.8	14.9	0.00e+00	0	24	0	941621248	62	4381
2026-01-08 23:19:08.45	57.11	31.69	-48.7	-49.9	14.9	0.00e+00	0	24	0	944766976	62	4415
2026-01-08 23:19:09.44	57.39	31.81	-48.8	-50.0	14.8	0.00e+00	0	24	0	947912704	62	4491
2026-01-08 23:19:10.44	57.67	31.94	-48.9	-50.2	14.9	0.00e+00	0	24	0	951058432	63	4319
2026-01-08 23:19:11.43	57.96	32.06	-48.9	-50.2	14.8	0.00e+00	0	24	0	954204160	63	4328
2026-01-08 23:19:12.42	58.25	32.18	-48.8	-50.1	14.9	0.00e+00	0	24	0	957349888	63	4256
2026-01-08 23:19:13.42	58.54	32.31	-48.7	-50.0	15.0	0.00e+00	0	24	0	960495616	63	4200
2026-01-08 23:19:14.41	58.83	32.43	-48.8	-50.1	14.9	0.00e+00	0	24	0	963641344	63	4249
2026-01-08 23:19:15.41	59.13	32.55	-48.8	-50.1	14.9	0.00e+00	0	24	0	966787072	63	4263
2026-01-08 23:19:16.40	59.43	32.67	-48.8	-50.1	14.9	0.00e+00	0	24	0	969932800	63	4266
2026-01-08 23:19:17.40	59.73	32.79	-48.9	-50.1	14.9	0.00e+00	0	24	0	973078528	63	4291
2026-01-08 23:19:18.40	60.03	32.91	-49.1	-50.4	14.8	0.00e+00	0	24	0	976224256	63	4399
2026-01-08 23:19:19.40	60.34	33.03	-49.2	-50.5	14.7	0.00e+00	0	24	0	979369984	63	4491
2026-01-08 23:19:20.39	60.64	33.15	-49.3	-50.6	14.7	0.00e+00	0	24	0	982515712	63	4503
2026-01-08 23:19:21.39	60.95	33.27	-49.4	-50.7	14.8	0.00e+00	0	24	0	985661440	64	4316
2026-01-08 23:19:22.38	61.26	33.39	-49.4	-50.7	14.8	0.00e+00	0	24	0	988807168	64	4317
2026-01-08 23:19:23.38	61.58	33.51	-49.4	-50.7	14.8	0.00e+00	0	24	0	991952896	64	4326
2026-01-08 23:19:24.38	61.89	33.63	-49.5	-50.9	14.7	0.00e+00	0	24	0	995098624	64	4408
2026-01-08 23:19:25.37	62.21	33.75	-49.7	-51.1	14.6	0.00e+00	0	24	0	998244352	64	4515
2026-01-08 23:19:26.38	62.53	33.87	-49.8	-51.2	14.6	0.00e+00	0	24	0	1001390080	64	4568
2026-01-08 23:19:27.37	62.86	33.98	-50.0	-51.4	14.6	0.00e+00	0	24	0	1004535808	65	4428
2026-01-08 23:19:28.37	63.18	34.10	-49.9	-51.3	14.6	0.00e+00	0	24	0	1007681536	65	4381
2026-01-08 23:19:29.37	63.51	34.21	-49.9	-51.2	14.7	0.00e+00	0	24	0	1010827264	65	4331
2026-01-08 23:19:30.37	63.84	34.33	-49.8	-51.1	14.7	0.00e+00	0	24	0	1013972992	65	4280
2026-01-08 23:19:31.37	64.17	34.44	-49.8	-51.1	14.7	0.00e+00	0	24	0	1017118720	65	4287
2026-01-08 23:19:32.36	64.51	34.56	-49.9	-51.3	14.7	0.00e+00	0	24	0	1019215872	65	4346
2026-01-08 23:19:33.36	64.84	34.67	-49.8	-51.2	14.7	0.00e+00	0	24	0	1022361600	65	4329
2026-01-08 23:19:34.35	65.18	34.78	-49.8	-51.2	14.7	0.00e+00	0	24	0	1025507328	65	4318
2026-01-08 23:19:35.35	65.52	34.89	-49.9	-51.3	14.6	0.00e+00	0	24	0	1028653056	65	4379
2026-01-08 23:19:36.35	65.87	35.01	-49.8	-51.1	14.7	0.00e+00	0	24	0	1031798784	65	4280
2026-01-08 23:19:37.35	66.22	35.12	-49.9	-51.3	14.7	0.00e+00	0	24	0	1034944512	65	4342
2026-01-08 23:19:38.35	66.57	35.23	-49.8	-51.2	14.7	0.00e+00	0	24	0	1038090240	65	4337
2026-01-08 23:19:39.36	66.92	35.34	-50.0	-51.5	14.6	0.00e+00	0	24	0	1041235968	65	4450
2026-01-08 23:19:40.35	67.27	35.44	-50.0	-51.4	14.6	0.00e+00	0	24	0	1044381696	65	4428
2026-01-08 23:19:41.36	67.63	35.55	-50.0	-51.4	14.6	0.00e+00	0	24	0	1047527424	65	4406
2026-01-08 23:19:42.35	67.99	35.66	-49.7	-51.1	14.7	0.00e+00	0	24	0	1050673152	65	4256
2026-01-08 23:19:43.35	68.35	35.76	-49.7	-51.0	14.8	0.00e+00	0	24	0	1053818880	65	4211
2026-01-08 23:19:44.36	68.71	35.87	-49.9	-51.3	14.6	0.00e+00	0	24	0	1056964608	65	4341
2026-01-08 23:19:45.36	69.08	35.97	-49.8	-51.2	14.7	0.00e+00	0	24	0	1060110336	65	4307
2026-01-08 23:19:46.36	69.45	36.08	-49.9	-51.3	14.6	0.00e+00	0	24	0	1063256064	65	4354
2026-01-08 23:19:47.36	69.82	36.18	-49.8	-51.2	14.7	0.00e+00	0	24	0	1066401792	65	4324
2026-01-08 23:19:48.36	70.19	36.28	-49.8	-51.2	14.7	0.00e+00	0	24	0	1069547520	65	4293
2026-01-08 23:19:49.35	70.56	36.38	-49.7	-51.1	14.7	0.00e+00	0	24	0	1072693248	65	4267
2026-01-08 23:19:50.36	70.94	36.48	-49.7	-51.1	14.8	0.00e+00	0	24	0	1075838976	65	4255
2026-01-08 23:19:51.36	71.32	36.57	-49.8	-51.1	14.7	0.00e+00	0	24	0	1078984704	65	4269
2026-01-08 23:19:52.36	71.70	36.67	-49.8	-51.2	14.7	0.00e+00	0	24	0	1082130432	65	4319
2026-01-08 23:19:53.35	72.08	36.77	-49.8	-51.2	14.7	0.00e+00	0	24	0	1085276160	65	4322
2026-01-08 23:19:54.35	72.47	36.86	-49.9	-51.2	14.7	0.00e+00	0	24	0	1088421888	65	4339
2026-01-08 23:19:55.35	72.86	36.95	-49.7	-51.1	14.8	0.00e+00	0	24	0	1091567616	65	4267
2026-01-08 23:19:56.35	73.25	37.05	-49.6	-51.0	14.8	0.00e+00	0	24	0	1094713344	65	4194
2026-01-08 23:19:57.35	73.64	37.14	-49.5	-50.9	14.9	0.00e+00	0	24	0	1097859072	65	4155
2026-01-08 23:19:58.35	74.03	37.23	-49.6	-51.0	14.8	0.00e+00	0	24	0	1101004800	65	4214
2026-01-08 23:19:59.35	74.43	37.31	-49.6	-51.0	14.8	0.00e+00	0	24	0	1104150528	65	4209
2026-01-08 23:20:00.35	74.83	37.40	-49.8	-51.2	14.7	0.00e+00	0	24	0	1107296256	65	4319
2026-01-08 23:20:01.34	75.23	37.49	-49.9	-51.3	14.7	0.00e+00	0	24	0	1110441984	65	4352
2026-01-08 23:20:02.35	75.63	37.57	-49.8	-51.2	14.7	0.00e+00	0	24	0	1113587712	65	4300
2026-01-08 23:20:03.35	76.04	37.65	-49.9	-51.3	14.7	0.00e+00	0	24	0	1116733440	65	4369
2026-01-08 23:20:04.35	76.45	37.74	-50.1	-51.6	14.5	0.00e+00	0	24	0	1119879168	65	4508
2026-01-08 23:20:05.34	76.85	37.82	-50.2	-51.6	14.5	0.00e+00	0	24	0	1123024896	65	4527
2026-01-08 23:20:06.34	77.26	37.89	-50.2	-51.6	14.5	0.00e+00	0	24	0	1126170624	65	4525
2026-01-08 23:20:07.34	77.68	37.97	-50.4	-51.9	14.5	0.00e+00	0	24	0	1129316352	66	4422
2026-01-08 23:20:08.34	78.09	38.05	-50.6	-52.1	14.4	0.00e+00	0	24	0	1132462080	66	4494
2026-01-08 23:20:09.33	78.50	38.12	-50.4	-51.9	14.5	0.00e+00	0	24	0	1135607808	66	4414
2026-01-08 23:20:10.33	78.92	38.20	-50.5	-51.9	14.5	0.00e+00	0	24	0	1138753536	66	4426
2026-01-08 23:20:11.33	79.34	38.27	-50.6	-52.1	14.4	0.00e+00	0	24	0	1141899264	66	4507
2026-01-08 23:20:12.33	79.77	38.34	-50.8	-52.3	14.3	0.00e+00	0	24	0	1145044992	66	4622
2026-01-08 23:20:13.33	80.19	38.40	-50.9	-52.4	14.4	0.00e+00	0	24	0	1148190720	67	4433
2026-01-08 23:20:14.32	80.61	38.47	-50.8	-52.4	14.4	0.00e+00	0	24	0	1151336448	67	4400
2026-01-08 23:20:15.32	81.04	38.54	-50.8	-52.3	14.4	0.00e+00	0	24	0	1154482176	67	4377
2026-01-08 23:20:16.33	81.47	38.60	-51.0	-52.6	14.3	0.00e+00	0	24	0	1157627904	67	4509
2026-01-08 23:20:17.32	81.90	38.66	-51.0	-52.6	14.3	0.00e+00	0	24	0	1160773632	67	4503
2026-01-08 23:20:18.32	82.33	38.72	-50.8	-52.4	14.4	0.00e+00	0	24	0	1163919360	67	4398
2026-01-08 23:20:19.32	82.77	38.78	-50.6	-52.1	14.5	0.00e+00	0	24	0	1166016512	67	4260
2026-01-08 23:20:20.32	83.20	38.84	-50.3	-51.7	14.7	0.00e+00	0	24	0	1169162240	67	4089
2026-01-08 23:20:21.33	83.65	38.89	-50.2	-51.6	14.8	0.00e+00	0	24	0	1172307968	67	4019
2026-01-08 23:20:22.33	84.08	38.95	-50.1	-51.4	14.7	0.00e+00	0	24	0	1175453696	66	4192
2026-01-08 23:20:23.33	84.52	39.00	-50.4	-51.8	14.6	0.00e+00	0	24	0	1178599424	66	4368
2026-01-08 23:20:24.33	84.97	39.05	-50.4	-51.8	14.5	0.00e+00	0	24	0	1181745152	66	4382
2026-01-08 23:20:25.33	85.41	39.09	-50.4	-51.9	14.5	0.00e+00	0	24	0	1184890880	66	4409
2026-01-08 23:20:26.32	85.85	39.14	-50.5	-51.9	14.5	0.00e+00	0	24	0	1188036608	66	4436
2026-01-08 23:20:27.33	86.30	39.18	-50.6	-52.1	14.4	0.00e+00	0	24	0	1191182336	66	4528
2026-01-08 23:20:28.33	86.74	39.23	-50.8	-52.4	14.3	0.00e+00	0	24	0	1194328064	66	4685
2026-01-08 23:20:29.33	87.19	39.27	-50.9	-52.5	14.4	0.00e+00	0	24	0	1197473792	67	4465
2026-01-08 23:20:30.33	87.64	39.31	-50.7	-52.2	14.5	0.00e+00	0	24	0	1200619520	67	4305
2026-01-08 23:20:31.33	88.09	39.34	-50.5	-51.9	14.6	0.00e+00	0	24	0	1203765248	67	4182
2026-01-08 23:20:32.33	88.54	39.38	-50.5	-51.9	14.6	0.00e+00	0	24	0	1206910976	67	4192
2026-01-08 23:20:33.32	88.99	39.41	-50.6	-52.1	14.6	0.00e+00	0	24	0	1210056704	67	4257
2026-01-08 23:20:34.32	89.44	39.44	-50.5	-51.9	14.6	0.00e+00	0	24	0	1213202432	67	4190
2026-01-08 23:20:35.32	89.89	39.47	-50.4	-51.8	14.7	0.00e+00	0	24	0	1216348160	67	4131
2026-01-08 23:20:36.33	90.35	39.50	-50.3	-51.7	14.8	0.00e+00	0	24	0	1219493888	67	4093
2026-01-08 23:20:37.33	90.81	39.52	-50.2	-51.6	14.7	0.00e+00	0	24	0	1222639616	66	4273
2026-01-08 23:20:38.33	91.26	39.54	-50.5	-52.0	14.5	0.00e+00	0	24	0	1225785344	66	4465
2026-01-08 23:20:39.33	91.72	39.57	-50.8	-52.3	14.3	0.00e+00	0	24	0	1228931072	66	4628
2026-01-08 23:20:40.33	92.18	39.59	-50.7	-52.3	14.4	0.00e+00	0	24	0	1232076800	66	4604
2026-01-08 23:20:41.33	92.63	39.60	-50.6	-52.1	14.4	0.00e+00	0	24	0	1235222528	66	4512
2026-01-08 23:20:42.32	93.09	39.62	-50.8	-52.2	14.4	0.00e+00	0	24	0	1238368256	66	4598
2026-01-08 23:20:43.33	93.55	39.63	-51.0	-52.6	14.3	0.00e+00	0	24	0	1241513984	67	4508
2026-01-08 23:20:44.33	94.01	39.64	-51.2	-52.8	14.1	0.00e+00	0	24	0	1244659712	67	4650
2026-01-08 23:20:45.33	94.47	39.65	-51.5	-53.1	14.1	0.00e+00	0	24	0	1247805440	68	4538
2026-01-08 23:20:46.33	94.93	39.66	-51.3	-52.9	14.3	0.00e+00	0	24	0	1250951168	68	4415
2026-01-08 23:20:47.34	95.39	39.66	-51.2	-52.7	14.4	0.00e+00	0	24	0	1254096896	68	4319
2026-01-08 23:20:48.33	95.84	39.67	-51.1	-52.6	14.5	0.00e+00	0	24	0	1257242624	68	4267
2026-01-08 23:20:49.34	96.31	39.67	-51.2	-52.7	14.4	0.00e+00	0	24	0	1260388352	68	4329
2026-01-08 23:20:50.34	96.77	39.67	-51.3	-52.8	14.3	0.00e+00	0	24	0	1263534080	68	4388
2026-01-08 23:20:51.34	97.23	39.66	-51.3	-52.8	14.4	0.00e+00	0	24	0	1266679808	68	4378
2026-01-08 23:20:52.34	97.69	39.66	-51.0	-52.5	14.5	0.00e+00	0	24	0	1269825536	68	4218
2026-01-08 23:20:53.34	98.15	39.65	-50.8	-52.3	14.7	0.00e+00	0	24	0	1272971264	68	4110
2026-01-08 23:20:54.33	98.60	39.64	-50.9	-52.4	14.5	0.00e+00	0	24	0	1276116992	68	4168
2026-01-08 23:20:55.33	99.06	39.63	-51.1	-52.6	14.5	0.00e+00	0	24	0	1279262720	68	4259
2026-01-08 23:20:56.33	99.52	39.62	-51.2	-52.7	14.4	0.00e+00	0	24	0	1282408448	68	4326
2026-01-08 23:20:57.33	99.97	39.60	-51.5	-53.1	14.2	0.00e+00	0	24	0	1285554176	68	4509
2026-01-08 23:20:58.33	100.43	39.58	-51.4	-53.0	14.3	0.00e+00	0	24	0	1288699904	68	4464
2026-01-08 23:20:59.33	100.89	39.57	-51.2	-52.7	14.4	0.00e+00	0	24	0	1291845632	68	4304
2026-01-08 23:21:00.33	101.34	39.54	-51.2	-52.7	14.4	0.00e+00	0	24	0	1294991360	68	4330
2026-01-08 23:21:01.33	101.80	39.52	-51.1	-52.7	14.4	0.00e+00	0	24	0	1298137088	68	4309
2026-01-08 23:21:02.33	102.26	39.50	-51.0	-52.5	14.5	0.00e+00	0	24	0	1301282816	68	4204
2026-01-08 23:21:03.34	102.71	39.47	-51.0	-52.6	14.5	0.00e+00	0	24	0	1304428544	68	4251
2026-01-08 23:21:04.33	103.16	39.44	-51.0	-52.5	14.5	0.00e+00	0	24	0	1307574272	68	4224
2026-01-08 23:21:05.32	103.61	39.41	-51.0	-52.5	14.5	0.00e+00	0	24	0	1310720000	68	4214
2026-01-08 23:21:06.32	104.06	39.38	-51.4	-53.0	14.3	0.00e+00	0	24	0	1313865728	68	4446
2026-01-08 23:21:07.31	104.51	39.34	-51.4	-53.0	14.2	0.00e+00	0	24	0	1315962880	68	4493
2026-01-08 23:21:08.31	104.96	39.31	-51.3	-52.8	14.3	0.00e+00	0	24	0	1319108608	68	4386
2026-01-08 23:21:09.31	105.41	39.27	-51.1	-52.6	14.5	0.00e+00	0	24	0	1322254336	68	4267
2026-01-08 23:21:10.30	105.85	39.23	-50.9	-52.4	14.6	0.00e+00	0	24	0	1325400064	68	4176
2026-01-08 23:21:11.30	106.30	39.18	-50.4	-51.8	14.7	0.00e+00	0	24	0	1328545792	67	4138
2026-01-08 23:21:12.29	106.74	39.14	-50.5	-52.0	14.7	0.00e+00	0	24	0	1331691520	67	4205
2026-01-08 23:21:13.28	107.18	39.09	-50.5	-51.9	14.6	0.00e+00	0	24	0	1334837248	67	4193
2026-01-08 23:21:14.29	107.63	39.05	-50.6	-52.0	14.6	0.00e+00	0	24	0	1337982976	67	4223
2026-01-08 23:21:15.28	108.07	39.00	-50.5	-52.0	14.6	0.00e+00	0	24	0	1341128704	67	4195
2026-01-08 23:21:16.28	108.51	38.95	-50.5	-51.9	14.6	0.00e+00	0	24	0	1344274432	67	4186
2026-01-08 23:21:17.27	108.94	38.89	-50.6	-52.0	14.6	0.00e+00	0	24	0	1347420160	67	4241
2026-01-08 23:21:18.27	109.38	38.84	-50.4	-51.9	14.6	0.00e+00	0	24	0	1350565888	67	4148
2026-01-08 23:21:19.27	109.82	38.78	-50.0	-51.3	14.8	0.00e+00	0	24	0	1353711616	66	4130
2026-01-08 23:21:20.27	110.25	38.72	-50.1	-51.4	14.7	0.00e+00	0	24	0	1356857344	66	4193
2026-01-08 23:21:21.27	110.68	38.66	-50.4	-51.8	14.5	0.00e+00	0	24	0	1360003072	66	4373
2026-01-08 23:21:22.27	111.12	38.60	-50.3	-51.8	14.6	0.00e+00	0	24	0	1363148800	66	4355
2026-01-08 23:21:23.26	111.54	38.54	-50.3	-51.8	14.5	0.00e+00	0	24	0	1366294528	66	4357
2026-01-08 23:21:24.26	111.97	38.47	-50.1	-51.5	14.7	0.00e+00	0	24	0	1369440256	66	4222
2026-01-08 23:21:25.26	112.40	38.41	-49.6	-50.9	14.8	0.00e+00	0	24	0	1372585984	65	4148
2026-01-08 23:21:26.26	112.82	38.34	-49.5	-50.8	14.9	0.00e+00	0	24	0	1375731712	65	4104
2026-01-08 23:21:27.25	113.24	38.27	-49.5	-50.9	14.9	0.00e+00	0	24	0	1378877440	65	4149
2026-01-08 23:21:28.26	113.67	38.20	-49.7	-51.1	14.8	0.00e+00	0	24	0	1382023168	65	4248
2026-01-08 23:21:29.26	114.09	38.12	-49.8	-51.1	14.7	0.00e+00	0	24	0	1385168896	65	4286
2026-01-08 23:21:30.26	114.50	38.05	-50.1	-51.5	14.5	0.00e+00	0	24	0	1388314624	65	4492
2026-01-08 23:21:31.26	114.92	37.97	-50.7	-52.2	14.4	0.00e+00	0	24	0	1391460352	66	4564
2026-01-08 23:21:32.26	115.33	37.89	-50.8	-52.3	14.3	0.00e+00	0	24	0	1394606080	66	4618
2026-01-08 23:21:33.26	115.75	37.81	-50.9	-52.4	14.2	0.00e+00	0	24	0	1397751808	66	4687
2026-01-08 23:21:34.27	116.16	37.73	-50.6	-52.1	14.4	0.00e+00	0	24	0	1400897536	66	4498
2026-01-08 23:21:35.26	116.56	37.65	-50.2	-51.6	14.6	0.00e+00	0	24	0	1404043264	66	4273
2026-01-08 23:21:36.26	116.97	37.57	-50.0	-51.4	14.7	0.00e+00	0	24	0	1407188992	66	4165
2026-01-08 23:21:37.26	117.37	37.48	-50.1	-51.5	14.7	0.00e+00	0	24	0	1410334720	66	4225
2026-01-08 23:21:38.26	117.78	37.40	-50.1	-51.6	14.7	0.00e+00	0	24	0	1413480448	66	4252
2026-01-08 23:21:39.26	118.17	37.31	-50.0	-51.4	14.8	0.00e+00	0	24	0	1416626176	66	4164
2026-01-08 23:21:40.25	118.57	37.22	-50.1	-51.5	14.7	0.00e+00	0	24	0	1419771904	66	4218
2026-01-08 23:21:41.24	118.96	37.13	-50.0	-51.4	14.8	0.00e+00	0	24	0	1422917632	66	4166
2026-01-08 23:21:42.24	119.35	37.04	-49.9	-51.3	14.8	0.00e+00	0	24	0	1426063360	66	4136
2026-01-08 23:21:43.24	119.74	36.95	-49.9	-51.3	14.8	0.00e+00	0	24	0	1429209088	66	4106
2026-01-08 23:21:44.23	120.13	36.86	-49.8	-51.1	14.8	0.00e+00	0	24	0	1432354816	66	4050
2026-01-08 23:21:45.23	120.52	36.76	-49.6	-50.9	14.8	0.00e+00	0	24	0	1434451968	65	4176
2026-01-08 23:21:46.23	120.90	36.67	-49.7	-51.1	14.7	0.00e+00	0	24	0	1437597696	65	4274
2026-01-08 23:21:47.22	121.28	36.57	-50.1	-51.5	14.5	0.00e+00	0	24	0	1440743424	65	4490
2026-01-08 23:21:48.22	121.66	36.47	-50.3	-51.7	14.5	0.00e+00	0	24	0	1443889152	65	4589
2026-01-08 23:21:49.22	122.04	36.37	-50.1	-51.5	14.5	0.00e+00	0	24	0	1447034880	65	4478
2026-01-08 23:21:50.22	122.41	36.27	-49.9	-51.3	14.6	0.00e+00	0	24	0	1450180608	65	4357
2026-01-08 23:21:51.22	122.79	36.17	-49.8	-51.2	14.7	0.00e+00	0	24	0	1453326336	65	4323
2026-01-08 23:21:52.23	123.16	36.07	-49.7	-51.1	14.7	0.00e+00	0	24	0	1456472064	65	4255
2026-01-08 23:21:53.23	123.53	35.97	-49.8	-51.1	14.7	0.00e+00	0	24	0	1459617792	65	4278
2026-01-08 23:21:54.23	123.90	35.86	-49.5	-50.8	14.8	0.00e+00	0	24	0	1462763520	65	4135
2026-01-08 23:21:55.23	124.26	35.76	-49.7	-51.0	14.7	0.00e+00	0	24	0	1465909248	65	4233
2026-01-08 23:21:56.23	124.62	35.65	-49.9	-51.3	14.6	0.00e+00	0	24	0	1469054976	65	4390
2026-01-08 23:21:57.23	124.98	35.54	-50.0	-51.5	14.6	0.00e+00	0	24	0	1472200704	65	4446
2026-01-08 23:21:58.22	125.34	35.44	-49.8	-51.2	14.6	0.00e+00	0	24	0	1475346432	65	4334
2026-01-08 23:21:59.22	125.69	35.33	-49.6	-50.9	14.8	0.00e+00	0	24	0	1478492160	65	4169
2026-01-08 23:22:00.22	126.04	35.22	-49.4	-50.7	14.9	0.00e+00	0	24	0	1481637888	65	4094
2026-01-08 23:22:01.21	126.39	35.11	-49.6	-50.9	14.8	0.00e+00	0	24	0	1484783616	65	4170
2026-01-08 23:22:02.22	126.74	35.00	-49.6	-50.9	14.8	0.00e+00	0	24	0	1487929344	65	4183
2026-01-08 23:22:03.21	127.08	34.89	-49.5	-50.8	14.9	0.00e+00	0	24	0	1491075072	65	4145
2026-01-08 23:22:04.21	127.43	34.78	-49.6	-50.9	14.8	0.00e+00	0	24	0	1494220800	65	4188
2026-01-08 23:22:05.20	127.77	34.66	-49.5	-50.9	14.8	0.00e+00	0	24	0	1497366528	65	4152
2026-01-08 23:22:06.20	128.10	34.55	-49.5	-50.9	14.8	0.00e+00	0	24	0	1500512256	65	4157
2026-01-08 23:22:07.19	128.44	34.44	-49.7	-51.1	14.7	0.00e+00	0	24	0	1503657984	65	4250
2026-01-08 23:22:08.19	128.77	34.32	-49.9	-51.3	14.7	0.00e+00	0	24	0	1506803712	65	4353
2026-01-08 23:22:09.18	129.10	34.21	-49.7	-51.1	14.7	0.00e+00	0	24	0	1509949440	65	4250
2026-01-08 23:22:10.18	129.43	34.09	-49.6	-50.9	14.8	0.00e+00	0	24	0	1513095168	65	4161
2026-01-08 23:22:11.17	129.75	33.97	-49.3	-50.6	15.0	0.00e+00	0	24	0	1516240896	65	4022
2026-01-08 23:22:12.17	130.08	33.86	-49.1	-50.4	14.9	0.00e+00	0	24	0	1519386624	64	4172
2026-01-08 23:22:13.16	130.40	33.74	-49.3	-50.7	14.8	0.00e+00	0	24	0	1522532352	64	4297
2026-01-08 23:22:14.16	130.72	33.62	-49.4	-50.7	14.7	0.00e+00	0	24	0	1525678080	64	4319
2026-01-08 23:22:15.16	131.04	33.50	-49.5	-50.8	14.7	0.00e+00	0	24	0	1528823808	64	4382
2026-01-08 23:22:16.16	131.35	33.38	-49.5	-50.8	14.7	0.00e+00	0	24	0	1531969536	64	4367
2026-01-08 23:22:17.15	131.66	33.26	-49.3	-50.6	14.8	0.00e+00	0	24	0	1535115264	64	4285
2026-01-08 23:22:18.14	131.97	33.14	-49.4	-50.8	14.7	0.00e+00	0	24	0	1538260992	64	4348
2026-01-08 23:22:19.13	132.28	33.02	-49.5	-50.9	14.7	0.00e+00	0	24	0	1541406720	64	4396
2026-01-08 23:22:20.13	132.58	32.90	-49.5	-50.8	14.7	0.00e+00	0	24	0	1543503872	64	4376
2026-01-08 23:22:21.13	132.89	32.78	-49.3	-50.6	14.8	0.00e+00	0	24	0	1546649600	64	4283
2026-01-08 23:22:22.13	133.19	32.66	-49.2	-50.5	14.8	0.00e+00	0	24	0	1549795328	64	4240
2026-01-08 23:22:23.12	133.49	32.54	-49.1	-50.4	14.9	0.00e+00	0	24	0	1552941056	64	4162
2026-01-08 23:22:24.12	133.79	32.41	-49.2	-50.5	14.9	0.00e+00	0	24	0	1556086784	64	4197
2026-01-08 23:22:25.12	134.08	32.29	-49.1	-50.4	14.9	0.00e+00	0	24	0	1559232512	64	4160
2026-01-08 23:22:26.12	134.37	32.17	-49.0	-50.3	14.9	0.00e+00	0	24	0	1562378240	64	4125
2026-01-08 23:22:27.11	134.66	32.05	-48.9	-50.2	15.0	0.00e+00	0	24	0	1565523968	64	4074
2026-01-08 23:22:28.11	134.95	31.92	-48.8	-50.1	15.1	0.00e+00	0	24	0	1568669696	64	4023
2026-01-08 23:22:29.12	135.24	31.80	-48.9	-50.2	15.0	0.00e+00	0	24	0	1571815424	64	4080
2026-01-08 23:22:30.13	135.53	31.67	-49.0	-50.3	15.0	0.00e+00	0	24	0	1574961152	64	4122
2026-01-08 23:22:31.13	135.81	31.54	-49.1	-50.4	14.9	0.00e+00	0	24	0	1578106880	64	4146
2026-01-08 23:22:32.13	136.09	31.42	-49.1	-50.4	14.9	0.00e+00	0	24	0	1581252608	64	4187
2026-01-08 23:22:33.13	136.37	31.29	-49.2	-50.5	14.9	0.00e+00	0	24	0	1584398336	64	4207
2026-01-08 23:22:34.12	136.65	31.17	-49.0	-50.3	14.9	0.00e+00	0	24	0	1587544064	64	4126
2026-01-08 23:22:35.12	136.92	31.04	-48.9	-50.2	15.0	0.00e+00	0	24	0	1590689792	64	4064
2026-01-08 23:22:36.12	137.19	30.92	-48.9	-50.1	15.0	0.00e+00	0	24	0	1593835520	64	4051
2026-01-08 23:22:37.11	137.46	30.79	-49.0	-50.3	14.9	0.00e+00	0	24	0	1596981248	64	4117
2026-01-08 23:22:38.11	137.73	30.67	-49.1	-50.5	14.9	0.00e+00	0	24	0	1600126976	64	4200
2026-01-08 23:22:39.10	137.99	30.54	-49.2	-50.5	14.9	0.00e+00	0	24	0	1603272704	64	4226
2026-01-08 23:22:40.10	138.25	30.42	-49.2	-50.5	14.9	0.00e+00	0	24	0	1606418432	64	4213
2026-01-08 23:22:41.11	138.52	30.29	-49.2	-50.5	14.9	0.00e+00	0	24	0	1609564160	64	4229
2026-01-08 23:22:42.10	138.78	30.16	-49.1	-50.4	14.9	0.00e+00	0	24	0	1612709888	64	4174
2026-01-08 23:22:43.11	139.04	30.04	-49.2	-50.5	14.9	0.00e+00	0	24	0	1615855616	64	4215
2026-01-08 23:22:44.10	139.29	29.91	-48.9	-50.2	15.0	0.00e+00	0	24	0	1619001344	64	4074
2026-01-08 23:22:45.10	139.55	29.78	-48.8	-50.1	15.1	0.00e+00	0	24	0	1622147072	64	4019
2026-01-08 23:22:46.10	139.80	29.66	-48.8	-50.1	15.0	0.00e+00	0	24	0	1625292800	64	4025
2026-01-08 23:22:47.10	140.05	29.53	-48.9	-50.1	15.0	0.00e+00	0	24	0	1628438528	64	4039
2026-01-08 23:22:48.10	140.30	29.40	-48.9	-50.2	15.0	0.00e+00	0	24	0	1631584256	64	4055
2026-01-08 23:22:49.10	140.54	29.28	-48.8	-50.0	15.1	0.00e+00	0	24	0	1634729984	64	3999
2026-01-08 23:22:50.10	140.79	29.15	-48.8	-50.1	15.1	0.00e+00	0	24	0	1637875712	64	4019
2026-01-08 23:22:51.10	141.03	29.02	-48.7	-49.9	15.0	0.00e+00	0	24	0	1641021440	63	4177
2026-01-08 23:22:52.10	141.27	28.90	-48.5	-49.7	15.1	0.00e+00	0	24	0	1644167168	63	4078
2026-01-08 23:22:53.10	141.51	28.77	-48.5	-49.7	15.1	0.00e+00	0	24	0	1647312896	63	4092
2026-01-08 23:22:54.10	141.75	28.64	-48.5	-49.7	15.1	0.00e+00	0	24	0	1650458624	63	4090
2026-01-08 23:22:55.09	141.98	28.52	-48.5	-49.7	15.0	0.00e+00	0	24	0	1653604352	63	4090
2026-01-08 23:22:56.09	142.21	28.39	-48.4	-49.6	15.1	0.00e+00	0	24	0	1656750080	63	4024
2026-01-08 23:22:57.09	142.45	28.27	-48.4	-49.7	15.1	0.00e+00	0	24	0	1659895808	63	4068
2026-01-08 23:22:58.09	142.68	28.14	-48.4	-49.6	15.1	0.00e+00	0	24	0	1663041536	63	4048
2026-01-08 23:22:59.08	142.90	28.02	-48.4	-49.7	15.1	0.00e+00	0	24	0	1666187264	63	4065
2026-01-08 23:23:00.08	143.13	27.89	-48.4	-49.7	15.1	0.00e+00	0	24	0	1669332992	63	4064
2026-01-08 23:23:01.09	143.35	27.76	-48.3	-49.5	15.1	0.00e+00	0	24	0	1672478720	63	3990
2026-01-08 23:23:02.08	143.58	27.64	-48.1	-49.3	15.1	0.00e+00	0	24	0	1675624448	62	4106
2026-01-08 23:23:03.08	143.80	27.51	-48.0	-49.2	15.1	0.00e+00	0	24	0	1677721600	62	4078
2026-01-08 23:23:04.08	144.02	27.39	-48.1	-49.3	15.1	0.00e+00	0	24	0	1680867328	62	4123
2026-01-08 23:23:05.08	144.23	27.26	-48.1	-49.3	15.1	0.00e+00	0	24	0	1684013056	62	4105
2026-01-08 23:23:06.07	144.45	27.14	-47.9	-49.1	15.2	0.00e+00	0	24	0	1687158784	62	4033
2026-01-08 23:23:07.08	144.67	27.01	-48.0	-49.2	15.2	0.00e+00	0	24	0	1690304512	62	4058
2026-01-08 23:23:08.08	144.88	26.89	-48.1	-49.3	15.1	0.00e+00	0	24	0	1693450240	62	4113
2026-01-08 23:23:09.08	145.09	26.76	-48.1	-49.3	15.1	0.00e+00	0	24	0	1696595968	62	4125
2026-01-08 23:23:10.08	145.30	26.64	-48.0	-49.2	15.1	0.00e+00	0	24	0	1699741696	62	4068
2026-01-08 23:23:11.08	145.51	26.51	-48.0	-49.1	15.2	0.00e+00	0	24	0	1702887424	62	4039
2026-01-08 23:23:12.08	145.71	26.39	-47.9	-49.1	15.2	0.00e+00	0	24	0	1706033152	62	4039
2026-01-08 23:23:13.07	145.92	26.26	-47.8	-49.0	15.2	0.00e+00	0	24	0	1709178880	62	3994
2026-01-08 23:23:14.06	146.12	26.14	-47.8	-49.0	15.2	0.00e+00	0	24	0	1712324608	62	3964
2026-01-08 23:23:15.06	146.32	26.02	-47.7	-48.8	15.1	0.00e+00	0	24	0	1715470336	61	4140
2026-01-08 23:23:16.06	146.52	25.89	-47.8	-48.9	15.1	0.00e+00	0	24	0	1718616064	61	4189
2026-01-08 23:23:17.05	146.72	25.77	-47.8	-49.0	15.1	0.00e+00	0	24	0	1721761792	61	4209
2026-01-08 23:23:18.05	146.92	25.65	-47.8	-49.0	15.1	0.00e+00	0	24	0	1724907520	61	4198
2026-01-08 23:23:19.04	147.11	25.53	-47.8	-48.9	15.1	0.00e+00	0	24	0	1728053248	61	4188
2026-01-08 23:23:20.03	147.30	25.41	-47.9	-49.1	15.0	0.00e+00	0	24	0	1731198976	61	4252
2026-01-08 23:23:21.04	147.50	25.28	-47.9	-49.1	15.0	0.00e+00	0	24	0	1734344704	61	4285
2026-01-08 23:23:22.04	147.69	25.16	-47.7	-48.9	15.1	0.00e+00	0	24	0	1737490432	61	4183
2026-01-08 23:23:23.04	147.88	25.04	-47.6	-48.8	15.2	0.00e+00	0	24	0	1740636160	61	4124
2026-01-08 23:23:24.04	148.07	24.92	-47.6	-48.7	15.2	0.00e+00	0	24	0	1743781888	61	4083
2026-01-08 23:23:25.04	148.26	24.79	-47.6	-48.7	15.2	0.00e+00	0	24	0	1746927616	61	4097
2026-01-08 23:23:26.04	148.44	24.67	-47.7	-48.9	15.1	0.00e+00	0	24	0	1750073344	61	4157
2026-01-08 23:23:27.04	148.63	24.55	-47.7	-48.9	15.1	0.00e+00	0	24	0	1753219072	61	4171
2026-01-08 23:23:28.04	148.81	24.43	-47.8	-49.0	15.1	0.00e+00	0	24	0	1756364800	61	4237
2026-01-08 23:23:29.04	148.99	24.31	-48.0	-49.2	15.0	0.00e+00	0	24	0	1759510528	61	4306
2026-01-08 23:23:30.04	149.17	24.19	-48.0	-49.2	15.0	0.00e+00	0	24	0	1762656256	61	4332
2026-01-08 23:23:31.03	149.35	24.07	-48.0	-49.3	15.0	0.00e+00	0	24	0	1765801984	61	4344
2026-01-08 23:23:32.04	149.53	23.95	-48.0	-49.3	15.0	0.00e+00	0	24	0	1768947712	61	4343
2026-01-08 23:23:33.04	149.70	23.83	-48.1	-49.4	14.9	0.00e+00	0	24	0	1772093440	61	4395
2026-01-08 23:23:34.04	149.88	23.71	-48.2	-49.5	14.9	0.00e+00	0	24	0	1775239168	61	4462
2026-01-08 23:23:35.03	150.05	23.60	-48.4	-49.7	14.8	0.00e+00	0	24	0	1778384896	61	4548
2026-01-08 23:23:36.03	150.22	23.48	-48.5	-49.8	14.9	0.00e+00	0	24	0	1781530624	62	4350
2026-01-08 23:23:37.02	150.39	23.36	-48.6	-49.9	14.8	0.00e+00	0	24	0	1784676352	62	4427
2026-01-08 23:23:38.03	150.57	23.24	-48.7	-50.0	14.8	0.00e+00	0	24	0	1787822080	62	4474
2026-01-08 23:23:39.02	150.73	23.12	-48.7	-50.0	14.8	0.00e+00	0	24	0	1790967808	62	4449
2026-01-08 23:23:40.02	150.90	23.01	-48.6	-49.8	14.9	0.00e+00	0	24	0	1794113536	62	4386
2026-01-08 23:23:41.02	151.07	22.89	-48.5	-49.8	14.9	0.00e+00	0	24	0	1797259264	62	4358
2026-01-08 23:23:42.02	151.23	22.77	-48.5	-49.7	14.9	0.00e+00	0	24	0	1800404992	62	4329
2026-01-08 23:23:43.02	151.40	22.66	-48.5	-49.7	14.9	0.00e+00	0	24	0	1803550720	62	4319
2026-01-08 23:23:44.02	151.56	22.54	-48.5	-49.8	14.9	0.00e+00	0	24	0	1806696448	62	4345
2026-01-08 23:23:45.02	151.72	22.42	-48.5	-49.8	14.9	0.00e+00	0	24	0	1809842176	62	4375
2026-01-08 23:23:46.03	151.88	22.31	-48.6	-49.9	14.9	0.00e+00	0	24	0	1811939328	62	4398
2026-01-08 23:23:47.03	152.04	22.19	-48.6	-49.9	14.8	0.00e+00	0	24	0	1815085056	62	4422
2026-01-08 23:23:48.02	152.20	22.08	-48.5	-49.8	14.9	0.00e+00	0	24	0	1818230784	62	4363
2026-01-08 23:23:49.02	152.36	21.96	-48.5	-49.8	14.9	0.00e+00	0	24	0	1821376512	62	4357
2026-01-08 23:23:50.03	152.51	21.85	-48.4	-49.6	15.0	0.00e+00	0	24	0	1824522240	62	4274
2026-01-08 23:23:51.03	152.67	21.73	-48.4	-49.6	15.0	0.00e+00	0	24	0	1827667968	62	4278
2026-01-08 23:23:52.03	152.82	21.62	-48.3	-49.6	15.0	0.00e+00	0	24	0	1830813696	62	4255
2026-01-08 23:23:53.04	152.98	21.50	-48.4	-49.7	14.9	0.00e+00	0	24	0	1833959424	62	4311
2026-01-08 23:23:54.03	153.13	21.39	-48.3	-49.6	15.0	0.00e+00	0	24	0	1837105152	62	4251
2026-01-08 23:23:55.03	153.28	21.28	-48.3	-49.6	15.0	0.00e+00	0	24	0	1840250880	62	4254
2026-01-08 23:23:56.03	153.43	21.17	-48.3	-49.5	15.0	0.00e+00	0	24	0	1843396608	62	4233
2026-01-08 23:23:57.02	153.57	21.06	-48.3	-49.5	15.0	0.00e+00	0	24	0	1846542336	62	4235
2026-01-08 23:23:58.02	153.72	20.94	-48.3	-49.6	15.0	0.00e+00	0	24	0	1849688064	62	4249
2026-01-08 23:23:59.01	153.87	20.83	-48.3	-49.5	15.0	0.00e+00	0	24	0	1852833792	62	4239
2026-01-08 23:24:00.01	154.01	20.72	-48.4	-49.6	15.0	0.00e+00	0	24	0	1855979520	62	4269
2026-01-08 23:24:01.01	154.16	20.61	-48.4	-49.7	14.9	0.00e+00	0	24	0	1859125248	62	4316
2026-01-08 23:24:02.01	154.30	20.50	-48.4	-49.7	14.9	0.00e+00	0	24	0	1862270976	62	4322
2026-01-08 23:24:03.01	154.44	20.39	-48.4	-49.7	14.9	0.00e+00	0	24	0	1865416704	62	4302
2026-01-08 23:24:04.01	154.58	20.28	-48.4	-49.7	14.9	0.00e+00	0	24	0	1868562432	62	4316
2026-01-08 23:24:05.01	154.72	20.17	-48.5	-49.7	14.9	0.00e+00	0	24	0	1871708160	62	4331
2026-01-08 23:24:06.01	154.86	20.06	-48.4	-49.7	14.9	0.00e+00	0	24	0	1874853888	62	4310
2026-01-08 23:24:07.01	155.00	19.95	-48.5	-49.8	14.9	0.00e+00	0	24	0	1877999616	62	4352
2026-01-08 23:24:08.01	155.14	19.84	-48.3	-49.5	15.0	0.00e+00	0	24	0	1881145344	62	4234
2026-01-08 23:24:09.01	155.28	19.73	-48.3	-49.6	15.0	0.00e+00	0	24	0	1884291072	62	4254
2026-01-08 23:24:10.00	155.41	19.63	-48.2	-49.5	15.0	0.00e+00	0	24	0	1887436800	62	4212
2026-01-08 23:24:11.00	155.55	19.52	-48.2	-49.4	15.0	0.00e+00	0	24	0	1890582528	62	4181
2026-01-08 23:24:12.00	155.68	19.41	-48.2	-49.4	15.0	0.00e+00	0	24	0	1893728256	62	4192
2026-01-08 23:24:13.00	155.81	19.30	-48.2	-49.5	15.0	0.00e+00	0	24	0	1896873984	62	4201
2026-01-08 23:24:13.95	155.94	19.20	-48.2	-49.5	15.0	0.00e+00	0	24	0	1900019712	62	4201
2026-01-08 23:24:14.93	156.07	19.10	-48.3	-49.5	15.0	0.00e+00	0	24	0	1903165440	62	4242
2026-01-08 23:24:15.92	156.20	18.99	-48.4	-49.6	14.9	0.00e+00	0	24	0	1906311168	62	4286
2026-01-08 23:24:16.92	156.33	18.89	-48.5	-49.7	14.9	0.00e+00	0	24	0	1909456896	62	4327
2026-01-08 23:24:17.92	156.45	18.78	-48.5	-49.8	14.9	0.00e+00	0	24	0	1912602624	62	4368
2026-01-08 23:24:18.91	156.58	18.68	-48.5	-49.8	14.9	0.00e+00	0	24	0	1915748352	62	4371
2026-01-08 23:24:19.90	156.71	18.57	-48.5	-49.8	14.9	0.00e+00	0	24	0	1918894080	62	4360
2026-01-08 23:24:20.91	156.83	18.47	-48.4	-49.6	14.9	0.00e+00	0	24	0	1920991232	62	4282
2026-01-08 23:24:21.90	156.96	18.36	-48.3	-49.5	15.0	0.00e+00	0	24	0	1924136960	62	4241
2026-01-08 23:24:22.89	157.08	18.26	-48.2	-49.5	15.0	0.00e+00	0	24	0	1927282688	62	4218
2026-01-08 23:24:23.89	157.20	18.16	-48.2	-49.5	15.0	0.00e+00	0	24	0	1930428416	62	4198
2026-01-08 23:24:24.89	157.33	18.05	-48.2	-49.4	15.0	0.00e+00	0	24	0	1933574144	62	4178
2026-01-08 23:24:25.88	157.45	17.95	-48.2	-49.5	15.0	0.00e+00	0	24	0	1936719872	62	4206
2026-01-08 23:24:26.88	157.57	17.85	-48.3	-49.6	15.0	0.00e+00	0	24	0	1939865600	62	4244
2026-01-08 23:24:27.88	157.69	17.74	-48.5	-49.7	14.9	0.00e+00	0	24	0	1943011328	62	4332
2026-01-08 23:24:28.89	157.81	17.64	-48.5	-49.8	14.8	0.00e+00	0	24	0	1946157056	62	4350
2026-01-08 23:24:29.89	157.93	17.54	-48.5	-49.8	14.9	0.00e+00	0	24	0	1949302784	62	4343
2026-01-08 23:24:30.88	158.05	17.44	-48.4	-49.7	14.9	0.00e+00	0	24	0	1952448512	62	4310
2026-01-08 23:24:31.88	158.16	17.34	-48.5	-49.8	14.9	0.00e+00	0	24	0	1955594240	62	4358
2026-01-08 23:24:32.88	158.28	17.24	-48.6	-49.9	14.8	0.00e+00	0	24	0	1958739968	62	4424
2026-01-08 23:24:33.88	158.40	17.14	-48.7	-50.0	14.8	0.00e+00	0	24	0	1961885696	62	4452
2026-01-08 23:24:34.88	158.51	17.03	-48.7	-50.0	14.8	0.00e+00	0	24	0	1965031424	62	4460
2026-01-08 23:24:35.88	158.63	16.93	-48.9	-50.2	14.7	0.00e+00	0	24	0	1968177152	62	4572
2026-01-08 23:24:36.88	158.74	16.83	-48.9	-50.2	14.8	0.00e+00	0	24	0	1971322880	63	4322
2026-01-08 23:24:37.89	158.85	16.73	-48.9	-50.3	14.8	0.00e+00	0	24	0	1974468608	63	4357
2026-01-08 23:24:38.90	158.97	16.63	-49.0	-50.3	14.7	0.00e+00	0	24	0	1977614336	63	4379
2026-01-08 23:24:39.89	159.08	16.54	-49.0	-50.3	14.7	0.00e+00	0	24	0	1980760064	63	4381
2026-01-08 23:24:40.89	159.19	16.44	-49.0	-50.3	14.8	0.00e+00	0	24	0	1983905792	63	4365
2026-01-08 23:24:41.89	159.30	16.34	-49.0	-50.3	14.8	0.00e+00	0	24	0	1987051520	63	4372
2026-01-08 23:24:42.89	159.41	16.24	-49.1	-50.4	14.7	0.00e+00	0	24	0	1990197248	63	4426
2026-01-08 23:24:43.89	159.52	16.14	-49.2	-50.6	14.6	0.00e+00	0	24	0	1993342976	63	4506
2026-01-08 23:24:44.89	159.62	16.05	-49.3	-50.7	14.6	0.00e+00	0	24	0	1996488704	63	4548
2026-01-08 23:24:45.89	159.73	15.95	-49.4	-50.7	14.6	0.00e+00	0	24	0	1999634432	63	4597
2026-01-08 23:24:46.90	159.84	15.85	-49.3	-50.7	14.6	0.00e+00	0	24	0	2002780160	63	4567
2026-01-08 23:24:47.89	159.94	15.76	-49.4	-50.7	14.6	0.00e+00	0	24	0	2005925888	63	4596
2026-01-08 23:24:48.89	160.05	15.66	-49.3	-50.7	14.6	0.00e+00	0	24	0	2009071616	63	4563
2026-01-08 23:24:49.89	160.15	15.56	-49.2	-50.6	14.7	0.00e+00	0	24	0	2012217344	63	4496
2026-01-08 23:24:50.89	160.26	15.47	-49.2	-50.6	14.6	0.00e+00	0	24	0	2015363072	63	4515
2026-01-08 23:24:51.89	160.36	15.37	-49.2	-50.5	14.7	0.00e+00	0	24	0	2018508800	63	4473
2026-01-08 23:24:52.89	160.47	15.28	-49.2	-50.6	14.6	0.00e+00	0	24	0	2021654528	63	4502
2026-01-08 23:24:53.88	160.57	15.18	-49.2	-50.5	14.6	0.00e+00	0	24	0	2024800256	63	4492
2026-01-08 23:24:54.88	160.67	15.09	-49.2	-50.5	14.6	0.00e+00	0	24	0	2027945984	63	4485
2026-01-08 23:24:55.89	160.77	14.99	-49.1	-50.5	14.7	0.00e+00	0	24	0	2031091712	63	4461
2026-01-08 23:24:56.88	160.87	14.90	-49.0	-50.4	14.7	0.00e+00	0	24	0	2034237440	63	4397
2026-01-08 23:24:57.89	160.97	14.81	-49.1	-50.5	14.7	0.00e+00	0	24	0	2037383168	63	4460
2026-01-08 23:24:58.89	161.07	14.71	-49.1	-50.5	14.6	0.00e+00	0	24	0	2040528896	63	4465
2026-01-08 23:24:59.90	161.17	14.62	-49.2	-50.5	14.6	0.00e+00	0	24	0	2043674624	63	4478
2026-01-08 23:25:00.90	161.27	14.53	-49.2	-50.6	14.6	0.00e+00	0	24	0	2046820352	63	4526
2026-01-08 23:25:01.90	161.36	14.43	-49.2	-50.6	14.6	0.00e+00	0	24	0	2049966080	63	4501
2026-01-08 23:25:02.90	161.46	14.34	-49.1	-50.5	14.7	0.00e+00	0	24	0	2053111808	63	4454
2026-01-08 23:25:03.91	161.56	14.25	-49.1	-50.5	14.7	0.00e+00	0	24	0	2056257536	63	4456
2026-01-08 23:25:04.91	161.65	14.16	-49.0	-50.4	14.7	0.00e+00	0	24	0	2059403264	63	4406
2026-01-08 23:25:05.91	161.75	14.06	-49.2	-50.5	14.7	0.00e+00	0	24	0	2062548992	63	4477
2026-01-08 23:25:06.92	161.85	13.97	-49.2	-50.6	14.6	0.00e+00	0	24	0	2065694720	63	4494
2026-01-08 23:25:07.92	161.94	13.88	-49.2	-50.5	14.6	0.00e+00	0	24	0	2068840448	63	4481
2026-01-08 23:25:08.92	162.03	13.79	-49.2	-50.6	14.6	0.00e+00	0	24	0	2071986176	63	4498
2026-01-08 23:25:09.92	162.13	13.70	-49.2	-50.5	14.6	0.00e+00	0	24	0	2075131904	63	4485
2026-01-08 23:25:10.92	162.22	13.61	-49.4	-50.8	14.5	0.00e+00	0	24	0	2078277632	63	4602
2026-01-08 23:25:11.92	162.31	13.52	-49.4	-50.8	14.5	0.00e+00	0	24	0	2080374784	63	4600
2026-01-08 23:25:12.92	162.40	13.43	-49.4	-50.8	14.6	0.00e+00	0	24	0	2083520512	64	4375
2026-01-08 23:25:13.91	162.49	13.34	-49.5	-50.9	14.6	0.00e+00	0	24	0	2086666240	64	4397
