passes_logs/2026/01/08/R3.2S_Murmansk/R3.2S_Murmansk__20260108_084019_NOAA_20_JPSS-1_rec.log

#Pass ID: 20260108_084019_NOAA 20 (JPSS-1)
#Satellite: NOAA 20 (JPSS-1)
#Configuration: NOAA 20
#almurnet v.1.7.20251203
#Start time: 2026-01-08 08:40:20

#Version: 2.2.20231116
#Station: R3.2S_Murmansk
#Location: 33.079688 lon 68.888172 lat
#TLE: 1 43013U 17073A   26007.92906311  .00000097  00000+0  67117-4 0  9996
#TLE: 2 43013  98.7630 308.9434 0001752  49.5597 310.5732 14.19534161421734

#Time	Az	El	Level	Level2	SNR	BER	BlckErr	Temp	State	Recorded	gain1	gain2
2026-01-08 08:40:20.04	131.61	2.05	-57.4	-73.4	3.8	1.49e+00	0	23	0	0	81	22172
2026-01-08 08:40:21.05	131.59	2.11	-57.4	-73.4	3.8	1.49e+00	0	23	104	0	79	24797
2026-01-08 08:40:22.04	131.57	2.17	-57.4	-73.4	3.8	1.49e+00	0	23	104	0	79	24705
2026-01-08 08:40:23.03	131.55	2.24	-57.4	-73.4	3.8	1.49e+00	0	23	104	0	79	24779
2026-01-08 08:40:24.03	131.53	2.30	-57.4	-73.4	3.8	1.49e+00	0	23	104	0	79	24748
2026-01-08 08:40:25.02	131.51	2.36	-57.4	-73.4	3.8	1.49e+00	0	23	104	0	79	24752
2026-01-08 08:40:26.02	131.49	2.43	-57.4	-73.4	3.8	1.49e+00	0	23	104	0	79	24796
2026-01-08 08:40:27.01	131.48	2.49	-57.4	-73.4	3.8	1.49e+00	0	23	104	0	79	24751
2026-01-08 08:40:28.00	131.46	2.56	-57.3	-73.3	3.8	1.49e+00	0	23	104	0	79	24674
2026-01-08 08:40:29.00	131.44	2.62	-57.3	-73.3	3.8	1.49e+00	0	23	104	0	79	24634
2026-01-08 08:40:29.99	131.42	2.69	-57.4	-73.3	3.8	1.49e+00	0	23	104	0	79	24611
2026-01-08 08:40:30.99	131.40	2.75	-57.4	-73.3	3.8	1.49e+00	0	23	104	0	79	24516
2026-01-08 08:40:31.98	131.38	2.82	-57.4	-73.2	3.8	1.49e+00	0	23	104	0	79	24383
2026-01-08 08:40:32.97	131.36	2.88	-57.3	-73.2	3.8	1.49e+00	0	23	104	0	79	24332
2026-01-08 08:40:33.96	131.34	2.95	-57.3	-73.2	3.8	1.49e+00	0	23	104	0	79	24332
2026-01-08 08:40:34.96	131.32	3.01	-57.4	-73.2	3.8	1.49e+00	0	23	104	0	79	24232
2026-01-08 08:40:35.95	131.30	3.08	-57.4	-73.1	3.8	1.49e+00	0	23	104	0	79	24118
2026-01-08 08:40:36.95	131.28	3.14	-57.4	-73.1	3.8	1.49e+00	0	23	104	0	79	24116
2026-01-08 08:40:37.95	131.26	3.21	-57.3	-73.1	3.8	1.49e+00	0	23	104	0	79	24034
2026-01-08 08:40:38.95	131.24	3.28	-57.4	-73.1	3.8	1.49e+00	0	23	104	0	79	23858
2026-01-08 08:40:39.94	131.22	3.34	-57.4	-73.0	3.8	1.49e+00	0	23	104	0	79	23824
2026-01-08 08:40:40.94	131.20	3.41	-57.3	-72.7	3.8	1.49e+00	0	23	104	0	79	22980
2026-01-08 08:40:41.93	131.17	3.48	-57.3	-72.5	3.8	1.49e+00	0	23	104	0	79	22279
2026-01-08 08:40:42.92	131.15	3.54	-57.3	-71.9	3.8	1.49e+00	0	23	104	0	79	21017
2026-01-08 08:40:43.92	131.13	3.61	-57.3	-71.1	3.9	1.49e+00	0	23	104	0	79	19098
2026-01-08 08:40:44.91	131.11	3.68	-57.2	-69.5	4.3	1.45e+00	0	24	0	0	79	15929
2026-01-08 08:40:45.91	131.09	3.74	-57.1	-68.4	4.7	1.20e+00	0	23	0	1048576	79	13939
2026-01-08 08:40:46.90	131.07	3.81	-57.0	-67.3	5.2	6.16e-01	0	23	0	2097152	79	12322
2026-01-08 08:40:47.90	131.05	3.88	-56.9	-66.7	5.6	4.43e-01	0	24	0	4194304	79	11430
2026-01-08 08:40:48.89	131.03	3.95	-56.8	-65.9	6.1	3.43e-01	0	23	0	6291456	79	10450
2026-01-08 08:40:49.90	131.00	4.01	-56.8	-65.3	6.5	2.30e-01	0	23	0	8388608	79	9769
2026-01-08 08:40:50.89	130.98	4.08	-56.7	-64.8	6.9	1.57e-01	0	24	0	9437184	79	9236
2026-01-08 08:40:51.89	130.96	4.15	-56.5	-63.6	8.0	5.76e-02	0	24	0	11534336	79	8028
2026-01-08 08:40:52.88	130.94	4.22	-56.1	-62.2	9.1	2.74e-02	0	24	0	13631488	78	7280
2026-01-08 08:40:53.87	130.92	4.29	-55.7	-60.9	10.3	2.30e-03	0	24	0	15728640	78	6254
2026-01-08 08:40:54.86	130.89	4.35	-55.4	-60.1	10.9	6.57e-04	0	24	0	17825792	77	6024
2026-01-08 08:40:55.86	130.87	4.42	-55.1	-59.4	11.4	1.49e-04	0	24	0	18874368	76	5866
2026-01-08 08:40:56.85	130.85	4.49	-54.7	-58.6	12.0	2.36e-05	0	24	0	20971520	76	5392
2026-01-08 08:40:57.85	130.83	4.56	-54.3	-57.8	12.5	1.50e-06	0	24	0	23068672	75	5214
2026-01-08 08:40:58.85	130.80	4.63	-54.0	-57.3	12.8	0.00e+00	0	24	0	25165824	74	5209
2026-01-08 08:40:59.84	130.78	4.70	-53.8	-56.9	13.1	0.00e+00	0	24	0	26214400	74	4948
2026-01-08 08:41:00.83	130.76	4.77	-53.6	-56.6	13.2	0.00e+00	0	24	0	28311552	73	5089
2026-01-08 08:41:01.82	130.73	4.84	-53.6	-56.6	13.1	0.00e+00	0	24	0	30408704	73	5088
2026-01-08 08:41:02.82	130.71	4.91	-53.5	-56.5	13.2	0.00e+00	0	24	0	32505856	73	5039
2026-01-08 08:41:03.82	130.69	4.98	-53.6	-56.7	13.1	0.00e+00	0	24	0	34603008	73	5128
2026-01-08 08:41:04.81	130.66	5.05	-53.9	-57.1	12.8	0.00e+00	0	24	0	35651584	73	5390
2026-01-08 08:41:05.81	130.64	5.12	-55.3	-59.7	11.3	0.00e+00	0	24	0	37748736	75	6454
2026-01-08 08:41:06.80	130.62	5.19	-56.4	-63.1	8.6	5.11e-05	0	24	0	39845888	77	8527
2026-01-08 08:41:07.80	130.59	5.26	-53.3	-56.2	13.5	3.32e-02	0	24	0	41943040	73	4820
2026-01-08 08:41:08.80	130.57	5.34	-53.2	-56.0	13.4	0.00e+00	0	24	0	44040192	71	5314
2026-01-08 08:41:09.80	130.54	5.41	-56.3	-63.1	8.8	0.00e+00	0	24	0	45088768	77	8488
2026-01-08 08:41:10.79	130.52	5.48	-52.8	-55.3	13.9	1.25e-01	0	24	0	47185920	72	4646
2026-01-08 08:41:11.79	130.50	5.55	-52.4	-54.8	14.1	0.00e+00	0	24	0	49283072	71	4637
2026-01-08 08:41:12.79	130.47	5.62	-52.5	-54.9	14.0	0.00e+00	0	24	0	51380224	71	4702
2026-01-08 08:41:13.79	130.45	5.70	-52.5	-55.0	14.1	0.00e+00	0	24	0	52428800	71	4707
2026-01-08 08:41:14.78	130.42	5.77	-52.6	-55.0	14.0	0.00e+00	0	24	0	54525952	71	4733
2026-01-08 08:41:15.78	130.40	5.84	-52.3	-54.6	14.3	0.00e+00	0	24	0	56623104	71	4506
2026-01-08 08:41:16.77	130.37	5.91	-52.3	-54.7	14.2	0.00e+00	0	24	0	58720256	71	4555
2026-01-08 08:41:17.78	130.35	5.99	-52.4	-54.8	14.2	0.00e+00	0	24	0	60817408	71	4619
2026-01-08 08:41:18.77	130.32	6.06	-52.4	-54.7	14.2	0.00e+00	0	24	0	61865984	71	4561
2026-01-08 08:41:19.77	130.29	6.13	-52.2	-54.4	14.4	0.00e+00	0	24	0	63963136	71	4410
2026-01-08 08:41:20.76	130.27	6.21	-52.3	-54.6	14.1	0.00e+00	0	24	0	66060288	70	4764
2026-01-08 08:41:21.76	130.24	6.28	-52.3	-54.5	14.1	0.00e+00	0	24	0	68157440	70	4756
2026-01-08 08:41:22.76	130.22	6.35	-52.3	-54.6	14.1	0.00e+00	0	24	0	70254592	70	4763
2026-01-08 08:41:23.75	130.19	6.43	-52.3	-54.5	14.2	0.00e+00	0	24	0	71303168	70	4758
2026-01-08 08:41:24.75	130.16	6.50	-52.3	-54.6	14.1	0.00e+00	0	24	0	73400320	70	4777
2026-01-08 08:41:25.74	130.14	6.58	-52.2	-54.5	14.2	0.00e+00	0	24	0	75497472	70	4718
2026-01-08 08:41:26.73	130.11	6.65	-52.2	-54.4	14.3	0.00e+00	0	24	0	77594624	70	4688
2026-01-08 08:41:27.73	130.08	6.73	-52.2	-54.5	14.3	0.00e+00	0	24	0	78643200	70	4709
2026-01-08 08:41:28.71	130.06	6.80	-52.2	-54.3	14.3	0.00e+00	0	24	0	80740352	70	4651
2026-01-08 08:41:29.71	130.03	6.88	-52.2	-54.4	14.3	0.00e+00	0	24	0	82837504	70	4693
2026-01-08 08:41:30.70	130.00	6.95	-52.1	-54.3	14.4	0.00e+00	0	24	0	84934656	70	4605
2026-01-08 08:41:31.69	129.98	7.03	-52.1	-54.3	14.4	0.00e+00	0	24	0	85983232	70	4610
2026-01-08 08:41:32.68	129.95	7.10	-52.1	-54.3	14.4	0.00e+00	0	24	0	88080384	70	4612
2026-01-08 08:41:33.68	129.92	7.18	-52.0	-54.1	14.4	0.00e+00	0	24	0	90177536	70	4528
2026-01-08 08:41:34.67	129.89	7.26	-52.0	-54.1	14.5	0.00e+00	0	24	0	92274688	70	4513
2026-01-08 08:41:35.67	129.87	7.33	-52.0	-54.1	14.5	0.00e+00	0	24	0	94371840	70	4512
2026-01-08 08:41:36.66	129.84	7.41	-51.9	-54.0	14.5	0.00e+00	0	24	0	95420416	70	4489
2026-01-08 08:41:37.65	129.81	7.49	-52.0	-54.1	14.4	0.00e+00	0	24	0	97517568	70	4514
2026-01-08 08:41:38.65	129.78	7.56	-51.9	-54.0	14.5	0.00e+00	0	24	0	99614720	70	4478
2026-01-08 08:41:39.65	129.75	7.64	-51.9	-54.0	14.5	0.00e+00	0	24	0	101711872	70	4454
2026-01-08 08:41:40.65	129.72	7.72	-51.9	-54.0	14.5	0.00e+00	0	24	0	103809024	70	4474
2026-01-08 08:41:41.64	129.69	7.80	-51.9	-53.9	14.6	0.00e+00	0	24	0	104857600	70	4427
2026-01-08 08:41:42.64	129.66	7.88	-51.9	-53.9	14.6	0.00e+00	0	24	0	106954752	70	4418
2026-01-08 08:41:43.63	129.64	7.95	-51.9	-54.0	14.5	0.00e+00	0	24	0	109051904	70	4454
2026-01-08 08:41:44.63	129.61	8.03	-52.0	-54.0	14.5	0.00e+00	0	24	0	111149056	70	4481
2026-01-08 08:41:45.62	129.58	8.11	-51.9	-54.0	14.5	0.00e+00	0	24	0	112197632	70	4451
2026-01-08 08:41:46.61	129.55	8.19	-51.9	-53.9	14.6	0.00e+00	0	24	0	114294784	70	4429
2026-01-08 08:41:47.61	129.52	8.27	-51.8	-53.8	14.6	0.00e+00	0	24	0	116391936	70	4389
2026-01-08 08:41:48.59	129.49	8.35	-51.8	-53.8	14.6	0.00e+00	0	24	0	118489088	70	4386
2026-01-08 08:41:49.58	129.46	8.43	-51.8	-53.8	14.7	0.00e+00	0	24	0	119537664	70	4383
2026-01-08 08:41:50.58	129.43	8.51	-51.9	-53.9	14.6	0.00e+00	0	24	0	121634816	70	4422
2026-01-08 08:41:51.57	129.39	8.59	-51.9	-53.9	14.6	0.00e+00	0	24	0	123731968	70	4399
2026-01-08 08:41:52.56	129.36	8.67	-51.8	-53.7	14.7	0.00e+00	0	24	0	125829120	70	4335
2026-01-08 08:41:53.56	129.33	8.75	-51.7	-53.7	14.7	0.00e+00	0	24	0	127926272	70	4304
2026-01-08 08:41:54.55	129.30	8.83	-51.8	-53.7	14.7	0.00e+00	0	24	0	128974848	70	4333
2026-01-08 08:41:55.54	129.27	8.91	-51.7	-53.7	14.7	0.00e+00	0	24	0	131072000	70	4295
2026-01-08 08:41:56.53	129.24	8.99	-51.6	-53.6	14.7	0.00e+00	0	24	0	133169152	69	4505
2026-01-08 08:41:57.52	129.21	9.08	-51.7	-53.6	14.6	0.00e+00	0	24	0	135266304	69	4542
2026-01-08 08:41:58.52	129.17	9.16	-51.6	-53.6	14.7	0.00e+00	0	24	0	136314880	69	4509
2026-01-08 08:41:59.51	129.14	9.24	-51.6	-53.5	14.7	0.00e+00	0	24	0	138412032	69	4474
2026-01-08 08:42:00.51	129.11	9.32	-51.6	-53.5	14.7	0.00e+00	0	24	0	140509184	69	4485
2026-01-08 08:42:01.50	129.08	9.41	-51.6	-53.6	14.6	0.00e+00	0	24	0	142606336	69	4514
2026-01-08 08:42:02.48	129.04	9.49	-51.6	-53.5	14.7	0.00e+00	0	24	0	144703488	69	4485
2026-01-08 08:42:03.48	129.01	9.57	-51.5	-53.4	14.7	0.00e+00	0	24	0	145752064	69	4440
2026-01-08 08:42:04.47	128.98	9.66	-51.6	-53.6	14.7	0.00e+00	0	24	0	147849216	69	4496
2026-01-08 08:42:05.48	128.94	9.74	-51.6	-53.5	14.7	0.00e+00	0	24	0	149946368	69	4491
2026-01-08 08:42:06.46	128.91	9.82	-51.6	-53.5	14.7	0.00e+00	0	24	0	152043520	69	4458
2026-01-08 08:42:07.46	128.88	9.91	-51.6	-53.5	14.7	0.00e+00	0	24	0	153092096	69	4489
2026-01-08 08:42:08.45	128.84	9.99	-51.5	-53.4	14.7	0.00e+00	0	24	0	155189248	69	4414
2026-01-08 08:42:09.44	128.81	10.08	-51.5	-53.4	14.8	0.00e+00	0	24	0	157286400	69	4401
2026-01-08 08:42:10.43	128.77	10.16	-51.5	-53.3	14.8	0.00e+00	0	24	0	159383552	69	4391
2026-01-08 08:42:11.43	128.74	10.25	-51.6	-53.5	14.7	0.00e+00	0	24	0	161480704	69	4443
2026-01-08 08:42:12.42	128.70	10.34	-51.5	-53.3	14.8	0.00e+00	0	24	0	162529280	69	4381
2026-01-08 08:42:13.41	128.67	10.42	-51.5	-53.3	14.8	0.00e+00	0	24	0	164626432	69	4385
2026-01-08 08:42:14.40	128.63	10.51	-51.5	-53.4	14.7	0.00e+00	0	24	0	166723584	69	4436
2026-01-08 08:42:15.40	128.60	10.60	-51.4	-53.3	14.8	0.00e+00	0	24	0	168820736	69	4372
2026-01-08 08:42:16.39	128.56	10.68	-51.5	-53.3	14.8	0.00e+00	0	24	0	169869312	69	4388
2026-01-08 08:42:17.38	128.52	10.77	-51.4	-53.3	14.8	0.00e+00	0	24	0	171966464	69	4366
2026-01-08 08:42:18.37	128.49	10.86	-51.5	-53.3	14.8	0.00e+00	0	24	0	174063616	69	4384
2026-01-08 08:42:19.37	128.45	10.95	-51.4	-53.2	14.9	0.00e+00	0	24	0	176160768	69	4324
2026-01-08 08:42:20.37	128.41	11.03	-51.4	-53.3	14.8	0.00e+00	0	24	0	178257920	69	4360
2026-01-08 08:42:21.36	128.38	11.12	-51.4	-53.3	14.8	0.00e+00	0	24	0	179306496	69	4347
2026-01-08 08:42:22.36	128.34	11.21	-51.4	-53.2	14.9	0.00e+00	0	24	0	181403648	69	4335
2026-01-08 08:42:23.37	128.30	11.30	-51.4	-53.3	14.8	0.00e+00	0	24	0	183500800	69	4354
2026-01-08 08:42:24.36	128.26	11.39	-51.5	-53.3	14.8	0.00e+00	0	24	0	185597952	69	4359
2026-01-08 08:42:25.35	128.22	11.48	-51.5	-53.3	14.8	0.00e+00	0	24	0	186646528	69	4386
2026-01-08 08:42:26.34	128.19	11.57	-51.4	-53.2	14.9	0.00e+00	0	24	0	188743680	69	4332
2026-01-08 08:42:27.33	128.15	11.66	-51.3	-53.1	14.9	0.00e+00	0	25	0	190840832	69	4288
2026-01-08 08:42:28.33	128.11	11.75	-51.4	-53.2	14.9	0.00e+00	0	24	0	192937984	69	4308
2026-01-08 08:42:29.32	128.07	11.84	-51.5	-53.3	14.8	0.00e+00	0	24	0	195035136	69	4370
2026-01-08 08:42:30.31	128.03	11.93	-51.5	-53.3	14.8	0.00e+00	0	24	0	196083712	69	4388
2026-01-08 08:42:31.31	127.99	12.03	-51.4	-53.3	14.8	0.00e+00	0	25	0	198180864	69	4347
2026-01-08 08:42:32.30	127.95	12.12	-51.3	-53.1	15.0	0.00e+00	0	24	0	200278016	69	4266
2026-01-08 08:42:33.29	127.91	12.21	-51.3	-53.1	14.9	0.00e+00	0	24	0	202375168	69	4260
2026-01-08 08:42:34.29	127.87	12.30	-51.3	-53.1	14.9	0.00e+00	0	24	0	203423744	69	4283
2026-01-08 08:42:35.28	127.83	12.40	-51.2	-53.0	15.0	0.00e+00	0	24	0	205520896	69	4219
2026-01-08 08:42:36.27	127.79	12.49	-51.3	-53.1	15.0	0.00e+00	0	25	0	207618048	69	4248
2026-01-08 08:42:37.26	127.75	12.58	-51.3	-53.0	15.0	0.00e+00	0	24	0	209715200	69	4234
2026-01-08 08:42:38.25	127.70	12.68	-51.2	-53.0	15.0	0.00e+00	0	24	0	211812352	69	4212
2026-01-08 08:42:39.24	127.66	12.77	-51.2	-53.0	15.0	0.00e+00	0	24	0	212860928	69	4218
2026-01-08 08:42:40.24	127.62	12.87	-51.1	-52.9	14.9	0.00e+00	0	24	0	214958080	68	4408
2026-01-08 08:42:41.23	127.58	12.96	-51.2	-53.0	14.8	0.00e+00	0	24	0	217055232	68	4456
2026-01-08 08:42:42.22	127.53	13.06	-51.2	-53.0	14.8	0.00e+00	0	24	0	219152384	68	4444
2026-01-08 08:42:43.22	127.49	13.15	-51.1	-52.9	14.9	0.00e+00	0	25	0	220200960	68	4420
2026-01-08 08:42:44.22	127.45	13.25	-51.1	-52.8	14.9	0.00e+00	0	24	0	222298112	68	4385
2026-01-08 08:42:45.21	127.40	13.35	-51.2	-52.9	14.9	0.00e+00	0	25	0	224395264	68	4423
2026-01-08 08:42:46.20	127.36	13.44	-51.2	-53.0	14.8	0.00e+00	0	24	0	226492416	68	4485
2026-01-08 08:42:47.20	127.31	13.54	-51.2	-52.9	14.9	0.00e+00	0	25	0	228589568	68	4417
2026-01-08 08:42:48.19	127.27	13.64	-51.2	-53.0	14.9	0.00e+00	0	25	0	229638144	68	4457
2026-01-08 08:42:49.19	127.22	13.74	-51.1	-52.8	15.0	0.00e+00	0	24	0	231735296	68	4358
2026-01-08 08:42:50.19	127.18	13.84	-51.1	-52.8	14.9	0.00e+00	0	24	0	233832448	68	4373
2026-01-08 08:42:51.17	127.13	13.94	-51.0	-52.7	15.0	0.00e+00	0	24	0	235929600	68	4311
2026-01-08 08:42:52.16	127.09	14.03	-51.0	-52.7	15.0	0.00e+00	0	24	0	236978176	68	4310
2026-01-08 08:42:53.16	127.04	14.13	-51.0	-52.7	15.0	0.00e+00	0	25	0	239075328	68	4304
2026-01-08 08:42:54.16	126.99	14.24	-51.0	-52.7	15.0	0.00e+00	0	25	0	241172480	68	4335
2026-01-08 08:42:55.15	126.95	14.34	-51.0	-52.7	15.0	0.00e+00	0	24	0	243269632	68	4331
2026-01-08 08:42:56.14	126.90	14.44	-51.1	-52.8	14.9	0.00e+00	0	24	0	244318208	68	4381
2026-01-08 08:42:57.14	126.85	14.54	-51.1	-52.8	14.9	0.00e+00	0	25	0	246415360	68	4388
2026-01-08 08:42:58.13	126.80	14.64	-51.0	-52.8	15.0	0.00e+00	0	24	0	248512512	68	4341
2026-01-08 08:42:59.13	126.76	14.74	-51.1	-52.8	14.9	0.00e+00	0	25	0	250609664	68	4369
2026-01-08 08:43:00.12	126.71	14.84	-51.0	-52.7	15.0	0.00e+00	0	25	0	252706816	68	4334
2026-01-08 08:43:01.12	126.66	14.95	-51.0	-52.7	15.0	0.00e+00	0	24	0	253755392	68	4320
2026-01-08 08:43:02.12	126.61	15.05	-51.0	-52.7	15.0	0.00e+00	0	24	0	255852544	68	4325
2026-01-08 08:43:03.10	126.56	15.15	-51.0	-52.7	15.0	0.00e+00	0	24	0	257949696	68	4319
2026-01-08 08:43:04.09	126.51	15.26	-51.0	-52.7	15.0	0.00e+00	0	24	0	260046848	68	4326
2026-01-08 08:43:05.08	126.46	15.36	-51.0	-52.7	15.0	0.00e+00	0	25	0	261095424	68	4322
2026-01-08 08:43:06.08	126.41	15.47	-51.0	-52.7	15.0	0.00e+00	0	24	0	263192576	68	4314
2026-01-08 08:43:07.07	126.36	15.57	-50.9	-52.6	15.0	0.00e+00	0	24	0	265289728	68	4276
2026-01-08 08:43:08.06	126.30	15.68	-50.9	-52.6	15.0	0.00e+00	0	24	0	267386880	68	4281
2026-01-08 08:43:09.06	126.25	15.78	-51.0	-52.6	15.1	0.00e+00	0	24	0	269484032	68	4277
2026-01-08 08:43:10.06	126.20	15.89	-51.0	-52.7	15.0	0.00e+00	0	24	0	270532608	68	4301
2026-01-08 08:43:11.05	126.15	16.00	-51.0	-52.7	15.0	0.00e+00	0	24	0	272629760	68	4298
2026-01-08 08:43:12.05	126.09	16.11	-51.0	-52.7	15.0	0.00e+00	0	25	0	274726912	68	4325
2026-01-08 08:43:13.04	126.04	16.22	-51.1	-52.8	15.0	0.00e+00	0	25	0	276824064	68	4351
2026-01-08 08:43:14.04	125.98	16.32	-51.0	-52.7	15.0	0.00e+00	0	24	0	277872640	68	4311
2026-01-08 08:43:15.04	125.93	16.43	-51.0	-52.7	15.0	0.00e+00	0	25	0	279969792	68	4316
2026-01-08 08:43:16.03	125.87	16.54	-51.0	-52.7	15.0	0.00e+00	0	24	0	282066944	68	4325
2026-01-08 08:43:17.03	125.82	16.65	-51.1	-52.8	15.0	0.00e+00	0	24	0	284164096	68	4342
2026-01-08 08:43:18.03	125.76	16.76	-51.0	-52.6	15.1	0.00e+00	0	24	0	286261248	68	4278
2026-01-08 08:43:19.01	125.71	16.87	-51.1	-52.8	15.0	0.00e+00	0	24	0	287309824	68	4349
2026-01-08 08:43:20.01	125.65	16.99	-51.0	-52.7	15.0	0.00e+00	0	25	0	289406976	68	4333
2026-01-08 08:43:21.01	125.59	17.10	-51.1	-52.8	15.0	0.00e+00	0	24	0	291504128	68	4355
2026-01-08 08:43:22.00	125.54	17.21	-51.1	-52.8	15.0	0.00e+00	0	24	0	293601280	68	4341
2026-01-08 08:43:23.00	125.48	17.32	-51.1	-52.8	15.0	0.00e+00	0	24	0	295698432	68	4355
2026-01-08 08:43:23.99	125.42	17.44	-51.2	-53.0	14.9	0.00e+00	0	25	0	296747008	68	4443
2026-01-08 08:43:24.98	125.36	17.55	-51.1	-52.8	15.0	0.00e+00	0	24	0	298844160	68	4374
2026-01-08 08:43:25.97	125.30	17.66	-51.1	-52.7	15.0	0.00e+00	0	24	0	300941312	68	4337
2026-01-08 08:43:26.97	125.24	17.78	-51.1	-52.8	15.0	0.00e+00	0	24	0	303038464	68	4371
2026-01-08 08:43:27.97	125.18	17.90	-51.1	-52.8	15.0	0.00e+00	0	24	0	304087040	68	4355
2026-01-08 08:43:28.96	125.12	18.01	-51.0	-52.7	15.0	0.00e+00	0	25	0	306184192	68	4321
2026-01-08 08:43:29.95	125.06	18.13	-51.0	-52.7	15.0	0.00e+00	0	24	0	308281344	68	4332
2026-01-08 08:43:30.93	125.00	18.24	-51.0	-52.7	15.0	0.00e+00	0	25	0	310378496	68	4328
2026-01-08 08:43:31.92	124.93	18.36	-50.9	-52.6	15.1	0.00e+00	0	25	0	311427072	68	4265
2026-01-08 08:43:32.91	124.87	18.48	-51.0	-52.7	15.0	0.00e+00	0	25	0	313524224	68	4313
2026-01-08 08:43:33.91	124.81	18.60	-51.0	-52.6	15.1	0.00e+00	0	25	0	315621376	68	4275
2026-01-08 08:43:34.91	124.74	18.71	-51.0	-52.7	15.1	0.00e+00	0	25	0	317718528	68	4293
2026-01-08 08:43:35.91	124.68	18.83	-51.0	-52.7	15.0	0.00e+00	0	24	0	319815680	68	4310
2026-01-08 08:43:36.90	124.61	18.95	-51.0	-52.6	15.1	0.00e+00	0	25	0	320864256	68	4285
2026-01-08 08:43:37.89	124.55	19.07	-50.9	-52.5	15.1	0.00e+00	0	25	0	322961408	68	4203
2026-01-08 08:43:38.89	124.48	19.20	-50.9	-52.5	15.1	0.00e+00	0	25	0	325058560	68	4210
2026-01-08 08:43:39.88	124.42	19.32	-50.9	-52.5	15.1	0.00e+00	0	25	0	327155712	68	4222
2026-01-08 08:43:40.88	124.35	19.44	-50.9	-52.5	15.1	0.00e+00	0	24	0	328204288	68	4213
2026-01-08 08:43:41.87	124.28	19.56	-50.9	-52.5	15.2	0.00e+00	0	25	0	330301440	68	4198
2026-01-08 08:43:42.87	124.21	19.69	-50.8	-52.5	15.2	0.00e+00	0	24	0	332398592	68	4196
2026-01-08 08:43:43.87	124.14	19.81	-50.9	-52.5	15.1	0.00e+00	0	24	0	334495744	68	4220
2026-01-08 08:43:44.87	124.07	19.94	-51.1	-52.7	15.0	0.00e+00	0	24	0	336592896	68	4330
2026-01-08 08:43:45.86	124.00	20.06	-51.0	-52.7	15.0	0.00e+00	0	25	0	337641472	68	4313
2026-01-08 08:43:46.85	123.93	20.19	-51.1	-52.8	15.0	0.00e+00	0	25	0	339738624	68	4380
2026-01-08 08:43:47.83	123.86	20.31	-51.2	-52.8	15.0	0.00e+00	0	25	0	341835776	68	4382
2026-01-08 08:43:48.83	123.79	20.44	-51.0	-52.7	15.1	0.00e+00	0	24	0	343932928	68	4301
2026-01-08 08:43:49.82	123.72	20.57	-51.0	-52.6	15.1	0.00e+00	0	24	0	344981504	68	4266
2026-01-08 08:43:50.82	123.64	20.69	-51.0	-52.6	15.1	0.00e+00	0	24	0	347078656	68	4281
2026-01-08 08:43:51.82	123.57	20.82	-50.9	-52.5	15.1	0.00e+00	0	24	0	349175808	68	4238
2026-01-08 08:43:52.82	123.49	20.95	-51.0	-52.7	15.0	0.00e+00	0	24	0	351272960	68	4311
2026-01-08 08:43:53.81	123.42	21.08	-51.0	-52.6	15.1	0.00e+00	0	25	0	353370112	68	4258
2026-01-08 08:43:54.80	123.34	21.21	-51.0	-52.6	15.1	0.00e+00	0	24	0	354418688	68	4271
2026-01-08 08:43:55.80	123.27	21.34	-50.9	-52.5	15.1	0.00e+00	0	25	0	356515840	68	4217
2026-01-08 08:43:56.79	123.19	21.48	-50.9	-52.5	15.2	0.00e+00	0	24	0	358612992	68	4201
2026-01-08 08:43:57.79	123.11	21.61	-50.9	-52.5	15.1	0.00e+00	0	24	0	360710144	68	4242
2026-01-08 08:43:58.79	123.03	21.74	-50.9	-52.5	15.1	0.00e+00	0	25	0	361758720	68	4225
2026-01-08 08:43:59.78	122.95	21.88	-51.0	-52.7	15.1	0.00e+00	0	24	0	363855872	68	4299
2026-01-08 08:44:00.77	122.87	22.01	-51.0	-52.6	15.1	0.00e+00	0	25	0	365953024	68	4283
2026-01-08 08:44:01.77	122.79	22.14	-51.0	-52.6	15.1	0.00e+00	0	24	0	368050176	68	4270
2026-01-08 08:44:02.75	122.71	22.28	-51.1	-52.7	15.0	0.00e+00	0	25	0	370147328	68	4324
2026-01-08 08:44:03.74	122.63	22.41	-51.0	-52.6	15.1	0.00e+00	0	25	0	371195904	68	4286
2026-01-08 08:44:04.74	122.55	22.55	-51.1	-52.7	15.1	0.00e+00	0	25	0	373293056	68	4314
2026-01-08 08:44:05.73	122.46	22.69	-51.1	-52.8	15.0	0.00e+00	0	24	0	375390208	68	4350
2026-01-08 08:44:06.74	122.38	22.83	-51.2	-52.8	15.0	0.00e+00	0	24	0	377487360	68	4365
2026-01-08 08:44:07.73	122.29	22.97	-51.2	-52.9	14.9	0.00e+00	0	25	0	378535936	68	4410
2026-01-08 08:44:08.73	122.21	23.11	-51.2	-52.9	15.0	0.00e+00	0	25	0	380633088	68	4394
2026-01-08 08:44:09.72	122.12	23.25	-51.3	-53.0	14.9	0.00e+00	0	24	0	382730240	68	4454
2026-01-08 08:44:10.72	122.03	23.39	-51.3	-53.0	14.9	0.00e+00	0	25	0	384827392	68	4458
2026-01-08 08:44:11.72	121.94	23.53	-51.3	-53.0	14.9	0.00e+00	0	24	0	386924544	68	4488
2026-01-08 08:44:12.71	121.85	23.67	-51.4	-53.1	14.9	0.00e+00	0	25	0	387973120	68	4495
2026-01-08 08:44:13.70	121.76	23.82	-51.4	-53.1	14.8	0.00e+00	0	25	0	390070272	68	4537
2026-01-08 08:44:14.69	121.67	23.96	-51.6	-53.3	14.7	0.00e+00	0	25	0	392167424	68	4641
2026-01-08 08:44:15.69	121.58	24.10	-51.7	-53.4	14.7	0.00e+00	0	24	0	394264576	68	4686
2026-01-08 08:44:16.69	121.49	24.25	-51.7	-53.4	14.7	0.00e+00	0	25	0	395313152	68	4702
2026-01-08 08:44:17.68	121.40	24.40	-51.8	-53.6	14.6	0.00e+00	0	24	0	397410304	68	4786
2026-01-08 08:44:18.68	121.30	24.54	-52.0	-53.8	14.5	0.00e+00	0	25	0	399507456	69	4620
2026-01-08 08:44:19.68	121.20	24.69	-52.0	-53.9	14.6	0.00e+00	0	25	0	401604608	69	4659
2026-01-08 08:44:20.67	121.11	24.84	-52.0	-53.9	14.6	0.00e+00	0	25	0	403701760	69	4667
2026-01-08 08:44:21.67	121.01	24.99	-52.1	-54.0	14.6	0.00e+00	0	25	0	404750336	69	4713
2026-01-08 08:44:22.66	120.91	25.14	-52.1	-54.0	14.6	0.00e+00	0	25	0	406847488	69	4715
2026-01-08 08:44:23.65	120.81	25.29	-52.2	-54.1	14.5	0.00e+00	0	24	0	408944640	69	4764
2026-01-08 08:44:24.64	120.71	25.44	-52.3	-54.2	14.5	0.00e+00	0	24	0	411041792	69	4865
2026-01-08 08:44:25.64	120.61	25.59	-52.3	-54.2	14.5	0.00e+00	0	25	0	412090368	69	4848
2026-01-08 08:44:26.63	120.51	25.74	-52.4	-54.4	14.4	0.00e+00	0	25	0	414187520	69	4932
2026-01-08 08:44:27.64	120.41	25.90	-52.6	-54.6	14.4	0.00e+00	0	25	0	416284672	70	4783
2026-01-08 08:44:28.63	120.30	26.05	-52.8	-54.8	14.3	0.00e+00	0	25	0	418381824	70	4914
2026-01-08 08:44:29.63	120.20	26.21	-52.9	-55.0	14.2	0.00e+00	0	25	0	420478976	70	5011
2026-01-08 08:44:30.63	120.09	26.36	-53.0	-55.1	14.3	0.00e+00	0	25	0	421527552	71	4795
2026-01-08 08:44:31.63	119.98	26.52	-53.1	-55.2	14.2	0.00e+00	0	24	0	423624704	71	4862
2026-01-08 08:44:32.63	119.87	26.68	-53.1	-55.3	14.2	0.00e+00	0	25	0	425721856	71	4910
2026-01-08 08:44:33.63	119.76	26.84	-53.3	-55.6	14.1	0.00e+00	0	25	0	427819008	71	5043
2026-01-08 08:44:34.62	119.65	27.00	-53.2	-55.4	14.1	0.00e+00	0	25	0	429916160	71	4979
2026-01-08 08:44:35.62	119.54	27.16	-53.3	-55.5	14.1	0.00e+00	0	25	0	430964736	71	5024
2026-01-08 08:44:36.61	119.43	27.32	-53.4	-55.6	14.0	0.00e+00	0	25	0	433061888	71	5099
2026-01-08 08:44:37.61	119.31	27.48	-53.4	-55.7	14.1	0.00e+00	0	25	0	435159040	72	4850
2026-01-08 08:44:38.61	119.19	27.64	-53.6	-55.9	14.0	0.00e+00	0	25	0	437256192	72	4940
2026-01-08 08:44:39.61	119.08	27.81	-53.6	-55.9	14.0	0.00e+00	0	25	0	439353344	72	4967
2026-01-08 08:44:40.61	118.96	27.97	-53.5	-55.8	14.0	0.00e+00	0	25	0	440401920	72	4916
2026-01-08 08:44:41.61	118.84	28.14	-53.7	-56.0	13.9	0.00e+00	0	25	0	442499072	72	5034
2026-01-08 08:44:42.60	118.72	28.30	-53.8	-56.2	13.8	0.00e+00	0	25	0	444596224	72	5114
2026-01-08 08:44:43.59	118.60	28.47	-53.8	-56.2	13.8	0.00e+00	0	25	0	446693376	72	5111
2026-01-08 08:44:44.59	118.47	28.64	-53.8	-56.2	13.9	0.00e+00	0	25	0	447741952	72	5127
2026-01-08 08:44:45.58	118.35	28.80	-53.8	-56.1	13.9	0.00e+00	0	25	0	449839104	72	5098
2026-01-08 08:44:46.57	118.22	28.97	-53.8	-56.2	13.8	0.00e+00	0	25	0	451936256	72	5111
2026-01-08 08:44:47.56	118.10	29.14	-53.7	-56.1	13.9	0.00e+00	0	25	0	454033408	72	5076
2026-01-08 08:44:48.55	117.97	29.31	-53.6	-55.9	14.0	0.00e+00	0	25	0	456130560	72	4950
2026-01-08 08:44:49.55	117.84	29.48	-53.8	-56.1	13.9	0.00e+00	0	25	0	457179136	72	5100
2026-01-08 08:44:50.54	117.71	29.66	-53.7	-56.1	13.9	0.00e+00	0	25	0	459276288	72	5081
2026-01-08 08:44:51.53	117.58	29.83	-53.8	-56.1	13.9	0.00e+00	0	25	0	461373440	72	5088
2026-01-08 08:44:52.54	117.44	30.01	-53.7	-56.0	13.9	0.00e+00	0	25	0	463470592	72	5039
2026-01-08 08:44:53.54	117.30	30.18	-53.6	-55.9	14.0	0.00e+00	0	25	0	464519168	72	4935
2026-01-08 08:44:54.54	117.17	30.36	-53.5	-55.8	14.1	0.00e+00	0	25	0	466616320	72	4880
2026-01-08 08:44:55.52	117.03	30.53	-53.6	-55.9	14.0	0.00e+00	0	25	0	468713472	72	4940
2026-01-08 08:44:56.52	116.89	30.71	-53.3	-55.5	14.2	0.00e+00	0	25	0	470810624	72	4757
2026-01-08 08:44:57.51	116.75	30.89	-53.5	-55.8	14.1	0.00e+00	0	25	0	472907776	72	4894
2026-01-08 08:44:58.50	116.60	31.07	-53.5	-55.8	14.1	0.00e+00	0	25	0	473956352	72	4898
2026-01-08 08:44:59.50	116.46	31.25	-53.5	-55.8	14.1	0.00e+00	0	25	0	476053504	72	4887
2026-01-08 08:45:00.50	116.31	31.43	-53.4	-55.6	14.2	0.00e+00	0	25	0	478150656	72	4792
2026-01-08 08:45:01.49	116.16	31.61	-53.4	-55.6	14.2	0.00e+00	0	25	0	480247808	72	4781
2026-01-08 08:45:02.48	116.01	31.80	-53.4	-55.7	14.2	0.00e+00	0	25	0	481296384	72	4820
2026-01-08 08:45:03.48	115.86	31.98	-53.5	-55.7	14.1	0.00e+00	0	25	0	483393536	72	4857
2026-01-08 08:45:04.47	115.71	32.17	-53.4	-55.7	14.2	0.00e+00	0	25	0	485490688	72	4825
2026-01-08 08:45:05.47	115.55	32.35	-53.5	-55.8	14.1	0.00e+00	0	25	0	487587840	72	4872
2026-01-08 08:45:06.47	115.39	32.54	-53.6	-55.8	14.1	0.00e+00	0	25	0	489684992	72	4914
2026-01-08 08:45:07.47	115.23	32.73	-53.5	-55.7	14.2	0.00e+00	0	25	0	490733568	72	4840
2026-01-08 08:45:08.47	115.07	32.92	-53.3	-55.5	14.2	0.00e+00	0	25	0	492830720	72	4734
2026-01-08 08:45:09.46	114.91	33.11	-53.4	-55.5	14.2	0.00e+00	0	25	0	494927872	72	4754
2026-01-08 08:45:10.45	114.74	33.30	-53.3	-55.5	14.3	0.00e+00	0	25	0	497025024	72	4723
2026-01-08 08:45:11.45	114.57	33.49	-53.3	-55.4	14.3	0.00e+00	0	25	0	498073600	72	4676
2026-01-08 08:45:12.44	114.41	33.68	-53.4	-55.6	14.2	0.00e+00	0	25	0	500170752	72	4767
2026-01-08 08:45:13.45	114.23	33.88	-53.4	-55.6	14.2	0.00e+00	0	25	0	502267904	72	4799
2026-01-08 08:45:14.45	114.06	34.07	-53.5	-55.7	14.1	0.00e+00	0	25	0	504365056	72	4869
2026-01-08 08:45:15.45	113.88	34.27	-53.7	-56.0	14.0	0.00e+00	0	25	0	506462208	72	5028
2026-01-08 08:45:16.46	113.70	34.47	-53.9	-56.3	13.8	0.00e+00	0	25	0	507510784	72	5181
2026-01-08 08:45:17.45	113.52	34.66	-53.9	-56.4	13.8	0.00e+00	0	25	0	509607936	72	5223
2026-01-08 08:45:18.44	113.34	34.86	-54.0	-56.5	13.8	0.00e+00	0	25	0	511705088	73	5030
2026-01-08 08:45:19.44	113.16	35.06	-54.2	-56.8	13.6	0.00e+00	0	25	0	513802240	73	5191
2026-01-08 08:45:20.43	112.97	35.26	-54.3	-56.9	13.6	0.00e+00	0	25	0	514850816	73	5241
2026-01-08 08:45:21.44	112.78	35.46	-54.4	-57.0	13.5	0.00e+00	0	25	0	516947968	73	5316
2026-01-08 08:45:22.43	112.59	35.66	-54.5	-57.2	13.5	0.00e+00	0	25	0	519045120	74	5142
2026-01-08 08:45:23.42	112.40	35.87	-54.4	-57.1	13.6	0.00e+00	0	25	0	521142272	74	5048
2026-01-08 08:45:24.42	112.20	36.07	-54.4	-57.0	13.6	0.00e+00	0	25	0	523239424	74	5034
2026-01-08 08:45:25.42	112.00	36.28	-54.5	-57.2	13.6	0.00e+00	0	25	0	524288000	74	5104
2026-01-08 08:45:26.42	111.80	36.48	-54.5	-57.2	13.5	0.00e+00	0	25	0	526385152	74	5142
2026-01-08 08:45:27.42	111.59	36.69	-54.7	-57.5	13.3	0.00e+00	0	25	0	528482304	74	5319
2026-01-08 08:45:28.41	111.39	36.90	-54.8	-57.6	13.3	0.00e+00	0	25	0	530579456	74	5379
2026-01-08 08:45:29.41	111.18	37.10	-54.9	-57.8	13.2	0.00e+00	0	25	0	532676608	74	5465
2026-01-08 08:45:30.40	110.96	37.31	-54.8	-57.7	13.3	0.00e+00	0	25	0	533725184	74	5421
2026-01-08 08:45:31.40	110.75	37.52	-54.8	-57.7	13.2	0.00e+00	0	25	0	535822336	74	5433
2026-01-08 08:45:32.39	110.53	37.73	-54.6	-57.4	13.4	0.00e+00	0	25	0	537919488	74	5257
2026-01-08 08:45:33.38	110.31	37.94	-54.4	-57.1	13.6	0.00e+00	0	25	0	540016640	74	5057
2026-01-08 08:45:34.37	110.09	38.15	-54.3	-56.9	13.7	0.00e+00	0	25	0	541065216	74	4972
2026-01-08 08:45:35.36	109.87	38.36	-54.4	-57.0	13.7	0.00e+00	0	25	0	543162368	74	5005
2026-01-08 08:45:36.36	109.64	38.58	-54.6	-57.4	13.4	0.00e+00	0	25	0	545259520	74	5226
2026-01-08 08:45:37.35	109.40	38.79	-54.6	-57.4	13.5	0.00e+00	0	25	0	547356672	74	5222
2026-01-08 08:45:38.34	109.17	39.01	-54.6	-57.4	13.4	0.00e+00	0	25	0	548405248	74	5247
2026-01-08 08:45:39.33	108.93	39.22	-54.7	-57.5	13.4	0.00e+00	0	25	0	550502400	74	5289
2026-01-08 08:45:40.32	108.69	39.44	-54.7	-57.4	13.4	0.00e+00	0	25	0	552599552	74	5273
2026-01-08 08:45:41.31	108.45	39.65	-54.7	-57.5	13.3	0.00e+00	0	25	0	554696704	74	5332
2026-01-08 08:45:42.30	108.20	39.87	-54.8	-57.7	13.2	0.00e+00	0	25	0	556793856	74	5410
2026-01-08 08:45:43.29	107.95	40.09	-55.0	-58.1	13.1	0.00e+00	0	25	0	557842432	75	5342
2026-01-08 08:45:44.29	107.69	40.31	-55.0	-58.0	13.1	0.00e+00	0	25	0	559939584	75	5316
2026-01-08 08:45:45.29	107.43	40.53	-55.1	-58.2	13.0	0.00e+00	0	25	0	562036736	75	5418
2026-01-08 08:45:46.29	107.17	40.75	-55.1	-58.2	13.0	0.00e+00	0	25	0	564133888	75	5445
2026-01-08 08:45:47.29	106.90	40.98	-55.0	-57.9	13.2	0.00e+00	0	25	0	566231040	75	5277
2026-01-08 08:45:48.28	106.64	41.20	-55.0	-58.0	13.2	0.00e+00	0	25	0	567279616	75	5290
2026-01-08 08:45:49.27	106.36	41.42	-54.8	-57.6	13.4	0.00e+00	0	25	0	569376768	75	5097
2026-01-08 08:45:50.27	106.08	41.65	-54.4	-57.0	13.8	0.00e+00	0	25	0	571473920	75	4713
2026-01-08 08:45:51.27	105.80	41.87	-54.0	-56.4	14.0	0.00e+00	0	25	0	573571072	74	4683
2026-01-08 08:45:52.27	105.52	42.10	-53.9	-56.3	14.1	0.00e+00	0	25	0	574619648	74	4607
2026-01-08 08:45:53.27	105.22	42.32	-53.6	-55.9	14.2	0.00e+00	0	25	0	576716800	73	4657
2026-01-08 08:45:54.27	104.93	42.55	-53.5	-55.7	14.3	0.00e+00	0	25	0	578813952	73	4547
2026-01-08 08:45:55.25	104.64	42.77	-53.5	-55.8	14.2	0.00e+00	0	25	0	580911104	73	4616
2026-01-08 08:45:56.25	104.33	43.00	-53.5	-55.7	14.3	0.00e+00	0	25	0	583008256	73	4561
2026-01-08 08:45:57.24	104.03	43.23	-53.3	-55.4	14.5	0.00e+00	0	25	0	584056832	73	4410
2026-01-08 08:45:58.23	103.72	43.46	-53.2	-55.3	14.4	0.00e+00	0	25	0	586153984	72	4605
2026-01-08 08:45:59.22	103.41	43.68	-53.1	-55.2	14.5	0.00e+00	0	25	0	588251136	72	4568
2026-01-08 08:46:00.22	103.08	43.91	-53.0	-55.1	14.5	0.00e+00	0	25	0	590348288	72	4504
2026-01-08 08:46:01.21	102.76	44.14	-53.0	-55.0	14.5	0.00e+00	0	25	0	591396864	72	4472
2026-01-08 08:46:02.20	102.43	44.37	-53.0	-55.1	14.5	0.00e+00	0	25	0	593494016	72	4501
2026-01-08 08:46:03.19	102.10	44.60	-53.2	-55.2	14.4	0.00e+00	0	25	0	595591168	72	4593
2026-01-08 08:46:04.18	101.77	44.83	-53.3	-55.4	14.3	0.00e+00	0	25	0	597688320	72	4684
2026-01-08 08:46:05.16	101.43	45.05	-53.5	-55.8	14.1	0.00e+00	0	25	0	599785472	72	4888
2026-01-08 08:46:06.15	101.08	45.28	-53.8	-56.1	13.9	0.00e+00	0	25	0	600834048	72	5072
2026-01-08 08:46:07.15	100.72	45.51	-53.9	-56.3	13.9	0.00e+00	0	25	0	602931200	72	5176
2026-01-08 08:46:08.15	100.36	45.74	-54.0	-56.5	13.9	0.00e+00	0	25	0	605028352	73	5007
2026-01-08 08:46:09.14	100.00	45.97	-54.1	-56.6	13.8	0.00e+00	0	25	0	607125504	73	5065
2026-01-08 08:46:10.14	99.63	46.20	-54.0	-56.4	13.9	0.00e+00	0	25	0	608174080	73	4930
2026-01-08 08:46:11.13	99.26	46.43	-53.8	-56.2	14.1	0.00e+00	0	25	0	610271232	73	4832
2026-01-08 08:46:12.12	98.88	46.66	-54.0	-56.4	13.9	0.00e+00	0	25	0	612368384	73	4963
2026-01-08 08:46:13.11	98.49	46.89	-54.1	-56.6	13.8	0.00e+00	0	25	0	614465536	73	5073
2026-01-08 08:46:14.11	98.10	47.12	-53.8	-56.2	14.0	0.00e+00	0	25	0	616562688	73	4836
2026-01-08 08:46:15.11	97.70	47.35	-53.7	-56.0	14.1	0.00e+00	0	25	0	617611264	73	4726
2026-01-08 08:46:16.10	97.30	47.58	-53.8	-56.2	14.1	0.00e+00	0	25	0	619708416	73	4832
2026-01-08 08:46:17.09	96.89	47.81	-54.2	-56.7	13.8	0.00e+00	0	25	0	621805568	73	5110
2026-01-08 08:46:18.08	96.48	48.03	-54.4	-57.0	13.6	0.00e+00	0	25	0	623902720	73	5318
2026-01-08 08:46:19.07	96.06	48.26	-54.4	-57.0	13.7	0.00e+00	0	25	0	624951296	74	5039
2026-01-08 08:46:20.07	95.62	48.49	-54.2	-56.7	13.8	0.00e+00	0	25	0	627048448	74	4853
2026-01-08 08:46:21.06	95.19	48.72	-54.4	-57.0	13.7	0.00e+00	0	25	0	629145600	74	5028
2026-01-08 08:46:22.06	94.75	48.94	-54.4	-56.9	13.7	0.00e+00	0	25	0	631242752	74	4980
2026-01-08 08:46:23.06	94.30	49.17	-54.4	-57.0	13.7	0.00e+00	0	25	0	633339904	74	5014
2026-01-08 08:46:24.05	93.85	49.39	-54.1	-56.4	14.0	0.00e+00	0	25	0	634388480	74	4704
2026-01-08 08:46:25.05	93.38	49.62	-53.7	-55.9	14.4	0.00e+00	0	25	0	636485632	74	4438
2026-01-08 08:46:26.04	92.92	49.84	-53.2	-55.3	14.6	0.00e+00	0	25	0	638582784	73	4347
2026-01-08 08:46:27.04	92.44	50.06	-52.8	-54.8	14.7	0.00e+00	0	25	0	640679936	72	4369
2026-01-08 08:46:28.03	91.96	50.28	-52.5	-54.4	14.7	0.00e+00	0	24	0	641728512	71	4408
2026-01-08 08:46:29.02	91.47	50.50	-52.3	-54.1	14.9	0.00e+00	0	25	0	643825664	71	4274
2026-01-08 08:46:30.02	90.97	50.72	-52.1	-53.9	14.8	0.00e+00	0	25	0	645922816	70	4423
2026-01-08 08:46:31.02	90.47	50.94	-52.1	-53.9	14.9	0.00e+00	0	25	0	648019968	70	4409
2026-01-08 08:46:32.01	89.96	51.15	-52.0	-53.7	14.9	0.00e+00	0	25	0	650117120	70	4322
2026-01-08 08:46:33.00	89.44	51.37	-51.8	-53.5	15.1	0.00e+00	0	25	0	651165696	70	4228
2026-01-08 08:46:33.99	88.92	51.58	-51.6	-53.3	14.9	0.00e+00	0	25	0	653262848	69	4374
2026-01-08 08:46:34.99	88.38	51.79	-51.4	-53.1	15.1	0.00e+00	0	25	0	655360000	69	4247
2026-01-08 08:46:35.98	87.85	52.00	-51.3	-53.0	15.2	0.00e+00	0	25	0	657457152	69	4199
2026-01-08 08:46:36.98	87.29	52.21	-50.8	-52.4	15.2	0.00e+00	0	25	0	658505728	68	4156
2026-01-08 08:46:37.97	86.74	52.41	-50.3	-51.7	15.3	0.00e+00	0	25	0	660602880	67	4087
2026-01-08 08:46:38.97	86.17	52.62	-50.3	-51.7	15.4	0.00e+00	0	25	0	662700032	67	4078
2026-01-08 08:46:39.97	85.60	52.82	-50.2	-51.6	15.4	0.00e+00	0	25	0	664797184	67	4040
2026-01-08 08:46:40.95	85.03	53.02	-50.3	-51.8	15.1	0.00e+00	0	25	0	666894336	66	4367
2026-01-08 08:46:41.94	84.44	53.21	-50.3	-51.8	15.2	0.00e+00	0	25	0	667942912	66	4370
2026-01-08 08:46:42.93	83.85	53.41	-50.4	-51.9	15.1	0.00e+00	0	25	0	670040064	66	4407
2026-01-08 08:46:43.93	83.24	53.60	-50.3	-51.8	15.2	0.00e+00	0	25	0	672137216	66	4369
2026-01-08 08:46:44.92	82.63	53.79	-50.3	-51.8	15.1	0.00e+00	0	25	0	674234368	66	4359
2026-01-08 08:46:45.91	82.02	53.98	-50.3	-51.8	15.2	0.00e+00	0	25	0	675282944	66	4365
2026-01-08 08:46:46.91	81.39	54.16	-50.4	-51.9	15.1	0.00e+00	0	25	0	677380096	66	4401
2026-01-08 08:46:47.90	80.75	54.34	-50.6	-52.1	15.0	0.00e+00	0	25	0	679477248	66	4533
2026-01-08 08:46:48.90	80.11	54.52	-50.8	-52.4	14.9	0.00e+00	0	25	0	681574400	66	4652
2026-01-08 08:46:49.89	79.46	54.70	-51.0	-52.6	15.0	0.00e+00	0	24	0	682622976	67	4505
2026-01-08 08:46:50.89	78.79	54.87	-51.2	-52.8	14.9	0.00e+00	0	25	0	684720128	67	4629
2026-01-08 08:46:51.89	78.12	55.04	-51.6	-53.3	14.8	0.00e+00	0	25	0	686817280	68	4645
2026-01-08 08:46:52.88	77.45	55.20	-51.7	-53.4	14.8	0.00e+00	0	25	0	688914432	68	4653
2026-01-08 08:46:53.87	76.77	55.36	-51.9	-53.7	14.8	0.00e+00	0	25	0	691011584	69	4569
2026-01-08 08:46:54.87	76.07	55.52	-52.1	-53.9	14.7	0.00e+00	0	25	0	692060160	69	4679
2026-01-08 08:46:55.86	75.38	55.68	-52.2	-54.0	14.7	0.00e+00	0	25	0	694157312	69	4708
2026-01-08 08:46:56.86	74.67	55.83	-52.3	-54.1	14.6	0.00e+00	0	25	0	696254464	69	4806
2026-01-08 08:46:57.86	73.95	55.98	-52.4	-54.3	14.6	0.00e+00	0	25	0	698351616	70	4619
2026-01-08 08:46:58.85	73.23	56.12	-52.5	-54.3	14.6	0.00e+00	0	25	0	700448768	70	4642
2026-01-08 08:46:59.84	72.50	56.26	-52.5	-54.4	14.6	0.00e+00	0	25	0	701497344	70	4665
2026-01-08 08:47:00.84	71.76	56.39	-52.5	-54.4	14.6	0.00e+00	0	25	0	703594496	70	4674
2026-01-08 08:47:01.84	71.01	56.52	-52.3	-54.2	14.7	0.00e+00	0	25	0	705691648	70	4552
2026-01-08 08:47:02.83	70.27	56.65	-52.8	-54.7	14.5	0.00e+00	0	25	0	707788800	70	4870
2026-01-08 08:47:03.81	69.52	56.77	-53.0	-55.0	14.4	0.00e+00	0	25	0	708837376	71	4745
2026-01-08 08:47:04.81	68.75	56.88	-52.7	-54.7	14.6	0.00e+00	0	25	0	710934528	71	4561
2026-01-08 08:47:05.81	67.98	57.00	-52.5	-54.3	14.8	0.00e+00	0	25	0	713031680	71	4373
2026-01-08 08:47:06.81	67.20	57.10	-52.3	-54.1	15.0	0.00e+00	0	25	0	715128832	71	4254
2026-01-08 08:47:07.81	66.41	57.21	-52.3	-54.1	14.9	0.00e+00	0	25	0	717225984	71	4291
2026-01-08 08:47:08.81	65.62	57.30	-52.1	-53.8	14.9	0.00e+00	0	25	0	718274560	70	4385
2026-01-08 08:47:09.80	64.83	57.40	-52.1	-53.8	14.9	0.00e+00	0	25	0	720371712	70	4359
2026-01-08 08:47:10.80	64.03	57.48	-52.3	-54.1	14.8	0.00e+00	0	25	0	722468864	70	4494
2026-01-08 08:47:11.80	63.22	57.57	-52.2	-54.0	14.8	0.00e+00	0	25	0	724566016	70	4468
2026-01-08 08:47:12.79	62.41	57.64	-52.0	-53.8	14.9	0.00e+00	0	25	0	725614592	70	4360
2026-01-08 08:47:13.77	61.61	57.71	-52.0	-53.7	15.0	0.00e+00	0	25	0	727711744	70	4306
2026-01-08 08:47:14.76	60.80	57.78	-51.8	-53.5	15.1	0.00e+00	0	25	0	729808896	70	4205
2026-01-08 08:47:15.76	59.97	57.84	-52.0	-53.7	15.0	0.00e+00	0	25	0	731906048	70	4300
2026-01-08 08:47:16.75	59.15	57.89	-52.0	-53.7	15.0	0.00e+00	0	25	0	734003200	70	4297
2026-01-08 08:47:17.74	58.33	57.94	-52.0	-53.7	15.0	0.00e+00	0	25	0	735051776	70	4331
2026-01-08 08:47:18.74	57.49	57.98	-51.8	-53.5	15.1	0.00e+00	0	25	0	737148928	70	4220
2026-01-08 08:47:19.74	56.65	58.02	-51.5	-53.1	15.1	0.00e+00	0	25	0	739246080	69	4266
2026-01-08 08:47:20.72	55.83	58.05	-51.3	-52.9	15.2	0.00e+00	0	25	0	741343232	69	4164
2026-01-08 08:47:21.71	55.00	58.08	-51.0	-52.6	15.2	0.00e+00	0	25	0	742391808	68	4243
2026-01-08 08:47:22.70	54.16	58.10	-50.9	-52.5	15.2	0.00e+00	0	25	0	744488960	68	4194
2026-01-08 08:47:23.69	53.33	58.11	-50.9	-52.4	15.3	0.00e+00	0	25	0	746586112	68	4148
2026-01-08 08:47:24.69	52.48	58.12	-51.1	-52.6	15.2	0.00e+00	0	25	0	748683264	68	4259
2026-01-08 08:47:25.68	51.65	58.13	-51.4	-53.0	15.0	0.00e+00	0	25	0	749731840	68	4468
2026-01-08 08:47:26.67	50.81	58.12	-51.3	-52.8	15.0	0.00e+00	0	25	0	751828992	68	4391
2026-01-08 08:47:27.67	49.96	58.12	-51.0	-52.5	15.2	0.00e+00	0	25	0	753926144	68	4234
2026-01-08 08:47:28.66	49.13	58.10	-50.7	-52.1	15.4	0.00e+00	0	25	0	756023296	68	4047
2026-01-08 08:47:29.65	48.29	58.08	-50.7	-52.2	15.2	0.00e+00	0	25	0	758120448	67	4296
2026-01-08 08:47:30.65	47.45	58.06	-50.6	-52.1	15.2	0.00e+00	0	25	0	759169024	67	4274
2026-01-08 08:47:31.64	46.62	58.03	-50.4	-51.9	15.3	0.00e+00	0	25	0	761266176	67	4170
2026-01-08 08:47:32.63	45.79	57.99	-50.5	-52.0	15.3	0.00e+00	0	25	0	763363328	67	4199
2026-01-08 08:47:33.63	44.96	57.95	-50.3	-51.7	15.4	0.00e+00	0	25	0	765460480	67	4068
2026-01-08 08:47:34.62	44.13	57.90	-50.2	-51.6	15.3	0.00e+00	0	25	0	766509056	66	4290
2026-01-08 08:47:35.61	43.31	57.84	-49.8	-51.2	15.4	0.00e+00	0	25	0	768606208	66	4073
2026-01-08 08:47:36.60	42.49	57.79	-49.8	-51.2	15.4	0.00e+00	0	25	0	770703360	66	4057
2026-01-08 08:47:37.59	41.68	57.72	-49.6	-51.0	15.3	0.00e+00	0	25	0	772800512	65	4213
2026-01-08 08:47:38.59	40.86	57.65	-49.8	-51.2	15.3	0.00e+00	0	25	0	774897664	65	4303
2026-01-08 08:47:39.58	40.06	57.57	-50.0	-51.4	15.2	0.00e+00	0	25	0	775946240	65	4434
2026-01-08 08:47:40.57	39.26	57.49	-49.9	-51.4	15.2	0.00e+00	0	25	0	778043392	65	4406
2026-01-08 08:47:41.57	38.45	57.41	-49.9	-51.3	15.2	0.00e+00	0	25	0	780140544	65	4353
2026-01-08 08:47:42.55	37.67	57.32	-49.7	-51.1	15.3	0.00e+00	0	25	0	782237696	65	4248
2026-01-08 08:47:43.55	36.88	57.22	-49.7	-51.0	15.3	0.00e+00	0	25	0	783286272	65	4234
2026-01-08 08:47:44.55	36.09	57.12	-50.0	-51.5	15.2	0.00e+00	0	25	0	785383424	65	4446
2026-01-08 08:47:45.54	35.32	57.01	-50.3	-51.8	15.1	0.00e+00	0	25	0	787480576	65	4623
2026-01-08 08:47:46.54	34.54	56.90	-50.4	-51.8	15.0	0.00e+00	0	25	0	789577728	65	4642
2026-01-08 08:47:47.53	33.78	56.79	-50.3	-51.8	15.1	0.00e+00	0	25	0	791674880	65	4630
2026-01-08 08:47:48.53	33.02	56.67	-50.6	-52.1	15.1	0.00e+00	0	25	0	792723456	66	4522
2026-01-08 08:47:49.52	32.27	56.54	-50.7	-52.2	15.0	0.00e+00	0	25	0	794820608	66	4579
2026-01-08 08:47:50.51	31.53	56.41	-51.0	-52.6	15.0	0.00e+00	0	25	0	796917760	67	4525
2026-01-08 08:47:51.50	30.80	56.28	-50.8	-52.3	15.1	0.00e+00	0	25	0	799014912	67	4388
2026-01-08 08:47:52.48	30.08	56.14	-50.9	-52.5	15.0	0.00e+00	0	25	0	800063488	67	4458
2026-01-08 08:47:53.47	29.36	56.00	-51.1	-52.7	15.0	0.00e+00	0	25	0	802160640	67	4550
2026-01-08 08:47:54.46	28.65	55.86	-51.1	-52.6	15.0	0.00e+00	0	25	0	804257792	67	4541
2026-01-08 08:47:55.46	27.94	55.71	-51.0	-52.6	15.0	0.00e+00	0	25	0	806354944	67	4499
2026-01-08 08:47:56.46	27.23	55.55	-51.0	-52.5	15.0	0.00e+00	0	25	0	808452096	67	4479
2026-01-08 08:47:57.46	26.54	55.39	-51.1	-52.7	15.0	0.00e+00	0	25	0	809500672	67	4590
2026-01-08 08:47:58.46	25.85	55.23	-50.7	-52.2	15.2	0.00e+00	0	25	0	811597824	67	4305
2026-01-08 08:47:59.45	25.18	55.07	-50.3	-51.7	15.4	0.00e+00	0	25	0	813694976	67	4067
2026-01-08 08:48:00.44	24.51	54.90	-50.3	-51.8	15.4	0.00e+00	0	25	0	815792128	67	4112
2026-01-08 08:48:01.45	23.84	54.73	-50.1	-51.5	15.4	0.00e+00	0	25	0	816840704	66	4230
2026-01-08 08:48:02.44	23.19	54.55	-49.8	-51.2	15.4	0.00e+00	0	25	0	818937856	66	4079
2026-01-08 08:48:03.44	22.54	54.37	-49.9	-51.2	15.4	0.00e+00	0	25	0	821035008	66	4095
2026-01-08 08:48:04.43	21.91	54.19	-50.2	-51.6	15.3	0.00e+00	0	25	0	823132160	66	4277
2026-01-08 08:48:05.42	21.28	54.01	-50.2	-51.7	15.2	0.00e+00	0	25	0	825229312	66	4319
2026-01-08 08:48:06.42	20.66	53.82	-50.1	-51.6	15.3	0.00e+00	0	25	0	826277888	66	4254
2026-01-08 08:48:07.41	20.05	53.64	-49.9	-51.3	15.4	0.00e+00	0	25	0	828375040	66	4124
2026-01-08 08:48:08.40	19.45	53.45	-49.8	-51.2	15.4	0.00e+00	0	25	0	830472192	66	4077
2026-01-08 08:48:09.39	18.86	53.25	-49.9	-51.3	15.3	0.00e+00	0	25	0	832569344	66	4127
2026-01-08 08:48:10.38	18.27	53.06	-50.7	-52.2	15.0	0.00e+00	0	25	0	833617920	66	4574
2026-01-08 08:48:11.37	17.69	52.86	-51.3	-52.9	14.9	0.00e+00	0	25	0	835715072	67	4666
2026-01-08 08:48:12.37	17.12	52.66	-51.6	-53.3	14.8	0.00e+00	0	25	0	837812224	68	4630
2026-01-08 08:48:13.36	16.56	52.46	-51.5	-53.1	14.9	0.00e+00	0	25	0	839909376	68	4515
2026-01-08 08:48:14.36	16.00	52.25	-51.3	-52.9	15.0	0.00e+00	0	25	0	842006528	68	4423
2026-01-08 08:48:15.36	15.45	52.04	-51.4	-53.0	15.0	0.00e+00	0	25	0	843055104	68	4452
2026-01-08 08:48:16.36	14.90	51.83	-52.1	-53.9	14.7	0.00e+00	0	25	0	845152256	69	4657
2026-01-08 08:48:17.36	14.36	51.62	-52.8	-54.8	14.4	0.00e+00	0	25	0	847249408	70	4889
2026-01-08 08:48:18.36	13.84	51.41	-53.0	-55.0	14.5	0.00e+00	0	25	0	849346560	71	4735
2026-01-08 08:48:19.34	13.33	51.20	-52.8	-54.7	14.6	0.00e+00	0	25	0	850395136	71	4578
2026-01-08 08:48:20.34	12.81	50.98	-52.7	-54.6	14.7	0.00e+00	0	25	0	852492288	71	4527
2026-01-08 08:48:21.33	12.31	50.76	-52.7	-54.5	14.7	0.00e+00	0	25	0	854589440	71	4493
2026-01-08 08:48:22.32	11.82	50.55	-53.1	-55.0	14.5	0.00e+00	0	25	0	856686592	71	4749
2026-01-08 08:48:23.32	11.32	50.33	-53.8	-56.0	14.1	0.00e+00	0	25	0	858783744	72	4997
2026-01-08 08:48:24.31	10.84	50.11	-54.3	-56.7	13.8	0.00e+00	0	25	0	859832320	73	5128
2026-01-08 08:48:25.30	10.37	49.89	-54.7	-57.3	13.6	0.00e+00	0	25	0	861929472	74	5202
2026-01-08 08:48:26.29	9.90	49.67	-54.6	-57.1	13.7	0.00e+00	0	25	0	864026624	74	5094
2026-01-08 08:48:27.29	9.44	49.44	-54.3	-56.7	13.9	0.00e+00	0	25	0	866123776	74	4849
2026-01-08 08:48:28.29	8.98	49.22	-54.1	-56.4	14.2	0.00e+00	0	25	0	867172352	74	4659
2026-01-08 08:48:29.29	8.53	48.99	-54.1	-56.5	14.1	0.00e+00	0	25	0	869269504	74	4712
2026-01-08 08:48:30.28	8.09	48.77	-54.4	-56.9	13.9	0.00e+00	0	25	0	871366656	74	4929
2026-01-08 08:48:31.27	7.66	48.54	-54.6	-57.1	13.8	0.00e+00	0	25	0	873463808	74	5057
2026-01-08 08:48:32.27	7.23	48.32	-54.6	-57.1	13.8	0.00e+00	0	25	0	875560960	74	5051
2026-01-08 08:48:33.27	6.81	48.09	-54.6	-57.1	13.8	0.00e+00	0	25	0	876609536	74	5063
2026-01-08 08:48:34.26	6.39	47.86	-54.3	-56.8	13.9	0.00e+00	0	25	0	878706688	74	4880
2026-01-08 08:48:35.26	5.98	47.63	-54.2	-56.5	14.1	0.00e+00	0	25	0	880803840	74	4743
2026-01-08 08:48:36.25	5.58	47.40	-54.5	-57.0	13.8	0.00e+00	0	25	0	882900992	74	5020
2026-01-08 08:48:37.24	5.18	47.18	-54.6	-57.2	13.7	0.00e+00	0	25	0	883949568	74	5121
2026-01-08 08:48:38.22	4.79	46.95	-54.5	-57.0	13.8	0.00e+00	0	25	0	886046720	74	5023
2026-01-08 08:48:39.22	4.41	46.72	-54.5	-57.1	13.7	0.00e+00	0	25	0	888143872	74	5059
2026-01-08 08:48:40.22	4.02	46.49	-54.5	-57.1	13.7	0.00e+00	0	25	0	890241024	74	5067
2026-01-08 08:48:41.21	3.65	46.26	-54.4	-56.9	13.9	0.00e+00	0	25	0	892338176	74	4967
2026-01-08 08:48:42.20	3.28	46.03	-54.1	-56.4	14.1	0.00e+00	0	25	0	893386752	74	4662
2026-01-08 08:48:43.19	2.92	45.80	-53.8	-56.0	14.4	0.00e+00	0	25	0	895483904	74	4469
2026-01-08 08:48:44.19	2.56	45.57	-53.5	-55.5	14.5	0.00e+00	0	25	0	897581056	73	4483
2026-01-08 08:48:45.19	2.20	45.34	-53.6	-55.8	14.3	0.00e+00	0	25	0	899678208	73	4632
2026-01-08 08:48:46.18	1.85	45.11	-53.8	-56.0	14.2	0.00e+00	0	25	0	900726784	73	4732
2026-01-08 08:48:47.17	1.51	44.89	-53.8	-56.0	14.2	0.00e+00	0	25	0	902823936	73	4730
2026-01-08 08:48:48.17	1.17	44.66	-53.9	-56.2	14.1	0.00e+00	0	25	0	904921088	73	4839
2026-01-08 08:48:49.16	0.84	44.43	-53.9	-56.2	14.1	0.00e+00	0	25	0	907018240	73	4836
2026-01-08 08:48:50.15	0.51	44.20	-53.9	-56.2	14.1	0.00e+00	0	25	0	909115392	73	4841
2026-01-08 08:48:51.14	0.19	43.97	-53.6	-55.8	14.3	0.00e+00	0	25	0	910163968	73	4611
2026-01-08 08:48:52.13	359.87	43.75	-53.6	-55.7	14.4	0.00e+00	0	25	0	912261120	73	4573
2026-01-08 08:48:53.13	359.55	43.52	-53.7	-55.9	14.3	0.00e+00	0	25	0	914358272	73	4702
2026-01-08 08:48:54.12	359.25	43.29	-53.9	-56.1	14.1	0.00e+00	0	25	0	916455424	73	4787
2026-01-08 08:48:55.11	358.94	43.07	-53.8	-56.0	14.2	0.00e+00	0	25	0	917504000	73	4742
2026-01-08 08:48:56.10	358.64	42.84	-53.5	-55.6	14.4	0.00e+00	0	25	0	919601152	73	4516
2026-01-08 08:48:57.10	358.34	42.61	-53.5	-55.6	14.5	0.00e+00	0	25	0	921698304	73	4521
2026-01-08 08:48:58.10	358.05	42.39	-53.5	-55.7	14.4	0.00e+00	0	25	0	923795456	73	4566
2026-01-08 08:48:59.09	357.76	42.16	-53.6	-55.7	14.4	0.00e+00	0	25	0	924844032	73	4585
2026-01-08 08:49:00.09	357.47	41.94	-53.5	-55.6	14.5	0.00e+00	0	25	0	926941184	73	4497
2026-01-08 08:49:01.06	357.20	41.72	-53.5	-55.7	14.4	0.00e+00	0	25	0	929038336	73	4551
2026-01-08 08:49:02.05	356.92	41.50	-53.7	-55.9	14.3	0.00e+00	0	25	0	931135488	73	4686
2026-01-08 08:49:03.03	356.65	41.28	-53.9	-56.1	14.1	0.00e+00	0	25	0	933232640	73	4804
2026-01-08 08:49:04.03	356.38	41.06	-54.0	-56.4	14.0	0.00e+00	0	25	0	934281216	73	4948
2026-01-08 08:49:05.02	356.12	40.84	-54.1	-56.5	13.9	0.00e+00	0	25	0	936378368	73	4991
2026-01-08 08:49:06.01	355.85	40.62	-54.2	-56.6	13.8	0.00e+00	0	25	0	938475520	73	5094
2026-01-08 08:49:07.00	355.60	40.40	-54.2	-56.6	13.9	0.00e+00	0	25	0	940572672	73	5075
2026-01-08 08:49:08.00	355.34	40.18	-54.3	-56.8	13.7	0.00e+00	0	25	0	941621248	73	5197
2026-01-08 08:49:08.99	355.09	39.96	-54.4	-56.9	13.7	0.00e+00	0	25	0	943718400	73	5240
2026-01-08 08:49:09.97	354.84	39.74	-54.7	-57.4	13.6	0.00e+00	0	25	0	945815552	74	5228
2026-01-08 08:49:10.97	354.60	39.53	-55.0	-57.8	13.4	0.00e+00	0	25	0	947912704	75	5162
2026-01-08 08:49:11.97	354.35	39.31	-55.0	-57.9	13.3	0.00e+00	0	25	0	950009856	75	5244
2026-01-08 08:49:12.96	354.12	39.09	-54.9	-57.6	13.5	0.00e+00	0	25	0	951058432	75	5094
2026-01-08 08:49:13.95	353.88	38.88	-54.8	-57.5	13.6	0.00e+00	0	25	0	953155584	75	5021
2026-01-08 08:49:14.95	353.65	38.67	-54.7	-57.3	13.7	0.00e+00	0	25	0	955252736	75	4892
2026-01-08 08:49:15.94	353.42	38.45	-54.7	-57.3	13.7	0.00e+00	0	25	0	957349888	75	4926
2026-01-08 08:49:16.94	353.19	38.24	-54.6	-57.2	13.8	0.00e+00	0	25	0	958398464	75	4845
2026-01-08 08:49:17.92	352.97	38.03	-54.6	-57.2	13.8	0.00e+00	0	25	0	960495616	75	4816
2026-01-08 08:49:18.91	352.75	37.82	-54.3	-56.7	14.0	0.00e+00	0	25	0	962592768	75	4594
2026-01-08 08:49:19.90	352.54	37.61	-54.1	-56.4	14.1	0.00e+00	0	25	0	964689920	74	4685
2026-01-08 08:49:20.90	352.32	37.40	-53.9	-56.1	14.3	0.00e+00	0	25	0	966787072	74	4516
2026-01-08 08:49:21.88	352.11	37.20	-54.0	-56.3	14.1	0.00e+00	0	25	0	967835648	74	4642
2026-01-08 08:49:22.87	351.90	36.99	-54.0	-56.3	14.1	0.00e+00	0	25	0	969932800	74	4625
2026-01-08 08:49:23.86	351.70	36.79	-54.4	-56.8	13.8	0.00e+00	0	25	0	972029952	74	4903
2026-01-08 08:49:24.85	351.50	36.58	-54.5	-57.1	13.7	0.00e+00	0	25	0	974127104	74	5072
2026-01-08 08:49:25.84	351.30	36.38	-54.5	-57.1	13.7	0.00e+00	0	25	0	975175680	74	5067
2026-01-08 08:49:26.83	351.10	36.17	-54.5	-57.1	13.7	0.00e+00	0	25	0	977272832	74	5051
2026-01-08 08:49:27.83	350.90	35.97	-54.5	-57.1	13.7	0.00e+00	0	25	0	979369984	74	5089
2026-01-08 08:49:28.83	350.71	35.77	-54.5	-57.0	13.8	0.00e+00	0	25	0	981467136	74	5001
2026-01-08 08:49:29.83	350.51	35.56	-54.4	-56.9	13.8	0.00e+00	0	25	0	982515712	74	4935
2026-01-08 08:49:30.82	350.32	35.37	-54.1	-56.5	13.9	0.00e+00	0	25	0	984612864	74	4748
2026-01-08 08:49:31.82	350.14	35.16	-54.1	-56.5	14.0	0.00e+00	0	25	0	986710016	74	4745
2026-01-08 08:49:32.81	349.95	34.97	-54.1	-56.5	14.0	0.00e+00	0	25	0	988807168	74	4742
2026-01-08 08:49:33.81	349.77	34.77	-54.1	-56.4	14.1	0.00e+00	0	25	0	990904320	74	4702
2026-01-08 08:49:34.80	349.59	34.57	-54.1	-56.4	14.1	0.00e+00	0	25	0	991952896	74	4681
2026-01-08 08:49:35.80	349.41	34.38	-54.1	-56.5	14.1	0.00e+00	0	25	0	994050048	74	4730
2026-01-08 08:49:36.79	349.24	34.18	-54.2	-56.6	14.0	0.00e+00	0	25	0	996147200	74	4788
2026-01-08 08:49:37.79	349.06	33.99	-54.3	-56.8	13.8	0.00e+00	0	25	0	998244352	74	4909
2026-01-08 08:49:38.78	348.89	33.79	-54.5	-57.0	13.7	0.00e+00	0	25	0	999292928	74	5019
2026-01-08 08:49:39.77	348.73	33.60	-54.6	-57.2	13.6	0.00e+00	0	25	0	1001390080	74	5157
2026-01-08 08:49:40.76	348.56	33.41	-54.8	-57.6	13.4	0.00e+00	0	25	0	1003487232	74	5369
2026-01-08 08:49:41.76	348.39	33.22	-54.9	-57.7	13.3	0.00e+00	0	25	0	1005584384	74	5454
2026-01-08 08:49:42.75	348.23	33.03	-54.9	-57.7	13.3	0.00e+00	0	25	0	1007681536	74	5453
2026-01-08 08:49:43.74	348.07	32.85	-54.8	-57.6	13.4	0.00e+00	0	25	0	1008730112	74	5342
2026-01-08 08:49:44.74	347.91	32.66	-54.6	-57.2	13.5	0.00e+00	0	25	0	1010827264	74	5157
2026-01-08 08:49:45.73	347.75	32.47	-54.3	-56.9	13.8	0.00e+00	0	25	0	1012924416	74	4939
2026-01-08 08:49:46.72	347.60	32.29	-54.2	-56.6	13.9	0.00e+00	0	25	0	1015021568	74	4796
2026-01-08 08:49:47.72	347.44	32.10	-54.0	-56.4	14.1	0.00e+00	0	25	0	1016070144	74	4662
2026-01-08 08:49:48.72	347.29	31.92	-54.0	-56.4	14.1	0.00e+00	0	25	0	1018167296	74	4654
2026-01-08 08:49:49.71	347.14	31.73	-53.9	-56.2	14.2	0.00e+00	0	25	0	1020264448	74	4594
2026-01-08 08:49:50.71	346.99	31.55	-54.0	-56.3	14.1	0.00e+00	0	25	0	1022361600	74	4625
2026-01-08 08:49:51.70	346.84	31.37	-54.0	-56.4	14.1	0.00e+00	0	25	0	1024458752	74	4668
2026-01-08 08:49:52.69	346.70	31.19	-54.0	-56.4	14.1	0.00e+00	0	25	0	1025507328	74	4662
2026-01-08 08:49:53.69	346.55	31.01	-54.0	-56.3	14.1	0.00e+00	0	25	0	1027604480	74	4637
2026-01-08 08:49:54.67	346.41	30.84	-54.0	-56.4	14.1	0.00e+00	0	25	0	1029701632	74	4656
2026-01-08 08:49:55.66	346.27	30.66	-54.2	-56.6	14.0	0.00e+00	0	25	0	1031798784	74	4769
2026-01-08 08:49:56.65	346.14	30.48	-54.2	-56.7	13.9	0.00e+00	0	25	0	1032847360	74	4824
2026-01-08 08:49:57.65	346.00	30.31	-54.3	-56.9	13.8	0.00e+00	0	25	0	1034944512	74	4941
2026-01-08 08:49:58.65	345.86	30.13	-54.5	-57.1	13.6	0.00e+00	0	25	0	1037041664	74	5075
2026-01-08 08:49:59.63	345.73	29.96	-54.6	-57.3	13.5	0.00e+00	0	25	0	1039138816	74	5203
2026-01-08 08:50:00.62	345.60	29.79	-54.6	-57.3	13.5	0.00e+00	0	25	0	1041235968	74	5200
2026-01-08 08:50:01.61	345.47	29.61	-54.5	-57.2	13.6	0.00e+00	0	25	0	1042284544	74	5121
2026-01-08 08:50:02.61	345.34	29.44	-54.5	-57.1	13.6	0.00e+00	0	25	0	1044381696	74	5083
2026-01-08 08:50:03.60	345.21	29.27	-54.4	-57.0	13.7	0.00e+00	0	25	0	1046478848	74	5035
2026-01-08 08:50:04.61	345.08	29.10	-54.2	-56.6	13.9	0.00e+00	0	25	0	1048576000	74	4798
2026-01-08 08:50:05.59	344.95	28.93	-53.8	-56.1	14.2	0.00e+00	0	25	0	1049624576	74	4542
2026-01-08 08:50:06.58	344.83	28.77	-53.8	-56.0	14.3	0.00e+00	0	25	0	1051721728	74	4493
2026-01-08 08:50:07.58	344.71	28.60	-53.7	-55.9	14.2	0.00e+00	0	25	0	1053818880	73	4690
2026-01-08 08:50:08.57	344.59	28.43	-53.7	-55.9	14.2	0.00e+00	0	25	0	1055916032	73	4686
2026-01-08 08:50:09.57	344.46	28.27	-53.8	-56.1	14.1	0.00e+00	0	25	0	1058013184	73	4770
2026-01-08 08:50:10.56	344.35	28.10	-53.6	-55.8	14.2	0.00e+00	0	25	0	1059061760	73	4631
2026-01-08 08:50:11.56	344.23	27.94	-53.5	-55.6	14.4	0.00e+00	0	25	0	1061158912	73	4538
2026-01-08 08:50:12.56	344.11	27.77	-53.4	-55.6	14.4	0.00e+00	0	25	0	1063256064	73	4527
2026-01-08 08:50:13.55	343.99	27.61	-53.4	-55.5	14.4	0.00e+00	0	25	0	1065353216	73	4469
2026-01-08 08:50:14.53	343.88	27.45	-53.3	-55.5	14.5	0.00e+00	0	25	0	1066401792	73	4446
2026-01-08 08:50:15.52	343.77	27.29	-53.3	-55.4	14.5	0.00e+00	0	25	0	1068498944	73	4401
2026-01-08 08:50:16.52	343.66	27.13	-53.2	-55.2	14.4	0.00e+00	0	25	0	1070596096	72	4595
2026-01-08 08:50:17.52	343.54	26.97	-53.1	-55.2	14.4	0.00e+00	0	25	0	1072693248	72	4569
2026-01-08 08:50:18.51	343.44	26.82	-53.1	-55.1	14.5	0.00e+00	0	25	0	1074790400	72	4538
2026-01-08 08:50:19.50	343.33	26.66	-53.1	-55.1	14.5	0.00e+00	0	25	0	1075838976	72	4528
2026-01-08 08:50:20.49	343.22	26.50	-53.1	-55.1	14.5	0.00e+00	0	25	0	1077936128	72	4524
2026-01-08 08:50:21.49	343.11	26.35	-53.1	-55.1	14.5	0.00e+00	0	25	0	1080033280	72	4536
2026-01-08 08:50:22.48	343.01	26.19	-53.1	-55.2	14.5	0.00e+00	0	25	0	1082130432	72	4548
2026-01-08 08:50:23.47	342.90	26.04	-53.1	-55.2	14.4	0.00e+00	0	25	0	1083179008	72	4569
2026-01-08 08:50:24.48	342.80	25.88	-53.0	-55.0	14.5	0.00e+00	0	25	0	1085276160	72	4468
2026-01-08 08:50:25.47	342.70	25.73	-52.9	-54.9	14.6	0.00e+00	0	25	0	1087373312	72	4412
2026-01-08 08:50:26.46	342.60	25.58	-52.9	-54.9	14.6	0.00e+00	0	25	0	1089470464	72	4408
2026-01-08 08:50:27.46	342.50	25.43	-52.8	-54.7	14.7	0.00e+00	0	25	0	1091567616	72	4330
2026-01-08 08:50:28.46	342.40	25.28	-52.8	-54.8	14.7	0.00e+00	0	25	0	1092616192	72	4368
2026-01-08 08:50:29.45	342.30	25.13	-52.8	-54.8	14.6	0.00e+00	0	25	0	1094713344	72	4371
2026-01-08 08:50:30.43	342.20	24.98	-52.7	-54.7	14.7	0.00e+00	0	25	0	1096810496	72	4300
2026-01-08 08:50:31.42	342.11	24.83	-52.8	-54.8	14.7	0.00e+00	0	25	0	1098907648	72	4351
2026-01-08 08:50:32.42	342.01	24.69	-52.8	-54.8	14.6	0.00e+00	0	25	0	1099956224	72	4370
2026-01-08 08:50:33.41	341.92	24.54	-52.8	-54.8	14.6	0.00e+00	0	25	0	1102053376	72	4380
2026-01-08 08:50:34.41	341.82	24.39	-52.8	-54.8	14.6	0.00e+00	0	25	0	1104150528	72	4367
2026-01-08 08:50:35.40	341.73	24.25	-52.9	-55.0	14.6	0.00e+00	0	25	0	1106247680	72	4444
2026-01-08 08:50:36.40	341.64	24.10	-53.0	-55.0	14.5	0.00e+00	0	25	0	1108344832	72	4492
2026-01-08 08:50:37.41	341.55	23.96	-53.0	-55.1	14.5	0.00e+00	0	25	0	1109393408	72	4495
2026-01-08 08:50:38.41	341.45	23.81	-53.2	-55.3	14.4	0.00e+00	0	25	0	1111490560	72	4616
2026-01-08 08:50:39.40	341.37	23.67	-53.1	-55.2	14.4	0.00e+00	0	25	0	1113587712	72	4588
2026-01-08 08:50:40.40	341.28	23.53	-53.2	-55.3	14.3	0.00e+00	0	25	0	1115684864	72	4632
2026-01-08 08:50:41.40	341.19	23.39	-53.2	-55.3	14.3	0.00e+00	0	25	0	1116733440	72	4628
2026-01-08 08:50:42.39	341.10	23.25	-53.1	-55.2	14.4	0.00e+00	0	25	0	1118830592	72	4594
2026-01-08 08:50:43.38	341.02	23.11	-53.1	-55.2	14.4	0.00e+00	0	25	0	1120927744	72	4561
2026-01-08 08:50:44.37	340.93	22.97	-53.1	-55.3	14.4	0.00e+00	0	25	0	1123024896	72	4613
2026-01-08 08:50:45.37	340.85	22.83	-53.0	-55.0	14.5	0.00e+00	0	25	0	1125122048	72	4490
2026-01-08 08:50:46.37	340.76	22.70	-52.9	-54.9	14.6	0.00e+00	0	25	0	1126170624	72	4423
2026-01-08 08:50:47.35	340.68	22.56	-52.8	-54.8	14.6	0.00e+00	0	25	0	1128267776	72	4364
2026-01-08 08:50:48.35	340.60	22.42	-52.6	-54.6	14.6	0.00e+00	0	25	0	1130364928	71	4498
2026-01-08 08:50:49.34	340.52	22.29	-52.7	-54.7	14.6	0.00e+00	0	25	0	1132462080	71	4554
2026-01-08 08:50:50.33	340.44	22.15	-52.6	-54.6	14.6	0.00e+00	0	25	0	1133510656	71	4494
2026-01-08 08:50:51.32	340.36	22.02	-52.5	-54.5	14.7	0.00e+00	0	25	0	1135607808	71	4452
2026-01-08 08:50:52.32	340.28	21.89	-52.5	-54.4	14.7	0.00e+00	0	24	0	1137704960	71	4416
2026-01-08 08:50:53.32	340.20	21.75	-52.5	-54.4	14.7	0.00e+00	0	25	0	1139802112	71	4408
2026-01-08 08:50:54.31	340.12	21.62	-52.6	-54.5	14.6	0.00e+00	0	25	0	1141899264	71	4491
2026-01-08 08:50:55.30	340.05	21.49	-52.6	-54.5	14.6	0.00e+00	0	25	0	1142947840	71	4478
2026-01-08 08:50:56.29	339.97	21.36	-52.6	-54.6	14.6	0.00e+00	0	25	0	1145044992	71	4534
2026-01-08 08:50:57.28	339.89	21.23	-52.5	-54.5	14.7	0.00e+00	0	25	0	1147142144	71	4445
2026-01-08 08:50:58.28	339.82	21.10	-52.6	-54.5	14.6	0.00e+00	0	25	0	1149239296	71	4485
2026-01-08 08:50:59.28	339.74	20.97	-52.5	-54.4	14.7	0.00e+00	0	25	0	1150287872	71	4417
2026-01-08 08:51:00.54	339.65	20.81	-52.6	-54.5	14.6	0.00e+00	0	25	0	1152385024	71	4471
2026-01-08 08:51:01.29	339.60	20.71	-52.4	-54.3	14.7	0.00e+00	0	25	0	1154482176	71	4365
2026-01-08 08:51:02.58	339.50	20.54	-52.6	-54.5	14.6	0.00e+00	0	25	0	1156579328	71	4491
2026-01-08 08:51:03.32	339.45	20.45	-52.5	-54.4	14.7	0.00e+00	0	25	0	1157627904	71	4437
2026-01-08 08:51:04.59	339.36	20.29	-52.4	-54.3	14.7	0.00e+00	0	25	0	1159725056	71	4374
2026-01-08 08:51:05.34	339.30	20.19	-52.3	-54.2	14.8	0.00e+00	0	25	0	1161822208	71	4328
2026-01-08 08:51:06.61	339.22	20.04	-52.3	-54.2	14.8	0.00e+00	0	25	0	1163919360	71	4322
2026-01-08 08:51:07.34	339.16	19.94	-52.3	-54.2	14.8	0.00e+00	0	25	0	1164967936	71	4303
2026-01-08 08:51:08.62	339.08	19.78	-52.3	-54.2	14.8	0.00e+00	0	25	0	1168113664	71	4337
2026-01-08 08:51:09.33	339.03	19.70	-52.3	-54.2	14.8	0.00e+00	0	25	0	1169162240	71	4319
2026-01-08 08:51:10.69	338.94	19.53	-52.3	-54.2	14.7	0.00e+00	0	25	0	1171259392	71	4338
2026-01-08 08:51:11.40	338.89	19.44	-52.3	-54.2	14.8	0.00e+00	0	25	0	1173356544	71	4323
2026-01-08 08:51:12.69	338.80	19.28	-52.3	-54.2	14.8	0.00e+00	0	25	0	1175453696	71	4298
2026-01-08 08:51:13.41	338.75	19.20	-52.2	-54.1	14.8	0.00e+00	0	25	0	1176502272	71	4278
2026-01-08 08:51:14.70	338.67	19.04	-52.2	-54.0	14.7	0.00e+00	0	25	0	1178599424	70	4481
2026-01-08 08:51:15.41	338.62	18.96	-52.1	-54.0	14.7	0.00e+00	0	25	0	1180696576	70	4465
2026-01-08 08:51:16.71	338.54	18.80	-52.1	-54.0	14.7	0.00e+00	0	25	0	1182793728	70	4463
2026-01-08 08:51:17.42	338.49	18.71	-52.1	-53.9	14.8	0.00e+00	0	25	0	1183842304	70	4416
2026-01-08 08:51:18.71	338.41	18.56	-52.1	-54.0	14.7	0.00e+00	0	25	0	1186988032	70	4476
2026-01-08 08:51:19.44	338.37	18.47	-52.0	-53.8	14.8	0.00e+00	0	25	0	1188036608	70	4358
2026-01-08 08:51:20.72	338.29	18.32	-52.0	-53.9	14.7	0.00e+00	0	25	0	1190133760	70	4398
2026-01-08 08:51:21.45	338.24	18.24	-52.0	-53.8	14.7	0.00e+00	0	25	0	1192230912	70	4388
2026-01-08 08:51:22.72	338.16	18.09	-51.9	-53.7	14.8	0.00e+00	0	25	0	1194328064	70	4339
2026-01-08 08:51:23.46	338.12	18.00	-51.9	-53.7	14.8	0.00e+00	0	25	0	1195376640	70	4313
2026-01-08 08:51:24.73	338.04	17.86	-52.0	-53.8	14.8	0.00e+00	0	25	0	1197473792	70	4373
2026-01-08 08:51:25.47	338.00	17.77	-51.9	-53.7	14.9	0.00e+00	0	25	0	1199570944	70	4301
2026-01-08 08:51:26.74	337.92	17.63	-52.0	-53.9	14.8	0.00e+00	0	25	0	1201668096	70	4404
2026-01-08 08:51:27.46	337.88	17.54	-52.0	-53.9	14.8	0.00e+00	0	25	0	1202716672	70	4392
2026-01-08 08:51:28.74	337.80	17.40	-52.1	-53.9	14.8	0.00e+00	0	25	0	1205862400	70	4422
2026-01-08 08:51:29.48	337.76	17.31	-52.1	-54.0	14.7	0.00e+00	0	25	0	1206910976	70	4485
2026-01-08 08:51:30.75	337.69	17.17	-52.2	-54.0	14.7	0.00e+00	0	25	0	1209008128	70	4493
2026-01-08 08:51:31.51	337.65	17.09	-52.1	-54.0	14.7	0.00e+00	0	25	0	1211105280	70	4482
2026-01-08 08:51:32.79	337.57	16.94	-52.3	-54.2	14.6	0.00e+00	0	25	0	1213202432	70	4566
2026-01-08 08:51:33.56	337.53	16.86	-52.3	-54.3	14.5	0.00e+00	0	25	0	1214251008	70	4616
2026-01-08 08:51:34.84	337.46	16.72	-52.4	-54.4	14.5	0.00e+00	0	25	0	1217396736	70	4670
2026-01-08 08:51:35.58	337.42	16.63	-52.4	-54.4	14.5	0.00e+00	0	25	0	1218445312	70	4666
2026-01-08 08:51:36.86	337.35	16.49	-52.4	-54.4	14.4	0.00e+00	0	25	0	1220542464	70	4690
2026-01-08 08:51:37.60	337.31	16.41	-52.5	-54.5	14.4	0.00e+00	0	25	0	1221591040	70	4756
2026-01-08 08:51:38.88	337.24	16.27	-52.5	-54.5	14.4	0.00e+00	0	25	0	1224736768	70	4740
2026-01-08 08:51:39.62	337.20	16.19	-52.6	-54.6	14.4	0.00e+00	0	25	0	1225785344	70	4779
2026-01-08 08:51:40.90	337.13	16.06	-52.6	-54.7	14.3	0.00e+00	0	25	0	1227882496	70	4818
2026-01-08 08:51:41.64	337.09	15.98	-52.5	-54.6	14.4	0.00e+00	0	25	0	1229979648	70	4769
2026-01-08 08:51:42.92	337.03	15.84	-52.7	-54.7	14.3	0.00e+00	0	25	0	1232076800	70	4865
2026-01-08 08:51:43.64	336.99	15.76	-52.6	-54.6	14.3	0.00e+00	0	25	0	1233125376	70	4809
