passes_logs/2026/01/08/R3.2S_Murmansk/R3.2S_Murmansk__20260108_000216_SUOMI_NPP_rec.log

#Pass ID: 20260108_000216_SUOMI NPP
#Satellite: SUOMI NPP
#Configuration: NPP
#almurnet v.1.7.20251203
#Start time: 2026-01-08 00:02:16

#Version: 2.2.20231116
#Station: R3.2S_Murmansk
#Location: 33.079688 lon 68.888172 lat
#TLE: 1 37849U 11061A   26005.94084933  .00000134  00000+0  84554-4 0  9990
#TLE: 2 37849  98.7803 308.0679 0002567  79.1029 281.0436 14.19522657735426

#Time	Az	El	Level	Level2	SNR	BER	BlckErr	Temp	State	Recorded	gain1	gain2
2026-01-08 00:02:16.86	22.16	2.04	-57.5	-73.2	3.8	1.49e+00	0	23	0	0	81	21700
2026-01-08 00:02:17.86	22.18	2.10	-57.4	-72.8	3.8	1.49e+00	0	23	104	0	79	23274
2026-01-08 00:02:18.87	22.21	2.16	-57.5	-72.7	3.8	1.49e+00	0	23	104	0	80	21605
2026-01-08 00:02:19.87	22.23	2.23	-57.5	-72.5	3.8	1.49e+00	0	23	104	0	80	21236
2026-01-08 00:02:20.87	22.26	2.29	-57.5	-72.7	3.8	1.49e+00	0	23	104	0	80	21570
2026-01-08 00:02:21.87	22.28	2.35	-57.5	-72.7	3.8	1.49e+00	0	23	104	0	80	21677
2026-01-08 00:02:22.87	22.30	2.42	-57.5	-72.8	3.8	1.49e+00	0	23	104	0	80	21925
2026-01-08 00:02:23.87	22.33	2.48	-57.5	-72.8	3.8	1.49e+00	0	23	104	0	80	21956
2026-01-08 00:02:24.87	22.35	2.55	-57.6	-72.9	3.8	1.49e+00	0	23	104	0	80	22148
2026-01-08 00:02:25.86	22.38	2.61	-57.6	-73.0	3.8	1.49e+00	0	23	104	0	80	22352
2026-01-08 00:02:26.86	22.40	2.67	-57.6	-72.9	3.8	1.49e+00	0	23	104	0	80	22049
2026-01-08 00:02:27.85	22.43	2.74	-57.6	-72.7	3.8	1.49e+00	0	23	104	0	80	21542
2026-01-08 00:02:28.85	22.45	2.80	-57.6	-72.5	3.8	1.49e+00	0	23	104	0	80	21163
2026-01-08 00:02:29.85	22.47	2.87	-57.5	-72.0	3.8	1.49e+00	0	23	104	0	80	19881
2026-01-08 00:02:30.84	22.50	2.93	-57.5	-71.5	3.8	1.49e+00	0	23	104	0	80	18929
2026-01-08 00:02:31.84	22.52	3.00	-57.5	-71.3	4.0	1.49e+00	0	23	104	0	80	18491
2026-01-08 00:02:32.84	22.55	3.06	-57.5	-71.1	3.9	1.49e+00	0	23	104	0	80	17967
2026-01-08 00:02:33.84	22.57	3.13	-57.5	-70.6	4.1	1.45e+00	0	23	0	0	80	16945
2026-01-08 00:02:34.84	22.60	3.19	-57.4	-70.1	4.2	1.42e+00	0	23	0	0	80	16126
2026-01-08 00:02:35.84	22.62	3.26	-57.5	-70.4	4.1	1.43e+00	0	23	0	0	80	16643
2026-01-08 00:02:36.83	22.65	3.32	-57.5	-70.3	4.1	1.42e+00	0	23	0	0	80	16471
2026-01-08 00:02:37.83	22.68	3.39	-57.5	-70.5	4.1	1.43e+00	0	23	0	0	80	16830
2026-01-08 00:02:38.83	22.70	3.45	-57.5	-70.7	4.1	1.48e+00	0	23	0	0	80	17203
2026-01-08 00:02:39.84	22.73	3.52	-57.5	-70.5	4.1	1.47e+00	0	24	104	0	80	16798
2026-01-08 00:02:40.83	22.75	3.59	-57.4	-69.9	4.2	1.34e+00	0	24	0	0	80	15707
2026-01-08 00:02:41.83	22.78	3.65	-57.4	-69.1	4.5	1.35e+00	9	24	0	0	80	14323
2026-01-08 00:02:42.83	22.80	3.72	-57.3	-68.4	4.8	8.42e-01	0	24	0	2097152	80	13151
2026-01-08 00:02:43.84	22.83	3.79	-57.3	-67.5	5.2	5.81e-01	0	24	0	4194304	80	11948
2026-01-08 00:02:44.83	22.86	3.85	-57.1	-66.2	6.0	4.02e-01	0	23	0	6291456	80	10278
2026-01-08 00:02:45.83	22.88	3.92	-56.9	-65.1	6.9	1.98e-01	0	24	0	7340032	80	8973
2026-01-08 00:02:46.83	22.91	3.99	-56.6	-63.6	8.1	5.71e-02	0	24	0	9437184	79	8026
2026-01-08 00:02:47.83	22.93	4.06	-56.5	-63.2	8.5	2.92e-02	0	24	0	11534336	79	7666
2026-01-08 00:02:48.82	22.96	4.12	-56.3	-62.5	9.2	1.07e-02	0	24	0	13631488	79	7046
2026-01-08 00:02:49.82	22.99	4.19	-56.2	-62.2	9.4	6.54e-03	0	24	0	15728640	79	6834
2026-01-08 00:02:50.82	23.01	4.26	-56.1	-61.7	9.8	4.86e-03	0	24	0	16777216	78	6811
2026-01-08 00:02:51.81	23.04	4.33	-56.1	-61.8	9.7	3.48e-03	0	24	0	18874368	78	6901
2026-01-08 00:02:52.80	23.07	4.39	-56.0	-61.6	9.9	3.33e-03	0	24	0	20971520	78	6749
2026-01-08 00:02:53.80	23.09	4.46	-56.1	-61.7	9.8	1.79e-03	0	24	0	23068672	78	6818
2026-01-08 00:02:54.80	23.12	4.53	-56.0	-61.5	9.9	2.03e-03	0	24	0	24117248	78	6712
2026-01-08 00:02:55.80	23.15	4.60	-56.2	-62.0	9.5	4.50e-03	0	24	0	26214400	78	7095
2026-01-08 00:02:56.80	23.18	4.67	-56.2	-62.0	9.5	4.18e-03	0	24	0	28311552	78	7074
2026-01-08 00:02:57.80	23.20	4.74	-56.4	-62.7	8.8	1.15e-02	0	24	0	30408704	78	7718
2026-01-08 00:02:58.79	23.23	4.81	-56.5	-63.2	8.4	1.94e-02	0	24	0	32505856	78	8105
2026-01-08 00:02:59.79	23.26	4.88	-56.7	-64.0	7.7	3.31e-02	0	24	0	33554432	78	8876
2026-01-08 00:03:00.78	23.29	4.95	-56.7	-64.3	7.5	5.99e-02	0	24	0	35651584	78	9200
2026-01-08 00:03:01.77	23.31	5.01	-56.8	-64.7	7.2	8.10e-02	0	24	0	37748736	78	9614
2026-01-08 00:03:02.77	23.34	5.08	-55.1	-59.0	11.9	7.37e-02	0	24	0	39845888	76	5654
2026-01-08 00:03:03.77	23.37	5.16	-55.7	-60.5	10.7	8.46e-05	0	24	0	40894464	76	6696
2026-01-08 00:03:04.78	23.40	5.23	-57.2	-67.8	5.1	6.60e-02	0	24	0	42991616	79	13033
2026-01-08 00:03:05.77	23.43	5.30	-55.1	-59.1	11.7	5.52e-01	0	24	0	45088768	76	5666
2026-01-08 00:03:06.77	23.45	5.37	-57.6	-69.5	4.6	0.00e+00	9	24	0	47185920	80	15010
2026-01-08 00:03:07.77	23.48	5.44	-54.5	-58.0	12.5	2.03e-01	0	24	0	47185920	75	5320
2026-01-08 00:03:08.77	23.51	5.51	-54.1	-57.3	12.9	0.00e+00	0	24	0	49283072	74	5160
2026-01-08 00:03:09.77	23.54	5.58	-54.0	-57.1	13.0	0.00e+00	0	24	0	51380224	74	5097
2026-01-08 00:03:10.77	23.57	5.65	-53.9	-56.9	13.2	0.00e+00	0	24	0	52428800	74	4964
2026-01-08 00:03:11.77	23.60	5.72	-53.8	-56.8	13.2	0.00e+00	0	24	0	54525952	74	4914
2026-01-08 00:03:12.77	23.63	5.80	-53.9	-57.0	13.1	0.00e+00	0	24	0	56623104	74	5000
2026-01-08 00:03:13.77	23.66	5.87	-53.7	-56.6	13.4	0.00e+00	0	24	0	58720256	74	4771
2026-01-08 00:03:14.77	23.69	5.94	-53.5	-56.3	13.5	0.00e+00	0	24	0	60817408	73	4880
2026-01-08 00:03:15.78	23.72	6.01	-53.5	-56.2	13.5	0.00e+00	0	24	0	61865984	73	4852
2026-01-08 00:03:16.78	23.75	6.09	-53.7	-56.6	13.3	0.00e+00	0	24	0	63963136	73	5071
2026-01-08 00:03:17.78	23.77	6.16	-53.6	-56.3	13.5	0.00e+00	0	24	0	66060288	73	4924
2026-01-08 00:03:18.78	23.80	6.23	-53.5	-56.3	13.5	0.00e+00	0	24	0	68157440	73	4891
2026-01-08 00:03:19.78	23.83	6.31	-53.4	-56.1	13.6	0.00e+00	0	24	0	69206016	73	4805
2026-01-08 00:03:20.78	23.86	6.38	-53.5	-56.2	13.5	0.00e+00	0	24	0	71303168	73	4839
2026-01-08 00:03:21.78	23.90	6.45	-53.4	-56.1	13.6	0.00e+00	0	24	0	73400320	73	4792
2026-01-08 00:03:22.78	23.93	6.53	-53.4	-56.0	13.7	0.00e+00	0	24	0	75497472	73	4753
2026-01-08 00:03:23.78	23.96	6.60	-53.4	-56.0	13.7	0.00e+00	0	24	0	77594624	73	4732
2026-01-08 00:03:24.77	23.99	6.67	-53.4	-56.0	13.7	0.00e+00	0	24	0	78643200	73	4753
2026-01-08 00:03:25.77	24.02	6.75	-53.3	-55.8	13.8	0.00e+00	0	24	0	80740352	73	4630
2026-01-08 00:03:26.78	24.05	6.82	-53.2	-55.7	13.7	0.00e+00	0	24	0	82837504	72	4860
2026-01-08 00:03:27.78	24.08	6.90	-53.2	-55.8	13.7	0.00e+00	0	24	0	84934656	72	4895
2026-01-08 00:03:28.77	24.11	6.97	-53.3	-55.9	13.6	0.00e+00	0	24	0	87031808	72	4947
2026-01-08 00:03:29.77	24.14	7.05	-53.1	-55.5	13.9	0.00e+00	0	24	0	88080384	72	4742
2026-01-08 00:03:30.77	24.17	7.12	-53.1	-55.6	13.9	0.00e+00	0	24	0	90177536	72	4768
2026-01-08 00:03:31.77	24.20	7.20	-53.1	-55.6	13.8	0.00e+00	0	24	0	92274688	72	4796
2026-01-08 00:03:32.77	24.24	7.28	-53.1	-55.6	13.8	0.00e+00	0	24	0	94371840	72	4767
2026-01-08 00:03:33.77	24.27	7.35	-52.9	-55.3	14.0	0.00e+00	0	24	0	96468992	72	4643
2026-01-08 00:03:34.77	24.30	7.43	-52.9	-55.3	14.0	0.00e+00	0	25	0	97517568	72	4638
2026-01-08 00:03:35.77	24.33	7.51	-52.8	-55.2	14.1	0.00e+00	0	24	0	99614720	72	4547
2026-01-08 00:03:36.77	24.36	7.58	-52.7	-55.0	14.2	0.00e+00	0	24	0	101711872	72	4467
2026-01-08 00:03:37.76	24.40	7.66	-52.8	-55.1	14.2	0.00e+00	0	24	0	103809024	72	4519
2026-01-08 00:03:38.77	24.43	7.74	-52.9	-55.3	14.1	0.00e+00	0	24	0	104857600	72	4610
2026-01-08 00:03:39.77	24.46	7.82	-52.7	-55.0	14.2	0.00e+00	0	24	0	106954752	72	4466
2026-01-08 00:03:40.76	24.50	7.89	-52.7	-54.9	14.1	0.00e+00	0	24	0	109051904	71	4699
2026-01-08 00:03:41.76	24.53	7.97	-52.6	-54.8	14.2	0.00e+00	0	25	0	111149056	71	4644
2026-01-08 00:03:42.76	24.56	8.05	-52.6	-54.8	14.2	0.00e+00	0	24	0	113246208	71	4650
2026-01-08 00:03:43.76	24.59	8.13	-52.6	-54.8	14.2	0.00e+00	0	24	0	114294784	71	4623
2026-01-08 00:03:44.75	24.63	8.21	-52.6	-54.9	14.1	0.00e+00	0	24	0	116391936	71	4685
2026-01-08 00:03:45.75	24.66	8.28	-52.6	-54.9	14.1	0.00e+00	0	25	0	118489088	71	4668
2026-01-08 00:03:46.74	24.70	8.36	-52.7	-55.0	14.1	0.00e+00	0	24	0	120586240	71	4743
2026-01-08 00:03:47.74	24.73	8.44	-52.7	-54.9	14.1	0.00e+00	0	24	0	121634816	71	4704
2026-01-08 00:03:48.74	24.76	8.52	-52.5	-54.8	14.2	0.00e+00	0	24	0	123731968	71	4599
2026-01-08 00:03:49.73	24.80	8.60	-52.5	-54.7	14.3	0.00e+00	0	24	0	125829120	71	4572
2026-01-08 00:03:50.73	24.83	8.68	-52.5	-54.6	14.3	0.00e+00	0	24	0	127926272	71	4539
2026-01-08 00:03:51.73	24.87	8.76	-52.5	-54.6	14.3	0.00e+00	0	24	0	130023424	71	4533
2026-01-08 00:03:52.71	24.90	8.84	-52.5	-54.6	14.3	0.00e+00	0	24	0	131072000	71	4532
2026-01-08 00:03:53.71	24.94	8.92	-52.4	-54.5	14.4	0.00e+00	0	24	0	133169152	71	4465
2026-01-08 00:03:54.71	24.97	9.00	-52.5	-54.6	14.3	0.00e+00	0	24	0	135266304	71	4517
2026-01-08 00:03:55.70	25.01	9.09	-52.3	-54.4	14.5	0.00e+00	0	24	0	137363456	71	4402
2026-01-08 00:03:56.70	25.04	9.17	-52.2	-54.3	14.3	0.00e+00	0	24	0	138412032	70	4643
2026-01-08 00:03:57.69	25.08	9.25	-52.3	-54.4	14.3	0.00e+00	0	24	0	140509184	70	4654
2026-01-08 00:03:58.69	25.11	9.33	-52.3	-54.4	14.3	0.00e+00	0	24	0	142606336	70	4671
2026-01-08 00:03:59.69	25.15	9.41	-52.3	-54.4	14.3	0.00e+00	0	24	0	144703488	70	4701
2026-01-08 00:04:00.69	25.18	9.50	-52.4	-54.6	14.2	0.00e+00	0	24	0	146800640	70	4785
2026-01-08 00:04:01.69	25.22	9.58	-52.4	-54.5	14.3	0.00e+00	0	24	0	147849216	70	4721
2026-01-08 00:04:02.69	25.26	9.66	-52.3	-54.4	14.3	0.00e+00	0	24	0	149946368	70	4685
2026-01-08 00:04:03.68	25.29	9.75	-52.3	-54.4	14.3	0.00e+00	0	25	0	152043520	70	4658
2026-01-08 00:04:04.68	25.33	9.83	-52.1	-54.1	14.5	0.00e+00	0	25	0	154140672	70	4516
2026-01-08 00:04:05.67	25.37	9.91	-52.1	-54.1	14.5	0.00e+00	0	24	0	156237824	70	4495
2026-01-08 00:04:06.66	25.40	10.00	-52.0	-54.0	14.5	0.00e+00	0	25	0	157286400	70	4485
2026-01-08 00:04:07.66	25.44	10.08	-52.1	-54.1	14.5	0.00e+00	0	25	0	159383552	70	4516
2026-01-08 00:04:08.66	25.48	10.17	-52.0	-54.0	14.5	0.00e+00	0	24	0	161480704	70	4475
2026-01-08 00:04:09.64	25.52	10.25	-52.0	-54.0	14.5	0.00e+00	0	25	0	163577856	70	4463
2026-01-08 00:04:10.64	25.55	10.34	-52.0	-54.0	14.5	0.00e+00	0	25	0	164626432	70	4448
2026-01-08 00:04:11.64	25.59	10.42	-51.9	-53.9	14.6	0.00e+00	0	25	0	166723584	70	4413
2026-01-08 00:04:12.63	25.63	10.51	-52.0	-54.0	14.5	0.00e+00	0	25	0	168820736	70	4467
2026-01-08 00:04:13.63	25.67	10.59	-51.9	-53.9	14.6	0.00e+00	0	25	0	170917888	70	4396
2026-01-08 00:04:14.63	25.71	10.68	-51.9	-53.8	14.6	0.00e+00	0	24	0	173015040	70	4389
2026-01-08 00:04:15.63	25.75	10.77	-51.8	-53.8	14.7	0.00e+00	0	25	0	174063616	70	4354
2026-01-08 00:04:16.63	25.79	10.85	-51.9	-53.8	14.6	0.00e+00	0	25	0	176160768	70	4377
2026-01-08 00:04:17.63	25.83	10.94	-51.9	-53.8	14.6	0.00e+00	0	25	0	178257920	70	4365
2026-01-08 00:04:18.63	25.87	11.03	-51.7	-53.6	14.7	0.00e+00	0	25	0	180355072	70	4258
2026-01-08 00:04:19.63	25.91	11.12	-51.9	-53.8	14.6	0.00e+00	0	24	0	182452224	70	4353
2026-01-08 00:04:20.63	25.95	11.21	-51.8	-53.7	14.7	0.00e+00	0	24	0	183500800	70	4309
2026-01-08 00:04:21.63	25.99	11.30	-51.9	-53.8	14.6	0.00e+00	0	24	0	185597952	70	4370
2026-01-08 00:04:22.62	26.03	11.38	-51.8	-53.7	14.5	0.00e+00	0	25	0	187695104	69	4551
2026-01-08 00:04:23.62	26.07	11.47	-51.6	-53.4	14.7	0.00e+00	0	25	0	189792256	69	4437
2026-01-08 00:04:24.62	26.11	11.56	-51.5	-53.3	14.7	0.00e+00	0	25	0	190840832	69	4383
2026-01-08 00:04:25.62	26.15	11.65	-51.6	-53.4	14.7	0.00e+00	0	25	0	192937984	69	4414
2026-01-08 00:04:26.62	26.19	11.75	-51.3	-53.1	14.8	0.00e+00	0	25	0	195035136	69	4280
2026-01-08 00:04:27.61	26.23	11.84	-51.5	-53.4	14.7	0.00e+00	0	25	0	197132288	69	4397
2026-01-08 00:04:28.61	26.27	11.93	-51.5	-53.3	14.7	0.00e+00	0	25	0	199229440	69	4365
2026-01-08 00:04:29.61	26.32	12.02	-51.6	-53.4	14.7	0.00e+00	0	25	0	200278016	69	4416
2026-01-08 00:04:30.61	26.36	12.11	-51.5	-53.3	14.8	0.00e+00	0	25	0	202375168	69	4363
2026-01-08 00:04:31.60	26.40	12.20	-51.4	-53.2	14.8	0.00e+00	0	25	0	204472320	69	4317
2026-01-08 00:04:32.60	26.44	12.29	-51.5	-53.4	14.7	0.00e+00	0	25	0	206569472	69	4397
2026-01-08 00:04:33.60	26.49	12.39	-51.5	-53.3	14.8	0.00e+00	0	25	0	207618048	69	4387
2026-01-08 00:04:34.60	26.53	12.48	-51.6	-53.4	14.7	0.00e+00	0	25	0	209715200	69	4419
2026-01-08 00:04:35.61	26.57	12.57	-51.5	-53.4	14.7	0.00e+00	0	25	0	211812352	69	4395
2026-01-08 00:04:36.60	26.62	12.67	-51.6	-53.4	14.7	0.00e+00	0	25	0	213909504	69	4422
2026-01-08 00:04:37.60	26.66	12.76	-51.5	-53.3	14.7	0.00e+00	0	25	0	216006656	69	4385
2026-01-08 00:04:38.59	26.71	12.85	-51.5	-53.3	14.8	0.00e+00	0	25	0	217055232	69	4373
2026-01-08 00:04:39.58	26.75	12.95	-51.6	-53.5	14.7	0.00e+00	0	25	0	219152384	69	4456
2026-01-08 00:04:40.58	26.79	13.04	-51.6	-53.4	14.7	0.00e+00	0	25	0	221249536	69	4435
2026-01-08 00:04:41.58	26.84	13.14	-51.6	-53.4	14.7	0.00e+00	0	25	0	223346688	69	4412
2026-01-08 00:04:42.59	26.89	13.24	-51.5	-53.3	14.8	0.00e+00	0	24	0	225443840	69	4345
2026-01-08 00:04:43.59	26.93	13.33	-51.3	-53.1	14.8	0.00e+00	0	25	0	226492416	69	4273
2026-01-08 00:04:44.59	26.98	13.43	-51.4	-53.2	14.8	0.00e+00	0	25	0	228589568	69	4312
2026-01-08 00:04:45.60	27.02	13.53	-51.4	-53.2	14.8	0.00e+00	0	25	0	230686720	69	4306
2026-01-08 00:04:46.59	27.07	13.62	-51.3	-53.1	14.9	0.00e+00	0	25	0	232783872	69	4243
2026-01-08 00:04:47.59	27.12	13.72	-51.5	-53.3	14.8	0.00e+00	0	25	0	233832448	69	4364
2026-01-08 00:04:48.59	27.16	13.82	-51.3	-53.0	14.9	0.00e+00	0	25	0	235929600	69	4224
2026-01-08 00:04:49.60	27.21	13.92	-51.3	-53.0	14.9	0.00e+00	0	25	0	238026752	69	4230
2026-01-08 00:04:50.59	27.26	14.02	-51.3	-53.0	14.9	0.00e+00	0	25	0	240123904	69	4229
2026-01-08 00:04:51.58	27.31	14.12	-51.3	-53.1	14.9	0.00e+00	0	25	0	242221056	69	4258
2026-01-08 00:04:52.58	27.35	14.22	-51.3	-53.0	14.9	0.00e+00	0	25	0	243269632	69	4229
2026-01-08 00:04:53.58	27.40	14.32	-51.4	-53.2	14.8	0.00e+00	0	25	0	245366784	69	4319
2026-01-08 00:04:54.58	27.45	14.42	-51.4	-53.1	14.9	0.00e+00	0	25	0	247463936	69	4284
2026-01-08 00:04:55.57	27.50	14.52	-51.4	-53.2	14.8	0.00e+00	0	25	0	249561088	69	4307
2026-01-08 00:04:56.57	27.55	14.62	-51.4	-53.2	14.8	0.00e+00	0	24	0	251658240	69	4321
2026-01-08 00:04:57.56	27.60	14.72	-51.4	-53.2	14.8	0.00e+00	0	25	0	252706816	69	4314
2026-01-08 00:04:58.56	27.65	14.82	-51.6	-53.4	14.7	0.00e+00	0	25	0	254803968	69	4396
2026-01-08 00:04:59.55	27.70	14.92	-51.6	-53.4	14.7	0.00e+00	0	25	0	256901120	69	4404
2026-01-08 00:05:00.55	27.75	15.03	-51.5	-53.3	14.8	0.00e+00	0	25	0	258998272	69	4371
2026-01-08 00:05:01.55	27.80	15.13	-51.7	-53.6	14.6	0.00e+00	0	25	0	260046848	69	4499
2026-01-08 00:05:02.55	27.85	15.23	-51.7	-53.5	14.6	0.00e+00	0	25	0	262144000	69	4473
2026-01-08 00:05:03.54	27.90	15.34	-51.6	-53.4	14.7	0.00e+00	0	25	0	264241152	69	4425
2026-01-08 00:05:04.54	27.95	15.44	-51.7	-53.5	14.7	0.00e+00	0	25	0	266338304	69	4463
2026-01-08 00:05:05.53	28.00	15.55	-51.7	-53.6	14.6	0.00e+00	0	25	0	268435456	69	4519
2026-01-08 00:05:06.52	28.06	15.65	-51.8	-53.6	14.6	0.00e+00	0	25	0	269484032	69	4523
2026-01-08 00:05:07.52	28.11	15.76	-51.7	-53.5	14.7	0.00e+00	0	25	0	271581184	69	4475
2026-01-08 00:05:08.52	28.16	15.86	-51.8	-53.6	14.6	0.00e+00	0	25	0	273678336	69	4531
2026-01-08 00:05:09.51	28.22	15.97	-51.8	-53.6	14.6	0.00e+00	0	25	0	275775488	69	4517
2026-01-08 00:05:10.51	28.27	16.08	-51.8	-53.7	14.6	0.00e+00	0	25	0	276824064	69	4560
2026-01-08 00:05:11.51	28.32	16.19	-51.7	-53.6	14.6	0.00e+00	0	25	0	278921216	69	4504
2026-01-08 00:05:12.51	28.38	16.29	-51.4	-53.4	14.7	0.00e+00	0	25	0	281018368	69	4439
2026-01-08 00:05:13.50	28.43	16.40	-51.5	-53.6	14.7	0.00e+00	0	25	0	283115520	69	4498
2026-01-08 00:05:14.51	28.49	16.51	-51.4	-53.4	14.7	0.00e+00	0	25	0	285212672	69	4434
2026-01-08 00:05:15.50	28.54	16.62	-51.4	-53.5	14.7	0.00e+00	0	25	0	286261248	69	4460
2026-01-08 00:05:16.49	28.60	16.73	-51.5	-53.6	14.7	0.00e+00	0	25	0	288358400	69	4538
2026-01-08 00:05:17.49	28.66	16.84	-51.5	-53.5	14.7	0.00e+00	0	25	0	290455552	69	4475
2026-01-08 00:05:18.49	28.71	16.95	-51.5	-53.6	14.7	0.00e+00	0	25	0	292552704	69	4498
2026-01-08 00:05:19.49	28.77	17.06	-51.6	-53.7	14.6	0.00e+00	0	25	0	294649856	69	4558
2026-01-08 00:05:20.48	28.83	17.17	-51.6	-53.7	14.6	0.00e+00	0	25	0	295698432	69	4548
2026-01-08 00:05:21.48	28.89	17.29	-51.6	-53.8	14.6	0.00e+00	0	25	0	297795584	69	4606
2026-01-08 00:05:22.49	28.94	17.40	-51.5	-53.6	14.7	0.00e+00	0	25	0	299892736	69	4520
2026-01-08 00:05:23.49	29.00	17.52	-51.8	-53.9	14.5	0.00e+00	0	25	0	301989888	69	4700
2026-01-08 00:05:24.49	29.06	17.63	-51.8	-54.0	14.5	0.00e+00	0	24	0	303038464	69	4745
2026-01-08 00:05:25.48	29.12	17.74	-51.7	-53.8	14.6	0.00e+00	0	25	0	305135616	69	4633
2026-01-08 00:05:26.48	29.18	17.86	-51.7	-53.8	14.6	0.00e+00	0	25	0	307232768	69	4645
2026-01-08 00:05:27.47	29.24	17.97	-51.8	-54.0	14.5	0.00e+00	0	25	0	309329920	69	4730
2026-01-08 00:05:28.47	29.30	18.09	-51.7	-53.9	14.5	0.00e+00	0	25	0	311427072	69	4663
2026-01-08 00:05:29.46	29.36	18.20	-51.8	-54.0	14.5	0.00e+00	0	25	0	312475648	69	4734
2026-01-08 00:05:30.46	29.43	18.32	-51.9	-54.1	14.4	0.00e+00	0	25	0	314572800	69	4810
2026-01-08 00:05:31.45	29.49	18.44	-51.8	-54.0	14.5	0.00e+00	0	25	0	316669952	69	4743
2026-01-08 00:05:32.44	29.55	18.56	-51.7	-53.8	14.5	0.00e+00	0	25	0	318767104	69	4650
2026-01-08 00:05:33.44	29.61	18.67	-51.7	-53.9	14.5	0.00e+00	0	25	0	319815680	69	4668
2026-01-08 00:05:34.44	29.68	18.79	-51.6	-53.8	14.6	0.00e+00	0	25	0	321912832	69	4633
2026-01-08 00:05:35.44	29.74	18.91	-51.7	-53.9	14.5	0.00e+00	0	24	0	324009984	69	4702
2026-01-08 00:05:36.43	29.80	19.03	-51.7	-53.9	14.6	0.00e+00	0	25	0	326107136	69	4654
2026-01-08 00:05:37.43	29.87	19.15	-51.6	-53.8	14.6	0.00e+00	0	25	0	328204288	69	4649
2026-01-08 00:05:38.43	29.93	19.28	-51.6	-53.8	14.6	0.00e+00	0	25	0	329252864	69	4609
2026-01-08 00:05:39.43	30.00	19.40	-51.6	-53.7	14.6	0.00e+00	0	25	0	331350016	69	4593
2026-01-08 00:05:40.44	30.07	19.52	-51.6	-53.7	14.6	0.00e+00	0	25	0	333447168	69	4585
2026-01-08 00:05:41.43	30.13	19.64	-51.7	-54.0	14.5	0.00e+00	0	25	0	335544320	69	4706
2026-01-08 00:05:42.43	30.20	19.77	-51.6	-53.8	14.6	0.00e+00	0	25	0	337641472	69	4627
2026-01-08 00:05:43.43	30.27	19.89	-51.5	-53.7	14.6	0.00e+00	0	25	0	338690048	69	4561
2026-01-08 00:05:44.44	30.34	20.02	-51.4	-53.6	14.7	0.00e+00	0	25	0	340787200	69	4497
2026-01-08 00:05:45.43	30.41	20.14	-51.5	-53.6	14.7	0.00e+00	0	25	0	342884352	69	4521
2026-01-08 00:05:46.43	30.48	20.27	-51.4	-53.5	14.8	0.00e+00	0	25	0	344981504	69	4452
2026-01-08 00:05:47.44	30.55	20.40	-51.2	-53.2	14.9	0.00e+00	0	25	0	347078656	69	4311
2026-01-08 00:05:48.43	30.62	20.52	-51.1	-53.1	14.8	0.00e+00	0	25	0	348127232	68	4540
2026-01-08 00:05:49.43	30.69	20.65	-50.9	-52.9	14.9	0.00e+00	0	25	0	350224384	68	4396
2026-01-08 00:05:50.43	30.76	20.78	-50.8	-52.6	15.0	0.00e+00	0	25	0	352321536	68	4274
2026-01-08 00:05:51.43	30.83	20.91	-50.5	-52.3	15.0	0.00e+00	0	25	0	354418688	67	4348
2026-01-08 00:05:52.42	30.90	21.04	-50.4	-52.2	15.0	0.00e+00	0	25	0	355467264	67	4300
2026-01-08 00:05:53.42	30.98	21.17	-50.5	-52.2	15.0	0.00e+00	0	25	0	357564416	67	4336
2026-01-08 00:05:54.43	31.05	21.30	-50.4	-52.1	15.1	0.00e+00	0	25	0	359661568	67	4271
2026-01-08 00:05:55.42	31.13	21.43	-50.4	-52.1	15.0	0.00e+00	0	25	0	361758720	67	4283
2026-01-08 00:05:56.42	31.20	21.56	-50.1	-51.8	15.0	0.00e+00	0	25	0	363855872	66	4373
2026-01-08 00:05:57.41	31.28	21.70	-50.0	-51.6	15.1	0.00e+00	0	25	0	364904448	66	4276
2026-01-08 00:05:58.41	31.35	21.83	-50.1	-51.7	15.1	0.00e+00	0	25	0	367001600	66	4323
2026-01-08 00:05:59.40	31.43	21.96	-50.0	-51.6	15.1	0.00e+00	0	25	0	369098752	66	4265
2026-01-08 00:06:00.40	31.51	22.10	-49.9	-51.5	15.2	0.00e+00	0	25	0	371195904	66	4233
2026-01-08 00:06:01.40	31.59	22.23	-49.9	-51.6	15.2	0.00e+00	0	25	0	372244480	66	4243
2026-01-08 00:06:02.40	31.67	22.37	-49.8	-51.4	15.2	0.00e+00	0	25	0	374341632	66	4185
2026-01-08 00:06:03.39	31.74	22.51	-49.8	-51.4	15.2	0.00e+00	0	25	0	376438784	66	4179
2026-01-08 00:06:04.38	31.82	22.64	-49.7	-51.3	15.3	0.00e+00	0	25	0	378535936	66	4129
2026-01-08 00:06:05.38	31.91	22.78	-49.5	-51.1	15.2	0.00e+00	0	25	0	380633088	65	4282
2026-01-08 00:06:06.37	31.99	22.92	-49.6	-51.2	15.1	0.00e+00	0	25	0	381681664	65	4315
2026-01-08 00:06:07.37	32.07	23.06	-49.7	-51.3	15.1	0.00e+00	0	25	0	383778816	65	4376
2026-01-08 00:06:08.37	32.15	23.20	-49.5	-51.1	15.2	0.00e+00	0	25	0	385875968	65	4258
2026-01-08 00:06:09.37	32.24	23.34	-49.7	-51.4	15.1	0.00e+00	0	25	0	387973120	65	4406
2026-01-08 00:06:10.36	32.32	23.48	-49.8	-51.5	15.0	0.00e+00	0	25	0	390070272	65	4443
2026-01-08 00:06:11.36	32.40	23.63	-49.7	-51.3	15.1	0.00e+00	0	25	0	391118848	65	4391
2026-01-08 00:06:12.36	32.49	23.77	-49.8	-51.5	15.0	0.00e+00	0	25	0	393216000	65	4447
2026-01-08 00:06:13.36	32.58	23.91	-49.9	-51.6	15.0	0.00e+00	0	25	0	395313152	65	4539
2026-01-08 00:06:14.36	32.66	24.06	-49.9	-51.6	15.0	0.00e+00	0	25	0	397410304	65	4512
2026-01-08 00:06:15.36	32.75	24.20	-49.7	-51.4	15.1	0.00e+00	0	25	0	398458880	65	4416
2026-01-08 00:06:16.36	32.84	24.35	-49.9	-51.7	15.0	0.00e+00	0	25	0	400556032	65	4553
2026-01-08 00:06:17.36	32.93	24.50	-49.8	-51.5	15.0	0.00e+00	0	25	0	402653184	65	4471
2026-01-08 00:06:18.35	33.02	24.64	-49.9	-51.6	15.0	0.00e+00	0	25	0	404750336	65	4509
2026-01-08 00:06:19.35	33.11	24.79	-49.9	-51.6	15.0	0.00e+00	0	25	0	406847488	65	4517
2026-01-08 00:06:20.34	33.20	24.94	-49.9	-51.5	15.0	0.00e+00	0	25	0	407896064	65	4478
2026-01-08 00:06:21.35	33.30	25.09	-49.8	-51.4	15.0	0.00e+00	0	25	0	409993216	65	4439
2026-01-08 00:06:22.34	33.39	25.24	-49.9	-51.6	15.0	0.00e+00	0	25	0	412090368	65	4526
2026-01-08 00:06:23.34	33.49	25.40	-50.0	-51.7	14.9	0.00e+00	0	25	0	414187520	65	4576
2026-01-08 00:06:24.33	33.58	25.55	-50.0	-51.6	15.0	0.00e+00	0	25	0	415236096	65	4541
2026-01-08 00:06:25.33	33.68	25.70	-49.9	-51.6	15.0	0.00e+00	0	25	0	417333248	65	4496
2026-01-08 00:06:26.33	33.78	25.85	-49.7	-51.4	15.1	0.00e+00	0	25	0	419430400	65	4410
2026-01-08 00:06:27.33	33.87	26.01	-49.7	-51.4	15.1	0.00e+00	0	25	0	421527552	65	4415
2026-01-08 00:06:28.33	33.97	26.17	-49.8	-51.4	15.1	0.00e+00	0	25	0	423624704	65	4422
2026-01-08 00:06:29.33	34.07	26.32	-49.5	-51.2	15.2	0.00e+00	0	25	0	424673280	65	4297
2026-01-08 00:06:30.33	34.17	26.48	-49.6	-51.2	15.2	0.00e+00	0	25	0	426770432	65	4321
2026-01-08 00:06:31.33	34.28	26.64	-49.6	-51.2	15.2	0.00e+00	0	25	0	428867584	65	4314
2026-01-08 00:06:32.33	34.38	26.80	-49.4	-51.0	15.3	0.00e+00	0	25	0	430964736	65	4242
2026-01-08 00:06:33.33	34.48	26.96	-49.5	-51.2	15.2	0.00e+00	0	25	0	433061888	65	4313
2026-01-08 00:06:34.33	34.59	27.12	-49.4	-51.1	15.2	0.00e+00	0	25	0	434110464	65	4268
2026-01-08 00:06:35.32	34.69	27.28	-49.5	-51.2	15.2	0.00e+00	0	25	0	436207616	65	4308
2026-01-08 00:06:36.32	34.80	27.44	-49.6	-51.2	15.2	0.00e+00	0	25	0	438304768	65	4320
2026-01-08 00:06:37.32	34.91	27.61	-49.6	-51.3	15.1	0.00e+00	0	25	0	440401920	65	4342
2026-01-08 00:06:38.33	35.02	27.77	-49.8	-51.5	15.0	0.00e+00	0	25	0	442499072	65	4450
2026-01-08 00:06:39.33	35.13	27.94	-49.7	-51.3	15.1	0.00e+00	0	25	0	443547648	65	4379
2026-01-08 00:06:40.32	35.24	28.10	-49.8	-51.6	15.0	0.00e+00	0	25	0	445644800	65	4494
2026-01-08 00:06:41.33	35.35	28.27	-49.7	-51.4	15.1	0.00e+00	0	25	0	447741952	65	4414
2026-01-08 00:06:42.33	35.47	28.44	-49.9	-51.6	15.0	0.00e+00	0	25	0	449839104	65	4505
2026-01-08 00:06:43.33	35.58	28.61	-50.1	-51.8	14.9	0.00e+00	0	25	0	450887680	65	4621
2026-01-08 00:06:44.33	35.70	28.78	-50.3	-52.0	14.8	0.00e+00	0	25	0	452984832	65	4756
2026-01-08 00:06:45.32	35.82	28.95	-50.5	-52.3	14.9	0.00e+00	0	25	0	455081984	66	4600
2026-01-08 00:06:46.32	35.93	29.12	-50.8	-52.7	14.7	0.00e+00	0	25	0	457179136	66	4859
2026-01-08 00:06:47.32	36.05	29.29	-50.7	-52.6	14.7	0.00e+00	0	25	0	459276288	66	4796
2026-01-08 00:06:48.31	36.17	29.46	-51.0	-52.9	14.7	0.00e+00	0	25	0	460324864	67	4695
2026-01-08 00:06:49.31	36.30	29.64	-51.4	-53.5	14.5	0.00e+00	0	25	0	462422016	67	4995
2026-01-08 00:06:50.31	36.42	29.82	-51.8	-54.0	14.4	0.00e+00	0	25	0	464519168	68	4999
2026-01-08 00:06:51.30	36.54	29.99	-52.0	-54.2	14.3	0.00e+00	0	25	0	466616320	69	4856
2026-01-08 00:06:52.30	36.67	30.17	-52.1	-54.5	14.3	0.00e+00	0	25	0	467664896	69	4991
2026-01-08 00:06:53.31	36.80	30.35	-52.2	-54.5	14.3	0.00e+00	0	25	0	469762048	69	5019
2026-01-08 00:06:54.29	36.92	30.52	-52.4	-54.9	14.2	0.00e+00	0	25	0	471859200	70	4931
2026-01-08 00:06:55.29	37.06	30.70	-52.8	-55.5	14.0	0.00e+00	0	25	0	473956352	70	5282
2026-01-08 00:06:56.29	37.19	30.89	-53.0	-55.7	14.0	0.00e+00	0	25	0	476053504	71	5106
2026-01-08 00:06:57.29	37.32	31.07	-53.2	-56.0	13.8	0.00e+00	0	25	0	477102080	71	5298
2026-01-08 00:06:58.29	37.45	31.25	-53.1	-55.8	13.9	0.00e+00	0	25	0	479199232	71	5199
2026-01-08 00:06:59.29	37.59	31.44	-53.3	-56.1	13.8	0.00e+00	0	25	0	481296384	72	5074
2026-01-08 00:07:00.29	37.73	31.62	-53.2	-55.9	14.0	0.00e+00	0	25	0	483393536	72	4931
2026-01-08 00:07:01.28	37.87	31.80	-53.1	-55.8	14.0	0.00e+00	0	25	0	485490688	72	4909
2026-01-08 00:07:02.29	38.01	31.99	-53.1	-55.9	14.0	0.00e+00	0	25	0	486539264	72	4932
2026-01-08 00:07:03.29	38.15	32.18	-53.0	-55.8	14.0	0.00e+00	0	25	0	488636416	72	4871
2026-01-08 00:07:04.29	38.29	32.37	-53.1	-55.9	14.0	0.00e+00	0	25	0	490733568	72	4932
2026-01-08 00:07:05.29	38.44	32.56	-53.2	-56.1	13.9	0.00e+00	0	25	0	492830720	72	5065
2026-01-08 00:07:06.29	38.59	32.75	-53.0	-55.8	14.0	0.00e+00	0	25	0	493879296	72	4921
2026-01-08 00:07:07.29	38.74	32.95	-52.8	-55.5	14.2	0.00e+00	0	25	0	495976448	72	4747
2026-01-08 00:07:08.29	38.89	33.14	-52.9	-55.7	14.1	0.00e+00	0	25	0	498073600	72	4825
2026-01-08 00:07:09.28	39.04	33.33	-52.8	-55.6	14.0	0.00e+00	0	25	0	500170752	71	5050
2026-01-08 00:07:10.28	39.19	33.53	-52.8	-55.5	14.1	0.00e+00	0	25	0	502267904	71	5025
2026-01-08 00:07:11.28	39.35	33.72	-53.3	-56.2	13.7	0.00e+00	0	25	0	503316480	71	5455
2026-01-08 00:07:12.29	39.51	33.92	-53.0	-55.6	14.0	0.00e+00	0	25	0	505413632	71	5079
2026-01-08 00:07:13.29	39.67	34.12	-53.0	-55.8	13.9	0.00e+00	0	25	0	507510784	71	5188
2026-01-08 00:07:14.29	39.83	34.32	-53.0	-55.7	13.9	0.00e+00	0	25	0	509607936	71	5155
2026-01-08 00:07:15.29	39.99	34.52	-53.1	-55.9	13.8	0.00e+00	0	25	0	511705088	71	5279
2026-01-08 00:07:16.29	40.16	34.72	-53.3	-56.3	13.5	0.00e+00	0	25	0	512753664	71	5522
2026-01-08 00:07:17.29	40.32	34.93	-53.1	-56.1	13.8	0.00e+00	0	25	0	514850816	71	5347
2026-01-08 00:07:18.28	40.49	35.13	-53.2	-56.3	13.8	0.00e+00	0	25	0	516947968	72	5167
2026-01-08 00:07:19.29	40.67	35.34	-53.2	-56.3	13.7	0.00e+00	0	25	0	519045120	72	5212
2026-01-08 00:07:20.28	40.84	35.54	-53.3	-56.4	13.6	0.00e+00	0	25	0	521142272	72	5265
2026-01-08 00:07:21.28	41.01	35.75	-53.1	-56.0	13.9	0.00e+00	0	25	0	522190848	72	5000
2026-01-08 00:07:22.28	41.19	35.96	-53.3	-56.4	13.7	0.00e+00	0	25	0	524288000	72	5256
2026-01-08 00:07:23.29	41.37	36.17	-53.3	-56.3	13.8	0.00e+00	0	25	0	526385152	72	5163
2026-01-08 00:07:24.29	41.56	36.38	-53.0	-55.7	14.1	0.00e+00	0	25	0	528482304	72	4841
2026-01-08 00:07:25.28	41.74	36.59	-52.9	-55.6	14.2	0.00e+00	0	25	0	529530880	72	4772
2026-01-08 00:07:26.27	41.92	36.80	-52.7	-55.3	14.3	0.00e+00	0	25	0	531628032	72	4626
2026-01-08 00:07:27.27	42.11	37.01	-52.5	-55.0	14.3	0.00e+00	0	25	0	533725184	71	4751
2026-01-08 00:07:28.26	42.30	37.22	-52.0	-54.3	14.6	0.00e+00	0	25	0	535822336	70	4629
2026-01-08 00:07:29.25	42.50	37.44	-52.5	-55.0	14.2	0.00e+00	0	25	0	537919488	70	5023
2026-01-08 00:07:30.25	42.69	37.65	-52.1	-54.4	14.4	0.00e+00	0	25	0	538968064	70	4699
2026-01-08 00:07:31.25	42.89	37.87	-52.3	-54.9	14.3	0.00e+00	0	25	0	541065216	70	4940
2026-01-08 00:07:32.24	43.09	38.09	-52.4	-55.0	14.2	0.00e+00	0	25	0	543162368	70	4997
2026-01-08 00:07:33.24	43.30	38.31	-52.6	-55.1	14.1	0.00e+00	0	25	0	545259520	70	5097
2026-01-08 00:07:34.25	43.51	38.53	-52.8	-55.6	14.1	0.00e+00	0	25	0	546308096	71	5042
2026-01-08 00:07:35.24	43.72	38.75	-52.8	-55.6	14.0	0.00e+00	0	25	0	548405248	71	5049
2026-01-08 00:07:36.24	43.93	38.97	-53.0	-56.0	13.8	0.00e+00	0	25	0	550502400	71	5320
2026-01-08 00:07:37.24	44.15	39.20	-52.6	-55.4	14.2	0.00e+00	0	25	0	552599552	71	4928
2026-01-08 00:07:38.23	44.36	39.42	-52.2	-54.9	14.3	0.00e+00	0	25	0	554696704	70	4946
2026-01-08 00:07:39.23	44.58	39.64	-52.0	-54.5	14.5	0.00e+00	0	25	0	555745280	70	4742
2026-01-08 00:07:40.22	44.81	39.87	-51.8	-54.2	14.6	0.00e+00	0	25	0	557842432	70	4561
2026-01-08 00:07:41.23	45.04	40.10	-51.5	-53.7	14.7	0.00e+00	0	25	0	559939584	69	4581
2026-01-08 00:07:42.23	45.27	40.33	-51.5	-53.6	14.6	0.00e+00	0	25	0	562036736	69	4518
2026-01-08 00:07:43.23	45.50	40.56	-51.6	-53.7	14.6	0.00e+00	0	25	0	564133888	69	4575
2026-01-08 00:07:44.22	45.74	40.79	-51.6	-53.8	14.6	0.00e+00	0	25	0	565182464	69	4624
2026-01-08 00:07:45.22	45.98	41.02	-51.7	-54.0	14.5	0.00e+00	0	25	0	567279616	69	4728
2026-01-08 00:07:46.23	46.23	41.25	-52.1	-54.6	14.2	0.00e+00	0	25	0	569376768	69	5051
2026-01-08 00:07:47.22	46.47	41.48	-52.1	-54.7	14.1	0.00e+00	0	25	0	571473920	69	5149
2026-01-08 00:07:48.22	46.72	41.72	-51.9	-54.4	14.2	0.00e+00	0	25	0	573571072	69	4943
2026-01-08 00:07:49.22	46.98	41.95	-51.7	-54.1	14.4	0.00e+00	0	25	0	574619648	69	4787
2026-01-08 00:07:50.21	47.24	42.19	-51.8	-54.2	14.4	0.00e+00	0	25	0	576716800	69	4824
2026-01-08 00:07:51.20	47.50	42.42	-51.6	-53.8	14.5	0.00e+00	0	25	0	578813952	69	4644
2026-01-08 00:07:52.19	47.76	42.66	-51.5	-53.7	14.6	0.00e+00	0	25	0	580911104	69	4569
2026-01-08 00:07:53.19	48.03	42.90	-51.5	-53.8	14.5	0.00e+00	0	25	0	581959680	69	4615
2026-01-08 00:07:54.19	48.31	43.14	-51.6	-54.1	14.4	0.00e+00	0	25	0	584056832	69	4772
2026-01-08 00:07:55.19	48.58	43.38	-51.7	-54.3	14.4	0.00e+00	0	25	0	586153984	69	4875
2026-01-08 00:07:56.18	48.86	43.62	-52.1	-54.9	14.0	0.00e+00	0	25	0	588251136	69	5251
2026-01-08 00:07:57.19	49.15	43.86	-52.2	-54.9	14.1	0.00e+00	0	25	0	590348288	69	5228
2026-01-08 00:07:58.18	49.44	44.10	-52.4	-55.1	14.1	0.00e+00	0	25	0	591396864	70	5080
2026-01-08 00:07:59.18	49.74	44.34	-52.4	-55.1	14.1	0.00e+00	0	25	0	593494016	70	5073
2026-01-08 00:08:00.17	50.03	44.59	-52.5	-55.1	14.1	0.00e+00	0	25	0	595591168	70	5076
2026-01-08 00:08:01.17	50.34	44.83	-52.3	-54.9	14.2	0.00e+00	0	25	0	597688320	70	4936
2026-01-08 00:08:02.17	50.65	45.08	-52.5	-55.1	14.0	0.00e+00	0	25	0	598736896	70	5097
2026-01-08 00:08:03.16	50.96	45.32	-52.7	-55.5	13.9	0.00e+00	0	25	0	600834048	70	5298
2026-01-08 00:08:04.15	51.27	45.56	-52.7	-55.4	13.9	0.00e+00	0	25	0	602931200	70	5254
2026-01-08 00:08:05.15	51.60	45.81	-52.3	-54.8	14.2	0.00e+00	0	25	0	605028352	70	4915
2026-01-08 00:08:06.15	51.93	46.06	-52.1	-54.6	14.3	0.00e+00	0	25	0	607125504	70	4769
2026-01-08 00:08:07.15	52.26	46.31	-52.2	-54.7	14.3	0.00e+00	0	25	0	608174080	70	4815
2026-01-08 00:08:08.15	52.60	46.56	-52.1	-54.7	14.3	0.00e+00	0	25	0	610271232	70	4838
2026-01-08 00:08:09.14	52.94	46.80	-52.4	-55.1	14.1	0.00e+00	0	25	0	612368384	70	5055
2026-01-08 00:08:10.13	53.29	47.05	-52.5	-55.2	14.1	0.00e+00	0	25	0	614465536	70	5101
2026-01-08 00:08:11.12	53.64	47.30	-52.6	-55.2	14.0	0.00e+00	0	25	0	615514112	70	5141
2026-01-08 00:08:12.12	54.00	47.55	-51.9	-54.2	14.5	0.00e+00	0	25	0	617611264	70	4565
2026-01-08 00:08:13.12	54.37	47.80	-51.7	-54.0	14.5	0.00e+00	0	25	0	619708416	69	4732
2026-01-08 00:08:14.12	54.74	48.05	-51.6	-54.0	14.5	0.00e+00	0	25	0	621805568	69	4736
2026-01-08 00:08:15.12	55.12	48.30	-51.5	-53.9	14.5	0.00e+00	0	25	0	623902720	69	4660
2026-01-08 00:08:16.12	55.50	48.55	-51.5	-53.9	14.5	0.00e+00	0	25	0	624951296	69	4685
2026-01-08 00:08:17.13	55.90	48.80	-52.3	-55.3	13.7	0.00e+00	0	25	0	627048448	69	5520
2026-01-08 00:08:18.12	56.29	49.05	-53.0	-56.6	13.3	0.00e+00	0	25	0	629145600	71	5709
2026-01-08 00:08:19.12	56.70	49.30	-52.9	-56.5	13.3	0.00e+00	0	25	0	631242752	71	5612
2026-01-08 00:08:20.12	57.11	49.55	-52.6	-56.0	13.6	0.00e+00	0	25	0	633339904	71	5315
2026-01-08 00:08:21.12	57.52	49.80	-52.2	-55.1	14.0	0.00e+00	0	25	0	634388480	70	5088
2026-01-08 00:08:22.11	57.94	50.05	-52.3	-55.2	14.0	0.00e+00	0	25	0	636485632	70	5115
2026-01-08 00:08:23.11	58.37	50.30	-52.5	-55.6	13.8	0.00e+00	0	25	0	638582784	70	5381
2026-01-08 00:08:24.10	58.81	50.55	-52.4	-55.5	13.8	0.00e+00	0	25	0	640679936	70	5339
2026-01-08 00:08:25.10	59.25	50.80	-52.5	-55.8	13.6	0.00e+00	0	25	0	641728512	70	5510
2026-01-08 00:08:26.10	59.71	51.05	-52.4	-55.7	13.7	0.00e+00	0	25	0	643825664	70	5411
2026-01-08 00:08:27.11	60.17	51.30	-52.2	-55.2	14.0	0.00e+00	0	25	0	645922816	70	5153
2026-01-08 00:08:28.11	60.64	51.55	-52.5	-55.6	13.9	0.00e+00	0	25	0	648019968	70	5345
2026-01-08 00:08:29.10	61.11	51.79	-52.9	-56.2	13.6	0.00e+00	0	25	0	650117120	71	5462
2026-01-08 00:08:30.10	61.59	52.04	-53.1	-56.8	13.2	0.00e+00	0	25	0	651165696	71	5827
2026-01-08 00:08:31.10	62.08	52.28	-52.4	-55.5	13.9	0.00e+00	0	25	0	653262848	71	5027
2026-01-08 00:08:32.10	62.58	52.53	-51.9	-54.7	14.2	0.00e+00	0	25	0	655360000	70	4818
2026-01-08 00:08:33.10	63.09	52.77	-51.5	-54.0	14.4	0.00e+00	0	25	0	657457152	69	4754
2026-01-08 00:08:34.10	63.61	53.02	-51.4	-53.9	14.5	0.00e+00	0	25	0	658505728	69	4681
2026-01-08 00:08:35.10	64.13	53.26	-51.5	-54.2	14.3	0.00e+00	0	25	0	660602880	69	4860
2026-01-08 00:08:36.10	64.67	53.50	-51.8	-54.7	14.1	0.00e+00	0	25	0	662700032	69	5146
2026-01-08 00:08:37.10	65.21	53.74	-51.9	-54.7	14.1	0.00e+00	0	25	0	664797184	69	5136
2026-01-08 00:08:38.10	65.76	53.97	-51.8	-54.4	14.3	0.00e+00	0	25	0	666894336	69	4957
2026-01-08 00:08:39.10	66.32	54.21	-51.5	-54.0	14.4	0.00e+00	0	25	0	667942912	69	4710
2026-01-08 00:08:40.10	66.89	54.44	-51.3	-53.6	14.6	0.00e+00	0	25	0	670040064	69	4535
2026-01-08 00:08:41.10	67.47	54.68	-51.4	-53.9	14.4	0.00e+00	0	25	0	672137216	68	4941
2026-01-08 00:08:42.10	68.06	54.91	-50.9	-53.2	14.7	0.00e+00	0	25	0	674234368	68	4547
2026-01-08 00:08:43.09	68.65	55.13	-50.9	-53.1	14.8	0.00e+00	0	25	0	676331520	68	4498
2026-01-08 00:08:44.09	69.26	55.36	-51.1	-53.3	14.8	0.00e+00	0	25	0	677380096	68	4621
2026-01-08 00:08:45.08	69.87	55.58	-51.3	-53.5	14.6	0.00e+00	0	25	0	679477248	68	4735
2026-01-08 00:08:46.09	70.50	55.80	-51.4	-53.5	14.6	0.00e+00	0	25	0	681574400	68	4737
2026-01-08 00:08:47.09	71.14	56.02	-51.1	-53.1	14.8	0.00e+00	0	25	0	683671552	68	4520
2026-01-08 00:08:48.08	71.78	56.24	-51.4	-53.5	14.6	0.00e+00	0	25	0	685768704	68	4722
2026-01-08 00:08:49.07	72.43	56.45	-52.0	-54.3	14.4	0.00e+00	0	25	0	686817280	69	4917
2026-01-08 00:08:50.07	73.09	56.66	-52.5	-54.9	14.3	0.00e+00	0	25	0	688914432	70	4983
2026-01-08 00:08:51.06	73.76	56.87	-52.1	-54.3	14.6	0.00e+00	0	25	0	691011584	70	4628
2026-01-08 00:08:52.05	74.44	57.07	-51.6	-53.5	14.8	0.00e+00	0	25	0	693108736	69	4481
2026-01-08 00:08:53.05	75.14	57.27	-51.3	-53.1	15.0	0.00e+00	0	25	0	694157312	69	4276
2026-01-08 00:08:54.06	75.85	57.48	-50.9	-52.7	15.0	0.00e+00	0	25	0	696254464	68	4333
2026-01-08 00:08:55.04	76.56	57.67	-50.9	-52.8	15.0	0.00e+00	0	25	0	698351616	68	4362
2026-01-08 00:08:56.04	77.28	57.86	-50.5	-52.3	15.0	0.00e+00	0	25	0	700448768	67	4383
2026-01-08 00:08:57.04	78.02	58.05	-50.7	-52.5	14.9	0.00e+00	0	25	0	702545920	67	4462
2026-01-08 00:08:58.03	78.76	58.23	-50.8	-52.6	14.9	0.00e+00	0	25	0	703594496	67	4503
2026-01-08 00:08:59.03	79.52	58.41	-51.1	-53.0	14.7	0.00e+00	0	25	0	705691648	67	4711
2026-01-08 00:09:00.02	80.28	58.58	-51.3	-53.3	14.6	0.00e+00	0	25	0	707788800	67	4882
2026-01-08 00:09:01.03	81.07	58.76	-51.9	-54.1	14.3	0.00e+00	0	25	0	709885952	68	5091
2026-01-08 00:09:02.02	81.85	58.92	-52.4	-54.7	14.2	0.00e+00	0	25	0	710934528	69	5144
2026-01-08 00:09:03.02	82.65	59.09	-52.2	-54.4	14.3	0.00e+00	0	25	0	713031680	69	4953
2026-01-08 00:09:04.01	83.45	59.24	-51.2	-53.1	15.0	0.00e+00	0	25	0	715128832	69	4274
2026-01-08 00:09:05.00	84.26	59.40	-50.3	-51.9	15.2	0.00e+00	0	25	0	717225984	67	4184
2026-01-08 00:09:06.00	85.09	59.55	-50.3	-51.9	15.2	0.00e+00	0	25	0	719323136	67	4191
2026-01-08 00:09:07.00	85.92	59.69	-50.6	-52.4	15.0	0.00e+00	0	25	0	720371712	67	4422
2026-01-08 00:09:08.00	86.77	59.83	-50.9	-52.8	14.8	0.00e+00	0	25	0	722468864	67	4613
2026-01-08 00:09:08.99	87.62	59.96	-51.1	-52.9	14.7	0.00e+00	0	25	0	724566016	67	4688
2026-01-08 00:09:09.99	88.48	60.09	-51.8	-53.9	14.4	0.00e+00	0	25	0	726663168	68	4947
2026-01-08 00:09:10.98	89.34	60.21	-52.5	-54.8	14.2	0.00e+00	0	25	0	727711744	70	4916
2026-01-08 00:09:11.98	90.22	60.33	-52.5	-55.0	14.1	0.00e+00	0	25	0	729808896	70	5014
2026-01-08 00:09:12.97	91.10	60.44	-52.5	-54.9	14.2	0.00e+00	0	25	0	731906048	70	4977
2026-01-08 00:09:13.97	92.00	60.54	-52.2	-54.5	14.5	0.00e+00	0	25	0	734003200	70	4719
2026-01-08 00:09:14.97	92.90	60.64	-52.0	-54.2	14.6	0.00e+00	0	25	0	736100352	70	4590
2026-01-08 00:09:15.96	93.80	60.73	-52.3	-54.7	14.4	0.00e+00	0	25	0	737148928	70	4825
2026-01-08 00:09:16.97	94.72	60.82	-52.5	-54.9	14.2	0.00e+00	0	25	0	739246080	70	4968
2026-01-08 00:09:17.96	95.64	60.90	-52.2	-54.5	14.4	0.00e+00	0	25	0	741343232	70	4741
2026-01-08 00:09:18.96	96.56	60.97	-52.3	-54.7	14.4	0.00e+00	0	25	0	743440384	70	4838
2026-01-08 00:09:19.97	97.50	61.04	-51.9	-54.0	14.7	0.00e+00	0	25	0	745537536	70	4489
2026-01-08 00:09:20.96	98.43	61.10	-51.4	-53.4	14.8	0.00e+00	0	25	0	746586112	69	4435
2026-01-08 00:09:21.96	99.37	61.16	-51.5	-53.6	14.7	0.00e+00	0	25	0	748683264	69	4522
2026-01-08 00:09:22.95	100.31	61.20	-52.5	-55.0	14.2	0.00e+00	0	25	0	750780416	70	5006
2026-01-08 00:09:23.95	101.26	61.24	-52.9	-55.4	14.1	0.00e+00	0	25	0	752877568	71	4971
2026-01-08 00:09:24.94	102.20	61.28	-52.3	-54.4	14.6	0.00e+00	0	25	0	753926144	71	4421
2026-01-08 00:09:25.95	103.17	61.31	-51.4	-53.3	14.9	0.00e+00	0	25	0	756023296	69	4345
2026-01-08 00:09:26.95	104.12	61.33	-51.4	-53.2	14.9	0.00e+00	0	25	0	758120448	69	4313
2026-01-08 00:09:27.95	105.08	61.34	-50.9	-52.6	15.0	0.00e+00	0	25	0	760217600	68	4246
2026-01-08 00:09:28.94	106.03	61.35	-50.4	-52.0	15.2	0.00e+00	0	25	0	762314752	67	4207
2026-01-08 00:09:29.94	106.99	61.35	-50.3	-52.0	15.0	0.00e+00	0	25	0	763363328	66	4450
2026-01-08 00:09:30.94	107.94	61.34	-51.0	-52.8	14.7	0.00e+00	0	25	0	765460480	67	4643
2026-01-08 00:09:31.94	108.90	61.33	-51.8	-53.8	14.5	0.00e+00	0	25	0	767557632	68	4921
2026-01-08 00:09:32.94	109.86	61.31	-51.3	-53.2	14.7	0.00e+00	0	25	0	769654784	68	4579
2026-01-08 00:09:33.93	110.80	61.28	-51.2	-53.0	14.9	0.00e+00	0	25	0	771751936	68	4485
2026-01-08 00:09:34.93	111.75	61.25	-51.3	-53.2	14.9	0.00e+00	0	25	0	772800512	68	4571
2026-01-08 00:09:35.91	112.68	61.21	-51.5	-53.4	14.7	0.00e+00	0	25	0	774897664	68	4665
2026-01-08 00:09:36.91	113.63	61.16	-51.4	-53.4	14.7	0.00e+00	0	25	0	776994816	68	4652
2026-01-08 00:09:37.90	114.56	61.11	-51.3	-53.3	14.7	0.00e+00	0	25	0	779091968	68	4612
2026-01-08 00:09:38.90	115.50	61.04	-51.4	-53.3	14.7	0.00e+00	0	25	0	780140544	68	4632
2026-01-08 00:09:39.89	116.43	60.98	-50.9	-52.6	15.0	0.00e+00	0	25	0	782237696	68	4268
2026-01-08 00:09:40.89	117.35	60.90	-50.2	-51.9	15.0	0.00e+00	0	25	0	784334848	66	4421
2026-01-08 00:09:41.89	118.28	60.82	-51.3	-53.4	14.5	0.00e+00	0	25	0	786432000	67	4944
2026-01-08 00:09:42.89	119.19	60.74	-52.4	-54.9	14.3	0.00e+00	0	25	0	788529152	70	4927
2026-01-08 00:09:43.89	120.10	60.65	-52.7	-55.2	14.1	0.00e+00	0	25	0	789577728	70	5118
2026-01-08 00:09:44.89	121.01	60.55	-53.0	-55.5	14.0	0.00e+00	0	25	0	791674880	71	4996
2026-01-08 00:09:45.89	121.90	60.44	-53.5	-56.4	13.7	0.00e+00	0	25	0	793772032	72	5237
2026-01-08 00:09:46.89	122.79	60.33	-53.8	-56.8	13.5	0.00e+00	0	25	0	795869184	72	5528
2026-01-08 00:09:47.88	123.66	60.22	-53.1	-55.8	14.1	0.00e+00	0	25	0	796917760	72	4901
2026-01-08 00:09:48.88	124.54	60.09	-52.1	-54.3	14.4	0.00e+00	0	25	0	799014912	70	4632
2026-01-08 00:09:49.88	125.40	59.97	-52.1	-54.3	14.5	0.00e+00	0	25	0	801112064	70	4650
2026-01-08 00:09:50.88	126.26	59.83	-53.2	-56.0	13.7	0.00e+00	0	25	0	803209216	71	5318
2026-01-08 00:09:51.87	127.09	59.69	-53.6	-56.8	13.4	0.00e+00	0	25	0	805306368	72	5481
2026-01-08 00:09:52.86	127.92	59.55	-53.1	-55.9	13.9	0.00e+00	0	25	0	806354944	72	4934
2026-01-08 00:09:53.86	128.75	59.40	-51.9	-54.0	14.7	0.00e+00	0	25	0	808452096	70	4484
2026-01-08 00:09:54.86	129.57	59.25	-52.1	-54.3	14.5	0.00e+00	0	25	0	810549248	70	4632
2026-01-08 00:09:55.85	130.37	59.09	-52.4	-54.8	14.2	0.00e+00	0	25	0	812646400	70	4900
2026-01-08 00:09:56.85	131.17	58.93	-52.8	-55.5	13.9	0.00e+00	0	25	0	813694976	70	5320
2026-01-08 00:09:57.85	131.96	58.76	-52.8	-55.4	14.1	0.00e+00	0	25	0	815792128	71	4945
2026-01-08 00:09:58.85	132.74	58.59	-53.6	-56.6	13.6	0.00e+00	0	25	0	817889280	72	5371
2026-01-08 00:09:59.84	133.50	58.42	-53.5	-56.5	13.6	0.00e+00	0	25	0	819986432	72	5287
2026-01-08 00:10:00.84	134.26	58.23	-52.9	-55.4	14.0	0.00e+00	0	25	0	822083584	72	4694
2026-01-08 00:10:01.83	135.01	58.05	-51.9	-53.9	14.7	0.00e+00	0	25	0	823132160	70	4436
2026-01-08 00:10:02.83	135.75	57.86	-51.8	-53.9	14.6	0.00e+00	0	25	0	825229312	69	4664
2026-01-08 00:10:03.83	136.47	57.67	-51.6	-53.6	14.7	0.00e+00	0	25	0	827326464	69	4527
2026-01-08 00:10:04.82	137.19	57.48	-50.8	-52.6	15.0	0.00e+00	0	25	0	829423616	68	4280
2026-01-08 00:10:05.83	137.90	57.28	-50.9	-52.8	14.8	0.00e+00	0	25	0	831520768	67	4609
2026-01-08 00:10:06.82	138.59	57.08	-51.2	-53.2	14.5	0.00e+00	0	25	0	832569344	67	4860
2026-01-08 00:10:07.82	139.28	56.87	-51.1	-53.1	14.8	0.00e+00	0	25	0	834666496	68	4532
2026-01-08 00:10:08.82	139.96	56.66	-50.8	-52.7	15.0	0.00e+00	0	25	0	836763648	68	4310
2026-01-08 00:10:09.82	140.63	56.45	-50.7	-52.5	14.9	0.00e+00	0	25	0	838860800	67	4482
2026-01-08 00:10:10.81	141.28	56.24	-51.2	-53.3	14.6	0.00e+00	0	25	0	839909376	67	4885
2026-01-08 00:10:11.80	141.92	56.02	-51.3	-53.3	14.7	0.00e+00	0	25	0	842006528	68	4613
2026-01-08 00:10:12.80	142.56	55.80	-49.8	-51.6	15.0	0.00e+00	0	25	0	844103680	65	4501
2026-01-08 00:10:13.80	143.18	55.58	-49.0	-50.6	15.2	0.00e+00	0	25	0	846200832	64	4245
2026-01-08 00:10:14.80	143.80	55.36	-49.1	-50.6	15.2	0.00e+00	0	25	0	848297984	64	4275
2026-01-08 00:10:15.80	144.41	55.13	-48.6	-50.1	15.3	0.00e+00	0	25	0	849346560	63	4263
2026-01-08 00:10:16.79	145.00	54.90	-47.8	-49.1	15.5	0.00e+00	0	25	0	851443712	62	4049
2026-01-08 00:10:17.79	145.59	54.67	-47.8	-49.2	15.3	0.00e+00	0	25	0	853540864	61	4319
2026-01-08 00:10:18.79	146.17	54.44	-48.5	-50.0	15.1	0.00e+00	0	25	0	855638016	62	4468
2026-01-08 00:10:19.79	146.74	54.20	-48.9	-50.5	15.1	0.00e+00	0	25	0	856686592	63	4470
2026-01-08 00:10:20.79	147.30	53.97	-49.1	-50.7	15.1	0.00e+00	0	25	0	858783744	63	4597
2026-01-08 00:10:21.79	147.85	53.73	-49.2	-50.8	15.0	0.00e+00	0	25	0	860880896	63	4647
2026-01-08 00:10:22.78	148.39	53.49	-49.9	-51.8	14.9	0.00e+00	0	25	0	862978048	65	4614
2026-01-08 00:10:23.78	148.93	53.25	-49.7	-51.6	15.0	0.00e+00	0	25	0	865075200	65	4503
2026-01-08 00:10:24.78	149.45	53.01	-48.7	-50.3	15.3	0.00e+00	0	25	0	866123776	63	4351
2026-01-08 00:10:25.79	149.97	52.76	-48.6	-50.2	15.3	0.00e+00	0	25	0	868220928	63	4328
2026-01-08 00:10:26.79	150.48	52.52	-49.0	-50.7	15.1	0.00e+00	0	25	0	870318080	63	4575
2026-01-08 00:10:27.79	150.98	52.27	-49.0	-50.7	15.1	0.00e+00	0	25	0	872415232	63	4556
2026-01-08 00:10:28.79	151.48	52.03	-48.6	-50.3	15.2	0.00e+00	0	25	0	874512384	63	4342
2026-01-08 00:10:29.79	151.96	51.78	-48.7	-50.3	15.2	0.00e+00	0	25	0	875560960	63	4364
2026-01-08 00:10:30.78	152.43	51.54	-49.5	-51.3	15.0	0.00e+00	0	25	0	877658112	64	4651
2026-01-08 00:10:31.78	152.90	51.29	-50.2	-52.2	14.7	0.00e+00	0	25	0	879755264	65	4848
2026-01-08 00:10:32.78	153.36	51.04	-50.4	-52.4	14.8	0.00e+00	0	25	0	881852416	66	4695
2026-01-08 00:10:33.78	153.81	50.79	-50.4	-52.4	14.8	0.00e+00	0	25	0	883949568	66	4683
2026-01-08 00:10:34.77	154.26	50.54	-49.3	-51.1	15.1	0.00e+00	0	25	0	884998144	65	4283
2026-01-08 00:10:35.77	154.70	50.29	-48.3	-49.9	15.4	0.00e+00	0	25	0	887095296	63	4170
2026-01-08 00:10:36.78	155.13	50.04	-48.4	-50.1	15.2	0.00e+00	0	25	0	889192448	62	4506
2026-01-08 00:10:37.78	155.56	49.78	-50.1	-52.2	14.7	0.00e+00	0	25	0	891289600	65	4855
2026-01-08 00:10:38.78	155.97	49.53	-52.0	-54.8	14.1	0.00e+00	0	25	0	892338176	69	5181
2026-01-08 00:10:39.78	156.38	49.28	-51.9	-54.8	14.1	0.00e+00	0	25	0	894435328	69	5165
2026-01-08 00:10:40.77	156.79	49.03	-51.2	-53.7	14.4	0.00e+00	0	25	0	896532480	68	4837
2026-01-08 00:10:41.77	157.18	48.78	-51.8	-54.6	14.1	0.00e+00	0	25	0	898629632	68	5343
2026-01-08 00:10:42.76	157.57	48.53	-53.4	-57.1	13.0	0.00e+00	0	25	0	900726784	71	6035
2026-01-08 00:10:43.77	157.96	48.28	-54.2	-58.5	12.3	0.00e+00	0	25	0	901775360	73	6310
2026-01-08 00:10:44.76	158.34	48.03	-54.3	-58.8	12.1	0.00e+00	0	25	0	903872512	73	6495
2026-01-08 00:10:45.76	158.71	47.78	-54.5	-59.1	12.1	7.00e-07	0	25	0	905969664	74	6395
2026-01-08 00:10:46.76	159.08	47.53	-54.0	-58.0	12.8	0.00e+00	0	25	0	908066816	74	5621
2026-01-08 00:10:47.76	159.44	47.27	-53.7	-57.3	13.2	0.00e+00	0	25	0	910163968	73	5512
2026-01-08 00:10:48.76	159.79	47.02	-53.2	-56.3	13.6	0.00e+00	0	25	0	911212544	72	5186
2026-01-08 00:10:49.76	160.14	46.77	-53.3	-56.4	13.6	0.00e+00	0	25	0	913309696	72	5262
2026-01-08 00:10:50.76	160.49	46.52	-53.8	-57.4	13.0	0.00e+00	0	25	0	915406848	72	5872
2026-01-08 00:10:51.76	160.83	46.27	-55.1	-60.6	10.9	2.89e-05	0	25	0	917504000	75	7140
2026-01-08 00:10:52.76	161.16	46.03	-55.7	-62.4	9.7	3.34e-03	0	25	0	919601152	76	8331
2026-01-08 00:10:53.76	161.49	45.78	-54.4	-58.7	12.3	5.79e-05	0	25	0	920649728	75	5786
2026-01-08 00:10:54.75	161.81	45.53	-52.9	-55.7	14.0	0.00e+00	0	25	0	922746880	72	4860
2026-01-08 00:10:55.75	162.13	45.28	-52.5	-55.2	14.2	0.00e+00	0	25	0	924844032	71	4815
2026-01-08 00:10:56.74	162.44	45.04	-53.6	-56.9	13.4	0.00e+00	0	25	0	926941184	72	5558
2026-01-08 00:10:57.73	162.75	44.80	-54.2	-58.0	12.7	0.00e+00	0	25	0	927989760	73	5974
2026-01-08 00:10:58.73	163.05	44.55	-53.7	-57.1	13.3	0.00e+00	0	25	0	930086912	73	5360
2026-01-08 00:10:59.73	163.35	44.30	-52.3	-54.8	14.3	0.00e+00	0	25	0	932184064	71	4651
2026-01-08 00:11:00.73	163.65	44.06	-51.2	-53.3	14.7	0.00e+00	0	25	0	934281216	68	4621
2026-01-08 00:11:01.72	163.94	43.82	-50.8	-52.7	14.9	0.00e+00	0	25	0	936378368	68	4329
2026-01-08 00:11:02.72	164.22	43.58	-51.2	-53.3	14.7	0.00e+00	0	25	0	937426944	68	4619
2026-01-08 00:11:03.72	164.51	43.33	-52.3	-54.7	14.1	0.00e+00	0	25	0	939524096	69	5147
2026-01-08 00:11:04.71	164.78	43.10	-53.2	-56.0	13.7	0.00e+00	0	25	0	941621248	71	5316
2026-01-08 00:11:05.70	165.06	42.86	-53.5	-56.5	13.5	0.00e+00	0	25	0	943718400	72	5306
2026-01-08 00:11:06.70	165.33	42.62	-52.9	-55.6	14.1	0.00e+00	0	25	0	944766976	72	4802
2026-01-08 00:11:07.69	165.59	42.38	-51.9	-54.1	14.6	0.00e+00	0	25	0	946864128	70	4519
2026-01-08 00:11:08.69	165.85	42.14	-51.6	-53.6	14.7	0.00e+00	0	25	0	948961280	69	4502
2026-01-08 00:11:09.69	166.11	41.91	-51.4	-53.3	14.8	0.00e+00	0	25	0	951058432	69	4384
2026-01-08 00:11:10.69	166.37	41.67	-52.1	-54.3	14.4	0.00e+00	0	25	0	953155584	69	4909
2026-01-08 00:11:11.68	166.62	41.44	-53.8	-56.9	13.4	0.00e+00	0	25	0	954204160	72	5536
2026-01-08 00:11:12.68	166.87	41.20	-55.2	-59.7	11.9	1.50e-06	0	25	0	956301312	75	6449
2026-01-08 00:11:13.68	167.11	40.97	-54.5	-58.2	12.8	7.00e-07	0	25	0	958398464	75	5436
2026-01-08 00:11:14.67	167.35	40.74	-52.7	-55.3	14.2	0.00e+00	0	25	0	960495616	72	4605
2026-01-08 00:11:15.67	167.59	40.51	-50.8	-52.7	14.9	0.00e+00	0	25	0	961544192	68	4334
2026-01-08 00:11:16.67	167.82	40.28	-49.6	-51.2	15.1	0.00e+00	0	25	0	963641344	65	4303
2026-01-08 00:11:17.67	168.05	40.05	-49.7	-51.3	15.1	0.00e+00	0	25	0	965738496	65	4379
2026-01-08 00:11:18.67	168.28	39.82	-50.7	-52.7	14.7	0.00e+00	0	25	0	967835648	66	4816
2026-01-08 00:11:19.67	168.51	39.59	-52.1	-54.5	14.3	0.00e+00	0	25	0	969932800	69	5007
2026-01-08 00:11:20.67	168.73	39.37	-52.8	-55.4	14.0	0.00e+00	0	25	0	970981376	71	4968
2026-01-08 00:11:21.66	168.95	39.14	-52.3	-54.7	14.4	0.00e+00	0	25	0	973078528	71	4592
2026-01-08 00:11:22.67	169.16	38.91	-51.7	-53.9	14.7	0.00e+00	0	25	0	975175680	70	4399
2026-01-08 00:11:23.66	169.38	38.69	-50.7	-52.5	15.1	0.00e+00	0	25	0	977272832	68	4214
2026-01-08 00:11:24.66	169.59	38.47	-49.9	-51.5	15.2	0.00e+00	0	25	0	979369984	66	4230
2026-01-08 00:11:25.66	169.79	38.25	-50.0	-51.6	15.1	0.00e+00	0	25	0	980418560	66	4271
2026-01-08 00:11:26.66	170.00	38.03	-49.4	-50.9	15.2	0.00e+00	0	25	0	982515712	65	4185
2026-01-08 00:11:27.66	170.20	37.81	-50.5	-52.2	14.9	0.00e+00	0	25	0	984612864	66	4573
2026-01-08 00:11:28.66	170.40	37.59	-51.3	-53.2	14.6	0.00e+00	0	25	0	986710016	67	4845
2026-01-08 00:11:29.66	170.60	37.37	-52.4	-54.6	14.2	0.00e+00	0	25	0	987758592	69	5078
2026-01-08 00:11:30.65	170.79	37.16	-52.9	-55.4	14.0	0.00e+00	0	25	0	989855744	70	5233
2026-01-08 00:11:31.65	170.98	36.95	-53.1	-55.7	13.9	0.00e+00	0	25	0	991952896	71	5124
2026-01-08 00:11:32.64	171.17	36.73	-53.3	-56.0	13.8	0.00e+00	0	25	0	994050048	71	5305
2026-01-08 00:11:33.65	171.36	36.52	-52.8	-55.3	14.1	0.00e+00	0	25	0	996147200	71	4898
2026-01-08 00:11:34.65	171.54	36.31	-52.5	-54.8	14.4	0.00e+00	0	25	0	997195776	71	4634
2026-01-08 00:11:35.64	171.72	36.10	-52.1	-54.3	14.5	0.00e+00	0	25	0	999292928	70	4604
2026-01-08 00:11:36.63	171.90	35.89	-51.8	-53.9	14.7	0.00e+00	0	25	0	1001390080	70	4400
2026-01-08 00:11:37.64	172.08	35.68	-52.3	-54.6	14.3	0.00e+00	0	25	0	1003487232	70	4779
2026-01-08 00:11:38.64	172.26	35.47	-52.5	-54.7	14.3	0.00e+00	0	25	0	1004535808	70	4851
2026-01-08 00:11:39.64	172.43	35.26	-52.4	-54.7	14.3	0.00e+00	0	25	0	1006632960	70	4854
2026-01-08 00:11:40.63	172.60	35.06	-52.2	-54.4	14.4	0.00e+00	0	25	0	1008730112	70	4703
2026-01-08 00:11:41.61	172.77	34.86	-52.1	-54.3	14.4	0.00e+00	0	25	0	1010827264	70	4651
2026-01-08 00:11:42.62	172.94	34.65	-52.1	-54.3	14.5	0.00e+00	0	25	0	1012924416	70	4612
2026-01-08 00:11:43.61	173.10	34.45	-52.4	-54.7	14.2	0.00e+00	0	25	0	1013972992	70	4865
2026-01-08 00:11:44.61	173.26	34.25	-52.5	-54.9	14.2	0.00e+00	0	25	0	1016070144	70	4955
2026-01-08 00:11:45.61	173.42	34.05	-52.3	-54.5	14.4	0.00e+00	0	25	0	1018167296	70	4758
2026-01-08 00:11:46.61	173.58	33.85	-52.0	-54.1	14.6	0.00e+00	0	25	0	1020264448	70	4531
2026-01-08 00:11:47.61	173.74	33.65	-51.9	-54.0	14.7	0.00e+00	0	25	0	1022361600	70	4455
2026-01-08 00:11:48.61	173.90	33.46	-51.7	-53.7	14.7	0.00e+00	0	25	0	1023410176	69	4573
2026-01-08 00:11:49.61	174.05	33.26	-52.0	-54.2	14.4	0.00e+00	0	25	0	1025507328	69	4827
2026-01-08 00:11:50.60	174.20	33.07	-51.8	-53.9	14.5	0.00e+00	0	25	0	1027604480	69	4670
2026-01-08 00:11:51.60	174.35	32.87	-52.0	-54.1	14.5	0.00e+00	0	25	0	1029701632	69	4766
2026-01-08 00:11:52.60	174.50	32.68	-52.0	-54.1	14.4	0.00e+00	0	25	0	1030750208	69	4793
2026-01-08 00:11:53.61	174.65	32.49	-51.9	-54.0	14.5	0.00e+00	0	25	0	1032847360	69	4710
2026-01-08 00:11:54.61	174.80	32.30	-51.5	-53.5	14.7	0.00e+00	0	25	0	1034944512	69	4459
2026-01-08 00:11:55.61	174.94	32.11	-51.4	-53.3	14.8	0.00e+00	0	25	0	1037041664	69	4358
2026-01-08 00:11:56.61	175.08	31.92	-51.5	-53.4	14.8	0.00e+00	0	25	0	1039138816	69	4420
2026-01-08 00:11:57.61	175.22	31.73	-51.4	-53.3	14.8	0.00e+00	0	25	0	1040187392	69	4385
2026-01-08 00:11:58.61	175.36	31.54	-52.1	-54.2	14.4	0.00e+00	0	25	0	1042284544	69	4833
2026-01-08 00:11:59.61	175.50	31.36	-52.3	-54.5	14.2	0.00e+00	0	25	0	1044381696	69	4987
2026-01-08 00:12:00.61	175.63	31.17	-52.1	-54.2	14.3	0.00e+00	0	25	0	1046478848	69	4860
2026-01-08 00:12:01.61	175.77	30.99	-52.8	-55.3	13.9	0.00e+00	0	25	0	1048576000	70	5204
2026-01-08 00:12:02.60	175.90	30.81	-53.0	-55.6	13.8	0.00e+00	0	25	0	1049624576	71	5080
2026-01-08 00:12:03.60	176.03	30.62	-53.3	-56.0	13.7	0.00e+00	0	25	0	1051721728	71	5321
2026-01-08 00:12:04.59	176.16	30.45	-53.5	-56.3	13.6	0.00e+00	0	25	0	1053818880	72	5208
2026-01-08 00:12:05.59	176.29	30.27	-53.1	-55.8	13.9	0.00e+00	0	25	0	1055916032	72	4884
2026-01-08 00:12:06.59	176.42	30.09	-53.1	-55.8	14.0	0.00e+00	0	25	0	1056964608	72	4880
2026-01-08 00:12:07.58	176.54	29.91	-53.0	-55.5	14.1	0.00e+00	0	25	0	1059061760	72	4757
2026-01-08 00:12:08.58	176.67	29.73	-52.6	-54.9	14.4	0.00e+00	0	25	0	1061158912	71	4660
2026-01-08 00:12:09.58	176.79	29.56	-52.4	-54.6	14.5	0.00e+00	0	25	0	1063256064	71	4534
2026-01-08 00:12:10.58	176.91	29.38	-52.6	-54.8	14.4	0.00e+00	0	25	0	1065353216	71	4626
2026-01-08 00:12:11.57	177.03	29.21	-52.1	-54.2	14.5	0.00e+00	0	25	0	1066401792	70	4554
2026-01-08 00:12:12.57	177.15	29.04	-52.0	-54.1	14.6	0.00e+00	0	25	0	1068498944	70	4518
2026-01-08 00:12:13.57	177.27	28.86	-52.3	-54.5	14.4	0.00e+00	0	25	0	1070596096	70	4727
2026-01-08 00:12:14.57	177.39	28.69	-52.3	-54.5	14.4	0.00e+00	0	25	0	1072693248	70	4717
2026-01-08 00:12:15.56	177.50	28.52	-52.6	-54.9	14.2	0.00e+00	0	25	0	1073741824	70	4962
2026-01-08 00:12:16.55	177.61	28.36	-52.7	-55.0	14.1	0.00e+00	0	25	0	1075838976	70	5032
2026-01-08 00:12:17.56	177.73	28.18	-52.6	-54.9	14.2	0.00e+00	0	25	0	1077936128	70	4932
2026-01-08 00:12:18.55	177.84	28.02	-52.6	-54.9	14.1	0.00e+00	0	25	0	1080033280	70	4976
2026-01-08 00:12:19.55	177.95	27.85	-52.3	-54.5	14.3	0.00e+00	0	25	0	1082130432	70	4728
2026-01-08 00:12:20.55	178.06	27.69	-52.2	-54.3	14.5	0.00e+00	0	25	0	1083179008	70	4626
2026-01-08 00:12:21.55	178.17	27.52	-52.1	-54.2	14.5	0.00e+00	0	25	0	1085276160	70	4574
2026-01-08 00:12:22.55	178.28	27.36	-51.9	-53.8	14.7	0.00e+00	0	25	0	1087373312	70	4390
2026-01-08 00:12:23.55	178.39	27.19	-51.8	-53.8	14.7	0.00e+00	0	25	0	1089470464	70	4367
2026-01-08 00:12:24.55	178.49	27.03	-51.6	-53.6	14.7	0.00e+00	0	25	0	1091567616	69	4495
2026-01-08 00:12:25.55	178.60	26.87	-51.4	-53.2	14.9	0.00e+00	0	25	0	1092616192	69	4311
2026-01-08 00:12:26.55	178.70	26.71	-51.5	-53.3	14.8	0.00e+00	0	25	0	1094713344	69	4383
2026-01-08 00:12:27.55	178.80	26.55	-51.4	-53.2	14.8	0.00e+00	0	25	0	1096810496	69	4339
2026-01-08 00:12:28.55	178.91	26.39	-51.5	-53.4	14.7	0.00e+00	0	25	0	1098907648	69	4429
2026-01-08 00:12:29.55	179.01	26.23	-51.5	-53.3	14.8	0.00e+00	0	25	0	1101004800	69	4387
2026-01-08 00:12:30.54	179.11	26.08	-51.5	-53.4	14.7	0.00e+00	0	25	0	1102053376	69	4433
2026-01-08 00:12:31.54	179.21	25.92	-51.3	-53.2	14.9	0.00e+00	0	25	0	1104150528	69	4311
2026-01-08 00:12:32.54	179.30	25.76	-51.5	-53.5	14.7	0.00e+00	0	25	0	1106247680	69	4446
2026-01-08 00:12:33.55	179.40	25.61	-51.7	-53.6	14.7	0.00e+00	0	25	0	1108344832	69	4533
2026-01-08 00:12:34.55	179.50	25.45	-51.6	-53.5	14.7	0.00e+00	0	25	0	1109393408	69	4482
2026-01-08 00:12:35.55	179.59	25.30	-51.8	-53.9	14.5	0.00e+00	0	25	0	1111490560	69	4659
2026-01-08 00:12:36.54	179.69	25.15	-51.9	-53.9	14.5	0.00e+00	0	25	0	1113587712	69	4694
2026-01-08 00:12:37.55	179.78	25.00	-51.7	-53.7	14.6	0.00e+00	0	25	0	1115684864	69	4598
2026-01-08 00:12:38.54	179.87	24.85	-51.8	-53.9	14.5	0.00e+00	0	25	0	1117782016	69	4661
2026-01-08 00:12:39.54	179.97	24.70	-51.6	-53.6	14.6	0.00e+00	0	25	0	1118830592	69	4517
2026-01-08 00:12:40.54	180.06	24.55	-51.7	-53.7	14.6	0.00e+00	0	25	0	1120927744	69	4595
2026-01-08 00:12:41.54	180.15	24.40	-51.9	-54.0	14.5	0.00e+00	0	25	0	1123024896	69	4718
2026-01-08 00:12:42.54	180.24	24.25	-51.7	-53.8	14.6	0.00e+00	0	25	0	1125122048	69	4613
2026-01-08 00:12:43.54	180.33	24.10	-51.9	-53.9	14.5	0.00e+00	0	25	0	1127219200	69	4704
2026-01-08 00:12:44.53	180.41	23.96	-51.7	-53.7	14.6	0.00e+00	0	25	0	1128267776	69	4568
2026-01-08 00:12:45.52	180.50	23.81	-51.4	-53.3	14.7	0.00e+00	0	25	0	1130364928	69	4365
2026-01-08 00:12:46.52	180.59	23.67	-51.3	-53.1	14.9	0.00e+00	0	25	0	1132462080	69	4283
2026-01-08 00:12:47.52	180.67	23.53	-50.8	-52.6	14.9	0.00e+00	0	25	0	1134559232	68	4265
2026-01-08 00:12:48.52	180.76	23.38	-50.3	-51.9	15.1	0.00e+00	0	25	0	1135607808	67	4181
2026-01-08 00:12:49.52	180.84	23.24	-50.0	-51.5	15.1	0.00e+00	0	25	0	1137704960	66	4237
2026-01-08 00:12:50.52	180.92	23.10	-49.8	-51.4	15.2	0.00e+00	0	25	0	1139802112	66	4151
2026-01-08 00:12:51.51	181.01	22.96	-49.4	-50.8	15.2	0.00e+00	0	25	0	1141899264	65	4144
2026-01-08 00:12:52.51	181.09	22.82	-48.9	-50.4	15.3	0.00e+00	0	25	0	1143996416	64	4147
2026-01-08 00:12:53.52	181.17	22.68	-48.8	-50.2	15.4	0.00e+00	0	25	0	1145044992	64	4084
2026-01-08 00:12:54.52	181.25	22.54	-48.8	-50.2	15.4	0.00e+00	0	25	0	1147142144	64	4052
2026-01-08 00:12:55.52	181.33	22.40	-48.9	-50.3	15.3	0.00e+00	0	25	0	1149239296	64	4134
2026-01-08 00:12:56.52	181.41	22.26	-49.0	-50.5	15.2	0.00e+00	0	25	0	1151336448	64	4204
2026-01-08 00:12:57.51	181.49	22.13	-49.2	-50.7	15.2	0.00e+00	0	25	0	1153433600	64	4293
2026-01-08 00:12:58.51	181.57	21.99	-49.6	-51.1	15.0	0.00e+00	0	25	0	1154482176	64	4519
2026-01-08 00:12:59.51	181.64	21.85	-49.6	-51.2	15.0	0.00e+00	0	25	0	1156579328	64	4573
2026-01-08 00:13:00.51	181.72	21.72	-49.8	-51.3	14.9	0.00e+00	0	25	0	1158676480	64	4644
2026-01-08 00:13:01.50	181.80	21.59	-49.9	-51.5	14.8	0.00e+00	0	25	0	1160773632	64	4722
2026-01-08 00:13:02.50	181.87	21.45	-50.0	-51.6	14.9	0.00e+00	0	25	0	1161822208	65	4525
2026-01-08 00:13:03.50	181.95	21.32	-50.0	-51.6	14.9	0.00e+00	0	25	0	1163919360	65	4536
2026-01-08 00:13:04.50	182.02	21.19	-50.1	-51.8	14.8	0.00e+00	0	25	0	1166016512	65	4632
2026-01-08 00:13:05.49	182.09	21.06	-50.1	-51.8	14.8	0.00e+00	0	25	0	1168113664	65	4636
2026-01-08 00:13:06.49	182.17	20.93	-50.1	-51.8	14.9	0.00e+00	0	25	0	1170210816	65	4604
2026-01-08 00:13:07.48	182.24	20.80	-49.8	-51.4	15.0	0.00e+00	0	25	0	1171259392	65	4432
2026-01-08 00:13:08.48	182.31	20.67	-49.8	-51.5	15.0	0.00e+00	0	25	0	1173356544	65	4452
2026-01-08 00:13:09.47	182.38	20.54	-49.8	-51.4	15.0	0.00e+00	0	25	0	1175453696	65	4401
2026-01-08 00:13:10.47	182.45	20.41	-49.5	-51.1	15.1	0.00e+00	0	25	0	1177550848	65	4281
2026-01-08 00:13:11.47	182.52	20.28	-49.4	-50.9	15.2	0.00e+00	0	25	0	1179648000	65	4175
2026-01-08 00:13:12.46	182.59	20.16	-49.6	-51.2	15.1	0.00e+00	0	25	0	1180696576	65	4297
2026-01-08 00:13:13.46	182.66	20.03	-49.5	-51.1	15.2	0.00e+00	0	25	0	1182793728	65	4248
2026-01-08 00:13:14.46	182.73	19.91	-49.5	-51.1	15.2	0.00e+00	0	25	0	1184890880	65	4248
2026-01-08 00:13:15.46	182.80	19.78	-49.6	-51.2	15.1	0.00e+00	0	25	0	1186988032	65	4308
2026-01-08 00:13:16.45	182.86	19.66	-49.6	-51.1	15.1	0.00e+00	0	25	0	1188036608	65	4285
2026-01-08 00:13:17.45	182.93	19.53	-49.5	-51.1	15.1	0.00e+00	0	25	0	1190133760	65	4245
2026-01-08 00:13:18.45	183.00	19.41	-49.5	-51.1	15.1	0.00e+00	0	25	0	1192230912	65	4268
2026-01-08 00:13:19.46	183.06	19.28	-49.7	-51.3	15.1	0.00e+00	0	25	0	1194328064	65	4350
2026-01-08 00:13:20.46	183.13	19.16	-49.6	-51.1	15.1	0.00e+00	0	25	0	1196425216	65	4276
2026-01-08 00:13:21.46	183.20	19.04	-49.7	-51.3	15.0	0.00e+00	0	25	0	1197473792	65	4378
2026-01-08 00:13:22.46	183.26	18.92	-49.8	-51.4	14.9	0.00e+00	0	25	0	1199570944	65	4440
2026-01-08 00:13:23.46	183.32	18.80	-49.8	-51.4	15.0	0.00e+00	0	25	0	1201668096	65	4422
2026-01-08 00:13:24.46	183.39	18.68	-50.0	-51.7	14.9	0.00e+00	0	25	0	1203765248	65	4548
2026-01-08 00:13:25.46	183.45	18.56	-50.1	-51.7	14.9	0.00e+00	0	25	0	1204813824	65	4590
2026-01-08 00:13:26.45	183.51	18.44	-50.2	-51.9	14.8	0.00e+00	0	25	0	1206910976	65	4675
2026-01-08 00:13:27.44	183.57	18.32	-50.4	-52.1	14.7	0.00e+00	0	25	0	1209008128	65	4798
2026-01-08 00:13:28.45	183.64	18.20	-50.6	-52.3	14.7	0.00e+00	0	25	0	1211105280	66	4647
2026-01-08 00:13:29.44	183.70	18.09	-50.8	-52.6	14.6	0.00e+00	0	25	0	1213202432	66	4786
2026-01-08 00:13:30.44	183.76	17.97	-50.9	-52.8	14.7	0.00e+00	0	25	0	1214251008	67	4610
2026-01-08 00:13:31.44	183.82	17.85	-51.0	-52.9	14.6	0.00e+00	0	25	0	1216348160	67	4691
2026-01-08 00:13:32.44	183.88	17.74	-51.1	-53.0	14.6	0.00e+00	0	25	0	1218445312	67	4748
2026-01-08 00:13:33.43	183.94	17.62	-51.1	-53.0	14.6	0.00e+00	0	25	0	1220542464	67	4759
2026-01-08 00:13:34.43	184.00	17.51	-51.1	-53.0	14.6	0.00e+00	0	25	0	1222639616	67	4759
2026-01-08 00:13:35.43	184.06	17.39	-50.9	-52.8	14.7	0.00e+00	0	25	0	1223688192	67	4641
2026-01-08 00:13:36.42	184.11	17.28	-50.9	-52.7	14.7	0.00e+00	0	25	0	1225785344	67	4587
2026-01-08 00:13:37.42	184.17	17.17	-50.9	-52.8	14.7	0.00e+00	0	25	0	1227882496	67	4637
2026-01-08 00:13:38.42	184.23	17.05	-50.6	-52.5	14.8	0.00e+00	0	25	0	1229979648	67	4447
2026-01-08 00:13:39.42	184.29	16.94	-50.6	-52.4	14.9	0.00e+00	0	25	0	1231028224	67	4405
2026-01-08 00:13:40.42	184.34	16.83	-50.7	-52.5	14.8	0.00e+00	0	25	0	1233125376	67	4459
2026-01-08 00:13:41.42	184.40	16.72	-50.4	-52.2	15.0	0.00e+00	0	25	0	1235222528	67	4335
2026-01-08 00:13:42.42	184.46	16.61	-50.5	-52.1	15.0	0.00e+00	0	25	0	1237319680	67	4280
2026-01-08 00:13:43.41	184.51	16.50	-50.6	-52.2	14.9	0.00e+00	0	25	0	1239416832	67	4327
2026-01-08 00:13:44.42	184.57	16.39	-50.4	-52.0	15.0	0.00e+00	0	25	0	1240465408	67	4225
2026-01-08 00:13:45.42	184.62	16.28	-50.4	-52.0	15.1	0.00e+00	0	25	0	1242562560	67	4197
2026-01-08 00:13:46.42	184.68	16.17	-50.3	-51.8	15.1	0.00e+00	0	25	0	1244659712	67	4135
