passes_logs/2026/01/08/R3.2S_Murmansk/R3.2S_Murmansk__20260108_052227_NOAA_20_JPSS-1_rec.log

#Pass ID: 20260108_052227_NOAA 20 (JPSS-1)
#Satellite: NOAA 20 (JPSS-1)
#Configuration: NOAA 20
#almurnet v.1.7.20251203
#Start time: 2026-01-08 05:22:28

#Version: 2.2.20231116
#Station: R3.2S_Murmansk
#Location: 33.079688 lon 68.888172 lat
#TLE: 1 43013U 17073A   26006.30790171  .00000126  00000+0  80695-4 0  9991
#TLE: 2 43013  98.7629 307.3394 0001808  51.8724 308.2615 14.19533762421505

#Time	Az	El	Level	Level2	SNR	BER	BlckErr	Temp	State	Recorded	gain1	gain2
2026-01-08 05:22:28.30	65.35	2.04	-57.4	-73.4	3.8	1.49e+00	0	23	0	0	81	22138
2026-01-08 05:22:29.29	65.28	2.10	-57.4	-73.4	3.8	1.49e+00	0	22	104	0	79	24824
2026-01-08 05:22:30.30	65.22	2.15	-57.4	-73.4	3.8	1.49e+00	0	23	104	0	79	24787
2026-01-08 05:22:31.29	65.15	2.21	-57.4	-73.4	3.8	1.49e+00	0	23	104	0	79	24790
2026-01-08 05:22:32.30	65.09	2.27	-57.4	-73.4	3.8	1.49e+00	0	23	104	0	79	24795
2026-01-08 05:22:33.30	65.02	2.32	-57.4	-73.4	3.8	1.49e+00	0	23	104	0	79	24732
2026-01-08 05:22:34.29	64.96	2.38	-57.3	-73.4	3.8	1.49e+00	0	23	104	0	79	24712
2026-01-08 05:22:35.29	64.89	2.44	-57.4	-73.4	3.8	1.49e+00	0	23	104	0	79	24754
2026-01-08 05:22:36.29	64.83	2.49	-57.4	-73.4	3.8	1.49e+00	0	23	104	0	79	24773
2026-01-08 05:22:37.29	64.76	2.55	-57.3	-73.4	3.8	1.49e+00	0	23	104	0	79	24751
2026-01-08 05:22:38.29	64.70	2.61	-57.3	-73.3	3.8	1.49e+00	0	23	104	0	79	24598
2026-01-08 05:22:39.30	64.63	2.67	-57.4	-73.4	3.8	1.49e+00	0	23	104	0	79	24741
2026-01-08 05:22:40.30	64.56	2.73	-57.3	-73.3	3.8	1.49e+00	0	23	104	0	79	24666
2026-01-08 05:22:41.30	64.50	2.78	-57.3	-73.3	3.8	1.49e+00	0	23	104	0	79	24657
2026-01-08 05:22:42.30	64.43	2.84	-57.3	-73.3	3.8	1.49e+00	0	23	104	0	79	24672
2026-01-08 05:22:43.29	64.36	2.90	-57.4	-73.3	3.8	1.49e+00	0	23	104	0	79	24684
2026-01-08 05:22:44.30	64.29	2.96	-57.4	-73.4	3.8	1.49e+00	0	23	104	0	79	24700
2026-01-08 05:22:45.30	64.22	3.01	-57.4	-73.4	3.8	1.49e+00	0	23	104	0	79	24726
2026-01-08 05:22:46.30	64.16	3.07	-57.4	-73.4	3.8	1.49e+00	0	23	104	0	79	24714
2026-01-08 05:22:47.31	64.09	3.13	-57.3	-73.3	3.8	1.49e+00	0	23	104	0	79	24681
2026-01-08 05:22:48.32	64.02	3.19	-57.4	-73.4	3.8	1.49e+00	0	23	104	0	79	24779
2026-01-08 05:22:49.32	63.95	3.25	-57.4	-73.4	3.8	1.49e+00	0	23	104	0	79	24815
2026-01-08 05:22:50.32	63.88	3.31	-57.3	-73.4	3.8	1.49e+00	0	23	104	0	79	24778
2026-01-08 05:22:51.32	63.81	3.37	-57.3	-73.4	3.8	1.49e+00	0	23	104	0	79	24712
2026-01-08 05:22:52.32	63.74	3.42	-57.4	-73.3	3.8	1.49e+00	0	23	104	0	79	24686
2026-01-08 05:22:53.32	63.67	3.48	-57.4	-73.3	3.8	1.49e+00	0	23	104	0	79	24643
2026-01-08 05:22:54.31	63.60	3.54	-57.4	-73.3	3.8	1.49e+00	0	23	104	0	79	24626
2026-01-08 05:22:55.31	63.53	3.60	-57.4	-73.3	3.8	1.49e+00	0	23	104	0	79	24580
2026-01-08 05:22:56.31	63.45	3.66	-57.3	-73.4	3.8	1.49e+00	0	23	104	0	79	24737
2026-01-08 05:22:57.31	63.38	3.72	-57.3	-73.3	3.8	1.49e+00	0	23	104	0	79	24672
2026-01-08 05:22:58.31	63.31	3.78	-57.3	-73.4	3.8	1.49e+00	0	23	104	0	79	24744
2026-01-08 05:22:59.31	63.24	3.84	-57.3	-73.4	3.8	1.49e+00	0	23	104	0	79	24764
2026-01-08 05:23:00.31	63.17	3.90	-57.3	-73.3	3.8	1.49e+00	0	23	104	0	79	24635
2026-01-08 05:23:01.30	63.09	3.95	-57.3	-73.3	3.8	1.49e+00	0	23	104	0	79	24553
2026-01-08 05:23:02.30	63.02	4.01	-57.4	-73.3	3.8	1.49e+00	0	23	104	0	79	24427
2026-01-08 05:23:03.30	62.95	4.07	-57.3	-73.3	3.8	1.49e+00	0	23	104	0	79	24471
2026-01-08 05:23:04.29	62.87	4.13	-57.3	-73.3	3.8	1.49e+00	0	23	104	0	79	24627
2026-01-08 05:23:05.29	62.80	4.19	-57.3	-73.3	3.8	1.49e+00	0	24	104	0	79	24660
2026-01-08 05:23:06.29	62.72	4.25	-57.4	-73.4	3.8	1.49e+00	0	24	104	0	79	24747
2026-01-08 05:23:07.29	62.65	4.31	-57.3	-73.3	3.8	1.49e+00	0	24	104	0	79	24560
2026-01-08 05:23:08.29	62.57	4.37	-57.3	-73.1	3.8	1.49e+00	0	24	104	0	79	23936
2026-01-08 05:23:09.29	62.50	4.43	-57.3	-72.6	3.8	1.49e+00	0	24	104	0	79	22598
2026-01-08 05:23:10.28	62.42	4.49	-57.3	-71.9	3.8	1.49e+00	0	24	104	0	79	20950
2026-01-08 05:23:11.27	62.35	4.55	-57.3	-71.4	3.8	1.49e+00	0	23	104	0	79	19710
2026-01-08 05:23:12.27	62.27	4.61	-57.2	-70.8	3.9	1.48e+00	0	24	104	0	79	18316
2026-01-08 05:23:13.27	62.20	4.67	-57.2	-69.7	4.2	1.47e+00	0	23	0	0	79	16256
2026-01-08 05:23:14.27	62.12	4.73	-57.1	-69.0	4.4	1.35e+00	43	24	0	0	79	14928
2026-01-08 05:23:15.27	62.04	4.79	-57.1	-68.1	4.8	8.53e-01	0	24	0	2097152	79	13460
2026-01-08 05:23:16.27	61.96	4.85	-57.0	-67.1	5.3	6.48e-01	0	24	0	4194304	79	12028
2026-01-08 05:23:17.26	61.89	4.91	-56.9	-66.3	5.8	4.36e-01	0	24	0	5242880	79	10988
2026-01-08 05:23:18.26	61.81	4.97	-56.8	-65.6	6.2	2.61e-01	0	24	0	7340032	79	10067
2026-01-08 05:23:19.26	61.73	5.03	-56.7	-65.3	6.5	1.94e-01	0	24	0	9437184	79	9732
2026-01-08 05:23:20.27	61.65	5.10	-56.8	-65.5	6.4	1.85e-01	0	24	0	11534336	79	10022
2026-01-08 05:23:21.27	61.57	5.16	-57.1	-67.4	5.1	6.33e-01	0	24	0	13631488	79	12411
2026-01-08 05:23:22.26	61.49	5.22	-56.6	-64.5	7.0	1.85e-01	0	24	0	14680064	79	8949
2026-01-08 05:23:23.26	61.41	5.28	-55.4	-60.1	11.1	3.96e-05	0	24	0	16777216	76	6373
2026-01-08 05:23:24.26	61.33	5.34	-57.1	-69.3	3.9	8.70e-01	0	24	104	17825792	79	15569
2026-01-08 05:23:25.27	61.25	5.40	-55.0	-58.9	11.9	3.12e-05	0	24	0	18874368	76	5568
2026-01-08 05:23:26.27	61.17	5.46	-55.0	-59.0	11.8	1.06e-05	0	24	0	20971520	76	5603
2026-01-08 05:23:27.26	61.09	5.53	-54.9	-58.8	12.0	8.30e-06	0	24	0	22020096	76	5499
2026-01-08 05:23:28.26	61.00	5.59	-54.7	-58.4	12.4	2.20e-06	0	24	0	24117248	76	5226
2026-01-08 05:23:29.25	60.92	5.65	-54.5	-58.1	12.4	0.00e+00	0	24	0	26214400	75	5345
2026-01-08 05:23:30.24	60.84	5.71	-54.2	-57.5	12.8	7.00e-07	0	24	0	28311552	75	5014
2026-01-08 05:23:31.25	60.76	5.77	-54.2	-57.5	12.8	0.00e+00	0	24	0	29360128	74	5291
2026-01-08 05:23:32.24	60.67	5.83	-54.1	-57.3	12.9	7.00e-07	0	24	0	31457280	74	5185
2026-01-08 05:23:33.24	60.59	5.90	-54.0	-57.1	13.0	0.00e+00	0	24	0	33554432	74	5074
2026-01-08 05:23:34.24	60.51	5.96	-54.0	-57.2	13.0	0.00e+00	0	24	0	35651584	74	5134
2026-01-08 05:23:35.23	60.42	6.02	-54.0	-57.2	13.0	0.00e+00	0	24	0	37748736	74	5129
2026-01-08 05:23:36.24	60.34	6.08	-53.9	-56.9	13.2	7.00e-07	0	24	0	38797312	74	4975
2026-01-08 05:23:37.24	60.25	6.14	-53.9	-56.9	13.2	0.00e+00	0	24	0	40894464	74	4979
2026-01-08 05:23:38.24	60.16	6.21	-53.9	-56.9	13.3	0.00e+00	0	24	0	42991616	74	4935
2026-01-08 05:23:39.24	60.08	6.27	-53.9	-56.9	13.2	0.00e+00	0	24	0	45088768	74	4981
2026-01-08 05:23:40.24	59.99	6.33	-53.8	-56.7	13.3	0.00e+00	0	24	0	47185920	74	4864
2026-01-08 05:23:41.23	59.91	6.39	-53.9	-56.9	13.3	0.00e+00	0	24	0	48234496	74	4965
2026-01-08 05:23:42.22	59.82	6.46	-53.8	-56.8	13.3	0.00e+00	0	24	0	50331648	74	4903
2026-01-08 05:23:43.22	59.73	6.52	-54.0	-57.0	13.2	0.00e+00	0	24	0	52428800	74	5032
2026-01-08 05:23:44.22	59.64	6.58	-54.0	-57.1	13.2	0.00e+00	0	24	0	54525952	74	5052
2026-01-08 05:23:45.22	59.56	6.65	-53.9	-57.0	13.2	0.00e+00	0	24	0	56623104	74	5017
2026-01-08 05:23:46.21	59.47	6.71	-54.1	-57.2	13.1	0.00e+00	0	24	0	57671680	74	5155
2026-01-08 05:23:47.21	59.38	6.77	-54.1	-57.2	13.1	0.00e+00	0	24	0	59768832	74	5112
2026-01-08 05:23:48.20	59.29	6.84	-54.1	-57.2	13.1	0.00e+00	0	24	0	61865984	74	5123
2026-01-08 05:23:49.20	59.20	6.90	-53.9	-57.0	13.2	0.00e+00	0	24	0	63963136	74	4984
2026-01-08 05:23:50.20	59.11	6.96	-53.9	-56.9	13.3	0.00e+00	0	24	0	65011712	74	4975
2026-01-08 05:23:51.19	59.02	7.03	-53.9	-56.8	13.3	0.00e+00	0	24	0	67108864	74	4917
2026-01-08 05:23:52.19	58.93	7.09	-53.9	-56.8	13.4	0.00e+00	0	24	0	69206016	74	4922
2026-01-08 05:23:53.20	58.84	7.15	-53.8	-56.8	13.3	0.00e+00	0	24	0	71303168	74	4887
2026-01-08 05:23:54.20	58.74	7.22	-53.9	-56.9	13.3	0.00e+00	0	24	0	73400320	74	4946
2026-01-08 05:23:55.19	58.65	7.28	-54.0	-57.0	13.3	0.00e+00	0	24	0	74448896	74	4992
2026-01-08 05:23:56.18	58.56	7.34	-53.9	-56.8	13.3	0.00e+00	0	24	0	76546048	74	4899
2026-01-08 05:23:57.18	58.47	7.41	-53.9	-56.8	13.4	0.00e+00	0	24	0	78643200	74	4899
2026-01-08 05:23:58.17	58.37	7.47	-54.0	-57.0	13.3	0.00e+00	0	24	0	80740352	74	5001
2026-01-08 05:23:59.16	58.28	7.54	-53.8	-56.7	13.4	0.00e+00	0	24	0	81788928	74	4857
2026-01-08 05:24:00.15	58.19	7.60	-53.8	-56.7	13.4	0.00e+00	0	24	0	83886080	74	4865
2026-01-08 05:24:01.15	58.09	7.66	-53.8	-56.6	13.4	0.00e+00	0	24	0	85983232	74	4806
2026-01-08 05:24:02.15	58.00	7.73	-53.8	-56.6	13.5	0.00e+00	0	24	0	88080384	74	4789
2026-01-08 05:24:03.15	57.90	7.79	-53.8	-56.7	13.5	0.00e+00	0	24	0	90177536	74	4829
2026-01-08 05:24:04.14	57.81	7.86	-53.8	-56.6	13.5	0.00e+00	0	24	0	91226112	74	4810
2026-01-08 05:24:05.13	57.71	7.92	-53.7	-56.5	13.6	0.00e+00	0	24	0	93323264	74	4722
2026-01-08 05:24:06.13	57.61	7.99	-53.7	-56.5	13.4	0.00e+00	0	24	0	95420416	73	5032
2026-01-08 05:24:07.12	57.52	8.05	-53.7	-56.5	13.5	0.00e+00	0	24	0	97517568	73	5040
2026-01-08 05:24:08.12	57.42	8.12	-53.5	-56.2	13.7	0.00e+00	0	24	0	98566144	73	4819
2026-01-08 05:24:09.11	57.32	8.18	-53.5	-56.2	13.7	0.00e+00	0	24	0	100663296	73	4861
2026-01-08 05:24:10.10	57.22	8.25	-53.4	-56.1	13.7	0.00e+00	0	24	0	102760448	73	4762
2026-01-08 05:24:11.10	57.12	8.31	-53.5	-56.2	13.7	0.00e+00	0	24	0	104857600	73	4837
2026-01-08 05:24:12.10	57.02	8.38	-53.4	-56.0	13.8	0.00e+00	0	24	0	106954752	73	4706
2026-01-08 05:24:13.10	56.92	8.44	-53.4	-56.0	13.8	0.00e+00	0	24	0	108003328	73	4722
2026-01-08 05:24:14.09	56.82	8.51	-53.4	-56.0	13.8	0.00e+00	0	24	0	110100480	73	4756
2026-01-08 05:24:15.09	56.72	8.57	-53.4	-56.0	13.8	0.00e+00	0	24	0	112197632	73	4751
2026-01-08 05:24:16.09	56.62	8.64	-53.5	-56.1	13.7	0.00e+00	0	24	0	114294784	73	4788
2026-01-08 05:24:17.08	56.52	8.71	-53.5	-56.2	13.7	0.00e+00	0	24	0	115343360	73	4823
2026-01-08 05:24:18.08	56.42	8.77	-53.4	-56.0	13.8	0.00e+00	0	24	0	117440512	73	4742
2026-01-08 05:24:19.09	56.31	8.84	-53.5	-56.1	13.7	0.00e+00	0	24	0	119537664	73	4791
2026-01-08 05:24:20.08	56.21	8.90	-53.4	-56.1	13.7	0.00e+00	0	24	0	121634816	73	4766
2026-01-08 05:24:21.08	56.10	8.97	-53.3	-55.9	13.8	0.00e+00	0	24	0	123731968	73	4691
2026-01-08 05:24:22.07	56.00	9.04	-53.3	-55.8	13.9	0.00e+00	0	24	0	124780544	73	4643
2026-01-08 05:24:23.07	55.90	9.10	-53.4	-56.0	13.9	0.00e+00	0	24	0	126877696	73	4716
2026-01-08 05:24:24.07	55.79	9.17	-53.4	-55.9	13.8	0.00e+00	0	24	0	128974848	73	4701
2026-01-08 05:24:25.07	55.68	9.24	-53.4	-56.0	13.8	0.00e+00	0	24	0	131072000	73	4737
2026-01-08 05:24:26.07	55.58	9.30	-53.5	-56.2	13.8	0.00e+00	0	24	0	133169152	73	4816
2026-01-08 05:24:27.07	55.47	9.37	-53.5	-56.1	13.7	0.00e+00	0	24	0	134217728	73	4803
2026-01-08 05:24:28.07	55.36	9.44	-53.6	-56.2	13.7	0.00e+00	0	24	0	136314880	73	4862
2026-01-08 05:24:29.06	55.26	9.50	-53.4	-55.9	13.9	0.00e+00	0	24	0	138412032	73	4704
2026-01-08 05:24:30.06	55.15	9.57	-53.5	-56.2	13.7	0.00e+00	0	24	0	140509184	73	4817
2026-01-08 05:24:31.06	55.04	9.64	-53.5	-56.1	13.8	0.00e+00	0	24	0	141557760	73	4802
2026-01-08 05:24:32.06	54.93	9.70	-53.5	-56.1	13.7	0.00e+00	0	24	0	143654912	73	4811
2026-01-08 05:24:33.05	54.82	9.77	-53.5	-56.1	13.7	0.00e+00	0	24	0	145752064	73	4806
2026-01-08 05:24:34.05	54.71	9.84	-53.6	-56.3	13.7	0.00e+00	0	24	0	147849216	73	4883
2026-01-08 05:24:35.05	54.60	9.91	-53.6	-56.3	13.7	0.00e+00	0	24	0	149946368	73	4919
2026-01-08 05:24:36.05	54.48	9.97	-53.6	-56.2	13.7	0.00e+00	0	24	0	150994944	73	4867
2026-01-08 05:24:37.04	54.37	10.04	-53.6	-56.4	13.6	0.00e+00	0	24	0	153092096	73	4927
2026-01-08 05:24:38.04	54.26	10.11	-53.6	-56.3	13.6	0.00e+00	0	24	0	155189248	73	4901
2026-01-08 05:24:39.04	54.15	10.17	-53.7	-56.4	13.6	0.00e+00	0	24	0	157286400	73	4980
2026-01-08 05:24:40.05	54.03	10.24	-53.6	-56.3	13.7	0.00e+00	0	24	0	158334976	73	4906
2026-01-08 05:24:41.05	53.92	10.31	-53.6	-56.2	13.7	0.00e+00	0	24	0	160432128	73	4868
2026-01-08 05:24:42.05	53.80	10.38	-53.5	-56.1	13.8	0.00e+00	0	24	0	162529280	73	4795
2026-01-08 05:24:43.05	53.69	10.45	-53.5	-56.0	13.8	0.00e+00	0	24	0	164626432	73	4747
2026-01-08 05:24:44.05	53.57	10.52	-53.5	-56.1	13.8	0.00e+00	0	24	0	166723584	73	4769
2026-01-08 05:24:45.04	53.45	10.58	-53.5	-56.1	13.8	0.00e+00	0	24	0	167772160	73	4806
2026-01-08 05:24:46.04	53.34	10.65	-53.6	-56.2	13.7	0.00e+00	0	24	0	169869312	73	4839
2026-01-08 05:24:47.04	53.22	10.72	-53.5	-56.1	13.8	0.00e+00	0	24	0	171966464	73	4783
2026-01-08 05:24:48.05	53.10	10.79	-53.5	-56.1	13.7	0.00e+00	0	24	0	174063616	73	4813
2026-01-08 05:24:49.05	52.98	10.86	-53.4	-56.0	13.8	0.00e+00	0	24	0	176160768	73	4729
2026-01-08 05:24:50.04	52.86	10.92	-53.3	-55.8	13.9	0.00e+00	0	24	0	177209344	73	4647
2026-01-08 05:24:51.04	52.74	10.99	-53.3	-55.8	14.0	0.00e+00	0	24	0	179306496	73	4610
2026-01-08 05:24:52.04	52.62	11.06	-53.2	-55.7	13.9	0.00e+00	0	24	0	181403648	72	4839
2026-01-08 05:24:53.04	52.50	11.13	-53.2	-55.7	14.0	0.00e+00	0	24	0	183500800	72	4831
2026-01-08 05:24:54.03	52.38	11.20	-53.1	-55.6	14.0	0.00e+00	0	24	0	185597952	72	4769
2026-01-08 05:24:55.04	52.26	11.27	-53.1	-55.5	14.0	0.00e+00	0	24	0	186646528	72	4733
2026-01-08 05:24:56.03	52.13	11.34	-53.0	-55.4	14.1	0.00e+00	0	24	0	188743680	72	4687
2026-01-08 05:24:57.04	52.01	11.41	-53.0	-55.3	14.2	0.00e+00	0	24	0	190840832	72	4609
2026-01-08 05:24:58.04	51.89	11.47	-53.0	-55.3	14.1	0.00e+00	0	24	0	192937984	72	4643
2026-01-08 05:24:59.04	51.76	11.54	-53.0	-55.3	14.2	0.00e+00	0	24	0	193986560	72	4629
2026-01-08 05:25:00.03	51.64	11.61	-52.8	-55.1	14.3	0.00e+00	0	24	0	196083712	72	4496
2026-01-08 05:25:01.03	51.51	11.68	-52.9	-55.2	14.3	0.00e+00	0	24	0	198180864	72	4552
2026-01-08 05:25:02.02	51.38	11.75	-52.8	-55.1	14.2	0.00e+00	0	24	0	200278016	72	4496
2026-01-08 05:25:03.02	51.26	11.82	-52.9	-55.2	14.2	0.00e+00	0	24	0	202375168	72	4575
2026-01-08 05:25:04.01	51.13	11.89	-53.0	-55.3	14.2	0.00e+00	0	24	0	203423744	72	4618
2026-01-08 05:25:05.00	51.00	11.96	-52.9	-55.2	14.2	0.00e+00	0	24	0	205520896	72	4557
2026-01-08 05:25:06.00	50.87	12.03	-53.0	-55.2	14.2	0.00e+00	0	24	0	207618048	72	4587
2026-01-08 05:25:07.00	50.74	12.10	-53.0	-55.3	14.2	0.00e+00	0	24	0	209715200	72	4614
2026-01-08 05:25:07.99	50.62	12.16	-53.0	-55.3	14.2	0.00e+00	0	24	0	210763776	72	4606
2026-01-08 05:25:08.99	50.48	12.23	-52.9	-55.2	14.3	0.00e+00	0	24	0	212860928	72	4552
2026-01-08 05:25:09.99	50.35	12.30	-52.9	-55.1	14.3	0.00e+00	0	24	0	214958080	72	4535
2026-01-08 05:25:10.99	50.22	12.37	-52.9	-55.2	14.2	0.00e+00	0	24	0	217055232	72	4565
2026-01-08 05:25:11.99	50.09	12.44	-52.9	-55.2	14.2	0.00e+00	0	24	0	219152384	72	4561
2026-01-08 05:25:12.98	49.96	12.51	-52.9	-55.1	14.3	0.00e+00	0	24	0	220200960	72	4541
2026-01-08 05:25:13.97	49.82	12.58	-52.8	-55.1	14.3	0.00e+00	0	24	0	222298112	72	4495
2026-01-08 05:25:14.97	49.69	12.65	-52.8	-55.0	14.4	0.00e+00	0	24	0	224395264	72	4490
2026-01-08 05:25:15.98	49.55	12.72	-52.6	-54.8	14.3	0.00e+00	0	24	0	226492416	71	4619
2026-01-08 05:25:16.98	49.41	12.79	-52.7	-54.9	14.2	0.00e+00	0	24	0	228589568	71	4655
2026-01-08 05:25:17.98	49.28	12.86	-52.6	-54.8	14.3	0.00e+00	0	24	0	229638144	71	4635
2026-01-08 05:25:18.98	49.14	12.93	-52.6	-54.7	14.4	0.00e+00	0	24	0	231735296	71	4570
2026-01-08 05:25:19.98	49.00	13.00	-52.5	-54.6	14.4	0.00e+00	0	24	0	233832448	71	4516
2026-01-08 05:25:20.99	48.86	13.07	-52.4	-54.5	14.5	0.00e+00	0	24	0	235929600	71	4477
2026-01-08 05:25:21.99	48.72	13.14	-52.4	-54.6	14.5	0.00e+00	0	24	0	238026752	71	4495
2026-01-08 05:25:22.99	48.58	13.21	-52.4	-54.5	14.5	0.00e+00	0	24	0	239075328	71	4451
2026-01-08 05:25:23.99	48.44	13.28	-52.4	-54.5	14.5	0.00e+00	0	24	0	241172480	71	4449
2026-01-08 05:25:24.98	48.30	13.35	-52.4	-54.5	14.6	0.00e+00	0	24	0	243269632	71	4448
2026-01-08 05:25:25.98	48.16	13.42	-52.4	-54.4	14.6	0.00e+00	0	24	0	245366784	71	4429
2026-01-08 05:25:26.98	48.02	13.49	-52.4	-54.4	14.6	0.00e+00	0	24	0	246415360	71	4431
2026-01-08 05:25:27.98	47.87	13.56	-52.4	-54.5	14.5	0.00e+00	0	24	0	248512512	71	4468
2026-01-08 05:25:28.98	47.73	13.63	-52.4	-54.4	14.5	0.00e+00	0	24	0	250609664	71	4439
2026-01-08 05:25:29.99	47.58	13.71	-52.4	-54.5	14.5	0.00e+00	0	24	0	252706816	71	4468
2026-01-08 05:25:30.98	47.44	13.78	-52.5	-54.6	14.5	0.00e+00	0	24	0	254803968	71	4505
2026-01-08 05:25:31.98	47.29	13.85	-52.5	-54.6	14.5	0.00e+00	0	24	0	255852544	71	4524
2026-01-08 05:25:32.98	47.14	13.92	-52.5	-54.6	14.5	0.00e+00	0	24	0	257949696	71	4524
2026-01-08 05:25:33.98	47.00	13.99	-52.5	-54.6	14.5	0.00e+00	0	24	0	260046848	71	4513
2026-01-08 05:25:34.97	46.85	14.06	-52.5	-54.6	14.5	0.00e+00	0	24	0	262144000	71	4519
2026-01-08 05:25:35.97	46.70	14.13	-52.5	-54.7	14.4	0.00e+00	0	24	0	264241152	71	4548
2026-01-08 05:25:36.96	46.55	14.20	-52.6	-54.7	14.4	0.00e+00	0	24	0	265289728	71	4579
2026-01-08 05:25:37.95	46.40	14.27	-52.6	-54.8	14.3	0.00e+00	0	24	0	267386880	71	4617
2026-01-08 05:25:38.95	46.25	14.34	-52.7	-54.8	14.3	0.00e+00	0	24	0	269484032	71	4628
2026-01-08 05:25:39.95	46.10	14.41	-52.7	-54.9	14.3	0.00e+00	0	24	0	271581184	71	4659
2026-01-08 05:25:40.95	45.95	14.48	-52.6	-54.8	14.4	0.00e+00	0	24	0	272629760	71	4603
2026-01-08 05:25:41.95	45.79	14.55	-52.7	-54.8	14.4	0.00e+00	0	24	0	274726912	71	4626
2026-01-08 05:25:42.95	45.64	14.62	-52.7	-54.8	14.3	0.00e+00	0	24	0	276824064	71	4649
2026-01-08 05:25:43.94	45.48	14.69	-52.7	-54.9	14.3	0.00e+00	0	24	0	278921216	71	4687
2026-01-08 05:25:44.94	45.33	14.76	-52.8	-54.9	14.3	0.00e+00	0	24	0	281018368	71	4698
2026-01-08 05:25:45.94	45.17	14.83	-52.8	-54.9	14.3	0.00e+00	0	24	0	282066944	71	4701
2026-01-08 05:25:46.94	45.01	14.90	-52.8	-55.0	14.2	0.00e+00	0	24	0	284164096	71	4707
2026-01-08 05:25:47.93	44.86	14.97	-52.8	-55.1	14.2	0.00e+00	0	24	0	286261248	71	4761
2026-01-08 05:25:48.93	44.70	15.04	-52.9	-55.1	14.2	0.00e+00	0	24	0	288358400	71	4808
2026-01-08 05:25:49.93	44.54	15.11	-53.1	-55.5	14.0	0.00e+00	0	24	0	289406976	71	4992
2026-01-08 05:25:50.93	44.38	15.18	-53.1	-55.4	14.0	0.00e+00	0	24	0	291504128	71	4948
2026-01-08 05:25:51.93	44.22	15.25	-53.1	-55.5	14.0	0.00e+00	0	24	0	293601280	71	4993
2026-01-08 05:25:52.92	44.06	15.32	-53.1	-55.4	14.0	0.00e+00	0	25	0	295698432	71	4938
2026-01-08 05:25:53.92	43.89	15.39	-53.0	-55.2	14.1	0.00e+00	0	24	0	297795584	71	4868
2026-01-08 05:25:54.92	43.73	15.46	-53.0	-55.2	14.1	0.00e+00	0	24	0	298844160	71	4859
2026-01-08 05:25:55.92	43.57	15.53	-52.9	-55.1	14.2	0.00e+00	0	24	0	300941312	71	4779
2026-01-08 05:25:56.92	43.40	15.60	-52.9	-55.2	14.1	0.00e+00	0	24	0	303038464	71	4840
2026-01-08 05:25:57.92	43.24	15.67	-52.9	-55.1	14.2	0.00e+00	0	24	0	305135616	71	4807
2026-01-08 05:25:58.92	43.07	15.74	-53.0	-55.2	14.1	0.00e+00	0	24	0	307232768	71	4846
2026-01-08 05:25:59.91	42.90	15.81	-52.9	-55.2	14.1	0.00e+00	0	24	0	308281344	71	4825
2026-01-08 05:26:00.91	42.74	15.88	-52.9	-55.1	14.2	0.00e+00	0	24	0	310378496	71	4814
2026-01-08 05:26:01.91	42.57	15.95	-53.0	-55.2	14.1	0.00e+00	0	25	0	312475648	71	4848
2026-01-08 05:26:02.91	42.40	16.02	-53.0	-55.3	14.1	0.00e+00	0	24	0	314572800	71	4890
2026-01-08 05:26:03.90	42.23	16.09	-53.0	-55.3	14.1	0.00e+00	0	24	0	316669952	71	4890
2026-01-08 05:26:04.91	42.05	16.16	-53.1	-55.4	14.0	0.00e+00	0	24	0	317718528	71	4952
2026-01-08 05:26:05.90	41.88	16.23	-53.1	-55.5	14.0	0.00e+00	0	24	0	319815680	71	4997
2026-01-08 05:26:06.90	41.71	16.30	-53.1	-55.4	14.0	0.00e+00	0	24	0	321912832	71	4948
2026-01-08 05:26:07.90	41.54	16.37	-53.1	-55.3	14.1	0.00e+00	0	25	0	324009984	71	4916
2026-01-08 05:26:08.91	41.36	16.44	-53.0	-55.3	14.1	0.00e+00	0	24	0	325058560	71	4914
2026-01-08 05:26:09.91	41.18	16.51	-53.1	-55.3	14.0	0.00e+00	0	24	0	327155712	71	4926
2026-01-08 05:26:10.91	41.01	16.58	-52.9	-55.2	14.2	0.00e+00	0	24	0	329252864	71	4822
2026-01-08 05:26:11.90	40.83	16.64	-53.1	-55.4	14.0	0.00e+00	0	24	0	331350016	71	4943
2026-01-08 05:26:12.90	40.66	16.71	-53.1	-55.3	14.1	0.00e+00	0	25	0	333447168	71	4911
2026-01-08 05:26:13.90	40.48	16.78	-53.0	-55.3	14.1	0.00e+00	0	24	0	334495744	71	4891
2026-01-08 05:26:14.89	40.30	16.85	-52.9	-55.2	14.1	0.00e+00	0	24	0	336592896	71	4824
2026-01-08 05:26:15.89	40.12	16.92	-53.0	-55.2	14.1	0.00e+00	0	24	0	338690048	71	4865
2026-01-08 05:26:16.89	39.94	16.99	-53.1	-55.4	14.0	0.00e+00	0	24	0	340787200	71	4931
2026-01-08 05:26:17.88	39.76	17.06	-53.1	-55.4	14.0	0.00e+00	0	24	0	341835776	71	4940
2026-01-08 05:26:18.88	39.57	17.12	-53.0	-55.3	14.1	0.00e+00	0	24	0	343932928	71	4884
2026-01-08 05:26:19.89	39.39	17.19	-53.0	-55.3	14.1	0.00e+00	0	24	0	346030080	71	4889
2026-01-08 05:26:20.89	39.20	17.26	-53.1	-55.3	14.0	0.00e+00	0	24	0	348127232	71	4923
2026-01-08 05:26:21.89	39.02	17.33	-53.1	-55.3	14.1	0.00e+00	0	24	0	350224384	71	4917
2026-01-08 05:26:22.89	38.83	17.40	-53.0	-55.3	14.1	0.00e+00	0	24	0	351272960	71	4894
2026-01-08 05:26:23.88	38.65	17.47	-52.9	-55.0	14.3	0.00e+00	0	24	0	353370112	71	4746
2026-01-08 05:26:24.88	38.46	17.53	-52.8	-54.9	14.3	0.00e+00	0	24	0	355467264	71	4671
2026-01-08 05:26:25.88	38.27	17.60	-52.6	-54.7	14.4	0.00e+00	0	24	0	357564416	71	4579
2026-01-08 05:26:26.88	38.08	17.67	-52.7	-54.8	14.4	0.00e+00	0	25	0	359661568	71	4625
2026-01-08 05:26:27.88	37.89	17.74	-52.4	-54.5	14.6	0.00e+00	0	24	0	360710144	71	4449
2026-01-08 05:26:28.88	37.70	17.80	-52.4	-54.4	14.6	0.00e+00	0	24	0	362807296	71	4415
2026-01-08 05:26:29.88	37.50	17.87	-52.4	-54.3	14.7	0.00e+00	0	24	0	364904448	71	4378
2026-01-08 05:26:30.89	37.31	17.94	-52.2	-54.2	14.7	0.00e+00	0	24	0	367001600	71	4305
2026-01-08 05:26:31.89	37.11	18.00	-52.1	-54.0	14.6	0.00e+00	0	24	0	368050176	70	4493
2026-01-08 05:26:32.89	36.92	18.07	-52.0	-53.9	14.8	0.00e+00	0	25	0	370147328	70	4405
2026-01-08 05:26:33.89	36.72	18.14	-51.9	-53.7	14.8	0.00e+00	0	24	0	372244480	70	4327
2026-01-08 05:26:34.89	36.53	18.20	-51.6	-53.4	14.9	0.00e+00	0	25	0	374341632	69	4408
2026-01-08 05:26:35.89	36.33	18.27	-51.6	-53.4	14.8	0.00e+00	0	24	0	376438784	69	4408
2026-01-08 05:26:36.89	36.13	18.33	-51.5	-53.3	14.9	0.00e+00	0	24	0	377487360	69	4347
2026-01-08 05:26:37.89	35.93	18.40	-51.4	-53.2	15.0	0.00e+00	0	24	0	379584512	69	4292
2026-01-08 05:26:38.89	35.73	18.47	-51.4	-53.2	14.9	0.00e+00	0	25	0	381681664	69	4300
2026-01-08 05:26:39.90	35.53	18.53	-51.4	-53.1	15.0	0.00e+00	0	24	0	383778816	69	4275
2026-01-08 05:26:40.90	35.33	18.60	-51.3	-53.0	15.0	0.00e+00	0	25	0	385875968	69	4238
2026-01-08 05:26:41.89	35.13	18.66	-51.3	-53.1	15.0	0.00e+00	0	24	0	386924544	69	4249
2026-01-08 05:26:42.89	34.92	18.73	-51.3	-53.0	15.0	0.00e+00	0	25	0	389021696	69	4220
2026-01-08 05:26:43.89	34.72	18.79	-51.2	-52.8	14.9	0.00e+00	0	24	0	391118848	68	4384
2026-01-08 05:26:44.88	34.51	18.85	-51.1	-52.8	15.0	0.00e+00	0	24	0	393216000	68	4378
2026-01-08 05:26:45.89	34.31	18.92	-51.1	-52.8	14.9	0.00e+00	0	25	0	395313152	68	4351
2026-01-08 05:26:46.88	34.10	18.98	-51.0	-52.6	15.0	0.00e+00	0	25	0	396361728	68	4288
2026-01-08 05:26:47.89	33.89	19.05	-51.0	-52.6	15.0	0.00e+00	0	25	0	398458880	68	4286
2026-01-08 05:26:48.89	33.68	19.11	-51.0	-52.7	15.0	0.00e+00	0	25	0	400556032	68	4293
2026-01-08 05:26:49.89	33.47	19.17	-51.0	-52.6	15.0	0.00e+00	0	25	0	402653184	68	4265
2026-01-08 05:26:50.89	33.26	19.24	-51.0	-52.7	15.0	0.00e+00	0	25	0	403701760	68	4310
2026-01-08 05:26:51.88	33.05	19.30	-51.0	-52.7	15.0	0.00e+00	0	25	0	405798912	68	4316
2026-01-08 05:26:52.88	32.84	19.36	-51.1	-52.7	15.0	0.00e+00	0	25	0	407896064	68	4332
2026-01-08 05:26:53.87	32.63	19.42	-50.9	-52.5	15.1	0.00e+00	0	24	0	409993216	68	4235
2026-01-08 05:26:54.88	32.41	19.48	-50.8	-52.5	15.1	0.00e+00	0	25	0	412090368	68	4202
2026-01-08 05:26:55.88	32.20	19.55	-50.8	-52.4	15.1	0.00e+00	0	25	0	413138944	68	4180
2026-01-08 05:26:56.89	31.98	19.61	-50.7	-52.3	15.2	0.00e+00	0	24	0	415236096	68	4130
2026-01-08 05:26:57.89	31.76	19.67	-50.8	-52.3	15.2	0.00e+00	0	25	0	417333248	68	4145
2026-01-08 05:26:58.89	31.54	19.73	-50.7	-52.3	15.2	0.00e+00	0	24	0	419430400	68	4117
2026-01-08 05:26:59.89	31.32	19.79	-50.7	-52.3	15.2	0.00e+00	0	25	0	421527552	68	4103
2026-01-08 05:27:00.90	31.10	19.85	-50.5	-52.0	15.1	0.00e+00	0	25	0	422576128	67	4236
2026-01-08 05:27:01.90	30.88	19.91	-50.6	-52.2	15.0	0.00e+00	0	24	0	424673280	67	4312
2026-01-08 05:27:02.90	30.66	19.97	-50.7	-52.3	15.0	0.00e+00	0	25	0	426770432	67	4351
2026-01-08 05:27:03.89	30.44	20.03	-50.6	-52.2	15.1	0.00e+00	0	25	0	428867584	67	4312
2026-01-08 05:27:04.89	30.22	20.09	-50.7	-52.3	15.0	0.00e+00	0	24	0	430964736	67	4342
2026-01-08 05:27:05.89	29.99	20.15	-50.6	-52.2	15.0	0.00e+00	0	25	0	432013312	67	4301
2026-01-08 05:27:06.89	29.77	20.20	-50.6	-52.2	15.1	0.00e+00	0	24	0	434110464	67	4305
2026-01-08 05:27:07.88	29.55	20.26	-50.6	-52.2	15.0	0.00e+00	0	25	0	436207616	67	4337
2026-01-08 05:27:08.88	29.32	20.32	-50.7	-52.3	15.0	0.00e+00	0	25	0	438304768	67	4354
2026-01-08 05:27:09.88	29.09	20.38	-50.7	-52.3	15.0	0.00e+00	0	25	0	439353344	67	4364
2026-01-08 05:27:10.87	28.87	20.43	-50.8	-52.4	15.0	0.00e+00	0	25	0	441450496	67	4415
2026-01-08 05:27:11.87	28.64	20.49	-50.7	-52.4	15.0	0.00e+00	0	25	0	443547648	67	4393
2026-01-08 05:27:12.86	28.41	20.54	-50.8	-52.4	14.9	0.00e+00	0	25	0	445644800	67	4420
2026-01-08 05:27:13.85	28.18	20.60	-50.8	-52.5	14.9	0.00e+00	0	25	0	447741952	67	4443
2026-01-08 05:27:14.84	27.95	20.66	-50.7	-52.4	15.0	0.00e+00	0	25	0	448790528	67	4398
2026-01-08 05:27:15.85	27.72	20.71	-50.8	-52.4	15.0	0.00e+00	0	25	0	450887680	67	4409
2026-01-08 05:27:16.85	27.49	20.77	-50.8	-52.5	14.9	0.00e+00	0	24	0	452984832	67	4444
2026-01-08 05:27:17.85	27.25	20.82	-50.8	-52.4	14.9	0.00e+00	0	25	0	455081984	67	4423
2026-01-08 05:27:18.84	27.02	20.87	-50.6	-52.2	15.0	0.00e+00	0	25	0	456130560	67	4329
2026-01-08 05:27:19.84	26.78	20.93	-50.7	-52.3	15.0	0.00e+00	0	25	0	458227712	67	4368
2026-01-08 05:27:20.83	26.55	20.98	-50.7	-52.3	15.0	0.00e+00	0	24	0	460324864	67	4348
2026-01-08 05:27:21.83	26.31	21.03	-50.6	-52.2	15.0	0.00e+00	0	25	0	462422016	67	4324
2026-01-08 05:27:22.83	26.07	21.08	-50.6	-52.2	15.0	0.00e+00	0	25	0	464519168	67	4331
2026-01-08 05:27:23.82	25.84	21.14	-50.4	-52.0	15.1	0.00e+00	0	25	0	465567744	67	4217
2026-01-08 05:27:24.82	25.60	21.19	-50.4	-51.9	15.2	0.00e+00	0	25	0	467664896	67	4162
2026-01-08 05:27:25.82	25.36	21.24	-50.1	-51.6	15.1	0.00e+00	0	25	0	469762048	66	4285
2026-01-08 05:27:26.81	25.12	21.29	-50.2	-51.7	15.1	0.00e+00	0	25	0	471859200	66	4297
2026-01-08 05:27:27.81	24.88	21.34	-50.1	-51.6	15.2	0.00e+00	0	25	0	473956352	66	4284
2026-01-08 05:27:28.81	24.63	21.39	-50.1	-51.6	15.2	0.00e+00	0	25	0	475004928	66	4244
2026-01-08 05:27:29.80	24.39	21.44	-50.1	-51.7	15.2	0.00e+00	0	25	0	477102080	66	4295
2026-01-08 05:27:30.80	24.15	21.49	-50.3	-51.8	15.1	0.00e+00	0	25	0	479199232	66	4353
2026-01-08 05:27:31.80	23.90	21.53	-50.2	-51.7	15.1	0.00e+00	0	25	0	481296384	66	4314
2026-01-08 05:27:32.79	23.66	21.58	-50.2	-51.8	15.1	0.00e+00	0	25	0	482344960	66	4345
2026-01-08 05:27:33.79	23.41	21.63	-50.2	-51.8	15.1	0.00e+00	0	25	0	484442112	66	4350
2026-01-08 05:27:34.79	23.16	21.68	-50.2	-51.7	15.1	0.00e+00	0	25	0	486539264	66	4327
2026-01-08 05:27:35.78	22.92	21.72	-50.1	-51.6	15.1	0.00e+00	0	25	0	488636416	66	4258
2026-01-08 05:27:36.78	22.67	21.77	-50.1	-51.6	15.1	0.00e+00	0	25	0	490733568	66	4264
2026-01-08 05:27:37.78	22.42	21.81	-50.0	-51.5	15.2	0.00e+00	0	25	0	491782144	66	4216
2026-01-08 05:27:38.78	22.17	21.86	-50.0	-51.5	15.2	0.00e+00	0	25	0	493879296	66	4224
2026-01-08 05:27:39.78	21.92	21.90	-50.1	-51.6	15.2	0.00e+00	0	25	0	495976448	66	4254
2026-01-08 05:27:40.77	21.67	21.95	-50.2	-51.7	15.1	0.00e+00	0	25	0	498073600	66	4327
2026-01-08 05:27:41.78	21.41	21.99	-50.2	-51.7	15.1	0.00e+00	0	25	0	499122176	66	4311
2026-01-08 05:27:42.78	21.16	22.03	-50.1	-51.6	15.1	0.00e+00	0	25	0	501219328	66	4290
2026-01-08 05:27:43.77	20.91	22.07	-50.2	-51.7	15.1	0.00e+00	0	25	0	503316480	66	4298
2026-01-08 05:27:44.77	20.65	22.12	-50.1	-51.5	15.2	0.00e+00	0	25	0	505413632	66	4240
2026-01-08 05:27:45.77	20.40	22.16	-50.2	-51.7	15.1	0.00e+00	0	25	0	507510784	66	4324
2026-01-08 05:27:46.77	20.14	22.20	-50.4	-51.9	15.0	0.00e+00	0	25	0	508559360	66	4433
2026-01-08 05:27:47.76	19.89	22.24	-50.5	-52.1	14.9	0.00e+00	0	25	0	510656512	66	4499
2026-01-08 05:27:48.76	19.63	22.28	-50.4	-51.9	15.0	0.00e+00	0	25	0	512753664	66	4434
2026-01-08 05:27:49.77	19.37	22.32	-50.5	-52.0	15.0	0.00e+00	0	25	0	514850816	66	4486
2026-01-08 05:27:50.76	19.11	22.36	-50.3	-51.8	15.0	0.00e+00	0	25	0	516947968	66	4384
2026-01-08 05:27:51.76	18.85	22.39	-50.3	-51.8	15.1	0.00e+00	0	24	0	517996544	66	4365
2026-01-08 05:27:52.76	18.59	22.43	-50.3	-51.9	15.0	0.00e+00	0	25	0	520093696	66	4393
2026-01-08 05:27:53.76	18.33	22.47	-50.3	-51.8	15.1	0.00e+00	0	25	0	522190848	66	4358
2026-01-08 05:27:54.76	18.07	22.50	-50.3	-51.8	15.1	0.00e+00	0	25	0	524288000	66	4356
2026-01-08 05:27:55.76	17.81	22.54	-50.3	-51.8	15.1	0.00e+00	0	25	0	526385152	66	4359
2026-01-08 05:27:56.76	17.55	22.57	-50.4	-52.0	15.0	0.00e+00	0	25	0	527433728	66	4457
2026-01-08 05:27:57.76	17.29	22.61	-50.5	-52.1	15.0	0.00e+00	0	25	0	529530880	66	4510
2026-01-08 05:27:58.75	17.02	22.64	-50.8	-52.4	14.8	0.00e+00	0	25	0	531628032	66	4669
2026-01-08 05:27:59.75	16.76	22.67	-51.0	-52.6	14.8	0.00e+00	0	25	0	533725184	67	4536
2026-01-08 05:28:00.74	16.50	22.71	-51.1	-52.8	14.8	0.00e+00	0	25	0	534773760	67	4644
2026-01-08 05:28:01.74	16.23	22.74	-51.3	-53.0	14.7	0.00e+00	0	25	0	536870912	67	4736
2026-01-08 05:28:02.74	15.97	22.77	-51.3	-53.0	14.7	0.00e+00	0	25	0	538968064	67	4749
2026-01-08 05:28:03.74	15.70	22.80	-51.2	-52.9	14.7	0.00e+00	0	25	0	541065216	67	4680
2026-01-08 05:28:04.74	15.43	22.83	-51.3	-53.0	14.7	0.00e+00	0	25	0	543162368	67	4716
2026-01-08 05:28:05.73	15.17	22.86	-51.3	-53.0	14.7	0.00e+00	0	25	0	544210944	67	4742
2026-01-08 05:28:06.73	14.90	22.89	-51.6	-53.4	14.7	0.00e+00	0	25	0	546308096	68	4679
2026-01-08 05:28:07.72	14.64	22.92	-51.7	-53.5	14.6	0.00e+00	0	25	0	548405248	68	4750
2026-01-08 05:28:08.71	14.37	22.94	-51.7	-53.5	14.6	0.00e+00	0	25	0	550502400	68	4741
2026-01-08 05:28:09.71	14.10	22.97	-51.8	-53.6	14.6	0.00e+00	0	25	0	551550976	68	4775
2026-01-08 05:28:10.70	13.83	23.00	-51.8	-53.6	14.6	0.00e+00	0	25	0	553648128	68	4778
2026-01-08 05:28:11.71	13.56	23.02	-51.8	-53.6	14.6	0.00e+00	0	25	0	555745280	68	4793
2026-01-08 05:28:12.70	13.29	23.05	-51.9	-53.8	14.7	0.00e+00	0	25	0	557842432	69	4601
2026-01-08 05:28:13.70	13.02	23.07	-52.0	-53.9	14.6	0.00e+00	0	25	0	559939584	69	4672
2026-01-08 05:28:14.70	12.75	23.10	-52.2	-54.1	14.5	0.00e+00	0	25	0	560988160	69	4771
2026-01-08 05:28:15.69	12.48	23.12	-52.1	-54.1	14.5	0.00e+00	0	25	0	563085312	69	4763
2026-01-08 05:28:16.68	12.21	23.14	-52.3	-54.2	14.5	0.00e+00	0	25	0	565182464	69	4853
2026-01-08 05:28:17.68	11.94	23.16	-52.3	-54.3	14.4	0.00e+00	0	25	0	567279616	69	4910
2026-01-08 05:28:18.67	11.67	23.18	-52.6	-54.6	14.4	0.00e+00	0	25	0	568328192	70	4780
2026-01-08 05:28:19.67	11.39	23.20	-52.5	-54.5	14.4	0.00e+00	0	25	0	570425344	70	4741
2026-01-08 05:28:20.68	11.12	23.22	-52.4	-54.4	14.5	0.00e+00	0	25	0	572522496	70	4653
2026-01-08 05:28:21.68	10.84	23.24	-52.4	-54.4	14.5	0.00e+00	0	25	0	574619648	70	4656
2026-01-08 05:28:22.68	10.57	23.26	-52.3	-54.2	14.6	0.00e+00	0	25	0	576716800	70	4583
2026-01-08 05:28:23.68	10.29	23.28	-52.3	-54.2	14.6	0.00e+00	0	25	0	577765376	70	4593
2026-01-08 05:28:24.67	10.02	23.29	-52.4	-54.3	14.5	0.00e+00	0	25	0	579862528	70	4635
2026-01-08 05:28:25.67	9.75	23.31	-52.4	-54.3	14.5	0.00e+00	0	25	0	581959680	70	4617
2026-01-08 05:28:26.67	9.47	23.32	-52.4	-54.3	14.5	0.00e+00	0	25	0	584056832	70	4634
2026-01-08 05:28:27.66	9.20	23.34	-52.1	-54.0	14.7	0.00e+00	0	25	0	586153984	70	4479
2026-01-08 05:28:28.66	8.92	23.35	-52.0	-53.8	14.8	0.00e+00	0	25	0	587202560	70	4355
2026-01-08 05:28:29.66	8.64	23.37	-52.0	-53.9	14.8	0.00e+00	0	25	0	589299712	70	4399
2026-01-08 05:28:30.66	8.37	23.38	-52.1	-53.9	14.7	0.00e+00	0	25	0	591396864	70	4434
2026-01-08 05:28:31.66	8.09	23.39	-52.3	-54.1	14.6	0.00e+00	0	25	0	593494016	70	4545
2026-01-08 05:28:32.66	7.81	23.40	-52.3	-54.2	14.6	0.00e+00	0	25	0	595591168	70	4595
2026-01-08 05:28:33.66	7.54	23.41	-52.4	-54.3	14.5	0.00e+00	0	25	0	596639744	70	4611
2026-01-08 05:28:34.66	7.26	23.42	-52.3	-54.2	14.6	0.00e+00	0	25	0	598736896	70	4569
2026-01-08 05:28:35.65	6.98	23.43	-52.2	-54.1	14.6	0.00e+00	0	25	0	600834048	70	4520
2026-01-08 05:28:36.65	6.71	23.44	-52.3	-54.2	14.6	0.00e+00	0	25	0	602931200	70	4546
2026-01-08 05:28:37.65	6.43	23.44	-52.2	-54.1	14.6	0.00e+00	0	25	0	603979776	70	4502
2026-01-08 05:28:38.64	6.15	23.45	-52.3	-54.1	14.6	0.00e+00	0	25	0	606076928	70	4545
2026-01-08 05:28:39.64	5.88	23.46	-52.3	-54.2	14.6	0.00e+00	0	25	0	608174080	70	4562
2026-01-08 05:28:40.64	5.60	23.46	-52.1	-54.0	14.7	0.00e+00	0	25	0	610271232	70	4457
2026-01-08 05:28:41.64	5.32	23.47	-52.0	-53.8	14.8	0.00e+00	0	25	0	612368384	70	4357
2026-01-08 05:28:42.64	5.04	23.47	-52.0	-53.8	14.8	0.00e+00	0	25	0	613416960	70	4363
2026-01-08 05:28:43.64	4.76	23.47	-51.9	-53.6	14.9	0.00e+00	0	25	0	615514112	70	4286
2026-01-08 05:28:44.63	4.49	23.48	-51.9	-53.7	14.9	0.00e+00	0	25	0	617611264	70	4304
2026-01-08 05:28:45.63	4.21	23.48	-51.9	-53.7	14.8	0.00e+00	0	25	0	619708416	70	4331
2026-01-08 05:28:46.63	3.93	23.48	-52.0	-53.8	14.8	0.00e+00	0	25	0	620756992	70	4387
2026-01-08 05:28:47.63	3.65	23.48	-52.0	-53.8	14.8	0.00e+00	0	25	0	622854144	70	4374
2026-01-08 05:28:48.63	3.37	23.48	-52.0	-53.8	14.8	0.00e+00	0	25	0	624951296	70	4347
2026-01-08 05:28:49.62	3.10	23.48	-51.8	-53.6	14.9	0.00e+00	0	25	0	627048448	70	4263
2026-01-08 05:28:50.62	2.82	23.47	-51.6	-53.3	14.9	0.00e+00	0	25	0	629145600	69	4369
2026-01-08 05:28:51.62	2.54	23.47	-51.5	-53.2	14.9	0.00e+00	0	25	0	630194176	69	4327
2026-01-08 05:28:52.62	2.26	23.47	-51.4	-53.1	15.0	0.00e+00	0	25	0	632291328	69	4280
2026-01-08 05:28:53.62	1.98	23.46	-51.4	-53.1	15.0	0.00e+00	0	25	0	634388480	69	4263
2026-01-08 05:28:54.62	1.71	23.46	-51.4	-53.0	15.0	0.00e+00	0	25	0	636485632	69	4240
2026-01-08 05:28:55.62	1.43	23.45	-51.4	-53.1	15.0	0.00e+00	0	25	0	638582784	69	4275
2026-01-08 05:28:56.62	1.15	23.45	-51.4	-53.1	15.0	0.00e+00	0	25	0	639631360	69	4291
2026-01-08 05:28:57.62	0.87	23.44	-51.2	-52.9	15.1	0.00e+00	0	25	0	641728512	69	4164
2026-01-08 05:28:58.61	0.60	23.43	-51.1	-52.7	15.0	0.00e+00	0	25	0	643825664	68	4331
2026-01-08 05:28:59.61	0.32	23.42	-51.1	-52.7	15.0	0.00e+00	0	25	0	645922816	68	4310
2026-01-08 05:29:00.60	0.04	23.41	-51.0	-52.6	15.1	0.00e+00	0	25	0	646971392	68	4246
2026-01-08 05:29:01.60	359.77	23.40	-51.1	-52.7	15.0	0.00e+00	0	25	0	649068544	68	4300
2026-01-08 05:29:02.60	359.49	23.39	-50.9	-52.5	15.1	0.00e+00	0	25	0	651165696	68	4209
2026-01-08 05:29:03.59	359.22	23.38	-50.8	-52.4	15.1	0.00e+00	0	25	0	653262848	68	4182
2026-01-08 05:29:04.59	358.94	23.37	-50.8	-52.4	15.2	0.00e+00	0	25	0	655360000	68	4148
2026-01-08 05:29:05.59	358.66	23.36	-50.4	-51.9	15.2	0.00e+00	0	25	0	656408576	67	4182
2026-01-08 05:29:06.59	358.39	23.34	-50.3	-51.8	15.3	0.00e+00	0	25	0	658505728	67	4132
2026-01-08 05:29:07.58	358.11	23.33	-50.2	-51.6	15.3	0.00e+00	0	25	0	660602880	67	4047
2026-01-08 05:29:08.58	357.84	23.31	-50.0	-51.5	15.2	0.00e+00	0	25	0	662700032	66	4212
2026-01-08 05:29:09.57	357.56	23.30	-50.0	-51.5	15.2	0.00e+00	0	25	0	663748608	66	4213
2026-01-08 05:29:10.57	357.29	23.28	-50.0	-51.5	15.2	0.00e+00	0	25	0	665845760	66	4213
2026-01-08 05:29:11.57	357.02	23.26	-49.9	-51.3	15.3	0.00e+00	0	25	0	667942912	66	4132
2026-01-08 05:29:12.56	356.74	23.25	-49.9	-51.3	15.3	0.00e+00	0	25	0	670040064	66	4141
2026-01-08 05:29:13.56	356.47	23.23	-49.8	-51.3	15.3	0.00e+00	0	25	0	672137216	66	4118
2026-01-08 05:29:14.56	356.20	23.21	-49.9	-51.4	15.3	0.00e+00	0	25	0	673185792	66	4152
2026-01-08 05:29:15.56	355.92	23.19	-49.9	-51.3	15.3	0.00e+00	0	25	0	675282944	66	4134
2026-01-08 05:29:16.54	355.65	23.17	-49.9	-51.4	15.3	0.00e+00	0	25	0	677380096	66	4164
2026-01-08 05:29:17.54	355.38	23.15	-49.8	-51.2	15.3	0.00e+00	0	25	0	679477248	66	4081
2026-01-08 05:29:18.53	355.11	23.12	-49.7	-51.1	15.4	0.00e+00	0	25	0	680525824	66	4029
2026-01-08 05:29:19.53	354.84	23.10	-49.6	-51.0	15.3	0.00e+00	0	25	0	682622976	65	4214
2026-01-08 05:29:20.52	354.57	23.08	-49.6	-51.0	15.3	0.00e+00	0	25	0	684720128	65	4205
2026-01-08 05:29:21.52	354.30	23.06	-49.6	-51.0	15.3	0.00e+00	0	24	0	686817280	65	4229
2026-01-08 05:29:22.53	354.03	23.03	-49.7	-51.2	15.2	0.00e+00	0	25	0	688914432	65	4295
2026-01-08 05:29:23.52	353.76	23.01	-49.9	-51.3	15.1	0.00e+00	0	25	0	689963008	65	4383
2026-01-08 05:29:24.51	353.49	22.98	-49.9	-51.4	15.1	0.00e+00	0	25	0	692060160	65	4396
2026-01-08 05:29:25.50	353.22	22.95	-50.0	-51.5	15.1	0.00e+00	0	25	0	694157312	65	4475
2026-01-08 05:29:26.49	352.96	22.93	-50.0	-51.5	15.1	0.00e+00	0	25	0	696254464	65	4465
2026-01-08 05:29:27.49	352.69	22.90	-49.9	-51.4	15.1	0.00e+00	0	25	0	697303040	65	4430
2026-01-08 05:29:28.49	352.42	22.87	-49.9	-51.3	15.1	0.00e+00	0	25	0	699400192	65	4373
2026-01-08 05:29:29.48	352.16	22.84	-49.8	-51.3	15.1	0.00e+00	0	25	0	701497344	65	4366
2026-01-08 05:29:30.49	351.89	22.81	-49.9	-51.4	15.1	0.00e+00	0	25	0	703594496	65	4403
2026-01-08 05:29:31.49	351.62	22.78	-49.8	-51.3	15.1	0.00e+00	0	25	0	705691648	65	4377
2026-01-08 05:29:32.49	351.35	22.75	-50.0	-51.5	15.0	0.00e+00	0	25	0	706740224	65	4474
2026-01-08 05:29:33.49	351.09	22.72	-50.2	-51.7	15.0	0.00e+00	0	25	0	708837376	65	4567
2026-01-08 05:29:34.49	350.82	22.68	-50.3	-51.8	14.9	0.00e+00	0	25	0	710934528	65	4650
2026-01-08 05:29:35.48	350.56	22.65	-50.4	-51.9	14.9	0.00e+00	0	25	0	713031680	65	4682
2026-01-08 05:29:36.49	350.30	22.62	-50.3	-51.8	14.9	0.00e+00	0	25	0	715128832	65	4651
2026-01-08 05:29:37.49	350.03	22.58	-50.3	-51.9	14.9	0.00e+00	0	25	0	716177408	65	4671
2026-01-08 05:29:38.48	349.77	22.55	-50.5	-52.1	15.0	0.00e+00	0	25	0	718274560	66	4495
2026-01-08 05:29:39.48	349.51	22.51	-50.5	-52.1	15.0	0.00e+00	0	25	0	720371712	66	4514
2026-01-08 05:29:40.48	349.25	22.48	-50.6	-52.2	14.9	0.00e+00	0	25	0	722468864	66	4583
2026-01-08 05:29:41.49	348.99	22.44	-50.7	-52.4	14.9	0.00e+00	0	25	0	724566016	66	4652
2026-01-08 05:29:42.48	348.73	22.40	-50.8	-52.4	14.8	0.00e+00	0	25	0	725614592	66	4703
2026-01-08 05:29:43.48	348.47	22.37	-50.8	-52.5	14.8	0.00e+00	0	25	0	727711744	66	4722
2026-01-08 05:29:44.49	348.21	22.33	-50.9	-52.5	14.8	0.00e+00	0	25	0	729808896	66	4758
2026-01-08 05:29:45.49	347.95	22.29	-50.9	-52.6	14.9	0.00e+00	0	25	0	731906048	67	4508
2026-01-08 05:29:46.49	347.69	22.25	-51.0	-52.6	14.9	0.00e+00	0	25	0	732954624	67	4524
2026-01-08 05:29:47.49	347.44	22.21	-51.0	-52.7	14.8	0.00e+00	0	25	0	735051776	67	4552
2026-01-08 05:29:48.48	347.18	22.17	-51.1	-52.8	14.8	0.00e+00	0	25	0	737148928	67	4626
2026-01-08 05:29:49.48	346.93	22.13	-51.2	-52.9	14.7	0.00e+00	0	25	0	739246080	67	4692
2026-01-08 05:29:50.48	346.67	22.09	-51.4	-53.1	14.7	0.00e+00	0	25	0	741343232	67	4801
2026-01-08 05:29:51.48	346.42	22.04	-51.6	-53.3	14.7	0.00e+00	0	25	0	742391808	68	4651
2026-01-08 05:29:52.48	346.16	22.00	-51.7	-53.4	14.7	0.00e+00	0	25	0	744488960	68	4691
2026-01-08 05:29:53.49	345.91	21.96	-51.7	-53.5	14.6	0.00e+00	0	25	0	746586112	68	4742
2026-01-08 05:29:54.49	345.66	21.91	-51.6	-53.4	14.7	0.00e+00	0	25	0	748683264	68	4678
2026-01-08 05:29:55.49	345.41	21.87	-51.7	-53.5	14.6	0.00e+00	0	25	0	750780416	68	4746
2026-01-08 05:29:56.49	345.16	21.83	-51.6	-53.3	14.8	0.00e+00	0	25	0	751828992	68	4622
2026-01-08 05:29:57.49	344.91	21.78	-51.6	-53.3	14.7	0.00e+00	0	25	0	753926144	68	4624
2026-01-08 05:29:58.49	344.66	21.73	-51.6	-53.4	14.7	0.00e+00	0	25	0	756023296	68	4658
2026-01-08 05:29:59.49	344.41	21.69	-51.7	-53.5	14.6	0.00e+00	0	25	0	758120448	68	4716
2026-01-08 05:30:00.49	344.16	21.64	-51.8	-53.6	14.6	0.00e+00	0	25	0	760217600	68	4766
2026-01-08 05:30:01.49	343.91	21.59	-51.9	-53.7	14.6	0.00e+00	0	24	0	761266176	68	4826
2026-01-08 05:30:02.49	343.67	21.55	-51.9	-53.7	14.5	0.00e+00	0	25	0	763363328	68	4853
2026-01-08 05:30:03.49	343.42	21.50	-52.0	-53.8	14.7	0.00e+00	0	25	0	765460480	69	4621
2026-01-08 05:30:04.49	343.18	21.45	-52.0	-53.9	14.6	0.00e+00	0	24	0	767557632	69	4682
2026-01-08 05:30:05.49	342.93	21.40	-52.0	-53.8	14.6	0.00e+00	0	24	0	768606208	69	4624
2026-01-08 05:30:06.48	342.69	21.35	-52.1	-53.9	14.6	0.00e+00	0	25	0	770703360	69	4704
2026-01-08 05:30:07.48	342.45	21.30	-52.1	-54.0	14.6	0.00e+00	0	25	0	772800512	69	4739
2026-01-08 05:30:08.48	342.21	21.25	-52.1	-54.0	14.5	0.00e+00	0	25	0	774897664	69	4747
2026-01-08 05:30:09.48	341.97	21.20	-52.0	-53.9	14.6	0.00e+00	0	25	0	776994816	69	4677
2026-01-08 05:30:10.48	341.73	21.15	-51.9	-53.7	14.7	0.00e+00	0	25	0	778043392	69	4579
2026-01-08 05:30:11.48	341.49	21.10	-51.8	-53.5	14.8	0.00e+00	0	24	0	780140544	69	4483
2026-01-08 05:30:12.48	341.25	21.04	-51.9	-53.6	14.7	0.00e+00	0	25	0	782237696	69	4542
2026-01-08 05:30:13.48	341.01	20.99	-52.0	-53.8	14.6	0.00e+00	0	25	0	784334848	69	4638
2026-01-08 05:30:14.47	340.78	20.94	-52.1	-54.0	14.5	0.00e+00	0	25	0	786432000	69	4744
2026-01-08 05:30:15.47	340.54	20.89	-52.2	-54.2	14.5	0.00e+00	0	25	0	787480576	69	4816
2026-01-08 05:30:16.46	340.31	20.83	-52.2	-54.1	14.5	0.00e+00	0	25	0	789577728	69	4768
2026-01-08 05:30:17.46	340.08	20.78	-52.0	-53.9	14.6	0.00e+00	0	25	0	791674880	69	4663
2026-01-08 05:30:18.46	339.85	20.72	-52.0	-53.8	14.6	0.00e+00	0	25	0	793772032	69	4629
2026-01-08 05:30:19.45	339.62	20.67	-51.9	-53.8	14.6	0.00e+00	0	24	0	794820608	69	4600
2026-01-08 05:30:20.46	339.38	20.61	-51.9	-53.6	14.7	0.00e+00	0	25	0	796917760	69	4543
2026-01-08 05:30:21.45	339.15	20.56	-51.8	-53.6	14.7	0.00e+00	0	25	0	799014912	69	4502
2026-01-08 05:30:22.46	338.92	20.50	-51.9	-53.7	14.7	0.00e+00	0	25	0	801112064	69	4550
2026-01-08 05:30:23.46	338.69	20.45	-51.9	-53.7	14.7	0.00e+00	0	25	0	803209216	69	4590
2026-01-08 05:30:24.46	338.46	20.39	-51.9	-53.8	14.6	0.00e+00	0	25	0	804257792	69	4606
2026-01-08 05:30:25.45	338.24	20.33	-51.9	-53.7	14.6	0.00e+00	0	25	0	806354944	69	4593
2026-01-08 05:30:26.44	338.01	20.28	-51.9	-53.8	14.6	0.00e+00	0	25	0	808452096	69	4613
2026-01-08 05:30:27.44	337.79	20.22	-52.0	-53.8	14.7	0.00e+00	0	25	0	810549248	69	4622
2026-01-08 05:30:28.44	337.56	20.16	-51.9	-53.7	14.7	0.00e+00	0	25	0	811597824	69	4552
2026-01-08 05:30:29.44	337.34	20.10	-51.9	-53.7	14.6	0.00e+00	0	25	0	813694976	69	4589
2026-01-08 05:30:30.44	337.12	20.04	-51.7	-53.4	14.8	0.00e+00	0	25	0	815792128	69	4440
2026-01-08 05:30:31.45	336.89	19.98	-51.6	-53.3	14.9	0.00e+00	0	25	0	817889280	69	4358
2026-01-08 05:30:32.45	336.67	19.92	-51.6	-53.4	14.8	0.00e+00	0	25	0	819986432	69	4393
2026-01-08 05:30:33.45	336.45	19.86	-51.5	-53.2	14.9	0.00e+00	0	25	0	822083584	69	4337
2026-01-08 05:30:34.45	336.23	19.80	-51.6	-53.3	14.9	0.00e+00	0	25	0	823132160	69	4363
2026-01-08 05:30:35.45	336.01	19.74	-51.6	-53.4	14.9	0.00e+00	0	25	0	825229312	69	4401
2026-01-08 05:30:36.45	335.79	19.68	-51.6	-53.3	14.9	0.00e+00	0	25	0	827326464	69	4365
2026-01-08 05:30:37.44	335.58	19.62	-51.6	-53.3	14.9	0.00e+00	0	25	0	829423616	69	4375
2026-01-08 05:30:38.44	335.36	19.56	-51.6	-53.3	14.8	0.00e+00	0	25	0	830472192	69	4389
2026-01-08 05:30:39.44	335.15	19.50	-51.6	-53.3	14.9	0.00e+00	0	25	0	832569344	69	4374
2026-01-08 05:30:40.44	334.93	19.44	-51.6	-53.4	14.8	0.00e+00	0	25	0	834666496	69	4410
2026-01-08 05:30:41.43	334.72	19.38	-51.6	-53.4	14.8	0.00e+00	0	25	0	836763648	69	4413
2026-01-08 05:30:42.44	334.51	19.31	-51.6	-53.4	14.8	0.00e+00	0	25	0	838860800	69	4422
2026-01-08 05:30:43.43	334.30	19.25	-51.7	-53.5	14.8	0.00e+00	0	25	0	839909376	69	4459
2026-01-08 05:30:44.43	334.09	19.19	-51.6	-53.4	14.8	0.00e+00	0	25	0	842006528	69	4404
2026-01-08 05:30:45.43	333.88	19.13	-51.6	-53.3	14.8	0.00e+00	0	25	0	844103680	69	4386
2026-01-08 05:30:46.43	333.67	19.06	-51.6	-53.4	14.8	0.00e+00	0	25	0	846200832	69	4414
2026-01-08 05:30:47.43	333.46	19.00	-51.6	-53.4	14.8	0.00e+00	0	25	0	847249408	69	4410
2026-01-08 05:30:48.42	333.26	18.94	-51.5	-53.3	14.9	0.00e+00	0	25	0	849346560	69	4357
2026-01-08 05:30:49.42	333.05	18.87	-51.6	-53.4	14.8	0.00e+00	0	24	0	851443712	69	4398
2026-01-08 05:30:50.42	332.84	18.81	-51.6	-53.3	14.8	0.00e+00	0	25	0	853540864	69	4391
2026-01-08 05:30:51.41	332.64	18.74	-51.6	-53.3	14.8	0.00e+00	0	25	0	855638016	69	4383
2026-01-08 05:30:52.41	332.44	18.68	-51.6	-53.4	14.9	0.00e+00	0	25	0	856686592	69	4396
2026-01-08 05:30:53.41	332.23	18.61	-51.6	-53.4	14.8	0.00e+00	0	24	0	858783744	69	4418
2026-01-08 05:30:54.41	332.03	18.55	-51.7	-53.5	14.8	0.00e+00	0	25	0	860880896	69	4466
2026-01-08 05:30:55.41	331.83	18.48	-51.7	-53.5	14.8	0.00e+00	0	25	0	862978048	69	4490
2026-01-08 05:30:56.41	331.63	18.42	-51.7	-53.5	14.8	0.00e+00	0	25	0	865075200	69	4443
2026-01-08 05:30:57.41	331.43	18.35	-51.7	-53.5	14.8	0.00e+00	0	25	0	866123776	69	4464
2026-01-08 05:30:58.41	331.23	18.29	-51.7	-53.5	14.8	0.00e+00	0	25	0	868220928	69	4475
2026-01-08 05:30:59.42	331.03	18.22	-51.8	-53.6	14.7	0.00e+00	0	25	0	870318080	69	4504
2026-01-08 05:31:00.42	330.84	18.15	-51.8	-53.6	14.7	0.00e+00	0	25	0	872415232	69	4544
2026-01-08 05:31:01.42	330.64	18.09	-51.9	-53.7	14.7	0.00e+00	0	25	0	873463808	69	4579
2026-01-08 05:31:02.41	330.45	18.02	-51.9	-53.7	14.6	0.00e+00	0	25	0	875560960	69	4595
2026-01-08 05:31:03.41	330.25	17.96	-51.8	-53.6	14.7	0.00e+00	0	25	0	877658112	69	4537
2026-01-08 05:31:04.41	330.06	17.89	-51.8	-53.7	14.7	0.00e+00	0	25	0	879755264	69	4554
2026-01-08 05:31:05.40	329.87	17.82	-51.8	-53.6	14.7	0.00e+00	0	25	0	881852416	69	4505
2026-01-08 05:31:06.40	329.68	17.76	-51.7	-53.6	14.7	0.00e+00	0	25	0	882900992	69	4497
2026-01-08 05:31:07.39	329.49	17.69	-51.7	-53.5	14.8	0.00e+00	0	25	0	884998144	69	4445
2026-01-08 05:31:08.39	329.30	17.62	-51.7	-53.5	14.8	0.00e+00	0	25	0	887095296	69	4443
2026-01-08 05:31:09.39	329.11	17.55	-51.7	-53.5	14.8	0.00e+00	0	25	0	889192448	69	4453
2026-01-08 05:31:10.39	328.92	17.49	-51.7	-53.4	14.8	0.00e+00	0	24	0	890241024	69	4441
2026-01-08 05:31:11.37	328.74	17.42	-51.7	-53.5	14.8	0.00e+00	0	25	0	892338176	69	4485
2026-01-08 05:31:12.37	328.55	17.35	-51.7	-53.5	14.7	0.00e+00	0	25	0	894435328	69	4472
2026-01-08 05:31:13.37	328.37	17.28	-51.9	-53.7	14.6	0.00e+00	0	25	0	896532480	69	4586
2026-01-08 05:31:14.36	328.18	17.22	-51.8	-53.6	14.7	0.00e+00	0	25	0	898629632	69	4523
2026-01-08 05:31:15.36	328.00	17.15	-51.7	-53.5	14.8	0.00e+00	0	25	0	899678208	69	4461
2026-01-08 05:31:16.36	327.82	17.08	-51.6	-53.4	14.8	0.00e+00	0	25	0	901775360	69	4417
2026-01-08 05:31:17.35	327.64	17.01	-51.6	-53.4	14.8	0.00e+00	0	25	0	903872512	69	4431
2026-01-08 05:31:18.34	327.46	16.94	-51.6	-53.4	14.8	0.00e+00	0	25	0	905969664	69	4397
2026-01-08 05:31:19.34	327.28	16.88	-51.7	-53.5	14.8	0.00e+00	0	25	0	908066816	69	4458
2026-01-08 05:31:20.33	327.10	16.81	-51.5	-53.2	14.9	0.00e+00	0	25	0	909115392	69	4335
2026-01-08 05:31:21.32	326.92	16.74	-51.4	-53.2	14.9	0.00e+00	0	24	0	911212544	69	4311
2026-01-08 05:31:22.32	326.74	16.67	-51.5	-53.3	14.9	0.00e+00	0	25	0	913309696	69	4349
2026-01-08 05:31:23.31	326.57	16.60	-51.5	-53.2	14.9	0.00e+00	0	25	0	915406848	69	4325
2026-01-08 05:31:24.31	326.39	16.53	-51.1	-52.8	14.9	0.00e+00	0	24	0	916455424	68	4358
2026-01-08 05:31:25.32	326.21	16.46	-51.0	-52.7	15.0	0.00e+00	0	25	0	918552576	68	4305
2026-01-08 05:31:26.32	326.04	16.39	-51.1	-52.8	15.0	0.00e+00	0	25	0	920649728	68	4346
2026-01-08 05:31:27.32	325.86	16.32	-51.1	-52.8	14.9	0.00e+00	0	25	0	922746880	68	4363
2026-01-08 05:31:28.32	325.69	16.25	-51.2	-52.9	14.9	0.00e+00	0	25	0	924844032	68	4395
2026-01-08 05:31:29.32	325.52	16.18	-51.2	-52.9	14.9	0.00e+00	0	25	0	925892608	68	4413
2026-01-08 05:31:30.32	325.35	16.12	-51.2	-52.9	14.9	0.00e+00	0	24	0	927989760	68	4437
2026-01-08 05:31:31.32	325.18	16.05	-51.2	-52.9	14.9	0.00e+00	0	25	0	930086912	68	4404
2026-01-08 05:31:32.32	325.01	15.98	-51.2	-52.9	14.9	0.00e+00	0	25	0	932184064	68	4424
2026-01-08 05:31:33.32	324.84	15.91	-51.2	-52.9	14.9	0.00e+00	0	25	0	934281216	68	4431
2026-01-08 05:31:34.31	324.67	15.84	-51.2	-52.9	14.9	0.00e+00	0	25	0	935329792	68	4423
2026-01-08 05:31:35.31	324.50	15.77	-51.2	-52.9	14.9	0.00e+00	0	25	0	937426944	68	4401
2026-01-08 05:31:36.31	324.34	15.70	-51.0	-52.6	15.0	0.00e+00	0	25	0	939524096	68	4290
2026-01-08 05:31:37.30	324.17	15.63	-50.9	-52.5	15.1	0.00e+00	0	25	0	941621248	68	4211
2026-01-08 05:31:38.29	324.01	15.56	-50.8	-52.4	15.1	0.00e+00	0	25	0	942669824	68	4184
2026-01-08 05:31:39.29	323.84	15.49	-50.8	-52.4	15.1	0.00e+00	0	25	0	944766976	68	4184
2026-01-08 05:31:40.30	323.68	15.42	-50.7	-52.3	15.2	0.00e+00	0	25	0	946864128	68	4121
2026-01-08 05:31:41.29	323.52	15.35	-50.7	-52.3	15.2	0.00e+00	0	25	0	948961280	68	4123
2026-01-08 05:31:42.29	323.35	15.28	-50.8	-52.4	15.1	0.00e+00	0	25	0	951058432	68	4173
2026-01-08 05:31:43.29	323.19	15.21	-50.9	-52.5	15.1	0.00e+00	0	25	0	952107008	68	4229
2026-01-08 05:31:44.29	323.03	15.14	-50.8	-52.5	15.1	0.00e+00	0	25	0	954204160	68	4202
2026-01-08 05:31:45.29	322.87	15.07	-50.9	-52.6	15.0	0.00e+00	0	25	0	956301312	68	4267
2026-01-08 05:31:46.29	322.71	15.00	-50.9	-52.6	15.0	0.00e+00	0	25	0	958398464	68	4262
2026-01-08 05:31:47.29	322.56	14.93	-50.9	-52.5	15.0	0.00e+00	0	25	0	959447040	68	4240
2026-01-08 05:31:48.29	322.40	14.86	-50.9	-52.6	15.0	0.00e+00	0	25	0	961544192	68	4270
2026-01-08 05:31:49.29	322.24	14.79	-50.8	-52.4	15.1	0.00e+00	0	25	0	963641344	68	4189
2026-01-08 05:31:50.29	322.09	14.72	-50.8	-52.4	15.1	0.00e+00	0	25	0	965738496	68	4171
2026-01-08 05:31:51.28	321.93	14.65	-50.9	-52.5	15.1	0.00e+00	0	24	0	967835648	68	4233
2026-01-08 05:31:52.29	321.78	14.57	-50.9	-52.5	15.1	0.00e+00	0	25	0	968884224	68	4233
2026-01-08 05:31:53.29	321.62	14.50	-50.7	-52.4	15.1	0.00e+00	0	25	0	970981376	68	4158
2026-01-08 05:31:54.28	321.47	14.43	-50.8	-52.5	15.1	0.00e+00	0	25	0	973078528	68	4197
2026-01-08 05:31:55.29	321.32	14.36	-50.9	-52.5	15.0	0.00e+00	0	25	0	975175680	68	4229
2026-01-08 05:31:56.28	321.17	14.29	-50.8	-52.4	15.1	0.00e+00	0	25	0	977272832	68	4187
2026-01-08 05:31:57.29	321.01	14.22	-50.9	-52.5	15.0	0.00e+00	0	25	0	978321408	68	4235
2026-01-08 05:31:58.29	320.86	14.15	-50.9	-52.6	15.0	0.00e+00	0	25	0	980418560	68	4256
2026-01-08 05:31:59.29	320.72	14.08	-51.0	-52.6	15.0	0.00e+00	0	25	0	982515712	68	4290
2026-01-08 05:32:00.29	320.57	14.01	-51.0	-52.7	15.0	0.00e+00	0	25	0	984612864	68	4309
2026-01-08 05:32:01.29	320.42	13.94	-51.1	-52.8	14.9	0.00e+00	0	25	0	986710016	68	4382
2026-01-08 05:32:02.29	320.27	13.87	-51.1	-52.8	14.9	0.00e+00	0	25	0	987758592	68	4362
2026-01-08 05:32:03.29	320.12	13.80	-51.1	-52.8	14.9	0.00e+00	0	25	0	989855744	68	4372
2026-01-08 05:32:04.29	319.98	13.73	-51.1	-52.9	14.9	0.00e+00	0	24	0	991952896	68	4397
2026-01-08 05:32:05.29	319.83	13.66	-51.2	-52.9	14.9	0.00e+00	0	24	0	994050048	68	4412
2026-01-08 05:32:06.29	319.69	13.59	-51.3	-53.0	14.8	0.00e+00	0	25	0	995098624	68	4487
2026-01-08 05:32:07.29	319.55	13.52	-51.3	-53.1	14.8	0.00e+00	0	25	0	997195776	68	4497
2026-01-08 05:32:08.28	319.40	13.45	-51.3	-53.1	14.7	0.00e+00	0	24	0	999292928	68	4520
2026-01-08 05:32:09.28	319.26	13.38	-51.4	-53.2	14.7	0.00e+00	0	25	0	1001390080	68	4572
2026-01-08 05:32:10.28	319.12	13.31	-51.5	-53.3	14.6	0.00e+00	0	25	0	1003487232	68	4635
2026-01-08 05:32:11.27	318.98	13.24	-51.5	-53.3	14.6	0.00e+00	0	25	0	1004535808	68	4647
2026-01-08 05:32:12.27	318.84	13.17	-51.5	-53.3	14.7	0.00e+00	0	25	0	1006632960	68	4633
2026-01-08 05:32:13.26	318.70	13.10	-51.5	-53.3	14.6	0.00e+00	0	25	0	1008730112	68	4651
2026-01-08 05:32:14.26	318.56	13.03	-51.5	-53.3	14.6	0.00e+00	0	25	0	1010827264	68	4624
2026-01-08 05:32:15.25	318.43	12.96	-51.5	-53.3	14.7	0.00e+00	0	25	0	1012924416	68	4625
2026-01-08 05:32:16.25	318.29	12.89	-51.5	-53.3	14.6	0.00e+00	0	25	0	1013972992	68	4638
2026-01-08 05:32:17.24	318.15	12.82	-51.4	-53.3	14.7	0.00e+00	0	25	0	1016070144	68	4600
2026-01-08 05:32:18.23	318.02	12.75	-51.5	-53.3	14.6	0.00e+00	0	25	0	1018167296	68	4641
2026-01-08 05:32:19.23	317.88	12.68	-51.4	-53.2	14.7	0.00e+00	0	25	0	1020264448	68	4583
2026-01-08 05:32:20.23	317.75	12.61	-51.5	-53.3	14.7	0.00e+00	0	25	0	1021313024	68	4617
2026-01-08 05:32:21.22	317.62	12.54	-51.6	-53.4	14.6	0.00e+00	0	25	0	1023410176	68	4692
2026-01-08 05:32:22.22	317.48	12.47	-51.6	-53.4	14.6	0.00e+00	0	25	0	1025507328	68	4678
2026-01-08 05:32:23.21	317.35	12.40	-51.5	-53.4	14.6	0.00e+00	0	25	0	1027604480	68	4676
2026-01-08 05:32:24.20	317.22	12.34	-51.6	-53.5	14.6	0.00e+00	0	25	0	1029701632	68	4728
2026-01-08 05:32:25.20	317.09	12.27	-51.6	-53.5	14.5	0.00e+00	0	25	0	1030750208	68	4729
2026-01-08 05:32:26.20	316.96	12.20	-51.6	-53.5	14.5	0.00e+00	0	25	0	1032847360	68	4749
2026-01-08 05:32:27.19	316.83	12.13	-51.7	-53.7	14.5	0.00e+00	0	25	0	1034944512	68	4815
2026-01-08 05:32:28.18	316.70	12.06	-51.8	-53.8	14.4	0.00e+00	0	25	0	1037041664	68	4873
2026-01-08 05:32:29.18	316.57	11.99	-51.8	-53.8	14.4	0.00e+00	0	25	0	1038090240	68	4884
2026-01-08 05:32:30.18	316.44	11.92	-51.8	-53.7	14.4	0.00e+00	0	25	0	1040187392	68	4868
2026-01-08 05:32:31.18	316.31	11.85	-51.9	-53.8	14.4	0.00e+00	0	25	0	1042284544	68	4914
2026-01-08 05:32:32.19	316.18	11.78	-51.8	-53.8	14.4	0.00e+00	0	25	0	1044381696	68	4889
2026-01-08 05:32:33.18	316.06	11.71	-51.9	-53.8	14.4	0.00e+00	0	25	0	1046478848	68	4915
2026-01-08 05:32:34.18	315.93	11.64	-51.9	-53.9	14.5	0.00e+00	0	25	0	1047527424	69	4667
2026-01-08 05:32:35.18	315.81	11.57	-52.0	-54.0	14.4	0.00e+00	0	25	0	1049624576	69	4729
2026-01-08 05:32:36.18	315.68	11.50	-52.0	-54.0	14.5	0.00e+00	0	24	0	1051721728	69	4708
2026-01-08 05:32:37.18	315.56	11.44	-51.9	-53.9	14.5	0.00e+00	0	25	0	1053818880	69	4659
2026-01-08 05:32:38.19	315.43	11.37	-51.8	-53.8	14.5	0.00e+00	0	25	0	1054867456	69	4604
2026-01-08 05:32:39.19	315.31	11.30	-51.9	-53.9	14.5	0.00e+00	0	24	0	1056964608	69	4658
2026-01-08 05:32:40.18	315.19	11.23	-51.9	-53.8	14.5	0.00e+00	0	25	0	1059061760	69	4632
2026-01-08 05:32:41.18	315.07	11.16	-51.9	-53.8	14.5	0.00e+00	0	25	0	1061158912	69	4632
2026-01-08 05:32:42.17	314.95	11.09	-51.9	-53.8	14.5	0.00e+00	0	25	0	1063256064	69	4643
2026-01-08 05:32:43.18	314.82	11.02	-52.0	-54.0	14.4	0.00e+00	0	25	0	1064304640	69	4734
2026-01-08 05:32:44.18	314.70	10.95	-52.0	-54.0	14.4	0.00e+00	0	25	0	1066401792	69	4754
2026-01-08 05:32:45.17	314.59	10.89	-52.0	-54.0	14.4	0.00e+00	0	25	0	1068498944	69	4751
2026-01-08 05:32:46.17	314.47	10.82	-52.1	-54.2	14.3	0.00e+00	0	25	0	1070596096	69	4820
2026-01-08 05:32:47.17	314.35	10.75	-52.2	-54.3	14.3	0.00e+00	0	25	0	1072693248	69	4884
2026-01-08 05:32:48.16	314.23	10.68	-52.2	-54.3	14.2	0.00e+00	0	25	0	1073741824	69	4916
2026-01-08 05:32:49.16	314.11	10.61	-52.2	-54.3	14.2	0.00e+00	0	25	0	1075838976	69	4915
2026-01-08 05:32:50.16	314.00	10.55	-52.3	-54.5	14.2	0.00e+00	0	25	0	1077936128	69	4984
2026-01-08 05:32:51.16	313.88	10.48	-52.4	-54.5	14.2	0.00e+00	0	25	0	1080033280	69	5017
2026-01-08 05:32:52.16	313.76	10.41	-52.4	-54.5	14.1	0.00e+00	0	25	0	1082130432	69	5035
2026-01-08 05:32:53.15	313.65	10.34	-52.4	-54.5	14.1	0.00e+00	0	25	0	1083179008	69	5011
2026-01-08 05:32:54.15	313.54	10.27	-52.4	-54.5	14.3	0.00e+00	0	25	0	1085276160	70	4741
2026-01-08 05:32:55.15	313.42	10.21	-52.4	-54.6	14.2	0.00e+00	0	25	0	1087373312	70	4768
2026-01-08 05:32:56.15	313.31	10.14	-52.3	-54.4	14.3	0.00e+00	0	25	0	1089470464	70	4693
2026-01-08 05:32:57.15	313.20	10.07	-52.3	-54.4	14.3	0.00e+00	0	25	0	1090519040	70	4688
2026-01-08 05:32:58.15	313.08	10.00	-52.3	-54.4	14.3	0.00e+00	0	25	0	1092616192	70	4676
2026-01-08 05:32:59.15	312.97	9.94	-52.3	-54.4	14.3	0.00e+00	0	25	0	1094713344	70	4684
2026-01-08 05:33:00.15	312.86	9.87	-52.3	-54.4	14.3	0.00e+00	0	25	0	1096810496	70	4696
2026-01-08 05:33:01.15	312.75	9.80	-52.3	-54.4	14.3	0.00e+00	0	25	0	1098907648	70	4653
2026-01-08 05:33:02.15	312.64	9.73	-52.4	-54.5	14.3	0.00e+00	0	25	0	1099956224	70	4729
2026-01-08 05:33:03.15	312.53	9.67	-52.4	-54.5	14.3	0.00e+00	0	24	0	1102053376	70	4747
2026-01-08 05:33:04.16	312.42	9.60	-52.4	-54.6	14.2	0.00e+00	0	25	0	1104150528	70	4760
2026-01-08 05:33:05.15	312.31	9.53	-52.4	-54.6	14.2	0.00e+00	0	25	0	1106247680	70	4766
2026-01-08 05:33:06.15	312.20	9.47	-52.4	-54.6	14.2	0.00e+00	0	25	0	1108344832	70	4787
2026-01-08 05:33:07.15	312.09	9.40	-52.5	-54.7	14.2	0.00e+00	0	24	0	1109393408	70	4816
2026-01-08 05:33:08.15	311.99	9.33	-52.5	-54.8	14.1	0.00e+00	0	25	0	1111490560	70	4878
2026-01-08 05:33:09.14	311.88	9.27	-52.6	-54.9	14.0	0.00e+00	0	24	0	1113587712	70	4938
2026-01-08 05:33:10.14	311.78	9.20	-52.6	-54.9	14.0	0.00e+00	0	25	0	1115684864	70	4938
2026-01-08 05:33:11.14	311.67	9.13	-52.8	-55.1	13.9	0.00e+00	0	25	0	1116733440	70	5069
2026-01-08 05:33:12.13	311.57	9.07	-52.8	-55.1	13.9	0.00e+00	0	25	0	1118830592	70	5056
2026-01-08 05:33:13.13	311.46	9.00	-52.8	-55.1	13.9	0.00e+00	0	25	0	1120927744	70	5071
2026-01-08 05:33:14.13	311.36	8.94	-52.8	-55.2	13.9	0.00e+00	0	25	0	1123024896	70	5118
2026-01-08 05:33:15.12	311.25	8.87	-52.8	-55.1	13.9	0.00e+00	0	24	0	1125122048	70	5091
2026-01-08 05:33:16.12	311.15	8.80	-52.8	-55.2	13.8	0.00e+00	0	24	0	1126170624	70	5135
2026-01-08 05:33:17.11	311.05	8.74	-52.9	-55.2	13.8	0.00e+00	0	25	0	1128267776	70	5147
2026-01-08 05:33:18.10	310.95	8.67	-52.9	-55.3	13.8	0.00e+00	0	25	0	1130364928	70	5167
2026-01-08 05:33:19.09	310.85	8.61	-52.9	-55.3	13.8	0.00e+00	0	25	0	1132462080	70	5197
2026-01-08 05:33:20.07	310.75	8.54	-53.0	-55.4	13.9	0.00e+00	0	25	0	1133510656	71	4950
2026-01-08 05:33:21.06	310.65	8.48	-53.0	-55.4	13.9	0.00e+00	0	25	0	1135607808	71	4950
2026-01-08 05:33:22.05	310.55	8.41	-53.1	-55.6	13.8	0.00e+00	0	25	0	1137704960	71	5064
2026-01-08 05:33:23.05	310.45	8.35	-53.2	-55.7	13.7	0.00e+00	0	24	0	1139802112	71	5128
2026-01-08 05:33:24.04	310.35	8.28	-53.2	-55.7	13.7	0.00e+00	0	24	0	1140850688	71	5125
2026-01-08 05:33:25.04	310.25	8.22	-53.2	-55.7	13.7	0.00e+00	0	25	0	1142947840	71	5119
2026-01-08 05:33:26.05	310.15	8.15	-53.2	-55.8	13.6	0.00e+00	0	25	0	1145044992	71	5182
2026-01-08 05:33:27.05	310.05	8.09	-53.3	-55.9	13.6	0.00e+00	0	25	0	1147142144	71	5229
2026-01-08 05:33:28.04	309.96	8.02	-53.3	-55.9	13.5	0.00e+00	0	25	0	1149239296	71	5258
2026-01-08 05:33:29.03	309.86	7.96	-53.3	-56.0	13.5	0.00e+00	0	25	0	1150287872	71	5307
2026-01-08 05:33:30.03	309.76	7.89	-53.3	-55.9	13.5	0.00e+00	0	24	0	1152385024	71	5263
2026-01-08 05:33:31.03	309.67	7.83	-53.2	-55.8	13.6	0.00e+00	0	25	0	1154482176	71	5171
2026-01-08 05:33:32.03	309.57	7.76	-53.2	-55.7	13.6	0.00e+00	0	25	0	1156579328	71	5137
2026-01-08 05:33:33.03	309.47	7.70	-53.2	-55.7	13.7	0.00e+00	0	24	0	1158676480	71	5136
2026-01-08 05:33:34.03	309.38	7.63	-53.2	-55.8	13.6	0.00e+00	0	25	0	1159725056	71	5193
2026-01-08 05:33:35.02	309.29	7.57	-53.2	-55.7	13.6	0.00e+00	0	25	0	1161822208	71	5139
2026-01-08 05:33:36.02	309.19	7.51	-53.1	-55.6	13.7	0.00e+00	0	25	0	1163919360	71	5074
2026-01-08 05:33:37.02	309.10	7.44	-53.2	-55.7	13.6	0.00e+00	0	24	0	1166016512	71	5143
2026-01-08 05:33:38.02	309.00	7.38	-53.2	-55.8	13.6	0.00e+00	0	25	0	1168113664	71	5197
2026-01-08 05:33:39.02	308.91	7.31	-53.2	-55.8	13.6	0.00e+00	0	25	0	1169162240	71	5177
2026-01-08 05:33:40.02	308.82	7.25	-53.1	-55.7	13.6	0.00e+00	0	25	0	1171259392	71	5133
2026-01-08 05:33:41.02	308.73	7.18	-53.2	-55.8	13.6	0.00e+00	0	25	0	1173356544	71	5165
2026-01-08 05:33:42.03	308.63	7.12	-53.3	-55.9	13.5	0.00e+00	0	25	0	1175453696	71	5267
2026-01-08 05:33:43.02	308.54	7.06	-53.3	-56.0	13.4	0.00e+00	0	24	0	1176502272	71	5316
2026-01-08 05:33:44.03	308.45	6.99	-53.4	-56.1	13.4	0.00e+00	0	25	0	1178599424	71	5359
2026-01-08 05:33:45.03	308.36	6.93	-53.4	-56.2	13.4	0.00e+00	0	25	0	1180696576	72	5121
2026-01-08 05:33:46.02	308.27	6.87	-53.4	-56.1	13.5	0.00e+00	0	25	0	1182793728	72	5088
2026-01-08 05:33:47.02	308.18	6.80	-53.5	-56.2	13.4	0.00e+00	0	25	0	1184890880	72	5133
2026-01-08 05:33:48.01	308.09	6.74	-53.5	-56.3	13.4	0.00e+00	0	24	0	1185939456	72	5164
2026-01-08 05:33:49.01	308.01	6.68	-53.6	-56.4	13.3	0.00e+00	0	24	0	1188036608	72	5256
2026-01-08 05:33:50.01	307.92	6.61	-53.5	-56.3	13.3	0.00e+00	0	25	0	1190133760	72	5205
2026-01-08 05:33:51.01	307.83	6.55	-53.6	-56.4	13.3	0.00e+00	0	24	0	1192230912	72	5278
2026-01-08 05:33:52.01	307.74	6.49	-53.6	-56.5	13.2	0.00e+00	0	25	0	1194328064	72	5284
2026-01-08 05:33:53.01	307.65	6.42	-53.5	-56.4	13.3	0.00e+00	0	25	0	1195376640	72	5223
2026-01-08 05:33:54.01	307.57	6.36	-53.6	-56.4	13.2	0.00e+00	0	25	0	1197473792	72	5265
2026-01-08 05:33:55.00	307.48	6.30	-53.6	-56.5	13.1	0.00e+00	0	24	0	1199570944	72	5291
2026-01-08 05:33:56.00	307.40	6.24	-53.7	-56.6	13.1	0.00e+00	0	25	0	1201668096	72	5351
2026-01-08 05:33:57.00	307.31	6.17	-53.6	-56.5	13.2	0.00e+00	0	25	0	1202716672	72	5318
2026-01-08 05:33:57.99	307.23	6.11	-53.7	-56.6	13.1	0.00e+00	0	25	0	1204813824	72	5397
2026-01-08 05:33:59.00	307.14	6.05	-53.7	-56.6	13.1	0.00e+00	0	25	0	1206910976	72	5388
2026-01-08 05:34:00.00	307.06	5.99	-53.6	-56.5	13.2	0.00e+00	0	25	0	1209008128	72	5337
