passes_logs/2026/01/08/R3.2S_Murmansk/R3.2S_Murmansk__20260108_095944_SUOMI_NPP_rec.log

#Pass ID: 20260108_095944_SUOMI NPP
#Satellite: SUOMI NPP
#Configuration: NPP
#almurnet v.1.7.20251203
#Start time: 2026-01-08 09:59:44

#Version: 2.2.20231116
#Station: R3.2S_Murmansk
#Location: 33.079688 lon 68.888172 lat
#TLE: 1 37849U 11061A   26005.94084933  .00000134  00000+0  84554-4 0  9990
#TLE: 2 37849  98.7803 308.0679 0002567  79.1029 281.0436 14.19522657735426

#Time	Az	El	Level	Level2	SNR	BER	BlckErr	Temp	State	Recorded	gain1	gain2
2026-01-08 09:59:44.66	161.36	2.01	-58.1	-74.1	3.8	1.49e+00	0	25	0	0	82	22634
2026-01-08 09:59:45.65	161.38	2.08	-58.1	-73.9	3.8	1.49e+00	0	25	104	0	81	23560
2026-01-08 09:59:46.66	161.39	2.14	-58.1	-73.9	3.8	1.49e+00	0	25	104	0	81	23435
2026-01-08 09:59:47.66	161.41	2.21	-58.1	-73.9	3.8	1.49e+00	0	25	104	0	81	23391
2026-01-08 09:59:48.68	161.42	2.27	-58.1	-73.9	3.8	1.49e+00	0	25	104	0	81	23527
2026-01-08 09:59:49.68	161.43	2.34	-58.1	-73.9	3.8	1.49e+00	0	25	104	0	81	23511
2026-01-08 09:59:50.69	161.45	2.40	-58.1	-73.9	3.8	1.49e+00	0	25	104	0	81	23537
2026-01-08 09:59:51.70	161.46	2.47	-58.1	-74.0	3.8	1.49e+00	0	25	104	0	81	23654
2026-01-08 09:59:52.71	161.48	2.53	-58.1	-73.9	3.8	1.49e+00	0	25	104	0	81	23568
2026-01-08 09:59:53.72	161.49	2.60	-58.1	-73.9	3.8	1.49e+00	0	25	104	0	81	23475
2026-01-08 09:59:54.73	161.51	2.67	-58.1	-73.9	3.8	1.49e+00	0	25	104	0	81	23543
2026-01-08 09:59:55.74	161.52	2.73	-58.1	-73.8	3.8	1.49e+00	0	25	104	0	81	23250
2026-01-08 09:59:56.75	161.53	2.80	-58.1	-73.8	3.8	1.49e+00	0	25	104	0	81	23223
2026-01-08 09:59:57.76	161.55	2.86	-58.1	-73.8	3.8	1.49e+00	0	25	104	0	81	23219
2026-01-08 09:59:58.77	161.56	2.93	-58.1	-73.9	3.8	1.49e+00	0	25	104	0	81	23370
2026-01-08 09:59:59.78	161.58	3.00	-58.1	-74.0	3.8	1.49e+00	0	25	104	0	81	23673
2026-01-08 10:00:00.78	161.59	3.06	-58.1	-74.1	3.8	1.49e+00	0	25	104	0	81	23859
2026-01-08 10:00:01.79	161.61	3.13	-58.1	-74.1	3.8	1.49e+00	0	25	104	0	81	24049
2026-01-08 10:00:02.80	161.62	3.20	-58.1	-74.1	3.8	1.49e+00	0	25	104	0	81	24025
2026-01-08 10:00:03.81	161.64	3.27	-58.1	-74.0	3.8	1.49e+00	0	25	104	0	81	23596
2026-01-08 10:00:04.82	161.65	3.33	-58.1	-73.6	3.8	1.49e+00	0	25	104	0	81	22625
2026-01-08 10:00:05.83	161.67	3.40	-58.1	-73.1	3.8	1.49e+00	0	25	104	0	81	21454
2026-01-08 10:00:06.83	161.68	3.47	-58.0	-72.3	3.8	1.49e+00	0	25	104	0	81	19613
2026-01-08 10:00:07.85	161.70	3.54	-58.0	-71.8	3.9	1.49e+00	0	25	104	0	81	18341
2026-01-08 10:00:08.85	161.71	3.60	-58.0	-71.0	4.1	1.45e+00	0	25	0	0	81	16740
2026-01-08 10:00:09.86	161.73	3.67	-57.9	-70.0	4.4	1.38e+00	92	25	0	0	81	14964
2026-01-08 10:00:10.87	161.74	3.74	-57.9	-69.6	4.5	1.18e+00	0	26	0	1048576	81	14247
2026-01-08 10:00:11.88	161.76	3.81	-57.9	-69.2	4.7	9.15e-01	0	25	0	3145728	81	13615
2026-01-08 10:00:12.89	161.78	3.88	-57.8	-68.6	4.9	8.22e-01	0	26	0	5242880	81	12719
2026-01-08 10:00:13.90	161.79	3.95	-57.7	-67.8	5.3	6.03e-01	0	25	0	7340032	81	11607
2026-01-08 10:00:14.91	161.81	4.02	-57.6	-67.2	5.7	3.99e-01	0	25	0	9437184	81	10895
2026-01-08 10:00:15.92	161.82	4.09	-57.6	-66.9	5.9	3.15e-01	0	26	0	10485760	81	10512
2026-01-08 10:00:16.93	161.84	4.16	-57.5	-66.0	6.4	2.34e-01	0	26	0	12582912	81	9482
2026-01-08 10:00:17.94	161.85	4.23	-57.5	-65.7	6.7	1.61e-01	0	26	0	14680064	81	9165
2026-01-08 10:00:18.95	161.87	4.30	-57.4	-65.2	7.1	1.06e-01	0	26	0	16777216	81	8660
2026-01-08 10:00:19.96	161.89	4.37	-57.3	-64.7	7.6	7.76e-02	0	26	0	18874368	81	8158
2026-01-08 10:00:20.96	161.90	4.44	-57.1	-64.2	7.9	4.97e-02	0	26	0	19922944	80	8163
2026-01-08 10:00:21.97	161.92	4.51	-57.1	-63.9	8.3	3.01e-02	0	26	0	22020096	80	7812
2026-01-08 10:00:22.98	161.93	4.58	-57.0	-63.6	8.5	2.32e-02	0	26	0	24117248	80	7561
2026-01-08 10:00:23.99	161.95	4.65	-57.0	-63.5	8.6	2.16e-02	0	26	0	26214400	80	7500
2026-01-08 10:00:24.99	161.97	4.72	-56.9	-63.2	8.8	1.63e-02	0	26	0	28311552	80	7234
2026-01-08 10:00:26.00	161.98	4.79	-56.9	-63.4	8.7	1.44e-02	0	26	0	29360128	80	7407
2026-01-08 10:00:27.01	162.00	4.86	-57.0	-63.6	8.5	2.26e-02	0	26	0	31457280	80	7578
2026-01-08 10:00:28.02	162.01	4.93	-57.0	-63.7	8.4	1.95e-02	0	26	0	33554432	80	7666
2026-01-08 10:00:29.03	162.03	5.01	-57.1	-64.2	7.9	3.33e-02	0	26	0	35651584	80	8134
2026-01-08 10:00:30.04	162.05	5.08	-56.5	-61.8	10.1	6.60e-03	0	26	0	37748736	79	6525
2026-01-08 10:00:31.04	162.06	5.15	-58.1	-73.9	3.8	4.02e-01	0	26	104	38797312	81	23456
2026-01-08 10:00:32.05	162.08	5.22	-55.1	-58.6	12.2	8.93e-04	0	26	0	38797312	76	5356
2026-01-08 10:00:33.06	162.10	5.30	-56.1	-60.6	10.9	1.06e-05	0	26	0	40894464	77	6364
2026-01-08 10:00:34.07	162.11	5.37	-57.2	-64.8	7.3	4.95e-05	0	26	0	42991616	79	9187
2026-01-08 10:00:35.08	162.13	5.44	-54.8	-58.1	12.6	7.00e-07	0	26	0	45088768	76	5088
2026-01-08 10:00:36.08	162.15	5.51	-54.6	-57.7	12.7	0.00e+00	0	26	0	46137344	75	5153
2026-01-08 10:00:37.09	162.16	5.59	-54.7	-58.0	12.6	7.00e-07	0	26	0	48234496	75	5285
2026-01-08 10:00:38.10	162.18	5.66	-54.6	-57.8	12.7	0.00e+00	0	26	0	50331648	75	5174
2026-01-08 10:00:39.11	162.20	5.73	-54.5	-57.7	12.8	0.00e+00	0	26	0	52428800	75	5128
2026-01-08 10:00:40.11	162.21	5.81	-54.7	-58.1	12.5	0.00e+00	0	26	0	54525952	75	5349
2026-01-08 10:00:41.12	162.23	5.88	-54.5	-57.6	12.8	0.00e+00	0	26	0	55574528	75	5084
2026-01-08 10:00:42.13	162.25	5.96	-54.5	-57.6	12.9	0.00e+00	0	26	0	57671680	75	5074
2026-01-08 10:00:43.14	162.27	6.03	-54.5	-57.6	12.9	0.00e+00	0	26	0	59768832	75	5080
2026-01-08 10:00:44.15	162.28	6.11	-54.6	-57.8	12.7	0.00e+00	0	26	0	61865984	75	5211
2026-01-08 10:00:45.16	162.30	6.18	-54.6	-57.7	12.8	0.00e+00	0	26	0	63963136	75	5151
2026-01-08 10:00:46.16	162.32	6.26	-54.5	-57.6	12.8	0.00e+00	0	26	0	65011712	75	5088
2026-01-08 10:00:47.16	162.34	6.33	-54.5	-57.5	12.9	0.00e+00	0	26	0	67108864	75	5019
2026-01-08 10:00:48.17	162.35	6.41	-54.5	-57.5	12.9	0.00e+00	0	26	0	69206016	75	5032
2026-01-08 10:00:49.18	162.37	6.48	-54.5	-57.5	12.9	0.00e+00	0	27	0	71303168	75	5004
2026-01-08 10:00:50.19	162.39	6.56	-54.5	-57.5	12.9	0.00e+00	0	26	0	73400320	75	5038
2026-01-08 10:00:51.19	162.41	6.64	-54.5	-57.4	13.0	0.00e+00	0	26	0	74448896	75	4978
2026-01-08 10:00:52.20	162.43	6.71	-54.3	-57.2	13.2	0.00e+00	0	26	0	76546048	75	4838
2026-01-08 10:00:53.21	162.44	6.79	-54.5	-57.5	13.0	0.00e+00	0	27	0	78643200	75	5022
2026-01-08 10:00:54.22	162.46	6.87	-54.3	-57.1	13.2	0.00e+00	0	26	0	80740352	75	4800
2026-01-08 10:00:55.23	162.48	6.94	-54.3	-57.2	13.2	0.00e+00	0	26	0	82837504	75	4845
2026-01-08 10:00:56.24	162.50	7.02	-54.3	-57.2	13.2	0.00e+00	0	26	0	83886080	75	4838
2026-01-08 10:00:57.25	162.52	7.10	-54.3	-57.2	13.2	0.00e+00	0	26	0	85983232	75	4850
2026-01-08 10:00:58.26	162.54	7.18	-54.3	-57.1	13.2	0.00e+00	0	26	0	88080384	75	4795
2026-01-08 10:00:59.27	162.55	7.26	-54.2	-57.0	13.3	0.00e+00	0	26	0	90177536	75	4734
2026-01-08 10:01:00.28	162.57	7.33	-54.1	-56.7	13.3	0.00e+00	0	26	0	92274688	74	4864
2026-01-08 10:01:01.27	162.59	7.41	-54.2	-56.9	13.3	0.00e+00	0	27	0	93323264	74	4957
2026-01-08 10:01:02.27	162.61	7.49	-54.1	-56.8	13.3	0.00e+00	0	26	0	95420416	74	4917
2026-01-08 10:01:03.28	162.63	7.57	-54.1	-56.8	13.3	0.00e+00	0	27	0	97517568	74	4887
2026-01-08 10:01:04.29	162.65	7.65	-54.0	-56.7	13.4	0.00e+00	0	26	0	99614720	74	4826
2026-01-08 10:01:05.30	162.67	7.73	-53.9	-56.5	13.5	0.00e+00	0	26	0	101711872	74	4729
2026-01-08 10:01:06.31	162.69	7.81	-54.0	-56.7	13.4	0.00e+00	0	26	0	102760448	74	4834
2026-01-08 10:01:07.32	162.71	7.89	-53.9	-56.6	13.5	0.00e+00	0	26	0	104857600	74	4764
2026-01-08 10:01:08.32	162.72	7.97	-53.9	-56.4	13.5	0.00e+00	0	26	0	106954752	74	4701
2026-01-08 10:01:09.33	162.74	8.05	-53.9	-56.5	13.5	0.00e+00	0	27	0	109051904	74	4747
2026-01-08 10:01:10.34	162.76	8.13	-53.8	-56.4	13.6	0.00e+00	0	26	0	111149056	74	4683
2026-01-08 10:01:11.35	162.78	8.21	-53.8	-56.3	13.7	0.00e+00	0	26	0	112197632	74	4612
2026-01-08 10:01:12.35	162.80	8.29	-53.7	-56.2	13.7	0.00e+00	0	26	0	114294784	74	4585
2026-01-08 10:01:13.37	162.82	8.38	-53.6	-56.1	13.7	0.00e+00	0	27	0	116391936	73	4764
2026-01-08 10:01:14.37	162.84	8.46	-53.7	-56.2	13.6	0.00e+00	0	27	0	118489088	73	4865
2026-01-08 10:01:15.38	162.86	8.54	-53.6	-56.0	13.7	0.00e+00	0	27	0	120586240	73	4754
2026-01-08 10:01:16.38	162.88	8.62	-53.6	-56.0	13.7	0.00e+00	0	27	0	121634816	73	4707
2026-01-08 10:01:17.39	162.90	8.70	-53.5	-55.9	13.8	0.00e+00	0	27	0	123731968	73	4700
2026-01-08 10:01:18.39	162.92	8.79	-53.6	-56.0	13.7	0.00e+00	0	26	0	125829120	73	4715
2026-01-08 10:01:19.40	162.94	8.87	-53.6	-56.0	13.7	0.00e+00	0	26	0	127926272	73	4720
2026-01-08 10:01:20.41	162.96	8.95	-53.5	-55.9	13.8	0.00e+00	0	27	0	130023424	73	4701
2026-01-08 10:01:21.41	162.98	9.04	-53.5	-55.9	13.8	0.00e+00	0	26	0	131072000	73	4657
2026-01-08 10:01:22.42	163.00	9.12	-53.5	-55.8	13.8	0.00e+00	0	26	0	133169152	73	4631
2026-01-08 10:01:23.43	163.02	9.21	-53.3	-55.7	13.9	0.00e+00	0	27	0	135266304	73	4546
2026-01-08 10:01:24.44	163.05	9.29	-53.4	-55.7	13.9	0.00e+00	0	27	0	137363456	73	4579
2026-01-08 10:01:25.45	163.07	9.38	-53.4	-55.7	13.9	0.00e+00	0	27	0	139460608	73	4582
2026-01-08 10:01:26.45	163.09	9.46	-53.5	-55.8	13.8	0.00e+00	0	27	0	140509184	73	4639
2026-01-08 10:01:27.46	163.11	9.55	-53.5	-55.9	13.8	0.00e+00	0	27	0	142606336	73	4672
2026-01-08 10:01:28.47	163.13	9.63	-53.3	-55.5	14.0	0.00e+00	0	27	0	144703488	73	4477
2026-01-08 10:01:29.48	163.15	9.72	-53.2	-55.5	14.0	0.00e+00	0	27	0	146800640	73	4455
2026-01-08 10:01:30.48	163.17	9.80	-53.1	-55.3	14.0	0.00e+00	0	27	0	148897792	72	4627
2026-01-08 10:01:31.48	163.19	9.89	-53.1	-55.3	14.0	0.00e+00	0	27	0	149946368	72	4643
2026-01-08 10:01:32.49	163.22	9.98	-53.1	-55.2	14.0	0.00e+00	0	27	0	152043520	72	4596
2026-01-08 10:01:33.50	163.24	10.06	-53.1	-55.3	14.0	0.00e+00	0	27	0	154140672	72	4600
2026-01-08 10:01:34.50	163.26	10.15	-53.1	-55.4	14.0	0.00e+00	0	27	0	156237824	72	4655
2026-01-08 10:01:35.51	163.28	10.24	-52.9	-55.1	14.1	0.00e+00	0	27	0	158334976	72	4494
2026-01-08 10:01:36.52	163.30	10.33	-52.9	-55.1	14.1	0.00e+00	0	27	0	159383552	72	4498
2026-01-08 10:01:37.53	163.32	10.42	-53.1	-55.3	14.0	0.00e+00	0	27	0	161480704	72	4610
2026-01-08 10:01:38.53	163.35	10.51	-52.8	-54.9	14.2	0.00e+00	0	27	0	163577856	72	4402
2026-01-08 10:01:39.54	163.37	10.59	-52.8	-54.9	14.2	0.00e+00	0	27	0	165675008	72	4426
2026-01-08 10:01:40.55	163.39	10.68	-52.9	-55.0	14.2	0.00e+00	0	27	0	167772160	72	4443
2026-01-08 10:01:41.56	163.41	10.77	-52.8	-54.8	14.2	0.00e+00	0	27	0	168820736	72	4378
2026-01-08 10:01:42.57	163.44	10.87	-52.8	-54.8	14.2	0.00e+00	0	27	0	170917888	72	4380
2026-01-08 10:01:43.57	163.46	10.96	-52.8	-54.8	14.2	0.00e+00	0	27	0	173015040	72	4386
2026-01-08 10:01:44.57	163.48	11.05	-52.7	-54.7	14.2	0.00e+00	0	27	0	175112192	71	4589
2026-01-08 10:01:45.58	163.51	11.14	-52.7	-54.8	14.2	0.00e+00	0	27	0	177209344	71	4625
2026-01-08 10:01:46.58	163.53	11.23	-52.5	-54.5	14.3	0.00e+00	0	27	0	178257920	71	4461
2026-01-08 10:01:47.59	163.55	11.32	-52.6	-54.7	14.2	0.00e+00	0	27	0	180355072	71	4549
2026-01-08 10:01:48.60	163.58	11.41	-52.6	-54.7	14.2	0.00e+00	0	27	0	182452224	71	4579
2026-01-08 10:01:49.60	163.60	11.50	-52.6	-54.7	14.2	0.00e+00	0	27	0	184549376	71	4563
2026-01-08 10:01:50.61	163.62	11.60	-52.6	-54.6	14.3	0.00e+00	0	27	0	186646528	71	4538
2026-01-08 10:01:51.62	163.65	11.69	-52.6	-54.6	14.2	0.00e+00	0	27	0	187695104	71	4536
2026-01-08 10:01:52.62	163.67	11.78	-52.5	-54.5	14.3	0.00e+00	0	27	0	189792256	71	4463
2026-01-08 10:01:53.63	163.70	11.88	-52.3	-54.3	14.4	0.00e+00	0	27	0	191889408	71	4344
2026-01-08 10:01:54.64	163.72	11.97	-52.1	-54.0	14.4	0.00e+00	0	27	0	193986560	70	4493
2026-01-08 10:01:55.64	163.74	12.07	-52.3	-54.2	14.3	0.00e+00	0	27	0	196083712	70	4574
2026-01-08 10:01:56.65	163.77	12.16	-52.2	-54.1	14.3	0.00e+00	0	27	0	197132288	70	4539
2026-01-08 10:01:57.65	163.79	12.26	-52.1	-54.0	14.4	0.00e+00	0	27	0	199229440	70	4468
2026-01-08 10:01:58.66	163.82	12.35	-52.2	-54.1	14.4	0.00e+00	0	27	0	201326592	70	4522
2026-01-08 10:01:59.67	163.84	12.45	-52.2	-54.1	14.4	0.00e+00	0	27	0	203423744	70	4524
2026-01-08 10:02:00.68	163.87	12.55	-52.1	-54.0	14.4	0.00e+00	0	27	0	205520896	70	4451
2026-01-08 10:02:01.68	163.89	12.64	-52.1	-54.0	14.4	0.00e+00	0	27	0	206569472	70	4474
2026-01-08 10:02:02.69	163.92	12.74	-52.0	-53.8	14.5	0.00e+00	0	27	0	208666624	70	4371
2026-01-08 10:02:03.70	163.94	12.84	-52.0	-53.8	14.5	0.00e+00	0	27	0	210763776	70	4372
2026-01-08 10:02:04.71	163.97	12.94	-51.9	-53.7	14.6	0.00e+00	0	27	0	212860928	70	4306
2026-01-08 10:02:05.72	163.99	13.03	-51.9	-53.7	14.5	0.00e+00	0	27	0	214958080	70	4305
2026-01-08 10:02:06.73	164.02	13.13	-51.9	-53.7	14.6	0.00e+00	0	27	0	216006656	70	4297
2026-01-08 10:02:07.73	164.05	13.23	-51.9	-53.7	14.5	0.00e+00	0	27	0	218103808	70	4322
2026-01-08 10:02:08.74	164.07	13.33	-51.9	-53.7	14.5	0.00e+00	0	27	0	220200960	70	4328
2026-01-08 10:02:09.75	164.10	13.43	-51.7	-53.5	14.6	0.00e+00	0	27	0	222298112	70	4210
2026-01-08 10:02:10.75	164.13	13.53	-51.8	-53.5	14.6	0.00e+00	0	27	0	224395264	70	4234
2026-01-08 10:02:11.76	164.15	13.63	-51.7	-53.5	14.6	0.00e+00	0	27	0	225443840	70	4208
2026-01-08 10:02:12.77	164.18	13.73	-51.8	-53.5	14.6	0.00e+00	0	27	0	227540992	70	4222
2026-01-08 10:02:13.78	164.21	13.84	-51.6	-53.3	14.6	0.00e+00	0	27	0	229638144	69	4373
2026-01-08 10:02:14.79	164.23	13.94	-51.6	-53.4	14.6	0.00e+00	0	27	0	231735296	69	4395
2026-01-08 10:02:15.80	164.26	14.04	-51.6	-53.3	14.6	0.00e+00	0	27	0	233832448	69	4361
2026-01-08 10:02:16.80	164.29	14.14	-51.6	-53.4	14.6	0.00e+00	0	27	0	234881024	69	4402
2026-01-08 10:02:17.81	164.32	14.25	-51.6	-53.3	14.6	0.00e+00	0	27	0	236978176	69	4362
2026-01-08 10:02:18.82	164.34	14.35	-51.6	-53.3	14.6	0.00e+00	0	27	0	239075328	69	4368
2026-01-08 10:02:19.82	164.37	14.46	-51.5	-53.2	14.7	0.00e+00	0	27	0	241172480	69	4300
2026-01-08 10:02:20.83	164.40	14.56	-51.6	-53.3	14.6	0.00e+00	0	27	0	243269632	69	4365
2026-01-08 10:02:21.84	164.43	14.67	-51.6	-53.3	14.6	0.00e+00	0	27	0	244318208	69	4351
2026-01-08 10:02:22.85	164.46	14.77	-51.6	-53.2	14.6	0.00e+00	0	27	0	246415360	69	4336
2026-01-08 10:02:23.86	164.49	14.88	-51.7	-53.4	14.5	0.00e+00	0	27	0	248512512	69	4426
2026-01-08 10:02:24.87	164.51	14.99	-51.6	-53.3	14.6	0.00e+00	0	27	0	250609664	69	4363
2026-01-08 10:02:25.87	164.54	15.09	-51.6	-53.3	14.6	0.00e+00	0	27	0	252706816	69	4363
2026-01-08 10:02:26.88	164.57	15.20	-51.6	-53.3	14.6	0.00e+00	0	27	0	253755392	69	4383
2026-01-08 10:02:27.89	164.60	15.31	-51.5	-53.2	14.6	0.00e+00	0	27	0	255852544	69	4314
2026-01-08 10:02:28.90	164.63	15.42	-51.5	-53.1	14.7	0.00e+00	0	27	0	257949696	69	4285
2026-01-08 10:02:29.91	164.66	15.53	-51.5	-53.1	14.7	0.00e+00	0	27	0	260046848	69	4278
2026-01-08 10:02:30.91	164.69	15.63	-51.3	-53.0	14.7	0.00e+00	0	27	0	262144000	69	4206
2026-01-08 10:02:31.92	164.72	15.74	-51.5	-53.2	14.7	0.00e+00	0	27	0	264241152	69	4326
2026-01-08 10:02:32.93	164.75	15.86	-51.4	-53.0	14.7	0.00e+00	0	27	0	265289728	69	4241
2026-01-08 10:02:33.94	164.78	15.97	-51.5	-53.2	14.7	0.00e+00	0	27	0	267386880	69	4294
2026-01-08 10:02:34.95	164.81	16.08	-51.4	-53.0	14.7	0.00e+00	0	27	0	269484032	69	4224
2026-01-08 10:02:35.95	164.84	16.19	-51.2	-53.1	14.6	0.00e+00	0	27	0	271581184	68	4511
2026-01-08 10:02:36.96	164.88	16.30	-51.2	-53.1	14.6	0.00e+00	0	27	0	273678336	68	4517
2026-01-08 10:02:37.97	164.91	16.42	-51.1	-53.0	14.6	0.00e+00	0	27	0	274726912	68	4473
2026-01-08 10:02:38.98	164.94	16.53	-51.2	-53.1	14.6	0.00e+00	0	27	0	276824064	68	4538
2026-01-08 10:02:39.98	164.97	16.64	-51.2	-53.1	14.6	0.00e+00	0	27	0	278921216	68	4544
2026-01-08 10:02:40.99	165.00	16.76	-51.3	-53.3	14.5	0.00e+00	0	27	0	281018368	68	4614
2026-01-08 10:02:42.00	165.03	16.87	-51.2	-53.2	14.6	0.00e+00	0	27	0	282066944	68	4555
2026-01-08 10:02:43.01	165.07	16.99	-51.3	-53.3	14.5	0.00e+00	0	27	0	284164096	68	4603
2026-01-08 10:02:44.02	165.10	17.10	-51.5	-53.5	14.4	0.00e+00	0	27	0	286261248	68	4728
2026-01-08 10:02:45.02	165.13	17.22	-51.4	-53.4	14.4	0.00e+00	0	27	0	288358400	68	4703
2026-01-08 10:02:46.02	165.17	17.34	-51.4	-53.4	14.5	0.00e+00	0	27	0	290455552	68	4660
2026-01-08 10:02:47.03	165.20	17.45	-51.5	-53.5	14.4	0.00e+00	0	27	0	292552704	68	4727
2026-01-08 10:02:48.04	165.23	17.57	-51.6	-53.6	14.4	0.00e+00	0	27	0	293601280	68	4809
2026-01-08 10:02:49.05	165.27	17.69	-51.5	-53.6	14.4	0.00e+00	0	27	0	295698432	68	4790
2026-01-08 10:02:50.06	165.30	17.81	-51.6	-53.7	14.4	0.00e+00	0	27	0	297795584	68	4840
2026-01-08 10:02:51.07	165.34	17.93	-51.6	-53.7	14.3	0.00e+00	0	27	0	299892736	68	4864
2026-01-08 10:02:52.08	165.37	18.05	-51.6	-53.8	14.3	0.00e+00	0	27	0	301989888	68	4891
2026-01-08 10:02:53.08	165.40	18.17	-51.8	-54.0	14.2	0.00e+00	0	27	0	303038464	68	4985
2026-01-08 10:02:54.09	165.44	18.30	-51.7	-53.9	14.3	0.00e+00	0	27	0	305135616	68	4960
2026-01-08 10:02:55.10	165.47	18.42	-51.7	-53.9	14.3	0.00e+00	0	27	0	307232768	68	4978
2026-01-08 10:02:56.11	165.51	18.54	-51.7	-53.9	14.3	0.00e+00	0	27	0	309329920	68	4936
2026-01-08 10:02:57.12	165.55	18.67	-51.7	-53.9	14.3	0.00e+00	0	27	0	311427072	68	4975
2026-01-08 10:02:58.12	165.58	18.79	-51.8	-54.0	14.2	0.00e+00	0	27	0	312475648	68	5011
2026-01-08 10:02:59.13	165.62	18.92	-51.7	-53.9	14.3	0.00e+00	0	27	0	314572800	68	4975
2026-01-08 10:03:00.14	165.66	19.04	-51.9	-54.1	14.2	0.00e+00	0	27	0	316669952	68	5095
2026-01-08 10:03:01.15	165.69	19.17	-51.8	-54.1	14.3	0.00e+00	0	27	0	318767104	69	4774
2026-01-08 10:03:02.15	165.73	19.29	-51.9	-54.2	14.3	0.00e+00	0	27	0	320864256	69	4833
2026-01-08 10:03:03.16	165.77	19.42	-52.1	-54.4	14.2	0.00e+00	0	27	0	321912832	69	4960
2026-01-08 10:03:04.17	165.80	19.55	-52.1	-54.4	14.2	0.00e+00	0	27	0	324009984	69	4971
2026-01-08 10:03:05.17	165.84	19.68	-52.2	-54.6	14.1	0.00e+00	0	27	0	326107136	69	5076
2026-01-08 10:03:06.18	165.88	19.81	-52.4	-54.9	14.1	0.00e+00	0	27	0	328204288	70	4935
2026-01-08 10:03:07.18	165.92	19.94	-52.4	-54.9	14.1	0.00e+00	0	27	0	330301440	70	4953
2026-01-08 10:03:08.19	165.96	20.07	-52.5	-55.0	14.1	0.00e+00	0	27	0	331350016	70	5030
2026-01-08 10:03:09.19	166.00	20.20	-52.7	-55.3	13.9	0.00e+00	0	27	0	333447168	70	5181
2026-01-08 10:03:10.20	166.04	20.33	-52.6	-55.2	14.0	0.00e+00	0	27	0	335544320	70	5129
2026-01-08 10:03:11.21	166.08	20.46	-52.6	-55.1	14.0	0.00e+00	0	27	0	337641472	70	5073
2026-01-08 10:03:12.21	166.12	20.60	-52.6	-55.2	14.0	0.00e+00	0	27	0	339738624	70	5126
2026-01-08 10:03:13.22	166.16	20.73	-52.8	-55.4	13.9	0.00e+00	0	27	0	340787200	70	5220
2026-01-08 10:03:14.23	166.20	20.87	-52.6	-55.1	14.0	0.00e+00	0	27	0	342884352	70	5045
2026-01-08 10:03:15.23	166.24	21.00	-52.7	-55.2	14.0	0.00e+00	0	27	0	344981504	70	5112
2026-01-08 10:03:16.23	166.28	21.13	-52.6	-55.1	14.1	0.00e+00	0	27	0	347078656	70	5042
2026-01-08 10:03:17.24	166.32	21.27	-52.6	-55.1	14.0	0.00e+00	0	27	0	349175808	70	5071
2026-01-08 10:03:18.25	166.36	21.41	-52.7	-55.1	14.0	0.00e+00	0	27	0	350224384	70	5075
2026-01-08 10:03:19.25	166.41	21.55	-52.9	-55.4	13.9	0.00e+00	0	27	0	352321536	70	5228
2026-01-08 10:03:20.25	166.45	21.69	-52.8	-55.2	14.0	0.00e+00	0	27	0	354418688	70	5125
2026-01-08 10:03:21.26	166.49	21.83	-52.7	-55.1	14.0	0.00e+00	0	27	0	356515840	70	5044
2026-01-08 10:03:22.26	166.53	21.97	-52.7	-55.1	14.0	0.00e+00	0	27	0	357564416	70	5052
2026-01-08 10:03:23.26	166.58	22.11	-52.8	-55.2	14.1	0.00e+00	0	27	0	359661568	71	4825
2026-01-08 10:03:24.27	166.62	22.25	-52.9	-55.4	14.0	0.00e+00	0	27	0	361758720	71	4927
2026-01-08 10:03:25.28	166.67	22.39	-52.8	-55.2	14.1	0.00e+00	0	27	0	363855872	71	4828
2026-01-08 10:03:26.29	166.71	22.54	-53.0	-55.5	14.0	0.00e+00	0	27	0	365953024	71	4986
2026-01-08 10:03:27.30	166.76	22.68	-52.7	-55.0	14.1	0.00e+00	0	27	0	367001600	71	4754
2026-01-08 10:03:28.31	166.80	22.83	-52.6	-54.8	14.2	0.00e+00	0	27	0	369098752	71	4649
2026-01-08 10:03:29.32	166.85	22.97	-52.6	-54.9	14.2	0.00e+00	0	27	0	371195904	71	4660
2026-01-08 10:03:30.31	166.89	23.12	-52.6	-54.9	14.2	0.00e+00	0	27	0	373293056	71	4691
2026-01-08 10:03:31.32	166.94	23.27	-52.5	-54.7	14.3	0.00e+00	0	27	0	375390208	71	4593
2026-01-08 10:03:32.32	166.99	23.42	-52.5	-54.8	14.3	0.00e+00	0	27	0	377487360	71	4612
2026-01-08 10:03:33.33	167.04	23.57	-52.5	-54.7	14.3	0.00e+00	0	27	0	378535936	71	4598
2026-01-08 10:03:34.34	167.08	23.72	-52.3	-54.5	14.4	0.00e+00	0	27	0	380633088	71	4486
2026-01-08 10:03:35.34	167.13	23.87	-52.3	-54.6	14.4	0.00e+00	0	27	0	382730240	71	4518
2026-01-08 10:03:36.35	167.18	24.02	-52.4	-54.7	14.3	0.00e+00	0	27	0	384827392	71	4574
2026-01-08 10:03:37.36	167.23	24.17	-52.4	-54.7	14.3	0.00e+00	0	27	0	385875968	71	4573
2026-01-08 10:03:38.36	167.28	24.32	-52.5	-54.9	14.2	0.00e+00	0	27	0	387973120	71	4652
2026-01-08 10:03:39.37	167.33	24.48	-52.4	-54.7	14.3	0.00e+00	0	27	0	390070272	71	4572
2026-01-08 10:03:40.38	167.38	24.64	-52.3	-54.6	14.4	0.00e+00	0	27	0	392167424	71	4494
2026-01-08 10:03:41.38	167.43	24.79	-52.4	-54.6	14.4	0.00e+00	0	27	0	394264576	71	4544
2026-01-08 10:03:42.39	167.48	24.95	-52.2	-54.5	14.3	0.00e+00	0	27	0	395313152	70	4715
2026-01-08 10:03:43.40	167.54	25.11	-52.3	-54.6	14.3	0.00e+00	0	27	0	397410304	70	4781
2026-01-08 10:03:44.40	167.59	25.27	-52.3	-54.5	14.3	0.00e+00	0	27	0	399507456	70	4719
2026-01-08 10:03:45.41	167.64	25.43	-52.4	-54.6	14.3	0.00e+00	0	27	0	401604608	70	4779
2026-01-08 10:03:46.42	167.70	25.59	-52.4	-54.6	14.3	0.00e+00	0	27	0	403701760	70	4773
2026-01-08 10:03:47.43	167.75	25.75	-52.1	-54.2	14.4	0.00e+00	0	27	0	405798912	70	4568
2026-01-08 10:03:48.44	167.81	25.92	-52.0	-54.1	14.5	0.00e+00	0	27	0	406847488	70	4520
2026-01-08 10:03:49.45	167.86	26.08	-51.9	-54.0	14.5	0.00e+00	0	27	0	408944640	70	4447
2026-01-08 10:03:50.45	167.92	26.24	-52.1	-54.2	14.4	0.00e+00	0	27	0	411041792	70	4595
2026-01-08 10:03:51.46	167.97	26.41	-52.2	-54.3	14.3	0.00e+00	0	27	0	413138944	70	4635
2026-01-08 10:03:52.47	168.03	26.58	-52.4	-54.6	14.3	0.00e+00	0	27	0	415236096	70	4777
2026-01-08 10:03:53.48	168.09	26.75	-52.4	-54.6	14.3	0.00e+00	0	27	0	416284672	70	4774
2026-01-08 10:03:54.49	168.15	26.92	-52.3	-54.5	14.3	0.00e+00	0	27	0	418381824	70	4717
2026-01-08 10:03:55.50	168.20	27.09	-52.3	-54.4	14.3	0.00e+00	0	27	0	420478976	70	4688
2026-01-08 10:03:56.51	168.26	27.26	-52.4	-54.5	14.3	0.00e+00	0	27	0	422576128	70	4752
2026-01-08 10:03:57.52	168.32	27.43	-52.3	-54.4	14.3	0.00e+00	0	27	0	424673280	70	4681
2026-01-08 10:03:58.52	168.38	27.60	-52.4	-54.6	14.3	0.00e+00	0	27	0	425721856	70	4791
2026-01-08 10:03:59.53	168.44	27.78	-52.3	-54.5	14.3	0.00e+00	0	27	0	427819008	70	4724
2026-01-08 10:04:00.54	168.51	27.96	-52.4	-54.6	14.3	0.00e+00	0	27	0	429916160	70	4789
2026-01-08 10:04:01.55	168.57	28.13	-52.4	-54.6	14.3	0.00e+00	0	27	0	432013312	70	4777
2026-01-08 10:04:02.55	168.63	28.31	-52.6	-54.8	14.2	0.00e+00	0	27	0	434110464	70	4922
2026-01-08 10:04:03.56	168.69	28.49	-52.8	-55.2	14.0	0.00e+00	0	27	0	435159040	70	5135
2026-01-08 10:04:04.56	168.76	28.67	-52.8	-55.2	14.0	0.00e+00	0	27	0	437256192	70	5153
2026-01-08 10:04:05.57	168.82	28.85	-53.0	-55.5	14.0	0.00e+00	0	27	0	439353344	71	4987
2026-01-08 10:04:06.58	168.89	29.03	-52.8	-55.2	14.1	0.00e+00	0	27	0	441450496	71	4847
2026-01-08 10:04:07.59	168.96	29.22	-52.8	-55.2	14.1	0.00e+00	0	27	0	443547648	71	4862
2026-01-08 10:04:08.60	169.02	29.40	-53.1	-55.6	13.9	0.00e+00	0	27	0	444596224	71	5082
2026-01-08 10:04:09.61	169.09	29.59	-52.8	-55.2	14.1	0.00e+00	0	27	0	446693376	71	4868
2026-01-08 10:04:10.62	169.16	29.77	-53.0	-55.4	14.0	0.00e+00	0	27	0	448790528	71	4982
2026-01-08 10:04:11.63	169.23	29.96	-52.9	-55.3	14.0	0.00e+00	0	27	0	450887680	71	4916
2026-01-08 10:04:12.63	169.30	30.15	-52.9	-55.3	14.0	0.00e+00	0	27	0	452984832	71	4926
2026-01-08 10:04:13.64	169.37	30.34	-53.0	-55.4	14.0	0.00e+00	0	27	0	454033408	71	4967
2026-01-08 10:04:14.65	169.44	30.53	-52.9	-55.3	14.1	0.00e+00	0	27	0	456130560	71	4892
2026-01-08 10:04:15.66	169.51	30.73	-53.2	-55.8	13.9	0.00e+00	0	27	0	458227712	71	5169
2026-01-08 10:04:16.67	169.59	30.92	-53.0	-55.5	14.1	0.00e+00	0	27	0	460324864	72	4753
2026-01-08 10:04:17.67	169.66	31.12	-53.1	-55.6	14.0	0.00e+00	0	27	0	462422016	72	4814
2026-01-08 10:04:18.68	169.74	31.31	-53.4	-56.1	13.8	0.00e+00	0	27	0	463470592	72	5044
2026-01-08 10:04:19.69	169.81	31.51	-53.4	-56.1	13.8	0.00e+00	0	27	0	465567744	72	5051
2026-01-08 10:04:20.69	169.89	31.71	-53.2	-55.7	13.9	0.00e+00	0	27	0	467664896	72	4866
2026-01-08 10:04:21.70	169.97	31.91	-53.3	-55.9	13.8	0.00e+00	0	27	0	469762048	72	4966
2026-01-08 10:04:22.70	170.04	32.11	-53.5	-56.2	13.8	0.00e+00	0	27	0	471859200	72	5112
2026-01-08 10:04:23.71	170.12	32.32	-53.5	-56.3	13.7	0.00e+00	0	27	0	472907776	72	5162
2026-01-08 10:04:24.72	170.20	32.52	-53.6	-56.4	13.6	0.00e+00	0	27	0	475004928	72	5263
2026-01-08 10:04:25.72	170.28	32.73	-53.6	-56.6	13.5	0.00e+00	0	27	0	477102080	72	5364
2026-01-08 10:04:26.73	170.37	32.93	-53.4	-56.3	13.7	0.00e+00	0	27	0	479199232	72	5195
2026-01-08 10:04:27.73	170.45	33.14	-53.5	-56.7	13.5	0.00e+00	0	27	0	481296384	72	5408
2026-01-08 10:04:28.74	170.53	33.35	-53.3	-56.4	13.7	0.00e+00	0	27	0	482344960	72	5230
2026-01-08 10:04:29.76	170.62	33.57	-53.4	-56.4	13.6	0.00e+00	0	27	0	484442112	72	5278
2026-01-08 10:04:30.77	170.71	33.78	-53.3	-56.3	13.7	0.00e+00	0	27	0	486539264	72	5174
2026-01-08 10:04:31.77	170.79	33.99	-53.0	-55.8	13.9	0.00e+00	0	27	0	488636416	72	4918
2026-01-08 10:04:32.78	170.88	34.21	-53.5	-56.6	13.6	0.00e+00	0	27	0	490733568	72	5364
2026-01-08 10:04:33.79	170.97	34.43	-53.6	-56.8	13.4	0.00e+00	0	27	0	491782144	72	5499
2026-01-08 10:04:34.80	171.07	34.65	-53.6	-56.7	13.5	0.00e+00	0	27	0	493879296	72	5429
2026-01-08 10:04:35.80	171.16	34.86	-53.5	-56.7	13.5	0.00e+00	0	27	0	495976448	72	5420
2026-01-08 10:04:36.81	171.25	35.09	-53.5	-56.6	13.5	0.00e+00	0	27	0	498073600	72	5378
2026-01-08 10:04:37.82	171.34	35.31	-53.2	-56.2	13.7	0.00e+00	0	27	0	500170752	72	5151
2026-01-08 10:04:38.83	171.44	35.54	-53.0	-56.0	13.8	0.00e+00	0	27	0	501219328	72	5009
2026-01-08 10:04:39.83	171.54	35.76	-53.3	-56.6	13.6	0.00e+00	0	27	0	503316480	72	5348
2026-01-08 10:04:40.84	171.64	35.99	-53.2	-56.3	13.7	0.00e+00	0	27	0	505413632	72	5188
2026-01-08 10:04:41.84	171.73	36.22	-53.2	-56.2	13.7	0.00e+00	0	27	0	507510784	72	5147
2026-01-08 10:04:42.85	171.84	36.45	-53.3	-56.5	13.6	0.00e+00	0	27	0	509607936	72	5326
2026-01-08 10:04:43.86	171.94	36.68	-53.1	-56.2	13.8	0.00e+00	0	27	0	510656512	72	5101
2026-01-08 10:04:44.87	172.04	36.91	-52.8	-55.9	13.9	0.00e+00	0	27	0	512753664	72	4960
2026-01-08 10:04:45.88	172.15	37.15	-52.6	-55.4	14.0	0.00e+00	0	27	0	514850816	71	4970
2026-01-08 10:04:46.88	172.25	37.39	-52.5	-55.3	14.0	0.00e+00	0	27	0	516947968	71	4912
2026-01-08 10:04:47.89	172.36	37.62	-52.2	-55.0	14.2	0.00e+00	0	27	0	519045120	71	4732
2026-01-08 10:04:48.90	172.47	37.87	-52.5	-55.4	13.9	0.00e+00	0	27	0	520093696	70	5231
2026-01-08 10:04:49.91	172.59	38.11	-52.4	-55.2	14.0	0.00e+00	0	27	0	522190848	70	5114
2026-01-08 10:04:50.92	172.70	38.35	-52.4	-55.3	13.9	0.00e+00	0	27	0	524288000	70	5217
2026-01-08 10:04:51.93	172.81	38.60	-52.6	-55.6	13.8	0.00e+00	0	27	0	526385152	70	5355
2026-01-08 10:04:52.94	172.93	38.85	-52.7	-55.9	13.7	0.00e+00	0	27	0	528482304	70	5548
2026-01-08 10:04:53.94	173.05	39.09	-52.8	-56.1	13.6	0.00e+00	0	27	0	529530880	70	5661
2026-01-08 10:04:54.95	173.17	39.34	-52.9	-56.1	13.7	0.00e+00	0	27	0	531628032	71	5373
2026-01-08 10:04:55.95	173.29	39.59	-53.2	-56.7	13.4	0.00e+00	0	27	0	533725184	71	5782
2026-01-08 10:04:56.96	173.41	39.85	-53.4	-57.1	13.2	0.00e+00	0	27	0	535822336	71	6057
2026-01-08 10:04:57.97	173.54	40.10	-53.9	-58.0	12.8	0.00e+00	0	27	0	537919488	72	6306
2026-01-08 10:04:58.98	173.67	40.36	-53.9	-58.1	12.8	0.00e+00	0	27	0	538968064	73	6035
2026-01-08 10:04:59.98	173.79	40.62	-54.0	-58.1	12.8	0.00e+00	0	27	0	541065216	73	6037
2026-01-08 10:05:00.99	173.93	40.88	-53.7	-57.5	13.2	0.00e+00	0	27	0	543162368	73	5603
2026-01-08 10:05:02.00	174.06	41.14	-53.6	-57.2	13.2	0.00e+00	0	27	0	545259520	73	5459
2026-01-08 10:05:03.00	174.19	41.40	-53.7	-57.5	13.1	0.00e+00	0	27	0	547356672	73	5596
2026-01-08 10:05:04.01	174.33	41.67	-53.6	-57.0	13.4	0.00e+00	0	27	0	548405248	73	5322
2026-01-08 10:05:05.02	174.47	41.94	-53.5	-57.0	13.4	0.00e+00	0	27	0	550502400	73	5303
2026-01-08 10:05:06.02	174.61	42.20	-53.1	-56.3	13.7	0.00e+00	0	27	0	552599552	72	5167
2026-01-08 10:05:07.03	174.76	42.48	-52.5	-55.2	14.1	0.00e+00	0	28	0	554696704	71	4859
2026-01-08 10:05:08.04	174.90	42.75	-52.6	-55.3	14.1	0.00e+00	0	27	0	556793856	71	4904
2026-01-08 10:05:09.05	175.05	43.02	-52.4	-55.0	14.2	0.00e+00	0	27	0	557842432	71	4726
2026-01-08 10:05:10.06	175.21	43.30	-52.2	-54.8	14.2	0.00e+00	0	27	0	559939584	70	4882
2026-01-08 10:05:11.07	175.36	43.58	-52.0	-54.5	14.3	0.00e+00	0	27	0	562036736	70	4720
2026-01-08 10:05:12.07	175.52	43.86	-52.2	-54.9	14.2	0.00e+00	0	27	0	564133888	70	4934
2026-01-08 10:05:13.08	175.68	44.14	-52.5	-55.4	14.0	0.00e+00	0	27	0	566231040	70	5222
2026-01-08 10:05:14.08	175.84	44.42	-52.6	-55.5	14.0	0.00e+00	0	27	0	567279616	70	5306
2026-01-08 10:05:15.09	176.00	44.71	-52.6	-55.3	14.1	0.00e+00	0	27	0	569376768	71	4908
2026-01-08 10:05:16.09	176.17	44.99	-52.9	-55.8	13.9	0.00e+00	0	27	0	571473920	71	5169
2026-01-08 10:05:17.10	176.34	45.28	-53.2	-56.1	13.7	0.00e+00	0	27	0	573571072	71	5368
2026-01-08 10:05:18.10	176.52	45.57	-52.8	-55.7	13.9	0.00e+00	0	28	0	575668224	71	5104
2026-01-08 10:05:19.11	176.69	45.86	-53.3	-56.5	13.5	0.00e+00	0	27	0	576716800	71	5631
2026-01-08 10:05:20.12	176.87	46.16	-53.0	-56.4	13.5	0.00e+00	0	27	0	578813952	71	5543
2026-01-08 10:05:21.13	177.06	46.46	-53.1	-56.5	13.5	0.00e+00	0	27	0	580911104	71	5596
2026-01-08 10:05:22.14	177.25	46.75	-53.1	-56.6	13.5	0.00e+00	0	27	0	583008256	71	5667
2026-01-08 10:05:23.14	177.44	47.05	-53.1	-56.7	13.4	0.00e+00	0	27	0	585105408	71	5780
2026-01-08 10:05:24.15	177.63	47.35	-53.5	-57.3	13.1	0.00e+00	0	27	0	586153984	72	5826
2026-01-08 10:05:25.16	177.83	47.66	-53.8	-57.9	12.9	0.00e+00	0	27	0	588251136	73	5890
2026-01-08 10:05:26.17	178.03	47.96	-54.1	-58.4	12.7	0.00e+00	0	27	0	590348288	73	6227
2026-01-08 10:05:27.18	178.24	48.27	-54.0	-58.1	12.9	0.00e+00	0	27	0	592445440	73	6011
2026-01-08 10:05:28.18	178.45	48.58	-53.8	-57.7	13.0	0.00e+00	0	27	0	594542592	73	5740
2026-01-08 10:05:29.19	178.66	48.89	-53.0	-56.3	13.7	0.00e+00	0	27	0	595591168	72	5214
2026-01-08 10:05:30.20	178.88	49.20	-52.5	-55.5	13.9	0.00e+00	0	27	0	597688320	71	5031
2026-01-08 10:05:31.21	179.11	49.52	-52.1	-55.0	14.1	0.00e+00	0	27	0	599785472	70	4995
2026-01-08 10:05:32.22	179.33	49.84	-51.8	-54.7	14.3	0.00e+00	0	27	0	601882624	70	4820
2026-01-08 10:05:33.22	179.57	50.15	-51.6	-54.4	14.3	0.00e+00	0	27	0	603979776	69	4932
2026-01-08 10:05:34.22	179.80	50.47	-51.1	-53.6	14.5	0.00e+00	0	27	0	605028352	68	4811
2026-01-08 10:05:35.23	180.04	50.79	-51.1	-53.7	14.5	0.00e+00	0	27	0	607125504	68	4827
2026-01-08 10:05:36.24	180.29	51.11	-50.8	-53.1	14.7	0.00e+00	0	27	0	609222656	68	4523
2026-01-08 10:05:37.25	180.54	51.44	-50.9	-53.2	14.7	0.00e+00	0	27	0	611319808	68	4546
2026-01-08 10:05:38.26	180.80	51.76	-50.8	-52.9	14.8	0.00e+00	0	27	0	613416960	68	4401
2026-01-08 10:05:39.27	181.07	52.09	-50.3	-52.3	14.8	0.00e+00	0	27	0	615514112	67	4355
2026-01-08 10:05:40.27	181.34	52.42	-49.9	-51.9	14.9	0.00e+00	0	27	0	616562688	66	4424
2026-01-08 10:05:41.28	181.61	52.75	-49.9	-51.9	14.9	0.00e+00	0	27	0	618659840	66	4429
2026-01-08 10:05:42.29	181.89	53.09	-49.7	-51.6	14.9	0.00e+00	0	27	0	620756992	65	4513
2026-01-08 10:05:43.29	182.18	53.42	-49.8	-51.8	14.8	0.00e+00	0	27	0	622854144	65	4609
2026-01-08 10:05:44.30	182.48	53.75	-49.9	-51.8	14.7	0.00e+00	0	27	0	623902720	65	4617
2026-01-08 10:05:45.31	182.78	54.09	-50.3	-52.1	14.6	0.00e+00	0	27	0	625999872	65	4803
2026-01-08 10:05:46.32	183.09	54.43	-50.0	-51.8	14.9	0.00e+00	0	27	0	628097024	66	4357
2026-01-08 10:05:47.32	183.40	54.77	-49.5	-51.2	14.9	0.00e+00	0	27	0	630194176	65	4294
2026-01-08 10:05:48.33	183.72	55.11	-49.0	-50.5	15.0	0.00e+00	0	27	0	632291328	64	4233
2026-01-08 10:05:49.33	184.05	55.45	-49.1	-50.7	15.0	0.00e+00	0	27	0	633339904	64	4299
2026-01-08 10:05:50.35	184.40	55.80	-49.1	-50.7	15.0	0.00e+00	0	28	0	635437056	64	4322
2026-01-08 10:05:51.36	184.74	56.14	-49.3	-51.0	14.9	0.00e+00	0	27	0	637534208	64	4467
2026-01-08 10:05:52.36	185.10	56.49	-49.5	-51.2	14.7	0.00e+00	0	27	0	639631360	64	4559
2026-01-08 10:05:53.37	185.46	56.83	-49.7	-51.5	14.7	0.00e+00	0	28	0	641728512	64	4729
2026-01-08 10:05:54.38	185.84	57.18	-49.5	-51.2	14.8	0.00e+00	0	27	0	643825664	64	4558
2026-01-08 10:05:55.39	186.22	57.53	-49.2	-50.8	14.9	0.00e+00	0	27	0	644874240	64	4386
2026-01-08 10:05:56.39	186.62	57.88	-49.2	-50.8	14.9	0.00e+00	0	27	0	646971392	64	4376
2026-01-08 10:05:57.39	187.02	58.23	-49.6	-51.4	14.8	0.00e+00	0	27	0	649068544	64	4658
2026-01-08 10:05:58.40	187.43	58.58	-49.9	-51.7	14.7	0.00e+00	0	27	0	651165696	64	4849
2026-01-08 10:05:59.41	187.86	58.93	-50.0	-51.7	14.8	0.00e+00	0	27	0	652214272	65	4589
2026-01-08 10:06:00.42	188.30	59.29	-49.5	-51.1	15.0	0.00e+00	0	27	0	654311424	65	4245
2026-01-08 10:06:01.43	188.75	59.64	-49.1	-50.6	15.0	0.00e+00	0	27	0	656408576	64	4275
2026-01-08 10:06:02.43	189.21	59.99	-49.0	-50.5	15.1	0.00e+00	0	27	0	658505728	64	4230
2026-01-08 10:06:03.43	189.68	60.34	-49.4	-50.9	14.9	0.00e+00	0	27	0	660602880	64	4427
2026-01-08 10:06:04.44	190.16	60.70	-49.3	-50.8	14.9	0.00e+00	0	27	0	661651456	64	4383
2026-01-08 10:06:05.44	190.66	61.05	-49.4	-51.0	14.9	0.00e+00	0	28	0	663748608	64	4454
2026-01-08 10:06:06.45	191.18	61.40	-49.5	-51.1	14.9	0.00e+00	0	27	0	665845760	64	4497
2026-01-08 10:06:07.46	191.71	61.76	-49.9	-51.6	14.8	0.00e+00	0	27	0	667942912	65	4498
2026-01-08 10:06:08.47	192.25	62.11	-50.8	-52.7	14.7	0.00e+00	0	27	0	670040064	67	4562
2026-01-08 10:06:09.47	192.81	62.47	-51.8	-53.9	14.3	0.00e+00	0	27	0	672137216	68	4973
2026-01-08 10:06:10.48	193.39	62.82	-51.6	-53.7	14.4	0.00e+00	0	27	0	673185792	68	4828
2026-01-08 10:06:11.48	193.98	63.17	-50.7	-52.5	14.8	0.00e+00	0	27	0	675282944	68	4240
2026-01-08 10:06:12.49	194.59	63.52	-49.4	-51.0	15.0	0.00e+00	0	28	0	677380096	65	4211
2026-01-08 10:06:13.50	195.22	63.87	-49.2	-50.7	15.0	0.00e+00	0	27	0	679477248	64	4336
2026-01-08 10:06:14.51	195.88	64.22	-49.6	-51.2	14.8	0.00e+00	0	27	0	680525824	64	4571
2026-01-08 10:06:15.51	196.54	64.57	-50.1	-51.8	14.7	0.00e+00	0	27	0	682622976	65	4610
2026-01-08 10:06:16.52	197.23	64.91	-50.7	-52.5	14.6	0.00e+00	0	27	0	684720128	66	4741
2026-01-08 10:06:17.52	197.94	65.26	-50.9	-52.8	14.6	0.00e+00	0	27	0	686817280	67	4630
2026-01-08 10:06:18.52	198.67	65.60	-50.5	-52.2	14.8	0.00e+00	0	28	0	688914432	67	4336
2026-01-08 10:06:19.53	199.42	65.94	-49.9	-51.5	15.0	0.00e+00	0	28	0	689963008	66	4233
2026-01-08 10:06:20.53	200.20	66.27	-50.1	-51.7	14.9	0.00e+00	0	27	0	692060160	66	4320
2026-01-08 10:06:21.54	201.00	66.61	-51.7	-53.5	14.6	0.00e+00	0	27	0	694157312	68	4741
2026-01-08 10:06:22.54	201.83	66.94	-52.8	-54.9	14.2	0.00e+00	0	27	0	696254464	70	4974
2026-01-08 10:06:23.54	202.68	67.26	-52.7	-54.6	14.4	0.00e+00	0	27	0	698351616	71	4543
2026-01-08 10:06:24.55	203.56	67.59	-52.0	-53.8	14.6	0.00e+00	0	27	0	699400192	70	4375
2026-01-08 10:06:25.55	204.46	67.91	-52.3	-54.2	14.5	0.00e+00	0	28	0	701497344	70	4546
2026-01-08 10:06:26.56	205.41	68.23	-52.5	-54.4	14.4	0.00e+00	0	27	0	703594496	70	4677
2026-01-08 10:06:27.56	206.37	68.54	-52.4	-54.3	14.6	0.00e+00	0	27	0	705691648	71	4342
2026-01-08 10:06:28.57	207.37	68.85	-51.9	-53.7	14.7	0.00e+00	0	27	0	707788800	70	4296
2026-01-08 10:06:29.58	208.40	69.15	-52.1	-54.0	14.6	0.00e+00	0	27	0	708837376	70	4447
2026-01-08 10:06:30.59	209.47	69.45	-52.9	-55.0	14.3	0.00e+00	0	28	0	710934528	71	4736
2026-01-08 10:06:31.60	210.57	69.75	-52.9	-54.9	14.3	0.00e+00	0	27	0	713031680	71	4662
2026-01-08 10:06:32.60	211.69	70.03	-53.3	-55.4	14.1	0.00e+00	0	28	0	715128832	71	4958
2026-01-08 10:06:33.61	212.86	70.31	-54.0	-56.3	13.9	0.00e+00	0	28	0	717225984	73	4906
2026-01-08 10:06:34.62	214.07	70.58	-53.4	-55.5	14.2	0.00e+00	0	28	0	718274560	73	4479
2026-01-08 10:06:35.61	215.28	70.84	-52.8	-54.7	14.5	0.00e+00	0	28	0	720371712	72	4339
2026-01-08 10:06:36.63	216.57	71.10	-53.2	-55.3	14.1	0.00e+00	0	27	0	722468864	71	4893
2026-01-08 10:06:37.64	217.88	71.35	-54.1	-56.6	13.8	0.00e+00	0	28	0	724566016	73	5078
2026-01-08 10:06:38.64	219.22	71.59	-54.2	-57.1	13.5	0.00e+00	0	28	0	726663168	73	5358
2026-01-08 10:06:39.65	220.60	71.82	-53.6	-56.1	14.0	0.00e+00	0	28	0	727711744	73	4795
2026-01-08 10:06:40.65	222.01	72.04	-52.6	-54.6	14.4	0.00e+00	0	27	0	729808896	71	4538
2026-01-08 10:06:41.66	223.47	72.25	-52.2	-54.1	14.6	0.00e+00	0	27	0	731906048	71	4245
2026-01-08 10:06:42.67	224.97	72.45	-51.6	-53.4	14.7	0.00e+00	0	27	0	734003200	69	4407
2026-01-08 10:06:43.68	226.50	72.64	-51.8	-53.6	14.6	0.00e+00	0	27	0	736100352	69	4514
2026-01-08 10:06:44.69	228.06	72.82	-52.2	-54.1	14.5	0.00e+00	0	28	0	737148928	69	4803
2026-01-08 10:06:45.70	229.66	72.99	-52.6	-54.5	14.4	0.00e+00	0	27	0	739246080	70	4758
2026-01-08 10:06:46.70	231.28	73.14	-52.2	-54.0	14.5	0.00e+00	0	27	0	741343232	70	4493
2026-01-08 10:06:47.71	232.94	73.28	-51.5	-53.2	14.7	0.00e+00	0	27	0	743440384	69	4328
2026-01-08 10:06:48.72	234.62	73.41	-51.4	-53.1	14.7	0.00e+00	0	28	0	745537536	68	4534
2026-01-08 10:06:49.73	236.34	73.52	-52.3	-54.2	14.4	0.00e+00	0	28	0	746586112	69	4842
2026-01-08 10:06:50.73	238.05	73.62	-52.4	-54.3	14.4	0.00e+00	0	28	0	748683264	70	4614
2026-01-08 10:06:51.74	239.81	73.70	-51.3	-53.0	14.8	0.00e+00	0	27	0	750780416	69	4201
2026-01-08 10:06:52.75	241.58	73.77	-51.4	-53.0	14.7	0.00e+00	0	27	0	752877568	68	4469
2026-01-08 10:06:53.76	243.37	73.83	-51.2	-52.8	14.8	0.00e+00	0	28	0	754974720	68	4362
2026-01-08 10:06:54.77	245.17	73.87	-50.2	-51.6	15.0	0.00e+00	0	27	0	757071872	67	4043
2026-01-08 10:06:55.78	246.98	73.89	-50.6	-52.1	14.9	0.00e+00	0	27	0	758120448	67	4250
2026-01-08 10:06:56.78	248.77	73.90	-50.9	-52.5	14.8	0.00e+00	0	27	0	760217600	67	4458
2026-01-08 10:06:57.79	250.58	73.90	-51.4	-53.1	14.6	0.00e+00	0	27	0	762314752	67	4773
2026-01-08 10:06:58.79	252.37	73.88	-53.0	-55.1	14.2	0.00e+00	0	27	0	764411904	71	4807
2026-01-08 10:06:59.80	254.17	73.84	-53.5	-55.8	14.1	0.00e+00	0	27	0	765460480	72	4880
2026-01-08 10:07:00.81	255.96	73.79	-52.1	-53.9	14.7	0.00e+00	0	27	0	767557632	70	4393
2026-01-08 10:07:01.82	257.74	73.72	-51.3	-52.9	14.9	0.00e+00	0	27	0	769654784	69	4159
2026-01-08 10:07:02.83	259.50	73.64	-50.9	-52.4	14.9	0.00e+00	0	27	0	771751936	68	4154
2026-01-08 10:07:03.83	261.23	73.55	-51.7	-53.4	14.6	0.00e+00	0	27	0	773849088	68	4683
2026-01-08 10:07:04.83	262.93	73.44	-52.3	-54.2	14.5	0.00e+00	0	27	0	774897664	70	4562
2026-01-08 10:07:05.84	264.62	73.32	-52.6	-54.5	14.4	0.00e+00	0	27	0	776994816	70	4758
2026-01-08 10:07:06.85	266.29	73.18	-53.5	-55.7	14.1	0.00e+00	0	27	0	779091968	72	4830
2026-01-08 10:07:07.86	267.93	73.03	-54.0	-56.3	13.9	0.00e+00	0	27	0	781189120	73	4895
2026-01-08 10:07:08.87	269.53	72.87	-53.5	-55.7	14.3	0.00e+00	0	28	0	783286272	73	4556
2026-01-08 10:07:09.88	271.11	72.69	-53.8	-56.1	14.0	0.00e+00	0	28	0	785383424	73	4786
2026-01-08 10:07:10.89	272.65	72.51	-53.8	-56.2	14.0	0.00e+00	0	27	0	786432000	73	4823
2026-01-08 10:07:11.90	274.15	72.31	-53.2	-55.1	14.5	0.00e+00	0	28	0	788529152	73	4275
2026-01-08 10:07:12.91	275.62	72.10	-53.8	-56.0	13.9	0.00e+00	0	27	0	790626304	72	5007
2026-01-08 10:07:13.92	277.05	71.88	-54.3	-56.6	13.9	0.00e+00	0	27	0	792723456	74	4813
2026-01-08 10:07:14.92	278.43	71.66	-53.6	-55.8	14.2	0.00e+00	0	27	0	794820608	73	4617
2026-01-08 10:07:15.92	279.78	71.42	-54.1	-56.4	13.9	0.00e+00	0	27	0	795869184	73	4955
2026-01-08 10:07:16.93	281.10	71.18	-56.1	-59.7	12.5	0.00e+00	0	27	0	797966336	77	5784
2026-01-08 10:07:17.94	282.39	70.92	-56.6	-60.6	12.0	3.00e-06	0	27	0	800063488	78	6060
2026-01-08 10:07:18.94	283.62	70.66	-56.5	-60.4	12.0	7.00e-07	0	28	0	802160640	78	5865
2026-01-08 10:07:19.95	284.84	70.39	-56.1	-59.8	12.5	7.00e-07	0	27	0	803209216	78	5493
2026-01-08 10:07:20.96	286.01	70.11	-54.9	-57.6	13.6	0.00e+00	0	27	0	805306368	76	4775
2026-01-08 10:07:21.96	287.15	69.83	-54.2	-56.6	13.9	0.00e+00	0	27	0	807403520	75	4526
2026-01-08 10:07:22.97	288.25	69.54	-53.9	-56.2	14.1	0.00e+00	0	27	0	809500672	74	4581
2026-01-08 10:07:23.98	289.33	69.24	-53.2	-55.2	14.3	0.00e+00	0	28	0	811597824	72	4573
2026-01-08 10:07:24.99	290.37	68.94	-54.6	-57.2	13.6	0.00e+00	0	27	0	813694976	74	5121
2026-01-08 10:07:26.00	291.38	68.63	-55.0	-58.1	13.1	0.00e+00	0	27	0	814743552	75	5392
2026-01-08 10:07:27.01	292.36	68.32	-54.3	-56.9	13.9	0.00e+00	0	27	0	816840704	74	4927
2026-01-08 10:07:28.01	293.30	68.01	-54.0	-56.4	13.9	0.00e+00	0	28	0	818937856	74	4695
2026-01-08 10:07:29.02	294.22	67.68	-53.9	-56.4	14.0	0.00e+00	0	28	0	821035008	74	4677
2026-01-08 10:07:30.02	295.10	67.36	-53.2	-55.5	14.2	0.00e+00	0	28	0	823132160	72	4734
2026-01-08 10:07:31.03	295.97	67.03	-53.5	-56.1	13.9	0.00e+00	0	27	0	824180736	72	5067
2026-01-08 10:07:32.03	296.80	66.71	-53.4	-56.0	13.9	0.00e+00	0	27	0	826277888	72	5007
2026-01-08 10:07:33.04	297.61	66.37	-53.2	-55.7	14.0	0.00e+00	0	28	0	828375040	72	4858
2026-01-08 10:07:34.05	298.40	66.03	-52.5	-54.7	14.4	0.00e+00	0	27	0	830472192	71	4581
2026-01-08 10:07:35.06	299.16	65.69	-51.7	-53.6	14.7	0.00e+00	0	27	0	831520768	70	4275
2026-01-08 10:07:36.06	299.89	65.36	-50.5	-52.2	14.9	0.00e+00	0	27	0	833617920	67	4333
2026-01-08 10:07:37.07	300.61	65.01	-50.1	-51.7	14.9	0.00e+00	0	28	0	835715072	66	4304
2026-01-08 10:07:38.07	301.30	64.67	-50.5	-52.2	14.7	0.00e+00	0	27	0	837812224	66	4576
2026-01-08 10:07:39.08	301.98	64.32	-51.3	-53.2	14.4	0.00e+00	0	27	0	839909376	67	4846
2026-01-08 10:07:40.09	302.63	63.97	-51.1	-53.1	14.5	0.00e+00	0	27	0	842006528	67	4761
2026-01-08 10:07:41.10	303.27	63.62	-50.3	-52.0	14.9	0.00e+00	0	27	0	843055104	67	4199
2026-01-08 10:07:42.11	303.89	63.27	-49.3	-50.8	15.1	0.00e+00	0	28	0	845152256	65	4108
2026-01-08 10:07:43.11	304.48	62.92	-49.0	-50.4	15.1	0.00e+00	0	27	0	847249408	64	4180
2026-01-08 10:07:44.12	305.06	62.57	-48.9	-50.4	15.0	0.00e+00	0	27	0	849346560	63	4396
2026-01-08 10:07:45.12	305.62	62.22	-49.6	-51.3	14.8	0.00e+00	0	27	0	851443712	64	4605
2026-01-08 10:07:46.13	306.17	61.87	-50.1	-51.9	14.7	0.00e+00	0	27	0	852492288	65	4654
2026-01-08 10:07:47.14	306.71	61.51	-50.1	-51.8	14.8	0.00e+00	0	27	0	854589440	65	4649
2026-01-08 10:07:48.14	307.22	61.16	-49.7	-51.4	14.9	0.00e+00	0	28	0	856686592	65	4424
2026-01-08 10:07:49.16	307.73	60.80	-49.7	-51.4	14.8	0.00e+00	0	27	0	858783744	65	4439
2026-01-08 10:07:50.16	308.22	60.45	-49.7	-51.4	14.9	0.00e+00	0	27	0	859832320	65	4402
2026-01-08 10:07:51.16	308.69	60.10	-49.7	-51.4	14.9	0.00e+00	0	27	0	861929472	65	4396
2026-01-08 10:07:52.17	309.16	59.75	-49.2	-50.7	15.1	0.00e+00	0	27	0	864026624	65	4098
2026-01-08 10:07:53.18	309.61	59.40	-48.7	-50.2	15.2	0.00e+00	0	27	0	866123776	64	4090
2026-01-08 10:07:54.19	310.05	59.04	-49.3	-50.9	15.0	0.00e+00	0	27	0	868220928	64	4393
2026-01-08 10:07:55.20	310.48	58.69	-50.2	-52.1	14.6	0.00e+00	0	27	0	870318080	65	4782
2026-01-08 10:07:56.21	310.90	58.34	-50.7	-52.6	14.6	0.00e+00	0	27	0	871366656	66	4788
2026-01-08 10:07:57.22	311.30	57.99	-50.3	-52.2	14.7	0.00e+00	0	28	0	873463808	66	4551
2026-01-08 10:07:58.22	311.70	57.64	-49.1	-50.7	15.0	0.00e+00	0	27	0	875560960	64	4318
2026-01-08 10:07:59.23	312.08	57.29	-48.9	-50.4	15.1	0.00e+00	0	28	0	877658112	64	4181
2026-01-08 10:08:00.24	312.46	56.94	-49.3	-50.9	14.8	0.00e+00	0	28	0	879755264	63	4683
2026-01-08 10:08:01.24	312.83	56.60	-49.5	-51.2	14.9	0.00e+00	0	27	0	880803840	64	4551
2026-01-08 10:08:02.25	313.18	56.25	-49.8	-51.6	14.7	0.00e+00	0	28	0	882900992	64	4782
2026-01-08 10:08:03.26	313.54	55.91	-49.8	-51.6	14.8	0.00e+00	0	27	0	884998144	65	4518
2026-01-08 10:08:04.27	313.88	55.57	-50.0	-51.8	14.7	0.00e+00	0	27	0	887095296	65	4629
2026-01-08 10:08:05.28	314.21	55.22	-50.1	-52.0	14.7	0.00e+00	0	27	0	889192448	65	4711
2026-01-08 10:08:06.28	314.53	54.88	-49.9	-51.8	14.7	0.00e+00	0	27	0	890241024	65	4602
2026-01-08 10:08:07.29	314.85	54.54	-50.0	-51.9	14.7	0.00e+00	0	27	0	892338176	65	4652
2026-01-08 10:08:08.30	315.16	54.21	-50.9	-53.0	14.4	0.00e+00	0	27	0	894435328	66	5018
2026-01-08 10:08:09.31	315.47	53.87	-52.1	-54.6	14.2	0.00e+00	0	27	0	896532480	69	5059
2026-01-08 10:08:10.32	315.76	53.53	-51.9	-54.3	14.3	0.00e+00	0	27	0	898629632	69	4926
2026-01-08 10:08:11.32	316.05	53.20	-51.1	-53.2	14.6	0.00e+00	0	27	0	899678208	68	4595
2026-01-08 10:08:12.33	316.33	52.87	-50.0	-51.9	14.8	0.00e+00	0	28	0	901775360	66	4425
2026-01-08 10:08:13.34	316.61	52.54	-49.9	-51.8	14.8	0.00e+00	0	27	0	903872512	66	4384
2026-01-08 10:08:14.35	316.88	52.21	-50.0	-51.9	14.8	0.00e+00	0	27	0	905969664	66	4428
2026-01-08 10:08:15.35	317.15	51.88	-49.7	-51.5	14.8	0.00e+00	0	27	0	908066816	65	4479
2026-01-08 10:08:16.36	317.41	51.56	-49.2	-50.9	15.1	0.00e+00	0	27	0	909115392	65	4168
2026-01-08 10:08:17.37	317.66	51.23	-49.8	-51.6	14.7	0.00e+00	0	27	0	911212544	64	4806
2026-01-08 10:08:18.37	317.91	50.91	-51.2	-53.5	14.3	0.00e+00	0	27	0	913309696	67	5021
2026-01-08 10:08:19.38	318.15	50.59	-51.5	-53.9	14.4	0.00e+00	0	27	0	915406848	68	4928
2026-01-08 10:08:20.38	318.39	50.28	-50.8	-52.8	14.7	0.00e+00	0	28	0	917504000	68	4378
2026-01-08 10:08:21.39	318.62	49.96	-49.9	-51.8	14.8	0.00e+00	0	27	0	918552576	66	4343
2026-01-08 10:08:22.40	318.85	49.64	-50.7	-52.6	14.6	0.00e+00	0	27	0	920649728	66	4802
2026-01-08 10:08:23.41	319.08	49.33	-52.8	-55.6	13.8	0.00e+00	0	27	0	922746880	70	5364
2026-01-08 10:08:24.42	319.30	49.01	-53.7	-57.2	13.2	0.00e+00	0	27	0	924844032	72	5743
2026-01-08 10:08:25.43	319.51	48.70	-53.8	-57.2	13.3	0.00e+00	0	27	0	926941184	73	5442
2026-01-08 10:08:26.43	319.72	48.40	-53.3	-56.4	13.7	0.00e+00	0	27	0	927989760	73	4974
2026-01-08 10:08:27.44	319.93	48.09	-52.5	-55.1	14.1	0.00e+00	0	27	0	930086912	71	4802
2026-01-08 10:08:28.44	320.13	47.79	-52.3	-54.7	14.3	0.00e+00	0	27	0	932184064	71	4596
2026-01-08 10:08:29.45	320.33	47.48	-53.2	-56.0	13.7	0.00e+00	0	27	0	934281216	71	5308
2026-01-08 10:08:30.46	320.53	47.18	-53.6	-56.7	13.4	0.00e+00	0	27	0	936378368	72	5448
2026-01-08 10:08:31.47	320.72	46.88	-53.3	-56.2	13.7	0.00e+00	0	27	0	937426944	72	5107
2026-01-08 10:08:32.47	320.91	46.59	-52.4	-54.8	14.3	0.00e+00	0	27	0	939524096	71	4615
2026-01-08 10:08:33.48	321.09	46.29	-53.0	-55.8	13.8	0.00e+00	0	27	0	941621248	71	5169
2026-01-08 10:08:34.49	321.28	45.99	-53.5	-56.5	13.5	0.00e+00	0	27	0	943718400	72	5322
2026-01-08 10:08:35.49	321.45	45.70	-53.5	-56.3	13.7	0.00e+00	0	27	0	945815552	72	5205
2026-01-08 10:08:36.50	321.63	45.41	-52.7	-55.1	14.2	0.00e+00	0	27	0	946864128	71	4779
2026-01-08 10:08:37.51	321.80	45.12	-52.0	-54.2	14.4	0.00e+00	0	27	0	948961280	70	4569
2026-01-08 10:08:38.52	321.97	44.84	-52.1	-54.3	14.4	0.00e+00	0	27	0	951058432	70	4604
2026-01-08 10:08:39.52	322.13	44.55	-52.5	-54.9	14.0	0.00e+00	0	27	0	953155584	70	4977
2026-01-08 10:08:40.53	322.30	44.27	-52.9	-55.7	13.8	0.00e+00	0	28	0	955252736	71	5102
2026-01-08 10:08:41.54	322.46	43.99	-53.1	-56.1	13.6	0.00e+00	0	27	0	956301312	71	5352
2026-01-08 10:08:42.54	322.62	43.71	-53.7	-57.2	13.1	0.00e+00	0	27	0	958398464	72	5751
2026-01-08 10:08:43.55	322.77	43.43	-53.9	-57.5	13.1	0.00e+00	0	27	0	960495616	73	5629
2026-01-08 10:08:44.56	322.92	43.16	-53.9	-57.2	13.3	0.00e+00	0	28	0	962592768	73	5437
2026-01-08 10:08:45.57	323.07	42.88	-53.3	-56.1	13.8	0.00e+00	0	27	0	964689920	73	4812
2026-01-08 10:08:46.58	323.22	42.61	-53.2	-56.0	13.8	0.00e+00	0	27	0	965738496	72	5026
2026-01-08 10:08:47.59	323.37	42.34	-52.1	-54.4	14.3	0.00e+00	0	28	0	967835648	70	4690
2026-01-08 10:08:48.59	323.51	42.07	-51.3	-53.3	14.7	0.00e+00	0	27	0	969932800	69	4350
2026-01-08 10:08:49.60	323.65	41.80	-50.8	-52.7	14.8	0.00e+00	0	27	0	972029952	68	4315
2026-01-08 10:08:50.61	323.79	41.54	-50.1	-51.8	14.8	0.00e+00	0	27	0	974127104	66	4379
2026-01-08 10:08:51.62	323.93	41.27	-50.4	-52.1	14.8	0.00e+00	0	28	0	975175680	66	4540
2026-01-08 10:08:52.62	324.06	41.01	-51.0	-53.0	14.5	0.00e+00	0	27	0	977272832	67	4748
2026-01-08 10:08:53.63	324.19	40.75	-52.0	-54.3	14.3	0.00e+00	0	28	0	979369984	69	4886
2026-01-08 10:08:54.64	324.32	40.49	-52.0	-54.2	14.3	0.00e+00	0	28	0	981467136	69	4854
2026-01-08 10:08:55.65	324.45	40.24	-51.9	-54.1	14.3	0.00e+00	0	27	0	983564288	69	4810
2026-01-08 10:08:56.66	324.58	39.98	-51.4	-53.6	14.5	0.00e+00	0	27	0	984612864	69	4523
2026-01-08 10:08:57.66	324.70	39.73	-50.1	-51.9	14.8	0.00e+00	0	28	0	986710016	66	4427
2026-01-08 10:08:58.67	324.82	39.48	-50.1	-51.9	14.8	0.00e+00	0	28	0	988807168	66	4406
2026-01-08 10:08:59.67	324.94	39.23	-50.1	-52.0	14.8	0.00e+00	0	27	0	990904320	66	4443
2026-01-08 10:09:00.68	325.06	38.98	-50.5	-52.5	14.6	0.00e+00	0	27	0	993001472	66	4732
2026-01-08 10:09:01.68	325.18	38.74	-51.3	-53.5	14.3	0.00e+00	0	28	0	994050048	67	5031
2026-01-08 10:09:02.69	325.29	38.49	-52.9	-55.8	13.7	0.00e+00	0	27	0	996147200	70	5483
2026-01-08 10:09:03.70	325.40	38.25	-53.0	-56.0	13.7	0.00e+00	0	28	0	998244352	71	5298
2026-01-08 10:09:04.70	325.52	38.01	-53.0	-55.9	13.8	0.00e+00	0	27	0	1000341504	71	5244
2026-01-08 10:09:05.71	325.63	37.77	-52.9	-55.7	13.8	0.00e+00	0	27	0	1002438656	71	5140
2026-01-08 10:09:06.72	325.74	37.53	-52.1	-54.5	14.3	0.00e+00	0	27	0	1003487232	70	4716
2026-01-08 10:09:07.72	325.84	37.29	-51.8	-54.0	14.5	0.00e+00	0	28	0	1005584384	70	4480
2026-01-08 10:09:08.73	325.95	37.06	-51.5	-53.7	14.5	0.00e+00	0	28	0	1007681536	69	4559
2026-01-08 10:09:09.73	326.05	36.83	-51.4	-53.5	14.5	0.00e+00	0	27	0	1009778688	68	4723
2026-01-08 10:09:10.74	326.16	36.59	-51.4	-53.5	14.4	0.00e+00	0	27	0	1011875840	68	4731
2026-01-08 10:09:11.74	326.26	36.36	-51.3	-53.4	14.5	0.00e+00	0	27	0	1012924416	68	4678
2026-01-08 10:09:12.75	326.36	36.14	-51.5	-53.6	14.3	0.00e+00	0	27	0	1015021568	68	4796
2026-01-08 10:09:13.76	326.46	35.91	-51.5	-53.6	14.4	0.00e+00	0	27	0	1017118720	68	4773
2026-01-08 10:09:14.77	326.55	35.68	-51.8	-54.1	14.2	0.00e+00	0	27	0	1019215872	68	5046
2026-01-08 10:09:15.77	326.65	35.46	-51.8	-54.0	14.2	0.00e+00	0	27	0	1021313024	68	5006
2026-01-08 10:09:16.78	326.75	35.23	-51.9	-54.1	14.3	0.00e+00	0	28	0	1022361600	69	4787
2026-01-08 10:09:17.78	326.84	35.01	-52.5	-54.9	14.0	0.00e+00	0	27	0	1024458752	70	4982
2026-01-08 10:09:18.79	326.93	34.79	-53.0	-55.6	13.8	0.00e+00	0	27	0	1026555904	71	5046
2026-01-08 10:09:19.80	327.02	34.58	-53.4	-56.1	13.8	0.00e+00	0	28	0	1028653056	72	5099
2026-01-08 10:09:20.80	327.11	34.36	-54.1	-57.3	13.3	0.00e+00	0	27	0	1030750208	73	5519
2026-01-08 10:09:21.81	327.20	34.14	-54.6	-58.0	12.9	0.00e+00	0	28	0	1031798784	74	5656
2026-01-08 10:09:22.81	327.29	33.93	-54.6	-57.9	13.0	0.00e+00	0	28	0	1033895936	74	5587
2026-01-08 10:09:23.82	327.38	33.72	-54.8	-58.2	12.9	0.00e+00	0	27	0	1035993088	74	5774
2026-01-08 10:09:24.83	327.46	33.51	-54.6	-57.9	13.1	0.00e+00	0	27	0	1038090240	75	5219
2026-01-08 10:09:25.84	327.55	33.30	-54.0	-57.0	13.6	0.00e+00	0	27	0	1040187392	74	4996
2026-01-08 10:09:26.84	327.63	33.09	-53.9	-56.8	13.7	0.00e+00	0	27	0	1041235968	74	4875
2026-01-08 10:09:27.85	327.71	32.88	-53.5	-56.1	13.9	0.00e+00	0	27	0	1043333120	73	4809
2026-01-08 10:09:28.86	327.80	32.67	-53.4	-55.9	14.0	0.00e+00	0	27	0	1045430272	73	4690
2026-01-08 10:09:29.87	327.88	32.47	-53.1	-55.5	14.1	0.00e+00	0	28	0	1047527424	72	4706
2026-01-08 10:09:30.88	327.96	32.27	-53.3	-55.7	13.9	0.00e+00	0	28	0	1049624576	72	4856
2026-01-08 10:09:31.89	328.04	32.06	-53.0	-55.3	14.1	0.00e+00	0	27	0	1050673152	72	4604
2026-01-08 10:09:32.90	328.12	31.86	-53.2	-55.6	14.1	0.00e+00	0	27	0	1052770304	72	4773
2026-01-08 10:09:33.91	328.19	31.66	-53.2	-55.5	14.0	0.00e+00	0	27	0	1054867456	72	4743
2026-01-08 10:09:34.92	328.27	31.46	-53.1	-55.4	14.1	0.00e+00	0	27	0	1056964608	72	4696
2026-01-08 10:09:35.92	328.34	31.27	-53.5	-55.9	13.8	0.00e+00	0	27	0	1059061760	72	4975
2026-01-08 10:09:36.93	328.42	31.07	-53.5	-56.1	13.8	0.00e+00	0	27	0	1060110336	72	5055
2026-01-08 10:09:37.94	328.49	30.88	-53.4	-55.9	13.8	0.00e+00	0	27	0	1062207488	72	4927
2026-01-08 10:09:38.95	328.57	30.69	-53.6	-56.3	13.6	0.00e+00	0	27	0	1064304640	72	5191
2026-01-08 10:09:39.95	328.64	30.50	-53.2	-55.6	14.0	0.00e+00	0	27	0	1066401792	72	4765
2026-01-08 10:09:40.96	328.71	30.30	-52.7	-55.0	14.3	0.00e+00	0	27	0	1068498944	72	4451
2026-01-08 10:09:41.97	328.78	30.12	-52.8	-55.1	14.2	0.00e+00	0	28	0	1069547520	72	4509
2026-01-08 10:09:42.97	328.85	29.93	-52.9	-55.2	14.2	0.00e+00	0	28	0	1071644672	72	4567
2026-01-08 10:09:43.98	328.92	29.74	-52.6	-54.8	14.3	0.00e+00	0	28	0	1073741824	71	4640
2026-01-08 10:09:44.99	328.99	29.56	-52.9	-55.1	14.1	0.00e+00	0	27	0	1075838976	71	4795
2026-01-08 10:09:46.00	329.05	29.37	-53.1	-55.5	14.0	0.00e+00	0	27	0	1077936128	71	5033
2026-01-08 10:09:47.00	329.12	29.19	-53.1	-55.4	14.0	0.00e+00	0	27	0	1078984704	71	4971
2026-01-08 10:09:48.00	329.19	29.01	-53.3	-55.8	13.8	0.00e+00	0	27	0	1081081856	71	5214
2026-01-08 10:09:49.01	329.25	28.83	-53.2	-55.6	14.0	0.00e+00	0	27	0	1083179008	72	4769
2026-01-08 10:09:50.02	329.32	28.65	-53.4	-55.8	13.9	0.00e+00	0	27	0	1085276160	72	4915
2026-01-08 10:09:51.03	329.38	28.47	-53.2	-55.6	14.0	0.00e+00	0	27	0	1087373312	72	4798
2026-01-08 10:09:52.03	329.44	28.29	-53.0	-55.3	14.1	0.00e+00	0	27	0	1088421888	72	4630
2026-01-08 10:09:53.04	329.51	28.11	-52.9	-55.2	14.2	0.00e+00	0	27	0	1090519040	72	4560
2026-01-08 10:09:54.05	329.57	27.94	-52.9	-55.1	14.2	0.00e+00	0	28	0	1092616192	72	4508
2026-01-08 10:09:55.06	329.63	27.76	-52.6	-54.6	14.3	0.00e+00	0	28	0	1094713344	71	4543
2026-01-08 10:09:56.07	329.69	27.59	-52.1	-54.0	14.3	0.00e+00	0	27	0	1096810496	70	4491
2026-01-08 10:09:57.08	329.75	27.42	-52.0	-53.9	14.5	0.00e+00	0	27	0	1097859072	70	4410
2026-01-08 10:09:58.09	329.81	27.24	-51.2	-52.9	14.8	0.00e+00	0	27	0	1099956224	69	4160
2026-01-08 10:09:59.09	329.87	27.08	-51.0	-52.7	14.8	0.00e+00	0	27	0	1102053376	68	4301
2026-01-08 10:10:00.10	329.93	26.91	-50.9	-52.5	14.9	0.00e+00	0	27	0	1104150528	68	4223
2026-01-08 10:10:01.11	329.99	26.74	-50.5	-52.1	14.9	0.00e+00	0	27	0	1106247680	67	4264
2026-01-08 10:10:02.12	330.04	26.57	-50.5	-52.1	14.9	0.00e+00	0	27	0	1108344832	67	4247
2026-01-08 10:10:03.13	330.10	26.40	-50.8	-52.5	14.7	0.00e+00	0	27	0	1109393408	67	4460
2026-01-08 10:10:04.14	330.16	26.24	-51.1	-52.8	14.6	0.00e+00	0	27	0	1111490560	67	4626
2026-01-08 10:10:05.14	330.21	26.08	-51.7	-53.6	14.4	0.00e+00	0	27	0	1113587712	68	4809
2026-01-08 10:10:06.15	330.27	25.91	-52.1	-54.1	14.4	0.00e+00	0	28	0	1115684864	69	4770
2026-01-08 10:10:07.16	330.32	25.75	-52.5	-54.7	14.2	0.00e+00	0	27	0	1116733440	70	4828
2026-01-08 10:10:08.16	330.38	25.59	-53.0	-55.3	14.0	0.00e+00	0	28	0	1118830592	71	4903
2026-01-08 10:10:09.17	330.43	25.43	-53.1	-55.5	14.0	0.00e+00	0	28	0	1120927744	71	5002
2026-01-08 10:10:10.17	330.48	25.27	-52.9	-55.2	14.1	0.00e+00	0	27	0	1123024896	71	4823
2026-01-08 10:10:11.18	330.54	25.11	-52.9	-55.3	14.1	0.00e+00	0	28	0	1125122048	71	4879
2026-01-08 10:10:12.19	330.59	24.95	-52.7	-54.9	14.2	0.00e+00	0	28	0	1126170624	71	4680
2026-01-08 10:10:13.20	330.64	24.80	-52.2	-54.3	14.5	0.00e+00	0	28	0	1128267776	71	4341
2026-01-08 10:10:14.20	330.69	24.64	-51.8	-53.8	14.6	0.00e+00	0	27	0	1130364928	70	4341
2026-01-08 10:10:15.21	330.74	24.49	-51.8	-53.7	14.6	0.00e+00	0	27	0	1132462080	70	4310
2026-01-08 10:10:16.22	330.79	24.33	-51.2	-53.0	14.8	0.00e+00	0	27	0	1134559232	69	4199
2026-01-08 10:10:17.23	330.84	24.18	-50.9	-52.6	14.8	0.00e+00	0	27	0	1136656384	68	4259
2026-01-08 10:10:18.24	330.89	24.03	-50.9	-52.6	14.8	0.00e+00	0	27	0	1137704960	68	4260
2026-01-08 10:10:19.24	330.94	23.88	-50.9	-52.5	14.8	0.00e+00	0	27	0	1139802112	68	4226
2026-01-08 10:10:20.25	330.99	23.73	-50.4	-52.0	14.9	0.00e+00	0	28	0	1141899264	67	4237
2026-01-08 10:10:21.25	331.04	23.58	-50.4	-51.9	14.9	0.00e+00	0	28	0	1143996416	67	4186
2026-01-08 10:10:22.25	331.09	23.43	-50.5	-52.2	14.8	0.00e+00	0	27	0	1145044992	67	4300
2026-01-08 10:10:23.26	331.13	23.28	-50.4	-51.9	14.9	0.00e+00	0	28	0	1147142144	67	4192
2026-01-08 10:10:24.27	331.18	23.14	-50.5	-52.1	14.8	0.00e+00	0	27	0	1149239296	67	4273
2026-01-08 10:10:25.28	331.23	22.99	-50.4	-52.0	14.9	0.00e+00	0	27	0	1151336448	67	4204
2026-01-08 10:10:26.29	331.27	22.84	-50.2	-51.8	14.9	0.00e+00	0	28	0	1153433600	67	4130
2026-01-08 10:10:27.30	331.32	22.70	-50.5	-52.1	14.8	0.00e+00	0	27	0	1154482176	67	4271
2026-01-08 10:10:28.31	331.36	22.56	-50.4	-52.1	14.8	0.00e+00	0	27	0	1156579328	67	4252
2026-01-08 10:10:29.31	331.41	22.41	-50.6	-52.2	14.8	0.00e+00	0	27	0	1158676480	67	4316
2026-01-08 10:10:30.32	331.45	22.27	-50.7	-52.4	14.7	7.00e-07	0	27	0	1160773632	67	4423
2026-01-08 10:10:31.33	331.50	22.13	-50.8	-52.5	14.7	0.00e+00	0	27	0	1162870784	67	4455
2026-01-08 10:10:32.34	331.54	21.99	-51.0	-52.8	14.6	0.00e+00	0	27	0	1164967936	67	4600
2026-01-08 10:10:33.35	331.59	21.85	-51.2	-52.9	14.5	3.80e-06	0	27	0	1166016512	67	4704
2026-01-08 10:10:34.35	331.63	21.71	-51.2	-53.1	14.5	0.00e+00	0	27	0	1168113664	67	4760
2026-01-08 10:10:35.36	331.67	21.57	-51.6	-53.5	14.5	0.00e+00	0	28	0	1170210816	68	4707
2026-01-08 10:10:36.37	331.71	21.43	-51.8	-53.7	14.4	0.00e+00	0	27	0	1172307968	68	4863
2026-01-08 10:10:37.38	331.76	21.30	-51.8	-53.8	14.3	0.00e+00	0	27	0	1174405120	68	4881
2026-01-08 10:10:38.38	331.80	21.16	-51.7	-53.6	14.4	0.00e+00	0	27	0	1175453696	68	4810
2026-01-08 10:10:39.39	331.84	21.02	-51.9	-53.9	14.3	0.00e+00	0	27	0	1177550848	68	4933
2026-01-08 10:10:40.40	331.88	20.89	-52.0	-53.9	14.3	0.00e+00	0	27	0	1179648000	69	4700
2026-01-08 10:10:41.41	331.92	20.76	-51.4	-53.3	14.6	0.00e+00	0	27	0	1181745152	69	4361
2026-01-08 10:10:42.42	331.96	20.62	-51.1	-52.9	14.7	0.00e+00	0	27	0	1183842304	68	4408
2026-01-08 10:10:43.43	332.00	20.49	-50.8	-52.5	14.8	0.00e+00	0	27	0	1184890880	68	4201
2026-01-08 10:10:44.44	332.04	20.36	-50.5	-52.2	14.8	1.50e-06	0	28	0	1186988032	67	4304
2026-01-08 10:10:45.44	332.08	20.23	-50.2	-51.8	14.9	0.00e+00	0	28	0	1189085184	67	4144
2026-01-08 10:10:46.45	332.12	20.10	-50.0	-51.6	14.9	0.00e+00	0	27	0	1191182336	66	4273
2026-01-08 10:10:47.46	332.16	19.97	-49.9	-51.4	14.9	0.00e+00	0	28	0	1193279488	66	4173
2026-01-08 10:10:48.46	332.20	19.84	-49.8	-51.4	14.9	0.00e+00	0	27	0	1194328064	66	4166
2026-01-08 10:10:49.47	332.24	19.71	-49.6	-51.2	14.9	0.00e+00	0	27	0	1196425216	65	4296
2026-01-08 10:10:50.48	332.28	19.58	-49.7	-51.2	14.9	0.00e+00	0	27	0	1198522368	65	4334
2026-01-08 10:10:51.49	332.32	19.45	-49.7	-51.2	14.9	0.00e+00	0	27	0	1200619520	65	4307
2026-01-08 10:10:52.49	332.35	19.33	-49.6	-51.1	14.9	0.00e+00	0	27	0	1202716672	65	4276
2026-01-08 10:10:53.50	332.39	19.20	-49.6	-51.1	14.9	0.00e+00	0	27	0	1203765248	65	4283
2026-01-08 10:10:54.51	332.43	19.07	-49.7	-51.3	14.9	0.00e+00	0	27	0	1205862400	65	4347
2026-01-08 10:10:55.52	332.46	18.95	-49.9	-51.4	14.8	0.00e+00	0	27	0	1207959552	65	4435
2026-01-08 10:10:56.53	332.50	18.83	-49.8	-51.4	14.8	0.00e+00	0	27	0	1210056704	65	4413
2026-01-08 10:10:57.53	332.54	18.70	-50.2	-51.8	14.7	0.00e+00	0	28	0	1212153856	65	4623
2026-01-08 10:10:58.54	332.57	18.58	-50.2	-51.9	14.7	0.00e+00	0	27	0	1213202432	65	4665
2026-01-08 10:10:59.54	332.61	18.46	-50.2	-51.8	14.7	0.00e+00	0	27	0	1215299584	65	4639
2026-01-08 10:11:00.55	332.64	18.34	-50.4	-52.0	14.6	0.00e+00	0	27	0	1217396736	65	4741
2026-01-08 10:11:01.56	332.68	18.21	-50.6	-52.3	14.6	0.00e+00	0	27	0	1219493888	66	4605
2026-01-08 10:11:02.57	332.71	18.09	-50.6	-52.4	14.6	0.00e+00	0	27	0	1221591040	66	4654
2026-01-08 10:11:03.58	332.75	17.97	-50.8	-52.5	14.6	0.00e+00	0	27	0	1222639616	66	4743
2026-01-08 10:11:04.59	332.78	17.85	-50.9	-52.7	14.5	0.00e+00	0	27	0	1224736768	66	4830
2026-01-08 10:11:05.60	332.82	17.73	-51.1	-52.9	14.5	0.00e+00	0	27	0	1226833920	67	4691
2026-01-08 10:11:06.61	332.85	17.62	-51.0	-52.8	14.5	0.00e+00	0	27	0	1228931072	67	4641
2026-01-08 10:11:07.61	332.89	17.50	-51.2	-53.0	14.5	0.00e+00	0	27	0	1231028224	67	4745
2026-01-08 10:11:08.62	332.92	17.38	-51.2	-53.1	14.4	0.00e+00	0	27	0	1232076800	67	4772
2026-01-08 10:11:09.62	332.95	17.27	-51.2	-53.0	14.4	0.00e+00	0	27	0	1234173952	67	4738
2026-01-08 10:11:10.63	332.99	17.15	-51.7	-53.7	14.4	0.00e+00	0	27	0	1236271104	68	4820
2026-01-08 10:11:11.64	333.02	17.03	-51.6	-53.6	14.4	0.00e+00	0	27	0	1238368256	68	4773
2026-01-08 10:11:12.64	333.05	16.92	-51.6	-53.6	14.4	0.00e+00	0	28	0	1240465408	68	4774
2026-01-08 10:11:13.65	333.09	16.81	-51.6	-53.5	14.4	0.00e+00	0	27	0	1241513984	68	4733
2026-01-08 10:11:14.66	333.12	16.69	-51.8	-53.7	14.3	0.00e+00	0	27	0	1243611136	68	4867
