passes_logs/2026/01/08/R3.2S_Murmansk/R3.2S_Murmansk__20260108_050203_SUOMI_NPP_rec.log

#Pass ID: 20260108_050203_SUOMI NPP
#Satellite: SUOMI NPP
#Configuration: NPP
#almurnet v.1.7.20251203
#Start time: 2026-01-08 05:02:04

#Version: 2.2.20231116
#Station: R3.2S_Murmansk
#Location: 33.079688 lon 68.888172 lat
#TLE: 1 37849U 11061A   26005.94084933  .00000134  00000+0  84554-4 0  9990
#TLE: 2 37849  98.7803 308.0679 0002567  79.1029 281.0436 14.19522657735426

#Time	Az	El	Level	Level2	SNR	BER	BlckErr	Temp	State	Recorded	gain1	gain2
2026-01-08 05:02:04.32	59.20	2.04	-57.4	-73.4	3.8	1.49e+00	0	23	0	0	81	22093
2026-01-08 05:02:05.32	59.14	2.09	-57.3	-73.3	3.8	1.49e+00	0	23	104	0	79	24629
2026-01-08 05:02:06.32	59.08	2.15	-57.3	-73.4	3.8	1.49e+00	0	23	104	0	79	24776
2026-01-08 05:02:07.33	59.01	2.21	-57.3	-73.4	3.8	1.49e+00	0	23	104	0	79	24794
2026-01-08 05:02:08.33	58.95	2.26	-57.3	-73.4	3.8	1.49e+00	0	23	104	0	79	24702
2026-01-08 05:02:09.32	58.88	2.32	-57.4	-73.3	3.8	1.49e+00	0	23	104	0	79	24676
2026-01-08 05:02:10.32	58.82	2.38	-57.3	-73.3	3.8	1.49e+00	0	23	104	0	79	24682
2026-01-08 05:02:11.32	58.75	2.44	-57.3	-73.3	3.8	1.49e+00	0	23	104	0	79	24691
2026-01-08 05:02:12.32	58.68	2.49	-57.3	-73.3	3.8	1.49e+00	0	23	104	0	79	24635
2026-01-08 05:02:13.32	58.62	2.55	-57.3	-73.3	3.8	1.49e+00	0	23	104	0	79	24553
2026-01-08 05:02:14.32	58.55	2.61	-57.3	-73.3	3.8	1.49e+00	0	23	104	0	79	24615
2026-01-08 05:02:15.32	58.49	2.66	-57.3	-73.3	3.8	1.49e+00	0	23	104	0	79	24585
2026-01-08 05:02:16.32	58.42	2.72	-57.3	-73.3	3.8	1.49e+00	0	23	104	0	79	24643
2026-01-08 05:02:17.32	58.35	2.78	-57.3	-73.3	3.8	1.49e+00	0	23	104	0	79	24606
2026-01-08 05:02:18.32	58.28	2.84	-57.3	-73.3	3.8	1.49e+00	0	23	104	0	79	24622
2026-01-08 05:02:19.33	58.22	2.90	-57.3	-73.3	3.8	1.49e+00	0	23	104	0	79	24641
2026-01-08 05:02:20.33	58.15	2.95	-57.4	-73.3	3.8	1.49e+00	0	23	104	0	79	24638
2026-01-08 05:02:21.33	58.08	3.01	-57.4	-73.3	3.8	1.49e+00	0	23	104	0	79	24607
2026-01-08 05:02:22.33	58.01	3.07	-57.3	-73.3	3.8	1.49e+00	0	23	104	0	79	24610
2026-01-08 05:02:23.33	57.94	3.13	-57.3	-73.3	3.8	1.49e+00	0	23	104	0	79	24614
2026-01-08 05:02:24.33	57.87	3.19	-57.3	-73.3	3.8	1.49e+00	0	23	104	0	79	24631
2026-01-08 05:02:25.33	57.80	3.24	-57.3	-73.4	3.8	1.49e+00	0	23	104	0	79	24701
2026-01-08 05:02:26.33	57.73	3.30	-57.4	-73.4	3.8	1.49e+00	0	23	104	0	79	24709
2026-01-08 05:02:27.33	57.66	3.36	-57.3	-73.4	3.8	1.49e+00	0	23	104	0	79	24757
2026-01-08 05:02:28.33	57.59	3.42	-57.3	-73.3	3.8	1.49e+00	0	23	104	0	79	24656
2026-01-08 05:02:29.32	57.52	3.48	-57.3	-73.3	3.8	1.49e+00	0	23	104	0	79	24630
2026-01-08 05:02:30.32	57.45	3.54	-57.3	-73.3	3.8	1.49e+00	0	23	104	0	79	24571
2026-01-08 05:02:31.32	57.38	3.60	-57.3	-73.3	3.8	1.49e+00	0	23	104	0	79	24563
2026-01-08 05:02:32.31	57.31	3.65	-57.3	-73.3	3.8	1.49e+00	0	23	104	0	79	24554
2026-01-08 05:02:33.31	57.24	3.71	-57.3	-73.3	3.8	1.49e+00	0	23	104	0	79	24612
2026-01-08 05:02:34.31	57.17	3.77	-57.3	-73.3	3.8	1.49e+00	0	23	104	0	79	24655
2026-01-08 05:02:35.31	57.09	3.83	-57.4	-73.4	3.8	1.49e+00	0	23	104	0	79	24733
2026-01-08 05:02:36.31	57.02	3.89	-57.4	-73.3	3.8	1.49e+00	0	23	104	0	79	24679
2026-01-08 05:02:37.31	56.95	3.95	-57.4	-73.3	3.8	1.49e+00	0	23	104	0	79	24639
2026-01-08 05:02:38.30	56.88	4.01	-57.3	-73.3	3.8	1.49e+00	0	23	104	0	79	24432
2026-01-08 05:02:39.30	56.80	4.07	-57.3	-73.2	3.8	1.49e+00	0	24	104	0	79	24378
2026-01-08 05:02:40.29	56.73	4.13	-57.3	-73.3	3.8	1.49e+00	0	23	104	0	79	24480
2026-01-08 05:02:41.29	56.66	4.19	-57.3	-73.3	3.8	1.49e+00	0	24	104	0	79	24579
2026-01-08 05:02:42.30	56.58	4.25	-57.3	-73.3	3.8	1.49e+00	0	23	104	0	79	24615
2026-01-08 05:02:43.29	56.51	4.31	-57.3	-73.3	3.8	1.49e+00	0	23	104	0	79	24501
2026-01-08 05:02:44.29	56.43	4.37	-57.3	-73.0	3.8	1.49e+00	0	23	104	0	79	23758
2026-01-08 05:02:45.30	56.35	4.43	-57.3	-72.5	3.8	1.49e+00	0	24	104	0	79	22330
2026-01-08 05:02:46.30	56.28	4.49	-57.3	-71.9	3.8	1.49e+00	0	24	104	0	79	20924
2026-01-08 05:02:47.30	56.20	4.55	-57.3	-71.4	3.8	1.49e+00	0	24	104	0	79	19688
2026-01-08 05:02:48.29	56.13	4.61	-57.2	-70.6	4.0	1.48e+00	0	24	0	0	79	18074
2026-01-08 05:02:49.29	56.05	4.67	-57.2	-70.0	4.1	1.44e+00	0	24	0	0	79	16876
2026-01-08 05:02:50.30	55.97	4.73	-57.1	-68.9	4.5	1.34e+00	20	24	0	0	79	14849
2026-01-08 05:02:51.30	55.89	4.79	-57.0	-68.1	4.8	9.21e-01	0	24	0	2097152	79	13536
2026-01-08 05:02:52.30	55.82	4.85	-57.0	-67.3	5.2	6.43e-01	0	24	0	4194304	79	12366
2026-01-08 05:02:53.30	55.74	4.91	-56.8	-66.5	5.6	5.23e-01	0	24	0	6291456	79	11245
2026-01-08 05:02:54.29	55.66	4.97	-56.7	-65.7	6.2	2.84e-01	0	24	0	7340032	79	10182
2026-01-08 05:02:55.28	55.58	5.03	-56.7	-65.2	6.5	1.93e-01	0	24	0	9437184	79	9667
2026-01-08 05:02:56.29	55.50	5.09	-56.6	-64.8	6.9	2.01e-01	0	24	0	11534336	79	9188
2026-01-08 05:02:57.29	55.42	5.15	-56.0	-62.1	9.5	1.80e-02	0	24	0	13631488	78	7151
2026-01-08 05:02:58.28	55.34	5.21	-57.0	-68.0	4.8	1.32e+00	0	24	0	14680064	79	13329
2026-01-08 05:02:59.28	55.26	5.27	-57.2	-66.9	4.3	1.28e+00	0	24	104	15728640	80	11119
2026-01-08 05:03:00.27	55.18	5.33	-54.4	-58.4	12.0	1.09e-04	0	24	0	16777216	75	5583
2026-01-08 05:03:01.28	55.10	5.40	-54.1	-57.9	12.3	5.30e-06	0	24	0	18874368	74	5549
2026-01-08 05:03:02.28	55.02	5.46	-54.2	-58.1	12.1	3.12e-05	0	24	0	19922944	74	5689
2026-01-08 05:03:03.28	54.94	5.52	-54.1	-57.8	12.4	2.97e-05	0	24	0	22020096	74	5517
2026-01-08 05:03:04.28	54.86	5.58	-54.0	-57.7	12.4	3.43e-05	0	24	0	24117248	74	5428
2026-01-08 05:03:05.28	54.77	5.64	-53.6	-57.0	12.8	4.57e-05	0	24	0	26214400	73	5297
2026-01-08 05:03:06.28	54.69	5.70	-53.6	-57.0	12.9	1.52e-05	0	24	0	28311552	73	5301
2026-01-08 05:03:07.28	54.61	5.77	-53.3	-56.6	13.2	4.50e-06	0	24	0	29360128	73	5044
2026-01-08 05:03:08.28	54.53	5.83	-53.2	-56.3	13.2	3.89e-05	0	24	0	31457280	72	5173
2026-01-08 05:03:09.28	54.44	5.89	-53.1	-56.2	13.2	1.98e-05	0	24	0	33554432	72	5134
2026-01-08 05:03:10.28	54.36	5.95	-53.2	-56.3	13.2	6.10e-05	0	24	0	35651584	72	5188
2026-01-08 05:03:11.28	54.27	6.02	-53.2	-56.4	13.1	1.47e-04	0	24	0	36700160	72	5220
2026-01-08 05:03:12.28	54.19	6.08	-53.3	-56.5	13.1	2.68e-04	0	24	0	38797312	72	5303
2026-01-08 05:03:13.28	54.10	6.14	-53.3	-56.5	13.1	0.00e+00	0	24	0	40894464	72	5327
2026-01-08 05:03:14.29	54.02	6.20	-53.3	-56.5	13.1	0.00e+00	0	24	0	42991616	72	5298
2026-01-08 05:03:15.28	53.93	6.27	-53.3	-56.5	13.0	0.00e+00	0	24	0	45088768	72	5291
2026-01-08 05:03:16.29	53.84	6.33	-53.5	-56.7	12.9	0.00e+00	0	24	0	46137344	72	5455
2026-01-08 05:03:17.28	53.76	6.39	-53.4	-56.7	12.9	0.00e+00	0	24	0	48234496	72	5432
2026-01-08 05:03:18.29	53.67	6.45	-53.5	-56.8	12.8	0.00e+00	0	24	0	50331648	72	5495
2026-01-08 05:03:19.29	53.58	6.52	-53.6	-57.1	12.7	0.00e+00	0	24	0	52428800	72	5691
2026-01-08 05:03:20.29	53.49	6.58	-52.1	-57.0	12.4	1.12e-02	0	24	0	54525952	70	6314
2026-01-08 05:03:21.29	53.40	6.64	-52.3	-57.4	12.1	1.14e-02	0	24	0	55574528	70	6579
2026-01-08 05:03:22.29	53.32	6.71	-52.1	-57.0	12.4	1.12e-02	0	24	0	57671680	70	6324
2026-01-08 05:03:23.29	53.23	6.77	-52.2	-57.2	12.2	1.13e-02	0	24	0	59768832	70	6470
2026-01-08 05:03:24.29	53.14	6.83	-52.1	-57.1	12.4	1.12e-02	0	24	0	61865984	70	6376
2026-01-08 05:03:25.29	53.05	6.90	-52.1	-57.0	12.3	1.13e-02	0	24	0	63963136	70	6288
2026-01-08 05:03:26.30	52.96	6.96	-52.1	-56.8	12.4	1.10e-02	0	24	0	65011712	70	6190
2026-01-08 05:03:27.29	52.87	7.02	-52.3	-57.2	12.3	1.12e-02	0	24	0	67108864	70	6421
2026-01-08 05:03:28.29	52.77	7.09	-52.1	-56.9	12.4	1.15e-02	0	24	0	69206016	70	6238
2026-01-08 05:03:29.29	52.68	7.15	-53.6	-57.1	12.8	0.00e+00	0	24	0	71303168	72	5708
2026-01-08 05:03:30.28	52.59	7.21	-53.6	-57.2	12.7	0.00e+00	0	24	0	72351744	72	5738
2026-01-08 05:03:31.28	52.50	7.28	-53.5	-57.0	12.9	0.00e+00	0	24	0	74448896	72	5628
2026-01-08 05:03:32.28	52.41	7.34	-53.5	-56.9	12.9	0.00e+00	0	24	0	76546048	72	5579
2026-01-08 05:03:33.27	52.31	7.41	-53.3	-56.6	13.1	0.00e+00	0	24	0	78643200	72	5391
2026-01-08 05:03:34.27	52.22	7.47	-53.4	-56.7	13.1	0.00e+00	0	24	0	80740352	72	5456
2026-01-08 05:03:35.26	52.13	7.53	-53.1	-56.2	13.4	0.00e+00	0	24	0	81788928	72	5144
2026-01-08 05:03:36.26	52.03	7.60	-53.0	-56.2	13.2	3.34e-03	0	24	0	83886080	72	5145
2026-01-08 05:03:37.25	51.94	7.66	-53.1	-56.3	13.3	1.66e-03	0	24	0	85983232	72	5213
2026-01-08 05:03:38.25	51.84	7.73	-53.1	-56.4	13.2	1.31e-03	0	24	0	88080384	72	5270
2026-01-08 05:03:39.25	51.75	7.79	-53.1	-56.4	13.2	2.60e-03	0	24	0	89128960	72	5259
2026-01-08 05:03:40.25	51.65	7.86	-53.0	-56.1	13.4	5.48e-04	0	24	0	91226112	72	5097
2026-01-08 05:03:41.24	51.55	7.92	-53.0	-56.1	13.4	1.88e-04	0	24	0	93323264	72	5081
2026-01-08 05:03:42.24	51.46	7.99	-53.0	-56.2	13.3	7.41e-04	0	24	0	95420416	72	5129
2026-01-08 05:03:43.24	51.36	8.05	-53.0	-56.1	13.4	2.17e-04	0	24	0	97517568	72	5062
2026-01-08 05:03:44.24	51.26	8.12	-53.0	-56.2	13.4	2.75e-04	0	24	0	98566144	72	5101
2026-01-08 05:03:45.24	51.16	8.18	-53.0	-56.0	13.6	0.00e+00	0	24	0	100663296	72	5004
2026-01-08 05:03:46.24	51.06	8.25	-53.1	-56.1	13.6	0.00e+00	0	24	0	102760448	72	5064
2026-01-08 05:03:47.24	50.96	8.31	-53.1	-56.1	13.6	0.00e+00	0	24	0	104857600	72	5050
2026-01-08 05:03:48.25	50.86	8.38	-52.9	-55.8	13.7	0.00e+00	0	24	0	106954752	72	4899
2026-01-08 05:03:49.24	50.76	8.44	-53.0	-56.0	13.6	0.00e+00	0	24	0	108003328	72	5005
2026-01-08 05:03:50.24	50.66	8.51	-53.0	-55.9	13.6	0.00e+00	0	24	0	110100480	72	4954
2026-01-08 05:03:51.24	50.56	8.57	-52.9	-55.8	13.8	0.00e+00	0	24	0	112197632	72	4893
2026-01-08 05:03:52.23	50.46	8.64	-52.7	-55.5	13.8	0.00e+00	0	24	0	114294784	72	4731
2026-01-08 05:03:53.23	50.36	8.71	-52.7	-55.5	13.9	0.00e+00	0	24	0	116391936	72	4708
2026-01-08 05:03:54.23	50.25	8.77	-52.8	-55.6	13.7	0.00e+00	0	24	0	117440512	71	5042
2026-01-08 05:03:55.23	50.15	8.84	-52.8	-55.6	13.7	0.00e+00	0	24	0	119537664	71	5064
2026-01-08 05:03:56.23	50.05	8.90	-52.7	-55.4	13.9	0.00e+00	0	24	0	121634816	71	4952
2026-01-08 05:03:57.23	49.94	8.97	-52.8	-55.6	13.8	0.00e+00	0	24	0	123731968	71	5046
2026-01-08 05:03:58.23	49.84	9.04	-52.8	-55.6	13.8	0.00e+00	0	24	0	124780544	71	5044
2026-01-08 05:03:59.23	49.73	9.10	-52.9	-55.8	13.7	0.00e+00	0	24	0	126877696	71	5160
2026-01-08 05:04:00.23	49.63	9.17	-53.0	-55.9	13.5	0.00e+00	0	24	0	128974848	71	5260
2026-01-08 05:04:01.23	49.52	9.24	-53.0	-55.9	13.5	0.00e+00	0	24	0	131072000	71	5265
2026-01-08 05:04:02.23	49.41	9.30	-53.1	-56.1	13.5	0.00e+00	0	24	0	133169152	71	5356
2026-01-08 05:04:03.23	49.30	9.37	-53.1	-56.0	13.5	0.00e+00	0	24	0	134217728	71	5307
2026-01-08 05:04:04.23	49.20	9.44	-53.0	-55.8	13.6	0.00e+00	0	24	0	136314880	71	5198
2026-01-08 05:04:05.22	49.09	9.50	-53.1	-56.0	13.5	0.00e+00	0	24	0	138412032	71	5329
2026-01-08 05:04:06.22	48.98	9.57	-53.2	-56.1	13.5	0.00e+00	0	24	0	140509184	71	5379
2026-01-08 05:04:07.23	48.87	9.64	-53.1	-55.9	13.6	0.00e+00	0	24	0	142606336	71	5265
2026-01-08 05:04:08.23	48.76	9.70	-53.2	-56.1	13.4	0.00e+00	0	24	0	143654912	71	5389
2026-01-08 05:04:09.23	48.65	9.77	-53.3	-56.2	13.4	0.00e+00	0	24	0	145752064	71	5436
2026-01-08 05:04:10.22	48.54	9.84	-53.5	-56.6	13.2	0.00e+00	0	24	0	147849216	72	5392
2026-01-08 05:04:11.21	48.43	9.90	-53.5	-56.6	13.2	0.00e+00	0	24	0	149946368	72	5361
2026-01-08 05:04:12.21	48.32	9.97	-53.6	-56.7	13.2	0.00e+00	0	24	0	150994944	72	5409
2026-01-08 05:04:13.21	48.21	10.04	-53.4	-56.4	13.3	0.00e+00	0	24	0	153092096	72	5268
2026-01-08 05:04:14.21	48.09	10.11	-53.4	-56.3	13.4	0.00e+00	0	24	0	155189248	72	5202
2026-01-08 05:04:15.20	47.98	10.17	-53.4	-56.3	13.4	0.00e+00	0	24	0	157286400	72	5196
2026-01-08 05:04:16.21	47.86	10.24	-53.4	-56.3	13.4	0.00e+00	0	24	0	159383552	72	5214
2026-01-08 05:04:17.21	47.75	10.31	-53.2	-56.0	13.6	0.00e+00	0	24	0	160432128	72	5037
2026-01-08 05:04:18.21	47.63	10.38	-53.1	-56.0	13.6	0.00e+00	0	24	0	162529280	72	5014
2026-01-08 05:04:19.21	47.52	10.45	-53.2	-56.1	13.6	0.00e+00	0	24	0	164626432	72	5046
2026-01-08 05:04:20.21	47.40	10.51	-52.9	-55.6	13.8	0.00e+00	0	24	0	166723584	72	4814
2026-01-08 05:04:21.21	47.29	10.58	-52.9	-55.6	13.8	0.00e+00	0	24	0	167772160	72	4796
2026-01-08 05:04:22.20	47.17	10.65	-52.8	-55.4	13.9	0.00e+00	0	24	0	169869312	72	4695
2026-01-08 05:04:23.20	47.05	10.72	-52.8	-55.6	13.9	0.00e+00	0	24	0	171966464	72	4776
2026-01-08 05:04:24.20	46.93	10.79	-52.9	-55.6	13.9	0.00e+00	0	24	0	174063616	72	4802
2026-01-08 05:04:25.20	46.81	10.85	-52.8	-55.5	14.0	0.00e+00	0	24	0	176160768	72	4711
2026-01-08 05:04:26.19	46.69	10.92	-52.8	-55.5	14.0	0.00e+00	0	24	0	177209344	72	4715
2026-01-08 05:04:27.18	46.58	10.99	-52.9	-55.7	13.9	0.00e+00	0	24	0	179306496	72	4816
2026-01-08 05:04:28.17	46.46	11.06	-52.8	-55.4	14.0	0.00e+00	0	24	0	181403648	72	4686
2026-01-08 05:04:29.17	46.33	11.13	-52.7	-55.4	14.0	0.00e+00	0	24	0	183500800	72	4671
2026-01-08 05:04:30.16	46.21	11.20	-52.6	-55.2	14.0	0.00e+00	0	24	0	184549376	71	4834
2026-01-08 05:04:31.16	46.09	11.26	-52.6	-55.2	14.0	0.00e+00	0	24	0	186646528	71	4837
2026-01-08 05:04:32.15	45.97	11.33	-52.5	-55.0	14.1	0.00e+00	0	24	0	188743680	71	4734
2026-01-08 05:04:33.15	45.85	11.40	-52.5	-55.0	14.1	0.00e+00	0	24	0	190840832	71	4751
2026-01-08 05:04:34.15	45.72	11.47	-52.6	-55.2	14.0	0.00e+00	0	24	0	192937984	71	4856
2026-01-08 05:04:35.14	45.60	11.54	-52.6	-55.3	14.0	0.00e+00	0	24	0	193986560	71	4885
2026-01-08 05:04:36.13	45.47	11.61	-52.5	-55.1	14.1	0.00e+00	0	24	0	196083712	71	4784
2026-01-08 05:04:37.13	45.35	11.68	-52.6	-55.2	14.0	0.00e+00	0	24	0	198180864	71	4837
2026-01-08 05:04:38.13	45.22	11.74	-52.4	-55.0	14.1	0.00e+00	0	24	0	200278016	71	4708
2026-01-08 05:04:39.13	45.09	11.81	-52.3	-54.9	14.2	0.00e+00	0	24	0	202375168	71	4656
2026-01-08 05:04:40.12	44.97	11.88	-52.5	-55.0	14.1	0.00e+00	0	24	0	203423744	71	4746
2026-01-08 05:04:41.12	44.84	11.95	-52.5	-55.0	14.1	0.00e+00	0	24	0	205520896	71	4743
2026-01-08 05:04:42.11	44.71	12.02	-52.3	-54.8	14.3	0.00e+00	0	24	0	207618048	71	4609
2026-01-08 05:04:43.11	44.58	12.09	-52.3	-54.8	14.3	0.00e+00	0	24	0	209715200	71	4607
2026-01-08 05:04:44.11	44.45	12.16	-52.1	-54.4	14.3	0.00e+00	0	24	0	210763776	70	4697
2026-01-08 05:04:45.11	44.32	12.23	-52.2	-54.7	14.2	0.00e+00	0	24	0	212860928	70	4841
2026-01-08 05:04:46.11	44.19	12.30	-52.1	-54.5	14.3	0.00e+00	0	24	0	214958080	70	4723
2026-01-08 05:04:47.11	44.05	12.37	-52.1	-54.4	14.3	0.00e+00	0	24	0	217055232	70	4698
2026-01-08 05:04:48.11	43.92	12.44	-52.0	-54.4	14.4	0.00e+00	0	24	0	219152384	70	4666
2026-01-08 05:04:49.11	43.79	12.51	-52.1	-54.4	14.3	0.00e+00	0	24	0	220200960	70	4690
2026-01-08 05:04:50.10	43.65	12.58	-52.1	-54.4	14.4	0.00e+00	0	24	0	222298112	70	4680
2026-01-08 05:04:51.11	43.52	12.65	-51.9	-54.2	14.4	0.00e+00	0	24	0	224395264	70	4584
2026-01-08 05:04:52.11	43.38	12.72	-52.0	-54.4	14.4	0.00e+00	0	25	0	226492416	70	4668
2026-01-08 05:04:53.10	43.25	12.79	-52.0	-54.4	14.3	0.00e+00	0	24	0	228589568	70	4667
2026-01-08 05:04:54.10	43.11	12.86	-51.9	-54.2	14.4	0.00e+00	0	24	0	229638144	70	4585
2026-01-08 05:04:55.09	42.97	12.93	-51.9	-54.3	14.5	0.00e+00	0	24	0	231735296	70	4600
2026-01-08 05:04:56.09	42.83	13.00	-52.0	-54.3	14.4	0.00e+00	0	24	0	233832448	70	4637
2026-01-08 05:04:57.09	42.70	13.07	-52.1	-54.5	14.3	0.00e+00	0	24	0	235929600	70	4750
2026-01-08 05:04:58.09	42.56	13.14	-52.1	-54.6	14.3	0.00e+00	0	24	0	236978176	70	4771
2026-01-08 05:04:59.08	42.42	13.20	-52.0	-54.5	14.3	0.00e+00	0	24	0	239075328	70	4710
2026-01-08 05:05:00.08	42.28	13.27	-52.0	-54.4	14.3	0.00e+00	0	24	0	241172480	70	4695
2026-01-08 05:05:01.09	42.13	13.35	-52.0	-54.4	14.4	0.00e+00	0	24	0	243269632	70	4686
2026-01-08 05:05:02.09	41.99	13.42	-52.0	-54.4	14.3	0.00e+00	0	24	0	245366784	70	4686
2026-01-08 05:05:03.09	41.85	13.49	-52.0	-54.5	14.3	0.00e+00	0	25	0	246415360	70	4749
2026-01-08 05:05:04.09	41.70	13.56	-52.2	-54.7	14.2	0.00e+00	0	24	0	248512512	70	4866
2026-01-08 05:05:05.09	41.56	13.63	-52.2	-54.8	14.2	0.00e+00	0	24	0	250609664	70	4881
2026-01-08 05:05:06.09	41.41	13.70	-52.3	-55.0	14.1	0.00e+00	0	24	0	252706816	70	4995
2026-01-08 05:05:07.09	41.27	13.77	-52.2	-54.9	14.1	0.00e+00	0	24	0	254803968	70	4927
2026-01-08 05:05:08.09	41.12	13.84	-52.3	-55.0	14.1	0.00e+00	0	24	0	255852544	70	4985
2026-01-08 05:05:09.09	40.97	13.91	-52.3	-55.0	14.0	0.00e+00	0	25	0	257949696	70	5004
2026-01-08 05:05:10.08	40.83	13.98	-52.3	-55.0	14.0	0.00e+00	0	24	0	260046848	70	5015
2026-01-08 05:05:11.07	40.68	14.05	-52.4	-55.2	14.0	0.00e+00	0	25	0	262144000	70	5122
2026-01-08 05:05:12.08	40.53	14.12	-52.3	-55.0	14.1	0.00e+00	0	24	0	264241152	70	5015
2026-01-08 05:05:13.07	40.38	14.19	-52.5	-55.3	13.9	0.00e+00	0	24	0	265289728	70	5188
2026-01-08 05:05:14.06	40.23	14.26	-52.4	-55.1	14.0	0.00e+00	0	24	0	267386880	70	5069
2026-01-08 05:05:15.06	40.08	14.33	-52.5	-55.1	13.9	0.00e+00	0	24	0	269484032	70	5053
2026-01-08 05:05:16.06	39.93	14.40	-52.3	-54.9	14.0	0.00e+00	0	24	0	271581184	70	4942
2026-01-08 05:05:17.06	39.77	14.47	-52.1	-54.6	14.2	0.00e+00	0	24	0	272629760	70	4800
2026-01-08 05:05:18.06	39.62	14.54	-52.2	-54.6	14.2	0.00e+00	0	25	0	274726912	70	4786
2026-01-08 05:05:19.06	39.47	14.61	-52.2	-54.6	14.2	0.00e+00	0	24	0	276824064	70	4793
2026-01-08 05:05:20.07	39.31	14.68	-52.0	-54.4	14.3	0.00e+00	0	24	0	278921216	70	4700
2026-01-08 05:05:21.07	39.15	14.75	-52.1	-54.5	14.2	0.00e+00	0	24	0	281018368	70	4757
2026-01-08 05:05:22.07	39.00	14.82	-52.2	-54.7	14.2	0.00e+00	0	25	0	282066944	70	4822
2026-01-08 05:05:23.07	38.84	14.89	-52.2	-54.8	14.1	0.00e+00	0	24	0	284164096	70	4882
2026-01-08 05:05:24.07	38.68	14.96	-52.2	-54.8	14.1	0.00e+00	0	24	0	286261248	70	4881
2026-01-08 05:05:25.07	38.52	15.03	-52.5	-55.1	13.9	0.00e+00	0	24	0	288358400	70	5095
2026-01-08 05:05:26.08	38.36	15.10	-52.5	-55.1	13.9	0.00e+00	0	24	0	290455552	70	5085
2026-01-08 05:05:27.08	38.20	15.17	-52.5	-55.2	13.9	0.00e+00	0	24	0	291504128	70	5144
2026-01-08 05:05:28.07	38.04	15.24	-52.5	-55.2	13.8	0.00e+00	0	24	0	293601280	70	5146
2026-01-08 05:05:29.07	37.88	15.31	-52.6	-55.3	13.8	0.00e+00	0	24	0	295698432	70	5198
2026-01-08 05:05:30.06	37.72	15.38	-52.6	-55.3	13.8	0.00e+00	0	24	0	297795584	70	5199
2026-01-08 05:05:31.06	37.55	15.45	-52.5	-55.1	13.9	0.00e+00	0	24	0	298844160	70	5094
2026-01-08 05:05:32.05	37.39	15.52	-52.3	-54.9	14.0	0.00e+00	0	24	0	300941312	70	4940
2026-01-08 05:05:33.05	37.22	15.59	-52.3	-54.9	14.0	0.00e+00	0	24	0	303038464	70	4971
2026-01-08 05:05:34.05	37.06	15.66	-52.3	-54.9	14.0	0.00e+00	0	24	0	305135616	70	4960
2026-01-08 05:05:35.04	36.89	15.73	-52.4	-55.0	14.0	0.00e+00	0	24	0	307232768	70	4991
2026-01-08 05:05:36.04	36.73	15.80	-52.4	-55.0	14.0	0.00e+00	0	24	0	308281344	70	4990
2026-01-08 05:05:37.04	36.56	15.87	-52.3	-54.9	14.0	0.00e+00	0	25	0	310378496	70	4969
2026-01-08 05:05:38.03	36.39	15.94	-52.3	-54.9	14.0	0.00e+00	0	24	0	312475648	70	4945
2026-01-08 05:05:39.03	36.22	16.01	-52.4	-55.0	14.0	0.00e+00	0	25	0	314572800	70	5008
2026-01-08 05:05:40.02	36.05	16.08	-52.5	-55.1	13.9	0.00e+00	0	24	0	315621376	70	5079
2026-01-08 05:05:41.02	35.88	16.15	-52.3	-54.9	14.0	0.00e+00	0	24	0	317718528	70	4957
2026-01-08 05:05:42.01	35.71	16.22	-52.4	-55.0	13.9	0.00e+00	0	24	0	319815680	70	5029
2026-01-08 05:05:43.01	35.53	16.28	-52.3	-54.9	14.0	0.00e+00	0	24	0	321912832	70	4976
2026-01-08 05:05:44.01	35.36	16.35	-52.4	-55.0	14.0	0.00e+00	0	25	0	324009984	70	4993
2026-01-08 05:05:45.01	35.19	16.42	-52.4	-55.0	14.0	0.00e+00	0	24	0	325058560	70	4998
2026-01-08 05:05:46.01	35.01	16.49	-52.3	-54.9	14.0	0.00e+00	0	25	0	327155712	70	4962
2026-01-08 05:05:47.01	34.83	16.56	-52.1	-54.6	14.2	0.00e+00	0	24	0	329252864	70	4790
2026-01-08 05:05:48.00	34.66	16.63	-52.2	-54.7	14.2	0.00e+00	0	24	0	331350016	70	4827
2026-01-08 05:05:48.99	34.48	16.70	-51.9	-54.3	14.4	0.00e+00	0	24	0	332398592	70	4606
2026-01-08 05:05:49.99	34.30	16.77	-52.2	-54.7	14.2	0.00e+00	0	24	0	334495744	70	4844
2026-01-08 05:05:50.98	34.12	16.84	-52.5	-55.2	13.9	0.00e+00	0	24	0	336592896	70	5133
2026-01-08 05:05:51.99	33.94	16.90	-52.9	-55.8	13.6	0.00e+00	0	24	0	338690048	70	5467
2026-01-08 05:05:52.99	33.76	16.97	-52.8	-55.7	13.6	0.00e+00	0	24	0	340787200	70	5413
2026-01-08 05:05:53.99	33.58	17.04	-52.7	-55.4	13.8	0.00e+00	0	24	0	341835776	70	5254
2026-01-08 05:05:54.99	33.40	17.11	-52.6	-55.4	13.8	0.00e+00	0	24	0	343932928	70	5224
2026-01-08 05:05:55.99	33.21	17.18	-52.3	-54.9	14.0	0.00e+00	0	24	0	346030080	70	4957
2026-01-08 05:05:56.99	33.03	17.25	-52.4	-55.0	14.0	0.00e+00	0	24	0	348127232	70	4991
2026-01-08 05:05:57.99	32.84	17.31	-52.4	-55.0	14.0	0.00e+00	0	24	0	350224384	70	4995
2026-01-08 05:05:58.99	32.65	17.38	-52.2	-54.7	14.2	0.00e+00	0	24	0	351272960	70	4819
2026-01-08 05:05:59.99	32.47	17.45	-52.3	-54.8	14.2	0.00e+00	0	24	0	353370112	70	4878
2026-01-08 05:06:00.99	32.28	17.52	-51.9	-54.2	14.4	0.00e+00	0	24	0	355467264	70	4577
2026-01-08 05:06:01.99	32.09	17.58	-51.9	-54.2	14.5	0.00e+00	0	24	0	357564416	70	4554
2026-01-08 05:06:02.98	31.90	17.65	-51.7	-53.9	14.4	0.00e+00	0	24	0	359661568	69	4704
2026-01-08 05:06:03.98	31.71	17.72	-51.7	-54.0	14.4	0.00e+00	0	25	0	360710144	69	4707
2026-01-08 05:06:04.98	31.52	17.79	-51.7	-54.1	14.4	0.00e+00	0	25	0	362807296	69	4777
2026-01-08 05:06:05.98	31.33	17.85	-51.8	-54.2	14.3	0.00e+00	0	24	0	364904448	69	4861
2026-01-08 05:06:06.98	31.13	17.92	-51.8	-54.2	14.3	0.00e+00	0	24	0	367001600	69	4826
2026-01-08 05:06:07.98	30.94	17.99	-51.7	-54.1	14.4	0.00e+00	0	24	0	368050176	69	4782
2026-01-08 05:06:08.98	30.74	18.05	-51.6	-54.0	14.4	0.00e+00	0	24	0	370147328	69	4718
2026-01-08 05:06:09.98	30.55	18.12	-51.6	-53.9	14.4	0.00e+00	0	24	0	372244480	69	4702
2026-01-08 05:06:10.97	30.35	18.18	-51.3	-53.6	14.6	0.00e+00	0	24	0	374341632	69	4542
2026-01-08 05:06:11.97	30.15	18.25	-51.3	-53.6	14.6	0.00e+00	0	24	0	376438784	69	4525
2026-01-08 05:06:12.97	29.96	18.32	-51.2	-53.5	14.5	0.00e+00	0	25	0	377487360	68	4747
2026-01-08 05:06:13.96	29.76	18.38	-51.2	-53.5	14.5	0.00e+00	0	24	0	379584512	68	4736
2026-01-08 05:06:14.97	29.56	18.45	-51.0	-53.2	14.7	0.00e+00	0	24	0	381681664	68	4549
2026-01-08 05:06:15.96	29.36	18.51	-50.8	-52.9	14.9	0.00e+00	0	25	0	383778816	68	4398
2026-01-08 05:06:16.96	29.15	18.58	-50.8	-52.9	14.8	0.00e+00	0	24	0	384827392	68	4417
2026-01-08 05:06:17.96	28.95	18.64	-50.8	-52.9	14.8	0.00e+00	0	24	0	386924544	68	4425
2026-01-08 05:06:18.96	28.75	18.70	-50.8	-52.9	14.8	0.00e+00	0	25	0	389021696	68	4411
2026-01-08 05:06:19.96	28.54	18.77	-51.0	-53.1	14.7	0.00e+00	0	24	0	391118848	68	4525
2026-01-08 05:06:20.96	28.34	18.83	-51.0	-53.1	14.7	0.00e+00	0	25	0	393216000	68	4535
2026-01-08 05:06:21.96	28.13	18.90	-51.0	-53.2	14.7	0.00e+00	0	24	0	394264576	68	4562
2026-01-08 05:06:22.96	27.92	18.96	-51.0	-53.1	14.7	0.00e+00	0	25	0	396361728	68	4510
2026-01-08 05:06:23.96	27.72	19.02	-50.8	-52.8	14.9	0.00e+00	0	25	0	398458880	68	4389
2026-01-08 05:06:24.95	27.51	19.09	-50.7	-52.7	14.9	0.00e+00	0	25	0	400556032	68	4327
2026-01-08 05:06:25.95	27.30	19.15	-50.7	-52.7	14.9	0.00e+00	0	24	0	402653184	68	4317
2026-01-08 05:06:26.95	27.09	19.21	-50.6	-52.6	14.8	0.00e+00	0	24	0	403701760	67	4518
2026-01-08 05:06:27.95	26.88	19.27	-50.5	-52.5	14.8	0.00e+00	0	24	0	405798912	67	4479
2026-01-08 05:06:28.96	26.66	19.34	-50.6	-52.6	14.8	0.00e+00	0	25	0	407896064	67	4529
2026-01-08 05:06:29.95	26.45	19.40	-50.5	-52.5	14.8	0.00e+00	0	24	0	409993216	67	4444
2026-01-08 05:06:30.96	26.23	19.46	-50.5	-52.5	14.8	0.00e+00	0	24	0	411041792	67	4442
2026-01-08 05:06:31.95	26.02	19.52	-50.5	-52.5	14.8	0.00e+00	0	24	0	413138944	67	4469
2026-01-08 05:06:32.95	25.80	19.58	-50.6	-52.6	14.8	0.00e+00	0	24	0	415236096	67	4520
2026-01-08 05:06:33.94	25.59	19.64	-50.7	-52.8	14.7	0.00e+00	0	24	0	417333248	67	4622
2026-01-08 05:06:34.93	25.37	19.70	-50.7	-52.8	14.7	0.00e+00	0	24	0	419430400	67	4627
2026-01-08 05:06:35.93	25.16	19.76	-50.8	-52.9	14.6	0.00e+00	0	24	0	420478976	67	4693
2026-01-08 05:06:36.93	24.94	19.82	-50.6	-52.6	14.8	0.00e+00	0	25	0	422576128	67	4521
2026-01-08 05:06:37.92	24.72	19.88	-50.5	-52.5	14.8	0.00e+00	0	24	0	424673280	67	4477
2026-01-08 05:06:38.92	24.50	19.94	-50.3	-52.2	14.9	0.00e+00	0	25	0	426770432	67	4321
2026-01-08 05:06:39.91	24.28	20.00	-50.3	-52.3	15.0	0.00e+00	0	25	0	428867584	67	4352
2026-01-08 05:06:40.91	24.05	20.06	-50.2	-52.1	15.0	0.00e+00	0	25	0	429916160	67	4255
2026-01-08 05:06:41.91	23.83	20.12	-50.2	-52.1	14.9	0.00e+00	0	25	0	432013312	66	4503
2026-01-08 05:06:42.90	23.61	20.17	-50.1	-52.0	14.9	0.00e+00	0	24	0	434110464	66	4472
2026-01-08 05:06:43.91	23.38	20.23	-50.2	-52.0	14.9	0.00e+00	0	24	0	436207616	66	4483
2026-01-08 05:06:44.90	23.15	20.29	-50.2	-52.1	14.9	0.00e+00	0	25	0	437256192	66	4505
2026-01-08 05:06:45.90	22.93	20.35	-50.3	-52.2	14.8	0.00e+00	0	25	0	439353344	66	4572
2026-01-08 05:06:46.89	22.70	20.40	-50.3	-52.2	14.9	0.00e+00	0	25	0	441450496	66	4554
2026-01-08 05:06:47.88	22.47	20.46	-50.2	-52.1	14.9	0.00e+00	0	25	0	443547648	66	4531
2026-01-08 05:06:48.88	22.24	20.51	-50.3	-52.2	14.8	0.00e+00	0	24	0	445644800	66	4577
2026-01-08 05:06:49.88	22.01	20.57	-50.2	-52.0	14.9	0.00e+00	0	24	0	446693376	66	4491
2026-01-08 05:06:50.88	21.78	20.63	-50.1	-51.9	15.0	0.00e+00	0	25	0	448790528	66	4412
2026-01-08 05:06:51.88	21.55	20.68	-50.1	-52.0	14.9	0.00e+00	0	25	0	450887680	66	4458
2026-01-08 05:06:52.88	21.32	20.74	-50.3	-52.1	14.9	0.00e+00	0	24	0	452984832	66	4533
2026-01-08 05:06:53.88	21.08	20.79	-50.2	-52.1	14.9	0.00e+00	0	25	0	455081984	66	4500
2026-01-08 05:06:54.88	20.85	20.84	-50.2	-52.0	14.9	0.00e+00	0	24	0	456130560	66	4470
2026-01-08 05:06:55.89	20.61	20.90	-50.1	-51.9	14.9	0.00e+00	0	24	0	458227712	66	4420
2026-01-08 05:06:56.89	20.37	20.95	-49.9	-51.7	15.1	0.00e+00	0	25	0	460324864	66	4300
2026-01-08 05:06:57.90	20.13	21.00	-50.0	-51.8	15.0	0.00e+00	0	24	0	462422016	66	4358
2026-01-08 05:06:58.90	19.90	21.05	-50.0	-51.8	15.0	0.00e+00	0	25	0	463470592	66	4347
2026-01-08 05:06:59.90	19.66	21.11	-50.0	-51.7	15.1	0.00e+00	0	24	0	465567744	66	4330
2026-01-08 05:07:00.90	19.42	21.16	-50.1	-51.9	15.0	0.00e+00	0	25	0	467664896	66	4415
2026-01-08 05:07:01.90	19.18	21.21	-50.0	-51.8	15.1	0.00e+00	0	24	0	469762048	66	4346
2026-01-08 05:07:02.90	18.94	21.26	-49.9	-51.6	15.1	0.00e+00	0	24	0	471859200	66	4252
2026-01-08 05:07:03.90	18.69	21.31	-49.8	-51.5	15.2	0.00e+00	0	25	0	472907776	66	4224
2026-01-08 05:07:04.90	18.45	21.36	-50.0	-51.7	15.1	0.00e+00	0	24	0	475004928	66	4308
2026-01-08 05:07:05.90	18.21	21.41	-50.0	-51.7	15.1	0.00e+00	0	25	0	477102080	66	4303
2026-01-08 05:07:06.90	17.96	21.46	-50.0	-51.7	15.1	0.00e+00	0	25	0	479199232	66	4298
2026-01-08 05:07:07.89	17.72	21.50	-49.9	-51.6	15.1	0.00e+00	0	24	0	481296384	66	4268
2026-01-08 05:07:08.89	17.47	21.55	-49.9	-51.6	15.1	0.00e+00	0	25	0	482344960	66	4255
2026-01-08 05:07:09.89	17.23	21.60	-49.9	-51.6	15.1	0.00e+00	0	24	0	484442112	66	4278
2026-01-08 05:07:10.89	16.98	21.64	-50.0	-51.8	15.0	0.00e+00	0	24	0	486539264	66	4343
2026-01-08 05:07:11.90	16.73	21.69	-50.1	-51.8	15.0	0.00e+00	0	24	0	488636416	66	4382
2026-01-08 05:07:12.90	16.48	21.74	-50.1	-51.9	15.0	0.00e+00	0	25	0	490733568	66	4401
2026-01-08 05:07:13.90	16.23	21.78	-50.2	-52.0	14.9	0.00e+00	0	24	0	491782144	66	4456
2026-01-08 05:07:14.90	15.98	21.83	-50.2	-52.0	14.9	0.00e+00	0	24	0	493879296	66	4476
2026-01-08 05:07:15.90	15.73	21.87	-50.1	-51.9	15.0	0.00e+00	0	24	0	495976448	66	4415
2026-01-08 05:07:16.90	15.48	21.91	-50.1	-51.8	15.0	0.00e+00	0	24	0	498073600	66	4389
2026-01-08 05:07:17.90	15.22	21.96	-50.1	-51.9	15.0	0.00e+00	0	24	0	499122176	66	4408
2026-01-08 05:07:18.90	14.97	22.00	-50.2	-52.0	14.9	0.00e+00	0	24	0	501219328	66	4483
2026-01-08 05:07:19.90	14.71	22.04	-50.1	-51.9	15.0	0.00e+00	0	24	0	503316480	66	4407
2026-01-08 05:07:20.90	14.46	22.08	-50.1	-51.9	15.0	0.00e+00	0	25	0	505413632	66	4411
2026-01-08 05:07:21.89	14.21	22.12	-50.0	-51.7	15.1	0.00e+00	0	25	0	507510784	66	4314
2026-01-08 05:07:22.89	13.95	22.17	-49.9	-51.5	15.2	0.00e+00	0	25	0	508559360	66	4227
2026-01-08 05:07:23.89	13.69	22.21	-49.8	-51.5	15.2	0.00e+00	0	24	0	510656512	66	4206
2026-01-08 05:07:24.89	13.44	22.24	-49.8	-51.5	15.2	0.00e+00	0	25	0	512753664	66	4202
2026-01-08 05:07:25.89	13.18	22.28	-49.9	-51.6	15.1	0.00e+00	0	24	0	514850816	66	4247
2026-01-08 05:07:26.88	12.92	22.32	-49.9	-51.5	15.2	0.00e+00	0	25	0	516947968	66	4218
2026-01-08 05:07:27.89	12.66	22.36	-50.0	-51.6	15.1	0.00e+00	0	25	0	517996544	66	4286
2026-01-08 05:07:28.88	12.40	22.40	-49.9	-51.5	15.2	0.00e+00	0	24	0	520093696	66	4228
2026-01-08 05:07:29.88	12.14	22.43	-50.0	-51.7	15.1	0.00e+00	0	24	0	522190848	66	4299
2026-01-08 05:07:30.87	11.88	22.47	-50.4	-52.1	14.9	0.00e+00	0	25	0	524288000	66	4520
2026-01-08 05:07:31.87	11.62	22.50	-50.7	-52.4	14.7	0.00e+00	0	24	0	525336576	66	4702
2026-01-08 05:07:32.87	11.36	22.54	-51.0	-53.0	14.6	0.00e+00	0	24	0	527433728	67	4709
2026-01-08 05:07:33.87	11.10	22.57	-51.2	-53.1	14.6	0.00e+00	0	24	0	529530880	67	4810
2026-01-08 05:07:34.86	10.84	22.61	-51.3	-53.3	14.5	0.00e+00	0	24	0	531628032	67	4913
2026-01-08 05:07:35.85	10.57	22.64	-51.8	-53.9	14.4	0.00e+00	0	25	0	533725184	68	4967
2026-01-08 05:07:36.84	10.31	22.67	-51.9	-54.1	14.4	0.00e+00	0	24	0	534773760	69	4796
2026-01-08 05:07:37.84	10.05	22.70	-52.1	-54.4	14.3	0.00e+00	0	25	0	536870912	69	4944
2026-01-08 05:07:38.83	9.78	22.73	-52.2	-54.5	14.2	0.00e+00	0	24	0	538968064	69	5029
2026-01-08 05:07:39.82	9.52	22.76	-52.1	-54.5	14.2	0.00e+00	0	24	0	541065216	69	5003
2026-01-08 05:07:40.82	9.25	22.79	-52.0	-54.2	14.4	0.00e+00	0	24	0	542113792	69	4865
2026-01-08 05:07:41.82	8.99	22.82	-51.6	-53.7	14.6	0.00e+00	0	25	0	544210944	69	4573
2026-01-08 05:07:42.81	8.72	22.85	-51.5	-53.6	14.7	0.00e+00	0	25	0	546308096	69	4532
2026-01-08 05:07:43.81	8.45	22.88	-51.2	-53.2	14.9	0.00e+00	0	24	0	548405248	69	4320
2026-01-08 05:07:44.80	8.19	22.90	-51.2	-53.3	14.7	0.00e+00	0	25	0	550502400	68	4601
2026-01-08 05:07:45.80	7.92	22.93	-51.3	-53.3	14.6	0.00e+00	0	25	0	551550976	68	4642
2026-01-08 05:07:46.79	7.65	22.96	-51.4	-53.6	14.6	0.00e+00	0	25	0	553648128	68	4769
2026-01-08 05:07:47.79	7.38	22.98	-51.3	-53.4	14.6	0.00e+00	0	25	0	555745280	68	4681
2026-01-08 05:07:48.78	7.11	23.01	-51.0	-53.0	14.8	0.00e+00	0	24	0	557842432	68	4481
2026-01-08 05:07:49.78	6.84	23.03	-51.0	-52.9	14.9	0.00e+00	0	25	0	558891008	68	4426
2026-01-08 05:07:50.78	6.57	23.05	-51.1	-53.1	14.8	0.00e+00	0	24	0	560988160	68	4505
2026-01-08 05:07:51.78	6.30	23.08	-51.4	-53.5	14.6	0.00e+00	0	25	0	563085312	68	4738
2026-01-08 05:07:52.77	6.03	23.10	-51.6	-53.8	14.4	0.00e+00	0	25	0	565182464	68	4896
2026-01-08 05:07:53.77	5.75	23.12	-51.7	-54.0	14.3	0.00e+00	0	25	0	567279616	68	5019
2026-01-08 05:07:54.77	5.48	23.14	-51.5	-53.7	14.5	0.00e+00	0	25	0	568328192	68	4849
2026-01-08 05:07:55.77	5.21	23.16	-51.3	-53.4	14.6	0.00e+00	0	25	0	570425344	68	4687
2026-01-08 05:07:56.77	4.93	23.18	-51.3	-53.3	14.7	0.00e+00	0	24	0	572522496	68	4611
2026-01-08 05:07:57.77	4.66	23.20	-51.4	-53.5	14.5	0.00e+00	0	25	0	574619648	68	4726
2026-01-08 05:07:58.76	4.39	23.22	-51.7	-53.9	14.3	0.00e+00	0	25	0	575668224	68	4976
2026-01-08 05:07:59.76	4.11	23.23	-52.1	-54.5	14.2	0.00e+00	0	25	0	577765376	69	5016
2026-01-08 05:08:00.76	3.84	23.25	-52.3	-54.8	14.0	0.00e+00	0	25	0	579862528	69	5170
2026-01-08 05:08:01.76	3.56	23.26	-52.1	-54.6	14.1	0.00e+00	0	25	0	581959680	69	5047
2026-01-08 05:08:02.76	3.29	23.28	-51.9	-54.3	14.3	0.00e+00	0	24	0	584056832	69	4882
2026-01-08 05:08:03.76	3.01	23.29	-51.7	-54.0	14.5	0.00e+00	0	25	0	585105408	69	4706
2026-01-08 05:08:04.76	2.74	23.31	-51.8	-54.0	14.5	0.00e+00	0	25	0	587202560	69	4738
2026-01-08 05:08:05.76	2.46	23.32	-51.8	-54.1	14.4	0.00e+00	0	24	0	589299712	69	4769
2026-01-08 05:08:06.76	2.18	23.33	-52.1	-54.5	14.3	0.00e+00	0	25	0	591396864	69	5003
2026-01-08 05:08:07.76	1.91	23.34	-52.5	-55.1	14.0	0.00e+00	0	24	0	593494016	70	5050
2026-01-08 05:08:08.76	1.63	23.35	-52.6	-55.2	13.9	0.00e+00	0	25	0	594542592	70	5139
2026-01-08 05:08:09.75	1.36	23.36	-52.7	-55.4	13.9	0.00e+00	0	25	0	596639744	70	5225
2026-01-08 05:08:10.74	1.08	23.37	-52.5	-55.1	14.0	0.00e+00	0	25	0	598736896	70	5062
2026-01-08 05:08:11.74	0.80	23.38	-52.6	-55.3	13.9	0.00e+00	0	25	0	600834048	70	5200
2026-01-08 05:08:12.74	0.53	23.39	-52.6	-55.3	13.9	0.00e+00	0	24	0	602931200	70	5217
2026-01-08 05:08:13.73	0.25	23.40	-52.6	-55.3	13.9	0.00e+00	0	25	0	603979776	70	5215
2026-01-08 05:08:14.73	359.97	23.40	-52.7	-55.5	13.8	0.00e+00	0	25	0	606076928	70	5303
2026-01-08 05:08:15.74	359.69	23.41	-52.6	-55.3	13.9	0.00e+00	0	25	0	608174080	70	5169
2026-01-08 05:08:16.74	359.41	23.41	-52.1	-54.6	14.2	0.00e+00	0	24	0	610271232	70	4790
2026-01-08 05:08:17.74	359.14	23.42	-51.6	-53.8	14.6	0.00e+00	0	25	0	611319808	69	4627
2026-01-08 05:08:18.74	358.86	23.42	-51.1	-53.2	14.7	0.00e+00	0	25	0	613416960	68	4564
2026-01-08 05:08:19.75	358.58	23.43	-50.9	-52.9	14.8	0.00e+00	0	25	0	615514112	68	4421
2026-01-08 05:08:20.74	358.30	23.43	-51.0	-53.1	14.8	0.00e+00	0	25	0	617611264	68	4497
2026-01-08 05:08:21.74	358.02	23.43	-51.3	-53.5	14.5	0.00e+00	0	24	0	619708416	68	4758
2026-01-08 05:08:22.75	357.74	23.43	-51.7	-54.1	14.2	0.00e+00	0	25	0	620756992	68	5088
2026-01-08 05:08:23.74	357.47	23.43	-51.7	-54.1	14.2	0.00e+00	0	25	0	622854144	68	5068
2026-01-08 05:08:24.74	357.19	23.43	-51.7	-54.1	14.2	0.00e+00	0	25	0	624951296	68	5073
2026-01-08 05:08:25.74	356.91	23.43	-51.5	-53.8	14.4	0.00e+00	0	25	0	627048448	68	4899
2026-01-08 05:08:26.74	356.63	23.42	-51.4	-53.6	14.5	0.00e+00	0	24	0	629145600	68	4793
2026-01-08 05:08:27.74	356.35	23.42	-51.1	-53.2	14.7	0.00e+00	0	25	0	630194176	68	4571
2026-01-08 05:08:28.74	356.08	23.42	-51.2	-53.4	14.6	0.00e+00	0	25	0	632291328	68	4657
2026-01-08 05:08:29.74	355.80	23.41	-51.2	-53.3	14.7	0.00e+00	0	25	0	634388480	68	4620
2026-01-08 05:08:30.74	355.52	23.41	-51.3	-53.5	14.6	0.00e+00	0	25	0	636485632	68	4733
2026-01-08 05:08:31.74	355.24	23.40	-51.4	-53.6	14.5	0.00e+00	0	25	0	638582784	68	4763
2026-01-08 05:08:32.73	354.97	23.40	-51.3	-53.5	14.5	0.00e+00	0	25	0	639631360	68	4734
2026-01-08 05:08:33.73	354.69	23.39	-51.3	-53.4	14.6	0.00e+00	0	25	0	641728512	68	4690
2026-01-08 05:08:34.73	354.41	23.38	-51.2	-53.3	14.7	0.00e+00	0	25	0	643825664	68	4607
2026-01-08 05:08:35.73	354.13	23.37	-50.8	-52.8	14.9	0.00e+00	0	25	0	645922816	68	4377
2026-01-08 05:08:36.72	353.86	23.36	-50.7	-52.7	15.0	0.00e+00	0	25	0	646971392	68	4299
2026-01-08 05:08:37.72	353.58	23.35	-50.5	-52.4	14.9	0.00e+00	0	24	0	649068544	67	4394
2026-01-08 05:08:38.71	353.31	23.34	-50.4	-52.2	15.0	0.00e+00	0	24	0	651165696	67	4320
2026-01-08 05:08:39.71	353.03	23.33	-50.6	-52.5	14.9	0.00e+00	0	24	0	653262848	67	4453
2026-01-08 05:08:40.70	352.76	23.32	-50.8	-52.7	14.8	0.00e+00	0	25	0	655360000	67	4565
2026-01-08 05:08:41.69	352.49	23.30	-51.2	-53.2	14.6	0.00e+00	0	24	0	656408576	67	4847
2026-01-08 05:08:42.70	352.21	23.29	-51.2	-53.2	14.5	0.00e+00	0	25	0	658505728	67	4843
2026-01-08 05:08:43.69	351.93	23.27	-50.8	-52.8	14.7	0.00e+00	0	25	0	660602880	67	4605
2026-01-08 05:08:44.69	351.66	23.26	-50.6	-52.4	15.0	0.00e+00	0	25	0	662700032	67	4393
2026-01-08 05:08:45.69	351.38	23.24	-50.2	-51.9	15.1	0.00e+00	0	25	0	663748608	67	4179
2026-01-08 05:08:46.69	351.11	23.23	-50.1	-51.8	15.0	0.00e+00	0	25	0	665845760	66	4349
2026-01-08 05:08:47.69	350.83	23.21	-50.3	-52.0	14.9	0.00e+00	0	25	0	667942912	66	4491
2026-01-08 05:08:48.69	350.56	23.19	-50.2	-51.9	15.0	0.00e+00	0	25	0	670040064	66	4412
2026-01-08 05:08:49.69	350.29	23.17	-50.4	-52.1	14.9	0.00e+00	0	25	0	672137216	66	4521
2026-01-08 05:08:50.68	350.01	23.15	-50.4	-52.1	14.9	0.00e+00	0	25	0	673185792	66	4537
2026-01-08 05:08:51.68	349.74	23.13	-50.3	-52.0	14.9	0.00e+00	0	25	0	675282944	66	4489
2026-01-08 05:08:52.68	349.47	23.11	-50.1	-51.7	15.1	0.00e+00	0	25	0	677380096	66	4338
2026-01-08 05:08:53.67	349.20	23.09	-49.9	-51.5	15.2	0.00e+00	0	25	0	679477248	66	4234
2026-01-08 05:08:54.66	348.93	23.07	-49.9	-51.5	15.1	0.00e+00	0	25	0	680525824	66	4225
2026-01-08 05:08:55.66	348.66	23.05	-49.5	-51.1	15.1	0.00e+00	0	25	0	682622976	65	4271
2026-01-08 05:08:56.66	348.39	23.02	-49.5	-51.1	15.1	0.00e+00	0	25	0	684720128	65	4269
2026-01-08 05:08:57.66	348.12	23.00	-49.6	-51.2	15.1	0.00e+00	0	25	0	686817280	65	4308
2026-01-08 05:08:58.65	347.85	22.97	-49.6	-51.2	15.1	0.00e+00	0	25	0	688914432	65	4314
2026-01-08 05:08:59.65	347.58	22.95	-49.9	-51.5	15.0	0.00e+00	0	25	0	689963008	65	4491
2026-01-08 05:09:00.65	347.31	22.92	-50.2	-51.9	14.8	0.00e+00	0	25	0	692060160	65	4670
2026-01-08 05:09:01.65	347.04	22.90	-50.5	-52.2	14.9	0.00e+00	0	24	0	694157312	66	4591
2026-01-08 05:09:02.65	346.77	22.87	-50.5	-52.2	14.8	0.00e+00	0	25	0	696254464	66	4595
2026-01-08 05:09:03.65	346.50	22.84	-50.4	-52.1	14.9	0.00e+00	0	24	0	698351616	66	4527
2026-01-08 05:09:04.65	346.23	22.81	-50.5	-52.3	14.8	0.00e+00	0	24	0	699400192	66	4613
2026-01-08 05:09:05.65	345.97	22.78	-50.5	-52.2	14.9	0.00e+00	0	25	0	701497344	66	4585
2026-01-08 05:09:06.65	345.70	22.75	-50.3	-52.0	14.9	0.00e+00	0	25	0	703594496	66	4476
2026-01-08 05:09:07.64	345.44	22.72	-50.1	-51.8	15.1	0.00e+00	0	25	0	705691648	66	4341
2026-01-08 05:09:08.63	345.17	22.69	-50.0	-51.7	15.1	0.00e+00	0	25	0	706740224	66	4295
2026-01-08 05:09:09.63	344.91	22.66	-50.1	-51.7	15.1	0.00e+00	0	25	0	708837376	66	4319
2026-01-08 05:09:10.63	344.64	22.63	-50.2	-51.9	15.0	0.00e+00	0	25	0	710934528	66	4425
2026-01-08 05:09:11.63	344.38	22.59	-50.7	-52.5	14.7	0.00e+00	0	25	0	713031680	66	4742
2026-01-08 05:09:12.62	344.12	22.56	-51.0	-52.9	14.7	0.00e+00	0	25	0	715128832	67	4660
2026-01-08 05:09:13.62	343.86	22.52	-51.0	-52.9	14.7	0.00e+00	0	25	0	716177408	67	4678
2026-01-08 05:09:14.62	343.59	22.49	-51.1	-52.9	14.6	0.00e+00	0	25	0	718274560	67	4698
2026-01-08 05:09:15.60	343.34	22.46	-50.8	-52.6	14.8	0.00e+00	0	25	0	720371712	67	4535
2026-01-08 05:09:16.60	343.08	22.42	-50.8	-52.6	14.8	0.00e+00	0	25	0	722468864	67	4532
2026-01-08 05:09:17.60	342.82	22.38	-50.6	-52.3	14.9	0.00e+00	0	24	0	723517440	67	4388
2026-01-08 05:09:18.61	342.55	22.34	-50.7	-52.5	14.9	0.00e+00	0	25	0	725614592	67	4467
2026-01-08 05:09:19.60	342.30	22.31	-50.6	-52.3	14.9	0.00e+00	0	25	0	727711744	67	4382
2026-01-08 05:09:20.60	342.04	22.27	-50.6	-52.4	14.9	0.00e+00	0	25	0	729808896	67	4410
2026-01-08 05:09:21.60	341.78	22.23	-50.7	-52.6	14.9	0.00e+00	0	25	0	731906048	67	4510
2026-01-08 05:09:22.60	341.52	22.19	-51.0	-52.9	14.7	0.00e+00	0	25	0	732954624	67	4693
2026-01-08 05:09:23.60	341.27	22.15	-50.9	-52.8	14.8	0.00e+00	0	25	0	735051776	67	4611
2026-01-08 05:09:24.60	341.01	22.11	-51.0	-52.9	14.7	0.00e+00	0	25	0	737148928	67	4690
2026-01-08 05:09:25.60	340.76	22.07	-51.1	-53.1	14.6	0.00e+00	0	24	0	739246080	67	4761
2026-01-08 05:09:26.60	340.50	22.03	-51.4	-53.4	14.5	0.00e+00	0	25	0	741343232	67	4968
2026-01-08 05:09:27.59	340.25	21.98	-51.5	-53.5	14.6	0.00e+00	0	24	0	742391808	68	4738
2026-01-08 05:09:28.58	340.00	21.94	-52.0	-54.2	14.4	0.00e+00	0	24	0	744488960	69	4846
2026-01-08 05:09:29.58	339.75	21.90	-52.1	-54.4	14.3	0.00e+00	0	25	0	746586112	69	4930
2026-01-08 05:09:30.58	339.50	21.86	-51.9	-54.2	14.4	0.00e+00	0	25	0	748683264	69	4822
2026-01-08 05:09:31.58	339.24	21.81	-52.1	-54.4	14.3	0.00e+00	0	25	0	750780416	69	4946
2026-01-08 05:09:32.57	339.00	21.77	-52.0	-54.2	14.4	0.00e+00	0	25	0	751828992	69	4847
2026-01-08 05:09:33.57	338.75	21.72	-51.8	-54.0	14.5	0.00e+00	0	25	0	753926144	69	4736
2026-01-08 05:09:34.57	338.50	21.68	-51.7	-53.8	14.5	0.00e+00	0	25	0	756023296	69	4641
2026-01-08 05:09:35.56	338.25	21.63	-51.6	-53.8	14.5	0.00e+00	0	25	0	758120448	69	4623
2026-01-08 05:09:36.56	338.01	21.58	-51.6	-53.8	14.6	0.00e+00	0	25	0	759169024	69	4627
2026-01-08 05:09:37.56	337.76	21.54	-51.6	-53.8	14.6	0.00e+00	0	25	0	761266176	69	4599
2026-01-08 05:09:38.56	337.51	21.49	-51.6	-53.7	14.6	0.00e+00	0	25	0	763363328	69	4582
2026-01-08 05:09:39.55	337.27	21.44	-51.5	-53.6	14.6	0.00e+00	0	25	0	765460480	69	4535
2026-01-08 05:09:40.54	337.03	21.39	-51.4	-53.5	14.7	0.00e+00	0	25	0	767557632	69	4443
2026-01-08 05:09:41.53	336.79	21.34	-51.2	-53.3	14.8	0.00e+00	0	25	0	768606208	69	4362
2026-01-08 05:09:42.52	336.55	21.29	-51.0	-53.0	14.8	0.00e+00	0	25	0	770703360	68	4470
2026-01-08 05:09:43.52	336.31	21.24	-51.0	-53.0	14.8	0.00e+00	0	25	0	772800512	68	4471
2026-01-08 05:09:44.51	336.07	21.19	-51.0	-53.0	14.8	0.00e+00	0	24	0	774897664	68	4460
2026-01-08 05:09:45.51	335.83	21.14	-51.1	-53.0	14.8	0.00e+00	0	25	0	775946240	68	4485
2026-01-08 05:09:46.51	335.59	21.09	-51.1	-53.1	14.8	0.00e+00	0	24	0	778043392	68	4514
2026-01-08 05:09:47.50	335.35	21.04	-51.0	-52.9	14.9	0.00e+00	0	25	0	780140544	68	4421
2026-01-08 05:09:48.50	335.11	20.99	-51.0	-53.0	14.8	0.00e+00	0	25	0	782237696	68	4450
2026-01-08 05:09:49.49	334.88	20.94	-51.1	-53.1	14.8	0.00e+00	0	25	0	784334848	68	4522
2026-01-08 05:09:50.49	334.64	20.88	-51.2	-53.3	14.7	0.00e+00	0	25	0	785383424	68	4640
2026-01-08 05:09:51.49	334.41	20.83	-51.5	-53.7	14.5	0.00e+00	0	25	0	787480576	68	4849
2026-01-08 05:09:52.49	334.17	20.78	-51.8	-54.0	14.3	0.00e+00	0	25	0	789577728	68	5033
2026-01-08 05:09:53.49	333.94	20.72	-51.9	-54.2	14.2	0.00e+00	0	24	0	791674880	68	5127
2026-01-08 05:09:54.48	333.71	20.67	-52.0	-54.3	14.3	0.00e+00	0	25	0	792723456	69	4917
2026-01-08 05:09:55.48	333.48	20.61	-52.2	-54.6	14.1	0.00e+00	0	24	0	794820608	69	5057
2026-01-08 05:09:56.48	333.24	20.56	-52.1	-54.5	14.2	0.00e+00	0	25	0	796917760	69	5009
2026-01-08 05:09:57.49	333.01	20.50	-52.0	-54.4	14.2	0.00e+00	0	24	0	799014912	69	4937
2026-01-08 05:09:58.49	332.78	20.44	-51.8	-54.1	14.4	0.00e+00	0	25	0	801112064	69	4784
2026-01-08 05:09:59.49	332.55	20.39	-51.8	-54.2	14.4	0.00e+00	0	24	0	802160640	69	4824
2026-01-08 05:10:00.49	332.33	20.33	-52.1	-54.6	14.1	0.00e+00	0	25	0	804257792	69	5070
2026-01-08 05:10:01.48	332.10	20.27	-52.4	-55.0	13.9	0.00e+00	0	25	0	806354944	69	5321
2026-01-08 05:10:02.48	331.87	20.22	-52.8	-55.8	13.7	0.00e+00	0	25	0	808452096	70	5473
2026-01-08 05:10:03.48	331.65	20.16	-53.2	-56.3	13.5	0.00e+00	0	25	0	810549248	71	5507
2026-01-08 05:10:04.48	331.42	20.10	-53.3	-56.6	13.3	0.00e+00	0	25	0	811597824	71	5658
2026-01-08 05:10:05.48	331.20	20.04	-52.9	-55.8	13.7	0.00e+00	0	25	0	813694976	71	5202
2026-01-08 05:10:06.48	330.98	19.98	-52.6	-55.4	14.0	0.00e+00	0	25	0	815792128	71	4930
2026-01-08 05:10:07.48	330.76	19.92	-52.3	-54.8	14.3	0.00e+00	0	25	0	817889280	71	4634
2026-01-08 05:10:08.48	330.53	19.87	-52.1	-54.5	14.3	0.00e+00	0	25	0	819986432	70	4733
2026-01-08 05:10:09.48	330.31	19.81	-51.8	-54.2	14.6	0.00e+00	0	24	0	821035008	70	4546
2026-01-08 05:10:10.49	330.09	19.74	-51.6	-53.9	14.5	0.00e+00	0	25	0	823132160	69	4663
2026-01-08 05:10:11.48	329.88	19.69	-51.4	-53.5	14.7	0.00e+00	0	25	0	825229312	69	4470
2026-01-08 05:10:12.48	329.66	19.62	-51.3	-53.4	14.7	0.00e+00	0	25	0	827326464	69	4416
2026-01-08 05:10:13.48	329.44	19.56	-51.1	-53.2	14.7	0.00e+00	0	25	0	828375040	68	4556
2026-01-08 05:10:14.48	329.23	19.50	-51.1	-53.3	14.7	0.00e+00	0	25	0	830472192	68	4600
2026-01-08 05:10:15.47	329.01	19.44	-51.0	-53.1	14.7	0.00e+00	0	25	0	832569344	68	4535
2026-01-08 05:10:16.48	328.80	19.38	-50.9	-52.9	14.9	0.00e+00	0	25	0	834666496	68	4411
2026-01-08 05:10:17.47	328.59	19.32	-50.9	-53.0	14.8	0.00e+00	0	25	0	836763648	68	4445
2026-01-08 05:10:18.47	328.37	19.26	-50.8	-52.7	14.9	0.00e+00	0	25	0	837812224	68	4314
2026-01-08 05:10:19.47	328.16	19.19	-50.6	-52.5	14.9	0.00e+00	0	25	0	839909376	67	4454
2026-01-08 05:10:20.47	327.95	19.13	-50.4	-52.3	14.9	0.00e+00	0	25	0	842006528	67	4370
2026-01-08 05:10:21.47	327.74	19.07	-50.2	-52.1	14.9	0.00e+00	0	25	0	844103680	66	4518
2026-01-08 05:10:22.46	327.54	19.00	-50.1	-51.9	15.0	0.00e+00	0	25	0	845152256	66	4408
2026-01-08 05:10:23.46	327.33	18.94	-49.9	-51.6	15.1	0.00e+00	0	25	0	847249408	66	4289
2026-01-08 05:10:24.45	327.12	18.88	-49.9	-51.7	15.0	0.00e+00	0	24	0	849346560	66	4340
2026-01-08 05:10:25.46	326.91	18.81	-50.0	-51.8	15.0	0.00e+00	0	25	0	851443712	66	4389
2026-01-08 05:10:26.46	326.71	18.75	-50.2	-52.1	14.9	0.00e+00	0	25	0	853540864	66	4501
2026-01-08 05:10:27.46	326.51	18.69	-50.5	-52.5	14.7	0.00e+00	0	25	0	854589440	66	4738
2026-01-08 05:10:28.45	326.30	18.62	-51.0	-53.1	14.5	0.00e+00	0	25	0	856686592	67	4809
2026-01-08 05:10:29.46	326.10	18.56	-51.3	-53.5	14.3	0.00e+00	0	25	0	858783744	67	5023
2026-01-08 05:10:30.45	325.90	18.49	-51.8	-54.2	14.2	0.00e+00	0	24	0	860880896	68	5146
2026-01-08 05:10:31.45	325.70	18.43	-52.1	-54.7	14.1	0.00e+00	0	25	0	862978048	69	5127
2026-01-08 05:10:32.45	325.50	18.36	-52.2	-54.9	14.0	0.00e+00	0	25	0	864026624	69	5238
2026-01-08 05:10:33.45	325.30	18.30	-52.2	-54.9	14.0	0.00e+00	0	25	0	866123776	69	5230
2026-01-08 05:10:34.44	325.10	18.23	-52.3	-55.0	14.0	0.00e+00	0	25	0	868220928	70	5008
2026-01-08 05:10:35.43	324.91	18.17	-52.0	-54.5	14.3	0.00e+00	0	25	0	870318080	70	4733
2026-01-08 05:10:36.43	324.71	18.10	-51.7	-54.1	14.5	0.00e+00	0	25	0	871366656	70	4497
2026-01-08 05:10:37.43	324.51	18.03	-51.5	-53.8	14.5	0.00e+00	0	25	0	873463808	69	4631
2026-01-08 05:10:38.42	324.32	17.97	-51.4	-53.6	14.6	0.00e+00	0	25	0	875560960	69	4533
2026-01-08 05:10:39.41	324.13	17.90	-51.4	-53.6	14.7	0.00e+00	0	25	0	877658112	69	4502
2026-01-08 05:10:40.40	323.94	17.83	-51.2	-53.4	14.6	0.00e+00	0	25	0	879755264	68	4676
2026-01-08 05:10:41.40	323.75	17.77	-51.0	-53.1	14.7	0.00e+00	0	25	0	880803840	68	4539
2026-01-08 05:10:42.40	323.55	17.70	-50.8	-52.8	14.8	0.00e+00	0	25	0	882900992	68	4372
2026-01-08 05:10:43.40	323.36	17.63	-50.8	-52.8	14.9	0.00e+00	0	25	0	884998144	68	4371
2026-01-08 05:10:44.40	323.17	17.57	-50.8	-52.8	14.8	0.00e+00	0	24	0	887095296	68	4388
2026-01-08 05:10:45.38	322.99	17.50	-50.9	-52.9	14.8	0.00e+00	0	25	0	888143872	68	4426
2026-01-08 05:10:46.38	322.80	17.43	-50.9	-52.9	14.9	0.00e+00	0	25	0	890241024	68	4404
2026-01-08 05:10:47.38	322.61	17.36	-51.1	-53.2	14.7	0.00e+00	0	25	0	892338176	68	4583
2026-01-08 05:10:48.37	322.43	17.30	-51.5	-53.7	14.4	0.00e+00	0	25	0	894435328	68	4866
2026-01-08 05:10:49.37	322.24	17.23	-51.8	-54.1	14.2	0.00e+00	0	25	0	896532480	68	5100
2026-01-08 05:10:50.37	322.06	17.16	-51.6	-54.0	14.3	0.00e+00	0	25	0	897581056	68	4997
2026-01-08 05:10:51.37	321.88	17.09	-51.7	-54.0	14.3	0.00e+00	0	25	0	899678208	68	5006
2026-01-08 05:10:52.36	321.69	17.03	-51.5	-53.8	14.4	0.00e+00	0	25	0	901775360	68	4905
2026-01-08 05:10:53.36	321.51	16.96	-51.3	-53.5	14.5	0.00e+00	0	25	0	903872512	68	4715
2026-01-08 05:10:54.36	321.33	16.89	-51.4	-53.7	14.5	0.00e+00	0	25	0	904921088	68	4827
2026-01-08 05:10:55.36	321.15	16.82	-51.6	-53.8	14.4	0.00e+00	0	25	0	907018240	68	4899
2026-01-08 05:10:56.35	320.97	16.75	-51.6	-53.8	14.4	0.00e+00	0	25	0	909115392	68	4902
2026-01-08 05:10:57.35	320.79	16.68	-51.8	-54.1	14.2	0.00e+00	0	25	0	911212544	68	5097
2026-01-08 05:10:58.35	320.62	16.61	-51.8	-54.1	14.2	0.00e+00	0	25	0	913309696	68	5082
2026-01-08 05:10:59.35	320.44	16.55	-51.8	-54.1	14.2	0.00e+00	0	25	0	914358272	68	5096
2026-01-08 05:11:00.34	320.26	16.48	-51.7	-54.0	14.3	0.00e+00	0	25	0	916455424	68	5003
2026-01-08 05:11:01.34	320.09	16.41	-51.7	-54.0	14.3	0.00e+00	0	25	0	918552576	68	5023
2026-01-08 05:11:02.34	319.91	16.34	-51.5	-53.7	14.4	0.00e+00	0	25	0	920649728	68	4840
2026-01-08 05:11:03.35	319.74	16.27	-51.5	-53.7	14.4	0.00e+00	0	25	0	922746880	68	4857
2026-01-08 05:11:04.34	319.57	16.20	-51.4	-53.6	14.5	0.00e+00	0	25	0	923795456	68	4786
2026-01-08 05:11:05.34	319.39	16.13	-51.5	-53.6	14.5	0.00e+00	0	25	0	925892608	68	4808
2026-01-08 05:11:06.33	319.22	16.06	-51.4	-53.5	14.5	0.00e+00	0	25	0	927989760	68	4710
2026-01-08 05:11:07.33	319.05	15.99	-51.2	-53.3	14.6	0.00e+00	0	25	0	930086912	68	4608
2026-01-08 05:11:08.32	318.89	15.92	-51.1	-53.1	14.7	0.00e+00	0	25	0	932184064	68	4534
2026-01-08 05:11:09.32	318.72	15.85	-50.9	-52.9	14.8	0.00e+00	0	25	0	933232640	68	4406
2026-01-08 05:11:10.31	318.55	15.78	-51.1	-53.0	14.8	0.00e+00	0	25	0	935329792	68	4478
2026-01-08 05:11:11.31	318.38	15.71	-51.0	-53.0	14.8	0.00e+00	0	25	0	937426944	68	4472
2026-01-08 05:11:12.31	318.22	15.64	-51.1	-53.1	14.7	0.00e+00	0	25	0	939524096	68	4506
2026-01-08 05:11:13.31	318.05	15.57	-51.2	-53.2	14.7	0.00e+00	0	25	0	940572672	68	4551
2026-01-08 05:11:14.31	317.89	15.50	-51.0	-53.0	14.8	0.00e+00	0	25	0	942669824	68	4442
2026-01-08 05:11:15.31	317.72	15.43	-50.8	-52.6	15.0	0.00e+00	0	25	0	944766976	68	4268
2026-01-08 05:11:16.31	317.56	15.36	-50.2	-51.9	15.1	0.00e+00	0	25	0	946864128	67	4180
2026-01-08 05:11:17.31	317.40	15.29	-49.9	-51.6	15.1	0.00e+00	0	24	0	948961280	66	4263
2026-01-08 05:11:18.31	317.23	15.22	-49.7	-51.3	15.0	0.00e+00	0	25	0	950009856	65	4373
2026-01-08 05:11:19.30	317.07	15.15	-49.6	-51.2	15.1	0.00e+00	0	25	0	952107008	65	4325
2026-01-08 05:11:20.30	316.91	15.08	-49.6	-51.2	15.1	0.00e+00	0	25	0	954204160	65	4327
2026-01-08 05:11:21.30	316.75	15.01	-49.7	-51.4	15.0	0.00e+00	0	25	0	956301312	65	4395
2026-01-08 05:11:22.29	316.60	14.94	-49.8	-51.4	15.0	0.00e+00	0	25	0	957349888	65	4420
2026-01-08 05:11:23.28	316.44	14.87	-50.1	-51.8	14.8	0.00e+00	0	25	0	959447040	65	4606
2026-01-08 05:11:24.28	316.28	14.80	-50.2	-51.9	14.8	0.00e+00	0	25	0	961544192	65	4666
2026-01-08 05:11:25.28	316.13	14.73	-50.2	-52.0	14.8	0.00e+00	0	25	0	963641344	65	4716
2026-01-08 05:11:26.28	315.97	14.66	-50.4	-52.2	14.7	0.00e+00	0	24	0	965738496	65	4821
2026-01-08 05:11:27.28	315.81	14.59	-50.6	-52.4	14.7	0.00e+00	0	25	0	966787072	66	4657
2026-01-08 05:11:28.28	315.66	14.52	-50.5	-52.3	14.8	0.00e+00	0	25	0	968884224	66	4643
2026-01-08 05:11:29.28	315.51	14.45	-50.6	-52.4	14.7	0.00e+00	0	25	0	970981376	66	4699
2026-01-08 05:11:30.27	315.36	14.38	-50.6	-52.4	14.7	0.00e+00	0	25	0	973078528	66	4697
2026-01-08 05:11:31.27	315.20	14.31	-50.5	-52.3	14.7	0.00e+00	0	25	0	975175680	66	4618
2026-01-08 05:11:32.27	315.05	14.24	-50.3	-52.0	14.9	0.00e+00	0	25	0	976224256	66	4480
2026-01-08 05:11:33.27	314.90	14.17	-50.3	-52.0	14.9	0.00e+00	0	24	0	978321408	66	4455
2026-01-08 05:11:34.27	314.75	14.10	-50.1	-51.8	15.0	0.00e+00	0	25	0	980418560	66	4378
2026-01-08 05:11:35.27	314.60	14.03	-50.1	-51.8	15.0	0.00e+00	0	25	0	982515712	66	4346
2026-01-08 05:11:36.27	314.45	13.96	-50.0	-51.6	15.1	0.00e+00	0	25	0	983564288	66	4271
2026-01-08 05:11:37.26	314.31	13.89	-50.1	-51.8	15.0	0.00e+00	0	25	0	985661440	66	4341
2026-01-08 05:11:38.26	314.16	13.82	-50.2	-51.9	15.0	0.00e+00	0	25	0	987758592	66	4431
2026-01-08 05:11:39.25	314.01	13.75	-50.6	-52.4	14.7	0.00e+00	0	25	0	989855744	66	4655
2026-01-08 05:11:40.25	313.87	13.68	-50.8	-52.7	14.5	0.00e+00	0	25	0	991952896	66	4856
2026-01-08 05:11:41.25	313.72	13.61	-50.9	-52.8	14.7	0.00e+00	0	25	0	993001472	67	4628
2026-01-08 05:11:42.24	313.58	13.54	-51.1	-53.1	14.5	0.00e+00	0	25	0	995098624	67	4767
2026-01-08 05:11:43.24	313.44	13.47	-51.1	-53.0	14.5	0.00e+00	0	24	0	997195776	67	4757
2026-01-08 05:11:44.24	313.29	13.40	-51.0	-52.9	14.6	0.00e+00	0	25	0	999292928	67	4705
2026-01-08 05:11:45.23	313.15	13.33	-51.0	-52.9	14.6	0.00e+00	0	25	0	1001390080	67	4673
2026-01-08 05:11:46.23	313.01	13.26	-51.1	-53.0	14.5	0.00e+00	0	25	0	1002438656	67	4753
2026-01-08 05:11:47.22	312.87	13.19	-51.0	-53.0	14.5	0.00e+00	0	25	0	1004535808	67	4727
2026-01-08 05:11:48.23	312.73	13.12	-51.1	-53.0	14.5	0.00e+00	0	25	0	1006632960	67	4746
2026-01-08 05:11:49.22	312.59	13.05	-51.0	-53.0	14.6	0.00e+00	0	25	0	1008730112	67	4724
2026-01-08 05:11:50.21	312.46	12.98	-50.9	-52.8	14.6	0.00e+00	0	25	0	1009778688	67	4648
2026-01-08 05:11:51.21	312.32	12.91	-50.7	-52.6	14.7	0.00e+00	0	25	0	1011875840	67	4521
2026-01-08 05:11:52.21	312.18	12.84	-50.6	-52.4	14.9	0.00e+00	0	24	0	1013972992	67	4404
2026-01-08 05:11:53.21	312.04	12.77	-50.4	-52.2	14.9	0.00e+00	0	24	0	1016070144	67	4300
2026-01-08 05:11:54.21	311.91	12.70	-50.1	-51.8	15.0	0.00e+00	0	25	0	1018167296	66	4359
2026-01-08 05:11:55.20	311.77	12.63	-50.1	-51.8	14.9	0.00e+00	0	25	0	1019215872	66	4370
2026-01-08 05:11:56.20	311.64	12.56	-50.1	-51.8	14.9	0.00e+00	0	25	0	1021313024	66	4384
2026-01-08 05:11:57.19	311.50	12.50	-50.0	-51.7	15.0	0.00e+00	0	25	0	1023410176	66	4300
2026-01-08 05:11:58.19	311.37	12.43	-50.4	-52.1	14.8	0.00e+00	0	25	0	1025507328	66	4521
2026-01-08 05:11:59.18	311.24	12.36	-50.6	-52.4	14.7	0.00e+00	0	25	0	1026555904	66	4661
2026-01-08 05:12:00.17	311.11	12.29	-50.8	-52.7	14.6	0.00e+00	0	25	0	1028653056	66	4842
2026-01-08 05:12:01.16	310.98	12.22	-51.2	-53.1	14.5	0.00e+00	0	24	0	1030750208	67	4801
2026-01-08 05:12:02.16	310.85	12.15	-51.5	-53.6	14.4	0.00e+00	0	25	0	1032847360	68	4763
2026-01-08 05:12:03.16	310.72	12.08	-51.8	-54.0	14.3	0.00e+00	0	25	0	1034944512	68	4987
2026-01-08 05:12:04.16	310.59	12.01	-51.8	-53.9	14.3	0.00e+00	0	25	0	1035993088	68	4973
2026-01-08 05:12:05.16	310.46	11.94	-51.8	-54.0	14.2	0.00e+00	0	24	0	1038090240	68	5005
2026-01-08 05:12:06.15	310.33	11.87	-51.6	-53.6	14.4	0.00e+00	0	25	0	1040187392	68	4809
2026-01-08 05:12:07.15	310.20	11.80	-51.5	-53.5	14.5	0.00e+00	0	24	0	1042284544	68	4733
2026-01-08 05:12:08.14	310.08	11.74	-51.4	-53.4	14.5	0.00e+00	0	25	0	1043333120	68	4654
2026-01-08 05:12:09.13	309.95	11.67	-51.1	-53.1	14.7	0.00e+00	0	25	0	1045430272	68	4498
2026-01-08 05:12:10.13	309.82	11.60	-51.1	-53.0	14.7	0.00e+00	0	25	0	1047527424	68	4480
2026-01-08 05:12:11.13	309.70	11.53	-51.0	-52.9	14.8	0.00e+00	0	25	0	1049624576	68	4416
2026-01-08 05:12:12.13	309.57	11.46	-51.1	-53.0	14.7	0.00e+00	0	25	0	1051721728	68	4464
2026-01-08 05:12:13.13	309.45	11.39	-51.0	-52.9	14.8	0.00e+00	0	25	0	1052770304	68	4398
2026-01-08 05:12:14.13	309.33	11.32	-51.2	-53.2	14.6	0.00e+00	0	25	0	1054867456	68	4571
2026-01-08 05:12:15.12	309.20	11.25	-51.3	-53.3	14.5	0.00e+00	0	25	0	1056964608	68	4646
2026-01-08 05:12:16.12	309.08	11.18	-51.2	-53.1	14.7	0.00e+00	0	25	0	1059061760	68	4519
2026-01-08 05:12:17.11	308.96	11.12	-51.4	-53.4	14.5	0.00e+00	0	25	0	1060110336	68	4686
2026-01-08 05:12:18.11	308.84	11.05	-51.3	-53.3	14.5	0.00e+00	0	25	0	1062207488	68	4647
2026-01-08 05:12:19.11	308.72	10.98	-51.4	-53.4	14.5	0.00e+00	0	25	0	1064304640	68	4669
2026-01-08 05:12:20.11	308.60	10.91	-51.3	-53.3	14.5	0.00e+00	0	25	0	1066401792	68	4611
2026-01-08 05:12:21.11	308.48	10.84	-51.4	-53.4	14.5	0.00e+00	0	25	0	1068498944	68	4678
2026-01-08 05:12:22.10	308.36	10.78	-51.4	-53.5	14.5	0.00e+00	0	25	0	1069547520	68	4712
2026-01-08 05:12:23.09	308.24	10.71	-51.4	-53.5	14.4	0.00e+00	0	25	0	1071644672	68	4730
2026-01-08 05:12:24.09	308.13	10.64	-51.7	-53.9	14.2	0.00e+00	0	24	0	1073741824	68	4953
2026-01-08 05:12:25.09	308.01	10.57	-51.7	-53.9	14.2	0.00e+00	0	25	0	1075838976	68	4946
2026-01-08 05:12:26.09	307.89	10.50	-51.9	-54.1	14.1	0.00e+00	0	25	0	1077936128	68	5083
2026-01-08 05:12:27.08	307.78	10.44	-51.9	-54.1	14.3	0.00e+00	0	25	0	1078984704	69	4792
2026-01-08 05:12:28.09	307.66	10.37	-51.9	-54.2	14.2	0.00e+00	0	25	0	1081081856	69	4843
2026-01-08 05:12:29.08	307.55	10.30	-52.0	-54.4	14.1	0.00e+00	0	25	0	1083179008	69	4941
2026-01-08 05:12:30.08	307.43	10.23	-52.0	-54.3	14.2	0.00e+00	0	25	0	1085276160	69	4902
2026-01-08 05:12:31.09	307.32	10.16	-51.9	-54.2	14.2	0.00e+00	0	25	0	1086324736	69	4865
2026-01-08 05:12:32.09	307.20	10.10	-51.8	-54.0	14.3	0.00e+00	0	25	0	1088421888	69	4728
2026-01-08 05:12:33.08	307.09	10.03	-52.0	-54.3	14.2	0.00e+00	0	25	0	1090519040	69	4896
2026-01-08 05:12:34.08	306.98	9.96	-52.1	-54.5	14.1	0.00e+00	0	25	0	1092616192	69	4996
2026-01-08 05:12:35.08	306.87	9.89	-52.2	-54.6	14.0	0.00e+00	0	25	0	1094713344	69	5073
2026-01-08 05:12:36.08	306.76	9.83	-52.3	-54.8	13.9	0.00e+00	0	25	0	1095761920	69	5182
2026-01-08 05:12:37.08	306.64	9.76	-52.3	-54.8	13.9	0.00e+00	0	25	0	1097859072	69	5208
2026-01-08 05:12:38.07	306.54	9.69	-52.5	-55.1	13.8	0.00e+00	0	25	0	1099956224	70	5091
2026-01-08 05:12:39.07	306.43	9.63	-52.7	-55.4	13.7	0.00e+00	0	25	0	1102053376	70	5252
2026-01-08 05:12:40.07	306.32	9.56	-53.0	-55.9	13.5	0.00e+00	0	25	0	1103101952	71	5235
2026-01-08 05:12:41.06	306.21	9.49	-52.9	-55.7	13.6	0.00e+00	0	25	0	1105199104	71	5140
2026-01-08 05:12:42.06	306.10	9.43	-52.8	-55.5	13.7	0.00e+00	0	25	0	1107296256	71	5041
2026-01-08 05:12:43.06	305.99	9.36	-52.9	-55.6	13.7	0.00e+00	0	25	0	1109393408	71	5063
2026-01-08 05:12:44.05	305.89	9.29	-52.6	-55.2	13.9	0.00e+00	0	25	0	1111490560	71	4841
2026-01-08 05:12:45.04	305.78	9.23	-52.5	-55.1	14.0	0.00e+00	0	25	0	1112539136	71	4772
2026-01-08 05:12:46.04	305.67	9.16	-52.3	-54.7	14.2	0.00e+00	0	25	0	1114636288	71	4578
2026-01-08 05:12:47.04	305.57	9.09	-52.3	-54.6	14.3	0.00e+00	0	25	0	1116733440	71	4537
2026-01-08 05:12:48.04	305.46	9.03	-52.0	-54.3	14.2	0.00e+00	0	25	0	1118830592	70	4624
2026-01-08 05:12:49.03	305.36	8.96	-52.0	-54.3	14.3	0.00e+00	0	25	0	1120927744	70	4605
2026-01-08 05:12:50.03	305.26	8.90	-51.9	-54.1	14.4	0.00e+00	0	25	0	1121976320	70	4525
2026-01-08 05:12:51.03	305.15	8.83	-51.8	-54.0	14.5	0.00e+00	0	25	0	1124073472	70	4463
2026-01-08 05:12:52.03	305.05	8.76	-52.0	-54.3	14.3	0.00e+00	0	25	0	1126170624	70	4599
2026-01-08 05:12:53.01	304.95	8.70	-51.9	-54.1	14.4	0.00e+00	0	25	0	1128267776	70	4530
2026-01-08 05:12:54.01	304.84	8.63	-52.0	-54.3	14.2	0.00e+00	0	25	0	1129316352	70	4637
2026-01-08 05:12:55.01	304.74	8.57	-52.1	-54.4	14.2	0.00e+00	0	25	0	1131413504	70	4699
2026-01-08 05:12:56.00	304.64	8.50	-52.1	-54.3	14.2	0.00e+00	0	25	0	1133510656	70	4649
2026-01-08 05:12:57.00	304.54	8.44	-52.1	-54.5	14.2	0.00e+00	0	25	0	1135607808	70	4710
2026-01-08 05:12:58.00	304.44	8.37	-52.3	-54.6	14.1	0.00e+00	0	25	0	1137704960	70	4812
2026-01-08 05:12:59.00	304.34	8.31	-52.3	-54.8	14.0	0.00e+00	0	25	0	1138753536	70	4883
2026-01-08 05:13:00.00	304.24	8.24	-52.3	-54.6	14.0	0.00e+00	0	25	0	1140850688	70	4808
2026-01-08 05:13:01.00	304.14	8.18	-52.4	-54.8	14.0	0.00e+00	0	25	0	1142947840	70	4885
2026-01-08 05:13:02.00	304.04	8.11	-52.2	-54.5	14.1	0.00e+00	0	25	0	1145044992	70	4727
2026-01-08 05:13:03.00	303.95	8.04	-52.3	-54.6	14.0	0.00e+00	0	25	0	1147142144	70	4809
2026-01-08 05:13:04.00	303.85	7.98	-52.3	-54.7	14.0	0.00e+00	0	25	0	1148190720	70	4857
2026-01-08 05:13:05.00	303.75	7.91	-52.1	-54.5	14.1	0.00e+00	0	25	0	1150287872	70	4712
2026-01-08 05:13:06.00	303.65	7.85	-52.1	-54.4	14.2	0.00e+00	0	25	0	1152385024	70	4686
2026-01-08 05:13:07.00	303.56	7.79	-52.0	-54.2	14.3	0.00e+00	0	25	0	1154482176	70	4588
2026-01-08 05:13:07.99	303.46	7.72	-52.0	-54.3	14.2	0.00e+00	0	25	0	1155530752	70	4614
2026-01-08 05:13:09.00	303.37	7.66	-51.9	-54.1	14.3	0.00e+00	0	24	0	1157627904	70	4526
2026-01-08 05:13:10.00	303.27	7.59	-52.0	-54.3	14.2	0.00e+00	0	25	0	1159725056	70	4607
2026-01-08 05:13:11.00	303.18	7.53	-52.0	-54.3	14.2	0.00e+00	0	25	0	1161822208	70	4627
2026-01-08 05:13:12.01	303.08	7.46	-52.0	-54.3	14.2	0.00e+00	0	25	0	1163919360	70	4604
2026-01-08 05:13:13.01	302.99	7.40	-52.1	-54.5	14.1	0.00e+00	0	25	0	1164967936	70	4708
2026-01-08 05:13:14.01	302.89	7.33	-52.1	-54.4	14.1	0.00e+00	0	25	0	1167065088	70	4694
2026-01-08 05:13:15.01	302.80	7.27	-52.2	-54.6	14.0	0.00e+00	0	24	0	1169162240	70	4807
2026-01-08 05:13:16.00	302.71	7.21	-52.3	-54.7	14.0	0.00e+00	0	25	0	1171259392	70	4835
2026-01-08 05:13:17.00	302.62	7.14	-52.2	-54.7	14.0	0.00e+00	0	25	0	1173356544	70	4826
2026-01-08 05:13:18.00	302.53	7.08	-52.4	-55.0	13.8	0.00e+00	0	25	0	1174405120	70	4993
2026-01-08 05:13:18.99	302.44	7.02	-52.6	-55.2	13.7	0.00e+00	0	25	0	1176502272	70	5108
2026-01-08 05:13:20.00	302.34	6.95	-52.5	-55.1	13.8	0.00e+00	0	25	0	1178599424	70	5058
2026-01-08 05:13:21.00	302.25	6.89	-52.6	-55.2	13.7	0.00e+00	0	25	0	1180696576	70	5131
2026-01-08 05:13:22.00	302.16	6.82	-52.8	-55.5	13.5	0.00e+00	0	25	0	1181745152	70	5306
2026-01-08 05:13:23.00	302.07	6.76	-53.0	-55.9	13.4	0.00e+00	0	25	0	1183842304	71	5225
2026-01-08 05:13:24.00	301.98	6.70	-53.1	-56.0	13.3	0.00e+00	0	25	0	1185939456	71	5319
2026-01-08 05:13:25.00	301.90	6.63	-53.1	-56.0	13.3	0.00e+00	0	25	0	1188036608	71	5294
2026-01-08 05:13:26.00	301.81	6.57	-53.2	-56.2	13.2	0.00e+00	0	25	0	1190133760	71	5439
2026-01-08 05:13:27.00	301.72	6.51	-53.3	-56.3	13.1	0.00e+00	0	25	0	1191182336	71	5499
2026-01-08 05:13:28.00	301.63	6.44	-53.9	-56.9	12.9	0.00e+00	0	25	0	1193279488	72	5572
2026-01-08 05:13:29.00	301.54	6.38	-53.5	-56.6	13.0	0.00e+00	0	25	0	1195376640	72	5378
2026-01-08 05:13:30.00	301.46	6.32	-53.5	-56.8	12.9	0.00e+00	0	25	0	1197473792	72	5467
2026-01-08 05:13:31.01	301.37	6.26	-53.4	-56.6	13.0	0.00e+00	0	25	0	1199570944	72	5368
2026-01-08 05:13:32.00	301.28	6.19	-53.6	-56.9	12.8	0.00e+00	0	25	0	1200619520	72	5554
2026-01-08 05:13:33.00	301.20	6.13	-53.7	-57.0	12.7	0.00e+00	0	25	0	1202716672	72	5606
2026-01-08 05:13:34.01	301.11	6.07	-53.6	-57.0	12.8	0.00e+00	0	25	0	1204813824	72	5607
2026-01-08 05:13:35.01	301.03	6.01	-53.6	-56.9	12.8	0.00e+00	0	25	0	1206910976	72	5545
2026-01-08 05:13:36.01	300.94	5.94	-53.6	-57.0	12.8	0.00e+00	0	25	0	1209008128	72	5597
