passes_logs/2026/01/09/R4.6S_Anadyr/R4.6S_Anadyr__20260109_181134_AQUA_rec.log

#Pass ID: 20260109_181134_AQUA
#Satellite: AQUA
#Configuration: AQUA
#almurnet v.1.7.20251203
#Start time: 2026-01-09 18:11:35

#Version: 2.2.20231116
#Station: R4.6S_Anadyr
#Location: 177.4865 lon 64.73178 lat
#TLE: 1 27424U 02022A   26009.00333547  .00001046  00000+0  21942-3 0  9998
#TLE: 2 27424  98.4075 335.3304 0002026  85.7625 349.1392 14.61808998260012

#Time	Az	El	Level	Level2	SNR	BER	BlckErr	Temp	State	Recorded	gain1	gain2
2026-01-09 18:11:35.13	23.74	0.05	-47.6	-59.2	3.5	8.46e-01	0	23	0	0	60	33067
2026-01-09 18:11:36.14	23.69	0.10	-47.9	-65.7	3.5	3.04e+01	0	24	104	0	60	74472
2026-01-09 18:11:37.15	23.63	0.16	-47.9	-65.6	3.5	3.04e+01	0	24	104	0	60	73748
2026-01-09 18:11:38.15	23.58	0.22	-47.9	-65.7	3.5	3.04e+01	0	24	104	0	60	74276
2026-01-09 18:11:39.16	23.53	0.28	-47.8	-65.7	3.5	3.04e+01	0	24	104	0	60	74199
2026-01-09 18:11:40.17	23.48	0.34	-47.9	-65.7	3.5	3.04e+01	0	24	104	0	60	74207
2026-01-09 18:11:41.18	23.42	0.39	-48.0	-65.8	3.5	3.04e+01	0	24	104	0	60	75397
2026-01-09 18:11:42.19	23.37	0.45	-47.9	-65.7	3.5	3.04e+01	0	24	104	0	60	74362
2026-01-09 18:11:43.20	23.32	0.51	-47.9	-65.7	3.5	3.04e+01	0	24	104	0	60	74584
2026-01-09 18:11:44.21	23.26	0.57	-47.8	-65.6	3.5	3.04e+01	0	24	104	0	60	73620
2026-01-09 18:11:45.22	23.21	0.63	-47.7	-65.6	3.5	3.04e+01	0	24	104	0	60	73313
2026-01-09 18:11:46.23	23.15	0.69	-47.7	-65.5	3.5	3.04e+01	0	24	104	0	60	72500
2026-01-09 18:11:47.24	23.10	0.75	-47.6	-65.4	3.5	3.04e+01	0	24	104	0	60	71699
2026-01-09 18:11:48.25	23.04	0.81	-47.1	-65.2	3.5	3.04e+01	0	24	104	0	60	69671
2026-01-09 18:11:49.25	22.99	0.86	-47.1	-65.0	3.5	3.04e+01	0	24	104	0	60	68338
2026-01-09 18:11:50.26	22.93	0.92	-46.9	-64.7	3.5	3.04e+01	0	24	104	0	60	66383
2026-01-09 18:11:51.27	22.88	0.98	-46.6	-64.4	3.5	3.04e+01	0	24	104	0	60	63903
2026-01-09 18:11:52.28	22.82	1.04	-46.3	-64.2	3.5	3.04e+01	0	24	104	0	60	62431
2026-01-09 18:11:53.29	22.76	1.10	-46.3	-64.2	3.5	3.04e+01	0	24	104	0	60	62152
2026-01-09 18:11:54.30	22.71	1.16	-46.3	-64.1	3.5	3.04e+01	0	24	104	0	60	61883
2026-01-09 18:11:55.31	22.65	1.22	-46.3	-64.1	3.5	3.04e+01	0	24	104	0	60	61885
2026-01-09 18:11:56.32	22.59	1.28	-46.3	-64.1	3.5	3.04e+01	0	24	104	0	60	61873
2026-01-09 18:11:57.33	22.54	1.34	-46.3	-64.1	3.5	3.04e+01	0	24	104	0	60	61825
2026-01-09 18:11:58.34	22.48	1.40	-46.3	-64.2	3.5	3.04e+01	0	24	104	0	60	62244
2026-01-09 18:11:59.35	22.42	1.46	-46.3	-64.1	3.5	3.04e+01	0	24	104	0	60	61948
2026-01-09 18:12:00.36	22.36	1.52	-46.3	-64.1	3.5	3.04e+01	0	24	104	0	60	61840
2026-01-09 18:12:01.37	22.30	1.58	-46.3	-64.1	3.5	3.04e+01	0	24	104	0	60	61602
2026-01-09 18:12:02.38	22.24	1.64	-46.3	-64.1	3.5	3.04e+01	0	24	104	0	60	61527
2026-01-09 18:12:03.39	22.18	1.70	-46.3	-64.1	3.5	3.04e+01	0	24	104	0	60	61927
2026-01-09 18:12:04.39	22.13	1.76	-46.3	-64.2	3.5	3.04e+01	0	24	104	0	60	62148
2026-01-09 18:12:05.40	22.07	1.83	-46.3	-64.1	3.5	3.04e+01	0	24	104	0	60	61959
2026-01-09 18:12:06.41	22.01	1.89	-46.3	-64.2	3.5	3.04e+01	0	24	104	0	60	62233
2026-01-09 18:12:07.41	21.95	1.95	-46.3	-64.1	3.5	3.04e+01	0	24	104	0	60	61897
2026-01-09 18:12:08.42	21.89	2.01	-46.3	-64.1	3.5	3.04e+01	0	24	104	0	60	61974
2026-01-09 18:12:09.43	21.83	2.07	-46.3	-64.1	3.5	3.04e+01	0	24	104	0	60	61750
2026-01-09 18:12:10.44	21.76	2.13	-46.3	-64.1	3.5	3.04e+01	0	24	104	0	60	61638
2026-01-09 18:12:11.45	21.70	2.19	-46.3	-64.0	3.5	3.04e+01	0	24	104	0	60	61228
2026-01-09 18:12:12.46	21.64	2.25	-46.3	-64.0	3.5	3.04e+01	0	25	104	0	60	61153
2026-01-09 18:12:13.47	21.58	2.32	-46.2	-63.9	3.5	3.04e+01	0	24	104	0	60	60497
2026-01-09 18:12:14.48	21.52	2.38	-46.2	-63.9	3.5	3.04e+01	0	24	104	0	60	60406
2026-01-09 18:12:15.49	21.45	2.44	-46.3	-64.0	3.5	3.04e+01	0	24	104	0	60	60884
2026-01-09 18:12:16.50	21.39	2.50	-46.3	-64.1	3.5	3.04e+01	0	25	104	0	60	61617
2026-01-09 18:12:17.51	21.33	2.57	-46.3	-64.1	3.5	3.04e+01	0	25	104	0	60	61983
2026-01-09 18:12:18.52	21.26	2.63	-46.3	-64.2	3.5	3.04e+01	0	25	104	0	60	62276
2026-01-09 18:12:19.53	21.20	2.69	-46.3	-64.1	3.5	3.04e+01	0	25	104	0	60	61860
2026-01-09 18:12:20.54	21.14	2.75	-46.3	-64.1	3.5	3.04e+01	0	25	104	0	60	61540
2026-01-09 18:12:21.54	21.07	2.82	-46.3	-64.1	3.5	3.04e+01	0	25	104	0	60	61608
2026-01-09 18:12:22.56	21.01	2.88	-46.2	-63.9	3.5	3.04e+01	0	25	104	0	60	60468
2026-01-09 18:12:23.57	20.94	2.94	-46.2	-63.7	3.5	3.04e+01	0	25	104	0	60	58656
2026-01-09 18:12:24.57	20.88	3.01	-46.2	-63.5	3.5	3.04e+01	0	25	104	0	60	57546
2026-01-09 18:12:25.58	20.81	3.07	-46.2	-63.5	3.5	3.04e+01	0	25	104	0	60	57604
2026-01-09 18:12:26.59	20.74	3.13	-46.2	-64.0	3.5	3.04e+01	0	25	104	0	60	60791
2026-01-09 18:12:27.60	20.68	3.20	-46.2	-63.8	3.5	3.04e+01	0	25	104	0	60	59750
2026-01-09 18:12:28.61	20.61	3.26	-45.9	-62.2	3.5	3.04e+01	0	25	104	0	60	49665
2026-01-09 18:12:29.62	20.54	3.32	-45.2	-59.5	3.5	3.04e+01	0	25	104	0	60	36532
2026-01-09 18:12:30.63	20.48	3.39	-44.1	-57.0	3.5	3.04e+01	0	25	104	0	60	27233
2026-01-09 18:12:31.64	20.41	3.45	-43.2	-55.4	3.5	3.04e+01	0	25	104	0	60	22560
2026-01-09 18:12:32.65	20.34	3.52	-42.7	-54.5	3.5	3.04e+01	0	25	104	0	60	20517
2026-01-09 18:12:33.66	20.27	3.58	-42.4	-54.2	3.5	3.04e+01	0	25	104	0	60	19765
2026-01-09 18:12:34.67	20.20	3.64	-38.9	-49.6	3.6	3.04e+01	0	25	104	0	56	14620
2026-01-09 18:12:35.68	20.13	3.71	-43.4	-55.7	3.5	3.04e+01	0	25	104	0	52	37184
2026-01-09 18:12:36.69	20.06	3.77	-45.9	-61.9	3.5	3.04e+01	0	25	104	0	60	47843
2026-01-09 18:12:37.70	19.99	3.84	-38.4	-49.0	3.5	3.04e+01	0	25	104	0	50	19293
2026-01-09 18:12:38.71	19.92	3.90	-40.4	-51.4	3.5	3.04e+01	0	25	104	0	56	18008
2026-01-09 18:12:39.71	19.85	3.97	-39.5	-50.3	3.5	3.04e+01	0	25	104	0	54	17806
2026-01-09 18:12:40.73	19.78	4.03	-38.5	-49.2	3.5	3.04e+01	0	25	104	0	52	17558
2026-01-09 18:12:41.73	19.71	4.10	-37.8	-48.4	3.5	3.04e+01	0	25	104	0	50	17924
2026-01-09 18:12:42.74	19.64	4.17	-41.4	-52.8	3.5	3.04e+01	0	25	104	0	56	21081
2026-01-09 18:12:43.75	19.57	4.23	-36.6	-47.0	3.5	3.04e+01	0	25	104	0	48	17185
2026-01-09 18:12:44.76	19.49	4.30	-46.3	-63.6	3.5	3.04e+01	0	25	104	0	60	57981
2026-01-09 18:12:45.77	19.42	4.36	-45.4	-59.8	3.5	3.04e+01	0	25	104	0	60	37608
2026-01-09 18:12:46.78	19.35	4.43	-38.2	-48.8	3.5	3.04e+01	0	25	104	0	50	18824
2026-01-09 18:12:47.79	19.27	4.50	-38.6	-49.3	3.5	3.04e+01	0	25	104	0	54	15850
2026-01-09 18:12:48.80	19.20	4.56	-38.6	-49.2	3.5	3.04e+01	0	25	104	0	52	17618
2026-01-09 18:12:49.80	19.13	4.63	-37.7	-48.3	3.5	3.04e+01	0	25	104	0	50	17751
2026-01-09 18:12:50.81	19.05	4.69	-36.7	-47.1	3.5	3.04e+01	0	25	104	0	48	17347
2026-01-09 18:12:51.82	18.98	4.76	-36.0	-46.4	3.5	3.04e+01	0	25	104	0	46	18007
2026-01-09 18:12:52.83	18.90	4.83	-37.5	-48.0	3.5	3.04e+01	0	25	104	0	48	19280
2026-01-09 18:12:53.84	18.82	4.90	-46.5	-64.0	3.5	3.04e+01	0	25	104	0	60	61285
2026-01-09 18:12:54.85	18.75	4.96	-45.9	-61.1	3.5	3.04e+01	0	25	104	0	60	43894
2026-01-09 18:12:55.86	18.67	5.03	-38.9	-49.6	3.5	3.04e+01	0	25	104	0	50	20647
2026-01-09 18:12:56.87	18.59	5.10	-37.9	-48.4	3.4	3.04e+01	0	25	104	0	52	16089
2026-01-09 18:12:57.87	18.52	5.16	-36.8	-47.2	3.4	3.04e+01	0	25	104	0	50	15685
2026-01-09 18:12:58.88	18.44	5.23	-36.0	-46.4	3.6	3.04e+01	0	25	104	0	48	15984
2026-01-09 18:12:59.89	18.36	5.30	-35.8	-46.1	3.6	3.04e+01	0	25	104	0	46	17331
2026-01-09 18:13:00.90	18.28	5.37	-37.1	-47.5	3.5	3.04e+01	0	25	104	0	46	20488
2026-01-09 18:13:01.91	18.20	5.44	-37.9	-48.4	3.6	3.04e+01	0	25	104	0	48	20312
2026-01-09 18:13:02.92	18.12	5.50	-46.5	-63.7	3.5	3.04e+01	0	25	104	0	60	59222
2026-01-09 18:13:03.93	18.04	5.57	-46.5	-63.4	3.5	3.04e+01	0	25	104	0	60	56682
2026-01-09 18:13:04.93	17.96	5.64	-42.8	-54.7	3.5	3.04e+01	0	25	104	0	56	26194
2026-01-09 18:13:05.94	17.88	5.71	-40.9	-51.9	3.5	3.04e+01	0	25	104	0	58	17016
2026-01-09 18:13:06.95	17.80	5.78	-39.5	-50.3	3.5	3.04e+01	0	25	104	0	54	17705
2026-01-09 18:13:07.96	17.72	5.85	-40.0	-50.8	3.5	3.04e+01	0	25	104	0	54	18900
2026-01-09 18:13:08.97	17.64	5.92	-38.9	-49.5	3.5	3.04e+01	0	25	104	0	54	16287
2026-01-09 18:13:09.98	17.55	5.99	-36.6	-47.0	3.5	3.04e+01	0	25	104	0	48	17151
2026-01-09 18:13:10.99	17.47	6.06	-43.3	-55.5	3.5	3.04e+01	0	25	104	0	58	25593
2026-01-09 18:13:12.00	17.39	6.13	-46.4	-62.5	3.5	3.04e+01	0	25	104	0	60	51397
2026-01-09 18:13:13.01	17.30	6.20	-40.8	-51.9	3.5	3.04e+01	0	25	104	0	56	19157
2026-01-09 18:13:14.02	17.22	6.27	-46.4	-63.1	3.5	3.04e+01	0	25	104	0	60	54788
2026-01-09 18:13:15.03	17.13	6.34	-42.2	-53.7	3.5	3.04e+01	0	25	104	0	60	18588
2026-01-09 18:13:16.04	17.05	6.41	-40.2	-51.0	3.5	3.04e+01	0	25	104	0	56	17285
2026-01-09 18:13:17.04	16.96	6.48	-38.9	-49.6	3.5	3.04e+01	0	25	104	0	54	16335
2026-01-09 18:13:18.05	16.87	6.55	-38.5	-49.1	3.5	3.04e+01	0	25	104	0	52	17349
2026-01-09 18:13:19.06	16.79	6.62	-46.4	-62.5	3.5	3.04e+01	0	25	104	0	60	51100
2026-01-09 18:13:20.07	16.70	6.69	-38.1	-48.7	3.5	3.04e+01	0	25	104	0	52	16576
2026-01-09 18:13:21.07	16.61	6.76	-46.5	-63.7	3.5	3.04e+01	0	25	104	0	60	58743
2026-01-09 18:13:22.08	16.52	6.83	-46.3	-62.0	3.5	3.04e+01	0	25	104	0	60	48627
2026-01-09 18:13:23.09	16.44	6.90	-39.3	-50.1	3.6	3.04e+01	0	25	104	0	50	21968
2026-01-09 18:13:24.10	16.35	6.97	-36.5	-46.9	3.5	3.04e+01	0	25	104	0	48	17041
2026-01-09 18:13:25.11	16.26	7.05	-36.5	-46.9	3.5	3.04e+01	0	25	104	0	48	16932
2026-01-09 18:13:26.12	16.17	7.12	-36.3	-46.7	3.5	3.04e+01	0	25	104	0	48	16556
2026-01-09 18:13:27.13	16.07	7.19	-35.4	-45.7	3.5	3.04e+01	0	25	104	0	46	16587
2026-01-09 18:13:28.14	15.98	7.26	-38.5	-49.1	3.5	3.04e+01	0	25	104	0	50	19462
2026-01-09 18:13:29.15	15.89	7.34	-43.8	-56.2	3.5	3.04e+01	0	25	104	0	60	24941
2026-01-09 18:13:30.16	15.80	7.41	-46.8	-64.1	3.5	3.04e+01	0	25	104	0	60	61632
2026-01-09 18:13:31.17	15.71	7.48	-40.8	-51.8	3.5	3.04e+01	0	25	104	0	56	18892
2026-01-09 18:13:32.18	15.61	7.55	-46.6	-63.2	3.6	3.04e+01	0	25	104	0	60	55389
2026-01-09 18:13:33.19	15.52	7.63	-41.3	-52.4	3.6	3.04e+01	0	25	104	0	58	17969
2026-01-09 18:13:34.20	15.42	7.70	-41.0	-52.0	3.5	3.04e+01	0	25	104	0	58	17123
2026-01-09 18:13:35.21	15.33	7.77	-40.0	-50.8	3.5	3.04e+01	0	25	104	0	56	16780
2026-01-09 18:13:36.21	15.23	7.85	-38.5	-49.1	3.5	3.04e+01	0	25	104	0	52	17333
2026-01-09 18:13:37.22	15.14	7.92	-46.4	-62.3	3.5	3.04e+01	0	25	104	0	60	50126
2026-01-09 18:13:38.23	15.04	7.99	-36.7	-47.1	3.4	3.04e+01	0	25	104	0	50	15518
2026-01-09 18:13:39.24	14.94	8.07	-46.6	-63.1	3.5	3.04e+01	0	25	104	0	60	55296
2026-01-09 18:13:40.25	14.84	8.14	-45.3	-59.0	3.5	3.04e+01	0	25	104	0	60	34236
2026-01-09 18:13:41.26	14.75	8.22	-38.6	-49.2	3.5	3.04e+01	0	25	104	0	50	19803
2026-01-09 18:13:42.27	14.65	8.29	-36.8	-47.1	3.5	3.04e+01	0	25	104	0	48	17466
2026-01-09 18:13:43.28	14.55	8.37	-36.5	-46.8	3.5	3.04e+01	0	25	104	0	48	16874
2026-01-09 18:13:44.29	14.45	8.44	-36.6	-47.0	3.5	3.04e+01	0	25	104	0	48	17212
2026-01-09 18:13:45.30	14.35	8.52	-35.6	-45.9	3.5	3.04e+01	0	25	104	0	46	16975
2026-01-09 18:13:46.31	14.24	8.59	-34.7	-45.0	3.6	3.04e+01	0	25	104	0	44	17092
2026-01-09 18:13:47.32	14.14	8.67	-41.9	-53.2	3.5	3.04e+01	0	25	104	0	60	17492
2026-01-09 18:13:48.33	14.04	8.74	-46.4	-61.9	3.5	3.04e+01	0	25	104	0	60	47870
2026-01-09 18:13:49.33	13.94	8.82	-35.9	-46.2	3.5	3.04e+01	0	25	104	0	50	14011
2026-01-09 18:13:50.34	13.83	8.89	-46.7	-63.3	3.5	3.04e+01	0	25	104	0	60	56528
2026-01-09 18:13:51.35	13.73	8.97	-36.0	-46.3	3.5	3.04e+01	0	25	104	0	48	15854
2026-01-09 18:13:52.36	13.62	9.05	-35.5	-45.8	3.5	3.04e+01	0	25	104	0	46	16829
2026-01-09 18:13:53.37	13.52	9.12	-35.5	-45.7	3.5	3.04e+01	0	25	104	0	46	16691
2026-01-09 18:13:54.38	13.41	9.20	-35.4	-45.7	3.5	3.04e+01	0	25	104	0	46	16567
2026-01-09 18:13:55.38	13.31	9.27	-44.7	-57.6	3.5	3.04e+01	0	25	104	0	60	29242
2026-01-09 18:13:56.39	13.20	9.35	-35.8	-46.1	3.5	3.04e+01	0	25	104	0	48	15465
2026-01-09 18:13:57.40	13.09	9.43	-46.7	-63.0	3.6	3.04e+01	0	25	104	0	60	54443
2026-01-09 18:13:58.41	12.98	9.51	-42.9	-54.6	3.6	3.04e+01	0	25	104	0	60	20679
2026-01-09 18:13:59.42	12.87	9.58	-41.8	-53.0	3.5	3.04e+01	0	25	104	0	58	19381
2026-01-09 18:14:00.43	12.76	9.66	-39.8	-50.6	3.5	3.04e+01	0	25	104	0	56	16372
2026-01-09 18:14:01.44	12.65	9.74	-39.8	-50.5	3.5	3.04e+01	0	25	104	0	54	18234
2026-01-09 18:14:02.44	12.54	9.82	-39.8	-50.6	3.5	3.04e+01	0	25	104	0	54	18348
2026-01-09 18:14:03.45	12.43	9.89	-39.6	-50.3	3.5	3.04e+01	0	25	104	0	54	17845
2026-01-09 18:14:04.46	12.32	9.97	-39.2	-49.8	3.5	3.04e+01	0	25	104	0	54	16790
2026-01-09 18:14:05.47	12.20	10.05	-39.5	-50.2	3.5	3.04e+01	0	25	104	0	56	15710
2026-01-09 18:14:06.48	12.09	10.13	-44.5	-57.2	3.6	3.04e+01	0	25	104	0	60	27921
2026-01-09 18:14:07.49	11.98	10.21	-37.6	-48.0	3.5	3.04e+01	0	25	104	0	54	13733
2026-01-09 18:14:08.50	11.86	10.29	-46.5	-62.9	3.5	3.04e+01	0	25	104	0	60	53896
2026-01-09 18:14:09.51	11.74	10.37	-40.9	-51.9	3.5	3.04e+01	0	25	104	0	56	19044
2026-01-09 18:14:10.52	11.63	10.45	-40.1	-50.9	3.5	3.04e+01	0	25	104	0	56	17015
2026-01-09 18:14:11.53	11.51	10.52	-38.4	-48.9	3.5	3.04e+01	0	25	104	0	52	16962
2026-01-09 18:14:12.53	11.39	10.60	-37.9	-48.4	3.5	3.04e+01	0	25	104	0	50	18029
2026-01-09 18:14:13.54	11.27	10.68	-42.3	-53.7	3.6	3.04e+01	0	25	104	0	60	18613
2026-01-09 18:14:14.55	11.15	10.76	-38.8	-49.4	3.5	3.04e+01	0	25	104	0	46	25294
2026-01-09 18:14:15.56	11.03	10.84	-46.5	-61.9	3.5	3.04e+01	0	25	104	0	60	47723
2026-01-09 18:14:16.57	10.91	10.92	-36.0	-46.3	3.4	3.04e+01	0	25	104	0	52	12537
2026-01-09 18:14:17.58	10.79	11.00	-36.2	-46.5	3.4	3.04e+01	0	25	104	0	50	14423
2026-01-09 18:14:18.59	10.67	11.09	-35.2	-45.5	3.5	3.04e+01	0	25	104	0	46	16138
2026-01-09 18:14:19.60	10.54	11.17	-34.7	-45.0	3.5	3.04e+01	0	25	104	0	44	17138
2026-01-09 18:14:20.61	10.42	11.25	-34.6	-44.9	3.6	3.04e+01	0	25	104	0	44	16949
2026-01-09 18:14:21.62	10.29	11.33	-34.1	-44.3	3.5	3.04e+01	0	25	104	0	42	17801
2026-01-09 18:14:22.63	10.17	11.41	-34.9	-45.1	3.5	3.04e+01	0	25	104	0	44	17460
2026-01-09 18:14:23.64	10.04	11.49	-39.7	-50.4	3.5	3.04e+01	0	25	104	0	52	20214
2026-01-09 18:14:24.65	9.91	11.57	-41.3	-52.4	3.5	3.04e+01	0	25	104	0	60	16109
2026-01-09 18:14:25.66	9.79	11.66	-42.1	-53.2	3.5	3.04e+01	0	25	104	0	50	31328
2026-01-09 18:14:26.67	9.66	11.74	-46.7	-62.5	3.5	3.04e+01	0	25	104	0	60	51248
2026-01-09 18:14:27.68	9.53	11.82	-39.4	-50.0	3.5	3.04e+01	0	25	104	0	54	17284
2026-01-09 18:14:28.69	9.40	11.90	-37.9	-48.4	3.5	3.04e+01	0	25	104	0	52	16056
2026-01-09 18:14:29.70	9.27	11.98	-37.2	-47.7	3.5	3.04e+01	0	25	104	0	50	16570
2026-01-09 18:14:30.70	9.14	12.07	-46.7	-62.5	3.5	3.04e+01	0	25	104	0	60	51243
2026-01-09 18:14:31.71	9.00	12.15	-39.4	-50.1	3.2	3.04e+01	0	25	104	0	58	13759
2026-01-09 18:14:32.73	8.87	12.23	-46.6	-62.2	3.5	3.04e+01	0	25	104	0	58	55417
2026-01-09 18:14:33.73	8.73	12.32	-46.8	-62.9	3.5	3.04e+01	0	25	104	0	60	53526
2026-01-09 18:14:34.74	8.60	12.40	-37.8	-48.3	3.6	3.04e+01	0	25	104	0	52	15797
2026-01-09 18:14:35.75	8.46	12.48	-39.0	-49.6	3.5	3.04e+01	0	25	104	0	54	16400
2026-01-09 18:14:36.76	8.33	12.57	-38.3	-48.8	3.5	3.04e+01	0	25	104	0	52	16763
2026-01-09 18:14:37.77	8.19	12.65	-37.5	-47.9	3.6	3.04e+01	0	25	104	0	50	16902
2026-01-09 18:14:38.77	8.05	12.73	-37.6	-48.0	3.5	3.04e+01	0	25	104	0	50	17092
2026-01-09 18:14:39.79	7.91	12.82	-34.1	-44.3	3.5	3.04e+01	0	25	104	0	44	15832
2026-01-09 18:14:40.79	7.77	12.90	-39.0	-49.6	3.5	3.04e+01	0	25	104	0	48	23154
2026-01-09 18:14:41.80	7.63	12.99	-43.1	-54.7	3.5	3.04e+01	0	25	104	0	54	29546
2026-01-09 18:14:42.81	7.49	13.07	-39.7	-50.4	3.6	3.04e+01	0	25	104	0	54	18086
2026-01-09 18:14:43.82	7.34	13.16	-47.1	-64.4	3.6	3.04e+01	0	25	104	0	60	63955
2026-01-09 18:14:44.83	7.20	13.24	-39.4	-50.0	3.5	3.04e+01	0	25	104	0	60	12142
2026-01-09 18:14:45.84	7.05	13.33	-36.7	-47.0	3.5	3.04e+01	0	25	104	0	48	17287
2026-01-09 18:14:46.85	6.91	13.41	-37.3	-47.7	3.5	3.04e+01	0	25	104	0	48	18613
2026-01-09 18:14:47.86	6.76	13.50	-37.2	-47.6	3.5	3.04e+01	0	25	104	0	48	18446
2026-01-09 18:14:48.87	6.61	13.58	-47.1	-64.4	3.5	3.04e+01	0	25	104	0	60	63763
2026-01-09 18:14:49.88	6.46	13.67	-36.9	-47.4	3.6	3.04e+01	0	25	104	0	50	15951
2026-01-09 18:14:50.89	6.31	13.76	-47.0	-63.9	3.5	3.04e+01	0	25	104	0	60	60006
2026-01-09 18:14:51.90	6.16	13.84	-46.6	-61.9	3.5	3.04e+01	0	25	104	0	60	47969
2026-01-09 18:14:52.91	6.01	13.93	-40.4	-51.2	3.5	3.04e+01	0	25	104	0	50	24847
2026-01-09 18:14:53.91	5.86	14.01	-38.3	-48.8	3.5	3.04e+01	0	25	104	0	52	16726
2026-01-09 18:14:54.92	5.71	14.10	-38.6	-49.1	3.5	3.04e+01	0	25	104	0	52	17336
2026-01-09 18:14:55.93	5.55	14.19	-39.3	-49.8	3.5	3.04e+01	0	25	104	0	52	18881
2026-01-09 18:14:56.94	5.40	14.27	-39.0	-49.5	3.5	3.04e+01	0	25	104	0	52	18284
2026-01-09 18:14:57.95	5.24	14.36	-35.2	-45.4	3.5	3.04e+01	0	25	104	0	46	16099
2026-01-09 18:14:58.96	5.08	14.45	-41.8	-53.0	3.6	3.04e+01	0	25	104	0	54	24381
2026-01-09 18:14:59.97	4.92	14.53	-45.7	-59.4	3.5	3.04e+01	0	25	104	0	60	35846
2026-01-09 18:15:00.98	4.76	14.62	-38.8	-49.4	3.5	3.04e+01	0	25	104	0	52	18022
2026-01-09 18:15:01.99	4.60	14.71	-46.8	-62.8	3.5	3.04e+01	0	25	104	0	60	52865
2026-01-09 18:15:03.00	4.44	14.80	-40.0	-50.6	3.5	3.04e+01	0	25	104	0	56	16404
2026-01-09 18:15:04.01	4.28	14.89	-38.3	-48.7	3.5	3.04e+01	0	25	104	0	52	16671
2026-01-09 18:15:05.01	4.12	14.97	-37.4	-47.8	3.5	3.04e+01	0	25	104	0	50	16716
2026-01-09 18:15:06.02	3.95	15.06	-36.1	-46.4	3.5	3.04e+01	0	25	104	0	48	15979
2026-01-09 18:15:07.03	3.79	15.15	-43.8	-55.7	3.5	3.04e+01	0	25	104	0	60	23593
2026-01-09 18:15:08.04	3.62	15.24	-36.6	-46.9	3.5	3.04e+01	0	25	104	0	50	15193
2026-01-09 18:15:09.05	3.45	15.33	-46.8	-62.5	3.5	3.04e+01	0	25	104	0	60	51594
2026-01-09 18:15:10.06	3.28	15.41	-44.6	-57.1	3.5	3.04e+01	0	25	104	0	60	27660
2026-01-09 18:15:11.07	3.11	15.50	-38.7	-49.3	3.5	3.04e+01	0	25	104	0	50	20022
2026-01-09 18:15:12.08	2.94	15.59	-34.9	-45.2	3.5	3.04e+01	0	25	104	0	44	17582
2026-01-09 18:15:13.09	2.77	15.68	-34.4	-44.6	3.5	3.04e+01	0	25	104	0	44	16440
2026-01-09 18:15:14.10	2.59	15.77	-34.2	-44.4	3.5	3.04e+01	0	25	104	0	44	16065
2026-01-09 18:15:15.11	2.42	15.86	-33.9	-44.1	3.5	3.04e+01	0	25	104	0	44	15496
2026-01-09 18:15:16.12	2.24	15.95	-37.2	-47.6	3.5	3.04e+01	0	25	104	0	48	18349
2026-01-09 18:15:17.13	2.07	16.04	-36.2	-46.5	3.5	3.04e+01	0	25	104	0	46	18108
2026-01-09 18:15:18.14	1.89	16.13	-46.9	-62.8	3.5	3.04e+01	0	25	104	0	60	52892
2026-01-09 18:15:19.15	1.71	16.21	-45.0	-57.9	3.5	3.04e+01	0	25	104	0	60	30373
2026-01-09 18:15:20.16	1.53	16.30	-43.4	-55.3	3.5	3.04e+01	0	25	104	0	58	25036
2026-01-09 18:15:21.16	1.35	16.39	-38.6	-49.1	3.5	3.04e+01	0	25	104	0	52	17475
2026-01-09 18:15:22.17	1.17	16.48	-37.6	-47.9	3.5	3.04e+01	0	25	104	0	50	17018
2026-01-09 18:15:23.18	0.98	16.57	-37.0	-47.3	3.5	3.04e+01	0	25	104	0	50	15823
2026-01-09 18:15:24.19	0.80	16.66	-37.3	-47.7	3.5	3.04e+01	0	25	104	0	48	18582
2026-01-09 18:15:25.19	0.61	16.75	-42.5	-53.7	3.5	3.04e+01	0	25	104	0	58	20882
2026-01-09 18:15:26.20	0.42	16.84	-43.1	-54.8	3.5	3.04e+01	0	25	104	0	60	21196
2026-01-09 18:15:27.21	0.24	16.93	-44.0	-56.1	3.5	3.04e+01	0	25	104	0	60	24666
2026-01-09 18:15:28.22	0.05	17.02	-36.3	-46.7	3.4	3.04e+01	0	25	104	0	50	14746
2026-01-09 18:15:29.23	359.85	17.11	-47.1	-63.7	3.5	3.04e+01	0	25	104	0	60	58594
2026-01-09 18:15:30.24	359.66	17.20	-37.6	-48.1	3.5	3.04e+01	0	25	104	0	50	17292
2026-01-09 18:15:31.24	359.47	17.29	-36.8	-47.1	3.5	3.04e+01	0	25	104	0	48	17480
2026-01-09 18:15:32.26	359.27	17.38	-35.4	-45.7	3.6	3.04e+01	0	25	104	0	46	16523
2026-01-09 18:15:33.27	359.08	17.47	-35.4	-45.6	3.5	3.04e+01	0	25	104	0	46	16489
2026-01-09 18:15:34.28	358.88	17.56	-44.5	-57.1	3.5	3.04e+01	0	25	104	0	60	27509
2026-01-09 18:15:35.29	358.68	17.65	-34.5	-44.7	3.5	3.04e+01	0	25	104	0	46	14756
2026-01-09 18:15:36.29	358.48	17.74	-47.1	-63.7	3.5	3.04e+01	0	25	104	0	60	58880
2026-01-09 18:15:37.30	358.28	17.83	-40.5	-51.4	3.5	3.04e+01	0	25	104	0	60	14275
2026-01-09 18:15:38.31	358.08	17.92	-40.0	-50.9	3.5	3.04e+01	0	25	104	0	54	19097
2026-01-09 18:15:39.32	357.87	18.01	-35.3	-45.6	3.5	3.04e+01	0	25	104	0	46	16393
2026-01-09 18:15:40.33	357.67	18.10	-35.2	-45.6	3.5	3.04e+01	0	25	104	0	44	18351
2026-01-09 18:15:41.34	357.46	18.19	-34.8	-45.0	3.5	3.04e+01	0	25	104	0	44	17226
2026-01-09 18:15:42.35	357.25	18.29	-34.2	-44.4	3.5	3.04e+01	0	25	104	0	44	16116
2026-01-09 18:15:43.35	357.05	18.37	-34.6	-44.8	3.5	3.04e+01	0	25	104	0	44	16731
2026-01-09 18:15:44.36	356.84	18.46	-33.9	-44.1	3.5	3.04e+01	0	25	104	0	44	15470
2026-01-09 18:15:45.37	356.62	18.56	-47.1	-64.1	3.5	3.04e+01	0	25	104	0	60	61736
2026-01-09 18:15:46.38	356.41	18.65	-40.9	-51.9	3.6	3.04e+01	0	25	104	0	60	15061
2026-01-09 18:15:47.39	356.20	18.74	-44.0	-56.3	3.5	3.04e+01	0	25	104	0	60	25236
2026-01-09 18:15:48.40	355.98	18.83	-39.1	-49.7	3.5	3.04e+01	0	25	104	0	52	18600
2026-01-09 18:15:49.41	355.76	18.92	-40.0	-50.7	3.5	3.04e+01	0	25	104	0	52	20829
2026-01-09 18:15:50.42	355.54	19.01	-39.5	-50.2	3.5	3.04e+01	0	25	104	0	54	17515
2026-01-09 18:15:51.43	355.32	19.10	-38.3	-48.8	3.5	3.04e+01	0	25	104	0	54	14999
2026-01-09 18:15:52.44	355.10	19.19	-36.3	-46.6	3.5	3.04e+01	0	25	104	0	46	18317
2026-01-09 18:15:53.45	354.88	19.28	-39.8	-50.5	3.3	3.04e+01	0	25	104	0	60	12917
2026-01-09 18:15:54.46	354.66	19.37	-41.1	-52.1	3.5	3.04e+01	0	25	104	0	60	15453
2026-01-09 18:15:55.46	354.43	19.46	-36.8	-47.2	3.5	3.04e+01	0	25	104	0	48	17609
2026-01-09 18:15:56.47	354.20	19.54	-47.4	-64.8	3.5	3.04e+01	0	25	104	0	60	66560
2026-01-09 18:15:57.49	353.97	19.64	-38.6	-49.1	3.5	3.04e+01	0	25	104	0	52	17413
2026-01-09 18:15:58.49	353.75	19.72	-38.6	-49.1	3.5	3.04e+01	0	25	104	0	52	17350
2026-01-09 18:15:59.50	353.51	19.81	-38.0	-48.5	3.5	3.04e+01	0	25	104	0	52	16177
2026-01-09 18:16:00.51	353.28	19.90	-37.7	-48.1	3.5	3.04e+01	0	25	104	0	50	17424
2026-01-09 18:16:01.52	353.05	19.99	-41.2	-52.2	3.5	3.04e+01	0	25	104	0	58	17512
2026-01-09 18:16:02.53	352.81	20.08	-37.6	-48.0	3.6	3.04e+01	0	25	104	0	54	13602
2026-01-09 18:16:03.54	352.57	20.17	-39.2	-49.8	3.6	3.04e+01	0	25	104	0	60	11957
2026-01-09 18:16:04.55	352.33	20.26	-37.4	-47.7	3.5	3.04e+01	0	25	104	0	44	23520
2026-01-09 18:16:05.56	352.09	20.35	-44.1	-56.2	3.6	3.04e+01	0	25	104	0	60	24869
2026-01-09 18:16:06.57	351.85	20.43	-34.2	-44.4	3.5	3.04e+01	0	25	104	0	44	16068
2026-01-09 18:16:07.58	351.61	20.52	-34.0	-44.2	3.5	3.04e+01	0	25	104	0	44	15666
2026-01-09 18:16:08.59	351.36	20.61	-34.2	-44.3	3.5	3.04e+01	0	25	104	0	44	15945
2026-01-09 18:16:09.59	351.12	20.70	-36.6	-46.9	3.4	3.04e+01	0	25	104	0	44	21421
2026-01-09 18:16:10.60	350.87	20.79	-40.8	-51.7	3.5	3.04e+01	0	25	104	0	60	14764
2026-01-09 18:16:11.61	350.62	20.87	-37.3	-47.7	3.5	3.04e+01	0	25	104	0	42	26269
2026-01-09 18:16:12.62	350.37	20.96	-45.0	-57.7	3.5	3.04e+01	0	25	104	0	60	29500
2026-01-09 18:16:13.63	350.12	21.05	-36.1	-46.3	3.5	3.04e+01	0	25	104	0	46	17876
2026-01-09 18:16:14.64	349.87	21.13	-41.7	-52.8	3.5	3.04e+01	0	25	104	0	60	16833
2026-01-09 18:16:15.65	349.61	21.22	-38.3	-48.8	3.5	3.04e+01	0	25	104	0	52	16787
2026-01-09 18:16:16.66	349.36	21.31	-36.8	-47.2	3.5	3.04e+01	0	25	104	0	48	17672
2026-01-09 18:16:17.67	349.10	21.39	-36.1	-46.4	3.6	3.04e+01	0	25	104	0	48	16055
2026-01-09 18:16:18.68	348.84	21.48	-34.0	-44.2	3.5	3.04e+01	0	25	104	0	42	17593
2026-01-09 18:16:19.69	348.58	21.56	-36.5	-46.8	3.5	3.04e+01	0	25	104	0	42	23697
2026-01-09 18:16:20.70	348.31	21.65	-36.6	-46.9	3.5	3.04e+01	0	25	104	0	48	17022
2026-01-09 18:16:21.71	348.05	21.73	-39.4	-50.1	3.5	3.04e+01	0	25	104	0	54	17415
2026-01-09 18:16:22.71	347.78	21.82	-45.4	-58.5	3.7	3.04e+01	0	25	104	0	56	40588
2026-01-09 18:16:23.73	347.51	21.90	-41.7	-52.8	3.6	3.04e+01	0	25	104	0	60	16708
2026-01-09 18:16:24.73	347.25	21.98	-37.4	-47.8	3.5	3.04e+01	0	25	104	0	50	16783
2026-01-09 18:16:25.74	346.98	22.07	-37.8	-48.3	3.5	3.04e+01	0	25	104	0	50	17794
2026-01-09 18:16:26.75	346.71	22.15	-37.4	-47.7	3.5	3.04e+01	0	25	104	0	50	16698
2026-01-09 18:16:27.76	346.43	22.23	-44.0	-56.0	3.5	3.04e+01	0	25	104	0	56	30436
2026-01-09 18:16:28.77	346.16	22.31	-44.0	-56.0	3.5	3.04e+01	0	25	104	0	60	24346
2026-01-09 18:16:29.78	345.88	22.40	-39.0	-49.5	3.5	3.04e+01	0	25	104	0	48	22999
2026-01-09 18:16:30.79	345.60	22.48	-35.7	-46.0	3.5	3.04e+01	0	25	104	0	46	17108
2026-01-09 18:16:31.80	345.32	22.56	-46.4	-60.6	3.5	3.04e+01	0	25	104	0	58	46268
2026-01-09 18:16:32.81	345.04	22.64	-39.5	-50.1	3.5	3.04e+01	0	25	104	0	60	12309
2026-01-09 18:16:33.82	344.76	22.72	-35.6	-45.8	3.5	3.04e+01	0	25	104	0	46	16745
2026-01-09 18:16:34.83	344.47	22.80	-34.6	-44.8	3.5	3.04e+01	0	25	104	0	44	16776
2026-01-09 18:16:35.83	344.19	22.88	-34.3	-44.5	3.6	3.04e+01	0	25	104	0	44	16259
2026-01-09 18:16:36.84	343.90	22.96	-37.1	-47.4	3.5	3.04e+01	0	25	104	0	44	22655
2026-01-09 18:16:37.85	343.61	23.03	-37.9	-48.3	3.5	3.04e+01	0	25	104	0	50	17804
2026-01-09 18:16:38.86	343.32	23.11	-46.2	-60.2	3.5	3.04e+01	0	25	104	0	58	44375
2026-01-09 18:16:39.87	343.03	23.19	-43.1	-54.7	3.5	3.04e+01	0	25	104	0	60	20837
2026-01-09 18:16:40.88	342.74	23.27	-39.2	-49.8	3.5	3.04e+01	0	25	104	0	48	23690
2026-01-09 18:16:41.89	342.44	23.34	-39.3	-49.8	3.5	3.04e+01	0	25	104	0	54	16851
2026-01-09 18:16:42.90	342.14	23.42	-37.9	-48.3	3.5	3.04e+01	0	25	104	0	52	15902
2026-01-09 18:16:43.91	341.85	23.49	-37.3	-47.6	3.5	3.04e+01	0	25	104	0	48	18455
2026-01-09 18:16:44.92	341.55	23.57	-36.9	-47.3	3.5	3.04e+01	0	25	104	0	48	17857
2026-01-09 18:16:45.93	341.25	23.64	-34.3	-44.5	3.5	3.04e+01	0	25	104	0	44	16232
2026-01-09 18:16:46.94	340.94	23.71	-43.7	-55.6	3.5	3.04e+01	0	25	104	0	58	26078
2026-01-09 18:16:47.95	340.64	23.79	-41.9	-53.0	3.5	3.04e+01	0	25	104	0	54	24403
2026-01-09 18:16:48.96	340.33	23.86	-40.8	-51.8	3.5	3.04e+01	0	25	104	0	54	21100
2026-01-09 18:16:49.97	340.03	23.93	-46.9	-62.1	3.5	3.04e+01	0	25	104	0	60	49204
2026-01-09 18:16:50.98	339.72	24.00	-38.2	-48.7	3.5	3.04e+01	0	25	104	0	52	16623
2026-01-09 18:16:51.99	339.41	24.07	-37.4	-47.8	3.5	3.04e+01	0	25	104	0	48	18772
2026-01-09 18:16:53.00	339.10	24.14	-36.9	-47.2	3.6	3.04e+01	0	25	104	0	48	17580
2026-01-09 18:16:54.01	338.78	24.21	-36.1	-46.4	3.5	3.04e+01	0	25	104	0	48	15989
2026-01-09 18:16:55.02	338.47	24.28	-47.2	-63.4	3.5	3.04e+01	0	25	104	0	60	56937
2026-01-09 18:16:56.03	338.15	24.34	-43.8	-55.6	3.5	3.04e+01	0	25	104	0	60	23184
2026-01-09 18:16:57.04	337.83	24.41	-43.4	-55.0	3.5	3.04e+01	0	25	104	0	56	27335
2026-01-09 18:16:58.05	337.52	24.47	-38.4	-48.9	3.5	3.04e+01	0	25	104	0	48	21319
2026-01-09 18:16:59.06	337.20	24.54	-47.5	-64.4	3.5	3.04e+01	0	25	104	0	60	64142
2026-01-09 18:17:00.07	336.87	24.60	-36.5	-46.8	3.5	3.04e+01	0	25	104	0	48	16725
2026-01-09 18:17:01.07	336.55	24.67	-35.5	-45.8	3.5	3.04e+01	0	25	104	0	46	16798
2026-01-09 18:17:02.08	336.23	24.73	-34.6	-44.8	3.5	3.04e+01	0	25	104	0	44	16790
2026-01-09 18:17:03.09	335.90	24.79	-34.0	-44.1	3.5	3.04e+01	0	25	104	0	44	15477
2026-01-09 18:17:04.10	335.58	24.85	-43.3	-54.9	3.6	3.04e+01	0	25	104	0	60	21362
2026-01-09 18:17:05.11	335.25	24.91	-38.4	-48.9	3.5	3.04e+01	0	25	104	0	50	19038
2026-01-09 18:17:06.12	334.92	24.97	-47.3	-63.9	3.5	3.04e+01	0	25	104	0	60	60137
2026-01-09 18:17:07.13	334.59	25.03	-45.1	-58.0	3.5	3.04e+01	0	25	104	0	60	30554
2026-01-09 18:17:08.14	334.26	25.09	-47.3	-64.0	3.5	3.04e+01	0	25	104	0	60	61117
2026-01-09 18:17:09.15	333.92	25.14	-43.2	-54.8	3.5	3.04e+01	0	25	104	0	60	21265
2026-01-09 18:17:10.15	333.59	25.20	-43.6	-55.3	3.5	3.04e+01	0	25	104	0	60	22503
2026-01-09 18:17:11.16	333.26	25.25	-43.9	-55.8	3.5	3.04e+01	0	25	104	0	60	23693
2026-01-09 18:17:12.17	332.92	25.31	-42.6	-53.8	3.5	3.04e+01	0	25	104	0	60	18924
2026-01-09 18:17:13.18	332.58	25.36	-42.2	-53.5	3.5	3.04e+01	0	25	104	0	58	20335
2026-01-09 18:17:14.19	332.24	25.41	-47.2	-63.7	3.5	3.04e+01	0	25	104	0	60	58953
2026-01-09 18:17:15.20	331.90	25.46	-38.0	-48.4	3.5	3.04e+01	0	25	104	0	50	17976
2026-01-09 18:17:16.21	331.56	25.51	-41.1	-52.1	3.3	3.04e+01	0	25	104	0	60	15433
2026-01-09 18:17:17.22	331.22	25.56	-44.7	-57.1	3.5	3.04e+01	0	25	104	0	60	27552
2026-01-09 18:17:18.23	330.87	25.61	-36.4	-46.7	3.5	3.04e+01	0	25	104	0	48	16664
2026-01-09 18:17:19.24	330.53	25.66	-35.1	-45.3	3.5	3.04e+01	0	25	104	0	46	15900
2026-01-09 18:17:20.25	330.18	25.70	-35.0	-45.2	3.5	3.04e+01	0	25	104	0	44	17599
2026-01-09 18:17:21.26	329.83	25.75	-34.7	-45.0	3.5	3.04e+01	0	25	104	0	44	17118
2026-01-09 18:17:22.27	329.48	25.79	-35.6	-45.9	3.5	3.04e+01	0	25	104	0	46	17083
2026-01-09 18:17:23.28	329.13	25.84	-36.4	-46.7	3.5	3.04e+01	0	25	104	0	50	14764
2026-01-09 18:17:24.29	328.78	25.88	-47.2	-63.5	3.5	3.04e+01	0	25	104	0	60	57343
2026-01-09 18:17:25.29	328.44	25.92	-39.3	-49.9	3.5	3.04e+01	0	25	104	0	56	15135
2026-01-09 18:17:26.30	328.08	25.96	-45.1	-57.9	3.5	3.04e+01	0	25	104	0	60	30269
2026-01-09 18:17:27.31	327.73	26.00	-35.9	-46.2	3.5	3.04e+01	0	25	104	0	46	17622
2026-01-09 18:17:28.32	327.38	26.04	-35.6	-45.8	3.5	3.04e+01	0	25	104	0	46	16787
2026-01-09 18:17:29.33	327.02	26.07	-35.0	-45.2	3.5	3.04e+01	0	25	104	0	46	15674
2026-01-09 18:17:30.34	326.67	26.11	-35.1	-45.3	3.5	3.04e+01	0	25	104	0	44	17745
2026-01-09 18:17:31.35	326.31	26.14	-44.2	-56.2	3.5	3.04e+01	0	25	104	0	60	24988
2026-01-09 18:17:32.36	325.95	26.17	-37.2	-47.5	3.6	3.04e+01	0	26	104	0	52	14518
2026-01-09 18:17:33.37	325.59	26.21	-44.6	-56.9	3.5	3.04e+01	0	25	104	0	60	27071
2026-01-09 18:17:34.38	325.23	26.24	-37.1	-47.4	3.6	3.04e+01	0	25	104	0	52	14303
2026-01-09 18:17:35.39	324.88	26.27	-47.5	-64.5	3.5	3.04e+01	0	25	104	0	60	64617
2026-01-09 18:17:36.40	324.51	26.30	-39.9	-50.6	3.5	3.04e+01	0	25	104	0	56	16330
2026-01-09 18:17:37.41	324.15	26.32	-39.9	-50.4	3.5	3.04e+01	0	25	104	0	54	18085
2026-01-09 18:17:38.41	323.80	26.35	-40.1	-50.9	3.5	3.04e+01	0	25	104	0	54	18986
2026-01-09 18:17:39.42	323.43	26.37	-39.4	-50.0	3.5	3.04e+01	0	25	104	0	54	17212
2026-01-09 18:17:40.43	323.07	26.40	-43.1	-54.4	3.6	3.04e+01	0	25	104	0	60	20139
2026-01-09 18:17:41.44	322.71	26.42	-43.4	-55.1	3.5	3.04e+01	0	25	104	0	60	21963
2026-01-09 18:17:42.45	322.34	26.44	-37.9	-48.2	3.6	3.04e+01	0	25	104	0	52	15744
2026-01-09 18:17:43.46	321.98	26.46	-36.7	-38.4	5.2	3.04e+01	0	25	104	0	52	5049
2026-01-09 18:17:44.47	321.61	26.48	-43.2	-46.1	21.1	3.04e+01	0	25	0	0	60	7739
2026-01-09 18:17:45.48	321.25	26.50	-36.5	-37.8	26.9	3.04e+01	0	25	0	2097152	48	5987
2026-01-09 18:17:46.49	320.88	26.51	-35.5	-36.8	27.9	3.04e+01	0	25	0	3670016	46	5964
2026-01-09 18:17:47.50	320.52	26.53	-34.4	-35.7	28.8	3.04e+01	0	25	0	5767168	44	5878
2026-01-09 18:17:48.51	320.15	26.54	-33.6	-34.7	29.6	3.04e+01	0	25	0	7340032	42	5924
2026-01-09 18:17:49.52	319.78	26.56	-33.5	-34.7	29.7	3.04e+01	0	25	0	9437184	42	5884
2026-01-09 18:17:50.53	319.42	26.57	-33.8	-35.0	29.4	3.04e+01	0	25	0	11534336	42	6133
2026-01-09 18:17:51.53	319.05	26.58	-34.0	-35.2	29.3	3.04e+01	0	25	0	13107200	42	6224
2026-01-09 18:17:52.54	318.68	26.59	-33.6	-34.8	29.6	3.04e+01	0	25	0	15204352	42	5933
2026-01-09 18:17:53.55	318.32	26.60	-34.1	-35.3	29.1	3.04e+01	0	25	0	17301504	42	6333
2026-01-09 18:17:54.56	317.95	26.60	-33.9	-35.1	29.4	3.04e+01	0	25	0	18874368	42	6192
2026-01-09 18:17:55.57	317.58	26.61	-33.7	-34.9	29.5	3.04e+01	0	25	0	20971520	42	6029
2026-01-09 18:17:56.58	317.21	26.61	-33.7	-34.9	29.5	3.04e+01	0	25	0	22544384	42	6009
2026-01-09 18:17:57.59	316.84	26.61	-33.7	-34.9	29.5	3.04e+01	0	25	0	24641536	42	6024
2026-01-09 18:17:58.60	316.47	26.62	-33.5	-34.7	29.7	3.04e+01	0	25	0	26738688	42	5860
2026-01-09 18:17:59.61	316.11	26.62	-33.7	-34.9	29.5	3.04e+01	0	25	0	28311552	42	6045
2026-01-09 18:18:00.62	315.74	26.61	-34.0	-35.2	29.2	3.04e+01	0	25	0	30408704	42	6264
2026-01-09 18:18:01.63	315.37	26.61	-33.8	-35.0	29.4	3.04e+01	0	25	0	31981568	42	6120
2026-01-09 18:18:02.63	315.00	26.61	-34.5	-35.8	28.8	3.04e+01	0	25	0	34078720	42	6660
2026-01-09 18:18:03.64	314.64	26.60	-33.7	-34.9	29.4	3.04e+01	0	25	0	35651584	42	6048
2026-01-09 18:18:04.65	314.27	26.60	-33.3	-34.5	29.8	3.04e+01	0	25	0	37748736	42	5770
2026-01-09 18:18:05.66	313.90	26.59	-33.9	-35.1	29.3	3.04e+01	0	25	0	39845888	42	6161
2026-01-09 18:18:06.67	313.53	26.58	-34.3	-35.5	28.9	3.04e+01	0	25	0	41418752	42	6484
2026-01-09 18:18:07.68	313.16	26.57	-33.9	-35.1	29.3	3.04e+01	0	25	0	43515904	42	6151
2026-01-09 18:18:08.69	312.80	26.56	-33.6	-34.8	29.6	3.04e+01	0	25	0	45613056	42	5941
2026-01-09 18:18:09.70	312.43	26.55	-33.8	-35.0	29.4	3.04e+01	0	25	0	47185920	42	6091
2026-01-09 18:18:10.70	312.07	26.53	-33.9	-35.1	29.4	3.04e+01	0	25	0	49283072	42	6164
2026-01-09 18:18:11.71	311.70	26.52	-33.1	-34.3	29.9	3.04e+01	0	25	0	50855936	42	5624
2026-01-09 18:18:12.72	311.33	26.50	-33.7	-35.0	29.4	3.04e+01	0	25	0	52953088	42	6067
2026-01-09 18:18:13.73	310.97	26.49	-33.9	-35.1	29.2	3.04e+01	0	25	0	55050240	42	6173
2026-01-09 18:18:14.74	310.60	26.47	-33.4	-34.5	29.8	3.04e+01	0	25	0	56623104	42	5783
2026-01-09 18:18:15.75	310.24	26.45	-33.8	-35.0	29.3	3.04e+01	0	25	0	58720256	42	6077
2026-01-09 18:18:16.76	309.87	26.43	-34.5	-35.8	28.7	3.04e+01	0	25	0	60293120	42	6679
2026-01-09 18:18:17.77	309.51	26.40	-33.6	-34.8	29.3	3.04e+01	0	25	0	62390272	42	5949
2026-01-09 18:18:18.77	309.15	26.38	-33.4	-34.5	29.7	3.04e+01	0	25	0	64487424	42	5791
2026-01-09 18:18:19.78	308.79	26.36	-34.6	-35.9	28.4	3.04e+01	0	25	0	66060288	44	6035
2026-01-09 18:18:20.79	308.43	26.33	-34.3	-35.6	28.9	3.04e+01	0	25	0	68157440	42	6508
2026-01-09 18:18:21.80	308.06	26.30	-33.8	-34.9	29.3	3.04e+01	0	25	0	70254592	42	6061
2026-01-09 18:18:22.81	307.70	26.27	-34.2	-35.5	28.8	3.04e+01	0	25	0	71827456	44	5751
2026-01-09 18:18:23.82	307.34	26.25	-34.7	-36.0	28.4	3.04e+01	0	25	0	73924608	42	6879
2026-01-09 18:18:24.83	306.98	26.22	-33.9	-35.0	28.8	3.04e+01	0	25	0	75497472	42	6128
2026-01-09 18:18:25.84	306.62	26.18	-33.2	-34.3	29.8	3.04e+01	0	25	0	77594624	42	5647
2026-01-09 18:18:26.85	306.27	26.15	-34.4	-35.7	28.4	3.04e+01	0	25	0	79167488	42	6618
2026-01-09 18:18:27.85	305.91	26.12	-34.4	-35.7	28.8	3.04e+01	0	25	0	81264640	42	6584
2026-01-09 18:18:28.87	305.55	26.08	-34.0	-35.3	29.1	3.04e+01	0	25	0	83361792	42	6311
2026-01-09 18:18:29.87	305.20	26.05	-34.6	-36.0	28.4	3.04e+01	0	25	0	84934656	42	6808
2026-01-09 18:18:30.88	304.85	26.01	-33.7	-34.8	28.6	3.04e+01	0	25	0	87031808	42	5981
2026-01-09 18:18:31.89	304.49	25.97	-33.1	-34.2	30.0	3.04e+01	0	25	0	88604672	42	5552
2026-01-09 18:18:32.90	304.14	25.93	-34.1	-35.3	28.8	3.04e+01	0	25	0	90701824	42	6316
2026-01-09 18:18:33.91	303.79	25.89	-34.5	-35.7	28.8	3.04e+01	0	25	0	92798976	42	6638
2026-01-09 18:18:34.92	303.44	25.85	-34.1	-35.3	28.9	3.04e+01	0	25	0	94371840	42	6349
2026-01-09 18:18:35.93	303.09	25.80	-34.9	-36.2	28.3	3.04e+01	0	25	0	96468992	42	7009
2026-01-09 18:18:36.93	302.74	25.76	-33.8	-35.0	29.1	3.04e+01	0	25	0	98566144	42	6104
2026-01-09 18:18:37.94	302.39	25.72	-34.3	-35.6	28.9	3.04e+01	0	25	0	100139008	42	6519
2026-01-09 18:18:38.95	302.05	25.67	-34.9	-36.2	28.3	3.04e+01	0	25	0	102236160	44	6263
2026-01-09 18:18:39.96	301.70	25.62	-34.8	-36.1	28.4	3.04e+01	0	25	0	103809024	44	6148
2026-01-09 18:18:40.97	301.35	25.58	-35.4	-36.8	27.7	3.04e+01	0	25	0	105906176	44	6664
2026-01-09 18:18:41.98	301.01	25.53	-34.2	-35.4	28.7	3.04e+01	0	25	0	108003328	44	5704
2026-01-09 18:18:42.99	300.67	25.48	-34.4	-35.6	28.7	3.04e+01	0	25	0	109576192	44	5842
2026-01-09 18:18:44.00	300.33	25.43	-34.4	-35.7	28.8	3.04e+01	0	25	0	111673344	44	5869
2026-01-09 18:18:45.01	299.99	25.37	-33.7	-34.9	29.5	3.04e+01	0	25	0	113770496	42	6032
2026-01-09 18:18:46.02	299.65	25.32	-34.2	-35.5	28.9	3.04e+01	0	25	0	115343360	42	6452
2026-01-09 18:18:47.03	299.31	25.27	-34.2	-35.4	29.1	3.04e+01	0	25	0	117440512	42	6386
2026-01-09 18:18:48.04	298.97	25.21	-34.2	-35.5	28.9	3.04e+01	0	25	0	119013376	42	6443
2026-01-09 18:18:49.05	298.64	25.16	-34.1	-35.4	29.2	3.04e+01	0	25	0	121110528	42	6353
2026-01-09 18:18:50.06	298.30	25.10	-34.3	-35.5	28.8	3.04e+01	0	25	0	123207680	42	6490
2026-01-09 18:18:51.07	297.97	25.04	-34.8	-36.1	28.4	3.04e+01	0	25	0	124780544	42	6933
2026-01-09 18:18:52.07	297.64	24.99	-33.7	-34.9	29.5	3.04e+01	0	25	0	126877696	42	6032
2026-01-09 18:18:53.08	297.31	24.93	-34.4	-35.7	28.6	3.04e+01	0	25	0	128450560	42	6617
2026-01-09 18:18:54.09	296.98	24.87	-34.4	-35.6	28.7	3.04e+01	0	25	0	130547712	42	6554
2026-01-09 18:18:55.09	296.66	24.81	-34.5	-35.8	28.7	3.04e+01	0	25	0	132120576	44	5949
2026-01-09 18:18:56.10	296.33	24.74	-35.0	-36.3	28.1	3.04e+01	0	25	0	134217728	44	6342
2026-01-09 18:18:57.11	296.00	24.68	-34.3	-35.5	28.7	3.04e+01	0	25	0	136314880	44	5729
2026-01-09 18:18:58.12	295.68	24.62	-34.7	-36.0	28.3	3.04e+01	0	25	0	137887744	44	6102
2026-01-09 18:18:59.13	295.36	24.55	-34.5	-35.8	28.7	3.04e+01	0	25	0	139984896	44	5963
2026-01-09 18:19:00.14	295.04	24.49	-33.9	-35.0	29.3	3.04e+01	0	25	0	142082048	42	6122
2026-01-09 18:19:01.15	294.72	24.42	-35.3	-36.7	27.7	3.04e+01	0	25	0	143654912	44	6589
2026-01-09 18:19:02.16	294.40	24.36	-34.9	-36.1	28.0	3.04e+01	0	25	0	145752064	44	6163
2026-01-09 18:19:03.17	294.08	24.29	-35.4	-36.6	27.3	3.04e+01	0	25	0	147324928	46	5857
2026-01-09 18:19:04.17	293.77	24.22	-35.9	-37.2	26.8	3.04e+01	0	25	0	149422080	44	7014
2026-01-09 18:19:05.18	293.45	24.15	-35.2	-36.5	27.9	3.04e+01	0	25	0	151519232	46	5734
2026-01-09 18:19:06.19	293.14	24.09	-36.2	-37.6	26.8	3.04e+01	0	25	0	153092096	46	6571
2026-01-09 18:19:07.20	292.83	24.02	-35.5	-36.8	27.7	3.04e+01	0	25	0	155189248	46	5942
2026-01-09 18:19:08.21	292.52	23.94	-36.9	-38.3	26.2	3.04e+01	0	25	0	156762112	46	7076
2026-01-09 18:19:09.22	292.21	23.87	-36.9	-38.3	26.3	3.04e+01	0	25	0	158859264	46	7080
2026-01-09 18:19:10.23	291.90	23.80	-38.2	-39.7	25.4	3.04e+01	0	25	0	160956416	50	6630
2026-01-09 18:19:11.24	291.60	23.73	-36.7	-38.1	26.4	3.04e+01	0	25	0	162529280	48	6194
2026-01-09 18:19:12.25	291.30	23.66	-37.2	-38.6	26.2	3.04e+01	0	25	0	164626432	48	6521
2026-01-09 18:19:13.26	290.99	23.58	-37.3	-38.8	25.9	3.04e+01	0	25	0	166723584	48	6656
2026-01-09 18:19:14.27	290.69	23.51	-35.5	-36.7	27.8	3.04e+01	0	25	0	168296448	46	5919
2026-01-09 18:19:15.28	290.39	23.43	-36.2	-37.7	26.9	3.04e+01	0	25	0	170393600	46	6576
2026-01-09 18:19:16.29	290.09	23.36	-35.0	-36.2	28.2	3.04e+01	0	25	0	171966464	46	5562
2026-01-09 18:19:17.29	289.80	23.28	-36.3	-37.7	26.8	3.04e+01	0	25	0	174063616	46	6648
2026-01-09 18:19:18.30	289.51	23.20	-34.4	-35.6	28.8	3.04e+01	0	25	0	176160768	44	5821
2026-01-09 18:19:19.31	289.21	23.13	-35.0	-36.3	28.3	3.04e+01	0	25	0	177733632	44	6281
2026-01-09 18:19:20.32	288.92	23.05	-34.8	-36.0	28.4	3.04e+01	0	25	0	179830784	44	6121
2026-01-09 18:19:21.33	288.63	22.97	-34.9	-36.2	28.3	3.04e+01	0	25	0	181403648	44	6230
2026-01-09 18:19:22.34	288.34	22.89	-34.1	-35.3	29.1	3.04e+01	0	25	0	183500800	44	5653
2026-01-09 18:19:23.35	288.05	22.81	-34.4	-35.6	28.7	3.04e+01	0	25	0	185597952	44	5836
2026-01-09 18:19:24.36	287.77	22.73	-34.2	-35.4	28.7	3.04e+01	0	25	0	187170816	44	5707
2026-01-09 18:19:25.37	287.48	22.65	-34.4	-35.6	28.7	3.04e+01	0	25	0	189267968	44	5802
2026-01-09 18:19:26.37	287.21	22.57	-35.1	-36.4	28.0	3.04e+01	0	25	0	190840832	44	6410
2026-01-09 18:19:27.38	286.92	22.49	-34.6	-35.9	28.5	3.04e+01	0	25	0	192937984	44	6016
2026-01-09 18:19:28.39	286.64	22.41	-33.8	-35.0	29.4	3.04e+01	0	25	0	195035136	42	6101
2026-01-09 18:19:29.40	286.37	22.33	-34.3	-35.5	28.9	3.04e+01	0	25	0	196608000	42	6483
2026-01-09 18:19:30.41	286.09	22.25	-34.4	-35.6	28.6	3.04e+01	0	25	0	198705152	42	6541
2026-01-09 18:19:31.41	285.82	22.17	-34.4	-35.6	28.8	3.04e+01	0	25	0	200278016	42	6564
2026-01-09 18:19:32.42	285.54	22.08	-35.1	-36.4	28.1	3.04e+01	0	25	0	202375168	44	6387
2026-01-09 18:19:33.43	285.27	22.00	-34.5	-35.7	28.5	3.04e+01	0	25	0	204472320	44	5904
2026-01-09 18:19:34.44	285.00	21.91	-33.9	-35.1	29.3	3.04e+01	0	25	0	206045184	42	6196
2026-01-09 18:19:35.45	284.73	21.83	-34.3	-35.6	28.9	3.04e+01	0	25	0	208142336	42	6509
2026-01-09 18:19:36.46	284.47	21.75	-34.4	-35.7	28.7	3.04e+01	0	25	0	209715200	42	6582
2026-01-09 18:19:37.47	284.20	21.66	-34.1	-35.4	29.0	3.04e+01	0	25	0	211812352	42	6351
2026-01-09 18:19:38.47	283.94	21.58	-34.0	-35.3	29.2	3.04e+01	0	25	0	213909504	42	6284
2026-01-09 18:19:39.48	283.68	21.49	-34.1	-35.4	29.1	3.04e+01	0	25	0	215482368	42	6353
2026-01-09 18:19:40.49	283.41	21.41	-34.3	-35.6	28.8	3.04e+01	0	25	0	217579520	42	6503
2026-01-09 18:19:41.50	283.16	21.32	-34.0	-35.2	29.2	3.04e+01	0	25	0	219152384	42	6266
2026-01-09 18:19:42.50	282.90	21.23	-33.9	-35.0	29.3	3.04e+01	0	25	0	221249536	42	6134
2026-01-09 18:19:43.51	282.64	21.15	-34.3	-35.5	28.9	3.04e+01	0	25	0	223346688	42	6497
2026-01-09 18:19:44.52	282.39	21.06	-34.1	-35.3	29.0	3.04e+01	0	25	0	224919552	42	6335
2026-01-09 18:19:45.53	282.13	20.97	-34.0	-35.2	29.3	3.04e+01	0	25	0	227016704	42	6232
2026-01-09 18:19:46.54	281.88	20.89	-33.8	-35.0	29.3	3.04e+01	0	25	0	228589568	42	6111
2026-01-09 18:19:47.55	281.63	20.80	-34.1	-35.4	29.0	3.04e+01	0	25	0	230686720	42	6360
2026-01-09 18:19:48.56	281.38	20.71	-34.1	-35.3	29.1	3.04e+01	0	25	0	232783872	42	6342
2026-01-09 18:19:49.57	281.14	20.62	-33.9	-35.1	29.3	3.04e+01	0	25	0	234356736	42	6164
2026-01-09 18:19:50.57	280.89	20.54	-34.4	-35.7	28.9	3.04e+01	0	25	0	236453888	42	6585
2026-01-09 18:19:51.58	280.65	20.45	-34.5	-35.8	28.7	3.04e+01	0	25	0	238551040	42	6701
2026-01-09 18:19:52.59	280.40	20.36	-33.7	-34.9	29.3	3.04e+01	0	25	0	240123904	42	6028
2026-01-09 18:19:53.60	280.16	20.27	-34.0	-35.2	29.2	3.04e+01	0	25	0	242221056	42	6250
2026-01-09 18:19:54.61	279.92	20.18	-34.1	-35.4	28.9	3.04e+01	0	25	0	243793920	42	6370
2026-01-09 18:19:55.61	279.69	20.09	-34.1	-35.3	28.9	3.04e+01	0	25	0	245891072	42	6341
2026-01-09 18:19:56.62	279.45	20.00	-34.0	-35.2	29.1	3.04e+01	0	25	0	247988224	42	6260
2026-01-09 18:19:57.63	279.21	19.91	-34.0	-35.2	29.1	3.04e+01	0	25	0	249561088	42	6267
2026-01-09 18:19:58.64	278.98	19.83	-34.0	-35.2	29.1	3.04e+01	0	25	0	251658240	42	6235
2026-01-09 18:19:59.65	278.75	19.74	-33.9	-35.1	29.2	3.04e+01	0	25	0	253231104	42	6199
2026-01-09 18:20:00.66	278.51	19.65	-34.0	-35.2	29.1	3.04e+01	0	25	0	255328256	42	6260
2026-01-09 18:20:01.66	278.29	19.56	-34.1	-35.3	29.0	3.04e+01	0	25	0	257425408	42	6299
2026-01-09 18:20:02.67	278.06	19.47	-34.3	-35.5	28.9	3.04e+01	0	25	0	258998272	42	6465
2026-01-09 18:20:03.68	277.83	19.38	-34.2	-35.4	28.9	3.04e+01	0	25	0	261095424	42	6366
2026-01-09 18:20:04.69	277.61	19.29	-34.1	-35.3	29.1	3.04e+01	0	25	0	262668288	42	6331
2026-01-09 18:20:05.70	277.38	19.20	-33.7	-34.9	29.4	3.04e+01	0	25	0	264765440	42	6053
2026-01-09 18:20:06.71	277.16	19.11	-33.9	-35.2	29.2	3.04e+01	0	25	0	266862592	42	6213
2026-01-09 18:20:07.72	276.94	19.02	-34.1	-35.3	29.0	3.04e+01	0	25	0	268435456	42	6332
2026-01-09 18:20:08.73	276.72	18.93	-34.0	-35.2	29.1	3.04e+01	0	25	0	270532608	42	6247
2026-01-09 18:20:09.74	276.50	18.83	-33.9	-35.1	29.2	3.04e+01	0	25	0	272105472	42	6183
2026-01-09 18:20:10.74	276.28	18.75	-33.8	-35.0	29.3	3.04e+01	0	25	0	274202624	42	6080
2026-01-09 18:20:11.75	276.07	18.65	-33.8	-35.0	29.3	3.04e+01	0	25	0	276299776	42	6091
2026-01-09 18:20:12.76	275.85	18.56	-33.9	-35.1	29.1	3.04e+01	0	25	0	277872640	42	6190
2026-01-09 18:20:13.77	275.64	18.47	-33.8	-35.1	29.2	3.04e+01	0	25	0	279969792	42	6135
2026-01-09 18:20:14.78	275.43	18.38	-33.8	-35.0	29.2	3.04e+01	0	25	0	281542656	42	6134
2026-01-09 18:20:15.79	275.22	18.29	-33.7	-34.9	29.4	3.04e+01	0	25	0	283639808	42	6017
2026-01-09 18:20:16.79	275.01	18.20	-33.6	-34.8	29.5	3.04e+01	0	25	0	285736960	42	5967
2026-01-09 18:20:17.80	274.80	18.11	-33.9	-35.1	29.2	3.04e+01	0	25	0	287309824	42	6187
2026-01-09 18:20:18.81	274.60	18.02	-34.0	-35.2	29.0	3.04e+01	0	25	0	289406976	42	6277
2026-01-09 18:20:19.82	274.39	17.93	-33.9	-35.1	29.1	3.04e+01	0	25	0	291504128	42	6197
2026-01-09 18:20:20.82	274.19	17.84	-34.0	-35.2	29.0	3.04e+01	0	25	0	293076992	42	6215
2026-01-09 18:20:21.83	273.99	17.75	-33.6	-34.8	29.5	3.04e+01	0	25	0	295174144	42	5933
2026-01-09 18:20:22.84	273.79	17.66	-33.6	-34.8	29.6	3.04e+01	0	25	0	296747008	42	5939
2026-01-09 18:20:23.85	273.59	17.57	-34.0	-35.2	29.1	3.04e+01	0	25	0	298844160	42	6243
2026-01-09 18:20:24.86	273.39	17.48	-34.2	-35.4	28.9	3.04e+01	0	25	0	300941312	42	6404
2026-01-09 18:20:25.86	273.19	17.39	-34.1	-35.3	28.9	3.04e+01	0	25	0	302514176	42	6323
2026-01-09 18:20:26.87	272.99	17.30	-33.8	-35.0	29.1	3.04e+01	0	25	0	304611328	42	6119
2026-01-09 18:20:27.89	272.80	17.21	-33.7	-34.9	29.3	3.04e+01	0	25	0	306184192	42	6022
2026-01-09 18:20:28.90	272.60	17.12	-33.8	-35.0	29.3	3.04e+01	0	25	0	308281344	42	6075
2026-01-09 18:20:29.91	272.41	17.02	-34.0	-35.2	29.1	3.04e+01	0	25	0	310378496	42	6222
2026-01-09 18:20:30.92	272.22	16.93	-34.1	-35.4	28.9	3.04e+01	0	25	0	311951360	42	6368
2026-01-09 18:20:31.93	272.03	16.84	-34.0	-35.2	29.0	3.04e+01	0	25	0	314048512	42	6256
2026-01-09 18:20:32.93	271.84	16.75	-34.0	-35.3	28.9	3.04e+01	0	25	0	315621376	42	6281
2026-01-09 18:20:33.95	271.65	16.66	-33.7	-34.9	29.2	3.04e+01	0	25	0	317718528	42	6048
2026-01-09 18:20:34.95	271.47	16.57	-33.6	-34.8	29.4	3.04e+01	0	25	0	319815680	42	5949
2026-01-09 18:20:35.96	271.28	16.48	-33.6	-34.8	29.4	3.04e+01	0	25	0	321388544	42	5954
2026-01-09 18:20:36.97	271.10	16.39	-33.8	-35.0	29.2	3.04e+01	0	25	0	323485696	42	6080
2026-01-09 18:20:37.98	270.92	16.30	-33.9	-35.1	29.2	3.04e+01	0	25	0	325058560	42	6155
2026-01-09 18:20:38.99	270.74	16.21	-33.9	-35.1	29.1	3.04e+01	0	25	0	327155712	42	6195
2026-01-09 18:20:40.00	270.56	16.12	-33.9	-35.1	29.1	3.04e+01	0	25	0	329252864	42	6200
2026-01-09 18:20:41.00	270.38	16.04	-34.0	-35.3	29.0	3.04e+01	0	25	0	330825728	42	6287
2026-01-09 18:20:42.01	270.20	15.95	-33.9	-35.1	29.1	3.04e+01	0	25	0	332922880	42	6193
2026-01-09 18:20:43.03	270.02	15.86	-33.9	-35.1	29.1	3.04e+01	0	25	0	334495744	42	6189
2026-01-09 18:20:44.04	269.85	15.77	-33.8	-35.0	29.2	3.04e+01	0	25	0	336592896	42	6077
2026-01-09 18:20:45.05	269.67	15.68	-33.8	-35.0	29.2	3.04e+01	0	25	0	338690048	42	6093
2026-01-09 18:20:46.06	269.50	15.59	-33.8	-35.0	29.3	3.04e+01	0	25	0	340262912	42	6074
2026-01-09 18:20:47.07	269.32	15.50	-34.0	-35.2	29.1	3.04e+01	0	25	0	342360064	42	6229
2026-01-09 18:20:48.08	269.15	15.41	-34.2	-35.4	28.9	3.04e+01	0	25	0	344457216	42	6385
2026-01-09 18:20:49.09	268.98	15.32	-33.9	-35.2	29.0	3.04e+01	0	25	0	346030080	42	6219
2026-01-09 18:20:50.09	268.82	15.23	-34.0	-35.2	29.0	3.04e+01	0	25	0	348127232	42	6237
2026-01-09 18:20:51.10	268.65	15.14	-34.0	-35.2	29.0	3.04e+01	0	25	0	349700096	42	6265
2026-01-09 18:20:52.11	268.48	15.06	-33.9	-35.1	29.0	3.04e+01	0	25	0	351797248	42	6203
2026-01-09 18:20:53.12	268.31	14.97	-33.9	-35.1	29.1	3.04e+01	0	25	0	353894400	42	6178
2026-01-09 18:20:54.13	268.15	14.88	-34.0	-35.2	29.0	3.04e+01	0	25	0	355467264	42	6219
2026-01-09 18:20:55.13	267.99	14.79	-34.1	-35.3	28.9	3.04e+01	0	25	0	357564416	42	6322
2026-01-09 18:20:56.14	267.82	14.70	-34.0	-35.3	28.9	3.04e+01	0	25	0	359137280	42	6282
2026-01-09 18:20:57.15	267.66	14.62	-34.0	-35.2	29.0	3.04e+01	0	25	0	361234432	42	6254
2026-01-09 18:20:58.16	267.50	14.53	-34.0	-35.2	29.0	3.04e+01	0	25	0	363331584	42	6234
2026-01-09 18:20:59.17	267.34	14.44	-33.9	-35.1	29.1	3.04e+01	0	25	0	364904448	42	6193
2026-01-09 18:21:00.18	267.18	14.35	-33.9	-35.1	29.1	3.04e+01	0	25	0	367001600	42	6173
2026-01-09 18:21:01.19	267.03	14.27	-34.0	-35.2	29.0	3.04e+01	0	25	0	368574464	42	6218
2026-01-09 18:21:02.20	266.87	14.18	-34.1	-35.3	28.9	3.04e+01	0	25	0	370671616	42	6334
2026-01-09 18:21:03.20	266.71	14.09	-34.0	-35.2	28.9	3.04e+01	0	25	0	372768768	42	6276
2026-01-09 18:21:04.21	266.56	14.01	-34.0	-35.3	28.9	3.04e+01	0	25	0	374341632	42	6280
2026-01-09 18:21:05.22	266.41	13.92	-34.3	-35.5	28.7	3.04e+01	0	25	0	376438784	42	6444
2026-01-09 18:21:06.23	266.25	13.83	-34.0	-35.2	28.9	3.04e+01	0	25	0	378011648	42	6267
2026-01-09 18:21:07.24	266.10	13.75	-34.1	-35.4	28.8	3.04e+01	0	25	0	380108800	42	6368
2026-01-09 18:21:08.25	265.95	13.66	-34.2	-35.4	28.7	3.04e+01	0	25	0	382205952	42	6379
2026-01-09 18:21:09.26	265.80	13.57	-34.1	-35.4	28.8	3.04e+01	0	25	0	383778816	42	6370
2026-01-09 18:21:10.26	265.65	13.49	-34.2	-35.4	28.8	3.04e+01	0	25	0	385875968	42	6377
2026-01-09 18:21:11.27	265.51	13.40	-34.3	-35.6	28.6	3.04e+01	0	25	0	387973120	42	6499
2026-01-09 18:21:12.28	265.36	13.32	-34.2	-35.4	28.7	3.04e+01	0	25	0	389545984	42	6423
2026-01-09 18:21:13.29	265.21	13.23	-34.1	-35.4	28.7	3.04e+01	0	25	0	391643136	42	6384
2026-01-09 18:21:14.29	265.07	13.15	-34.2	-35.4	28.7	3.04e+01	0	25	0	393216000	42	6407
2026-01-09 18:21:15.30	264.92	13.06	-34.2	-35.4	28.8	3.04e+01	0	25	0	395313152	42	6387
2026-01-09 18:21:16.31	264.78	12.98	-34.2	-35.5	28.7	3.04e+01	0	25	0	397410304	42	6443
2026-01-09 18:21:17.32	264.64	12.89	-34.1	-35.4	28.8	3.04e+01	0	25	0	398983168	42	6355
2026-01-09 18:21:18.33	264.50	12.81	-34.4	-35.7	28.7	3.04e+01	0	25	0	401080320	42	6583
2026-01-09 18:21:19.34	264.36	12.72	-34.3	-35.5	28.6	3.04e+01	0	25	0	402653184	42	6459
2026-01-09 18:21:20.35	264.22	12.64	-34.3	-35.5	28.7	3.04e+01	0	25	0	404750336	42	6464
2026-01-09 18:21:21.36	264.08	12.55	-34.5	-35.7	28.5	3.04e+01	0	25	0	406847488	42	6630
2026-01-09 18:21:22.37	263.94	12.47	-34.3	-35.5	28.5	3.04e+01	0	25	0	408420352	42	6494
2026-01-09 18:21:23.38	263.80	12.39	-34.5	-35.7	28.4	3.04e+01	0	25	0	410517504	42	6614
2026-01-09 18:21:24.39	263.66	12.30	-34.4	-35.7	28.4	3.04e+01	0	25	0	412090368	42	6611
2026-01-09 18:21:25.40	263.53	12.22	-34.1	-35.4	28.7	3.04e+01	0	25	0	414187520	42	6373
2026-01-09 18:21:26.41	263.39	12.14	-34.0	-35.3	28.8	3.04e+01	0	25	0	416284672	42	6278
2026-01-09 18:21:27.42	263.26	12.05	-34.1	-35.3	28.8	3.04e+01	0	25	0	417857536	42	6319
2026-01-09 18:21:28.43	263.13	11.97	-34.1	-35.3	28.7	3.04e+01	0	25	0	419954688	42	6350
2026-01-09 18:21:29.44	263.00	11.89	-34.1	-35.3	28.7	3.04e+01	0	25	0	421527552	42	6330
2026-01-09 18:21:30.45	262.86	11.80	-34.3	-35.5	28.6	3.04e+01	0	25	0	423624704	42	6487
2026-01-09 18:21:31.46	262.73	11.72	-34.4	-35.6	28.4	3.04e+01	0	25	0	425721856	42	6572
2026-01-09 18:21:32.47	262.60	11.64	-34.5	-35.7	28.4	3.04e+01	0	25	0	427294720	42	6647
2026-01-09 18:21:33.48	262.47	11.56	-34.5	-35.8	28.2	3.04e+01	0	25	0	429391872	42	6683
2026-01-09 18:21:34.49	262.35	11.47	-34.4	-35.7	28.5	3.04e+01	0	25	0	430964736	42	6599
2026-01-09 18:21:35.50	262.22	11.39	-34.6	-35.8	28.4	3.04e+01	0	25	0	433061888	42	6686
2026-01-09 18:21:36.50	262.09	11.31	-34.4	-35.7	28.6	3.04e+01	0	25	0	435159040	42	6584
2026-01-09 18:21:37.51	261.97	11.23	-34.4	-35.6	28.6	3.04e+01	0	25	0	436731904	42	6536
2026-01-09 18:21:38.52	261.84	11.15	-34.4	-35.7	28.6	3.04e+01	0	25	0	438829056	42	6591
2026-01-09 18:21:39.53	261.72	11.07	-34.5	-35.7	28.5	3.04e+01	0	25	0	440926208	42	6620
2026-01-09 18:21:40.54	261.59	10.99	-34.4	-35.7	28.5	3.04e+01	0	25	0	442499072	42	6605
2026-01-09 18:21:41.55	261.47	10.90	-34.6	-35.8	28.4	3.04e+01	0	25	0	444596224	42	6696
2026-01-09 18:21:42.55	261.35	10.83	-34.6	-35.9	28.3	3.04e+01	0	25	0	446169088	42	6744
2026-01-09 18:21:43.56	261.23	10.74	-34.7	-35.9	28.4	3.04e+01	0	25	0	448266240	42	6783
2026-01-09 18:21:44.57	261.11	10.66	-34.7	-35.9	28.3	3.04e+01	0	25	0	450363392	42	6782
2026-01-09 18:21:45.58	260.99	10.58	-34.7	-35.9	28.3	3.04e+01	0	25	0	451936256	42	6785
2026-01-09 18:21:46.58	260.87	10.50	-34.8	-36.0	28.2	3.04e+01	0	25	0	454033408	42	6881
2026-01-09 18:21:47.59	260.75	10.43	-34.7	-36.0	28.3	3.04e+01	0	25	0	455606272	42	6829
2026-01-09 18:21:48.60	260.63	10.35	-34.8	-36.0	28.2	3.04e+01	0	25	0	457703424	42	6878
2026-01-09 18:21:49.61	260.52	10.27	-34.8	-36.0	28.2	3.04e+01	0	25	0	459800576	42	6870
2026-01-09 18:21:50.61	260.40	10.19	-34.7	-36.0	28.3	3.04e+01	0	25	0	461373440	42	6806
2026-01-09 18:21:51.62	260.29	10.11	-34.8	-36.1	28.1	3.04e+01	0	25	0	463470592	42	6920
2026-01-09 18:21:52.63	260.17	10.03	-34.6	-35.9	28.3	3.04e+01	0	25	0	465043456	42	6762
2026-01-09 18:21:53.64	260.06	9.95	-34.7	-35.9	28.3	3.04e+01	0	25	0	467140608	42	6788
2026-01-09 18:21:54.65	259.94	9.87	-34.7	-35.9	28.3	3.04e+01	0	25	0	469237760	42	6800
2026-01-09 18:21:55.66	259.83	9.79	-34.8	-36.1	28.2	3.04e+01	0	25	0	470810624	42	6884
2026-01-09 18:21:56.66	259.72	9.72	-34.7	-36.0	28.2	3.04e+01	0	25	0	472907776	42	6860
2026-01-09 18:21:57.67	259.61	9.64	-34.9	-36.2	28.0	3.04e+01	0	25	0	474480640	44	6239
2026-01-09 18:21:58.68	259.50	9.56	-34.9	-36.2	28.0	3.04e+01	0	25	0	476577792	44	6239
2026-01-09 18:21:59.69	259.38	9.48	-35.0	-36.3	27.9	3.04e+01	0	25	0	478674944	44	6306
2026-01-09 18:22:00.70	259.28	9.40	-35.0	-36.3	27.8	3.04e+01	0	25	0	480247808	44	6304
2026-01-09 18:22:01.70	259.17	9.33	-35.0	-36.3	27.8	3.04e+01	0	25	0	482344960	44	6304
2026-01-09 18:22:02.71	259.06	9.25	-34.9	-36.2	27.9	3.04e+01	0	25	0	484442112	44	6250
2026-01-09 18:22:03.72	258.95	9.17	-34.9	-36.2	27.8	3.04e+01	0	25	0	486014976	44	6271
2026-01-09 18:22:04.73	258.84	9.10	-35.1	-36.4	27.7	3.04e+01	0	25	0	488112128	44	6419
2026-01-09 18:22:05.74	258.74	9.02	-34.9	-36.2	27.8	3.04e+01	0	25	0	489684992	44	6221
2026-01-09 18:22:06.75	258.63	8.94	-34.9	-36.2	27.9	3.04e+01	0	25	0	491782144	44	6235
2026-01-09 18:22:07.76	258.53	8.87	-35.2	-36.5	27.7	3.04e+01	0	25	0	493879296	44	6456
2026-01-09 18:22:08.77	258.42	8.79	-35.2	-36.5	27.7	3.04e+01	0	25	0	495452160	44	6454
2026-01-09 18:22:09.78	258.32	8.72	-35.2	-36.6	27.5	3.04e+01	0	25	0	497549312	44	6504
2026-01-09 18:22:10.79	258.21	8.64	-35.1	-36.4	27.6	3.04e+01	0	25	0	499122176	44	6387
2026-01-09 18:22:11.80	258.11	8.56	-35.1	-36.4	27.7	3.04e+01	0	25	0	501219328	44	6407
2026-01-09 18:22:12.80	258.01	8.49	-35.1	-36.4	27.6	3.04e+01	0	25	0	503316480	44	6383
2026-01-09 18:22:13.81	257.91	8.41	-35.1	-36.4	27.7	3.04e+01	0	25	0	504889344	44	6352
2026-01-09 18:22:14.82	257.81	8.34	-35.1	-36.4	27.6	3.04e+01	0	25	0	506986496	44	6386
2026-01-09 18:22:15.83	257.71	8.26	-35.0	-36.3	27.7	3.04e+01	0	25	0	508559360	44	6313
2026-01-09 18:22:16.84	257.61	8.19	-35.0	-36.3	27.7	3.04e+01	0	25	0	510656512	44	6315
2026-01-09 18:22:17.85	257.51	8.11	-35.2	-36.5	27.6	3.04e+01	0	25	0	512753664	44	6461
2026-01-09 18:22:18.86	257.41	8.04	-35.2	-36.5	27.5	3.04e+01	0	25	0	514326528	44	6493
2026-01-09 18:22:19.87	257.31	7.97	-35.4	-36.7	27.3	3.04e+01	0	25	0	516423680	44	6605
2026-01-09 18:22:20.88	257.21	7.89	-35.3	-36.6	27.4	3.04e+01	0	25	0	517996544	44	6546
2026-01-09 18:22:21.89	257.11	7.82	-35.5	-36.8	27.2	3.04e+01	0	25	0	520093696	44	6713
2026-01-09 18:22:22.90	257.02	7.74	-35.4	-36.7	27.3	3.04e+01	0	25	0	522190848	44	6629
2026-01-09 18:22:23.91	256.92	7.67	-35.4	-36.8	27.3	3.04e+01	0	25	0	523763712	44	6665
2026-01-09 18:22:24.91	256.83	7.60	-35.6	-36.9	27.2	3.04e+01	0	25	0	525860864	44	6769
2026-01-09 18:22:25.92	256.73	7.52	-35.5	-36.8	27.2	3.04e+01	0	25	0	527433728	44	6702
2026-01-09 18:22:26.93	256.64	7.45	-35.5	-36.9	27.1	3.04e+01	0	25	0	529530880	44	6749
2026-01-09 18:22:27.94	256.54	7.38	-35.4	-36.7	27.3	3.04e+01	0	25	0	531628032	44	6646
2026-01-09 18:22:28.95	256.45	7.30	-35.4	-36.7	27.3	3.04e+01	0	25	0	533200896	44	6600
2026-01-09 18:22:29.96	256.36	7.23	-35.5	-36.8	27.2	3.04e+01	0	25	0	535298048	44	6671
2026-01-09 18:22:30.97	256.26	7.16	-35.4	-36.7	27.3	3.04e+01	0	25	0	537395200	44	6593
2026-01-09 18:22:31.97	256.17	7.09	-35.3	-36.6	27.4	3.04e+01	0	25	0	538968064	44	6519
2026-01-09 18:22:32.98	256.08	7.02	-35.3	-36.6	27.4	3.04e+01	0	25	0	541065216	44	6565
2026-01-09 18:22:33.99	255.99	6.94	-35.4	-36.7	27.2	3.04e+01	0	25	0	542638080	44	6624
2026-01-09 18:22:35.00	255.90	6.87	-35.5	-36.8	27.2	3.04e+01	0	25	0	544735232	44	6699
2026-01-09 18:22:36.01	255.81	6.80	-35.6	-37.0	27.0	3.04e+01	0	25	0	546832384	44	6825
2026-01-09 18:22:37.01	255.72	6.73	-35.6	-37.0	27.0	3.04e+01	0	25	0	548405248	44	6811
2026-01-09 18:22:38.02	255.63	6.66	-35.8	-37.1	26.9	3.04e+01	0	25	0	550502400	44	6941
2026-01-09 18:22:39.03	255.55	6.59	-35.9	-37.3	26.7	3.04e+01	0	25	0	552075264	44	7059
2026-01-09 18:22:40.04	255.46	6.52	-35.9	-37.3	26.8	3.04e+01	0	25	0	554172416	46	6293
2026-01-09 18:22:41.05	255.37	6.44	-35.8	-37.1	26.9	3.04e+01	0	25	0	556269568	46	6180
2026-01-09 18:22:42.06	255.28	6.37	-35.8	-37.2	26.9	3.04e+01	0	25	0	557842432	46	6228
2026-01-09 18:22:43.06	255.20	6.30	-35.7	-37.1	26.9	3.04e+01	0	25	0	559939584	46	6153
2026-01-09 18:22:44.07	255.11	6.23	-35.7	-37.1	26.9	3.04e+01	0	25	0	561512448	46	6148
2026-01-09 18:22:45.08	255.03	6.16	-35.8	-37.2	26.8	3.04e+01	0	25	0	563609600	46	6238
2026-01-09 18:22:46.09	254.94	6.09	-35.9	-37.3	26.8	3.04e+01	0	25	0	565706752	46	6284
2026-01-09 18:22:47.09	254.86	6.02	-35.9	-37.3	26.7	3.04e+01	0	25	0	567279616	46	6332
2026-01-09 18:22:48.10	254.77	5.95	-36.0	-37.4	26.6	3.04e+01	0	25	0	569376768	46	6365
2026-01-09 18:22:49.11	254.69	5.88	-35.9	-37.3	26.7	3.04e+01	0	25	0	570949632	46	6313
2026-01-09 18:22:50.12	254.61	5.81	-36.1	-37.5	26.5	3.04e+01	0	25	0	573046784	46	6424
2026-01-09 18:22:51.13	254.52	5.75	-36.1	-37.5	26.6	3.04e+01	0	25	0	575143936	46	6450
2026-01-09 18:22:52.14	254.44	5.68	-36.0	-37.4	26.6	3.04e+01	0	25	0	576716800	46	6355
2026-01-09 18:22:53.15	254.36	5.61	-36.1	-37.5	26.5	3.04e+01	0	25	0	578813952	46	6460
2026-01-09 18:22:54.16	254.28	5.54	-36.0	-37.4	26.5	3.04e+01	0	25	0	580911104	46	6388
2026-01-09 18:22:55.17	254.20	5.47	-36.2	-37.5	26.4	3.04e+01	0	25	0	582483968	46	6498
2026-01-09 18:22:56.17	254.12	5.40	-36.1	-37.5	26.4	3.04e+01	0	25	0	584581120	46	6482
2026-01-09 18:22:57.18	254.04	5.33	-36.0	-37.4	26.5	3.04e+01	0	25	0	586153984	46	6399
2026-01-09 18:22:58.19	253.96	5.26	-36.1	-37.5	26.4	3.04e+01	0	25	0	588251136	46	6427
2026-01-09 18:22:59.20	253.88	5.20	-36.2	-37.5	26.4	3.04e+01	0	25	0	590348288	46	6489
2026-01-09 18:23:00.20	253.80	5.13	-36.2	-37.5	26.4	3.04e+01	0	25	0	591921152	46	6495
2026-01-09 18:23:01.22	253.72	5.06	-36.2	-37.6	26.3	3.04e+01	0	25	0	594018304	46	6526
2026-01-09 18:23:02.22	253.64	4.99	-36.4	-37.8	26.1	3.04e+01	0	25	0	595591168	46	6681
2026-01-09 18:23:03.23	253.56	4.93	-36.2	-37.6	26.2	3.04e+01	0	25	0	597688320	46	6563
2026-01-09 18:23:04.24	253.49	4.86	-36.1	-37.5	26.3	3.04e+01	0	25	0	599261184	46	6490
2026-01-09 18:23:05.25	253.41	4.79	-36.1	-37.6	26.2	3.04e+01	0	25	0	601358336	46	6504
2026-01-09 18:23:06.26	253.33	4.72	-36.3	-37.8	26.1	3.04e+01	0	25	0	603455488	46	6659
2026-01-09 18:23:07.27	253.26	4.66	-36.4	-37.9	26.0	3.04e+01	0	25	0	605028352	46	6732
2026-01-09 18:23:08.28	253.18	4.59	-36.5	-37.9	25.9	3.04e+01	0	25	0	607125504	46	6786
2026-01-09 18:23:09.29	253.11	4.52	-36.6	-38.0	25.8	3.04e+01	0	25	0	609222656	46	6859
2026-01-09 18:23:10.29	253.03	4.46	-36.4	-37.9	25.9	3.04e+01	0	25	0	610795520	46	6751
2026-01-09 18:23:11.30	252.96	4.39	-36.5	-37.9	25.9	3.04e+01	0	25	0	612892672	46	6783
2026-01-09 18:23:12.31	252.88	4.32	-36.6	-38.0	25.7	3.04e+01	0	25	0	614465536	46	6876
2026-01-09 18:23:13.32	252.81	4.26	-36.6	-38.1	25.7	3.04e+01	0	25	0	616562688	46	6893
2026-01-09 18:23:14.33	252.74	4.19	-36.5	-38.0	25.8	3.04e+01	0	25	0	618659840	46	6845
2026-01-09 18:23:15.34	252.66	4.13	-36.5	-38.0	25.7	3.04e+01	0	25	0	620232704	46	6809
2026-01-09 18:23:16.35	252.59	4.06	-36.7	-38.2	25.5	3.04e+01	0	25	0	622329856	46	6998
2026-01-09 18:23:17.36	252.52	3.99	-36.5	-38.0	25.7	3.04e+01	0	25	0	623902720	46	6847
2026-01-09 18:23:18.37	252.45	3.93	-36.7	-38.2	25.5	3.04e+01	0	25	0	625999872	46	6963
2026-01-09 18:23:19.38	252.37	3.86	-36.6	-38.1	25.5	3.04e+01	0	25	0	628097024	46	6939
2026-01-09 18:23:20.38	252.30	3.80	-36.6	-38.1	25.6	3.04e+01	0	25	0	629669888	46	6919
2026-01-09 18:23:21.39	252.23	3.73	-37.0	-38.5	25.2	3.04e+01	0	25	0	631767040	48	6478
2026-01-09 18:23:22.40	252.16	3.67	-37.1	-38.6	25.1	3.04e+01	0	25	0	633864192	48	6536
2026-01-09 18:23:23.41	252.09	3.60	-36.8	-38.3	25.2	3.04e+01	0	25	0	635437056	48	6350
2026-01-09 18:23:24.42	252.02	3.54	-37.1	-38.6	25.1	3.04e+01	0	25	0	637534208	48	6548
2026-01-09 18:23:25.43	251.95	3.47	-36.8	-38.3	25.3	3.04e+01	0	25	0	639107072	48	6326
2026-01-09 18:23:26.44	251.88	3.41	-36.6	-38.1	25.5	3.04e+01	0	25	0	641204224	48	6165
2026-01-09 18:23:27.45	251.82	3.35	-36.8	-38.3	25.3	3.04e+01	0	25	0	642777088	48	6295
2026-01-09 18:23:28.45	251.75	3.28	-36.7	-38.2	25.3	3.04e+01	0	25	0	644874240	48	6252
2026-01-09 18:23:29.46	251.68	3.22	-36.9	-38.4	25.3	3.04e+01	0	25	0	646971392	48	6383
2026-01-09 18:23:30.47	251.61	3.15	-36.9	-38.5	25.0	3.04e+01	0	25	0	648544256	48	6449
2026-01-09 18:23:31.48	251.54	3.09	-36.8	-38.3	25.1	3.04e+01	0	25	0	650641408	48	6329
2026-01-09 18:23:32.48	251.48	3.03	-38.1	-39.9	9.6	3.04e+01	0	25	0	652214272	48	7587
2026-01-09 18:23:33.50	251.41	2.96	-47.2	-65.0	3.5	3.04e+01	0	25	104	652738560	60	68050
2026-01-09 18:23:34.50	251.35	2.90	-47.6	-65.4	3.5	3.04e+01	0	25	104	652738560	60	71379
2026-01-09 18:23:35.51	251.28	2.84	-47.7	-65.5	3.5	3.04e+01	0	25	104	652738560	60	72665
2026-01-09 18:23:36.52	251.21	2.77	-47.8	-65.7	3.5	3.04e+01	0	25	104	652738560	60	73900
