passes_logs/2026/01/09/R4.6S_Anadyr/R4.6S_Anadyr__20260109_183723_NOAA_20_JPSS-1_rec.log

#Pass ID: 20260109_183723_NOAA 20 (JPSS-1)
#Satellite: NOAA 20 (JPSS-1)
#Configuration: NOAA 20
#almurnet v.1.7.20251203
#Start time: 2026-01-09 18:37:24

#Version: 2.2.20231116
#Station: R4.6S_Anadyr
#Location: 177.4865 lon 64.73178 lat
#TLE: 1 43013U 17073A   26008.91585656  .00000107  00000+0  71497-4 0  9999
#TLE: 2 43013  98.7631 309.9196 0001713  47.9261 312.2060 14.19534561421870

#Time	Az	El	Level	Level2	SNR	BER	BlckErr	Temp	State	Recorded	gain1	gain2
2026-01-09 18:37:24.35	42.67	0.06	-47.9	-65.6	3.5	3.04e+01	0	23	0	0	60	73330
2026-01-09 18:37:25.36	42.59	0.11	-47.7	-62.9	3.6	1.51e+00	0	24	104	0	60	50246
2026-01-09 18:37:26.37	42.52	0.16	-47.7	-63.0	3.6	1.51e+00	0	24	104	0	60	50840
2026-01-09 18:37:27.38	42.45	0.21	-47.7	-62.9	3.6	1.51e+00	0	24	104	0	60	50471
2026-01-09 18:37:28.38	42.37	0.26	-47.7	-62.9	3.6	1.51e+00	0	24	104	0	60	50423
2026-01-09 18:37:29.39	42.30	0.31	-47.8	-63.0	3.6	1.51e+00	0	24	104	0	60	51006
2026-01-09 18:37:30.40	42.23	0.36	-47.8	-62.9	3.6	1.51e+00	0	24	104	0	60	50589
2026-01-09 18:37:31.41	42.15	0.41	-47.8	-62.9	3.6	1.51e+00	0	24	104	0	60	50698
2026-01-09 18:37:32.42	42.08	0.46	-47.6	-62.8	3.6	1.51e+00	0	24	104	0	60	50171
2026-01-09 18:37:33.43	42.00	0.51	-47.6	-62.8	3.6	1.51e+00	0	24	104	0	60	49853
2026-01-09 18:37:34.44	41.93	0.56	-47.6	-62.8	3.6	1.51e+00	0	24	104	0	60	49915
2026-01-09 18:37:35.45	41.85	0.61	-47.6	-62.8	3.6	1.51e+00	0	24	104	0	60	50040
2026-01-09 18:37:36.46	41.77	0.66	-47.4	-62.6	3.6	1.51e+00	0	24	104	0	60	48808
2026-01-09 18:37:37.47	41.70	0.71	-47.3	-62.5	3.6	1.51e+00	0	24	104	0	60	48111
2026-01-09 18:37:38.48	41.62	0.76	-47.1	-62.2	3.5	1.51e+00	0	24	104	0	60	46581
2026-01-09 18:37:39.48	41.55	0.81	-46.7	-61.9	3.6	1.51e+00	0	24	104	0	60	45070
2026-01-09 18:37:40.49	41.47	0.86	-46.1	-61.2	3.6	1.51e+00	0	24	104	0	60	41714
2026-01-09 18:37:41.50	41.39	0.91	-46.0	-61.2	3.6	1.51e+00	0	24	104	0	60	41292
2026-01-09 18:37:42.51	41.31	0.96	-46.0	-61.2	3.6	1.51e+00	0	24	104	0	60	41353
2026-01-09 18:37:43.52	41.24	1.01	-46.0	-61.2	3.6	1.51e+00	0	24	104	0	60	41461
2026-01-09 18:37:44.54	41.16	1.06	-46.0	-61.2	3.6	1.51e+00	0	24	104	0	60	41355
2026-01-09 18:37:45.55	41.08	1.12	-46.0	-61.2	3.6	1.51e+00	0	24	104	0	60	41539
2026-01-09 18:37:46.56	41.00	1.17	-46.0	-61.2	3.6	1.51e+00	0	24	104	0	60	41301
2026-01-09 18:37:47.57	40.92	1.22	-46.0	-61.1	3.6	1.51e+00	0	25	104	0	60	41173
2026-01-09 18:37:48.58	40.84	1.27	-46.0	-61.2	3.6	1.51e+00	0	24	104	0	60	41302
2026-01-09 18:37:49.59	40.76	1.32	-46.0	-61.1	3.6	1.51e+00	0	24	104	0	60	41200
2026-01-09 18:37:50.59	40.68	1.37	-46.0	-61.1	3.5	1.51e+00	0	24	104	0	60	41105
2026-01-09 18:37:51.61	40.60	1.42	-46.0	-61.2	3.5	1.51e+00	0	24	104	0	60	41327
2026-01-09 18:37:52.61	40.52	1.47	-46.0	-61.1	3.6	1.51e+00	0	24	104	0	60	40995
2026-01-09 18:37:53.62	40.44	1.52	-46.0	-61.1	3.6	1.51e+00	0	24	104	0	60	40925
2026-01-09 18:37:54.63	40.36	1.57	-46.0	-61.1	3.6	1.51e+00	0	24	104	0	60	41223
2026-01-09 18:37:55.64	40.28	1.62	-46.0	-61.1	3.6	1.51e+00	0	24	104	0	60	41200
2026-01-09 18:37:56.65	40.20	1.67	-46.0	-61.2	3.6	1.51e+00	0	24	104	0	60	41369
2026-01-09 18:37:57.66	40.12	1.73	-46.0	-61.2	3.6	1.51e+00	0	25	104	0	60	41321
2026-01-09 18:37:58.67	40.04	1.78	-46.0	-61.1	3.6	1.51e+00	0	25	104	0	60	41130
2026-01-09 18:37:59.68	39.95	1.83	-46.0	-61.2	3.6	1.51e+00	0	25	104	0	60	41408
2026-01-09 18:38:00.68	39.87	1.88	-46.0	-61.1	3.6	1.51e+00	0	25	104	0	60	40892
2026-01-09 18:38:01.69	39.79	1.93	-45.9	-61.0	3.6	1.51e+00	0	24	104	0	60	40625
2026-01-09 18:38:02.70	39.70	1.98	-46.0	-61.0	3.6	1.51e+00	0	25	104	0	60	40478
2026-01-09 18:38:03.71	39.62	2.03	-46.0	-60.9	3.6	1.51e+00	0	25	104	0	60	40173
2026-01-09 18:38:04.72	39.54	2.08	-46.0	-60.8	3.6	1.51e+00	0	25	104	0	60	39606
2026-01-09 18:38:05.73	39.45	2.13	-46.0	-60.8	3.6	1.51e+00	0	25	104	0	60	39661
2026-01-09 18:38:06.74	39.37	2.19	-46.0	-61.0	3.6	1.51e+00	0	25	104	0	60	40502
2026-01-09 18:38:07.75	39.28	2.24	-46.0	-61.1	3.6	1.51e+00	0	25	104	0	60	40939
2026-01-09 18:38:08.76	39.20	2.29	-46.0	-61.1	3.6	1.51e+00	0	25	104	0	60	41168
2026-01-09 18:38:09.77	39.11	2.34	-46.0	-61.1	3.6	1.51e+00	0	25	104	0	60	41097
2026-01-09 18:38:10.78	39.03	2.39	-46.0	-61.1	3.6	1.51e+00	0	25	104	0	60	40919
2026-01-09 18:38:11.79	38.94	2.44	-46.0	-61.1	3.6	1.51e+00	0	25	104	0	60	40899
2026-01-09 18:38:12.80	38.85	2.50	-46.0	-61.1	3.6	1.51e+00	0	25	104	0	60	40945
2026-01-09 18:38:13.81	38.77	2.55	-45.9	-60.9	3.6	1.51e+00	0	25	104	0	60	40022
2026-01-09 18:38:14.82	38.68	2.60	-45.9	-60.4	3.6	1.51e+00	0	25	104	0	60	37873
2026-01-09 18:38:15.83	38.59	2.65	-45.9	-60.1	3.6	1.51e+00	0	25	104	0	60	36697
2026-01-09 18:38:16.84	38.51	2.70	-45.9	-60.3	3.6	1.51e+00	0	25	104	0	60	37521
2026-01-09 18:38:17.85	38.42	2.75	-45.9	-60.9	3.6	1.51e+00	0	25	104	0	60	40159
2026-01-09 18:38:18.86	38.33	2.81	-45.9	-59.4	3.6	1.51e+00	0	25	104	0	60	33675
2026-01-09 18:38:19.87	38.24	2.86	-45.6	-55.2	5.1	1.23e+00	0	25	104	0	60	20778
2026-01-09 18:38:20.88	38.15	2.91	-45.2	-52.0	7.2	2.36e-01	0	25	0	1048576	60	14349
2026-01-09 18:38:21.89	38.06	2.96	-44.6	-50.1	9.8	2.01e-02	0	25	0	3145728	60	11563
2026-01-09 18:38:22.90	37.97	3.01	-44.3	-49.0	10.9	3.46e-03	0	25	0	5242880	60	10205
2026-01-09 18:38:23.91	37.88	3.07	-46.0	-60.3	3.6	9.87e-02	0	25	104	6291456	60	37325
2026-01-09 18:38:24.92	37.79	3.12	-46.1	-60.4	3.6	1.51e+00	0	25	104	6291456	60	37745
2026-01-09 18:38:25.93	37.70	3.17	-44.5	-50.1	9.6	1.19e+00	0	25	104	6291456	60	11563
2026-01-09 18:38:26.93	37.61	3.22	-41.2	-43.3	17.0	6.30e-04	0	25	0	6291456	56	6641
2026-01-09 18:38:27.94	37.52	3.27	-45.8	-59.8	3.6	2.24e-04	0	25	104	8388608	60	35356
2026-01-09 18:38:28.95	37.43	3.33	-42.6	-45.5	14.8	1.19e+00	62	25	104	8388608	60	6790
2026-01-09 18:38:29.96	37.34	3.38	-41.9	-44.4	15.8	7.00e-07	0	25	0	8388608	58	6699
2026-01-09 18:38:30.97	37.25	3.43	-41.3	-43.4	16.7	0.00e+00	0	25	0	10485760	56	6768
2026-01-09 18:38:31.98	37.15	3.48	-41.2	-43.2	17.2	0.00e+00	0	25	0	12582912	56	6604
2026-01-09 18:38:32.99	37.06	3.53	-41.2	-43.2	17.0	0.00e+00	0	25	0	14680064	56	6593
2026-01-09 18:38:33.99	36.97	3.59	-40.9	-42.8	17.6	0.00e+00	0	25	0	15728640	56	6317
2026-01-09 18:38:35.00	36.87	3.64	-41.2	-43.1	17.3	0.00e+00	0	25	0	17825792	56	6538
2026-01-09 18:38:36.01	36.78	3.69	-41.2	-43.2	17.3	0.00e+00	0	25	0	19922944	56	6583
2026-01-09 18:38:37.02	36.69	3.74	-41.0	-42.9	17.4	0.00e+00	0	25	0	22020096	56	6351
2026-01-09 18:38:38.03	36.59	3.79	-40.6	-42.4	18.0	0.00e+00	0	25	0	24117248	54	6703
2026-01-09 18:38:39.04	36.50	3.85	-40.5	-42.2	18.1	0.00e+00	0	25	0	25165824	54	6593
2026-01-09 18:38:40.05	36.40	3.90	-40.6	-42.3	18.0	0.00e+00	0	25	0	27262976	54	6692
2026-01-09 18:38:41.06	36.31	3.95	-40.7	-42.5	18.0	0.00e+00	0	25	0	29360128	54	6776
2026-01-09 18:38:42.07	36.21	4.00	-40.8	-42.6	17.7	0.00e+00	0	25	0	31457280	54	6918
2026-01-09 18:38:43.08	36.11	4.06	-40.7	-42.5	18.0	0.00e+00	0	25	0	33554432	54	6770
2026-01-09 18:38:44.09	36.02	4.11	-40.7	-42.5	17.9	0.00e+00	0	25	0	34603008	54	6808
2026-01-09 18:38:45.10	35.92	4.16	-40.5	-42.3	18.1	0.00e+00	0	25	0	36700160	54	6643
2026-01-09 18:38:46.11	35.82	4.21	-40.7	-42.4	18.0	0.00e+00	0	25	0	38797312	54	6768
2026-01-09 18:38:47.12	35.72	4.27	-40.7	-42.5	17.9	0.00e+00	0	25	0	40894464	54	6805
2026-01-09 18:38:48.13	35.63	4.32	-40.6	-42.3	18.1	0.00e+00	0	25	0	42991616	54	6669
2026-01-09 18:38:49.14	35.53	4.37	-40.5	-42.3	18.2	0.00e+00	0	25	0	44040192	54	6644
2026-01-09 18:38:50.14	35.43	4.42	-40.7	-42.5	18.0	0.00e+00	0	25	0	46137344	54	6773
2026-01-09 18:38:51.15	35.33	4.48	-40.8	-42.7	17.8	0.00e+00	0	25	0	48234496	54	6951
2026-01-09 18:38:52.16	35.23	4.53	-40.7	-42.6	17.9	0.00e+00	0	25	0	50331648	54	6856
2026-01-09 18:38:53.17	35.13	4.58	-40.7	-42.5	18.0	0.00e+00	0	25	0	52428800	54	6819
2026-01-09 18:38:54.18	35.03	4.64	-40.7	-42.5	18.0	0.00e+00	0	25	0	53477376	54	6794
2026-01-09 18:38:55.19	34.93	4.69	-40.8	-42.5	18.0	0.00e+00	0	25	0	55574528	54	6844
2026-01-09 18:38:56.20	34.83	4.74	-40.8	-42.6	18.0	0.00e+00	0	25	0	57671680	54	6858
2026-01-09 18:38:57.21	34.73	4.79	-40.9	-42.7	17.9	0.00e+00	0	25	0	59768832	54	6973
2026-01-09 18:38:58.22	34.62	4.85	-40.7	-42.4	18.1	0.00e+00	0	25	0	61865984	54	6754
2026-01-09 18:38:59.23	34.52	4.90	-40.6	-42.4	18.2	0.00e+00	0	25	0	62914560	54	6707
2026-01-09 18:39:00.24	34.42	4.95	-40.6	-42.4	18.2	0.00e+00	0	25	0	65011712	54	6699
2026-01-09 18:39:01.25	34.31	5.01	-40.7	-42.4	18.1	0.00e+00	0	25	0	67108864	54	6768
2026-01-09 18:39:02.25	34.21	5.06	-40.6	-42.4	18.2	0.00e+00	0	25	0	69206016	54	6704
2026-01-09 18:39:03.26	34.11	5.11	-40.7	-42.4	18.2	0.00e+00	0	25	0	71303168	54	6737
2026-01-09 18:39:04.27	34.00	5.16	-40.6	-42.4	18.2	0.00e+00	0	25	0	73400320	54	6721
2026-01-09 18:39:05.28	33.90	5.22	-40.4	-42.1	18.5	0.00e+00	0	25	0	74448896	54	6495
2026-01-09 18:39:06.30	33.79	5.27	-40.5	-42.1	18.4	0.00e+00	0	25	0	76546048	54	6538
2026-01-09 18:39:07.30	33.69	5.32	-40.4	-42.0	18.5	0.00e+00	0	25	0	78643200	54	6448
2026-01-09 18:39:08.31	33.58	5.38	-40.4	-42.1	18.5	0.00e+00	0	25	0	80740352	54	6513
2026-01-09 18:39:09.32	33.48	5.43	-40.4	-42.1	18.6	0.00e+00	0	25	0	82837504	54	6494
2026-01-09 18:39:10.32	33.37	5.48	-40.3	-41.9	18.7	0.00e+00	0	25	0	83886080	54	6342
2026-01-09 18:39:11.33	33.26	5.53	-40.3	-41.9	18.7	0.00e+00	0	25	0	85983232	54	6386
2026-01-09 18:39:12.34	33.16	5.59	-40.3	-41.9	18.8	0.00e+00	0	25	0	88080384	54	6330
2026-01-09 18:39:13.35	33.05	5.64	-40.2	-41.8	18.9	0.00e+00	0	25	0	90177536	54	6253
2026-01-09 18:39:14.36	32.94	5.69	-40.2	-41.7	18.9	0.00e+00	0	25	0	91226112	54	6244
2026-01-09 18:39:15.37	32.83	5.75	-40.0	-41.5	19.2	0.00e+00	0	25	0	93323264	54	6056
2026-01-09 18:39:16.37	32.72	5.80	-39.9	-41.5	19.1	0.00e+00	0	25	0	95420416	54	6040
2026-01-09 18:39:17.38	32.61	5.85	-39.9	-41.5	19.2	0.00e+00	0	25	0	97517568	54	6045
2026-01-09 18:39:18.39	32.50	5.91	-40.1	-41.6	19.1	0.00e+00	0	25	0	99614720	54	6142
2026-01-09 18:39:19.40	32.39	5.96	-39.9	-41.4	19.3	0.00e+00	0	25	0	101711872	54	5986
2026-01-09 18:39:20.41	32.28	6.01	-40.0	-41.5	19.3	0.00e+00	0	25	0	102760448	54	6051
2026-01-09 18:39:21.42	32.17	6.06	-39.7	-41.2	19.5	0.00e+00	0	25	0	104857600	52	6567
2026-01-09 18:39:22.43	32.06	6.12	-40.0	-41.5	19.2	0.00e+00	0	25	0	106954752	52	6782
2026-01-09 18:39:23.44	31.95	6.17	-40.0	-41.5	19.2	0.00e+00	0	25	0	109051904	52	6811
2026-01-09 18:39:24.44	31.84	6.22	-39.8	-41.3	19.4	0.00e+00	0	25	0	111149056	52	6626
2026-01-09 18:39:25.45	31.72	6.28	-39.8	-41.3	19.0	0.00e+00	0	25	0	112197632	52	6647
2026-01-09 18:39:26.46	31.61	6.33	-39.7	-41.1	19.2	0.00e+00	0	25	0	114294784	52	6512
2026-01-09 18:39:27.47	31.50	6.38	-39.7	-41.2	19.5	0.00e+00	0	25	0	116391936	52	6557
2026-01-09 18:39:28.48	31.38	6.44	-39.6	-41.0	19.7	0.00e+00	0	25	0	118489088	52	6454
2026-01-09 18:39:29.49	31.27	6.49	-39.5	-40.9	19.8	0.00e+00	0	25	0	120586240	52	6380
2026-01-09 18:39:30.50	31.15	6.54	-39.6	-41.0	19.8	0.00e+00	0	25	0	121634816	52	6422
2026-01-09 18:39:31.51	31.04	6.60	-39.7	-41.1	19.7	0.00e+00	0	25	0	123731968	52	6491
2026-01-09 18:39:32.52	30.92	6.65	-39.8	-41.2	19.6	0.00e+00	0	25	0	125829120	52	6582
2026-01-09 18:39:33.53	30.81	6.70	-39.5	-40.9	19.8	0.00e+00	0	25	0	127926272	52	6375
2026-01-09 18:39:34.54	30.69	6.76	-39.6	-41.0	19.8	0.00e+00	0	25	0	130023424	52	6391
2026-01-09 18:39:35.55	30.57	6.81	-39.6	-40.9	19.9	0.00e+00	0	25	0	131072000	52	6386
2026-01-09 18:39:36.56	30.46	6.86	-39.5	-40.9	19.9	0.00e+00	0	25	0	133169152	52	6328
2026-01-09 18:39:37.57	30.34	6.91	-39.3	-40.6	20.2	0.00e+00	0	25	0	135266304	52	6139
2026-01-09 18:39:38.58	30.22	6.97	-39.2	-40.5	20.3	0.00e+00	0	25	0	137363456	52	6071
2026-01-09 18:39:39.59	30.10	7.02	-39.1	-40.4	20.4	0.00e+00	0	25	0	139460608	52	5978
2026-01-09 18:39:40.60	29.98	7.07	-39.1	-40.4	20.4	0.00e+00	0	25	0	140509184	52	5992
2026-01-09 18:39:41.61	29.86	7.13	-39.0	-40.3	20.5	0.00e+00	0	25	0	142606336	52	5921
2026-01-09 18:39:42.62	29.74	7.18	-39.0	-40.3	20.5	0.00e+00	0	25	0	144703488	52	5906
2026-01-09 18:39:43.62	29.62	7.23	-39.2	-40.5	20.3	0.00e+00	0	25	0	146800640	52	6095
2026-01-09 18:39:44.63	29.50	7.29	-39.2	-40.6	20.2	0.00e+00	0	25	0	148897792	52	6117
2026-01-09 18:39:45.64	29.38	7.34	-39.4	-40.7	20.1	0.00e+00	0	25	0	149946368	52	6224
2026-01-09 18:39:46.65	29.26	7.39	-39.6	-41.0	19.9	0.00e+00	0	25	0	152043520	52	6432
2026-01-09 18:39:47.66	29.13	7.44	-39.5	-40.9	20.0	0.00e+00	0	25	0	154140672	52	6378
2026-01-09 18:39:48.67	29.01	7.50	-39.1	-40.4	20.4	0.00e+00	0	25	0	156237824	52	6013
2026-01-09 18:39:49.68	28.89	7.55	-39.2	-40.5	20.4	0.00e+00	0	25	0	158334976	52	6049
2026-01-09 18:39:50.69	28.76	7.60	-39.2	-40.5	20.4	0.00e+00	0	25	0	159383552	52	6084
2026-01-09 18:39:51.70	28.64	7.66	-39.3	-40.6	20.2	0.00e+00	0	25	0	161480704	52	6131
2026-01-09 18:39:52.71	28.51	7.71	-39.4	-40.7	20.1	0.00e+00	0	25	0	163577856	52	6236
2026-01-09 18:39:53.72	28.39	7.76	-39.4	-40.8	20.1	0.00e+00	0	25	0	165675008	52	6263
2026-01-09 18:39:54.73	28.26	7.82	-39.2	-40.5	20.3	0.00e+00	0	25	0	167772160	52	6082
2026-01-09 18:39:55.74	28.14	7.87	-39.2	-40.4	20.4	0.00e+00	0	25	0	169869312	52	6027
2026-01-09 18:39:56.75	28.01	7.92	-39.1	-40.3	20.5	0.00e+00	0	25	0	170917888	52	5952
2026-01-09 18:39:57.76	27.88	7.97	-39.1	-40.4	20.5	0.00e+00	0	25	0	173015040	52	5966
2026-01-09 18:39:58.76	27.76	8.03	-39.0	-40.3	20.5	0.00e+00	0	25	0	175112192	52	5943
2026-01-09 18:39:59.78	27.63	8.08	-39.1	-40.4	20.5	0.00e+00	0	25	0	177209344	52	5978
2026-01-09 18:40:00.79	27.50	8.13	-39.0	-40.2	20.7	0.00e+00	0	25	0	179306496	52	5870
2026-01-09 18:40:01.79	27.37	8.18	-39.1	-40.4	20.6	0.00e+00	0	25	0	180355072	52	5985
2026-01-09 18:40:02.80	27.24	8.24	-38.9	-40.1	20.7	0.00e+00	0	25	0	182452224	52	5824
2026-01-09 18:40:03.81	27.11	8.29	-38.9	-40.1	20.7	0.00e+00	0	25	0	184549376	52	5810
2026-01-09 18:40:04.82	26.98	8.34	-38.9	-40.1	20.8	0.00e+00	0	25	0	186646528	52	5794
2026-01-09 18:40:05.83	26.85	8.40	-39.0	-40.2	20.7	0.00e+00	0	25	0	188743680	52	5870
2026-01-09 18:40:06.84	26.72	8.45	-38.9	-40.1	20.8	0.00e+00	0	25	0	189792256	52	5807
2026-01-09 18:40:07.85	26.59	8.50	-39.0	-40.2	20.7	0.00e+00	0	25	0	191889408	52	5857
2026-01-09 18:40:08.86	26.45	8.55	-39.0	-40.3	20.6	0.00e+00	0	25	0	193986560	52	5912
2026-01-09 18:40:09.87	26.32	8.61	-38.9	-40.1	20.8	0.00e+00	0	25	0	196083712	52	5800
2026-01-09 18:40:10.88	26.19	8.66	-38.9	-40.2	20.7	0.00e+00	0	25	0	198180864	52	5858
2026-01-09 18:40:11.89	26.05	8.71	-38.8	-40.0	20.9	0.00e+00	0	25	0	199229440	52	5736
2026-01-09 18:40:12.90	25.92	8.76	-38.9	-40.1	20.8	0.00e+00	0	25	0	201326592	52	5804
2026-01-09 18:40:13.91	25.78	8.81	-38.9	-40.1	20.8	0.00e+00	0	25	0	203423744	52	5819
2026-01-09 18:40:14.92	25.65	8.87	-38.6	-39.8	21.0	0.00e+00	0	25	0	205520896	50	6317
2026-01-09 18:40:15.93	25.51	8.92	-38.7	-39.9	21.0	0.00e+00	0	25	0	207618048	50	6352
2026-01-09 18:40:16.93	25.38	8.97	-38.7	-39.9	20.9	0.00e+00	0	25	0	208666624	50	6383
2026-01-09 18:40:17.94	25.24	9.02	-38.8	-40.1	20.8	0.00e+00	0	25	0	210763776	50	6469
2026-01-09 18:40:18.95	25.10	9.07	-38.8	-40.0	20.9	0.00e+00	0	25	0	212860928	50	6417
2026-01-09 18:40:19.95	24.97	9.13	-38.8	-40.0	20.9	0.00e+00	0	25	0	214958080	50	6446
2026-01-09 18:40:20.96	24.83	9.18	-38.9	-40.1	20.8	0.00e+00	0	25	0	217055232	50	6503
2026-01-09 18:40:21.97	24.69	9.23	-38.9	-40.1	20.8	0.00e+00	0	25	0	218103808	50	6525
2026-01-09 18:40:22.98	24.55	9.28	-38.8	-40.0	21.0	0.00e+00	0	25	0	220200960	50	6395
2026-01-09 18:40:23.98	24.41	9.33	-38.8	-40.1	20.8	0.00e+00	0	25	0	222298112	50	6482
2026-01-09 18:40:24.99	24.27	9.39	-38.8	-40.0	20.9	0.00e+00	0	25	0	224395264	50	6454
2026-01-09 18:40:26.00	24.13	9.44	-38.6	-39.7	21.2	0.00e+00	0	25	0	226492416	50	6243
2026-01-09 18:40:27.01	23.99	9.49	-38.7	-39.8	21.0	0.00e+00	0	25	0	227540992	50	6316
2026-01-09 18:40:28.02	23.85	9.54	-38.5	-39.7	21.2	0.00e+00	0	25	0	229638144	50	6216
2026-01-09 18:40:29.03	23.70	9.59	-38.7	-39.9	21.1	0.00e+00	0	25	0	231735296	50	6335
2026-01-09 18:40:30.04	23.56	9.64	-38.7	-39.9	21.1	0.00e+00	0	25	0	233832448	50	6342
2026-01-09 18:40:31.05	23.42	9.69	-38.8	-40.0	21.0	0.00e+00	0	25	0	235929600	50	6391
2026-01-09 18:40:32.06	23.27	9.75	-38.5	-39.7	21.3	0.00e+00	0	25	0	236978176	50	6176
2026-01-09 18:40:33.07	23.13	9.80	-38.6	-39.8	21.2	0.00e+00	0	25	0	239075328	50	6280
2026-01-09 18:40:34.07	22.99	9.85	-38.5	-39.7	21.3	0.00e+00	0	25	0	241172480	50	6192
2026-01-09 18:40:35.08	22.84	9.90	-38.6	-39.8	21.2	0.00e+00	0	25	0	243269632	50	6257
2026-01-09 18:40:36.09	22.69	9.95	-38.5	-39.7	21.2	0.00e+00	0	25	0	245366784	50	6218
2026-01-09 18:40:37.10	22.55	10.00	-38.6	-39.7	21.1	0.00e+00	0	25	0	246415360	50	6238
2026-01-09 18:40:38.11	22.40	10.05	-38.6	-39.8	21.1	0.00e+00	0	25	0	248512512	50	6288
2026-01-09 18:40:39.12	22.25	10.10	-38.7	-39.9	21.1	0.00e+00	0	25	0	250609664	50	6321
2026-01-09 18:40:40.13	22.10	10.15	-38.7	-39.8	21.1	0.00e+00	0	25	0	252706816	50	6304
2026-01-09 18:40:41.14	21.96	10.20	-38.6	-39.7	21.3	0.00e+00	0	25	0	254803968	50	6218
2026-01-09 18:40:42.15	21.81	10.25	-38.6	-39.8	21.2	0.00e+00	0	25	0	255852544	50	6282
2026-01-09 18:40:43.15	21.66	10.30	-38.7	-39.9	21.1	0.00e+00	0	25	0	257949696	50	6353
2026-01-09 18:40:44.17	21.51	10.35	-38.7	-39.9	21.2	0.00e+00	0	25	0	260046848	50	6330
2026-01-09 18:40:45.17	21.36	10.40	-38.6	-39.8	21.2	0.00e+00	0	25	0	262144000	50	6256
2026-01-09 18:40:46.18	21.21	10.45	-38.5	-39.7	21.3	0.00e+00	0	25	0	264241152	50	6202
2026-01-09 18:40:47.19	21.05	10.50	-38.6	-39.8	21.2	0.00e+00	0	25	0	266338304	50	6251
2026-01-09 18:40:48.20	20.90	10.55	-38.4	-39.5	21.5	0.00e+00	0	25	0	267386880	50	6103
2026-01-09 18:40:49.21	20.75	10.60	-38.4	-39.5	21.5	0.00e+00	0	25	0	269484032	50	6060
2026-01-09 18:40:50.22	20.60	10.65	-38.4	-39.6	21.4	0.00e+00	0	25	0	271581184	50	6106
2026-01-09 18:40:51.23	20.44	10.70	-38.1	-39.2	21.7	0.00e+00	0	25	0	273678336	50	5893
2026-01-09 18:40:52.23	20.29	10.75	-38.2	-39.3	21.7	0.00e+00	0	25	0	275775488	50	5953
2026-01-09 18:40:53.24	20.13	10.80	-38.2	-39.4	21.7	0.00e+00	0	25	0	276824064	50	5968
2026-01-09 18:40:54.25	19.98	10.85	-38.1	-39.1	21.8	0.00e+00	0	25	0	278921216	50	5824
2026-01-09 18:40:55.26	19.82	10.90	-38.0	-39.1	21.9	0.00e+00	0	25	0	281018368	50	5765
2026-01-09 18:40:56.27	19.67	10.95	-38.0	-39.1	21.8	0.00e+00	0	25	0	283115520	50	5795
2026-01-09 18:40:57.28	19.51	11.00	-37.8	-38.8	22.1	0.00e+00	0	25	0	285212672	50	5628
2026-01-09 18:40:58.28	19.35	11.05	-37.8	-38.8	22.1	0.00e+00	0	25	0	286261248	50	5605
2026-01-09 18:40:59.29	19.19	11.10	-37.7	-38.8	22.2	0.00e+00	0	25	0	288358400	48	6260
2026-01-09 18:41:00.30	19.03	11.14	-37.7	-38.7	22.2	0.00e+00	0	25	0	290455552	48	6240
2026-01-09 18:41:01.31	18.88	11.19	-37.5	-38.6	22.4	0.00e+00	0	25	0	292552704	48	6115
2026-01-09 18:41:02.32	18.72	11.24	-37.4	-38.4	22.5	0.00e+00	0	25	0	294649856	48	6025
2026-01-09 18:41:03.33	18.56	11.29	-37.4	-38.4	22.5	0.00e+00	0	25	0	295698432	48	5996
2026-01-09 18:41:04.34	18.39	11.34	-37.4	-38.4	22.6	0.00e+00	0	25	0	297795584	48	5987
2026-01-09 18:41:05.35	18.23	11.39	-37.3	-38.3	22.6	0.00e+00	0	25	0	299892736	48	5916
2026-01-09 18:41:06.36	18.07	11.43	-37.3	-38.3	22.7	0.00e+00	0	25	0	301989888	48	5916
2026-01-09 18:41:07.36	17.91	11.48	-37.3	-38.3	22.7	0.00e+00	0	25	0	304087040	48	5922
2026-01-09 18:41:08.37	17.75	11.53	-37.2	-38.1	22.8	0.00e+00	0	25	0	305135616	48	5827
2026-01-09 18:41:09.38	17.58	11.58	-37.3	-38.3	22.6	0.00e+00	0	25	0	307232768	48	5924
2026-01-09 18:41:10.39	17.42	11.62	-37.2	-38.2	22.7	0.00e+00	0	25	0	309329920	48	5844
2026-01-09 18:41:11.40	17.25	11.67	-37.3	-38.2	22.6	0.00e+00	0	25	0	311427072	48	5894
2026-01-09 18:41:12.41	17.09	11.72	-37.2	-38.2	22.7	0.00e+00	0	25	0	313524224	48	5885
2026-01-09 18:41:13.42	16.92	11.77	-37.1	-38.1	22.8	0.00e+00	0	25	0	314572800	48	5796
2026-01-09 18:41:14.43	16.76	11.81	-37.2	-38.2	22.7	0.00e+00	0	25	0	316669952	48	5869
2026-01-09 18:41:15.44	16.59	11.86	-37.2	-38.2	22.7	0.00e+00	0	25	0	318767104	48	5881
2026-01-09 18:41:16.45	16.42	11.91	-37.1	-38.0	22.9	0.00e+00	0	25	0	320864256	48	5756
2026-01-09 18:41:17.45	16.26	11.95	-37.0	-38.0	22.9	0.00e+00	0	25	0	322961408	48	5727
2026-01-09 18:41:18.47	16.09	12.00	-37.0	-37.9	23.0	0.00e+00	0	25	0	324009984	48	5694
2026-01-09 18:41:19.48	15.92	12.04	-36.7	-37.7	23.2	0.00e+00	0	25	0	326107136	48	5518
2026-01-09 18:41:20.48	15.75	12.09	-36.9	-37.8	23.1	0.00e+00	0	25	0	328204288	46	6294
2026-01-09 18:41:21.49	15.58	12.14	-36.8	-37.7	23.2	0.00e+00	0	25	0	330301440	46	6209
2026-01-09 18:41:22.50	15.41	12.18	-36.8	-37.8	23.2	0.00e+00	0	25	0	332398592	46	6263
2026-01-09 18:41:23.51	15.24	12.23	-36.7	-37.6	23.3	0.00e+00	0	25	0	333447168	46	6151
2026-01-09 18:41:24.52	15.07	12.27	-36.7	-37.6	23.3	0.00e+00	0	25	0	335544320	46	6148
2026-01-09 18:41:25.53	14.89	12.32	-36.7	-37.6	23.3	0.00e+00	0	25	0	337641472	46	6149
2026-01-09 18:41:26.54	14.72	12.36	-36.6	-37.5	23.4	0.00e+00	0	25	0	339738624	46	6068
2026-01-09 18:41:27.55	14.55	12.41	-36.4	-37.3	23.6	0.00e+00	0	25	0	341835776	46	5946
2026-01-09 18:41:28.56	14.37	12.45	-36.5	-37.4	23.5	0.00e+00	0	25	0	342884352	46	5998
2026-01-09 18:41:29.57	14.20	12.50	-36.3	-37.2	23.4	0.00e+00	0	25	0	344981504	46	5850
2026-01-09 18:41:30.58	14.02	12.54	-36.3	-37.2	23.1	0.00e+00	0	25	0	347078656	46	5887
2026-01-09 18:41:31.59	13.85	12.58	-36.3	-37.2	23.6	0.00e+00	0	25	0	349175808	46	5835
2026-01-09 18:41:32.60	13.67	12.63	-36.3	-37.1	23.7	0.00e+00	0	25	0	351272960	46	5825
2026-01-09 18:41:33.61	13.50	12.67	-36.3	-37.2	23.7	0.00e+00	0	25	0	352321536	46	5832
2026-01-09 18:41:34.62	13.32	12.71	-36.1	-37.0	23.8	0.00e+00	0	25	0	354418688	46	5732
2026-01-09 18:41:35.63	13.14	12.76	-36.1	-37.0	23.9	0.00e+00	0	25	0	356515840	46	5723
2026-01-09 18:41:36.64	12.96	12.80	-36.1	-36.9	23.9	0.00e+00	0	25	0	358612992	46	5680
2026-01-09 18:41:37.65	12.79	12.84	-36.2	-37.1	23.7	0.00e+00	0	25	0	360710144	46	5816
2026-01-09 18:41:38.66	12.61	12.89	-36.3	-37.2	23.7	0.00e+00	0	25	0	362807296	46	5871
2026-01-09 18:41:39.67	12.43	12.93	-36.3	-37.2	23.6	0.00e+00	0	25	0	363855872	46	5848
2026-01-09 18:41:40.67	12.25	12.97	-36.3	-37.2	23.6	0.00e+00	0	25	0	365953024	46	5869
2026-01-09 18:41:41.69	12.07	13.01	-36.4	-37.3	23.5	0.00e+00	0	25	0	368050176	46	5952
2026-01-09 18:41:42.69	11.89	13.05	-36.4	-37.3	23.6	0.00e+00	0	25	0	370147328	46	5915
2026-01-09 18:41:43.70	11.70	13.10	-36.5	-37.5	23.4	0.00e+00	0	25	0	372244480	46	6040
2026-01-09 18:41:44.71	11.52	13.14	-36.7	-37.6	23.2	0.00e+00	0	25	0	373293056	46	6129
2026-01-09 18:41:45.72	11.34	13.18	-36.6	-37.6	23.2	0.00e+00	0	25	0	375390208	46	6116
2026-01-09 18:41:46.73	11.16	13.22	-36.7	-37.7	23.2	0.00e+00	0	25	0	377487360	46	6191
2026-01-09 18:41:47.73	10.97	13.26	-36.7	-37.6	23.3	0.00e+00	0	25	0	379584512	46	6133
2026-01-09 18:41:48.74	10.79	13.30	-36.6	-37.5	23.3	0.00e+00	0	25	0	381681664	46	6085
2026-01-09 18:41:49.75	10.61	13.34	-36.7	-37.6	23.3	0.00e+00	0	25	0	382730240	46	6145
2026-01-09 18:41:50.76	10.42	13.38	-36.6	-37.6	23.4	0.00e+00	0	25	0	384827392	46	6111
2026-01-09 18:41:51.77	10.23	13.42	-36.7	-37.7	23.2	0.00e+00	0	25	0	386924544	46	6176
2026-01-09 18:41:52.78	10.05	13.46	-36.6	-37.5	23.4	0.00e+00	0	25	0	389021696	46	6094
2026-01-09 18:41:53.79	9.86	13.50	-36.6	-37.6	23.4	0.00e+00	0	25	0	391118848	46	6118
2026-01-09 18:41:54.80	9.67	13.54	-36.7	-37.6	23.3	0.00e+00	0	25	0	392167424	46	6172
2026-01-09 18:41:55.81	9.49	13.58	-36.6	-37.6	23.3	0.00e+00	0	25	0	394264576	46	6122
2026-01-09 18:41:56.82	9.30	13.62	-36.7	-37.6	23.4	0.00e+00	0	25	0	396361728	46	6152
2026-01-09 18:41:57.83	9.11	13.65	-36.5	-37.4	23.5	0.00e+00	0	25	0	398458880	46	6020
2026-01-09 18:41:58.84	8.92	13.69	-36.5	-37.5	23.4	0.00e+00	0	25	0	400556032	46	6035
2026-01-09 18:41:59.85	8.73	13.73	-36.4	-37.3	23.5	0.00e+00	0	25	0	401604608	46	5937
2026-01-09 18:42:00.86	8.54	13.77	-36.5	-37.4	23.5	0.00e+00	0	25	0	403701760	46	5986
2026-01-09 18:42:01.87	8.35	13.80	-36.4	-37.3	23.6	0.00e+00	0	25	0	405798912	46	5951
2026-01-09 18:42:02.88	8.16	13.84	-36.6	-37.5	23.5	0.00e+00	0	25	0	407896064	46	6037
2026-01-09 18:42:03.89	7.96	13.88	-36.5	-37.4	23.4	0.00e+00	0	25	0	409993216	46	6029
2026-01-09 18:42:04.89	7.77	13.91	-36.6	-37.5	23.5	0.00e+00	0	25	0	411041792	46	6036
2026-01-09 18:42:05.90	7.58	13.95	-36.4	-37.3	23.7	0.00e+00	0	25	0	413138944	46	5947
2026-01-09 18:42:06.91	7.39	13.99	-36.2	-37.1	23.8	0.00e+00	0	25	0	415236096	46	5796
2026-01-09 18:42:07.92	7.19	14.02	-36.3	-37.1	23.7	0.00e+00	0	25	0	417333248	46	5817
2026-01-09 18:42:08.93	7.00	14.06	-36.4	-37.2	23.6	0.00e+00	0	25	0	419430400	46	5896
2026-01-09 18:42:09.94	6.81	14.09	-36.3	-37.2	23.7	0.00e+00	0	25	0	420478976	46	5844
2026-01-09 18:42:10.95	6.61	14.13	-36.3	-37.2	23.7	0.00e+00	0	25	0	422576128	46	5843
2026-01-09 18:42:11.95	6.42	14.16	-36.1	-37.0	23.8	0.00e+00	0	25	0	424673280	46	5739
2026-01-09 18:42:12.96	6.22	14.20	-36.2	-37.1	23.8	0.00e+00	0	25	0	426770432	46	5771
2026-01-09 18:42:13.97	6.02	14.23	-36.1	-37.0	23.8	0.00e+00	0	25	0	428867584	46	5712
2026-01-09 18:42:14.98	5.83	14.26	-36.3	-37.1	23.6	0.00e+00	0	25	0	430964736	46	5827
2026-01-09 18:42:15.99	5.63	14.30	-36.2	-37.1	23.7	0.00e+00	0	25	0	432013312	46	5811
2026-01-09 18:42:17.00	5.43	14.33	-36.3	-37.2	23.7	0.00e+00	0	25	0	434110464	46	5859
2026-01-09 18:42:18.01	5.23	14.36	-36.3	-37.2	23.7	0.00e+00	0	25	0	436207616	46	5862
2026-01-09 18:42:19.02	5.04	14.40	-36.2	-37.0	23.8	0.00e+00	0	25	0	438304768	46	5758
2026-01-09 18:42:20.03	4.84	14.43	-36.3	-37.2	23.7	0.00e+00	0	25	0	440401920	46	5834
2026-01-09 18:42:21.04	4.64	14.46	-36.3	-37.1	23.8	0.00e+00	0	25	0	441450496	46	5823
2026-01-09 18:42:22.05	4.44	14.49	-36.1	-37.0	23.9	0.00e+00	0	25	0	443547648	46	5753
2026-01-09 18:42:23.06	4.24	14.52	-36.1	-37.0	23.9	0.00e+00	0	25	0	445644800	46	5728
2026-01-09 18:42:24.07	4.04	14.55	-36.1	-37.0	23.9	0.00e+00	0	25	0	447741952	46	5715
2026-01-09 18:42:25.08	3.83	14.59	-36.1	-37.0	23.9	0.00e+00	0	25	0	449839104	46	5752
2026-01-09 18:42:26.09	3.63	14.62	-36.0	-36.9	23.9	0.00e+00	0	25	0	450887680	46	5676
2026-01-09 18:42:27.10	3.43	14.65	-36.1	-37.0	23.9	0.00e+00	0	25	0	452984832	46	5727
2026-01-09 18:42:28.11	3.23	14.68	-36.1	-36.9	24.0	0.00e+00	0	25	0	455081984	46	5683
2026-01-09 18:42:29.12	3.02	14.70	-36.0	-36.9	23.9	0.00e+00	0	25	0	457179136	46	5651
2026-01-09 18:42:30.13	2.82	14.73	-36.1	-36.9	23.9	0.00e+00	0	25	0	459276288	46	5694
2026-01-09 18:42:31.14	2.62	14.76	-36.1	-37.0	23.8	0.00e+00	0	25	0	460324864	46	5748
2026-01-09 18:42:32.15	2.41	14.79	-36.3	-37.2	23.8	0.00e+00	0	25	0	462422016	46	5839
2026-01-09 18:42:33.15	2.21	14.82	-36.3	-37.1	23.8	0.00e+00	0	25	0	464519168	46	5825
2026-01-09 18:42:34.16	2.01	14.85	-36.2	-37.1	23.8	0.00e+00	0	25	0	466616320	46	5823
2026-01-09 18:42:35.17	1.80	14.87	-36.2	-37.1	23.9	0.00e+00	0	25	0	468713472	46	5803
2026-01-09 18:42:36.18	1.59	14.90	-36.2	-37.1	23.8	0.00e+00	0	25	0	469762048	46	5791
2026-01-09 18:42:37.19	1.39	14.93	-36.0	-36.9	24.0	0.00e+00	0	25	0	471859200	46	5667
2026-01-09 18:42:38.20	1.18	14.95	-36.0	-36.8	24.0	0.00e+00	0	25	0	473956352	46	5623
2026-01-09 18:42:39.21	0.97	14.98	-36.2	-37.0	23.9	0.00e+00	0	25	0	476053504	46	5751
2026-01-09 18:42:40.22	0.77	15.01	-36.3	-37.2	23.6	0.00e+00	0	25	0	478150656	46	5830
2026-01-09 18:42:41.23	0.56	15.03	-36.3	-37.2	23.7	0.00e+00	0	25	0	479199232	46	5886
2026-01-09 18:42:42.24	0.35	15.06	-36.3	-37.2	23.6	0.00e+00	0	25	0	481296384	46	5830
2026-01-09 18:42:43.25	0.14	15.08	-36.3	-37.2	23.8	0.00e+00	0	25	0	483393536	46	5833
2026-01-09 18:42:44.26	359.94	15.11	-36.2	-37.1	23.8	0.00e+00	0	25	0	485490688	46	5763
2026-01-09 18:42:45.26	359.73	15.13	-36.2	-37.0	23.9	0.00e+00	0	25	0	487587840	46	5740
2026-01-09 18:42:46.27	359.52	15.15	-36.2	-37.1	23.8	0.00e+00	0	25	0	488636416	46	5764
2026-01-09 18:42:47.28	359.31	15.18	-36.2	-37.1	23.8	0.00e+00	0	25	0	490733568	46	5794
2026-01-09 18:42:48.29	359.10	15.20	-36.3	-37.2	23.8	0.00e+00	0	25	0	492830720	46	5842
2026-01-09 18:42:49.30	358.89	15.22	-36.3	-37.2	23.7	0.00e+00	0	25	0	494927872	46	5887
2026-01-09 18:42:50.31	358.68	15.24	-36.3	-37.2	23.8	0.00e+00	0	25	0	497025024	46	5863
2026-01-09 18:42:51.32	358.47	15.27	-36.5	-37.4	23.6	0.00e+00	0	25	0	499122176	46	5984
2026-01-09 18:42:52.33	358.26	15.29	-36.4	-37.2	23.6	0.00e+00	0	25	0	500170752	46	5895
2026-01-09 18:42:53.34	358.04	15.31	-36.4	-37.3	23.6	0.00e+00	0	25	0	502267904	46	5937
2026-01-09 18:42:54.35	357.83	15.33	-36.6	-37.5	23.5	0.00e+00	0	25	0	504365056	46	6056
2026-01-09 18:42:55.36	357.62	15.35	-36.8	-37.7	23.3	0.00e+00	0	25	0	506462208	46	6214
2026-01-09 18:42:56.37	357.41	15.37	-36.9	-37.8	23.2	0.00e+00	0	25	0	508559360	46	6291
2026-01-09 18:42:57.38	357.20	15.39	-36.8	-37.8	23.3	0.00e+00	0	25	0	509607936	46	6257
2026-01-09 18:42:58.39	356.98	15.41	-36.8	-37.7	23.4	0.00e+00	0	25	0	511705088	46	6212
2026-01-09 18:42:59.40	356.77	15.43	-36.8	-37.8	23.3	0.00e+00	0	25	0	513802240	46	6255
2026-01-09 18:43:00.41	356.56	15.44	-36.6	-37.5	23.4	0.00e+00	0	25	0	515899392	46	6084
2026-01-09 18:43:01.41	356.34	15.46	-36.6	-37.5	23.5	0.00e+00	0	25	0	517996544	46	6076
2026-01-09 18:43:02.42	356.13	15.48	-36.5	-37.4	23.5	0.00e+00	0	25	0	519045120	46	6017
2026-01-09 18:43:03.43	355.92	15.50	-36.4	-37.3	23.5	0.00e+00	0	25	0	521142272	46	5956
2026-01-09 18:43:04.44	355.70	15.51	-36.4	-37.3	23.6	0.00e+00	0	25	0	523239424	46	5946
2026-01-09 18:43:05.45	355.49	15.53	-36.5	-37.4	23.6	0.00e+00	0	25	0	525336576	46	5985
2026-01-09 18:43:06.46	355.27	15.55	-36.6	-37.5	23.5	0.00e+00	0	25	0	527433728	46	6076
2026-01-09 18:43:07.47	355.06	15.56	-36.5	-37.4	23.6	0.00e+00	0	25	0	528482304	46	6013
2026-01-09 18:43:08.48	354.84	15.58	-36.5	-37.4	23.5	0.00e+00	0	25	0	530579456	46	6008
2026-01-09 18:43:09.48	354.63	15.59	-36.4	-37.3	23.6	0.00e+00	0	25	0	532676608	46	5948
2026-01-09 18:43:10.49	354.41	15.61	-36.3	-37.2	23.8	0.00e+00	0	25	0	534773760	46	5859
2026-01-09 18:43:11.50	354.20	15.62	-36.4	-37.3	23.8	0.00e+00	0	25	0	536870912	46	5919
2026-01-09 18:43:12.51	353.98	15.63	-36.6	-37.5	23.5	0.00e+00	0	25	0	537919488	46	6047
2026-01-09 18:43:13.52	353.76	15.65	-36.6	-37.5	23.5	0.00e+00	0	25	0	540016640	46	6048
2026-01-09 18:43:14.53	353.55	15.66	-36.7	-37.6	23.4	0.00e+00	0	25	0	542113792	46	6139
2026-01-09 18:43:15.54	353.33	15.67	-36.6	-37.5	23.2	0.00e+00	0	25	0	544210944	46	6089
2026-01-09 18:43:16.55	353.11	15.68	-36.6	-37.5	23.5	0.00e+00	0	25	0	546308096	46	6083
2026-01-09 18:43:17.55	352.90	15.69	-36.6	-37.5	23.6	0.00e+00	0	25	0	547356672	46	6056
2026-01-09 18:43:18.56	352.68	15.71	-36.6	-37.5	23.5	0.00e+00	0	25	0	549453824	46	6055
2026-01-09 18:43:19.57	352.46	15.72	-36.7	-37.6	23.4	0.00e+00	0	25	0	551550976	46	6166
2026-01-09 18:43:20.58	352.24	15.73	-36.6	-37.6	23.5	0.00e+00	0	25	0	553648128	46	6117
2026-01-09 18:43:21.59	352.03	15.74	-36.6	-37.5	23.6	0.00e+00	0	25	0	555745280	46	6078
2026-01-09 18:43:22.60	351.81	15.75	-36.8	-37.7	23.4	0.00e+00	0	25	0	556793856	46	6222
2026-01-09 18:43:23.61	351.59	15.75	-36.7	-37.6	23.4	0.00e+00	0	25	0	558891008	46	6135
2026-01-09 18:43:24.62	351.37	15.76	-36.8	-37.7	23.5	0.00e+00	0	25	0	560988160	46	6202
2026-01-09 18:43:25.63	351.15	15.77	-36.7	-37.6	23.4	0.00e+00	0	25	0	563085312	46	6117
2026-01-09 18:43:26.64	350.93	15.78	-36.6	-37.5	23.5	0.00e+00	0	25	0	565182464	46	6088
2026-01-09 18:43:27.65	350.72	15.79	-36.7	-37.6	23.4	0.00e+00	0	25	0	566231040	46	6148
2026-01-09 18:43:28.66	350.50	15.79	-36.7	-37.6	23.5	0.00e+00	0	25	0	568328192	46	6133
2026-01-09 18:43:29.66	350.28	15.80	-36.6	-37.5	23.5	0.00e+00	0	25	0	570425344	46	6050
2026-01-09 18:43:30.67	350.06	15.81	-36.8	-37.7	23.3	0.00e+00	0	25	0	572522496	46	6199
2026-01-09 18:43:31.68	349.84	15.81	-36.7	-37.6	23.4	0.00e+00	0	25	0	574619648	46	6139
2026-01-09 18:43:32.69	349.62	15.82	-36.8	-37.8	23.3	0.00e+00	0	25	0	575668224	46	6253
2026-01-09 18:43:33.70	349.40	15.82	-36.7	-37.6	23.4	0.00e+00	0	25	0	577765376	46	6171
2026-01-09 18:43:34.71	349.18	15.83	-36.7	-37.6	23.4	0.00e+00	0	25	0	579862528	46	6116
2026-01-09 18:43:35.72	348.97	15.83	-36.6	-37.5	23.5	0.00e+00	0	25	0	581959680	46	6081
2026-01-09 18:43:36.73	348.75	15.83	-36.6	-37.5	23.6	0.00e+00	0	25	0	584056832	46	6060
2026-01-09 18:43:37.74	348.53	15.84	-36.5	-37.4	23.6	0.00e+00	0	25	0	585105408	46	5987
2026-01-09 18:43:38.75	348.31	15.84	-36.4	-37.3	23.6	0.00e+00	0	25	0	587202560	46	5946
2026-01-09 18:43:39.76	348.09	15.84	-36.4	-37.3	23.6	0.00e+00	0	25	0	589299712	46	5933
2026-01-09 18:43:40.77	347.87	15.84	-36.4	-37.3	23.7	0.00e+00	0	25	0	591396864	46	5928
2026-01-09 18:43:41.78	347.65	15.85	-36.5	-37.4	23.6	0.00e+00	0	25	0	593494016	46	5994
2026-01-09 18:43:42.79	347.43	15.85	-36.5	-37.4	23.6	0.00e+00	0	25	0	595591168	46	6028
2026-01-09 18:43:43.80	347.21	15.85	-36.6	-37.5	23.5	0.00e+00	0	25	0	596639744	46	6058
2026-01-09 18:43:44.80	346.99	15.85	-36.7	-37.7	23.3	0.00e+00	0	25	0	598736896	46	6200
2026-01-09 18:43:45.81	346.77	15.85	-36.8	-37.7	23.3	0.00e+00	0	25	0	600834048	46	6244
2026-01-09 18:43:46.82	346.55	15.85	-36.8	-37.8	23.2	0.00e+00	0	25	0	602931200	46	6254
2026-01-09 18:43:47.83	346.33	15.84	-36.8	-37.8	23.3	0.00e+00	0	25	0	605028352	46	6248
2026-01-09 18:43:48.84	346.11	15.84	-36.6	-37.6	23.4	0.00e+00	0	25	0	606076928	46	6118
2026-01-09 18:43:49.85	345.89	15.84	-36.7	-37.6	23.2	0.00e+00	0	25	0	608174080	46	6125
2026-01-09 18:43:50.86	345.67	15.84	-36.6	-37.5	22.8	0.00e+00	0	25	0	610271232	46	6090
2026-01-09 18:43:51.87	345.46	15.84	-36.5	-37.4	23.4	0.00e+00	0	25	0	612368384	46	6021
2026-01-09 18:43:52.87	345.24	15.83	-36.4	-37.4	23.5	0.00e+00	0	25	0	614465536	46	5966
2026-01-09 18:43:53.88	345.02	15.83	-36.6	-37.5	23.5	0.00e+00	0	25	0	615514112	46	6058
2026-01-09 18:43:54.89	344.80	15.82	-36.7	-37.7	23.4	0.00e+00	0	25	0	617611264	46	6184
2026-01-09 18:43:55.90	344.58	15.82	-36.8	-37.7	23.3	0.00e+00	0	25	0	619708416	46	6220
2026-01-09 18:43:56.91	344.36	15.82	-36.8	-37.7	23.3	0.00e+00	0	25	0	621805568	46	6210
2026-01-09 18:43:57.92	344.14	15.81	-36.7	-37.7	23.3	0.00e+00	0	25	0	623902720	46	6203
2026-01-09 18:43:58.93	343.92	15.80	-36.8	-37.7	23.3	0.00e+00	0	25	0	624951296	46	6231
2026-01-09 18:43:59.94	343.70	15.80	-36.8	-37.8	23.2	0.00e+00	0	25	0	627048448	46	6258
2026-01-09 18:44:00.95	343.49	15.79	-36.8	-37.8	23.3	0.00e+00	0	25	0	629145600	46	6259
2026-01-09 18:44:01.95	343.27	15.78	-36.8	-37.7	23.3	0.00e+00	0	25	0	631242752	46	6220
2026-01-09 18:44:02.96	343.05	15.78	-36.7	-37.7	23.3	0.00e+00	0	25	0	633339904	46	6205
2026-01-09 18:44:03.97	342.83	15.77	-36.8	-37.8	23.2	0.00e+00	0	25	0	634388480	46	6271
2026-01-09 18:44:04.97	342.62	15.76	-36.9	-37.8	23.1	0.00e+00	0	25	0	636485632	46	6309
2026-01-09 18:44:05.99	342.39	15.75	-36.9	-37.9	23.1	0.00e+00	0	25	0	638582784	46	6354
2026-01-09 18:44:06.99	342.18	15.74	-36.9	-37.9	23.1	0.00e+00	0	25	0	640679936	46	6340
2026-01-09 18:44:08.00	341.96	15.73	-36.9	-37.8	23.2	0.00e+00	0	25	0	642777088	46	6312
2026-01-09 18:44:09.01	341.74	15.72	-36.8	-37.7	23.3	0.00e+00	0	25	0	643825664	46	6223
2026-01-09 18:44:10.02	341.53	15.71	-36.7	-37.7	23.3	0.00e+00	0	25	0	645922816	46	6192
2026-01-09 18:44:11.03	341.31	15.70	-36.7	-37.6	23.4	0.00e+00	0	25	0	648019968	46	6162
2026-01-09 18:44:12.04	341.09	15.69	-36.8	-37.7	23.2	0.00e+00	0	26	0	650117120	46	6232
2026-01-09 18:44:13.05	340.87	15.68	-36.7	-37.6	23.4	0.00e+00	0	25	0	652214272	46	6149
2026-01-09 18:44:14.06	340.66	15.67	-36.8	-37.7	23.0	0.00e+00	0	25	0	653262848	46	6224
2026-01-09 18:44:15.07	340.44	15.65	-36.8	-37.8	23.3	0.00e+00	0	26	0	655360000	46	6263
2026-01-09 18:44:16.08	340.22	15.64	-36.7	-37.7	23.3	0.00e+00	0	25	0	657457152	46	6190
2026-01-09 18:44:17.09	340.01	15.63	-36.7	-37.6	23.3	0.00e+00	0	25	0	659554304	46	6159
2026-01-09 18:44:18.10	339.79	15.62	-36.7	-37.6	23.4	0.00e+00	0	25	0	661651456	46	6168
2026-01-09 18:44:19.11	339.57	15.60	-36.6	-37.6	23.3	0.00e+00	0	25	0	662700032	46	6148
2026-01-09 18:44:20.12	339.36	15.59	-36.8	-37.7	23.3	0.00e+00	0	25	0	664797184	46	6227
2026-01-09 18:44:21.13	339.14	15.57	-36.8	-37.8	23.3	0.00e+00	0	25	0	666894336	46	6260
2026-01-09 18:44:22.14	338.93	15.56	-36.7	-37.7	23.2	0.00e+00	0	25	0	668991488	46	6183
2026-01-09 18:44:23.14	338.71	15.54	-36.9	-37.8	23.2	0.00e+00	0	25	0	671088640	46	6295
2026-01-09 18:44:24.15	338.50	15.52	-36.5	-37.5	23.5	0.00e+00	0	25	0	672137216	46	6042
2026-01-09 18:44:25.16	338.28	15.51	-36.5	-37.4	23.4	0.00e+00	0	25	0	674234368	46	6005
2026-01-09 18:44:26.17	338.07	15.49	-36.6	-37.5	23.4	0.00e+00	0	25	0	676331520	46	6058
2026-01-09 18:44:27.18	337.85	15.47	-36.5	-37.4	23.5	0.00e+00	0	25	0	678428672	46	6017
2026-01-09 18:44:28.19	337.64	15.46	-36.6	-37.6	23.4	0.00e+00	0	25	0	680525824	46	6116
2026-01-09 18:44:29.20	337.43	15.44	-36.4	-37.3	23.6	0.00e+00	0	25	0	681574400	46	5931
2026-01-09 18:44:30.21	337.21	15.42	-36.3	-37.2	23.8	0.00e+00	0	25	0	683671552	46	5849
2026-01-09 18:44:31.21	337.00	15.40	-36.4	-37.3	23.7	0.00e+00	0	25	0	685768704	46	5906
2026-01-09 18:44:32.22	336.79	15.38	-36.3	-37.1	23.8	0.00e+00	0	25	0	687865856	46	5820
2026-01-09 18:44:33.23	336.58	15.36	-36.0	-36.8	24.0	0.00e+00	0	25	0	689963008	46	5629
2026-01-09 18:44:34.24	336.36	15.34	-36.1	-37.0	23.9	0.00e+00	0	25	0	692060160	46	5708
2026-01-09 18:44:35.25	336.15	15.32	-36.2	-37.1	23.8	0.00e+00	0	25	0	693108736	46	5778
2026-01-09 18:44:36.25	335.94	15.30	-36.2	-37.1	23.8	0.00e+00	0	25	0	695205888	46	5819
2026-01-09 18:44:37.26	335.73	15.28	-36.3	-37.2	23.6	0.00e+00	0	25	0	697303040	46	5850
2026-01-09 18:44:38.27	335.52	15.26	-36.5	-37.4	23.4	0.00e+00	0	25	0	699400192	46	5990
2026-01-09 18:44:39.28	335.31	15.24	-36.6	-37.5	23.4	0.00e+00	0	25	0	701497344	46	6067
2026-01-09 18:44:40.29	335.10	15.22	-36.6	-37.5	23.4	0.00e+00	0	25	0	702545920	46	6060
2026-01-09 18:44:41.30	334.89	15.19	-36.6	-37.5	23.4	0.00e+00	0	25	0	704643072	46	6049
2026-01-09 18:44:42.31	334.68	15.17	-36.5	-37.4	23.4	0.00e+00	0	25	0	706740224	46	6033
2026-01-09 18:44:43.32	334.47	15.15	-36.6	-37.5	23.5	0.00e+00	0	25	0	708837376	46	6089
2026-01-09 18:44:44.33	334.26	15.12	-36.5	-37.5	23.5	0.00e+00	0	25	0	710934528	46	6035
2026-01-09 18:44:45.34	334.05	15.10	-36.6	-37.5	23.4	0.00e+00	0	25	0	711983104	46	6062
2026-01-09 18:44:46.35	333.84	15.07	-36.5	-37.4	23.6	0.00e+00	0	25	0	714080256	46	5967
2026-01-09 18:44:47.36	333.63	15.05	-36.4	-37.3	23.6	0.00e+00	0	25	0	716177408	46	5943
2026-01-09 18:44:48.37	333.43	15.02	-36.5	-37.4	23.5	0.00e+00	0	25	0	718274560	46	6018
2026-01-09 18:44:49.38	333.22	15.00	-36.4	-37.3	23.7	0.00e+00	0	25	0	720371712	46	5926
2026-01-09 18:44:50.38	333.01	14.97	-36.5	-37.4	23.5	0.00e+00	0	25	0	721420288	46	5976
2026-01-09 18:44:51.39	332.81	14.95	-36.4	-37.3	23.5	0.00e+00	0	25	0	723517440	46	5956
2026-01-09 18:44:52.40	332.60	14.92	-36.5	-37.4	23.5	0.00e+00	0	25	0	725614592	46	6026
2026-01-09 18:44:53.41	332.39	14.89	-36.7	-37.6	23.4	0.00e+00	0	25	0	727711744	46	6124
2026-01-09 18:44:54.42	332.19	14.87	-36.7	-37.6	23.4	0.00e+00	0	25	0	729808896	46	6138
2026-01-09 18:44:55.43	331.98	14.84	-36.7	-37.7	23.3	0.00e+00	0	25	0	730857472	46	6191
2026-01-09 18:44:56.44	331.78	14.81	-36.8	-37.7	23.2	0.00e+00	0	25	0	732954624	46	6232
2026-01-09 18:44:57.45	331.57	14.78	-36.9	-37.8	23.2	0.00e+00	0	25	0	735051776	46	6310
2026-01-09 18:44:58.46	331.37	14.75	-37.1	-38.1	23.0	0.00e+00	0	25	0	737148928	46	6467
2026-01-09 18:44:59.47	331.16	14.73	-37.1	-38.0	23.0	0.00e+00	0	25	0	739246080	46	6430
2026-01-09 18:45:00.47	330.96	14.70	-37.0	-38.0	23.1	0.00e+00	0	25	0	740294656	46	6396
2026-01-09 18:45:01.48	330.76	14.67	-37.0	-38.0	23.1	0.00e+00	0	25	0	742391808	46	6414
2026-01-09 18:45:02.49	330.56	14.64	-37.0	-38.0	23.1	0.00e+00	0	25	0	744488960	46	6397
2026-01-09 18:45:03.50	330.36	14.61	-37.0	-37.9	23.1	0.00e+00	0	25	0	746586112	46	6380
2026-01-09 18:45:04.51	330.15	14.58	-37.1	-38.0	23.1	0.00e+00	0	25	0	748683264	46	6447
2026-01-09 18:45:05.52	329.95	14.55	-37.1	-38.0	23.0	0.00e+00	0	25	0	749731840	46	6457
2026-01-09 18:45:06.53	329.75	14.51	-37.0	-38.0	23.0	0.00e+00	0	25	0	751828992	46	6420
2026-01-09 18:45:07.54	329.55	14.48	-37.0	-37.9	23.1	0.00e+00	0	25	0	753926144	46	6387
2026-01-09 18:45:08.55	329.35	14.45	-37.1	-38.0	23.1	0.00e+00	0	25	0	756023296	46	6451
2026-01-09 18:45:09.55	329.15	14.42	-37.0	-38.0	23.0	0.00e+00	0	25	0	758120448	46	6425
2026-01-09 18:45:10.57	328.95	14.39	-36.9	-37.8	23.2	0.00e+00	0	25	0	760217600	46	6302
2026-01-09 18:45:11.58	328.75	14.35	-36.9	-37.9	23.1	0.00e+00	0	25	0	761266176	46	6326
2026-01-09 18:45:12.58	328.56	14.32	-36.7	-37.6	23.4	0.00e+00	0	26	0	763363328	46	6148
2026-01-09 18:45:13.59	328.36	14.29	-36.5	-37.4	23.6	0.00e+00	0	25	0	765460480	46	5999
2026-01-09 18:45:14.60	328.16	14.26	-36.5	-37.4	23.6	0.00e+00	0	25	0	767557632	46	5984
2026-01-09 18:45:15.61	327.96	14.22	-36.5	-37.4	23.5	0.00e+00	0	25	0	768606208	46	6007
2026-01-09 18:45:16.62	327.77	14.19	-36.6	-37.5	23.4	0.00e+00	0	25	0	770703360	46	6076
2026-01-09 18:45:17.63	327.57	14.15	-36.7	-37.6	23.5	0.00e+00	0	25	0	772800512	46	6109
2026-01-09 18:45:18.64	327.38	14.12	-36.6	-37.5	23.4	0.00e+00	0	25	0	774897664	46	6076
2026-01-09 18:45:19.65	327.18	14.08	-36.6	-37.5	23.4	0.00e+00	0	25	0	776994816	46	6078
2026-01-09 18:45:20.66	326.99	14.05	-36.5	-37.4	23.5	0.00e+00	0	25	0	778043392	46	6020
2026-01-09 18:45:21.66	326.79	14.01	-36.5	-37.4	23.5	0.00e+00	0	25	0	780140544	46	6026
2026-01-09 18:45:22.67	326.60	13.98	-36.5	-37.4	23.4	0.00e+00	0	25	0	782237696	46	6014
2026-01-09 18:45:23.68	326.41	13.94	-36.5	-37.4	23.6	0.00e+00	0	25	0	784334848	46	6014
2026-01-09 18:45:24.69	326.22	13.90	-36.4	-37.3	23.6	0.00e+00	0	25	0	786432000	46	5955
2026-01-09 18:45:25.69	326.02	13.87	-36.5	-37.4	23.6	0.00e+00	0	25	0	788529152	46	5994
2026-01-09 18:45:26.70	325.83	13.83	-36.5	-37.4	23.6	0.00e+00	0	25	0	789577728	46	6012
2026-01-09 18:45:27.71	325.64	13.79	-36.4	-37.4	23.6	0.00e+00	0	25	0	791674880	46	5966
2026-01-09 18:45:28.72	325.45	13.76	-36.6	-37.5	23.5	0.00e+00	0	25	0	793772032	46	6088
2026-01-09 18:45:29.73	325.26	13.72	-36.6	-37.5	23.3	0.00e+00	0	25	0	795869184	46	6074
2026-01-09 18:45:30.74	325.07	13.68	-36.6	-37.5	23.5	0.00e+00	0	25	0	797966336	46	6051
2026-01-09 18:45:31.75	324.88	13.64	-36.5	-37.4	23.5	0.00e+00	0	25	0	799014912	46	6010
2026-01-09 18:45:32.76	324.69	13.60	-36.6	-37.5	23.5	0.00e+00	0	25	0	801112064	46	6046
2026-01-09 18:45:33.77	324.50	13.57	-36.5	-37.4	23.4	0.00e+00	0	26	0	803209216	46	6008
2026-01-09 18:45:34.77	324.32	13.53	-36.6	-37.5	23.5	0.00e+00	0	25	0	805306368	46	6053
2026-01-09 18:45:35.78	324.13	13.49	-36.5	-37.4	23.6	0.00e+00	0	26	0	807403520	46	5998
2026-01-09 18:45:36.79	323.94	13.45	-36.6	-37.5	23.5	0.00e+00	0	25	0	808452096	46	6038
2026-01-09 18:45:37.80	323.76	13.41	-36.5	-37.5	23.5	0.00e+00	0	25	0	810549248	46	6044
2026-01-09 18:45:38.81	323.57	13.37	-36.7	-37.6	23.5	0.00e+00	0	25	0	812646400	46	6167
2026-01-09 18:45:39.81	323.39	13.33	-36.6	-37.5	23.5	0.00e+00	0	25	0	814743552	46	6045
2026-01-09 18:45:40.82	323.20	13.29	-36.6	-37.5	23.5	0.00e+00	0	25	0	816840704	46	6083
2026-01-09 18:45:41.83	323.02	13.25	-36.7	-37.6	23.5	0.00e+00	0	25	0	817889280	46	6115
2026-01-09 18:45:42.84	322.84	13.21	-36.6	-37.5	23.5	0.00e+00	0	25	0	819986432	46	6075
2026-01-09 18:45:43.85	322.65	13.17	-36.6	-37.5	23.5	0.00e+00	0	25	0	822083584	46	6069
2026-01-09 18:45:44.86	322.47	13.13	-36.5	-37.4	23.6	0.00e+00	0	25	0	824180736	46	5966
2026-01-09 18:45:45.86	322.29	13.08	-36.5	-37.4	23.6	0.00e+00	0	25	0	826277888	46	5990
2026-01-09 18:45:46.88	322.11	13.04	-36.5	-37.4	23.6	0.00e+00	0	25	0	827326464	46	5985
2026-01-09 18:45:47.88	321.93	13.00	-36.7	-37.6	23.4	0.00e+00	0	25	0	829423616	46	6104
2026-01-09 18:45:48.89	321.74	12.96	-36.8	-37.7	23.3	0.00e+00	0	25	0	831520768	46	6193
2026-01-09 18:45:49.90	321.56	12.92	-36.9	-37.8	23.2	0.00e+00	0	25	0	833617920	46	6274
2026-01-09 18:45:50.91	321.39	12.87	-37.0	-38.0	23.1	0.00e+00	0	25	0	835715072	46	6399
2026-01-09 18:45:51.91	321.21	12.83	-37.1	-38.1	22.9	0.00e+00	0	25	0	836763648	46	6495
2026-01-09 18:45:52.92	321.03	12.79	-37.3	-38.3	22.8	0.00e+00	0	25	0	838860800	46	6643
2026-01-09 18:45:53.93	320.85	12.75	-37.4	-38.4	22.7	0.00e+00	0	25	0	840957952	46	6739
2026-01-09 18:45:54.94	320.67	12.70	-37.4	-38.4	22.7	0.00e+00	0	25	0	843055104	46	6699
2026-01-09 18:45:55.95	320.50	12.66	-37.4	-38.4	22.6	0.00e+00	0	25	0	845152256	46	6707
2026-01-09 18:45:56.95	320.32	12.62	-37.5	-38.5	22.6	0.00e+00	0	25	0	846200832	46	6790
2026-01-09 18:45:57.96	320.15	12.57	-37.5	-38.5	22.6	0.00e+00	0	25	0	848297984	46	6806
2026-01-09 18:45:58.97	319.97	12.53	-37.5	-38.5	22.5	0.00e+00	0	25	0	850395136	46	6811
2026-01-09 18:45:59.99	319.79	12.48	-37.6	-38.6	22.5	0.00e+00	0	26	0	852492288	46	6886
2026-01-09 18:46:01.00	319.62	12.44	-37.6	-38.6	22.4	0.00e+00	0	25	0	854589440	46	6889
2026-01-09 18:46:02.01	319.45	12.39	-37.6	-38.6	22.5	0.00e+00	0	25	0	855638016	46	6876
2026-01-09 18:46:03.01	319.27	12.35	-37.7	-38.7	22.3	0.00e+00	0	25	0	857735168	46	6981
2026-01-09 18:46:04.02	319.10	12.31	-37.6	-38.6	22.4	0.00e+00	0	25	0	859832320	48	6132
2026-01-09 18:46:05.03	318.93	12.26	-37.8	-38.8	22.4	0.00e+00	0	25	0	861929472	48	6263
2026-01-09 18:46:06.04	318.76	12.21	-37.8	-38.8	22.2	0.00e+00	0	25	0	864026624	48	6315
2026-01-09 18:46:07.05	318.59	12.17	-37.9	-38.9	22.1	0.00e+00	0	25	0	865075200	48	6381
2026-01-09 18:46:08.06	318.42	12.12	-38.1	-39.1	21.9	0.00e+00	0	25	0	867172352	48	6525
2026-01-09 18:46:09.07	318.25	12.08	-38.2	-39.3	21.9	0.00e+00	0	25	0	869269504	48	6635
2026-01-09 18:46:10.08	318.08	12.03	-38.3	-39.5	21.6	0.00e+00	0	25	0	871366656	48	6771
2026-01-09 18:46:11.09	317.91	11.99	-38.4	-39.5	21.5	0.00e+00	0	25	0	873463808	48	6809
2026-01-09 18:46:12.09	317.74	11.94	-38.4	-39.5	21.6	0.00e+00	0	25	0	874512384	48	6844
2026-01-09 18:46:13.10	317.57	11.89	-38.5	-39.6	21.6	0.00e+00	0	25	0	876609536	48	6881
2026-01-09 18:46:14.11	317.40	11.85	-38.5	-39.7	21.5	0.00e+00	0	25	0	878706688	48	6933
2026-01-09 18:46:15.11	317.24	11.80	-38.6	-39.7	21.4	0.00e+00	0	25	0	880803840	48	6983
2026-01-09 18:46:16.12	317.07	11.75	-38.6	-39.7	21.3	0.00e+00	0	25	0	882900992	48	7005
2026-01-09 18:46:17.13	316.91	11.71	-38.6	-39.7	21.4	0.00e+00	0	25	0	884998144	48	6973
2026-01-09 18:46:18.14	316.74	11.66	-38.6	-39.7	21.4	0.00e+00	0	25	0	886046720	48	6959
2026-01-09 18:46:19.15	316.58	11.61	-38.6	-39.7	21.4	0.00e+00	0	25	0	888143872	48	6960
2026-01-09 18:46:20.16	316.41	11.56	-38.6	-39.8	21.2	0.00e+00	0	25	0	890241024	48	7020
2026-01-09 18:46:21.17	316.25	11.52	-38.6	-39.7	21.4	0.00e+00	0	25	0	892338176	48	6956
2026-01-09 18:46:22.18	316.09	11.47	-38.6	-39.7	21.4	0.00e+00	0	25	0	894435328	48	6966
2026-01-09 18:46:23.19	315.92	11.42	-38.7	-39.9	21.2	0.00e+00	0	25	0	895483904	48	7098
2026-01-09 18:46:24.20	315.76	11.37	-38.9	-40.1	21.2	0.00e+00	0	25	0	897581056	50	6495
2026-01-09 18:46:25.21	315.60	11.33	-39.0	-40.2	20.9	0.00e+00	0	25	0	899678208	50	6608
2026-01-09 18:46:26.21	315.44	11.28	-39.3	-40.5	20.7	0.00e+00	0	25	0	901775360	50	6839
2026-01-09 18:46:27.22	315.28	11.23	-39.3	-40.5	20.7	0.00e+00	0	25	0	903872512	50	6834
2026-01-09 18:46:28.23	315.12	11.18	-39.3	-40.6	20.5	0.00e+00	0	25	0	904921088	50	6879
2026-01-09 18:46:29.24	314.96	11.13	-39.2	-40.4	20.8	0.00e+00	0	25	0	907018240	50	6755
2026-01-09 18:46:30.25	314.80	11.08	-39.2	-40.5	20.7	0.00e+00	0	25	0	909115392	50	6775
2026-01-09 18:46:31.26	314.64	11.03	-39.2	-40.4	20.7	0.00e+00	0	25	0	911212544	50	6763
2026-01-09 18:46:32.27	314.49	10.99	-39.2	-40.4	20.8	0.00e+00	0	25	0	913309696	50	6736
2026-01-09 18:46:33.28	314.33	10.94	-39.3	-40.5	20.6	0.00e+00	0	25	0	914358272	50	6829
2026-01-09 18:46:34.28	314.17	10.89	-39.2	-40.5	20.7	0.00e+00	0	25	0	916455424	50	6786
2026-01-09 18:46:35.29	314.02	10.84	-39.3	-40.5	20.6	0.00e+00	0	25	0	918552576	50	6843
2026-01-09 18:46:36.30	313.86	10.79	-39.3	-40.5	20.6	0.00e+00	0	25	0	920649728	50	6842
2026-01-09 18:46:37.31	313.71	10.74	-39.3	-40.6	20.5	0.00e+00	0	25	0	922746880	50	6898
2026-01-09 18:46:38.32	313.55	10.69	-39.3	-40.6	20.5	0.00e+00	0	25	0	923795456	50	6903
2026-01-09 18:46:39.33	313.40	10.64	-39.3	-40.5	20.6	0.00e+00	0	25	0	925892608	50	6840
2026-01-09 18:46:40.33	313.25	10.59	-39.4	-40.7	20.5	0.00e+00	0	25	0	927989760	50	6944
2026-01-09 18:46:41.34	313.09	10.54	-39.3	-40.6	20.5	0.00e+00	0	25	0	930086912	50	6886
2026-01-09 18:46:42.35	312.94	10.49	-39.4	-40.7	20.5	0.00e+00	0	25	0	932184064	50	6972
2026-01-09 18:46:43.36	312.79	10.44	-39.4	-40.7	20.5	0.00e+00	0	25	0	933232640	50	6958
2026-01-09 18:46:44.37	312.64	10.39	-39.4	-40.7	20.5	0.00e+00	0	25	0	935329792	50	6961
2026-01-09 18:46:45.38	312.49	10.34	-39.5	-40.7	20.4	0.00e+00	0	25	0	937426944	50	7002
2026-01-09 18:46:46.39	312.34	10.29	-39.4	-40.7	20.5	0.00e+00	0	25	0	939524096	50	6959
2026-01-09 18:46:47.40	312.19	10.24	-39.5	-40.7	20.4	0.00e+00	0	25	0	941621248	50	7000
2026-01-09 18:46:48.41	312.04	10.19	-39.4	-40.7	20.4	0.00e+00	0	25	0	942669824	50	6988
2026-01-09 18:46:49.42	311.89	10.14	-39.4	-40.7	20.5	0.00e+00	0	25	0	944766976	50	6991
2026-01-09 18:46:50.43	311.74	10.09	-39.5	-40.8	20.3	0.00e+00	0	25	0	946864128	50	7008
2026-01-09 18:46:51.44	311.59	10.04	-39.3	-40.6	20.5	0.00e+00	0	25	0	948961280	50	6890
2026-01-09 18:46:52.45	311.45	9.99	-39.3	-40.6	20.4	0.00e+00	0	25	0	951058432	50	6890
2026-01-09 18:46:53.46	311.30	9.94	-39.4	-40.6	20.5	0.00e+00	0	25	0	952107008	50	6922
2026-01-09 18:46:54.46	311.15	9.89	-39.3	-40.6	20.5	0.00e+00	0	25	0	954204160	50	6906
2026-01-09 18:46:55.47	311.01	9.83	-39.1	-40.4	20.7	0.00e+00	0	25	0	956301312	50	6721
2026-01-09 18:46:56.48	310.86	9.78	-39.3	-40.5	20.6	0.00e+00	0	25	0	958398464	50	6840
2026-01-09 18:46:57.49	310.72	9.73	-39.1	-40.4	20.7	0.00e+00	0	25	0	960495616	50	6714
2026-01-09 18:46:58.50	310.57	9.68	-39.1	-40.3	20.8	0.00e+00	0	25	0	961544192	50	6641
2026-01-09 18:46:59.50	310.43	9.63	-39.1	-40.3	20.9	0.00e+00	0	25	0	963641344	50	6643
2026-01-09 18:47:00.52	310.29	9.58	-38.9	-40.1	20.9	0.00e+00	0	25	0	965738496	50	6539
2026-01-09 18:47:01.52	310.15	9.53	-39.0	-40.2	20.9	0.00e+00	0	25	0	967835648	50	6599
2026-01-09 18:47:02.53	310.01	9.47	-39.0	-40.2	20.9	0.00e+00	0	25	0	969932800	50	6575
2026-01-09 18:47:03.54	309.86	9.42	-39.1	-40.3	20.8	0.00e+00	0	25	0	970981376	50	6667
2026-01-09 18:47:04.55	309.72	9.37	-38.8	-40.0	21.0	0.00e+00	0	25	0	973078528	50	6427
2026-01-09 18:47:05.56	309.58	9.32	-38.8	-40.0	21.1	0.00e+00	0	25	0	975175680	50	6402
2026-01-09 18:47:06.57	309.44	9.27	-38.7	-39.9	21.2	0.00e+00	0	25	0	977272832	50	6372
2026-01-09 18:47:07.58	309.30	9.22	-38.7	-39.9	21.2	0.00e+00	0	25	0	979369984	50	6320
2026-01-09 18:47:08.59	309.16	9.16	-38.6	-39.8	21.2	0.00e+00	0	25	0	981467136	50	6247
2026-01-09 18:47:09.60	309.03	9.11	-38.6	-39.8	21.3	0.00e+00	0	25	0	982515712	50	6269
2026-01-09 18:47:10.61	308.89	9.06	-38.6	-39.7	21.3	0.00e+00	0	25	0	984612864	50	6224
2026-01-09 18:47:11.62	308.75	9.01	-38.6	-39.7	21.3	0.00e+00	0	25	0	986710016	50	6245
2026-01-09 18:47:12.63	308.61	8.96	-38.6	-39.7	21.3	0.00e+00	0	25	0	988807168	50	6235
2026-01-09 18:47:13.64	308.48	8.90	-38.6	-39.7	21.2	0.00e+00	0	25	0	990904320	50	6236
2026-01-09 18:47:14.65	308.34	8.85	-38.5	-39.7	21.4	0.00e+00	0	25	0	991952896	50	6175
2026-01-09 18:47:15.65	308.21	8.80	-38.5	-39.7	21.4	0.00e+00	0	25	0	994050048	50	6197
2026-01-09 18:47:16.66	308.07	8.75	-38.4	-39.5	21.5	0.00e+00	0	25	0	996147200	50	6072
2026-01-09 18:47:17.67	307.94	8.70	-38.4	-39.5	21.4	0.00e+00	0	25	0	998244352	50	6095
2026-01-09 18:47:18.68	307.80	8.64	-38.3	-39.4	21.5	0.00e+00	0	25	0	1000341504	50	6025
2026-01-09 18:47:19.69	307.67	8.59	-38.2	-39.3	21.7	0.00e+00	0	25	0	1001390080	50	5909
2026-01-09 18:47:20.69	307.54	8.54	-38.0	-39.1	21.9	0.00e+00	0	25	0	1003487232	50	5768
2026-01-09 18:47:21.71	307.40	8.49	-37.9	-38.9	22.0	0.00e+00	0	25	0	1005584384	50	5672
2026-01-09 18:47:22.71	307.27	8.43	-37.9	-39.0	21.9	0.00e+00	0	25	0	1007681536	50	5714
2026-01-09 18:47:23.72	307.14	8.38	-37.8	-38.9	22.0	0.00e+00	0	25	0	1009778688	50	5651
2026-01-09 18:47:24.73	307.01	8.33	-37.7	-38.8	22.1	0.00e+00	0	25	0	1010827264	48	6262
2026-01-09 18:47:25.74	306.88	8.28	-37.9	-38.9	22.0	0.00e+00	0	25	0	1012924416	48	6372
2026-01-09 18:47:26.75	306.75	8.22	-37.5	-38.6	22.3	0.00e+00	0	25	0	1015021568	48	6123
2026-01-09 18:47:27.76	306.62	8.17	-37.7	-38.7	22.1	0.00e+00	0	25	0	1017118720	48	6229
2026-01-09 18:47:28.77	306.49	8.12	-37.6	-38.7	22.2	0.00e+00	0	25	0	1019215872	48	6206
2026-01-09 18:47:29.77	306.36	8.06	-37.8	-38.8	22.2	0.00e+00	0	25	0	1020264448	48	6287
2026-01-09 18:47:30.78	306.24	8.01	-37.6	-38.6	22.2	0.00e+00	0	25	0	1022361600	48	6150
2026-01-09 18:47:31.79	306.11	7.96	-37.6	-38.6	22.2	0.00e+00	0	25	0	1024458752	48	6154
2026-01-09 18:47:32.80	305.98	7.91	-37.6	-38.6	22.3	0.00e+00	0	25	0	1026555904	48	6135
2026-01-09 18:47:33.81	305.85	7.85	-37.6	-38.7	22.1	0.00e+00	0	25	0	1028653056	48	6200
2026-01-09 18:47:34.81	305.73	7.80	-37.6	-38.6	22.2	0.00e+00	0	25	0	1029701632	48	6169
2026-01-09 18:47:35.83	305.60	7.75	-37.4	-38.5	22.3	0.00e+00	0	25	0	1031798784	48	6040
2026-01-09 18:47:36.84	305.48	7.69	-37.4	-38.4	22.0	0.00e+00	0	25	0	1033895936	48	5992
2026-01-09 18:47:37.85	305.35	7.64	-37.4	-38.4	22.3	0.00e+00	0	25	0	1035993088	48	6007
2026-01-09 18:47:38.86	305.23	7.59	-37.3	-38.3	22.5	0.00e+00	0	25	0	1038090240	48	5926
2026-01-09 18:47:39.87	305.10	7.54	-37.1	-38.0	22.7	0.00e+00	0	25	0	1039138816	48	5759
2026-01-09 18:47:40.88	304.98	7.48	-37.2	-38.2	22.5	0.00e+00	0	25	0	1041235968	48	5884
2026-01-09 18:47:41.88	304.86	7.43	-37.3	-38.3	22.3	0.00e+00	0	25	0	1043333120	48	5915
2026-01-09 18:47:42.89	304.73	7.38	-37.2	-38.2	22.6	0.00e+00	0	25	0	1045430272	48	5852
2026-01-09 18:47:43.90	304.61	7.32	-37.2	-38.2	22.3	0.00e+00	0	25	0	1047527424	48	5861
2026-01-09 18:47:44.91	304.49	7.27	-37.2	-38.2	22.5	0.00e+00	0	25	0	1048576000	48	5848
2026-01-09 18:47:45.92	304.37	7.22	-37.2	-38.2	22.5	0.00e+00	0	25	0	1050673152	48	5841
2026-01-09 18:47:46.93	304.25	7.16	-37.3	-38.4	22.4	0.00e+00	0	25	0	1052770304	48	5972
2026-01-09 18:47:47.94	304.13	7.11	-37.4	-38.5	22.3	0.00e+00	0	25	0	1054867456	48	6034
2026-01-09 18:47:48.95	304.01	7.06	-37.5	-38.6	22.3	0.00e+00	0	25	0	1056964608	48	6109
2026-01-09 18:47:49.96	303.89	7.01	-37.5	-38.6	22.2	0.00e+00	0	25	0	1058013184	48	6128
2026-01-09 18:47:50.97	303.77	6.95	-37.6	-38.6	22.1	0.00e+00	0	25	0	1060110336	48	6141
2026-01-09 18:47:51.98	303.65	6.90	-37.4	-38.5	22.2	0.00e+00	0	25	0	1062207488	48	6046
2026-01-09 18:47:52.99	303.53	6.85	-37.6	-38.7	22.0	0.00e+00	0	25	0	1064304640	48	6179
2026-01-09 18:47:53.99	303.42	6.79	-37.5	-38.5	22.2	0.00e+00	0	25	0	1066401792	48	6094
2026-01-09 18:47:55.00	303.30	6.74	-37.4	-38.4	22.3	0.00e+00	0	25	0	1067450368	48	5978
2026-01-09 18:47:56.01	303.18	6.69	-37.4	-38.4	22.4	0.00e+00	0	25	0	1069547520	48	5993
2026-01-09 18:47:57.02	303.07	6.63	-37.5	-38.5	22.2	0.00e+00	0	25	0	1071644672	48	6095
2026-01-09 18:47:58.03	302.95	6.58	-37.3	-38.3	22.4	0.00e+00	0	25	0	1073741824	48	5931
2026-01-09 18:47:59.04	302.84	6.53	-37.5	-38.5	22.2	0.00e+00	0	25	0	1075838976	48	6071
2026-01-09 18:48:00.05	302.72	6.47	-37.4	-38.5	22.2	0.00e+00	0	25	0	1077936128	48	6051
2026-01-09 18:48:01.06	302.61	6.42	-37.4	-38.5	22.3	0.00e+00	0	25	0	1078984704	48	6064
2026-01-09 18:48:02.07	302.49	6.37	-37.5	-38.6	22.1	0.00e+00	0	25	0	1081081856	48	6135
2026-01-09 18:48:03.08	302.38	6.31	-37.5	-38.5	22.2	0.00e+00	0	25	0	1083179008	48	6097
2026-01-09 18:48:04.09	302.26	6.26	-37.6	-38.7	21.9	0.00e+00	0	25	0	1085276160	48	6198
2026-01-09 18:48:05.09	302.15	6.21	-37.7	-38.8	21.9	0.00e+00	0	25	0	1087373312	48	6285
2026-01-09 18:48:06.11	302.04	6.16	-37.9	-39.0	21.7	0.00e+00	0	25	0	1088421888	48	6398
2026-01-09 18:48:07.12	301.93	6.10	-38.0	-39.1	21.6	0.00e+00	0	25	0	1090519040	48	6505
2026-01-09 18:48:08.12	301.82	6.05	-37.9	-39.0	21.7	0.00e+00	0	25	0	1092616192	48	6439
2026-01-09 18:48:09.13	301.70	6.00	-38.0	-39.1	21.6	0.00e+00	0	25	0	1094713344	48	6503
2026-01-09 18:48:10.14	301.59	5.94	-38.0	-39.1	21.6	0.00e+00	0	25	0	1096810496	48	6518
2026-01-09 18:48:11.16	301.48	5.89	-37.9	-39.0	21.6	0.00e+00	0	25	0	1097859072	48	6417
2026-01-09 18:48:12.16	301.37	5.84	-38.1	-39.2	21.5	0.00e+00	0	25	0	1099956224	48	6570
2026-01-09 18:48:13.17	301.26	5.78	-37.8	-38.9	21.8	0.00e+00	0	25	0	1102053376	48	6338
2026-01-09 18:48:14.18	301.15	5.73	-37.8	-38.9	21.7	0.00e+00	0	25	0	1104150528	48	6372
2026-01-09 18:48:15.19	301.05	5.68	-37.9	-39.0	21.7	0.00e+00	0	25	0	1106247680	48	6405
2026-01-09 18:48:16.20	300.94	5.62	-37.7	-38.8	21.9	0.00e+00	0	25	0	1107296256	48	6283
2026-01-09 18:48:17.21	300.83	5.57	-37.9	-39.0	21.7	0.00e+00	0	25	0	1109393408	48	6399
2026-01-09 18:48:18.22	300.72	5.52	-37.8	-38.9	21.8	0.00e+00	0	25	0	1111490560	48	6331
2026-01-09 18:48:19.23	300.61	5.47	-37.9	-39.0	21.6	0.00e+00	0	25	0	1113587712	48	6414
2026-01-09 18:48:20.23	300.51	5.41	-37.7	-38.8	21.8	0.00e+00	0	25	0	1115684864	48	6279
2026-01-09 18:48:21.25	300.40	5.36	-37.9	-39.0	21.6	0.00e+00	0	25	0	1116733440	48	6440
2026-01-09 18:48:22.25	300.30	5.31	-37.9	-39.0	21.6	0.00e+00	0	25	0	1118830592	48	6398
2026-01-09 18:48:23.26	300.19	5.25	-38.0	-39.2	21.4	0.00e+00	0	25	0	1120927744	48	6564
2026-01-09 18:48:24.27	300.09	5.20	-38.2	-39.3	21.3	0.00e+00	0	25	0	1123024896	48	6662
2026-01-09 18:48:25.28	299.98	5.15	-38.1	-39.3	21.3	0.00e+00	0	25	0	1125122048	48	6651
2026-01-09 18:48:26.29	299.88	5.10	-38.2	-39.4	21.2	0.00e+00	0	25	0	1126170624	48	6728
2026-01-09 18:48:27.29	299.77	5.04	-38.4	-39.5	21.0	0.00e+00	0	25	0	1128267776	48	6841
2026-01-09 18:48:28.30	299.67	4.99	-38.3	-39.5	21.0	0.00e+00	0	25	0	1130364928	48	6825
2026-01-09 18:48:29.31	299.57	4.94	-38.5	-39.7	20.9	0.00e+00	0	25	0	1132462080	48	6972
2026-01-09 18:48:30.32	299.46	4.88	-38.6	-39.8	20.8	0.00e+00	0	25	0	1134559232	48	7038
2026-01-09 18:48:31.33	299.36	4.83	-38.7	-40.0	20.7	0.00e+00	0	26	0	1135607808	48	7193
2026-01-09 18:48:32.34	299.26	4.78	-38.7	-39.9	20.6	0.00e+00	0	25	0	1137704960	48	7168
2026-01-09 18:48:33.35	299.16	4.73	-38.7	-39.9	20.6	0.00e+00	0	25	0	1139802112	48	7161
2026-01-09 18:48:34.36	299.06	4.67	-38.8	-40.0	20.5	0.00e+00	0	26	0	1141899264	50	6434
2026-01-09 18:48:35.37	298.96	4.62	-38.8	-40.1	20.5	0.00e+00	0	25	0	1143996416	50	6475
2026-01-09 18:48:36.37	298.86	4.57	-38.9	-40.1	20.4	0.00e+00	0	25	0	1146093568	50	6532
2026-01-09 18:48:37.38	298.76	4.51	-38.9	-40.2	20.3	0.00e+00	0	26	0	1147142144	50	6606
2026-01-09 18:48:38.39	298.66	4.46	-39.1	-40.5	20.1	0.00e+00	0	25	0	1149239296	50	6775
2026-01-09 18:48:39.40	298.56	4.41	-39.0	-40.3	20.3	0.00e+00	0	26	0	1151336448	50	6628
2026-01-09 18:48:40.41	298.46	4.36	-39.2	-40.5	20.1	0.00e+00	0	25	0	1153433600	50	6848
2026-01-09 18:48:41.42	298.36	4.30	-38.9	-40.2	20.3	0.00e+00	0	26	0	1155530752	50	6607
2026-01-09 18:48:42.43	298.26	4.25	-39.2	-40.6	20.0	0.00e+00	0	26	0	1156579328	50	6857
2026-01-09 18:48:43.44	298.16	4.20	-39.2	-40.6	19.8	0.00e+00	0	25	0	1158676480	50	6893
2026-01-09 18:48:44.45	298.06	4.15	-39.1	-40.4	20.1	0.00e+00	0	25	0	1160773632	50	6719
2026-01-09 18:48:45.46	297.97	4.09	-39.1	-40.5	20.0	0.00e+00	0	25	0	1162870784	50	6795
2026-01-09 18:48:46.47	297.87	4.04	-39.2	-40.5	19.9	0.00e+00	0	26	0	1164967936	50	6824
2026-01-09 18:48:47.48	297.77	3.99	-39.2	-40.6	19.8	0.00e+00	0	26	0	1166016512	50	6896
2026-01-09 18:48:48.49	297.68	3.94	-39.4	-40.9	19.5	0.00e+00	0	25	0	1168113664	50	7122
2026-01-09 18:48:49.50	297.58	3.88	-39.5	-41.0	19.6	0.00e+00	0	25	0	1170210816	50	7231
2026-01-09 18:48:50.51	297.49	3.83	-39.5	-41.0	19.4	0.00e+00	0	25	0	1172307968	50	7203
2026-01-09 18:48:51.52	297.39	3.78	-39.8	-41.4	19.1	0.00e+00	0	25	0	1174405120	52	6710
2026-01-09 18:48:52.53	297.30	3.73	-40.1	-41.7	18.7	0.00e+00	0	25	0	1175453696	52	6947
2026-01-09 18:48:53.54	297.20	3.67	-39.4	-40.8	19.5	0.00e+00	0	25	0	1177550848	52	6306
2026-01-09 18:48:54.55	297.11	3.62	-39.7	-41.2	19.2	0.00e+00	0	25	0	1179648000	52	6610
2026-01-09 18:48:55.56	297.01	3.57	-39.8	-41.3	19.1	0.00e+00	0	25	0	1181745152	52	6640
2026-01-09 18:48:56.57	296.92	3.52	-39.9	-41.5	18.9	0.00e+00	0	25	0	1183842304	52	6784
2026-01-09 18:48:57.58	296.83	3.47	-39.9	-41.5	18.9	0.00e+00	0	26	0	1184890880	52	6776
2026-01-09 18:48:58.58	296.74	3.41	-39.9	-41.4	19.0	0.00e+00	0	26	0	1186988032	52	6752
2026-01-09 18:48:59.59	296.64	3.36	-39.7	-41.2	19.1	0.00e+00	0	25	0	1189085184	52	6591
2026-01-09 18:49:00.60	296.55	3.31	-40.0	-41.6	18.7	0.00e+00	0	25	0	1191182336	52	6921
2026-01-09 18:49:01.61	296.46	3.26	-39.7	-41.2	19.1	0.00e+00	0	25	0	1193279488	52	6590
2026-01-09 18:49:02.62	296.37	3.20	-39.9	-41.5	18.8	0.00e+00	0	26	0	1194328064	52	6840
2026-01-09 18:49:03.63	296.28	3.15	-40.1	-41.8	18.5	0.00e+00	0	25	0	1196425216	52	7059
2026-01-09 18:49:04.63	296.19	3.10	-39.6	-41.1	19.2	0.00e+00	0	25	0	1198522368	52	6489
