passes_logs/2026/01/09/R4.6S_Anadyr/R4.6S_Anadyr__20260109_122652_2024-110A_rec.log

#Pass ID: 20260109_122652_2024-110A
#Satellite: 2024-110A
#Configuration: 01B_900M
#almurnet v.1.7.20251203
#Start time: 2026-01-09 12:26:54

#Version: 2.2.20231116
#Station: R4.6S_Anadyr
#Location: 177.4865 lon 64.73178 lat
#TLE: 1 60012U 24110A   26008.98058397  .00007481  00000+0  45382-3 0  9996
#TLE: 2 60012  97.5751 102.0471 0010606  85.2699 274.9742 15.10780355 87850

#Time	Az	El	Level	Level2	SNR	BER	BlckErr	Temp	State	Recorded	gain1	gain2
2026-01-09 12:26:54.64	215.47	0.14	-47.7	-62.6	3.5	1.51e+00	0	21	0	0	60	48793
2026-01-09 12:26:55.65	215.56	0.20	-47.4	-50.0	6.1	7.54e-01	0	23	104	0	60	38556
2026-01-09 12:26:56.65	215.66	0.25	-47.8	-50.2	6.1	7.53e-01	0	23	104	0	60	39786
2026-01-09 12:26:57.67	215.75	0.30	-47.5	-50.1	6.1	7.54e-01	0	23	104	0	60	38976
2026-01-09 12:26:58.68	215.85	0.36	-47.7	-50.2	6.1	7.54e-01	0	23	104	0	60	39595
2026-01-09 12:26:59.68	215.94	0.41	-47.7	-50.1	6.1	7.54e-01	0	23	104	0	60	39330
2026-01-09 12:27:00.70	216.03	0.47	-47.8	-50.3	6.1	7.54e-01	0	23	104	0	60	39997
2026-01-09 12:27:01.70	216.13	0.52	-47.9	-50.4	6.1	7.54e-01	0	23	104	0	60	40411
2026-01-09 12:27:02.71	216.23	0.58	-47.8	-50.3	6.1	7.54e-01	0	23	104	0	60	39882
2026-01-09 12:27:03.73	216.32	0.63	-47.8	-50.2	6.1	7.54e-01	0	23	104	0	60	39639
2026-01-09 12:27:04.73	216.42	0.68	-47.7	-50.1	6.0	7.55e-01	0	23	104	0	60	39363
2026-01-09 12:27:05.74	216.52	0.74	-47.6	-50.1	6.1	7.55e-01	0	23	104	0	60	39160
2026-01-09 12:27:06.75	216.61	0.79	-47.6	-50.0	6.1	7.54e-01	0	23	104	0	60	38912
2026-01-09 12:27:07.76	216.71	0.85	-47.5	-50.0	6.1	7.55e-01	0	23	104	0	60	38577
2026-01-09 12:27:08.77	216.81	0.90	-47.0	-49.5	6.1	7.55e-01	0	23	104	0	60	36737
2026-01-09 12:27:09.78	216.91	0.96	-46.3	-48.8	6.1	7.54e-01	0	23	104	0	60	33843
2026-01-09 12:27:10.79	217.01	1.01	-45.9	-48.3	6.1	7.55e-01	0	23	104	0	60	31979
2026-01-09 12:27:11.80	217.11	1.07	-45.9	-48.3	6.1	7.54e-01	0	23	104	0	60	31992
2026-01-09 12:27:12.81	217.21	1.13	-45.8	-48.3	6.1	7.54e-01	0	23	104	0	60	32001
2026-01-09 12:27:13.82	217.31	1.18	-45.9	-48.4	6.1	7.55e-01	0	23	104	0	60	32194
2026-01-09 12:27:14.83	217.41	1.24	-45.9	-48.4	6.1	7.55e-01	0	23	104	0	60	32071
2026-01-09 12:27:15.85	217.51	1.29	-45.9	-48.4	6.1	7.55e-01	0	23	104	0	60	32131
2026-01-09 12:27:16.85	217.61	1.35	-46.0	-48.5	6.1	7.55e-01	0	23	104	0	60	32455
2026-01-09 12:27:17.86	217.72	1.40	-45.9	-48.5	6.1	7.54e-01	0	23	104	0	60	32482
2026-01-09 12:27:18.87	217.82	1.46	-45.9	-48.4	6.1	7.54e-01	0	23	104	0	60	32259
2026-01-09 12:27:19.88	217.92	1.51	-45.9	-48.4	6.1	7.54e-01	0	23	104	0	60	32119
2026-01-09 12:27:20.89	218.03	1.57	-45.9	-48.4	6.1	7.55e-01	0	23	104	0	60	32166
2026-01-09 12:27:21.90	218.13	1.63	-45.9	-48.4	6.1	7.54e-01	0	23	104	0	60	32310
2026-01-09 12:27:22.91	218.24	1.68	-46.0	-48.5	6.1	7.54e-01	0	23	104	0	60	32506
2026-01-09 12:27:23.92	218.34	1.74	-45.9	-48.3	6.1	7.55e-01	0	23	104	0	60	32003
2026-01-09 12:27:24.93	218.45	1.79	-45.9	-48.4	6.1	7.55e-01	0	24	104	0	60	32170
2026-01-09 12:27:25.94	218.55	1.85	-45.9	-48.4	6.1	7.54e-01	0	24	104	0	60	32116
2026-01-09 12:27:26.95	218.66	1.91	-46.0	-48.5	6.1	7.55e-01	0	23	104	0	60	32426
2026-01-09 12:27:27.96	218.77	1.96	-46.0	-48.5	6.1	7.54e-01	0	23	104	0	60	32523
2026-01-09 12:27:28.96	218.87	2.02	-45.9	-48.4	6.1	7.54e-01	0	23	104	0	60	32120
2026-01-09 12:27:29.98	218.98	2.08	-45.9	-48.3	6.1	7.54e-01	0	23	104	0	60	32005
2026-01-09 12:27:30.98	219.09	2.13	-45.9	-48.4	6.1	7.55e-01	0	24	104	0	60	32207
2026-01-09 12:27:31.99	219.20	2.19	-45.9	-48.3	6.1	7.53e-01	0	24	104	0	60	32026
2026-01-09 12:27:33.00	219.31	2.25	-45.9	-48.4	6.1	7.55e-01	0	23	104	0	60	32188
2026-01-09 12:27:34.01	219.42	2.30	-45.8	-48.4	6.1	7.55e-01	0	23	104	0	60	32049
2026-01-09 12:27:35.02	219.53	2.36	-45.8	-48.3	6.1	7.55e-01	0	23	104	0	60	31914
2026-01-09 12:27:36.03	219.64	2.42	-45.9	-48.4	6.1	7.54e-01	0	23	104	0	60	32133
2026-01-09 12:27:37.04	219.75	2.47	-45.9	-48.4	6.1	7.54e-01	0	24	104	0	60	32076
2026-01-09 12:27:38.05	219.87	2.53	-45.8	-48.3	6.1	7.56e-01	0	24	104	0	60	31917
2026-01-09 12:27:39.06	219.98	2.59	-45.9	-48.4	6.1	7.54e-01	0	24	104	0	60	32333
2026-01-09 12:27:40.08	220.09	2.65	-45.9	-48.4	6.1	7.54e-01	0	24	104	0	60	32153
2026-01-09 12:27:41.08	220.21	2.70	-45.9	-48.4	6.1	7.53e-01	0	24	104	0	60	32189
2026-01-09 12:27:42.10	220.32	2.76	-45.9	-48.4	6.1	7.55e-01	0	24	104	0	60	32172
2026-01-09 12:27:43.10	220.44	2.82	-45.9	-48.3	6.1	7.54e-01	0	24	104	0	60	31972
2026-01-09 12:27:44.11	220.55	2.88	-45.9	-48.3	6.1	7.55e-01	0	24	104	0	60	32030
2026-01-09 12:27:45.12	220.67	2.93	-45.9	-48.4	6.1	7.54e-01	0	24	104	0	60	32131
2026-01-09 12:27:46.13	220.79	2.99	-45.9	-48.4	6.1	7.55e-01	0	24	104	0	60	32053
2026-01-09 12:27:47.14	220.90	3.05	-45.9	-48.4	6.1	7.54e-01	0	24	104	0	60	32104
2026-01-09 12:27:48.14	221.02	3.11	-45.9	-48.4	6.1	7.53e-01	0	24	104	0	60	32083
2026-01-09 12:27:49.15	221.14	3.16	-45.9	-48.4	6.1	7.55e-01	0	24	104	0	60	32106
2026-01-09 12:27:50.17	221.26	3.22	-45.8	-48.3	6.1	7.55e-01	0	24	104	0	60	31978
2026-01-09 12:27:51.18	221.38	3.28	-45.9	-48.4	6.1	7.54e-01	0	24	104	0	60	32033
2026-01-09 12:27:52.18	221.50	3.34	-45.8	-48.4	6.1	7.55e-01	0	24	104	0	60	32048
2026-01-09 12:27:53.19	221.62	3.40	-45.5	-48.1	6.1	7.54e-01	0	24	104	0	60	31001
2026-01-09 12:27:54.20	221.74	3.45	-43.2	-45.9	6.2	7.54e-01	0	24	104	0	60	24157
2026-01-09 12:27:55.21	221.86	3.51	-45.6	-48.2	6.1	7.54e-01	0	24	104	0	60	31605
2026-01-09 12:27:56.22	221.98	3.57	-43.7	-46.4	6.1	7.53e-01	0	24	104	0	60	25704
2026-01-09 12:27:57.23	222.10	3.63	-43.8	-46.4	6.1	7.53e-01	0	24	104	0	60	25713
2026-01-09 12:27:58.24	222.23	3.69	-43.7	-46.4	6.2	7.55e-01	0	24	104	0	60	25642
2026-01-09 12:27:59.25	222.35	3.75	-43.4	-46.2	6.2	7.54e-01	0	24	104	0	60	25136
2026-01-09 12:28:00.26	222.48	3.81	-43.3	-46.1	6.2	7.51e-01	0	24	104	0	60	24724
2026-01-09 12:28:01.27	222.60	3.86	-42.9	-45.7	6.2	7.52e-01	0	24	104	0	60	23692
2026-01-09 12:28:02.28	222.73	3.92	-40.7	-43.5	6.8	7.47e-01	0	24	104	0	56	22979
2026-01-09 12:28:03.29	222.86	3.98	-40.9	-43.7	6.7	7.47e-01	0	24	104	0	56	23742
2026-01-09 12:28:04.30	222.98	4.04	-42.5	-45.2	6.5	7.50e-01	0	24	104	0	58	24926
2026-01-09 12:28:05.31	223.11	4.10	-38.4	-41.1	7.8	7.41e-01	0	24	104	0	52	21932
2026-01-09 12:28:06.32	223.24	4.16	-40.8	-43.7	6.9	7.46e-01	0	24	104	0	56	23672
2026-01-09 12:28:07.32	223.37	4.22	-38.3	-41.2	7.8	7.40e-01	0	24	104	0	52	22215
2026-01-09 12:28:08.33	223.50	4.28	-38.0	-40.8	7.9	7.39e-01	0	24	104	0	52	21318
2026-01-09 12:28:09.34	223.63	4.34	-37.8	-40.7	7.9	7.38e-01	0	24	104	0	52	20996
2026-01-09 12:28:10.35	223.76	4.40	-37.8	-40.7	7.9	7.37e-01	0	24	104	0	52	21065
2026-01-09 12:28:11.36	223.89	4.46	-39.4	-42.1	7.4	7.43e-01	0	24	104	0	54	21953
2026-01-09 12:28:12.37	224.02	4.52	-38.1	-40.9	7.8	7.39e-01	0	24	104	0	50	24263
2026-01-09 12:28:13.38	224.15	4.58	-43.2	-45.9	6.3	7.52e-01	0	24	104	0	60	24174
2026-01-09 12:28:14.39	224.29	4.63	-39.1	-42.1	7.4	7.45e-01	0	24	104	0	54	21996
2026-01-09 12:28:15.40	224.42	4.69	-37.7	-40.5	8.1	7.39e-01	0	24	104	0	52	20451
2026-01-09 12:28:16.40	224.55	4.75	-37.8	-40.5	8.1	7.40e-01	0	24	104	0	50	23131
2026-01-09 12:28:17.41	224.69	4.81	-38.1	-40.8	7.8	7.39e-01	0	24	104	0	50	23954
2026-01-09 12:28:18.42	224.83	4.87	-38.4	-41.2	7.8	7.39e-01	0	24	104	0	50	24976
2026-01-09 12:28:19.43	224.96	4.93	-39.1	-42.0	7.4	7.41e-01	0	24	104	0	52	24450
2026-01-09 12:28:20.44	225.10	4.99	-40.2	-43.0	7.0	7.45e-01	0	24	104	0	54	24487
2026-01-09 12:28:21.45	225.24	5.05	-39.5	-42.4	7.5	7.40e-01	0	24	104	0	54	22918
2026-01-09 12:28:22.46	225.38	5.11	-38.9	-41.7	7.6	7.41e-01	0	24	104	0	52	23611
2026-01-09 12:28:23.47	225.52	5.17	-38.9	-41.7	7.6	7.43e-01	0	24	104	0	52	23558
2026-01-09 12:28:24.48	225.66	5.23	-41.8	-44.6	6.7	7.48e-01	0	24	104	0	58	23228
2026-01-09 12:28:25.49	225.80	5.29	-40.5	-43.4	7.0	7.44e-01	0	24	104	0	56	22699
2026-01-09 12:28:26.50	225.94	5.35	-41.3	-44.2	6.7	7.48e-01	0	24	104	0	56	25099
2026-01-09 12:28:27.51	226.08	5.41	-42.9	-45.7	6.3	7.51e-01	0	24	104	0	58	26488
2026-01-09 12:28:28.51	226.22	5.47	-42.9	-45.8	6.4	7.52e-01	0	24	104	0	60	23763
2026-01-09 12:28:29.52	226.37	5.54	-43.3	-46.2	6.2	7.52e-01	0	24	104	0	60	24935
2026-01-09 12:28:30.53	226.51	5.60	-43.8	-46.4	6.2	7.53e-01	0	24	104	0	60	25681
2026-01-09 12:28:31.54	226.66	5.66	-38.8	-41.6	7.7	7.41e-01	0	24	104	0	54	20723
2026-01-09 12:28:32.55	226.80	5.72	-41.0	-43.9	6.7	7.46e-01	0	24	104	0	52	30371
2026-01-09 12:28:33.56	226.95	5.78	-45.1	-47.8	6.2	7.54e-01	0	24	104	0	60	30048
2026-01-09 12:28:34.57	227.10	5.84	-42.1	-44.9	6.4	7.50e-01	0	24	104	0	58	24078
2026-01-09 12:28:35.58	227.24	5.90	-43.0	-45.7	6.3	7.52e-01	0	24	104	0	60	23668
2026-01-09 12:28:36.59	227.39	5.96	-43.4	-46.2	6.2	7.53e-01	0	24	104	0	60	24948
2026-01-09 12:28:37.60	227.54	6.02	-42.5	-45.2	6.5	7.50e-01	0	24	104	0	60	22410
2026-01-09 12:28:38.60	227.69	6.08	-45.4	-47.9	6.1	7.53e-01	0	24	104	0	60	30523
2026-01-09 12:28:39.61	227.84	6.14	-43.8	-46.6	6.2	7.53e-01	0	24	104	0	60	26103
2026-01-09 12:28:40.62	227.99	6.20	-44.5	-47.2	6.1	7.53e-01	0	24	104	0	60	27978
2026-01-09 12:28:41.63	228.15	6.26	-44.7	-47.5	6.1	7.53e-01	0	24	104	0	60	28975
2026-01-09 12:28:42.64	228.30	6.33	-44.9	-47.7	6.1	7.54e-01	0	24	104	0	60	29615
2026-01-09 12:28:43.65	228.45	6.39	-44.8	-47.5	6.1	7.53e-01	0	24	104	0	60	28904
2026-01-09 12:28:44.66	228.61	6.45	-45.1	-47.8	6.1	7.54e-01	0	24	104	0	60	29953
2026-01-09 12:28:45.67	228.76	6.51	-45.8	-48.3	6.1	7.54e-01	0	24	104	0	60	32014
2026-01-09 12:28:46.68	228.92	6.57	-45.7	-48.3	6.1	7.53e-01	0	24	104	0	60	31753
2026-01-09 12:28:47.68	229.08	6.63	-46.3	-48.8	6.1	7.54e-01	0	24	104	0	60	33814
2026-01-09 12:28:48.69	229.23	6.69	-45.9	-48.4	6.1	7.54e-01	0	24	104	0	60	32264
2026-01-09 12:28:49.70	229.39	6.75	-46.0	-48.6	6.1	7.55e-01	0	24	104	0	60	32834
2026-01-09 12:28:50.71	229.55	6.82	-45.0	-47.6	6.1	7.53e-01	0	24	104	0	60	29470
2026-01-09 12:28:51.72	229.71	6.88	-44.5	-47.2	6.2	7.53e-01	0	24	104	0	60	28170
2026-01-09 12:28:52.73	229.87	6.94	-45.3	-48.0	6.1	7.55e-01	0	24	104	0	60	30780
2026-01-09 12:28:53.74	230.04	7.00	-45.9	-48.5	6.1	7.54e-01	0	24	104	0	60	32693
2026-01-09 12:28:54.75	230.20	7.06	-45.9	-48.5	6.1	7.52e-01	0	24	104	0	60	32756
2026-01-09 12:28:55.76	230.36	7.12	-45.3	-48.0	6.1	7.54e-01	0	24	104	0	60	30852
2026-01-09 12:28:56.77	230.53	7.18	-45.2	-47.9	6.1	7.53e-01	0	24	104	0	60	30320
2026-01-09 12:28:57.78	230.69	7.25	-46.6	-49.1	6.1	7.54e-01	0	24	104	0	60	34979
2026-01-09 12:28:58.78	230.86	7.31	-46.6	-49.0	6.1	7.54e-01	0	24	104	0	60	34592
2026-01-09 12:28:59.79	231.02	7.37	-46.4	-48.9	6.1	7.54e-01	0	24	104	0	60	33985
2026-01-09 12:29:00.80	231.19	7.43	-46.6	-49.2	6.1	7.54e-01	0	24	104	0	60	35259
2026-01-09 12:29:01.81	231.36	7.49	-46.3	-48.8	6.0	7.54e-01	0	24	104	0	60	33772
2026-01-09 12:29:02.82	231.53	7.55	-46.1	-48.6	6.1	7.55e-01	0	24	104	0	60	33041
2026-01-09 12:29:03.83	231.70	7.61	-45.7	-48.3	6.1	7.53e-01	0	24	104	0	60	31937
2026-01-09 12:29:04.84	231.87	7.68	-43.0	-44.5	6.6	7.50e-01	0	24	104	0	60	20487
2026-01-09 12:29:05.85	232.04	7.74	-44.8	-46.7	6.1	7.54e-01	0	24	104	0	60	26637
2026-01-09 12:29:06.86	232.22	7.80	-44.1	-45.6	6.3	7.52e-01	0	24	104	0	60	23441
2026-01-09 12:29:07.87	232.39	7.86	-46.5	-49.0	6.1	7.55e-01	0	24	104	0	60	34550
2026-01-09 12:29:08.88	232.56	7.92	-43.7	-45.1	6.5	7.52e-01	0	24	104	0	60	22109
2026-01-09 12:29:09.89	232.74	7.98	-44.5	-46.2	6.3	7.51e-01	0	24	104	0	60	24889
2026-01-09 12:29:10.90	232.92	8.05	-46.1	-48.4	6.1	7.54e-01	0	24	104	0	60	32043
2026-01-09 12:29:11.91	233.09	8.11	-46.7	-49.1	6.1	7.54e-01	0	24	104	0	60	35069
2026-01-09 12:29:12.91	233.27	8.17	-46.3	-48.9	6.1	7.55e-01	0	24	104	0	60	33961
2026-01-09 12:29:13.92	233.45	8.23	-46.5	-49.0	6.1	7.55e-01	0	24	104	0	60	34574
2026-01-09 12:29:14.93	233.63	8.29	-45.2	-47.9	6.1	7.54e-01	0	24	104	0	60	30252
2026-01-09 12:29:15.94	233.81	8.35	-45.7	-48.3	6.1	7.55e-01	0	24	104	0	60	31842
2026-01-09 12:29:16.95	233.99	8.41	-46.6	-49.1	6.1	7.55e-01	0	24	104	0	60	34995
2026-01-09 12:29:17.96	234.17	8.48	-46.2	-48.8	6.1	7.53e-01	0	24	104	0	60	33626
2026-01-09 12:29:18.97	234.36	8.54	-46.1	-48.7	6.1	7.54e-01	0	24	104	0	60	33328
2026-01-09 12:29:19.98	234.54	8.60	-46.0	-48.6	6.1	7.54e-01	0	24	104	0	60	33017
2026-01-09 12:29:20.99	234.73	8.66	-46.5	-49.0	6.1	7.54e-01	0	24	104	0	60	34547
2026-01-09 12:29:22.00	234.91	8.72	-46.7	-49.2	6.1	7.53e-01	0	24	104	0	60	35385
2026-01-09 12:29:23.01	235.10	8.78	-46.3	-48.9	6.1	7.55e-01	0	24	104	0	60	34177
2026-01-09 12:29:24.02	235.29	8.84	-45.8	-48.5	6.1	7.53e-01	0	24	104	0	60	32580
2026-01-09 12:29:25.03	235.48	8.91	-46.5	-49.1	6.1	7.53e-01	0	24	104	0	60	34936
2026-01-09 12:29:26.03	235.67	8.97	-46.5	-49.0	6.1	7.54e-01	0	25	104	0	60	34516
2026-01-09 12:29:27.04	235.86	9.03	-45.9	-48.5	6.1	7.53e-01	0	24	104	0	60	32467
2026-01-09 12:29:28.05	236.05	9.09	-46.1	-48.7	6.1	7.54e-01	0	24	104	0	60	33425
2026-01-09 12:29:29.06	236.24	9.15	-46.5	-49.0	6.1	7.54e-01	0	24	104	0	60	34713
2026-01-09 12:29:30.07	236.44	9.21	-46.7	-49.2	6.1	7.54e-01	0	24	104	0	60	35422
2026-01-09 12:29:31.08	236.63	9.27	-46.9	-49.4	6.1	7.54e-01	0	24	104	0	60	36211
2026-01-09 12:29:32.09	236.83	9.33	-46.9	-49.4	6.1	7.55e-01	0	24	104	0	60	35940
2026-01-09 12:29:33.10	237.02	9.39	-46.9	-49.4	6.1	7.54e-01	0	24	104	0	60	36349
2026-01-09 12:29:34.11	237.22	9.45	-46.8	-49.3	6.1	7.54e-01	0	24	104	0	60	35768
2026-01-09 12:29:35.12	237.42	9.51	-46.7	-49.3	6.1	7.55e-01	0	24	104	0	60	35581
2026-01-09 12:29:36.13	237.62	9.58	-47.0	-49.4	6.1	7.53e-01	0	24	104	0	60	36211
2026-01-09 12:29:37.14	237.82	9.64	-46.9	-49.4	6.1	7.54e-01	0	24	104	0	60	36064
2026-01-09 12:29:38.15	238.02	9.70	-46.8	-49.3	6.1	7.53e-01	0	24	104	0	60	35843
2026-01-09 12:29:39.16	238.22	9.76	-46.9	-49.3	6.1	7.54e-01	0	24	104	0	60	35887
2026-01-09 12:29:40.17	238.43	9.82	-46.9	-49.4	6.1	7.55e-01	0	24	104	0	60	36115
2026-01-09 12:29:41.18	238.63	9.88	-46.4	-49.0	6.1	7.53e-01	0	24	104	0	60	34463
2026-01-09 12:29:42.18	238.84	9.94	-46.9	-49.3	6.1	7.55e-01	0	24	104	0	60	35930
2026-01-09 12:29:43.19	239.04	10.00	-47.0	-49.4	6.1	7.53e-01	0	25	104	0	60	36223
2026-01-09 12:29:44.21	239.25	10.06	-46.9	-49.4	6.1	7.54e-01	0	24	104	0	60	36003
2026-01-09 12:29:45.22	239.46	10.12	-46.5	-49.0	6.1	7.53e-01	0	24	104	0	60	34599
2026-01-09 12:29:46.23	239.67	10.18	-47.0	-49.5	6.1	7.54e-01	0	24	104	0	60	36400
2026-01-09 12:29:47.24	239.88	10.24	-47.0	-49.4	6.1	7.54e-01	0	24	104	0	60	36287
2026-01-09 12:29:48.25	240.09	10.30	-46.9	-49.4	6.1	7.55e-01	0	24	104	0	60	36264
2026-01-09 12:29:49.25	240.30	10.35	-46.9	-49.3	6.1	7.53e-01	0	24	104	0	60	35764
2026-01-09 12:29:50.26	240.51	10.41	-46.9	-49.4	6.1	7.54e-01	0	24	104	0	60	36157
2026-01-09 12:29:51.27	240.73	10.47	-46.7	-49.2	6.1	7.54e-01	0	24	104	0	60	35451
2026-01-09 12:29:52.28	240.94	10.53	-46.9	-49.4	6.0	7.55e-01	0	24	104	0	60	35999
2026-01-09 12:29:53.29	241.16	10.59	-46.8	-49.3	6.1	7.54e-01	0	24	104	0	60	35894
2026-01-09 12:29:54.30	241.38	10.65	-47.0	-49.5	6.1	7.55e-01	0	24	104	0	60	36675
2026-01-09 12:29:55.31	241.60	10.71	-46.9	-49.4	6.1	7.55e-01	0	24	104	0	60	36175
2026-01-09 12:29:56.32	241.82	10.77	-46.9	-49.4	6.1	7.53e-01	0	24	104	0	60	36237
2026-01-09 12:29:57.33	242.04	10.83	-47.0	-49.5	6.1	7.54e-01	0	24	104	0	60	36393
2026-01-09 12:29:58.34	242.26	10.88	-47.1	-49.6	6.1	7.53e-01	0	24	104	0	60	36812
2026-01-09 12:29:59.35	242.48	10.94	-47.0	-49.5	6.1	7.54e-01	0	24	104	0	60	36573
2026-01-09 12:30:00.36	242.71	11.00	-46.9	-49.4	6.1	7.54e-01	0	24	104	0	60	36156
2026-01-09 12:30:01.37	242.93	11.06	-47.1	-49.5	6.1	7.54e-01	0	24	104	0	60	36609
2026-01-09 12:30:02.38	243.16	11.11	-47.2	-49.7	6.1	7.56e-01	0	24	104	0	60	37362
2026-01-09 12:30:03.39	243.38	11.17	-47.2	-49.7	6.1	7.55e-01	0	24	104	0	60	37218
2026-01-09 12:30:04.40	243.61	11.23	-47.1	-49.5	6.1	7.53e-01	0	24	104	0	60	36533
2026-01-09 12:30:05.40	243.84	11.28	-47.1	-49.6	6.1	7.55e-01	0	24	104	0	60	36880
2026-01-09 12:30:06.41	244.07	11.34	-47.2	-49.7	6.1	7.54e-01	0	24	104	0	60	37512
2026-01-09 12:30:07.42	244.30	11.40	-47.2	-49.6	6.1	7.55e-01	0	24	104	0	60	37201
2026-01-09 12:30:08.43	244.53	11.45	-47.2	-49.6	6.1	7.55e-01	0	24	104	0	60	36943
2026-01-09 12:30:09.44	244.76	11.51	-47.2	-49.7	6.1	7.54e-01	0	24	104	0	60	37352
2026-01-09 12:30:10.45	245.00	11.57	-47.3	-49.8	6.1	7.53e-01	0	24	104	0	60	37757
2026-01-09 12:30:11.46	245.23	11.62	-47.3	-49.7	6.1	7.54e-01	0	24	104	0	60	37544
2026-01-09 12:30:12.47	245.47	11.68	-47.3	-49.7	6.1	7.54e-01	0	25	104	0	60	37414
2026-01-09 12:30:13.48	245.71	11.73	-47.2	-49.6	6.1	7.54e-01	0	25	104	0	60	37188
2026-01-09 12:30:14.49	245.94	11.79	-47.4	-49.9	6.1	7.55e-01	0	25	104	0	60	38127
2026-01-09 12:30:15.50	246.18	11.84	-47.3	-49.8	6.0	7.54e-01	0	25	104	0	60	37985
2026-01-09 12:30:16.51	246.42	11.90	-47.4	-49.9	6.1	7.54e-01	0	25	104	0	60	38091
2026-01-09 12:30:17.52	246.66	11.95	-47.2	-49.7	6.1	7.54e-01	0	25	104	0	60	37527
2026-01-09 12:30:18.53	246.91	12.01	-47.4	-49.8	6.1	7.54e-01	0	25	104	0	60	38014
2026-01-09 12:30:19.54	247.15	12.06	-47.4	-49.8	6.1	7.54e-01	0	25	104	0	60	38068
2026-01-09 12:30:20.54	247.39	12.11	-47.4	-49.9	6.1	7.54e-01	0	25	104	0	60	38266
2026-01-09 12:30:21.55	247.64	12.17	-47.3	-49.8	6.1	7.54e-01	0	25	104	0	60	38059
2026-01-09 12:30:22.56	247.88	12.22	-47.4	-49.9	6.1	7.55e-01	0	25	104	0	60	38431
2026-01-09 12:30:23.57	248.13	12.27	-47.4	-49.9	6.1	7.55e-01	0	25	104	0	60	38261
2026-01-09 12:30:24.58	248.38	12.32	-47.4	-49.8	6.1	7.55e-01	0	25	104	0	60	38030
2026-01-09 12:30:25.58	248.63	12.38	-47.4	-49.9	6.1	7.56e-01	0	25	104	0	60	38428
2026-01-09 12:30:26.59	248.88	12.43	-47.4	-49.9	6.1	7.55e-01	0	24	104	0	60	38376
2026-01-09 12:30:27.60	249.13	12.48	-47.4	-50.0	6.1	7.54e-01	0	24	104	0	60	38543
2026-01-09 12:30:28.61	249.38	12.53	-47.4	-50.0	6.1	7.55e-01	0	25	104	0	60	38531
2026-01-09 12:30:29.62	249.63	12.58	-47.5	-49.9	6.1	7.54e-01	0	25	104	0	60	38444
2026-01-09 12:30:30.63	249.89	12.63	-47.4	-49.9	6.1	7.54e-01	0	25	104	0	60	38447
2026-01-09 12:30:31.64	250.14	12.68	-47.5	-50.0	6.1	7.54e-01	0	25	104	0	60	38634
2026-01-09 12:30:32.65	250.40	12.73	-47.5	-50.0	6.1	7.54e-01	0	25	104	0	60	38531
2026-01-09 12:30:33.66	250.66	12.78	-47.4	-49.9	6.1	7.54e-01	0	25	104	0	60	38384
2026-01-09 12:30:34.67	250.92	12.83	-47.5	-50.0	6.1	7.55e-01	0	25	104	0	60	38769
2026-01-09 12:30:35.68	251.18	12.88	-47.4	-49.8	6.1	7.56e-01	0	25	104	0	60	38052
2026-01-09 12:30:36.69	251.44	12.93	-47.4	-49.9	6.1	7.55e-01	0	24	104	0	60	38402
2026-01-09 12:30:37.70	251.70	12.98	-47.5	-50.0	6.1	7.55e-01	0	24	104	0	60	38825
2026-01-09 12:30:38.71	251.96	13.02	-47.5	-50.0	6.1	7.54e-01	0	24	104	0	60	38581
2026-01-09 12:30:39.72	252.22	13.07	-47.5	-50.0	6.1	7.54e-01	0	24	104	0	60	38597
2026-01-09 12:30:40.73	252.49	13.12	-47.5	-50.0	6.1	7.55e-01	0	25	104	0	60	38834
2026-01-09 12:30:41.74	252.75	13.17	-47.5	-50.0	6.1	7.54e-01	0	25	104	0	60	38590
2026-01-09 12:30:42.75	253.02	13.21	-47.5	-50.0	6.1	7.54e-01	0	24	104	0	60	38716
2026-01-09 12:30:43.76	253.29	13.26	-47.5	-50.0	6.1	7.55e-01	0	25	104	0	60	38723
2026-01-09 12:30:44.77	253.56	13.30	-47.5	-50.0	6.1	7.54e-01	0	25	104	0	60	38642
2026-01-09 12:30:45.77	253.82	13.35	-47.4	-50.0	6.1	7.53e-01	0	25	104	0	60	38543
2026-01-09 12:30:46.78	254.09	13.39	-47.5	-50.0	6.0	7.55e-01	0	25	104	0	60	38633
2026-01-09 12:30:47.79	254.36	13.44	-47.5	-50.0	6.1	7.54e-01	0	25	104	0	60	38662
2026-01-09 12:30:48.80	254.64	13.48	-47.5	-50.0	6.1	7.54e-01	0	25	104	0	60	38592
2026-01-09 12:30:49.81	254.91	13.53	-47.5	-50.0	6.1	7.55e-01	0	25	104	0	60	38635
2026-01-09 12:30:50.82	255.18	13.57	-47.5	-49.9	6.1	7.53e-01	0	25	104	0	60	38437
2026-01-09 12:30:51.83	255.46	13.61	-47.5	-50.0	6.1	7.54e-01	0	25	104	0	60	38582
2026-01-09 12:30:52.84	255.73	13.65	-47.5	-50.0	6.1	7.55e-01	0	24	104	0	60	38608
2026-01-09 12:30:53.85	256.01	13.69	-47.5	-50.0	6.1	7.54e-01	0	24	104	0	60	38928
2026-01-09 12:30:54.86	256.29	13.74	-47.5	-50.1	6.1	7.54e-01	0	25	104	0	60	39088
2026-01-09 12:30:55.87	256.56	13.78	-47.6	-50.0	6.1	7.54e-01	0	24	104	0	60	38823
2026-01-09 12:30:56.88	256.84	13.82	-47.5	-50.0	6.1	7.53e-01	0	24	104	0	60	38718
2026-01-09 12:30:57.89	257.12	13.86	-47.6	-50.0	6.1	7.54e-01	0	24	104	0	60	38900
2026-01-09 12:30:58.90	257.40	13.90	-47.5	-50.0	6.1	7.54e-01	0	24	104	0	60	38555
2026-01-09 12:30:59.91	257.69	13.94	-47.6	-50.0	6.1	7.53e-01	0	24	104	0	60	38911
2026-01-09 12:31:00.92	257.97	13.97	-47.5	-50.0	6.1	7.54e-01	0	24	104	0	60	38589
2026-01-09 12:31:01.93	258.25	14.01	-47.5	-50.1	6.1	7.54e-01	0	24	104	0	60	38976
2026-01-09 12:31:02.93	258.53	14.05	-47.5	-50.0	6.1	7.54e-01	0	25	104	0	60	38744
2026-01-09 12:31:03.94	258.82	14.09	-47.6	-50.1	6.1	7.53e-01	0	24	104	0	60	39133
2026-01-09 12:31:04.95	259.10	14.12	-47.6	-50.1	6.1	7.55e-01	0	25	104	0	60	38961
2026-01-09 12:31:05.96	259.39	14.16	-47.6	-50.1	6.1	7.54e-01	0	25	104	0	60	39137
2026-01-09 12:31:06.97	259.68	14.19	-47.5	-50.0	6.1	7.54e-01	0	25	104	0	60	38885
2026-01-09 12:31:07.98	259.97	14.23	-47.6	-50.1	6.1	7.55e-01	0	25	104	0	60	38989
2026-01-09 12:31:08.99	260.26	14.26	-47.6	-50.1	6.1	7.53e-01	0	25	104	0	60	39054
2026-01-09 12:31:10.00	260.55	14.30	-47.5	-50.1	6.1	7.55e-01	0	25	104	0	60	39024
2026-01-09 12:31:11.01	260.84	14.33	-47.6	-50.0	6.1	7.55e-01	0	25	104	0	60	38916
2026-01-09 12:31:12.02	261.13	14.36	-47.6	-50.1	6.1	7.55e-01	0	25	104	0	60	39129
2026-01-09 12:31:13.03	261.42	14.39	-47.6	-50.0	6.1	7.54e-01	0	25	104	0	60	38671
2026-01-09 12:31:14.04	261.71	14.42	-47.6	-50.1	6.1	7.53e-01	0	25	104	0	60	39147
2026-01-09 12:31:15.05	262.01	14.46	-47.6	-50.1	6.1	7.53e-01	0	25	104	0	60	38989
2026-01-09 12:31:16.06	262.30	14.49	-47.6	-50.1	6.1	7.54e-01	0	25	104	0	60	39155
2026-01-09 12:31:17.07	262.59	14.52	-47.6	-50.1	6.1	7.54e-01	0	25	104	0	60	39000
2026-01-09 12:31:18.08	262.89	14.54	-47.6	-50.0	6.1	7.54e-01	0	24	104	0	60	38917
2026-01-09 12:31:19.09	263.19	14.57	-47.6	-50.1	6.1	7.54e-01	0	25	104	0	60	39021
2026-01-09 12:31:20.10	263.48	14.60	-47.6	-50.1	6.1	7.54e-01	0	25	104	0	60	39165
2026-01-09 12:31:21.11	263.78	14.63	-47.6	-50.1	6.1	7.54e-01	0	25	104	0	60	38997
2026-01-09 12:31:22.11	264.07	14.66	-47.6	-50.1	6.1	7.54e-01	0	25	104	0	60	39272
2026-01-09 12:31:23.12	264.37	14.68	-47.6	-50.1	6.1	7.55e-01	0	24	104	0	60	39003
2026-01-09 12:31:24.13	264.67	14.71	-47.6	-50.1	6.1	7.54e-01	0	25	104	0	60	39064
2026-01-09 12:31:25.14	264.97	14.73	-47.5	-50.0	6.1	7.54e-01	0	25	104	0	60	38772
2026-01-09 12:31:26.15	265.27	14.76	-47.6	-50.1	6.1	7.55e-01	0	25	104	0	60	39220
2026-01-09 12:31:27.16	265.57	14.78	-47.6	-50.1	6.1	7.54e-01	0	25	104	0	60	39163
2026-01-09 12:31:28.17	265.87	14.80	-47.6	-50.1	6.1	7.53e-01	0	25	104	0	60	39253
2026-01-09 12:31:29.18	266.18	14.82	-47.6	-50.0	6.1	7.54e-01	0	25	104	0	60	38896
2026-01-09 12:31:30.19	266.48	14.85	-47.6	-50.1	6.1	7.55e-01	0	25	104	0	60	39334
2026-01-09 12:31:31.20	266.78	14.87	-47.6	-50.0	6.0	7.54e-01	0	25	104	0	60	38786
2026-01-09 12:31:32.20	267.08	14.89	-47.6	-50.1	6.1	7.53e-01	0	25	104	0	60	39365
2026-01-09 12:31:33.22	267.39	14.91	-47.6	-50.1	6.1	7.54e-01	0	25	104	0	60	39046
2026-01-09 12:31:34.23	267.69	14.93	-47.6	-50.0	6.1	7.54e-01	0	25	104	0	60	38952
2026-01-09 12:31:35.24	268.00	14.95	-47.6	-50.1	6.1	7.53e-01	0	25	104	0	60	39071
2026-01-09 12:31:36.25	268.30	14.96	-47.6	-50.0	6.1	7.54e-01	0	25	104	0	60	38901
2026-01-09 12:31:37.26	268.61	14.98	-47.6	-50.1	6.1	7.53e-01	0	25	104	0	60	39056
2026-01-09 12:31:38.27	268.91	15.00	-47.6	-50.1	6.1	7.54e-01	0	24	104	0	60	39137
2026-01-09 12:31:39.28	269.22	15.01	-47.6	-50.0	6.1	7.55e-01	0	25	104	0	60	38711
2026-01-09 12:31:40.28	269.52	15.03	-47.6	-50.1	6.1	7.54e-01	0	25	104	0	60	39121
2026-01-09 12:31:41.29	269.83	15.04	-47.5	-50.0	6.1	7.53e-01	0	25	104	0	60	38570
2026-01-09 12:31:42.30	270.14	15.06	-47.5	-50.0	6.1	7.54e-01	0	25	104	0	60	38866
2026-01-09 12:31:43.31	270.44	15.07	-47.5	-50.0	6.1	7.55e-01	0	24	104	0	60	38574
2026-01-09 12:31:44.32	270.75	15.08	-47.5	-50.0	6.1	7.54e-01	0	25	104	0	60	38778
2026-01-09 12:31:45.33	271.06	15.09	-47.6	-50.0	6.1	7.54e-01	0	24	104	0	60	38819
2026-01-09 12:31:46.34	271.37	15.10	-47.5	-50.0	6.1	7.54e-01	0	25	104	0	60	38950
2026-01-09 12:31:47.35	271.68	15.12	-47.6	-50.1	6.1	7.54e-01	0	25	104	0	60	39301
2026-01-09 12:31:48.36	271.98	15.12	-47.6	-50.2	6.1	7.55e-01	0	24	104	0	60	39487
2026-01-09 12:31:49.37	272.29	15.13	-47.6	-50.1	6.1	7.54e-01	0	25	104	0	60	39121
2026-01-09 12:31:50.38	272.60	15.14	-47.6	-50.1	6.1	7.53e-01	0	25	104	0	60	39380
2026-01-09 12:31:51.39	272.91	15.15	-47.6	-50.1	6.1	7.53e-01	0	25	104	0	60	39323
2026-01-09 12:31:52.40	273.22	15.16	-47.6	-50.0	6.1	7.54e-01	0	25	104	0	60	38815
2026-01-09 12:31:53.40	273.53	15.16	-47.6	-50.1	6.1	7.54e-01	0	24	104	0	60	39325
2026-01-09 12:31:54.41	273.84	15.17	-47.6	-50.1	6.1	7.55e-01	0	25	104	0	60	39287
2026-01-09 12:31:55.42	274.15	15.17	-47.6	-50.1	6.1	7.55e-01	0	25	104	0	60	39195
2026-01-09 12:31:56.43	274.46	15.18	-47.6	-50.1	6.1	7.55e-01	0	24	104	0	60	39227
2026-01-09 12:31:57.44	274.77	15.18	-47.6	-50.1	6.1	7.54e-01	0	25	104	0	60	39100
2026-01-09 12:31:58.45	275.08	15.18	-47.6	-50.1	6.1	7.55e-01	0	25	104	0	60	39088
2026-01-09 12:31:59.46	275.39	15.19	-47.6	-50.1	6.1	7.54e-01	0	25	104	0	60	38972
2026-01-09 12:32:00.47	275.70	15.19	-47.6	-50.1	6.1	7.54e-01	0	25	104	0	60	39199
2026-01-09 12:32:01.48	276.01	15.19	-47.6	-50.1	6.1	7.53e-01	0	25	104	0	60	39177
2026-01-09 12:32:02.49	276.32	15.19	-47.6	-50.1	6.1	7.54e-01	0	25	104	0	60	39267
2026-01-09 12:32:03.50	276.63	15.19	-47.6	-50.1	6.1	7.55e-01	0	25	104	0	60	39104
2026-01-09 12:32:04.51	276.94	15.18	-47.6	-50.1	6.1	7.55e-01	0	25	104	0	60	39045
2026-01-09 12:32:05.52	277.25	15.18	-47.6	-50.0	6.1	7.54e-01	0	25	104	0	60	38853
2026-01-09 12:32:06.53	277.56	15.18	-47.6	-50.1	6.1	7.53e-01	0	25	104	0	60	39245
2026-01-09 12:32:07.54	277.87	15.18	-47.6	-50.1	6.1	7.53e-01	0	25	104	0	60	39225
2026-01-09 12:32:08.54	278.18	15.17	-47.6	-50.0	6.1	7.54e-01	0	25	104	0	60	38894
2026-01-09 12:32:09.56	278.49	15.17	-47.6	-50.1	6.1	7.55e-01	0	25	104	0	60	39054
2026-01-09 12:32:10.56	278.80	15.16	-47.6	-50.1	6.0	7.54e-01	0	25	104	0	60	39119
2026-01-09 12:32:11.57	279.11	15.15	-47.5	-50.0	6.1	7.55e-01	0	25	104	0	60	38762
2026-01-09 12:32:12.58	279.41	15.15	-47.5	-50.0	6.1	7.54e-01	0	25	104	0	60	38810
2026-01-09 12:32:13.59	279.72	15.14	-47.6	-50.1	6.1	7.54e-01	0	25	104	0	60	39198
2026-01-09 12:32:14.60	280.03	15.13	-47.6	-50.1	6.1	7.53e-01	0	25	104	0	60	39221
2026-01-09 12:32:15.61	280.34	15.12	-47.6	-50.1	6.1	7.54e-01	0	25	104	0	60	38995
2026-01-09 12:32:16.62	280.65	15.11	-47.6	-50.1	6.1	7.55e-01	0	25	104	0	60	39129
2026-01-09 12:32:17.63	280.96	15.10	-47.6	-50.1	6.1	7.53e-01	0	25	104	0	60	39163
2026-01-09 12:32:18.64	281.27	15.09	-47.5	-50.0	6.1	7.54e-01	0	25	104	0	60	38930
2026-01-09 12:32:19.65	281.57	15.08	-47.6	-50.0	6.1	7.54e-01	0	25	104	0	60	38842
2026-01-09 12:32:20.66	281.88	15.06	-47.6	-50.1	6.1	7.54e-01	0	25	104	0	60	39057
2026-01-09 12:32:21.66	282.19	15.05	-47.6	-50.1	6.1	7.55e-01	0	25	104	0	60	39215
2026-01-09 12:32:22.68	282.49	15.04	-47.6	-50.1	6.1	7.54e-01	0	25	104	0	60	39030
2026-01-09 12:32:23.68	282.80	15.02	-47.5	-50.0	6.1	7.54e-01	0	25	104	0	60	38810
2026-01-09 12:32:24.69	283.10	15.01	-47.6	-50.1	6.1	7.55e-01	0	25	104	0	60	38978
2026-01-09 12:32:25.70	283.41	14.99	-47.5	-50.0	6.1	7.54e-01	0	25	104	0	60	38955
2026-01-09 12:32:26.71	283.72	14.97	-47.5	-50.1	6.1	7.54e-01	0	25	104	0	60	39052
2026-01-09 12:32:27.72	284.02	14.96	-47.6	-50.1	6.1	7.55e-01	0	25	104	0	60	39162
2026-01-09 12:32:28.73	284.32	14.94	-47.6	-50.1	6.1	7.54e-01	0	25	104	0	60	39040
2026-01-09 12:32:29.74	284.63	14.92	-47.5	-50.0	6.1	7.54e-01	0	25	104	0	60	38880
2026-01-09 12:32:30.75	284.93	14.90	-47.5	-50.0	6.1	7.55e-01	0	25	104	0	60	38847
2026-01-09 12:32:31.76	285.23	14.88	-47.6	-50.1	6.1	7.55e-01	0	25	104	0	60	39002
2026-01-09 12:32:32.77	285.54	14.86	-47.6	-50.0	6.1	7.54e-01	0	25	104	0	60	38938
2026-01-09 12:32:33.78	285.84	14.84	-47.5	-50.1	6.1	7.53e-01	0	25	104	0	60	39017
2026-01-09 12:32:34.78	286.14	14.82	-47.6	-50.1	6.1	7.53e-01	0	25	104	0	60	39127
2026-01-09 12:32:35.80	286.44	14.79	-47.6	-50.0	6.1	7.54e-01	0	25	104	0	60	38896
2026-01-09 12:32:36.80	286.74	14.77	-47.6	-50.0	6.1	7.55e-01	0	25	104	0	60	38900
2026-01-09 12:32:37.81	287.04	14.75	-47.5	-50.1	6.1	7.55e-01	0	25	104	0	60	39087
2026-01-09 12:32:38.82	287.34	14.72	-47.5	-50.1	6.1	7.54e-01	0	25	104	0	60	38970
2026-01-09 12:32:39.83	287.64	14.70	-47.6	-50.1	6.1	7.53e-01	0	25	104	0	60	38956
2026-01-09 12:32:40.84	287.94	14.67	-47.5	-50.0	6.1	7.54e-01	0	25	104	0	60	38875
2026-01-09 12:32:41.85	288.23	14.65	-47.4	-50.1	6.1	7.54e-01	0	25	104	0	60	38977
2026-01-09 12:32:42.86	288.53	14.62	-47.6	-50.1	6.1	7.53e-01	0	25	104	0	60	39129
2026-01-09 12:32:43.87	288.83	14.59	-47.6	-50.1	6.1	7.53e-01	0	25	104	0	60	38990
2026-01-09 12:32:44.88	289.12	14.56	-47.6	-50.0	6.1	7.53e-01	0	25	104	0	60	38781
2026-01-09 12:32:45.89	289.42	14.54	-47.4	-50.0	6.1	7.54e-01	0	25	104	0	60	38952
2026-01-09 12:32:46.90	289.71	14.51	-47.5	-50.1	6.1	7.54e-01	0	25	104	0	60	39181
2026-01-09 12:32:47.91	290.01	14.48	-47.5	-50.0	6.1	7.53e-01	0	25	104	0	60	38938
2026-01-09 12:32:48.92	290.30	14.45	-47.6	-50.0	6.1	7.54e-01	0	25	104	0	60	38937
2026-01-09 12:32:49.93	290.59	14.42	-47.4	-50.0	6.1	7.54e-01	0	25	104	0	60	38785
2026-01-09 12:32:50.94	290.88	14.38	-47.5	-50.1	6.1	7.54e-01	0	25	104	0	60	39079
2026-01-09 12:32:51.94	291.17	14.35	-47.6	-50.1	6.1	7.55e-01	0	25	104	0	60	39110
2026-01-09 12:32:52.96	291.46	14.32	-47.5	-50.0	6.1	7.53e-01	0	25	104	0	60	38616
2026-01-09 12:32:53.96	291.75	14.29	-47.5	-50.0	6.1	7.54e-01	0	25	104	0	60	38931
2026-01-09 12:32:54.97	292.04	14.25	-47.5	-50.0	6.1	7.55e-01	0	25	104	0	60	38845
2026-01-09 12:32:55.98	292.33	14.22	-47.6	-50.0	6.1	7.55e-01	0	25	104	0	60	38903
2026-01-09 12:32:56.99	292.61	14.18	-47.6	-50.1	6.1	7.55e-01	0	25	104	0	60	38987
2026-01-09 12:32:58.00	292.90	14.15	-47.4	-50.0	6.1	7.55e-01	0	25	104	0	60	38825
2026-01-09 12:32:59.01	293.19	14.11	-47.6	-50.1	6.1	7.54e-01	0	25	104	0	60	39160
2026-01-09 12:33:00.02	293.47	14.08	-47.6	-50.0	6.1	7.55e-01	0	25	104	0	60	38904
2026-01-09 12:33:01.03	293.75	14.04	-47.6	-50.0	6.1	7.54e-01	0	25	104	0	60	38938
2026-01-09 12:33:02.04	294.04	14.00	-47.5	-50.1	6.1	7.54e-01	0	25	104	0	60	39105
2026-01-09 12:33:03.05	294.32	13.96	-47.5	-50.1	6.1	7.54e-01	0	25	104	0	60	39025
2026-01-09 12:33:04.06	294.60	13.93	-47.6	-50.0	6.1	7.55e-01	0	25	104	0	60	38816
2026-01-09 12:33:05.07	294.88	13.89	-47.6	-50.1	6.1	7.54e-01	0	25	104	0	60	39012
2026-01-09 12:33:06.08	295.16	13.85	-47.5	-50.0	6.1	7.53e-01	0	25	104	0	60	38942
2026-01-09 12:33:07.09	295.44	13.81	-47.6	-50.0	6.1	7.55e-01	0	25	104	0	60	38868
2026-01-09 12:33:08.09	295.72	13.77	-47.6	-50.1	6.1	7.54e-01	0	25	104	0	60	38966
2026-01-09 12:33:09.10	295.99	13.73	-47.5	-50.0	6.1	7.55e-01	0	25	104	0	60	38571
2026-01-09 12:33:10.11	296.27	13.69	-47.5	-50.0	6.1	7.53e-01	0	25	104	0	60	38894
2026-01-09 12:33:11.12	296.54	13.64	-47.6	-50.1	6.1	7.55e-01	0	25	104	0	60	39003
2026-01-09 12:33:12.13	296.82	13.60	-47.6	-50.1	6.1	7.53e-01	0	25	104	0	60	39018
2026-01-09 12:33:13.14	297.09	13.56	-47.5	-50.0	6.1	7.54e-01	0	25	104	0	60	38762
2026-01-09 12:33:14.15	297.37	13.52	-47.5	-50.0	6.1	7.55e-01	0	25	104	0	60	38750
2026-01-09 12:33:15.16	297.64	13.47	-47.5	-50.0	6.1	7.54e-01	0	25	104	0	60	38740
2026-01-09 12:33:16.17	297.91	13.43	-47.6	-50.0	6.1	7.54e-01	0	25	104	0	60	38759
2026-01-09 12:33:17.18	298.18	13.38	-47.4	-49.9	6.1	7.54e-01	0	25	104	0	60	38405
2026-01-09 12:33:18.19	298.45	13.34	-47.5	-50.0	6.1	7.54e-01	0	25	104	0	60	38923
2026-01-09 12:33:19.20	298.71	13.29	-47.5	-50.0	6.1	7.55e-01	0	25	104	0	60	38616
2026-01-09 12:33:20.21	298.98	13.25	-47.6	-50.0	6.1	7.53e-01	0	25	104	0	60	38755
2026-01-09 12:33:21.22	299.25	13.20	-47.4	-49.9	6.1	7.55e-01	0	25	104	0	60	38506
2026-01-09 12:33:22.23	299.51	13.16	-47.5	-50.0	6.1	7.54e-01	0	25	104	0	60	38835
2026-01-09 12:33:23.24	299.78	13.11	-47.4	-49.9	6.1	7.54e-01	0	25	104	0	60	38492
2026-01-09 12:33:24.25	300.04	13.06	-47.5	-50.0	6.1	7.54e-01	0	25	104	0	60	38913
2026-01-09 12:33:25.26	300.30	13.02	-47.5	-49.9	6.1	7.54e-01	0	25	104	0	60	38348
2026-01-09 12:33:26.27	300.56	12.97	-47.5	-50.0	6.1	7.54e-01	0	25	104	0	60	38843
2026-01-09 12:33:27.28	300.82	12.92	-47.3	-49.9	6.1	7.56e-01	0	25	104	0	60	38200
2026-01-09 12:33:28.29	301.08	12.87	-47.4	-49.9	6.1	7.55e-01	0	25	104	0	60	38239
2026-01-09 12:33:29.30	301.34	12.82	-47.4	-49.9	6.1	7.54e-01	0	25	104	0	60	38137
2026-01-09 12:33:30.31	301.60	12.77	-47.4	-49.9	6.1	7.56e-01	0	25	104	0	60	38366
2026-01-09 12:33:31.32	301.85	12.72	-47.3	-49.8	6.1	7.55e-01	0	25	104	0	60	37892
2026-01-09 12:33:32.33	302.11	12.67	-47.3	-49.8	6.1	7.55e-01	0	25	104	0	60	37917
2026-01-09 12:33:33.33	302.36	12.63	-47.3	-49.8	6.1	7.55e-01	0	25	104	0	60	37784
2026-01-09 12:33:34.34	302.61	12.57	-47.4	-49.9	6.1	7.56e-01	0	25	104	0	60	38323
2026-01-09 12:33:35.35	302.87	12.52	-47.1	-49.6	6.1	7.54e-01	0	25	104	0	60	37164
2026-01-09 12:33:36.36	303.12	12.47	-47.1	-49.7	6.1	7.54e-01	0	25	104	0	60	37285
2026-01-09 12:33:37.37	303.37	12.42	-47.1	-49.7	6.1	7.54e-01	0	25	104	0	60	37224
2026-01-09 12:33:38.38	303.62	12.37	-47.3	-49.8	6.1	7.54e-01	0	25	104	0	60	37904
2026-01-09 12:33:39.39	303.86	12.32	-46.9	-49.5	6.1	7.54e-01	0	25	104	0	60	36626
2026-01-09 12:33:40.40	304.11	12.27	-47.1	-49.6	6.1	7.55e-01	0	25	104	0	60	37193
2026-01-09 12:33:41.41	304.36	12.21	-47.0	-49.5	6.1	7.53e-01	0	25	104	0	60	36396
2026-01-09 12:33:42.42	304.60	12.16	-47.1	-49.6	6.1	7.54e-01	0	25	104	0	60	37169
2026-01-09 12:33:43.43	304.85	12.11	-46.9	-49.4	6.1	7.54e-01	0	25	104	0	60	36305
2026-01-09 12:33:44.44	305.09	12.05	-46.8	-49.4	6.1	7.54e-01	0	25	104	0	60	36057
2026-01-09 12:33:45.45	305.33	12.00	-47.0	-49.5	6.1	7.55e-01	0	25	104	0	60	36670
2026-01-09 12:33:46.45	305.57	11.95	-46.9	-49.5	6.1	7.54e-01	0	25	104	0	60	36613
2026-01-09 12:33:47.47	305.81	11.89	-46.7	-49.3	6.0	7.53e-01	0	25	104	0	60	35810
2026-01-09 12:33:48.47	306.05	11.84	-46.7	-49.2	6.1	7.54e-01	0	25	104	0	60	35464
2026-01-09 12:33:49.48	306.29	11.78	-46.9	-49.4	6.1	7.54e-01	0	25	104	0	60	36296
2026-01-09 12:33:50.49	306.52	11.73	-47.0	-49.6	6.1	7.55e-01	0	25	104	0	60	36832
2026-01-09 12:33:51.50	306.76	11.67	-46.7	-49.3	6.1	7.55e-01	0	25	104	0	60	35884
2026-01-09 12:33:52.51	306.99	11.62	-46.9	-49.5	6.1	7.54e-01	0	25	104	0	60	36519
2026-01-09 12:33:53.52	307.23	11.56	-46.8	-49.4	6.1	7.54e-01	0	25	104	0	60	36276
2026-01-09 12:33:54.53	307.46	11.51	-46.9	-49.6	6.1	7.55e-01	0	25	104	0	60	36857
2026-01-09 12:33:55.54	307.69	11.45	-46.7	-49.3	6.1	7.53e-01	0	25	104	0	60	35793
2026-01-09 12:33:56.55	307.92	11.40	-46.9	-49.5	6.1	7.54e-01	0	25	104	0	60	36398
2026-01-09 12:33:57.56	308.15	11.34	-46.9	-49.5	6.1	7.53e-01	0	25	104	0	60	36637
2026-01-09 12:33:58.57	308.38	11.28	-46.8	-49.5	6.1	7.53e-01	0	25	104	0	60	36711
2026-01-09 12:33:59.58	308.61	11.23	-47.1	-49.7	6.1	7.55e-01	0	25	104	0	60	37229
2026-01-09 12:34:00.59	308.83	11.17	-47.0	-49.6	6.1	7.55e-01	0	25	104	0	60	36920
2026-01-09 12:34:01.60	309.06	11.11	-47.1	-49.7	6.1	7.53e-01	0	25	104	0	60	37468
2026-01-09 12:34:02.61	309.28	11.06	-47.1	-49.7	6.1	7.54e-01	0	25	104	0	60	37576
2026-01-09 12:34:03.62	309.51	11.00	-47.1	-49.7	6.1	7.55e-01	0	25	104	0	60	37497
2026-01-09 12:34:04.63	309.73	10.94	-47.2	-49.7	6.1	7.54e-01	0	25	104	0	60	37610
2026-01-09 12:34:05.64	309.95	10.88	-47.1	-49.7	6.1	7.53e-01	0	25	104	0	60	37428
2026-01-09 12:34:06.65	310.17	10.83	-47.1	-49.8	6.1	7.55e-01	0	25	104	0	60	37730
2026-01-09 12:34:07.65	310.39	10.77	-47.1	-49.7	6.1	7.54e-01	0	25	104	0	60	37433
2026-01-09 12:34:08.66	310.61	10.71	-47.3	-49.8	6.1	7.55e-01	0	25	104	0	60	37931
2026-01-09 12:34:09.67	310.83	10.65	-47.1	-49.7	6.1	7.53e-01	0	25	104	0	60	37459
2026-01-09 12:34:10.68	311.04	10.59	-47.2	-49.8	6.1	7.53e-01	0	25	104	0	60	37817
2026-01-09 12:34:11.69	311.26	10.54	-47.1	-49.6	6.1	7.54e-01	0	25	104	0	60	37103
2026-01-09 12:34:12.70	311.47	10.48	-47.3	-49.8	6.1	7.55e-01	0	25	104	0	60	37829
2026-01-09 12:34:13.71	311.68	10.42	-47.1	-49.7	6.1	7.54e-01	0	25	104	0	60	37331
2026-01-09 12:34:14.72	311.90	10.36	-47.2	-49.7	6.1	7.54e-01	0	25	104	0	60	37423
2026-01-09 12:34:15.72	312.11	10.30	-47.2	-49.7	6.1	7.54e-01	0	25	104	0	60	37583
2026-01-09 12:34:16.73	312.32	10.24	-47.1	-49.6	6.1	7.54e-01	0	25	104	0	60	37135
2026-01-09 12:34:17.74	312.53	10.18	-47.1	-49.6	6.1	7.55e-01	0	25	104	0	60	37187
2026-01-09 12:34:18.75	312.73	10.12	-47.2	-49.8	6.1	7.55e-01	0	25	104	0	60	37681
2026-01-09 12:34:19.76	312.94	10.06	-47.2	-49.8	6.1	7.54e-01	0	25	104	0	60	37761
2026-01-09 12:34:20.77	313.15	10.00	-47.2	-49.7	6.1	7.55e-01	0	25	104	0	60	37489
2026-01-09 12:34:21.78	313.35	9.94	-47.2	-49.8	6.1	7.55e-01	0	25	104	0	60	37873
2026-01-09 12:34:22.79	313.56	9.89	-47.2	-49.8	6.1	7.54e-01	0	25	104	0	60	37754
2026-01-09 12:34:23.79	313.76	9.83	-47.3	-49.8	6.1	7.55e-01	0	25	104	0	60	37835
2026-01-09 12:34:24.80	313.96	9.77	-47.3	-49.8	6.1	7.55e-01	0	25	104	0	60	37777
2026-01-09 12:34:25.82	314.16	9.71	-47.3	-49.8	6.1	7.54e-01	0	25	104	0	60	37839
2026-01-09 12:34:26.82	314.36	9.65	-47.4	-49.9	6.1	7.53e-01	0	25	104	0	60	38095
2026-01-09 12:34:27.83	314.56	9.59	-47.3	-49.8	6.1	7.54e-01	0	25	104	0	60	37635
2026-01-09 12:34:28.84	314.76	9.53	-47.2	-49.7	6.1	7.55e-01	0	25	104	0	60	37440
2026-01-09 12:34:29.85	314.96	9.47	-47.3	-49.8	6.1	7.55e-01	0	25	104	0	60	37839
2026-01-09 12:34:30.86	315.15	9.40	-47.3	-49.8	6.1	7.55e-01	0	25	104	0	60	37983
2026-01-09 12:34:31.87	315.35	9.34	-47.3	-49.8	6.1	7.55e-01	0	25	104	0	60	37811
2026-01-09 12:34:32.88	315.54	9.28	-47.1	-49.6	6.1	7.54e-01	0	25	104	0	60	37076
2026-01-09 12:34:33.89	315.74	9.22	-47.3	-49.8	6.1	7.56e-01	0	25	104	0	60	37698
2026-01-09 12:34:34.90	315.93	9.16	-47.2	-49.7	6.1	7.54e-01	0	25	104	0	60	37287
2026-01-09 12:34:35.91	316.12	9.10	-47.2	-49.8	6.1	7.55e-01	0	25	104	0	60	37638
2026-01-09 12:34:36.92	316.31	9.04	-47.2	-49.7	6.1	7.55e-01	0	25	104	0	60	37425
2026-01-09 12:34:37.92	316.50	8.98	-47.2	-49.7	6.1	7.53e-01	0	25	104	0	60	37553
2026-01-09 12:34:38.94	316.69	8.92	-47.2	-49.7	6.0	7.54e-01	0	25	104	0	60	37433
2026-01-09 12:34:39.95	316.88	8.86	-47.3	-49.8	6.1	7.54e-01	0	25	104	0	60	38022
2026-01-09 12:34:40.95	317.07	8.80	-47.2	-49.7	6.1	7.53e-01	0	25	104	0	60	37474
2026-01-09 12:34:41.96	317.25	8.74	-47.2	-49.7	6.1	7.55e-01	0	25	104	0	60	37489
2026-01-09 12:34:42.97	317.44	8.68	-47.2	-49.7	6.1	7.54e-01	0	25	104	0	60	37341
2026-01-09 12:34:43.98	317.62	8.62	-47.2	-49.7	6.1	7.54e-01	0	25	104	0	60	37278
2026-01-09 12:34:44.99	317.80	8.56	-47.1	-49.6	6.1	7.55e-01	0	25	104	0	60	36903
2026-01-09 12:34:46.00	317.99	8.49	-47.0	-49.6	6.1	7.54e-01	0	25	104	0	60	36855
2026-01-09 12:34:47.01	318.17	8.43	-47.0	-49.5	6.1	7.54e-01	0	25	104	0	60	36671
2026-01-09 12:34:48.02	318.35	8.37	-47.2	-49.6	6.1	7.54e-01	0	25	104	0	60	37177
2026-01-09 12:34:49.03	318.53	8.31	-47.0	-49.5	6.1	7.54e-01	0	25	104	0	60	36540
2026-01-09 12:34:50.04	318.71	8.25	-47.1	-49.6	6.1	7.54e-01	0	25	104	0	60	37197
2026-01-09 12:34:51.05	318.89	8.19	-47.1	-49.6	6.1	7.56e-01	0	25	104	0	60	36932
2026-01-09 12:34:52.06	319.06	8.13	-47.0	-49.5	6.1	7.54e-01	0	25	104	0	60	36493
2026-01-09 12:34:53.07	319.24	8.07	-47.0	-49.5	6.1	7.55e-01	0	25	104	0	60	36727
2026-01-09 12:34:54.08	319.42	8.01	-47.2	-49.7	6.1	7.54e-01	0	25	104	0	60	37533
2026-01-09 12:34:55.09	319.59	7.94	-47.1	-49.6	6.1	7.53e-01	0	25	104	0	60	36869
2026-01-09 12:34:56.10	319.76	7.88	-47.1	-49.5	6.1	7.53e-01	0	25	104	0	60	36657
2026-01-09 12:34:57.11	319.94	7.82	-47.1	-49.6	6.1	7.54e-01	0	25	104	0	60	36792
2026-01-09 12:34:58.12	320.11	7.76	-47.2	-49.7	6.1	7.54e-01	0	25	104	0	60	37408
2026-01-09 12:34:59.13	320.28	7.70	-47.1	-49.6	6.1	7.55e-01	0	25	104	0	60	37197
2026-01-09 12:35:00.14	320.45	7.64	-47.0	-49.5	6.1	7.55e-01	0	25	104	0	60	36586
2026-01-09 12:35:01.15	320.62	7.58	-47.1	-49.5	6.1	7.54e-01	0	25	104	0	60	36764
2026-01-09 12:35:02.16	320.79	7.52	-47.1	-49.6	6.1	7.54e-01	0	25	104	0	60	37002
2026-01-09 12:35:03.17	320.96	7.46	-47.0	-49.5	6.1	7.56e-01	0	25	104	0	60	36769
2026-01-09 12:35:04.18	321.12	7.39	-47.1	-49.6	6.1	7.54e-01	0	25	104	0	60	36881
2026-01-09 12:35:05.19	321.29	7.33	-47.0	-49.5	6.1	7.53e-01	0	25	104	0	60	36513
2026-01-09 12:35:06.20	321.45	7.27	-47.1	-49.6	6.1	7.53e-01	0	25	104	0	60	37058
2026-01-09 12:35:07.21	321.62	7.21	-47.1	-49.6	6.1	7.56e-01	0	25	104	0	60	36928
2026-01-09 12:35:08.22	321.78	7.15	-47.0	-49.5	6.1	7.54e-01	0	25	104	0	60	36578
2026-01-09 12:35:09.23	321.95	7.09	-46.9	-49.4	6.1	7.53e-01	0	25	104	0	60	36123
2026-01-09 12:35:10.24	322.11	7.03	-47.1	-49.6	6.1	7.55e-01	0	25	104	0	60	37127
2026-01-09 12:35:11.25	322.27	6.97	-47.0	-49.5	6.1	7.55e-01	0	25	104	0	60	36721
2026-01-09 12:35:12.25	322.43	6.91	-47.1	-49.6	6.1	7.55e-01	0	25	104	0	60	36800
2026-01-09 12:35:13.26	322.59	6.85	-47.0	-49.5	6.1	7.53e-01	0	25	104	0	60	36486
2026-01-09 12:35:14.27	322.75	6.78	-47.1	-49.6	6.1	7.55e-01	0	25	104	0	60	37057
2026-01-09 12:35:15.28	322.90	6.72	-47.0	-49.5	6.1	7.54e-01	0	25	104	0	60	36503
2026-01-09 12:35:16.29	323.06	6.66	-47.1	-49.5	6.1	7.54e-01	0	25	104	0	60	36566
2026-01-09 12:35:17.30	323.22	6.60	-46.9	-49.4	6.1	7.55e-01	0	25	104	0	60	36187
2026-01-09 12:35:18.31	323.37	6.54	-47.0	-49.6	6.1	7.53e-01	0	25	104	0	60	36955
2026-01-09 12:35:19.32	323.53	6.48	-46.9	-49.4	6.1	7.54e-01	0	25	104	0	60	36185
2026-01-09 12:35:20.32	323.68	6.42	-46.9	-49.4	6.1	7.54e-01	0	25	104	0	60	36219
2026-01-09 12:35:21.33	323.83	6.36	-46.9	-49.4	6.1	7.54e-01	0	25	104	0	60	36009
2026-01-09 12:35:22.34	323.99	6.30	-47.1	-49.6	6.1	7.55e-01	0	25	104	0	60	36780
2026-01-09 12:35:23.34	324.14	6.24	-47.0	-49.4	6.1	7.55e-01	0	25	104	0	60	36299
2026-01-09 12:35:24.35	324.29	6.18	-46.9	-49.4	6.1	7.55e-01	0	25	104	0	60	36067
2026-01-09 12:35:25.36	324.44	6.12	-46.9	-49.3	6.1	7.54e-01	0	25	104	0	60	35920
2026-01-09 12:35:26.37	324.59	6.06	-47.0	-49.6	6.1	7.54e-01	0	25	104	0	60	36806
2026-01-09 12:35:27.38	324.74	6.00	-46.9	-49.3	6.1	7.53e-01	0	25	104	0	60	35916
2026-01-09 12:35:28.39	324.89	5.94	-46.9	-49.4	6.1	7.53e-01	0	25	104	0	60	36153
2026-01-09 12:35:29.40	325.03	5.88	-46.8	-49.3	6.1	7.55e-01	0	25	104	0	60	35764
2026-01-09 12:35:30.41	325.18	5.82	-46.8	-49.4	6.1	7.53e-01	0	25	104	0	60	35965
2026-01-09 12:35:31.42	325.33	5.76	-46.7	-49.2	6.1	7.55e-01	0	25	104	0	60	35225
2026-01-09 12:35:32.42	325.47	5.70	-46.8	-49.3	6.1	7.54e-01	0	25	104	0	60	35905
2026-01-09 12:35:33.43	325.61	5.64	-46.6	-49.1	6.1	7.55e-01	0	25	104	0	60	35061
2026-01-09 12:35:34.44	325.76	5.58	-46.5	-49.1	6.1	7.55e-01	0	25	104	0	60	34719
2026-01-09 12:35:35.35	325.89	5.52	-46.5	-49.1	6.1	7.54e-01	0	25	104	0	60	35004
2026-01-09 12:35:36.35	326.03	5.46	-46.6	-49.1	6.1	7.53e-01	0	25	104	0	60	35009
2026-01-09 12:35:37.36	326.17	5.40	-46.8	-49.2	6.1	7.56e-01	0	25	104	0	60	35511
2026-01-09 12:35:38.37	326.31	5.34	-46.5	-49.2	6.1	7.54e-01	0	25	104	0	60	35152
2026-01-09 12:35:39.38	326.45	5.28	-46.7	-49.2	6.1	7.52e-01	0	25	104	0	60	35222
2026-01-09 12:35:40.39	326.59	5.22	-46.7	-49.2	6.1	7.55e-01	0	25	104	0	60	35385
2026-01-09 12:35:41.40	326.73	5.16	-46.7	-49.2	6.1	7.55e-01	0	25	104	0	60	35276
2026-01-09 12:35:42.41	326.87	5.10	-46.7	-49.3	6.1	7.55e-01	0	25	104	0	60	35665
2026-01-09 12:35:43.42	327.01	5.04	-46.7	-49.2	6.1	7.54e-01	0	25	104	0	60	35292
2026-01-09 12:35:44.43	327.14	4.99	-46.8	-49.2	6.1	7.53e-01	0	25	104	0	60	35427
2026-01-09 12:35:45.44	327.28	4.93	-46.8	-49.2	6.1	7.55e-01	0	25	104	0	60	35437
2026-01-09 12:35:46.45	327.42	4.87	-46.7	-49.3	6.1	7.53e-01	0	25	104	0	60	35670
2026-01-09 12:35:47.46	327.55	4.81	-46.7	-49.2	6.1	7.55e-01	0	25	104	0	60	35482
2026-01-09 12:35:48.47	327.69	4.75	-46.7	-49.2	6.1	7.54e-01	0	25	104	0	60	35250
2026-01-09 12:35:49.48	327.82	4.69	-46.6	-49.1	6.1	7.55e-01	0	25	104	0	60	35044
2026-01-09 12:35:50.49	327.95	4.63	-46.7	-49.2	6.1	7.54e-01	0	25	104	0	60	35469
2026-01-09 12:35:51.50	328.09	4.57	-46.6	-49.1	6.1	7.54e-01	0	25	104	0	60	34914
2026-01-09 12:35:52.51	328.22	4.51	-46.7	-49.2	6.1	7.53e-01	0	25	104	0	60	35198
2026-01-09 12:35:53.52	328.35	4.45	-46.6	-49.1	6.1	7.55e-01	0	25	104	0	60	35029
2026-01-09 12:35:54.53	328.48	4.39	-46.6	-49.2	6.1	7.54e-01	0	25	104	0	60	35277
2026-01-09 12:35:55.53	328.61	4.34	-46.6	-49.1	6.1	7.54e-01	0	25	104	0	60	34755
2026-01-09 12:35:56.54	328.74	4.28	-46.5	-49.1	6.1	7.54e-01	0	25	104	0	60	34802
2026-01-09 12:35:57.55	328.87	4.22	-46.6	-49.2	6.1	7.54e-01	0	25	104	0	60	35125
2026-01-09 12:35:58.56	328.99	4.16	-46.5	-49.0	6.1	7.54e-01	0	25	104	0	60	34633
2026-01-09 12:35:59.57	329.12	4.10	-46.5	-49.0	6.1	7.54e-01	0	25	104	0	60	34482
2026-01-09 12:36:00.58	329.25	4.04	-46.3	-48.8	6.1	7.54e-01	0	25	104	0	60	33781
2026-01-09 12:36:01.59	329.37	3.98	-46.5	-49.0	6.1	7.53e-01	0	25	104	0	60	34592
2026-01-09 12:36:02.60	329.50	3.92	-46.1	-48.6	6.1	7.54e-01	0	25	104	0	60	32795
2026-01-09 12:36:03.61	329.63	3.87	-45.8	-48.3	6.1	7.54e-01	0	25	104	0	60	31730
2026-01-09 12:36:04.62	329.75	3.81	-45.3	-47.7	6.1	7.53e-01	0	25	104	0	60	29757
2026-01-09 12:36:05.63	329.87	3.75	-44.6	-47.0	6.1	7.55e-01	0	25	104	0	60	27542
2026-01-09 12:36:06.64	330.00	3.69	-44.2	-46.7	6.1	7.54e-01	0	25	104	0	60	26358
2026-01-09 12:36:07.65	330.12	3.63	-43.8	-46.3	6.1	7.54e-01	0	25	104	0	60	25256
2026-01-09 12:36:08.66	330.24	3.58	-43.1	-45.6	6.1	7.55e-01	0	25	104	0	60	23325
2026-01-09 12:36:09.67	330.36	3.52	-43.6	-46.1	6.1	7.55e-01	0	25	104	0	60	24627
2026-01-09 12:36:10.68	330.48	3.46	-45.9	-48.5	6.1	7.54e-01	0	25	104	0	60	32419
2026-01-09 12:36:11.69	330.60	3.40	-44.1	-46.6	6.1	7.54e-01	0	25	104	0	60	26100
2026-01-09 12:36:12.69	330.72	3.35	-43.9	-46.4	6.1	7.54e-01	0	25	104	0	60	25703
2026-01-09 12:36:13.71	330.84	3.29	-43.3	-45.8	6.1	7.56e-01	0	25	104	0	60	23860
2026-01-09 12:36:14.72	330.96	3.23	-43.1	-45.5	6.1	7.55e-01	0	25	104	0	60	23179
2026-01-09 12:36:15.73	331.08	3.17	-42.9	-45.5	6.1	7.54e-01	0	25	104	0	60	22970
2026-01-09 12:36:16.74	331.20	3.11	-42.9	-45.3	6.1	7.54e-01	0	25	104	0	60	22635
2026-01-09 12:36:17.75	331.32	3.06	-42.9	-45.4	6.1	7.55e-01	0	25	104	0	60	22805
2026-01-09 12:36:18.76	331.43	3.00	-45.7	-48.2	6.1	7.55e-01	0	25	104	0	60	31544
2026-01-09 12:36:19.76	331.55	2.94	-47.1	-49.6	6.1	7.55e-01	0	25	104	0	60	36811
2026-01-09 12:36:20.78	331.66	2.89	-47.3	-49.8	6.0	7.54e-01	0	25	104	0	60	37888
2026-01-09 12:36:21.79	331.78	2.83	-47.7	-50.1	6.1	7.54e-01	0	25	104	0	60	39347
2026-01-09 12:36:22.80	331.89	2.77	-47.8	-50.2	6.1	7.55e-01	0	25	104	0	60	39694
2026-01-09 12:36:23.81	332.01	2.71	-47.6	-50.1	6.1	7.55e-01	0	25	104	0	60	39351
2026-01-09 12:36:24.82	332.12	2.66	-47.7	-50.2	6.1	7.55e-01	0	25	104	0	60	39727
2026-01-09 12:36:25.83	332.23	2.60	-47.8	-50.3	6.0	7.54e-01	0	25	104	0	60	40032
2026-01-09 12:36:26.84	332.35	2.54	-47.7	-50.3	6.1	7.54e-01	0	25	104	0	60	40023
2026-01-09 12:36:27.85	332.46	2.49	-47.4	-50.0	6.1	7.54e-01	0	25	104	0	60	38773
2026-01-09 12:36:28.86	332.57	2.43	-47.7	-50.2	6.1	7.54e-01	0	25	104	0	60	39696
2026-01-09 12:36:29.87	332.68	2.37	-47.9	-50.4	6.1	7.56e-01	0	25	104	0	60	40464
2026-01-09 12:36:30.88	332.79	2.32	-47.9	-50.4	6.1	7.54e-01	0	25	104	0	60	40350
2026-01-09 12:36:31.89	332.90	2.26	-47.3	-49.9	6.1	7.53e-01	0	25	104	0	60	38275
2026-01-09 12:36:32.90	333.01	2.21	-47.8	-50.3	6.1	7.54e-01	0	25	104	0	60	40123
2026-01-09 12:36:33.91	333.12	2.15	-47.0	-49.6	6.1	7.54e-01	0	25	104	0	60	37139
2026-01-09 12:36:34.92	333.23	2.09	-47.9	-50.4	6.1	7.55e-01	0	25	104	0	60	40409
2026-01-09 12:36:35.93	333.33	2.04	-48.0	-50.4	6.1	7.55e-01	0	25	104	0	60	40575
2026-01-09 12:36:36.94	333.44	1.98	-47.9	-50.4	6.1	7.54e-01	0	25	104	0	60	40400
2026-01-09 12:36:37.94	333.55	1.93	-47.9	-50.4	6.1	7.54e-01	0	25	104	0	60	40415
2026-01-09 12:36:38.95	333.65	1.87	-47.9	-50.4	6.1	7.53e-01	0	25	104	0	60	40397
2026-01-09 12:36:39.96	333.76	1.81	-47.9	-50.4	6.1	7.54e-01	0	25	104	0	60	40524
2026-01-09 12:36:40.97	333.86	1.76	-47.9	-50.4	6.1	7.55e-01	0	25	104	0	60	40372
2026-01-09 12:36:41.98	333.97	1.70	-47.9	-50.4	6.1	7.56e-01	0	25	104	0	60	40366
2026-01-09 12:36:42.99	334.07	1.65	-47.9	-50.4	6.1	7.54e-01	0	25	104	0	60	40447
2026-01-09 12:36:44.00	334.18	1.59	-47.9	-50.4	6.1	7.54e-01	0	25	104	0	60	40380
2026-01-09 12:36:45.01	334.28	1.54	-47.9	-50.4	6.1	7.54e-01	0	25	104	0	60	40396
2026-01-09 12:36:46.02	334.38	1.48	-48.0	-50.4	6.1	7.53e-01	0	25	104	0	60	40609
2026-01-09 12:36:47.03	334.49	1.43	-48.0	-50.4	6.1	7.54e-01	0	25	104	0	60	40484
2026-01-09 12:36:48.04	334.59	1.37	-47.9	-50.3	6.1	7.53e-01	0	25	104	0	60	40290
2026-01-09 12:36:49.05	334.69	1.32	-47.9	-50.4	6.1	7.55e-01	0	25	104	0	60	40356
2026-01-09 12:36:50.06	334.79	1.26	-47.9	-50.4	6.1	7.54e-01	0	25	104	0	60	40399
2026-01-09 12:36:51.07	334.89	1.21	-47.9	-50.3	6.1	7.53e-01	0	25	104	0	60	40282
2026-01-09 12:36:52.08	334.99	1.15	-47.9	-50.4	6.1	7.54e-01	0	25	104	0	60	40522
2026-01-09 12:36:53.09	335.09	1.10	-47.9	-50.3	6.1	7.54e-01	0	25	104	0	60	40229
2026-01-09 12:36:54.10	335.19	1.04	-47.9	-50.4	6.1	7.53e-01	0	25	104	0	60	40409
2026-01-09 12:36:55.11	335.29	0.99	-47.9	-50.3	6.1	7.55e-01	0	25	104	0	60	40276
2026-01-09 12:36:56.12	335.39	0.93	-48.0	-50.4	6.1	7.54e-01	0	25	104	0	60	40767
2026-01-09 12:36:57.13	335.49	0.88	-47.9	-50.4	6.1	7.54e-01	0	25	104	0	60	40549
2026-01-09 12:36:58.14	335.59	0.82	-47.9	-50.4	6.1	7.55e-01	0	25	104	0	60	40331
2026-01-09 12:36:59.15	335.68	0.77	-47.9	-50.3	6.1	7.54e-01	0	25	104	0	60	40236
2026-01-09 12:37:00.16	335.78	0.71	-47.9	-50.4	6.1	7.55e-01	0	25	104	0	60	40380
2026-01-09 12:37:01.17	335.88	0.66	-47.9	-50.4	6.1	7.55e-01	0	25	104	0	60	40670
2026-01-09 12:37:02.18	335.97	0.61	-47.9	-50.4	6.1	7.53e-01	0	25	104	0	60	40446
2026-01-09 12:37:03.19	336.07	0.55	-47.9	-50.4	6.1	7.53e-01	0	25	104	0	60	40598
2026-01-09 12:37:04.20	336.16	0.50	-47.9	-50.4	6.1	7.55e-01	0	25	104	0	60	40481
2026-01-09 12:37:05.21	336.26	0.44	-48.1	-50.5	6.1	7.55e-01	0	25	104	0	60	41073
2026-01-09 12:37:06.22	336.35	0.39	-48.0	-50.4	6.1	7.54e-01	0	25	104	0	60	40495
2026-01-09 12:37:07.23	336.45	0.34	-47.9	-50.4	6.1	7.55e-01	0	25	104	0	60	40386
2026-01-09 12:37:08.24	336.54	0.28	-47.9	-50.4	6.1	7.55e-01	0	25	104	0	60	40562
2026-01-09 12:37:09.25	336.63	0.23	-47.9	-50.4	6.1	7.53e-01	0	25	104	0	60	40340
2026-01-09 12:37:10.26	336.73	0.18	-47.9	-50.3	6.1	7.56e-01	0	25	104	0	60	40312
2026-01-09 12:37:11.27	336.82	0.12	-47.9	-50.4	6.0	7.55e-01	0	25	104	0	60	40450
2026-01-09 12:37:12.28	336.91	0.07	-47.9	-50.3	6.1	7.55e-01	0	25	104	0	60	40315
2026-01-09 12:37:13.29	337.00	0.02	-47.9	-50.4	6.1	7.55e-01	0	25	104	0	60	40373
2026-01-09 12:37:14.30	337.09	-0.04	-47.9	-50.4	6.1	7.55e-01	0	25	104	0	60	40453
2026-01-09 12:37:15.31	337.19	-0.09	-47.9	-50.4	6.1	7.55e-01	0	25	104	0	60	40469

#Closed at: 2026-01-09 12:37:15
#Recorded file [0 MB]: D:/lorett/data/35029_260110_002654.dat