passes_logs/2026/01/09/R4.6S_Anadyr/R4.6S_Anadyr__20260109_233248_NOAA_20_JPSS-1_rec.log

#Pass ID: 20260109_233248_NOAA 20 (JPSS-1)
#Satellite: NOAA 20 (JPSS-1)
#Configuration: NOAA 20
#almurnet v.1.7.20251203
#Start time: 2026-01-09 23:32:51

#Version: 2.2.20231116
#Station: R4.6S_Anadyr
#Location: 177.4865 lon 64.73178 lat
#TLE: 1 43013U 17073A   26008.91585656  .00000107  00000+0  71497-4 0  9999
#TLE: 2 43013  98.7631 309.9196 0001713  47.9261 312.2060 14.19534561421870

#Time	Az	El	Level	Level2	SNR	BER	BlckErr	Temp	State	Recorded	gain1	gain2
2026-01-09 23:32:51.75	139.69	0.21	-48.0	-61.8	3.3	1.54e+00	0	24	0	0	60	44363
2026-01-09 23:32:52.75	139.67	0.27	-48.2	-63.3	3.6	1.51e+00	0	23	104	0	60	53067
2026-01-09 23:32:53.76	139.66	0.33	-48.1	-63.3	3.6	1.51e+00	0	24	104	0	60	52550
2026-01-09 23:32:54.77	139.64	0.39	-48.0	-63.2	3.6	1.51e+00	0	24	104	0	60	52213
2026-01-09 23:32:55.78	139.63	0.45	-48.0	-63.2	3.6	1.51e+00	0	24	104	0	60	52081
2026-01-09 23:32:56.79	139.61	0.52	-48.0	-63.2	3.6	1.51e+00	0	24	104	0	60	52025
2026-01-09 23:32:57.80	139.60	0.58	-47.9	-63.1	3.6	1.51e+00	0	24	104	0	60	51808
2026-01-09 23:32:58.81	139.58	0.64	-47.8	-63.0	3.6	1.51e+00	0	24	104	0	60	51007
2026-01-09 23:32:59.82	139.56	0.70	-47.7	-62.9	3.6	1.51e+00	0	24	104	0	60	50272
2026-01-09 23:33:00.83	139.55	0.76	-47.4	-62.9	3.6	1.51e+00	0	24	104	0	60	50204
2026-01-09 23:33:01.84	139.53	0.82	-47.5	-62.7	3.6	1.51e+00	0	24	104	0	60	49262
2026-01-09 23:33:02.85	139.52	0.89	-46.9	-62.2	3.6	1.51e+00	0	24	104	0	60	46570
2026-01-09 23:33:03.86	139.50	0.95	-47.1	-62.2	3.6	1.51e+00	0	24	104	0	60	46731
2026-01-09 23:33:04.87	139.48	1.01	-46.6	-61.3	3.6	1.51e+00	0	24	104	0	60	41998
2026-01-09 23:33:05.88	139.47	1.07	-46.3	-61.4	3.5	1.51e+00	0	24	104	0	60	42481
2026-01-09 23:33:06.89	139.45	1.13	-46.1	-61.4	3.6	1.51e+00	0	24	104	0	60	42553
2026-01-09 23:33:07.90	139.43	1.20	-46.1	-61.4	3.6	1.51e+00	0	24	104	0	60	42447
2026-01-09 23:33:08.91	139.42	1.26	-46.0	-61.4	3.6	1.51e+00	0	24	104	0	60	42547
2026-01-09 23:33:09.92	139.40	1.32	-46.1	-61.4	3.6	1.51e+00	0	24	104	0	60	42444
2026-01-09 23:33:10.93	139.38	1.39	-46.0	-61.3	3.6	1.51e+00	0	24	104	0	60	41907
2026-01-09 23:33:11.94	139.36	1.45	-46.0	-61.4	3.6	1.51e+00	0	24	104	0	60	42374
2026-01-09 23:33:12.95	139.35	1.51	-46.0	-61.3	3.6	1.51e+00	0	24	104	0	60	41958
2026-01-09 23:33:13.96	139.33	1.58	-46.0	-61.2	3.6	1.51e+00	0	24	104	0	60	41615
2026-01-09 23:33:14.97	139.31	1.64	-46.0	-61.1	3.6	1.51e+00	0	24	104	0	60	41171
2026-01-09 23:33:15.98	139.30	1.70	-46.0	-61.1	3.6	1.51e+00	0	24	104	0	60	40811
2026-01-09 23:33:16.99	139.28	1.77	-46.0	-61.1	3.6	1.51e+00	0	24	104	0	60	40831
2026-01-09 23:33:18.00	139.26	1.83	-46.0	-61.0	3.6	1.51e+00	0	24	104	0	60	40348
2026-01-09 23:33:19.01	139.24	1.89	-46.0	-61.1	3.6	1.51e+00	0	24	104	0	60	40822
2026-01-09 23:33:20.02	139.23	1.96	-46.0	-61.2	3.6	1.51e+00	0	24	104	0	60	41365
2026-01-09 23:33:21.03	139.21	2.02	-46.0	-61.2	3.6	1.51e+00	0	24	104	0	60	41528
2026-01-09 23:33:22.04	139.19	2.09	-46.0	-61.3	3.6	1.51e+00	0	24	104	0	60	41919
2026-01-09 23:33:23.05	139.17	2.15	-46.0	-61.3	3.6	1.51e+00	0	24	104	0	60	41871
2026-01-09 23:33:24.06	139.15	2.22	-46.0	-61.2	3.6	1.51e+00	0	24	104	0	60	41650
2026-01-09 23:33:25.07	139.13	2.28	-46.0	-61.2	3.6	1.51e+00	0	24	104	0	60	41547
2026-01-09 23:33:26.08	139.12	2.35	-46.0	-61.1	3.6	1.51e+00	0	24	104	0	60	40994
2026-01-09 23:33:27.08	139.10	2.41	-46.0	-61.0	3.6	1.51e+00	0	24	104	0	60	40664
2026-01-09 23:33:28.09	139.08	2.48	-46.0	-61.0	3.6	1.51e+00	0	24	104	0	60	40619
2026-01-09 23:33:29.10	139.06	2.54	-46.0	-60.9	3.6	1.51e+00	0	24	104	0	60	40132
2026-01-09 23:33:30.11	139.04	2.61	-46.0	-61.0	3.6	1.51e+00	0	24	104	0	60	40438
2026-01-09 23:33:31.12	139.02	2.67	-46.0	-61.0	3.6	1.51e+00	0	24	104	0	60	40602
2026-01-09 23:33:32.13	139.00	2.74	-46.0	-61.1	3.6	1.51e+00	0	24	104	0	60	41259
2026-01-09 23:33:33.14	138.99	2.81	-46.0	-61.3	3.6	1.51e+00	0	24	104	0	60	41951
2026-01-09 23:33:34.15	138.97	2.87	-46.0	-61.1	3.6	1.51e+00	0	24	104	0	60	40997
2026-01-09 23:33:35.16	138.95	2.94	-45.9	-59.6	3.6	1.51e+00	0	24	104	0	60	34374
2026-01-09 23:33:36.17	138.93	3.01	-45.7	-56.6	4.6	1.46e+00	92	24	104	0	60	24404
2026-01-09 23:33:37.18	138.91	3.07	-45.1	-52.7	6.6	3.37e-01	90	24	0	1048576	60	15641
2026-01-09 23:33:38.19	138.89	3.14	-44.8	-50.7	9.1	7.95e-02	92	24	0	3145728	60	12387
2026-01-09 23:33:39.20	138.87	3.21	-44.2	-49.0	11.2	7.21e-03	56	24	0	5242880	60	10143
2026-01-09 23:33:40.21	138.85	3.27	-43.5	-47.3	12.9	8.69e-05	91	24	0	7340032	60	8418
2026-01-09 23:33:41.22	138.83	3.34	-42.8	-45.8	13.4	7.60e-06	92	24	0	8388608	60	7016
2026-01-09 23:33:42.22	138.81	3.41	-42.1	-44.7	15.7	1.50e-06	92	24	0	10485760	58	6996
2026-01-09 23:33:43.23	138.79	3.48	-41.7	-44.1	16.2	0.00e+00	90	24	0	12582912	56	7283
2026-01-09 23:33:44.24	138.77	3.54	-41.3	-43.5	16.8	0.00e+00	91	24	0	14680064	56	6805
2026-01-09 23:33:45.25	138.75	3.61	-41.3	-43.5	16.9	0.00e+00	90	24	0	16777216	56	6790
2026-01-09 23:33:46.26	138.73	3.68	-41.7	-44.1	16.2	0.00e+00	0	24	0	17825792	56	7263
2026-01-09 23:33:47.27	138.71	3.75	-45.7	-53.5	7.3	1.47e+00	92	24	104	18874368	60	17095
2026-01-09 23:33:48.28	138.69	3.82	-39.2	-40.7	19.6	0.00e+00	92	24	0	18874368	52	6175
2026-01-09 23:33:49.28	138.67	3.88	-46.1	-57.7	6.2	3.40e-01	14	24	104	19922944	60	27609
2026-01-09 23:33:50.29	138.65	3.95	-44.3	-48.3	15.4	7.38e-02	90	24	0	19922944	60	9443
2026-01-09 23:33:51.30	138.63	4.02	-44.8	-51.0	10.4	3.90e-02	92	24	0	22020096	60	12790
2026-01-09 23:33:52.31	138.61	4.09	-40.3	-42.0	18.3	0.00e+00	90	24	0	24117248	54	6459
2026-01-09 23:33:53.32	138.58	4.16	-39.9	-41.5	19.1	0.00e+00	0	24	0	26214400	52	6829
2026-01-09 23:33:54.33	138.56	4.23	-39.3	-40.8	19.7	0.00e+00	92	24	0	27262976	52	6257
2026-01-09 23:33:55.34	138.54	4.30	-39.4	-40.8	19.7	0.00e+00	90	24	0	29360128	52	6314
2026-01-09 23:33:56.35	138.52	4.37	-39.2	-40.5	20.0	0.00e+00	90	24	0	31457280	52	6080
2026-01-09 23:33:57.35	138.50	4.44	-39.2	-40.6	19.9	0.00e+00	92	24	0	33554432	52	6113
2026-01-09 23:33:58.36	138.48	4.51	-39.0	-40.3	20.2	0.00e+00	92	24	0	35651584	52	5945
2026-01-09 23:33:59.37	138.46	4.58	-38.6	-39.9	20.5	0.00e+00	92	24	0	36700160	50	6335
2026-01-09 23:34:00.38	138.43	4.65	-38.5	-39.8	20.7	0.00e+00	92	24	0	38797312	50	6264
2026-01-09 23:34:01.39	138.41	4.72	-38.3	-39.5	20.9	0.00e+00	92	24	0	40894464	50	6092
2026-01-09 23:34:02.40	138.39	4.79	-38.2	-39.5	21.0	0.00e+00	0	24	0	42991616	50	6037
2026-01-09 23:34:03.41	138.37	4.86	-38.2	-39.5	20.8	0.00e+00	92	24	0	45088768	50	6042
2026-01-09 23:34:04.42	138.35	4.94	-38.1	-39.3	20.9	0.00e+00	92	24	0	46137344	50	5912
2026-01-09 23:34:05.43	138.32	5.01	-38.1	-39.2	21.0	0.00e+00	92	24	0	48234496	50	5892
2026-01-09 23:34:06.44	138.30	5.08	-38.3	-39.5	20.9	0.00e+00	92	24	0	50331648	50	6072
2026-01-09 23:34:07.45	138.28	5.15	-38.1	-39.2	21.3	0.00e+00	92	24	0	52428800	50	5860
2026-01-09 23:34:08.46	138.25	5.22	-38.0	-39.1	21.4	0.00e+00	91	24	0	54525952	50	5792
2026-01-09 23:34:09.46	138.23	5.29	-38.0	-39.2	21.3	0.00e+00	6	24	0	55574528	50	5839
2026-01-09 23:34:10.47	138.21	5.37	-38.0	-39.1	21.5	0.00e+00	91	24	0	57671680	50	5791
2026-01-09 23:34:11.48	138.19	5.44	-38.0	-39.1	21.4	0.00e+00	91	24	0	59768832	50	5811
2026-01-09 23:34:12.49	138.16	5.51	-38.0	-39.1	21.5	0.00e+00	91	24	0	61865984	50	5792
2026-01-09 23:34:13.50	138.14	5.59	-38.0	-39.1	21.4	0.00e+00	92	24	0	63963136	50	5814
2026-01-09 23:34:14.50	138.11	5.66	-37.9	-39.0	21.5	0.00e+00	92	24	0	65011712	50	5734
2026-01-09 23:34:15.51	138.09	5.73	-37.9	-39.0	21.6	0.00e+00	91	24	0	67108864	50	5716
2026-01-09 23:34:16.52	138.07	5.81	-37.8	-38.9	21.7	0.00e+00	0	24	0	69206016	50	5641
2026-01-09 23:34:17.53	138.04	5.88	-38.0	-39.1	21.6	0.00e+00	92	24	0	71303168	50	5805
2026-01-09 23:34:18.54	138.02	5.95	-37.6	-38.7	21.9	0.00e+00	92	24	0	73400320	48	6222
2026-01-09 23:34:19.55	137.99	6.03	-37.6	-38.6	22.0	0.00e+00	92	24	0	74448896	48	6154
2026-01-09 23:34:20.56	137.97	6.10	-37.6	-38.6	22.1	0.00e+00	92	24	0	76546048	48	6169
2026-01-09 23:34:21.57	137.94	6.18	-37.5	-38.5	22.1	0.00e+00	92	24	0	78643200	48	6075
2026-01-09 23:34:22.58	137.92	6.25	-37.3	-38.4	22.4	0.00e+00	90	24	0	80740352	48	5974
2026-01-09 23:34:23.59	137.90	6.33	-37.3	-38.3	22.4	0.00e+00	91	24	0	82837504	48	5912
2026-01-09 23:34:24.59	137.87	6.40	-37.2	-38.2	22.5	0.00e+00	90	24	0	83886080	48	5857
2026-01-09 23:34:25.60	137.85	6.48	-37.2	-38.2	22.5	0.00e+00	12	24	0	85983232	48	5850
2026-01-09 23:34:26.61	137.82	6.55	-37.2	-38.2	22.4	0.00e+00	91	24	0	88080384	48	5894
2026-01-09 23:34:27.62	137.79	6.63	-37.2	-38.2	22.4	0.00e+00	92	24	0	90177536	48	5895
2026-01-09 23:34:28.63	137.77	6.70	-37.3	-38.3	22.4	0.00e+00	90	24	0	92274688	48	5948
2026-01-09 23:34:29.64	137.74	6.78	-37.2	-38.2	22.6	0.00e+00	92	24	0	93323264	48	5872
2026-01-09 23:34:30.64	137.72	6.86	-37.2	-38.2	22.5	0.00e+00	91	24	0	95420416	48	5885
2026-01-09 23:34:31.65	137.69	6.93	-37.3	-38.3	22.3	0.00e+00	92	24	0	97517568	48	5923
2026-01-09 23:34:32.66	137.66	7.01	-37.0	-38.0	22.7	0.00e+00	0	24	0	99614720	48	5708
2026-01-09 23:34:33.67	137.64	7.09	-37.0	-38.0	22.7	0.00e+00	92	24	0	101711872	48	5716
2026-01-09 23:34:34.68	137.61	7.17	-37.1	-38.1	22.6	0.00e+00	91	24	0	102760448	48	5770
2026-01-09 23:34:35.69	137.58	7.24	-36.9	-37.9	22.9	0.00e+00	92	24	0	104857600	48	5633
2026-01-09 23:34:36.70	137.56	7.32	-37.1	-38.1	22.7	0.00e+00	92	24	0	106954752	48	5781
2026-01-09 23:34:37.71	137.53	7.40	-36.8	-37.8	23.0	0.00e+00	92	24	0	109051904	48	5587
2026-01-09 23:34:38.72	137.50	7.48	-36.7	-37.7	23.0	0.00e+00	91	24	0	111149056	46	6199
2026-01-09 23:34:39.73	137.48	7.56	-36.7	-37.6	23.1	0.00e+00	70	24	0	113246208	46	6163
2026-01-09 23:34:40.74	137.45	7.64	-36.7	-37.7	23.1	0.00e+00	92	24	0	114294784	46	6195
2026-01-09 23:34:41.75	137.42	7.72	-36.7	-37.6	23.2	0.00e+00	71	24	0	116391936	46	6137
2026-01-09 23:34:42.75	137.39	7.79	-36.8	-37.8	23.0	0.00e+00	92	24	0	118489088	46	6277
2026-01-09 23:34:43.76	137.36	7.87	-36.8	-37.8	23.0	0.00e+00	92	24	0	120586240	46	6248
2026-01-09 23:34:44.77	137.34	7.95	-36.8	-37.8	23.0	0.00e+00	92	24	0	122683392	46	6278
2026-01-09 23:34:45.78	137.31	8.03	-36.9	-37.8	23.0	0.00e+00	91	24	0	123731968	46	6307
2026-01-09 23:34:46.79	137.28	8.11	-36.8	-37.8	23.0	0.00e+00	91	24	0	125829120	46	6299
2026-01-09 23:34:47.80	137.25	8.20	-36.9	-37.9	23.0	0.00e+00	91	24	0	127926272	46	6333
2026-01-09 23:34:48.81	137.22	8.28	-37.0	-38.0	23.0	0.00e+00	77	24	0	130023424	46	6427
2026-01-09 23:34:49.82	137.19	8.36	-36.9	-37.8	23.0	0.00e+00	92	24	0	132120576	46	6311
2026-01-09 23:34:50.82	137.16	8.44	-36.7	-37.7	23.2	0.00e+00	92	24	0	133169152	46	6195
2026-01-09 23:34:51.83	137.13	8.52	-36.8	-37.7	23.1	0.00e+00	92	24	0	135266304	46	6243
2026-01-09 23:34:52.84	137.10	8.60	-36.6	-37.5	23.3	0.00e+00	89	24	0	137363456	46	6092
2026-01-09 23:34:53.86	137.07	8.68	-36.5	-37.5	23.4	0.00e+00	92	24	0	139460608	46	6055
2026-01-09 23:34:54.86	137.04	8.77	-36.6	-37.5	23.3	0.00e+00	92	24	0	141557760	46	6058
2026-01-09 23:34:55.87	137.01	8.85	-36.6	-37.5	23.4	0.00e+00	0	24	0	142606336	46	6064
2026-01-09 23:34:56.88	136.98	8.93	-36.5	-37.4	23.4	0.00e+00	92	24	0	144703488	46	6006
2026-01-09 23:34:57.89	136.95	9.02	-36.6	-37.5	23.4	0.00e+00	92	24	0	146800640	46	6078
2026-01-09 23:34:58.90	136.92	9.10	-36.5	-37.4	23.4	0.00e+00	92	24	0	148897792	46	5981
2026-01-09 23:34:59.91	136.89	9.18	-36.5	-37.4	23.5	0.00e+00	90	24	0	150994944	46	6001
2026-01-09 23:35:00.92	136.86	9.27	-36.5	-37.4	23.5	0.00e+00	92	24	0	152043520	46	5978
2026-01-09 23:35:01.93	136.83	9.35	-36.4	-37.3	23.6	0.00e+00	91	24	0	154140672	46	5943
2026-01-09 23:35:02.94	136.80	9.44	-36.4	-37.3	23.5	0.00e+00	91	25	0	156237824	46	5959
2026-01-09 23:35:03.95	136.77	9.52	-36.6	-37.5	23.4	0.00e+00	90	25	0	158334976	46	6100
2026-01-09 23:35:04.96	136.73	9.61	-36.7	-37.6	23.3	0.00e+00	7	25	0	160432128	46	6131
2026-01-09 23:35:05.97	136.70	9.69	-36.6	-37.5	23.4	0.00e+00	92	24	0	161480704	46	6102
2026-01-09 23:35:06.97	136.67	9.78	-36.5	-37.4	23.5	0.00e+00	92	24	0	163577856	46	6032
2026-01-09 23:35:07.98	136.64	9.86	-36.5	-37.5	23.4	0.00e+00	92	24	0	165675008	46	6049
2026-01-09 23:35:08.99	136.60	9.95	-36.5	-37.4	23.5	0.00e+00	90	25	0	167772160	46	5989
2026-01-09 23:35:10.00	136.57	10.03	-36.5	-37.4	23.6	0.00e+00	92	25	0	169869312	46	5999
2026-01-09 23:35:11.01	136.54	10.12	-36.3	-37.2	23.7	0.00e+00	92	25	0	170917888	46	5866
2026-01-09 23:35:12.02	136.50	10.21	-36.3	-37.2	23.7	0.00e+00	43	24	0	173015040	46	5863
2026-01-09 23:35:13.03	136.47	10.30	-36.2	-37.1	23.8	0.00e+00	92	24	0	175112192	46	5811
2026-01-09 23:35:14.04	136.44	10.38	-36.2	-37.1	23.9	0.00e+00	92	25	0	177209344	46	5768
2026-01-09 23:35:15.05	136.40	10.47	-36.3	-37.2	23.8	0.00e+00	92	24	0	179306496	46	5845
2026-01-09 23:35:16.06	136.37	10.56	-36.2	-37.1	23.9	0.00e+00	92	24	0	180355072	46	5764
2026-01-09 23:35:17.07	136.33	10.65	-36.1	-36.9	24.0	0.00e+00	90	25	0	182452224	46	5694
2026-01-09 23:35:18.08	136.30	10.74	-36.2	-37.1	23.9	0.00e+00	92	25	0	184549376	46	5773
2026-01-09 23:35:19.08	136.26	10.83	-36.2	-37.1	23.9	0.00e+00	0	25	0	186646528	46	5791
2026-01-09 23:35:20.09	136.23	10.92	-36.2	-37.1	23.9	0.00e+00	92	24	0	188743680	46	5773
2026-01-09 23:35:21.10	136.19	11.01	-36.2	-37.1	23.8	0.00e+00	90	24	0	189792256	46	5791
2026-01-09 23:35:22.11	136.16	11.10	-36.2	-37.1	23.8	0.00e+00	90	24	0	191889408	46	5826
2026-01-09 23:35:23.12	136.12	11.19	-36.3	-37.2	23.8	0.00e+00	92	25	0	193986560	46	5867
2026-01-09 23:35:24.13	136.09	11.28	-36.1	-37.1	23.9	0.00e+00	84	24	0	196083712	46	5763
2026-01-09 23:35:25.14	136.05	11.37	-36.3	-37.2	23.8	0.00e+00	91	24	0	198180864	46	5857
2026-01-09 23:35:26.15	136.01	11.46	-36.2	-37.1	23.9	0.00e+00	92	24	0	199229440	46	5785
2026-01-09 23:35:27.16	135.98	11.55	-36.3	-37.2	23.8	0.00e+00	92	24	0	201326592	46	5852
2026-01-09 23:35:28.17	135.94	11.65	-36.2	-37.1	23.9	0.00e+00	91	24	0	203423744	46	5772
2026-01-09 23:35:29.18	135.90	11.74	-36.1	-36.9	24.1	0.00e+00	92	25	0	205520896	46	5692
2026-01-09 23:35:30.19	135.86	11.83	-36.1	-37.0	24.0	0.00e+00	90	24	0	207618048	46	5711
2026-01-09 23:35:31.20	135.82	11.92	-36.1	-36.9	24.1	0.00e+00	66	25	0	209715200	46	5686
2026-01-09 23:35:32.21	135.79	12.02	-36.1	-37.0	24.0	0.00e+00	90	24	0	210763776	46	5714
2026-01-09 23:35:33.22	135.75	12.11	-36.0	-36.9	24.1	0.00e+00	35	24	0	212860928	46	5654
2026-01-09 23:35:34.23	135.71	12.21	-36.1	-37.0	24.0	0.00e+00	92	24	0	214958080	46	5726
2026-01-09 23:35:35.24	135.67	12.30	-36.0	-36.9	24.1	0.00e+00	23	25	0	217055232	46	5670
2026-01-09 23:35:36.47	135.62	12.42	-36.1	-36.9	24.1	0.00e+00	92	24	0	219152384	46	5695
2026-01-09 23:35:37.33	135.59	12.50	-36.2	-37.0	23.9	0.00e+00	49	25	0	220200960	46	5748
2026-01-09 23:35:38.49	135.54	12.61	-36.1	-36.9	24.1	0.00e+00	92	25	0	222298112	46	5684
2026-01-09 23:35:39.35	135.51	12.69	-36.1	-37.0	24.1	0.00e+00	92	25	0	224395264	46	5725
2026-01-09 23:35:40.51	135.46	12.80	-36.1	-37.0	24.0	0.00e+00	0	25	0	226492416	46	5718
2026-01-09 23:35:41.37	135.43	12.88	-36.0	-36.9	24.1	0.00e+00	91	25	0	227540992	46	5655
2026-01-09 23:35:42.53	135.38	13.00	-36.0	-36.9	24.2	0.00e+00	8	25	0	229638144	46	5636
2026-01-09 23:35:43.39	135.34	13.08	-36.0	-36.8	24.2	0.00e+00	90	25	0	231735296	46	5610
2026-01-09 23:35:44.54	135.30	13.19	-35.9	-36.8	24.2	0.00e+00	92	25	0	233832448	46	5594
2026-01-09 23:35:45.41	135.26	13.27	-35.8	-36.7	24.3	0.00e+00	90	25	0	235929600	46	5520
2026-01-09 23:35:46.56	135.21	13.39	-35.8	-36.6	24.3	0.00e+00	92	25	0	238026752	46	5500
2026-01-09 23:35:47.42	135.18	13.47	-35.9	-36.7	24.3	0.00e+00	92	25	0	239075328	46	5540
2026-01-09 23:35:48.58	135.13	13.59	-35.8	-36.6	24.4	0.00e+00	90	25	0	241172480	46	5498
2026-01-09 23:35:49.44	135.09	13.67	-35.8	-36.7	24.4	0.00e+00	92	25	0	243269632	46	5507
2026-01-09 23:35:50.60	135.04	13.79	-35.9	-36.7	24.3	0.00e+00	92	25	0	245366784	46	5555
2026-01-09 23:35:51.46	135.00	13.87	-35.8	-36.7	24.3	0.00e+00	2	25	0	246415360	46	5528
2026-01-09 23:35:52.61	134.95	13.99	-35.9	-36.7	24.2	0.00e+00	92	24	0	248512512	46	5538
2026-01-09 23:35:53.48	134.92	14.07	-35.7	-36.5	24.4	0.00e+00	56	24	0	250609664	44	6099
2026-01-09 23:35:54.63	134.86	14.19	-35.8	-36.7	24.3	0.00e+00	92	24	0	252706816	44	6208
2026-01-09 23:35:55.50	134.83	14.28	-35.8	-36.7	24.3	0.00e+00	91	24	0	254803968	44	6180
2026-01-09 23:35:56.65	134.77	14.40	-35.8	-36.7	24.4	0.00e+00	3	24	0	256901120	44	6183
2026-01-09 23:35:57.52	134.73	14.49	-35.6	-36.5	24.5	0.00e+00	92	25	0	257949696	44	6047
2026-01-09 23:35:58.66	134.68	14.60	-35.8	-36.6	24.4	0.00e+00	0	24	0	260046848	44	6152
2026-01-09 23:35:59.53	134.64	14.69	-35.7	-36.5	24.4	0.00e+00	92	25	0	262144000	44	6067
2026-01-09 23:36:00.68	134.59	14.81	-35.8	-36.6	24.5	0.00e+00	92	24	0	264241152	44	6124
2026-01-09 23:36:01.55	134.55	14.90	-35.7	-36.6	24.4	0.00e+00	92	25	0	265289728	44	6123
2026-01-09 23:36:02.70	134.49	15.02	-35.8	-36.6	24.4	0.00e+00	92	24	0	267386880	44	6146
2026-01-09 23:36:03.57	134.45	15.11	-35.6	-36.5	24.5	0.00e+00	46	24	0	269484032	44	6047
2026-01-09 23:36:04.72	134.40	15.23	-35.7	-36.5	24.5	0.00e+00	90	24	0	271581184	44	6059
2026-01-09 23:36:05.59	134.36	15.32	-35.8	-36.6	24.4	0.00e+00	91	24	0	273678336	44	6141
2026-01-09 23:36:06.74	134.30	15.45	-35.7	-36.5	24.5	0.00e+00	92	25	0	275775488	44	6080
2026-01-09 23:36:07.61	134.26	15.54	-35.7	-36.6	24.5	0.00e+00	39	25	0	276824064	44	6120
2026-01-09 23:36:08.76	134.20	15.66	-35.7	-36.5	24.5	0.00e+00	90	24	0	278921216	44	6061
2026-01-09 23:36:09.63	134.16	15.76	-35.7	-36.5	24.5	0.00e+00	92	25	0	281018368	44	6101
2026-01-09 23:36:10.78	134.10	15.88	-35.6	-36.5	24.6	0.00e+00	90	24	0	283115520	44	6049
2026-01-09 23:36:11.65	134.06	15.97	-35.7	-36.5	24.5	0.00e+00	92	25	0	284164096	44	6100
2026-01-09 23:36:12.80	134.00	16.10	-35.6	-36.5	24.6	0.00e+00	71	25	0	287309824	44	6045
2026-01-09 23:36:13.66	133.96	16.19	-35.7	-36.5	24.5	0.00e+00	92	25	0	288358400	44	6073
2026-01-09 23:36:14.82	133.90	16.32	-35.7	-36.5	24.5	0.00e+00	0	25	0	290455552	44	6098
2026-01-09 23:36:15.68	133.85	16.41	-35.7	-36.5	24.5	0.00e+00	90	24	0	292552704	44	6081
2026-01-09 23:36:16.83	133.79	16.54	-35.7	-36.5	24.5	0.00e+00	92	25	0	294649856	44	6097
2026-01-09 23:36:17.70	133.74	16.64	-35.7	-36.6	24.4	0.00e+00	90	25	0	295698432	44	6107
2026-01-09 23:36:18.85	133.68	16.77	-35.8	-36.6	24.4	0.00e+00	92	25	0	297795584	44	6145
2026-01-09 23:36:19.71	133.64	16.86	-35.7	-36.5	24.5	0.00e+00	11	25	0	299892736	44	6091
2026-01-09 23:36:20.87	133.57	16.99	-35.7	-36.6	24.4	0.00e+00	92	24	0	301989888	44	6114
2026-01-09 23:36:21.73	133.53	17.09	-35.7	-36.6	24.6	0.00e+00	26	25	0	303038464	44	6119
2026-01-09 23:36:22.88	133.46	17.22	-35.7	-36.6	24.4	0.00e+00	90	25	0	306184192	44	6120
2026-01-09 23:36:23.75	133.42	17.32	-35.8	-36.6	24.4	0.00e+00	79	25	0	307232768	44	6161
2026-01-09 23:36:24.90	133.35	17.45	-35.8	-36.6	24.4	0.00e+00	90	25	0	309329920	44	6172
2026-01-09 23:36:25.77	133.30	17.55	-35.8	-36.6	24.4	0.00e+00	92	25	0	311427072	44	6172
2026-01-09 23:36:26.92	133.24	17.69	-35.8	-36.7	24.5	0.00e+00	0	25	0	313524224	44	6184
2026-01-09 23:36:27.79	133.19	17.79	-35.7	-36.7	24.4	0.00e+00	92	24	0	314572800	44	6176
2026-01-09 23:36:28.94	133.12	17.92	-35.8	-36.7	24.4	0.00e+00	0	24	0	316669952	44	6234
2026-01-09 23:36:29.80	133.07	18.02	-35.8	-36.7	24.4	0.00e+00	92	24	0	318767104	44	6224
2026-01-09 23:36:30.96	133.00	18.16	-35.8	-36.7	24.4	0.00e+00	92	25	0	320864256	44	6211
2026-01-09 23:36:31.82	132.95	18.26	-35.8	-36.7	24.4	0.00e+00	92	25	0	322961408	44	6198
2026-01-09 23:36:32.98	132.88	18.40	-35.7	-36.6	24.5	0.00e+00	92	25	0	325058560	44	6119
2026-01-09 23:36:33.84	132.83	18.50	-35.9	-36.7	24.4	0.00e+00	89	25	0	326107136	44	6215
2026-01-09 23:36:34.99	132.76	18.64	-35.8	-36.6	24.5	0.00e+00	92	25	0	328204288	44	6132
2026-01-09 23:36:35.86	132.71	18.74	-35.8	-36.7	24.5	0.00e+00	9	25	0	330301440	44	6188
2026-01-09 23:36:37.01	132.64	18.88	-35.7	-36.6	24.6	0.00e+00	92	25	0	332398592	44	6107
2026-01-09 23:36:37.88	132.59	18.99	-35.8	-36.6	24.5	0.00e+00	11	25	0	333447168	44	6153
2026-01-09 23:36:39.03	132.51	19.13	-35.7	-36.6	24.6	0.00e+00	92	25	0	335544320	44	6109
2026-01-09 23:36:39.89	132.46	19.23	-35.7	-36.5	24.6	0.00e+00	92	25	0	337641472	44	6103
2026-01-09 23:36:41.05	132.39	19.38	-35.7	-36.6	24.6	0.00e+00	92	25	0	339738624	44	6114
2026-01-09 23:36:41.91	132.33	19.48	-35.6	-36.5	24.6	0.00e+00	92	25	0	341835776	44	6036
2026-01-09 23:36:43.07	132.25	19.63	-35.6	-36.4	24.6	0.00e+00	8	25	0	343932928	44	6015
2026-01-09 23:36:43.93	132.20	19.74	-35.6	-36.4	24.7	0.00e+00	91	25	0	344981504	44	6009
2026-01-09 23:36:45.08	132.12	19.88	-35.5	-36.3	24.7	0.00e+00	8	25	0	347078656	44	5954
2026-01-09 23:36:45.95	132.06	19.99	-35.6	-36.4	24.8	0.00e+00	92	25	0	349175808	44	5975
2026-01-09 23:36:47.10	131.99	20.14	-35.6	-36.4	24.6	0.00e+00	91	25	0	351272960	44	6017
2026-01-09 23:36:47.97	131.93	20.25	-35.6	-36.4	24.6	0.00e+00	92	25	0	352321536	44	6032
2026-01-09 23:36:49.12	131.85	20.39	-35.8	-36.7	24.4	0.00e+00	90	24	0	354418688	44	6180
2026-01-09 23:36:49.99	131.79	20.51	-35.7	-36.5	24.6	0.00e+00	90	24	0	356515840	44	6065
2026-01-09 23:36:51.14	131.71	20.66	-35.8	-36.6	24.6	0.00e+00	92	25	0	358612992	44	6132
2026-01-09 23:36:52.00	131.65	20.77	-35.6	-36.4	24.8	0.00e+00	12	25	0	360710144	44	6020
2026-01-09 23:36:53.16	131.57	20.92	-35.7	-36.5	24.7	0.00e+00	90	25	0	362807296	44	6047
2026-01-09 23:36:54.02	131.51	21.03	-35.5	-36.3	24.8	0.00e+00	4	25	0	363855872	44	5912
2026-01-09 23:36:55.18	131.42	21.18	-35.5	-36.3	24.9	0.00e+00	91	25	0	365953024	44	5904
2026-01-09 23:36:56.04	131.36	21.30	-35.6	-36.4	24.8	0.00e+00	92	25	0	368050176	44	5992
2026-01-09 23:36:57.19	131.28	21.45	-35.6	-36.4	24.7	0.00e+00	92	25	0	370147328	44	5977
2026-01-09 23:36:58.06	131.21	21.57	-35.5	-36.4	24.8	0.00e+00	92	25	0	371195904	44	5969
2026-01-09 23:36:59.21	131.13	21.72	-35.6	-36.5	24.8	0.00e+00	3	25	0	374341632	44	6038
2026-01-09 23:37:00.08	131.06	21.84	-35.6	-36.4	24.7	0.00e+00	92	25	0	375390208	44	6032
2026-01-09 23:37:01.23	130.97	22.00	-35.7	-36.5	24.8	0.00e+00	77	25	0	377487360	44	6051
2026-01-09 23:37:02.10	130.91	22.11	-35.6	-36.4	24.6	0.00e+00	92	25	0	379584512	44	6030
2026-01-09 23:37:03.25	130.82	22.27	-35.7	-36.5	24.6	0.00e+00	92	25	0	381681664	44	6069
2026-01-09 23:37:04.11	130.75	22.39	-35.6	-36.5	24.7	0.00e+00	92	25	0	382730240	44	6045
2026-01-09 23:37:05.27	130.66	22.55	-35.7	-36.5	24.7	0.00e+00	90	25	0	384827392	44	6072
2026-01-09 23:37:06.13	130.59	22.67	-35.6	-36.4	24.7	0.00e+00	90	25	0	386924544	44	6011
2026-01-09 23:37:07.29	130.50	22.83	-35.7	-36.5	24.7	0.00e+00	90	25	0	389021696	44	6054
2026-01-09 23:37:08.15	130.43	22.96	-35.7	-36.5	24.7	0.00e+00	81	25	0	391118848	44	6066
2026-01-09 23:37:09.30	130.33	23.12	-35.8	-36.6	24.6	0.00e+00	92	25	0	393216000	44	6131
2026-01-09 23:37:10.17	130.26	23.24	-35.7	-36.5	24.6	0.00e+00	0	25	0	394264576	44	6086
2026-01-09 23:37:11.32	130.17	23.41	-35.9	-36.7	24.5	0.00e+00	92	25	0	396361728	44	6223
2026-01-09 23:37:12.19	130.09	23.53	-35.9	-36.7	24.5	0.00e+00	92	25	0	398458880	44	6212
2026-01-09 23:37:13.34	129.99	23.70	-35.9	-36.8	24.5	0.00e+00	92	25	0	400556032	44	6276
2026-01-09 23:37:14.21	129.92	23.82	-36.0	-36.9	24.4	0.00e+00	90	25	0	401604608	44	6330
2026-01-09 23:37:15.36	129.82	23.99	-35.9	-36.8	24.4	0.00e+00	7	25	0	403701760	44	6255
2026-01-09 23:37:16.22	129.74	24.12	-36.1	-36.9	24.3	0.00e+00	92	25	0	405798912	44	6367
2026-01-09 23:37:17.37	129.64	24.29	-36.1	-37.0	24.3	0.00e+00	6	25	0	407896064	44	6404
2026-01-09 23:37:18.24	129.57	24.41	-36.2	-37.0	24.2	0.00e+00	92	25	0	409993216	44	6419
2026-01-09 23:37:19.39	129.46	24.59	-36.3	-37.2	24.1	0.00e+00	92	25	0	412090368	44	6588
2026-01-09 23:37:20.26	129.38	24.72	-36.5	-37.4	23.9	0.00e+00	92	25	0	413138944	44	6696
2026-01-09 23:37:21.41	129.28	24.89	-36.6	-37.4	23.9	0.00e+00	92	25	0	415236096	44	6752
2026-01-09 23:37:22.27	129.20	25.02	-36.7	-37.6	23.8	0.00e+00	92	24	0	417333248	44	6856
2026-01-09 23:37:23.43	129.09	25.19	-36.7	-37.6	23.7	0.00e+00	92	25	0	419430400	46	6136
2026-01-09 23:37:24.29	129.01	25.33	-36.9	-37.8	23.6	0.00e+00	2	25	0	420478976	46	6294
2026-01-09 23:37:25.45	128.90	25.50	-37.1	-38.0	23.4	0.00e+00	92	25	0	422576128	46	6440
2026-01-09 23:37:26.31	128.81	25.64	-37.2	-38.2	23.3	0.00e+00	0	24	0	424673280	46	6540
2026-01-09 23:37:27.47	128.70	25.82	-37.2	-38.2	23.3	0.00e+00	91	25	0	426770432	46	6549
2026-01-09 23:37:28.33	128.61	25.95	-37.2	-38.2	23.3	0.00e+00	92	24	0	428867584	46	6559
2026-01-09 23:37:29.48	128.50	26.13	-37.3	-38.3	23.2	0.00e+00	58	24	0	430964736	46	6640
2026-01-09 23:37:30.35	128.41	26.27	-37.4	-38.4	23.1	0.00e+00	92	24	0	432013312	46	6738
2026-01-09 23:37:31.50	128.29	26.45	-37.5	-38.5	23.0	0.00e+00	0	25	0	434110464	46	6811
2026-01-09 23:37:32.37	128.21	26.59	-37.7	-38.7	22.9	0.00e+00	92	25	0	436207616	46	6940
2026-01-09 23:37:33.52	128.09	26.77	-37.7	-38.7	22.8	0.00e+00	92	24	0	438304768	46	6961
2026-01-09 23:37:34.38	128.00	26.91	-37.9	-38.9	22.7	0.00e+00	92	25	0	439353344	48	6351
2026-01-09 23:37:35.54	127.87	27.10	-37.9	-38.9	22.7	0.00e+00	90	25	0	442499072	48	6355
2026-01-09 23:37:36.40	127.78	27.24	-37.9	-38.9	22.6	0.00e+00	90	25	0	443547648	48	6358
2026-01-09 23:37:37.56	127.65	27.43	-38.0	-39.0	22.5	0.00e+00	92	25	0	445644800	48	6444
2026-01-09 23:37:38.42	127.56	27.57	-38.1	-39.1	22.5	0.00e+00	92	25	0	447741952	48	6509
2026-01-09 23:37:39.58	127.43	27.76	-38.1	-39.1	22.4	0.00e+00	91	25	0	449839104	48	6483
2026-01-09 23:37:40.44	127.34	27.91	-38.3	-39.4	22.2	0.00e+00	6	25	0	450887680	48	6715
2026-01-09 23:37:41.60	127.20	28.10	-38.5	-39.6	22.0	0.00e+00	91	24	0	452984832	48	6877
2026-01-09 23:37:42.46	127.11	28.24	-38.6	-39.6	22.0	0.00e+00	92	25	0	455081984	48	6913
2026-01-09 23:37:43.62	126.97	28.44	-38.8	-39.9	21.8	0.00e+00	91	25	0	457179136	48	7152
2026-01-09 23:37:44.48	126.87	28.59	-38.7	-39.8	21.9	0.00e+00	90	25	0	458227712	50	6307
2026-01-09 23:37:45.63	126.74	28.78	-38.9	-40.0	21.7	0.00e+00	92	25	0	460324864	50	6423
2026-01-09 23:37:46.49	126.63	28.93	-38.8	-39.9	21.8	0.00e+00	92	25	0	462422016	50	6382
2026-01-09 23:37:47.65	126.49	29.13	-38.9	-40.0	21.6	0.00e+00	0	25	0	464519168	50	6443
2026-01-09 23:37:48.51	126.39	29.28	-38.9	-40.0	21.8	0.00e+00	90	25	0	466616320	50	6417
2026-01-09 23:37:49.67	126.24	29.48	-39.0	-40.1	21.6	0.00e+00	90	25	0	468713472	50	6503
2026-01-09 23:37:50.53	126.14	29.63	-39.1	-40.3	21.6	0.00e+00	92	25	0	469762048	50	6631
2026-01-09 23:37:51.69	125.99	29.84	-38.9	-40.0	21.7	0.00e+00	92	25	0	471859200	50	6404
2026-01-09 23:37:52.55	125.88	29.99	-38.7	-39.8	21.9	0.00e+00	92	25	0	473956352	50	6270
2026-01-09 23:37:53.71	125.73	30.20	-38.8	-39.9	21.8	0.00e+00	92	25	0	476053504	50	6349
2026-01-09 23:37:54.57	125.62	30.35	-38.7	-39.8	21.9	0.00e+00	0	25	0	477102080	50	6294
2026-01-09 23:37:55.72	125.47	30.56	-38.9	-40.0	21.7	0.00e+00	91	25	0	480247808	50	6396
2026-01-09 23:37:56.59	125.35	30.71	-38.7	-39.8	22.0	0.00e+00	0	25	0	481296384	50	6248
2026-01-09 23:37:57.74	125.19	30.92	-38.6	-39.7	22.0	0.00e+00	92	25	0	483393536	50	6242
2026-01-09 23:37:58.61	125.08	31.08	-38.6	-39.7	22.1	0.00e+00	92	25	0	485490688	50	6206
2026-01-09 23:37:59.76	124.92	31.29	-38.5	-39.6	22.1	0.00e+00	92	25	0	487587840	50	6116
2026-01-09 23:38:00.63	124.79	31.45	-38.5	-39.5	22.3	0.00e+00	90	25	0	488636416	50	6070
2026-01-09 23:38:01.78	124.63	31.67	-38.3	-39.4	21.9	0.00e+00	0	25	0	490733568	50	5978
2026-01-09 23:38:02.65	124.51	31.83	-38.2	-39.3	22.5	0.00e+00	92	25	0	492830720	50	5897
2026-01-09 23:38:03.80	124.34	32.05	-38.3	-39.4	22.3	0.00e+00	0	25	0	494927872	50	5973
2026-01-09 23:38:04.66	124.21	32.21	-38.5	-39.6	22.0	0.00e+00	92	25	0	497025024	50	6129
2026-01-09 23:38:05.81	124.04	32.43	-38.5	-39.6	22.2	0.00e+00	92	25	0	499122176	50	6115
2026-01-09 23:38:06.68	123.91	32.59	-38.4	-39.4	22.3	0.00e+00	91	25	0	500170752	50	6005
2026-01-09 23:38:07.83	123.74	32.81	-38.6	-39.7	22.1	0.00e+00	92	25	0	502267904	50	6219
2026-01-09 23:38:08.70	123.60	32.98	-38.8	-39.9	21.9	0.00e+00	92	25	0	504365056	50	6381
2026-01-09 23:38:09.85	123.42	33.20	-38.9	-40.0	21.8	0.00e+00	90	25	0	506462208	50	6447
2026-01-09 23:38:10.71	123.29	33.37	-39.0	-40.1	21.6	0.00e+00	0	25	0	507510784	50	6493
2026-01-09 23:38:11.87	123.10	33.60	-38.9	-40.0	21.7	0.00e+00	92	25	0	509607936	50	6446
2026-01-09 23:38:12.73	122.96	33.77	-38.5	-39.5	22.2	0.00e+00	22	25	0	511705088	50	6088
2026-01-09 23:38:13.88	122.77	33.99	-38.4	-39.5	22.3	0.00e+00	92	25	0	513802240	50	6050
2026-01-09 23:38:14.75	122.63	34.17	-38.3	-39.3	22.4	0.00e+00	91	25	0	515899392	50	5945
2026-01-09 23:38:15.90	122.44	34.40	-38.4	-39.5	22.3	0.00e+00	90	25	0	517996544	50	6044
2026-01-09 23:38:16.77	122.29	34.57	-38.5	-39.5	22.1	0.00e+00	92	25	0	519045120	50	6103
2026-01-09 23:38:17.92	122.09	34.80	-38.7	-39.7	21.9	0.00e+00	14	25	0	521142272	50	6235
2026-01-09 23:38:18.78	121.94	34.98	-38.9	-40.0	21.8	0.00e+00	92	25	0	523239424	50	6414
2026-01-09 23:38:19.94	121.74	35.21	-39.0	-40.1	21.7	0.00e+00	92	25	0	525336576	50	6536
2026-01-09 23:38:20.80	121.58	35.39	-39.1	-40.2	21.6	0.00e+00	92	25	0	526385152	50	6589
2026-01-09 23:38:21.96	121.37	35.63	-39.1	-40.2	21.5	0.00e+00	91	25	0	528482304	50	6580
2026-01-09 23:38:22.82	121.21	35.81	-39.3	-40.4	21.4	0.00e+00	90	25	0	530579456	50	6727
2026-01-09 23:38:23.98	121.00	36.05	-39.3	-40.5	21.3	0.00e+00	92	25	0	532676608	50	6798
2026-01-09 23:38:24.84	120.84	36.23	-39.4	-40.6	21.3	0.00e+00	92	25	0	534773760	50	6866
2026-01-09 23:38:25.99	120.62	36.47	-39.5	-40.7	21.1	0.00e+00	92	25	0	536870912	50	6929
2026-01-09 23:38:26.86	120.45	36.65	-39.7	-40.9	21.0	0.00e+00	12	25	0	537919488	50	7124
2026-01-09 23:38:28.01	120.22	36.90	-39.7	-40.9	20.9	0.00e+00	92	25	0	540016640	50	7148
2026-01-09 23:38:28.88	120.05	37.08	-39.8	-41.0	20.9	0.00e+00	56	25	0	542113792	52	6438
2026-01-09 23:38:30.03	119.82	37.33	-39.7	-41.0	20.8	0.00e+00	92	25	0	544210944	52	6404
2026-01-09 23:38:30.89	119.64	37.51	-39.7	-40.9	20.9	0.00e+00	92	25	0	545259520	52	6349
2026-01-09 23:38:32.05	119.40	37.76	-39.7	-40.9	20.9	0.00e+00	21	25	0	548405248	52	6365
2026-01-09 23:38:32.91	119.22	37.95	-39.9	-41.2	20.8	0.00e+00	92	25	0	549453824	52	6559
2026-01-09 23:38:34.07	118.97	38.20	-39.8	-41.1	20.8	0.00e+00	0	25	0	551550976	52	6479
2026-01-09 23:38:34.93	118.79	38.39	-39.8	-41.0	20.8	0.00e+00	92	25	0	553648128	52	6443
2026-01-09 23:38:36.09	118.53	38.64	-39.7	-40.9	20.9	0.00e+00	92	25	0	555745280	52	6381
2026-01-09 23:38:36.95	118.34	38.83	-39.6	-40.8	21.0	0.00e+00	92	25	0	556793856	52	6313
2026-01-09 23:38:38.11	118.08	39.09	-39.8	-41.0	20.8	0.00e+00	92	25	0	558891008	52	6441
2026-01-09 23:38:38.97	117.89	39.28	-39.8	-41.1	20.7	0.00e+00	92	25	0	560988160	52	6480
2026-01-09 23:38:40.12	117.62	39.54	-40.2	-41.5	20.4	0.00e+00	91	25	0	563085312	52	6787
2026-01-09 23:38:40.99	117.42	39.73	-40.1	-41.4	20.5	0.00e+00	49	25	0	565182464	52	6739
2026-01-09 23:38:42.14	117.14	39.99	-40.2	-41.5	20.2	0.00e+00	90	25	0	567279616	52	6847
2026-01-09 23:38:43.01	116.93	40.19	-40.2	-41.5	20.3	0.00e+00	12	25	0	568328192	52	6830
2026-01-09 23:38:44.16	116.65	40.45	-40.2	-41.5	20.3	0.00e+00	92	25	0	570425344	52	6835
2026-01-09 23:38:45.02	116.44	40.64	-40.4	-41.7	20.2	0.00e+00	90	25	0	572522496	52	6979
2026-01-09 23:38:46.18	116.15	40.91	-40.3	-41.6	20.3	0.00e+00	90	25	0	574619648	52	6889
2026-01-09 23:38:47.04	115.93	41.11	-40.4	-41.8	20.1	0.00e+00	92	25	0	575668224	52	7020
2026-01-09 23:38:48.19	115.63	41.37	-40.3	-41.6	20.3	0.00e+00	81	25	0	577765376	52	6896
2026-01-09 23:38:49.06	115.40	41.57	-40.3	-41.6	20.3	0.00e+00	92	25	0	579862528	52	6908
2026-01-09 23:38:50.21	115.10	41.84	-40.0	-41.3	20.6	0.00e+00	0	25	0	581959680	52	6638
2026-01-09 23:38:51.08	114.86	42.04	-40.0	-41.2	20.6	0.00e+00	90	25	0	584056832	52	6607
2026-01-09 23:38:52.23	114.54	42.31	-39.5	-40.7	21.2	0.00e+00	92	25	0	586153984	52	6180
2026-01-09 23:38:53.10	114.30	42.51	-39.4	-40.6	21.4	0.00e+00	92	25	0	587202560	52	6105
2026-01-09 23:38:54.25	113.98	42.78	-38.9	-40.0	21.8	0.00e+00	90	25	0	589299712	52	5750
2026-01-09 23:38:55.11	113.73	42.98	-38.5	-39.6	22.2	0.00e+00	90	25	0	591396864	50	6127
2026-01-09 23:38:56.27	113.39	43.26	-38.1	-39.1	22.6	0.00e+00	90	25	0	593494016	50	5797
2026-01-09 23:38:57.13	113.14	43.46	-38.2	-39.2	22.4	0.00e+00	47	25	0	594542592	50	5868
2026-01-09 23:38:58.29	112.79	43.73	-38.0	-39.0	22.6	0.00e+00	90	25	0	596639744	50	5748
2026-01-09 23:38:59.15	112.53	43.94	-38.1	-39.1	22.6	0.00e+00	0	25	0	598736896	50	5826
2026-01-09 23:39:00.31	112.17	44.21	-38.3	-39.3	22.4	0.00e+00	92	25	0	600834048	50	5925
2026-01-09 23:39:01.17	111.90	44.42	-38.3	-39.3	22.6	0.00e+00	90	25	0	602931200	50	5912
2026-01-09 23:39:02.32	111.53	44.69	-37.7	-38.7	22.8	0.00e+00	82	25	0	605028352	50	5520
2026-01-09 23:39:03.19	111.25	44.90	-37.6	-38.6	22.9	0.00e+00	92	25	0	606076928	48	6134
2026-01-09 23:39:04.34	110.87	45.18	-38.0	-39.2	22.4	0.00e+00	79	25	0	608174080	48	6562
2026-01-09 23:39:05.21	110.58	45.39	-38.5	-39.6	22.1	0.00e+00	91	25	0	610271232	48	6912
2026-01-09 23:39:06.36	110.19	45.66	-38.8	-40.0	21.9	0.00e+00	12	25	0	612368384	50	6414
2026-01-09 23:39:07.22	109.89	45.87	-38.6	-39.8	22.0	0.00e+00	92	25	0	613416960	50	6275
2026-01-09 23:39:08.37	109.49	46.15	-38.5	-39.6	22.2	0.00e+00	92	25	0	615514112	50	6138
2026-01-09 23:39:09.24	109.18	46.36	-38.7	-39.8	22.0	0.00e+00	92	25	0	617611264	50	6295
2026-01-09 23:39:10.39	108.77	46.63	-38.6	-39.7	22.1	0.00e+00	90	25	0	619708416	50	6205
2026-01-09 23:39:11.26	108.45	46.84	-38.5	-39.6	22.1	0.00e+00	92	25	0	621805568	50	6127
2026-01-09 23:39:12.41	108.02	47.12	-38.3	-39.4	22.4	0.00e+00	92	25	0	623902720	50	5975
2026-01-09 23:39:13.28	107.69	47.33	-38.3	-39.3	22.5	0.00e+00	0	25	0	624951296	50	5932
2026-01-09 23:39:14.43	107.25	47.61	-38.2	-39.2	22.4	0.00e+00	92	25	0	627048448	50	5893
2026-01-09 23:39:15.30	106.91	47.82	-38.2	-39.3	22.4	0.00e+00	83	25	0	629145600	50	5924
2026-01-09 23:39:16.45	106.45	48.10	-38.2	-39.2	22.5	0.00e+00	54	25	0	631242752	50	5893
2026-01-09 23:39:17.32	106.10	48.31	-38.2	-39.2	22.4	0.00e+00	92	25	0	632291328	50	5886
2026-01-09 23:39:18.47	105.63	48.59	-38.6	-39.7	22.1	0.00e+00	79	25	0	635437056	50	6186
2026-01-09 23:39:19.33	105.27	48.79	-38.9	-40.0	21.8	0.00e+00	90	25	0	636485632	50	6420
2026-01-09 23:39:20.49	104.78	49.07	-39.0	-40.1	21.7	0.00e+00	3	25	0	638582784	50	6537
2026-01-09 23:39:21.35	104.41	49.28	-39.0	-40.1	21.7	0.00e+00	90	25	0	640679936	50	6503
2026-01-09 23:39:22.51	103.91	49.56	-39.0	-40.1	21.8	0.00e+00	80	25	0	642777088	50	6492
2026-01-09 23:39:23.37	103.53	49.76	-38.9	-40.1	21.7	0.00e+00	92	25	0	643825664	50	6476
2026-01-09 23:39:24.53	103.00	50.04	-38.9	-40.0	21.7	0.00e+00	90	25	0	645922816	50	6442
2026-01-09 23:39:25.39	102.61	50.24	-38.7	-39.8	21.9	0.00e+00	92	25	0	648019968	50	6304
2026-01-09 23:39:26.55	102.07	50.52	-38.3	-39.4	22.3	0.00e+00	91	25	0	650117120	50	5975
2026-01-09 23:39:27.41	101.67	50.72	-38.0	-39.0	22.8	0.00e+00	41	25	0	652214272	50	5712
2026-01-09 23:39:28.56	101.11	50.99	-37.4	-38.4	23.3	0.00e+00	92	25	0	654311424	48	5967
2026-01-09 23:39:29.43	100.69	51.19	-36.7	-37.5	24.0	0.00e+00	78	25	0	655360000	48	5410
2026-01-09 23:39:30.58	100.12	51.46	-36.2	-37.0	24.4	0.00e+00	92	25	0	657457152	46	5747
2026-01-09 23:39:31.45	99.68	51.66	-36.0	-36.8	24.6	0.00e+00	91	25	0	659554304	46	5617
2026-01-09 23:39:32.60	99.09	51.93	-36.0	-36.8	24.3	0.00e+00	92	25	0	661651456	46	5611
2026-01-09 23:39:33.46	98.65	52.12	-35.8	-36.6	24.8	0.00e+00	92	25	0	662700032	46	5494
2026-01-09 23:39:34.62	98.04	52.39	-35.9	-36.7	24.6	0.00e+00	9	25	0	664797184	46	5537
2026-01-09 23:39:35.48	97.58	52.58	-36.1	-36.9	24.6	0.00e+00	92	25	0	666894336	46	5670
2026-01-09 23:39:36.64	96.94	52.84	-35.7	-36.5	24.9	0.00e+00	23	25	0	668991488	44	6041
2026-01-09 23:39:37.50	96.47	53.04	-35.6	-36.4	24.9	0.00e+00	92	25	0	671088640	44	6007
2026-01-09 23:39:38.65	95.82	53.29	-35.4	-36.2	25.1	0.00e+00	91	25	0	673185792	44	5834
2026-01-09 23:39:39.52	95.33	53.48	-34.9	-35.7	25.6	0.00e+00	92	25	0	674234368	44	5515
2026-01-09 23:39:40.67	94.66	53.73	-34.8	-35.5	25.7	0.00e+00	90	25	0	676331520	42	6074
2026-01-09 23:39:41.54	94.15	53.92	-34.9	-35.6	25.6	0.00e+00	92	25	0	678428672	42	6140
2026-01-09 23:39:42.69	93.47	54.16	-35.1	-35.9	25.4	0.00e+00	92	25	0	680525824	42	6356
2026-01-09 23:39:43.56	92.94	54.35	-35.4	-36.2	25.1	0.00e+00	0	25	0	681574400	42	6567
2026-01-09 23:39:44.71	92.23	54.58	-35.6	-36.4	25.0	0.00e+00	90	25	0	683671552	42	6730
2026-01-09 23:39:45.58	91.69	54.76	-35.5	-36.2	24.6	0.00e+00	0	25	0	685768704	42	6607
2026-01-09 23:39:46.73	90.96	55.00	-35.6	-36.4	25.0	0.00e+00	42	25	0	687865856	42	6715
2026-01-09 23:39:47.59	90.41	55.17	-35.6	-36.4	24.9	0.00e+00	92	25	0	689963008	42	6720
2026-01-09 23:39:48.75	89.66	55.40	-35.7	-36.5	24.8	0.00e+00	0	25	0	692060160	44	6091
2026-01-09 23:39:49.61	89.09	55.56	-36.0	-36.8	24.6	0.00e+00	92	25	0	693108736	44	6277
2026-01-09 23:39:50.77	88.31	55.79	-36.5	-37.4	24.1	0.00e+00	83	25	0	695205888	44	6698
2026-01-09 23:39:51.63	87.73	55.95	-36.9	-37.8	23.7	0.00e+00	92	25	0	697303040	46	6268
2026-01-09 23:39:52.78	86.94	56.16	-37.2	-38.1	23.5	0.00e+00	0	25	0	699400192	46	6507
2026-01-09 23:39:53.65	86.34	56.32	-37.2	-38.1	23.5	0.00e+00	92	25	0	700448768	46	6522
2026-01-09 23:39:54.80	85.52	56.52	-37.2	-38.2	23.5	0.00e+00	92	25	0	703594496	46	6546
2026-01-09 23:39:55.66	84.91	56.67	-37.4	-38.3	23.4	0.00e+00	11	25	0	704643072	46	6666
2026-01-09 23:39:56.82	84.07	56.86	-37.3	-38.2	23.4	0.00e+00	92	25	0	706740224	46	6571
2026-01-09 23:39:57.68	83.44	57.01	-37.4	-38.3	23.3	0.00e+00	60	25	0	708837376	46	6665
2026-01-09 23:39:58.84	82.58	57.19	-37.2	-38.1	23.6	0.00e+00	92	25	0	710934528	46	6512
2026-01-09 23:39:59.70	81.93	57.33	-37.3	-38.2	23.3	0.00e+00	11	25	0	711983104	46	6599
2026-01-09 23:40:00.85	81.06	57.50	-37.7	-38.6	23.0	0.00e+00	92	25	0	714080256	46	6900
2026-01-09 23:40:01.72	80.39	57.63	-37.9	-38.9	22.9	0.00e+00	69	25	0	716177408	48	6363
2026-01-09 23:40:02.87	79.50	57.80	-37.9	-38.9	22.7	0.00e+00	14	25	0	718274560	48	6373
2026-01-09 23:40:03.74	78.82	57.92	-37.8	-38.7	23.0	0.00e+00	90	25	0	719323136	48	6227
2026-01-09 23:40:04.89	77.91	58.07	-38.1	-39.1	22.6	0.00e+00	11	25	0	722468864	48	6473
2026-01-09 23:40:05.75	77.22	58.18	-38.2	-39.2	22.4	0.00e+00	92	25	0	723517440	48	6583
2026-01-09 23:40:06.91	76.28	58.33	-38.0	-39.0	22.7	0.00e+00	12	25	0	725614592	48	6420
2026-01-09 23:40:07.77	75.58	58.43	-38.0	-38.9	22.8	0.00e+00	92	25	0	727711744	48	6380
2026-01-09 23:40:08.93	74.62	58.56	-37.4	-38.3	23.3	0.00e+00	82	25	0	729808896	48	5955
2026-01-09 23:40:09.79	73.91	58.65	-37.5	-38.4	23.2	0.00e+00	91	25	0	730857472	48	6000
2026-01-09 23:40:10.95	72.94	58.77	-37.7	-38.6	23.2	0.00e+00	92	25	0	732954624	48	6162
2026-01-09 23:40:11.81	72.22	58.86	-37.6	-38.6	23.1	0.00e+00	15	25	0	735051776	48	6131
2026-01-09 23:40:12.96	71.24	58.96	-37.5	-38.5	23.3	0.00e+00	92	25	0	737148928	48	6059
2026-01-09 23:40:13.83	70.50	59.04	-36.8	-37.6	23.6	0.00e+00	83	25	0	738197504	48	5484
2026-01-09 23:40:14.98	69.51	59.13	-36.7	-37.6	24.0	0.00e+00	92	25	0	741343232	46	6106
2026-01-09 23:40:15.85	68.75	59.19	-36.8	-37.7	24.0	0.00e+00	4	25	0	742391808	46	6176
2026-01-09 23:40:17.00	67.75	59.27	-36.9	-37.8	23.8	0.00e+00	92	25	0	744488960	46	6297
2026-01-09 23:40:17.87	66.99	59.32	-36.8	-37.7	23.8	0.00e+00	50	25	0	746586112	46	6201
2026-01-09 23:40:19.02	65.98	59.39	-36.5	-37.4	24.1	0.00e+00	0	25	0	748683264	46	6000
2026-01-09 23:40:19.88	65.22	59.43	-36.4	-37.2	24.3	0.00e+00	92	25	0	749731840	46	5862
2026-01-09 23:40:21.04	64.20	59.48	-35.9	-36.8	24.7	0.00e+00	81	25	0	751828992	46	5575
2026-01-09 23:40:21.90	63.44	59.51	-35.8	-36.6	24.7	0.00e+00	92	25	0	753926144	46	5464
2026-01-09 23:40:23.06	62.40	59.55	-35.3	-36.1	25.2	0.00e+00	0	25	0	756023296	44	5775
2026-01-09 23:40:23.92	61.64	59.57	-35.1	-35.9	25.3	0.00e+00	92	25	0	758120448	44	5645
2026-01-09 23:40:25.07	60.61	59.59	-34.9	-35.6	25.7	0.00e+00	92	25	0	760217600	42	6157
2026-01-09 23:40:25.94	59.83	59.60	-34.5	-35.2	25.8	0.00e+00	92	25	0	761266176	42	5877
2026-01-09 23:40:27.09	58.80	59.60	-34.6	-35.3	25.9	0.00e+00	92	25	0	763363328	42	5950
2026-01-09 23:40:27.96	58.02	59.60	-34.6	-35.4	25.8	0.00e+00	81	25	0	765460480	42	5968
2026-01-09 23:40:29.11	57.00	59.59	-34.6	-35.4	25.7	0.00e+00	92	25	0	767557632	42	5974
2026-01-09 23:40:29.97	56.23	59.58	-34.7	-35.5	24.6	0.00e+00	0	25	0	768606208	42	6034
2026-01-09 23:40:31.13	55.19	59.55	-34.6	-35.3	25.8	0.00e+00	92	25	0	770703360	42	5941
2026-01-09 23:40:31.99	54.43	59.53	-34.3	-35.0	26.0	0.00e+00	54	25	0	772800512	42	5759
2026-01-09 23:40:33.14	53.40	59.49	-34.5	-35.2	26.0	0.00e+00	92	25	0	774897664	42	5859
2026-01-09 23:40:34.01	52.63	59.46	-34.5	-35.3	25.8	0.00e+00	92	25	0	776994816	42	5915
2026-01-09 23:40:35.16	51.62	59.41	-34.6	-35.4	25.7	0.00e+00	4	25	0	779091968	42	5987
2026-01-09 23:40:36.03	50.85	59.36	-34.4	-35.1	26.0	0.00e+00	92	25	0	780140544	42	5791
2026-01-09 23:40:37.18	49.85	59.29	-34.3	-35.0	26.1	0.00e+00	82	25	0	782237696	42	5753
2026-01-09 23:40:38.04	49.10	59.24	-34.3	-35.1	26.1	0.00e+00	92	25	0	784334848	42	5768
2026-01-09 23:40:39.20	48.09	59.15	-34.2	-34.9	26.1	0.00e+00	0	25	0	786432000	42	5671
2026-01-09 23:40:40.06	47.35	59.09	-34.5	-35.3	25.8	0.00e+00	92	25	0	787480576	42	5909
2026-01-09 23:40:41.21	46.36	58.99	-34.7	-35.4	25.7	0.00e+00	92	25	0	789577728	42	6011
2026-01-09 23:40:42.08	45.62	58.92	-34.9	-35.6	25.5	0.00e+00	41	25	0	791674880	42	6161
2026-01-09 23:40:43.24	44.64	58.81	-35.1	-35.9	25.4	0.00e+00	92	25	0	793772032	42	6335
2026-01-09 23:40:44.10	43.92	58.72	-35.1	-35.9	25.4	0.00e+00	0	25	0	795869184	42	6336
2026-01-09 23:40:45.25	42.96	58.60	-35.4	-36.2	25.1	0.00e+00	92	25	0	797966336	42	6587
2026-01-09 23:40:46.12	42.24	58.51	-35.6	-36.4	24.9	0.00e+00	0	25	0	799014912	42	6699
2026-01-09 23:40:47.27	41.30	58.37	-35.5	-36.3	25.0	0.00e+00	92	25	0	801112064	42	6620
2026-01-09 23:40:48.14	40.60	58.27	-35.7	-36.5	24.7	0.00e+00	83	25	0	803209216	44	6037
2026-01-09 23:40:49.29	39.67	58.12	-35.7	-36.5	24.8	0.00e+00	0	25	0	805306368	44	6080
2026-01-09 23:40:50.16	38.98	58.01	-35.8	-36.6	24.8	0.00e+00	91	25	0	806354944	44	6131
2026-01-09 23:40:51.31	38.08	57.85	-36.5	-37.4	24.0	0.00e+00	0	25	0	809500672	44	6694
2026-01-09 23:40:52.18	37.40	57.73	-36.7	-37.5	23.9	0.00e+00	91	25	0	810549248	46	6102
2026-01-09 23:40:53.33	36.51	57.56	-36.6	-37.5	24.0	0.00e+00	0	25	0	812646400	46	6068
2026-01-09 23:40:54.19	35.86	57.43	-36.8	-37.7	23.8	0.00e+00	92	25	0	814743552	46	6189
2026-01-09 23:40:55.35	34.98	57.25	-36.8	-37.7	23.9	0.00e+00	95	25	0	816840704	46	6233
2026-01-09 23:40:56.21	34.34	57.11	-36.2	-37.0	24.4	0.00e+00	92	25	0	817889280	46	5755
2026-01-09 23:40:57.36	33.49	56.93	-36.4	-37.2	24.2	0.00e+00	92	25	0	819986432	46	5888
2026-01-09 23:40:58.22	32.87	56.78	-36.4	-37.3	24.2	0.00e+00	0	25	0	822083584	46	5932
2026-01-09 23:40:59.38	32.03	56.59	-36.1	-36.9	24.5	0.00e+00	92	25	0	824180736	46	5673
2026-01-09 23:41:00.24	31.42	56.43	-35.5	-36.3	25.0	0.00e+00	0	25	0	826277888	44	5948
2026-01-09 23:41:01.40	30.61	56.23	-35.7	-36.5	24.9	0.00e+00	90	25	0	828375040	44	6051
2026-01-09 23:41:02.26	30.02	56.07	-36.0	-36.8	24.6	0.00e+00	0	25	0	829423616	44	6307
2026-01-09 23:41:03.41	29.23	55.86	-35.9	-36.7	24.7	0.00e+00	84	25	0	831520768	44	6221
2026-01-09 23:41:04.28	28.65	55.69	-35.4	-36.2	25.1	0.00e+00	91	25	0	833617920	44	5858
2026-01-09 23:41:05.43	27.89	55.47	-34.9	-35.6	25.6	0.00e+00	0	25	0	835715072	44	5487
2026-01-09 23:41:06.30	27.32	55.30	-35.0	-35.8	25.4	0.00e+00	91	25	0	836763648	44	5584
2026-01-09 23:41:07.45	26.57	55.08	-35.1	-35.9	25.3	0.00e+00	0	25	0	838860800	44	5668
2026-01-09 23:41:08.31	26.03	54.90	-34.8	-35.6	25.6	0.00e+00	92	25	0	840957952	44	5464
2026-01-09 23:41:09.47	25.30	54.67	-35.0	-35.7	25.4	0.00e+00	3	25	0	843055104	44	5547
2026-01-09 23:41:10.34	24.76	54.49	-35.3	-36.0	25.1	0.00e+00	92	25	0	845152256	44	5755
2026-01-09 23:41:11.49	24.06	54.25	-35.1	-35.9	25.3	0.00e+00	92	25	0	847249408	44	5658
2026-01-09 23:41:12.35	23.55	54.07	-35.0	-35.7	25.4	0.00e+00	92	25	0	848297984	44	5554
2026-01-09 23:41:13.51	22.86	53.82	-35.3	-36.1	25.2	0.00e+00	91	25	0	850395136	44	5808
2026-01-09 23:41:14.37	22.36	53.63	-35.3	-36.0	25.2	0.00e+00	0	25	0	852492288	44	5751
2026-01-09 23:41:15.53	21.70	53.38	-35.7	-36.5	24.8	0.00e+00	90	25	0	854589440	44	6044
2026-01-09 23:41:16.39	21.21	53.19	-36.2	-37.0	24.3	0.00e+00	82	25	0	855638016	44	6445
2026-01-09 23:41:17.54	20.57	52.94	-36.8	-37.7	23.8	0.00e+00	92	25	0	857735168	46	6222
2026-01-09 23:41:18.41	20.10	52.74	-36.8	-37.7	23.9	0.00e+00	81	25	0	859832320	46	6197
2026-01-09 23:41:19.56	19.48	52.48	-36.8	-37.7	23.9	0.00e+00	29	25	0	861929472	46	6201
2026-01-09 23:41:20.43	19.02	52.29	-36.6	-37.5	24.1	0.00e+00	92	25	0	864026624	46	6058
2026-01-09 23:41:21.58	18.41	52.02	-36.5	-37.4	24.2	0.00e+00	80	25	0	866123776	46	5977
2026-01-09 23:41:22.44	17.97	51.83	-36.9	-37.8	23.7	0.00e+00	91	25	0	867172352	46	6247
2026-01-09 23:41:23.60	17.39	51.56	-37.6	-38.5	23.2	0.00e+00	0	25	0	869269504	46	6831
2026-01-09 23:41:24.46	16.96	51.36	-37.5	-38.4	23.1	0.00e+00	92	25	0	871366656	46	6746
2026-01-09 23:41:25.62	16.39	51.09	-37.3	-38.2	23.4	0.00e+00	81	25	0	873463808	46	6572
2026-01-09 23:41:26.48	15.97	50.89	-37.4	-38.3	23.3	0.00e+00	90	25	0	874512384	46	6647
2026-01-09 23:41:27.63	15.43	50.62	-37.9	-38.9	22.8	0.00e+00	92	25	0	876609536	48	6344
2026-01-09 23:41:28.50	15.02	50.41	-38.4	-39.5	22.2	0.00e+00	0	25	0	878706688	48	6779
2026-01-09 23:41:29.65	14.49	50.14	-38.9	-40.1	21.7	0.00e+00	92	25	0	880803840	50	6478
2026-01-09 23:41:30.52	14.10	49.94	-38.9	-40.0	21.7	0.00e+00	2	25	0	882900992	50	6464
2026-01-09 23:41:31.67	13.58	49.66	-38.8	-39.9	21.9	0.00e+00	90	25	0	884998144	50	6343
2026-01-09 23:41:32.54	13.20	49.46	-38.4	-39.4	22.4	0.00e+00	0	25	0	886046720	50	6017
2026-01-09 23:41:33.69	12.70	49.18	-38.7	-39.8	22.0	0.00e+00	92	25	0	888143872	50	6264
2026-01-09 23:41:34.56	12.33	48.97	-38.8	-39.9	22.0	0.00e+00	0	25	0	890241024	50	6333
2026-01-09 23:41:35.71	11.85	48.70	-39.3	-40.4	21.4	0.00e+00	5	25	0	892338176	50	6753
2026-01-09 23:41:36.57	11.50	48.49	-39.6	-40.9	21.0	0.00e+00	92	25	0	893386752	50	7120
2026-01-09 23:41:37.73	11.03	48.21	-39.9	-41.2	20.6	0.00e+00	0	25	0	896532480	52	6613
2026-01-09 23:41:38.59	10.69	48.00	-39.8	-41.1	20.8	0.00e+00	90	25	0	897581056	52	6506
2026-01-09 23:41:39.75	10.23	47.73	-39.7	-41.0	20.8	0.00e+00	80	25	0	899678208	52	6431
2026-01-09 23:41:40.61	9.90	47.52	-39.6	-40.8	21.1	0.00e+00	92	25	0	901775360	52	6266
2026-01-09 23:41:41.77	9.46	47.24	-39.3	-40.4	21.4	0.00e+00	6	25	0	903872512	52	6012
2026-01-09 23:41:42.63	9.13	47.03	-39.0	-40.1	21.8	0.00e+00	92	25	0	904921088	52	5795
2026-01-09 23:41:43.79	8.71	46.75	-38.8	-39.9	21.9	0.00e+00	92	25	0	907018240	50	6330
2026-01-09 23:41:44.65	8.39	46.55	-38.9	-40.0	21.7	0.00e+00	6	25	0	909115392	50	6416
2026-01-09 23:41:45.80	7.98	46.27	-38.6	-39.7	22.1	0.00e+00	92	25	0	911212544	50	6176
2026-01-09 23:41:46.67	7.68	46.06	-38.7	-39.8	22.0	0.00e+00	7	25	0	913309696	50	6250
2026-01-09 23:41:47.82	7.28	45.78	-38.9	-40.0	21.8	0.00e+00	92	25	0	915406848	50	6413
2026-01-09 23:41:48.68	6.98	45.58	-38.3	-39.4	22.5	0.00e+00	0	25	0	916455424	50	5987
2026-01-09 23:41:49.84	6.59	45.30	-38.1	-39.1	22.6	0.00e+00	69	25	0	918552576	50	5827
2026-01-09 23:41:50.70	6.31	45.09	-38.0	-39.0	22.7	0.00e+00	0	25	0	920649728	50	5727
2026-01-09 23:41:51.86	5.93	44.82	-38.2	-39.2	22.4	0.00e+00	6	25	0	922746880	50	5892
2026-01-09 23:41:52.72	5.66	44.61	-38.3	-39.3	22.4	0.00e+00	92	25	0	923795456	50	5953
2026-01-09 23:41:53.87	5.29	44.34	-37.9	-38.9	22.9	0.00e+00	0	25	0	925892608	50	5631
2026-01-09 23:41:54.74	5.02	44.13	-37.5	-38.4	23.2	0.00e+00	90	25	0	927989760	48	6017
2026-01-09 23:41:55.89	4.67	43.86	-37.2	-38.1	23.6	0.00e+00	0	25	0	930086912	48	5819
2026-01-09 23:41:56.76	4.41	43.65	-37.4	-38.3	23.3	0.00e+00	92	25	0	932184064	48	5930
2026-01-09 23:41:57.91	4.07	43.38	-37.7	-38.6	23.0	0.00e+00	92	25	0	934281216	48	6160
2026-01-09 23:41:58.77	3.81	43.18	-37.9	-38.9	22.8	0.00e+00	29	25	0	935329792	48	6348
2026-01-09 23:41:59.93	3.48	42.91	-38.3	-39.3	22.3	0.00e+00	92	25	0	937426944	48	6682
2026-01-09 23:42:00.79	3.23	42.71	-38.5	-39.5	22.2	0.00e+00	5	25	0	939524096	48	6845
2026-01-09 23:42:01.95	2.91	42.44	-38.6	-39.6	22.0	0.00e+00	92	25	0	941621248	48	6911
2026-01-09 23:42:02.81	2.67	42.24	-38.4	-39.4	22.3	0.00e+00	4	25	0	942669824	48	6710
2026-01-09 23:42:03.97	2.36	41.97	-38.4	-39.4	22.3	0.00e+00	81	25	0	944766976	48	6738
2026-01-09 23:42:04.83	2.13	41.77	-38.7	-39.8	21.9	0.00e+00	81	25	0	946864128	48	7048
2026-01-09 23:42:05.98	1.82	41.50	-39.2	-40.3	21.5	0.00e+00	81	25	0	948961280	50	6665
2026-01-09 23:42:06.84	1.60	41.31	-39.3	-40.5	21.3	0.00e+00	90	25	0	951058432	50	6809
2026-01-09 23:42:08.00	1.30	41.04	-39.6	-40.9	20.9	0.00e+00	80	25	0	953155584	50	7098
2026-01-09 23:42:08.86	1.08	40.84	-40.0	-41.3	20.7	0.00e+00	90	25	0	954204160	52	6636
2026-01-09 23:42:10.02	0.79	40.58	-40.5	-41.9	20.1	0.00e+00	3	25	0	956301312	52	7119
2026-01-09 23:42:10.88	0.58	40.39	-40.4	-41.8	20.3	0.00e+00	92	25	0	958398464	52	7018
2026-01-09 23:42:12.03	0.30	40.13	-39.9	-41.2	20.4	0.00e+00	79	25	0	960495616	52	6553
2026-01-09 23:42:12.90	0.10	39.93	-39.3	-40.4	21.4	0.00e+00	91	25	0	961544192	52	6023
2026-01-09 23:42:14.05	359.83	39.67	-39.4	-40.6	21.4	0.00e+00	90	25	0	964689920	52	6134
2026-01-09 23:42:14.92	359.62	39.48	-39.2	-40.4	21.3	0.00e+00	6	25	0	965738496	52	6015
2026-01-09 23:42:16.07	359.36	39.23	-39.8	-41.1	20.8	0.00e+00	92	25	0	967835648	52	6496
2026-01-09 23:42:16.94	359.16	39.03	-40.0	-41.4	20.5	0.00e+00	80	25	0	969932800	52	6766
2026-01-09 23:42:18.09	358.91	38.78	-40.4	-41.9	20.0	0.00e+00	92	25	0	972029952	52	7120
2026-01-09 23:42:18.96	358.72	38.59	-40.5	-42.1	19.8	0.00e+00	0	25	0	973078528	52	7280
2026-01-09 23:42:20.11	358.47	38.34	-40.2	-41.6	20.2	0.00e+00	0	25	0	975175680	52	6905
2026-01-09 23:42:20.98	358.28	38.15	-40.1	-41.6	20.3	0.00e+00	0	25	0	977272832	52	6865
2026-01-09 23:42:22.13	358.04	37.90	-40.5	-42.0	19.9	0.00e+00	0	25	0	979369984	52	7211
2026-01-09 23:42:23.00	357.86	37.71	-40.6	-42.1	19.8	0.00e+00	92	25	0	981467136	52	7311
2026-01-09 23:42:24.15	357.62	37.47	-40.8	-42.4	19.5	0.00e+00	0	25	0	983564288	54	6721
2026-01-09 23:42:25.01	357.45	37.28	-41.1	-42.7	19.3	0.00e+00	92	25	0	984612864	54	6971
2026-01-09 23:42:26.17	357.22	37.04	-40.6	-42.1	19.7	0.00e+00	80	25	0	986710016	54	6530
2026-01-09 23:42:27.03	357.05	36.85	-40.6	-42.0	19.8	0.00e+00	92	25	0	988807168	54	6464
2026-01-09 23:42:28.18	356.82	36.61	-40.3	-41.7	20.1	0.00e+00	0	25	0	990904320	54	6232
2026-01-09 23:42:29.05	356.66	36.43	-40.0	-41.4	20.5	0.00e+00	80	25	0	991952896	54	5968
2026-01-09 23:42:30.20	356.44	36.19	-39.8	-41.0	20.9	0.00e+00	92	25	0	994050048	54	5756
2026-01-09 23:42:31.07	356.28	36.01	-39.6	-40.8	21.1	0.00e+00	0	25	0	996147200	52	6311
2026-01-09 23:42:32.22	356.06	35.77	-39.3	-40.5	21.3	0.00e+00	92	25	0	998244352	52	6079
2026-01-09 23:42:33.08	355.91	35.60	-39.3	-40.6	21.2	0.00e+00	0	25	0	999292928	52	6117
2026-01-09 23:42:34.24	355.70	35.36	-39.4	-40.7	21.2	0.00e+00	92	25	0	1002438656	52	6220
2026-01-09 23:42:35.10	355.55	35.18	-39.1	-40.3	21.3	0.00e+00	0	25	0	1003487232	52	5933
2026-01-09 23:42:36.26	355.34	34.95	-39.1	-40.3	21.6	0.00e+00	3	25	0	1005584384	52	5906
2026-01-09 23:42:37.13	355.19	34.77	-39.0	-40.2	21.6	0.00e+00	0	25	0	1007681536	52	5864
2026-01-09 23:42:38.28	355.00	34.54	-38.8	-39.9	21.9	0.00e+00	2	25	0	1009778688	52	5668
2026-01-09 23:42:39.15	354.85	34.37	-38.8	-39.9	21.8	0.00e+00	92	25	0	1010827264	52	5665
2026-01-09 23:42:40.30	354.66	34.14	-38.9	-39.9	21.9	0.00e+00	0	25	0	1012924416	52	5689
2026-01-09 23:42:41.16	354.52	33.97	-39.0	-40.1	21.7	0.00e+00	92	25	0	1015021568	52	5809
2026-01-09 23:42:42.32	354.33	33.74	-39.0	-40.1	21.8	0.00e+00	0	25	0	1017118720	52	5781
2026-01-09 23:42:43.18	354.19	33.57	-39.0	-40.1	21.7	0.00e+00	3	25	0	1019215872	52	5808
2026-01-09 23:42:44.34	354.01	33.35	-38.8	-39.8	21.9	0.00e+00	85	25	0	1021313024	52	5613
2026-01-09 23:42:45.20	353.87	33.18	-38.8	-39.8	21.9	0.00e+00	78	25	0	1022361600	52	5620
2026-01-09 23:42:46.35	353.70	32.96	-38.9	-39.9	21.9	0.00e+00	92	25	0	1024458752	50	6383
2026-01-09 23:42:47.22	353.56	32.79	-38.6	-39.7	22.0	0.00e+00	80	25	0	1026555904	50	6214
2026-01-09 23:42:48.37	353.39	32.58	-38.7	-39.7	22.0	0.00e+00	81	25	0	1028653056	50	6245
2026-01-09 23:42:49.24	353.26	32.41	-38.6	-39.7	22.0	0.00e+00	0	25	0	1029701632	50	6195
2026-01-09 23:42:50.39	353.09	32.19	-38.6	-39.6	22.0	0.00e+00	2	25	0	1032847360	50	6171
2026-01-09 23:42:51.25	352.97	32.03	-38.6	-39.7	21.9	0.00e+00	0	25	0	1033895936	50	6238
2026-01-09 23:42:52.41	352.80	31.82	-38.8	-39.9	21.8	0.00e+00	2	25	0	1035993088	50	6356
2026-01-09 23:42:53.27	352.68	31.66	-38.9	-40.1	21.6	0.00e+00	90	25	0	1038090240	50	6473
2026-01-09 23:42:54.42	352.51	31.44	-39.1	-40.3	21.3	0.00e+00	80	25	0	1040187392	50	6685
2026-01-09 23:42:55.29	352.39	31.28	-39.3	-40.6	21.1	0.00e+00	91	25	0	1041235968	50	6874
2026-01-09 23:42:56.44	352.24	31.07	-39.5	-40.8	21.0	0.00e+00	0	25	0	1043333120	50	7035
2026-01-09 23:42:57.31	352.12	30.92	-39.5	-40.7	21.0	0.00e+00	10	25	0	1045430272	50	6987
2026-01-09 23:42:58.47	351.96	30.71	-39.7	-41.0	20.9	0.00e+00	0	25	0	1047527424	52	6398
2026-01-09 23:42:59.33	351.85	30.55	-39.7	-41.0	20.9	0.00e+00	0	25	0	1048576000	52	6410
2026-01-09 23:43:00.48	351.70	30.35	-39.5	-40.7	21.1	0.00e+00	91	25	0	1050673152	52	6202
2026-01-09 23:43:01.35	351.59	30.19	-39.3	-40.5	21.2	0.00e+00	0	25	0	1052770304	52	6074
2026-01-09 23:43:02.50	351.44	29.99	-39.4	-40.6	21.3	0.00e+00	92	25	0	1054867456	52	6108
2026-01-09 23:43:03.37	351.33	29.83	-39.1	-40.3	21.6	0.00e+00	0	25	0	1056964608	52	5900
2026-01-09 23:43:04.52	351.18	29.63	-39.1	-40.2	21.5	0.00e+00	4	25	0	1059061760	52	5862
2026-01-09 23:43:05.38	351.08	29.48	-39.1	-40.2	21.6	0.00e+00	0	25	0	1060110336	52	5865
2026-01-09 23:43:06.54	350.94	29.28	-39.0	-40.2	21.4	0.00e+00	0	25	0	1062207488	52	5864
2026-01-09 23:43:07.41	350.83	29.13	-39.3	-40.5	21.3	0.00e+00	0	25	0	1064304640	52	6040
2026-01-09 23:43:08.56	350.69	28.93	-39.3	-40.5	21.3	0.00e+00	78	25	0	1066401792	52	6056
2026-01-09 23:43:09.43	350.59	28.79	-39.3	-40.5	21.3	0.00e+00	92	25	0	1067450368	52	6041
2026-01-09 23:43:10.58	350.46	28.59	-39.2	-40.4	21.3	0.00e+00	76	25	0	1070596096	52	5991
2026-01-09 23:43:11.44	350.36	28.45	-39.3	-40.5	21.2	0.00e+00	92	25	0	1071644672	52	6082
2026-01-09 23:43:12.60	350.22	28.25	-39.0	-40.2	21.4	0.00e+00	76	25	0	1073741824	52	5861
2026-01-09 23:43:13.46	350.13	28.11	-39.1	-40.3	21.4	0.00e+00	0	25	0	1075838976	52	5938
2026-01-09 23:43:14.61	350.00	27.92	-38.9	-40.1	21.6	0.00e+00	0	25	0	1077936128	52	5785
2026-01-09 23:43:15.48	349.90	27.77	-39.0	-40.2	21.6	0.00e+00	0	25	0	1078984704	52	5838
2026-01-09 23:43:16.63	349.78	27.58	-39.0	-40.1	21.6	0.00e+00	92	25	0	1081081856	52	5812
2026-01-09 23:43:17.50	349.68	27.44	-39.1	-40.3	21.5	0.00e+00	0	25	0	1083179008	52	5914
2026-01-09 23:43:18.65	349.56	27.25	-38.9	-40.0	21.7	0.00e+00	90	25	0	1085276160	52	5716
2026-01-09 23:43:19.52	349.47	27.11	-38.9	-40.0	21.7	0.00e+00	2	25	0	1087373312	52	5719
2026-01-09 23:43:20.67	349.34	26.93	-38.9	-40.0	21.6	0.00e+00	3	25	0	1089470464	52	5737
2026-01-09 23:43:21.53	349.25	26.79	-38.8	-40.0	21.7	0.00e+00	0	25	0	1090519040	52	5704
2026-01-09 23:43:22.69	349.14	26.61	-38.9	-40.0	21.7	0.00e+00	7	25	0	1092616192	52	5741
2026-01-09 23:43:23.55	349.05	26.47	-38.8	-39.9	21.7	0.00e+00	0	25	0	1094713344	52	5648
2026-01-09 23:43:24.70	348.93	26.29	-38.9	-40.0	21.7	0.00e+00	6	25	0	1096810496	52	5729
2026-01-09 23:43:25.56	348.85	26.15	-38.6	-39.7	21.9	0.00e+00	92	25	0	1097859072	50	6231
2026-01-09 23:43:26.72	348.73	25.97	-38.7	-39.8	21.8	0.00e+00	0	25	0	1099956224	50	6274
2026-01-09 23:43:27.58	348.65	25.84	-38.6	-39.7	22.0	0.00e+00	92	25	0	1102053376	50	6179
2026-01-09 23:43:28.74	348.54	25.66	-38.4	-39.5	22.1	0.00e+00	6	25	0	1104150528	50	6083
2026-01-09 23:43:29.60	348.45	25.53	-38.4	-39.5	22.2	0.00e+00	77	25	0	1106247680	50	6062
2026-01-09 23:43:30.76	348.34	25.35	-38.5	-39.5	22.1	0.00e+00	76	25	0	1108344832	50	6094
2026-01-09 23:43:31.62	348.26	25.22	-38.5	-39.6	22.1	0.00e+00	0	25	0	1109393408	50	6163
2026-01-09 23:43:32.78	348.15	25.05	-38.6	-39.7	22.0	0.00e+00	92	25	0	1111490560	50	6234
2026-01-09 23:43:33.64	348.08	24.92	-38.4	-39.5	22.2	0.00e+00	7	25	0	1113587712	50	6055
2026-01-09 23:43:34.80	347.97	24.74	-38.5	-39.6	22.0	0.00e+00	92	25	0	1115684864	50	6137
2026-01-09 23:43:35.66	347.89	24.62	-38.5	-39.6	22.0	0.00e+00	6	25	0	1116733440	50	6143
2026-01-09 23:43:36.82	347.79	24.44	-38.5	-39.6	22.1	0.00e+00	75	25	0	1118830592	50	6126
2026-01-09 23:43:37.68	347.71	24.32	-38.5	-39.6	22.0	0.00e+00	5	25	0	1120927744	50	6168
2026-01-09 23:43:38.83	347.61	24.15	-38.5	-39.6	22.0	0.00e+00	77	25	0	1123024896	50	6163
2026-01-09 23:43:39.69	347.54	24.02	-38.4	-39.5	22.1	0.00e+00	92	25	0	1125122048	50	6083
2026-01-09 23:43:40.85	347.44	23.86	-38.4	-39.4	22.1	0.00e+00	11	25	0	1127219200	50	6030
2026-01-09 23:43:41.71	347.37	23.73	-38.4	-39.5	22.1	0.00e+00	91	25	0	1128267776	50	6040
2026-01-09 23:43:42.87	347.27	23.57	-38.3	-39.4	22.2	0.00e+00	6	25	0	1130364928	50	5980
2026-01-09 23:43:43.73	347.20	23.44	-38.1	-39.1	22.4	0.00e+00	16	25	0	1132462080	50	5807
2026-01-09 23:43:44.89	347.10	23.28	-38.1	-39.1	22.3	0.00e+00	10	25	0	1134559232	50	5811
2026-01-09 23:43:45.75	347.03	23.16	-38.0	-39.0	22.5	0.00e+00	0	25	0	1135607808	50	5719
2026-01-09 23:43:46.91	346.94	22.99	-37.9	-39.0	22.6	0.00e+00	92	25	0	1138753536	50	5703
2026-01-09 23:43:47.77	346.87	22.87	-37.9	-38.9	22.6	0.00e+00	72	25	0	1139802112	50	5692
2026-01-09 23:43:48.92	346.78	22.71	-38.0	-39.0	22.4	0.00e+00	92	25	0	1141899264	50	5727
2026-01-09 23:43:49.79	346.71	22.59	-38.0	-39.0	22.5	0.00e+00	10	25	0	1143996416	50	5719
2026-01-09 23:43:50.94	346.62	22.43	-38.0	-39.0	22.5	0.00e+00	77	25	0	1146093568	50	5717
2026-01-09 23:43:51.81	346.55	22.31	-38.0	-39.0	22.5	0.00e+00	11	25	0	1147142144	50	5728
2026-01-09 23:43:52.96	346.46	22.16	-37.9	-38.9	22.6	0.00e+00	0	25	0	1149239296	50	5662
2026-01-09 23:43:53.82	346.40	22.04	-38.0	-39.0	22.5	0.00e+00	0	25	0	1151336448	50	5714
2026-01-09 23:43:54.97	346.31	21.89	-37.8	-38.8	22.7	0.00e+00	76	25	0	1153433600	50	5579
2026-01-09 23:43:55.84	346.25	21.77	-37.7	-38.7	22.7	0.00e+00	75	25	0	1154482176	48	6211
2026-01-09 23:43:56.99	346.16	21.61	-37.9	-38.9	22.6	0.00e+00	4	25	0	1157627904	48	6341
2026-01-09 23:43:57.86	346.10	21.50	-37.6	-38.6	22.8	0.00e+00	91	25	0	1158676480	48	6146
2026-01-09 23:43:59.01	346.01	21.35	-37.6	-38.5	22.9	0.00e+00	76	25	0	1160773632	48	6099
2026-01-09 23:43:59.87	345.95	21.23	-37.5	-38.5	22.9	0.00e+00	35	25	0	1162870784	48	6088
2026-01-09 23:44:01.03	345.87	21.08	-37.2	-38.2	23.3	0.00e+00	29	25	0	1164967936	48	5830
2026-01-09 23:44:01.90	345.81	20.97	-37.1	-38.1	23.3	0.00e+00	6	25	0	1166016512	48	5770
2026-01-09 23:44:03.05	345.73	20.82	-37.3	-38.2	23.2	0.00e+00	92	25	0	1168113664	48	5867
2026-01-09 23:44:03.92	345.67	20.71	-37.2	-38.1	23.2	0.00e+00	6	25	0	1170210816	48	5799
2026-01-09 23:44:05.07	345.59	20.56	-37.2	-38.1	23.3	0.00e+00	92	25	0	1172307968	48	5786
2026-01-09 23:44:05.93	345.53	20.45	-37.2	-38.1	23.3	0.00e+00	0	25	0	1174405120	48	5787
2026-01-09 23:44:07.08	345.45	20.30	-37.0	-37.9	23.5	0.00e+00	6	25	0	1176502272	48	5673
2026-01-09 23:44:07.95	345.40	20.19	-37.1	-38.0	23.4	0.00e+00	0	25	0	1177550848	48	5715
2026-01-09 23:44:09.10	345.32	20.05	-37.2	-38.2	23.1	0.00e+00	0	25	0	1179648000	48	5829
2026-01-09 23:44:09.97	345.26	19.94	-37.2	-38.2	23.1	0.00e+00	0	25	0	1181745152	48	5830
2026-01-09 23:44:11.12	345.19	19.79	-37.1	-38.0	23.1	0.00e+00	0	25	0	1183842304	48	5732
2026-01-09 23:44:11.98	345.13	19.69	-37.3	-38.3	23.0	0.00e+00	91	25	0	1184890880	48	5902
2026-01-09 23:44:13.14	345.06	19.54	-37.1	-38.1	23.2	0.00e+00	0	25	0	1186988032	48	5778
2026-01-09 23:44:14.00	345.00	19.44	-37.1	-38.1	23.2	0.00e+00	92	25	0	1189085184	48	5788
2026-01-09 23:44:15.16	344.93	19.29	-37.2	-38.2	23.2	0.00e+00	0	25	0	1191182336	48	5832
2026-01-09 23:44:16.02	344.88	19.19	-37.2	-38.1	23.2	0.00e+00	75	25	0	1193279488	48	5820
2026-01-09 23:44:17.17	344.80	19.05	-37.3	-38.2	23.1	0.00e+00	75	25	0	1195376640	48	5880
2026-01-09 23:44:18.04	344.75	18.94	-37.3	-38.2	23.1	0.00e+00	6	25	0	1196425216	48	5867
2026-01-09 23:44:19.19	344.68	18.81	-37.3	-38.2	23.1	0.00e+00	92	25	0	1198522368	48	5895
2026-01-09 23:44:20.06	344.63	18.70	-37.4	-38.3	23.0	0.00e+00	2	25	0	1200619520	48	5938
2026-01-09 23:44:21.21	344.56	18.56	-37.5	-38.5	22.8	0.00e+00	92	25	0	1202716672	48	6067
