passes_logs/2026/01/09/R4.6S_Anadyr/R4.6S_Anadyr__20260109_165753_NOAA_20_JPSS-1_rec.log

#Pass ID: 20260109_165753_NOAA 20 (JPSS-1)
#Satellite: NOAA 20 (JPSS-1)
#Configuration: NOAA 20
#almurnet v.1.7.20251203
#Start time: 2026-01-09 16:57:55

#Version: 2.2.20231116
#Station: R4.6S_Anadyr
#Location: 177.4865 lon 64.73178 lat
#TLE: 1 43013U 17073A   26008.91585656  .00000107  00000+0  71497-4 0  9999
#TLE: 2 43013  98.7631 309.9196 0001713  47.9261 312.2060 14.19534561421870

#Time	Az	El	Level	Level2	SNR	BER	BlckErr	Temp	State	Recorded	gain1	gain2
2026-01-09 16:57:55.06	28.83	0.09	-48.2	-65.8	3.5	3.02e+01	0	22	0	0	60	75299
2026-01-09 16:57:56.07	28.78	0.15	-47.8	-63.0	3.6	1.51e+00	0	23	104	0	60	51271
2026-01-09 16:57:57.08	28.73	0.20	-47.8	-63.1	3.6	1.51e+00	0	23	104	0	60	51498
2026-01-09 16:57:58.09	28.68	0.26	-47.8	-63.0	3.6	1.51e+00	0	23	104	0	60	51232
2026-01-09 16:57:59.10	28.63	0.31	-47.9	-63.0	3.6	1.51e+00	0	23	104	0	60	51334
2026-01-09 16:58:00.11	28.57	0.37	-47.9	-63.1	3.6	1.51e+00	0	23	104	0	60	51538
2026-01-09 16:58:01.12	28.52	0.42	-47.9	-63.0	3.6	1.51e+00	0	23	104	0	60	51281
2026-01-09 16:58:02.13	28.47	0.48	-47.9	-63.1	3.6	1.51e+00	0	23	104	0	60	51571
2026-01-09 16:58:03.14	28.42	0.54	-47.8	-63.0	3.6	1.51e+00	0	23	104	0	60	51126
2026-01-09 16:58:04.15	28.37	0.59	-47.8	-62.9	3.6	1.51e+00	0	23	104	0	60	50439
2026-01-09 16:58:05.16	28.31	0.65	-47.7	-62.8	3.6	1.51e+00	0	23	104	0	60	49859
2026-01-09 16:58:06.17	28.26	0.71	-47.5	-62.7	3.6	1.51e+00	0	23	104	0	60	49603
2026-01-09 16:58:07.18	28.21	0.76	-47.4	-62.6	3.6	1.51e+00	0	23	104	0	60	48591
2026-01-09 16:58:08.19	28.15	0.82	-47.3	-62.5	3.6	1.51e+00	0	23	104	0	60	48408
2026-01-09 16:58:09.20	28.10	0.87	-47.1	-62.3	3.6	1.51e+00	0	23	104	0	60	46948
2026-01-09 16:58:10.21	28.05	0.93	-46.8	-62.0	3.6	1.51e+00	0	23	104	0	60	45695
2026-01-09 16:58:11.22	27.99	0.99	-46.3	-61.5	3.6	1.51e+00	0	23	104	0	60	42741
2026-01-09 16:58:12.23	27.94	1.05	-46.3	-61.4	3.6	1.51e+00	0	23	104	0	60	42546
2026-01-09 16:58:13.24	27.88	1.10	-46.3	-61.4	3.6	1.51e+00	0	24	104	0	60	42420
2026-01-09 16:58:14.25	27.83	1.16	-46.3	-61.3	3.6	1.51e+00	0	23	104	0	60	42221
2026-01-09 16:58:15.26	27.77	1.22	-46.3	-61.4	3.6	1.51e+00	0	24	104	0	60	42490
2026-01-09 16:58:16.27	27.72	1.27	-46.3	-61.4	3.6	1.51e+00	0	24	104	0	60	42317
2026-01-09 16:58:17.28	27.66	1.33	-46.3	-61.4	3.6	1.51e+00	0	24	104	0	60	42425
2026-01-09 16:58:18.29	27.61	1.39	-46.3	-61.4	3.6	1.51e+00	0	24	104	0	60	42282
2026-01-09 16:58:19.30	27.55	1.45	-46.3	-61.3	3.6	1.51e+00	0	24	104	0	60	42033
2026-01-09 16:58:20.31	27.49	1.50	-46.2	-61.4	3.6	1.51e+00	0	24	104	0	60	42302
2026-01-09 16:58:21.32	27.44	1.56	-46.3	-61.4	3.6	1.51e+00	0	24	104	0	60	42318
2026-01-09 16:58:22.33	27.38	1.62	-46.2	-61.4	3.6	1.51e+00	0	24	104	0	60	42440
2026-01-09 16:58:23.34	27.32	1.68	-46.2	-61.4	3.6	1.51e+00	0	24	104	0	60	42607
2026-01-09 16:58:24.35	27.27	1.73	-46.3	-61.4	3.6	1.51e+00	0	24	104	0	60	42642
2026-01-09 16:58:25.36	27.21	1.79	-46.2	-61.5	3.6	1.51e+00	0	24	104	0	60	42743
2026-01-09 16:58:26.37	27.15	1.85	-46.2	-61.4	3.6	1.51e+00	0	24	104	0	60	42497
2026-01-09 16:58:27.38	27.09	1.91	-46.2	-61.4	3.6	1.51e+00	0	24	104	0	60	42547
2026-01-09 16:58:28.39	27.04	1.97	-46.3	-61.4	3.6	1.51e+00	0	24	104	0	60	42498
2026-01-09 16:58:29.39	26.98	2.03	-46.2	-61.3	3.6	1.51e+00	0	24	104	0	60	42090
2026-01-09 16:58:30.40	26.92	2.08	-46.2	-61.2	3.6	1.51e+00	0	24	104	0	60	41669
2026-01-09 16:58:31.41	26.86	2.14	-46.2	-61.2	3.6	1.51e+00	0	24	104	0	60	41546
2026-01-09 16:58:32.42	26.80	2.20	-46.2	-61.2	3.6	1.51e+00	0	24	104	0	60	41712
2026-01-09 16:58:33.43	26.74	2.26	-46.2	-61.3	3.6	1.51e+00	0	24	104	0	60	41990
2026-01-09 16:58:34.44	26.68	2.32	-46.2	-61.3	3.6	1.51e+00	0	24	104	0	60	42026
2026-01-09 16:58:35.45	26.62	2.38	-46.2	-61.4	3.6	1.51e+00	0	24	104	0	60	42425
2026-01-09 16:58:36.46	26.56	2.44	-46.2	-61.4	3.6	1.51e+00	0	24	104	0	60	42396
2026-01-09 16:58:37.47	26.50	2.50	-46.2	-61.3	3.6	1.51e+00	0	24	104	0	60	42196
2026-01-09 16:58:38.48	26.44	2.55	-46.2	-61.3	3.6	1.51e+00	0	24	104	0	60	42116
2026-01-09 16:58:39.49	26.38	2.61	-46.2	-61.3	3.6	1.51e+00	0	24	104	0	60	42166
2026-01-09 16:58:40.50	26.32	2.67	-46.2	-61.4	3.6	1.51e+00	0	24	104	0	60	42254
2026-01-09 16:58:41.51	26.26	2.73	-46.2	-61.3	3.6	1.51e+00	0	24	104	0	60	41957
2026-01-09 16:58:42.52	26.20	2.79	-46.2	-61.0	3.6	1.51e+00	0	24	104	0	60	40458
2026-01-09 16:58:43.53	26.14	2.85	-46.2	-60.8	3.6	1.51e+00	0	24	104	0	60	39767
2026-01-09 16:58:44.54	26.07	2.91	-46.2	-60.8	3.6	1.51e+00	0	24	104	0	60	39489
2026-01-09 16:58:45.55	26.01	2.97	-46.2	-61.2	3.6	1.51e+00	0	24	104	0	60	41266
2026-01-09 16:58:46.56	25.95	3.03	-46.2	-61.3	3.6	1.51e+00	0	24	104	0	60	41837
2026-01-09 16:58:47.57	25.88	3.09	-46.2	-59.9	3.6	1.51e+00	0	24	104	0	60	35616
2026-01-09 16:58:48.58	25.82	3.15	-46.0	-56.9	4.4	1.50e+00	54	24	104	0	60	25318
2026-01-09 16:58:49.59	25.76	3.21	-45.6	-53.3	6.2	3.71e-01	90	24	0	0	60	16649
2026-01-09 16:58:50.60	25.69	3.27	-45.2	-51.3	8.3	7.74e-02	0	24	0	2097152	60	13242
2026-01-09 16:58:51.61	25.63	3.33	-44.8	-50.1	10.0	2.05e-02	2	24	0	4194304	60	11525
2026-01-09 16:58:52.62	25.57	3.39	-44.5	-49.3	10.8	4.74e-03	0	24	0	5242880	60	10543
2026-01-09 16:58:53.63	25.50	3.45	-45.3	-52.0	6.5	3.36e-03	24	24	0	7340032	60	14433
2026-01-09 16:58:54.64	25.44	3.52	-46.2	-60.4	3.6	1.51e+00	0	24	104	7340032	60	38004
2026-01-09 16:58:55.65	25.37	3.58	-45.2	-51.7	5.3	1.51e+00	0	24	104	7340032	60	13830
2026-01-09 16:58:56.66	25.31	3.64	-44.3	-48.7	12.7	2.66e-01	92	24	0	7340032	60	9891
2026-01-09 16:58:57.67	25.24	3.70	-41.5	-43.6	15.7	0.00e+00	26	24	0	8388608	54	7725
2026-01-09 16:58:58.67	25.17	3.76	-46.2	-60.5	3.6	1.51e+00	0	24	104	9437184	60	38506
2026-01-09 16:58:59.69	25.11	3.82	-41.0	-42.9	17.0	0.00e+00	0	24	104	9437184	56	6383
2026-01-09 16:59:00.69	25.04	3.88	-40.9	-42.7	18.0	0.00e+00	25	24	0	10485760	56	6220
2026-01-09 16:59:01.70	24.97	3.94	-40.4	-42.1	18.4	0.00e+00	35	24	0	12582912	54	6489
2026-01-09 16:59:02.71	24.91	4.00	-40.7	-42.4	18.2	0.00e+00	6	24	0	14680064	54	6750
2026-01-09 16:59:03.72	24.84	4.07	-40.1	-41.7	18.8	0.00e+00	92	24	0	15728640	54	6197
2026-01-09 16:59:04.73	24.77	4.13	-40.1	-41.7	18.8	0.00e+00	6	24	0	17825792	54	6237
2026-01-09 16:59:05.74	24.70	4.19	-40.2	-41.8	18.8	0.00e+00	30	24	0	19922944	54	6246
2026-01-09 16:59:06.75	24.63	4.25	-40.2	-41.8	18.8	0.00e+00	0	24	0	22020096	54	6287
2026-01-09 16:59:07.76	24.57	4.31	-40.1	-41.6	19.0	0.00e+00	5	24	0	24117248	54	6172
2026-01-09 16:59:08.77	24.50	4.38	-40.1	-41.7	19.0	0.00e+00	0	24	0	25165824	54	6175
2026-01-09 16:59:09.78	24.43	4.44	-40.1	-41.7	18.9	0.00e+00	6	24	0	27262976	54	6218
2026-01-09 16:59:10.79	24.36	4.50	-40.1	-41.6	19.0	0.00e+00	92	24	0	29360128	54	6161
2026-01-09 16:59:11.79	24.29	4.56	-39.9	-41.4	19.2	0.00e+00	0	24	0	31457280	54	5989
2026-01-09 16:59:12.80	24.22	4.62	-40.0	-41.5	19.1	0.00e+00	92	24	0	33554432	54	6096
2026-01-09 16:59:13.81	24.15	4.69	-39.9	-41.4	19.3	0.00e+00	5	24	0	34603008	54	5988
2026-01-09 16:59:14.82	24.08	4.75	-40.0	-41.5	19.1	0.00e+00	0	24	0	36700160	54	6097
2026-01-09 16:59:15.83	24.01	4.81	-39.9	-41.4	19.2	0.00e+00	51	24	0	38797312	54	6023
2026-01-09 16:59:16.84	23.93	4.88	-40.0	-41.5	19.2	0.00e+00	37	24	0	40894464	54	6061
2026-01-09 16:59:17.85	23.86	4.94	-40.0	-41.6	19.1	0.00e+00	0	24	0	42991616	54	6120
2026-01-09 16:59:18.86	23.79	5.00	-39.8	-41.3	19.3	0.00e+00	37	24	0	45088768	54	5943
2026-01-09 16:59:19.87	23.72	5.07	-39.8	-41.3	19.4	0.00e+00	92	24	0	46137344	54	5947
2026-01-09 16:59:20.87	23.64	5.13	-39.9	-41.4	19.3	0.00e+00	33	24	0	48234496	54	6027
2026-01-09 16:59:21.88	23.57	5.19	-39.8	-41.3	19.4	0.00e+00	8	24	0	50331648	54	5946
2026-01-09 16:59:22.89	23.50	5.26	-40.0	-41.5	19.3	0.00e+00	28	24	0	52428800	54	6065
2026-01-09 16:59:23.90	23.42	5.32	-39.9	-41.4	19.3	0.00e+00	7	24	0	54525952	54	6010
2026-01-09 16:59:24.91	23.35	5.38	-40.0	-41.5	19.3	0.00e+00	30	24	0	55574528	54	6071
2026-01-09 16:59:25.92	23.27	5.45	-39.9	-41.4	19.4	0.00e+00	6	24	0	57671680	54	5979
2026-01-09 16:59:26.93	23.20	5.51	-40.0	-41.5	19.3	0.00e+00	91	24	0	59768832	54	6057
2026-01-09 16:59:27.94	23.12	5.57	-39.7	-41.2	19.6	0.00e+00	6	24	0	61865984	52	6555
2026-01-09 16:59:28.95	23.05	5.64	-39.9	-41.4	19.4	0.00e+00	92	24	0	63963136	52	6735
2026-01-09 16:59:29.96	22.97	5.70	-39.8	-41.2	19.6	0.00e+00	7	24	0	65011712	52	6562
2026-01-09 16:59:30.96	22.90	5.77	-39.8	-41.3	19.5	0.00e+00	6	24	0	67108864	52	6634
2026-01-09 16:59:31.97	22.82	5.83	-39.8	-41.2	19.6	0.00e+00	5	24	0	69206016	52	6575
2026-01-09 16:59:32.98	22.74	5.90	-39.8	-41.3	19.7	0.00e+00	0	24	0	71303168	52	6638
2026-01-09 16:59:33.99	22.67	5.96	-39.8	-41.2	19.7	0.00e+00	92	24	0	73400320	52	6600
2026-01-09 16:59:35.00	22.59	6.03	-39.6	-41.1	19.8	0.00e+00	0	24	0	74448896	52	6465
2026-01-09 16:59:36.01	22.51	6.09	-39.7	-41.1	19.7	0.00e+00	92	24	0	76546048	52	6502
2026-01-09 16:59:37.02	22.43	6.16	-39.8	-41.2	19.6	0.00e+00	59	24	0	78643200	52	6615
2026-01-09 16:59:38.03	22.35	6.22	-40.0	-41.4	19.6	0.00e+00	24	24	0	80740352	52	6749
2026-01-09 16:59:39.04	22.27	6.29	-39.8	-41.3	19.7	0.00e+00	57	24	0	82837504	52	6632
2026-01-09 16:59:40.05	22.19	6.35	-39.6	-41.0	19.9	0.00e+00	23	24	0	83886080	52	6395
2026-01-09 16:59:41.06	22.11	6.42	-39.6	-41.0	20.0	0.00e+00	0	24	0	85983232	52	6418
2026-01-09 16:59:42.07	22.03	6.48	-39.6	-41.0	20.0	0.00e+00	59	24	0	88080384	52	6425
2026-01-09 16:59:43.08	21.95	6.55	-39.6	-41.0	20.0	0.00e+00	92	24	0	90177536	52	6403
2026-01-09 16:59:44.09	21.87	6.62	-39.6	-40.9	20.0	0.00e+00	28	24	0	92274688	52	6375
2026-01-09 16:59:45.10	21.79	6.68	-39.5	-40.9	20.1	0.00e+00	92	24	0	93323264	52	6346
2026-01-09 16:59:46.11	21.71	6.75	-39.5	-40.9	20.1	0.00e+00	34	24	0	95420416	52	6331
2026-01-09 16:59:47.11	21.63	6.81	-39.5	-40.9	20.0	0.00e+00	0	24	0	97517568	52	6339
2026-01-09 16:59:48.12	21.54	6.88	-39.6	-40.9	20.1	0.00e+00	0	24	0	99614720	52	6381
2026-01-09 16:59:49.13	21.46	6.95	-39.4	-40.7	20.3	0.00e+00	0	24	0	101711872	52	6237
2026-01-09 16:59:50.14	21.38	7.01	-39.4	-40.7	20.3	0.00e+00	92	24	0	102760448	52	6200
2026-01-09 16:59:51.15	21.29	7.08	-39.4	-40.7	20.2	0.00e+00	0	24	0	104857600	52	6228
2026-01-09 16:59:52.16	21.21	7.15	-39.3	-40.6	20.4	0.00e+00	90	24	0	106954752	52	6164
2026-01-09 16:59:53.16	21.12	7.21	-39.4	-40.7	20.4	0.00e+00	0	24	0	109051904	52	6191
2026-01-09 16:59:54.17	21.04	7.28	-39.3	-40.6	20.4	0.00e+00	0	24	0	111149056	52	6141
2026-01-09 16:59:55.18	20.95	7.35	-39.3	-40.7	20.4	0.00e+00	0	24	0	113246208	52	6182
2026-01-09 16:59:56.19	20.87	7.41	-39.3	-40.6	20.3	0.00e+00	0	24	0	114294784	52	6145
2026-01-09 16:59:57.20	20.78	7.48	-39.3	-40.6	20.5	0.00e+00	31	24	0	116391936	52	6111
2026-01-09 16:59:58.21	20.69	7.55	-39.2	-40.4	20.5	0.00e+00	58	24	0	118489088	52	6031
2026-01-09 16:59:59.22	20.61	7.62	-39.4	-40.7	20.3	0.00e+00	92	24	0	120586240	52	6204
2026-01-09 17:00:00.23	20.52	7.68	-39.3	-40.5	20.5	0.00e+00	58	24	0	121634816	52	6099
2026-01-09 17:00:01.24	20.43	7.75	-39.0	-40.3	20.8	0.00e+00	22	24	0	123731968	52	5899
2026-01-09 17:00:02.25	20.34	7.82	-39.0	-40.3	20.8	0.00e+00	25	24	0	125829120	52	5919
2026-01-09 17:00:03.26	20.25	7.89	-39.1	-40.3	20.8	0.00e+00	3	24	0	127926272	52	5929
2026-01-09 17:00:04.27	20.17	7.96	-39.1	-40.3	20.7	0.00e+00	33	24	0	130023424	52	5941
2026-01-09 17:00:05.27	20.08	8.02	-39.1	-40.3	20.8	0.00e+00	24	24	0	131072000	52	5941
2026-01-09 17:00:06.28	19.99	8.09	-39.0	-40.2	20.8	0.00e+00	92	24	0	133169152	52	5866
2026-01-09 17:00:07.29	19.90	8.16	-39.0	-40.2	20.9	0.00e+00	24	24	0	135266304	52	5852
2026-01-09 17:00:08.30	19.80	8.23	-39.1	-40.4	20.7	0.00e+00	92	24	0	137363456	52	5971
2026-01-09 17:00:09.31	19.71	8.30	-39.1	-40.3	20.8	0.00e+00	0	24	0	139460608	52	5924
2026-01-09 17:00:10.32	19.62	8.37	-39.1	-40.3	20.7	0.00e+00	0	24	0	141557760	52	5959
2026-01-09 17:00:11.33	19.53	8.44	-39.1	-40.3	20.8	0.00e+00	0	24	0	142606336	52	5932
2026-01-09 17:00:12.34	19.44	8.50	-39.0	-40.3	20.9	0.00e+00	0	24	0	144703488	52	5908
2026-01-09 17:00:13.35	19.34	8.57	-39.1	-40.3	20.7	0.00e+00	92	24	0	146800640	52	5964
2026-01-09 17:00:14.36	19.25	8.64	-38.9	-40.2	20.9	0.00e+00	0	24	0	148897792	52	5840
2026-01-09 17:00:15.37	19.15	8.71	-39.0	-40.3	20.8	0.00e+00	92	24	0	150994944	52	5921
2026-01-09 17:00:16.38	19.06	8.78	-38.9	-40.1	20.9	0.00e+00	0	24	0	152043520	52	5827
2026-01-09 17:00:17.38	18.96	8.85	-38.9	-40.2	20.9	0.00e+00	0	24	0	154140672	52	5833
2026-01-09 17:00:18.39	18.87	8.92	-39.0	-40.2	20.8	0.00e+00	2	24	0	156237824	52	5866
2026-01-09 17:00:19.40	18.77	8.99	-39.0	-40.2	20.9	0.00e+00	0	24	0	158334976	52	5879
2026-01-09 17:00:20.41	18.68	9.06	-38.9	-40.1	21.0	0.00e+00	26	24	0	160432128	52	5780
2026-01-09 17:00:21.42	18.58	9.13	-38.9	-40.2	20.9	0.00e+00	54	24	0	161480704	52	5836
2026-01-09 17:00:22.43	18.48	9.20	-38.8	-40.0	21.1	0.00e+00	90	24	0	163577856	52	5759
2026-01-09 17:00:23.44	18.38	9.27	-38.8	-40.0	21.0	0.00e+00	22	24	0	165675008	52	5760
2026-01-09 17:00:24.44	18.29	9.34	-38.8	-40.0	21.1	0.00e+00	20	24	0	167772160	52	5737
2026-01-09 17:00:25.45	18.19	9.41	-38.9	-40.1	21.0	0.00e+00	58	24	0	169869312	52	5788
2026-01-09 17:00:26.46	18.09	9.48	-38.9	-40.1	21.0	0.00e+00	0	24	0	170917888	52	5791
2026-01-09 17:00:27.47	17.99	9.55	-38.6	-39.8	21.3	0.00e+00	0	24	0	173015040	50	6256
2026-01-09 17:00:28.48	17.89	9.62	-38.7	-39.9	21.2	0.00e+00	22	24	0	175112192	50	6319
2026-01-09 17:00:29.48	17.79	9.69	-38.7	-39.8	21.3	0.00e+00	92	24	0	177209344	50	6292
2026-01-09 17:00:30.49	17.68	9.77	-38.7	-39.8	21.3	0.00e+00	2	24	0	179306496	50	6295
2026-01-09 17:00:31.50	17.58	9.84	-38.7	-39.9	21.2	0.00e+00	92	24	0	180355072	50	6367
2026-01-09 17:00:32.51	17.48	9.91	-38.8	-40.0	21.2	0.00e+00	0	24	0	182452224	50	6395
2026-01-09 17:00:33.52	17.38	9.98	-38.7	-39.9	21.2	0.00e+00	23	24	0	184549376	50	6349
2026-01-09 17:00:34.53	17.27	10.05	-38.7	-39.9	21.4	0.00e+00	0	24	0	186646528	50	6326
2026-01-09 17:00:35.54	17.17	10.12	-38.6	-39.7	21.4	0.00e+00	0	24	0	188743680	50	6225
2026-01-09 17:00:36.55	17.06	10.20	-38.7	-39.9	21.3	0.00e+00	90	24	0	189792256	50	6330
2026-01-09 17:00:37.56	16.96	10.27	-38.7	-39.9	21.3	0.00e+00	0	24	0	191889408	50	6330
2026-01-09 17:00:38.57	16.85	10.34	-38.8	-40.0	21.2	0.00e+00	92	24	0	193986560	50	6393
2026-01-09 17:00:39.58	16.75	10.41	-38.7	-39.9	21.3	0.00e+00	0	24	0	196083712	50	6323
2026-01-09 17:00:40.59	16.64	10.48	-38.8	-40.0	21.2	0.00e+00	0	24	0	198180864	50	6398
2026-01-09 17:00:41.60	16.53	10.56	-38.7	-39.9	21.2	0.00e+00	58	24	0	199229440	50	6361
2026-01-09 17:00:42.61	16.42	10.63	-38.9	-40.0	21.2	0.00e+00	2	24	0	201326592	50	6450
2026-01-09 17:00:43.61	16.32	10.70	-38.7	-39.9	21.3	0.00e+00	0	24	0	203423744	50	6328
2026-01-09 17:00:44.62	16.21	10.77	-38.9	-40.0	21.1	0.00e+00	52	24	0	205520896	50	6454
2026-01-09 17:00:45.63	16.10	10.85	-38.9	-40.0	21.2	0.00e+00	90	24	0	207618048	50	6460
2026-01-09 17:00:46.64	15.99	10.92	-38.9	-40.1	21.2	0.00e+00	30	24	0	209715200	50	6499
2026-01-09 17:00:47.64	15.88	10.99	-38.7	-39.8	21.4	0.00e+00	92	24	0	210763776	50	6311
2026-01-09 17:00:48.65	15.77	11.06	-38.6	-39.8	21.4	0.00e+00	54	24	0	212860928	50	6277
2026-01-09 17:00:49.66	15.65	11.14	-38.6	-39.7	21.4	0.00e+00	52	24	0	214958080	50	6240
2026-01-09 17:00:50.67	15.54	11.21	-38.7	-39.8	21.3	0.00e+00	0	24	0	217055232	50	6307
2026-01-09 17:00:51.68	15.43	11.28	-38.6	-39.8	21.2	0.00e+00	5	24	0	219152384	50	6249
2026-01-09 17:00:52.69	15.31	11.36	-38.6	-39.7	21.4	0.00e+00	92	24	0	220200960	50	6223
2026-01-09 17:00:53.70	15.20	11.43	-38.5	-39.6	21.5	0.00e+00	22	24	0	222298112	50	6134
2026-01-09 17:00:54.70	15.09	11.51	-38.5	-39.6	21.6	0.00e+00	92	24	0	224395264	50	6108
2026-01-09 17:00:55.71	14.97	11.58	-38.5	-39.6	21.6	0.00e+00	23	24	0	226492416	50	6124
2026-01-09 17:00:56.72	14.86	11.65	-38.4	-39.5	21.8	0.00e+00	22	24	0	228589568	50	6036
2026-01-09 17:00:57.73	14.74	11.73	-38.4	-39.5	21.7	0.00e+00	6	24	0	229638144	50	6093
2026-01-09 17:00:58.74	14.62	11.80	-38.4	-39.5	21.7	0.00e+00	0	24	0	231735296	50	6095
2026-01-09 17:00:59.75	14.50	11.88	-38.4	-39.5	21.8	0.00e+00	92	24	0	233832448	50	6041
2026-01-09 17:01:00.76	14.38	11.95	-38.4	-39.5	21.7	0.00e+00	6	24	0	235929600	50	6080
2026-01-09 17:01:01.77	14.27	12.03	-38.4	-39.5	21.7	0.00e+00	91	24	0	238026752	50	6082
2026-01-09 17:01:02.78	14.15	12.10	-38.3	-39.4	21.8	0.00e+00	0	24	0	239075328	50	6015
2026-01-09 17:01:03.79	14.03	12.17	-38.4	-39.5	21.7	0.00e+00	59	24	0	241172480	50	6066
2026-01-09 17:01:04.80	13.90	12.25	-38.3	-39.4	21.7	0.00e+00	0	24	0	243269632	50	6013
2026-01-09 17:01:05.81	13.78	12.32	-38.5	-39.6	21.6	0.00e+00	6	24	0	245366784	50	6144
2026-01-09 17:01:06.82	13.66	12.40	-38.5	-39.6	21.7	0.00e+00	58	24	0	247463936	50	6126
2026-01-09 17:01:07.83	13.54	12.47	-38.5	-39.6	21.6	0.00e+00	56	24	0	248512512	50	6162
2026-01-09 17:01:08.84	13.41	12.55	-38.4	-39.5	21.7	0.00e+00	92	24	0	250609664	50	6078
2026-01-09 17:01:09.85	13.29	12.63	-38.4	-39.5	21.8	0.00e+00	25	24	0	252706816	50	6057
2026-01-09 17:01:10.86	13.16	12.70	-38.3	-39.4	21.9	0.00e+00	70	24	0	254803968	50	6021
2026-01-09 17:01:11.87	13.04	12.78	-38.4	-39.5	21.8	0.00e+00	53	24	0	256901120	50	6077
2026-01-09 17:01:12.88	12.91	12.85	-38.3	-39.4	21.9	0.00e+00	25	24	0	257949696	50	6013
2026-01-09 17:01:13.88	12.79	12.93	-38.4	-39.5	21.8	0.00e+00	0	24	0	260046848	50	6071
2026-01-09 17:01:14.90	12.66	13.00	-38.3	-39.4	21.9	0.00e+00	6	24	0	262144000	50	6028
2026-01-09 17:01:15.90	12.53	13.08	-38.3	-39.4	21.9	0.00e+00	90	24	0	264241152	50	6004
2026-01-09 17:01:16.91	12.40	13.16	-38.2	-39.3	22.0	0.00e+00	6	24	0	266338304	50	5903
2026-01-09 17:01:17.92	12.27	13.23	-38.2	-39.2	22.1	0.00e+00	90	24	0	267386880	50	5873
2026-01-09 17:01:18.94	12.14	13.31	-38.2	-39.3	21.9	0.00e+00	7	24	0	269484032	50	5905
2026-01-09 17:01:19.94	12.01	13.38	-38.1	-39.1	21.9	0.00e+00	0	24	0	271581184	50	5806
2026-01-09 17:01:20.95	11.88	13.46	-38.0	-39.0	22.2	0.00e+00	5	24	0	273678336	50	5735
2026-01-09 17:01:21.96	11.75	13.54	-38.0	-39.1	22.2	0.00e+00	7	24	0	275775488	50	5776
2026-01-09 17:01:22.97	11.61	13.61	-37.9	-38.9	22.2	0.00e+00	81	24	0	276824064	50	5691
2026-01-09 17:01:23.98	11.48	13.69	-37.9	-38.9	22.3	0.00e+00	54	24	0	278921216	50	5675
2026-01-09 17:01:24.99	11.35	13.77	-38.0	-39.0	22.2	0.00e+00	92	24	0	281018368	50	5748
2026-01-09 17:01:26.00	11.21	13.84	-37.9	-39.0	22.2	0.00e+00	0	24	0	283115520	50	5709
2026-01-09 17:01:27.00	11.08	13.92	-37.9	-39.0	22.3	0.00e+00	21	24	0	285212672	50	5724
2026-01-09 17:01:28.02	10.94	14.00	-37.9	-39.0	22.3	0.00e+00	59	24	0	286261248	50	5702
2026-01-09 17:01:29.03	10.80	14.07	-37.9	-39.0	22.2	0.00e+00	0	24	0	288358400	50	5724
2026-01-09 17:01:30.03	10.66	14.15	-38.0	-39.0	22.1	0.00e+00	49	24	0	290455552	50	5753
2026-01-09 17:01:31.04	10.53	14.23	-37.8	-38.8	22.5	0.00e+00	26	24	0	292552704	50	5583
2026-01-09 17:01:32.06	10.38	14.31	-37.7	-38.8	22.5	0.00e+00	92	24	0	294649856	48	6251
2026-01-09 17:01:33.07	10.24	14.38	-37.7	-38.7	22.5	0.00e+00	22	24	0	296747008	48	6236
2026-01-09 17:01:34.08	10.10	14.46	-37.6	-38.6	22.7	0.00e+00	90	24	0	297795584	48	6109
2026-01-09 17:01:35.09	9.96	14.54	-37.4	-38.4	22.8	0.00e+00	21	24	0	299892736	48	6015
2026-01-09 17:01:36.10	9.82	14.62	-37.4	-38.4	22.9	0.00e+00	23	24	0	301989888	48	5984
2026-01-09 17:01:37.10	9.68	14.69	-37.4	-38.4	22.8	0.00e+00	21	24	0	304087040	48	5994
2026-01-09 17:01:38.11	9.53	14.77	-37.4	-38.4	22.9	0.00e+00	28	24	0	306184192	48	5997
2026-01-09 17:01:39.12	9.39	14.85	-37.4	-38.4	22.8	0.00e+00	92	24	0	307232768	48	6010
2026-01-09 17:01:40.13	9.24	14.93	-37.4	-38.4	22.8	0.00e+00	0	24	0	309329920	48	5965
2026-01-09 17:01:41.14	9.10	15.00	-37.4	-38.4	22.9	0.00e+00	92	24	0	311427072	48	5975
2026-01-09 17:01:42.15	8.95	15.08	-37.3	-38.3	22.5	0.00e+00	0	24	0	313524224	48	5917
2026-01-09 17:01:43.16	8.80	15.16	-37.3	-38.2	22.0	0.00e+00	2	24	0	315621376	48	5885
2026-01-09 17:01:44.17	8.65	15.24	-37.4	-38.3	22.6	0.00e+00	2	24	0	316669952	48	5964
2026-01-09 17:01:45.18	8.50	15.32	-37.2	-38.2	23.0	0.00e+00	60	24	0	318767104	48	5848
2026-01-09 17:01:46.19	8.35	15.39	-37.2	-38.2	23.0	0.00e+00	92	24	0	320864256	48	5868
2026-01-09 17:01:47.20	8.20	15.47	-37.1	-38.1	23.1	0.00e+00	4	24	0	322961408	48	5783
2026-01-09 17:01:48.21	8.05	15.55	-37.3	-38.3	22.9	0.00e+00	92	24	0	325058560	48	5902
2026-01-09 17:01:49.22	7.90	15.63	-37.2	-38.2	23.0	0.00e+00	0	24	0	326107136	48	5852
2026-01-09 17:01:50.23	7.74	15.71	-37.3	-38.2	22.9	0.00e+00	61	24	0	328204288	48	5878
2026-01-09 17:01:51.24	7.59	15.79	-37.3	-38.3	23.0	0.00e+00	23	24	0	330301440	48	5912
2026-01-09 17:01:52.24	7.43	15.86	-37.2	-38.2	23.0	0.00e+00	21	24	0	332398592	48	5877
2026-01-09 17:01:53.25	7.28	15.94	-37.4	-38.4	22.8	0.00e+00	38	24	0	334495744	48	5967
2026-01-09 17:01:54.26	7.12	16.02	-37.2	-38.1	23.1	0.00e+00	28	24	0	335544320	48	5823
2026-01-09 17:01:55.27	6.96	16.10	-37.2	-38.1	23.1	0.00e+00	90	24	0	337641472	48	5803
2026-01-09 17:01:56.28	6.80	16.18	-37.2	-38.1	23.1	0.00e+00	0	24	0	339738624	48	5806
2026-01-09 17:01:57.29	6.64	16.26	-37.2	-38.2	23.0	0.00e+00	92	24	0	341835776	48	5843
2026-01-09 17:01:58.30	6.48	16.33	-37.3	-38.2	23.0	0.00e+00	0	24	0	343932928	48	5884
2026-01-09 17:01:59.31	6.32	16.41	-37.3	-38.3	22.9	0.00e+00	23	24	0	344981504	48	5934
2026-01-09 17:02:00.30	6.16	16.49	-37.3	-38.3	23.0	0.00e+00	0	24	0	347078656	48	5918
2026-01-09 17:02:01.31	6.00	16.57	-37.2	-38.2	23.1	0.00e+00	2	24	0	349175808	48	5838
2026-01-09 17:02:02.32	5.84	16.65	-37.3	-38.3	23.0	0.00e+00	92	24	0	351272960	48	5913
2026-01-09 17:02:03.33	5.67	16.73	-37.5	-38.4	22.8	0.00e+00	2	24	0	353370112	48	6033
2026-01-09 17:02:04.34	5.51	16.81	-37.7	-38.7	22.7	0.00e+00	92	24	0	354418688	48	6174
2026-01-09 17:02:05.35	5.34	16.88	-37.5	-38.5	22.8	0.00e+00	0	24	0	356515840	48	6071
2026-01-09 17:02:06.36	5.17	16.96	-37.6	-38.6	22.7	0.00e+00	0	24	0	358612992	48	6146
2026-01-09 17:02:07.37	5.00	17.04	-37.5	-38.5	22.7	0.00e+00	0	24	0	360710144	48	6093
2026-01-09 17:02:08.38	4.84	17.12	-37.7	-38.7	22.6	0.00e+00	0	24	0	362807296	48	6179
2026-01-09 17:02:09.39	4.67	17.20	-37.7	-38.7	22.7	0.00e+00	91	24	0	364904448	48	6174
2026-01-09 17:02:10.40	4.49	17.28	-37.6	-38.6	22.7	0.00e+00	0	24	0	365953024	48	6134
2026-01-09 17:02:11.40	4.32	17.36	-37.6	-38.6	22.8	0.00e+00	92	24	0	368050176	48	6143
2026-01-09 17:02:12.41	4.15	17.43	-37.6	-38.6	22.7	0.00e+00	62	24	0	370147328	48	6144
2026-01-09 17:02:13.42	3.98	17.51	-37.6	-38.6	22.8	0.00e+00	15	24	0	372244480	48	6137
2026-01-09 17:02:14.43	3.80	17.59	-37.6	-38.6	22.7	0.00e+00	18	24	0	374341632	48	6153
2026-01-09 17:02:15.44	3.63	17.67	-37.8	-38.8	22.6	0.00e+00	20	24	0	375390208	48	6252
2026-01-09 17:02:16.45	3.45	17.75	-37.8	-38.8	22.5	0.00e+00	37	24	0	377487360	48	6273
2026-01-09 17:02:17.46	3.27	17.83	-38.0	-39.0	22.4	0.00e+00	56	24	0	379584512	48	6415
2026-01-09 17:02:18.47	3.10	17.90	-37.8	-38.8	22.5	0.00e+00	90	24	0	381681664	48	6302
2026-01-09 17:02:19.48	2.92	17.98	-37.6	-38.6	22.7	0.00e+00	0	24	0	382730240	48	6142
2026-01-09 17:02:20.49	2.74	18.06	-37.6	-38.6	22.7	0.00e+00	92	24	0	384827392	48	6146
2026-01-09 17:02:21.50	2.55	18.14	-37.6	-38.6	22.8	0.00e+00	21	24	0	386924544	48	6107
2026-01-09 17:02:22.50	2.37	18.22	-37.6	-38.5	22.9	0.00e+00	19	24	0	389021696	48	6098
2026-01-09 17:02:23.51	2.19	18.30	-37.6	-38.5	22.8	0.00e+00	0	24	0	391118848	48	6100
2026-01-09 17:02:24.52	2.01	18.37	-37.6	-38.6	22.7	0.00e+00	0	24	0	393216000	48	6123
2026-01-09 17:02:25.53	1.82	18.45	-37.7	-38.7	22.6	0.00e+00	92	24	0	394264576	48	6225
2026-01-09 17:02:26.54	1.64	18.53	-37.6	-38.6	22.7	0.00e+00	2	24	0	396361728	48	6156
2026-01-09 17:02:27.55	1.45	18.61	-37.7	-38.7	22.6	0.00e+00	33	24	0	398458880	48	6235
2026-01-09 17:02:28.56	1.26	18.69	-37.8	-38.8	22.5	0.00e+00	0	24	0	400556032	48	6290
2026-01-09 17:02:29.57	1.07	18.76	-37.9	-38.9	22.5	0.00e+00	2	24	0	402653184	48	6358
2026-01-09 17:02:30.58	0.88	18.84	-37.9	-39.0	22.5	0.00e+00	60	25	0	403701760	48	6411
2026-01-09 17:02:31.59	0.69	18.92	-38.0	-39.0	22.4	0.00e+00	60	24	0	405798912	48	6443
2026-01-09 17:02:32.60	0.50	19.00	-38.1	-39.2	22.4	0.00e+00	65	24	0	407896064	48	6551
2026-01-09 17:02:33.61	0.31	19.07	-37.8	-38.8	22.5	0.00e+00	55	24	0	409993216	48	6317
2026-01-09 17:02:34.62	0.11	19.15	-37.8	-38.8	22.6	0.00e+00	92	25	0	412090368	48	6253
2026-01-09 17:02:35.63	359.92	19.23	-37.7	-38.7	22.5	0.00e+00	0	24	0	413138944	48	6222
2026-01-09 17:02:36.64	359.72	19.31	-37.6	-38.6	22.7	0.00e+00	92	24	0	415236096	48	6112
2026-01-09 17:02:37.64	359.53	19.38	-37.6	-38.5	22.8	0.00e+00	28	25	0	417333248	48	6091
2026-01-09 17:02:38.65	359.33	19.46	-37.4	-38.4	23.0	0.00e+00	21	24	0	419430400	48	5986
2026-01-09 17:02:39.66	359.13	19.54	-37.4	-38.3	23.0	0.00e+00	0	24	0	421527552	48	5932
2026-01-09 17:02:40.67	358.93	19.61	-37.4	-38.3	23.1	0.00e+00	20	24	0	422576128	48	5935
2026-01-09 17:02:41.68	358.73	19.69	-37.3	-38.2	23.1	0.00e+00	92	24	0	424673280	48	5864
2026-01-09 17:02:42.69	358.53	19.77	-37.3	-38.3	23.0	0.00e+00	0	24	0	426770432	48	5911
2026-01-09 17:02:43.70	358.33	19.84	-37.2	-38.2	23.1	0.00e+00	6	24	0	428867584	48	5840
2026-01-09 17:02:44.71	358.12	19.92	-37.3	-38.2	23.1	0.00e+00	6	24	0	430964736	48	5888
2026-01-09 17:02:45.72	357.92	19.99	-37.2	-38.2	23.1	0.00e+00	20	25	0	432013312	48	5844
2026-01-09 17:02:46.73	357.71	20.07	-37.2	-38.2	23.2	0.00e+00	7	25	0	434110464	48	5849
2026-01-09 17:02:47.74	357.50	20.14	-37.1	-38.0	23.3	0.00e+00	6	24	0	436207616	48	5743
2026-01-09 17:02:48.75	357.29	20.22	-37.3	-38.3	23.1	0.00e+00	92	24	0	438304768	48	5899
2026-01-09 17:02:49.76	357.09	20.30	-37.0	-37.9	23.3	0.00e+00	6	24	0	440401920	48	5670
2026-01-09 17:02:50.77	356.88	20.37	-37.0	-38.0	23.3	0.00e+00	92	24	0	441450496	48	5719
2026-01-09 17:02:51.78	356.66	20.45	-36.8	-37.8	23.5	0.00e+00	54	25	0	443547648	48	5571
2026-01-09 17:02:52.79	356.45	20.52	-36.9	-37.8	23.4	0.00e+00	61	25	0	445644800	48	5630
2026-01-09 17:02:53.80	356.24	20.59	-36.7	-37.6	23.7	0.00e+00	0	25	0	447741952	48	5466
2026-01-09 17:02:54.81	356.02	20.67	-36.8	-37.7	23.6	0.00e+00	0	25	0	449839104	46	6199
2026-01-09 17:02:55.82	355.81	20.74	-36.7	-37.6	23.7	0.00e+00	7	25	0	450887680	46	6139
2026-01-09 17:02:56.83	355.59	20.82	-36.4	-37.3	24.0	0.00e+00	0	24	0	452984832	46	5947
2026-01-09 17:02:57.83	355.38	20.89	-36.3	-37.2	24.0	0.00e+00	92	25	0	455081984	46	5872
2026-01-09 17:02:58.84	355.16	20.96	-36.4	-37.3	24.0	0.00e+00	55	25	0	457179136	46	5914
2026-01-09 17:02:59.85	354.94	21.04	-36.4	-37.3	24.0	0.00e+00	36	24	0	459276288	46	5920
2026-01-09 17:03:00.86	354.72	21.11	-36.2	-37.1	24.1	0.00e+00	59	24	0	461373440	46	5813
2026-01-09 17:03:01.87	354.50	21.18	-36.1	-37.0	24.3	0.00e+00	26	24	0	462422016	46	5703
2026-01-09 17:03:02.88	354.27	21.25	-35.7	-36.6	24.6	0.00e+00	0	24	0	464519168	46	5440
2026-01-09 17:03:03.89	354.05	21.33	-35.6	-36.4	24.7	0.00e+00	24	24	0	466616320	44	5992
2026-01-09 17:03:04.90	353.82	21.40	-35.7	-36.5	24.7	0.00e+00	91	24	0	468713472	44	6078
2026-01-09 17:03:05.91	353.60	21.47	-35.5	-36.3	24.8	0.00e+00	0	24	0	470810624	44	5943
2026-01-09 17:03:06.92	353.37	21.54	-35.5	-36.4	24.7	0.00e+00	92	24	0	471859200	44	5971
2026-01-09 17:03:07.93	353.14	21.61	-35.7	-36.5	24.7	0.00e+00	0	24	0	473956352	44	6050
2026-01-09 17:03:08.94	352.91	21.68	-35.7	-36.5	24.6	0.00e+00	6	25	0	476053504	44	6094
2026-01-09 17:03:09.94	352.69	21.75	-35.6	-36.4	24.8	0.00e+00	0	24	0	478150656	44	5990
2026-01-09 17:03:10.95	352.45	21.82	-35.6	-36.5	24.6	0.00e+00	0	24	0	480247808	44	6056
2026-01-09 17:03:11.96	352.22	21.89	-35.5	-36.3	24.8	0.00e+00	92	25	0	481296384	44	5949
2026-01-09 17:03:12.98	351.99	21.96	-35.5	-36.3	24.8	0.00e+00	7	25	0	483393536	44	5912
2026-01-09 17:03:13.99	351.75	22.03	-35.5	-36.4	24.7	0.00e+00	92	25	0	485490688	44	5979
2026-01-09 17:03:14.99	351.52	22.10	-35.7	-36.5	24.7	0.00e+00	0	24	0	487587840	44	6045
2026-01-09 17:03:16.00	351.28	22.17	-35.4	-36.2	24.8	0.00e+00	56	25	0	489684992	44	5893
2026-01-09 17:03:17.01	351.04	22.24	-35.5	-36.3	24.7	0.00e+00	60	24	0	490733568	44	5955
2026-01-09 17:03:18.02	350.81	22.31	-35.4	-36.2	24.7	0.00e+00	0	24	0	492830720	44	5881
2026-01-09 17:03:19.03	350.57	22.37	-35.5	-36.3	24.8	0.00e+00	58	25	0	494927872	44	5939
2026-01-09 17:03:20.04	350.33	22.44	-35.5	-36.3	24.9	0.00e+00	60	25	0	497025024	44	5919
2026-01-09 17:03:21.05	350.08	22.51	-35.4	-36.3	24.9	0.00e+00	92	25	0	499122176	44	5899
2026-01-09 17:03:22.06	349.84	22.57	-35.5	-36.3	24.9	0.00e+00	24	25	0	500170752	44	5927
2026-01-09 17:03:23.07	349.60	22.64	-35.4	-36.2	24.9	0.00e+00	92	25	0	502267904	44	5877
2026-01-09 17:03:24.08	349.35	22.71	-35.3	-36.0	25.0	0.00e+00	55	25	0	504365056	44	5756
2026-01-09 17:03:25.09	349.11	22.77	-35.2	-36.0	25.0	0.00e+00	0	25	0	506462208	44	5734
2026-01-09 17:03:26.10	348.86	22.84	-35.2	-36.0	25.1	0.00e+00	22	25	0	508559360	44	5747
2026-01-09 17:03:27.11	348.61	22.90	-35.3	-36.1	24.6	0.00e+00	19	25	0	509607936	44	5782
2026-01-09 17:03:28.11	348.36	22.96	-35.3	-36.1	25.0	0.00e+00	92	25	0	511705088	44	5786
2026-01-09 17:03:29.12	348.11	23.03	-35.5	-36.3	24.8	0.00e+00	0	25	0	513802240	44	5927
2026-01-09 17:03:30.13	347.86	23.09	-35.5	-36.3	24.8	0.00e+00	63	24	0	515899392	44	5964
2026-01-09 17:03:31.14	347.61	23.15	-35.6	-36.4	24.8	0.00e+00	0	25	0	517996544	44	5979
2026-01-09 17:03:32.15	347.36	23.22	-35.7	-36.6	24.6	0.00e+00	0	24	0	519045120	44	6107
2026-01-09 17:03:33.16	347.10	23.28	-35.6	-36.4	24.7	0.00e+00	0	24	0	521142272	44	6020
2026-01-09 17:03:34.17	346.85	23.34	-35.7	-36.5	24.7	0.00e+00	0	25	0	523239424	44	6084
2026-01-09 17:03:35.18	346.59	23.40	-35.5	-36.3	24.9	0.00e+00	91	24	0	525336576	44	5902
2026-01-09 17:03:36.19	346.33	23.46	-35.5	-36.3	24.7	0.00e+00	0	25	0	527433728	44	5951
2026-01-09 17:03:37.20	346.07	23.52	-35.5	-36.3	24.7	0.00e+00	91	25	0	529530880	44	5955
2026-01-09 17:03:38.21	345.82	23.58	-35.6	-36.4	24.7	0.00e+00	0	25	0	530579456	44	5982
2026-01-09 17:03:39.22	345.56	23.64	-35.5	-36.3	24.8	0.00e+00	4	24	0	532676608	44	5925
2026-01-09 17:03:40.23	345.29	23.70	-35.4	-36.2	24.9	0.00e+00	55	24	0	534773760	44	5845
2026-01-09 17:03:41.23	345.03	23.75	-35.4	-36.2	24.9	0.00e+00	61	25	0	536870912	44	5872
2026-01-09 17:03:42.25	344.77	23.81	-35.3	-36.1	25.0	0.00e+00	0	25	0	538968064	44	5788
2026-01-09 17:03:43.26	344.50	23.87	-35.3	-36.1	25.1	0.00e+00	62	25	0	540016640	44	5783
2026-01-09 17:03:44.26	344.24	23.92	-35.1	-35.9	25.1	0.00e+00	90	24	0	542113792	44	5674
2026-01-09 17:03:45.28	343.97	23.98	-35.2	-35.9	25.1	0.00e+00	21	25	0	544210944	44	5688
2026-01-09 17:03:46.28	343.71	24.04	-35.2	-36.0	25.0	0.00e+00	37	25	0	546308096	44	5728
2026-01-09 17:03:47.29	343.44	24.09	-35.3	-36.1	24.9	0.00e+00	0	25	0	548405248	44	5773
2026-01-09 17:03:48.30	343.17	24.14	-35.2	-36.0	24.3	0.00e+00	24	25	0	549453824	44	5722
2026-01-09 17:03:49.31	342.90	24.20	-35.2	-36.0	24.7	0.00e+00	19	25	0	551550976	44	5751
2026-01-09 17:03:50.32	342.63	24.25	-35.2	-36.0	25.0	0.00e+00	27	25	0	553648128	44	5711
2026-01-09 17:03:51.33	342.36	24.30	-35.3	-36.1	25.1	0.00e+00	92	25	0	555745280	44	5788
2026-01-09 17:03:52.34	342.09	24.35	-35.1	-35.9	25.3	0.00e+00	0	24	0	557842432	44	5631
2026-01-09 17:03:53.35	341.81	24.41	-35.1	-35.8	25.1	0.00e+00	92	25	0	558891008	44	5627
2026-01-09 17:03:54.36	341.54	24.46	-35.1	-35.8	25.3	0.00e+00	0	24	0	560988160	44	5629
2026-01-09 17:03:55.37	341.26	24.51	-35.2	-36.0	25.1	0.00e+00	0	25	0	563085312	44	5712
2026-01-09 17:03:56.38	340.99	24.55	-35.1	-35.9	25.1	0.00e+00	43	24	0	565182464	44	5677
2026-01-09 17:03:57.39	340.71	24.60	-35.1	-35.9	25.1	0.00e+00	0	24	0	567279616	44	5634
2026-01-09 17:03:58.40	340.43	24.65	-35.0	-35.8	25.3	0.00e+00	92	24	0	568328192	44	5585
2026-01-09 17:03:59.41	340.15	24.70	-35.0	-35.8	25.1	0.00e+00	60	24	0	570425344	44	5604
2026-01-09 17:04:00.42	339.87	24.75	-35.2	-36.0	25.0	0.00e+00	92	24	0	572522496	44	5732
2026-01-09 17:04:01.42	339.59	24.79	-35.2	-36.0	25.0	0.00e+00	0	24	0	574619648	44	5727
2026-01-09 17:04:02.43	339.31	24.84	-35.4	-36.3	24.8	0.00e+00	0	24	0	576716800	44	5901
2026-01-09 17:04:03.44	339.03	24.88	-35.6	-36.4	24.7	0.00e+00	0	24	0	577765376	44	5988
2026-01-09 17:04:04.45	338.75	24.92	-35.6	-36.4	24.8	0.00e+00	61	25	0	579862528	44	5979
2026-01-09 17:04:05.46	338.46	24.97	-35.6	-36.4	24.6	0.00e+00	0	25	0	581959680	44	6032
2026-01-09 17:04:06.47	338.18	25.01	-35.8	-36.7	24.5	0.00e+00	18	25	0	584056832	44	6180
2026-01-09 17:04:07.48	337.89	25.05	-35.9	-36.7	24.5	0.00e+00	92	24	0	586153984	44	6213
2026-01-09 17:04:08.49	337.61	25.09	-36.0	-36.9	24.0	0.00e+00	0	25	0	587202560	44	6343
2026-01-09 17:04:09.50	337.32	25.13	-36.2	-37.0	24.2	0.00e+00	92	25	0	589299712	44	6431
2026-01-09 17:04:10.51	337.03	25.17	-35.9	-36.7	24.4	0.00e+00	0	25	0	591396864	44	6235
2026-01-09 17:04:11.52	336.75	25.21	-36.1	-36.9	24.3	0.00e+00	0	25	0	593494016	44	6355
2026-01-09 17:04:12.53	336.46	25.25	-36.2	-37.1	24.3	0.00e+00	0	25	0	595591168	44	6486
2026-01-09 17:04:13.54	336.17	25.29	-36.0	-36.8	24.4	0.00e+00	0	25	0	597688320	44	6295
2026-01-09 17:04:14.55	335.88	25.32	-36.1	-37.0	24.2	0.00e+00	92	25	0	598736896	44	6425
2026-01-09 17:04:15.56	335.58	25.36	-36.2	-37.0	24.3	0.00e+00	0	25	0	600834048	44	6443
2026-01-09 17:04:16.57	335.29	25.40	-36.2	-37.1	24.1	0.00e+00	91	25	0	602931200	44	6503
2026-01-09 17:04:17.58	335.00	25.43	-36.3	-37.1	24.1	0.00e+00	60	25	0	605028352	44	6505
2026-01-09 17:04:18.59	334.71	25.46	-36.4	-37.2	24.1	0.00e+00	0	25	0	607125504	44	6584
2026-01-09 17:04:19.60	334.41	25.50	-36.5	-37.4	23.9	0.00e+00	0	25	0	608174080	44	6736
2026-01-09 17:04:20.60	334.12	25.53	-36.5	-37.4	23.9	0.00e+00	0	25	0	610271232	44	6705
2026-01-09 17:04:21.61	333.83	25.56	-36.6	-37.4	23.8	0.00e+00	90	24	0	612368384	44	6756
2026-01-09 17:04:22.62	333.53	25.59	-36.6	-37.5	23.8	0.00e+00	0	25	0	614465536	44	6795
2026-01-09 17:04:23.63	333.24	25.62	-36.6	-37.5	23.8	0.00e+00	92	25	0	616562688	44	6790
2026-01-09 17:04:24.64	332.94	25.65	-36.8	-37.7	23.7	0.00e+00	60	25	0	617611264	44	6954
2026-01-09 17:04:25.65	332.64	25.68	-37.0	-37.9	23.4	0.00e+00	92	24	0	619708416	46	6377
2026-01-09 17:04:26.66	332.35	25.70	-37.1	-38.0	23.3	0.00e+00	0	24	0	621805568	46	6462
2026-01-09 17:04:27.67	332.05	25.73	-37.2	-38.1	23.3	0.00e+00	0	25	0	623902720	46	6529
2026-01-09 17:04:28.68	331.75	25.76	-37.2	-38.2	23.2	0.00e+00	51	25	0	625999872	46	6551
2026-01-09 17:04:29.68	331.45	25.78	-37.1	-38.0	23.5	0.00e+00	22	25	0	627048448	46	6409
2026-01-09 17:04:30.69	331.15	25.80	-37.0	-37.9	23.4	0.00e+00	90	25	0	629145600	46	6358
2026-01-09 17:04:31.70	330.85	25.83	-37.1	-38.0	23.4	0.00e+00	22	25	0	631242752	46	6422
2026-01-09 17:04:32.71	330.55	25.85	-37.1	-38.0	23.3	0.00e+00	92	25	0	633339904	46	6427
2026-01-09 17:04:33.72	330.25	25.87	-37.1	-38.0	23.4	0.00e+00	22	25	0	635437056	46	6451
2026-01-09 17:04:34.73	329.95	25.89	-37.1	-38.0	23.3	0.00e+00	6	25	0	636485632	46	6463
2026-01-09 17:04:35.74	329.65	25.91	-37.1	-38.0	23.3	0.00e+00	5	25	0	638582784	46	6434
2026-01-09 17:04:36.75	329.35	25.93	-37.2	-38.1	23.2	0.00e+00	5	25	0	640679936	46	6526
2026-01-09 17:04:37.76	329.04	25.95	-37.2	-38.2	23.3	0.00e+00	92	25	0	642777088	46	6557
2026-01-09 17:04:38.78	328.74	25.96	-37.4	-38.4	23.1	0.00e+00	7	24	0	644874240	46	6718
2026-01-09 17:04:39.79	328.44	25.98	-37.3	-38.2	23.3	0.00e+00	92	25	0	645922816	46	6576
2026-01-09 17:04:40.80	328.13	26.00	-37.3	-38.3	23.2	0.00e+00	0	25	0	648019968	46	6636
2026-01-09 17:04:41.80	327.83	26.01	-37.3	-38.2	23.3	0.00e+00	0	25	0	650117120	46	6577
2026-01-09 17:04:42.81	327.53	26.02	-37.3	-38.2	23.2	0.00e+00	59	25	0	652214272	46	6599
2026-01-09 17:04:43.82	327.22	26.04	-37.5	-38.4	23.0	0.00e+00	54	25	0	654311424	46	6761
2026-01-09 17:04:44.83	326.92	26.05	-37.3	-38.3	23.1	0.00e+00	69	25	0	655360000	46	6632
2026-01-09 17:04:45.84	326.61	26.06	-37.2	-38.2	23.3	0.00e+00	55	25	0	657457152	46	6546
2026-01-09 17:04:46.85	326.31	26.07	-37.1	-38.1	23.3	0.00e+00	90	25	0	659554304	46	6480
2026-01-09 17:04:47.86	326.00	26.08	-37.2	-38.2	23.3	0.00e+00	33	25	0	661651456	46	6554
2026-01-09 17:04:48.87	325.70	26.09	-37.3	-38.3	23.2	0.00e+00	35	25	0	663748608	46	6624
2026-01-09 17:04:49.88	325.39	26.09	-37.5	-38.4	23.1	0.00e+00	0	25	0	665845760	46	6761
2026-01-09 17:04:50.89	325.09	26.10	-37.6	-38.6	23.0	0.00e+00	6	25	0	666894336	46	6876
2026-01-09 17:04:51.90	324.78	26.11	-37.7	-38.6	22.8	0.00e+00	0	25	0	668991488	48	6168
2026-01-09 17:04:52.91	324.48	26.11	-37.6	-38.6	22.9	0.00e+00	7	25	0	671088640	48	6107
2026-01-09 17:04:53.92	324.17	26.11	-37.6	-38.6	23.0	0.00e+00	90	25	0	673185792	48	6128
2026-01-09 17:04:54.93	323.86	26.12	-37.4	-38.3	23.1	0.00e+00	0	25	0	675282944	48	5963
2026-01-09 17:04:55.94	323.56	26.12	-37.5	-38.4	23.1	0.00e+00	27	25	0	676331520	48	6002
2026-01-09 17:04:56.95	323.25	26.12	-37.0	-37.9	23.5	0.00e+00	6	25	0	678428672	48	5656
2026-01-09 17:04:57.96	322.95	26.12	-36.8	-37.7	23.7	0.00e+00	0	25	0	680525824	48	5523
2026-01-09 17:04:58.97	322.64	26.12	-36.9	-37.8	23.7	0.00e+00	5	25	0	682622976	48	5596
2026-01-09 17:04:59.98	322.33	26.12	-36.7	-37.6	23.7	0.00e+00	60	25	0	684720128	48	5471
2026-01-09 17:05:00.99	322.03	26.12	-36.9	-37.8	23.6	0.00e+00	91	25	0	685768704	46	6301
2026-01-09 17:05:02.00	321.72	26.11	-36.9	-37.8	23.6	0.00e+00	0	25	0	687865856	46	6267
2026-01-09 17:05:03.01	321.42	26.11	-36.9	-37.8	23.7	0.00e+00	92	25	0	689963008	46	6265
2026-01-09 17:05:04.02	321.11	26.10	-36.9	-37.8	23.5	0.00e+00	60	25	0	692060160	46	6247
2026-01-09 17:05:05.03	320.81	26.10	-36.6	-37.4	23.8	0.00e+00	62	25	0	694157312	46	6015
2026-01-09 17:05:06.04	320.50	26.09	-36.4	-37.3	24.1	0.00e+00	20	25	0	695205888	46	5900
2026-01-09 17:05:07.05	320.20	26.08	-36.3	-37.2	24.0	0.00e+00	20	25	0	697303040	46	5853
2026-01-09 17:05:08.06	319.89	26.07	-36.3	-37.1	24.2	0.00e+00	91	25	0	699400192	46	5793
2026-01-09 17:05:09.07	319.58	26.06	-36.3	-37.2	24.2	0.00e+00	20	25	0	701497344	46	5858
2026-01-09 17:05:10.08	319.28	26.05	-36.0	-36.8	24.4	0.00e+00	91	25	0	703594496	46	5591
2026-01-09 17:05:11.08	318.98	26.04	-35.9	-36.7	24.6	0.00e+00	21	25	0	704643072	46	5531
2026-01-09 17:05:12.09	318.67	26.03	-35.9	-36.7	24.6	0.00e+00	2	25	0	706740224	46	5528
2026-01-09 17:05:13.10	318.37	26.02	-35.9	-36.7	24.5	0.00e+00	0	25	0	708837376	46	5561
2026-01-09 17:05:14.11	318.07	26.00	-35.8	-36.7	24.6	0.00e+00	26	25	0	710934528	46	5510
2026-01-09 17:05:15.12	317.76	25.99	-36.0	-36.8	24.5	0.00e+00	37	25	0	713031680	46	5617
2026-01-09 17:05:16.13	317.46	25.97	-35.8	-36.6	24.7	0.00e+00	0	25	0	714080256	46	5462
2026-01-09 17:05:17.14	317.16	25.95	-35.6	-36.4	24.7	0.00e+00	92	25	0	716177408	44	6032
2026-01-09 17:05:18.15	316.85	25.94	-35.7	-36.5	24.7	0.00e+00	0	25	0	718274560	44	6082
2026-01-09 17:05:19.16	316.55	25.92	-35.2	-36.0	25.1	0.00e+00	92	25	0	720371712	44	5721
2026-01-09 17:05:20.17	316.25	25.90	-35.1	-35.9	25.0	0.00e+00	0	25	0	722468864	44	5668
2026-01-09 17:05:21.18	315.95	25.88	-35.1	-35.8	25.3	0.00e+00	0	25	0	723517440	44	5621
2026-01-09 17:05:22.19	315.65	25.86	-34.8	-35.5	25.5	0.00e+00	0	25	0	725614592	42	6100
2026-01-09 17:05:23.20	315.35	25.84	-34.9	-35.6	25.5	0.00e+00	0	25	0	727711744	42	6159
2026-01-09 17:05:24.21	315.04	25.81	-35.0	-35.7	25.4	0.00e+00	91	25	0	729808896	42	6232
2026-01-09 17:05:25.22	314.74	25.79	-35.0	-35.8	25.4	0.00e+00	59	25	0	731906048	42	6275
2026-01-09 17:05:26.23	314.45	25.77	-35.1	-35.8	25.3	0.00e+00	90	25	0	734003200	42	6311
2026-01-09 17:05:27.24	314.15	25.74	-35.1	-35.9	25.2	0.00e+00	22	25	0	735051776	42	6329
2026-01-09 17:05:28.25	313.85	25.71	-35.1	-35.9	25.3	0.00e+00	59	25	0	737148928	42	6366
2026-01-09 17:05:29.25	313.55	25.69	-35.0	-35.7	25.3	0.00e+00	54	25	0	739246080	42	6224
2026-01-09 17:05:30.26	313.26	25.66	-34.9	-35.7	25.4	0.00e+00	60	25	0	741343232	42	6213
2026-01-09 17:05:31.27	312.96	25.63	-34.9	-35.7	25.4	0.00e+00	60	25	0	742391808	42	6209
2026-01-09 17:05:32.28	312.66	25.60	-34.8	-35.6	25.5	0.00e+00	20	25	0	744488960	42	6136
2026-01-09 17:05:33.29	312.37	25.57	-34.9	-35.7	25.5	0.00e+00	92	25	0	746586112	42	6182
2026-01-09 17:05:34.30	312.07	25.54	-35.0	-35.7	25.4	0.00e+00	0	25	0	748683264	42	6232
2026-01-09 17:05:35.31	311.78	25.51	-35.0	-35.7	25.4	0.00e+00	92	25	0	750780416	42	6241
2026-01-09 17:05:36.32	311.48	25.48	-35.0	-35.8	25.4	0.00e+00	22	25	0	751828992	42	6269
2026-01-09 17:05:37.33	311.19	25.44	-35.2	-36.0	25.2	0.00e+00	23	25	0	753926144	42	6426
2026-01-09 17:05:38.34	310.90	25.41	-35.4	-36.2	24.9	0.00e+00	12	25	0	756023296	42	6543
2026-01-09 17:05:39.35	310.60	25.37	-35.3	-36.1	24.9	0.00e+00	0	25	0	758120448	42	6523
2026-01-09 17:05:40.35	310.31	25.34	-35.3	-36.1	25.1	0.00e+00	90	25	0	760217600	42	6473
2026-01-09 17:05:41.36	310.02	25.30	-35.4	-36.2	25.0	0.00e+00	0	25	0	762314752	42	6549
2026-01-09 17:05:42.37	309.73	25.26	-35.3	-36.1	25.0	0.00e+00	92	25	0	763363328	42	6498
2026-01-09 17:05:43.38	309.44	25.23	-35.5	-36.3	24.9	0.00e+00	0	25	0	765460480	42	6690
2026-01-09 17:05:44.39	309.15	25.19	-35.5	-36.3	24.9	0.00e+00	0	25	0	767557632	42	6663
2026-01-09 17:05:45.40	308.87	25.15	-35.7	-36.6	24.7	0.00e+00	0	25	0	769654784	42	6858
2026-01-09 17:05:46.40	308.58	25.11	-35.7	-36.6	24.7	0.00e+00	0	25	0	771751936	44	6105
2026-01-09 17:05:47.41	308.29	25.07	-35.8	-36.7	24.5	0.00e+00	90	25	0	772800512	44	6191
2026-01-09 17:05:48.42	308.01	25.03	-35.8	-36.6	24.6	0.00e+00	0	25	0	774897664	44	6150
2026-01-09 17:05:49.43	307.72	24.98	-36.0	-36.8	24.4	0.00e+00	91	25	0	776994816	44	6282
2026-01-09 17:05:50.44	307.44	24.94	-35.9	-36.7	24.5	0.00e+00	55	25	0	779091968	44	6191
2026-01-09 17:05:51.45	307.16	24.90	-36.0	-36.9	24.4	0.00e+00	27	25	0	781189120	44	6323
2026-01-09 17:05:52.46	306.87	24.85	-35.8	-36.6	24.6	0.00e+00	21	25	0	782237696	44	6159
2026-01-09 17:05:53.47	306.59	24.81	-36.0	-36.8	24.6	0.00e+00	59	25	0	784334848	44	6277
2026-01-09 17:05:54.48	306.31	24.76	-36.0	-36.8	24.5	0.00e+00	31	25	0	786432000	44	6286
2026-01-09 17:05:55.49	306.03	24.72	-36.0	-36.9	24.4	0.00e+00	0	25	0	788529152	44	6321
2026-01-09 17:05:56.50	305.75	24.67	-36.2	-37.0	24.2	0.00e+00	90	25	0	790626304	44	6456
2026-01-09 17:05:57.51	305.47	24.62	-36.3	-37.2	24.2	0.00e+00	21	25	0	791674880	44	6580
2026-01-09 17:05:58.52	305.19	24.57	-36.4	-37.3	24.0	0.00e+00	92	25	0	793772032	44	6640
2026-01-09 17:05:59.52	304.92	24.52	-36.5	-37.4	23.9	0.00e+00	2	25	0	795869184	44	6747
2026-01-09 17:06:00.54	304.64	24.47	-36.8	-37.7	23.7	0.00e+00	0	25	0	797966336	44	6948
2026-01-09 17:06:01.54	304.37	24.42	-36.9	-37.8	23.7	0.00e+00	2	25	0	800063488	46	6269
2026-01-09 17:06:02.56	304.09	24.37	-36.9	-37.8	23.7	0.00e+00	0	25	0	801112064	46	6246
2026-01-09 17:06:03.56	303.82	24.32	-36.9	-37.8	23.6	0.00e+00	92	25	0	803209216	46	6312
2026-01-09 17:06:04.57	303.55	24.27	-36.8	-37.7	23.7	0.00e+00	2	25	0	805306368	46	6211
2026-01-09 17:06:05.58	303.27	24.22	-36.8	-37.7	23.6	0.00e+00	92	25	0	807403520	46	6236
2026-01-09 17:06:06.59	303.00	24.16	-36.8	-37.7	23.6	0.00e+00	0	25	0	809500672	46	6229
2026-01-09 17:06:07.59	302.74	24.11	-36.9	-37.7	23.7	0.00e+00	60	25	0	810549248	46	6237
2026-01-09 17:06:08.61	302.46	24.06	-36.8	-37.7	23.7	0.00e+00	48	25	0	812646400	46	6218
2026-01-09 17:06:09.61	302.20	24.00	-37.0	-37.9	23.6	0.00e+00	0	25	0	814743552	46	6352
2026-01-09 17:06:10.62	301.93	23.95	-37.1	-38.0	23.4	0.00e+00	78	25	0	816840704	46	6426
2026-01-09 17:06:11.63	301.67	23.89	-37.1	-38.1	23.4	0.00e+00	2	25	0	818937856	46	6505
2026-01-09 17:06:12.64	301.40	23.83	-37.2	-38.2	23.3	0.00e+00	92	25	0	819986432	46	6567
2026-01-09 17:06:13.65	301.14	23.78	-37.4	-38.4	23.1	0.00e+00	22	25	0	822083584	46	6704
2026-01-09 17:06:14.66	300.87	23.72	-37.4	-38.3	23.1	0.00e+00	53	25	0	824180736	46	6692
2026-01-09 17:06:15.67	300.61	23.66	-37.4	-38.4	23.1	0.00e+00	51	25	0	826277888	46	6700
2026-01-09 17:06:16.68	300.35	23.60	-37.3	-38.2	23.3	0.00e+00	6	25	0	828375040	46	6579
2026-01-09 17:06:17.69	300.09	23.54	-37.1	-38.0	23.4	0.00e+00	90	25	0	830472192	46	6444
2026-01-09 17:06:18.70	299.83	23.48	-37.0	-37.9	23.4	0.00e+00	0	25	0	831520768	46	6342
2026-01-09 17:06:19.71	299.57	23.42	-36.9	-37.8	23.6	0.00e+00	90	25	0	833617920	46	6267
2026-01-09 17:06:20.72	299.32	23.36	-36.9	-37.8	23.4	0.00e+00	30	25	0	835715072	46	6310
2026-01-09 17:06:21.73	299.06	23.30	-37.0	-37.9	23.5	0.00e+00	53	25	0	837812224	46	6354
2026-01-09 17:06:22.74	298.80	23.24	-37.1	-38.0	23.4	0.00e+00	0	25	0	839909376	46	6437
2026-01-09 17:06:23.74	298.55	23.18	-37.3	-38.2	23.2	0.00e+00	6	25	0	840957952	46	6586
2026-01-09 17:06:24.75	298.30	23.11	-37.2	-38.1	23.2	0.00e+00	0	25	0	843055104	46	6538
2026-01-09 17:06:25.76	298.05	23.05	-37.5	-38.4	23.1	0.00e+00	6	25	0	845152256	46	6732
2026-01-09 17:06:26.77	297.80	22.99	-37.6	-38.5	23.0	0.00e+00	92	25	0	847249408	46	6836
2026-01-09 17:06:27.78	297.55	22.92	-37.4	-38.3	23.2	0.00e+00	0	25	0	848297984	46	6673
2026-01-09 17:06:28.79	297.30	22.86	-37.2	-38.1	23.3	0.00e+00	91	25	0	850395136	46	6534
2026-01-09 17:06:29.80	297.05	22.79	-37.1	-38.1	23.4	0.00e+00	58	25	0	852492288	46	6482
2026-01-09 17:06:30.81	296.80	22.73	-37.0	-38.0	23.4	0.00e+00	0	25	0	854589440	46	6402
2026-01-09 17:06:31.81	296.56	22.66	-37.1	-38.0	23.4	0.00e+00	0	25	0	856686592	46	6404
2026-01-09 17:06:32.83	296.31	22.60	-37.1	-38.1	23.3	0.00e+00	0	25	0	858783744	46	6481
2026-01-09 17:06:33.83	296.07	22.53	-37.3	-38.3	23.2	0.00e+00	81	25	0	859832320	46	6622
2026-01-09 17:06:34.84	295.83	22.46	-37.1	-38.1	23.4	0.00e+00	29	25	0	861929472	46	6475
2026-01-09 17:06:35.85	295.58	22.40	-37.2	-38.1	23.2	0.00e+00	92	25	0	864026624	46	6507
2026-01-09 17:06:36.86	295.34	22.33	-37.0	-38.0	23.5	0.00e+00	29	25	0	866123776	46	6401
2026-01-09 17:06:37.87	295.10	22.26	-37.1	-38.1	23.3	0.00e+00	65	25	0	868220928	46	6478
2026-01-09 17:06:38.88	294.87	22.19	-37.1	-38.0	23.4	0.00e+00	58	25	0	869269504	46	6413
2026-01-09 17:06:39.89	294.63	22.12	-36.7	-37.6	23.8	0.00e+00	30	25	0	871366656	46	6142
2026-01-09 17:06:40.90	294.39	22.06	-36.6	-37.5	23.9	0.00e+00	43	25	0	873463808	46	6046
2026-01-09 17:06:41.90	294.16	21.99	-36.6	-37.5	23.9	0.00e+00	0	25	0	875560960	46	6053
2026-01-09 17:06:42.91	293.92	21.92	-36.5	-37.4	23.8	0.00e+00	92	25	0	877658112	46	5992
2026-01-09 17:06:43.92	293.69	21.85	-36.6	-37.5	23.8	0.00e+00	7	25	0	878706688	46	6090
2026-01-09 17:06:44.93	293.46	21.78	-36.4	-37.2	24.1	0.00e+00	92	25	0	880803840	46	5883
2026-01-09 17:06:45.94	293.23	21.71	-36.1	-36.9	24.3	0.00e+00	0	25	0	882900992	46	5690
2026-01-09 17:06:46.95	293.00	21.64	-36.1	-37.0	24.2	0.00e+00	6	25	0	884998144	46	5715
2026-01-09 17:06:47.96	292.77	21.57	-36.1	-36.9	24.3	0.00e+00	5	25	0	887095296	46	5675
2026-01-09 17:06:48.97	292.54	21.49	-36.2	-37.0	24.3	0.00e+00	6	25	0	888143872	46	5744
2026-01-09 17:06:49.98	292.31	21.42	-36.1	-36.9	24.3	0.00e+00	90	25	0	890241024	46	5673
2026-01-09 17:06:50.99	292.09	21.35	-36.0	-36.9	24.4	0.00e+00	52	25	0	892338176	46	5643
2026-01-09 17:06:52.00	291.86	21.28	-36.0	-36.8	24.3	0.00e+00	91	25	0	894435328	46	5625
2026-01-09 17:06:53.01	291.64	21.21	-36.1	-36.9	24.3	0.00e+00	57	25	0	896532480	46	5668
2026-01-09 17:06:54.02	291.41	21.13	-36.2	-37.0	24.2	0.00e+00	0	25	0	897581056	46	5741
2026-01-09 17:06:55.03	291.19	21.06	-36.0	-36.9	24.4	0.00e+00	51	25	0	899678208	46	5648
2026-01-09 17:06:56.04	290.97	20.99	-36.2	-37.0	23.9	0.00e+00	24	25	0	901775360	46	5760
2026-01-09 17:06:57.05	290.75	20.91	-36.1	-36.9	24.3	0.00e+00	58	25	0	903872512	46	5693
2026-01-09 17:06:58.06	290.53	20.84	-36.2	-37.0	24.2	0.00e+00	58	24	0	905969664	46	5735
2026-01-09 17:06:59.07	290.32	20.77	-36.2	-37.0	24.2	0.00e+00	92	25	0	907018240	46	5760
2026-01-09 17:07:00.07	290.10	20.69	-36.1	-37.0	24.3	0.00e+00	24	25	0	909115392	46	5702
2026-01-09 17:07:01.08	289.89	20.62	-36.0	-36.8	24.4	0.00e+00	92	25	0	911212544	46	5596
2026-01-09 17:07:02.09	289.67	20.54	-36.1	-37.0	24.3	0.00e+00	23	25	0	913309696	46	5727
2026-01-09 17:07:03.10	289.46	20.47	-36.1	-37.0	24.3	0.00e+00	0	25	0	915406848	46	5706
2026-01-09 17:07:04.11	289.25	20.39	-36.2	-37.0	24.2	0.00e+00	71	25	0	916455424	46	5748
2026-01-09 17:07:05.11	289.04	20.32	-36.2	-37.1	24.2	0.00e+00	0	25	0	918552576	46	5775
2026-01-09 17:07:06.12	288.83	20.24	-36.3	-37.1	24.1	0.00e+00	92	25	0	920649728	46	5811
2026-01-09 17:07:07.13	288.62	20.17	-36.3	-37.2	24.2	0.00e+00	2	25	0	922746880	46	5830
2026-01-09 17:07:08.14	288.41	20.09	-36.1	-37.0	24.3	0.00e+00	66	25	0	924844032	46	5712
2026-01-09 17:07:09.15	288.20	20.02	-36.2	-37.1	24.1	0.00e+00	0	25	0	926941184	46	5764
2026-01-09 17:07:10.16	288.00	19.94	-36.1	-37.0	24.2	0.00e+00	0	25	0	927989760	46	5705
2026-01-09 17:07:11.16	287.79	19.86	-35.9	-36.8	24.4	0.00e+00	2	25	0	930086912	46	5572
2026-01-09 17:07:12.17	287.59	19.79	-36.1	-37.0	24.3	0.00e+00	0	25	0	932184064	46	5696
2026-01-09 17:07:13.18	287.39	19.71	-35.9	-36.7	24.4	0.00e+00	90	25	0	934281216	46	5550
2026-01-09 17:07:14.19	287.19	19.64	-35.8	-36.6	24.5	0.00e+00	52	25	0	936378368	46	5501
2026-01-09 17:07:15.19	286.99	19.56	-35.7	-36.6	24.6	0.00e+00	90	25	0	937426944	44	6105
2026-01-09 17:07:16.20	286.79	19.48	-35.7	-36.5	24.7	0.00e+00	0	25	0	939524096	44	6089
2026-01-09 17:07:17.21	286.59	19.41	-35.7	-36.5	24.6	0.00e+00	49	25	0	941621248	44	6087
2026-01-09 17:07:18.22	286.39	19.33	-35.8	-36.6	24.5	0.00e+00	52	25	0	943718400	44	6121
2026-01-09 17:07:19.23	286.19	19.25	-35.8	-36.7	24.4	0.00e+00	31	25	0	945815552	44	6197
2026-01-09 17:07:20.24	286.00	19.17	-35.7	-36.5	24.7	0.00e+00	54	25	0	946864128	44	6059
2026-01-09 17:07:21.25	285.80	19.10	-35.8	-36.7	24.5	0.00e+00	29	25	0	948961280	44	6188
2026-01-09 17:07:22.25	285.61	19.02	-35.7	-36.5	24.6	0.00e+00	92	25	0	951058432	44	6056
2026-01-09 17:07:23.26	285.42	18.94	-35.5	-36.3	24.8	0.00e+00	3	25	0	953155584	44	5915
2026-01-09 17:07:24.27	285.23	18.86	-35.5	-36.3	24.7	0.00e+00	92	25	0	955252736	44	5946
2026-01-09 17:07:25.28	285.03	18.79	-35.6	-36.4	24.7	0.00e+00	24	25	0	956301312	44	5977
2026-01-09 17:07:26.29	284.85	18.71	-35.5	-36.3	24.8	0.00e+00	0	25	0	958398464	44	5912
2026-01-09 17:07:27.30	284.66	18.63	-35.4	-36.2	24.8	0.00e+00	32	25	0	960495616	44	5872
2026-01-09 17:07:28.31	284.47	18.55	-35.5	-36.3	24.8	0.00e+00	22	25	0	962592768	44	5918
2026-01-09 17:07:29.32	284.28	18.47	-35.2	-36.0	25.0	0.00e+00	92	25	0	964689920	44	5744
2026-01-09 17:07:30.33	284.10	18.40	-35.2	-36.0	25.1	0.00e+00	24	25	0	965738496	44	5711
2026-01-09 17:07:31.33	283.91	18.32	-35.3	-36.0	25.0	0.00e+00	92	25	0	967835648	44	5755
2026-01-09 17:07:32.34	283.73	18.24	-35.1	-35.9	25.2	0.00e+00	0	25	0	969932800	44	5672
2026-01-09 17:07:33.35	283.54	18.16	-35.2	-35.9	25.1	0.00e+00	0	25	0	972029952	44	5682
2026-01-09 17:07:34.36	283.36	18.08	-35.3	-36.1	24.9	0.00e+00	0	25	0	974127104	44	5800
2026-01-09 17:07:35.37	283.18	18.00	-35.3	-36.1	25.0	0.00e+00	2	25	0	975175680	44	5779
2026-01-09 17:07:36.38	283.00	17.93	-35.3	-36.1	24.9	0.00e+00	92	25	0	977272832	44	5822
2026-01-09 17:07:37.39	282.82	17.85	-35.2	-36.0	25.0	0.00e+00	56	25	0	979369984	44	5732
2026-01-09 17:07:38.40	282.64	17.77	-35.3	-36.1	24.9	0.00e+00	92	25	0	981467136	44	5762
2026-01-09 17:07:39.41	282.47	17.69	-35.2	-36.0	25.0	0.00e+00	0	25	0	983564288	44	5723
2026-01-09 17:07:40.42	282.29	17.61	-35.3	-36.1	24.9	0.00e+00	62	25	0	984612864	44	5805
2026-01-09 17:07:41.42	282.12	17.53	-35.2	-36.0	25.0	0.00e+00	0	25	0	986710016	44	5716
2026-01-09 17:07:42.43	281.94	17.45	-35.1	-35.9	25.1	0.00e+00	25	25	0	988807168	44	5686
2026-01-09 17:07:43.44	281.77	17.38	-35.1	-35.9	25.1	0.00e+00	0	25	0	990904320	44	5635
2026-01-09 17:07:44.45	281.59	17.30	-35.2	-36.0	24.9	0.00e+00	28	25	0	993001472	44	5724
2026-01-09 17:07:45.46	281.42	17.22	-35.2	-36.0	25.0	0.00e+00	91	25	0	994050048	44	5699
2026-01-09 17:07:46.47	281.25	17.14	-35.1	-35.9	25.1	0.00e+00	0	25	0	996147200	44	5675
2026-01-09 17:07:47.48	281.08	17.06	-35.3	-36.1	24.9	0.00e+00	0	25	0	998244352	44	5764
2026-01-09 17:07:48.49	280.91	16.98	-35.3	-36.1	24.9	0.00e+00	0	25	0	1000341504	44	5795
2026-01-09 17:07:49.49	280.74	16.90	-35.5	-36.4	24.7	0.00e+00	31	25	0	1002438656	44	5971
2026-01-09 17:07:50.51	280.58	16.82	-35.5	-36.3	24.7	0.00e+00	29	25	0	1003487232	44	5964
2026-01-09 17:07:51.51	280.41	16.75	-35.7	-36.5	24.6	0.00e+00	0	25	0	1005584384	44	6067
2026-01-09 17:07:52.52	280.25	16.67	-35.4	-36.1	24.8	0.00e+00	92	25	0	1007681536	44	5828
2026-01-09 17:07:53.53	280.08	16.59	-35.3	-36.1	24.3	0.00e+00	0	25	0	1009778688	44	5802
2026-01-09 17:07:54.54	279.92	16.51	-35.3	-36.1	24.7	0.00e+00	85	25	0	1011875840	44	5777
2026-01-09 17:07:55.55	279.75	16.43	-35.3	-36.1	24.8	0.00e+00	0	25	0	1012924416	44	5776
2026-01-09 17:07:56.56	279.59	16.35	-35.4	-36.2	24.7	0.00e+00	2	25	0	1015021568	44	5836
2026-01-09 17:07:57.57	279.43	16.27	-35.3	-36.1	24.6	0.00e+00	0	25	0	1017118720	44	5766
2026-01-09 17:07:58.58	279.27	16.19	-35.3	-36.1	24.8	0.00e+00	54	25	0	1019215872	44	5812
2026-01-09 17:07:59.59	279.11	16.12	-35.4	-36.1	24.7	0.00e+00	92	25	0	1021313024	44	5828
2026-01-09 17:08:00.60	278.95	16.04	-35.4	-36.2	24.8	0.00e+00	0	25	0	1022361600	44	5855
2026-01-09 17:08:01.61	278.79	15.96	-35.4	-36.2	24.7	0.00e+00	90	25	0	1024458752	44	5886
2026-01-09 17:08:02.62	278.64	15.88	-35.5	-36.3	24.7	0.00e+00	0	25	0	1026555904	44	5960
2026-01-09 17:08:03.63	278.48	15.80	-35.4	-36.2	24.8	0.00e+00	0	25	0	1028653056	44	5838
2026-01-09 17:08:04.64	278.32	15.72	-35.6	-36.4	24.6	0.00e+00	26	25	0	1030750208	44	5988
2026-01-09 17:08:05.65	278.17	15.64	-35.5	-36.3	24.7	0.00e+00	55	25	0	1032847360	44	5956
2026-01-09 17:08:06.66	278.02	15.56	-35.5	-36.4	24.6	0.00e+00	0	25	0	1033895936	44	5967
2026-01-09 17:08:07.67	277.86	15.49	-35.8	-36.6	24.5	0.00e+00	33	25	0	1035993088	44	6124
2026-01-09 17:08:08.68	277.71	15.41	-35.9	-36.8	24.2	0.00e+00	90	25	0	1038090240	44	6253
2026-01-09 17:08:09.69	277.56	15.33	-35.8	-36.7	24.4	0.00e+00	5	25	0	1040187392	44	6197
2026-01-09 17:08:10.70	277.41	15.25	-36.0	-36.9	24.2	0.00e+00	28	25	0	1042284544	44	6338
2026-01-09 17:08:11.71	277.26	15.17	-36.1	-37.0	24.1	0.00e+00	0	25	0	1043333120	44	6435
2026-01-09 17:08:12.72	277.11	15.09	-36.3	-37.2	23.9	0.00e+00	6	25	0	1045430272	44	6548
2026-01-09 17:08:13.72	276.96	15.02	-36.4	-37.3	23.8	0.00e+00	31	25	0	1047527424	44	6674
2026-01-09 17:08:14.73	276.82	14.94	-36.4	-37.3	23.9	0.00e+00	0	25	0	1049624576	44	6616
2026-01-09 17:08:15.74	276.67	14.86	-36.4	-37.3	23.8	0.00e+00	92	25	0	1051721728	44	6620
2026-01-09 17:08:16.75	276.52	14.78	-36.4	-37.3	23.9	0.00e+00	5	25	0	1052770304	44	6623
2026-01-09 17:08:17.75	276.38	14.71	-36.3	-37.2	23.8	0.00e+00	90	25	0	1054867456	44	6604
2026-01-09 17:08:18.76	276.24	14.63	-36.3	-37.2	23.9	0.00e+00	7	25	0	1056964608	44	6580
2026-01-09 17:08:19.77	276.09	14.55	-36.1	-36.9	24.1	0.00e+00	5	25	0	1059061760	44	6387
2026-01-09 17:08:20.78	275.95	14.47	-36.1	-37.0	24.1	0.00e+00	0	25	0	1061158912	44	6404
2026-01-09 17:08:21.79	275.81	14.40	-36.0	-36.9	24.1	0.00e+00	0	25	0	1062207488	44	6332
2026-01-09 17:08:22.80	275.67	14.32	-36.2	-37.1	24.1	0.00e+00	36	25	0	1064304640	44	6467
2026-01-09 17:08:23.81	275.53	14.24	-36.2	-37.0	24.0	0.00e+00	0	25	0	1066401792	44	6449
2026-01-09 17:08:24.81	275.39	14.16	-36.3	-37.2	23.9	0.00e+00	92	25	0	1068498944	44	6566
2026-01-09 17:08:25.83	275.25	14.09	-36.4	-37.3	23.9	0.00e+00	6	25	0	1070596096	44	6661
2026-01-09 17:08:26.84	275.11	14.01	-36.5	-37.4	23.7	0.00e+00	54	25	0	1071644672	44	6732
2026-01-09 17:08:27.84	274.97	13.93	-36.6	-37.5	23.7	0.00e+00	52	25	0	1073741824	44	6795
2026-01-09 17:08:28.85	274.84	13.85	-36.7	-37.6	23.6	0.00e+00	53	25	0	1075838976	44	6925
2026-01-09 17:08:29.86	274.70	13.78	-36.8	-37.7	23.4	0.00e+00	25	25	0	1077936128	46	6239
2026-01-09 17:08:30.87	274.56	13.70	-36.9	-37.8	23.4	0.00e+00	51	25	0	1080033280	46	6268
2026-01-09 17:08:31.88	274.43	13.62	-36.9	-37.8	23.3	0.00e+00	92	25	0	1081081856	46	6310
2026-01-09 17:08:32.89	274.30	13.55	-36.9	-37.9	23.5	0.00e+00	7	25	0	1083179008	46	6320
2026-01-09 17:08:33.90	274.16	13.47	-36.9	-37.8	23.4	0.00e+00	92	25	0	1085276160	46	6276
2026-01-09 17:08:34.91	274.03	13.39	-37.0	-37.9	23.3	0.00e+00	32	25	0	1087373312	46	6370
2026-01-09 17:08:35.92	273.90	13.32	-36.7	-37.6	23.5	0.00e+00	34	25	0	1089470464	46	6111
2026-01-09 17:08:36.93	273.77	13.24	-36.7	-37.6	23.5	0.00e+00	0	25	0	1090519040	46	6116
2026-01-09 17:08:37.94	273.64	13.16	-36.7	-37.6	23.5	0.00e+00	0	25	0	1092616192	46	6135
2026-01-09 17:08:38.94	273.51	13.09	-36.8	-37.7	23.4	0.00e+00	92	25	0	1094713344	46	6197
2026-01-09 17:08:39.95	273.38	13.01	-36.9	-37.8	23.3	0.00e+00	8	25	0	1096810496	46	6267
2026-01-09 17:08:40.96	273.25	12.94	-36.9	-37.8	23.2	0.00e+00	92	25	0	1098907648	46	6305
2026-01-09 17:08:41.97	273.12	12.86	-37.0	-37.9	23.3	0.00e+00	0	25	0	1099956224	46	6372
2026-01-09 17:08:42.98	272.99	12.78	-37.0	-38.0	23.2	0.00e+00	0	25	0	1102053376	46	6395
2026-01-09 17:08:43.99	272.87	12.71	-37.0	-37.9	23.2	0.00e+00	48	25	0	1104150528	46	6383
2026-01-09 17:08:45.00	272.74	12.63	-37.1	-38.0	23.1	0.00e+00	0	25	0	1106247680	46	6428
2026-01-09 17:08:46.01	272.62	12.56	-37.0	-38.0	23.2	0.00e+00	69	25	0	1108344832	46	6399
2026-01-09 17:08:47.01	272.49	12.48	-37.0	-38.0	23.2	0.00e+00	49	25	0	1109393408	46	6404
2026-01-09 17:08:48.02	272.37	12.41	-37.1	-38.1	23.1	0.00e+00	90	25	0	1111490560	46	6483
2026-01-09 17:08:49.03	272.25	12.33	-37.2	-38.1	23.1	0.00e+00	50	25	0	1113587712	46	6532
2026-01-09 17:08:50.04	272.12	12.26	-37.2	-38.2	23.0	0.00e+00	33	25	0	1115684864	46	6551
2026-01-09 17:08:51.05	272.00	12.18	-37.3	-38.2	23.0	0.00e+00	32	25	0	1117782016	46	6594
2026-01-09 17:08:52.06	271.88	12.11	-37.3	-38.2	23.0	0.00e+00	53	25	0	1118830592	46	6615
2026-01-09 17:08:53.07	271.76	12.03	-37.2	-38.2	22.9	0.00e+00	0	25	0	1120927744	46	6559
2026-01-09 17:08:54.07	271.64	11.96	-37.2	-38.2	23.0	0.00e+00	28	25	0	1123024896	46	6585
2026-01-09 17:08:55.08	271.52	11.88	-37.2	-38.2	23.0	0.00e+00	92	25	0	1125122048	46	6581
2026-01-09 17:08:56.09	271.40	11.81	-37.3	-38.3	22.9	0.00e+00	2	25	0	1127219200	46	6631
2026-01-09 17:08:57.10	271.29	11.73	-37.2	-38.2	22.9	0.00e+00	92	25	0	1129316352	46	6572
2026-01-09 17:08:58.11	271.17	11.66	-37.3	-38.3	22.8	0.00e+00	28	25	0	1130364928	46	6643
2026-01-09 17:08:59.12	271.05	11.59	-37.3	-38.2	22.9	0.00e+00	0	25	0	1132462080	46	6607
2026-01-09 17:09:00.13	270.93	11.51	-37.3	-38.3	22.8	0.00e+00	0	25	0	1134559232	46	6659
2026-01-09 17:09:01.14	270.82	11.44	-37.4	-38.4	22.8	0.00e+00	0	25	0	1136656384	46	6696
2026-01-09 17:09:02.15	270.70	11.36	-37.4	-38.4	22.7	0.00e+00	92	25	0	1138753536	46	6745
2026-01-09 17:09:03.16	270.59	11.29	-37.4	-38.4	22.7	0.00e+00	0	25	0	1139802112	46	6730
2026-01-09 17:09:04.16	270.48	11.22	-37.4	-38.3	22.8	0.00e+00	90	25	0	1141899264	46	6691
2026-01-09 17:09:05.17	270.36	11.14	-37.5	-38.5	22.5	0.00e+00	0	25	0	1143996416	46	6814
2026-01-09 17:09:06.18	270.25	11.07	-37.5	-38.5	22.6	0.00e+00	0	25	0	1146093568	46	6779
2026-01-09 17:09:07.19	270.14	11.00	-37.5	-38.5	22.7	0.00e+00	0	25	0	1148190720	46	6772
2026-01-09 17:09:08.20	270.03	10.92	-37.5	-38.5	22.6	0.00e+00	0	25	0	1149239296	46	6836
2026-01-09 17:09:09.21	269.92	10.85	-37.7	-38.7	22.5	0.00e+00	52	25	0	1151336448	46	6930
2026-01-09 17:09:10.22	269.80	10.78	-37.7	-38.7	22.5	0.00e+00	54	25	0	1153433600	46	6936
2026-01-09 17:09:11.23	269.69	10.70	-37.7	-38.8	22.4	0.00e+00	90	25	0	1155530752	46	7031
2026-01-09 17:09:12.23	269.59	10.63	-37.8	-38.9	22.1	0.00e+00	52	25	0	1157627904	48	6326
2026-01-09 17:09:13.24	269.48	10.56	-37.9	-38.9	22.1	0.00e+00	73	25	0	1158676480	48	6379
2026-01-09 17:09:14.25	269.37	10.49	-37.9	-38.9	22.2	0.00e+00	35	25	0	1160773632	48	6381
2026-01-09 17:09:15.26	269.26	10.41	-38.0	-39.1	22.1	0.00e+00	0	25	0	1162870784	48	6483
2026-01-09 17:09:16.27	269.15	10.34	-38.1	-39.2	22.0	0.00e+00	32	25	0	1164967936	48	6550
2026-01-09 17:09:17.28	269.05	10.27	-38.1	-39.2	22.0	0.00e+00	35	25	0	1167065088	48	6557
2026-01-09 17:09:18.29	268.94	10.20	-38.2	-39.3	21.8	0.00e+00	91	25	0	1168113664	48	6630
2026-01-09 17:09:19.30	268.84	10.12	-38.3	-39.4	21.7	0.00e+00	37	25	0	1170210816	48	6706
2026-01-09 17:09:20.31	268.73	10.05	-38.3	-39.4	21.7	0.00e+00	92	25	0	1172307968	48	6734
2026-01-09 17:09:21.32	268.63	9.98	-38.4	-39.5	21.6	0.00e+00	36	25	0	1174405120	48	6824
2026-01-09 17:09:22.32	268.52	9.91	-38.5	-39.6	21.6	0.00e+00	0	25	0	1176502272	48	6878
2026-01-09 17:09:23.33	268.42	9.84	-38.5	-39.6	21.5	0.00e+00	2	25	0	1177550848	48	6905
2026-01-09 17:09:24.34	268.32	9.77	-38.5	-39.7	21.5	0.00e+00	0	25	0	1179648000	48	6939
2026-01-09 17:09:25.36	268.21	9.69	-38.6	-39.8	21.4	0.00e+00	92	25	0	1181745152	48	7011
2026-01-09 17:09:26.36	268.11	9.62	-38.7	-39.9	21.3	0.00e+00	0	25	0	1183842304	48	7125
2026-01-09 17:09:27.37	268.01	9.55	-38.7	-39.9	21.2	0.00e+00	90	25	0	1185939456	50	6327
2026-01-09 17:09:28.38	267.91	9.48	-38.6	-39.8	21.4	0.00e+00	53	25	0	1186988032	50	6288
2026-01-09 17:09:29.39	267.81	9.41	-38.7	-39.8	21.3	0.00e+00	52	25	0	1189085184	50	6301
