passes_logs/2026/01/09/R4.6S_Anadyr/R4.6S_Anadyr__20260109_115655_NOAA_20_JPSS-1_rec.log

#Pass ID: 20260109_115655_NOAA 20 (JPSS-1)
#Satellite: NOAA 20 (JPSS-1)
#Configuration: NOAA 20
#almurnet v.1.7.20251203
#Start time: 2026-01-09 11:56:55

#Version: 2.2.20231116
#Station: R4.6S_Anadyr
#Location: 177.4865 lon 64.73178 lat
#TLE: 1 43013U 17073A   26008.91585656  .00000107  00000+0  71497-4 0  9999
#TLE: 2 43013  98.7631 309.9196 0001713  47.9261 312.2060 14.19534561421870

#Time	Az	El	Level	Level2	SNR	BER	BlckErr	Temp	State	Recorded	gain1	gain2
2026-01-09 11:56:55.91	19.72	0.04	-47.8	-62.7	3.5	1.51e+00	0	21	0	0	60	49218
2026-01-09 11:56:56.91	19.81	0.08	-47.8	-63.0	3.6	1.51e+00	0	23	104	0	60	50811
2026-01-09 11:56:57.92	19.89	0.13	-47.8	-63.0	3.6	1.51e+00	0	23	104	0	60	50833
2026-01-09 11:56:58.93	19.98	0.17	-47.8	-63.0	3.6	1.51e+00	0	23	104	0	60	51032
2026-01-09 11:56:59.94	20.07	0.22	-47.9	-63.1	3.6	1.51e+00	0	23	104	0	60	51385
2026-01-09 11:57:00.95	20.16	0.26	-47.9	-63.1	3.6	1.51e+00	0	23	104	0	60	51616
2026-01-09 11:57:01.96	20.24	0.31	-47.9	-63.1	3.6	1.51e+00	0	23	104	0	60	51389
2026-01-09 11:57:02.97	20.33	0.35	-47.8	-63.1	3.6	1.51e+00	0	23	104	0	60	51363
2026-01-09 11:57:03.98	20.42	0.40	-47.6	-63.0	3.6	1.51e+00	0	23	104	0	60	51082
2026-01-09 11:57:04.99	20.51	0.44	-47.7	-63.0	3.6	1.51e+00	0	23	104	0	60	50840
2026-01-09 11:57:06.00	20.60	0.49	-47.7	-62.8	3.6	1.51e+00	0	23	104	0	60	49951
2026-01-09 11:57:07.01	20.68	0.53	-47.5	-62.7	3.6	1.51e+00	0	23	104	0	60	49338
2026-01-09 11:57:08.02	20.77	0.58	-47.4	-62.6	3.6	1.51e+00	0	23	104	0	60	48878
2026-01-09 11:57:09.03	20.86	0.62	-47.3	-62.5	3.6	1.51e+00	0	23	104	0	60	48007
2026-01-09 11:57:10.04	20.95	0.67	-47.0	-62.3	3.6	1.51e+00	0	23	104	0	60	47023
2026-01-09 11:57:11.05	21.04	0.71	-46.8	-61.9	3.6	1.51e+00	0	23	104	0	60	44996
2026-01-09 11:57:12.06	21.13	0.76	-46.2	-61.3	3.6	1.51e+00	0	23	104	0	60	42133
2026-01-09 11:57:13.07	21.22	0.80	-46.1	-61.2	3.6	1.51e+00	0	23	104	0	60	41704
2026-01-09 11:57:14.08	21.31	0.85	-46.1	-61.2	3.6	1.51e+00	0	23	104	0	60	41741
2026-01-09 11:57:15.08	21.40	0.89	-46.1	-61.3	3.6	1.51e+00	0	23	104	0	60	41988
2026-01-09 11:57:16.09	21.49	0.94	-46.1	-61.3	3.6	1.51e+00	0	23	104	0	60	41911
2026-01-09 11:57:17.10	21.59	0.98	-46.1	-61.2	3.6	1.51e+00	0	23	104	0	60	41700
2026-01-09 11:57:18.11	21.68	1.03	-46.1	-61.2	3.5	1.51e+00	0	23	104	0	60	41715
2026-01-09 11:57:19.12	21.77	1.07	-46.0	-61.2	3.6	1.51e+00	0	23	104	0	60	41719
2026-01-09 11:57:20.13	21.86	1.12	-46.0	-61.3	3.6	1.51e+00	0	23	104	0	60	41774
2026-01-09 11:57:21.14	21.95	1.16	-46.0	-61.3	3.6	1.51e+00	0	23	104	0	60	41778
2026-01-09 11:57:22.15	22.05	1.21	-46.0	-61.3	3.6	1.51e+00	0	23	104	0	60	41814
2026-01-09 11:57:23.16	22.14	1.25	-46.1	-61.2	3.5	1.51e+00	0	23	104	0	60	41674
2026-01-09 11:57:24.17	22.23	1.30	-46.0	-61.2	3.6	1.51e+00	0	23	104	0	60	41528
2026-01-09 11:57:25.18	22.33	1.34	-46.1	-61.2	3.6	1.51e+00	0	23	104	0	60	41609
2026-01-09 11:57:26.19	22.42	1.39	-46.1	-61.2	3.6	1.51e+00	0	23	104	0	60	41697
2026-01-09 11:57:27.20	22.51	1.43	-46.0	-61.2	3.6	1.51e+00	0	23	104	0	60	41717
2026-01-09 11:57:28.21	22.61	1.48	-46.0	-61.2	3.6	1.51e+00	0	23	104	0	60	41642
2026-01-09 11:57:29.22	22.70	1.52	-46.1	-61.2	3.6	1.51e+00	0	23	104	0	60	41626
2026-01-09 11:57:30.23	22.80	1.57	-46.0	-61.2	3.6	1.51e+00	0	23	104	0	60	41659
2026-01-09 11:57:31.24	22.89	1.61	-46.0	-61.2	3.6	1.51e+00	0	23	104	0	60	41580
2026-01-09 11:57:32.25	22.99	1.66	-46.0	-61.2	3.6	1.51e+00	0	23	104	0	60	41407
2026-01-09 11:57:33.26	23.08	1.70	-46.0	-61.2	3.6	1.51e+00	0	23	104	0	60	41703
2026-01-09 11:57:34.27	23.18	1.75	-46.0	-61.2	3.6	1.51e+00	0	23	104	0	60	41394
2026-01-09 11:57:35.28	23.28	1.79	-46.0	-61.2	3.6	1.51e+00	0	23	104	0	60	41676
2026-01-09 11:57:36.29	23.37	1.84	-46.0	-61.2	3.6	1.51e+00	0	23	104	0	60	41522
2026-01-09 11:57:37.30	23.47	1.89	-46.0	-61.2	3.6	1.51e+00	0	23	104	0	60	41435
2026-01-09 11:57:38.31	23.57	1.93	-46.0	-61.2	3.6	1.51e+00	0	23	104	0	60	41620
2026-01-09 11:57:39.32	23.66	1.98	-46.0	-61.2	3.6	1.51e+00	0	23	104	0	60	41602
2026-01-09 11:57:40.33	23.76	2.02	-46.0	-61.2	3.6	1.51e+00	0	23	104	0	60	41630
2026-01-09 11:57:41.34	23.86	2.07	-46.0	-61.1	3.6	1.51e+00	0	23	104	0	60	41230
2026-01-09 11:57:42.35	23.96	2.11	-46.0	-61.1	3.5	1.51e+00	0	23	104	0	60	41156
2026-01-09 11:57:43.36	24.06	2.16	-46.0	-61.1	3.6	1.51e+00	0	23	104	0	60	41140
2026-01-09 11:57:44.37	24.15	2.20	-46.0	-61.1	3.6	1.51e+00	0	23	104	0	60	41141
2026-01-09 11:57:45.38	24.25	2.25	-46.0	-61.2	3.6	1.51e+00	0	23	104	0	60	41476
2026-01-09 11:57:46.39	24.35	2.29	-46.0	-61.2	3.6	1.51e+00	0	23	104	0	60	41423
2026-01-09 11:57:47.40	24.45	2.34	-46.0	-61.1	3.6	1.51e+00	0	23	104	0	60	41128
2026-01-09 11:57:48.41	24.55	2.38	-46.0	-61.2	3.6	1.51e+00	0	23	104	0	60	41464
2026-01-09 11:57:49.42	24.65	2.43	-46.0	-61.2	3.6	1.51e+00	0	23	104	0	60	41633
2026-01-09 11:57:50.43	24.75	2.47	-46.0	-60.8	3.6	1.51e+00	0	23	104	0	60	39789
2026-01-09 11:57:51.44	24.85	2.52	-46.0	-60.2	3.6	1.51e+00	0	23	104	0	60	36975
2026-01-09 11:57:52.45	24.95	2.57	-46.0	-60.3	3.6	1.51e+00	0	23	104	0	60	37360
2026-01-09 11:57:53.46	25.06	2.61	-46.0	-60.8	3.6	1.51e+00	0	23	104	0	60	39636
2026-01-09 11:57:54.47	25.16	2.66	-45.9	-59.2	3.6	1.51e+00	0	23	104	0	60	33034
2026-01-09 11:57:55.48	25.26	2.70	-45.4	-53.8	6.4	6.77e-01	0	23	104	0	60	17783
2026-01-09 11:57:56.49	25.36	2.75	-44.3	-48.9	11.1	2.72e-02	0	23	0	1048576	60	10025
2026-01-09 11:57:57.50	25.46	2.79	-42.9	-46.0	14.4	1.58e-04	0	23	0	3145728	60	7181
2026-01-09 11:57:58.51	25.57	2.84	-41.4	-43.5	16.8	0.00e+00	0	23	0	4194304	56	6848
2026-01-09 11:57:59.52	25.67	2.88	-40.6	-42.4	17.8	0.00e+00	0	23	0	6291456	54	6764
2026-01-09 11:58:00.53	25.77	2.93	-40.4	-42.2	18.0	0.00e+00	0	23	0	8388608	54	6540
2026-01-09 11:58:01.54	25.88	2.97	-41.0	-43.0	17.1	0.00e+00	0	23	0	10485760	54	7205
2026-01-09 11:58:02.55	25.98	3.02	-42.0	-44.5	15.6	0.00e+00	0	23	0	12582912	56	7642
2026-01-09 11:58:03.56	26.09	3.07	-41.0	-42.9	17.9	0.00e+00	0	23	0	13631488	56	6352
2026-01-09 11:58:04.57	26.19	3.11	-40.8	-42.7	17.5	0.00e+00	0	23	0	15728640	54	6998
2026-01-09 11:58:05.58	26.30	3.16	-43.3	-46.9	12.9	0.00e+00	0	23	0	17825792	54	11282
2026-01-09 11:58:06.59	26.40	3.20	-45.9	-58.6	3.7	1.51e+00	0	23	104	18874368	60	30609
2026-01-09 11:58:07.60	26.51	3.25	-41.8	-44.2	17.2	1.50e+00	0	23	104	18874368	60	5886
2026-01-09 11:58:08.61	26.61	3.29	-41.9	-44.1	16.7	0.00e+00	0	23	0	19922944	58	6529
2026-01-09 11:58:09.62	26.72	3.34	-40.3	-42.0	18.5	0.00e+00	0	23	0	22020096	54	6449
2026-01-09 11:58:10.63	26.83	3.38	-39.4	-40.9	19.5	0.00e+00	0	23	0	24117248	52	6327
2026-01-09 11:58:11.64	26.93	3.43	-39.2	-40.6	19.8	0.00e+00	0	23	0	25165824	52	6110
2026-01-09 11:58:12.65	27.04	3.47	-39.2	-40.6	19.7	0.00e+00	0	23	0	27262976	52	6134
2026-01-09 11:58:13.66	27.15	3.52	-39.1	-40.5	19.9	0.00e+00	0	23	0	29360128	52	6091
2026-01-09 11:58:14.66	27.25	3.56	-39.2	-40.6	19.7	0.00e+00	0	23	0	31457280	52	6165
2026-01-09 11:58:15.67	27.36	3.61	-39.1	-40.5	19.8	0.00e+00	0	23	0	33554432	52	6087
2026-01-09 11:58:16.68	27.47	3.66	-39.2	-40.5	19.9	0.00e+00	0	23	0	34603008	52	6098
2026-01-09 11:58:17.69	27.58	3.70	-39.2	-40.6	19.7	0.00e+00	0	23	0	36700160	52	6160
2026-01-09 11:58:18.70	27.69	3.75	-39.3	-40.7	19.8	0.00e+00	0	23	0	38797312	52	6229
2026-01-09 11:58:19.71	27.80	3.79	-39.2	-40.6	19.9	0.00e+00	0	23	0	40894464	52	6162
2026-01-09 11:58:20.72	27.91	3.84	-39.2	-40.5	19.8	0.00e+00	0	24	0	42991616	52	6096
2026-01-09 11:58:21.73	28.02	3.88	-39.2	-40.6	19.9	0.00e+00	0	23	0	44040192	52	6150
2026-01-09 11:58:22.74	28.13	3.93	-39.1	-40.5	20.0	0.00e+00	0	23	0	46137344	52	6083
2026-01-09 11:58:23.75	28.24	3.97	-39.2	-40.7	19.8	0.00e+00	0	23	0	48234496	52	6177
2026-01-09 11:58:24.75	28.35	4.02	-39.2	-40.6	19.9	0.00e+00	0	23	0	50331648	52	6168
2026-01-09 11:58:25.76	28.46	4.06	-39.3	-40.6	19.7	0.00e+00	0	23	0	52428800	52	6168
2026-01-09 11:58:26.77	28.57	4.11	-39.2	-40.6	20.0	0.00e+00	0	23	0	54525952	52	6114
2026-01-09 11:58:27.78	28.68	4.15	-39.2	-40.6	19.9	0.00e+00	0	23	0	55574528	52	6167
2026-01-09 11:58:28.78	28.79	4.20	-39.3	-40.7	19.8	0.00e+00	0	23	0	57671680	52	6242
2026-01-09 11:58:29.79	28.91	4.24	-39.3	-40.7	19.8	0.00e+00	0	23	0	59768832	52	6235
2026-01-09 11:58:30.80	29.02	4.29	-39.3	-40.7	19.9	0.00e+00	0	23	0	61865984	52	6180
2026-01-09 11:58:31.81	29.13	4.33	-39.2	-40.6	19.8	0.00e+00	0	23	0	62914560	52	6140
2026-01-09 11:58:32.82	29.25	4.38	-39.3	-40.7	19.9	0.00e+00	0	23	0	65011712	52	6181
2026-01-09 11:58:33.83	29.36	4.43	-39.2	-40.6	20.0	0.00e+00	0	23	0	67108864	52	6150
2026-01-09 11:58:34.84	29.48	4.47	-39.1	-40.4	20.1	0.00e+00	0	23	0	69206016	52	6021
2026-01-09 11:58:35.85	29.59	4.52	-39.2	-40.6	20.0	0.00e+00	0	23	0	71303168	52	6134
2026-01-09 11:58:36.86	29.71	4.56	-38.9	-40.2	20.4	0.00e+00	0	23	0	72351744	52	5842
2026-01-09 11:58:37.87	29.82	4.61	-38.9	-40.2	20.4	0.00e+00	0	23	0	74448896	52	5849
2026-01-09 11:58:38.88	29.94	4.65	-38.7	-40.0	20.4	0.00e+00	0	23	0	76546048	52	5748
2026-01-09 11:58:39.89	30.05	4.70	-39.1	-40.4	20.2	0.00e+00	0	23	0	78643200	50	6729
2026-01-09 11:58:40.90	30.17	4.74	-38.9	-40.1	20.4	0.00e+00	0	23	0	80740352	50	6535
2026-01-09 11:58:41.91	30.29	4.79	-39.0	-40.4	20.2	0.00e+00	0	23	0	82837504	50	6716
2026-01-09 11:58:42.91	30.40	4.83	-39.1	-40.4	20.3	0.00e+00	0	23	0	83886080	50	6745
2026-01-09 11:58:43.92	30.52	4.88	-39.1	-40.5	19.8	0.00e+00	0	23	0	85983232	50	6800
2026-01-09 11:58:44.93	30.64	4.92	-39.4	-40.7	19.9	0.00e+00	0	23	0	88080384	50	6998
2026-01-09 11:58:45.94	30.75	4.97	-39.2	-40.5	20.1	0.00e+00	0	23	0	90177536	50	6823
2026-01-09 11:58:46.95	30.87	5.01	-39.1	-40.5	19.9	0.00e+00	0	23	0	92274688	50	6802
2026-01-09 11:58:47.96	30.99	5.06	-39.0	-40.3	20.3	0.00e+00	0	23	0	93323264	50	6649
2026-01-09 11:58:48.96	31.11	5.10	-38.7	-39.9	20.6	0.00e+00	0	23	0	95420416	50	6381
2026-01-09 11:58:49.97	31.23	5.15	-38.6	-39.9	20.8	0.00e+00	0	23	0	97517568	50	6326
2026-01-09 11:58:50.98	31.35	5.19	-38.4	-39.6	21.1	0.00e+00	0	23	0	99614720	50	6109
2026-01-09 11:58:51.99	31.47	5.24	-38.3	-39.5	21.1	0.00e+00	0	23	0	101711872	50	6065
2026-01-09 11:58:53.00	31.59	5.28	-38.3	-39.5	21.1	0.00e+00	0	23	0	102760448	50	6065
2026-01-09 11:58:54.01	31.71	5.33	-38.5	-39.7	21.0	0.00e+00	0	23	0	104857600	50	6193
2026-01-09 11:58:55.02	31.83	5.37	-38.4	-39.6	21.1	0.00e+00	0	23	0	106954752	50	6150
2026-01-09 11:58:56.03	31.95	5.41	-38.4	-39.6	21.0	0.00e+00	0	23	0	109051904	50	6116
2026-01-09 11:58:57.04	32.08	5.46	-38.4	-39.5	21.1	0.00e+00	0	23	0	111149056	50	6098
2026-01-09 11:58:58.05	32.20	5.50	-38.3	-39.5	21.1	0.00e+00	0	23	0	112197632	50	6071
2026-01-09 11:58:59.06	32.32	5.55	-38.3	-39.5	21.1	0.00e+00	0	23	0	114294784	50	6080
2026-01-09 11:59:00.07	32.44	5.59	-38.3	-39.5	21.2	0.00e+00	0	23	0	116391936	50	6065
2026-01-09 11:59:01.08	32.57	5.64	-38.4	-39.6	21.1	7.00e-07	0	23	0	118489088	50	6141
2026-01-09 11:59:02.08	32.69	5.68	-38.5	-39.7	21.0	0.00e+00	0	23	0	120586240	50	6231
2026-01-09 11:59:03.09	32.81	5.73	-38.3	-39.5	21.1	0.00e+00	0	23	0	121634816	50	6073
2026-01-09 11:59:04.10	32.94	5.77	-38.5	-39.7	21.2	0.00e+00	0	23	0	123731968	50	6176
2026-01-09 11:59:05.11	33.06	5.82	-38.2	-39.3	21.4	0.00e+00	0	23	0	125829120	50	5951
2026-01-09 11:59:06.12	33.19	5.86	-38.2	-39.3	21.3	0.00e+00	0	24	0	127926272	50	5962
2026-01-09 11:59:07.13	33.32	5.91	-38.4	-39.5	21.2	0.00e+00	0	23	0	130023424	50	6099
2026-01-09 11:59:08.14	33.44	5.95	-38.3	-39.5	21.3	0.00e+00	0	24	0	131072000	50	6052
2026-01-09 11:59:09.15	33.57	5.99	-38.3	-39.5	21.3	0.00e+00	0	23	0	133169152	50	6064
2026-01-09 11:59:10.16	33.69	6.04	-38.4	-39.6	21.2	0.00e+00	0	23	0	135266304	50	6105
2026-01-09 11:59:11.17	33.82	6.08	-38.3	-39.4	21.4	0.00e+00	0	23	0	137363456	50	6021
2026-01-09 11:59:12.18	33.95	6.13	-38.3	-39.5	21.2	0.00e+00	0	24	0	139460608	50	6049
2026-01-09 11:59:13.19	34.08	6.17	-38.3	-39.5	21.3	0.00e+00	0	23	0	140509184	50	6036
2026-01-09 11:59:14.20	34.20	6.21	-38.4	-39.6	21.0	0.00e+00	0	23	0	142606336	50	6131
2026-01-09 11:59:15.20	34.33	6.26	-38.5	-39.6	21.1	0.00e+00	0	24	0	144703488	50	6159
2026-01-09 11:59:16.21	34.46	6.30	-38.5	-39.6	21.2	0.00e+00	0	23	0	146800640	50	6164
2026-01-09 11:59:17.22	34.59	6.35	-38.3	-39.5	21.4	0.00e+00	0	23	0	148897792	50	6040
2026-01-09 11:59:18.23	34.72	6.39	-38.2	-39.4	21.4	0.00e+00	0	24	0	150994944	50	5984
2026-01-09 11:59:19.24	34.85	6.43	-38.3	-39.5	21.2	0.00e+00	0	24	0	152043520	50	6068
2026-01-09 11:59:20.25	34.98	6.48	-38.1	-39.3	21.5	0.00e+00	0	24	0	154140672	50	5905
2026-01-09 11:59:21.26	35.11	6.52	-38.2	-39.3	21.4	0.00e+00	0	24	0	156237824	50	5932
2026-01-09 11:59:22.27	35.24	6.57	-38.1	-39.2	21.3	0.00e+00	0	24	0	158334976	50	5892
2026-01-09 11:59:23.28	35.37	6.61	-38.2	-39.3	21.5	0.00e+00	0	24	0	160432128	50	5948
2026-01-09 11:59:24.29	35.51	6.65	-38.1	-39.2	21.6	0.00e+00	0	24	0	161480704	50	5851
2026-01-09 11:59:25.29	35.64	6.70	-38.0	-39.2	21.6	0.00e+00	0	24	0	163577856	50	5852
2026-01-09 11:59:26.30	35.77	6.74	-38.1	-39.3	21.5	0.00e+00	0	24	0	165675008	50	5908
2026-01-09 11:59:27.31	35.90	6.78	-38.0	-39.1	21.6	0.00e+00	0	23	0	167772160	50	5828
2026-01-09 11:59:28.32	36.04	6.83	-38.0	-39.1	21.6	0.00e+00	0	24	0	169869312	50	5825
2026-01-09 11:59:29.33	36.17	6.87	-38.1	-39.1	21.6	0.00e+00	0	24	0	170917888	50	5828
2026-01-09 11:59:30.34	36.30	6.91	-38.0	-39.1	21.7	0.00e+00	0	24	0	173015040	50	5780
2026-01-09 11:59:31.35	36.44	6.96	-38.1	-39.2	21.7	0.00e+00	0	24	0	175112192	50	5875
2026-01-09 11:59:32.36	36.57	7.00	-38.1	-39.2	21.7	0.00e+00	0	24	0	177209344	50	5836
2026-01-09 11:59:33.37	36.71	7.04	-38.1	-39.2	21.7	0.00e+00	0	24	0	179306496	50	5832
2026-01-09 11:59:34.38	36.85	7.09	-38.1	-39.2	21.6	0.00e+00	0	24	0	180355072	50	5885
2026-01-09 11:59:35.39	36.98	7.13	-38.0	-39.1	21.7	0.00e+00	0	24	0	182452224	50	5827
2026-01-09 11:59:36.40	37.12	7.17	-38.0	-39.1	21.7	0.00e+00	0	24	0	184549376	50	5823
2026-01-09 11:59:37.41	37.26	7.22	-38.0	-39.1	21.7	0.00e+00	0	24	0	186646528	50	5816
2026-01-09 11:59:38.42	37.39	7.26	-38.1	-39.2	21.6	0.00e+00	0	24	0	188743680	50	5880
2026-01-09 11:59:39.42	37.53	7.30	-38.0	-39.1	21.7	0.00e+00	0	24	0	189792256	50	5816
2026-01-09 11:59:40.43	37.67	7.34	-38.2	-39.3	21.6	0.00e+00	0	24	0	191889408	50	5924
2026-01-09 11:59:41.44	37.81	7.39	-38.2	-39.3	21.6	0.00e+00	0	24	0	193986560	50	5957
2026-01-09 11:59:42.45	37.95	7.43	-38.0	-39.1	21.8	0.00e+00	0	24	0	196083712	50	5802
2026-01-09 11:59:43.46	38.08	7.47	-38.1	-39.2	21.7	0.00e+00	0	24	0	198180864	50	5840
2026-01-09 11:59:44.47	38.22	7.51	-38.1	-39.2	21.7	0.00e+00	0	24	0	199229440	50	5855
2026-01-09 11:59:45.48	38.36	7.56	-38.1	-39.2	21.7	0.00e+00	0	24	0	201326592	50	5878
2026-01-09 11:59:46.49	38.50	7.60	-38.2	-39.3	21.6	0.00e+00	0	24	0	203423744	50	5951
2026-01-09 11:59:47.50	38.65	7.64	-38.3	-39.4	21.3	0.00e+00	0	24	0	205520896	50	6023
2026-01-09 11:59:48.51	38.79	7.68	-38.3	-39.4	21.4	0.00e+00	0	24	0	207618048	50	6015
2026-01-09 11:59:49.51	38.93	7.72	-38.4	-39.6	21.4	0.00e+00	0	23	0	208666624	50	6116
2026-01-09 11:59:50.52	39.07	7.77	-38.4	-39.6	21.4	0.00e+00	0	24	0	210763776	50	6129
2026-01-09 11:59:51.53	39.21	7.81	-38.5	-39.6	21.3	0.00e+00	0	24	0	212860928	50	6167
2026-01-09 11:59:52.54	39.35	7.85	-38.4	-39.6	21.3	0.00e+00	0	24	0	214958080	50	6151
2026-01-09 11:59:53.55	39.50	7.89	-38.4	-39.6	21.3	0.00e+00	0	24	0	217055232	50	6118
2026-01-09 11:59:54.56	39.64	7.93	-38.3	-39.5	21.5	0.00e+00	0	24	0	218103808	50	6049
2026-01-09 11:59:55.57	39.79	7.98	-38.5	-39.6	21.3	0.00e+00	0	24	0	220200960	50	6172
2026-01-09 11:59:56.58	39.93	8.02	-38.4	-39.6	21.3	0.00e+00	0	24	0	222298112	50	6124
2026-01-09 11:59:57.59	40.07	8.06	-38.5	-39.7	21.3	0.00e+00	0	24	0	224395264	50	6174
2026-01-09 11:59:58.60	40.22	8.10	-38.3	-39.4	21.6	0.00e+00	0	24	0	226492416	50	5989
2026-01-09 11:59:59.60	40.36	8.14	-38.2	-39.4	21.5	0.00e+00	0	24	0	227540992	50	5974
2026-01-09 12:00:00.62	40.51	8.18	-38.4	-39.5	21.4	0.00e+00	0	23	0	229638144	50	6072
2026-01-09 12:00:01.63	40.66	8.22	-38.4	-39.6	21.4	0.00e+00	0	23	0	231735296	50	6131
2026-01-09 12:00:02.64	40.81	8.26	-38.4	-39.5	21.4	0.00e+00	0	24	0	233832448	50	6082
2026-01-09 12:00:03.65	40.95	8.31	-38.4	-39.5	21.5	0.00e+00	0	24	0	235929600	50	6060
2026-01-09 12:00:04.65	41.10	8.35	-38.4	-39.6	21.5	0.00e+00	0	24	0	236978176	50	6104
2026-01-09 12:00:05.66	41.25	8.39	-38.4	-39.6	21.5	0.00e+00	0	24	0	239075328	50	6131
2026-01-09 12:00:06.67	41.40	8.43	-38.5	-39.7	21.3	0.00e+00	0	24	0	241172480	50	6195
2026-01-09 12:00:07.68	41.54	8.47	-38.5	-39.6	21.4	0.00e+00	0	24	0	243269632	50	6166
2026-01-09 12:00:08.69	41.69	8.51	-38.5	-39.7	21.2	0.00e+00	0	23	0	245366784	50	6185
2026-01-09 12:00:09.70	41.84	8.55	-38.5	-39.6	21.4	0.00e+00	0	24	0	247463936	50	6151
2026-01-09 12:00:10.71	41.99	8.59	-38.4	-39.6	21.5	0.00e+00	0	23	0	248512512	50	6115
2026-01-09 12:00:11.72	42.14	8.63	-38.5	-39.6	21.4	0.00e+00	0	23	0	250609664	50	6137
2026-01-09 12:00:12.72	42.29	8.67	-38.3	-39.5	21.5	0.00e+00	0	23	0	252706816	50	6058
2026-01-09 12:00:13.73	42.44	8.71	-38.3	-39.4	21.6	0.00e+00	0	24	0	254803968	50	6028
2026-01-09 12:00:14.74	42.60	8.75	-38.2	-39.3	21.7	0.00e+00	0	23	0	256901120	50	5960
2026-01-09 12:00:15.75	42.75	8.79	-38.4	-39.5	21.6	0.00e+00	0	24	0	257949696	50	6075
2026-01-09 12:00:16.76	42.90	8.83	-38.4	-39.5	21.6	0.00e+00	0	24	0	260046848	50	6052
2026-01-09 12:00:17.77	43.05	8.87	-38.3	-39.4	21.6	0.00e+00	0	24	0	262144000	50	6020
2026-01-09 12:00:18.78	43.21	8.91	-38.5	-39.6	21.4	0.00e+00	0	24	0	264241152	50	6158
2026-01-09 12:00:19.79	43.36	8.95	-38.5	-39.7	21.4	0.00e+00	0	24	0	266338304	50	6176
2026-01-09 12:00:20.80	43.51	8.98	-38.5	-39.6	21.4	0.00e+00	0	24	0	267386880	50	6173
2026-01-09 12:00:21.81	43.67	9.02	-38.6	-39.7	21.3	0.00e+00	0	24	0	269484032	50	6235
2026-01-09 12:00:22.82	43.82	9.06	-38.5	-39.7	21.4	0.00e+00	0	24	0	271581184	50	6206
2026-01-09 12:00:23.83	43.98	9.10	-38.4	-39.5	21.6	0.00e+00	0	24	0	273678336	50	6090
2026-01-09 12:00:24.83	44.13	9.14	-38.4	-39.5	21.5	0.00e+00	0	24	0	275775488	50	6083
2026-01-09 12:00:25.84	44.29	9.18	-38.4	-39.6	21.4	0.00e+00	0	24	0	276824064	50	6115
2026-01-09 12:00:26.85	44.44	9.22	-38.4	-39.6	21.5	0.00e+00	0	24	0	278921216	50	6107
2026-01-09 12:00:27.86	44.60	9.25	-38.3	-39.5	21.5	0.00e+00	0	24	0	281018368	50	6043
2026-01-09 12:00:28.87	44.76	9.29	-38.5	-39.6	21.1	0.00e+00	0	24	0	283115520	50	6165
2026-01-09 12:00:29.88	44.92	9.33	-38.5	-39.6	21.1	0.00e+00	0	24	0	285212672	50	6157
2026-01-09 12:00:30.88	45.07	9.37	-38.6	-39.7	21.3	0.00e+00	0	24	0	286261248	50	6224
2026-01-09 12:00:31.90	45.23	9.41	-38.6	-39.8	21.2	0.00e+00	0	24	0	288358400	50	6258
2026-01-09 12:00:32.91	45.39	9.44	-38.8	-40.0	21.1	0.00e+00	0	24	0	290455552	50	6432
2026-01-09 12:00:33.91	45.55	9.48	-38.7	-39.8	21.2	0.00e+00	0	24	0	292552704	50	6311
2026-01-09 12:00:34.92	45.71	9.52	-38.8	-40.0	21.1	0.00e+00	0	24	0	294649856	50	6432
2026-01-09 12:00:35.93	45.87	9.56	-38.8	-40.0	21.2	0.00e+00	0	24	0	295698432	50	6413
2026-01-09 12:00:36.94	46.03	9.59	-38.6	-39.8	21.3	0.00e+00	0	24	0	297795584	50	6267
2026-01-09 12:00:37.95	46.19	9.63	-38.5	-39.7	21.3	0.00e+00	0	24	0	299892736	50	6200
2026-01-09 12:00:38.96	46.35	9.67	-38.5	-39.6	21.5	0.00e+00	0	24	0	301989888	50	6148
2026-01-09 12:00:39.97	46.51	9.70	-38.4	-39.5	21.6	0.00e+00	0	24	0	304087040	50	6068
2026-01-09 12:00:40.98	46.68	9.74	-38.3	-39.4	21.6	0.00e+00	0	24	0	305135616	50	6010
2026-01-09 12:00:41.99	46.84	9.78	-38.3	-39.4	21.6	0.00e+00	0	24	0	307232768	50	6024
2026-01-09 12:00:43.00	47.00	9.81	-38.2	-39.3	21.7	0.00e+00	0	24	0	309329920	50	5956
2026-01-09 12:00:44.01	47.16	9.85	-38.1	-39.2	21.8	0.00e+00	0	24	0	311427072	50	5883
2026-01-09 12:00:45.01	47.33	9.88	-38.2	-39.3	21.8	0.00e+00	0	24	0	313524224	50	5910
2026-01-09 12:00:46.02	47.49	9.92	-38.2	-39.3	21.8	0.00e+00	0	24	0	315621376	50	5911
2026-01-09 12:00:47.03	47.65	9.96	-38.2	-39.2	21.8	0.00e+00	0	24	0	316669952	50	5894
2026-01-09 12:00:48.04	47.82	9.99	-38.1	-39.3	21.5	0.00e+00	0	24	0	318767104	50	5900
2026-01-09 12:00:49.05	47.98	10.03	-38.3	-39.4	21.7	0.00e+00	0	24	0	320864256	50	6018
2026-01-09 12:00:50.06	48.15	10.06	-38.2	-39.3	21.7	0.00e+00	0	24	0	322961408	50	5956
2026-01-09 12:00:51.07	48.31	10.10	-38.4	-39.5	21.6	0.00e+00	0	24	0	325058560	50	6064
2026-01-09 12:00:52.08	48.48	10.13	-38.5	-39.6	21.5	0.00e+00	0	24	0	326107136	50	6129
2026-01-09 12:00:53.09	48.65	10.17	-38.5	-39.6	21.5	0.00e+00	0	24	0	328204288	50	6144
2026-01-09 12:00:54.10	48.81	10.20	-38.5	-39.7	21.4	0.00e+00	0	24	0	330301440	50	6188
2026-01-09 12:00:55.11	48.98	10.24	-38.6	-39.7	21.4	0.00e+00	0	24	0	332398592	50	6216
2026-01-09 12:00:56.12	49.15	10.27	-38.7	-39.8	21.3	0.00e+00	0	24	0	334495744	50	6296
2026-01-09 12:00:57.13	49.32	10.30	-38.7	-39.8	21.3	0.00e+00	0	24	0	335544320	50	6315
2026-01-09 12:00:58.14	49.49	10.34	-38.5	-39.7	21.4	0.00e+00	0	24	0	337641472	50	6197
2026-01-09 12:00:59.15	49.66	10.37	-38.6	-39.7	21.4	0.00e+00	0	23	0	339738624	50	6241
2026-01-09 12:01:00.15	49.82	10.40	-38.3	-39.4	21.7	0.00e+00	0	24	0	341835776	50	6024
2026-01-09 12:01:01.16	49.99	10.44	-38.3	-39.5	21.7	0.00e+00	0	24	0	343932928	50	6036
2026-01-09 12:01:02.17	50.16	10.47	-38.4	-39.5	21.7	0.00e+00	0	24	0	344981504	50	6037
2026-01-09 12:01:03.18	50.33	10.50	-38.5	-39.7	21.6	0.00e+00	0	24	0	347078656	50	6198
2026-01-09 12:01:04.19	50.50	10.54	-38.6	-39.7	21.4	0.00e+00	0	24	0	349175808	50	6239
2026-01-09 12:01:05.20	50.68	10.57	-38.5	-39.6	21.4	0.00e+00	0	24	0	351272960	50	6153
2026-01-09 12:01:06.21	50.85	10.60	-38.5	-39.6	21.4	0.00e+00	0	24	0	353370112	50	6132
2026-01-09 12:01:07.22	51.02	10.63	-38.5	-39.6	21.5	0.00e+00	0	24	0	354418688	50	6152
2026-01-09 12:01:08.22	51.19	10.67	-38.4	-39.5	21.6	0.00e+00	0	24	0	356515840	50	6080
2026-01-09 12:01:09.23	51.36	10.70	-38.4	-39.5	21.6	0.00e+00	0	24	0	358612992	50	6094
2026-01-09 12:01:10.24	51.54	10.73	-38.4	-39.5	21.7	0.00e+00	0	24	0	360710144	50	6070
2026-01-09 12:01:11.25	51.71	10.76	-38.5	-39.6	21.6	0.00e+00	0	24	0	362807296	50	6142
2026-01-09 12:01:12.26	51.88	10.79	-38.4	-39.5	21.6	0.00e+00	0	24	0	363855872	50	6096
2026-01-09 12:01:13.27	52.06	10.82	-38.4	-39.6	21.6	0.00e+00	0	24	0	365953024	50	6114
2026-01-09 12:01:14.28	52.23	10.85	-38.4	-39.5	21.6	0.00e+00	0	24	0	368050176	50	6085
2026-01-09 12:01:15.29	52.41	10.89	-38.5	-39.6	21.6	0.00e+00	0	24	0	370147328	50	6129
2026-01-09 12:01:16.30	52.58	10.92	-38.6	-39.8	21.5	0.00e+00	0	24	0	372244480	50	6278
2026-01-09 12:01:17.31	52.76	10.95	-38.7	-39.9	21.3	0.00e+00	0	24	0	373293056	50	6348
2026-01-09 12:01:18.32	52.93	10.98	-38.8	-39.9	21.3	0.00e+00	0	24	0	375390208	50	6372
2026-01-09 12:01:19.33	53.11	11.01	-38.7	-39.9	21.2	0.00e+00	0	24	0	377487360	50	6318
2026-01-09 12:01:20.34	53.29	11.04	-38.7	-39.9	21.3	0.00e+00	0	24	0	379584512	50	6322
2026-01-09 12:01:21.34	53.46	11.07	-38.4	-39.6	21.6	0.00e+00	0	24	0	381681664	50	6113
2026-01-09 12:01:22.36	53.64	11.09	-38.4	-39.5	20.9	0.00e+00	0	24	0	382730240	50	6056
2026-01-09 12:01:23.36	53.82	11.12	-38.5	-39.7	21.3	0.00e+00	0	24	0	384827392	50	6188
2026-01-09 12:01:24.37	53.99	11.15	-38.4	-39.5	21.6	0.00e+00	0	24	0	386924544	50	6096
2026-01-09 12:01:25.38	54.17	11.18	-38.2	-39.3	21.8	0.00e+00	0	24	0	389021696	50	5941
2026-01-09 12:01:26.39	54.35	11.21	-38.1	-39.2	21.9	0.00e+00	0	24	0	391118848	50	5842
2026-01-09 12:01:27.40	54.53	11.24	-38.1	-39.2	22.0	0.00e+00	0	24	0	392167424	50	5855
2026-01-09 12:01:28.41	54.71	11.27	-38.1	-39.2	22.0	0.00e+00	0	24	0	394264576	50	5868
2026-01-09 12:01:29.42	54.89	11.29	-38.1	-39.1	22.0	0.00e+00	0	24	0	396361728	50	5810
2026-01-09 12:01:30.43	55.07	11.32	-38.0	-39.1	22.0	0.00e+00	0	24	0	398458880	50	5789
2026-01-09 12:01:31.44	55.25	11.35	-38.1	-39.2	22.0	0.00e+00	0	24	0	400556032	50	5832
2026-01-09 12:01:32.45	55.43	11.38	-38.1	-39.1	22.0	0.00e+00	0	24	0	401604608	50	5816
2026-01-09 12:01:33.46	55.61	11.40	-38.1	-39.1	22.0	0.00e+00	0	24	0	403701760	50	5826
2026-01-09 12:01:34.46	55.79	11.43	-38.0	-39.1	22.1	0.00e+00	0	24	0	405798912	50	5811
2026-01-09 12:01:35.48	55.97	11.46	-38.1	-39.2	22.0	0.00e+00	0	24	0	407896064	50	5832
2026-01-09 12:01:36.48	56.15	11.48	-38.0	-39.0	22.1	0.00e+00	0	24	0	409993216	50	5746
2026-01-09 12:01:37.49	56.34	11.51	-38.0	-39.1	22.1	0.00e+00	0	24	0	412090368	50	5777
2026-01-09 12:01:38.50	56.52	11.53	-38.0	-39.0	22.1	0.00e+00	0	24	0	413138944	50	5748
2026-01-09 12:01:39.51	56.70	11.56	-38.0	-39.1	22.1	0.00e+00	0	24	0	415236096	50	5770
2026-01-09 12:01:40.52	56.89	11.59	-37.8	-38.9	22.3	0.00e+00	0	24	0	417333248	50	5640
2026-01-09 12:01:41.53	57.07	11.61	-37.7	-38.7	22.4	0.00e+00	0	24	0	419430400	50	5563
2026-01-09 12:01:42.54	57.25	11.64	-37.7	-38.7	22.4	0.00e+00	0	24	0	421527552	48	6203
2026-01-09 12:01:43.55	57.44	11.66	-37.6	-38.6	22.5	0.00e+00	0	24	0	422576128	48	6157
2026-01-09 12:01:44.56	57.62	11.69	-37.5	-38.5	22.6	0.00e+00	0	24	0	424673280	48	6068
2026-01-09 12:01:45.57	57.81	11.71	-37.6	-38.6	22.5	0.00e+00	0	24	0	426770432	48	6152
2026-01-09 12:01:46.58	57.99	11.73	-37.5	-38.5	22.6	0.00e+00	0	24	0	428867584	48	6093
2026-01-09 12:01:47.59	58.18	11.76	-37.5	-38.6	22.5	0.00e+00	0	24	0	430964736	48	6105
2026-01-09 12:01:48.60	58.36	11.78	-37.6	-38.6	22.5	0.00e+00	0	24	0	432013312	48	6140
2026-01-09 12:01:49.61	58.55	11.80	-37.7	-38.7	22.3	0.00e+00	0	24	0	434110464	48	6233
2026-01-09 12:01:50.62	58.73	11.83	-37.8	-38.8	22.3	0.00e+00	0	24	0	436207616	48	6310
2026-01-09 12:01:51.63	58.92	11.85	-38.0	-39.0	22.1	0.00e+00	0	24	0	438304768	48	6462
2026-01-09 12:01:52.63	59.11	11.87	-38.2	-39.2	21.9	0.00e+00	0	24	0	440401920	48	6604
2026-01-09 12:01:53.64	59.29	11.89	-38.1	-39.1	21.7	0.00e+00	0	24	0	441450496	48	6526
2026-01-09 12:01:54.65	59.48	11.92	-38.2	-39.3	21.8	0.00e+00	0	24	0	443547648	48	6665
2026-01-09 12:01:55.66	59.67	11.94	-38.2	-39.3	21.9	0.00e+00	0	24	0	445644800	48	6633
2026-01-09 12:01:56.66	59.85	11.96	-38.2	-39.3	21.9	0.00e+00	0	24	0	447741952	48	6659
2026-01-09 12:01:57.67	60.04	11.98	-38.2	-39.3	21.9	0.00e+00	0	24	0	449839104	48	6677
2026-01-09 12:01:58.68	60.23	12.00	-38.3	-39.4	21.8	0.00e+00	0	24	0	450887680	48	6728
2026-01-09 12:01:59.69	60.42	12.02	-38.3	-39.4	21.9	0.00e+00	0	24	0	452984832	48	6718
2026-01-09 12:02:00.70	60.61	12.04	-38.3	-39.3	21.8	0.00e+00	0	24	0	455081984	48	6684
2026-01-09 12:02:01.71	60.80	12.06	-38.4	-39.5	21.8	0.00e+00	0	24	0	457179136	48	6819
2026-01-09 12:02:02.72	60.99	12.08	-38.6	-39.7	21.6	0.00e+00	0	24	0	459276288	48	6951
2026-01-09 12:02:03.73	61.18	12.10	-38.5	-39.6	21.6	0.00e+00	0	24	0	460324864	48	6865
2026-01-09 12:02:04.74	61.37	12.12	-38.6	-39.7	21.5	0.00e+00	0	24	0	462422016	48	6989
2026-01-09 12:02:05.75	61.56	12.14	-38.7	-39.8	21.5	0.00e+00	0	24	0	464519168	50	6312
2026-01-09 12:02:06.76	61.75	12.16	-38.8	-40.0	21.2	0.00e+00	0	24	0	466616320	50	6403
2026-01-09 12:02:07.77	61.94	12.18	-39.0	-40.2	21.0	0.00e+00	0	24	0	468713472	50	6584
2026-01-09 12:02:08.77	62.13	12.20	-38.9	-40.1	21.1	0.00e+00	0	24	0	469762048	50	6515
2026-01-09 12:02:09.78	62.32	12.21	-38.9	-40.1	21.2	0.00e+00	0	24	0	471859200	50	6516
2026-01-09 12:02:10.79	62.51	12.23	-39.0	-40.1	21.2	0.00e+00	0	24	0	473956352	50	6536
2026-01-09 12:02:11.80	62.70	12.25	-38.8	-40.0	21.2	0.00e+00	0	24	0	476053504	50	6439
2026-01-09 12:02:12.81	62.89	12.27	-38.8	-40.0	21.3	0.00e+00	0	24	0	478150656	50	6439
2026-01-09 12:02:13.82	63.08	12.28	-38.8	-40.0	21.2	0.00e+00	0	24	0	479199232	50	6414
2026-01-09 12:02:14.83	63.28	12.30	-38.8	-39.9	21.3	0.00e+00	0	24	0	481296384	50	6366
2026-01-09 12:02:15.84	63.47	12.32	-38.8	-40.0	21.3	0.00e+00	0	24	0	483393536	50	6398
2026-01-09 12:02:16.85	63.66	12.33	-38.7	-39.8	21.3	0.00e+00	0	24	0	485490688	50	6309
2026-01-09 12:02:17.86	63.85	12.35	-38.8	-39.9	21.3	0.00e+00	0	24	0	487587840	50	6372
2026-01-09 12:02:18.86	64.05	12.36	-38.8	-39.9	21.4	0.00e+00	0	24	0	488636416	50	6373
2026-01-09 12:02:19.87	64.24	12.38	-38.7	-39.8	21.4	0.00e+00	0	24	0	490733568	50	6304
2026-01-09 12:02:20.88	64.43	12.39	-38.7	-39.9	21.4	0.00e+00	0	24	0	492830720	50	6337
2026-01-09 12:02:21.89	64.63	12.41	-38.7	-39.8	21.4	0.00e+00	0	24	0	494927872	50	6290
2026-01-09 12:02:22.90	64.82	12.42	-38.6	-39.7	21.3	0.00e+00	0	24	0	497025024	50	6229
2026-01-09 12:02:23.91	65.01	12.44	-38.5	-39.7	21.5	0.00e+00	0	24	0	499122176	50	6196
2026-01-09 12:02:24.92	65.21	12.45	-38.6	-39.7	21.4	0.00e+00	0	24	0	500170752	50	6241
2026-01-09 12:02:25.92	65.40	12.46	-38.5	-39.7	21.5	0.00e+00	0	24	0	502267904	50	6214
2026-01-09 12:02:26.93	65.59	12.48	-38.5	-39.7	21.5	0.00e+00	0	24	0	504365056	50	6206
2026-01-09 12:02:27.94	65.79	12.49	-38.7	-39.8	21.4	0.00e+00	0	24	0	506462208	50	6288
2026-01-09 12:02:28.95	65.98	12.50	-38.5	-39.6	21.5	0.00e+00	0	24	0	508559360	50	6160
2026-01-09 12:02:29.96	66.18	12.52	-38.3	-39.4	21.8	0.00e+00	0	24	0	509607936	50	6002
2026-01-09 12:02:30.96	66.37	12.53	-38.4	-39.5	21.7	0.00e+00	0	24	0	511705088	50	6069
2026-01-09 12:02:31.97	66.57	12.54	-38.4	-39.5	21.7	0.00e+00	0	24	0	513802240	50	6094
2026-01-09 12:02:32.98	66.76	12.55	-38.4	-39.6	21.7	0.00e+00	0	24	0	515899392	50	6106
2026-01-09 12:02:33.99	66.96	12.56	-38.3	-39.4	21.8	0.00e+00	0	24	0	517996544	50	5993
2026-01-09 12:02:35.00	67.16	12.57	-38.4	-39.4	21.8	0.00e+00	0	24	0	519045120	50	6031
2026-01-09 12:02:36.01	67.35	12.58	-38.2	-39.3	21.9	0.00e+00	0	24	0	521142272	50	5915
2026-01-09 12:02:37.02	67.55	12.59	-38.1	-39.2	21.8	0.00e+00	0	24	0	523239424	50	5869
2026-01-09 12:02:38.03	67.74	12.60	-38.2	-39.3	21.9	0.00e+00	0	24	0	525336576	50	5916
2026-01-09 12:02:39.04	67.94	12.61	-38.0	-39.0	22.1	0.00e+00	0	24	0	527433728	50	5747
2026-01-09 12:02:40.05	68.14	12.62	-38.0	-39.1	22.1	0.00e+00	0	24	0	528482304	50	5771
2026-01-09 12:02:41.06	68.33	12.63	-37.9	-38.9	22.2	0.00e+00	0	24	0	530579456	50	5680
2026-01-09 12:02:42.07	68.53	12.64	-37.9	-39.0	22.1	0.00e+00	0	24	0	532676608	50	5712
2026-01-09 12:02:43.08	68.73	12.65	-38.1	-39.2	22.0	0.00e+00	0	24	0	534773760	50	5874
2026-01-09 12:02:44.08	68.92	12.66	-38.2	-39.3	21.9	0.00e+00	0	24	0	536870912	50	5934
2026-01-09 12:02:45.09	69.12	12.67	-38.1	-39.2	21.8	0.00e+00	0	24	0	537919488	50	5876
2026-01-09 12:02:46.10	69.32	12.67	-38.2	-39.3	21.8	0.00e+00	0	24	0	540016640	50	5961
2026-01-09 12:02:47.11	69.51	12.68	-38.3	-39.5	21.7	0.00e+00	0	24	0	542113792	50	6036
2026-01-09 12:02:48.12	69.71	12.69	-38.2	-39.4	21.8	0.00e+00	0	24	0	544210944	50	6008
2026-01-09 12:02:49.13	69.91	12.69	-38.0	-39.2	22.0	0.00e+00	0	24	0	546308096	50	5841
2026-01-09 12:02:50.14	70.11	12.70	-37.9	-39.0	22.2	0.00e+00	0	24	0	547356672	50	5718
2026-01-09 12:02:51.15	70.30	12.71	-38.0	-39.0	22.2	0.00e+00	0	24	0	549453824	50	5748
2026-01-09 12:02:52.16	70.50	12.71	-37.7	-38.7	22.3	0.00e+00	0	24	0	551550976	48	6206
2026-01-09 12:02:53.17	70.70	12.72	-37.7	-38.8	22.4	0.00e+00	0	24	0	553648128	48	6266
2026-01-09 12:02:54.18	70.90	12.72	-37.6	-38.6	22.5	0.00e+00	0	24	0	555745280	48	6158
2026-01-09 12:02:55.19	71.09	12.73	-37.6	-38.6	22.5	0.00e+00	0	24	0	556793856	48	6135
2026-01-09 12:02:56.20	71.29	12.73	-37.6	-38.6	22.5	0.00e+00	0	24	0	558891008	48	6131
2026-01-09 12:02:57.20	71.49	12.74	-37.5	-38.6	22.5	0.00e+00	0	24	0	560988160	48	6120
2026-01-09 12:02:58.22	71.69	12.74	-37.6	-38.7	22.5	0.00e+00	0	24	0	563085312	48	6179
2026-01-09 12:02:59.22	71.89	12.74	-37.5	-38.5	22.7	0.00e+00	0	24	0	565182464	48	6073
2026-01-09 12:03:00.23	72.08	12.75	-37.3	-38.3	22.7	0.00e+00	0	24	0	566231040	48	5957
2026-01-09 12:03:01.24	72.28	12.75	-37.3	-38.4	22.7	0.00e+00	0	24	0	568328192	48	5991
2026-01-09 12:03:02.25	72.48	12.75	-37.2	-38.3	22.8	0.00e+00	0	24	0	570425344	48	5946
2026-01-09 12:03:03.26	72.68	12.76	-37.1	-38.2	22.8	0.00e+00	0	24	0	572522496	48	5895
2026-01-09 12:03:04.27	72.88	12.76	-36.9	-38.0	23.0	0.00e+00	0	24	0	574619648	48	5745
2026-01-09 12:03:05.28	73.08	12.76	-37.1	-38.3	22.9	0.00e+00	0	24	0	576716800	48	5908
2026-01-09 12:03:06.29	73.27	12.76	-36.8	-37.9	23.1	0.00e+00	0	24	0	577765376	46	6352
2026-01-09 12:03:07.30	73.47	12.76	-37.0	-38.1	23.1	0.00e+00	0	24	0	579862528	46	6491
2026-01-09 12:03:08.31	73.67	12.76	-36.8	-37.9	23.1	0.00e+00	0	24	0	581959680	46	6355
2026-01-09 12:03:09.32	73.87	12.76	-37.0	-38.0	23.1	0.00e+00	0	24	0	584056832	46	6456
2026-01-09 12:03:10.33	74.07	12.76	-37.1	-38.1	23.0	0.00e+00	0	24	0	586153984	46	6492
2026-01-09 12:03:11.34	74.27	12.76	-37.1	-38.1	23.0	0.00e+00	0	24	0	587202560	46	6504
2026-01-09 12:03:12.35	74.46	12.76	-37.1	-38.0	23.0	0.00e+00	0	24	0	589299712	46	6463
2026-01-09 12:03:13.36	74.66	12.76	-37.1	-38.1	23.1	0.00e+00	0	24	0	591396864	46	6471
2026-01-09 12:03:14.37	74.86	12.76	-36.9	-37.8	23.2	0.00e+00	0	24	0	593494016	46	6297
2026-01-09 12:03:15.38	75.06	12.76	-36.8	-37.7	23.3	0.00e+00	0	24	0	595591168	46	6230
2026-01-09 12:03:16.38	75.26	12.76	-36.7	-37.7	23.3	0.00e+00	0	24	0	596639744	46	6174
2026-01-09 12:03:17.39	75.46	12.76	-36.8	-37.7	23.3	0.00e+00	0	24	0	598736896	46	6243
2026-01-09 12:03:18.40	75.65	12.75	-36.7	-37.6	23.2	0.00e+00	0	24	0	600834048	46	6149
2026-01-09 12:03:19.41	75.85	12.75	-36.7	-37.6	23.4	0.00e+00	0	24	0	602931200	46	6150
2026-01-09 12:03:20.42	76.05	12.75	-36.6	-37.6	23.4	0.00e+00	0	24	0	605028352	46	6126
2026-01-09 12:03:21.43	76.25	12.75	-36.6	-37.5	23.3	0.00e+00	0	24	0	606076928	46	6102
2026-01-09 12:03:22.44	76.45	12.74	-36.6	-37.5	23.3	0.00e+00	0	24	0	608174080	46	6070
2026-01-09 12:03:23.45	76.65	12.74	-36.6	-37.5	23.4	0.00e+00	0	24	0	610271232	46	6080
2026-01-09 12:03:24.46	76.84	12.73	-36.5	-37.4	23.6	0.00e+00	0	24	0	612368384	46	5985
2026-01-09 12:03:25.47	77.04	12.73	-36.5	-37.4	23.6	0.00e+00	0	24	0	614465536	46	5985
2026-01-09 12:03:26.48	77.24	12.72	-36.4	-37.3	23.7	0.00e+00	0	24	0	615514112	46	5920
2026-01-09 12:03:27.49	77.44	12.72	-36.4	-37.3	23.7	0.00e+00	0	24	0	617611264	46	5918
2026-01-09 12:03:28.50	77.64	12.71	-36.4	-37.3	23.6	0.00e+00	0	24	0	619708416	46	5952
2026-01-09 12:03:29.51	77.83	12.71	-36.4	-37.3	23.7	0.00e+00	0	24	0	621805568	46	5930
2026-01-09 12:03:30.51	78.03	12.70	-36.5	-37.4	23.6	0.00e+00	0	24	0	623902720	46	5968
2026-01-09 12:03:31.52	78.23	12.70	-36.5	-37.5	23.5	0.00e+00	0	24	0	624951296	46	6039
2026-01-09 12:03:32.53	78.42	12.69	-36.6	-37.5	23.4	0.00e+00	0	24	0	627048448	46	6080
2026-01-09 12:03:33.54	78.62	12.68	-36.6	-37.5	23.4	0.00e+00	0	24	0	629145600	46	6103
2026-01-09 12:03:34.55	78.82	12.68	-36.7	-37.7	23.4	0.00e+00	0	24	0	631242752	46	6192
2026-01-09 12:03:35.56	79.02	12.67	-36.7	-37.6	23.3	0.00e+00	0	24	0	633339904	46	6164
2026-01-09 12:03:36.57	79.21	12.66	-36.8	-37.8	23.2	0.00e+00	0	24	0	634388480	46	6255
2026-01-09 12:03:37.58	79.41	12.65	-36.8	-37.7	23.3	0.00e+00	0	24	0	636485632	46	6238
2026-01-09 12:03:38.59	79.61	12.64	-36.7	-37.7	23.2	0.00e+00	0	24	0	638582784	46	6195
2026-01-09 12:03:39.60	79.81	12.64	-36.8	-37.8	23.2	0.00e+00	0	24	0	640679936	46	6272
2026-01-09 12:03:40.61	80.00	12.63	-36.9	-37.9	23.1	0.00e+00	0	24	0	642777088	46	6372
2026-01-09 12:03:41.62	80.20	12.62	-36.9	-37.9	23.1	0.00e+00	0	24	0	644874240	46	6352
2026-01-09 12:03:42.63	80.40	12.61	-37.0	-38.0	23.1	0.00e+00	0	24	0	645922816	46	6407
2026-01-09 12:03:43.64	80.59	12.60	-37.0	-38.0	23.0	0.00e+00	0	24	0	648019968	46	6407
2026-01-09 12:03:44.65	80.79	12.59	-37.0	-38.0	23.0	0.00e+00	0	24	0	650117120	46	6429
2026-01-09 12:03:45.66	80.98	12.58	-36.9	-37.8	23.1	0.00e+00	0	24	0	652214272	46	6300
2026-01-09 12:03:46.67	81.18	12.57	-36.9	-37.8	22.9	0.00e+00	0	24	0	653262848	46	6315
2026-01-09 12:03:47.68	81.38	12.55	-36.7	-37.6	23.3	0.00e+00	0	24	0	655360000	46	6152
2026-01-09 12:03:48.69	81.57	12.54	-36.6	-37.6	23.3	0.00e+00	0	24	0	657457152	46	6106
2026-01-09 12:03:49.70	81.77	12.53	-36.7	-37.6	23.3	0.00e+00	0	24	0	659554304	46	6166
2026-01-09 12:03:50.70	81.96	12.52	-36.7	-37.6	23.3	0.00e+00	0	24	0	661651456	46	6148
2026-01-09 12:03:51.71	82.16	12.51	-36.8	-37.8	23.2	0.00e+00	0	24	0	663748608	46	6254
2026-01-09 12:03:52.72	82.35	12.49	-37.0	-38.0	23.1	0.00e+00	0	24	0	664797184	46	6397
2026-01-09 12:03:53.73	82.55	12.48	-37.0	-38.0	22.9	0.00e+00	0	24	0	666894336	46	6427
2026-01-09 12:03:54.74	82.74	12.47	-37.1	-38.1	22.9	0.00e+00	0	24	0	668991488	46	6513
2026-01-09 12:03:55.75	82.94	12.45	-37.2	-38.2	22.9	0.00e+00	0	24	0	671088640	46	6563
2026-01-09 12:03:56.76	83.13	12.44	-37.2	-38.2	22.8	0.00e+00	0	24	0	673185792	46	6604
2026-01-09 12:03:57.77	83.33	12.43	-37.2	-38.2	22.8	0.00e+00	0	24	0	674234368	46	6602
2026-01-09 12:03:58.78	83.52	12.41	-37.1	-38.1	22.9	0.00e+00	0	24	0	676331520	46	6536
2026-01-09 12:03:59.79	83.71	12.40	-37.1	-38.1	22.9	0.00e+00	0	24	0	678428672	46	6474
2026-01-09 12:04:00.80	83.91	12.38	-37.1	-38.1	22.8	0.00e+00	0	24	0	680525824	46	6489
2026-01-09 12:04:01.81	84.10	12.37	-36.7	-37.7	23.2	0.00e+00	0	24	0	682622976	46	6196
2026-01-09 12:04:02.82	84.30	12.35	-36.7	-37.7	23.3	0.00e+00	0	24	0	683671552	46	6215
2026-01-09 12:04:03.83	84.49	12.34	-36.6	-37.6	23.1	0.00e+00	0	24	0	685768704	46	6168
2026-01-09 12:04:04.84	84.68	12.32	-36.7	-37.7	23.3	0.00e+00	0	24	0	687865856	46	6212
2026-01-09 12:04:05.85	84.87	12.30	-36.6	-37.6	23.4	0.00e+00	0	24	0	689963008	46	6165
2026-01-09 12:04:06.86	85.07	12.29	-36.6	-37.5	23.5	0.00e+00	0	24	0	692060160	46	6076
2026-01-09 12:04:07.87	85.26	12.27	-36.4	-37.4	23.6	0.00e+00	0	24	0	693108736	46	5986
2026-01-09 12:04:08.88	85.45	12.25	-36.5	-37.5	23.5	0.00e+00	0	24	0	695205888	46	6040
2026-01-09 12:04:09.88	85.64	12.24	-36.3	-37.2	23.7	0.00e+00	0	23	0	697303040	46	5858
2026-01-09 12:04:10.89	85.83	12.22	-36.2	-37.2	23.6	0.00e+00	0	24	0	699400192	46	5860
2026-01-09 12:04:11.90	86.03	12.20	-36.1	-37.1	23.8	0.00e+00	0	24	0	701497344	46	5812
2026-01-09 12:04:12.91	86.22	12.18	-36.2	-37.2	23.7	0.00e+00	0	24	0	702545920	46	5880
2026-01-09 12:04:13.92	86.41	12.16	-36.2	-37.2	23.6	0.00e+00	0	24	0	704643072	46	5886
2026-01-09 12:04:14.93	86.60	12.14	-36.5	-37.4	23.2	0.00e+00	0	24	0	706740224	46	6018
2026-01-09 12:04:15.94	86.79	12.13	-36.6	-37.5	23.4	0.00e+00	0	24	0	708837376	46	6080
2026-01-09 12:04:16.95	86.98	12.11	-36.5	-37.5	23.5	0.00e+00	0	24	0	710934528	46	6042
2026-01-09 12:04:17.96	87.17	12.09	-36.4	-37.4	23.5	0.00e+00	0	24	0	711983104	46	6018
2026-01-09 12:04:18.97	87.36	12.07	-36.5	-37.5	23.4	0.00e+00	0	24	0	714080256	46	6067
2026-01-09 12:04:19.98	87.55	12.05	-36.5	-37.5	23.5	0.00e+00	0	24	0	716177408	46	6053
2026-01-09 12:04:20.99	87.74	12.03	-36.4	-37.4	23.5	0.00e+00	0	24	0	718274560	46	5973
2026-01-09 12:04:21.99	87.93	12.00	-36.4	-37.4	23.6	0.00e+00	0	24	0	720371712	46	5970
2026-01-09 12:04:23.00	88.12	11.98	-36.2	-37.2	23.7	0.00e+00	0	24	0	721420288	46	5853
2026-01-09 12:04:24.01	88.30	11.96	-36.1	-37.1	23.8	0.00e+00	0	24	0	723517440	46	5807
2026-01-09 12:04:25.02	88.49	11.94	-36.0	-37.1	23.8	0.00e+00	0	24	0	725614592	46	5803
2026-01-09 12:04:26.03	88.68	11.92	-36.0	-37.1	23.8	0.00e+00	0	24	0	727711744	46	5795
2026-01-09 12:04:27.04	88.87	11.90	-36.0	-37.1	23.7	0.00e+00	0	24	0	729808896	46	5824
2026-01-09 12:04:28.05	89.06	11.88	-36.2	-37.3	23.6	0.00e+00	0	24	0	731906048	46	5949
2026-01-09 12:04:29.06	89.24	11.85	-36.3	-37.3	23.6	0.00e+00	0	24	0	732954624	46	5960
2026-01-09 12:04:30.06	89.43	11.83	-36.1	-37.2	23.7	0.00e+00	0	24	0	735051776	46	5843
2026-01-09 12:04:31.08	89.62	11.81	-36.2	-37.2	23.7	0.00e+00	0	24	0	737148928	46	5866
2026-01-09 12:04:32.08	89.80	11.78	-36.3	-37.2	23.7	0.00e+00	0	24	0	739246080	46	5846
2026-01-09 12:04:33.10	89.99	11.76	-36.4	-37.3	23.6	0.00e+00	0	24	0	741343232	46	5943
2026-01-09 12:04:34.11	90.18	11.74	-36.3	-37.2	23.6	0.00e+00	0	24	0	742391808	46	5883
2026-01-09 12:04:35.12	90.36	11.71	-36.4	-37.4	23.6	0.00e+00	0	24	0	744488960	46	5968
2026-01-09 12:04:36.12	90.54	11.69	-36.4	-37.3	23.6	0.00e+00	0	24	0	746586112	46	5931
2026-01-09 12:04:37.13	90.73	11.66	-36.4	-37.3	23.7	0.00e+00	0	24	0	748683264	46	5943
2026-01-09 12:04:38.14	90.91	11.64	-36.5	-37.4	23.5	0.00e+00	0	24	0	750780416	46	6010
2026-01-09 12:04:39.15	91.10	11.61	-36.4	-37.3	23.6	0.00e+00	0	24	0	751828992	46	5961
2026-01-09 12:04:40.16	91.28	11.59	-36.4	-37.3	23.6	0.00e+00	0	24	0	753926144	46	5936
2026-01-09 12:04:41.17	91.47	11.56	-36.3	-37.2	23.6	0.00e+00	0	24	0	756023296	46	5888
2026-01-09 12:04:42.18	91.65	11.54	-36.2	-37.1	23.8	0.00e+00	0	24	0	758120448	46	5828
2026-01-09 12:04:43.19	91.83	11.51	-36.1	-37.1	23.8	0.00e+00	0	24	0	760217600	46	5765
2026-01-09 12:04:44.20	92.02	11.49	-36.0	-37.0	23.9	0.00e+00	0	24	0	761266176	46	5754
2026-01-09 12:04:45.21	92.20	11.46	-36.1	-37.1	23.8	0.00e+00	0	24	0	763363328	46	5804
2026-01-09 12:04:46.21	92.38	11.43	-36.3	-37.2	23.7	0.00e+00	0	24	0	765460480	46	5858
2026-01-09 12:04:47.22	92.56	11.41	-36.3	-37.2	23.7	0.00e+00	0	24	0	767557632	46	5832
2026-01-09 12:04:48.23	92.74	11.38	-36.3	-37.2	23.6	0.00e+00	0	24	0	769654784	46	5889
2026-01-09 12:04:49.24	92.92	11.35	-36.2	-37.2	23.6	0.00e+00	0	24	0	770703360	46	5892
2026-01-09 12:04:50.25	93.11	11.32	-36.3	-37.3	23.5	0.00e+00	0	24	0	772800512	46	5920
2026-01-09 12:04:51.26	93.29	11.30	-36.3	-37.3	23.6	0.00e+00	0	24	0	774897664	46	5938
2026-01-09 12:04:52.27	93.47	11.27	-36.3	-37.3	23.6	0.00e+00	0	24	0	776994816	46	5940
2026-01-09 12:04:53.28	93.65	11.24	-36.5	-37.4	23.5	0.00e+00	0	24	0	779091968	46	6013
2026-01-09 12:04:54.29	93.83	11.21	-36.4	-37.3	23.5	0.00e+00	0	24	0	780140544	46	5938
2026-01-09 12:04:55.29	94.00	11.18	-36.4	-37.4	23.5	0.00e+00	0	24	0	782237696	46	5986
2026-01-09 12:04:56.30	94.18	11.15	-36.7	-37.6	23.3	0.00e+00	0	24	0	784334848	46	6142
2026-01-09 12:04:57.31	94.36	11.13	-36.8	-37.7	23.2	0.00e+00	0	24	0	786432000	46	6211
2026-01-09 12:04:58.32	94.54	11.10	-36.8	-37.8	23.2	0.00e+00	0	24	0	788529152	46	6291
2026-01-09 12:04:59.33	94.72	11.07	-36.9	-37.9	23.0	0.00e+00	0	24	0	789577728	46	6322
2026-01-09 12:05:00.34	94.89	11.04	-37.0	-38.0	22.8	0.00e+00	0	24	0	791674880	46	6442
2026-01-09 12:05:01.35	95.07	11.01	-37.0	-38.1	22.7	0.00e+00	0	24	0	793772032	46	6482
2026-01-09 12:05:02.36	95.25	10.98	-37.3	-38.4	22.6	0.00e+00	0	24	0	795869184	46	6703
2026-01-09 12:05:03.37	95.43	10.95	-37.4	-38.4	22.6	0.00e+00	0	24	0	797966336	46	6711
2026-01-09 12:05:04.38	95.60	10.92	-37.5	-38.5	22.5	0.00e+00	0	24	0	799014912	46	6816
2026-01-09 12:05:05.39	95.78	10.89	-37.5	-38.6	22.3	0.00e+00	0	24	0	801112064	46	6863
2026-01-09 12:05:06.40	95.95	10.85	-37.7	-38.7	22.2	0.00e+00	0	24	0	803209216	46	6980
2026-01-09 12:05:07.41	96.13	10.82	-37.9	-38.9	22.1	0.00e+00	0	24	0	805306368	48	6375
2026-01-09 12:05:08.41	96.30	10.79	-38.0	-39.1	21.8	0.00e+00	0	24	0	807403520	48	6523
2026-01-09 12:05:09.42	96.48	10.76	-38.1	-39.2	21.7	0.00e+00	0	24	0	809500672	48	6599
2026-01-09 12:05:10.43	96.65	10.73	-38.2	-39.4	21.7	0.00e+00	0	24	0	810549248	48	6707
2026-01-09 12:05:11.44	96.82	10.70	-38.2	-39.3	21.7	0.00e+00	0	24	0	812646400	48	6649
2026-01-09 12:05:12.45	97.00	10.67	-38.2	-39.4	21.7	0.00e+00	0	24	0	814743552	48	6707
2026-01-09 12:05:13.46	97.17	10.63	-38.0	-39.1	21.8	0.00e+00	0	24	0	816840704	48	6534
2026-01-09 12:05:14.47	97.34	10.60	-38.0	-39.1	21.9	0.00e+00	0	24	0	817889280	48	6497
2026-01-09 12:05:15.47	97.51	10.57	-37.8	-39.0	22.0	0.00e+00	0	24	0	819986432	48	6407
2026-01-09 12:05:16.48	97.68	10.54	-37.9	-39.0	21.9	0.00e+00	0	24	0	822083584	48	6454
2026-01-09 12:05:17.49	97.86	10.50	-38.0	-39.2	21.6	0.00e+00	0	24	0	824180736	48	6551
2026-01-09 12:05:18.50	98.03	10.47	-38.1	-39.3	21.6	0.00e+00	0	24	0	826277888	48	6643
2026-01-09 12:05:19.50	98.20	10.44	-38.2	-39.4	21.5	0.00e+00	0	24	0	827326464	48	6769
2026-01-09 12:05:20.51	98.37	10.40	-38.5	-39.7	21.3	0.00e+00	0	24	0	829423616	48	6990
2026-01-09 12:05:21.52	98.54	10.37	-38.6	-39.9	21.0	0.00e+00	0	24	0	831520768	48	7107
2026-01-09 12:05:22.53	98.71	10.33	-38.8	-40.1	21.0	0.00e+00	0	24	0	833617920	50	6475
2026-01-09 12:05:23.54	98.88	10.30	-38.9	-40.1	21.0	0.00e+00	0	24	0	835715072	50	6511
2026-01-09 12:05:24.55	99.04	10.27	-38.9	-40.2	20.9	0.00e+00	0	24	0	837812224	50	6578
2026-01-09 12:05:25.56	99.21	10.23	-39.0	-40.4	20.6	0.00e+00	0	24	0	838860800	50	6708
2026-01-09 12:05:26.56	99.38	10.20	-39.2	-40.6	20.5	0.00e+00	0	24	0	840957952	50	6850
2026-01-09 12:05:27.57	99.55	10.16	-39.4	-40.9	20.2	0.00e+00	0	24	0	843055104	50	7090
2026-01-09 12:05:28.58	99.71	10.13	-39.7	-41.2	20.0	0.00e+00	0	24	0	845152256	50	7343
2026-01-09 12:05:29.59	99.88	10.09	-39.9	-41.4	19.8	0.00e+00	0	24	0	847249408	52	6722
2026-01-09 12:05:30.60	100.05	10.06	-40.1	-41.5	19.6	0.00e+00	0	24	0	848297984	52	6838
2026-01-09 12:05:31.61	100.21	10.02	-40.2	-41.6	19.5	0.00e+00	0	24	0	850395136	52	6910
2026-01-09 12:05:32.61	100.38	9.99	-40.2	-41.7	19.5	0.00e+00	0	24	0	852492288	52	6996
2026-01-09 12:05:33.62	100.54	9.95	-40.0	-41.5	19.7	0.00e+00	0	24	0	854589440	52	6771
2026-01-09 12:05:34.63	100.71	9.92	-39.8	-41.3	19.8	0.00e+00	0	24	0	856686592	52	6633
2026-01-09 12:05:35.63	100.87	9.88	-39.8	-41.2	19.9	0.00e+00	0	24	0	857735168	52	6599
2026-01-09 12:05:36.64	101.04	9.84	-39.6	-41.0	20.1	0.00e+00	0	24	0	859832320	52	6415
2026-01-09 12:05:37.65	101.20	9.81	-39.4	-40.8	20.3	0.00e+00	0	24	0	861929472	52	6296
2026-01-09 12:05:38.66	101.36	9.77	-39.5	-40.9	20.2	0.00e+00	0	24	0	864026624	52	6321
2026-01-09 12:05:39.66	101.52	9.74	-39.4	-40.7	20.3	0.00e+00	0	24	0	866123776	52	6232
2026-01-09 12:05:40.67	101.69	9.70	-39.3	-40.6	20.5	0.00e+00	0	24	0	867172352	52	6147
2026-01-09 12:05:41.68	101.85	9.66	-39.3	-40.6	20.4	0.00e+00	0	24	0	869269504	52	6173
2026-01-09 12:05:42.68	102.01	9.62	-39.3	-40.6	20.5	0.00e+00	0	24	0	871366656	52	6160
2026-01-09 12:05:43.69	102.17	9.59	-39.4	-40.8	20.3	0.00e+00	0	24	0	873463808	52	6254
2026-01-09 12:05:44.70	102.33	9.55	-39.4	-40.9	20.2	0.00e+00	0	24	0	875560960	52	6330
2026-01-09 12:05:45.71	102.49	9.51	-39.4	-40.9	20.2	0.00e+00	0	24	0	876609536	52	6321
2026-01-09 12:05:46.72	102.65	9.47	-39.5	-41.0	20.1	0.00e+00	0	24	0	878706688	52	6426
2026-01-09 12:05:47.73	102.81	9.44	-39.6	-41.2	19.9	0.00e+00	0	24	0	880803840	52	6583
2026-01-09 12:05:48.74	102.97	9.40	-39.6	-41.2	19.8	0.00e+00	0	24	0	882900992	52	6597
2026-01-09 12:05:49.74	103.13	9.36	-39.7	-41.4	19.6	0.00e+00	0	24	0	884998144	52	6768
2026-01-09 12:05:50.75	103.29	9.32	-39.5	-41.4	19.6	0.00e+00	0	24	0	886046720	52	6765
2026-01-09 12:05:51.76	103.45	9.29	-39.4	-41.5	19.6	0.00e+00	0	24	0	888143872	52	6799
2026-01-09 12:05:52.77	103.60	9.25	-39.1	-41.1	20.0	0.00e+00	0	24	0	890241024	52	6534
2026-01-09 12:05:53.78	103.76	9.21	-39.2	-41.2	19.8	0.00e+00	0	24	0	892338176	52	6612
2026-01-09 12:05:54.80	103.92	9.17	-38.9	-40.7	20.3	0.00e+00	0	24	0	894435328	52	6241
2026-01-09 12:05:55.80	104.08	9.13	-38.8	-40.5	20.5	0.00e+00	0	24	0	895483904	52	6074
2026-01-09 12:05:56.81	104.23	9.09	-38.8	-40.4	20.7	0.00e+00	0	24	0	897581056	52	6005
2026-01-09 12:05:57.82	104.39	9.05	-38.9	-40.4	20.6	0.00e+00	0	24	0	899678208	52	5992
2026-01-09 12:05:58.83	104.54	9.01	-39.0	-40.4	20.6	0.00e+00	0	24	0	901775360	52	6004
2026-01-09 12:05:59.84	104.70	8.97	-39.1	-40.5	20.5	0.00e+00	0	24	0	903872512	52	6102
2026-01-09 12:06:00.85	104.85	8.93	-39.1	-40.5	20.6	0.00e+00	0	24	0	904921088	52	6079
2026-01-09 12:06:01.86	105.01	8.90	-39.2	-40.6	20.4	0.00e+00	0	24	0	907018240	52	6163
2026-01-09 12:06:02.86	105.16	8.86	-39.3	-40.7	20.3	0.00e+00	0	24	0	909115392	52	6184
2026-01-09 12:06:03.87	105.31	8.82	-39.4	-40.8	20.2	0.00e+00	0	24	0	911212544	52	6265
2026-01-09 12:06:04.88	105.47	8.78	-39.5	-40.8	20.3	0.00e+00	0	24	0	913309696	52	6291
2026-01-09 12:06:05.89	105.62	8.74	-39.1	-40.4	20.6	0.00e+00	0	24	0	914358272	52	6011
2026-01-09 12:06:06.90	105.77	8.70	-38.9	-40.1	20.9	0.00e+00	0	24	0	916455424	52	5808
2026-01-09 12:06:07.91	105.92	8.66	-38.7	-39.9	21.1	0.00e+00	0	24	0	918552576	50	6326
2026-01-09 12:06:08.92	106.08	8.62	-38.4	-39.5	21.4	0.00e+00	0	24	0	920649728	50	6097
2026-01-09 12:06:09.93	106.23	8.58	-38.4	-39.5	21.4	0.00e+00	0	24	0	922746880	50	6070
2026-01-09 12:06:10.94	106.38	8.54	-38.3	-39.5	21.4	0.00e+00	0	24	0	923795456	50	6064
2026-01-09 12:06:11.95	106.53	8.49	-38.3	-39.5	21.4	0.00e+00	0	24	0	925892608	50	6065
2026-01-09 12:06:12.96	106.68	8.45	-38.3	-39.4	21.4	0.00e+00	0	24	0	927989760	50	6007
2026-01-09 12:06:13.97	106.83	8.41	-38.5	-39.6	21.2	0.00e+00	0	24	0	930086912	50	6163
2026-01-09 12:06:14.98	106.98	8.37	-38.6	-39.8	21.1	0.00e+00	0	24	0	932184064	50	6250
2026-01-09 12:06:15.99	107.12	8.33	-38.6	-39.9	21.0	0.00e+00	0	24	0	934281216	50	6330
2026-01-09 12:06:17.00	107.27	8.29	-38.5	-40.0	21.0	0.00e+00	0	24	0	935329792	50	6393
2026-01-09 12:06:18.00	107.42	8.25	-38.6	-40.2	20.8	0.00e+00	0	24	0	937426944	50	6548
2026-01-09 12:06:19.01	107.57	8.21	-38.6	-40.2	20.6	0.00e+00	0	24	0	939524096	50	6542
2026-01-09 12:06:20.02	107.71	8.17	-38.8	-40.2	20.7	0.00e+00	0	24	0	941621248	50	6581
2026-01-09 12:06:21.03	107.86	8.12	-39.0	-40.3	20.6	0.00e+00	0	24	0	943718400	50	6675
2026-01-09 12:06:22.04	108.01	8.08	-39.0	-40.3	20.7	0.00e+00	0	24	0	944766976	50	6641
2026-01-09 12:06:23.05	108.15	8.04	-38.8	-40.2	20.7	0.00e+00	0	24	0	946864128	50	6595
2026-01-09 12:06:24.06	108.30	8.00	-38.5	-39.9	21.0	0.00e+00	0	24	0	948961280	50	6377
2026-01-09 12:06:25.07	108.44	7.96	-38.6	-39.9	21.0	0.00e+00	0	24	0	951058432	50	6390
2026-01-09 12:06:26.08	108.59	7.92	-38.7	-39.9	21.0	0.00e+00	0	24	0	953155584	50	6371
2026-01-09 12:06:27.09	108.73	7.87	-38.6	-39.9	21.1	0.00e+00	0	24	0	954204160	50	6326
2026-01-09 12:06:28.10	108.88	7.83	-38.4	-39.7	21.2	0.00e+00	0	24	0	956301312	50	6202
2026-01-09 12:06:29.11	109.02	7.79	-38.2	-39.4	21.5	0.00e+00	0	24	0	958398464	50	6001
2026-01-09 12:06:30.12	109.16	7.75	-38.2	-39.4	21.4	0.00e+00	0	24	0	960495616	50	5985
2026-01-09 12:06:31.13	109.30	7.70	-38.0	-39.1	21.8	0.00e+00	0	24	0	962592768	50	5806
2026-01-09 12:06:32.13	109.45	7.66	-37.9	-39.0	21.7	0.00e+00	0	24	0	963641344	50	5734
2026-01-09 12:06:33.14	109.59	7.62	-37.9	-39.0	21.9	0.00e+00	0	24	0	965738496	50	5721
2026-01-09 12:06:34.15	109.73	7.58	-37.7	-38.9	21.9	0.00e+00	0	24	0	967835648	48	6336
2026-01-09 12:06:35.16	109.87	7.54	-37.6	-38.7	22.0	0.00e+00	0	24	0	969932800	48	6198
2026-01-09 12:06:36.17	110.01	7.49	-37.6	-38.8	22.0	0.00e+00	0	24	0	972029952	48	6250
2026-01-09 12:06:37.18	110.15	7.45	-37.8	-38.9	21.9	0.00e+00	0	24	0	973078528	48	6347
2026-01-09 12:06:38.19	110.29	7.41	-37.8	-38.9	21.9	0.00e+00	0	24	0	975175680	48	6336
2026-01-09 12:06:39.20	110.43	7.36	-37.9	-39.0	21.8	0.00e+00	0	24	0	977272832	48	6441
2026-01-09 12:06:40.21	110.57	7.32	-38.0	-39.1	21.7	0.00e+00	0	24	0	979369984	48	6485
2026-01-09 12:06:41.22	110.71	7.28	-37.9	-39.0	21.8	0.00e+00	0	24	0	981467136	48	6442
2026-01-09 12:06:42.23	110.85	7.23	-37.9	-39.1	21.7	0.00e+00	0	24	0	982515712	48	6465
2026-01-09 12:06:43.24	110.98	7.19	-37.8	-39.0	21.8	0.00e+00	0	24	0	984612864	48	6396
2026-01-09 12:06:44.25	111.12	7.15	-37.7	-38.8	21.9	0.00e+00	0	24	0	986710016	48	6311
2026-01-09 12:06:45.26	111.26	7.10	-37.6	-38.8	21.9	0.00e+00	0	24	0	988807168	48	6294
2026-01-09 12:06:46.26	111.39	7.06	-37.6	-38.9	21.9	0.00e+00	0	24	0	990904320	48	6365
2026-01-09 12:06:47.27	111.53	7.02	-37.6	-38.9	21.8	0.00e+00	0	24	0	991952896	48	6333
2026-01-09 12:06:48.28	111.67	6.97	-37.5	-38.8	21.9	0.00e+00	0	24	0	994050048	48	6289
2026-01-09 12:06:49.29	111.80	6.93	-37.7	-38.9	21.8	0.00e+00	0	24	0	996147200	48	6384
2026-01-09 12:06:50.30	111.94	6.89	-37.9	-39.1	21.6	0.00e+00	0	24	0	998244352	48	6527
2026-01-09 12:06:51.30	112.07	6.84	-38.0	-39.2	21.5	0.00e+00	0	24	0	1000341504	48	6606
2026-01-09 12:06:52.31	112.20	6.80	-38.0	-39.2	21.6	0.00e+00	0	24	0	1001390080	48	6584
2026-01-09 12:06:53.32	112.34	6.76	-38.0	-39.3	21.5	0.00e+00	0	24	0	1003487232	48	6647
2026-01-09 12:06:54.33	112.47	6.71	-38.1	-39.4	21.4	0.00e+00	0	24	0	1005584384	48	6712
2026-01-09 12:06:55.34	112.60	6.67	-37.9	-39.1	21.6	0.00e+00	0	24	0	1007681536	48	6519
2026-01-09 12:06:56.34	112.74	6.62	-37.9	-39.0	21.7	0.00e+00	0	24	0	1009778688	48	6460
2026-01-09 12:06:57.35	112.87	6.58	-37.7	-38.8	21.8	0.00e+00	0	24	0	1010827264	48	6299
2026-01-09 12:06:58.36	113.00	6.54	-37.6	-38.7	21.9	0.00e+00	0	24	0	1012924416	48	6208
2026-01-09 12:06:59.37	113.13	6.49	-37.6	-38.8	21.9	0.00e+00	0	24	0	1015021568	48	6251
2026-01-09 12:07:00.38	113.26	6.45	-37.5	-38.6	22.0	0.00e+00	0	24	0	1017118720	48	6170
2026-01-09 12:07:01.39	113.39	6.40	-37.6	-38.7	22.0	0.00e+00	0	24	0	1019215872	48	6212
2026-01-09 12:07:02.40	113.53	6.36	-37.5	-38.6	22.0	0.00e+00	0	24	0	1020264448	48	6167
2026-01-09 12:07:03.41	113.66	6.32	-37.6	-38.7	21.9	0.00e+00	0	24	0	1022361600	48	6228
2026-01-09 12:07:04.42	113.79	6.27	-37.8	-38.9	21.7	0.00e+00	0	24	0	1024458752	48	6327
2026-01-09 12:07:05.43	113.91	6.23	-37.8	-38.9	21.6	0.00e+00	0	24	0	1026555904	48	6340
2026-01-09 12:07:06.44	114.04	6.18	-38.0	-39.1	21.6	0.00e+00	0	24	0	1028653056	48	6488
2026-01-09 12:07:07.45	114.17	6.14	-38.0	-39.2	21.4	0.00e+00	0	24	0	1030750208	48	6557
2026-01-09 12:07:08.46	114.30	6.09	-38.0	-39.1	21.6	0.00e+00	0	24	0	1031798784	48	6509
2026-01-09 12:07:09.46	114.43	6.05	-37.9	-39.1	21.5	0.00e+00	0	24	0	1033895936	48	6492
2026-01-09 12:07:10.48	114.56	6.00	-37.9	-39.1	21.5	0.00e+00	0	24	0	1035993088	48	6502
2026-01-09 12:07:11.49	114.68	5.96	-37.8	-38.9	21.7	0.00e+00	0	24	0	1038090240	48	6374
2026-01-09 12:07:12.50	114.81	5.91	-38.0	-39.1	21.5	0.00e+00	0	24	0	1040187392	48	6491
2026-01-09 12:07:13.50	114.93	5.87	-38.1	-39.2	21.6	0.00e+00	0	24	0	1041235968	48	6600
2026-01-09 12:07:14.51	115.06	5.82	-38.1	-39.2	21.3	0.00e+00	0	24	0	1043333120	48	6571
2026-01-09 12:07:15.52	115.19	5.78	-38.0	-39.1	21.5	0.00e+00	0	24	0	1045430272	48	6535
2026-01-09 12:07:16.53	115.31	5.73	-37.9	-39.1	21.5	0.00e+00	0	24	0	1047527424	48	6479
2026-01-09 12:07:17.54	115.44	5.69	-37.9	-39.1	21.6	0.00e+00	0	24	0	1049624576	48	6483
2026-01-09 12:07:18.54	115.56	5.65	-38.2	-39.4	21.3	0.00e+00	0	24	0	1050673152	48	6720
2026-01-09 12:07:19.55	115.68	5.60	-38.2	-39.4	21.2	0.00e+00	0	24	0	1052770304	48	6764
2026-01-09 12:07:20.56	115.81	5.56	-38.2	-39.5	21.1	0.00e+00	0	24	0	1054867456	48	6819
2026-01-09 12:07:21.57	115.93	5.51	-38.5	-39.9	20.8	0.00e+00	0	24	0	1056964608	48	7107
2026-01-09 12:07:22.58	116.05	5.47	-38.0	-39.3	21.2	0.00e+00	0	24	0	1059061760	48	6678
2026-01-09 12:07:23.58	116.18	5.42	-38.2	-39.5	21.1	0.00e+00	0	24	0	1060110336	48	6835
2026-01-09 12:07:24.60	116.30	5.37	-38.4	-39.7	21.0	0.00e+00	0	24	0	1062207488	48	6934
2026-01-09 12:07:25.60	116.42	5.33	-38.5	-39.7	20.8	0.00e+00	0	24	0	1064304640	48	6965
2026-01-09 12:07:26.61	116.54	5.28	-38.5	-39.7	20.9	0.00e+00	0	24	0	1066401792	48	6963
2026-01-09 12:07:27.62	116.66	5.24	-38.4	-39.6	21.0	0.00e+00	0	24	0	1068498944	48	6895
2026-01-09 12:07:28.63	116.78	5.19	-38.4	-39.7	20.8	0.00e+00	0	24	0	1069547520	48	6969
2026-01-09 12:07:29.64	116.90	5.15	-38.4	-39.7	20.9	0.00e+00	0	24	0	1071644672	48	6968
2026-01-09 12:07:30.65	117.02	5.10	-38.5	-39.9	20.7	0.00e+00	0	24	0	1073741824	48	7111
2026-01-09 12:07:31.66	117.14	5.06	-38.4	-39.9	20.7	0.00e+00	0	24	0	1075838976	48	7108
2026-01-09 12:07:32.66	117.26	5.01	-38.3	-39.9	20.6	0.00e+00	0	24	0	1077936128	48	7116
2026-01-09 12:07:33.67	117.38	4.97	-38.6	-40.3	20.2	0.00e+00	0	24	0	1078984704	48	7446
2026-01-09 12:07:34.68	117.50	4.92	-38.7	-40.3	20.2	0.00e+00	0	24	0	1081081856	48	7503
2026-01-09 12:07:35.69	117.62	4.88	-38.7	-40.3	20.2	0.00e+00	0	24	0	1083179008	50	6679
2026-01-09 12:07:36.70	117.74	4.83	-38.8	-40.4	20.1	0.00e+00	0	24	0	1085276160	50	6759
2026-01-09 12:07:37.71	117.86	4.79	-38.7	-40.3	20.2	0.00e+00	0	24	0	1087373312	50	6651
2026-01-09 12:07:38.72	117.97	4.74	-38.8	-40.4	20.2	0.00e+00	0	24	0	1088421888	50	6750
2026-01-09 12:07:39.72	118.09	4.70	-39.0	-40.6	19.9	0.00e+00	0	24	0	1090519040	50	6894
2026-01-09 12:07:40.74	118.21	4.65	-39.3	-40.9	19.6	0.00e+00	0	24	0	1092616192	50	7112
2026-01-09 12:07:41.75	118.32	4.60	-39.1	-40.6	19.9	0.00e+00	0	24	0	1094713344	50	6894
2026-01-09 12:07:42.75	118.44	4.56	-38.9	-40.3	20.2	0.00e+00	0	24	0	1096810496	50	6617
2026-01-09 12:07:43.76	118.55	4.51	-38.6	-39.9	20.6	0.00e+00	0	24	0	1097859072	50	6372
2026-01-09 12:07:44.77	118.67	4.47	-39.0	-40.3	20.2	0.00e+00	0	24	0	1099956224	50	6685
2026-01-09 12:07:45.78	118.78	4.42	-38.8	-40.1	20.4	0.00e+00	0	24	0	1102053376	50	6503
2026-01-09 12:07:46.79	118.90	4.38	-38.9	-40.2	20.2	0.00e+00	0	24	0	1104150528	50	6610
2026-01-09 12:07:47.80	119.01	4.33	-38.9	-40.2	20.1	0.00e+00	0	24	0	1106247680	50	6615
2026-01-09 12:07:48.81	119.13	4.28	-39.0	-40.3	20.1	0.00e+00	0	24	0	1107296256	50	6691
2026-01-09 12:07:49.82	119.24	4.24	-38.9	-40.3	20.1	0.00e+00	0	24	0	1109393408	50	6664
2026-01-09 12:07:50.83	119.35	4.19	-38.9	-40.4	20.0	0.00e+00	0	24	0	1111490560	50	6711
2026-01-09 12:07:51.84	119.47	4.15	-39.3	-40.8	19.5	0.00e+00	0	24	0	1113587712	50	7082
2026-01-09 12:07:52.85	119.58	4.10	-39.4	-41.0	19.4	0.00e+00	0	24	0	1115684864	50	7240
2026-01-09 12:07:53.86	119.69	4.06	-38.9	-40.4	20.0	0.00e+00	0	24	0	1116733440	50	6760
2026-01-09 12:07:54.87	119.80	4.01	-39.1	-40.8	19.6	0.00e+00	0	24	0	1118830592	50	7023
2026-01-09 12:07:55.87	119.91	3.96	-38.8	-40.4	19.9	0.00e+00	0	24	0	1120927744	50	6729
2026-01-09 12:07:56.88	120.02	3.92	-39.3	-41.0	19.1	0.00e+00	0	24	0	1123024896	50	7234
2026-01-09 12:07:57.89	120.13	3.87	-39.2	-40.9	19.5	0.00e+00	0	24	0	1125122048	50	7098
2026-01-09 12:07:58.90	120.25	3.83	-39.2	-40.9	19.4	0.00e+00	0	24	0	1127219200	50	7115
2026-01-09 12:07:59.91	120.36	3.78	-39.1	-40.5	19.8	0.00e+00	0	24	0	1128267776	50	6840
2026-01-09 12:08:00.92	120.47	3.74	-39.5	-41.1	19.3	0.00e+00	0	24	0	1130364928	50	7265
2026-01-09 12:08:01.93	120.57	3.69	-39.4	-41.0	19.2	0.00e+00	0	24	0	1132462080	50	7214
2026-01-09 12:08:02.94	120.68	3.64	-39.5	-41.2	19.0	0.00e+00	0	24	0	1134559232	50	7341
2026-01-09 12:08:03.95	120.79	3.60	-39.8	-41.5	18.7	0.00e+00	0	24	0	1136656384	52	6841
2026-01-09 12:08:04.95	120.90	3.55	-39.8	-41.6	18.8	0.00e+00	0	24	0	1137704960	52	6911
2026-01-09 12:08:05.96	121.01	3.51	-39.9	-41.8	18.3	0.00e+00	0	24	0	1139802112	52	7027
2026-01-09 12:08:06.97	121.12	3.46	-39.9	-41.7	18.5	0.00e+00	0	24	0	1141899264	52	6999
2026-01-09 12:08:07.98	121.22	3.42	-39.9	-41.9	18.4	0.00e+00	0	24	0	1143996416	52	7111
2026-01-09 12:08:08.99	121.33	3.37	-40.0	-41.9	18.2	0.00e+00	0	24	0	1146093568	52	7153
2026-01-09 12:08:10.00	121.44	3.32	-40.2	-42.3	17.8	0.00e+00	0	24	0	1147142144	52	7437
2026-01-09 12:08:11.01	121.55	3.28	-40.8	-43.1	17.2	0.00e+00	0	24	0	1149239296	52	8144
2026-01-09 12:08:12.02	121.65	3.23	-40.7	-43.0	17.0	0.00e+00	0	24	0	1151336448	54	7183
2026-01-09 12:08:13.03	121.76	3.19	-41.1	-43.6	16.3	0.00e+00	0	24	0	1153433600	54	7725
2026-01-09 12:08:14.04	121.86	3.14	-40.9	-43.2	16.7	0.00e+00	0	24	0	1155530752	54	7415
2026-01-09 12:08:15.05	121.97	3.09	-40.7	-43.0	17.0	0.00e+00	0	24	0	1156579328	54	7216
2026-01-09 12:08:16.05	122.07	3.05	-40.9	-43.3	16.6	0.00e+00	0	24	0	1158676480	54	7441
2026-01-09 12:08:17.06	122.18	3.00	-41.0	-43.3	16.6	0.00e+00	0	24	0	1160773632	54	7491
2026-01-09 12:08:18.07	122.28	2.96	-45.8	-61.8	3.6	1.28e+00	0	24	104	1161822208	60	44531
2026-01-09 12:08:19.08	122.39	2.91	-46.8	-62.3	3.6	1.51e+00	0	24	104	1161822208	60	47199
2026-01-09 12:08:20.09	122.49	2.87	-47.4	-62.6	3.6	1.51e+00	0	24	104	1161822208	60	48825
2026-01-09 12:08:21.10	122.59	2.82	-45.4	-62.7	3.6	1.51e+00	0	24	104	1161822208	60	49447
2026-01-09 12:08:22.11	122.70	2.77	-47.6	-62.8	3.6	1.51e+00	0	24	104	1161822208	60	50142
2026-01-09 12:08:23.12	122.80	2.73	-47.5	-63.0	3.6	1.51e+00	0	24	104	1161822208	60	50844
2026-01-09 12:08:24.12	122.90	2.68	-47.6	-63.0	3.6	1.51e+00	0	24	104	1161822208	60	51056
2026-01-09 12:08:25.13	123.00	2.64	-47.8	-63.0	3.6	1.51e+00	0	24	104	1161822208	60	51138
2026-01-09 12:08:26.14	123.11	2.59	-47.7	-63.0	3.6	1.51e+00	0	24	104	1161822208	60	51025
2026-01-09 12:08:27.15	123.21	2.54	-47.8	-63.0	3.6	1.51e+00	0	24	104	1161822208	60	50996
2026-01-09 12:08:28.16	123.31	2.50	-47.8	-63.0	3.6	1.51e+00	0	24	104	1161822208	60	50854
2026-01-09 12:08:29.17	123.41	2.45	-47.7	-62.9	3.6	1.51e+00	0	24	104	1161822208	60	50664
2026-01-09 12:08:30.18	123.51	2.41	-47.6	-63.0	3.5	1.51e+00	0	24	104	1161822208	60	50875
2026-01-09 12:08:31.19	123.61	2.36	-47.7	-62.9	3.6	1.51e+00	0	24	104	1161822208	60	50743
2026-01-09 12:08:32.20	123.71	2.31	-47.5	-63.0	3.6	1.51e+00	0	24	104	1161822208	60	50912
2026-01-09 12:08:33.21	123.81	2.27	-47.7	-62.9	3.6	1.51e+00	0	24	104	1161822208	60	50596
2026-01-09 12:08:34.22	123.91	2.22	-47.7	-63.0	3.6	1.51e+00	0	24	104	1161822208	60	50788
2026-01-09 12:08:35.23	124.01	2.18	-47.7	-62.9	3.6	1.51e+00	0	24	104	1161822208	60	50664
2026-01-09 12:08:36.23	124.11	2.13	-47.7	-62.9	3.6	1.51e+00	0	24	104	1161822208	60	50479
2026-01-09 12:08:37.24	124.21	2.09	-47.7	-62.9	3.6	1.51e+00	0	24	104	1161822208	60	50679
2026-01-09 12:08:38.25	124.30	2.04	-47.7	-63.0	3.6	1.51e+00	0	24	104	1161822208	60	50769
2026-01-09 12:08:39.26	124.40	1.99	-47.7	-62.9	3.6	1.51e+00	0	24	104	1161822208	60	50294
