passes_logs/2026/01/09/R4.6S_Anadyr/R4.6S_Anadyr__20260109_155655_FENGYUN_3D_rec.log

#Pass ID: 20260109_155655_FENGYUN 3D
#Satellite: FENGYUN 3D
#Configuration: FENGYUN 3D
#almurnet v.1.7.20251203
#Start time: 2026-01-09 15:56:56

#Version: 2.2.20231116
#Station: R4.6S_Anadyr
#Location: 177.4865 lon 64.73178 lat
#TLE: 1 43010U 17072A   26008.59015185 -.00000067  00000+0 -98204-5 0  9997
#TLE: 2 43010  98.9935 340.3069 0002117 119.1923 240.9464 14.19693468422340

#Time	Az	El	Level	Level2	SNR	BER	BlckErr	Temp	State	Recorded	gain1	gain2
2026-01-09 15:56:56.50	19.74	0.04	-47.6	-62.5	3.6	1.51e+00	0	20	0	0	60	48397
2026-01-09 15:56:57.51	19.77	0.10	-47.7	-59.9	3.6	8.45e-01	0	21	104	0	60	35643
2026-01-09 15:56:58.52	19.80	0.16	-47.6	-59.8	3.6	8.46e-01	0	22	104	0	60	35391
2026-01-09 15:56:59.53	19.83	0.22	-47.7	-59.8	3.6	8.45e-01	0	21	104	0	60	35486
2026-01-09 15:57:00.54	19.86	0.28	-47.7	-59.9	3.6	8.45e-01	0	22	104	0	60	35544
2026-01-09 15:57:01.55	19.89	0.34	-47.7	-59.9	3.6	8.45e-01	0	22	104	0	60	35539
2026-01-09 15:57:02.56	19.92	0.40	-47.8	-59.9	3.6	8.45e-01	0	22	104	0	60	35863
2026-01-09 15:57:03.57	19.95	0.46	-47.7	-59.9	3.6	8.46e-01	0	22	104	0	60	35599
2026-01-09 15:57:04.58	19.98	0.52	-47.7	-59.8	3.6	8.45e-01	0	22	104	0	60	35426
2026-01-09 15:57:05.59	20.01	0.58	-47.6	-59.8	3.6	8.45e-01	0	22	104	0	60	35212
2026-01-09 15:57:06.60	20.04	0.64	-47.6	-59.7	3.6	8.45e-01	0	22	104	0	60	34944
2026-01-09 15:57:07.61	20.07	0.70	-47.4	-59.6	3.6	8.46e-01	0	22	104	0	60	34413
2026-01-09 15:57:08.62	20.10	0.76	-47.2	-59.4	3.6	8.45e-01	0	22	104	0	60	33796
2026-01-09 15:57:09.63	20.13	0.82	-47.1	-59.2	3.6	8.46e-01	0	22	104	0	60	33143
2026-01-09 15:57:10.64	20.16	0.88	-47.0	-59.1	3.6	8.45e-01	0	22	104	0	60	32450
2026-01-09 15:57:11.65	20.20	0.94	-46.7	-58.8	3.6	8.46e-01	0	22	104	0	60	31434
2026-01-09 15:57:12.66	20.23	1.00	-46.3	-58.4	3.6	8.45e-01	0	22	104	0	60	29897
2026-01-09 15:57:13.67	20.26	1.06	-46.2	-58.3	3.6	8.45e-01	0	22	104	0	60	29617
2026-01-09 15:57:14.67	20.29	1.12	-46.2	-58.2	3.6	8.45e-01	0	22	104	0	60	29534
2026-01-09 15:57:15.68	20.32	1.18	-46.2	-58.3	3.6	8.45e-01	0	22	104	0	60	29728
2026-01-09 15:57:16.69	20.35	1.24	-46.2	-58.3	3.6	8.46e-01	0	22	104	0	60	29581
2026-01-09 15:57:17.70	20.39	1.30	-46.2	-58.2	3.5	8.46e-01	0	22	104	0	60	29480
2026-01-09 15:57:18.71	20.42	1.36	-46.2	-58.1	3.6	8.45e-01	0	22	104	0	60	29049
2026-01-09 15:57:19.72	20.45	1.42	-46.2	-58.1	3.6	8.46e-01	0	22	104	0	60	29076
2026-01-09 15:57:20.73	20.48	1.48	-46.1	-58.1	3.6	8.45e-01	0	22	104	0	60	28884
2026-01-09 15:57:21.74	20.52	1.55	-46.2	-58.1	3.6	8.46e-01	0	22	104	0	60	29074
2026-01-09 15:57:22.75	20.55	1.61	-46.2	-58.2	3.6	8.45e-01	0	22	104	0	60	29243
2026-01-09 15:57:23.76	20.58	1.67	-46.2	-58.2	3.6	8.45e-01	0	22	104	0	60	29469
2026-01-09 15:57:24.77	20.62	1.73	-46.2	-58.1	3.6	8.45e-01	0	22	104	0	60	29185
2026-01-09 15:57:25.78	20.65	1.79	-46.2	-58.2	3.6	8.45e-01	0	22	104	0	60	29462
2026-01-09 15:57:26.79	20.68	1.85	-46.2	-58.1	3.6	8.45e-01	0	22	104	0	60	29201
2026-01-09 15:57:27.80	20.71	1.92	-46.2	-58.2	3.6	8.45e-01	0	22	104	0	60	29408
2026-01-09 15:57:28.81	20.75	1.98	-46.2	-58.2	3.6	8.45e-01	0	22	104	0	60	29361
2026-01-09 15:57:29.82	20.78	2.04	-46.2	-58.3	3.6	8.46e-01	0	22	104	0	60	29604
2026-01-09 15:57:30.83	20.82	2.10	-46.2	-58.2	3.6	8.45e-01	0	22	104	0	60	29281
2026-01-09 15:57:31.84	20.85	2.17	-46.1	-57.8	3.6	8.45e-01	0	22	104	0	60	28093
2026-01-09 15:57:32.85	20.88	2.23	-46.1	-57.1	3.6	8.45e-01	0	22	104	0	60	25966
2026-01-09 15:57:33.86	20.92	2.29	-45.9	-56.0	3.6	8.45e-01	0	22	104	0	60	22920
2026-01-09 15:57:34.87	20.95	2.36	-45.9	-55.6	3.8	8.43e-01	0	22	104	0	60	21715
2026-01-09 15:57:35.88	20.99	2.42	-45.9	-55.8	3.8	8.42e-01	0	22	104	0	60	22360
2026-01-09 15:57:36.89	21.02	2.48	-46.0	-56.6	3.6	8.43e-01	0	22	104	0	60	24428
2026-01-09 15:57:37.90	21.05	2.55	-46.1	-57.6	3.6	8.45e-01	0	22	104	0	60	27571
2026-01-09 15:57:38.91	21.09	2.61	-46.0	-56.8	3.6	8.45e-01	0	22	104	0	60	24914
2026-01-09 15:57:39.92	21.12	2.67	-45.4	-52.2	5.2	8.20e-01	0	22	104	0	60	14700
2026-01-09 15:57:40.93	21.16	2.74	-44.0	-47.5	9.6	5.29e-02	0	22	0	4194304	60	8602
2026-01-09 15:57:41.94	21.19	2.80	-42.1	-44.4	12.9	2.43e-03	0	22	0	10485760	58	6694
2026-01-09 15:57:42.95	21.23	2.87	-40.3	-42.0	15.3	1.10e-06	0	22	0	15728640	54	6396
2026-01-09 15:57:43.95	21.26	2.93	-38.2	-39.4	17.9	0.00e+00	0	22	0	22020096	50	6003
2026-01-09 15:57:44.96	21.30	2.99	-37.0	-38.0	19.4	0.00e+00	0	22	0	27262976	48	5735
2026-01-09 15:57:45.97	21.33	3.06	-36.1	-37.1	20.2	0.00e+00	0	22	0	33554432	46	5793
2026-01-09 15:57:46.98	21.37	3.12	-35.4	-36.3	20.9	0.00e+00	0	22	0	38797312	44	5956
2026-01-09 15:57:47.99	21.41	3.19	-34.8	-35.7	21.5	0.00e+00	0	22	0	44040192	44	5507
2026-01-09 15:57:49.01	21.44	3.25	-34.8	-35.6	21.5	0.00e+00	0	22	0	50331648	42	6154
2026-01-09 15:57:50.02	21.48	3.32	-35.1	-36.0	21.2	0.00e+00	0	22	0	55574528	42	6415
2026-01-09 15:57:51.03	21.52	3.39	-35.5	-36.4	20.8	0.00e+00	0	22	0	61865984	42	6694
2026-01-09 15:57:52.04	21.55	3.45	-36.1	-37.0	20.2	0.00e+00	0	22	0	67108864	44	6432
2026-01-09 15:57:53.05	21.59	3.52	-37.7	-38.8	18.3	0.00e+00	0	22	0	72351744	46	7063
2026-01-09 15:57:54.06	21.62	3.58	-39.0	-40.3	16.9	0.00e+00	0	22	0	78643200	50	6679
2026-01-09 15:57:55.07	21.66	3.65	-35.6	-36.5	20.6	0.00e+00	0	22	0	83886080	42	6828
2026-01-09 15:57:56.08	21.70	3.71	-45.2	-50.8	6.2	1.38e-01	0	22	0	90177536	60	12593
2026-01-09 15:57:57.09	21.74	3.78	-43.3	-46.2	11.3	2.20e-06	0	22	0	95420416	58	8308
2026-01-09 15:57:58.10	21.77	3.85	-39.6	-41.0	17.0	0.00e+00	0	22	0	100663296	52	6444
2026-01-09 15:57:59.11	21.81	3.91	-45.9	-55.7	3.7	6.50e-01	0	22	104	103809024	60	22036
2026-01-09 15:58:00.12	21.85	3.98	-39.7	-41.2	16.1	1.10e-06	0	22	0	104857600	52	6553
2026-01-09 15:58:01.13	21.89	4.05	-39.0	-40.2	17.2	0.00e+00	0	22	0	111149056	52	5889
2026-01-09 15:58:02.14	21.92	4.12	-37.8	-38.9	18.9	0.00e+00	0	22	0	116391936	50	5691
2026-01-09 15:58:03.15	21.96	4.18	-36.7	-37.7	19.7	0.00e+00	0	22	0	121634816	46	6208
2026-01-09 15:58:04.17	22.00	4.25	-35.8	-36.7	20.7	0.00e+00	0	22	0	127926272	46	5548
2026-01-09 15:58:05.18	22.04	4.32	-35.3	-36.2	21.2	0.00e+00	0	22	0	133169152	44	5847
2026-01-09 15:58:06.19	22.08	4.39	-35.1	-36.0	21.4	0.00e+00	0	22	0	139460608	44	5701
2026-01-09 15:58:07.20	22.12	4.45	-35.3	-36.2	21.2	0.00e+00	0	22	0	144703488	44	5864
2026-01-09 15:58:08.21	22.15	4.52	-35.9	-36.8	20.4	0.00e+00	0	22	0	149946368	44	6268
2026-01-09 15:58:09.22	22.19	4.59	-35.4	-36.3	21.1	0.00e+00	0	22	0	156237824	44	5928
2026-01-09 15:58:10.23	22.23	4.66	-34.5	-35.3	22.2	0.00e+00	0	22	0	161480704	42	5959
2026-01-09 15:58:11.24	22.27	4.73	-34.7	-35.5	21.9	0.00e+00	0	22	0	167772160	42	6092
2026-01-09 15:58:12.24	22.31	4.80	-34.1	-34.8	22.6	0.00e+00	0	22	0	173015040	42	5626
2026-01-09 15:58:13.25	22.35	4.86	-33.7	-34.5	22.9	0.00e+00	0	22	0	179306496	40	6067
2026-01-09 15:58:14.26	22.39	4.93	-33.6	-34.4	23.0	0.00e+00	0	22	0	184549376	40	5991
2026-01-09 15:58:15.27	22.43	5.00	-33.7	-34.5	22.9	0.00e+00	0	22	0	190840832	40	6050
2026-01-09 15:58:16.28	22.47	5.07	-33.8	-34.5	22.9	0.00e+00	0	22	0	196083712	40	6074
2026-01-09 15:58:17.29	22.51	5.14	-33.6	-34.4	23.1	0.00e+00	0	22	0	201326592	40	6004
2026-01-09 15:58:18.30	22.55	5.21	-33.7	-34.4	23.0	0.00e+00	0	22	0	207618048	40	6025
2026-01-09 15:58:19.32	22.59	5.28	-33.7	-34.5	23.0	0.00e+00	0	22	0	212860928	40	6068
2026-01-09 15:58:20.32	22.63	5.35	-33.7	-34.5	23.0	0.00e+00	0	22	0	219152384	40	6046
2026-01-09 15:58:21.34	22.67	5.42	-33.7	-34.5	23.1	0.00e+00	0	22	0	224395264	40	6059
2026-01-09 15:58:22.35	22.71	5.49	-33.7	-34.5	23.0	0.00e+00	0	22	0	229638144	40	6052
2026-01-09 15:58:23.36	22.76	5.56	-33.7	-34.5	23.0	0.00e+00	0	22	0	235929600	40	6035
2026-01-09 15:58:24.37	22.80	5.63	-33.6	-34.4	23.1	0.00e+00	0	23	0	241172480	40	5985
2026-01-09 15:58:25.38	22.84	5.71	-33.5	-34.3	23.2	0.00e+00	0	22	0	247463936	40	5897
2026-01-09 15:58:26.39	22.88	5.78	-33.5	-34.2	23.3	0.00e+00	0	22	0	252706816	40	5878
2026-01-09 15:58:27.39	22.92	5.85	-33.4	-34.1	23.4	0.00e+00	0	22	0	257949696	40	5799
2026-01-09 15:58:28.41	22.97	5.92	-33.5	-34.3	23.3	0.00e+00	0	22	0	264241152	40	5899
2026-01-09 15:58:29.42	23.01	5.99	-33.4	-34.2	23.3	0.00e+00	0	22	0	269484032	40	5854
2026-01-09 15:58:30.42	23.05	6.06	-33.4	-34.2	23.3	0.00e+00	0	22	0	275775488	40	5845
2026-01-09 15:58:31.43	23.09	6.13	-33.3	-34.0	23.5	0.00e+00	0	22	0	281018368	40	5743
2026-01-09 15:58:32.44	23.14	6.21	-33.2	-33.9	23.6	0.00e+00	0	22	0	287309824	40	5672
2026-01-09 15:58:33.46	23.18	6.28	-33.3	-34.0	23.6	0.00e+00	0	22	0	292552704	40	5724
2026-01-09 15:58:34.47	23.22	6.35	-33.2	-33.9	23.7	0.00e+00	0	22	0	298844160	40	5660
2026-01-09 15:58:35.48	23.27	6.43	-33.2	-33.9	23.6	0.00e+00	0	22	0	304087040	40	5652
2026-01-09 15:58:36.49	23.31	6.50	-33.0	-33.7	23.9	0.00e+00	0	22	0	309329920	40	5533
2026-01-09 15:58:37.50	23.35	6.57	-33.1	-33.8	23.7	0.00e+00	0	22	0	315621376	40	5608
2026-01-09 15:58:38.51	23.40	6.65	-33.0	-33.7	23.9	0.00e+00	0	22	0	320864256	40	5526
2026-01-09 15:58:39.52	23.44	6.72	-33.1	-33.8	23.7	0.00e+00	0	22	0	327155712	40	5586
2026-01-09 15:58:40.53	23.49	6.79	-33.2	-33.9	23.6	0.00e+00	0	22	0	332398592	40	5681
2026-01-09 15:58:41.54	23.53	6.87	-32.9	-33.7	23.9	0.00e+00	0	22	0	337641472	40	5503
2026-01-09 15:58:42.55	23.58	6.94	-33.0	-33.7	23.9	0.00e+00	0	23	0	343932928	40	5531
2026-01-09 15:58:43.56	23.62	7.02	-32.8	-33.5	24.0	0.00e+00	0	22	0	349175808	40	5405
2026-01-09 15:58:44.57	23.67	7.09	-32.9	-33.6	23.9	0.00e+00	0	22	0	355467264	40	5482
2026-01-09 15:58:45.58	23.71	7.17	-32.8	-33.5	24.0	0.00e+00	0	23	0	360710144	40	5412
2026-01-09 15:58:46.59	23.76	7.24	-32.9	-33.6	24.0	0.00e+00	0	23	0	365953024	40	5472
2026-01-09 15:58:47.60	23.80	7.32	-32.9	-33.6	23.9	0.00e+00	0	22	0	372244480	40	5487
2026-01-09 15:58:48.61	23.85	7.39	-33.0	-33.7	24.0	0.00e+00	0	23	0	377487360	40	5544
2026-01-09 15:58:49.62	23.90	7.47	-32.8	-33.5	23.1	0.00e+00	0	22	0	383778816	40	5395
2026-01-09 15:58:50.63	23.94	7.54	-32.9	-33.6	24.1	0.00e+00	0	22	0	389021696	38	6136
2026-01-09 15:58:51.64	23.99	7.62	-32.9	-33.6	24.1	0.00e+00	0	22	0	395313152	38	6172
2026-01-09 15:58:52.65	24.04	7.70	-32.9	-33.6	24.0	0.00e+00	0	23	0	400556032	38	6164
2026-01-09 15:58:53.66	24.08	7.77	-32.8	-33.5	24.2	0.00e+00	0	22	0	405798912	38	6091
2026-01-09 15:58:54.67	24.13	7.85	-32.9	-33.6	24.1	0.00e+00	0	23	0	412090368	38	6149
2026-01-09 15:58:55.68	24.18	7.93	-32.7	-33.4	24.3	0.00e+00	0	22	0	417333248	38	6012
2026-01-09 15:58:56.69	24.23	8.00	-32.6	-33.4	24.3	0.00e+00	0	23	0	423624704	38	5971
2026-01-09 15:58:57.70	24.28	8.08	-32.6	-33.3	24.3	0.00e+00	0	22	0	428867584	38	5951
2026-01-09 15:58:58.71	24.32	8.16	-32.6	-33.4	24.3	0.00e+00	0	22	0	434110464	38	5970
2026-01-09 15:58:59.72	24.37	8.24	-32.7	-33.4	24.3	0.00e+00	0	22	0	440401920	38	5985
2026-01-09 15:59:00.73	24.42	8.31	-32.6	-33.3	24.4	0.00e+00	0	23	0	445644800	38	5953
2026-01-09 15:59:01.74	24.47	8.39	-32.6	-33.3	24.4	0.00e+00	0	22	0	451936256	38	5949
2026-01-09 15:59:02.75	24.52	8.47	-32.5	-33.3	24.4	0.00e+00	0	23	0	457179136	38	5899
2026-01-09 15:59:03.76	24.57	8.55	-32.6	-33.3	24.4	0.00e+00	0	23	0	462422016	38	5955
2026-01-09 15:59:04.77	24.62	8.63	-32.5	-33.2	24.5	0.00e+00	0	23	0	468713472	38	5851
2026-01-09 15:59:05.78	24.67	8.71	-32.6	-33.3	24.5	0.00e+00	0	23	0	473956352	38	5953
2026-01-09 15:59:06.79	24.72	8.79	-32.5	-33.2	24.4	0.00e+00	0	23	0	480247808	38	5888
2026-01-09 15:59:07.81	24.77	8.87	-32.5	-33.3	24.6	0.00e+00	0	22	0	485490688	38	5900
2026-01-09 15:59:08.82	24.82	8.95	-32.6	-33.3	24.5	0.00e+00	0	23	0	491782144	38	5909
2026-01-09 15:59:09.83	24.87	9.03	-32.4	-33.1	24.6	0.00e+00	0	23	0	497025024	38	5822
2026-01-09 15:59:10.83	24.92	9.11	-32.6	-33.3	24.4	0.00e+00	0	23	0	503316480	38	5954
2026-01-09 15:59:11.85	24.98	9.19	-32.7	-33.4	24.3	0.00e+00	0	23	0	508559360	38	6018
2026-01-09 15:59:12.86	25.03	9.27	-33.0	-33.7	24.1	0.00e+00	0	23	0	513802240	38	6232
2026-01-09 15:59:13.87	25.08	9.35	-32.4	-33.1	24.6	0.00e+00	0	23	0	520093696	38	5828
2026-01-09 15:59:14.88	25.13	9.43	-32.5	-33.2	24.5	0.00e+00	0	23	0	525336576	38	5879
2026-01-09 15:59:15.89	25.19	9.52	-32.9	-33.6	24.3	0.00e+00	0	23	0	531628032	38	6124
2026-01-09 15:59:16.90	25.24	9.60	-32.3	-32.9	24.8	0.00e+00	0	23	0	536870912	38	5686
2026-01-09 15:59:17.91	25.29	9.68	-32.1	-32.8	24.9	0.00e+00	0	23	0	542113792	38	5607
2026-01-09 15:59:18.92	25.35	9.76	-32.1	-32.8	24.9	0.00e+00	0	23	0	548405248	38	5628
2026-01-09 15:59:19.93	25.40	9.85	-32.2	-32.9	24.9	0.00e+00	0	23	0	553648128	38	5651
2026-01-09 15:59:20.94	25.45	9.93	-32.1	-32.8	25.0	0.00e+00	0	23	0	559939584	38	5592
2026-01-09 15:59:21.95	25.51	10.01	-32.0	-32.7	25.0	0.00e+00	0	23	0	565182464	38	5549
2026-01-09 15:59:22.96	25.56	10.09	-32.0	-32.7	25.1	0.00e+00	0	23	0	570425344	38	5504
2026-01-09 15:59:23.97	25.62	10.18	-31.9	-32.5	25.2	0.00e+00	0	23	0	576716800	38	5432
2026-01-09 15:59:24.98	25.67	10.26	-32.0	-32.7	25.2	0.00e+00	0	23	0	581959680	38	5523
2026-01-09 15:59:25.99	25.73	10.35	-32.1	-32.7	25.0	0.00e+00	0	23	0	588251136	38	5541
2026-01-09 15:59:27.00	25.78	10.43	-31.8	-32.5	25.3	0.00e+00	0	23	0	593494016	36	6045
2026-01-09 15:59:28.01	25.84	10.52	-31.8	-32.4	25.3	0.00e+00	0	23	0	599785472	36	6019
2026-01-09 15:59:29.02	25.90	10.60	-31.8	-32.5	25.3	0.00e+00	0	23	0	605028352	36	6053
2026-01-09 15:59:30.03	25.95	10.69	-31.7	-32.4	25.3	0.00e+00	0	23	0	611319808	36	5976
2026-01-09 15:59:31.04	26.01	10.77	-31.9	-32.6	25.2	0.00e+00	0	23	0	616562688	36	6104
2026-01-09 15:59:32.05	26.07	10.86	-31.8	-32.4	25.3	0.00e+00	0	23	0	621805568	36	6029
2026-01-09 15:59:33.06	26.12	10.95	-31.8	-32.5	25.3	0.00e+00	0	23	0	628097024	36	6040
2026-01-09 15:59:34.07	26.18	11.03	-31.7	-32.4	25.4	0.00e+00	0	23	0	633339904	36	5999
2026-01-09 15:59:35.08	26.24	11.12	-31.8	-32.5	25.3	0.00e+00	0	23	0	639631360	36	6042
2026-01-09 15:59:36.09	26.30	11.21	-31.8	-32.4	25.4	0.00e+00	0	23	0	644874240	36	6009
2026-01-09 15:59:37.10	26.36	11.29	-31.7	-32.4	25.4	0.00e+00	0	23	0	650117120	36	5974
2026-01-09 15:59:38.11	26.42	11.38	-31.6	-32.2	25.5	0.00e+00	0	23	0	656408576	36	5880
2026-01-09 15:59:39.12	26.48	11.47	-31.6	-32.3	25.5	0.00e+00	0	23	0	661651456	36	5925
2026-01-09 15:59:40.14	26.54	11.56	-31.7	-32.3	25.5	0.00e+00	0	23	0	667942912	36	5955
2026-01-09 15:59:41.14	26.60	11.65	-31.5	-32.1	25.6	0.00e+00	0	23	0	673185792	36	5825
2026-01-09 15:59:42.15	26.66	11.73	-31.6	-32.3	25.4	0.00e+00	0	23	0	678428672	36	5905
2026-01-09 15:59:43.16	26.72	11.82	-31.7	-32.4	25.3	0.00e+00	0	23	0	684720128	36	5993
2026-01-09 15:59:44.17	26.78	11.91	-31.5	-32.2	25.6	0.00e+00	0	23	0	689963008	36	5855
2026-01-09 15:59:45.18	26.84	12.00	-31.5	-32.2	25.6	0.00e+00	0	23	0	696254464	36	5845
2026-01-09 15:59:46.20	26.90	12.09	-31.4	-32.1	25.7	0.00e+00	0	23	0	701497344	36	5762
2026-01-09 15:59:47.20	26.97	12.18	-31.5	-32.2	25.6	0.00e+00	0	23	0	707788800	36	5830
2026-01-09 15:59:48.21	27.03	12.27	-31.5	-32.2	25.5	0.00e+00	0	23	0	713031680	36	5864
2026-01-09 15:59:49.22	27.09	12.36	-31.3	-32.0	25.8	0.00e+00	0	23	0	719323136	36	5721
2026-01-09 15:59:50.23	27.15	12.46	-31.3	-32.0	25.8	0.00e+00	0	23	0	724566016	36	5723
2026-01-09 15:59:51.24	27.22	12.55	-31.4	-32.0	25.7	0.00e+00	0	23	0	729808896	36	5747
2026-01-09 15:59:52.25	27.28	12.64	-31.2	-31.9	25.9	0.00e+00	0	23	0	736100352	36	5637
2026-01-09 15:59:53.26	27.35	12.73	-31.2	-31.9	25.8	0.00e+00	0	23	0	741343232	36	5659
2026-01-09 15:59:54.27	27.41	12.82	-31.2	-31.9	25.8	0.00e+00	0	23	0	747634688	36	5680
2026-01-09 15:59:55.28	27.48	12.92	-31.2	-31.9	25.9	0.00e+00	0	23	0	752877568	36	5662
2026-01-09 15:59:56.29	27.54	13.01	-31.2	-31.9	25.9	0.00e+00	0	23	0	758120448	36	5667
2026-01-09 15:59:57.30	27.61	13.10	-31.3	-31.9	25.9	0.00e+00	0	23	0	764411904	36	5688
2026-01-09 15:59:58.31	27.67	13.20	-31.3	-31.9	25.9	0.00e+00	0	23	0	769654784	36	5675
2026-01-09 15:59:59.32	27.74	13.29	-31.2	-31.9	25.9	0.00e+00	0	23	0	775946240	36	5659
2026-01-09 16:00:00.33	27.81	13.39	-31.3	-31.9	25.8	0.00e+00	0	23	0	781189120	36	5681
2026-01-09 16:00:01.34	27.88	13.48	-31.6	-32.2	25.6	0.00e+00	0	23	0	786432000	36	5875
2026-01-09 16:00:02.35	27.94	13.58	-31.3	-32.0	25.8	0.00e+00	0	23	0	792723456	36	5733
2026-01-09 16:00:03.36	28.01	13.67	-31.4	-32.0	25.8	0.00e+00	0	23	0	797966336	36	5740
2026-01-09 16:00:04.37	28.08	13.77	-31.4	-32.0	25.8	0.00e+00	0	23	0	804257792	36	5747
2026-01-09 16:00:05.38	28.15	13.86	-31.3	-32.0	25.8	0.00e+00	0	23	0	809500672	36	5711
2026-01-09 16:00:06.39	28.22	13.96	-31.2	-31.8	26.0	0.00e+00	0	23	0	815792128	36	5612
2026-01-09 16:00:07.40	28.29	14.06	-31.2	-31.9	25.9	0.00e+00	0	23	0	821035008	36	5648
2026-01-09 16:00:08.42	28.36	14.16	-31.1	-31.7	26.1	0.00e+00	0	23	0	827326464	36	5558
2026-01-09 16:00:09.43	28.43	14.25	-31.1	-31.7	26.1	0.00e+00	0	23	0	832569344	36	5557
2026-01-09 16:00:10.43	28.50	14.35	-31.1	-31.7	26.1	0.00e+00	0	23	0	837812224	36	5562
2026-01-09 16:00:11.44	28.58	14.45	-30.8	-31.5	26.2	0.00e+00	0	23	0	844103680	36	5387
2026-01-09 16:00:12.45	28.65	14.55	-30.9	-31.6	26.2	0.00e+00	0	23	0	849346560	36	5463
2026-01-09 16:00:13.46	28.72	14.65	-30.6	-31.3	26.4	0.00e+00	0	23	0	855638016	34	5929
2026-01-09 16:00:14.47	28.79	14.75	-30.7	-31.3	26.4	0.00e+00	0	23	0	860880896	34	5942
2026-01-09 16:00:15.48	28.87	14.85	-30.7	-31.3	26.4	0.00e+00	0	23	0	866123776	34	5925
2026-01-09 16:00:16.49	28.94	14.95	-30.8	-31.5	26.3	0.00e+00	0	23	0	872415232	34	6059
2026-01-09 16:00:17.50	29.02	15.05	-30.9	-31.5	26.3	0.00e+00	0	23	0	877658112	34	6076
2026-01-09 16:00:18.51	29.09	15.15	-31.0	-31.6	26.1	0.00e+00	0	23	0	882900992	34	6148
2026-01-09 16:00:19.52	29.17	15.25	-30.5	-31.2	26.5	0.00e+00	0	23	0	889192448	34	5845
2026-01-09 16:00:20.53	29.24	15.35	-30.4	-31.1	26.6	0.00e+00	0	23	0	894435328	34	5784
2026-01-09 16:00:21.54	29.32	15.45	-30.5	-31.2	26.6	0.00e+00	0	23	0	900726784	34	5829
2026-01-09 16:00:22.55	29.40	15.56	-30.5	-31.1	26.6	0.00e+00	0	23	0	905969664	34	5815
2026-01-09 16:00:23.56	29.47	15.66	-30.4	-31.1	26.6	0.00e+00	0	23	0	912261120	34	5792
2026-01-09 16:00:24.57	29.55	15.76	-30.6	-31.2	26.5	0.00e+00	0	23	0	917504000	34	5855
2026-01-09 16:00:25.58	29.63	15.87	-30.6	-31.2	26.6	0.00e+00	0	23	0	923795456	34	5864
2026-01-09 16:00:26.59	29.71	15.97	-30.4	-31.0	26.7	0.00e+00	0	23	0	929038336	34	5737
2026-01-09 16:00:27.60	29.79	16.07	-30.4	-31.0	26.7	0.00e+00	0	23	0	934281216	34	5728
2026-01-09 16:00:28.61	29.87	16.18	-30.3	-30.9	26.8	0.00e+00	0	23	0	940572672	34	5669
2026-01-09 16:00:29.62	29.95	16.29	-30.3	-30.9	26.8	0.00e+00	0	23	0	945815552	34	5680
2026-01-09 16:00:30.63	30.03	16.39	-30.2	-30.8	26.9	0.00e+00	0	23	0	952107008	34	5606
2026-01-09 16:00:31.64	30.11	16.50	-30.3	-30.9	26.8	0.00e+00	0	23	0	957349888	34	5649
2026-01-09 16:00:32.65	30.19	16.60	-30.1	-30.7	26.9	0.00e+00	0	23	0	962592768	34	5517
2026-01-09 16:00:33.66	30.28	16.71	-30.1	-30.7	26.9	0.00e+00	0	23	0	968884224	34	5562
2026-01-09 16:00:34.67	30.36	16.82	-30.1	-30.7	26.9	0.00e+00	0	23	0	974127104	34	5552
2026-01-09 16:00:35.68	30.44	16.93	-30.1	-30.8	26.9	0.00e+00	0	23	0	980418560	34	5579
2026-01-09 16:00:36.68	30.53	17.03	-30.2	-30.8	26.8	0.00e+00	0	23	0	985661440	34	5604
2026-01-09 16:00:37.70	30.61	17.14	-30.4	-31.0	26.8	0.00e+00	0	23	0	990904320	34	5750
2026-01-09 16:00:38.71	30.70	17.25	-30.2	-30.9	26.9	0.00e+00	0	23	0	997195776	34	5636
2026-01-09 16:00:39.71	30.78	17.36	-30.2	-30.8	26.9	0.00e+00	0	23	0	1002438656	34	5605
2026-01-09 16:00:40.72	30.87	17.47	-30.2	-30.8	26.9	0.00e+00	0	23	0	1008730112	34	5580
2026-01-09 16:00:41.73	30.96	17.58	-30.0	-30.6	27.0	0.00e+00	0	23	0	1013972992	34	5501
2026-01-09 16:00:42.74	31.05	17.69	-30.0	-30.6	26.9	0.00e+00	0	23	0	1020264448	34	5486
2026-01-09 16:00:43.75	31.13	17.80	-29.9	-30.6	27.1	0.00e+00	0	23	0	1025507328	34	5462
2026-01-09 16:00:44.76	31.22	17.91	-29.7	-30.4	27.3	0.00e+00	0	23	0	1031798784	32	5966
2026-01-09 16:00:45.77	31.31	18.03	-29.8	-30.5	27.2	0.00e+00	0	23	0	1037041664	32	6047
2026-01-09 16:00:46.78	31.40	18.14	-29.7	-30.3	27.2	0.00e+00	0	23	0	1042284544	32	5959
2026-01-09 16:00:47.79	31.50	18.25	-29.7	-30.3	27.3	0.00e+00	0	23	0	1048576000	32	5950
2026-01-09 16:00:48.80	31.59	18.37	-29.7	-30.3	27.3	0.00e+00	0	23	0	1053818880	32	5956
2026-01-09 16:00:49.81	31.68	18.48	-29.7	-30.3	27.3	0.00e+00	0	23	0	1060110336	32	5952
2026-01-09 16:00:50.82	31.77	18.59	-29.8	-30.4	27.2	0.00e+00	0	23	0	1065353216	32	6018
2026-01-09 16:00:51.83	31.87	18.71	-29.9	-30.5	27.2	0.00e+00	0	23	0	1070596096	32	6065
2026-01-09 16:00:52.84	31.96	18.82	-29.9	-30.6	27.2	0.00e+00	0	23	0	1076887552	32	6104
2026-01-09 16:00:53.85	32.06	18.94	-29.9	-30.5	27.2	0.00e+00	0	23	0	1082130432	32	6067
2026-01-09 16:00:54.86	32.15	19.06	-29.9	-30.5	27.2	0.00e+00	0	23	0	1087373312	32	6099
2026-01-09 16:00:55.87	32.25	19.17	-29.9	-30.5	27.2	0.00e+00	0	23	0	1093664768	32	6060
2026-01-09 16:00:56.88	32.35	19.29	-29.7	-30.3	27.3	0.00e+00	0	23	0	1098907648	32	5942
2026-01-09 16:00:57.89	32.44	19.41	-29.9	-30.5	27.3	0.00e+00	0	23	0	1105199104	32	6064
2026-01-09 16:00:58.90	32.54	19.53	-29.6	-30.3	27.3	0.00e+00	0	23	0	1110441984	32	5924
2026-01-09 16:00:59.91	32.64	19.64	-29.5	-30.2	27.4	0.00e+00	0	23	0	1116733440	32	5837
2026-01-09 16:01:00.90	32.74	19.76	-29.5	-30.2	27.4	0.00e+00	0	23	0	1121976320	32	5850
2026-01-09 16:01:01.91	32.84	19.88	-29.5	-30.2	27.4	0.00e+00	0	23	0	1128267776	32	5841
2026-01-09 16:01:02.92	32.94	20.00	-29.5	-30.1	27.5	0.00e+00	0	23	0	1133510656	32	5824
2026-01-09 16:01:03.94	33.05	20.12	-29.8	-30.4	27.4	0.00e+00	0	23	0	1138753536	32	6013
2026-01-09 16:01:04.94	33.15	20.24	-29.6	-30.2	27.4	0.00e+00	0	23	0	1145044992	32	5870
2026-01-09 16:01:05.96	33.25	20.37	-29.5	-30.2	27.5	0.00e+00	0	23	0	1150287872	32	5845
2026-01-09 16:01:06.96	33.36	20.49	-29.5	-30.1	27.5	0.00e+00	0	23	0	1156579328	32	5815
2026-01-09 16:01:07.98	33.46	20.61	-29.5	-30.2	27.4	0.00e+00	0	23	0	1161822208	32	5829
2026-01-09 16:01:08.98	33.57	20.73	-29.6	-30.2	27.5	0.00e+00	0	23	0	1167065088	32	5856
2026-01-09 16:01:09.99	33.68	20.86	-29.5	-30.2	27.5	0.00e+00	0	23	0	1173356544	32	5852
2026-01-09 16:01:11.00	33.78	20.98	-29.5	-30.2	27.4	0.00e+00	0	23	0	1178599424	32	5852
2026-01-09 16:01:12.02	33.89	21.11	-29.4	-30.0	27.5	0.00e+00	0	23	0	1184890880	32	5755
2026-01-09 16:01:13.03	34.00	21.23	-29.5	-30.1	27.5	0.00e+00	0	23	0	1190133760	32	5816
2026-01-09 16:01:14.04	34.11	21.36	-29.4	-30.0	27.6	0.00e+00	0	23	0	1195376640	32	5758
2026-01-09 16:01:15.05	34.23	21.48	-29.4	-30.1	27.5	0.00e+00	0	23	0	1201668096	32	5784
2026-01-09 16:01:16.06	34.34	21.61	-29.4	-30.0	27.6	0.00e+00	0	23	0	1206910976	32	5748
2026-01-09 16:01:17.07	34.45	21.74	-29.3	-29.9	27.6	0.00e+00	0	23	0	1213202432	32	5671
2026-01-09 16:01:18.08	34.56	21.87	-29.3	-30.0	27.6	0.00e+00	0	23	0	1218445312	32	5717
2026-01-09 16:01:19.09	34.68	22.00	-29.0	-29.6	27.9	0.00e+00	0	23	0	1224736768	32	5487
2026-01-09 16:01:20.10	34.80	22.12	-29.0	-29.6	28.0	0.00e+00	0	23	0	1229979648	32	5491
2026-01-09 16:01:21.11	34.91	22.25	-29.1	-29.7	27.9	0.00e+00	0	23	0	1235222528	32	5527
2026-01-09 16:01:22.12	35.03	22.38	-29.1	-29.7	27.8	0.00e+00	0	23	0	1241513984	32	5515
2026-01-09 16:01:23.13	35.15	22.52	-29.2	-29.8	27.8	0.00e+00	0	23	0	1246756864	32	5596
2026-01-09 16:01:24.14	35.27	22.65	-29.1	-29.7	27.8	0.00e+00	0	23	0	1253048320	32	5550
2026-01-09 16:01:25.15	35.39	22.78	-29.0	-29.6	27.9	0.00e+00	0	23	0	1258291200	32	5492
2026-01-09 16:01:26.16	35.51	22.91	-29.0	-29.6	27.9	0.00e+00	0	23	0	1263534080	32	5501
2026-01-09 16:01:27.17	35.63	23.04	-28.9	-29.5	27.9	0.00e+00	0	23	0	1269825536	32	5420
2026-01-09 16:01:28.18	35.76	23.18	-29.0	-29.6	27.8	0.00e+00	0	23	0	1275068416	32	5476
2026-01-09 16:01:29.19	35.88	23.31	-28.8	-29.4	28.0	0.00e+00	0	23	0	1281359872	32	5368
2026-01-09 16:01:30.20	36.01	23.45	-28.8	-29.5	28.0	0.00e+00	0	23	0	1286602752	32	5391
2026-01-09 16:01:31.21	36.13	23.58	-28.9	-29.6	27.9	0.00e+00	0	23	0	1291845632	32	5446
2026-01-09 16:01:32.22	36.26	23.72	-29.0	-29.6	27.9	0.00e+00	0	23	0	1298137088	32	5478
2026-01-09 16:01:33.23	36.39	23.85	-28.8	-29.4	28.1	0.00e+00	0	23	0	1303379968	32	5361
2026-01-09 16:01:34.24	36.52	23.99	-28.9	-29.5	27.9	0.00e+00	0	23	0	1309671424	32	5420
2026-01-09 16:01:35.25	36.65	24.13	-28.9	-29.5	28.0	0.00e+00	0	23	0	1314914304	32	5415
2026-01-09 16:01:36.26	36.78	24.27	-28.7	-29.3	28.2	0.00e+00	0	23	0	1321205760	30	5919
2026-01-09 16:01:37.27	36.92	24.40	-28.6	-29.2	28.2	0.00e+00	0	23	0	1326448640	30	5889
2026-01-09 16:01:38.28	37.05	24.54	-28.6	-29.3	28.2	0.00e+00	0	23	0	1332740096	30	5898
2026-01-09 16:01:39.29	37.19	24.68	-28.5	-29.2	28.3	0.00e+00	0	23	0	1337982976	30	5831
2026-01-09 16:01:40.30	37.33	24.82	-28.5	-29.1	28.3	0.00e+00	0	23	0	1343225856	30	5827
2026-01-09 16:01:41.31	37.46	24.96	-28.7	-29.3	28.2	0.00e+00	0	23	0	1349517312	30	5952
2026-01-09 16:01:42.32	37.60	25.11	-28.6	-29.2	28.3	0.00e+00	0	23	0	1354760192	30	5858
2026-01-09 16:01:43.33	37.74	25.25	-28.7	-29.3	28.1	0.00e+00	0	23	0	1361051648	30	5917
2026-01-09 16:01:44.34	37.88	25.39	-28.6	-29.2	28.2	0.00e+00	0	23	0	1366294528	30	5895
2026-01-09 16:01:45.35	38.03	25.54	-28.7	-29.3	28.2	0.00e+00	0	23	0	1371537408	30	5943
2026-01-09 16:01:46.36	38.17	25.68	-28.6	-29.2	28.2	0.00e+00	0	23	0	1377828864	30	5865
2026-01-09 16:01:47.37	38.32	25.82	-28.7	-29.3	28.3	0.00e+00	0	23	0	1383071744	30	5918
2026-01-09 16:01:48.38	38.46	25.97	-28.6	-29.3	28.3	0.00e+00	0	23	0	1389363200	30	5905
2026-01-09 16:01:49.39	38.61	26.11	-28.7	-29.3	28.2	0.00e+00	0	23	0	1394606080	30	5945
2026-01-09 16:01:50.40	38.76	26.26	-28.6	-29.2	28.3	0.00e+00	0	23	0	1399848960	30	5875
2026-01-09 16:01:51.41	38.91	26.41	-28.4	-29.1	28.4	0.00e+00	0	23	0	1406140416	30	5767
2026-01-09 16:01:52.42	39.06	26.56	-28.6	-29.2	28.3	0.00e+00	0	23	0	1411383296	30	5832
2026-01-09 16:01:53.43	39.22	26.70	-28.4	-29.0	28.4	0.00e+00	0	23	0	1417674752	30	5697
2026-01-09 16:01:54.44	39.37	26.85	-28.5	-29.1	28.3	0.00e+00	0	23	0	1422917632	30	5797
2026-01-09 16:01:55.45	39.53	27.00	-28.4	-29.0	28.3	0.00e+00	0	23	0	1429209088	30	5714
2026-01-09 16:01:56.46	39.69	27.15	-28.5	-29.1	28.4	0.00e+00	0	23	0	1434451968	30	5791
2026-01-09 16:01:57.47	39.85	27.30	-28.4	-29.0	28.5	0.00e+00	0	23	0	1440743424	30	5724
2026-01-09 16:01:58.48	40.01	27.45	-28.2	-28.9	28.5	0.00e+00	0	23	0	1445986304	30	5633
2026-01-09 16:01:59.49	40.17	27.61	-28.2	-28.9	28.6	0.00e+00	0	23	0	1451229184	30	5638
2026-01-09 16:02:00.50	40.33	27.76	-28.4	-29.0	28.4	0.00e+00	0	23	0	1457520640	30	5707
2026-01-09 16:02:01.51	40.50	27.91	-28.4	-29.0	28.4	0.00e+00	0	23	0	1462763520	30	5704
2026-01-09 16:02:02.52	40.66	28.07	-28.5	-29.1	28.4	0.00e+00	0	23	0	1469054976	30	5795
2026-01-09 16:02:03.53	40.83	28.22	-28.4	-29.0	28.4	0.00e+00	0	23	0	1474297856	30	5735
2026-01-09 16:02:04.54	41.00	28.37	-28.5	-29.1	28.4	0.00e+00	0	23	0	1479540736	30	5790
2026-01-09 16:02:05.55	41.17	28.53	-28.4	-29.0	28.4	0.00e+00	0	23	0	1485832192	30	5745
2026-01-09 16:02:06.56	41.35	28.69	-28.4	-29.1	28.4	0.00e+00	0	23	0	1491075072	30	5774
2026-01-09 16:02:07.57	41.52	28.84	-28.3	-28.9	28.5	0.00e+00	0	23	0	1497366528	30	5683
2026-01-09 16:02:08.58	41.70	29.00	-28.4	-29.0	28.4	0.00e+00	0	23	0	1502609408	30	5727
2026-01-09 16:02:09.59	41.88	29.16	-28.5	-29.2	28.4	0.00e+00	0	23	0	1507852288	30	5829
2026-01-09 16:02:10.60	42.06	29.32	-28.6	-29.2	28.2	0.00e+00	0	23	0	1514143744	30	5877
2026-01-09 16:02:11.61	42.24	29.48	-28.4	-29.0	28.5	0.00e+00	0	23	0	1519386624	30	5755
2026-01-09 16:02:12.61	42.42	29.63	-28.5	-29.1	28.4	0.00e+00	0	23	0	1525678080	30	5796
2026-01-09 16:02:13.62	42.60	29.79	-28.5	-29.1	28.4	0.00e+00	0	23	0	1530920960	30	5797
2026-01-09 16:02:14.64	42.79	29.96	-28.3	-28.9	28.4	0.00e+00	0	23	0	1537212416	30	5677
2026-01-09 16:02:15.65	42.98	30.12	-28.6	-29.2	28.3	0.00e+00	0	23	0	1542455296	30	5845
2026-01-09 16:02:16.65	43.17	30.28	-28.6	-29.2	28.3	0.00e+00	0	23	0	1547698176	30	5871
2026-01-09 16:02:17.67	43.36	30.44	-28.3	-28.9	28.6	0.00e+00	0	23	0	1553989632	30	5695
2026-01-09 16:02:18.68	43.56	30.61	-28.4	-29.1	28.5	0.00e+00	0	23	0	1559232512	30	5768
2026-01-09 16:02:19.69	43.76	30.77	-28.5	-29.2	28.4	0.00e+00	0	23	0	1565523968	30	5837
2026-01-09 16:02:20.70	43.95	30.94	-28.3	-29.0	28.6	0.00e+00	0	23	0	1570766848	30	5702
2026-01-09 16:02:21.71	44.15	31.10	-28.3	-29.0	28.3	0.00e+00	0	23	0	1576009728	30	5711
2026-01-09 16:02:22.72	44.36	31.27	-28.4	-29.0	28.5	0.00e+00	0	23	0	1582301184	30	5699
2026-01-09 16:02:23.73	44.56	31.43	-28.3	-28.9	28.6	0.00e+00	0	23	0	1587544064	30	5671
2026-01-09 16:02:24.74	44.77	31.60	-28.3	-28.9	28.5	0.00e+00	0	23	0	1593835520	30	5668
2026-01-09 16:02:25.75	44.98	31.77	-28.0	-28.6	28.7	0.00e+00	0	23	0	1599078400	30	5481
2026-01-09 16:02:26.76	45.19	31.93	-28.1	-28.7	28.6	0.00e+00	0	23	0	1604321280	30	5542
2026-01-09 16:02:27.77	45.40	32.10	-28.1	-28.7	28.7	0.00e+00	0	23	0	1610612736	30	5522
2026-01-09 16:02:28.78	45.61	32.27	-28.2	-28.8	28.5	0.00e+00	0	23	0	1615855616	30	5626
2026-01-09 16:02:29.79	45.83	32.44	-28.1	-28.8	28.6	0.00e+00	0	23	0	1622147072	30	5568
2026-01-09 16:02:30.80	46.05	32.61	-28.3	-28.9	28.5	0.00e+00	0	23	0	1627389952	30	5653
2026-01-09 16:02:31.81	46.27	32.78	-28.3	-28.9	28.5	0.00e+00	0	23	0	1633681408	30	5643
2026-01-09 16:02:32.82	46.50	32.95	-28.3	-28.9	28.5	0.00e+00	0	23	0	1638924288	30	5693
2026-01-09 16:02:33.83	46.72	33.12	-28.3	-28.9	28.5	0.00e+00	0	23	0	1645215744	30	5682
2026-01-09 16:02:34.84	46.95	33.30	-28.3	-28.9	28.6	0.00e+00	0	23	0	1650458624	30	5657
2026-01-09 16:02:35.85	47.18	33.47	-28.1	-28.8	28.6	0.00e+00	0	23	0	1655701504	30	5577
2026-01-09 16:02:36.86	47.41	33.64	-28.1	-28.7	28.6	0.00e+00	0	23	0	1661992960	30	5525
2026-01-09 16:02:37.87	47.65	33.81	-28.2	-28.8	28.6	0.00e+00	0	23	0	1667235840	30	5617
2026-01-09 16:02:38.88	47.89	33.99	-28.0	-28.6	28.8	0.00e+00	0	23	0	1673527296	30	5481
2026-01-09 16:02:39.89	48.13	34.16	-28.1	-28.7	28.6	0.00e+00	0	23	0	1678770176	30	5552
2026-01-09 16:02:40.90	48.37	34.34	-28.2	-28.7	28.6	0.00e+00	0	23	0	1684013056	30	5566
2026-01-09 16:02:41.91	48.62	34.51	-28.3	-28.9	28.5	0.00e+00	0	23	0	1690304512	30	5686
2026-01-09 16:02:42.92	48.87	34.69	-28.2	-28.9	28.4	0.00e+00	0	23	0	1695547392	30	5640
2026-01-09 16:02:43.93	49.12	34.86	-28.3	-29.0	28.5	0.00e+00	0	23	0	1701838848	30	5705
2026-01-09 16:02:44.94	49.37	35.04	-28.4	-29.0	28.4	0.00e+00	0	23	0	1707081728	30	5736
2026-01-09 16:02:45.96	49.63	35.22	-28.3	-29.0	28.4	0.00e+00	0	23	0	1712324608	30	5715
2026-01-09 16:02:46.97	49.89	35.40	-28.3	-28.9	28.6	0.00e+00	0	23	0	1718616064	30	5650
2026-01-09 16:02:47.98	50.15	35.57	-27.9	-28.6	28.8	0.00e+00	0	23	0	1723858944	30	5444
2026-01-09 16:02:48.99	50.42	35.75	-27.8	-28.4	28.9	0.00e+00	0	23	0	1730150400	30	5330
2026-01-09 16:02:50.00	50.69	35.93	-27.9	-28.5	28.8	0.00e+00	0	23	0	1735393280	30	5415
2026-01-09 16:02:51.01	50.96	36.11	-27.8	-28.4	28.9	0.00e+00	0	23	0	1741684736	30	5334
2026-01-09 16:02:52.02	51.23	36.29	-28.0	-28.6	28.7	0.00e+00	0	23	0	1746927616	30	5442
2026-01-09 16:02:53.03	51.51	36.46	-28.0	-28.6	28.8	0.00e+00	0	23	0	1753219072	30	5481
2026-01-09 16:02:54.04	51.79	36.64	-28.1	-28.7	28.7	0.00e+00	0	23	0	1758461952	30	5528
2026-01-09 16:02:55.05	52.07	36.82	-28.1	-28.7	28.6	0.00e+00	0	23	0	1763704832	30	5563
2026-01-09 16:02:56.06	52.36	37.00	-28.0	-28.6	28.8	0.00e+00	0	23	0	1769996288	30	5492
2026-01-09 16:02:57.07	52.64	37.18	-28.0	-28.7	28.7	0.00e+00	0	23	0	1775239168	30	5517
2026-01-09 16:02:58.08	52.94	37.36	-27.9	-28.5	28.8	0.00e+00	0	23	0	1781530624	30	5385
2026-01-09 16:02:59.09	53.23	37.54	-27.7	-28.3	29.0	0.00e+00	0	23	0	1786773504	28	5911
2026-01-09 16:03:00.10	53.53	37.72	-27.6	-28.2	29.1	0.00e+00	0	23	0	1792016384	28	5861
2026-01-09 16:03:01.11	53.83	37.90	-27.8	-28.4	28.9	0.00e+00	0	23	0	1798307840	28	6030
2026-01-09 16:03:02.12	54.14	38.08	-27.9	-28.6	28.8	0.00e+00	0	23	0	1803550720	28	6109
2026-01-09 16:03:03.13	54.45	38.27	-28.1	-28.7	28.7	0.00e+00	0	23	0	1809842176	28	6182
2026-01-09 16:03:04.14	54.76	38.45	-28.2	-28.8	28.5	0.00e+00	0	23	0	1815085056	28	6282
2026-01-09 16:03:05.14	55.07	38.63	-27.8	-28.4	28.9	0.00e+00	0	23	0	1820327936	28	5968
2026-01-09 16:03:06.16	55.39	38.81	-27.8	-28.4	28.9	0.00e+00	0	23	0	1826619392	28	5994
2026-01-09 16:03:07.17	55.71	38.99	-27.7	-28.3	28.8	0.00e+00	0	23	0	1831862272	28	5953
2026-01-09 16:03:08.18	56.04	39.17	-27.7	-28.3	29.0	0.00e+00	0	23	0	1838153728	28	5923
2026-01-09 16:03:09.19	56.37	39.35	-27.5	-28.1	28.9	0.00e+00	0	23	0	1843396608	28	5801
2026-01-09 16:03:10.20	56.70	39.53	-27.6	-28.2	29.0	0.00e+00	0	23	0	1849688064	28	5865
2026-01-09 16:03:11.21	57.04	39.71	-28.0	-28.6	28.8	0.00e+00	0	23	0	1854930944	28	6127
2026-01-09 16:03:12.22	57.38	39.89	-28.2	-28.9	28.6	0.00e+00	0	23	0	1861222400	28	6331
2026-01-09 16:03:13.23	57.72	40.07	-28.4	-29.1	28.4	0.00e+00	0	23	0	1866465280	28	6522
2026-01-09 16:03:14.24	58.07	40.25	-28.1	-28.8	28.6	0.00e+00	0	23	0	1871708160	28	6262
2026-01-09 16:03:15.25	58.42	40.43	-28.2	-28.7	28.7	0.00e+00	0	23	0	1877999616	28	6243
2026-01-09 16:03:16.26	58.78	40.61	-28.0	-28.7	28.8	0.00e+00	0	23	0	1883242496	28	6185
2026-01-09 16:03:17.27	59.14	40.79	-27.9	-28.5	28.8	0.00e+00	0	23	0	1889533952	28	6092
2026-01-09 16:03:18.28	59.50	40.97	-28.1	-28.7	28.8	0.00e+00	0	23	0	1894776832	28	6187
2026-01-09 16:03:19.29	59.87	41.15	-28.2	-28.8	28.6	0.00e+00	0	23	0	1900019712	28	6268
2026-01-09 16:03:20.29	60.24	41.32	-28.3	-28.9	28.5	0.00e+00	0	23	0	1906311168	28	6381
2026-01-09 16:03:21.31	60.62	41.50	-28.5	-29.2	28.4	0.00e+00	0	23	0	1911554048	28	6565
2026-01-09 16:03:22.31	60.99	41.68	-28.1	-28.7	28.6	0.00e+00	0	23	0	1917845504	28	6198
2026-01-09 16:03:23.32	61.38	41.85	-28.0	-28.6	28.8	0.00e+00	0	23	0	1923088384	28	6172
2026-01-09 16:03:24.33	61.76	42.03	-27.9	-28.5	28.7	0.00e+00	0	23	0	1928331264	28	6073
2026-01-09 16:03:25.34	62.16	42.20	-27.8	-28.4	28.9	0.00e+00	0	23	0	1934622720	28	5987
2026-01-09 16:03:26.35	62.55	42.38	-27.9	-28.4	28.8	0.00e+00	0	23	0	1939865600	28	6024
2026-01-09 16:03:27.36	62.95	42.55	-27.9	-28.5	28.7	0.00e+00	0	23	0	1946157056	28	6063
2026-01-09 16:03:28.37	63.36	42.73	-28.1	-28.7	28.6	0.00e+00	0	23	0	1951399936	28	6177
2026-01-09 16:03:29.38	63.77	42.90	-28.2	-28.8	28.4	0.00e+00	0	23	0	1957691392	28	6267
2026-01-09 16:03:30.39	64.18	43.07	-28.0	-28.7	28.7	0.00e+00	0	23	0	1962934272	28	6189
2026-01-09 16:03:31.40	64.60	43.24	-28.3	-28.9	28.6	0.00e+00	0	23	0	1968177152	28	6333
2026-01-09 16:03:32.41	65.02	43.41	-28.0	-28.6	28.8	0.00e+00	0	23	0	1974468608	28	6143
2026-01-09 16:03:33.42	65.45	43.58	-28.2	-28.8	28.6	0.00e+00	0	23	0	1979711488	28	6280
2026-01-09 16:03:34.43	65.88	43.75	-28.0	-28.6	28.7	0.00e+00	0	23	0	1986002944	28	6128
2026-01-09 16:03:35.44	66.32	43.91	-28.3	-28.9	28.6	0.00e+00	0	23	0	1991245824	28	6322
2026-01-09 16:03:36.45	66.76	44.08	-28.2	-28.9	28.6	0.00e+00	0	23	0	1996488704	28	6327
2026-01-09 16:03:37.46	67.20	44.24	-28.3	-29.0	28.5	0.00e+00	0	23	0	2002780160	28	6412
2026-01-09 16:03:38.47	67.65	44.41	-28.3	-28.9	28.5	0.00e+00	0	23	0	2008023040	28	6377
2026-01-09 16:03:39.48	68.11	44.57	-28.2	-28.8	28.6	0.00e+00	0	23	0	2014314496	28	6283
2026-01-09 16:03:40.49	68.56	44.73	-28.3	-28.9	28.6	0.00e+00	0	23	0	2019557376	28	6388
2026-01-09 16:03:41.50	69.03	44.89	-28.3	-28.9	28.5	0.00e+00	0	23	0	2024800256	28	6348
2026-01-09 16:03:42.51	69.50	45.05	-28.5	-29.1	28.5	0.00e+00	0	23	0	2031091712	28	6498
2026-01-09 16:03:43.52	69.97	45.20	-28.7	-29.3	28.2	0.00e+00	0	23	0	2036334592	28	6690
2026-01-09 16:03:44.53	70.44	45.36	-28.9	-29.5	28.1	0.00e+00	0	23	0	2042626048	30	6071
2026-01-09 16:03:45.54	70.93	45.51	-28.6	-29.2	28.4	0.00e+00	0	23	0	2047868928	30	5849
2026-01-09 16:03:46.55	71.41	45.67	-28.3	-28.9	28.6	0.00e+00	0	23	0	2054160384	30	5683
2026-01-09 16:03:47.56	71.90	45.82	-28.4	-29.0	28.5	0.00e+00	0	23	0	2059403264	30	5709
2026-01-09 16:03:48.57	72.40	45.96	-28.5	-29.1	28.4	0.00e+00	0	23	0	2065694720	30	5784
2026-01-09 16:03:49.59	72.91	46.11	-28.3	-28.9	28.6	0.00e+00	0	23	0	2070937600	30	5656
2026-01-09 16:03:50.60	73.41	46.26	-28.0	-28.7	28.7	0.00e+00	0	23	0	2076180480	30	5503
2026-01-09 16:03:51.61	73.92	46.40	-28.0	-28.7	28.8	0.00e+00	0	23	0	2082471936	30	5505
2026-01-09 16:03:52.62	74.43	46.54	-28.0	-28.6	28.8	0.00e+00	0	23	0	2087714816	30	5477
2026-01-09 16:03:53.63	74.95	46.68	-28.4	-29.0	28.5	0.00e+00	0	23	0	2094006272	30	5721
2026-01-09 16:03:54.63	75.47	46.82	-28.6	-29.2	28.3	0.00e+00	0	23	0	2099249152	30	5879
2026-01-09 16:03:55.64	76.00	46.95	-28.4	-29.0	28.5	0.00e+00	0	23	0	2104492032	30	5736
2026-01-09 16:03:56.65	76.53	47.08	-28.4	-29.0	28.5	0.00e+00	0	23	0	2110783488	30	5743
2026-01-09 16:03:57.66	77.07	47.21	-28.4	-29.1	28.5	0.00e+00	0	23	0	2116026368	30	5771
2026-01-09 16:03:58.67	77.61	47.34	-28.3	-28.8	28.6	0.00e+00	0	23	0	2122317824	30	5611
2026-01-09 16:03:59.68	78.15	47.47	-27.9	-28.5	28.9	0.00e+00	0	23	0	2127560704	30	5408
2026-01-09 16:04:00.69	78.70	47.59	-28.1	-28.7	28.7	0.00e+00	0	23	0	2132803584	30	5534
2026-01-09 16:04:01.70	79.26	47.71	-28.2	-28.8	28.6	0.00e+00	0	23	0	2139095040	30	5581
2026-01-09 16:04:02.71	79.82	47.83	-28.2	-28.8	28.7	0.00e+00	0	23	0	2144337920	30	5612
2026-01-09 16:04:03.72	80.38	47.95	-28.2	-28.8	28.7	0.00e+00	0	23	0	2150629376	30	5616
2026-01-09 16:04:04.74	80.95	48.06	-28.3	-28.9	28.6	0.00e+00	0	23	0	2155872256	30	5671
2026-01-09 16:04:05.75	81.52	48.17	-28.3	-28.9	28.6	0.00e+00	0	23	0	2162163712	30	5655
2026-01-09 16:04:06.76	82.10	48.28	-28.4	-29.1	28.6	0.00e+00	0	23	0	2167406592	30	5775
2026-01-09 16:04:07.77	82.68	48.38	-28.6	-29.3	28.2	0.00e+00	0	23	0	2173698048	30	5908
2026-01-09 16:04:08.78	83.26	48.48	-28.7	-29.4	28.3	0.00e+00	0	23	0	2178940928	30	5976
2026-01-09 16:04:09.79	83.85	48.58	-28.4	-29.0	28.5	0.00e+00	0	23	0	2184183808	30	5745
2026-01-09 16:04:10.80	84.44	48.68	-28.4	-29.0	28.5	0.00e+00	0	23	0	2190475264	30	5728
2026-01-09 16:04:11.81	85.03	48.77	-28.4	-29.0	28.6	0.00e+00	0	23	0	2195718144	30	5739
2026-01-09 16:04:12.82	85.63	48.86	-28.3	-29.0	28.5	0.00e+00	0	23	0	2202009600	30	5726
2026-01-09 16:04:13.83	86.23	48.95	-28.6	-29.2	28.3	0.00e+00	0	23	0	2207252480	30	5875
2026-01-09 16:04:14.83	86.83	49.03	-28.4	-29.0	28.5	0.00e+00	0	23	0	2212495360	30	5752
2026-01-09 16:04:15.84	87.44	49.11	-28.5	-29.0	28.5	0.00e+00	0	23	0	2218786816	30	5760
2026-01-09 16:04:16.85	88.05	49.19	-28.1	-28.7	28.7	0.00e+00	0	23	0	2224029696	30	5524
2026-01-09 16:04:17.86	88.66	49.26	-28.3	-28.9	28.5	0.00e+00	0	23	0	2230321152	30	5663
2026-01-09 16:04:18.87	89.28	49.33	-28.4	-29.0	28.4	0.00e+00	0	23	0	2235564032	30	5733
2026-01-09 16:04:19.88	89.90	49.40	-28.3	-29.0	28.5	0.00e+00	0	23	0	2240806912	30	5700
2026-01-09 16:04:20.89	90.52	49.47	-28.4	-29.0	28.5	0.00e+00	0	23	0	2247098368	30	5745
2026-01-09 16:04:21.90	91.14	49.53	-28.1	-28.7	28.7	0.00e+00	0	23	0	2252341248	30	5519
2026-01-09 16:04:22.91	91.77	49.58	-28.3	-28.9	28.7	0.00e+00	0	23	0	2258632704	30	5635
2026-01-09 16:04:23.92	92.40	49.64	-28.6	-29.2	28.4	0.00e+00	0	23	0	2263875584	30	5865
2026-01-09 16:04:24.93	93.03	49.69	-28.6	-29.2	28.3	0.00e+00	0	23	0	2270167040	30	5868
2026-01-09 16:04:25.94	93.66	49.73	-28.5	-29.0	28.3	0.00e+00	0	23	0	2275409920	30	5751
2026-01-09 16:04:26.95	94.30	49.78	-28.6	-29.2	28.4	0.00e+00	0	23	0	2280652800	30	5873
2026-01-09 16:04:27.96	94.94	49.81	-28.6	-29.2	28.3	0.00e+00	0	23	0	2286944256	30	5850
2026-01-09 16:04:28.97	95.57	49.85	-28.7	-29.3	28.2	0.00e+00	0	23	0	2292187136	30	5926
2026-01-09 16:04:29.98	96.21	49.88	-28.2	-28.8	28.6	0.00e+00	0	23	0	2298478592	30	5630
2026-01-09 16:04:30.99	96.85	49.91	-28.3	-28.9	28.6	0.00e+00	0	23	0	2303721472	30	5646
2026-01-09 16:04:32.00	97.50	49.93	-28.3	-28.9	28.6	0.00e+00	0	23	0	2308964352	30	5647
2026-01-09 16:04:33.01	98.14	49.95	-28.4	-29.1	28.5	0.00e+00	0	23	0	2315255808	30	5796
2026-01-09 16:04:34.02	98.78	49.97	-28.8	-29.5	28.2	0.00e+00	0	23	0	2320498688	30	6036
2026-01-09 16:04:35.03	99.43	49.98	-28.8	-29.4	28.3	0.00e+00	0	23	0	2326790144	30	5993
2026-01-09 16:04:36.04	100.07	49.99	-28.6	-29.2	28.3	0.00e+00	0	23	0	2332033024	30	5854
2026-01-09 16:04:37.05	100.72	50.00	-28.3	-28.8	28.6	0.00e+00	0	23	0	2337275904	30	5622
2026-01-09 16:04:38.06	101.36	50.00	-28.5	-29.2	28.4	0.00e+00	0	23	0	2343567360	30	5851
2026-01-09 16:04:39.07	102.01	50.00	-28.6	-29.2	28.3	0.00e+00	0	23	0	2348810240	30	5868
2026-01-09 16:04:40.08	102.65	49.99	-28.5	-29.1	28.5	0.00e+00	0	23	0	2355101696	30	5767
2026-01-09 16:04:41.10	103.31	49.98	-28.5	-29.1	28.4	0.00e+00	0	23	0	2360344576	30	5799
2026-01-09 16:04:42.10	103.94	49.97	-28.3	-29.0	28.6	0.00e+00	0	23	0	2366636032	30	5704
2026-01-09 16:04:43.11	104.59	49.95	-28.2	-28.8	28.5	0.00e+00	0	23	0	2371878912	30	5595
2026-01-09 16:04:44.12	105.23	49.93	-28.3	-28.9	28.4	0.00e+00	0	23	0	2378170368	30	5689
2026-01-09 16:04:45.13	105.87	49.90	-28.6	-29.2	28.0	0.00e+00	0	23	0	2383413248	30	5842
2026-01-09 16:04:46.14	106.51	49.88	-28.5	-29.2	28.0	0.00e+00	0	23	0	2388656128	30	5876
2026-01-09 16:04:47.16	107.16	49.84	-28.6	-29.2	28.2	0.00e+00	0	23	0	2394947584	30	5836
2026-01-09 16:04:48.16	107.79	49.81	-28.4	-29.0	28.3	0.00e+00	0	23	0	2400190464	30	5737
2026-01-09 16:04:49.18	108.44	49.77	-28.2	-28.8	28.6	0.00e+00	0	23	0	2406481920	30	5596
2026-01-09 16:04:50.19	109.07	49.72	-28.3	-28.8	28.6	0.00e+00	0	23	0	2411724800	30	5623
2026-01-09 16:04:51.20	109.70	49.68	-28.4	-29.1	28.4	0.00e+00	0	23	0	2416967680	30	5768
2026-01-09 16:04:52.21	110.34	49.63	-28.4	-29.0	28.5	0.00e+00	0	23	0	2423259136	30	5731
2026-01-09 16:04:53.22	110.96	49.57	-28.5	-29.1	28.5	0.00e+00	0	23	0	2428502016	30	5773
2026-01-09 16:04:54.23	111.59	49.51	-28.5	-29.2	28.4	0.00e+00	0	23	0	2434793472	30	5841
2026-01-09 16:04:55.24	112.22	49.45	-28.5	-29.1	28.4	0.00e+00	0	23	0	2440036352	30	5809
2026-01-09 16:04:56.25	112.84	49.39	-28.2	-28.8	28.7	0.00e+00	0	23	0	2445279232	30	5622
2026-01-09 16:04:57.25	113.45	49.32	-28.1	-28.8	28.7	0.00e+00	0	23	0	2451570688	30	5580
2026-01-09 16:04:58.26	114.07	49.25	-28.1	-28.7	28.7	0.00e+00	0	23	0	2456813568	30	5524
2026-01-09 16:04:59.27	114.68	49.18	-28.2	-28.8	28.6	0.00e+00	0	23	0	2463105024	30	5573
2026-01-09 16:05:00.28	115.29	49.10	-28.1	-28.8	28.6	0.00e+00	0	23	0	2468347904	30	5574
2026-01-09 16:05:01.29	115.90	49.02	-28.1	-28.7	28.6	0.00e+00	0	23	0	2474639360	30	5561
2026-01-09 16:05:02.30	116.50	48.93	-28.3	-28.9	28.5	0.00e+00	0	23	0	2479882240	30	5644
2026-01-09 16:05:03.31	117.11	48.84	-28.7	-29.3	28.3	0.00e+00	0	23	0	2485125120	30	5907
2026-01-09 16:05:04.32	117.70	48.75	-28.9	-29.6	28.2	0.00e+00	0	23	0	2491416576	30	6112
2026-01-09 16:05:05.33	118.30	48.66	-28.6	-29.2	28.3	0.00e+00	0	23	0	2496659456	30	5866
2026-01-09 16:05:06.34	118.89	48.56	-28.3	-28.9	28.5	0.00e+00	0	23	0	2502950912	30	5686
2026-01-09 16:05:07.35	119.47	48.46	-28.3	-28.9	28.6	0.00e+00	0	23	0	2508193792	30	5691
2026-01-09 16:05:08.36	120.06	48.36	-28.4	-28.9	28.5	0.00e+00	0	23	0	2514485248	30	5676
2026-01-09 16:05:09.37	120.64	48.25	-28.6	-29.3	28.3	0.00e+00	0	23	0	2519728128	30	5905
2026-01-09 16:05:10.39	121.22	48.14	-28.8	-29.4	28.1	0.00e+00	0	23	0	2524971008	30	6023
2026-01-09 16:05:11.40	121.79	48.03	-28.5	-29.1	28.5	0.00e+00	0	23	0	2531262464	30	5786
2026-01-09 16:05:12.40	122.35	47.92	-28.3	-28.8	28.6	0.00e+00	0	23	0	2536505344	30	5610
2026-01-09 16:05:13.41	122.91	47.80	-28.2	-28.8	28.5	0.00e+00	0	23	0	2542796800	30	5585
2026-01-09 16:05:14.43	123.48	47.68	-28.5	-29.1	28.4	0.00e+00	0	23	0	2548039680	30	5822
2026-01-09 16:05:15.43	124.03	47.56	-28.7	-29.3	28.2	0.00e+00	0	23	0	2553282560	30	5928
2026-01-09 16:05:16.44	124.58	47.44	-28.8	-29.5	28.2	0.00e+00	0	23	0	2559574016	30	6096
2026-01-09 16:05:17.45	125.12	47.31	-28.5	-29.2	28.5	0.00e+00	0	23	0	2564816896	30	5863
2026-01-09 16:05:18.46	125.66	47.18	-28.3	-28.9	28.7	0.00e+00	0	23	0	2571108352	30	5660
2026-01-09 16:05:19.47	126.20	47.05	-28.0	-28.7	28.8	0.00e+00	0	23	0	2576351232	30	5510
2026-01-09 16:05:20.48	126.73	46.92	-28.1	-28.8	28.8	0.00e+00	0	23	0	2582642688	30	5588
2026-01-09 16:05:21.49	127.26	46.78	-28.2	-28.8	28.7	0.00e+00	0	23	0	2587885568	30	5608
2026-01-09 16:05:22.50	127.78	46.65	-28.2	-28.9	28.6	0.00e+00	0	23	0	2593128448	30	5646
2026-01-09 16:05:23.51	128.30	46.51	-28.2	-28.8	28.6	0.00e+00	0	23	0	2599419904	30	5608
2026-01-09 16:05:24.52	128.82	46.36	-28.5	-29.0	28.4	0.00e+00	0	23	0	2604662784	30	5748
2026-01-09 16:05:25.53	129.33	46.22	-28.6	-29.2	28.4	0.00e+00	0	23	0	2610954240	30	5855
2026-01-09 16:05:26.54	129.83	46.07	-28.5	-29.1	28.5	0.00e+00	0	23	0	2616197120	30	5778
2026-01-09 16:05:27.55	130.33	45.93	-28.5	-29.1	28.4	0.00e+00	0	23	0	2621440000	30	5807
2026-01-09 16:05:28.56	130.83	45.78	-28.6	-29.1	28.3	0.00e+00	0	23	0	2627731456	30	5821
2026-01-09 16:05:29.57	131.32	45.63	-28.6	-29.2	28.4	0.00e+00	0	23	0	2632974336	30	5888
2026-01-09 16:05:30.58	131.80	45.47	-28.5	-29.1	28.4	0.00e+00	0	23	0	2639265792	30	5778
2026-01-09 16:05:31.59	132.29	45.32	-28.3	-28.9	28.6	0.00e+00	0	23	0	2644508672	30	5667
2026-01-09 16:05:32.60	132.76	45.16	-28.1	-28.7	28.6	0.00e+00	0	23	0	2649751552	30	5508
2026-01-09 16:05:33.61	133.24	45.01	-28.1	-28.7	28.7	0.00e+00	0	23	0	2656043008	30	5523
2026-01-09 16:05:34.62	133.70	44.85	-28.3	-28.9	28.5	0.00e+00	0	23	0	2661285888	30	5660
2026-01-09 16:05:35.63	134.17	44.69	-28.5	-29.1	28.4	0.00e+00	0	23	0	2667577344	30	5791
2026-01-09 16:05:36.64	134.63	44.52	-28.6	-29.2	28.4	0.00e+00	0	23	0	2672820224	30	5829
2026-01-09 16:05:37.65	135.08	44.36	-28.6	-29.2	28.4	0.00e+00	0	23	0	2679111680	30	5875
2026-01-09 16:05:38.66	135.53	44.20	-28.4	-29.0	28.4	0.00e+00	0	23	0	2684354560	30	5736
2026-01-09 16:05:39.67	135.98	44.03	-28.6	-29.1	28.4	0.00e+00	0	23	0	2690646016	30	5804
2026-01-09 16:05:40.68	136.42	43.86	-28.6	-29.2	28.3	0.00e+00	0	23	0	2695888896	30	5844
2026-01-09 16:05:41.68	136.85	43.70	-28.6	-29.1	28.3	0.00e+00	0	23	0	2701131776	30	5808
2026-01-09 16:05:42.70	137.28	43.53	-28.5	-29.1	28.4	0.00e+00	0	23	0	2707423232	30	5803
2026-01-09 16:05:43.71	137.71	43.36	-28.8	-29.5	28.2	0.00e+00	0	23	0	2712666112	30	6055
2026-01-09 16:05:44.72	138.13	43.19	-28.6	-29.3	28.3	0.00e+00	0	23	0	2718957568	30	5929
2026-01-09 16:05:45.73	138.55	43.02	-28.4	-28.9	28.5	0.00e+00	0	23	0	2724200448	30	5677
2026-01-09 16:05:46.74	138.96	42.84	-28.3	-28.8	28.6	0.00e+00	0	23	0	2729443328	30	5605
2026-01-09 16:05:47.75	139.37	42.67	-28.3	-29.0	28.6	0.00e+00	0	23	0	2735734784	30	5718
2026-01-09 16:05:48.76	139.78	42.50	-28.5	-29.0	28.4	0.00e+00	0	23	0	2740977664	30	5736
2026-01-09 16:05:49.77	140.18	42.32	-28.8	-29.4	28.3	0.00e+00	0	23	0	2747269120	30	6006
2026-01-09 16:05:50.78	140.58	42.15	-28.7	-29.4	28.3	0.00e+00	0	23	0	2752512000	30	5993
2026-01-09 16:05:51.79	140.97	41.97	-28.6	-29.3	28.2	0.00e+00	0	23	0	2757754880	30	5915
2026-01-09 16:05:52.80	141.36	41.79	-28.2	-28.7	28.7	0.00e+00	0	23	0	2764046336	30	5556
2026-01-09 16:05:53.81	141.74	41.62	-28.0	-28.5	28.9	0.00e+00	0	23	0	2769289216	30	5429
2026-01-09 16:05:54.82	142.12	41.44	-28.0	-28.7	28.7	0.00e+00	0	23	0	2775580672	30	5543
2026-01-09 16:05:55.82	142.49	41.26	-28.1	-28.7	28.7	0.00e+00	0	23	0	2780823552	30	5522
2026-01-09 16:05:56.83	142.86	41.08	-28.3	-28.8	28.4	0.00e+00	0	23	0	2787115008	30	5625
2026-01-09 16:05:57.85	143.23	40.90	-28.3	-28.9	28.5	0.00e+00	0	23	0	2792357888	30	5646
2026-01-09 16:05:58.85	143.59	40.72	-28.3	-28.8	28.5	0.00e+00	0	23	0	2797600768	30	5627
2026-01-09 16:05:59.87	143.96	40.54	-27.8	-28.5	28.9	0.00e+00	0	23	0	2803892224	30	5392
2026-01-09 16:06:00.88	144.31	40.36	-27.7	-28.2	28.9	0.00e+00	0	23	0	2809135104	28	5856
2026-01-09 16:06:01.89	144.66	40.18	-27.6	-28.2	29.0	0.00e+00	0	23	0	2815426560	28	5837
2026-01-09 16:06:02.90	145.01	40.00	-27.8	-28.3	28.8	0.00e+00	0	23	0	2820669440	28	5952
2026-01-09 16:06:03.91	145.36	39.82	-27.9	-28.6	28.7	0.00e+00	0	23	0	2825912320	28	6108
2026-01-09 16:06:04.91	145.69	39.64	-28.0	-28.7	28.6	0.00e+00	0	23	0	2832203776	28	6207
2026-01-09 16:06:05.93	146.03	39.46	-27.9	-28.5	28.9	0.00e+00	0	23	0	2837446656	28	6084
2026-01-09 16:06:06.94	146.37	39.28	-27.6	-28.2	29.0	0.00e+00	0	23	0	2843738112	28	5835
2026-01-09 16:06:07.95	146.70	39.09	-27.8	-28.4	28.9	0.00e+00	0	23	0	2848980992	28	5965
2026-01-09 16:06:08.95	147.02	38.91	-27.8	-28.5	28.6	0.00e+00	0	23	0	2854223872	28	6080
2026-01-09 16:06:09.96	147.34	38.73	-28.0	-28.5	28.6	0.00e+00	0	23	0	2860515328	28	6080
2026-01-09 16:06:10.98	147.66	38.55	-28.0	-28.5	28.5	0.00e+00	0	23	0	2865758208	28	6080
2026-01-09 16:06:11.99	147.98	38.37	-28.1	-28.8	28.6	0.00e+00	0	23	0	2872049664	28	6251
2026-01-09 16:06:13.00	148.29	38.19	-27.9	-28.5	28.6	0.00e+00	0	23	0	2877292544	28	6055
2026-01-09 16:06:14.01	148.60	38.00	-27.8	-28.5	28.6	0.00e+00	0	23	0	2883584000	28	6039
2026-01-09 16:06:15.02	148.90	37.82	-27.8	-28.5	28.7	0.00e+00	0	23	0	2888826880	28	6050
2026-01-09 16:06:16.03	149.20	37.64	-27.6	-28.2	28.8	0.00e+00	0	23	0	2895118336	28	5832
2026-01-09 16:06:17.04	149.50	37.46	-27.6	-28.2	28.9	0.00e+00	0	23	0	2900361216	28	5858
2026-01-09 16:06:18.05	149.80	37.28	-27.6	-28.3	28.6	0.00e+00	0	23	0	2905604096	28	5931
2026-01-09 16:06:19.06	150.09	37.10	-27.8	-28.5	28.7	0.00e+00	0	23	0	2911895552	28	6039
2026-01-09 16:06:20.07	150.38	36.92	-27.8	-28.5	28.8	0.00e+00	0	23	0	2917138432	28	6088
2026-01-09 16:06:21.08	150.66	36.74	-27.9	-28.6	28.7	0.00e+00	0	23	0	2923429888	28	6125
2026-01-09 16:06:22.09	150.95	36.56	-28.0	-28.7	28.7	0.00e+00	0	23	0	2928672768	28	6188
2026-01-09 16:06:23.10	151.23	36.38	-28.1	-28.6	28.6	0.00e+00	0	23	0	2933915648	28	6168
2026-01-09 16:06:24.11	151.50	36.20	-28.2	-28.8	28.6	0.00e+00	0	23	0	2940207104	28	6260
2026-01-09 16:06:25.12	151.78	36.02	-27.8	-28.3	28.9	0.00e+00	0	23	0	2945449984	28	5963
2026-01-09 16:06:26.13	152.05	35.84	-27.7	-28.3	28.8	0.00e+00	0	23	0	2951741440	28	5912
2026-01-09 16:06:27.14	152.31	35.66	-27.7	-28.2	28.8	0.00e+00	0	23	0	2956984320	28	5881
2026-01-09 16:06:28.15	152.58	35.48	-27.6	-28.3	28.9	0.00e+00	0	23	0	2962227200	28	5933
2026-01-09 16:06:29.16	152.84	35.30	-27.7	-28.4	29.0	0.00e+00	0	23	0	2968518656	28	6000
2026-01-09 16:06:30.17	153.10	35.12	-27.7	-28.2	28.9	0.00e+00	0	23	0	2973761536	28	5870
2026-01-09 16:06:31.18	153.36	34.95	-27.9	-28.6	28.7	0.00e+00	0	23	0	2980052992	28	6141
2026-01-09 16:06:32.19	153.61	34.77	-27.9	-28.6	28.8	0.00e+00	0	23	0	2985295872	28	6110
2026-01-09 16:06:33.20	153.86	34.59	-28.1	-28.7	28.6	0.00e+00	0	23	0	2990538752	28	6212
2026-01-09 16:06:34.21	154.11	34.42	-27.9	-28.5	28.8	0.00e+00	0	23	0	2996830208	28	6034
2026-01-09 16:06:35.22	154.36	34.24	-27.8	-28.4	28.9	0.00e+00	0	23	0	3002073088	28	5969
2026-01-09 16:06:36.23	154.60	34.06	-27.8	-28.5	28.9	0.00e+00	0	23	0	3008364544	28	6036
2026-01-09 16:06:37.24	154.84	33.89	-27.8	-28.3	28.8	0.00e+00	0	23	0	3013607424	28	5947
2026-01-09 16:06:38.25	155.08	33.71	-27.9	-28.4	28.8	0.00e+00	0	23	0	3019898880	28	5993
2026-01-09 16:06:39.26	155.31	33.54	-28.0	-28.6	28.8	0.00e+00	0	23	0	3025141760	28	6141
2026-01-09 16:06:40.27	155.55	33.37	-28.1	-28.8	28.7	0.00e+00	0	23	0	3031433216	28	6267
2026-01-09 16:06:41.28	155.78	33.19	-28.0	-28.5	28.8	0.00e+00	0	23	0	3036676096	28	6084
2026-01-09 16:06:42.29	156.01	33.02	-28.1	-28.7	28.6	0.00e+00	0	23	0	3041918976	28	6186
2026-01-09 16:06:43.30	156.23	32.85	-28.0	-28.7	28.8	0.00e+00	0	23	0	3048210432	28	6179
2026-01-09 16:06:44.31	156.46	32.68	-27.9	-28.6	28.8	0.00e+00	0	23	0	3053453312	28	6127
2026-01-09 16:06:45.32	156.68	32.51	-27.9	-28.4	28.7	0.00e+00	0	23	0	3059744768	28	6023
2026-01-09 16:06:46.33	156.90	32.34	-27.8	-28.5	28.8	0.00e+00	0	23	0	3064987648	28	6083
2026-01-09 16:06:47.34	157.11	32.16	-28.0	-28.5	28.6	0.00e+00	0	23	0	3070230528	28	6060
2026-01-09 16:06:48.35	157.33	32.00	-27.8	-28.4	28.7	0.00e+00	0	23	0	3076521984	28	5983
2026-01-09 16:06:49.36	157.54	31.83	-28.0	-28.7	28.7	0.00e+00	0	23	0	3081764864	28	6183
2026-01-09 16:06:50.37	157.75	31.66	-28.1	-28.7	28.5	0.00e+00	0	23	0	3088056320	28	6198
2026-01-09 16:06:51.38	157.96	31.49	-28.2	-28.7	28.6	0.00e+00	0	23	0	3093299200	28	6213
2026-01-09 16:06:52.39	158.16	31.32	-28.2	-28.8	28.4	0.00e+00	0	23	0	3098542080	28	6281
2026-01-09 16:06:53.40	158.37	31.16	-28.5	-29.0	28.3	0.00e+00	0	23	0	3104833536	28	6438
2026-01-09 16:06:54.41	158.57	30.99	-28.6	-29.1	28.3	0.00e+00	0	23	0	3110076416	28	6533
2026-01-09 16:06:55.42	158.77	30.82	-28.5	-29.1	28.1	0.00e+00	0	23	0	3116367872	28	6513
2026-01-09 16:06:56.43	158.97	30.66	-28.5	-29.2	28.3	0.00e+00	0	23	0	3121610752	28	6558
2026-01-09 16:06:57.44	159.16	30.49	-28.5	-29.2	28.4	0.00e+00	0	23	0	3127902208	28	6564
2026-01-09 16:06:58.45	159.36	30.33	-28.4	-29.1	28.4	0.00e+00	0	23	0	3133145088	28	6521
2026-01-09 16:06:59.46	159.55	30.17	-28.6	-29.3	28.3	0.00e+00	0	23	0	3138387968	28	6639
2026-01-09 16:07:00.47	159.74	30.00	-28.4	-29.1	28.3	0.00e+00	0	23	0	3144679424	28	6482
2026-01-09 16:07:01.48	159.93	29.84	-28.4	-28.9	28.4	0.00e+00	0	23	0	3149922304	28	6364
2026-01-09 16:07:02.49	160.12	29.68	-28.3	-29.0	28.3	0.00e+00	0	23	0	3156213760	28	6441
2026-01-09 16:07:03.50	160.30	29.52	-28.2	-28.8	28.5	0.00e+00	0	23	0	3161456640	28	6267
2026-01-09 16:07:04.51	160.48	29.36	-28.3	-28.9	28.5	0.00e+00	0	23	0	3166699520	28	6348
2026-01-09 16:07:05.52	160.67	29.20	-28.2	-28.9	28.6	0.00e+00	0	23	0	3172990976	28	6376
2026-01-09 16:07:06.53	160.85	29.04	-28.4	-29.0	28.4	0.00e+00	0	23	0	3178233856	28	6392
2026-01-09 16:07:07.54	161.02	28.88	-28.4	-29.0	28.3	0.00e+00	0	23	0	3184525312	28	6419
2026-01-09 16:07:08.55	161.20	28.72	-28.6	-29.2	28.2	0.00e+00	0	23	0	3189768192	28	6578
2026-01-09 16:07:09.56	161.37	28.56	-28.6	-29.2	28.1	0.00e+00	0	23	0	3195011072	28	6554
2026-01-09 16:07:10.57	161.55	28.41	-28.4	-29.0	28.4	0.00e+00	0	23	0	3201302528	28	6428
2026-01-09 16:07:11.58	161.72	28.25	-28.3	-28.9	28.4	0.00e+00	0	23	0	3206545408	28	6363
2026-01-09 16:07:12.58	161.89	28.10	-28.3	-28.9	28.4	0.00e+00	0	23	0	3212836864	28	6323
2026-01-09 16:07:13.59	162.05	27.94	-28.4	-29.0	28.3	0.00e+00	0	23	0	3218079744	28	6417
2026-01-09 16:07:14.60	162.22	27.79	-28.3	-29.0	28.4	0.00e+00	0	23	0	3224371200	28	6460
2026-01-09 16:07:15.61	162.38	27.63	-28.2	-28.8	28.5	0.00e+00	0	23	0	3229614080	28	6267
2026-01-09 16:07:16.62	162.55	27.48	-28.2	-28.9	28.5	0.00e+00	0	23	0	3235905536	28	6343
2026-01-09 16:07:17.63	162.71	27.33	-28.2	-28.9	28.6	0.00e+00	0	23	0	3241148416	28	6347
2026-01-09 16:07:18.64	162.87	27.18	-28.2	-28.9	28.5	0.00e+00	0	23	0	3246391296	28	6366
2026-01-09 16:07:19.65	163.03	27.03	-28.3	-29.0	28.5	0.00e+00	0	23	0	3252682752	28	6392
2026-01-09 16:07:20.66	163.19	26.87	-28.2	-28.9	28.4	0.00e+00	0	23	0	3257925632	28	6376
2026-01-09 16:07:21.67	163.34	26.72	-28.2	-28.9	28.5	0.00e+00	0	23	0	3264217088	28	6357
2026-01-09 16:07:22.68	163.50	26.58	-28.3	-28.8	28.4	0.00e+00	0	23	0	3269459968	28	6306
2026-01-09 16:07:23.69	163.65	26.43	-28.2	-28.8	28.5	0.00e+00	0	23	0	3274702848	28	6270
2026-01-09 16:07:24.70	163.80	26.28	-28.3	-28.9	28.3	0.00e+00	0	23	0	3280994304	28	6355
2026-01-09 16:07:25.71	163.95	26.13	-28.2	-28.9	28.4	0.00e+00	0	23	0	3286237184	28	6374
2026-01-09 16:07:26.71	164.10	25.98	-28.2	-28.8	28.4	0.00e+00	0	23	0	3292528640	28	6272
2026-01-09 16:07:27.72	164.25	25.84	-28.3	-28.8	28.4	0.00e+00	0	23	0	3297771520	28	6306
2026-01-09 16:07:28.74	164.40	25.69	-28.1	-28.7	28.5	0.00e+00	0	23	0	3303014400	28	6176
2026-01-09 16:07:29.75	164.54	25.55	-28.2	-28.7	28.4	0.00e+00	0	23	0	3309305856	28	6201
2026-01-09 16:07:30.75	164.68	25.40	-28.2	-28.7	28.4	0.00e+00	0	23	0	3314548736	28	6234
2026-01-09 16:07:31.76	164.83	25.26	-28.2	-28.8	28.4	0.00e+00	0	23	0	3320840192	28	6261
2026-01-09 16:07:32.77	164.97	25.12	-28.4	-29.0	28.3	0.00e+00	0	23	0	3326083072	28	6405
2026-01-09 16:07:33.78	165.11	24.97	-28.5	-29.0	28.3	0.00e+00	0	23	0	3332374528	28	6464
2026-01-09 16:07:34.79	165.25	24.83	-28.6	-29.2	28.2	0.00e+00	0	23	0	3337617408	28	6544
2026-01-09 16:07:35.80	165.38	24.69	-28.6	-29.2	28.1	0.00e+00	0	23	0	3342860288	28	6575
2026-01-09 16:07:36.81	165.52	24.55	-28.8	-29.4	28.1	0.00e+00	0	23	0	3349151744	30	5970
2026-01-09 16:07:37.82	165.66	24.41	-28.8	-29.4	28.1	0.00e+00	0	23	0	3354394624	30	5971
2026-01-09 16:07:38.83	165.79	24.27	-28.8	-29.4	28.0	0.00e+00	0	23	0	3360686080	30	5982
2026-01-09 16:07:39.84	165.92	24.13	-28.9	-29.5	28.0	0.00e+00	0	23	0	3365928960	30	6045
2026-01-09 16:07:40.85	166.05	23.99	-28.7	-29.2	28.1	0.00e+00	0	23	0	3371171840	30	5868
2026-01-09 16:07:41.86	166.19	23.85	-28.8	-29.4	28.0	0.00e+00	0	23	0	3377463296	30	5998
2026-01-09 16:07:42.87	166.31	23.71	-28.8	-29.3	28.1	0.00e+00	0	23	0	3382706176	30	5936
2026-01-09 16:07:43.88	166.44	23.58	-28.7	-29.3	28.1	0.00e+00	0	23	0	3388997632	30	5915
2026-01-09 16:07:44.89	166.57	23.44	-28.7	-29.2	28.1	0.00e+00	0	23	0	3394240512	30	5876
2026-01-09 16:07:45.90	166.70	23.31	-28.8	-29.4	28.0	0.00e+00	0	23	0	3399483392	30	5971
2026-01-09 16:07:46.90	166.82	23.17	-28.7	-29.2	28.1	0.00e+00	0	23	0	3405774848	30	5856
2026-01-09 16:07:47.91	166.95	23.04	-28.8	-29.3	28.0	0.00e+00	0	23	0	3411017728	30	5964
2026-01-09 16:07:48.93	167.07	22.90	-29.0	-29.5	27.9	0.00e+00	0	23	0	3417309184	30	6074
2026-01-09 16:07:49.93	167.19	22.77	-29.0	-29.6	27.8	0.00e+00	0	23	0	3422552064	30	6118
2026-01-09 16:07:50.95	167.31	22.63	-29.1	-29.7	27.8	0.00e+00	0	23	0	3428843520	30	6183
2026-01-09 16:07:51.96	167.43	22.50	-29.3	-29.9	27.6	0.00e+00	0	23	0	3434086400	30	6324
2026-01-09 16:07:52.97	167.55	22.37	-29.3	-29.9	27.6	0.00e+00	0	23	0	3440377856	30	6354
2026-01-09 16:07:53.98	167.67	22.24	-29.4	-30.0	27.5	0.00e+00	0	23	0	3445620736	30	6407
2026-01-09 16:07:54.99	167.79	22.11	-29.4	-30.0	27.5	0.00e+00	0	23	0	3450863616	30	6453
2026-01-09 16:07:56.00	167.91	21.98	-29.4	-30.2	27.5	0.00e+00	0	23	0	3457155072	30	6551
2026-01-09 16:07:57.01	168.02	21.85	-29.4	-30.2	27.5	0.00e+00	0	23	0	3462397952	30	6558
2026-01-09 16:07:58.02	168.14	21.72	-29.3	-30.0	27.6	0.00e+00	0	23	0	3468689408	30	6429
2026-01-09 16:07:59.03	168.25	21.59	-29.3	-30.1	27.6	0.00e+00	0	23	0	3473932288	30	6481
2026-01-09 16:08:00.04	168.36	21.46	-29.3	-29.9	27.6	0.00e+00	0	23	0	3479175168	30	6342
2026-01-09 16:08:01.05	168.47	21.34	-29.3	-30.0	27.7	0.00e+00	0	23	0	3485466624	30	6439
2026-01-09 16:08:02.06	168.58	21.21	-29.3	-29.9	27.7	0.00e+00	0	23	0	3490709504	30	6322
2026-01-09 16:08:03.07	168.69	21.08	-29.2	-29.9	27.7	0.00e+00	0	23	0	3497000960	30	6350
2026-01-09 16:08:04.08	168.80	20.96	-29.2	-29.9	27.7	0.00e+00	0	23	0	3502243840	30	6367
2026-01-09 16:08:05.09	168.91	20.83	-29.2	-29.9	27.8	0.00e+00	0	23	0	3507486720	30	6337
2026-01-09 16:08:06.10	169.02	20.71	-29.2	-29.7	27.7	0.00e+00	0	23	0	3513778176	30	6244
2026-01-09 16:08:07.11	169.13	20.58	-29.2	-29.8	27.7	0.00e+00	0	23	0	3519021056	30	6246
2026-01-09 16:08:08.12	169.23	20.46	-29.3	-29.9	27.6	0.00e+00	0	23	0	3525312512	30	6334
2026-01-09 16:08:09.13	169.34	20.34	-29.5	-30.0	27.5	0.00e+00	0	23	0	3530555392	30	6434
2026-01-09 16:08:10.14	169.44	20.21	-29.5	-30.2	27.5	0.00e+00	0	23	0	3536846848	30	6567
2026-01-09 16:08:11.15	169.55	20.09	-29.4	-30.1	27.5	0.00e+00	0	23	0	3542089728	30	6512
2026-01-09 16:08:12.16	169.65	19.97	-29.5	-30.0	27.5	0.00e+00	0	23	0	3547332608	30	6437
2026-01-09 16:08:13.17	169.75	19.85	-29.6	-30.2	27.4	0.00e+00	0	23	0	3553624064	30	6557
2026-01-09 16:08:14.18	169.85	19.73	-29.5	-30.0	27.4	0.00e+00	0	23	0	3558866944	30	6459
2026-01-09 16:08:15.19	169.95	19.61	-29.6	-30.2	27.4	0.00e+00	0	23	0	3565158400	30	6596
2026-01-09 16:08:16.20	170.05	19.49	-29.5	-30.1	27.4	0.00e+00	0	23	0	3570401280	30	6467
2026-01-09 16:08:17.21	170.15	19.37	-29.5	-30.1	27.5	0.00e+00	0	23	0	3575644160	30	6477
2026-01-09 16:08:18.22	170.25	19.25	-29.5	-30.1	27.4	0.00e+00	0	23	0	3581935616	30	6485
2026-01-09 16:08:19.23	170.35	19.13	-29.6	-30.1	27.4	0.00e+00	0	23	0	3587178496	30	6538
2026-01-09 16:08:20.24	170.44	19.01	-29.7	-30.2	27.4	0.00e+00	0	23	0	3593469952	30	6597
2026-01-09 16:08:21.25	170.54	18.90	-29.8	-30.5	27.2	0.00e+00	0	23	0	3598712832	32	6075
2026-01-09 16:08:22.26	170.63	18.78	-29.7	-30.3	27.3	0.00e+00	0	23	0	3603955712	32	5921
2026-01-09 16:08:23.27	170.73	18.66	-29.9	-30.4	27.1	0.00e+00	0	23	0	3610247168	32	6022
2026-01-09 16:08:24.28	170.82	18.55	-29.7	-30.4	27.2	0.00e+00	0	23	0	3615490048	32	6020
2026-01-09 16:08:25.29	170.92	18.43	-29.9	-30.6	27.2	0.00e+00	0	23	0	3621781504	32	6126
2026-01-09 16:08:26.30	171.01	18.32	-29.9	-30.6	27.1	0.00e+00	0	23	0	3627024384	32	6120
2026-01-09 16:08:27.31	171.10	18.20	-30.0	-30.7	27.0	0.00e+00	0	23	0	3633315840	32	6222
2026-01-09 16:08:28.32	171.19	18.09	-30.0	-30.5	27.0	0.00e+00	0	23	0	3638558720	32	6101
2026-01-09 16:08:29.33	171.28	17.98	-30.1	-30.7	27.0	0.00e+00	0	23	0	3644850176	32	6186
2026-01-09 16:08:30.34	171.37	17.86	-30.2	-30.8	26.8	0.00e+00	0	23	0	3650093056	32	6252
2026-01-09 16:08:31.35	171.46	17.75	-30.2	-31.0	26.8	0.00e+00	0	23	0	3655335936	32	6395
