passes_logs/2026/01/09/R4.6S_Anadyr/R4.6S_Anadyr__20260109_113616_SUOMI_NPP_rec.log

#Pass ID: 20260109_113616_SUOMI NPP
#Satellite: SUOMI NPP
#Configuration: NPP
#almurnet v.1.7.20251203
#Start time: 2026-01-09 11:36:20

#Version: 2.2.20231116
#Station: R4.6S_Anadyr
#Location: 177.4865 lon 64.73178 lat
#TLE: 1 37849U 11061A   26008.05542337  .00000108  00000+0  71976-4 0  9997
#TLE: 2 37849  98.7805 310.1641 0002540  75.6410 284.5048 14.19523335735721

#Time	Az	El	Level	Level2	SNR	BER	BlckErr	Temp	State	Recorded	gain1	gain2
2026-01-09 11:36:20.91	21.26	0.17	-48.1	-49.7	5.7	0.00e+00	0	23	0	0	60	37350
2026-01-09 11:36:21.91	21.36	0.21	-47.9	-63.1	3.6	1.51e+00	0	24	104	0	60	51617
2026-01-09 11:36:22.92	21.46	0.25	-47.9	-63.1	3.6	1.51e+00	0	24	104	0	60	51456
2026-01-09 11:36:23.93	21.56	0.29	-47.9	-63.0	3.6	1.51e+00	0	24	104	0	60	51316
2026-01-09 11:36:24.95	21.66	0.33	-47.9	-63.0	3.6	1.51e+00	0	24	104	0	60	51345
2026-01-09 11:36:25.95	21.76	0.37	-47.9	-63.1	3.6	1.51e+00	0	24	104	0	60	51603
2026-01-09 11:36:26.96	21.86	0.40	-47.9	-63.0	3.6	1.51e+00	0	24	104	0	60	51311
2026-01-09 11:36:27.97	21.96	0.44	-47.8	-63.0	3.6	1.51e+00	0	24	104	0	60	50825
2026-01-09 11:36:28.98	22.06	0.48	-47.8	-62.9	3.6	1.51e+00	0	24	104	0	60	50509
2026-01-09 11:36:29.99	22.16	0.52	-47.7	-62.9	3.6	1.51e+00	0	24	104	0	60	50205
2026-01-09 11:36:31.00	22.26	0.56	-47.6	-62.8	3.6	1.51e+00	0	24	104	0	60	49834
2026-01-09 11:36:32.01	22.36	0.60	-47.5	-62.6	3.6	1.51e+00	0	24	104	0	60	49041
2026-01-09 11:36:33.02	22.46	0.64	-47.3	-62.6	3.6	1.51e+00	0	24	104	0	60	48603
2026-01-09 11:36:34.03	22.56	0.68	-47.1	-62.3	3.6	1.51e+00	0	24	104	0	60	47337
2026-01-09 11:36:35.04	22.66	0.72	-46.8	-62.1	3.6	1.51e+00	0	24	104	0	60	45874
2026-01-09 11:36:36.05	22.76	0.76	-46.3	-61.5	3.6	1.51e+00	0	24	104	0	60	42780
2026-01-09 11:36:37.06	22.87	0.80	-46.1	-61.3	3.6	1.51e+00	0	24	104	0	60	41968
2026-01-09 11:36:38.07	22.97	0.84	-46.1	-61.2	3.6	1.51e+00	0	24	104	0	60	41669
2026-01-09 11:36:39.08	23.07	0.87	-46.1	-61.3	3.6	1.51e+00	0	24	104	0	60	41806
2026-01-09 11:36:40.09	23.18	0.91	-46.1	-61.2	3.6	1.51e+00	0	24	104	0	60	41523
2026-01-09 11:36:41.09	23.28	0.95	-46.1	-61.3	3.6	1.51e+00	0	24	104	0	60	41777
2026-01-09 11:36:42.10	23.38	0.99	-46.1	-61.3	3.6	1.51e+00	0	24	104	0	60	41874
2026-01-09 11:36:43.12	23.49	1.03	-46.1	-61.3	3.6	1.51e+00	0	24	104	0	60	41874
2026-01-09 11:36:44.13	23.59	1.07	-46.1	-61.3	3.6	1.51e+00	0	24	104	0	60	41820
2026-01-09 11:36:45.14	23.69	1.11	-46.1	-61.3	3.6	1.51e+00	0	24	104	0	60	41873
2026-01-09 11:36:46.15	23.80	1.15	-46.1	-61.3	3.6	1.51e+00	0	24	104	0	60	41973
2026-01-09 11:36:47.16	23.90	1.19	-46.1	-61.2	3.6	1.51e+00	0	24	104	0	60	41681
2026-01-09 11:36:48.16	24.01	1.23	-46.1	-61.1	3.6	1.51e+00	0	24	104	0	60	41198
2026-01-09 11:36:49.17	24.11	1.26	-46.1	-61.2	3.6	1.51e+00	0	24	104	0	60	41537
2026-01-09 11:36:50.18	24.22	1.30	-46.1	-61.2	3.6	1.51e+00	0	24	104	0	60	41514
2026-01-09 11:36:51.19	24.32	1.34	-46.1	-61.2	3.6	1.51e+00	0	24	104	0	60	41591
2026-01-09 11:36:52.20	24.43	1.38	-46.1	-61.3	3.6	1.51e+00	0	24	104	0	60	41819
2026-01-09 11:36:53.21	24.54	1.42	-46.1	-61.3	3.6	1.51e+00	0	24	104	0	60	41842
2026-01-09 11:36:54.22	24.64	1.46	-46.1	-61.2	3.6	1.51e+00	0	24	104	0	60	41711
2026-01-09 11:36:55.23	24.75	1.50	-46.1	-61.2	3.6	1.51e+00	0	24	104	0	60	41567
2026-01-09 11:36:56.24	24.86	1.54	-46.1	-61.2	3.6	1.51e+00	0	24	104	0	60	41526
2026-01-09 11:36:57.25	24.96	1.57	-46.1	-61.2	3.6	1.51e+00	0	24	104	0	60	41568
2026-01-09 11:36:58.26	25.07	1.61	-46.1	-61.2	3.6	1.51e+00	0	24	104	0	60	41575
2026-01-09 11:36:59.26	25.18	1.65	-46.1	-61.2	3.6	1.51e+00	0	24	104	0	60	41407
2026-01-09 11:37:00.28	25.29	1.69	-46.1	-61.2	3.6	1.51e+00	0	24	104	0	60	41511
2026-01-09 11:37:01.28	25.40	1.73	-46.1	-61.2	3.6	1.51e+00	0	24	104	0	60	41586
2026-01-09 11:37:02.29	25.50	1.77	-46.1	-61.2	3.6	1.51e+00	0	24	104	0	60	41500
2026-01-09 11:37:03.30	25.61	1.81	-46.1	-61.3	3.6	1.51e+00	0	24	104	0	60	41746
2026-01-09 11:37:04.31	25.72	1.84	-46.0	-61.2	3.6	1.51e+00	0	24	104	0	60	41326
2026-01-09 11:37:05.32	25.83	1.88	-46.1	-61.1	3.6	1.51e+00	0	24	104	0	60	41166
2026-01-09 11:37:06.33	25.94	1.92	-46.1	-61.2	3.6	1.51e+00	0	24	104	0	60	41297
2026-01-09 11:37:07.34	26.05	1.96	-46.1	-61.2	3.6	1.51e+00	0	24	104	0	60	41652
2026-01-09 11:37:08.35	26.16	2.00	-46.1	-61.2	3.6	1.51e+00	0	24	104	0	60	41367
2026-01-09 11:37:09.36	26.27	2.04	-46.1	-61.2	3.6	1.51e+00	0	24	104	0	60	41451
2026-01-09 11:37:10.37	26.38	2.07	-46.1	-61.2	3.6	1.51e+00	0	24	104	0	60	41396
2026-01-09 11:37:11.38	26.50	2.11	-46.1	-61.2	3.6	1.51e+00	0	24	104	0	60	41425
2026-01-09 11:37:12.39	26.61	2.15	-46.1	-61.2	3.6	1.51e+00	0	24	104	0	60	41546
2026-01-09 11:37:13.40	26.72	2.19	-46.1	-61.3	3.6	1.51e+00	0	25	104	0	60	41745
2026-01-09 11:37:14.41	26.83	2.23	-46.1	-61.2	3.6	1.51e+00	0	24	104	0	60	41501
2026-01-09 11:37:15.42	26.94	2.26	-46.1	-61.2	3.6	1.51e+00	0	24	104	0	60	41398
2026-01-09 11:37:16.43	27.06	2.30	-46.1	-61.2	3.6	1.51e+00	0	24	104	0	60	41386
2026-01-09 11:37:17.44	27.17	2.34	-46.0	-61.1	3.6	1.51e+00	0	24	104	0	60	41104
2026-01-09 11:37:18.44	27.28	2.38	-46.0	-61.1	3.6	1.51e+00	0	24	104	0	60	41056
2026-01-09 11:37:19.45	27.39	2.42	-46.1	-61.1	3.6	1.51e+00	0	24	104	0	60	41095
2026-01-09 11:37:20.46	27.51	2.45	-46.1	-61.2	3.6	1.51e+00	0	25	104	0	60	41511
2026-01-09 11:37:21.47	27.62	2.49	-46.0	-61.2	3.6	1.51e+00	0	24	104	0	60	41371
2026-01-09 11:37:22.49	27.74	2.53	-46.0	-61.1	3.6	1.51e+00	0	24	104	0	60	41135
2026-01-09 11:37:23.49	27.85	2.57	-46.0	-61.1	3.6	1.51e+00	0	24	104	0	60	41075
2026-01-09 11:37:24.50	27.96	2.61	-46.0	-60.8	3.6	1.51e+00	0	24	104	0	60	39645
2026-01-09 11:37:25.51	28.08	2.64	-46.0	-60.1	3.6	1.51e+00	0	24	104	0	60	36529
2026-01-09 11:37:26.52	28.20	2.68	-46.0	-60.0	3.6	1.51e+00	0	25	104	0	60	36217
2026-01-09 11:37:27.53	28.31	2.72	-46.0	-60.9	3.6	1.51e+00	0	24	104	0	60	40148
2026-01-09 11:37:28.54	28.43	2.76	-45.9	-59.1	3.6	1.51e+00	0	25	104	0	60	32655
2026-01-09 11:37:29.55	28.54	2.79	-45.2	-52.6	7.8	1.05e+00	0	25	104	0	60	15332
2026-01-09 11:37:30.56	28.66	2.83	-43.8	-47.8	12.2	4.99e-03	0	25	0	0	60	8873
2026-01-09 11:37:31.57	28.78	2.87	-42.3	-45.1	15.1	6.10e-06	0	25	0	2097152	58	7255
2026-01-09 11:37:32.58	28.89	2.91	-41.3	-43.5	16.6	0.00e+00	0	25	0	4194304	56	6844
2026-01-09 11:37:33.59	29.01	2.94	-40.9	-42.9	17.2	0.00e+00	0	24	0	6291456	56	6365
2026-01-09 11:37:34.60	29.13	2.98	-41.2	-43.3	16.7	0.00e+00	0	24	0	8388608	56	6655
2026-01-09 11:37:35.61	29.25	3.02	-42.1	-44.7	15.4	0.00e+00	0	25	0	9437184	56	7799
2026-01-09 11:37:36.62	29.36	3.06	-39.5	-41.1	18.9	7.00e-07	0	25	0	11534336	54	5795
2026-01-09 11:37:37.63	29.48	3.09	-44.0	-48.7	9.0	0.00e+00	0	25	0	13631488	54	13979
2026-01-09 11:37:38.64	29.60	3.13	-40.8	-42.8	6.1	1.51e+00	0	25	104	13631488	60	5004
2026-01-09 11:37:39.65	29.72	3.17	-40.8	-42.7	16.7	0.00e+00	0	24	104	13631488	56	6244
2026-01-09 11:37:40.66	29.84	3.21	-42.8	-45.8	13.8	0.00e+00	0	25	0	14680064	54	9949
2026-01-09 11:37:41.67	29.96	3.24	-41.7	-43.7	16.6	1.07e+00	0	25	0	16777216	60	5525
2026-01-09 11:37:42.68	30.08	3.28	-40.1	-41.8	18.4	0.00e+00	0	25	0	17825792	54	6249
2026-01-09 11:37:43.69	30.20	3.32	-39.3	-40.8	19.4	0.00e+00	0	24	0	19922944	52	6277
2026-01-09 11:37:44.70	30.32	3.35	-39.0	-40.5	19.6	0.00e+00	0	25	0	22020096	52	6045
2026-01-09 11:37:45.71	30.44	3.39	-38.8	-40.1	19.9	0.00e+00	0	25	0	24117248	52	5819
2026-01-09 11:37:46.71	30.56	3.43	-38.7	-40.0	20.0	0.00e+00	0	25	0	26214400	50	6436
2026-01-09 11:37:47.72	30.68	3.46	-38.6	-39.9	20.1	0.00e+00	0	25	0	27262976	50	6368
2026-01-09 11:37:48.73	30.80	3.50	-38.7	-40.1	20.0	0.00e+00	0	25	0	29360128	50	6487
2026-01-09 11:37:49.74	30.93	3.54	-38.5	-39.9	20.1	0.00e+00	0	24	0	31457280	50	6325
2026-01-09 11:37:50.75	31.05	3.57	-38.7	-40.0	20.1	0.00e+00	0	24	0	33554432	50	6438
2026-01-09 11:37:51.76	31.17	3.61	-38.7	-40.0	20.2	0.00e+00	0	25	0	35651584	50	6419
2026-01-09 11:37:52.77	31.29	3.65	-38.7	-40.1	20.0	0.00e+00	0	25	0	36700160	50	6495
2026-01-09 11:37:53.78	31.42	3.68	-39.0	-40.4	19.6	0.00e+00	0	25	0	38797312	50	6713
2026-01-09 11:37:54.79	31.54	3.72	-39.1	-40.6	19.3	0.00e+00	0	25	0	40894464	50	6854
2026-01-09 11:37:55.80	31.66	3.76	-39.2	-40.6	19.5	0.00e+00	0	25	0	42991616	50	6870
2026-01-09 11:37:56.80	31.79	3.79	-38.8	-40.2	20.0	0.00e+00	0	25	0	45088768	50	6550
2026-01-09 11:37:57.81	31.91	3.83	-38.8	-40.2	19.8	0.00e+00	0	25	0	46137344	50	6579
2026-01-09 11:37:58.82	32.04	3.86	-39.1	-40.4	19.9	0.00e+00	0	25	0	48234496	50	6768
2026-01-09 11:37:59.83	32.16	3.90	-38.7	-40.0	20.1	0.00e+00	0	25	0	50331648	50	6440
2026-01-09 11:38:00.84	32.29	3.94	-39.0	-40.3	19.8	0.00e+00	0	24	0	52428800	50	6681
2026-01-09 11:38:01.84	32.41	3.97	-39.0	-40.4	19.8	0.00e+00	0	24	0	54525952	50	6706
2026-01-09 11:38:02.85	32.54	4.01	-39.1	-40.5	19.7	0.00e+00	0	25	0	55574528	50	6775
2026-01-09 11:38:03.86	32.66	4.04	-39.0	-40.5	19.7	0.00e+00	0	25	0	57671680	50	6771
2026-01-09 11:38:04.87	32.79	4.08	-39.1	-40.5	19.8	0.00e+00	0	24	0	59768832	50	6803
2026-01-09 11:38:05.88	32.91	4.11	-39.3	-40.7	19.7	0.00e+00	0	24	0	61865984	50	6993
2026-01-09 11:38:06.89	33.04	4.15	-39.1	-40.5	19.8	0.00e+00	0	25	0	63963136	50	6781
2026-01-09 11:38:07.90	33.17	4.19	-39.1	-40.5	19.8	0.00e+00	0	25	0	65011712	50	6823
2026-01-09 11:38:08.90	33.30	4.22	-38.9	-40.3	20.0	0.00e+00	0	24	0	67108864	50	6657
2026-01-09 11:38:09.91	33.42	4.26	-39.0	-40.3	19.9	0.00e+00	0	24	0	69206016	50	6682
2026-01-09 11:38:10.92	33.55	4.29	-39.1	-40.5	19.8	0.00e+00	0	25	0	71303168	50	6777
2026-01-09 11:38:11.93	33.68	4.33	-39.0	-40.3	19.9	0.00e+00	0	25	0	73400320	50	6673
2026-01-09 11:38:12.94	33.81	4.36	-39.1	-40.5	19.8	0.00e+00	0	25	0	74448896	50	6779
2026-01-09 11:38:13.95	33.94	4.40	-39.3	-40.7	19.7	0.00e+00	0	25	0	76546048	50	6975
2026-01-09 11:38:14.96	34.07	4.43	-39.3	-40.8	19.6	0.00e+00	0	25	0	78643200	50	7018
2026-01-09 11:38:15.97	34.20	4.47	-39.4	-40.9	19.3	0.00e+00	0	25	0	80740352	50	7106
2026-01-09 11:38:16.98	34.33	4.50	-39.4	-40.8	19.4	0.00e+00	0	25	0	82837504	52	6279
2026-01-09 11:38:17.99	34.46	4.54	-39.2	-40.6	19.6	0.00e+00	0	25	0	84934656	52	6164
2026-01-09 11:38:18.99	34.59	4.57	-39.2	-40.7	19.6	0.00e+00	0	25	0	85983232	52	6185
2026-01-09 11:38:20.00	34.72	4.61	-39.5	-41.0	19.3	0.00e+00	0	25	0	88080384	52	6398
2026-01-09 11:38:21.01	34.85	4.64	-39.2	-40.6	19.6	0.00e+00	0	25	0	90177536	52	6166
2026-01-09 11:38:22.02	34.98	4.68	-39.3	-40.8	19.5	0.00e+00	0	25	0	92274688	52	6265
2026-01-09 11:38:23.03	35.11	4.71	-39.2	-40.6	19.8	0.00e+00	0	25	0	94371840	52	6133
2026-01-09 11:38:24.04	35.24	4.74	-39.1	-40.5	19.8	0.00e+00	0	25	0	95420416	52	6076
2026-01-09 11:38:25.05	35.38	4.78	-39.3	-40.7	19.7	0.00e+00	0	25	0	97517568	52	6203
2026-01-09 11:38:26.06	35.51	4.81	-39.3	-40.7	19.7	0.00e+00	0	25	0	99614720	52	6241
2026-01-09 11:38:27.07	35.64	4.85	-39.1	-40.5	19.9	0.00e+00	0	25	0	101711872	52	6080
2026-01-09 11:38:28.07	35.77	4.88	-39.2	-40.5	19.8	0.00e+00	0	25	0	103809024	52	6093
2026-01-09 11:38:29.08	35.91	4.92	-39.2	-40.6	19.9	0.00e+00	0	25	0	104857600	52	6114
2026-01-09 11:38:30.09	36.04	4.95	-39.0	-40.4	20.0	0.00e+00	0	25	0	106954752	52	5967
2026-01-09 11:38:31.10	36.17	4.98	-39.2	-40.6	19.8	0.00e+00	0	25	0	109051904	52	6108
2026-01-09 11:38:32.11	36.31	5.02	-39.2	-40.6	19.9	0.00e+00	0	25	0	111149056	52	6115
2026-01-09 11:38:33.12	36.44	5.05	-38.9	-40.3	20.0	0.00e+00	0	25	0	113246208	52	5912
2026-01-09 11:38:34.13	36.58	5.08	-39.0	-40.3	20.1	0.00e+00	0	25	0	114294784	52	5947
2026-01-09 11:38:35.14	36.71	5.12	-38.8	-40.1	20.2	0.00e+00	0	25	0	116391936	50	6533
2026-01-09 11:38:36.15	36.85	5.15	-38.9	-40.2	20.2	0.00e+00	0	25	0	118489088	50	6558
2026-01-09 11:38:37.16	36.99	5.18	-39.1	-40.4	20.0	0.00e+00	0	25	0	120586240	50	6745
2026-01-09 11:38:38.17	37.12	5.22	-39.2	-40.6	19.8	0.00e+00	0	25	0	122683392	50	6852
2026-01-09 11:38:39.18	37.26	5.25	-39.2	-40.5	19.8	0.00e+00	0	25	0	123731968	50	6845
2026-01-09 11:38:40.18	37.39	5.28	-39.3	-40.7	19.8	0.00e+00	0	25	0	125829120	50	6972
2026-01-09 11:38:41.19	37.53	5.32	-39.1	-40.5	20.0	0.00e+00	0	25	0	127926272	50	6798
2026-01-09 11:38:42.20	37.67	5.35	-39.1	-40.4	19.9	0.00e+00	0	25	0	130023424	50	6756
2026-01-09 11:38:43.21	37.81	5.38	-39.2	-40.5	19.9	0.00e+00	0	25	0	132120576	50	6814
2026-01-09 11:38:44.22	37.94	5.41	-39.1	-40.5	19.9	0.00e+00	0	25	0	133169152	50	6796
2026-01-09 11:38:45.23	38.08	5.45	-39.1	-40.4	19.9	0.00e+00	0	25	0	135266304	50	6762
2026-01-09 11:38:46.24	38.22	5.48	-39.1	-40.4	20.0	0.00e+00	0	25	0	137363456	50	6732
2026-01-09 11:38:47.24	38.36	5.51	-39.0	-40.4	20.1	0.00e+00	0	25	0	139460608	50	6715
2026-01-09 11:38:48.25	38.50	5.54	-39.2	-40.6	19.9	0.00e+00	0	25	0	141557760	50	6866
2026-01-09 11:38:49.26	38.64	5.58	-39.2	-40.6	19.9	0.00e+00	0	25	0	142606336	50	6851
2026-01-09 11:38:50.26	38.78	5.61	-39.2	-40.6	19.8	0.00e+00	0	25	0	144703488	50	6924
2026-01-09 11:38:51.27	38.92	5.64	-39.3	-40.7	19.7	0.00e+00	0	25	0	146800640	50	6975
2026-01-09 11:38:52.28	39.06	5.67	-39.4	-40.8	19.7	0.00e+00	0	25	0	148897792	50	7080
2026-01-09 11:38:53.29	39.20	5.70	-39.3	-40.7	19.8	0.00e+00	0	25	0	150994944	50	6974
2026-01-09 11:38:54.30	39.34	5.74	-39.3	-40.7	19.8	0.00e+00	0	25	0	152043520	50	6992
2026-01-09 11:38:55.31	39.48	5.77	-39.4	-40.8	19.6	0.00e+00	0	25	0	154140672	50	7037
2026-01-09 11:38:56.32	39.62	5.80	-39.2	-40.6	19.8	0.00e+00	0	25	0	156237824	50	6868
2026-01-09 11:38:57.33	39.76	5.83	-39.4	-40.8	19.7	0.00e+00	0	25	0	158334976	50	7013
2026-01-09 11:38:58.34	39.90	5.86	-39.4	-40.8	19.8	0.00e+00	0	25	0	160432128	50	7025
2026-01-09 11:38:59.35	40.05	5.89	-39.3	-40.7	19.8	0.00e+00	0	25	0	161480704	50	6947
2026-01-09 11:39:00.36	40.19	5.92	-39.1	-40.5	19.9	0.00e+00	0	25	0	163577856	50	6774
2026-01-09 11:39:01.37	40.33	5.95	-39.1	-40.5	20.1	0.00e+00	0	25	0	165675008	50	6779
2026-01-09 11:39:02.38	40.48	5.98	-39.2	-40.6	19.9	0.00e+00	0	25	0	167772160	50	6892
2026-01-09 11:39:03.39	40.62	6.02	-39.3	-40.7	19.9	0.00e+00	0	25	0	169869312	50	6943
2026-01-09 11:39:04.40	40.76	6.05	-39.3	-40.6	19.9	0.00e+00	0	25	0	170917888	50	6916
2026-01-09 11:39:05.41	40.91	6.08	-39.2	-40.6	19.8	0.00e+00	0	25	0	173015040	50	6905
2026-01-09 11:39:06.42	41.05	6.11	-39.2	-40.5	19.6	0.00e+00	0	25	0	175112192	50	6818
2026-01-09 11:39:07.43	41.20	6.14	-39.0	-40.3	20.0	0.00e+00	0	25	0	177209344	50	6676
2026-01-09 11:39:08.44	41.34	6.17	-39.1	-40.5	20.0	0.00e+00	0	25	0	179306496	50	6809
2026-01-09 11:39:09.45	41.49	6.20	-39.3	-40.7	19.9	0.00e+00	0	25	0	181403648	50	6932
2026-01-09 11:39:10.46	41.63	6.23	-39.3	-40.7	19.8	0.00e+00	0	25	0	182452224	50	6941
2026-01-09 11:39:11.47	41.78	6.26	-39.3	-40.7	19.8	0.00e+00	0	25	0	184549376	50	6932
2026-01-09 11:39:12.48	41.92	6.29	-39.5	-41.0	19.7	0.00e+00	0	25	0	186646528	50	7171
2026-01-09 11:39:13.48	42.07	6.32	-39.7	-41.2	19.5	0.00e+00	0	25	0	188743680	52	6540
2026-01-09 11:39:14.49	42.22	6.35	-39.9	-41.5	19.2	0.00e+00	0	25	0	190840832	52	6772
2026-01-09 11:39:15.50	42.36	6.37	-39.8	-41.3	19.3	0.00e+00	0	25	0	191889408	52	6658
2026-01-09 11:39:16.51	42.51	6.40	-39.9	-41.4	19.3	0.00e+00	0	25	0	193986560	52	6717
2026-01-09 11:39:17.52	42.66	6.43	-39.6	-41.1	19.6	0.00e+00	0	25	0	196083712	52	6490
2026-01-09 11:39:18.53	42.81	6.46	-39.5	-40.9	19.8	0.00e+00	0	25	0	198180864	52	6360
2026-01-09 11:39:19.54	42.95	6.49	-39.3	-40.6	20.1	0.00e+00	0	25	0	200278016	52	6167
2026-01-09 11:39:20.54	43.10	6.52	-39.1	-40.5	20.1	0.00e+00	0	25	0	201326592	52	6065
2026-01-09 11:39:21.55	43.25	6.55	-39.1	-40.4	20.2	0.00e+00	0	25	0	203423744	52	6033
2026-01-09 11:39:22.56	43.40	6.58	-39.0	-40.3	20.3	0.00e+00	0	25	0	205520896	52	5958
2026-01-09 11:39:23.57	43.55	6.60	-39.1	-40.4	20.2	0.00e+00	0	25	0	207618048	52	5995
2026-01-09 11:39:24.58	43.70	6.63	-39.3	-40.7	19.9	0.00e+00	0	25	0	209715200	52	6204
2026-01-09 11:39:25.58	43.85	6.66	-39.4	-40.8	19.8	0.00e+00	0	25	0	210763776	52	6305
2026-01-09 11:39:26.59	44.00	6.69	-39.5	-41.0	19.6	0.00e+00	0	25	0	212860928	52	6419
2026-01-09 11:39:27.60	44.15	6.72	-39.8	-41.3	19.5	0.00e+00	0	25	0	214958080	52	6663
2026-01-09 11:39:28.61	44.30	6.74	-39.9	-41.4	19.4	0.00e+00	0	25	0	217055232	52	6699
2026-01-09 11:39:29.62	44.45	6.77	-39.9	-41.4	19.3	0.00e+00	0	25	0	219152384	52	6704
2026-01-09 11:39:30.63	44.60	6.80	-39.7	-41.2	19.5	0.00e+00	0	25	0	220200960	52	6561
2026-01-09 11:39:31.63	44.75	6.83	-39.7	-41.2	19.5	0.00e+00	0	25	0	222298112	52	6567
2026-01-09 11:39:32.64	44.90	6.85	-39.8	-41.2	19.5	0.00e+00	0	25	0	224395264	52	6595
2026-01-09 11:39:33.65	45.05	6.88	-39.8	-41.3	19.4	0.00e+00	0	25	0	226492416	52	6656
2026-01-09 11:39:34.66	45.21	6.91	-39.9	-41.4	19.3	0.00e+00	0	25	0	228589568	52	6713
2026-01-09 11:39:35.66	45.36	6.93	-39.8	-41.3	19.5	0.00e+00	0	25	0	229638144	52	6664
2026-01-09 11:39:36.67	45.51	6.96	-39.9	-41.4	19.3	0.00e+00	0	25	0	231735296	52	6748
2026-01-09 11:39:37.68	45.66	6.99	-39.8	-41.3	19.4	0.00e+00	0	25	0	233832448	52	6661
2026-01-09 11:39:38.68	45.82	7.01	-39.8	-41.2	19.4	0.00e+00	0	25	0	235929600	52	6592
2026-01-09 11:39:39.70	45.97	7.04	-39.8	-41.3	19.4	0.00e+00	0	25	0	238026752	52	6683
2026-01-09 11:39:40.70	46.12	7.06	-39.6	-41.0	19.7	0.00e+00	0	25	0	239075328	52	6430
2026-01-09 11:39:41.71	46.28	7.09	-39.5	-40.9	19.9	0.00e+00	0	25	0	241172480	52	6327
2026-01-09 11:39:42.72	46.43	7.12	-39.4	-40.7	20.0	0.00e+00	0	25	0	243269632	52	6232
2026-01-09 11:39:43.73	46.59	7.14	-39.3	-40.6	20.0	0.00e+00	0	25	0	245366784	52	6143
2026-01-09 11:39:44.74	46.74	7.17	-39.2	-40.5	20.1	0.00e+00	0	25	0	247463936	52	6064
2026-01-09 11:39:45.74	46.90	7.19	-39.1	-40.4	20.2	0.00e+00	0	25	0	248512512	52	5980
2026-01-09 11:39:46.75	47.05	7.22	-39.1	-40.4	20.1	0.00e+00	0	25	0	250609664	52	5992
2026-01-09 11:39:47.76	47.21	7.24	-39.3	-40.6	20.1	0.00e+00	0	25	0	252706816	52	6149
2026-01-09 11:39:48.77	47.36	7.27	-39.4	-40.8	19.8	0.00e+00	0	25	0	254803968	52	6291
2026-01-09 11:39:49.78	47.52	7.29	-39.7	-41.2	19.4	0.00e+00	0	25	0	256901120	52	6574
2026-01-09 11:39:50.79	47.68	7.31	-39.9	-41.4	19.4	0.00e+00	0	25	0	257949696	52	6729
2026-01-09 11:39:51.80	47.83	7.34	-40.3	-41.9	18.9	0.00e+00	0	25	0	260046848	52	7123
2026-01-09 11:39:52.81	47.99	7.36	-40.7	-42.4	18.5	0.00e+00	0	25	0	262144000	52	7532
2026-01-09 11:39:53.82	48.15	7.39	-40.8	-42.5	18.5	0.00e+00	0	25	0	264241152	54	6802
2026-01-09 11:39:54.82	48.30	7.41	-40.9	-42.7	18.1	0.00e+00	0	25	0	266338304	54	6977
2026-01-09 11:39:55.83	48.46	7.43	-40.9	-42.7	18.2	0.00e+00	0	25	0	267386880	54	6950
2026-01-09 11:39:56.84	48.62	7.46	-40.7	-42.4	18.3	0.00e+00	0	25	0	269484032	54	6763
2026-01-09 11:39:57.85	48.78	7.48	-40.3	-41.8	19.0	0.00e+00	0	25	0	271581184	54	6306
2026-01-09 11:39:58.86	48.94	7.50	-40.2	-41.7	19.1	0.00e+00	0	25	0	273678336	54	6231
2026-01-09 11:39:59.87	49.10	7.53	-40.1	-41.6	19.3	0.00e+00	0	25	0	275775488	54	6146
2026-01-09 11:40:00.88	49.25	7.55	-39.8	-41.2	19.5	0.00e+00	0	25	0	277872640	52	6594
2026-01-09 11:40:01.89	49.41	7.57	-40.0	-41.4	19.4	0.00e+00	0	25	0	278921216	52	6766
2026-01-09 11:40:02.90	49.57	7.59	-40.0	-41.5	19.3	0.00e+00	0	25	0	281018368	52	6814
2026-01-09 11:40:03.91	49.73	7.62	-39.7	-41.2	19.6	0.00e+00	0	25	0	283115520	52	6574
2026-01-09 11:40:04.92	49.89	7.64	-39.7	-41.1	19.4	0.00e+00	0	25	0	285212672	52	6470
2026-01-09 11:40:05.92	50.05	7.66	-39.8	-41.2	19.4	0.00e+00	0	25	0	287309824	52	6589
2026-01-09 11:40:06.93	50.21	7.68	-39.6	-41.1	19.8	0.00e+00	0	25	0	288358400	52	6470
2026-01-09 11:40:07.94	50.37	7.70	-39.6	-41.1	19.7	0.00e+00	0	25	0	290455552	52	6470
2026-01-09 11:40:08.95	50.53	7.73	-39.5	-40.9	20.0	0.00e+00	0	25	0	292552704	52	6336
2026-01-09 11:40:09.96	50.70	7.75	-39.2	-40.6	20.1	0.00e+00	0	25	0	294649856	52	6118
2026-01-09 11:40:10.97	50.86	7.77	-39.3	-40.6	20.2	0.00e+00	0	25	0	295698432	52	6145
2026-01-09 11:40:11.98	51.02	7.79	-39.1	-40.4	20.3	0.00e+00	0	25	0	297795584	52	6012
2026-01-09 11:40:12.99	51.18	7.81	-39.1	-40.4	20.4	0.00e+00	0	25	0	299892736	52	6014
2026-01-09 11:40:14.00	51.34	7.83	-39.3	-40.6	20.1	0.00e+00	0	25	0	301989888	52	6130
2026-01-09 11:40:15.00	51.50	7.85	-39.4	-40.7	20.1	0.00e+00	0	25	0	304087040	52	6231
2026-01-09 11:40:16.02	51.67	7.87	-39.6	-41.0	19.7	0.00e+00	0	25	0	306184192	52	6424
2026-01-09 11:40:17.02	51.83	7.89	-39.8	-41.3	19.4	0.00e+00	0	25	0	307232768	52	6643
2026-01-09 11:40:18.03	51.99	7.91	-40.0	-41.5	19.3	0.00e+00	0	25	0	309329920	52	6833
2026-01-09 11:40:19.04	52.16	7.93	-40.1	-41.6	19.2	0.00e+00	0	25	0	311427072	52	6907
2026-01-09 11:40:20.05	52.32	7.95	-40.0	-41.5	19.4	0.00e+00	0	25	0	313524224	52	6787
2026-01-09 11:40:21.06	52.48	7.97	-39.9	-41.3	19.6	0.00e+00	0	25	0	315621376	52	6692
2026-01-09 11:40:22.07	52.65	7.99	-39.6	-41.0	19.8	0.00e+00	0	25	0	316669952	52	6393
2026-01-09 11:40:23.08	52.81	8.01	-39.2	-40.5	20.2	0.00e+00	0	25	0	318767104	52	6042
2026-01-09 11:40:24.09	52.97	8.03	-39.0	-40.3	20.4	0.00e+00	0	25	0	320864256	52	5925
2026-01-09 11:40:25.10	53.14	8.05	-39.0	-40.3	20.5	0.00e+00	0	25	0	322961408	52	5909
2026-01-09 11:40:26.10	53.30	8.06	-38.8	-40.1	20.7	0.00e+00	0	25	0	325058560	52	5801
2026-01-09 11:40:27.12	53.47	8.08	-39.0	-40.3	20.4	0.00e+00	0	25	0	326107136	50	6639
2026-01-09 11:40:28.13	53.63	8.10	-39.0	-40.3	20.3	0.00e+00	0	25	0	328204288	50	6649
2026-01-09 11:40:29.14	53.80	8.12	-39.2	-40.5	20.2	0.00e+00	0	25	0	330301440	50	6818
2026-01-09 11:40:30.15	53.96	8.14	-39.4	-40.7	20.1	0.00e+00	0	25	0	332398592	50	6976
2026-01-09 11:40:31.16	54.13	8.15	-39.3	-40.7	20.2	0.00e+00	0	25	0	334495744	50	6933
2026-01-09 11:40:32.16	54.29	8.17	-39.0	-40.3	20.4	0.00e+00	0	25	0	335544320	50	6617
2026-01-09 11:40:33.17	54.46	8.19	-38.8	-40.1	20.6	0.00e+00	0	25	0	337641472	50	6476
2026-01-09 11:40:34.18	54.63	8.20	-38.7	-40.0	20.7	0.00e+00	0	25	0	339738624	50	6403
2026-01-09 11:40:35.19	54.79	8.22	-38.7	-39.9	20.8	0.00e+00	0	25	0	341835776	50	6330
2026-01-09 11:40:36.20	54.96	8.24	-38.6	-39.9	20.8	0.00e+00	0	25	0	343932928	50	6325
2026-01-09 11:40:37.20	55.12	8.25	-38.7	-39.9	20.8	0.00e+00	0	25	0	344981504	50	6378
2026-01-09 11:40:38.21	55.29	8.27	-38.7	-39.9	20.8	0.00e+00	0	25	0	347078656	50	6356
2026-01-09 11:40:39.22	55.46	8.28	-38.7	-39.9	20.6	0.00e+00	0	25	0	349175808	50	6364
2026-01-09 11:40:40.23	55.63	8.30	-38.8	-40.0	20.6	0.00e+00	0	25	0	351272960	50	6435
2026-01-09 11:40:41.24	55.79	8.32	-38.8	-40.1	20.6	0.00e+00	0	25	0	353370112	50	6488
2026-01-09 11:40:42.25	55.96	8.33	-38.7	-39.9	20.8	0.00e+00	0	25	0	354418688	50	6340
2026-01-09 11:40:43.26	56.13	8.35	-38.6	-39.8	20.8	0.00e+00	0	25	0	356515840	50	6251
2026-01-09 11:40:44.27	56.30	8.36	-38.5	-39.7	20.9	0.00e+00	0	25	0	358612992	50	6188
2026-01-09 11:40:45.28	56.47	8.38	-38.6	-39.8	20.9	0.00e+00	0	25	0	360710144	50	6271
2026-01-09 11:40:46.29	56.63	8.39	-38.8	-40.0	20.7	0.00e+00	0	25	0	362807296	50	6454
2026-01-09 11:40:47.30	56.80	8.40	-39.1	-40.5	20.2	0.00e+00	0	25	0	363855872	50	6793
2026-01-09 11:40:48.30	56.97	8.42	-39.4	-40.8	20.0	0.00e+00	0	25	0	365953024	50	7030
2026-01-09 11:40:49.31	57.14	8.43	-39.7	-41.1	19.7	0.00e+00	0	25	0	368050176	50	7311
2026-01-09 11:40:50.32	57.31	8.45	-40.0	-41.5	19.4	0.00e+00	0	25	0	370147328	52	6826
2026-01-09 11:40:51.33	57.48	8.46	-40.0	-41.5	19.4	0.00e+00	0	25	0	372244480	52	6799
2026-01-09 11:40:52.34	57.65	8.47	-40.1	-41.6	19.2	0.00e+00	0	25	0	374341632	52	6885
2026-01-09 11:40:53.35	57.82	8.49	-40.3	-41.8	19.3	0.00e+00	0	25	0	375390208	52	7047
2026-01-09 11:40:54.36	57.98	8.50	-40.1	-41.6	19.3	0.00e+00	0	25	0	377487360	52	6888
2026-01-09 11:40:55.37	58.15	8.51	-40.1	-41.6	19.3	0.00e+00	0	25	0	379584512	52	6863
2026-01-09 11:40:56.38	58.32	8.52	-40.2	-41.8	19.1	0.00e+00	0	25	0	381681664	52	7015
2026-01-09 11:40:57.39	58.49	8.54	-40.0	-41.5	19.4	0.00e+00	0	25	0	383778816	52	6792
2026-01-09 11:40:58.40	58.66	8.55	-40.2	-41.7	19.2	0.00e+00	0	25	0	384827392	52	6959
2026-01-09 11:40:59.41	58.83	8.56	-40.1	-41.6	19.3	0.00e+00	0	25	0	386924544	52	6883
2026-01-09 11:41:00.42	59.01	8.57	-40.1	-41.6	19.4	0.00e+00	0	25	0	389021696	52	6872
2026-01-09 11:41:01.43	59.18	8.58	-40.2	-41.8	19.1	0.00e+00	0	25	0	391118848	52	7009
2026-01-09 11:41:02.43	59.35	8.59	-40.2	-41.7	19.3	0.00e+00	0	25	0	393216000	52	6982
2026-01-09 11:41:03.44	59.52	8.60	-40.2	-41.7	19.3	0.00e+00	0	25	0	394264576	52	6980
2026-01-09 11:41:04.45	59.69	8.62	-40.2	-41.7	19.3	0.00e+00	0	25	0	396361728	52	6984
2026-01-09 11:41:05.46	59.86	8.63	-40.2	-41.8	19.2	0.00e+00	0	25	0	398458880	52	7021
2026-01-09 11:41:06.47	60.03	8.64	-40.2	-41.7	19.2	0.00e+00	0	25	0	400556032	52	6967
2026-01-09 11:41:07.48	60.20	8.65	-40.4	-42.0	18.9	0.00e+00	0	25	0	402653184	52	7176
2026-01-09 11:41:08.49	60.37	8.66	-40.5	-42.1	18.9	0.00e+00	0	25	0	403701760	52	7285
2026-01-09 11:41:09.50	60.54	8.67	-40.5	-42.1	18.7	0.00e+00	0	25	0	405798912	52	7319
2026-01-09 11:41:10.51	60.72	8.68	-40.6	-42.3	18.8	0.00e+00	0	25	0	407896064	52	7470
2026-01-09 11:41:11.52	60.89	8.68	-40.7	-42.4	18.6	0.00e+00	0	25	0	409993216	52	7513
2026-01-09 11:41:12.53	61.06	8.69	-40.6	-42.2	18.7	0.00e+00	0	25	0	412090368	52	7395
2026-01-09 11:41:13.54	61.23	8.70	-40.4	-42.0	18.9	0.00e+00	0	25	0	413138944	52	7245
2026-01-09 11:41:14.55	61.40	8.71	-40.3	-41.9	19.1	0.00e+00	0	25	0	415236096	52	7097
2026-01-09 11:41:15.56	61.58	8.72	-40.0	-41.5	19.4	0.00e+00	0	25	0	417333248	52	6845
2026-01-09 11:41:16.57	61.75	8.73	-39.9	-41.3	19.5	0.00e+00	0	25	0	419430400	52	6682
2026-01-09 11:41:17.58	61.92	8.74	-39.8	-41.2	19.7	0.00e+00	0	25	0	421527552	52	6578
2026-01-09 11:41:18.59	62.09	8.74	-39.9	-41.3	19.5	0.00e+00	0	25	0	422576128	52	6676
2026-01-09 11:41:19.60	62.26	8.75	-39.9	-41.4	19.4	0.00e+00	0	25	0	424673280	52	6723
2026-01-09 11:41:20.60	62.44	8.76	-39.8	-41.2	19.8	0.00e+00	0	25	0	426770432	52	6549
2026-01-09 11:41:21.61	62.61	8.76	-39.8	-41.2	19.7	0.00e+00	0	25	0	428867584	52	6563
2026-01-09 11:41:22.62	62.78	8.77	-39.9	-41.3	19.6	0.00e+00	0	25	0	430964736	52	6679
2026-01-09 11:41:23.63	62.95	8.78	-39.8	-41.2	19.6	0.00e+00	0	25	0	432013312	52	6580
2026-01-09 11:41:24.64	63.13	8.78	-39.7	-41.1	19.7	0.00e+00	0	25	0	434110464	52	6537
2026-01-09 11:41:25.65	63.30	8.79	-39.7	-41.1	19.8	0.00e+00	0	25	0	436207616	52	6485
2026-01-09 11:41:26.66	63.47	8.80	-39.7	-41.1	19.9	0.00e+00	0	25	0	438304768	52	6505
2026-01-09 11:41:27.67	63.65	8.80	-39.7	-41.1	19.9	0.00e+00	0	25	0	440401920	52	6509
2026-01-09 11:41:28.68	63.82	8.81	-39.5	-40.8	20.0	0.00e+00	0	25	0	442499072	52	6293
2026-01-09 11:41:29.68	63.99	8.81	-39.5	-40.9	19.9	0.00e+00	0	25	0	443547648	52	6343
2026-01-09 11:41:30.69	64.16	8.82	-39.7	-41.1	19.7	0.00e+00	0	25	0	445644800	52	6482
2026-01-09 11:41:31.70	64.34	8.82	-39.5	-40.9	20.0	0.00e+00	0	25	0	447741952	52	6330
2026-01-09 11:41:32.71	64.51	8.83	-39.6	-41.0	19.8	0.00e+00	0	25	0	449839104	52	6449
2026-01-09 11:41:33.72	64.69	8.83	-39.7	-41.1	19.8	0.00e+00	0	25	0	450887680	52	6525
2026-01-09 11:41:34.73	64.86	8.84	-39.7	-41.1	19.8	0.00e+00	0	25	0	452984832	52	6526
2026-01-09 11:41:35.74	65.03	8.84	-39.6	-41.0	19.9	0.00e+00	0	25	0	455081984	52	6402
2026-01-09 11:41:36.75	65.21	8.84	-39.6	-41.0	19.8	0.00e+00	0	25	0	457179136	52	6424
2026-01-09 11:41:37.75	65.38	8.85	-39.3	-40.7	20.0	0.00e+00	0	25	0	459276288	52	6179
2026-01-09 11:41:38.76	65.55	8.85	-39.4	-40.7	20.1	0.00e+00	0	25	0	460324864	52	6241
2026-01-09 11:41:39.77	65.73	8.85	-39.0	-40.3	20.5	0.00e+00	0	25	0	462422016	52	5948
2026-01-09 11:41:40.78	65.90	8.86	-38.8	-40.1	20.6	0.00e+00	0	25	0	464519168	52	5788
2026-01-09 11:41:41.79	66.07	8.86	-38.8	-40.1	20.7	0.00e+00	0	25	0	466616320	52	5784
2026-01-09 11:41:42.80	66.25	8.86	-38.7	-40.0	20.8	0.00e+00	0	25	0	468713472	50	6393
2026-01-09 11:41:43.81	66.42	8.86	-38.8	-40.1	20.7	0.00e+00	0	25	0	470810624	50	6467
2026-01-09 11:41:44.82	66.60	8.86	-38.8	-40.0	20.7	0.00e+00	0	25	0	471859200	50	6455
2026-01-09 11:41:45.83	66.77	8.87	-38.6	-39.9	20.8	0.00e+00	0	25	0	473956352	50	6323
2026-01-09 11:41:46.84	66.94	8.87	-38.5	-39.8	20.8	0.00e+00	0	25	0	476053504	50	6260
2026-01-09 11:41:47.84	67.12	8.87	-38.5	-39.7	21.2	0.00e+00	0	25	0	478150656	50	6203
2026-01-09 11:41:48.85	67.29	8.87	-38.2	-39.4	21.2	0.00e+00	0	25	0	480247808	50	6003
2026-01-09 11:41:49.86	67.46	8.87	-38.1	-39.2	21.5	0.00e+00	0	25	0	481296384	50	5885
2026-01-09 11:41:50.87	67.64	8.87	-38.2	-39.3	21.4	0.00e+00	0	25	0	483393536	50	5921
2026-01-09 11:41:51.88	67.81	8.87	-38.0	-39.1	21.6	0.00e+00	0	25	0	485490688	50	5779
2026-01-09 11:41:52.89	67.99	8.87	-38.1	-39.2	21.4	0.00e+00	0	25	0	487587840	50	5878
2026-01-09 11:41:53.90	68.16	8.87	-38.2	-39.4	21.2	0.00e+00	0	25	0	489684992	50	6012
2026-01-09 11:41:54.91	68.33	8.87	-38.5	-39.7	21.0	0.00e+00	0	25	0	490733568	50	6209
2026-01-09 11:41:55.92	68.51	8.87	-38.6	-39.8	20.8	0.00e+00	0	25	0	492830720	50	6295
2026-01-09 11:41:56.93	68.68	8.87	-38.7	-39.9	20.8	0.00e+00	0	25	0	494927872	50	6382
2026-01-09 11:41:57.94	68.86	8.87	-38.8	-40.0	20.7	0.00e+00	0	25	0	497025024	50	6440
2026-01-09 11:41:58.95	69.03	8.87	-38.7	-39.9	20.9	0.00e+00	0	25	0	499122176	50	6348
2026-01-09 11:41:59.96	69.20	8.86	-38.4	-39.6	21.0	0.00e+00	0	25	0	500170752	50	6105
2026-01-09 11:42:00.97	69.38	8.86	-38.3	-39.5	21.0	0.00e+00	0	25	0	502267904	50	6079
2026-01-09 11:42:01.97	69.55	8.86	-38.5	-39.7	21.0	0.00e+00	0	25	0	504365056	50	6233
2026-01-09 11:42:02.98	69.72	8.86	-38.2	-39.4	21.2	0.00e+00	0	25	0	506462208	50	6010
2026-01-09 11:42:03.99	69.90	8.86	-38.5	-39.7	20.9	0.00e+00	0	25	0	508559360	50	6217
2026-01-09 11:42:05.00	70.07	8.85	-38.5	-39.7	21.0	0.00e+00	0	25	0	509607936	50	6190
2026-01-09 11:42:06.01	70.25	8.85	-38.4	-39.6	21.0	0.00e+00	0	25	0	511705088	50	6130
2026-01-09 11:42:07.02	70.42	8.85	-38.5	-39.7	20.9	0.00e+00	0	25	0	513802240	50	6242
2026-01-09 11:42:08.03	70.59	8.84	-38.5	-39.7	20.9	0.00e+00	0	25	0	515899392	50	6216
2026-01-09 11:42:09.04	70.77	8.84	-38.4	-39.6	21.1	0.00e+00	0	25	0	517996544	50	6111
2026-01-09 11:42:10.05	70.94	8.84	-38.2	-39.4	21.2	0.00e+00	0	25	0	519045120	50	6010
2026-01-09 11:42:11.06	71.12	8.83	-38.2	-39.4	21.2	0.00e+00	0	25	0	521142272	50	6019
2026-01-09 11:42:12.07	71.29	8.83	-38.1	-39.3	21.3	0.00e+00	0	25	0	523239424	50	5929
2026-01-09 11:42:13.08	71.46	8.82	-38.0	-39.2	21.4	0.00e+00	0	25	0	525336576	50	5859
2026-01-09 11:42:14.09	71.64	8.82	-38.0	-39.1	21.5	0.00e+00	0	25	0	527433728	50	5827
2026-01-09 11:42:15.09	71.81	8.81	-38.0	-39.1	21.4	0.00e+00	0	25	0	528482304	50	5808
2026-01-09 11:42:16.10	71.98	8.81	-38.1	-39.3	21.1	0.00e+00	0	25	0	530579456	50	5917
2026-01-09 11:42:17.11	72.15	8.80	-38.1	-39.3	21.3	0.00e+00	0	25	0	532676608	50	5916
2026-01-09 11:42:18.12	72.33	8.80	-38.0	-39.2	21.2	0.00e+00	0	25	0	534773760	50	5867
2026-01-09 11:42:19.13	72.50	8.79	-37.9	-39.1	21.4	0.00e+00	0	25	0	536870912	50	5769
2026-01-09 11:42:20.14	72.67	8.79	-37.9	-39.1	21.4	0.00e+00	0	25	0	538968064	50	5780
2026-01-09 11:42:21.15	72.85	8.78	-37.6	-38.7	21.7	0.00e+00	0	25	0	540016640	48	6182
2026-01-09 11:42:22.16	73.02	8.77	-37.3	-38.4	22.0	0.00e+00	0	25	0	542113792	48	6007
2026-01-09 11:42:23.17	73.19	8.77	-37.4	-38.5	22.0	0.00e+00	0	25	0	544210944	48	6070
2026-01-09 11:42:24.18	73.37	8.76	-37.0	-38.1	22.3	0.00e+00	0	25	0	546308096	48	5777
2026-01-09 11:42:25.19	73.54	8.75	-36.8	-37.8	22.4	0.00e+00	0	25	0	548405248	48	5623
2026-01-09 11:42:26.20	73.71	8.74	-36.8	-37.8	22.5	0.00e+00	0	25	0	549453824	46	6288
2026-01-09 11:42:27.20	73.88	8.74	-36.9	-38.0	22.4	0.00e+00	0	25	0	551550976	46	6396
2026-01-09 11:42:28.22	74.06	8.73	-36.9	-37.9	22.5	0.00e+00	0	25	0	553648128	46	6365
2026-01-09 11:42:29.23	74.23	8.72	-37.1	-38.2	22.2	0.00e+00	0	25	0	555745280	46	6560
2026-01-09 11:42:30.24	74.40	8.71	-37.3	-38.3	22.0	0.00e+00	0	25	0	557842432	46	6690
2026-01-09 11:42:31.24	74.57	8.70	-37.2	-38.3	22.1	0.00e+00	0	25	0	558891008	46	6651
2026-01-09 11:42:32.25	74.74	8.70	-37.4	-38.4	21.9	0.00e+00	0	25	0	560988160	46	6747
2026-01-09 11:42:33.26	74.92	8.69	-37.4	-38.5	22.0	0.00e+00	0	25	0	563085312	46	6807
2026-01-09 11:42:34.27	75.09	8.68	-37.5	-38.6	21.9	0.00e+00	0	25	0	565182464	46	6896
2026-01-09 11:42:35.28	75.26	8.67	-37.4	-38.4	22.0	0.00e+00	0	25	0	567279616	46	6763
2026-01-09 11:42:36.29	75.43	8.66	-37.5	-38.6	21.8	0.00e+00	0	25	0	568328192	46	6858
2026-01-09 11:42:37.30	75.60	8.65	-37.4	-38.5	21.9	0.00e+00	0	25	0	570425344	46	6818
2026-01-09 11:42:38.31	75.78	8.64	-37.5	-38.6	21.9	0.00e+00	0	25	0	572522496	46	6889
2026-01-09 11:42:39.32	75.95	8.63	-37.6	-38.8	21.7	0.00e+00	0	25	0	574619648	46	7022
2026-01-09 11:42:40.33	76.12	8.62	-37.7	-38.8	21.6	0.00e+00	0	25	0	576716800	46	7056
2026-01-09 11:42:41.34	76.29	8.61	-37.7	-38.9	21.6	0.00e+00	0	25	0	577765376	48	6367
2026-01-09 11:42:42.35	76.46	8.60	-37.7	-38.9	21.6	0.00e+00	0	25	0	579862528	48	6343
2026-01-09 11:42:43.36	76.63	8.59	-37.7	-39.0	21.6	0.00e+00	0	25	0	581959680	48	6400
2026-01-09 11:42:44.37	76.80	8.57	-37.7	-38.9	21.6	0.00e+00	0	25	0	584056832	48	6339
2026-01-09 11:42:45.38	76.97	8.56	-37.5	-38.7	21.7	0.00e+00	0	25	0	586153984	48	6232
2026-01-09 11:42:46.38	77.14	8.55	-37.6	-38.8	21.7	0.00e+00	0	25	0	587202560	48	6282
2026-01-09 11:42:47.39	77.31	8.54	-37.5	-38.6	21.8	0.00e+00	0	25	0	589299712	48	6166
2026-01-09 11:42:48.40	77.48	8.53	-37.5	-38.7	21.7	0.00e+00	0	25	0	591396864	48	6197
2026-01-09 11:42:49.41	77.65	8.51	-37.5	-38.7	21.8	0.00e+00	0	25	0	593494016	48	6175
2026-01-09 11:42:50.42	77.82	8.50	-37.5	-38.7	21.7	0.00e+00	0	25	0	595591168	48	6206
2026-01-09 11:42:51.43	77.99	8.49	-37.6	-38.8	21.7	0.00e+00	0	25	0	596639744	48	6263
2026-01-09 11:42:52.44	78.16	8.48	-37.8	-39.0	21.5	0.00e+00	0	25	0	598736896	48	6391
2026-01-09 11:42:53.45	78.33	8.46	-37.9	-39.1	21.4	0.00e+00	0	25	0	600834048	48	6510
2026-01-09 11:42:54.46	78.50	8.45	-38.0	-39.2	21.2	0.00e+00	0	25	0	602931200	48	6584
2026-01-09 11:42:55.47	78.67	8.44	-38.1	-39.3	21.2	0.00e+00	0	25	0	605028352	48	6670
2026-01-09 11:42:56.48	78.84	8.42	-38.4	-39.6	21.1	0.00e+00	0	25	0	607125504	48	6894
2026-01-09 11:42:57.49	79.01	8.41	-38.1	-39.3	21.1	0.00e+00	0	25	0	608174080	48	6649
2026-01-09 11:42:58.50	79.18	8.39	-38.2	-39.4	21.2	0.00e+00	0	25	0	610271232	48	6749
2026-01-09 11:42:59.51	79.35	8.38	-38.3	-39.5	21.1	0.00e+00	0	25	0	612368384	48	6793
2026-01-09 11:43:00.52	79.52	8.36	-38.3	-39.5	21.1	0.00e+00	0	25	0	614465536	48	6835
2026-01-09 11:43:01.52	79.68	8.35	-38.2	-39.5	21.1	0.00e+00	0	25	0	616562688	48	6776
2026-01-09 11:43:02.53	79.85	8.33	-38.0	-39.3	21.3	0.00e+00	0	25	0	617611264	48	6643
2026-01-09 11:43:03.54	80.02	8.32	-37.9	-39.2	21.3	0.00e+00	0	25	0	619708416	48	6584
2026-01-09 11:43:04.55	80.19	8.30	-37.9	-39.1	21.4	0.00e+00	0	25	0	621805568	48	6524
2026-01-09 11:43:05.56	80.36	8.29	-37.8	-39.1	21.4	0.00e+00	0	25	0	623902720	48	6483
2026-01-09 11:43:06.57	80.52	8.27	-37.4	-38.6	21.8	0.00e+00	0	25	0	624951296	48	6156
2026-01-09 11:43:07.58	80.69	8.26	-37.2	-38.4	22.0	0.00e+00	0	25	0	627048448	48	5996
2026-01-09 11:43:08.59	80.86	8.24	-37.0	-38.1	22.3	0.00e+00	0	25	0	629145600	48	5803
2026-01-09 11:43:09.60	81.02	8.22	-36.8	-37.9	22.4	0.00e+00	0	25	0	631242752	48	5667
2026-01-09 11:43:10.61	81.19	8.21	-36.8	-37.9	22.4	0.00e+00	0	25	0	633339904	48	5640
2026-01-09 11:43:11.62	81.36	8.19	-36.4	-37.5	22.7	0.00e+00	0	25	0	635437056	46	6036
2026-01-09 11:43:12.63	81.52	8.17	-36.6	-37.6	22.6	0.00e+00	0	25	0	636485632	46	6140
2026-01-09 11:43:13.64	81.69	8.15	-36.3	-37.3	22.9	0.00e+00	0	25	0	638582784	46	5924
2026-01-09 11:43:14.65	81.86	8.14	-36.4	-37.4	22.8	0.00e+00	0	25	0	640679936	46	5996
2026-01-09 11:43:15.66	82.02	8.12	-36.5	-37.6	22.8	0.00e+00	0	25	0	642777088	46	6116
2026-01-09 11:43:16.66	82.19	8.10	-36.6	-37.7	22.6	0.00e+00	0	25	0	644874240	46	6180
2026-01-09 11:43:17.67	82.35	8.08	-36.7	-37.7	22.6	0.00e+00	0	25	0	645922816	46	6235
2026-01-09 11:43:18.68	82.52	8.07	-36.8	-37.8	22.4	0.00e+00	0	25	0	648019968	46	6296
2026-01-09 11:43:19.69	82.68	8.05	-37.0	-38.0	22.3	0.00e+00	0	25	0	650117120	46	6429
2026-01-09 11:43:20.70	82.85	8.03	-37.2	-38.3	22.1	0.00e+00	0	25	0	652214272	46	6641
2026-01-09 11:43:21.71	83.01	8.01	-36.9	-37.9	22.3	0.00e+00	0	25	0	654311424	46	6379
2026-01-09 11:43:22.72	83.18	7.99	-37.1	-38.2	22.0	0.00e+00	0	25	0	655360000	46	6561
2026-01-09 11:43:23.73	83.34	7.97	-37.1	-38.1	22.2	0.00e+00	0	25	0	657457152	46	6515
2026-01-09 11:43:24.74	83.51	7.95	-36.9	-37.9	22.4	0.00e+00	0	25	0	659554304	46	6359
2026-01-09 11:43:25.75	83.67	7.93	-37.0	-38.0	22.4	0.00e+00	0	25	0	661651456	46	6427
2026-01-09 11:43:26.76	83.83	7.91	-37.0	-38.0	22.2	0.00e+00	0	25	0	663748608	46	6423
2026-01-09 11:43:27.77	84.00	7.89	-37.2	-38.3	22.1	0.00e+00	0	25	0	664797184	46	6651
2026-01-09 11:43:28.78	84.16	7.87	-37.4	-38.5	21.9	0.00e+00	0	25	0	666894336	46	6772
2026-01-09 11:43:29.79	84.32	7.85	-37.7	-38.9	21.8	0.00e+00	0	25	0	668991488	46	7114
2026-01-09 11:43:30.80	84.49	7.83	-37.7	-38.9	21.5	0.00e+00	0	25	0	671088640	46	7101
2026-01-09 11:43:31.80	84.65	7.81	-37.7	-38.9	21.5	0.00e+00	0	25	0	673185792	48	6329
2026-01-09 11:43:32.81	84.81	7.79	-37.5	-38.6	21.7	0.00e+00	0	25	0	674234368	48	6131
2026-01-09 11:43:33.82	84.97	7.77	-37.5	-38.6	21.8	0.00e+00	0	25	0	676331520	48	6162
2026-01-09 11:43:34.83	85.13	7.75	-37.6	-38.7	21.7	0.00e+00	0	25	0	678428672	48	6193
2026-01-09 11:43:35.84	85.29	7.73	-37.4	-38.5	21.9	0.00e+00	0	25	0	680525824	48	6059
2026-01-09 11:43:36.85	85.46	7.71	-37.2	-38.3	22.1	0.00e+00	0	25	0	682622976	48	5932
2026-01-09 11:43:37.86	85.62	7.68	-36.9	-38.0	22.3	0.00e+00	0	25	0	683671552	48	5706
2026-01-09 11:43:38.87	85.78	7.66	-36.8	-37.9	21.6	0.00e+00	0	25	0	685768704	48	5632
2026-01-09 11:43:39.88	85.94	7.64	-36.4	-37.3	22.7	0.00e+00	0	25	0	687865856	46	5959
2026-01-09 11:43:40.88	86.10	7.62	-36.2	-37.1	23.0	0.00e+00	0	25	0	689963008	46	5823
2026-01-09 11:43:41.89	86.26	7.60	-36.2	-37.1	22.9	0.00e+00	0	25	0	692060160	46	5826
2026-01-09 11:43:42.90	86.42	7.57	-36.1	-37.1	23.0	0.00e+00	0	25	0	693108736	46	5782
2026-01-09 11:43:43.91	86.58	7.55	-36.3	-37.2	22.9	0.00e+00	0	25	0	695205888	46	5886
2026-01-09 11:43:44.92	86.74	7.53	-36.5	-37.4	22.7	0.00e+00	0	25	0	697303040	46	6004
2026-01-09 11:43:45.93	86.90	7.50	-36.6	-37.6	22.6	0.00e+00	0	25	0	699400192	46	6120
2026-01-09 11:43:46.94	87.06	7.48	-36.8	-37.8	22.4	0.00e+00	0	25	0	701497344	46	6291
2026-01-09 11:43:47.95	87.22	7.46	-37.0	-38.1	22.2	0.00e+00	0	25	0	703594496	46	6468
2026-01-09 11:43:48.95	87.37	7.43	-37.1	-38.1	22.1	0.00e+00	0	25	0	704643072	46	6523
2026-01-09 11:43:49.96	87.53	7.41	-37.2	-38.3	22.1	0.00e+00	0	25	0	706740224	46	6650
2026-01-09 11:43:50.97	87.69	7.39	-37.2	-38.3	22.0	0.00e+00	0	25	0	708837376	46	6629
2026-01-09 11:43:51.98	87.85	7.36	-37.2	-38.3	22.0	0.00e+00	0	25	0	710934528	46	6645
2026-01-09 11:43:52.99	88.00	7.34	-37.2	-38.3	22.0	0.00e+00	0	25	0	713031680	46	6621
2026-01-09 11:43:54.00	88.16	7.31	-37.2	-38.2	22.1	0.00e+00	0	25	0	714080256	46	6597
2026-01-09 11:43:55.01	88.32	7.29	-37.1	-38.2	22.1	0.00e+00	0	25	0	716177408	46	6578
2026-01-09 11:43:56.02	88.48	7.26	-37.2	-38.3	22.0	0.00e+00	0	25	0	718274560	46	6670
2026-01-09 11:43:57.03	88.63	7.24	-37.5	-38.6	21.8	0.00e+00	0	25	0	720371712	46	6881
2026-01-09 11:43:58.04	88.79	7.21	-37.5	-38.6	21.7	0.00e+00	0	25	0	722468864	46	6898
2026-01-09 11:43:59.05	88.94	7.19	-37.7	-38.8	21.6	0.00e+00	0	25	0	723517440	46	7066
2026-01-09 11:44:00.06	89.10	7.16	-38.0	-39.2	21.2	0.00e+00	0	25	0	725614592	48	6555
2026-01-09 11:44:01.07	89.26	7.14	-38.1	-39.3	21.1	0.00e+00	0	25	0	727711744	48	6675
2026-01-09 11:44:02.07	89.41	7.11	-38.3	-39.5	20.9	0.00e+00	0	25	0	729808896	48	6827
2026-01-09 11:44:03.08	89.57	7.09	-38.5	-39.8	20.8	0.00e+00	0	25	0	731906048	48	7011
2026-01-09 11:44:04.09	89.72	7.06	-38.7	-40.0	20.5	0.00e+00	0	25	0	732954624	48	7249
2026-01-09 11:44:05.10	89.87	7.04	-38.9	-40.2	20.4	0.00e+00	0	25	0	735051776	50	6606
2026-01-09 11:44:06.11	90.03	7.01	-38.9	-40.2	20.3	0.00e+00	0	25	0	737148928	50	6553
2026-01-09 11:44:07.11	90.18	6.98	-38.9	-40.2	20.4	0.00e+00	0	25	0	739246080	50	6570
2026-01-09 11:44:08.12	90.33	6.96	-39.0	-40.3	20.3	0.00e+00	0	25	0	741343232	50	6647
2026-01-09 11:44:09.13	90.49	6.93	-38.7	-39.9	20.5	0.00e+00	0	25	0	742391808	50	6378
2026-01-09 11:44:10.14	90.64	6.90	-38.8	-40.1	20.3	0.00e+00	0	25	0	744488960	50	6507
2026-01-09 11:44:11.15	90.79	6.88	-38.8	-40.1	20.3	0.00e+00	0	25	0	746586112	50	6514
2026-01-09 11:44:12.16	90.95	6.85	-39.0	-40.3	20.1	0.00e+00	0	25	0	748683264	50	6665
2026-01-09 11:44:13.17	91.10	6.82	-39.1	-40.5	20.0	0.00e+00	0	25	0	750780416	50	6828
2026-01-09 11:44:14.18	91.25	6.79	-38.9	-40.3	20.2	0.00e+00	0	25	0	751828992	50	6658
2026-01-09 11:44:15.19	91.40	6.77	-39.2	-40.7	19.8	0.00e+00	0	25	0	753926144	50	6975
2026-01-09 11:44:16.20	91.56	6.74	-39.0	-40.5	20.0	0.00e+00	0	25	0	756023296	50	6808
2026-01-09 11:44:17.21	91.71	6.71	-39.2	-40.6	19.8	0.00e+00	0	25	0	758120448	50	6868
2026-01-09 11:44:18.22	91.86	6.68	-38.9	-40.3	20.2	0.00e+00	0	25	0	760217600	50	6656
2026-01-09 11:44:19.23	92.01	6.66	-38.9	-40.3	20.2	0.00e+00	0	25	0	761266176	50	6668
2026-01-09 11:44:20.24	92.16	6.63	-39.0	-40.4	20.1	0.00e+00	0	25	0	763363328	50	6708
2026-01-09 11:44:21.24	92.31	6.60	-38.7	-40.1	20.4	0.00e+00	0	25	0	765460480	50	6476
2026-01-09 11:44:22.25	92.46	6.57	-38.7	-40.0	20.3	0.00e+00	0	25	0	767557632	50	6463
2026-01-09 11:44:23.26	92.61	6.54	-38.7	-40.1	20.3	0.00e+00	0	25	0	769654784	50	6527
2026-01-09 11:44:24.27	92.76	6.51	-39.1	-40.5	20.0	0.00e+00	0	25	0	770703360	50	6827
2026-01-09 11:44:25.27	92.90	6.49	-39.2	-40.6	20.0	0.00e+00	0	25	0	772800512	50	6852
2026-01-09 11:44:26.28	93.05	6.46	-39.2	-40.6	20.0	0.00e+00	0	25	0	774897664	50	6922
2026-01-09 11:44:27.29	93.20	6.43	-39.3	-40.8	19.8	0.00e+00	0	25	0	776994816	50	7013
2026-01-09 11:44:28.30	93.35	6.40	-39.4	-40.9	19.6	0.00e+00	0	25	0	779091968	50	7162
2026-01-09 11:44:29.31	93.50	6.37	-39.3	-40.8	19.7	0.00e+00	0	25	0	780140544	50	7080
2026-01-09 11:44:30.32	93.64	6.34	-39.4	-41.0	19.5	0.00e+00	0	25	0	782237696	50	7203
2026-01-09 11:44:31.33	93.79	6.31	-40.0	-41.6	19.0	0.00e+00	0	25	0	784334848	52	6868
2026-01-09 11:44:32.34	93.94	6.28	-40.3	-41.9	18.9	0.00e+00	0	25	0	786432000	52	7139
2026-01-09 11:44:33.35	94.09	6.25	-40.3	-42.0	18.4	0.00e+00	0	25	0	788529152	52	7171
2026-01-09 11:44:34.36	94.23	6.22	-40.7	-42.5	18.2	0.00e+00	0	25	0	789577728	52	7607
2026-01-09 11:44:35.36	94.38	6.19	-40.5	-42.4	18.2	0.00e+00	0	25	0	791674880	54	6699
2026-01-09 11:44:36.38	94.52	6.16	-40.6	-42.8	17.8	0.00e+00	0	25	0	793772032	54	7077
2026-01-09 11:44:37.38	94.67	6.13	-40.5	-43.0	17.6	0.00e+00	0	25	0	795869184	54	7171
2026-01-09 11:44:38.40	94.82	6.10	-40.5	-43.3	17.3	0.00e+00	0	25	0	797966336	54	7453
2026-01-09 11:44:39.40	94.96	6.07	-40.6	-43.5	17.1	0.00e+00	0	25	0	800063488	54	7646
2026-01-09 11:44:40.41	95.10	6.04	-40.6	-43.1	17.4	0.00e+00	0	25	0	801112064	54	7323
2026-01-09 11:44:41.42	95.25	6.01	-40.6	-43.0	17.6	0.00e+00	0	25	0	803209216	54	7217
2026-01-09 11:44:42.43	95.39	5.98	-40.8	-43.1	17.5	0.00e+00	0	25	0	805306368	54	7260
2026-01-09 11:44:43.44	95.54	5.94	-40.4	-42.4	18.1	0.00e+00	0	25	0	807403520	54	6735
2026-01-09 11:44:44.45	95.68	5.91	-40.2	-41.9	18.8	0.00e+00	0	25	0	809500672	54	6385
2026-01-09 11:44:45.46	95.82	5.88	-39.9	-41.5	18.9	0.00e+00	0	25	0	810549248	54	6076
2026-01-09 11:44:46.47	95.97	5.85	-39.8	-41.5	19.1	0.00e+00	0	25	0	812646400	54	6039
2026-01-09 11:44:47.48	96.11	5.82	-39.9	-41.5	19.1	0.00e+00	0	25	0	814743552	52	6790
2026-01-09 11:44:48.49	96.25	5.79	-39.9	-41.5	18.9	0.00e+00	0	25	0	816840704	52	6840
2026-01-09 11:44:49.50	96.39	5.76	-39.9	-41.5	19.0	0.00e+00	0	25	0	818937856	52	6837
2026-01-09 11:44:50.51	96.53	5.72	-39.8	-41.5	19.0	0.00e+00	0	25	0	819986432	52	6784
2026-01-09 11:44:51.52	96.68	5.69	-39.7	-41.4	19.2	0.00e+00	0	25	0	822083584	52	6703
2026-01-09 11:44:52.52	96.82	5.66	-40.0	-41.7	18.8	0.00e+00	0	25	0	824180736	52	6977
2026-01-09 11:44:53.53	96.96	5.63	-40.1	-41.9	18.6	0.00e+00	0	25	0	826277888	52	7146
2026-01-09 11:44:54.54	97.10	5.60	-40.0	-41.8	18.7	0.00e+00	0	25	0	828375040	52	7045
2026-01-09 11:44:55.55	97.24	5.56	-40.2	-42.0	18.5	0.00e+00	0	25	0	829423616	52	7228
2026-01-09 11:44:56.55	97.38	5.53	-40.3	-42.3	18.3	0.00e+00	0	25	0	831520768	52	7424
2026-01-09 11:44:57.57	97.52	5.50	-40.1	-42.1	18.4	0.00e+00	0	25	0	833617920	52	7308
2026-01-09 11:44:58.58	97.66	5.47	-40.0	-42.2	18.4	0.00e+00	0	25	0	835715072	52	7356
2026-01-09 11:44:59.58	97.79	5.43	-40.3	-42.6	18.0	0.00e+00	0	25	0	837812224	52	7693
2026-01-09 11:45:00.59	97.93	5.40	-40.5	-42.6	18.0	0.00e+00	0	25	0	838860800	52	7763
2026-01-09 11:45:01.59	98.07	5.37	-40.1	-42.0	18.5	0.00e+00	0	25	0	840957952	52	7198
2026-01-09 11:45:02.60	98.21	5.34	-40.2	-41.9	18.6	0.00e+00	0	25	0	843055104	52	7128
2026-01-09 11:45:03.61	98.35	5.30	-40.0	-41.7	18.8	0.00e+00	0	25	0	845152256	52	6933
2026-01-09 11:45:04.62	98.48	5.27	-40.1	-41.7	18.7	0.00e+00	0	25	0	847249408	52	6974
2026-01-09 11:45:05.63	98.62	5.24	-39.9	-41.4	19.2	0.00e+00	0	25	0	848297984	52	6734
2026-01-09 11:45:06.64	98.76	5.20	-39.7	-41.1	19.3	0.00e+00	0	25	0	850395136	52	6537
2026-01-09 11:45:07.64	98.89	5.17	-39.7	-41.3	19.2	0.00e+00	0	25	0	852492288	52	6622
2026-01-09 11:45:08.65	99.03	5.14	-39.5	-41.0	19.4	0.00e+00	0	25	0	854589440	52	6418
2026-01-09 11:45:09.66	99.17	5.10	-39.6	-41.1	19.3	0.00e+00	0	25	0	856686592	52	6529
2026-01-09 11:45:10.67	99.30	5.07	-39.6	-41.3	19.1	0.00e+00	0	25	0	857735168	52	6660
2026-01-09 11:45:11.68	99.44	5.03	-39.7	-41.5	18.9	0.00e+00	0	25	0	859832320	52	6825
2026-01-09 11:45:12.69	99.57	5.00	-39.4	-41.5	18.8	0.00e+00	0	25	0	861929472	52	6844
2026-01-09 11:45:13.70	99.71	4.97	-39.3	-41.5	18.7	0.00e+00	0	25	0	864026624	52	6821
2026-01-09 11:45:14.71	99.84	4.93	-39.6	-41.9	18.5	0.00e+00	0	25	0	866123776	52	7168
2026-01-09 11:45:15.72	99.98	4.90	-39.9	-42.2	18.1	0.00e+00	0	25	0	867172352	52	7403
2026-01-09 11:45:16.73	100.11	4.86	-40.2	-42.4	18.0	0.00e+00	0	25	0	869269504	52	7567
2026-01-09 11:45:17.74	100.24	4.83	-40.3	-42.5	17.9	0.00e+00	0	25	0	871366656	52	7619
2026-01-09 11:45:18.75	100.38	4.79	-39.9	-42.0	18.3	0.00e+00	0	25	0	873463808	52	7253
2026-01-09 11:45:19.75	100.51	4.76	-40.0	-42.0	18.3	0.00e+00	0	25	0	875560960	52	7248
2026-01-09 11:45:20.76	100.64	4.73	-40.1	-42.0	18.4	0.00e+00	0	25	0	876609536	52	7234
2026-01-09 11:45:21.77	100.77	4.69	-39.6	-41.3	19.1	0.00e+00	0	25	0	878706688	52	6620
2026-01-09 11:45:22.78	100.91	4.66	-39.5	-41.0	19.4	0.00e+00	0	25	0	880803840	52	6442
2026-01-09 11:45:23.79	101.04	4.62	-39.2	-40.8	19.5	0.00e+00	0	25	0	882900992	52	6274
2026-01-09 11:45:24.80	101.17	4.59	-39.0	-40.6	19.7	0.00e+00	0	25	0	884998144	52	6128
2026-01-09 11:45:25.81	101.30	4.55	-38.9	-40.6	19.7	0.00e+00	0	25	0	886046720	52	6155
2026-01-09 11:45:26.82	101.43	4.52	-38.7	-40.4	19.8	0.00e+00	0	25	0	888143872	52	5993
2026-01-09 11:45:27.82	101.56	4.48	-38.6	-40.4	19.8	0.00e+00	0	25	0	890241024	50	6697
2026-01-09 11:45:28.83	101.69	4.45	-38.7	-40.4	19.8	0.00e+00	0	25	0	892338176	50	6747
2026-01-09 11:45:29.84	101.82	4.41	-39.0	-40.6	19.6	0.00e+00	0	25	0	894435328	50	6902
2026-01-09 11:45:30.85	101.95	4.38	-39.2	-40.7	19.5	0.00e+00	0	25	0	896532480	50	6960
2026-01-09 11:45:31.86	102.08	4.34	-39.5	-41.1	19.1	0.00e+00	0	25	0	897581056	50	7316
2026-01-09 11:45:32.87	102.21	4.30	-39.3	-40.8	19.5	0.00e+00	0	25	0	899678208	52	6255
2026-01-09 11:45:33.88	102.34	4.27	-39.2	-40.7	19.5	0.00e+00	0	25	0	901775360	52	6190
2026-01-09 11:45:34.89	102.47	4.23	-39.6	-41.2	19.1	0.00e+00	0	25	0	903872512	52	6579
2026-01-09 11:45:35.90	102.60	4.20	-39.6	-41.2	19.0	0.00e+00	0	25	0	905969664	52	6580
2026-01-09 11:45:36.91	102.72	4.16	-39.3	-41.0	19.2	0.00e+00	0	25	0	907018240	52	6411
2026-01-09 11:45:37.92	102.85	4.13	-39.2	-41.1	19.1	0.00e+00	0	25	0	909115392	52	6514
2026-01-09 11:45:38.93	102.98	4.09	-39.0	-41.0	19.1	0.00e+00	0	25	0	911212544	52	6430
2026-01-09 11:45:39.93	103.11	4.05	-39.5	-41.6	18.6	0.00e+00	0	25	0	913309696	52	6858
2026-01-09 11:45:40.94	103.23	4.02	-39.9	-41.9	18.5	0.00e+00	0	25	0	915406848	52	7132
2026-01-09 11:45:41.95	103.36	3.98	-40.0	-41.7	18.5	0.00e+00	0	25	0	916455424	52	6971
2026-01-09 11:45:42.96	103.49	3.95	-39.8	-41.5	18.6	0.00e+00	0	25	0	918552576	52	6796
2026-01-09 11:45:43.97	103.61	3.91	-39.7	-41.7	18.4	0.00e+00	0	25	0	920649728	52	6991
2026-01-09 11:45:44.98	103.74	3.87	-39.1	-41.4	18.7	0.00e+00	0	25	0	922746880	52	6729
2026-01-09 11:45:45.99	103.86	3.84	-38.7	-41.3	18.8	0.00e+00	0	25	0	924844032	50	7475
2026-01-09 11:45:47.00	103.99	3.80	-38.1	-40.5	19.4	0.00e+00	0	25	0	925892608	50	6842
2026-01-09 11:45:48.01	104.11	3.76	-38.1	-40.5	19.4	0.00e+00	0	25	0	927989760	50	6770
2026-01-09 11:45:49.02	104.24	3.73	-38.3	-40.6	19.5	0.00e+00	0	25	0	930086912	50	6914
2026-01-09 11:45:50.03	104.36	3.69	-38.1	-40.2	19.7	0.00e+00	0	25	0	932184064	50	6581
2026-01-09 11:45:51.04	104.48	3.65	-38.7	-40.8	19.1	0.00e+00	0	25	0	934281216	50	7037
2026-01-09 11:45:52.05	104.61	3.62	-38.3	-40.2	19.6	0.00e+00	0	25	0	935329792	50	6603
2026-01-09 11:45:53.06	104.73	3.58	-38.1	-40.3	19.5	0.00e+00	0	25	0	937426944	50	6617
2026-01-09 11:45:54.07	104.85	3.54	-38.1	-40.6	19.3	0.00e+00	0	25	0	939524096	50	6859
2026-01-09 11:45:55.08	104.98	3.51	-38.2	-40.9	18.9	0.00e+00	0	25	0	941621248	50	7141
2026-01-09 11:45:56.09	105.10	3.47	-38.3	-40.5	19.2	0.00e+00	0	25	0	943718400	50	6827
2026-01-09 11:45:57.10	105.22	3.43	-38.5	-40.6	19.1	0.00e+00	0	25	0	944766976	50	6864
2026-01-09 11:45:58.11	105.34	3.40	-39.4	-41.6	18.1	0.00e+00	0	25	0	946864128	50	7753
2026-01-09 11:45:59.11	105.46	3.36	-38.9	-41.0	18.7	0.00e+00	0	25	0	948961280	50	7182
2026-01-09 11:46:00.12	105.58	3.32	-38.7	-40.8	18.9	0.00e+00	0	25	0	951058432	50	7045
2026-01-09 11:46:01.13	105.70	3.28	-38.5	-40.4	19.1	0.00e+00	0	25	0	953155584	50	6755
2026-01-09 11:46:02.14	105.82	3.25	-39.3	-41.2	18.4	0.00e+00	0	25	0	954204160	50	7393
2026-01-09 11:46:03.15	105.95	3.21	-39.3	-41.0	18.4	0.00e+00	0	25	0	956301312	50	7181
2026-01-09 11:46:04.16	106.07	3.17	-39.1	-40.8	18.5	0.00e+00	0	25	0	958398464	50	7062
2026-01-09 11:46:05.17	106.18	3.13	-38.8	-40.7	18.6	0.00e+00	0	25	0	960495616	50	6961
2026-01-09 11:46:06.18	106.30	3.10	-38.4	-40.6	18.6	0.00e+00	0	25	0	962592768	50	6899
2026-01-09 11:46:07.19	106.42	3.06	-38.7	-41.1	18.2	0.00e+00	0	25	0	964689920	50	7329
2026-01-09 11:46:08.20	106.54	3.02	-39.0	-41.3	17.5	0.00e+00	0	25	0	965738496	50	7499
2026-01-09 11:46:09.21	106.66	2.98	-44.8	-61.9	3.6	1.16e+00	0	25	104	966787072	60	45043
2026-01-09 11:46:10.22	106.78	2.95	-46.5	-62.4	3.6	1.51e+00	0	25	104	966787072	60	47589
2026-01-09 11:46:11.23	106.90	2.91	-47.4	-62.6	3.6	1.51e+00	0	25	104	966787072	60	49001
2026-01-09 11:46:12.24	107.01	2.87	-47.5	-62.8	3.6	1.51e+00	0	25	104	966787072	60	49755
2026-01-09 11:46:13.25	107.13	2.83	-47.5	-62.9	3.6	1.51e+00	0	25	104	966787072	60	50316
2026-01-09 11:46:14.26	107.25	2.80	-47.5	-62.9	3.6	1.51e+00	0	25	104	966787072	60	50349
2026-01-09 11:46:15.27	107.37	2.76	-47.6	-63.0	3.6	1.51e+00	0	25	104	966787072	60	50943
2026-01-09 11:46:16.28	107.48	2.72	-47.7	-62.9	3.6	1.51e+00	0	25	104	966787072	60	50638
2026-01-09 11:46:17.29	107.60	2.68	-47.8	-63.0	3.6	1.51e+00	0	25	104	966787072	60	50880
2026-01-09 11:46:18.30	107.71	2.64	-47.7	-63.0	3.6	1.51e+00	0	25	104	966787072	60	50880
2026-01-09 11:46:19.31	107.83	2.60	-47.7	-62.9	3.6	1.51e+00	0	25	104	966787072	60	50651
2026-01-09 11:46:20.32	107.95	2.57	-47.6	-62.9	3.6	1.51e+00	0	25	104	966787072	60	50576
2026-01-09 11:46:21.33	108.06	2.53	-47.5	-62.9	3.6	1.51e+00	0	25	104	966787072	60	50548
2026-01-09 11:46:22.34	108.18	2.49	-47.7	-62.9	3.6	1.51e+00	0	25	104	966787072	60	50620
2026-01-09 11:46:23.35	108.29	2.45	-47.6	-62.9	3.6	1.51e+00	0	25	104	966787072	60	50357
2026-01-09 11:46:24.36	108.40	2.41	-47.7	-62.9	3.6	1.51e+00	0	25	104	966787072	60	50531
2026-01-09 11:46:25.36	108.52	2.38	-47.7	-63.0	3.6	1.51e+00	0	25	104	966787072	60	50865
2026-01-09 11:46:26.37	108.63	2.34	-47.7	-62.9	3.6	1.51e+00	0	25	104	966787072	60	50634
2026-01-09 11:46:27.38	108.74	2.30	-47.7	-62.9	3.6	1.51e+00	0	25	104	966787072	60	50652
2026-01-09 11:46:28.39	108.86	2.26	-47.7	-62.9	3.6	1.51e+00	0	25	104	966787072	60	50287
2026-01-09 11:46:29.40	108.97	2.22	-47.7	-62.9	3.6	1.51e+00	0	25	104	966787072	60	50449
2026-01-09 11:46:30.41	109.08	2.18	-47.7	-62.9	3.6	1.51e+00	0	25	104	966787072	60	50280
2026-01-09 11:46:31.42	109.19	2.15	-47.8	-62.9	3.6	1.51e+00	0	25	104	966787072	60	50575
2026-01-09 11:46:32.43	109.31	2.11	-47.7	-62.9	3.6	1.51e+00	0	25	104	966787072	60	50491
2026-01-09 11:46:33.44	109.42	2.07	-47.7	-62.9	3.6	1.51e+00	0	25	104	966787072	60	50450
2026-01-09 11:46:34.45	109.53	2.03	-47.7	-62.9	3.6	1.51e+00	0	25	104	966787072	60	50702
2026-01-09 11:46:35.46	109.64	1.99	-47.7	-62.9	3.6	1.51e+00	0	25	104	966787072	60	50435
2026-01-09 11:46:36.47	109.75	1.95	-47.7	-62.9	3.6	1.51e+00	0	25	104	966787072	60	50459
2026-01-09 11:46:37.48	109.86	1.91	-47.7	-62.9	3.6	1.51e+00	0	25	104	966787072	60	50235
2026-01-09 11:46:38.49	109.97	1.87	-47.7	-62.9	3.6	1.51e+00	0	25	104	966787072	60	50359
2026-01-09 11:46:39.50	110.08	1.84	-47.7	-62.9	3.6	1.51e+00	0	25	104	966787072	60	50515
2026-01-09 11:46:40.51	110.19	1.80	-47.7	-62.8	3.6	1.51e+00	0	25	104	966787072	60	50007
2026-01-09 11:46:41.52	110.30	1.76	-47.7	-62.9	3.6	1.51e+00	0	25	104	966787072	60	50393
2026-01-09 11:46:42.53	110.41	1.72	-47.7	-62.9	3.6	1.51e+00	0	25	104	966787072	60	50425
2026-01-09 11:46:43.54	110.52	1.68	-47.7	-62.9	3.6	1.51e+00	0	25	104	966787072	60	50355
2026-01-09 11:46:44.55	110.63	1.64	-47.7	-62.9	3.6	1.51e+00	0	25	104	966787072	60	50244
2026-01-09 11:46:45.56	110.74	1.60	-47.7	-62.9	3.6	1.51e+00	0	25	104	966787072	60	50399
2026-01-09 11:46:46.57	110.84	1.56	-47.7	-62.9	3.6	1.51e+00	0	25	104	966787072	60	50427
2026-01-09 11:46:47.58	110.95	1.52	-47.7	-62.9	3.6	1.51e+00	0	25	104	966787072	60	50325
2026-01-09 11:46:48.59	111.06	1.48	-47.7	-63.0	3.6	1.51e+00	0	25	104	966787072	60	50767
2026-01-09 11:46:49.60	111.17	1.45	-47.7	-62.9	3.6	1.51e+00	0	25	104	966787072	60	50454
2026-01-09 11:46:50.61	111.27	1.41	-47.7	-62.8	3.6	1.51e+00	0	25	104	966787072	60	49997
2026-01-09 11:46:51.62	111.38	1.37	-47.7	-62.9	3.6	1.51e+00	0	25	104	966787072	60	50349
2026-01-09 11:46:52.62	111.49	1.33	-47.7	-62.9	3.6	1.51e+00	0	25	104	966787072	60	50506
2026-01-09 11:46:53.63	111.59	1.29	-47.8	-63.0	3.6	1.51e+00	0	25	104	966787072	60	50774
2026-01-09 11:46:54.64	111.70	1.25	-47.7	-62.9	3.6	1.51e+00	0	25	104	966787072	60	50348
2026-01-09 11:46:55.65	111.80	1.21	-47.7	-62.9	3.6	1.51e+00	0	25	104	966787072	60	50537
2026-01-09 11:46:56.66	111.91	1.17	-47.7	-62.8	3.6	1.51e+00	0	25	104	966787072	60	50154
2026-01-09 11:46:57.67	112.01	1.13	-47.7	-62.9	3.6	1.51e+00	0	25	104	966787072	60	50312
2026-01-09 11:46:58.68	112.12	1.09	-47.7	-62.9	3.6	1.51e+00	0	25	104	966787072	60	50439
2026-01-09 11:46:59.69	112.22	1.05	-47.7	-62.9	3.6	1.51e+00	0	25	104	966787072	60	50424
2026-01-09 11:47:00.70	112.33	1.01	-47.7	-62.9	3.6	1.51e+00	0	25	104	966787072	60	50504
2026-01-09 11:47:01.71	112.43	0.97	-47.8	-63.0	3.6	1.51e+00	0	25	104	966787072	60	50933
2026-01-09 11:47:02.72	112.54	0.94	-47.7	-62.9	3.6	1.51e+00	0	25	104	966787072	60	50586
2026-01-09 11:47:03.73	112.64	0.90	-47.7	-62.9	3.6	1.51e+00	0	25	104	966787072	60	50695
2026-01-09 11:47:04.74	112.74	0.86	-47.7	-62.9	3.6	1.51e+00	0	25	104	966787072	60	50574
2026-01-09 11:47:05.75	112.85	0.82	-47.7	-62.9	3.6	1.51e+00	0	25	104	966787072	60	50563
2026-01-09 11:47:06.76	112.95	0.78	-47.7	-62.9	3.6	1.51e+00	0	25	104	966787072	60	50250
2026-01-09 11:47:07.77	113.05	0.74	-47.7	-62.9	3.6	1.51e+00	0	25	104	966787072	60	50498
2026-01-09 11:47:08.78	113.15	0.70	-47.7	-62.9	3.6	1.51e+00	0	25	104	966787072	60	50244
2026-01-09 11:47:09.79	113.26	0.66	-47.7	-62.9	3.6	1.51e+00	0	25	104	966787072	60	50539
2026-01-09 11:47:10.80	113.36	0.62	-47.8	-63.0	3.6	1.51e+00	0	25	104	966787072	60	51047
2026-01-09 11:47:11.81	113.46	0.58	-47.7	-62.9	3.6	1.51e+00	0	25	104	966787072	60	50425
2026-01-09 11:47:12.82	113.56	0.54	-47.7	-62.8	3.6	1.51e+00	0	25	104	966787072	60	49979
2026-01-09 11:47:13.83	113.66	0.50	-47.7	-62.9	3.6	1.51e+00	0	25	104	966787072	60	50665
2026-01-09 11:47:14.84	113.76	0.46	-47.8	-63.0	3.6	1.51e+00	0	25	104	966787072	60	50962
2026-01-09 11:47:15.85	113.86	0.42	-47.8	-63.0	3.6	1.51e+00	0	25	104	966787072	60	51208
2026-01-09 11:47:16.86	113.96	0.38	-47.7	-62.9	3.6	1.51e+00	0	25	104	966787072	60	50324
2026-01-09 11:47:17.87	114.06	0.34	-47.7	-62.9	3.6	1.51e+00	0	25	104	966787072	60	50726
2026-01-09 11:47:18.88	114.16	0.30	-47.7	-62.9	3.6	1.51e+00	0	25	104	966787072	60	50664
2026-01-09 11:47:19.89	114.26	0.26	-47.7	-62.9	3.6	1.51e+00	0	25	104	966787072	60	50432
2026-01-09 11:47:20.89	114.36	0.22	-47.8	-63.0	3.6	1.51e+00	0	25	104	966787072	60	50814
2026-01-09 11:47:21.90	114.46	0.18	-47.8	-63.0	3.6	1.51e+00	0	25	104	966787072	60	50810
2026-01-09 11:47:22.91	114.56	0.14	-47.7	-63.0	3.6	1.51e+00	0	25	104	966787072	60	50818
2026-01-09 11:47:23.92	114.66	0.10	-47.8	-62.9	3.6	1.51e+00	0	25	104	966787072	60	50651
2026-01-09 11:47:24.93	114.76	0.06	-47.8	-62.9	3.6	1.51e+00	0	25	104	966787072	60	50749
2026-01-09 11:47:25.94	114.85	0.02	-47.7	-62.8	3.6	1.51e+00	0	25	104	966787072	60	50176
2026-01-09 11:47:26.95	114.95	-0.02	-47.8	-63.0	3.6	1.51e+00	0	25	104	966787072	60	50992

#Closed at: 2026-01-09 11:47:27
#Recorded file [966 MB]: D:/lorett/data/35029_260109_233620.dat