passes_logs/2026/01/09/R4.6S_Anadyr/R4.6S_Anadyr__20260109_163405_AQUA_rec.log

#Pass ID: 20260109_163405_AQUA
#Satellite: AQUA
#Configuration: AQUA
#almurnet v.1.7.20251203
#Start time: 2026-01-09 16:34:06

#Version: 2.2.20231116
#Station: R4.6S_Anadyr
#Location: 177.4865 lon 64.73178 lat
#TLE: 1 27424U 02022A   26009.00333547  .00001046  00000+0  21942-3 0  9998
#TLE: 2 27424  98.4075 335.3304 0002026  85.7625 349.1392 14.61808998260012

#Time	Az	El	Level	Level2	SNR	BER	BlckErr	Temp	State	Recorded	gain1	gain2
2026-01-09 16:34:06.46	20.00	0.09	-47.8	-59.4	3.5	8.46e-01	0	21	0	0	60	33603
2026-01-09 16:34:07.47	20.00	0.15	-48.2	-66.0	3.5	3.02e+01	0	22	104	0	60	76499
2026-01-09 16:34:08.48	20.00	0.21	-48.3	-66.1	3.5	3.02e+01	0	22	104	0	60	77697
2026-01-09 16:34:09.49	20.00	0.27	-48.2	-66.0	3.5	3.02e+01	0	23	104	0	60	76540
2026-01-09 16:34:10.50	20.00	0.34	-48.2	-66.1	3.5	3.02e+01	0	23	104	0	60	77333
2026-01-09 16:34:11.50	19.99	0.40	-48.2	-66.0	3.5	3.02e+01	0	23	104	0	60	77014
2026-01-09 16:34:12.51	19.99	0.46	-48.2	-66.0	3.5	3.02e+01	0	23	104	0	60	77030
2026-01-09 16:34:13.52	19.99	0.52	-48.1	-65.9	3.5	3.02e+01	0	23	104	0	60	75905
2026-01-09 16:34:14.53	19.99	0.59	-48.1	-65.9	3.5	3.02e+01	0	23	104	0	60	75925
2026-01-09 16:34:15.54	19.98	0.65	-48.0	-65.9	3.5	3.02e+01	0	23	104	0	60	75532
2026-01-09 16:34:16.55	19.98	0.71	-47.9	-65.8	3.5	3.02e+01	0	23	104	0	60	74750
2026-01-09 16:34:17.56	19.98	0.78	-47.7	-65.7	3.5	3.02e+01	0	23	104	0	60	73921
2026-01-09 16:34:18.57	19.98	0.84	-47.6	-65.5	3.5	3.02e+01	0	23	104	0	60	72696
2026-01-09 16:34:19.58	19.97	0.91	-47.4	-65.3	3.5	3.02e+01	0	23	104	0	60	70928
2026-01-09 16:34:20.59	19.97	0.97	-47.3	-65.1	3.5	3.02e+01	0	23	104	0	60	69059
2026-01-09 16:34:21.60	19.97	1.03	-47.1	-64.8	3.5	3.02e+01	0	23	104	0	60	67261
2026-01-09 16:34:22.61	19.97	1.10	-46.7	-64.3	3.5	3.02e+01	0	23	104	0	60	63063
2026-01-09 16:34:23.61	19.96	1.16	-46.7	-64.4	3.5	3.02e+01	0	23	104	0	60	63991
2026-01-09 16:34:24.63	19.96	1.23	-46.7	-64.5	3.5	3.02e+01	0	23	104	0	60	64421
2026-01-09 16:34:25.64	19.96	1.29	-46.7	-64.5	3.5	3.02e+01	0	23	104	0	60	64549
2026-01-09 16:34:26.65	19.95	1.36	-46.7	-64.4	3.5	3.02e+01	0	23	104	0	60	64084
2026-01-09 16:34:27.65	19.95	1.42	-46.7	-64.2	3.5	3.02e+01	0	23	104	0	60	62062
2026-01-09 16:34:28.66	19.95	1.49	-46.6	-63.9	3.5	3.02e+01	0	23	104	0	60	59959
2026-01-09 16:34:29.68	19.95	1.55	-46.6	-63.3	3.5	3.02e+01	0	23	104	0	60	56147
2026-01-09 16:34:30.69	19.94	1.62	-46.6	-62.9	3.5	3.02e+01	0	23	104	0	60	53561
2026-01-09 16:34:31.70	19.94	1.69	-46.6	-62.9	3.5	3.02e+01	0	23	104	0	60	53662
2026-01-09 16:34:32.71	19.94	1.75	-46.6	-63.0	3.6	3.02e+01	0	23	104	0	60	54418
2026-01-09 16:34:33.72	19.93	1.82	-46.6	-63.2	3.5	3.02e+01	0	23	104	0	60	55848
2026-01-09 16:34:34.72	19.93	1.88	-46.6	-63.5	3.5	3.02e+01	0	23	104	0	60	57658
2026-01-09 16:34:35.73	19.93	1.95	-46.7	-64.0	3.5	3.02e+01	0	23	104	0	60	60708
2026-01-09 16:34:36.74	19.93	2.02	-46.7	-64.2	3.5	3.02e+01	0	23	104	0	60	62573
2026-01-09 16:34:37.75	19.92	2.08	-46.7	-64.4	3.5	3.02e+01	0	23	104	0	60	63771
2026-01-09 16:34:38.76	19.92	2.15	-46.7	-64.3	3.5	3.02e+01	0	23	104	0	60	63257
2026-01-09 16:34:39.77	19.92	2.22	-46.7	-64.2	3.5	3.02e+01	0	23	104	0	60	62143
2026-01-09 16:34:40.78	19.91	2.29	-46.6	-64.0	3.6	3.02e+01	0	23	104	0	60	60839
2026-01-09 16:34:41.79	19.91	2.35	-46.6	-63.5	3.5	3.02e+01	0	23	104	0	60	57487
2026-01-09 16:34:42.80	19.91	2.42	-46.6	-62.8	3.5	3.02e+01	0	23	104	0	60	53328
2026-01-09 16:34:43.81	19.90	2.49	-46.6	-61.8	3.6	3.02e+01	0	23	104	0	60	47201
2026-01-09 16:34:44.82	19.90	2.56	-46.5	-60.1	4.6	3.02e+01	0	23	104	0	60	38994
2026-01-09 16:34:45.83	19.90	2.62	-46.4	-59.0	5.3	3.02e+01	7	23	104	0	60	34104
2026-01-09 16:34:46.84	19.89	2.69	-46.3	-57.3	5.7	3.02e+01	92	23	0	524288	60	28076
2026-01-09 16:34:47.85	19.89	2.76	-46.3	-57.6	6.4	3.02e+01	92	23	104	1048576	60	29322
2026-01-09 16:34:48.86	19.88	2.83	-46.3	-56.7	6.6	3.02e+01	92	23	0	1572864	60	26227
2026-01-09 16:34:49.87	19.88	2.90	-46.3	-56.6	6.3	3.02e+01	92	23	0	3145728	60	25959
2026-01-09 16:34:50.88	19.88	2.97	-46.2	-55.4	7.5	3.02e+01	92	23	0	5242880	60	22747
2026-01-09 16:34:51.89	19.87	3.04	-45.8	-53.6	9.6	3.02e+01	47	23	0	7340032	60	18521
2026-01-09 16:34:52.90	19.87	3.11	-45.2	-51.3	12.4	3.02e+01	60	23	0	8912896	60	14216
2026-01-09 16:34:53.90	19.87	3.18	-44.0	-48.1	15.8	3.02e+01	60	23	0	11010048	60	9834
2026-01-09 16:34:54.91	19.86	3.25	-43.0	-46.4	17.7	3.02e+01	59	23	0	12582912	60	8045
2026-01-09 16:34:55.92	19.86	3.32	-42.0	-44.8	19.3	3.02e+01	57	23	0	14680064	60	6685
2026-01-09 16:34:56.93	19.85	3.39	-40.9	-43.2	20.9	3.02e+01	60	23	0	16777216	58	6234
2026-01-09 16:34:57.94	19.85	3.46	-40.5	-42.7	21.2	3.02e+01	60	23	0	18350080	56	6585
2026-01-09 16:34:58.95	19.85	3.53	-40.2	-42.3	21.7	3.02e+01	59	23	0	20447232	56	6286
2026-01-09 16:34:59.96	19.84	3.60	-39.7	-41.7	22.2	3.02e+01	52	23	0	22020096	54	6618
2026-01-09 16:35:00.97	19.84	3.67	-40.1	-42.2	21.7	3.02e+01	60	23	0	24117248	54	6965
2026-01-09 16:35:01.98	19.83	3.74	-40.5	-42.7	21.2	3.02e+01	63	23	0	26214400	54	7394
2026-01-09 16:35:02.99	19.83	3.81	-41.2	-43.6	20.2	3.02e+01	56	23	0	27787264	56	7309
2026-01-09 16:35:04.00	19.82	3.89	-42.5	-45.5	18.2	3.02e+01	60	23	0	29884416	58	8167
2026-01-09 16:35:05.01	19.82	3.96	-36.1	-37.6	26.2	3.02e+01	50	23	0	31981568	48	5808
2026-01-09 16:35:06.02	19.82	4.03	-42.3	-45.1	18.7	3.02e+01	60	23	0	33554432	56	8686
2026-01-09 16:35:07.03	19.81	4.10	-46.4	-61.4	3.6	3.02e+01	0	23	104	35127296	60	45254
2026-01-09 16:35:08.04	19.81	4.18	-37.6	-39.2	24.8	3.02e+01	36	23	0	35127296	50	6260
2026-01-09 16:35:09.05	19.80	4.25	-46.5	-59.2	3.8	3.02e+01	0	23	104	36700160	60	35291
2026-01-09 16:35:10.06	19.80	4.32	-37.7	-39.2	24.6	3.02e+01	60	23	0	36700160	50	6271
2026-01-09 16:35:11.07	19.79	4.39	-37.5	-39.1	24.7	3.02e+01	60	23	0	38797312	50	6186
2026-01-09 16:35:12.08	19.79	4.47	-37.6	-39.2	24.6	3.02e+01	60	23	0	40894464	50	6242
2026-01-09 16:35:13.09	19.78	4.54	-37.3	-38.8	24.9	3.02e+01	51	23	0	42467328	50	5976
2026-01-09 16:35:14.10	19.78	4.62	-37.3	-38.9	24.9	3.02e+01	58	23	0	44564480	50	6013
2026-01-09 16:35:15.11	19.77	4.69	-38.0	-39.6	24.5	3.02e+01	58	23	0	46137344	50	6540
2026-01-09 16:35:16.12	19.77	4.76	-38.2	-39.8	24.2	3.02e+01	47	23	0	48234496	50	6713
2026-01-09 16:35:17.13	19.76	4.84	-37.8	-39.4	24.5	3.02e+01	59	23	0	50331648	50	6419
2026-01-09 16:35:18.13	19.76	4.91	-38.4	-40.1	24.3	3.02e+01	46	23	0	51904512	50	6887
2026-01-09 16:35:19.14	19.75	4.99	-38.3	-40.0	24.0	3.02e+01	59	23	0	54001664	50	6816
2026-01-09 16:35:20.15	19.75	5.06	-37.3	-38.9	25.4	3.02e+01	59	23	0	55574528	50	6008
2026-01-09 16:35:21.17	19.74	5.14	-36.2	-37.6	26.4	3.02e+01	54	23	0	57671680	48	5847
2026-01-09 16:35:22.17	19.74	5.22	-35.7	-37.1	26.9	3.02e+01	58	23	0	59768832	46	6184
2026-01-09 16:35:23.18	19.73	5.29	-35.8	-37.1	26.9	3.02e+01	60	23	0	61341696	46	6193
2026-01-09 16:35:24.19	19.73	5.37	-35.9	-37.3	26.6	3.02e+01	59	23	0	63438848	46	6319
2026-01-09 16:35:25.20	19.72	5.44	-35.9	-37.2	26.7	3.02e+01	62	23	0	65536000	46	6275
2026-01-09 16:35:26.21	19.72	5.52	-35.8	-37.1	26.9	3.02e+01	45	23	0	67108864	46	6189
2026-01-09 16:35:27.22	19.71	5.60	-35.8	-37.2	26.9	3.02e+01	57	23	0	69206016	46	6236
2026-01-09 16:35:28.23	19.71	5.68	-35.5	-36.8	27.2	3.02e+01	57	23	0	70778880	46	5993
2026-01-09 16:35:29.24	19.70	5.75	-35.7	-37.0	27.1	3.02e+01	44	23	0	72876032	46	6106
2026-01-09 16:35:30.25	19.70	5.83	-35.5	-36.8	27.3	3.02e+01	59	23	0	74973184	46	5959
2026-01-09 16:35:31.26	19.69	5.91	-35.5	-36.8	27.2	3.02e+01	56	23	0	76546048	46	5986
2026-01-09 16:35:32.27	19.68	5.99	-35.4	-36.8	27.3	3.02e+01	59	23	0	78643200	46	5929
2026-01-09 16:35:33.28	19.68	6.07	-35.5	-36.8	27.3	3.02e+01	55	23	0	80216064	46	5949
2026-01-09 16:35:34.29	19.67	6.15	-35.5	-36.9	27.2	3.02e+01	62	23	0	82313216	46	6010
2026-01-09 16:35:35.56	19.67	6.25	-35.5	-36.8	27.3	3.02e+01	62	23	0	84410368	46	5975
2026-01-09 16:35:36.28	19.66	6.30	-35.4	-36.7	27.4	3.02e+01	59	23	0	85458944	46	5880
2026-01-09 16:35:37.58	19.65	6.40	-35.4	-36.7	27.4	3.02e+01	45	23	0	88080384	46	5883
2026-01-09 16:35:38.30	19.65	6.46	-35.3	-36.6	27.5	3.02e+01	60	23	0	89128960	46	5827
2026-01-09 16:35:39.60	19.64	6.57	-35.4	-36.7	27.4	3.02e+01	60	23	0	91750400	46	5876
2026-01-09 16:35:40.32	19.64	6.62	-35.5	-36.8	27.3	3.02e+01	46	23	0	93323264	46	5944
2026-01-09 16:35:41.62	19.63	6.73	-35.2	-36.5	27.6	3.02e+01	59	23	0	95420416	46	5742
2026-01-09 16:35:42.34	19.62	6.78	-35.3	-36.6	27.5	3.02e+01	57	23	0	96993280	46	5819
2026-01-09 16:35:43.63	19.62	6.89	-35.0	-36.3	27.7	3.02e+01	59	23	0	99090432	46	5644
2026-01-09 16:35:44.35	19.61	6.95	-34.9	-36.2	27.9	3.02e+01	58	23	0	100663296	44	6212
2026-01-09 16:35:45.65	19.60	7.05	-35.0	-36.3	27.8	3.02e+01	45	23	0	103284736	44	6329
2026-01-09 16:35:46.37	19.60	7.11	-35.0	-36.3	27.7	3.02e+01	61	23	0	104333312	44	6331
2026-01-09 16:35:47.67	19.59	7.22	-34.9	-36.2	27.9	3.02e+01	59	23	0	106954752	44	6249
2026-01-09 16:35:48.39	19.58	7.28	-35.0	-36.3	27.8	3.02e+01	60	23	0	108527616	44	6293
2026-01-09 16:35:49.69	19.58	7.38	-34.9	-36.1	27.9	3.02e+01	59	23	0	110624768	44	6199
2026-01-09 16:35:50.41	19.57	7.44	-34.9	-36.2	27.9	3.02e+01	45	23	0	112197632	44	6226
2026-01-09 16:35:51.71	19.56	7.55	-34.8	-36.1	28.1	3.02e+01	59	23	0	114294784	44	6150
2026-01-09 16:35:52.44	19.56	7.61	-34.7	-36.0	28.1	3.02e+01	57	23	0	115867648	44	6100
2026-01-09 16:35:53.74	19.55	7.72	-34.8	-36.0	28.2	3.02e+01	44	23	0	118489088	44	6116
2026-01-09 16:35:54.46	19.54	7.78	-34.9	-36.2	28.0	3.02e+01	56	23	0	119537664	44	6242
2026-01-09 16:35:55.76	19.53	7.89	-34.7	-35.9	28.2	3.02e+01	53	23	0	122159104	44	6050
2026-01-09 16:35:56.48	19.53	7.95	-34.7	-36.0	28.1	3.02e+01	60	23	0	123207680	44	6068
2026-01-09 16:35:57.77	19.52	8.06	-34.6	-35.8	28.3	3.02e+01	57	23	0	125829120	44	5976
2026-01-09 16:35:58.50	19.51	8.12	-34.6	-35.9	28.2	3.02e+01	59	23	0	127401984	44	6024
2026-01-09 16:35:59.79	19.50	8.23	-34.7	-36.0	28.1	3.02e+01	59	23	0	129499136	44	6102
2026-01-09 16:36:00.51	19.50	8.29	-34.8	-36.1	28.1	3.02e+01	58	23	0	131072000	44	6157
2026-01-09 16:36:01.81	19.49	8.41	-34.5	-35.8	28.3	3.02e+01	56	23	0	133693440	44	5973
2026-01-09 16:36:02.54	19.48	8.47	-34.4	-35.6	28.5	3.02e+01	59	23	0	134742016	44	5858
2026-01-09 16:36:03.83	19.47	8.58	-34.6	-35.8	28.3	3.02e+01	44	23	0	137363456	44	5982
2026-01-09 16:36:04.56	19.47	8.65	-34.4	-35.7	28.4	3.02e+01	61	23	0	138412032	44	5889
2026-01-09 16:36:05.85	19.46	8.76	-34.5	-35.7	28.4	3.02e+01	52	24	0	141033472	44	5907
2026-01-09 16:36:06.58	19.45	8.82	-34.5	-35.8	28.4	3.02e+01	58	23	0	142082048	44	5951
2026-01-09 16:36:07.87	19.44	8.94	-34.5	-35.7	28.4	3.02e+01	61	23	0	144703488	44	5901
2026-01-09 16:36:08.60	19.43	9.00	-34.4	-35.7	28.5	3.02e+01	61	23	0	146276352	44	5877
2026-01-09 16:36:09.89	19.42	9.12	-34.4	-35.6	28.5	3.02e+01	61	23	0	148373504	44	5842
2026-01-09 16:36:10.62	19.42	9.18	-34.2	-35.5	28.7	3.02e+01	61	23	0	149946368	44	5736
2026-01-09 16:36:11.91	19.41	9.30	-34.3	-35.6	28.6	3.02e+01	51	23	0	152567808	44	5808
2026-01-09 16:36:12.64	19.40	9.36	-34.2	-35.4	28.7	3.02e+01	59	23	0	153616384	44	5701
2026-01-09 16:36:13.93	19.39	9.48	-34.1	-35.4	28.8	3.02e+01	59	23	0	156237824	44	5668
2026-01-09 16:36:14.65	19.38	9.54	-34.2	-35.4	28.7	3.02e+01	46	23	0	157286400	44	5720
2026-01-09 16:36:15.95	19.37	9.66	-34.2	-35.4	28.7	3.02e+01	59	23	0	159907840	44	5710
2026-01-09 16:36:16.67	19.36	9.73	-34.2	-35.4	28.8	3.02e+01	60	23	0	161480704	44	5681
2026-01-09 16:36:17.97	19.35	9.85	-34.2	-35.4	28.8	3.02e+01	58	23	0	163577856	44	5696
2026-01-09 16:36:18.69	19.35	9.91	-34.2	-35.4	28.7	3.02e+01	58	23	0	165150720	44	5711
2026-01-09 16:36:19.99	19.33	10.03	-34.2	-35.4	28.7	3.02e+01	56	23	0	167772160	44	5708
2026-01-09 16:36:20.71	19.33	10.10	-34.4	-35.7	28.6	3.02e+01	59	23	0	168820736	44	5876
2026-01-09 16:36:22.01	19.31	10.22	-34.2	-35.4	28.7	3.02e+01	61	23	0	171442176	44	5691
2026-01-09 16:36:22.73	19.31	10.29	-34.2	-35.5	28.7	3.02e+01	53	23	0	172490752	44	5728
2026-01-09 16:36:24.03	19.30	10.41	-34.1	-35.3	28.8	3.02e+01	59	23	0	175112192	44	5643
2026-01-09 16:36:24.75	19.29	10.48	-34.1	-35.4	28.8	3.02e+01	61	23	0	176685056	44	5670
2026-01-09 16:36:26.05	19.28	10.60	-34.0	-35.3	28.9	3.02e+01	61	23	0	178782208	44	5618
2026-01-09 16:36:26.77	19.27	10.67	-34.0	-35.2	28.9	3.02e+01	58	23	0	180355072	44	5594
2026-01-09 16:36:28.07	19.26	10.80	-33.9	-35.2	29.0	3.02e+01	52	23	0	182452224	44	5540
2026-01-09 16:36:28.79	19.25	10.87	-34.1	-35.3	28.9	3.02e+01	59	23	0	184025088	42	6342
2026-01-09 16:36:30.09	19.24	10.99	-34.0	-35.3	29.0	3.02e+01	60	23	0	186646528	42	6290
2026-01-09 16:36:30.81	19.23	11.06	-34.2	-35.4	28.9	3.02e+01	45	23	0	187695104	42	6391
2026-01-09 16:36:32.11	19.21	11.19	-34.0	-35.2	29.0	3.02e+01	57	23	0	190316544	42	6267
2026-01-09 16:36:32.83	19.21	11.26	-34.0	-35.3	29.0	3.02e+01	59	23	0	191365120	42	6301
2026-01-09 16:36:34.13	19.19	11.39	-34.2	-35.5	28.8	3.02e+01	59	23	0	193986560	42	6440
2026-01-09 16:36:34.85	19.19	11.46	-34.0	-35.2	29.0	3.02e+01	58	23	0	195559424	42	6256
2026-01-09 16:36:36.15	19.17	11.59	-34.0	-35.3	28.9	3.02e+01	48	23	0	197656576	42	6289
2026-01-09 16:36:36.87	19.16	11.66	-34.2	-35.4	28.8	3.02e+01	58	23	0	199229440	42	6418
2026-01-09 16:36:38.17	19.15	11.79	-34.8	-36.0	28.4	3.02e+01	59	23	0	201850880	42	6858
2026-01-09 16:36:38.89	19.14	11.86	-34.7	-36.0	28.3	3.02e+01	47	23	0	202899456	42	6846
2026-01-09 16:36:40.18	19.13	11.99	-34.8	-36.1	28.2	3.02e+01	59	23	0	205520896	44	6170
2026-01-09 16:36:40.91	19.12	12.07	-35.1	-36.3	27.8	3.02e+01	57	23	0	206569472	44	6344
2026-01-09 16:36:42.20	19.10	12.20	-34.8	-36.1	28.2	3.02e+01	57	23	0	209190912	44	6137
2026-01-09 16:36:42.92	19.09	12.27	-34.8	-36.0	28.3	3.02e+01	55	23	0	210239488	44	6129
2026-01-09 16:36:44.22	19.08	12.41	-34.6	-35.9	28.6	3.02e+01	53	23	0	212860928	44	6016
2026-01-09 16:36:44.94	19.07	12.48	-34.0	-35.2	29.0	3.02e+01	59	23	0	214433792	44	5580
2026-01-09 16:36:46.24	19.06	12.62	-34.1	-35.3	29.0	3.02e+01	60	23	0	216530944	42	6343
2026-01-09 16:36:46.96	19.05	12.69	-34.0	-35.2	29.1	3.02e+01	45	23	0	218103808	42	6235
2026-01-09 16:36:48.26	19.03	12.83	-33.6	-34.8	29.4	3.02e+01	59	23	0	220725248	42	5959
2026-01-09 16:36:48.98	19.02	12.90	-33.8	-35.0	29.3	3.02e+01	58	23	0	221773824	42	6104
2026-01-09 16:36:50.28	19.01	13.04	-33.7	-34.9	29.4	3.02e+01	59	23	0	224395264	42	6016
2026-01-09 16:36:51.00	19.00	13.12	-33.5	-34.7	29.5	3.02e+01	61	23	0	225443840	42	5913
2026-01-09 16:36:52.30	18.98	13.26	-33.5	-34.7	29.6	3.02e+01	44	23	0	228065280	42	5876
2026-01-09 16:36:53.02	18.97	13.34	-33.5	-34.7	29.6	3.02e+01	58	23	0	229638144	42	5882
2026-01-09 16:36:54.32	18.95	13.48	-33.4	-34.6	29.7	3.02e+01	59	23	0	231735296	42	5793
2026-01-09 16:36:55.04	18.94	13.56	-33.4	-34.6	29.6	3.02e+01	44	23	0	233308160	42	5801
2026-01-09 16:36:56.34	18.93	13.70	-33.5	-34.7	29.6	3.02e+01	59	23	0	235405312	42	5860
2026-01-09 16:36:57.06	18.92	13.78	-33.4	-34.6	29.7	3.02e+01	62	23	0	236978176	42	5814
2026-01-09 16:36:58.36	18.90	13.92	-33.5	-34.6	29.6	3.02e+01	57	24	0	239599616	42	5857
2026-01-09 16:36:59.08	18.89	14.00	-33.4	-34.6	29.6	3.02e+01	57	23	0	240648192	42	5827
2026-01-09 16:37:00.38	18.87	14.14	-33.3	-34.5	29.7	3.02e+01	45	23	0	243269632	42	5758
2026-01-09 16:37:01.10	18.86	14.23	-33.3	-34.5	29.7	3.02e+01	56	23	0	244842496	42	5749
2026-01-09 16:37:02.40	18.84	14.37	-33.5	-34.7	29.7	3.02e+01	56	23	0	246939648	42	5859
2026-01-09 16:37:03.12	18.83	14.45	-33.4	-34.6	29.7	3.02e+01	62	23	0	248512512	42	5800
2026-01-09 16:37:04.42	18.81	14.60	-33.3	-34.5	29.7	3.02e+01	58	23	0	250609664	42	5749
2026-01-09 16:37:05.14	18.80	14.68	-33.4	-34.6	29.7	3.02e+01	46	23	0	252182528	42	5822
2026-01-09 16:37:06.44	18.78	14.83	-33.4	-34.6	29.7	3.02e+01	60	23	0	254803968	42	5796
2026-01-09 16:37:07.16	18.77	14.92	-33.5	-34.7	29.7	3.02e+01	60	23	0	255852544	42	5879
2026-01-09 16:37:08.46	18.75	15.07	-33.6	-34.8	29.5	3.02e+01	58	23	0	258473984	42	5939
2026-01-09 16:37:09.18	18.74	15.15	-33.4	-34.6	29.7	3.02e+01	58	23	0	259522560	42	5850
2026-01-09 16:37:10.48	18.72	15.30	-33.4	-34.5	29.7	3.02e+01	46	23	0	262144000	42	5787
2026-01-09 16:37:11.20	18.71	15.39	-33.3	-34.5	29.7	3.02e+01	64	24	0	263716864	42	5773
2026-01-09 16:37:12.49	18.69	15.54	-33.4	-34.6	29.7	3.02e+01	58	23	0	265814016	42	5834
2026-01-09 16:37:13.21	18.68	15.63	-33.4	-34.6	29.7	3.02e+01	53	24	0	267386880	42	5800
2026-01-09 16:37:14.51	18.66	15.79	-33.4	-34.6	29.7	3.02e+01	57	23	0	269484032	42	5795
2026-01-09 16:37:15.23	18.65	15.87	-33.2	-34.4	29.9	3.02e+01	57	23	0	271056896	42	5691
2026-01-09 16:37:16.53	18.63	16.03	-33.2	-34.4	29.9	3.02e+01	59	23	0	273678336	42	5676
2026-01-09 16:37:17.26	18.61	16.12	-33.2	-34.4	29.9	3.02e+01	61	24	0	274726912	42	5677
2026-01-09 16:37:18.55	18.59	16.28	-33.2	-34.3	30.0	3.02e+01	61	23	0	277348352	42	5643
2026-01-09 16:37:19.27	18.58	16.37	-33.2	-34.4	29.9	3.02e+01	60	23	0	278396928	42	5669
2026-01-09 16:37:20.58	18.56	16.53	-33.2	-34.3	29.9	3.02e+01	61	24	0	281018368	42	5645
2026-01-09 16:37:21.30	18.55	16.62	-33.2	-34.3	29.9	3.02e+01	51	23	0	282591232	42	5645
2026-01-09 16:37:22.60	18.52	16.78	-33.1	-34.3	30.0	3.02e+01	61	23	0	284688384	42	5643
2026-01-09 16:37:23.32	18.51	16.87	-33.1	-34.3	30.0	3.02e+01	55	23	0	286261248	42	5640
2026-01-09 16:37:24.62	18.49	17.04	-33.3	-34.5	29.9	3.02e+01	57	24	0	288882688	42	5727
2026-01-09 16:37:25.34	18.47	17.13	-33.0	-34.2	30.0	3.02e+01	58	23	0	289931264	42	5563
2026-01-09 16:37:26.64	18.45	17.30	-33.2	-34.4	29.9	3.02e+01	47	23	0	292552704	42	5682
2026-01-09 16:37:27.36	18.44	17.39	-33.1	-34.3	30.0	3.02e+01	60	23	0	293601280	42	5596
2026-01-09 16:37:28.66	18.41	17.56	-33.1	-34.3	30.0	3.02e+01	59	23	0	296222720	42	5610
2026-01-09 16:37:29.38	18.40	17.65	-33.2	-34.4	29.9	3.02e+01	52	23	0	297795584	42	5672
2026-01-09 16:37:30.68	18.37	17.83	-33.2	-34.4	29.9	3.02e+01	58	24	0	299892736	42	5707
2026-01-09 16:37:31.40	18.36	17.92	-33.3	-34.5	29.8	3.02e+01	58	23	0	301465600	42	5756
2026-01-09 16:37:32.70	18.33	18.09	-33.3	-34.5	29.8	3.02e+01	58	23	0	304087040	42	5769
2026-01-09 16:37:33.42	18.32	18.19	-33.4	-34.5	29.8	3.02e+01	62	23	0	305135616	42	5787
2026-01-09 16:37:34.72	18.29	18.37	-33.3	-34.5	29.9	3.02e+01	53	24	0	307757056	42	5728
2026-01-09 16:37:35.44	18.28	18.46	-33.3	-34.5	29.8	3.02e+01	59	23	0	308805632	42	5761
2026-01-09 16:37:36.74	18.25	18.64	-33.4	-34.6	29.7	3.02e+01	60	24	0	311427072	42	5837
2026-01-09 16:37:37.46	18.24	18.74	-33.5	-34.7	29.7	3.02e+01	38	24	0	312999936	42	5863
2026-01-09 16:37:38.76	18.21	18.92	-33.5	-34.7	29.7	3.02e+01	58	24	0	315097088	42	5899
2026-01-09 16:37:39.48	18.19	19.02	-33.6	-34.8	29.6	3.02e+01	57	23	0	316669952	42	5953
2026-01-09 16:37:40.78	18.17	19.20	-33.6	-34.8	29.6	3.02e+01	63	23	0	318767104	42	5936
2026-01-09 16:37:41.50	18.15	19.30	-33.5	-34.7	29.7	3.02e+01	56	23	0	320339968	42	5859
2026-01-09 16:37:42.80	18.12	19.49	-33.5	-34.7	29.7	3.02e+01	47	24	0	322961408	42	5871
2026-01-09 16:37:43.52	18.11	19.59	-33.5	-34.7	29.6	3.02e+01	56	24	0	324009984	42	5916
2026-01-09 16:37:44.82	18.08	19.78	-33.7	-34.9	29.6	3.02e+01	56	23	0	326631424	42	6020
2026-01-09 16:37:45.54	18.06	19.88	-33.5	-34.7	29.7	3.02e+01	55	24	0	328204288	42	5886
2026-01-09 16:37:46.84	18.03	20.07	-33.6	-34.8	29.6	3.02e+01	59	23	0	330301440	42	5929
2026-01-09 16:37:47.56	18.01	20.17	-33.5	-34.7	29.6	3.02e+01	61	24	0	331874304	42	5903
2026-01-09 16:37:48.86	17.98	20.36	-33.6	-34.8	29.7	3.02e+01	59	23	0	333971456	42	5927
2026-01-09 16:37:49.58	17.96	20.47	-33.6	-34.7	29.7	3.02e+01	59	24	0	335544320	42	5923
2026-01-09 16:37:50.88	17.93	20.67	-33.7	-34.9	29.6	3.02e+01	49	24	0	338165760	42	6014
2026-01-09 16:37:51.60	17.92	20.77	-33.7	-34.9	29.6	3.02e+01	58	23	0	339214336	42	5999
2026-01-09 16:37:52.90	17.88	20.97	-33.7	-34.9	29.6	3.02e+01	57	23	0	341835776	42	6033
2026-01-09 16:37:53.62	17.87	21.08	-33.8	-35.0	29.5	3.02e+01	55	23	0	342884352	42	6074
2026-01-09 16:37:54.92	17.83	21.28	-33.8	-35.0	29.5	3.02e+01	58	24	0	345505792	42	6107
2026-01-09 16:37:55.64	17.81	21.39	-34.0	-35.2	29.4	3.02e+01	61	24	0	346554368	42	6215
2026-01-09 16:37:56.94	17.78	21.59	-33.8	-35.0	29.4	3.02e+01	59	23	0	349175808	42	6114
2026-01-09 16:37:57.66	17.76	21.70	-33.8	-35.0	29.5	3.02e+01	60	24	0	350748672	42	6098
2026-01-09 16:37:58.95	17.73	21.91	-33.7	-34.9	29.6	3.02e+01	46	24	0	352845824	42	6017
2026-01-09 16:37:59.68	17.71	22.02	-33.8	-35.0	29.5	3.02e+01	53	23	0	354418688	42	6087
2026-01-09 16:38:00.98	17.67	22.23	-33.8	-35.0	29.5	3.02e+01	59	24	0	357040128	42	6093
2026-01-09 16:38:01.70	17.65	22.34	-33.7	-34.9	29.6	3.02e+01	45	24	0	358088704	42	6045
2026-01-09 16:38:03.00	17.61	22.55	-33.7	-34.9	29.6	3.02e+01	59	23	0	360710144	42	6046
2026-01-09 16:38:03.72	17.59	22.67	-33.8	-35.0	29.5	3.02e+01	62	24	0	361758720	42	6096
2026-01-09 16:38:05.02	17.56	22.88	-33.8	-35.0	29.5	3.02e+01	62	24	0	364380160	42	6114
2026-01-09 16:38:05.74	17.54	23.00	-33.9	-35.1	29.4	3.02e+01	58	24	0	365953024	42	6162
2026-01-09 16:38:07.04	17.50	23.22	-33.9	-35.1	29.4	3.02e+01	60	24	0	368050176	42	6160
2026-01-09 16:38:07.76	17.48	23.34	-34.0	-35.2	29.4	3.02e+01	58	24	0	369623040	42	6229
2026-01-09 16:38:09.05	17.44	23.56	-34.1	-35.3	29.2	3.02e+01	48	24	0	372244480	42	6302
2026-01-09 16:38:09.78	17.41	23.68	-34.0	-35.2	29.3	3.02e+01	57	24	0	373293056	42	6237
2026-01-09 16:38:11.08	17.37	23.90	-33.9	-35.1	29.5	3.02e+01	58	24	0	375914496	42	6165
2026-01-09 16:38:11.80	17.35	24.03	-33.7	-34.9	29.6	3.02e+01	52	24	0	376963072	42	6031
2026-01-09 16:38:13.10	17.31	24.25	-33.7	-34.9	29.5	3.02e+01	59	24	0	379584512	42	6050
2026-01-09 16:38:13.82	17.29	24.38	-33.6	-34.8	29.7	3.02e+01	60	24	0	381157376	42	5958
2026-01-09 16:38:15.11	17.24	24.61	-33.6	-34.8	29.7	3.02e+01	60	24	0	383254528	42	5947
2026-01-09 16:38:15.84	17.22	24.73	-33.7	-34.9	29.6	3.02e+01	61	23	0	384827392	42	6032
2026-01-09 16:38:17.13	17.18	24.97	-33.8	-35.0	29.5	3.02e+01	50	24	0	386924544	42	6106
2026-01-09 16:38:17.85	17.15	25.09	-33.7	-35.0	29.5	3.02e+01	58	24	0	388497408	42	6065
2026-01-09 16:38:19.15	17.11	25.33	-33.9	-35.1	29.4	3.02e+01	61	23	0	391118848	42	6173
2026-01-09 16:38:19.88	17.08	25.46	-33.8	-34.9	29.6	3.02e+01	56	24	0	392167424	42	6061
2026-01-09 16:38:21.17	17.04	25.70	-33.9	-35.1	29.5	3.02e+01	59	24	0	394788864	42	6142
2026-01-09 16:38:21.90	17.01	25.84	-33.9	-35.1	29.4	3.02e+01	56	24	0	396361728	42	6149
2026-01-09 16:38:23.19	16.96	26.08	-33.8	-35.0	29.6	3.02e+01	57	24	0	398458880	42	6089
2026-01-09 16:38:23.92	16.94	26.21	-33.9	-35.1	29.5	3.02e+01	59	24	0	400031744	42	6144
2026-01-09 16:38:25.22	16.89	26.46	-33.8	-35.0	29.6	3.02e+01	52	24	0	402128896	42	6092
2026-01-09 16:38:25.94	16.86	26.60	-33.7	-34.9	29.6	3.02e+01	58	24	0	403701760	42	6043
2026-01-09 16:38:27.24	16.81	26.85	-33.7	-34.8	29.7	3.02e+01	60	23	0	405798912	42	5982
2026-01-09 16:38:27.96	16.78	26.99	-33.6	-34.8	29.8	3.02e+01	47	24	0	407371776	42	5942
2026-01-09 16:38:29.26	16.73	27.24	-33.4	-34.6	29.9	3.02e+01	61	24	0	409993216	42	5800
2026-01-09 16:38:29.98	16.70	27.38	-33.3	-34.4	30.0	3.02e+01	63	24	0	411041792	42	5719
2026-01-09 16:38:31.28	16.65	27.64	-33.3	-34.4	30.0	3.02e+01	59	24	0	413663232	42	5716
2026-01-09 16:38:32.00	16.62	27.79	-33.3	-34.4	30.0	3.02e+01	58	24	0	415236096	42	5715
2026-01-09 16:38:33.30	16.56	28.05	-33.4	-34.6	29.9	3.02e+01	51	24	0	417333248	42	5812
2026-01-09 16:38:34.02	16.53	28.20	-33.5	-34.7	29.9	3.02e+01	60	24	0	418906112	42	5867
2026-01-09 16:38:35.31	16.48	28.46	-33.6	-34.8	29.7	3.02e+01	56	24	0	421003264	42	5956
2026-01-09 16:38:36.04	16.44	28.61	-33.7	-34.9	29.6	3.02e+01	57	24	0	422576128	42	6006
2026-01-09 16:38:37.34	16.39	28.88	-33.6	-34.7	29.7	3.02e+01	60	24	0	425197568	42	5912
2026-01-09 16:38:38.06	16.35	29.03	-33.6	-34.7	29.8	3.02e+01	53	23	0	426246144	42	5926
2026-01-09 16:38:39.36	16.29	29.31	-33.5	-34.7	29.9	3.02e+01	59	24	0	428867584	42	5869
2026-01-09 16:38:40.08	16.26	29.46	-33.7	-34.9	29.7	3.02e+01	59	24	0	429916160	42	6035
2026-01-09 16:38:41.38	16.20	29.74	-33.5	-34.7	29.9	3.02e+01	50	24	0	432537600	42	5889
2026-01-09 16:38:42.10	16.16	29.90	-33.4	-34.6	29.9	3.02e+01	60	24	0	434110464	42	5796
2026-01-09 16:38:43.40	16.10	30.18	-33.1	-34.3	30.2	3.02e+01	57	24	0	436207616	42	5615
2026-01-09 16:38:44.12	16.07	30.34	-33.0	-34.1	30.3	3.02e+01	48	24	0	437780480	42	5520
2026-01-09 16:38:45.42	16.00	30.63	-33.1	-34.3	30.2	3.02e+01	57	24	0	440401920	42	5603
2026-01-09 16:38:46.14	15.96	30.79	-33.1	-34.3	30.2	3.02e+01	59	24	0	441450496	42	5615
2026-01-09 16:38:47.44	15.90	31.08	-33.2	-34.4	30.1	3.02e+01	59	24	0	444071936	42	5696
2026-01-09 16:38:48.16	15.86	31.25	-33.1	-34.2	30.2	3.02e+01	60	24	0	445120512	42	5591
2026-01-09 16:38:49.46	15.79	31.55	-33.0	-34.2	30.3	3.02e+01	46	24	0	447741952	42	5557
2026-01-09 16:38:50.18	15.75	31.71	-33.2	-34.4	30.1	3.02e+01	58	24	0	449314816	42	5665
2026-01-09 16:38:51.48	15.68	32.02	-33.0	-34.1	30.3	3.02e+01	61	23	0	451411968	42	5513
2026-01-09 16:38:52.20	15.64	32.19	-33.1	-34.3	30.2	3.02e+01	45	24	0	452984832	42	5614
2026-01-09 16:38:53.50	15.56	32.49	-33.1	-34.2	30.2	3.02e+01	56	24	0	455606272	42	5580
2026-01-09 16:38:54.22	15.52	32.67	-33.2	-34.3	30.2	3.02e+01	61	24	0	456654848	42	5648
2026-01-09 16:38:55.52	15.45	32.98	-33.5	-34.6	29.9	3.02e+01	58	24	0	459276288	42	5857
2026-01-09 16:38:56.24	15.40	33.16	-33.6	-34.8	29.7	3.02e+01	59	24	0	460324864	42	5951
2026-01-09 16:38:57.54	15.32	33.48	-33.6	-34.8	29.8	3.02e+01	45	24	0	462946304	42	5959
2026-01-09 16:38:58.26	15.28	33.65	-33.6	-34.7	29.8	3.02e+01	60	24	0	464519168	42	5925
2026-01-09 16:38:59.56	15.20	33.98	-33.5	-34.6	29.9	3.02e+01	58	24	0	466616320	42	5850
2026-01-09 16:39:00.28	15.15	34.16	-33.5	-34.7	29.9	3.02e+01	51	24	0	468189184	42	5865
2026-01-09 16:39:01.58	15.07	34.49	-33.7	-34.9	29.8	3.02e+01	60	24	0	470286336	42	5997
2026-01-09 16:39:02.30	15.02	34.68	-33.9	-35.1	29.6	3.02e+01	58	23	0	471859200	42	6163
2026-01-09 16:39:03.60	14.93	35.01	-34.0	-35.2	29.5	3.02e+01	60	24	0	474480640	42	6263
2026-01-09 16:39:04.32	14.88	35.20	-34.2	-35.4	29.2	3.02e+01	57	23	0	475529216	42	6387
2026-01-09 16:39:05.61	14.79	35.54	-34.4	-35.6	29.1	3.02e+01	52	24	0	478150656	42	6532
2026-01-09 16:39:06.33	14.74	35.73	-34.6	-35.8	29.0	3.02e+01	59	24	0	479199232	42	6687
2026-01-09 16:39:07.63	14.65	36.08	-34.9	-36.2	28.7	3.02e+01	52	24	0	481820672	42	6968
2026-01-09 16:39:08.35	14.59	36.27	-35.0	-36.3	28.5	3.02e+01	45	24	0	483393536	44	6309
2026-01-09 16:39:09.65	14.50	36.63	-34.8	-36.0	28.8	3.02e+01	59	24	0	485490688	44	6125
2026-01-09 16:39:10.37	14.44	36.83	-34.7	-35.9	28.8	3.02e+01	56	24	0	487063552	44	6047
2026-01-09 16:39:11.67	14.34	37.19	-34.7	-35.9	28.8	3.02e+01	56	24	0	489160704	44	6052
2026-01-09 16:39:12.39	14.28	37.39	-34.9	-36.1	28.7	3.02e+01	58	24	0	490733568	44	6188
2026-01-09 16:39:13.69	14.18	37.76	-35.2	-36.4	28.4	3.02e+01	56	24	0	493355008	44	6403
2026-01-09 16:39:14.42	14.12	37.97	-35.2	-36.5	28.5	3.02e+01	57	24	0	494403584	44	6430
2026-01-09 16:39:15.71	14.01	38.34	-35.3	-36.5	28.3	3.02e+01	61	24	0	497025024	44	6487
2026-01-09 16:39:16.43	13.95	38.54	-35.4	-36.7	28.2	3.02e+01	54	24	0	498073600	44	6616
2026-01-09 16:39:17.73	13.83	38.93	-35.5	-36.8	28.1	3.02e+01	58	23	0	500695040	44	6683
2026-01-09 16:39:18.45	13.77	39.14	-35.4	-36.7	28.2	3.02e+01	44	24	0	502267904	44	6621
2026-01-09 16:39:19.75	13.65	39.53	-35.2	-36.4	28.5	3.02e+01	59	24	0	504365056	44	6393
2026-01-09 16:39:20.47	13.59	39.74	-35.1	-36.4	28.5	3.02e+01	57	24	0	505937920	44	6371
2026-01-09 16:39:21.77	13.46	40.14	-35.1	-36.4	28.5	3.02e+01	55	24	0	508559360	44	6381
2026-01-09 16:39:22.49	13.39	40.36	-35.1	-36.3	28.5	3.02e+01	58	24	0	509607936	44	6350
2026-01-09 16:39:23.79	13.27	40.76	-35.0	-36.3	28.6	3.02e+01	47	24	0	512229376	44	6287
2026-01-09 16:39:24.51	13.19	40.98	-35.0	-36.2	28.6	3.02e+01	59	24	0	513277952	44	6277
2026-01-09 16:39:25.81	13.06	41.39	-35.0	-36.3	28.5	3.02e+01	59	24	0	515899392	44	6301
2026-01-09 16:39:26.53	12.99	41.62	-35.0	-36.3	28.5	3.02e+01	58	24	0	517472256	44	6316
2026-01-09 16:39:27.83	12.85	42.04	-34.8	-36.0	28.8	3.02e+01	59	24	0	519569408	44	6129
2026-01-09 16:39:28.55	12.77	42.27	-34.6	-35.9	28.9	3.02e+01	60	24	0	521142272	44	5998
2026-01-09 16:39:29.85	12.62	42.69	-34.7	-35.9	28.9	3.02e+01	59	24	0	523763712	44	6030
2026-01-09 16:39:30.57	12.54	42.93	-34.5	-35.8	29.0	3.02e+01	60	24	0	524812288	44	5936
2026-01-09 16:39:31.87	12.39	43.36	-34.0	-35.2	29.4	3.02e+01	58	23	0	527433728	44	5576
2026-01-09 16:39:32.59	12.31	43.60	-34.1	-35.3	29.5	3.02e+01	59	24	0	528482304	44	5595
2026-01-09 16:39:33.89	12.15	44.04	-34.2	-35.4	29.3	3.02e+01	57	24	0	531103744	44	5715
2026-01-09 16:39:34.61	12.06	44.28	-34.1	-35.3	29.3	3.02e+01	60	24	0	532676608	44	5651
2026-01-09 16:39:35.91	11.89	44.73	-34.0	-35.2	29.4	3.02e+01	59	24	0	534773760	44	5543
2026-01-09 16:39:36.63	11.80	44.98	-33.8	-35.0	29.6	3.02e+01	59	24	0	536346624	42	6100
2026-01-09 16:39:37.93	11.63	45.43	-33.7	-34.9	29.7	3.02e+01	59	24	0	538443776	42	6031
2026-01-09 16:39:38.65	11.53	45.69	-33.7	-34.9	29.7	3.02e+01	57	24	0	540016640	42	6024
2026-01-09 16:39:39.95	11.35	46.15	-33.8	-35.0	29.7	3.02e+01	46	24	0	542638080	42	6067
2026-01-09 16:39:40.67	11.25	46.41	-33.9	-35.1	29.6	3.02e+01	60	24	0	543686656	42	6190
2026-01-09 16:39:41.97	11.05	46.88	-33.7	-34.8	29.8	3.02e+01	60	24	0	546308096	42	5994
2026-01-09 16:39:42.69	10.95	47.14	-33.6	-34.8	29.8	3.02e+01	58	24	0	547880960	42	5955
2026-01-09 16:39:43.99	10.75	47.62	-33.9	-35.1	29.6	3.02e+01	60	24	0	549978112	42	6162
2026-01-09 16:39:44.71	10.63	47.89	-34.0	-35.2	29.4	3.02e+01	59	24	0	551550976	42	6275
2026-01-09 16:39:46.01	10.42	48.38	-34.0	-35.2	29.4	3.02e+01	59	24	0	553648128	42	6264
2026-01-09 16:39:46.73	10.30	48.65	-34.0	-35.2	29.5	3.02e+01	61	24	0	555220992	42	6216
2026-01-09 16:39:48.03	10.08	49.14	-33.7	-34.9	29.7	3.02e+01	56	24	0	557318144	42	6013
2026-01-09 16:39:48.75	9.96	49.42	-33.9	-35.1	29.5	3.02e+01	58	24	0	558891008	42	6149
2026-01-09 16:39:50.05	9.72	49.92	-33.7	-34.9	29.7	3.02e+01	61	24	0	561512448	42	6059
2026-01-09 16:39:50.77	9.59	50.21	-33.7	-34.9	29.7	3.02e+01	49	24	0	562561024	42	6037
2026-01-09 16:39:52.07	9.35	50.72	-33.4	-34.5	30.0	3.02e+01	60	24	0	565182464	42	5781
2026-01-09 16:39:52.79	9.21	51.00	-33.4	-34.5	30.0	3.02e+01	59	24	0	566231040	42	5775
2026-01-09 16:39:54.08	8.95	51.52	-33.6	-34.7	29.8	3.02e+01	60	24	0	568852480	42	5926
2026-01-09 16:39:54.81	8.80	51.81	-33.5	-34.6	29.9	3.02e+01	52	24	0	570425344	42	5851
2026-01-09 16:39:56.10	8.53	52.34	-33.1	-34.3	30.1	3.02e+01	45	24	0	572522496	42	5624
2026-01-09 16:39:56.83	8.37	52.64	-33.2	-34.4	30.1	3.02e+01	61	24	0	574095360	42	5707
2026-01-09 16:39:58.12	8.08	53.17	-33.1	-34.2	30.2	3.02e+01	58	24	0	576716800	42	5592
2026-01-09 16:39:58.84	7.91	53.47	-33.2	-34.4	30.1	3.02e+01	47	24	0	577765376	42	5696
2026-01-09 16:40:00.14	7.60	54.02	-32.6	-33.7	30.6	3.02e+01	58	24	0	580386816	40	5926
2026-01-09 16:40:00.87	7.43	54.32	-32.8	-33.9	30.5	3.02e+01	59	24	0	581435392	40	6032
2026-01-09 16:40:02.16	7.10	54.87	-33.1	-34.3	30.2	3.02e+01	60	24	0	584056832	40	6280
2026-01-09 16:40:02.89	6.91	55.19	-33.2	-34.3	30.2	3.02e+01	58	24	0	585629696	40	6344
2026-01-09 16:40:04.19	6.56	55.75	-33.1	-34.2	30.2	3.02e+01	46	24	0	587726848	40	6250
2026-01-09 16:40:04.91	6.36	56.06	-33.0	-34.2	30.3	3.02e+01	62	24	0	589299712	40	6206
2026-01-09 16:40:06.21	5.99	56.63	-33.5	-34.7	29.9	3.02e+01	60	24	0	591921152	40	6581
2026-01-09 16:40:06.93	5.78	56.95	-33.6	-34.8	29.7	3.02e+01	47	24	0	592969728	40	6684
2026-01-09 16:40:08.23	5.38	57.52	-33.7	-34.9	29.7	3.02e+01	61	24	0	595591168	42	6038
2026-01-09 16:40:08.95	5.15	57.84	-33.8	-35.0	29.6	3.02e+01	58	24	0	596639744	42	6071
2026-01-09 16:40:10.25	4.72	58.43	-34.4	-35.6	29.0	3.02e+01	62	24	0	599261184	42	6571
2026-01-09 16:40:10.97	4.48	58.75	-34.6	-35.8	28.8	3.02e+01	57	24	0	600834048	42	6711
2026-01-09 16:40:12.27	4.02	59.34	-34.3	-35.5	29.2	3.02e+01	47	24	0	602931200	42	6465
2026-01-09 16:40:12.99	3.76	59.67	-35.0	-36.3	26.8	3.02e+01	59	24	0	604504064	42	7050
2026-01-09 16:40:14.29	3.27	60.27	-34.8	-36.1	28.6	3.02e+01	59	24	0	606601216	44	6148
2026-01-09 16:40:15.01	2.99	60.60	-34.9	-36.1	28.6	3.02e+01	46	24	0	608174080	44	6197
2026-01-09 16:40:16.31	2.46	61.20	-34.9	-36.1	28.6	3.02e+01	58	24	0	610795520	44	6166
2026-01-09 16:40:17.03	2.16	61.54	-35.0	-36.3	28.4	3.02e+01	61	24	0	611844096	44	6307
2026-01-09 16:40:18.33	1.59	62.15	-35.3	-36.6	28.1	3.02e+01	61	24	0	614465536	44	6537
2026-01-09 16:40:19.05	1.26	62.49	-35.0	-36.3	28.4	3.02e+01	60	24	0	616038400	44	6287
2026-01-09 16:40:20.35	0.64	63.10	-35.2	-36.4	28.3	3.02e+01	46	24	0	618135552	44	6414
2026-01-09 16:40:21.07	0.28	63.44	-35.5	-36.8	28.0	3.02e+01	59	24	0	619708416	44	6659
2026-01-09 16:40:22.37	359.61	64.06	-35.6	-36.9	28.1	3.02e+01	61	24	0	621805568	44	6730
2026-01-09 16:40:23.09	359.23	64.40	-36.0	-37.3	27.6	3.02e+01	61	24	0	623378432	44	7069
2026-01-09 16:40:24.39	358.50	65.02	-36.4	-37.7	27.2	3.02e+01	57	24	0	625475584	46	6623
2026-01-09 16:40:25.11	358.08	65.36	-36.7	-38.1	27.0	3.02e+01	45	24	0	627048448	46	6898
2026-01-09 16:40:26.41	357.28	65.98	-37.1	-38.5	26.5	3.02e+01	58	24	0	629669888	48	6430
2026-01-09 16:40:27.13	356.82	66.33	-37.3	-38.7	26.3	3.02e+01	57	24	0	630718464	48	6600
2026-01-09 16:40:28.43	355.95	66.95	-37.7	-39.2	25.7	3.02e+01	61	24	0	633339904	48	7000
2026-01-09 16:40:29.15	355.44	67.30	-37.8	-39.3	25.7	3.02e+01	60	24	0	634912768	48	7054
2026-01-09 16:40:30.45	354.49	67.92	-37.8	-39.3	23.6	3.02e+01	45	24	0	637009920	48	7077
2026-01-09 16:40:31.17	353.93	68.26	-38.0	-39.5	25.6	3.02e+01	59	24	0	638582784	50	6454
2026-01-09 16:40:32.47	352.88	68.88	-37.6	-39.1	26.0	3.02e+01	57	24	0	640679936	50	6152
2026-01-09 16:40:33.19	352.27	69.22	-37.7	-39.2	25.7	3.02e+01	52	24	0	642252800	50	6207
2026-01-09 16:40:34.48	351.11	69.83	-38.5	-40.0	25.2	3.02e+01	57	24	0	644874240	50	6880
2026-01-09 16:40:35.20	350.44	70.17	-36.9	-38.3	26.7	3.02e+01	60	24	0	645922816	50	5614
2026-01-09 16:40:36.50	349.15	70.78	-37.4	-38.9	26.2	3.02e+01	59	24	0	648544256	48	6736
2026-01-09 16:40:37.22	348.40	71.11	-37.3	-38.8	26.3	3.02e+01	60	24	0	649592832	48	6653
2026-01-09 16:40:38.52	346.97	71.71	-37.3	-38.7	26.3	3.02e+01	45	24	0	652214272	48	6602
2026-01-09 16:40:39.24	346.13	72.04	-37.3	-38.7	26.4	3.02e+01	58	24	0	653787136	48	6592
2026-01-09 16:40:40.54	344.54	72.62	-38.0	-39.5	25.5	3.02e+01	60	24	0	655884288	50	6467
2026-01-09 16:40:41.26	343.61	72.94	-38.2	-39.8	25.2	3.02e+01	61	24	0	657457152	50	6666
2026-01-09 16:40:42.56	341.83	73.51	-38.6	-40.2	24.8	3.02e+01	59	24	0	660078592	50	6973
2026-01-09 16:40:43.28	340.79	73.81	-39.1	-40.8	24.3	3.02e+01	60	24	0	661127168	52	6651
2026-01-09 16:40:44.58	338.81	74.36	-38.3	-39.8	25.3	3.02e+01	59	24	0	663748608	52	5953
2026-01-09 16:40:45.30	337.64	74.65	-37.6	-39.1	26.1	3.02e+01	60	24	0	664797184	50	6154
2026-01-09 16:40:46.60	335.42	75.17	-37.8	-39.3	25.8	3.02e+01	59	24	0	667418624	50	6298
2026-01-09 16:40:47.32	334.12	75.45	-37.4	-38.8	26.3	3.02e+01	60	24	0	668991488	50	5976
2026-01-09 16:40:48.62	331.64	75.93	-37.1	-38.4	26.5	3.02e+01	58	24	0	671088640	48	6405
2026-01-09 16:40:49.34	330.20	76.19	-37.9	-39.4	25.7	3.02e+01	52	24	0	672661504	48	7142
2026-01-09 16:40:50.64	327.44	76.63	-36.4	-37.7	27.2	3.02e+01	61	24	0	675282944	48	5917
2026-01-09 16:40:51.36	325.83	76.86	-37.0	-38.4	26.6	3.02e+01	60	24	0	676331520	48	6372
2026-01-09 16:40:52.66	322.78	77.25	-36.7	-38.0	27.0	3.02e+01	60	24	0	678952960	48	6114
2026-01-09 16:40:53.38	321.00	77.45	-36.9	-38.3	26.7	3.02e+01	61	24	0	680001536	48	6300
2026-01-09 16:40:54.68	317.66	77.79	-36.2	-37.5	27.5	3.02e+01	59	24	0	682622976	48	5765
2026-01-09 16:40:55.40	315.73	77.96	-36.8	-38.1	26.8	3.02e+01	50	24	0	684195840	48	6204
2026-01-09 16:40:56.70	312.10	78.22	-36.2	-37.5	27.3	3.02e+01	57	24	0	686292992	48	5766
2026-01-09 16:40:57.42	310.03	78.35	-36.1	-37.4	27.5	3.02e+01	51	24	0	687865856	46	6402
2026-01-09 16:40:58.71	306.20	78.54	-36.1	-37.4	27.5	3.02e+01	57	24	0	689963008	48	5664
2026-01-09 16:40:59.44	303.99	78.62	-36.3	-37.6	27.4	3.02e+01	58	24	0	691535872	48	5840
2026-01-09 16:41:00.74	299.97	78.73	-35.2	-36.5	28.2	3.02e+01	58	24	0	693633024	46	5758
2026-01-09 16:41:01.46	297.71	78.77	-35.4	-36.7	28.2	3.02e+01	60	24	0	695205888	46	5871
2026-01-09 16:41:02.75	293.65	78.79	-35.1	-36.4	28.4	3.02e+01	39	24	0	697827328	46	5660
2026-01-09 16:41:03.48	291.35	78.78	-34.8	-36.0	28.8	3.02e+01	56	24	0	698875904	44	6096
2026-01-09 16:41:04.78	287.28	78.71	-35.9	-37.2	27.6	3.02e+01	62	24	0	701497344	44	6971
2026-01-09 16:41:05.50	285.05	78.66	-35.2	-36.4	28.4	3.02e+01	47	24	0	703070208	44	6408
2026-01-09 16:41:06.79	281.13	78.51	-36.6	-37.9	27.1	3.02e+01	59	24	0	705167360	46	6770
2026-01-09 16:41:07.52	278.96	78.40	-36.5	-37.8	27.2	3.02e+01	57	24	0	706740224	46	6710
2026-01-09 16:41:08.81	275.24	78.17	-35.9	-37.2	27.7	3.02e+01	58	24	0	708837376	46	6270
2026-01-09 16:41:09.54	273.20	78.03	-36.0	-37.3	27.6	3.02e+01	59	24	0	710410240	46	6316
2026-01-09 16:41:10.83	269.73	77.73	-36.2	-37.5	27.4	3.02e+01	46	24	0	713031680	46	6489
2026-01-09 16:41:11.55	267.88	77.54	-36.0	-37.4	27.5	3.02e+01	59	24	0	714080256	46	6351
2026-01-09 16:41:12.85	264.67	77.18	-37.0	-38.4	26.6	3.02e+01	60	24	0	716701696	48	6381
2026-01-09 16:41:13.57	262.97	76.96	-36.8	-38.1	26.7	3.02e+01	53	24	0	717750272	48	6205
2026-01-09 16:41:14.87	260.06	76.55	-37.4	-38.8	26.1	3.02e+01	60	24	0	720371712	48	6719
2026-01-09 16:41:15.59	258.53	76.30	-37.6	-39.0	26.0	3.02e+01	58	24	0	721944576	48	6850
2026-01-09 16:41:16.89	255.91	75.84	-37.6	-39.0	25.9	3.02e+01	60	24	0	724041728	50	6125
2026-01-09 16:41:17.61	254.53	75.57	-38.2	-39.7	25.3	3.02e+01	61	24	0	725614592	50	6632
2026-01-09 16:41:18.91	252.18	75.07	-39.1	-40.7	24.5	3.02e+01	46	24	0	728236032	52	6606
2026-01-09 16:41:19.63	250.94	74.78	-38.0	-39.5	25.8	3.02e+01	60	24	0	729284608	52	5751
2026-01-09 16:41:20.93	248.84	74.25	-37.8	-39.3	25.8	3.02e+01	59	24	0	731906048	50	6317
2026-01-09 16:41:21.65	247.73	73.95	-38.1	-39.6	25.5	3.02e+01	46	24	0	732954624	50	6524
2026-01-09 16:41:22.95	245.85	73.39	-37.7	-39.1	25.8	3.02e+01	60	24	0	735576064	50	6168
2026-01-09 16:41:23.67	244.86	73.08	-37.2	-38.6	26.1	3.02e+01	59	24	0	737148928	50	5818
2026-01-09 16:41:24.97	243.18	72.50	-38.1	-39.6	25.5	3.02e+01	59	24	0	739246080	50	6555
2026-01-09 16:41:25.69	242.29	72.18	-39.2	-41.0	24.0	3.02e+01	59	24	0	740818944	50	7656
2026-01-09 16:41:26.99	240.78	71.59	-37.0	-38.4	26.3	3.02e+01	46	24	0	742916096	50	5669
2026-01-09 16:41:27.71	239.99	71.26	-37.8	-39.2	25.9	3.02e+01	60	24	0	744488960	50	6231
2026-01-09 16:41:29.01	238.63	70.65	-38.6	-40.1	25.1	3.02e+01	60	24	0	747110400	52	6136
2026-01-09 16:41:29.73	237.91	70.32	-38.4	-39.9	25.3	3.02e+01	53	24	0	748158976	52	6004
2026-01-09 16:41:31.03	236.69	69.70	-38.9	-40.5	24.7	3.02e+01	61	24	0	750780416	52	6429
2026-01-09 16:41:31.75	236.04	69.36	-39.2	-40.9	24.1	3.02e+01	51	24	0	752353280	52	6762
2026-01-09 16:41:33.04	234.94	68.75	-39.7	-41.5	23.8	3.02e+01	59	24	0	754450432	54	6447
2026-01-09 16:41:33.76	234.36	68.41	-39.1	-40.7	24.4	3.02e+01	59	24	0	756023296	54	5872
2026-01-09 16:41:35.06	233.35	67.79	-40.3	-42.2	22.9	3.02e+01	48	24	0	758120448	54	6994
2026-01-09 16:41:35.79	232.81	67.44	-40.0	-41.7	23.5	3.02e+01	61	24	0	759693312	54	6620
2026-01-09 16:41:37.08	231.91	66.82	-39.1	-40.7	24.4	3.02e+01	49	24	0	761790464	54	5915
2026-01-09 16:41:37.80	231.42	66.47	-38.7	-40.2	24.7	3.02e+01	55	24	0	763363328	52	6237
2026-01-09 16:41:39.10	230.59	65.85	-38.7	-40.2	25.0	3.02e+01	58	24	0	765984768	52	6247
2026-01-09 16:41:39.82	230.15	65.50	-38.6	-40.1	25.0	3.02e+01	46	24	0	767033344	52	6200
2026-01-09 16:41:41.12	229.38	64.88	-37.2	-38.6	26.4	3.02e+01	59	24	0	769654784	50	5845
2026-01-09 16:41:41.84	228.98	64.54	-36.7	-38.0	27.0	3.02e+01	60	24	0	771227648	48	6120
2026-01-09 16:41:43.14	228.28	63.92	-36.9	-38.3	26.6	3.02e+01	58	24	0	773324800	48	6312
2026-01-09 16:41:43.86	227.91	63.57	-37.5	-39.0	26.0	3.02e+01	57	24	0	774897664	48	6851
2026-01-09 16:41:45.16	227.26	62.96	-35.8	-37.1	27.7	3.02e+01	47	24	0	776994816	46	6148
2026-01-09 16:41:45.88	226.92	62.62	-35.4	-36.7	28.1	3.02e+01	59	24	0	778567680	46	5884
2026-01-09 16:41:47.18	226.32	62.01	-35.6	-36.9	28.0	3.02e+01	61	24	0	781189120	44	6773
2026-01-09 16:41:47.91	226.00	61.66	-35.5	-36.7	28.1	3.02e+01	58	24	0	782237696	44	6625
2026-01-09 16:41:49.20	225.46	61.06	-36.3	-37.7	27.2	3.02e+01	58	24	0	784859136	46	6581
2026-01-09 16:41:49.93	225.16	60.72	-36.0	-37.3	27.7	3.02e+01	57	24	0	785907712	46	6285
2026-01-09 16:41:51.22	224.65	60.12	-34.9	-36.2	28.6	3.02e+01	56	24	0	788529152	46	5542
2026-01-09 16:41:51.95	224.38	59.79	-34.5	-35.6	28.9	3.02e+01	57	24	0	790102016	44	5850
2026-01-09 16:41:53.24	223.91	59.20	-35.3	-36.6	28.2	3.02e+01	61	24	0	792199168	44	6517
2026-01-09 16:41:53.97	223.65	58.87	-35.5	-36.8	28.0	3.02e+01	58	24	0	793772032	44	6721
2026-01-09 16:41:55.26	223.21	58.28	-35.5	-36.8	28.0	3.02e+01	60	24	0	796393472	44	6659
2026-01-09 16:41:55.98	222.97	57.96	-35.4	-36.7	28.1	3.02e+01	46	24	0	797442048	44	6610
2026-01-09 16:41:57.28	222.56	57.38	-34.9	-36.2	28.7	3.02e+01	59	24	0	800063488	44	6218
2026-01-09 16:41:58.01	222.34	57.05	-35.1	-36.4	28.5	3.02e+01	63	24	0	801112064	44	6355
2026-01-09 16:41:59.30	221.96	56.48	-35.3	-36.6	28.3	3.02e+01	60	24	0	803733504	44	6539
2026-01-09 16:42:00.03	221.75	56.16	-35.3	-36.6	28.2	3.02e+01	58	24	0	805306368	44	6535
2026-01-09 16:42:01.32	221.39	55.60	-34.1	-35.3	29.3	3.02e+01	50	24	0	807403520	44	5605
2026-01-09 16:42:02.05	221.19	55.28	-32.9	-34.1	30.3	3.02e+01	61	24	0	808976384	42	5477
2026-01-09 16:42:03.35	220.85	54.72	-32.2	-33.3	30.8	3.02e+01	60	24	0	811597824	40	5659
2026-01-09 16:42:04.07	220.67	54.42	-32.5	-33.7	30.7	3.02e+01	55	24	0	812646400	40	5885
2026-01-09 16:42:05.36	220.35	53.87	-33.3	-34.5	30.0	3.02e+01	61	24	0	815267840	40	6470
2026-01-09 16:42:06.09	220.18	53.56	-33.2	-34.4	30.1	3.02e+01	62	24	0	816316416	40	6357
2026-01-09 16:42:07.38	219.88	53.02	-33.0	-34.1	30.4	3.02e+01	59	24	0	818937856	40	6201
2026-01-09 16:42:08.11	219.72	52.72	-33.1	-34.2	30.4	3.02e+01	60	24	0	820510720	40	6266
2026-01-09 16:42:09.40	219.44	52.19	-32.5	-33.7	30.7	3.02e+01	53	24	0	822607872	40	5872
2026-01-09 16:42:10.13	219.28	51.89	-32.8	-33.9	30.5	3.02e+01	59	24	0	824180736	40	6043
2026-01-09 16:42:11.43	219.02	51.37	-33.3	-34.5	30.1	3.02e+01	58	24	0	826277888	40	6468
2026-01-09 16:42:12.15	218.87	51.08	-33.6	-34.8	29.9	3.02e+01	46	24	0	827850752	40	6660
2026-01-09 16:42:13.45	218.62	50.56	-33.3	-34.5	29.9	3.02e+01	59	24	0	830472192	40	6480
2026-01-09 16:42:14.17	218.48	50.28	-33.4	-34.6	29.9	3.02e+01	61	24	0	831520768	40	6509
2026-01-09 16:42:15.46	218.24	49.77	-33.3	-34.5	30.1	3.02e+01	59	24	0	834142208	40	6438
2026-01-09 16:42:16.19	218.11	49.49	-33.7	-34.8	29.9	3.02e+01	61	24	0	835190784	40	6722
2026-01-09 16:42:17.48	217.89	48.99	-33.9	-35.1	29.6	3.02e+01	45	24	0	837812224	40	6911
2026-01-09 16:42:18.21	217.76	48.71	-34.0	-35.2	29.5	3.02e+01	62	24	0	839385088	42	6224
2026-01-09 16:42:19.50	217.55	48.22	-34.1	-35.3	29.2	3.02e+01	59	24	0	841482240	42	6319
2026-01-09 16:42:20.22	217.43	47.95	-34.1	-35.3	29.4	3.02e+01	51	24	0	843055104	42	6318
2026-01-09 16:42:21.52	217.23	47.47	-34.3	-35.5	29.3	3.02e+01	55	24	0	845152256	42	6440
2026-01-09 16:42:22.24	217.12	47.20	-34.0	-35.2	29.5	3.02e+01	57	24	0	846725120	42	6246
2026-01-09 16:42:23.54	216.92	46.72	-33.7	-34.8	29.7	3.02e+01	61	24	0	849346560	42	5989
2026-01-09 16:42:24.26	216.81	46.46	-33.4	-34.6	29.9	3.02e+01	61	24	0	850395136	42	5822
2026-01-09 16:42:25.56	216.63	45.99	-33.3	-34.5	30.1	3.02e+01	54	24	0	853016576	42	5743
2026-01-09 16:42:26.28	216.53	45.74	-33.4	-34.6	30.0	3.02e+01	60	24	0	854065152	42	5833
2026-01-09 16:42:27.58	216.35	45.28	-33.6	-34.7	29.9	3.02e+01	62	24	0	856686592	42	5924
2026-01-09 16:42:28.30	216.25	45.02	-33.6	-34.8	29.8	3.02e+01	46	24	0	858259456	42	5967
2026-01-09 16:42:29.60	216.09	44.57	-33.8	-35.0	29.5	3.02e+01	60	24	0	860356608	42	6071
2026-01-09 16:42:30.32	215.99	44.32	-33.9	-35.1	29.5	3.02e+01	58	24	0	861929472	42	6168
2026-01-09 16:42:31.62	215.83	43.88	-33.9	-35.1	29.4	3.02e+01	60	24	0	864550912	42	6187
2026-01-09 16:42:32.34	215.74	43.64	-34.0	-35.1	29.5	3.02e+01	56	24	0	865599488	42	6201
2026-01-09 16:42:33.63	215.59	43.20	-33.4	-34.6	29.9	3.02e+01	53	24	0	868220928	42	5804
2026-01-09 16:42:34.36	215.50	42.96	-33.4	-34.5	30.0	3.02e+01	60	24	0	869269504	42	5789
2026-01-09 16:42:35.66	215.36	42.53	-33.9	-35.1	29.6	3.02e+01	61	24	0	871890944	42	6142
2026-01-09 16:42:36.38	215.28	42.30	-34.2	-35.4	29.4	3.02e+01	52	24	0	873463808	42	6376
2026-01-09 16:42:37.68	215.13	41.88	-34.5	-35.8	29.0	3.02e+01	62	24	0	875560960	42	6658
2026-01-09 16:42:38.40	215.06	41.65	-34.8	-36.0	28.8	3.02e+01	57	24	0	877133824	42	6855
2026-01-09 16:42:39.70	214.92	41.23	-35.2	-36.4	28.3	3.02e+01	58	24	0	879755264	44	6420
2026-01-09 16:42:40.42	214.85	41.00	-35.0	-36.2	28.6	3.02e+01	59	24	0	880803840	44	6248
2026-01-09 16:42:41.72	214.72	40.60	-35.1	-36.4	28.4	3.02e+01	44	24	0	883425280	44	6372
2026-01-09 16:42:42.44	214.65	40.38	-35.1	-36.3	28.5	3.02e+01	58	24	0	884473856	44	6350
2026-01-09 16:42:43.74	214.52	39.98	-35.1	-36.4	28.4	3.02e+01	60	24	0	887095296	44	6359
2026-01-09 16:42:44.46	214.45	39.76	-35.2	-36.5	28.3	3.02e+01	60	24	0	888143872	44	6450
2026-01-09 16:42:45.76	214.33	39.37	-35.5	-36.8	28.1	3.02e+01	58	24	0	890765312	44	6702
2026-01-09 16:42:46.48	214.27	39.15	-35.6	-36.9	27.9	3.02e+01	46	24	0	892338176	44	6757
2026-01-09 16:42:47.77	214.15	38.77	-35.7	-37.0	27.9	3.02e+01	61	24	0	894435328	44	6838
2026-01-09 16:42:48.50	214.09	38.55	-35.7	-36.9	27.9	3.02e+01	58	24	0	896008192	44	6801
2026-01-09 16:42:49.79	213.98	38.18	-35.6	-36.8	28.0	3.02e+01	59	24	0	898629632	44	6711
2026-01-09 16:42:50.52	213.92	37.97	-35.6	-36.9	28.0	3.02e+01	57	24	0	899678208	44	6779
2026-01-09 16:42:51.81	213.81	37.60	-35.6	-36.9	28.0	3.02e+01	51	24	0	902299648	44	6744
2026-01-09 16:42:52.54	213.75	37.39	-35.5	-36.7	28.1	3.02e+01	57	24	0	903348224	44	6636
2026-01-09 16:42:53.84	213.65	37.03	-35.2	-36.5	28.3	3.02e+01	60	24	0	905969664	44	6456
2026-01-09 16:42:54.56	213.59	36.83	-35.3	-36.5	28.3	3.02e+01	62	24	0	907542528	44	6482
2026-01-09 16:42:55.86	213.49	36.47	-35.1	-36.3	28.5	3.02e+01	60	24	0	909639680	44	6349
2026-01-09 16:42:56.58	213.44	36.27	-34.8	-36.1	28.7	3.02e+01	53	24	0	911212544	44	6148
2026-01-09 16:42:57.88	213.34	35.92	-34.7	-36.0	28.7	3.02e+01	59	24	0	913309696	44	6076
2026-01-09 16:42:58.60	213.29	35.72	-34.7	-35.9	28.8	3.02e+01	57	24	0	914882560	44	6051
2026-01-09 16:42:59.90	213.19	35.38	-34.6	-35.8	29.0	3.02e+01	54	24	0	917504000	44	5940
2026-01-09 16:43:00.62	213.14	35.19	-34.3	-35.5	29.1	3.02e+01	59	24	0	918552576	44	5784
2026-01-09 16:43:01.92	213.05	34.85	-34.4	-35.6	29.2	3.02e+01	56	24	0	921174016	44	5815
2026-01-09 16:43:02.64	213.01	34.66	-34.3	-35.6	29.2	3.02e+01	46	24	0	922222592	44	5797
2026-01-09 16:43:03.94	212.92	34.33	-34.6	-35.8	29.0	3.02e+01	54	24	0	924844032	44	5978
2026-01-09 16:43:04.66	212.87	34.14	-34.2	-35.4	29.3	3.02e+01	58	24	0	926416896	44	5703
2026-01-09 16:43:05.96	212.79	33.81	-33.8	-35.0	29.5	3.02e+01	59	24	0	928514048	44	5462
2026-01-09 16:43:06.68	212.74	33.63	-33.5	-34.7	29.9	3.02e+01	60	24	0	930086912	42	5883
2026-01-09 16:43:07.98	212.66	33.31	-33.3	-34.5	30.0	3.02e+01	44	24	0	932708352	42	5733
2026-01-09 16:43:08.70	212.62	33.13	-33.4	-34.5	30.0	3.02e+01	59	24	0	933756928	42	5783
2026-01-09 16:43:10.00	212.54	32.81	-33.2	-34.4	30.2	3.02e+01	61	24	0	936378368	42	5664
2026-01-09 16:43:10.72	212.50	32.64	-33.2	-34.4	30.1	3.02e+01	49	24	0	937426944	42	5689
2026-01-09 16:43:12.02	212.42	32.33	-33.4	-34.6	30.0	3.02e+01	59	24	0	940048384	42	5833
2026-01-09 16:43:12.74	212.38	32.16	-33.6	-34.8	29.9	3.02e+01	57	24	0	941621248	42	5951
2026-01-09 16:43:14.04	212.31	31.85	-33.6	-34.8	29.8	3.02e+01	60	24	0	943718400	42	5972
2026-01-09 16:43:14.76	212.27	31.68	-33.5	-34.7	29.9	3.02e+01	61	24	0	945291264	42	5884
2026-01-09 16:43:16.06	212.19	31.38	-33.6	-34.8	29.9	3.02e+01	51	24	0	947912704	42	5969
2026-01-09 16:43:16.78	212.16	31.21	-33.5	-34.6	30.0	3.02e+01	61	24	0	948961280	42	5855
2026-01-09 16:43:18.08	212.09	30.92	-33.5	-34.7	29.9	3.02e+01	60	24	0	951582720	42	5908
2026-01-09 16:43:18.80	212.05	30.75	-33.2	-34.3	30.2	3.02e+01	47	24	0	952631296	42	5640
2026-01-09 16:43:20.10	211.98	30.46	-33.3	-34.4	30.0	3.02e+01	56	24	0	955252736	42	5719
2026-01-09 16:43:20.82	211.95	30.30	-33.0	-34.1	30.3	3.02e+01	61	24	0	956301312	42	5527
2026-01-09 16:43:22.11	211.88	30.02	-32.9	-34.1	30.3	3.02e+01	58	24	0	958922752	40	6135
2026-01-09 16:43:22.84	211.85	29.86	-32.8	-34.0	30.3	3.02e+01	59	24	0	960495616	40	6065
2026-01-09 16:43:24.13	211.78	29.58	-32.9	-34.0	30.4	3.02e+01	46	24	0	962592768	40	6119
2026-01-09 16:43:24.85	211.75	29.42	-32.9	-34.1	30.3	3.02e+01	60	24	0	964165632	40	6152
2026-01-09 16:43:26.15	211.69	29.14	-32.9	-34.0	30.4	3.02e+01	59	24	0	966787072	40	6105
2026-01-09 16:43:26.87	211.66	28.99	-32.9	-34.1	30.3	3.02e+01	49	24	0	967835648	40	6163
2026-01-09 16:43:28.17	211.60	28.72	-33.1	-34.3	30.2	3.02e+01	58	24	0	970457088	40	6280
2026-01-09 16:43:28.89	211.56	28.56	-33.1	-34.2	30.1	3.02e+01	60	24	0	971505664	40	6252
2026-01-09 16:43:30.19	211.51	28.30	-33.1	-34.3	30.1	3.02e+01	57	24	0	974127104	40	6301
2026-01-09 16:43:30.91	211.48	28.15	-33.1	-34.2	30.1	3.02e+01	59	24	0	975699968	40	6273
2026-01-09 16:43:32.21	211.42	27.88	-33.1	-34.3	30.1	3.02e+01	44	24	0	977797120	40	6283
2026-01-09 16:43:32.93	211.39	27.74	-33.2	-34.3	30.0	3.02e+01	59	24	0	979369984	40	6350
2026-01-09 16:43:34.23	211.33	27.48	-33.3	-34.4	30.0	3.02e+01	60	24	0	981467136	40	6423
2026-01-09 16:43:34.95	211.30	27.33	-33.4	-34.6	29.9	3.02e+01	44	24	0	983040000	40	6515
2026-01-09 16:43:36.25	211.25	27.08	-33.5	-34.7	29.8	3.02e+01	58	24	0	985661440	40	6620
2026-01-09 16:43:36.97	211.22	26.93	-33.7	-34.8	29.7	3.02e+01	57	24	0	986710016	40	6726
2026-01-09 16:43:38.27	211.17	26.68	-33.6	-34.8	29.7	3.02e+01	60	24	0	989331456	40	6689
2026-01-09 16:43:38.99	211.14	26.54	-33.6	-34.8	29.7	3.02e+01	58	24	0	990904320	40	6704
2026-01-09 16:43:40.29	211.09	26.29	-33.8	-34.9	29.5	3.02e+01	47	24	0	993001472	40	6801
2026-01-09 16:43:41.01	211.07	26.16	-33.7	-34.9	29.6	3.02e+01	58	24	0	994574336	40	6780
2026-01-09 16:43:42.31	211.02	25.91	-34.0	-35.2	29.4	3.02e+01	54	24	0	996671488	40	6983
2026-01-09 16:43:43.03	210.99	25.78	-33.9	-35.1	29.5	3.02e+01	47	24	0	998244352	42	6147
2026-01-09 16:43:44.33	210.94	25.53	-34.0	-35.2	29.3	3.02e+01	58	24	0	1000865792	42	6264
2026-01-09 16:43:45.05	210.92	25.40	-34.0	-35.2	29.4	3.02e+01	58	24	0	1001914368	42	6226
2026-01-09 16:43:46.35	210.87	25.16	-34.1	-35.3	29.3	3.02e+01	59	24	0	1004535808	42	6310
2026-01-09 16:43:47.07	210.85	25.03	-34.1	-35.2	29.3	3.02e+01	60	24	0	1005584384	42	6277
2026-01-09 16:43:48.37	210.80	24.80	-33.9	-35.1	29.5	3.02e+01	50	24	0	1008205824	42	6147
2026-01-09 16:43:49.09	210.78	24.67	-34.0	-35.2	29.3	3.02e+01	57	24	0	1009778688	42	6238
2026-01-09 16:43:50.39	210.73	24.44	-34.0	-35.2	29.4	3.02e+01	58	24	0	1011875840	42	6206
2026-01-09 16:43:51.11	210.71	24.31	-34.0	-35.2	29.4	3.02e+01	61	24	0	1013448704	42	6229
2026-01-09 16:43:52.41	210.67	24.08	-34.0	-35.2	29.4	3.02e+01	62	24	0	1015545856	42	6247
2026-01-09 16:43:53.13	210.64	23.96	-33.9	-35.1	29.4	3.02e+01	51	24	0	1017118720	42	6188
2026-01-09 16:43:54.43	210.60	23.73	-34.1	-35.3	29.3	3.02e+01	58	24	0	1019740160	42	6324
2026-01-09 16:43:55.15	210.58	23.61	-34.1	-35.3	29.3	3.02e+01	57	24	0	1020788736	42	6299
2026-01-09 16:43:56.44	210.54	23.39	-34.1	-35.3	29.3	3.02e+01	58	24	0	1023410176	42	6348
2026-01-09 16:43:57.16	210.52	23.27	-34.0	-35.2	29.4	3.02e+01	63	24	0	1024458752	42	6242
2026-01-09 16:43:58.46	210.48	23.05	-34.1	-35.3	29.3	3.02e+01	47	24	0	1027080192	42	6327
2026-01-09 16:43:59.18	210.46	22.93	-34.1	-35.3	29.3	3.02e+01	61	24	0	1028653056	42	6350
2026-01-09 16:44:00.48	210.42	22.72	-34.2	-35.4	29.2	3.02e+01	59	24	0	1030750208	42	6416
2026-01-09 16:44:01.20	210.40	22.60	-34.2	-35.5	29.1	3.02e+01	60	24	0	1032323072	42	6436
2026-01-09 16:44:02.50	210.36	22.39	-34.3	-35.5	29.1	3.02e+01	59	24	0	1034944512	42	6452
2026-01-09 16:44:03.23	210.34	22.27	-34.2	-35.4	29.2	3.02e+01	59	24	0	1035993088	42	6410
2026-01-09 16:44:04.53	210.30	22.06	-34.2	-35.4	29.1	3.02e+01	60	24	0	1038614528	42	6396
2026-01-09 16:44:05.25	210.28	21.94	-34.3	-35.5	29.1	3.02e+01	57	24	0	1039663104	42	6450
2026-01-09 16:44:06.55	210.25	21.74	-34.2	-35.4	29.2	3.02e+01	60	24	0	1042284544	42	6377
2026-01-09 16:44:07.27	210.23	21.62	-34.3	-35.5	29.1	3.02e+01	60	24	0	1043857408	42	6489
2026-01-09 16:44:08.57	210.19	21.42	-34.1	-35.4	29.3	3.02e+01	62	24	0	1045954560	42	6353
2026-01-09 16:44:09.29	210.17	21.31	-34.2	-35.4	29.2	3.02e+01	59	24	0	1047527424	42	6378
2026-01-09 16:44:10.59	210.14	21.11	-34.2	-35.4	29.2	3.02e+01	60	24	0	1049624576	42	6404
2026-01-09 16:44:11.31	210.12	21.00	-34.1	-35.3	29.2	3.02e+01	60	24	0	1051197440	42	6349
2026-01-09 16:44:12.61	210.09	20.80	-34.2	-35.4	29.2	3.02e+01	58	24	0	1053818880	42	6389
2026-01-09 16:44:13.32	210.07	20.69	-34.1	-35.3	29.3	3.02e+01	56	24	0	1054867456	42	6302
2026-01-09 16:44:14.62	210.04	20.50	-34.2	-35.4	29.2	3.02e+01	59	24	0	1057488896	42	6409
2026-01-09 16:44:15.35	210.02	20.39	-33.9	-35.1	29.4	3.02e+01	61	24	0	1059061760	42	6202
2026-01-09 16:44:16.64	209.99	20.20	-34.0	-35.2	29.3	3.02e+01	62	24	0	1061158912	42	6266
2026-01-09 16:44:17.36	209.97	20.09	-34.0	-35.2	29.4	3.02e+01	51	24	0	1062731776	42	6207
2026-01-09 16:44:18.66	209.94	19.90	-33.8	-35.0	29.5	3.02e+01	58	24	0	1064828928	42	6113
2026-01-09 16:44:19.38	209.92	19.79	-33.9	-35.1	29.4	3.02e+01	58	24	0	1066401792	42	6196
2026-01-09 16:44:20.68	209.89	19.61	-33.8	-35.0	29.4	3.02e+01	59	24	0	1069023232	42	6115
2026-01-09 16:44:21.40	209.87	19.50	-33.8	-35.0	29.5	3.02e+01	60	24	0	1070071808	42	6080
2026-01-09 16:44:22.70	209.85	19.32	-33.6	-34.8	29.6	3.02e+01	52	24	0	1072693248	42	5960
2026-01-09 16:44:23.42	209.83	19.21	-33.8	-35.0	29.5	3.02e+01	56	24	0	1073741824	42	6071
2026-01-09 16:44:24.72	209.80	19.03	-33.6	-34.7	29.8	3.02e+01	61	24	0	1076363264	42	5919
2026-01-09 16:44:25.44	209.78	18.93	-33.7	-34.9	29.6	3.02e+01	53	24	0	1077936128	42	6020
2026-01-09 16:44:26.74	209.76	18.75	-33.6	-34.8	29.7	3.02e+01	61	24	0	1080033280	42	5975
2026-01-09 16:44:27.46	209.74	18.65	-33.6	-34.8	29.7	3.02e+01	59	24	0	1081606144	42	5975
2026-01-09 16:44:28.76	209.71	18.47	-33.6	-34.8	29.7	3.02e+01	60	24	0	1083703296	42	5950
2026-01-09 16:44:29.48	209.70	18.37	-33.5	-34.7	29.8	3.02e+01	58	24	0	1085276160	42	5907
2026-01-09 16:44:30.78	209.67	18.20	-33.6	-34.7	29.8	3.02e+01	52	24	0	1087897600	42	5913
2026-01-09 16:44:31.50	209.66	18.10	-33.6	-34.8	29.7	3.02e+01	59	24	0	1088946176	42	5949
2026-01-09 16:44:32.80	209.63	17.92	-33.7	-34.9	29.6	3.02e+01	62	24	0	1091567616	42	6049
2026-01-09 16:44:33.52	209.61	17.83	-33.7	-34.8	29.7	3.02e+01	44	24	0	1092616192	42	5989
2026-01-09 16:44:34.82	209.59	17.65	-33.7	-34.9	29.5	3.02e+01	60	24	0	1095237632	42	6013
2026-01-09 16:44:35.54	209.57	17.56	-33.7	-34.9	29.6	3.02e+01	57	24	0	1096810496	42	6008
2026-01-09 16:44:36.84	209.55	17.39	-33.8	-35.0	29.5	3.02e+01	59	24	0	1098907648	42	6094
2026-01-09 16:44:37.56	209.54	17.30	-33.7	-34.9	29.5	3.02e+01	59	24	0	1100480512	42	6053
2026-01-09 16:44:38.86	209.51	17.13	-33.8	-35.0	29.5	3.02e+01	46	24	0	1103101952	42	6115
2026-01-09 16:44:39.58	209.50	17.03	-33.7	-34.9	29.6	3.02e+01	59	24	0	1104150528	42	6045
2026-01-09 16:44:40.87	209.47	16.87	-33.9	-35.1	29.4	3.02e+01	58	24	0	1106771968	42	6194
2026-01-09 16:44:41.60	209.46	16.78	-33.8	-35.0	29.5	3.02e+01	53	24	0	1107820544	42	6077
2026-01-09 16:44:42.89	209.44	16.61	-33.9	-35.1	29.4	3.02e+01	58	24	0	1110441984	42	6156
2026-01-09 16:44:43.62	209.42	16.52	-33.9	-35.1	29.4	3.02e+01	60	24	0	1112014848	42	6193
2026-01-09 16:44:44.91	209.40	16.36	-33.7	-34.9	29.6	3.02e+01	60	24	0	1114112000	42	6034
2026-01-09 16:44:45.63	209.39	16.27	-33.8	-35.0	29.6	3.02e+01	61	24	0	1115684864	42	6074
2026-01-09 16:44:46.93	209.36	16.11	-33.8	-35.0	29.5	3.02e+01	48	24	0	1117782016	42	6103
2026-01-09 16:44:47.65	209.35	16.02	-33.8	-35.0	29.5	3.02e+01	61	24	0	1119354880	42	6106
2026-01-09 16:44:48.95	209.33	15.86	-33.6	-34.8	29.7	3.02e+01	59	24	0	1121976320	42	5973
2026-01-09 16:44:49.67	209.32	15.77	-33.7	-34.9	29.5	3.02e+01	45	24	0	1123024896	42	6060
2026-01-09 16:44:50.97	209.30	15.62	-33.8	-35.0	29.5	3.02e+01	60	24	0	1125646336	42	6078
2026-01-09 16:44:51.69	209.28	15.53	-33.9	-35.1	29.4	3.02e+01	59	24	0	1127219200	42	6149
2026-01-09 16:44:52.99	209.26	15.37	-33.8	-35.0	29.4	3.02e+01	58	24	0	1129316352	42	6087
2026-01-09 16:44:53.71	209.25	15.29	-33.9	-35.1	29.3	3.02e+01	57	24	0	1130889216	42	6193
2026-01-09 16:44:55.01	209.23	15.13	-33.9	-35.1	29.4	3.02e+01	47	24	0	1132986368	42	6175
2026-01-09 16:44:55.73	209.22	15.05	-33.9	-35.1	29.3	3.02e+01	58	24	0	1134559232	42	6185
2026-01-09 16:44:57.03	209.20	14.90	-33.9	-35.1	29.4	3.02e+01	59	24	0	1137180672	42	6154
2026-01-09 16:44:57.75	209.19	14.81	-33.9	-35.1	29.4	3.02e+01	57	24	0	1138229248	42	6185
2026-01-09 16:44:59.05	209.17	14.66	-33.9	-35.1	29.3	3.02e+01	60	24	0	1140850688	42	6191
2026-01-09 16:44:59.77	209.15	14.58	-33.9	-35.1	29.4	3.02e+01	44	24	0	1141899264	42	6165
2026-01-09 16:45:01.07	209.13	14.43	-34.0	-35.2	29.3	3.02e+01	61	24	0	1144520704	42	6275
2026-01-09 16:45:01.79	209.12	14.35	-33.9	-35.1	29.4	3.02e+01	58	24	0	1146093568	42	6149
2026-01-09 16:45:03.09	209.10	14.20	-33.9	-35.1	29.3	3.02e+01	47	24	0	1148190720	42	6156
2026-01-09 16:45:03.80	209.09	14.12	-33.8	-35.0	29.4	3.02e+01	61	24	0	1149763584	42	6105
2026-01-09 16:45:05.10	209.08	13.97	-33.9	-35.0	29.4	3.02e+01	47	24	0	1151860736	42	6130
2026-01-09 16:45:05.82	209.06	13.89	-33.9	-35.1	29.3	3.02e+01	62	24	0	1153433600	42	6191
2026-01-09 16:45:07.12	209.05	13.75	-33.8	-35.0	29.4	3.02e+01	59	24	0	1156055040	42	6109
2026-01-09 16:45:07.84	209.04	13.67	-33.8	-35.0	29.4	3.02e+01	45	24	0	1157103616	42	6088
2026-01-09 16:45:09.14	209.02	13.53	-33.9	-35.1	29.3	3.02e+01	58	24	0	1159725056	42	6175
2026-01-09 16:45:09.86	209.01	13.45	-34.0	-35.2	29.4	3.02e+01	56	24	0	1160773632	42	6216
2026-01-09 16:45:11.16	208.99	13.31	-34.1	-35.3	29.1	3.02e+01	59	24	0	1163395072	42	6340
2026-01-09 16:45:11.87	208.98	13.23	-34.0	-35.2	29.2	3.02e+01	56	24	0	1164967936	42	6242
2026-01-09 16:45:13.17	208.96	13.09	-33.9	-35.1	29.3	3.02e+01	52	24	0	1167065088	42	6192
2026-01-09 16:45:13.89	208.95	13.01	-33.9	-35.1	29.3	3.02e+01	56	24	0	1168637952	42	6171
2026-01-09 16:45:15.19	208.94	12.87	-33.8	-35.0	29.4	3.02e+01	60	24	0	1171259392	42	6108
2026-01-09 16:45:15.91	208.93	12.80	-33.9	-35.1	29.4	3.02e+01	52	24	0	1172307968	42	6177
2026-01-09 16:45:17.21	208.91	12.66	-33.9	-35.1	29.4	3.02e+01	57	24	0	1174929408	42	6174
2026-01-09 16:45:17.93	208.90	12.58	-33.9	-35.1	29.4	3.02e+01	59	24	0	1175977984	42	6151
2026-01-09 16:45:19.23	208.88	12.45	-33.9	-35.1	29.3	3.02e+01	57	24	0	1178599424	42	6198
2026-01-09 16:45:19.95	208.87	12.37	-33.9	-35.1	29.4	3.02e+01	58	24	0	1180172288	42	6170
2026-01-09 16:45:21.24	208.86	12.24	-34.0	-35.2	29.3	3.02e+01	46	24	0	1182269440	42	6229
2026-01-09 16:45:21.97	208.85	12.16	-34.1	-35.3	29.2	3.02e+01	59	24	0	1183842304	42	6309
2026-01-09 16:45:23.27	208.83	12.03	-34.2	-35.5	29.0	3.02e+01	62	24	0	1185939456	42	6425
2026-01-09 16:45:23.99	208.83	11.95	-34.2	-35.5	29.1	3.02e+01	44	24	0	1187512320	42	6430
2026-01-09 16:45:25.29	208.81	11.82	-34.1	-35.3	29.1	3.02e+01	61	24	0	1190133760	42	6348
2026-01-09 16:45:26.00	208.80	11.75	-34.1	-35.4	29.0	3.02e+01	63	24	0	1191182336	42	6369
2026-01-09 16:45:27.30	208.79	11.62	-34.2	-35.5	29.0	3.02e+01	61	24	0	1193803776	42	6426
2026-01-09 16:45:28.02	208.78	11.55	-34.3	-35.5	29.0	3.02e+01	59	24	0	1194852352	42	6448
2026-01-09 16:45:29.32	208.76	11.42	-34.2	-35.4	29.0	3.02e+01	52	24	0	1197473792	42	6418
2026-01-09 16:45:30.04	208.75	11.35	-34.2	-35.5	29.0	3.02e+01	58	24	0	1199046656	42	6424
2026-01-09 16:45:31.34	208.74	11.22	-34.3	-35.5	28.9	3.02e+01	57	24	0	1201143808	42	6471
2026-01-09 16:45:32.06	208.73	11.15	-34.4	-35.7	28.8	3.02e+01	51	24	0	1202716672	42	6584
2026-01-09 16:45:33.36	208.72	11.02	-34.5	-35.8	28.7	3.02e+01	59	24	0	1205338112	42	6678
2026-01-09 16:45:34.08	208.71	10.95	-34.5	-35.7	28.7	3.02e+01	62	24	0	1206386688	42	6609
2026-01-09 16:45:35.38	208.69	10.82	-34.4	-35.6	28.9	3.02e+01	59	24	0	1209008128	42	6543
2026-01-09 16:45:36.11	208.69	10.75	-34.4	-35.7	28.7	3.02e+01	58	24	0	1210056704	42	6584
2026-01-09 16:45:37.40	208.67	10.63	-34.4	-35.6	28.8	3.02e+01	49	24	0	1212678144	42	6553
