passes_logs/2026/01/09/R4.6S_Anadyr/R4.6S_Anadyr__20260109_021107_FENGYUN_3D_rec.log

#Pass ID: 20260109_021107_FENGYUN 3D
#Satellite: FENGYUN 3D
#Configuration: FENGYUN 3D
#almurnet v.1.7.20251203
#Start time: 2026-01-09 02:11:09

#Version: 2.2.20231116
#Station: R4.6S_Anadyr
#Location: 177.4865 lon 64.73178 lat
#TLE: 1 43010U 17072A   26008.23776554  .00000457  00000+0  23766-3 0  9992
#TLE: 2 43010  98.9934 339.9493 0002110 120.0616 240.0769 14.19695192422296

#Time	Az	El	Level	Level2	SNR	BER	BlckErr	Temp	State	Recorded	gain1	gain2
2026-01-09 02:11:09.74	154.58	0.11	-48.3	-66.0	3.5	3.02e+01	0	31	0	0	60	76585
2026-01-09 02:11:10.74	154.59	0.17	-48.1	-60.2	3.6	8.45e-01	0	32	104	0	60	37049
2026-01-09 02:11:11.75	154.59	0.23	-48.1	-60.2	3.6	8.45e-01	0	32	104	0	60	37043
2026-01-09 02:11:12.76	154.59	0.29	-48.1	-60.2	3.6	8.46e-01	0	32	104	0	60	37192
2026-01-09 02:11:13.77	154.59	0.35	-48.2	-60.3	3.6	8.45e-01	0	32	104	0	60	37204
2026-01-09 02:11:14.78	154.60	0.42	-48.2	-60.3	3.6	8.45e-01	0	32	104	0	60	37587
2026-01-09 02:11:15.79	154.60	0.48	-48.3	-60.4	3.6	8.45e-01	0	32	104	0	60	37787
2026-01-09 02:11:16.80	154.60	0.54	-48.2	-60.3	3.6	8.46e-01	0	32	104	0	60	37527
2026-01-09 02:11:17.81	154.60	0.60	-48.2	-60.2	3.6	8.44e-01	0	32	104	0	60	37185
2026-01-09 02:11:18.82	154.61	0.66	-48.1	-60.2	3.6	8.46e-01	0	32	104	0	60	37050
2026-01-09 02:11:19.83	154.61	0.72	-48.0	-60.1	3.6	8.46e-01	0	32	104	0	60	36478
2026-01-09 02:11:20.84	154.61	0.79	-47.8	-60.0	3.6	8.44e-01	0	32	104	0	60	36252
2026-01-09 02:11:21.85	154.61	0.85	-47.7	-59.8	3.6	8.45e-01	0	32	104	0	60	35160
2026-01-09 02:11:22.86	154.61	0.91	-46.5	-58.7	3.6	8.45e-01	0	32	104	0	60	30952
2026-01-09 02:11:23.87	154.62	0.97	-45.8	-57.9	3.6	8.46e-01	0	32	104	0	60	28294
2026-01-09 02:11:24.88	154.62	1.04	-45.5	-57.5	3.6	8.46e-01	0	32	104	0	60	27199
2026-01-09 02:11:25.89	154.62	1.10	-45.5	-57.5	3.6	8.45e-01	0	32	104	0	60	27018
2026-01-09 02:11:26.90	154.62	1.16	-45.5	-57.5	3.6	8.45e-01	0	32	104	0	60	27065
2026-01-09 02:11:27.91	154.63	1.23	-45.5	-57.6	3.6	8.46e-01	0	32	104	0	60	27371
2026-01-09 02:11:28.92	154.63	1.29	-45.5	-57.6	3.6	8.44e-01	0	32	104	0	60	27395
2026-01-09 02:11:29.93	154.63	1.35	-45.5	-57.6	3.6	8.44e-01	0	32	104	0	60	27474
2026-01-09 02:11:30.94	154.63	1.42	-45.5	-57.6	3.6	8.45e-01	0	32	104	0	60	27303
2026-01-09 02:11:31.95	154.63	1.48	-45.5	-57.4	3.6	8.46e-01	0	32	104	0	60	26861
2026-01-09 02:11:32.96	154.64	1.54	-45.5	-57.3	3.6	8.46e-01	0	32	104	0	60	26338
2026-01-09 02:11:33.97	154.64	1.61	-45.5	-57.1	3.6	8.46e-01	0	32	104	0	60	25990
2026-01-09 02:11:34.98	154.64	1.67	-45.5	-57.2	3.6	8.45e-01	0	32	104	0	60	26318
2026-01-09 02:11:35.99	154.64	1.74	-45.5	-57.4	3.6	8.46e-01	0	32	104	0	60	26870
2026-01-09 02:11:37.00	154.65	1.80	-45.5	-57.6	3.6	8.45e-01	0	32	104	0	60	27350
2026-01-09 02:11:38.01	154.65	1.86	-45.5	-57.5	3.6	8.45e-01	0	32	104	0	60	27256
2026-01-09 02:11:39.02	154.65	1.93	-45.5	-57.5	3.6	8.46e-01	0	32	104	0	60	27175
2026-01-09 02:11:40.03	154.65	1.99	-45.5	-57.4	3.6	8.44e-01	0	32	104	0	60	26911
2026-01-09 02:11:41.04	154.66	2.06	-45.5	-57.3	3.6	8.47e-01	0	32	104	0	60	26353
2026-01-09 02:11:42.05	154.66	2.12	-45.4	-57.1	3.6	8.45e-01	0	33	104	0	60	26012
2026-01-09 02:11:43.06	154.66	2.19	-45.4	-57.0	3.6	8.45e-01	0	33	104	0	60	25506
2026-01-09 02:11:44.07	154.66	2.25	-45.4	-56.8	3.6	8.45e-01	0	32	104	0	60	24933
2026-01-09 02:11:45.08	154.66	2.32	-45.4	-56.7	3.6	8.46e-01	0	32	104	0	60	24641
2026-01-09 02:11:46.09	154.67	2.39	-45.4	-56.7	3.6	8.44e-01	0	33	104	0	60	24778
2026-01-09 02:11:47.10	154.67	2.45	-45.4	-56.9	3.6	8.45e-01	0	32	104	0	60	25312
2026-01-09 02:11:48.11	154.67	2.52	-45.4	-56.7	3.6	8.45e-01	0	32	104	0	60	24849
2026-01-09 02:11:49.12	154.67	2.58	-45.4	-56.5	3.6	8.45e-01	0	32	104	0	60	24242
2026-01-09 02:11:50.13	154.67	2.65	-45.3	-56.0	3.6	8.44e-01	0	32	104	0	60	22873
2026-01-09 02:11:51.14	154.68	2.72	-45.3	-55.9	3.6	8.45e-01	0	33	104	0	60	22596
2026-01-09 02:11:52.15	154.68	2.78	-45.4	-56.5	3.6	8.46e-01	0	33	104	0	60	24113
2026-01-09 02:11:53.16	154.68	2.85	-45.4	-57.2	3.6	8.45e-01	0	32	104	0	60	26124
2026-01-09 02:11:54.17	154.68	2.92	-45.5	-57.5	3.6	8.46e-01	0	33	104	0	60	27125
2026-01-09 02:11:55.18	154.69	2.98	-45.3	-56.1	3.6	8.46e-01	0	33	104	0	60	22957
2026-01-09 02:11:56.19	154.69	3.05	-45.0	-53.5	4.2	8.42e-01	0	33	104	0	60	17192
2026-01-09 02:11:57.20	154.69	3.12	-44.5	-49.9	5.7	7.32e-01	0	33	0	0	60	11284
2026-01-09 02:11:58.21	154.69	3.19	-43.8	-48.0	7.7	1.55e-01	0	33	0	6291456	60	9076
2026-01-09 02:11:59.22	154.69	3.25	-43.1	-46.5	9.6	3.64e-02	0	33	0	11534336	60	7646
2026-01-09 02:12:00.23	154.70	3.32	-42.5	-45.4	10.8	4.88e-03	0	33	0	17825792	58	7552
2026-01-09 02:12:01.24	154.70	3.39	-42.1	-44.8	11.3	1.48e-03	0	33	0	23068672	58	7038
2026-01-09 02:12:02.24	154.70	3.46	-41.7	-44.0	12.3	3.66e-04	0	33	0	28311552	56	7247
2026-01-09 02:12:03.25	154.70	3.53	-41.6	-43.9	12.4	4.37e-04	0	33	0	34603008	56	7170
2026-01-09 02:12:04.26	154.71	3.60	-41.5	-43.7	12.5	1.18e-04	0	33	0	39845888	56	7006
2026-01-09 02:12:05.27	154.71	3.66	-41.8	-44.3	12.0	4.51e-04	0	33	0	46137344	56	7445
2026-01-09 02:12:06.28	154.71	3.73	-41.9	-44.5	11.7	4.05e-04	0	33	0	51380224	56	7639
2026-01-09 02:12:07.29	154.71	3.80	-42.7	-45.8	8.7	2.20e-03	0	33	0	56623104	56	8886
2026-01-09 02:12:08.30	154.71	3.87	-45.3	-54.2	4.2	8.42e-01	0	33	104	57671680	60	18435
2026-01-09 02:12:09.31	154.72	3.94	-40.1	-41.9	14.2	1.10e-06	0	33	0	59768832	52	7166
2026-01-09 02:12:10.32	154.72	4.01	-44.9	-51.1	5.1	8.09e-01	0	33	0	61865984	60	12943
2026-01-09 02:12:11.33	154.72	4.08	-41.1	-43.2	13.6	6.51e-02	0	33	0	67108864	58	5837
2026-01-09 02:12:12.34	154.72	4.15	-45.0	-53.7	4.0	8.43e-01	0	33	104	69206016	60	17451
2026-01-09 02:12:13.35	154.72	4.22	-40.3	-42.3	13.9	3.23e-01	0	33	104	69206016	54	6641
2026-01-09 02:12:14.36	154.73	4.29	-40.0	-41.8	14.6	2.20e-06	0	33	0	72351744	54	6289
2026-01-09 02:12:15.37	154.73	4.36	-39.7	-41.4	15.0	0.00e+00	0	32	0	77594624	52	6751
2026-01-09 02:12:16.38	154.73	4.43	-39.9	-41.6	14.9	1.10e-06	0	33	0	83886080	52	6905
2026-01-09 02:12:17.38	154.73	4.50	-39.9	-41.6	14.8	0.00e+00	0	33	0	89128960	52	6904
2026-01-09 02:12:18.39	154.73	4.58	-39.9	-41.7	14.4	0.00e+00	0	33	0	94371840	52	6971
2026-01-09 02:12:19.40	154.74	4.65	-40.0	-41.8	14.6	0.00e+00	0	33	0	100663296	52	7068
2026-01-09 02:12:20.41	154.74	4.72	-40.0	-41.7	14.5	0.00e+00	0	33	0	105906176	52	6990
2026-01-09 02:12:21.42	154.74	4.79	-40.1	-41.9	14.6	1.10e-06	0	33	0	112197632	52	7137
2026-01-09 02:12:22.43	154.74	4.86	-40.2	-42.0	14.5	0.00e+00	0	33	0	117440512	52	7199
2026-01-09 02:12:23.44	154.74	4.93	-40.1	-41.9	14.6	1.10e-06	0	33	0	122683392	52	7120
2026-01-09 02:12:24.45	154.75	5.01	-40.1	-41.9	14.7	3.40e-06	0	33	0	128974848	52	7118
2026-01-09 02:12:25.46	154.75	5.08	-40.2	-41.9	14.6	0.00e+00	0	33	0	134217728	52	7163
2026-01-09 02:12:26.47	154.75	5.15	-40.1	-41.8	14.8	1.10e-06	0	33	0	140509184	52	7043
2026-01-09 02:12:27.48	154.75	5.22	-39.9	-41.6	15.1	0.00e+00	0	33	0	145752064	52	6912
2026-01-09 02:12:28.49	154.75	5.30	-39.8	-41.4	15.3	0.00e+00	0	33	0	152043520	52	6728
2026-01-09 02:12:29.50	154.76	5.37	-39.8	-41.4	15.4	0.00e+00	0	33	0	157286400	52	6706
2026-01-09 02:12:30.51	154.76	5.44	-39.8	-41.4	15.4	0.00e+00	0	33	0	163577856	52	6734
2026-01-09 02:12:31.51	154.76	5.52	-39.8	-41.3	15.5	0.00e+00	0	33	0	168820736	52	6685
2026-01-09 02:12:32.52	154.76	5.59	-39.7	-41.3	15.5	0.00e+00	0	33	0	174063616	52	6617
2026-01-09 02:12:33.53	154.76	5.67	-39.4	-41.0	15.9	0.00e+00	0	33	0	180355072	52	6401
2026-01-09 02:12:34.54	154.77	5.74	-39.5	-41.0	15.8	0.00e+00	0	33	0	185597952	52	6458
2026-01-09 02:12:35.55	154.77	5.81	-39.3	-40.8	16.0	0.00e+00	0	33	0	191889408	52	6258
2026-01-09 02:12:36.56	154.77	5.89	-39.5	-40.9	15.9	0.00e+00	0	33	0	197132288	52	6387
2026-01-09 02:12:37.57	154.77	5.96	-39.3	-40.8	16.1	0.00e+00	0	33	0	202375168	52	6257
2026-01-09 02:12:38.58	154.77	6.04	-39.3	-40.8	16.0	0.00e+00	0	33	0	208666624	52	6262
2026-01-09 02:12:39.59	154.78	6.12	-39.1	-40.5	16.4	0.00e+00	0	33	0	213909504	52	6101
2026-01-09 02:12:40.60	154.78	6.19	-38.9	-40.3	16.7	0.00e+00	0	33	0	219152384	52	5952
2026-01-09 02:12:41.61	154.78	6.27	-38.7	-40.0	16.9	0.00e+00	0	33	0	225443840	50	6436
2026-01-09 02:12:42.62	154.78	6.34	-38.7	-40.0	16.9	0.00e+00	0	33	0	230686720	50	6436
2026-01-09 02:12:43.63	154.78	6.42	-38.6	-39.9	17.1	0.00e+00	0	33	0	236978176	50	6364
2026-01-09 02:12:44.64	154.79	6.50	-38.4	-39.7	17.3	0.00e+00	0	33	0	242221056	50	6212
2026-01-09 02:12:45.65	154.79	6.57	-38.3	-39.7	17.4	0.00e+00	0	33	0	248512512	50	6174
2026-01-09 02:12:46.66	154.79	6.65	-38.1	-39.4	17.7	0.00e+00	0	33	0	253755392	50	5980
2026-01-09 02:12:47.67	154.79	6.73	-38.2	-39.4	17.7	0.00e+00	0	33	0	260046848	50	6020
2026-01-09 02:12:48.68	154.79	6.80	-38.1	-39.3	17.8	0.00e+00	0	33	0	265289728	50	5944
2026-01-09 02:12:49.68	154.80	6.88	-38.0	-39.2	17.8	0.00e+00	0	33	0	270532608	50	5888
2026-01-09 02:12:50.69	154.80	6.96	-37.9	-39.1	17.9	0.00e+00	0	33	0	276824064	50	5809
2026-01-09 02:12:51.70	154.80	7.04	-37.8	-38.9	18.2	0.00e+00	0	33	0	282066944	50	5683
2026-01-09 02:12:52.71	154.80	7.12	-37.7	-38.9	18.2	0.00e+00	0	33	0	288358400	48	6332
2026-01-09 02:12:53.72	154.80	7.19	-37.8	-39.0	18.2	0.00e+00	0	33	0	293601280	48	6405
2026-01-09 02:12:54.73	154.80	7.27	-37.7	-38.8	18.2	0.00e+00	0	33	0	298844160	48	6296
2026-01-09 02:12:55.74	154.81	7.35	-37.7	-38.8	18.3	0.00e+00	0	33	0	305135616	48	6270
2026-01-09 02:12:56.75	154.81	7.43	-37.8	-38.9	18.2	0.00e+00	0	33	0	310378496	48	6359
2026-01-09 02:12:57.76	154.81	7.51	-37.7	-38.9	18.2	0.00e+00	0	33	0	316669952	48	6322
2026-01-09 02:12:58.77	154.81	7.59	-37.7	-38.8	18.2	0.00e+00	0	33	0	321912832	48	6308
2026-01-09 02:12:59.78	154.81	7.67	-37.6	-38.8	18.3	0.00e+00	0	33	0	327155712	48	6261
2026-01-09 02:13:00.79	154.82	7.75	-37.7	-38.8	18.2	0.00e+00	0	33	0	333447168	48	6302
2026-01-09 02:13:01.80	154.82	7.83	-37.7	-38.8	18.2	0.00e+00	0	33	0	338690048	48	6288
2026-01-09 02:13:02.81	154.82	7.91	-37.9	-39.0	18.1	0.00e+00	0	33	0	344981504	48	6431
2026-01-09 02:13:03.82	154.82	8.00	-37.7	-38.9	18.2	0.00e+00	0	33	0	350224384	48	6351
2026-01-09 02:13:04.83	154.82	8.08	-37.8	-39.0	18.1	0.00e+00	0	33	0	356515840	48	6402
2026-01-09 02:13:05.84	154.82	8.16	-37.8	-38.9	18.2	0.00e+00	0	33	0	361758720	48	6369
2026-01-09 02:13:06.85	154.83	8.24	-37.8	-38.9	18.2	0.00e+00	0	33	0	367001600	48	6384
2026-01-09 02:13:07.85	154.83	8.32	-37.9	-39.1	18.0	0.00e+00	0	33	0	373293056	48	6485
2026-01-09 02:13:08.86	154.83	8.40	-37.9	-39.1	18.0	0.00e+00	0	33	0	378535936	48	6515
2026-01-09 02:13:09.87	154.83	8.49	-37.9	-39.1	18.0	0.00e+00	0	33	0	384827392	48	6522
2026-01-09 02:13:10.88	154.83	8.57	-38.0	-39.2	17.8	0.00e+00	0	33	0	390070272	48	6567
2026-01-09 02:13:11.89	154.84	8.65	-37.9	-39.1	17.9	0.00e+00	0	33	0	395313152	48	6529
2026-01-09 02:13:12.90	154.84	8.74	-38.0	-39.2	17.7	0.00e+00	0	33	0	401604608	48	6604
2026-01-09 02:13:13.91	154.84	8.82	-38.1	-39.3	17.6	0.00e+00	0	33	0	406847488	48	6664
2026-01-09 02:13:14.92	154.84	8.91	-38.2	-39.4	17.5	0.00e+00	0	33	0	413138944	48	6753
2026-01-09 02:13:15.93	154.84	8.99	-38.3	-39.5	17.4	0.00e+00	0	33	0	418381824	48	6818
2026-01-09 02:13:16.94	154.84	9.07	-38.3	-39.5	17.4	0.00e+00	0	33	0	423624704	48	6830
2026-01-09 02:13:17.95	154.85	9.16	-38.3	-39.6	17.5	0.00e+00	0	33	0	429916160	48	6866
2026-01-09 02:13:18.96	154.85	9.25	-38.2	-39.4	17.6	0.00e+00	0	33	0	435159040	48	6724
2026-01-09 02:13:19.97	154.85	9.33	-38.2	-39.4	17.6	0.00e+00	0	33	0	441450496	48	6726
2026-01-09 02:13:20.98	154.85	9.42	-38.1	-39.3	17.7	0.00e+00	0	33	0	446693376	48	6656
2026-01-09 02:13:21.99	154.85	9.50	-38.1	-39.3	17.7	0.00e+00	0	33	0	452984832	48	6671
2026-01-09 02:13:23.00	154.85	9.59	-38.0	-39.2	17.9	0.00e+00	0	33	0	458227712	48	6566
2026-01-09 02:13:24.00	154.86	9.68	-37.9	-39.0	18.2	0.00e+00	0	33	0	464519168	48	6441
2026-01-09 02:13:25.01	154.86	9.76	-37.9	-39.1	18.2	0.00e+00	0	33	0	469762048	48	6483
2026-01-09 02:13:26.02	154.86	9.85	-37.7	-38.8	18.4	0.00e+00	0	33	0	475004928	48	6301
2026-01-09 02:13:27.03	154.86	9.94	-37.7	-38.8	18.4	0.00e+00	0	33	0	481296384	48	6301
2026-01-09 02:13:28.04	154.86	10.03	-37.6	-38.7	18.6	0.00e+00	0	33	0	486539264	48	6244
2026-01-09 02:13:29.05	154.86	10.11	-37.5	-38.6	18.7	0.00e+00	0	33	0	492830720	48	6105
2026-01-09 02:13:30.06	154.86	10.20	-37.6	-38.7	18.7	0.00e+00	0	33	0	498073600	48	6195
2026-01-09 02:13:31.07	154.87	10.29	-37.3	-38.4	19.0	0.00e+00	0	33	0	503316480	48	5984
2026-01-09 02:13:32.08	154.87	10.38	-37.1	-38.2	19.2	0.00e+00	0	33	0	509607936	48	5832
2026-01-09 02:13:33.09	154.87	10.47	-37.1	-38.2	19.3	0.00e+00	0	33	0	514850816	48	5840
2026-01-09 02:13:34.10	154.87	10.56	-36.9	-37.9	19.5	0.00e+00	0	33	0	521142272	48	5663
2026-01-09 02:13:35.11	154.87	10.65	-36.9	-37.9	19.6	0.00e+00	0	33	0	526385152	48	5646
2026-01-09 02:13:36.12	154.87	10.74	-36.7	-37.6	19.8	0.00e+00	0	33	0	531628032	46	6172
2026-01-09 02:13:37.13	154.88	10.83	-36.6	-37.6	19.9	0.00e+00	0	33	0	537919488	46	6148
2026-01-09 02:13:38.14	154.88	10.92	-36.6	-37.5	19.9	0.00e+00	0	33	0	543162368	46	6103
2026-01-09 02:13:39.15	154.88	11.02	-36.6	-37.5	20.0	0.00e+00	0	33	0	549453824	46	6092
2026-01-09 02:13:40.16	154.88	11.11	-36.4	-37.3	20.2	0.00e+00	0	33	0	554696704	46	5949
2026-01-09 02:13:41.17	154.88	11.20	-36.4	-37.3	20.2	0.00e+00	0	33	0	560988160	46	5938
2026-01-09 02:13:42.18	154.88	11.29	-36.5	-37.4	20.0	0.00e+00	0	33	0	566231040	46	6012
2026-01-09 02:13:43.19	154.88	11.39	-36.4	-37.4	20.1	0.00e+00	0	33	0	571473920	46	5973
2026-01-09 02:13:44.20	154.89	11.48	-36.5	-37.5	20.0	0.00e+00	0	33	0	577765376	46	6052
2026-01-09 02:13:45.20	154.89	11.57	-36.5	-37.5	20.0	0.00e+00	0	33	0	583008256	46	6059
2026-01-09 02:13:46.21	154.89	11.67	-36.5	-37.4	20.0	0.00e+00	0	33	0	589299712	46	6016
2026-01-09 02:13:47.22	154.89	11.76	-36.6	-37.5	20.0	0.00e+00	0	33	0	594542592	46	6069
2026-01-09 02:13:48.23	154.89	11.86	-36.5	-37.5	20.0	0.00e+00	0	33	0	599785472	46	6073
2026-01-09 02:13:49.24	154.89	11.95	-36.6	-37.6	19.9	0.00e+00	0	33	0	606076928	46	6116
2026-01-09 02:13:50.25	154.89	12.05	-36.6	-37.6	19.8	0.00e+00	0	33	0	611319808	46	6171
2026-01-09 02:13:51.26	154.89	12.14	-36.7	-37.7	19.7	0.00e+00	0	33	0	617611264	46	6204
2026-01-09 02:13:52.27	154.90	12.24	-36.8	-37.8	19.7	0.00e+00	0	33	0	622854144	46	6270
2026-01-09 02:13:53.28	154.90	12.34	-36.9	-37.9	19.6	0.00e+00	0	33	0	628097024	46	6327
2026-01-09 02:13:54.28	154.90	12.43	-36.9	-37.9	19.6	0.00e+00	0	33	0	634388480	46	6332
2026-01-09 02:13:55.29	154.90	12.53	-37.0	-38.0	19.4	0.00e+00	0	33	0	639631360	46	6424
2026-01-09 02:13:56.30	154.90	12.63	-37.0	-38.0	19.4	0.00e+00	0	33	0	645922816	46	6428
2026-01-09 02:13:57.31	154.90	12.73	-37.0	-38.0	19.4	0.00e+00	0	33	0	651165696	46	6460
2026-01-09 02:13:58.32	154.90	12.83	-37.0	-38.0	19.3	0.00e+00	0	33	0	657457152	46	6458
2026-01-09 02:13:59.33	154.90	12.92	-37.0	-38.0	19.2	0.00e+00	0	33	0	662700032	46	6461
2026-01-09 02:14:00.34	154.91	13.02	-37.0	-38.0	19.2	0.00e+00	0	33	0	667942912	46	6432
2026-01-09 02:14:01.35	154.91	13.12	-37.0	-38.0	19.2	0.00e+00	0	33	0	674234368	46	6449
2026-01-09 02:14:02.36	154.91	13.22	-37.0	-38.0	19.2	0.00e+00	0	33	0	679477248	46	6464
2026-01-09 02:14:03.37	154.91	13.33	-37.0	-38.0	19.1	0.00e+00	0	33	0	685768704	46	6459
2026-01-09 02:14:04.38	154.91	13.43	-37.0	-38.0	19.2	0.00e+00	0	33	0	691011584	46	6447
2026-01-09 02:14:05.39	154.91	13.53	-37.1	-38.2	19.1	0.00e+00	0	33	0	696254464	46	6553
2026-01-09 02:14:06.40	154.91	13.63	-36.9	-37.9	19.4	0.00e+00	0	33	0	702545920	46	6346
2026-01-09 02:14:07.40	154.91	13.73	-36.9	-37.9	19.5	0.00e+00	0	33	0	707788800	46	6335
2026-01-09 02:14:08.41	154.91	13.83	-37.0	-38.1	19.5	0.00e+00	0	33	0	714080256	46	6465
2026-01-09 02:14:09.42	154.92	13.94	-36.7	-37.7	19.8	0.00e+00	0	33	0	719323136	46	6208
2026-01-09 02:14:10.43	154.92	14.04	-36.9	-37.8	19.8	0.00e+00	0	33	0	724566016	46	6308
2026-01-09 02:14:11.44	154.92	14.15	-36.7	-37.7	19.9	0.00e+00	0	33	0	730857472	46	6199
2026-01-09 02:14:12.44	154.92	14.25	-36.7	-37.7	20.0	0.00e+00	0	33	0	736100352	46	6212
2026-01-09 02:14:13.45	154.92	14.35	-36.3	-37.2	20.3	0.00e+00	0	33	0	742391808	46	5884
2026-01-09 02:14:14.46	154.92	14.46	-36.2	-37.1	20.5	0.00e+00	0	33	0	747634688	46	5820
2026-01-09 02:14:15.47	154.92	14.57	-36.3	-37.2	20.5	0.00e+00	0	33	0	753926144	46	5856
2026-01-09 02:14:16.48	154.92	14.67	-36.2	-37.1	20.5	0.00e+00	0	33	0	759169024	46	5827
2026-01-09 02:14:17.49	154.92	14.78	-36.3	-37.1	20.6	0.00e+00	0	33	0	764411904	46	5828
2026-01-09 02:14:18.50	154.92	14.89	-36.0	-36.9	20.8	0.00e+00	0	33	0	770703360	46	5638
2026-01-09 02:14:19.51	154.93	15.00	-35.9	-36.8	20.9	0.00e+00	0	33	0	775946240	46	5588
2026-01-09 02:14:20.52	154.93	15.10	-35.9	-36.7	20.9	0.00e+00	0	33	0	782237696	46	5551
2026-01-09 02:14:21.53	154.93	15.21	-35.8	-36.7	20.9	0.00e+00	0	33	0	787480576	46	5544
2026-01-09 02:14:22.54	154.93	15.32	-36.1	-37.0	20.8	0.00e+00	0	33	0	792723456	46	5718
2026-01-09 02:14:23.55	154.93	15.43	-35.7	-36.6	21.0	0.00e+00	0	33	0	799014912	44	6131
2026-01-09 02:14:24.56	154.93	15.54	-35.8	-36.6	21.1	0.00e+00	0	33	0	804257792	44	6169
2026-01-09 02:14:25.57	154.93	15.65	-35.6	-36.5	21.2	0.00e+00	0	33	0	810549248	44	6054
2026-01-09 02:14:26.58	154.93	15.76	-35.5	-36.4	21.4	0.00e+00	0	33	0	815792128	44	5997
2026-01-09 02:14:27.58	154.93	15.88	-35.5	-36.4	21.3	0.00e+00	0	33	0	821035008	44	5968
2026-01-09 02:14:28.59	154.93	15.99	-35.4	-36.2	21.4	0.00e+00	0	33	0	827326464	44	5882
2026-01-09 02:14:29.60	154.93	16.10	-35.4	-36.2	21.5	0.00e+00	0	33	0	832569344	44	5872
2026-01-09 02:14:30.61	154.93	16.21	-35.4	-36.3	21.4	0.00e+00	0	33	0	838860800	44	5920
2026-01-09 02:14:31.62	154.93	16.33	-35.5	-36.3	21.4	0.00e+00	0	33	0	844103680	44	5947
2026-01-09 02:14:32.63	154.94	16.44	-35.4	-36.2	21.4	0.00e+00	0	33	0	850395136	44	5882
2026-01-09 02:14:33.64	154.94	16.56	-35.4	-36.3	21.4	0.00e+00	0	33	0	855638016	44	5912
2026-01-09 02:14:34.65	154.94	16.67	-35.5	-36.4	21.1	0.00e+00	0	33	0	860880896	44	5988
2026-01-09 02:14:35.66	154.94	16.79	-35.5	-36.3	21.2	0.00e+00	0	33	0	867172352	44	5948
2026-01-09 02:14:36.67	154.94	16.91	-35.4	-36.3	21.2	0.00e+00	0	33	0	872415232	44	5920
2026-01-09 02:14:37.68	154.94	17.02	-35.3	-36.2	21.2	0.00e+00	0	33	0	878706688	44	5865
2026-01-09 02:14:38.69	154.94	17.14	-35.3	-36.2	21.0	0.00e+00	0	33	0	883949568	44	5861
2026-01-09 02:14:39.70	154.94	17.26	-35.2	-36.1	21.0	0.00e+00	0	33	0	890241024	44	5795
2026-01-09 02:14:40.71	154.94	17.38	-35.1	-36.0	21.1	0.00e+00	0	33	0	895483904	44	5724
2026-01-09 02:14:41.72	154.94	17.50	-35.2	-36.1	21.0	0.00e+00	0	33	0	900726784	44	5783
2026-01-09 02:14:42.73	154.94	17.62	-35.0	-35.8	21.2	0.00e+00	0	33	0	907018240	44	5614
2026-01-09 02:14:43.74	154.94	17.74	-34.8	-35.6	21.5	0.00e+00	0	33	0	912261120	44	5502
2026-01-09 02:14:44.75	154.94	17.86	-34.8	-35.6	21.6	0.00e+00	0	33	0	917504000	42	6144
2026-01-09 02:14:45.76	154.94	17.98	-34.7	-35.5	21.8	0.00e+00	0	33	0	923795456	42	6083
2026-01-09 02:14:46.77	154.94	18.11	-34.2	-35.0	22.5	0.00e+00	0	33	0	929038336	42	5712
2026-01-09 02:14:47.78	154.94	18.23	-33.8	-34.5	22.9	0.00e+00	0	33	0	935329792	42	5413
2026-01-09 02:14:48.79	154.94	18.35	-33.6	-34.3	23.3	0.00e+00	0	33	0	940572672	40	5932
2026-01-09 02:14:49.80	154.94	18.48	-33.1	-33.8	23.9	0.00e+00	0	33	0	946864128	40	5609
2026-01-09 02:14:50.80	154.94	18.60	-32.8	-33.5	24.4	0.00e+00	0	33	0	952107008	40	5384
2026-01-09 02:14:51.81	154.94	18.73	-32.5	-33.2	24.6	0.00e+00	0	33	0	958398464	38	5896
2026-01-09 02:14:52.82	154.94	18.85	-32.1	-32.8	25.0	0.00e+00	0	33	0	963641344	38	5622
2026-01-09 02:14:53.83	154.94	18.98	-32.1	-32.7	25.2	0.00e+00	0	33	0	968884224	38	5559
2026-01-09 02:14:54.84	154.94	19.11	-31.7	-32.4	25.7	0.00e+00	0	33	0	975175680	38	5320
2026-01-09 02:14:55.85	154.94	19.24	-31.6	-32.3	25.9	0.00e+00	0	33	0	980418560	36	5905
2026-01-09 02:14:56.86	154.94	19.37	-31.2	-31.8	26.3	0.00e+00	0	33	0	986710016	36	5610
2026-01-09 02:14:57.87	154.94	19.50	-31.0	-31.6	26.6	0.00e+00	0	33	0	991952896	36	5453
2026-01-09 02:14:58.88	154.94	19.63	-30.6	-31.3	26.8	0.00e+00	0	33	0	997195776	34	5900
2026-01-09 02:14:59.88	154.94	19.76	-30.5	-31.1	26.9	0.00e+00	0	33	0	1003487232	34	5786
2026-01-09 02:15:00.90	154.94	19.89	-30.4	-31.0	27.1	0.00e+00	0	33	0	1008730112	34	5716
2026-01-09 02:15:01.90	154.94	20.02	-30.3	-30.9	27.2	0.00e+00	0	33	0	1015021568	34	5658
2026-01-09 02:15:02.91	154.94	20.15	-30.3	-30.9	27.2	0.00e+00	0	33	0	1020264448	34	5658
2026-01-09 02:15:03.92	154.94	20.29	-29.9	-30.6	27.4	0.00e+00	0	33	0	1025507328	34	5440
2026-01-09 02:15:04.93	154.94	20.42	-30.1	-30.7	27.4	0.00e+00	0	33	0	1031798784	34	5552
2026-01-09 02:15:05.94	154.94	20.56	-29.9	-30.5	27.5	0.00e+00	0	33	0	1037041664	34	5395
2026-01-09 02:15:06.95	154.94	20.69	-29.7	-30.3	27.7	0.00e+00	0	33	0	1043333120	32	5939
2026-01-09 02:15:07.96	154.94	20.83	-29.7	-30.3	27.7	0.00e+00	0	33	0	1048576000	32	5929
2026-01-09 02:15:08.97	154.94	20.97	-29.6	-30.2	27.7	0.00e+00	0	33	0	1054867456	32	5896
2026-01-09 02:15:09.98	154.94	21.11	-29.4	-30.1	27.8	0.00e+00	0	33	0	1060110336	32	5772
2026-01-09 02:15:11.00	154.94	21.25	-29.5	-30.1	27.8	0.00e+00	0	33	0	1065353216	32	5805
2026-01-09 02:15:12.00	154.94	21.38	-29.5	-30.1	27.8	0.00e+00	0	33	0	1071644672	32	5803
2026-01-09 02:15:13.02	154.94	21.53	-29.4	-30.0	27.9	0.00e+00	0	33	0	1076887552	32	5742
2026-01-09 02:15:14.03	154.94	21.67	-29.4	-30.0	27.9	0.00e+00	0	33	0	1083179008	32	5744
2026-01-09 02:15:15.03	154.94	21.81	-29.4	-30.1	27.9	0.00e+00	0	33	0	1088421888	32	5783
2026-01-09 02:15:16.04	154.94	21.95	-29.4	-30.0	27.9	0.00e+00	0	33	0	1093664768	32	5752
2026-01-09 02:15:17.05	154.94	22.10	-29.4	-30.0	27.9	0.00e+00	0	33	0	1099956224	32	5743
2026-01-09 02:15:18.06	154.94	22.24	-29.4	-30.0	28.0	0.00e+00	0	33	0	1105199104	32	5729
2026-01-09 02:15:19.07	154.94	22.39	-29.4	-30.0	27.9	0.00e+00	0	33	0	1111490560	32	5749
2026-01-09 02:15:20.08	154.94	22.53	-29.4	-30.0	28.0	0.00e+00	0	33	0	1116733440	32	5749
2026-01-09 02:15:21.09	154.94	22.68	-29.4	-30.1	27.9	0.00e+00	0	33	0	1121976320	32	5774
2026-01-09 02:15:22.11	154.94	22.83	-29.3	-30.0	28.0	0.00e+00	0	33	0	1128267776	32	5700
2026-01-09 02:15:23.12	154.93	22.98	-29.3	-30.0	28.0	0.00e+00	0	33	0	1133510656	32	5711
2026-01-09 02:15:24.12	154.93	23.12	-29.2	-29.9	28.1	0.00e+00	0	33	0	1139802112	32	5638
2026-01-09 02:15:25.13	154.93	23.28	-29.4	-30.0	27.9	0.00e+00	0	33	0	1145044992	32	5696
2026-01-09 02:15:26.15	154.93	23.43	-29.1	-29.7	28.2	0.00e+00	0	33	0	1151336448	32	5541
2026-01-09 02:15:27.16	154.93	23.58	-29.1	-29.8	28.1	0.00e+00	0	33	0	1156579328	32	5578
2026-01-09 02:15:28.16	154.93	23.73	-29.2	-29.8	28.1	0.00e+00	0	33	0	1162870784	32	5599
2026-01-09 02:15:29.17	154.93	23.89	-29.2	-29.8	28.1	0.00e+00	0	33	0	1168113664	32	5600
2026-01-09 02:15:30.18	154.93	24.04	-29.0	-29.7	28.2	0.00e+00	0	33	0	1173356544	32	5512
2026-01-09 02:15:31.19	154.93	24.20	-29.0	-29.6	28.2	0.00e+00	0	33	0	1179648000	32	5489
2026-01-09 02:15:32.20	154.93	24.35	-29.0	-29.6	28.2	0.00e+00	0	33	0	1184890880	32	5481
2026-01-09 02:15:33.21	154.92	24.51	-29.1	-29.7	28.2	0.00e+00	0	33	0	1191182336	32	5520
2026-01-09 02:15:34.22	154.92	24.67	-29.0	-29.6	28.2	0.00e+00	0	33	0	1196425216	32	5489
2026-01-09 02:15:35.23	154.92	24.83	-29.1	-29.8	28.2	0.00e+00	0	33	0	1201668096	32	5569
2026-01-09 02:15:36.24	154.92	24.99	-29.1	-29.8	28.1	0.00e+00	0	33	0	1207959552	32	5580
2026-01-09 02:15:37.25	154.92	25.15	-29.1	-29.8	28.2	0.00e+00	0	33	0	1213202432	32	5573
2026-01-09 02:15:38.26	154.92	25.32	-29.2	-29.8	28.1	0.00e+00	0	33	0	1219493888	32	5621
2026-01-09 02:15:39.27	154.92	25.48	-29.2	-29.8	28.1	0.00e+00	0	33	0	1224736768	32	5577
2026-01-09 02:15:40.28	154.91	25.64	-29.3	-29.9	28.0	0.00e+00	0	33	0	1229979648	32	5684
2026-01-09 02:15:41.29	154.91	25.81	-29.2	-29.8	28.2	0.00e+00	0	33	0	1236271104	32	5596
2026-01-09 02:15:42.30	154.91	25.98	-29.3	-29.9	28.1	0.00e+00	0	33	0	1241513984	32	5652
2026-01-09 02:15:43.31	154.91	26.15	-29.1	-29.7	28.2	0.00e+00	0	33	0	1247805440	32	5543
2026-01-09 02:15:44.32	154.91	26.31	-29.1	-29.8	28.1	0.00e+00	0	33	0	1253048320	32	5582
2026-01-09 02:15:45.33	154.91	26.48	-29.0	-29.6	28.2	0.00e+00	0	33	0	1259339776	32	5473
2026-01-09 02:15:46.34	154.90	26.66	-29.0	-29.6	28.2	0.00e+00	0	33	0	1264582656	32	5496
2026-01-09 02:15:47.35	154.90	26.83	-28.9	-29.5	28.3	0.00e+00	0	33	0	1270874112	32	5404
2026-01-09 02:15:48.36	154.90	27.00	-28.9	-29.5	28.4	0.00e+00	0	33	0	1276116992	32	5403
2026-01-09 02:15:49.37	154.90	27.18	-29.0	-29.6	28.3	0.00e+00	0	33	0	1281359872	32	5469
2026-01-09 02:15:50.38	154.90	27.35	-28.9	-29.5	28.2	0.00e+00	0	33	0	1287651328	32	5427
2026-01-09 02:15:51.39	154.89	27.53	-28.8	-29.4	28.4	0.00e+00	0	33	0	1292894208	32	5369
2026-01-09 02:15:52.40	154.89	27.71	-28.8	-29.4	28.4	0.00e+00	0	33	0	1299185664	32	5326
2026-01-09 02:15:53.41	154.89	27.88	-28.8	-29.4	28.4	0.00e+00	0	33	0	1304428544	32	5358
2026-01-09 02:15:54.42	154.89	28.06	-28.8	-29.4	28.4	0.00e+00	0	33	0	1309671424	32	5373
2026-01-09 02:15:55.43	154.88	28.25	-28.9	-29.5	28.3	0.00e+00	0	33	0	1315962880	32	5434
2026-01-09 02:15:56.44	154.88	28.43	-29.1	-29.7	28.3	0.00e+00	0	33	0	1321205760	32	5550
2026-01-09 02:15:57.45	154.88	28.61	-29.1	-29.7	28.2	0.00e+00	0	33	0	1327497216	32	5550
2026-01-09 02:15:58.46	154.88	28.80	-29.2	-29.8	28.2	0.00e+00	0	33	0	1332740096	32	5606
2026-01-09 02:15:59.47	154.87	28.98	-29.4	-30.0	28.0	0.00e+00	0	33	0	1337982976	32	5739
2026-01-09 02:16:00.48	154.87	29.17	-29.0	-29.7	28.3	0.00e+00	0	33	0	1344274432	32	5511
2026-01-09 02:16:01.49	154.87	29.36	-29.0	-29.6	28.3	0.00e+00	0	33	0	1349517312	32	5441
2026-01-09 02:16:02.50	154.86	29.55	-28.8	-29.5	28.4	0.00e+00	0	33	0	1355808768	32	5384
2026-01-09 02:16:03.51	154.86	29.74	-28.8	-29.4	28.5	0.00e+00	0	33	0	1361051648	32	5354
2026-01-09 02:16:04.52	154.86	29.93	-28.8	-29.4	28.5	0.00e+00	0	33	0	1367343104	32	5320
2026-01-09 02:16:05.53	154.85	30.13	-28.7	-29.3	28.6	0.00e+00	0	33	0	1372585984	30	5921
2026-01-09 02:16:06.54	154.85	30.32	-28.7	-29.3	28.6	0.00e+00	0	33	0	1377828864	30	5948
2026-01-09 02:16:07.55	154.85	30.52	-28.7	-29.3	28.6	0.00e+00	0	33	0	1384120320	30	5904
2026-01-09 02:16:08.56	154.84	30.72	-28.7	-29.3	28.5	0.00e+00	0	33	0	1389363200	30	5935
2026-01-09 02:16:09.57	154.84	30.91	-28.7	-29.2	28.6	0.00e+00	0	33	0	1395654656	30	5894
2026-01-09 02:16:10.58	154.84	31.12	-28.6	-29.3	28.6	0.00e+00	0	33	0	1400897536	30	5900
2026-01-09 02:16:11.59	154.83	31.32	-28.6	-29.2	28.7	0.00e+00	0	33	0	1406140416	30	5868
2026-01-09 02:16:12.60	154.83	31.52	-28.6	-29.2	28.6	0.00e+00	0	33	0	1412431872	30	5870
2026-01-09 02:16:13.60	154.83	31.72	-28.6	-29.2	28.7	0.00e+00	0	33	0	1417674752	30	5863
2026-01-09 02:16:14.61	154.82	31.93	-28.5	-29.2	28.7	0.00e+00	0	33	0	1423966208	30	5836
2026-01-09 02:16:15.62	154.82	32.14	-28.3	-28.9	28.9	0.00e+00	0	33	0	1429209088	30	5648
2026-01-09 02:16:16.63	154.81	32.35	-28.3	-28.9	28.9	0.00e+00	0	33	0	1434451968	30	5650
2026-01-09 02:16:17.64	154.81	32.56	-28.3	-28.9	28.9	0.00e+00	0	33	0	1440743424	30	5651
2026-01-09 02:16:18.65	154.81	32.77	-28.2	-28.8	29.0	0.00e+00	0	33	0	1445986304	30	5607
2026-01-09 02:16:19.66	154.80	32.98	-28.2	-28.9	28.8	0.00e+00	0	33	0	1452277760	30	5635
2026-01-09 02:16:20.67	154.80	33.20	-28.4	-29.0	28.8	0.00e+00	0	33	0	1457520640	30	5712
2026-01-09 02:16:21.68	154.79	33.41	-28.4	-29.0	28.8	0.00e+00	0	33	0	1463812096	30	5759
2026-01-09 02:16:22.69	154.79	33.63	-28.4	-29.0	28.8	0.00e+00	0	33	0	1469054976	30	5751
2026-01-09 02:16:23.70	154.78	33.85	-28.5	-29.1	28.8	0.00e+00	0	33	0	1475346432	30	5788
2026-01-09 02:16:24.71	154.78	34.07	-28.4	-29.1	28.9	0.00e+00	0	33	0	1480589312	30	5767
2026-01-09 02:16:25.72	154.77	34.30	-28.4	-29.1	28.9	0.00e+00	0	33	0	1485832192	30	5768
2026-01-09 02:16:26.73	154.77	34.52	-28.1	-28.7	29.0	0.00e+00	0	33	0	1492123648	30	5547
2026-01-09 02:16:27.74	154.76	34.75	-28.0	-28.6	29.0	0.00e+00	0	33	0	1497366528	30	5489
2026-01-09 02:16:28.75	154.76	34.97	-28.1	-28.7	29.0	0.00e+00	0	33	0	1502609408	30	5545
2026-01-09 02:16:29.76	154.75	35.20	-28.1	-28.7	29.1	0.00e+00	0	33	0	1508900864	30	5549
2026-01-09 02:16:30.76	154.74	35.43	-28.3	-28.9	28.9	0.00e+00	0	33	0	1514143744	30	5667
2026-01-09 02:16:31.77	154.74	35.66	-28.4	-29.0	28.8	0.00e+00	0	33	0	1520435200	30	5759
2026-01-09 02:16:32.78	154.73	35.90	-28.5	-29.1	28.7	0.00e+00	0	33	0	1525678080	30	5806
2026-01-09 02:16:33.79	154.73	36.13	-28.4	-29.0	28.8	0.00e+00	0	33	0	1530920960	30	5704
2026-01-09 02:16:34.80	154.72	36.37	-28.3	-28.9	28.9	0.00e+00	0	33	0	1537212416	30	5641
2026-01-09 02:16:35.81	154.71	36.61	-28.3	-28.9	28.8	0.00e+00	0	33	0	1542455296	30	5659
2026-01-09 02:16:36.82	154.71	36.85	-28.0	-28.5	29.2	0.00e+00	0	33	0	1548746752	30	5433
2026-01-09 02:16:37.83	154.70	37.10	-28.0	-28.6	29.2	0.00e+00	0	33	0	1553989632	30	5490
2026-01-09 02:16:38.84	154.69	37.34	-27.8	-28.4	29.2	0.00e+00	0	33	0	1560281088	30	5367
2026-01-09 02:16:39.85	154.69	37.59	-28.1	-28.7	29.0	0.00e+00	0	33	0	1565523968	30	5506
2026-01-09 02:16:40.86	154.68	37.84	-28.2	-28.8	28.9	0.00e+00	0	33	0	1571815424	30	5611
2026-01-09 02:16:41.86	154.67	38.09	-28.5	-29.1	28.7	0.00e+00	0	33	0	1577058304	30	5800
2026-01-09 02:16:42.87	154.66	38.34	-28.7	-29.3	28.5	0.00e+00	0	33	0	1582301184	30	5934
2026-01-09 02:16:43.88	154.66	38.59	-28.7	-29.3	28.6	0.00e+00	0	33	0	1588592640	30	5931
2026-01-09 02:16:44.89	154.65	38.85	-28.7	-29.3	28.6	0.00e+00	0	33	0	1593835520	30	5911
2026-01-09 02:16:45.90	154.64	39.11	-28.4	-29.0	28.8	0.00e+00	0	33	0	1600126976	30	5700
2026-01-09 02:16:46.91	154.63	39.37	-28.5	-29.1	28.8	0.00e+00	0	33	0	1605369856	30	5804
2026-01-09 02:16:47.92	154.62	39.63	-28.5	-29.1	28.8	0.00e+00	0	33	0	1610612736	30	5827
2026-01-09 02:16:48.93	154.61	39.89	-28.7	-29.3	28.6	0.00e+00	0	33	0	1616904192	30	5942
2026-01-09 02:16:49.94	154.60	40.16	-28.8	-29.4	28.6	0.00e+00	0	33	0	1622147072	30	6014
2026-01-09 02:16:50.95	154.60	40.43	-29.0	-29.6	28.4	0.00e+00	0	33	0	1627389952	30	6152
2026-01-09 02:16:51.96	154.59	40.70	-28.8	-29.4	28.6	0.00e+00	0	33	0	1633681408	30	6029
2026-01-09 02:16:52.97	154.58	40.97	-28.7	-29.3	28.6	0.00e+00	0	33	0	1638924288	30	5900
2026-01-09 02:16:53.98	154.57	41.24	-28.7	-29.3	28.6	0.00e+00	0	33	0	1645215744	30	5956
2026-01-09 02:16:54.98	154.56	41.52	-28.5	-29.1	28.8	0.00e+00	0	33	0	1650458624	30	5820
2026-01-09 02:16:56.00	154.55	41.80	-28.4	-29.0	28.8	0.00e+00	0	33	0	1656750080	30	5711
2026-01-09 02:16:57.01	154.54	42.08	-28.5	-29.1	28.8	0.00e+00	0	33	0	1661992960	30	5783
2026-01-09 02:16:58.02	154.53	42.36	-28.7	-29.3	28.6	0.00e+00	0	33	0	1668284416	30	5949
2026-01-09 02:16:59.03	154.51	42.64	-28.7	-29.3	28.7	0.00e+00	0	33	0	1673527296	30	5907
2026-01-09 02:17:00.04	154.50	42.93	-28.8	-29.4	28.6	0.00e+00	0	33	0	1678770176	30	6007
2026-01-09 02:17:01.04	154.49	43.22	-28.9	-29.5	28.5	0.00e+00	0	33	0	1685061632	30	6062
2026-01-09 02:17:02.05	154.48	43.51	-29.1	-29.8	28.3	0.00e+00	0	33	0	1690304512	30	6257
2026-01-09 02:17:03.06	154.47	43.80	-29.3	-29.9	28.3	0.00e+00	0	33	0	1696595968	30	6371
2026-01-09 02:17:04.07	154.46	44.10	-29.1	-29.8	28.3	0.00e+00	0	33	0	1701838848	30	6292
2026-01-09 02:17:05.08	154.44	44.40	-29.1	-29.8	28.2	0.00e+00	0	33	0	1707081728	30	6273
2026-01-09 02:17:06.09	154.43	44.70	-28.8	-29.4	28.6	0.00e+00	0	33	0	1713373184	30	5992
2026-01-09 02:17:07.10	154.42	45.00	-28.5	-29.1	28.8	0.00e+00	0	33	0	1718616064	30	5794
2026-01-09 02:17:08.11	154.40	45.30	-28.5	-29.1	28.8	0.00e+00	0	33	0	1724907520	30	5785
2026-01-09 02:17:09.12	154.39	45.61	-28.5	-29.2	28.7	0.00e+00	0	33	0	1730150400	30	5842
2026-01-09 02:17:10.13	154.37	45.92	-28.9	-29.5	28.5	0.00e+00	0	33	0	1735393280	30	6087
2026-01-09 02:17:11.14	154.36	46.23	-29.2	-29.8	28.3	0.00e+00	0	33	0	1741684736	30	6250
2026-01-09 02:17:12.14	154.35	46.54	-29.0	-29.7	28.3	0.00e+00	0	33	0	1746927616	30	6174
2026-01-09 02:17:13.15	154.33	46.86	-28.8	-29.5	28.5	0.00e+00	0	33	0	1753219072	30	6042
2026-01-09 02:17:14.16	154.31	47.18	-28.6	-29.2	28.6	0.00e+00	0	33	0	1758461952	30	5894
2026-01-09 02:17:15.17	154.30	47.50	-28.5	-29.1	28.8	0.00e+00	0	33	0	1764753408	30	5762
2026-01-09 02:17:16.18	154.28	47.83	-28.3	-28.9	28.9	0.00e+00	0	33	0	1769996288	30	5648
2026-01-09 02:17:17.19	154.26	48.15	-28.6	-29.2	28.7	0.00e+00	0	33	0	1775239168	30	5894
2026-01-09 02:17:18.20	154.25	48.48	-28.9	-29.5	28.5	0.00e+00	0	33	0	1781530624	30	6063
2026-01-09 02:17:19.21	154.23	48.81	-28.9	-29.5	28.5	0.00e+00	0	33	0	1786773504	30	6092
2026-01-09 02:17:20.22	154.21	49.15	-28.8	-29.4	28.5	0.00e+00	0	33	0	1793064960	30	6005
2026-01-09 02:17:21.23	154.19	49.48	-28.5	-29.1	28.8	0.00e+00	0	33	0	1798307840	30	5806
2026-01-09 02:17:22.24	154.17	49.82	-28.7	-29.2	28.7	0.00e+00	0	33	0	1803550720	30	5881
2026-01-09 02:17:23.25	154.15	50.16	-29.1	-29.8	28.3	0.00e+00	0	33	0	1809842176	30	6248
2026-01-09 02:17:24.26	154.13	50.51	-29.4	-30.0	28.1	0.00e+00	0	33	0	1815085056	30	6424
2026-01-09 02:17:25.27	154.11	50.85	-29.3	-30.0	28.1	0.00e+00	0	33	0	1821376512	30	6398
2026-01-09 02:17:26.28	154.09	51.20	-29.4	-30.0	28.1	0.00e+00	0	33	0	1826619392	30	6440
2026-01-09 02:17:27.29	154.07	51.56	-29.6	-30.2	27.9	0.00e+00	0	33	0	1831862272	30	6607
2026-01-09 02:17:28.30	154.04	51.91	-29.8	-30.4	27.7	0.00e+00	0	33	0	1838153728	32	6009
2026-01-09 02:17:29.31	154.02	52.27	-30.0	-30.7	27.6	0.00e+00	0	33	0	1843396608	32	6184
2026-01-09 02:17:30.32	154.00	52.63	-30.2	-30.9	27.5	0.00e+00	0	33	0	1849688064	32	6321
2026-01-09 02:17:31.33	153.97	52.99	-30.2	-30.8	27.5	0.00e+00	0	33	0	1854930944	32	6288
2026-01-09 02:17:32.34	153.95	53.35	-30.1	-30.7	27.5	0.00e+00	0	33	0	1861222400	32	6211
2026-01-09 02:17:33.35	153.92	53.72	-29.8	-30.4	27.7	0.00e+00	0	33	0	1866465280	32	6011
2026-01-09 02:17:34.36	153.89	54.09	-29.9	-30.5	27.7	0.00e+00	0	33	0	1872756736	32	6074
2026-01-09 02:17:35.37	153.87	54.47	-30.0	-30.6	27.6	0.00e+00	0	33	0	1877999616	32	6172
2026-01-09 02:17:36.38	153.84	54.84	-29.8	-30.4	27.7	0.00e+00	0	33	0	1883242496	32	6008
2026-01-09 02:17:37.39	153.81	55.22	-29.9	-30.5	27.7	0.00e+00	0	33	0	1889533952	32	6064
2026-01-09 02:17:38.40	153.78	55.60	-29.5	-30.0	28.0	0.00e+00	0	33	0	1894776832	32	5761
2026-01-09 02:17:39.41	153.75	55.98	-29.6	-30.2	27.9	0.00e+00	0	33	0	1901068288	32	5888
2026-01-09 02:17:40.41	153.71	56.37	-29.5	-30.1	28.0	0.00e+00	0	33	0	1906311168	32	5782
2026-01-09 02:17:41.43	153.68	56.76	-29.6	-30.3	27.9	0.00e+00	0	33	0	1911554048	32	5917
2026-01-09 02:17:42.44	153.65	57.15	-29.6	-30.2	27.9	0.00e+00	0	33	0	1917845504	32	5874
2026-01-09 02:17:43.44	153.61	57.54	-29.6	-30.2	28.0	0.00e+00	0	33	0	1923088384	32	5872
2026-01-09 02:17:44.46	153.57	57.94	-29.6	-30.2	28.0	0.00e+00	0	33	0	1929379840	32	5852
2026-01-09 02:17:45.46	153.54	58.34	-29.2	-29.9	28.2	0.00e+00	0	33	0	1934622720	32	5669
2026-01-09 02:17:46.47	153.50	58.74	-29.1	-29.8	28.2	0.00e+00	0	33	0	1939865600	32	5567
2026-01-09 02:17:47.48	153.46	59.15	-28.8	-29.4	28.5	0.00e+00	0	33	0	1946157056	32	5335
2026-01-09 02:17:48.49	153.42	59.55	-28.9	-29.5	28.5	0.00e+00	0	33	0	1951399936	32	5387
2026-01-09 02:17:49.50	153.37	59.97	-28.8	-29.5	28.5	0.00e+00	0	33	0	1957691392	32	5383
2026-01-09 02:17:50.51	153.33	60.38	-28.7	-29.3	28.5	0.00e+00	0	33	0	1962934272	30	5956
2026-01-09 02:17:51.52	153.28	60.79	-29.0	-29.6	28.3	0.00e+00	0	33	0	1969225728	30	6141
2026-01-09 02:17:52.53	153.23	61.21	-28.8	-29.4	28.5	0.00e+00	0	33	0	1974468608	30	6012
2026-01-09 02:17:53.54	153.18	61.63	-28.9	-29.5	28.4	0.00e+00	0	33	0	1979711488	30	6036
2026-01-09 02:17:54.55	153.13	62.06	-28.6	-29.2	28.7	0.00e+00	0	33	0	1986002944	30	5868
2026-01-09 02:17:55.56	153.08	62.49	-28.6	-29.2	28.4	0.00e+00	0	33	0	1991245824	30	5861
2026-01-09 02:17:56.57	153.02	62.91	-28.4	-29.0	28.5	0.00e+00	0	33	0	1997537280	30	5708
2026-01-09 02:17:57.58	152.96	63.35	-28.3	-28.9	28.8	0.00e+00	0	33	0	2002780160	30	5686
2026-01-09 02:17:58.59	152.90	63.78	-28.1	-28.7	29.0	0.00e+00	0	33	0	2008023040	30	5545
2026-01-09 02:17:59.60	152.84	64.22	-27.9	-28.5	29.0	0.00e+00	0	33	0	2014314496	30	5407
2026-01-09 02:18:00.61	152.78	64.66	-28.1	-28.7	29.0	0.00e+00	0	33	0	2019557376	30	5553
2026-01-09 02:18:01.62	152.71	65.10	-28.4	-29.0	28.7	0.00e+00	0	33	0	2025848832	30	5749
2026-01-09 02:18:02.63	152.64	65.54	-28.1	-28.7	29.0	0.00e+00	0	33	0	2031091712	30	5549
2026-01-09 02:18:03.64	152.56	65.99	-27.9	-28.6	29.1	0.00e+00	0	33	0	2036334592	30	5443
2026-01-09 02:18:04.65	152.49	66.44	-27.8	-28.4	29.1	0.00e+00	0	33	0	2042626048	30	5335
2026-01-09 02:18:05.66	152.41	66.89	-27.7	-28.3	29.3	0.00e+00	0	33	0	2047868928	28	5924
2026-01-09 02:18:06.67	152.32	67.35	-27.8	-28.4	29.0	0.00e+00	0	33	0	2054160384	28	5991
2026-01-09 02:18:07.68	152.23	67.80	-27.7	-28.3	29.2	0.00e+00	0	33	0	2059403264	28	5923
2026-01-09 02:18:08.69	152.14	68.26	-27.7	-28.3	29.2	0.00e+00	0	33	0	2065694720	28	5915
2026-01-09 02:18:09.70	152.04	68.73	-27.6	-28.2	29.2	0.00e+00	0	33	0	2070937600	28	5867
2026-01-09 02:18:10.70	151.94	69.18	-27.6	-28.2	29.3	0.00e+00	0	33	0	2077229056	28	5881
2026-01-09 02:18:11.71	151.84	69.65	-27.6	-28.2	29.3	0.00e+00	0	33	0	2082471936	28	5833
2026-01-09 02:18:12.72	151.72	70.12	-27.2	-27.8	29.6	0.00e+00	0	33	0	2087714816	28	5596
2026-01-09 02:18:13.73	151.60	70.59	-27.0	-27.6	29.7	0.00e+00	0	33	0	2094006272	28	5464
2026-01-09 02:18:14.74	151.48	71.06	-27.0	-27.6	29.5	0.00e+00	0	33	0	2099249152	28	5452
2026-01-09 02:18:15.75	151.35	71.54	-26.9	-27.5	29.7	0.00e+00	0	33	0	2104492032	28	5430
2026-01-09 02:18:16.76	151.21	72.01	-27.2	-27.8	29.6	0.00e+00	0	33	0	2110783488	28	5580
2026-01-09 02:18:17.77	151.06	72.49	-27.0	-27.6	29.7	0.00e+00	0	33	0	2116026368	28	5483
2026-01-09 02:18:18.78	150.90	72.97	-27.1	-27.6	29.6	0.00e+00	0	33	0	2122317824	28	5476
2026-01-09 02:18:19.79	150.74	73.46	-27.1	-27.7	29.6	0.00e+00	0	33	0	2127560704	28	5537
2026-01-09 02:18:20.80	150.56	73.94	-27.3	-27.9	29.5	0.00e+00	0	33	0	2132803584	28	5644
2026-01-09 02:18:21.81	150.37	74.43	-27.1	-27.7	29.7	0.00e+00	0	33	0	2139095040	28	5535
2026-01-09 02:18:22.81	150.17	74.91	-27.0	-27.5	29.6	0.00e+00	0	33	0	2144337920	28	5425
2026-01-09 02:18:23.83	149.95	75.40	-27.3	-27.9	29.4	0.00e+00	0	33	0	2150629376	28	5695
2026-01-09 02:18:24.84	149.72	75.89	-27.3	-27.9	29.5	0.00e+00	0	33	0	2155872256	28	5661
2026-01-09 02:18:25.84	149.47	76.38	-27.0	-27.6	29.7	0.00e+00	0	33	0	2162163712	28	5501
2026-01-09 02:18:26.85	149.20	76.88	-27.1	-27.7	29.7	0.00e+00	0	33	0	2167406592	28	5547
2026-01-09 02:18:27.86	148.91	77.37	-26.8	-27.4	29.9	0.00e+00	0	33	0	2173698048	26	5979
2026-01-09 02:18:28.87	148.59	77.87	-26.1	-26.7	30.3	0.00e+00	0	33	0	2178940928	26	5527
2026-01-09 02:18:29.88	148.24	78.37	-25.9	-26.6	30.4	0.00e+00	0	33	0	2184183808	26	5473
2026-01-09 02:18:30.89	147.87	78.86	-26.0	-26.6	30.2	0.00e+00	0	33	0	2190475264	26	5440
2026-01-09 02:18:31.90	147.45	79.36	-25.8	-26.4	30.4	0.00e+00	0	33	0	2195718144	26	5324
2026-01-09 02:18:32.91	147.00	79.86	-25.8	-26.5	30.3	0.00e+00	0	33	0	2202009600	26	5388
2026-01-09 02:18:33.92	146.50	80.36	-25.9	-26.5	30.3	0.00e+00	0	33	0	2207252480	26	5382
2026-01-09 02:18:34.93	145.93	80.87	-26.0	-26.6	30.2	0.00e+00	0	33	0	2212495360	26	5440
2026-01-09 02:18:35.94	145.31	81.37	-25.9	-26.5	30.4	0.00e+00	0	33	0	2218786816	26	5410
2026-01-09 02:18:36.95	144.60	81.87	-25.7	-26.2	30.6	0.00e+00	0	33	0	2224029696	24	5893
2026-01-09 02:18:37.96	143.80	82.37	-25.7	-26.3	30.4	0.00e+00	0	33	0	2230321152	24	5926
2026-01-09 02:18:38.97	142.89	82.87	-25.7	-26.2	30.5	0.00e+00	0	33	0	2235564032	24	5880
2026-01-09 02:18:39.98	141.83	83.37	-25.5	-26.1	30.5	0.00e+00	0	33	0	2240806912	24	5808
2026-01-09 02:18:40.99	140.61	83.87	-25.4	-26.0	30.5	0.00e+00	0	33	0	2247098368	24	5729
2026-01-09 02:18:42.00	139.16	84.36	-25.6	-26.2	30.5	0.00e+00	0	33	0	2252341248	24	5879
2026-01-09 02:18:43.00	137.46	84.85	-26.1	-26.7	30.2	0.00e+00	0	33	0	2258632704	24	6227
2026-01-09 02:18:44.01	135.37	85.33	-26.1	-26.7	30.3	0.00e+00	0	33	0	2263875584	24	6190
2026-01-09 02:18:45.02	132.81	85.81	-26.2	-26.8	30.2	0.00e+00	0	33	0	2270167040	24	6295
2026-01-09 02:18:46.03	129.58	86.28	-26.3	-27.0	30.0	0.00e+00	0	33	0	2275409920	24	6393
2026-01-09 02:18:47.04	125.44	86.73	-26.5	-27.1	30.0	0.00e+00	0	33	0	2280652800	24	6500
2026-01-09 02:18:48.05	120.00	87.17	-26.8	-27.4	29.8	0.00e+00	0	33	0	2286944256	26	6027
2026-01-09 02:18:49.06	112.68	87.56	-26.8	-27.4	29.8	0.00e+00	0	33	0	2292187136	26	6017
2026-01-09 02:18:50.07	102.76	87.91	-26.9	-27.6	29.8	0.00e+00	0	33	0	2298478592	26	6119
2026-01-09 02:18:51.08	89.51	88.17	-27.2	-27.8	29.7	0.00e+00	0	33	0	2303721472	26	6268
2026-01-09 02:18:52.09	73.13	88.30	-27.1	-27.7	29.8	0.00e+00	0	33	0	2308964352	26	6197
2026-01-09 02:18:53.10	55.64	88.28	-27.0	-27.6	29.7	0.00e+00	0	33	0	2315255808	26	6128
2026-01-09 02:18:54.11	39.95	88.11	-27.3	-27.9	29.4	0.00e+00	0	33	0	2320498688	26	6381
2026-01-09 02:18:55.12	27.59	87.83	-27.2	-27.8	29.6	0.00e+00	0	33	0	2326790144	26	6254
2026-01-09 02:18:56.13	18.40	87.47	-27.1	-27.7	29.5	0.00e+00	0	33	0	2332033024	26	6192
2026-01-09 02:18:57.14	11.63	87.06	-26.9	-27.5	29.3	0.00e+00	0	33	0	2337275904	26	6083
2026-01-09 02:18:58.15	6.56	86.62	-26.5	-27.1	29.7	0.00e+00	0	33	0	2343567360	26	5827
2026-01-09 02:18:59.16	2.69	86.16	-26.5	-27.1	29.8	0.00e+00	0	33	0	2348810240	26	5781
2026-01-09 02:19:00.17	359.65	85.69	-26.3	-27.0	30.0	0.00e+00	0	33	0	2355101696	26	5715
2026-01-09 02:19:01.18	357.22	85.21	-25.7	-26.3	30.4	0.00e+00	0	33	0	2360344576	24	5934
2026-01-09 02:19:02.18	355.26	84.73	-26.0	-26.6	30.3	0.00e+00	0	33	0	2366636032	24	6111
2026-01-09 02:19:03.19	353.61	84.24	-25.9	-26.5	30.3	0.00e+00	0	33	0	2371878912	24	6054
2026-01-09 02:19:04.20	352.23	83.74	-25.6	-26.2	30.4	0.00e+00	0	33	0	2378170368	24	5863
2026-01-09 02:19:05.21	351.05	83.24	-26.0	-26.6	30.3	0.00e+00	0	33	0	2383413248	24	6120
2026-01-09 02:19:06.22	350.03	82.74	-26.3	-26.9	30.1	0.00e+00	0	33	0	2388656128	24	6373
2026-01-09 02:19:07.23	349.15	82.24	-25.9	-26.5	30.3	0.00e+00	0	33	0	2394947584	24	6062
2026-01-09 02:19:08.24	348.37	81.74	-25.9	-26.6	30.4	0.00e+00	0	33	0	2400190464	24	6119
2026-01-09 02:19:09.25	347.69	81.24	-25.7	-26.4	30.4	0.00e+00	0	33	0	2405433344	24	5988
2026-01-09 02:19:10.26	347.08	80.74	-25.8	-26.4	30.4	0.00e+00	0	33	0	2411724800	24	5973
2026-01-09 02:19:11.27	346.54	80.24	-25.7	-26.3	30.4	0.00e+00	0	33	0	2416967680	24	5897
2026-01-09 02:19:12.28	346.04	79.74	-25.6	-26.2	30.5	0.00e+00	0	33	0	2423259136	24	5868
2026-01-09 02:19:13.29	345.60	79.24	-25.8	-26.4	30.4	0.00e+00	0	33	0	2428502016	24	6015
2026-01-09 02:19:14.30	345.20	78.74	-26.1	-26.7	30.1	0.00e+00	0	33	0	2433744896	24	6232
2026-01-09 02:19:15.30	344.83	78.25	-26.1	-26.7	30.1	0.00e+00	0	33	0	2440036352	24	6220
2026-01-09 02:19:16.31	344.49	77.75	-26.2	-26.8	30.1	0.00e+00	0	33	0	2445279232	24	6313
2026-01-09 02:19:17.32	344.18	77.26	-26.2	-26.7	30.0	0.00e+00	0	33	0	2451570688	24	6201
2026-01-09 02:19:18.33	343.90	76.76	-26.6	-27.3	29.9	0.00e+00	0	33	0	2456813568	24	6630
2026-01-09 02:19:19.34	343.63	76.27	-26.9	-27.5	29.7	0.00e+00	0	33	0	2463105024	26	6050
2026-01-09 02:19:20.35	343.39	75.78	-26.6	-27.2	29.8	0.00e+00	0	33	0	2468347904	26	5871
2026-01-09 02:19:21.36	343.16	75.29	-26.7	-27.4	29.6	0.00e+00	0	33	0	2474639360	26	6020
2026-01-09 02:19:22.37	342.95	74.80	-26.8	-27.4	29.7	0.00e+00	0	33	0	2479882240	26	5975
2026-01-09 02:19:23.38	342.75	74.31	-26.7	-27.3	29.8	0.00e+00	0	33	0	2485125120	26	5961
2026-01-09 02:19:24.39	342.56	73.83	-27.1	-27.8	29.5	0.00e+00	0	33	0	2491416576	26	6308
2026-01-09 02:19:25.40	342.39	73.34	-27.1	-27.7	29.7	0.00e+00	0	33	0	2496659456	26	6196
2026-01-09 02:19:26.41	342.22	72.86	-26.5	-27.1	30.0	0.00e+00	0	33	0	2502950912	26	5783
2026-01-09 02:19:27.42	342.07	72.38	-26.9	-27.5	29.7	0.00e+00	0	33	0	2508193792	26	6094
2026-01-09 02:19:28.43	341.92	71.91	-27.8	-28.5	29.1	0.00e+00	0	33	0	2513436672	26	6794
2026-01-09 02:19:29.44	341.78	71.43	-27.2	-27.9	29.4	0.00e+00	0	33	0	2519728128	28	5631
2026-01-09 02:19:30.45	341.65	70.96	-27.2	-27.8	29.5	0.00e+00	0	33	0	2524971008	28	5581
2026-01-09 02:19:31.46	341.53	70.49	-27.5	-28.2	29.2	0.00e+00	0	33	0	2531262464	28	5858
2026-01-09 02:19:32.46	341.41	70.02	-27.7	-28.3	29.2	0.00e+00	0	33	0	2536505344	28	5944
2026-01-09 02:19:33.47	341.30	69.55	-27.4	-28.0	29.3	0.00e+00	0	33	0	2541748224	28	5716
2026-01-09 02:19:34.48	341.20	69.09	-27.3	-27.8	29.4	0.00e+00	0	33	0	2548039680	28	5630
2026-01-09 02:19:35.49	341.10	68.63	-27.5	-28.1	29.3	0.00e+00	0	33	0	2553282560	28	5782
2026-01-09 02:19:36.50	341.00	68.17	-27.6	-28.3	29.3	0.00e+00	0	33	0	2559574016	28	5916
2026-01-09 02:19:37.51	340.91	67.71	-27.6	-28.1	29.2	0.00e+00	0	33	0	2564816896	28	5791
2026-01-09 02:19:38.52	340.82	67.25	-27.8	-28.5	29.1	0.00e+00	0	33	0	2571108352	28	6053
2026-01-09 02:19:39.53	340.74	66.80	-28.0	-28.6	28.9	0.00e+00	0	33	0	2576351232	28	6106
2026-01-09 02:19:40.54	340.66	66.35	-27.7	-28.3	29.2	0.00e+00	0	33	0	2581594112	28	5919
2026-01-09 02:19:41.55	340.58	65.90	-27.4	-28.1	29.3	0.00e+00	0	33	0	2587885568	28	5769
2026-01-09 02:19:42.56	340.51	65.46	-27.7	-28.2	29.1	0.00e+00	0	33	0	2593128448	28	5856
2026-01-09 02:19:43.56	340.44	65.02	-27.9	-28.6	28.9	0.00e+00	0	33	0	2599419904	28	6156
2026-01-09 02:19:44.57	340.37	64.58	-27.9	-28.5	29.0	0.00e+00	0	33	0	2604662784	28	6100
2026-01-09 02:19:45.58	340.31	64.14	-27.7	-28.2	29.1	0.00e+00	0	33	0	2609905664	28	5885
2026-01-09 02:19:46.59	340.25	63.70	-27.7	-28.4	29.2	0.00e+00	0	33	0	2616197120	28	5974
2026-01-09 02:19:47.60	340.19	63.27	-27.8	-28.5	29.1	0.00e+00	0	33	0	2621440000	28	6054
2026-01-09 02:19:48.61	340.13	62.84	-28.0	-28.5	29.0	0.00e+00	0	33	0	2627731456	28	6076
2026-01-09 02:19:49.62	340.08	62.41	-28.2	-28.8	28.8	0.00e+00	0	33	0	2632974336	28	6279
2026-01-09 02:19:50.63	340.02	61.99	-28.1	-28.7	28.8	0.00e+00	0	33	0	2638217216	28	6230
2026-01-09 02:19:51.64	339.97	61.56	-27.7	-28.4	29.1	0.00e+00	0	33	0	2644508672	28	6008
2026-01-09 02:19:52.65	339.92	61.14	-27.8	-28.3	29.0	0.00e+00	0	33	0	2649751552	28	5944
2026-01-09 02:19:53.66	339.88	60.73	-27.9	-28.6	28.9	0.00e+00	0	33	0	2656043008	28	6147
2026-01-09 02:19:54.67	339.83	60.31	-28.0	-28.7	29.0	0.00e+00	0	33	0	2661285888	28	6177
2026-01-09 02:19:55.68	339.78	59.90	-27.8	-28.3	29.1	0.00e+00	0	33	0	2667577344	28	5935
2026-01-09 02:19:56.69	339.74	59.49	-28.1	-28.7	28.9	0.00e+00	0	33	0	2672820224	28	6200
2026-01-09 02:19:57.70	339.70	59.09	-28.5	-29.0	28.5	0.00e+00	0	33	0	2678063104	28	6446
2026-01-09 02:19:58.70	339.66	58.69	-28.7	-29.2	28.5	0.00e+00	0	33	0	2684354560	28	6582
2026-01-09 02:19:59.72	339.62	58.28	-28.8	-29.3	28.4	0.00e+00	0	33	0	2689597440	30	5940
2026-01-09 02:20:00.73	339.58	57.88	-29.2	-29.8	28.0	0.00e+00	0	33	0	2695888896	30	6270
2026-01-09 02:20:01.74	339.55	57.49	-29.9	-30.5	27.4	0.00e+00	0	33	0	2701131776	32	6062
2026-01-09 02:20:02.75	339.51	57.09	-30.1	-30.7	27.4	0.00e+00	0	33	0	2706374656	32	6235
2026-01-09 02:20:03.76	339.48	56.70	-29.8	-30.5	27.7	0.00e+00	0	33	0	2712666112	32	6066
2026-01-09 02:20:04.77	339.45	56.32	-29.6	-30.3	27.8	0.00e+00	0	33	0	2717908992	32	5918
2026-01-09 02:20:05.78	339.42	55.93	-29.7	-30.3	27.2	0.00e+00	0	33	0	2724200448	32	5915
2026-01-09 02:20:06.79	339.38	55.55	-29.6	-30.3	27.4	0.00e+00	0	33	0	2729443328	32	5909
2026-01-09 02:20:07.80	339.35	55.17	-29.6	-30.3	27.4	0.00e+00	0	33	0	2734686208	32	5905
2026-01-09 02:20:08.81	339.33	54.79	-29.3	-30.0	27.6	0.00e+00	0	33	0	2740977664	32	5732
2026-01-09 02:20:09.82	339.30	54.42	-29.5	-30.1	27.8	0.00e+00	0	33	0	2746220544	32	5775
2026-01-09 02:20:10.83	339.27	54.05	-29.6	-30.1	27.8	0.00e+00	0	33	0	2752512000	32	5799
2026-01-09 02:20:11.83	339.24	53.68	-29.3	-29.8	28.1	0.00e+00	0	33	0	2757754880	32	5604
2026-01-09 02:20:12.84	339.22	53.32	-29.2	-29.7	28.1	0.00e+00	0	33	0	2764046336	32	5563
2026-01-09 02:20:13.85	339.19	52.95	-29.1	-29.7	28.1	0.00e+00	0	33	0	2769289216	32	5513
2026-01-09 02:20:14.86	339.17	52.59	-29.2	-29.7	28.1	0.00e+00	0	33	0	2775580672	32	5530
2026-01-09 02:20:15.87	339.14	52.23	-29.2	-30.0	28.0	0.00e+00	0	33	0	2780823552	32	5700
2026-01-09 02:20:16.88	339.12	51.88	-29.2	-29.9	28.1	0.00e+00	0	33	0	2786066432	32	5684
2026-01-09 02:20:17.89	339.10	51.53	-29.2	-29.8	28.1	0.00e+00	0	33	0	2792357888	32	5596
2026-01-09 02:20:18.89	339.08	51.18	-29.1	-29.8	28.2	0.00e+00	0	33	0	2797600768	32	5620
2026-01-09 02:20:19.90	339.06	50.83	-29.2	-29.8	28.1	0.00e+00	0	33	0	2803892224	32	5589
2026-01-09 02:20:20.91	339.04	50.49	-29.0	-29.7	28.2	0.00e+00	0	33	0	2809135104	32	5549
2026-01-09 02:20:21.92	339.02	50.14	-28.5	-29.1	28.5	0.00e+00	0	33	0	2814377984	30	5780
2026-01-09 02:20:22.93	339.00	49.80	-28.3	-28.9	28.7	0.00e+00	0	33	0	2820669440	30	5652
2026-01-09 02:20:23.94	338.98	49.47	-28.4	-29.0	28.6	0.00e+00	0	33	0	2825912320	30	5705
2026-01-09 02:20:24.95	338.96	49.13	-28.5	-29.0	28.6	0.00e+00	0	33	0	2832203776	30	5735
2026-01-09 02:20:25.96	338.94	48.80	-28.5	-29.1	28.6	0.00e+00	0	33	0	2837446656	30	5763
2026-01-09 02:20:26.97	338.92	48.47	-28.4	-29.0	28.7	0.00e+00	0	33	0	2842689536	30	5711
2026-01-09 02:20:27.98	338.91	48.14	-28.4	-29.1	28.7	0.00e+00	0	33	0	2848980992	30	5801
2026-01-09 02:20:28.99	338.89	47.82	-28.3	-29.0	28.8	0.00e+00	0	33	0	2854223872	30	5722
2026-01-09 02:20:30.00	338.87	47.49	-28.3	-29.0	28.7	0.00e+00	0	33	0	2860515328	30	5706
2026-01-09 02:20:31.01	338.86	47.17	-28.3	-29.0	28.8	0.00e+00	0	33	0	2865758208	30	5712
2026-01-09 02:20:32.02	338.84	46.85	-28.3	-29.0	28.9	0.00e+00	0	33	0	2872049664	30	5717
2026-01-09 02:20:33.03	338.83	46.54	-28.4	-29.1	28.7	0.00e+00	0	33	0	2877292544	30	5801
2026-01-09 02:20:34.04	338.81	46.23	-28.5	-29.2	28.7	0.00e+00	0	33	0	2882535424	30	5864
2026-01-09 02:20:35.04	338.80	45.92	-28.7	-29.2	28.5	0.00e+00	0	33	0	2888826880	30	5878
2026-01-09 02:20:36.05	338.78	45.61	-28.5	-29.1	28.6	0.00e+00	0	33	0	2894069760	30	5801
2026-01-09 02:20:37.06	338.77	45.30	-28.3	-28.9	28.8	0.00e+00	0	33	0	2900361216	30	5660
2026-01-09 02:20:38.07	338.76	45.00	-28.2	-28.8	28.9	0.00e+00	0	33	0	2905604096	30	5577
2026-01-09 02:20:39.08	338.74	44.70	-28.1	-28.6	29.0	0.00e+00	0	33	0	2910846976	30	5493
2026-01-09 02:20:40.09	338.73	44.40	-28.1	-28.6	28.8	0.00e+00	0	33	0	2917138432	30	5499
2026-01-09 02:20:41.10	338.72	44.10	-28.2	-28.7	28.7	0.00e+00	0	33	0	2922381312	30	5557
2026-01-09 02:20:42.11	338.71	43.81	-28.2	-28.8	28.8	0.00e+00	0	33	0	2928672768	30	5567
2026-01-09 02:20:43.12	338.69	43.52	-28.4	-28.9	28.7	0.00e+00	0	33	0	2933915648	30	5692
2026-01-09 02:20:44.13	338.68	43.23	-28.5	-29.0	28.5	0.00e+00	0	33	0	2939158528	30	5761
2026-01-09 02:20:45.14	338.67	42.94	-28.5	-29.2	28.6	0.00e+00	0	33	0	2945449984	30	5847
2026-01-09 02:20:46.15	338.66	42.65	-28.6	-29.3	28.5	0.00e+00	0	33	0	2950692864	30	5899
2026-01-09 02:20:47.16	338.65	42.37	-28.5	-29.0	28.6	0.00e+00	0	33	0	2956984320	30	5728
2026-01-09 02:20:48.17	338.64	42.09	-28.4	-29.1	28.7	0.00e+00	0	33	0	2962227200	30	5777
2026-01-09 02:20:49.18	338.63	41.81	-28.5	-29.2	28.5	0.00e+00	0	33	0	2968518656	30	5872
2026-01-09 02:20:50.19	338.62	41.53	-28.4	-29.1	28.7	0.00e+00	0	33	0	2973761536	30	5790
2026-01-09 02:20:51.20	338.61	41.26	-28.3	-29.0	28.8	0.00e+00	0	33	0	2979004416	30	5728
2026-01-09 02:20:52.21	338.60	40.98	-28.1	-28.8	28.9	0.00e+00	0	33	0	2985295872	30	5588
2026-01-09 02:20:53.22	338.59	40.71	-28.2	-28.9	28.8	0.00e+00	0	33	0	2990538752	30	5670
2026-01-09 02:20:54.22	338.58	40.45	-28.1	-28.8	28.9	0.00e+00	0	33	0	2996830208	30	5602
2026-01-09 02:20:55.23	338.57	40.18	-27.9	-28.6	29.1	0.00e+00	0	33	0	3002073088	30	5470
2026-01-09 02:20:56.24	338.57	39.92	-27.7	-28.4	29.2	0.00e+00	0	33	0	3007315968	28	5976
2026-01-09 02:20:57.25	338.56	39.65	-27.7	-28.4	29.2	0.00e+00	0	33	0	3013607424	28	6020
2026-01-09 02:20:58.26	338.55	39.39	-27.6	-28.3	29.2	0.00e+00	0	33	0	3018850304	28	5899
2026-01-09 02:20:59.27	338.54	39.13	-27.7	-28.4	29.1	0.00e+00	0	33	0	3025141760	28	5994
2026-01-09 02:21:00.28	338.53	38.88	-27.4	-28.1	29.4	0.00e+00	0	33	0	3030384640	28	5788
2026-01-09 02:21:01.29	338.53	38.62	-27.4	-28.0	29.3	0.00e+00	0	33	0	3035627520	28	5700
2026-01-09 02:21:02.30	338.52	38.37	-27.3	-27.8	29.3	0.00e+00	0	33	0	3041918976	28	5611
2026-01-09 02:21:03.31	338.51	38.12	-27.3	-27.9	29.4	0.00e+00	0	33	0	3047161856	28	5635
2026-01-09 02:21:04.32	338.50	37.87	-27.4	-27.9	29.3	0.00e+00	0	33	0	3053453312	28	5652
2026-01-09 02:21:05.33	338.50	37.62	-27.6	-28.1	29.2	0.00e+00	0	33	0	3058696192	28	5793
2026-01-09 02:21:06.34	338.49	37.37	-27.7	-28.2	29.2	0.00e+00	0	33	0	3064987648	28	5880
2026-01-09 02:21:07.35	338.48	37.13	-27.9	-28.4	29.0	0.00e+00	0	33	0	3070230528	28	5998
2026-01-09 02:21:08.36	338.48	36.89	-28.0	-28.6	28.9	0.00e+00	0	33	0	3076521984	28	6116
2026-01-09 02:21:09.37	338.47	36.65	-28.1	-28.7	28.8	0.00e+00	0	33	0	3081764864	28	6191
2026-01-09 02:21:10.38	338.46	36.41	-28.2	-28.7	28.8	0.00e+00	0	33	0	3087007744	28	6242
2026-01-09 02:21:11.38	338.46	36.17	-28.1	-28.6	28.8	0.00e+00	0	33	0	3093299200	28	6172
2026-01-09 02:21:12.39	338.45	35.94	-28.0	-28.6	28.8	0.00e+00	0	33	0	3098542080	28	6144
2026-01-09 02:21:13.40	338.45	35.71	-27.9	-28.4	28.9	0.00e+00	0	33	0	3103784960	28	6028
2026-01-09 02:21:14.41	338.44	35.47	-27.8	-28.3	29.0	0.00e+00	0	33	0	3110076416	28	5952
2026-01-09 02:21:15.42	338.44	35.24	-27.8	-28.3	29.0	0.00e+00	0	33	0	3115319296	28	5961
2026-01-09 02:21:16.43	338.43	35.02	-27.8	-28.3	29.1	0.00e+00	0	33	0	3121610752	28	5924
2026-01-09 02:21:17.44	338.43	34.79	-27.7	-28.4	29.1	0.00e+00	0	33	0	3126853632	28	6012
2026-01-09 02:21:18.44	338.42	34.57	-27.9	-28.5	28.9	0.00e+00	0	33	0	3132096512	28	6035
2026-01-09 02:21:19.46	338.42	34.34	-27.9	-28.4	28.9	0.00e+00	0	33	0	3138387968	28	6017
2026-01-09 02:21:20.47	338.41	34.12	-28.1	-28.6	28.7	0.00e+00	0	33	0	3143630848	28	6141
2026-01-09 02:21:21.48	338.41	33.90	-28.2	-28.7	28.7	0.00e+00	0	33	0	3149922304	28	6225
2026-01-09 02:21:22.48	338.40	33.68	-28.3	-28.9	28.7	0.00e+00	0	33	0	3155165184	28	6332
2026-01-09 02:21:23.49	338.40	33.46	-28.4	-29.0	28.6	0.00e+00	0	33	0	3161456640	28	6406
2026-01-09 02:21:24.50	338.39	33.25	-28.6	-29.1	28.5	0.00e+00	0	33	0	3166699520	28	6503
2026-01-09 02:21:25.51	338.39	33.03	-28.7	-29.2	28.4	0.00e+00	0	33	0	3171942400	28	6603
2026-01-09 02:21:26.53	338.38	32.82	-28.7	-29.3	28.4	0.00e+00	0	33	0	3178233856	28	6639
2026-01-09 02:21:27.54	338.38	32.61	-28.8	-29.5	28.4	0.00e+00	0	33	0	3183476736	30	6045
2026-01-09 02:21:28.55	338.38	32.40	-29.0	-29.7	28.2	0.00e+00	0	33	0	3189768192	30	6196
2026-01-09 02:21:29.56	338.37	32.19	-28.7	-29.4	28.5	0.00e+00	0	33	0	3195011072	30	6032
2026-01-09 02:21:30.57	338.37	31.98	-28.7	-29.4	28.4	0.00e+00	0	33	0	3201302528	30	6002
2026-01-09 02:21:31.57	338.36	31.78	-28.6	-29.2	28.5	0.00e+00	0	33	0	3206545408	30	5863
2026-01-09 02:21:32.58	338.36	31.58	-28.6	-29.1	28.4	0.00e+00	0	33	0	3211788288	30	5812
2026-01-09 02:21:33.59	338.36	31.37	-28.6	-29.1	28.5	0.00e+00	0	33	0	3218079744	30	5819
2026-01-09 02:21:34.60	338.35	31.17	-28.3	-29.0	28.7	0.00e+00	0	33	0	3223322624	30	5740
2026-01-09 02:21:35.61	338.35	30.97	-28.4	-29.1	28.7	0.00e+00	0	33	0	3229614080	30	5797
2026-01-09 02:21:36.62	338.35	30.78	-28.4	-29.0	28.7	0.00e+00	0	33	0	3234856960	30	5698
2026-01-09 02:21:37.63	338.35	30.58	-28.2	-28.7	28.7	0.00e+00	0	33	0	3240099840	30	5550
2026-01-09 02:21:38.64	338.34	30.38	-28.3	-28.8	28.7	0.00e+00	0	33	0	3246391296	30	5593
2026-01-09 02:21:39.65	338.34	30.19	-28.3	-28.8	28.7	0.00e+00	0	33	0	3251634176	30	5600
2026-01-09 02:21:40.65	338.34	30.00	-28.3	-28.9	28.6	0.00e+00	0	33	0	3257925632	30	5636
2026-01-09 02:21:41.66	338.33	29.81	-28.3	-28.9	28.6	0.00e+00	0	33	0	3263168512	30	5647
2026-01-09 02:21:42.67	338.33	29.62	-28.5	-29.0	28.5	0.00e+00	0	33	0	3268411392	30	5746
2026-01-09 02:21:43.68	338.33	29.43	-28.5	-29.0	28.5	0.00e+00	0	33	0	3274702848	30	5752
2026-01-09 02:21:44.69	338.33	29.24	-28.5	-29.0	28.6	0.00e+00	0	33	0	3279945728	30	5756
2026-01-09 02:21:45.70	338.32	29.05	-28.5	-29.1	28.6	0.00e+00	0	33	0	3286237184	30	5769
2026-01-09 02:21:46.71	338.32	28.87	-28.5	-29.1	28.6	0.00e+00	0	33	0	3291480064	30	5784
2026-01-09 02:21:47.72	338.32	28.68	-28.5	-29.0	28.5	0.00e+00	0	33	0	3297771520	30	5756
2026-01-09 02:21:48.73	338.32	28.50	-28.5	-29.2	28.6	0.00e+00	0	33	0	3303014400	30	5875
2026-01-09 02:21:49.74	338.31	28.32	-28.4	-29.1	28.6	0.00e+00	0	33	0	3308257280	30	5803
2026-01-09 02:21:50.75	338.31	28.14	-28.4	-28.9	28.7	0.00e+00	0	33	0	3314548736	30	5688
2026-01-09 02:21:51.76	338.31	27.96	-28.3	-28.8	28.7	0.00e+00	0	33	0	3319791616	30	5614
2026-01-09 02:21:52.77	338.31	27.78	-28.3	-28.8	28.6	0.00e+00	0	33	0	3326083072	30	5611
2026-01-09 02:21:53.78	338.31	27.60	-28.3	-28.8	28.7	0.00e+00	0	33	0	3331325952	30	5604
2026-01-09 02:21:54.79	338.31	27.43	-28.2	-28.8	28.7	0.00e+00	0	33	0	3336568832	30	5577
2026-01-09 02:21:55.80	338.30	27.25	-28.3	-28.8	28.7	0.00e+00	0	33	0	3342860288	30	5623
2026-01-09 02:21:56.81	338.30	27.08	-28.3	-28.8	28.6	0.00e+00	0	33	0	3348103168	30	5618
2026-01-09 02:21:57.82	338.30	26.91	-28.4	-28.9	28.6	0.00e+00	0	33	0	3354394624	30	5682
2026-01-09 02:21:58.82	338.30	26.74	-28.3	-28.8	28.7	0.00e+00	0	33	0	3359637504	30	5620
2026-01-09 02:21:59.84	338.30	26.56	-28.4	-28.9	28.6	0.00e+00	0	33	0	3364880384	30	5650
2026-01-09 02:22:00.85	338.30	26.39	-28.5	-29.0	28.5	0.00e+00	0	33	0	3371171840	30	5740
2026-01-09 02:22:01.86	338.29	26.23	-28.5	-29.1	28.4	0.00e+00	0	33	0	3376414720	30	5773
2026-01-09 02:22:02.87	338.29	26.06	-28.6	-29.1	28.4	0.00e+00	0	33	0	3382706176	30	5808
2026-01-09 02:22:03.88	338.29	25.89	-28.7	-29.2	28.4	0.00e+00	0	33	0	3387949056	30	5881
2026-01-09 02:22:04.88	338.29	25.73	-28.7	-29.2	28.3	0.00e+00	0	33	0	3394240512	30	5884
2026-01-09 02:22:05.89	338.29	25.56	-28.8	-29.3	28.3	0.00e+00	0	33	0	3399483392	30	5942
2026-01-09 02:22:06.90	338.29	25.40	-28.8	-29.4	28.2	0.00e+00	0	33	0	3405774848	30	5984
2026-01-09 02:22:07.91	338.29	25.24	-28.8	-29.4	28.3	0.00e+00	0	33	0	3411017728	30	5987
2026-01-09 02:22:08.92	338.29	25.08	-28.9	-29.5	28.2	0.00e+00	0	33	0	3416260608	30	6035
2026-01-09 02:22:09.93	338.29	24.92	-29.0	-29.5	28.1	0.00e+00	0	33	0	3422552064	30	6071
2026-01-09 02:22:10.94	338.28	24.76	-29.1	-29.7	28.1	0.00e+00	0	33	0	3427794944	30	6179
2026-01-09 02:22:11.95	338.28	24.60	-29.0	-29.5	28.2	0.00e+00	0	33	0	3434086400	30	6079
2026-01-09 02:22:12.96	338.28	24.44	-29.0	-29.7	28.1	0.00e+00	0	33	0	3439329280	30	6177
2026-01-09 02:22:13.97	338.28	24.29	-29.1	-29.8	28.1	0.00e+00	0	33	0	3444572160	30	6308
2026-01-09 02:22:14.98	338.28	24.13	-29.1	-29.8	28.1	0.00e+00	0	33	0	3450863616	30	6270
2026-01-09 02:22:15.99	338.28	23.98	-29.0	-29.7	28.1	0.00e+00	0	33	0	3456106496	30	6207
2026-01-09 02:22:17.00	338.28	23.82	-29.0	-29.7	28.1	0.00e+00	0	33	0	3461349376	30	6235
2026-01-09 02:22:18.01	338.28	23.67	-29.1	-29.8	28.1	0.00e+00	0	33	0	3467640832	30	6308
2026-01-09 02:22:19.02	338.28	23.52	-29.2	-29.9	27.9	0.00e+00	0	33	0	3472883712	30	6350
2026-01-09 02:22:20.03	338.28	23.37	-29.1	-29.8	28.0	0.00e+00	0	33	0	3479175168	30	6312
2026-01-09 02:22:21.04	338.28	23.22	-29.3	-30.0	27.9	0.00e+00	0	33	0	3484418048	30	6427
2026-01-09 02:22:22.05	338.28	23.07	-29.2	-29.9	27.9	0.00e+00	0	33	0	3490709504	30	6383
2026-01-09 02:22:23.06	338.28	22.92	-29.4	-30.1	27.9	0.00e+00	0	33	0	3495952384	30	6469
2026-01-09 02:22:24.07	338.28	22.77	-29.3	-30.0	27.9	0.00e+00	0	33	0	3502243840	30	6442
2026-01-09 02:22:25.08	338.28	22.63	-29.4	-30.1	27.8	0.00e+00	0	33	0	3507486720	30	6496
2026-01-09 02:22:26.09	338.28	22.48	-29.4	-30.2	27.8	0.00e+00	0	33	0	3512729600	30	6540
2026-01-09 02:22:27.10	338.28	22.33	-29.4	-30.1	27.7	0.00e+00	0	33	0	3519021056	30	6519
2026-01-09 02:22:28.11	338.28	22.19	-29.5	-30.2	27.7	0.00e+00	0	33	0	3524263936	30	6574
2026-01-09 02:22:29.12	338.28	22.05	-29.5	-30.2	27.7	0.00e+00	0	33	0	3530555392	30	6600
2026-01-09 02:22:30.13	338.28	21.90	-29.6	-30.3	27.6	0.00e+00	0	33	0	3535798272	30	6646
2026-01-09 02:22:31.14	338.28	21.76	-29.6	-30.2	27.6	0.00e+00	0	33	0	3541041152	30	6547
2026-01-09 02:22:32.15	338.28	21.62	-29.7	-30.3	27.4	0.00e+00	0	33	0	3547332608	32	5931
2026-01-09 02:22:33.16	338.28	21.48	-29.7	-30.4	27.6	0.00e+00	0	33	0	3552575488	32	6020
2026-01-09 02:22:34.17	338.28	21.34	-29.6	-30.3	27.7	0.00e+00	0	33	0	3558866944	32	5946
2026-01-09 02:22:35.18	338.28	21.20	-29.7	-30.4	27.5	0.00e+00	0	33	0	3564109824	32	6001
2026-01-09 02:22:36.19	338.28	21.07	-29.7	-30.4	27.5	0.00e+00	0	33	0	3569352704	32	6018
2026-01-09 02:22:37.20	338.28	20.93	-29.7	-30.4	27.6	0.00e+00	0	33	0	3575644160	32	6018
2026-01-09 02:22:38.21	338.28	20.79	-29.7	-30.3	27.6	0.00e+00	0	33	0	3580887040	32	5902
2026-01-09 02:22:39.22	338.28	20.66	-29.7	-30.4	27.5	0.00e+00	0	33	0	3587178496	32	6014
