passes_logs/2026/01/09/R4.6S_Anadyr/R4.6S_Anadyr__20260109_045250_AQUA_rec.log

#Pass ID: 20260109_045250_AQUA
#Satellite: AQUA
#Configuration: AQUA
#almurnet v.1.7.20251203
#Start time: 2026-01-09 04:52:52

#Version: 2.2.20231116
#Station: R4.6S_Anadyr
#Location: 177.4865 lon 64.73178 lat
#TLE: 1 27424U 02022A   26004.96787593  .00001598  00000+0  32997-3 0  9996
#TLE: 2 27424  98.4069 331.2279 0002002  90.2377   0.6092 14.61798176259425

#Time	Az	El	Level	Level2	SNR	BER	BlckErr	Temp	State	Recorded	gain1	gain2
2026-01-09 04:52:52.37	240.22	0.09	-47.9	-58.6	3.5	8.45e-01	0	29	0	0	60	30806
2026-01-09 04:52:53.38	240.33	0.13	-48.3	-66.2	3.5	3.02e+01	0	30	104	0	60	78198
2026-01-09 04:52:54.39	240.44	0.17	-48.2	-66.1	3.5	3.02e+01	0	30	104	0	60	77889
2026-01-09 04:52:55.40	240.54	0.21	-48.1	-66.1	3.5	3.02e+01	0	30	104	0	60	77823
2026-01-09 04:52:56.41	240.65	0.26	-48.2	-66.1	3.5	3.02e+01	0	30	104	0	60	77514
2026-01-09 04:52:57.42	240.76	0.30	-48.2	-66.1	3.5	3.02e+01	0	30	104	0	60	78045
2026-01-09 04:52:58.43	240.87	0.34	-48.3	-66.1	3.5	3.02e+01	0	31	104	0	60	78059
2026-01-09 04:52:59.44	240.97	0.38	-48.3	-66.2	3.5	3.02e+01	0	31	104	0	60	78206
2026-01-09 04:53:00.45	241.08	0.43	-48.3	-66.2	3.5	3.02e+01	0	31	104	0	60	78201
2026-01-09 04:53:01.46	241.19	0.47	-48.3	-66.2	3.5	3.02e+01	0	31	104	0	60	78476
2026-01-09 04:53:02.47	241.30	0.51	-48.4	-66.2	3.5	3.02e+01	0	31	104	0	60	78733
2026-01-09 04:53:03.48	241.41	0.55	-48.3	-66.1	3.5	3.02e+01	0	30	104	0	60	77921
2026-01-09 04:53:04.49	241.52	0.59	-48.3	-66.1	3.5	3.02e+01	0	31	104	0	60	77796
2026-01-09 04:53:05.50	241.63	0.64	-48.2	-66.0	3.5	3.02e+01	0	31	104	0	60	77144
2026-01-09 04:53:06.51	241.74	0.68	-48.1	-66.0	3.5	3.02e+01	0	31	104	0	60	76383
2026-01-09 04:53:07.52	241.85	0.72	-48.0	-65.8	3.5	3.02e+01	0	31	104	0	60	74723
2026-01-09 04:53:08.53	241.96	0.76	-47.6	-65.4	3.5	3.02e+01	0	31	104	0	60	72044
2026-01-09 04:53:09.54	242.08	0.81	-46.9	-64.7	3.5	3.02e+01	0	31	104	0	60	66022
2026-01-09 04:53:10.55	242.19	0.85	-46.7	-64.5	3.5	3.02e+01	0	31	104	0	60	64408
2026-01-09 04:53:11.56	242.30	0.89	-46.6	-64.4	3.5	3.02e+01	0	31	104	0	60	64131
2026-01-09 04:53:12.57	242.41	0.93	-46.6	-64.5	3.5	3.02e+01	0	31	104	0	60	64417
2026-01-09 04:53:13.58	242.53	0.98	-46.6	-64.4	3.5	3.02e+01	0	31	104	0	60	64038
2026-01-09 04:53:14.59	242.64	1.02	-46.6	-64.4	3.5	3.02e+01	0	31	104	0	60	64154
2026-01-09 04:53:15.60	242.75	1.06	-46.6	-64.4	3.5	3.02e+01	0	31	104	0	60	63707
2026-01-09 04:53:16.61	242.87	1.10	-46.6	-64.4	3.5	3.02e+01	0	31	104	0	60	63846
2026-01-09 04:53:17.61	242.98	1.14	-46.6	-64.4	3.5	3.02e+01	0	31	104	0	60	64154
2026-01-09 04:53:18.62	243.09	1.19	-46.6	-64.4	3.5	3.02e+01	0	31	104	0	60	64016
2026-01-09 04:53:19.63	243.21	1.23	-46.6	-64.4	3.5	3.02e+01	0	31	104	0	60	63708
2026-01-09 04:53:20.64	243.33	1.27	-46.6	-64.3	3.5	3.02e+01	0	31	104	0	60	63406
2026-01-09 04:53:21.65	243.44	1.31	-46.6	-64.3	3.5	3.02e+01	0	31	104	0	60	62820
2026-01-09 04:53:22.66	243.56	1.35	-46.6	-64.2	3.5	3.02e+01	0	31	104	0	60	62690
2026-01-09 04:53:23.67	243.67	1.40	-46.6	-64.2	3.5	3.02e+01	0	31	104	0	60	62479
2026-01-09 04:53:24.68	243.79	1.44	-46.6	-64.1	3.5	3.02e+01	0	31	104	0	60	61936
2026-01-09 04:53:25.69	243.91	1.48	-46.6	-64.2	3.5	3.02e+01	0	31	104	0	60	62324
2026-01-09 04:53:26.70	244.02	1.52	-46.6	-64.2	3.5	3.02e+01	0	31	104	0	60	62299
2026-01-09 04:53:27.71	244.14	1.56	-46.6	-64.3	3.5	3.02e+01	0	31	104	0	60	63023
2026-01-09 04:53:28.72	244.26	1.61	-46.6	-64.4	3.5	3.02e+01	0	31	104	0	60	63865
2026-01-09 04:53:29.73	244.38	1.65	-46.6	-64.3	3.5	3.02e+01	0	31	104	0	60	63369
2026-01-09 04:53:30.74	244.50	1.69	-46.6	-64.4	3.5	3.02e+01	0	31	104	0	60	63794
2026-01-09 04:53:31.75	244.62	1.73	-46.6	-64.4	3.5	3.02e+01	0	31	104	0	60	64087
2026-01-09 04:53:32.76	244.74	1.77	-46.6	-64.4	3.5	3.02e+01	0	31	104	0	60	63927
2026-01-09 04:53:33.77	244.86	1.82	-46.6	-64.4	3.5	3.02e+01	0	31	104	0	60	63781
2026-01-09 04:53:34.78	244.98	1.86	-46.6	-64.4	3.5	3.02e+01	0	31	104	0	60	63570
2026-01-09 04:53:35.79	245.10	1.90	-46.6	-64.3	3.5	3.02e+01	0	31	104	0	60	63127
2026-01-09 04:53:36.80	245.22	1.94	-46.6	-64.2	3.5	3.02e+01	0	31	104	0	60	62345
2026-01-09 04:53:37.80	245.34	1.98	-46.6	-63.9	3.5	3.02e+01	0	31	104	0	60	60304
2026-01-09 04:53:38.81	245.46	2.02	-46.6	-63.8	3.5	3.02e+01	0	31	104	0	60	59330
2026-01-09 04:53:39.82	245.58	2.06	-46.6	-63.8	3.5	3.02e+01	0	31	104	0	60	59797
2026-01-09 04:53:40.83	245.70	2.11	-46.6	-63.7	3.6	3.02e+01	0	31	104	0	60	58766
2026-01-09 04:53:41.84	245.83	2.15	-46.6	-64.0	3.5	3.02e+01	0	31	104	0	60	60928
2026-01-09 04:53:42.85	245.95	2.19	-46.6	-64.0	3.5	3.02e+01	0	31	104	0	60	60856
2026-01-09 04:53:43.86	246.07	2.23	-46.6	-63.9	3.5	3.02e+01	0	31	104	0	60	60607
2026-01-09 04:53:44.87	246.20	2.27	-46.6	-63.9	3.5	3.02e+01	0	31	104	0	60	60492
2026-01-09 04:53:45.88	246.32	2.31	-46.6	-63.8	3.5	3.02e+01	0	31	104	0	60	59401
2026-01-09 04:53:46.89	246.45	2.36	-46.6	-63.7	3.5	3.02e+01	0	31	104	0	60	59059
2026-01-09 04:53:47.90	246.57	2.40	-46.6	-63.4	3.5	3.02e+01	0	31	104	0	60	56964
2026-01-09 04:53:48.91	246.70	2.44	-46.6	-63.0	3.5	3.02e+01	0	31	104	0	60	54546
2026-01-09 04:53:49.92	246.82	2.48	-46.5	-62.6	3.5	3.02e+01	0	31	104	0	60	51883
2026-01-09 04:53:50.93	246.95	2.52	-46.6	-63.0	3.5	3.02e+01	0	31	104	0	60	54608
2026-01-09 04:53:51.94	247.07	2.56	-46.6	-63.7	3.5	3.02e+01	0	31	104	0	60	58728
2026-01-09 04:53:52.95	247.20	2.60	-46.5	-62.3	3.6	3.02e+01	0	31	104	0	60	50381
2026-01-09 04:53:53.96	247.33	2.64	-46.4	-59.4	3.8	3.02e+01	0	31	104	0	60	36108
2026-01-09 04:53:54.97	247.46	2.69	-46.3	-58.2	5.4	3.02e+01	1	31	0	0	60	31201
2026-01-09 04:53:55.98	247.58	2.73	-46.4	-59.5	4.8	3.02e+01	0	31	104	0	60	36459
2026-01-09 04:53:56.99	247.71	2.77	-46.6	-63.3	3.5	3.02e+01	0	31	104	0	60	56397
2026-01-09 04:53:58.00	247.84	2.81	-46.3	-58.5	6.0	3.02e+01	0	31	104	0	60	32335
2026-01-09 04:53:59.01	247.97	2.85	-45.3	-51.8	12.2	3.02e+01	92	31	0	524288	60	14912
2026-01-09 04:54:00.02	248.10	2.89	-43.7	-47.6	16.4	3.02e+01	92	31	0	2097152	60	9275
2026-01-09 04:54:01.03	248.23	2.93	-42.6	-45.7	18.3	3.02e+01	92	31	0	4194304	60	7413
2026-01-09 04:54:02.04	248.36	2.97	-42.0	-44.8	19.2	3.02e+01	92	31	0	6291456	60	6678
2026-01-09 04:54:03.05	248.49	3.01	-42.1	-44.9	18.9	3.02e+01	90	31	0	7864320	58	7627
2026-01-09 04:54:04.06	248.62	3.05	-46.7	-59.8	3.8	3.02e+01	0	31	104	9437184	60	37558
2026-01-09 04:54:05.07	248.75	3.09	-46.2	-58.4	5.3	3.02e+01	41	31	0	9437184	60	31907
2026-01-09 04:54:06.07	248.88	3.13	-39.9	-41.9	21.9	3.02e+01	92	31	0	11010048	52	7569
2026-01-09 04:54:07.08	249.01	3.17	-42.7	-45.8	18.8	3.02e+01	92	31	0	12582912	58	8379
2026-01-09 04:54:08.09	249.15	3.22	-42.8	-46.0	18.2	3.02e+01	92	31	0	14680064	60	7686
2026-01-09 04:54:09.10	249.28	3.26	-38.8	-40.5	23.5	3.02e+01	92	31	0	16777216	52	6495
2026-01-09 04:54:10.11	249.41	3.30	-38.4	-40.1	24.0	3.02e+01	92	31	0	18350080	52	6165
2026-01-09 04:54:11.12	249.55	3.34	-38.0	-39.7	24.4	3.02e+01	90	31	0	20447232	52	5866
2026-01-09 04:54:12.13	249.68	3.38	-38.1	-39.8	24.3	3.02e+01	89	31	0	22544384	52	5942
2026-01-09 04:54:13.14	249.82	3.42	-37.5	-39.1	24.8	3.02e+01	89	31	0	24117248	50	6176
2026-01-09 04:54:14.15	249.95	3.46	-37.4	-39.0	25.0	3.02e+01	92	31	0	26214400	50	6079
2026-01-09 04:54:15.16	250.09	3.50	-37.7	-39.2	24.8	3.02e+01	92	31	0	27787264	50	6250
2026-01-09 04:54:16.17	250.22	3.54	-37.7	-39.3	24.8	3.02e+01	92	31	0	29884416	50	6302
2026-01-09 04:54:17.17	250.36	3.58	-37.6	-39.2	24.9	3.02e+01	90	31	0	31981568	50	6229
2026-01-09 04:54:18.18	250.49	3.62	-37.7	-39.2	24.8	3.02e+01	92	31	0	33554432	50	6270
2026-01-09 04:54:19.19	250.63	3.66	-37.5	-39.0	25.1	3.02e+01	92	31	0	35651584	50	6103
2026-01-09 04:54:20.20	250.77	3.70	-37.4	-38.9	25.0	3.02e+01	90	31	0	37748736	50	6055
2026-01-09 04:54:21.21	250.90	3.74	-37.2	-38.7	25.4	3.02e+01	92	31	0	39321600	50	5894
2026-01-09 04:54:22.22	251.04	3.78	-37.2	-38.7	25.4	3.02e+01	92	31	0	41418752	50	5911
2026-01-09 04:54:23.23	251.18	3.82	-37.2	-38.7	25.3	3.02e+01	92	31	0	42991616	50	5898
2026-01-09 04:54:24.24	251.32	3.86	-37.3	-38.8	25.4	3.02e+01	92	31	0	45088768	50	5949
2026-01-09 04:54:25.25	251.46	3.89	-37.3	-38.8	25.3	3.02e+01	92	31	0	47185920	50	5982
2026-01-09 04:54:26.26	251.60	3.93	-37.3	-38.8	25.3	3.02e+01	92	31	0	48758784	50	5942
2026-01-09 04:54:27.27	251.74	3.97	-37.3	-38.8	25.3	3.02e+01	92	31	0	50855936	50	5970
2026-01-09 04:54:28.28	251.88	4.01	-37.2	-38.7	25.4	3.02e+01	92	31	0	52428800	50	5914
2026-01-09 04:54:29.29	252.02	4.05	-37.2	-38.7	25.4	3.02e+01	92	31	0	54525952	50	5905
2026-01-09 04:54:30.30	252.16	4.09	-37.1	-38.5	25.6	3.02e+01	92	31	0	56623104	50	5785
2026-01-09 04:54:31.31	252.30	4.13	-37.0	-38.5	25.6	3.02e+01	92	31	0	58195968	50	5765
2026-01-09 04:54:32.32	252.44	4.17	-37.1	-38.6	25.5	3.02e+01	89	31	0	60293120	50	5823
2026-01-09 04:54:33.33	252.59	4.21	-37.1	-38.5	25.6	3.02e+01	92	31	0	61865984	50	5787
2026-01-09 04:54:34.34	252.73	4.25	-37.2	-38.7	25.5	3.02e+01	91	31	0	63963136	50	5861
2026-01-09 04:54:35.35	252.87	4.29	-37.2	-38.7	25.5	3.02e+01	91	31	0	66060288	50	5869
2026-01-09 04:54:36.36	253.01	4.32	-37.1	-38.6	25.5	3.02e+01	92	31	0	67633152	50	5843
2026-01-09 04:54:37.36	253.16	4.36	-37.2	-38.7	25.5	3.02e+01	92	31	0	69730304	50	5864
2026-01-09 04:54:38.37	253.30	4.40	-37.1	-38.5	25.6	3.02e+01	92	31	0	71303168	50	5786
2026-01-09 04:54:39.37	253.44	4.44	-37.0	-38.5	25.7	3.02e+01	92	31	0	73400320	50	5749
2026-01-09 04:54:40.39	253.59	4.48	-36.8	-38.3	25.9	3.02e+01	90	31	0	75497472	48	6298
2026-01-09 04:54:41.40	253.74	4.52	-36.8	-38.2	25.9	3.02e+01	91	31	0	77070336	48	6277
2026-01-09 04:54:42.41	253.88	4.56	-36.8	-38.3	25.9	3.02e+01	92	31	0	79167488	48	6283
2026-01-09 04:54:43.42	254.03	4.59	-36.9	-38.4	25.8	3.02e+01	92	31	0	80740352	48	6371
2026-01-09 04:54:44.43	254.18	4.63	-36.8	-38.3	25.9	3.02e+01	92	31	0	82837504	48	6293
2026-01-09 04:54:45.44	254.32	4.67	-36.9	-38.4	25.8	3.02e+01	92	31	0	84934656	48	6383
2026-01-09 04:54:46.44	254.47	4.71	-37.3	-38.8	25.4	3.02e+01	91	31	0	86507520	48	6709
2026-01-09 04:54:47.45	254.62	4.74	-36.8	-38.3	25.9	3.02e+01	91	31	0	88604672	48	6284
2026-01-09 04:54:48.46	254.76	4.78	-36.8	-38.2	26.0	3.02e+01	90	31	0	90701824	48	6232
2026-01-09 04:54:49.47	254.91	4.82	-36.9	-38.4	25.8	3.02e+01	92	31	0	92274688	48	6369
2026-01-09 04:54:50.48	255.06	4.86	-37.0	-38.4	25.8	3.02e+01	90	31	0	94371840	48	6394
2026-01-09 04:54:51.48	255.21	4.89	-36.9	-38.4	25.9	3.02e+01	88	31	0	95944704	48	6362
2026-01-09 04:54:52.49	255.36	4.93	-36.9	-38.3	25.9	3.02e+01	92	31	0	98041856	48	6326
2026-01-09 04:54:53.50	255.51	4.97	-37.0	-38.4	25.7	3.02e+01	92	31	0	100139008	48	6417
2026-01-09 04:54:54.51	255.66	5.01	-36.9	-38.3	26.0	3.02e+01	92	31	0	101711872	48	6323
2026-01-09 04:54:55.52	255.81	5.04	-36.9	-38.4	25.8	3.02e+01	92	31	0	103809024	48	6379
2026-01-09 04:54:56.53	255.96	5.08	-36.6	-38.0	26.2	3.02e+01	90	31	0	105381888	48	6106
2026-01-09 04:54:57.54	256.12	5.12	-36.6	-38.0	26.2	3.02e+01	91	31	0	107479040	48	6123
2026-01-09 04:54:58.55	256.27	5.15	-36.7	-38.1	26.1	3.02e+01	92	31	0	109576192	48	6200
2026-01-09 04:54:59.56	256.42	5.19	-36.6	-38.0	26.2	3.02e+01	92	31	0	111149056	48	6079
2026-01-09 04:55:00.57	256.57	5.23	-36.7	-38.1	26.2	3.02e+01	91	31	0	113246208	48	6176
2026-01-09 04:55:01.57	256.73	5.26	-36.5	-38.0	26.3	3.02e+01	92	31	0	114819072	48	6070
2026-01-09 04:55:02.59	256.88	5.30	-36.6	-38.0	26.2	3.02e+01	89	31	0	116916224	48	6134
2026-01-09 04:55:03.59	257.03	5.34	-36.6	-38.0	26.3	3.02e+01	89	31	0	119013376	48	6088
2026-01-09 04:55:04.60	257.19	5.37	-36.5	-37.9	26.3	3.02e+01	91	31	0	120586240	48	6041
2026-01-09 04:55:05.61	257.34	5.41	-36.6	-38.0	26.2	3.02e+01	92	31	0	122683392	48	6120
2026-01-09 04:55:06.62	257.50	5.44	-36.6	-38.0	26.2	3.02e+01	90	31	0	124256256	48	6126
2026-01-09 04:55:07.63	257.66	5.48	-36.7	-38.2	26.1	3.02e+01	91	31	0	126353408	48	6226
2026-01-09 04:55:08.64	257.81	5.52	-36.4	-37.8	26.4	3.02e+01	92	31	0	128450560	48	5985
2026-01-09 04:55:09.65	257.97	5.55	-36.3	-37.7	26.6	3.02e+01	92	31	0	130023424	48	5899
2026-01-09 04:55:10.66	258.13	5.59	-36.3	-37.7	26.6	3.02e+01	92	31	0	132120576	48	5877
2026-01-09 04:55:11.67	258.28	5.62	-36.4	-37.8	26.5	3.02e+01	92	31	0	134217728	48	5976
2026-01-09 04:55:12.68	258.44	5.66	-36.5	-37.9	26.4	3.02e+01	92	31	0	135790592	48	5998
2026-01-09 04:55:13.69	258.60	5.69	-36.5	-37.9	26.3	3.02e+01	92	31	0	137887744	48	6048
2026-01-09 04:55:14.69	258.76	5.73	-36.6	-38.0	26.4	3.02e+01	92	31	0	139460608	48	6109
2026-01-09 04:55:15.71	258.92	5.76	-36.4	-37.8	26.5	3.02e+01	92	31	0	141557760	48	5988
2026-01-09 04:55:16.71	259.08	5.80	-36.3	-37.7	26.5	3.02e+01	92	31	0	143654912	48	5900
2026-01-09 04:55:17.72	259.24	5.83	-36.2	-37.6	26.7	3.02e+01	92	31	0	145227776	48	5813
2026-01-09 04:55:18.73	259.40	5.87	-36.2	-37.6	26.7	3.02e+01	92	31	0	147324928	48	5841
2026-01-09 04:55:19.74	259.56	5.90	-36.6	-38.0	26.4	3.02e+01	92	31	0	148897792	48	6077
2026-01-09 04:55:20.75	259.72	5.94	-36.5	-37.9	26.4	3.02e+01	93	31	0	150994944	48	6024
2026-01-09 04:55:21.76	259.88	5.97	-36.2	-37.6	26.7	3.02e+01	92	31	0	153092096	48	5836
2026-01-09 04:55:22.77	260.04	6.00	-36.2	-37.6	26.6	3.02e+01	91	31	0	154664960	48	5830
2026-01-09 04:55:23.78	260.20	6.04	-36.2	-37.6	26.7	3.02e+01	92	31	0	156762112	48	5817
2026-01-09 04:55:24.79	260.37	6.07	-36.2	-37.6	26.7	3.02e+01	90	31	0	158859264	48	5809
2026-01-09 04:55:25.80	260.53	6.10	-36.2	-37.6	26.7	3.02e+01	90	31	0	160432128	48	5832
2026-01-09 04:55:26.81	260.69	6.14	-36.2	-37.5	26.7	3.02e+01	92	31	0	162529280	48	5780
2026-01-09 04:55:27.82	260.86	6.17	-36.2	-37.5	26.8	3.02e+01	92	31	0	164102144	48	5783
2026-01-09 04:55:28.82	261.02	6.20	-36.2	-37.5	26.8	3.02e+01	92	31	0	166199296	48	5786
2026-01-09 04:55:29.83	261.18	6.24	-36.3	-37.7	26.7	3.02e+01	92	31	0	167772160	48	5869
2026-01-09 04:55:30.84	261.35	6.27	-36.1	-37.5	26.9	3.02e+01	91	31	0	169869312	48	5735
2026-01-09 04:55:31.85	261.52	6.30	-36.2	-37.5	26.8	3.02e+01	92	31	0	171966464	48	5789
2026-01-09 04:55:32.86	261.68	6.34	-36.1	-37.5	26.8	3.02e+01	90	31	0	173539328	48	5751
2026-01-09 04:55:33.87	261.85	6.37	-36.2	-37.6	26.8	3.02e+01	92	31	0	175636480	48	5802
2026-01-09 04:55:34.88	262.01	6.40	-36.2	-37.6	26.7	3.02e+01	91	31	0	177209344	48	5824
2026-01-09 04:55:35.89	262.18	6.43	-36.1	-37.4	26.9	3.02e+01	92	31	0	179306496	48	5716
2026-01-09 04:55:36.90	262.35	6.46	-36.2	-37.5	26.8	3.02e+01	90	31	0	181403648	48	5775
2026-01-09 04:55:37.91	262.52	6.50	-36.2	-37.6	26.8	3.02e+01	92	31	0	182976512	48	5841
2026-01-09 04:55:38.92	262.68	6.53	-36.1	-37.5	26.8	3.02e+01	91	31	0	185073664	48	5766
2026-01-09 04:55:39.93	262.85	6.56	-36.2	-37.5	26.8	3.02e+01	92	31	0	187170816	48	5777
2026-01-09 04:55:40.94	263.02	6.59	-36.1	-37.5	26.9	3.02e+01	90	31	0	188743680	48	5728
2026-01-09 04:55:41.95	263.19	6.62	-35.9	-37.3	27.0	3.02e+01	91	31	0	190840832	48	5622
2026-01-09 04:55:42.95	263.36	6.65	-35.9	-37.3	27.1	3.02e+01	92	31	0	192413696	46	6278
2026-01-09 04:55:43.96	263.53	6.68	-36.1	-37.5	26.9	3.02e+01	92	31	0	194510848	46	6436
2026-01-09 04:55:44.97	263.70	6.71	-36.1	-37.5	26.9	3.02e+01	92	31	0	196608000	46	6430
2026-01-09 04:55:45.98	263.87	6.75	-36.1	-37.5	27.0	3.02e+01	91	31	0	198180864	46	6431
2026-01-09 04:55:46.99	264.04	6.78	-36.2	-37.5	26.9	3.02e+01	91	31	0	200278016	46	6492
2026-01-09 04:55:48.00	264.21	6.81	-36.0	-37.3	27.1	3.02e+01	91	31	0	202375168	46	6310
2026-01-09 04:55:49.01	264.39	6.84	-36.0	-37.4	27.0	3.02e+01	90	31	0	203948032	46	6379
2026-01-09 04:55:50.02	264.56	6.87	-36.1	-37.5	27.0	3.02e+01	92	31	0	206045184	46	6428
2026-01-09 04:55:51.03	264.73	6.90	-36.1	-37.4	26.9	3.02e+01	90	31	0	207618048	46	6413
2026-01-09 04:55:52.04	264.90	6.93	-36.0	-37.3	27.0	3.02e+01	86	31	0	209715200	46	6345
2026-01-09 04:55:53.05	265.08	6.96	-36.1	-37.4	27.0	3.02e+01	92	31	0	211812352	46	6411
2026-01-09 04:55:54.06	265.25	6.98	-35.9	-37.2	27.1	3.02e+01	90	31	0	213385216	46	6273
2026-01-09 04:55:55.07	265.43	7.01	-36.1	-37.4	27.0	3.02e+01	91	31	0	215482368	46	6409
2026-01-09 04:55:56.08	265.60	7.04	-36.2	-37.6	26.8	3.02e+01	90	32	0	217055232	46	6500
2026-01-09 04:55:57.09	265.78	7.07	-36.3	-37.7	26.9	3.02e+01	92	31	0	219152384	46	6574
2026-01-09 04:55:58.10	265.95	7.10	-35.8	-37.1	27.2	3.02e+01	92	31	0	221249536	46	6205
2026-01-09 04:55:59.10	266.12	7.13	-36.0	-37.3	27.1	3.02e+01	90	31	0	222822400	46	6312
2026-01-09 04:56:00.12	266.30	7.16	-35.9	-37.2	27.1	3.02e+01	91	31	0	224919552	46	6256
2026-01-09 04:56:01.13	266.48	7.18	-35.8	-37.1	27.3	3.02e+01	90	31	0	226492416	46	6182
2026-01-09 04:56:02.13	266.65	7.21	-35.8	-37.2	27.2	3.02e+01	91	31	0	228589568	46	6223
2026-01-09 04:56:03.14	266.83	7.24	-35.8	-37.1	27.2	3.02e+01	92	31	0	230686720	46	6201
2026-01-09 04:56:04.15	267.01	7.27	-35.7	-37.0	27.3	3.02e+01	92	31	0	232259584	46	6114
2026-01-09 04:56:05.16	267.19	7.29	-35.8	-37.1	27.2	3.02e+01	90	31	0	234356736	46	6174
2026-01-09 04:56:06.17	267.36	7.32	-35.6	-36.9	27.4	3.02e+01	90	31	0	235929600	46	6057
2026-01-09 04:56:07.18	267.54	7.35	-35.7	-37.1	27.4	3.02e+01	92	31	0	238026752	46	6138
2026-01-09 04:56:08.19	267.72	7.38	-35.7	-37.0	27.4	3.02e+01	92	31	0	240123904	46	6094
2026-01-09 04:56:09.20	267.90	7.40	-35.7	-37.0	27.3	3.02e+01	90	31	0	241696768	46	6123
2026-01-09 04:56:10.21	268.08	7.43	-35.7	-37.0	27.4	3.02e+01	92	31	0	243793920	46	6110
2026-01-09 04:56:11.22	268.26	7.45	-35.6	-37.0	27.4	3.02e+01	92	31	0	245366784	46	6074
2026-01-09 04:56:12.23	268.44	7.48	-35.6	-37.0	27.4	3.02e+01	92	31	0	247463936	46	6074
2026-01-09 04:56:13.24	268.62	7.51	-35.7	-37.0	27.4	3.02e+01	90	31	0	249561088	46	6093
2026-01-09 04:56:14.25	268.80	7.53	-35.7	-37.0	27.4	3.02e+01	84	31	0	251133952	46	6094
2026-01-09 04:56:15.26	268.98	7.56	-35.8	-37.1	27.3	3.02e+01	90	31	0	253231104	46	6176
2026-01-09 04:56:16.27	269.16	7.58	-35.6	-36.9	27.5	3.02e+01	91	31	0	255328256	46	6008
2026-01-09 04:56:17.28	269.35	7.61	-35.5	-36.9	27.6	3.02e+01	91	31	0	256901120	46	5998
2026-01-09 04:56:18.29	269.53	7.63	-35.6	-36.9	27.5	3.02e+01	91	31	0	258998272	46	6045
2026-01-09 04:56:19.30	269.71	7.66	-35.6	-36.9	27.5	3.02e+01	92	31	0	260571136	46	6045
2026-01-09 04:56:20.31	269.89	7.68	-35.6	-36.9	27.5	3.02e+01	92	31	0	262668288	46	6053
2026-01-09 04:56:21.31	270.07	7.70	-35.6	-37.0	27.6	3.02e+01	92	31	0	264765440	46	6072
2026-01-09 04:56:22.32	270.26	7.73	-35.5	-36.8	27.6	3.02e+01	90	31	0	266338304	46	5984
2026-01-09 04:56:23.33	270.44	7.75	-35.7	-37.0	27.5	3.02e+01	92	31	0	268435456	46	6089
2026-01-09 04:56:24.34	270.63	7.78	-35.7	-37.0	27.4	3.02e+01	92	32	0	270532608	46	6104
2026-01-09 04:56:25.35	270.81	7.80	-35.6	-37.0	27.5	3.02e+01	91	31	0	272105472	46	6066
2026-01-09 04:56:26.36	270.99	7.82	-35.6	-36.9	27.6	3.02e+01	90	31	0	274202624	46	6014
2026-01-09 04:56:27.37	271.18	7.84	-35.6	-36.9	27.5	3.02e+01	92	31	0	275775488	46	6040
2026-01-09 04:56:28.38	271.36	7.87	-35.6	-36.9	27.6	3.02e+01	92	31	0	277872640	46	6008
2026-01-09 04:56:29.39	271.55	7.89	-35.6	-36.9	27.6	3.02e+01	92	31	0	279969792	46	6009
2026-01-09 04:56:30.40	271.74	7.91	-35.6	-36.9	27.5	3.02e+01	92	32	0	281542656	46	6057
2026-01-09 04:56:31.41	271.92	7.93	-35.5	-36.8	27.6	3.02e+01	91	32	0	283639808	46	5954
2026-01-09 04:56:32.42	272.11	7.95	-35.5	-36.9	27.5	3.02e+01	95	31	0	285212672	46	5998
2026-01-09 04:56:33.43	272.29	7.98	-35.7	-37.1	27.5	3.02e+01	93	32	0	287309824	46	6141
2026-01-09 04:56:34.43	272.48	8.00	-35.6	-36.9	27.6	3.02e+01	92	31	0	288882688	46	6007
2026-01-09 04:56:35.44	272.67	8.02	-35.5	-36.8	27.6	3.02e+01	92	31	0	290979840	46	5950
2026-01-09 04:56:36.45	272.85	8.04	-35.4	-36.7	27.7	3.02e+01	90	31	0	293076992	46	5913
2026-01-09 04:56:37.46	273.04	8.06	-35.5	-36.8	27.6	3.02e+01	92	31	0	294649856	46	5930
2026-01-09 04:56:38.47	273.23	8.08	-35.6	-36.9	27.5	3.02e+01	91	31	0	296747008	46	6005
2026-01-09 04:56:39.48	273.42	8.10	-35.4	-36.7	27.7	3.02e+01	92	31	0	298844160	46	5884
2026-01-09 04:56:40.49	273.61	8.12	-35.4	-36.7	27.7	3.02e+01	92	31	0	300417024	46	5913
2026-01-09 04:56:41.50	273.80	8.14	-35.4	-36.7	27.7	3.02e+01	92	31	0	302514176	46	5920
2026-01-09 04:56:42.51	273.99	8.16	-35.4	-36.7	27.6	3.02e+01	92	31	0	304087040	46	5902
2026-01-09 04:56:43.52	274.18	8.18	-35.4	-36.7	27.6	3.02e+01	92	31	0	306184192	46	5904
2026-01-09 04:56:44.53	274.36	8.20	-35.5	-36.8	27.6	3.02e+01	92	32	0	308281344	46	5969
2026-01-09 04:56:45.54	274.55	8.22	-35.4	-36.7	27.7	3.02e+01	92	31	0	309854208	46	5908
2026-01-09 04:56:46.55	274.75	8.23	-35.3	-36.6	27.8	3.02e+01	92	31	0	311951360	46	5806
2026-01-09 04:56:47.56	274.94	8.25	-35.3	-36.5	27.8	3.02e+01	92	31	0	313524224	46	5791
2026-01-09 04:56:48.57	275.13	8.27	-35.4	-36.7	27.7	3.02e+01	92	31	0	315621376	46	5874
2026-01-09 04:56:49.58	275.32	8.29	-35.3	-36.6	27.7	3.02e+01	89	31	0	317718528	46	5847
2026-01-09 04:56:50.59	275.51	8.31	-35.4	-36.7	27.8	3.02e+01	92	31	0	319291392	46	5860
2026-01-09 04:56:51.60	275.70	8.32	-35.4	-36.6	27.7	3.02e+01	90	31	0	321388544	46	5852
2026-01-09 04:56:52.61	275.89	8.34	-35.3	-36.6	27.8	3.02e+01	92	31	0	323485696	46	5812
2026-01-09 04:56:53.62	276.08	8.36	-35.4	-36.7	27.7	3.02e+01	90	31	0	325058560	46	5878
2026-01-09 04:56:54.63	276.28	8.37	-35.2	-36.5	27.9	3.02e+01	92	31	0	327155712	46	5757
2026-01-09 04:56:55.64	276.47	8.39	-35.3	-36.6	27.8	3.02e+01	91	32	0	328728576	46	5795
2026-01-09 04:56:56.65	276.66	8.40	-35.1	-36.4	28.0	3.02e+01	91	31	0	330825728	46	5673
2026-01-09 04:56:57.66	276.85	8.42	-35.2	-36.5	27.9	3.02e+01	91	31	0	332922880	46	5730
2026-01-09 04:56:58.67	277.05	8.44	-35.3	-36.6	27.8	3.02e+01	92	32	0	334495744	46	5832
2026-01-09 04:56:59.68	277.24	8.45	-35.3	-36.6	27.8	3.02e+01	92	31	0	336592896	46	5793
2026-01-09 04:57:00.68	277.43	8.47	-35.2	-36.5	27.8	3.02e+01	92	31	0	338165760	46	5770
2026-01-09 04:57:01.69	277.62	8.48	-35.3	-36.6	27.8	3.02e+01	91	31	0	340262912	46	5793
2026-01-09 04:57:02.70	277.82	8.49	-35.2	-36.4	28.0	3.02e+01	92	31	0	342360064	46	5711
2026-01-09 04:57:03.71	278.01	8.51	-35.2	-36.5	28.0	3.02e+01	92	31	0	343932928	46	5728
2026-01-09 04:57:04.72	278.21	8.52	-35.2	-36.5	27.9	3.02e+01	92	32	0	346030080	46	5737
2026-01-09 04:57:05.73	278.40	8.54	-35.2	-36.5	27.9	3.02e+01	90	31	0	347602944	46	5746
2026-01-09 04:57:06.74	278.59	8.55	-35.2	-36.5	27.9	3.02e+01	92	31	0	349700096	46	5733
2026-01-09 04:57:07.75	278.79	8.56	-35.4	-36.6	27.8	3.02e+01	92	31	0	351797248	46	5854
2026-01-09 04:57:08.76	278.98	8.58	-35.5	-36.8	27.6	3.02e+01	92	32	0	353370112	46	5978
2026-01-09 04:57:09.77	279.18	8.59	-35.3	-36.6	27.9	3.02e+01	92	31	0	355467264	46	5804
2026-01-09 04:57:10.78	279.37	8.60	-35.3	-36.6	27.8	3.02e+01	90	32	0	357040128	46	5810
2026-01-09 04:57:11.79	279.57	8.61	-35.4	-36.6	27.8	3.02e+01	91	31	0	359137280	46	5854
2026-01-09 04:57:12.80	279.77	8.62	-35.1	-36.4	28.0	3.02e+01	92	31	0	361234432	46	5705
2026-01-09 04:57:13.80	279.96	8.64	-35.1	-36.4	28.0	3.02e+01	90	32	0	362807296	46	5684
2026-01-09 04:57:14.81	280.16	8.65	-35.2	-36.5	28.0	3.02e+01	92	31	0	364904448	46	5753
2026-01-09 04:57:15.82	280.35	8.66	-35.2	-36.5	28.0	3.02e+01	92	31	0	367001600	46	5740
2026-01-09 04:57:16.83	280.55	8.67	-35.3	-36.5	27.8	3.02e+01	92	31	0	368574464	46	5788
2026-01-09 04:57:17.84	280.74	8.68	-35.3	-36.6	27.9	3.02e+01	92	31	0	370671616	46	5819
2026-01-09 04:57:18.85	280.94	8.69	-35.2	-36.5	27.8	3.02e+01	89	31	0	372244480	46	5763
2026-01-09 04:57:19.85	281.14	8.70	-35.2	-36.4	28.0	3.02e+01	92	31	0	374341632	46	5716
2026-01-09 04:57:20.86	281.33	8.71	-35.1	-36.4	28.0	3.02e+01	91	31	0	376438784	46	5676
2026-01-09 04:57:21.87	281.53	8.72	-35.0	-36.3	28.2	3.02e+01	91	31	0	378011648	46	5601
2026-01-09 04:57:22.88	281.73	8.73	-35.1	-36.4	28.0	3.02e+01	92	31	0	380108800	46	5694
2026-01-09 04:57:23.89	281.92	8.74	-35.2	-36.5	28.0	3.02e+01	91	31	0	381681664	46	5739
2026-01-09 04:57:24.90	282.12	8.74	-35.1	-36.4	28.0	3.02e+01	91	31	0	383778816	46	5711
2026-01-09 04:57:25.90	282.32	8.75	-35.2	-36.5	28.0	3.02e+01	89	31	0	385875968	46	5728
2026-01-09 04:57:26.91	282.51	8.76	-35.1	-36.4	28.0	3.02e+01	92	31	0	387448832	46	5664
2026-01-09 04:57:27.92	282.71	8.77	-35.0	-36.3	28.1	3.02e+01	92	31	0	389545984	46	5595
2026-01-09 04:57:28.93	282.91	8.78	-35.2	-36.4	27.9	3.02e+01	92	31	0	391118848	46	5724
2026-01-09 04:57:29.94	283.11	8.78	-35.1	-36.3	28.1	3.02e+01	90	31	0	393216000	46	5650
2026-01-09 04:57:30.95	283.30	8.79	-35.1	-36.3	28.0	3.02e+01	91	31	0	395313152	46	5652
2026-01-09 04:57:31.95	283.50	8.80	-35.0	-36.3	28.1	3.02e+01	91	31	0	396886016	46	5642
2026-01-09 04:57:32.96	283.70	8.80	-35.0	-36.3	28.1	3.02e+01	92	31	0	398983168	46	5617
2026-01-09 04:57:33.97	283.90	8.81	-35.1	-36.4	28.0	3.02e+01	91	31	0	400556032	46	5702
2026-01-09 04:57:34.98	284.10	8.81	-35.2	-36.4	28.0	3.02e+01	91	31	0	402653184	46	5711
2026-01-09 04:57:35.99	284.29	8.82	-35.1	-36.4	28.0	3.02e+01	91	31	0	404750336	46	5688
2026-01-09 04:57:37.00	284.49	8.83	-35.2	-36.5	28.0	3.02e+01	91	31	0	406323200	46	5733
2026-01-09 04:57:38.00	284.69	8.83	-35.1	-36.4	28.0	3.02e+01	91	31	0	408420352	46	5678
2026-01-09 04:57:39.01	284.89	8.84	-35.1	-36.3	28.0	3.02e+01	91	31	0	409993216	46	5657
2026-01-09 04:57:40.02	285.09	8.84	-34.7	-36.0	28.3	3.02e+01	92	31	0	412090368	44	6087
2026-01-09 04:57:41.03	285.28	8.84	-34.9	-36.1	28.2	3.02e+01	92	31	0	414187520	44	6190
2026-01-09 04:57:42.04	285.48	8.85	-35.2	-36.4	28.0	3.02e+01	91	31	0	415760384	44	6412
2026-01-09 04:57:43.05	285.68	8.85	-35.1	-36.3	28.0	3.02e+01	90	31	0	417857536	44	6345
2026-01-09 04:57:44.06	285.88	8.85	-35.1	-36.3	28.0	3.02e+01	92	31	0	419954688	44	6341
2026-01-09 04:57:45.07	286.08	8.86	-35.1	-36.4	27.9	3.02e+01	92	31	0	421527552	44	6368
2026-01-09 04:57:46.08	286.28	8.86	-35.0	-36.3	28.0	3.02e+01	91	31	0	423624704	44	6332
2026-01-09 04:57:47.09	286.48	8.86	-35.2	-36.5	27.9	3.02e+01	92	31	0	425197568	44	6478
2026-01-09 04:57:48.10	286.68	8.86	-35.2	-36.5	27.9	3.02e+01	92	31	0	427294720	44	6484
2026-01-09 04:57:49.11	286.87	8.87	-35.1	-36.4	28.0	3.02e+01	90	31	0	429391872	44	6357
2026-01-09 04:57:50.12	287.07	8.87	-35.0	-36.2	28.1	3.02e+01	91	31	0	430964736	44	6250
2026-01-09 04:57:51.13	287.27	8.87	-34.9	-36.1	28.2	3.02e+01	92	31	0	433061888	44	6178
2026-01-09 04:57:52.14	287.47	8.87	-34.8	-36.1	28.2	3.02e+01	92	31	0	435159040	44	6163
2026-01-09 04:57:53.15	287.67	8.87	-35.0	-36.2	28.1	3.02e+01	92	31	0	436731904	44	6263
2026-01-09 04:57:54.16	287.87	8.87	-35.0	-36.3	28.1	3.02e+01	91	31	0	438829056	44	6299
2026-01-09 04:57:55.17	288.07	8.87	-35.1	-36.4	28.0	3.02e+01	91	31	0	440401920	44	6410
2026-01-09 04:57:56.17	288.27	8.87	-35.2	-36.4	27.9	3.02e+01	92	31	0	442499072	44	6417
2026-01-09 04:57:57.18	288.46	8.87	-35.1	-36.3	28.0	3.02e+01	92	31	0	444071936	44	6333
2026-01-09 04:57:58.19	288.66	8.87	-35.0	-36.2	28.2	3.02e+01	91	31	0	446169088	44	6268
2026-01-09 04:57:59.20	288.86	8.87	-35.1	-36.4	27.9	3.02e+01	92	31	0	448266240	44	6355
2026-01-09 04:58:00.20	289.06	8.87	-35.0	-36.2	28.1	3.02e+01	91	31	0	449839104	44	6266
2026-01-09 04:58:01.21	289.26	8.87	-35.0	-36.3	28.1	3.02e+01	91	31	0	451936256	44	6284
2026-01-09 04:58:02.22	289.46	8.86	-35.0	-36.2	28.1	3.02e+01	90	31	0	453509120	44	6276
2026-01-09 04:58:03.23	289.66	8.86	-34.9	-36.2	28.1	3.02e+01	92	31	0	455606272	44	6212
2026-01-09 04:58:04.24	289.86	8.86	-34.9	-36.2	28.2	3.02e+01	92	31	0	457703424	44	6208
2026-01-09 04:58:05.24	290.05	8.86	-35.0	-36.3	28.1	3.02e+01	92	31	0	459276288	44	6323
2026-01-09 04:58:06.25	290.25	8.85	-35.1	-36.4	28.1	3.02e+01	90	31	0	461373440	44	6395
2026-01-09 04:58:07.26	290.45	8.85	-35.0	-36.3	28.1	3.02e+01	92	31	0	463470592	44	6323
2026-01-09 04:58:08.27	290.65	8.85	-35.1	-36.4	28.0	3.02e+01	91	31	0	465043456	44	6358
2026-01-09 04:58:09.28	290.85	8.84	-35.0	-36.3	28.1	3.02e+01	91	32	0	467140608	44	6310
2026-01-09 04:58:10.29	291.05	8.84	-35.1	-36.4	28.1	3.02e+01	92	31	0	468713472	44	6362
2026-01-09 04:58:11.29	291.24	8.83	-34.8	-36.1	28.2	3.02e+01	91	31	0	470810624	44	6143
2026-01-09 04:58:12.30	291.44	8.83	-34.9	-36.2	28.1	3.02e+01	92	31	0	472907776	44	6214
2026-01-09 04:58:13.31	291.64	8.83	-35.1	-36.3	28.0	3.02e+01	91	31	0	474480640	44	6349
2026-01-09 04:58:14.32	291.84	8.82	-35.2	-36.4	28.0	3.02e+01	92	31	0	476577792	44	6423
2026-01-09 04:58:15.34	292.04	8.81	-35.0	-36.2	28.1	3.02e+01	83	31	0	478150656	44	6262
2026-01-09 04:58:16.34	292.23	8.81	-35.0	-36.3	28.2	3.02e+01	91	31	0	480247808	44	6337
2026-01-09 04:58:17.35	292.43	8.80	-34.9	-36.2	28.2	3.02e+01	91	31	0	482344960	44	6225
2026-01-09 04:58:18.36	292.63	8.80	-35.1	-36.4	28.0	3.02e+01	88	31	0	483917824	44	6380
2026-01-09 04:58:19.37	292.83	8.79	-35.0	-36.3	28.1	3.02e+01	91	31	0	486014976	44	6291
2026-01-09 04:58:20.38	293.02	8.78	-35.1	-36.4	28.0	3.02e+01	92	31	0	487587840	44	6401
2026-01-09 04:58:21.39	293.22	8.78	-35.1	-36.3	28.1	3.02e+01	90	31	0	489684992	44	6348
2026-01-09 04:58:22.40	293.42	8.77	-35.1	-36.4	28.0	3.02e+01	90	31	0	491782144	44	6375
2026-01-09 04:58:23.41	293.62	8.76	-35.0	-36.2	28.1	3.02e+01	92	31	0	493355008	44	6274
2026-01-09 04:58:24.42	293.81	8.75	-35.0	-36.3	28.1	3.02e+01	91	31	0	495452160	44	6305
2026-01-09 04:58:25.43	294.01	8.74	-34.9	-36.2	28.1	3.02e+01	91	31	0	497025024	44	6259
2026-01-09 04:58:26.43	294.21	8.74	-35.0	-36.3	28.1	3.02e+01	92	31	0	499122176	44	6296
2026-01-09 04:58:27.44	294.40	8.73	-35.1	-36.3	28.0	3.02e+01	59	31	0	501219328	44	6347
2026-01-09 04:58:28.45	294.60	8.72	-35.0	-36.2	28.1	3.02e+01	60	31	0	502792192	44	6266
2026-01-09 04:58:29.46	294.80	8.71	-35.0	-36.2	28.1	3.02e+01	59	31	0	504889344	44	6272
2026-01-09 04:58:30.47	294.99	8.70	-35.1	-36.3	28.1	3.02e+01	58	31	0	506462208	44	6350
2026-01-09 04:58:31.48	295.19	8.69	-35.3	-36.5	27.9	3.02e+01	58	32	0	508559360	44	6497
2026-01-09 04:58:32.49	295.38	8.68	-34.9	-36.2	28.2	3.02e+01	59	31	0	510656512	44	6241
2026-01-09 04:58:33.50	295.58	8.67	-35.0	-36.3	28.1	3.02e+01	60	31	0	512229376	44	6297
2026-01-09 04:58:34.51	295.78	8.66	-35.1	-36.3	28.1	3.02e+01	60	31	0	514326528	44	6332
2026-01-09 04:58:35.51	295.97	8.65	-35.0	-36.2	28.1	3.02e+01	52	31	0	516423680	44	6272
2026-01-09 04:58:36.52	296.17	8.64	-34.9	-36.2	28.0	3.02e+01	57	31	0	517996544	44	6222
2026-01-09 04:58:37.53	296.36	8.62	-35.0	-36.3	28.1	3.02e+01	52	31	0	520093696	44	6314
2026-01-09 04:58:38.54	296.56	8.61	-34.9	-36.2	28.2	3.02e+01	47	31	0	521666560	44	6226
2026-01-09 04:58:39.55	296.75	8.60	-35.0	-36.3	28.1	3.02e+01	59	31	0	523763712	44	6297
2026-01-09 04:58:40.56	296.95	8.59	-34.9	-36.2	28.2	3.02e+01	58	31	0	525860864	44	6250
2026-01-09 04:58:41.57	297.14	8.57	-34.9	-36.1	28.1	3.02e+01	57	31	0	527433728	44	6203
2026-01-09 04:58:42.58	297.34	8.56	-34.9	-36.2	28.2	3.02e+01	59	31	0	529530880	44	6225
2026-01-09 04:58:43.59	297.53	8.55	-35.1	-36.3	28.1	3.02e+01	58	32	0	531103744	44	6350
2026-01-09 04:58:44.60	297.72	8.54	-35.0	-36.3	28.0	3.02e+01	60	31	0	533200896	44	6309
2026-01-09 04:58:45.61	297.92	8.52	-35.1	-36.4	28.0	3.02e+01	60	31	0	535298048	44	6371
2026-01-09 04:58:46.62	298.11	8.51	-35.2	-36.5	27.9	3.02e+01	47	31	0	536870912	44	6481
2026-01-09 04:58:47.63	298.31	8.49	-35.2	-36.5	27.9	3.02e+01	59	31	0	538968064	44	6434
2026-01-09 04:58:48.64	298.50	8.48	-35.1	-36.4	28.1	3.02e+01	58	31	0	541065216	44	6365
2026-01-09 04:58:49.65	298.69	8.46	-35.1	-36.3	28.0	3.02e+01	61	31	0	542638080	44	6348
2026-01-09 04:58:50.66	298.88	8.45	-35.2	-36.5	27.9	3.02e+01	58	31	0	544735232	44	6429
2026-01-09 04:58:51.66	299.08	8.44	-35.1	-36.4	28.1	3.02e+01	58	31	0	546308096	44	6354
2026-01-09 04:58:52.67	299.27	8.42	-35.0	-36.3	28.1	3.02e+01	60	31	0	548405248	44	6292
2026-01-09 04:58:53.68	299.46	8.40	-35.0	-36.3	28.0	3.02e+01	57	31	0	549978112	44	6295
2026-01-09 04:58:54.69	299.65	8.39	-35.1	-36.3	28.1	3.02e+01	45	31	0	552075264	44	6348
2026-01-09 04:58:55.70	299.84	8.37	-35.1	-36.4	28.0	3.02e+01	60	31	0	554172416	44	6403
2026-01-09 04:58:56.71	300.04	8.36	-35.1	-36.4	28.0	3.02e+01	51	31	0	555745280	44	6370
2026-01-09 04:58:57.72	300.23	8.34	-35.1	-36.4	27.9	3.02e+01	59	31	0	557842432	44	6403
2026-01-09 04:58:58.73	300.42	8.32	-35.1	-36.3	28.0	3.02e+01	56	31	0	559415296	44	6342
2026-01-09 04:58:59.74	300.61	8.30	-35.1	-36.3	28.0	3.02e+01	55	31	0	561512448	44	6343
2026-01-09 04:59:00.74	300.80	8.29	-35.1	-36.4	28.0	3.02e+01	58	31	0	563609600	44	6400
2026-01-09 04:59:01.76	300.99	8.27	-35.4	-36.7	27.8	3.02e+01	60	31	0	565182464	44	6575
2026-01-09 04:59:02.77	301.18	8.25	-35.2	-36.4	28.0	3.02e+01	46	31	0	567279616	44	6407
2026-01-09 04:59:03.78	301.37	8.23	-35.1	-36.4	28.0	3.02e+01	62	32	0	569376768	44	6380
2026-01-09 04:59:04.79	301.56	8.22	-35.0	-36.3	27.9	3.02e+01	50	31	0	570949632	44	6332
2026-01-09 04:59:05.80	301.75	8.20	-35.2	-36.5	28.0	3.02e+01	60	31	0	573046784	44	6448
2026-01-09 04:59:06.81	301.94	8.18	-35.2	-36.5	28.0	3.02e+01	62	32	0	574619648	44	6427
2026-01-09 04:59:07.82	302.13	8.16	-35.1	-36.4	28.0	3.02e+01	57	31	0	576716800	44	6398
2026-01-09 04:59:08.83	302.32	8.14	-34.9	-36.2	28.1	3.02e+01	55	31	0	578813952	44	6234
2026-01-09 04:59:09.84	302.50	8.12	-35.1	-36.4	28.0	3.02e+01	63	32	0	580386816	44	6371
2026-01-09 04:59:10.85	302.69	8.10	-35.2	-36.4	27.9	3.02e+01	61	31	0	582483968	44	6417
2026-01-09 04:59:11.86	302.88	8.08	-35.1	-36.4	27.9	3.02e+01	59	31	0	584581120	44	6396
2026-01-09 04:59:12.87	303.07	8.06	-35.2	-36.5	28.0	3.02e+01	45	31	0	586153984	44	6445
2026-01-09 04:59:13.88	303.25	8.04	-35.0	-36.3	28.0	3.02e+01	59	31	0	588251136	44	6309
2026-01-09 04:59:14.89	303.44	8.02	-35.0	-36.3	27.9	3.02e+01	57	31	0	589824000	44	6318
2026-01-09 04:59:15.90	303.63	8.00	-35.1	-36.4	27.9	3.02e+01	45	31	0	591921152	44	6406
2026-01-09 04:59:16.91	303.81	7.98	-35.2	-36.6	27.9	3.02e+01	60	31	0	594018304	44	6500
2026-01-09 04:59:17.92	304.00	7.96	-35.2	-36.5	27.9	3.02e+01	56	31	0	595591168	44	6459
2026-01-09 04:59:18.93	304.19	7.93	-35.2	-36.4	28.0	3.02e+01	55	32	0	597688320	44	6411
2026-01-09 04:59:19.94	304.37	7.91	-35.1	-36.4	28.0	3.02e+01	57	31	0	599261184	44	6405
2026-01-09 04:59:20.94	304.56	7.89	-35.2	-36.5	27.9	3.02e+01	61	31	0	601358336	44	6493
2026-01-09 04:59:21.95	304.74	7.87	-35.2	-36.5	27.8	3.02e+01	57	31	0	603455488	44	6453
2026-01-09 04:59:22.96	304.93	7.85	-35.4	-36.7	27.7	3.02e+01	60	31	0	605028352	44	6586
2026-01-09 04:59:23.97	305.11	7.82	-35.5	-36.8	27.6	3.02e+01	48	31	0	607125504	44	6673
2026-01-09 04:59:24.98	305.29	7.80	-35.3	-36.6	27.7	3.02e+01	60	31	0	608698368	44	6505
2026-01-09 04:59:25.99	305.48	7.78	-35.2	-36.5	27.8	3.02e+01	60	31	0	610795520	44	6488
2026-01-09 04:59:27.00	305.66	7.75	-35.3	-36.6	27.8	3.02e+01	61	31	0	612892672	44	6551
2026-01-09 04:59:28.01	305.84	7.73	-35.4	-36.7	27.7	3.02e+01	58	31	0	614465536	44	6589
2026-01-09 04:59:29.02	306.03	7.71	-35.4	-36.7	27.7	3.02e+01	63	31	0	616562688	44	6604
2026-01-09 04:59:30.03	306.21	7.68	-35.3	-36.6	27.7	3.02e+01	60	31	0	618135552	44	6527
2026-01-09 04:59:31.04	306.39	7.66	-35.3	-36.6	27.7	3.02e+01	62	31	0	620232704	44	6546
2026-01-09 04:59:32.04	306.57	7.63	-35.3	-36.6	27.8	3.02e+01	46	31	0	622329856	44	6522
2026-01-09 04:59:33.05	306.75	7.61	-35.4	-36.7	27.7	3.02e+01	61	31	0	623902720	44	6584
2026-01-09 04:59:34.06	306.93	7.58	-35.3	-36.6	27.8	3.02e+01	61	31	0	625999872	44	6551
2026-01-09 04:59:35.07	307.11	7.56	-35.3	-36.6	27.8	3.02e+01	60	31	0	627572736	44	6542
2026-01-09 04:59:36.08	307.29	7.53	-35.2	-36.5	27.7	3.02e+01	59	31	0	629669888	44	6453
2026-01-09 04:59:37.09	307.47	7.51	-35.3	-36.6	27.7	3.02e+01	52	31	0	631767040	44	6516
2026-01-09 04:59:38.10	307.65	7.48	-35.3	-36.6	27.8	3.02e+01	54	31	0	633339904	44	6519
2026-01-09 04:59:39.11	307.83	7.46	-35.3	-36.6	27.7	3.02e+01	59	31	0	635437056	44	6571
2026-01-09 04:59:40.12	308.01	7.43	-35.3	-36.6	27.6	3.02e+01	50	31	0	637534208	44	6542
2026-01-09 04:59:41.13	308.19	7.41	-35.2	-36.5	27.7	3.02e+01	62	31	0	639107072	44	6494
2026-01-09 04:59:42.13	308.37	7.38	-35.3	-36.6	27.7	3.02e+01	58	31	0	641204224	44	6533
2026-01-09 04:59:43.14	308.55	7.35	-35.3	-36.6	27.7	3.02e+01	59	31	0	642777088	44	6520
2026-01-09 04:59:44.15	308.72	7.33	-35.3	-36.6	27.7	3.02e+01	60	31	0	644874240	44	6544
2026-01-09 04:59:45.15	308.90	7.30	-35.3	-36.6	27.7	3.02e+01	50	31	0	646971392	44	6552
2026-01-09 04:59:46.16	309.08	7.27	-35.3	-36.6	27.7	3.02e+01	61	31	0	648544256	44	6537
2026-01-09 04:59:47.17	309.25	7.24	-35.2	-36.5	27.8	3.02e+01	57	31	0	650641408	44	6497
2026-01-09 04:59:48.18	309.43	7.22	-35.3	-36.6	27.7	3.02e+01	47	32	0	652214272	44	6572
2026-01-09 04:59:49.19	309.61	7.19	-35.2	-36.5	27.8	3.02e+01	56	31	0	654311424	44	6450
2026-01-09 04:59:50.20	309.78	7.16	-35.3	-36.6	27.6	3.02e+01	47	31	0	656408576	44	6572
2026-01-09 04:59:51.21	309.96	7.13	-35.4	-36.7	27.7	3.02e+01	58	31	0	657981440	44	6629
2026-01-09 04:59:52.22	310.13	7.11	-35.4	-36.8	27.5	3.02e+01	59	31	0	660078592	44	6670
2026-01-09 04:59:53.22	310.30	7.08	-35.5	-36.9	27.5	3.02e+01	44	31	0	661651456	44	6740
2026-01-09 04:59:54.23	310.48	7.05	-35.4	-36.7	27.6	3.02e+01	61	31	0	663748608	44	6642
2026-01-09 04:59:55.24	310.65	7.02	-35.5	-36.8	27.5	3.02e+01	60	31	0	665845760	44	6689
2026-01-09 04:59:56.25	310.83	6.99	-35.5	-36.8	27.5	3.02e+01	58	31	0	667418624	44	6694
2026-01-09 04:59:57.26	311.00	6.96	-35.5	-36.9	27.5	3.02e+01	52	31	0	669515776	44	6734
2026-01-09 04:59:58.27	311.17	6.93	-35.5	-36.8	27.5	3.02e+01	57	31	0	671088640	44	6670
2026-01-09 04:59:59.28	311.34	6.90	-35.4	-36.8	27.5	3.02e+01	58	31	0	673185792	44	6657
2026-01-09 05:00:00.29	311.52	6.87	-35.6	-36.9	27.5	3.02e+01	64	31	0	675282944	44	6751
2026-01-09 05:00:01.30	311.69	6.84	-35.6	-36.9	27.4	3.02e+01	55	32	0	676855808	44	6769
2026-01-09 05:00:02.31	311.86	6.81	-35.6	-36.9	27.4	3.02e+01	57	32	0	678952960	44	6797
2026-01-09 05:00:03.32	312.03	6.78	-35.7	-37.0	27.3	3.02e+01	56	32	0	681050112	44	6881
2026-01-09 05:00:04.33	312.20	6.75	-35.7	-37.1	27.3	3.02e+01	62	31	0	682622976	44	6891
2026-01-09 05:00:05.34	312.37	6.72	-35.8	-37.1	27.1	3.02e+01	62	31	0	684720128	44	6957
2026-01-09 05:00:06.35	312.54	6.69	-35.7	-37.0	27.3	3.02e+01	58	31	0	686292992	44	6859
2026-01-09 05:00:07.36	312.71	6.66	-36.0	-37.4	27.1	3.02e+01	60	31	0	688390144	46	6357
2026-01-09 05:00:08.37	312.88	6.63	-35.9	-37.3	27.1	3.02e+01	59	31	0	690487296	46	6280
2026-01-09 05:00:09.37	313.05	6.60	-35.9	-37.3	27.1	3.02e+01	44	31	0	692060160	46	6305
2026-01-09 05:00:10.38	313.21	6.57	-35.9	-37.2	27.2	3.02e+01	59	31	0	694157312	46	6271
2026-01-09 05:00:11.40	313.38	6.54	-35.9	-37.2	27.3	3.02e+01	60	32	0	695730176	46	6268
2026-01-09 05:00:12.40	313.55	6.51	-35.6	-36.9	27.3	3.02e+01	59	31	0	697827328	46	6040
2026-01-09 05:00:13.41	313.72	6.47	-35.4	-36.7	27.5	3.02e+01	59	31	0	699924480	46	5923
2026-01-09 05:00:14.42	313.88	6.44	-35.5	-36.8	27.6	3.02e+01	45	31	0	701497344	46	5956
2026-01-09 05:00:15.43	314.05	6.41	-35.6	-36.9	27.4	3.02e+01	60	31	0	703594496	46	6009
2026-01-09 05:00:16.44	314.21	6.38	-35.5	-36.9	27.4	3.02e+01	58	31	0	705691648	46	6000
2026-01-09 05:00:17.45	314.38	6.35	-35.7	-37.0	27.3	3.02e+01	43	31	0	707264512	46	6100
2026-01-09 05:00:18.46	314.55	6.31	-35.7	-37.0	27.3	3.02e+01	60	31	0	709361664	46	6133
2026-01-09 05:00:19.47	314.71	6.28	-35.7	-37.1	27.3	3.02e+01	58	31	0	710934528	46	6144
2026-01-09 05:00:20.47	314.87	6.25	-35.8	-37.2	27.2	3.02e+01	60	31	0	713031680	46	6213
2026-01-09 05:00:21.48	315.04	6.22	-35.8	-37.1	27.2	3.02e+01	59	31	0	714604544	46	6162
2026-01-09 05:00:22.49	315.20	6.18	-35.7	-37.0	27.2	3.02e+01	46	31	0	716701696	46	6079
2026-01-09 05:00:23.50	315.36	6.15	-35.8	-37.1	27.1	3.02e+01	62	31	0	718798848	46	6177
2026-01-09 05:00:24.51	315.53	6.12	-35.8	-37.2	27.1	3.02e+01	61	31	0	720371712	46	6217
2026-01-09 05:00:25.52	315.69	6.08	-35.8	-37.2	27.1	3.02e+01	57	31	0	722468864	46	6209
2026-01-09 05:00:26.53	315.85	6.05	-35.7	-37.1	27.1	3.02e+01	60	31	0	724041728	46	6157
2026-01-09 05:00:27.54	316.01	6.02	-35.8	-37.1	27.1	3.02e+01	45	31	0	726138880	46	6201
2026-01-09 05:00:28.55	316.17	5.98	-35.8	-37.2	27.1	3.02e+01	59	32	0	728236032	46	6214
2026-01-09 05:00:29.56	316.33	5.95	-35.8	-37.1	27.1	3.02e+01	61	31	0	729808896	46	6184
2026-01-09 05:00:30.57	316.49	5.92	-35.7	-37.0	27.2	3.02e+01	47	31	0	731906048	46	6122
2026-01-09 05:00:31.58	316.65	5.88	-35.7	-37.0	27.2	3.02e+01	59	31	0	734003200	46	6110
2026-01-09 05:00:32.59	316.81	5.85	-35.8	-37.1	27.2	3.02e+01	62	31	0	735576064	46	6172
2026-01-09 05:00:33.60	316.97	5.81	-35.7	-37.1	27.1	3.02e+01	60	31	0	737673216	46	6167
2026-01-09 05:00:34.61	317.13	5.78	-35.8	-37.1	27.1	3.02e+01	58	31	0	739246080	46	6169
2026-01-09 05:00:35.62	317.29	5.74	-35.9	-37.2	27.0	3.02e+01	50	31	0	741343232	46	6257
2026-01-09 05:00:36.63	317.45	5.71	-36.0	-37.3	26.9	3.02e+01	58	32	0	743440384	46	6339
2026-01-09 05:00:37.64	317.61	5.67	-36.0	-37.4	26.9	3.02e+01	58	31	0	745013248	46	6375
2026-01-09 05:00:38.65	317.76	5.64	-36.0	-37.4	26.9	3.02e+01	40	31	0	747110400	46	6390
2026-01-09 05:00:39.66	317.92	5.60	-36.0	-37.4	26.9	3.02e+01	58	31	0	749207552	46	6358
2026-01-09 05:00:40.66	318.08	5.57	-36.0	-37.3	26.9	3.02e+01	54	31	0	750780416	46	6340
2026-01-09 05:00:41.68	318.23	5.53	-36.0	-37.3	26.9	3.02e+01	52	31	0	752877568	46	6328
2026-01-09 05:00:42.68	318.39	5.50	-35.9	-37.3	26.9	3.02e+01	58	31	0	754450432	46	6294
2026-01-09 05:00:43.69	318.54	5.46	-35.9	-37.2	27.0	3.02e+01	44	31	0	756547584	46	6236
2026-01-09 05:00:44.70	318.70	5.43	-35.9	-37.2	27.0	3.02e+01	59	31	0	758644736	46	6267
2026-01-09 05:00:45.71	318.85	5.39	-36.0	-37.4	26.9	3.02e+01	61	31	0	760217600	46	6356
2026-01-09 05:00:46.72	319.01	5.36	-35.7	-37.0	27.2	3.02e+01	45	31	0	762314752	46	6106
2026-01-09 05:00:47.73	319.16	5.32	-35.7	-37.0	27.2	3.02e+01	62	31	0	763887616	46	6125
2026-01-09 05:00:48.74	319.31	5.28	-35.8	-37.1	27.0	3.02e+01	57	31	0	765984768	46	6166
2026-01-09 05:00:49.74	319.46	5.25	-35.9	-37.3	26.9	3.02e+01	58	31	0	768081920	46	6316
2026-01-09 05:00:50.76	319.62	5.21	-36.0	-37.3	26.9	3.02e+01	63	31	0	769654784	46	6327
2026-01-09 05:00:51.76	319.77	5.18	-36.1	-37.5	26.8	3.02e+01	44	31	0	771751936	46	6455
2026-01-09 05:00:52.77	319.92	5.14	-36.1	-37.5	26.6	3.02e+01	58	31	0	773324800	46	6495
2026-01-09 05:00:53.78	320.07	5.10	-36.3	-37.7	26.4	3.02e+01	61	31	0	775421952	46	6645
2026-01-09 05:00:54.79	320.22	5.07	-36.4	-37.8	26.4	3.02e+01	46	31	0	777519104	46	6674
2026-01-09 05:00:55.80	320.37	5.03	-36.3	-37.7	26.5	3.02e+01	61	31	0	779091968	46	6628
2026-01-09 05:00:56.81	320.52	4.99	-36.2	-37.6	26.5	3.02e+01	63	32	0	781189120	46	6573
2026-01-09 05:00:57.82	320.67	4.95	-36.2	-37.6	26.5	3.02e+01	59	31	0	782761984	46	6541
2026-01-09 05:00:58.83	320.82	4.92	-36.1	-37.5	26.6	3.02e+01	60	31	0	784859136	46	6436
2026-01-09 05:00:59.84	320.97	4.88	-36.0	-37.4	26.7	3.02e+01	45	31	0	786956288	46	6379
2026-01-09 05:01:00.85	321.12	4.84	-36.1	-37.5	26.7	3.02e+01	53	31	0	788529152	46	6427
2026-01-09 05:01:01.86	321.27	4.81	-36.1	-37.5	26.7	3.02e+01	58	31	0	790626304	46	6428
2026-01-09 05:01:02.87	321.41	4.77	-36.2	-37.5	26.6	3.02e+01	58	31	0	792199168	46	6483
2026-01-09 05:01:03.88	321.56	4.73	-36.2	-37.5	26.6	3.02e+01	56	31	0	794296320	46	6498
2026-01-09 05:01:04.89	321.71	4.69	-36.3	-37.7	26.5	3.02e+01	49	31	0	796393472	46	6626
2026-01-09 05:01:05.90	321.85	4.66	-36.4	-37.8	26.4	3.02e+01	60	31	0	797966336	46	6666
2026-01-09 05:01:06.90	322.00	4.62	-36.4	-37.8	26.3	3.02e+01	60	31	0	800063488	46	6674
2026-01-09 05:01:07.91	322.15	4.58	-36.4	-37.8	26.3	3.02e+01	44	31	0	802160640	46	6683
2026-01-09 05:01:08.92	322.29	4.54	-36.4	-37.8	26.3	3.02e+01	59	31	0	803733504	46	6664
2026-01-09 05:01:09.93	322.44	4.50	-36.3	-37.7	26.4	3.02e+01	58	31	0	805830656	46	6619
2026-01-09 05:01:10.94	322.58	4.47	-36.3	-37.7	26.3	3.02e+01	59	31	0	807403520	46	6644
2026-01-09 05:01:11.95	322.72	4.43	-36.5	-37.9	26.2	3.02e+01	61	31	0	809500672	46	6777
2026-01-09 05:01:12.96	322.87	4.39	-36.4	-37.8	26.2	3.02e+01	52	31	0	811597824	46	6712
2026-01-09 05:01:13.96	323.01	4.35	-36.5	-38.0	26.1	3.02e+01	59	31	0	813170688	46	6832
2026-01-09 05:01:14.97	323.15	4.31	-36.6	-38.1	26.1	3.02e+01	60	31	0	815267840	46	6900
2026-01-09 05:01:15.98	323.29	4.28	-36.5	-38.0	26.1	3.02e+01	50	31	0	816840704	46	6812
2026-01-09 05:01:16.99	323.44	4.24	-36.6	-38.0	26.0	3.02e+01	58	31	0	818937856	46	6882
2026-01-09 05:01:18.00	323.58	4.20	-36.6	-38.0	26.1	3.02e+01	59	31	0	821035008	46	6858
2026-01-09 05:01:19.01	323.72	4.16	-36.7	-38.2	25.9	3.02e+01	59	31	0	822607872	46	7026
2026-01-09 05:01:20.02	323.86	4.12	-36.5	-37.9	26.1	3.02e+01	60	31	0	824705024	46	6757
2026-01-09 05:01:21.03	324.00	4.08	-36.3	-37.8	26.2	3.02e+01	52	31	0	826277888	46	6650
2026-01-09 05:01:22.04	324.14	4.04	-36.4	-37.9	26.1	3.02e+01	58	31	0	828375040	46	6737
2026-01-09 05:01:23.04	324.28	4.00	-36.4	-37.9	26.1	3.02e+01	61	31	0	830472192	46	6738
2026-01-09 05:01:24.05	324.42	3.97	-36.5	-37.9	26.1	3.02e+01	44	31	0	832045056	46	6790
2026-01-09 05:01:25.06	324.56	3.93	-36.5	-38.0	26.1	3.02e+01	59	31	0	834142208	46	6827
2026-01-09 05:01:26.07	324.70	3.89	-36.5	-38.0	26.1	3.02e+01	57	31	0	835715072	46	6819
2026-01-09 05:01:27.08	324.83	3.85	-36.6	-38.0	26.0	3.02e+01	60	31	0	837812224	46	6863
2026-01-09 05:01:28.09	324.97	3.81	-36.6	-38.0	26.0	3.02e+01	58	31	0	839909376	46	6853
2026-01-09 05:01:29.10	325.11	3.77	-36.6	-38.1	25.8	3.02e+01	49	31	0	841482240	46	6923
2026-01-09 05:01:30.11	325.25	3.73	-36.8	-38.3	25.4	3.02e+01	60	31	0	843579392	46	7098
2026-01-09 05:01:31.12	325.38	3.69	-36.8	-38.2	25.7	3.02e+01	60	31	0	845676544	48	6251
2026-01-09 05:01:32.13	325.52	3.65	-37.0	-38.5	25.5	3.02e+01	44	31	0	847249408	48	6455
2026-01-09 05:01:33.14	325.65	3.61	-36.6	-38.1	25.8	3.02e+01	60	31	0	849346560	48	6156
2026-01-09 05:01:34.15	325.79	3.57	-36.6	-38.1	25.9	3.02e+01	45	31	0	850919424	48	6150
2026-01-09 05:01:35.16	325.93	3.53	-36.7	-38.2	25.7	3.02e+01	60	31	0	853016576	48	6231
2026-01-09 05:01:36.17	326.06	3.49	-36.5	-37.9	25.9	3.02e+01	59	31	0	855113728	48	6039
2026-01-09 05:01:37.18	326.19	3.45	-36.5	-37.9	25.9	3.02e+01	50	31	0	856686592	48	6025
2026-01-09 05:01:38.19	326.33	3.41	-36.7	-38.2	25.6	3.02e+01	59	31	0	858783744	48	6254
2026-01-09 05:01:39.20	326.46	3.37	-36.7	-38.2	25.5	3.02e+01	63	32	0	860356608	48	6226
2026-01-09 05:01:40.21	326.59	3.33	-36.7	-38.2	25.6	3.02e+01	55	31	0	862453760	48	6233
2026-01-09 05:01:41.22	326.73	3.29	-36.6	-38.1	25.8	3.02e+01	55	31	0	864550912	48	6140
2026-01-09 05:01:42.23	326.86	3.25	-36.7	-38.1	25.6	3.02e+01	46	31	0	866123776	48	6191
2026-01-09 05:01:43.24	326.99	3.21	-36.8	-38.3	25.5	3.02e+01	59	31	0	868220928	48	6300
2026-01-09 05:01:44.25	327.12	3.17	-36.7	-38.2	25.6	3.02e+01	59	31	0	870318080	48	6206
2026-01-09 05:01:45.26	327.25	3.13	-36.7	-38.2	25.6	3.02e+01	46	31	0	871890944	48	6244
2026-01-09 05:01:46.27	327.39	3.09	-36.7	-38.2	25.5	3.02e+01	61	31	0	873988096	48	6253
2026-01-09 05:01:47.28	327.52	3.05	-36.8	-38.3	25.4	3.02e+01	60	31	0	875560960	48	6328
2026-01-09 05:01:48.29	327.65	3.01	-37.2	-38.7	24.8	3.02e+01	59	31	0	877658112	48	6629
2026-01-09 05:01:49.30	327.78	2.97	-47.3	-65.1	3.5	3.02e+01	0	32	104	878182400	60	69153
2026-01-09 05:01:50.31	327.90	2.93	-47.7	-65.6	3.5	3.02e+01	0	32	104	878182400	60	72963
2026-01-09 05:01:51.32	328.03	2.89	-47.9	-65.8	3.5	3.02e+01	0	32	104	878182400	60	74896
2026-01-09 05:01:52.33	328.16	2.85	-48.1	-65.9	3.5	3.02e+01	0	32	104	878182400	60	76295
2026-01-09 05:01:53.34	328.29	2.81	-48.2	-66.1	3.5	3.02e+01	0	32	104	878182400	60	77336
2026-01-09 05:01:54.35	328.42	2.77	-48.3	-66.1	3.6	3.02e+01	0	32	104	878182400	60	78090
2026-01-09 05:01:55.36	328.55	2.73	-48.3	-66.2	3.5	3.02e+01	0	32	104	878182400	60	78226
2026-01-09 05:01:56.37	328.67	2.69	-48.3	-66.2	3.5	3.02e+01	0	32	104	878182400	60	78316
2026-01-09 05:01:57.38	328.80	2.65	-48.2	-66.2	3.5	3.02e+01	0	32	104	878182400	60	78531
2026-01-09 05:01:58.39	328.93	2.61	-48.2	-66.1	3.5	3.02e+01	0	31	104	878182400	60	77748
2026-01-09 05:01:59.40	329.05	2.57	-48.1	-66.1	3.5	3.02e+01	0	32	104	878182400	60	78023
2026-01-09 05:02:00.41	329.18	2.52	-48.3	-66.2	3.5	3.02e+01	0	32	104	878182400	60	78897
2026-01-09 05:02:01.42	329.30	2.48	-48.2	-66.1	3.5	3.02e+01	0	32	104	878182400	60	77732
2026-01-09 05:02:02.43	329.43	2.44	-48.2	-66.1	3.5	3.02e+01	0	32	104	878182400	60	77402
2026-01-09 05:02:03.44	329.55	2.40	-48.1	-66.0	3.5	3.02e+01	0	32	104	878182400	60	77074
2026-01-09 05:02:04.45	329.68	2.36	-48.2	-66.1	3.5	3.02e+01	0	32	104	878182400	60	77536
2026-01-09 05:02:05.46	329.80	2.32	-48.3	-66.1	3.5	3.02e+01	0	32	104	878182400	60	77947
2026-01-09 05:02:06.47	329.92	2.28	-48.3	-66.1	3.5	3.02e+01	0	32	104	878182400	60	77992
2026-01-09 05:02:07.48	330.05	2.24	-48.2	-66.1	3.5	3.02e+01	0	32	104	878182400	60	77814
2026-01-09 05:02:08.49	330.17	2.20	-48.3	-66.1	3.5	3.02e+01	0	32	104	878182400	60	77586
2026-01-09 05:02:09.50	330.29	2.16	-48.2	-66.1	3.5	3.02e+01	0	32	104	878182400	60	77694
2026-01-09 05:02:10.51	330.41	2.11	-48.2	-66.1	3.5	3.02e+01	0	32	104	878182400	60	77314
2026-01-09 05:02:11.52	330.54	2.07	-48.2	-66.0	3.5	3.02e+01	0	32	104	878182400	60	77028
2026-01-09 05:02:12.53	330.66	2.03	-48.2	-66.1	3.5	3.02e+01	0	32	104	878182400	60	77454
2026-01-09 05:02:13.54	330.78	1.99	-48.2	-66.1	3.5	3.02e+01	0	32	104	878182400	60	77536
2026-01-09 05:02:14.55	330.90	1.95	-48.2	-66.1	3.5	3.02e+01	0	32	104	878182400	60	77320
2026-01-09 05:02:15.56	331.02	1.91	-48.2	-66.0	3.5	3.02e+01	0	32	104	878182400	60	77027
2026-01-09 05:02:16.57	331.14	1.87	-48.2	-66.1	3.5	3.02e+01	0	32	104	878182400	60	77241
2026-01-09 05:02:17.58	331.26	1.83	-48.3	-66.1	3.5	3.02e+01	0	32	104	878182400	60	77993
2026-01-09 05:02:18.59	331.38	1.78	-48.2	-66.1	3.5	3.02e+01	0	32	104	878182400	60	77418
2026-01-09 05:02:19.60	331.50	1.74	-48.2	-66.0	3.5	3.02e+01	0	32	104	878182400	60	77081
2026-01-09 05:02:20.61	331.61	1.70	-48.2	-66.0	3.5	3.02e+01	0	32	104	878182400	60	77198
2026-01-09 05:02:21.62	331.73	1.66	-48.2	-66.0	3.5	3.02e+01	0	32	104	878182400	60	77079
2026-01-09 05:02:22.63	331.85	1.62	-48.2	-66.0	3.5	3.02e+01	0	32	104	878182400	60	77214
2026-01-09 05:02:23.64	331.97	1.58	-48.2	-66.1	3.5	3.02e+01	0	32	104	878182400	60	77238
2026-01-09 05:02:24.65	332.08	1.54	-48.2	-66.1	3.5	3.02e+01	0	32	104	878182400	60	77577
2026-01-09 05:02:25.66	332.20	1.49	-48.2	-66.1	3.5	3.02e+01	0	31	104	878182400	60	77264
2026-01-09 05:02:26.67	332.32	1.45	-48.2	-66.0	3.5	3.02e+01	0	31	104	878182400	60	76805
2026-01-09 05:02:27.68	332.43	1.41	-48.2	-66.0	3.5	3.02e+01	0	32	104	878182400	60	76641
2026-01-09 05:02:28.69	332.55	1.37	-48.2	-66.0	3.5	3.02e+01	0	32	104	878182400	60	76710
2026-01-09 05:02:29.70	332.67	1.33	-48.2	-66.0	3.5	3.02e+01	0	32	104	878182400	60	76957
2026-01-09 05:02:30.71	332.78	1.29	-48.2	-66.0	3.5	3.02e+01	0	32	104	878182400	60	76978
2026-01-09 05:02:31.72	332.89	1.24	-48.2	-66.0	3.5	3.02e+01	0	32	104	878182400	60	76606
2026-01-09 05:02:32.73	333.01	1.20	-48.2	-66.0	3.5	3.02e+01	0	31	104	878182400	60	76752
2026-01-09 05:02:33.74	333.12	1.16	-48.2	-66.0	3.5	3.02e+01	0	31	104	878182400	60	77031
2026-01-09 05:02:34.75	333.24	1.12	-48.2	-66.1	3.5	3.02e+01	0	32	104	878182400	60	77271
2026-01-09 05:02:35.76	333.35	1.08	-48.2	-66.0	3.5	3.02e+01	0	32	104	878182400	60	76825
2026-01-09 05:02:36.77	333.46	1.04	-48.2	-66.1	3.5	3.02e+01	0	31	104	878182400	60	77412
2026-01-09 05:02:37.78	333.58	0.99	-48.2	-66.0	3.5	3.02e+01	0	32	104	878182400	60	77196
2026-01-09 05:02:38.79	333.69	0.95	-48.1	-65.9	3.5	3.02e+01	0	32	104	878182400	60	76080
2026-01-09 05:02:39.80	333.80	0.91	-48.2	-66.0	3.5	3.02e+01	0	32	104	878182400	60	76698
2026-01-09 05:02:40.81	333.91	0.87	-48.3	-66.1	3.5	3.02e+01	0	32	104	878182400	60	77742
2026-01-09 05:02:41.82	334.02	0.83	-48.2	-66.0	3.5	3.02e+01	0	32	104	878182400	60	77102
2026-01-09 05:02:42.83	334.13	0.78	-48.2	-66.0	3.5	3.02e+01	0	32	104	878182400	60	77196
2026-01-09 05:02:43.84	334.25	0.74	-48.1	-66.0	3.5	3.02e+01	0	32	104	878182400	60	76789
2026-01-09 05:02:44.85	334.36	0.70	-48.2	-66.0	3.5	3.02e+01	0	32	104	878182400	60	76697
2026-01-09 05:02:45.86	334.47	0.66	-48.2	-66.0	3.5	3.02e+01	0	32	104	878182400	60	76769
2026-01-09 05:02:46.86	334.57	0.62	-48.2	-66.0	3.5	3.02e+01	0	32	104	878182400	60	77026
2026-01-09 05:02:47.87	334.68	0.58	-48.1	-66.0	3.5	3.02e+01	0	32	104	878182400	60	77213
2026-01-09 05:02:48.88	334.79	0.53	-48.1	-66.0	3.5	3.02e+01	0	32	104	878182400	60	76711
2026-01-09 05:02:49.89	334.90	0.49	-48.1	-66.0	3.5	3.02e+01	0	32	104	878182400	60	76723
2026-01-09 05:02:50.90	335.01	0.45	-48.2	-66.0	3.5	3.02e+01	0	32	104	878182400	60	76676
2026-01-09 05:02:51.91	335.12	0.41	-48.2	-66.0	3.5	3.02e+01	0	32	104	878182400	60	77108
2026-01-09 05:02:52.92	335.23	0.37	-48.2	-66.1	3.5	3.02e+01	0	32	104	878182400	60	77251
2026-01-09 05:02:53.93	335.33	0.32	-48.2	-66.1	3.5	3.02e+01	0	32	104	878182400	60	77293
2026-01-09 05:02:54.94	335.44	0.28	-48.2	-66.1	3.5	3.02e+01	0	32	104	878182400	60	77468
2026-01-09 05:02:55.95	335.55	0.24	-48.2	-66.0	3.5	3.02e+01	0	32	104	878182400	60	76961
2026-01-09 05:02:56.96	335.65	0.20	-48.1	-66.0	3.5	3.02e+01	0	32	104	878182400	60	76805
2026-01-09 05:02:57.97	335.76	0.16	-48.2	-66.0	3.5	3.02e+01	0	32	104	878182400	60	76902
2026-01-09 05:02:58.98	335.87	0.11	-48.2	-66.0	3.5	3.02e+01	0	32	104	878182400	60	77140
2026-01-09 05:02:59.99	335.97	0.07	-48.1	-66.0	3.5	3.02e+01	0	32	104	878182400	60	76773
2026-01-09 05:03:01.00	336.08	0.03	-48.1	-66.0	3.5	3.02e+01	0	32	104	878182400	60	76802

#Closed at: 2026-01-09 05:03:02
#Recorded file [878 MB]: D:/lorett/data/35029_260109_165252.dat