passes_logs/2026/01/09/R4.6S_Anadyr/R4.6S_Anadyr__20260109_231219_SUOMI_NPP_rec.log

#Pass ID: 20260109_231219_SUOMI NPP
#Satellite: SUOMI NPP
#Configuration: NPP
#almurnet v.1.7.20251203
#Start time: 2026-01-09 23:12:23

#Version: 2.2.20231116
#Station: R4.6S_Anadyr
#Location: 177.4865 lon 64.73178 lat
#TLE: 1 37849U 11061A   26008.05542337  .00000108  00000+0  71976-4 0  9997
#TLE: 2 37849  98.7805 310.1641 0002540  75.6410 284.5048 14.19523335735721

#Time	Az	El	Level	Level2	SNR	BER	BlckErr	Temp	State	Recorded	gain1	gain2
2026-01-09 23:12:23.10	129.64	0.20	-48.0	-61.8	3.3	1.54e+00	0	24	0	0	60	44450
2026-01-09 23:12:24.10	129.61	0.26	-48.1	-63.3	3.6	1.51e+00	0	24	104	0	60	52894
2026-01-09 23:12:25.11	129.58	0.32	-48.0	-63.3	3.6	1.51e+00	0	24	104	0	60	52613
2026-01-09 23:12:26.12	129.56	0.38	-48.1	-63.3	3.6	1.51e+00	0	24	104	0	60	52555
2026-01-09 23:12:27.13	129.53	0.44	-48.1	-63.2	3.6	1.51e+00	0	24	104	0	60	52365
2026-01-09 23:12:28.14	129.50	0.50	-48.0	-63.2	3.6	1.51e+00	0	24	104	0	60	52184
2026-01-09 23:12:29.15	129.47	0.56	-48.0	-63.1	3.6	1.51e+00	0	24	104	0	60	51825
2026-01-09 23:12:30.16	129.45	0.62	-47.9	-63.1	3.6	1.51e+00	0	24	104	0	60	51603
2026-01-09 23:12:31.17	129.42	0.68	-47.8	-63.0	3.6	1.51e+00	0	25	104	0	60	51318
2026-01-09 23:12:32.18	129.39	0.74	-47.7	-62.9	3.6	1.51e+00	0	25	104	0	60	50680
2026-01-09 23:12:33.19	129.37	0.81	-47.0	-62.9	3.6	1.51e+00	0	24	104	0	60	50256
2026-01-09 23:12:34.20	129.34	0.87	-47.5	-62.7	3.6	1.51e+00	0	25	104	0	60	49414
2026-01-09 23:12:35.21	129.31	0.93	-47.2	-62.5	3.6	1.51e+00	0	24	104	0	60	48369
2026-01-09 23:12:36.22	129.28	0.99	-46.5	-62.2	3.6	1.51e+00	0	24	104	0	60	46818
2026-01-09 23:12:37.23	129.25	1.05	-46.2	-61.6	3.6	1.51e+00	0	25	104	0	60	43258
2026-01-09 23:12:38.24	129.23	1.11	-46.2	-61.5	3.6	1.51e+00	0	25	104	0	60	43032
2026-01-09 23:12:39.25	129.20	1.17	-46.2	-61.5	3.6	1.51e+00	0	25	104	0	60	43074
2026-01-09 23:12:40.26	129.17	1.24	-46.2	-61.5	3.6	1.51e+00	0	25	104	0	60	42965
2026-01-09 23:12:41.26	129.14	1.30	-46.2	-61.5	3.6	1.51e+00	0	25	104	0	60	42884
2026-01-09 23:12:42.27	129.11	1.36	-46.1	-61.5	3.6	1.51e+00	0	25	104	0	60	42845
2026-01-09 23:12:43.28	129.08	1.42	-46.1	-61.5	3.6	1.51e+00	0	25	104	0	60	42782
2026-01-09 23:12:44.29	129.05	1.48	-46.1	-61.4	3.6	1.51e+00	0	25	104	0	60	42626
2026-01-09 23:12:45.30	129.02	1.54	-46.1	-61.5	3.6	1.51e+00	0	25	104	0	60	42877
2026-01-09 23:12:46.31	129.00	1.61	-46.1	-61.5	3.6	1.51e+00	0	25	104	0	60	42731
2026-01-09 23:12:47.32	128.97	1.67	-46.1	-61.5	3.6	1.51e+00	0	25	104	0	60	43015
2026-01-09 23:12:48.33	128.94	1.73	-46.1	-61.5	3.6	1.51e+00	0	25	104	0	60	42874
2026-01-09 23:12:49.34	128.91	1.80	-46.1	-61.4	3.6	1.51e+00	0	25	104	0	60	42289
2026-01-09 23:12:50.35	128.88	1.86	-46.1	-61.4	3.6	1.51e+00	0	25	104	0	60	42303
2026-01-09 23:12:51.35	128.85	1.92	-46.1	-61.3	3.6	1.51e+00	0	25	104	0	60	41991
2026-01-09 23:12:52.36	128.82	1.98	-46.1	-61.2	3.6	1.51e+00	0	25	104	0	60	41659
2026-01-09 23:12:53.37	128.79	2.05	-46.1	-61.2	3.6	1.51e+00	0	25	104	0	60	41633
2026-01-09 23:12:54.38	128.76	2.11	-46.1	-61.3	3.6	1.51e+00	0	25	104	0	60	42111
2026-01-09 23:12:55.39	128.73	2.17	-46.1	-61.4	3.6	1.51e+00	0	25	104	0	60	42331
2026-01-09 23:12:56.41	128.70	2.24	-46.1	-61.5	3.6	1.51e+00	0	25	104	0	60	42719
2026-01-09 23:12:57.42	128.66	2.30	-46.1	-61.5	3.6	1.51e+00	0	25	104	0	60	42950
2026-01-09 23:12:58.43	128.63	2.37	-46.1	-61.5	3.6	1.51e+00	0	25	104	0	60	42927
2026-01-09 23:12:59.44	128.60	2.43	-46.1	-61.5	3.6	1.51e+00	0	25	104	0	60	42715
2026-01-09 23:13:00.44	128.57	2.49	-46.1	-61.4	3.6	1.51e+00	0	25	104	0	60	42608
2026-01-09 23:13:01.46	128.54	2.56	-46.1	-61.3	3.6	1.51e+00	0	25	104	0	60	41908
2026-01-09 23:13:02.47	128.51	2.62	-46.1	-61.2	3.6	1.51e+00	0	25	104	0	60	41314
2026-01-09 23:13:03.48	128.48	2.69	-46.1	-61.0	3.6	1.51e+00	0	25	104	0	60	40379
2026-01-09 23:13:04.48	128.44	2.75	-46.1	-60.8	3.6	1.51e+00	0	25	104	0	60	39860
2026-01-09 23:13:05.49	128.41	2.82	-46.1	-60.8	3.6	1.51e+00	0	25	104	0	60	39519
2026-01-09 23:13:06.50	128.38	2.88	-46.1	-61.0	3.5	1.51e+00	0	25	104	0	60	40746
2026-01-09 23:13:07.51	128.35	2.95	-46.1	-61.5	3.6	1.51e+00	0	25	104	0	60	42796
2026-01-09 23:13:08.52	128.32	3.01	-46.1	-61.2	3.6	1.51e+00	0	25	104	0	60	41633
2026-01-09 23:13:09.53	128.28	3.08	-46.0	-59.2	3.8	1.51e+00	0	25	104	0	60	33140
2026-01-09 23:13:10.54	128.25	3.15	-45.8	-55.1	4.8	1.31e+00	0	25	0	0	60	20477
2026-01-09 23:13:11.55	128.22	3.21	-45.4	-52.8	6.7	3.99e-01	92	25	0	2097152	60	15805
2026-01-09 23:13:12.56	128.18	3.28	-44.8	-50.3	9.7	2.64e-02	92	25	0	4194304	60	11787
2026-01-09 23:13:13.57	128.15	3.34	-43.9	-48.1	12.4	9.25e-04	0	25	0	6291456	60	9147
2026-01-09 23:13:14.58	128.12	3.41	-43.2	-46.5	13.9	2.21e-05	90	25	0	7340032	60	7646
2026-01-09 23:13:15.59	128.08	3.48	-42.3	-45.0	15.4	3.00e-06	0	25	0	9437184	58	7194
2026-01-09 23:13:16.59	128.05	3.54	-41.6	-43.9	16.5	0.00e+00	92	25	0	11534336	56	7135
2026-01-09 23:13:17.61	128.02	3.61	-41.5	-43.7	16.7	0.00e+00	0	25	0	13631488	56	6962
2026-01-09 23:13:18.61	127.98	3.68	-46.1	-57.9	3.7	5.00e-02	85	25	0	15728640	60	28496
2026-01-09 23:13:19.62	127.95	3.74	-46.4	-60.1	3.7	1.51e+00	0	25	104	15728640	60	36460
2026-01-09 23:13:20.63	127.91	3.81	-41.1	-43.2	14.5	1.49e-01	0	25	0	15728640	54	7412
2026-01-09 23:13:21.64	127.88	3.88	-40.5	-42.2	18.9	1.35e-01	87	25	0	16777216	56	5857
2026-01-09 23:13:22.65	127.84	3.95	-44.6	-49.9	4.6	6.63e-05	0	25	0	18874368	56	14268
2026-01-09 23:13:23.66	127.81	4.01	-44.0	-48.4	5.9	1.51e+00	0	25	104	18874368	60	9527
2026-01-09 23:13:24.67	127.77	4.08	-39.7	-41.3	18.9	3.08e-01	0	25	0	18874368	54	5960
2026-01-09 23:13:25.68	127.74	4.15	-39.7	-41.3	19.1	0.00e+00	92	25	0	19922944	52	6622
2026-01-09 23:13:26.69	127.70	4.22	-39.2	-40.7	19.7	0.00e+00	92	25	0	22020096	52	6187
2026-01-09 23:13:27.69	127.67	4.29	-39.6	-41.2	19.1	0.00e+00	78	25	0	24117248	52	6598
2026-01-09 23:13:28.70	127.63	4.35	-39.0	-40.4	20.0	0.00e+00	92	25	0	26214400	52	5999
2026-01-09 23:13:29.71	127.60	4.42	-39.0	-40.4	20.0	0.00e+00	0	25	0	28311552	52	6002
2026-01-09 23:13:30.72	127.56	4.49	-38.9	-40.2	20.2	0.00e+00	92	25	0	29360128	52	5875
2026-01-09 23:13:31.73	127.52	4.56	-38.9	-40.2	20.2	0.00e+00	0	25	0	31457280	52	5882
2026-01-09 23:13:32.74	127.49	4.63	-39.0	-40.4	20.0	0.00e+00	91	25	0	33554432	52	5974
2026-01-09 23:13:33.75	127.45	4.70	-39.3	-40.7	19.8	0.00e+00	0	25	0	35651584	52	6177
2026-01-09 23:13:34.76	127.41	4.77	-39.3	-40.6	20.0	0.00e+00	92	25	0	37748736	52	6166
2026-01-09 23:13:35.77	127.38	4.84	-38.8	-40.1	20.3	0.00e+00	92	25	0	38797312	50	6506
2026-01-09 23:13:36.78	127.34	4.91	-38.6	-39.8	20.5	0.00e+00	0	25	0	40894464	50	6313
2026-01-09 23:13:37.79	127.30	4.98	-38.6	-39.8	20.5	0.00e+00	92	25	0	42991616	50	6288
2026-01-09 23:13:38.79	127.26	5.05	-38.7	-39.9	20.6	0.00e+00	0	25	0	45088768	50	6384
2026-01-09 23:13:39.80	127.23	5.12	-38.6	-39.9	20.6	0.00e+00	90	25	0	47185920	50	6322
2026-01-09 23:13:40.81	127.19	5.19	-38.5	-39.8	20.7	0.00e+00	71	25	0	48234496	50	6283
2026-01-09 23:13:41.82	127.15	5.26	-38.9	-40.2	20.3	0.00e+00	90	25	0	50331648	50	6604
2026-01-09 23:13:42.83	127.11	5.33	-38.5	-39.8	20.6	0.00e+00	92	25	0	52428800	50	6257
2026-01-09 23:13:43.84	127.07	5.40	-38.6	-39.9	20.6	0.00e+00	0	25	0	54525952	50	6335
2026-01-09 23:13:44.85	127.03	5.47	-38.7	-40.0	20.5	0.00e+00	90	25	0	56623104	50	6400
2026-01-09 23:13:45.86	126.99	5.54	-38.5	-39.7	20.8	0.00e+00	0	25	0	57671680	50	6206
2026-01-09 23:13:46.87	126.95	5.62	-38.4	-39.6	20.8	0.00e+00	92	25	0	59768832	50	6168
2026-01-09 23:13:47.88	126.91	5.69	-38.2	-39.4	21.0	0.00e+00	9	25	0	61865984	50	6031
2026-01-09 23:13:48.89	126.87	5.76	-38.3	-39.4	20.9	0.00e+00	92	25	0	63963136	50	6031
2026-01-09 23:13:49.90	126.83	5.83	-38.1	-39.3	21.1	0.00e+00	92	25	0	66060288	50	5902
2026-01-09 23:13:50.91	126.79	5.90	-38.2	-39.4	21.0	0.00e+00	0	25	0	67108864	50	6007
2026-01-09 23:13:51.92	126.75	5.98	-38.4	-39.6	20.9	0.00e+00	83	25	0	69206016	50	6129
2026-01-09 23:13:52.93	126.71	6.05	-38.5	-39.7	20.8	0.00e+00	0	25	0	71303168	50	6198
2026-01-09 23:13:53.94	126.67	6.12	-38.3	-39.5	21.0	0.00e+00	92	25	0	73400320	50	6054
2026-01-09 23:13:54.95	126.63	6.19	-38.4	-39.7	20.8	0.00e+00	0	25	0	75497472	50	6209
2026-01-09 23:13:55.96	126.59	6.27	-38.4	-39.7	20.7	0.00e+00	91	25	0	76546048	50	6221
2026-01-09 23:13:56.97	126.55	6.34	-38.7	-40.1	20.4	0.00e+00	90	25	0	78643200	50	6501
2026-01-09 23:13:57.98	126.51	6.42	-38.7	-40.1	20.6	0.00e+00	0	25	0	80740352	50	6478
2026-01-09 23:13:58.99	126.46	6.49	-38.5	-39.9	20.7	0.00e+00	91	25	0	82837504	50	6319
2026-01-09 23:14:00.00	126.42	6.56	-38.4	-39.8	20.7	0.00e+00	0	25	0	84934656	50	6275
2026-01-09 23:14:01.01	126.38	6.64	-38.6	-40.0	20.7	0.00e+00	92	25	0	85983232	50	6398
2026-01-09 23:14:02.02	126.34	6.71	-38.3	-39.7	20.8	0.00e+00	0	25	0	88080384	50	6188
2026-01-09 23:14:03.03	126.29	6.79	-38.3	-39.6	21.0	0.00e+00	92	25	0	90177536	50	6162
2026-01-09 23:14:04.04	126.25	6.86	-38.0	-39.2	21.3	0.00e+00	43	25	0	92274688	50	5892
2026-01-09 23:14:05.05	126.21	6.94	-38.1	-39.3	21.2	0.00e+00	0	25	0	94371840	50	5963
2026-01-09 23:14:06.05	126.16	7.01	-38.0	-39.2	21.3	0.00e+00	92	25	0	95420416	50	5856
2026-01-09 23:14:07.06	126.12	7.09	-38.1	-39.3	21.2	0.00e+00	0	25	0	97517568	50	5940
2026-01-09 23:14:08.07	126.08	7.16	-38.2	-39.4	21.2	0.00e+00	47	25	0	99614720	50	5977
2026-01-09 23:14:09.08	126.03	7.24	-38.1	-39.2	21.2	0.00e+00	0	25	0	101711872	50	5894
2026-01-09 23:14:10.09	125.99	7.31	-38.3	-39.5	21.1	0.00e+00	86	25	0	103809024	50	6034
2026-01-09 23:14:11.10	125.94	7.39	-38.3	-39.5	20.9	0.00e+00	43	25	0	105906176	50	6065
2026-01-09 23:14:12.11	125.90	7.47	-38.3	-39.5	20.9	0.00e+00	0	25	0	106954752	50	6038
2026-01-09 23:14:13.12	125.85	7.54	-38.0	-39.2	21.4	0.00e+00	92	25	0	109051904	50	5870
2026-01-09 23:14:14.13	125.81	7.62	-38.3	-39.5	21.0	0.00e+00	0	25	0	111149056	50	6072
2026-01-09 23:14:15.14	125.76	7.70	-38.0	-39.2	21.4	0.00e+00	90	25	0	113246208	50	5857
2026-01-09 23:14:16.15	125.71	7.78	-37.9	-39.1	21.5	0.00e+00	65	25	0	115343360	50	5784
2026-01-09 23:14:17.16	125.67	7.85	-37.9	-39.0	21.6	0.00e+00	92	25	0	116391936	50	5727
2026-01-09 23:14:18.17	125.62	7.93	-37.9	-39.1	21.5	0.00e+00	72	25	0	118489088	50	5770
2026-01-09 23:14:19.18	125.57	8.01	-37.9	-39.0	21.5	0.00e+00	92	25	0	120586240	48	6419
2026-01-09 23:14:20.19	125.53	8.09	-37.6	-38.7	21.7	0.00e+00	92	25	0	122683392	48	6245
2026-01-09 23:14:21.19	125.48	8.16	-37.7	-38.8	21.8	0.00e+00	0	25	0	124780544	48	6263
2026-01-09 23:14:22.20	125.43	8.24	-37.9	-39.0	21.6	0.00e+00	74	25	0	125829120	48	6416
2026-01-09 23:14:23.21	125.38	8.32	-37.8	-38.9	21.6	0.00e+00	0	25	0	127926272	48	6372
2026-01-09 23:14:24.22	125.34	8.40	-37.9	-39.0	21.6	0.00e+00	92	25	0	130023424	48	6441
2026-01-09 23:14:25.23	125.29	8.48	-37.9	-39.0	21.6	0.00e+00	0	25	0	132120576	48	6463
2026-01-09 23:14:26.24	125.24	8.56	-38.0	-39.2	21.5	0.00e+00	90	25	0	134217728	48	6567
2026-01-09 23:14:27.25	125.19	8.64	-37.9	-39.0	21.6	0.00e+00	92	25	0	135266304	48	6463
2026-01-09 23:14:28.26	125.14	8.72	-37.7	-38.8	21.7	0.00e+00	0	25	0	137363456	48	6308
2026-01-09 23:14:29.27	125.09	8.80	-37.8	-38.9	21.7	0.00e+00	92	25	0	139460608	48	6321
2026-01-09 23:14:30.27	125.04	8.88	-37.6	-38.7	22.0	0.00e+00	0	25	0	141557760	48	6221
2026-01-09 23:14:31.28	124.99	8.96	-37.7	-38.8	21.9	0.00e+00	92	25	0	143654912	48	6254
2026-01-09 23:14:32.29	124.94	9.04	-37.6	-38.7	21.9	0.00e+00	0	25	0	144703488	48	6187
2026-01-09 23:14:33.30	124.89	9.12	-37.7	-38.8	21.8	0.00e+00	92	25	0	146800640	48	6255
2026-01-09 23:14:34.31	124.84	9.21	-37.5	-38.6	22.0	0.00e+00	90	25	0	148897792	48	6128
2026-01-09 23:14:35.32	124.79	9.29	-37.8	-38.9	21.8	0.00e+00	0	25	0	150994944	48	6344
2026-01-09 23:14:36.33	124.74	9.37	-37.7	-38.8	21.8	0.00e+00	91	25	0	153092096	48	6295
2026-01-09 23:14:37.34	124.68	9.45	-37.7	-38.8	21.8	0.00e+00	0	25	0	154140672	48	6275
2026-01-09 23:14:38.35	124.63	9.53	-38.0	-39.1	21.6	0.00e+00	92	25	0	156237824	48	6532
2026-01-09 23:14:39.36	124.58	9.62	-37.7	-38.8	21.8	0.00e+00	0	25	0	158334976	48	6291
2026-01-09 23:14:40.37	124.52	9.70	-37.6	-38.7	21.9	0.00e+00	92	25	0	160432128	48	6232
2026-01-09 23:14:41.38	124.47	9.78	-37.5	-38.5	22.0	0.00e+00	90	25	0	162529280	48	6085
2026-01-09 23:14:42.39	124.42	9.87	-37.4	-38.5	22.2	0.00e+00	92	25	0	163577856	48	6051
2026-01-09 23:14:43.40	124.36	9.95	-37.4	-38.4	22.2	0.00e+00	92	25	0	165675008	48	6002
2026-01-09 23:14:44.41	124.31	10.03	-37.3	-38.3	22.3	0.00e+00	0	25	0	167772160	48	5943
2026-01-09 23:14:45.42	124.25	10.12	-37.1	-38.1	22.3	0.00e+00	92	25	0	169869312	48	5792
2026-01-09 23:14:46.43	124.20	10.20	-37.2	-38.2	22.5	0.00e+00	0	25	0	171966464	48	5850
2026-01-09 23:14:47.43	124.14	10.29	-37.1	-38.1	22.3	0.00e+00	92	25	0	174063616	48	5799
2026-01-09 23:14:48.44	124.09	10.37	-37.2	-38.2	22.4	0.00e+00	0	25	0	175112192	48	5848
2026-01-09 23:14:49.45	124.03	10.46	-37.2	-38.2	22.3	0.00e+00	92	25	0	177209344	48	5849
2026-01-09 23:14:50.46	123.98	10.54	-37.1	-38.1	22.4	0.00e+00	92	25	0	179306496	48	5790
2026-01-09 23:14:51.47	123.92	10.63	-37.4	-38.4	22.2	0.00e+00	0	25	0	181403648	48	5993
2026-01-09 23:14:52.48	123.86	10.72	-37.4	-38.4	22.2	0.00e+00	90	25	0	183500800	48	6027
2026-01-09 23:14:53.49	123.81	10.80	-37.6	-38.6	22.1	0.00e+00	0	25	0	184549376	48	6170
2026-01-09 23:14:54.50	123.75	10.89	-37.3	-38.4	22.2	0.00e+00	92	25	0	186646528	48	5979
2026-01-09 23:14:55.51	123.69	10.98	-37.3	-38.3	22.2	0.00e+00	0	25	0	188743680	48	5956
2026-01-09 23:14:56.51	123.63	11.06	-37.2	-38.2	22.4	0.00e+00	92	25	0	190840832	48	5892
2026-01-09 23:14:57.52	123.57	11.15	-37.1	-38.1	22.5	0.00e+00	92	25	0	192937984	48	5768
2026-01-09 23:14:58.53	123.51	11.24	-37.0	-37.9	22.6	0.00e+00	0	25	0	193986560	48	5684
2026-01-09 23:14:59.54	123.45	11.33	-37.2	-38.2	22.5	0.00e+00	92	25	0	196083712	48	5833
2026-01-09 23:15:00.55	123.39	11.41	-37.0	-37.9	22.7	0.00e+00	0	25	0	198180864	48	5687
2026-01-09 23:15:01.56	123.33	11.50	-37.0	-37.9	22.6	0.00e+00	92	25	0	200278016	48	5694
2026-01-09 23:15:02.57	123.27	11.59	-37.1	-38.1	22.5	0.00e+00	0	25	0	202375168	48	5824
2026-01-09 23:15:03.58	123.21	11.68	-36.9	-37.8	22.8	0.00e+00	92	25	0	203423744	48	5607
2026-01-09 23:15:04.59	123.15	11.77	-36.9	-37.9	22.6	0.00e+00	92	25	0	205520896	48	5676
2026-01-09 23:15:05.60	123.09	11.86	-37.1	-38.1	22.5	0.00e+00	0	25	0	207618048	48	5814
2026-01-09 23:15:06.61	123.03	11.95	-37.3	-38.3	22.3	0.00e+00	92	25	0	209715200	48	5951
2026-01-09 23:15:07.62	122.96	12.04	-37.2	-38.2	22.4	0.00e+00	33	25	0	211812352	48	5864
2026-01-09 23:15:08.63	122.90	12.13	-37.3	-38.3	22.5	0.00e+00	92	25	0	212860928	48	5922
2026-01-09 23:15:09.63	122.84	12.22	-37.0	-38.0	22.7	0.00e+00	0	25	0	214958080	48	5732
2026-01-09 23:15:10.63	122.77	12.31	-36.9	-37.8	22.8	0.00e+00	92	25	0	217055232	48	5618
2026-01-09 23:15:11.64	122.71	12.40	-37.0	-37.9	22.6	0.00e+00	92	25	0	219152384	48	5662
2026-01-09 23:15:12.65	122.64	12.50	-36.9	-37.9	22.7	0.00e+00	3	25	0	221249536	48	5666
2026-01-09 23:15:13.66	122.58	12.59	-36.9	-37.8	22.8	0.00e+00	93	25	0	222298112	48	5625
2026-01-09 23:15:14.67	122.51	12.68	-37.0	-38.0	22.7	0.00e+00	0	25	0	224395264	48	5704
2026-01-09 23:15:15.68	122.45	12.77	-37.1	-38.1	22.5	0.00e+00	92	25	0	226492416	48	5811
2026-01-09 23:15:16.69	122.38	12.87	-37.0	-38.1	22.7	0.00e+00	0	25	0	228589568	48	5766
2026-01-09 23:15:17.70	122.31	12.96	-37.1	-38.1	22.6	0.00e+00	92	25	0	230686720	48	5798
2026-01-09 23:15:18.71	122.25	13.05	-37.1	-38.2	22.6	0.00e+00	51	25	0	231735296	48	5831
2026-01-09 23:15:19.72	122.18	13.15	-37.3	-38.4	22.3	0.00e+00	15	25	0	233832448	48	6004
2026-01-09 23:15:20.73	122.11	13.24	-37.0	-38.1	22.6	0.00e+00	92	25	0	235929600	48	5777
2026-01-09 23:15:21.74	122.04	13.34	-37.1	-38.2	22.6	0.00e+00	0	25	0	238026752	48	5837
2026-01-09 23:15:22.75	121.97	13.43	-37.0	-38.0	22.7	0.00e+00	91	25	0	240123904	48	5715
2026-01-09 23:15:23.76	121.90	13.53	-36.9	-37.9	22.8	0.00e+00	0	25	0	242221056	48	5640
2026-01-09 23:15:24.77	121.83	13.62	-36.8	-37.8	22.7	0.00e+00	92	25	0	243269632	48	5569
2026-01-09 23:15:25.78	121.76	13.72	-36.9	-37.8	22.7	0.00e+00	72	25	0	245366784	48	5623
2026-01-09 23:15:26.79	121.69	13.82	-36.9	-37.9	22.7	0.00e+00	92	25	0	247463936	48	5638
2026-01-09 23:15:27.80	121.62	13.91	-36.9	-37.9	22.7	0.00e+00	92	25	0	249561088	48	5690
2026-01-09 23:15:28.81	121.55	14.01	-37.1	-38.1	22.6	0.00e+00	0	25	0	250609664	48	5775
2026-01-09 23:15:29.82	121.48	14.11	-37.1	-38.2	22.6	0.00e+00	92	25	0	252706816	48	5839
2026-01-09 23:15:30.82	121.40	14.20	-36.8	-37.8	22.8	0.00e+00	0	25	0	254803968	48	5616
2026-01-09 23:15:31.83	121.33	14.30	-36.9	-37.9	22.8	0.00e+00	90	25	0	256901120	48	5663
2026-01-09 23:15:32.84	121.26	14.40	-37.1	-38.1	22.7	0.00e+00	41	25	0	258998272	48	5825
2026-01-09 23:15:33.85	121.18	14.50	-37.3	-38.3	22.5	0.00e+00	92	25	0	260046848	48	5917
2026-01-09 23:15:34.86	121.11	14.60	-36.9	-37.8	22.8	0.00e+00	92	25	0	262144000	48	5619
2026-01-09 23:15:35.87	121.03	14.70	-36.5	-37.4	23.2	0.00e+00	0	25	0	264241152	46	6006
2026-01-09 23:15:36.88	120.95	14.80	-36.5	-37.4	23.2	0.00e+00	79	25	0	266338304	46	6025
2026-01-09 23:15:37.89	120.88	14.90	-36.4	-37.4	23.2	0.00e+00	0	25	0	268435456	46	5976
2026-01-09 23:15:38.89	120.80	15.00	-36.4	-37.3	23.2	0.00e+00	92	25	0	270532608	46	5937
2026-01-09 23:15:39.90	120.72	15.10	-36.5	-37.5	23.1	0.00e+00	0	25	0	271581184	46	6075
2026-01-09 23:15:40.92	120.64	15.20	-36.8	-37.8	22.7	0.00e+00	87	25	0	273678336	46	6298
2026-01-09 23:15:41.92	120.57	15.30	-36.6	-37.6	23.1	0.00e+00	92	25	0	275775488	46	6135
2026-01-09 23:15:42.93	120.49	15.41	-36.8	-37.9	22.8	0.00e+00	0	25	0	277872640	46	6346
2026-01-09 23:15:43.94	120.41	15.51	-36.9	-38.0	22.8	0.00e+00	90	25	0	279969792	46	6442
2026-01-09 23:15:44.95	120.33	15.61	-36.6	-37.6	23.1	0.00e+00	0	25	0	281018368	46	6166
2026-01-09 23:15:45.96	120.24	15.71	-36.6	-37.6	23.0	0.00e+00	92	25	0	283115520	46	6159
2026-01-09 23:15:46.97	120.16	15.82	-36.6	-37.6	23.1	0.00e+00	0	25	0	285212672	46	6160
2026-01-09 23:15:47.98	120.08	15.92	-36.4	-37.4	23.2	0.00e+00	92	25	0	287309824	46	5989
2026-01-09 23:15:48.99	120.00	16.03	-36.6	-37.6	23.0	0.00e+00	92	25	0	289406976	46	6124
2026-01-09 23:15:50.00	119.91	16.13	-36.7	-37.7	23.1	0.00e+00	7	25	0	290455552	46	6183
2026-01-09 23:15:51.00	119.83	16.24	-36.9	-37.8	23.0	0.00e+00	92	25	0	292552704	46	6296
2026-01-09 23:15:52.01	119.75	16.34	-36.8	-37.8	23.0	0.00e+00	0	25	0	294649856	46	6267
2026-01-09 23:15:53.02	119.66	16.45	-37.1	-38.1	22.7	0.00e+00	70	25	0	296747008	46	6486
2026-01-09 23:15:54.03	119.57	16.55	-37.4	-38.4	22.5	0.00e+00	0	25	0	298844160	46	6766
2026-01-09 23:15:55.04	119.49	16.66	-37.5	-38.5	22.5	0.00e+00	92	25	0	299892736	46	6842
2026-01-09 23:15:56.05	119.40	16.77	-37.5	-38.5	22.4	0.00e+00	0	25	0	301989888	48	6055
2026-01-09 23:15:57.06	119.31	16.87	-37.6	-38.6	22.3	0.00e+00	92	25	0	304087040	48	6165
2026-01-09 23:15:58.07	119.22	16.98	-36.7	-37.6	23.0	0.00e+00	92	25	0	306184192	46	6157
2026-01-09 23:15:59.08	119.14	17.09	-36.9	-38.0	22.8	0.00e+00	0	25	0	308281344	46	6391
2026-01-09 23:16:00.09	119.05	17.20	-36.8	-37.8	23.1	0.00e+00	35	25	0	309329920	46	6259
2026-01-09 23:16:01.10	118.96	17.31	-36.9	-37.9	22.9	0.00e+00	0	25	0	311427072	46	6324
2026-01-09 23:16:02.11	118.86	17.42	-36.8	-37.9	22.8	0.00e+00	92	25	0	313524224	46	6320
2026-01-09 23:16:03.12	118.77	17.53	-37.0	-38.0	22.9	0.00e+00	0	25	0	315621376	46	6421
2026-01-09 23:16:04.13	118.68	17.64	-37.0	-38.1	22.7	0.00e+00	92	25	0	317718528	46	6482
2026-01-09 23:16:05.14	118.59	17.75	-37.5	-38.6	22.4	0.00e+00	92	25	0	318767104	46	6916
2026-01-09 23:16:06.15	118.49	17.86	-37.1	-38.3	22.6	0.00e+00	33	25	0	320864256	46	6616
2026-01-09 23:16:07.16	118.40	17.97	-37.1	-38.2	22.7	0.00e+00	74	25	0	322961408	46	6592
2026-01-09 23:16:08.17	118.30	18.08	-37.0	-38.0	22.7	0.00e+00	0	25	0	325058560	46	6459
2026-01-09 23:16:09.18	118.21	18.20	-37.0	-38.1	22.8	0.00e+00	92	25	0	327155712	46	6481
2026-01-09 23:16:10.19	118.11	18.31	-37.2	-38.2	22.8	0.00e+00	0	25	0	328204288	46	6546
2026-01-09 23:16:11.20	118.01	18.42	-37.0	-37.9	22.8	0.00e+00	90	25	0	330301440	46	6385
2026-01-09 23:16:12.21	117.91	18.54	-37.1	-38.1	22.8	0.00e+00	92	25	0	332398592	46	6485
2026-01-09 23:16:13.21	117.81	18.65	-37.1	-38.1	22.9	0.00e+00	0	25	0	334495744	46	6470
2026-01-09 23:16:14.23	117.71	18.77	-37.0	-38.0	22.8	0.00e+00	82	25	0	336592896	46	6438
2026-01-09 23:16:15.23	117.61	18.88	-37.3	-38.3	22.7	0.00e+00	0	25	0	338690048	46	6671
2026-01-09 23:16:16.24	117.51	19.00	-36.9	-37.9	22.9	0.00e+00	92	25	0	339738624	46	6345
2026-01-09 23:16:17.25	117.41	19.11	-37.0	-38.0	22.9	0.00e+00	0	25	0	341835776	46	6396
2026-01-09 23:16:18.26	117.31	19.23	-37.1	-38.0	22.7	0.00e+00	93	25	0	343932928	46	6446
2026-01-09 23:16:19.27	117.20	19.35	-37.0	-38.0	22.8	0.00e+00	92	25	0	346030080	46	6412
2026-01-09 23:16:20.28	117.10	19.46	-36.9	-37.8	22.9	0.00e+00	0	25	0	348127232	46	6316
2026-01-09 23:16:21.28	116.99	19.58	-37.2	-38.2	22.9	0.00e+00	92	25	0	349175808	46	6583
2026-01-09 23:16:22.29	116.89	19.70	-37.2	-38.1	22.7	0.00e+00	0	25	0	351272960	46	6532
2026-01-09 23:16:23.30	116.78	19.82	-37.3	-38.3	22.6	0.00e+00	92	25	0	353370112	46	6653
2026-01-09 23:16:24.30	116.67	19.93	-37.8	-38.8	22.2	0.00e+00	0	25	0	355467264	46	7034
2026-01-09 23:16:25.31	116.56	20.05	-37.9	-39.0	22.1	0.00e+00	92	25	0	357564416	48	6417
2026-01-09 23:16:26.32	116.46	20.17	-37.9	-39.0	22.0	0.00e+00	77	25	0	358612992	48	6404
2026-01-09 23:16:27.33	116.34	20.29	-37.4	-38.4	22.6	0.00e+00	8	25	0	360710144	48	5985
2026-01-09 23:16:28.34	116.23	20.42	-37.3	-38.3	22.6	0.00e+00	92	25	0	362807296	48	5933
2026-01-09 23:16:29.35	116.12	20.54	-36.8	-37.8	23.1	0.00e+00	0	25	0	364904448	48	5591
2026-01-09 23:16:30.36	116.01	20.66	-36.8	-37.7	23.0	0.00e+00	74	25	0	367001600	48	5558
2026-01-09 23:16:31.37	115.89	20.78	-36.8	-37.8	23.0	0.00e+00	0	25	0	368050176	46	6268
2026-01-09 23:16:32.38	115.78	20.90	-37.1	-38.0	22.9	0.00e+00	91	25	0	370147328	46	6444
2026-01-09 23:16:33.39	115.66	21.03	-36.7	-37.6	23.2	0.00e+00	65	25	0	372244480	46	6143
2026-01-09 23:16:34.40	115.54	21.15	-37.1	-38.1	22.8	0.00e+00	92	25	0	374341632	46	6504
2026-01-09 23:16:35.41	115.43	21.28	-36.8	-37.7	23.1	0.00e+00	92	25	0	376438784	46	6245
2026-01-09 23:16:36.42	115.31	21.40	-36.8	-37.8	23.0	0.00e+00	0	25	0	377487360	46	6311
2026-01-09 23:16:37.43	115.19	21.53	-36.9	-37.9	23.1	0.00e+00	92	25	0	379584512	46	6373
2026-01-09 23:16:38.44	115.07	21.65	-37.0	-38.0	22.6	0.00e+00	0	25	0	381681664	46	6464
2026-01-09 23:16:39.45	114.94	21.78	-37.3	-38.3	22.7	0.00e+00	90	25	0	383778816	46	6633
2026-01-09 23:16:40.45	114.82	21.90	-37.3	-38.3	22.7	0.00e+00	0	25	0	385875968	46	6627
2026-01-09 23:16:41.46	114.70	22.03	-37.0	-38.0	22.9	0.00e+00	90	25	0	386924544	46	6408
2026-01-09 23:16:42.47	114.57	22.16	-37.4	-38.5	22.5	0.00e+00	91	25	0	389021696	46	6789
2026-01-09 23:16:43.48	114.45	22.29	-37.3	-38.3	22.6	0.00e+00	0	25	0	391118848	46	6655
2026-01-09 23:16:44.49	114.32	22.42	-37.3	-38.3	22.6	0.00e+00	92	25	0	393216000	46	6649
2026-01-09 23:16:45.50	114.19	22.55	-37.2	-38.1	22.8	0.00e+00	0	25	0	395313152	46	6533
2026-01-09 23:16:46.51	114.06	22.68	-37.4	-38.4	22.6	0.00e+00	91	25	0	396361728	46	6748
2026-01-09 23:16:47.52	113.93	22.81	-37.3	-38.2	22.5	0.00e+00	0	25	0	398458880	46	6604
2026-01-09 23:16:48.53	113.80	22.94	-37.5	-38.5	22.5	0.00e+00	92	25	0	400556032	46	6812
2026-01-09 23:16:49.54	113.67	23.07	-37.3	-38.2	22.8	0.00e+00	92	25	0	402653184	46	6614
2026-01-09 23:16:50.55	113.53	23.20	-37.4	-38.4	22.7	0.00e+00	0	25	0	404750336	46	6732
2026-01-09 23:16:51.56	113.40	23.33	-36.9	-37.9	23.0	0.00e+00	91	25	0	405798912	46	6365
2026-01-09 23:16:52.57	113.26	23.46	-37.0	-38.0	23.1	0.00e+00	0	25	0	407896064	46	6392
2026-01-09 23:16:53.57	113.12	23.60	-37.1	-38.1	22.8	0.00e+00	92	25	0	409993216	46	6479
2026-01-09 23:16:54.58	112.99	23.73	-37.3	-38.3	22.7	0.00e+00	0	25	0	412090368	46	6653
2026-01-09 23:16:55.60	112.84	23.87	-37.4	-38.4	22.4	0.00e+00	92	25	0	414187520	46	6764
2026-01-09 23:16:56.60	112.70	24.00	-37.8	-38.8	22.2	0.00e+00	92	25	0	415236096	48	6307
2026-01-09 23:16:57.61	112.56	24.13	-37.8	-38.9	22.2	0.00e+00	4	25	0	417333248	48	6344
2026-01-09 23:16:58.62	112.42	24.27	-38.2	-39.3	22.1	0.00e+00	92	25	0	419430400	48	6644
2026-01-09 23:16:59.63	112.27	24.41	-37.5	-38.5	22.6	0.00e+00	0	25	0	421527552	48	6079
2026-01-09 23:17:00.64	112.13	24.54	-37.8	-38.9	22.3	0.00e+00	88	25	0	423624704	48	6324
2026-01-09 23:17:01.65	111.98	24.68	-37.7	-38.7	22.3	0.00e+00	0	25	0	424673280	48	6235
2026-01-09 23:17:02.66	111.83	24.82	-37.5	-38.5	22.6	0.00e+00	90	25	0	426770432	48	6062
2026-01-09 23:17:03.67	111.68	24.96	-37.6	-38.7	22.4	0.00e+00	78	25	0	428867584	48	6187
2026-01-09 23:17:04.68	111.53	25.09	-37.6	-38.6	22.5	0.00e+00	31	25	0	430964736	48	6153
2026-01-09 23:17:05.69	111.38	25.23	-37.1	-38.0	22.9	0.00e+00	92	25	0	433061888	48	5730
2026-01-09 23:17:06.70	111.22	25.37	-37.0	-38.0	23.0	0.00e+00	0	25	0	435159040	46	6403
2026-01-09 23:17:07.71	111.07	25.51	-37.1	-38.0	22.9	0.00e+00	74	25	0	436207616	46	6444
2026-01-09 23:17:08.72	110.91	25.66	-36.9	-37.9	23.1	0.00e+00	0	25	0	438304768	46	6343
2026-01-09 23:17:09.73	110.75	25.80	-37.2	-38.2	22.8	0.00e+00	92	25	0	440401920	46	6562
2026-01-09 23:17:10.74	110.59	25.94	-37.5	-38.6	22.6	0.00e+00	0	25	0	442499072	46	6871
2026-01-09 23:17:11.75	110.43	26.08	-38.2	-39.4	21.8	0.00e+00	92	25	0	444596224	48	6713
2026-01-09 23:17:12.76	110.27	26.22	-38.1	-39.2	22.0	0.00e+00	92	25	0	445644800	48	6564
2026-01-09 23:17:13.77	110.10	26.37	-37.6	-38.7	22.5	0.00e+00	0	25	0	447741952	48	6198
2026-01-09 23:17:14.77	109.94	26.51	-37.5	-38.6	22.5	0.00e+00	63	25	0	449839104	48	6112
2026-01-09 23:17:15.78	109.77	26.65	-37.3	-38.3	22.7	0.00e+00	0	25	0	451936256	48	5961
2026-01-09 23:17:16.78	109.60	26.80	-37.1	-38.1	22.8	0.00e+00	92	25	0	454033408	48	5800
2026-01-09 23:17:17.79	109.43	26.94	-37.3	-38.3	22.8	0.00e+00	0	25	0	455081984	48	5928
2026-01-09 23:17:18.80	109.26	27.09	-37.0	-38.0	22.9	0.00e+00	90	25	0	457179136	48	5731
2026-01-09 23:17:19.81	109.09	27.23	-37.6	-38.6	22.6	0.00e+00	92	25	0	459276288	48	6166
2026-01-09 23:17:20.82	108.91	27.38	-36.9	-37.9	22.9	0.00e+00	0	25	0	461373440	48	5641
2026-01-09 23:17:21.83	108.74	27.53	-37.0	-38.0	23.0	0.00e+00	71	25	0	463470592	48	5717
2026-01-09 23:17:22.84	108.56	27.68	-37.3	-38.3	22.7	0.00e+00	0	25	0	464519168	48	5918
2026-01-09 23:17:23.85	108.38	27.82	-37.4	-38.4	22.7	0.00e+00	92	25	0	466616320	48	5975
2026-01-09 23:17:24.86	108.19	27.97	-37.5	-38.5	22.3	0.00e+00	0	25	0	468713472	48	6095
2026-01-09 23:17:25.87	108.01	28.12	-37.5	-38.5	22.6	0.00e+00	92	25	0	470810624	48	6089
2026-01-09 23:17:26.88	107.83	28.27	-37.9	-39.0	22.1	0.00e+00	92	25	0	472907776	48	6420
2026-01-09 23:17:27.88	107.64	28.42	-38.2	-39.2	22.2	0.00e+00	0	25	0	473956352	48	6607
2026-01-09 23:17:28.89	107.45	28.57	-37.8	-38.8	22.4	0.00e+00	53	25	0	476053504	48	6297
2026-01-09 23:17:29.90	107.26	28.72	-37.9	-38.9	22.3	0.00e+00	0	25	0	478150656	48	6383
2026-01-09 23:17:30.91	107.07	28.87	-37.9	-39.0	21.9	0.00e+00	90	25	0	480247808	48	6429
2026-01-09 23:17:31.92	106.87	29.03	-38.3	-39.5	21.9	0.00e+00	0	25	0	482344960	48	6802
2026-01-09 23:17:32.93	106.68	29.18	-38.5	-39.7	21.4	0.00e+00	90	25	0	483393536	48	6988
2026-01-09 23:17:33.94	106.48	29.33	-38.4	-39.6	21.5	0.00e+00	76	25	0	485490688	50	6148
2026-01-09 23:17:34.95	106.28	29.48	-38.5	-39.7	21.5	0.00e+00	0	25	0	487587840	50	6238
2026-01-09 23:17:35.96	106.08	29.64	-38.4	-39.6	21.8	0.00e+00	92	25	0	489684992	50	6150
2026-01-09 23:17:36.97	105.87	29.79	-38.3	-39.4	21.9	0.00e+00	0	25	0	491782144	50	6002
2026-01-09 23:17:37.98	105.67	29.95	-38.4	-39.5	21.6	0.00e+00	92	25	0	492830720	50	6065
2026-01-09 23:17:38.99	105.46	30.10	-38.7	-39.8	21.5	0.00e+00	0	25	0	494927872	50	6297
2026-01-09 23:17:39.99	105.25	30.25	-38.7	-39.9	21.5	0.00e+00	90	25	0	497025024	50	6335
2026-01-09 23:17:41.00	105.04	30.41	-39.0	-40.2	21.0	0.00e+00	0	25	0	499122176	50	6582
2026-01-09 23:17:42.02	104.82	30.57	-39.1	-40.3	21.1	0.00e+00	0	25	0	501219328	50	6665
2026-01-09 23:17:43.03	104.61	30.72	-39.1	-40.3	21.2	0.00e+00	92	25	0	503316480	50	6643
2026-01-09 23:17:44.03	104.39	30.88	-38.9	-40.1	21.3	0.00e+00	0	25	0	504365056	50	6507
2026-01-09 23:17:45.04	104.17	31.04	-38.9	-40.1	21.3	0.00e+00	87	25	0	506462208	50	6488
2026-01-09 23:17:46.05	103.95	31.19	-39.2	-40.4	21.0	0.00e+00	0	25	0	508559360	50	6716
2026-01-09 23:17:47.06	103.72	31.35	-38.8	-40.0	21.4	0.00e+00	92	25	0	510656512	50	6443
2026-01-09 23:17:48.07	103.49	31.51	-38.4	-39.5	21.7	0.00e+00	0	25	0	512753664	50	6084
2026-01-09 23:17:49.08	103.26	31.67	-38.8	-39.9	20.9	0.00e+00	92	25	0	513802240	50	6371
2026-01-09 23:17:50.09	103.03	31.83	-38.4	-39.4	21.7	0.00e+00	92	25	0	515899392	50	6033
2026-01-09 23:17:51.09	102.80	31.99	-38.7	-39.8	21.4	0.00e+00	0	25	0	517996544	50	6310
2026-01-09 23:17:52.11	102.56	32.15	-39.1	-40.3	21.1	0.00e+00	43	25	0	520093696	50	6670
2026-01-09 23:17:53.11	102.33	32.31	-39.6	-40.9	20.5	0.00e+00	33	25	0	522190848	50	7153
2026-01-09 23:17:54.13	102.08	32.47	-39.8	-41.2	20.6	0.00e+00	92	25	0	523239424	50	7372
2026-01-09 23:17:55.14	101.84	32.63	-39.3	-40.6	20.9	0.00e+00	0	25	0	525336576	52	6119
2026-01-09 23:17:56.15	101.59	32.79	-39.5	-40.9	20.8	0.00e+00	91	25	0	527433728	52	6355
2026-01-09 23:17:57.15	101.35	32.95	-39.1	-40.3	20.9	0.00e+00	90	25	0	529530880	52	5951
2026-01-09 23:17:58.16	101.10	33.11	-39.5	-40.8	20.7	0.00e+00	0	25	0	531628032	52	6252
2026-01-09 23:17:59.17	100.84	33.27	-39.1	-40.3	21.2	0.00e+00	73	25	0	532676608	52	5963
2026-01-09 23:18:00.18	100.59	33.43	-39.1	-40.2	21.2	0.00e+00	33	25	0	534773760	52	5879
2026-01-09 23:18:01.19	100.33	33.59	-39.6	-40.9	20.6	0.00e+00	92	25	0	536870912	52	6330
2026-01-09 23:18:02.20	100.07	33.76	-40.2	-41.6	20.1	0.00e+00	0	25	0	538968064	52	6882
2026-01-09 23:18:03.21	99.80	33.92	-40.8	-42.4	19.3	0.00e+00	92	25	0	541065216	52	7570
2026-01-09 23:18:04.22	99.54	34.08	-40.5	-42.0	19.7	0.00e+00	92	25	0	542113792	54	6393
2026-01-09 23:18:05.23	99.27	34.24	-40.4	-42.0	19.4	0.00e+00	0	25	0	544210944	54	6392
2026-01-09 23:18:06.24	99.00	34.41	-40.3	-41.8	19.8	0.00e+00	92	25	0	546308096	54	6258
2026-01-09 23:18:07.25	98.72	34.57	-40.2	-41.7	19.9	0.00e+00	0	25	0	548405248	54	6211
2026-01-09 23:18:08.26	98.44	34.73	-39.7	-41.1	20.3	0.00e+00	93	25	0	550502400	54	5799
2026-01-09 23:18:09.27	98.16	34.89	-39.5	-40.8	20.8	0.00e+00	0	25	0	551550976	52	6281
2026-01-09 23:18:10.27	97.88	35.05	-38.8	-39.9	21.6	0.00e+00	90	25	0	553648128	50	6382
2026-01-09 23:18:11.28	97.60	35.22	-38.1	-39.1	22.1	0.00e+00	77	25	0	555745280	50	5790
2026-01-09 23:18:12.29	97.31	35.38	-37.9	-38.9	22.3	0.00e+00	0	25	0	557842432	48	6362
2026-01-09 23:18:13.30	97.02	35.54	-37.9	-39.0	22.2	0.00e+00	92	25	0	559939584	48	6403
2026-01-09 23:18:14.31	96.72	35.71	-37.7	-38.7	22.5	0.00e+00	0	25	0	560988160	48	6210
2026-01-09 23:18:15.31	96.43	35.87	-36.9	-37.8	23.2	0.00e+00	88	25	0	563085312	48	5596
2026-01-09 23:18:16.32	96.13	36.03	-36.8	-37.7	23.3	0.00e+00	0	25	0	565182464	46	6215
2026-01-09 23:18:17.33	95.82	36.19	-37.0	-37.9	23.0	0.00e+00	92	25	0	567279616	46	6368
2026-01-09 23:18:18.34	95.52	36.36	-37.7	-38.7	21.8	0.00e+00	0	25	0	569376768	46	6937
2026-01-09 23:18:19.35	95.21	36.52	-38.1	-39.2	22.0	0.00e+00	92	25	0	570425344	48	6609
2026-01-09 23:18:20.36	94.90	36.68	-38.6	-39.7	21.5	0.00e+00	92	25	0	572522496	48	7000
2026-01-09 23:18:21.37	94.58	36.84	-39.0	-40.2	21.0	0.00e+00	0	25	0	574619648	50	6605
2026-01-09 23:18:22.38	94.26	37.00	-39.3	-40.6	20.8	0.00e+00	91	25	0	576716800	50	6888
2026-01-09 23:18:23.39	93.94	37.17	-39.6	-41.0	20.5	0.00e+00	0	25	0	578813952	50	7192
2026-01-09 23:18:24.39	93.62	37.32	-39.5	-40.8	20.6	0.00e+00	92	25	0	579862528	50	7072
2026-01-09 23:18:25.40	93.29	37.49	-39.5	-40.8	20.7	0.00e+00	0	25	0	581959680	50	7065
2026-01-09 23:18:26.41	92.95	37.65	-39.8	-41.2	20.4	0.00e+00	92	25	0	584056832	50	7366
2026-01-09 23:18:27.42	92.62	37.81	-39.8	-41.2	20.2	0.00e+00	91	25	0	586153984	52	6587
2026-01-09 23:18:28.43	92.28	37.97	-39.6	-41.0	20.8	0.00e+00	0	25	0	588251136	52	6397
2026-01-09 23:18:29.44	91.94	38.13	-38.7	-39.8	21.9	0.00e+00	74	25	0	589299712	52	5624
2026-01-09 23:18:30.45	91.59	38.29	-37.5	-38.5	22.6	0.00e+00	0	25	0	591396864	48	6070
2026-01-09 23:18:31.46	91.24	38.44	-37.8	-38.8	22.4	0.00e+00	92	25	0	593494016	48	6289
2026-01-09 23:18:32.47	90.89	38.60	-38.6	-39.9	20.4	0.00e+00	0	25	0	595591168	48	7095
2026-01-09 23:18:33.48	90.54	38.76	-39.8	-41.3	20.4	0.00e+00	92	25	0	597688320	50	7466
2026-01-09 23:18:34.49	90.18	38.92	-40.1	-41.6	20.0	0.00e+00	70	25	0	599785472	52	6924
2026-01-09 23:18:35.50	89.81	39.07	-40.0	-41.6	20.1	0.00e+00	0	25	0	600834048	52	6883
2026-01-09 23:18:36.50	89.45	39.23	-40.3	-41.9	19.7	0.00e+00	90	25	0	602931200	52	7123
2026-01-09 23:18:37.51	89.08	39.38	-40.0	-41.5	20.1	0.00e+00	0	25	0	605028352	52	6802
2026-01-09 23:18:38.52	88.71	39.54	-38.9	-40.1	21.4	0.00e+00	92	25	0	607125504	52	5785
2026-01-09 23:18:39.53	88.33	39.69	-38.0	-39.0	22.0	0.00e+00	0	25	0	609222656	50	5735
2026-01-09 23:18:40.54	87.95	39.85	-37.6	-38.6	22.4	0.00e+00	92	25	0	610271232	50	5480
2026-01-09 23:18:41.55	87.57	40.00	-38.2	-39.2	22.0	0.00e+00	73	25	0	612368384	48	6593
2026-01-09 23:18:42.56	87.18	40.15	-38.8	-40.0	21.3	0.00e+00	0	25	0	614465536	50	6397
2026-01-09 23:18:43.57	86.79	40.30	-38.7	-39.9	21.6	0.00e+00	92	25	0	616562688	50	6364
2026-01-09 23:18:44.58	86.39	40.45	-37.9	-38.9	22.1	0.00e+00	0	25	0	618659840	50	5690
2026-01-09 23:18:45.59	85.99	40.60	-38.0	-39.1	22.1	0.00e+00	92	25	0	619708416	50	5786
2026-01-09 23:18:46.60	85.59	40.75	-37.1	-38.1	23.0	0.00e+00	0	25	0	621805568	48	5777
2026-01-09 23:18:47.61	85.19	40.89	-37.0	-38.0	23.1	0.00e+00	91	25	0	623902720	48	5701
2026-01-09 23:18:48.61	84.78	41.04	-37.1	-38.1	22.9	0.00e+00	0	25	0	625999872	46	6471
2026-01-09 23:18:49.62	84.37	41.18	-37.3	-38.3	22.7	0.00e+00	0	25	0	628097024	46	6677
2026-01-09 23:18:50.63	83.95	41.33	-37.7	-38.8	22.4	0.00e+00	92	25	0	629145600	46	7075
2026-01-09 23:18:51.64	83.53	41.47	-37.9	-39.0	22.3	0.00e+00	0	25	0	631242752	48	6409
2026-01-09 23:18:52.66	83.10	41.61	-37.5	-38.5	22.7	0.00e+00	88	25	0	633339904	48	6068
2026-01-09 23:18:53.66	82.68	41.75	-36.8	-37.7	23.3	0.00e+00	33	25	0	635437056	48	5565
2026-01-09 23:18:54.67	82.24	41.89	-37.0	-38.0	23.0	0.00e+00	92	25	0	637534208	48	5733
2026-01-09 23:18:55.68	81.81	42.03	-37.0	-38.0	23.0	0.00e+00	0	25	0	638582784	48	5733
2026-01-09 23:18:56.69	81.37	42.16	-36.6	-37.6	23.4	0.00e+00	90	25	0	640679936	46	6108
2026-01-09 23:18:57.70	80.93	42.30	-36.8	-37.7	23.2	0.00e+00	92	25	0	642777088	46	6218
2026-01-09 23:18:58.71	80.48	42.43	-36.8	-37.8	22.9	0.00e+00	0	25	0	644874240	46	6284
2026-01-09 23:18:59.72	80.03	42.56	-36.4	-37.3	23.6	0.00e+00	79	25	0	646971392	46	5916
2026-01-09 23:19:00.73	79.57	42.69	-36.1	-37.0	24.0	0.00e+00	0	25	0	648019968	46	5713
2026-01-09 23:19:01.74	79.12	42.82	-36.0	-36.9	23.8	0.00e+00	90	25	0	650117120	44	6336
2026-01-09 23:19:02.75	78.65	42.94	-35.9	-36.8	23.9	0.00e+00	17	25	0	652214272	44	6308
2026-01-09 23:19:03.76	78.19	43.07	-36.2	-37.1	23.7	0.00e+00	90	25	0	654311424	44	6491
2026-01-09 23:19:04.77	77.72	43.19	-36.1	-36.9	23.9	0.00e+00	92	25	0	656408576	44	6379
2026-01-09 23:19:05.78	77.25	43.31	-35.8	-36.7	24.1	0.00e+00	0	25	0	657457152	44	6196
2026-01-09 23:19:06.78	76.78	43.43	-35.9	-36.8	24.1	0.00e+00	75	25	0	659554304	44	6250
2026-01-09 23:19:07.80	76.29	43.55	-36.6	-37.6	23.2	0.00e+00	0	25	0	661651456	44	6897
2026-01-09 23:19:08.80	75.81	43.67	-37.5	-38.6	22.6	0.00e+00	91	25	0	663748608	46	6902
2026-01-09 23:19:09.81	75.33	43.78	-37.7	-38.8	22.3	0.00e+00	0	25	0	665845760	48	6284
2026-01-09 23:19:10.82	74.84	43.89	-38.1	-39.2	22.0	0.00e+00	90	25	0	667942912	48	6573
2026-01-09 23:19:11.83	74.34	44.00	-38.3	-39.4	21.9	0.00e+00	75	25	0	668991488	48	6748
2026-01-09 23:19:12.84	73.85	44.11	-38.7	-40.0	21.6	0.00e+00	0	25	0	671088640	50	6399
2026-01-09 23:19:13.85	73.35	44.21	-39.1	-40.4	21.2	0.00e+00	92	25	0	673185792	50	6727
2026-01-09 23:19:14.86	72.84	44.32	-39.3	-40.6	20.9	0.00e+00	0	25	0	675282944	50	6871
2026-01-09 23:19:15.87	72.34	44.42	-39.4	-40.7	20.6	0.00e+00	92	25	0	677380096	50	6961
2026-01-09 23:19:16.88	71.83	44.52	-39.1	-40.3	21.2	0.00e+00	0	25	0	678428672	50	6692
2026-01-09 23:19:17.88	71.32	44.61	-38.7	-39.8	21.6	0.00e+00	90	25	0	680525824	50	6271
2026-01-09 23:19:18.90	70.80	44.71	-37.6	-38.6	22.7	0.00e+00	83	25	0	682622976	48	6119
2026-01-09 23:19:19.91	70.28	44.80	-36.5	-37.4	23.6	0.00e+00	0	25	0	684720128	46	5996
2026-01-09 23:19:20.91	69.76	44.89	-36.5	-37.3	23.5	0.00e+00	50	25	0	686817280	46	5956
2026-01-09 23:19:21.92	69.24	44.98	-37.3	-38.3	22.8	0.00e+00	0	25	0	687865856	46	6656
2026-01-09 23:19:22.93	68.71	45.06	-37.7	-38.7	22.6	0.00e+00	91	25	0	689963008	48	6219
2026-01-09 23:19:23.94	68.18	45.14	-37.0	-37.9	23.1	0.00e+00	0	25	0	692060160	48	5675
2026-01-09 23:19:24.95	67.64	45.22	-36.5	-37.3	23.5	0.00e+00	92	25	0	694157312	46	5958
2026-01-09 23:19:25.96	67.11	45.30	-37.3	-38.2	22.7	0.00e+00	75	25	0	696254464	46	6613
2026-01-09 23:19:26.97	66.57	45.37	-38.8	-40.0	21.3	0.00e+00	0	25	0	697303040	48	7209
2026-01-09 23:19:27.98	66.03	45.44	-39.6	-41.0	20.4	0.00e+00	92	25	0	699400192	50	7184
2026-01-09 23:19:28.99	65.48	45.51	-39.8	-41.2	20.3	0.00e+00	0	25	0	701497344	52	6600
2026-01-09 23:19:30.00	64.94	45.58	-39.2	-40.5	21.0	0.00e+00	75	25	0	703594496	52	6087
2026-01-09 23:19:31.00	64.40	45.64	-38.4	-39.6	22.1	0.00e+00	0	25	0	705691648	52	5446
2026-01-09 23:19:32.01	63.85	45.70	-37.5	-38.6	22.6	0.00e+00	90	25	0	706740224	48	6133
2026-01-09 23:19:33.02	63.29	45.76	-37.5	-38.6	22.6	0.00e+00	44	25	0	708837376	48	6104
2026-01-09 23:19:34.03	62.74	45.81	-37.8	-38.9	22.3	0.00e+00	2	25	0	710934528	48	6380
2026-01-09 23:19:35.04	62.18	45.86	-37.5	-38.5	22.6	0.00e+00	90	25	0	713031680	48	6067
2026-01-09 23:19:36.05	61.63	45.91	-37.3	-38.3	22.8	0.00e+00	0	25	0	715128832	48	5932
2026-01-09 23:19:37.06	61.07	45.96	-37.7	-38.8	22.4	0.00e+00	29	25	0	716177408	48	6252
2026-01-09 23:19:38.07	60.51	46.00	-39.2	-40.5	21.1	0.00e+00	0	25	0	718274560	50	6787
2026-01-09 23:19:39.08	59.94	46.04	-39.1	-40.5	21.0	0.00e+00	64	25	0	720371712	50	6770
2026-01-09 23:19:40.09	59.38	46.08	-39.3	-40.6	21.2	0.00e+00	0	25	0	722468864	50	6896
2026-01-09 23:19:41.10	58.81	46.11	-38.8	-40.0	21.4	0.00e+00	25	25	0	724566016	50	6431
2026-01-09 23:19:42.11	58.25	46.14	-38.5	-39.7	21.5	0.00e+00	92	25	0	725614592	50	6219
2026-01-09 23:19:43.12	57.68	46.17	-37.9	-39.0	22.3	0.00e+00	0	25	0	727711744	50	5707
2026-01-09 23:19:44.13	57.11	46.19	-38.0	-39.1	22.1	0.00e+00	75	25	0	729808896	48	6521
2026-01-09 23:19:45.14	56.54	46.22	-38.7	-39.9	21.4	0.00e+00	0	25	0	731906048	48	7113
2026-01-09 23:19:46.15	55.97	46.23	-39.0	-40.2	21.3	0.00e+00	91	25	0	734003200	50	6593
2026-01-09 23:19:47.16	55.40	46.25	-38.0	-39.1	22.2	0.00e+00	0	25	0	735051776	50	5798
2026-01-09 23:19:48.16	54.84	46.26	-37.6	-38.7	22.4	0.00e+00	90	25	0	737148928	48	6230
2026-01-09 23:19:49.17	54.27	46.27	-38.3	-39.5	21.8	0.00e+00	92	25	0	739246080	48	6774
2026-01-09 23:19:50.18	53.70	46.28	-38.3	-39.5	21.9	0.00e+00	33	25	0	741343232	50	6036
2026-01-09 23:19:51.20	53.12	46.28	-37.3	-38.3	22.9	0.00e+00	10	25	0	743440384	48	5940
2026-01-09 23:19:52.21	52.55	46.28	-36.3	-37.2	23.9	0.00e+00	0	25	0	744488960	46	5883
2026-01-09 23:19:53.22	51.98	46.27	-36.1	-37.0	23.8	0.00e+00	90	25	0	746586112	46	5710
2026-01-09 23:19:54.23	51.41	46.27	-37.0	-38.0	23.0	0.00e+00	0	25	0	748683264	46	6396
2026-01-09 23:19:55.23	50.84	46.26	-37.4	-38.5	22.8	0.00e+00	90	25	0	750780416	46	6782
2026-01-09 23:19:56.24	50.27	46.24	-37.8	-38.8	22.3	0.00e+00	76	25	0	752877568	48	6310
2026-01-09 23:19:57.25	49.70	46.23	-38.3	-39.4	22.0	0.00e+00	0	25	0	753926144	48	6734
2026-01-09 23:19:58.26	49.13	46.21	-38.1	-39.1	22.2	0.00e+00	92	25	0	756023296	50	5809
2026-01-09 23:19:59.27	48.56	46.19	-37.5	-38.5	22.5	0.00e+00	0	25	0	758120448	48	6064
2026-01-09 23:20:00.28	47.99	46.16	-37.4	-38.4	22.5	0.00e+00	92	25	0	760217600	48	5975
2026-01-09 23:20:01.29	47.43	46.13	-37.9	-38.9	22.3	0.00e+00	0	25	0	762314752	48	6384
2026-01-09 23:20:02.30	46.86	46.10	-37.9	-39.0	22.1	0.00e+00	92	25	0	764411904	48	6405
2026-01-09 23:20:03.30	46.30	46.07	-38.5	-39.7	22.0	0.00e+00	33	25	0	765460480	48	6971
2026-01-09 23:20:04.32	45.74	46.03	-38.3	-39.5	21.9	0.00e+00	0	25	0	767557632	48	6837
2026-01-09 23:20:05.33	45.17	45.99	-38.3	-39.6	21.8	0.00e+00	77	25	0	769654784	48	6851
2026-01-09 23:20:06.34	44.61	45.94	-38.7	-39.9	21.7	0.00e+00	0	25	0	771751936	50	6323
2026-01-09 23:20:07.34	44.06	45.90	-38.1	-39.3	22.0	0.00e+00	86	25	0	773849088	50	5898
2026-01-09 23:20:08.35	43.50	45.85	-37.7	-38.7	22.5	0.00e+00	0	25	0	774897664	50	5549
2026-01-09 23:20:09.36	42.95	45.79	-36.7	-37.6	23.2	0.00e+00	78	25	0	776994816	48	5471
2026-01-09 23:20:10.37	42.40	45.74	-36.6	-37.5	23.3	0.00e+00	0	25	0	779091968	46	6079
2026-01-09 23:20:11.38	41.85	45.68	-37.7	-38.6	22.5	0.00e+00	0	25	0	781189120	46	6921
2026-01-09 23:20:12.39	41.30	45.62	-38.3	-39.4	22.1	0.00e+00	92	25	0	783286272	48	6694
2026-01-09 23:20:13.40	40.75	45.56	-37.5	-38.5	22.7	0.00e+00	0	25	0	784334848	48	6086
2026-01-09 23:20:14.41	40.21	45.49	-36.7	-37.5	23.4	0.00e+00	76	25	0	786432000	48	5431
2026-01-09 23:20:15.42	39.66	45.42	-36.7	-37.7	23.3	0.00e+00	0	25	0	788529152	46	6176
2026-01-09 23:20:16.43	39.12	45.35	-37.5	-38.5	22.8	0.00e+00	92	25	0	790626304	46	6809
2026-01-09 23:20:17.44	38.59	45.27	-37.8	-38.9	22.3	0.00e+00	0	25	0	792723456	46	7107
2026-01-09 23:20:18.45	38.05	45.19	-37.5	-38.5	22.8	0.00e+00	0	25	0	793772032	48	6079
2026-01-09 23:20:19.46	37.52	45.11	-37.8	-38.8	22.4	0.00e+00	92	25	0	795869184	48	6286
2026-01-09 23:20:20.47	36.99	45.03	-38.0	-39.0	22.1	0.00e+00	0	25	0	797966336	48	6451
2026-01-09 23:20:21.48	36.46	44.95	-38.6	-39.8	21.5	0.00e+00	61	25	0	800063488	48	7062
2026-01-09 23:20:22.48	35.95	44.86	-38.7	-40.0	21.5	0.00e+00	0	25	0	802160640	48	7199
2026-01-09 23:20:23.49	35.43	44.77	-38.3	-39.4	21.7	0.00e+00	71	25	0	803209216	50	6016
2026-01-09 23:20:24.50	34.91	44.68	-37.6	-38.7	22.5	0.00e+00	0	25	0	805306368	48	6211
2026-01-09 23:20:25.51	34.39	44.58	-38.1	-39.3	21.9	0.00e+00	0	25	0	807403520	48	6637
2026-01-09 23:20:26.52	33.88	44.49	-37.9	-39.0	22.2	0.00e+00	92	25	0	809500672	48	6421
2026-01-09 23:20:27.53	33.38	44.39	-37.3	-38.2	22.8	0.00e+00	0	25	0	811597824	48	5895
2026-01-09 23:20:28.54	32.87	44.28	-36.6	-37.5	23.5	0.00e+00	74	25	0	812646400	46	6089
2026-01-09 23:20:29.55	32.37	44.18	-36.3	-37.2	23.7	0.00e+00	0	25	0	814743552	46	5842
2026-01-09 23:20:30.56	31.87	44.07	-37.0	-37.9	23.1	0.00e+00	90	25	0	816840704	46	6387
2026-01-09 23:20:31.57	31.38	43.97	-37.2	-38.2	22.8	0.00e+00	0	25	0	818937856	46	6571
2026-01-09 23:20:32.58	30.88	43.86	-38.2	-39.3	22.0	0.00e+00	72	25	0	821035008	48	6683
2026-01-09 23:20:33.59	30.40	43.74	-38.0	-39.1	22.4	0.00e+00	71	25	0	822083584	48	6485
2026-01-09 23:20:34.60	29.91	43.63	-36.7	-37.6	23.5	0.00e+00	0	25	0	824180736	46	6149
2026-01-09 23:20:35.60	29.44	43.51	-36.1	-37.0	23.9	0.00e+00	91	25	0	826277888	46	5712
2026-01-09 23:20:36.62	28.95	43.39	-36.6	-37.5	23.3	0.00e+00	0	25	0	828375040	46	6088
2026-01-09 23:20:37.62	28.48	43.28	-37.6	-38.7	22.5	0.00e+00	92	25	0	830472192	46	6956
2026-01-09 23:20:38.63	28.01	43.15	-37.3	-38.3	22.8	0.00e+00	0	25	0	832569344	46	6653
2026-01-09 23:20:39.64	27.55	43.03	-36.7	-37.6	23.4	0.00e+00	92	25	0	833617920	46	6160
2026-01-09 23:20:40.65	27.08	42.90	-35.5	-36.3	24.2	0.00e+00	73	25	0	835715072	44	5940
2026-01-09 23:20:41.66	26.62	42.78	-35.2	-36.0	24.4	0.00e+00	0	25	0	837812224	44	5733
2026-01-09 23:20:42.67	26.17	42.65	-35.1	-35.9	24.6	0.00e+00	64	25	0	839909376	44	5669
2026-01-09 23:20:43.68	25.72	42.52	-34.6	-35.3	25.0	0.00e+00	0	25	0	842006528	42	5952
2026-01-09 23:20:44.69	25.27	42.39	-34.2	-35.0	25.2	0.00e+00	90	25	0	843055104	42	5701
2026-01-09 23:20:45.70	24.82	42.25	-33.6	-34.3	25.4	0.00e+00	0	25	0	845152256	40	5960
2026-01-09 23:20:46.71	24.38	42.12	-33.6	-34.4	25.4	0.00e+00	92	25	0	847249408	40	5976
2026-01-09 23:20:47.72	23.94	41.98	-34.0	-34.7	25.1	0.00e+00	75	25	0	849346560	40	6241
2026-01-09 23:20:48.73	23.51	41.85	-34.0	-34.8	25.3	0.00e+00	0	25	0	851443712	40	6248
2026-01-09 23:20:49.74	23.08	41.71	-34.2	-35.0	25.1	0.00e+00	92	25	0	852492288	40	6417
2026-01-09 23:20:50.75	22.66	41.57	-33.9	-34.6	25.5	0.00e+00	0	25	0	854589440	40	6162
2026-01-09 23:20:51.76	22.23	41.43	-33.8	-34.6	25.4	0.00e+00	40	25	0	856686592	40	6114
2026-01-09 23:20:52.77	21.81	41.28	-34.1	-34.8	25.2	0.00e+00	0	25	0	858783744	40	6307
2026-01-09 23:20:53.77	21.40	41.14	-34.6	-35.4	24.6	0.00e+00	92	25	0	860880896	40	6732
2026-01-09 23:20:54.79	20.99	41.00	-34.9	-35.7	24.6	0.00e+00	0	25	0	861929472	42	6232
2026-01-09 23:20:55.79	20.58	40.85	-35.4	-36.2	24.1	0.00e+00	0	25	0	864026624	42	6554
2026-01-09 23:20:56.80	20.18	40.70	-35.8	-36.6	24.0	0.00e+00	80	25	0	866123776	42	6898
2026-01-09 23:20:57.81	19.78	40.56	-36.7	-37.7	23.3	0.00e+00	0	25	0	868220928	44	6952
2026-01-09 23:20:58.82	19.38	40.41	-36.4	-37.4	23.6	0.00e+00	25	25	0	870318080	46	5971
2026-01-09 23:20:59.83	18.99	40.26	-36.2	-37.1	23.7	0.00e+00	0	25	0	871366656	46	5808
2026-01-09 23:21:00.84	18.60	40.11	-35.7	-36.5	23.9	0.00e+00	90	25	0	873463808	46	5424
2026-01-09 23:21:01.85	18.22	39.96	-35.8	-36.7	24.0	0.00e+00	33	25	0	875560960	44	6188
2026-01-09 23:21:02.86	17.83	39.80	-36.2	-37.1	23.8	0.00e+00	92	25	0	877658112	44	6465
2026-01-09 23:21:03.87	17.46	39.65	-36.0	-36.9	23.8	0.00e+00	76	25	0	879755264	44	6343
2026-01-09 23:21:04.88	17.08	39.50	-36.2	-37.1	23.6	0.00e+00	0	25	0	880803840	44	6523
2026-01-09 23:21:05.88	16.71	39.35	-36.8	-37.9	23.2	0.00e+00	76	25	0	882900992	44	7115
2026-01-09 23:21:06.89	16.35	39.19	-36.7	-37.8	23.3	0.00e+00	0	25	0	884998144	46	6255
2026-01-09 23:21:07.91	15.98	39.03	-36.6	-37.6	23.5	0.00e+00	85	25	0	887095296	46	6127
2026-01-09 23:21:08.91	15.62	38.88	-35.6	-36.5	24.4	0.00e+00	0	25	0	889192448	44	6086
2026-01-09 23:21:09.92	15.26	38.72	-36.2	-37.1	23.7	0.00e+00	33	25	0	890241024	44	6517
2026-01-09 23:21:10.93	14.91	38.56	-36.9	-37.9	23.0	0.00e+00	0	25	0	892338176	46	6354
2026-01-09 23:21:11.94	14.56	38.41	-37.8	-38.9	22.3	0.00e+00	0	25	0	894435328	48	6340
2026-01-09 23:21:12.95	14.21	38.25	-37.8	-38.9	22.4	0.00e+00	72	25	0	896532480	48	6321
2026-01-09 23:21:13.96	13.87	38.09	-37.2	-38.2	22.9	0.00e+00	0	25	0	898629632	48	5868
2026-01-09 23:21:14.97	13.53	37.93	-36.7	-37.6	23.2	0.00e+00	76	25	0	900726784	46	6163
2026-01-09 23:21:15.98	13.19	37.77	-36.9	-37.8	23.3	0.00e+00	0	25	0	901775360	46	6292
2026-01-09 23:21:16.99	12.86	37.61	-36.6	-37.5	23.4	0.00e+00	71	25	0	903872512	46	6048
2026-01-09 23:21:18.00	12.53	37.45	-36.5	-37.4	23.6	0.00e+00	9	25	0	905969664	46	5973
2026-01-09 23:21:19.01	12.20	37.29	-36.5	-37.4	23.2	0.00e+00	0	25	0	908066816	46	6028
2026-01-09 23:21:20.02	11.88	37.13	-37.8	-38.9	22.3	0.00e+00	92	25	0	910163968	48	6321
2026-01-09 23:21:21.02	11.56	36.97	-38.5	-39.7	21.6	0.00e+00	0	25	0	911212544	48	6936
2026-01-09 23:21:22.03	11.25	36.81	-38.4	-39.5	21.8	0.00e+00	41	25	0	913309696	48	6798
2026-01-09 23:21:23.04	10.93	36.65	-38.6	-39.7	21.7	0.00e+00	0	25	0	915406848	48	6972
2026-01-09 23:21:24.05	10.62	36.48	-38.8	-40.1	21.3	0.00e+00	86	25	0	917504000	48	7260
2026-01-09 23:21:25.06	10.31	36.32	-39.7	-41.0	20.4	0.00e+00	0	25	0	919601152	50	7246
2026-01-09 23:21:26.07	10.01	36.16	-40.3	-41.8	19.7	0.00e+00	0	25	0	920649728	52	7044
2026-01-09 23:21:27.08	9.71	36.00	-39.9	-41.4	20.3	0.00e+00	41	25	0	922746880	52	6717
2026-01-09 23:21:28.09	9.41	35.84	-39.9	-41.3	20.1	0.00e+00	0	25	0	924844032	52	6666
2026-01-09 23:21:29.10	9.11	35.67	-40.6	-42.3	19.1	0.00e+00	91	25	0	926941184	52	7467
2026-01-09 23:21:30.10	8.82	35.51	-41.3	-43.2	18.3	0.00e+00	0	25	0	929038336	54	7341
2026-01-09 23:21:31.11	8.53	35.35	-41.1	-42.8	18.9	0.00e+00	92	25	0	930086912	54	7020
2026-01-09 23:21:32.12	8.25	35.19	-39.9	-41.2	20.5	0.00e+00	0	25	0	932184064	54	5885
2026-01-09 23:21:33.13	7.96	35.03	-39.2	-40.4	21.3	0.00e+00	0	25	0	934281216	52	5982
2026-01-09 23:21:34.14	7.68	34.86	-39.2	-40.4	20.9	0.00e+00	92	25	0	936378368	52	5997
2026-01-09 23:21:35.15	7.40	34.70	-40.0	-41.5	19.9	0.00e+00	0	25	0	938475520	52	6795
2026-01-09 23:21:36.16	7.13	34.54	-41.6	-43.4	18.2	0.00e+00	72	25	0	939524096	54	7591
2026-01-09 23:21:37.17	6.85	34.38	-41.5	-43.2	18.5	0.00e+00	33	25	0	941621248	54	7421
2026-01-09 23:21:38.18	6.58	34.22	-40.9	-42.4	19.2	0.00e+00	72	25	0	943718400	54	6719
2026-01-09 23:21:39.19	6.32	34.05	-40.0	-41.4	20.1	0.00e+00	0	25	0	945815552	54	5980
2026-01-09 23:21:40.19	6.05	33.89	-39.8	-41.1	20.4	0.00e+00	9	25	0	947912704	52	6532
2026-01-09 23:21:41.20	5.79	33.73	-39.9	-41.2	20.3	0.00e+00	18	25	0	948961280	52	6610
2026-01-09 23:21:42.21	5.53	33.57	-40.2	-41.7	19.7	0.00e+00	0	25	0	951058432	52	6971
2026-01-09 23:21:43.22	5.28	33.41	-40.2	-41.7	19.8	0.00e+00	76	25	0	953155584	52	6951
2026-01-09 23:21:44.23	5.02	33.25	-40.0	-41.5	20.1	0.00e+00	0	25	0	955252736	52	6775
2026-01-09 23:21:45.24	4.77	33.09	-40.1	-41.5	20.3	0.00e+00	11	25	0	957349888	52	6793
2026-01-09 23:21:46.25	4.52	32.93	-40.3	-41.7	20.0	0.00e+00	0	25	0	958398464	52	6980
2026-01-09 23:21:47.26	4.27	32.77	-38.8	-40.0	21.5	0.00e+00	0	25	0	960495616	52	5699
2026-01-09 23:21:48.27	4.03	32.61	-37.5	-38.5	22.6	0.00e+00	7	25	0	962592768	48	6079
2026-01-09 23:21:49.28	3.79	32.45	-37.5	-38.4	22.8	0.00e+00	0	25	0	964689920	48	6030
2026-01-09 23:21:50.29	3.55	32.29	-37.6	-38.6	22.5	0.00e+00	90	25	0	966787072	48	6173
2026-01-09 23:21:51.30	3.31	32.13	-38.6	-39.8	21.5	0.00e+00	0	25	0	967835648	48	7046
2026-01-09 23:21:52.31	3.08	31.97	-39.5	-40.8	20.4	0.00e+00	90	25	0	969932800	50	7068
2026-01-09 23:21:53.32	2.84	31.81	-40.4	-42.0	19.6	0.00e+00	0	25	0	972029952	52	7230
2026-01-09 23:21:54.32	2.62	31.65	-40.6	-42.2	19.4	0.00e+00	0	25	0	974127104	54	6574
2026-01-09 23:21:55.33	2.39	31.50	-39.8	-41.2	20.4	0.00e+00	0	25	0	976224256	54	5835
2026-01-09 23:21:56.34	2.16	31.34	-39.7	-41.0	20.6	0.00e+00	0	25	0	977272832	52	6461
2026-01-09 23:21:57.35	1.94	31.18	-40.0	-41.4	20.5	0.00e+00	61	25	0	979369984	52	6711
2026-01-09 23:21:58.36	1.72	31.02	-39.4	-40.8	20.8	0.00e+00	0	25	0	981467136	52	6252
2026-01-09 23:21:59.37	1.50	30.87	-39.4	-40.8	20.6	0.00e+00	86	25	0	983564288	52	6253
2026-01-09 23:22:00.38	1.28	30.71	-39.4	-40.7	20.9	0.00e+00	0	25	0	985661440	52	6187
2026-01-09 23:22:01.39	1.07	30.56	-38.9	-40.1	21.4	0.00e+00	0	25	0	986710016	52	5768
2026-01-09 23:22:02.39	0.86	30.40	-38.1	-39.2	22.0	0.00e+00	0	25	0	988807168	50	5877
2026-01-09 23:22:03.41	0.64	30.25	-37.8	-38.8	22.3	0.00e+00	0	25	0	990904320	48	6279
2026-01-09 23:22:04.41	0.44	30.09	-37.9	-38.9	22.4	0.00e+00	38	25	0	993001472	48	6352
2026-01-09 23:22:05.42	0.23	29.94	-38.5	-39.6	21.5	0.00e+00	0	25	0	995098624	48	6913
2026-01-09 23:22:06.43	0.02	29.78	-38.7	-39.8	21.5	0.00e+00	92	25	0	997195776	48	7077
2026-01-09 23:22:07.44	359.82	29.63	-39.4	-40.7	20.4	0.00e+00	0	25	0	998244352	50	6938
2026-01-09 23:22:08.45	359.62	29.48	-39.1	-40.3	20.6	0.00e+00	0	25	0	1000341504	52	5924
2026-01-09 23:22:09.46	359.42	29.33	-38.9	-40.0	21.3	0.00e+00	0	25	0	1002438656	52	5744
2026-01-09 23:22:10.47	359.23	29.17	-38.2	-39.2	22.2	0.00e+00	0	25	0	1004535808	50	5864
2026-01-09 23:22:11.48	359.03	29.02	-37.4	-38.4	22.8	0.00e+00	29	25	0	1006632960	48	5994
2026-01-09 23:22:12.49	358.84	28.87	-36.6	-37.5	23.4	0.00e+00	0	25	0	1007681536	46	6093
2026-01-09 23:22:13.50	358.65	28.72	-36.4	-37.2	23.5	0.00e+00	89	25	0	1009778688	46	5896
2026-01-09 23:22:14.51	358.46	28.57	-36.1	-36.9	23.9	0.00e+00	0	25	0	1011875840	46	5654
2026-01-09 23:22:15.52	358.27	28.42	-36.5	-37.4	23.4	0.00e+00	0	25	0	1013972992	46	5989
2026-01-09 23:22:16.53	358.08	28.27	-37.0	-37.9	23.0	0.00e+00	0	25	0	1016070144	46	6341
2026-01-09 23:22:17.54	357.90	28.12	-37.9	-38.9	22.2	0.00e+00	0	25	0	1017118720	48	6359
2026-01-09 23:22:18.55	357.72	27.97	-39.0	-40.2	21.3	0.00e+00	67	25	0	1019215872	50	6550
2026-01-09 23:22:19.55	357.54	27.83	-39.8	-41.2	20.3	0.00e+00	0	25	0	1021313024	52	6544
2026-01-09 23:22:20.56	357.36	27.68	-39.5	-40.8	20.8	0.00e+00	83	25	0	1023410176	52	6265
2026-01-09 23:22:21.57	357.18	27.53	-38.9	-40.1	21.2	0.00e+00	0	25	0	1025507328	52	5791
2026-01-09 23:22:22.58	357.01	27.39	-38.3	-39.4	21.9	0.00e+00	0	25	0	1026555904	50	6019
2026-01-09 23:22:23.59	356.83	27.24	-37.4	-38.3	22.7	0.00e+00	0	25	0	1028653056	48	5956
2026-01-09 23:22:24.60	356.66	27.09	-37.4	-38.3	22.7	0.00e+00	0	25	0	1030750208	48	5959
2026-01-09 23:22:25.61	356.49	26.95	-37.0	-37.9	23.0	0.00e+00	33	25	0	1032847360	48	5692
2026-01-09 23:22:26.62	356.32	26.80	-36.9	-37.8	23.2	0.00e+00	0	25	0	1034944512	46	6307
2026-01-09 23:22:27.63	356.15	26.66	-36.9	-37.9	22.9	0.00e+00	79	25	0	1035993088	46	6352
2026-01-09 23:22:28.64	355.99	26.52	-37.3	-38.3	22.6	0.00e+00	0	25	0	1038090240	46	6690
2026-01-09 23:22:29.65	355.82	26.37	-37.6	-38.6	22.4	0.00e+00	77	25	0	1040187392	46	6922
2026-01-09 23:22:30.66	355.66	26.23	-37.9	-39.0	22.2	0.00e+00	0	25	0	1042284544	48	6396
2026-01-09 23:22:31.66	355.50	26.09	-38.2	-39.3	21.9	0.00e+00	0	25	0	1044381696	48	6646
2026-01-09 23:22:32.67	355.34	25.95	-38.0	-39.0	22.1	0.00e+00	0	25	0	1045430272	48	6437
2026-01-09 23:22:33.69	355.18	25.81	-38.0	-39.0	22.1	0.00e+00	0	25	0	1047527424	48	6451
2026-01-09 23:22:34.70	355.02	25.66	-37.6	-38.7	22.4	0.00e+00	66	25	0	1049624576	48	6174
2026-01-09 23:22:35.70	354.87	25.53	-37.6	-38.5	22.5	0.00e+00	0	25	0	1051721728	48	6103
2026-01-09 23:22:36.71	354.71	25.39	-37.6	-38.6	22.5	0.00e+00	92	25	0	1053818880	48	6129
2026-01-09 23:22:37.72	354.56	25.25	-37.8	-38.9	22.2	0.00e+00	0	25	0	1054867456	48	6323
2026-01-09 23:22:38.73	354.41	25.11	-38.2	-39.3	21.9	0.00e+00	0	25	0	1056964608	48	6623
2026-01-09 23:22:39.74	354.26	24.97	-38.8	-40.0	21.3	0.00e+00	0	25	0	1059061760	50	6432
2026-01-09 23:22:40.75	354.11	24.83	-38.8	-40.0	21.3	0.00e+00	0	25	0	1061158912	50	6412
2026-01-09 23:22:41.76	353.96	24.70	-38.9	-40.1	21.2	0.00e+00	24	25	0	1063256064	50	6495
2026-01-09 23:22:42.77	353.81	24.56	-38.9	-40.2	21.2	0.00e+00	0	25	0	1065353216	50	6559
2026-01-09 23:22:43.77	353.67	24.42	-38.1	-39.2	21.9	0.00e+00	91	25	0	1066401792	50	5877
2026-01-09 23:22:44.78	353.52	24.29	-37.8	-38.8	22.6	0.00e+00	0	25	0	1068498944	50	5628
2026-01-09 23:22:45.79	353.38	24.15	-37.5	-38.5	22.5	0.00e+00	0	25	0	1070596096	48	6080
2026-01-09 23:22:46.80	353.24	24.02	-37.6	-38.6	22.5	0.00e+00	0	25	0	1072693248	48	6151
2026-01-09 23:22:47.81	353.10	23.88	-37.3	-38.3	22.7	0.00e+00	0	25	0	1074790400	48	5927
2026-01-09 23:22:48.82	352.96	23.75	-37.6	-38.6	22.5	0.00e+00	19	25	0	1075838976	48	6105
2026-01-09 23:22:49.83	352.82	23.62	-37.6	-38.7	22.4	0.00e+00	0	25	0	1077936128	48	6185
2026-01-09 23:22:50.84	352.69	23.49	-37.4	-38.4	22.5	0.00e+00	69	25	0	1080033280	48	5997
2026-01-09 23:22:51.85	352.55	23.35	-37.4	-38.4	22.7	0.00e+00	0	25	0	1082130432	48	5996
2026-01-09 23:22:52.86	352.42	23.22	-37.3	-38.3	22.7	0.00e+00	0	25	0	1083179008	48	5930
2026-01-09 23:22:53.87	352.29	23.09	-37.4	-38.4	22.5	0.00e+00	0	25	0	1085276160	48	6005
2026-01-09 23:22:54.88	352.15	22.96	-37.3	-38.3	22.6	0.00e+00	0	25	0	1087373312	48	5963
2026-01-09 23:22:55.89	352.02	22.83	-37.5	-38.5	22.6	0.00e+00	11	25	0	1089470464	48	6079
2026-01-09 23:22:56.90	351.89	22.70	-37.6	-38.7	22.4	0.00e+00	0	25	0	1091567616	48	6175
2026-01-09 23:22:57.90	351.77	22.57	-37.4	-38.5	22.5	0.00e+00	70	25	0	1093664768	48	6042
2026-01-09 23:22:58.91	351.64	22.44	-37.2	-38.3	22.7	0.00e+00	0	25	0	1094713344	48	5907
2026-01-09 23:22:59.92	351.51	22.32	-37.2	-38.3	22.6	0.00e+00	0	25	0	1096810496	48	5913
2026-01-09 23:23:00.93	351.39	22.19	-36.8	-37.8	23.0	0.00e+00	0	25	0	1098907648	48	5610
2026-01-09 23:23:01.94	351.26	22.06	-37.0	-38.0	23.0	0.00e+00	0	25	0	1101004800	48	5721
2026-01-09 23:23:02.95	351.14	21.93	-36.4	-37.3	23.3	0.00e+00	0	25	0	1103101952	46	5937
2026-01-09 23:23:03.96	351.02	21.81	-36.6	-37.5	23.3	0.00e+00	0	25	0	1104150528	46	6079
2026-01-09 23:23:04.97	350.90	21.68	-36.6	-37.5	23.3	0.00e+00	67	25	0	1106247680	46	6054
2026-01-09 23:23:05.98	350.78	21.56	-36.8	-37.7	23.1	0.00e+00	0	25	0	1108344832	46	6220
2026-01-09 23:23:06.99	350.66	21.43	-37.3	-38.3	22.6	0.00e+00	69	25	0	1110441984	46	6616
2026-01-09 23:23:08.00	350.54	21.31	-37.7	-38.7	22.2	0.00e+00	0	25	0	1112539136	46	6928
2026-01-09 23:23:09.01	350.42	21.18	-38.0	-39.1	21.9	0.00e+00	0	25	0	1113587712	48	6478
2026-01-09 23:23:10.02	350.31	21.06	-38.5	-39.6	21.5	0.00e+00	37	25	0	1115684864	48	6923
2026-01-09 23:23:11.03	350.19	20.94	-38.9	-40.1	21.2	0.00e+00	0	25	0	1117782016	50	6521
2026-01-09 23:23:12.04	350.08	20.82	-38.8	-40.0	21.2	0.00e+00	27	25	0	1119879168	50	6447
2026-01-09 23:23:13.05	349.96	20.69	-38.8	-40.0	21.3	0.00e+00	0	25	0	1121976320	50	6393
2026-01-09 23:23:14.06	349.85	20.57	-38.4	-39.5	21.7	0.00e+00	92	25	0	1123024896	50	6078
2026-01-09 23:23:15.06	349.74	20.45	-38.1	-39.2	21.9	0.00e+00	0	25	0	1125122048	50	5830
2026-01-09 23:23:16.07	349.63	20.33	-38.2	-39.3	21.9	0.00e+00	0	25	0	1127219200	50	5947
2026-01-09 23:23:17.08	349.52	20.21	-37.9	-39.0	22.2	0.00e+00	0	25	0	1129316352	50	5699
2026-01-09 23:23:18.09	349.41	20.09	-37.8	-38.8	22.1	0.00e+00	0	25	0	1131413504	48	6302
2026-01-09 23:23:19.10	349.30	19.97	-37.8	-38.9	22.1	0.00e+00	44	25	0	1132462080	48	6339
2026-01-09 23:23:20.11	349.19	19.85	-37.8	-38.8	22.2	0.00e+00	0	25	0	1134559232	48	6296
2026-01-09 23:23:21.12	349.09	19.74	-37.7	-38.8	22.2	0.00e+00	95	25	0	1136656384	48	6271
2026-01-09 23:23:22.13	348.98	19.62	-37.7	-38.7	22.3	0.00e+00	0	25	0	1138753536	48	6219
2026-01-09 23:23:23.14	348.88	19.50	-37.7	-38.7	22.3	0.00e+00	0	25	0	1140850688	48	6228
2026-01-09 23:23:24.15	348.77	19.38	-37.6	-38.6	22.3	0.00e+00	0	25	0	1141899264	48	6139
2026-01-09 23:23:25.16	348.67	19.27	-37.7	-38.7	22.3	0.00e+00	0	25	0	1143996416	48	6201
2026-01-09 23:23:26.17	348.57	19.15	-37.4	-38.4	22.5	0.00e+00	67	25	0	1146093568	48	6018
2026-01-09 23:23:27.18	348.47	19.04	-37.4	-38.4	22.5	0.00e+00	0	25	0	1148190720	48	5988
2026-01-09 23:23:28.19	348.37	18.92	-37.3	-38.2	22.6	0.00e+00	79	25	0	1150287872	48	5888
2026-01-09 23:23:29.19	348.27	18.81	-37.3	-38.3	22.5	0.00e+00	0	25	0	1151336448	48	5930
2026-01-09 23:23:30.20	348.17	18.69	-37.2	-38.1	22.6	0.00e+00	2	25	0	1153433600	48	5816
2026-01-09 23:23:31.21	348.07	18.58	-37.1	-38.1	22.8	0.00e+00	0	25	0	1155530752	48	5783
2026-01-09 23:23:32.22	347.97	18.47	-37.0	-38.0	22.8	0.00e+00	0	25	0	1157627904	48	5716
2026-01-09 23:23:33.23	347.88	18.35	-37.0	-38.0	22.8	0.00e+00	0	25	0	1159725056	48	5735
2026-01-09 23:23:34.24	347.78	18.24	-36.9	-37.9	22.8	0.00e+00	0	25	0	1161822208	48	5672
2026-01-09 23:23:35.25	347.69	18.13	-37.0	-38.0	22.9	0.00e+00	88	25	0	1162870784	48	5696
2026-01-09 23:23:36.26	347.59	18.02	-37.0	-38.0	22.7	0.00e+00	0	25	0	1164967936	48	5746
2026-01-09 23:23:37.27	347.50	17.91	-37.0	-38.0	22.7	0.00e+00	0	25	0	1167065088	48	5700
2026-01-09 23:23:38.28	347.40	17.80	-37.3	-38.3	22.6	0.00e+00	0	25	0	1169162240	48	5914
2026-01-09 23:23:39.29	347.31	17.69	-37.2	-38.2	22.5	0.00e+00	0	25	0	1171259392	48	5894
2026-01-09 23:23:40.30	347.22	17.58	-37.4	-38.4	22.4	0.00e+00	9	25	0	1172307968	48	5978
2026-01-09 23:23:41.31	347.13	17.47	-37.6	-38.7	22.2	0.00e+00	0	25	0	1174405120	48	6187
2026-01-09 23:23:42.32	347.04	17.36	-37.6	-38.6	22.3	0.00e+00	66	25	0	1176502272	48	6154
2026-01-09 23:23:43.33	346.95	17.25	-37.9	-39.0	22.0	0.00e+00	0	25	0	1178599424	48	6392
2026-01-09 23:23:44.34	346.86	17.14	-38.0	-39.1	22.0	0.00e+00	92	25	0	1180696576	48	6491
2026-01-09 23:23:45.34	346.77	17.03	-38.0	-39.1	21.9	0.00e+00	0	25	0	1181745152	48	6503
2026-01-09 23:23:46.35	346.69	16.93	-37.9	-38.9	22.0	0.00e+00	0	25	0	1183842304	48	6380
2026-01-09 23:23:47.36	346.60	16.82	-38.0	-39.1	21.9	0.00e+00	0	25	0	1185939456	48	6475
2026-01-09 23:23:48.37	346.51	16.71	-37.7	-38.7	22.1	0.00e+00	0	25	0	1188036608	48	6222
2026-01-09 23:23:49.38	346.43	16.61	-37.6	-38.6	22.3	0.00e+00	69	25	0	1190133760	48	6137
2026-01-09 23:23:50.39	346.34	16.50	-37.6	-38.6	22.3	0.00e+00	0	25	0	1191182336	48	6171
2026-01-09 23:23:51.40	346.26	16.39	-37.3	-38.3	22.6	0.00e+00	69	25	0	1193279488	48	5899
2026-01-09 23:23:52.41	346.17	16.29	-37.0	-37.9	22.8	0.00e+00	0	25	0	1195376640	48	5683
2026-01-09 23:23:53.42	346.09	16.18	-36.9	-37.9	22.9	0.00e+00	0	25	0	1197473792	48	5666
2026-01-09 23:23:54.43	346.01	16.08	-36.9	-37.8	23.0	0.00e+00	0	25	0	1199570944	46	6296
2026-01-09 23:23:55.44	345.92	15.98	-36.8	-37.8	23.0	0.00e+00	0	25	0	1200619520	46	6284
2026-01-09 23:23:56.45	345.84	15.87	-36.8	-37.8	22.9	0.00e+00	13	25	0	1202716672	46	6252
