passes_logs/2026/01/09/R4.6S_Anadyr/R4.6S_Anadyr__20260109_035713_FENGYUN_3E_rec.log

#Pass ID: 20260109_035713_FENGYUN 3E
#Satellite: FENGYUN 3E
#Configuration: FENGYUN 3E
#almurnet v.1.7.20251203
#Start time: 2026-01-09 03:57:16

#Version: 2.2.20231116
#Station: R4.6S_Anadyr
#Location: 177.4865 lon 64.73178 lat
#TLE: 1 49008U 21062A   26008.31124991 -.00000020  00000+0  11209-4 0  9997
#TLE: 2 49008  98.7482  13.5177 0001702 150.1462 209.9812 14.19884205233892

#Time	Az	El	Level	Level2	SNR	BER	BlckErr	Temp	State	Recorded	gain1	gain2
2026-01-09 03:57:16.97	142.81	0.19	-47.9	-57.7	3.3	8.40e-01	0	31	0	0	60	27647
2026-01-09 03:57:17.97	142.79	0.25	-47.9	-59.1	3.5	8.46e-01	0	31	104	0	60	32618
2026-01-09 03:57:18.98	142.78	0.31	-47.9	-59.2	3.6	8.46e-01	0	31	104	0	60	32932
2026-01-09 03:57:19.99	142.77	0.37	-48.0	-59.2	3.6	8.45e-01	0	31	104	0	60	32851
2026-01-09 03:57:21.00	142.76	0.43	-48.0	-59.2	3.6	8.46e-01	0	31	104	0	60	32789
2026-01-09 03:57:22.01	142.75	0.49	-47.9	-59.1	3.6	8.45e-01	0	31	104	0	60	32694
2026-01-09 03:57:23.02	142.73	0.55	-47.9	-59.1	3.6	8.45e-01	0	31	104	0	60	32483
2026-01-09 03:57:24.03	142.72	0.61	-47.7	-58.9	3.6	8.45e-01	0	31	104	0	60	31935
2026-01-09 03:57:25.04	142.71	0.68	-47.6	-58.8	3.6	8.45e-01	0	31	104	0	60	31505
2026-01-09 03:57:26.05	142.70	0.74	-47.5	-58.7	3.6	8.45e-01	0	31	104	0	60	31039
2026-01-09 03:57:27.06	142.68	0.80	-47.1	-58.3	3.6	8.46e-01	0	31	104	0	60	29675
2026-01-09 03:57:28.07	142.67	0.86	-46.7	-57.9	3.6	8.45e-01	0	31	104	0	60	28488
2026-01-09 03:57:29.07	142.66	0.92	-45.8	-57.1	3.6	8.46e-01	0	31	104	0	60	25759
2026-01-09 03:57:30.08	142.64	0.99	-44.8	-56.1	3.6	8.46e-01	0	31	104	0	60	23190
2026-01-09 03:57:31.09	142.63	1.05	-44.8	-56.2	3.6	8.45e-01	0	31	104	0	60	23239
2026-01-09 03:57:32.10	142.62	1.11	-44.8	-55.5	3.6	8.46e-01	0	31	104	0	60	21578
2026-01-09 03:57:33.11	142.61	1.17	-44.8	-55.5	3.6	8.45e-01	0	31	104	0	60	21573
2026-01-09 03:57:34.12	142.59	1.24	-44.8	-55.5	3.6	8.44e-01	0	31	104	0	60	21562
2026-01-09 03:57:35.13	142.58	1.30	-44.7	-55.5	3.6	8.45e-01	0	31	104	0	60	21641
2026-01-09 03:57:36.14	142.57	1.36	-44.8	-55.5	3.5	8.44e-01	0	31	104	0	60	21470
2026-01-09 03:57:37.15	142.55	1.43	-44.8	-56.1	3.6	8.45e-01	0	32	104	0	60	23190
2026-01-09 03:57:38.16	142.54	1.49	-44.7	-55.5	3.6	8.44e-01	0	31	104	0	60	21466
2026-01-09 03:57:39.17	142.53	1.55	-44.7	-55.5	3.6	8.45e-01	0	31	104	0	60	21432
2026-01-09 03:57:40.18	142.51	1.62	-44.7	-55.4	3.6	8.44e-01	0	31	104	0	60	21367
2026-01-09 03:57:41.19	142.50	1.68	-44.7	-55.4	3.6	8.45e-01	0	32	104	0	60	21318
2026-01-09 03:57:42.20	142.49	1.74	-44.7	-55.4	3.6	8.46e-01	0	31	104	0	60	21312
2026-01-09 03:57:43.21	142.47	1.81	-44.7	-55.5	3.6	8.46e-01	0	31	104	0	60	21461
2026-01-09 03:57:44.22	142.46	1.87	-44.7	-55.5	3.6	8.47e-01	0	31	104	0	60	21427
2026-01-09 03:57:45.23	142.44	1.94	-44.7	-55.5	3.6	8.45e-01	0	32	104	0	60	21565
2026-01-09 03:57:46.24	142.43	2.00	-44.7	-55.5	3.6	8.45e-01	0	32	104	0	60	21484
2026-01-09 03:57:47.25	142.42	2.07	-44.7	-55.5	3.6	8.44e-01	0	32	104	0	60	21538
2026-01-09 03:57:48.26	142.40	2.13	-44.8	-56.1	3.6	8.45e-01	0	32	104	0	60	23192
2026-01-09 03:57:49.27	142.39	2.19	-44.7	-55.5	3.6	8.46e-01	0	32	104	0	60	21494
2026-01-09 03:57:50.28	142.37	2.26	-44.7	-55.5	3.6	8.47e-01	0	32	104	0	60	21430
2026-01-09 03:57:51.29	142.36	2.33	-44.7	-55.5	3.6	8.46e-01	0	32	104	0	60	21481
2026-01-09 03:57:52.30	142.35	2.39	-44.7	-55.5	3.6	8.46e-01	0	32	104	0	60	21456
2026-01-09 03:57:53.31	142.33	2.46	-44.7	-55.4	3.5	8.45e-01	0	32	104	0	60	21268
2026-01-09 03:57:54.32	142.32	2.52	-44.8	-56.0	3.6	8.45e-01	0	32	104	0	60	22686
2026-01-09 03:57:55.33	142.30	2.59	-44.7	-55.4	3.6	8.45e-01	0	32	104	0	60	21205
2026-01-09 03:57:56.34	142.29	2.65	-44.6	-55.0	3.6	8.45e-01	0	32	104	0	60	20382
2026-01-09 03:57:57.35	142.27	2.72	-44.6	-55.0	3.6	8.46e-01	0	32	104	0	60	20396
2026-01-09 03:57:58.36	142.26	2.79	-44.5	-54.8	3.6	8.45e-01	0	32	104	0	60	19972
2026-01-09 03:57:59.37	142.24	2.85	-44.6	-54.3	3.6	8.44e-01	0	32	104	0	60	18749
2026-01-09 03:58:00.37	142.23	2.92	-43.4	-53.9	3.6	8.45e-01	0	32	104	0	60	17912
2026-01-09 03:58:01.37	142.21	2.98	-43.9	-53.0	3.6	8.43e-01	0	32	104	0	60	16205
2026-01-09 03:58:02.38	142.20	3.05	-44.1	-51.2	3.9	8.38e-01	0	32	0	0	60	13111
2026-01-09 03:58:03.39	142.18	3.12	-43.9	-50.5	4.3	8.43e-01	0	32	104	0	60	12057
2026-01-09 03:58:04.40	142.17	3.19	-43.6	-48.8	4.8	7.56e-01	0	32	0	0	60	9997
2026-01-09 03:58:05.41	142.15	3.25	-43.5	-48.1	6.0	6.29e-01	0	32	0	1048576	60	9190
2026-01-09 03:58:06.41	142.14	3.32	-43.1	-47.7	6.0	2.97e-01	0	32	0	8388608	60	8721
2026-01-09 03:58:07.42	142.12	3.39	-43.0	-47.1	6.6	1.81e-01	0	32	0	15728640	60	8179
2026-01-09 03:58:08.43	142.11	3.46	-43.0	-46.8	6.8	1.35e-01	0	32	0	23068672	60	7893
2026-01-09 03:58:09.44	142.09	3.52	-42.8	-46.5	7.4	1.19e-01	0	32	0	30408704	60	7607
2026-01-09 03:58:10.45	142.07	3.59	-42.7	-46.2	7.4	1.05e-01	0	32	0	37748736	58	8305
2026-01-09 03:58:11.46	142.06	3.66	-42.8	-46.4	7.3	6.22e-02	0	32	0	45088768	58	8477
2026-01-09 03:58:12.47	142.04	3.73	-43.0	-46.8	7.0	1.30e-01	0	32	0	52428800	58	8897
2026-01-09 03:58:13.48	142.03	3.80	-45.0	-55.9	3.6	8.46e-01	0	32	104	54525952	60	22648
2026-01-09 03:58:14.49	142.01	3.87	-40.3	-42.3	12.2	1.81e-04	0	32	104	54525952	54	6688
2026-01-09 03:58:15.50	141.99	3.94	-44.4	-53.0	3.6	8.45e-01	0	32	104	55574528	60	16238
2026-01-09 03:58:16.51	141.98	4.00	-44.4	-50.6	5.3	8.39e-01	0	32	0	55574528	60	12225
2026-01-09 03:58:17.52	141.96	4.07	-44.3	-50.0	4.4	8.02e-01	0	32	0	59768832	60	11467
2026-01-09 03:58:18.53	141.94	4.14	-42.3	-45.1	9.3	2.11e-02	0	32	0	65011712	58	7324
2026-01-09 03:58:19.53	141.93	4.21	-41.6	-44.1	10.7	4.53e-03	0	32	0	73400320	56	7266
2026-01-09 03:58:20.54	141.91	4.28	-41.0	-43.2	11.5	1.39e-03	0	32	0	80740352	56	6545
2026-01-09 03:58:21.55	141.89	4.35	-40.4	-42.2	12.1	5.58e-04	0	32	0	87031808	54	6610
2026-01-09 03:58:22.57	141.88	4.42	-40.4	-42.3	12.7	8.92e-05	0	32	0	94371840	54	6667
2026-01-09 03:58:23.57	141.86	4.49	-40.3	-42.1	12.7	1.53e-04	0	32	0	101711872	54	6482
2026-01-09 03:58:24.58	141.84	4.56	-40.2	-42.0	12.9	4.00e-05	0	32	0	109051904	54	6421
2026-01-09 03:58:25.59	141.83	4.63	-40.4	-42.2	12.8	6.75e-05	0	32	0	116391936	54	6580
2026-01-09 03:58:26.60	141.81	4.71	-40.2	-42.0	13.2	3.20e-05	0	32	0	123731968	54	6458
2026-01-09 03:58:27.61	141.79	4.78	-40.3	-42.1	13.0	3.77e-05	0	32	0	131072000	54	6511
2026-01-09 03:58:28.62	141.77	4.85	-40.2	-41.9	13.3	3.54e-05	0	32	0	138412032	54	6376
2026-01-09 03:58:29.63	141.76	4.92	-40.3	-42.1	12.9	4.80e-05	0	32	0	145752064	54	6516
2026-01-09 03:58:30.64	141.74	4.99	-40.4	-42.2	13.0	5.95e-05	0	32	0	153092096	54	6587
2026-01-09 03:58:31.65	141.72	5.06	-40.2	-42.0	13.2	4.34e-05	0	32	0	160432128	54	6439
2026-01-09 03:58:32.66	141.70	5.14	-40.2	-41.9	13.3	3.20e-05	0	32	0	167772160	54	6380
2026-01-09 03:58:33.67	141.68	5.21	-40.3	-42.1	13.0	1.94e-05	0	32	0	175112192	54	6503
2026-01-09 03:58:34.68	141.67	5.28	-40.3	-42.1	13.0	4.69e-05	0	32	0	182452224	54	6524
2026-01-09 03:58:35.69	141.65	5.35	-40.1	-41.9	13.3	1.02e-05	0	32	0	189792256	54	6324
2026-01-09 03:58:36.70	141.63	5.43	-40.1	-41.8	13.4	1.83e-05	0	32	0	197132288	54	6253
2026-01-09 03:58:37.71	141.61	5.50	-40.1	-41.9	13.3	1.71e-05	0	32	0	204472320	54	6335
2026-01-09 03:58:38.72	141.59	5.57	-40.2	-41.9	13.4	2.28e-05	0	32	0	211812352	54	6354
2026-01-09 03:58:39.73	141.57	5.65	-40.1	-41.8	13.5	2.51e-05	0	32	0	219152384	54	6313
2026-01-09 03:58:40.74	141.55	5.72	-39.9	-41.6	13.8	1.25e-05	0	32	0	226492416	54	6109
2026-01-09 03:58:41.75	141.54	5.79	-40.0	-41.7	13.7	3.40e-06	0	32	0	233832448	54	6190
2026-01-09 03:58:42.76	141.52	5.87	-40.1	-41.8	13.5	1.48e-05	0	32	0	240123904	54	6291
2026-01-09 03:58:43.77	141.50	5.94	-39.8	-41.4	14.0	2.20e-06	0	32	0	247463936	54	5984
2026-01-09 03:58:44.78	141.48	6.02	-39.8	-41.4	14.0	9.10e-06	0	32	0	255852544	54	6018
2026-01-09 03:58:45.79	141.46	6.09	-39.7	-41.2	14.3	4.50e-06	0	32	0	262144000	52	6542
2026-01-09 03:58:46.80	141.44	6.17	-39.7	-41.2	14.4	4.50e-06	0	32	0	269484032	52	6555
2026-01-09 03:58:47.81	141.42	6.24	-39.4	-40.8	14.7	0.00e+00	0	32	0	276824064	52	6293
2026-01-09 03:58:48.81	141.40	6.32	-39.3	-40.7	14.9	0.00e+00	0	32	0	284164096	52	6236
2026-01-09 03:58:49.82	141.38	6.39	-39.2	-40.6	15.0	0.00e+00	0	32	0	291504128	52	6153
2026-01-09 03:58:50.83	141.36	6.47	-39.0	-40.3	15.3	0.00e+00	0	32	0	298844160	52	5948
2026-01-09 03:58:51.84	141.34	6.54	-38.7	-40.0	15.5	0.00e+00	0	32	0	306184192	52	5708
2026-01-09 03:58:52.85	141.32	6.62	-38.6	-39.8	15.6	0.00e+00	0	32	0	313524224	50	6311
2026-01-09 03:58:53.86	141.30	6.70	-38.6	-39.8	15.6	0.00e+00	0	32	0	320864256	50	6295
2026-01-09 03:58:54.87	141.28	6.77	-38.4	-39.6	15.9	0.00e+00	0	32	0	328204288	50	6145
2026-01-09 03:58:55.88	141.26	6.85	-38.4	-39.7	15.8	0.00e+00	0	32	0	335544320	50	6212
2026-01-09 03:58:56.89	141.24	6.93	-38.4	-39.7	16.0	0.00e+00	0	32	0	342884352	50	6195
2026-01-09 03:58:57.90	141.22	7.01	-38.2	-39.4	16.4	0.00e+00	0	32	0	350224384	50	5973
2026-01-09 03:58:58.91	141.20	7.08	-38.1	-39.3	16.4	0.00e+00	0	32	0	357564416	50	5905
2026-01-09 03:58:59.91	141.18	7.16	-37.9	-39.0	16.7	0.00e+00	0	32	0	363855872	50	5754
2026-01-09 03:59:00.92	141.15	7.24	-37.6	-38.6	17.1	0.00e+00	0	32	0	371195904	48	6134
2026-01-09 03:59:01.93	141.13	7.32	-37.2	-38.1	17.6	0.00e+00	0	32	0	379584512	48	5815
2026-01-09 03:59:02.94	141.11	7.40	-37.1	-38.1	17.7	0.00e+00	0	32	0	385875968	48	5772
2026-01-09 03:59:03.95	141.09	7.47	-37.0	-37.9	17.9	0.00e+00	0	32	0	393216000	48	5675
2026-01-09 03:59:04.96	141.07	7.55	-37.1	-38.0	17.8	0.00e+00	0	32	0	400556032	48	5744
2026-01-09 03:59:05.97	141.05	7.63	-36.7	-37.6	18.3	0.00e+00	0	32	0	407896064	46	6118
2026-01-09 03:59:06.98	141.03	7.71	-36.5	-37.3	18.5	0.00e+00	0	32	0	415236096	46	5931
2026-01-09 03:59:07.99	141.00	7.79	-36.5	-37.3	18.6	0.00e+00	0	32	0	422576128	46	5930
2026-01-09 03:59:09.00	140.98	7.87	-36.3	-37.1	18.7	0.00e+00	0	32	0	429916160	46	5811
2026-01-09 03:59:10.01	140.96	7.95	-36.1	-36.9	18.9	0.00e+00	0	32	0	437256192	46	5688
2026-01-09 03:59:11.02	140.94	8.03	-36.0	-36.8	19.1	0.00e+00	0	32	0	444596224	46	5613
2026-01-09 03:59:12.03	140.91	8.11	-35.9	-36.7	19.3	0.00e+00	0	32	0	451936256	46	5539
2026-01-09 03:59:13.04	140.89	8.20	-35.5	-36.2	19.7	0.00e+00	0	32	0	459276288	44	5896
2026-01-09 03:59:14.04	140.87	8.28	-35.3	-36.0	19.9	0.00e+00	0	32	0	466616320	44	5745
2026-01-09 03:59:15.05	140.84	8.36	-35.2	-35.9	20.1	0.00e+00	0	32	0	473956352	44	5659
2026-01-09 03:59:16.06	140.82	8.44	-35.1	-35.8	20.2	0.00e+00	0	32	0	481296384	44	5575
2026-01-09 03:59:17.07	140.80	8.52	-35.2	-35.9	20.1	0.00e+00	0	32	0	488636416	44	5650
2026-01-09 03:59:18.08	140.77	8.60	-34.9	-35.6	20.5	0.00e+00	0	32	0	495976448	42	6112
2026-01-09 03:59:19.09	140.75	8.69	-35.0	-35.7	20.5	0.00e+00	0	32	0	503316480	42	6209
2026-01-09 03:59:20.10	140.73	8.77	-34.6	-35.3	20.9	0.00e+00	0	32	0	510656512	42	5914
2026-01-09 03:59:21.11	140.70	8.85	-34.4	-35.0	21.1	0.00e+00	0	32	0	516947968	42	5759
2026-01-09 03:59:22.12	140.68	8.94	-34.3	-34.9	21.3	0.00e+00	0	32	0	524288000	42	5678
2026-01-09 03:59:23.13	140.65	9.02	-34.1	-34.8	21.4	0.00e+00	0	32	0	531628032	42	5592
2026-01-09 03:59:24.14	140.63	9.10	-34.0	-34.7	21.6	0.00e+00	0	32	0	538968064	42	5522
2026-01-09 03:59:25.15	140.60	9.19	-34.1	-34.7	21.6	0.00e+00	0	32	0	546308096	42	5557
2026-01-09 03:59:26.15	140.58	9.27	-33.9	-34.5	21.9	0.00e+00	0	32	0	553648128	42	5434
2026-01-09 03:59:27.17	140.56	9.36	-33.8	-34.4	22.1	0.00e+00	0	32	0	560988160	42	5355
2026-01-09 03:59:28.17	140.53	9.44	-33.7	-34.3	22.1	0.00e+00	0	32	0	568328192	40	5953
2026-01-09 03:59:29.18	140.51	9.53	-33.7	-34.3	22.1	0.00e+00	0	32	0	575668224	40	5947
2026-01-09 03:59:30.19	140.48	9.61	-33.8	-34.4	22.0	0.00e+00	0	32	0	583008256	40	6011
2026-01-09 03:59:31.21	140.45	9.70	-33.5	-34.0	22.4	0.00e+00	0	32	0	590348288	40	5760
2026-01-09 03:59:32.22	140.43	9.79	-33.4	-34.0	22.4	0.00e+00	0	32	0	597688320	40	5761
2026-01-09 03:59:33.22	140.40	9.87	-33.6	-34.2	22.2	0.00e+00	0	32	0	605028352	40	5856
2026-01-09 03:59:34.23	140.38	9.96	-33.5	-34.1	22.3	0.00e+00	0	32	0	612368384	40	5827
2026-01-09 03:59:35.25	140.35	10.05	-33.4	-34.0	22.6	0.00e+00	0	32	0	619708416	40	5732
2026-01-09 03:59:36.25	140.32	10.13	-33.5	-34.1	22.4	0.00e+00	0	32	0	627048448	40	5796
2026-01-09 03:59:37.27	140.30	10.22	-33.6	-34.2	22.3	0.00e+00	0	32	0	634388480	40	5852
2026-01-09 03:59:38.28	140.27	10.31	-33.3	-33.9	22.6	0.00e+00	0	32	0	641728512	40	5657
2026-01-09 03:59:39.29	140.24	10.40	-33.4	-34.0	22.5	0.00e+00	0	32	0	649068544	40	5734
2026-01-09 03:59:40.29	140.22	10.49	-33.1	-33.7	22.8	0.00e+00	0	32	0	656408576	40	5563
2026-01-09 03:59:41.30	140.19	10.58	-33.1	-33.7	22.8	0.00e+00	0	32	0	663748608	40	5509
2026-01-09 03:59:42.31	140.16	10.66	-33.2	-33.7	22.8	0.00e+00	0	32	0	670040064	40	5566
2026-01-09 03:59:43.32	140.13	10.75	-32.9	-33.5	23.0	0.00e+00	0	32	0	677380096	40	5384
2026-01-09 03:59:44.33	140.10	10.84	-32.8	-33.4	23.1	0.00e+00	0	32	0	684720128	40	5351
2026-01-09 03:59:45.34	140.08	10.93	-32.8	-33.4	23.2	0.00e+00	0	32	0	692060160	40	5320
2026-01-09 03:59:46.35	140.05	11.02	-32.7	-33.3	23.1	0.00e+00	0	32	0	699400192	38	5929
2026-01-09 03:59:47.36	140.02	11.12	-32.8	-33.4	23.2	0.00e+00	0	32	0	706740224	38	5984
2026-01-09 03:59:48.37	139.99	11.21	-32.8	-33.4	23.2	0.00e+00	0	32	0	714080256	38	5967
2026-01-09 03:59:49.37	139.96	11.30	-32.6	-33.2	23.5	0.00e+00	0	32	0	721420288	38	5846
2026-01-09 03:59:50.38	139.93	11.39	-32.4	-32.9	23.8	0.00e+00	0	32	0	728760320	38	5681
2026-01-09 03:59:51.39	139.90	11.48	-32.3	-32.8	23.9	0.00e+00	0	32	0	736100352	38	5613
2026-01-09 03:59:52.40	139.87	11.57	-32.4	-33.0	23.7	0.00e+00	0	32	0	743440384	38	5714
2026-01-09 03:59:53.41	139.84	11.67	-32.3	-32.9	23.9	0.00e+00	0	32	0	750780416	38	5633
2026-01-09 03:59:54.41	139.81	11.76	-32.1	-32.6	24.2	0.00e+00	0	32	0	758120448	38	5487
2026-01-09 03:59:55.42	139.78	11.85	-31.9	-32.5	24.3	0.00e+00	0	32	0	765460480	38	5393
2026-01-09 03:59:56.43	139.75	11.95	-32.0	-32.6	24.4	0.00e+00	0	32	0	772800512	38	5460
2026-01-09 03:59:57.44	139.72	12.04	-32.0	-32.6	24.4	0.00e+00	0	32	0	780140544	38	5443
2026-01-09 03:59:58.45	139.69	12.14	-31.7	-32.2	24.7	0.00e+00	0	32	0	787480576	36	5888
2026-01-09 03:59:59.46	139.66	12.23	-31.7	-32.3	24.7	0.00e+00	0	32	0	793772032	36	5911
2026-01-09 04:00:00.46	139.63	12.33	-31.5	-32.0	24.8	0.00e+00	0	32	0	801112064	36	5721
2026-01-09 04:00:01.47	139.60	12.42	-31.4	-31.9	25.0	0.00e+00	0	32	0	808452096	36	5654
2026-01-09 04:00:02.48	139.57	12.52	-31.3	-31.9	25.1	0.00e+00	0	32	0	815792128	36	5633
2026-01-09 04:00:03.49	139.54	12.61	-31.1	-31.6	25.3	0.00e+00	0	32	0	823132160	36	5480
2026-01-09 04:00:04.50	139.50	12.71	-31.1	-31.6	25.3	0.00e+00	0	32	0	830472192	36	5483
2026-01-09 04:00:05.51	139.47	12.81	-31.1	-31.6	25.3	0.00e+00	0	32	0	837812224	36	5450
2026-01-09 04:00:06.52	139.44	12.91	-31.1	-31.6	25.3	0.00e+00	0	32	0	845152256	36	5487
2026-01-09 04:00:07.53	139.41	13.00	-31.1	-31.7	25.3	0.00e+00	0	32	0	852492288	36	5508
2026-01-09 04:00:08.54	139.37	13.10	-31.0	-31.5	25.5	0.00e+00	0	32	0	859832320	36	5416
2026-01-09 04:00:09.55	139.34	13.20	-30.6	-31.1	25.7	0.00e+00	0	32	0	867172352	34	5803
2026-01-09 04:00:10.56	139.31	13.30	-30.5	-31.0	25.8	0.00e+00	0	32	0	874512384	34	5758
2026-01-09 04:00:11.57	139.27	13.40	-30.6	-31.1	25.8	0.00e+00	0	32	0	881852416	34	5803
2026-01-09 04:00:12.58	139.24	13.50	-30.5	-31.0	26.0	0.00e+00	0	32	0	889192448	34	5715
2026-01-09 04:00:13.59	139.20	13.60	-30.3	-30.8	26.1	0.00e+00	0	32	0	896532480	34	5618
2026-01-09 04:00:14.60	139.17	13.70	-30.3	-30.8	26.0	0.00e+00	0	32	0	903872512	34	5628
2026-01-09 04:00:15.61	139.13	13.80	-30.2	-30.7	26.2	0.00e+00	0	32	0	911212544	34	5547
2026-01-09 04:00:16.62	139.10	13.91	-30.2	-30.7	26.2	0.00e+00	0	32	0	918552576	34	5556
2026-01-09 04:00:17.63	139.06	14.01	-30.2	-30.7	26.2	0.00e+00	0	32	0	924844032	34	5557
2026-01-09 04:00:18.64	139.03	14.11	-30.3	-30.8	26.1	0.00e+00	0	32	0	933232640	34	5604
2026-01-09 04:00:19.65	138.99	14.21	-30.4	-30.9	26.1	0.00e+00	0	32	0	940572672	34	5633
2026-01-09 04:00:20.66	138.96	14.32	-30.2	-30.7	26.3	0.00e+00	0	32	0	946864128	34	5532
2026-01-09 04:00:21.67	138.92	14.42	-30.2	-30.7	26.2	0.00e+00	0	32	0	954204160	34	5515
2026-01-09 04:00:22.68	138.88	14.52	-30.1	-30.6	26.3	0.00e+00	0	32	0	961544192	34	5490
2026-01-09 04:00:23.69	138.85	14.63	-30.1	-30.6	26.3	0.00e+00	0	32	0	968884224	34	5443
2026-01-09 04:00:24.70	138.81	14.73	-30.0	-30.5	26.3	0.00e+00	0	32	0	976224256	34	5422
2026-01-09 04:00:25.71	138.77	14.84	-29.9	-30.4	26.4	0.00e+00	0	32	0	983564288	34	5340
2026-01-09 04:00:26.72	138.73	14.94	-30.0	-30.5	26.5	0.00e+00	0	32	0	990904320	34	5403
2026-01-09 04:00:27.73	138.69	15.05	-29.9	-30.4	26.5	0.00e+00	0	32	0	998244352	34	5353
2026-01-09 04:00:28.74	138.66	15.16	-30.1	-30.6	26.4	0.00e+00	0	32	0	1005584384	34	5454
2026-01-09 04:00:29.75	138.62	15.27	-30.0	-30.5	26.5	0.00e+00	0	32	0	1012924416	34	5425
2026-01-09 04:00:30.76	138.58	15.37	-30.0	-30.5	26.4	0.00e+00	0	32	0	1020264448	34	5425
2026-01-09 04:00:31.77	138.54	15.48	-30.0	-30.5	26.4	0.00e+00	0	32	0	1027604480	34	5402
2026-01-09 04:00:32.78	138.50	15.59	-30.0	-30.4	26.5	0.00e+00	0	32	0	1034944512	34	5375
2026-01-09 04:00:33.79	138.46	15.70	-29.9	-30.4	26.5	0.00e+00	0	32	0	1042284544	34	5344
2026-01-09 04:00:34.80	138.42	15.81	-29.8	-30.3	26.6	0.00e+00	0	32	0	1049624576	34	5268
2026-01-09 04:00:35.81	138.38	15.92	-30.0	-30.5	26.5	0.00e+00	0	32	0	1056964608	34	5383
2026-01-09 04:00:36.82	138.34	16.03	-29.9	-30.4	26.6	0.00e+00	0	32	0	1064304640	34	5327
2026-01-09 04:00:37.83	138.30	16.14	-29.9	-30.4	26.5	0.00e+00	0	32	0	1070596096	34	5359
2026-01-09 04:00:38.83	138.26	16.25	-29.9	-30.3	26.6	0.00e+00	0	32	0	1078984704	34	5314
2026-01-09 04:00:39.84	138.21	16.36	-30.1	-30.6	26.5	0.00e+00	0	32	0	1086324736	34	5460
2026-01-09 04:00:40.85	138.17	16.48	-30.0	-30.5	26.6	0.00e+00	0	32	0	1092616192	34	5408
2026-01-09 04:00:41.86	138.13	16.59	-29.9	-30.4	26.5	0.00e+00	0	32	0	1099956224	34	5333
2026-01-09 04:00:42.87	138.09	16.70	-29.8	-30.3	26.6	0.00e+00	0	32	0	1107296256	34	5299
2026-01-09 04:00:43.88	138.04	16.82	-29.9	-30.4	26.7	0.00e+00	0	32	0	1114636288	34	5328
2026-01-09 04:00:44.89	138.00	16.93	-29.7	-30.2	26.7	0.00e+00	0	32	0	1121976320	32	5872
2026-01-09 04:00:45.89	137.95	17.05	-29.9	-30.4	26.6	0.00e+00	0	32	0	1129316352	32	5974
2026-01-09 04:00:46.91	137.91	17.16	-29.8	-30.3	26.7	0.00e+00	0	32	0	1136656384	32	5917
2026-01-09 04:00:47.91	137.87	17.28	-29.6	-30.0	26.8	0.00e+00	0	32	0	1143996416	32	5752
2026-01-09 04:00:48.92	137.82	17.39	-29.6	-30.1	26.9	0.00e+00	0	32	0	1151336448	32	5779
2026-01-09 04:00:49.93	137.78	17.51	-29.5	-29.9	27.0	0.00e+00	0	32	0	1158676480	32	5679
2026-01-09 04:00:50.94	137.73	17.63	-29.3	-29.8	27.1	0.00e+00	0	32	0	1166016512	32	5580
2026-01-09 04:00:51.95	137.68	17.75	-29.4	-29.8	27.1	0.00e+00	0	32	0	1173356544	32	5621
2026-01-09 04:00:52.96	137.64	17.87	-29.4	-29.8	27.0	0.00e+00	0	32	0	1180696576	32	5607
2026-01-09 04:00:53.97	137.59	17.99	-29.2	-29.7	27.1	0.00e+00	0	32	0	1188036608	32	5531
2026-01-09 04:00:54.98	137.54	18.11	-29.4	-29.9	27.0	0.00e+00	0	32	0	1195376640	32	5675
2026-01-09 04:00:55.99	137.49	18.23	-29.4	-29.9	27.0	0.00e+00	0	32	0	1202716672	32	5656
2026-01-09 04:00:57.00	137.45	18.35	-29.2	-29.6	27.1	0.00e+00	0	32	0	1210056704	32	5483
2026-01-09 04:00:58.01	137.40	18.47	-29.2	-29.6	27.2	0.00e+00	0	32	0	1217396736	32	5492
2026-01-09 04:00:59.01	137.35	18.59	-29.1	-29.6	27.3	0.00e+00	0	32	0	1223688192	32	5460
2026-01-09 04:01:00.02	137.30	18.71	-29.2	-29.7	27.2	0.00e+00	0	32	0	1231028224	32	5516
2026-01-09 04:01:01.03	137.25	18.84	-29.1	-29.6	27.3	0.00e+00	0	32	0	1239416832	32	5465
2026-01-09 04:01:02.04	137.20	18.96	-29.1	-29.6	27.3	0.00e+00	0	32	0	1245708288	32	5443
2026-01-09 04:01:03.05	137.15	19.09	-29.1	-29.6	27.2	0.00e+00	0	32	0	1253048320	32	5443
2026-01-09 04:01:04.06	137.10	19.21	-29.2	-29.7	27.2	0.00e+00	0	32	0	1260388352	32	5532
2026-01-09 04:01:05.07	137.05	19.34	-29.1	-29.6	27.3	0.00e+00	0	32	0	1267728384	32	5454
2026-01-09 04:01:06.08	136.99	19.46	-29.1	-29.6	27.2	0.00e+00	0	32	0	1275068416	32	5456
2026-01-09 04:01:07.09	136.94	19.59	-29.3	-29.8	27.2	0.00e+00	0	32	0	1282408448	32	5577
2026-01-09 04:01:08.10	136.89	19.72	-29.0	-29.5	27.4	0.00e+00	0	32	0	1289748480	32	5380
2026-01-09 04:01:09.11	136.83	19.85	-29.0	-29.5	27.3	0.00e+00	0	32	0	1297088512	32	5411
2026-01-09 04:01:10.11	136.78	19.97	-29.0	-29.5	27.3	0.00e+00	0	32	0	1304428544	32	5385
2026-01-09 04:01:11.12	136.73	20.10	-28.8	-29.3	27.5	0.00e+00	0	32	0	1311768576	32	5267
2026-01-09 04:01:12.13	136.67	20.23	-28.9	-29.4	27.4	0.00e+00	0	32	0	1319108608	32	5354
2026-01-09 04:01:13.14	136.62	20.37	-28.9	-29.3	27.5	0.00e+00	0	32	0	1326448640	32	5304
2026-01-09 04:01:14.15	136.56	20.50	-28.8	-29.2	27.5	0.00e+00	0	32	0	1333788672	32	5247
2026-01-09 04:01:15.16	136.50	20.63	-28.8	-29.2	27.5	0.00e+00	0	32	0	1341128704	32	5254
2026-01-09 04:01:16.17	136.45	20.76	-28.8	-29.3	27.6	0.00e+00	0	32	0	1347420160	30	5907
2026-01-09 04:01:17.18	136.39	20.90	-28.8	-29.3	27.6	0.00e+00	0	32	0	1354760192	30	5923
2026-01-09 04:01:18.19	136.33	21.03	-28.8	-29.3	27.5	0.00e+00	0	32	0	1363148800	30	5913
2026-01-09 04:01:19.20	136.27	21.17	-28.8	-29.3	27.5	0.00e+00	0	32	0	1369440256	30	5904
2026-01-09 04:01:20.21	136.21	21.30	-28.8	-29.2	27.6	0.00e+00	0	32	0	1376780288	30	5888
2026-01-09 04:01:21.22	136.15	21.44	-28.9	-29.3	27.5	0.00e+00	0	32	0	1384120320	30	5948
2026-01-09 04:01:22.23	136.09	21.57	-28.8	-29.2	27.6	0.00e+00	0	32	0	1391460352	30	5890
2026-01-09 04:01:23.23	136.03	21.71	-28.8	-29.3	27.6	0.00e+00	0	32	0	1398800384	30	5903
2026-01-09 04:01:24.24	135.97	21.85	-28.7	-29.1	27.7	0.00e+00	0	32	0	1406140416	30	5815
2026-01-09 04:01:25.25	135.91	21.99	-28.8	-29.2	27.6	0.00e+00	0	32	0	1413480448	30	5892
2026-01-09 04:01:26.26	135.85	22.13	-28.6	-29.0	27.8	0.00e+00	0	32	0	1420820480	30	5740
2026-01-09 04:01:27.27	135.78	22.27	-28.6	-29.1	27.7	0.00e+00	0	32	0	1428160512	30	5776
2026-01-09 04:01:28.27	135.72	22.41	-28.4	-28.9	27.9	0.00e+00	0	32	0	1435500544	30	5652
2026-01-09 04:01:29.29	135.66	22.55	-28.4	-28.9	27.8	0.00e+00	0	32	0	1442840576	30	5666
2026-01-09 04:01:30.29	135.59	22.69	-28.3	-28.8	28.0	0.00e+00	0	32	0	1450180608	30	5580
2026-01-09 04:01:31.30	135.53	22.84	-28.3	-28.7	28.0	0.00e+00	0	32	0	1457520640	30	5565
2026-01-09 04:01:32.31	135.46	22.98	-28.2	-28.6	28.0	0.00e+00	0	32	0	1464860672	30	5486
2026-01-09 04:01:33.32	135.39	23.13	-28.3	-28.8	27.9	0.00e+00	0	32	0	1472200704	30	5600
2026-01-09 04:01:34.33	135.33	23.27	-28.2	-28.7	28.1	0.00e+00	0	32	0	1479540736	30	5526
2026-01-09 04:01:35.34	135.26	23.42	-28.3	-28.7	28.0	0.00e+00	0	32	0	1486880768	30	5557
2026-01-09 04:01:36.35	135.19	23.57	-28.1	-28.6	28.2	0.00e+00	0	32	0	1494220800	30	5445
2026-01-09 04:01:37.36	135.12	23.72	-28.1	-28.6	28.2	0.00e+00	0	32	0	1500512256	30	5464
2026-01-09 04:01:38.37	135.05	23.87	-28.1	-28.6	28.2	0.00e+00	0	32	0	1507852288	30	5440
2026-01-09 04:01:39.37	134.98	24.01	-28.1	-28.5	28.1	0.00e+00	0	32	0	1515192320	30	5415
2026-01-09 04:01:40.38	134.91	24.17	-28.1	-28.6	28.1	0.00e+00	0	33	0	1522532352	30	5477
2026-01-09 04:01:41.39	134.83	24.32	-28.2	-28.7	28.1	0.00e+00	0	33	0	1529872384	30	5531
2026-01-09 04:01:42.40	134.76	24.47	-28.3	-28.7	28.0	0.00e+00	0	32	0	1537212416	30	5563
2026-01-09 04:01:43.41	134.69	24.62	-28.2	-28.6	28.1	0.00e+00	0	32	0	1544552448	30	5488
2026-01-09 04:01:44.42	134.61	24.78	-28.2	-28.6	28.1	0.00e+00	0	32	0	1551892480	30	5489
2026-01-09 04:01:45.43	134.54	24.93	-28.3	-28.8	28.0	0.00e+00	0	33	0	1559232512	30	5590
2026-01-09 04:01:46.44	134.46	25.09	-28.2	-28.7	28.1	0.00e+00	0	32	0	1566572544	30	5537
2026-01-09 04:01:47.45	134.38	25.24	-28.2	-28.7	28.1	0.00e+00	0	33	0	1573912576	30	5508
2026-01-09 04:01:48.46	134.31	25.40	-28.2	-28.7	28.1	0.00e+00	0	32	0	1581252608	30	5503
2026-01-09 04:01:49.47	134.23	25.56	-28.3	-28.7	28.1	0.00e+00	0	33	0	1588592640	30	5563
2026-01-09 04:01:50.48	134.15	25.72	-28.2	-28.7	28.1	0.00e+00	0	32	0	1595932672	30	5527
2026-01-09 04:01:51.49	134.07	25.88	-28.2	-28.6	28.1	0.00e+00	0	32	0	1603272704	30	5490
2026-01-09 04:01:52.50	133.99	26.04	-28.3	-28.8	28.0	0.00e+00	0	32	0	1610612736	30	5603
2026-01-09 04:01:53.51	133.91	26.20	-28.1	-28.6	28.1	0.00e+00	0	32	0	1617952768	30	5481
2026-01-09 04:01:54.52	133.82	26.37	-28.2	-28.7	28.0	0.00e+00	0	32	0	1625292800	30	5550
2026-01-09 04:01:55.53	133.74	26.53	-28.3	-28.8	28.0	0.00e+00	0	32	0	1632632832	30	5582
2026-01-09 04:01:56.54	133.66	26.70	-28.4	-28.9	28.0	0.00e+00	0	32	0	1639972864	30	5641
2026-01-09 04:01:57.55	133.57	26.86	-28.4	-28.9	27.9	0.00e+00	0	32	0	1647312896	30	5633
2026-01-09 04:01:58.56	133.48	27.03	-28.5	-28.9	27.9	0.00e+00	0	32	0	1653604352	30	5695
2026-01-09 04:01:59.57	133.40	27.20	-28.5	-29.0	28.1	0.00e+00	0	32	0	1660944384	30	5741
2026-01-09 04:02:00.58	133.31	27.36	-28.4	-28.9	27.9	0.00e+00	0	33	0	1668284416	30	5647
2026-01-09 04:02:01.59	133.22	27.53	-28.4	-28.9	28.0	0.00e+00	0	32	0	1675624448	30	5677
2026-01-09 04:02:02.60	133.13	27.70	-28.4	-28.9	27.9	0.00e+00	0	32	0	1682964480	30	5663
2026-01-09 04:02:03.61	133.04	27.88	-28.2	-28.7	28.1	0.00e+00	0	32	0	1690304512	30	5544
2026-01-09 04:02:04.62	132.95	28.05	-28.3	-28.8	28.1	0.00e+00	0	32	0	1697644544	30	5606
2026-01-09 04:02:05.63	132.85	28.22	-28.3	-28.8	28.1	0.00e+00	0	32	0	1704984576	30	5573
2026-01-09 04:02:06.64	132.76	28.40	-28.2	-28.6	28.2	0.00e+00	0	32	0	1712324608	30	5488
2026-01-09 04:02:07.65	132.66	28.57	-28.3	-28.8	28.0	0.00e+00	0	32	0	1719664640	30	5572
2026-01-09 04:02:08.65	132.57	28.75	-28.1	-28.6	28.3	0.00e+00	0	32	0	1727004672	30	5445
2026-01-09 04:02:09.66	132.47	28.92	-28.3	-28.8	28.0	0.00e+00	0	32	0	1734344704	30	5605
2026-01-09 04:02:10.67	132.37	29.10	-28.0	-28.5	28.3	0.00e+00	0	32	0	1741684736	30	5385
2026-01-09 04:02:11.68	132.27	29.28	-28.0	-28.4	28.3	0.00e+00	0	32	0	1749024768	30	5359
2026-01-09 04:02:12.69	132.17	29.46	-27.8	-28.2	28.5	0.00e+00	0	32	0	1756364800	30	5232
2026-01-09 04:02:13.70	132.07	29.64	-27.7	-28.2	28.4	0.00e+00	0	32	0	1763704832	28	5836
2026-01-09 04:02:14.71	131.96	29.83	-27.5	-28.0	28.6	0.00e+00	0	33	0	1771044864	28	5720
2026-01-09 04:02:15.72	131.86	30.01	-27.7	-28.1	28.6	0.00e+00	0	33	0	1777336320	28	5807
2026-01-09 04:02:16.73	131.75	30.20	-27.5	-27.9	28.7	0.00e+00	0	32	0	1785724928	28	5683
2026-01-09 04:02:17.74	131.65	30.38	-27.5	-27.9	28.6	0.00e+00	0	32	0	1793064960	28	5689
2026-01-09 04:02:18.75	131.54	30.57	-27.5	-28.0	28.6	0.00e+00	0	33	0	1799356416	28	5712
2026-01-09 04:02:19.76	131.43	30.76	-27.5	-28.0	28.6	0.00e+00	0	32	0	1806696448	28	5735
2026-01-09 04:02:20.77	131.32	30.95	-27.5	-28.0	28.6	0.00e+00	0	32	0	1814036480	28	5702
2026-01-09 04:02:21.78	131.21	31.14	-27.7	-28.1	28.6	0.00e+00	0	33	0	1821376512	28	5817
2026-01-09 04:02:22.79	131.09	31.33	-27.7	-28.1	28.6	0.00e+00	0	32	0	1828716544	28	5807
2026-01-09 04:02:23.80	130.98	31.52	-27.7	-28.2	28.5	0.00e+00	0	33	0	1836056576	28	5837
2026-01-09 04:02:24.81	130.86	31.71	-27.9	-28.3	28.4	0.00e+00	0	33	0	1843396608	28	5947
2026-01-09 04:02:25.81	130.74	31.91	-27.9	-28.3	28.4	0.00e+00	0	32	0	1850736640	28	5962
2026-01-09 04:02:26.82	130.62	32.10	-27.8	-28.2	28.4	0.00e+00	0	33	0	1858076672	28	5892
2026-01-09 04:02:27.83	130.50	32.30	-27.8	-28.2	28.4	0.00e+00	0	33	0	1865416704	28	5875
2026-01-09 04:02:28.84	130.38	32.50	-27.9	-28.4	28.3	0.00e+00	0	32	0	1872756736	28	5993
2026-01-09 04:02:29.85	130.26	32.70	-27.8	-28.3	28.5	0.00e+00	0	32	0	1880096768	28	5917
2026-01-09 04:02:30.86	130.13	32.90	-27.8	-28.3	28.7	0.00e+00	0	32	0	1887436800	28	5926
2026-01-09 04:02:31.87	130.00	33.10	-27.8	-28.2	28.5	0.00e+00	0	32	0	1894776832	28	5880
2026-01-09 04:02:32.88	129.88	33.30	-27.7	-28.2	28.5	0.00e+00	0	33	0	1902116864	28	5835
2026-01-09 04:02:33.89	129.75	33.51	-27.9	-28.3	28.4	0.00e+00	0	33	0	1909456896	28	5940
2026-01-09 04:02:34.90	129.61	33.71	-27.8	-28.2	28.4	0.00e+00	0	33	0	1916796928	28	5895
2026-01-09 04:02:35.91	129.48	33.92	-27.8	-28.2	28.5	0.00e+00	0	33	0	1924136960	28	5885
2026-01-09 04:02:36.91	129.35	34.13	-27.6	-28.0	28.5	0.00e+00	0	33	0	1930428416	28	5726
2026-01-09 04:02:37.93	129.21	34.34	-27.5	-27.9	28.6	0.00e+00	0	33	0	1937768448	28	5688
2026-01-09 04:02:38.94	129.07	34.55	-27.7	-28.1	28.5	0.00e+00	0	33	0	1946157056	28	5827
2026-01-09 04:02:39.94	128.93	34.76	-27.5	-27.9	28.7	0.00e+00	0	33	0	1952448512	28	5671
2026-01-09 04:02:40.95	128.79	34.97	-27.5	-28.0	28.7	0.00e+00	0	33	0	1959788544	28	5708
2026-01-09 04:02:41.96	128.64	35.18	-27.5	-28.0	28.6	0.00e+00	0	32	0	1967128576	28	5710
2026-01-09 04:02:42.97	128.49	35.40	-27.5	-28.0	28.7	0.00e+00	0	32	0	1974468608	28	5704
2026-01-09 04:02:43.98	128.35	35.62	-27.4	-27.9	28.7	0.00e+00	0	32	0	1981808640	28	5635
2026-01-09 04:02:44.99	128.19	35.83	-27.3	-27.8	28.7	0.00e+00	0	33	0	1989148672	28	5580
2026-01-09 04:02:46.00	128.04	36.05	-27.4	-27.9	28.6	0.00e+00	0	32	0	1996488704	28	5659
2026-01-09 04:02:47.01	127.89	36.27	-27.5	-28.0	28.6	0.00e+00	0	32	0	2003828736	28	5711
2026-01-09 04:02:48.02	127.73	36.49	-27.6	-28.0	28.6	0.00e+00	0	32	0	2011168768	28	5739
2026-01-09 04:02:49.03	127.57	36.72	-27.7	-28.2	28.5	0.00e+00	0	33	0	2018508800	28	5844
2026-01-09 04:02:50.04	127.41	36.94	-27.7	-28.2	28.5	0.00e+00	0	33	0	2025848832	28	5839
2026-01-09 04:02:51.04	127.25	37.16	-27.7	-28.1	28.5	0.00e+00	0	33	0	2033188864	28	5804
2026-01-09 04:02:52.05	127.08	37.39	-27.7	-28.1	28.5	0.00e+00	0	32	0	2040528896	28	5819
2026-01-09 04:02:53.06	126.91	37.62	-27.8	-28.3	28.4	0.00e+00	0	33	0	2047868928	28	5934
2026-01-09 04:02:54.07	126.74	37.85	-27.8	-28.3	28.3	0.00e+00	0	33	0	2054160384	28	5916
2026-01-09 04:02:55.08	126.57	38.08	-27.8	-28.3	28.4	0.00e+00	0	32	0	2062548992	28	5917
2026-01-09 04:02:56.09	126.39	38.31	-28.1	-28.6	28.3	0.00e+00	0	32	0	2069889024	28	6138
2026-01-09 04:02:57.10	126.21	38.54	-27.7	-28.2	28.3	0.00e+00	0	33	0	2076180480	28	5850
2026-01-09 04:02:58.11	126.03	38.78	-28.0	-28.4	28.3	0.00e+00	0	32	0	2083520512	28	6031
2026-01-09 04:02:59.12	125.85	39.01	-28.0	-28.4	28.3	0.00e+00	0	33	0	2090860544	28	6012
2026-01-09 04:03:00.13	125.66	39.25	-28.0	-28.5	28.2	0.00e+00	0	33	0	2098200576	28	6073
2026-01-09 04:03:01.14	125.47	39.48	-28.0	-28.5	28.2	0.00e+00	0	32	0	2105540608	28	6055
2026-01-09 04:03:02.15	125.28	39.72	-28.1	-28.6	28.4	0.00e+00	0	32	0	2112880640	28	6128
2026-01-09 04:03:03.15	125.09	39.96	-28.2	-28.7	28.1	0.00e+00	0	33	0	2120220672	28	6214
2026-01-09 04:03:04.16	124.89	40.20	-28.4	-28.9	28.0	0.00e+00	0	33	0	2127560704	28	6339
2026-01-09 04:03:05.17	124.69	40.45	-28.2	-28.7	28.0	0.00e+00	0	33	0	2134900736	28	6218
2026-01-09 04:03:06.18	124.49	40.69	-28.3	-28.8	28.0	0.00e+00	0	33	0	2142240768	28	6283
2026-01-09 04:03:07.19	124.28	40.94	-28.0	-28.5	28.2	0.00e+00	0	33	0	2149580800	28	6061
2026-01-09 04:03:08.20	124.07	41.18	-28.3	-28.8	28.2	0.00e+00	0	33	0	2156920832	28	6255
2026-01-09 04:03:09.21	123.86	41.43	-28.1	-28.6	28.2	0.00e+00	0	33	0	2164260864	28	6106
2026-01-09 04:03:10.22	123.64	41.68	-28.1	-28.5	28.3	0.00e+00	0	33	0	2171600896	28	6087
2026-01-09 04:03:11.23	123.42	41.93	-28.0	-28.5	28.3	0.00e+00	0	33	0	2178940928	28	6042
2026-01-09 04:03:12.23	123.20	42.18	-27.8	-28.3	28.6	0.00e+00	0	33	0	2186280960	28	5917
2026-01-09 04:03:13.24	122.97	42.43	-27.8	-28.2	28.5	0.00e+00	0	33	0	2193620992	28	5883
2026-01-09 04:03:14.25	122.74	42.69	-27.8	-28.3	28.5	0.00e+00	0	33	0	2200961024	28	5904
2026-01-09 04:03:15.26	122.50	42.94	-27.8	-28.2	28.5	0.00e+00	0	33	0	2207252480	28	5889
2026-01-09 04:03:16.27	122.27	43.20	-27.8	-28.2	28.5	0.00e+00	0	33	0	2214592512	28	5893
2026-01-09 04:03:17.28	122.02	43.46	-27.9	-28.3	28.4	0.00e+00	0	33	0	2221932544	28	5936
2026-01-09 04:03:18.29	121.78	43.71	-28.1	-28.5	28.1	0.00e+00	0	33	0	2229272576	28	6085
2026-01-09 04:03:19.30	121.53	43.97	-28.5	-29.0	27.9	0.00e+00	0	33	0	2236612608	28	6392
2026-01-09 04:03:20.31	121.27	44.23	-28.6	-29.1	27.8	0.00e+00	0	33	0	2243952640	28	6466
2026-01-09 04:03:21.31	121.01	44.49	-28.7	-29.2	27.8	0.00e+00	0	33	0	2251292672	30	5875
2026-01-09 04:03:22.33	120.75	44.76	-28.7	-29.1	27.8	0.00e+00	0	32	0	2258632704	30	5808
2026-01-09 04:03:23.33	120.48	45.02	-28.7	-29.2	27.9	0.00e+00	0	33	0	2265972736	30	5864
2026-01-09 04:03:24.34	120.21	45.29	-28.4	-28.9	28.0	0.00e+00	0	33	0	2273312768	30	5634
2026-01-09 04:03:25.35	119.93	45.55	-28.2	-28.7	28.2	0.00e+00	0	33	0	2280652800	30	5521
2026-01-09 04:03:26.36	119.65	45.82	-28.2	-28.7	28.2	0.00e+00	0	33	0	2287992832	30	5530
2026-01-09 04:03:27.37	119.37	46.09	-28.2	-28.7	28.3	0.00e+00	0	33	0	2295332864	30	5516
2026-01-09 04:03:28.38	119.07	46.36	-28.2	-28.7	28.1	0.00e+00	0	33	0	2302672896	30	5528
2026-01-09 04:03:29.39	118.78	46.63	-28.4	-28.9	27.9	0.00e+00	0	33	0	2310012928	30	5652
2026-01-09 04:03:30.40	118.48	46.90	-28.5	-29.0	27.9	0.00e+00	0	33	0	2317352960	30	5705
2026-01-09 04:03:31.41	118.17	47.17	-28.7	-29.2	27.7	0.00e+00	0	33	0	2324692992	30	5849
2026-01-09 04:03:32.41	117.86	47.44	-29.1	-29.5	27.4	0.00e+00	0	33	0	2330984448	30	6088
2026-01-09 04:03:33.42	117.54	47.71	-29.7	-30.1	27.4	0.00e+00	0	33	0	2338324480	30	6528
2026-01-09 04:03:34.43	117.22	47.99	-29.3	-29.8	27.3	0.00e+00	0	33	0	2346713088	30	6273
2026-01-09 04:03:35.44	116.89	48.26	-29.4	-29.9	27.0	0.00e+00	0	33	0	2353004544	30	6349
2026-01-09 04:03:36.45	116.55	48.54	-29.6	-30.0	27.1	0.00e+00	0	33	0	2360344576	30	6462
2026-01-09 04:03:37.46	116.21	48.81	-29.5	-30.0	27.0	0.00e+00	0	33	0	2367684608	30	6450
2026-01-09 04:03:38.47	115.86	49.09	-29.0	-29.4	27.2	0.00e+00	0	33	0	2375024640	30	6016
2026-01-09 04:03:39.48	115.51	49.37	-29.2	-29.7	27.3	0.00e+00	0	33	0	2382364672	30	6200
2026-01-09 04:03:40.49	115.15	49.64	-29.1	-29.6	27.4	0.00e+00	0	33	0	2389704704	30	6119
2026-01-09 04:03:41.49	114.78	49.92	-29.2	-29.7	27.4	0.00e+00	0	33	0	2397044736	30	6176
2026-01-09 04:03:42.51	114.41	50.20	-29.3	-29.8	27.3	0.00e+00	0	33	0	2404384768	30	6275
2026-01-09 04:03:43.51	114.03	50.48	-29.4	-29.9	27.5	0.00e+00	0	33	0	2411724800	30	6362
2026-01-09 04:03:44.52	113.64	50.76	-29.1	-29.6	27.6	0.00e+00	0	32	0	2419064832	30	6120
2026-01-09 04:03:45.53	113.24	51.04	-29.0	-29.4	27.5	0.00e+00	0	33	0	2426404864	30	6006
2026-01-09 04:03:46.54	112.84	51.32	-29.0	-29.5	27.6	0.00e+00	0	33	0	2433744896	30	6037
2026-01-09 04:03:47.54	112.43	51.59	-29.1	-29.6	27.5	0.00e+00	0	32	0	2441084928	30	6112
2026-01-09 04:03:48.55	112.02	51.87	-29.2	-29.7	27.4	0.00e+00	0	33	0	2448424960	30	6209
2026-01-09 04:03:49.56	111.59	52.15	-29.5	-30.0	27.3	0.00e+00	0	33	0	2455764992	30	6394
2026-01-09 04:03:50.57	111.15	52.43	-29.8	-30.3	27.2	0.00e+00	0	33	0	2462056448	30	6646
2026-01-09 04:03:51.57	110.72	52.71	-29.4	-29.9	27.2	0.00e+00	0	33	0	2469396480	32	5650
2026-01-09 04:03:52.59	110.26	52.99	-29.2	-29.7	27.4	0.00e+00	0	33	0	2477785088	32	5511
2026-01-09 04:03:53.59	109.80	53.27	-28.8	-29.3	27.6	0.00e+00	0	32	0	2484076544	32	5274
2026-01-09 04:03:54.60	109.33	53.55	-29.5	-30.0	27.2	0.00e+00	0	32	0	2491416576	32	5714
2026-01-09 04:03:55.61	108.85	53.83	-29.4	-29.9	27.2	0.00e+00	0	32	0	2498756608	32	5644
2026-01-09 04:03:56.62	108.37	54.10	-29.7	-30.2	27.0	0.00e+00	0	33	0	2506096640	32	5850
2026-01-09 04:03:57.63	107.87	54.38	-30.1	-30.6	26.7	0.00e+00	0	33	0	2513436672	32	6155
2026-01-09 04:03:58.64	107.36	54.66	-30.2	-30.7	26.5	0.00e+00	0	33	0	2520776704	32	6178
2026-01-09 04:03:59.65	106.84	54.93	-30.0	-30.5	26.6	0.00e+00	0	32	0	2528116736	32	6078
2026-01-09 04:04:00.66	106.32	55.21	-29.9	-30.4	26.8	0.00e+00	0	32	0	2535456768	32	6021
2026-01-09 04:04:01.67	105.78	55.48	-29.4	-29.9	27.2	0.00e+00	0	33	0	2542796800	32	5652
2026-01-09 04:04:02.68	105.23	55.75	-29.0	-29.5	27.4	0.00e+00	0	33	0	2550136832	32	5405
2026-01-09 04:04:03.69	104.67	56.02	-29.2	-29.7	27.5	0.00e+00	0	32	0	2557476864	32	5566
2026-01-09 04:04:04.70	104.10	56.29	-29.5	-30.0	27.2	0.00e+00	0	32	0	2564816896	32	5760
2026-01-09 04:04:05.71	103.52	56.56	-29.8	-30.3	27.0	0.00e+00	0	33	0	2572156928	32	5923
2026-01-09 04:04:06.72	102.93	56.83	-29.8	-30.3	26.6	0.00e+00	0	32	0	2579496960	32	5948
2026-01-09 04:04:07.73	102.32	57.09	-29.9	-30.4	26.7	0.00e+00	0	33	0	2586836992	32	6032
2026-01-09 04:04:08.74	101.71	57.36	-29.7	-30.2	27.0	0.00e+00	0	32	0	2594177024	32	5843
2026-01-09 04:04:09.75	101.08	57.62	-29.9	-30.5	26.7	0.00e+00	0	32	0	2601517056	32	6043
2026-01-09 04:04:10.76	100.44	57.87	-29.5	-30.0	27.1	0.00e+00	0	33	0	2607808512	32	5728
2026-01-09 04:04:11.77	99.79	58.13	-29.3	-29.8	27.2	0.00e+00	0	33	0	2615148544	32	5613
2026-01-09 04:04:12.78	99.12	58.38	-29.3	-29.7	27.2	0.00e+00	0	33	0	2622488576	32	5556
2026-01-09 04:04:13.79	98.44	58.64	-29.2	-29.6	27.5	0.00e+00	0	33	0	2629828608	32	5483
2026-01-09 04:04:14.79	97.76	58.88	-29.1	-29.5	27.5	0.00e+00	0	33	0	2637168640	32	5435
2026-01-09 04:04:15.80	97.05	59.13	-29.1	-29.6	27.5	0.00e+00	0	33	0	2644508672	32	5442
2026-01-09 04:04:16.81	96.34	59.37	-29.2	-29.6	27.3	0.00e+00	0	33	0	2651848704	32	5483
2026-01-09 04:04:17.82	95.61	59.61	-29.4	-29.8	27.2	0.00e+00	0	33	0	2659188736	32	5614
2026-01-09 04:04:18.83	94.86	59.84	-29.6	-30.1	27.1	0.00e+00	0	33	0	2666528768	32	5811
2026-01-09 04:04:19.84	94.10	60.08	-29.1	-29.6	26.7	0.00e+00	0	33	0	2673868800	32	5445
2026-01-09 04:04:20.85	93.33	60.30	-29.3	-29.8	27.2	0.00e+00	0	32	0	2681208832	32	5597
2026-01-09 04:04:21.86	92.55	60.53	-29.3	-29.8	27.3	0.00e+00	0	32	0	2688548864	32	5571
2026-01-09 04:04:22.87	91.75	60.75	-29.2	-29.7	27.4	0.00e+00	0	33	0	2695888896	32	5507
2026-01-09 04:04:23.88	90.93	60.96	-29.2	-29.7	27.3	0.00e+00	0	33	0	2703228928	32	5531
2026-01-09 04:04:24.89	90.11	61.18	-29.6	-30.1	27.0	0.00e+00	0	32	0	2710568960	32	5826
2026-01-09 04:04:25.89	89.27	61.38	-29.4	-29.9	27.1	0.00e+00	0	33	0	2717908992	32	5683
2026-01-09 04:04:26.90	88.42	61.58	-29.1	-29.5	27.3	0.00e+00	0	33	0	2725249024	32	5438
2026-01-09 04:04:27.91	87.55	61.78	-28.9	-29.4	27.5	0.00e+00	0	33	0	2732589056	30	5985
2026-01-09 04:04:28.92	86.67	61.97	-28.9	-29.3	27.6	0.00e+00	0	33	0	2738880512	30	5939
2026-01-09 04:04:29.93	85.77	62.16	-29.1	-29.6	27.4	0.00e+00	0	33	0	2747269120	30	6141
2026-01-09 04:04:30.94	84.86	62.34	-29.3	-29.8	27.4	0.00e+00	0	33	0	2754609152	30	6304
2026-01-09 04:04:31.95	83.94	62.51	-29.1	-29.6	27.3	0.00e+00	0	33	0	2760900608	30	6139
2026-01-09 04:04:32.96	83.00	62.68	-29.2	-29.6	27.4	0.00e+00	0	33	0	2768240640	30	6173
2026-01-09 04:04:33.97	82.05	62.84	-28.6	-29.1	27.8	0.00e+00	0	33	0	2775580672	30	5792
2026-01-09 04:04:34.98	81.09	63.00	-28.6	-29.1	27.7	0.00e+00	0	33	0	2782920704	30	5763
2026-01-09 04:04:35.99	80.11	63.15	-28.4	-28.9	28.0	0.00e+00	0	33	0	2790260736	30	5663
2026-01-09 04:04:37.00	79.13	63.29	-28.3	-28.8	28.0	0.00e+00	0	33	0	2797600768	30	5584
2026-01-09 04:04:38.01	78.13	63.43	-28.6	-29.1	27.9	0.00e+00	0	33	0	2804940800	30	5774
2026-01-09 04:04:39.02	77.12	63.56	-28.6	-29.0	27.8	0.00e+00	0	33	0	2812280832	30	5758
2026-01-09 04:04:40.03	76.10	63.68	-28.8	-29.3	27.6	0.00e+00	0	33	0	2819620864	30	5912
2026-01-09 04:04:41.04	75.06	63.80	-28.9	-29.4	27.7	0.00e+00	0	33	0	2826960896	30	6022
2026-01-09 04:04:42.05	74.02	63.90	-28.5	-29.0	27.9	0.00e+00	0	32	0	2834300928	30	5698
2026-01-09 04:04:43.06	72.97	64.00	-28.1	-28.6	28.3	0.00e+00	0	33	0	2841640960	30	5465
2026-01-09 04:04:44.07	71.91	64.09	-28.2	-28.6	28.1	0.00e+00	0	32	0	2848980992	30	5491
2026-01-09 04:04:45.08	70.84	64.18	-28.5	-29.0	27.9	0.00e+00	0	32	0	2856321024	30	5733
2026-01-09 04:04:46.09	69.77	64.25	-28.4	-28.9	27.9	0.00e+00	0	33	0	2863661056	30	5632
2026-01-09 04:04:47.10	68.69	64.32	-28.2	-28.6	28.2	0.00e+00	0	33	0	2871001088	30	5484
2026-01-09 04:04:48.11	67.60	64.38	-27.8	-28.3	28.4	0.00e+00	0	33	0	2878341120	30	5275
2026-01-09 04:04:49.12	66.51	64.43	-27.5	-27.9	28.6	0.00e+00	0	32	0	2885681152	28	5690
2026-01-09 04:04:50.12	65.42	64.48	-27.6	-28.1	28.4	0.00e+00	0	33	0	2891972608	28	5784
2026-01-09 04:04:51.13	64.32	64.51	-27.8	-28.2	28.3	0.00e+00	0	32	0	2900361216	28	5886
2026-01-09 04:04:52.14	63.22	64.54	-27.7	-28.2	28.4	0.00e+00	0	33	0	2907701248	28	5842
2026-01-09 04:04:53.15	62.11	64.55	-28.0	-28.5	28.3	0.00e+00	0	33	0	2913992704	28	6051
2026-01-09 04:04:54.16	61.00	64.56	-27.8	-28.2	28.4	0.00e+00	0	33	0	2921332736	28	5893
2026-01-09 04:04:55.17	59.89	64.56	-27.6	-28.0	28.6	0.00e+00	0	33	0	2928672768	28	5748
2026-01-09 04:04:56.18	58.79	64.55	-27.8	-28.3	28.4	0.00e+00	0	32	0	2936012800	28	5897
2026-01-09 04:04:57.19	57.68	64.54	-28.0	-28.5	28.2	0.00e+00	0	33	0	2943352832	28	6039
2026-01-09 04:04:58.20	56.58	64.51	-28.2	-28.7	27.9	0.00e+00	0	32	0	2950692864	28	6212
2026-01-09 04:04:59.21	55.48	64.48	-28.6	-29.1	27.9	0.00e+00	0	33	0	2958032896	28	6469
2026-01-09 04:05:00.22	54.38	64.44	-28.4	-28.9	28.0	0.00e+00	0	33	0	2965372928	28	6323
2026-01-09 04:05:01.23	53.28	64.39	-28.1	-28.5	28.1	0.00e+00	0	33	0	2972712960	28	6092
2026-01-09 04:05:02.24	52.20	64.33	-27.8	-28.2	28.0	0.00e+00	0	33	0	2980052992	28	5881
2026-01-09 04:05:03.25	51.12	64.26	-27.9	-28.3	28.3	0.00e+00	0	33	0	2987393024	28	5934
2026-01-09 04:05:04.26	50.04	64.19	-28.1	-28.6	27.9	0.00e+00	0	33	0	2994733056	28	6118
2026-01-09 04:05:05.26	48.98	64.10	-28.3	-28.7	28.0	0.00e+00	0	32	0	3002073088	28	6220
2026-01-09 04:05:06.27	47.92	64.01	-28.1	-28.6	27.6	0.00e+00	0	33	0	3009413120	28	6137
2026-01-09 04:05:07.28	46.87	63.91	-27.9	-28.4	27.8	0.00e+00	0	33	0	3016753152	28	5990
2026-01-09 04:05:08.29	45.83	63.81	-27.8	-28.3	28.2	0.00e+00	0	33	0	3024093184	28	5925
2026-01-09 04:05:09.30	44.80	63.69	-27.9	-28.4	28.3	0.00e+00	0	33	0	3031433216	28	6016
2026-01-09 04:05:10.31	43.78	63.57	-28.0	-28.5	28.3	0.00e+00	0	33	0	3037724672	28	6063
2026-01-09 04:05:11.32	42.77	63.44	-28.2	-28.6	28.1	0.00e+00	0	33	0	3045064704	28	6156
2026-01-09 04:05:12.33	41.77	63.31	-28.2	-28.7	27.9	0.00e+00	0	33	0	3053453312	28	6218
2026-01-09 04:05:13.34	40.78	63.17	-28.4	-28.9	27.9	0.00e+00	0	33	0	3059744768	28	6327
2026-01-09 04:05:14.35	39.80	63.02	-28.2	-28.6	28.1	0.00e+00	0	33	0	3067084800	28	6159
2026-01-09 04:05:15.36	38.84	62.86	-28.2	-28.6	28.2	0.00e+00	0	33	0	3074424832	28	6150
2026-01-09 04:05:16.37	37.89	62.70	-28.4	-28.9	28.1	0.00e+00	0	33	0	3081764864	28	6336
2026-01-09 04:05:17.38	36.95	62.53	-28.7	-29.2	27.7	0.00e+00	0	33	0	3089104896	28	6575
2026-01-09 04:05:18.39	36.03	62.36	-29.0	-29.4	27.5	0.00e+00	0	33	0	3096444928	30	6029
2026-01-09 04:05:19.40	35.12	62.18	-28.6	-29.1	27.6	0.00e+00	0	33	0	3103784960	30	5774
2026-01-09 04:05:20.41	34.22	61.99	-28.6	-29.1	27.9	0.00e+00	0	33	0	3111124992	30	5792
2026-01-09 04:05:21.42	33.34	61.80	-28.6	-29.1	27.6	0.00e+00	0	33	0	3118465024	30	5774
2026-01-09 04:05:22.43	32.47	61.60	-28.8	-29.3	27.5	0.00e+00	0	33	0	3125805056	30	5945
2026-01-09 04:05:23.44	31.61	61.40	-28.9	-29.4	27.5	0.00e+00	0	33	0	3133145088	30	6010
2026-01-09 04:05:24.44	30.78	61.20	-28.8	-29.3	27.7	0.00e+00	0	33	0	3140485120	30	5913
2026-01-09 04:05:25.45	29.95	60.99	-28.9	-29.3	27.6	0.00e+00	0	33	0	3147825152	30	5963
2026-01-09 04:05:26.46	29.14	60.77	-29.1	-29.5	27.6	0.00e+00	0	33	0	3155165184	30	6098
2026-01-09 04:05:27.47	28.34	60.55	-29.4	-29.9	27.2	0.00e+00	0	33	0	3162505216	30	6339
2026-01-09 04:05:28.48	27.55	60.33	-29.4	-29.9	27.2	0.00e+00	0	33	0	3169845248	30	6340
2026-01-09 04:05:29.49	26.78	60.10	-29.1	-29.6	27.4	0.00e+00	0	33	0	3177185280	30	6128
2026-01-09 04:05:30.50	26.02	59.87	-29.1	-29.6	27.4	0.00e+00	0	33	0	3184525312	30	6111
2026-01-09 04:05:31.51	25.28	59.64	-29.2	-29.7	27.3	0.00e+00	0	33	0	3190816768	30	6192
2026-01-09 04:05:32.52	24.55	59.40	-29.2	-29.6	27.4	0.00e+00	0	33	0	3198156800	30	6163
2026-01-09 04:05:33.53	23.83	59.16	-29.0	-29.5	27.3	0.00e+00	0	33	0	3206545408	30	6044
2026-01-09 04:05:34.54	23.12	58.91	-29.0	-29.5	27.5	0.00e+00	0	33	0	3212836864	30	6035
2026-01-09 04:05:35.55	22.43	58.66	-29.2	-29.6	27.4	0.00e+00	0	33	0	3220176896	30	6169
2026-01-09 04:05:36.56	21.75	58.41	-29.4	-29.9	27.3	0.00e+00	0	33	0	3227516928	30	6355
2026-01-09 04:05:37.57	21.09	58.16	-29.3	-29.8	27.3	0.00e+00	0	33	0	3234856960	30	6273
2026-01-09 04:05:38.58	20.44	57.91	-29.3	-29.7	27.3	0.00e+00	0	33	0	3242196992	30	6227
2026-01-09 04:05:39.59	19.80	57.65	-29.3	-29.7	27.3	0.00e+00	0	33	0	3249537024	30	6240
2026-01-09 04:05:40.60	19.17	57.39	-29.5	-30.0	27.2	0.00e+00	0	33	0	3256877056	30	6417
2026-01-09 04:05:41.61	18.55	57.13	-29.7	-30.2	26.9	0.00e+00	0	33	0	3264217088	30	6554
2026-01-09 04:05:42.62	17.95	56.86	-29.9	-30.4	26.9	0.00e+00	0	33	0	3271557120	32	5966
2026-01-09 04:05:43.63	17.35	56.60	-29.7	-30.2	27.0	0.00e+00	0	33	0	3278897152	32	5836
2026-01-09 04:05:44.64	16.77	56.33	-29.5	-30.0	27.1	0.00e+00	0	33	0	3286237184	32	5736
2026-01-09 04:05:45.65	16.20	56.06	-29.6	-30.1	27.0	0.00e+00	0	33	0	3293577216	32	5777
2026-01-09 04:05:46.66	15.64	55.79	-29.2	-29.6	27.4	0.00e+00	0	33	0	3300917248	32	5489
2026-01-09 04:05:47.67	15.09	55.52	-29.2	-29.6	27.4	0.00e+00	0	33	0	3308257280	32	5502
2026-01-09 04:05:48.68	14.56	55.25	-29.5	-30.0	27.2	0.00e+00	0	33	0	3314548736	32	5727
2026-01-09 04:05:49.69	14.03	54.97	-29.5	-29.9	27.1	0.00e+00	0	33	0	3322937344	32	5686
2026-01-09 04:05:50.70	13.51	54.70	-29.1	-29.6	27.4	0.00e+00	0	33	0	3330277376	32	5471
2026-01-09 04:05:51.70	13.01	54.42	-29.1	-29.6	27.4	0.00e+00	0	33	0	3336568832	32	5444
2026-01-09 04:05:52.71	12.51	54.15	-28.8	-29.2	27.6	0.00e+00	0	33	0	3343908864	30	5876
2026-01-09 04:05:53.73	12.02	53.87	-29.0	-29.5	27.5	0.00e+00	0	33	0	3351248896	30	6072
2026-01-09 04:05:54.73	11.54	53.59	-29.6	-30.1	27.0	0.00e+00	0	33	0	3358588928	30	6491
2026-01-09 04:05:55.74	11.07	53.32	-29.6	-30.1	27.0	0.00e+00	0	33	0	3365928960	30	6493
2026-01-09 04:05:56.75	10.61	53.04	-29.3	-29.8	27.2	0.00e+00	0	33	0	3373268992	30	6286
2026-01-09 04:05:57.76	10.16	52.76	-29.4	-29.9	27.3	0.00e+00	0	33	0	3380609024	30	6326
2026-01-09 04:05:58.77	9.72	52.48	-29.1	-29.6	27.2	0.00e+00	0	33	0	3387949056	30	6143
2026-01-09 04:05:59.78	9.28	52.20	-29.4	-29.9	27.1	0.00e+00	0	33	0	3395289088	30	6320
2026-01-09 04:06:00.79	8.86	51.92	-29.6	-30.0	27.1	0.00e+00	0	33	0	3402629120	30	6462
2026-01-09 04:06:01.80	8.44	51.64	-29.7	-30.2	26.9	0.00e+00	0	33	0	3409969152	32	5847
2026-01-09 04:06:02.81	8.03	51.36	-29.6	-30.1	27.1	0.00e+00	0	33	0	3417309184	32	5792
2026-01-09 04:06:03.82	7.62	51.08	-29.5	-30.0	27.1	0.00e+00	0	33	0	3424649216	32	5714
2026-01-09 04:06:04.83	7.23	50.80	-29.4	-29.9	25.2	0.00e+00	0	33	0	3431989248	32	5654
2026-01-09 04:06:05.84	6.84	50.53	-29.3	-29.7	27.2	0.00e+00	0	33	0	3439329280	32	5551
2026-01-09 04:06:06.85	6.46	50.25	-29.3	-29.8	27.2	0.00e+00	0	33	0	3446669312	32	5612
2026-01-09 04:06:07.86	6.08	49.97	-29.2	-29.7	27.2	0.00e+00	0	33	0	3454009344	32	5548
2026-01-09 04:06:08.86	5.72	49.69	-29.2	-29.7	27.3	0.00e+00	0	33	0	3461349376	32	5530
2026-01-09 04:06:09.87	5.36	49.42	-29.3	-29.8	27.2	0.00e+00	0	33	0	3467640832	32	5584
2026-01-09 04:06:10.88	5.00	49.14	-29.5	-30.0	27.1	0.00e+00	0	33	0	3476029440	32	5706
2026-01-09 04:06:11.89	4.66	48.86	-29.6	-30.1	27.1	0.00e+00	0	33	0	3483369472	32	5790
2026-01-09 04:06:12.90	4.31	48.59	-29.3	-29.7	27.3	0.00e+00	0	33	0	3489660928	32	5553
2026-01-09 04:06:13.91	3.98	48.31	-29.2	-29.7	27.4	0.00e+00	0	33	0	3497000960	32	5539
2026-01-09 04:06:14.92	3.65	48.04	-29.2	-29.7	27.4	0.00e+00	0	33	0	3504340992	32	5519
2026-01-09 04:06:15.93	3.33	47.77	-28.8	-29.3	27.6	0.00e+00	0	33	0	3511681024	32	5292
2026-01-09 04:06:16.94	3.01	47.49	-28.7	-29.1	27.7	0.00e+00	0	33	0	3519021056	30	5827
2026-01-09 04:06:17.95	2.70	47.22	-28.5	-29.0	27.9	0.00e+00	0	33	0	3526361088	30	5700
2026-01-09 04:06:18.95	2.39	46.95	-28.5	-29.0	27.8	0.00e+00	0	33	0	3533701120	30	5731
2026-01-09 04:06:19.96	2.09	46.68	-28.4	-28.9	28.0	0.00e+00	0	33	0	3541041152	30	5642
2026-01-09 04:06:20.98	1.79	46.41	-28.2	-28.7	28.1	0.00e+00	0	33	0	3548381184	30	5522
2026-01-09 04:06:21.98	1.50	46.15	-28.3	-28.7	28.1	0.00e+00	0	33	0	3555721216	30	5540
2026-01-09 04:06:22.99	1.22	45.88	-28.2	-28.6	28.2	0.00e+00	0	33	0	3563061248	30	5496
2026-01-09 04:06:24.00	0.93	45.61	-28.2	-28.7	28.2	0.00e+00	0	33	0	3570401280	30	5515
2026-01-09 04:06:25.01	0.66	45.35	-28.3	-28.8	28.0	0.00e+00	0	33	0	3577741312	30	5593
2026-01-09 04:06:26.02	0.38	45.08	-28.3	-28.8	28.0	0.00e+00	0	33	0	3585081344	30	5598
2026-01-09 04:06:27.03	0.12	44.82	-28.2	-28.7	28.1	0.00e+00	0	33	0	3591372800	30	5538
2026-01-09 04:06:28.04	359.85	44.56	-28.2	-28.7	28.2	0.00e+00	0	33	0	3599761408	30	5513
2026-01-09 04:06:29.05	359.60	44.30	-28.0	-28.5	28.2	0.00e+00	0	33	0	3607101440	30	5413
2026-01-09 04:06:30.05	359.34	44.04	-28.0	-28.5	28.2	0.00e+00	0	33	0	3613392896	30	5387
2026-01-09 04:06:31.07	359.09	43.78	-28.3	-28.8	27.8	0.00e+00	0	33	0	3620732928	30	5596
2026-01-09 04:06:32.08	358.84	43.52	-28.0	-28.5	28.2	0.00e+00	0	33	0	3628072960	30	5414
2026-01-09 04:06:33.09	358.60	43.26	-27.9	-28.4	28.1	0.00e+00	0	33	0	3635412992	30	5333
2026-01-09 04:06:34.09	358.37	43.01	-28.1	-28.6	28.1	0.00e+00	0	33	0	3642753024	30	5448
2026-01-09 04:06:35.10	358.13	42.75	-28.3	-28.8	28.0	0.00e+00	0	33	0	3650093056	30	5576
2026-01-09 04:06:36.11	357.90	42.50	-28.4	-28.9	27.3	0.00e+00	0	33	0	3657433088	30	5667
2026-01-09 04:06:37.11	357.67	42.25	-28.5	-29.0	27.8	0.00e+00	0	33	0	3664773120	30	5733
2026-01-09 04:06:38.12	357.45	42.00	-28.4	-28.9	28.0	0.00e+00	0	33	0	3672113152	30	5643
2026-01-09 04:06:39.14	357.23	41.75	-28.3	-28.8	28.0	0.00e+00	0	33	0	3679453184	30	5598
2026-01-09 04:06:40.14	357.01	41.50	-28.2	-28.6	28.0	0.00e+00	0	33	0	3686793216	30	5487
2026-01-09 04:06:41.15	356.80	41.25	-28.4	-28.8	27.7	0.00e+00	0	33	0	3694133248	30	5613
2026-01-09 04:06:42.16	356.59	41.01	-28.0	-28.4	28.4	0.00e+00	0	33	0	3701473280	30	5369
2026-01-09 04:06:43.17	356.38	40.76	-28.2	-28.7	27.9	0.00e+00	0	33	0	3708813312	30	5526
2026-01-09 04:06:44.18	356.18	40.52	-28.0	-28.5	28.2	0.00e+00	0	33	0	3716153344	30	5408
2026-01-09 04:06:45.19	355.98	40.28	-28.2	-28.6	28.2	0.00e+00	0	33	0	3723493376	30	5495
2026-01-09 04:06:46.20	355.78	40.04	-28.2	-28.7	28.1	0.00e+00	0	33	0	3730833408	30	5534
2026-01-09 04:06:47.21	355.59	39.80	-28.2	-28.7	28.1	0.00e+00	0	33	0	3738173440	30	5523
2026-01-09 04:06:48.22	355.40	39.56	-28.3	-28.8	28.1	0.00e+00	0	33	0	3744464896	30	5585
2026-01-09 04:06:49.23	355.21	39.32	-28.2	-28.6	28.1	0.00e+00	0	33	0	3752853504	30	5489
2026-01-09 04:06:50.24	355.02	39.08	-27.9	-28.3	28.4	0.00e+00	0	33	0	3760193536	30	5286
2026-01-09 04:06:51.25	354.84	38.85	-27.9	-28.3	27.4	0.00e+00	0	33	0	3766484992	30	5300
2026-01-09 04:06:52.25	354.66	38.62	-27.6	-28.0	28.2	0.00e+00	0	33	0	3773825024	28	5728
2026-01-09 04:06:53.26	354.48	38.39	-27.7	-28.1	28.4	0.00e+00	0	33	0	3781165056	28	5811
2026-01-09 04:06:54.27	354.30	38.15	-27.6	-28.1	28.3	0.00e+00	0	33	0	3788505088	28	5794
2026-01-09 04:06:55.28	354.13	37.93	-27.7	-28.1	28.1	0.00e+00	0	33	0	3795845120	28	5821
2026-01-09 04:06:56.29	353.96	37.70	-27.7	-28.1	28.4	0.00e+00	0	33	0	3803185152	28	5819
2026-01-09 04:06:57.30	353.79	37.47	-27.8	-28.2	28.1	0.00e+00	0	33	0	3810525184	28	5875
2026-01-09 04:06:58.31	353.63	37.24	-27.6	-28.0	28.5	0.00e+00	0	33	0	3817865216	28	5743
2026-01-09 04:06:59.32	353.46	37.02	-27.6	-28.1	27.9	0.00e+00	0	33	0	3825205248	28	5795
2026-01-09 04:07:00.33	353.30	36.80	-27.6	-28.0	28.4	0.00e+00	0	33	0	3832545280	28	5756
2026-01-09 04:07:01.34	353.14	36.57	-27.6	-28.1	28.2	0.00e+00	0	33	0	3839885312	28	5781
2026-01-09 04:07:02.35	352.99	36.35	-27.7	-28.1	28.2	0.00e+00	0	33	0	3847225344	28	5817
2026-01-09 04:07:03.36	352.83	36.13	-27.9	-28.4	28.2	0.00e+00	0	33	0	3854565376	28	5974
2026-01-09 04:07:04.37	352.68	35.91	-28.2	-28.6	27.8	0.00e+00	0	33	0	3861905408	28	6152
2026-01-09 04:07:05.38	352.53	35.70	-28.0	-28.4	28.1	0.00e+00	0	33	0	3868196864	28	6025
2026-01-09 04:07:06.39	352.38	35.48	-27.9	-28.3	28.1	0.00e+00	0	33	0	3876585472	28	5956
2026-01-09 04:07:07.40	352.23	35.27	-27.9	-28.4	28.1	0.00e+00	0	33	0	3883925504	28	5979
2026-01-09 04:07:08.41	352.09	35.05	-27.7	-28.1	28.5	0.00e+00	0	33	0	3890216960	28	5820
2026-01-09 04:07:09.41	351.95	34.84	-27.7	-28.2	28.3	0.00e+00	0	33	0	3897556992	28	5854
2026-01-09 04:07:10.42	351.81	34.63	-27.6	-28.1	28.5	0.00e+00	0	33	0	3904897024	28	5764
2026-01-09 04:07:11.43	351.67	34.42	-27.5	-27.9	28.5	0.00e+00	0	33	0	3912237056	28	5676
2026-01-09 04:07:12.44	351.53	34.21	-27.5	-27.9	28.5	0.00e+00	0	33	0	3919577088	28	5684
2026-01-09 04:07:13.45	351.40	34.01	-27.6	-28.0	28.6	0.00e+00	0	33	0	3926917120	28	5760
2026-01-09 04:07:14.46	351.26	33.80	-27.7	-28.1	28.5	0.00e+00	0	33	0	3934257152	28	5807
2026-01-09 04:07:15.47	351.13	33.60	-27.8	-28.2	28.5	0.00e+00	0	33	0	3941597184	28	5891
2026-01-09 04:07:16.48	351.00	33.39	-27.9	-28.4	28.3	0.00e+00	0	33	0	3948937216	28	5986
2026-01-09 04:07:17.49	350.87	33.19	-27.9	-28.4	28.3	0.00e+00	0	33	0	3956277248	28	5975
2026-01-09 04:07:18.50	350.75	32.99	-27.9	-28.4	28.3	0.00e+00	0	33	0	3963617280	28	5980
2026-01-09 04:07:19.51	350.62	32.79	-27.9	-28.3	28.3	0.00e+00	0	33	0	3970957312	28	5953
2026-01-09 04:07:20.52	350.50	32.59	-27.9	-28.3	28.3	0.00e+00	0	33	0	3978297344	28	5959
2026-01-09 04:07:21.53	350.37	32.39	-27.8	-28.3	28.5	0.00e+00	0	33	0	3985637376	28	5906
2026-01-09 04:07:22.53	350.26	32.20	-27.8	-28.3	28.1	0.00e+00	0	33	0	3992977408	28	5914
2026-01-09 04:07:23.54	350.14	32.00	-27.6	-28.1	28.5	0.00e+00	0	33	0	4000317440	28	5784
2026-01-09 04:07:24.55	350.02	31.81	-27.6	-28.1	28.5	0.00e+00	0	33	0	4007657472	28	5789
2026-01-09 04:07:25.56	349.90	31.61	-27.7	-28.1	28.3	0.00e+00	0	33	0	4014997504	28	5802
2026-01-09 04:07:26.57	349.79	31.42	-27.5	-28.0	28.5	0.00e+00	0	33	0	4021288960	28	5731
2026-01-09 04:07:27.58	349.67	31.23	-27.7	-28.1	28.5	0.00e+00	0	33	0	4028628992	28	5800
2026-01-09 04:07:28.59	349.56	31.04	-27.7	-28.1	28.5	0.00e+00	0	33	0	4037017600	28	5813
2026-01-09 04:07:29.59	349.45	30.85	-27.7	-28.2	28.4	0.00e+00	0	33	0	4043309056	28	5852
2026-01-09 04:07:30.61	349.34	30.66	-27.7	-28.2	28.4	0.00e+00	0	33	0	4050649088	28	5862
2026-01-09 04:07:31.62	349.23	30.48	-27.9	-28.3	28.3	0.00e+00	0	33	0	4057989120	28	5952
2026-01-09 04:07:32.62	349.13	30.29	-27.9	-28.4	28.3	0.00e+00	0	33	0	4065329152	28	5983
2026-01-09 04:07:33.63	349.02	30.11	-28.0	-28.4	28.1	0.00e+00	0	33	0	4072669184	28	6020
2026-01-09 04:07:34.64	348.92	29.92	-28.0	-28.5	28.2	0.00e+00	0	33	0	4080009216	28	6068
2026-01-09 04:07:35.65	348.82	29.74	-28.0	-28.4	28.3	0.00e+00	0	33	0	4087349248	28	6028
2026-01-09 04:07:36.66	348.71	29.56	-28.1	-28.5	28.2	0.00e+00	0	33	0	4094689280	28	6099
2026-01-09 04:07:37.67	348.61	29.38	-28.0	-28.4	28.3	0.00e+00	0	33	0	4102029312	28	6020
2026-01-09 04:07:38.68	348.51	29.20	-28.1	-28.5	27.8	0.00e+00	0	33	0	4109369344	28	6090
2026-01-09 04:07:39.69	348.42	29.02	-28.0	-28.4	28.3	0.00e+00	0	33	0	4116709376	28	6031
2026-01-09 04:07:40.70	348.32	28.85	-28.0	-28.4	28.1	0.00e+00	0	33	0	4124049408	28	6005
2026-01-09 04:07:41.70	348.22	28.67	-28.0	-28.4	28.2	0.00e+00	0	33	0	4131389440	28	6023
2026-01-09 04:07:42.71	348.13	28.50	-28.1	-28.5	28.2	0.00e+00	0	33	0	4138729472	28	6067
2026-01-09 04:07:43.72	348.03	28.32	-28.0	-28.5	28.1	0.00e+00	0	33	0	4145020928	28	6069
2026-01-09 04:07:44.73	347.94	28.15	-28.0	-28.5	28.1	0.00e+00	0	33	0	4153409536	28	6040
2026-01-09 04:07:45.74	347.85	27.98	-28.1	-28.6	28.1	0.00e+00	0	33	0	4160749568	28	6122
2026-01-09 04:07:46.75	347.76	27.81	-28.2	-28.7	28.0	0.00e+00	0	33	0	4167041024	28	6186
2026-01-09 04:07:47.76	347.67	27.64	-28.1	-28.6	28.1	0.00e+00	0	33	0	4174381056	28	6117
2026-01-09 04:07:48.77	347.58	27.47	-28.1	-28.6	28.1	0.00e+00	0	33	0	4181721088	28	6122
2026-01-09 04:07:49.78	347.49	27.30	-28.2	-28.6	28.0	0.00e+00	0	33	0	4189061120	28	6163
2026-01-09 04:07:50.78	347.41	27.13	-28.2	-28.7	28.0	0.00e+00	0	33	0	4196401152	28	6189
2026-01-09 04:07:51.79	347.32	26.97	-28.2	-28.7	28.0	0.00e+00	0	33	0	4203741184	28	6193
2026-01-09 04:07:52.80	347.24	26.80	-28.2	-28.7	28.0	0.00e+00	0	33	0	4211081216	28	6211
2026-01-09 04:07:53.81	347.15	26.64	-28.3	-28.8	28.0	0.00e+00	0	33	0	4218421248	28	6254
2026-01-09 04:07:54.82	347.07	26.47	-28.3	-28.8	27.9	0.00e+00	0	33	0	4225761280	28	6281
2026-01-09 04:07:55.83	346.99	26.31	-28.4	-28.8	27.9	0.00e+00	0	33	0	4233101312	28	6301
2026-01-09 04:07:56.84	346.90	26.15	-28.4	-28.9	27.8	0.00e+00	0	33	0	4240441344	28	6351
2026-01-09 04:07:57.85	346.82	25.99	-28.3	-28.8	27.9	0.00e+00	0	33	0	4247781376	28	6289
2026-01-09 04:07:58.86	346.74	25.83	-28.4	-28.9	27.9	0.00e+00	0	33	0	4255121408	28	6341
2026-01-09 04:07:59.87	346.66	25.67	-28.3	-28.8	27.9	0.00e+00	0	33	0	4262461440	28	6271
2026-01-09 04:08:00.88	346.59	25.51	-28.6	-29.0	27.8	0.00e+00	0	33	0	4269801472	28	6444
2026-01-09 04:08:01.89	346.51	25.35	-28.4	-28.9	27.8	0.00e+00	0	33	0	4277141504	28	6348
2026-01-09 04:08:02.90	346.43	25.20	-28.3	-28.7	27.9	0.00e+00	0	33	0	4284481536	28	6238
2026-01-09 04:08:03.91	346.36	25.04	-28.1	-28.6	28.0	0.00e+00	0	33	0	4291821568	28	6131
2026-01-09 04:08:04.92	346.28	24.89	-28.3	-28.7	27.9	0.00e+00	0	33	0	4298113024	28	6230
2026-01-09 04:08:05.93	346.21	24.73	-28.2	-28.7	28.0	0.00e+00	0	33	0	4306501632	28	6174
2026-01-09 04:08:06.94	346.13	24.58	-27.9	-28.4	28.2	0.00e+00	0	33	0	4313841664	28	5999
2026-01-09 04:08:07.95	346.06	24.43	-28.1	-28.5	28.0	0.00e+00	0	33	0	4320133120	28	6090
2026-01-09 04:08:08.95	345.99	24.28	-28.0	-28.5	28.2	0.00e+00	0	33	0	4327473152	28	6055
2026-01-09 04:08:09.96	345.92	24.13	-28.1	-28.6	28.0	0.00e+00	0	33	0	4334813184	28	6122
2026-01-09 04:08:10.97	345.85	23.98	-28.0	-28.4	28.1	0.00e+00	0	33	0	4342153216	28	6014
2026-01-09 04:08:11.98	345.78	23.83	-28.0	-28.5	28.1	0.00e+00	0	33	0	4349493248	28	6055
2026-01-09 04:08:12.99	345.71	23.68	-28.0	-28.5	28.1	0.00e+00	0	33	0	4356833280	28	6043
2026-01-09 04:08:14.00	345.64	23.53	-28.1	-28.6	28.0	0.00e+00	0	33	0	4364173312	28	6130
2026-01-09 04:08:15.01	345.57	23.39	-28.0	-28.5	28.0	0.00e+00	0	33	0	4371513344	28	6068
2026-01-09 04:08:16.02	345.51	23.24	-28.2	-28.7	28.0	0.00e+00	0	33	0	4378853376	28	6179
2026-01-09 04:08:17.03	345.44	23.10	-28.1	-28.6	28.0	0.00e+00	0	33	0	4386193408	28	6131
2026-01-09 04:08:18.04	345.37	22.95	-28.3	-28.7	28.0	0.00e+00	0	33	0	4393533440	28	6237
2026-01-09 04:08:19.05	345.31	22.81	-28.3	-28.8	27.9	0.00e+00	0	33	0	4400873472	28	6280
2026-01-09 04:08:20.06	345.24	22.67	-28.3	-28.7	27.9	0.00e+00	0	33	0	4408213504	28	6225
2026-01-09 04:08:21.07	345.18	22.52	-28.4	-28.9	27.8	0.00e+00	0	33	0	4415553536	28	6350
2026-01-09 04:08:22.07	345.12	22.38	-28.4	-28.9	27.9	0.00e+00	0	33	0	4421844992	28	6350
2026-01-09 04:08:23.09	345.06	22.24	-28.6	-29.0	27.7	0.00e+00	0	33	0	4430233600	28	6464
2026-01-09 04:08:24.10	344.99	22.10	-28.5	-28.9	27.7	0.00e+00	0	33	0	4437573632	28	6374
2026-01-09 04:08:25.11	344.93	21.96	-28.5	-29.0	27.4	0.00e+00	0	33	0	4443865088	28	6401
2026-01-09 04:08:26.12	344.87	21.82	-28.6	-29.1	27.6	0.00e+00	0	33	0	4451205120	28	6508
2026-01-09 04:08:27.13	344.81	21.69	-28.5	-29.0	27.7	0.00e+00	0	33	0	4458545152	28	6395
2026-01-09 04:08:28.14	344.75	21.55	-28.5	-29.0	27.7	0.00e+00	0	33	0	4465885184	28	6396
2026-01-09 04:08:29.15	344.69	21.41	-28.5	-28.9	27.7	0.00e+00	0	33	0	4473225216	28	6379
2026-01-09 04:08:30.16	344.63	21.28	-28.6	-29.0	27.6	0.00e+00	0	33	0	4480565248	28	6444
2026-01-09 04:08:31.17	344.57	21.14	-28.5	-29.0	27.6	0.00e+00	0	33	0	4487905280	28	6407
2026-01-09 04:08:32.18	344.52	21.01	-28.5	-29.0	27.6	0.00e+00	0	33	0	4495245312	28	6427
2026-01-09 04:08:33.19	344.46	20.88	-28.6	-29.0	27.7	0.00e+00	0	33	0	4502585344	28	6459
2026-01-09 04:08:34.20	344.40	20.74	-28.6	-29.0	27.3	0.00e+00	0	33	0	4509925376	28	6463
2026-01-09 04:08:35.21	344.35	20.61	-28.7	-29.1	27.4	0.00e+00	0	33	0	4517265408	28	6534
2026-01-09 04:08:36.22	344.29	20.48	-28.7	-29.2	27.6	0.00e+00	0	33	0	4524605440	30	5859
2026-01-09 04:08:37.22	344.24	20.35	-28.8	-29.2	27.4	0.00e+00	0	33	0	4531945472	30	5896
2026-01-09 04:08:38.23	344.18	20.22	-28.9	-29.3	27.4	0.00e+00	0	33	0	4539285504	30	5958
2026-01-09 04:08:39.24	344.13	20.09	-28.9	-29.3	27.4	0.00e+00	0	33	0	4546625536	30	5951
2026-01-09 04:08:40.25	344.08	19.96	-29.0	-29.4	27.4	0.00e+00	0	33	0	4553965568	30	6031
2026-01-09 04:08:41.26	344.02	19.83	-29.0	-29.5	27.3	0.00e+00	0	33	0	4561305600	30	6040
2026-01-09 04:08:42.27	343.97	19.71	-29.0	-29.5	27.3	0.00e+00	0	33	0	4568645632	30	6077
2026-01-09 04:08:43.28	343.92	19.58	-29.2	-29.7	27.2	0.00e+00	0	33	0	4575985664	30	6220
2026-01-09 04:08:44.29	343.87	19.45	-29.3	-29.8	27.1	0.00e+00	0	33	0	4583325696	30	6292
2026-01-09 04:08:45.30	343.82	19.33	-29.3	-29.8	27.1	0.00e+00	0	33	0	4590665728	30	6249
2026-01-09 04:08:46.31	343.76	19.20	-29.3	-29.8	27.0	0.00e+00	0	33	0	4596957184	30	6271
2026-01-09 04:08:47.32	343.71	19.08	-29.5	-30.0	26.9	0.00e+00	0	33	0	4604297216	30	6418
