passes_logs/2026/01/09/R4.6S_Anadyr/R4.6S_Anadyr__20260109_072059_FENGYUN_3E_rec.log

#Pass ID: 20260109_072059_FENGYUN 3E
#Satellite: FENGYUN 3E
#Configuration: FENGYUN 3E
#almurnet v.1.7.20251203
#Start time: 2026-01-09 07:21:03

#Version: 2.2.20231116
#Station: R4.6S_Anadyr
#Location: 177.4865 lon 64.73178 lat
#TLE: 1 49008U 21062A   26008.59312205 -.00000223  00000+0 -84486-4 0  9997
#TLE: 2 49008  98.7483  13.7961 0001692 149.3118 210.8157 14.19883502233939

#Time	Az	El	Level	Level2	SNR	BER	BlckErr	Temp	State	Recorded	gain1	gain2
2026-01-09 07:21:03.24	232.77	0.15	-47.5	-57.7	3.3	8.40e-01	0	27	0	0	60	27652
2026-01-09 07:21:04.24	232.85	0.19	-47.6	-59.0	3.6	8.45e-01	0	27	104	0	60	32121
2026-01-09 07:21:05.25	232.94	0.24	-47.3	-59.0	3.6	8.46e-01	0	27	104	0	60	32293
2026-01-09 07:21:06.26	233.03	0.28	-47.4	-59.0	3.6	8.45e-01	0	27	104	0	60	32364
2026-01-09 07:21:07.27	233.12	0.33	-47.7	-59.1	3.6	8.45e-01	0	27	104	0	60	32424
2026-01-09 07:21:08.28	233.21	0.37	-47.7	-59.0	3.6	8.46e-01	0	27	104	0	60	32256
2026-01-09 07:21:09.29	233.30	0.42	-47.4	-59.1	3.6	8.45e-01	0	27	104	0	60	32418
2026-01-09 07:21:10.30	233.39	0.46	-47.4	-59.0	3.6	8.45e-01	0	27	104	0	60	32048
2026-01-09 07:21:11.31	233.48	0.51	-47.7	-59.0	3.6	8.45e-01	0	27	104	0	60	32037
2026-01-09 07:21:12.32	233.57	0.55	-47.7	-58.9	3.6	8.45e-01	0	27	104	0	60	31940
2026-01-09 07:21:13.33	233.66	0.60	-47.7	-58.9	3.6	8.45e-01	0	27	104	0	60	31832
2026-01-09 07:21:14.34	233.75	0.64	-47.6	-58.8	3.6	8.44e-01	0	27	104	0	60	31390
2026-01-09 07:21:15.35	233.84	0.69	-47.2	-58.4	3.6	8.45e-01	0	27	104	0	60	30115
2026-01-09 07:21:16.36	233.93	0.73	-46.4	-58.0	3.6	8.46e-01	0	27	104	0	60	28597
2026-01-09 07:21:17.37	234.02	0.78	-44.7	-57.0	3.6	8.45e-01	0	28	104	0	60	25475
2026-01-09 07:21:18.37	234.11	0.82	-43.3	-56.6	3.6	8.44e-01	0	27	104	0	60	24357
2026-01-09 07:21:19.39	234.21	0.87	-43.3	-56.5	3.5	8.45e-01	0	27	104	0	60	24250
2026-01-09 07:21:20.40	234.30	0.91	-43.3	-56.6	3.6	8.45e-01	0	27	104	0	60	24299
2026-01-09 07:21:21.41	234.39	0.96	-43.3	-56.5	3.6	8.46e-01	0	28	104	0	60	24289
2026-01-09 07:21:22.41	234.48	1.00	-43.3	-56.6	3.6	8.45e-01	0	28	104	0	60	24336
2026-01-09 07:21:23.42	234.58	1.05	-43.3	-56.6	3.6	8.44e-01	0	28	104	0	60	24334
2026-01-09 07:21:24.44	234.67	1.10	-43.3	-56.5	3.6	8.45e-01	0	28	104	0	60	24286
2026-01-09 07:21:25.44	234.76	1.14	-43.3	-56.6	3.6	8.43e-01	0	28	104	0	60	24354
2026-01-09 07:21:26.45	234.86	1.19	-43.4	-56.6	3.6	8.45e-01	0	28	104	0	60	24341
2026-01-09 07:21:27.47	234.95	1.23	-43.4	-56.6	3.6	8.45e-01	0	27	104	0	60	24393
2026-01-09 07:21:28.48	235.05	1.28	-43.3	-56.5	3.6	8.46e-01	0	28	104	0	60	24289
2026-01-09 07:21:29.49	235.14	1.32	-43.3	-56.6	3.6	8.46e-01	0	28	104	0	60	24311
2026-01-09 07:21:30.50	235.23	1.37	-43.3	-56.6	3.6	8.45e-01	0	28	104	0	60	24379
2026-01-09 07:21:31.51	235.33	1.41	-43.3	-56.6	3.6	8.45e-01	0	28	104	0	60	24352
2026-01-09 07:21:32.52	235.43	1.46	-43.3	-56.5	3.6	8.44e-01	0	28	104	0	60	24243
2026-01-09 07:21:33.53	235.52	1.50	-43.3	-56.5	3.6	8.45e-01	0	28	104	0	60	24243
2026-01-09 07:21:34.54	235.62	1.55	-43.3	-56.6	3.6	8.45e-01	0	28	104	0	60	24316
2026-01-09 07:21:35.55	235.71	1.59	-43.3	-56.5	3.6	8.45e-01	0	28	104	0	60	24278
2026-01-09 07:21:36.56	235.81	1.64	-43.3	-56.5	3.6	8.44e-01	0	28	104	0	60	24188
2026-01-09 07:21:37.57	235.91	1.68	-43.3	-56.5	3.6	8.45e-01	0	28	104	0	60	24291
2026-01-09 07:21:38.58	236.00	1.73	-43.3	-56.5	3.6	8.46e-01	0	28	104	0	60	24199
2026-01-09 07:21:39.59	236.10	1.77	-43.3	-56.6	3.6	8.45e-01	0	28	104	0	60	24353
2026-01-09 07:21:40.60	236.20	1.82	-43.3	-56.5	3.6	8.45e-01	0	28	104	0	60	24094
2026-01-09 07:21:41.60	236.30	1.86	-43.3	-56.5	3.6	8.46e-01	0	28	104	0	60	24184
2026-01-09 07:21:42.62	236.40	1.91	-43.3	-56.5	3.6	8.45e-01	0	28	104	0	60	24092
2026-01-09 07:21:43.63	236.49	1.96	-43.3	-56.6	3.5	8.45e-01	0	28	104	0	60	24332
2026-01-09 07:21:44.63	236.59	2.00	-43.3	-56.5	3.6	8.45e-01	0	28	104	0	60	24216
2026-01-09 07:21:45.64	236.69	2.05	-43.3	-56.5	3.6	8.45e-01	0	28	104	0	60	24217
2026-01-09 07:21:46.65	236.79	2.09	-43.3	-56.5	3.6	8.46e-01	0	28	104	0	60	24254
2026-01-09 07:21:47.66	236.89	2.14	-43.3	-56.5	3.6	8.45e-01	0	28	104	0	60	24133
2026-01-09 07:21:48.67	236.99	2.18	-43.3	-56.5	3.6	8.46e-01	0	28	104	0	60	24129
2026-01-09 07:21:49.68	237.09	2.23	-43.4	-56.5	3.6	8.46e-01	0	28	104	0	60	24091
2026-01-09 07:21:50.69	237.19	2.27	-43.3	-56.5	3.6	8.45e-01	0	28	104	0	60	24283
2026-01-09 07:21:51.70	237.29	2.32	-43.3	-56.5	3.6	8.46e-01	0	28	104	0	60	24167
2026-01-09 07:21:52.71	237.39	2.36	-43.3	-56.5	3.6	8.44e-01	0	28	104	0	60	24068
2026-01-09 07:21:53.72	237.49	2.41	-43.3	-56.5	3.6	8.45e-01	0	28	104	0	60	24079
2026-01-09 07:21:54.73	237.60	2.46	-43.3	-56.5	3.6	8.46e-01	0	28	104	0	60	24099
2026-01-09 07:21:55.74	237.70	2.50	-43.3	-56.5	3.6	8.45e-01	0	28	104	0	60	24176
2026-01-09 07:21:56.75	237.80	2.55	-43.2	-56.5	3.6	8.45e-01	0	28	104	0	60	24247
2026-01-09 07:21:57.76	237.90	2.59	-43.3	-56.4	3.6	8.46e-01	0	28	104	0	60	23998
2026-01-09 07:21:58.76	238.01	2.64	-43.2	-56.5	3.6	8.46e-01	0	28	104	0	60	24249
2026-01-09 07:21:59.78	238.11	2.68	-43.2	-56.4	3.6	8.47e-01	0	28	104	0	60	23923
2026-01-09 07:22:00.78	238.21	2.73	-43.2	-56.4	3.6	8.46e-01	0	28	104	0	60	23890
2026-01-09 07:22:01.79	238.32	2.77	-43.2	-56.3	3.6	8.46e-01	0	28	104	0	60	23525
2026-01-09 07:22:02.80	238.42	2.82	-43.2	-56.1	3.6	8.45e-01	0	28	104	0	60	23096
2026-01-09 07:22:03.81	238.53	2.86	-43.2	-55.9	3.6	8.46e-01	0	28	104	0	60	22595
2026-01-09 07:22:04.82	238.63	2.91	-43.2	-55.7	3.6	8.45e-01	0	28	104	0	60	22108
2026-01-09 07:22:05.83	238.74	2.95	-43.2	-55.6	3.6	8.44e-01	0	28	104	0	60	21681
2026-01-09 07:22:06.84	238.84	3.00	-43.2	-55.5	3.6	8.45e-01	0	28	104	0	60	21560
2026-01-09 07:22:07.85	238.95	3.05	-45.0	-56.7	3.6	8.43e-01	0	28	104	0	60	24654
2026-01-09 07:22:08.86	239.05	3.09	-44.5	-56.2	3.6	8.45e-01	0	28	104	0	60	23378
2026-01-09 07:22:09.87	239.16	3.14	-44.2	-54.7	3.6	8.44e-01	0	28	104	0	60	19679
2026-01-09 07:22:10.88	239.27	3.18	-44.2	-52.4	3.9	8.40e-01	0	28	104	0	60	15116
2026-01-09 07:22:11.89	239.37	3.23	-43.7	-55.1	3.6	8.42e-01	0	28	104	0	60	20605
2026-01-09 07:22:12.89	239.48	3.27	-44.1	-51.8	4.6	8.27e-01	0	28	104	0	60	14067
2026-01-09 07:22:13.90	239.59	3.32	-43.7	-50.0	4.8	7.67e-01	0	28	0	0	60	11458
2026-01-09 07:22:14.91	239.69	3.36	-43.6	-49.7	4.9	7.41e-01	0	28	0	0	60	11062
2026-01-09 07:22:15.92	239.80	3.41	-44.0	-49.7	5.0	7.38e-01	0	28	0	0	60	11021
2026-01-09 07:22:16.93	239.91	3.45	-44.1	-49.5	5.4	7.29e-01	0	28	0	0	60	10769
2026-01-09 07:22:17.93	240.02	3.50	-44.1	-48.8	6.0	3.36e-01	0	28	0	5242880	60	9957
2026-01-09 07:22:18.94	240.13	3.54	-43.9	-48.6	6.3	2.85e-01	0	28	0	12582912	60	9775
2026-01-09 07:22:19.95	240.24	3.59	-43.5	-48.1	6.7	2.01e-01	0	28	0	19922944	60	9207
2026-01-09 07:22:20.96	240.35	3.63	-43.2	-48.1	6.7	1.82e-01	0	28	0	27262976	60	9201
2026-01-09 07:22:21.97	240.46	3.68	-42.8	-47.5	7.5	1.19e-01	0	28	0	34603008	60	8602
2026-01-09 07:22:22.98	240.57	3.72	-42.6	-46.9	8.0	6.80e-02	0	28	0	40894464	58	9015
2026-01-09 07:22:23.99	240.68	3.77	-42.4	-46.6	8.4	6.01e-02	0	28	0	48234496	58	8694
2026-01-09 07:22:25.00	240.79	3.82	-42.4	-46.1	9.0	2.89e-02	0	28	0	55574528	58	8215
2026-01-09 07:22:26.01	240.90	3.86	-42.4	-45.9	9.3	2.04e-02	0	28	0	62914560	58	7983
2026-01-09 07:22:27.02	241.01	3.91	-42.2	-45.5	9.8	1.30e-02	0	28	0	70254592	58	7608
2026-01-09 07:22:28.03	241.13	3.95	-42.0	-45.2	10.2	8.86e-03	0	28	0	77594624	58	7422
2026-01-09 07:22:29.04	241.24	4.00	-41.9	-45.0	10.3	5.72e-03	0	28	0	84934656	58	7234
2026-01-09 07:22:30.05	241.35	4.04	-42.0	-45.1	10.4	4.53e-03	0	28	0	92274688	58	7277
2026-01-09 07:22:31.06	241.47	4.09	-41.9	-44.6	11.0	2.75e-03	0	28	0	99614720	58	6924
2026-01-09 07:22:32.07	241.58	4.13	-41.8	-44.2	11.4	1.21e-03	0	28	0	106954752	58	6581
2026-01-09 07:22:33.08	241.69	4.18	-41.8	-44.1	11.7	1.05e-03	0	28	0	114294784	56	7269
2026-01-09 07:22:34.09	241.81	4.22	-41.5	-43.8	11.9	4.45e-04	0	28	0	121634816	56	7083
2026-01-09 07:22:35.09	241.92	4.27	-41.0	-43.3	12.6	1.98e-04	0	28	0	128974848	56	6620
2026-01-09 07:22:36.11	242.04	4.31	-40.6	-42.7	13.1	4.80e-05	0	28	0	136314880	54	6966
2026-01-09 07:22:37.11	242.15	4.36	-40.5	-42.4	13.4	2.51e-05	0	28	0	143654912	54	6725
2026-01-09 07:22:38.12	242.27	4.40	-40.7	-42.4	13.3	9.10e-06	0	28	0	150994944	54	6752
2026-01-09 07:22:39.13	242.38	4.45	-40.5	-42.2	13.7	1.48e-05	0	28	0	158334976	54	6542
2026-01-09 07:22:40.14	242.50	4.49	-40.1	-41.6	14.3	1.10e-06	0	28	0	165675008	54	6169
2026-01-09 07:22:41.15	242.61	4.54	-40.0	-41.6	14.4	3.40e-06	0	28	0	173015040	54	6108
2026-01-09 07:22:42.16	242.73	4.58	-39.5	-40.9	15.0	0.00e+00	0	28	0	180355072	52	6366
2026-01-09 07:22:43.17	242.85	4.63	-39.6	-41.0	14.8	0.00e+00	0	28	0	187695104	52	6448
2026-01-09 07:22:44.18	242.97	4.67	-39.3	-40.7	15.1	0.00e+00	0	28	0	193986560	52	6235
2026-01-09 07:22:45.19	243.08	4.72	-39.0	-40.3	15.5	0.00e+00	0	28	0	201326592	52	5964
2026-01-09 07:22:46.20	243.20	4.76	-38.9	-40.2	15.7	0.00e+00	0	28	0	209715200	52	5871
2026-01-09 07:22:47.21	243.32	4.81	-38.4	-39.6	16.3	0.00e+00	0	28	0	216006656	50	6132
2026-01-09 07:22:48.22	243.44	4.85	-38.0	-39.2	16.6	0.00e+00	0	28	0	223346688	50	5857
2026-01-09 07:22:49.23	243.56	4.90	-37.8	-38.9	16.9	0.00e+00	0	28	0	230686720	50	5646
2026-01-09 07:22:50.24	243.68	4.94	-37.8	-38.9	16.9	0.00e+00	0	28	0	238026752	48	6345
2026-01-09 07:22:51.25	243.80	4.99	-37.3	-38.4	17.4	0.00e+00	0	28	0	245366784	48	6002
2026-01-09 07:22:52.26	243.92	5.03	-37.1	-38.2	17.6	0.00e+00	0	28	0	252706816	48	5868
2026-01-09 07:22:53.27	244.04	5.08	-37.1	-38.2	17.6	0.00e+00	0	28	0	260046848	48	5844
2026-01-09 07:22:54.28	244.16	5.12	-36.8	-37.8	18.0	0.00e+00	0	28	0	267386880	48	5614
2026-01-09 07:22:55.29	244.28	5.17	-36.8	-37.7	18.1	0.00e+00	0	28	0	274726912	46	6239
2026-01-09 07:22:56.30	244.41	5.21	-36.4	-37.3	18.4	0.00e+00	0	28	0	282066944	46	5943
2026-01-09 07:22:57.31	244.53	5.25	-36.2	-37.1	18.6	0.00e+00	0	28	0	289406976	46	5783
2026-01-09 07:22:58.32	244.65	5.30	-36.1	-37.1	18.6	0.00e+00	0	28	0	296747008	46	5769
2026-01-09 07:22:59.33	244.77	5.34	-36.0	-37.0	18.8	0.00e+00	0	28	0	304087040	46	5705
2026-01-09 07:23:00.34	244.90	5.39	-35.8	-36.6	19.0	0.00e+00	0	28	0	311427072	46	5482
2026-01-09 07:23:01.35	245.02	5.43	-35.6	-36.5	19.1	0.00e+00	0	28	0	317718528	44	6054
2026-01-09 07:23:02.36	245.14	5.48	-35.6	-36.4	19.3	0.00e+00	0	28	0	326107136	44	6017
2026-01-09 07:23:03.37	245.27	5.52	-35.4	-36.2	19.3	0.00e+00	0	28	0	333447168	44	5884
2026-01-09 07:23:04.38	245.39	5.57	-35.4	-36.3	19.4	0.00e+00	0	28	0	339738624	44	5936
2026-01-09 07:23:05.39	245.52	5.61	-35.2	-36.1	19.5	0.00e+00	0	28	0	347078656	44	5766
2026-01-09 07:23:06.40	245.64	5.65	-35.1	-35.9	19.6	0.00e+00	0	28	0	354418688	44	5694
2026-01-09 07:23:07.41	245.77	5.70	-35.0	-35.8	19.7	0.00e+00	0	28	0	361758720	44	5611
2026-01-09 07:23:08.42	245.90	5.74	-34.8	-35.6	19.9	0.00e+00	0	28	0	369098752	42	6148
2026-01-09 07:23:09.43	246.02	5.79	-34.8	-35.7	19.9	0.00e+00	0	28	0	376438784	42	6186
2026-01-09 07:23:10.44	246.15	5.83	-34.7	-35.5	20.0	0.00e+00	0	28	0	383778816	42	6099
2026-01-09 07:23:11.45	246.28	5.88	-34.6	-35.4	20.2	0.00e+00	0	28	0	391118848	42	5985
2026-01-09 07:23:12.46	246.40	5.92	-34.5	-35.3	20.3	0.00e+00	0	28	0	398458880	42	5912
2026-01-09 07:23:13.47	246.53	5.96	-34.4	-35.2	20.3	0.00e+00	0	28	0	405798912	42	5889
2026-01-09 07:23:14.48	246.66	6.01	-34.2	-35.0	20.4	0.00e+00	0	28	0	413138944	42	5736
2026-01-09 07:23:15.49	246.79	6.05	-34.2	-35.0	20.4	0.00e+00	0	28	0	420478976	42	5723
2026-01-09 07:23:16.50	246.92	6.10	-34.2	-35.0	20.5	0.00e+00	0	28	0	427819008	42	5758
2026-01-09 07:23:17.51	247.05	6.14	-34.1	-34.9	20.6	0.00e+00	0	28	0	435159040	42	5632
2026-01-09 07:23:18.52	247.18	6.18	-33.8	-34.6	20.7	0.00e+00	0	28	0	442499072	42	5482
2026-01-09 07:23:19.53	247.31	6.23	-33.8	-34.6	20.8	0.00e+00	0	28	0	449839104	42	5468
2026-01-09 07:23:20.54	247.44	6.27	-33.7	-34.5	20.8	0.00e+00	0	28	0	457179136	40	6051
2026-01-09 07:23:21.55	247.57	6.31	-33.7	-34.5	20.9	0.00e+00	0	28	0	464519168	40	6039
2026-01-09 07:23:22.56	247.70	6.36	-33.5	-34.3	21.0	0.00e+00	0	28	0	471859200	40	5909
2026-01-09 07:23:23.57	247.83	6.40	-33.3	-34.1	21.1	0.00e+00	0	28	0	479199232	40	5780
2026-01-09 07:23:24.58	247.97	6.44	-33.4	-34.2	21.1	0.00e+00	0	28	0	486539264	40	5876
2026-01-09 07:23:25.59	248.10	6.49	-33.3	-34.1	21.2	0.00e+00	0	28	0	492830720	40	5802
2026-01-09 07:23:26.60	248.23	6.53	-33.2	-33.9	21.3	0.00e+00	0	28	0	501219328	40	5659
2026-01-09 07:23:27.61	248.37	6.57	-33.1	-33.8	21.3	0.00e+00	0	28	0	508559360	40	5628
2026-01-09 07:23:28.62	248.50	6.62	-32.9	-33.7	21.4	0.00e+00	0	28	0	514850816	40	5532
2026-01-09 07:23:29.63	248.63	6.66	-33.0	-33.7	21.3	0.00e+00	0	28	0	522190848	40	5550
2026-01-09 07:23:30.64	248.77	6.70	-32.8	-33.6	21.5	0.00e+00	0	28	0	529530880	40	5456
2026-01-09 07:23:31.65	248.90	6.75	-32.9	-33.6	21.5	0.00e+00	0	28	0	536870912	40	5485
2026-01-09 07:23:32.66	249.04	6.79	-32.9	-33.7	21.5	0.00e+00	0	28	0	544210944	40	5509
2026-01-09 07:23:33.67	249.17	6.83	-32.8	-33.5	21.6	0.00e+00	0	28	0	551550976	40	5418
2026-01-09 07:23:34.68	249.31	6.88	-32.7	-33.5	21.7	0.00e+00	0	28	0	558891008	38	6041
2026-01-09 07:23:35.69	249.45	6.92	-32.6	-33.4	21.7	0.00e+00	0	28	0	566231040	38	5974
2026-01-09 07:23:36.70	249.58	6.96	-32.7	-33.5	21.6	0.00e+00	0	28	0	573571072	38	6045
2026-01-09 07:23:37.71	249.72	7.00	-32.7	-33.5	21.7	0.00e+00	0	28	0	580911104	38	6055
2026-01-09 07:23:38.72	249.86	7.05	-32.6	-33.4	21.7	0.00e+00	0	28	0	588251136	38	5970
2026-01-09 07:23:39.73	249.99	7.09	-32.8	-33.5	21.7	0.00e+00	0	28	0	595591168	38	6078
2026-01-09 07:23:40.74	250.13	7.13	-32.5	-33.2	21.8	0.00e+00	0	28	0	602931200	38	5892
2026-01-09 07:23:41.75	250.27	7.17	-32.4	-33.2	21.8	0.00e+00	0	28	0	610271232	38	5852
2026-01-09 07:23:42.76	250.41	7.22	-32.5	-33.2	21.7	0.00e+00	0	28	0	617611264	38	5882
2026-01-09 07:23:43.77	250.55	7.26	-32.5	-33.3	21.8	0.00e+00	0	28	0	624951296	38	5905
2026-01-09 07:23:44.78	250.69	7.30	-32.5	-33.2	21.7	0.00e+00	0	28	0	632291328	38	5890
2026-01-09 07:23:45.79	250.83	7.34	-32.4	-33.1	21.8	0.00e+00	0	28	0	638582784	38	5821
2026-01-09 07:23:46.80	250.97	7.38	-32.4	-33.2	21.8	0.00e+00	0	28	0	645922816	38	5847
2026-01-09 07:23:47.81	251.11	7.43	-32.4	-33.2	21.8	0.00e+00	0	28	0	654311424	38	5837
2026-01-09 07:23:48.82	251.25	7.47	-32.3	-33.0	22.0	0.00e+00	0	28	0	660602880	38	5734
2026-01-09 07:23:49.83	251.40	7.51	-32.3	-33.0	21.9	0.00e+00	0	28	0	667942912	38	5732
2026-01-09 07:23:50.84	251.54	7.55	-32.4	-33.1	21.9	0.00e+00	0	28	0	675282944	38	5796
2026-01-09 07:23:51.84	251.68	7.59	-32.4	-33.1	21.9	0.00e+00	0	28	0	682622976	38	5796
2026-01-09 07:23:52.85	251.82	7.63	-32.3	-33.1	21.9	0.00e+00	0	28	0	689963008	38	5766
2026-01-09 07:23:53.86	251.97	7.68	-32.3	-33.1	21.9	0.00e+00	0	28	0	697303040	38	5763
2026-01-09 07:23:54.87	252.11	7.72	-32.3	-33.0	21.8	0.00e+00	0	28	0	704643072	38	5755
2026-01-09 07:23:55.88	252.25	7.76	-32.3	-33.1	21.8	0.00e+00	0	28	0	711983104	38	5762
2026-01-09 07:23:56.89	252.40	7.80	-32.3	-33.1	21.8	0.00e+00	0	28	0	719323136	38	5786
2026-01-09 07:23:57.90	252.54	7.84	-32.4	-33.2	21.7	0.00e+00	0	28	0	726663168	38	5833
2026-01-09 07:23:58.91	252.69	7.88	-32.3	-33.0	21.9	0.00e+00	0	28	0	734003200	38	5738
2026-01-09 07:23:59.92	252.83	7.92	-32.2	-33.0	22.0	0.00e+00	0	28	0	741343232	38	5697
2026-01-09 07:24:00.93	252.98	7.96	-32.1	-32.8	22.0	0.00e+00	0	28	0	748683264	38	5601
2026-01-09 07:24:01.94	253.13	8.00	-32.1	-32.9	22.0	0.00e+00	0	28	0	756023296	38	5642
2026-01-09 07:24:02.95	253.27	8.05	-31.9	-32.7	22.2	0.00e+00	0	28	0	763363328	38	5513
2026-01-09 07:24:03.96	253.42	8.09	-32.1	-32.8	22.2	0.00e+00	0	28	0	770703360	38	5571
2026-01-09 07:24:04.97	253.57	8.13	-31.9	-32.6	22.4	0.00e+00	0	28	0	778043392	38	5497
2026-01-09 07:24:05.98	253.72	8.17	-32.0	-32.7	22.2	0.00e+00	0	28	0	785383424	38	5516
2026-01-09 07:24:06.99	253.87	8.21	-32.0	-32.7	22.2	0.00e+00	0	28	0	791674880	38	5530
2026-01-09 07:24:08.00	254.01	8.25	-32.0	-32.7	22.2	0.00e+00	0	28	0	799014912	38	5525
2026-01-09 07:24:09.01	254.16	8.29	-31.9	-32.6	22.2	0.00e+00	0	28	0	807403520	38	5501
2026-01-09 07:24:10.02	254.31	8.33	-32.0	-32.7	22.2	0.00e+00	0	28	0	813694976	38	5539
2026-01-09 07:24:11.02	254.46	8.37	-31.9	-32.6	22.3	0.00e+00	0	28	0	821035008	38	5445
2026-01-09 07:24:12.03	254.61	8.41	-31.9	-32.6	22.2	0.00e+00	0	28	0	828375040	38	5496
2026-01-09 07:24:13.05	254.76	8.45	-31.9	-32.6	22.2	0.00e+00	0	28	0	835715072	38	5468
2026-01-09 07:24:14.05	254.91	8.49	-31.9	-32.6	22.1	0.00e+00	0	28	0	843055104	38	5447
2026-01-09 07:24:15.06	255.07	8.53	-31.8	-32.5	22.3	0.00e+00	0	28	0	850395136	38	5392
2026-01-09 07:24:16.07	255.22	8.56	-31.8	-32.5	22.3	0.00e+00	0	28	0	857735168	36	6042
2026-01-09 07:24:17.08	255.37	8.60	-31.8	-32.5	22.2	0.00e+00	0	28	0	865075200	36	6083
2026-01-09 07:24:18.08	255.52	8.64	-31.8	-32.5	22.3	0.00e+00	0	28	0	872415232	36	6053
2026-01-09 07:24:19.09	255.68	8.68	-31.9	-32.6	22.4	0.00e+00	0	28	0	879755264	36	6126
2026-01-09 07:24:20.10	255.83	8.72	-31.9	-32.6	22.3	0.00e+00	0	28	0	887095296	36	6121
2026-01-09 07:24:21.11	255.98	8.76	-31.9	-32.6	22.3	0.00e+00	0	28	0	894435328	36	6107
2026-01-09 07:24:22.12	256.14	8.80	-31.9	-32.6	22.3	0.00e+00	0	28	0	901775360	36	6143
2026-01-09 07:24:23.13	256.29	8.84	-31.7	-32.4	22.5	0.00e+00	0	28	0	909115392	36	5998
2026-01-09 07:24:24.15	256.45	8.87	-31.8	-32.5	22.4	0.00e+00	0	28	0	916455424	36	6087
2026-01-09 07:24:25.15	256.60	8.91	-31.8	-32.5	22.4	0.00e+00	0	28	0	923795456	36	6034
2026-01-09 07:24:26.17	256.76	8.95	-31.6	-32.3	22.5	0.00e+00	0	28	0	931135488	36	5941
2026-01-09 07:24:27.17	256.92	8.99	-31.7	-32.4	22.5	0.00e+00	0	28	0	938475520	36	5979
2026-01-09 07:24:28.18	257.07	9.03	-31.7	-32.4	22.5	0.00e+00	0	28	0	944766976	36	5980
2026-01-09 07:24:29.19	257.23	9.06	-31.5	-32.2	22.6	0.00e+00	0	28	0	952107008	36	5835
2026-01-09 07:24:30.20	257.39	9.10	-31.5	-32.2	22.6	0.00e+00	0	28	0	960495616	36	5841
2026-01-09 07:24:31.21	257.55	9.14	-31.6	-32.3	22.5	0.00e+00	0	28	0	966787072	36	5923
2026-01-09 07:24:32.22	257.70	9.18	-31.6	-32.2	22.5	0.00e+00	0	28	0	974127104	36	5893
2026-01-09 07:24:33.23	257.86	9.21	-31.6	-32.3	22.6	0.00e+00	0	28	0	981467136	36	5901
2026-01-09 07:24:34.24	258.02	9.25	-31.5	-32.2	22.5	0.00e+00	0	28	0	988807168	36	5886
2026-01-09 07:24:35.25	258.18	9.29	-31.5	-32.2	22.5	0.00e+00	0	28	0	996147200	36	5857
2026-01-09 07:24:36.26	258.34	9.33	-31.5	-32.2	22.5	0.00e+00	0	28	0	1003487232	36	5839
2026-01-09 07:24:37.27	258.50	9.36	-31.4	-32.1	22.5	0.00e+00	0	28	0	1010827264	36	5816
2026-01-09 07:24:38.28	258.66	9.40	-31.6	-32.3	22.4	0.00e+00	0	28	0	1018167296	36	5922
2026-01-09 07:24:39.29	258.82	9.43	-31.5	-32.2	22.5	0.00e+00	0	28	0	1025507328	36	5851
2026-01-09 07:24:40.30	258.98	9.47	-31.4	-32.1	22.5	0.00e+00	0	28	0	1032847360	36	5799
2026-01-09 07:24:41.31	259.15	9.51	-31.4	-32.1	22.5	0.00e+00	0	28	0	1040187392	36	5777
2026-01-09 07:24:42.32	259.31	9.54	-31.5	-32.2	22.5	0.00e+00	0	28	0	1047527424	36	5852
2026-01-09 07:24:43.33	259.47	9.58	-31.4	-32.1	22.5	0.00e+00	0	28	0	1054867456	36	5810
2026-01-09 07:24:44.34	259.63	9.61	-31.4	-32.0	22.5	0.00e+00	0	28	0	1062207488	36	5761
2026-01-09 07:24:45.35	259.80	9.65	-31.4	-32.1	22.4	0.00e+00	0	28	0	1069547520	36	5809
2026-01-09 07:24:46.36	259.96	9.69	-31.3	-32.0	22.5	0.00e+00	0	28	0	1076887552	36	5758
2026-01-09 07:24:47.37	260.13	9.72	-31.2	-31.9	22.6	0.00e+00	0	28	0	1084227584	36	5651
2026-01-09 07:24:48.38	260.29	9.76	-31.2	-31.9	22.6	0.00e+00	0	28	0	1090519040	36	5678
2026-01-09 07:24:49.39	260.45	9.79	-31.4	-32.1	22.6	0.00e+00	0	28	0	1097859072	36	5785
2026-01-09 07:24:50.40	260.62	9.83	-31.3	-32.0	22.5	0.00e+00	0	28	0	1106247680	36	5751
2026-01-09 07:24:51.41	260.79	9.86	-31.2	-31.9	22.7	0.00e+00	0	28	0	1112539136	36	5664
2026-01-09 07:24:52.42	260.95	9.89	-31.2	-31.9	22.6	0.00e+00	0	28	0	1119879168	36	5654
2026-01-09 07:24:53.43	261.12	9.93	-31.2	-31.9	22.7	0.00e+00	0	28	0	1127219200	36	5643
2026-01-09 07:24:54.44	261.29	9.96	-31.3	-32.0	22.5	0.00e+00	0	28	0	1134559232	36	5760
2026-01-09 07:24:55.45	261.45	10.00	-31.3	-32.0	22.6	0.00e+00	0	28	0	1141899264	36	5707
2026-01-09 07:24:56.46	261.62	10.03	-31.3	-32.0	22.5	0.00e+00	0	28	0	1149239296	36	5740
2026-01-09 07:24:57.47	261.79	10.06	-31.3	-32.0	22.5	0.00e+00	0	29	0	1156579328	36	5741
2026-01-09 07:24:58.48	261.96	10.10	-31.4	-32.1	22.5	0.00e+00	0	28	0	1163919360	36	5814
2026-01-09 07:24:59.49	262.12	10.13	-31.3	-32.0	22.6	0.00e+00	0	28	0	1171259392	36	5737
2026-01-09 07:25:00.49	262.29	10.16	-31.2	-32.0	22.7	0.00e+00	0	29	0	1178599424	36	5699
2026-01-09 07:25:01.50	262.46	10.20	-31.4	-32.1	22.6	0.00e+00	0	28	0	1185939456	36	5778
2026-01-09 07:25:02.51	262.63	10.23	-31.2	-31.9	22.8	0.00e+00	0	28	0	1193279488	36	5641
2026-01-09 07:25:03.52	262.80	10.26	-31.2	-31.8	22.8	0.00e+00	0	28	0	1200619520	36	5627
2026-01-09 07:25:04.53	262.97	10.29	-31.2	-31.9	22.8	0.00e+00	0	28	0	1207959552	36	5633
2026-01-09 07:25:05.54	263.14	10.33	-31.0	-31.7	22.9	0.00e+00	0	28	0	1215299584	36	5536
2026-01-09 07:25:06.55	263.31	10.36	-31.0	-31.7	22.9	0.00e+00	0	29	0	1221591040	36	5547
2026-01-09 07:25:07.56	263.49	10.39	-31.1	-31.8	22.8	0.00e+00	0	28	0	1229979648	36	5619
2026-01-09 07:25:08.57	263.66	10.42	-31.3	-32.0	22.8	0.00e+00	0	28	0	1237319680	36	5707
2026-01-09 07:25:09.58	263.83	10.45	-31.2	-31.9	22.8	0.00e+00	0	28	0	1243611136	36	5632
2026-01-09 07:25:10.59	264.00	10.48	-31.2	-31.9	22.8	0.00e+00	0	28	0	1250951168	36	5679
2026-01-09 07:25:11.60	264.18	10.51	-31.1	-31.8	22.8	0.00e+00	0	28	0	1259339776	36	5580
2026-01-09 07:25:12.61	264.35	10.55	-31.0	-31.7	22.8	0.00e+00	0	28	0	1265631232	36	5553
2026-01-09 07:25:13.62	264.52	10.58	-31.1	-31.8	22.9	0.00e+00	0	28	0	1272971264	36	5606
2026-01-09 07:25:14.63	264.70	10.61	-31.4	-32.2	22.4	0.00e+00	0	28	0	1280311296	36	5843
2026-01-09 07:25:15.63	264.87	10.64	-30.9	-31.6	23.0	0.00e+00	0	28	0	1287651328	36	5469
2026-01-09 07:25:16.64	265.04	10.67	-31.0	-31.7	22.9	0.00e+00	0	28	0	1294991360	36	5509
2026-01-09 07:25:17.65	265.22	10.70	-30.7	-31.4	23.0	0.00e+00	0	28	0	1302331392	34	5981
2026-01-09 07:25:18.66	265.39	10.73	-30.7	-31.3	23.0	0.00e+00	0	29	0	1309671424	34	5961
2026-01-09 07:25:19.67	265.57	10.76	-30.7	-31.4	23.0	0.00e+00	0	28	0	1317011456	34	5990
2026-01-09 07:25:20.68	265.75	10.79	-30.9	-31.5	23.0	0.00e+00	0	28	0	1324351488	34	6080
2026-01-09 07:25:21.69	265.92	10.81	-30.8	-31.5	22.9	0.00e+00	0	28	0	1331691520	34	6052
2026-01-09 07:25:22.70	266.10	10.84	-30.9	-31.6	22.9	0.00e+00	0	28	0	1339031552	34	6114
2026-01-09 07:25:23.70	266.27	10.87	-31.0	-31.7	22.7	0.00e+00	0	29	0	1346371584	34	6211
2026-01-09 07:25:24.71	266.45	10.90	-31.1	-31.8	22.7	0.00e+00	0	28	0	1353711616	34	6278
2026-01-09 07:25:25.73	266.63	10.93	-31.1	-31.8	22.6	0.00e+00	0	28	0	1361051648	34	6305
2026-01-09 07:25:26.73	266.81	10.96	-31.0	-31.7	22.7	0.00e+00	0	28	0	1367343104	34	6184
2026-01-09 07:25:27.74	266.99	10.98	-31.0	-31.7	22.6	0.00e+00	0	29	0	1374683136	34	6217
2026-01-09 07:25:28.75	267.17	11.01	-30.9	-31.6	22.6	0.00e+00	0	28	0	1383071744	34	6142
2026-01-09 07:25:29.76	267.34	11.04	-30.8	-31.5	22.8	0.00e+00	0	28	0	1389363200	34	6071
2026-01-09 07:25:30.77	267.52	11.07	-30.8	-31.5	22.8	0.00e+00	0	28	0	1396703232	34	6086
2026-01-09 07:25:31.78	267.70	11.09	-31.0	-31.7	22.8	0.00e+00	0	28	0	1404043264	34	6177
2026-01-09 07:25:32.79	267.88	11.12	-30.8	-31.5	22.9	0.00e+00	0	28	0	1411383296	34	6083
2026-01-09 07:25:33.80	268.06	11.15	-30.9	-31.6	22.9	0.00e+00	0	28	0	1418723328	34	6124
2026-01-09 07:25:34.81	268.24	11.17	-30.7	-31.4	22.9	0.00e+00	0	28	0	1426063360	34	6015
2026-01-09 07:25:35.82	268.43	11.20	-30.9	-31.6	22.9	0.00e+00	0	28	0	1433403392	34	6141
2026-01-09 07:25:36.83	268.61	11.22	-30.9	-31.6	22.7	0.00e+00	0	28	0	1440743424	34	6161
2026-01-09 07:25:37.84	268.79	11.25	-31.0	-31.7	22.7	0.00e+00	0	28	0	1448083456	34	6205
2026-01-09 07:25:38.85	268.97	11.28	-31.0	-31.7	22.6	0.00e+00	0	29	0	1455423488	34	6219
2026-01-09 07:25:39.86	269.15	11.30	-31.0	-31.7	22.5	0.00e+00	0	28	0	1462763520	34	6196
2026-01-09 07:25:40.87	269.33	11.33	-30.9	-31.6	22.7	0.00e+00	0	28	0	1470103552	34	6130
2026-01-09 07:25:41.88	269.52	11.35	-30.9	-31.6	22.6	0.00e+00	0	28	0	1477443584	34	6124
2026-01-09 07:25:42.89	269.70	11.37	-30.8	-31.5	22.6	0.00e+00	0	29	0	1484783616	34	6091
2026-01-09 07:25:43.90	269.88	11.40	-30.9	-31.6	22.8	0.00e+00	0	28	0	1492123648	34	6108
2026-01-09 07:25:44.91	270.07	11.42	-30.9	-31.6	22.8	0.00e+00	0	29	0	1499463680	34	6104
2026-01-09 07:25:45.92	270.25	11.45	-30.9	-31.6	22.8	0.00e+00	0	28	0	1506803712	34	6125
2026-01-09 07:25:46.93	270.44	11.47	-31.0	-31.7	22.8	0.00e+00	0	28	0	1514143744	34	6184
2026-01-09 07:25:47.93	270.62	11.49	-31.0	-31.7	22.7	0.00e+00	0	28	0	1520435200	34	6207
2026-01-09 07:25:48.94	270.80	11.52	-30.9	-31.6	22.8	0.00e+00	0	28	0	1527775232	34	6132
2026-01-09 07:25:49.96	270.99	11.54	-30.9	-31.6	22.8	0.00e+00	0	29	0	1536163840	34	6120
2026-01-09 07:25:50.97	271.18	11.56	-30.9	-31.6	22.8	0.00e+00	0	29	0	1542455296	34	6141
2026-01-09 07:25:51.97	271.36	11.58	-30.8	-31.5	22.7	0.00e+00	0	29	0	1549795328	34	6097
2026-01-09 07:25:52.98	271.55	11.61	-30.7	-31.4	22.8	0.00e+00	0	29	0	1557135360	34	6011
2026-01-09 07:25:53.99	271.73	11.63	-30.7	-31.4	22.8	0.00e+00	0	28	0	1564475392	34	6026
2026-01-09 07:25:55.00	271.92	11.65	-30.6	-31.3	22.8	0.00e+00	0	28	0	1571815424	34	5952
2026-01-09 07:25:56.01	272.10	11.67	-30.5	-31.2	22.9	0.00e+00	0	28	0	1579155456	34	5855
2026-01-09 07:25:57.02	272.29	11.69	-30.5	-31.1	23.1	0.00e+00	0	29	0	1586495488	34	5824
2026-01-09 07:25:58.03	272.48	11.71	-30.5	-31.2	23.0	0.00e+00	0	28	0	1593835520	34	5854
2026-01-09 07:25:59.03	272.66	11.73	-30.5	-31.2	23.2	0.00e+00	0	28	0	1601175552	34	5848
2026-01-09 07:26:00.05	272.85	11.75	-30.6	-31.2	23.1	0.00e+00	0	28	0	1608515584	34	5888
2026-01-09 07:26:01.05	273.04	11.77	-30.7	-31.3	23.1	0.00e+00	0	28	0	1615855616	34	5949
2026-01-09 07:26:02.06	273.23	11.79	-30.6	-31.3	23.0	0.00e+00	0	29	0	1623195648	34	5913
2026-01-09 07:26:03.07	273.42	11.81	-30.6	-31.3	23.0	0.00e+00	0	28	0	1630535680	34	5931
2026-01-09 07:26:04.08	273.61	11.83	-30.8	-31.4	22.9	0.00e+00	0	28	0	1637875712	34	6026
2026-01-09 07:26:05.09	273.79	11.85	-30.6	-31.3	23.0	0.00e+00	0	28	0	1644167168	34	5923
2026-01-09 07:26:06.10	273.98	11.87	-30.5	-31.2	23.0	0.00e+00	0	28	0	1652555776	34	5851
2026-01-09 07:26:07.11	274.17	11.89	-30.5	-31.2	22.9	0.00e+00	0	28	0	1659895808	34	5876
2026-01-09 07:26:08.12	274.36	11.91	-30.6	-31.2	22.9	0.00e+00	0	28	0	1666187264	34	5896
2026-01-09 07:26:09.13	274.55	11.92	-30.5	-31.2	22.9	0.00e+00	0	28	0	1673527296	34	5840
2026-01-09 07:26:10.14	274.74	11.94	-30.5	-31.2	23.0	0.00e+00	0	28	0	1680867328	34	5833
2026-01-09 07:26:11.15	274.93	11.96	-30.5	-31.1	23.1	0.00e+00	0	29	0	1688207360	34	5824
2026-01-09 07:26:12.16	275.12	11.97	-30.3	-31.0	23.0	0.00e+00	0	28	0	1695547392	34	5742
2026-01-09 07:26:13.17	275.31	11.99	-30.3	-31.0	23.2	0.00e+00	0	28	0	1702887424	34	5732
2026-01-09 07:26:14.18	275.50	12.01	-30.3	-31.0	23.2	0.00e+00	0	29	0	1710227456	34	5702
2026-01-09 07:26:15.19	275.70	12.02	-30.2	-30.9	23.2	0.00e+00	0	28	0	1717567488	34	5653
2026-01-09 07:26:16.20	275.89	12.04	-30.2	-30.8	23.3	0.00e+00	0	28	0	1724907520	34	5602
2026-01-09 07:26:17.20	276.08	12.06	-30.3	-31.0	23.2	0.00e+00	0	28	0	1732247552	34	5707
2026-01-09 07:26:18.21	276.27	12.07	-30.5	-31.2	23.2	0.00e+00	0	28	0	1739587584	34	5858
2026-01-09 07:26:19.22	276.46	12.09	-30.4	-31.0	23.2	0.00e+00	0	28	0	1746927616	34	5755
2026-01-09 07:26:20.23	276.65	12.10	-30.4	-31.0	23.2	0.00e+00	0	28	0	1754267648	34	5760
2026-01-09 07:26:21.24	276.84	12.12	-30.4	-31.1	23.2	0.00e+00	0	28	0	1761607680	34	5764
2026-01-09 07:26:22.25	277.04	12.13	-30.5	-31.1	23.1	0.00e+00	0	29	0	1768947712	34	5818
2026-01-09 07:26:23.26	277.23	12.14	-30.4	-31.1	23.1	0.00e+00	0	29	0	1776287744	34	5784
2026-01-09 07:26:24.27	277.42	12.16	-30.4	-31.1	23.1	0.00e+00	0	29	0	1783627776	34	5765
2026-01-09 07:26:25.28	277.61	12.17	-30.4	-31.1	23.1	0.00e+00	0	28	0	1790967808	34	5810
2026-01-09 07:26:26.29	277.81	12.18	-30.6	-31.2	23.0	0.00e+00	0	28	0	1797259264	34	5893
2026-01-09 07:26:27.30	278.00	12.20	-30.6	-31.3	23.0	0.00e+00	0	29	0	1804599296	34	5931
2026-01-09 07:26:28.31	278.19	12.21	-30.6	-31.2	23.0	0.00e+00	0	28	0	1812987904	34	5895
2026-01-09 07:26:29.32	278.39	12.22	-30.4	-31.0	23.1	0.00e+00	0	28	0	1819279360	34	5751
2026-01-09 07:26:30.33	278.58	12.23	-30.4	-31.1	23.2	0.00e+00	0	28	0	1826619392	34	5778
2026-01-09 07:26:31.34	278.78	12.25	-30.4	-31.0	23.2	0.00e+00	0	29	0	1833959424	34	5742
2026-01-09 07:26:32.35	278.97	12.26	-30.4	-31.1	23.1	0.00e+00	0	29	0	1841299456	34	5781
2026-01-09 07:26:33.35	279.16	12.27	-30.4	-31.1	23.1	0.00e+00	0	29	0	1848639488	34	5784
2026-01-09 07:26:34.36	279.36	12.28	-30.4	-31.1	23.2	0.00e+00	0	28	0	1855979520	34	5818
2026-01-09 07:26:35.37	279.55	12.29	-30.4	-31.1	23.1	0.00e+00	0	29	0	1863319552	34	5801
2026-01-09 07:26:36.38	279.75	12.30	-30.7	-31.3	23.0	0.00e+00	0	28	0	1870659584	34	5960
2026-01-09 07:26:37.39	279.94	12.31	-30.6	-31.3	23.0	0.00e+00	0	28	0	1877999616	34	5951
2026-01-09 07:26:38.40	280.13	12.32	-30.5	-31.2	23.1	0.00e+00	0	28	0	1885339648	34	5838
2026-01-09 07:26:39.41	280.33	12.33	-30.5	-31.2	23.0	0.00e+00	0	29	0	1892679680	34	5881
2026-01-09 07:26:40.42	280.52	12.34	-30.5	-31.2	23.0	0.00e+00	0	29	0	1900019712	34	5882
2026-01-09 07:26:41.43	280.72	12.35	-30.5	-31.2	23.0	0.00e+00	0	29	0	1907359744	34	5878
2026-01-09 07:26:42.44	280.91	12.36	-30.4	-31.1	23.1	0.00e+00	0	28	0	1914699776	34	5790
2026-01-09 07:26:43.45	281.11	12.36	-30.4	-31.0	23.1	0.00e+00	0	28	0	1920991232	34	5761
2026-01-09 07:26:44.46	281.31	12.37	-30.3	-31.0	23.1	0.00e+00	0	28	0	1929379840	34	5715
2026-01-09 07:26:45.47	281.50	12.38	-30.3	-31.0	23.1	0.00e+00	0	28	0	1936719872	34	5741
2026-01-09 07:26:46.48	281.70	12.39	-30.3	-31.0	23.1	0.00e+00	0	29	0	1943011328	34	5747
2026-01-09 07:26:47.49	281.89	12.39	-30.6	-31.3	23.0	0.00e+00	0	29	0	1950351360	34	5907
2026-01-09 07:26:48.50	282.09	12.40	-30.7	-31.4	22.8	0.00e+00	0	28	0	1957691392	34	6003
2026-01-09 07:26:49.51	282.28	12.41	-30.9	-31.6	22.7	0.00e+00	0	29	0	1965031424	34	6111
2026-01-09 07:26:50.51	282.48	12.41	-30.8	-31.5	22.7	0.00e+00	0	29	0	1972371456	34	6081
2026-01-09 07:26:51.52	282.67	12.42	-30.8	-31.6	22.7	0.00e+00	0	29	0	1979711488	34	6110
2026-01-09 07:26:52.53	282.87	12.42	-30.7	-31.4	22.8	0.00e+00	0	28	0	1987051520	34	5973
2026-01-09 07:26:53.54	283.07	12.43	-30.7	-31.4	22.8	0.00e+00	0	29	0	1994391552	34	5997
2026-01-09 07:26:54.55	283.26	12.43	-30.7	-31.4	22.8	0.00e+00	0	28	0	2001731584	34	6010
2026-01-09 07:26:55.56	283.46	12.44	-30.7	-31.4	22.9	0.00e+00	0	29	0	2009071616	34	6005
2026-01-09 07:26:56.57	283.66	12.44	-30.5	-31.2	23.0	0.00e+00	0	29	0	2016411648	34	5877
2026-01-09 07:26:57.58	283.85	12.45	-30.5	-31.1	23.1	0.00e+00	0	28	0	2023751680	34	5815
2026-01-09 07:26:58.59	284.05	12.45	-30.5	-31.2	23.1	0.00e+00	0	29	0	2031091712	34	5833
2026-01-09 07:26:59.60	284.25	12.45	-30.5	-31.2	23.2	0.00e+00	0	29	0	2038431744	34	5832
2026-01-09 07:27:00.61	284.44	12.46	-30.4	-31.1	23.1	0.00e+00	0	28	0	2045771776	34	5780
2026-01-09 07:27:01.62	284.64	12.46	-30.4	-31.0	23.1	0.00e+00	0	28	0	2053111808	34	5760
2026-01-09 07:27:02.63	284.83	12.46	-30.5	-31.2	23.0	0.00e+00	0	28	0	2060451840	34	5881
2026-01-09 07:27:03.64	285.03	12.46	-30.5	-31.2	23.0	0.00e+00	0	29	0	2067791872	34	5884
2026-01-09 07:27:04.64	285.23	12.47	-30.6	-31.3	22.9	0.00e+00	0	29	0	2074083328	34	5945
2026-01-09 07:27:05.65	285.42	12.47	-30.6	-31.3	23.0	0.00e+00	0	29	0	2082471936	34	5923
2026-01-09 07:27:06.67	285.62	12.47	-30.5	-31.2	23.0	0.00e+00	0	29	0	2089811968	34	5857
2026-01-09 07:27:07.68	285.82	12.47	-30.6	-31.3	22.9	0.00e+00	0	29	0	2096103424	34	5944
2026-01-09 07:27:08.69	286.01	12.47	-30.5	-31.2	22.9	0.00e+00	0	29	0	2103443456	34	5891
2026-01-09 07:27:09.70	286.21	12.47	-30.4	-31.0	23.1	0.00e+00	0	29	0	2110783488	34	5747
2026-01-09 07:27:10.70	286.41	12.47	-30.4	-31.1	23.1	0.00e+00	0	29	0	2118123520	34	5774
2026-01-09 07:27:11.72	286.60	12.47	-30.4	-31.0	23.2	0.00e+00	0	28	0	2125463552	34	5761
2026-01-09 07:27:12.72	286.80	12.47	-30.3	-31.0	23.3	0.00e+00	0	28	0	2132803584	34	5729
2026-01-09 07:27:13.73	287.00	12.47	-30.3	-31.0	23.2	0.00e+00	0	29	0	2140143616	34	5746
2026-01-09 07:27:14.74	287.19	12.47	-30.4	-31.0	23.2	0.00e+00	0	29	0	2147483648	34	5760
2026-01-09 07:27:15.75	287.39	12.47	-30.4	-31.1	23.1	0.00e+00	0	28	0	2154823680	34	5783
2026-01-09 07:27:16.76	287.59	12.47	-30.4	-31.1	23.0	0.00e+00	0	29	0	2162163712	34	5796
2026-01-09 07:27:17.77	287.78	12.46	-30.5	-31.1	23.1	0.00e+00	0	29	0	2169503744	34	5824
2026-01-09 07:27:18.78	287.98	12.46	-30.6	-31.2	23.0	0.00e+00	0	29	0	2176843776	34	5889
2026-01-09 07:27:19.79	288.18	12.46	-30.4	-31.1	23.1	0.00e+00	0	29	0	2184183808	34	5803
2026-01-09 07:27:20.80	288.37	12.45	-30.5	-31.2	23.0	0.00e+00	0	29	0	2191523840	34	5829
2026-01-09 07:27:21.81	288.57	12.45	-30.4	-31.0	23.1	0.00e+00	0	29	0	2198863872	34	5758
2026-01-09 07:27:22.81	288.76	12.45	-30.5	-31.2	23.0	0.00e+00	0	29	0	2206203904	34	5874
2026-01-09 07:27:23.82	288.96	12.44	-30.4	-31.1	23.0	0.00e+00	0	29	0	2213543936	34	5824
2026-01-09 07:27:24.83	289.16	12.44	-30.3	-31.0	23.1	0.00e+00	0	29	0	2219835392	34	5743
2026-01-09 07:27:25.84	289.35	12.44	-30.4	-31.1	23.1	0.00e+00	0	29	0	2227175424	34	5765
2026-01-09 07:27:26.84	289.55	12.43	-30.4	-31.1	23.1	0.00e+00	0	29	0	2234515456	34	5794
2026-01-09 07:27:27.85	289.74	12.43	-30.4	-31.1	23.0	0.00e+00	0	29	0	2241855488	34	5796
2026-01-09 07:27:28.87	289.94	12.42	-30.5	-31.2	22.9	0.00e+00	0	29	0	2249195520	34	5861
2026-01-09 07:27:29.87	290.13	12.41	-30.5	-31.2	22.9	0.00e+00	0	29	0	2256535552	34	5833
2026-01-09 07:27:30.88	290.33	12.41	-30.7	-31.4	22.8	0.00e+00	0	29	0	2263875584	34	6016
2026-01-09 07:27:31.89	290.53	12.40	-30.7	-31.4	22.7	0.00e+00	0	29	0	2271215616	34	5984
2026-01-09 07:27:32.90	290.72	12.40	-30.5	-31.2	22.9	0.00e+00	0	29	0	2278555648	34	5855
2026-01-09 07:27:33.91	290.92	12.39	-30.6	-31.3	22.8	0.00e+00	0	29	0	2285895680	34	5951
2026-01-09 07:27:34.92	291.11	12.38	-30.5	-31.2	22.9	0.00e+00	0	29	0	2293235712	34	5844
2026-01-09 07:27:35.93	291.31	12.37	-30.5	-31.2	22.8	0.00e+00	0	29	0	2300575744	34	5889
2026-01-09 07:27:36.93	291.50	12.37	-30.5	-31.1	22.9	0.00e+00	0	29	0	2307915776	34	5825
2026-01-09 07:27:37.95	291.70	12.36	-30.5	-31.1	22.9	0.00e+00	0	29	0	2315255808	34	5823
2026-01-09 07:27:38.96	291.89	12.35	-30.4	-31.1	22.9	0.00e+00	0	29	0	2322595840	34	5804
2026-01-09 07:27:39.97	292.09	12.34	-30.5	-31.2	22.9	0.00e+00	0	29	0	2329935872	34	5882
2026-01-09 07:27:40.97	292.28	12.33	-30.4	-31.1	22.9	0.00e+00	0	29	0	2337275904	34	5806
2026-01-09 07:27:41.98	292.48	12.32	-30.6	-31.3	22.8	0.00e+00	0	29	0	2344615936	34	5946
2026-01-09 07:27:42.99	292.67	12.31	-30.7	-31.3	22.7	0.00e+00	0	29	0	2350907392	34	5963
2026-01-09 07:27:44.01	292.87	12.30	-30.5	-31.2	22.9	0.00e+00	0	28	0	2359296000	34	5883
2026-01-09 07:27:45.01	293.06	12.29	-30.5	-31.1	22.9	0.00e+00	0	28	0	2366636032	34	5827
2026-01-09 07:27:46.02	293.25	12.28	-30.4	-31.1	23.1	0.00e+00	0	29	0	2372927488	34	5783
2026-01-09 07:27:47.03	293.45	12.27	-30.5	-31.1	23.1	0.00e+00	0	28	0	2380267520	34	5828
2026-01-09 07:27:48.04	293.64	12.26	-30.4	-31.1	23.2	0.00e+00	0	28	0	2387607552	34	5784
2026-01-09 07:27:49.05	293.84	12.25	-30.4	-31.1	23.3	0.00e+00	0	29	0	2394947584	34	5782
2026-01-09 07:27:50.06	294.03	12.24	-30.5	-31.1	23.3	0.00e+00	0	29	0	2402287616	34	5805
2026-01-09 07:27:51.07	294.22	12.23	-30.5	-31.2	23.3	0.00e+00	0	29	0	2409627648	34	5840
2026-01-09 07:27:52.08	294.42	12.21	-30.5	-31.1	23.2	0.00e+00	0	29	0	2416967680	34	5808
2026-01-09 07:27:53.09	294.61	12.20	-30.4	-31.1	23.1	0.00e+00	0	29	0	2424307712	34	5800
2026-01-09 07:27:54.10	294.80	12.19	-30.5	-31.2	23.1	0.00e+00	0	29	0	2431647744	34	5859
2026-01-09 07:27:55.11	295.00	12.18	-30.4	-31.1	23.0	0.00e+00	0	29	0	2438987776	34	5804
2026-01-09 07:27:56.12	295.19	12.16	-30.4	-31.1	23.0	0.00e+00	0	29	0	2446327808	34	5801
2026-01-09 07:27:57.13	295.38	12.15	-30.5	-31.2	22.9	0.00e+00	0	29	0	2453667840	34	5835
2026-01-09 07:27:58.14	295.57	12.13	-30.5	-31.2	22.9	0.00e+00	0	29	0	2461007872	34	5864
2026-01-09 07:27:59.15	295.77	12.12	-30.5	-31.2	23.0	0.00e+00	0	29	0	2468347904	34	5850
2026-01-09 07:28:00.16	295.96	12.11	-30.5	-31.2	23.0	0.00e+00	0	29	0	2475687936	34	5854
2026-01-09 07:28:01.17	296.15	12.09	-30.5	-31.1	23.1	0.00e+00	0	29	0	2483027968	34	5827
2026-01-09 07:28:02.17	296.34	12.08	-30.4	-31.0	23.1	0.00e+00	0	28	0	2490368000	34	5742
2026-01-09 07:28:03.19	296.53	12.06	-30.4	-31.1	23.3	0.00e+00	0	29	0	2497708032	34	5786
2026-01-09 07:28:04.19	296.72	12.05	-30.4	-31.0	23.2	0.00e+00	0	29	0	2503999488	34	5738
2026-01-09 07:28:05.20	296.91	12.03	-30.5	-31.1	23.2	0.00e+00	0	28	0	2512388096	34	5809
2026-01-09 07:28:06.21	297.10	12.01	-30.5	-31.1	23.1	0.00e+00	0	28	0	2519728128	34	5811
2026-01-09 07:28:07.22	297.29	12.00	-30.5	-31.2	23.1	0.00e+00	0	28	0	2526019584	34	5841
2026-01-09 07:28:08.23	297.48	11.98	-30.5	-31.2	23.0	0.00e+00	0	28	0	2533359616	34	5886
2026-01-09 07:28:09.25	297.68	11.96	-30.6	-31.3	22.9	0.00e+00	0	28	0	2540699648	34	5928
2026-01-09 07:28:10.25	297.86	11.95	-30.6	-31.3	22.8	0.00e+00	0	29	0	2548039680	34	5956
2026-01-09 07:28:11.26	298.05	11.93	-30.8	-31.5	22.7	0.00e+00	0	29	0	2555379712	34	6096
2026-01-09 07:28:12.27	298.24	11.91	-30.8	-31.5	22.7	0.00e+00	0	29	0	2562719744	34	6064
2026-01-09 07:28:13.28	298.43	11.89	-30.8	-31.5	22.6	0.00e+00	0	29	0	2570059776	34	6100
2026-01-09 07:28:14.29	298.62	11.88	-30.8	-31.5	22.7	0.00e+00	0	29	0	2577399808	34	6094
2026-01-09 07:28:15.30	298.81	11.86	-30.8	-31.5	22.7	0.00e+00	0	29	0	2584739840	34	6086
2026-01-09 07:28:16.31	299.00	11.84	-30.9	-31.6	22.6	0.00e+00	0	29	0	2592079872	34	6128
2026-01-09 07:28:17.32	299.19	11.82	-30.7	-31.4	22.7	0.00e+00	0	29	0	2599419904	34	5980
2026-01-09 07:28:18.33	299.38	11.80	-30.7	-31.4	22.8	0.00e+00	0	28	0	2606759936	34	5969
2026-01-09 07:28:19.34	299.56	11.78	-30.8	-31.5	22.8	0.00e+00	0	28	0	2614099968	34	6040
2026-01-09 07:28:20.35	299.75	11.76	-30.8	-31.5	22.8	0.00e+00	0	29	0	2621440000	34	6072
2026-01-09 07:28:21.36	299.94	11.74	-30.7	-31.4	22.8	0.00e+00	0	28	0	2628780032	34	5998
2026-01-09 07:28:22.36	300.12	11.72	-30.6	-31.3	22.9	0.00e+00	0	29	0	2636120064	34	5917
2026-01-09 07:28:23.37	300.31	11.70	-30.6	-31.3	22.9	0.00e+00	0	28	0	2643460096	34	5950
2026-01-09 07:28:24.39	300.50	11.68	-30.7	-31.3	22.8	0.00e+00	0	28	0	2649751552	34	5960
2026-01-09 07:28:25.39	300.68	11.66	-30.6	-31.3	22.9	0.00e+00	0	28	0	2657091584	34	5953
2026-01-09 07:28:26.40	300.87	11.64	-30.7	-31.4	22.8	0.00e+00	0	28	0	2665480192	34	6018
2026-01-09 07:28:27.41	301.06	11.61	-30.6	-31.3	22.9	0.00e+00	0	28	0	2671771648	34	5947
2026-01-09 07:28:28.42	301.24	11.59	-30.7	-31.4	22.7	0.00e+00	0	29	0	2679111680	34	6021
2026-01-09 07:28:29.43	301.43	11.57	-30.8	-31.6	22.7	0.00e+00	0	28	0	2686451712	34	6106
2026-01-09 07:28:30.45	301.61	11.55	-30.8	-31.6	22.7	0.00e+00	0	28	0	2693791744	34	6108
2026-01-09 07:28:31.45	301.80	11.53	-30.9	-31.6	22.7	0.00e+00	0	29	0	2701131776	34	6127
2026-01-09 07:28:32.46	301.98	11.50	-30.7	-31.4	22.8	0.00e+00	0	28	0	2708471808	34	6032
2026-01-09 07:28:33.47	302.16	11.48	-30.7	-31.4	22.8	0.00e+00	0	29	0	2715811840	34	6029
2026-01-09 07:28:34.48	302.35	11.46	-30.8	-31.5	22.8	0.00e+00	0	28	0	2723151872	34	6059
2026-01-09 07:28:35.49	302.53	11.43	-30.7	-31.4	22.9	0.00e+00	0	28	0	2730491904	34	5973
2026-01-09 07:28:36.50	302.71	11.41	-30.8	-31.5	22.8	0.00e+00	0	28	0	2737831936	34	6050
2026-01-09 07:28:37.51	302.90	11.39	-31.0	-31.6	25.4	0.00e+00	0	29	0	2745171968	34	6116
2026-01-09 07:28:38.52	303.08	11.36	-31.0	-31.5	25.4	0.00e+00	0	29	0	2752512000	34	6077
2026-01-09 07:28:39.53	303.26	11.34	-31.0	-31.6	25.3	0.00e+00	0	28	0	2759852032	34	6124
2026-01-09 07:28:40.54	303.44	11.31	-31.1	-31.7	25.3	0.00e+00	0	29	0	2767192064	34	6181
2026-01-09 07:28:41.54	303.62	11.29	-31.0	-31.5	25.3	0.00e+00	0	29	0	2774532096	34	6098
2026-01-09 07:28:42.55	303.81	11.26	-31.0	-31.6	25.4	0.00e+00	0	29	0	2781872128	34	6113
2026-01-09 07:28:43.56	303.99	11.24	-31.2	-31.7	25.2	0.00e+00	0	29	0	2789212160	34	6210
2026-01-09 07:28:44.57	304.17	11.21	-31.2	-31.7	25.2	0.00e+00	0	29	0	2796552192	34	6216
2026-01-09 07:28:45.58	304.35	11.19	-31.2	-31.8	25.2	0.00e+00	0	29	0	2802843648	34	6249
2026-01-09 07:28:46.59	304.53	11.16	-31.3	-31.9	25.0	0.00e+00	0	29	0	2810183680	34	6322
2026-01-09 07:28:47.60	304.71	11.13	-31.3	-31.9	25.1	0.00e+00	0	28	0	2818572288	34	6348
2026-01-09 07:28:48.61	304.89	11.11	-31.4	-32.0	25.0	0.00e+00	0	29	0	2824863744	34	6399
2026-01-09 07:28:49.62	305.07	11.08	-31.3	-31.9	25.1	0.00e+00	0	29	0	2832203776	34	6336
2026-01-09 07:28:50.63	305.25	11.05	-31.4	-31.9	25.0	0.00e+00	0	29	0	2839543808	34	6390
2026-01-09 07:28:51.64	305.43	11.03	-31.4	-31.9	25.1	0.00e+00	0	29	0	2846883840	34	6358
2026-01-09 07:28:52.65	305.60	11.00	-31.4	-31.9	25.1	0.00e+00	0	28	0	2854223872	34	6387
2026-01-09 07:28:53.66	305.78	10.97	-31.3	-31.9	25.1	0.00e+00	0	29	0	2861563904	34	6325
2026-01-09 07:28:54.67	305.96	10.94	-31.2	-31.8	25.2	0.00e+00	0	29	0	2868903936	34	6247
2026-01-09 07:28:55.68	306.14	10.91	-31.2	-31.7	25.2	0.00e+00	0	29	0	2876243968	34	6200
2026-01-09 07:28:56.69	306.31	10.89	-31.1	-31.7	25.2	0.00e+00	0	29	0	2883584000	34	6177
2026-01-09 07:28:57.70	306.49	10.86	-31.2	-31.7	25.2	0.00e+00	0	29	0	2890924032	34	6231
2026-01-09 07:28:58.71	306.67	10.83	-31.1	-31.7	25.2	0.00e+00	0	29	0	2898264064	34	6183
2026-01-09 07:28:59.72	306.84	10.80	-31.1	-31.7	25.2	0.00e+00	0	29	0	2905604096	34	6192
2026-01-09 07:29:00.73	307.02	10.77	-31.2	-31.7	25.2	0.00e+00	0	28	0	2912944128	34	6235
2026-01-09 07:29:01.74	307.19	10.74	-31.1	-31.6	25.2	0.00e+00	0	28	0	2920284160	34	6152
2026-01-09 07:29:02.75	307.37	10.71	-31.1	-31.6	25.2	0.00e+00	0	28	0	2927624192	34	6141
2026-01-09 07:29:03.76	307.54	10.68	-31.1	-31.6	25.3	0.00e+00	0	28	0	2934964224	34	6160
2026-01-09 07:29:04.77	307.72	10.65	-31.1	-31.7	25.2	0.00e+00	0	28	0	2942304256	34	6205
2026-01-09 07:29:05.78	307.89	10.62	-31.1	-31.6	25.2	0.00e+00	0	29	0	2948595712	34	6169
2026-01-09 07:29:06.79	308.07	10.59	-31.3	-31.8	25.0	0.00e+00	0	28	0	2955935744	34	6293
2026-01-09 07:29:07.80	308.24	10.56	-31.2	-31.8	25.0	0.00e+00	0	29	0	2963275776	34	6268
2026-01-09 07:29:08.81	308.41	10.53	-31.4	-32.0	24.9	0.00e+00	0	29	0	2970615808	34	6410
2026-01-09 07:29:09.82	308.58	10.50	-31.6	-32.2	24.7	0.00e+00	0	29	0	2977955840	34	6552
2026-01-09 07:29:10.83	308.76	10.47	-31.4	-32.0	25.0	0.00e+00	0	29	0	2985295872	34	6392
2026-01-09 07:29:11.84	308.93	10.44	-31.5	-32.0	24.9	0.00e+00	0	29	0	2992635904	34	6422
2026-01-09 07:29:12.85	309.10	10.41	-31.5	-32.0	25.0	0.00e+00	0	29	0	2999975936	34	6421
2026-01-09 07:29:13.86	309.27	10.38	-31.5	-32.1	24.9	0.00e+00	0	29	0	3007315968	34	6487
2026-01-09 07:29:14.86	309.44	10.34	-31.5	-32.0	24.9	0.00e+00	0	29	0	3014656000	34	6416
2026-01-09 07:29:15.87	309.61	10.31	-31.5	-32.0	24.9	0.00e+00	0	29	0	3021996032	34	6426
2026-01-09 07:29:16.88	309.78	10.28	-31.6	-32.1	24.8	0.00e+00	0	29	0	3029336064	34	6504
2026-01-09 07:29:17.89	309.95	10.25	-31.6	-32.1	24.8	0.00e+00	0	29	0	3036676096	34	6501
2026-01-09 07:29:18.90	310.12	10.22	-31.6	-32.1	24.7	0.00e+00	0	29	0	3044016128	34	6523
2026-01-09 07:29:19.91	310.29	10.18	-31.6	-32.2	24.8	0.00e+00	0	29	0	3051356160	34	6565
2026-01-09 07:29:20.92	310.46	10.15	-31.6	-32.1	24.8	0.00e+00	0	29	0	3058696192	34	6516
2026-01-09 07:29:21.93	310.63	10.12	-31.6	-32.2	24.8	0.00e+00	0	28	0	3066036224	34	6546
2026-01-09 07:29:22.94	310.79	10.08	-31.5	-32.1	24.9	0.00e+00	0	29	0	3073376256	34	6469
2026-01-09 07:29:23.95	310.96	10.05	-31.5	-32.0	24.9	0.00e+00	0	29	0	3080716288	34	6461
2026-01-09 07:29:24.96	311.13	10.02	-31.6	-32.2	24.8	0.00e+00	0	29	0	3088056320	34	6547
2026-01-09 07:29:25.97	311.29	9.98	-31.5	-32.0	24.9	0.00e+00	0	29	0	3095396352	34	6453
2026-01-09 07:29:26.98	311.46	9.95	-31.7	-32.2	24.8	0.00e+00	0	29	0	3101687808	34	6582
2026-01-09 07:29:27.99	311.63	9.92	-31.5	-32.0	24.9	0.00e+00	0	29	0	3109027840	34	6431
2026-01-09 07:29:29.00	311.79	9.88	-31.5	-32.0	24.9	0.00e+00	0	29	0	3117416448	34	6447
2026-01-09 07:29:30.01	311.96	9.85	-31.4	-32.0	24.9	0.00e+00	0	29	0	3123707904	34	6393
2026-01-09 07:29:31.02	312.12	9.81	-31.4	-31.9	24.9	0.00e+00	0	29	0	3131047936	34	6349
2026-01-09 07:29:32.03	312.29	9.78	-31.5	-32.1	24.8	0.00e+00	0	29	0	3138387968	34	6467
2026-01-09 07:29:33.04	312.45	9.74	-31.6	-32.2	24.6	0.00e+00	0	29	0	3145728000	34	6544
2026-01-09 07:29:34.05	312.61	9.71	-31.6	-32.1	24.8	0.00e+00	0	29	0	3153068032	34	6505
2026-01-09 07:29:35.06	312.78	9.67	-31.7	-32.2	24.7	0.00e+00	0	29	0	3160408064	34	6595
2026-01-09 07:29:36.06	312.94	9.64	-31.7	-32.2	24.6	0.00e+00	0	29	0	3167748096	34	6592
2026-01-09 07:29:37.07	313.10	9.60	-31.7	-32.3	24.7	0.00e+00	0	29	0	3175088128	36	5924
2026-01-09 07:29:38.09	313.27	9.57	-31.9	-32.4	24.5	0.00e+00	0	29	0	3182428160	36	6007
2026-01-09 07:29:39.10	313.43	9.53	-31.9	-32.4	24.5	0.00e+00	0	29	0	3189768192	36	6012
2026-01-09 07:29:40.11	313.59	9.50	-31.8	-32.4	24.6	0.00e+00	0	29	0	3197108224	36	5970
2026-01-09 07:29:41.12	313.75	9.46	-31.9	-32.5	24.5	0.00e+00	0	29	0	3204448256	36	6054
2026-01-09 07:29:42.13	313.91	9.42	-31.9	-32.4	24.5	0.00e+00	0	29	0	3211788288	36	6031
2026-01-09 07:29:43.14	314.07	9.39	-32.0	-32.6	24.4	0.00e+00	0	29	0	3219128320	36	6104
2026-01-09 07:29:44.15	314.23	9.35	-31.7	-32.3	24.6	0.00e+00	0	29	0	3225419776	36	5920
2026-01-09 07:29:45.16	314.39	9.32	-31.7	-32.2	24.7	0.00e+00	0	28	0	3233808384	36	5858
2026-01-09 07:29:46.16	314.55	9.28	-31.7	-32.2	24.6	0.00e+00	0	29	0	3241148416	36	5867
2026-01-09 07:29:47.17	314.71	9.24	-31.5	-32.0	24.8	0.00e+00	0	29	0	3247439872	36	5747
2026-01-09 07:29:48.18	314.86	9.21	-31.6	-32.2	24.7	0.00e+00	0	29	0	3254779904	36	5832
2026-01-09 07:29:49.19	315.02	9.17	-31.5	-32.0	24.8	0.00e+00	0	29	0	3262119936	36	5752
2026-01-09 07:29:50.20	315.18	9.13	-31.5	-32.1	24.7	0.00e+00	0	29	0	3269459968	36	5773
2026-01-09 07:29:51.21	315.34	9.09	-31.6	-32.1	24.8	0.00e+00	0	28	0	3276800000	36	5801
2026-01-09 07:29:52.22	315.49	9.06	-31.6	-32.2	24.6	0.00e+00	0	29	0	3284140032	36	5830
2026-01-09 07:29:53.23	315.65	9.02	-31.8	-32.3	24.5	0.00e+00	0	29	0	3291480064	36	5943
2026-01-09 07:29:54.24	315.81	8.98	-31.8	-32.4	24.5	0.00e+00	0	29	0	3298820096	36	5986
2026-01-09 07:29:55.25	315.96	8.94	-32.0	-32.6	24.2	0.00e+00	0	28	0	3306160128	36	6126
2026-01-09 07:29:56.26	316.12	8.91	-32.1	-32.6	24.3	0.00e+00	0	29	0	3313500160	36	6166
2026-01-09 07:29:57.27	316.27	8.87	-32.1	-32.7	24.3	0.00e+00	0	29	0	3320840192	36	6175
2026-01-09 07:29:58.28	316.43	8.83	-32.2	-32.7	24.1	0.00e+00	0	29	0	3328180224	36	6228
2026-01-09 07:29:59.29	316.58	8.79	-32.2	-32.7	24.2	0.00e+00	0	29	0	3335520256	36	6234
2026-01-09 07:30:00.30	316.73	8.75	-32.4	-32.9	23.9	0.00e+00	0	28	0	3342860288	36	6359
2026-01-09 07:30:01.32	316.89	8.71	-32.2	-32.8	24.1	0.00e+00	0	29	0	3350200320	36	6254
2026-01-09 07:30:02.32	317.04	8.68	-32.3	-32.8	24.1	0.00e+00	0	28	0	3357540352	36	6284
2026-01-09 07:30:03.34	317.19	8.64	-32.2	-32.7	24.2	0.00e+00	0	29	0	3364880384	36	6236
2026-01-09 07:30:04.35	317.35	8.60	-32.2	-32.7	24.1	0.00e+00	0	29	0	3372220416	36	6238
2026-01-09 07:30:05.36	317.50	8.56	-32.2	-32.8	24.1	0.00e+00	0	29	0	3379560448	36	6256
2026-01-09 07:30:06.37	317.65	8.52	-32.2	-32.8	24.1	0.00e+00	0	29	0	3386900480	36	6262
2026-01-09 07:30:07.38	317.80	8.48	-32.3	-32.8	24.1	0.00e+00	0	29	0	3394240512	36	6285
2026-01-09 07:30:08.39	317.95	8.44	-32.3	-32.8	24.1	0.00e+00	0	29	0	3400531968	36	6289
2026-01-09 07:30:09.39	318.10	8.40	-32.2	-32.8	24.1	0.00e+00	0	29	0	3407872000	36	6253
2026-01-09 07:30:10.40	318.25	8.36	-32.2	-32.8	24.1	0.00e+00	0	29	0	3416260608	36	6253
2026-01-09 07:30:11.41	318.40	8.32	-32.2	-32.7	24.0	0.00e+00	0	29	0	3422552064	36	6236
2026-01-09 07:30:12.42	318.55	8.28	-32.2	-32.8	24.1	0.00e+00	0	29	0	3429892096	36	6260
2026-01-09 07:30:13.43	318.70	8.24	-32.3	-32.8	24.0	0.00e+00	0	29	0	3437232128	36	6302
2026-01-09 07:30:14.44	318.84	8.20	-32.3	-32.9	24.0	0.00e+00	0	29	0	3444572160	36	6332
2026-01-09 07:30:15.45	318.99	8.16	-32.3	-32.9	23.9	0.00e+00	0	29	0	3451912192	36	6350
2026-01-09 07:30:16.46	319.14	8.12	-32.5	-33.0	23.9	0.00e+00	0	29	0	3459252224	36	6434
2026-01-09 07:30:17.47	319.29	8.08	-32.3	-32.8	23.9	0.00e+00	0	29	0	3466592256	36	6316
2026-01-09 07:30:18.48	319.43	8.04	-32.4	-33.0	23.9	0.00e+00	0	29	0	3473932288	36	6393
2026-01-09 07:30:19.49	319.58	8.00	-32.3	-32.9	24.0	0.00e+00	0	29	0	3481272320	36	6343
2026-01-09 07:30:20.50	319.72	7.96	-32.3	-32.9	24.0	0.00e+00	0	29	0	3488612352	36	6329
2026-01-09 07:30:21.51	319.87	7.92	-32.4	-33.0	23.9	0.00e+00	0	29	0	3495952384	36	6412
2026-01-09 07:30:22.52	320.01	7.88	-32.3	-32.8	23.9	0.00e+00	0	29	0	3503292416	36	6295
2026-01-09 07:30:23.53	320.16	7.84	-32.3	-32.8	23.9	0.00e+00	0	29	0	3510632448	36	6315
2026-01-09 07:30:24.54	320.30	7.80	-32.3	-32.9	23.9	0.00e+00	0	29	0	3517972480	36	6331
2026-01-09 07:30:25.55	320.45	7.76	-32.5	-33.1	23.8	0.00e+00	0	29	0	3525312512	36	6467
2026-01-09 07:30:26.56	320.59	7.72	-32.6	-33.1	23.7	0.00e+00	0	29	0	3532652544	36	6520
2026-01-09 07:30:27.57	320.73	7.68	-32.5	-33.1	23.8	0.00e+00	0	29	0	3539992576	36	6472
2026-01-09 07:30:28.58	320.88	7.64	-32.5	-33.0	23.8	0.00e+00	0	29	0	3546284032	36	6460
2026-01-09 07:30:29.59	321.02	7.59	-32.6	-33.1	23.7	0.00e+00	0	29	0	3553624064	36	6534
2026-01-09 07:30:30.60	321.16	7.55	-32.5	-33.1	23.7	0.00e+00	0	29	0	3562012672	36	6494
2026-01-09 07:30:31.61	321.30	7.51	-32.7	-33.3	23.7	0.00e+00	0	29	0	3568304128	36	6624
2026-01-09 07:30:32.62	321.44	7.47	-32.6	-33.2	23.6	0.00e+00	0	29	0	3575644160	36	6569
2026-01-09 07:30:33.63	321.58	7.43	-32.7	-33.3	23.6	0.00e+00	0	29	0	3582984192	38	5915
2026-01-09 07:30:34.64	321.72	7.39	-32.9	-33.4	23.5	0.00e+00	0	29	0	3590324224	38	6021
2026-01-09 07:30:35.65	321.86	7.34	-32.8	-33.4	23.4	0.00e+00	0	29	0	3597664256	38	5975
2026-01-09 07:30:36.65	322.00	7.30	-32.8	-33.4	23.4	0.00e+00	0	29	0	3605004288	38	5965
2026-01-09 07:30:37.67	322.14	7.26	-32.7	-33.3	23.6	0.00e+00	0	29	0	3612344320	38	5926
2026-01-09 07:30:38.68	322.28	7.22	-32.6	-33.2	23.5	0.00e+00	0	29	0	3619684352	38	5876
2026-01-09 07:30:39.68	322.42	7.18	-32.7	-33.3	23.5	0.00e+00	0	29	0	3627024384	38	5933
2026-01-09 07:30:40.69	322.56	7.14	-32.6	-33.2	23.6	0.00e+00	0	29	0	3634364416	38	5864
2026-01-09 07:30:41.70	322.69	7.09	-32.6	-33.2	23.6	0.00e+00	0	29	0	3641704448	38	5831
2026-01-09 07:30:42.71	322.83	7.05	-32.5	-33.1	23.5	0.00e+00	0	29	0	3649044480	38	5795
2026-01-09 07:30:43.72	322.97	7.01	-32.6	-33.1	23.6	0.00e+00	0	29	0	3656384512	38	5814
2026-01-09 07:30:44.73	323.10	6.97	-32.5	-33.1	23.6	0.00e+00	0	29	0	3663724544	38	5771
2026-01-09 07:30:45.75	323.24	6.92	-32.5	-33.0	23.7	0.00e+00	0	29	0	3671064576	38	5755
2026-01-09 07:30:46.76	323.38	6.88	-32.4	-33.0	23.8	0.00e+00	0	29	0	3678404608	38	5699
2026-01-09 07:30:47.77	323.51	6.84	-32.5	-33.0	23.7	0.00e+00	0	29	0	3685744640	38	5746
2026-01-09 07:30:48.77	323.65	6.80	-32.4	-33.0	23.7	0.00e+00	0	29	0	3693084672	38	5715
2026-01-09 07:30:49.78	323.78	6.75	-32.5	-33.1	23.6	0.00e+00	0	29	0	3699376128	38	5793
2026-01-09 07:30:50.80	323.92	6.71	-32.5	-33.1	23.6	0.00e+00	0	28	0	3706716160	38	5794
2026-01-09 07:30:51.80	324.05	6.67	-32.6	-33.2	23.5	0.00e+00	0	28	0	3715104768	38	5868
2026-01-09 07:30:52.81	324.18	6.63	-32.7	-33.3	23.5	0.00e+00	0	29	0	3721396224	38	5907
2026-01-09 07:30:53.82	324.32	6.58	-32.8	-33.4	23.4	0.00e+00	0	29	0	3728736256	38	6015
2026-01-09 07:30:54.83	324.45	6.54	-33.0	-33.6	23.3	0.00e+00	0	29	0	3736076288	38	6128
2026-01-09 07:30:55.84	324.58	6.50	-32.9	-33.5	23.2	0.00e+00	0	28	0	3743416320	38	6082
2026-01-09 07:30:56.85	324.71	6.45	-33.0	-33.6	23.1	0.00e+00	0	29	0	3750756352	38	6152
2026-01-09 07:30:57.86	324.84	6.41	-33.2	-33.8	23.0	0.00e+00	0	29	0	3758096384	38	6261
2026-01-09 07:30:58.87	324.98	6.37	-33.2	-33.8	23.0	0.00e+00	0	29	0	3765436416	38	6287
2026-01-09 07:30:59.88	325.11	6.32	-33.2	-33.8	22.9	0.00e+00	0	29	0	3772776448	38	6310
2026-01-09 07:31:00.89	325.24	6.28	-33.4	-34.0	22.8	0.00e+00	0	29	0	3780116480	38	6448
2026-01-09 07:31:01.90	325.37	6.24	-33.4	-34.0	22.9	0.00e+00	0	29	0	3787456512	38	6392
2026-01-09 07:31:02.91	325.50	6.19	-33.3	-33.9	22.8	0.00e+00	0	29	0	3794796544	38	6377
2026-01-09 07:31:03.92	325.63	6.15	-33.2	-33.9	22.9	0.00e+00	0	29	0	3802136576	38	6318
2026-01-09 07:31:04.92	325.75	6.11	-33.2	-33.8	22.9	0.00e+00	0	29	0	3809476608	38	6276
2026-01-09 07:31:05.93	325.88	6.06	-33.3	-33.9	22.8	0.00e+00	0	28	0	3816816640	38	6350
2026-01-09 07:31:06.94	326.01	6.02	-33.2	-33.8	22.9	0.00e+00	0	29	0	3823108096	38	6297
2026-01-09 07:31:07.95	326.14	5.98	-33.0	-33.6	23.0	0.00e+00	0	29	0	3831496704	38	6158
2026-01-09 07:31:08.96	326.27	5.93	-32.9	-33.5	23.2	0.00e+00	0	29	0	3838836736	38	6061
2026-01-09 07:31:09.97	326.39	5.89	-32.8	-33.4	23.2	0.00e+00	0	29	0	3845128192	38	5975
2026-01-09 07:31:10.98	326.52	5.85	-32.8	-33.4	23.2	0.00e+00	0	29	0	3852468224	38	6020
2026-01-09 07:31:11.99	326.65	5.80	-32.7	-33.3	23.3	0.00e+00	0	29	0	3859808256	38	5917
2026-01-09 07:31:13.00	326.77	5.76	-32.8	-33.4	23.3	0.00e+00	0	29	0	3867148288	38	5983
2026-01-09 07:31:14.01	326.90	5.72	-32.7	-33.2	23.4	0.00e+00	0	29	0	3874488320	38	5886
2026-01-09 07:31:15.01	327.02	5.67	-32.6	-33.1	23.5	0.00e+00	0	29	0	3881828352	38	5819
2026-01-09 07:31:16.02	327.15	5.63	-32.5	-33.1	23.5	0.00e+00	0	29	0	3889168384	38	5783
2026-01-09 07:31:17.03	327.27	5.58	-32.6	-33.2	23.4	0.00e+00	0	28	0	3896508416	38	5859
2026-01-09 07:31:18.04	327.40	5.54	-32.6	-33.2	23.4	0.00e+00	0	29	0	3903848448	38	5856
2026-01-09 07:31:19.05	327.52	5.50	-32.7	-33.3	23.3	0.00e+00	0	29	0	3911188480	38	5928
2026-01-09 07:31:20.06	327.64	5.45	-32.8	-33.4	23.2	0.00e+00	0	29	0	3918528512	38	5995
2026-01-09 07:31:21.07	327.77	5.41	-33.0	-33.5	23.0	0.00e+00	0	29	0	3925868544	38	6096
2026-01-09 07:31:22.08	327.89	5.36	-32.9	-33.4	23.1	0.00e+00	0	29	0	3933208576	38	6024
2026-01-09 07:31:23.09	328.01	5.32	-33.0	-33.6	23.0	0.00e+00	0	29	0	3940548608	38	6108
2026-01-09 07:31:24.10	328.13	5.28	-33.2	-33.8	22.8	0.00e+00	0	29	0	3947888640	38	6282
2026-01-09 07:31:25.11	328.26	5.23	-33.4	-33.9	22.6	0.00e+00	0	29	0	3955228672	38	6384
2026-01-09 07:31:26.12	328.38	5.19	-33.3	-33.9	22.6	0.00e+00	0	29	0	3962568704	38	6367
2026-01-09 07:31:27.13	328.50	5.14	-33.4	-34.0	22.5	0.00e+00	0	29	0	3969908736	38	6439
2026-01-09 07:31:28.13	328.62	5.10	-33.4	-34.1	22.4	0.00e+00	0	29	0	3976200192	38	6476
2026-01-09 07:31:29.14	328.74	5.05	-33.6	-34.2	22.4	0.00e+00	0	29	0	3983540224	38	6576
2026-01-09 07:31:30.15	328.86	5.01	-33.5	-34.1	22.5	0.00e+00	0	29	0	3991928832	38	6478
2026-01-09 07:31:31.16	328.98	4.97	-33.5	-34.1	22.4	0.00e+00	0	29	0	3998220288	38	6487
2026-01-09 07:31:32.17	329.10	4.92	-33.6	-34.2	22.4	0.00e+00	0	29	0	4005560320	38	6566
2026-01-09 07:31:33.18	329.22	4.88	-33.6	-34.2	22.3	0.00e+00	0	29	0	4012900352	38	6575
2026-01-09 07:31:34.19	329.33	4.83	-33.6	-34.2	22.4	0.00e+00	0	29	0	4020240384	38	6578
2026-01-09 07:31:35.20	329.45	4.79	-33.6	-34.2	22.1	0.00e+00	0	29	0	4027580416	38	6565
2026-01-09 07:31:36.21	329.57	4.74	-33.6	-34.2	22.2	0.00e+00	0	29	0	4034920448	38	6606
2026-01-09 07:31:37.22	329.69	4.70	-33.6	-34.2	22.3	0.00e+00	0	29	0	4042260480	38	6613
2026-01-09 07:31:38.23	329.81	4.65	-33.5	-34.1	22.3	0.00e+00	0	29	0	4049600512	38	6534
2026-01-09 07:31:39.24	329.92	4.61	-33.4	-34.0	22.4	0.00e+00	0	29	0	4056940544	38	6428
2026-01-09 07:31:40.25	330.04	4.57	-33.4	-34.0	22.4	0.00e+00	0	28	0	4064280576	38	6419
2026-01-09 07:31:41.26	330.16	4.52	-33.5	-34.1	22.3	0.00e+00	0	29	0	4071620608	38	6522
2026-01-09 07:31:42.27	330.27	4.48	-33.3	-33.9	22.5	0.00e+00	0	29	0	4078960640	38	6334
2026-01-09 07:31:43.28	330.39	4.43	-33.2	-33.8	22.6	0.00e+00	0	29	0	4086300672	38	6259
2026-01-09 07:31:44.28	330.50	4.39	-33.3	-33.9	22.5	0.00e+00	0	29	0	4093640704	38	6347
2026-01-09 07:31:45.29	330.62	4.34	-33.0	-33.6	22.6	0.00e+00	0	29	0	4099932160	38	6167
2026-01-09 07:31:46.30	330.73	4.30	-32.9	-33.5	22.7	0.00e+00	0	29	0	4108320768	38	6090
2026-01-09 07:31:47.31	330.84	4.25	-32.9	-33.5	22.6	0.00e+00	0	29	0	4115660800	38	6080
2026-01-09 07:31:48.32	330.96	4.21	-33.0	-33.6	22.4	0.00e+00	0	28	0	4121952256	38	6119
2026-01-09 07:31:49.33	331.07	4.16	-33.1	-33.7	22.3	0.00e+00	0	29	0	4129292288	38	6210
2026-01-09 07:31:50.34	331.18	4.12	-33.6	-34.2	21.8	0.00e+00	0	28	0	4136632320	38	6602
2026-01-09 07:31:51.35	331.30	4.07	-33.9	-34.5	21.3	0.00e+00	0	28	0	4143972352	38	6833
2026-01-09 07:31:52.36	331.41	4.03	-34.4	-35.1	20.6	0.00e+00	0	29	0	4151312384	40	6476
2026-01-09 07:31:53.37	331.52	3.98	-34.9	-35.7	20.1	0.00e+00	0	29	0	4158652416	42	6182
2026-01-09 07:31:54.38	331.63	3.94	-35.5	-36.3	18.9	0.00e+00	0	29	0	4165992448	42	6660
2026-01-09 07:31:55.39	331.75	3.90	-36.1	-37.0	17.9	0.00e+00	0	29	0	4173332480	44	6422
2026-01-09 07:31:56.40	331.86	3.85	-36.9	-38.0	16.5	0.00e+00	0	29	0	4180672512	46	6421
2026-01-09 07:31:57.41	331.97	3.81	-37.7	-39.0	15.1	0.00e+00	0	28	0	4188012544	46	7236
2026-01-09 07:31:58.42	332.08	3.76	-38.5	-40.1	13.6	0.00e+00	0	29	0	4195352576	48	7296
2026-01-09 07:31:59.43	332.19	3.72	-39.6	-41.7	11.5	3.25e-04	0	29	0	4202692608	50	7831
2026-01-09 07:32:00.44	332.30	3.67	-40.4	-43.1	9.6	7.31e-03	0	29	0	4210032640	52	8208
2026-01-09 07:32:01.45	332.41	3.63	-41.0	-44.5	7.4	1.32e-01	0	29	0	4217372672	54	8546
2026-01-09 07:32:02.47	332.52	3.58	-41.5	-45.7	5.8	2.51e-01	0	29	0	4224712704	54	9801
2026-01-09 07:32:03.47	332.63	3.54	-42.0	-47.4	4.5	8.20e-01	0	29	0	4227858432	56	10644
2026-01-09 07:32:04.48	332.74	3.49	-42.2	-48.7	3.8	8.28e-01	0	29	0	4227858432	56	12411
2026-01-09 07:32:05.49	332.84	3.45	-42.3	-50.9	3.7	8.42e-01	0	29	104	4227858432	56	15926
2026-01-09 07:32:06.50	332.95	3.40	-42.4	-52.0	3.6	8.45e-01	0	29	104	4227858432	56	18153
2026-01-09 07:32:07.51	333.06	3.36	-42.5	-52.6	3.6	8.45e-01	0	29	104	4227858432	56	19417
2026-01-09 07:32:08.52	333.17	3.31	-42.5	-53.0	3.5	8.45e-01	0	29	104	4227858432	56	20341
2026-01-09 07:32:09.53	333.27	3.27	-42.5	-53.1	3.6	8.45e-01	0	29	104	4227858432	56	20455
2026-01-09 07:32:10.54	333.38	3.22	-42.5	-53.4	3.6	8.45e-01	0	29	104	4227858432	56	21269
2026-01-09 07:32:11.55	333.49	3.18	-42.5	-53.5	3.6	8.45e-01	0	29	104	4227858432	56	21603
2026-01-09 07:32:12.56	333.59	3.13	-42.5	-53.5	3.6	8.45e-01	0	29	104	4227858432	56	21609
2026-01-09 07:32:13.57	333.70	3.09	-42.6	-53.6	3.6	8.45e-01	0	29	104	4227858432	56	21713
2026-01-09 07:32:14.58	333.80	3.04	-42.5	-53.6	3.6	8.45e-01	0	29	104	4227858432	56	21679
2026-01-09 07:32:15.59	333.91	3.00	-43.0	-53.9	3.6	8.45e-01	0	29	104	4227858432	56	22448
2026-01-09 07:32:16.60	334.02	2.95	-46.8	-58.1	3.6	8.44e-01	0	29	104	4227858432	60	29055
2026-01-09 07:32:17.61	334.12	2.91	-47.3	-58.5	3.6	8.46e-01	0	29	104	4227858432	60	30410
2026-01-09 07:32:18.62	334.22	2.86	-47.5	-58.8	3.6	8.46e-01	0	29	104	4227858432	60	31321
2026-01-09 07:32:19.63	334.33	2.82	-47.6	-58.9	3.6	8.44e-01	0	29	104	4227858432	60	31755
2026-01-09 07:32:20.64	334.43	2.77	-47.4	-59.0	3.6	8.46e-01	0	29	104	4227858432	60	32082
2026-01-09 07:32:21.65	334.54	2.73	-47.5	-59.0	3.6	8.47e-01	0	29	104	4227858432	60	32349
2026-01-09 07:32:22.66	334.64	2.68	-47.5	-59.2	3.6	8.45e-01	0	29	104	4227858432	60	32787
2026-01-09 07:32:23.67	334.74	2.64	-47.4	-59.1	3.6	8.45e-01	0	29	104	4227858432	60	32518
2026-01-09 07:32:24.68	334.84	2.59	-47.5	-59.1	3.6	8.44e-01	0	29	104	4227858432	60	32776
2026-01-09 07:32:25.69	334.95	2.55	-47.6	-59.1	3.6	8.46e-01	0	29	104	4227858432	60	32542
2026-01-09 07:32:26.70	335.05	2.50	-47.4	-59.0	3.6	8.46e-01	0	29	104	4227858432	60	32355
2026-01-09 07:32:27.71	335.15	2.46	-47.6	-59.0	3.6	8.45e-01	0	29	104	4227858432	60	32132
2026-01-09 07:32:28.72	335.25	2.41	-47.6	-59.0	3.6	8.46e-01	0	29	104	4227858432	60	32378
2026-01-09 07:32:29.73	335.35	2.37	-47.5	-59.0	3.6	8.46e-01	0	29	104	4227858432	60	32128
2026-01-09 07:32:30.73	335.45	2.32	-47.5	-58.9	3.6	8.45e-01	0	29	104	4227858432	60	31956
2026-01-09 07:32:31.74	335.55	2.28	-47.8	-59.1	3.6	8.45e-01	0	29	104	4227858432	60	32415
2026-01-09 07:32:32.75	335.65	2.23	-47.8	-59.1	3.6	8.45e-01	0	29	104	4227858432	60	32503
2026-01-09 07:32:33.76	335.75	2.19	-47.8	-59.1	3.6	8.44e-01	0	29	104	4227858432	60	32418
2026-01-09 07:32:34.78	335.85	2.14	-47.8	-59.0	3.6	8.45e-01	0	29	104	4227858432	60	32363
2026-01-09 07:32:35.78	335.95	2.10	-47.8	-59.0	3.6	8.44e-01	0	29	104	4227858432	60	32310
2026-01-09 07:32:36.79	336.05	2.05	-47.8	-59.0	3.6	8.44e-01	0	29	104	4227858432	60	32300
