passes_logs/2026/01/09/R4.6S_Anadyr/R4.6S_Anadyr__20260109_173718_FENGYUN_3D_rec.log

#Pass ID: 20260109_173718_FENGYUN 3D
#Satellite: FENGYUN 3D
#Configuration: FENGYUN 3D
#almurnet v.1.7.20251203
#Start time: 2026-01-09 17:37:21

#Version: 2.2.20231116
#Station: R4.6S_Anadyr
#Location: 177.4865 lon 64.73178 lat
#TLE: 1 43010U 17072A   26008.59015185 -.00000067  00000+0 -98204-5 0  9997
#TLE: 2 43010  98.9935 340.3069 0002117 119.1923 240.9464 14.19693468422340

#Time	Az	El	Level	Level2	SNR	BER	BlckErr	Temp	State	Recorded	gain1	gain2
2026-01-09 17:37:21.74	23.18	0.17	-47.8	-62.7	3.5	1.51e+00	0	23	0	0	60	49249
2026-01-09 17:37:22.75	23.16	0.23	-47.7	-59.8	3.6	8.46e-01	0	24	104	0	60	35373
2026-01-09 17:37:23.76	23.14	0.29	-47.7	-59.8	3.6	8.45e-01	0	23	104	0	60	35365
2026-01-09 17:37:24.76	23.12	0.35	-47.7	-59.8	3.5	8.45e-01	0	24	104	0	60	35314
2026-01-09 17:37:25.78	23.10	0.41	-47.8	-60.0	3.6	8.45e-01	0	24	104	0	60	35956
2026-01-09 17:37:26.79	23.08	0.47	-47.8	-59.9	3.6	8.46e-01	0	24	104	0	60	35883
2026-01-09 17:37:27.80	23.07	0.53	-47.8	-59.9	3.6	8.46e-01	0	24	104	0	60	35664
2026-01-09 17:37:28.80	23.05	0.59	-47.7	-59.8	3.6	8.46e-01	0	24	104	0	60	35515
2026-01-09 17:37:29.81	23.03	0.65	-47.6	-59.8	3.6	8.45e-01	0	24	104	0	60	35430
2026-01-09 17:37:30.83	23.01	0.71	-47.7	-59.8	3.6	8.44e-01	0	24	104	0	60	35225
2026-01-09 17:37:31.84	22.99	0.77	-47.6	-59.7	3.6	8.45e-01	0	24	104	0	60	35026
2026-01-09 17:37:32.85	22.97	0.83	-47.4	-59.5	3.6	8.45e-01	0	24	104	0	60	34296
2026-01-09 17:37:33.85	22.95	0.90	-47.3	-59.3	3.6	8.45e-01	0	24	104	0	60	33506
2026-01-09 17:37:34.86	22.93	0.96	-47.1	-59.2	3.6	8.46e-01	0	24	104	0	60	32994
2026-01-09 17:37:35.88	22.91	1.02	-46.9	-59.0	3.6	8.44e-01	0	24	104	0	60	32281
2026-01-09 17:37:36.89	22.89	1.08	-46.6	-58.7	3.6	8.45e-01	0	24	104	0	60	31000
2026-01-09 17:37:37.90	22.88	1.14	-46.3	-58.3	3.6	8.46e-01	0	24	104	0	60	29863
2026-01-09 17:37:38.91	22.86	1.20	-46.2	-58.3	3.6	8.45e-01	0	24	104	0	60	29663
2026-01-09 17:37:39.92	22.84	1.27	-46.2	-58.3	3.6	8.46e-01	0	24	104	0	60	29768
2026-01-09 17:37:40.93	22.82	1.33	-46.2	-58.3	3.6	8.45e-01	0	24	104	0	60	29688
2026-01-09 17:37:41.94	22.80	1.39	-46.2	-58.3	3.6	8.45e-01	0	24	104	0	60	29809
2026-01-09 17:37:42.95	22.78	1.45	-46.2	-58.2	3.6	8.45e-01	0	24	104	0	60	29473
2026-01-09 17:37:43.96	22.76	1.52	-46.2	-58.1	3.6	8.46e-01	0	24	104	0	60	29128
2026-01-09 17:37:44.97	22.74	1.58	-46.2	-58.1	3.6	8.46e-01	0	24	104	0	60	29144
2026-01-09 17:37:45.98	22.72	1.64	-46.2	-57.7	3.6	8.45e-01	0	24	104	0	60	27854
2026-01-09 17:37:46.99	22.70	1.70	-46.2	-57.7	3.6	8.45e-01	0	24	104	0	60	27793
2026-01-09 17:37:48.00	22.68	1.77	-46.2	-57.6	3.6	8.46e-01	0	24	104	0	60	27388
2026-01-09 17:37:49.01	22.65	1.83	-46.2	-57.7	3.6	8.46e-01	0	24	104	0	60	27757
2026-01-09 17:37:50.01	22.63	1.89	-46.2	-57.6	3.6	8.46e-01	0	24	104	0	60	27431
2026-01-09 17:37:51.03	22.61	1.96	-46.2	-57.8	3.6	8.46e-01	0	24	104	0	60	28133
2026-01-09 17:37:52.04	22.59	2.02	-46.2	-58.1	3.6	8.46e-01	0	24	104	0	60	29000
2026-01-09 17:37:53.05	22.57	2.09	-46.2	-58.3	3.6	8.46e-01	0	24	104	0	60	29616
2026-01-09 17:37:54.06	22.55	2.15	-46.2	-58.3	3.6	8.47e-01	0	24	104	0	60	29620
2026-01-09 17:37:55.07	22.53	2.21	-46.2	-58.3	3.6	8.45e-01	0	24	104	0	60	29794
2026-01-09 17:37:56.08	22.51	2.28	-46.2	-58.2	3.6	8.45e-01	0	24	104	0	60	29229
2026-01-09 17:37:57.09	22.49	2.34	-46.2	-57.9	3.6	8.45e-01	0	24	104	0	60	28242
2026-01-09 17:37:58.10	22.46	2.41	-46.1	-57.6	3.6	8.45e-01	0	24	104	0	60	27313
2026-01-09 17:37:59.11	22.44	2.47	-46.1	-57.3	3.6	8.45e-01	0	24	104	0	60	26608
2026-01-09 17:38:00.12	22.42	2.54	-46.1	-56.9	3.6	8.45e-01	0	24	104	0	60	25408
2026-01-09 17:38:01.12	22.40	2.60	-46.0	-56.5	3.6	8.44e-01	0	24	104	0	60	24162
2026-01-09 17:38:02.14	22.38	2.67	-46.0	-55.9	3.6	8.44e-01	0	24	104	0	60	22608
2026-01-09 17:38:03.14	22.35	2.73	-45.9	-55.5	3.6	8.42e-01	0	24	104	0	60	21594
2026-01-09 17:38:04.16	22.33	2.80	-45.9	-55.5	3.6	8.42e-01	0	24	104	0	60	21623
2026-01-09 17:38:05.17	22.31	2.86	-46.0	-55.1	3.6	8.43e-01	0	24	104	0	60	20518
2026-01-09 17:38:06.18	22.29	2.93	-46.0	-56.2	3.6	8.43e-01	0	24	104	0	60	23218
2026-01-09 17:38:07.19	22.26	2.99	-46.0	-55.8	3.7	8.44e-01	0	24	104	0	60	22211
2026-01-09 17:38:08.20	22.24	3.06	-45.5	-52.9	4.9	8.25e-01	0	24	104	0	60	15941
2026-01-09 17:38:09.21	22.22	3.13	-44.7	-49.0	7.6	1.74e-01	0	24	0	3145728	60	10170
2026-01-09 17:38:10.22	22.20	3.19	-43.6	-46.9	9.8	3.05e-02	0	24	0	9437184	60	7958
2026-01-09 17:38:11.23	22.17	3.26	-42.8	-45.4	11.8	1.05e-03	0	24	0	14680064	60	6718
2026-01-09 17:38:12.24	22.15	3.32	-41.1	-42.9	14.4	1.14e-05	0	24	0	20971520	56	6326
2026-01-09 17:38:13.25	22.13	3.39	-40.7	-42.5	14.6	0.00e+00	0	24	0	26214400	54	6772
2026-01-09 17:38:14.26	22.10	3.46	-40.2	-41.8	15.4	1.10e-06	0	24	0	32505856	54	6247
2026-01-09 17:38:15.27	22.08	3.53	-39.4	-40.9	16.4	0.00e+00	0	24	0	37748736	52	6323
2026-01-09 17:38:16.28	22.05	3.59	-38.8	-40.1	17.1	0.00e+00	0	24	0	42991616	52	5807
2026-01-09 17:38:17.29	22.03	3.66	-39.1	-40.4	16.9	0.00e+00	0	24	0	49283072	52	6001
2026-01-09 17:38:18.29	22.01	3.73	-39.3	-40.6	16.6	0.00e+00	0	24	0	54525952	52	6172
2026-01-09 17:38:19.30	21.98	3.79	-39.8	-41.3	15.8	0.00e+00	0	24	0	59768832	52	6631
2026-01-09 17:38:20.31	21.96	3.86	-44.7	-49.7	10.1	8.43e-01	0	24	104	62914560	60	11020
2026-01-09 17:38:21.32	21.93	3.93	-34.3	-35.1	21.8	0.00e+00	0	24	0	63963136	42	5764
2026-01-09 17:38:22.33	21.91	4.00	-46.2	-57.0	3.8	9.00e-01	0	24	104	66060288	60	25682
2026-01-09 17:38:23.34	21.89	4.07	-37.4	-38.3	20.1	0.00e+00	0	24	0	68157440	50	5311
2026-01-09 17:38:24.35	21.86	4.14	-44.1	-47.5	10.0	1.17e-01	0	24	0	73400320	60	8613
2026-01-09 17:38:25.36	21.84	4.20	-35.6	-36.5	20.6	0.00e+00	0	25	0	79691776	44	6081
2026-01-09 17:38:26.37	21.81	4.27	-35.8	-36.7	20.5	0.00e+00	0	24	0	84934656	44	6244
2026-01-09 17:38:27.38	21.78	4.34	-35.0	-35.8	21.5	0.00e+00	0	24	0	91226112	44	5623
2026-01-09 17:38:28.39	21.76	4.41	-35.1	-35.9	21.5	0.00e+00	0	24	0	96468992	44	5688
2026-01-09 17:38:29.40	21.73	4.48	-34.3	-35.1	22.3	0.00e+00	0	24	0	102760448	42	5812
2026-01-09 17:38:30.41	21.71	4.55	-34.3	-35.1	22.3	0.00e+00	0	24	0	108003328	42	5799
2026-01-09 17:38:31.42	21.68	4.62	-34.4	-35.2	22.2	0.00e+00	0	24	0	114294784	42	5845
2026-01-09 17:38:32.43	21.66	4.69	-34.2	-34.9	22.5	0.00e+00	0	24	0	119537664	42	5692
2026-01-09 17:38:33.44	21.63	4.76	-34.2	-34.9	22.6	0.00e+00	0	24	0	124780544	42	5687
2026-01-09 17:38:34.45	21.60	4.83	-34.1	-34.9	22.5	0.00e+00	0	25	0	131072000	42	5649
2026-01-09 17:38:35.46	21.58	4.90	-33.9	-34.7	22.8	0.00e+00	0	24	0	136314880	42	5545
2026-01-09 17:38:36.46	21.55	4.97	-33.7	-34.5	22.8	0.00e+00	0	25	0	142606336	40	6055
2026-01-09 17:38:37.47	21.52	5.04	-33.9	-34.6	22.8	0.00e+00	0	24	0	147849216	40	6155
2026-01-09 17:38:38.48	21.50	5.11	-34.0	-34.8	22.7	0.00e+00	0	25	0	153092096	40	6271
2026-01-09 17:38:39.49	21.47	5.18	-33.9	-34.7	22.7	0.00e+00	0	24	0	159383552	40	6184
2026-01-09 17:38:40.50	21.44	5.25	-33.9	-34.7	22.8	0.00e+00	0	24	0	164626432	40	6182
2026-01-09 17:38:41.51	21.42	5.33	-33.9	-34.7	22.8	0.00e+00	0	25	0	170917888	40	6189
2026-01-09 17:38:42.52	21.39	5.40	-34.0	-34.7	22.8	0.00e+00	0	25	0	176160768	40	6227
2026-01-09 17:38:43.53	21.36	5.47	-33.8	-34.6	22.9	0.00e+00	0	25	0	181403648	40	6131
2026-01-09 17:38:44.54	21.33	5.54	-33.9	-34.7	22.8	0.00e+00	0	24	0	187695104	40	6196
2026-01-09 17:38:45.54	21.31	5.61	-34.0	-34.8	22.8	0.00e+00	0	25	0	192937984	40	6249
2026-01-09 17:38:46.55	21.28	5.69	-34.0	-34.8	22.7	0.00e+00	0	24	0	199229440	40	6275
2026-01-09 17:38:47.56	21.25	5.76	-33.8	-34.6	22.9	0.00e+00	0	25	0	204472320	40	6144
2026-01-09 17:38:48.57	21.22	5.83	-33.9	-34.6	22.8	0.00e+00	0	25	0	210763776	40	6166
2026-01-09 17:38:49.58	21.19	5.90	-33.9	-34.6	22.9	0.00e+00	0	25	0	216006656	40	6165
2026-01-09 17:38:50.60	21.16	5.98	-33.7	-34.4	23.1	0.00e+00	0	25	0	221249536	40	6022
2026-01-09 17:38:51.60	21.13	6.05	-33.8	-34.5	23.0	0.00e+00	0	25	0	227540992	40	6076
2026-01-09 17:38:52.61	21.11	6.12	-33.7	-34.5	23.1	0.00e+00	0	24	0	232783872	40	6035
2026-01-09 17:38:53.62	21.08	6.20	-33.8	-34.6	23.0	0.00e+00	0	25	0	239075328	40	6125
2026-01-09 17:38:54.63	21.05	6.27	-33.7	-34.5	23.2	0.00e+00	0	25	0	244318208	40	6066
2026-01-09 17:38:55.64	21.02	6.35	-33.8	-34.5	23.1	0.00e+00	0	24	0	249561088	40	6080
2026-01-09 17:38:56.65	20.99	6.42	-33.9	-34.6	23.0	0.00e+00	0	25	0	255852544	40	6160
2026-01-09 17:38:57.66	20.96	6.50	-33.6	-34.3	23.3	0.00e+00	0	24	0	261095424	40	5921
2026-01-09 17:38:58.66	20.93	6.57	-33.6	-34.4	23.2	0.00e+00	0	24	0	267386880	40	5975
2026-01-09 17:38:59.67	20.90	6.65	-33.7	-34.4	23.2	0.00e+00	0	24	0	272629760	40	6031
2026-01-09 17:39:00.68	20.87	6.72	-33.7	-34.4	23.2	0.00e+00	0	24	0	277872640	40	6006
2026-01-09 17:39:01.69	20.84	6.80	-33.7	-34.5	23.1	0.00e+00	0	24	0	284164096	40	6061
2026-01-09 17:39:02.70	20.81	6.87	-33.8	-34.6	23.1	0.00e+00	0	24	0	289406976	40	6143
2026-01-09 17:39:03.71	20.77	6.95	-33.8	-34.5	23.0	0.00e+00	0	25	0	295698432	40	6083
2026-01-09 17:39:04.72	20.74	7.02	-33.9	-34.6	23.1	0.00e+00	0	25	0	300941312	40	6134
2026-01-09 17:39:05.73	20.71	7.10	-34.0	-34.7	23.0	0.00e+00	0	25	0	307232768	40	6234
2026-01-09 17:39:06.74	20.68	7.18	-33.4	-34.2	23.4	0.00e+00	0	25	0	312475648	40	5861
2026-01-09 17:39:07.75	20.65	7.25	-33.5	-34.2	23.4	0.00e+00	0	24	0	317718528	40	5881
2026-01-09 17:39:08.76	20.62	7.33	-33.5	-34.2	23.4	0.00e+00	0	25	0	324009984	40	5896
2026-01-09 17:39:09.77	20.58	7.41	-33.3	-34.1	23.6	0.00e+00	0	25	0	329252864	40	5777
2026-01-09 17:39:10.77	20.55	7.48	-33.4	-34.1	23.5	0.00e+00	0	25	0	335544320	40	5808
2026-01-09 17:39:11.78	20.52	7.56	-33.2	-34.0	23.6	0.00e+00	0	25	0	340787200	40	5704
2026-01-09 17:39:12.80	20.49	7.64	-33.3	-34.1	23.6	0.00e+00	0	25	0	346030080	40	5763
2026-01-09 17:39:13.80	20.45	7.72	-33.2	-33.9	23.8	0.00e+00	0	25	0	352321536	40	5657
2026-01-09 17:39:14.81	20.42	7.80	-33.3	-34.0	23.7	0.00e+00	0	25	0	357564416	40	5711
2026-01-09 17:39:15.82	20.39	7.88	-33.2	-34.0	23.7	0.00e+00	0	25	0	363855872	40	5708
2026-01-09 17:39:16.83	20.35	7.95	-33.2	-33.9	23.7	0.00e+00	0	25	0	369098752	40	5667
2026-01-09 17:39:17.84	20.32	8.03	-33.3	-34.0	23.6	0.00e+00	0	25	0	374341632	40	5751
2026-01-09 17:39:18.85	20.29	8.11	-33.2	-34.0	23.8	0.00e+00	0	25	0	380633088	40	5697
2026-01-09 17:39:19.86	20.25	8.19	-32.9	-33.6	24.0	0.00e+00	0	25	0	385875968	40	5486
2026-01-09 17:39:20.87	20.22	8.27	-33.0	-33.8	23.9	0.00e+00	0	24	0	392167424	40	5578
2026-01-09 17:39:21.88	20.18	8.35	-33.2	-33.9	23.8	0.00e+00	0	25	0	397410304	40	5648
2026-01-09 17:39:22.89	20.15	8.43	-33.1	-33.8	23.9	0.00e+00	0	25	0	403701760	40	5621
2026-01-09 17:39:23.90	20.11	8.51	-33.2	-33.9	23.9	0.00e+00	0	25	0	408944640	40	5641
2026-01-09 17:39:24.91	20.08	8.59	-33.1	-33.8	23.9	0.00e+00	0	25	0	415236096	40	5629
2026-01-09 17:39:25.92	20.04	8.67	-33.0	-33.7	24.0	0.00e+00	0	25	0	420478976	40	5554
2026-01-09 17:39:26.93	20.01	8.76	-32.9	-33.6	24.1	0.00e+00	0	24	0	425721856	40	5482
2026-01-09 17:39:27.94	19.97	8.84	-33.0	-33.7	24.1	0.00e+00	0	25	0	432013312	40	5564
2026-01-09 17:39:28.95	19.94	8.92	-32.8	-33.5	24.2	0.00e+00	0	25	0	437256192	40	5438
2026-01-09 17:39:29.96	19.90	9.00	-32.9	-33.6	24.0	0.00e+00	0	25	0	443547648	40	5491
2026-01-09 17:39:30.97	19.86	9.08	-32.8	-33.5	24.2	0.00e+00	0	25	0	448790528	40	5390
2026-01-09 17:39:31.98	19.83	9.17	-32.9	-33.6	24.2	0.00e+00	0	25	0	454033408	40	5466
2026-01-09 17:39:32.99	19.79	9.25	-32.8	-33.6	24.2	0.00e+00	0	25	0	460324864	40	5448
2026-01-09 17:39:33.99	19.75	9.33	-32.7	-33.4	24.3	0.00e+00	0	25	0	465567744	38	6007
2026-01-09 17:39:35.00	19.71	9.41	-32.8	-33.5	24.2	0.00e+00	0	25	0	470810624	38	6099
2026-01-09 17:39:36.01	19.68	9.50	-32.7	-33.4	24.3	0.00e+00	0	25	0	477102080	38	5979
2026-01-09 17:39:37.02	19.64	9.58	-32.8	-33.5	24.2	0.00e+00	0	25	0	482344960	38	6093
2026-01-09 17:39:38.03	19.60	9.67	-32.9	-33.6	24.2	0.00e+00	0	25	0	488636416	38	6136
2026-01-09 17:39:39.04	19.56	9.75	-33.0	-33.7	24.1	0.00e+00	0	25	0	493879296	38	6205
2026-01-09 17:39:40.05	19.52	9.83	-32.8	-33.5	24.3	0.00e+00	0	25	0	500170752	38	6038
2026-01-09 17:39:41.05	19.48	9.92	-32.6	-33.3	24.5	0.00e+00	0	25	0	505413632	38	5937
2026-01-09 17:39:42.06	19.45	10.00	-32.4	-33.1	24.6	0.00e+00	0	25	0	511705088	38	5787
2026-01-09 17:39:43.07	19.41	10.09	-32.5	-33.2	24.4	0.00e+00	0	25	0	516947968	38	5872
2026-01-09 17:39:44.08	19.37	10.18	-32.3	-33.0	24.6	0.00e+00	0	25	0	522190848	38	5740
2026-01-09 17:39:45.09	19.33	10.26	-32.3	-33.0	24.8	0.00e+00	0	25	0	528482304	38	5745
2026-01-09 17:39:46.10	19.29	10.35	-32.4	-33.0	24.7	0.00e+00	0	25	0	533725184	38	5751
2026-01-09 17:39:47.11	19.25	10.43	-32.4	-33.1	24.7	0.00e+00	0	25	0	540016640	38	5766
2026-01-09 17:39:48.12	19.20	10.52	-32.5	-33.2	24.6	0.00e+00	0	25	0	545259520	38	5841
2026-01-09 17:39:49.12	19.16	10.61	-32.4	-33.1	24.7	0.00e+00	0	25	0	550502400	38	5818
2026-01-09 17:39:50.13	19.12	10.70	-32.3	-32.9	24.8	0.00e+00	0	25	0	556793856	38	5687
2026-01-09 17:39:51.14	19.08	10.78	-32.3	-33.0	24.7	0.00e+00	0	25	0	562036736	38	5712
2026-01-09 17:39:52.15	19.04	10.87	-32.2	-32.8	24.9	0.00e+00	0	25	0	567279616	38	5618
2026-01-09 17:39:53.16	19.00	10.96	-32.1	-32.8	25.0	0.00e+00	0	25	0	573571072	38	5613
2026-01-09 17:39:54.17	18.95	11.05	-32.3	-33.0	24.8	0.00e+00	0	25	0	578813952	38	5723
2026-01-09 17:39:55.18	18.91	11.14	-32.3	-33.0	24.7	0.00e+00	0	25	0	585105408	38	5708
2026-01-09 17:39:56.19	18.87	11.23	-32.1	-32.8	25.0	0.00e+00	0	25	0	590348288	38	5589
2026-01-09 17:39:57.20	18.83	11.32	-32.0	-32.7	25.0	0.00e+00	0	25	0	596639744	38	5525
2026-01-09 17:39:58.21	18.78	11.41	-32.1	-32.8	25.0	0.00e+00	0	25	0	601882624	38	5567
2026-01-09 17:39:59.22	18.74	11.50	-32.0	-32.6	25.1	0.00e+00	0	25	0	608174080	38	5498
2026-01-09 17:40:00.23	18.69	11.59	-32.0	-32.7	25.1	0.00e+00	0	25	0	613416960	38	5508
2026-01-09 17:40:01.23	18.65	11.68	-32.1	-32.8	24.9	0.00e+00	0	25	0	618659840	38	5598
2026-01-09 17:40:02.25	18.60	11.77	-32.0	-32.6	25.1	0.00e+00	0	25	0	624951296	38	5477
2026-01-09 17:40:03.26	18.56	11.86	-32.0	-32.7	25.0	0.00e+00	0	25	0	630194176	38	5517
2026-01-09 17:40:04.27	18.51	11.95	-32.0	-32.6	25.1	0.00e+00	0	25	0	636485632	38	5492
2026-01-09 17:40:05.28	18.47	12.05	-32.0	-32.7	25.1	0.00e+00	0	25	0	641728512	38	5530
2026-01-09 17:40:06.29	18.42	12.14	-32.0	-32.7	25.2	0.00e+00	0	25	0	646971392	38	5547
2026-01-09 17:40:07.30	18.38	12.23	-32.0	-32.6	25.2	0.00e+00	0	25	0	653262848	38	5489
2026-01-09 17:40:08.31	18.33	12.32	-32.1	-32.8	25.0	0.00e+00	0	25	0	658505728	38	5573
2026-01-09 17:40:09.32	18.28	12.42	-31.9	-32.6	25.3	0.00e+00	0	25	0	664797184	38	5465
2026-01-09 17:40:10.33	18.24	12.51	-32.0	-32.7	25.1	0.00e+00	0	25	0	670040064	38	5537
2026-01-09 17:40:11.33	18.19	12.60	-32.0	-32.7	25.1	0.00e+00	0	25	0	675282944	38	5536
2026-01-09 17:40:12.34	18.14	12.70	-31.9	-32.5	25.2	0.00e+00	0	25	0	681574400	38	5431
2026-01-09 17:40:13.35	18.09	12.79	-31.8	-32.5	25.4	0.00e+00	0	25	0	686817280	38	5403
2026-01-09 17:40:14.36	18.04	12.89	-31.9	-32.5	25.3	0.00e+00	0	25	0	693108736	38	5433
2026-01-09 17:40:15.37	17.99	12.98	-31.8	-32.5	25.4	0.00e+00	0	25	0	698351616	36	6058
2026-01-09 17:40:16.38	17.95	13.08	-31.8	-32.5	25.4	0.00e+00	0	25	0	704643072	36	6034
2026-01-09 17:40:17.39	17.90	13.18	-31.8	-32.5	25.3	0.00e+00	0	25	0	709885952	36	6046
2026-01-09 17:40:18.40	17.85	13.27	-31.7	-32.3	25.4	0.00e+00	0	25	0	715128832	36	5948
2026-01-09 17:40:19.41	17.80	13.37	-31.7	-32.4	25.5	0.00e+00	0	25	0	721420288	36	6013
2026-01-09 17:40:20.42	17.74	13.47	-31.7	-32.4	25.5	0.00e+00	0	25	0	726663168	36	5975
2026-01-09 17:40:21.43	17.69	13.57	-31.6	-32.3	25.5	0.00e+00	0	25	0	732954624	36	5920
2026-01-09 17:40:22.43	17.64	13.66	-31.6	-32.2	25.6	0.00e+00	0	25	0	738197504	36	5879
2026-01-09 17:40:23.45	17.59	13.76	-31.6	-32.2	25.6	0.00e+00	0	25	0	743440384	36	5895
2026-01-09 17:40:24.45	17.54	13.86	-31.5	-32.1	25.6	0.00e+00	0	25	0	749731840	36	5810
2026-01-09 17:40:25.46	17.49	13.96	-31.5	-32.2	25.6	0.00e+00	0	25	0	754974720	36	5831
2026-01-09 17:40:26.47	17.43	14.06	-31.6	-32.3	25.6	0.00e+00	0	25	0	761266176	36	5915
2026-01-09 17:40:27.48	17.38	14.16	-31.5	-32.2	25.7	0.00e+00	0	25	0	766509056	36	5846
2026-01-09 17:40:28.49	17.33	14.26	-31.2	-31.9	26.0	0.00e+00	0	25	0	771751936	36	5638
2026-01-09 17:40:29.50	17.27	14.36	-31.2	-31.8	25.9	0.00e+00	0	25	0	778043392	36	5630
2026-01-09 17:40:30.51	17.22	14.46	-31.2	-31.9	26.0	0.00e+00	0	25	0	783286272	36	5643
2026-01-09 17:40:31.52	17.16	14.56	-31.1	-31.7	26.0	0.00e+00	0	25	0	789577728	36	5558
2026-01-09 17:40:32.53	17.11	14.67	-31.2	-31.8	26.0	0.00e+00	0	25	0	794820608	36	5590
2026-01-09 17:40:33.54	17.05	14.77	-31.1	-31.8	26.0	0.00e+00	0	25	0	801112064	36	5581
2026-01-09 17:40:34.55	17.00	14.87	-31.1	-31.8	26.1	0.00e+00	0	25	0	806354944	36	5577
2026-01-09 17:40:35.56	16.94	14.97	-31.0	-31.7	26.1	0.00e+00	0	25	0	812646400	36	5508
2026-01-09 17:40:36.57	16.88	15.08	-31.0	-31.6	26.1	0.00e+00	0	25	0	817889280	36	5501
2026-01-09 17:40:37.57	16.83	15.18	-31.0	-31.6	26.2	0.00e+00	0	25	0	823132160	36	5473
2026-01-09 17:40:38.58	16.77	15.28	-31.1	-31.7	26.1	0.00e+00	0	25	0	829423616	36	5551
2026-01-09 17:40:39.59	16.71	15.39	-31.0	-31.7	26.1	0.00e+00	0	25	0	834666496	36	5517
2026-01-09 17:40:40.60	16.65	15.49	-30.9	-31.6	26.2	0.00e+00	0	25	0	839909376	36	5443
2026-01-09 17:40:41.61	16.59	15.60	-30.9	-31.5	26.2	0.00e+00	0	25	0	846200832	36	5429
2026-01-09 17:40:42.62	16.53	15.71	-30.8	-31.5	26.3	0.00e+00	0	25	0	851443712	36	5381
2026-01-09 17:40:43.63	16.47	15.81	-31.0	-31.6	26.2	0.00e+00	0	25	0	857735168	36	5492
2026-01-09 17:40:44.64	16.41	15.92	-30.8	-31.4	26.3	0.00e+00	0	25	0	862978048	36	5343
2026-01-09 17:40:45.65	16.35	16.03	-30.9	-31.6	26.2	0.00e+00	0	25	0	868220928	34	6115
2026-01-09 17:40:46.66	16.29	16.14	-30.7	-31.4	26.4	0.00e+00	0	25	0	874512384	34	5983
2026-01-09 17:40:47.67	16.23	16.24	-30.8	-31.4	26.4	0.00e+00	0	25	0	879755264	34	6003
2026-01-09 17:40:48.68	16.17	16.35	-30.6	-31.2	26.6	0.00e+00	0	25	0	886046720	34	5876
2026-01-09 17:40:49.69	16.10	16.46	-30.5	-31.1	26.6	0.00e+00	0	25	0	891289600	34	5825
2026-01-09 17:40:50.69	16.04	16.57	-30.4	-31.0	26.7	0.00e+00	0	25	0	897581056	34	5753
2026-01-09 17:40:51.70	15.98	16.68	-30.6	-31.2	26.6	0.00e+00	0	25	0	902823936	34	5865
2026-01-09 17:40:52.72	15.91	16.79	-30.2	-30.9	26.8	0.00e+00	0	25	0	909115392	34	5639
2026-01-09 17:40:53.73	15.85	16.90	-30.2	-30.8	26.9	0.00e+00	0	25	0	914358272	34	5595
2026-01-09 17:40:54.73	15.78	17.01	-30.2	-30.8	26.9	0.00e+00	0	25	0	919601152	34	5601
2026-01-09 17:40:55.74	15.72	17.13	-30.2	-30.8	26.8	0.00e+00	0	25	0	925892608	34	5586
2026-01-09 17:40:56.75	15.65	17.24	-30.1	-30.7	27.0	0.00e+00	0	25	0	931135488	34	5546
2026-01-09 17:40:57.76	15.58	17.35	-30.0	-30.7	27.0	0.00e+00	0	25	0	937426944	34	5510
2026-01-09 17:40:58.77	15.51	17.46	-30.2	-30.8	26.9	0.00e+00	0	25	0	942669824	34	5601
2026-01-09 17:40:59.78	15.45	17.58	-30.0	-30.7	26.9	0.00e+00	0	25	0	947912704	34	5519
2026-01-09 17:41:00.79	15.38	17.69	-30.0	-30.7	27.0	0.00e+00	0	25	0	954204160	34	5533
2026-01-09 17:41:01.80	15.31	17.81	-30.0	-30.7	27.0	0.00e+00	0	25	0	959447040	34	5511
2026-01-09 17:41:02.81	15.24	17.92	-30.0	-30.6	27.0	0.00e+00	0	25	0	965738496	34	5477
2026-01-09 17:41:03.82	15.17	18.04	-30.1	-30.7	27.0	0.00e+00	0	25	0	970981376	34	5514
2026-01-09 17:41:04.82	15.10	18.15	-30.0	-30.6	27.0	0.00e+00	0	25	0	976224256	34	5461
2026-01-09 17:41:05.83	15.03	18.27	-29.8	-30.4	27.1	0.00e+00	0	25	0	982515712	34	5375
2026-01-09 17:41:06.84	14.96	18.39	-29.9	-30.5	27.1	0.00e+00	0	25	0	987758592	34	5434
2026-01-09 17:41:07.86	14.88	18.51	-29.8	-30.5	27.2	0.00e+00	0	25	0	994050048	34	5383
2026-01-09 17:41:08.87	14.81	18.63	-29.8	-30.5	27.1	0.00e+00	0	25	0	999292928	32	6040
2026-01-09 17:41:09.87	14.74	18.74	-30.0	-30.6	27.0	0.00e+00	0	25	0	1005584384	32	6142
2026-01-09 17:41:10.88	14.66	18.86	-29.9	-30.5	27.1	0.00e+00	0	25	0	1010827264	32	6098
2026-01-09 17:41:11.89	14.59	18.98	-29.9	-30.5	27.2	0.00e+00	0	25	0	1016070144	32	6093
2026-01-09 17:41:12.90	14.51	19.10	-30.0	-30.7	27.1	0.00e+00	0	25	0	1022361600	32	6186
2026-01-09 17:41:13.91	14.44	19.22	-29.8	-30.4	27.1	0.00e+00	0	25	0	1027604480	32	6010
2026-01-09 17:41:14.92	14.36	19.35	-29.9	-30.5	27.2	0.00e+00	0	25	0	1033895936	32	6052
2026-01-09 17:41:15.93	14.28	19.47	-29.7	-30.4	27.3	0.00e+00	0	25	0	1039138816	32	5974
2026-01-09 17:41:16.94	14.20	19.59	-29.7	-30.4	27.3	0.00e+00	0	25	0	1044381696	32	5982
2026-01-09 17:41:17.95	14.12	19.71	-29.8	-30.5	27.3	0.00e+00	0	25	0	1050673152	32	6043
2026-01-09 17:41:18.96	14.05	19.84	-29.8	-30.4	27.2	0.00e+00	0	25	0	1055916032	32	5992
2026-01-09 17:41:19.97	13.97	19.96	-29.8	-30.4	27.2	0.00e+00	0	25	0	1062207488	32	5991
2026-01-09 17:41:20.98	13.88	20.09	-29.7	-30.3	27.3	0.00e+00	0	25	0	1067450368	32	5927
2026-01-09 17:41:21.99	13.80	20.21	-29.8	-30.4	27.2	0.00e+00	0	25	0	1072693248	32	5975
2026-01-09 17:41:23.00	13.72	20.34	-29.8	-30.4	27.2	0.00e+00	0	25	0	1078984704	32	5995
2026-01-09 17:41:24.01	13.64	20.47	-29.7	-30.3	27.3	0.00e+00	0	25	0	1084227584	32	5946
2026-01-09 17:41:25.01	13.55	20.59	-29.7	-30.4	27.3	0.00e+00	0	25	0	1090519040	32	5974
2026-01-09 17:41:26.02	13.47	20.72	-29.7	-30.3	27.4	0.00e+00	0	25	0	1095761920	32	5920
2026-01-09 17:41:27.03	13.39	20.85	-29.9	-30.5	27.1	0.00e+00	0	25	0	1102053376	32	6097
2026-01-09 17:41:28.04	13.30	20.98	-29.7	-30.3	27.4	0.00e+00	0	25	0	1107296256	32	5921
2026-01-09 17:41:29.05	13.21	21.11	-29.5	-30.2	27.4	0.00e+00	0	25	0	1112539136	32	5834
2026-01-09 17:41:30.06	13.13	21.24	-29.4	-30.1	27.5	0.00e+00	0	25	0	1118830592	32	5769
2026-01-09 17:41:31.07	13.04	21.37	-29.4	-30.0	27.6	0.00e+00	0	25	0	1124073472	32	5727
2026-01-09 17:41:32.08	12.95	21.50	-29.4	-30.0	27.6	0.00e+00	0	25	0	1130364928	32	5715
2026-01-09 17:41:33.09	12.86	21.63	-29.4	-30.0	27.6	0.00e+00	0	25	0	1135607808	32	5710
2026-01-09 17:41:34.10	12.77	21.76	-29.4	-30.1	27.5	0.00e+00	0	25	0	1140850688	32	5777
2026-01-09 17:41:35.11	12.68	21.90	-29.7	-30.4	27.3	0.00e+00	0	25	0	1147142144	32	5969
2026-01-09 17:41:36.12	12.59	22.03	-29.6	-30.2	27.5	0.00e+00	0	25	0	1152385024	32	5882
2026-01-09 17:41:37.13	12.49	22.16	-29.4	-30.1	27.6	0.00e+00	0	25	0	1158676480	32	5771
2026-01-09 17:41:38.14	12.40	22.30	-29.4	-30.0	27.7	0.00e+00	0	25	0	1163919360	32	5723
2026-01-09 17:41:39.15	12.30	22.43	-29.4	-30.0	27.6	0.00e+00	0	25	0	1169162240	32	5750
2026-01-09 17:41:40.16	12.21	22.57	-29.4	-30.0	27.6	0.00e+00	0	25	0	1175453696	32	5744
2026-01-09 17:41:41.17	12.11	22.71	-29.5	-30.1	27.6	0.00e+00	0	25	0	1180696576	32	5792
2026-01-09 17:41:42.18	12.01	22.85	-29.4	-30.0	27.6	0.00e+00	0	25	0	1186988032	32	5726
2026-01-09 17:41:43.19	11.92	22.98	-29.4	-30.0	27.6	0.00e+00	0	25	0	1192230912	32	5714
2026-01-09 17:41:44.20	11.82	23.12	-29.2	-29.8	27.8	0.00e+00	0	25	0	1198522368	32	5586
2026-01-09 17:41:45.20	11.72	23.26	-29.1	-29.7	27.9	0.00e+00	0	25	0	1203765248	32	5522
2026-01-09 17:41:46.21	11.62	23.40	-29.0	-29.6	27.9	0.00e+00	0	25	0	1210056704	32	5483
2026-01-09 17:41:47.22	11.52	23.54	-29.0	-29.6	27.9	0.00e+00	0	25	0	1215299584	32	5499
2026-01-09 17:41:48.23	11.41	23.68	-28.8	-29.4	28.0	0.00e+00	0	25	0	1220542464	32	5367
2026-01-09 17:41:49.24	11.31	23.83	-28.9	-29.5	28.0	0.00e+00	0	25	0	1226833920	32	5424
2026-01-09 17:41:50.25	11.20	23.97	-28.8	-29.4	28.1	0.00e+00	0	25	0	1232076800	32	5355
2026-01-09 17:41:51.26	11.10	24.11	-28.8	-29.4	28.1	0.00e+00	0	25	0	1238368256	32	5355
2026-01-09 17:41:52.27	10.99	24.26	-28.8	-29.4	28.1	0.00e+00	0	25	0	1243611136	32	5363
2026-01-09 17:41:53.28	10.88	24.40	-28.8	-29.4	28.1	0.00e+00	0	25	0	1248854016	32	5342
2026-01-09 17:41:54.29	10.77	24.55	-28.9	-29.5	28.0	0.00e+00	0	25	0	1255145472	32	5434
2026-01-09 17:41:55.30	10.66	24.69	-29.0	-29.6	27.8	0.00e+00	0	25	0	1260388352	32	5492
2026-01-09 17:41:56.31	10.55	24.84	-29.3	-30.0	27.7	0.00e+00	0	25	0	1266679808	32	5705
2026-01-09 17:41:57.32	10.44	24.99	-29.5	-30.1	27.5	0.00e+00	0	25	0	1271922688	32	5794
2026-01-09 17:41:58.33	10.33	25.14	-29.5	-30.1	27.5	0.00e+00	0	25	0	1277165568	32	5821
2026-01-09 17:41:59.34	10.21	25.28	-29.3	-30.0	27.6	0.00e+00	0	25	0	1283457024	32	5700
2026-01-09 17:42:00.35	10.10	25.43	-29.3	-29.9	27.7	0.00e+00	0	25	0	1288699904	32	5677
2026-01-09 17:42:01.35	9.98	25.58	-29.4	-30.0	27.6	0.00e+00	0	25	0	1294991360	32	5742
2026-01-09 17:42:02.36	9.87	25.74	-29.4	-30.0	27.7	0.00e+00	0	25	0	1300234240	32	5722
2026-01-09 17:42:03.37	9.75	25.89	-29.1	-29.8	27.8	0.00e+00	0	25	0	1306525696	32	5579
2026-01-09 17:42:04.38	9.63	26.04	-29.0	-29.6	27.9	0.00e+00	0	25	0	1311768576	32	5498
2026-01-09 17:42:05.39	9.51	26.19	-29.0	-29.6	27.9	0.00e+00	0	25	0	1317011456	32	5460
2026-01-09 17:42:06.40	9.38	26.35	-28.8	-29.4	28.1	0.00e+00	0	25	0	1323302912	32	5327
2026-01-09 17:42:07.41	9.26	26.50	-28.8	-29.3	28.1	0.00e+00	0	25	0	1328545792	32	5315
2026-01-09 17:42:08.42	9.14	26.66	-28.7	-29.3	28.3	0.00e+00	0	25	0	1334837248	30	5937
2026-01-09 17:42:09.43	9.01	26.81	-28.7	-29.3	28.3	0.00e+00	0	25	0	1340080128	30	5907
2026-01-09 17:42:10.44	8.88	26.97	-28.7	-29.3	28.2	0.00e+00	0	25	0	1345323008	30	5940
2026-01-09 17:42:11.45	8.75	27.13	-28.7	-29.3	28.3	0.00e+00	0	25	0	1351614464	30	5921
2026-01-09 17:42:12.46	8.62	27.29	-28.5	-29.1	28.4	0.00e+00	0	25	0	1356857344	30	5820
2026-01-09 17:42:13.47	8.49	27.45	-28.6	-29.2	28.4	0.00e+00	0	25	0	1363148800	30	5848
2026-01-09 17:42:14.48	8.36	27.61	-28.6	-29.2	28.3	0.00e+00	0	25	0	1368391680	30	5884
2026-01-09 17:42:15.49	8.23	27.77	-28.7	-29.3	28.2	0.00e+00	0	25	0	1373634560	30	5925
2026-01-09 17:42:16.50	8.09	27.93	-28.7	-29.4	28.3	0.00e+00	0	25	0	1379926016	30	5965
2026-01-09 17:42:17.51	7.95	28.09	-28.7	-29.3	28.1	0.00e+00	0	25	0	1385168896	30	5942
2026-01-09 17:42:18.52	7.81	28.26	-28.7	-29.3	28.3	0.00e+00	0	25	0	1391460352	30	5959
2026-01-09 17:42:19.53	7.67	28.42	-28.6	-29.3	28.3	0.00e+00	0	25	0	1396703232	30	5906
2026-01-09 17:42:20.54	7.53	28.59	-28.5	-29.1	28.3	0.00e+00	0	25	0	1402994688	30	5818
2026-01-09 17:42:21.56	7.39	28.75	-28.5	-29.1	28.4	0.00e+00	0	25	0	1408237568	30	5812
2026-01-09 17:42:22.56	7.25	28.92	-28.3	-28.9	28.5	0.00e+00	0	25	0	1414529024	30	5662
2026-01-09 17:42:23.57	7.10	29.08	-28.3	-28.8	28.6	0.00e+00	0	25	0	1419771904	30	5629
2026-01-09 17:42:24.59	6.95	29.25	-28.2	-28.7	28.7	0.00e+00	0	25	0	1425014784	30	5561
2026-01-09 17:42:25.59	6.80	29.42	-28.1	-28.7	28.6	0.00e+00	0	25	0	1431306240	30	5543
2026-01-09 17:42:26.60	6.65	29.59	-28.3	-28.8	28.6	0.00e+00	0	25	0	1436549120	30	5613
2026-01-09 17:42:27.62	6.50	29.76	-28.4	-29.0	28.5	0.00e+00	0	25	0	1442840576	30	5710
2026-01-09 17:42:28.63	6.35	29.93	-28.4	-29.0	28.4	0.00e+00	0	25	0	1448083456	30	5738
2026-01-09 17:42:29.64	6.19	30.11	-28.4	-29.0	28.4	0.00e+00	0	25	0	1453326336	30	5729
2026-01-09 17:42:30.65	6.03	30.28	-28.4	-29.0	28.4	0.00e+00	0	25	0	1459617792	30	5716
2026-01-09 17:42:31.65	5.87	30.45	-28.4	-29.0	28.5	0.00e+00	0	25	0	1464860672	30	5710
2026-01-09 17:42:32.66	5.71	30.63	-28.3	-28.9	28.5	0.00e+00	0	25	0	1471152128	30	5670
2026-01-09 17:42:33.67	5.55	30.80	-28.2	-28.8	28.6	0.00e+00	0	25	0	1476395008	30	5615
2026-01-09 17:42:34.68	5.39	30.98	-28.3	-28.9	28.5	0.00e+00	0	25	0	1481637888	30	5644
2026-01-09 17:42:35.69	5.22	31.15	-28.1	-28.7	28.6	0.00e+00	0	25	0	1487929344	30	5563
2026-01-09 17:42:36.70	5.05	31.33	-27.9	-28.4	28.9	0.00e+00	0	25	0	1493172224	30	5350
2026-01-09 17:42:37.71	4.88	31.51	-27.8	-28.3	29.0	0.00e+00	0	25	0	1499463680	30	5307
2026-01-09 17:42:38.72	4.71	31.69	-27.9	-28.5	28.8	0.00e+00	0	25	0	1504706560	30	5416
2026-01-09 17:42:39.73	4.54	31.87	-27.9	-28.4	28.9	0.00e+00	0	25	0	1510998016	30	5368
2026-01-09 17:42:40.73	4.36	32.05	-28.0	-28.6	28.8	0.00e+00	0	25	0	1516240896	30	5468
2026-01-09 17:42:41.74	4.18	32.23	-28.0	-28.6	28.7	0.00e+00	0	25	0	1521483776	30	5485
2026-01-09 17:42:42.75	4.00	32.41	-28.0	-28.6	28.7	0.00e+00	0	25	0	1527775232	30	5481
2026-01-09 17:42:43.76	3.82	32.59	-28.0	-28.5	28.8	0.00e+00	0	25	0	1533018112	30	5437
2026-01-09 17:42:44.77	3.64	32.78	-28.0	-28.6	28.7	0.00e+00	0	25	0	1539309568	30	5443
2026-01-09 17:42:45.78	3.45	32.96	-28.1	-28.7	28.7	0.00e+00	0	25	0	1544552448	30	5548
2026-01-09 17:42:46.79	3.26	33.15	-28.1	-28.7	28.7	0.00e+00	0	25	0	1549795328	30	5508
2026-01-09 17:42:47.80	3.07	33.33	-28.1	-28.7	28.7	0.00e+00	0	25	0	1556086784	30	5525
2026-01-09 17:42:48.81	2.88	33.52	-28.0	-28.5	28.7	0.00e+00	0	25	0	1561329664	30	5436
2026-01-09 17:42:49.82	2.69	33.71	-27.9	-28.4	28.8	0.00e+00	0	25	0	1567621120	30	5364
2026-01-09 17:42:50.82	2.49	33.89	-27.9	-28.5	28.9	0.00e+00	0	25	0	1572864000	30	5411
2026-01-09 17:42:51.83	2.29	34.08	-27.8	-28.4	28.9	0.00e+00	0	25	0	1578106880	30	5319
2026-01-09 17:42:52.84	2.09	34.27	-27.8	-28.4	28.9	0.00e+00	0	25	0	1584398336	28	5975
2026-01-09 17:42:53.85	1.88	34.46	-27.8	-28.4	28.7	0.00e+00	0	25	0	1589641216	28	5988
2026-01-09 17:42:54.86	1.68	34.66	-27.8	-28.4	28.8	0.00e+00	0	25	0	1595932672	28	6004
2026-01-09 17:42:55.87	1.47	34.85	-27.8	-28.4	28.8	0.00e+00	0	25	0	1601175552	28	6022
2026-01-09 17:42:56.88	1.25	35.04	-28.0	-28.6	28.7	0.00e+00	0	25	0	1607467008	28	6172
2026-01-09 17:42:57.89	1.04	35.23	-28.0	-28.6	28.8	0.00e+00	0	25	0	1612709888	28	6139
2026-01-09 17:42:58.90	0.82	35.43	-28.0	-28.5	28.8	0.00e+00	0	25	0	1617952768	28	6103
2026-01-09 17:42:59.91	0.60	35.62	-27.9	-28.5	28.8	0.00e+00	0	25	0	1624244224	28	6076
2026-01-09 17:43:00.92	0.38	35.82	-28.0	-28.6	28.7	0.00e+00	0	25	0	1629487104	28	6166
2026-01-09 17:43:01.93	0.16	36.02	-28.1	-28.6	28.7	0.00e+00	0	25	0	1635778560	28	6168
2026-01-09 17:43:02.94	359.93	36.21	-28.0	-28.6	28.8	0.00e+00	0	25	0	1641021440	28	6106
2026-01-09 17:43:03.95	359.70	36.41	-28.0	-28.6	28.8	0.00e+00	0	25	0	1646264320	28	6145
2026-01-09 17:43:04.96	359.46	36.61	-27.9	-28.5	28.9	0.00e+00	0	25	0	1652555776	28	6064
2026-01-09 17:43:05.97	359.23	36.81	-27.9	-28.5	28.8	0.00e+00	0	25	0	1657798656	28	6097
2026-01-09 17:43:06.98	358.99	37.01	-28.2	-28.8	28.6	0.00e+00	0	25	0	1664090112	28	6315
2026-01-09 17:43:07.99	358.74	37.21	-28.3	-28.9	28.5	0.00e+00	0	25	0	1669332992	28	6344
2026-01-09 17:43:09.00	358.50	37.41	-28.3	-29.0	28.5	0.00e+00	0	25	0	1674575872	28	6392
2026-01-09 17:43:10.01	358.25	37.61	-28.4	-29.0	28.5	0.00e+00	0	25	0	1680867328	28	6428
2026-01-09 17:43:11.01	358.00	37.81	-28.3	-28.9	28.5	0.00e+00	0	25	0	1686110208	28	6336
2026-01-09 17:43:12.02	357.74	38.02	-28.3	-28.9	28.5	0.00e+00	0	25	0	1692401664	28	6357
2026-01-09 17:43:13.03	357.49	38.22	-28.2	-28.8	28.6	0.00e+00	0	25	0	1697644544	28	6316
2026-01-09 17:43:14.04	357.22	38.42	-28.4	-29.0	28.4	0.00e+00	0	25	0	1703936000	28	6424
2026-01-09 17:43:15.05	356.96	38.63	-28.4	-29.0	28.5	0.00e+00	0	25	0	1709178880	28	6427
2026-01-09 17:43:16.06	356.69	38.83	-28.5	-29.1	28.3	0.00e+00	0	25	0	1715470336	28	6533
2026-01-09 17:43:17.07	356.42	39.04	-28.2	-28.8	28.6	0.00e+00	0	25	0	1720713216	28	6297
2026-01-09 17:43:18.08	356.14	39.25	-28.2	-28.8	28.6	0.00e+00	0	25	0	1725956096	28	6271
2026-01-09 17:43:19.08	355.87	39.45	-28.0	-28.6	28.8	0.00e+00	0	25	0	1732247552	28	6109
2026-01-09 17:43:20.09	355.58	39.66	-27.9	-28.5	28.9	0.00e+00	0	25	0	1737490432	28	6036
2026-01-09 17:43:21.10	355.30	39.86	-27.9	-28.5	28.8	0.00e+00	0	25	0	1742733312	28	6071
2026-01-09 17:43:22.11	355.01	40.07	-28.0	-28.6	28.7	0.00e+00	0	25	0	1749024768	28	6161
2026-01-09 17:43:23.12	354.71	40.28	-28.1	-28.7	28.6	0.00e+00	0	25	0	1754267648	28	6214
2026-01-09 17:43:24.13	354.42	40.49	-28.3	-28.9	28.5	0.00e+00	0	25	0	1760559104	28	6355
2026-01-09 17:43:25.14	354.12	40.70	-28.4	-29.0	28.4	0.00e+00	0	25	0	1765801984	28	6399
2026-01-09 17:43:26.15	353.81	40.91	-28.3	-29.0	28.5	0.00e+00	0	25	0	1771044864	28	6392
2026-01-09 17:43:27.16	353.50	41.12	-28.2	-28.8	28.6	0.00e+00	0	25	0	1777336320	28	6297
2026-01-09 17:43:28.16	353.19	41.32	-28.3	-28.9	28.6	0.00e+00	0	25	0	1782579200	28	6386
2026-01-09 17:43:29.17	352.87	41.53	-28.3	-28.9	28.5	0.00e+00	0	25	0	1788870656	28	6370
2026-01-09 17:43:30.18	352.55	41.74	-28.4	-29.0	28.4	0.00e+00	0	25	0	1794113536	28	6448
2026-01-09 17:43:31.19	352.22	41.95	-28.3	-28.9	28.5	0.00e+00	0	25	0	1800404992	28	6389
2026-01-09 17:43:32.20	351.89	42.17	-28.4	-29.0	28.4	0.00e+00	0	25	0	1805647872	28	6463
2026-01-09 17:43:33.21	351.56	42.38	-28.4	-29.1	28.4	0.00e+00	0	25	0	1811939328	28	6466
2026-01-09 17:43:34.22	351.22	42.59	-28.4	-29.0	28.5	0.00e+00	0	25	0	1817182208	28	6455
2026-01-09 17:43:35.23	350.88	42.80	-27.9	-28.5	28.8	0.00e+00	0	25	0	1822425088	28	6070
2026-01-09 17:43:36.24	350.53	43.01	-27.9	-28.4	28.8	0.00e+00	0	25	0	1828716544	28	6032
2026-01-09 17:43:37.25	350.18	43.22	-28.1	-28.7	28.7	0.00e+00	0	25	0	1833959424	28	6187
2026-01-09 17:43:38.26	349.82	43.43	-28.3	-28.9	28.5	0.00e+00	0	25	0	1840250880	28	6382
2026-01-09 17:43:39.27	349.45	43.64	-28.2	-28.8	28.6	0.00e+00	0	25	0	1845493760	28	6272
2026-01-09 17:43:40.28	349.09	43.85	-28.3	-28.9	28.5	0.00e+00	0	25	0	1850736640	28	6318
2026-01-09 17:43:41.29	348.72	44.06	-28.2	-28.8	28.6	0.00e+00	0	25	0	1857028096	28	6261
2026-01-09 17:43:42.30	348.34	44.27	-28.1	-28.7	28.7	0.00e+00	0	25	0	1862270976	28	6219
2026-01-09 17:43:43.30	347.96	44.48	-28.1	-28.7	28.7	0.00e+00	0	25	0	1867513856	28	6200
2026-01-09 17:43:44.31	347.57	44.69	-28.2	-28.8	28.7	0.00e+00	0	25	0	1873805312	28	6272
2026-01-09 17:43:45.32	347.18	44.89	-28.5	-29.1	28.5	0.00e+00	0	25	0	1879048192	28	6491
2026-01-09 17:43:46.33	346.78	45.10	-28.5	-29.1	28.4	0.00e+00	0	25	0	1885339648	28	6518
2026-01-09 17:43:47.34	346.38	45.31	-28.4	-29.1	28.4	0.00e+00	0	25	0	1890582528	28	6486
2026-01-09 17:43:48.35	345.97	45.52	-28.3	-28.9	28.5	0.00e+00	0	25	0	1896873984	28	6382
2026-01-09 17:43:49.36	345.56	45.73	-28.5	-29.1	28.3	0.00e+00	0	25	0	1902116864	28	6495
2026-01-09 17:43:50.37	345.14	45.93	-28.7	-29.4	28.1	0.00e+00	0	25	0	1908408320	28	6705
2026-01-09 17:43:51.38	344.71	46.14	-28.9	-29.5	28.0	0.00e+00	0	25	0	1913651200	30	6101
2026-01-09 17:43:52.39	344.28	46.34	-28.7	-29.3	28.1	0.00e+00	0	25	0	1918894080	30	5928
2026-01-09 17:43:53.41	343.84	46.55	-28.8	-29.4	28.1	0.00e+00	0	25	0	1925185536	30	5968
2026-01-09 17:43:54.42	343.40	46.75	-28.9	-29.6	28.2	0.00e+00	0	25	0	1930428416	30	6122
2026-01-09 17:43:55.42	342.95	46.95	-28.8	-29.4	28.2	0.00e+00	0	25	0	1936719872	30	6029
2026-01-09 17:43:56.44	342.50	47.15	-28.6	-29.2	28.2	0.00e+00	0	25	0	1941962752	30	5884
2026-01-09 17:43:57.45	342.04	47.36	-29.0	-29.7	28.0	0.00e+00	0	25	0	1947205632	30	6179
2026-01-09 17:43:58.46	341.57	47.55	-29.2	-29.8	28.0	0.00e+00	0	25	0	1953497088	30	6282
2026-01-09 17:43:59.46	341.10	47.75	-29.1	-29.8	27.9	0.00e+00	0	25	0	1958739968	30	6273
2026-01-09 17:44:00.47	340.63	47.95	-29.1	-29.7	28.1	0.00e+00	0	25	0	1965031424	30	6245
2026-01-09 17:44:01.48	340.14	48.14	-29.0	-29.6	28.0	0.00e+00	0	25	0	1970274304	30	6123
2026-01-09 17:44:02.49	339.65	48.34	-28.9	-29.5	28.2	0.00e+00	0	25	0	1975517184	30	6090
2026-01-09 17:44:03.50	339.16	48.53	-28.9	-29.5	28.1	0.00e+00	0	25	0	1981808640	30	6055
2026-01-09 17:44:04.51	338.65	48.72	-29.2	-29.8	27.9	0.00e+00	0	25	0	1987051520	30	6280
2026-01-09 17:44:05.52	338.15	48.91	-29.3	-29.9	27.9	0.00e+00	0	25	0	1993342976	30	6365
2026-01-09 17:44:06.53	337.63	49.10	-29.4	-30.0	27.8	0.00e+00	0	25	0	1998585856	30	6423
2026-01-09 17:44:07.54	337.11	49.28	-29.4	-30.0	27.7	0.00e+00	0	25	0	2004877312	30	6460
2026-01-09 17:44:08.55	336.58	49.47	-29.3	-29.9	27.9	0.00e+00	0	25	0	2010120192	30	6356
2026-01-09 17:44:09.56	336.05	49.65	-29.3	-29.9	27.9	0.00e+00	0	25	0	2016411648	30	6321
2026-01-09 17:44:10.57	335.51	49.83	-29.2	-29.8	27.9	0.00e+00	0	25	0	2021654528	30	6290
2026-01-09 17:44:11.58	334.96	50.01	-29.4	-30.0	27.7	0.00e+00	0	25	0	2026897408	30	6422
2026-01-09 17:44:12.58	334.41	50.18	-29.6	-30.2	27.6	0.00e+00	0	25	0	2033188864	30	6562
2026-01-09 17:44:13.59	333.85	50.36	-29.6	-30.2	27.5	0.00e+00	0	25	0	2038431744	30	6604
2026-01-09 17:44:14.60	333.28	50.53	-29.5	-30.1	27.6	0.00e+00	0	25	0	2043674624	30	6527
2026-01-09 17:44:15.61	332.71	50.70	-29.3	-29.9	27.8	0.00e+00	0	25	0	2049966080	30	6345
2026-01-09 17:44:16.62	332.13	50.87	-29.3	-29.9	27.9	0.00e+00	0	25	0	2055208960	30	6333
2026-01-09 17:44:17.63	331.55	51.03	-29.5	-30.1	27.6	0.00e+00	0	25	0	2061500416	30	6527
2026-01-09 17:44:18.64	330.95	51.19	-29.5	-30.2	27.6	0.00e+00	0	25	0	2066743296	30	6586
2026-01-09 17:44:19.65	330.35	51.35	-29.5	-30.1	27.6	0.00e+00	0	25	0	2071986176	30	6524
2026-01-09 17:44:20.66	329.75	51.51	-29.5	-30.1	27.6	0.00e+00	0	25	0	2078277632	30	6512
2026-01-09 17:44:21.67	329.14	51.66	-29.3	-29.9	27.7	0.00e+00	0	25	0	2083520512	30	6349
2026-01-09 17:44:22.68	328.52	51.81	-29.4	-30.0	27.7	0.00e+00	0	25	0	2089811968	30	6455
2026-01-09 17:44:23.69	327.90	51.96	-29.5	-30.1	27.6	0.00e+00	0	25	0	2095054848	30	6494
2026-01-09 17:44:24.70	327.27	52.10	-29.4	-30.0	27.7	0.00e+00	0	25	0	2101346304	30	6439
2026-01-09 17:44:25.70	326.64	52.24	-29.2	-29.9	27.8	0.00e+00	0	25	0	2106589184	30	6344
2026-01-09 17:44:26.71	325.99	52.38	-29.1	-29.7	27.9	0.00e+00	0	25	0	2112880640	30	6217
2026-01-09 17:44:27.73	325.34	52.52	-28.9	-29.6	28.2	0.00e+00	0	25	0	2118123520	30	6114
2026-01-09 17:44:28.73	324.69	52.64	-29.0	-29.6	28.1	0.00e+00	0	25	0	2123366400	30	6160
2026-01-09 17:44:29.74	324.03	52.77	-29.2	-29.9	27.9	0.00e+00	0	25	0	2129657856	30	6322
2026-01-09 17:44:30.75	323.36	52.90	-29.5	-30.2	27.7	0.00e+00	0	25	0	2134900736	30	6545
2026-01-09 17:44:31.76	322.69	53.02	-29.1	-29.7	28.0	0.00e+00	0	25	0	2141192192	30	6196
2026-01-09 17:44:32.77	322.02	53.13	-28.8	-29.4	28.1	0.00e+00	0	25	0	2146435072	30	6004
2026-01-09 17:44:33.78	321.33	53.24	-28.8	-29.4	28.1	0.00e+00	0	25	0	2151677952	30	5992
2026-01-09 17:44:34.79	320.65	53.35	-28.7	-29.4	28.2	0.00e+00	0	25	0	2157969408	30	5972
2026-01-09 17:44:35.80	319.95	53.46	-28.8	-29.3	28.2	0.00e+00	0	25	0	2163212288	30	5953
2026-01-09 17:44:36.81	319.26	53.56	-28.5	-29.1	28.4	0.00e+00	0	25	0	2169503744	30	5820
2026-01-09 17:44:37.82	318.55	53.65	-28.5	-29.1	28.4	0.00e+00	0	25	0	2174746624	30	5790
2026-01-09 17:44:38.82	317.85	53.74	-28.7	-29.2	28.3	0.00e+00	0	25	0	2179989504	30	5894
2026-01-09 17:44:39.83	317.14	53.83	-28.8	-29.5	28.1	0.00e+00	0	25	0	2186280960	30	6039
2026-01-09 17:44:40.84	316.43	53.91	-29.2	-29.8	27.9	0.00e+00	0	25	0	2191523840	30	6249
2026-01-09 17:44:41.85	315.71	53.99	-29.3	-29.9	27.8	0.00e+00	0	25	0	2197815296	30	6373
2026-01-09 17:44:42.86	314.98	54.07	-29.1	-29.7	28.0	0.00e+00	0	25	0	2203058176	30	6210
2026-01-09 17:44:43.87	314.26	54.14	-28.7	-29.2	28.3	0.00e+00	0	25	0	2209349632	30	5895
2026-01-09 17:44:44.88	313.53	54.20	-28.7	-29.4	28.1	0.00e+00	0	25	0	2214592512	30	5965
2026-01-09 17:44:45.89	312.79	54.26	-29.3	-29.9	27.8	0.00e+00	0	25	0	2219835392	30	6390
2026-01-09 17:44:46.90	312.05	54.32	-29.2	-29.8	27.9	0.00e+00	0	25	0	2226126848	30	6287
2026-01-09 17:44:47.91	311.31	54.37	-29.1	-29.7	27.9	0.00e+00	0	25	0	2231369728	30	6245
2026-01-09 17:44:48.92	310.57	54.42	-29.7	-30.3	27.5	0.00e+00	0	25	0	2237661184	30	6656
2026-01-09 17:44:49.93	309.83	54.46	-29.8	-30.5	27.2	0.00e+00	0	25	0	2242904064	32	6055
2026-01-09 17:44:50.93	309.09	54.49	-29.9	-30.5	27.3	0.00e+00	0	25	0	2248146944	32	6083
2026-01-09 17:44:51.95	308.33	54.53	-29.2	-29.8	27.9	0.00e+00	0	25	0	2254438400	32	5571
2026-01-09 17:44:52.95	307.59	54.55	-29.0	-29.6	28.1	0.00e+00	0	25	0	2259681280	32	5462
2026-01-09 17:44:53.96	306.84	54.58	-29.1	-29.7	28.0	0.00e+00	0	25	0	2265972736	32	5539
2026-01-09 17:44:54.97	306.09	54.59	-29.2	-29.9	27.8	0.00e+00	0	25	0	2271215616	32	5661
2026-01-09 17:44:55.99	305.33	54.60	-28.9	-29.6	28.1	0.00e+00	0	25	0	2276458496	32	5453
2026-01-09 17:44:57.00	304.57	54.61	-28.8	-29.4	28.1	0.00e+00	0	25	0	2282749952	32	5343
2026-01-09 17:44:58.00	303.83	54.61	-29.1	-29.7	27.9	0.00e+00	0	25	0	2287992832	32	5533
2026-01-09 17:44:59.01	303.07	54.61	-28.9	-29.5	28.0	0.00e+00	0	25	0	2294284288	32	5439
2026-01-09 17:45:00.03	302.31	54.60	-28.7	-29.3	28.3	0.00e+00	0	25	0	2299527168	30	5917
2026-01-09 17:45:01.04	301.56	54.59	-29.2	-29.8	27.8	0.00e+00	0	25	0	2305818624	30	6306
2026-01-09 17:45:02.04	300.81	54.57	-29.7	-30.4	27.4	0.00e+00	0	25	0	2311061504	30	6694
2026-01-09 17:45:03.06	300.05	54.55	-29.6	-30.2	27.5	0.00e+00	0	25	0	2316304384	32	5870
2026-01-09 17:45:04.07	299.30	54.52	-29.3	-29.9	27.7	0.00e+00	0	25	0	2322595840	32	5643
2026-01-09 17:45:05.08	298.56	54.49	-29.0	-29.6	27.5	0.00e+00	0	25	0	2327838720	32	5452
2026-01-09 17:45:06.09	297.81	54.45	-29.0	-29.6	27.9	0.00e+00	0	25	0	2334130176	32	5475
2026-01-09 17:45:07.09	297.07	54.41	-29.1	-29.6	27.9	0.00e+00	0	25	0	2339373056	32	5500
2026-01-09 17:45:08.10	296.33	54.37	-29.2	-29.8	27.7	0.00e+00	0	25	0	2344615936	32	5625
2026-01-09 17:45:09.12	295.58	54.31	-29.0	-29.6	28.0	0.00e+00	0	25	0	2350907392	32	5474
2026-01-09 17:45:10.13	294.85	54.26	-29.0	-29.6	27.9	0.00e+00	0	25	0	2356150272	32	5498
2026-01-09 17:45:11.13	294.12	54.20	-28.8	-29.5	28.1	0.00e+00	0	25	0	2362441728	32	5392
2026-01-09 17:45:12.14	293.39	54.13	-28.9	-29.6	28.0	0.00e+00	0	25	0	2367684608	30	6119
2026-01-09 17:45:13.15	292.66	54.06	-29.1	-29.7	27.9	0.00e+00	0	25	0	2372927488	30	6237
2026-01-09 17:45:14.16	291.94	53.98	-29.2	-29.9	27.7	0.00e+00	0	25	0	2379218944	30	6346
2026-01-09 17:45:15.17	291.22	53.91	-29.3	-29.9	27.8	0.00e+00	0	25	0	2384461824	30	6323
2026-01-09 17:45:16.18	290.50	53.82	-29.1	-29.6	28.0	0.00e+00	0	25	0	2390753280	30	6165
2026-01-09 17:45:17.19	289.79	53.73	-28.8	-29.5	28.1	0.00e+00	0	25	0	2395996160	30	6039
2026-01-09 17:45:18.20	289.08	53.64	-28.8	-29.4	28.2	0.00e+00	0	25	0	2402287616	30	5979
2026-01-09 17:45:19.21	288.38	53.54	-28.8	-29.4	28.2	0.00e+00	0	25	0	2407530496	30	6007
2026-01-09 17:45:20.22	287.68	53.44	-28.7	-29.3	28.2	0.00e+00	0	25	0	2413821952	30	5957
2026-01-09 17:45:21.23	286.99	53.34	-28.7	-29.3	28.3	0.00e+00	0	25	0	2419064832	30	5907
2026-01-09 17:45:22.24	286.30	53.23	-28.8	-29.4	28.3	0.00e+00	0	25	0	2424307712	30	6012
2026-01-09 17:45:23.25	285.62	53.12	-28.8	-29.4	28.2	0.00e+00	0	25	0	2430599168	30	6033
2026-01-09 17:45:24.26	284.94	53.00	-28.7	-29.2	28.2	0.00e+00	0	25	0	2435842048	30	5879
2026-01-09 17:45:25.27	284.27	52.88	-28.7	-29.3	28.3	0.00e+00	0	25	0	2442133504	30	5901
2026-01-09 17:45:26.28	283.61	52.76	-28.9	-29.5	28.1	0.00e+00	0	25	0	2447376384	30	6102
2026-01-09 17:45:27.29	282.95	52.63	-28.8	-29.4	28.1	0.00e+00	0	25	0	2452619264	30	6005
2026-01-09 17:45:28.30	282.29	52.50	-28.7	-29.3	28.2	0.00e+00	0	25	0	2458910720	30	5940
2026-01-09 17:45:29.31	281.64	52.36	-28.5	-29.1	28.4	0.00e+00	0	25	0	2464153600	30	5802
2026-01-09 17:45:30.32	281.00	52.22	-28.5	-29.1	28.4	0.00e+00	0	25	0	2470445056	30	5812
2026-01-09 17:45:31.33	280.36	52.08	-28.5	-29.1	28.3	0.00e+00	0	25	0	2475687936	30	5774
2026-01-09 17:45:32.34	279.73	51.94	-28.6	-29.3	28.3	0.00e+00	0	25	0	2480930816	30	5898
2026-01-09 17:45:33.35	279.11	51.79	-28.7	-29.3	28.3	0.00e+00	0	25	0	2487222272	30	5910
2026-01-09 17:45:34.36	278.49	51.64	-28.9	-29.4	28.1	0.00e+00	0	25	0	2492465152	30	5994
2026-01-09 17:45:35.36	277.89	51.48	-28.7	-29.3	28.2	0.00e+00	0	25	0	2498756608	30	5919
2026-01-09 17:45:36.37	277.28	51.33	-28.6	-29.2	28.3	0.00e+00	0	25	0	2503999488	30	5854
2026-01-09 17:45:37.38	276.68	51.17	-28.7	-29.3	28.2	0.00e+00	0	25	0	2510290944	30	5937
2026-01-09 17:45:38.39	276.09	51.01	-28.6	-29.3	28.3	0.00e+00	0	25	0	2515533824	30	5927
2026-01-09 17:45:39.40	275.50	50.84	-28.9	-29.6	28.1	0.00e+00	0	25	0	2520776704	30	6151
2026-01-09 17:45:40.41	274.92	50.67	-28.8	-29.4	28.2	0.00e+00	0	25	0	2527068160	30	5989
2026-01-09 17:45:41.42	274.35	50.50	-28.7	-29.3	28.3	0.00e+00	0	25	0	2532311040	30	5935
2026-01-09 17:45:42.43	273.78	50.33	-28.6	-29.1	28.4	0.00e+00	0	25	0	2538602496	30	5801
2026-01-09 17:45:43.44	273.22	50.16	-28.5	-29.0	28.4	0.00e+00	0	25	0	2543845376	30	5756
2026-01-09 17:45:44.45	272.67	49.98	-28.6	-29.3	28.3	0.00e+00	0	25	0	2549088256	30	5902
2026-01-09 17:45:45.46	272.12	49.80	-28.7	-29.3	28.3	0.00e+00	0	25	0	2555379712	30	5904
2026-01-09 17:45:46.47	271.58	49.62	-28.9	-29.6	28.1	0.00e+00	0	25	0	2560622592	30	6134
2026-01-09 17:45:47.48	271.05	49.44	-29.1	-29.7	28.0	0.00e+00	0	25	0	2566914048	30	6212
2026-01-09 17:45:48.49	270.52	49.25	-29.0	-29.6	28.0	0.00e+00	0	25	0	2572156928	30	6145
2026-01-09 17:45:49.50	270.00	49.06	-28.6	-29.2	28.4	0.00e+00	0	25	0	2577399808	30	5868
2026-01-09 17:45:50.51	269.48	48.87	-28.5	-29.0	28.4	0.00e+00	0	25	0	2583691264	30	5707
2026-01-09 17:45:51.52	268.97	48.68	-28.7	-29.2	28.2	0.00e+00	0	25	0	2588934144	30	5884
2026-01-09 17:45:52.53	268.47	48.49	-28.9	-29.5	28.0	0.00e+00	0	25	0	2595225600	30	6100
2026-01-09 17:45:53.54	267.97	48.30	-28.7	-29.4	28.3	0.00e+00	0	25	0	2600468480	30	6011
2026-01-09 17:45:54.55	267.48	48.10	-28.7	-29.3	28.2	0.00e+00	0	25	0	2606759936	30	5953
2026-01-09 17:45:55.56	267.00	47.91	-28.7	-29.3	28.3	0.00e+00	0	25	0	2612002816	30	5908
2026-01-09 17:45:56.57	266.52	47.71	-28.7	-29.4	28.3	0.00e+00	0	25	0	2618294272	30	5978
2026-01-09 17:45:57.58	266.05	47.51	-28.7	-29.2	28.4	0.00e+00	0	25	0	2623537152	30	5881
2026-01-09 17:45:58.59	265.59	47.31	-28.8	-29.5	28.2	0.00e+00	0	25	0	2628780032	30	6044
2026-01-09 17:45:59.60	265.13	47.11	-28.8	-29.5	28.1	0.00e+00	0	25	0	2635071488	30	6073
2026-01-09 17:46:00.61	264.67	46.91	-28.2	-28.8	28.7	0.00e+00	0	25	0	2640314368	30	5584
2026-01-09 17:46:01.62	264.22	46.71	-28.2	-28.9	28.6	0.00e+00	0	25	0	2646605824	30	5669
2026-01-09 17:46:02.63	263.78	46.50	-28.2	-28.8	28.6	0.00e+00	0	25	0	2651848704	30	5599
2026-01-09 17:46:03.64	263.35	46.30	-28.0	-28.5	28.8	0.00e+00	0	25	0	2657091584	30	5407
2026-01-09 17:46:04.65	262.91	46.09	-27.9	-28.4	28.8	0.00e+00	0	25	0	2663383040	30	5371
2026-01-09 17:46:05.66	262.49	45.89	-27.9	-28.5	28.8	0.00e+00	0	25	0	2668625920	30	5422
2026-01-09 17:46:06.67	262.07	45.68	-28.0	-28.7	28.8	0.00e+00	0	25	0	2674917376	30	5540
2026-01-09 17:46:07.68	261.66	45.47	-28.0	-28.6	28.7	0.00e+00	0	25	0	2680160256	30	5458
2026-01-09 17:46:08.69	261.25	45.26	-28.0	-28.7	28.8	0.00e+00	0	25	0	2685403136	30	5542
2026-01-09 17:46:09.70	260.84	45.05	-28.1	-28.7	28.8	0.00e+00	0	25	0	2691694592	30	5523
2026-01-09 17:46:10.71	260.45	44.85	-28.0	-28.7	28.7	0.00e+00	0	25	0	2696937472	30	5513
2026-01-09 17:46:11.72	260.05	44.64	-27.9	-28.4	28.8	0.00e+00	0	25	0	2703228928	30	5354
2026-01-09 17:46:12.74	259.66	44.42	-27.8	-28.4	28.8	0.00e+00	0	25	0	2708471808	30	5348
2026-01-09 17:46:13.75	259.28	44.21	-27.7	-28.3	28.8	0.00e+00	0	25	0	2714763264	28	5899
2026-01-09 17:46:14.76	258.90	44.00	-27.7	-28.4	28.9	0.00e+00	0	25	0	2720006144	28	5982
2026-01-09 17:46:15.77	258.53	43.79	-27.9	-28.6	28.7	0.00e+00	0	25	0	2726297600	28	6132
2026-01-09 17:46:16.78	258.16	43.58	-28.0	-28.5	28.8	0.00e+00	0	25	0	2731540480	28	6075
2026-01-09 17:46:17.79	257.80	43.37	-27.9	-28.5	28.8	0.00e+00	0	25	0	2736783360	28	6050
2026-01-09 17:46:18.80	257.44	43.16	-27.8	-28.4	28.9	0.00e+00	0	25	0	2743074816	28	6031
2026-01-09 17:46:19.81	257.09	42.95	-27.8	-28.5	28.9	0.00e+00	0	25	0	2748317696	28	6042
2026-01-09 17:46:20.82	256.74	42.74	-27.8	-28.3	28.9	0.00e+00	0	25	0	2754609152	28	5960
2026-01-09 17:46:21.83	256.40	42.53	-27.7	-28.4	28.6	0.00e+00	0	25	0	2759852032	28	5979
2026-01-09 17:46:22.83	256.06	42.32	-28.0	-28.6	28.6	0.00e+00	0	25	0	2765094912	28	6172
2026-01-09 17:46:23.84	255.73	42.10	-27.7	-28.2	28.6	0.00e+00	0	25	0	2771386368	28	5891
2026-01-09 17:46:24.85	255.40	41.89	-27.8	-28.3	28.6	0.00e+00	0	25	0	2776629248	28	5911
2026-01-09 17:46:25.86	255.07	41.68	-27.8	-28.5	28.6	0.00e+00	0	25	0	2782920704	28	6057
2026-01-09 17:46:26.87	254.75	41.47	-27.9	-28.4	28.4	0.00e+00	0	25	0	2788163584	28	6004
2026-01-09 17:46:27.88	254.43	41.26	-28.0	-28.5	28.4	0.00e+00	0	25	0	2793406464	28	6066
2026-01-09 17:46:28.89	254.12	41.05	-27.8	-28.3	28.8	0.00e+00	0	25	0	2799697920	28	5952
2026-01-09 17:46:29.90	253.81	40.84	-27.7	-28.2	28.8	0.00e+00	0	25	0	2804940800	28	5856
2026-01-09 17:46:30.91	253.50	40.63	-27.6	-28.3	28.9	0.00e+00	0	25	0	2811232256	28	5921
2026-01-09 17:46:31.92	253.20	40.42	-27.7	-28.3	28.9	0.00e+00	0	25	0	2816475136	28	5940
2026-01-09 17:46:32.92	252.90	40.21	-27.9	-28.4	28.7	0.00e+00	0	25	0	2822766592	28	5983
2026-01-09 17:46:33.93	252.61	40.00	-27.9	-28.6	28.8	0.00e+00	0	25	0	2828009472	28	6128
2026-01-09 17:46:34.94	252.32	39.80	-28.1	-28.6	28.6	0.00e+00	0	25	0	2833252352	28	6151
2026-01-09 17:46:35.95	252.03	39.59	-28.1	-28.6	28.7	0.00e+00	0	25	0	2839543808	28	6110
2026-01-09 17:46:36.96	251.75	39.38	-27.8	-28.4	28.8	0.00e+00	0	25	0	2844786688	28	6011
2026-01-09 17:46:37.97	251.47	39.17	-27.7	-28.2	28.9	0.00e+00	0	25	0	2851078144	28	5858
2026-01-09 17:46:38.98	251.20	38.97	-27.8	-28.4	28.8	0.00e+00	0	25	0	2856321024	28	5973
2026-01-09 17:46:39.98	250.93	38.76	-27.8	-28.3	28.8	0.00e+00	0	25	0	2861563904	28	5931
2026-01-09 17:46:41.00	250.66	38.55	-27.9	-28.5	28.8	0.00e+00	0	25	0	2867855360	28	6096
2026-01-09 17:46:42.00	250.39	38.35	-27.8	-28.4	28.8	0.00e+00	0	25	0	2873098240	28	6013
2026-01-09 17:46:43.02	250.13	38.14	-27.7	-28.2	28.7	0.00e+00	0	25	0	2879389696	28	5856
2026-01-09 17:46:44.02	249.87	37.94	-27.8	-28.3	28.9	0.00e+00	0	25	0	2884632576	28	5935
2026-01-09 17:46:45.04	249.62	37.74	-27.9	-28.6	28.7	0.00e+00	0	25	0	2889875456	28	6108
2026-01-09 17:46:46.04	249.37	37.54	-28.2	-28.7	28.6	0.00e+00	0	25	0	2896166912	28	6204
2026-01-09 17:46:47.05	249.12	37.33	-28.2	-28.7	28.6	0.00e+00	0	25	0	2901409792	28	6231
2026-01-09 17:46:48.06	248.87	37.13	-28.2	-28.7	28.6	0.00e+00	0	25	0	2907701248	28	6231
2026-01-09 17:46:49.07	248.63	36.93	-28.3	-29.0	28.4	0.00e+00	0	25	0	2912944128	28	6449
2026-01-09 17:46:50.08	248.39	36.73	-28.4	-29.0	28.4	0.00e+00	0	25	0	2919235584	28	6460
2026-01-09 17:46:51.09	248.15	36.53	-28.3	-29.0	28.5	0.00e+00	0	25	0	2924478464	28	6415
2026-01-09 17:46:52.10	247.92	36.33	-28.4	-29.0	28.5	0.00e+00	0	25	0	2929721344	28	6411
2026-01-09 17:46:53.11	247.69	36.13	-28.0	-28.6	28.7	0.00e+00	0	25	0	2936012800	28	6124
2026-01-09 17:46:54.12	247.46	35.94	-27.7	-28.2	28.9	0.00e+00	0	25	0	2941255680	28	5840
2026-01-09 17:46:55.13	247.23	35.74	-27.7	-28.2	28.9	0.00e+00	0	25	0	2947547136	28	5862
2026-01-09 17:46:56.14	247.01	35.54	-27.6	-28.2	29.0	0.00e+00	0	25	0	2952790016	28	5851
2026-01-09 17:46:57.15	246.79	35.35	-27.8	-28.3	28.8	0.00e+00	0	25	0	2958032896	28	5908
2026-01-09 17:46:58.16	246.57	35.15	-27.8	-28.3	28.9	0.00e+00	0	25	0	2964324352	28	5914
2026-01-09 17:46:59.17	246.36	34.96	-27.9	-28.4	28.8	0.00e+00	0	25	0	2969567232	28	5995
2026-01-09 17:47:00.18	246.15	34.76	-27.7	-28.4	28.7	0.00e+00	0	25	0	2975858688	28	6008
2026-01-09 17:47:01.19	245.94	34.57	-27.7	-28.3	28.8	0.00e+00	0	25	0	2981101568	28	5945
2026-01-09 17:47:02.20	245.73	34.38	-27.8	-28.4	28.8	0.00e+00	0	25	0	2986344448	28	6016
2026-01-09 17:47:03.21	245.52	34.19	-27.6	-28.3	28.9	0.00e+00	0	25	0	2992635904	28	5930
2026-01-09 17:47:04.22	245.32	34.00	-27.6	-28.2	29.0	0.00e+00	0	25	0	2997878784	28	5864
2026-01-09 17:47:05.23	245.12	33.81	-27.7	-28.2	28.9	0.00e+00	0	25	0	3004170240	28	5856
2026-01-09 17:47:06.24	244.92	33.62	-27.5	-28.2	29.0	0.00e+00	0	25	0	3009413120	28	5870
2026-01-09 17:47:07.24	244.73	33.43	-27.6	-28.2	28.9	0.00e+00	0	25	0	3015704576	28	5830
2026-01-09 17:47:08.25	244.54	33.24	-27.5	-28.0	28.9	0.00e+00	0	25	0	3020947456	28	5737
2026-01-09 17:47:09.26	244.35	33.06	-27.6	-28.2	28.9	0.00e+00	0	25	0	3027238912	28	5878
2026-01-09 17:47:10.27	244.16	32.87	-27.7	-28.3	28.8	0.00e+00	0	25	0	3032481792	28	5963
2026-01-09 17:47:11.28	243.97	32.69	-27.6	-28.3	28.9	0.00e+00	0	25	0	3037724672	28	5900
2026-01-09 17:47:12.29	243.79	32.50	-27.6	-28.2	28.9	0.00e+00	0	25	0	3044016128	28	5888
2026-01-09 17:47:13.29	243.61	32.32	-27.7	-28.4	28.8	0.00e+00	0	25	0	3049259008	28	5997
2026-01-09 17:47:14.30	243.43	32.14	-27.6	-28.2	28.9	0.00e+00	0	25	0	3054501888	28	5836
2026-01-09 17:47:15.31	243.25	31.96	-27.7	-28.2	28.9	0.00e+00	0	25	0	3060793344	28	5878
2026-01-09 17:47:16.32	243.07	31.77	-27.7	-28.3	28.9	0.00e+00	0	25	0	3066036224	28	5963
2026-01-09 17:47:17.33	242.90	31.59	-28.0	-28.5	28.6	0.00e+00	0	25	0	3072327680	28	6048
2026-01-09 17:47:18.34	242.73	31.41	-27.9	-28.4	28.9	0.00e+00	0	25	0	3077570560	28	5983
2026-01-09 17:47:19.35	242.56	31.24	-27.9	-28.4	28.7	0.00e+00	0	25	0	3082813440	28	5999
2026-01-09 17:47:20.36	242.39	31.06	-28.1	-28.8	28.6	0.00e+00	0	25	0	3089104896	28	6255
2026-01-09 17:47:21.37	242.22	30.88	-28.2	-28.7	28.6	0.00e+00	0	25	0	3094347776	28	6220
2026-01-09 17:47:22.38	242.06	30.70	-28.2	-28.7	28.5	0.00e+00	0	25	0	3100639232	28	6245
2026-01-09 17:47:23.39	241.89	30.53	-28.3	-28.8	28.5	0.00e+00	0	25	0	3105882112	28	6264
2026-01-09 17:47:24.40	241.73	30.35	-28.3	-28.8	28.2	0.00e+00	0	25	0	3112173568	28	6312
2026-01-09 17:47:25.41	241.57	30.18	-28.4	-29.0	28.2	0.00e+00	0	25	0	3117416448	28	6394
2026-01-09 17:47:26.42	241.41	30.01	-28.3	-28.9	28.2	0.00e+00	0	25	0	3123707904	28	6327
2026-01-09 17:47:27.43	241.26	29.83	-28.5	-29.0	28.0	0.00e+00	0	25	0	3128950784	28	6460
2026-01-09 17:47:28.44	241.10	29.66	-28.4	-28.9	28.2	0.00e+00	0	25	0	3134193664	28	6367
2026-01-09 17:47:29.45	240.95	29.49	-28.5	-29.0	28.2	0.00e+00	0	25	0	3140485120	28	6419
2026-01-09 17:47:30.46	240.80	29.32	-28.3	-28.8	28.3	0.00e+00	0	25	0	3145728000	28	6302
2026-01-09 17:47:31.46	240.65	29.15	-28.1	-28.6	28.5	0.00e+00	0	25	0	3152019456	28	6139
2026-01-09 17:47:32.47	240.51	28.99	-28.1	-28.6	28.3	0.00e+00	0	25	0	3157262336	28	6146
2026-01-09 17:47:33.48	240.36	28.82	-28.1	-28.6	28.4	0.00e+00	0	25	0	3162505216	28	6132
2026-01-09 17:47:34.49	240.21	28.65	-28.1	-28.6	28.4	0.00e+00	0	25	0	3168796672	28	6166
2026-01-09 17:47:35.50	240.07	28.48	-28.2	-28.9	28.3	0.00e+00	0	25	0	3174039552	28	6361
2026-01-09 17:47:36.51	239.93	28.32	-28.4	-29.0	28.2	0.00e+00	0	25	0	3180331008	28	6462
2026-01-09 17:47:37.52	239.79	28.16	-28.5	-29.0	28.1	0.00e+00	0	25	0	3185573888	28	6451
2026-01-09 17:47:38.53	239.65	27.99	-28.5	-29.1	28.0	0.00e+00	0	25	0	3190816768	28	6472
2026-01-09 17:47:39.54	239.51	27.83	-28.8	-29.3	27.9	0.00e+00	0	25	0	3197108224	28	6655
2026-01-09 17:47:40.55	239.38	27.67	-28.7	-29.4	27.9	0.00e+00	0	25	0	3202351104	30	5966
2026-01-09 17:47:41.56	239.24	27.50	-28.7	-29.4	27.9	0.00e+00	0	25	0	3208642560	30	5985
2026-01-09 17:47:42.57	239.11	27.34	-28.6	-29.3	28.1	0.00e+00	0	25	0	3213885440	30	5900
2026-01-09 17:47:43.58	238.98	27.18	-28.7	-29.2	28.0	0.00e+00	0	25	0	3220176896	30	5869
2026-01-09 17:47:44.59	238.85	27.03	-28.6	-29.1	28.1	0.00e+00	0	25	0	3225419776	30	5792
2026-01-09 17:47:45.60	238.72	26.87	-28.5	-29.0	28.2	0.00e+00	0	25	0	3230662656	30	5711
2026-01-09 17:47:46.61	238.59	26.71	-28.4	-29.0	28.2	0.00e+00	0	25	0	3236954112	30	5701
2026-01-09 17:47:47.62	238.47	26.55	-28.6	-29.1	28.1	0.00e+00	0	25	0	3242196992	30	5802
2026-01-09 17:47:48.63	238.34	26.40	-28.4	-28.9	28.2	0.00e+00	0	25	0	3248488448	30	5654
2026-01-09 17:47:49.64	238.22	26.24	-28.4	-29.1	28.1	0.00e+00	0	25	0	3253731328	30	5795
2026-01-09 17:47:50.65	238.09	26.09	-28.4	-29.0	28.2	0.00e+00	0	25	0	3258974208	30	5759
2026-01-09 17:47:51.65	237.97	25.93	-28.5	-29.0	28.0	0.00e+00	0	25	0	3265265664	30	5742
2026-01-09 17:47:52.66	237.85	25.78	-28.4	-28.9	28.2	0.00e+00	0	25	0	3270508544	30	5649
2026-01-09 17:47:53.67	237.73	25.63	-28.5	-29.0	28.1	0.00e+00	0	25	0	3276800000	30	5715
2026-01-09 17:47:54.68	237.62	25.48	-28.5	-29.1	28.0	0.00e+00	0	25	0	3282042880	30	5775
2026-01-09 17:47:55.69	237.50	25.33	-28.6	-29.1	28.1	0.00e+00	0	25	0	3287285760	30	5789
2026-01-09 17:47:56.70	237.38	25.18	-28.8	-29.3	27.9	0.00e+00	0	25	0	3293577216	30	5920
2026-01-09 17:47:57.71	237.27	25.03	-28.7	-29.3	27.9	0.00e+00	0	25	0	3298820096	30	5904
2026-01-09 17:47:58.72	237.15	24.88	-28.8	-29.3	27.8	0.00e+00	0	25	0	3305111552	30	5955
2026-01-09 17:47:59.73	237.04	24.73	-28.8	-29.4	27.8	0.00e+00	0	25	0	3310354432	30	5987
2026-01-09 17:48:00.74	236.93	24.58	-28.8	-29.3	27.7	0.00e+00	0	25	0	3316645888	30	5957
2026-01-09 17:48:01.75	236.82	24.44	-28.7	-29.3	27.9	0.00e+00	0	25	0	3321888768	30	5914
2026-01-09 17:48:02.76	236.71	24.29	-28.8	-29.4	27.7	0.00e+00	0	25	0	3327131648	30	5968
2026-01-09 17:48:03.77	236.60	24.14	-28.8	-29.5	27.8	0.00e+00	0	25	0	3333423104	30	6048
2026-01-09 17:48:04.78	236.50	24.00	-28.7	-29.4	27.8	0.00e+00	0	25	0	3338665984	30	5977
2026-01-09 17:48:05.79	236.39	23.86	-28.7	-29.4	27.9	0.00e+00	0	25	0	3344957440	30	5988
2026-01-09 17:48:06.80	236.29	23.71	-28.8	-29.3	27.9	0.00e+00	0	25	0	3350200320	30	5940
2026-01-09 17:48:07.81	236.18	23.57	-28.7	-29.2	28.0	0.00e+00	0	25	0	3356491776	30	5844
2026-01-09 17:48:08.82	236.08	23.43	-28.9	-29.4	27.8	0.00e+00	0	25	0	3361734656	30	6007
2026-01-09 17:48:09.83	235.98	23.29	-28.7	-29.2	28.0	0.00e+00	0	25	0	3366977536	30	5871
2026-01-09 17:48:10.84	235.87	23.15	-28.9	-29.4	27.8	0.00e+00	0	25	0	3373268992	30	5985
2026-01-09 17:48:11.85	235.77	23.01	-28.8	-29.3	27.8	0.00e+00	0	25	0	3378511872	30	5943
2026-01-09 17:48:12.86	235.67	22.87	-29.0	-29.5	27.7	0.00e+00	0	25	0	3384803328	30	6086
2026-01-09 17:48:13.87	235.58	22.73	-28.9	-29.4	27.8	0.00e+00	0	25	0	3390046208	30	6021
2026-01-09 17:48:14.88	235.48	22.59	-29.0	-29.5	27.6	0.00e+00	0	25	0	3395289088	30	6062
2026-01-09 17:48:15.89	235.38	22.45	-29.0	-29.5	27.6	0.00e+00	0	25	0	3401580544	30	6101
2026-01-09 17:48:16.90	235.29	22.32	-29.0	-29.6	27.7	0.00e+00	0	25	0	3406823424	30	6127
2026-01-09 17:48:17.91	235.19	22.18	-29.2	-29.8	27.6	0.00e+00	0	25	0	3413114880	30	6313
2026-01-09 17:48:18.92	235.10	22.05	-29.0	-29.7	27.7	0.00e+00	0	25	0	3418357760	30	6197
2026-01-09 17:48:19.93	235.00	21.91	-29.1	-29.8	27.6	0.00e+00	0	25	0	3423600640	30	6255
2026-01-09 17:48:20.94	234.91	21.78	-29.5	-30.2	27.3	0.00e+00	0	25	0	3429892096	30	6560
2026-01-09 17:48:21.95	234.82	21.64	-29.6	-30.3	27.3	0.00e+00	0	25	0	3435134976	30	6654
2026-01-09 17:48:22.96	234.73	21.51	-29.5	-30.2	27.3	0.00e+00	0	25	0	3441426432	30	6559
2026-01-09 17:48:23.97	234.64	21.38	-29.1	-29.8	27.6	0.00e+00	0	25	0	3446669312	30	6289
2026-01-09 17:48:24.98	234.55	21.25	-29.1	-29.8	27.6	0.00e+00	0	25	0	3452960768	30	6306
2026-01-09 17:48:25.99	234.46	21.12	-29.2	-29.9	27.5	0.00e+00	0	25	0	3458203648	30	6358
2026-01-09 17:48:27.00	234.37	20.99	-29.2	-29.8	27.5	0.00e+00	0	25	0	3463446528	30	6314
2026-01-09 17:48:28.01	234.28	20.86	-29.3	-29.9	27.4	0.00e+00	0	25	0	3469737984	30	6324
2026-01-09 17:48:29.02	234.20	20.73	-29.2	-29.8	27.5	0.00e+00	0	25	0	3474980864	30	6311
2026-01-09 17:48:30.03	234.11	20.60	-29.2	-29.8	27.4	0.00e+00	0	25	0	3481272320	30	6270
2026-01-09 17:48:31.04	234.03	20.47	-29.3	-29.9	27.4	0.00e+00	0	25	0	3486515200	30	6340
2026-01-09 17:48:32.05	233.94	20.34	-29.5	-30.1	27.2	0.00e+00	0	25	0	3491758080	30	6539
2026-01-09 17:48:33.06	233.86	20.22	-29.5	-30.2	27.3	0.00e+00	0	25	0	3498049536	30	6599
2026-01-09 17:48:34.07	233.78	20.09	-29.5	-30.2	27.3	0.00e+00	0	25	0	3503292416	30	6587
2026-01-09 17:48:35.08	233.70	19.96	-29.7	-30.4	27.2	0.00e+00	0	25	0	3509583872	30	6717
2026-01-09 17:48:36.09	233.62	19.84	-29.4	-30.1	27.4	0.00e+00	0	25	0	3514826752	30	6478
2026-01-09 17:48:37.10	233.53	19.71	-29.4	-30.1	27.4	0.00e+00	0	25	0	3520069632	30	6488
2026-01-09 17:48:38.11	233.45	19.59	-29.5	-30.0	27.4	0.00e+00	0	25	0	3526361088	30	6430
2026-01-09 17:48:39.12	233.38	19.47	-29.5	-30.1	27.3	0.00e+00	0	25	0	3531603968	30	6471
2026-01-09 17:48:40.13	233.30	19.34	-29.6	-30.1	27.3	0.00e+00	0	25	0	3537895424	30	6524
2026-01-09 17:48:41.14	233.22	19.22	-29.6	-30.2	27.3	0.00e+00	0	25	0	3543138304	30	6552
2026-01-09 17:48:42.15	233.14	19.10	-29.6	-30.2	27.2	0.00e+00	0	25	0	3549429760	30	6548
2026-01-09 17:48:43.16	233.07	18.98	-29.7	-30.2	27.1	0.00e+00	0	25	0	3554672640	32	5875
2026-01-09 17:48:44.16	232.99	18.86	-29.7	-30.2	27.1	0.00e+00	0	25	0	3560964096	32	5885
2026-01-09 17:48:45.17	232.91	18.74	-29.7	-30.3	27.1	0.00e+00	0	25	0	3566206976	32	5919
2026-01-09 17:48:46.18	232.84	18.62	-29.8	-30.4	27.1	0.00e+00	0	25	0	3571449856	32	5967
2026-01-09 17:48:47.19	232.77	18.50	-29.8	-30.4	27.0	0.00e+00	0	25	0	3577741312	32	5981
2026-01-09 17:48:48.20	232.69	18.38	-29.9	-30.5	27.0	0.00e+00	0	25	0	3582984192	32	6056
2026-01-09 17:48:49.21	232.62	18.26	-29.9	-30.5	27.0	0.00e+00	0	25	0	3589275648	32	6041
2026-01-09 17:48:50.22	232.55	18.14	-30.0	-30.5	26.9	0.00e+00	0	25	0	3594518528	32	6088
2026-01-09 17:48:51.23	232.48	18.03	-30.0	-30.6	26.8	0.00e+00	0	25	0	3599761408	32	6130
2026-01-09 17:48:52.24	232.40	17.91	-30.0	-30.6	26.9	0.00e+00	0	25	0	3606052864	32	6117
2026-01-09 17:48:53.25	232.33	17.79	-30.0	-30.5	26.9	0.00e+00	0	25	0	3611295744	32	6086
2026-01-09 17:48:54.26	232.26	17.68	-29.9	-30.5	26.9	0.00e+00	0	25	0	3617587200	32	6060
2026-01-09 17:48:55.27	232.19	17.56	-30.0	-30.6	26.8	0.00e+00	0	25	0	3622830080	32	6141
