passes_logs/2026/01/09/R4.6S_Anadyr/R4.6S_Anadyr__20260109_195542_SUOMI_NPP_rec.log

#Pass ID: 20260109_195542_SUOMI NPP
#Satellite: SUOMI NPP
#Configuration: NPP
#almurnet v.1.7.20251203
#Start time: 2026-01-09 19:55:44

#Version: 2.2.20231116
#Station: R4.6S_Anadyr
#Location: 177.4865 lon 64.73178 lat
#TLE: 1 37849U 11061A   26008.05542337  .00000108  00000+0  71976-4 0  9997
#TLE: 2 37849  98.7805 310.1641 0002540  75.6410 284.5048 14.19523335735721

#Time	Az	El	Level	Level2	SNR	BER	BlckErr	Temp	State	Recorded	gain1	gain2
2026-01-09 19:55:44.24	59.79	0.07	-47.7	-62.5	3.5	1.51e+00	0	22	0	0	60	48343
2026-01-09 19:55:45.25	59.71	0.12	-48.0	-63.3	3.6	1.51e+00	0	23	104	0	60	52587
2026-01-09 19:55:46.26	59.63	0.17	-47.8	-63.1	3.6	1.51e+00	0	24	104	0	60	51866
2026-01-09 19:55:47.27	59.56	0.22	-47.7	-63.0	3.6	1.51e+00	0	24	104	0	60	51203
2026-01-09 19:55:48.28	59.48	0.27	-47.8	-63.0	3.6	1.51e+00	0	24	104	0	60	51004
2026-01-09 19:55:49.29	59.40	0.31	-47.8	-63.0	3.6	1.51e+00	0	24	104	0	60	51054
2026-01-09 19:55:50.29	59.33	0.36	-47.9	-63.1	3.6	1.51e+00	0	24	104	0	60	51358
2026-01-09 19:55:51.30	59.25	0.41	-47.9	-63.0	3.6	1.51e+00	0	24	104	0	60	51243
2026-01-09 19:55:52.31	59.17	0.46	-47.8	-63.0	3.6	1.51e+00	0	24	104	0	60	51348
2026-01-09 19:55:53.32	59.09	0.51	-47.8	-63.0	3.6	1.51e+00	0	24	104	0	60	51149
2026-01-09 19:55:54.33	59.02	0.56	-47.8	-63.0	3.6	1.51e+00	0	24	104	0	60	51113
2026-01-09 19:55:55.34	58.94	0.61	-47.7	-63.0	3.6	1.51e+00	0	24	104	0	60	50913
2026-01-09 19:55:56.35	58.86	0.66	-47.2	-63.0	3.6	1.51e+00	0	24	104	0	60	50932
2026-01-09 19:55:57.36	58.78	0.71	-47.7	-62.9	3.6	1.51e+00	0	24	104	0	60	50323
2026-01-09 19:55:58.37	58.70	0.76	-47.5	-62.7	3.6	1.51e+00	0	24	104	0	60	49422
2026-01-09 19:55:59.38	58.62	0.81	-47.4	-62.5	3.6	1.51e+00	0	24	104	0	60	48307
2026-01-09 19:56:00.39	58.54	0.86	-47.1	-62.3	3.6	1.51e+00	0	24	104	0	60	46868
2026-01-09 19:56:01.40	58.46	0.91	-46.4	-61.6	3.6	1.51e+00	0	24	104	0	60	43622
2026-01-09 19:56:02.41	58.38	0.96	-46.2	-61.3	3.6	1.51e+00	0	24	104	0	60	42037
2026-01-09 19:56:03.42	58.30	1.01	-46.2	-61.3	3.5	1.51e+00	0	24	104	0	60	41926
2026-01-09 19:56:04.43	58.22	1.06	-46.2	-61.3	3.6	1.51e+00	0	24	104	0	60	42214
2026-01-09 19:56:05.43	58.14	1.11	-46.2	-61.3	3.6	1.51e+00	0	24	104	0	60	42151
2026-01-09 19:56:06.44	58.06	1.16	-46.1	-61.3	3.6	1.51e+00	0	24	104	0	60	42071
2026-01-09 19:56:07.45	57.97	1.21	-46.1	-61.3	3.6	1.51e+00	0	24	104	0	60	41988
2026-01-09 19:56:08.46	57.89	1.26	-46.1	-61.3	3.6	1.51e+00	0	24	104	0	60	42100
2026-01-09 19:56:09.47	57.81	1.31	-46.1	-61.3	3.6	1.51e+00	0	24	104	0	60	41846
2026-01-09 19:56:10.48	57.73	1.35	-46.1	-61.3	3.6	1.51e+00	0	24	104	0	60	42136
2026-01-09 19:56:11.50	57.64	1.41	-46.1	-61.3	3.6	1.51e+00	0	24	104	0	60	41956
2026-01-09 19:56:12.51	57.56	1.46	-46.1	-61.3	3.6	1.51e+00	0	24	104	0	60	42121
2026-01-09 19:56:13.52	57.48	1.51	-46.1	-61.3	3.6	1.51e+00	0	24	104	0	60	41787
2026-01-09 19:56:14.52	57.39	1.55	-46.1	-61.3	3.6	1.51e+00	0	24	104	0	60	41753
2026-01-09 19:56:15.53	57.31	1.60	-46.1	-61.3	3.6	1.51e+00	0	24	104	0	60	41896
2026-01-09 19:56:16.54	57.22	1.65	-46.2	-61.3	3.6	1.51e+00	0	24	104	0	60	42042
2026-01-09 19:56:17.55	57.14	1.70	-46.1	-61.3	3.6	1.51e+00	0	24	104	0	60	42034
2026-01-09 19:56:18.56	57.05	1.76	-46.1	-61.3	3.6	1.51e+00	0	24	104	0	60	42209
2026-01-09 19:56:19.57	56.97	1.81	-46.1	-61.3	3.6	1.51e+00	0	24	104	0	60	41894
2026-01-09 19:56:20.59	56.88	1.86	-46.1	-61.3	3.6	1.51e+00	0	24	104	0	60	41902
2026-01-09 19:56:21.60	56.80	1.91	-46.2	-61.3	3.6	1.51e+00	0	24	104	0	60	42005
2026-01-09 19:56:22.61	56.71	1.96	-46.2	-61.3	3.6	1.51e+00	0	24	104	0	60	41759
2026-01-09 19:56:23.62	56.62	2.01	-46.2	-61.3	3.6	1.51e+00	0	24	104	0	60	42173
2026-01-09 19:56:24.63	56.54	2.06	-46.2	-61.2	3.6	1.51e+00	0	24	104	0	60	41567
2026-01-09 19:56:25.64	56.45	2.11	-46.2	-61.1	3.6	1.51e+00	0	24	104	0	60	41021
2026-01-09 19:56:26.65	56.36	2.16	-46.1	-61.0	3.6	1.51e+00	0	24	104	0	60	40572
2026-01-09 19:56:27.65	56.28	2.21	-46.1	-61.0	3.6	1.51e+00	0	24	104	0	60	40602
2026-01-09 19:56:28.66	56.19	2.26	-46.1	-61.2	3.6	1.51e+00	0	24	104	0	60	41486
2026-01-09 19:56:29.68	56.10	2.31	-46.1	-61.3	3.6	1.51e+00	0	24	104	0	60	41843
2026-01-09 19:56:30.68	56.01	2.36	-46.1	-61.2	3.6	1.51e+00	0	24	104	0	60	41684
2026-01-09 19:56:31.69	55.92	2.41	-46.1	-61.2	3.6	1.51e+00	0	25	104	0	60	41678
2026-01-09 19:56:32.70	55.83	2.46	-46.1	-61.2	3.6	1.51e+00	0	24	104	0	60	41482
2026-01-09 19:56:33.71	55.74	2.51	-46.1	-61.3	3.6	1.51e+00	0	24	104	0	60	42010
2026-01-09 19:56:34.72	55.65	2.56	-46.1	-61.2	3.6	1.51e+00	0	24	104	0	60	41508
2026-01-09 19:56:35.73	55.56	2.61	-46.1	-60.7	3.6	1.51e+00	0	24	104	0	60	38991
2026-01-09 19:56:36.74	55.47	2.66	-46.1	-60.2	3.6	1.51e+00	0	24	104	0	60	37177
2026-01-09 19:56:37.75	55.38	2.71	-46.1	-60.4	3.6	1.51e+00	0	24	104	0	60	37956
2026-01-09 19:56:38.76	55.29	2.76	-46.1	-61.0	3.6	1.51e+00	0	24	104	0	60	40625
2026-01-09 19:56:39.77	55.20	2.81	-46.1	-59.7	3.6	1.51e+00	0	24	104	0	60	34724
2026-01-09 19:56:40.78	55.10	2.86	-45.7	-55.5	4.2	1.50e+00	0	24	104	0	60	21634
2026-01-09 19:56:41.79	55.01	2.92	-45.3	-52.1	7.9	2.72e-01	0	24	0	0	60	14628
2026-01-09 19:56:42.80	54.92	2.97	-44.6	-49.7	10.3	1.27e-02	0	24	0	2097152	60	11072
2026-01-09 19:56:43.81	54.83	3.02	-43.8	-47.7	12.5	1.02e-03	0	24	0	4194304	60	8782
2026-01-09 19:56:44.82	54.73	3.07	-45.9	-54.8	4.7	4.42e-05	0	25	0	5242880	60	19882
2026-01-09 19:56:45.83	54.64	3.12	-46.1	-56.4	3.7	6.44e-01	51	25	0	7340032	60	23780
2026-01-09 19:56:46.84	54.55	3.17	-43.9	-48.2	11.4	1.97e-01	0	25	104	7340032	60	9317
2026-01-09 19:56:47.84	54.45	3.22	-41.8	-44.0	16.2	3.19e-03	0	25	0	8388608	56	7230
2026-01-09 19:56:48.85	54.36	3.27	-46.0	-60.3	3.6	6.00e-01	0	25	104	10485760	60	37229
2026-01-09 19:56:49.86	54.26	3.32	-42.3	-45.0	6.0	1.47e+00	0	25	104	10485760	60	6417
2026-01-09 19:56:50.87	54.17	3.37	-41.1	-43.1	17.2	0.00e+00	0	25	0	10485760	56	6534
2026-01-09 19:56:51.88	54.07	3.42	-41.4	-43.5	16.9	0.00e+00	0	25	0	12582912	56	6810
2026-01-09 19:56:52.89	53.98	3.47	-41.7	-43.9	16.4	0.00e+00	0	25	0	13631488	56	7154
2026-01-09 19:56:53.90	53.88	3.53	-41.7	-44.0	16.4	0.00e+00	0	25	0	15728640	56	7252
2026-01-09 19:56:54.91	53.78	3.58	-41.4	-43.5	16.7	0.00e+00	0	25	0	17825792	56	6842
2026-01-09 19:56:55.92	53.69	3.63	-41.3	-43.4	17.1	0.00e+00	0	25	0	19922944	56	6738
2026-01-09 19:56:56.93	53.59	3.68	-41.2	-43.3	17.0	0.00e+00	0	24	0	22020096	56	6629
2026-01-09 19:56:57.93	53.49	3.73	-41.2	-43.2	17.1	0.00e+00	0	24	0	24117248	56	6576
2026-01-09 19:56:58.94	53.39	3.78	-41.0	-42.9	17.6	0.00e+00	0	24	0	25165824	56	6365
2026-01-09 19:56:59.95	53.30	3.83	-40.9	-42.9	17.4	0.00e+00	0	25	0	27262976	56	6326
2026-01-09 19:57:00.96	53.20	3.88	-41.0	-42.9	17.5	0.00e+00	0	25	0	29360128	56	6364
2026-01-09 19:57:01.97	53.10	3.93	-41.0	-42.9	17.7	0.00e+00	0	24	0	31457280	56	6367
2026-01-09 19:57:02.98	53.00	3.98	-40.9	-42.8	17.7	0.00e+00	0	24	0	33554432	56	6266
2026-01-09 19:57:03.99	52.90	4.04	-41.0	-43.0	17.5	0.00e+00	0	24	0	34603008	56	6418
2026-01-09 19:57:05.00	52.80	4.09	-41.0	-42.9	17.7	0.00e+00	0	25	0	36700160	56	6351
2026-01-09 19:57:06.01	52.70	4.14	-40.4	-42.2	18.3	0.00e+00	0	25	0	38797312	54	6549
2026-01-09 19:57:07.02	52.60	4.19	-40.4	-42.1	18.2	0.00e+00	0	25	0	40894464	54	6510
2026-01-09 19:57:08.02	52.50	4.24	-40.5	-42.3	18.1	0.00e+00	0	25	0	42991616	54	6669
2026-01-09 19:57:09.03	52.39	4.29	-40.7	-42.5	17.9	0.00e+00	0	25	0	44040192	54	6841
2026-01-09 19:57:10.04	52.29	4.34	-41.0	-43.0	17.6	0.00e+00	0	25	0	46137344	54	7180
2026-01-09 19:57:11.05	52.19	4.39	-41.0	-42.9	17.7	0.00e+00	0	25	0	48234496	54	7120
2026-01-09 19:57:12.06	52.09	4.44	-40.8	-42.6	17.9	0.00e+00	0	25	0	50331648	54	6881
2026-01-09 19:57:13.07	51.98	4.50	-40.8	-42.6	17.8	0.00e+00	0	24	0	52428800	54	6886
2026-01-09 19:57:14.08	51.88	4.55	-40.7	-42.5	17.9	0.00e+00	0	25	0	53477376	54	6800
2026-01-09 19:57:15.09	51.78	4.60	-40.5	-42.2	18.3	0.00e+00	0	25	0	55574528	54	6603
2026-01-09 19:57:16.10	51.67	4.65	-40.5	-42.2	18.2	0.00e+00	0	25	0	57671680	54	6599
2026-01-09 19:57:17.11	51.57	4.70	-40.7	-42.5	18.0	0.00e+00	0	25	0	59768832	54	6796
2026-01-09 19:57:18.12	51.46	4.75	-40.7	-42.5	18.1	0.00e+00	0	25	0	61865984	54	6819
2026-01-09 19:57:19.13	51.36	4.80	-40.5	-42.3	18.3	0.00e+00	0	25	0	62914560	54	6656
2026-01-09 19:57:20.13	51.25	4.85	-40.4	-42.1	18.4	0.00e+00	0	25	0	65011712	54	6536
2026-01-09 19:57:21.14	51.15	4.91	-40.6	-42.3	18.3	0.00e+00	0	25	0	67108864	54	6675
2026-01-09 19:57:22.15	51.04	4.96	-40.7	-42.4	18.0	0.00e+00	0	25	0	69206016	54	6765
2026-01-09 19:57:23.16	50.93	5.01	-40.6	-42.4	18.1	0.00e+00	0	25	0	71303168	54	6759
2026-01-09 19:57:24.17	50.83	5.06	-40.5	-42.2	18.3	0.00e+00	0	25	0	72351744	54	6609
2026-01-09 19:57:25.18	50.72	5.11	-40.4	-42.1	18.5	0.00e+00	0	25	0	74448896	54	6536
2026-01-09 19:57:26.19	50.61	5.16	-40.5	-42.2	18.5	0.00e+00	0	25	0	76546048	54	6570
2026-01-09 19:57:27.20	50.50	5.21	-40.4	-42.1	18.4	0.00e+00	0	25	0	78643200	54	6539
2026-01-09 19:57:28.21	50.39	5.26	-40.6	-42.4	18.3	0.00e+00	0	25	0	80740352	54	6747
2026-01-09 19:57:29.22	50.28	5.32	-40.8	-42.6	18.1	0.00e+00	0	25	0	81788928	54	6880
2026-01-09 19:57:30.23	50.17	5.37	-40.6	-42.4	18.0	0.00e+00	0	25	0	83886080	54	6695
2026-01-09 19:57:31.24	50.06	5.42	-40.5	-42.2	18.4	0.00e+00	0	25	0	85983232	54	6604
2026-01-09 19:57:32.25	49.95	5.47	-40.5	-42.2	18.4	0.00e+00	0	25	0	88080384	54	6597
2026-01-09 19:57:33.26	49.84	5.52	-40.5	-42.3	18.4	0.00e+00	0	25	0	90177536	54	6636
2026-01-09 19:57:34.27	49.73	5.57	-40.3	-41.9	18.7	0.00e+00	0	25	0	92274688	54	6367
2026-01-09 19:57:35.27	49.62	5.62	-40.2	-41.8	18.9	0.00e+00	0	25	0	93323264	54	6287
2026-01-09 19:57:36.28	49.51	5.68	-40.2	-41.7	18.9	0.00e+00	0	25	0	95420416	54	6245
2026-01-09 19:57:37.29	49.39	5.73	-40.0	-41.6	19.2	0.00e+00	0	25	0	97517568	54	6110
2026-01-09 19:57:38.30	49.28	5.78	-39.9	-41.4	19.2	0.00e+00	0	25	0	99614720	52	6737
2026-01-09 19:57:39.31	49.17	5.83	-39.8	-41.3	19.5	0.00e+00	0	25	0	101711872	52	6642
2026-01-09 19:57:40.32	49.05	5.88	-39.7	-41.1	19.5	0.00e+00	0	25	0	102760448	52	6514
2026-01-09 19:57:41.33	48.94	5.93	-39.9	-41.5	19.3	0.00e+00	0	25	0	104857600	52	6770
2026-01-09 19:57:42.34	48.83	5.98	-39.9	-41.4	19.4	0.00e+00	0	25	0	106954752	52	6723
2026-01-09 19:57:43.35	48.71	6.03	-39.7	-41.2	19.5	0.00e+00	0	25	0	109051904	52	6579
2026-01-09 19:57:44.36	48.60	6.09	-39.7	-41.2	19.6	0.00e+00	0	25	0	111149056	52	6553
2026-01-09 19:57:45.36	48.48	6.14	-39.6	-41.0	19.8	0.00e+00	0	25	0	112197632	52	6407
2026-01-09 19:57:46.37	48.36	6.19	-39.8	-41.3	19.6	0.00e+00	0	25	0	114294784	52	6638
2026-01-09 19:57:47.38	48.25	6.24	-39.5	-40.9	19.9	0.00e+00	0	25	0	116391936	52	6325
2026-01-09 19:57:48.39	48.13	6.29	-39.2	-40.5	20.1	0.00e+00	0	25	0	118489088	52	6083
2026-01-09 19:57:49.40	48.01	6.34	-39.4	-40.8	19.9	0.00e+00	0	25	0	120586240	52	6257
2026-01-09 19:57:50.41	47.90	6.39	-39.2	-40.5	20.1	0.00e+00	0	25	0	121634816	52	6099
2026-01-09 19:57:51.42	47.78	6.44	-39.2	-40.6	20.1	0.00e+00	0	25	0	123731968	52	6119
2026-01-09 19:57:52.43	47.66	6.50	-39.1	-40.4	20.2	0.00e+00	0	25	0	125829120	52	5983
2026-01-09 19:57:53.44	47.54	6.55	-39.2	-40.5	20.2	0.00e+00	0	25	0	127926272	52	6073
2026-01-09 19:57:54.45	47.42	6.60	-39.1	-40.5	20.2	0.00e+00	0	25	0	130023424	52	6060
2026-01-09 19:57:55.46	47.30	6.65	-39.1	-40.4	20.1	0.00e+00	0	25	0	131072000	52	5996
2026-01-09 19:57:56.47	47.18	6.70	-39.1	-40.5	20.2	0.00e+00	0	25	0	133169152	52	6038
2026-01-09 19:57:57.48	47.06	6.75	-39.2	-40.6	19.7	0.00e+00	0	25	0	135266304	52	6133
2026-01-09 19:57:58.49	46.94	6.80	-39.2	-40.5	20.0	0.00e+00	0	25	0	137363456	52	6101
2026-01-09 19:57:59.50	46.82	6.85	-39.2	-40.6	20.1	0.00e+00	0	25	0	139460608	52	6114
2026-01-09 19:58:00.50	46.69	6.90	-39.3	-40.6	20.1	0.00e+00	0	25	0	140509184	52	6172
2026-01-09 19:58:01.51	46.57	6.96	-39.2	-40.6	20.1	0.00e+00	0	25	0	142606336	52	6116
2026-01-09 19:58:02.52	46.45	7.01	-39.2	-40.6	20.2	0.00e+00	0	25	0	144703488	52	6124
2026-01-09 19:58:03.53	46.32	7.06	-39.4	-40.7	19.9	0.00e+00	0	25	0	146800640	52	6236
2026-01-09 19:58:04.54	46.20	7.11	-39.5	-40.9	19.9	0.00e+00	0	25	0	148897792	52	6319
2026-01-09 19:58:05.55	46.08	7.16	-39.5	-40.9	19.8	0.00e+00	0	25	0	149946368	52	6328
2026-01-09 19:58:06.56	45.95	7.21	-39.7	-41.2	19.7	0.00e+00	0	25	0	152043520	52	6576
2026-01-09 19:58:07.57	45.83	7.26	-39.5	-40.9	19.7	0.00e+00	0	25	0	154140672	52	6341
2026-01-09 19:58:08.58	45.70	7.31	-39.6	-41.1	19.8	0.00e+00	0	25	0	156237824	52	6476
2026-01-09 19:58:09.58	45.58	7.36	-39.6	-41.0	19.7	0.00e+00	0	25	0	158334976	52	6452
2026-01-09 19:58:10.60	45.45	7.41	-39.7	-41.1	19.6	0.00e+00	0	25	0	159383552	52	6495
2026-01-09 19:58:11.61	45.32	7.46	-39.9	-41.4	19.4	0.00e+00	0	25	0	161480704	52	6704
2026-01-09 19:58:12.62	45.19	7.52	-39.7	-41.1	19.7	0.00e+00	0	25	0	163577856	52	6511
2026-01-09 19:58:13.63	45.06	7.57	-39.6	-41.0	19.8	0.00e+00	0	25	0	165675008	52	6426
2026-01-09 19:58:14.63	44.94	7.62	-39.7	-41.2	19.7	0.00e+00	0	25	0	167772160	52	6561
2026-01-09 19:58:15.64	44.81	7.67	-39.7	-41.2	19.7	0.00e+00	0	25	0	168820736	52	6560
2026-01-09 19:58:16.65	44.68	7.72	-39.6	-41.0	19.9	0.00e+00	0	25	0	170917888	52	6399
2026-01-09 19:58:17.66	44.55	7.77	-39.3	-40.7	20.1	0.00e+00	0	25	0	173015040	52	6191
2026-01-09 19:58:18.67	44.42	7.82	-39.5	-40.8	20.0	0.00e+00	0	25	0	175112192	52	6309
2026-01-09 19:58:19.68	44.29	7.87	-39.4	-40.7	20.1	0.00e+00	0	25	0	177209344	52	6227
2026-01-09 19:58:20.69	44.16	7.92	-39.4	-40.7	20.1	0.00e+00	0	25	0	178257920	52	6221
2026-01-09 19:58:21.70	44.02	7.97	-39.3	-40.6	20.2	0.00e+00	0	25	0	180355072	52	6158
2026-01-09 19:58:22.71	43.89	8.02	-39.2	-40.6	20.2	0.00e+00	0	25	0	182452224	52	6117
2026-01-09 19:58:23.72	43.76	8.07	-39.3	-40.7	20.3	0.00e+00	0	25	0	184549376	52	6197
2026-01-09 19:58:24.73	43.63	8.12	-39.3	-40.6	20.2	0.00e+00	0	25	0	186646528	52	6168
2026-01-09 19:58:25.74	43.49	8.17	-39.0	-40.3	20.4	0.00e+00	0	25	0	188743680	52	5918
2026-01-09 19:58:26.75	43.36	8.22	-39.1	-40.4	20.3	0.00e+00	0	25	0	189792256	52	5969
2026-01-09 19:58:27.76	43.22	8.27	-39.2	-40.5	20.3	0.00e+00	0	25	0	191889408	52	6101
2026-01-09 19:58:28.76	43.09	8.32	-39.0	-40.3	20.6	0.00e+00	0	25	0	193986560	52	5897
2026-01-09 19:58:29.77	42.96	8.37	-39.3	-40.7	20.1	0.00e+00	0	25	0	196083712	52	6188
2026-01-09 19:58:30.78	42.82	8.42	-39.4	-40.8	20.0	0.00e+00	0	25	0	198180864	52	6259
2026-01-09 19:58:31.79	42.68	8.47	-39.5	-40.9	20.1	0.00e+00	0	25	0	199229440	52	6331
2026-01-09 19:58:32.80	42.55	8.52	-39.6	-41.0	19.8	0.00e+00	0	25	0	201326592	52	6413
2026-01-09 19:58:33.81	42.41	8.57	-39.9	-41.4	19.6	0.00e+00	0	25	0	203423744	52	6724
2026-01-09 19:58:34.82	42.27	8.62	-39.7	-41.1	19.8	0.00e+00	0	25	0	205520896	52	6528
2026-01-09 19:58:35.83	42.13	8.67	-39.7	-41.1	19.8	0.00e+00	0	25	0	207618048	52	6539
2026-01-09 19:58:36.84	41.99	8.72	-39.8	-41.3	19.6	0.00e+00	0	25	0	208666624	52	6643
2026-01-09 19:58:37.84	41.86	8.77	-39.8	-41.3	19.6	0.00e+00	0	25	0	210763776	52	6644
2026-01-09 19:58:38.85	41.72	8.82	-39.8	-41.3	19.6	0.00e+00	0	25	0	212860928	52	6662
2026-01-09 19:58:39.86	41.58	8.87	-39.4	-40.8	20.1	0.00e+00	0	25	0	214958080	52	6281
2026-01-09 19:58:40.87	41.43	8.92	-39.4	-40.7	20.2	0.00e+00	0	25	0	217055232	52	6239
2026-01-09 19:58:41.88	41.29	8.97	-39.3	-40.6	20.1	0.00e+00	0	25	0	218103808	52	6171
2026-01-09 19:58:42.89	41.15	9.01	-39.3	-40.6	20.3	0.00e+00	0	25	0	220200960	52	6135
2026-01-09 19:58:43.90	41.01	9.06	-39.4	-40.7	20.1	0.00e+00	0	25	0	222298112	52	6240
2026-01-09 19:58:44.91	40.87	9.11	-39.2	-40.6	20.2	0.00e+00	0	25	0	224395264	52	6112
2026-01-09 19:58:45.91	40.72	9.16	-39.4	-40.7	20.0	0.00e+00	0	25	0	226492416	52	6236
2026-01-09 19:58:46.92	40.58	9.21	-39.2	-40.5	20.4	0.00e+00	0	25	0	227540992	52	6067
2026-01-09 19:58:47.93	40.44	9.26	-38.9	-40.2	20.5	0.00e+00	0	25	0	229638144	52	5847
2026-01-09 19:58:48.94	40.29	9.31	-39.1	-40.4	20.2	0.00e+00	0	25	0	231735296	52	6026
2026-01-09 19:58:49.95	40.15	9.36	-39.5	-40.8	20.3	0.00e+00	0	25	0	233832448	52	6312
2026-01-09 19:58:50.96	40.00	9.40	-39.2	-40.5	20.3	0.00e+00	0	25	0	235929600	52	6094
2026-01-09 19:58:51.97	39.86	9.45	-38.8	-40.1	20.8	0.00e+00	0	25	0	236978176	52	5788
2026-01-09 19:58:52.98	39.71	9.50	-38.5	-39.7	21.0	0.00e+00	0	25	0	239075328	50	6223
2026-01-09 19:58:53.99	39.56	9.55	-38.4	-39.6	21.1	0.00e+00	0	25	0	241172480	50	6160
2026-01-09 19:58:55.00	39.41	9.60	-38.3	-39.5	21.2	0.00e+00	0	25	0	243269632	50	6090
2026-01-09 19:58:56.01	39.27	9.65	-38.1	-39.2	21.5	0.00e+00	0	25	0	245366784	50	5890
2026-01-09 19:58:57.01	39.12	9.69	-37.9	-39.1	21.6	0.00e+00	0	25	0	246415360	50	5780
2026-01-09 19:58:58.02	38.97	9.74	-38.0	-39.1	21.5	0.00e+00	0	25	0	248512512	50	5795
2026-01-09 19:58:59.03	38.82	9.79	-37.9	-39.0	21.6	0.00e+00	0	25	0	250609664	50	5756
2026-01-09 19:59:00.04	38.67	9.84	-38.1	-39.2	21.5	0.00e+00	0	25	0	252706816	50	5891
2026-01-09 19:59:01.05	38.52	9.88	-37.9	-39.0	21.7	0.00e+00	0	25	0	254803968	50	5744
2026-01-09 19:59:02.06	38.37	9.93	-37.6	-38.7	22.0	0.00e+00	0	25	0	256901120	48	6186
2026-01-09 19:59:03.07	38.22	9.98	-37.4	-38.4	21.9	0.00e+00	0	25	0	257949696	48	5992
2026-01-09 19:59:04.08	38.06	10.03	-37.3	-38.3	22.2	0.00e+00	0	25	0	260046848	48	5931
2026-01-09 19:59:05.09	37.91	10.07	-37.0	-38.0	22.4	0.00e+00	0	25	0	262144000	48	5739
2026-01-09 19:59:06.10	37.76	10.12	-37.1	-38.1	22.4	0.00e+00	0	25	0	264241152	48	5820
2026-01-09 19:59:07.11	37.60	10.17	-37.1	-38.2	22.4	0.00e+00	0	25	0	266338304	48	5834
2026-01-09 19:59:08.11	37.45	10.21	-37.2	-38.2	22.3	0.00e+00	0	25	0	267386880	48	5879
2026-01-09 19:59:09.12	37.30	10.26	-37.5	-38.6	22.0	0.00e+00	0	25	0	269484032	48	6142
2026-01-09 19:59:10.13	37.14	10.31	-37.6	-38.6	22.1	0.00e+00	0	25	0	271581184	48	6172
2026-01-09 19:59:11.14	36.99	10.35	-37.5	-38.6	22.0	0.00e+00	0	25	0	273678336	48	6139
2026-01-09 19:59:12.15	36.83	10.40	-37.6	-38.7	21.9	0.00e+00	0	25	0	274726912	48	6238
2026-01-09 19:59:13.16	36.67	10.45	-37.8	-38.9	21.8	0.00e+00	0	25	0	276824064	48	6341
2026-01-09 19:59:14.17	36.52	10.49	-37.8	-38.9	21.8	0.00e+00	0	25	0	278921216	48	6349
2026-01-09 19:59:15.18	36.36	10.54	-37.8	-39.0	21.8	0.00e+00	0	25	0	281018368	48	6414
2026-01-09 19:59:16.19	36.20	10.59	-37.8	-38.9	21.8	0.00e+00	0	25	0	283115520	48	6353
2026-01-09 19:59:17.20	36.04	10.63	-37.6	-38.7	22.0	0.00e+00	0	25	0	285212672	48	6219
2026-01-09 19:59:18.20	35.88	10.68	-37.4	-38.4	22.2	0.00e+00	0	25	0	286261248	48	6023
2026-01-09 19:59:19.21	35.72	10.72	-37.3	-38.3	22.4	0.00e+00	0	25	0	288358400	48	5939
2026-01-09 19:59:20.22	35.56	10.77	-37.0	-38.0	22.5	0.00e+00	0	25	0	290455552	48	5731
2026-01-09 19:59:21.23	35.40	10.81	-37.2	-38.2	22.1	0.00e+00	0	25	0	292552704	48	5884
2026-01-09 19:59:22.24	35.24	10.86	-37.0	-38.0	22.6	0.00e+00	0	25	0	294649856	48	5716
2026-01-09 19:59:23.25	35.08	10.90	-36.9	-37.9	22.7	0.00e+00	0	25	0	295698432	48	5647
2026-01-09 19:59:24.26	34.92	10.95	-36.6	-37.6	22.9	0.00e+00	0	25	0	297795584	46	6118
2026-01-09 19:59:25.27	34.76	10.99	-36.6	-37.6	22.9	0.00e+00	0	25	0	299892736	46	6106
2026-01-09 19:59:26.28	34.59	11.04	-36.4	-37.3	23.1	0.00e+00	0	25	0	301989888	46	5911
2026-01-09 19:59:27.29	34.43	11.08	-36.6	-37.6	23.0	0.00e+00	0	25	0	304087040	46	6111
2026-01-09 19:59:28.30	34.26	11.13	-36.6	-37.5	23.0	0.00e+00	0	25	0	305135616	46	6078
2026-01-09 19:59:29.31	34.10	11.17	-36.9	-37.9	22.7	0.00e+00	0	25	0	307232768	46	6328
2026-01-09 19:59:30.32	33.93	11.21	-36.9	-37.8	22.8	0.00e+00	0	25	0	309329920	46	6309
2026-01-09 19:59:31.33	33.77	11.26	-36.8	-37.7	22.7	0.00e+00	0	25	0	311427072	46	6230
2026-01-09 19:59:32.34	33.60	11.30	-36.7	-37.7	22.8	0.00e+00	0	25	0	313524224	46	6215
2026-01-09 19:59:33.35	33.44	11.35	-36.8	-37.8	22.8	0.00e+00	0	25	0	314572800	46	6276
2026-01-09 19:59:34.35	33.27	11.39	-36.8	-37.7	22.9	0.00e+00	0	25	0	316669952	46	6223
2026-01-09 19:59:35.36	33.10	11.43	-36.5	-37.4	23.0	0.00e+00	0	25	0	318767104	46	6024
2026-01-09 19:59:36.37	32.93	11.47	-36.7	-37.6	22.9	0.00e+00	0	25	0	320864256	46	6148
2026-01-09 19:59:37.38	32.77	11.52	-36.3	-37.3	23.1	0.00e+00	0	25	0	322961408	46	5897
2026-01-09 19:59:38.39	32.60	11.56	-36.3	-37.2	23.1	0.00e+00	0	25	0	324009984	46	5888
2026-01-09 19:59:39.40	32.43	11.60	-36.1	-36.9	23.4	0.00e+00	0	25	0	326107136	46	5688
2026-01-09 19:59:40.41	32.26	11.65	-36.2	-37.1	23.4	0.00e+00	0	25	0	328204288	46	5786
2026-01-09 19:59:41.42	32.09	11.69	-36.2	-37.1	23.3	0.00e+00	0	25	0	330301440	46	5779
2026-01-09 19:59:42.43	31.91	11.73	-36.4	-37.3	23.2	0.00e+00	0	25	0	332398592	46	5928
2026-01-09 19:59:43.44	31.74	11.77	-36.5	-37.4	23.1	0.00e+00	0	25	0	333447168	46	6005
2026-01-09 19:59:44.44	31.57	11.81	-36.8	-37.7	22.8	0.00e+00	0	25	0	335544320	46	6241
2026-01-09 19:59:45.45	31.40	11.85	-36.9	-37.9	22.8	0.00e+00	0	25	0	337641472	46	6320
2026-01-09 19:59:46.46	31.23	11.90	-36.9	-37.9	22.7	0.00e+00	0	25	0	339738624	46	6330
2026-01-09 19:59:47.47	31.05	11.94	-37.2	-38.2	22.4	0.00e+00	0	25	0	341835776	46	6599
2026-01-09 19:59:48.48	30.88	11.98	-37.3	-38.4	22.3	0.00e+00	0	25	0	342884352	46	6718
2026-01-09 19:59:49.49	30.70	12.02	-37.3	-38.4	22.3	0.00e+00	0	25	0	344981504	46	6699
2026-01-09 19:59:50.50	30.53	12.06	-37.3	-38.4	22.3	0.00e+00	0	25	0	347078656	46	6731
2026-01-09 19:59:51.51	30.35	12.10	-37.5	-38.6	22.4	0.00e+00	0	25	0	349175808	46	6895
2026-01-09 19:59:52.51	30.18	12.14	-37.2	-38.2	22.4	0.00e+00	0	25	0	351272960	46	6571
2026-01-09 19:59:53.53	30.00	12.18	-37.1	-38.1	22.2	0.00e+00	0	25	0	353370112	46	6469
2026-01-09 19:59:54.54	29.82	12.22	-37.2	-38.2	22.4	0.00e+00	0	25	0	354418688	46	6546
2026-01-09 19:59:55.55	29.64	12.26	-37.0	-37.9	22.7	0.00e+00	0	25	0	356515840	46	6380
2026-01-09 19:59:56.55	29.47	12.30	-37.0	-38.0	22.6	0.00e+00	0	25	0	358612992	46	6455
2026-01-09 19:59:57.56	29.29	12.34	-37.0	-38.0	22.7	0.00e+00	0	25	0	360710144	46	6446
2026-01-09 19:59:58.58	29.11	12.38	-37.2	-38.2	22.4	0.00e+00	0	25	0	362807296	46	6593
2026-01-09 19:59:59.58	28.93	12.41	-37.3	-38.3	22.5	0.00e+00	0	25	0	363855872	46	6669
2026-01-09 20:00:00.59	28.75	12.45	-37.4	-38.4	22.3	0.00e+00	0	25	0	365953024	46	6742
2026-01-09 20:00:01.60	28.57	12.49	-37.3	-38.3	22.4	0.00e+00	0	25	0	368050176	46	6665
2026-01-09 20:00:02.61	28.39	12.53	-37.4	-38.4	22.3	0.00e+00	0	25	0	370147328	46	6746
2026-01-09 20:00:03.62	28.21	12.57	-37.3	-38.3	22.4	0.00e+00	0	25	0	372244480	46	6654
2026-01-09 20:00:04.63	28.03	12.60	-37.2	-38.2	22.5	0.00e+00	0	25	0	373293056	46	6571
2026-01-09 20:00:05.64	27.84	12.64	-37.0	-38.0	22.8	0.00e+00	0	25	0	375390208	46	6458
2026-01-09 20:00:06.65	27.66	12.68	-36.7	-37.7	22.9	0.00e+00	0	25	0	377487360	46	6219
2026-01-09 20:00:07.66	27.48	12.72	-36.6	-37.5	23.1	0.00e+00	0	25	0	379584512	46	6084
2026-01-09 20:00:08.67	27.29	12.75	-36.3	-37.2	23.1	0.00e+00	0	25	0	381681664	46	5856
2026-01-09 20:00:09.68	27.11	12.79	-36.4	-37.3	23.2	0.00e+00	0	25	0	382730240	46	5916
2026-01-09 20:00:10.69	26.92	12.82	-36.4	-37.3	23.2	0.00e+00	0	25	0	384827392	46	5942
2026-01-09 20:00:11.70	26.74	12.86	-36.6	-37.5	23.1	0.00e+00	0	25	0	386924544	46	6074
2026-01-09 20:00:12.70	26.56	12.90	-36.8	-37.7	22.9	0.00e+00	0	25	0	389021696	46	6235
2026-01-09 20:00:13.71	26.37	12.93	-36.8	-37.7	23.0	0.00e+00	0	25	0	391118848	46	6240
2026-01-09 20:00:14.72	26.18	12.97	-36.8	-37.8	22.9	0.00e+00	0	25	0	392167424	46	6277
2026-01-09 20:00:15.73	26.00	13.00	-36.9	-37.9	22.8	0.00e+00	0	25	0	394264576	46	6320
2026-01-09 20:00:16.74	25.81	13.04	-36.8	-37.7	22.8	0.00e+00	0	25	0	396361728	46	6243
2026-01-09 20:00:17.75	25.62	13.07	-36.8	-37.8	22.9	0.00e+00	0	25	0	398458880	46	6271
2026-01-09 20:00:18.76	25.43	13.10	-36.8	-37.8	22.9	0.00e+00	0	25	0	400556032	46	6292
2026-01-09 20:00:19.77	25.24	13.14	-36.7	-37.7	23.0	0.00e+00	0	25	0	401604608	46	6189
2026-01-09 20:00:20.78	25.05	13.17	-36.6	-37.5	23.2	0.00e+00	0	25	0	403701760	46	6068
2026-01-09 20:00:21.79	24.86	13.21	-36.7	-37.7	22.9	0.00e+00	0	25	0	405798912	46	6191
2026-01-09 20:00:22.80	24.67	13.24	-37.0	-38.0	22.5	0.00e+00	0	25	0	407896064	46	6435
2026-01-09 20:00:23.81	24.48	13.27	-37.2	-38.3	22.4	0.00e+00	0	25	0	409993216	46	6622
2026-01-09 20:00:24.82	24.29	13.30	-37.6	-38.8	22.0	0.00e+00	0	25	0	411041792	46	7008
2026-01-09 20:00:25.83	24.10	13.34	-37.6	-38.7	22.0	0.00e+00	0	25	0	413138944	46	6980
2026-01-09 20:00:26.84	23.91	13.37	-37.6	-38.7	22.0	0.00e+00	0	25	0	415236096	46	6999
2026-01-09 20:00:27.85	23.72	13.40	-37.8	-38.9	21.9	0.00e+00	0	25	0	417333248	48	6348
2026-01-09 20:00:28.86	23.53	13.43	-37.6	-38.7	22.3	0.00e+00	0	25	0	419430400	48	6199
2026-01-09 20:00:29.87	23.33	13.46	-37.2	-38.2	22.6	0.00e+00	0	25	0	421527552	48	5883
2026-01-09 20:00:30.88	23.14	13.49	-36.9	-37.9	22.6	0.00e+00	0	25	0	422576128	48	5692
2026-01-09 20:00:31.89	22.95	13.52	-36.6	-37.5	23.1	0.00e+00	0	25	0	424673280	46	6084
2026-01-09 20:00:32.90	22.75	13.55	-36.7	-37.6	23.0	0.00e+00	0	25	0	426770432	46	6154
2026-01-09 20:00:33.91	22.56	13.58	-36.4	-37.3	23.3	0.00e+00	0	25	0	428867584	46	5922
2026-01-09 20:00:34.91	22.36	13.61	-36.3	-37.2	23.3	0.00e+00	0	25	0	430964736	46	5859
2026-01-09 20:00:35.93	22.17	13.64	-35.7	-36.6	23.2	0.00e+00	0	25	0	432013312	44	6110
2026-01-09 20:00:36.93	21.97	13.67	-35.9	-36.7	23.2	0.00e+00	0	25	0	434110464	44	6231
2026-01-09 20:00:37.95	21.77	13.70	-35.8	-36.6	23.6	0.00e+00	0	25	0	436207616	44	6153
2026-01-09 20:00:38.96	21.58	13.73	-36.0	-36.8	23.6	0.00e+00	0	25	0	438304768	44	6306
2026-01-09 20:00:39.96	21.38	13.76	-35.9	-36.8	23.6	0.00e+00	0	25	0	440401920	44	6278
2026-01-09 20:00:40.97	21.18	13.79	-36.2	-37.1	23.4	0.00e+00	0	25	0	441450496	44	6476
2026-01-09 20:00:41.98	20.99	13.81	-36.1	-37.0	23.5	0.00e+00	0	25	0	443547648	44	6416
2026-01-09 20:00:42.99	20.79	13.84	-35.9	-36.7	23.6	0.00e+00	0	25	0	445644800	44	6244
2026-01-09 20:00:44.00	20.59	13.87	-35.8	-36.7	23.7	0.00e+00	0	25	0	447741952	44	6206
2026-01-09 20:00:45.00	20.39	13.89	-35.8	-36.6	23.7	0.00e+00	0	25	0	449839104	44	6143
2026-01-09 20:00:46.01	20.19	13.92	-36.1	-37.0	23.5	0.00e+00	0	25	0	450887680	44	6432
2026-01-09 20:00:47.02	19.99	13.95	-35.9	-36.8	23.6	0.00e+00	0	25	0	452984832	44	6255
2026-01-09 20:00:48.03	19.80	13.97	-36.0	-36.8	23.6	0.00e+00	0	25	0	455081984	44	6316
2026-01-09 20:00:49.04	19.59	14.00	-36.2	-37.1	23.1	0.00e+00	0	25	0	457179136	44	6534
2026-01-09 20:00:50.05	19.39	14.02	-36.5	-37.4	23.0	0.00e+00	0	25	0	459276288	44	6735
2026-01-09 20:00:51.06	19.19	14.05	-37.0	-37.9	22.9	0.00e+00	0	25	0	460324864	46	6383
2026-01-09 20:00:52.07	18.99	14.07	-37.1	-38.1	22.6	0.00e+00	0	25	0	462422016	46	6493
2026-01-09 20:00:53.08	18.79	14.10	-37.3	-38.4	22.4	0.00e+00	0	25	0	464519168	46	6723
2026-01-09 20:00:54.09	18.59	14.12	-37.3	-38.4	22.4	0.00e+00	0	25	0	466616320	46	6716
2026-01-09 20:00:55.10	18.39	14.14	-37.3	-38.3	22.5	0.00e+00	0	25	0	468713472	46	6663
2026-01-09 20:00:56.10	18.19	14.17	-37.4	-38.4	22.3	0.00e+00	0	25	0	469762048	46	6732
2026-01-09 20:00:57.11	17.98	14.19	-37.3	-38.4	22.4	0.00e+00	0	25	0	471859200	46	6702
2026-01-09 20:00:58.12	17.78	14.21	-37.2	-38.2	22.5	0.00e+00	0	25	0	473956352	46	6569
2026-01-09 20:00:59.13	17.58	14.23	-37.3	-38.4	22.4	0.00e+00	0	25	0	476053504	46	6716
2026-01-09 20:01:00.14	17.37	14.26	-37.4	-38.5	22.3	0.00e+00	0	25	0	478150656	46	6776
2026-01-09 20:01:01.15	17.17	14.28	-37.4	-38.4	22.5	0.00e+00	0	25	0	479199232	46	6737
2026-01-09 20:01:02.15	16.97	14.30	-37.3	-38.3	22.1	0.00e+00	0	25	0	481296384	46	6652
2026-01-09 20:01:03.16	16.76	14.32	-37.3	-38.3	22.4	0.00e+00	0	25	0	483393536	46	6656
2026-01-09 20:01:04.17	16.56	14.34	-37.1	-38.1	22.6	0.00e+00	0	25	0	485490688	46	6535
2026-01-09 20:01:05.18	16.35	14.36	-37.1	-38.1	22.6	0.00e+00	0	25	0	487587840	46	6499
2026-01-09 20:01:06.19	16.15	14.38	-37.1	-38.1	22.5	0.00e+00	0	25	0	488636416	46	6510
2026-01-09 20:01:07.20	15.94	14.40	-36.9	-37.9	22.7	0.00e+00	0	25	0	490733568	46	6343
2026-01-09 20:01:08.21	15.73	14.42	-36.9	-37.9	22.8	0.00e+00	0	25	0	492830720	46	6368
2026-01-09 20:01:09.21	15.53	14.44	-36.9	-37.9	23.0	0.00e+00	0	25	0	494927872	46	6343
2026-01-09 20:01:10.22	15.32	14.45	-36.4	-37.3	23.4	0.00e+00	0	25	0	497025024	46	5938
2026-01-09 20:01:11.23	15.12	14.47	-36.3	-37.1	23.4	0.00e+00	0	25	0	498073600	46	5828
2026-01-09 20:01:12.24	14.91	14.49	-36.3	-37.2	23.4	0.00e+00	0	25	0	500170752	46	5853
2026-01-09 20:01:13.25	14.70	14.51	-36.3	-37.2	23.4	0.00e+00	0	25	0	502267904	46	5831
2026-01-09 20:01:14.25	14.50	14.52	-36.2	-37.1	23.3	0.00e+00	0	25	0	504365056	46	5807
2026-01-09 20:01:15.26	14.29	14.54	-36.3	-37.2	23.2	0.00e+00	0	25	0	506462208	46	5862
2026-01-09 20:01:16.27	14.08	14.56	-36.4	-37.4	23.2	0.00e+00	0	25	0	507510784	46	5969
2026-01-09 20:01:17.28	13.87	14.57	-36.4	-37.3	23.3	0.00e+00	0	25	0	509607936	46	5947
2026-01-09 20:01:18.29	13.66	14.59	-36.5	-37.4	23.2	0.00e+00	0	25	0	511705088	46	5998
2026-01-09 20:01:19.30	13.45	14.60	-36.6	-37.5	23.1	0.00e+00	0	25	0	513802240	46	6087
2026-01-09 20:01:20.31	13.25	14.62	-36.8	-37.7	22.9	0.00e+00	0	25	0	515899392	46	6230
2026-01-09 20:01:21.32	13.04	14.63	-36.9	-37.9	22.8	0.00e+00	0	25	0	517996544	46	6364
2026-01-09 20:01:22.33	12.83	14.65	-37.2	-38.2	22.5	0.00e+00	0	25	0	519045120	46	6600
2026-01-09 20:01:23.34	12.62	14.66	-37.0	-38.0	22.7	0.00e+00	0	25	0	521142272	46	6395
2026-01-09 20:01:24.35	12.41	14.67	-36.8	-37.8	22.9	0.00e+00	0	25	0	523239424	46	6259
2026-01-09 20:01:25.36	12.20	14.68	-36.8	-37.7	22.9	0.00e+00	0	25	0	525336576	46	6232
2026-01-09 20:01:26.36	11.99	14.70	-36.6	-37.6	23.0	0.00e+00	0	25	0	527433728	46	6116
2026-01-09 20:01:27.37	11.78	14.71	-36.6	-37.6	23.0	0.00e+00	0	25	0	528482304	46	6107
2026-01-09 20:01:28.38	11.57	14.72	-36.7	-37.6	23.0	0.00e+00	0	25	0	530579456	46	6163
2026-01-09 20:01:29.39	11.36	14.73	-36.7	-37.7	23.0	0.00e+00	0	25	0	532676608	46	6195
2026-01-09 20:01:30.40	11.15	14.74	-36.9	-37.8	22.8	0.00e+00	0	25	0	534773760	46	6317
2026-01-09 20:01:31.41	10.94	14.75	-37.0	-38.0	22.6	0.00e+00	0	25	0	536870912	46	6397
2026-01-09 20:01:32.42	10.73	14.76	-37.2	-38.2	22.6	0.00e+00	0	25	0	537919488	46	6566
2026-01-09 20:01:33.43	10.51	14.77	-37.0	-38.0	22.6	0.00e+00	0	25	0	540016640	46	6463
2026-01-09 20:01:34.44	10.30	14.78	-37.2	-38.2	22.6	0.00e+00	0	25	0	542113792	46	6586
2026-01-09 20:01:35.45	10.09	14.79	-37.0	-38.0	22.7	0.00e+00	0	25	0	544210944	46	6448
2026-01-09 20:01:36.46	9.88	14.80	-36.9	-37.9	22.8	0.00e+00	0	25	0	546308096	46	6353
2026-01-09 20:01:37.47	9.67	14.81	-37.0	-38.0	22.7	0.00e+00	0	25	0	547356672	46	6412
2026-01-09 20:01:38.48	9.46	14.82	-36.9	-37.9	22.8	0.00e+00	0	25	0	549453824	46	6319
2026-01-09 20:01:39.49	9.24	14.82	-36.6	-37.6	23.0	0.00e+00	0	25	0	551550976	46	6115
2026-01-09 20:01:40.49	9.03	14.83	-36.8	-37.8	22.9	0.00e+00	0	25	0	553648128	46	6246
2026-01-09 20:01:41.50	8.82	14.84	-36.8	-37.7	22.9	0.00e+00	0	25	0	555745280	46	6239
2026-01-09 20:01:42.51	8.61	14.84	-36.7	-37.7	23.0	0.00e+00	0	25	0	556793856	46	6184
2026-01-09 20:01:43.52	8.40	14.85	-37.0	-37.9	22.7	0.00e+00	0	25	0	558891008	46	6382
2026-01-09 20:01:44.53	8.19	14.85	-36.5	-37.4	23.2	0.00e+00	0	25	0	560988160	46	6029
2026-01-09 20:01:45.54	7.97	14.86	-36.5	-37.4	23.2	0.00e+00	0	25	0	563085312	46	6014
2026-01-09 20:01:46.55	7.76	14.86	-36.5	-37.4	23.2	0.00e+00	0	25	0	565182464	46	5999
2026-01-09 20:01:47.56	7.55	14.87	-36.7	-37.6	23.0	0.00e+00	0	25	0	566231040	46	6157
2026-01-09 20:01:48.57	7.34	14.87	-36.8	-37.8	23.0	0.00e+00	0	25	0	568328192	46	6293
2026-01-09 20:01:49.58	7.12	14.88	-37.0	-38.0	22.8	0.00e+00	0	25	0	570425344	46	6433
2026-01-09 20:01:50.59	6.91	14.88	-37.1	-38.1	22.6	0.00e+00	0	25	0	572522496	46	6509
2026-01-09 20:01:51.60	6.70	14.88	-37.0	-38.0	22.7	0.00e+00	0	25	0	574619648	46	6447
2026-01-09 20:01:52.61	6.48	14.88	-37.0	-38.1	22.7	0.00e+00	0	25	0	575668224	46	6483
2026-01-09 20:01:53.61	6.27	14.88	-37.1	-38.2	22.6	0.00e+00	0	25	0	577765376	46	6544
2026-01-09 20:01:54.62	6.06	14.89	-37.1	-38.1	22.5	0.00e+00	0	25	0	579862528	46	6487
2026-01-09 20:01:55.63	5.85	14.89	-36.8	-37.8	22.9	0.00e+00	0	25	0	581959680	46	6292
2026-01-09 20:01:56.64	5.64	14.89	-36.8	-37.7	22.9	0.00e+00	0	25	0	584056832	46	6238
2026-01-09 20:01:57.65	5.42	14.89	-36.7	-37.6	23.1	0.00e+00	0	25	0	586153984	46	6163
2026-01-09 20:01:58.66	5.21	14.89	-36.5	-37.4	23.2	0.00e+00	0	25	0	587202560	46	6003
2026-01-09 20:01:59.67	5.00	14.89	-36.5	-37.4	23.3	0.00e+00	0	25	0	589299712	46	5969
2026-01-09 20:02:00.67	4.79	14.89	-36.3	-37.2	23.3	0.00e+00	0	25	0	591396864	46	5865
2026-01-09 20:02:01.68	4.57	14.89	-36.3	-37.2	23.3	0.00e+00	0	25	0	593494016	46	5889
2026-01-09 20:02:02.69	4.36	14.88	-36.4	-37.3	23.2	0.00e+00	0	25	0	594542592	46	5945
2026-01-09 20:02:03.70	4.15	14.88	-36.5	-37.5	23.1	0.00e+00	0	25	0	596639744	46	6048
2026-01-09 20:02:04.71	3.93	14.88	-36.6	-37.5	23.1	0.00e+00	0	25	0	598736896	46	6087
2026-01-09 20:02:05.71	3.72	14.88	-36.7	-37.7	23.0	0.00e+00	0	25	0	600834048	46	6198
2026-01-09 20:02:06.72	3.51	14.87	-36.7	-37.7	23.0	0.00e+00	0	25	0	602931200	46	6226
2026-01-09 20:02:07.73	3.30	14.87	-36.9	-38.0	22.8	0.00e+00	0	25	0	603979776	46	6395
2026-01-09 20:02:08.74	3.09	14.86	-37.1	-38.1	22.7	0.00e+00	0	25	0	606076928	46	6487
2026-01-09 20:02:09.75	2.87	14.86	-37.0	-38.0	22.7	0.00e+00	0	25	0	608174080	46	6446
2026-01-09 20:02:10.76	2.66	14.86	-37.2	-38.2	22.6	0.00e+00	0	25	0	610271232	46	6559
2026-01-09 20:02:11.77	2.45	14.85	-37.3	-38.3	22.5	0.00e+00	0	25	0	612368384	46	6638
2026-01-09 20:02:12.78	2.24	14.84	-37.3	-38.3	22.5	0.00e+00	0	25	0	614465536	46	6689
2026-01-09 20:02:13.79	2.02	14.84	-37.3	-38.3	22.3	0.00e+00	0	25	0	615514112	46	6676
2026-01-09 20:02:14.80	1.81	14.83	-37.4	-38.5	21.7	0.00e+00	0	25	0	617611264	46	6770
2026-01-09 20:02:15.80	1.60	14.83	-37.5	-38.5	22.2	0.00e+00	0	25	0	619708416	46	6835
2026-01-09 20:02:16.81	1.39	14.82	-37.3	-38.3	22.4	0.00e+00	0	25	0	621805568	46	6690
2026-01-09 20:02:17.82	1.18	14.81	-37.3	-38.3	22.4	0.00e+00	0	25	0	623902720	46	6672
2026-01-09 20:02:18.83	0.97	14.80	-37.2	-38.3	22.6	0.00e+00	0	25	0	624951296	46	6616
2026-01-09 20:02:19.84	0.76	14.79	-37.2	-38.2	22.6	0.00e+00	0	25	0	627048448	46	6543
2026-01-09 20:02:20.85	0.54	14.79	-37.0	-38.0	22.7	0.00e+00	0	25	0	629145600	46	6452
2026-01-09 20:02:21.86	0.33	14.78	-36.8	-37.8	22.8	0.00e+00	0	25	0	631242752	46	6293
2026-01-09 20:02:22.87	0.12	14.77	-36.9	-37.9	22.8	0.00e+00	0	25	0	633339904	46	6362
2026-01-09 20:02:23.88	359.91	14.76	-36.8	-37.7	23.0	0.00e+00	0	25	0	634388480	46	6232
2026-01-09 20:02:24.89	359.70	14.75	-36.6	-37.5	23.1	0.00e+00	0	25	0	636485632	46	6093
2026-01-09 20:02:25.90	359.49	14.74	-36.4	-37.3	23.3	0.00e+00	0	25	0	638582784	46	5946
2026-01-09 20:02:26.91	359.28	14.72	-36.5	-37.4	23.1	0.00e+00	0	25	0	640679936	46	5980
2026-01-09 20:02:27.91	359.07	14.71	-36.7	-37.7	23.0	0.00e+00	0	25	0	642777088	46	6180
2026-01-09 20:02:28.92	358.86	14.70	-36.6	-37.6	23.1	0.00e+00	0	25	0	643825664	46	6106
2026-01-09 20:02:29.93	358.65	14.69	-36.9	-37.9	22.8	0.00e+00	0	25	0	645922816	46	6341
2026-01-09 20:02:30.94	358.44	14.68	-36.8	-37.7	22.9	0.00e+00	0	25	0	648019968	46	6224
2026-01-09 20:02:31.95	358.23	14.66	-36.9	-37.9	22.9	0.00e+00	0	25	0	650117120	46	6322
2026-01-09 20:02:32.96	358.02	14.65	-36.6	-37.6	23.1	0.00e+00	0	25	0	652214272	46	6108
2026-01-09 20:02:33.97	357.81	14.64	-36.5	-37.5	23.2	0.00e+00	0	25	0	653262848	46	6041
2026-01-09 20:02:34.97	357.60	14.62	-36.2	-37.1	23.5	0.00e+00	0	25	0	655360000	46	5811
2026-01-09 20:02:35.98	357.39	14.61	-36.1	-37.0	23.5	0.00e+00	0	25	0	657457152	46	5719
2026-01-09 20:02:36.99	357.19	14.59	-36.1	-36.9	23.6	0.00e+00	0	25	0	659554304	46	5690
2026-01-09 20:02:38.00	356.98	14.58	-36.1	-37.0	23.5	0.00e+00	0	25	0	661651456	46	5746
2026-01-09 20:02:39.01	356.77	14.56	-36.1	-37.0	23.4	0.00e+00	0	25	0	662700032	46	5731
2026-01-09 20:02:40.02	356.56	14.55	-36.2	-37.2	23.4	0.00e+00	0	25	0	664797184	46	5834
2026-01-09 20:02:41.03	356.35	14.53	-36.3	-37.2	23.4	0.00e+00	0	25	0	666894336	46	5887
2026-01-09 20:02:42.04	356.15	14.51	-36.5	-37.4	23.1	0.00e+00	0	25	0	668991488	46	6005
2026-01-09 20:02:43.05	355.94	14.50	-36.6	-37.5	23.1	0.00e+00	0	25	0	671088640	46	6094
2026-01-09 20:02:44.06	355.73	14.48	-36.6	-37.5	23.0	0.00e+00	0	25	0	672137216	46	6091
2026-01-09 20:02:45.07	355.52	14.46	-36.7	-37.7	22.8	0.00e+00	0	25	0	674234368	46	6214
2026-01-09 20:02:46.08	355.32	14.44	-37.0	-38.0	22.8	0.00e+00	0	25	0	676331520	46	6415
2026-01-09 20:02:47.08	355.11	14.42	-37.1	-38.2	22.6	0.00e+00	0	25	0	678428672	46	6547
2026-01-09 20:02:48.09	354.91	14.40	-37.2	-38.2	22.6	0.00e+00	0	25	0	680525824	46	6572
2026-01-09 20:02:49.10	354.70	14.39	-37.1	-38.1	22.7	0.00e+00	0	25	0	682622976	46	6520
2026-01-09 20:02:50.11	354.50	14.37	-37.0	-38.0	22.7	0.00e+00	0	25	0	683671552	46	6426
2026-01-09 20:02:51.12	354.29	14.35	-37.2	-38.3	22.3	0.00e+00	0	25	0	685768704	46	6623
2026-01-09 20:02:52.13	354.09	14.33	-36.9	-37.9	22.8	0.00e+00	0	25	0	687865856	46	6385
2026-01-09 20:02:53.14	353.88	14.31	-37.1	-38.0	22.7	0.00e+00	0	25	0	689963008	46	6464
2026-01-09 20:02:54.15	353.68	14.28	-37.0	-38.0	22.8	0.00e+00	0	25	0	691011584	46	6420
2026-01-09 20:02:55.16	353.47	14.26	-36.9	-37.9	22.9	0.00e+00	0	25	0	693108736	46	6349
2026-01-09 20:02:56.17	353.27	14.24	-36.6	-37.6	23.2	0.00e+00	0	25	0	695205888	46	6122
2026-01-09 20:02:57.17	353.07	14.22	-36.6	-37.6	23.1	0.00e+00	0	25	0	697303040	46	6116
2026-01-09 20:02:58.18	352.86	14.20	-36.6	-37.6	23.2	0.00e+00	0	25	0	699400192	46	6109
2026-01-09 20:02:59.19	352.66	14.17	-36.4	-37.3	23.3	0.00e+00	0	25	0	700448768	46	5960
2026-01-09 20:03:00.20	352.46	14.15	-36.2	-37.1	23.5	0.00e+00	0	25	0	702545920	46	5799
2026-01-09 20:03:01.20	352.26	14.13	-36.3	-37.2	23.4	0.00e+00	0	25	0	704643072	46	5835
2026-01-09 20:03:02.21	352.06	14.10	-36.4	-37.3	23.3	0.00e+00	0	25	0	706740224	46	5909
2026-01-09 20:03:03.22	351.85	14.08	-36.5	-37.5	23.2	0.00e+00	0	25	0	708837376	46	6037
2026-01-09 20:03:04.23	351.65	14.06	-36.7	-37.6	23.0	0.00e+00	0	25	0	710934528	46	6130
2026-01-09 20:03:05.24	351.45	14.03	-36.4	-37.3	23.3	0.00e+00	0	25	0	711983104	46	5909
2026-01-09 20:03:06.25	351.25	14.01	-36.4	-37.3	23.3	0.00e+00	0	25	0	714080256	46	5909
2026-01-09 20:03:07.25	351.05	13.98	-36.2	-37.1	23.4	0.00e+00	0	25	0	716177408	46	5815
2026-01-09 20:03:08.26	350.85	13.96	-36.3	-37.2	23.4	0.00e+00	0	25	0	718274560	46	5851
2026-01-09 20:03:09.27	350.65	13.93	-36.5	-37.5	23.4	0.00e+00	0	25	0	720371712	46	6040
2026-01-09 20:03:10.28	350.45	13.90	-36.6	-37.6	23.1	0.00e+00	0	25	0	721420288	46	6107
2026-01-09 20:03:11.29	350.26	13.88	-36.8	-37.8	22.9	0.00e+00	0	25	0	723517440	46	6305
2026-01-09 20:03:12.30	350.06	13.85	-36.9	-37.8	22.9	0.00e+00	0	25	0	725614592	46	6299
2026-01-09 20:03:13.31	349.86	13.82	-37.1	-38.1	22.7	0.00e+00	0	25	0	727711744	46	6484
2026-01-09 20:03:14.32	349.66	13.79	-37.0	-38.0	22.7	0.00e+00	0	25	0	729808896	46	6435
2026-01-09 20:03:15.32	349.47	13.77	-36.9	-37.9	22.8	0.00e+00	0	25	0	730857472	46	6323
2026-01-09 20:03:16.33	349.27	13.74	-36.9	-37.9	22.8	0.00e+00	0	25	0	732954624	46	6355
2026-01-09 20:03:17.34	349.07	13.71	-36.9	-37.9	22.8	0.00e+00	0	25	0	735051776	46	6321
2026-01-09 20:03:18.35	348.88	13.68	-37.0	-38.0	22.7	0.00e+00	0	25	0	737148928	46	6400
2026-01-09 20:03:19.36	348.68	13.65	-36.9	-37.9	22.9	0.00e+00	0	25	0	739246080	46	6345
2026-01-09 20:03:20.37	348.48	13.62	-37.0	-38.0	22.7	0.00e+00	0	25	0	740294656	46	6460
2026-01-09 20:03:21.38	348.29	13.59	-37.3	-38.3	22.5	0.00e+00	0	25	0	742391808	46	6653
2026-01-09 20:03:22.39	348.09	13.56	-37.2	-38.2	22.5	0.00e+00	0	25	0	744488960	46	6596
2026-01-09 20:03:23.40	347.90	13.53	-37.4	-38.4	22.4	0.00e+00	0	25	0	746586112	46	6733
2026-01-09 20:03:24.41	347.71	13.50	-37.3	-38.3	22.5	0.00e+00	0	25	0	748683264	46	6674
2026-01-09 20:03:25.41	347.52	13.47	-37.0	-38.0	22.8	0.00e+00	0	25	0	749731840	46	6413
2026-01-09 20:03:26.42	347.32	13.44	-37.1	-38.1	22.7	0.00e+00	0	25	0	751828992	46	6465
2026-01-09 20:03:27.43	347.13	13.41	-36.9	-37.8	22.9	0.00e+00	0	25	0	753926144	46	6304
2026-01-09 20:03:28.44	346.94	13.38	-36.7	-37.7	23.0	0.00e+00	0	25	0	756023296	46	6183
2026-01-09 20:03:29.45	346.75	13.35	-36.5	-37.5	23.1	0.00e+00	0	25	0	758120448	46	6047
2026-01-09 20:03:30.46	346.55	13.31	-36.5	-37.5	23.0	0.00e+00	0	25	0	759169024	46	6053
2026-01-09 20:03:31.47	346.36	13.28	-36.5	-37.4	23.2	0.00e+00	0	25	0	761266176	46	6028
2026-01-09 20:03:32.48	346.17	13.25	-36.6	-37.6	23.1	0.00e+00	0	25	0	763363328	46	6132
2026-01-09 20:03:33.49	345.98	13.22	-36.7	-37.6	23.1	0.00e+00	0	25	0	765460480	46	6166
2026-01-09 20:03:34.50	345.79	13.18	-36.5	-37.5	23.2	0.00e+00	0	25	0	767557632	46	6044
2026-01-09 20:03:35.51	345.60	13.15	-36.5	-37.4	23.2	0.00e+00	0	25	0	768606208	46	6011
2026-01-09 20:03:36.52	345.41	13.12	-36.4	-37.4	23.2	0.00e+00	0	25	0	770703360	46	5986
2026-01-09 20:03:37.53	345.23	13.08	-36.3	-37.3	23.3	0.00e+00	0	25	0	772800512	46	5906
2026-01-09 20:03:38.53	345.04	13.05	-36.1	-37.0	23.5	0.00e+00	0	25	0	774897664	46	5760
2026-01-09 20:03:39.55	344.85	13.01	-35.8	-36.7	23.8	0.00e+00	0	25	0	776994816	46	5533
2026-01-09 20:03:40.56	344.66	12.98	-35.8	-36.7	23.8	0.00e+00	0	25	0	779091968	44	6190
2026-01-09 20:03:41.57	344.48	12.94	-35.7	-36.5	23.8	0.00e+00	0	25	0	780140544	44	6086
2026-01-09 20:03:42.58	344.29	12.91	-35.9	-36.8	23.6	0.00e+00	0	25	0	782237696	44	6248
2026-01-09 20:03:43.58	344.11	12.87	-35.9	-36.8	23.4	0.00e+00	0	25	0	784334848	44	6297
2026-01-09 20:03:44.59	343.92	12.84	-36.3	-37.2	22.9	0.00e+00	0	25	0	786432000	44	6559
2026-01-09 20:03:45.60	343.74	12.80	-36.6	-37.6	22.9	0.00e+00	0	25	0	788529152	44	6851
2026-01-09 20:03:46.62	343.55	12.76	-36.8	-37.8	22.7	0.00e+00	0	25	0	789577728	44	7058
2026-01-09 20:03:47.63	343.37	12.73	-36.9	-37.9	22.6	0.00e+00	0	25	0	791674880	46	6330
2026-01-09 20:03:48.64	343.18	12.69	-36.9	-37.9	22.7	0.00e+00	0	25	0	793772032	46	6328
2026-01-09 20:03:49.64	343.00	12.65	-37.0	-38.1	22.7	0.00e+00	0	25	0	795869184	46	6481
2026-01-09 20:03:50.65	342.82	12.62	-37.3	-38.3	22.4	0.00e+00	0	25	0	797966336	46	6686
2026-01-09 20:03:51.66	342.64	12.58	-37.9	-39.1	21.8	0.00e+00	0	25	0	799014912	46	7254
2026-01-09 20:03:52.67	342.46	12.54	-37.7	-38.8	22.0	0.00e+00	0	25	0	801112064	48	6307
2026-01-09 20:03:53.68	342.28	12.50	-37.6	-38.7	22.1	0.00e+00	0	25	0	803209216	48	6204
2026-01-09 20:03:54.69	342.10	12.47	-37.6	-38.7	22.1	0.00e+00	0	25	0	805306368	48	6230
2026-01-09 20:03:55.70	341.92	12.43	-37.6	-38.7	22.2	0.00e+00	0	25	0	807403520	48	6210
2026-01-09 20:03:56.71	341.74	12.39	-37.7	-38.7	22.1	0.00e+00	0	25	0	808452096	48	6239
2026-01-09 20:03:57.72	341.56	12.35	-37.6	-38.7	22.0	0.00e+00	0	25	0	810549248	48	6224
2026-01-09 20:03:58.73	341.38	12.31	-37.5	-38.6	22.0	0.00e+00	0	25	0	812646400	48	6133
2026-01-09 20:03:59.74	341.20	12.27	-37.2	-38.2	22.4	0.00e+00	0	25	0	814743552	48	5867
2026-01-09 20:04:00.74	341.02	12.23	-37.4	-38.4	22.3	0.00e+00	0	25	0	816840704	48	6001
2026-01-09 20:04:01.75	340.85	12.19	-37.4	-38.5	22.2	0.00e+00	0	25	0	817889280	48	6039
2026-01-09 20:04:02.76	340.67	12.15	-37.7	-38.7	21.8	0.00e+00	0	25	0	819986432	48	6236
2026-01-09 20:04:03.77	340.49	12.11	-37.6	-38.7	22.1	0.00e+00	0	25	0	822083584	48	6176
2026-01-09 20:04:04.78	340.32	12.07	-37.6	-38.7	22.2	0.00e+00	0	25	0	824180736	48	6180
2026-01-09 20:04:05.79	340.14	12.03	-37.7	-38.8	22.1	0.00e+00	0	25	0	826277888	48	6300
2026-01-09 20:04:06.80	339.97	11.99	-37.6	-38.6	22.1	0.00e+00	0	25	0	827326464	48	6164
2026-01-09 20:04:07.81	339.79	11.95	-37.6	-38.6	22.2	0.00e+00	0	25	0	829423616	48	6151
2026-01-09 20:04:08.82	339.62	11.91	-37.4	-38.4	22.4	0.00e+00	0	25	0	831520768	48	6025
2026-01-09 20:04:09.83	339.45	11.87	-37.4	-38.5	22.3	0.00e+00	0	25	0	833617920	48	6059
2026-01-09 20:04:10.84	339.27	11.83	-37.4	-38.4	22.3	0.00e+00	0	25	0	835715072	48	6032
2026-01-09 20:04:11.84	339.10	11.79	-37.6	-38.6	22.1	0.00e+00	0	25	0	836763648	48	6167
2026-01-09 20:04:12.85	338.93	11.74	-37.9	-39.0	21.9	0.00e+00	0	25	0	838860800	48	6395
2026-01-09 20:04:13.86	338.76	11.70	-37.7	-38.8	22.0	0.00e+00	0	25	0	840957952	48	6254
2026-01-09 20:04:14.88	338.59	11.66	-37.9	-39.0	21.8	0.00e+00	0	25	0	843055104	48	6421
2026-01-09 20:04:15.88	338.42	11.62	-37.7	-38.7	22.0	0.00e+00	0	25	0	845152256	48	6226
2026-01-09 20:04:16.89	338.25	11.58	-37.5	-38.6	22.1	0.00e+00	0	25	0	846200832	48	6128
2026-01-09 20:04:17.90	338.08	11.53	-37.4	-38.4	22.2	0.00e+00	0	25	0	848297984	48	6028
2026-01-09 20:04:18.91	337.91	11.49	-37.4	-38.4	22.4	0.00e+00	0	25	0	850395136	48	5988
2026-01-09 20:04:19.92	337.74	11.45	-36.9	-37.9	22.7	0.00e+00	0	25	0	852492288	48	5635
2026-01-09 20:04:20.93	337.58	11.40	-37.1	-38.1	22.6	0.00e+00	0	25	0	854589440	48	5769
2026-01-09 20:04:21.94	337.41	11.36	-37.1	-38.1	22.5	0.00e+00	0	25	0	855638016	48	5804
2026-01-09 20:04:22.95	337.24	11.32	-37.1	-38.1	22.5	0.00e+00	0	25	0	857735168	48	5812
2026-01-09 20:04:23.96	337.08	11.27	-37.4	-38.4	22.3	0.00e+00	0	25	0	859832320	48	5999
2026-01-09 20:04:24.97	336.91	11.23	-37.8	-38.9	21.9	0.00e+00	0	25	0	861929472	48	6327
2026-01-09 20:04:25.97	336.75	11.19	-38.2	-39.3	21.4	0.00e+00	0	25	0	864026624	48	6692
2026-01-09 20:04:26.98	336.58	11.14	-38.5	-39.7	21.0	0.00e+00	0	25	0	865075200	48	6976
2026-01-09 20:04:27.99	336.42	11.10	-38.9	-40.1	20.9	0.00e+00	0	25	0	867172352	50	6522
2026-01-09 20:04:29.00	336.25	11.05	-38.7	-39.9	21.0	0.00e+00	0	25	0	869269504	50	6357
2026-01-09 20:04:30.01	336.09	11.01	-39.1	-40.4	20.6	0.00e+00	0	25	0	871366656	50	6720
2026-01-09 20:04:31.02	335.93	10.96	-39.2	-40.4	20.7	0.00e+00	0	25	0	873463808	50	6746
2026-01-09 20:04:32.03	335.76	10.92	-38.9	-40.2	20.8	0.00e+00	0	25	0	875560960	50	6548
2026-01-09 20:04:33.04	335.60	10.87	-38.7	-39.9	21.0	0.00e+00	0	25	0	876609536	50	6376
2026-01-09 20:04:34.05	335.44	10.83	-38.7	-39.8	21.1	0.00e+00	0	25	0	878706688	50	6310
2026-01-09 20:04:35.06	335.28	10.78	-38.7	-39.8	21.1	0.00e+00	0	25	0	880803840	50	6301
2026-01-09 20:04:36.07	335.12	10.74	-38.4	-39.6	21.2	0.00e+00	0	25	0	882900992	50	6130
2026-01-09 20:04:37.07	334.96	10.69	-38.7	-39.9	21.0	0.00e+00	0	25	0	884998144	50	6380
2026-01-09 20:04:38.08	334.80	10.65	-38.8	-40.0	20.9	0.00e+00	0	25	0	886046720	50	6438
2026-01-09 20:04:39.09	334.64	10.60	-39.4	-40.7	20.3	0.00e+00	0	25	0	888143872	50	6932
2026-01-09 20:04:40.10	334.49	10.56	-39.8	-41.2	19.9	0.00e+00	0	25	0	890241024	52	6583
2026-01-09 20:04:41.11	334.33	10.51	-40.5	-42.1	19.0	0.00e+00	0	25	0	892338176	52	7307
2026-01-09 20:04:42.12	334.17	10.46	-41.0	-42.8	18.3	7.00e-07	0	25	0	894435328	54	7055
2026-01-09 20:04:43.13	334.01	10.42	-41.3	-43.1	18.1	0.00e+00	0	25	0	895483904	54	7298
2026-01-09 20:04:44.14	333.86	10.37	-41.7	-43.6	17.6	0.00e+00	0	25	0	897581056	54	7767
2026-01-09 20:04:45.15	333.70	10.33	-41.2	-43.0	18.2	0.00e+00	0	25	0	899678208	54	7183
2026-01-09 20:04:46.16	333.55	10.28	-40.8	-42.4	18.7	0.00e+00	0	25	0	901775360	54	6762
2026-01-09 20:04:47.17	333.39	10.23	-40.7	-42.3	18.9	0.00e+00	0	25	0	903872512	54	6635
2026-01-09 20:04:48.18	333.24	10.19	-40.7	-42.3	18.8	0.00e+00	0	25	0	904921088	54	6653
2026-01-09 20:04:49.19	333.09	10.14	-40.5	-42.0	19.1	0.00e+00	0	25	0	907018240	54	6429
2026-01-09 20:04:50.19	332.93	10.09	-40.6	-42.2	18.9	0.00e+00	0	25	0	909115392	54	6598
2026-01-09 20:04:51.20	332.78	10.04	-40.4	-41.9	19.1	0.00e+00	0	25	0	911212544	54	6373
2026-01-09 20:04:52.21	332.63	10.00	-40.2	-41.7	19.4	0.00e+00	0	25	0	913309696	54	6179
2026-01-09 20:04:53.22	332.48	9.95	-40.1	-41.5	19.5	0.00e+00	0	25	0	914358272	54	6069
2026-01-09 20:04:54.23	332.33	9.90	-39.9	-41.4	19.7	0.00e+00	0	25	0	916455424	54	5968
2026-01-09 20:04:55.24	332.18	9.85	-39.8	-41.2	19.9	0.00e+00	0	25	0	918552576	54	5852
2026-01-09 20:04:56.25	332.03	9.81	-39.7	-41.1	20.0	0.00e+00	0	25	0	920649728	52	6466
2026-01-09 20:04:57.26	331.88	9.76	-39.4	-40.7	20.3	0.00e+00	0	25	0	922746880	52	6209
2026-01-09 20:04:58.27	331.73	9.71	-39.3	-40.6	20.5	0.00e+00	0	25	0	923795456	52	6109
2026-01-09 20:04:59.28	331.58	9.66	-39.4	-40.7	20.2	0.00e+00	0	25	0	925892608	52	6230
2026-01-09 20:05:00.29	331.43	9.62	-39.6	-40.9	20.1	0.00e+00	0	25	0	927989760	52	6375
2026-01-09 20:05:01.30	331.28	9.57	-39.4	-40.7	20.4	0.00e+00	0	25	0	930086912	52	6234
2026-01-09 20:05:02.31	331.13	9.52	-39.5	-40.8	20.2	0.00e+00	0	25	0	932184064	52	6316
2026-01-09 20:05:03.32	330.99	9.47	-39.6	-41.0	20.1	0.00e+00	0	25	0	933232640	52	6410
2026-01-09 20:05:04.33	330.84	9.42	-39.4	-40.7	20.3	0.00e+00	0	25	0	935329792	52	6206
2026-01-09 20:05:05.33	330.70	9.37	-39.4	-40.6	20.4	0.00e+00	0	25	0	937426944	52	6155
2026-01-09 20:05:06.34	330.55	9.33	-39.5	-40.7	20.4	0.00e+00	0	25	0	939524096	52	6241
2026-01-09 20:05:07.35	330.41	9.28	-39.0	-40.2	20.8	0.00e+00	0	25	0	941621248	52	5836
2026-01-09 20:05:08.36	330.26	9.23	-38.9	-40.1	20.9	0.00e+00	0	25	0	943718400	52	5780
2026-01-09 20:05:09.37	330.12	9.18	-38.8	-40.0	20.9	0.00e+00	0	25	0	944766976	50	6418
2026-01-09 20:05:10.38	329.98	9.13	-38.7	-39.8	21.1	0.00e+00	0	25	0	946864128	50	6292
2026-01-09 20:05:11.39	329.83	9.08	-38.5	-39.7	21.2	0.00e+00	0	25	0	948961280	50	6200
2026-01-09 20:05:12.40	329.69	9.03	-38.5	-39.7	21.1	0.00e+00	0	25	0	951058432	50	6207
2026-01-09 20:05:13.41	329.55	8.98	-38.4	-39.6	21.2	0.00e+00	0	25	0	953155584	50	6107
2026-01-09 20:05:14.42	329.41	8.93	-38.3	-39.5	21.3	0.00e+00	0	25	0	954204160	50	6037
2026-01-09 20:05:15.43	329.27	8.88	-38.4	-39.6	21.1	0.00e+00	0	25	0	956301312	50	6118
2026-01-09 20:05:16.44	329.13	8.84	-38.5	-39.7	21.2	0.00e+00	0	25	0	958398464	50	6218
2026-01-09 20:05:17.45	328.99	8.79	-38.7	-39.8	21.0	0.00e+00	0	25	0	960495616	50	6309
2026-01-09 20:05:18.45	328.85	8.74	-38.7	-39.9	21.0	0.00e+00	0	25	0	962592768	50	6350
2026-01-09 20:05:19.46	328.71	8.69	-38.8	-40.0	20.8	0.00e+00	0	25	0	963641344	50	6391
2026-01-09 20:05:20.47	328.57	8.64	-38.8	-40.0	20.8	0.00e+00	0	25	0	965738496	50	6450
2026-01-09 20:05:21.48	328.43	8.59	-38.9	-40.1	20.7	0.00e+00	0	25	0	967835648	50	6511
2026-01-09 20:05:22.49	328.30	8.54	-39.0	-40.2	20.6	0.00e+00	0	25	0	969932800	50	6579
2026-01-09 20:05:23.50	328.16	8.49	-39.1	-40.4	20.6	0.00e+00	0	25	0	972029952	50	6699
2026-01-09 20:05:24.51	328.02	8.44	-39.1	-40.4	20.5	0.00e+00	0	25	0	973078528	50	6708
2026-01-09 20:05:25.51	327.89	8.39	-39.2	-40.4	20.5	0.00e+00	0	25	0	975175680	50	6748
2026-01-09 20:05:26.52	327.75	8.34	-39.1	-40.3	20.6	0.00e+00	0	25	0	977272832	50	6652
2026-01-09 20:05:27.53	327.62	8.29	-38.9	-40.1	20.6	0.00e+00	0	25	0	979369984	50	6511
2026-01-09 20:05:28.54	327.48	8.24	-38.8	-40.0	20.8	0.00e+00	0	25	0	981467136	50	6448
2026-01-09 20:05:29.55	327.35	8.19	-38.8	-40.0	20.6	0.00e+00	0	25	0	982515712	50	6464
2026-01-09 20:05:30.56	327.22	8.14	-38.8	-40.0	20.9	0.00e+00	0	25	0	984612864	50	6444
2026-01-09 20:05:31.57	327.08	8.09	-38.7	-39.9	20.9	0.00e+00	0	25	0	986710016	50	6360
2026-01-09 20:05:32.57	326.95	8.04	-38.7	-39.9	20.8	0.00e+00	0	25	0	988807168	50	6383
2026-01-09 20:05:33.58	326.82	7.99	-38.7	-39.9	20.9	0.00e+00	0	25	0	990904320	50	6345
2026-01-09 20:05:34.59	326.69	7.94	-38.6	-39.8	20.9	0.00e+00	0	25	0	991952896	50	6291
2026-01-09 20:05:35.61	326.56	7.89	-38.5	-39.6	21.2	0.00e+00	0	25	0	994050048	50	6169
2026-01-09 20:05:36.61	326.43	7.84	-38.5	-39.7	21.0	0.00e+00	0	25	0	996147200	50	6207
2026-01-09 20:05:37.62	326.30	7.79	-38.4	-39.5	21.2	0.00e+00	0	25	0	998244352	50	6086
2026-01-09 20:05:38.63	326.17	7.74	-38.2	-39.3	21.3	0.00e+00	0	25	0	1000341504	50	5925
2026-01-09 20:05:39.64	326.04	7.69	-37.9	-39.0	21.7	0.00e+00	0	25	0	1001390080	50	5749
2026-01-09 20:05:40.65	325.91	7.64	-37.7	-38.7	21.9	0.00e+00	0	25	0	1003487232	48	6220
2026-01-09 20:05:41.66	325.78	7.59	-37.5	-38.5	22.1	0.00e+00	0	25	0	1005584384	48	6061
2026-01-09 20:05:42.67	325.65	7.53	-37.4	-38.5	22.1	0.00e+00	0	25	0	1007681536	48	6039
2026-01-09 20:05:43.67	325.52	7.48	-37.3	-38.4	22.2	0.00e+00	0	25	0	1009778688	48	5976
2026-01-09 20:05:44.68	325.40	7.43	-37.4	-38.4	22.1	0.00e+00	0	25	0	1010827264	48	6029
2026-01-09 20:05:45.69	325.27	7.38	-37.3	-38.3	22.1	0.00e+00	0	25	0	1012924416	48	5906
2026-01-09 20:05:46.70	325.14	7.33	-37.4	-38.4	22.1	0.00e+00	0	25	0	1015021568	48	6033
2026-01-09 20:05:47.71	325.02	7.28	-37.6	-38.7	22.0	0.00e+00	0	25	0	1017118720	48	6174
2026-01-09 20:05:48.72	324.89	7.23	-37.7	-38.7	21.9	0.00e+00	0	25	0	1019215872	48	6228
2026-01-09 20:05:49.73	324.77	7.18	-37.7	-38.8	21.9	0.00e+00	0	25	0	1020264448	48	6249
2026-01-09 20:05:50.74	324.64	7.13	-37.6	-38.6	21.9	0.00e+00	0	25	0	1022361600	48	6163
2026-01-09 20:05:51.75	324.52	7.08	-37.8	-38.8	21.7	0.00e+00	0	25	0	1024458752	48	6300
2026-01-09 20:05:52.76	324.40	7.03	-37.6	-38.7	21.9	0.00e+00	0	25	0	1026555904	48	6178
2026-01-09 20:05:53.77	324.27	6.98	-37.5	-38.5	22.0	0.00e+00	0	25	0	1028653056	48	6102
2026-01-09 20:05:54.78	324.15	6.92	-37.3	-38.3	22.2	0.00e+00	0	25	0	1029701632	48	5930
2026-01-09 20:05:55.78	324.03	6.87	-37.3	-38.4	22.2	0.00e+00	0	25	0	1031798784	48	5966
2026-01-09 20:05:56.79	323.91	6.82	-37.4	-38.5	22.0	0.00e+00	0	25	0	1033895936	48	6063
2026-01-09 20:05:57.80	323.79	6.77	-37.2	-38.2	22.3	0.00e+00	0	25	0	1035993088	48	5851
2026-01-09 20:05:58.81	323.66	6.72	-37.4	-38.4	22.1	0.00e+00	0	25	0	1038090240	48	6026
2026-01-09 20:05:59.82	323.54	6.67	-37.4	-38.4	22.1	0.00e+00	0	25	0	1039138816	48	6003
2026-01-09 20:06:00.83	323.42	6.62	-37.5	-38.5	21.9	0.00e+00	0	25	0	1041235968	48	6077
2026-01-09 20:06:01.84	323.30	6.57	-37.6	-38.7	21.8	0.00e+00	0	25	0	1043333120	48	6213
2026-01-09 20:06:02.85	323.19	6.52	-37.7	-38.8	21.7	0.00e+00	0	25	0	1045430272	48	6300
2026-01-09 20:06:03.86	323.07	6.47	-37.8	-38.9	21.7	0.00e+00	0	25	0	1047527424	48	6328
2026-01-09 20:06:04.87	322.95	6.41	-37.9	-39.1	21.5	0.00e+00	0	25	0	1049624576	48	6479
2026-01-09 20:06:05.87	322.83	6.36	-38.1	-39.2	21.4	0.00e+00	0	25	0	1050673152	48	6581
2026-01-09 20:06:06.88	322.71	6.31	-38.1	-39.3	21.3	0.00e+00	0	25	0	1052770304	48	6641
2026-01-09 20:06:07.89	322.60	6.26	-38.3	-39.4	21.2	0.00e+00	0	25	0	1054867456	48	6744
2026-01-09 20:06:08.90	322.48	6.21	-38.2	-39.3	21.3	0.00e+00	0	25	0	1056964608	48	6681
2026-01-09 20:06:09.91	322.36	6.16	-38.2	-39.3	21.3	0.00e+00	0	25	0	1059061760	48	6669
2026-01-09 20:06:10.92	322.25	6.11	-38.3	-39.5	21.2	0.00e+00	0	25	0	1060110336	48	6790
2026-01-09 20:06:11.93	322.13	6.06	-38.4	-39.5	21.0	0.00e+00	0	25	0	1062207488	48	6840
2026-01-09 20:06:12.94	322.02	6.00	-38.4	-39.6	20.9	0.00e+00	0	25	0	1064304640	48	6896
2026-01-09 20:06:13.95	321.90	5.95	-38.5	-39.7	20.9	0.00e+00	0	25	0	1066401792	48	6941
2026-01-09 20:06:14.96	321.79	5.90	-38.6	-39.8	20.8	0.00e+00	0	25	0	1068498944	48	7022
2026-01-09 20:06:15.97	321.68	5.85	-38.5	-39.7	21.0	0.00e+00	0	25	0	1069547520	48	6946
2026-01-09 20:06:16.98	321.56	5.80	-38.5	-39.7	20.9	0.00e+00	0	25	0	1071644672	48	6963
2026-01-09 20:06:17.99	321.45	5.75	-38.5	-39.7	20.9	0.00e+00	0	25	0	1073741824	48	6934
2026-01-09 20:06:18.99	321.34	5.70	-38.4	-39.6	20.9	0.00e+00	0	25	0	1075838976	48	6881
2026-01-09 20:06:20.00	321.23	5.65	-38.4	-39.6	20.9	0.00e+00	0	25	0	1077936128	48	6878
2026-01-09 20:06:21.01	321.11	5.59	-38.3	-39.5	20.7	0.00e+00	0	25	0	1078984704	48	6798
2026-01-09 20:06:22.02	321.00	5.54	-38.2	-39.4	21.0	0.00e+00	0	25	0	1081081856	48	6720
2026-01-09 20:06:23.03	320.89	5.49	-38.4	-39.5	20.9	0.00e+00	0	25	0	1083179008	48	6833
2026-01-09 20:06:24.04	320.78	5.44	-38.3	-39.4	21.1	0.00e+00	0	25	0	1085276160	48	6756
2026-01-09 20:06:25.05	320.67	5.39	-38.2	-39.4	21.1	0.00e+00	0	25	0	1087373312	48	6737
2026-01-09 20:06:26.05	320.56	5.34	-37.9	-39.0	21.4	0.00e+00	0	25	0	1088421888	48	6409
2026-01-09 20:06:27.07	320.45	5.29	-37.9	-39.0	21.3	0.00e+00	0	25	0	1090519040	48	6400
2026-01-09 20:06:28.07	320.34	5.24	-37.7	-38.8	21.2	0.00e+00	0	25	0	1092616192	48	6298
2026-01-09 20:06:29.08	320.24	5.18	-37.9	-39.0	21.0	0.00e+00	0	25	0	1094713344	48	6446
2026-01-09 20:06:30.09	320.13	5.13	-37.7	-38.8	21.5	0.00e+00	0	25	0	1096810496	48	6312
2026-01-09 20:06:31.10	320.02	5.08	-37.7	-38.8	21.5	0.00e+00	0	25	0	1097859072	48	6308
2026-01-09 20:06:32.11	319.91	5.03	-37.9	-39.0	21.4	0.00e+00	0	25	0	1099956224	48	6431
2026-01-09 20:06:33.12	319.81	4.98	-38.2	-39.3	21.1	0.00e+00	0	25	0	1102053376	48	6687
2026-01-09 20:06:34.13	319.70	4.93	-38.1	-39.2	21.1	0.00e+00	0	25	0	1104150528	48	6593
2026-01-09 20:06:35.14	319.59	4.88	-38.2	-39.3	21.1	0.00e+00	0	25	0	1106247680	48	6675
2026-01-09 20:06:36.14	319.49	4.83	-38.3	-39.5	20.8	0.00e+00	0	25	0	1107296256	48	6844
2026-01-09 20:06:37.15	319.38	4.77	-38.6	-39.9	20.6	0.00e+00	0	25	0	1109393408	50	6330
2026-01-09 20:06:38.16	319.28	4.72	-38.9	-40.2	20.3	0.00e+00	0	25	0	1111490560	50	6591
2026-01-09 20:06:39.18	319.17	4.67	-39.2	-40.6	19.9	0.00e+00	0	25	0	1113587712	50	6884
2026-01-09 20:06:40.18	319.07	4.62	-38.7	-40.0	20.5	0.00e+00	0	25	0	1115684864	50	6394
2026-01-09 20:06:41.19	318.97	4.57	-38.9	-40.3	20.2	0.00e+00	0	25	0	1116733440	50	6618
2026-01-09 20:06:42.20	318.86	4.52	-39.0	-40.3	20.3	0.00e+00	0	25	0	1118830592	50	6627
2026-01-09 20:06:43.21	318.76	4.47	-39.2	-40.6	20.0	0.00e+00	0	25	0	1120927744	50	6872
2026-01-09 20:06:44.22	318.66	4.42	-38.7	-40.0	20.5	0.00e+00	0	25	0	1123024896	50	6416
2026-01-09 20:06:45.23	318.55	4.36	-38.9	-40.2	20.3	0.00e+00	0	25	0	1125122048	50	6564
2026-01-09 20:06:46.24	318.45	4.31	-38.5	-39.7	20.7	0.00e+00	0	25	0	1126170624	50	6184
2026-01-09 20:06:47.25	318.35	4.26	-38.4	-39.6	20.8	0.00e+00	0	25	0	1128267776	50	6108
2026-01-09 20:06:48.26	318.25	4.21	-38.5	-39.7	20.7	0.00e+00	0	25	0	1130364928	50	6194
2026-01-09 20:06:49.27	318.15	4.16	-38.5	-39.8	20.7	0.00e+00	0	25	0	1132462080	50	6255
2026-01-09 20:06:50.28	318.05	4.11	-38.2	-39.4	20.9	0.00e+00	0	25	0	1134559232	50	5998
2026-01-09 20:06:51.29	317.95	4.06	-37.8	-38.9	21.4	0.00e+00	0	25	0	1135607808	50	5694
2026-01-09 20:06:52.30	317.85	4.01	-37.8	-39.0	21.2	0.00e+00	0	25	0	1137704960	48	6400
2026-01-09 20:06:53.31	317.75	3.96	-38.1	-39.2	21.0	0.00e+00	0	25	0	1139802112	48	6610
2026-01-09 20:06:54.32	317.65	3.90	-37.9	-39.1	21.1	0.00e+00	0	25	0	1141899264	48	6481
2026-01-09 20:06:55.33	317.55	3.85	-37.9	-39.0	21.3	0.00e+00	0	25	0	1143996416	48	6426
2026-01-09 20:06:56.34	317.45	3.80	-37.8	-38.9	21.2	0.00e+00	0	25	0	1146093568	48	6371
2026-01-09 20:06:57.34	317.35	3.75	-37.9	-39.0	21.2	0.00e+00	0	25	0	1147142144	48	6409
2026-01-09 20:06:58.35	317.26	3.70	-37.9	-39.0	21.1	0.00e+00	0	25	0	1149239296	48	6443
2026-01-09 20:06:59.36	317.16	3.65	-38.1	-39.3	20.8	0.00e+00	0	25	0	1151336448	48	6670
2026-01-09 20:07:00.37	317.06	3.60	-38.6	-39.8	20.4	0.00e+00	0	25	0	1153433600	48	7075
2026-01-09 20:07:01.38	316.97	3.55	-38.4	-39.7	20.5	0.00e+00	0	25	0	1155530752	48	6947
2026-01-09 20:07:02.38	316.87	3.50	-39.0	-40.4	19.9	0.00e+00	0	25	0	1156579328	50	6706
2026-01-09 20:07:03.39	316.77	3.45	-39.0	-40.4	19.9	0.00e+00	0	25	0	1158676480	50	6700
2026-01-09 20:07:04.40	316.68	3.40	-39.1	-40.5	19.8	0.00e+00	0	25	0	1160773632	50	6798
2026-01-09 20:07:05.41	316.58	3.34	-39.4	-40.9	19.5	0.00e+00	0	25	0	1162870784	50	7113
2026-01-09 20:07:06.42	316.49	3.29	-39.8	-41.3	19.0	0.00e+00	0	25	0	1164967936	52	6684
2026-01-09 20:07:07.43	316.39	3.24	-39.9	-41.5	18.9	0.00e+00	0	25	0	1166016512	52	6805
2026-01-09 20:07:08.44	316.30	3.19	-40.0	-41.6	18.7	0.00e+00	0	25	0	1168113664	52	6876
2026-01-09 20:07:09.45	316.21	3.14	-40.2	-41.8	18.6	0.00e+00	0	25	0	1170210816	52	7087
2026-01-09 20:07:10.46	316.11	3.09	-40.2	-41.8	18.6	0.00e+00	0	25	0	1172307968	52	7049
2026-01-09 20:07:11.47	316.02	3.04	-40.4	-42.1	18.2	0.00e+00	0	25	0	1174405120	52	7284
2026-01-09 20:07:12.48	315.93	2.99	-44.1	-48.2	3.5	0.00e+00	0	25	0	1175453696	54	13052
2026-01-09 20:07:13.49	315.83	2.94	-47.2	-62.3	3.6	1.51e+00	0	25	104	1175453696	60	47176
2026-01-09 20:07:14.50	315.74	2.89	-47.5	-62.7	3.6	1.51e+00	0	25	104	1175453696	60	49466
2026-01-09 20:07:15.50	315.65	2.84	-47.8	-62.9	3.6	1.51e+00	0	25	104	1175453696	60	50595
2026-01-09 20:07:16.51	315.56	2.79	-47.9	-63.1	3.6	1.51e+00	0	25	104	1175453696	60	51695
2026-01-09 20:07:17.52	315.47	2.74	-48.0	-63.2	3.6	1.51e+00	0	25	104	1175453696	60	52011
2026-01-09 20:07:18.53	315.38	2.69	-48.0	-63.2	3.6	1.51e+00	0	25	104	1175453696	60	52378
2026-01-09 20:07:19.54	315.29	2.63	-48.0	-63.2	3.6	1.51e+00	0	25	104	1175453696	60	52150
2026-01-09 20:07:20.55	315.20	2.58	-48.1	-63.2	3.6	1.51e+00	0	25	104	1175453696	60	52308
2026-01-09 20:07:21.56	315.11	2.53	-48.0	-63.2	3.6	1.51e+00	0	25	104	1175453696	60	52440
2026-01-09 20:07:22.57	315.02	2.48	-47.6	-63.2	3.6	1.51e+00	0	25	104	1175453696	60	52230
2026-01-09 20:07:23.58	314.93	2.43	-47.8	-63.1	3.6	1.51e+00	0	25	104	1175453696	60	51932
2026-01-09 20:07:24.59	314.84	2.38	-47.9	-63.1	3.6	1.51e+00	0	25	104	1175453696	60	51862
2026-01-09 20:07:25.60	314.75	2.33	-47.9	-63.0	3.6	1.51e+00	0	25	104	1175453696	60	51292
