passes_logs/2026/01/09/R4.6S_Anadyr/R4.6S_Anadyr__20260109_085200_TY-39_rec.log

#Pass ID: 20260109_085200_TY-39
#Satellite: TY-39
#Configuration: TY-39
#almurnet v.1.7.20251203
#Start time: 2026-01-09 08:52:06

#Version: 2.2.20231116
#Station: R4.6S_Anadyr
#Location: 177.4865 lon 64.73178 lat
#TLE: 1 51832U 22019J   26008.63717204  .00005041  00000-0  23954-3 0  9995
#TLE: 2 51832  97.3653  75.4820 0010323  71.5647 288.6709 15.19611949213562

#Time	Az	El	Level	Level2	SNR	BER	BlckErr	Temp	State	Recorded	gain1	gain2
2026-01-09 08:52:06.02	160.73	0.34	-47.7	-58.4	3.5	8.44e-01	0	25	0	0	60	30162
2026-01-09 08:52:07.03	160.73	0.40	-48.1	-50.5	3.6	0.00e+00	0	26	104	0	60	41014
2026-01-09 08:52:08.04	160.74	0.47	-48.0	-50.5	3.6	0.00e+00	0	26	104	0	60	41100
2026-01-09 08:52:09.05	160.74	0.53	-48.1	-50.6	3.6	0.00e+00	0	26	104	0	60	41265
2026-01-09 08:52:10.05	160.75	0.60	-48.0	-50.5	3.7	0.00e+00	0	26	104	0	60	41159
2026-01-09 08:52:11.06	160.75	0.67	-48.0	-50.5	3.6	0.00e+00	0	27	104	0	60	40910
2026-01-09 08:52:12.07	160.76	0.73	-47.6	-50.2	3.6	0.00e+00	0	27	104	0	60	39520
2026-01-09 08:52:13.08	160.76	0.80	-47.6	-50.1	3.6	0.00e+00	0	27	104	0	60	39381
2026-01-09 08:52:14.09	160.77	0.87	-47.6	-50.1	3.6	0.00e+00	0	27	104	0	60	39182
2026-01-09 08:52:15.10	160.77	0.93	-47.4	-49.9	3.6	0.00e+00	0	27	104	0	60	38315
2026-01-09 08:52:16.11	160.78	1.00	-46.0	-48.4	3.6	0.00e+00	0	27	104	0	60	32364
2026-01-09 08:52:17.12	160.78	1.07	-46.7	-49.2	3.6	0.00e+00	0	27	104	0	60	35456
2026-01-09 08:52:18.13	160.79	1.14	-46.6	-49.1	3.6	0.00e+00	0	27	104	0	60	34956
2026-01-09 08:52:19.14	160.79	1.21	-46.6	-49.1	3.6	0.00e+00	0	27	104	0	60	34838
2026-01-09 08:52:20.15	160.80	1.27	-46.6	-49.1	3.6	0.00e+00	0	27	104	0	60	34865
2026-01-09 08:52:21.16	160.80	1.34	-46.6	-49.1	3.6	0.00e+00	0	27	104	0	60	34816
2026-01-09 08:52:22.17	160.81	1.41	-46.6	-49.1	3.6	0.00e+00	0	27	104	0	60	34888
2026-01-09 08:52:23.18	160.81	1.48	-46.6	-49.0	3.6	0.00e+00	0	27	104	0	60	34691
2026-01-09 08:52:24.19	160.82	1.55	-46.6	-49.1	3.6	0.00e+00	0	27	104	0	60	34740
2026-01-09 08:52:25.20	160.82	1.62	-46.6	-49.1	3.5	0.00e+00	0	27	104	0	60	34898
2026-01-09 08:52:26.21	160.83	1.69	-46.6	-49.1	3.6	0.00e+00	0	27	104	0	60	35006
2026-01-09 08:52:27.22	160.83	1.76	-46.6	-49.1	3.6	0.00e+00	0	27	104	0	60	34952
2026-01-09 08:52:28.23	160.84	1.83	-46.6	-49.1	3.6	0.00e+00	0	27	104	0	60	34863
2026-01-09 08:52:29.24	160.84	1.90	-46.6	-49.1	3.6	0.00e+00	0	27	104	0	60	34775
2026-01-09 08:52:30.25	160.85	1.97	-46.6	-49.1	3.6	0.00e+00	0	27	104	0	60	34871
2026-01-09 08:52:31.26	160.85	2.04	-46.6	-49.1	3.6	0.00e+00	0	27	104	0	60	34829
2026-01-09 08:52:32.27	160.86	2.11	-46.6	-49.1	3.6	0.00e+00	0	27	104	0	60	34898
2026-01-09 08:52:33.28	160.86	2.18	-46.6	-49.0	3.6	0.00e+00	0	27	104	0	60	34680
2026-01-09 08:52:34.29	160.87	2.26	-46.6	-49.1	3.6	0.00e+00	0	27	104	0	60	34860
2026-01-09 08:52:35.30	160.87	2.33	-46.6	-49.1	3.6	0.00e+00	0	27	104	0	60	34773
2026-01-09 08:52:36.31	160.88	2.40	-46.6	-49.1	3.6	0.00e+00	0	27	104	0	60	34850
2026-01-09 08:52:37.32	160.88	2.47	-46.6	-49.1	3.6	0.00e+00	0	27	104	0	60	34865
2026-01-09 08:52:38.33	160.89	2.55	-46.6	-49.0	3.6	0.00e+00	0	27	104	0	60	34716
2026-01-09 08:52:39.34	160.89	2.62	-46.6	-49.0	3.6	0.00e+00	0	27	104	0	60	34703
2026-01-09 08:52:40.35	160.90	2.69	-46.6	-49.1	3.6	0.00e+00	0	27	104	0	60	34737
2026-01-09 08:52:41.36	160.90	2.76	-46.6	-49.1	3.6	0.00e+00	0	27	104	0	60	34784
2026-01-09 08:52:42.37	160.91	2.84	-46.6	-49.1	3.6	0.00e+00	0	27	104	0	60	34729
2026-01-09 08:52:43.38	160.91	2.91	-46.6	-49.0	3.6	0.00e+00	0	27	104	0	60	34713
2026-01-09 08:52:44.39	160.92	2.99	-46.6	-49.0	3.6	0.00e+00	0	27	104	0	60	34693
2026-01-09 08:52:45.40	160.92	3.06	-46.6	-49.1	3.6	0.00e+00	0	28	104	0	60	34890
2026-01-09 08:52:46.40	160.93	3.13	-46.6	-49.1	3.5	0.00e+00	0	28	104	0	60	34743
2026-01-09 08:52:47.41	160.94	3.21	-46.6	-49.1	3.5	0.00e+00	0	27	104	0	60	34736
2026-01-09 08:52:48.42	160.94	3.28	-46.6	-49.0	3.6	0.00e+00	0	27	104	0	60	34578
2026-01-09 08:52:49.43	160.95	3.36	-46.6	-49.1	3.6	0.00e+00	0	27	104	0	60	34923
2026-01-09 08:52:50.44	160.95	3.44	-46.6	-49.0	3.6	0.00e+00	0	27	104	0	60	34628
2026-01-09 08:52:51.45	160.96	3.51	-46.6	-49.0	3.6	0.00e+00	0	27	104	0	60	34642
2026-01-09 08:52:52.46	160.96	3.59	-46.6	-49.0	3.6	0.00e+00	0	28	104	0	60	34672
2026-01-09 08:52:53.47	160.97	3.66	-46.6	-49.1	3.6	0.00e+00	0	28	104	0	60	34725
2026-01-09 08:52:54.48	160.97	3.74	-46.6	-49.1	3.6	0.00e+00	0	28	104	0	60	34848
2026-01-09 08:52:55.49	160.98	3.82	-46.6	-49.1	3.6	0.00e+00	0	28	104	0	60	34814
2026-01-09 08:52:56.50	160.98	3.90	-46.6	-49.0	3.6	0.00e+00	0	28	104	0	60	34712
2026-01-09 08:52:57.51	160.99	3.97	-46.6	-49.1	3.6	0.00e+00	0	28	104	0	60	34903
2026-01-09 08:52:58.52	160.99	4.05	-46.6	-49.1	3.6	0.00e+00	0	28	104	0	60	34798
2026-01-09 08:52:59.53	161.00	4.13	-46.6	-49.0	3.6	0.00e+00	0	28	104	0	60	34716
2026-01-09 08:53:00.54	161.01	4.21	-46.7	-49.1	3.6	0.00e+00	0	28	104	0	60	35006
2026-01-09 08:53:01.55	161.01	4.29	-46.7	-49.2	3.6	0.00e+00	0	28	104	0	60	35417
2026-01-09 08:53:02.56	161.02	4.37	-46.7	-49.1	3.6	0.00e+00	0	28	104	0	60	35034
2026-01-09 08:53:03.57	161.02	4.45	-46.6	-49.0	3.6	0.00e+00	0	28	104	0	60	34718
2026-01-09 08:53:04.57	161.03	4.53	-31.7	-32.0	9.8	0.00e+00	0	28	104	0	60	4854
2026-01-09 08:53:05.58	161.03	4.61	-41.9	-42.7	4.8	0.00e+00	0	28	104	0	60	16685
2026-01-09 08:53:06.59	161.04	4.69	-35.0	-35.3	9.7	2.10e-03	0	28	104	0	46	15958
2026-01-09 08:53:07.61	161.05	4.77	-33.1	-33.5	12.6	2.22e-04	0	28	0	67108864	42	16395
2026-01-09 08:53:08.61	161.05	4.85	-32.0	-32.4	13.5	1.38e-05	0	28	0	142606336	40	16099
2026-01-09 08:53:09.62	161.06	4.93	-30.8	-31.2	14.1	0.00e+00	0	28	0	218103808	38	15843
2026-01-09 08:53:10.63	161.06	5.01	-29.4	-29.9	14.8	0.00e+00	0	28	0	293601280	34	17057
2026-01-09 08:53:11.64	161.07	5.09	-28.8	-29.3	15.2	0.00e+00	0	28	0	369098752	34	15928
2026-01-09 08:53:12.65	161.07	5.18	-28.6	-29.1	15.3	0.00e+00	0	28	0	444596224	32	17401
2026-01-09 08:53:13.66	161.08	5.26	-28.1	-28.6	15.4	0.00e+00	0	28	0	520093696	32	16522
2026-01-09 08:53:14.67	161.09	5.34	-27.8	-28.3	15.6	0.00e+00	0	28	0	595591168	30	17819
2026-01-09 08:53:15.68	161.09	5.43	-28.1	-28.6	15.5	0.00e+00	0	28	0	671088640	30	18548
2026-01-09 08:53:16.69	161.10	5.51	-27.8	-28.3	15.6	0.00e+00	0	28	0	746586112	30	17889
2026-01-09 08:53:17.70	161.10	5.59	-27.6	-28.1	15.6	0.00e+00	0	28	0	822083584	30	17469
2026-01-09 08:53:18.71	161.11	5.68	-27.7	-28.2	15.6	0.00e+00	0	28	0	897581056	30	17677
2026-01-09 08:53:19.72	161.11	5.76	-28.0	-28.5	15.5	0.00e+00	0	28	0	973078528	30	18304
2026-01-09 08:53:20.72	161.12	5.85	-27.7	-28.2	15.7	0.00e+00	0	29	0	1048576000	30	17633
2026-01-09 08:53:21.73	161.13	5.93	-27.6	-28.1	15.7	0.00e+00	0	28	0	1124073472	30	17450
2026-01-09 08:53:22.74	161.13	6.02	-27.7	-28.2	15.7	0.00e+00	0	28	0	1199570944	30	17666
2026-01-09 08:53:23.75	161.14	6.11	-27.8	-28.3	15.6	0.00e+00	0	28	0	1275068416	30	17849
2026-01-09 08:53:24.75	161.14	6.19	-27.6	-28.0	15.7	0.00e+00	0	28	0	1350565888	30	17357
2026-01-09 08:53:25.76	161.15	6.28	-27.7	-28.2	15.7	0.00e+00	0	28	0	1426063360	30	17684
2026-01-09 08:53:26.77	161.16	6.37	-27.6	-28.0	15.8	0.00e+00	0	28	0	1501560832	30	17364
2026-01-09 08:53:27.79	161.16	6.46	-27.6	-28.0	15.8	0.00e+00	0	28	0	1577058304	30	17381
2026-01-09 08:53:28.80	161.17	6.55	-27.6	-28.1	15.8	0.00e+00	0	29	0	1652555776	30	17432
2026-01-09 08:53:29.80	161.17	6.63	-27.5	-28.0	15.8	0.00e+00	0	28	0	1728053248	30	17210
2026-01-09 08:53:30.81	161.18	6.72	-27.3	-27.8	15.8	0.00e+00	0	28	0	1803550720	30	16870
2026-01-09 08:53:31.82	161.19	6.81	-27.4	-27.8	15.9	0.00e+00	0	29	0	1879048192	30	16926
2026-01-09 08:53:32.83	161.19	6.90	-27.4	-27.8	15.9	0.00e+00	0	29	0	1954545664	30	16931
2026-01-09 08:53:33.84	161.20	6.99	-27.3	-27.7	15.9	0.00e+00	0	28	0	2030043136	30	16745
2026-01-09 08:53:34.84	161.20	7.08	-27.2	-27.7	15.9	0.00e+00	0	29	0	2105540608	30	16716
2026-01-09 08:53:35.85	161.21	7.18	-27.2	-27.6	15.9	0.00e+00	0	29	0	2181038080	30	16551
2026-01-09 08:53:36.86	161.22	7.27	-27.2	-27.6	15.9	0.00e+00	0	29	0	2256535552	30	16604
2026-01-09 08:53:37.87	161.22	7.36	-27.1	-27.6	15.9	0.00e+00	0	29	0	2332033024	30	16534
2026-01-09 08:53:38.88	161.23	7.45	-27.0	-27.4	15.9	0.00e+00	0	29	0	2407530496	30	16231
2026-01-09 08:53:39.89	161.24	7.55	-26.9	-27.4	15.9	0.00e+00	0	29	0	2491416576	30	16186
2026-01-09 08:53:40.90	161.24	7.64	-26.9	-27.4	15.8	0.00e+00	0	29	0	2566914048	30	16169
2026-01-09 08:53:41.90	161.25	7.73	-27.0	-27.4	15.8	0.00e+00	0	29	0	2634022912	30	16190
2026-01-09 08:53:42.91	161.25	7.83	-27.0	-27.4	15.9	0.00e+00	0	29	0	2709520384	30	16234
2026-01-09 08:53:43.92	161.26	7.92	-26.9	-27.4	15.9	0.00e+00	0	29	0	2785017856	30	16115
2026-01-09 08:53:44.93	161.27	8.02	-26.8	-27.3	16.0	0.00e+00	0	29	0	2860515328	30	15892
2026-01-09 08:53:45.95	161.27	8.12	-27.0	-27.4	15.9	0.00e+00	0	29	0	2944401408	30	16196
2026-01-09 08:53:46.95	161.28	8.21	-26.8	-27.2	16.1	0.00e+00	0	29	0	3019898880	30	15862
2026-01-09 08:53:47.96	161.29	8.31	-26.8	-27.2	16.0	0.00e+00	0	29	0	3095396352	28	17738
2026-01-09 08:53:48.97	161.29	8.41	-26.7	-27.1	16.1	0.00e+00	0	29	0	3170893824	28	17543
2026-01-09 08:53:49.98	161.30	8.50	-26.6	-27.1	16.1	0.00e+00	0	29	0	3238002688	28	17508
2026-01-09 08:53:50.99	161.31	8.60	-26.5	-27.0	16.0	0.00e+00	0	29	0	3321888768	28	17296
2026-01-09 08:53:52.00	161.31	8.70	-26.5	-27.0	16.1	0.00e+00	0	29	0	3397386240	28	17287
2026-01-09 08:53:53.01	161.32	8.80	-26.6	-27.1	16.1	0.00e+00	0	29	0	3472883712	28	17495
2026-01-09 08:53:54.02	161.33	8.90	-26.4	-26.9	16.1	0.00e+00	0	29	0	3548381184	28	17128
2026-01-09 08:53:55.03	161.33	9.00	-26.5	-27.0	16.1	0.00e+00	0	29	0	3623878656	28	17237
2026-01-09 08:53:56.04	161.34	9.10	-26.3	-26.8	16.2	0.00e+00	0	29	0	3699376128	28	16928
2026-01-09 08:53:57.05	161.35	9.21	-26.4	-26.9	16.1	0.00e+00	0	29	0	3774873600	28	17054
2026-01-09 08:53:58.05	161.35	9.31	-26.4	-26.9	16.2	0.00e+00	0	29	0	3850371072	28	17042
2026-01-09 08:53:59.06	161.36	9.41	-26.3	-26.7	16.2	0.00e+00	0	29	0	3925868544	28	16750
2026-01-09 08:54:00.07	161.37	9.51	-26.3	-26.7	16.1	0.00e+00	0	29	0	4001366016	28	16785
2026-01-09 08:54:01.08	161.37	9.62	-26.2	-26.7	16.2	0.00e+00	0	29	0	4076863488	28	16677
2026-01-09 08:54:02.09	161.38	9.72	-26.2	-26.6	16.2	0.00e+00	0	29	0	4152360960	28	16599
2026-01-09 08:54:03.10	161.39	9.83	-26.2	-26.7	16.2	0.00e+00	0	29	0	4227858432	28	16655
2026-01-09 08:54:04.11	161.39	9.93	-26.1	-26.5	16.3	0.00e+00	0	29	0	4303355904	28	16417
2026-01-09 08:54:05.12	161.40	10.04	-26.0	-26.5	16.3	0.00e+00	0	29	0	4378853376	28	16330
2026-01-09 08:54:06.13	161.41	10.15	-26.0	-26.5	16.3	0.00e+00	0	29	0	4454350848	28	16281
2026-01-09 08:54:07.13	161.41	10.25	-26.0	-26.5	16.4	0.00e+00	0	29	0	4529848320	28	16289
2026-01-09 08:54:08.14	161.42	10.36	-25.9	-26.4	16.3	0.00e+00	0	29	0	4605345792	28	16119
2026-01-09 08:54:09.16	161.43	10.47	-26.0	-26.4	16.3	0.00e+00	0	29	0	4680843264	28	16213
2026-01-09 08:54:10.16	161.44	10.58	-26.1	-26.6	16.3	0.00e+00	0	29	0	4756340736	28	16431
2026-01-09 08:54:11.17	161.44	10.69	-25.9	-26.4	16.3	0.00e+00	0	29	0	4831838208	28	16170
2026-01-09 08:54:12.18	161.45	10.80	-26.2	-26.6	16.2	0.00e+00	0	29	0	4907335680	28	16569
2026-01-09 08:54:13.19	161.46	10.91	-26.0	-26.5	16.3	0.00e+00	0	29	0	4982833152	28	16246
2026-01-09 08:54:14.20	161.46	11.03	-25.7	-26.1	16.4	0.00e+00	0	29	0	5058330624	26	17562
2026-01-09 08:54:15.20	161.47	11.14	-25.8	-26.2	16.3	0.00e+00	0	29	0	5133828096	26	17800
2026-01-09 08:54:16.21	161.48	11.25	-25.8	-26.2	16.4	0.00e+00	0	29	0	5209325568	26	17799
2026-01-09 08:54:17.22	161.49	11.37	-25.7	-26.2	16.3	0.00e+00	0	29	0	5284823040	26	17698
2026-01-09 08:54:18.23	161.49	11.48	-25.6	-26.0	16.4	0.00e+00	0	29	0	5360320512	26	17385
2026-01-09 08:54:19.24	161.50	11.60	-25.6	-26.1	16.5	0.00e+00	0	29	0	5435817984	26	17447
2026-01-09 08:54:20.25	161.51	11.71	-25.5	-26.0	16.4	0.00e+00	0	29	0	5511315456	26	17291
2026-01-09 08:54:21.26	161.52	11.83	-25.6	-26.1	16.3	0.00e+00	0	29	0	5586812928	26	17445
2026-01-09 08:54:22.27	161.52	11.95	-25.5	-26.0	16.4	0.00e+00	0	29	0	5662310400	26	17207
2026-01-09 08:54:23.28	161.53	12.07	-25.4	-25.9	16.4	0.00e+00	0	29	0	5737807872	26	17031
2026-01-09 08:54:24.29	161.54	12.19	-25.5	-26.0	16.3	0.00e+00	0	29	0	5821693952	26	17223
2026-01-09 08:54:25.30	161.55	12.31	-25.5	-26.0	16.3	0.00e+00	0	29	0	5897191424	26	17334
2026-01-09 08:54:26.31	161.56	12.43	-25.3	-25.8	16.4	0.00e+00	0	29	0	5964300288	26	16870
2026-01-09 08:54:27.32	161.56	12.55	-25.3	-25.8	16.5	0.00e+00	0	29	0	6039797760	26	16826
2026-01-09 08:54:28.33	161.57	12.67	-25.2	-25.7	16.5	0.00e+00	0	29	0	6115295232	26	16668
2026-01-09 08:54:29.34	161.58	12.80	-25.2	-25.7	16.5	0.00e+00	0	29	0	6199181312	26	16726
2026-01-09 08:54:30.35	161.59	12.92	-25.2	-25.7	16.5	0.00e+00	0	29	0	6274678784	26	16635
2026-01-09 08:54:31.35	161.59	13.05	-25.0	-25.5	16.5	0.00e+00	0	29	0	6350176256	26	16365
2026-01-09 08:54:32.37	161.60	13.17	-25.0	-25.5	16.6	0.00e+00	0	29	0	6425673728	26	16345
2026-01-09 08:54:33.37	161.61	13.30	-25.0	-25.5	16.5	0.00e+00	0	29	0	6492782592	26	16291
2026-01-09 08:54:34.38	161.62	13.43	-25.0	-25.5	16.5	0.00e+00	0	29	0	6568280064	26	16247
2026-01-09 08:54:35.39	161.63	13.56	-25.1	-25.5	16.5	0.00e+00	0	29	0	6652166144	26	16402
2026-01-09 08:54:36.40	161.63	13.69	-24.8	-25.3	16.6	0.00e+00	0	29	0	6727663616	26	15935
2026-01-09 08:54:37.41	161.64	13.82	-24.9	-25.4	16.6	0.00e+00	0	29	0	6803161088	26	16133
2026-01-09 08:54:38.42	161.65	13.95	-24.8	-25.3	16.6	0.00e+00	0	29	0	6878658560	26	16006
2026-01-09 08:54:39.43	161.66	14.08	-24.9	-25.4	16.5	0.00e+00	0	29	0	6954156032	26	16087
2026-01-09 08:54:40.44	161.67	14.21	-24.9	-25.3	16.6	0.00e+00	0	29	0	7029653504	26	15999
2026-01-09 08:54:41.45	161.68	14.35	-24.7	-25.1	16.6	0.00e+00	0	29	0	7105150976	24	17540
2026-01-09 08:54:42.46	161.69	14.48	-24.6	-25.1	16.6	0.00e+00	0	29	0	7180648448	24	17495
2026-01-09 08:54:43.47	161.69	14.62	-24.6	-25.1	16.6	0.00e+00	0	29	0	7256145920	24	17455
2026-01-09 08:54:44.48	161.70	14.76	-24.6	-25.0	16.6	0.00e+00	0	29	0	7331643392	24	17369
2026-01-09 08:54:45.49	161.71	14.90	-24.6	-25.0	16.6	0.00e+00	0	29	0	7407140864	24	17351
2026-01-09 08:54:46.50	161.72	15.03	-24.5	-25.0	16.6	0.00e+00	0	29	0	7482638336	24	17319
2026-01-09 08:54:47.51	161.73	15.18	-24.4	-24.9	16.6	0.00e+00	0	29	0	7558135808	24	17086
2026-01-09 08:54:48.52	161.74	15.32	-24.4	-24.9	16.7	0.00e+00	0	29	0	7633633280	24	17020
2026-01-09 08:54:49.53	161.75	15.46	-24.4	-24.8	16.7	0.00e+00	0	29	0	7709130752	24	16944
2026-01-09 08:54:50.54	161.76	15.60	-24.4	-24.9	16.7	0.00e+00	0	29	0	7784628224	24	17009
2026-01-09 08:54:51.55	161.76	15.75	-24.3	-24.7	16.7	0.00e+00	0	29	0	7860125696	24	16768
2026-01-09 08:54:52.56	161.77	15.89	-24.4	-24.9	16.7	0.00e+00	0	29	0	7935623168	24	17054
2026-01-09 08:54:53.57	161.78	16.04	-24.4	-24.9	16.6	0.00e+00	0	29	0	8011120640	24	17058
2026-01-09 08:54:54.57	161.79	16.19	-24.1	-24.6	16.7	0.00e+00	0	29	0	8086618112	24	16587
2026-01-09 08:54:55.58	161.80	16.34	-24.0	-24.5	16.7	0.00e+00	0	29	0	8162115584	24	16312
2026-01-09 08:54:56.59	161.81	16.49	-24.1	-24.5	16.7	0.00e+00	0	29	0	8237613056	24	16396
2026-01-09 08:54:57.60	161.82	16.64	-23.9	-24.4	16.8	0.00e+00	0	29	0	8313110528	24	16174
2026-01-09 08:54:58.61	161.83	16.79	-24.0	-24.4	16.7	0.00e+00	0	29	0	8388608000	24	16198
2026-01-09 08:54:59.61	161.84	16.94	-23.9	-24.4	16.8	0.00e+00	0	29	0	8464105472	24	16091
2026-01-09 08:55:00.62	161.85	17.10	-23.9	-24.4	16.7	0.00e+00	0	29	0	8539602944	24	16116
2026-01-09 08:55:01.63	161.86	17.26	-23.8	-24.3	16.7	0.00e+00	0	29	0	8615100416	24	15935
2026-01-09 08:55:02.64	161.87	17.41	-23.8	-24.3	16.8	0.00e+00	0	29	0	8690597888	24	15967
2026-01-09 08:55:03.64	161.88	17.57	-23.8	-24.3	16.7	0.00e+00	0	29	0	8766095360	24	15889
2026-01-09 08:55:04.65	161.89	17.73	-23.7	-24.2	16.7	0.00e+00	0	30	0	8841592832	22	17753
2026-01-09 08:55:05.66	161.90	17.89	-23.6	-24.1	16.8	0.00e+00	0	29	0	8917090304	22	17427
2026-01-09 08:55:06.67	161.91	18.06	-23.6	-24.1	16.8	0.00e+00	0	29	0	8992587776	22	17505
2026-01-09 08:55:07.68	161.92	18.22	-23.7	-24.2	16.8	0.00e+00	0	29	0	9068085248	22	17733
2026-01-09 08:55:08.69	161.93	18.39	-23.6	-24.1	16.8	0.00e+00	0	29	0	9151971328	22	17426
2026-01-09 08:55:09.69	161.94	18.55	-23.4	-23.9	16.9	0.00e+00	0	29	0	9219080192	22	17009
2026-01-09 08:55:10.70	161.95	18.72	-23.4	-23.9	16.8	0.00e+00	0	29	0	9294577664	22	17065
2026-01-09 08:55:11.71	161.96	18.89	-23.3	-23.8	16.9	0.00e+00	0	29	0	9370075136	22	16822
2026-01-09 08:55:12.72	161.97	19.07	-23.2	-23.7	16.9	0.00e+00	0	29	0	9445572608	22	16712
2026-01-09 08:55:13.73	161.98	19.24	-23.3	-23.7	16.8	0.00e+00	0	30	0	9521070080	22	16742
2026-01-09 08:55:14.74	161.99	19.42	-23.2	-23.7	16.9	0.00e+00	0	30	0	9604956160	22	16640
2026-01-09 08:55:15.75	162.00	19.59	-23.2	-23.6	16.9	0.00e+00	0	29	0	9680453632	22	16595
2026-01-09 08:55:16.76	162.01	19.77	-23.2	-23.7	16.9	0.00e+00	0	29	0	9755951104	22	16646
2026-01-09 08:55:17.77	162.02	19.95	-23.1	-23.5	17.0	0.00e+00	0	30	0	9823059968	22	16409
2026-01-09 08:55:18.77	162.04	20.13	-22.9	-23.4	16.9	0.00e+00	0	29	0	9898557440	22	16160
2026-01-09 08:55:19.78	162.05	20.31	-23.0	-23.5	16.9	0.00e+00	0	29	0	9974054912	22	16283
2026-01-09 08:55:20.79	162.06	20.50	-22.8	-23.3	16.9	0.00e+00	0	30	0	10057940992	22	15964
2026-01-09 08:55:21.80	162.07	20.68	-23.0	-23.4	16.9	0.00e+00	0	30	0	10133438464	22	16204
2026-01-09 08:55:22.81	162.08	20.87	-22.8	-23.3	17.0	0.00e+00	0	30	0	10208935936	22	15928
2026-01-09 08:55:23.82	162.09	21.06	-22.8	-23.2	16.9	0.00e+00	0	30	0	10284433408	22	15844
2026-01-09 08:55:24.83	162.11	21.26	-22.6	-23.1	17.0	0.00e+00	0	30	0	10351542272	20	17471
2026-01-09 08:55:25.84	162.12	21.45	-22.6	-23.1	16.9	0.00e+00	0	30	0	10435428352	20	17565
2026-01-09 08:55:26.85	162.13	21.65	-22.6	-23.0	17.0	0.00e+00	0	30	0	10510925824	20	17377
2026-01-09 08:55:27.85	162.14	21.84	-22.6	-23.1	16.9	0.00e+00	0	30	0	10586423296	20	17452
2026-01-09 08:55:28.86	162.15	22.04	-22.6	-23.0	17.0	0.00e+00	0	30	0	10661920768	20	17386
2026-01-09 08:55:29.87	162.17	22.24	-22.5	-22.9	17.0	0.00e+00	0	30	0	10737418240	20	17150
2026-01-09 08:55:30.88	162.18	22.45	-22.3	-22.8	17.0	0.00e+00	0	30	0	10812915712	20	16926
2026-01-09 08:55:31.89	162.19	22.65	-22.4	-22.9	16.9	0.00e+00	0	30	0	10888413184	20	17132
2026-01-09 08:55:32.90	162.20	22.86	-22.4	-22.9	17.0	0.00e+00	0	30	0	10963910656	20	17066
2026-01-09 08:55:33.91	162.22	23.07	-22.4	-22.9	17.0	0.00e+00	0	30	0	11039408128	20	17156
2026-01-09 08:55:34.91	162.23	23.28	-22.4	-22.9	17.0	0.00e+00	0	30	0	11114905600	20	17069
2026-01-09 08:55:35.92	162.24	23.49	-22.1	-22.6	17.0	0.00e+00	0	30	0	11190403072	20	16432
2026-01-09 08:55:36.93	162.26	23.71	-22.0	-22.5	17.0	0.00e+00	0	29	0	11265900544	20	16371
2026-01-09 08:55:37.94	162.27	23.93	-22.0	-22.5	17.0	0.00e+00	0	30	0	11341398016	20	16334
2026-01-09 08:55:38.95	162.29	24.15	-22.0	-22.5	17.0	0.00e+00	0	30	0	11416895488	20	16255
2026-01-09 08:55:39.96	162.30	24.37	-21.9	-22.4	17.1	0.00e+00	0	30	0	11492392960	20	16057
2026-01-09 08:55:40.97	162.31	24.60	-21.8	-22.3	17.1	0.00e+00	0	30	0	11567890432	20	15986
2026-01-09 08:55:41.98	162.33	24.82	-21.9	-22.4	17.0	0.00e+00	0	30	0	11643387904	20	16091
2026-01-09 08:55:42.99	162.34	25.05	-21.9	-22.3	17.1	0.00e+00	0	30	0	11718885376	20	16019
2026-01-09 08:55:43.99	162.36	25.28	-21.8	-22.3	17.0	0.00e+00	0	30	0	11794382848	20	15876
2026-01-09 08:55:45.00	162.37	25.52	-21.5	-22.0	17.2	0.00e+00	0	30	0	11869880320	18	17277
2026-01-09 08:55:46.01	162.39	25.76	-21.6	-22.1	17.1	0.00e+00	0	30	0	11945377792	18	17404
2026-01-09 08:55:47.02	162.40	26.00	-21.6	-22.0	17.1	0.00e+00	0	30	0	12020875264	18	17374
2026-01-09 08:55:48.03	162.42	26.24	-21.6	-22.1	17.0	0.00e+00	0	30	0	12096372736	18	17531
2026-01-09 08:55:49.04	162.43	26.49	-21.4	-21.8	17.1	0.00e+00	0	30	0	12171870208	18	17001
2026-01-09 08:55:50.05	162.45	26.73	-21.3	-21.8	17.1	0.00e+00	0	30	0	12247367680	18	16873
2026-01-09 08:55:51.05	162.46	26.98	-21.2	-21.7	17.1	0.00e+00	0	30	0	12322865152	18	16677
2026-01-09 08:55:52.06	162.48	27.24	-21.3	-21.8	17.1	0.00e+00	0	30	0	12398362624	18	16865
2026-01-09 08:55:53.07	162.50	27.49	-21.1	-21.6	17.1	0.00e+00	0	30	0	12473860096	18	16478
2026-01-09 08:55:54.08	162.51	27.75	-21.2	-21.7	17.1	0.00e+00	0	30	0	12549357568	18	16723
2026-01-09 08:55:55.10	162.53	28.02	-21.1	-21.6	17.1	0.00e+00	0	30	0	12624855040	18	16457
2026-01-09 08:55:56.10	162.55	28.28	-21.2	-21.7	17.1	0.00e+00	0	30	0	12700352512	18	16691
2026-01-09 08:55:57.11	162.56	28.55	-21.0	-21.4	17.2	0.00e+00	0	30	0	12775849984	18	16234
2026-01-09 08:55:58.12	162.58	28.82	-21.1	-21.6	17.2	0.00e+00	0	30	0	12851347456	18	16520
2026-01-09 08:55:59.13	162.60	29.10	-20.8	-21.2	17.2	0.00e+00	0	30	0	12926844928	18	15853
2026-01-09 08:56:00.14	162.62	29.37	-20.8	-21.3	17.1	0.00e+00	0	30	0	13010731008	16	17917
2026-01-09 08:56:01.15	162.64	29.66	-20.8	-21.2	17.1	0.00e+00	0	30	0	13077839872	16	17802
2026-01-09 08:56:02.16	162.66	29.94	-20.6	-21.0	17.1	0.00e+00	0	30	0	13153337344	16	17373
2026-01-09 08:56:03.17	162.67	30.23	-20.6	-21.1	17.1	0.00e+00	0	30	0	13228834816	16	17496
2026-01-09 08:56:04.17	162.69	30.52	-20.6	-21.1	17.1	0.00e+00	0	30	0	13304332288	16	17544
2026-01-09 08:56:05.18	162.71	30.81	-20.7	-21.1	17.2	0.00e+00	0	30	0	13379829760	16	17597
2026-01-09 08:56:06.19	162.73	31.11	-20.5	-21.0	17.1	0.00e+00	0	30	0	13463715840	16	17241
2026-01-09 08:56:07.20	162.75	31.42	-20.3	-20.8	17.2	0.00e+00	0	30	0	13539213312	16	16873
2026-01-09 08:56:08.21	162.77	31.72	-20.4	-20.8	17.2	0.00e+00	0	30	0	13614710784	16	16994
2026-01-09 08:56:09.21	162.80	32.03	-20.2	-20.7	17.2	0.00e+00	0	30	0	13681819648	16	16625
2026-01-09 08:56:10.23	162.82	32.35	-20.1	-20.6	17.1	0.00e+00	0	30	0	13757317120	16	16510
2026-01-09 08:56:11.23	162.84	32.66	-20.1	-20.6	17.2	0.00e+00	0	30	0	13832814592	16	16564
2026-01-09 08:56:12.25	162.86	32.98	-20.2	-20.6	17.2	0.00e+00	0	30	0	13916700672	16	16600
2026-01-09 08:56:13.25	162.88	33.31	-20.1	-20.5	17.2	0.00e+00	0	30	0	13992198144	16	16389
2026-01-09 08:56:14.26	162.91	33.64	-20.0	-20.5	17.3	0.00e+00	0	30	0	14067695616	16	16314
2026-01-09 08:56:15.27	162.93	33.97	-19.9	-20.4	17.2	0.00e+00	0	30	0	14143193088	16	16139
2026-01-09 08:56:16.28	162.95	34.31	-19.9	-20.4	17.3	0.00e+00	0	30	0	14210301952	16	16084
2026-01-09 08:56:17.29	162.98	34.65	-19.9	-20.3	17.2	0.00e+00	0	30	0	14294188032	16	16034
2026-01-09 08:56:18.30	163.00	35.00	-19.7	-20.2	17.2	0.00e+00	0	30	0	14369685504	14	17630
2026-01-09 08:56:19.31	163.03	35.35	-19.7	-20.2	17.2	0.00e+00	0	30	0	14445182976	14	17655
2026-01-09 08:56:20.32	163.05	35.71	-19.5	-20.0	17.3	0.00e+00	0	30	0	14520680448	14	17244
2026-01-09 08:56:21.33	163.08	36.07	-19.5	-19.9	17.2	0.00e+00	0	30	0	14596177920	14	17197
2026-01-09 08:56:22.33	163.11	36.43	-19.5	-19.9	17.2	0.00e+00	0	30	0	14671675392	14	17178
2026-01-09 08:56:23.34	163.13	36.80	-19.5	-19.9	17.2	0.00e+00	0	30	0	14747172864	14	17178
2026-01-09 08:56:24.35	163.16	37.18	-19.4	-19.9	17.2	0.00e+00	0	30	0	14822670336	14	17132
2026-01-09 08:56:25.36	163.19	37.56	-19.3	-19.8	17.3	0.00e+00	0	30	0	14898167808	14	16926
2026-01-09 08:56:26.37	163.22	37.94	-19.3	-19.7	17.2	0.00e+00	0	30	0	14973665280	14	16778
2026-01-09 08:56:27.38	163.25	38.33	-19.3	-19.8	17.2	0.00e+00	0	30	0	15049162752	14	16820
2026-01-09 08:56:28.39	163.28	38.73	-19.1	-19.5	17.3	0.00e+00	0	30	0	15124660224	14	16425
2026-01-09 08:56:29.40	163.31	39.13	-19.0	-19.5	17.2	0.00e+00	0	30	0	15200157696	14	16263
2026-01-09 08:56:30.41	163.34	39.53	-19.0	-19.5	17.3	0.00e+00	0	30	0	15275655168	14	16279
2026-01-09 08:56:31.42	163.37	39.94	-18.8	-19.3	17.2	0.00e+00	0	30	0	15351152640	14	15935
2026-01-09 08:56:32.43	163.41	40.36	-18.7	-19.2	17.3	0.00e+00	0	30	0	15426650112	12	17722
2026-01-09 08:56:33.43	163.44	40.78	-18.8	-19.3	17.2	0.00e+00	0	30	0	15502147584	12	17816
2026-01-09 08:56:34.44	163.48	41.21	-18.7	-19.1	17.3	0.00e+00	0	30	0	15577645056	12	17597
2026-01-09 08:56:35.45	163.51	41.64	-18.7	-19.1	17.2	0.00e+00	0	30	0	15653142528	12	17581
2026-01-09 08:56:36.46	163.55	42.08	-18.7	-19.1	17.3	0.00e+00	0	30	0	15728640000	12	17600
2026-01-09 08:56:37.47	163.59	42.53	-18.4	-18.9	17.2	0.00e+00	0	30	0	15804137472	12	17151
2026-01-09 08:56:38.48	163.62	42.98	-18.5	-19.0	17.3	0.00e+00	0	30	0	15879634944	12	17209
2026-01-09 08:56:39.49	163.66	43.44	-18.4	-18.9	17.3	0.00e+00	0	30	0	15955132416	12	17062
2026-01-09 08:56:40.50	163.71	43.90	-18.2	-18.7	17.3	0.00e+00	0	30	0	16030629888	12	16730
2026-01-09 08:56:41.51	163.75	44.37	-18.3	-18.7	17.4	0.00e+00	0	30	0	16106127360	12	16799
2026-01-09 08:56:42.52	163.79	44.85	-18.1	-18.6	17.3	0.00e+00	0	30	0	16181624832	12	16536
2026-01-09 08:56:43.53	163.83	45.34	-18.1	-18.6	17.3	0.00e+00	0	30	0	16257122304	12	16517
2026-01-09 08:56:44.54	163.88	45.83	-18.1	-18.6	17.3	0.00e+00	0	30	0	16341008384	12	16533
2026-01-09 08:56:45.55	163.93	46.32	-17.9	-18.4	17.3	0.00e+00	0	30	0	16408117248	12	16198
2026-01-09 08:56:46.55	163.98	46.82	-18.0	-18.5	17.3	0.00e+00	0	30	0	16483614720	12	16259
2026-01-09 08:56:47.56	164.03	47.33	-17.8	-18.3	17.3	0.00e+00	0	30	0	16559112192	12	15884
2026-01-09 08:56:48.57	164.08	47.85	-17.8	-18.3	17.3	0.00e+00	0	30	0	16634609664	12	15994
2026-01-09 08:56:49.58	164.13	48.37	-17.9	-18.4	17.3	0.00e+00	0	30	0	16710107136	12	16057
2026-01-09 08:56:50.59	164.19	48.91	-17.8	-18.3	17.3	0.00e+00	0	30	0	16793993216	12	15920
2026-01-09 08:56:51.60	164.24	49.44	-17.9	-18.4	17.3	0.00e+00	0	30	0	16869490688	12	16096
2026-01-09 08:56:52.60	164.30	49.99	-17.6	-18.1	17.3	0.00e+00	0	30	0	16936599552	10	17444
2026-01-09 08:56:53.61	164.36	50.54	-17.4	-17.9	17.3	0.00e+00	0	30	0	17012097024	10	17067
2026-01-09 08:56:54.62	164.43	51.10	-17.5	-18.0	17.3	0.00e+00	0	30	0	17087594496	10	17256
2026-01-09 08:56:55.63	164.49	51.67	-17.4	-17.9	17.3	0.00e+00	0	30	0	17163091968	10	17125
2026-01-09 08:56:56.64	164.56	52.24	-17.3	-17.8	17.3	0.00e+00	0	30	0	17246978048	10	16876
2026-01-09 08:56:57.65	164.63	52.83	-17.3	-17.8	17.4	0.00e+00	0	30	0	17322475520	10	16822
2026-01-09 08:56:58.66	164.70	53.42	-17.3	-17.7	17.3	0.00e+00	0	30	0	17397972992	10	16806
2026-01-09 08:56:59.67	164.78	54.01	-17.1	-17.6	17.4	0.00e+00	0	30	0	17473470464	10	16452
2026-01-09 08:57:00.68	164.86	54.62	-17.0	-17.5	17.3	0.00e+00	0	30	0	17540579328	10	16413
2026-01-09 08:57:01.69	164.94	55.23	-17.0	-17.4	17.4	0.00e+00	0	30	0	17624465408	10	16209
2026-01-09 08:57:02.70	165.03	55.86	-17.0	-17.4	17.3	0.00e+00	0	30	0	17699962880	10	16238
2026-01-09 08:57:03.71	165.12	56.49	-16.9	-17.3	17.3	0.00e+00	0	30	0	17775460352	10	16026
2026-01-09 08:57:04.72	165.21	57.12	-16.8	-17.3	17.3	0.00e+00	0	30	0	17850957824	10	15921
2026-01-09 08:57:05.73	165.31	57.77	-16.7	-17.2	17.3	0.00e+00	0	30	0	17926455296	8	17696
2026-01-09 08:57:06.74	165.42	58.42	-16.7	-17.2	17.4	0.00e+00	0	30	0	18001952768	8	17637
2026-01-09 08:57:07.75	165.53	59.08	-16.6	-17.1	17.3	0.00e+00	0	30	0	18077450240	8	17522
2026-01-09 08:57:08.76	165.64	59.75	-16.6	-17.1	17.3	0.00e+00	0	30	0	18152947712	8	17486
2026-01-09 08:57:09.76	165.76	60.42	-16.6	-17.1	17.3	0.00e+00	0	30	0	18228445184	8	17477
2026-01-09 08:57:10.77	165.89	61.10	-16.6	-17.1	17.4	0.00e+00	0	30	0	18303942656	8	17412
2026-01-09 08:57:11.78	166.02	61.79	-16.6	-17.1	17.3	0.00e+00	0	30	0	18379440128	8	17451
2026-01-09 08:57:12.79	166.16	62.49	-16.5	-16.9	17.4	0.00e+00	0	30	0	18454937600	8	17184
2026-01-09 08:57:13.80	166.31	63.20	-16.5	-17.0	17.3	0.00e+00	0	30	0	18530435072	8	17209
2026-01-09 08:57:14.81	166.47	63.91	-16.3	-16.8	17.4	0.00e+00	0	30	0	18605932544	8	16911
2026-01-09 08:57:15.82	166.64	64.64	-16.4	-16.8	17.4	0.00e+00	0	30	0	18681430016	8	16977
2026-01-09 08:57:16.83	166.82	65.37	-16.2	-16.7	17.3	0.00e+00	0	30	0	18756927488	8	16635
2026-01-09 08:57:17.84	167.01	66.10	-16.2	-16.7	17.3	0.00e+00	0	30	0	18832424960	8	16729
2026-01-09 08:57:18.85	167.22	66.85	-16.2	-16.7	17.3	0.00e+00	0	30	0	18907922432	8	16627
2026-01-09 08:57:19.85	167.43	67.59	-16.1	-16.6	17.4	0.00e+00	0	30	0	18983419904	8	16489
2026-01-09 08:57:20.86	167.67	68.35	-16.0	-16.5	17.4	0.00e+00	0	30	0	19058917376	8	16341
2026-01-09 08:57:21.87	167.93	69.11	-16.1	-16.6	17.4	0.00e+00	0	30	0	19134414848	8	16547
2026-01-09 08:57:22.88	168.20	69.88	-15.9	-16.4	17.4	0.00e+00	0	30	0	19209912320	8	16141
2026-01-09 08:57:23.89	168.50	70.66	-16.0	-16.5	17.4	0.00e+00	0	30	0	19285409792	8	16276
2026-01-09 08:57:24.90	168.83	71.44	-15.8	-16.3	17.4	0.00e+00	0	30	0	19360907264	8	15975
2026-01-09 08:57:25.91	169.18	72.23	-16.0	-16.4	17.3	0.00e+00	0	30	0	19436404736	8	16237
2026-01-09 08:57:26.92	169.58	73.02	-15.8	-16.3	17.4	0.00e+00	0	30	0	19511902208	8	15926
2026-01-09 08:57:27.93	170.01	73.82	-16.0	-16.5	17.4	0.00e+00	0	30	0	19587399680	8	16288
2026-01-09 08:57:28.94	170.49	74.62	-16.0	-16.4	17.4	0.00e+00	0	30	0	19662897152	8	16225
2026-01-09 08:57:29.95	171.02	75.43	-15.8	-16.3	17.4	0.00e+00	0	30	0	19738394624	8	15941
2026-01-09 08:57:30.96	171.62	76.24	-15.7	-16.2	17.4	0.00e+00	0	30	0	19813892096	6	17720
2026-01-09 08:57:31.96	172.29	77.05	-15.7	-16.2	17.4	0.00e+00	0	30	0	19889389568	6	17622
2026-01-09 08:57:32.97	173.06	77.87	-15.7	-16.2	17.4	0.00e+00	0	30	0	19964887040	6	17739
2026-01-09 08:57:33.98	173.94	78.69	-15.6	-16.1	17.4	0.00e+00	0	30	0	20040384512	6	17437
2026-01-09 08:57:34.99	174.96	79.51	-15.6	-16.1	17.3	0.00e+00	0	30	0	20124270592	6	17469
2026-01-09 08:57:36.00	176.16	80.33	-15.7	-16.2	17.4	0.00e+00	0	30	0	20199768064	6	17631
2026-01-09 08:57:37.01	177.59	81.15	-15.6	-16.1	17.3	0.00e+00	0	30	0	20266876928	6	17415
2026-01-09 08:57:38.01	179.29	81.96	-15.6	-16.0	17.3	0.00e+00	0	30	0	20342374400	6	17382
2026-01-09 08:57:39.02	181.40	82.77	-15.5	-16.0	17.3	0.00e+00	0	30	0	20417871872	6	17261
2026-01-09 08:57:40.03	184.04	83.57	-15.6	-16.1	17.4	0.00e+00	0	30	0	20493369344	6	17462
2026-01-09 08:57:41.04	187.43	84.36	-15.6	-16.1	17.4	0.00e+00	0	30	0	20577255424	6	17402
2026-01-09 08:57:42.05	191.90	85.12	-15.5	-16.0	17.4	0.00e+00	0	30	0	20652752896	6	17217
2026-01-09 08:57:43.06	197.98	85.84	-15.6	-16.0	17.4	0.00e+00	0	30	0	20728250368	6	17355
2026-01-09 08:57:44.07	206.49	86.50	-15.4	-15.9	17.4	0.00e+00	0	30	0	20795359232	6	17093
2026-01-09 08:57:45.08	218.52	87.05	-15.4	-15.9	17.4	0.00e+00	0	30	0	20870856704	6	17117
2026-01-09 08:57:46.09	234.94	87.42	-15.5	-15.9	17.4	0.00e+00	0	30	0	20954742784	6	17188
2026-01-09 08:57:47.10	254.58	87.52	-15.4	-15.9	17.4	0.00e+00	0	30	0	21030240256	6	17175
2026-01-09 08:57:48.11	273.55	87.33	-15.5	-16.0	17.4	0.00e+00	0	30	0	21105737728	6	17331
2026-01-09 08:57:49.11	288.47	86.90	-15.5	-16.0	17.4	0.00e+00	0	30	0	21181235200	6	17327
2026-01-09 08:57:50.12	299.33	86.31	-15.6	-16.0	17.3	0.00e+00	0	30	0	21256732672	6	17345
2026-01-09 08:57:51.13	307.00	85.63	-15.5	-16.0	17.4	0.00e+00	0	30	0	21332230144	6	17287
2026-01-09 08:57:52.14	312.53	84.90	-15.5	-16.0	17.5	0.00e+00	0	30	0	21407727616	6	17270
2026-01-09 08:57:53.15	316.64	84.13	-15.5	-16.0	17.4	0.00e+00	0	30	0	21483225088	6	17239
2026-01-09 08:57:54.16	319.78	83.34	-15.5	-16.0	17.4	0.00e+00	0	30	0	21558722560	6	17325
2026-01-09 08:57:55.17	322.24	82.53	-15.7	-16.2	17.4	0.00e+00	0	30	0	21634220032	6	17665
2026-01-09 08:57:56.18	324.22	81.72	-15.5	-16.0	17.5	0.00e+00	0	30	0	21709717504	6	17314
2026-01-09 08:57:57.19	325.84	80.90	-15.5	-16.0	17.4	0.00e+00	0	30	0	21785214976	6	17334
2026-01-09 08:57:58.19	327.18	80.09	-15.7	-16.2	17.3	0.00e+00	0	30	0	21860712448	6	17702
2026-01-09 08:57:59.20	328.32	79.27	-15.6	-16.1	17.4	0.00e+00	0	30	0	21936209920	6	17528
2026-01-09 08:58:00.21	329.30	78.45	-15.8	-16.2	17.4	0.00e+00	0	30	0	22011707392	6	17796
2026-01-09 08:58:01.22	330.14	77.63	-15.7	-16.2	17.4	0.00e+00	0	30	0	22087204864	6	17687
2026-01-09 08:58:02.22	330.88	76.82	-15.8	-16.3	17.4	0.00e+00	0	30	0	22162702336	6	17865
2026-01-09 08:58:03.23	331.53	76.01	-15.8	-16.3	17.4	0.00e+00	0	30	0	22238199808	6	17861
2026-01-09 08:58:04.24	332.10	75.20	-15.7	-16.2	17.4	0.00e+00	0	30	0	22313697280	6	17731
2026-01-09 08:58:05.25	332.62	74.40	-15.8	-16.3	17.4	0.00e+00	0	30	0	22389194752	6	17905
2026-01-09 08:58:06.26	333.08	73.59	-15.8	-16.3	17.4	0.00e+00	0	30	0	22464692224	6	17931
2026-01-09 08:58:07.27	333.50	72.80	-15.8	-16.3	17.4	0.00e+00	0	30	0	22540189696	6	17928
2026-01-09 08:58:08.28	333.88	72.01	-15.9	-16.4	17.4	0.00e+00	0	30	0	22615687168	6	18039
2026-01-09 08:58:09.29	334.23	71.22	-16.1	-16.6	17.3	0.00e+00	0	30	0	22691184640	6	18496
2026-01-09 08:58:10.30	334.55	70.44	-16.1	-16.5	17.5	0.00e+00	0	30	0	22766682112	6	18420
2026-01-09 08:58:11.31	334.84	69.67	-16.0	-16.5	17.4	0.00e+00	0	30	0	22842179584	6	18280
2026-01-09 08:58:12.32	335.11	68.90	-16.2	-16.6	17.4	0.00e+00	0	30	0	22917677056	6	18605
2026-01-09 08:58:13.33	335.36	68.14	-16.1	-16.6	17.3	0.00e+00	0	30	0	22993174528	6	18452
2026-01-09 08:58:14.34	335.59	67.39	-16.2	-16.7	17.4	0.00e+00	0	30	0	23068672000	6	18769
2026-01-09 08:58:15.35	335.81	66.64	-16.1	-16.6	17.4	0.00e+00	0	30	0	23144169472	6	18570
2026-01-09 08:58:16.36	336.01	65.90	-16.2	-16.7	17.3	0.00e+00	0	30	0	23219666944	6	18779
2026-01-09 08:58:17.37	336.20	65.17	-16.3	-16.7	17.4	0.00e+00	0	30	0	23295164416	6	18805
2026-01-09 08:58:18.37	336.37	64.45	-16.3	-16.7	17.4	0.00e+00	0	30	0	23370661888	6	18847
2026-01-09 08:58:19.38	336.54	63.73	-16.4	-16.9	17.3	0.00e+00	0	30	0	23446159360	6	19182
2026-01-09 08:58:20.39	336.69	63.02	-16.6	-17.1	17.3	0.00e+00	0	30	0	23521656832	6	19534
2026-01-09 08:58:21.40	336.84	62.32	-16.6	-17.0	17.4	0.00e+00	0	30	0	23597154304	6	19522
2026-01-09 08:58:22.41	336.98	61.62	-16.5	-17.0	17.4	0.00e+00	0	30	0	23672651776	6	19359
2026-01-09 08:58:23.42	337.11	60.94	-16.5	-17.0	17.4	0.00e+00	0	30	0	23748149248	6	19422
2026-01-09 08:58:24.43	337.24	60.26	-16.7	-17.2	17.3	0.00e+00	0	30	0	23823646720	6	19759
2026-01-09 08:58:25.44	337.35	59.58	-16.6	-17.1	17.4	0.00e+00	0	30	0	23907532800	6	19695
2026-01-09 08:58:26.45	337.47	58.92	-16.8	-17.2	17.4	0.00e+00	0	30	0	23983030272	6	19933
2026-01-09 08:58:27.46	337.58	58.26	-16.8	-17.2	17.4	0.00e+00	0	30	0	24058527744	8	17774
2026-01-09 08:58:28.47	337.68	57.62	-16.9	-17.3	17.4	0.00e+00	0	30	0	24125636608	8	17999
2026-01-09 08:58:29.47	337.77	56.98	-16.9	-17.4	17.4	0.00e+00	0	30	0	24201134080	8	18190
2026-01-09 08:58:30.48	337.87	56.35	-17.0	-17.4	17.4	0.00e+00	0	30	0	24276631552	8	18159
2026-01-09 08:58:31.49	337.96	55.72	-17.0	-17.5	17.3	0.00e+00	0	30	0	24360517632	8	18231
2026-01-09 08:58:32.50	338.04	55.10	-17.1	-17.5	17.4	0.00e+00	0	30	0	24436015104	8	18402
2026-01-09 08:58:33.51	338.12	54.49	-17.1	-17.6	17.3	0.00e+00	0	30	0	24511512576	8	18514
2026-01-09 08:58:34.52	338.20	53.89	-17.2	-17.7	17.3	0.00e+00	0	30	0	24587010048	8	18723
2026-01-09 08:58:35.53	338.28	53.30	-17.2	-17.7	17.3	0.00e+00	0	30	0	24654118912	8	18681
2026-01-09 08:58:36.53	338.35	52.72	-17.4	-17.9	17.4	0.00e+00	0	30	0	24729616384	8	19112
2026-01-09 08:58:37.54	338.42	52.14	-17.4	-17.9	17.3	0.00e+00	0	30	0	24813502464	8	19236
2026-01-09 08:58:38.55	338.49	51.57	-17.7	-18.1	17.4	0.00e+00	0	30	0	24888999936	8	19720
2026-01-09 08:58:39.56	338.55	51.00	-17.5	-18.0	17.4	0.00e+00	0	30	0	24964497408	8	19425
2026-01-09 08:58:40.57	338.62	50.45	-17.6	-18.1	17.3	0.00e+00	0	30	0	25039994880	8	19692
2026-01-09 08:58:41.57	338.68	49.90	-17.6	-18.1	17.4	0.00e+00	0	30	0	25115492352	8	19688
2026-01-09 08:58:42.58	338.74	49.36	-17.7	-18.2	17.3	0.00e+00	0	30	0	25190989824	8	19770
2026-01-09 08:58:43.59	338.79	48.82	-17.9	-18.4	17.3	0.00e+00	0	30	0	25266487296	10	18037
2026-01-09 08:58:44.60	338.85	48.30	-17.8	-18.3	17.3	0.00e+00	0	30	0	25341984768	10	17903
2026-01-09 08:58:45.61	338.90	47.77	-18.0	-18.5	17.4	0.00e+00	0	30	0	25417482240	10	18345
2026-01-09 08:58:46.61	338.95	47.27	-18.0	-18.5	17.4	0.00e+00	0	30	0	25492979712	10	18245
2026-01-09 08:58:47.62	339.00	46.76	-18.1	-18.6	17.3	0.00e+00	0	30	0	25568477184	10	18505
2026-01-09 08:58:48.63	339.05	46.26	-18.2	-18.6	17.4	0.00e+00	0	30	0	25643974656	10	18600
2026-01-09 08:58:49.64	339.10	45.76	-18.2	-18.6	17.4	0.00e+00	0	30	0	25719472128	10	18611
2026-01-09 08:58:50.65	339.14	45.28	-18.3	-18.8	17.4	0.00e+00	0	30	0	25794969600	10	18931
2026-01-09 08:58:51.66	339.19	44.80	-18.4	-18.8	17.3	0.00e+00	0	30	0	25870467072	10	19070
2026-01-09 08:58:52.67	339.23	44.32	-18.5	-18.9	17.3	0.00e+00	0	30	0	25945964544	10	19258
2026-01-09 08:58:53.68	339.27	43.86	-18.4	-18.9	17.3	0.00e+00	0	30	0	26021462016	10	19144
2026-01-09 08:58:54.68	339.31	43.40	-18.5	-18.9	17.4	0.00e+00	0	30	0	26096959488	10	19288
2026-01-09 08:58:55.69	339.35	42.94	-18.6	-19.0	17.4	0.00e+00	0	30	0	26172456960	10	19498
2026-01-09 08:58:56.70	339.39	42.49	-18.8	-19.2	17.3	0.00e+00	0	30	0	26247954432	12	17767
2026-01-09 08:58:57.71	339.43	42.05	-18.7	-19.1	17.4	0.00e+00	0	30	0	26323451904	12	17595
2026-01-09 08:58:58.72	339.46	41.61	-18.8	-19.3	17.3	0.00e+00	0	30	0	26398949376	12	17844
2026-01-09 08:58:59.73	339.50	41.18	-18.9	-19.4	17.3	0.00e+00	0	30	0	26474446848	12	18052
2026-01-09 08:59:00.73	339.53	40.76	-19.0	-19.4	17.3	0.00e+00	0	30	0	26549944320	12	18213
2026-01-09 08:59:01.73	339.57	40.35	-18.9	-19.4	17.3	0.00e+00	0	30	0	26625441792	12	18128
2026-01-09 08:59:02.74	339.60	39.93	-19.1	-19.6	17.3	0.00e+00	0	30	0	26700939264	12	18478
2026-01-09 08:59:03.75	339.63	39.52	-19.1	-19.6	17.3	0.00e+00	0	30	0	26776436736	12	18484
2026-01-09 08:59:04.76	339.66	39.12	-19.2	-19.7	17.2	0.00e+00	0	30	0	26851934208	12	18708
2026-01-09 08:59:05.77	339.70	38.72	-19.3	-19.8	17.3	0.00e+00	0	30	0	26927431680	12	18880
2026-01-09 08:59:06.78	339.73	38.33	-19.4	-19.8	17.3	0.00e+00	0	30	0	27002929152	12	19078
2026-01-09 08:59:07.79	339.76	37.94	-19.3	-19.8	17.3	0.00e+00	0	30	0	27078426624	12	18949
2026-01-09 08:59:08.80	339.79	37.56	-19.5	-19.9	17.3	0.00e+00	0	30	0	27153924096	12	19270
2026-01-09 08:59:09.81	339.81	37.18	-19.5	-20.0	17.3	0.00e+00	0	30	0	27229421568	12	19449
2026-01-09 08:59:10.82	339.84	36.81	-19.5	-20.0	17.3	0.00e+00	0	30	0	27304919040	12	19453
2026-01-09 08:59:11.83	339.87	36.44	-19.7	-20.2	17.3	0.00e+00	0	30	0	27380416512	12	19797
2026-01-09 08:59:12.84	339.90	36.08	-19.7	-20.1	17.3	0.00e+00	0	30	0	27455913984	12	19723
2026-01-09 08:59:13.85	339.92	35.72	-19.8	-20.3	17.3	0.00e+00	0	30	0	27531411456	14	17819
2026-01-09 08:59:14.86	339.95	35.36	-19.9	-20.4	17.3	0.00e+00	0	30	0	27606908928	14	18096
2026-01-09 08:59:15.87	339.97	35.01	-19.9	-20.4	17.3	0.00e+00	0	30	0	27682406400	14	18117
2026-01-09 08:59:16.88	340.00	34.67	-19.9	-20.3	17.2	0.00e+00	0	30	0	27757903872	14	17978
2026-01-09 08:59:17.89	340.02	34.33	-20.0	-20.4	17.2	0.00e+00	0	30	0	27841789952	14	18182
2026-01-09 08:59:18.90	340.05	33.99	-20.0	-20.5	17.3	0.00e+00	0	30	0	27917287424	14	18324
2026-01-09 08:59:19.91	340.07	33.66	-20.1	-20.6	17.2	0.00e+00	0	30	0	27984396288	14	18597
2026-01-09 08:59:20.92	340.09	33.33	-20.1	-20.6	17.2	0.00e+00	0	30	0	28059893760	14	18484
2026-01-09 08:59:21.93	340.11	33.01	-20.2	-20.7	17.3	0.00e+00	0	30	0	28135391232	14	18719
2026-01-09 08:59:22.94	340.14	32.69	-20.3	-20.7	17.3	0.00e+00	0	30	0	28219277312	14	18841
2026-01-09 08:59:23.95	340.16	32.37	-20.3	-20.8	17.2	0.00e+00	0	30	0	28294774784	14	18931
2026-01-09 08:59:24.96	340.18	32.06	-20.4	-20.8	17.2	0.00e+00	0	30	0	28370272256	14	19054
2026-01-09 08:59:25.97	340.20	31.75	-20.3	-20.8	17.2	0.00e+00	0	30	0	28445769728	14	19016
2026-01-09 08:59:26.97	340.22	31.45	-20.5	-21.0	17.2	0.00e+00	0	30	0	28512878592	14	19409
2026-01-09 08:59:27.98	340.24	31.15	-20.6	-21.1	17.2	0.00e+00	0	30	0	28588376064	14	19592
2026-01-09 08:59:28.99	340.26	30.85	-20.8	-21.2	17.2	0.00e+00	0	30	0	28672262144	14	19904
2026-01-09 08:59:30.00	340.28	30.56	-20.6	-21.1	17.3	0.00e+00	0	30	0	28747759616	16	17537
2026-01-09 08:59:31.01	340.30	30.27	-20.7	-21.2	17.2	0.00e+00	0	30	0	28823257088	16	17641
2026-01-09 08:59:32.02	340.32	29.98	-20.8	-21.3	17.2	0.00e+00	0	30	0	28898754560	16	17830
2026-01-09 08:59:33.03	340.34	29.70	-20.8	-21.3	17.1	0.00e+00	0	30	0	28974252032	16	17969
2026-01-09 08:59:34.04	340.36	29.42	-20.9	-21.3	17.1	0.00e+00	0	30	0	29049749504	16	17947
2026-01-09 08:59:35.05	340.38	29.14	-20.9	-21.3	17.1	0.00e+00	0	30	0	29125246976	16	17957
2026-01-09 08:59:36.05	340.40	28.87	-21.0	-21.4	17.1	0.00e+00	0	30	0	29200744448	16	18178
2026-01-09 08:59:37.06	340.41	28.60	-21.2	-21.7	17.2	0.00e+00	0	30	0	29276241920	16	18647
2026-01-09 08:59:38.07	340.43	28.34	-21.1	-21.6	17.1	0.00e+00	0	30	0	29351739392	16	18529
2026-01-09 08:59:39.08	340.45	28.07	-21.3	-21.8	17.1	0.00e+00	0	30	0	29427236864	16	18940
2026-01-09 08:59:40.08	340.47	27.81	-21.4	-21.9	17.1	0.00e+00	0	30	0	29502734336	16	19152
2026-01-09 08:59:41.09	340.48	27.56	-21.3	-21.7	17.2	0.00e+00	0	30	0	29578231808	16	18837
2026-01-09 08:59:42.10	340.50	27.30	-21.3	-21.8	17.1	0.00e+00	0	30	0	29653729280	16	18973
2026-01-09 08:59:43.11	340.52	27.05	-21.4	-21.9	17.2	0.00e+00	0	30	0	29729226752	16	19098
2026-01-09 08:59:44.13	340.53	26.80	-21.5	-21.9	17.1	0.00e+00	0	30	0	29804724224	16	19231
2026-01-09 08:59:45.13	340.55	26.55	-21.4	-21.9	17.1	0.00e+00	0	30	0	29880221696	16	19173
2026-01-09 08:59:46.14	340.56	26.31	-21.6	-22.1	17.1	0.00e+00	0	30	0	29955719168	16	19592
2026-01-09 08:59:47.15	340.58	26.06	-21.6	-22.0	17.1	0.00e+00	0	30	0	30031216640	16	19478
2026-01-09 08:59:48.16	340.59	25.83	-21.6	-22.1	17.2	0.00e+00	0	30	0	30106714112	16	19579
2026-01-09 08:59:49.17	340.61	25.59	-21.8	-22.2	17.1	0.00e+00	0	30	0	30182211584	16	19942
2026-01-09 08:59:50.18	340.62	25.36	-21.8	-22.2	17.1	0.00e+00	0	30	0	30257709056	18	17802
2026-01-09 08:59:51.19	340.64	25.12	-21.8	-22.3	17.1	0.00e+00	0	30	0	30333206528	18	17816
2026-01-09 08:59:52.20	340.65	24.90	-21.9	-22.3	17.1	0.00e+00	0	30	0	30408704000	18	17991
2026-01-09 08:59:53.21	340.67	24.67	-21.9	-22.3	17.1	0.00e+00	0	30	0	30484201472	18	17990
2026-01-09 08:59:54.21	340.68	24.45	-22.0	-22.5	17.1	0.00e+00	0	30	0	30559698944	18	18288
2026-01-09 08:59:55.22	340.70	24.23	-22.1	-22.5	17.1	0.00e+00	0	30	0	30635196416	18	18375
2026-01-09 08:59:56.23	340.71	24.01	-22.1	-22.6	17.0	0.00e+00	0	30	0	30710693888	18	18483
2026-01-09 08:59:57.24	340.73	23.79	-22.2	-22.7	17.1	0.00e+00	0	30	0	30786191360	18	18708
2026-01-09 08:59:58.24	340.74	23.58	-22.2	-22.7	17.0	0.00e+00	0	30	0	30861688832	18	18648
2026-01-09 08:59:59.26	340.75	23.36	-22.2	-22.7	17.1	0.00e+00	0	30	0	30937186304	18	18740
2026-01-09 09:00:00.27	340.77	23.15	-22.4	-22.8	17.1	0.00e+00	0	30	0	31012683776	18	19042
2026-01-09 09:00:01.27	340.78	22.94	-22.4	-22.8	17.1	0.00e+00	0	30	0	31088181248	18	19046
2026-01-09 09:00:02.28	340.79	22.74	-22.6	-23.0	17.0	0.00e+00	0	30	0	31163678720	18	19479
2026-01-09 09:00:03.29	340.81	22.53	-22.5	-23.0	17.0	0.00e+00	0	30	0	31239176192	18	19465
2026-01-09 09:00:04.30	340.82	22.33	-22.7	-23.2	16.9	0.00e+00	0	30	0	31314673664	20	17656
2026-01-09 09:00:05.31	340.83	22.13	-22.7	-23.1	17.0	0.00e+00	0	30	0	31390171136	20	17593
2026-01-09 09:00:06.32	340.84	21.93	-22.7	-23.1	17.0	0.00e+00	0	30	0	31465668608	20	17549
2026-01-09 09:00:07.33	340.86	21.73	-22.7	-23.2	17.0	0.00e+00	0	30	0	31541166080	20	17647
2026-01-09 09:00:08.33	340.87	21.54	-22.7	-23.2	17.0	0.00e+00	0	30	0	31616663552	20	17617
2026-01-09 09:00:09.34	340.88	21.35	-22.9	-23.3	17.0	0.00e+00	0	30	0	31700549632	20	17958
2026-01-09 09:00:10.35	340.89	21.16	-22.9	-23.4	17.0	0.00e+00	0	30	0	31767658496	20	18058
2026-01-09 09:00:11.36	340.91	20.97	-22.9	-23.3	17.0	0.00e+00	0	30	0	31843155968	20	17974
2026-01-09 09:00:12.37	340.92	20.78	-23.0	-23.5	17.0	0.00e+00	0	30	0	31918653440	20	18310
2026-01-09 09:00:13.38	340.93	20.59	-23.1	-23.5	16.9	0.00e+00	0	30	0	31994150912	20	18390
2026-01-09 09:00:14.39	340.94	20.41	-23.1	-23.6	16.9	0.00e+00	0	30	0	32078036992	20	18467
2026-01-09 09:00:15.40	340.95	20.23	-23.1	-23.6	17.1	0.00e+00	0	30	0	32153534464	20	18463
2026-01-09 09:00:16.41	340.96	20.05	-23.1	-23.6	17.0	0.00e+00	0	30	0	32229031936	20	18538
2026-01-09 09:00:17.42	340.98	19.87	-23.2	-23.6	17.0	0.00e+00	0	30	0	32304529408	20	18611
2026-01-09 09:00:18.43	340.99	19.69	-23.2	-23.7	16.9	0.00e+00	0	30	0	32371638272	20	18772
2026-01-09 09:00:19.44	341.00	19.51	-23.4	-23.8	17.0	0.00e+00	0	30	0	32455524352	20	19052
2026-01-09 09:00:20.44	341.01	19.34	-23.3	-23.8	16.9	0.00e+00	0	30	0	32531021824	20	19009
2026-01-09 09:00:21.45	341.02	19.17	-23.4	-23.9	16.9	0.00e+00	0	30	0	32606519296	20	19109
2026-01-09 09:00:22.46	341.03	19.00	-23.5	-24.0	17.0	0.00e+00	0	30	0	32682016768	20	19359
2026-01-09 09:00:23.47	341.04	18.83	-23.5	-24.0	16.9	0.00e+00	0	30	0	32757514240	20	19404
2026-01-09 09:00:24.48	341.05	18.66	-23.5	-23.9	16.9	0.00e+00	0	30	0	32833011712	20	19287
2026-01-09 09:00:25.49	341.06	18.49	-23.6	-24.1	16.9	0.00e+00	0	30	0	32908509184	20	19607
2026-01-09 09:00:26.50	341.07	18.33	-23.7	-24.1	16.9	0.00e+00	0	30	0	32984006656	20	19703
2026-01-09 09:00:27.51	341.09	18.16	-23.8	-24.3	16.8	0.00e+00	0	30	0	33059504128	22	17886
2026-01-09 09:00:28.52	341.10	18.00	-23.8	-24.2	16.9	0.00e+00	0	30	0	33135001600	22	17774
2026-01-09 09:00:29.53	341.11	17.84	-23.9	-24.4	16.8	0.00e+00	0	30	0	33210499072	22	18054
2026-01-09 09:00:30.53	341.12	17.68	-23.9	-24.4	16.8	0.00e+00	0	30	0	33285996544	22	18085
2026-01-09 09:00:31.54	341.13	17.52	-24.0	-24.5	16.8	0.00e+00	0	30	0	33361494016	22	18222
2026-01-09 09:00:32.55	341.14	17.37	-24.0	-24.5	16.8	0.00e+00	0	30	0	33436991488	22	18319
2026-01-09 09:00:33.56	341.15	17.21	-24.0	-24.5	16.9	0.00e+00	0	30	0	33512488960	22	18235
2026-01-09 09:00:34.57	341.16	17.05	-24.1	-24.5	16.8	0.00e+00	0	30	0	33587986432	22	18399
2026-01-09 09:00:35.58	341.17	16.90	-24.0	-24.5	16.9	0.00e+00	0	30	0	33663483904	22	18352
2026-01-09 09:00:36.59	341.18	16.75	-24.2	-24.7	16.8	0.00e+00	0	30	0	33738981376	22	18823
2026-01-09 09:00:37.60	341.19	16.60	-24.1	-24.6	16.8	0.00e+00	0	30	0	33814478848	22	18540
2026-01-09 09:00:38.61	341.20	16.45	-24.3	-24.8	16.8	0.00e+00	0	30	0	33889976320	22	18865
2026-01-09 09:00:39.61	341.21	16.30	-24.3	-24.7	16.8	0.00e+00	0	30	0	33965473792	22	18788
2026-01-09 09:00:40.62	341.22	16.15	-24.3	-24.8	16.7	0.00e+00	0	30	0	34040971264	22	18914
2026-01-09 09:00:41.63	341.23	16.01	-24.4	-24.9	16.8	0.00e+00	0	30	0	34116468736	22	19082
2026-01-09 09:00:42.64	341.23	15.86	-24.4	-24.9	16.8	0.00e+00	0	30	0	34191966208	22	19153
2026-01-09 09:00:43.65	341.24	15.72	-24.4	-24.9	16.7	0.00e+00	0	30	0	34267463680	22	19184
2026-01-09 09:00:44.66	341.25	15.57	-24.5	-24.9	16.8	0.00e+00	0	30	0	34342961152	22	19268
2026-01-09 09:00:45.66	341.26	15.43	-24.5	-25.0	16.7	0.00e+00	0	30	0	34418458624	22	19330
2026-01-09 09:00:46.67	341.27	15.29	-24.6	-25.1	16.7	0.00e+00	0	30	0	34493956096	22	19675
2026-01-09 09:00:47.68	341.28	15.15	-24.6	-25.1	16.7	0.00e+00	0	30	0	34569453568	22	19570
2026-01-09 09:00:48.69	341.29	15.01	-24.7	-25.2	16.7	0.00e+00	0	30	0	34644951040	24	17678
2026-01-09 09:00:49.69	341.30	14.88	-24.7	-25.2	16.6	0.00e+00	0	30	0	34720448512	24	17711
2026-01-09 09:00:50.70	341.31	14.74	-24.9	-25.3	16.6	0.00e+00	0	30	0	34795945984	24	17976
2026-01-09 09:00:51.71	341.32	14.61	-24.8	-25.3	16.7	0.00e+00	0	30	0	34871443456	24	17905
2026-01-09 09:00:52.72	341.33	14.47	-24.9	-25.3	16.7	0.00e+00	0	30	0	34946940928	24	17961
2026-01-09 09:00:53.73	341.34	14.34	-24.9	-25.3	16.8	0.00e+00	0	30	0	35022438400	24	17930
2026-01-09 09:00:54.74	341.34	14.20	-24.9	-25.4	16.6	0.00e+00	0	30	0	35097935872	24	18063
2026-01-09 09:00:55.75	341.35	14.07	-25.0	-25.5	16.6	0.00e+00	0	30	0	35173433344	24	18248
2026-01-09 09:00:56.76	341.36	13.94	-25.1	-25.5	16.6	0.00e+00	0	30	0	35248930816	24	18377
2026-01-09 09:00:57.77	341.37	13.81	-25.1	-25.5	16.6	0.00e+00	0	30	0	35324428288	24	18411
2026-01-09 09:00:58.78	341.38	13.68	-25.2	-25.7	16.5	0.00e+00	0	30	0	35399925760	24	18745
2026-01-09 09:00:59.79	341.39	13.55	-25.3	-25.7	16.6	0.00e+00	0	30	0	35483811840	24	18814
2026-01-09 09:01:00.80	341.40	13.43	-25.2	-25.7	16.6	0.00e+00	0	30	0	35559309312	24	18792
2026-01-09 09:01:01.80	341.41	13.30	-25.3	-25.8	16.5	0.00e+00	0	30	0	35626418176	24	18862
2026-01-09 09:01:02.81	341.41	13.18	-25.5	-25.9	16.6	0.00e+00	0	30	0	35701915648	24	19291
2026-01-09 09:01:03.82	341.42	13.05	-25.4	-25.9	16.5	0.00e+00	0	30	0	35777413120	24	19112
2026-01-09 09:01:04.83	341.43	12.93	-25.5	-25.9	16.5	0.00e+00	0	30	0	35852910592	24	19263
2026-01-09 09:01:05.83	341.44	12.80	-25.5	-25.9	16.5	0.00e+00	0	30	0	35928408064	24	19253
2026-01-09 09:01:06.84	341.45	12.68	-25.4	-25.9	16.5	0.00e+00	0	30	0	36012294144	24	19203
2026-01-09 09:01:07.85	341.46	12.56	-25.5	-26.0	16.5	0.00e+00	0	30	0	36087791616	24	19303
2026-01-09 09:01:08.86	341.46	12.44	-25.5	-26.0	16.5	0.00e+00	0	30	0	36163289088	24	19373
2026-01-09 09:01:09.87	341.47	12.32	-25.7	-26.2	16.5	0.00e+00	0	30	0	36230397952	24	19866
2026-01-09 09:01:10.88	341.48	12.20	-25.6	-26.1	16.5	0.00e+00	0	30	0	36305895424	24	19548
2026-01-09 09:01:11.88	341.49	12.08	-25.7	-26.1	16.4	0.00e+00	0	30	0	36381392896	24	19713
2026-01-09 09:01:12.89	341.50	11.97	-25.7	-26.1	16.5	0.00e+00	0	30	0	36465278976	26	17568
2026-01-09 09:01:13.90	341.50	11.85	-25.7	-26.2	16.4	0.00e+00	0	30	0	36540776448	26	17630
2026-01-09 09:01:14.91	341.51	11.73	-25.8	-26.3	16.4	0.00e+00	0	30	0	36616273920	26	17906
2026-01-09 09:01:15.91	341.52	11.62	-25.8	-26.3	16.5	0.00e+00	0	30	0	36691771392	26	17859
2026-01-09 09:01:16.92	341.53	11.50	-25.9	-26.4	16.4	0.00e+00	0	30	0	36758880256	26	18094
2026-01-09 09:01:17.93	341.54	11.39	-25.9	-26.3	16.4	0.00e+00	0	30	0	36834377728	26	17980
2026-01-09 09:01:18.94	341.54	11.28	-25.9	-26.4	16.5	0.00e+00	0	30	0	36918263808	26	18068
2026-01-09 09:01:19.95	341.55	11.16	-26.0	-26.5	16.4	0.00e+00	0	30	0	36993761280	26	18341
2026-01-09 09:01:20.96	341.56	11.05	-26.1	-26.6	16.4	0.00e+00	0	30	0	37069258752	26	18446
2026-01-09 09:01:21.97	341.57	10.94	-26.1	-26.6	16.4	0.00e+00	0	30	0	37144756224	26	18540
2026-01-09 09:01:22.97	341.57	10.83	-26.1	-26.5	16.4	0.00e+00	0	30	0	37220253696	26	18416
2026-01-09 09:01:23.99	341.58	10.72	-26.2	-26.7	16.3	0.00e+00	0	30	0	37295751168	26	18661
2026-01-09 09:01:24.99	341.59	10.61	-26.3	-26.8	16.3	0.00e+00	0	30	0	37371248640	26	19000
2026-01-09 09:01:26.00	341.60	10.50	-26.2	-26.6	16.4	0.00e+00	0	30	0	37446746112	26	18633
2026-01-09 09:01:27.01	341.61	10.39	-26.3	-26.8	16.3	0.00e+00	0	30	0	37522243584	26	18938
2026-01-09 09:01:28.03	341.61	10.29	-26.3	-26.8	16.3	0.00e+00	0	30	0	37597741056	26	18929
2026-01-09 09:01:29.03	341.62	10.18	-26.2	-26.7	16.3	0.00e+00	0	30	0	37673238528	26	18767
2026-01-09 09:01:30.04	341.63	10.07	-26.3	-26.8	16.3	0.00e+00	0	30	0	37748736000	26	18953
2026-01-09 09:01:31.05	341.64	9.97	-26.5	-26.9	16.3	0.00e+00	0	30	0	37824233472	26	19249
2026-01-09 09:01:32.06	341.64	9.86	-26.4	-26.8	16.3	0.00e+00	0	30	0	37899730944	26	19075
2026-01-09 09:01:33.07	341.65	9.76	-26.4	-26.9	16.3	0.00e+00	0	30	0	37975228416	26	19228
2026-01-09 09:01:34.08	341.66	9.66	-26.5	-27.0	16.2	0.00e+00	0	30	0	38050725888	26	19414
2026-01-09 09:01:35.09	341.67	9.55	-26.6	-27.0	16.2	0.00e+00	0	30	0	38126223360	26	19503
2026-01-09 09:01:36.10	341.67	9.45	-26.5	-27.0	16.2	0.00e+00	0	30	0	38201720832	26	19431
2026-01-09 09:01:37.11	341.68	9.35	-26.6	-27.1	16.3	0.00e+00	0	30	0	38277218304	26	19552
2026-01-09 09:01:38.12	341.69	9.25	-26.7	-27.1	16.2	0.00e+00	0	30	0	38352715776	26	19723
2026-01-09 09:01:39.13	341.69	9.14	-26.7	-27.1	16.2	0.00e+00	0	30	0	38428213248	26	19699
2026-01-09 09:01:40.13	341.70	9.05	-26.7	-27.2	16.1	0.00e+00	0	30	0	38503710720	26	19804
2026-01-09 09:01:41.14	341.71	8.95	-26.8	-27.2	16.1	0.00e+00	0	30	0	38579208192	28	17772
2026-01-09 09:01:42.15	341.72	8.85	-26.7	-27.2	15.9	0.00e+00	0	30	0	38654705664	28	17643
2026-01-09 09:01:43.16	341.72	8.75	-26.7	-27.2	15.9	0.00e+00	0	30	0	38730203136	28	17604
2026-01-09 09:01:44.16	341.73	8.65	-26.8	-27.2	15.8	0.00e+00	0	30	0	38805700608	28	17781
2026-01-09 09:01:45.17	341.74	8.55	-26.8	-27.3	15.8	0.00e+00	0	30	0	38881198080	28	17909
2026-01-09 09:01:46.18	341.74	8.45	-26.8	-27.3	15.9	0.00e+00	0	30	0	38956695552	28	17902
2026-01-09 09:01:47.19	341.75	8.36	-27.0	-27.5	15.9	0.00e+00	0	30	0	39032193024	28	18364
2026-01-09 09:01:48.20	341.76	8.26	-26.9	-27.4	15.8	0.00e+00	0	30	0	39107690496	28	18102
2026-01-09 09:01:49.21	341.77	8.17	-27.1	-27.5	15.6	0.00e+00	0	30	0	39183187968	28	18363
2026-01-09 09:01:50.21	341.77	8.07	-27.1	-27.6	15.7	0.00e+00	0	30	0	39258685440	28	18480
2026-01-09 09:01:51.22	341.78	7.98	-27.1	-27.6	15.7	0.00e+00	0	30	0	39334182912	28	18500
2026-01-09 09:01:52.23	341.79	7.88	-27.2	-27.6	15.7	0.00e+00	0	30	0	39409680384	28	18583
2026-01-09 09:01:53.24	341.79	7.79	-27.1	-27.6	15.8	0.00e+00	0	30	0	39485177856	28	18508
2026-01-09 09:01:54.25	341.80	7.69	-27.2	-27.7	15.8	0.00e+00	0	30	0	39560675328	28	18671
2026-01-09 09:01:55.26	341.81	7.60	-27.3	-27.7	15.9	0.00e+00	0	30	0	39636172800	28	18827
2026-01-09 09:01:56.27	341.81	7.51	-27.4	-27.9	15.9	0.00e+00	0	30	0	39711670272	28	19109
2026-01-09 09:01:57.28	341.82	7.42	-27.4	-27.9	16.0	0.00e+00	0	30	0	39787167744	28	19108
2026-01-09 09:01:58.29	341.83	7.32	-27.5	-28.0	15.8	0.00e+00	0	30	0	39871053824	28	19310
2026-01-09 09:01:59.30	341.83	7.23	-27.5	-27.9	15.8	0.00e+00	0	30	0	39946551296	28	19200
2026-01-09 09:02:00.31	341.84	7.14	-27.5	-28.0	15.8	0.00e+00	0	30	0	40013660160	28	19304
2026-01-09 09:02:01.32	341.85	7.05	-27.3	-27.8	15.9	0.00e+00	0	30	0	40089157632	28	18914
2026-01-09 09:02:02.33	341.86	6.96	-27.4	-27.9	15.8	0.00e+00	0	30	0	40164655104	28	19179
2026-01-09 09:02:03.33	341.86	6.87	-27.4	-27.8	15.8	0.00e+00	0	30	0	40240152576	28	18971
2026-01-09 09:02:04.34	341.87	6.78	-27.4	-27.9	15.8	0.00e+00	0	30	0	40324038656	28	19193
2026-01-09 09:02:05.35	341.88	6.70	-27.5	-27.9	15.8	0.00e+00	0	30	0	40399536128	28	19251
2026-01-09 09:02:06.36	341.88	6.61	-27.5	-27.9	15.8	0.00e+00	0	30	0	40475033600	28	19254
2026-01-09 09:02:07.37	341.89	6.52	-27.6	-28.0	15.7	0.00e+00	0	30	0	40550531072	28	19488
2026-01-09 09:02:08.38	341.90	6.43	-27.8	-28.3	15.7	0.00e+00	0	30	0	40617639936	30	17879
2026-01-09 09:02:09.39	341.90	6.35	-28.0	-28.4	15.6	0.00e+00	0	30	0	40701526016	30	18202
2026-01-09 09:02:10.40	341.91	6.26	-28.1	-28.6	15.5	0.00e+00	0	30	0	40777023488	30	18503
2026-01-09 09:02:11.41	341.92	6.17	-28.2	-28.6	15.5	0.00e+00	0	30	0	40852520960	30	18599
2026-01-09 09:02:12.41	341.92	6.09	-28.4	-28.9	15.3	0.00e+00	0	30	0	40928018432	30	19092
2026-01-09 09:02:13.42	341.93	6.00	-28.7	-29.2	15.2	0.00e+00	0	30	0	41003515904	30	19796
2026-01-09 09:02:14.43	341.93	5.92	-29.1	-29.5	15.0	0.00e+00	0	30	0	41079013376	32	18318
2026-01-09 09:02:15.44	341.94	5.83	-29.4	-29.8	14.7	0.00e+00	0	30	0	41154510848	32	19003
2026-01-09 09:02:16.45	341.95	5.75	-29.9	-30.3	14.3	0.00e+00	0	30	0	41230008320	34	17939
2026-01-09 09:02:17.46	341.95	5.66	-30.3	-30.7	14.0	0.00e+00	0	30	0	41305505792	34	18811
2026-01-09 09:02:18.47	341.96	5.58	-30.8	-31.2	13.7	0.00e+00	0	30	0	41381003264	34	19845
2026-01-09 09:02:19.48	341.97	5.50	-31.4	-31.8	13.1	6.90e-06	0	30	0	41456500736	36	19026
2026-01-09 09:02:20.49	341.97	5.41	-31.9	-32.3	12.6	2.08e-05	0	30	0	41531998208	38	17912
2026-01-09 09:02:21.50	341.98	5.33	-32.6	-32.9	12.1	5.54e-05	0	30	0	41607495680	38	19284
2026-01-09 09:02:22.51	341.99	5.25	-33.3	-33.6	11.3	3.05e-04	0	30	0	41682993152	40	18636
2026-01-09 09:02:23.52	341.99	5.17	-34.0	-34.3	10.6	1.62e-03	0	30	0	41758490624	42	17877
2026-01-09 09:02:24.53	342.00	5.08	-34.7	-35.0	9.9	3.72e-03	0	30	0	41833988096	42	19360
2026-01-09 09:02:25.53	342.01	5.00	-35.6	-35.8	8.8	1.40e-02	0	30	0	41909485568	44	18946
2026-01-09 09:02:26.54	342.01	4.92	-36.4	-36.5	7.9	3.17e-02	0	30	0	41984983040	46	18341
2026-01-09 09:02:27.55	342.02	4.84	-37.0	-37.1	7.2	9.14e-02	0	30	0	42060480512	48	17436
2026-01-09 09:02:28.55	342.02	4.76	-37.9	-37.9	6.2	1.96e-01	1457	30	0	42135977984	50	17053
2026-01-09 09:02:29.56	342.03	4.68	-38.6	-38.6	5.5	2.93e-01	2219	30	0	42211475456	50	18514
2026-01-09 09:02:30.57	342.04	4.60	-39.6	-39.5	4.7	5.84e-01	2125	30	0	42286972928	52	18295
2026-01-09 09:02:31.58	342.04	4.52	-40.1	-39.9	4.2	0.00e+00	1692	30	0	42345693184	54	17126
2026-01-09 09:02:32.59	342.05	4.44	-40.9	-41.0	3.8	0.00e+00	0	30	0	42354081792	56	17208
2026-01-09 09:02:33.60	342.06	4.37	-41.4	-42.8	3.8	0.00e+00	0	30	104	42354081792	56	21327
2026-01-09 09:02:34.61	342.06	4.29	-41.8	-43.5	3.6	0.00e+00	0	30	104	42354081792	58	20554
2026-01-09 09:02:35.61	342.07	4.21	-42.2	-44.1	3.6	0.00e+00	0	30	104	42354081792	58	22060
2026-01-09 09:02:36.62	342.08	4.13	-42.4	-44.5	3.6	0.00e+00	0	30	104	42354081792	58	22998
2026-01-09 09:02:37.63	342.08	4.05	-42.7	-44.8	3.6	0.00e+00	0	30	104	42354081792	58	23971
2026-01-09 09:02:38.64	342.09	3.98	-42.7	-44.8	3.5	0.00e+00	0	30	104	42354081792	58	24012
2026-01-09 09:02:39.65	342.09	3.90	-43.1	-45.6	3.6	0.00e+00	0	30	104	42354081792	60	23315
2026-01-09 09:02:40.66	342.10	3.82	-43.1	-45.6	3.6	0.00e+00	0	30	104	42354081792	60	23461
2026-01-09 09:02:41.67	342.11	3.75	-43.3	-45.8	3.6	0.00e+00	0	30	104	42354081792	60	23798
2026-01-09 09:02:42.68	342.11	3.67	-43.2	-45.7	3.5	0.00e+00	0	30	104	42354081792	60	23537
2026-01-09 09:02:43.69	342.12	3.60	-43.2	-45.6	3.6	0.00e+00	0	30	104	42354081792	60	23410
2026-01-09 09:02:44.70	342.12	3.52	-43.2	-45.7	3.6	0.00e+00	0	30	104	42354081792	60	23592
2026-01-09 09:02:45.71	342.13	3.44	-43.2	-45.7	3.6	0.00e+00	0	30	104	42354081792	60	23536
2026-01-09 09:02:46.72	342.14	3.37	-43.2	-45.7	3.6	0.00e+00	0	30	104	42354081792	60	23624
2026-01-09 09:02:47.73	342.14	3.29	-43.2	-45.7	3.6	0.00e+00	0	30	104	42354081792	60	23645
2026-01-09 09:02:48.74	342.15	3.22	-43.0	-45.5	3.6	0.00e+00	0	30	104	42354081792	60	23144
2026-01-09 09:02:49.75	342.16	3.15	-43.1	-45.6	3.6	0.00e+00	0	30	104	42354081792	60	23291
2026-01-09 09:02:50.76	342.16	3.07	-43.0	-45.5	3.6	0.00e+00	0	30	104	42354081792	60	23012
2026-01-09 09:02:51.77	342.17	3.00	-43.4	-45.9	3.6	0.00e+00	0	30	104	42354081792	60	24195
2026-01-09 09:02:52.78	342.17	2.92	-47.1	-49.6	3.6	0.00e+00	0	30	104	42354081792	60	37033
2026-01-09 09:02:53.79	342.18	2.85	-47.4	-49.9	3.6	0.00e+00	0	30	104	42354081792	60	38086
2026-01-09 09:02:54.80	342.19	2.78	-47.7	-50.2	3.6	0.00e+00	0	30	104	42354081792	60	39464
2026-01-09 09:02:55.81	342.19	2.71	-47.8	-50.3	3.6	0.00e+00	0	30	104	42354081792	60	39946
2026-01-09 09:02:56.82	342.20	2.63	-47.9	-50.5	3.6	0.00e+00	0	30	104	42354081792	60	40855
2026-01-09 09:02:57.83	342.20	2.56	-48.1	-50.5	3.6	0.00e+00	0	30	104	42354081792	60	41156
2026-01-09 09:02:58.84	342.21	2.49	-48.1	-50.6	3.6	0.00e+00	0	30	104	42354081792	60	41465
2026-01-09 09:02:59.85	342.22	2.42	-48.1	-50.6	3.6	0.00e+00	0	30	104	42354081792	60	41482
2026-01-09 09:03:00.86	342.22	2.35	-47.5	-50.1	3.6	0.00e+00	0	30	104	42354081792	60	39376
2026-01-09 09:03:01.87	342.23	2.28	-48.0	-50.5	3.6	0.00e+00	0	30	104	42354081792	60	40861
2026-01-09 09:03:02.88	342.23	2.20	-47.9	-50.4	3.6	0.00e+00	0	30	104	42354081792	60	40736
2026-01-09 09:03:03.88	342.24	2.13	-48.0	-50.5	3.6	0.00e+00	0	30	104	42354081792	60	40816
2026-01-09 09:03:04.89	342.25	2.06	-47.4	-50.0	3.6	0.00e+00	0	30	104	42354081792	60	38584
2026-01-09 09:03:05.90	342.25	1.99	-48.2	-50.7	3.6	0.00e+00	0	30	104	42354081792	60	41854
2026-01-09 09:03:06.91	342.26	1.92	-48.1	-50.6	3.6	0.00e+00	0	30	104	42354081792	60	41537
2026-01-09 09:03:07.92	342.26	1.85	-48.0	-50.6	3.6	0.00e+00	0	30	104	42354081792	60	41294
2026-01-09 09:03:08.92	342.27	1.78	-48.0	-50.5	3.6	0.00e+00	0	30	104	42354081792	60	41072
2026-01-09 09:03:09.93	342.27	1.72	-48.0	-50.5	3.6	0.00e+00	0	30	104	42354081792	60	41099
2026-01-09 09:03:10.94	342.28	1.65	-48.1	-50.5	3.6	0.00e+00	0	30	104	42354081792	60	41127
2026-01-09 09:03:11.95	342.29	1.58	-48.0	-50.6	3.6	0.00e+00	0	30	104	42354081792	60	41279
2026-01-09 09:03:12.96	342.29	1.51	-48.0	-50.5	3.6	0.00e+00	0	30	104	42354081792	60	40859
2026-01-09 09:03:13.97	342.30	1.44	-48.0	-50.5	3.6	0.00e+00	0	30	104	42354081792	60	41011
2026-01-09 09:03:14.98	342.30	1.37	-48.0	-50.5	3.6	0.00e+00	0	30	104	42354081792	60	41037
2026-01-09 09:03:15.99	342.31	1.30	-48.0	-50.5	3.6	0.00e+00	0	30	104	42354081792	60	41103
2026-01-09 09:03:17.00	342.32	1.24	-48.0	-50.5	3.6	0.00e+00	0	30	104	42354081792	60	40984
2026-01-09 09:03:18.01	342.32	1.17	-48.1	-50.5	3.5	0.00e+00	0	30	104	42354081792	60	41200
2026-01-09 09:03:19.02	342.33	1.10	-48.0	-50.6	3.6	0.00e+00	0	30	104	42354081792	60	41283
2026-01-09 09:03:20.03	342.33	1.03	-48.0	-50.6	3.6	0.00e+00	0	30	104	42354081792	60	41289
2026-01-09 09:03:21.04	342.34	0.97	-48.0	-50.5	3.5	0.00e+00	0	30	104	42354081792	60	41096
2026-01-09 09:03:22.05	342.34	0.90	-48.0	-50.5	3.6	0.00e+00	0	30	104	42354081792	60	41121
2026-01-09 09:03:23.05	342.35	0.83	-48.0	-50.5	3.6	0.00e+00	0	30	104	42354081792	60	41137
