passes_logs/2026/01/09/R4.6S_Anadyr/R4.6S_Anadyr__20260109_215419_TY-42_rec.log

#Pass ID: 20260109_215419_TY-42
#Satellite: TY-42
#Configuration: TY-42_900M
#almurnet v.1.7.20251203
#Start time: 2026-01-09 21:54:50

#Version: 2.2.20231116
#Station: R4.6S_Anadyr
#Location: 177.4865 lon 64.73178 lat
#TLE: 1 64048U 25103A   26009.19791667  .00008012  00000-0  38191-3 0 09992
#TLE: 2 64048 097.4113 084.7241 0001632 091.2074 057.6856 15.19176442 35937

#Time	Az	El	Level	Level2	SNR	BER	BlckErr	Temp	State	Recorded	gain1	gain2
2026-01-09 21:54:50.73	24.83	1.79	-48.0	-62.9	3.5	1.51e+00	0	22	0	0	60	50237
2026-01-09 21:54:51.74	24.92	1.85	-46.4	-48.9	6.1	0.00e+00	0	24	104	0	60	34255
2026-01-09 21:54:52.75	25.02	1.91	-46.4	-48.9	6.1	0.00e+00	0	24	104	0	60	34139
2026-01-09 21:54:53.76	25.12	1.97	-46.4	-48.9	6.1	0.00e+00	0	24	104	0	60	34144
2026-01-09 21:54:54.77	25.22	2.03	-46.4	-48.9	6.1	0.00e+00	0	24	104	0	60	34175
2026-01-09 21:54:55.78	25.31	2.09	-46.4	-48.9	6.1	0.00e+00	0	24	104	0	60	34004
2026-01-09 21:54:56.79	25.41	2.15	-46.4	-48.9	6.1	0.00e+00	0	24	104	0	60	34188
2026-01-09 21:54:57.80	25.51	2.21	-46.4	-48.9	6.1	0.00e+00	0	24	104	0	60	34178
2026-01-09 21:54:58.81	25.61	2.27	-46.4	-48.9	6.1	0.00e+00	0	24	104	0	60	34027
2026-01-09 21:54:59.82	25.71	2.33	-46.4	-48.9	6.1	0.00e+00	0	24	104	0	60	34141
2026-01-09 21:55:00.82	25.81	2.38	-46.4	-49.0	6.1	0.00e+00	0	24	104	0	60	34354
2026-01-09 21:55:01.83	25.91	2.44	-46.4	-48.9	6.1	0.00e+00	0	24	104	0	60	34098
2026-01-09 21:55:02.84	26.01	2.51	-46.4	-48.9	6.0	0.00e+00	0	24	104	0	60	34162
2026-01-09 21:55:03.85	26.11	2.57	-46.4	-48.9	6.1	0.00e+00	0	24	104	0	60	34171
2026-01-09 21:55:04.86	26.22	2.63	-46.4	-48.9	6.1	0.00e+00	0	24	104	0	60	34170
2026-01-09 21:55:05.87	26.32	2.69	-46.4	-48.9	6.1	0.00e+00	0	24	104	0	60	34283
2026-01-09 21:55:06.88	26.42	2.75	-46.4	-48.9	6.1	0.00e+00	0	24	104	0	60	34126
2026-01-09 21:55:07.89	26.53	2.81	-46.4	-48.9	6.1	0.00e+00	0	24	104	0	60	34045
2026-01-09 21:55:08.90	26.63	2.87	-46.4	-48.9	6.1	0.00e+00	0	24	104	0	60	34164
2026-01-09 21:55:09.91	26.73	2.93	-46.4	-48.9	6.1	0.00e+00	0	24	104	0	60	34301
2026-01-09 21:55:10.92	26.84	2.99	-46.4	-48.9	6.1	0.00e+00	0	24	104	0	60	34269
2026-01-09 21:55:11.93	26.95	3.05	-46.4	-49.0	6.1	0.00e+00	0	24	104	0	60	34379
2026-01-09 21:55:12.94	27.05	3.11	-46.4	-48.9	6.1	0.00e+00	0	24	104	0	60	34039
2026-01-09 21:55:13.95	27.16	3.18	-46.4	-48.9	6.0	0.00e+00	0	24	104	0	60	33990
2026-01-09 21:55:14.95	27.27	3.24	-46.4	-48.9	6.1	0.00e+00	0	24	104	0	60	34117
2026-01-09 21:55:15.96	27.37	3.30	-46.4	-48.9	6.1	0.00e+00	0	25	104	0	60	34064
2026-01-09 21:55:16.97	27.48	3.36	-46.4	-48.9	6.1	0.00e+00	0	24	104	0	60	34166
2026-01-09 21:55:17.98	27.59	3.42	-46.4	-48.9	6.1	0.00e+00	0	24	104	0	60	34188
2026-01-09 21:55:18.99	27.70	3.48	-46.3	-48.8	6.1	0.00e+00	0	25	104	0	60	33903
2026-01-09 21:55:20.00	27.81	3.55	-44.1	-45.7	6.3	0.00e+00	0	25	104	0	60	23742
2026-01-09 21:55:21.01	27.92	3.61	-35.3	-35.7	10.5	0.00e+00	5512	25	104	0	42	20986
2026-01-09 21:55:22.02	28.03	3.67	-27.7	-28.1	15.5	6.67e-02	0	25	0	41943040	30	17501
2026-01-09 21:55:23.03	28.15	3.73	-44.8	-46.6	6.2	1.78e-02	0	25	104	109051904	60	26334
2026-01-09 21:55:24.04	28.26	3.80	-27.2	-27.5	13.6	0.00e+00	212	25	104	109051904	30	16240
2026-01-09 21:55:25.05	28.37	3.86	-27.3	-27.7	15.7	1.04e-02	0	25	0	184549376	30	16645
2026-01-09 21:55:26.06	28.49	3.92	-26.2	-26.6	16.1	1.04e-02	0	25	0	293601280	28	16513
2026-01-09 21:55:27.06	28.60	3.98	-25.7	-26.1	16.1	2.38e-03	0	25	0	402653184	26	17433
2026-01-09 21:55:28.08	28.72	4.05	-25.6	-26.0	16.2	2.38e-03	0	25	0	520093696	26	17244
2026-01-09 21:55:29.08	28.83	4.11	-25.6	-26.0	16.2	1.96e-04	0	25	0	629145600	26	17225
2026-01-09 21:55:30.09	28.95	4.17	-25.4	-25.8	16.3	1.96e-04	0	25	0	746586112	26	16932
2026-01-09 21:55:31.10	29.06	4.24	-25.5	-25.9	16.3	2.18e-04	0	25	0	864026624	26	17107
2026-01-09 21:55:32.11	29.18	4.30	-25.5	-25.9	16.3	2.18e-04	0	25	0	973078528	26	17023
2026-01-09 21:55:33.12	29.30	4.36	-25.7	-26.1	16.3	1.25e-04	0	25	0	1090519040	26	17440
2026-01-09 21:55:34.13	29.42	4.43	-25.7	-26.1	16.2	1.25e-04	0	25	0	1199570944	26	17473
2026-01-09 21:55:35.14	29.54	4.49	-25.7	-26.1	16.2	1.91e-04	0	25	0	1308622848	26	17589
2026-01-09 21:55:36.15	29.66	4.56	-25.7	-26.1	16.3	1.91e-04	0	25	0	1426063360	26	17457
2026-01-09 21:55:37.16	29.78	4.62	-25.5	-25.9	16.3	1.69e-04	0	25	0	1543503872	26	17130
2026-01-09 21:55:38.17	29.90	4.68	-25.7	-26.1	16.3	1.69e-04	0	25	0	1652555776	26	17505
2026-01-09 21:55:39.18	30.02	4.75	-25.5	-25.9	16.4	1.69e-04	0	26	0	1769996288	26	17067
2026-01-09 21:55:40.18	30.14	4.81	-25.4	-25.8	16.4	1.69e-04	0	25	0	1879048192	26	16829
2026-01-09 21:55:41.19	30.27	4.88	-25.6	-26.0	16.3	1.42e-04	0	26	0	1996488704	26	17297
2026-01-09 21:55:42.20	30.39	4.94	-25.8	-26.3	16.2	1.42e-04	0	26	0	2113929216	26	17888
2026-01-09 21:55:43.21	30.51	5.01	-25.9	-26.3	16.3	1.52e-04	0	26	0	2222981120	26	18009
2026-01-09 21:55:44.21	30.64	5.07	-26.0	-26.4	16.2	1.52e-04	0	26	0	2332033024	26	18218
2026-01-09 21:55:45.22	30.76	5.14	-25.7	-26.1	16.3	1.52e-04	0	26	0	2449473536	26	17544
2026-01-09 21:55:46.23	30.89	5.20	-26.0	-26.4	16.2	2.23e-04	0	26	0	2558525440	26	18179
2026-01-09 21:55:47.24	31.02	5.27	-26.2	-26.6	16.2	2.23e-04	0	26	0	2675965952	26	18623
2026-01-09 21:55:48.25	31.15	5.33	-26.3	-26.8	16.2	2.23e-04	0	26	0	2793406464	26	18900
2026-01-09 21:55:49.25	31.27	5.40	-26.2	-26.7	16.2	3.71e-04	0	26	0	2902458368	26	18686
2026-01-09 21:55:50.26	31.40	5.46	-26.0	-26.4	16.3	3.71e-04	0	26	0	3019898880	26	18199
2026-01-09 21:55:51.27	31.53	5.53	-26.2	-26.6	16.3	1.91e-04	0	26	0	3128950784	26	18500
2026-01-09 21:55:52.28	31.66	5.59	-26.1	-26.6	16.2	1.91e-04	0	26	0	3238002688	26	18467
2026-01-09 21:55:53.29	31.80	5.66	-26.3	-26.7	16.2	2.78e-04	0	26	0	3355443200	26	18856
2026-01-09 21:55:54.30	31.93	5.73	-26.1	-26.5	16.3	2.78e-04	0	26	0	3472883712	26	18430
2026-01-09 21:55:55.31	32.06	5.79	-26.4	-26.8	16.3	3.05e-04	0	26	0	3581935616	26	19051
2026-01-09 21:55:56.32	32.19	5.86	-26.1	-26.6	16.4	3.05e-04	0	26	0	3699376128	26	18529
2026-01-09 21:55:57.33	32.33	5.93	-26.1	-26.5	16.4	2.29e-04	0	26	0	3808428032	26	18332
2026-01-09 21:55:58.34	32.46	5.99	-26.0	-26.4	16.4	2.29e-04	0	26	0	3925868544	26	18167
2026-01-09 21:55:59.34	32.60	6.06	-25.9	-26.4	16.4	1.52e-04	0	26	0	4043309056	26	18066
2026-01-09 21:56:00.35	32.73	6.12	-26.0	-26.5	16.5	1.52e-04	0	26	0	4152360960	26	18257
2026-01-09 21:56:01.36	32.87	6.19	-25.9	-26.4	16.5	1.36e-04	0	26	0	4261412864	26	18089
2026-01-09 21:56:02.37	33.01	6.26	-26.1	-26.5	16.4	1.36e-04	0	26	0	4378853376	26	18427
2026-01-09 21:56:03.38	33.15	6.33	-26.2	-26.7	16.4	1.80e-04	0	26	0	4487905280	26	18748
2026-01-09 21:56:04.39	33.29	6.39	-25.7	-26.1	16.5	1.80e-04	0	26	0	4605345792	26	17531
2026-01-09 21:56:05.39	33.43	6.46	-25.8	-26.2	16.5	1.09e-04	0	26	0	4714397696	26	17800
2026-01-09 21:56:06.40	33.57	6.53	-25.9	-26.3	16.5	1.09e-04	0	26	0	4831838208	26	17913
2026-01-09 21:56:07.41	33.71	6.59	-25.7	-26.2	16.5	1.09e-04	0	26	0	4949278720	26	17655
2026-01-09 21:56:08.42	33.85	6.66	-25.8	-26.3	16.5	1.74e-04	0	26	0	5058330624	26	17828
2026-01-09 21:56:09.43	34.00	6.73	-25.7	-26.1	16.5	7.08e-05	0	26	0	5167382528	26	17562
2026-01-09 21:56:10.44	34.14	6.80	-25.8	-26.2	16.5	7.08e-05	0	26	0	5284823040	26	17714
2026-01-09 21:56:11.45	34.29	6.87	-25.7	-26.1	16.6	7.08e-05	0	26	0	5402263552	26	17532
2026-01-09 21:56:12.46	34.43	6.93	-25.4	-25.8	16.6	8.71e-05	0	26	0	5511315456	26	16925
2026-01-09 21:56:13.47	34.58	7.00	-25.3	-25.8	16.6	8.71e-05	0	26	0	5628755968	26	16867
2026-01-09 21:56:14.48	34.73	7.07	-25.5	-25.9	16.6	4.35e-05	0	26	0	5737807872	26	17159
2026-01-09 21:56:15.49	34.88	7.14	-25.3	-25.8	16.6	6.53e-05	0	26	0	5855248384	26	16876
2026-01-09 21:56:16.50	35.03	7.21	-25.3	-25.8	16.6	6.53e-05	0	26	0	5972688896	26	16903
2026-01-09 21:56:17.51	35.18	7.28	-25.2	-25.6	16.6	4.35e-05	0	26	0	6081740800	26	16582
2026-01-09 21:56:18.51	35.33	7.34	-25.1	-25.6	16.7	4.35e-05	0	26	0	6190792704	26	16540
2026-01-09 21:56:19.52	35.48	7.41	-25.3	-25.8	16.7	2.72e-05	0	26	0	6308233216	26	16821
2026-01-09 21:56:20.53	35.63	7.48	-25.2	-25.7	16.6	2.72e-05	0	26	0	6417285120	26	16624
2026-01-09 21:56:21.54	35.79	7.55	-25.2	-25.6	16.6	2.72e-05	0	26	0	6534725632	26	16598
2026-01-09 21:56:22.55	35.94	7.62	-25.1	-25.6	16.6	3.26e-05	0	26	0	6652166144	26	16446
2026-01-09 21:56:23.56	36.10	7.69	-24.9	-25.4	16.7	4.35e-05	0	26	0	6761218048	26	16155
2026-01-09 21:56:24.57	36.25	7.76	-25.1	-25.6	16.6	4.35e-05	0	26	0	6878658560	26	16501
2026-01-09 21:56:25.58	36.41	7.83	-25.0	-25.5	16.6	4.35e-05	0	26	0	6987710464	26	16254
2026-01-09 21:56:26.59	36.57	7.90	-25.0	-25.4	16.6	2.17e-05	0	26	0	7096762368	26	16196
2026-01-09 21:56:27.60	36.73	7.97	-24.9	-25.4	16.6	2.17e-05	0	26	0	7214202880	26	16161
2026-01-09 21:56:28.60	36.89	8.04	-25.0	-25.4	16.7	4.35e-05	0	26	0	7331643392	26	16224
2026-01-09 21:56:29.61	37.05	8.11	-25.1	-25.6	16.7	4.35e-05	0	26	0	7440695296	26	16452
2026-01-09 21:56:30.62	37.21	8.18	-25.1	-25.6	16.6	1.63e-05	0	26	0	7558135808	26	16433
2026-01-09 21:56:31.63	37.37	8.25	-25.1	-25.6	16.6	1.63e-05	0	27	0	7667187712	26	16495
2026-01-09 21:56:32.64	37.53	8.32	-24.8	-25.3	16.6	5.99e-05	0	26	0	7784628224	26	15941
2026-01-09 21:56:33.65	37.70	8.39	-24.7	-25.1	16.6	5.99e-05	0	26	0	7902068736	24	17503
2026-01-09 21:56:34.66	37.87	8.46	-24.7	-25.2	16.3	5.44e-05	0	26	0	8011120640	24	17670
2026-01-09 21:56:35.67	38.03	8.53	-24.7	-25.1	16.3	5.44e-05	0	26	0	8120172544	24	17547
2026-01-09 21:56:36.68	38.20	8.60	-24.8	-25.3	16.4	1.03e-04	0	26	0	8237613056	24	17838
2026-01-09 21:56:37.69	38.37	8.67	-24.4	-24.9	16.6	1.14e-04	0	27	0	8355053568	24	17076
2026-01-09 21:56:38.70	38.54	8.74	-24.5	-25.0	16.7	1.14e-04	0	27	0	8464105472	24	17316
2026-01-09 21:56:39.71	38.71	8.81	-24.3	-24.7	16.9	1.14e-04	0	27	0	8581545984	24	16793
2026-01-09 21:56:40.72	38.88	8.88	-24.4	-24.9	16.9	5.40e-06	0	27	0	8690597888	24	17089
2026-01-09 21:56:41.73	39.05	8.95	-24.4	-24.9	16.8	5.40e-06	0	27	0	8808038400	24	17079
2026-01-09 21:56:42.74	39.23	9.02	-24.3	-24.7	16.9	1.63e-05	0	27	0	8917090304	24	16802
2026-01-09 21:56:43.74	39.40	9.09	-24.3	-24.7	16.9	1.63e-05	0	27	0	9034530816	24	16795
2026-01-09 21:56:44.75	39.57	9.16	-24.2	-24.7	17.0	5.40e-06	0	27	0	9143582720	24	16721
2026-01-09 21:56:45.76	39.75	9.23	-24.2	-24.7	17.0	5.40e-06	0	27	0	9261023232	24	16650
2026-01-09 21:56:46.77	39.93	9.31	-24.1	-24.6	17.0	5.40e-06	0	27	0	9370075136	24	16587
2026-01-09 21:56:47.78	40.11	9.38	-24.1	-24.6	17.0	5.40e-06	0	27	0	9487515648	24	16437
2026-01-09 21:56:48.79	40.29	9.45	-24.0	-24.5	17.0	5.40e-06	0	27	0	9596567552	24	16297
2026-01-09 21:56:49.80	40.47	9.52	-24.0	-24.5	17.0	0.00e+00	0	27	0	9714008064	24	16274
2026-01-09 21:56:50.81	40.65	9.59	-24.0	-24.5	17.0	0.00e+00	0	27	0	9831448576	24	16398
2026-01-09 21:56:51.82	40.83	9.66	-23.9	-24.4	17.1	0.00e+00	0	27	0	9940500480	24	16106
2026-01-09 21:56:52.83	41.02	9.73	-23.8	-24.3	17.0	0.00e+00	0	27	0	10049552384	24	16031
2026-01-09 21:56:53.84	41.20	9.81	-24.0	-24.5	17.0	0.00e+00	0	27	0	10166992896	24	16322
2026-01-09 21:56:54.85	41.39	9.88	-23.9	-24.4	17.0	0.00e+00	0	27	0	10284433408	22	18022
2026-01-09 21:56:55.85	41.57	9.95	-24.0	-24.5	17.0	5.40e-06	0	27	0	10393485312	22	18285
2026-01-09 21:56:56.87	41.76	10.02	-23.7	-24.2	17.1	5.40e-06	0	27	0	10510925824	22	17671
2026-01-09 21:56:57.88	41.95	10.09	-23.7	-24.2	17.1	0.00e+00	0	27	0	10619977728	22	17687
2026-01-09 21:56:58.89	42.14	10.16	-23.7	-24.2	17.1	0.00e+00	0	27	0	10737418240	22	17626
2026-01-09 21:56:59.89	42.33	10.24	-23.8	-24.3	17.2	0.00e+00	0	27	0	10854858752	22	17867
2026-01-09 21:57:00.90	42.53	10.31	-23.6	-24.1	17.2	0.00e+00	0	27	0	10963910656	22	17529
2026-01-09 21:57:01.91	42.72	10.38	-23.5	-24.0	17.2	0.00e+00	0	27	0	11072962560	22	17205
2026-01-09 21:57:02.93	42.92	10.45	-23.7	-24.1	17.2	0.00e+00	0	27	0	11190403072	22	17580
2026-01-09 21:57:03.94	43.11	10.52	-23.6	-24.1	17.2	0.00e+00	0	27	0	11299454976	22	17485
2026-01-09 21:57:04.95	43.31	10.60	-23.5	-24.0	17.2	0.00e+00	0	27	0	11416895488	22	17306
2026-01-09 21:57:05.96	43.51	10.67	-23.5	-24.0	17.1	0.00e+00	0	27	0	11534336000	22	17391
2026-01-09 21:57:06.97	43.71	10.74	-23.6	-24.1	17.2	5.40e-06	0	27	0	11643387904	22	17482
2026-01-09 21:57:07.98	43.91	10.81	-23.5	-24.0	17.2	5.40e-06	0	27	0	11760828416	22	17202
2026-01-09 21:57:08.98	44.11	10.88	-23.4	-23.9	17.1	5.40e-06	0	27	0	11869880320	22	17031
2026-01-09 21:57:10.00	44.32	10.96	-23.4	-23.9	17.0	0.00e+00	0	27	0	11987320832	22	17151
2026-01-09 21:57:11.01	44.52	11.03	-23.6	-24.1	16.8	0.00e+00	0	27	0	12104761344	22	17406
2026-01-09 21:57:12.02	44.73	11.10	-23.3	-23.7	16.8	0.00e+00	0	27	0	12213813248	22	16787
2026-01-09 21:57:13.03	44.93	11.17	-23.2	-23.7	16.8	0.00e+00	0	27	0	12322865152	22	16747
2026-01-09 21:57:14.04	45.14	11.24	-23.2	-23.7	16.8	0.00e+00	0	27	0	12440305664	22	16654
2026-01-09 21:57:15.05	45.35	11.32	-23.1	-23.6	17.1	0.00e+00	0	27	0	12557746176	22	16599
2026-01-09 21:57:16.06	45.56	11.39	-23.1	-23.6	17.2	0.00e+00	0	27	0	12666798080	22	16589
2026-01-09 21:57:17.07	45.77	11.46	-23.1	-23.6	17.2	0.00e+00	0	27	0	12784238592	22	16567
2026-01-09 21:57:18.08	45.98	11.53	-23.1	-23.7	17.2	0.00e+00	0	27	0	12893290496	22	16644
2026-01-09 21:57:19.09	46.20	11.60	-23.3	-23.8	17.2	0.00e+00	0	27	0	13002342400	22	16841
2026-01-09 21:57:20.09	46.41	11.67	-23.0	-23.5	17.2	5.40e-06	0	27	0	13128171520	22	16393
2026-01-09 21:57:21.11	46.63	11.75	-23.0	-23.5	17.2	5.40e-06	0	27	0	13237223424	22	16371
2026-01-09 21:57:22.11	46.85	11.82	-23.0	-23.4	17.1	5.40e-06	0	27	0	13346275328	22	16224
2026-01-09 21:57:23.12	47.07	11.89	-23.0	-23.5	17.2	5.40e-06	0	27	0	13463715840	22	16243
2026-01-09 21:57:24.13	47.29	11.96	-22.9	-23.4	17.2	5.40e-06	0	27	0	13572767744	22	16110
2026-01-09 21:57:25.14	47.51	12.03	-23.0	-23.5	17.2	0.00e+00	0	27	0	13690208256	22	16342
2026-01-09 21:57:26.15	47.73	12.10	-22.9	-23.4	17.2	0.00e+00	0	27	0	13807648768	22	16149
2026-01-09 21:57:27.16	47.96	12.18	-23.0	-23.5	17.2	0.00e+00	0	27	0	13916700672	22	16404
2026-01-09 21:57:28.17	48.18	12.25	-22.8	-23.3	17.1	0.00e+00	0	27	0	14034141184	22	15922
2026-01-09 21:57:29.18	48.41	12.32	-22.9	-23.4	16.9	0.00e+00	0	27	0	14143193088	22	16195
2026-01-09 21:57:30.19	48.64	12.39	-23.0	-23.5	16.6	0.00e+00	0	27	0	14252244992	22	16348
2026-01-09 21:57:31.20	48.87	12.46	-22.8	-23.3	16.6	5.40e-06	0	27	0	14369685504	22	15946
2026-01-09 21:57:32.21	49.10	12.53	-22.7	-23.2	16.8	5.40e-06	0	27	0	14487126016	20	17786
2026-01-09 21:57:33.22	49.33	12.60	-22.7	-23.2	17.0	2.72e-05	0	27	0	14596177920	20	17697
2026-01-09 21:57:34.23	49.56	12.67	-22.8	-23.3	17.1	2.72e-05	0	27	0	14713618432	20	17836
2026-01-09 21:57:35.23	49.79	12.74	-22.6	-23.1	17.2	0.00e+00	0	27	0	14822670336	20	17518
2026-01-09 21:57:36.25	50.03	12.82	-22.7	-23.2	17.1	0.00e+00	0	27	0	14940110848	20	17766
2026-01-09 21:57:37.25	50.27	12.88	-22.6	-23.1	17.2	0.00e+00	0	27	0	15057551360	20	17589
2026-01-09 21:57:38.26	50.51	12.96	-22.7	-23.2	17.2	0.00e+00	0	27	0	15166603264	20	17728
2026-01-09 21:57:39.27	50.75	13.03	-22.9	-23.4	17.2	0.00e+00	0	27	0	15275655168	20	18066
2026-01-09 21:57:40.28	50.99	13.10	-22.6	-23.1	17.2	0.00e+00	0	27	0	15393095680	20	17548
2026-01-09 21:57:41.29	51.23	13.17	-22.9	-23.4	17.2	0.00e+00	0	27	0	15502147584	20	18100
2026-01-09 21:57:42.30	51.47	13.24	-22.6	-23.1	17.2	0.00e+00	0	27	0	15619588096	20	17457
2026-01-09 21:57:43.31	51.72	13.31	-22.7	-23.2	17.2	0.00e+00	0	27	0	15737028608	20	17621
2026-01-09 21:57:44.32	51.97	13.37	-22.6	-23.1	17.0	0.00e+00	0	27	0	15846080512	20	17526
2026-01-09 21:57:45.33	52.21	13.44	-22.6	-23.1	16.9	0.00e+00	0	27	0	15963521024	20	17576
2026-01-09 21:57:46.34	52.46	13.51	-22.5	-23.0	17.1	0.00e+00	0	27	0	16072572928	20	17278
2026-01-09 21:57:47.35	52.72	13.58	-22.5	-23.0	17.1	0.00e+00	0	27	0	16190013440	20	17239
2026-01-09 21:57:48.36	52.97	13.65	-22.4	-22.9	17.2	0.00e+00	0	27	0	16299065344	20	17057
2026-01-09 21:57:49.37	53.22	13.72	-22.5	-23.0	17.0	0.00e+00	0	27	0	16416505856	20	17324
2026-01-09 21:57:50.38	53.48	13.79	-22.4	-22.9	16.8	0.00e+00	0	27	0	16525557760	20	17149
2026-01-09 21:57:51.38	53.73	13.86	-22.5	-23.0	16.9	0.00e+00	0	27	0	16642998272	20	17265
2026-01-09 21:57:52.39	53.99	13.92	-22.4	-22.8	17.0	0.00e+00	0	27	0	16752050176	20	16984
2026-01-09 21:57:53.40	54.25	13.99	-22.3	-22.8	17.1	0.00e+00	0	27	0	16869490688	20	16920
2026-01-09 21:57:54.41	54.51	14.06	-22.4	-22.9	17.2	0.00e+00	0	27	0	16986931200	20	17104
2026-01-09 21:57:55.42	54.77	14.13	-22.4	-22.9	17.1	0.00e+00	0	27	0	17095983104	20	17161
2026-01-09 21:57:56.43	55.03	14.19	-22.2	-22.7	17.0	0.00e+00	0	27	0	17205035008	20	16788
2026-01-09 21:57:57.44	55.30	14.26	-22.2	-22.7	17.1	0.00e+00	0	27	0	17322475520	20	16637
2026-01-09 21:57:58.45	55.56	14.33	-22.3	-22.8	17.2	0.00e+00	0	27	0	17439916032	20	16918
2026-01-09 21:57:59.46	55.83	14.39	-22.4	-22.9	17.2	0.00e+00	0	27	0	17548967936	20	17179
2026-01-09 21:58:00.47	56.10	14.46	-22.2	-22.7	17.2	0.00e+00	0	27	0	17666408448	20	16680
2026-01-09 21:58:01.48	56.37	14.52	-22.2	-22.7	17.1	0.00e+00	0	27	0	17775460352	20	16657
2026-01-09 21:58:02.49	56.64	14.59	-22.2	-22.7	17.1	0.00e+00	0	27	0	17892900864	20	16717
2026-01-09 21:58:03.50	56.92	14.65	-22.1	-22.6	17.1	0.00e+00	0	27	0	18010341376	20	16530
2026-01-09 21:58:04.50	57.19	14.72	-22.1	-22.6	17.2	0.00e+00	0	27	0	18119393280	20	16488
2026-01-09 21:58:05.51	57.46	14.78	-22.2	-22.7	17.2	0.00e+00	0	27	0	18228445184	20	16627
2026-01-09 21:58:06.52	57.74	14.85	-22.2	-22.7	17.0	0.00e+00	0	27	0	18345885696	20	16679
2026-01-09 21:58:07.53	58.02	14.91	-22.0	-22.5	16.9	5.40e-06	0	27	0	18454937600	20	16278
2026-01-09 21:58:08.54	58.30	14.97	-22.1	-22.6	17.0	5.40e-06	0	27	0	18572378112	20	16551
2026-01-09 21:58:09.55	58.58	15.04	-22.0	-22.5	17.0	0.00e+00	0	27	0	18689818624	20	16286
2026-01-09 21:58:10.56	58.86	15.10	-21.9	-22.4	17.2	0.00e+00	0	27	0	18798870528	20	16132
2026-01-09 21:58:11.57	59.15	15.16	-22.0	-22.4	16.5	0.00e+00	0	27	0	18916311040	20	16201
2026-01-09 21:58:12.58	59.43	15.22	-21.9	-22.4	16.2	0.00e+00	0	27	0	19025362944	20	16116
2026-01-09 21:58:13.59	59.72	15.29	-21.9	-22.3	16.4	5.40e-06	0	27	0	19134414848	20	16038
2026-01-09 21:58:14.60	60.01	15.35	-21.8	-22.3	16.7	5.40e-06	0	27	0	19251855360	20	15893
2026-01-09 21:58:15.61	60.30	15.41	-21.9	-22.4	17.2	5.40e-06	0	27	0	19369295872	20	16055
2026-01-09 21:58:16.61	60.59	15.47	-21.9	-22.4	17.2	5.40e-06	0	27	0	19478347776	20	16177
2026-01-09 21:58:17.62	60.88	15.53	-21.7	-22.2	17.2	0.00e+00	0	27	0	19595788288	18	17658
2026-01-09 21:58:18.63	61.17	15.59	-21.6	-22.1	16.9	0.00e+00	0	27	0	19704840192	18	17404
2026-01-09 21:58:19.64	61.47	15.65	-21.6	-22.1	16.2	0.00e+00	0	27	0	19822280704	18	17409
2026-01-09 21:58:20.65	61.76	15.70	-21.5	-21.9	16.6	0.00e+00	0	27	0	19939721216	18	17201
2026-01-09 21:58:21.66	62.06	15.76	-21.5	-22.0	17.0	5.40e-06	0	27	0	20048773120	18	17305
2026-01-09 21:58:22.67	62.36	15.82	-21.6	-22.1	17.1	5.40e-06	0	27	0	20157825024	18	17508
2026-01-09 21:58:23.68	62.66	15.88	-21.4	-21.9	17.0	0.00e+00	0	27	0	20275265536	18	17064
2026-01-09 21:58:24.69	62.96	15.93	-21.4	-21.9	17.0	0.00e+00	0	27	0	20384317440	18	17083
2026-01-09 21:58:25.70	63.27	15.99	-21.3	-21.8	17.1	0.00e+00	0	27	0	20501757952	18	16928
2026-01-09 21:58:26.71	63.57	16.05	-21.3	-21.8	17.1	0.00e+00	0	27	0	20619198464	18	16910
2026-01-09 21:58:27.72	63.88	16.10	-21.5	-21.9	16.9	0.00e+00	0	27	0	20728250368	18	17180
2026-01-09 21:58:28.73	64.18	16.16	-21.4	-21.9	17.1	0.00e+00	0	27	0	20845690880	18	17034
2026-01-09 21:58:29.74	64.49	16.21	-21.4	-21.9	17.2	0.00e+00	0	27	0	20954742784	18	17067
2026-01-09 21:58:30.75	64.80	16.26	-21.3	-21.8	17.2	0.00e+00	0	27	0	21072183296	18	16943
2026-01-09 21:58:31.76	65.11	16.32	-21.4	-21.9	17.2	0.00e+00	0	27	0	21181235200	18	17092
2026-01-09 21:58:32.77	65.42	16.37	-21.2	-21.6	17.3	0.00e+00	0	27	0	21298675712	18	16594
2026-01-09 21:58:33.78	65.74	16.42	-21.2	-21.7	17.2	0.00e+00	0	27	0	21407727616	18	16637
2026-01-09 21:58:34.78	66.05	16.47	-21.3	-21.8	17.1	0.00e+00	0	27	0	21525168128	18	16846
2026-01-09 21:58:35.79	66.36	16.52	-21.1	-21.6	16.9	0.00e+00	0	27	0	21634220032	18	16574
2026-01-09 21:58:36.80	66.68	16.57	-21.2	-21.7	16.8	0.00e+00	0	27	0	21751660544	18	16639
2026-01-09 21:58:37.81	67.00	16.62	-21.2	-21.6	16.8	5.40e-06	0	27	0	21869101056	18	16608
2026-01-09 21:58:38.82	67.32	16.67	-21.2	-21.7	17.0	5.40e-06	0	27	0	21978152960	18	16759
2026-01-09 21:58:39.83	67.64	16.72	-21.3	-21.8	17.1	5.40e-06	0	27	0	22087204864	18	16912
2026-01-09 21:58:40.84	67.96	16.77	-21.2	-21.6	17.1	0.00e+00	0	27	0	22204645376	18	16612
2026-01-09 21:58:41.85	68.29	16.81	-21.1	-21.6	17.1	0.00e+00	0	27	0	22322085888	18	16543
2026-01-09 21:58:42.86	68.61	16.86	-21.2	-21.7	17.1	0.00e+00	0	27	0	22431137792	18	16679
2026-01-09 21:58:43.87	68.93	16.90	-21.1	-21.6	17.1	0.00e+00	0	27	0	22548578304	18	16506
2026-01-09 21:58:44.88	69.26	16.95	-21.2	-21.7	17.1	0.00e+00	0	27	0	22657630208	18	16662
2026-01-09 21:58:45.89	69.59	16.99	-21.1	-21.6	17.2	0.00e+00	0	27	0	22775070720	18	16533
2026-01-09 21:58:46.90	69.92	17.04	-21.2	-21.6	17.2	0.00e+00	0	27	0	22892511232	18	16615
2026-01-09 21:58:47.90	70.24	17.08	-21.2	-21.7	17.2	0.00e+00	0	27	0	23001563136	18	16716
2026-01-09 21:58:48.91	70.58	17.12	-21.1	-21.5	17.1	0.00e+00	0	27	0	23110615040	18	16403
2026-01-09 21:58:49.92	70.91	17.16	-21.1	-21.5	16.9	0.00e+00	0	27	0	23228055552	18	16419
2026-01-09 21:58:50.93	71.24	17.20	-21.1	-21.6	16.4	0.00e+00	0	27	0	23337107456	18	16428
2026-01-09 21:58:51.94	71.57	17.24	-21.1	-21.6	16.3	0.00e+00	0	27	0	23454547968	18	16428
2026-01-09 21:58:52.95	71.91	17.28	-21.2	-21.7	16.9	5.40e-06	0	27	0	23571988480	18	16683
2026-01-09 21:58:53.96	72.24	17.32	-21.1	-21.6	17.1	5.40e-06	0	27	0	23681040384	18	16569
2026-01-09 21:58:54.97	72.58	17.36	-21.1	-21.6	17.2	0.00e+00	0	27	0	23798480896	18	16467
2026-01-09 21:58:55.98	72.92	17.39	-21.1	-21.6	17.2	0.00e+00	0	27	0	23907532800	18	16530
2026-01-09 21:58:56.99	73.26	17.43	-21.0	-21.5	17.2	0.00e+00	0	27	0	24016584704	18	16351
2026-01-09 21:58:58.00	73.60	17.46	-21.1	-21.6	17.2	0.00e+00	0	28	0	24134025216	18	16441
2026-01-09 21:58:59.00	73.94	17.50	-21.2	-21.6	17.1	0.00e+00	0	28	0	24251465728	18	16604
2026-01-09 21:59:00.01	74.28	17.53	-21.2	-21.6	17.1	0.00e+00	0	28	0	24360517632	18	16609
2026-01-09 21:59:01.02	74.62	17.56	-21.2	-21.6	17.2	0.00e+00	0	28	0	24477958144	18	16596
2026-01-09 21:59:02.03	74.96	17.60	-21.0	-21.5	17.2	0.00e+00	0	28	0	24587010048	18	16360
2026-01-09 21:59:03.04	75.31	17.63	-21.1	-21.5	17.2	0.00e+00	0	27	0	24704450560	18	16416
2026-01-09 21:59:04.05	75.65	17.66	-21.0	-21.5	17.1	0.00e+00	0	27	0	24821891072	18	16289
2026-01-09 21:59:05.06	76.00	17.69	-21.1	-21.6	17.2	0.00e+00	0	28	0	24930942976	18	16443
2026-01-09 21:59:06.07	76.34	17.71	-21.0	-21.5	17.2	0.00e+00	0	27	0	25039994880	18	16281
2026-01-09 21:59:07.08	76.69	17.74	-21.1	-21.6	17.1	0.00e+00	0	28	0	25157435392	18	16444
2026-01-09 21:59:08.09	77.04	17.77	-21.0	-21.5	17.1	0.00e+00	0	28	0	25266487296	18	16262
2026-01-09 21:59:09.10	77.39	17.79	-21.0	-21.5	17.1	0.00e+00	0	28	0	25383927808	18	16287
2026-01-09 21:59:10.11	77.74	17.82	-21.1	-21.6	16.9	0.00e+00	0	27	0	25501368320	18	16480
2026-01-09 21:59:11.12	78.09	17.84	-20.9	-21.4	16.8	0.00e+00	0	27	0	25610420224	18	16151
2026-01-09 21:59:12.13	78.44	17.87	-21.0	-21.4	16.8	0.00e+00	0	28	0	25727860736	18	16238
2026-01-09 21:59:13.14	78.79	17.89	-21.2	-21.6	16.8	5.40e-06	0	28	0	25836912640	18	16598
2026-01-09 21:59:14.14	79.14	17.91	-21.0	-21.4	17.1	5.40e-06	0	28	0	25954353152	18	16233
2026-01-09 21:59:15.16	79.49	17.93	-21.0	-21.5	17.1	0.00e+00	0	28	0	26063405056	18	16303
2026-01-09 21:59:16.16	79.84	17.95	-21.0	-21.4	17.1	0.00e+00	0	28	0	26180845568	18	16191
2026-01-09 21:59:17.17	80.20	17.97	-21.0	-21.5	17.1	0.00e+00	0	28	0	26289897472	18	16308
2026-01-09 21:59:18.18	80.55	17.99	-20.9	-21.4	17.1	0.00e+00	0	28	0	26407337984	18	16081
2026-01-09 21:59:19.19	80.90	18.00	-21.0	-21.5	16.9	0.00e+00	0	27	0	26524778496	18	16317
2026-01-09 21:59:20.20	81.26	18.02	-20.9	-21.4	16.9	0.00e+00	0	27	0	26633830400	18	16058
2026-01-09 21:59:21.21	81.61	18.03	-21.0	-21.5	17.0	0.00e+00	0	28	0	26751270912	18	16309
2026-01-09 21:59:22.22	81.97	18.05	-21.0	-21.5	17.0	0.00e+00	0	28	0	26860322816	18	16293
2026-01-09 21:59:23.23	82.32	18.06	-20.9	-21.4	16.9	0.00e+00	0	28	0	26969374720	18	16098
2026-01-09 21:59:24.24	82.68	18.07	-21.1	-21.5	16.9	0.00e+00	0	28	0	27086815232	18	16333
2026-01-09 21:59:25.25	83.04	18.08	-21.0	-21.5	16.7	0.00e+00	0	28	0	27204255744	18	16261
2026-01-09 21:59:26.25	83.39	18.09	-20.9	-21.3	16.9	0.00e+00	0	27	0	27313307648	18	16037
2026-01-09 21:59:27.26	83.75	18.10	-21.1	-21.5	16.9	0.00e+00	0	27	0	27430748160	18	16327
2026-01-09 21:59:28.27	84.11	18.11	-21.0	-21.5	16.9	0.00e+00	0	28	0	27539800064	18	16248
2026-01-09 21:59:29.28	84.46	18.12	-21.1	-21.6	16.9	0.00e+00	0	28	0	27657240576	18	16486
2026-01-09 21:59:30.28	84.82	18.12	-21.0	-21.4	17.1	0.00e+00	0	28	0	27766292480	18	16194
2026-01-09 21:59:31.29	85.18	18.13	-20.9	-21.3	17.0	0.00e+00	0	28	0	27883732992	18	16048
2026-01-09 21:59:32.30	85.53	18.13	-20.9	-21.4	16.9	0.00e+00	0	28	0	27992784896	18	16115
2026-01-09 21:59:33.31	85.89	18.13	-21.0	-21.5	17.0	0.00e+00	0	28	0	28110225408	18	16276
2026-01-09 21:59:34.32	86.25	18.14	-21.0	-21.4	17.0	0.00e+00	0	28	0	28219277312	18	16179
2026-01-09 21:59:35.34	86.61	18.14	-21.0	-21.5	17.0	0.00e+00	0	28	0	28336717824	18	16240
2026-01-09 21:59:36.35	86.97	18.14	-21.0	-21.4	17.1	0.00e+00	0	28	0	28454158336	18	16157
2026-01-09 21:59:37.35	87.33	18.14	-20.9	-21.3	16.9	0.00e+00	0	28	0	28563210240	18	16046
2026-01-09 21:59:38.36	87.68	18.14	-20.8	-21.3	17.0	0.00e+00	0	28	0	28680650752	18	15949
2026-01-09 21:59:39.37	88.04	18.13	-21.0	-21.4	16.9	0.00e+00	0	28	0	28789702656	18	16174
2026-01-09 21:59:40.38	88.40	18.13	-20.9	-21.3	17.0	0.00e+00	0	28	0	28898754560	18	16021
2026-01-09 21:59:41.39	88.76	18.12	-21.0	-21.5	16.9	0.00e+00	0	28	0	29016195072	18	16268
2026-01-09 21:59:42.40	89.12	18.12	-21.0	-21.5	17.0	0.00e+00	0	28	0	29133635584	18	16287
2026-01-09 21:59:43.41	89.47	18.11	-21.0	-21.4	17.0	0.00e+00	0	28	0	29242687488	18	16237
2026-01-09 21:59:44.42	89.83	18.10	-21.0	-21.4	16.9	0.00e+00	0	28	0	29360128000	18	16233
2026-01-09 21:59:45.43	90.19	18.10	-21.0	-21.4	17.0	0.00e+00	0	28	0	29469179904	18	16210
2026-01-09 21:59:46.44	90.55	18.09	-21.0	-21.5	16.9	0.00e+00	0	28	0	29586620416	18	16258
2026-01-09 21:59:47.45	90.90	18.08	-21.0	-21.5	17.0	0.00e+00	0	28	0	29704060928	18	16323
2026-01-09 21:59:48.46	91.26	18.07	-21.1	-21.6	16.9	0.00e+00	0	28	0	29813112832	18	16460
2026-01-09 21:59:49.47	91.62	18.05	-21.0	-21.5	16.9	0.00e+00	0	28	0	29922164736	18	16313
2026-01-09 21:59:50.47	91.97	18.04	-21.2	-21.7	17.0	0.00e+00	0	28	0	30039605248	18	16636
2026-01-09 21:59:51.48	92.33	18.03	-21.1	-21.6	16.9	0.00e+00	0	28	0	30148657152	18	16499
2026-01-09 21:59:52.49	92.68	18.01	-21.1	-21.5	16.9	0.00e+00	0	28	0	30266097664	18	16309
2026-01-09 21:59:53.50	93.04	17.99	-21.1	-21.5	17.0	0.00e+00	0	28	0	30383538176	18	16343
2026-01-09 21:59:54.51	93.39	17.98	-21.3	-21.7	16.9	0.00e+00	0	28	0	30492590080	18	16767
2026-01-09 21:59:55.52	93.74	17.96	-21.1	-21.5	16.9	0.00e+00	0	28	0	30610030592	18	16414
2026-01-09 21:59:56.53	94.10	17.94	-21.1	-21.6	16.9	0.00e+00	0	28	0	30719082496	18	16462
2026-01-09 21:59:57.54	94.45	17.92	-21.2	-21.6	16.9	0.00e+00	0	28	0	30828134400	18	16595
2026-01-09 21:59:58.54	94.80	17.90	-21.1	-21.5	16.9	0.00e+00	0	28	0	30953963520	18	16403
2026-01-09 21:59:59.56	95.16	17.88	-21.1	-21.6	16.9	0.00e+00	0	28	0	31063015424	18	16454
2026-01-09 22:00:00.56	95.50	17.85	-21.0	-21.5	16.9	0.00e+00	0	28	0	31172067328	18	16287
2026-01-09 22:00:01.58	95.86	17.83	-21.0	-21.5	16.9	0.00e+00	0	28	0	31289507840	18	16275
2026-01-09 22:00:02.58	96.21	17.81	-21.1	-21.5	16.9	0.00e+00	0	28	0	31398559744	18	16332
2026-01-09 22:00:03.59	96.56	17.78	-21.0	-21.4	17.0	0.00e+00	0	28	0	31516000256	18	16194
2026-01-09 22:00:04.60	96.90	17.75	-21.1	-21.5	17.0	0.00e+00	0	28	0	31633440768	18	16405
2026-01-09 22:00:05.61	97.25	17.73	-21.0	-21.5	16.9	0.00e+00	0	28	0	31742492672	18	16286
2026-01-09 22:00:06.62	97.60	17.70	-21.2	-21.7	16.9	0.00e+00	0	28	0	31851544576	18	16639
2026-01-09 22:00:07.63	97.95	17.67	-21.1	-21.5	16.9	0.00e+00	0	28	0	31968985088	18	16397
2026-01-09 22:00:08.64	98.29	17.64	-21.1	-21.5	17.0	0.00e+00	0	28	0	32086425600	18	16387
2026-01-09 22:00:09.65	98.64	17.61	-21.0	-21.5	16.9	0.00e+00	0	28	0	32195477504	18	16277
2026-01-09 22:00:10.66	98.98	17.58	-21.0	-21.5	16.9	0.00e+00	0	28	0	32312918016	18	16252
2026-01-09 22:00:11.67	99.33	17.55	-21.1	-21.5	16.9	0.00e+00	0	28	0	32421969920	18	16391
2026-01-09 22:00:12.68	99.67	17.51	-21.1	-21.5	17.0	0.00e+00	0	28	0	32539410432	18	16293
2026-01-09 22:00:13.69	100.01	17.48	-21.1	-21.5	17.0	0.00e+00	0	28	0	32648462336	18	16412
2026-01-09 22:00:14.70	100.35	17.44	-21.2	-21.7	16.9	0.00e+00	0	28	0	32765902848	18	16672
2026-01-09 22:00:15.71	100.69	17.41	-21.1	-21.6	17.0	0.00e+00	0	28	0	32883343360	18	16438
2026-01-09 22:00:16.72	101.03	17.37	-21.3	-21.7	17.0	0.00e+00	0	28	0	32992395264	18	16696
2026-01-09 22:00:17.73	101.37	17.33	-21.3	-21.7	17.0	0.00e+00	0	28	0	33101447168	18	16809
2026-01-09 22:00:18.74	101.71	17.30	-21.2	-21.7	17.0	0.00e+00	0	28	0	33218887680	18	16624
2026-01-09 22:00:19.75	102.04	17.26	-21.2	-21.6	17.1	0.00e+00	0	28	0	33336328192	18	16498
2026-01-09 22:00:20.76	102.38	17.22	-21.2	-21.6	17.1	0.00e+00	0	28	0	33445380096	18	16610
2026-01-09 22:00:21.77	102.71	17.18	-21.3	-21.7	17.1	0.00e+00	0	28	0	33562820608	18	16709
2026-01-09 22:00:22.78	103.05	17.14	-21.3	-21.7	17.1	0.00e+00	0	28	0	33671872512	18	16664
2026-01-09 22:00:23.79	103.38	17.10	-21.2	-21.6	17.0	0.00e+00	0	28	0	33780924416	18	16609
2026-01-09 22:00:24.80	103.71	17.05	-21.3	-21.7	17.1	0.00e+00	0	28	0	33906753536	18	16757
2026-01-09 22:00:25.81	104.04	17.01	-21.4	-21.9	17.1	0.00e+00	0	28	0	34015805440	18	17005
2026-01-09 22:00:26.82	104.37	16.97	-21.3	-21.8	17.1	0.00e+00	0	28	0	34124857344	18	16837
2026-01-09 22:00:27.82	104.70	16.92	-21.2	-21.6	17.1	0.00e+00	0	28	0	34242297856	18	16614
2026-01-09 22:00:28.83	105.02	16.88	-21.3	-21.7	17.1	0.00e+00	0	28	0	34351349760	18	16772
2026-01-09 22:00:29.85	105.35	16.83	-21.4	-21.8	17.1	0.00e+00	0	28	0	34468790272	18	16853
2026-01-09 22:00:30.86	105.68	16.78	-21.4	-21.8	17.1	0.00e+00	0	28	0	34586230784	18	16874
2026-01-09 22:00:31.87	106.00	16.74	-21.3	-21.7	17.1	0.00e+00	0	28	0	34695282688	18	16720
2026-01-09 22:00:32.87	106.32	16.69	-21.4	-21.8	17.1	0.00e+00	0	28	0	34812723200	18	16856
2026-01-09 22:00:33.88	106.64	16.64	-21.3	-21.8	17.2	0.00e+00	0	28	0	34921775104	18	16829
2026-01-09 22:00:34.89	106.96	16.59	-21.4	-21.8	17.2	0.00e+00	0	28	0	35030827008	18	16892
2026-01-09 22:00:35.90	107.28	16.54	-21.4	-21.8	17.2	0.00e+00	0	28	0	35148267520	18	16983
2026-01-09 22:00:36.91	107.60	16.49	-21.4	-21.9	17.1	0.00e+00	0	28	0	35265708032	18	17006
2026-01-09 22:00:37.92	107.91	16.44	-21.4	-21.8	17.2	0.00e+00	0	28	0	35374759936	18	16876
2026-01-09 22:00:38.93	108.23	16.39	-21.5	-21.9	17.2	0.00e+00	0	28	0	35492200448	18	17128
2026-01-09 22:00:39.94	108.54	16.33	-21.5	-21.9	17.2	0.00e+00	0	28	0	35601252352	18	17087
2026-01-09 22:00:40.95	108.86	16.28	-21.6	-22.0	17.2	0.00e+00	0	28	0	35718692864	18	17316
2026-01-09 22:00:41.96	109.17	16.23	-21.7	-22.1	17.2	0.00e+00	0	28	0	35836133376	18	17452
2026-01-09 22:00:42.97	109.48	16.17	-21.6	-22.0	17.2	0.00e+00	0	28	0	35945185280	18	17330
2026-01-09 22:00:43.98	109.79	16.12	-21.7	-22.1	17.3	0.00e+00	0	28	0	36054237184	18	17572
2026-01-09 22:00:44.98	110.09	16.06	-21.6	-22.0	17.3	0.00e+00	0	28	0	36171677696	18	17272
2026-01-09 22:00:45.99	110.40	16.01	-21.6	-22.0	17.3	0.00e+00	0	28	0	36289118208	18	17324
2026-01-09 22:00:47.00	110.70	15.95	-21.7	-22.1	17.3	0.00e+00	0	28	0	36398170112	18	17440
2026-01-09 22:00:48.01	111.01	15.89	-21.7	-22.1	17.3	0.00e+00	0	28	0	36515610624	18	17465
2026-01-09 22:00:49.02	111.31	15.84	-21.7	-22.1	17.3	0.00e+00	0	28	0	36624662528	18	17561
2026-01-09 22:00:50.03	111.61	15.78	-21.7	-22.1	17.3	0.00e+00	0	28	0	36742103040	18	17531
2026-01-09 22:00:51.04	111.91	15.72	-21.8	-22.2	17.3	0.00e+00	0	28	0	36851154944	18	17667
2026-01-09 22:00:52.05	112.21	15.66	-21.8	-22.2	17.4	0.00e+00	0	28	0	36968595456	18	17752
2026-01-09 22:00:53.06	112.50	15.60	-21.8	-22.2	17.3	0.00e+00	0	28	0	37077647360	18	17676
2026-01-09 22:00:54.07	112.80	15.54	-21.8	-22.3	17.3	0.00e+00	0	28	0	37195087872	18	17811
2026-01-09 22:00:55.08	113.09	15.48	-21.8	-22.2	17.4	0.00e+00	0	28	0	37304139776	18	17664
2026-01-09 22:00:56.09	113.39	15.42	-21.8	-22.2	17.4	0.00e+00	0	28	0	37421580288	18	17772
2026-01-09 22:00:57.10	113.68	15.36	-21.8	-22.2	17.4	0.00e+00	0	28	0	37539020800	18	17800
2026-01-09 22:00:58.11	113.97	15.30	-21.8	-22.2	17.4	0.00e+00	0	28	0	37648072704	18	17755
2026-01-09 22:00:59.12	114.26	15.24	-21.8	-22.3	17.4	0.00e+00	0	28	0	37765513216	18	17815
2026-01-09 22:01:00.12	114.54	15.18	-21.8	-22.2	17.4	0.00e+00	0	28	0	37874565120	18	17803
2026-01-09 22:01:01.13	114.83	15.11	-21.9	-22.3	17.4	0.00e+00	0	28	0	37983617024	18	17902
2026-01-09 22:01:02.14	115.11	15.05	-22.0	-22.5	17.4	0.00e+00	0	28	0	38101057536	18	18240
2026-01-09 22:01:03.15	115.40	14.99	-21.8	-22.2	17.4	0.00e+00	0	28	0	38218498048	18	17795
2026-01-09 22:01:04.16	115.68	14.92	-21.9	-22.3	17.4	0.00e+00	0	28	0	38327549952	18	18000
2026-01-09 22:01:05.17	115.96	14.86	-21.9	-22.3	17.4	0.00e+00	0	28	0	38444990464	18	17914
2026-01-09 22:01:06.18	116.24	14.80	-22.0	-22.4	17.4	0.00e+00	0	28	0	38554042368	18	18118
2026-01-09 22:01:07.19	116.52	14.73	-21.9	-22.4	17.5	0.00e+00	0	28	0	38671482880	18	18040
2026-01-09 22:01:08.20	116.79	14.67	-22.0	-22.4	17.5	0.00e+00	0	28	0	38788923392	18	18097
2026-01-09 22:01:09.21	117.07	14.60	-22.0	-22.5	17.5	0.00e+00	0	28	0	38897975296	18	18252
2026-01-09 22:01:10.22	117.34	14.54	-22.1	-22.5	17.4	0.00e+00	0	28	0	39007027200	18	18384
2026-01-09 22:01:11.23	117.61	14.47	-22.0	-22.4	17.5	0.00e+00	0	28	0	39124467712	18	18219
2026-01-09 22:01:12.24	117.89	14.40	-22.1	-22.5	17.5	0.00e+00	0	28	0	39233519616	18	18286
2026-01-09 22:01:13.25	118.15	14.34	-22.1	-22.6	17.4	0.00e+00	0	28	0	39350960128	18	18478
2026-01-09 22:01:14.26	118.42	14.27	-22.3	-22.7	17.4	0.00e+00	0	28	0	39468400640	18	18687
2026-01-09 22:01:15.27	118.69	14.20	-22.2	-22.6	17.4	0.00e+00	0	28	0	39577452544	18	18607
2026-01-09 22:01:16.28	118.95	14.13	-22.2	-22.6	17.5	0.00e+00	0	28	0	39694893056	18	18535
2026-01-09 22:01:17.29	119.22	14.07	-22.2	-22.6	17.5	0.00e+00	0	28	0	39803944960	18	18508
2026-01-09 22:01:18.30	119.48	14.00	-22.4	-22.8	17.4	0.00e+00	0	28	0	39921385472	18	18991
2026-01-09 22:01:19.30	119.74	13.93	-22.2	-22.7	17.5	0.00e+00	0	28	0	40030437376	18	18693
2026-01-09 22:01:20.31	120.00	13.86	-22.2	-22.7	17.5	0.00e+00	0	28	0	40147877888	18	18665
2026-01-09 22:01:21.32	120.26	13.79	-22.4	-22.8	17.4	0.00e+00	0	28	0	40256929792	18	19025
2026-01-09 22:01:22.33	120.51	13.73	-22.4	-22.8	17.4	0.00e+00	0	28	0	40374370304	18	18943
2026-01-09 22:01:23.34	120.77	13.66	-22.3	-22.7	17.5	0.00e+00	0	28	0	40483422208	18	18835
2026-01-09 22:01:24.35	121.02	13.59	-22.3	-22.7	17.5	0.00e+00	0	28	0	40600862720	18	18833
2026-01-09 22:01:25.36	121.28	13.52	-22.4	-22.8	17.5	0.00e+00	0	28	0	40718303232	18	18912
2026-01-09 22:01:26.36	121.53	13.45	-22.5	-23.0	17.4	0.00e+00	0	28	0	40827355136	18	19305
2026-01-09 22:01:27.37	121.78	13.38	-22.4	-22.9	17.5	0.00e+00	0	28	0	40936407040	18	19115
2026-01-09 22:01:28.38	122.03	13.31	-22.6	-23.0	17.5	0.00e+00	0	28	0	41053847552	18	19382
2026-01-09 22:01:29.39	122.27	13.24	-22.6	-23.0	17.5	0.00e+00	0	28	0	41162899456	18	19405
2026-01-09 22:01:30.40	122.52	13.17	-22.6	-23.0	17.5	0.00e+00	0	28	0	41280339968	18	19409
2026-01-09 22:01:31.40	122.76	13.10	-22.5	-23.0	17.4	0.00e+00	0	28	0	41397780480	18	19347
2026-01-09 22:01:32.41	123.00	13.03	-22.7	-23.1	17.4	0.00e+00	0	28	0	41506832384	18	19687
2026-01-09 22:01:33.42	123.25	12.96	-22.7	-23.1	17.4	0.00e+00	0	28	0	41615884288	20	17553
2026-01-09 22:01:34.43	123.49	12.89	-22.7	-23.2	17.4	0.00e+00	0	28	0	41733324800	20	17617
2026-01-09 22:01:35.44	123.73	12.82	-22.8	-23.2	17.5	0.00e+00	0	28	0	41842376704	20	17713
2026-01-09 22:01:36.44	123.96	12.75	-22.8	-23.2	17.5	5.40e-06	0	28	0	41959817216	20	17649
2026-01-09 22:01:37.45	124.20	12.67	-23.0	-23.4	17.5	5.40e-06	0	28	0	42077257728	20	18074
2026-01-09 22:01:38.46	124.43	12.60	-22.9	-23.3	17.4	5.40e-06	0	28	0	42186309632	20	17895
2026-01-09 22:01:39.47	124.67	12.53	-22.7	-23.1	17.5	0.00e+00	0	28	0	42303750144	20	17529
2026-01-09 22:01:40.48	124.90	12.46	-22.7	-23.1	17.5	0.00e+00	0	28	0	42412802048	20	17569
2026-01-09 22:01:41.49	125.13	12.39	-47.4	-49.9	6.1	0.00e+00	0	28	104	42496688128	60	38322
2026-01-09 22:01:42.50	125.36	12.32	-47.4	-49.9	6.1	0.00e+00	0	28	104	42496688128	60	38354
2026-01-09 22:01:43.51	125.59	12.24	-47.3	-49.8	6.1	0.00e+00	0	28	104	42496688128	60	37720
2026-01-09 22:01:44.52	125.82	12.17	-47.3	-49.7	6.1	0.00e+00	0	27	104	42496688128	60	37549
2026-01-09 22:01:45.52	126.04	12.10	-47.4	-49.9	6.1	0.00e+00	0	27	104	42496688128	60	38134
2026-01-09 22:01:46.53	126.26	12.03	-47.0	-49.6	6.1	0.00e+00	0	28	104	42496688128	60	36888
2026-01-09 22:01:47.54	126.49	11.96	-47.3	-49.8	6.1	0.00e+00	0	28	104	42496688128	60	37815
2026-01-09 22:01:48.55	126.71	11.88	-47.0	-49.6	6.1	0.00e+00	0	27	104	42496688128	60	36932
2026-01-09 22:01:49.56	126.93	11.81	-47.3	-49.7	6.1	0.00e+00	0	28	104	42496688128	60	37494
2026-01-09 22:01:50.57	127.15	11.74	-47.3	-49.8	6.1	0.00e+00	0	28	104	42496688128	60	37790
2026-01-09 22:01:51.58	127.37	11.67	-47.4	-49.9	6.1	0.00e+00	0	28	104	42496688128	60	38329
2026-01-09 22:01:52.59	127.59	11.59	-47.3	-49.8	6.1	0.00e+00	0	27	104	42496688128	60	38014
2026-01-09 22:01:53.60	127.80	11.52	-47.2	-49.7	6.1	0.00e+00	0	27	104	42496688128	60	37469
2026-01-09 22:01:54.61	128.02	11.45	-47.2	-49.8	6.1	0.00e+00	0	27	104	42496688128	60	37665
2026-01-09 22:01:55.62	128.23	11.38	-47.3	-49.8	6.1	0.00e+00	0	28	104	42496688128	60	38008
2026-01-09 22:01:56.62	128.44	11.31	-47.1	-49.6	6.1	0.00e+00	0	28	104	42496688128	60	37110
2026-01-09 22:01:57.63	128.65	11.23	-47.1	-49.6	6.1	0.00e+00	0	27	104	42496688128	60	37100
2026-01-09 22:01:58.64	128.86	11.16	-47.4	-49.8	6.1	0.00e+00	0	27	104	42496688128	60	37896
2026-01-09 22:01:59.66	129.07	11.09	-47.2	-49.7	6.1	0.00e+00	0	27	104	42496688128	60	37290
2026-01-09 22:02:00.65	129.27	11.02	-47.3	-49.8	6.1	0.00e+00	0	27	104	42496688128	60	37948
2026-01-09 22:02:01.66	129.48	10.94	-47.1	-49.7	6.1	0.00e+00	0	27	104	42496688128	60	37253
2026-01-09 22:02:02.67	129.68	10.87	-47.1	-49.7	6.1	0.00e+00	0	27	104	42496688128	60	37236
2026-01-09 22:02:03.67	129.89	10.80	-47.3	-49.7	6.1	0.00e+00	0	28	104	42496688128	60	37571
2026-01-09 22:02:04.68	130.09	10.73	-47.3	-49.7	6.1	0.00e+00	0	27	104	42496688128	60	37556
2026-01-09 22:02:05.69	130.29	10.65	-47.1	-49.6	6.1	0.00e+00	0	27	104	42496688128	60	37126
2026-01-09 22:02:06.70	130.49	10.58	-47.2	-49.7	6.1	0.00e+00	0	27	104	42496688128	60	37439
2026-01-09 22:02:07.71	130.69	10.51	-46.5	-49.1	6.1	0.00e+00	0	28	104	42496688128	60	34887
2026-01-09 22:02:08.72	130.89	10.44	-46.9	-49.4	6.1	0.00e+00	0	27	104	42496688128	60	36288
2026-01-09 22:02:09.72	131.08	10.36	-47.2	-49.7	6.1	0.00e+00	0	27	104	42496688128	60	37380
2026-01-09 22:02:10.73	131.28	10.29	-47.0	-49.6	6.1	0.00e+00	0	27	104	42496688128	60	36846
2026-01-09 22:02:11.74	131.47	10.22	-47.0	-49.5	6.1	0.00e+00	0	27	104	42496688128	60	36424
2026-01-09 22:02:12.75	131.66	10.15	-46.7	-49.3	6.1	0.00e+00	0	27	104	42496688128	60	35551
2026-01-09 22:02:13.76	131.86	10.07	-46.9	-49.5	6.1	0.00e+00	0	27	104	42496688128	60	36524
2026-01-09 22:02:14.77	132.05	10.00	-46.9	-49.5	6.1	0.00e+00	0	28	104	42496688128	60	36444
2026-01-09 22:02:15.78	132.24	9.93	-47.2	-49.7	6.1	0.00e+00	0	27	104	42496688128	60	37275
2026-01-09 22:02:16.79	132.43	9.86	-47.2	-49.7	6.1	0.00e+00	0	27	104	42496688128	60	37319
2026-01-09 22:02:17.80	132.61	9.78	-47.2	-49.8	6.1	0.00e+00	0	27	104	42496688128	60	37661
2026-01-09 22:02:18.81	132.80	9.71	-47.3	-49.8	6.1	0.00e+00	0	27	104	42496688128	60	37946
2026-01-09 22:02:19.82	132.98	9.64	-47.2	-49.7	6.1	0.00e+00	0	27	104	42496688128	60	37361
2026-01-09 22:02:20.83	133.17	9.57	-47.2	-49.7	6.1	0.00e+00	0	27	104	42496688128	60	37554
2026-01-09 22:02:21.84	133.35	9.50	-47.0	-49.6	6.1	0.00e+00	0	27	104	42496688128	60	36852
2026-01-09 22:02:22.85	133.53	9.42	-47.2	-49.7	6.1	0.00e+00	0	27	104	42496688128	60	37367
2026-01-09 22:02:23.86	133.72	9.35	-46.9	-49.4	6.1	0.00e+00	0	27	104	42496688128	60	36345
2026-01-09 22:02:24.87	133.90	9.28	-47.2	-49.7	6.1	0.00e+00	0	27	104	42496688128	60	37268
2026-01-09 22:02:25.88	134.07	9.21	-47.3	-49.7	6.1	0.00e+00	0	27	104	42496688128	60	37576
2026-01-09 22:02:26.88	134.25	9.14	-47.2	-49.7	6.1	0.00e+00	0	27	104	42496688128	60	37248
2026-01-09 22:02:27.89	134.43	9.07	-47.3	-49.8	6.1	0.00e+00	0	27	104	42496688128	60	37764
2026-01-09 22:02:28.90	134.60	8.99	-47.2	-49.7	6.1	0.00e+00	0	27	104	42496688128	60	37284
2026-01-09 22:02:29.91	134.78	8.92	-47.1	-49.6	6.1	0.00e+00	0	27	104	42496688128	60	37163
2026-01-09 22:02:30.92	134.95	8.85	-47.2	-49.7	6.1	0.00e+00	0	27	104	42496688128	60	37242
2026-01-09 22:02:31.93	135.12	8.78	-47.1	-49.6	6.1	0.00e+00	0	27	104	42496688128	60	36946
2026-01-09 22:02:32.94	135.30	8.71	-47.1	-49.6	6.1	0.00e+00	0	27	104	42496688128	60	36820
2026-01-09 22:02:33.94	135.47	8.64	-47.2	-49.7	6.1	0.00e+00	0	27	104	42496688128	60	37324
2026-01-09 22:02:34.95	135.64	8.57	-47.1	-49.6	6.1	0.00e+00	0	27	104	42496688128	60	36941
2026-01-09 22:02:35.97	135.81	8.49	-47.2	-49.7	6.1	0.00e+00	0	27	104	42496688128	60	37381
2026-01-09 22:02:36.97	135.97	8.42	-46.8	-49.4	6.1	0.00e+00	0	27	104	42496688128	60	35970
2026-01-09 22:02:37.98	136.14	8.35	-47.1	-49.6	6.1	0.00e+00	0	27	104	42496688128	60	36893
2026-01-09 22:02:38.99	136.30	8.28	-47.1	-49.6	6.1	0.00e+00	0	27	104	42496688128	60	36788
2026-01-09 22:02:40.00	136.47	8.21	-47.1	-49.6	6.1	0.00e+00	0	27	104	42496688128	60	36847
2026-01-09 22:02:41.01	136.63	8.14	-47.1	-49.6	6.1	0.00e+00	0	27	104	42496688128	60	36903
2026-01-09 22:02:42.02	136.80	8.07	-46.8	-49.4	6.1	0.00e+00	0	27	104	42496688128	60	36061
2026-01-09 22:02:43.03	136.96	8.00	-47.1	-49.5	6.1	0.00e+00	0	27	104	42496688128	60	36735
2026-01-09 22:02:44.04	137.12	7.93	-46.9	-49.5	6.1	0.00e+00	0	27	104	42496688128	60	36556
2026-01-09 22:02:45.05	137.28	7.86	-46.9	-49.5	6.1	0.00e+00	0	27	104	42496688128	60	36377
2026-01-09 22:02:46.06	137.44	7.79	-47.1	-49.6	6.1	0.00e+00	0	27	104	42496688128	60	36884
2026-01-09 22:02:47.07	137.60	7.72	-47.1	-49.5	6.1	0.00e+00	0	27	104	42496688128	60	36763
2026-01-09 22:02:48.08	137.75	7.65	-47.2	-49.6	6.1	0.00e+00	0	27	104	42496688128	60	37092
2026-01-09 22:02:49.09	137.91	7.58	-46.9	-49.4	6.1	0.00e+00	0	27	104	42496688128	60	36110
2026-01-09 22:02:50.10	138.07	7.51	-46.9	-49.4	6.1	0.00e+00	0	27	104	42496688128	60	36256
2026-01-09 22:02:51.11	138.22	7.44	-47.0	-49.5	6.1	0.00e+00	0	27	104	42496688128	60	36520
2026-01-09 22:02:52.12	138.38	7.37	-46.9	-49.4	6.1	0.00e+00	0	27	104	42496688128	60	36155
2026-01-09 22:02:53.13	138.53	7.30	-46.9	-49.3	6.1	0.00e+00	0	27	104	42496688128	60	35848
2026-01-09 22:02:54.14	138.68	7.23	-46.9	-49.4	6.1	0.00e+00	0	27	104	42496688128	60	36200
2026-01-09 22:02:55.15	138.83	7.16	-46.9	-49.4	6.1	0.00e+00	0	27	104	42496688128	60	36073
2026-01-09 22:02:56.16	138.98	7.09	-46.9	-49.4	6.1	0.00e+00	0	27	104	42496688128	60	35972
2026-01-09 22:02:57.17	139.13	7.02	-46.5	-48.9	6.1	0.00e+00	0	27	104	42496688128	60	34165
2026-01-09 22:02:58.18	139.28	6.95	-46.8	-49.3	6.1	0.00e+00	0	27	104	42496688128	60	35804
2026-01-09 22:02:59.19	139.43	6.89	-46.6	-49.0	6.1	0.00e+00	0	27	104	42496688128	60	34650
2026-01-09 22:03:00.20	139.57	6.82	-46.3	-48.8	6.1	0.00e+00	0	27	104	42496688128	60	33771
2026-01-09 22:03:01.21	139.72	6.75	-46.0	-48.5	6.1	0.00e+00	0	27	104	42496688128	60	32523
2026-01-09 22:03:02.21	139.86	6.68	-46.4	-48.9	6.1	0.00e+00	0	27	104	42496688128	60	34083
2026-01-09 22:03:03.22	140.01	6.61	-46.0	-48.5	6.1	0.00e+00	0	27	104	42496688128	60	32613
2026-01-09 22:03:04.23	140.15	6.54	-45.5	-48.1	6.1	0.00e+00	0	27	104	42496688128	60	30967
2026-01-09 22:03:05.24	140.30	6.48	-45.5	-48.0	6.1	0.00e+00	0	27	104	42496688128	60	30598
2026-01-09 22:03:06.25	140.44	6.41	-45.9	-48.4	6.1	0.00e+00	0	27	104	42496688128	60	32209
2026-01-09 22:03:07.26	140.58	6.34	-45.3	-48.0	6.1	0.00e+00	0	27	104	42496688128	60	30612
2026-01-09 22:03:08.27	140.72	6.27	-45.5	-48.0	6.1	0.00e+00	0	27	104	42496688128	60	30680
2026-01-09 22:03:09.28	140.86	6.20	-45.5	-47.9	6.1	0.00e+00	0	27	104	42496688128	60	30472
2026-01-09 22:03:10.28	141.00	6.14	-45.5	-48.0	6.1	0.00e+00	0	27	104	42496688128	60	30669
2026-01-09 22:03:11.29	141.13	6.07	-45.1	-47.6	6.1	0.00e+00	0	27	104	42496688128	60	29527
2026-01-09 22:03:12.30	141.27	6.00	-45.5	-48.0	6.1	0.00e+00	0	27	104	42496688128	60	30672
2026-01-09 22:03:13.31	141.41	5.94	-45.2	-47.8	6.1	0.00e+00	0	27	104	42496688128	60	29915
2026-01-09 22:03:14.32	141.54	5.87	-45.1	-47.6	6.0	0.00e+00	0	27	104	42496688128	60	29479
2026-01-09 22:03:15.33	141.68	5.80	-45.2	-47.7	6.1	0.00e+00	0	27	104	42496688128	60	29835
2026-01-09 22:03:16.34	141.81	5.73	-45.2	-47.7	6.1	0.00e+00	0	27	104	42496688128	60	29798
2026-01-09 22:03:17.35	141.95	5.67	-45.2	-47.8	6.1	0.00e+00	0	27	104	42496688128	60	29903
2026-01-09 22:03:18.36	142.08	5.60	-45.2	-47.7	6.1	0.00e+00	0	27	104	42496688128	60	29657
2026-01-09 22:03:19.37	142.21	5.53	-45.5	-48.0	6.1	0.00e+00	0	27	104	42496688128	60	30666
2026-01-09 22:03:20.38	142.34	5.47	-45.3	-47.8	6.1	0.00e+00	0	27	104	42496688128	60	30229
2026-01-09 22:03:21.39	142.47	5.40	-45.6	-48.2	6.1	0.00e+00	0	27	104	42496688128	60	31334
2026-01-09 22:03:22.40	142.60	5.33	-45.8	-48.3	6.1	0.00e+00	0	27	104	42496688128	60	31773
2026-01-09 22:03:23.41	142.73	5.27	-45.5	-48.0	6.1	0.00e+00	0	27	104	42496688128	60	30799
2026-01-09 22:03:24.41	142.86	5.20	-45.6	-48.1	6.1	0.00e+00	0	27	104	42496688128	60	31268
2026-01-09 22:03:25.43	142.99	5.14	-46.0	-48.4	6.1	0.00e+00	0	27	104	42496688128	60	32317
2026-01-09 22:03:26.44	143.12	5.07	-46.0	-48.5	6.1	0.00e+00	0	27	104	42496688128	60	32536
2026-01-09 22:03:27.44	143.24	5.01	-45.7	-48.1	6.1	0.00e+00	0	27	104	42496688128	60	31255
2026-01-09 22:03:28.45	143.37	4.94	-46.0	-48.5	6.1	0.00e+00	0	27	104	42496688128	60	32680
2026-01-09 22:03:29.46	143.49	4.88	-46.1	-48.6	6.1	0.00e+00	0	27	104	42496688128	60	33034
2026-01-09 22:03:30.47	143.62	4.81	-46.1	-48.6	6.1	0.00e+00	0	27	104	42496688128	60	32809
2026-01-09 22:03:31.48	143.74	4.74	-45.8	-48.4	6.1	0.00e+00	0	27	104	42496688128	60	32035
2026-01-09 22:03:32.49	143.86	4.68	-46.0	-48.6	6.1	0.00e+00	0	27	104	42496688128	60	32820
2026-01-09 22:03:33.50	143.99	4.61	-46.2	-48.6	6.1	0.00e+00	0	27	104	42496688128	60	33076
2026-01-09 22:03:34.51	144.11	4.55	-46.1	-48.6	6.1	0.00e+00	0	27	104	42496688128	60	33017
2026-01-09 22:03:35.52	144.23	4.49	-46.0	-48.5	6.1	0.00e+00	0	27	104	42496688128	60	32553
2026-01-09 22:03:36.53	144.35	4.42	-46.1	-48.6	6.1	0.00e+00	0	27	104	42496688128	60	33110
2026-01-09 22:03:37.54	144.47	4.36	-46.2	-48.7	6.1	0.00e+00	0	27	104	42496688128	60	33203
2026-01-09 22:03:38.54	144.59	4.29	-46.1	-48.6	6.1	0.00e+00	0	27	104	42496688128	60	32912
2026-01-09 22:03:39.55	144.71	4.23	-46.0	-48.5	6.1	0.00e+00	0	27	104	42496688128	60	32500
2026-01-09 22:03:40.56	144.82	4.16	-46.1	-48.6	6.1	0.00e+00	0	27	104	42496688128	60	32884
2026-01-09 22:03:41.57	144.94	4.10	-46.1	-48.6	6.1	0.00e+00	0	27	104	42496688128	60	32789
2026-01-09 22:03:42.58	145.06	4.04	-45.8	-48.3	6.1	0.00e+00	0	27	104	42496688128	60	31737
2026-01-09 22:03:43.59	145.17	3.97	-45.8	-48.3	6.1	0.00e+00	0	27	104	42496688128	60	31807
2026-01-09 22:03:44.60	145.29	3.91	-45.7	-48.2	6.1	0.00e+00	0	27	104	42496688128	60	31461
2026-01-09 22:03:45.61	145.40	3.85	-45.7	-48.1	6.1	0.00e+00	0	27	104	42496688128	60	31187
2026-01-09 22:03:46.62	145.52	3.78	-45.6	-48.1	6.1	0.00e+00	0	27	104	42496688128	60	30989
2026-01-09 22:03:47.63	145.63	3.72	-45.0	-47.6	6.1	0.00e+00	0	27	104	42496688128	60	29313
2026-01-09 22:03:48.64	145.74	3.66	-44.9	-47.5	6.1	0.00e+00	0	27	104	42496688128	60	28996
2026-01-09 22:03:49.65	145.86	3.59	-46.1	-48.5	6.1	0.00e+00	0	27	104	42496688128	60	32690
2026-01-09 22:03:50.66	145.97	3.53	-45.5	-48.1	6.1	0.00e+00	0	27	104	42496688128	60	31092
2026-01-09 22:03:51.67	146.08	3.47	-45.1	-47.7	6.1	0.00e+00	0	27	104	42496688128	60	29700
2026-01-09 22:03:52.68	146.19	3.40	-45.2	-47.7	6.1	0.00e+00	0	27	104	42496688128	60	29837
2026-01-09 22:03:53.69	146.30	3.34	-45.3	-47.9	6.1	0.00e+00	0	27	104	42496688128	60	30320
2026-01-09 22:03:54.70	146.41	3.28	-45.2	-47.8	6.1	0.00e+00	0	27	104	42496688128	60	29913
2026-01-09 22:03:55.71	146.52	3.22	-45.2	-47.7	6.1	0.00e+00	0	27	104	42496688128	60	29744
2026-01-09 22:03:56.72	146.63	3.15	-45.1	-47.6	6.1	0.00e+00	0	27	104	42496688128	60	29480
2026-01-09 22:03:57.72	146.73	3.09	-44.8	-47.4	6.1	0.00e+00	0	27	104	42496688128	60	28585
2026-01-09 22:03:58.74	146.84	3.03	-45.8	-48.3	6.1	0.00e+00	0	27	104	42496688128	60	31983
2026-01-09 22:03:59.74	146.95	2.97	-46.3	-48.8	6.1	0.00e+00	0	27	104	42496688128	60	33801
2026-01-09 22:04:00.75	147.05	2.91	-46.3	-48.8	6.1	0.00e+00	0	27	104	42496688128	60	33584
2026-01-09 22:04:01.76	147.16	2.85	-47.4	-49.8	6.1	0.00e+00	0	27	104	42496688128	60	38002
2026-01-09 22:04:02.77	147.26	2.78	-47.6	-50.1	6.1	0.00e+00	0	27	104	42496688128	60	39200
2026-01-09 22:04:03.78	147.37	2.72	-47.7	-50.2	6.1	0.00e+00	0	27	104	42496688128	60	39563
2026-01-09 22:04:04.79	147.47	2.66	-47.8	-50.3	6.1	0.00e+00	0	27	104	42496688128	60	40195
2026-01-09 22:04:05.80	147.58	2.60	-48.0	-50.5	6.1	0.00e+00	0	27	104	42496688128	60	40855
2026-01-09 22:04:06.81	147.68	2.54	-47.5	-50.1	6.1	0.00e+00	0	27	104	42496688128	60	39033
2026-01-09 22:04:07.82	147.78	2.48	-47.9	-50.4	6.1	0.00e+00	0	27	104	42496688128	60	40427
2026-01-09 22:04:08.83	147.88	2.42	-47.9	-50.4	6.1	0.00e+00	0	27	104	42496688128	60	40570
2026-01-09 22:04:09.84	147.98	2.36	-47.9	-50.4	6.1	0.00e+00	0	27	104	42496688128	60	40579
2026-01-09 22:04:10.85	148.08	2.30	-48.0	-50.5	6.1	0.00e+00	0	27	104	42496688128	60	40881
2026-01-09 22:04:11.86	148.19	2.23	-47.9	-50.4	6.1	0.00e+00	0	27	104	42496688128	60	40585
2026-01-09 22:04:12.87	148.29	2.17	-48.0	-50.5	6.1	0.00e+00	0	27	104	42496688128	60	40862
2026-01-09 22:04:13.88	148.38	2.11	-48.0	-50.4	6.1	0.00e+00	0	27	104	42496688128	60	40785
2026-01-09 22:04:14.89	148.48	2.05	-48.0	-50.5	6.1	0.00e+00	0	27	104	42496688128	60	40910
2026-01-09 22:04:15.90	148.58	1.99	-48.0	-50.5	6.1	0.00e+00	0	27	104	42496688128	60	40938
2026-01-09 22:04:16.91	148.68	1.93	-48.0	-50.4	6.1	0.00e+00	0	27	104	42496688128	60	40783
2026-01-09 22:04:17.92	148.78	1.87	-48.0	-50.5	6.1	0.00e+00	0	27	104	42496688128	60	40796
2026-01-09 22:04:18.93	148.87	1.81	-48.0	-50.4	6.1	0.00e+00	0	27	104	42496688128	60	40716
2026-01-09 22:04:19.94	148.97	1.75	-47.9	-50.4	6.1	0.00e+00	0	27	104	42496688128	60	40786
2026-01-09 22:04:20.95	149.07	1.69	-48.0	-50.4	6.1	0.00e+00	0	27	104	42496688128	60	40655
2026-01-09 22:04:21.96	149.16	1.64	-48.0	-50.5	6.1	0.00e+00	0	27	104	42496688128	60	40833
2026-01-09 22:04:22.97	149.26	1.58	-48.0	-50.5	6.1	0.00e+00	0	27	104	42496688128	60	40871
2026-01-09 22:04:23.98	149.35	1.52	-48.0	-50.4	6.1	0.00e+00	0	27	104	42496688128	60	40697
2026-01-09 22:04:24.99	149.45	1.46	-48.0	-50.4	6.1	0.00e+00	0	27	104	42496688128	60	40787
2026-01-09 22:04:26.00	149.54	1.40	-48.0	-50.4	6.1	0.00e+00	0	27	104	42496688128	60	40760
2026-01-09 22:04:27.01	149.63	1.34	-47.9	-50.4	6.1	0.00e+00	0	27	104	42496688128	60	40722
2026-01-09 22:04:28.02	149.73	1.28	-47.9	-50.4	6.1	0.00e+00	0	27	104	42496688128	60	40672
2026-01-09 22:04:29.03	149.82	1.22	-48.0	-50.4	6.1	0.00e+00	0	27	104	42496688128	60	40628
2026-01-09 22:04:30.04	149.91	1.16	-48.0	-50.5	6.1	0.00e+00	0	27	104	42496688128	60	40801
2026-01-09 22:04:31.05	150.00	1.10	-47.9	-50.4	6.1	0.00e+00	0	27	104	42496688128	60	40548
2026-01-09 22:04:32.06	150.09	1.05	-47.9	-50.4	6.1	0.00e+00	0	27	104	42496688128	60	40659
2026-01-09 22:04:33.07	150.18	0.99	-47.9	-50.4	6.1	0.00e+00	0	27	104	42496688128	60	40748
2026-01-09 22:04:34.08	150.27	0.93	-48.0	-50.4	6.1	0.00e+00	0	27	104	42496688128	60	40646
2026-01-09 22:04:35.09	150.36	0.87	-48.0	-50.4	6.1	0.00e+00	0	27	104	42496688128	60	40516
2026-01-09 22:04:36.10	150.45	0.81	-48.0	-50.5	6.1	0.00e+00	0	27	104	42496688128	60	40960
2026-01-09 22:04:37.11	150.54	0.76	-48.0	-50.5	6.1	0.00e+00	0	27	104	42496688128	60	40927
2026-01-09 22:04:38.12	150.63	0.70	-48.0	-50.4	6.0	0.00e+00	0	27	104	42496688128	60	40752
2026-01-09 22:04:39.13	150.72	0.64	-48.0	-50.4	6.1	0.00e+00	0	27	104	42496688128	60	40735
2026-01-09 22:04:40.14	150.80	0.58	-48.0	-50.4	6.1	0.00e+00	0	27	104	42496688128	60	40676
2026-01-09 22:04:41.15	150.89	0.53	-48.0	-50.4	6.1	0.00e+00	0	27	104	42496688128	60	40776
2026-01-09 22:04:42.16	150.98	0.47	-48.1	-50.6	6.1	0.00e+00	0	27	104	42496688128	60	41290
2026-01-09 22:04:43.17	151.06	0.41	-48.0	-50.4	6.1	0.00e+00	0	27	104	42496688128	60	40607
2026-01-09 22:04:44.18	151.15	0.35	-48.0	-50.5	6.1	0.00e+00	0	27	104	42496688128	60	40843
2026-01-09 22:04:45.19	151.24	0.30	-48.0	-50.5	6.1	0.00e+00	0	27	104	42496688128	60	40832
2026-01-09 22:04:46.20	151.32	0.24	-48.0	-50.5	6.1	0.00e+00	0	27	104	42496688128	60	40798
2026-01-09 22:04:47.21	151.41	0.18	-48.0	-50.5	6.1	0.00e+00	0	27	104	42496688128	60	40844
2026-01-09 22:04:48.22	151.49	0.13	-48.0	-50.4	6.1	0.00e+00	0	27	104	42496688128	60	40598
2026-01-09 22:04:49.23	151.57	0.07	-48.0	-50.5	6.1	0.00e+00	0	27	104	42496688128	60	41059
2026-01-09 22:04:50.24	151.66	0.01	-48.0	-50.5	6.1	0.00e+00	0	27	104	42496688128	60	40945

#Closed at: 2026-01-09 22:04:51
#Recorded file [42496 MB]: D:/lorett/data/35029_260110_095450.dat