passes_logs/2026/01/09/R4.6S_Anadyr/R4.6S_Anadyr__20260109_011118_SUOMI_NPP_rec.log

#Pass ID: 20260109_011118_SUOMI NPP
#Satellite: SUOMI NPP
#Configuration: NPP
#almurnet v.1.7.20251203
#Start time: 2026-01-09 01:11:18

#Version: 2.2.20231116
#Station: R4.6S_Anadyr
#Location: 177.4865 lon 64.73178 lat
#TLE: 1 37849U 11061A   26008.05542337  .00000108  00000+0  71976-4 0  9997
#TLE: 2 37849  98.7805 310.1641 0002540  75.6410 284.5048 14.19523335735721

#Time	Az	El	Level	Level2	SNR	BER	BlckErr	Temp	State	Recorded	gain1	gain2
2026-01-09 01:11:18.83	178.97	0.03	-48.1	-60.7	3.5	1.52e+00	0	31	0	0	60	38118
2026-01-09 01:11:19.84	179.00	0.09	-48.0	-63.4	3.6	1.51e+00	0	33	104	0	60	53354
2026-01-09 01:11:20.85	179.03	0.15	-48.2	-63.4	3.6	1.51e+00	0	33	104	0	60	53573
2026-01-09 01:11:21.85	179.06	0.21	-48.2	-63.4	3.6	1.51e+00	0	33	104	0	60	53336
2026-01-09 01:11:22.86	179.10	0.27	-48.2	-63.4	3.6	1.51e+00	0	33	104	0	60	53582
2026-01-09 01:11:23.87	179.13	0.33	-48.2	-63.4	3.6	1.51e+00	0	33	104	0	60	53701
2026-01-09 01:11:24.88	179.16	0.39	-48.3	-63.5	3.6	1.51e+00	0	33	104	0	60	53968
2026-01-09 01:11:25.89	179.19	0.45	-48.2	-63.5	3.6	1.51e+00	0	33	104	0	60	53884
2026-01-09 01:11:26.90	179.22	0.51	-48.2	-63.4	3.6	1.51e+00	0	33	104	0	60	53751
2026-01-09 01:11:27.91	179.25	0.57	-47.9	-63.3	3.6	1.51e+00	0	33	104	0	60	53053
2026-01-09 01:11:28.92	179.28	0.63	-48.1	-63.2	3.6	1.51e+00	0	33	104	0	60	52345
2026-01-09 01:11:29.93	179.32	0.69	-47.9	-63.1	3.6	1.51e+00	0	33	104	0	60	51903
2026-01-09 01:11:30.94	179.35	0.75	-47.8	-63.0	3.6	1.51e+00	0	33	104	0	60	51016
2026-01-09 01:11:31.95	179.38	0.81	-47.7	-62.9	3.6	1.51e+00	0	33	104	0	60	50283
2026-01-09 01:11:32.96	179.41	0.87	-47.5	-62.6	3.6	1.51e+00	0	33	104	0	60	49019
2026-01-09 01:11:33.97	179.44	0.93	-47.1	-62.3	3.6	1.51e+00	0	33	104	0	60	47226
2026-01-09 01:11:34.98	179.48	0.99	-46.8	-61.9	3.6	1.51e+00	0	33	104	0	60	44919
2026-01-09 01:11:35.99	179.51	1.05	-46.8	-61.9	3.6	1.51e+00	0	33	104	0	60	44986
2026-01-09 01:11:37.00	179.54	1.11	-46.8	-61.9	3.6	1.51e+00	0	33	104	0	60	45057
2026-01-09 01:11:38.01	179.57	1.17	-46.8	-61.9	3.6	1.51e+00	0	33	104	0	60	45145
2026-01-09 01:11:39.01	179.61	1.23	-46.8	-61.9	3.6	1.51e+00	0	33	104	0	60	45129
2026-01-09 01:11:40.02	179.64	1.30	-46.8	-61.9	3.6	1.51e+00	0	33	104	0	60	45119
2026-01-09 01:11:41.03	179.67	1.36	-46.8	-61.9	3.6	1.51e+00	0	33	104	0	60	45220
2026-01-09 01:11:42.04	179.70	1.42	-46.8	-61.9	3.6	1.51e+00	0	33	104	0	60	44969
2026-01-09 01:11:43.05	179.74	1.48	-46.8	-61.9	3.6	1.51e+00	0	33	104	0	60	45032
2026-01-09 01:11:44.06	179.77	1.54	-46.8	-61.9	3.6	1.51e+00	0	33	104	0	60	44817
2026-01-09 01:11:45.07	179.80	1.60	-46.8	-61.8	3.6	1.51e+00	0	33	104	0	60	44722
2026-01-09 01:11:46.08	179.84	1.67	-46.8	-61.8	3.6	1.51e+00	0	33	104	0	60	44717
2026-01-09 01:11:47.09	179.87	1.73	-46.7	-61.8	3.6	1.51e+00	0	33	104	0	60	44572
2026-01-09 01:11:48.10	179.91	1.79	-46.8	-61.8	3.6	1.51e+00	0	33	104	0	60	44610
2026-01-09 01:11:49.11	179.94	1.85	-46.8	-61.8	3.6	1.51e+00	0	33	104	0	60	44645
2026-01-09 01:11:50.12	179.97	1.92	-46.8	-61.9	3.6	1.51e+00	0	33	104	0	60	44759
2026-01-09 01:11:51.13	180.01	1.98	-46.8	-61.9	3.6	1.51e+00	0	33	104	0	60	44967
2026-01-09 01:11:52.14	180.04	2.04	-46.8	-61.9	3.6	1.51e+00	0	33	104	0	60	45015
2026-01-09 01:11:53.15	180.08	2.11	-46.8	-61.9	3.6	1.51e+00	0	33	104	0	60	44741
2026-01-09 01:11:54.16	180.11	2.17	-46.8	-61.9	3.6	1.51e+00	0	33	104	0	60	44891
2026-01-09 01:11:55.17	180.15	2.23	-46.7	-61.8	3.6	1.51e+00	0	33	104	0	60	44605
2026-01-09 01:11:56.17	180.18	2.30	-46.7	-61.9	3.6	1.51e+00	0	33	104	0	60	45000
2026-01-09 01:11:57.18	180.22	2.36	-46.8	-61.9	3.6	1.51e+00	0	33	104	0	60	45012
2026-01-09 01:11:58.19	180.25	2.42	-46.7	-61.7	3.6	1.51e+00	0	33	104	0	60	44154
2026-01-09 01:11:59.20	180.29	2.49	-46.7	-61.3	3.6	1.51e+00	0	33	104	0	60	42025
2026-01-09 01:12:00.21	180.32	2.55	-46.7	-60.6	3.6	1.51e+00	0	33	104	0	60	38926
2026-01-09 01:12:01.22	180.36	2.61	-46.7	-60.2	3.6	1.51e+00	0	33	104	0	60	37197
2026-01-09 01:12:02.23	180.39	2.68	-46.7	-60.1	3.6	1.51e+00	0	33	104	0	60	36491
2026-01-09 01:12:03.24	180.43	2.74	-46.7	-60.7	3.6	1.51e+00	0	33	104	0	60	39272
2026-01-09 01:12:04.25	180.47	2.81	-46.7	-61.5	3.6	1.51e+00	0	33	104	0	60	42906
2026-01-09 01:12:05.26	180.50	2.87	-46.7	-61.2	3.6	1.51e+00	0	33	104	0	60	41652
2026-01-09 01:12:06.27	180.54	2.94	-46.5	-58.1	3.8	1.50e+00	0	33	104	0	60	29206
2026-01-09 01:12:07.28	180.57	3.00	-46.1	-53.7	6.6	6.10e-01	0	33	0	0	60	17441
2026-01-09 01:12:08.29	180.61	3.07	-45.3	-50.5	10.0	6.54e-02	92	34	0	2097152	60	12130
2026-01-09 01:12:09.30	180.65	3.13	-44.1	-47.6	13.1	1.66e-04	49	33	0	4194304	60	8646
2026-01-09 01:12:10.31	180.68	3.20	-43.1	-45.8	15.1	2.20e-06	90	33	0	5242880	60	7054
2026-01-09 01:12:11.32	180.72	3.26	-42.0	-44.2	16.8	0.00e+00	92	33	0	7340032	58	6558
2026-01-09 01:12:12.33	180.76	3.33	-41.1	-42.9	18.0	0.00e+00	0	33	0	8388608	56	6379
2026-01-09 01:12:13.34	180.80	3.40	-40.4	-42.0	18.6	0.00e+00	92	33	0	10485760	54	6419
2026-01-09 01:12:14.35	180.83	3.46	-40.1	-41.7	19.0	0.00e+00	0	33	0	12582912	54	6182
2026-01-09 01:12:15.36	180.87	3.53	-40.0	-41.5	19.1	0.00e+00	92	33	0	14680064	54	6101
2026-01-09 01:12:16.36	180.91	3.59	-40.3	-41.9	18.7	0.00e+00	0	33	0	16777216	54	6376
2026-01-09 01:12:17.37	180.95	3.66	-40.2	-41.7	19.0	0.00e+00	92	33	0	18874368	54	6208
2026-01-09 01:12:18.38	180.98	3.73	-42.8	-45.4	14.6	0.00e+00	54	33	0	19922944	56	8435
2026-01-09 01:12:19.39	181.02	3.79	-42.2	-44.1	17.7	5.16e-01	0	33	0	22020096	60	5773
2026-01-09 01:12:20.40	181.06	3.86	-42.8	-45.2	15.7	7.00e-07	92	33	0	24117248	58	7368
2026-01-09 01:12:21.41	181.10	3.93	-40.6	-42.1	19.0	1.03e-03	0	33	0	26214400	56	5791
2026-01-09 01:12:22.42	181.14	4.00	-44.7	-48.6	12.8	1.46e-01	92	33	0	28311552	60	9748
2026-01-09 01:12:23.43	181.18	4.06	-41.0	-42.7	18.2	0.00e+00	0	33	0	29360128	56	6238
2026-01-09 01:12:24.44	181.22	4.13	-40.5	-42.0	18.8	0.00e+00	92	33	0	31457280	54	6452
2026-01-09 01:12:25.45	181.26	4.20	-39.9	-41.3	19.4	0.00e+00	92	33	0	33554432	54	5962
2026-01-09 01:12:26.46	181.30	4.27	-39.7	-41.1	19.5	0.00e+00	91	33	0	35651584	54	5818
2026-01-09 01:12:27.47	181.34	4.33	-39.7	-41.1	19.6	0.00e+00	90	33	0	37748736	52	6486
2026-01-09 01:12:28.48	181.38	4.40	-39.7	-41.1	19.7	0.00e+00	0	33	0	38797312	52	6495
2026-01-09 01:12:29.49	181.42	4.47	-39.7	-41.1	19.5	0.00e+00	91	33	0	40894464	52	6534
2026-01-09 01:12:30.50	181.46	4.54	-39.7	-41.1	19.8	0.00e+00	0	33	0	42991616	52	6469
2026-01-09 01:12:31.51	181.50	4.61	-39.6	-40.9	19.9	0.00e+00	91	33	0	45088768	52	6384
2026-01-09 01:12:32.51	181.54	4.68	-39.6	-41.0	19.9	0.00e+00	0	33	0	47185920	52	6410
2026-01-09 01:12:33.52	181.58	4.75	-39.6	-41.0	19.9	0.00e+00	91	33	0	48234496	52	6405
2026-01-09 01:12:34.53	181.62	4.81	-39.5	-40.8	20.0	0.00e+00	90	33	0	50331648	52	6303
2026-01-09 01:12:35.54	181.66	4.88	-39.4	-40.8	19.9	0.00e+00	0	33	0	52428800	52	6264
2026-01-09 01:12:36.55	181.70	4.95	-39.4	-40.7	20.2	0.00e+00	92	33	0	54525952	52	6189
2026-01-09 01:12:37.55	181.74	5.02	-39.5	-40.8	20.1	0.00e+00	0	33	0	56623104	52	6273
2026-01-09 01:12:38.56	181.78	5.09	-39.4	-40.7	20.1	0.00e+00	92	33	0	57671680	52	6221
2026-01-09 01:12:39.57	181.82	5.16	-39.3	-40.6	20.3	0.00e+00	0	33	0	59768832	52	6136
2026-01-09 01:12:40.58	181.87	5.23	-39.2	-40.4	20.4	0.00e+00	92	33	0	61865984	52	6020
2026-01-09 01:12:41.59	181.91	5.30	-39.2	-40.4	20.4	0.00e+00	92	33	0	63963136	52	6019
2026-01-09 01:12:42.60	181.95	5.37	-39.1	-40.4	20.5	0.00e+00	0	33	0	66060288	52	5983
2026-01-09 01:12:43.60	181.99	5.44	-39.3	-40.6	20.3	0.00e+00	54	33	0	67108864	52	6147
2026-01-09 01:12:44.61	182.04	5.52	-39.3	-40.5	20.3	0.00e+00	0	33	0	69206016	52	6100
2026-01-09 01:12:45.62	182.08	5.59	-39.4	-40.7	20.2	0.00e+00	92	33	0	71303168	52	6208
2026-01-09 01:12:46.63	182.12	5.66	-39.4	-40.8	20.2	0.00e+00	0	33	0	73400320	52	6248
2026-01-09 01:12:47.64	182.16	5.73	-39.3	-40.6	20.3	0.00e+00	92	33	0	75497472	52	6155
2026-01-09 01:12:48.65	182.21	5.80	-39.3	-40.5	20.4	0.00e+00	92	33	0	76546048	52	6084
2026-01-09 01:12:49.66	182.25	5.87	-39.2	-40.5	20.4	0.00e+00	86	33	0	78643200	52	6066
2026-01-09 01:12:50.66	182.29	5.94	-39.1	-40.4	20.5	0.00e+00	90	33	0	80740352	52	5991
2026-01-09 01:12:51.67	182.34	6.02	-39.2	-40.5	20.3	0.00e+00	0	33	0	82837504	52	6078
2026-01-09 01:12:52.68	182.38	6.09	-39.3	-40.5	20.4	0.00e+00	92	33	0	84934656	52	6088
2026-01-09 01:12:53.69	182.43	6.16	-39.3	-40.6	20.2	0.00e+00	0	33	0	85983232	52	6153
2026-01-09 01:12:54.70	182.47	6.23	-39.4	-40.7	20.1	0.00e+00	92	33	0	88080384	52	6233
2026-01-09 01:12:55.71	182.52	6.31	-39.3	-40.5	20.4	0.00e+00	52	33	0	90177536	52	6101
2026-01-09 01:12:56.72	182.56	6.38	-39.4	-40.7	20.1	0.00e+00	71	33	0	92274688	52	6236
2026-01-09 01:12:57.73	182.61	6.45	-39.6	-40.9	20.2	0.00e+00	92	33	0	94371840	52	6373
2026-01-09 01:12:58.74	182.65	6.53	-39.7	-41.0	19.9	0.00e+00	0	33	0	95420416	52	6451
2026-01-09 01:12:59.75	182.70	6.60	-39.4	-40.7	20.4	0.00e+00	92	33	0	97517568	52	6178
2026-01-09 01:13:00.76	182.74	6.68	-39.4	-40.8	20.1	0.00e+00	0	33	0	99614720	52	6247
2026-01-09 01:13:01.77	182.79	6.75	-39.2	-40.5	20.5	0.00e+00	92	33	0	101711872	52	6035
2026-01-09 01:13:02.78	182.84	6.82	-39.2	-40.5	20.4	0.00e+00	52	33	0	103809024	52	6079
2026-01-09 01:13:03.79	182.88	6.90	-39.3	-40.6	20.5	0.00e+00	91	33	0	104857600	52	6118
2026-01-09 01:13:04.80	182.93	6.97	-39.4	-40.7	20.4	0.00e+00	92	33	0	106954752	52	6235
2026-01-09 01:13:05.81	182.98	7.05	-39.4	-40.7	20.3	0.00e+00	0	33	0	109051904	52	6193
2026-01-09 01:13:06.82	183.02	7.12	-39.4	-40.6	20.5	0.00e+00	91	33	0	111149056	52	6165
2026-01-09 01:13:07.82	183.07	7.20	-39.2	-40.5	20.5	0.00e+00	0	33	0	113246208	52	6073
2026-01-09 01:13:08.83	183.12	7.27	-39.4	-40.7	20.3	0.00e+00	92	33	0	115343360	52	6222
2026-01-09 01:13:09.84	183.17	7.35	-39.3	-40.6	20.4	0.00e+00	33	33	0	116391936	52	6133
2026-01-09 01:13:10.85	183.22	7.43	-39.6	-41.0	20.3	0.00e+00	91	33	0	118489088	52	6403
2026-01-09 01:13:11.86	183.26	7.50	-39.5	-40.8	20.3	0.00e+00	92	33	0	120586240	52	6272
2026-01-09 01:13:12.87	183.31	7.58	-39.6	-40.9	20.3	0.00e+00	0	33	0	122683392	52	6343
2026-01-09 01:13:13.88	183.36	7.66	-39.3	-40.6	20.4	0.00e+00	92	33	0	124780544	52	6138
2026-01-09 01:13:14.89	183.41	7.73	-39.4	-40.7	20.6	0.00e+00	0	33	0	125829120	52	6184
2026-01-09 01:13:15.90	183.46	7.81	-39.1	-40.3	20.8	0.00e+00	92	33	0	127926272	52	5903
2026-01-09 01:13:16.90	183.51	7.89	-39.2	-40.4	20.7	0.00e+00	9	33	0	130023424	52	6033
2026-01-09 01:13:17.91	183.56	7.96	-39.3	-40.5	20.7	0.00e+00	90	33	0	132120576	52	6064
2026-01-09 01:13:18.92	183.61	8.04	-39.1	-40.3	20.8	0.00e+00	92	34	0	134217728	52	5960
2026-01-09 01:13:19.93	183.66	8.12	-39.1	-40.3	20.8	0.00e+00	72	33	0	135266304	52	5963
2026-01-09 01:13:20.94	183.71	8.20	-39.0	-40.2	20.8	0.00e+00	90	33	0	137363456	52	5862
2026-01-09 01:13:21.95	183.76	8.28	-38.8	-39.9	21.1	0.00e+00	0	34	0	139460608	52	5666
2026-01-09 01:13:22.96	183.81	8.36	-38.8	-40.0	21.0	0.00e+00	90	33	0	141557760	50	6426
2026-01-09 01:13:23.97	183.86	8.43	-38.9	-40.1	21.0	0.00e+00	0	33	0	143654912	50	6501
2026-01-09 01:13:24.98	183.92	8.51	-38.7	-39.9	21.2	0.00e+00	90	33	0	144703488	50	6334
2026-01-09 01:13:25.99	183.97	8.59	-38.7	-39.8	21.3	0.00e+00	55	33	0	146800640	50	6280
2026-01-09 01:13:27.00	184.02	8.67	-38.5	-39.6	21.3	0.00e+00	41	33	0	148897792	50	6166
2026-01-09 01:13:28.01	184.07	8.75	-38.6	-39.7	21.2	0.00e+00	92	33	0	150994944	50	6240
2026-01-09 01:13:29.02	184.12	8.83	-38.4	-39.5	21.6	0.00e+00	0	33	0	153092096	50	6093
2026-01-09 01:13:30.02	184.18	8.91	-38.6	-39.7	21.5	0.00e+00	92	33	0	154140672	50	6191
2026-01-09 01:13:31.03	184.23	8.99	-38.5	-39.6	21.5	0.00e+00	0	33	0	156237824	50	6149
2026-01-09 01:13:32.04	184.28	9.07	-38.3	-39.4	21.7	0.00e+00	92	33	0	158334976	50	6003
2026-01-09 01:13:33.05	184.34	9.15	-38.2	-39.3	21.7	0.00e+00	21	33	0	160432128	50	5907
2026-01-09 01:13:34.06	184.39	9.24	-38.0	-39.0	21.9	0.00e+00	43	33	0	162529280	50	5733
2026-01-09 01:13:35.06	184.45	9.32	-38.0	-39.0	22.0	0.00e+00	91	33	0	163577856	50	5746
2026-01-09 01:13:36.07	184.50	9.40	-37.8	-38.8	22.2	0.00e+00	0	33	0	165675008	50	5572
2026-01-09 01:13:37.08	184.55	9.48	-38.0	-39.0	21.8	0.00e+00	90	33	0	167772160	50	5712
2026-01-09 01:13:38.09	184.61	9.56	-37.6	-38.6	22.3	0.00e+00	0	33	0	169869312	48	6148
2026-01-09 01:13:39.10	184.67	9.65	-37.7	-38.7	22.2	0.00e+00	92	33	0	171966464	48	6191
2026-01-09 01:13:40.11	184.72	9.73	-37.5	-38.5	22.4	0.00e+00	56	33	0	173015040	48	6080
2026-01-09 01:13:41.12	184.78	9.81	-37.5	-38.5	22.4	0.00e+00	90	33	0	175112192	48	6054
2026-01-09 01:13:42.13	184.83	9.89	-37.7	-38.6	22.3	0.00e+00	92	33	0	177209344	48	6161
2026-01-09 01:13:43.14	184.89	9.98	-37.6	-38.5	22.4	0.00e+00	0	33	0	179306496	48	6082
2026-01-09 01:13:44.15	184.95	10.06	-37.3	-38.2	22.7	0.00e+00	92	33	0	181403648	48	5855
2026-01-09 01:13:45.15	185.00	10.15	-37.4	-38.4	22.6	0.00e+00	0	33	0	183500800	48	5967
2026-01-09 01:13:46.16	185.06	10.23	-37.3	-38.2	22.6	0.00e+00	91	33	0	184549376	48	5872
2026-01-09 01:13:47.17	185.12	10.31	-37.2	-38.2	22.7	0.00e+00	25	33	0	186646528	48	5856
2026-01-09 01:13:48.18	185.18	10.40	-37.4	-38.3	22.7	0.00e+00	92	33	0	188743680	48	5920
2026-01-09 01:13:49.19	185.24	10.48	-37.3	-38.2	22.7	0.00e+00	90	33	0	190840832	48	5880
2026-01-09 01:13:50.20	185.30	10.57	-37.4	-38.3	22.6	0.00e+00	0	33	0	192937984	48	5944
2026-01-09 01:13:51.21	185.35	10.66	-37.5	-38.5	22.4	0.00e+00	90	33	0	193986560	48	6049
2026-01-09 01:13:52.21	185.41	10.74	-37.3	-38.2	22.7	0.00e+00	0	33	0	196083712	48	5892
2026-01-09 01:13:53.22	185.47	10.83	-37.2	-38.2	22.8	0.00e+00	90	33	0	198180864	48	5843
2026-01-09 01:13:54.23	185.53	10.91	-37.2	-38.1	22.9	0.00e+00	0	33	0	200278016	48	5794
2026-01-09 01:13:55.24	185.59	11.00	-37.2	-38.2	22.8	0.00e+00	92	33	0	202375168	48	5830
2026-01-09 01:13:56.25	185.65	11.09	-37.3	-38.3	22.7	0.00e+00	54	33	0	203423744	48	5913
2026-01-09 01:13:57.26	185.72	11.17	-37.2	-38.1	22.8	0.00e+00	68	33	0	205520896	48	5792
2026-01-09 01:13:58.27	185.78	11.26	-37.1	-38.1	22.8	0.00e+00	90	33	0	207618048	48	5778
2026-01-09 01:13:59.28	185.84	11.35	-37.1	-38.0	22.9	0.00e+00	0	33	0	209715200	48	5755
2026-01-09 01:14:00.29	185.90	11.44	-37.0	-38.0	23.0	0.00e+00	90	33	0	211812352	48	5718
2026-01-09 01:14:01.30	185.96	11.53	-37.2	-38.1	22.9	0.00e+00	0	33	0	212860928	48	5796
2026-01-09 01:14:02.31	186.03	11.62	-37.1	-38.1	22.9	0.00e+00	90	33	0	214958080	48	5778
2026-01-09 01:14:03.31	186.09	11.70	-37.1	-38.0	22.9	0.00e+00	56	33	0	217055232	48	5756
2026-01-09 01:14:04.32	186.15	11.79	-37.1	-38.0	23.0	0.00e+00	92	33	0	219152384	48	5758
2026-01-09 01:14:05.33	186.22	11.88	-37.1	-38.0	22.8	0.00e+00	92	33	0	221249536	48	5756
2026-01-09 01:14:06.34	186.28	11.97	-37.0	-37.9	23.0	0.00e+00	0	33	0	222298112	48	5672
2026-01-09 01:14:07.35	186.35	12.06	-36.8	-37.7	23.1	0.00e+00	77	33	0	224395264	48	5558
2026-01-09 01:14:08.36	186.41	12.15	-37.1	-38.0	22.9	0.00e+00	0	33	0	226492416	48	5751
2026-01-09 01:14:09.37	186.48	12.25	-37.0	-37.9	22.9	0.00e+00	90	33	0	228589568	48	5674
2026-01-09 01:14:10.37	186.54	12.34	-37.0	-37.9	23.0	0.00e+00	58	33	0	230686720	48	5671
2026-01-09 01:14:11.38	186.61	12.43	-37.0	-37.9	23.0	0.00e+00	90	34	0	231735296	48	5645
2026-01-09 01:14:12.39	186.68	12.52	-37.1	-38.0	22.9	0.00e+00	92	33	0	233832448	48	5739
2026-01-09 01:14:13.40	186.74	12.61	-37.0	-37.9	22.9	0.00e+00	0	34	0	235929600	48	5665
2026-01-09 01:14:14.41	186.81	12.70	-37.2	-38.1	22.8	0.00e+00	92	33	0	238026752	48	5807
2026-01-09 01:14:15.42	186.88	12.80	-37.3	-38.2	22.8	0.00e+00	0	33	0	240123904	48	5886
2026-01-09 01:14:16.43	186.95	12.89	-37.3	-38.2	22.7	0.00e+00	90	33	0	241172480	48	5884
2026-01-09 01:14:17.44	187.02	12.98	-37.2	-38.1	22.8	0.00e+00	0	33	0	243269632	48	5826
2026-01-09 01:14:18.45	187.08	13.08	-37.2	-38.2	22.8	0.00e+00	92	33	0	245366784	48	5846
2026-01-09 01:14:19.46	187.15	13.17	-37.3	-38.3	22.8	0.00e+00	92	33	0	247463936	48	5904
2026-01-09 01:14:20.46	187.22	13.27	-37.2	-38.2	22.8	0.00e+00	0	33	0	249561088	48	5859
2026-01-09 01:14:21.47	187.29	13.36	-37.2	-38.1	22.8	0.00e+00	66	33	0	250609664	48	5805
2026-01-09 01:14:22.48	187.36	13.45	-37.3	-38.3	22.7	0.00e+00	0	33	0	252706816	48	5936
2026-01-09 01:14:23.49	187.44	13.55	-37.0	-38.0	22.9	0.00e+00	92	33	0	254803968	48	5726
2026-01-09 01:14:24.50	187.51	13.65	-37.3	-38.3	22.8	0.00e+00	17	33	0	256901120	48	5905
2026-01-09 01:14:25.51	187.58	13.74	-37.0	-38.0	22.9	0.00e+00	92	33	0	258998272	48	5725
2026-01-09 01:14:26.51	187.65	13.84	-36.9	-37.9	23.1	0.00e+00	92	33	0	260046848	48	5642
2026-01-09 01:14:27.52	187.72	13.93	-37.0	-38.0	23.0	0.00e+00	0	33	0	262144000	48	5700
2026-01-09 01:14:28.53	187.80	14.03	-37.0	-38.0	23.0	0.00e+00	91	33	0	264241152	48	5725
2026-01-09 01:14:29.54	187.87	14.13	-37.0	-37.9	23.0	0.00e+00	0	33	0	266338304	48	5687
2026-01-09 01:14:30.55	187.95	14.23	-36.8	-37.7	23.1	0.00e+00	92	34	0	268435456	48	5559
2026-01-09 01:14:31.56	188.02	14.33	-36.8	-37.7	23.3	0.00e+00	0	33	0	269484032	48	5557
2026-01-09 01:14:32.57	188.10	14.42	-36.8	-37.7	23.2	0.00e+00	92	33	0	271581184	46	6205
2026-01-09 01:14:33.58	188.17	14.52	-36.7	-37.6	23.3	0.00e+00	90	33	0	273678336	46	6137
2026-01-09 01:14:34.59	188.25	14.62	-36.5	-37.4	23.4	0.00e+00	82	33	0	275775488	46	5991
2026-01-09 01:14:35.60	188.32	14.72	-36.5	-37.4	23.5	0.00e+00	92	34	0	277872640	46	5989
2026-01-09 01:14:36.60	188.40	14.82	-36.4	-37.3	23.6	0.00e+00	0	34	0	279969792	46	5917
2026-01-09 01:14:37.61	188.48	14.92	-36.4	-37.2	23.5	0.00e+00	92	33	0	281018368	46	5872
2026-01-09 01:14:38.62	188.56	15.02	-36.2	-37.1	23.7	0.00e+00	0	33	0	283115520	46	5773
2026-01-09 01:14:39.63	188.64	15.12	-36.2	-37.1	23.7	0.00e+00	92	33	0	285212672	46	5767
2026-01-09 01:14:40.64	188.72	15.22	-36.2	-37.0	23.8	0.00e+00	0	33	0	287309824	46	5740
2026-01-09 01:14:41.65	188.80	15.33	-36.2	-37.1	23.9	0.00e+00	16	33	0	289406976	46	5763
2026-01-09 01:14:42.66	188.88	15.43	-36.0	-36.9	23.9	0.00e+00	90	33	0	290455552	46	5645
2026-01-09 01:14:43.67	188.96	15.53	-36.1	-36.9	23.9	0.00e+00	0	33	0	292552704	46	5672
2026-01-09 01:14:44.68	189.04	15.63	-36.0	-36.8	23.9	0.00e+00	74	33	0	294649856	46	5594
2026-01-09 01:14:45.69	189.12	15.74	-35.9	-36.7	24.0	0.00e+00	0	33	0	296747008	46	5550
2026-01-09 01:14:46.70	189.20	15.84	-35.7	-36.6	24.1	0.00e+00	92	33	0	298844160	44	6106
2026-01-09 01:14:47.71	189.28	15.95	-35.7	-36.5	24.2	0.00e+00	56	33	0	299892736	44	6047
2026-01-09 01:14:48.72	189.37	16.05	-35.6	-36.4	24.2	0.00e+00	92	33	0	301989888	44	5998
2026-01-09 01:14:49.72	189.45	16.15	-35.7	-36.6	24.1	0.00e+00	92	33	0	304087040	44	6111
2026-01-09 01:14:50.73	189.54	16.26	-35.7	-36.6	24.0	0.00e+00	0	33	0	306184192	44	6121
2026-01-09 01:14:51.74	189.62	16.37	-36.0	-36.8	24.0	0.00e+00	73	33	0	308281344	44	6300
2026-01-09 01:14:52.75	189.71	16.47	-35.9	-36.7	24.0	0.00e+00	0	33	0	309329920	44	6225
2026-01-09 01:14:53.76	189.79	16.58	-35.9	-36.7	24.0	0.00e+00	92	33	0	311427072	44	6213
2026-01-09 01:14:54.76	189.88	16.68	-35.9	-36.8	24.0	0.00e+00	0	33	0	313524224	44	6251
2026-01-09 01:14:55.77	189.97	16.79	-35.7	-36.5	24.1	0.00e+00	91	33	0	315621376	44	6082
2026-01-09 01:14:56.78	190.06	16.90	-35.8	-36.6	24.0	0.00e+00	90	33	0	317718528	44	6163
2026-01-09 01:14:57.79	190.14	17.01	-35.8	-36.6	24.1	0.00e+00	0	33	0	318767104	44	6158
2026-01-09 01:14:58.80	190.23	17.12	-35.7	-36.5	24.2	0.00e+00	90	33	0	320864256	44	6069
2026-01-09 01:14:59.81	190.32	17.23	-35.7	-36.5	24.0	0.00e+00	0	33	0	322961408	44	6076
2026-01-09 01:15:00.82	190.41	17.33	-35.5	-36.3	24.2	0.00e+00	90	33	0	325058560	44	5936
2026-01-09 01:15:01.83	190.50	17.44	-35.6	-36.4	24.3	0.00e+00	0	33	0	327155712	44	5989
2026-01-09 01:15:02.84	190.60	17.56	-35.5	-36.3	24.3	0.00e+00	92	33	0	328204288	44	5949
2026-01-09 01:15:03.84	190.69	17.66	-35.3	-36.1	24.3	0.00e+00	92	33	0	330301440	44	5826
2026-01-09 01:15:04.85	190.78	17.78	-35.5	-36.3	24.3	0.00e+00	0	33	0	332398592	44	5927
2026-01-09 01:15:05.86	190.88	17.89	-35.4	-36.3	24.3	0.00e+00	90	33	0	334495744	44	5898
2026-01-09 01:15:06.87	190.97	18.00	-35.4	-36.2	24.4	0.00e+00	0	33	0	336592896	44	5886
2026-01-09 01:15:07.88	191.06	18.11	-35.5	-36.3	24.3	0.00e+00	92	33	0	337641472	44	5944
2026-01-09 01:15:08.89	191.16	18.23	-35.7	-36.5	24.1	0.00e+00	0	33	0	339738624	44	6077
2026-01-09 01:15:09.90	191.26	18.34	-35.8	-36.6	24.2	0.00e+00	92	33	0	341835776	44	6169
2026-01-09 01:15:10.91	191.35	18.45	-35.7	-36.5	24.1	0.00e+00	13	33	0	343932928	44	6098
2026-01-09 01:15:11.92	191.45	18.57	-35.7	-36.5	24.1	0.00e+00	12	33	0	346030080	44	6101
2026-01-09 01:15:12.93	191.55	18.68	-35.6	-36.5	24.2	0.00e+00	90	33	0	347078656	44	6041
2026-01-09 01:15:13.94	191.65	18.80	-35.8	-36.7	24.1	0.00e+00	0	33	0	349175808	44	6193
2026-01-09 01:15:14.95	191.75	18.91	-36.1	-37.0	23.8	0.00e+00	92	33	0	351272960	44	6410
2026-01-09 01:15:15.96	191.85	19.03	-36.1	-36.9	24.0	0.00e+00	0	33	0	353370112	44	6365
2026-01-09 01:15:16.97	191.95	19.15	-36.1	-37.0	23.8	0.00e+00	91	33	0	355467264	44	6432
2026-01-09 01:15:17.98	192.05	19.26	-36.0	-36.9	24.0	0.00e+00	0	33	0	356515840	44	6347
2026-01-09 01:15:18.99	192.16	19.38	-36.0	-36.9	23.9	0.00e+00	92	33	0	358612992	44	6349
2026-01-09 01:15:20.00	192.26	19.50	-35.8	-36.6	24.1	0.00e+00	92	33	0	360710144	44	6161
2026-01-09 01:15:21.00	192.37	19.62	-35.7	-36.6	24.2	0.00e+00	0	33	0	362807296	44	6111
2026-01-09 01:15:22.01	192.47	19.73	-35.7	-36.5	24.3	0.00e+00	35	33	0	364904448	44	6056
2026-01-09 01:15:23.02	192.58	19.85	-35.6	-36.4	24.4	0.00e+00	0	33	0	365953024	44	5976
2026-01-09 01:15:24.03	192.68	19.97	-35.7	-36.5	24.2	0.00e+00	52	33	0	368050176	44	6058
2026-01-09 01:15:25.04	192.79	20.09	-35.8	-36.6	24.2	0.00e+00	0	33	0	370147328	44	6154
2026-01-09 01:15:26.05	192.90	20.21	-35.7	-36.5	24.1	0.00e+00	90	33	0	372244480	44	6089
2026-01-09 01:15:27.06	193.01	20.34	-35.7	-36.5	24.2	0.00e+00	92	33	0	374341632	44	6076
2026-01-09 01:15:28.06	193.12	20.46	-35.6	-36.4	24.3	0.00e+00	0	33	0	376438784	44	6028
2026-01-09 01:15:29.07	193.23	20.58	-35.5	-36.3	24.3	0.00e+00	92	33	0	377487360	44	5931
2026-01-09 01:15:30.08	193.34	20.70	-35.4	-36.2	24.5	0.00e+00	0	33	0	379584512	44	5857
2026-01-09 01:15:31.09	193.45	20.83	-35.3	-36.1	24.5	0.00e+00	66	33	0	381681664	44	5808
2026-01-09 01:15:32.10	193.57	20.95	-35.3	-36.1	24.6	0.00e+00	0	33	0	383778816	44	5812
2026-01-09 01:15:33.11	193.68	21.07	-35.4	-36.2	24.4	0.00e+00	93	33	0	385875968	44	5871
2026-01-09 01:15:34.12	193.80	21.20	-35.2	-36.0	24.6	0.00e+00	92	33	0	386924544	44	5706
2026-01-09 01:15:35.12	193.91	21.32	-35.3	-36.1	24.5	0.00e+00	0	33	0	389021696	44	5763
2026-01-09 01:15:36.13	194.03	21.45	-35.6	-36.4	24.4	0.00e+00	90	33	0	391118848	44	6033
2026-01-09 01:15:37.14	194.15	21.57	-35.2	-36.0	24.6	0.00e+00	0	33	0	393216000	44	5706
2026-01-09 01:15:38.15	194.27	21.70	-35.4	-36.2	24.5	0.00e+00	92	33	0	395313152	44	5871
2026-01-09 01:15:39.16	194.39	21.83	-35.6	-36.4	24.3	0.00e+00	0	33	0	396361728	44	6009
2026-01-09 01:15:40.17	194.51	21.96	-35.4	-36.2	24.4	0.00e+00	92	33	0	398458880	44	5839
2026-01-09 01:15:41.18	194.63	22.09	-35.5	-36.3	24.5	0.00e+00	92	33	0	400556032	44	5921
2026-01-09 01:15:42.19	194.75	22.21	-35.4	-36.2	24.4	0.00e+00	0	33	0	402653184	44	5852
2026-01-09 01:15:43.20	194.88	22.34	-35.5	-36.3	24.4	0.00e+00	92	33	0	404750336	44	5948
2026-01-09 01:15:44.21	195.00	22.47	-35.2	-36.0	24.6	0.00e+00	0	33	0	405798912	44	5745
2026-01-09 01:15:45.22	195.13	22.60	-35.1	-35.9	24.5	0.00e+00	89	33	0	407896064	44	5691
2026-01-09 01:15:46.23	195.25	22.74	-35.5	-36.3	24.5	0.00e+00	0	33	0	409993216	44	5936
2026-01-09 01:15:47.24	195.38	22.87	-35.1	-35.9	24.6	0.00e+00	92	34	0	412090368	44	5692
2026-01-09 01:15:48.24	195.51	23.00	-35.4	-36.2	24.5	0.00e+00	59	33	0	414187520	44	5867
2026-01-09 01:15:49.25	195.64	23.13	-35.3	-36.1	24.4	0.00e+00	33	33	0	415236096	44	5786
2026-01-09 01:15:50.26	195.77	23.26	-35.4	-36.2	24.4	0.00e+00	92	33	0	417333248	44	5877
2026-01-09 01:15:51.27	195.90	23.40	-35.6	-36.4	24.3	0.00e+00	0	33	0	419430400	44	6031
2026-01-09 01:15:52.28	196.04	23.53	-35.8	-36.7	24.2	0.00e+00	60	33	0	421527552	44	6181
2026-01-09 01:15:53.29	196.17	23.67	-35.7	-36.6	24.2	0.00e+00	0	33	0	423624704	44	6114
2026-01-09 01:15:54.30	196.31	23.80	-35.6	-36.4	24.3	0.00e+00	92	33	0	424673280	44	5995
2026-01-09 01:15:55.31	196.44	23.94	-35.9	-36.7	24.1	0.00e+00	60	33	0	426770432	44	6222
2026-01-09 01:15:56.32	196.58	24.07	-35.8	-36.7	24.1	0.00e+00	92	33	0	428867584	44	6190
2026-01-09 01:15:57.33	196.72	24.21	-35.9	-36.8	23.9	0.00e+00	91	33	0	430964736	44	6256
2026-01-09 01:15:58.34	196.86	24.35	-36.1	-37.0	24.0	0.00e+00	0	33	0	433061888	44	6416
2026-01-09 01:15:59.34	197.00	24.49	-35.8	-36.6	24.2	0.00e+00	85	33	0	434110464	44	6164
2026-01-09 01:16:00.35	197.14	24.62	-36.0	-36.8	24.0	0.00e+00	0	33	0	436207616	44	6287
2026-01-09 01:16:01.36	197.29	24.76	-36.3	-37.2	23.8	0.00e+00	92	33	0	438304768	44	6540
2026-01-09 01:16:02.37	197.43	24.90	-36.1	-36.9	24.0	0.00e+00	0	33	0	440401920	44	6387
2026-01-09 01:16:03.37	197.58	25.04	-36.2	-37.0	23.9	0.00e+00	92	33	0	442499072	44	6454
2026-01-09 01:16:04.38	197.73	25.18	-36.2	-37.1	23.9	0.00e+00	64	33	0	443547648	44	6465
2026-01-09 01:16:05.39	197.87	25.32	-36.0	-36.9	24.0	0.00e+00	0	33	0	445644800	44	6320
2026-01-09 01:16:06.40	198.02	25.47	-36.2	-37.1	23.9	0.00e+00	92	33	0	447741952	44	6486
2026-01-09 01:16:07.41	198.18	25.61	-36.3	-37.1	23.8	0.00e+00	0	33	0	449839104	44	6511
2026-01-09 01:16:08.42	198.33	25.75	-36.3	-37.2	23.7	0.00e+00	91	33	0	451936256	44	6545
2026-01-09 01:16:09.43	198.48	25.90	-36.5	-37.3	23.6	0.00e+00	0	33	0	452984832	44	6672
2026-01-09 01:16:10.44	198.64	26.04	-36.2	-37.1	23.9	0.00e+00	92	33	0	455081984	44	6481
2026-01-09 01:16:11.45	198.80	26.19	-36.4	-37.3	23.7	0.00e+00	54	33	0	457179136	44	6626
2026-01-09 01:16:12.45	198.95	26.33	-36.3	-37.2	23.8	0.00e+00	0	33	0	459276288	44	6580
2026-01-09 01:16:13.46	199.11	26.48	-36.3	-37.2	23.8	0.00e+00	86	33	0	461373440	44	6564
2026-01-09 01:16:14.47	199.27	26.62	-36.3	-37.1	23.9	0.00e+00	0	33	0	462422016	44	6508
2026-01-09 01:16:15.48	199.44	26.77	-36.5	-37.4	23.6	0.00e+00	79	33	0	464519168	44	6701
2026-01-09 01:16:16.49	199.60	26.92	-36.2	-37.0	23.9	0.00e+00	0	33	0	466616320	44	6462
2026-01-09 01:16:17.50	199.77	27.06	-36.3	-37.2	23.7	0.00e+00	92	33	0	468713472	44	6540
2026-01-09 01:16:18.51	199.93	27.21	-36.6	-37.5	23.5	0.00e+00	56	33	0	470810624	44	6796
2026-01-09 01:16:19.52	200.10	27.36	-36.7	-37.6	23.6	0.00e+00	42	33	0	472907776	44	6851
2026-01-09 01:16:20.53	200.27	27.51	-36.9	-37.8	23.3	0.00e+00	92	33	0	473956352	46	6280
2026-01-09 01:16:21.54	200.44	27.66	-37.0	-37.8	23.3	0.00e+00	0	33	0	476053504	46	6316
2026-01-09 01:16:22.55	200.62	27.81	-37.1	-38.0	23.3	0.00e+00	68	33	0	478150656	46	6393
2026-01-09 01:16:23.55	200.79	27.96	-37.7	-38.6	22.5	0.00e+00	33	33	0	480247808	46	6903
2026-01-09 01:16:24.57	200.97	28.12	-37.3	-38.3	23.0	0.00e+00	90	33	0	482344960	46	6644
2026-01-09 01:16:25.57	201.14	28.27	-37.7	-38.6	22.6	0.00e+00	41	33	0	483393536	46	6925
2026-01-09 01:16:26.58	201.32	28.42	-37.6	-38.6	22.6	0.00e+00	92	33	0	485490688	48	6154
2026-01-09 01:16:27.59	201.51	28.58	-37.8	-38.8	22.5	0.00e+00	92	33	0	487587840	48	6276
2026-01-09 01:16:28.60	201.69	28.73	-37.8	-38.8	22.6	0.00e+00	0	33	0	489684992	48	6314
2026-01-09 01:16:29.61	201.87	28.88	-38.1	-39.1	22.2	0.00e+00	72	33	0	491782144	48	6493
2026-01-09 01:16:30.62	202.06	29.04	-38.0	-39.0	22.5	0.00e+00	0	33	0	492830720	48	6463
2026-01-09 01:16:31.63	202.25	29.20	-37.9	-38.9	22.4	0.00e+00	81	33	0	494927872	48	6347
2026-01-09 01:16:32.64	202.44	29.35	-37.9	-38.9	22.6	0.00e+00	0	33	0	497025024	48	6356
2026-01-09 01:16:33.65	202.63	29.51	-37.6	-38.5	22.8	0.00e+00	92	33	0	499122176	48	6084
2026-01-09 01:16:34.66	202.82	29.67	-37.6	-38.5	22.8	0.00e+00	92	33	0	501219328	48	6065
2026-01-09 01:16:35.67	203.02	29.82	-37.7	-38.7	22.7	0.00e+00	0	33	0	502267904	48	6203
2026-01-09 01:16:36.68	203.22	29.98	-38.0	-39.0	22.4	0.00e+00	92	33	0	504365056	48	6438
2026-01-09 01:16:37.69	203.42	30.14	-38.0	-39.0	22.4	0.00e+00	0	33	0	506462208	48	6427
2026-01-09 01:16:38.70	203.62	30.30	-38.2	-39.2	22.4	0.00e+00	92	33	0	508559360	48	6615
2026-01-09 01:16:39.71	203.82	30.46	-38.2	-39.2	22.3	0.00e+00	0	33	0	510656512	48	6564
2026-01-09 01:16:40.72	204.03	30.62	-38.1	-39.1	22.3	0.00e+00	92	33	0	511705088	48	6483
2026-01-09 01:16:41.72	204.23	30.78	-37.9	-38.9	22.5	0.00e+00	92	33	0	513802240	48	6339
2026-01-09 01:16:42.74	204.44	30.95	-38.2	-39.2	22.4	0.00e+00	0	33	0	515899392	48	6611
2026-01-09 01:16:43.74	204.65	31.11	-38.3	-39.4	22.1	0.00e+00	92	33	0	517996544	48	6720
2026-01-09 01:16:44.75	204.87	31.27	-38.5	-39.5	22.1	0.00e+00	0	33	0	520093696	48	6848
2026-01-09 01:16:45.76	205.08	31.43	-38.8	-39.9	21.7	0.00e+00	90	33	0	521142272	50	6366
2026-01-09 01:16:46.77	205.30	31.59	-38.7	-39.8	21.8	0.00e+00	0	33	0	523239424	50	6268
2026-01-09 01:16:47.78	205.52	31.76	-38.4	-39.5	22.0	0.00e+00	90	33	0	525336576	50	6071
2026-01-09 01:16:48.79	205.74	31.92	-37.8	-38.8	22.6	0.00e+00	92	33	0	527433728	50	5575
2026-01-09 01:16:49.80	205.97	32.09	-37.7	-38.6	22.7	0.00e+00	38	33	0	529530880	48	6171
2026-01-09 01:16:50.81	206.19	32.25	-37.2	-38.1	23.2	0.00e+00	92	33	0	530579456	48	5828
2026-01-09 01:16:51.81	206.42	32.42	-37.4	-38.4	22.9	0.00e+00	0	33	0	532676608	48	5970
2026-01-09 01:16:52.82	206.65	32.58	-37.5	-38.4	22.8	0.00e+00	92	33	0	534773760	48	6019
2026-01-09 01:16:53.83	206.89	32.75	-37.6	-38.6	21.9	0.00e+00	0	33	0	536870912	48	6137
2026-01-09 01:16:54.84	207.12	32.92	-38.1	-39.1	22.4	0.00e+00	92	33	0	538968064	48	6489
2026-01-09 01:16:55.85	207.36	33.08	-38.1	-39.1	22.3	0.00e+00	52	33	0	541065216	48	6493
2026-01-09 01:16:56.86	207.60	33.25	-38.4	-39.5	21.9	0.00e+00	83	33	0	542113792	48	6805
2026-01-09 01:16:57.87	207.84	33.42	-38.4	-39.5	21.9	0.00e+00	92	33	0	544210944	48	6787
2026-01-09 01:16:58.88	208.09	33.59	-38.5	-39.5	21.9	0.00e+00	0	33	0	546308096	48	6846
2026-01-09 01:16:59.89	208.34	33.76	-37.6	-38.6	22.6	0.00e+00	79	33	0	548405248	48	6148
2026-01-09 01:17:00.90	208.59	33.93	-37.5	-38.4	22.8	0.00e+00	0	33	0	550502400	48	6024
2026-01-09 01:17:01.91	208.84	34.10	-37.4	-38.4	23.0	0.00e+00	92	33	0	551550976	48	5971
2026-01-09 01:17:02.92	209.10	34.27	-37.0	-37.9	23.1	0.00e+00	60	33	0	553648128	48	5671
2026-01-09 01:17:03.93	209.35	34.44	-36.9	-37.8	23.4	0.00e+00	92	33	0	555745280	48	5592
2026-01-09 01:17:04.94	209.62	34.61	-36.7	-37.5	23.6	0.00e+00	92	33	0	557842432	46	6097
2026-01-09 01:17:05.95	209.88	34.78	-36.6	-37.5	23.6	0.00e+00	0	33	0	559939584	46	6083
2026-01-09 01:17:06.96	210.15	34.95	-36.9	-37.8	23.4	0.00e+00	70	33	0	560988160	46	6306
2026-01-09 01:17:07.97	210.41	35.12	-36.9	-37.8	23.2	0.00e+00	0	33	0	563085312	46	6265
2026-01-09 01:17:08.97	210.68	35.29	-37.1	-38.0	23.2	0.00e+00	92	33	0	565182464	46	6456
2026-01-09 01:17:09.98	210.96	35.46	-37.2	-38.1	23.1	0.00e+00	0	33	0	567279616	46	6519
2026-01-09 01:17:10.99	211.24	35.63	-37.3	-38.2	22.9	0.00e+00	88	33	0	569376768	46	6573
2026-01-09 01:17:12.00	211.52	35.81	-37.0	-37.9	23.3	0.00e+00	92	33	0	570425344	46	6337
2026-01-09 01:17:13.01	211.80	35.98	-37.2	-38.1	23.2	0.00e+00	0	33	0	572522496	46	6536
2026-01-09 01:17:14.02	212.09	36.15	-37.3	-38.3	23.0	0.00e+00	66	33	0	574619648	46	6622
2026-01-09 01:17:15.03	212.38	36.32	-37.4	-38.3	23.0	0.00e+00	0	33	0	576716800	46	6684
2026-01-09 01:17:16.04	212.67	36.49	-37.6	-38.6	22.8	0.00e+00	92	33	0	578813952	46	6855
2026-01-09 01:17:17.05	212.96	36.67	-37.5	-38.4	22.7	0.00e+00	0	33	0	579862528	46	6765
2026-01-09 01:17:18.06	213.26	36.84	-37.0	-38.0	23.2	0.00e+00	90	33	0	581959680	46	6400
2026-01-09 01:17:19.07	213.56	37.01	-36.6	-37.5	23.6	0.00e+00	26	33	0	584056832	46	6057
2026-01-09 01:17:20.08	213.87	37.19	-36.6	-37.5	23.6	0.00e+00	0	33	0	586153984	46	6047
2026-01-09 01:17:21.09	214.18	37.36	-36.4	-37.2	23.9	0.00e+00	92	33	0	588251136	46	5881
2026-01-09 01:17:22.09	214.48	37.53	-36.4	-37.2	23.8	0.00e+00	0	33	0	589299712	46	5876
2026-01-09 01:17:23.10	214.80	37.70	-36.3	-37.1	23.9	0.00e+00	92	33	0	591396864	46	5819
2026-01-09 01:17:24.11	215.12	37.88	-35.9	-36.8	24.3	0.00e+00	0	33	0	593494016	46	5579
2026-01-09 01:17:25.12	215.44	38.05	-35.8	-36.6	24.4	0.00e+00	90	33	0	595591168	44	6155
2026-01-09 01:17:26.13	215.76	38.22	-35.5	-36.3	24.3	0.00e+00	58	33	0	597688320	44	5950
2026-01-09 01:17:27.14	216.09	38.39	-35.7	-36.5	23.6	0.00e+00	55	33	0	598736896	44	6088
2026-01-09 01:17:28.15	216.42	38.57	-36.1	-36.9	24.0	0.00e+00	91	33	0	600834048	44	6359
2026-01-09 01:17:29.15	216.75	38.74	-36.5	-37.3	23.6	0.00e+00	0	33	0	602931200	44	6692
2026-01-09 01:17:30.16	217.09	38.91	-36.0	-36.9	24.1	0.00e+00	92	33	0	605028352	44	6338
2026-01-09 01:17:31.17	217.43	39.08	-36.2	-37.1	24.0	0.00e+00	31	33	0	607125504	44	6503
2026-01-09 01:17:32.18	217.78	39.25	-35.9	-36.8	24.0	0.00e+00	91	33	0	608174080	44	6272
2026-01-09 01:17:33.19	218.13	39.42	-36.2	-37.1	24.0	0.00e+00	9	33	0	610271232	44	6479
2026-01-09 01:17:34.20	218.48	39.59	-36.3	-37.1	23.8	0.00e+00	91	33	0	612368384	44	6536
2026-01-09 01:17:35.20	218.83	39.76	-36.7	-37.6	23.4	0.00e+00	92	33	0	614465536	44	6913
2026-01-09 01:17:36.21	219.19	39.93	-36.6	-37.5	23.3	0.00e+00	0	33	0	616562688	46	6052
2026-01-09 01:17:37.22	219.56	40.10	-37.2	-38.1	23.2	0.00e+00	92	33	0	617611264	46	6521
2026-01-09 01:17:38.23	219.92	40.27	-37.3	-38.3	22.9	0.00e+00	0	33	0	619708416	46	6644
2026-01-09 01:17:39.24	220.29	40.44	-37.8	-38.9	22.5	0.00e+00	90	33	0	621805568	48	6327
2026-01-09 01:17:40.25	220.67	40.61	-37.6	-38.6	22.8	0.00e+00	0	33	0	623902720	48	6134
2026-01-09 01:17:41.26	221.05	40.77	-37.1	-38.0	23.3	0.00e+00	92	33	0	625999872	48	5761
2026-01-09 01:17:42.27	221.43	40.94	-36.4	-37.2	24.0	0.00e+00	92	33	0	627048448	46	5874
2026-01-09 01:17:43.27	221.81	41.10	-35.7	-36.5	24.4	0.00e+00	0	33	0	629145600	44	6059
2026-01-09 01:17:44.28	222.20	41.27	-35.8	-36.6	23.9	0.00e+00	90	33	0	631242752	44	6130
2026-01-09 01:17:45.29	222.60	41.43	-36.8	-37.7	23.3	0.00e+00	0	33	0	633339904	44	6975
2026-01-09 01:17:46.30	223.00	41.60	-37.4	-38.4	22.9	0.00e+00	90	33	0	635437056	46	6738
2026-01-09 01:17:47.31	223.40	41.76	-37.3	-38.2	23.1	0.00e+00	0	33	0	637534208	46	6572
2026-01-09 01:17:48.32	223.80	41.92	-36.0	-36.8	24.0	0.00e+00	90	33	0	638582784	46	5591
2026-01-09 01:17:49.33	224.22	42.09	-35.5	-36.3	24.3	0.00e+00	83	33	0	640679936	44	5911
2026-01-09 01:17:50.34	224.63	42.25	-36.0	-36.9	24.1	0.00e+00	0	33	0	642777088	44	6333
2026-01-09 01:17:51.35	225.05	42.41	-36.7	-37.6	23.4	0.00e+00	92	33	0	644874240	44	6890
2026-01-09 01:17:52.35	225.47	42.56	-36.8	-37.6	23.4	0.00e+00	0	33	0	646971392	46	6170
2026-01-09 01:17:53.36	225.89	42.72	-37.0	-37.9	23.2	0.00e+00	92	33	0	648019968	46	6356
2026-01-09 01:17:54.37	226.32	42.88	-37.1	-38.0	23.3	0.00e+00	0	33	0	650117120	46	6399
2026-01-09 01:17:55.38	226.76	43.03	-37.1	-38.0	23.3	0.00e+00	90	33	0	652214272	46	6408
2026-01-09 01:17:56.39	227.20	43.19	-37.1	-38.0	23.2	0.00e+00	62	33	0	654311424	46	6463
2026-01-09 01:17:57.40	227.64	43.34	-36.8	-37.7	23.3	0.00e+00	47	33	0	656408576	46	6230
2026-01-09 01:17:58.41	228.09	43.49	-36.6	-37.4	23.6	0.00e+00	90	33	0	657457152	46	6032
2026-01-09 01:17:59.42	228.54	43.64	-36.5	-37.3	23.9	0.00e+00	0	33	0	659554304	46	5942
2026-01-09 01:18:00.43	229.00	43.79	-36.8	-37.6	23.4	0.00e+00	92	33	0	661651456	46	6166
2026-01-09 01:18:01.44	229.46	43.94	-37.3	-38.2	23.1	0.00e+00	0	33	0	663748608	46	6597
2026-01-09 01:18:02.45	229.92	44.08	-37.3	-38.2	23.1	0.00e+00	90	33	0	665845760	46	6567
2026-01-09 01:18:03.46	230.39	44.23	-37.0	-37.9	23.2	0.00e+00	55	33	0	666894336	46	6374
2026-01-09 01:18:04.47	230.86	44.37	-36.8	-37.7	23.4	0.00e+00	92	33	0	668991488	46	6226
2026-01-09 01:18:05.47	231.33	44.51	-37.1	-38.0	23.1	0.00e+00	92	33	0	671088640	46	6445
2026-01-09 01:18:06.48	231.81	44.65	-36.5	-37.4	23.7	0.00e+00	0	33	0	673185792	46	6000
2026-01-09 01:18:07.49	232.30	44.79	-36.2	-37.0	23.9	0.00e+00	79	33	0	675282944	46	5730
2026-01-09 01:18:08.50	232.79	44.92	-36.7	-37.6	23.4	0.00e+00	0	33	0	676331520	46	6140
2026-01-09 01:18:09.51	233.28	45.06	-37.4	-38.3	23.0	0.00e+00	92	33	0	678428672	46	6683
2026-01-09 01:18:10.52	233.78	45.19	-37.4	-38.4	22.9	0.00e+00	0	33	0	680525824	46	6722
2026-01-09 01:18:11.53	234.28	45.32	-36.6	-37.5	23.7	0.00e+00	92	33	0	682622976	46	6067
2026-01-09 01:18:12.54	234.79	45.45	-36.5	-37.3	23.8	0.00e+00	90	33	0	684720128	46	5945
2026-01-09 01:18:13.55	235.30	45.58	-37.2	-38.1	23.1	0.00e+00	0	33	0	685768704	46	6538
2026-01-09 01:18:14.56	235.81	45.70	-38.5	-39.7	21.3	0.00e+00	56	33	0	687865856	48	6940
2026-01-09 01:18:15.57	236.33	45.82	-38.8	-39.9	21.6	0.00e+00	0	33	0	689963008	50	6368
2026-01-09 01:18:16.58	236.85	45.94	-38.2	-39.2	22.2	0.00e+00	92	33	0	692060160	50	5852
2026-01-09 01:18:17.59	237.37	46.06	-38.7	-39.8	21.8	0.00e+00	0	33	0	694157312	50	6284
2026-01-09 01:18:18.60	237.90	46.18	-39.1	-40.3	21.2	0.00e+00	92	33	0	695205888	50	6636
2026-01-09 01:18:19.61	238.44	46.29	-39.6	-40.9	20.8	0.00e+00	92	33	0	697303040	50	7097
2026-01-09 01:18:20.62	238.97	46.40	-39.1	-40.3	21.4	0.00e+00	0	33	0	699400192	50	6616
2026-01-09 01:18:21.62	239.51	46.51	-38.2	-39.2	22.2	0.00e+00	38	33	0	701497344	50	5891
2026-01-09 01:18:22.63	240.05	46.61	-38.1	-39.1	22.4	0.00e+00	0	33	0	703594496	50	5785
2026-01-09 01:18:23.64	240.60	46.72	-39.0	-40.1	21.6	0.00e+00	92	33	0	704643072	50	6490
2026-01-09 01:18:24.65	241.15	46.82	-40.4	-41.8	19.9	0.00e+00	0	33	0	706740224	52	7051
2026-01-09 01:18:25.66	241.71	46.92	-41.0	-42.5	19.4	0.00e+00	92	33	0	708837376	54	6829
2026-01-09 01:18:26.66	242.26	47.01	-40.0	-41.3	20.5	0.00e+00	52	33	0	710934528	54	5902
2026-01-09 01:18:27.67	242.82	47.11	-39.4	-40.6	20.9	0.00e+00	0	33	0	713031680	52	6128
2026-01-09 01:18:28.68	243.39	47.20	-39.6	-40.8	21.0	0.00e+00	92	33	0	714080256	52	6279
2026-01-09 01:18:29.69	243.95	47.28	-40.1	-41.4	20.5	0.00e+00	0	33	0	716177408	52	6762
2026-01-09 01:18:30.70	244.52	47.37	-40.2	-41.5	20.3	0.00e+00	92	33	0	718274560	52	6841
2026-01-09 01:18:31.71	245.10	47.45	-39.2	-40.3	21.4	0.00e+00	0	33	0	720371712	52	5950
2026-01-09 01:18:32.72	245.68	47.53	-38.3	-39.2	22.2	0.00e+00	92	33	0	722468864	50	5895
2026-01-09 01:18:33.73	246.26	47.60	-38.8	-39.8	21.7	0.00e+00	0	33	0	723517440	50	6309
2026-01-09 01:18:34.74	246.84	47.68	-40.3	-41.6	20.1	0.00e+00	0	33	0	725614592	52	6925
2026-01-09 01:18:35.75	247.42	47.75	-40.8	-42.3	19.5	0.00e+00	83	33	0	727711744	54	6617
2026-01-09 01:18:36.76	248.01	47.81	-40.6	-42.0	19.8	0.00e+00	0	33	0	729808896	54	6422
2026-01-09 01:18:37.76	248.60	47.88	-40.2	-41.6	20.3	0.00e+00	60	33	0	731906048	54	6109
2026-01-09 01:18:38.77	249.19	47.94	-40.0	-41.3	20.5	0.00e+00	0	33	0	734003200	54	5927
2026-01-09 01:18:39.78	249.78	47.99	-39.3	-40.4	21.2	0.00e+00	93	33	0	735051776	52	6021
2026-01-09 01:18:40.79	250.38	48.05	-38.8	-39.9	21.8	0.00e+00	0	33	0	737148928	52	5663
2026-01-09 01:18:41.80	250.98	48.10	-38.1	-39.1	22.4	0.00e+00	0	33	0	739246080	50	5803
2026-01-09 01:18:42.81	251.58	48.15	-38.5	-39.5	22.0	0.00e+00	92	33	0	741343232	50	6086
2026-01-09 01:18:43.81	252.18	48.19	-39.1	-40.2	21.3	0.00e+00	0	33	0	743440384	50	6603
2026-01-09 01:18:44.82	252.78	48.23	-40.0	-41.3	20.8	0.00e+00	86	33	0	744488960	52	6664
2026-01-09 01:18:45.83	253.39	48.27	-39.8	-41.0	20.9	0.00e+00	0	33	0	746586112	52	6454
2026-01-09 01:18:46.84	253.99	48.30	-39.1	-40.2	21.5	0.00e+00	92	33	0	748683264	52	5830
2026-01-09 01:18:47.85	254.60	48.33	-38.8	-39.9	21.7	0.00e+00	0	33	0	750780416	50	6345
2026-01-09 01:18:48.86	255.21	48.36	-39.7	-41.0	20.7	0.00e+00	80	33	0	752877568	52	6442
2026-01-09 01:18:49.87	255.82	48.39	-40.0	-41.3	20.5	0.00e+00	92	33	0	753926144	52	6684
2026-01-09 01:18:50.88	256.43	48.41	-39.3	-40.5	21.3	0.00e+00	0	33	0	756023296	52	6073
2026-01-09 01:18:51.89	257.04	48.42	-38.5	-39.5	22.1	0.00e+00	61	33	0	758120448	50	6090
2026-01-09 01:18:52.90	257.66	48.44	-38.4	-39.5	22.0	0.00e+00	0	33	0	760217600	50	6053
2026-01-09 01:18:53.90	258.26	48.45	-38.8	-39.9	21.6	0.00e+00	92	33	0	762314752	50	6389
2026-01-09 01:18:54.91	258.88	48.45	-38.8	-39.9	22.0	0.00e+00	0	33	0	763363328	50	6332
2026-01-09 01:18:55.92	259.49	48.46	-38.1	-39.1	22.4	0.00e+00	92	33	0	765460480	50	5824
2026-01-09 01:18:56.93	260.10	48.46	-38.3	-39.4	22.0	0.00e+00	91	33	0	767557632	50	6017
2026-01-09 01:18:57.94	260.72	48.45	-39.1	-40.3	21.5	0.00e+00	0	33	0	769654784	50	6672
2026-01-09 01:18:58.95	261.33	48.45	-39.2	-40.4	21.4	0.00e+00	58	33	0	771751936	50	6722
2026-01-09 01:18:59.96	261.94	48.44	-38.6	-39.6	22.2	0.00e+00	0	33	0	772800512	50	6152
2026-01-09 01:19:00.96	262.55	48.42	-37.6	-38.5	22.9	0.00e+00	91	33	0	774897664	48	6075
2026-01-09 01:19:01.97	263.16	48.41	-37.4	-38.3	23.0	0.00e+00	0	33	0	776994816	48	5910
2026-01-09 01:19:02.98	263.77	48.38	-37.7	-38.7	22.7	0.00e+00	92	33	0	779091968	48	6214
2026-01-09 01:19:03.99	264.38	48.36	-38.4	-39.5	22.0	0.00e+00	19	33	0	781189120	48	6771
2026-01-09 01:19:05.00	264.99	48.33	-38.6	-39.7	21.3	0.00e+00	0	33	0	782237696	48	6967
2026-01-09 01:19:06.01	265.60	48.30	-39.6	-40.8	21.0	0.00e+00	30	33	0	784334848	50	7073
2026-01-09 01:19:07.02	266.21	48.27	-40.3	-41.7	20.1	0.00e+00	0	33	0	786432000	52	6984
2026-01-09 01:19:08.03	266.81	48.23	-39.4	-40.6	21.2	0.00e+00	92	33	0	788529152	52	6110
2026-01-09 01:19:09.04	267.41	48.19	-38.5	-39.5	21.9	0.00e+00	0	33	0	790626304	50	6056
2026-01-09 01:19:10.05	268.02	48.14	-39.0	-40.1	21.6	0.00e+00	91	33	0	791674880	50	6518
2026-01-09 01:19:11.06	268.62	48.10	-39.3	-40.4	21.0	0.00e+00	29	33	0	793772032	50	6740
2026-01-09 01:19:12.07	269.22	48.05	-40.3	-41.6	20.2	0.00e+00	0	33	0	795869184	52	6857
2026-01-09 01:19:13.08	269.81	47.99	-41.1	-42.6	19.0	0.00e+00	92	33	0	797966336	54	6910
2026-01-09 01:19:14.09	270.41	47.93	-41.0	-42.4	19.5	0.00e+00	0	33	0	800063488	54	6751
2026-01-09 01:19:15.10	271.00	47.87	-40.8	-42.2	19.7	0.00e+00	92	33	0	802160640	54	6580
2026-01-09 01:19:16.10	271.58	47.81	-40.4	-41.7	20.1	0.00e+00	0	33	0	803209216	54	6232
2026-01-09 01:19:17.11	272.17	47.74	-40.4	-41.8	20.0	0.00e+00	92	33	0	805306368	54	6250
2026-01-09 01:19:18.12	272.75	47.67	-39.7	-40.9	20.9	0.00e+00	57	33	0	807403520	54	5656
2026-01-09 01:19:19.13	273.33	47.60	-39.9	-41.2	20.9	0.00e+00	91	33	0	809500672	52	6549
2026-01-09 01:19:20.14	273.91	47.53	-39.4	-40.6	21.0	0.00e+00	92	33	0	810549248	52	6163
2026-01-09 01:19:21.14	274.48	47.45	-40.2	-41.5	20.4	0.00e+00	0	33	0	812646400	52	6816
2026-01-09 01:19:22.15	275.06	47.37	-39.2	-40.3	21.4	0.00e+00	58	33	0	814743552	52	5931
2026-01-09 01:19:23.16	275.63	47.28	-37.9	-38.8	22.4	0.00e+00	0	33	0	816840704	50	5605
2026-01-09 01:19:24.17	276.19	47.19	-38.4	-39.4	22.2	0.00e+00	90	33	0	818937856	50	6018
2026-01-09 01:19:25.18	276.76	47.10	-37.6	-38.5	22.8	0.00e+00	0	33	0	819986432	50	5422
2026-01-09 01:19:26.19	277.32	47.01	-36.1	-36.9	24.1	0.00e+00	92	33	0	822083584	46	5682
2026-01-09 01:19:27.20	277.88	46.91	-36.1	-36.9	24.1	0.00e+00	92	33	0	824180736	44	6367
2026-01-09 01:19:28.21	278.43	46.82	-37.8	-38.8	22.6	0.00e+00	0	33	0	826277888	46	7062
2026-01-09 01:19:29.21	278.98	46.72	-40.0	-41.3	20.5	0.00e+00	43	33	0	828375040	52	6653
2026-01-09 01:19:30.23	279.53	46.61	-39.8	-41.1	20.6	0.00e+00	0	33	0	830472192	52	6496
2026-01-09 01:19:31.23	280.07	46.51	-38.2	-39.2	22.3	0.00e+00	90	33	0	831520768	50	5875
2026-01-09 01:19:32.24	280.60	46.40	-37.3	-38.2	23.3	0.00e+00	0	33	0	833617920	48	5843
2026-01-09 01:19:33.25	281.14	46.29	-37.4	-38.3	23.0	0.00e+00	92	33	0	835715072	48	5920
2026-01-09 01:19:34.26	281.67	46.17	-37.5	-38.4	22.8	0.00e+00	92	33	0	837812224	48	6009
2026-01-09 01:19:35.27	282.20	46.06	-37.3	-38.1	23.2	0.00e+00	0	33	0	839909376	48	5827
2026-01-09 01:19:36.28	282.73	45.94	-37.4	-38.4	22.9	0.00e+00	84	33	0	840957952	48	5972
2026-01-09 01:19:37.29	283.25	45.82	-37.5	-38.4	22.9	0.00e+00	0	33	0	843055104	48	6000
2026-01-09 01:19:38.30	283.76	45.70	-38.7	-39.8	21.3	0.00e+00	92	33	0	845152256	48	7081
2026-01-09 01:19:39.31	284.27	45.58	-40.4	-41.8	20.2	0.00e+00	0	33	0	847249408	52	7076
2026-01-09 01:19:40.32	284.78	45.45	-40.5	-41.9	20.1	0.00e+00	92	33	0	849346560	54	6368
2026-01-09 01:19:41.33	285.29	45.32	-38.5	-39.6	22.0	0.00e+00	61	33	0	850395136	50	6150
2026-01-09 01:19:42.34	285.79	45.19	-37.2	-38.1	23.2	0.00e+00	0	33	0	852492288	48	5798
2026-01-09 01:19:43.34	286.28	45.06	-37.0	-37.9	23.3	0.00e+00	92	33	0	854589440	48	5657
2026-01-09 01:19:44.35	286.77	44.93	-38.0	-39.1	22.4	0.00e+00	0	33	0	856686592	48	6482
2026-01-09 01:19:45.36	287.26	44.79	-37.4	-38.3	23.1	0.00e+00	92	33	0	858783744	48	5950
2026-01-09 01:19:46.36	287.74	44.65	-35.9	-36.7	24.3	0.00e+00	0	33	0	859832320	46	5544
2026-01-09 01:19:47.37	288.22	44.51	-35.3	-36.1	24.6	0.00e+00	91	33	0	861929472	44	5781
2026-01-09 01:19:48.38	288.69	44.37	-34.9	-35.7	24.9	0.00e+00	0	33	0	864026624	44	5533
2026-01-09 01:19:49.39	289.17	44.23	-35.7	-36.5	24.4	0.00e+00	92	33	0	866123776	44	6059
2026-01-09 01:19:50.40	289.63	44.09	-36.1	-36.9	24.0	0.00e+00	92	33	0	868220928	44	6359
2026-01-09 01:19:51.41	290.10	43.94	-35.6	-36.4	24.4	0.00e+00	0	33	0	869269504	44	5980
2026-01-09 01:19:52.41	290.55	43.80	-34.5	-35.2	25.2	0.00e+00	69	33	0	871366656	42	5888
2026-01-09 01:19:53.42	291.01	43.65	-33.8	-34.5	25.6	0.00e+00	0	33	0	873463808	40	6057
2026-01-09 01:19:54.43	291.46	43.50	-34.3	-35.1	25.2	0.00e+00	91	33	0	875560960	40	6465
2026-01-09 01:19:55.44	291.90	43.35	-35.1	-35.9	24.9	0.00e+00	0	33	0	877658112	42	6320
2026-01-09 01:19:56.45	292.34	43.20	-34.7	-35.5	25.1	0.00e+00	92	33	0	878706688	42	6085
2026-01-09 01:19:57.45	292.78	43.04	-33.9	-34.6	25.5	0.00e+00	92	33	0	880803840	42	5450
2026-01-09 01:19:58.46	293.21	42.89	-33.9	-34.6	25.1	0.00e+00	0	33	0	882900992	40	6135
2026-01-09 01:19:59.47	293.64	42.73	-34.5	-35.3	25.1	0.00e+00	55	33	0	884998144	40	6633
2026-01-09 01:20:00.48	294.07	42.58	-35.4	-36.3	24.1	0.00e+00	0	33	0	887095296	42	6625
2026-01-09 01:20:01.49	294.49	42.42	-35.3	-36.1	24.6	0.00e+00	92	33	0	888143872	42	6539
2026-01-09 01:20:02.49	294.90	42.26	-34.7	-35.5	25.0	0.00e+00	0	33	0	890241024	42	6060
2026-01-09 01:20:03.50	295.32	42.10	-34.1	-34.8	25.5	0.00e+00	92	33	0	892338176	42	5615
2026-01-09 01:20:04.51	295.73	41.94	-33.8	-34.5	25.6	0.00e+00	92	33	0	894435328	40	6062
2026-01-09 01:20:05.52	296.13	41.78	-34.4	-35.1	25.4	0.00e+00	0	33	0	896532480	40	6514
2026-01-09 01:20:06.53	296.53	41.62	-35.3	-36.1	24.5	0.00e+00	55	33	0	897581056	42	6496
2026-01-09 01:20:07.54	296.93	41.45	-35.7	-36.5	24.1	0.00e+00	0	33	0	899678208	44	6054
2026-01-09 01:20:08.55	297.32	41.29	-34.9	-35.7	24.9	0.00e+00	92	33	0	901775360	44	5515
2026-01-09 01:20:09.56	297.71	41.12	-34.5	-35.2	25.3	0.00e+00	0	33	0	903872512	42	5863
2026-01-09 01:20:10.57	298.10	40.96	-35.2	-36.0	24.7	0.00e+00	92	33	0	905969664	42	6424
2026-01-09 01:20:11.57	298.48	40.79	-36.6	-37.4	23.8	0.00e+00	75	33	0	907018240	44	6755
2026-01-09 01:20:12.58	298.85	40.63	-37.3	-38.2	23.1	0.00e+00	0	33	0	909115392	46	6596
2026-01-09 01:20:13.59	299.23	40.46	-36.3	-37.2	23.9	0.00e+00	61	33	0	911212544	46	5859
2026-01-09 01:20:14.60	299.60	40.29	-35.7	-36.6	24.3	0.00e+00	0	33	0	913309696	44	6111
2026-01-09 01:20:15.61	299.96	40.12	-36.1	-37.0	23.9	0.00e+00	87	33	0	915406848	44	6406
2026-01-09 01:20:16.62	300.33	39.96	-37.8	-38.8	22.6	0.00e+00	0	33	0	916455424	46	7045
2026-01-09 01:20:17.63	300.69	39.79	-39.1	-40.3	21.4	0.00e+00	88	33	0	918552576	48	7427
2026-01-09 01:20:18.64	301.04	39.62	-39.5	-40.7	21.0	0.00e+00	0	33	0	920649728	50	6968
2026-01-09 01:20:19.65	301.39	39.45	-39.8	-41.0	21.0	0.00e+00	0	33	0	922746880	52	6442
2026-01-09 01:20:20.66	301.74	39.28	-38.3	-39.4	22.2	0.00e+00	90	33	0	924844032	50	6023
2026-01-09 01:20:21.67	302.09	39.11	-37.7	-38.6	22.6	0.00e+00	0	33	0	926941184	48	6171
2026-01-09 01:20:22.68	302.43	38.94	-38.2	-39.1	22.4	0.00e+00	56	33	0	927989760	48	6537
2026-01-09 01:20:23.69	302.76	38.76	-38.4	-39.4	22.0	0.00e+00	0	33	0	930086912	48	6736
2026-01-09 01:20:24.70	303.10	38.59	-38.7	-39.8	21.6	0.00e+00	92	33	0	932184064	48	7026
2026-01-09 01:20:25.71	303.43	38.42	-39.9	-41.1	20.7	0.00e+00	0	33	0	934281216	52	6510
2026-01-09 01:20:26.71	303.75	38.25	-39.3	-40.4	21.2	0.00e+00	0	33	0	936378368	52	6018
2026-01-09 01:20:27.72	304.08	38.08	-38.0	-39.0	22.5	0.00e+00	91	33	0	937426944	50	5719
2026-01-09 01:20:28.73	304.40	37.91	-37.6	-38.6	22.8	0.00e+00	0	33	0	939524096	48	6123
2026-01-09 01:20:29.74	304.71	37.74	-38.4	-39.4	22.1	0.00e+00	71	33	0	941621248	48	6706
2026-01-09 01:20:30.75	305.03	37.56	-39.4	-40.6	21.1	0.00e+00	0	33	0	943718400	50	6871
2026-01-09 01:20:31.76	305.34	37.39	-40.8	-42.4	19.4	0.00e+00	92	33	0	945815552	54	6716
2026-01-09 01:20:32.77	305.65	37.22	-43.1	-45.5	16.6	0.00e+00	0	33	0	946864128	58	7656
2026-01-09 01:20:33.78	305.95	37.05	-41.4	-43.0	18.9	0.00e+00	0	33	0	948961280	56	6462
2026-01-09 01:20:34.79	306.25	36.88	-39.5	-40.7	21.1	0.00e+00	51	33	0	951058432	52	6200
2026-01-09 01:20:35.80	306.55	36.70	-39.0	-40.1	21.5	0.00e+00	0	33	0	953155584	50	6486
2026-01-09 01:20:36.81	306.84	36.53	-38.1	-39.1	22.3	0.00e+00	53	33	0	955252736	50	5788
2026-01-09 01:20:37.82	307.13	36.36	-38.5	-39.6	21.9	0.00e+00	0	32	0	956301312	50	6110
2026-01-09 01:20:38.83	307.42	36.19	-39.9	-41.2	20.7	0.00e+00	90	33	0	958398464	52	6562
2026-01-09 01:20:39.84	307.71	36.02	-40.9	-42.4	19.7	0.00e+00	0	33	0	960495616	54	6709
2026-01-09 01:20:40.85	307.99	35.85	-42.3	-44.3	17.8	0.00e+00	50	33	0	962592768	56	7438
2026-01-09 01:20:41.86	308.27	35.68	-41.4	-43.0	19.0	0.00e+00	90	32	0	964689920	56	6446
2026-01-09 01:20:42.87	308.55	35.50	-39.7	-40.9	20.9	0.00e+00	0	33	0	965738496	52	6366
2026-01-09 01:20:43.87	308.82	35.34	-38.6	-39.6	22.0	0.00e+00	60	33	0	967835648	50	6131
2026-01-09 01:20:44.88	309.09	35.16	-37.9	-38.8	21.9	0.00e+00	0	33	0	969932800	50	5608
2026-01-09 01:20:45.89	309.36	34.99	-37.8	-38.8	22.5	0.00e+00	92	32	0	972029952	48	6249
2026-01-09 01:20:46.90	309.63	34.82	-38.6	-39.7	21.7	0.00e+00	0	32	0	974127104	48	6965
2026-01-09 01:20:47.90	309.89	34.66	-39.3	-40.6	21.0	0.00e+00	41	32	0	975175680	50	6856
2026-01-09 01:20:48.91	310.15	34.49	-39.4	-40.6	21.0	0.00e+00	0	32	0	977272832	50	6850
2026-01-09 01:20:49.92	310.41	34.32	-38.0	-39.0	22.4	0.00e+00	0	33	0	979369984	50	5755
2026-01-09 01:20:50.93	310.66	34.15	-36.2	-37.1	24.0	0.00e+00	87	32	0	981467136	46	5785
2026-01-09 01:20:51.94	310.91	33.98	-35.7	-36.5	24.3	0.00e+00	0	32	0	983564288	44	6096
2026-01-09 01:20:52.95	311.16	33.81	-35.2	-36.0	24.6	0.00e+00	85	33	0	984612864	44	5732
2026-01-09 01:20:53.96	311.41	33.64	-35.9	-36.7	24.2	0.00e+00	0	33	0	986710016	44	6202
2026-01-09 01:20:54.97	311.66	33.48	-36.7	-37.5	23.5	0.00e+00	60	33	0	988807168	44	6848
2026-01-09 01:20:55.98	311.90	33.31	-37.6	-38.6	22.7	0.00e+00	17	33	0	990904320	46	6864
2026-01-09 01:20:56.99	312.14	33.14	-38.3	-39.4	22.1	0.00e+00	0	33	0	993001472	48	6736
2026-01-09 01:20:58.00	312.38	32.98	-38.0	-39.1	22.5	0.00e+00	40	33	0	994050048	50	5763
2026-01-09 01:20:59.00	312.61	32.81	-37.2	-38.2	23.2	0.00e+00	0	32	0	996147200	48	5844
2026-01-09 01:21:00.02	312.85	32.64	-36.4	-37.2	23.8	0.00e+00	92	33	0	998244352	46	5891
2026-01-09 01:21:01.02	313.07	32.48	-36.5	-37.4	23.7	0.00e+00	0	33	0	1000341504	46	6002
2026-01-09 01:21:02.03	313.30	32.31	-36.6	-37.4	23.6	0.00e+00	88	33	0	1002438656	46	6028
2026-01-09 01:21:03.04	313.53	32.15	-36.7	-37.5	23.7	0.00e+00	0	32	0	1004535808	46	6084
2026-01-09 01:21:04.05	313.75	31.99	-36.7	-37.6	23.5	0.00e+00	0	33	0	1005584384	46	6131
2026-01-09 01:21:05.06	313.97	31.82	-37.4	-38.4	22.9	0.00e+00	92	32	0	1007681536	46	6731
2026-01-09 01:21:06.07	314.19	31.66	-38.3	-39.4	22.2	0.00e+00	0	32	0	1009778688	48	6703
2026-01-09 01:21:07.08	314.41	31.50	-38.0	-39.1	22.3	0.00e+00	92	32	0	1011875840	48	6500
2026-01-09 01:21:08.09	314.63	31.33	-37.3	-38.3	23.0	0.00e+00	0	32	0	1012924416	48	5904
2026-01-09 01:21:09.10	314.84	31.17	-36.7	-37.6	23.5	0.00e+00	92	32	0	1015021568	46	6148
2026-01-09 01:21:10.11	315.05	31.01	-36.6	-37.5	23.4	0.00e+00	0	32	0	1017118720	46	6086
2026-01-09 01:21:11.12	315.26	30.85	-36.8	-37.7	23.2	0.00e+00	0	32	0	1019215872	46	6223
2026-01-09 01:21:12.13	315.47	30.69	-36.7	-37.6	23.4	0.00e+00	92	32	0	1021313024	46	6154
2026-01-09 01:21:13.14	315.67	30.53	-36.7	-37.6	23.5	0.00e+00	0	32	0	1022361600	46	6152
2026-01-09 01:21:14.14	315.87	30.37	-36.5	-37.3	23.6	0.00e+00	28	32	0	1024458752	46	5961
2026-01-09 01:21:15.15	316.07	30.21	-36.5	-37.4	23.5	0.00e+00	30	32	0	1026555904	46	5985
2026-01-09 01:21:16.16	316.27	30.06	-36.2	-37.1	23.8	0.00e+00	92	33	0	1028653056	46	5772
2026-01-09 01:21:17.17	316.47	29.90	-36.3	-37.2	23.7	0.00e+00	0	32	0	1030750208	46	5871
2026-01-09 01:21:18.18	316.67	29.74	-36.3	-37.2	23.7	0.00e+00	57	32	0	1032847360	46	5852
2026-01-09 01:21:19.19	316.86	29.59	-35.8	-36.6	24.4	0.00e+00	82	32	0	1033895936	46	5477
2026-01-09 01:21:20.20	317.05	29.43	-35.9	-36.7	24.1	0.00e+00	0	32	0	1035993088	44	6212
2026-01-09 01:21:21.21	317.24	29.27	-36.2	-37.1	23.8	0.00e+00	53	32	0	1038090240	44	6504
2026-01-09 01:21:22.21	317.43	29.12	-36.7	-37.6	23.5	0.00e+00	0	32	0	1040187392	44	6851
2026-01-09 01:21:23.23	317.62	28.96	-37.1	-38.0	23.1	0.00e+00	89	32	0	1042284544	46	6461
2026-01-09 01:21:24.24	317.80	28.81	-37.7	-38.6	22.7	0.00e+00	0	32	0	1043333120	46	6879
2026-01-09 01:21:25.24	317.98	28.66	-38.5	-39.6	21.9	0.00e+00	90	32	0	1045430272	48	6852
2026-01-09 01:21:26.25	318.17	28.50	-38.6	-39.7	21.8	0.00e+00	43	32	0	1047527424	50	6212
2026-01-09 01:21:27.26	318.34	28.35	-38.0	-39.0	22.4	0.00e+00	0	32	0	1049624576	50	5718
2026-01-09 01:21:28.27	318.52	28.20	-37.8	-38.8	22.5	0.00e+00	43	32	0	1051721728	48	6308
2026-01-09 01:21:29.28	318.70	28.05	-37.6	-38.6	22.8	0.00e+00	0	32	0	1052770304	48	6114
2026-01-09 01:21:30.29	318.87	27.90	-37.3	-38.2	22.9	0.00e+00	92	32	0	1054867456	48	5878
2026-01-09 01:21:31.29	319.05	27.75	-37.2	-38.1	22.9	0.00e+00	0	32	0	1056964608	48	5810
2026-01-09 01:21:32.30	319.22	27.60	-36.8	-37.6	23.3	0.00e+00	90	32	0	1059061760	46	6167
2026-01-09 01:21:33.31	319.39	27.45	-37.1	-38.0	23.2	0.00e+00	0	32	0	1061158912	46	6446
2026-01-09 01:21:34.32	319.56	27.30	-37.2	-38.1	23.0	0.00e+00	0	32	0	1062207488	46	6536
2026-01-09 01:21:35.33	319.72	27.15	-37.4	-38.3	23.0	0.00e+00	67	32	0	1064304640	46	6664
2026-01-09 01:21:36.34	319.89	27.01	-37.2	-38.1	23.1	0.00e+00	0	32	0	1066401792	46	6524
2026-01-09 01:21:37.35	320.05	26.86	-36.8	-37.7	23.5	0.00e+00	56	32	0	1068498944	46	6207
2026-01-09 01:21:38.35	320.21	26.72	-36.3	-37.1	23.8	0.00e+00	0	32	0	1070596096	46	5802
2026-01-09 01:21:39.36	320.37	26.57	-35.8	-36.6	24.0	0.00e+00	90	33	0	1071644672	46	5468
2026-01-09 01:21:40.37	320.53	26.42	-35.8	-36.6	24.2	0.00e+00	0	32	0	1073741824	44	6128
2026-01-09 01:21:41.38	320.69	26.28	-35.5	-36.3	24.4	0.00e+00	18	33	0	1075838976	44	5916
2026-01-09 01:21:42.39	320.85	26.14	-35.3	-36.1	24.4	0.00e+00	91	32	0	1077936128	44	5788
2026-01-09 01:21:43.39	321.00	25.99	-35.7	-36.5	24.3	0.00e+00	0	32	0	1080033280	44	6056
2026-01-09 01:21:44.40	321.16	25.85	-35.7	-36.5	24.1	0.00e+00	51	32	0	1081081856	44	6080
2026-01-09 01:21:45.41	321.31	25.71	-36.4	-37.3	23.7	0.00e+00	0	32	0	1083179008	44	6631
2026-01-09 01:21:46.42	321.46	25.57	-36.6	-37.5	23.3	0.00e+00	92	32	0	1085276160	44	6796
2026-01-09 01:21:47.43	321.61	25.42	-37.0	-38.0	23.1	0.00e+00	0	32	0	1087373312	46	6396
2026-01-09 01:21:48.44	321.76	25.28	-37.4	-38.4	22.8	0.00e+00	70	32	0	1089470464	46	6744
2026-01-09 01:21:49.45	321.91	25.14	-37.7	-38.7	22.5	0.00e+00	43	33	0	1090519040	46	6995
2026-01-09 01:21:50.46	322.06	25.00	-37.8	-38.8	22.3	0.00e+00	0	32	0	1092616192	48	6300
2026-01-09 01:21:51.47	322.20	24.87	-38.2	-39.3	21.9	0.00e+00	53	32	0	1094713344	48	6631
2026-01-09 01:21:52.48	322.34	24.73	-38.1	-39.1	22.2	0.00e+00	0	33	0	1096810496	48	6486
2026-01-09 01:21:53.49	322.49	24.59	-38.1	-39.1	22.1	0.00e+00	92	33	0	1098907648	48	6536
2026-01-09 01:21:54.49	322.63	24.45	-37.8	-38.9	22.4	0.00e+00	0	32	0	1101004800	48	6332
2026-01-09 01:21:55.50	322.77	24.32	-38.0	-39.1	22.0	0.00e+00	92	33	0	1102053376	48	6500
2026-01-09 01:21:56.51	322.91	24.18	-38.5	-39.6	21.6	0.00e+00	50	32	0	1104150528	48	6886
2026-01-09 01:21:57.52	323.05	24.04	-38.4	-39.6	21.6	0.00e+00	0	32	0	1106247680	48	6874
2026-01-09 01:21:58.53	323.18	23.91	-38.9	-40.2	21.2	0.00e+00	57	32	0	1108344832	50	6564
2026-01-09 01:21:59.54	323.32	23.77	-38.7	-39.9	21.3	0.00e+00	0	32	0	1109393408	50	6388
2026-01-09 01:22:00.54	323.45	23.64	-38.4	-39.6	21.8	0.00e+00	92	32	0	1111490560	50	6128
2026-01-09 01:22:01.55	323.58	23.51	-38.6	-39.8	21.5	0.00e+00	0	32	0	1113587712	50	6279
2026-01-09 01:22:02.56	323.72	23.37	-38.4	-39.5	21.8	0.00e+00	52	32	0	1115684864	50	6084
2026-01-09 01:22:03.57	323.85	23.24	-38.3	-39.5	21.8	0.00e+00	0	32	0	1117782016	50	6063
2026-01-09 01:22:04.58	323.98	23.11	-38.4	-39.6	21.9	0.00e+00	0	32	0	1118830592	50	6142
2026-01-09 01:22:05.59	324.11	22.98	-37.9	-39.0	22.0	0.00e+00	92	32	0	1120927744	50	5723
2026-01-09 01:22:06.60	324.24	22.85	-38.4	-39.5	21.8	0.00e+00	0	32	0	1123024896	50	6066
2026-01-09 01:22:07.60	324.36	22.72	-39.0	-40.3	21.2	0.00e+00	92	32	0	1125122048	50	6630
2026-01-09 01:22:08.61	324.49	22.59	-39.2	-40.5	20.8	0.00e+00	0	33	0	1127219200	50	6829
2026-01-09 01:22:09.63	324.61	22.46	-39.5	-40.8	20.8	0.00e+00	0	32	0	1129316352	50	7028
2026-01-09 01:22:10.63	324.74	22.33	-39.9	-41.3	20.3	0.00e+00	0	32	0	1130364928	52	6679
2026-01-09 01:22:11.65	324.86	22.20	-39.7	-41.1	20.6	0.00e+00	33	32	0	1132462080	52	6477
2026-01-09 01:22:12.65	324.98	22.07	-39.4	-40.8	20.8	0.00e+00	92	32	0	1134559232	52	6254
2026-01-09 01:22:13.67	325.11	21.94	-39.3	-40.6	20.8	0.00e+00	0	32	0	1136656384	52	6140
2026-01-09 01:22:14.68	325.23	21.82	-38.6	-39.8	21.4	0.00e+00	90	32	0	1138753536	50	6270
2026-01-09 01:22:15.68	325.34	21.69	-38.2	-39.4	22.0	0.00e+00	0	32	0	1139802112	50	5965
2026-01-09 01:22:16.69	325.46	21.57	-37.1	-38.0	22.8	0.00e+00	0	32	0	1141899264	48	5750
2026-01-09 01:22:17.70	325.58	21.44	-36.5	-37.4	23.5	0.00e+00	0	32	0	1143996416	46	5986
2026-01-09 01:22:18.71	325.70	21.32	-36.4	-37.3	23.6	0.00e+00	0	32	0	1146093568	46	5900
2026-01-09 01:22:19.72	325.81	21.19	-35.6	-36.4	24.3	0.00e+00	45	32	0	1148190720	44	6015
2026-01-09 01:22:20.73	325.93	21.07	-35.1	-35.9	24.5	0.00e+00	0	32	0	1149239296	44	5692
2026-01-09 01:22:21.74	326.04	20.95	-35.2	-36.0	24.3	0.00e+00	55	32	0	1151336448	44	5730
2026-01-09 01:22:22.75	326.15	20.82	-35.2	-36.0	24.4	0.00e+00	0	32	0	1153433600	44	5752
2026-01-09 01:22:23.76	326.27	20.70	-35.4	-36.3	24.2	0.00e+00	0	32	0	1155530752	44	5899
2026-01-09 01:22:24.77	326.38	20.58	-35.4	-36.2	24.2	0.00e+00	0	33	0	1157627904	44	5887
2026-01-09 01:22:25.78	326.49	20.46	-35.7	-36.5	24.0	0.00e+00	0	33	0	1158676480	44	6095
2026-01-09 01:22:26.79	326.60	20.34	-36.5	-37.4	23.5	0.00e+00	26	32	0	1160773632	44	6743
2026-01-09 01:22:27.80	326.71	20.22	-36.8	-37.8	23.2	0.00e+00	0	32	0	1162870784	44	7013
2026-01-09 01:22:28.80	326.81	20.10	-37.0	-38.0	22.7	0.00e+00	77	32	0	1164967936	46	6425
2026-01-09 01:22:29.81	326.92	19.98	-37.7	-38.8	22.3	0.00e+00	0	32	0	1167065088	48	6249
2026-01-09 01:22:30.82	327.03	19.86	-37.8	-38.8	22.3	0.00e+00	0	32	0	1168113664	48	6312
2026-01-09 01:22:31.83	327.13	19.74	-38.3	-39.4	21.8	0.00e+00	0	32	0	1170210816	48	6706
2026-01-09 01:22:32.83	327.24	19.62	-38.4	-39.6	21.6	0.00e+00	0	32	0	1172307968	48	6873
2026-01-09 01:22:33.84	327.34	19.51	-38.5	-39.6	21.7	0.00e+00	0	32	0	1174405120	48	6908
2026-01-09 01:22:34.85	327.44	19.39	-38.8	-40.0	21.4	0.00e+00	0	32	0	1176502272	50	6398
2026-01-09 01:22:35.86	327.55	19.27	-38.5	-39.6	21.7	0.00e+00	66	32	0	1177550848	50	6143
2026-01-09 01:22:36.87	327.65	19.16	-38.4	-39.6	21.7	0.00e+00	0	32	0	1179648000	50	6118
2026-01-09 01:22:37.88	327.75	19.04	-38.6	-39.7	21.5	0.00e+00	1	32	0	1181745152	50	6218
2026-01-09 01:22:38.89	327.85	18.93	-38.2	-39.3	21.9	0.00e+00	0	33	0	1183842304	50	5931
2026-01-09 01:22:39.90	327.95	18.81	-38.0	-39.1	21.9	0.00e+00	0	32	0	1185939456	50	5811
2026-01-09 01:22:40.91	328.05	18.70	-37.8	-38.9	22.2	0.00e+00	0	32	0	1186988032	50	5638
2026-01-09 01:22:41.92	328.15	18.58	-37.8	-38.8	22.2	0.00e+00	0	33	0	1189085184	48	6287
2026-01-09 01:22:42.93	328.24	18.47	-37.9	-39.0	22.0	0.00e+00	52	32	0	1191182336	48	6427
2026-01-09 01:22:43.94	328.34	18.36	-37.8	-38.8	22.3	0.00e+00	0	32	0	1193279488	48	6287
2026-01-09 01:22:44.95	328.44	18.25	-37.6	-38.6	22.4	0.00e+00	16	33	0	1195376640	48	6168
2026-01-09 01:22:45.95	328.53	18.13	-37.5	-38.6	22.5	0.00e+00	0	32	0	1197473792	48	6123
2026-01-09 01:22:46.96	328.63	18.02	-37.4	-38.4	22.6	0.00e+00	0	32	0	1198522368	48	5985
2026-01-09 01:22:47.97	328.72	17.91	-37.6	-38.6	22.3	0.00e+00	0	32	0	1200619520	48	6156
