passes_logs/2026/01/09/R4.6S_Anadyr/R4.6S_Anadyr__20260109_131631_SUOMI_NPP_rec.log

#Pass ID: 20260109_131631_SUOMI NPP
#Satellite: SUOMI NPP
#Configuration: NPP
#almurnet v.1.7.20251203
#Start time: 2026-01-09 13:16:33

#Version: 2.2.20231116
#Station: R4.6S_Anadyr
#Location: 177.4865 lon 64.73178 lat
#TLE: 1 37849U 11061A   26008.05542337  .00000108  00000+0  71976-4 0  9997
#TLE: 2 37849  98.7805 310.1641 0002540  75.6410 284.5048 14.19523335735721

#Time	Az	El	Level	Level2	SNR	BER	BlckErr	Temp	State	Recorded	gain1	gain2
2026-01-09 13:16:33.22	18.88	0.12	-47.6	-60.2	3.4	1.52e+00	0	21	0	0	60	35782
2026-01-09 13:16:34.23	18.93	0.18	-47.7	-63.0	3.6	1.51e+00	0	22	104	0	60	50826
2026-01-09 13:16:35.24	18.98	0.23	-47.7	-63.0	3.6	1.51e+00	0	22	104	0	60	51044
2026-01-09 13:16:36.25	19.03	0.29	-47.8	-63.0	3.6	1.51e+00	0	22	104	0	60	51118
2026-01-09 13:16:37.26	19.08	0.35	-47.8	-63.0	3.6	1.51e+00	0	22	104	0	60	50930
2026-01-09 13:16:38.27	19.14	0.40	-47.8	-63.0	3.6	1.51e+00	0	22	104	0	60	51153
2026-01-09 13:16:39.28	19.19	0.46	-47.8	-63.0	3.6	1.51e+00	0	23	104	0	60	51258
2026-01-09 13:16:40.29	19.24	0.51	-47.7	-63.0	3.6	1.51e+00	0	22	104	0	60	50903
2026-01-09 13:16:41.29	19.29	0.57	-47.7	-62.9	3.6	1.51e+00	0	23	104	0	60	50465
2026-01-09 13:16:42.30	19.34	0.63	-47.6	-62.8	3.6	1.51e+00	0	23	104	0	60	50044
2026-01-09 13:16:43.31	19.39	0.68	-47.5	-62.7	3.6	1.51e+00	0	23	104	0	60	49609
2026-01-09 13:16:44.33	19.45	0.74	-47.4	-62.6	3.6	1.51e+00	0	23	104	0	60	48564
2026-01-09 13:16:45.34	19.50	0.80	-47.1	-62.4	3.6	1.51e+00	0	23	104	0	60	47571
2026-01-09 13:16:46.34	19.55	0.85	-47.0	-62.2	3.6	1.51e+00	0	23	104	0	60	46656
2026-01-09 13:16:47.36	19.60	0.91	-46.8	-62.0	3.6	1.51e+00	0	23	104	0	60	45364
2026-01-09 13:16:48.36	19.66	0.97	-46.4	-61.6	3.6	1.51e+00	0	23	104	0	60	43442
2026-01-09 13:16:49.37	19.71	1.02	-46.2	-61.3	3.6	1.51e+00	0	23	104	0	60	41969
2026-01-09 13:16:50.38	19.76	1.08	-46.2	-61.3	3.6	1.51e+00	0	23	104	0	60	41942
2026-01-09 13:16:51.39	19.82	1.14	-46.2	-61.3	3.6	1.51e+00	0	23	104	0	60	42029
2026-01-09 13:16:52.40	19.87	1.19	-46.2	-61.3	3.6	1.51e+00	0	23	104	0	60	41920
2026-01-09 13:16:53.42	19.92	1.25	-46.2	-61.4	3.6	1.51e+00	0	23	104	0	60	42434
2026-01-09 13:16:54.42	19.98	1.31	-46.2	-61.3	3.6	1.51e+00	0	23	104	0	60	42087
2026-01-09 13:16:55.44	20.03	1.37	-46.2	-61.3	3.6	1.51e+00	0	23	104	0	60	42211
2026-01-09 13:16:56.44	20.09	1.43	-46.2	-61.4	3.5	1.51e+00	0	23	104	0	60	42233
2026-01-09 13:16:57.45	20.14	1.48	-46.1	-61.4	3.6	1.51e+00	0	23	104	0	60	42238
2026-01-09 13:16:58.46	20.19	1.54	-46.1	-61.3	3.6	1.51e+00	0	23	104	0	60	42139
2026-01-09 13:16:59.47	20.25	1.60	-46.2	-61.3	3.6	1.51e+00	0	23	104	0	60	42173
2026-01-09 13:17:00.48	20.30	1.66	-46.1	-61.3	3.6	1.51e+00	0	23	104	0	60	41905
2026-01-09 13:17:01.48	20.36	1.71	-46.2	-61.3	3.6	1.51e+00	0	23	104	0	60	41901
2026-01-09 13:17:02.49	20.42	1.77	-46.1	-61.2	3.6	1.51e+00	0	23	104	0	60	41464
2026-01-09 13:17:03.50	20.47	1.83	-46.1	-61.2	3.6	1.51e+00	0	23	104	0	60	41551
2026-01-09 13:17:04.51	20.53	1.89	-46.1	-61.2	3.6	1.51e+00	0	23	104	0	60	41700
2026-01-09 13:17:05.52	20.58	1.95	-46.1	-61.3	3.6	1.51e+00	0	23	104	0	60	41968
2026-01-09 13:17:06.53	20.64	2.01	-46.1	-61.3	3.6	1.51e+00	0	23	104	0	60	41794
2026-01-09 13:17:07.54	20.70	2.07	-46.1	-61.4	3.6	1.51e+00	0	23	104	0	60	42228
2026-01-09 13:17:08.55	20.75	2.13	-46.1	-61.3	3.6	1.51e+00	0	23	104	0	60	41975
2026-01-09 13:17:09.56	20.81	2.18	-46.1	-61.3	3.6	1.51e+00	0	23	104	0	60	41967
2026-01-09 13:17:10.57	20.87	2.24	-46.1	-61.3	3.6	1.51e+00	0	23	104	0	60	42048
2026-01-09 13:17:11.58	20.92	2.30	-46.1	-61.3	3.6	1.51e+00	0	23	104	0	60	41933
2026-01-09 13:17:12.59	20.98	2.36	-46.1	-61.0	3.5	1.51e+00	0	23	104	0	60	40748
2026-01-09 13:17:13.60	21.04	2.42	-46.1	-60.7	3.6	1.51e+00	0	23	104	0	60	39041
2026-01-09 13:17:14.61	21.10	2.48	-46.1	-60.3	3.6	1.51e+00	0	23	104	0	60	37208
2026-01-09 13:17:15.62	21.16	2.54	-46.1	-60.1	3.6	1.51e+00	0	23	104	0	60	36637
2026-01-09 13:17:16.63	21.21	2.60	-46.1	-60.6	3.6	1.51e+00	0	23	104	0	60	38641
2026-01-09 13:17:17.64	21.27	2.66	-46.1	-61.0	3.6	1.51e+00	0	23	104	0	60	40717
2026-01-09 13:17:18.65	21.33	2.72	-46.1	-59.6	3.6	1.51e+00	0	23	104	0	60	34549
2026-01-09 13:17:19.66	21.39	2.78	-45.8	-55.1	4.9	1.19e+00	0	23	0	0	60	20555
2026-01-09 13:17:20.66	21.45	2.84	-45.1	-51.2	8.4	2.00e-01	0	23	0	2097152	60	13082
2026-01-09 13:17:21.67	21.51	2.90	-44.2	-48.6	11.5	1.50e-02	0	23	0	3145728	60	9710
2026-01-09 13:17:22.68	21.57	2.96	-43.1	-46.4	13.8	2.36e-05	0	23	0	5242880	60	7536
2026-01-09 13:17:23.69	21.63	3.02	-42.0	-44.5	15.8	0.00e+00	0	23	0	7340032	58	6843
2026-01-09 13:17:24.70	21.69	3.08	-41.2	-43.2	17.1	0.00e+00	0	23	0	9437184	56	6597
2026-01-09 13:17:25.71	21.75	3.14	-40.3	-42.1	18.0	0.00e+00	0	23	0	11534336	54	6522
2026-01-09 13:17:26.72	21.81	3.20	-40.1	-41.9	18.1	0.00e+00	0	23	0	13631488	54	6340
2026-01-09 13:17:27.73	21.87	3.26	-40.1	-41.9	18.1	0.00e+00	0	23	0	14680064	54	6340
2026-01-09 13:17:28.74	21.93	3.32	-40.9	-42.9	17.2	0.00e+00	0	23	0	16777216	54	7116
2026-01-09 13:17:29.75	21.99	3.39	-41.8	-44.2	15.8	0.00e+00	0	23	0	18874368	54	8249
2026-01-09 13:17:30.76	22.05	3.45	-42.7	-45.5	14.5	0.00e+00	0	23	0	20971520	56	8614
2026-01-09 13:17:31.77	22.12	3.51	-41.1	-43.2	17.3	7.00e-07	0	23	0	23068672	56	6549
2026-01-09 13:17:32.78	22.18	3.57	-45.6	-54.1	4.0	6.61e-03	5	23	0	24117248	60	18418
2026-01-09 13:17:33.79	22.24	3.63	-44.4	-49.2	10.0	7.39e-01	0	23	104	24117248	58	11755
2026-01-09 13:17:34.80	22.30	3.69	-43.5	-46.9	13.3	7.03e-03	0	23	0	25165824	60	7985
2026-01-09 13:17:35.81	22.37	3.76	-46.1	-59.0	3.6	2.22e-02	19	23	104	27262976	60	32130
2026-01-09 13:17:36.82	22.43	3.82	-43.4	-46.8	5.8	1.50e+00	0	23	104	27262976	60	7934
2026-01-09 13:17:37.83	22.49	3.88	-43.1	-46.1	14.4	4.12e-02	0	23	0	27262976	60	7328
2026-01-09 13:17:38.83	22.56	3.94	-42.6	-45.3	15.0	0.00e+00	0	23	0	29360128	58	7499
2026-01-09 13:17:39.84	22.62	4.00	-42.2	-44.6	15.7	0.00e+00	0	23	0	30408704	58	6901
2026-01-09 13:17:40.85	22.68	4.07	-42.2	-44.6	15.9	0.00e+00	0	23	0	32505856	58	6876
2026-01-09 13:17:41.86	22.75	4.13	-41.9	-44.3	16.0	0.00e+00	0	23	0	34603008	58	6658
2026-01-09 13:17:42.87	22.81	4.19	-41.8	-44.1	16.2	0.00e+00	0	23	0	36700160	56	7287
2026-01-09 13:17:43.88	22.88	4.25	-41.3	-43.3	17.2	0.00e+00	0	23	0	38797312	56	6656
2026-01-09 13:17:44.89	22.94	4.32	-41.3	-43.4	17.2	0.00e+00	0	23	0	39845888	56	6705
2026-01-09 13:17:45.90	23.01	4.38	-41.0	-42.9	17.7	0.00e+00	0	23	0	41943040	56	6360
2026-01-09 13:17:46.91	23.07	4.44	-40.7	-42.5	18.0	0.00e+00	0	23	0	44040192	54	6790
2026-01-09 13:17:47.92	23.14	4.51	-40.2	-41.9	18.4	0.00e+00	0	23	0	46137344	54	6350
2026-01-09 13:17:48.93	23.20	4.57	-40.1	-41.8	18.5	0.00e+00	0	23	0	48234496	54	6283
2026-01-09 13:17:49.93	23.27	4.63	-40.1	-41.7	18.6	0.00e+00	0	23	0	49283072	54	6218
2026-01-09 13:17:50.94	23.34	4.70	-40.1	-41.7	18.7	0.00e+00	0	23	0	51380224	54	6226
2026-01-09 13:17:51.95	23.40	4.76	-40.0	-41.6	18.7	0.00e+00	0	23	0	53477376	54	6170
2026-01-09 13:17:52.96	23.47	4.82	-40.1	-41.8	18.6	0.00e+00	0	23	0	55574528	54	6292
2026-01-09 13:17:53.97	23.54	4.89	-40.0	-41.6	18.7	0.00e+00	0	23	0	57671680	54	6135
2026-01-09 13:17:54.98	23.61	4.95	-39.6	-41.1	19.3	0.00e+00	0	23	0	58720256	52	6484
2026-01-09 13:17:55.99	23.67	5.02	-39.5	-41.0	19.3	0.00e+00	0	23	0	60817408	52	6445
2026-01-09 13:17:57.00	23.74	5.08	-39.5	-41.1	19.3	0.00e+00	0	23	0	62914560	52	6467
2026-01-09 13:17:58.01	23.81	5.14	-39.5	-41.0	19.5	0.00e+00	0	23	0	65011712	52	6409
2026-01-09 13:17:59.02	23.88	5.21	-39.3	-40.7	19.7	0.00e+00	0	23	0	67108864	52	6193
2026-01-09 13:18:00.03	23.95	5.27	-39.3	-40.8	19.6	0.00e+00	0	23	0	68157440	52	6251
2026-01-09 13:18:01.04	24.02	5.34	-39.4	-40.8	19.7	0.00e+00	0	23	0	70254592	52	6300
2026-01-09 13:18:02.05	24.09	5.40	-39.2	-40.6	19.7	0.00e+00	0	23	0	72351744	52	6162
2026-01-09 13:18:03.05	24.16	5.47	-39.0	-40.3	20.0	0.00e+00	0	23	0	74448896	52	5956
2026-01-09 13:18:04.06	24.23	5.53	-39.1	-40.5	19.9	0.00e+00	0	23	0	76546048	52	6053
2026-01-09 13:18:05.07	24.30	5.60	-39.2	-40.7	19.8	0.00e+00	0	23	0	77594624	52	6174
2026-01-09 13:18:06.09	24.37	5.66	-38.9	-40.2	20.1	0.00e+00	0	23	0	79691776	52	5887
2026-01-09 13:18:07.09	24.44	5.73	-39.0	-40.4	20.0	0.00e+00	0	23	0	81788928	52	6000
2026-01-09 13:18:08.10	24.51	5.80	-39.0	-40.4	20.0	0.00e+00	0	23	0	83886080	52	5988
2026-01-09 13:18:09.11	24.58	5.86	-38.8	-40.2	20.3	0.00e+00	0	23	0	85983232	52	5848
2026-01-09 13:18:10.12	24.65	5.93	-39.0	-40.4	20.2	0.00e+00	0	23	0	87031808	52	5967
2026-01-09 13:18:11.13	24.73	5.99	-39.3	-40.8	20.0	0.00e+00	0	23	0	89128960	52	6259
2026-01-09 13:18:12.14	24.80	6.06	-38.8	-40.1	20.4	0.00e+00	0	23	0	91226112	52	5798
2026-01-09 13:18:13.15	24.87	6.13	-38.4	-39.7	20.6	0.00e+00	0	23	0	93323264	50	6209
2026-01-09 13:18:14.16	24.95	6.19	-38.7	-40.0	20.4	0.00e+00	0	23	0	95420416	50	6401
2026-01-09 13:18:15.17	25.02	6.26	-38.5	-39.7	20.6	0.00e+00	0	23	0	97517568	50	6237
2026-01-09 13:18:16.17	25.09	6.33	-38.4	-39.7	20.7	0.00e+00	0	23	0	98566144	50	6180
2026-01-09 13:18:17.18	25.17	6.39	-38.3	-39.5	20.8	0.00e+00	0	23	0	100663296	50	6095
2026-01-09 13:18:18.19	25.24	6.46	-38.3	-39.5	20.7	0.00e+00	0	23	0	102760448	50	6050
2026-01-09 13:18:19.20	25.32	6.53	-38.1	-39.3	21.1	0.00e+00	0	23	0	104857600	50	5946
2026-01-09 13:18:20.21	25.39	6.59	-38.2	-39.4	21.0	0.00e+00	0	23	0	106954752	50	5983
2026-01-09 13:18:21.22	25.47	6.66	-38.3	-39.5	20.9	0.00e+00	0	23	0	108003328	50	6050
2026-01-09 13:18:22.23	25.54	6.73	-38.1	-39.3	21.1	0.00e+00	0	23	0	110100480	50	5915
2026-01-09 13:18:23.24	25.62	6.80	-37.8	-39.0	21.4	0.00e+00	0	23	0	112197632	50	5713
2026-01-09 13:18:24.25	25.70	6.87	-38.0	-39.2	21.2	0.00e+00	0	23	0	114294784	50	5833
2026-01-09 13:18:25.26	25.77	6.93	-37.7	-38.8	21.4	0.00e+00	0	23	0	116391936	48	6308
2026-01-09 13:18:26.27	25.85	7.00	-37.8	-38.9	21.5	0.00e+00	0	23	0	117440512	48	6342
2026-01-09 13:18:27.28	25.93	7.07	-37.9	-39.0	21.3	0.00e+00	0	23	0	119537664	48	6428
2026-01-09 13:18:28.29	26.00	7.14	-37.9	-39.0	21.4	0.00e+00	0	23	0	121634816	48	6450
2026-01-09 13:18:29.30	26.08	7.21	-37.6	-38.7	21.6	0.00e+00	0	23	0	123731968	48	6204
2026-01-09 13:18:30.31	26.16	7.28	-37.5	-38.6	21.7	0.00e+00	0	23	0	125829120	48	6127
2026-01-09 13:18:31.31	26.24	7.34	-37.4	-38.5	21.7	0.00e+00	0	23	0	126877696	48	6075
2026-01-09 13:18:32.32	26.32	7.41	-37.3	-38.4	21.8	0.00e+00	0	23	0	128974848	48	5987
2026-01-09 13:18:33.33	26.40	7.48	-37.4	-38.5	21.8	0.00e+00	0	23	0	131072000	48	6068
2026-01-09 13:18:34.34	26.48	7.55	-37.5	-38.6	21.8	0.00e+00	0	23	0	133169152	48	6110
2026-01-09 13:18:35.35	26.56	7.62	-37.4	-38.4	21.9	0.00e+00	0	23	0	135266304	48	6030
2026-01-09 13:18:36.36	26.64	7.69	-37.4	-38.4	21.9	0.00e+00	0	23	0	136314880	48	6023
2026-01-09 13:18:37.37	26.72	7.76	-37.4	-38.4	21.9	0.00e+00	0	23	0	138412032	48	6012
2026-01-09 13:18:38.38	26.80	7.83	-37.4	-38.5	21.9	0.00e+00	0	23	0	140509184	48	6042
2026-01-09 13:18:39.39	26.88	7.90	-37.4	-38.4	21.9	0.00e+00	0	23	0	142606336	48	6031
2026-01-09 13:18:40.40	26.97	7.97	-37.0	-38.1	22.2	0.00e+00	0	23	0	144703488	48	5771
2026-01-09 13:18:41.41	27.05	8.04	-37.1	-38.2	22.1	0.00e+00	0	23	0	145752064	48	5839
2026-01-09 13:18:42.42	27.13	8.11	-37.3	-38.4	22.2	0.00e+00	0	23	0	147849216	48	5984
2026-01-09 13:18:43.43	27.21	8.18	-37.2	-38.2	22.1	0.00e+00	0	23	0	149946368	48	5883
2026-01-09 13:18:44.44	27.30	8.25	-37.2	-38.2	22.2	0.00e+00	0	23	0	152043520	48	5859
2026-01-09 13:18:45.45	27.38	8.32	-37.1	-38.1	22.2	0.00e+00	0	23	0	154140672	48	5823
2026-01-09 13:18:46.46	27.47	8.40	-37.2	-38.3	22.1	0.00e+00	0	23	0	155189248	48	5922
2026-01-09 13:18:47.47	27.55	8.47	-37.2	-38.2	22.2	0.00e+00	0	23	0	157286400	48	5893
2026-01-09 13:18:48.48	27.64	8.54	-37.3	-38.3	22.0	0.00e+00	0	23	0	159383552	48	5946
2026-01-09 13:18:49.49	27.72	8.61	-37.4	-38.5	21.9	0.00e+00	0	23	0	161480704	48	6061
2026-01-09 13:18:50.49	27.81	8.68	-37.3	-38.3	22.1	0.00e+00	0	23	0	163577856	48	5955
2026-01-09 13:18:51.50	27.89	8.75	-37.4	-38.4	22.0	0.00e+00	0	23	0	165675008	48	6018
2026-01-09 13:18:52.51	27.98	8.83	-37.3	-38.3	22.1	0.00e+00	0	23	0	166723584	48	5955
2026-01-09 13:18:53.52	28.07	8.90	-37.5	-38.6	21.9	0.00e+00	0	23	0	168820736	48	6120
2026-01-09 13:18:54.53	28.16	8.97	-37.2	-38.3	22.1	0.00e+00	0	23	0	170917888	48	5907
2026-01-09 13:18:55.54	28.24	9.04	-37.3	-38.3	22.0	0.00e+00	0	23	0	173015040	48	5952
2026-01-09 13:18:56.55	28.33	9.11	-37.3	-38.3	22.1	0.00e+00	0	23	0	175112192	48	5935
2026-01-09 13:18:57.56	28.42	9.19	-37.3	-38.3	22.1	0.00e+00	0	23	0	176160768	48	5947
2026-01-09 13:18:58.57	28.51	9.26	-37.2	-38.3	22.1	0.00e+00	0	23	0	178257920	48	5922
2026-01-09 13:18:59.58	28.60	9.33	-37.3	-38.4	22.1	0.00e+00	0	23	0	180355072	48	5983
2026-01-09 13:19:00.59	28.69	9.41	-37.2	-38.2	22.3	0.00e+00	0	23	0	182452224	48	5871
2026-01-09 13:19:01.60	28.78	9.48	-36.9	-37.9	22.4	0.00e+00	0	23	0	184549376	48	5675
2026-01-09 13:19:02.61	28.87	9.55	-37.1	-38.1	22.3	0.00e+00	0	23	0	185597952	48	5782
2026-01-09 13:19:03.61	28.96	9.63	-36.8	-37.8	22.5	0.00e+00	0	23	0	187695104	48	5599
2026-01-09 13:19:04.62	29.05	9.70	-36.9	-37.9	22.4	0.00e+00	0	23	0	189792256	48	5679
2026-01-09 13:19:05.63	29.15	9.78	-36.9	-37.9	22.4	0.00e+00	0	23	0	191889408	48	5670
2026-01-09 13:19:06.64	29.24	9.85	-36.9	-37.9	22.5	0.00e+00	0	23	0	193986560	48	5637
2026-01-09 13:19:07.65	29.33	9.92	-36.9	-37.9	22.5	0.00e+00	0	23	0	195035136	46	6330
2026-01-09 13:19:08.66	29.43	10.00	-36.8	-37.8	22.6	0.00e+00	0	23	0	197132288	46	6293
2026-01-09 13:19:09.67	29.52	10.07	-36.7	-37.6	22.7	0.00e+00	0	23	0	199229440	46	6162
2026-01-09 13:19:10.68	29.61	10.15	-36.9	-37.8	22.6	0.00e+00	0	23	0	201326592	46	6312
2026-01-09 13:19:11.69	29.71	10.22	-36.9	-37.9	22.6	0.00e+00	0	23	0	203423744	46	6364
2026-01-09 13:19:12.70	29.80	10.30	-36.9	-37.9	22.4	0.00e+00	0	23	0	204472320	46	6325
2026-01-09 13:19:13.71	29.90	10.37	-37.0	-38.0	22.5	0.00e+00	0	23	0	206569472	46	6424
2026-01-09 13:19:14.71	30.00	10.45	-36.9	-37.9	22.6	0.00e+00	0	23	0	208666624	46	6329
2026-01-09 13:19:15.72	30.09	10.52	-36.9	-37.9	22.5	0.00e+00	0	23	0	210763776	46	6333
2026-01-09 13:19:16.73	30.19	10.60	-36.8	-37.8	22.6	0.00e+00	0	23	0	212860928	46	6284
2026-01-09 13:19:17.74	30.29	10.68	-37.1	-38.1	22.3	0.00e+00	0	23	0	213909504	46	6539
2026-01-09 13:19:18.75	30.39	10.75	-37.0	-38.0	22.4	0.00e+00	0	23	0	216006656	46	6443
2026-01-09 13:19:19.76	30.48	10.83	-37.0	-38.0	22.3	0.00e+00	0	23	0	218103808	46	6425
2026-01-09 13:19:20.77	30.58	10.91	-37.2	-38.2	22.4	0.00e+00	0	23	0	220200960	46	6582
2026-01-09 13:19:21.78	30.68	10.98	-37.1	-38.2	22.2	0.00e+00	0	23	0	222298112	46	6553
2026-01-09 13:19:22.79	30.78	11.06	-37.0	-38.0	22.3	0.00e+00	0	23	0	223346688	46	6425
2026-01-09 13:19:23.80	30.89	11.14	-37.1	-38.2	22.1	0.00e+00	0	23	0	225443840	46	6551
2026-01-09 13:19:24.81	30.99	11.21	-36.8	-37.8	22.3	0.00e+00	0	23	0	227540992	46	6297
2026-01-09 13:19:25.82	31.09	11.29	-36.9	-37.9	22.4	0.00e+00	0	23	0	229638144	46	6358
2026-01-09 13:19:26.82	31.19	11.37	-36.9	-37.9	22.5	0.00e+00	0	23	0	231735296	46	6349
2026-01-09 13:19:27.84	31.29	11.45	-36.7	-37.7	22.6	0.00e+00	0	23	0	232783872	46	6197
2026-01-09 13:19:28.84	31.40	11.52	-36.7	-37.7	22.7	0.00e+00	0	23	0	234881024	46	6220
2026-01-09 13:19:29.85	31.50	11.60	-36.7	-37.7	22.8	0.00e+00	0	23	0	236978176	46	6186
2026-01-09 13:19:30.86	31.60	11.68	-36.5	-37.4	23.0	0.00e+00	0	23	0	239075328	46	6022
2026-01-09 13:19:31.87	31.71	11.76	-36.6	-37.5	22.9	0.00e+00	0	23	0	241172480	46	6085
2026-01-09 13:19:32.88	31.81	11.84	-36.4	-37.3	22.9	0.00e+00	0	23	0	242221056	46	5928
2026-01-09 13:19:33.88	31.92	11.91	-36.1	-36.9	23.3	0.00e+00	0	23	0	244318208	46	5687
2026-01-09 13:19:34.89	32.03	11.99	-36.2	-37.1	23.1	0.00e+00	0	23	0	246415360	46	5790
2026-01-09 13:19:35.90	32.13	12.07	-36.2	-37.2	23.2	0.00e+00	0	23	0	248512512	46	5839
2026-01-09 13:19:36.91	32.24	12.15	-36.1	-37.0	23.3	0.00e+00	0	23	0	250609664	46	5755
2026-01-09 13:19:37.92	32.35	12.23	-36.2	-37.1	23.2	0.00e+00	0	23	0	251658240	46	5775
2026-01-09 13:19:38.93	32.46	12.31	-36.4	-37.4	23.0	0.00e+00	0	23	0	253755392	46	5971
2026-01-09 13:19:39.94	32.57	12.39	-36.3	-37.2	23.1	0.00e+00	0	23	0	255852544	46	5864
2026-01-09 13:19:40.95	32.68	12.47	-36.5	-37.5	22.9	0.00e+00	0	23	0	257949696	46	6055
2026-01-09 13:19:41.96	32.79	12.55	-36.6	-37.5	22.9	0.00e+00	0	23	0	260046848	46	6088
2026-01-09 13:19:42.97	32.90	12.63	-36.7	-37.7	22.7	0.00e+00	0	23	0	262144000	46	6223
2026-01-09 13:19:43.98	33.01	12.71	-36.8	-37.8	22.6	0.00e+00	0	23	0	263192576	46	6287
2026-01-09 13:19:44.99	33.12	12.79	-37.0	-38.0	22.5	0.00e+00	0	23	0	265289728	46	6432
2026-01-09 13:19:46.00	33.24	12.87	-37.0	-38.1	22.5	0.00e+00	0	23	0	267386880	46	6491
2026-01-09 13:19:47.01	33.35	12.95	-37.2	-38.2	22.3	0.00e+00	0	23	0	269484032	46	6584
2026-01-09 13:19:48.02	33.46	13.03	-37.0	-38.1	22.5	0.00e+00	0	23	0	271581184	46	6483
2026-01-09 13:19:49.02	33.58	13.12	-37.1	-38.1	22.5	0.00e+00	0	23	0	272629760	46	6514
2026-01-09 13:19:50.03	33.69	13.20	-37.1	-38.1	22.4	0.00e+00	0	23	0	274726912	46	6535
2026-01-09 13:19:51.04	33.81	13.28	-37.2	-38.2	22.4	0.00e+00	0	23	0	276824064	46	6604
2026-01-09 13:19:52.05	33.92	13.36	-37.2	-38.2	22.3	0.00e+00	0	24	0	278921216	46	6607
2026-01-09 13:19:53.06	34.04	13.44	-37.0	-38.0	22.5	0.00e+00	0	23	0	281018368	46	6433
2026-01-09 13:19:54.07	34.16	13.52	-37.1	-38.1	22.6	0.00e+00	0	23	0	282066944	46	6476
2026-01-09 13:19:55.07	34.28	13.61	-37.1	-38.1	22.5	0.00e+00	0	23	0	284164096	46	6483
2026-01-09 13:19:56.08	34.39	13.69	-37.0	-38.0	22.5	0.00e+00	0	23	0	286261248	46	6449
2026-01-09 13:19:57.09	34.51	13.77	-37.2	-38.2	22.4	0.00e+00	0	23	0	288358400	46	6591
2026-01-09 13:19:58.10	34.63	13.85	-36.9	-37.9	22.6	0.00e+00	0	23	0	290455552	46	6388
2026-01-09 13:19:59.11	34.76	13.94	-37.1	-38.1	22.5	0.00e+00	0	23	0	291504128	46	6507
2026-01-09 13:20:00.12	34.88	14.02	-37.1	-38.1	22.3	0.00e+00	0	24	0	293601280	46	6534
2026-01-09 13:20:01.12	35.00	14.10	-37.2	-38.2	22.6	0.00e+00	0	23	0	295698432	46	6552
2026-01-09 13:20:02.14	35.12	14.19	-37.0	-38.0	22.5	0.00e+00	0	23	0	297795584	46	6430
2026-01-09 13:20:03.15	35.25	14.27	-37.2	-38.2	22.4	0.00e+00	0	23	0	299892736	46	6583
2026-01-09 13:20:04.15	35.37	14.35	-37.1	-38.1	22.5	0.00e+00	0	23	0	300941312	46	6510
2026-01-09 13:20:05.16	35.49	14.44	-37.1	-38.1	22.5	0.00e+00	0	23	0	303038464	46	6514
2026-01-09 13:20:06.17	35.62	14.52	-37.3	-38.3	22.3	0.00e+00	0	23	0	305135616	46	6656
2026-01-09 13:20:07.18	35.74	14.61	-37.2	-38.2	22.4	0.00e+00	0	23	0	307232768	46	6592
2026-01-09 13:20:08.19	35.87	14.69	-37.4	-38.4	22.3	0.00e+00	0	23	0	309329920	46	6744
2026-01-09 13:20:09.20	36.00	14.78	-37.1	-38.2	22.5	0.00e+00	0	23	0	310378496	46	6542
2026-01-09 13:20:10.21	36.13	14.86	-37.0	-38.0	22.6	0.00e+00	0	23	0	312475648	46	6464
2026-01-09 13:20:11.22	36.26	14.95	-37.0	-38.0	22.6	0.00e+00	0	23	0	314572800	46	6446
2026-01-09 13:20:12.23	36.39	15.03	-37.1	-38.1	22.6	0.00e+00	0	23	0	316669952	46	6472
2026-01-09 13:20:13.24	36.52	15.12	-36.9	-37.9	22.8	0.00e+00	0	23	0	318767104	46	6318
2026-01-09 13:20:14.25	36.65	15.20	-36.7	-37.7	22.8	0.00e+00	0	23	0	319815680	46	6207
2026-01-09 13:20:15.25	36.78	15.29	-36.5	-37.5	23.0	0.00e+00	0	23	0	321912832	46	6062
2026-01-09 13:20:16.26	36.91	15.37	-36.5	-37.4	23.2	0.00e+00	0	23	0	324009984	46	6013
2026-01-09 13:20:17.27	37.04	15.46	-36.4	-37.4	23.2	0.00e+00	0	23	0	326107136	46	5984
2026-01-09 13:20:18.28	37.18	15.54	-36.3	-37.2	23.2	0.00e+00	0	24	0	328204288	46	5883
2026-01-09 13:20:19.29	37.31	15.63	-36.4	-37.3	23.1	0.00e+00	0	23	0	330301440	46	5960
2026-01-09 13:20:20.30	37.45	15.72	-36.3	-37.3	23.2	0.00e+00	0	23	0	331350016	46	5910
2026-01-09 13:20:21.31	37.58	15.80	-36.4	-37.3	23.2	0.00e+00	0	23	0	333447168	46	5958
2026-01-09 13:20:22.32	37.72	15.89	-36.3	-37.2	23.3	0.00e+00	0	23	0	335544320	46	5879
2026-01-09 13:20:23.33	37.86	15.98	-36.3	-37.2	23.3	0.00e+00	0	23	0	337641472	46	5850
2026-01-09 13:20:24.33	38.00	16.06	-36.5	-37.5	23.1	0.00e+00	0	23	0	338690048	46	6052
2026-01-09 13:20:25.34	38.14	16.15	-36.2	-37.1	23.2	0.00e+00	0	23	0	340787200	46	5816
2026-01-09 13:20:26.35	38.28	16.24	-36.3	-37.2	23.1	0.00e+00	0	23	0	342884352	46	5852
2026-01-09 13:20:27.36	38.42	16.33	-36.4	-37.3	22.9	0.00e+00	0	23	0	344981504	46	5957
2026-01-09 13:20:28.37	38.56	16.42	-36.5	-37.4	23.1	0.00e+00	0	23	0	347078656	46	6027
2026-01-09 13:20:29.38	38.70	16.50	-36.6	-37.5	22.8	0.00e+00	0	23	0	348127232	46	6085
2026-01-09 13:20:30.39	38.85	16.59	-36.5	-37.5	23.1	0.00e+00	0	23	0	350224384	46	6059
2026-01-09 13:20:31.39	38.99	16.68	-36.6	-37.6	23.0	0.00e+00	0	23	0	352321536	46	6139
2026-01-09 13:20:32.40	39.13	16.77	-36.8	-37.7	23.0	0.00e+00	0	23	0	354418688	46	6240
2026-01-09 13:20:33.41	39.28	16.86	-36.5	-37.4	23.1	0.00e+00	0	23	0	356515840	46	6016
2026-01-09 13:20:34.42	39.43	16.94	-36.4	-37.4	23.2	0.00e+00	0	23	0	358612992	46	5967
2026-01-09 13:20:35.43	39.57	17.03	-36.5	-37.4	23.1	0.00e+00	0	23	0	359661568	46	6000
2026-01-09 13:20:36.44	39.72	17.12	-36.6	-37.5	23.2	0.00e+00	0	23	0	361758720	46	6072
2026-01-09 13:20:37.45	39.87	17.21	-36.4	-37.3	23.3	0.00e+00	0	23	0	363855872	46	5919
2026-01-09 13:20:38.46	40.02	17.30	-36.5	-37.4	23.2	0.00e+00	0	23	0	365953024	46	6015
2026-01-09 13:20:39.47	40.17	17.39	-36.7	-37.6	23.1	0.00e+00	0	23	0	368050176	46	6150
2026-01-09 13:20:40.48	40.32	17.48	-36.4	-37.3	23.2	0.00e+00	0	23	0	369098752	46	5960
2026-01-09 13:20:41.49	40.48	17.57	-36.2	-37.1	23.4	0.00e+00	0	23	0	371195904	46	5811
2026-01-09 13:20:42.49	40.63	17.66	-36.0	-36.9	23.4	0.00e+00	0	23	0	373293056	46	5665
2026-01-09 13:20:43.50	40.78	17.75	-36.2	-37.1	23.4	0.00e+00	0	23	0	375390208	46	5825
2026-01-09 13:20:44.51	40.94	17.84	-36.1	-37.0	23.5	0.00e+00	0	23	0	377487360	46	5729
2026-01-09 13:20:45.52	41.10	17.93	-36.1	-37.0	23.5	0.00e+00	0	23	0	378535936	46	5721
2026-01-09 13:20:46.53	41.25	18.02	-36.1	-37.1	23.5	0.00e+00	0	23	0	380633088	46	5762
2026-01-09 13:20:47.54	41.41	18.11	-35.9	-36.8	23.6	0.00e+00	0	23	0	382730240	46	5627
2026-01-09 13:20:48.55	41.57	18.20	-36.1	-37.0	23.4	0.00e+00	0	23	0	384827392	46	5737
2026-01-09 13:20:49.56	41.73	18.29	-36.0	-36.9	23.5	0.00e+00	0	23	0	386924544	46	5656
2026-01-09 13:20:50.57	41.89	18.38	-35.8	-36.6	23.7	0.00e+00	0	23	0	387973120	46	5496
2026-01-09 13:20:51.58	42.05	18.47	-35.6	-36.5	23.9	0.00e+00	0	23	0	390070272	44	6039
2026-01-09 13:20:52.59	42.21	18.56	-35.5	-36.3	24.0	0.00e+00	0	23	0	392167424	44	5953
2026-01-09 13:20:53.60	42.38	18.66	-35.4	-36.3	24.0	0.00e+00	0	23	0	394264576	44	5924
2026-01-09 13:20:54.61	42.54	18.75	-35.7	-36.6	23.9	0.00e+00	0	24	0	396361728	44	6166
2026-01-09 13:20:55.62	42.71	18.84	-35.5	-36.4	23.9	0.00e+00	0	23	0	397410304	44	5971
2026-01-09 13:20:56.63	42.88	18.93	-35.3	-36.2	24.3	0.00e+00	0	23	0	399507456	44	5832
2026-01-09 13:20:57.63	43.04	19.02	-35.2	-36.1	24.2	0.00e+00	0	23	0	401604608	44	5767
2026-01-09 13:20:58.64	43.21	19.11	-35.2	-36.0	24.2	0.00e+00	0	23	0	403701760	44	5754
2026-01-09 13:20:59.65	43.38	19.20	-35.2	-36.0	24.3	0.00e+00	0	23	0	405798912	44	5728
2026-01-09 13:21:00.67	43.55	19.30	-35.1	-35.9	24.4	0.00e+00	0	24	0	406847488	44	5664
2026-01-09 13:21:01.67	43.72	19.39	-35.1	-36.0	24.2	0.00e+00	0	23	0	408944640	44	5710
2026-01-09 13:21:02.68	43.89	19.48	-35.0	-35.9	24.3	0.00e+00	0	23	0	411041792	44	5639
2026-01-09 13:21:03.69	44.07	19.57	-35.2	-36.1	24.1	0.00e+00	0	23	0	413138944	44	5764
2026-01-09 13:21:04.70	44.24	19.67	-35.3	-36.1	24.1	0.00e+00	0	23	0	415236096	44	5825
2026-01-09 13:21:05.71	44.42	19.76	-35.5	-36.4	24.0	0.00e+00	0	23	0	416284672	44	5995
2026-01-09 13:21:06.72	44.59	19.85	-35.4	-36.2	24.1	0.00e+00	0	24	0	418381824	44	5880
2026-01-09 13:21:07.73	44.77	19.94	-35.2	-36.0	24.2	0.00e+00	0	23	0	420478976	44	5739
2026-01-09 13:21:08.74	44.95	20.04	-35.2	-36.1	24.1	0.00e+00	0	24	0	422576128	44	5779
2026-01-09 13:21:09.75	45.13	20.13	-35.1	-36.0	23.9	0.00e+00	0	23	0	424673280	44	5697
2026-01-09 13:21:10.76	45.31	20.22	-35.1	-35.9	23.2	0.00e+00	0	23	0	426770432	44	5671
2026-01-09 13:21:11.77	45.49	20.32	-34.9	-35.7	24.2	0.00e+00	0	23	0	427819008	44	5540
2026-01-09 13:21:12.78	45.68	20.41	-35.1	-36.0	24.2	0.00e+00	0	23	0	429916160	44	5697
2026-01-09 13:21:13.79	45.86	20.50	-34.9	-35.7	24.4	0.00e+00	0	23	0	432013312	42	6241
2026-01-09 13:21:14.80	46.04	20.59	-35.1	-35.9	24.3	0.00e+00	0	24	0	434110464	42	6361
2026-01-09 13:21:15.80	46.23	20.69	-35.1	-35.9	24.4	0.00e+00	0	23	0	436207616	42	6346
2026-01-09 13:21:16.81	46.42	20.78	-35.0	-35.8	24.3	0.00e+00	0	23	0	437256192	42	6295
2026-01-09 13:21:17.82	46.60	20.87	-35.1	-35.9	24.4	0.00e+00	0	23	0	439353344	42	6368
2026-01-09 13:21:18.83	46.79	20.97	-34.9	-35.7	24.6	0.00e+00	0	23	0	441450496	42	6204
2026-01-09 13:21:19.84	46.99	21.06	-35.1	-35.9	24.2	0.00e+00	0	23	0	443547648	42	6382
2026-01-09 13:21:20.85	47.18	21.15	-35.1	-35.9	24.3	0.00e+00	0	23	0	445644800	42	6363
2026-01-09 13:21:21.86	47.37	21.25	-35.1	-35.9	24.3	0.00e+00	0	23	0	446693376	42	6354
2026-01-09 13:21:22.87	47.56	21.34	-35.2	-36.0	24.3	0.00e+00	0	23	0	448790528	42	6428
2026-01-09 13:21:23.88	47.76	21.43	-35.3	-36.1	24.2	0.00e+00	0	23	0	450887680	42	6536
2026-01-09 13:21:24.89	47.96	21.53	-35.2	-36.0	24.4	0.00e+00	0	23	0	452984832	42	6459
2026-01-09 13:21:25.90	48.15	21.62	-35.3	-36.1	24.2	0.00e+00	0	23	0	455081984	42	6498
2026-01-09 13:21:26.91	48.35	21.71	-35.0	-35.9	24.3	0.00e+00	0	23	0	456130560	42	6337
2026-01-09 13:21:27.92	48.55	21.81	-35.1	-35.9	24.4	0.00e+00	0	23	0	458227712	42	6344
2026-01-09 13:21:28.93	48.75	21.90	-34.9	-35.7	24.6	0.00e+00	0	23	0	460324864	42	6208
2026-01-09 13:21:29.94	48.95	21.99	-34.8	-35.6	24.7	0.00e+00	0	23	0	462422016	42	6112
2026-01-09 13:21:30.95	49.16	22.09	-34.6	-35.4	24.7	0.00e+00	0	23	0	464519168	42	5992
2026-01-09 13:21:31.96	49.36	22.18	-34.8	-35.6	24.6	0.00e+00	0	23	0	465567744	42	6136
2026-01-09 13:21:32.97	49.57	22.27	-34.6	-35.4	24.7	0.00e+00	0	23	0	467664896	42	6008
2026-01-09 13:21:33.97	49.77	22.37	-34.7	-35.5	24.6	0.00e+00	0	23	0	469762048	42	6069
2026-01-09 13:21:34.98	49.98	22.46	-34.9	-35.8	24.4	0.00e+00	0	23	0	471859200	42	6251
2026-01-09 13:21:35.99	50.19	22.55	-34.8	-35.6	24.6	0.00e+00	0	23	0	473956352	42	6137
2026-01-09 13:21:37.00	50.40	22.65	-34.9	-35.7	24.7	0.00e+00	0	23	0	475004928	42	6188
2026-01-09 13:21:38.01	50.61	22.74	-35.1	-35.9	24.4	0.00e+00	0	23	0	477102080	42	6329
2026-01-09 13:21:39.02	50.83	22.83	-34.7	-35.5	24.7	0.00e+00	0	23	0	479199232	42	6064
2026-01-09 13:21:40.03	51.04	22.93	-34.7	-35.5	24.8	0.00e+00	0	23	0	481296384	42	6101
2026-01-09 13:21:41.04	51.26	23.02	-35.1	-35.9	24.4	0.00e+00	0	23	0	483393536	42	6369
2026-01-09 13:21:42.05	51.47	23.11	-34.9	-35.7	24.4	0.00e+00	0	23	0	484442112	42	6205
2026-01-09 13:21:43.06	51.69	23.21	-34.7	-35.5	24.5	0.00e+00	0	23	0	486539264	42	6042
2026-01-09 13:21:44.07	51.91	23.30	-35.0	-35.9	24.3	0.00e+00	0	23	0	488636416	42	6326
2026-01-09 13:21:45.08	52.13	23.39	-34.7	-35.5	24.7	0.00e+00	0	23	0	490733568	42	6092
2026-01-09 13:21:46.09	52.36	23.48	-34.7	-35.5	24.7	0.00e+00	0	23	0	492830720	42	6050
2026-01-09 13:21:47.09	52.58	23.58	-34.7	-35.5	24.8	0.00e+00	0	23	0	494927872	42	6072
2026-01-09 13:21:48.10	52.80	23.67	-34.6	-35.4	24.8	0.00e+00	0	23	0	495976448	42	5979
2026-01-09 13:21:49.11	53.03	23.76	-34.7	-35.5	24.7	0.00e+00	0	23	0	498073600	42	6087
2026-01-09 13:21:50.12	53.25	23.85	-34.7	-35.5	24.6	0.00e+00	0	23	0	500170752	42	6064
2026-01-09 13:21:51.13	53.48	23.95	-34.8	-35.6	24.7	0.00e+00	0	24	0	502267904	42	6151
2026-01-09 13:21:52.14	53.71	24.04	-34.9	-35.7	24.5	0.00e+00	0	23	0	504365056	42	6210
2026-01-09 13:21:53.15	53.94	24.13	-35.0	-35.8	24.5	0.00e+00	0	23	0	505413632	42	6304
2026-01-09 13:21:54.16	54.18	24.22	-35.0	-35.9	24.4	0.00e+00	0	23	0	507510784	42	6322
2026-01-09 13:21:55.17	54.41	24.31	-35.2	-36.0	24.2	0.00e+00	0	23	0	509607936	42	6435
2026-01-09 13:21:56.18	54.65	24.40	-35.2	-36.0	23.9	0.00e+00	0	23	0	511705088	42	6450
2026-01-09 13:21:57.19	54.88	24.49	-35.4	-36.3	23.9	0.00e+00	0	23	0	512753664	42	6640
2026-01-09 13:21:58.19	55.12	24.58	-35.4	-36.2	24.2	0.00e+00	0	23	0	514850816	42	6582
2026-01-09 13:21:59.20	55.36	24.68	-35.2	-36.1	24.3	0.00e+00	0	23	0	516947968	42	6469
2026-01-09 13:22:00.21	55.60	24.77	-35.3	-36.1	24.3	0.00e+00	0	23	0	519045120	42	6527
2026-01-09 13:22:01.22	55.84	24.86	-35.6	-36.5	24.0	0.00e+00	0	23	0	521142272	42	6796
2026-01-09 13:22:02.23	56.08	24.95	-35.6	-36.4	24.0	0.00e+00	0	23	0	523239424	42	6764
2026-01-09 13:22:03.24	56.33	25.04	-36.0	-36.9	23.7	0.00e+00	0	23	0	524288000	44	6320
2026-01-09 13:22:04.25	56.57	25.13	-36.0	-36.9	23.7	0.00e+00	0	23	0	526385152	44	6367
2026-01-09 13:22:05.26	56.82	25.22	-35.9	-36.8	23.8	0.00e+00	0	23	0	528482304	44	6279
2026-01-09 13:22:06.27	57.07	25.30	-35.9	-36.8	23.7	0.00e+00	0	23	0	530579456	44	6307
2026-01-09 13:22:07.28	57.32	25.39	-35.6	-36.5	24.1	0.00e+00	0	23	0	532676608	44	6055
2026-01-09 13:22:08.29	57.57	25.48	-35.6	-36.5	23.9	0.00e+00	0	23	0	533725184	44	6056
2026-01-09 13:22:09.29	57.82	25.57	-35.5	-36.3	23.8	0.00e+00	0	23	0	535822336	44	5959
2026-01-09 13:22:10.30	58.08	25.66	-35.3	-36.2	24.2	0.00e+00	0	23	0	537919488	44	5844
2026-01-09 13:22:11.31	58.33	25.75	-35.5	-36.3	24.1	0.00e+00	0	23	0	540016640	44	5956
2026-01-09 13:22:12.32	58.59	25.83	-34.9	-35.7	24.5	0.00e+00	0	23	0	542113792	44	5553
2026-01-09 13:22:13.33	58.85	25.92	-35.0	-35.8	24.4	0.00e+00	0	23	0	543162368	44	5585
2026-01-09 13:22:14.34	59.11	26.01	-34.7	-35.5	24.5	0.00e+00	0	23	0	545259520	42	6098
2026-01-09 13:22:15.35	59.37	26.09	-34.9	-35.7	24.5	0.00e+00	0	23	0	547356672	42	6200
2026-01-09 13:22:16.36	59.63	26.18	-35.1	-35.9	24.4	0.00e+00	0	23	0	549453824	42	6384
2026-01-09 13:22:17.37	59.90	26.27	-35.3	-36.1	24.3	0.00e+00	0	23	0	551550976	42	6523
2026-01-09 13:22:18.37	60.16	26.35	-35.5	-36.4	24.1	0.00e+00	0	23	0	552599552	42	6723
2026-01-09 13:22:19.38	60.42	26.44	-35.9	-36.8	23.7	0.00e+00	0	23	0	554696704	44	6249
2026-01-09 13:22:20.39	60.69	26.52	-35.9	-36.8	23.6	0.00e+00	0	23	0	556793856	44	6297
2026-01-09 13:22:21.40	60.96	26.60	-36.3	-37.2	23.4	0.00e+00	0	23	0	558891008	44	6593
2026-01-09 13:22:22.41	61.23	26.69	-36.2	-37.1	23.5	0.00e+00	0	23	0	560988160	44	6491
2026-01-09 13:22:23.42	61.51	26.77	-36.1	-37.0	23.5	0.00e+00	0	23	0	562036736	44	6430
2026-01-09 13:22:24.43	61.78	26.85	-35.9	-36.8	23.7	0.00e+00	0	23	0	564133888	44	6292
2026-01-09 13:22:25.44	62.06	26.94	-35.8	-36.7	23.9	0.00e+00	0	23	0	566231040	44	6176
2026-01-09 13:22:26.45	62.33	27.02	-35.5	-36.4	24.1	0.00e+00	0	23	0	568328192	44	5993
2026-01-09 13:22:27.46	62.61	27.10	-35.5	-36.3	24.2	0.00e+00	0	24	0	570425344	44	5950
2026-01-09 13:22:28.47	62.89	27.18	-35.4	-36.2	24.2	0.00e+00	0	23	0	571473920	44	5876
2026-01-09 13:22:29.48	63.17	27.26	-35.7	-36.6	24.0	0.00e+00	0	23	0	573571072	44	6136
2026-01-09 13:22:30.49	63.45	27.34	-35.5	-36.4	24.1	0.00e+00	0	23	0	575668224	44	5987
2026-01-09 13:22:31.49	63.73	27.42	-35.4	-36.3	23.7	0.00e+00	0	24	0	577765376	44	5916
2026-01-09 13:22:32.50	64.02	27.50	-35.4	-36.3	23.9	0.00e+00	0	23	0	579862528	44	5929
2026-01-09 13:22:33.51	64.31	27.58	-35.8	-36.7	23.7	0.00e+00	0	23	0	580911104	44	6201
2026-01-09 13:22:34.52	64.59	27.66	-36.3	-37.3	23.3	0.00e+00	0	23	0	583008256	44	6617
2026-01-09 13:22:35.53	64.88	27.74	-36.7	-37.7	23.1	0.00e+00	0	23	0	585105408	46	6195
2026-01-09 13:22:36.54	65.17	27.81	-37.2	-38.2	22.8	0.00e+00	0	23	0	587202560	46	6548
2026-01-09 13:22:37.55	65.47	27.89	-36.9	-37.8	22.9	0.00e+00	0	23	0	589299712	46	6303
2026-01-09 13:22:38.56	65.76	27.97	-36.4	-37.4	23.6	0.00e+00	0	23	0	591396864	46	5966
2026-01-09 13:22:39.57	66.05	28.04	-35.7	-36.6	24.1	0.00e+00	0	23	0	592445440	46	5461
2026-01-09 13:22:40.58	66.35	28.12	-35.1	-35.9	24.4	0.00e+00	0	24	0	594542592	44	5672
2026-01-09 13:22:41.59	66.65	28.19	-35.2	-36.0	24.3	0.00e+00	0	24	0	596639744	44	5752
2026-01-09 13:22:42.60	66.95	28.26	-35.7	-36.6	23.9	0.00e+00	0	23	0	598736896	44	6152
2026-01-09 13:22:43.60	67.24	28.34	-35.9	-36.8	23.7	0.00e+00	0	23	0	600834048	44	6287
2026-01-09 13:22:44.61	67.55	28.41	-36.2	-37.0	23.5	0.00e+00	0	23	0	601882624	44	6461
2026-01-09 13:22:45.62	67.85	28.48	-36.4	-37.3	23.4	0.00e+00	0	24	0	603979776	44	6658
2026-01-09 13:22:46.63	68.15	28.55	-36.4	-37.3	23.5	0.00e+00	0	23	0	606076928	44	6690
2026-01-09 13:22:47.64	68.46	28.62	-36.1	-37.0	23.5	0.00e+00	0	24	0	608174080	44	6442
2026-01-09 13:22:48.65	68.77	28.69	-36.3	-37.1	23.5	0.00e+00	0	24	0	610271232	44	6539
2026-01-09 13:22:49.66	69.07	28.76	-36.5	-37.4	23.3	0.00e+00	0	23	0	611319808	44	6761
2026-01-09 13:22:50.67	69.38	28.83	-36.5	-37.5	23.3	0.00e+00	0	23	0	613416960	44	6787
2026-01-09 13:22:51.68	69.69	28.90	-36.7	-37.7	22.9	0.00e+00	0	24	0	615514112	46	6200
2026-01-09 13:22:52.69	70.01	28.96	-36.8	-37.7	23.2	0.00e+00	0	23	0	617611264	46	6213
2026-01-09 13:22:53.70	70.32	29.03	-36.6	-37.5	23.2	0.00e+00	0	24	0	619708416	46	6058
2026-01-09 13:22:54.71	70.63	29.09	-37.0	-38.0	22.9	0.00e+00	0	23	0	620756992	46	6422
2026-01-09 13:22:55.72	70.95	29.16	-37.5	-38.5	22.5	0.00e+00	0	23	0	622854144	46	6827
2026-01-09 13:22:56.73	71.27	29.22	-38.1	-39.2	22.0	0.00e+00	0	23	0	624951296	48	6563
2026-01-09 13:22:57.74	71.58	29.29	-38.1	-39.2	21.9	0.00e+00	0	23	0	627048448	48	6589
2026-01-09 13:22:58.75	71.90	29.35	-37.8	-38.8	22.1	0.00e+00	0	23	0	629145600	48	6304
2026-01-09 13:22:59.75	72.22	29.41	-37.8	-38.8	22.3	0.00e+00	0	23	0	630194176	48	6279
2026-01-09 13:23:00.76	72.54	29.47	-37.6	-38.7	22.1	0.00e+00	0	23	0	632291328	48	6174
2026-01-09 13:23:01.77	72.87	29.53	-37.4	-38.4	22.4	0.00e+00	0	23	0	634388480	48	6015
2026-01-09 13:23:02.78	73.19	29.59	-38.0	-39.0	22.1	0.00e+00	0	23	0	636485632	48	6434
2026-01-09 13:23:03.79	73.52	29.65	-38.3	-39.4	21.8	0.00e+00	0	23	0	638582784	48	6720
2026-01-09 13:23:04.80	73.84	29.70	-38.9	-40.1	21.2	0.00e+00	0	23	0	639631360	50	6473
2026-01-09 13:23:05.81	74.17	29.76	-39.2	-40.5	20.9	0.00e+00	0	23	0	641728512	50	6802
2026-01-09 13:23:06.82	74.50	29.81	-38.9	-40.2	21.0	0.00e+00	0	23	0	643825664	50	6564
2026-01-09 13:23:07.83	74.83	29.87	-38.4	-39.5	21.7	0.00e+00	0	23	0	645922816	50	6070
2026-01-09 13:23:08.84	75.16	29.92	-37.6	-38.6	22.3	0.00e+00	0	24	0	648019968	48	6153
2026-01-09 13:23:09.85	75.49	29.97	-37.3	-38.3	22.6	0.00e+00	0	24	0	649068544	48	5897
2026-01-09 13:23:10.86	75.83	30.03	-36.9	-37.8	23.0	0.00e+00	0	23	0	651165696	48	5573
2026-01-09 13:23:11.87	76.16	30.08	-37.4	-38.4	22.4	0.00e+00	0	23	0	653262848	48	6018
2026-01-09 13:23:12.88	76.50	30.13	-38.1	-39.2	21.9	0.00e+00	0	23	0	655360000	48	6573
2026-01-09 13:23:13.89	76.83	30.17	-38.5	-39.6	21.6	0.00e+00	0	24	0	657457152	48	6917
2026-01-09 13:23:14.89	77.17	30.22	-38.4	-39.5	21.7	0.00e+00	0	23	0	659554304	48	6773
2026-01-09 13:23:15.90	77.51	30.27	-37.7	-38.7	22.4	0.00e+00	0	24	0	660602880	48	6188
2026-01-09 13:23:16.91	77.84	30.31	-37.6	-38.6	22.5	0.00e+00	0	24	0	662700032	48	6152
2026-01-09 13:23:17.92	78.18	30.36	-38.1	-39.2	22.0	0.00e+00	0	24	0	664797184	48	6554
2026-01-09 13:23:18.93	78.53	30.40	-38.0	-39.1	21.6	0.00e+00	0	24	0	666894336	48	6474
2026-01-09 13:23:19.94	78.87	30.44	-37.5	-38.5	22.6	0.00e+00	0	24	0	668991488	48	6083
2026-01-09 13:23:20.95	79.21	30.49	-37.0	-38.0	22.8	0.00e+00	0	23	0	670040064	48	5713
2026-01-09 13:23:21.96	79.55	30.53	-36.2	-37.1	23.6	0.00e+00	0	23	0	672137216	46	5799
2026-01-09 13:23:22.97	79.90	30.57	-36.4	-37.3	23.3	0.00e+00	0	23	0	674234368	46	5917
2026-01-09 13:23:23.97	80.24	30.60	-36.7	-37.6	23.2	0.00e+00	0	24	0	676331520	46	6159
2026-01-09 13:23:24.98	80.59	30.64	-37.3	-38.3	22.6	0.00e+00	0	23	0	677380096	46	6655
2026-01-09 13:23:25.99	80.93	30.68	-37.4	-38.5	22.5	0.00e+00	0	23	0	679477248	46	6795
2026-01-09 13:23:27.00	81.28	30.71	-36.7	-37.6	23.1	0.00e+00	0	23	0	681574400	46	6158
2026-01-09 13:23:28.01	81.63	30.75	-36.4	-37.3	23.5	0.00e+00	0	23	0	683671552	46	5909
2026-01-09 13:23:29.02	81.98	30.78	-36.2	-37.1	23.5	0.00e+00	0	23	0	685768704	46	5784
2026-01-09 13:23:30.03	82.33	30.81	-36.1	-37.0	23.6	0.00e+00	0	23	0	687865856	46	5735
2026-01-09 13:23:31.04	82.68	30.84	-36.2	-37.1	23.6	0.00e+00	0	23	0	688914432	46	5800
2026-01-09 13:23:32.05	83.03	30.87	-35.9	-36.8	23.9	0.00e+00	0	23	0	691011584	46	5572
2026-01-09 13:23:33.06	83.38	30.90	-35.1	-36.0	24.4	0.00e+00	0	24	0	693108736	44	5708
2026-01-09 13:23:34.07	83.74	30.93	-35.0	-35.8	24.4	0.00e+00	0	23	0	695205888	44	5598
2026-01-09 13:23:35.08	84.09	30.95	-34.9	-35.7	24.5	0.00e+00	0	23	0	697303040	44	5510
2026-01-09 13:23:36.09	84.44	30.98	-35.4	-36.2	23.9	0.00e+00	0	23	0	698351616	44	5866
2026-01-09 13:23:37.10	84.80	31.00	-35.9	-36.8	23.8	0.00e+00	0	24	0	700448768	44	6255
2026-01-09 13:23:38.11	85.15	31.03	-36.4	-37.3	23.3	0.00e+00	0	23	0	702545920	44	6645
2026-01-09 13:23:39.12	85.51	31.05	-36.9	-37.9	22.9	0.00e+00	0	23	0	704643072	46	6318
2026-01-09 13:23:40.13	85.86	31.07	-37.1	-38.1	22.5	0.00e+00	0	23	0	706740224	46	6524
2026-01-09 13:23:41.14	86.22	31.09	-37.1	-38.1	22.8	0.00e+00	0	23	0	707788800	46	6475
2026-01-09 13:23:42.15	86.58	31.11	-36.9	-37.9	22.8	0.00e+00	0	23	0	709885952	46	6350
2026-01-09 13:23:43.16	86.93	31.12	-37.1	-38.1	22.7	0.00e+00	0	23	0	711983104	46	6504
2026-01-09 13:23:44.16	87.29	31.14	-37.2	-38.2	22.7	0.00e+00	0	23	0	714080256	46	6566
2026-01-09 13:23:45.17	87.64	31.15	-37.4	-38.5	22.5	0.00e+00	0	23	0	716177408	46	6775
2026-01-09 13:23:46.18	88.00	31.17	-37.3	-38.3	22.6	0.00e+00	0	23	0	717225984	46	6656
2026-01-09 13:23:47.19	88.36	31.18	-37.2	-38.2	22.9	0.00e+00	0	23	0	719323136	46	6543
2026-01-09 13:23:48.20	88.72	31.19	-36.4	-37.3	23.5	0.00e+00	0	23	0	721420288	46	5938
2026-01-09 13:23:49.21	89.08	31.20	-36.1	-37.0	23.6	0.00e+00	0	23	0	723517440	46	5718
2026-01-09 13:23:50.22	89.44	31.21	-36.1	-37.0	23.6	0.00e+00	0	23	0	725614592	46	5733
2026-01-09 13:23:51.23	89.80	31.21	-36.4	-37.3	23.4	0.00e+00	0	23	0	726663168	46	5932
2026-01-09 13:23:52.24	90.16	31.22	-36.3	-37.2	23.4	0.00e+00	0	23	0	728760320	46	5849
2026-01-09 13:23:53.25	90.51	31.23	-36.1	-37.0	23.6	0.00e+00	0	23	0	730857472	46	5752
2026-01-09 13:23:54.26	90.87	31.23	-35.8	-36.7	23.9	0.00e+00	0	24	0	732954624	46	5535
2026-01-09 13:23:55.27	91.23	31.23	-35.6	-36.4	23.9	0.00e+00	0	24	0	735051776	44	6027
2026-01-09 13:23:56.28	91.59	31.23	-35.6	-36.4	24.0	0.00e+00	0	24	0	736100352	44	6019
2026-01-09 13:23:57.29	91.95	31.23	-36.3	-37.2	23.5	0.00e+00	0	23	0	738197504	44	6581
2026-01-09 13:23:58.30	92.31	31.23	-37.0	-38.0	22.9	0.00e+00	0	24	0	740294656	46	6416
2026-01-09 13:23:59.31	92.67	31.23	-37.1	-38.1	22.7	0.00e+00	0	24	0	742391808	46	6522
2026-01-09 13:24:00.31	93.03	31.22	-37.2	-38.2	22.6	0.00e+00	0	23	0	744488960	46	6584
2026-01-09 13:24:01.32	93.39	31.22	-37.0	-38.0	22.8	0.00e+00	0	24	0	745537536	46	6419
2026-01-09 13:24:02.33	93.75	31.21	-37.0	-38.0	22.8	0.00e+00	0	24	0	747634688	46	6396
2026-01-09 13:24:03.34	94.11	31.21	-37.3	-38.3	22.6	0.00e+00	0	23	0	749731840	46	6644
2026-01-09 13:24:04.35	94.46	31.20	-37.1	-38.2	22.6	0.00e+00	0	24	0	751828992	46	6555
2026-01-09 13:24:05.36	94.82	31.19	-37.1	-38.1	22.8	0.00e+00	0	24	0	753926144	46	6537
2026-01-09 13:24:06.37	95.18	31.18	-36.5	-37.4	23.3	0.00e+00	0	24	0	756023296	46	6014
2026-01-09 13:24:07.38	95.54	31.16	-36.3	-37.2	23.5	0.00e+00	0	24	0	757071872	46	5873
2026-01-09 13:24:08.39	95.90	31.15	-36.3	-37.2	23.4	0.00e+00	0	23	0	759169024	46	5852
2026-01-09 13:24:09.40	96.26	31.14	-36.5	-37.5	22.8	0.00e+00	0	24	0	761266176	46	6040
2026-01-09 13:24:10.41	96.61	31.12	-36.7	-37.6	23.2	0.00e+00	0	23	0	763363328	46	6170
2026-01-09 13:24:11.42	96.97	31.10	-36.6	-37.6	23.0	0.00e+00	0	23	0	765460480	46	6112
2026-01-09 13:24:12.43	97.33	31.09	-36.5	-37.4	23.3	0.00e+00	0	24	0	766509056	46	6030
2026-01-09 13:24:13.44	97.68	31.07	-36.0	-36.9	23.6	0.00e+00	0	23	0	768606208	46	5664
2026-01-09 13:24:14.45	98.04	31.05	-36.0	-36.9	23.6	0.00e+00	0	23	0	770703360	46	5641
2026-01-09 13:24:15.46	98.40	31.02	-36.2	-37.1	23.5	0.00e+00	0	23	0	772800512	46	5804
2026-01-09 13:24:16.47	98.75	31.00	-36.8	-37.7	23.0	0.00e+00	0	23	0	774897664	46	6220
2026-01-09 13:24:17.48	99.10	30.98	-37.5	-38.5	22.5	0.00e+00	0	24	0	775946240	46	6791
2026-01-09 13:24:18.48	99.46	30.95	-37.8	-38.9	22.1	0.00e+00	0	24	0	778043392	48	6347
2026-01-09 13:24:19.50	99.81	30.93	-38.1	-39.2	21.9	0.00e+00	0	24	0	780140544	48	6590
2026-01-09 13:24:20.50	100.16	30.90	-37.8	-38.9	22.2	0.00e+00	0	23	0	782237696	48	6344
2026-01-09 13:24:21.51	100.51	30.87	-38.0	-39.1	21.9	0.00e+00	0	23	0	784334848	48	6486
2026-01-09 13:24:22.52	100.87	30.84	-37.8	-39.0	22.1	0.00e+00	0	23	0	785383424	48	6392
2026-01-09 13:24:23.53	101.22	30.81	-37.9	-39.0	22.0	0.00e+00	0	23	0	787480576	48	6431
2026-01-09 13:24:24.54	101.57	30.78	-37.2	-38.2	22.7	0.00e+00	0	23	0	789577728	48	5845
2026-01-09 13:24:25.55	101.92	30.74	-37.0	-38.0	22.7	0.00e+00	0	23	0	791674880	48	5735
2026-01-09 13:24:26.56	102.27	30.71	-37.2	-38.2	22.4	0.00e+00	0	24	0	793772032	48	5883
2026-01-09 13:24:27.57	102.61	30.67	-38.3	-39.4	21.6	0.00e+00	0	23	0	794820608	48	6699
2026-01-09 13:24:28.58	102.96	30.64	-39.4	-40.7	20.7	0.00e+00	0	23	0	796917760	50	6955
2026-01-09 13:24:29.59	103.31	30.60	-39.3	-40.6	20.7	0.00e+00	0	23	0	799014912	50	6909
2026-01-09 13:24:30.60	103.65	30.56	-38.6	-39.8	21.3	0.00e+00	0	23	0	801112064	50	6252
2026-01-09 13:24:31.61	104.00	30.52	-38.3	-39.4	21.7	0.00e+00	0	24	0	803209216	50	5975
2026-01-09 13:24:32.61	104.34	30.48	-37.4	-38.4	22.5	0.00e+00	0	23	0	804257792	48	6030
2026-01-09 13:24:33.62	104.68	30.44	-37.4	-38.4	22.5	0.00e+00	0	23	0	806354944	48	5996
2026-01-09 13:24:34.63	105.02	30.40	-37.7	-38.8	22.0	0.00e+00	0	23	0	808452096	48	6260
2026-01-09 13:24:35.64	105.37	30.35	-37.6	-38.6	22.3	0.00e+00	0	24	0	810549248	48	6140
2026-01-09 13:24:36.65	105.71	30.31	-37.1	-38.1	22.8	0.00e+00	0	23	0	812646400	48	5784
2026-01-09 13:24:37.66	106.05	30.26	-36.6	-37.6	23.1	0.00e+00	0	24	0	813694976	46	6128
2026-01-09 13:24:38.67	106.39	30.21	-37.0	-38.0	22.8	0.00e+00	0	23	0	815792128	46	6439
2026-01-09 13:24:39.68	106.72	30.17	-37.9	-39.1	21.9	0.00e+00	0	23	0	817889280	46	7317
2026-01-09 13:24:40.69	107.06	30.12	-38.0	-39.1	21.8	0.00e+00	0	23	0	819986432	48	6524
2026-01-09 13:24:41.70	107.40	30.07	-38.8	-40.0	21.1	0.00e+00	0	23	0	822083584	48	7222
2026-01-09 13:24:42.71	107.73	30.02	-38.7	-39.9	21.2	0.00e+00	0	23	0	824180736	50	6378
2026-01-09 13:24:43.72	108.06	29.96	-38.0	-39.1	22.0	0.00e+00	0	23	0	825229312	50	5779
2026-01-09 13:24:44.73	108.40	29.91	-37.4	-38.4	22.6	0.00e+00	0	23	0	827326464	48	6028
2026-01-09 13:24:45.74	108.73	29.86	-37.2	-38.2	22.6	0.00e+00	0	23	0	829423616	48	5856
2026-01-09 13:24:46.74	109.06	29.80	-37.2	-38.1	22.7	0.00e+00	0	23	0	831520768	48	5828
2026-01-09 13:24:47.75	109.39	29.75	-37.1	-38.1	22.7	0.00e+00	0	24	0	833617920	48	5819
2026-01-09 13:24:48.76	109.71	29.69	-37.1	-38.1	22.8	0.00e+00	0	24	0	834666496	48	5776
2026-01-09 13:24:49.77	110.04	29.64	-36.6	-37.6	23.3	0.00e+00	0	23	0	836763648	46	6123
2026-01-09 13:24:50.78	110.37	29.58	-36.1	-37.0	23.6	0.00e+00	0	23	0	838860800	46	5739
2026-01-09 13:24:51.79	110.69	29.52	-36.3	-37.2	23.5	0.00e+00	0	23	0	840957952	46	5829
2026-01-09 13:24:52.80	111.02	29.46	-36.7	-37.7	22.9	0.00e+00	0	23	0	843055104	46	6187
2026-01-09 13:24:53.81	111.34	29.40	-37.5	-38.5	22.5	0.00e+00	0	23	0	844103680	46	6811
2026-01-09 13:24:54.82	111.66	29.34	-38.0	-39.1	21.9	0.00e+00	0	23	0	846200832	48	6531
2026-01-09 13:24:55.83	111.98	29.27	-38.1	-39.2	21.9	0.00e+00	0	24	0	848297984	48	6564
2026-01-09 13:24:56.84	112.30	29.21	-37.8	-38.9	22.2	0.00e+00	0	24	0	850395136	48	6343
2026-01-09 13:24:57.85	112.62	29.15	-37.5	-38.5	22.5	0.00e+00	0	24	0	852492288	48	6073
2026-01-09 13:24:58.86	112.93	29.08	-37.4	-38.4	22.4	0.00e+00	0	24	0	853540864	48	6029
2026-01-09 13:24:59.87	113.25	29.02	-37.6	-38.6	22.4	0.00e+00	0	24	0	855638016	48	6137
2026-01-09 13:25:00.88	113.56	28.95	-37.8	-38.9	22.1	0.00e+00	0	23	0	857735168	48	6346
2026-01-09 13:25:01.88	113.87	28.88	-37.7	-38.7	22.2	0.00e+00	0	23	0	859832320	48	6244
2026-01-09 13:25:02.89	114.18	28.81	-37.3	-38.3	22.8	0.00e+00	0	24	0	861929472	48	5907
2026-01-09 13:25:03.90	114.49	28.75	-36.3	-37.2	23.5	0.00e+00	0	23	0	862978048	46	5831
2026-01-09 13:25:04.91	114.80	28.68	-35.9	-36.8	23.7	0.00e+00	0	24	0	865075200	46	5599
2026-01-09 13:25:05.92	115.11	28.61	-36.2	-37.1	23.5	0.00e+00	0	24	0	867172352	46	5805
2026-01-09 13:25:06.93	115.42	28.54	-37.3	-38.3	22.6	0.00e+00	0	24	0	869269504	46	6625
2026-01-09 13:25:07.94	115.72	28.46	-38.4	-39.5	21.6	0.00e+00	0	24	0	871366656	48	6817
2026-01-09 13:25:08.95	116.02	28.39	-39.5	-40.8	20.5	0.00e+00	0	24	0	872415232	50	7044
2026-01-09 13:25:09.96	116.33	28.32	-39.9	-41.3	20.1	0.00e+00	0	24	0	874512384	52	6671
2026-01-09 13:25:10.97	116.63	28.25	-39.4	-40.7	20.6	0.00e+00	0	24	0	876609536	52	6175
2026-01-09 13:25:11.98	116.93	28.17	-39.2	-40.4	20.9	0.00e+00	0	24	0	878706688	52	5997
2026-01-09 13:25:12.99	117.22	28.10	-38.2	-39.3	21.8	0.00e+00	0	23	0	880803840	50	5914
2026-01-09 13:25:14.00	117.52	28.02	-38.5	-39.7	21.4	0.00e+00	0	23	0	881852416	50	6207
2026-01-09 13:25:15.01	117.82	27.95	-38.6	-39.8	21.3	0.00e+00	0	24	0	883949568	50	6298
2026-01-09 13:25:16.02	118.11	27.87	-38.6	-39.8	21.5	0.00e+00	0	24	0	886046720	50	6263
2026-01-09 13:25:17.03	118.40	27.79	-38.1	-39.2	22.0	0.00e+00	0	24	0	888143872	50	5832
2026-01-09 13:25:18.04	118.69	27.72	-38.1	-39.2	21.9	0.00e+00	0	24	0	890241024	50	5831
2026-01-09 13:25:19.04	118.98	27.64	-38.3	-39.4	21.8	0.00e+00	0	24	0	892338176	50	5985
2026-01-09 13:25:20.05	119.27	27.56	-38.7	-39.8	21.1	0.00e+00	0	24	0	893386752	50	6298
2026-01-09 13:25:21.06	119.56	27.48	-39.7	-41.1	20.1	0.00e+00	0	24	0	895483904	50	7300
2026-01-09 13:25:22.07	119.84	27.40	-40.1	-41.5	19.8	0.00e+00	0	24	0	897581056	52	6834
2026-01-09 13:25:23.08	120.13	27.32	-39.8	-41.2	20.0	0.00e+00	0	24	0	899678208	52	6590
2026-01-09 13:25:24.09	120.41	27.24	-39.7	-41.1	20.3	0.00e+00	0	24	0	901775360	52	6490
2026-01-09 13:25:25.10	120.69	27.16	-38.8	-40.0	21.2	0.00e+00	0	24	0	902823936	52	5708
2026-01-09 13:25:26.11	120.97	27.08	-38.0	-39.1	21.9	0.00e+00	0	24	0	904921088	50	5791
2026-01-09 13:25:27.12	121.25	26.99	-38.8	-40.0	21.1	0.00e+00	0	23	0	907018240	50	6453
2026-01-09 13:25:28.13	121.53	26.91	-39.4	-40.7	20.6	0.00e+00	0	24	0	909115392	50	6945
2026-01-09 13:25:29.14	121.80	26.83	-39.7	-41.1	20.1	0.00e+00	0	24	0	911212544	52	6479
2026-01-09 13:25:30.15	122.08	26.74	-39.7	-41.0	20.3	0.00e+00	0	24	0	912261120	52	6430
2026-01-09 13:25:31.15	122.35	26.66	-39.2	-40.4	20.8	0.00e+00	0	24	0	914358272	52	6027
2026-01-09 13:25:32.16	122.62	26.58	-39.0	-40.2	21.1	0.00e+00	0	24	0	916455424	52	5896
2026-01-09 13:25:33.17	122.89	26.49	-38.4	-39.5	21.6	0.00e+00	0	24	0	918552576	50	6068
2026-01-09 13:25:34.18	123.16	26.41	-38.8	-40.0	21.1	0.00e+00	0	24	0	920649728	50	6407
2026-01-09 13:25:35.19	123.43	26.32	-39.2	-40.5	20.8	0.00e+00	0	24	0	921698304	50	6803
2026-01-09 13:25:36.20	123.69	26.24	-40.0	-41.4	19.7	0.00e+00	0	24	0	923795456	52	6754
2026-01-09 13:25:37.21	123.96	26.15	-39.9	-41.4	19.8	0.00e+00	0	24	0	925892608	52	6729
2026-01-09 13:25:38.22	124.22	26.06	-39.1	-40.4	20.9	0.00e+00	0	24	0	927989760	52	5971
2026-01-09 13:25:39.23	124.48	25.97	-38.3	-39.6	21.5	0.00e+00	0	24	0	930086912	50	6104
2026-01-09 13:25:40.24	124.74	25.89	-38.1	-39.2	21.9	0.00e+00	0	24	0	931135488	50	5886
2026-01-09 13:25:41.25	125.00	25.80	-38.3	-39.5	21.7	0.00e+00	0	23	0	933232640	50	6034
2026-01-09 13:25:42.26	125.26	25.71	-38.5	-39.8	21.3	0.00e+00	0	24	0	935329792	50	6252
2026-01-09 13:25:43.27	125.52	25.62	-39.3	-40.8	20.6	0.00e+00	0	24	0	937426944	50	7008
2026-01-09 13:25:44.28	125.77	25.53	-39.8	-41.2	20.1	0.00e+00	0	24	0	939524096	52	6600
2026-01-09 13:25:45.29	126.02	25.45	-39.9	-41.3	20.2	0.00e+00	0	24	0	940572672	52	6683
2026-01-09 13:25:46.30	126.28	25.36	-38.7	-39.9	21.3	0.00e+00	0	24	0	942669824	52	5686
2026-01-09 13:25:47.30	126.52	25.27	-38.5	-39.6	21.6	0.00e+00	0	24	0	944766976	50	6169
2026-01-09 13:25:48.31	126.77	25.18	-38.8	-40.0	21.2	0.00e+00	0	24	0	946864128	50	6418
2026-01-09 13:25:49.32	127.02	25.09	-39.3	-40.6	20.6	0.00e+00	0	24	0	948961280	50	6865
2026-01-09 13:25:50.33	127.27	25.00	-39.9	-41.4	19.9	0.00e+00	0	24	0	950009856	52	6699
2026-01-09 13:25:51.34	127.51	24.91	-40.8	-42.5	19.0	0.00e+00	0	24	0	952107008	54	6807
2026-01-09 13:25:52.35	127.76	24.82	-40.5	-42.2	19.2	0.00e+00	0	23	0	954204160	54	6599
2026-01-09 13:25:53.36	128.00	24.73	-40.3	-41.9	19.5	0.00e+00	0	24	0	956301312	54	6386
2026-01-09 13:25:54.37	128.24	24.63	-39.5	-40.9	20.6	0.00e+00	0	24	0	958398464	52	6321
2026-01-09 13:25:55.37	128.48	24.54	-37.9	-39.0	22.0	0.00e+00	0	24	0	959447040	50	5732
2026-01-09 13:25:56.38	128.72	24.45	-37.4	-38.4	22.4	0.00e+00	0	24	0	961544192	48	6023
2026-01-09 13:25:57.39	128.95	24.36	-37.7	-38.8	22.1	0.00e+00	0	24	0	963641344	48	6291
2026-01-09 13:25:58.40	129.19	24.27	-38.4	-39.6	21.6	0.00e+00	0	24	0	965738496	48	6865
2026-01-09 13:25:59.41	129.42	24.18	-39.0	-40.3	20.8	0.00e+00	0	24	0	967835648	50	6659
2026-01-09 13:26:00.42	129.66	24.09	-39.3	-40.7	20.6	0.00e+00	0	24	0	968884224	50	6945
2026-01-09 13:26:01.43	129.89	23.99	-38.3	-39.4	21.7	0.00e+00	0	24	0	970981376	50	6026
2026-01-09 13:26:02.44	130.12	23.90	-37.6	-38.6	22.2	0.00e+00	0	24	0	973078528	48	6173
2026-01-09 13:26:03.45	130.35	23.81	-37.2	-38.2	22.6	0.00e+00	0	24	0	975175680	48	5879
2026-01-09 13:26:04.45	130.57	23.72	-36.7	-37.7	23.1	0.00e+00	0	24	0	977272832	46	6213
2026-01-09 13:26:05.47	130.80	23.62	-37.3	-38.3	22.5	0.00e+00	0	24	0	978321408	46	6672
2026-01-09 13:26:06.48	131.03	23.53	-37.9	-39.0	21.9	0.00e+00	0	24	0	980418560	48	6441
2026-01-09 13:26:07.49	131.25	23.44	-38.5	-39.6	21.5	0.00e+00	0	24	0	982515712	48	6919
2026-01-09 13:26:08.50	131.47	23.34	-38.1	-39.2	21.8	0.00e+00	0	24	0	984612864	48	6557
2026-01-09 13:26:09.51	131.69	23.25	-37.5	-38.5	22.5	0.00e+00	0	24	0	986710016	48	6096
2026-01-09 13:26:10.52	131.91	23.16	-37.3	-38.4	22.5	0.00e+00	0	24	0	988807168	48	5966
2026-01-09 13:26:11.52	132.13	23.06	-37.1	-38.1	22.7	0.00e+00	0	24	0	989855744	48	5810
2026-01-09 13:26:12.53	132.35	22.97	-37.5	-38.5	22.3	0.00e+00	0	23	0	991952896	48	6096
2026-01-09 13:26:13.54	132.56	22.88	-38.0	-39.1	21.8	0.00e+00	0	23	0	994050048	48	6512
2026-01-09 13:26:14.55	132.78	22.78	-38.5	-39.7	21.3	0.00e+00	0	23	0	996147200	48	6961
2026-01-09 13:26:15.56	132.99	22.69	-38.9	-40.2	21.0	0.00e+00	0	24	0	998244352	50	6606
2026-01-09 13:26:16.57	133.20	22.59	-38.7	-39.9	21.2	0.00e+00	0	23	0	999292928	50	6353
2026-01-09 13:26:17.58	133.42	22.50	-38.4	-39.6	21.4	0.00e+00	0	24	0	1001390080	50	6172
2026-01-09 13:26:18.59	133.63	22.41	-37.9	-39.0	22.2	0.00e+00	0	23	0	1003487232	50	5725
2026-01-09 13:26:19.60	133.83	22.31	-37.4	-38.4	22.4	0.00e+00	0	23	0	1005584384	48	6000
2026-01-09 13:26:20.61	134.04	22.22	-37.6	-38.6	22.2	0.00e+00	0	24	0	1007681536	48	6158
2026-01-09 13:26:21.62	134.25	22.12	-37.4	-38.5	22.4	0.00e+00	0	24	0	1008730112	48	6036
2026-01-09 13:26:22.63	134.45	22.03	-37.7	-38.8	22.0	0.00e+00	0	24	0	1010827264	48	6277
2026-01-09 13:26:23.64	134.66	21.94	-38.0	-39.0	21.9	0.00e+00	0	24	0	1012924416	48	6454
2026-01-09 13:26:24.65	134.86	21.84	-38.1	-39.2	21.7	0.00e+00	0	24	0	1015021568	48	6569
2026-01-09 13:26:25.66	135.06	21.75	-37.8	-38.8	22.1	0.00e+00	0	24	0	1017118720	48	6311
2026-01-09 13:26:26.67	135.26	21.65	-37.2	-38.2	22.5	0.00e+00	0	24	0	1018167296	48	5868
2026-01-09 13:26:27.68	135.46	21.56	-37.0	-37.9	22.8	0.00e+00	0	23	0	1020264448	48	5691
2026-01-09 13:26:28.68	135.66	21.47	-36.7	-37.7	23.0	0.00e+00	0	23	0	1022361600	46	6197
2026-01-09 13:26:29.69	135.85	21.37	-36.7	-37.7	22.9	0.00e+00	0	24	0	1024458752	46	6201
2026-01-09 13:26:30.70	136.05	21.28	-37.0	-38.0	22.8	0.00e+00	0	23	0	1026555904	46	6400
2026-01-09 13:26:31.71	136.24	21.18	-37.3	-38.4	22.5	0.00e+00	0	24	0	1027604480	46	6697
2026-01-09 13:26:32.72	136.44	21.09	-37.6	-38.7	22.4	0.00e+00	0	24	0	1029701632	46	6934
2026-01-09 13:26:33.73	136.63	21.00	-37.2	-38.2	22.6	0.00e+00	0	24	0	1031798784	46	6613
2026-01-09 13:26:34.74	136.82	20.90	-36.8	-37.8	23.0	0.00e+00	0	24	0	1033895936	46	6271
2026-01-09 13:26:35.75	137.01	20.81	-36.7	-37.7	23.1	0.00e+00	0	24	0	1035993088	46	6184
2026-01-09 13:26:36.76	137.20	20.71	-35.9	-36.8	23.7	0.00e+00	0	24	0	1037041664	46	5589
2026-01-09 13:26:37.77	137.38	20.62	-35.4	-36.2	24.1	0.00e+00	0	24	0	1039138816	44	5890
2026-01-09 13:26:38.78	137.57	20.53	-35.6	-36.4	23.9	0.00e+00	0	24	0	1041235968	44	6032
2026-01-09 13:26:39.79	137.76	20.43	-35.6	-36.5	23.9	0.00e+00	0	24	0	1043333120	44	6057
2026-01-09 13:26:40.80	137.94	20.34	-36.0	-36.9	23.5	0.00e+00	0	24	0	1045430272	44	6387
2026-01-09 13:26:41.80	138.12	20.25	-36.3	-37.2	23.2	0.00e+00	0	24	0	1046478848	44	6602
2026-01-09 13:26:42.81	138.30	20.15	-36.6	-37.6	23.0	0.00e+00	0	24	0	1048576000	44	6881
2026-01-09 13:26:43.82	138.49	20.06	-36.9	-37.9	22.8	0.00e+00	0	24	0	1050673152	46	6343
2026-01-09 13:26:44.83	138.67	19.97	-37.1	-38.1	22.7	0.00e+00	0	24	0	1052770304	46	6488
2026-01-09 13:26:45.84	138.84	19.87	-36.7	-37.7	23.0	0.00e+00	0	24	0	1054867456	46	6181
2026-01-09 13:26:46.85	139.02	19.78	-36.7	-37.7	23.1	0.00e+00	0	24	0	1056964608	46	6193
2026-01-09 13:26:47.86	139.20	19.69	-36.8	-37.8	23.0	0.00e+00	0	24	0	1058013184	46	6255
2026-01-09 13:26:48.87	139.37	19.59	-36.5	-37.5	23.2	0.00e+00	0	24	0	1060110336	46	6068
2026-01-09 13:26:49.88	139.55	19.50	-36.4	-37.4	23.2	0.00e+00	0	24	0	1062207488	46	5984
2026-01-09 13:26:50.89	139.72	19.41	-36.5	-37.4	23.2	0.00e+00	0	24	0	1064304640	46	5988
2026-01-09 13:26:51.90	139.90	19.31	-36.2	-37.1	23.5	0.00e+00	0	24	0	1066401792	46	5800
2026-01-09 13:26:52.91	140.07	19.22	-36.3	-37.2	23.3	0.00e+00	0	24	0	1067450368	46	5847
2026-01-09 13:26:53.92	140.24	19.13	-36.4	-37.3	23.3	0.00e+00	0	24	0	1069547520	46	5929
2026-01-09 13:26:54.93	140.41	19.04	-36.3	-37.2	23.4	0.00e+00	0	24	0	1071644672	46	5851
2026-01-09 13:26:55.94	140.58	18.94	-36.0	-36.9	23.6	0.00e+00	0	24	0	1073741824	46	5655
2026-01-09 13:26:56.94	140.74	18.85	-35.9	-36.8	23.7	0.00e+00	0	24	0	1075838976	46	5588
2026-01-09 13:26:57.96	140.91	18.76	-35.9	-36.8	23.6	0.00e+00	0	24	0	1076887552	46	5588
2026-01-09 13:26:58.97	141.08	18.67	-35.6	-36.4	23.7	0.00e+00	0	24	0	1078984704	44	6023
2026-01-09 13:26:59.97	141.24	18.58	-35.6	-36.5	23.8	0.00e+00	0	24	0	1081081856	44	6047
2026-01-09 13:27:00.98	141.40	18.48	-35.4	-36.3	23.8	0.00e+00	0	24	0	1083179008	44	5920
2026-01-09 13:27:01.99	141.57	18.39	-35.3	-36.1	24.0	0.00e+00	0	24	0	1085276160	44	5822
2026-01-09 13:27:03.00	141.73	18.30	-35.3	-36.2	24.1	0.00e+00	0	24	0	1086324736	44	5840
2026-01-09 13:27:04.01	141.89	18.21	-35.2	-36.1	23.8	0.00e+00	0	24	0	1088421888	44	5767
2026-01-09 13:27:05.02	142.05	18.12	-35.6	-36.5	23.7	0.00e+00	0	24	0	1090519040	44	6046
2026-01-09 13:27:06.03	142.21	18.03	-36.0	-36.9	23.2	0.00e+00	0	23	0	1092616192	44	6351
2026-01-09 13:27:07.04	142.37	17.94	-36.0	-36.9	23.5	0.00e+00	0	23	0	1094713344	44	6334
2026-01-09 13:27:08.05	142.52	17.85	-35.8	-36.7	23.6	0.00e+00	0	23	0	1095761920	44	6197
2026-01-09 13:27:09.05	142.68	17.76	-35.8	-36.7	23.6	0.00e+00	0	23	0	1097859072	44	6183
2026-01-09 13:27:10.06	142.83	17.66	-35.6	-36.5	23.8	0.00e+00	0	24	0	1099956224	44	6069
2026-01-09 13:27:11.07	142.99	17.57	-35.3	-36.2	24.0	0.00e+00	0	23	0	1102053376	44	5849
2026-01-09 13:27:12.08	143.14	17.48	-34.9	-35.7	24.5	0.00e+00	0	24	0	1104150528	44	5544
2026-01-09 13:27:13.09	143.29	17.39	-34.7	-35.5	24.6	0.00e+00	0	24	0	1105199104	42	6069
2026-01-09 13:27:14.10	143.45	17.30	-34.7	-35.5	24.4	0.00e+00	0	24	0	1107296256	42	6077
2026-01-09 13:27:15.11	143.60	17.21	-34.6	-35.4	24.6	0.00e+00	0	24	0	1109393408	42	5970
2026-01-09 13:27:16.12	143.75	17.12	-34.7	-35.5	24.5	0.00e+00	0	24	0	1111490560	42	6063
2026-01-09 13:27:17.13	143.90	17.03	-35.1	-36.0	24.2	0.00e+00	0	24	0	1113587712	42	6393
2026-01-09 13:27:18.14	144.04	16.94	-35.5	-36.3	24.0	0.00e+00	0	24	0	1114636288	42	6681
2026-01-09 13:27:19.15	144.19	16.85	-35.7	-36.6	23.7	0.00e+00	0	24	0	1116733440	42	6916
2026-01-09 13:27:20.16	144.34	16.77	-36.0	-37.0	23.4	0.00e+00	0	24	0	1118830592	44	6423
2026-01-09 13:27:21.17	144.48	16.68	-36.3	-37.2	23.2	0.00e+00	0	23	0	1120927744	44	6608
2026-01-09 13:27:22.18	144.63	16.59	-36.4	-37.4	23.2	0.00e+00	0	24	0	1123024896	44	6716
2026-01-09 13:27:23.19	144.77	16.50	-36.3	-37.2	23.2	0.00e+00	0	24	0	1124073472	44	6607
2026-01-09 13:27:24.20	144.92	16.41	-36.3	-37.2	23.3	0.00e+00	0	24	0	1126170624	44	6615
2026-01-09 13:27:25.21	145.06	16.32	-36.2	-37.2	23.4	0.00e+00	0	24	0	1128267776	44	6549
2026-01-09 13:27:26.22	145.20	16.23	-36.2	-37.1	23.3	0.00e+00	0	24	0	1130364928	44	6512
2026-01-09 13:27:27.22	145.34	16.15	-36.0	-36.9	23.4	0.00e+00	0	24	0	1132462080	44	6363
2026-01-09 13:27:28.24	145.48	16.06	-36.1	-37.0	23.4	0.00e+00	0	24	0	1133510656	44	6415
2026-01-09 13:27:29.24	145.62	15.97	-36.2	-37.2	23.2	0.00e+00	0	24	0	1135607808	44	6540
2026-01-09 13:27:30.25	145.76	15.88	-36.1	-37.0	23.3	0.00e+00	0	24	0	1137704960	44	6458
2026-01-09 13:27:31.26	145.90	15.79	-36.3	-37.2	23.2	0.00e+00	0	24	0	1139802112	44	6607
2026-01-09 13:27:32.28	146.03	15.71	-36.5	-37.5	23.0	0.00e+00	0	24	0	1141899264	44	6791
2026-01-09 13:27:33.28	146.17	15.62	-36.8	-37.7	22.9	0.00e+00	0	24	0	1142947840	46	6222
2026-01-09 13:27:34.29	146.31	15.53	-36.9	-37.9	22.7	0.00e+00	0	24	0	1145044992	46	6376
2026-01-09 13:27:35.30	146.44	15.45	-37.0	-38.0	22.7	0.00e+00	0	24	0	1147142144	46	6393
2026-01-09 13:27:36.31	146.57	15.36	-37.2	-38.2	22.5	0.00e+00	0	24	0	1149239296	46	6603
2026-01-09 13:27:37.32	146.71	15.27	-37.1	-38.1	22.5	0.00e+00	0	24	0	1151336448	46	6475
2026-01-09 13:27:38.33	146.84	15.19	-37.1	-38.1	22.5	0.00e+00	0	24	0	1153433600	46	6513
2026-01-09 13:27:39.33	146.97	15.10	-37.2	-38.3	22.4	0.00e+00	0	23	0	1154482176	46	6624
2026-01-09 13:27:40.34	147.10	15.01	-37.1	-38.1	22.5	0.00e+00	0	24	0	1156579328	46	6506
2026-01-09 13:27:41.35	147.23	14.93	-37.2	-38.2	22.5	0.00e+00	0	23	0	1158676480	46	6579
2026-01-09 13:27:42.36	147.36	14.84	-37.1	-38.1	22.7	0.00e+00	0	24	0	1160773632	46	6515
2026-01-09 13:27:43.36	147.49	14.76	-37.0	-38.0	22.7	0.00e+00	0	24	0	1162870784	46	6420
2026-01-09 13:27:44.37	147.62	14.67	-37.0	-38.0	22.5	0.00e+00	0	24	0	1163919360	46	6450
2026-01-09 13:27:45.38	147.74	14.59	-37.0	-38.0	22.6	0.00e+00	0	24	0	1166016512	46	6449
2026-01-09 13:27:46.39	147.87	14.50	-37.1	-38.1	22.5	0.00e+00	0	24	0	1168113664	46	6518
2026-01-09 13:27:47.40	148.00	14.42	-37.0	-38.0	22.5	0.00e+00	0	24	0	1170210816	46	6464
2026-01-09 13:27:48.41	148.12	14.33	-36.8	-37.8	22.7	0.00e+00	0	24	0	1172307968	46	6280
2026-01-09 13:27:49.42	148.25	14.25	-37.0	-38.0	22.5	0.00e+00	0	24	0	1173356544	46	6419
2026-01-09 13:27:50.43	148.37	14.16	-37.0	-37.9	22.7	0.00e+00	0	24	0	1175453696	46	6383
2026-01-09 13:27:51.44	148.49	14.08	-37.0	-38.0	22.7	0.00e+00	0	24	0	1177550848	46	6426
2026-01-09 13:27:52.44	148.62	14.00	-37.1	-38.2	22.5	0.00e+00	0	24	0	1179648000	46	6550
2026-01-09 13:27:53.45	148.74	13.91	-36.7	-37.7	22.8	0.00e+00	0	24	0	1181745152	46	6192
2026-01-09 13:27:54.46	148.86	13.83	-36.8	-37.8	22.8	0.00e+00	0	24	0	1182793728	46	6271
2026-01-09 13:27:55.47	148.98	13.74	-36.6	-37.6	22.9	0.00e+00	0	23	0	1184890880	46	6123
2026-01-09 13:27:56.48	149.10	13.66	-36.4	-37.3	23.1	0.00e+00	0	24	0	1186988032	46	5956
2026-01-09 13:27:57.49	149.22	13.58	-36.4	-37.3	23.1	0.00e+00	0	24	0	1189085184	46	5941
2026-01-09 13:27:58.50	149.34	13.49	-36.2	-37.1	23.3	0.00e+00	0	24	0	1191182336	46	5791
2026-01-09 13:27:59.51	149.46	13.41	-35.7	-36.6	23.7	0.00e+00	0	24	0	1192230912	46	5462
2026-01-09 13:28:00.52	149.57	13.33	-35.9	-36.7	23.5	0.00e+00	0	24	0	1194328064	44	6240
2026-01-09 13:28:01.53	149.69	13.25	-35.7	-36.5	23.7	0.00e+00	0	23	0	1196425216	44	6078
2026-01-09 13:28:02.54	149.81	13.16	-35.9	-36.8	23.5	0.00e+00	0	24	0	1198522368	44	6292
2026-01-09 13:28:03.55	149.92	13.08	-36.0	-36.9	23.5	0.00e+00	0	24	0	1200619520	44	6379
2026-01-09 13:28:04.56	150.04	13.00	-36.0	-36.9	23.4	0.00e+00	0	24	0	1201668096	44	6332
2026-01-09 13:28:05.57	150.15	12.92	-36.3	-37.3	23.2	0.00e+00	0	24	0	1203765248	44	6617
2026-01-09 13:28:06.58	150.26	12.84	-36.4	-37.4	22.9	0.00e+00	0	24	0	1205862400	44	6709
2026-01-09 13:28:07.58	150.38	12.76	-36.4	-37.3	22.8	0.00e+00	0	24	0	1207959552	44	6687
2026-01-09 13:28:08.59	150.49	12.68	-37.0	-38.0	22.5	0.00e+00	0	24	0	1210056704	46	6440
2026-01-09 13:28:09.60	150.60	12.59	-36.9	-37.9	22.7	0.00e+00	0	24	0	1211105280	46	6331
2026-01-09 13:28:10.61	150.71	12.51	-37.2	-38.2	22.4	0.00e+00	0	24	0	1213202432	46	6572
2026-01-09 13:28:11.62	150.82	12.43	-37.4	-38.4	22.2	0.00e+00	0	24	0	1215299584	46	6735
2026-01-09 13:28:12.63	150.93	12.35	-37.3	-38.3	22.3	0.00e+00	0	24	0	1217396736	46	6658
