passes_logs/2026/01/09/R4.6S_Anadyr/R4.6S_Anadyr__20260109_201554_NOAA_20_JPSS-1_rec.log

#Pass ID: 20260109_201554_NOAA 20 (JPSS-1)
#Satellite: NOAA 20 (JPSS-1)
#Configuration: NOAA 20
#almurnet v.1.7.20251203
#Start time: 2026-01-09 20:15:56

#Version: 2.2.20231116
#Station: R4.6S_Anadyr
#Location: 177.4865 lon 64.73178 lat
#TLE: 1 43013U 17073A   26008.91585656  .00000107  00000+0  71497-4 0  9999
#TLE: 2 43013  98.7631 309.9196 0001713  47.9261 312.2060 14.19534561421870

#Time	Az	El	Level	Level2	SNR	BER	BlckErr	Temp	State	Recorded	gain1	gain2
2026-01-09 20:15:56.06	66.86	0.08	-47.9	-62.8	3.5	1.51e+00	0	23	0	0	60	49907
2026-01-09 20:15:57.07	66.78	0.13	-47.8	-63.1	3.6	1.51e+00	0	23	104	0	60	51356
2026-01-09 20:15:58.08	66.71	0.18	-47.8	-63.0	3.6	1.51e+00	0	24	104	0	60	51284
2026-01-09 20:15:59.09	66.63	0.23	-47.8	-63.1	3.6	1.51e+00	0	24	104	0	60	51364
2026-01-09 20:16:00.10	66.56	0.28	-47.9	-63.0	3.6	1.51e+00	0	24	104	0	60	51089
2026-01-09 20:16:01.11	66.48	0.33	-47.7	-63.1	3.6	1.51e+00	0	24	104	0	60	51596
2026-01-09 20:16:02.12	66.41	0.38	-47.8	-63.1	3.6	1.51e+00	0	24	104	0	60	51674
2026-01-09 20:16:03.13	66.33	0.43	-47.9	-63.1	3.6	1.51e+00	0	24	104	0	60	51657
2026-01-09 20:16:04.14	66.26	0.48	-47.9	-63.0	3.6	1.51e+00	0	24	104	0	60	51338
2026-01-09 20:16:05.15	66.18	0.53	-47.8	-63.1	3.6	1.51e+00	0	24	104	0	60	51418
2026-01-09 20:16:06.16	66.10	0.58	-47.9	-63.0	3.6	1.51e+00	0	24	104	0	60	51311
2026-01-09 20:16:07.16	66.03	0.63	-47.8	-63.0	3.6	1.51e+00	0	24	104	0	60	51088
2026-01-09 20:16:08.18	65.95	0.68	-47.8	-63.0	3.6	1.51e+00	0	24	104	0	60	51327
2026-01-09 20:16:09.19	65.87	0.73	-47.7	-62.9	3.6	1.51e+00	0	24	104	0	60	50354
2026-01-09 20:16:10.19	65.79	0.78	-46.9	-62.7	3.6	1.51e+00	0	24	104	0	60	49605
2026-01-09 20:16:11.20	65.72	0.83	-47.5	-62.7	3.6	1.51e+00	0	24	104	0	60	49189
2026-01-09 20:16:12.21	65.64	0.88	-47.2	-62.4	3.6	1.51e+00	0	24	104	0	60	47786
2026-01-09 20:16:13.22	65.56	0.93	-46.8	-61.9	3.6	1.51e+00	0	24	104	0	60	45067
2026-01-09 20:16:14.23	65.48	0.98	-46.3	-61.4	3.6	1.51e+00	0	24	104	0	60	42433
2026-01-09 20:16:15.25	65.40	1.03	-46.2	-61.4	3.6	1.51e+00	0	24	104	0	60	42488
2026-01-09 20:16:16.26	65.32	1.08	-46.2	-61.4	3.6	1.51e+00	0	24	104	0	60	42431
2026-01-09 20:16:17.27	65.24	1.13	-46.2	-61.4	3.6	1.51e+00	0	24	104	0	60	42251
2026-01-09 20:16:18.28	65.16	1.18	-46.2	-61.4	3.6	1.51e+00	0	24	104	0	60	42447
2026-01-09 20:16:19.29	65.08	1.23	-46.2	-61.4	3.6	1.51e+00	0	24	104	0	60	42354
2026-01-09 20:16:20.30	65.00	1.28	-46.2	-61.4	3.6	1.51e+00	0	24	104	0	60	42231
2026-01-09 20:16:21.31	64.92	1.34	-46.2	-61.4	3.6	1.51e+00	0	24	104	0	60	42356
2026-01-09 20:16:22.32	64.84	1.39	-46.2	-61.4	3.6	1.51e+00	0	24	104	0	60	42283
2026-01-09 20:16:23.32	64.76	1.44	-46.2	-61.4	3.6	1.51e+00	0	24	104	0	60	42262
2026-01-09 20:16:24.34	64.68	1.49	-46.2	-61.4	3.6	1.51e+00	0	24	104	0	60	42474
2026-01-09 20:16:25.35	64.60	1.54	-46.2	-61.3	3.6	1.51e+00	0	24	104	0	60	41990
2026-01-09 20:16:26.35	64.52	1.59	-46.2	-61.4	3.6	1.51e+00	0	24	104	0	60	42231
2026-01-09 20:16:27.36	64.43	1.64	-46.2	-61.4	3.6	1.51e+00	0	24	104	0	60	42270
2026-01-09 20:16:28.37	64.35	1.69	-46.3	-61.4	3.6	1.51e+00	0	24	104	0	60	42250
2026-01-09 20:16:29.38	64.27	1.74	-46.2	-61.4	3.6	1.51e+00	0	24	104	0	60	42421
2026-01-09 20:16:30.39	64.18	1.79	-46.2	-61.4	3.6	1.51e+00	0	24	104	0	60	42287
2026-01-09 20:16:31.40	64.10	1.84	-46.2	-61.4	3.6	1.51e+00	0	24	104	0	60	42272
2026-01-09 20:16:32.41	64.02	1.89	-46.2	-61.4	3.6	1.51e+00	0	24	104	0	60	42275
2026-01-09 20:16:33.42	63.93	1.94	-46.2	-61.2	3.6	1.51e+00	0	24	104	0	60	41718
2026-01-09 20:16:34.43	63.85	2.00	-46.2	-61.3	3.6	1.51e+00	0	24	104	0	60	41977
2026-01-09 20:16:35.44	63.76	2.05	-46.2	-61.2	3.6	1.51e+00	0	24	104	0	60	41298
2026-01-09 20:16:36.45	63.68	2.10	-46.2	-61.0	3.6	1.51e+00	0	24	104	0	60	40765
2026-01-09 20:16:37.46	63.59	2.15	-46.2	-61.0	3.6	1.51e+00	0	24	104	0	60	40714
2026-01-09 20:16:38.47	63.51	2.20	-46.2	-61.1	3.6	1.51e+00	0	24	104	0	60	41238
2026-01-09 20:16:39.48	63.42	2.25	-46.2	-61.3	3.6	1.51e+00	0	24	104	0	60	41784
2026-01-09 20:16:40.49	63.34	2.30	-46.2	-61.4	3.6	1.51e+00	0	24	104	0	60	42411
2026-01-09 20:16:41.50	63.25	2.35	-46.2	-61.4	3.6	1.51e+00	0	24	104	0	60	42305
2026-01-09 20:16:42.51	63.16	2.41	-46.2	-61.3	3.6	1.51e+00	0	24	104	0	60	41961
2026-01-09 20:16:43.52	63.07	2.46	-46.2	-61.2	3.6	1.51e+00	0	24	104	0	60	41691
2026-01-09 20:16:44.53	62.99	2.51	-46.2	-61.4	3.6	1.51e+00	0	25	104	0	60	42240
2026-01-09 20:16:45.54	62.90	2.56	-46.2	-61.3	3.6	1.51e+00	0	24	104	0	60	41857
2026-01-09 20:16:46.55	62.81	2.61	-46.2	-60.9	3.6	1.51e+00	0	24	104	0	60	40030
2026-01-09 20:16:47.56	62.72	2.66	-46.1	-60.5	3.6	1.51e+00	0	24	104	0	60	38405
2026-01-09 20:16:48.57	62.63	2.71	-46.2	-60.5	3.6	1.51e+00	0	25	104	0	60	38439
2026-01-09 20:16:49.58	62.54	2.77	-46.2	-61.1	3.6	1.51e+00	0	24	104	0	60	40957
2026-01-09 20:16:50.59	62.46	2.82	-46.2	-60.6	3.6	1.51e+00	0	24	104	0	60	38847
2026-01-09 20:16:51.60	62.37	2.87	-45.9	-57.4	4.2	1.50e+00	0	24	104	0	60	26766
2026-01-09 20:16:52.61	62.28	2.92	-45.5	-52.7	6.6	3.95e-01	0	25	0	1048576	60	15647
2026-01-09 20:16:53.62	62.19	2.97	-44.8	-50.2	9.5	5.13e-02	0	24	0	3145728	60	11749
2026-01-09 20:16:54.63	62.09	3.02	-44.1	-48.4	11.9	4.20e-03	0	25	0	5242880	60	9456
2026-01-09 20:16:55.64	62.00	3.08	-44.3	-48.8	10.4	5.72e-05	0	25	0	6291456	60	9920
2026-01-09 20:16:56.65	61.91	3.13	-45.9	-54.8	4.5	3.21e-01	0	25	0	8388608	60	19890
2026-01-09 20:16:57.65	61.82	3.18	-43.5	-47.0	13.2	1.20e+00	0	24	104	8388608	60	8097
2026-01-09 20:16:58.66	61.73	3.23	-41.2	-43.2	17.3	8.31e-05	0	25	0	9437184	56	6554
2026-01-09 20:16:59.67	61.64	3.28	-45.3	-52.7	5.2	0.00e+00	0	24	0	11534336	58	17602
2026-01-09 20:17:00.68	61.54	3.33	-44.2	-48.8	5.8	1.51e+00	17	25	104	11534336	60	9931
2026-01-09 20:17:01.69	61.45	3.39	-41.6	-43.7	17.0	2.84e-02	0	24	0	11534336	56	6983
2026-01-09 20:17:02.70	61.36	3.44	-41.1	-43.0	17.5	0.00e+00	0	25	0	12582912	56	6411
2026-01-09 20:17:03.70	61.26	3.49	-41.3	-43.3	17.3	0.00e+00	0	25	0	14680064	56	6622
2026-01-09 20:17:04.71	61.17	3.54	-41.3	-43.3	17.3	0.00e+00	0	25	0	16777216	56	6665
2026-01-09 20:17:05.72	61.08	3.59	-41.2	-43.1	17.6	0.00e+00	0	25	0	18874368	56	6501
2026-01-09 20:17:06.73	60.98	3.64	-41.3	-43.2	17.4	0.00e+00	0	25	0	20971520	56	6614
2026-01-09 20:17:07.74	60.89	3.70	-41.4	-43.4	17.2	0.00e+00	0	24	0	22020096	56	6700
2026-01-09 20:17:08.75	60.79	3.75	-41.6	-43.6	17.1	0.00e+00	0	24	0	24117248	56	6907
2026-01-09 20:17:09.76	60.69	3.80	-41.6	-43.6	17.1	0.00e+00	0	25	0	26214400	56	6913
2026-01-09 20:17:10.76	60.60	3.85	-41.4	-43.4	17.2	0.00e+00	0	25	0	28311552	56	6710
2026-01-09 20:17:11.77	60.50	3.90	-41.4	-43.5	17.1	0.00e+00	0	25	0	30408704	56	6792
2026-01-09 20:17:12.77	60.41	3.96	-41.6	-43.7	17.0	0.00e+00	0	24	0	31457280	56	6930
2026-01-09 20:17:13.78	60.31	4.01	-41.1	-43.0	17.6	0.00e+00	0	25	0	33554432	56	6464
2026-01-09 20:17:14.79	60.21	4.06	-41.2	-43.2	17.5	0.00e+00	0	25	0	35651584	56	6554
2026-01-09 20:17:15.80	60.11	4.11	-41.2	-43.2	17.5	0.00e+00	0	25	0	37748736	56	6567
2026-01-09 20:17:16.80	60.02	4.16	-41.3	-43.2	17.4	0.00e+00	0	25	0	39845888	56	6579
2026-01-09 20:17:17.81	59.92	4.22	-41.1	-42.9	17.8	0.00e+00	0	25	0	40894464	56	6374
2026-01-09 20:17:18.82	59.82	4.27	-40.9	-42.7	18.0	0.00e+00	0	25	0	42991616	56	6225
2026-01-09 20:17:19.83	59.72	4.32	-40.9	-42.7	17.9	0.00e+00	0	25	0	45088768	56	6242
2026-01-09 20:17:20.84	59.62	4.37	-41.2	-43.0	17.7	0.00e+00	0	25	0	47185920	56	6463
2026-01-09 20:17:21.85	59.52	4.43	-41.1	-43.0	17.7	0.00e+00	0	25	0	49283072	56	6433
2026-01-09 20:17:22.86	59.42	4.48	-41.1	-42.9	18.0	0.00e+00	0	25	0	50331648	56	6330
2026-01-09 20:17:23.87	59.32	4.53	-40.9	-42.7	18.1	0.00e+00	0	25	0	52428800	56	6214
2026-01-09 20:17:24.88	59.22	4.58	-40.9	-42.7	18.1	0.00e+00	0	25	0	54525952	56	6211
2026-01-09 20:17:25.89	59.11	4.64	-40.9	-42.7	18.2	0.00e+00	0	25	0	56623104	56	6179
2026-01-09 20:17:26.90	59.01	4.69	-41.0	-42.8	18.1	0.00e+00	0	25	0	58720256	56	6288
2026-01-09 20:17:27.91	58.91	4.74	-41.0	-42.7	18.1	0.00e+00	0	25	0	59768832	56	6245
2026-01-09 20:17:28.92	58.81	4.79	-41.0	-42.7	18.2	0.00e+00	0	25	0	61865984	56	6243
2026-01-09 20:17:29.92	58.71	4.84	-40.8	-42.6	18.3	0.00e+00	0	25	0	63963136	56	6127
2026-01-09 20:17:30.93	58.60	4.90	-40.6	-42.3	18.4	0.00e+00	0	25	0	66060288	54	6673
2026-01-09 20:17:31.94	58.50	4.95	-40.7	-42.5	18.2	0.00e+00	0	25	0	68157440	54	6779
2026-01-09 20:17:32.95	58.39	5.00	-40.6	-42.3	18.5	0.00e+00	0	25	0	69206016	54	6645
2026-01-09 20:17:33.96	58.29	5.05	-40.6	-42.3	18.5	0.00e+00	0	25	0	71303168	54	6638
2026-01-09 20:17:34.97	58.18	5.11	-40.4	-42.0	18.8	0.00e+00	0	25	0	73400320	54	6426
2026-01-09 20:17:35.98	58.08	5.16	-40.3	-41.9	18.8	0.00e+00	0	25	0	75497472	54	6367
2026-01-09 20:17:36.99	57.97	5.21	-40.5	-42.1	18.8	0.00e+00	0	25	0	77594624	54	6532
2026-01-09 20:17:38.00	57.87	5.27	-40.5	-42.2	18.5	0.00e+00	0	25	0	78643200	54	6563
2026-01-09 20:17:39.01	57.76	5.32	-40.7	-42.3	18.5	0.00e+00	0	25	0	80740352	54	6691
2026-01-09 20:17:40.02	57.65	5.37	-40.3	-41.8	19.0	0.00e+00	0	25	0	82837504	54	6306
2026-01-09 20:17:41.03	57.54	5.42	-40.2	-41.7	19.0	0.00e+00	0	25	0	84934656	54	6242
2026-01-09 20:17:42.04	57.44	5.48	-40.3	-41.8	19.0	0.00e+00	0	25	0	87031808	54	6299
2026-01-09 20:17:43.04	57.33	5.53	-40.4	-41.9	18.9	0.00e+00	0	25	0	88080384	54	6376
2026-01-09 20:17:44.05	57.22	5.58	-40.2	-41.8	19.1	0.00e+00	0	25	0	90177536	54	6279
2026-01-09 20:17:45.06	57.11	5.63	-40.3	-41.8	19.1	0.00e+00	0	25	0	92274688	54	6305
2026-01-09 20:17:46.07	57.00	5.69	-40.2	-41.8	19.1	0.00e+00	0	25	0	94371840	54	6285
2026-01-09 20:17:47.08	56.89	5.74	-40.2	-41.7	19.1	0.00e+00	0	25	0	96468992	54	6238
2026-01-09 20:17:48.09	56.78	5.79	-40.1	-41.6	19.3	0.00e+00	0	25	0	98566144	54	6114
2026-01-09 20:17:49.10	56.67	5.84	-40.1	-41.6	19.3	0.00e+00	0	25	0	99614720	54	6141
2026-01-09 20:17:50.11	56.56	5.90	-40.0	-41.5	19.4	0.00e+00	0	25	0	101711872	54	6066
2026-01-09 20:17:51.12	56.45	5.95	-39.9	-41.4	19.6	0.00e+00	0	25	0	103809024	54	6019
2026-01-09 20:17:52.13	56.34	6.00	-39.7	-41.2	19.7	0.00e+00	0	25	0	105906176	54	5851
2026-01-09 20:17:53.14	56.22	6.05	-39.8	-41.2	19.8	0.00e+00	0	25	0	108003328	52	6594
2026-01-09 20:17:54.15	56.11	6.11	-39.7	-41.1	19.7	0.00e+00	0	25	0	109051904	52	6538
2026-01-09 20:17:55.16	56.00	6.16	-39.7	-41.1	19.7	0.00e+00	0	25	0	111149056	52	6499
2026-01-09 20:17:56.17	55.88	6.21	-39.7	-41.0	19.8	0.00e+00	0	25	0	113246208	52	6463
2026-01-09 20:17:57.18	55.77	6.27	-39.5	-40.9	20.1	0.00e+00	0	25	0	115343360	52	6324
2026-01-09 20:17:58.19	55.66	6.32	-39.6	-40.9	20.0	0.00e+00	0	25	0	117440512	52	6385
2026-01-09 20:17:59.19	55.54	6.37	-39.5	-40.8	20.1	0.00e+00	0	25	0	118489088	52	6305
2026-01-09 20:18:00.20	55.43	6.42	-39.5	-40.9	20.1	0.00e+00	0	25	0	120586240	52	6323
2026-01-09 20:18:01.21	55.31	6.48	-39.5	-40.8	20.2	0.00e+00	0	25	0	122683392	52	6269
2026-01-09 20:18:02.22	55.20	6.53	-39.5	-40.9	20.1	0.00e+00	0	25	0	124780544	52	6359
2026-01-09 20:18:03.23	55.08	6.58	-39.4	-40.7	20.2	0.00e+00	0	25	0	126877696	52	6213
2026-01-09 20:18:04.24	54.96	6.63	-39.5	-40.8	20.1	0.00e+00	0	25	0	127926272	52	6303
2026-01-09 20:18:05.25	54.84	6.69	-39.6	-41.0	20.0	0.00e+00	0	25	0	130023424	52	6391
2026-01-09 20:18:06.26	54.73	6.74	-39.5	-40.8	20.1	0.00e+00	0	25	0	132120576	52	6311
2026-01-09 20:18:07.27	54.61	6.79	-39.6	-41.0	19.9	0.00e+00	0	25	0	134217728	52	6446
2026-01-09 20:18:08.28	54.49	6.84	-39.8	-41.2	19.8	0.00e+00	0	25	0	136314880	52	6540
2026-01-09 20:18:09.29	54.37	6.90	-39.6	-41.0	20.0	0.00e+00	0	25	0	137363456	52	6412
2026-01-09 20:18:10.29	54.25	6.95	-39.6	-40.9	20.1	0.00e+00	0	25	0	139460608	52	6364
2026-01-09 20:18:11.30	54.13	7.00	-39.4	-40.8	20.2	0.00e+00	0	25	0	141557760	52	6251
2026-01-09 20:18:12.31	54.01	7.05	-39.5	-40.8	20.2	0.00e+00	0	25	0	143654912	52	6312
2026-01-09 20:18:13.32	53.89	7.11	-39.5	-40.8	20.1	0.00e+00	0	25	0	145752064	52	6315
2026-01-09 20:18:14.33	53.77	7.16	-39.6	-41.0	20.1	0.00e+00	0	25	0	146800640	52	6420
2026-01-09 20:18:15.34	53.65	7.21	-39.7	-41.0	20.1	0.00e+00	0	25	0	148897792	52	6442
2026-01-09 20:18:16.35	53.52	7.26	-39.5	-40.8	20.2	0.00e+00	0	25	0	150994944	52	6309
2026-01-09 20:18:17.35	53.40	7.32	-39.5	-40.8	20.2	0.00e+00	0	25	0	153092096	52	6307
2026-01-09 20:18:18.36	53.28	7.37	-39.5	-40.8	20.2	0.00e+00	0	25	0	155189248	52	6299
2026-01-09 20:18:19.37	53.16	7.42	-39.5	-40.8	20.2	0.00e+00	0	25	0	156237824	52	6297
2026-01-09 20:18:20.38	53.03	7.47	-39.4	-40.7	20.5	0.00e+00	0	25	0	158334976	52	6179
2026-01-09 20:18:21.39	52.91	7.53	-39.2	-40.5	20.5	0.00e+00	0	25	0	160432128	52	6075
2026-01-09 20:18:22.40	52.78	7.58	-39.4	-40.7	20.4	0.00e+00	0	25	0	162529280	52	6221
2026-01-09 20:18:23.41	52.66	7.63	-39.5	-40.8	20.2	0.00e+00	0	25	0	164626432	52	6285
2026-01-09 20:18:24.42	52.53	7.68	-39.4	-40.7	20.4	0.00e+00	0	25	0	165675008	52	6207
2026-01-09 20:18:25.43	52.40	7.74	-39.5	-40.8	20.3	0.00e+00	0	25	0	167772160	52	6287
2026-01-09 20:18:26.44	52.28	7.79	-39.4	-40.7	20.4	0.00e+00	0	25	0	169869312	52	6214
2026-01-09 20:18:27.44	52.15	7.84	-39.3	-40.6	20.4	0.00e+00	0	25	0	171966464	52	6163
2026-01-09 20:18:28.45	52.02	7.89	-39.3	-40.6	20.5	0.00e+00	0	25	0	174063616	52	6130
2026-01-09 20:18:29.46	51.89	7.94	-39.3	-40.6	20.5	0.00e+00	0	25	0	175112192	52	6126
2026-01-09 20:18:30.47	51.77	8.00	-39.3	-40.6	20.5	0.00e+00	0	25	0	177209344	52	6121
2026-01-09 20:18:31.48	51.64	8.05	-39.4	-40.7	20.4	0.00e+00	0	25	0	179306496	52	6237
2026-01-09 20:18:32.49	51.51	8.10	-39.4	-40.7	20.3	0.00e+00	0	25	0	181403648	52	6230
2026-01-09 20:18:33.50	51.38	8.15	-39.3	-40.6	20.5	0.00e+00	0	25	0	183500800	52	6155
2026-01-09 20:18:34.51	51.25	8.21	-39.3	-40.5	20.5	0.00e+00	0	25	0	184549376	52	6089
2026-01-09 20:18:35.52	51.11	8.26	-39.2	-40.5	20.5	0.00e+00	0	25	0	186646528	52	6073
2026-01-09 20:18:36.53	50.98	8.31	-39.3	-40.6	20.5	0.00e+00	0	25	0	188743680	52	6126
2026-01-09 20:18:37.54	50.85	8.36	-39.3	-40.6	20.4	0.00e+00	0	25	0	190840832	52	6123
2026-01-09 20:18:38.55	50.72	8.41	-39.2	-40.5	20.6	0.00e+00	0	25	0	192937984	52	6076
2026-01-09 20:18:39.56	50.59	8.47	-39.2	-40.5	20.6	0.00e+00	0	25	0	195035136	52	6062
2026-01-09 20:18:40.56	50.45	8.52	-39.2	-40.4	20.7	0.00e+00	0	25	0	196083712	52	6030
2026-01-09 20:18:41.57	50.32	8.57	-39.2	-40.5	20.6	0.00e+00	0	25	0	198180864	52	6066
2026-01-09 20:18:42.58	50.18	8.62	-39.2	-40.4	20.7	0.00e+00	0	25	0	200278016	52	6027
2026-01-09 20:18:43.59	50.05	8.67	-39.3	-40.6	20.6	0.00e+00	0	25	0	202375168	52	6158
2026-01-09 20:18:44.60	49.91	8.72	-39.3	-40.6	20.6	0.00e+00	0	25	0	204472320	52	6138
2026-01-09 20:18:45.61	49.78	8.78	-39.2	-40.4	20.7	0.00e+00	0	25	0	205520896	52	6021
2026-01-09 20:18:46.62	49.64	8.83	-39.1	-40.4	20.7	0.00e+00	0	25	0	207618048	52	5977
2026-01-09 20:18:47.63	49.50	8.88	-39.2	-40.4	20.8	0.00e+00	0	25	0	209715200	52	6019
2026-01-09 20:18:48.63	49.37	8.93	-39.0	-40.2	20.9	0.00e+00	0	25	0	211812352	52	5895
2026-01-09 20:18:49.64	49.23	8.98	-39.0	-40.2	20.9	0.00e+00	0	25	0	213909504	52	5867
2026-01-09 20:18:50.65	49.09	9.03	-39.0	-40.2	21.0	0.00e+00	0	25	0	214958080	52	5893
2026-01-09 20:18:51.65	48.95	9.08	-38.9	-40.1	21.0	0.00e+00	0	25	0	217055232	52	5806
2026-01-09 20:18:52.66	48.81	9.13	-38.9	-40.1	21.0	0.00e+00	0	25	0	219152384	52	5776
2026-01-09 20:18:53.67	48.67	9.19	-39.0	-40.2	20.9	0.00e+00	0	25	0	221249536	52	5879
2026-01-09 20:18:54.68	48.53	9.24	-38.9	-40.1	21.0	0.00e+00	0	25	0	223346688	52	5791
2026-01-09 20:18:55.69	48.39	9.29	-38.9	-40.1	21.1	0.00e+00	0	25	0	224395264	52	5774
2026-01-09 20:18:56.70	48.25	9.34	-38.8	-40.0	21.1	0.00e+00	0	25	0	226492416	52	5726
2026-01-09 20:18:57.72	48.11	9.39	-38.9	-40.1	21.1	0.00e+00	0	25	0	228589568	52	5780
2026-01-09 20:18:58.72	47.97	9.44	-38.9	-40.1	21.1	0.00e+00	0	25	0	230686720	52	5794
2026-01-09 20:18:59.74	47.82	9.49	-38.9	-40.1	21.1	0.00e+00	0	25	0	232783872	52	5800
2026-01-09 20:19:00.75	47.68	9.54	-38.9	-40.1	21.1	0.00e+00	0	25	0	233832448	52	5781
2026-01-09 20:19:01.76	47.54	9.59	-39.0	-40.2	21.0	0.00e+00	0	25	0	235929600	52	5892
2026-01-09 20:19:02.76	47.39	9.64	-39.0	-40.2	21.0	0.00e+00	0	25	0	238026752	52	5836
2026-01-09 20:19:03.77	47.25	9.69	-39.0	-40.3	20.9	0.00e+00	0	25	0	240123904	52	5900
2026-01-09 20:19:04.78	47.10	9.74	-39.0	-40.2	20.8	0.00e+00	0	25	0	242221056	52	5840
2026-01-09 20:19:05.79	46.96	9.80	-39.0	-40.2	21.0	0.00e+00	0	25	0	243269632	52	5855
2026-01-09 20:19:06.80	46.81	9.85	-39.0	-40.2	20.9	0.00e+00	0	25	0	245366784	52	5863
2026-01-09 20:19:07.81	46.66	9.90	-38.9	-40.1	21.1	0.00e+00	0	25	0	247463936	52	5810
2026-01-09 20:19:08.82	46.51	9.95	-39.0	-40.2	21.0	0.00e+00	0	25	0	249561088	52	5852
2026-01-09 20:19:09.83	46.37	10.00	-38.9	-40.1	21.2	0.00e+00	0	25	0	251658240	52	5773
2026-01-09 20:19:10.84	46.22	10.05	-38.7	-39.9	21.3	0.00e+00	0	25	0	252706816	50	6319
2026-01-09 20:19:11.85	46.07	10.10	-38.6	-39.8	21.4	0.00e+00	0	25	0	254803968	50	6248
2026-01-09 20:19:12.86	45.92	10.15	-38.6	-39.7	21.4	0.00e+00	0	25	0	256901120	50	6206
2026-01-09 20:19:13.87	45.77	10.20	-38.5	-39.6	21.6	0.00e+00	0	25	0	258998272	50	6155
2026-01-09 20:19:14.87	45.62	10.24	-38.5	-39.6	21.6	0.00e+00	0	25	0	261095424	50	6123
2026-01-09 20:19:15.88	45.47	10.29	-38.4	-39.5	21.7	0.00e+00	0	25	0	263192576	50	6048
2026-01-09 20:19:16.89	45.32	10.34	-38.4	-39.5	21.7	0.00e+00	0	25	0	264241152	50	6040
2026-01-09 20:19:17.90	45.16	10.39	-38.3	-39.4	21.8	0.00e+00	0	25	0	266338304	50	5997
2026-01-09 20:19:18.91	45.01	10.44	-38.2	-39.4	21.8	0.00e+00	0	25	0	268435456	50	5965
2026-01-09 20:19:19.92	44.86	10.49	-38.2	-39.3	21.9	0.00e+00	0	25	0	270532608	50	5937
2026-01-09 20:19:20.92	44.71	10.54	-38.0	-39.1	22.1	0.00e+00	0	25	0	271581184	50	5764
2026-01-09 20:19:21.93	44.55	10.59	-38.0	-39.0	22.1	0.00e+00	0	25	0	273678336	50	5748
2026-01-09 20:19:22.94	44.40	10.64	-38.0	-39.0	22.1	0.00e+00	0	25	0	275775488	50	5734
2026-01-09 20:19:23.95	44.24	10.69	-37.9	-39.0	22.2	0.00e+00	0	25	0	277872640	50	5703
2026-01-09 20:19:24.96	44.08	10.74	-37.9	-38.9	22.2	0.00e+00	0	25	0	279969792	50	5682
2026-01-09 20:19:25.97	43.93	10.78	-37.9	-38.9	22.1	0.00e+00	0	25	0	281018368	50	5695
2026-01-09 20:19:26.98	43.77	10.83	-37.4	-38.4	22.6	0.00e+00	0	25	0	283115520	48	6011
2026-01-09 20:19:27.99	43.61	10.88	-37.4	-38.4	22.6	0.00e+00	0	25	0	285212672	48	6014
2026-01-09 20:19:29.00	43.46	10.93	-37.6	-38.6	22.5	0.00e+00	0	25	0	287309824	48	6111
2026-01-09 20:19:30.01	43.30	10.98	-37.5	-38.5	22.6	0.00e+00	0	25	0	289406976	48	6063
2026-01-09 20:19:31.02	43.14	11.02	-37.6	-38.6	22.5	0.00e+00	0	25	0	291504128	48	6152
2026-01-09 20:19:32.03	42.98	11.07	-37.6	-38.6	22.5	0.00e+00	0	25	0	292552704	48	6156
2026-01-09 20:19:33.04	42.82	11.12	-37.3	-38.3	22.8	0.00e+00	0	25	0	294649856	48	5928
2026-01-09 20:19:34.05	42.66	11.17	-37.3	-38.3	22.8	0.00e+00	0	25	0	296747008	48	5916
2026-01-09 20:19:35.06	42.50	11.21	-37.4	-38.4	22.8	0.00e+00	0	25	0	298844160	48	5969
2026-01-09 20:19:36.06	42.34	11.26	-37.5	-38.5	22.6	0.00e+00	0	25	0	300941312	48	6048
2026-01-09 20:19:37.07	42.17	11.31	-37.3	-38.3	22.8	0.00e+00	0	25	0	301989888	48	5959
2026-01-09 20:19:38.08	42.01	11.36	-37.4	-38.4	22.7	0.00e+00	0	25	0	304087040	48	5998
2026-01-09 20:19:39.09	41.85	11.40	-37.3	-38.2	22.9	0.00e+00	0	25	0	306184192	48	5883
2026-01-09 20:19:40.10	41.68	11.45	-37.2	-38.2	22.9	0.00e+00	0	25	0	308281344	48	5845
2026-01-09 20:19:41.11	41.52	11.50	-37.1	-38.1	23.0	0.00e+00	0	25	0	310378496	48	5784
2026-01-09 20:19:42.12	41.35	11.54	-37.1	-38.0	23.0	0.00e+00	0	25	0	311427072	48	5735
2026-01-09 20:19:43.13	41.19	11.59	-37.0	-38.0	23.1	0.00e+00	0	25	0	313524224	48	5713
2026-01-09 20:19:44.14	41.02	11.63	-37.1	-38.0	23.1	0.00e+00	0	25	0	315621376	48	5743
2026-01-09 20:19:45.15	40.86	11.68	-37.0	-38.0	23.1	0.00e+00	0	25	0	317718528	48	5700
2026-01-09 20:19:46.16	40.69	11.73	-37.1	-38.0	23.1	0.00e+00	0	25	0	319815680	48	5748
2026-01-09 20:19:47.17	40.52	11.77	-36.9	-37.9	23.2	0.00e+00	0	25	0	320864256	48	5660
2026-01-09 20:19:48.18	40.35	11.82	-36.9	-37.8	23.3	0.00e+00	0	25	0	322961408	48	5622
2026-01-09 20:19:49.19	40.19	11.86	-36.8	-37.7	23.3	0.00e+00	0	25	0	325058560	48	5559
2026-01-09 20:19:50.20	40.02	11.91	-36.8	-37.7	23.3	0.00e+00	0	25	0	327155712	46	6236
2026-01-09 20:19:51.21	39.85	11.95	-36.8	-37.7	23.3	0.00e+00	0	25	0	329252864	46	6239
2026-01-09 20:19:52.22	39.68	12.00	-36.9	-37.9	23.3	0.00e+00	0	25	0	330301440	46	6328
2026-01-09 20:19:53.23	39.51	12.04	-36.7	-37.6	23.4	0.00e+00	0	25	0	332398592	46	6165
2026-01-09 20:19:54.24	39.33	12.09	-36.5	-37.5	23.6	0.00e+00	0	25	0	334495744	46	6038
2026-01-09 20:19:55.24	39.16	12.13	-36.6	-37.5	23.6	0.00e+00	0	25	0	336592896	46	6059
2026-01-09 20:19:56.25	38.99	12.18	-36.5	-37.4	23.6	0.00e+00	0	25	0	338690048	46	5988
2026-01-09 20:19:57.26	38.82	12.22	-36.4	-37.3	23.5	0.00e+00	0	25	0	339738624	46	5930
2026-01-09 20:19:58.27	38.65	12.26	-36.5	-37.4	22.9	0.00e+00	0	25	0	341835776	46	5998
2026-01-09 20:19:59.28	38.47	12.31	-36.4	-37.3	23.6	0.00e+00	0	25	0	343932928	46	5924
2026-01-09 20:20:00.28	38.30	12.35	-36.6	-37.5	23.5	0.00e+00	0	25	0	346030080	46	6087
2026-01-09 20:20:01.30	38.12	12.39	-36.4	-37.3	23.7	0.00e+00	0	25	0	348127232	46	5928
2026-01-09 20:20:02.30	37.95	12.44	-36.6	-37.5	23.5	0.00e+00	0	25	0	349175808	46	6044
2026-01-09 20:20:03.31	37.77	12.48	-36.6	-37.5	23.6	0.00e+00	0	25	0	351272960	46	6066
2026-01-09 20:20:04.32	37.60	12.52	-36.8	-37.7	23.4	0.00e+00	0	25	0	353370112	46	6191
2026-01-09 20:20:05.33	37.42	12.57	-36.9	-37.8	23.2	0.00e+00	0	25	0	355467264	46	6264
2026-01-09 20:20:06.34	37.24	12.61	-36.9	-37.8	23.2	0.00e+00	0	25	0	357564416	46	6283
2026-01-09 20:20:07.35	37.06	12.65	-36.9	-37.9	23.2	0.00e+00	0	25	0	359661568	46	6327
2026-01-09 20:20:08.36	36.89	12.69	-36.8	-37.7	23.4	0.00e+00	0	25	0	360710144	46	6200
2026-01-09 20:20:09.37	36.71	12.73	-36.7	-37.7	23.4	0.00e+00	0	25	0	362807296	46	6186
2026-01-09 20:20:10.38	36.53	12.78	-36.8	-37.7	23.4	0.00e+00	0	25	0	364904448	46	6219
2026-01-09 20:20:11.39	36.35	12.82	-36.9	-37.8	23.3	0.00e+00	0	25	0	367001600	46	6310
2026-01-09 20:20:12.40	36.17	12.86	-37.0	-37.9	23.0	0.00e+00	0	25	0	369098752	46	6360
2026-01-09 20:20:13.41	35.99	12.90	-37.0	-37.9	22.9	0.00e+00	0	25	0	370147328	46	6364
2026-01-09 20:20:14.42	35.80	12.94	-36.8	-37.8	23.3	0.00e+00	0	25	0	372244480	46	6257
2026-01-09 20:20:15.42	35.62	12.98	-37.0	-37.9	23.2	0.00e+00	0	25	0	374341632	46	6383
2026-01-09 20:20:16.43	35.44	13.02	-36.9	-37.8	23.3	0.00e+00	0	25	0	376438784	46	6269
2026-01-09 20:20:17.44	35.26	13.06	-37.1	-38.0	23.1	0.00e+00	0	25	0	378535936	46	6439
2026-01-09 20:20:18.45	35.07	13.10	-37.0	-38.0	23.2	0.00e+00	0	25	0	379584512	46	6428
2026-01-09 20:20:19.46	34.89	13.14	-37.0	-37.9	23.3	0.00e+00	0	25	0	381681664	46	6384
2026-01-09 20:20:20.47	34.71	13.18	-36.9	-37.9	23.2	0.00e+00	0	25	0	383778816	46	6343
2026-01-09 20:20:21.48	34.52	13.22	-37.1	-38.0	23.1	0.00e+00	0	25	0	385875968	46	6453
2026-01-09 20:20:22.49	34.33	13.26	-37.0	-38.0	23.1	0.00e+00	0	25	0	387973120	46	6418
2026-01-09 20:20:23.50	34.15	13.30	-36.9	-37.9	23.3	0.00e+00	0	25	0	389021696	46	6336
2026-01-09 20:20:24.51	33.96	13.33	-36.9	-37.8	23.3	0.00e+00	0	25	0	391118848	46	6258
2026-01-09 20:20:25.52	33.77	13.37	-36.8	-37.7	23.5	0.00e+00	0	25	0	393216000	46	6209
2026-01-09 20:20:26.53	33.59	13.41	-36.7	-37.6	23.4	0.00e+00	0	25	0	395313152	46	6139
2026-01-09 20:20:27.54	33.40	13.45	-36.7	-37.6	23.5	0.00e+00	0	25	0	397410304	46	6136
2026-01-09 20:20:28.55	33.21	13.49	-36.8	-37.7	23.4	0.00e+00	0	25	0	398458880	46	6193
2026-01-09 20:20:29.56	33.02	13.52	-36.8	-37.7	23.3	0.00e+00	0	25	0	400556032	46	6222
2026-01-09 20:20:30.56	32.83	13.56	-36.8	-37.8	23.3	0.00e+00	0	25	0	402653184	46	6246
2026-01-09 20:20:31.57	32.64	13.60	-36.7	-37.7	23.4	0.00e+00	0	25	0	404750336	46	6181
2026-01-09 20:20:32.58	32.45	13.63	-36.9	-37.9	23.2	0.00e+00	0	25	0	406847488	46	6331
2026-01-09 20:20:33.59	32.26	13.67	-36.6	-37.5	23.7	0.00e+00	0	25	0	407896064	46	6040
2026-01-09 20:20:34.60	32.07	13.70	-36.6	-37.5	23.7	0.00e+00	0	25	0	409993216	46	6071
2026-01-09 20:20:35.61	31.88	13.74	-36.6	-37.5	23.6	0.00e+00	0	25	0	412090368	46	6040
2026-01-09 20:20:36.62	31.69	13.78	-36.6	-37.5	23.6	0.00e+00	0	25	0	414187520	46	6098
2026-01-09 20:20:37.63	31.49	13.81	-36.5	-37.4	23.7	0.00e+00	0	25	0	416284672	46	5987
2026-01-09 20:20:38.64	31.30	13.84	-36.6	-37.5	23.6	0.00e+00	0	25	0	417333248	46	6035
2026-01-09 20:20:39.65	31.11	13.88	-36.5	-37.4	23.7	0.00e+00	0	25	0	419430400	46	5999
2026-01-09 20:20:40.66	30.91	13.91	-36.6	-37.4	23.6	0.00e+00	0	25	0	421527552	46	6030
2026-01-09 20:20:41.67	30.72	13.95	-36.4	-37.3	22.7	0.00e+00	0	25	0	423624704	46	5951
2026-01-09 20:20:42.68	30.52	13.98	-36.4	-37.3	23.5	0.00e+00	0	25	0	425721856	46	5907
2026-01-09 20:20:43.69	30.33	14.01	-36.4	-37.3	23.8	0.00e+00	0	25	0	427819008	46	5935
2026-01-09 20:20:44.69	30.13	14.05	-36.4	-37.3	23.8	0.00e+00	0	25	0	428867584	46	5910
2026-01-09 20:20:45.70	29.94	14.08	-36.4	-37.3	23.8	0.00e+00	0	25	0	430964736	46	5932
2026-01-09 20:20:46.71	29.74	14.11	-36.3	-37.2	23.8	0.00e+00	0	25	0	433061888	46	5887
2026-01-09 20:20:47.72	29.54	14.15	-36.4	-37.3	23.8	0.00e+00	0	25	0	435159040	46	5910
2026-01-09 20:20:48.73	29.35	14.18	-36.3	-37.2	23.9	0.00e+00	0	25	0	437256192	46	5855
2026-01-09 20:20:49.74	29.15	14.21	-36.3	-37.1	23.9	0.00e+00	0	25	0	438304768	46	5810
2026-01-09 20:20:50.75	28.95	14.24	-36.4	-37.3	23.8	0.00e+00	0	25	0	440401920	46	5954
2026-01-09 20:20:51.76	28.75	14.27	-36.6	-37.5	23.5	0.00e+00	0	25	0	442499072	46	6059
2026-01-09 20:20:52.77	28.55	14.30	-36.6	-37.5	23.6	0.00e+00	0	25	0	444596224	46	6076
2026-01-09 20:20:53.78	28.35	14.33	-36.5	-37.3	23.8	0.00e+00	0	25	0	446693376	46	5955
2026-01-09 20:20:54.79	28.15	14.36	-36.2	-37.0	23.9	0.00e+00	0	25	0	447741952	46	5757
2026-01-09 20:20:55.80	27.95	14.39	-36.2	-37.1	23.9	0.00e+00	0	25	0	449839104	46	5795
2026-01-09 20:20:56.80	27.75	14.42	-36.4	-37.2	23.8	0.00e+00	0	25	0	451936256	46	5888
2026-01-09 20:20:57.81	27.55	14.45	-36.5	-37.4	23.7	0.00e+00	0	25	0	454033408	46	6008
2026-01-09 20:20:58.82	27.35	14.48	-36.7	-37.6	23.6	0.00e+00	0	25	0	456130560	46	6127
2026-01-09 20:20:59.83	27.15	14.51	-36.4	-37.3	23.8	0.00e+00	0	25	0	457179136	46	5904
2026-01-09 20:21:00.84	26.94	14.54	-36.5	-37.4	23.7	0.00e+00	0	25	0	459276288	46	5980
2026-01-09 20:21:01.85	26.74	14.56	-36.4	-37.3	23.8	0.00e+00	0	25	0	461373440	46	5898
2026-01-09 20:21:02.86	26.54	14.59	-36.4	-37.3	23.8	0.00e+00	0	25	0	463470592	46	5933
2026-01-09 20:21:03.87	26.33	14.62	-36.6	-37.5	23.6	0.00e+00	0	25	0	465567744	46	6049
2026-01-09 20:21:04.88	26.13	14.65	-36.7	-37.6	23.6	0.00e+00	0	25	0	466616320	46	6153
2026-01-09 20:21:05.88	25.93	14.67	-36.7	-37.6	23.5	0.00e+00	0	25	0	468713472	46	6172
2026-01-09 20:21:06.89	25.72	14.70	-36.6	-37.5	23.5	0.00e+00	0	25	0	470810624	46	6089
2026-01-09 20:21:07.90	25.52	14.72	-36.6	-37.5	23.1	0.00e+00	0	25	0	472907776	46	6079
2026-01-09 20:21:08.91	25.31	14.75	-36.7	-37.6	23.5	0.00e+00	0	25	0	475004928	46	6143
2026-01-09 20:21:09.93	25.10	14.78	-36.7	-37.6	23.5	0.00e+00	0	25	0	476053504	46	6151
2026-01-09 20:21:10.93	24.90	14.80	-36.8	-37.7	23.5	0.00e+00	0	25	0	478150656	46	6197
2026-01-09 20:21:11.95	24.69	14.82	-36.8	-37.7	23.4	0.00e+00	0	25	0	480247808	46	6175
2026-01-09 20:21:12.95	24.48	14.85	-36.9	-37.8	23.3	0.00e+00	0	25	0	482344960	46	6311
2026-01-09 20:21:13.96	24.28	14.87	-36.8	-37.7	23.4	0.00e+00	0	25	0	484442112	46	6244
2026-01-09 20:21:14.97	24.07	14.90	-36.9	-37.8	23.4	0.00e+00	0	25	0	485490688	46	6275
2026-01-09 20:21:15.98	23.86	14.92	-36.9	-37.8	23.3	0.00e+00	0	25	0	487587840	46	6310
2026-01-09 20:21:16.99	23.65	14.94	-36.7	-37.6	23.5	0.00e+00	0	25	0	489684992	46	6171
2026-01-09 20:21:18.00	23.44	14.96	-37.0	-37.9	23.3	0.00e+00	0	25	0	491782144	46	6344
2026-01-09 20:21:19.01	23.24	14.99	-37.1	-38.1	23.1	0.00e+00	0	25	0	493879296	46	6491
2026-01-09 20:21:20.02	23.03	15.01	-37.2	-38.2	23.0	0.00e+00	0	25	0	494927872	46	6543
2026-01-09 20:21:21.03	22.82	15.03	-37.3	-38.2	23.0	0.00e+00	0	25	0	497025024	46	6587
2026-01-09 20:21:22.04	22.61	15.05	-37.3	-38.2	23.0	0.00e+00	0	25	0	499122176	46	6610
2026-01-09 20:21:23.05	22.40	15.07	-37.3	-38.3	23.0	0.00e+00	0	25	0	501219328	46	6648
2026-01-09 20:21:24.06	22.19	15.09	-37.4	-38.3	22.9	0.00e+00	0	25	0	503316480	46	6674
2026-01-09 20:21:25.07	21.98	15.11	-37.4	-38.4	22.9	0.00e+00	0	25	0	504365056	46	6741
2026-01-09 20:21:26.08	21.77	15.13	-37.4	-38.4	22.9	0.00e+00	0	25	0	506462208	46	6734
2026-01-09 20:21:27.09	21.55	15.15	-37.2	-38.2	23.0	0.00e+00	0	25	0	508559360	46	6562
2026-01-09 20:21:28.10	21.34	15.17	-37.3	-38.2	23.1	0.00e+00	0	25	0	510656512	46	6587
2026-01-09 20:21:29.11	21.13	15.19	-37.0	-37.9	23.3	0.00e+00	0	25	0	512753664	46	6389
2026-01-09 20:21:30.12	20.92	15.20	-36.9	-37.8	23.4	0.00e+00	0	25	0	513802240	46	6279
2026-01-09 20:21:31.13	20.71	15.22	-36.9	-37.8	23.3	0.00e+00	0	25	0	515899392	46	6301
2026-01-09 20:21:32.14	20.49	15.24	-36.7	-37.6	23.5	0.00e+00	0	25	0	517996544	46	6165
2026-01-09 20:21:33.14	20.28	15.25	-36.8	-37.7	23.5	0.00e+00	0	25	0	520093696	46	6191
2026-01-09 20:21:34.15	20.07	15.27	-36.8	-37.7	23.5	0.00e+00	0	25	0	522190848	46	6182
2026-01-09 20:21:35.16	19.86	15.29	-36.7	-37.6	23.5	0.00e+00	0	25	0	524288000	46	6143
2026-01-09 20:21:36.17	19.64	15.30	-36.7	-37.6	23.6	0.00e+00	0	25	0	525336576	46	6163
2026-01-09 20:21:37.18	19.43	15.32	-36.7	-37.6	23.5	0.00e+00	0	25	0	527433728	46	6141
2026-01-09 20:21:38.19	19.22	15.33	-36.7	-37.6	23.6	0.00e+00	0	25	0	529530880	46	6126
2026-01-09 20:21:39.20	19.00	15.35	-36.8	-37.7	23.5	0.00e+00	0	25	0	531628032	46	6188
2026-01-09 20:21:40.21	18.79	15.36	-36.8	-37.8	23.4	0.00e+00	0	25	0	533725184	46	6253
2026-01-09 20:21:41.22	18.57	15.37	-36.8	-37.8	23.4	0.00e+00	0	25	0	534773760	46	6256
2026-01-09 20:21:42.23	18.36	15.39	-37.0	-37.9	23.3	0.00e+00	0	25	0	536870912	46	6357
2026-01-09 20:21:43.24	18.14	15.40	-37.0	-37.9	23.3	0.00e+00	0	25	0	538968064	46	6337
2026-01-09 20:21:44.24	17.93	15.41	-37.0	-37.9	23.1	0.00e+00	0	25	0	541065216	46	6387
2026-01-09 20:21:45.25	17.72	15.42	-37.0	-38.0	23.2	0.00e+00	0	25	0	543162368	46	6394
2026-01-09 20:21:46.26	17.50	15.44	-36.9	-37.8	23.3	0.00e+00	0	25	0	544210944	46	6301
2026-01-09 20:21:47.27	17.28	15.45	-36.8	-37.7	23.4	0.00e+00	0	25	0	546308096	46	6239
2026-01-09 20:21:48.28	17.07	15.46	-37.0	-37.9	23.2	0.00e+00	0	25	0	548405248	46	6380
2026-01-09 20:21:49.29	16.85	15.47	-36.9	-37.8	23.4	0.00e+00	0	25	0	550502400	46	6285
2026-01-09 20:21:50.30	16.64	15.48	-36.9	-37.8	23.4	0.00e+00	0	25	0	552599552	46	6281
2026-01-09 20:21:51.31	16.42	15.49	-36.9	-37.8	23.4	0.00e+00	0	25	0	553648128	46	6312
2026-01-09 20:21:52.32	16.20	15.50	-37.0	-37.9	23.3	0.00e+00	0	25	0	555745280	46	6359
2026-01-09 20:21:53.33	15.99	15.51	-37.0	-38.0	23.2	0.00e+00	0	25	0	557842432	46	6405
2026-01-09 20:21:54.34	15.77	15.51	-36.9	-37.9	23.3	0.00e+00	0	25	0	559939584	46	6328
2026-01-09 20:21:55.35	15.55	15.52	-36.9	-37.8	23.3	0.00e+00	0	25	0	562036736	46	6315
2026-01-09 20:21:56.36	15.34	15.53	-37.0	-37.9	23.2	0.00e+00	0	25	0	563085312	46	6385
2026-01-09 20:21:57.36	15.12	15.54	-37.0	-37.9	23.2	0.00e+00	0	25	0	565182464	46	6375
2026-01-09 20:21:58.38	14.90	15.54	-37.0	-37.9	23.3	0.00e+00	0	25	0	567279616	46	6376
2026-01-09 20:21:59.38	14.69	15.55	-36.9	-37.9	23.3	0.00e+00	0	25	0	569376768	46	6338
2026-01-09 20:22:00.39	14.47	15.56	-37.0	-37.9	23.3	0.00e+00	0	25	0	571473920	46	6381
2026-01-09 20:22:01.40	14.25	15.56	-36.9	-37.8	23.4	0.00e+00	0	25	0	572522496	46	6296
2026-01-09 20:22:02.41	14.04	15.57	-36.8	-37.7	23.4	0.00e+00	0	25	0	574619648	46	6229
2026-01-09 20:22:03.42	13.82	15.57	-37.0	-37.9	23.3	0.00e+00	0	25	0	576716800	46	6383
2026-01-09 20:22:04.43	13.60	15.57	-36.9	-37.9	23.3	0.00e+00	0	25	0	578813952	46	6323
2026-01-09 20:22:05.44	13.38	15.58	-36.9	-37.8	23.4	0.00e+00	0	25	0	580911104	46	6299
2026-01-09 20:22:06.45	13.17	15.58	-36.9	-37.8	23.4	0.00e+00	0	25	0	581959680	46	6290
2026-01-09 20:22:07.46	12.95	15.59	-37.0	-37.9	23.3	0.00e+00	0	25	0	584056832	46	6338
2026-01-09 20:22:08.46	12.73	15.59	-36.9	-37.8	23.3	0.00e+00	0	25	0	586153984	46	6316
2026-01-09 20:22:09.47	12.52	15.59	-36.8	-37.7	23.5	0.00e+00	0	25	0	588251136	46	6235
2026-01-09 20:22:10.48	12.30	15.59	-36.9	-37.8	23.4	0.00e+00	0	25	0	590348288	46	6280
2026-01-09 20:22:11.49	12.08	15.59	-36.9	-37.8	23.3	0.00e+00	0	25	0	592445440	46	6298
2026-01-09 20:22:12.50	11.86	15.59	-37.0	-37.9	23.3	0.00e+00	0	25	0	593494016	46	6390
2026-01-09 20:22:13.51	11.64	15.59	-37.1	-38.0	23.1	0.00e+00	0	25	0	595591168	46	6440
2026-01-09 20:22:14.52	11.43	15.59	-37.0	-37.9	23.3	0.00e+00	0	25	0	597688320	46	6335
2026-01-09 20:22:15.53	11.21	15.59	-37.0	-37.9	23.2	0.00e+00	0	25	0	599785472	46	6381
2026-01-09 20:22:16.54	10.99	15.59	-36.9	-37.8	23.3	0.00e+00	0	25	0	601882624	46	6273
2026-01-09 20:22:17.55	10.77	15.59	-36.9	-37.8	23.3	0.00e+00	0	25	0	602931200	46	6275
2026-01-09 20:22:18.56	10.56	15.59	-37.0	-37.9	23.2	0.00e+00	0	25	0	605028352	46	6379
2026-01-09 20:22:19.57	10.34	15.59	-36.9	-37.8	23.4	0.00e+00	0	25	0	607125504	46	6264
2026-01-09 20:22:20.58	10.12	15.59	-36.7	-37.6	23.5	0.00e+00	0	25	0	609222656	46	6154
2026-01-09 20:22:21.59	9.90	15.58	-36.9	-37.8	23.3	0.00e+00	0	25	0	611319808	46	6294
2026-01-09 20:22:22.60	9.69	15.58	-36.9	-37.8	23.2	0.00e+00	0	25	0	612368384	46	6291
2026-01-09 20:22:23.61	9.47	15.58	-37.1	-38.1	23.2	0.00e+00	0	25	0	614465536	46	6471
2026-01-09 20:22:24.62	9.25	15.57	-37.2	-38.2	23.1	0.00e+00	0	25	0	616562688	46	6574
2026-01-09 20:22:25.63	9.03	15.57	-37.3	-38.2	22.9	0.00e+00	0	25	0	618659840	46	6587
2026-01-09 20:22:26.64	8.82	15.56	-37.3	-38.2	23.0	0.00e+00	0	25	0	620756992	46	6607
2026-01-09 20:22:27.64	8.60	15.56	-37.1	-38.1	23.1	0.00e+00	0	25	0	621805568	46	6486
2026-01-09 20:22:28.65	8.38	15.55	-37.3	-38.2	23.0	0.00e+00	0	25	0	623902720	46	6602
2026-01-09 20:22:29.66	8.17	15.54	-37.1	-38.1	23.2	0.00e+00	0	25	0	625999872	46	6474
2026-01-09 20:22:30.67	7.95	15.54	-37.0	-38.0	23.2	0.00e+00	0	25	0	628097024	46	6412
2026-01-09 20:22:31.68	7.73	15.53	-37.2	-38.2	23.1	0.00e+00	0	25	0	630194176	46	6577
2026-01-09 20:22:32.69	7.52	15.52	-37.2	-38.2	23.1	0.00e+00	0	25	0	631242752	46	6555
2026-01-09 20:22:33.70	7.30	15.52	-37.0	-37.9	23.3	0.00e+00	0	25	0	633339904	46	6388
2026-01-09 20:22:34.71	7.08	15.51	-36.9	-37.9	23.3	0.00e+00	0	25	0	635437056	46	6319
2026-01-09 20:22:35.72	6.87	15.50	-37.0	-38.0	23.3	0.00e+00	0	25	0	637534208	46	6399
2026-01-09 20:22:36.73	6.65	15.49	-36.9	-37.9	23.3	0.00e+00	0	25	0	639631360	46	6330
2026-01-09 20:22:37.73	6.44	15.48	-37.1	-38.0	23.2	0.00e+00	0	25	0	640679936	46	6458
2026-01-09 20:22:38.74	6.22	15.47	-37.0	-38.0	23.2	0.00e+00	0	25	0	642777088	46	6409
2026-01-09 20:22:39.75	6.00	15.46	-37.1	-38.0	23.2	0.00e+00	0	25	0	644874240	46	6442
2026-01-09 20:22:40.76	5.79	15.45	-37.3	-38.2	23.0	0.00e+00	0	25	0	646971392	46	6607
2026-01-09 20:22:41.77	5.57	15.44	-37.0	-38.0	23.2	0.00e+00	0	25	0	649068544	46	6408
2026-01-09 20:22:42.78	5.36	15.43	-37.1	-38.0	23.0	0.00e+00	0	25	0	650117120	46	6439
2026-01-09 20:22:43.79	5.14	15.41	-37.0	-38.0	23.2	0.00e+00	0	25	0	652214272	46	6423
2026-01-09 20:22:44.80	4.93	15.40	-37.0	-37.9	23.3	0.00e+00	0	25	0	654311424	46	6361
2026-01-09 20:22:45.81	4.71	15.39	-37.0	-37.9	23.3	0.00e+00	0	25	0	656408576	46	6381
2026-01-09 20:22:46.82	4.50	15.38	-36.9	-37.8	23.4	0.00e+00	0	25	0	658505728	46	6314
2026-01-09 20:22:47.83	4.28	15.36	-36.9	-37.8	23.5	0.00e+00	0	25	0	660602880	46	6288
2026-01-09 20:22:48.84	4.07	15.35	-36.8	-37.7	23.4	0.00e+00	0	25	0	661651456	46	6210
2026-01-09 20:22:49.85	3.85	15.33	-36.7	-37.7	23.5	0.00e+00	0	25	0	663748608	46	6179
2026-01-09 20:22:50.86	3.64	15.32	-36.6	-37.5	23.6	0.00e+00	0	25	0	665845760	46	6057
2026-01-09 20:22:51.87	3.43	15.30	-36.7	-37.6	23.6	0.00e+00	0	25	0	667942912	46	6152
2026-01-09 20:22:52.87	3.22	15.29	-36.6	-37.5	23.6	0.00e+00	0	25	0	668991488	46	6074
2026-01-09 20:22:53.88	3.00	15.27	-36.6	-37.6	23.5	0.00e+00	0	25	0	671088640	46	6113
2026-01-09 20:22:54.89	2.79	15.26	-36.6	-37.5	23.5	0.00e+00	0	25	0	673185792	46	6047
2026-01-09 20:22:55.90	2.58	15.24	-36.6	-37.5	23.7	0.00e+00	0	25	0	675282944	46	6043
2026-01-09 20:22:56.91	2.36	15.22	-36.5	-37.4	23.8	0.00e+00	0	25	0	677380096	46	5976
2026-01-09 20:22:57.92	2.15	15.21	-36.5	-37.4	23.8	0.00e+00	0	25	0	678428672	46	5974
2026-01-09 20:22:58.93	1.94	15.19	-36.4	-37.3	23.8	0.00e+00	0	25	0	680525824	46	5956
2026-01-09 20:22:59.94	1.73	15.17	-36.3	-37.2	23.9	0.00e+00	0	25	0	682622976	46	5852
2026-01-09 20:23:00.94	1.52	15.15	-36.4	-37.2	23.9	0.00e+00	0	25	0	684720128	46	5895
2026-01-09 20:23:01.95	1.31	15.13	-36.4	-37.3	23.7	0.00e+00	0	25	0	686817280	46	5957
2026-01-09 20:23:02.96	1.10	15.11	-36.6	-37.4	23.7	0.00e+00	0	25	0	688914432	46	6029
2026-01-09 20:23:03.97	0.89	15.09	-36.6	-37.5	23.7	0.00e+00	0	25	0	689963008	46	6044
2026-01-09 20:23:04.98	0.68	15.07	-36.7	-37.6	23.6	0.00e+00	0	25	0	692060160	46	6164
2026-01-09 20:23:05.99	0.47	15.05	-36.5	-37.4	23.7	0.00e+00	0	25	0	694157312	46	5974
2026-01-09 20:23:07.00	0.26	15.03	-36.7	-37.6	23.6	0.00e+00	0	25	0	696254464	46	6144
2026-01-09 20:23:08.01	0.05	15.01	-36.5	-37.4	23.7	0.00e+00	0	25	0	698351616	46	5966
2026-01-09 20:23:09.02	359.84	14.99	-36.5	-37.4	23.7	0.00e+00	0	25	0	699400192	46	5983
2026-01-09 20:23:10.03	359.63	14.97	-36.5	-37.3	23.7	0.00e+00	0	25	0	701497344	46	5963
2026-01-09 20:23:11.04	359.42	14.95	-36.5	-37.4	23.7	0.00e+00	0	25	0	703594496	46	5983
2026-01-09 20:23:12.05	359.21	14.92	-36.7	-37.6	23.5	0.00e+00	0	25	0	705691648	46	6125
2026-01-09 20:23:13.06	359.00	14.90	-36.5	-37.4	23.7	0.00e+00	0	25	0	707788800	46	6006
2026-01-09 20:23:14.06	358.80	14.88	-36.6	-37.6	23.6	0.00e+00	0	25	0	708837376	46	6104
2026-01-09 20:23:15.07	358.59	14.85	-36.8	-37.7	23.5	0.00e+00	0	25	0	710934528	46	6216
2026-01-09 20:23:16.08	358.38	14.83	-36.7	-37.7	23.5	0.00e+00	0	25	0	713031680	46	6175
2026-01-09 20:23:17.09	358.18	14.80	-36.7	-37.7	23.5	0.00e+00	0	25	0	715128832	46	6182
2026-01-09 20:23:18.10	357.97	14.78	-36.8	-37.7	23.4	0.00e+00	0	25	0	717225984	46	6243
2026-01-09 20:23:19.11	357.77	14.75	-36.9	-37.9	23.3	0.00e+00	0	25	0	718274560	46	6335
2026-01-09 20:23:20.12	357.56	14.73	-36.9	-37.9	23.3	0.00e+00	0	25	0	720371712	46	6342
2026-01-09 20:23:21.13	357.36	14.70	-36.9	-37.8	23.3	0.00e+00	0	25	0	722468864	46	6292
2026-01-09 20:23:22.14	357.15	14.68	-36.9	-37.8	23.4	0.00e+00	0	25	0	724566016	46	6264
2026-01-09 20:23:23.15	356.95	14.65	-36.8	-37.7	23.3	0.00e+00	0	25	0	726663168	46	6240
2026-01-09 20:23:24.16	356.74	14.62	-36.9	-37.9	23.3	0.00e+00	0	25	0	727711744	46	6328
2026-01-09 20:23:25.17	356.54	14.60	-37.0	-37.9	23.3	0.00e+00	0	25	0	729808896	46	6336
2026-01-09 20:23:26.18	356.34	14.57	-36.9	-37.8	23.3	0.00e+00	0	25	0	731906048	46	6298
2026-01-09 20:23:27.19	356.13	14.54	-36.9	-37.8	23.3	0.00e+00	0	25	0	734003200	46	6295
2026-01-09 20:23:28.20	355.93	14.51	-36.9	-37.8	23.3	0.00e+00	0	25	0	736100352	46	6281
2026-01-09 20:23:29.21	355.73	14.49	-37.0	-38.0	23.2	0.00e+00	0	25	0	737148928	46	6392
2026-01-09 20:23:30.22	355.53	14.46	-36.9	-37.8	23.3	0.00e+00	0	25	0	739246080	46	6296
2026-01-09 20:23:31.23	355.32	14.43	-37.0	-37.9	23.2	0.00e+00	0	25	0	741343232	46	6383
2026-01-09 20:23:32.24	355.12	14.40	-37.0	-38.0	23.2	0.00e+00	0	25	0	743440384	46	6393
2026-01-09 20:23:33.24	354.93	14.37	-37.1	-38.1	23.0	0.00e+00	0	25	0	745537536	46	6495
2026-01-09 20:23:34.25	354.73	14.34	-37.0	-38.0	23.3	0.00e+00	0	25	0	746586112	46	6391
2026-01-09 20:23:35.26	354.53	14.31	-37.1	-38.0	23.1	0.00e+00	0	25	0	748683264	46	6462
2026-01-09 20:23:36.27	354.33	14.28	-36.9	-37.8	23.4	0.00e+00	0	25	0	750780416	46	6288
2026-01-09 20:23:37.28	354.13	14.25	-36.9	-37.8	23.2	0.00e+00	0	25	0	752877568	46	6311
2026-01-09 20:23:38.29	353.93	14.22	-36.8	-37.7	23.5	0.00e+00	0	25	0	754974720	46	6176
2026-01-09 20:23:39.30	353.73	14.18	-36.9	-37.8	23.4	0.00e+00	0	25	0	757071872	46	6291
2026-01-09 20:23:40.31	353.53	14.15	-36.8	-37.7	23.4	0.00e+00	0	25	0	758120448	46	6199
2026-01-09 20:23:41.31	353.34	14.12	-36.7	-37.6	23.6	0.00e+00	0	25	0	760217600	46	6132
2026-01-09 20:23:42.32	353.14	14.09	-36.5	-37.4	23.7	0.00e+00	0	25	0	762314752	46	6014
2026-01-09 20:23:43.33	352.95	14.05	-36.6	-37.5	23.6	0.00e+00	0	25	0	764411904	46	6079
2026-01-09 20:23:44.34	352.75	14.02	-36.6	-37.5	23.6	0.00e+00	0	25	0	766509056	46	6067
2026-01-09 20:23:45.35	352.55	13.99	-36.6	-37.5	23.5	0.00e+00	0	25	0	767557632	46	6096
2026-01-09 20:23:46.36	352.36	13.95	-36.6	-37.5	23.6	0.00e+00	0	25	0	769654784	46	6071
2026-01-09 20:23:47.37	352.16	13.92	-36.6	-37.5	23.6	0.00e+00	0	25	0	771751936	46	6087
2026-01-09 20:23:48.38	351.97	13.89	-36.6	-37.5	23.5	0.00e+00	0	25	0	773849088	46	6062
2026-01-09 20:23:49.38	351.78	13.85	-36.8	-37.7	23.1	0.00e+00	0	25	0	775946240	46	6195
2026-01-09 20:23:50.39	351.59	13.82	-36.6	-37.5	23.6	0.00e+00	0	25	0	776994816	46	6094
2026-01-09 20:23:51.40	351.39	13.78	-36.5	-37.4	23.7	0.00e+00	0	25	0	779091968	46	6003
2026-01-09 20:23:52.41	351.20	13.75	-36.6	-37.5	23.5	0.00e+00	0	25	0	781189120	46	6080
2026-01-09 20:23:53.42	351.01	13.71	-36.7	-37.6	23.5	0.00e+00	0	25	0	783286272	46	6115
2026-01-09 20:23:54.42	350.82	13.68	-36.8	-37.7	23.4	0.00e+00	0	25	0	785383424	46	6232
2026-01-09 20:23:55.43	350.63	13.64	-36.7	-37.6	23.5	0.00e+00	0	25	0	786432000	46	6154
2026-01-09 20:23:56.44	350.44	13.60	-36.8	-37.8	23.4	0.00e+00	0	25	0	788529152	46	6247
2026-01-09 20:23:57.45	350.25	13.57	-36.8	-37.7	23.3	0.00e+00	0	25	0	790626304	46	6236
2026-01-09 20:23:58.46	350.06	13.53	-36.8	-37.7	23.4	0.00e+00	0	25	0	792723456	46	6190
2026-01-09 20:23:59.47	349.87	13.49	-37.0	-37.9	22.8	0.00e+00	0	25	0	794820608	46	6339
2026-01-09 20:24:00.48	349.68	13.46	-36.8	-37.7	23.4	0.00e+00	0	25	0	795869184	46	6191
2026-01-09 20:24:01.48	349.50	13.42	-37.0	-37.9	23.2	0.00e+00	0	25	0	797966336	46	6343
2026-01-09 20:24:02.49	349.31	13.38	-36.7	-37.6	23.4	0.00e+00	0	25	0	800063488	46	6143
2026-01-09 20:24:03.50	349.12	13.34	-36.5	-37.4	23.5	0.00e+00	0	25	0	802160640	46	6026
2026-01-09 20:24:04.51	348.94	13.30	-36.7	-37.6	23.5	0.00e+00	0	25	0	804257792	46	6121
2026-01-09 20:24:05.52	348.75	13.27	-36.8	-37.8	23.3	0.00e+00	0	25	0	805306368	46	6248
2026-01-09 20:24:06.53	348.56	13.23	-37.0	-37.9	23.2	0.00e+00	0	25	0	807403520	46	6383
2026-01-09 20:24:07.54	348.38	13.19	-36.8	-37.7	23.4	0.00e+00	0	25	0	809500672	46	6210
2026-01-09 20:24:08.55	348.19	13.15	-36.8	-37.7	23.4	0.00e+00	0	25	0	811597824	46	6201
2026-01-09 20:24:09.56	348.01	13.11	-36.9	-37.8	23.3	0.00e+00	0	25	0	813694976	46	6276
2026-01-09 20:24:10.56	347.83	13.07	-36.8	-37.7	23.4	0.00e+00	0	25	0	814743552	46	6209
2026-01-09 20:24:11.57	347.65	13.03	-36.7	-37.6	23.4	0.00e+00	0	25	0	816840704	46	6156
2026-01-09 20:24:12.58	347.46	12.99	-36.8	-37.7	23.4	0.00e+00	0	25	0	818937856	46	6212
2026-01-09 20:24:13.59	347.28	12.95	-36.8	-37.7	23.4	0.00e+00	0	25	0	821035008	46	6190
2026-01-09 20:24:14.60	347.10	12.91	-36.9	-37.8	23.4	0.00e+00	0	25	0	823132160	46	6279
2026-01-09 20:24:15.61	346.92	12.87	-36.9	-37.8	23.1	0.00e+00	0	25	0	824180736	46	6304
2026-01-09 20:24:16.62	346.74	12.83	-37.0	-38.0	23.0	0.00e+00	0	25	0	826277888	46	6408
2026-01-09 20:24:17.63	346.56	12.79	-37.3	-38.3	22.9	0.00e+00	0	25	0	828375040	46	6643
2026-01-09 20:24:18.64	346.38	12.74	-37.1	-38.1	23.0	0.00e+00	0	25	0	830472192	46	6515
2026-01-09 20:24:19.65	346.20	12.70	-37.2	-38.2	23.0	0.00e+00	0	25	0	832569344	46	6579
2026-01-09 20:24:20.66	346.02	12.66	-37.3	-38.4	22.8	0.00e+00	0	25	0	833617920	46	6709
2026-01-09 20:24:21.67	345.84	12.62	-37.4	-38.4	22.7	0.00e+00	0	25	0	835715072	46	6709
2026-01-09 20:24:22.68	345.67	12.58	-37.4	-38.5	22.7	0.00e+00	0	25	0	837812224	46	6784
2026-01-09 20:24:23.68	345.49	12.53	-37.6	-38.6	22.5	0.00e+00	0	25	0	839909376	46	6887
2026-01-09 20:24:24.69	345.31	12.49	-37.5	-38.5	22.6	0.00e+00	0	25	0	842006528	46	6826
2026-01-09 20:24:25.70	345.14	12.45	-37.6	-38.6	22.5	0.00e+00	0	25	0	843055104	46	6902
2026-01-09 20:24:26.71	344.96	12.41	-37.6	-38.7	22.5	0.00e+00	0	25	0	845152256	46	6950
2026-01-09 20:24:27.72	344.79	12.36	-37.7	-38.8	22.4	0.00e+00	0	25	0	847249408	46	7017
2026-01-09 20:24:28.73	344.61	12.32	-37.7	-38.8	22.2	0.00e+00	0	25	0	849346560	46	7065
2026-01-09 20:24:29.74	344.44	12.28	-37.9	-39.0	22.1	0.00e+00	0	25	0	851443712	48	6425
2026-01-09 20:24:30.75	344.27	12.23	-37.8	-38.9	22.3	0.00e+00	0	25	0	853540864	48	6320
2026-01-09 20:24:31.76	344.09	12.19	-37.9	-39.0	22.2	0.00e+00	0	25	0	854589440	48	6438
2026-01-09 20:24:32.77	343.92	12.14	-38.0	-39.1	22.0	0.00e+00	0	25	0	856686592	48	6500
2026-01-09 20:24:33.78	343.75	12.10	-38.0	-39.2	22.0	0.00e+00	0	25	0	858783744	48	6554
2026-01-09 20:24:34.79	343.58	12.05	-38.1	-39.3	21.9	0.00e+00	0	25	0	860880896	48	6644
2026-01-09 20:24:35.80	343.41	12.01	-38.2	-39.4	21.8	0.00e+00	0	25	0	862978048	48	6736
2026-01-09 20:24:36.80	343.24	11.97	-38.4	-39.6	21.5	0.00e+00	0	25	0	864026624	48	6904
2026-01-09 20:24:37.81	343.07	11.92	-38.4	-39.6	21.6	0.00e+00	0	25	0	866123776	48	6867
2026-01-09 20:24:38.82	342.90	11.88	-38.5	-39.8	21.5	0.00e+00	0	25	0	868220928	48	7018
2026-01-09 20:24:39.83	342.73	11.83	-38.7	-40.0	21.2	0.00e+00	0	25	0	870318080	48	7193
2026-01-09 20:24:40.84	342.57	11.78	-38.7	-39.9	21.3	0.00e+00	0	25	0	872415232	50	6388
2026-01-09 20:24:41.85	342.40	11.74	-38.8	-40.1	21.1	0.00e+00	0	25	0	873463808	50	6524
2026-01-09 20:24:42.86	342.23	11.69	-38.9	-40.2	21.1	0.00e+00	0	25	0	875560960	50	6541
2026-01-09 20:24:43.87	342.07	11.65	-38.9	-40.1	21.1	0.00e+00	0	25	0	877658112	50	6519
2026-01-09 20:24:44.88	341.90	11.60	-38.8	-40.0	21.2	0.00e+00	0	25	0	879755264	50	6462
2026-01-09 20:24:45.89	341.73	11.56	-38.9	-40.2	21.0	0.00e+00	0	25	0	881852416	50	6570
2026-01-09 20:24:46.90	341.57	11.51	-39.0	-40.3	21.1	0.00e+00	0	25	0	882900992	50	6616
2026-01-09 20:24:47.90	341.41	11.46	-38.9	-40.1	21.1	0.00e+00	0	25	0	884998144	50	6523
2026-01-09 20:24:48.91	341.24	11.42	-39.0	-40.3	21.0	0.00e+00	0	25	0	887095296	50	6640
2026-01-09 20:24:49.92	341.08	11.37	-39.1	-40.4	20.6	0.00e+00	0	25	0	889192448	50	6743
2026-01-09 20:24:50.93	340.92	11.32	-39.2	-40.6	20.7	0.00e+00	0	25	0	891289600	50	6880
2026-01-09 20:24:51.94	340.76	11.28	-39.4	-40.7	20.6	0.00e+00	0	25	0	892338176	50	7003
2026-01-09 20:24:52.95	340.59	11.23	-39.4	-40.8	20.5	0.00e+00	0	25	0	894435328	50	7060
2026-01-09 20:24:53.96	340.43	11.18	-39.4	-40.8	20.4	0.00e+00	0	25	0	896532480	50	7061
2026-01-09 20:24:54.97	340.27	11.13	-39.3	-40.7	20.6	0.00e+00	0	25	0	898629632	50	6961
2026-01-09 20:24:55.98	340.11	11.09	-39.4	-40.8	20.5	0.00e+00	0	25	0	900726784	50	7027
2026-01-09 20:24:56.99	339.95	11.04	-39.3	-40.6	20.6	0.00e+00	0	25	0	901775360	50	6911
2026-01-09 20:24:58.00	339.79	10.99	-39.3	-40.7	20.5	0.00e+00	0	25	0	903872512	50	6963
2026-01-09 20:24:59.01	339.64	10.94	-39.3	-40.7	20.5	0.00e+00	0	25	0	905969664	50	6971
2026-01-09 20:25:00.02	339.48	10.89	-39.4	-40.7	20.5	0.00e+00	0	25	0	908066816	50	7002
2026-01-09 20:25:01.03	339.32	10.85	-39.5	-40.9	20.3	0.00e+00	0	25	0	910163968	50	7139
2026-01-09 20:25:02.04	339.16	10.80	-39.6	-41.0	20.2	0.00e+00	0	25	0	911212544	50	7231
2026-01-09 20:25:03.04	339.01	10.75	-39.6	-41.0	20.3	0.00e+00	0	25	0	913309696	50	7225
2026-01-09 20:25:04.06	338.85	10.70	-39.6	-41.0	20.2	0.00e+00	0	25	0	915406848	50	7224
2026-01-09 20:25:05.06	338.70	10.65	-39.5	-41.0	20.2	0.00e+00	0	25	0	917504000	50	7211
2026-01-09 20:25:06.07	338.54	10.60	-39.6	-41.0	20.2	0.00e+00	0	25	0	919601152	50	7248
2026-01-09 20:25:07.08	338.39	10.55	-39.7	-41.1	20.0	0.00e+00	0	25	0	921698304	50	7323
2026-01-09 20:25:08.09	338.23	10.51	-39.7	-41.2	20.0	0.00e+00	0	25	0	922746880	50	7345
2026-01-09 20:25:09.10	338.08	10.46	-39.7	-41.2	20.2	0.00e+00	0	25	0	924844032	50	7346
2026-01-09 20:25:10.11	337.93	10.41	-39.6	-41.0	20.1	0.00e+00	0	25	0	926941184	50	7204
2026-01-09 20:25:11.12	337.78	10.36	-39.5	-40.9	20.3	0.00e+00	0	25	0	929038336	50	7159
2026-01-09 20:25:12.13	337.63	10.31	-39.6	-41.0	20.2	0.00e+00	0	25	0	931135488	50	7179
2026-01-09 20:25:13.14	337.47	10.26	-39.5	-40.9	20.3	0.00e+00	0	25	0	932184064	50	7146
2026-01-09 20:25:14.15	337.32	10.21	-39.6	-40.9	20.2	0.00e+00	0	25	0	934281216	50	7157
2026-01-09 20:25:15.16	337.17	10.16	-39.5	-40.8	20.3	0.00e+00	0	25	0	936378368	50	7058
2026-01-09 20:25:16.17	337.02	10.11	-39.6	-40.9	20.3	0.00e+00	0	25	0	938475520	50	7145
2026-01-09 20:25:17.18	336.88	10.06	-39.6	-40.9	20.2	0.00e+00	0	25	0	940572672	50	7152
2026-01-09 20:25:18.19	336.73	10.01	-39.6	-40.9	20.3	0.00e+00	0	25	0	941621248	50	7153
2026-01-09 20:25:19.20	336.58	9.96	-39.6	-41.0	20.2	0.00e+00	0	25	0	943718400	50	7199
2026-01-09 20:25:20.21	336.43	9.91	-39.6	-41.0	20.1	0.00e+00	0	25	0	945815552	50	7184
2026-01-09 20:25:21.22	336.28	9.86	-39.5	-40.8	20.4	0.00e+00	0	25	0	947912704	50	7087
2026-01-09 20:25:22.23	336.14	9.81	-39.4	-40.8	20.3	0.00e+00	0	25	0	950009856	50	7030
2026-01-09 20:25:23.24	335.99	9.76	-39.4	-40.7	20.4	0.00e+00	0	25	0	951058432	50	6995
2026-01-09 20:25:24.25	335.85	9.71	-39.3	-40.7	20.5	0.00e+00	0	25	0	953155584	50	6928
2026-01-09 20:25:25.26	335.70	9.66	-39.3	-40.6	20.5	0.00e+00	0	25	0	955252736	50	6868
2026-01-09 20:25:26.26	335.56	9.61	-39.1	-40.3	20.8	0.00e+00	0	25	0	957349888	50	6692
2026-01-09 20:25:27.27	335.41	9.56	-39.2	-40.5	20.6	0.00e+00	0	25	0	959447040	50	6807
2026-01-09 20:25:28.28	335.27	9.51	-39.1	-40.3	20.8	0.00e+00	0	25	0	960495616	50	6671
2026-01-09 20:25:29.29	335.13	9.46	-39.2	-40.5	20.7	0.00e+00	0	25	0	962592768	50	6793
2026-01-09 20:25:30.29	334.99	9.41	-39.2	-40.5	20.7	0.00e+00	0	25	0	964689920	50	6807
2026-01-09 20:25:31.30	334.85	9.36	-39.0	-40.2	20.9	0.00e+00	0	25	0	966787072	50	6612
2026-01-09 20:25:32.31	334.70	9.30	-39.1	-40.3	20.8	0.00e+00	0	25	0	968884224	50	6676
2026-01-09 20:25:33.32	334.56	9.25	-38.9	-40.2	20.9	0.00e+00	0	25	0	969932800	50	6558
2026-01-09 20:25:34.32	334.42	9.20	-38.9	-40.1	21.0	0.00e+00	0	25	0	972029952	50	6478
2026-01-09 20:25:35.33	334.29	9.15	-38.8	-40.0	21.1	0.00e+00	0	25	0	974127104	50	6435
2026-01-09 20:25:36.34	334.15	9.10	-38.7	-39.9	21.2	0.00e+00	0	25	0	976224256	50	6363
2026-01-09 20:25:37.35	334.01	9.05	-38.7	-39.9	21.2	0.00e+00	0	25	0	978321408	50	6388
2026-01-09 20:25:38.36	333.87	9.00	-38.7	-39.8	21.2	0.00e+00	0	25	0	979369984	50	6316
2026-01-09 20:25:39.37	333.73	8.95	-38.6	-39.8	21.3	0.00e+00	0	25	0	981467136	50	6265
2026-01-09 20:25:40.38	333.59	8.90	-38.7	-39.8	21.2	0.00e+00	0	25	0	983564288	50	6308
2026-01-09 20:25:41.39	333.46	8.84	-38.5	-39.6	21.4	0.00e+00	0	25	0	985661440	50	6164
2026-01-09 20:25:42.40	333.32	8.79	-38.5	-39.6	21.4	0.00e+00	0	25	0	987758592	50	6158
2026-01-09 20:25:43.40	333.19	8.74	-38.5	-39.7	21.3	0.00e+00	0	25	0	988807168	50	6193
2026-01-09 20:25:44.41	333.05	8.69	-38.4	-39.6	21.4	0.00e+00	0	25	0	990904320	50	6132
2026-01-09 20:25:45.43	332.91	8.64	-38.5	-39.7	21.4	0.00e+00	0	25	0	993001472	50	6183
2026-01-09 20:25:46.43	332.78	8.59	-38.2	-39.3	21.7	0.00e+00	0	25	0	995098624	50	5945
2026-01-09 20:25:47.44	332.65	8.53	-38.3	-39.4	21.6	0.00e+00	0	25	0	997195776	50	6030
2026-01-09 20:25:48.45	332.51	8.48	-38.1	-39.2	21.8	0.00e+00	0	25	0	998244352	50	5835
2026-01-09 20:25:49.46	332.38	8.43	-38.2	-39.3	21.7	0.00e+00	0	25	0	1000341504	50	5959
2026-01-09 20:25:50.47	332.25	8.38	-38.0	-39.1	21.9	0.00e+00	0	25	0	1002438656	50	5762
2026-01-09 20:25:51.47	332.12	8.33	-37.9	-39.0	21.9	0.00e+00	0	25	0	1004535808	50	5735
2026-01-09 20:25:52.48	331.99	8.28	-37.9	-39.0	22.0	0.00e+00	0	25	0	1006632960	50	5719
2026-01-09 20:25:53.49	331.86	8.22	-37.7	-38.8	22.3	0.00e+00	0	25	0	1007681536	48	6255
2026-01-09 20:25:54.50	331.72	8.17	-37.8	-38.8	22.1	0.00e+00	0	25	0	1009778688	48	6301
2026-01-09 20:25:55.51	331.59	8.12	-37.7	-38.8	22.2	0.00e+00	0	25	0	1011875840	48	6268
2026-01-09 20:25:56.52	331.47	8.07	-37.6	-38.7	22.2	0.00e+00	0	25	0	1013972992	48	6202
2026-01-09 20:25:57.52	331.34	8.02	-37.6	-38.6	22.4	0.00e+00	0	25	0	1016070144	48	6128
2026-01-09 20:25:58.53	331.21	7.96	-37.6	-38.7	22.2	0.00e+00	0	25	0	1018167296	48	6207
2026-01-09 20:25:59.54	331.08	7.91	-37.4	-38.4	22.4	0.00e+00	0	25	0	1019215872	48	6027
2026-01-09 20:26:00.55	330.95	7.86	-37.6	-38.7	22.3	0.00e+00	0	25	0	1021313024	48	6199
2026-01-09 20:26:01.56	330.83	7.81	-37.5	-38.5	22.4	0.00e+00	0	25	0	1023410176	48	6101
2026-01-09 20:26:02.57	330.70	7.76	-37.5	-38.5	22.3	0.00e+00	0	25	0	1025507328	48	6103
2026-01-09 20:26:03.58	330.57	7.70	-37.6	-38.7	22.2	0.00e+00	0	25	0	1027604480	48	6197
2026-01-09 20:26:04.59	330.45	7.65	-37.5	-38.5	22.4	0.00e+00	0	25	0	1028653056	48	6066
2026-01-09 20:26:05.60	330.32	7.60	-37.6	-38.7	22.2	0.00e+00	0	25	0	1030750208	48	6201
2026-01-09 20:26:06.61	330.20	7.55	-37.5	-38.5	22.1	0.00e+00	0	25	0	1032847360	48	6056
2026-01-09 20:26:07.62	330.07	7.49	-37.5	-38.6	22.2	0.00e+00	0	25	0	1034944512	48	6107
2026-01-09 20:26:08.63	329.95	7.44	-37.4	-38.4	22.4	0.00e+00	0	25	0	1035993088	48	5982
2026-01-09 20:26:09.64	329.82	7.39	-37.4	-38.4	22.4	0.00e+00	0	25	0	1038090240	48	6019
2026-01-09 20:26:10.64	329.70	7.34	-37.4	-38.4	22.4	0.00e+00	0	25	0	1040187392	48	6023
2026-01-09 20:26:11.65	329.58	7.28	-37.5	-38.6	22.2	0.00e+00	0	25	0	1042284544	48	6110
2026-01-09 20:26:12.66	329.46	7.23	-37.5	-38.5	22.3	0.00e+00	0	25	0	1044381696	48	6075
2026-01-09 20:26:13.67	329.34	7.18	-37.6	-38.7	21.7	0.00e+00	0	25	0	1046478848	48	6203
2026-01-09 20:26:14.68	329.22	7.13	-37.5	-38.5	22.3	0.00e+00	0	25	0	1047527424	48	6103
2026-01-09 20:26:15.69	329.09	7.07	-37.5	-38.5	22.2	0.00e+00	0	25	0	1049624576	48	6097
2026-01-09 20:26:16.70	328.97	7.02	-37.6	-38.7	22.1	0.00e+00	0	25	0	1051721728	48	6183
2026-01-09 20:26:17.71	328.85	6.97	-37.5	-38.5	22.3	0.00e+00	0	25	0	1053818880	48	6103
2026-01-09 20:26:18.72	328.73	6.92	-37.5	-38.6	22.3	0.00e+00	0	25	0	1055916032	48	6115
2026-01-09 20:26:19.73	328.62	6.86	-37.5	-38.5	22.3	0.00e+00	0	25	0	1056964608	48	6084
2026-01-09 20:26:20.74	328.50	6.81	-37.8	-38.8	22.1	0.00e+00	0	25	0	1059061760	48	6312
2026-01-09 20:26:21.75	328.38	6.76	-37.6	-38.7	22.2	0.00e+00	0	25	0	1061158912	48	6209
2026-01-09 20:26:22.76	328.26	6.71	-37.6	-38.7	22.2	0.00e+00	0	25	0	1063256064	48	6182
2026-01-09 20:26:23.77	328.14	6.65	-37.8	-38.8	22.0	0.00e+00	0	25	0	1065353216	48	6312
2026-01-09 20:26:24.78	328.03	6.60	-37.8	-38.9	21.9	0.00e+00	0	25	0	1066401792	48	6353
2026-01-09 20:26:25.78	327.91	6.55	-37.8	-38.9	22.0	0.00e+00	0	25	0	1068498944	48	6351
2026-01-09 20:26:26.79	327.80	6.50	-37.9	-39.0	21.9	0.00e+00	0	25	0	1070596096	48	6399
2026-01-09 20:26:27.80	327.68	6.44	-37.9	-39.0	21.9	0.00e+00	0	25	0	1072693248	48	6418
2026-01-09 20:26:28.81	327.57	6.39	-37.9	-39.0	21.8	0.00e+00	0	25	0	1074790400	48	6457
2026-01-09 20:26:29.82	327.45	6.34	-38.0	-39.1	21.7	0.00e+00	0	25	0	1075838976	48	6519
2026-01-09 20:26:30.83	327.34	6.29	-38.1	-39.2	21.6	0.00e+00	0	25	0	1077936128	48	6585
2026-01-09 20:26:31.84	327.22	6.23	-38.0	-39.2	21.7	0.00e+00	0	25	0	1080033280	48	6549
2026-01-09 20:26:32.85	327.11	6.18	-38.1	-39.3	21.5	0.00e+00	0	25	0	1082130432	48	6625
2026-01-09 20:26:33.86	327.00	6.13	-38.1	-39.2	21.6	0.00e+00	0	25	0	1084227584	48	6600
2026-01-09 20:26:34.87	326.88	6.07	-38.1	-39.2	21.5	0.00e+00	0	25	0	1085276160	48	6594
2026-01-09 20:26:35.88	326.77	6.02	-38.1	-39.3	21.5	0.00e+00	0	25	0	1087373312	48	6645
2026-01-09 20:26:36.89	326.66	5.97	-38.1	-39.3	21.6	0.00e+00	0	25	0	1089470464	48	6631
2026-01-09 20:26:37.90	326.55	5.92	-38.2	-39.3	21.6	0.00e+00	0	25	0	1091567616	48	6671
2026-01-09 20:26:38.91	326.44	5.86	-38.0	-39.1	21.7	0.00e+00	0	25	0	1093664768	48	6526
2026-01-09 20:26:39.92	326.33	5.81	-38.1	-39.2	21.6	0.00e+00	0	25	0	1094713344	48	6552
2026-01-09 20:26:40.92	326.22	5.76	-38.1	-39.2	21.6	0.00e+00	0	25	0	1096810496	48	6576
2026-01-09 20:26:41.93	326.11	5.71	-38.1	-39.2	21.6	0.00e+00	0	25	0	1098907648	48	6583
2026-01-09 20:26:42.94	326.00	5.65	-38.1	-39.3	21.5	0.00e+00	0	25	0	1101004800	48	6629
2026-01-09 20:26:43.95	325.89	5.60	-38.4	-39.6	21.3	0.00e+00	0	25	0	1103101952	48	6856
2026-01-09 20:26:44.96	325.78	5.55	-38.4	-39.5	21.3	0.00e+00	0	25	0	1104150528	48	6848
2026-01-09 20:26:45.97	325.67	5.50	-38.3	-39.5	21.2	0.00e+00	0	25	0	1106247680	48	6812
2026-01-09 20:26:46.97	325.57	5.44	-38.5	-39.7	21.0	0.00e+00	0	25	0	1108344832	48	6977
2026-01-09 20:26:47.98	325.46	5.39	-38.5	-39.6	21.2	0.00e+00	0	25	0	1110441984	48	6910
2026-01-09 20:26:48.99	325.35	5.34	-38.7	-39.9	20.9	0.00e+00	0	25	0	1112539136	50	6359
2026-01-09 20:26:50.00	325.25	5.29	-38.8	-40.0	20.8	0.00e+00	0	25	0	1114636288	50	6427
2026-01-09 20:26:51.01	325.14	5.23	-39.2	-40.5	20.2	0.00e+00	0	25	0	1115684864	50	6806
2026-01-09 20:26:52.02	325.03	5.18	-38.7	-39.9	20.8	0.00e+00	0	25	0	1117782016	50	6375
2026-01-09 20:26:53.03	324.93	5.13	-38.7	-40.0	20.8	0.00e+00	0	25	0	1119879168	50	6412
2026-01-09 20:26:54.04	324.82	5.08	-38.9	-40.2	20.5	0.00e+00	0	25	0	1121976320	50	6560
2026-01-09 20:26:55.05	324.72	5.02	-39.0	-40.3	20.4	0.00e+00	0	25	0	1124073472	50	6649
2026-01-09 20:26:56.06	324.62	4.97	-39.2	-40.5	20.3	0.00e+00	0	25	0	1125122048	50	6793
2026-01-09 20:26:57.07	324.51	4.92	-39.3	-40.6	20.2	0.00e+00	0	25	0	1127219200	50	6920
2026-01-09 20:26:58.08	324.41	4.87	-39.2	-40.5	20.2	0.00e+00	0	25	0	1129316352	50	6845
2026-01-09 20:26:59.09	324.31	4.81	-39.0	-40.3	20.3	0.00e+00	0	25	0	1131413504	50	6677
2026-01-09 20:27:00.10	324.20	4.76	-39.3	-40.6	20.1	0.00e+00	0	25	0	1133510656	50	6919
2026-01-09 20:27:01.11	324.10	4.71	-39.3	-40.7	20.0	0.00e+00	0	25	0	1134559232	50	6949
2026-01-09 20:27:02.12	324.00	4.66	-39.4	-40.7	20.1	0.00e+00	0	25	0	1136656384	50	6996
2026-01-09 20:27:03.13	323.90	4.61	-38.7	-39.9	20.8	0.00e+00	0	25	0	1138753536	50	6366
2026-01-09 20:27:04.14	323.80	4.55	-39.1	-40.4	20.3	0.00e+00	0	25	0	1140850688	50	6695
2026-01-09 20:27:05.15	323.70	4.50	-39.2	-40.5	20.2	2.20e-06	0	25	0	1142947840	50	6846
2026-01-09 20:27:06.16	323.59	4.45	-39.2	-40.6	20.0	0.00e+00	0	25	0	1143996416	50	6874
2026-01-09 20:27:07.17	323.49	4.40	-39.0	-40.3	20.4	0.00e+00	0	25	0	1146093568	50	6671
2026-01-09 20:27:08.18	323.40	4.34	-39.2	-40.5	20.1	0.00e+00	0	25	0	1148190720	50	6846
2026-01-09 20:27:09.19	323.30	4.29	-39.5	-40.9	19.8	0.00e+00	0	25	0	1150287872	50	7149
2026-01-09 20:27:10.20	323.20	4.24	-39.4	-40.8	19.9	0.00e+00	0	25	0	1152385024	50	7056
2026-01-09 20:27:11.21	323.10	4.19	-39.5	-41.0	19.7	0.00e+00	0	25	0	1153433600	50	7176
2026-01-09 20:27:12.22	323.00	4.13	-39.8	-41.2	19.5	0.00e+00	0	25	0	1155530752	50	7390
2026-01-09 20:27:13.23	322.90	4.08	-39.6	-41.1	19.7	0.00e+00	0	25	0	1157627904	52	6479
2026-01-09 20:27:14.24	322.81	4.03	-39.6	-41.0	19.6	0.00e+00	0	25	0	1159725056	52	6459
2026-01-09 20:27:15.25	322.71	3.98	-39.5	-40.9	19.8	0.00e+00	0	25	0	1161822208	52	6322
2026-01-09 20:27:16.26	322.61	3.93	-39.7	-41.1	19.5	0.00e+00	0	25	0	1162870784	52	6519
2026-01-09 20:27:17.27	322.52	3.87	-39.9	-41.4	19.3	0.00e+00	0	25	0	1164967936	52	6751
2026-01-09 20:27:18.27	322.42	3.82	-40.0	-41.6	19.0	0.00e+00	0	25	0	1167065088	52	6883
2026-01-09 20:27:19.28	322.32	3.77	-40.0	-41.5	19.1	0.00e+00	0	25	0	1169162240	52	6803
2026-01-09 20:27:20.29	322.23	3.72	-40.2	-41.8	18.8	0.00e+00	0	25	0	1171259392	52	7023
2026-01-09 20:27:21.30	322.13	3.67	-39.8	-41.3	19.2	0.00e+00	0	25	0	1172307968	52	6688
2026-01-09 20:27:22.31	322.04	3.61	-40.2	-41.8	18.7	0.00e+00	0	25	0	1174405120	52	7080
2026-01-09 20:27:23.32	321.95	3.56	-40.1	-41.6	19.0	0.00e+00	0	25	0	1176502272	52	6896
2026-01-09 20:27:24.33	321.85	3.51	-39.8	-41.3	19.3	0.00e+00	0	25	0	1178599424	52	6691
2026-01-09 20:27:25.34	321.76	3.46	-40.0	-41.5	19.0	0.00e+00	0	25	0	1180696576	52	6835
2026-01-09 20:27:26.35	321.66	3.41	-40.1	-41.6	18.9	0.00e+00	0	25	0	1182793728	52	6916
2026-01-09 20:27:27.36	321.57	3.36	-40.2	-41.8	18.7	0.00e+00	0	25	0	1183842304	52	7051
2026-01-09 20:27:28.37	321.48	3.30	-39.8	-41.4	19.1	0.00e+00	0	25	0	1185939456	52	6696
2026-01-09 20:27:29.38	321.39	3.25	-40.2	-41.8	18.7	0.00e+00	0	25	0	1188036608	52	7040
2026-01-09 20:27:30.38	321.30	3.20	-40.4	-42.1	18.5	0.00e+00	0	25	0	1190133760	52	7282
2026-01-09 20:27:31.39	321.20	3.15	-40.5	-42.2	18.3	0.00e+00	0	25	0	1192230912	52	7395
2026-01-09 20:27:32.40	321.11	3.10	-40.3	-41.9	18.7	0.00e+00	0	25	0	1193279488	52	7138
2026-01-09 20:27:33.41	321.02	3.05	-40.2	-41.8	18.5	0.00e+00	0	25	0	1195376640	52	7082
2026-01-09 20:27:34.42	320.93	2.99	-40.9	-42.8	15.2	0.00e+00	0	25	0	1197473792	52	7875
2026-01-09 20:27:35.43	320.84	2.94	-47.1	-62.3	3.6	1.51e+00	0	25	104	1197473792	60	47015
2026-01-09 20:27:36.44	320.75	2.89	-47.5	-62.7	3.6	1.51e+00	0	25	104	1197473792	60	49174
2026-01-09 20:27:37.45	320.66	2.84	-47.7	-62.8	3.6	1.51e+00	0	25	104	1197473792	60	50077
