passes_logs/2026/01/09/R4.6S_Anadyr/R4.6S_Anadyr__20260109_224303_NOAA_21_JPSS-2_rec.log

#Pass ID: 20260109_224303_NOAA 21 (JPSS-2)
#Satellite: NOAA 21 (JPSS-2)
#Configuration: NOAA-21
#almurnet v.1.7.20251203
#Start time: 2026-01-09 22:43:08

#Version: 2.2.20231116
#Station: R4.6S_Anadyr
#Location: 177.4865 lon 64.73178 lat
#TLE: 1 54234U 22150A   26008.59854928  .00000127  00000+0  81204-4 0  9992
#TLE: 2 54234  98.7494 309.5759 0000887 327.7487  32.3634 14.19533414163905

#Time	Az	El	Level	Level2	SNR	BER	BlckErr	Temp	State	Recorded	gain1	gain2
2026-01-09 22:43:08.74	119.64	0.32	-48.0	-49.5	5.7	0.00e+00	0	22	0	0	60	36389
2026-01-09 22:43:09.72	119.60	0.37	-48.2	-61.0	3.5	1.52e+00	0	24	104	0	60	39533
2026-01-09 22:43:10.69	119.57	0.43	-48.1	-60.9	3.5	1.52e+00	0	24	104	0	60	38885
2026-01-09 22:43:11.67	119.53	0.49	-48.0	-60.8	3.5	1.52e+00	0	24	104	0	60	38692
2026-01-09 22:43:12.65	119.50	0.54	-48.0	-60.8	3.5	1.52e+00	0	24	104	0	60	38698
2026-01-09 22:43:13.62	119.46	0.60	-47.8	-60.8	3.5	1.52e+00	0	24	104	0	60	38367
2026-01-09 22:43:14.60	119.42	0.66	-47.9	-60.7	3.5	1.52e+00	0	24	104	0	60	38211
2026-01-09 22:43:15.58	119.39	0.72	-47.7	-60.7	3.5	1.52e+00	0	24	104	0	60	38053
2026-01-09 22:43:16.56	119.35	0.77	-47.7	-60.6	3.5	1.52e+00	0	24	104	0	60	37663
2026-01-09 22:43:17.53	119.31	0.83	-47.5	-60.5	3.5	1.52e+00	0	24	104	0	60	36986
2026-01-09 22:43:18.51	119.28	0.89	-46.8	-60.4	3.5	1.52e+00	0	24	104	0	60	36564
2026-01-09 22:43:19.49	119.24	0.95	-46.8	-60.2	3.5	1.52e+00	0	24	104	0	60	35874
2026-01-09 22:43:20.47	119.20	1.01	-47.1	-59.9	3.5	1.52e+00	0	24	104	0	60	34687
2026-01-09 22:43:21.45	119.16	1.06	-46.3	-59.2	3.5	1.52e+00	0	24	104	0	60	32003
2026-01-09 22:43:22.42	119.12	1.12	-45.4	-59.0	3.5	1.52e+00	0	24	104	0	60	31419
2026-01-09 22:43:23.40	119.09	1.18	-45.4	-59.1	3.5	1.52e+00	0	24	104	0	60	31584
2026-01-09 22:43:24.37	119.05	1.24	-45.4	-59.1	3.5	1.52e+00	0	24	104	0	60	31789
2026-01-09 22:43:25.36	119.01	1.30	-45.4	-59.1	3.5	1.52e+00	0	24	104	0	60	31751
2026-01-09 22:43:26.33	118.97	1.36	-45.4	-59.1	3.5	1.52e+00	0	24	104	0	60	31692
2026-01-09 22:43:27.31	118.93	1.41	-45.4	-59.1	3.5	1.51e+00	0	24	104	0	60	31722
2026-01-09 22:43:28.29	118.89	1.47	-45.4	-59.1	3.5	1.52e+00	0	24	104	0	60	31635
2026-01-09 22:43:29.26	118.86	1.53	-45.4	-59.1	3.5	1.52e+00	0	24	104	0	60	31568
2026-01-09 22:43:30.24	118.82	1.59	-45.4	-59.2	3.5	1.52e+00	0	24	104	0	60	31846
2026-01-09 22:43:31.22	118.78	1.65	-45.5	-59.1	3.5	1.52e+00	0	24	104	0	60	31469
2026-01-09 22:43:32.21	118.74	1.71	-45.5	-59.1	3.5	1.51e+00	0	24	104	0	60	31574
2026-01-09 22:43:33.19	118.70	1.77	-45.5	-59.1	3.5	1.52e+00	0	24	104	0	60	31550
2026-01-09 22:43:34.16	118.66	1.83	-45.4	-59.0	3.5	1.52e+00	0	24	104	0	60	31409
2026-01-09 22:43:35.14	118.62	1.89	-45.4	-59.0	3.5	1.52e+00	0	24	104	0	60	31196
2026-01-09 22:43:36.12	118.58	1.95	-45.5	-58.9	3.5	1.52e+00	0	24	104	0	60	30966
2026-01-09 22:43:37.10	118.54	2.01	-45.4	-58.9	3.5	1.52e+00	0	24	104	0	60	30891
2026-01-09 22:43:38.07	118.50	2.07	-45.4	-58.9	3.5	1.52e+00	0	24	104	0	60	30944
2026-01-09 22:43:39.05	118.46	2.13	-45.4	-58.8	3.5	1.52e+00	0	24	104	0	60	30451
2026-01-09 22:43:40.03	118.42	2.19	-45.4	-58.8	3.5	1.52e+00	0	24	104	0	60	30730
2026-01-09 22:43:41.01	118.37	2.25	-45.4	-59.0	3.5	1.52e+00	0	24	104	0	60	31138
2026-01-09 22:43:41.99	118.33	2.31	-45.5	-59.0	3.5	1.52e+00	0	24	104	0	60	31226
2026-01-09 22:43:42.96	118.29	2.37	-45.4	-59.1	3.5	1.52e+00	0	24	104	0	60	31521
2026-01-09 22:43:43.94	118.25	2.43	-45.5	-59.1	3.5	1.52e+00	0	24	104	0	60	31514
2026-01-09 22:43:44.92	118.21	2.49	-45.5	-59.0	3.5	1.52e+00	0	24	104	0	60	31273
2026-01-09 22:43:45.89	118.17	2.55	-45.4	-59.0	3.5	1.51e+00	0	24	104	0	60	31372
2026-01-09 22:43:46.87	118.12	2.61	-45.4	-58.9	3.5	1.52e+00	0	24	104	0	60	31064
2026-01-09 22:43:47.85	118.08	2.67	-45.5	-58.9	3.5	1.52e+00	0	24	104	0	60	30992
2026-01-09 22:43:48.83	118.04	2.73	-45.4	-58.7	3.5	1.52e+00	0	25	104	0	60	30346
2026-01-09 22:43:49.81	118.00	2.80	-45.5	-58.6	3.5	1.52e+00	0	24	104	0	60	29733
2026-01-09 22:43:50.78	117.95	2.86	-45.4	-58.3	3.5	1.52e+00	0	24	104	0	60	28809
2026-01-09 22:43:51.76	117.91	2.92	-45.4	-58.2	3.5	1.51e+00	0	24	104	0	60	28511
2026-01-09 22:43:52.74	117.87	2.98	-45.4	-58.3	3.5	1.51e+00	0	24	104	0	60	28890
2026-01-09 22:43:53.71	117.82	3.04	-45.4	-58.7	3.5	1.52e+00	0	24	104	0	60	30174
2026-01-09 22:43:54.69	117.78	3.10	-45.4	-59.0	3.5	1.52e+00	0	24	104	0	60	31377
2026-01-09 22:43:55.67	117.74	3.17	-45.4	-57.6	3.5	1.51e+00	0	25	104	0	60	26738
2026-01-09 22:43:56.64	117.69	3.23	-45.1	-54.4	4.8	1.19e+00	0	24	104	0	60	18342
2026-01-09 22:43:57.62	117.65	3.29	-44.5	-50.7	7.2	1.58e-01	0	24	0	0	60	11963
2026-01-09 22:43:58.60	117.60	3.35	-43.7	-48.1	9.9	2.03e-02	0	24	0	3145728	60	8936
2026-01-09 22:43:59.58	117.56	3.42	-42.3	-45.4	12.9	1.27e-04	0	24	0	6291456	58	7322
2026-01-09 22:44:00.55	117.51	3.48	-41.1	-43.6	14.7	4.50e-06	0	24	0	9437184	56	6673
2026-01-09 22:44:01.54	117.47	3.54	-40.4	-42.5	15.9	0.00e+00	0	24	0	12582912	54	6609
2026-01-09 22:44:02.52	117.42	3.60	-39.7	-41.6	16.7	0.00e+00	0	24	0	14680064	52	6658
2026-01-09 22:44:03.49	117.38	3.67	-45.0	-51.2	3.6	7.60e-06	0	24	0	17825792	56	15963
2026-01-09 22:44:04.47	117.33	3.73	-45.5	-57.4	3.5	1.51e+00	0	24	104	17825792	60	25888
2026-01-09 22:44:05.45	117.29	3.79	-37.6	-39.1	18.4	0.00e+00	0	24	0	17825792	50	5645
2026-01-09 22:44:06.42	117.24	3.86	-43.9	-54.2	4.2	1.52e+00	0	24	104	18874368	60	17947
2026-01-09 22:44:07.40	117.19	3.92	-40.8	-43.2	15.9	4.52e-02	0	24	104	18874368	58	5720
2026-01-09 22:44:08.37	117.15	3.98	-41.7	-44.2	14.3	3.95e-04	0	25	0	20971520	58	6379
2026-01-09 22:44:09.35	117.10	4.05	-39.1	-40.6	17.4	0.00e+00	0	25	0	23068672	52	5987
2026-01-09 22:44:10.33	117.05	4.11	-37.9	-39.2	19.1	0.00e+00	0	25	0	26214400	50	5707
2026-01-09 22:44:11.31	117.01	4.18	-37.0	-38.3	20.0	0.00e+00	0	25	0	29360128	48	5749
2026-01-09 22:44:12.28	116.96	4.24	-36.8	-38.0	20.1	0.00e+00	0	25	0	32505856	46	6275
2026-01-09 22:44:13.26	116.91	4.30	-36.6	-37.8	20.5	0.00e+00	0	24	0	35651584	46	6112
2026-01-09 22:44:14.23	116.86	4.37	-36.4	-37.7	20.6	0.00e+00	0	24	0	38797312	46	6035
2026-01-09 22:44:15.21	116.82	4.43	-36.4	-37.7	20.5	0.00e+00	0	25	0	41943040	46	6062
2026-01-09 22:44:16.19	116.77	4.50	-36.4	-37.7	20.6	0.00e+00	0	25	0	45088768	46	6036
2026-01-09 22:44:17.17	116.72	4.56	-36.3	-37.6	20.7	0.00e+00	0	25	0	48234496	46	5981
2026-01-09 22:44:18.15	116.67	4.63	-36.4	-37.7	20.5	0.00e+00	0	24	0	51380224	46	6060
2026-01-09 22:44:19.13	116.62	4.69	-36.5	-37.9	20.5	0.00e+00	0	25	0	54525952	46	6140
2026-01-09 22:44:20.11	116.57	4.76	-36.4	-37.7	20.6	0.00e+00	0	24	0	57671680	46	6021
2026-01-09 22:44:21.09	116.52	4.82	-36.4	-37.7	20.6	0.00e+00	0	25	0	60817408	46	6014
2026-01-09 22:44:22.06	116.47	4.89	-36.5	-37.8	20.6	0.00e+00	0	25	0	62914560	46	6071
2026-01-09 22:44:23.04	116.42	4.95	-36.4	-37.6	20.7	0.00e+00	0	25	0	66060288	46	5993
2026-01-09 22:44:24.02	116.37	5.02	-36.3	-37.5	20.8	0.00e+00	0	24	0	69206016	46	5888
2026-01-09 22:44:25.00	116.32	5.09	-36.5	-37.6	20.7	0.00e+00	0	24	0	72351744	46	5974
2026-01-09 22:44:25.97	116.27	5.15	-36.4	-37.6	20.8	0.00e+00	0	25	0	75497472	46	5934
2026-01-09 22:44:26.95	116.22	5.22	-36.6	-37.7	20.7	0.00e+00	0	25	0	78643200	46	6043
2026-01-09 22:44:27.92	116.17	5.28	-36.4	-37.6	20.9	0.00e+00	0	24	0	81788928	46	5933
2026-01-09 22:44:28.90	116.12	5.35	-36.3	-37.4	20.9	0.00e+00	0	25	0	84934656	46	5851
2026-01-09 22:44:29.89	116.07	5.42	-36.4	-37.6	20.8	0.00e+00	0	24	0	88080384	46	5956
2026-01-09 22:44:30.87	116.01	5.49	-36.3	-37.5	20.9	0.00e+00	0	25	0	91226112	46	5877
2026-01-09 22:44:31.84	115.96	5.55	-36.2	-37.4	21.0	0.00e+00	0	25	0	94371840	46	5855
2026-01-09 22:44:32.82	115.91	5.62	-36.2	-37.4	21.0	0.00e+00	0	24	0	97517568	46	5839
2026-01-09 22:44:33.80	115.86	5.69	-36.2	-37.4	21.1	0.00e+00	0	25	0	99614720	46	5826
2026-01-09 22:44:34.78	115.80	5.75	-36.3	-37.4	21.1	0.00e+00	0	25	0	102760448	46	5838
2026-01-09 22:44:35.75	115.75	5.82	-36.1	-37.3	21.2	0.00e+00	0	25	0	105906176	46	5746
2026-01-09 22:44:36.73	115.70	5.89	-36.1	-37.2	21.2	0.00e+00	0	24	0	109051904	46	5724
2026-01-09 22:44:37.71	115.64	5.96	-36.0	-37.1	21.4	0.00e+00	0	25	0	112197632	46	5606
2026-01-09 22:44:38.68	115.59	6.03	-36.0	-37.1	21.4	0.00e+00	0	25	0	115343360	46	5608
2026-01-09 22:44:39.66	115.54	6.09	-36.1	-37.2	21.4	0.00e+00	0	24	0	118489088	46	5689
2026-01-09 22:44:40.64	115.48	6.16	-35.9	-37.0	21.5	0.00e+00	0	25	0	121634816	46	5571
2026-01-09 22:44:41.62	115.43	6.23	-36.0	-37.1	21.4	0.00e+00	0	25	0	124780544	46	5644
2026-01-09 22:44:42.59	115.37	6.30	-35.6	-36.8	21.7	0.00e+00	0	25	0	127926272	44	6076
2026-01-09 22:44:43.57	115.32	6.37	-35.8	-36.9	21.6	0.00e+00	0	25	0	131072000	44	6172
2026-01-09 22:44:44.55	115.26	6.44	-35.9	-37.0	21.6	0.00e+00	0	25	0	133169152	44	6277
2026-01-09 22:44:45.52	115.21	6.51	-35.8	-36.9	21.5	0.00e+00	0	25	0	136314880	44	6144
2026-01-09 22:44:46.50	115.15	6.58	-35.7	-36.7	21.7	0.00e+00	0	25	0	139460608	44	6062
2026-01-09 22:44:47.48	115.09	6.65	-35.8	-36.9	21.6	0.00e+00	0	25	0	142606336	44	6169
2026-01-09 22:44:48.46	115.04	6.71	-35.6	-36.7	21.8	0.00e+00	0	25	0	145752064	44	6040
2026-01-09 22:44:49.43	114.98	6.78	-35.8	-36.8	21.7	0.00e+00	0	25	0	148897792	44	6130
2026-01-09 22:44:50.41	114.92	6.85	-35.4	-36.4	22.0	0.00e+00	0	25	0	152043520	44	5850
2026-01-09 22:44:51.39	114.86	6.92	-35.4	-36.5	22.0	0.00e+00	0	25	0	155189248	44	5871
2026-01-09 22:44:52.37	114.81	6.99	-35.3	-36.3	22.1	0.00e+00	0	25	0	158334976	44	5777
2026-01-09 22:44:53.35	114.75	7.07	-35.5	-36.5	21.9	0.00e+00	0	25	0	161480704	44	5883
2026-01-09 22:44:54.33	114.69	7.14	-35.3	-36.3	22.1	0.00e+00	0	25	0	164626432	44	5788
2026-01-09 22:44:55.31	114.63	7.21	-35.2	-36.3	22.1	0.00e+00	0	25	0	167772160	44	5755
2026-01-09 22:44:56.28	114.57	7.28	-35.1	-36.2	22.2	0.00e+00	0	25	0	169869312	44	5691
2026-01-09 22:44:57.25	114.51	7.35	-35.2	-36.2	22.1	0.00e+00	0	25	0	173015040	44	5720
2026-01-09 22:44:58.23	114.45	7.42	-35.4	-36.4	22.0	0.00e+00	0	25	0	176160768	44	5827
2026-01-09 22:44:59.20	114.39	7.49	-35.1	-36.2	22.2	0.00e+00	0	25	0	179306496	44	5662
2026-01-09 22:45:00.18	114.33	7.56	-35.2	-36.2	22.2	0.00e+00	0	25	0	182452224	44	5722
2026-01-09 22:45:01.16	114.27	7.63	-35.2	-36.3	22.2	0.00e+00	0	25	0	185597952	44	5730
2026-01-09 22:45:02.13	114.21	7.71	-35.2	-36.2	22.2	0.00e+00	0	25	0	188743680	44	5704
2026-01-09 22:45:03.11	114.15	7.78	-35.1	-36.2	22.2	0.00e+00	0	25	0	191889408	44	5676
2026-01-09 22:45:04.08	114.09	7.85	-35.1	-36.2	22.3	0.00e+00	0	25	0	195035136	44	5683
2026-01-09 22:45:05.06	114.03	7.92	-35.2	-36.2	22.2	0.00e+00	0	25	0	198180864	44	5720
2026-01-09 22:45:06.04	113.97	7.99	-35.0	-36.1	22.3	0.00e+00	0	25	0	200278016	44	5619
2026-01-09 22:45:07.02	113.90	8.07	-35.1	-36.2	22.2	0.00e+00	0	25	0	203423744	44	5665
2026-01-09 22:45:08.00	113.84	8.14	-35.4	-36.4	22.0	0.00e+00	0	25	0	206569472	44	5848
2026-01-09 22:45:08.97	113.78	8.21	-35.2	-36.3	22.2	0.00e+00	0	25	0	209715200	44	5732
2026-01-09 22:45:09.95	113.72	8.29	-34.9	-35.9	22.5	0.00e+00	0	25	0	212860928	44	5513
2026-01-09 22:45:10.93	113.65	8.36	-34.9	-35.9	22.5	0.00e+00	0	25	0	216006656	44	5521
2026-01-09 22:45:11.90	113.59	8.43	-35.0	-36.1	22.4	0.00e+00	0	25	0	219152384	44	5614
2026-01-09 22:45:12.88	113.52	8.51	-34.8	-35.8	22.7	0.00e+00	0	25	0	222298112	44	5448
2026-01-09 22:45:13.86	113.46	8.58	-35.0	-36.0	22.4	0.00e+00	0	25	0	225443840	44	5561
2026-01-09 22:45:14.83	113.39	8.66	-34.7	-35.6	22.8	0.00e+00	0	25	0	228589568	42	5993
2026-01-09 22:45:15.82	113.33	8.73	-34.7	-35.7	22.8	0.00e+00	0	25	0	231735296	42	6040
2026-01-09 22:45:16.79	113.26	8.81	-34.7	-35.7	22.7	0.00e+00	0	25	0	234881024	42	6052
2026-01-09 22:45:17.77	113.20	8.88	-34.8	-35.8	22.8	0.00e+00	0	25	0	238026752	42	6079
2026-01-09 22:45:18.74	113.13	8.95	-34.7	-35.7	22.8	0.00e+00	0	25	0	240123904	42	6018
2026-01-09 22:45:19.72	113.06	9.03	-34.5	-35.5	22.9	0.00e+00	0	25	0	243269632	42	5906
2026-01-09 22:45:20.70	112.99	9.11	-34.6	-35.6	22.8	0.00e+00	0	25	0	246415360	42	5963
2026-01-09 22:45:21.67	112.93	9.18	-34.6	-35.6	22.8	0.00e+00	0	25	0	249561088	42	5944
2026-01-09 22:45:22.65	112.86	9.26	-34.4	-35.4	23.0	0.00e+00	0	25	0	252706816	42	5798
2026-01-09 22:45:23.63	112.79	9.33	-34.3	-35.3	23.0	0.00e+00	0	25	0	255852544	42	5746
2026-01-09 22:45:24.60	112.72	9.41	-34.4	-35.3	23.0	0.00e+00	0	25	0	258998272	42	5788
2026-01-09 22:45:25.58	112.65	9.48	-34.5	-35.5	22.9	0.00e+00	0	25	0	262144000	42	5885
2026-01-09 22:45:26.56	112.58	9.56	-34.5	-35.5	22.9	0.00e+00	0	25	0	265289728	42	5875
2026-01-09 22:45:27.54	112.51	9.64	-34.2	-35.2	23.1	0.00e+00	0	25	0	268435456	42	5701
2026-01-09 22:45:28.52	112.44	9.72	-34.3	-35.3	23.1	0.00e+00	0	25	0	271581184	42	5735
2026-01-09 22:45:29.49	112.37	9.79	-34.3	-35.2	23.1	0.00e+00	0	25	0	273678336	42	5715
2026-01-09 22:45:30.47	112.30	9.87	-34.2	-35.2	23.2	0.00e+00	0	25	0	276824064	42	5663
2026-01-09 22:45:31.45	112.23	9.95	-34.2	-35.1	23.2	0.00e+00	0	25	0	279969792	42	5643
2026-01-09 22:45:32.42	112.16	10.02	-34.1	-35.1	23.2	0.00e+00	0	25	0	283115520	42	5629
2026-01-09 22:45:33.40	112.09	10.10	-34.2	-35.1	23.2	0.00e+00	0	25	0	286261248	42	5654
2026-01-09 22:45:34.38	112.01	10.18	-34.2	-35.2	23.2	0.00e+00	0	25	0	289406976	42	5664
2026-01-09 22:45:35.35	111.94	10.26	-34.2	-35.2	23.2	0.00e+00	0	25	0	292552704	42	5704
2026-01-09 22:45:36.33	111.87	10.34	-34.1	-35.1	23.3	0.00e+00	0	25	0	295698432	42	5623
2026-01-09 22:45:37.31	111.79	10.42	-34.1	-35.1	23.4	0.00e+00	0	25	0	298844160	42	5605
2026-01-09 22:45:38.29	111.72	10.49	-34.1	-35.1	23.4	0.00e+00	0	25	0	301989888	42	5634
2026-01-09 22:45:39.27	111.65	10.57	-33.8	-34.8	23.5	0.00e+00	0	25	0	305135616	42	5438
2026-01-09 22:45:40.25	111.57	10.65	-33.9	-34.8	23.6	0.00e+00	0	25	0	307232768	42	5466
2026-01-09 22:45:41.22	111.50	10.73	-33.7	-34.7	23.6	0.00e+00	0	25	0	310378496	40	6054
2026-01-09 22:45:42.20	111.42	10.81	-33.8	-34.8	23.6	0.00e+00	0	25	0	313524224	40	6127
2026-01-09 22:45:43.18	111.34	10.89	-33.8	-34.9	23.6	0.00e+00	0	25	0	316669952	40	6135
2026-01-09 22:45:44.15	111.27	10.97	-33.5	-34.5	23.9	0.00e+00	0	25	0	319815680	40	5893
2026-01-09 22:45:45.13	111.19	11.05	-33.6	-34.6	23.8	0.00e+00	0	25	0	322961408	40	5966
2026-01-09 22:45:46.10	111.11	11.13	-33.4	-34.5	23.9	0.00e+00	0	25	0	326107136	40	5866
2026-01-09 22:45:47.08	111.03	11.21	-33.3	-34.3	23.9	0.00e+00	0	25	0	329252864	40	5776
2026-01-09 22:45:48.06	110.96	11.29	-33.4	-34.4	23.9	0.00e+00	0	25	0	332398592	40	5800
2026-01-09 22:45:49.04	110.88	11.38	-33.2	-34.2	23.9	0.00e+00	0	25	0	335544320	40	5678
2026-01-09 22:45:50.02	110.80	11.46	-33.3	-34.2	24.0	0.00e+00	0	25	0	338690048	40	5711
2026-01-09 22:45:50.99	110.72	11.54	-33.3	-34.2	24.0	0.00e+00	0	25	0	340787200	40	5699
2026-01-09 22:45:51.97	110.64	11.62	-33.3	-34.3	24.0	0.00e+00	0	25	0	343932928	40	5728
2026-01-09 22:45:52.95	110.56	11.70	-33.4	-34.3	23.9	0.00e+00	0	25	0	347078656	40	5789
2026-01-09 22:45:53.93	110.47	11.78	-33.3	-34.3	24.0	0.00e+00	0	25	0	350224384	40	5749
2026-01-09 22:45:54.91	110.39	11.87	-33.5	-34.4	23.9	0.00e+00	0	25	0	353370112	40	5837
2026-01-09 22:45:55.89	110.31	11.95	-33.4	-34.3	23.9	0.00e+00	0	25	0	356515840	40	5772
2026-01-09 22:45:56.87	110.23	12.03	-33.4	-34.4	23.9	0.00e+00	0	25	0	359661568	40	5792
2026-01-09 22:45:57.84	110.14	12.12	-33.4	-34.3	23.9	0.00e+00	0	25	0	362807296	40	5775
2026-01-09 22:45:58.82	110.06	12.20	-33.6	-34.5	23.9	0.00e+00	0	25	0	365953024	40	5915
2026-01-09 22:45:59.80	109.98	12.28	-33.4	-34.3	24.1	0.00e+00	0	25	0	369098752	40	5756
2026-01-09 22:46:00.78	109.89	12.37	-33.4	-34.3	24.0	0.00e+00	0	25	0	372244480	40	5752
2026-01-09 22:46:01.76	109.81	12.45	-33.4	-34.3	24.1	0.00e+00	0	25	0	375390208	40	5772
2026-01-09 22:46:02.74	109.72	12.54	-33.3	-34.2	24.1	0.00e+00	0	25	0	377487360	40	5704
2026-01-09 22:46:03.72	109.63	12.62	-33.3	-34.3	24.0	0.00e+00	0	25	0	380633088	40	5734
2026-01-09 22:46:04.69	109.55	12.70	-33.3	-34.2	24.1	0.00e+00	0	25	0	383778816	40	5692
2026-01-09 22:46:05.67	109.46	12.79	-33.3	-34.3	24.1	0.00e+00	0	25	0	386924544	40	5727
2026-01-09 22:46:06.65	109.37	12.87	-33.2	-34.1	24.2	0.00e+00	0	25	0	390070272	40	5640
2026-01-09 22:46:07.63	109.28	12.96	-33.2	-34.1	24.3	0.00e+00	0	25	0	393216000	40	5621
2026-01-09 22:46:08.61	109.20	13.05	-33.2	-34.1	24.1	0.00e+00	0	25	0	396361728	40	5654
2026-01-09 22:46:09.58	109.11	13.13	-33.1	-34.0	24.3	0.00e+00	0	25	0	399507456	40	5556
2026-01-09 22:46:10.56	109.02	13.22	-33.2	-34.1	24.1	0.00e+00	0	25	0	402653184	40	5645
2026-01-09 22:46:11.54	108.93	13.30	-33.2	-34.1	24.1	0.00e+00	0	25	0	405798912	40	5612
2026-01-09 22:46:12.51	108.84	13.39	-33.2	-34.1	24.1	0.00e+00	0	25	0	408944640	40	5636
2026-01-09 22:46:13.49	108.74	13.48	-33.1	-34.0	24.2	0.00e+00	0	25	0	412090368	40	5582
2026-01-09 22:46:14.47	108.65	13.56	-33.3	-34.2	24.1	0.00e+00	0	25	0	414187520	40	5683
2026-01-09 22:46:15.44	108.56	13.65	-33.4	-34.3	24.0	0.00e+00	0	25	0	417333248	40	5743
2026-01-09 22:46:16.42	108.47	13.74	-33.3	-34.2	24.1	0.00e+00	0	25	0	420478976	40	5677
2026-01-09 22:46:17.40	108.37	13.83	-33.4	-34.3	24.0	0.00e+00	0	25	0	423624704	40	5757
2026-01-09 22:46:18.37	108.28	13.91	-33.4	-34.3	24.1	0.00e+00	0	25	0	426770432	40	5743
2026-01-09 22:46:19.35	108.18	14.00	-33.5	-34.4	24.0	0.00e+00	0	25	0	429916160	40	5816
2026-01-09 22:46:20.32	108.09	14.09	-33.4	-34.3	24.1	0.00e+00	0	25	0	433061888	40	5780
2026-01-09 22:46:21.30	107.99	14.18	-33.6	-34.5	23.9	0.00e+00	0	25	0	436207616	40	5900
2026-01-09 22:46:22.28	107.90	14.27	-33.4	-34.3	24.2	0.00e+00	0	25	0	439353344	40	5754
2026-01-09 22:46:23.25	107.80	14.36	-33.4	-34.3	24.1	0.00e+00	0	25	0	442499072	40	5786
2026-01-09 22:46:24.23	107.70	14.45	-33.4	-34.3	24.1	0.00e+00	0	25	0	445644800	40	5776
2026-01-09 22:46:25.21	107.60	14.54	-33.4	-34.3	24.2	0.00e+00	0	25	0	448790528	40	5755
2026-01-09 22:46:26.18	107.50	14.63	-33.3	-34.3	24.1	0.00e+00	0	25	0	450887680	40	5729
2026-01-09 22:46:27.16	107.41	14.72	-33.3	-34.2	24.2	0.00e+00	0	25	0	454033408	40	5695
2026-01-09 22:46:28.15	107.30	14.81	-33.3	-34.2	24.2	0.00e+00	0	25	0	457179136	40	5692
2026-01-09 22:46:29.12	107.20	14.90	-33.3	-34.2	24.2	0.00e+00	0	25	0	460324864	40	5693
2026-01-09 22:46:30.10	107.10	14.99	-33.3	-34.2	24.1	0.00e+00	0	25	0	463470592	40	5719
2026-01-09 22:46:31.08	107.00	15.08	-33.4	-34.3	24.1	0.00e+00	0	25	0	466616320	40	5769
2026-01-09 22:46:32.06	106.90	15.17	-33.3	-34.3	24.1	0.00e+00	0	25	0	469762048	40	5742
2026-01-09 22:46:33.04	106.79	15.26	-33.5	-34.5	24.0	0.00e+00	0	25	0	472907776	40	5878
2026-01-09 22:46:34.02	106.69	15.35	-33.3	-34.3	24.1	0.00e+00	0	25	0	476053504	40	5764
2026-01-09 22:46:34.99	106.58	15.45	-33.5	-34.4	24.0	0.00e+00	0	25	0	479199232	40	5856
2026-01-09 22:46:35.97	106.48	15.54	-33.6	-34.5	24.0	0.00e+00	0	25	0	482344960	40	5893
2026-01-09 22:46:36.95	106.37	15.63	-33.6	-34.5	23.9	0.00e+00	0	25	0	484442112	40	5923
2026-01-09 22:46:37.93	106.27	15.72	-33.5	-34.4	24.0	0.00e+00	0	25	0	487587840	40	5813
2026-01-09 22:46:38.90	106.16	15.82	-33.6	-34.5	24.0	0.00e+00	0	25	0	490733568	40	5906
2026-01-09 22:46:39.88	106.05	15.91	-33.6	-34.6	23.9	0.00e+00	0	25	0	493879296	40	5932
2026-01-09 22:46:40.86	105.94	16.00	-33.4	-34.4	24.1	0.00e+00	0	25	0	497025024	40	5792
2026-01-09 22:46:41.83	105.83	16.10	-33.6	-34.6	24.0	0.00e+00	0	25	0	500170752	40	5937
2026-01-09 22:46:42.81	105.72	16.19	-33.5	-34.4	24.1	0.00e+00	0	25	0	503316480	40	5834
2026-01-09 22:46:43.79	105.61	16.29	-33.5	-34.5	24.1	0.00e+00	0	25	0	506462208	40	5864
2026-01-09 22:46:44.76	105.50	16.38	-33.6	-34.5	24.0	0.00e+00	0	25	0	509607936	40	5888
2026-01-09 22:46:45.74	105.39	16.48	-33.6	-34.5	24.1	0.00e+00	0	25	0	512753664	40	5882
2026-01-09 22:46:46.72	105.27	16.57	-33.4	-34.3	24.2	0.00e+00	0	25	0	515899392	40	5783
2026-01-09 22:46:47.69	105.16	16.67	-33.5	-34.4	24.2	0.00e+00	0	25	0	517996544	40	5828
2026-01-09 22:46:48.67	105.05	16.76	-33.4	-34.3	24.1	0.00e+00	0	25	0	521142272	40	5790
2026-01-09 22:46:49.65	104.93	16.86	-33.5	-34.4	24.1	0.00e+00	0	25	0	524288000	40	5807
2026-01-09 22:46:50.63	104.81	16.95	-33.4	-34.3	24.2	0.00e+00	0	25	0	527433728	40	5750
2026-01-09 22:46:51.60	104.70	17.05	-33.5	-34.4	24.1	0.00e+00	0	25	0	530579456	40	5824
2026-01-09 22:46:52.58	104.58	17.15	-33.6	-34.5	24.0	0.00e+00	0	25	0	533725184	40	5883
2026-01-09 22:46:53.56	104.46	17.24	-33.4	-34.3	24.1	0.00e+00	0	25	0	536870912	40	5773
2026-01-09 22:46:54.54	104.34	17.34	-33.5	-34.5	24.1	0.00e+00	0	25	0	540016640	40	5860
2026-01-09 22:46:55.51	104.22	17.44	-33.6	-34.5	24.0	0.00e+00	0	25	0	543162368	40	5872
2026-01-09 22:46:56.49	104.10	17.54	-33.6	-34.6	24.0	0.00e+00	0	25	0	546308096	40	5933
2026-01-09 22:46:57.47	103.98	17.63	-33.7	-34.6	23.9	0.00e+00	0	25	0	549453824	40	5962
2026-01-09 22:46:58.45	103.86	17.73	-33.9	-34.9	23.8	0.00e+00	0	25	0	551550976	40	6139
2026-01-09 22:46:59.43	103.73	17.83	-34.0	-34.9	23.7	0.00e+00	0	25	0	554696704	40	6199
2026-01-09 22:47:00.40	103.61	17.93	-34.0	-35.0	23.7	0.00e+00	0	25	0	557842432	40	6218
2026-01-09 22:47:01.38	103.49	18.03	-34.1	-35.0	23.8	0.00e+00	0	25	0	560988160	40	6266
2026-01-09 22:47:02.36	103.36	18.13	-33.7	-34.7	24.0	0.00e+00	0	25	0	564133888	40	5998
2026-01-09 22:47:03.33	103.24	18.23	-33.7	-34.6	24.1	0.00e+00	0	25	0	567279616	40	5969
2026-01-09 22:47:04.30	103.11	18.33	-33.7	-34.6	24.1	0.00e+00	0	25	0	570425344	40	5959
2026-01-09 22:47:05.28	102.98	18.43	-33.7	-34.6	24.0	0.00e+00	0	25	0	573571072	40	5983
2026-01-09 22:47:06.26	102.85	18.53	-33.7	-34.6	24.0	0.00e+00	0	25	0	576716800	40	5989
2026-01-09 22:47:07.24	102.72	18.63	-33.5	-34.4	24.1	0.00e+00	0	25	0	579862528	40	5845
2026-01-09 22:47:08.21	102.59	18.73	-33.6	-34.5	24.1	0.00e+00	0	25	0	583008256	40	5893
2026-01-09 22:47:09.19	102.46	18.83	-33.6	-34.5	24.1	0.00e+00	0	25	0	586153984	40	5882
2026-01-09 22:47:10.17	102.33	18.93	-33.5	-34.4	24.1	0.00e+00	0	25	0	588251136	40	5844
2026-01-09 22:47:11.14	102.19	19.03	-33.5	-34.5	24.0	0.00e+00	0	25	0	591396864	40	5868
2026-01-09 22:47:12.12	102.06	19.13	-33.6	-34.5	24.0	0.00e+00	0	25	0	594542592	40	5911
2026-01-09 22:47:13.10	101.92	19.23	-33.6	-34.5	24.1	0.00e+00	0	25	0	597688320	40	5886
2026-01-09 22:47:14.08	101.79	19.34	-33.6	-34.6	24.0	0.00e+00	0	25	0	600834048	40	5936
2026-01-09 22:47:15.06	101.65	19.44	-33.6	-34.6	24.0	0.00e+00	0	25	0	603979776	40	5935
2026-01-09 22:47:16.03	101.51	19.54	-33.7	-34.7	24.1	0.00e+00	0	25	0	607125504	40	5995
2026-01-09 22:47:17.01	101.37	19.64	-33.6	-34.6	24.0	0.00e+00	0	25	0	610271232	40	5948
2026-01-09 22:47:17.98	101.23	19.75	-33.4	-34.3	24.2	0.00e+00	0	25	0	613416960	40	5779
2026-01-09 22:47:18.96	101.09	19.85	-33.6	-34.5	24.1	0.00e+00	0	25	0	616562688	40	5891
2026-01-09 22:47:19.94	100.95	19.95	-33.4	-34.3	24.2	0.00e+00	0	25	0	619708416	40	5783
2026-01-09 22:47:20.92	100.81	20.06	-33.2	-34.1	24.4	0.00e+00	0	25	0	622854144	40	5622
2026-01-09 22:47:21.89	100.67	20.16	-33.1	-34.0	24.5	0.00e+00	0	25	0	624951296	40	5580
2026-01-09 22:47:22.87	100.52	20.27	-32.9	-33.8	24.5	0.00e+00	0	25	0	628097024	40	5450
2026-01-09 22:47:23.85	100.37	20.37	-33.0	-34.0	24.5	0.00e+00	0	25	0	631242752	40	5531
2026-01-09 22:47:24.83	100.23	20.48	-33.1	-34.0	24.3	0.00e+00	0	25	0	634388480	40	5574
2026-01-09 22:47:25.80	100.08	20.58	-33.0	-33.9	24.3	0.00e+00	0	25	0	637534208	40	5517
2026-01-09 22:47:26.78	99.93	20.69	-33.0	-33.9	24.4	0.00e+00	0	25	0	640679936	40	5479
2026-01-09 22:47:27.76	99.78	20.79	-33.1	-34.0	24.4	0.00e+00	0	25	0	643825664	40	5569
2026-01-09 22:47:28.73	99.63	20.90	-33.1	-34.0	24.4	0.00e+00	0	25	0	646971392	40	5557
2026-01-09 22:47:29.71	99.48	21.00	-32.8	-33.7	24.6	0.00e+00	0	25	0	650117120	40	5381
2026-01-09 22:47:30.69	99.32	21.11	-32.6	-33.5	24.8	0.00e+00	0	25	0	653262848	38	5911
2026-01-09 22:47:31.67	99.17	21.22	-32.8	-33.6	24.7	0.00e+00	0	25	0	656408576	38	5993
2026-01-09 22:47:32.65	99.01	21.32	-32.7	-33.6	24.8	0.00e+00	0	25	0	658505728	38	5933
2026-01-09 22:47:33.62	98.86	21.43	-32.8	-33.7	24.7	0.00e+00	0	25	0	661651456	38	6055
2026-01-09 22:47:34.60	98.70	21.54	-32.5	-33.4	24.9	0.00e+00	0	25	0	664797184	38	5827
2026-01-09 22:47:35.58	98.54	21.65	-32.5	-33.4	24.9	0.00e+00	0	25	0	667942912	38	5839
2026-01-09 22:47:36.55	98.38	21.75	-32.5	-33.3	24.9	0.00e+00	0	25	0	671088640	38	5771
2026-01-09 22:47:37.54	98.22	21.86	-32.5	-33.4	24.9	0.00e+00	0	25	0	674234368	38	5820
2026-01-09 22:47:38.51	98.06	21.97	-32.3	-33.2	25.0	0.00e+00	0	25	0	677380096	38	5664
2026-01-09 22:47:39.49	97.90	22.08	-32.4	-33.3	25.0	0.00e+00	0	25	0	680525824	38	5774
2026-01-09 22:47:40.46	97.73	22.19	-32.4	-33.3	25.0	0.00e+00	0	25	0	683671552	38	5760
2026-01-09 22:47:41.44	97.57	22.29	-32.2	-33.1	25.2	0.00e+00	0	25	0	686817280	38	5640
2026-01-09 22:47:42.42	97.40	22.40	-32.3	-33.1	25.1	0.00e+00	0	25	0	689963008	38	5657
2026-01-09 22:47:43.40	97.23	22.51	-32.2	-33.1	25.3	0.00e+00	0	25	0	692060160	38	5602
2026-01-09 22:47:44.38	97.06	22.62	-32.3	-33.2	25.1	0.00e+00	0	25	0	695205888	38	5665
2026-01-09 22:47:45.35	96.89	22.73	-32.4	-33.3	25.0	0.00e+00	0	25	0	698351616	38	5730
2026-01-09 22:47:46.33	96.72	22.84	-32.4	-33.2	25.0	0.00e+00	0	25	0	701497344	38	5723
2026-01-09 22:47:47.31	96.55	22.95	-32.4	-33.3	25.0	0.00e+00	0	25	0	704643072	38	5732
2026-01-09 22:47:48.29	96.38	23.06	-32.3	-33.2	25.1	0.00e+00	0	25	0	707788800	38	5675
2026-01-09 22:47:49.27	96.20	23.17	-32.1	-33.0	25.3	0.00e+00	0	25	0	710934528	38	5548
2026-01-09 22:47:50.25	96.02	23.28	-32.1	-33.0	25.2	0.00e+00	0	25	0	714080256	38	5533
2026-01-09 22:47:51.22	95.85	23.39	-32.0	-32.9	25.3	0.00e+00	0	25	0	717225984	38	5471
2026-01-09 22:47:52.20	95.67	23.50	-32.1	-33.0	25.2	0.00e+00	0	25	0	720371712	38	5567
2026-01-09 22:47:53.18	95.49	23.61	-32.0	-32.9	25.3	0.00e+00	0	25	0	723517440	38	5508
2026-01-09 22:47:54.16	95.31	23.73	-32.1	-33.0	25.1	0.00e+00	0	25	0	726663168	38	5543
2026-01-09 22:47:55.13	95.12	23.84	-32.2	-33.1	25.0	0.00e+00	0	25	0	728760320	38	5637
2026-01-09 22:47:56.11	94.94	23.95	-32.2	-33.1	24.9	0.00e+00	0	25	0	731906048	38	5651
2026-01-09 22:47:57.09	94.75	24.06	-32.4	-33.3	24.8	0.00e+00	0	25	0	735051776	38	5789
2026-01-09 22:47:58.07	94.57	24.17	-32.5	-33.4	24.9	0.00e+00	0	25	0	738197504	38	5835
2026-01-09 22:47:59.05	94.38	24.28	-32.7	-33.6	24.7	0.00e+00	0	25	0	741343232	38	5965
2026-01-09 22:48:00.03	94.19	24.40	-32.6	-33.5	24.9	0.00e+00	0	25	0	744488960	38	5926
2026-01-09 22:48:01.01	94.00	24.51	-32.5	-33.3	25.1	0.00e+00	0	25	0	747634688	38	5775
2026-01-09 22:48:01.99	93.80	24.62	-32.5	-33.3	25.0	0.00e+00	0	25	0	750780416	38	5773
2026-01-09 22:48:02.96	93.61	24.73	-32.3	-33.2	25.1	0.00e+00	0	25	0	753926144	38	5666
2026-01-09 22:48:03.94	93.42	24.85	-32.3	-33.2	25.0	0.00e+00	0	25	0	757071872	38	5689
2026-01-09 22:48:04.91	93.22	24.96	-32.3	-33.2	25.0	0.00e+00	0	25	0	760217600	38	5668
2026-01-09 22:48:05.89	93.02	25.07	-32.5	-33.4	24.7	0.00e+00	0	25	0	762314752	38	5817
2026-01-09 22:48:06.87	92.82	25.18	-32.5	-33.4	24.7	0.00e+00	0	25	0	765460480	38	5835
2026-01-09 22:48:07.85	92.62	25.30	-32.7	-33.6	24.7	0.00e+00	0	25	0	768606208	38	5935
2026-01-09 22:48:08.83	92.42	25.41	-32.7	-33.6	24.8	0.00e+00	0	25	0	771751936	38	5931
2026-01-09 22:48:09.80	92.22	25.52	-32.7	-33.5	24.9	0.00e+00	0	25	0	774897664	38	5923
2026-01-09 22:48:10.78	92.01	25.63	-32.5	-33.4	25.0	0.00e+00	0	25	0	778043392	38	5813
2026-01-09 22:48:11.76	91.80	25.75	-32.5	-33.3	25.1	0.00e+00	0	25	0	781189120	38	5767
2026-01-09 22:48:12.74	91.60	25.86	-32.5	-33.3	25.1	0.00e+00	0	25	0	784334848	38	5783
2026-01-09 22:48:13.72	91.39	25.98	-32.5	-33.4	25.0	0.00e+00	0	25	0	787480576	38	5800
2026-01-09 22:48:14.70	91.17	26.09	-32.6	-33.5	24.9	0.00e+00	0	25	0	790626304	38	5901
2026-01-09 22:48:15.67	90.96	26.20	-33.0	-33.9	24.7	0.00e+00	0	25	0	793772032	38	6139
2026-01-09 22:48:16.65	90.75	26.32	-33.0	-33.9	24.6	0.00e+00	0	25	0	796917760	38	6137
2026-01-09 22:48:17.63	90.53	26.43	-33.0	-33.9	24.5	0.00e+00	0	25	0	800063488	38	6176
2026-01-09 22:48:18.60	90.32	26.54	-33.1	-34.0	24.5	0.00e+00	0	25	0	802160640	38	6236
2026-01-09 22:48:19.58	90.10	26.66	-33.2	-34.1	24.4	0.00e+00	0	25	0	805306368	38	6308
2026-01-09 22:48:20.56	89.88	26.77	-33.2	-34.1	24.5	0.00e+00	0	25	0	808452096	38	6315
2026-01-09 22:48:21.53	89.66	26.88	-33.1	-34.0	24.6	0.00e+00	0	25	0	811597824	38	6268
2026-01-09 22:48:22.51	89.43	27.00	-33.0	-33.9	24.6	0.00e+00	0	25	0	814743552	38	6196
2026-01-09 22:48:23.49	89.21	27.11	-33.0	-33.9	24.7	0.00e+00	0	25	0	817889280	38	6160
2026-01-09 22:48:24.46	88.98	27.22	-33.0	-33.9	24.6	0.00e+00	0	25	0	821035008	38	6167
2026-01-09 22:48:25.44	88.75	27.34	-33.0	-33.9	24.6	0.00e+00	0	25	0	824180736	38	6151
2026-01-09 22:48:26.42	88.52	27.45	-33.2	-34.1	24.5	0.00e+00	0	25	0	827326464	38	6315
2026-01-09 22:48:27.40	88.29	27.56	-33.3	-34.2	24.4	0.00e+00	0	25	0	830472192	38	6358
2026-01-09 22:48:28.38	88.05	27.68	-33.4	-34.3	24.4	0.00e+00	0	25	0	833617920	38	6458
2026-01-09 22:48:29.35	87.82	27.79	-33.4	-34.3	24.3	0.00e+00	0	25	0	835715072	38	6454
2026-01-09 22:48:30.33	87.58	27.90	-33.3	-34.2	24.4	0.00e+00	0	25	0	838860800	38	6394
2026-01-09 22:48:31.30	87.35	28.01	-33.3	-34.1	24.4	0.00e+00	0	25	0	842006528	38	6349
2026-01-09 22:48:32.28	87.11	28.13	-33.3	-34.1	24.5	0.00e+00	0	25	0	845152256	38	6345
2026-01-09 22:48:33.26	86.86	28.24	-33.3	-34.2	24.4	0.00e+00	0	25	0	848297984	38	6411
2026-01-09 22:48:34.24	86.62	28.35	-33.1	-33.9	24.5	0.00e+00	0	25	0	851443712	38	6204
2026-01-09 22:48:35.22	86.37	28.47	-33.3	-34.2	24.4	0.00e+00	0	25	0	854589440	38	6364
2026-01-09 22:48:36.19	86.13	28.58	-33.2	-34.1	24.4	0.00e+00	0	25	0	857735168	38	6329
2026-01-09 22:48:37.18	85.88	28.69	-33.3	-34.2	24.2	0.00e+00	0	25	0	860880896	38	6423
2026-01-09 22:48:38.15	85.63	28.80	-33.4	-34.3	24.2	0.00e+00	0	25	0	864026624	38	6478
2026-01-09 22:48:39.13	85.37	28.92	-33.3	-34.2	24.3	0.00e+00	0	25	0	867172352	38	6415
2026-01-09 22:48:40.11	85.12	29.03	-33.1	-34.0	24.5	0.00e+00	0	25	0	870318080	38	6252
2026-01-09 22:48:41.08	84.87	29.14	-33.3	-34.2	24.4	0.00e+00	0	25	0	872415232	38	6366
2026-01-09 22:48:42.06	84.61	29.25	-33.3	-34.2	24.5	0.00e+00	0	25	0	875560960	38	6372
2026-01-09 22:48:43.04	84.35	29.36	-33.3	-34.1	24.6	0.00e+00	0	25	0	878706688	38	6346
2026-01-09 22:48:44.02	84.09	29.47	-33.1	-34.0	24.6	0.00e+00	0	25	0	881852416	38	6245
2026-01-09 22:48:44.99	83.82	29.58	-32.9	-33.8	24.6	0.00e+00	0	25	0	884998144	38	6130
2026-01-09 22:48:45.97	83.56	29.69	-33.2	-34.1	24.4	0.00e+00	0	25	0	888143872	38	6304
2026-01-09 22:48:46.95	83.29	29.80	-32.9	-33.8	24.7	0.00e+00	0	25	0	891289600	38	6070
2026-01-09 22:48:47.93	83.02	29.91	-32.9	-33.8	24.6	0.00e+00	0	25	0	894435328	38	6089
2026-01-09 22:48:48.90	82.75	30.02	-33.0	-33.9	24.5	0.00e+00	0	25	0	897581056	38	6137
2026-01-09 22:48:49.88	82.48	30.13	-32.9	-33.8	24.6	0.00e+00	0	25	0	900726784	38	6066
2026-01-09 22:48:50.86	82.21	30.24	-32.7	-33.6	24.7	0.00e+00	0	25	0	903872512	38	5937
2026-01-09 22:48:51.84	81.93	30.35	-32.9	-33.8	24.5	0.00e+00	0	25	0	905969664	38	6073
2026-01-09 22:48:52.82	81.65	30.46	-32.9	-33.8	24.4	0.00e+00	0	25	0	909115392	38	6127
2026-01-09 22:48:53.79	81.37	30.57	-33.0	-33.9	24.5	0.00e+00	0	25	0	912261120	38	6156
2026-01-09 22:48:54.77	81.09	30.67	-33.1	-34.0	24.5	0.00e+00	0	25	0	915406848	38	6208
2026-01-09 22:48:55.74	80.81	30.78	-32.9	-33.8	24.7	0.00e+00	0	25	0	918552576	38	6081
2026-01-09 22:48:56.72	80.52	30.89	-32.9	-33.8	24.6	0.00e+00	0	25	0	921698304	38	6087
2026-01-09 22:48:57.70	80.24	30.99	-32.9	-33.8	24.5	0.00e+00	0	25	0	924844032	38	6102
2026-01-09 22:48:58.67	79.95	31.10	-33.0	-33.9	24.4	0.00e+00	0	25	0	927989760	38	6190
2026-01-09 22:48:59.65	79.66	31.20	-33.0	-33.9	24.5	0.00e+00	0	25	0	931135488	38	6148
2026-01-09 22:49:00.62	79.37	31.31	-33.1	-34.0	24.5	0.00e+00	0	25	0	934281216	38	6218
2026-01-09 22:49:01.60	79.07	31.41	-33.1	-34.0	24.5	0.00e+00	0	25	0	936378368	38	6228
2026-01-09 22:49:02.58	78.77	31.52	-33.1	-34.0	24.5	0.00e+00	0	25	0	939524096	38	6256
2026-01-09 22:49:03.56	78.47	31.62	-33.1	-34.0	24.6	0.00e+00	0	25	0	942669824	38	6216
2026-01-09 22:49:04.53	78.18	31.72	-33.3	-34.2	24.4	0.00e+00	0	25	0	945815552	38	6373
2026-01-09 22:49:05.51	77.87	31.83	-33.4	-34.3	24.4	0.00e+00	0	25	0	948961280	38	6452
2026-01-09 22:49:06.49	77.57	31.93	-33.5	-34.4	24.3	0.00e+00	0	25	0	952107008	38	6567
2026-01-09 22:49:07.47	77.26	32.03	-33.6	-34.5	24.2	0.00e+00	0	25	0	955252736	38	6610
2026-01-09 22:49:08.44	76.95	32.13	-33.6	-34.5	24.3	0.00e+00	0	25	0	958398464	38	6638
2026-01-09 22:49:09.42	76.64	32.23	-33.7	-34.6	24.2	0.00e+00	0	25	0	961544192	38	6664
2026-01-09 22:49:10.40	76.33	32.33	-33.5	-34.4	24.3	0.00e+00	0	25	0	964689920	38	6512
2026-01-09 22:49:11.37	76.02	32.43	-33.5	-34.4	24.2	0.00e+00	0	25	0	967835648	38	6519
2026-01-09 22:49:12.35	75.70	32.52	-33.6	-34.5	24.2	0.00e+00	0	25	0	970981376	38	6638
2026-01-09 22:49:13.33	75.38	32.62	-33.6	-34.6	24.2	0.00e+00	0	25	0	974127104	38	6650
2026-01-09 22:49:14.30	75.07	32.72	-33.7	-34.7	24.2	0.00e+00	0	25	0	976224256	38	6727
2026-01-09 22:49:15.28	74.74	32.81	-33.6	-34.5	24.2	0.00e+00	0	25	0	979369984	38	6619
2026-01-09 22:49:16.26	74.42	32.91	-33.8	-34.7	24.3	0.00e+00	0	25	0	982515712	38	6744
2026-01-09 22:49:17.24	74.09	33.01	-33.8	-34.7	24.1	0.00e+00	0	25	0	985661440	40	6034
2026-01-09 22:49:18.22	73.76	33.10	-33.9	-34.9	24.0	0.00e+00	0	25	0	988807168	40	6136
2026-01-09 22:49:19.19	73.44	33.19	-34.2	-35.1	23.8	0.00e+00	0	25	0	991952896	40	6299
2026-01-09 22:49:20.17	73.11	33.28	-34.2	-35.2	23.8	0.00e+00	0	25	0	995098624	40	6364
2026-01-09 22:49:21.15	72.77	33.38	-34.4	-35.3	23.8	0.00e+00	0	25	0	998244352	40	6496
2026-01-09 22:49:22.13	72.44	33.47	-34.2	-35.1	23.8	0.00e+00	0	25	0	1001390080	40	6328
2026-01-09 22:49:23.10	72.10	33.56	-34.2	-35.2	23.8	0.00e+00	0	25	0	1004535808	40	6370
2026-01-09 22:49:24.08	71.76	33.64	-34.1	-35.1	23.9	0.00e+00	0	25	0	1007681536	40	6281
2026-01-09 22:49:25.06	71.42	33.73	-34.0	-34.9	24.0	0.00e+00	0	25	0	1010827264	40	6185
2026-01-09 22:49:26.03	71.08	33.82	-34.0	-34.9	24.0	0.00e+00	0	25	0	1012924416	40	6164
2026-01-09 22:49:27.01	70.74	33.90	-34.0	-34.9	24.1	0.00e+00	0	25	0	1016070144	40	6139
2026-01-09 22:49:27.99	70.39	33.99	-33.7	-34.6	24.3	0.00e+00	0	25	0	1019215872	40	5936
2026-01-09 22:49:28.96	70.04	34.07	-33.5	-34.4	24.4	0.00e+00	0	25	0	1022361600	40	5839
2026-01-09 22:49:29.94	69.69	34.16	-33.4	-34.4	24.3	0.00e+00	0	25	0	1025507328	40	5792
2026-01-09 22:49:30.92	69.34	34.24	-33.5	-34.4	24.3	0.00e+00	0	25	0	1028653056	40	5843
2026-01-09 22:49:31.89	68.99	34.32	-33.5	-34.4	24.2	0.00e+00	0	25	0	1031798784	40	5835
2026-01-09 22:49:32.87	68.63	34.40	-33.5	-34.3	24.2	0.00e+00	0	25	0	1034944512	40	5783
2026-01-09 22:49:33.85	68.28	34.48	-33.6	-34.5	24.1	0.00e+00	0	25	0	1038090240	40	5887
2026-01-09 22:49:34.82	67.92	34.56	-33.6	-34.5	24.0	0.00e+00	0	25	0	1041235968	40	5922
2026-01-09 22:49:35.80	67.56	34.63	-33.7	-34.6	24.1	0.00e+00	0	25	0	1043333120	40	5989
2026-01-09 22:49:36.78	67.20	34.71	-33.7	-34.7	23.9	0.00e+00	0	25	0	1046478848	40	6005
2026-01-09 22:49:37.75	66.84	34.78	-33.8	-34.7	24.0	0.00e+00	0	25	0	1049624576	40	6042
2026-01-09 22:49:38.73	66.47	34.86	-33.8	-34.8	24.1	0.00e+00	0	25	0	1052770304	40	6079
2026-01-09 22:49:39.71	66.10	34.93	-33.9	-34.9	23.9	0.00e+00	0	25	0	1055916032	40	6143
2026-01-09 22:49:40.69	65.73	35.00	-34.4	-35.3	23.5	0.00e+00	0	25	0	1059061760	40	6472
2026-01-09 22:49:41.67	65.36	35.07	-34.5	-35.5	23.5	0.00e+00	0	25	0	1062207488	40	6583
2026-01-09 22:49:42.64	64.99	35.14	-34.5	-35.5	23.6	0.00e+00	0	25	0	1065353216	40	6625
2026-01-09 22:49:43.62	64.62	35.21	-34.6	-35.6	23.6	0.00e+00	0	25	0	1068498944	40	6662
2026-01-09 22:49:44.59	64.25	35.27	-34.7	-35.7	23.5	0.00e+00	0	25	0	1071644672	40	6736
2026-01-09 22:49:45.57	63.87	35.34	-34.7	-35.6	23.5	0.00e+00	0	25	0	1074790400	42	5971
2026-01-09 22:49:46.55	63.49	35.40	-34.6	-35.6	23.5	0.00e+00	0	25	0	1076887552	42	5977
2026-01-09 22:49:47.53	63.11	35.47	-34.8	-35.7	23.5	0.00e+00	0	25	0	1080033280	42	6063
2026-01-09 22:49:48.50	62.74	35.53	-34.6	-35.6	23.6	0.00e+00	0	25	0	1083179008	42	5952
2026-01-09 22:49:49.48	62.35	35.59	-34.2	-35.2	23.9	0.00e+00	0	25	0	1086324736	42	5662
2026-01-09 22:49:50.46	61.97	35.64	-33.8	-34.7	24.2	0.00e+00	0	25	0	1089470464	42	5376
2026-01-09 22:49:51.44	61.58	35.70	-33.9	-34.8	24.0	0.00e+00	0	25	0	1092616192	42	5465
2026-01-09 22:49:52.42	61.20	35.76	-33.7	-34.6	24.1	0.00e+00	0	25	0	1095761920	40	5948
2026-01-09 22:49:53.39	60.81	35.81	-33.9	-34.8	23.8	0.00e+00	0	25	0	1098907648	40	6107
2026-01-09 22:49:54.38	60.42	35.86	-34.3	-35.2	23.6	0.00e+00	0	25	0	1102053376	40	6415
2026-01-09 22:49:55.35	60.03	35.92	-34.7	-35.6	23.5	0.00e+00	0	25	0	1105199104	40	6705
2026-01-09 22:49:56.33	59.64	35.97	-34.7	-35.7	23.4	0.00e+00	0	25	0	1108344832	42	6019
2026-01-09 22:49:57.30	59.25	36.01	-34.8	-35.8	23.2	0.00e+00	0	25	0	1110441984	42	6080
2026-01-09 22:49:58.28	58.86	36.06	-34.8	-35.8	23.1	0.00e+00	0	25	0	1113587712	42	6102
2026-01-09 22:49:59.26	58.46	36.11	-34.8	-35.8	23.3	0.00e+00	0	25	0	1116733440	42	6107
2026-01-09 22:50:00.24	58.06	36.15	-34.6	-35.6	23.5	0.00e+00	0	25	0	1119879168	42	5970
2026-01-09 22:50:01.21	57.67	36.19	-34.6	-35.5	23.5	0.00e+00	0	25	0	1123024896	42	5913
2026-01-09 22:50:02.19	57.27	36.23	-34.5	-35.4	23.5	0.00e+00	0	25	0	1126170624	42	5858
2026-01-09 22:50:03.16	56.88	36.27	-34.6	-35.5	23.5	0.00e+00	0	25	0	1129316352	42	5917
2026-01-09 22:50:04.14	56.48	36.31	-34.6	-35.6	23.5	0.00e+00	0	25	0	1132462080	42	5940
2026-01-09 22:50:05.12	56.07	36.35	-34.6	-35.6	23.5	0.00e+00	0	25	0	1135607808	42	5955
2026-01-09 22:50:06.09	55.68	36.38	-34.8	-35.7	23.4	0.00e+00	0	25	0	1138753536	42	6036
2026-01-09 22:50:07.07	55.27	36.42	-34.5	-35.5	23.7	0.00e+00	0	25	0	1141899264	42	5869
2026-01-09 22:50:08.05	54.87	36.45	-34.7	-35.7	23.5	0.00e+00	0	25	0	1145044992	42	5998
2026-01-09 22:50:09.03	54.46	36.48	-34.3	-35.2	23.8	0.00e+00	0	25	0	1148190720	42	5665
2026-01-09 22:50:10.01	54.06	36.51	-34.3	-35.2	23.7	0.00e+00	0	25	0	1150287872	42	5691
2026-01-09 22:50:10.98	53.66	36.53	-34.4	-35.3	23.7	0.00e+00	0	25	0	1153433600	42	5751
2026-01-09 22:50:11.96	53.25	36.56	-34.5	-35.4	23.6	0.00e+00	0	25	0	1156579328	42	5818
2026-01-09 22:50:12.94	52.84	36.58	-34.3	-35.2	23.6	0.00e+00	0	25	0	1159725056	42	5724
2026-01-09 22:50:13.91	52.44	36.61	-34.3	-35.3	23.6	0.00e+00	0	25	0	1162870784	42	5734
2026-01-09 22:50:14.89	52.03	36.63	-34.3	-35.2	23.7	0.00e+00	0	25	0	1166016512	42	5709
2026-01-09 22:50:15.87	51.62	36.64	-34.2	-35.1	23.8	0.00e+00	0	25	0	1169162240	42	5635
2026-01-09 22:50:16.84	51.22	36.66	-34.1	-35.0	23.8	0.00e+00	0	25	0	1172307968	42	5580
2026-01-09 22:50:17.82	50.81	36.68	-34.1	-35.0	24.0	0.00e+00	0	25	0	1175453696	42	5552
2026-01-09 22:50:18.79	50.40	36.69	-34.0	-34.9	24.0	0.00e+00	0	25	0	1178599424	42	5510
2026-01-09 22:50:19.77	49.99	36.70	-34.0	-34.9	23.9	0.00e+00	0	25	0	1181745152	42	5488
2026-01-09 22:50:20.75	49.58	36.71	-34.2	-35.1	23.8	0.00e+00	0	25	0	1183842304	42	5634
2026-01-09 22:50:21.72	49.17	36.72	-34.5	-35.4	23.7	0.00e+00	0	25	0	1186988032	42	5835
2026-01-09 22:50:22.70	48.76	36.73	-34.4	-35.3	23.8	0.00e+00	0	25	0	1190133760	42	5769
2026-01-09 22:50:23.67	48.35	36.74	-34.6	-35.5	23.6	0.00e+00	0	25	0	1193279488	42	5899
2026-01-09 22:50:24.65	47.94	36.74	-34.5	-35.5	23.6	0.00e+00	0	25	0	1196425216	42	5868
2026-01-09 22:50:25.63	47.53	36.74	-34.6	-35.5	23.6	0.00e+00	0	25	0	1199570944	42	5899
2026-01-09 22:50:26.61	47.12	36.74	-34.6	-35.6	23.5	0.00e+00	0	25	0	1202716672	42	5962
2026-01-09 22:50:27.58	46.71	36.74	-34.9	-35.9	23.3	0.00e+00	0	25	0	1205862400	42	6152
2026-01-09 22:50:28.56	46.30	36.74	-34.6	-35.6	23.6	0.00e+00	0	25	0	1209008128	42	5928
2026-01-09 22:50:29.54	45.89	36.73	-34.5	-35.5	23.7	0.00e+00	0	25	0	1212153856	42	5875
2026-01-09 22:50:30.52	45.48	36.73	-34.8	-35.7	23.4	0.00e+00	0	25	0	1215299584	42	6049
2026-01-09 22:50:31.50	45.07	36.72	-34.7	-35.7	23.5	0.00e+00	0	25	0	1217396736	42	6010
2026-01-09 22:50:32.47	44.66	36.71	-34.7	-35.7	23.5	0.00e+00	0	25	0	1220542464	42	6034
2026-01-09 22:50:33.45	44.25	36.70	-34.7	-35.6	23.5	0.00e+00	0	25	0	1223688192	42	5987
2026-01-09 22:50:34.43	43.84	36.69	-34.6	-35.5	23.6	0.00e+00	0	25	0	1226833920	42	5921
2026-01-09 22:50:35.41	43.43	36.67	-34.1	-35.0	24.0	0.00e+00	0	25	0	1229979648	42	5553
2026-01-09 22:50:36.38	43.02	36.65	-34.1	-35.0	23.9	0.00e+00	0	25	0	1233125376	42	5557
2026-01-09 22:50:37.36	42.61	36.64	-34.3	-35.3	23.8	0.00e+00	0	25	0	1236271104	42	5727
2026-01-09 22:50:38.34	42.20	36.62	-34.5	-35.4	23.7	0.00e+00	0	25	0	1239416832	42	5842
2026-01-09 22:50:39.32	41.80	36.60	-34.5	-35.4	23.7	0.00e+00	0	25	0	1242562560	42	5842
2026-01-09 22:50:40.29	41.39	36.57	-34.6	-35.5	23.6	0.00e+00	0	25	0	1245708288	42	5924
2026-01-09 22:50:41.27	40.99	36.55	-34.4	-35.3	23.7	0.00e+00	0	25	0	1248854016	42	5742
2026-01-09 22:50:42.25	40.58	36.52	-34.3	-35.3	23.7	0.00e+00	0	25	0	1250951168	42	5742
2026-01-09 22:50:43.23	40.17	36.49	-34.2	-35.2	23.8	0.00e+00	0	25	0	1254096896	42	5666
2026-01-09 22:50:44.21	39.77	36.47	-34.1	-35.0	23.9	0.00e+00	0	25	0	1257242624	42	5594
2026-01-09 22:50:45.19	39.37	36.43	-34.2	-35.1	23.8	0.00e+00	0	25	0	1260388352	42	5658
2026-01-09 22:50:46.16	38.97	36.40	-34.4	-35.3	23.6	0.00e+00	0	25	0	1263534080	42	5748
2026-01-09 22:50:47.14	38.56	36.37	-34.4	-35.3	23.6	0.00e+00	0	25	0	1266679808	42	5775
2026-01-09 22:50:48.11	38.17	36.33	-34.5	-35.4	23.6	0.00e+00	0	25	0	1269825536	42	5820
2026-01-09 22:50:49.09	37.77	36.30	-33.9	-34.8	24.0	0.00e+00	0	25	0	1272971264	42	5455
2026-01-09 22:50:50.07	37.37	36.26	-33.9	-34.8	24.0	0.00e+00	0	25	0	1276116992	42	5437
2026-01-09 22:50:51.05	36.97	36.22	-33.8	-34.7	24.0	0.00e+00	0	25	0	1279262720	42	5362
2026-01-09 22:50:52.03	36.57	36.17	-33.7	-34.6	24.0	0.00e+00	0	25	0	1282408448	40	5942
2026-01-09 22:50:53.00	36.18	36.13	-33.9	-34.8	23.9	0.00e+00	0	25	0	1285554176	40	6089
2026-01-09 22:50:53.98	35.78	36.09	-34.0	-34.9	23.8	0.00e+00	0	25	0	1287651328	40	6196
2026-01-09 22:50:54.96	35.39	36.04	-34.0	-35.0	23.7	0.00e+00	0	25	0	1290797056	40	6223
2026-01-09 22:50:55.93	35.00	35.99	-34.4	-35.3	23.6	0.00e+00	0	25	0	1293942784	40	6490
2026-01-09 22:50:56.91	34.60	35.94	-34.6	-35.5	23.5	0.00e+00	0	25	0	1297088512	40	6635
2026-01-09 22:50:57.89	34.21	35.89	-34.8	-35.7	23.4	0.00e+00	0	25	0	1300234240	40	6801
2026-01-09 22:50:58.87	33.82	35.84	-34.9	-35.8	23.3	0.00e+00	0	25	0	1303379968	42	6128
2026-01-09 22:50:59.84	33.44	35.79	-34.8	-35.8	23.1	0.00e+00	0	25	0	1306525696	42	6107
2026-01-09 22:51:00.82	33.05	35.73	-34.7	-35.7	23.1	0.00e+00	0	25	0	1309671424	42	6032
2026-01-09 22:51:01.79	32.67	35.68	-34.6	-35.6	23.2	0.00e+00	0	25	0	1312817152	42	5943
2026-01-09 22:51:02.77	32.29	35.62	-34.6	-35.6	23.2	0.00e+00	0	25	0	1315962880	42	5969
2026-01-09 22:51:03.75	31.90	35.56	-34.5	-35.5	23.4	0.00e+00	0	25	0	1319108608	42	5881
2026-01-09 22:51:04.73	31.52	35.50	-34.5	-35.4	23.5	0.00e+00	0	25	0	1322254336	42	5850
2026-01-09 22:51:05.71	31.14	35.44	-34.4	-35.4	23.7	0.00e+00	0	25	0	1324351488	42	5793
2026-01-09 22:51:06.68	30.77	35.38	-34.5	-35.4	23.7	0.00e+00	0	25	0	1327497216	42	5841
2026-01-09 22:51:07.66	30.39	35.31	-34.5	-35.4	23.6	0.00e+00	0	25	0	1330642944	42	5826
2026-01-09 22:51:08.64	30.01	35.25	-34.6	-35.6	23.6	0.00e+00	0	25	0	1333788672	42	5927
2026-01-09 22:51:09.61	29.64	35.18	-34.7	-35.7	23.4	0.00e+00	0	25	0	1336934400	42	6003
2026-01-09 22:51:10.60	29.27	35.11	-34.5	-35.5	23.5	0.00e+00	0	25	0	1340080128	42	5888
2026-01-09 22:51:11.57	28.90	35.04	-34.6	-35.5	23.5	0.00e+00	0	25	0	1343225856	42	5911
2026-01-09 22:51:12.55	28.53	34.97	-34.4	-35.4	23.6	0.00e+00	0	25	0	1346371584	42	5801
2026-01-09 22:51:13.53	28.16	34.90	-34.6	-35.5	23.5	0.00e+00	0	25	0	1349517312	42	5919
2026-01-09 22:51:14.51	27.79	34.83	-34.7	-35.7	23.4	0.00e+00	0	25	0	1352663040	42	5995
2026-01-09 22:51:15.48	27.43	34.75	-34.6	-35.5	23.6	0.00e+00	0	25	0	1355808768	42	5925
2026-01-09 22:51:16.46	27.07	34.68	-34.1	-35.1	23.9	0.00e+00	0	25	0	1358954496	42	5596
2026-01-09 22:51:17.44	26.71	34.60	-33.8	-34.7	24.1	0.00e+00	0	25	0	1361051648	42	5383
2026-01-09 22:51:18.42	26.35	34.53	-33.8	-34.7	24.1	0.00e+00	0	25	0	1364197376	42	5357
2026-01-09 22:51:19.39	26.00	34.45	-33.4	-34.3	24.4	0.00e+00	0	25	0	1367343104	40	5728
2026-01-09 22:51:20.36	25.64	34.37	-33.5	-34.3	24.2	0.00e+00	0	25	0	1370488832	40	5788
2026-01-09 22:51:21.34	25.29	34.29	-33.8	-34.7	24.0	0.00e+00	0	25	0	1373634560	40	6014
2026-01-09 22:51:22.32	24.94	34.21	-34.0	-35.0	23.8	0.00e+00	0	25	0	1376780288	40	6215
2026-01-09 22:51:23.29	24.59	34.13	-34.2	-35.1	23.7	0.00e+00	0	25	0	1379926016	40	6331
2026-01-09 22:51:24.27	24.24	34.04	-34.0	-34.9	23.7	0.00e+00	0	25	0	1383071744	40	6183
2026-01-09 22:51:25.24	23.90	33.96	-33.8	-34.7	24.0	0.00e+00	0	25	0	1386217472	40	6035
2026-01-09 22:51:26.22	23.55	33.87	-33.3	-34.2	24.5	0.00e+00	0	25	0	1389363200	40	5680
2026-01-09 22:51:27.20	23.21	33.79	-33.0	-33.8	24.8	0.00e+00	0	25	0	1391460352	40	5458
2026-01-09 22:51:28.18	22.87	33.70	-32.9	-33.8	24.9	0.00e+00	0	25	0	1394606080	40	5425
2026-01-09 22:51:29.15	22.53	33.61	-33.3	-34.2	24.5	0.00e+00	0	25	0	1397751808	40	5710
2026-01-09 22:51:30.13	22.19	33.52	-33.6	-34.5	24.2	0.00e+00	0	25	0	1400897536	40	5891
2026-01-09 22:51:31.10	21.86	33.43	-34.2	-35.1	23.9	0.00e+00	0	25	0	1404043264	40	6306
2026-01-09 22:51:32.08	21.53	33.34	-34.5	-35.5	23.6	0.00e+00	0	25	0	1407188992	40	6577
2026-01-09 22:51:33.05	21.20	33.25	-34.3	-35.2	23.8	0.00e+00	0	25	0	1410334720	40	6387
2026-01-09 22:51:34.03	20.87	33.16	-34.0	-35.0	23.9	0.00e+00	0	25	0	1413480448	40	6227
2026-01-09 22:51:35.01	20.54	33.07	-34.0	-35.0	23.9	0.00e+00	0	25	0	1416626176	40	6211
2026-01-09 22:51:35.98	20.21	32.97	-33.3	-34.1	24.7	0.00e+00	0	25	0	1419771904	40	5656
2026-01-09 22:51:36.96	19.89	32.88	-32.8	-33.6	24.9	0.00e+00	0	25	0	1422917632	40	5340
2026-01-09 22:51:37.94	19.57	32.78	-32.8	-33.7	24.9	0.00e+00	0	25	0	1425014784	40	5375
2026-01-09 22:51:38.92	19.25	32.69	-33.2	-34.1	24.6	0.00e+00	0	25	0	1428160512	40	5622
2026-01-09 22:51:39.90	18.93	32.59	-33.6	-34.5	24.2	0.00e+00	0	25	0	1431306240	40	5892
2026-01-09 22:51:40.87	18.61	32.49	-33.9	-34.9	23.9	0.00e+00	0	25	0	1434451968	40	6149
2026-01-09 22:51:41.85	18.30	32.39	-33.9	-34.8	24.0	0.00e+00	0	25	0	1437597696	40	6079
2026-01-09 22:51:42.83	17.99	32.29	-33.6	-34.5	24.2	0.00e+00	0	25	0	1440743424	40	5926
2026-01-09 22:51:43.80	17.68	32.20	-33.6	-34.5	24.2	0.00e+00	0	25	0	1443889152	40	5918
2026-01-09 22:51:44.78	17.37	32.10	-33.2	-34.1	24.6	0.00e+00	0	25	0	1447034880	40	5625
2026-01-09 22:51:45.76	17.06	31.99	-33.4	-34.3	24.4	0.00e+00	0	25	0	1450180608	40	5743
2026-01-09 22:51:46.73	16.76	31.89	-33.7	-34.6	24.2	0.00e+00	0	25	0	1453326336	40	5933
2026-01-09 22:51:47.70	16.46	31.79	-33.8	-34.8	23.9	0.00e+00	0	25	0	1456472064	40	6079
2026-01-09 22:51:48.68	16.16	31.69	-33.6	-34.6	23.8	0.00e+00	0	25	0	1458569216	40	5948
2026-01-09 22:51:49.66	15.86	31.59	-33.2	-34.1	23.9	0.00e+00	0	25	0	1461714944	40	5646
2026-01-09 22:51:50.64	15.56	31.48	-33.0	-33.9	23.9	0.00e+00	0	25	0	1464860672	40	5505
2026-01-09 22:51:51.62	15.26	31.38	-32.9	-33.8	24.2	0.00e+00	0	25	0	1468006400	40	5439
2026-01-09 22:51:52.59	14.97	31.28	-32.6	-33.5	24.6	0.00e+00	0	25	0	1471152128	38	5890
2026-01-09 22:51:53.57	14.68	31.17	-32.8	-33.7	24.6	0.00e+00	0	25	0	1474297856	38	6026
2026-01-09 22:51:54.55	14.39	31.07	-32.9	-33.8	24.8	0.00e+00	0	25	0	1477443584	38	6081
2026-01-09 22:51:55.52	14.10	30.96	-33.3	-34.2	24.4	0.00e+00	0	25	0	1480589312	38	6370
2026-01-09 22:51:56.50	13.82	30.85	-33.6	-34.5	24.2	0.00e+00	0	25	0	1483735040	38	6585
2026-01-09 22:51:57.47	13.54	30.75	-33.8	-34.7	24.0	0.00e+00	0	25	0	1486880768	40	6060
2026-01-09 22:51:58.44	13.26	30.64	-33.8	-34.7	23.8	0.00e+00	0	25	0	1490026496	40	6044
2026-01-09 22:51:59.42	12.98	30.54	-33.9	-34.8	23.7	0.00e+00	0	25	0	1493172224	40	6107
2026-01-09 22:52:00.40	12.70	30.43	-33.8	-34.7	23.7	0.00e+00	0	25	0	1495269376	40	6046
2026-01-09 22:52:01.38	12.42	30.32	-33.7	-34.7	23.8	0.00e+00	0	25	0	1498415104	40	6008
2026-01-09 22:52:02.36	12.14	30.21	-33.7	-34.7	23.9	0.00e+00	0	25	0	1501560832	40	6013
2026-01-09 22:52:03.34	11.87	30.10	-33.4	-34.3	24.3	0.00e+00	0	25	0	1504706560	40	5780
2026-01-09 22:52:04.32	11.60	29.99	-33.3	-34.3	24.3	0.00e+00	0	25	0	1507852288	40	5746
2026-01-09 22:52:05.29	11.33	29.88	-33.4	-34.3	24.2	0.00e+00	0	25	0	1510998016	40	5784
2026-01-09 22:52:06.27	11.07	29.77	-33.3	-34.2	24.1	0.00e+00	0	25	0	1514143744	40	5692
2026-01-09 22:52:07.25	10.80	29.66	-33.3	-34.2	24.0	0.00e+00	0	25	0	1517289472	40	5705
2026-01-09 22:52:08.23	10.54	29.55	-33.3	-34.3	24.0	0.00e+00	0	25	0	1520435200	40	5730
2026-01-09 22:52:09.20	10.28	29.44	-33.3	-34.3	24.1	0.00e+00	0	25	0	1523580928	40	5729
2026-01-09 22:52:10.18	10.02	29.33	-32.8	-33.7	24.5	0.00e+00	0	25	0	1526726656	40	5384
2026-01-09 22:52:11.16	9.76	29.22	-32.9	-33.8	24.6	0.00e+00	0	25	0	1529872384	40	5438
2026-01-09 22:52:12.14	9.50	29.11	-32.8	-33.7	24.7	0.00e+00	0	25	0	1531969536	40	5389
2026-01-09 22:52:13.12	9.25	29.00	-32.6	-33.5	25.0	0.00e+00	0	25	0	1535115264	38	5905
2026-01-09 22:52:14.09	8.99	28.89	-32.6	-33.5	25.0	0.00e+00	0	25	0	1538260992	38	5902
2026-01-09 22:52:15.07	8.74	28.78	-32.5	-33.4	25.1	0.00e+00	0	25	0	1541406720	38	5832
2026-01-09 22:52:16.05	8.49	28.66	-32.6	-33.5	24.8	0.00e+00	0	25	0	1544552448	38	5888
2026-01-09 22:52:17.02	8.25	28.55	-32.4	-33.3	25.0	0.00e+00	0	25	0	1547698176	38	5729
2026-01-09 22:52:18.00	8.00	28.44	-32.4	-33.2	25.0	0.00e+00	0	25	0	1550843904	38	5697
2026-01-09 22:52:18.98	7.76	28.33	-32.5	-33.4	24.9	0.00e+00	0	25	0	1553989632	38	5819
2026-01-09 22:52:19.96	7.52	28.22	-32.5	-33.3	24.9	0.00e+00	0	25	0	1557135360	38	5782
2026-01-09 22:52:20.94	7.27	28.10	-32.6	-33.5	24.8	0.00e+00	0	25	0	1560281088	38	5898
2026-01-09 22:52:21.91	7.04	27.99	-32.7	-33.6	24.7	0.00e+00	0	25	0	1563426816	38	5957
2026-01-09 22:52:22.89	6.80	27.88	-32.7	-33.6	24.7	0.00e+00	0	25	0	1565523968	38	5958
2026-01-09 22:52:23.86	6.57	27.77	-32.8	-33.7	24.8	0.00e+00	0	25	0	1568669696	38	6008
2026-01-09 22:52:24.85	6.33	27.65	-32.5	-33.4	24.9	0.00e+00	0	25	0	1571815424	38	5821
2026-01-09 22:52:25.82	6.10	27.54	-32.4	-33.2	25.0	0.00e+00	0	25	0	1574961152	38	5708
2026-01-09 22:52:26.80	5.87	27.43	-32.4	-33.2	25.0	0.00e+00	0	25	0	1578106880	38	5723
2026-01-09 22:52:27.77	5.64	27.32	-32.3	-33.1	25.2	0.00e+00	0	25	0	1581252608	38	5643
2026-01-09 22:52:28.75	5.41	27.20	-32.4	-33.3	25.1	0.00e+00	0	25	0	1584398336	38	5736
2026-01-09 22:52:29.73	5.19	27.09	-32.5	-33.4	25.1	0.00e+00	0	25	0	1587544064	38	5797
2026-01-09 22:52:30.70	4.97	26.98	-32.5	-33.4	25.0	0.00e+00	0	25	0	1590689792	38	5820
2026-01-09 22:52:31.68	4.74	26.86	-32.7	-33.5	25.0	0.00e+00	0	25	0	1593835520	38	5924
2026-01-09 22:52:32.66	4.52	26.75	-32.8	-33.7	24.8	0.00e+00	0	25	0	1596981248	38	6001
2026-01-09 22:52:33.63	4.31	26.64	-32.9	-33.8	24.7	0.00e+00	0	25	0	1599078400	38	6071
2026-01-09 22:52:34.61	4.09	26.52	-33.0	-33.9	24.5	0.00e+00	0	25	0	1602224128	38	6190
2026-01-09 22:52:35.59	3.87	26.41	-32.9	-33.8	24.5	0.00e+00	0	25	0	1605369856	38	6068
2026-01-09 22:52:36.56	3.66	26.30	-32.8	-33.7	24.5	0.00e+00	0	25	0	1608515584	38	6040
2026-01-09 22:52:37.54	3.45	26.19	-32.7	-33.6	24.4	0.00e+00	0	25	0	1611661312	38	5986
2026-01-09 22:52:38.52	3.23	26.07	-32.3	-33.1	24.8	0.00e+00	0	25	0	1614807040	38	5654
2026-01-09 22:52:39.50	3.02	25.96	-32.1	-32.9	24.9	0.00e+00	0	25	0	1617952768	38	5526
2026-01-09 22:52:40.47	2.82	25.85	-32.1	-33.0	25.0	0.00e+00	0	25	0	1621098496	38	5557
2026-01-09 22:52:41.45	2.61	25.73	-32.4	-33.3	25.0	0.00e+00	0	25	0	1624244224	38	5757
2026-01-09 22:52:42.43	2.40	25.62	-32.5	-33.4	24.8	0.00e+00	0	25	0	1627389952	38	5838
2026-01-09 22:52:43.41	2.20	25.51	-32.8	-33.6	24.8	0.00e+00	0	25	0	1630535680	38	5986
2026-01-09 22:52:44.39	2.00	25.40	-32.9	-33.8	24.7	0.00e+00	0	25	0	1632632832	38	6076
2026-01-09 22:52:45.36	1.80	25.28	-33.1	-34.0	24.4	0.00e+00	0	25	0	1635778560	38	6210
2026-01-09 22:52:46.34	1.60	25.17	-33.2	-34.1	24.3	0.00e+00	0	25	0	1638924288	38	6333
2026-01-09 22:52:47.32	1.40	25.06	-33.1	-34.0	24.4	0.00e+00	0	25	0	1642070016	38	6246
2026-01-09 22:52:48.30	1.20	24.95	-33.0	-33.9	24.6	0.00e+00	0	25	0	1645215744	38	6172
2026-01-09 22:52:49.28	1.01	24.83	-32.6	-33.5	24.8	0.00e+00	0	25	0	1648361472	38	5887
2026-01-09 22:52:50.26	0.81	24.72	-32.7	-33.6	24.8	0.00e+00	0	25	0	1651507200	38	5974
2026-01-09 22:52:51.23	0.62	24.61	-32.4	-33.2	25.2	0.00e+00	0	25	0	1654652928	38	5725
2026-01-09 22:52:52.22	0.43	24.50	-32.1	-33.0	25.4	0.00e+00	0	25	0	1657798656	38	5547
2026-01-09 22:52:53.19	0.24	24.39	-32.3	-33.1	25.2	0.00e+00	0	25	0	1660944384	38	5633
2026-01-09 22:52:54.16	0.05	24.28	-32.1	-33.0	25.3	0.00e+00	0	25	0	1664090112	38	5550
2026-01-09 22:52:55.14	359.87	24.16	-32.0	-32.9	25.4	0.00e+00	0	25	0	1667235840	38	5470
2026-01-09 22:52:56.12	359.68	24.05	-32.1	-33.0	25.5	0.00e+00	0	25	0	1669332992	38	5531
2026-01-09 22:52:57.10	359.50	23.94	-32.1	-33.0	25.4	0.00e+00	0	25	0	1672478720	38	5545
2026-01-09 22:52:58.08	359.31	23.83	-32.1	-33.0	25.3	0.00e+00	0	25	0	1675624448	38	5541
2026-01-09 22:52:59.05	359.13	23.72	-32.3	-33.1	25.2	0.00e+00	0	25	0	1678770176	38	5629
2026-01-09 22:53:00.03	358.95	23.61	-32.3	-33.1	25.2	0.00e+00	0	25	0	1681915904	38	5635
2026-01-09 22:53:01.01	358.77	23.50	-32.3	-33.1	25.2	0.00e+00	0	25	0	1685061632	38	5654
2026-01-09 22:53:01.99	358.59	23.39	-32.2	-33.1	25.2	0.00e+00	0	25	0	1688207360	38	5616
2026-01-09 22:53:02.96	358.42	23.28	-32.2	-33.1	25.3	0.00e+00	0	25	0	1691353088	38	5608
2026-01-09 22:53:03.94	358.24	23.17	-32.3	-33.1	25.1	0.00e+00	0	25	0	1694498816	38	5643
2026-01-09 22:53:04.92	358.07	23.06	-32.2	-33.0	25.3	0.00e+00	0	25	0	1697644544	38	5568
2026-01-09 22:53:05.89	357.90	22.95	-32.3	-33.2	25.1	0.00e+00	0	25	0	1700790272	38	5696
2026-01-09 22:53:06.87	357.73	22.84	-32.3	-33.2	25.1	0.00e+00	0	25	0	1703936000	38	5668
2026-01-09 22:53:07.84	357.56	22.73	-32.4	-33.3	25.0	0.00e+00	0	25	0	1706033152	38	5745
2026-01-09 22:53:08.82	357.39	22.62	-32.5	-33.4	24.9	0.00e+00	0	25	0	1709178880	38	5817
2026-01-09 22:53:09.80	357.22	22.51	-32.7	-33.6	24.8	0.00e+00	0	25	0	1712324608	38	5958
2026-01-09 22:53:10.77	357.05	22.41	-32.8	-33.7	24.8	0.00e+00	0	25	0	1715470336	38	5996
2026-01-09 22:53:11.75	356.89	22.30	-32.9	-33.8	24.7	0.00e+00	0	25	0	1718616064	38	6083
2026-01-09 22:53:12.73	356.72	22.19	-33.0	-33.9	24.6	0.00e+00	0	25	0	1721761792	38	6140
2026-01-09 22:53:13.71	356.56	22.08	-33.1	-34.0	24.5	0.00e+00	0	25	0	1724907520	38	6224
2026-01-09 22:53:14.68	356.40	21.97	-32.8	-33.7	24.6	0.00e+00	0	25	0	1728053248	38	6039
2026-01-09 22:53:15.66	356.24	21.87	-32.9	-33.9	24.4	0.00e+00	0	25	0	1731198976	38	6135
2026-01-09 22:53:16.63	356.08	21.76	-33.0	-33.9	24.4	0.00e+00	0	25	0	1734344704	38	6153
2026-01-09 22:53:17.61	355.92	21.65	-33.1	-34.0	24.3	0.00e+00	0	25	0	1737490432	38	6246
2026-01-09 22:53:18.59	355.76	21.54	-33.0	-33.9	24.4	0.00e+00	0	25	0	1739587584	38	6154
2026-01-09 22:53:19.57	355.61	21.44	-32.8	-33.7	24.5	0.00e+00	0	25	0	1742733312	38	6052
2026-01-09 22:53:20.54	355.45	21.33	-32.7	-33.6	24.5	0.00e+00	0	25	0	1745879040	38	5987
2026-01-09 22:53:21.51	355.30	21.23	-32.8	-33.7	24.5	0.00e+00	0	25	0	1749024768	38	5999
2026-01-09 22:53:22.49	355.15	21.12	-32.7	-33.6	24.6	0.00e+00	0	25	0	1752170496	38	5952
2026-01-09 22:53:23.47	354.99	21.01	-32.9	-33.8	24.5	0.00e+00	0	25	0	1755316224	38	6105
2026-01-09 22:53:24.45	354.84	20.91	-33.0	-33.9	24.5	0.00e+00	0	25	0	1758461952	38	6174
2026-01-09 22:53:25.43	354.69	20.80	-33.1	-34.0	24.4	0.00e+00	0	25	0	1761607680	38	6224
2026-01-09 22:53:26.40	354.54	20.70	-33.2	-34.1	24.3	0.00e+00	0	25	0	1764753408	38	6345
2026-01-09 22:53:27.39	354.39	20.59	-33.2	-34.1	24.3	0.00e+00	0	25	0	1767899136	38	6321
2026-01-09 22:53:28.36	354.25	20.49	-33.2	-34.1	24.3	0.00e+00	0	25	0	1771044864	38	6340
2026-01-09 22:53:29.34	354.10	20.38	-33.3	-34.2	24.2	0.00e+00	0	25	0	1773142016	38	6375
2026-01-09 22:53:30.32	353.96	20.28	-33.2	-34.1	24.3	0.00e+00	0	25	0	1776287744	38	6350
2026-01-09 22:53:31.30	353.81	20.18	-33.1	-34.0	24.4	0.00e+00	0	25	0	1779433472	38	6259
2026-01-09 22:53:32.27	353.67	20.07	-33.1	-34.0	24.4	0.00e+00	0	25	0	1782579200	38	6236
2026-01-09 22:53:33.25	353.53	19.97	-33.2	-34.1	24.4	0.00e+00	0	25	0	1785724928	38	6296
2026-01-09 22:53:34.23	353.39	19.87	-33.1	-34.0	24.5	0.00e+00	0	25	0	1788870656	38	6209
2026-01-09 22:53:35.20	353.25	19.76	-32.9	-33.7	24.7	0.00e+00	0	25	0	1792016384	38	6049
2026-01-09 22:53:36.18	353.11	19.66	-32.9	-33.8	24.7	0.00e+00	0	25	0	1795162112	38	6102
2026-01-09 22:53:37.16	352.97	19.56	-32.9	-33.8	24.7	0.00e+00	0	25	0	1798307840	38	6093
2026-01-09 22:53:38.14	352.84	19.45	-33.1	-34.0	24.5	0.00e+00	0	25	0	1801453568	38	6266
2026-01-09 22:53:39.11	352.70	19.35	-33.0	-33.9	24.6	0.00e+00	0	25	0	1804599296	38	6158
2026-01-09 22:53:40.09	352.56	19.25	-33.2	-34.1	24.5	0.00e+00	0	25	0	1806696448	38	6290
2026-01-09 22:53:41.06	352.43	19.15	-32.9	-33.8	24.6	0.00e+00	0	25	0	1809842176	38	6125
2026-01-09 22:53:42.04	352.30	19.05	-33.0	-33.9	24.5	0.00e+00	0	25	0	1812987904	38	6189
2026-01-09 22:53:43.02	352.17	18.95	-33.0	-33.9	24.6	0.00e+00	0	25	0	1816133632	38	6152
2026-01-09 22:53:43.99	352.03	18.85	-32.8	-33.7	24.8	0.00e+00	0	25	0	1819279360	38	6021
2026-01-09 22:53:44.97	351.90	18.75	-33.1	-34.0	24.5	0.00e+00	0	25	0	1822425088	38	6216
2026-01-09 22:53:45.95	351.77	18.65	-32.7	-33.6	24.8	0.00e+00	0	25	0	1825570816	38	5977
2026-01-09 22:53:46.93	351.64	18.55	-32.8	-33.7	24.7	0.00e+00	0	25	0	1828716544	38	6043
2026-01-09 22:53:47.91	351.52	18.45	-32.8	-33.7	24.8	0.00e+00	0	25	0	1831862272	38	6011
2026-01-09 22:53:48.88	351.39	18.35	-32.7	-33.6	24.9	0.00e+00	0	25	0	1835008000	38	5963
2026-01-09 22:53:49.86	351.26	18.25	-32.8	-33.7	24.8	0.00e+00	0	25	0	1838153728	38	6022
2026-01-09 22:53:50.84	351.14	18.15	-32.8	-33.6	24.8	0.00e+00	0	25	0	1841299456	38	5991
2026-01-09 22:53:51.82	351.01	18.05	-32.8	-33.6	24.8	0.00e+00	0	25	0	1843396608	38	5991
2026-01-09 22:53:52.79	350.89	17.95	-32.9	-33.7	24.6	0.00e+00	0	25	0	1846542336	38	6052
2026-01-09 22:53:53.77	350.77	17.85	-33.0	-33.9	24.6	0.00e+00	0	25	0	1849688064	38	6152
2026-01-09 22:53:54.75	350.64	17.76	-33.0	-33.9	24.6	0.00e+00	0	25	0	1852833792	38	6151
2026-01-09 22:53:55.73	350.52	17.66	-33.2	-34.1	24.5	0.00e+00	0	25	0	1855979520	38	6290
2026-01-09 22:53:56.71	350.40	17.56	-33.2	-34.1	24.4	0.00e+00	0	25	0	1859125248	38	6311
2026-01-09 22:53:57.68	350.28	17.46	-33.3	-34.2	24.3	0.00e+00	0	25	0	1862270976	38	6423
2026-01-09 22:53:58.66	350.16	17.37	-33.5	-34.4	24.2	0.00e+00	0	25	0	1865416704	38	6513
2026-01-09 22:53:59.64	350.05	17.27	-33.4	-34.3	24.2	0.00e+00	0	25	0	1868562432	38	6449
2026-01-09 22:54:00.62	349.93	17.17	-33.6	-34.5	24.1	0.00e+00	0	25	0	1871708160	38	6586
2026-01-09 22:54:01.59	349.81	17.08	-33.5	-34.4	24.1	0.00e+00	0	25	0	1874853888	38	6511
2026-01-09 22:54:02.58	349.69	16.98	-33.3	-34.2	24.2	0.00e+00	0	25	0	1877999616	38	6402
2026-01-09 22:54:03.55	349.58	16.88	-33.4	-34.3	24.3	0.00e+00	0	25	0	1880096768	38	6440
2026-01-09 22:54:04.53	349.47	16.79	-33.4	-34.4	24.2	0.00e+00	0	25	0	1883242496	38	6504
2026-01-09 22:54:05.50	349.35	16.69	-33.3	-34.2	24.2	0.00e+00	0	25	0	1886388224	38	6387
2026-01-09 22:54:06.48	349.24	16.60	-33.3	-34.2	24.2	0.00e+00	0	25	0	1889533952	38	6383
2026-01-09 22:54:07.45	349.13	16.51	-33.4	-34.3	24.1	0.00e+00	0	25	0	1892679680	38	6431
2026-01-09 22:54:08.43	349.02	16.41	-33.4	-34.3	24.1	0.00e+00	0	25	0	1895825408	38	6429
2026-01-09 22:54:09.41	348.91	16.32	-33.1	-34.0	24.3	0.00e+00	0	25	0	1898971136	38	6264
2026-01-09 22:54:10.39	348.80	16.22	-33.2	-34.1	24.2	0.00e+00	0	25	0	1902116864	38	6313
2026-01-09 22:54:11.37	348.69	16.13	-33.3	-34.2	24.2	0.00e+00	0	25	0	1905262592	38	6369
2026-01-09 22:54:12.34	348.58	16.04	-33.4	-34.3	24.1	0.00e+00	0	25	0	1908408320	38	6459
2026-01-09 22:54:13.32	348.47	15.94	-33.5	-34.4	24.0	0.00e+00	0	25	0	1911554048	38	6562
2026-01-09 22:54:14.29	348.36	15.85	-33.5	-34.5	24.0	0.00e+00	0	25	0	1913651200	38	6594
2026-01-09 22:54:15.27	348.26	15.76	-33.8	-34.7	23.9	0.00e+00	0	25	0	1916796928	38	6772
2026-01-09 22:54:16.25	348.15	15.66	-33.8	-34.8	23.9	0.00e+00	0	25	0	1919942656	40	6074
2026-01-09 22:54:17.23	348.05	15.57	-34.0	-34.9	23.7	0.00e+00	0	25	0	1923088384	40	6177
2026-01-09 22:54:18.21	347.94	15.48	-34.1	-35.1	23.5	0.00e+00	0	25	0	1926234112	40	6301
2026-01-09 22:54:19.19	347.84	15.39	-34.2	-35.2	23.5	0.00e+00	0	25	0	1929379840	40	6373
2026-01-09 22:54:20.16	347.73	15.30	-34.2	-35.2	23.4	0.00e+00	0	25	0	1932525568	40	6368
2026-01-09 22:54:21.14	347.63	15.21	-34.4	-35.3	23.3	0.00e+00	0	25	0	1935671296	40	6481
2026-01-09 22:54:22.12	347.53	15.11	-34.3	-35.3	23.2	0.00e+00	0	25	0	1938817024	40	6441
