passes_logs/2026/01/09/R4.6S_Anadyr/R4.6S_Anadyr__20260109_145658_SUOMI_NPP_rec.log

#Pass ID: 20260109_145658_SUOMI NPP
#Satellite: SUOMI NPP
#Configuration: NPP
#almurnet v.1.7.20251203
#Start time: 2026-01-09 14:56:59

#Version: 2.2.20231116
#Station: R4.6S_Anadyr
#Location: 177.4865 lon 64.73178 lat
#TLE: 1 37849U 11061A   26008.05542337  .00000108  00000+0  71976-4 0  9997
#TLE: 2 37849  98.7805 310.1641 0002540  75.6410 284.5048 14.19523335735721

#Time	Az	El	Level	Level2	SNR	BER	BlckErr	Temp	State	Recorded	gain1	gain2
2026-01-09 14:56:59.47	20.88	0.05	-47.7	-60.2	3.4	1.52e+00	0	20	0	0	60	35864
2026-01-09 14:57:00.48	20.88	0.11	-47.7	-62.9	3.6	1.51e+00	0	21	104	0	60	50532
2026-01-09 14:57:01.49	20.88	0.17	-47.7	-63.0	3.6	1.51e+00	0	21	104	0	60	51117
2026-01-09 14:57:02.50	20.88	0.23	-47.7	-62.9	3.6	1.51e+00	0	21	104	0	60	50630
2026-01-09 14:57:03.51	20.88	0.30	-47.8	-63.0	3.6	1.51e+00	0	21	104	0	60	51026
2026-01-09 14:57:04.52	20.88	0.36	-47.7	-62.9	3.6	1.51e+00	0	21	104	0	60	50616
2026-01-09 14:57:05.53	20.88	0.42	-47.7	-62.9	3.6	1.51e+00	0	21	104	0	60	50638
2026-01-09 14:57:06.54	20.88	0.48	-47.6	-62.9	3.6	1.51e+00	0	21	104	0	60	50619
2026-01-09 14:57:07.55	20.88	0.54	-47.6	-62.8	3.6	1.51e+00	0	21	104	0	60	49936
2026-01-09 14:57:08.55	20.88	0.60	-47.6	-62.8	3.6	1.51e+00	0	21	104	0	60	49702
2026-01-09 14:57:09.56	20.88	0.66	-47.5	-62.7	3.6	1.51e+00	0	21	104	0	60	49289
2026-01-09 14:57:10.57	20.88	0.72	-47.4	-62.6	3.6	1.51e+00	0	21	104	0	60	48675
2026-01-09 14:57:11.58	20.88	0.78	-47.2	-62.4	3.6	1.51e+00	0	21	104	0	60	47744
2026-01-09 14:57:12.59	20.88	0.85	-46.9	-62.3	3.6	1.51e+00	0	22	104	0	60	46890
2026-01-09 14:57:13.60	20.88	0.91	-46.9	-62.1	3.6	1.51e+00	0	22	104	0	60	45971
2026-01-09 14:57:14.61	20.88	0.97	-46.6	-61.8	3.6	1.51e+00	0	22	104	0	60	44684
2026-01-09 14:57:15.62	20.88	1.03	-46.2	-61.3	3.6	1.51e+00	0	22	104	0	60	42153
2026-01-09 14:57:16.63	20.88	1.10	-46.2	-61.3	3.6	1.51e+00	0	22	104	0	60	42150
2026-01-09 14:57:17.64	20.88	1.16	-46.2	-61.4	3.6	1.51e+00	0	22	104	0	60	42315
2026-01-09 14:57:18.65	20.88	1.22	-46.2	-61.4	3.6	1.51e+00	0	22	104	0	60	42256
2026-01-09 14:57:19.66	20.88	1.28	-46.2	-61.3	3.6	1.51e+00	0	22	104	0	60	42161
2026-01-09 14:57:20.66	20.88	1.35	-46.2	-61.2	3.6	1.51e+00	0	22	104	0	60	41721
2026-01-09 14:57:21.67	20.88	1.41	-46.1	-61.2	3.5	1.51e+00	0	22	104	0	60	41503
2026-01-09 14:57:22.68	20.88	1.47	-46.2	-61.3	3.6	1.51e+00	0	22	104	0	60	41776
2026-01-09 14:57:23.69	20.88	1.54	-46.2	-61.2	3.6	1.51e+00	0	22	104	0	60	41393
2026-01-09 14:57:24.70	20.88	1.60	-46.1	-61.2	3.6	1.51e+00	0	22	104	0	60	41633
2026-01-09 14:57:25.72	20.88	1.66	-46.1	-61.3	3.6	1.51e+00	0	22	104	0	60	41743
2026-01-09 14:57:26.72	20.88	1.73	-46.1	-61.3	3.6	1.51e+00	0	22	104	0	60	41844
2026-01-09 14:57:27.73	20.88	1.79	-46.1	-61.3	3.6	1.51e+00	0	22	104	0	60	41949
2026-01-09 14:57:28.74	20.88	1.85	-46.1	-61.3	3.6	1.51e+00	0	22	104	0	60	41961
2026-01-09 14:57:29.75	20.88	1.92	-46.1	-61.3	3.6	1.51e+00	0	22	104	0	60	41969
2026-01-09 14:57:30.76	20.88	1.98	-46.1	-61.3	3.6	1.51e+00	0	22	104	0	60	41852
2026-01-09 14:57:31.77	20.88	2.05	-46.1	-61.3	3.6	1.51e+00	0	22	104	0	60	41943
2026-01-09 14:57:32.78	20.88	2.11	-46.1	-61.2	3.6	1.51e+00	0	22	104	0	60	41702
2026-01-09 14:57:33.80	20.88	2.18	-46.1	-61.2	3.6	1.51e+00	0	22	104	0	60	41363
2026-01-09 14:57:34.81	20.88	2.24	-46.1	-61.1	3.6	1.51e+00	0	22	104	0	60	40878
2026-01-09 14:57:35.82	20.88	2.31	-46.1	-60.8	3.6	1.51e+00	0	22	104	0	60	39523
2026-01-09 14:57:36.82	20.87	2.37	-46.1	-60.4	3.5	1.51e+00	0	22	104	0	60	37833
2026-01-09 14:57:37.83	20.87	2.44	-46.1	-60.1	3.6	1.51e+00	0	22	104	0	60	36624
2026-01-09 14:57:38.85	20.87	2.50	-46.1	-59.7	3.6	1.51e+00	0	22	104	0	60	34849
2026-01-09 14:57:39.85	20.87	2.57	-46.0	-59.5	3.6	1.51e+00	0	22	104	0	60	34153
2026-01-09 14:57:40.86	20.87	2.63	-46.0	-59.4	3.6	1.50e+00	0	22	104	0	60	33817
2026-01-09 14:57:41.87	20.87	2.70	-46.0	-59.3	3.7	1.51e+00	0	22	104	0	60	33181
2026-01-09 14:57:42.89	20.87	2.77	-46.0	-58.9	3.6	1.50e+00	0	22	104	0	60	31892
2026-01-09 14:57:43.90	20.87	2.83	-45.9	-57.3	4.2	1.42e+00	11	22	104	0	60	26460
2026-01-09 14:57:44.91	20.87	2.90	-45.7	-54.4	4.9	8.83e-01	0	22	0	1048576	60	18964
2026-01-09 14:57:45.92	20.87	2.97	-45.6	-53.1	6.2	4.84e-01	0	22	0	3145728	60	16354
2026-01-09 14:57:46.93	20.87	3.03	-45.1	-51.1	8.5	8.59e-02	0	22	0	5242880	60	12949
2026-01-09 14:57:47.94	20.87	3.10	-44.5	-49.5	10.4	1.19e-02	0	22	0	7340032	60	10781
2026-01-09 14:57:48.95	20.87	3.17	-44.0	-48.2	11.9	2.51e-03	0	22	0	8388608	60	9240
2026-01-09 14:57:49.96	20.87	3.23	-43.7	-47.5	12.9	1.04e-04	0	22	0	10485760	60	8561
2026-01-09 14:57:50.97	20.87	3.30	-43.3	-46.8	13.4	2.51e-05	0	22	0	12582912	60	7891
2026-01-09 14:57:51.98	20.87	3.37	-42.9	-46.0	14.1	5.30e-06	0	22	0	14680064	60	7185
2026-01-09 14:57:52.99	20.86	3.44	-42.8	-45.8	14.3	2.20e-06	0	22	0	16777216	60	7076
2026-01-09 14:57:54.00	20.86	3.50	-42.9	-46.0	14.1	7.00e-07	0	22	0	17825792	60	7201
2026-01-09 14:57:55.01	20.86	3.57	-43.0	-46.2	14.0	7.00e-07	0	22	0	19922944	60	7339
2026-01-09 14:57:56.02	20.86	3.64	-43.3	-46.8	13.3	6.10e-06	0	22	0	22020096	60	7932
2026-01-09 14:57:57.03	20.86	3.71	-43.8	-47.8	12.2	7.17e-05	0	22	0	24117248	60	8863
2026-01-09 14:57:58.04	20.86	3.78	-42.5	-45.2	15.0	0.00e+00	0	22	0	26214400	58	7365
2026-01-09 14:57:59.05	20.86	3.85	-44.9	-50.2	10.6	6.25e-05	0	22	0	27262976	60	11710
2026-01-09 14:58:00.06	20.86	3.92	-46.0	-60.8	3.6	1.01e+00	0	22	104	29360128	60	39463
2026-01-09 14:58:01.07	20.86	3.98	-42.1	-44.8	14.9	1.46e+00	0	22	104	29360128	58	7025
2026-01-09 14:58:02.08	20.86	4.05	-46.2	-60.9	3.6	2.37e-02	0	22	104	29360128	60	39916
2026-01-09 14:58:03.09	20.86	4.12	-42.2	-44.8	15.1	1.40e+00	1	22	104	29360128	58	7034
2026-01-09 14:58:04.10	20.85	4.19	-42.0	-44.4	16.1	7.00e-07	0	22	0	29360128	58	6714
2026-01-09 14:58:05.11	20.85	4.26	-41.2	-43.2	16.9	0.00e+00	0	22	0	31457280	56	6591
2026-01-09 14:58:06.12	20.85	4.33	-41.3	-43.4	16.8	0.00e+00	0	22	0	33554432	56	6727
2026-01-09 14:58:07.13	20.85	4.40	-41.3	-43.3	16.8	0.00e+00	0	22	0	35651584	56	6687
2026-01-09 14:58:08.14	20.85	4.47	-41.5	-43.6	16.5	0.00e+00	0	22	0	36700160	56	6893
2026-01-09 14:58:09.15	20.85	4.54	-41.7	-43.9	16.3	0.00e+00	0	22	0	38797312	56	7154
2026-01-09 14:58:10.15	20.85	4.61	-41.2	-43.2	16.9	0.00e+00	0	22	0	40894464	56	6584
2026-01-09 14:58:11.17	20.85	4.69	-40.9	-42.8	17.4	0.00e+00	0	22	0	42991616	56	6267
2026-01-09 14:58:12.17	20.85	4.76	-40.8	-42.7	17.4	0.00e+00	0	22	0	45088768	56	6211
2026-01-09 14:58:13.18	20.84	4.83	-40.8	-42.6	17.6	0.00e+00	0	22	0	46137344	56	6135
2026-01-09 14:58:14.19	20.84	4.90	-41.0	-42.9	17.3	0.00e+00	0	22	0	48234496	56	6368
2026-01-09 14:58:15.20	20.84	4.97	-41.0	-42.9	17.3	0.00e+00	0	22	0	50331648	56	6339
2026-01-09 14:58:16.21	20.84	5.04	-40.8	-42.7	17.7	0.00e+00	0	22	0	52428800	54	6976
2026-01-09 14:58:17.22	20.84	5.11	-40.9	-42.7	17.4	0.00e+00	0	22	0	54525952	54	7003
2026-01-09 14:58:18.23	20.84	5.19	-40.7	-42.6	17.9	0.00e+00	0	22	0	55574528	54	6860
2026-01-09 14:58:19.24	20.84	5.26	-40.7	-42.5	17.7	0.00e+00	0	22	0	57671680	54	6820
2026-01-09 14:58:20.25	20.83	5.33	-40.8	-42.6	17.5	0.00e+00	0	22	0	59768832	54	6918
2026-01-09 14:58:21.26	20.83	5.41	-40.6	-42.3	17.8	0.00e+00	0	22	0	61865984	54	6689
2026-01-09 14:58:22.27	20.83	5.48	-40.8	-42.6	17.6	0.00e+00	0	22	0	63963136	54	6924
2026-01-09 14:58:23.28	20.83	5.55	-40.8	-42.6	17.7	0.00e+00	0	22	0	65011712	54	6890
2026-01-09 14:58:24.29	20.83	5.62	-40.6	-42.3	17.8	0.00e+00	0	22	0	67108864	54	6678
2026-01-09 14:58:25.30	20.83	5.70	-40.7	-42.6	18.0	0.00e+00	0	22	0	69206016	54	6855
2026-01-09 14:58:26.31	20.82	5.77	-40.7	-42.5	17.9	0.00e+00	0	22	0	71303168	54	6820
2026-01-09 14:58:27.32	20.82	5.85	-40.8	-42.7	17.9	0.00e+00	0	22	0	73400320	54	6940
2026-01-09 14:58:28.33	20.82	5.92	-40.7	-42.5	17.9	0.00e+00	0	22	0	75497472	54	6817
2026-01-09 14:58:29.34	20.82	6.00	-40.7	-42.5	17.9	0.00e+00	0	22	0	76546048	54	6778
2026-01-09 14:58:30.35	20.82	6.07	-40.6	-42.4	18.0	0.00e+00	0	22	0	78643200	54	6705
2026-01-09 14:58:31.36	20.82	6.15	-40.6	-42.4	18.0	0.00e+00	0	22	0	80740352	54	6722
2026-01-09 14:58:32.37	20.81	6.22	-40.6	-42.4	18.1	0.00e+00	0	22	0	82837504	54	6731
2026-01-09 14:58:33.38	20.81	6.30	-40.7	-42.5	18.0	0.00e+00	0	22	0	83886080	54	6817
2026-01-09 14:58:34.39	20.81	6.37	-40.5	-42.3	18.3	0.00e+00	0	22	0	85983232	54	6624
2026-01-09 14:58:35.40	20.81	6.45	-40.6	-42.4	18.1	0.00e+00	0	22	0	88080384	54	6731
2026-01-09 14:58:36.41	20.81	6.52	-40.7	-42.4	18.1	0.00e+00	0	22	0	90177536	54	6759
2026-01-09 14:58:37.42	20.80	6.60	-40.4	-42.1	18.4	0.00e+00	0	22	0	92274688	54	6487
2026-01-09 14:58:38.43	20.80	6.68	-40.4	-42.1	18.4	0.00e+00	0	22	0	94371840	54	6490
2026-01-09 14:58:39.44	20.80	6.75	-40.5	-42.2	18.5	0.00e+00	0	22	0	95420416	54	6557
2026-01-09 14:58:40.45	20.80	6.83	-40.2	-41.8	18.7	0.00e+00	0	22	0	97517568	54	6271
2026-01-09 14:58:41.46	20.79	6.91	-40.3	-42.0	18.6	0.00e+00	0	22	0	99614720	54	6428
2026-01-09 14:58:42.47	20.79	6.98	-40.3	-41.9	18.7	0.00e+00	0	22	0	101711872	54	6370
2026-01-09 14:58:43.47	20.79	7.06	-40.3	-41.9	18.7	0.00e+00	0	22	0	103809024	54	6360
2026-01-09 14:58:44.49	20.79	7.14	-40.2	-41.8	18.7	0.00e+00	0	22	0	104857600	54	6308
2026-01-09 14:58:45.49	20.79	7.22	-40.2	-41.8	18.8	0.00e+00	0	22	0	106954752	54	6250
2026-01-09 14:58:46.51	20.78	7.30	-40.2	-41.8	18.8	0.00e+00	0	22	0	109051904	54	6255
2026-01-09 14:58:47.51	20.78	7.37	-40.0	-41.6	19.0	0.00e+00	0	22	0	111149056	54	6126
2026-01-09 14:58:48.53	20.78	7.45	-40.1	-41.6	19.0	0.00e+00	0	22	0	113246208	54	6170
2026-01-09 14:58:49.54	20.78	7.53	-40.1	-41.7	18.9	0.00e+00	0	22	0	114294784	54	6198
2026-01-09 14:58:50.55	20.77	7.61	-39.8	-41.3	19.3	0.00e+00	0	22	0	116391936	54	5961
2026-01-09 14:58:51.56	20.77	7.69	-40.1	-41.7	18.9	0.00e+00	0	22	0	118489088	54	6189
2026-01-09 14:58:52.57	20.77	7.77	-40.1	-41.6	19.0	0.00e+00	0	22	0	120586240	54	6155
2026-01-09 14:58:53.58	20.77	7.85	-40.2	-41.8	19.0	0.00e+00	0	22	0	122683392	54	6247
2026-01-09 14:58:54.59	20.76	7.93	-40.3	-41.9	18.8	0.00e+00	0	22	0	123731968	54	6361
2026-01-09 14:58:55.60	20.76	8.01	-39.9	-41.4	19.3	0.00e+00	0	22	0	125829120	54	5991
2026-01-09 14:58:56.61	20.76	8.09	-39.9	-41.5	19.2	0.00e+00	0	22	0	127926272	52	6774
2026-01-09 14:58:57.62	20.75	8.17	-40.1	-41.6	19.0	0.00e+00	0	22	0	130023424	52	6926
2026-01-09 14:58:58.63	20.75	8.26	-40.0	-41.6	19.0	0.00e+00	0	22	0	132120576	52	6875
2026-01-09 14:58:59.64	20.75	8.34	-40.0	-41.5	19.2	0.00e+00	0	22	0	134217728	52	6834
2026-01-09 14:59:00.65	20.75	8.42	-40.1	-41.7	19.1	0.00e+00	0	22	0	135266304	52	6946
2026-01-09 14:59:01.66	20.74	8.50	-40.0	-41.5	19.2	0.00e+00	0	22	0	137363456	52	6803
2026-01-09 14:59:02.67	20.74	8.58	-39.9	-41.5	19.2	0.00e+00	0	22	0	139460608	52	6771
2026-01-09 14:59:03.68	20.74	8.67	-39.8	-41.3	19.4	0.00e+00	0	22	0	141557760	52	6632
2026-01-09 14:59:04.69	20.73	8.75	-39.8	-41.3	19.4	0.00e+00	0	22	0	143654912	52	6658
2026-01-09 14:59:05.69	20.73	8.83	-39.9	-41.4	19.3	0.00e+00	0	22	0	144703488	52	6726
2026-01-09 14:59:06.70	20.73	8.92	-39.5	-41.0	19.8	0.00e+00	0	22	0	146800640	52	6408
2026-01-09 14:59:07.71	20.72	9.00	-39.7	-41.2	19.5	0.00e+00	0	22	0	148897792	52	6576
2026-01-09 14:59:08.72	20.72	9.08	-39.8	-41.3	19.5	0.00e+00	0	22	0	150994944	52	6621
2026-01-09 14:59:09.73	20.72	9.17	-39.6	-41.0	19.8	0.00e+00	0	22	0	153092096	52	6436
2026-01-09 14:59:10.74	20.71	9.25	-39.6	-41.0	19.7	0.00e+00	0	22	0	154140672	52	6424
2026-01-09 14:59:11.75	20.71	9.34	-39.4	-40.8	19.9	0.00e+00	0	22	0	156237824	52	6279
2026-01-09 14:59:12.76	20.71	9.42	-39.7	-41.2	19.6	0.00e+00	0	22	0	158334976	52	6540
2026-01-09 14:59:13.77	20.70	9.51	-39.5	-40.9	19.9	0.00e+00	0	22	0	160432128	52	6338
2026-01-09 14:59:14.78	20.70	9.59	-39.5	-40.8	20.0	0.00e+00	0	22	0	162529280	52	6311
2026-01-09 14:59:15.79	20.70	9.68	-39.4	-40.7	20.0	0.00e+00	0	22	0	163577856	52	6244
2026-01-09 14:59:16.80	20.69	9.77	-39.2	-40.6	20.1	0.00e+00	0	22	0	165675008	52	6125
2026-01-09 14:59:17.81	20.69	9.85	-39.2	-40.5	20.2	0.00e+00	0	22	0	167772160	52	6072
2026-01-09 14:59:18.82	20.69	9.94	-39.2	-40.5	20.1	0.00e+00	0	22	0	169869312	52	6088
2026-01-09 14:59:19.83	20.68	10.03	-39.2	-40.5	20.3	0.00e+00	0	22	0	171966464	52	6056
2026-01-09 14:59:20.84	20.68	10.12	-39.2	-40.5	20.2	0.00e+00	0	22	0	173015040	52	6093
2026-01-09 14:59:21.85	20.68	10.20	-39.1	-40.4	20.3	0.00e+00	0	22	0	175112192	52	5993
2026-01-09 14:59:22.86	20.67	10.29	-39.1	-40.4	20.3	0.00e+00	0	22	0	177209344	52	5975
2026-01-09 14:59:23.86	20.67	10.38	-39.1	-40.4	20.4	0.00e+00	0	22	0	179306496	52	6003
2026-01-09 14:59:24.88	20.66	10.47	-38.9	-40.2	20.5	0.00e+00	0	22	0	181403648	52	5879
2026-01-09 14:59:25.89	20.66	10.56	-38.9	-40.2	20.5	0.00e+00	0	22	0	182452224	50	6544
2026-01-09 14:59:26.90	20.65	10.65	-39.0	-40.3	20.5	0.00e+00	0	22	0	184549376	50	6617
2026-01-09 14:59:27.91	20.65	10.74	-38.6	-39.8	21.0	0.00e+00	0	22	0	186646528	50	6289
2026-01-09 14:59:28.92	20.65	10.83	-38.7	-40.0	20.8	0.00e+00	0	22	0	188743680	50	6406
2026-01-09 14:59:29.93	20.64	10.92	-38.7	-40.0	20.7	0.00e+00	0	22	0	190840832	50	6425
2026-01-09 14:59:30.94	20.64	11.01	-38.6	-39.8	20.9	0.00e+00	0	22	0	191889408	50	6269
2026-01-09 14:59:31.95	20.63	11.10	-38.6	-39.8	20.9	0.00e+00	0	22	0	193986560	50	6280
2026-01-09 14:59:32.95	20.63	11.19	-38.6	-39.8	20.9	0.00e+00	0	22	0	196083712	50	6261
2026-01-09 14:59:33.97	20.62	11.29	-38.4	-39.5	21.0	0.00e+00	0	22	0	198180864	50	6097
2026-01-09 14:59:34.97	20.62	11.38	-38.4	-39.6	21.0	0.00e+00	0	22	0	200278016	50	6164
2026-01-09 14:59:35.98	20.62	11.47	-38.5	-39.7	20.9	0.00e+00	0	22	0	202375168	50	6187
2026-01-09 14:59:36.99	20.61	11.56	-38.4	-39.6	21.0	0.00e+00	0	22	0	203423744	50	6139
2026-01-09 14:59:38.00	20.61	11.66	-38.4	-39.5	21.1	0.00e+00	0	22	0	205520896	50	6100
2026-01-09 14:59:39.01	20.60	11.75	-38.3	-39.5	21.2	0.00e+00	0	22	0	207618048	50	6063
2026-01-09 14:59:40.02	20.60	11.84	-38.4	-39.5	21.1	0.00e+00	0	22	0	209715200	50	6094
2026-01-09 14:59:41.03	20.59	11.94	-38.2	-39.3	21.3	0.00e+00	0	22	0	210763776	50	5943
2026-01-09 14:59:42.04	20.59	12.03	-38.2	-39.4	21.2	0.00e+00	0	22	0	212860928	50	6010
2026-01-09 14:59:43.05	20.58	12.13	-38.2	-39.4	21.3	0.00e+00	0	22	0	214958080	50	5965
2026-01-09 14:59:44.06	20.58	12.22	-38.0	-39.2	21.5	0.00e+00	0	22	0	217055232	50	5831
2026-01-09 14:59:45.07	20.57	12.32	-38.1	-39.2	21.4	0.00e+00	0	22	0	219152384	50	5892
2026-01-09 14:59:46.08	20.57	12.42	-38.1	-39.3	21.3	0.00e+00	0	22	0	220200960	50	5928
2026-01-09 14:59:47.09	20.56	12.51	-38.1	-39.2	21.5	0.00e+00	0	22	0	222298112	50	5863
2026-01-09 14:59:48.10	20.56	12.61	-38.0	-39.1	21.5	0.00e+00	0	22	0	224395264	50	5809
2026-01-09 14:59:49.11	20.55	12.71	-37.9	-39.0	21.6	0.00e+00	0	22	0	226492416	50	5724
2026-01-09 14:59:50.12	20.55	12.80	-38.0	-39.1	21.5	0.00e+00	0	22	0	228589568	50	5821
2026-01-09 14:59:51.13	20.54	12.90	-37.8	-38.9	21.7	0.00e+00	0	22	0	230686720	50	5681
2026-01-09 14:59:52.14	20.53	13.00	-37.8	-38.9	21.7	0.00e+00	0	22	0	231735296	50	5685
2026-01-09 14:59:53.15	20.53	13.10	-38.0	-39.1	21.6	0.00e+00	0	22	0	233832448	50	5779
2026-01-09 14:59:54.16	20.52	13.20	-37.7	-38.7	21.8	0.00e+00	0	22	0	235929600	48	6244
2026-01-09 14:59:55.17	20.52	13.30	-37.7	-38.8	21.8	0.00e+00	0	22	0	238026752	48	6279
2026-01-09 14:59:56.18	20.51	13.40	-37.7	-38.8	21.9	0.00e+00	0	22	0	240123904	48	6279
2026-01-09 14:59:57.19	20.51	13.50	-37.6	-38.6	22.1	0.00e+00	0	22	0	241172480	48	6141
2026-01-09 14:59:58.20	20.50	13.60	-37.6	-38.6	21.9	0.00e+00	0	22	0	243269632	48	6167
2026-01-09 14:59:59.21	20.49	13.70	-37.7	-38.8	21.9	0.00e+00	0	22	0	245366784	48	6253
2026-01-09 15:00:00.22	20.49	13.81	-37.5	-38.5	22.0	0.00e+00	0	22	0	247463936	48	6103
2026-01-09 15:00:01.23	20.48	13.91	-37.5	-38.5	22.1	0.00e+00	0	22	0	249561088	48	6078
2026-01-09 15:00:02.24	20.47	14.01	-37.3	-38.4	22.2	0.00e+00	0	22	0	250609664	48	5968
2026-01-09 15:00:03.25	20.47	14.11	-37.3	-38.3	22.3	0.00e+00	0	22	0	252706816	48	5934
2026-01-09 15:00:04.26	20.46	14.22	-37.3	-38.3	22.2	0.00e+00	0	22	0	254803968	48	5925
2026-01-09 15:00:05.27	20.46	14.32	-37.2	-38.2	22.4	0.00e+00	0	22	0	256901120	48	5855
2026-01-09 15:00:06.28	20.45	14.43	-37.3	-38.3	22.2	0.00e+00	0	22	0	258998272	48	5953
2026-01-09 15:00:07.29	20.44	14.53	-37.0	-38.0	22.5	0.00e+00	0	22	0	260046848	48	5756
2026-01-09 15:00:08.30	20.44	14.64	-37.0	-38.0	22.4	0.00e+00	0	22	0	262144000	48	5751
2026-01-09 15:00:09.31	20.43	14.74	-37.0	-38.0	22.5	0.00e+00	0	22	0	264241152	48	5746
2026-01-09 15:00:10.32	20.42	14.85	-37.1	-38.1	22.5	0.00e+00	0	22	0	266338304	48	5764
2026-01-09 15:00:11.33	20.41	14.96	-36.8	-37.8	22.6	0.00e+00	0	22	0	268435456	48	5611
2026-01-09 15:00:12.34	20.41	15.06	-36.9	-37.9	22.6	0.00e+00	0	22	0	270532608	46	6336
2026-01-09 15:00:13.35	20.40	15.17	-36.7	-37.7	22.8	0.00e+00	0	22	0	271581184	46	6177
2026-01-09 15:00:14.36	20.39	15.28	-36.6	-37.6	22.8	0.00e+00	0	22	0	273678336	46	6123
2026-01-09 15:00:15.37	20.39	15.39	-36.8	-37.8	22.8	0.00e+00	0	22	0	275775488	46	6267
2026-01-09 15:00:16.37	20.38	15.50	-36.8	-37.8	22.7	0.00e+00	0	22	0	277872640	46	6250
2026-01-09 15:00:17.39	20.37	15.61	-36.7	-37.7	22.8	0.00e+00	0	22	0	279969792	46	6205
2026-01-09 15:00:18.40	20.36	15.72	-36.7	-37.7	22.9	0.00e+00	0	22	0	281018368	46	6216
2026-01-09 15:00:19.40	20.36	15.83	-36.7	-37.6	22.9	0.00e+00	0	22	0	283115520	46	6154
2026-01-09 15:00:20.41	20.35	15.94	-36.7	-37.7	22.9	0.00e+00	0	22	0	285212672	46	6207
2026-01-09 15:00:21.43	20.34	16.05	-36.6	-37.5	22.9	0.00e+00	0	22	0	287309824	46	6082
2026-01-09 15:00:22.43	20.33	16.16	-36.8	-37.8	22.8	0.00e+00	0	22	0	289406976	46	6252
2026-01-09 15:00:23.44	20.32	16.27	-36.5	-37.5	22.9	0.00e+00	0	22	0	290455552	46	6034
2026-01-09 15:00:24.45	20.32	16.39	-36.6	-37.6	22.9	0.00e+00	0	22	0	292552704	46	6152
2026-01-09 15:00:25.46	20.31	16.50	-36.6	-37.6	22.9	0.00e+00	0	22	0	294649856	46	6105
2026-01-09 15:00:26.47	20.30	16.62	-36.4	-37.4	23.0	0.00e+00	0	22	0	296747008	46	5999
2026-01-09 15:00:27.48	20.29	16.73	-36.6	-37.5	23.0	0.00e+00	0	22	0	298844160	46	6081
2026-01-09 15:00:28.49	20.28	16.85	-36.6	-37.6	22.9	0.00e+00	0	22	0	299892736	46	6133
2026-01-09 15:00:29.51	20.28	16.96	-36.6	-37.6	22.8	0.00e+00	0	22	0	301989888	46	6123
2026-01-09 15:00:30.51	20.27	17.08	-36.5	-37.5	22.7	0.00e+00	0	22	0	304087040	46	6059
2026-01-09 15:00:31.52	20.26	17.20	-36.5	-37.5	22.9	0.00e+00	0	22	0	306184192	46	6065
2026-01-09 15:00:32.53	20.25	17.31	-36.5	-37.5	22.6	0.00e+00	0	22	0	308281344	46	6044
2026-01-09 15:00:33.54	20.24	17.43	-36.5	-37.4	23.1	0.00e+00	0	22	0	309329920	46	6010
2026-01-09 15:00:34.55	20.23	17.55	-36.2	-37.2	22.9	0.00e+00	0	22	0	311427072	46	5839
2026-01-09 15:00:35.56	20.22	17.67	-36.3	-37.2	23.0	0.00e+00	0	22	0	313524224	46	5869
2026-01-09 15:00:36.57	20.21	17.79	-36.3	-37.2	23.1	0.00e+00	0	22	0	315621376	46	5864
2026-01-09 15:00:37.58	20.20	17.91	-36.3	-37.2	23.2	0.00e+00	0	22	0	317718528	46	5865
2026-01-09 15:00:38.59	20.19	18.03	-36.2	-37.1	23.3	0.00e+00	0	22	0	318767104	46	5783
2026-01-09 15:00:39.60	20.18	18.15	-36.1	-37.0	23.3	0.00e+00	0	22	0	320864256	46	5711
2026-01-09 15:00:40.61	20.17	18.28	-36.2	-37.1	23.4	0.00e+00	0	22	0	322961408	46	5808
2026-01-09 15:00:41.62	20.16	18.40	-36.1	-37.0	23.3	0.00e+00	0	22	0	325058560	46	5719
2026-01-09 15:00:42.63	20.15	18.52	-35.8	-36.7	23.6	0.00e+00	0	22	0	327155712	46	5509
2026-01-09 15:00:43.64	20.14	18.65	-35.9	-36.7	23.6	0.00e+00	0	22	0	328204288	46	5558
2026-01-09 15:00:44.65	20.13	18.77	-35.9	-36.8	23.6	0.00e+00	0	22	0	330301440	46	5592
2026-01-09 15:00:45.67	20.12	18.90	-35.9	-36.8	23.5	0.00e+00	0	22	0	332398592	46	5593
2026-01-09 15:00:46.67	20.11	19.02	-35.7	-36.5	23.8	0.00e+00	0	22	0	334495744	46	5439
2026-01-09 15:00:47.68	20.10	19.15	-35.7	-36.6	23.7	0.00e+00	0	23	0	336592896	44	6123
2026-01-09 15:00:48.70	20.09	19.28	-35.7	-36.6	23.7	0.00e+00	0	22	0	338690048	44	6105
2026-01-09 15:00:49.71	20.08	19.41	-35.8	-36.6	23.7	0.00e+00	0	22	0	339738624	44	6160
2026-01-09 15:00:50.72	20.07	19.54	-35.8	-36.7	23.6	0.00e+00	0	22	0	341835776	44	6228
2026-01-09 15:00:51.73	20.06	19.67	-35.7	-36.6	23.7	0.00e+00	0	22	0	343932928	44	6138
2026-01-09 15:00:52.74	20.05	19.80	-35.7	-36.6	23.6	0.00e+00	0	22	0	346030080	44	6121
2026-01-09 15:00:53.74	20.04	19.93	-35.8	-36.7	23.5	0.00e+00	0	22	0	348127232	44	6191
2026-01-09 15:00:54.75	20.03	20.06	-35.8	-36.7	23.5	0.00e+00	0	22	0	349175808	44	6176
2026-01-09 15:00:55.77	20.01	20.19	-35.7	-36.6	23.8	0.00e+00	0	22	0	351272960	44	6126
2026-01-09 15:00:56.78	20.00	20.32	-35.8	-36.7	23.7	0.00e+00	0	22	0	353370112	44	6197
2026-01-09 15:00:57.79	19.99	20.46	-35.7	-36.6	23.7	0.00e+00	0	22	0	355467264	44	6140
2026-01-09 15:00:58.79	19.98	20.59	-35.7	-36.5	23.8	0.00e+00	0	22	0	357564416	44	6081
2026-01-09 15:00:59.80	19.97	20.72	-35.7	-36.5	23.8	0.00e+00	0	22	0	358612992	44	6095
2026-01-09 15:01:00.81	19.95	20.86	-35.8	-36.7	23.7	0.00e+00	0	22	0	360710144	44	6207
2026-01-09 15:01:01.81	19.94	21.00	-35.9	-36.8	23.5	0.00e+00	0	22	0	362807296	44	6305
2026-01-09 15:01:02.83	19.93	21.13	-35.6	-36.5	23.8	0.00e+00	0	22	0	364904448	44	6044
2026-01-09 15:01:03.84	19.92	21.27	-35.6	-36.4	23.8	0.00e+00	0	22	0	367001600	44	6007
2026-01-09 15:01:04.85	19.90	21.41	-35.4	-36.2	24.0	0.00e+00	0	22	0	368050176	44	5863
2026-01-09 15:01:05.86	19.89	21.55	-35.4	-36.3	24.0	0.00e+00	0	22	0	370147328	44	5897
2026-01-09 15:01:06.87	19.88	21.69	-35.5	-36.3	24.1	0.00e+00	0	22	0	372244480	44	5940
2026-01-09 15:01:07.88	19.86	21.83	-35.4	-36.2	24.0	0.00e+00	0	22	0	374341632	44	5881
2026-01-09 15:01:08.89	19.85	21.97	-35.8	-36.7	23.9	0.00e+00	0	22	0	376438784	44	6208
2026-01-09 15:01:09.90	19.84	22.12	-35.8	-36.7	23.7	0.00e+00	0	22	0	377487360	44	6185
2026-01-09 15:01:10.91	19.82	22.26	-36.0	-36.9	23.5	0.00e+00	0	22	0	379584512	44	6323
2026-01-09 15:01:11.92	19.81	22.40	-35.8	-36.7	23.7	0.00e+00	0	22	0	381681664	44	6195
2026-01-09 15:01:12.92	19.80	22.55	-35.6	-36.5	23.9	0.00e+00	0	22	0	383778816	44	6054
2026-01-09 15:01:13.93	19.78	22.69	-35.8	-36.7	23.9	0.00e+00	0	23	0	385875968	44	6179
2026-01-09 15:01:14.94	19.77	22.84	-35.9	-36.8	23.6	0.00e+00	0	23	0	386924544	44	6269
2026-01-09 15:01:15.95	19.75	22.99	-35.4	-36.3	24.0	0.00e+00	0	22	0	389021696	44	5911
2026-01-09 15:01:16.96	19.74	23.14	-35.6	-36.4	24.0	0.00e+00	0	22	0	391118848	44	6024
2026-01-09 15:01:17.97	19.72	23.29	-35.5	-36.3	24.0	0.00e+00	0	22	0	393216000	44	5929
2026-01-09 15:01:18.98	19.71	23.44	-35.5	-36.4	23.9	0.00e+00	0	22	0	395313152	44	5979
2026-01-09 15:01:19.99	19.69	23.59	-35.5	-36.4	24.0	0.00e+00	0	22	0	396361728	44	5971
2026-01-09 15:01:21.00	19.68	23.74	-35.5	-36.3	24.0	0.00e+00	0	23	0	398458880	44	5932
2026-01-09 15:01:22.01	19.66	23.89	-35.6	-36.5	23.9	0.00e+00	0	22	0	400556032	44	6072
2026-01-09 15:01:23.02	19.64	24.05	-35.6	-36.5	23.8	0.00e+00	0	23	0	402653184	44	6043
2026-01-09 15:01:24.03	19.63	24.20	-35.6	-36.4	23.9	0.00e+00	0	22	0	404750336	44	6031
2026-01-09 15:01:25.04	19.61	24.36	-35.6	-36.5	23.7	0.00e+00	0	22	0	406847488	44	6036
2026-01-09 15:01:26.05	19.60	24.51	-35.6	-36.4	23.9	0.00e+00	0	22	0	407896064	44	6027
2026-01-09 15:01:27.06	19.58	24.67	-35.9	-36.8	23.8	0.00e+00	0	22	0	409993216	44	6268
2026-01-09 15:01:28.07	19.56	24.83	-35.9	-36.8	23.6	0.00e+00	0	22	0	412090368	44	6294
2026-01-09 15:01:29.08	19.55	24.99	-35.7	-36.5	23.8	0.00e+00	0	22	0	414187520	44	6094
2026-01-09 15:01:30.09	19.53	25.15	-35.8	-36.6	23.7	0.00e+00	0	22	0	416284672	44	6171
2026-01-09 15:01:31.10	19.51	25.31	-35.6	-36.4	24.0	0.00e+00	0	22	0	417333248	44	6024
2026-01-09 15:01:32.10	19.49	25.47	-35.5	-36.3	24.0	0.00e+00	0	22	0	419430400	44	5964
2026-01-09 15:01:33.11	19.47	25.63	-35.6	-36.5	23.9	0.00e+00	0	22	0	421527552	44	6071
2026-01-09 15:01:34.12	19.46	25.80	-35.5	-36.3	24.0	0.00e+00	0	22	0	423624704	44	5937
2026-01-09 15:01:35.13	19.44	25.96	-35.5	-36.3	24.0	0.00e+00	0	22	0	424673280	44	5940
2026-01-09 15:01:36.14	19.42	26.13	-35.7	-36.5	23.8	0.00e+00	0	22	0	426770432	44	6098
2026-01-09 15:01:37.15	19.40	26.30	-35.7	-36.6	23.9	0.00e+00	0	22	0	428867584	44	6107
2026-01-09 15:01:38.16	19.38	26.46	-36.0	-36.9	23.7	0.00e+00	0	22	0	430964736	44	6336
2026-01-09 15:01:39.17	19.36	26.63	-36.2	-37.1	23.3	0.00e+00	0	22	0	433061888	44	6504
2026-01-09 15:01:40.18	19.34	26.80	-36.5	-37.4	23.1	0.00e+00	0	22	0	435159040	44	6744
2026-01-09 15:01:41.19	19.32	26.98	-37.1	-38.1	22.7	0.00e+00	0	22	0	436207616	46	6505
2026-01-09 15:01:42.20	19.30	27.15	-37.2	-38.2	22.6	0.00e+00	0	22	0	438304768	46	6597
2026-01-09 15:01:43.21	19.28	27.32	-37.3	-38.3	22.6	0.00e+00	0	22	0	440401920	46	6642
2026-01-09 15:01:44.22	19.26	27.50	-37.4	-38.5	22.5	0.00e+00	0	22	0	442499072	46	6770
2026-01-09 15:01:45.23	19.24	27.67	-37.2	-38.3	22.5	0.00e+00	0	22	0	444596224	46	6621
2026-01-09 15:01:46.24	19.22	27.85	-37.3	-38.3	22.6	0.00e+00	0	22	0	445644800	46	6651
2026-01-09 15:01:47.25	19.20	28.03	-37.5	-38.5	22.4	0.00e+00	0	22	0	447741952	46	6822
2026-01-09 15:01:48.26	19.17	28.21	-37.4	-38.4	22.6	0.00e+00	0	22	0	449839104	46	6727
2026-01-09 15:01:49.27	19.15	28.39	-37.8	-38.9	22.0	0.00e+00	0	22	0	451936256	48	6386
2026-01-09 15:01:50.28	19.13	28.57	-37.4	-38.4	22.4	0.00e+00	0	22	0	454033408	48	6001
2026-01-09 15:01:51.29	19.11	28.75	-37.8	-38.9	22.0	0.00e+00	0	22	0	455081984	48	6375
2026-01-09 15:01:52.30	19.08	28.94	-37.9	-39.1	21.9	0.00e+00	0	22	0	457179136	48	6472
2026-01-09 15:01:53.30	19.06	29.12	-38.0	-39.1	21.9	0.00e+00	0	22	0	459276288	48	6523
2026-01-09 15:01:54.32	19.04	29.31	-38.5	-39.7	21.4	0.00e+00	0	22	0	461373440	48	6941
2026-01-09 15:01:55.32	19.01	29.49	-38.7	-39.9	21.1	0.00e+00	0	23	0	463470592	50	6378
2026-01-09 15:01:56.33	18.99	29.68	-38.4	-39.6	21.4	0.00e+00	0	23	0	464519168	50	6136
2026-01-09 15:01:57.34	18.96	29.87	-38.9	-40.2	21.0	0.00e+00	0	22	0	466616320	50	6545
2026-01-09 15:01:58.35	18.94	30.07	-38.2	-39.4	21.6	0.00e+00	0	22	0	468713472	50	5979
2026-01-09 15:01:59.36	18.91	30.26	-38.2	-39.3	21.9	0.00e+00	0	23	0	470810624	50	5908
2026-01-09 15:02:00.37	18.89	30.45	-38.0	-39.1	22.0	0.00e+00	0	22	0	472907776	50	5813
2026-01-09 15:02:01.38	18.86	30.65	-38.1	-39.2	21.8	0.00e+00	0	22	0	473956352	50	5844
2026-01-09 15:02:02.39	18.83	30.84	-38.4	-39.5	21.5	0.00e+00	0	22	0	476053504	50	6086
2026-01-09 15:02:03.40	18.81	31.04	-38.4	-39.5	21.5	0.00e+00	0	22	0	478150656	50	6080
2026-01-09 15:02:04.41	18.78	31.24	-38.8	-40.0	21.0	0.00e+00	0	22	0	480247808	50	6455
2026-01-09 15:02:05.42	18.75	31.44	-39.4	-40.7	20.2	0.00e+00	0	22	0	482344960	50	7000
2026-01-09 15:02:06.43	18.72	31.65	-39.8	-41.2	20.1	0.00e+00	0	22	0	484442112	52	6601
2026-01-09 15:02:07.44	18.70	31.85	-39.9	-41.3	19.9	0.00e+00	0	22	0	485490688	52	6661
2026-01-09 15:02:08.45	18.67	32.05	-39.9	-41.3	20.1	0.00e+00	0	22	0	487587840	52	6679
2026-01-09 15:02:09.47	18.64	32.26	-40.2	-41.6	19.7	0.00e+00	0	22	0	489684992	52	6918
2026-01-09 15:02:10.48	18.61	32.47	-40.2	-41.7	19.5	0.00e+00	0	22	0	491782144	52	6988
2026-01-09 15:02:11.48	18.58	32.68	-40.0	-41.5	19.6	0.00e+00	0	22	0	493879296	52	6779
2026-01-09 15:02:12.49	18.55	32.89	-39.9	-41.3	20.0	0.00e+00	0	22	0	494927872	52	6669
2026-01-09 15:02:13.50	18.52	33.10	-39.9	-41.4	20.0	0.00e+00	0	23	0	497025024	52	6699
2026-01-09 15:02:14.52	18.48	33.32	-40.0	-41.5	19.9	0.00e+00	0	22	0	499122176	52	6801
2026-01-09 15:02:15.53	18.45	33.53	-40.2	-41.7	19.5	0.00e+00	0	22	0	501219328	52	7006
2026-01-09 15:02:16.53	18.42	33.75	-40.3	-41.8	19.6	0.00e+00	0	22	0	503316480	52	7016
2026-01-09 15:02:17.54	18.39	33.97	-40.1	-41.5	19.6	0.00e+00	0	22	0	504365056	52	6799
2026-01-09 15:02:18.55	18.35	34.19	-39.9	-41.3	20.1	0.00e+00	0	22	0	506462208	52	6628
2026-01-09 15:02:19.57	18.32	34.41	-39.0	-40.3	21.2	0.00e+00	0	22	0	508559360	52	5908
2026-01-09 15:02:20.57	18.28	34.63	-37.8	-38.9	22.4	0.00e+00	0	22	0	510656512	50	5643
2026-01-09 15:02:21.58	18.25	34.85	-37.2	-38.2	22.9	0.00e+00	0	22	0	512753664	48	5864
2026-01-09 15:02:22.59	18.21	35.08	-36.8	-37.7	23.0	0.00e+00	0	23	0	513802240	48	5551
2026-01-09 15:02:23.60	18.18	35.31	-36.7	-37.7	23.2	0.00e+00	0	22	0	515899392	46	6178
2026-01-09 15:02:24.61	18.14	35.54	-36.4	-37.3	23.4	0.00e+00	0	22	0	517996544	46	5924
2026-01-09 15:02:25.62	18.10	35.77	-36.2	-37.2	23.4	0.00e+00	0	22	0	520093696	46	5838
2026-01-09 15:02:26.63	18.07	36.00	-36.0	-36.8	23.7	0.00e+00	0	22	0	522190848	46	5628
2026-01-09 15:02:27.64	18.03	36.24	-35.9	-36.8	23.8	0.00e+00	0	22	0	523239424	44	6315
2026-01-09 15:02:28.65	17.99	36.47	-35.5	-36.4	24.0	0.00e+00	0	22	0	525336576	44	6003
2026-01-09 15:02:29.66	17.95	36.71	-35.4	-36.3	24.2	0.00e+00	0	22	0	527433728	44	5928
2026-01-09 15:02:30.67	17.91	36.95	-34.9	-35.7	24.4	0.00e+00	0	22	0	529530880	44	5528
2026-01-09 15:02:31.68	17.87	37.19	-34.6	-35.4	24.8	0.00e+00	0	22	0	531628032	42	6011
2026-01-09 15:02:32.69	17.83	37.43	-34.4	-35.2	24.7	0.00e+00	0	22	0	532676608	42	5880
2026-01-09 15:02:33.69	17.78	37.68	-34.4	-35.2	24.8	0.00e+00	0	22	0	534773760	42	5874
2026-01-09 15:02:34.71	17.74	37.93	-34.0	-34.8	24.9	0.00e+00	0	22	0	536870912	42	5596
2026-01-09 15:02:35.71	17.70	38.17	-34.7	-35.5	24.6	0.00e+00	0	22	0	538968064	42	6063
2026-01-09 15:02:36.72	17.65	38.42	-35.0	-35.9	24.5	0.00e+00	0	22	0	541065216	42	6321
2026-01-09 15:02:37.73	17.61	38.67	-35.4	-36.3	24.2	0.00e+00	0	22	0	543162368	42	6638
2026-01-09 15:02:38.74	17.56	38.93	-35.4	-36.3	24.1	0.00e+00	0	22	0	544210944	42	6642
2026-01-09 15:02:39.75	17.51	39.18	-35.2	-36.0	24.3	0.00e+00	0	22	0	546308096	42	6434
2026-01-09 15:02:40.76	17.47	39.44	-35.3	-36.1	24.3	0.00e+00	0	22	0	548405248	42	6503
2026-01-09 15:02:41.77	17.42	39.70	-35.2	-36.1	24.2	0.00e+00	0	22	0	550502400	42	6467
2026-01-09 15:02:42.78	17.37	39.96	-34.9	-35.7	24.5	0.00e+00	0	22	0	551550976	42	6228
2026-01-09 15:02:43.79	17.32	40.23	-35.2	-36.0	24.3	0.00e+00	0	22	0	553648128	42	6427
2026-01-09 15:02:44.80	17.27	40.49	-34.9	-35.6	24.5	0.00e+00	0	22	0	555745280	42	6159
2026-01-09 15:02:45.81	17.22	40.76	-34.9	-35.6	24.6	0.00e+00	0	22	0	557842432	42	6172
2026-01-09 15:02:46.82	17.16	41.03	-34.8	-35.5	24.7	0.00e+00	0	22	0	559939584	42	6091
2026-01-09 15:02:47.83	17.11	41.30	-35.2	-36.0	24.3	0.00e+00	0	22	0	560988160	42	6423
2026-01-09 15:02:48.84	17.05	41.58	-35.2	-36.1	24.3	0.00e+00	0	22	0	563085312	42	6467
2026-01-09 15:02:49.85	17.00	41.85	-35.4	-36.3	23.7	0.00e+00	0	22	0	565182464	42	6618
2026-01-09 15:02:50.86	16.94	42.13	-35.8	-36.6	23.8	0.00e+00	0	22	0	567279616	44	6160
2026-01-09 15:02:51.87	16.88	42.41	-35.7	-36.6	23.9	0.00e+00	0	22	0	569376768	44	6123
2026-01-09 15:02:52.88	16.82	42.69	-35.9	-36.8	23.7	0.00e+00	0	22	0	571473920	44	6271
2026-01-09 15:02:53.89	16.76	42.97	-35.8	-36.7	23.8	0.00e+00	0	22	0	572522496	44	6227
2026-01-09 15:02:54.90	16.70	43.26	-36.0	-36.9	23.7	0.00e+00	0	22	0	574619648	44	6364
2026-01-09 15:02:55.91	16.64	43.55	-36.0	-36.9	23.6	0.00e+00	0	22	0	576716800	44	6371
2026-01-09 15:02:56.92	16.58	43.84	-35.9	-36.8	23.7	0.00e+00	0	22	0	578813952	44	6262
2026-01-09 15:02:57.93	16.51	44.13	-36.1	-37.0	23.4	0.00e+00	0	22	0	580911104	44	6424
2026-01-09 15:02:58.94	16.45	44.43	-36.5	-37.4	23.4	0.00e+00	0	22	0	581959680	44	6755
2026-01-09 15:02:59.95	16.38	44.72	-36.6	-37.6	23.1	0.00e+00	0	22	0	584056832	46	6148
2026-01-09 15:03:00.95	16.31	45.02	-36.8	-37.8	22.9	0.00e+00	0	22	0	586153984	46	6301
2026-01-09 15:03:01.96	16.24	45.32	-37.1	-38.1	22.7	0.00e+00	0	22	0	588251136	46	6507
2026-01-09 15:03:02.97	16.17	45.62	-36.7	-37.6	23.0	0.00e+00	0	22	0	590348288	46	6153
2026-01-09 15:03:03.98	16.09	45.93	-37.0	-37.9	22.9	0.00e+00	0	22	0	591396864	46	6385
2026-01-09 15:03:04.99	16.02	46.24	-37.9	-39.0	22.1	0.00e+00	0	22	0	593494016	48	6408
2026-01-09 15:03:06.00	15.94	46.55	-38.5	-39.6	21.4	0.00e+00	0	22	0	595591168	48	6927
2026-01-09 15:03:07.01	15.87	46.86	-39.6	-40.9	20.0	0.00e+00	0	22	0	597688320	50	7152
2026-01-09 15:03:08.02	15.79	47.17	-39.8	-41.2	20.1	0.00e+00	0	22	0	599785472	52	6564
2026-01-09 15:03:09.03	15.70	47.49	-40.0	-41.6	20.0	0.00e+00	0	22	0	600834048	52	6851
2026-01-09 15:03:10.04	15.62	47.81	-39.6	-41.0	20.2	0.00e+00	0	22	0	602931200	52	6404
2026-01-09 15:03:11.05	15.54	48.13	-39.3	-40.6	21.0	0.00e+00	0	22	0	605028352	52	6137
2026-01-09 15:03:12.06	15.45	48.46	-38.5	-39.7	20.8	0.00e+00	0	22	0	607125504	50	6216
2026-01-09 15:03:13.07	15.36	48.78	-38.2	-39.4	21.7	0.00e+00	0	22	0	609222656	50	5983
2026-01-09 15:03:14.08	15.27	49.11	-37.6	-38.6	22.4	0.00e+00	0	22	0	610271232	50	5469
2026-01-09 15:03:15.09	15.18	49.44	-37.0	-38.0	22.9	0.00e+00	0	22	0	612368384	48	5754
2026-01-09 15:03:16.09	15.08	49.77	-36.4	-37.4	23.3	0.00e+00	0	22	0	614465536	46	5987
2026-01-09 15:03:17.10	14.99	50.11	-36.2	-37.1	23.5	0.00e+00	0	22	0	616562688	46	5827
2026-01-09 15:03:18.11	14.89	50.45	-35.5	-36.3	24.1	0.00e+00	0	22	0	618659840	44	5957
2026-01-09 15:03:19.12	14.79	50.79	-34.7	-35.5	24.7	0.00e+00	0	22	0	619708416	42	6074
2026-01-09 15:03:20.13	14.68	51.13	-34.9	-35.7	24.6	0.00e+00	0	22	0	621805568	42	6234
2026-01-09 15:03:21.14	14.58	51.48	-35.1	-35.9	24.3	0.00e+00	0	22	0	623902720	42	6368
2026-01-09 15:03:22.15	14.47	51.82	-35.3	-36.2	24.3	0.00e+00	0	22	0	625999872	42	6567
2026-01-09 15:03:23.16	14.36	52.18	-35.6	-36.5	24.1	0.00e+00	0	22	0	628097024	42	6784
2026-01-09 15:03:24.17	14.24	52.53	-35.8	-36.7	23.7	0.00e+00	0	22	0	629145600	44	6224
2026-01-09 15:03:25.18	14.12	52.88	-35.9	-36.8	23.8	0.00e+00	0	22	0	631242752	44	6305
2026-01-09 15:03:26.19	14.00	53.24	-36.6	-37.5	23.1	0.00e+00	0	22	0	633339904	44	6842
2026-01-09 15:03:27.20	13.88	53.60	-36.1	-37.0	23.5	0.00e+00	0	22	0	635437056	44	6393
2026-01-09 15:03:28.21	13.75	53.96	-35.5	-36.4	23.9	0.00e+00	0	22	0	637534208	44	5988
2026-01-09 15:03:29.22	13.62	54.33	-35.3	-36.1	24.3	0.00e+00	0	22	0	639631360	44	5778
2026-01-09 15:03:30.23	13.49	54.70	-35.0	-35.8	24.5	0.00e+00	0	22	0	640679936	42	6292
2026-01-09 15:03:31.24	13.35	55.07	-34.9	-35.7	24.6	0.00e+00	0	22	0	642777088	42	6187
2026-01-09 15:03:32.25	13.21	55.44	-35.5	-36.3	24.2	0.00e+00	0	22	0	644874240	42	6659
2026-01-09 15:03:33.25	13.07	55.81	-36.5	-37.4	23.3	0.00e+00	0	22	0	646971392	44	6769
2026-01-09 15:03:34.26	12.92	56.19	-36.2	-37.1	23.5	0.00e+00	0	22	0	649068544	44	6517
2026-01-09 15:03:35.27	12.77	56.57	-35.9	-36.7	23.8	0.00e+00	0	22	0	650117120	44	6224
2026-01-09 15:03:36.28	12.61	56.95	-36.3	-37.2	23.6	0.00e+00	0	22	0	652214272	44	6555
2026-01-09 15:03:37.29	12.45	57.33	-37.5	-38.5	22.2	0.00e+00	0	22	0	654311424	46	6845
2026-01-09 15:03:38.30	12.28	57.72	-38.2	-39.4	21.3	0.00e+00	0	23	0	656408576	48	6723
2026-01-09 15:03:39.31	12.11	58.11	-39.2	-40.5	20.7	0.00e+00	0	22	0	658505728	50	6823
2026-01-09 15:03:40.32	11.93	58.50	-38.6	-39.8	21.6	0.00e+00	0	23	0	659554304	50	6255
2026-01-09 15:03:41.33	11.75	58.89	-37.5	-38.5	22.5	0.00e+00	0	23	0	661651456	50	5401
2026-01-09 15:03:42.34	11.56	59.29	-37.9	-39.0	21.9	0.00e+00	0	22	0	663748608	48	6403
2026-01-09 15:03:43.35	11.37	59.69	-37.7	-38.8	21.8	0.00e+00	0	22	0	665845760	48	6262
2026-01-09 15:03:44.36	11.17	60.09	-37.5	-38.5	22.3	0.00e+00	0	22	0	667942912	48	6103
2026-01-09 15:03:45.37	10.96	60.49	-37.5	-38.6	22.6	0.00e+00	0	22	0	668991488	48	6120
2026-01-09 15:03:46.38	10.75	60.90	-37.8	-38.9	22.2	0.00e+00	0	22	0	671088640	48	6349
2026-01-09 15:03:47.39	10.53	61.30	-38.2	-39.3	21.7	0.00e+00	0	23	0	673185792	48	6688
2026-01-09 15:03:48.40	10.30	61.71	-37.7	-38.8	22.3	0.00e+00	0	22	0	675282944	48	6264
2026-01-09 15:03:49.41	10.06	62.13	-36.6	-37.6	23.2	0.00e+00	0	22	0	677380096	46	6124
2026-01-09 15:03:50.42	9.82	62.54	-36.1	-37.0	23.6	0.00e+00	0	22	0	678428672	46	5729
2026-01-09 15:03:51.43	9.57	62.95	-35.4	-36.3	24.2	0.00e+00	0	22	0	680525824	44	5920
2026-01-09 15:03:52.44	9.31	63.37	-35.6	-36.5	24.0	0.00e+00	0	22	0	682622976	44	6078
2026-01-09 15:03:53.45	9.04	63.79	-35.0	-35.8	24.6	0.00e+00	0	22	0	684720128	42	6280
2026-01-09 15:03:54.46	8.75	64.21	-34.9	-35.7	24.5	0.00e+00	0	22	0	686817280	42	6219
2026-01-09 15:03:55.47	8.46	64.64	-35.2	-36.0	24.3	0.00e+00	0	22	0	687865856	42	6453
2026-01-09 15:03:56.48	8.16	65.06	-35.6	-36.5	23.9	0.00e+00	0	23	0	689963008	44	6058
2026-01-09 15:03:57.49	7.84	65.49	-35.7	-36.5	24.0	0.00e+00	0	22	0	692060160	44	6086
2026-01-09 15:03:58.50	7.52	65.92	-36.2	-37.1	23.6	0.00e+00	0	22	0	694157312	44	6493
2026-01-09 15:03:59.51	7.17	66.35	-37.0	-38.0	22.6	0.00e+00	0	22	0	696254464	46	6431
2026-01-09 15:04:00.52	6.82	66.78	-38.6	-39.9	21.2	0.00e+00	0	23	0	697303040	48	7093
2026-01-09 15:04:01.53	6.45	67.21	-38.1	-39.2	21.7	0.00e+00	0	23	0	699400192	50	5893
2026-01-09 15:04:02.54	6.06	67.65	-37.0	-37.9	22.8	0.00e+00	0	22	0	701497344	48	5655
2026-01-09 15:04:03.55	5.66	68.08	-37.6	-38.7	22.1	0.00e+00	0	22	0	703594496	48	6197
2026-01-09 15:04:04.56	5.24	68.52	-39.3	-40.7	20.4	0.00e+00	0	22	0	705691648	50	6992
2026-01-09 15:04:05.57	4.80	68.96	-38.6	-39.9	21.5	0.00e+00	0	22	0	707788800	50	6319
2026-01-09 15:04:06.58	4.34	69.39	-36.9	-37.9	22.4	0.00e+00	0	22	0	708837376	48	5667
2026-01-09 15:04:07.59	3.86	69.83	-36.7	-37.6	23.1	0.00e+00	0	23	0	710934528	46	6123
2026-01-09 15:04:08.60	3.35	70.27	-37.3	-38.3	22.5	0.00e+00	0	22	0	713031680	46	6676
2026-01-09 15:04:09.61	2.82	70.71	-37.2	-38.2	22.5	0.00e+00	0	22	0	715128832	46	6567
2026-01-09 15:04:10.62	2.26	71.15	-36.7	-37.7	23.0	0.00e+00	0	22	0	717225984	46	6202
2026-01-09 15:04:11.63	1.68	71.59	-35.8	-36.7	23.9	0.00e+00	0	22	0	718274560	46	5559
2026-01-09 15:04:12.64	1.06	72.03	-34.6	-35.3	24.8	0.00e+00	0	22	0	720371712	42	5949
2026-01-09 15:04:13.65	0.41	72.48	-33.9	-34.6	24.3	0.00e+00	0	22	0	722468864	42	5487
2026-01-09 15:04:14.66	359.73	72.91	-34.6	-35.4	24.7	0.00e+00	0	22	0	724566016	42	6018
2026-01-09 15:04:15.67	359.01	73.35	-35.5	-36.4	24.1	0.00e+00	0	22	0	726663168	42	6716
2026-01-09 15:04:16.67	358.25	73.79	-35.1	-35.9	24.5	0.00e+00	0	22	0	727711744	42	6382
2026-01-09 15:04:17.68	357.44	74.22	-34.6	-35.4	24.7	0.00e+00	0	22	0	729808896	42	5987
2026-01-09 15:04:18.69	356.59	74.66	-36.1	-37.1	23.2	0.00e+00	0	22	0	731906048	44	6478
2026-01-09 15:04:19.70	355.68	75.09	-37.6	-38.7	22.6	0.00e+00	0	22	0	734003200	46	7002
2026-01-09 15:04:20.71	354.71	75.52	-36.4	-37.3	23.3	0.00e+00	0	22	0	736100352	46	5903
2026-01-09 15:04:21.72	353.69	75.95	-36.7	-37.6	23.1	0.00e+00	0	22	0	737148928	46	6137
2026-01-09 15:04:22.73	352.59	76.37	-39.1	-40.4	20.6	0.00e+00	0	22	0	739246080	50	6719
2026-01-09 15:04:23.74	351.43	76.80	-39.4	-40.7	20.1	0.00e+00	0	22	0	741343232	52	6216
2026-01-09 15:04:24.75	350.18	77.21	-38.8	-40.0	21.2	0.00e+00	0	22	0	743440384	50	6448
2026-01-09 15:04:25.76	348.85	77.62	-39.2	-40.5	20.7	0.00e+00	0	22	0	745537536	50	6773
2026-01-09 15:04:26.77	347.43	78.03	-38.4	-39.5	21.5	0.00e+00	0	22	0	746586112	50	6075
2026-01-09 15:04:27.78	345.91	78.42	-38.8	-40.1	21.1	0.00e+00	0	22	0	748683264	50	6488
2026-01-09 15:04:28.79	344.27	78.81	-38.5	-39.7	21.6	0.00e+00	0	22	0	750780416	50	6182
2026-01-09 15:04:29.80	342.51	79.20	-36.9	-37.8	22.9	0.00e+00	0	22	0	752877568	48	5586
2026-01-09 15:04:30.81	340.63	79.57	-36.9	-37.8	22.7	0.00e+00	0	22	0	754974720	48	5613
2026-01-09 15:04:31.82	338.60	79.93	-37.8	-38.9	22.1	0.00e+00	0	22	0	756023296	48	6379
2026-01-09 15:04:32.83	336.43	80.28	-36.7	-37.6	23.2	0.00e+00	0	22	0	758120448	46	6170
2026-01-09 15:04:33.84	334.09	80.61	-35.7	-36.5	23.9	0.00e+00	0	22	0	760217600	44	6067
2026-01-09 15:04:34.85	331.59	80.93	-35.0	-35.8	24.4	0.00e+00	0	22	0	762314752	44	5585
2026-01-09 15:04:35.86	328.90	81.23	-35.4	-36.3	24.2	0.00e+00	0	22	0	764411904	44	5913
2026-01-09 15:04:36.87	326.03	81.51	-36.5	-37.5	23.6	0.00e+00	0	22	0	765460480	44	6788
2026-01-09 15:04:37.88	322.97	81.76	-36.1	-37.0	23.5	0.00e+00	0	22	0	767557632	44	6438
2026-01-09 15:04:38.88	319.75	81.99	-36.1	-37.0	23.6	0.00e+00	0	22	0	769654784	44	6392
2026-01-09 15:04:39.89	316.31	82.20	-37.9	-39.0	22.0	0.00e+00	0	22	0	771751936	48	6414
2026-01-09 15:04:40.90	312.70	82.38	-38.0	-39.2	21.9	0.00e+00	0	22	0	773849088	50	5835
2026-01-09 15:04:41.91	308.93	82.52	-37.3	-38.2	22.7	0.00e+00	0	22	0	775946240	48	5888
2026-01-09 15:04:42.92	305.03	82.63	-37.7	-38.7	22.1	0.00e+00	0	22	0	776994816	48	6240
2026-01-09 15:04:43.93	301.03	82.71	-37.3	-38.3	22.5	0.00e+00	0	22	0	779091968	48	5939
2026-01-09 15:04:44.94	296.96	82.75	-36.5	-37.4	23.4	0.00e+00	0	22	0	781189120	46	6032
2026-01-09 15:04:45.95	292.86	82.76	-36.1	-37.0	23.5	0.00e+00	0	22	0	783286272	46	5708
2026-01-09 15:04:46.96	288.78	82.73	-34.9	-35.7	24.6	0.00e+00	0	22	0	785383424	44	5544
2026-01-09 15:04:47.97	284.75	82.66	-35.5	-36.3	24.0	0.00e+00	0	22	0	786432000	42	6684
2026-01-09 15:04:48.98	280.82	82.55	-37.2	-38.2	22.7	0.00e+00	0	22	0	788529152	46	6590
2026-01-09 15:04:49.99	277.01	82.42	-35.1	-35.8	24.4	0.00e+00	0	22	0	790626304	44	5616
2026-01-09 15:04:51.00	273.36	82.25	-35.7	-36.5	23.9	0.00e+00	0	22	0	792723456	44	6103
2026-01-09 15:04:52.01	269.87	82.05	-37.1	-38.0	22.7	0.00e+00	0	22	0	794820608	46	6434
2026-01-09 15:04:53.02	266.57	81.82	-37.2	-38.2	22.7	0.00e+00	0	22	0	795869184	46	6544
2026-01-09 15:04:54.03	263.46	81.57	-38.7	-39.9	21.3	0.00e+00	0	22	0	797966336	48	7143
2026-01-09 15:04:55.04	260.54	81.30	-37.7	-38.7	22.5	0.00e+00	0	22	0	800063488	48	6195
2026-01-09 15:04:56.05	257.81	81.00	-37.8	-38.9	22.0	0.00e+00	0	22	0	802160640	48	6338
2026-01-09 15:04:57.06	255.25	80.69	-38.9	-40.1	21.1	0.00e+00	0	22	0	804257792	50	6495
2026-01-09 15:04:58.07	252.87	80.36	-38.7	-39.9	21.3	0.00e+00	0	22	0	805306368	50	6351
2026-01-09 15:04:59.07	250.68	80.02	-39.3	-40.6	20.3	0.00e+00	0	22	0	807403520	50	6886
2026-01-09 15:05:00.09	248.59	79.66	-40.1	-41.6	20.1	0.00e+00	0	22	0	809500672	52	6895
2026-01-09 15:05:01.10	246.67	79.29	-38.2	-39.2	21.7	0.00e+00	0	22	0	811597824	50	5888
2026-01-09 15:05:02.11	244.89	78.91	-39.2	-40.5	20.7	0.00e+00	0	22	0	813694976	50	6803
2026-01-09 15:05:03.12	243.22	78.52	-40.7	-42.3	19.1	0.00e+00	0	22	0	814743552	52	7508
2026-01-09 15:05:04.13	241.67	78.13	-40.1	-41.5	19.9	0.00e+00	0	22	0	816840704	54	6039
2026-01-09 15:05:05.13	240.23	77.73	-39.7	-41.0	20.5	0.00e+00	0	22	0	818937856	52	6447
2026-01-09 15:05:06.14	238.88	77.32	-37.9	-38.9	22.4	0.00e+00	0	22	0	821035008	50	5683
2026-01-09 15:05:07.15	237.61	76.90	-36.1	-37.0	23.6	0.00e+00	0	22	0	823132160	46	5708
2026-01-09 15:05:08.17	236.41	76.48	-35.3	-36.2	24.1	0.00e+00	0	22	0	824180736	44	5840
2026-01-09 15:05:09.17	235.31	76.06	-35.5	-36.4	24.0	0.00e+00	0	23	0	826277888	44	5970
2026-01-09 15:05:10.18	234.27	75.63	-34.4	-35.1	25.0	0.00e+00	0	23	0	828375040	42	5815
2026-01-09 15:05:11.19	233.29	75.20	-35.5	-36.4	24.0	0.00e+00	0	23	0	830472192	42	6707
2026-01-09 15:05:12.20	232.36	74.77	-36.8	-37.7	23.0	0.00e+00	0	23	0	832569344	46	6223
2026-01-09 15:05:13.21	231.49	74.33	-35.5	-36.3	24.1	0.00e+00	0	22	0	833617920	44	5923
2026-01-09 15:05:14.22	230.67	73.90	-34.9	-35.7	24.2	0.00e+00	0	23	0	835715072	44	5515
2026-01-09 15:05:15.23	229.90	73.46	-35.7	-36.6	24.3	0.00e+00	0	22	0	837812224	44	6106
2026-01-09 15:05:16.24	229.17	73.02	-34.9	-35.7	24.6	0.00e+00	0	22	0	839909376	44	5529
2026-01-09 15:05:17.25	228.47	72.58	-35.1	-35.9	24.3	0.00e+00	0	22	0	842006528	44	5663
2026-01-09 15:05:18.26	227.81	72.14	-36.2	-37.1	23.4	0.00e+00	0	22	0	844103680	44	6505
2026-01-09 15:05:19.27	227.19	71.70	-38.5	-39.8	21.1	0.00e+00	0	22	0	845152256	48	7046
2026-01-09 15:05:20.28	226.60	71.25	-40.4	-42.1	19.4	0.00e+00	0	23	0	847249408	52	7317
2026-01-09 15:05:21.29	226.03	70.81	-38.9	-40.2	21.2	0.00e+00	0	22	0	849346560	52	5831
2026-01-09 15:05:22.30	225.50	70.37	-38.6	-39.8	21.4	0.00e+00	0	22	0	851443712	50	6310
2026-01-09 15:05:23.31	224.98	69.93	-38.3	-39.3	21.7	0.00e+00	0	23	0	853540864	50	5946
2026-01-09 15:05:24.32	224.50	69.49	-36.9	-37.8	22.8	0.00e+00	0	22	0	854589440	48	5612
2026-01-09 15:05:25.33	224.03	69.05	-38.1	-39.2	21.6	0.00e+00	0	22	0	856686592	48	6553
2026-01-09 15:05:26.34	223.58	68.61	-39.1	-40.3	21.1	0.00e+00	0	22	0	858783744	50	6667
2026-01-09 15:05:27.35	223.16	68.18	-37.9	-39.0	22.2	0.00e+00	0	22	0	860880896	50	5709
2026-01-09 15:05:28.36	222.75	67.74	-37.0	-38.0	22.7	0.00e+00	0	22	0	862978048	46	6453
2026-01-09 15:05:29.37	222.36	67.30	-36.4	-37.4	23.1	0.00e+00	0	23	0	864026624	46	5966
2026-01-09 15:05:30.38	221.99	66.87	-35.7	-36.6	24.0	0.00e+00	0	22	0	866123776	46	5466
2026-01-09 15:05:31.39	221.63	66.44	-36.2	-37.0	23.6	0.00e+00	0	23	0	868220928	44	6463
2026-01-09 15:05:32.40	221.28	66.01	-36.1	-37.0	23.7	0.00e+00	0	22	0	870318080	44	6415
2026-01-09 15:05:33.40	220.95	65.58	-35.3	-36.1	24.3	0.00e+00	0	22	0	872415232	44	5804
2026-01-09 15:05:34.41	220.64	65.15	-34.7	-35.5	24.7	0.00e+00	0	22	0	873463808	44	5404
2026-01-09 15:05:35.42	220.33	64.73	-34.3	-35.1	24.7	0.00e+00	0	23	0	875560960	42	5793
2026-01-09 15:05:36.43	220.03	64.30	-34.2	-35.0	25.0	0.00e+00	0	22	0	877658112	42	5739
2026-01-09 15:05:37.44	219.75	63.88	-34.8	-35.6	24.8	0.00e+00	0	23	0	879755264	42	6126
2026-01-09 15:05:38.45	219.48	63.46	-35.6	-36.5	24.0	0.00e+00	0	22	0	881852416	44	6052
2026-01-09 15:05:39.46	219.21	63.04	-34.7	-35.4	24.8	0.00e+00	0	23	0	882900992	42	6019
2026-01-09 15:05:40.47	218.96	62.62	-34.7	-35.5	24.7	0.00e+00	0	22	0	884998144	42	6039
2026-01-09 15:05:41.48	218.71	62.21	-35.7	-36.6	23.8	0.00e+00	0	22	0	887095296	42	6865
2026-01-09 15:05:42.49	218.47	61.79	-35.1	-36.0	24.5	0.00e+00	0	22	0	889192448	44	5718
2026-01-09 15:05:43.50	218.24	61.38	-33.8	-34.5	25.5	0.00e+00	0	22	0	891289600	42	5426
2026-01-09 15:05:44.51	218.02	60.97	-34.3	-35.1	24.8	0.00e+00	0	23	0	892338176	40	6497
2026-01-09 15:05:45.52	217.80	60.57	-35.0	-35.8	24.6	0.00e+00	0	22	0	894435328	42	6262
2026-01-09 15:05:46.53	217.60	60.16	-35.3	-36.1	24.3	0.00e+00	0	22	0	896532480	42	6487
2026-01-09 15:05:47.54	217.39	59.76	-36.8	-37.8	22.9	0.00e+00	0	22	0	898629632	44	7055
2026-01-09 15:05:48.55	217.20	59.36	-38.4	-39.6	21.6	0.00e+00	0	22	0	900726784	48	6883
2026-01-09 15:05:49.56	217.01	58.96	-36.1	-37.0	23.5	0.00e+00	0	22	0	901775360	46	5717
2026-01-09 15:05:50.57	216.83	58.57	-34.7	-35.5	24.7	0.00e+00	0	23	0	903872512	42	6092
2026-01-09 15:05:51.58	216.65	58.18	-36.0	-36.9	23.6	0.00e+00	0	22	0	905969664	42	7124
2026-01-09 15:05:52.59	216.47	57.79	-36.2	-37.1	23.6	0.00e+00	0	23	0	908066816	44	6515
2026-01-09 15:05:53.60	216.31	57.40	-36.0	-36.9	23.8	0.00e+00	0	23	0	910163968	44	6330
2026-01-09 15:05:54.61	216.14	57.01	-35.9	-36.8	23.6	0.00e+00	0	22	0	911212544	44	6313
2026-01-09 15:05:55.62	215.98	56.63	-36.8	-37.9	23.1	0.00e+00	0	23	0	913309696	46	6320
2026-01-09 15:05:56.63	215.83	56.25	-36.5	-37.5	23.5	0.00e+00	0	22	0	915406848	46	6051
2026-01-09 15:05:57.64	215.68	55.87	-35.3	-36.2	24.3	0.00e+00	0	23	0	917504000	44	5871
2026-01-09 15:05:58.65	215.53	55.49	-35.0	-35.8	24.6	0.00e+00	0	22	0	919601152	44	5587
2026-01-09 15:05:59.66	215.39	55.12	-35.0	-35.8	24.8	0.00e+00	0	22	0	921698304	42	6307
2026-01-09 15:06:00.67	215.25	54.75	-34.9	-35.7	24.5	0.00e+00	0	23	0	922746880	42	6185
2026-01-09 15:06:01.67	215.12	54.38	-33.4	-34.2	25.8	0.00e+00	0	22	0	924844032	40	5841
2026-01-09 15:06:02.69	214.99	54.01	-33.3	-34.0	25.7	0.00e+00	0	22	0	926941184	40	5736
2026-01-09 15:06:03.69	214.86	53.65	-34.0	-34.8	25.3	0.00e+00	0	22	0	929038336	40	6288
2026-01-09 15:06:04.71	214.74	53.28	-35.5	-36.3	24.1	0.00e+00	0	22	0	931135488	42	6688
2026-01-09 15:06:05.71	214.61	52.93	-35.6	-36.5	24.3	0.00e+00	0	22	0	932184064	44	6047
2026-01-09 15:06:06.72	214.50	52.57	-35.8	-36.6	23.8	0.00e+00	0	22	0	934281216	44	6155
2026-01-09 15:06:07.73	214.38	52.22	-36.7	-37.7	21.7	0.00e+00	0	22	0	936378368	44	6975
2026-01-09 15:06:08.74	214.27	51.87	-38.2	-39.3	21.6	0.00e+00	0	23	0	938475520	48	6690
2026-01-09 15:06:09.75	214.16	51.52	-37.8	-38.8	22.3	0.00e+00	0	22	0	940572672	48	6267
2026-01-09 15:06:10.76	214.05	51.17	-37.1	-38.0	22.8	0.00e+00	0	22	0	941621248	48	5752
2026-01-09 15:06:11.77	213.95	50.82	-36.7	-37.7	23.1	0.00e+00	0	23	0	943718400	46	6178
2026-01-09 15:06:12.78	213.84	50.48	-36.6	-37.5	23.1	0.00e+00	0	22	0	945815552	46	6088
2026-01-09 15:06:13.79	213.74	50.14	-36.6	-37.5	23.3	0.00e+00	0	22	0	947912704	46	6087
2026-01-09 15:06:14.80	213.65	49.80	-37.2	-38.2	22.5	0.00e+00	0	22	0	950009856	46	6570
2026-01-09 15:06:15.81	213.55	49.47	-37.4	-38.4	22.3	0.00e+00	0	22	0	951058432	48	6002
2026-01-09 15:06:16.82	213.46	49.14	-37.9	-39.0	21.9	0.00e+00	0	22	0	953155584	48	6423
2026-01-09 15:06:17.83	213.37	48.81	-38.1	-39.3	22.0	0.00e+00	0	22	0	955252736	48	6624
2026-01-09 15:06:18.84	213.28	48.48	-38.9	-40.1	21.2	0.00e+00	0	22	0	957349888	50	6500
2026-01-09 15:06:19.84	213.19	48.16	-37.8	-38.9	21.8	0.00e+00	0	22	0	959447040	50	5631
2026-01-09 15:06:20.86	213.10	47.83	-37.7	-38.7	22.2	0.00e+00	0	22	0	960495616	48	6235
2026-01-09 15:06:21.86	213.02	47.51	-37.1	-38.1	22.8	0.00e+00	0	22	0	962592768	48	5793
2026-01-09 15:06:22.87	212.94	47.19	-37.7	-38.8	22.4	0.00e+00	0	22	0	964689920	48	6272
2026-01-09 15:06:23.88	212.86	46.88	-37.4	-38.4	22.5	0.00e+00	0	23	0	966787072	48	6027
2026-01-09 15:06:24.89	212.78	46.56	-37.4	-38.4	22.5	0.00e+00	0	22	0	968884224	48	6016
2026-01-09 15:06:25.90	212.70	46.25	-36.9	-37.8	23.1	0.00e+00	0	22	0	969932800	48	5599
2026-01-09 15:06:26.91	212.63	45.94	-36.1	-36.9	23.6	0.00e+00	0	22	0	972029952	46	5668
2026-01-09 15:06:27.93	212.55	45.63	-36.6	-37.4	23.1	0.00e+00	0	23	0	974127104	46	6026
2026-01-09 15:06:28.94	212.48	45.33	-37.8	-38.9	21.7	0.00e+00	0	22	0	976224256	46	7106
2026-01-09 15:06:29.95	212.41	45.03	-39.8	-41.1	20.1	0.00e+00	0	22	0	978321408	50	7303
2026-01-09 15:06:30.96	212.34	44.73	-40.9	-42.6	18.7	0.00e+00	0	22	0	979369984	54	6862
2026-01-09 15:06:31.97	212.27	44.43	-42.0	-44.1	17.3	0.00e+00	0	22	0	981467136	56	7291
2026-01-09 15:06:32.98	212.21	44.13	-42.5	-45.0	16.6	0.00e+00	0	22	0	983564288	56	8046
2026-01-09 15:06:33.99	212.14	43.84	-43.4	-46.5	14.8	0.00e+00	0	22	0	985661440	58	8549
2026-01-09 15:06:35.00	212.08	43.55	-43.5	-46.6	15.2	0.00e+00	0	23	0	987758592	60	7728
2026-01-09 15:06:36.01	212.01	43.26	-43.9	-47.1	15.0	6.10e-06	0	23	0	989855744	60	8166
2026-01-09 15:06:37.02	211.95	42.97	-40.6	-42.2	19.6	0.00e+00	0	23	0	990904320	56	5857
2026-01-09 15:06:38.03	211.89	42.68	-39.1	-40.3	21.4	0.00e+00	0	23	0	993001472	52	5899
2026-01-09 15:06:39.04	211.83	42.40	-38.2	-39.3	21.9	0.00e+00	0	23	0	995098624	50	5922
2026-01-09 15:06:40.05	211.77	42.12	-39.3	-40.5	20.9	0.00e+00	0	23	0	997195776	50	6830
2026-01-09 15:06:41.06	211.71	41.84	-38.2	-39.3	21.8	0.00e+00	0	22	0	999292928	50	5958
2026-01-09 15:06:42.07	211.66	41.56	-38.2	-39.3	21.7	0.00e+00	0	22	0	1000341504	50	5954
2026-01-09 15:06:43.08	211.60	41.29	-39.3	-40.6	20.6	0.00e+00	0	23	0	1002438656	50	6907
2026-01-09 15:06:44.09	211.55	41.02	-39.5	-40.8	20.5	0.00e+00	0	22	0	1004535808	50	7059
2026-01-09 15:06:45.09	211.50	40.75	-40.1	-41.7	19.8	0.00e+00	0	23	0	1006632960	52	6933
2026-01-09 15:06:46.11	211.44	40.48	-41.1	-43.0	18.4	0.00e+00	0	22	0	1008730112	54	7172
2026-01-09 15:06:47.12	211.39	40.21	-41.6	-43.6	18.2	0.00e+00	0	22	0	1009778688	56	6853
2026-01-09 15:06:48.12	211.34	39.95	-39.6	-40.9	20.5	0.00e+00	0	22	0	1011875840	52	6318
2026-01-09 15:06:49.13	211.29	39.69	-38.3	-39.4	22.1	0.00e+00	0	22	0	1013972992	50	5977
2026-01-09 15:06:50.15	211.24	39.42	-36.3	-37.1	23.3	0.00e+00	0	23	0	1016070144	46	5827
2026-01-09 15:06:51.16	211.19	39.16	-35.1	-35.9	24.4	0.00e+00	0	22	0	1018167296	44	5654
2026-01-09 15:06:52.17	211.15	38.91	-35.1	-35.9	24.5	0.00e+00	0	22	0	1019215872	44	5648
2026-01-09 15:06:53.18	211.10	38.65	-36.3	-37.2	23.5	0.00e+00	0	23	0	1021313024	44	6561
2026-01-09 15:06:54.19	211.05	38.40	-37.2	-38.2	22.7	0.00e+00	0	22	0	1023410176	46	6541
2026-01-09 15:06:55.20	211.01	38.15	-38.3	-39.4	21.7	0.00e+00	0	23	0	1025507328	48	6731
2026-01-09 15:06:56.21	210.96	37.90	-40.0	-41.5	19.8	0.00e+00	0	23	0	1027604480	50	7623
2026-01-09 15:06:57.22	210.92	37.65	-39.9	-41.4	20.1	0.00e+00	0	23	0	1028653056	52	6714
2026-01-09 15:06:58.23	210.88	37.40	-38.7	-39.9	21.2	0.00e+00	0	23	0	1030750208	52	5674
2026-01-09 15:06:59.24	210.84	37.16	-38.7	-39.9	21.4	0.00e+00	0	23	0	1032847360	50	6334
2026-01-09 15:07:00.25	210.79	36.92	-38.4	-39.6	21.7	0.00e+00	0	23	0	1034944512	50	6140
2026-01-09 15:07:01.26	210.75	36.68	-38.2	-39.3	21.9	0.00e+00	0	23	0	1037041664	50	5919
2026-01-09 15:07:02.27	210.71	36.44	-38.6	-39.8	21.3	0.00e+00	0	23	0	1038090240	50	6309
2026-01-09 15:07:03.28	210.67	36.20	-39.2	-40.5	20.8	0.00e+00	0	23	0	1040187392	50	6801
2026-01-09 15:07:04.29	210.64	35.96	-39.0	-40.3	20.8	0.00e+00	0	23	0	1042284544	50	6648
2026-01-09 15:07:05.30	210.60	35.73	-39.3	-40.6	20.6	0.00e+00	0	23	0	1044381696	50	6927
2026-01-09 15:07:06.31	210.56	35.50	-39.0	-40.3	21.1	0.00e+00	0	23	0	1046478848	50	6626
2026-01-09 15:07:07.32	210.52	35.27	-38.4	-39.5	21.7	0.00e+00	0	23	0	1047527424	50	6054
2026-01-09 15:07:08.32	210.49	35.04	-37.8	-38.8	22.3	0.00e+00	0	23	0	1049624576	50	5583
2026-01-09 15:07:09.33	210.45	34.81	-37.4	-38.4	22.6	0.00e+00	0	23	0	1051721728	48	5987
2026-01-09 15:07:10.34	210.41	34.59	-37.6	-38.6	22.4	0.00e+00	0	23	0	1053818880	48	6168
2026-01-09 15:07:11.35	210.38	34.37	-37.6	-38.6	22.4	0.00e+00	0	23	0	1055916032	48	6170
2026-01-09 15:07:12.36	210.34	34.14	-37.9	-38.9	22.1	0.00e+00	0	23	0	1058013184	48	6381
2026-01-09 15:07:13.37	210.31	33.92	-38.6	-39.7	21.4	0.00e+00	0	23	0	1059061760	48	6979
2026-01-09 15:07:14.38	210.28	33.70	-38.4	-39.5	21.6	0.00e+00	0	23	0	1061158912	50	6065
2026-01-09 15:07:15.39	210.24	33.48	-39.5	-40.8	20.5	0.00e+00	0	23	0	1063256064	50	7067
2026-01-09 15:07:16.40	210.21	33.27	-40.2	-41.7	19.6	0.00e+00	0	23	0	1065353216	52	6963
2026-01-09 15:07:17.41	210.18	33.05	-40.9	-42.6	18.9	0.00e+00	0	23	0	1067450368	52	7733
2026-01-09 15:07:18.42	210.15	32.84	-41.2	-43.1	18.3	0.00e+00	0	23	0	1068498944	54	7258
2026-01-09 15:07:19.43	210.12	32.63	-41.8	-43.9	17.8	0.00e+00	0	23	0	1070596096	56	7168
2026-01-09 15:07:20.44	210.09	32.42	-41.5	-43.5	18.1	0.00e+00	0	23	0	1072693248	56	6816
2026-01-09 15:07:21.45	210.06	32.21	-41.4	-43.5	18.2	0.00e+00	0	23	0	1074790400	56	6790
2026-01-09 15:07:22.46	210.03	32.00	-41.5	-43.5	18.1	0.00e+00	0	23	0	1076887552	56	6822
2026-01-09 15:07:23.47	210.00	31.80	-40.4	-42.1	19.4	0.00e+00	0	23	0	1077936128	54	6492
2026-01-09 15:07:24.48	209.97	31.59	-40.6	-42.3	19.3	0.00e+00	0	23	0	1080033280	54	6644
2026-01-09 15:07:25.49	209.94	31.39	-40.0	-41.6	19.8	0.00e+00	0	23	0	1082130432	54	6167
2026-01-09 15:07:26.50	209.91	31.19	-39.6	-41.1	20.3	0.00e+00	0	23	0	1084227584	52	6472
2026-01-09 15:07:27.51	209.88	30.99	-39.1	-40.5	20.7	0.00e+00	0	23	0	1086324736	52	6062
2026-01-09 15:07:28.52	209.86	30.79	-38.7	-40.0	21.2	0.00e+00	0	23	0	1087373312	52	5741
2026-01-09 15:07:29.53	209.83	30.59	-38.4	-39.6	21.5	0.00e+00	0	23	0	1089470464	50	6117
2026-01-09 15:07:30.54	209.80	30.39	-38.1	-39.2	21.9	0.00e+00	0	23	0	1091567616	50	5889
2026-01-09 15:07:31.55	209.78	30.20	-38.3	-39.5	21.7	0.00e+00	0	23	0	1093664768	50	6060
2026-01-09 15:07:32.56	209.75	30.01	-38.1	-39.2	21.8	0.00e+00	0	23	0	1095761920	50	5864
2026-01-09 15:07:33.57	209.73	29.81	-38.1	-39.3	21.9	0.00e+00	0	22	0	1096810496	50	5904
2026-01-09 15:07:34.58	209.70	29.62	-38.0	-39.1	22.0	0.00e+00	0	23	0	1098907648	50	5804
2026-01-09 15:07:35.59	209.68	29.43	-37.5	-38.5	22.6	0.00e+00	0	23	0	1101004800	48	6040
2026-01-09 15:07:36.59	209.65	29.25	-37.8	-38.9	22.2	0.00e+00	0	22	0	1103101952	48	6354
2026-01-09 15:07:37.61	209.63	29.06	-37.3	-38.3	22.5	0.00e+00	0	22	0	1105199104	48	5962
2026-01-09 15:07:38.62	209.60	28.87	-37.4	-38.5	22.5	0.00e+00	0	23	0	1106247680	48	6036
2026-01-09 15:07:39.63	209.58	28.69	-37.7	-38.8	22.1	0.00e+00	0	23	0	1108344832	48	6285
2026-01-09 15:07:40.64	209.56	28.50	-37.6	-38.7	22.3	0.00e+00	0	23	0	1110441984	48	6183
2026-01-09 15:07:41.65	209.53	28.32	-37.8	-38.9	21.9	0.00e+00	0	23	0	1112539136	48	6345
2026-01-09 15:07:42.66	209.51	28.14	-38.4	-39.6	21.6	0.00e+00	0	23	0	1114636288	48	6896
2026-01-09 15:07:43.66	209.49	27.96	-38.6	-39.9	21.3	0.00e+00	0	23	0	1115684864	48	7110
2026-01-09 15:07:44.68	209.47	27.78	-38.8	-40.0	21.1	0.00e+00	0	23	0	1117782016	50	6445
2026-01-09 15:07:45.69	209.44	27.60	-39.0	-40.3	20.9	0.00e+00	0	23	0	1119879168	50	6658
2026-01-09 15:07:46.70	209.42	27.43	-38.7	-40.0	21.2	0.00e+00	0	23	0	1121976320	50	6401
2026-01-09 15:07:47.70	209.40	27.25	-38.4	-39.6	21.5	0.00e+00	0	23	0	1124073472	50	6155
2026-01-09 15:07:48.71	209.38	27.08	-38.2	-39.4	21.8	0.00e+00	0	23	0	1126170624	50	5986
2026-01-09 15:07:49.72	209.36	26.90	-37.3	-38.4	22.5	0.00e+00	0	22	0	1127219200	48	5976
2026-01-09 15:07:50.73	209.34	26.73	-37.3	-38.3	22.7	0.00e+00	0	23	0	1129316352	48	5934
2026-01-09 15:07:51.74	209.32	26.56	-36.7	-37.7	23.1	0.00e+00	0	23	0	1131413504	46	6229
2026-01-09 15:07:52.75	209.30	26.39	-36.0	-36.9	23.8	0.00e+00	0	22	0	1133510656	46	5640
2026-01-09 15:07:53.76	209.28	26.22	-35.7	-36.6	24.0	0.00e+00	0	22	0	1135607808	44	6111
2026-01-09 15:07:54.77	209.26	26.05	-35.9	-36.8	23.9	0.00e+00	0	22	0	1136656384	44	6251
2026-01-09 15:07:55.78	209.24	25.89	-35.6	-36.4	24.0	0.00e+00	0	23	0	1138753536	44	6028
2026-01-09 15:07:56.79	209.22	25.72	-35.7	-36.6	23.9	0.00e+00	0	22	0	1140850688	44	6111
2026-01-09 15:07:57.80	209.20	25.56	-36.3	-37.2	23.5	0.00e+00	0	23	0	1142947840	44	6596
2026-01-09 15:07:58.81	209.18	25.39	-36.3	-37.2	23.5	0.00e+00	0	23	0	1145044992	44	6598
2026-01-09 15:07:59.82	209.17	25.23	-36.7	-37.6	23.1	0.00e+00	0	23	0	1146093568	44	6921
2026-01-09 15:08:00.83	209.15	25.07	-37.4	-38.5	22.4	0.00e+00	0	22	0	1148190720	46	6794
2026-01-09 15:08:01.84	209.13	24.91	-37.8	-38.8	22.1	0.00e+00	0	23	0	1150287872	48	6307
2026-01-09 15:08:02.85	209.11	24.75	-38.5	-39.6	21.4	0.00e+00	0	22	0	1152385024	48	6912
2026-01-09 15:08:03.86	209.09	24.59	-38.7	-40.0	21.2	0.00e+00	0	23	0	1154482176	50	6397
2026-01-09 15:08:04.87	209.08	24.43	-38.8	-40.1	21.1	0.00e+00	0	22	0	1155530752	50	6480
2026-01-09 15:08:05.88	209.06	24.27	-38.9	-40.2	21.0	0.00e+00	0	23	0	1157627904	50	6552
2026-01-09 15:08:06.89	209.04	24.12	-38.8	-40.0	21.1	0.00e+00	0	23	0	1159725056	50	6463
2026-01-09 15:08:07.90	209.03	23.96	-38.8	-40.0	21.4	0.00e+00	0	23	0	1161822208	50	6455
2026-01-09 15:08:08.91	209.01	23.81	-38.4	-39.6	21.6	0.00e+00	0	23	0	1163919360	50	6104
2026-01-09 15:08:09.92	208.99	23.65	-38.0	-39.2	21.9	0.00e+00	0	23	0	1164967936	50	5830
2026-01-09 15:08:10.93	208.98	23.50	-37.8	-38.9	22.1	0.00e+00	0	23	0	1167065088	50	5657
2026-01-09 15:08:11.94	208.96	23.35	-37.9	-39.0	22.0	0.00e+00	0	23	0	1169162240	48	6427
2026-01-09 15:08:12.95	208.95	23.20	-37.8	-38.9	22.1	0.00e+00	0	23	0	1171259392	48	6320
2026-01-09 15:08:13.96	208.93	23.05	-37.1	-38.1	22.7	0.00e+00	0	23	0	1173356544	48	5788
2026-01-09 15:08:14.97	208.92	22.90	-36.8	-37.8	23.0	0.00e+00	0	23	0	1174405120	46	6266
2026-01-09 15:08:15.98	208.90	22.75	-36.5	-37.4	23.3	0.00e+00	0	23	0	1176502272	46	5982
2026-01-09 15:08:16.99	208.89	22.60	-36.1	-37.0	23.6	0.00e+00	0	23	0	1178599424	46	5699
2026-01-09 15:08:18.00	208.87	22.46	-36.0	-36.9	23.6	0.00e+00	0	23	0	1180696576	46	5663
2026-01-09 15:08:19.01	208.86	22.31	-35.7	-36.5	23.9	0.00e+00	0	23	0	1182793728	44	6076
2026-01-09 15:08:20.02	208.84	22.17	-35.5	-36.3	24.1	0.00e+00	0	23	0	1183842304	44	5942
2026-01-09 15:08:21.03	208.83	22.02	-35.7	-36.5	23.9	0.00e+00	0	23	0	1185939456	44	6098
2026-01-09 15:08:22.04	208.81	21.88	-35.3	-36.1	24.3	0.00e+00	0	23	0	1188036608	44	5792
2026-01-09 15:08:23.05	208.80	21.74	-35.2	-36.1	24.4	0.00e+00	0	23	0	1190133760	44	5764
2026-01-09 15:08:24.06	208.78	21.60	-35.2	-36.1	24.3	0.00e+00	0	23	0	1192230912	44	5771
2026-01-09 15:08:25.07	208.77	21.46	-35.2	-36.0	24.3	0.00e+00	0	23	0	1194328064	44	5716
2026-01-09 15:08:26.08	208.76	21.32	-35.3	-36.1	24.2	0.00e+00	0	23	0	1195376640	44	5826
2026-01-09 15:08:27.09	208.74	21.18	-35.6	-36.4	24.0	0.00e+00	0	23	0	1197473792	44	6023
2026-01-09 15:08:28.10	208.73	21.04	-35.7	-36.5	23.9	0.00e+00	0	23	0	1199570944	44	6082
2026-01-09 15:08:29.11	208.72	20.90	-35.9	-36.8	23.9	0.00e+00	0	23	0	1201668096	44	6262
2026-01-09 15:08:30.12	208.71	20.76	-35.9	-36.8	23.7	0.00e+00	0	23	0	1203765248	44	6290
2026-01-09 15:08:31.13	208.69	20.63	-36.1	-37.0	23.6	0.00e+00	0	23	0	1204813824	44	6415
2026-01-09 15:08:32.14	208.68	20.49	-36.1	-37.0	23.5	0.00e+00	0	23	0	1206910976	44	6449
2026-01-09 15:08:33.15	208.67	20.36	-36.1	-36.9	23.7	0.00e+00	0	23	0	1209008128	44	6376
2026-01-09 15:08:34.15	208.65	20.23	-36.1	-37.0	23.6	0.00e+00	0	23	0	1211105280	44	6424
2026-01-09 15:08:35.17	208.64	20.09	-36.2	-37.1	23.5	0.00e+00	0	23	0	1213202432	44	6504
2026-01-09 15:08:36.18	208.63	19.96	-35.9	-36.8	23.6	0.00e+00	0	23	0	1214251008	44	6280
2026-01-09 15:08:37.19	208.62	19.83	-36.3	-37.1	23.4	0.00e+00	0	23	0	1216348160	44	6533
2026-01-09 15:08:38.20	208.61	19.69	-36.2	-37.1	23.5	0.00e+00	0	23	0	1218445312	44	6503
