passes_logs/2026/01/09/R4.6S_Anadyr/R4.6S_Anadyr__20260109_025403_SUOMI_NPP_rec.log

#Pass ID: 20260109_025403_SUOMI NPP
#Satellite: SUOMI NPP
#Configuration: NPP
#almurnet v.1.7.20251203
#Start time: 2026-01-09 02:54:04

#Version: 2.2.20231116
#Station: R4.6S_Anadyr
#Location: 177.4865 lon 64.73178 lat
#TLE: 1 37849U 11061A   26008.05542337  .00000108  00000+0  71976-4 0  9997
#TLE: 2 37849  98.7805 310.1641 0002540  75.6410 284.5048 14.19523335735721

#Time	Az	El	Level	Level2	SNR	BER	BlckErr	Temp	State	Recorded	gain1	gain2
2026-01-09 02:54:04.14	225.46	0.03	-48.0	-59.7	3.4	8.45e-01	0	30	0	0	60	34837
2026-01-09 02:54:05.15	225.54	0.08	-48.2	-63.3	3.6	1.51e+00	0	31	104	0	60	53131
2026-01-09 02:54:06.16	225.63	0.13	-47.9	-63.4	3.6	1.51e+00	0	31	104	0	60	53284
2026-01-09 02:54:07.17	225.71	0.18	-48.2	-63.4	3.6	1.51e+00	0	31	104	0	60	53222
2026-01-09 02:54:08.18	225.79	0.22	-48.1	-63.3	3.6	1.51e+00	0	31	104	0	60	53093
2026-01-09 02:54:09.19	225.87	0.27	-48.1	-63.4	3.6	1.51e+00	0	32	104	0	60	53460
2026-01-09 02:54:10.20	225.95	0.32	-48.2	-63.4	3.6	1.51e+00	0	32	104	0	60	53426
2026-01-09 02:54:11.20	226.04	0.37	-48.2	-63.4	3.6	1.51e+00	0	32	104	0	60	53732
2026-01-09 02:54:12.21	226.12	0.41	-48.2	-63.4	3.6	1.51e+00	0	32	104	0	60	53530
2026-01-09 02:54:13.22	226.20	0.46	-48.1	-63.4	3.6	1.51e+00	0	32	104	0	60	53270
2026-01-09 02:54:14.24	226.28	0.51	-48.1	-63.4	3.6	1.51e+00	0	32	104	0	60	53204
2026-01-09 02:54:15.24	226.37	0.56	-48.2	-63.3	3.6	1.51e+00	0	32	104	0	60	52866
2026-01-09 02:54:16.26	226.45	0.61	-48.0	-63.3	3.6	1.51e+00	0	32	104	0	60	52779
2026-01-09 02:54:17.27	226.54	0.65	-47.9	-63.2	3.6	1.51e+00	0	32	104	0	60	52315
2026-01-09 02:54:18.27	226.62	0.70	-47.9	-63.2	3.5	1.51e+00	0	32	104	0	60	52020
2026-01-09 02:54:19.29	226.71	0.75	-47.7	-62.9	3.6	1.51e+00	0	32	104	0	60	50582
2026-01-09 02:54:20.30	226.79	0.80	-47.3	-62.4	3.6	1.51e+00	0	32	104	0	60	47870
2026-01-09 02:54:21.31	226.88	0.85	-45.8	-61.0	3.6	1.51e+00	0	32	104	0	60	40611
2026-01-09 02:54:22.32	226.96	0.89	-45.4	-60.6	3.6	1.51e+00	0	32	104	0	60	38641
2026-01-09 02:54:23.33	227.05	0.94	-45.4	-60.6	3.6	1.51e+00	0	32	104	0	60	38554
2026-01-09 02:54:24.34	227.13	0.99	-45.4	-60.5	3.6	1.51e+00	0	32	104	0	60	38407
2026-01-09 02:54:25.34	227.22	1.04	-45.4	-60.5	3.6	1.51e+00	0	32	104	0	60	38490
2026-01-09 02:54:26.35	227.30	1.09	-45.4	-60.5	3.6	1.51e+00	0	32	104	0	60	38285
2026-01-09 02:54:27.36	227.39	1.13	-45.4	-60.5	3.6	1.51e+00	0	32	104	0	60	38379
2026-01-09 02:54:28.37	227.48	1.18	-45.4	-60.5	3.6	1.51e+00	0	32	104	0	60	38422
2026-01-09 02:54:29.38	227.56	1.23	-45.4	-60.5	3.6	1.51e+00	0	32	104	0	60	38332
2026-01-09 02:54:30.39	227.65	1.28	-45.4	-60.6	3.6	1.51e+00	0	32	104	0	60	38532
2026-01-09 02:54:31.40	227.74	1.33	-45.4	-60.6	3.6	1.51e+00	0	32	104	0	60	38621
2026-01-09 02:54:32.41	227.83	1.37	-45.4	-60.5	3.6	1.51e+00	0	32	104	0	60	38357
2026-01-09 02:54:33.42	227.92	1.42	-45.4	-60.5	3.6	1.51e+00	0	32	104	0	60	38473
2026-01-09 02:54:34.43	228.00	1.47	-45.4	-60.5	3.6	1.51e+00	0	32	104	0	60	38404
2026-01-09 02:54:35.44	228.09	1.52	-45.3	-60.5	3.6	1.51e+00	0	32	104	0	60	38509
2026-01-09 02:54:36.45	228.18	1.57	-45.3	-60.5	3.6	1.51e+00	0	32	104	0	60	38377
2026-01-09 02:54:37.46	228.27	1.62	-45.3	-60.5	3.6	1.51e+00	0	32	104	0	60	38340
2026-01-09 02:54:38.47	228.36	1.67	-45.3	-60.5	3.6	1.51e+00	0	32	104	0	60	38264
2026-01-09 02:54:39.48	228.45	1.71	-45.4	-60.6	3.6	1.51e+00	0	32	104	0	60	38573
2026-01-09 02:54:40.49	228.54	1.76	-45.4	-60.5	3.6	1.51e+00	0	32	104	0	60	38465
2026-01-09 02:54:41.50	228.63	1.81	-45.3	-60.5	3.6	1.51e+00	0	32	104	0	60	38240
2026-01-09 02:54:42.51	228.72	1.86	-45.4	-60.5	3.6	1.51e+00	0	32	104	0	60	38495
2026-01-09 02:54:43.52	228.81	1.91	-45.3	-60.5	3.6	1.51e+00	0	32	104	0	60	38184
2026-01-09 02:54:44.53	228.91	1.96	-45.3	-60.5	3.6	1.51e+00	0	32	104	0	60	38275
2026-01-09 02:54:45.54	229.00	2.01	-45.3	-60.5	3.6	1.51e+00	0	32	104	0	60	38461
2026-01-09 02:54:46.55	229.09	2.05	-45.3	-60.5	3.6	1.51e+00	0	32	104	0	60	38299
2026-01-09 02:54:47.56	229.18	2.10	-45.3	-60.5	3.6	1.51e+00	0	32	104	0	60	38346
2026-01-09 02:54:48.57	229.27	2.15	-45.3	-60.5	3.6	1.51e+00	0	32	104	0	60	38388
2026-01-09 02:54:49.58	229.37	2.20	-45.3	-60.5	3.6	1.51e+00	0	32	104	0	60	38230
2026-01-09 02:54:50.59	229.46	2.25	-45.3	-60.5	3.6	1.51e+00	0	32	104	0	60	38145
2026-01-09 02:54:51.60	229.55	2.30	-45.3	-60.4	3.6	1.51e+00	0	32	104	0	60	37860
2026-01-09 02:54:52.61	229.65	2.35	-45.3	-60.4	3.6	1.51e+00	0	32	104	0	60	37848
2026-01-09 02:54:53.62	229.74	2.40	-45.3	-60.4	3.6	1.51e+00	0	32	104	0	60	37866
2026-01-09 02:54:54.63	229.84	2.44	-45.3	-60.4	3.6	1.51e+00	0	32	104	0	60	37882
2026-01-09 02:54:55.64	229.93	2.49	-45.3	-60.4	3.6	1.51e+00	0	32	104	0	60	37907
2026-01-09 02:54:56.65	230.02	2.54	-45.3	-60.4	3.6	1.51e+00	0	32	104	0	60	37668
2026-01-09 02:54:57.65	230.12	2.59	-45.3	-60.3	3.6	1.51e+00	0	32	104	0	60	37332
2026-01-09 02:54:58.66	230.21	2.64	-45.3	-60.2	3.6	1.51e+00	0	32	104	0	60	36784
2026-01-09 02:54:59.67	230.31	2.69	-45.3	-60.1	3.6	1.51e+00	0	32	104	0	60	36590
2026-01-09 02:55:00.68	230.41	2.74	-45.3	-59.8	3.6	1.51e+00	0	32	104	0	60	35307
2026-01-09 02:55:01.69	230.50	2.79	-45.3	-59.2	3.6	1.51e+00	0	32	104	0	60	32796
2026-01-09 02:55:02.70	230.60	2.84	-45.2	-58.4	3.6	1.51e+00	0	32	104	0	60	30132
2026-01-09 02:55:03.71	230.70	2.88	-45.2	-57.9	3.8	1.50e+00	0	32	104	0	60	28447
2026-01-09 02:55:04.72	230.79	2.93	-45.2	-57.5	3.7	1.47e+00	0	32	104	0	60	27109
2026-01-09 02:55:05.73	230.89	2.98	-45.2	-57.2	3.9	1.44e+00	0	32	0	0	60	26151
2026-01-09 02:55:06.74	230.99	3.03	-45.2	-57.5	3.9	1.49e+00	0	32	104	0	60	27215
2026-01-09 02:55:07.75	231.09	3.08	-45.4	-58.4	3.6	1.45e+00	0	33	104	0	60	30132
2026-01-09 02:55:08.76	231.19	3.13	-45.2	-59.1	3.6	1.50e+00	0	32	104	0	60	32619
2026-01-09 02:55:09.76	231.28	3.18	-45.4	-57.0	4.0	1.50e+00	0	32	104	0	60	25557
2026-01-09 02:55:10.77	231.38	3.23	-45.7	-60.3	3.6	1.44e+00	0	32	104	0	60	37274
2026-01-09 02:55:11.78	231.48	3.28	-45.4	-57.5	3.9	1.46e+00	0	32	104	0	60	27102
2026-01-09 02:55:12.79	231.58	3.33	-45.5	-57.8	3.7	1.49e+00	0	32	104	0	60	27966
2026-01-09 02:55:13.80	231.68	3.38	-45.5	-57.1	3.7	1.44e+00	0	32	104	0	60	25850
2026-01-09 02:55:14.81	231.78	3.43	-45.5	-57.7	3.8	1.44e+00	0	33	0	0	60	27730
2026-01-09 02:55:15.82	231.88	3.48	-45.5	-58.0	3.8	1.46e+00	0	33	104	0	60	28595
2026-01-09 02:55:16.83	231.99	3.52	-45.5	-57.9	3.9	1.49e+00	0	33	104	0	60	28325
2026-01-09 02:55:17.84	232.09	3.57	-45.6	-57.9	3.7	1.45e+00	0	32	104	0	60	28256
2026-01-09 02:55:18.85	232.19	3.62	-45.6	-57.2	3.7	1.44e+00	0	32	0	0	60	26149
2026-01-09 02:55:19.86	232.29	3.67	-45.6	-57.9	3.9	1.44e+00	0	32	104	0	60	28250
2026-01-09 02:55:20.87	232.39	3.72	-45.7	-58.1	3.9	1.48e+00	0	32	104	0	60	29120
2026-01-09 02:55:21.88	232.50	3.77	-45.7	-58.0	3.7	1.48e+00	0	32	104	0	60	28856
2026-01-09 02:55:22.89	232.60	3.82	-45.8	-58.3	3.7	1.45e+00	0	32	104	0	60	29595
2026-01-09 02:55:23.90	232.70	3.87	-45.8	-58.0	3.9	1.47e+00	0	32	104	0	60	28782
2026-01-09 02:55:24.91	232.81	3.92	-45.9	-58.2	3.8	1.47e+00	0	32	104	0	60	29539
2026-01-09 02:55:25.92	232.91	3.97	-45.9	-58.2	3.9	1.49e+00	0	32	104	0	60	29394
2026-01-09 02:55:26.93	233.02	4.02	-45.9	-58.2	3.8	1.47e+00	0	32	104	0	60	29269
2026-01-09 02:55:27.93	233.12	4.07	-46.0	-57.0	3.7	1.45e+00	0	32	0	0	60	25707
2026-01-09 02:55:28.94	233.22	4.12	-45.9	-58.3	3.9	1.45e+00	0	33	104	0	60	29636
2026-01-09 02:55:29.95	233.33	4.17	-46.0	-58.1	3.9	1.48e+00	0	32	104	0	60	28937
2026-01-09 02:55:30.96	233.44	4.22	-46.0	-58.0	3.9	1.47e+00	0	32	104	0	60	28729
2026-01-09 02:55:31.97	233.54	4.27	-46.0	-58.1	3.7	1.44e+00	0	33	104	0	60	28919
2026-01-09 02:55:32.98	233.65	4.32	-46.0	-57.9	3.8	1.42e+00	0	32	0	0	60	28236
2026-01-09 02:55:33.99	233.76	4.37	-46.0	-58.2	3.9	1.48e+00	0	32	104	0	60	29369
2026-01-09 02:55:35.00	233.86	4.41	-46.0	-58.3	3.7	1.48e+00	0	32	104	0	60	29878
2026-01-09 02:55:36.00	233.97	4.46	-46.1	-56.7	3.9	1.41e+00	0	33	0	0	60	24847
2026-01-09 02:55:37.01	234.08	4.51	-46.1	-56.2	4.0	1.35e+00	86	33	0	1048576	60	23284
2026-01-09 02:55:38.02	234.18	4.56	-46.1	-56.1	4.0	1.25e+00	59	33	0	2097152	60	22990
2026-01-09 02:55:39.03	234.29	4.61	-46.1	-56.1	4.0	1.23e+00	59	33	0	4194304	60	23014
2026-01-09 02:55:40.04	234.40	4.66	-46.2	-55.9	4.1	1.08e+00	6	32	0	6291456	60	22661
2026-01-09 02:55:41.05	234.51	4.71	-46.1	-55.8	4.1	1.08e+00	2	33	0	8388608	60	22188
2026-01-09 02:55:42.06	234.62	4.76	-46.1	-55.8	4.1	1.08e+00	2	33	0	9437184	60	22398
2026-01-09 02:55:43.07	234.73	4.81	-46.1	-55.9	4.2	1.06e+00	5	33	0	11534336	60	22585
2026-01-09 02:55:44.08	234.84	4.86	-46.1	-55.7	4.3	1.06e+00	0	33	0	13631488	60	22146
2026-01-09 02:55:45.08	234.95	4.91	-46.2	-55.7	4.2	9.16e-01	0	33	0	15728640	60	22042
2026-01-09 02:55:46.09	235.06	4.96	-46.2	-55.7	4.3	9.38e-01	0	32	0	17825792	60	21938
2026-01-09 02:55:47.10	235.17	5.01	-46.2	-55.6	4.4	8.90e-01	0	33	0	18874368	60	21692
2026-01-09 02:55:48.11	235.29	5.06	-46.2	-55.5	4.4	8.51e-01	0	33	0	20971520	60	21540
2026-01-09 02:55:49.11	235.40	5.11	-46.2	-55.4	4.4	8.52e-01	0	33	0	23068672	60	21403
2026-01-09 02:55:50.12	235.51	5.16	-46.2	-55.4	4.5	7.91e-01	0	33	0	25165824	60	21196
2026-01-09 02:55:51.13	235.62	5.21	-46.2	-55.2	4.6	7.59e-01	0	33	0	27262976	60	20834
2026-01-09 02:55:52.14	235.74	5.26	-46.2	-55.1	4.7	7.27e-01	0	33	0	28311552	60	20451
2026-01-09 02:55:53.15	235.85	5.31	-46.2	-55.0	4.7	6.95e-01	0	33	0	30408704	60	20425
2026-01-09 02:55:54.16	235.96	5.36	-46.3	-54.9	4.9	6.33e-01	0	33	0	32505856	60	20023
2026-01-09 02:55:55.17	236.08	5.41	-46.2	-54.6	5.1	5.74e-01	0	33	0	34603008	60	19516
2026-01-09 02:55:56.17	236.19	5.46	-46.3	-54.7	5.1	5.42e-01	0	33	0	36700160	60	19614
2026-01-09 02:55:57.18	236.31	5.51	-46.2	-54.6	5.1	5.39e-01	0	33	0	37748736	60	19456
2026-01-09 02:55:58.19	236.42	5.56	-46.2	-54.2	5.4	4.51e-01	0	33	0	39845888	60	18595
2026-01-09 02:55:59.20	236.54	5.61	-46.2	-54.2	5.5	4.04e-01	0	33	0	41943040	60	18579
2026-01-09 02:56:00.21	236.65	5.65	-46.2	-54.1	5.7	4.09e-01	0	33	0	44040192	60	18309
2026-01-09 02:56:01.22	236.77	5.70	-46.2	-53.9	5.9	3.21e-01	0	33	0	46137344	60	17962
2026-01-09 02:56:02.23	236.89	5.75	-46.1	-53.7	6.1	2.80e-01	0	33	0	47185920	60	17546
2026-01-09 02:56:03.24	237.01	5.80	-46.1	-53.6	6.4	2.48e-01	0	33	0	49283072	60	17224
2026-01-09 02:56:04.25	237.12	5.85	-46.1	-53.5	6.5	2.23e-01	0	33	0	51380224	60	17059
2026-01-09 02:56:05.26	237.24	5.90	-46.0	-53.1	6.9	1.76e-01	0	33	0	53477376	60	16280
2026-01-09 02:56:06.27	237.36	5.95	-46.0	-52.9	7.1	1.50e-01	0	33	0	55574528	60	15914
2026-01-09 02:56:07.27	237.48	6.00	-46.0	-52.7	7.3	1.19e-01	0	33	0	57671680	60	15599
2026-01-09 02:56:08.28	237.60	6.05	-45.9	-52.6	7.5	1.04e-01	0	33	0	58720256	60	15428
2026-01-09 02:56:09.29	237.72	6.10	-45.9	-52.4	7.7	1.02e-01	0	33	0	60817408	60	15136
2026-01-09 02:56:10.30	237.84	6.15	-45.8	-52.1	8.1	6.19e-02	0	33	0	62914560	60	14500
2026-01-09 02:56:11.31	237.96	6.20	-45.7	-51.9	8.4	4.40e-02	0	33	0	65011712	60	14148
2026-01-09 02:56:12.32	238.08	6.25	-45.6	-51.5	8.7	3.56e-02	0	33	0	67108864	60	13621
2026-01-09 02:56:13.33	238.20	6.30	-45.6	-51.4	8.9	2.96e-02	0	33	0	68157440	60	13505
2026-01-09 02:56:14.34	238.32	6.35	-45.4	-51.0	9.4	1.95e-02	0	33	0	70254592	60	12798
2026-01-09 02:56:15.35	238.44	6.40	-45.3	-50.5	10.0	1.09e-02	0	33	0	72351744	60	12077
2026-01-09 02:56:16.36	238.57	6.45	-45.1	-50.1	10.4	6.61e-03	0	33	0	74448896	60	11567
2026-01-09 02:56:17.37	238.69	6.50	-45.2	-50.1	10.5	4.33e-03	0	33	0	76546048	60	11550
2026-01-09 02:56:18.38	238.81	6.55	-45.0	-49.6	11.0	3.72e-03	0	33	0	77594624	60	10952
2026-01-09 02:56:19.39	238.94	6.60	-44.7	-49.0	11.7	1.07e-03	0	33	0	79691776	60	10208
2026-01-09 02:56:20.40	239.06	6.65	-44.7	-48.9	11.9	4.19e-04	0	33	0	81788928	60	10016
2026-01-09 02:56:21.41	239.19	6.70	-44.7	-48.9	11.8	3.06e-04	0	33	0	83886080	60	10081
2026-01-09 02:56:22.42	239.31	6.75	-44.6	-48.5	12.3	2.53e-04	0	33	0	85983232	60	9606
2026-01-09 02:56:23.43	239.44	6.80	-44.5	-48.3	12.5	1.92e-04	0	33	0	87031808	60	9426
2026-01-09 02:56:24.44	239.56	6.84	-44.2	-47.7	13.2	3.73e-05	0	33	0	89128960	60	8798
2026-01-09 02:56:25.45	239.69	6.89	-44.2	-47.7	13.3	1.90e-05	0	33	0	91226112	60	8723
2026-01-09 02:56:26.46	239.81	6.94	-43.9	-47.2	13.7	9.10e-06	0	33	0	93323264	60	8278
2026-01-09 02:56:27.47	239.94	6.99	-43.9	-47.3	13.6	9.10e-06	0	33	0	95420416	60	8346
2026-01-09 02:56:28.48	240.07	7.04	-43.8	-46.9	14.0	6.10e-06	0	33	0	96468992	60	8037
2026-01-09 02:56:29.49	240.20	7.09	-43.7	-46.9	14.1	2.20e-06	0	33	0	98566144	60	7958
2026-01-09 02:56:30.50	240.33	7.14	-43.6	-46.6	14.3	0.00e+00	0	33	0	100663296	60	7745
2026-01-09 02:56:31.50	240.45	7.19	-43.5	-46.5	14.6	7.00e-07	0	33	0	102760448	60	7600
2026-01-09 02:56:32.51	240.58	7.24	-43.4	-46.2	14.8	7.00e-07	0	33	0	104857600	60	7394
2026-01-09 02:56:33.52	240.71	7.29	-43.3	-46.0	15.0	0.00e+00	0	33	0	105906176	60	7223
2026-01-09 02:56:34.53	240.84	7.34	-43.1	-45.7	15.4	0.00e+00	0	33	0	108003328	60	6969
2026-01-09 02:56:35.54	240.97	7.39	-43.0	-45.5	15.6	0.00e+00	0	33	0	110100480	60	6835
2026-01-09 02:56:36.55	241.10	7.44	-43.0	-45.6	15.5	0.00e+00	0	33	0	112197632	60	6921
2026-01-09 02:56:37.56	241.23	7.48	-42.5	-44.8	16.3	0.00e+00	0	33	0	114294784	58	7064
2026-01-09 02:56:38.57	241.37	7.53	-42.4	-44.6	16.4	0.00e+00	0	33	0	115343360	58	6913
2026-01-09 02:56:39.58	241.50	7.58	-42.5	-44.8	16.2	0.00e+00	0	33	0	117440512	58	7063
2026-01-09 02:56:40.59	241.63	7.63	-42.5	-44.8	16.3	0.00e+00	0	33	0	119537664	58	7033
2026-01-09 02:56:41.60	241.76	7.68	-42.1	-44.3	16.8	0.00e+00	0	33	0	121634816	58	6630
2026-01-09 02:56:42.60	241.89	7.73	-42.2	-44.3	16.7	0.00e+00	0	33	0	123731968	58	6680
2026-01-09 02:56:43.61	242.03	7.78	-42.0	-44.1	17.0	0.00e+00	0	33	0	125829120	58	6500
2026-01-09 02:56:44.62	242.16	7.83	-41.7	-43.7	17.4	0.00e+00	0	33	0	126877696	58	6195
2026-01-09 02:56:45.63	242.30	7.88	-41.6	-43.5	17.5	0.00e+00	0	33	0	128974848	56	6801
2026-01-09 02:56:46.64	242.43	7.92	-41.4	-43.3	17.7	0.00e+00	0	33	0	131072000	56	6643
2026-01-09 02:56:47.65	242.57	7.97	-41.3	-43.1	18.0	0.00e+00	0	33	0	133169152	56	6502
2026-01-09 02:56:48.66	242.70	8.02	-41.2	-43.0	17.9	0.00e+00	0	33	0	135266304	56	6435
2026-01-09 02:56:49.67	242.84	8.07	-41.0	-42.7	18.4	0.00e+00	0	33	0	136314880	56	6199
2026-01-09 02:56:50.68	242.98	8.12	-41.0	-42.6	18.3	0.00e+00	0	33	0	138412032	56	6168
2026-01-09 02:56:51.70	243.12	8.17	-40.8	-42.4	18.6	0.00e+00	0	33	0	140509184	56	6028
2026-01-09 02:56:52.71	243.25	8.22	-40.8	-42.4	18.6	0.00e+00	0	33	0	142606336	56	6013
2026-01-09 02:56:53.71	243.39	8.26	-40.3	-41.9	19.1	0.00e+00	0	33	0	144703488	54	6325
2026-01-09 02:56:54.72	243.53	8.31	-40.2	-41.7	19.2	0.00e+00	0	33	0	145752064	54	6181
2026-01-09 02:56:55.73	243.67	8.36	-40.0	-41.5	19.5	0.00e+00	0	33	0	147849216	54	6040
2026-01-09 02:56:56.74	243.81	8.41	-39.7	-41.0	19.9	0.00e+00	0	33	0	149946368	54	5758
2026-01-09 02:56:57.75	243.95	8.46	-39.6	-40.9	20.0	0.00e+00	0	33	0	152043520	52	6381
2026-01-09 02:56:58.76	244.09	8.51	-39.3	-40.6	20.3	0.00e+00	0	33	0	154140672	52	6128
2026-01-09 02:56:59.77	244.23	8.55	-39.3	-40.6	20.4	0.00e+00	0	33	0	155189248	52	6116
2026-01-09 02:57:00.77	244.37	8.60	-39.1	-40.3	20.7	0.00e+00	0	33	0	157286400	52	5915
2026-01-09 02:57:01.78	244.51	8.65	-39.0	-40.3	20.7	0.00e+00	0	33	0	159383552	52	5900
2026-01-09 02:57:02.78	244.65	8.70	-38.9	-40.1	20.9	0.00e+00	0	33	0	161480704	52	5783
2026-01-09 02:57:03.79	244.79	8.75	-38.6	-39.8	21.1	0.00e+00	0	33	0	163577856	50	6282
2026-01-09 02:57:04.80	244.94	8.79	-38.6	-39.8	21.2	0.00e+00	0	33	0	164626432	50	6272
2026-01-09 02:57:05.81	245.08	8.84	-38.5	-39.7	21.3	0.00e+00	0	33	0	166723584	50	6207
2026-01-09 02:57:06.82	245.22	8.89	-38.3	-39.5	21.4	0.00e+00	0	33	0	168820736	50	6043
2026-01-09 02:57:07.83	245.37	8.94	-38.1	-39.2	21.7	0.00e+00	0	33	0	170917888	50	5880
2026-01-09 02:57:08.83	245.51	8.98	-38.0	-39.0	21.9	0.00e+00	0	33	0	173015040	50	5758
2026-01-09 02:57:09.84	245.66	9.03	-37.7	-38.7	22.1	0.00e+00	0	33	0	174063616	48	6203
2026-01-09 02:57:10.85	245.80	9.08	-37.5	-38.5	22.3	0.00e+00	0	33	0	176160768	48	6085
2026-01-09 02:57:11.86	245.95	9.13	-37.2	-38.2	22.5	0.00e+00	0	33	0	178257920	48	5876
2026-01-09 02:57:12.87	246.10	9.17	-37.2	-38.2	22.6	0.00e+00	0	33	0	180355072	48	5858
2026-01-09 02:57:13.88	246.24	9.22	-37.1	-38.1	22.6	0.00e+00	0	33	0	182452224	48	5796
2026-01-09 02:57:14.89	246.39	9.27	-37.2	-38.2	22.6	0.00e+00	0	33	0	183500800	48	5844
2026-01-09 02:57:15.89	246.54	9.31	-37.3	-38.2	22.6	0.00e+00	0	33	0	185597952	48	5896
2026-01-09 02:57:16.90	246.69	9.36	-37.3	-38.3	22.5	0.00e+00	0	33	0	187695104	48	5910
2026-01-09 02:57:17.91	246.84	9.41	-37.4	-38.4	22.5	0.00e+00	0	33	0	189792256	48	5996
2026-01-09 02:57:18.92	246.98	9.46	-37.4	-38.4	22.5	0.00e+00	0	33	0	191889408	48	6019
2026-01-09 02:57:19.92	247.13	9.50	-37.5	-38.5	22.1	0.00e+00	0	33	0	192937984	48	6039
2026-01-09 02:57:20.93	247.28	9.55	-37.5	-38.5	22.4	0.00e+00	0	33	0	195035136	48	6066
2026-01-09 02:57:21.94	247.43	9.60	-37.5	-38.5	22.4	0.00e+00	0	33	0	197132288	48	6050
2026-01-09 02:57:22.95	247.59	9.64	-37.2	-38.1	22.7	0.00e+00	0	33	0	199229440	48	5819
2026-01-09 02:57:23.96	247.74	9.69	-37.3	-38.2	22.7	0.00e+00	0	33	0	201326592	48	5896
2026-01-09 02:57:24.97	247.89	9.73	-37.2	-38.2	22.6	0.00e+00	0	33	0	202375168	48	5849
2026-01-09 02:57:25.98	248.04	9.78	-37.0	-38.0	22.8	0.00e+00	0	33	0	204472320	48	5721
2026-01-09 02:57:26.99	248.20	9.83	-37.1	-38.1	22.8	0.00e+00	0	33	0	206569472	48	5786
2026-01-09 02:57:28.00	248.35	9.87	-37.0	-37.9	22.9	0.00e+00	0	33	0	208666624	48	5687
2026-01-09 02:57:29.01	248.50	9.92	-37.0	-38.0	22.9	0.00e+00	0	33	0	210763776	48	5722
2026-01-09 02:57:30.02	248.66	9.96	-37.2	-38.1	22.7	0.00e+00	0	33	0	211812352	48	5808
2026-01-09 02:57:31.03	248.81	10.01	-37.1	-38.1	22.8	0.00e+00	0	33	0	213909504	48	5791
2026-01-09 02:57:32.04	248.97	10.06	-37.4	-38.4	22.5	0.00e+00	0	33	0	216006656	48	5968
2026-01-09 02:57:33.05	249.12	10.10	-37.3	-38.3	22.6	0.00e+00	0	33	0	218103808	48	5925
2026-01-09 02:57:34.06	249.28	10.15	-37.3	-38.3	22.7	0.00e+00	0	33	0	220200960	48	5923
2026-01-09 02:57:35.07	249.44	10.19	-37.3	-38.2	22.6	0.00e+00	0	33	0	222298112	48	5885
2026-01-09 02:57:36.08	249.60	10.24	-37.4	-38.4	22.5	0.00e+00	0	33	0	223346688	48	6008
2026-01-09 02:57:37.09	249.75	10.28	-37.0	-37.9	22.9	0.00e+00	0	33	0	225443840	48	5686
2026-01-09 02:57:38.10	249.91	10.33	-37.2	-38.1	22.7	0.00e+00	0	33	0	227540992	48	5810
2026-01-09 02:57:39.11	250.07	10.37	-37.1	-38.1	22.8	0.00e+00	0	33	0	229638144	48	5777
2026-01-09 02:57:40.12	250.23	10.42	-37.0	-38.0	22.9	0.00e+00	0	33	0	231735296	48	5716
2026-01-09 02:57:41.13	250.39	10.46	-37.2	-38.1	22.7	0.00e+00	0	33	0	232783872	48	5810
2026-01-09 02:57:42.13	250.55	10.51	-37.2	-38.1	22.8	0.00e+00	0	33	0	234881024	48	5799
2026-01-09 02:57:43.14	250.71	10.55	-37.1	-38.1	22.9	0.00e+00	0	33	0	236978176	48	5772
2026-01-09 02:57:44.15	250.87	10.60	-37.2	-38.1	22.8	0.00e+00	0	33	0	239075328	48	5824
2026-01-09 02:57:45.16	251.03	10.64	-37.2	-38.1	22.8	0.00e+00	0	33	0	241172480	48	5806
2026-01-09 02:57:46.17	251.19	10.68	-37.0	-37.9	22.9	0.00e+00	0	33	0	242221056	48	5679
2026-01-09 02:57:47.18	251.36	10.73	-36.9	-37.9	23.1	0.00e+00	0	33	0	244318208	48	5638
2026-01-09 02:57:48.19	251.52	10.77	-37.2	-38.2	22.8	0.00e+00	0	33	0	246415360	48	5840
2026-01-09 02:57:49.20	251.68	10.82	-37.1	-38.0	22.9	0.00e+00	0	33	0	248512512	48	5725
2026-01-09 02:57:50.21	251.85	10.86	-37.1	-38.0	22.9	0.00e+00	0	33	0	250609664	48	5721
2026-01-09 02:57:51.22	252.01	10.90	-37.2	-38.1	22.8	0.00e+00	0	33	0	251658240	48	5796
2026-01-09 02:57:52.23	252.18	10.95	-37.3	-38.2	22.8	0.00e+00	0	33	0	253755392	48	5887
2026-01-09 02:57:53.24	252.34	10.99	-37.4	-38.3	22.6	0.00e+00	0	33	0	255852544	48	5953
2026-01-09 02:57:54.25	252.51	11.03	-37.5	-38.5	22.5	0.00e+00	0	33	0	257949696	48	6057
2026-01-09 02:57:55.26	252.67	11.08	-37.5	-38.5	22.5	0.00e+00	0	33	0	260046848	48	6093
2026-01-09 02:57:56.27	252.84	11.12	-37.5	-38.5	22.5	0.00e+00	0	33	0	261095424	48	6083
2026-01-09 02:57:57.28	253.01	11.16	-37.4	-38.4	22.6	0.00e+00	0	33	0	263192576	48	6004
2026-01-09 02:57:58.29	253.18	11.20	-37.4	-38.4	22.6	0.00e+00	0	33	0	265289728	48	5994
2026-01-09 02:57:59.30	253.34	11.25	-37.3	-38.3	22.5	0.00e+00	0	33	0	267386880	48	5932
2026-01-09 02:58:00.31	253.51	11.29	-37.2	-38.2	22.8	0.00e+00	0	33	0	269484032	48	5862
2026-01-09 02:58:01.31	253.68	11.33	-37.2	-38.2	22.8	0.00e+00	0	33	0	270532608	48	5840
2026-01-09 02:58:02.32	253.85	11.37	-37.4	-38.4	22.5	0.00e+00	0	33	0	272629760	48	5995
2026-01-09 02:58:03.33	254.02	11.41	-37.5	-38.5	22.5	0.00e+00	0	33	0	274726912	48	6051
2026-01-09 02:58:04.34	254.19	11.46	-37.7	-38.7	22.5	0.00e+00	0	33	0	276824064	48	6222
2026-01-09 02:58:05.35	254.36	11.50	-37.7	-38.7	22.4	0.00e+00	0	33	0	278921216	48	6228
2026-01-09 02:58:06.36	254.53	11.54	-37.8	-38.8	22.2	0.00e+00	0	33	0	279969792	48	6304
2026-01-09 02:58:07.37	254.71	11.58	-37.8	-38.8	22.2	0.00e+00	0	33	0	282066944	48	6283
2026-01-09 02:58:08.38	254.88	11.62	-37.7	-38.7	22.3	0.00e+00	0	33	0	284164096	48	6227
2026-01-09 02:58:09.38	255.05	11.66	-37.6	-38.6	22.5	0.00e+00	0	33	0	286261248	48	6129
2026-01-09 02:58:10.39	255.22	11.70	-37.6	-38.6	22.4	0.00e+00	0	33	0	288358400	48	6139
2026-01-09 02:58:11.40	255.40	11.74	-37.6	-38.6	22.4	0.00e+00	0	33	0	290455552	48	6134
2026-01-09 02:58:12.41	255.57	11.78	-37.6	-38.6	22.5	0.00e+00	0	33	0	291504128	48	6105
2026-01-09 02:58:13.42	255.75	11.82	-37.7	-38.7	22.3	0.00e+00	0	33	0	293601280	48	6211
2026-01-09 02:58:14.43	255.92	11.86	-37.8	-38.8	22.3	0.00e+00	0	33	0	295698432	48	6251
2026-01-09 02:58:15.44	256.10	11.90	-37.7	-38.7	22.3	0.00e+00	0	33	0	297795584	48	6223
2026-01-09 02:58:16.45	256.27	11.94	-37.8	-38.8	22.3	0.00e+00	0	33	0	298844160	48	6304
2026-01-09 02:58:17.46	256.45	11.98	-37.9	-38.9	22.2	0.00e+00	0	33	0	300941312	48	6332
2026-01-09 02:58:18.47	256.63	12.02	-38.0	-39.0	22.1	0.00e+00	0	33	0	303038464	48	6424
2026-01-09 02:58:19.48	256.80	12.06	-38.1	-39.1	22.0	0.00e+00	0	33	0	305135616	48	6530
2026-01-09 02:58:20.49	256.98	12.10	-38.2	-39.2	22.0	0.00e+00	0	33	0	307232768	48	6614
2026-01-09 02:58:21.50	257.16	12.14	-38.3	-39.4	21.7	0.00e+00	0	33	0	308281344	48	6695
2026-01-09 02:58:22.51	257.34	12.18	-38.4	-39.5	21.8	0.00e+00	0	33	0	310378496	48	6786
2026-01-09 02:58:23.52	257.52	12.21	-38.4	-39.4	21.7	0.00e+00	0	33	0	312475648	48	6769
2026-01-09 02:58:24.52	257.70	12.25	-38.3	-39.3	21.8	0.00e+00	0	33	0	314572800	48	6669
2026-01-09 02:58:25.53	257.88	12.29	-38.4	-39.5	21.8	0.00e+00	0	33	0	316669952	48	6800
2026-01-09 02:58:26.54	258.06	12.33	-38.4	-39.5	21.7	0.00e+00	0	33	0	318767104	48	6806
2026-01-09 02:58:27.55	258.24	12.37	-38.6	-39.7	21.6	0.00e+00	0	33	0	319815680	48	6928
2026-01-09 02:58:28.56	258.42	12.40	-38.5	-39.6	21.7	0.00e+00	0	33	0	321912832	48	6874
2026-01-09 02:58:29.57	258.60	12.44	-38.6	-39.7	21.6	0.00e+00	0	33	0	324009984	48	6964
2026-01-09 02:58:30.58	258.78	12.48	-38.8	-39.9	21.4	0.00e+00	0	33	0	326107136	50	6341
2026-01-09 02:58:31.59	258.97	12.51	-38.8	-40.0	21.3	0.00e+00	0	33	0	328204288	50	6404
2026-01-09 02:58:32.60	259.15	12.55	-38.9	-40.0	21.2	0.00e+00	0	33	0	329252864	50	6426
2026-01-09 02:58:33.61	259.33	12.59	-39.1	-40.2	21.1	0.00e+00	0	33	0	331350016	50	6595
2026-01-09 02:58:34.62	259.52	12.62	-39.2	-40.4	21.1	0.00e+00	0	33	0	333447168	50	6701
2026-01-09 02:58:35.63	259.70	12.66	-39.0	-40.1	21.2	0.00e+00	0	33	0	335544320	50	6529
2026-01-09 02:58:36.63	259.89	12.69	-39.1	-40.3	21.1	0.00e+00	0	33	0	337641472	50	6622
2026-01-09 02:58:37.64	260.07	12.73	-38.9	-40.0	21.2	0.00e+00	0	33	0	338690048	50	6460
2026-01-09 02:58:38.65	260.26	12.77	-38.9	-40.0	21.3	0.00e+00	0	33	0	340787200	50	6457
2026-01-09 02:58:39.66	260.44	12.80	-38.9	-40.1	21.4	0.00e+00	0	33	0	342884352	50	6479
2026-01-09 02:58:40.67	260.63	12.84	-38.9	-40.0	21.3	0.00e+00	0	33	0	344981504	50	6455
2026-01-09 02:58:41.68	260.82	12.87	-39.0	-40.2	21.2	0.00e+00	0	33	0	347078656	50	6585
2026-01-09 02:58:42.69	261.00	12.90	-39.3	-40.5	21.0	0.00e+00	0	33	0	348127232	50	6783
2026-01-09 02:58:43.69	261.19	12.94	-39.1	-40.3	21.1	0.00e+00	0	33	0	350224384	50	6630
2026-01-09 02:58:44.70	261.38	12.97	-39.1	-40.3	21.1	0.00e+00	0	33	0	352321536	50	6619
2026-01-09 02:58:45.71	261.57	13.01	-39.0	-40.1	21.2	0.00e+00	0	33	0	354418688	50	6524
2026-01-09 02:58:46.72	261.76	13.04	-38.9	-40.1	21.2	0.00e+00	0	33	0	356515840	50	6486
2026-01-09 02:58:47.73	261.95	13.07	-39.0	-40.2	21.2	0.00e+00	0	33	0	357564416	50	6558
2026-01-09 02:58:48.74	262.14	13.10	-38.8	-39.9	21.4	0.00e+00	0	33	0	359661568	50	6380
2026-01-09 02:58:49.75	262.33	13.14	-39.0	-40.1	21.3	0.00e+00	0	33	0	361758720	50	6488
2026-01-09 02:58:50.76	262.52	13.17	-39.1	-40.3	21.0	0.00e+00	0	33	0	363855872	50	6667
2026-01-09 02:58:51.77	262.71	13.20	-38.9	-40.0	21.3	0.00e+00	0	33	0	365953024	50	6455
2026-01-09 02:58:52.78	262.90	13.23	-39.2	-40.4	21.0	0.00e+00	0	33	0	367001600	50	6737
2026-01-09 02:58:53.79	263.09	13.27	-39.2	-40.4	21.0	0.00e+00	0	33	0	369098752	50	6736
2026-01-09 02:58:54.79	263.28	13.30	-39.2	-40.4	21.0	0.00e+00	0	33	0	371195904	50	6720
2026-01-09 02:58:55.80	263.48	13.33	-39.1	-40.3	21.1	0.00e+00	0	33	0	373293056	50	6633
2026-01-09 02:58:56.81	263.67	13.36	-39.0	-40.1	21.1	0.00e+00	0	32	0	375390208	50	6523
2026-01-09 02:58:57.82	263.86	13.39	-38.9	-40.1	21.3	0.00e+00	0	33	0	376438784	50	6467
2026-01-09 02:58:58.83	264.06	13.42	-39.0	-40.1	21.3	0.00e+00	0	33	0	378535936	50	6482
2026-01-09 02:58:59.84	264.25	13.45	-38.9	-40.0	21.4	0.00e+00	0	33	0	380633088	50	6404
2026-01-09 02:59:00.85	264.45	13.48	-38.8	-40.0	21.3	0.00e+00	0	33	0	382730240	50	6400
2026-01-09 02:59:01.85	264.64	13.51	-39.0	-40.1	21.5	0.00e+00	0	33	0	384827392	52	5787
2026-01-09 02:59:02.86	264.84	13.54	-39.0	-40.2	21.1	0.00e+00	0	33	0	386924544	52	5839
2026-01-09 02:59:03.87	265.03	13.57	-38.9	-40.0	21.4	0.00e+00	0	33	0	387973120	50	6415
2026-01-09 02:59:04.88	265.23	13.60	-38.6	-39.7	21.7	0.00e+00	0	33	0	390070272	50	6238
2026-01-09 02:59:05.89	265.43	13.63	-38.4	-39.5	21.9	0.00e+00	0	33	0	392167424	50	6065
2026-01-09 02:59:06.90	265.62	13.65	-38.4	-39.5	21.8	0.00e+00	0	33	0	394264576	50	6068
2026-01-09 02:59:07.91	265.82	13.68	-37.4	-38.4	22.6	0.00e+00	0	33	0	396361728	48	6015
2026-01-09 02:59:08.92	266.02	13.71	-37.4	-38.3	22.8	0.00e+00	0	33	0	397410304	48	5935
2026-01-09 02:59:09.93	266.22	13.74	-37.3	-38.3	22.8	0.00e+00	0	33	0	399507456	48	5920
2026-01-09 02:59:10.94	266.41	13.76	-37.2	-38.1	22.9	0.00e+00	0	33	0	401604608	48	5799
2026-01-09 02:59:11.95	266.61	13.79	-37.3	-38.3	22.7	0.00e+00	0	33	0	403701760	48	5924
2026-01-09 02:59:12.96	266.81	13.82	-37.3	-38.2	22.8	0.00e+00	0	33	0	405798912	48	5875
2026-01-09 02:59:13.97	267.01	13.84	-37.1	-38.1	22.9	0.00e+00	0	33	0	406847488	48	5788
2026-01-09 02:59:14.98	267.21	13.87	-37.2	-38.2	22.7	0.00e+00	0	33	0	408944640	48	5853
2026-01-09 02:59:15.98	267.41	13.90	-37.5	-38.5	22.5	0.00e+00	0	33	0	411041792	48	6047
2026-01-09 02:59:16.99	267.61	13.92	-37.8	-38.8	22.4	0.00e+00	0	33	0	413138944	48	6279
2026-01-09 02:59:18.00	267.81	13.95	-37.9	-38.9	22.4	0.00e+00	0	33	0	415236096	48	6340
2026-01-09 02:59:19.01	268.01	13.97	-37.6	-38.6	22.5	0.00e+00	0	33	0	416284672	48	6134
2026-01-09 02:59:20.02	268.21	14.00	-37.4	-38.4	22.7	0.00e+00	0	33	0	418381824	48	5986
2026-01-09 02:59:21.03	268.42	14.02	-37.3	-38.2	22.9	0.00e+00	0	33	0	420478976	48	5864
2026-01-09 02:59:22.04	268.62	14.04	-36.9	-37.8	23.2	0.00e+00	0	33	0	422576128	48	5590
2026-01-09 02:59:23.05	268.82	14.07	-36.7	-37.6	23.4	0.00e+00	0	33	0	424673280	46	6106
2026-01-09 02:59:24.06	269.02	14.09	-36.6	-37.5	23.3	0.00e+00	0	33	0	425721856	46	6101
2026-01-09 02:59:25.07	269.23	14.11	-36.9	-37.8	23.2	0.00e+00	0	33	0	427819008	46	6275
2026-01-09 02:59:26.08	269.43	14.14	-37.1	-38.0	23.0	0.00e+00	0	33	0	429916160	46	6447
2026-01-09 02:59:27.09	269.63	14.16	-37.5	-38.5	22.5	0.00e+00	0	33	0	432013312	46	6776
2026-01-09 02:59:28.10	269.84	14.18	-37.6	-38.6	22.5	0.00e+00	0	33	0	434110464	46	6911
2026-01-09 02:59:29.10	270.04	14.20	-37.5	-38.5	22.7	0.00e+00	0	33	0	435159040	46	6770
2026-01-09 02:59:30.11	270.24	14.22	-37.2	-38.2	22.7	0.00e+00	0	33	0	437256192	46	6561
2026-01-09 02:59:31.12	270.45	14.24	-37.1	-38.1	23.0	0.00e+00	0	33	0	439353344	46	6470
2026-01-09 02:59:32.13	270.65	14.27	-37.1	-38.0	22.9	0.00e+00	0	33	0	441450496	46	6416
2026-01-09 02:59:33.14	270.86	14.29	-37.1	-38.0	23.0	0.00e+00	0	33	0	443547648	46	6464
2026-01-09 02:59:34.15	271.07	14.31	-37.8	-38.8	22.5	0.00e+00	0	33	0	444596224	46	7022
2026-01-09 02:59:35.16	271.27	14.33	-37.9	-38.9	22.3	0.00e+00	0	33	0	446693376	48	6331
2026-01-09 02:59:36.17	271.48	14.34	-38.3	-39.4	21.8	0.00e+00	0	33	0	448790528	48	6714
2026-01-09 02:59:37.18	271.68	14.36	-38.5	-39.6	21.9	0.00e+00	0	33	0	450887680	48	6863
2026-01-09 02:59:38.19	271.89	14.38	-38.3	-39.4	22.0	0.00e+00	0	33	0	452984832	48	6699
2026-01-09 02:59:39.20	272.10	14.40	-37.9	-38.9	22.4	0.00e+00	0	33	0	454033408	48	6329
2026-01-09 02:59:40.21	272.30	14.42	-37.5	-38.4	22.6	0.00e+00	0	33	0	456130560	48	6030
2026-01-09 02:59:41.22	272.51	14.44	-37.6	-38.6	22.4	0.00e+00	0	33	0	458227712	48	6155
2026-01-09 02:59:42.23	272.72	14.45	-37.8	-38.8	22.4	0.00e+00	0	33	0	460324864	48	6315
2026-01-09 02:59:43.24	272.93	14.47	-38.5	-39.6	21.7	0.00e+00	0	33	0	462422016	48	6855
2026-01-09 02:59:44.25	273.14	14.49	-38.9	-40.1	21.2	0.00e+00	0	33	0	463470592	50	6486
2026-01-09 02:59:45.26	273.34	14.51	-39.5	-40.8	20.7	0.00e+00	0	33	0	465567744	50	7046
2026-01-09 02:59:46.27	273.55	14.52	-39.6	-40.9	20.6	0.00e+00	0	33	0	467664896	50	7102
2026-01-09 02:59:47.27	273.76	14.54	-39.2	-40.3	21.1	0.00e+00	0	33	0	469762048	50	6682
2026-01-09 02:59:48.28	273.97	14.55	-38.8	-39.9	21.5	0.00e+00	0	33	0	471859200	50	6332
2026-01-09 02:59:49.29	274.18	14.57	-38.3	-39.3	21.9	0.00e+00	0	33	0	472907776	50	5942
2026-01-09 02:59:50.30	274.39	14.58	-37.6	-38.6	22.5	0.00e+00	0	33	0	475004928	48	6147
2026-01-09 02:59:51.31	274.60	14.60	-37.5	-38.5	22.7	0.00e+00	0	33	0	477102080	48	6051
2026-01-09 02:59:52.32	274.81	14.61	-37.5	-38.5	22.5	0.00e+00	0	33	0	479199232	48	6088
2026-01-09 02:59:53.33	275.02	14.62	-37.8	-38.8	22.4	0.00e+00	0	33	0	481296384	48	6268
2026-01-09 02:59:54.33	275.22	14.64	-38.2	-39.3	21.9	0.00e+00	0	33	0	483393536	48	6661
2026-01-09 02:59:55.34	275.43	14.65	-38.5	-39.5	21.8	0.00e+00	0	33	0	484442112	48	6848
2026-01-09 02:59:56.35	275.64	14.66	-37.9	-38.9	22.2	0.00e+00	0	33	0	486539264	48	6390
2026-01-09 02:59:57.36	275.85	14.68	-37.8	-38.8	22.4	0.00e+00	0	33	0	488636416	48	6313
2026-01-09 02:59:58.37	276.07	14.69	-37.8	-38.9	22.5	0.00e+00	0	33	0	490733568	48	6319
2026-01-09 02:59:59.37	276.27	14.70	-37.3	-38.2	22.8	0.00e+00	0	33	0	492830720	48	5896
2026-01-09 03:00:00.39	276.49	14.71	-37.1	-38.1	22.9	0.00e+00	0	33	0	493879296	48	5781
2026-01-09 03:00:01.39	276.70	14.72	-37.2	-38.2	22.8	0.00e+00	0	33	0	495976448	48	5857
2026-01-09 03:00:02.40	276.91	14.73	-37.3	-38.3	22.8	0.00e+00	0	33	0	498073600	48	5929
2026-01-09 03:00:03.41	277.12	14.74	-37.5	-38.5	22.7	0.00e+00	0	33	0	500170752	48	6040
2026-01-09 03:00:04.42	277.33	14.75	-37.5	-38.4	22.7	0.00e+00	0	33	0	502267904	48	6021
2026-01-09 03:00:05.43	277.54	14.76	-37.3	-38.2	22.8	0.00e+00	0	33	0	503316480	48	5881
2026-01-09 03:00:06.44	277.76	14.77	-36.9	-37.8	23.2	0.00e+00	0	33	0	505413632	48	5594
2026-01-09 03:00:07.45	277.97	14.78	-36.7	-37.6	23.3	0.00e+00	0	33	0	507510784	46	6147
2026-01-09 03:00:08.45	278.18	14.79	-36.7	-37.6	23.3	0.00e+00	0	33	0	509607936	46	6144
2026-01-09 03:00:09.46	278.39	14.80	-36.9	-37.8	23.1	0.00e+00	0	33	0	511705088	46	6292
2026-01-09 03:00:10.47	278.60	14.80	-37.1	-38.0	22.9	0.00e+00	0	33	0	512753664	46	6419
2026-01-09 03:00:11.48	278.81	14.81	-37.4	-38.4	22.7	0.00e+00	0	33	0	514850816	46	6724
2026-01-09 03:00:12.49	279.03	14.82	-37.6	-38.6	22.5	0.00e+00	0	33	0	516947968	46	6919
2026-01-09 03:00:13.49	279.24	14.82	-37.6	-38.6	22.5	0.00e+00	0	33	0	519045120	46	6921
2026-01-09 03:00:14.50	279.45	14.83	-37.5	-38.4	22.6	0.00e+00	0	33	0	521142272	46	6756
2026-01-09 03:00:15.51	279.66	14.84	-37.2	-38.1	22.9	0.00e+00	0	33	0	522190848	46	6500
2026-01-09 03:00:16.52	279.88	14.84	-36.9	-37.9	23.1	0.00e+00	0	33	0	524288000	46	6319
2026-01-09 03:00:17.53	280.09	14.85	-36.8	-37.7	23.2	0.00e+00	0	33	0	526385152	46	6221
2026-01-09 03:00:18.54	280.30	14.85	-36.8	-37.7	23.2	0.00e+00	0	33	0	528482304	46	6193
2026-01-09 03:00:19.55	280.52	14.86	-37.2	-38.1	22.9	0.00e+00	0	33	0	530579456	46	6503
2026-01-09 03:00:20.56	280.73	14.86	-37.4	-38.3	22.8	0.00e+00	0	33	0	531628032	46	6687
2026-01-09 03:00:21.57	280.94	14.86	-37.7	-38.7	22.5	0.00e+00	0	33	0	533725184	46	7004
2026-01-09 03:00:22.58	281.16	14.87	-37.7	-38.7	22.4	0.00e+00	0	33	0	535822336	48	6241
2026-01-09 03:00:23.59	281.37	14.87	-37.8	-38.8	22.4	0.00e+00	0	33	0	537919488	48	6292
2026-01-09 03:00:24.60	281.58	14.87	-37.7	-38.7	22.4	0.00e+00	0	33	0	540016640	48	6210
2026-01-09 03:00:25.61	281.80	14.88	-37.6	-38.6	22.6	0.00e+00	0	33	0	541065216	48	6114
2026-01-09 03:00:26.61	282.01	14.88	-37.6	-38.6	22.5	0.00e+00	0	33	0	543162368	48	6158
2026-01-09 03:00:27.62	282.22	14.88	-37.7	-38.7	22.5	0.00e+00	0	33	0	545259520	48	6183
2026-01-09 03:00:28.63	282.43	14.88	-37.6	-38.6	22.6	0.00e+00	0	33	0	547356672	48	6111
2026-01-09 03:00:29.64	282.65	14.88	-37.5	-38.5	22.6	0.00e+00	0	33	0	549453824	48	6082
2026-01-09 03:00:30.65	282.86	14.88	-37.5	-38.5	22.7	0.00e+00	0	33	0	550502400	48	6075
2026-01-09 03:00:31.66	283.07	14.88	-37.4	-38.3	22.8	0.00e+00	0	33	0	552599552	48	5951
2026-01-09 03:00:32.67	283.29	14.88	-37.3	-38.3	22.7	0.00e+00	0	33	0	554696704	48	5915
2026-01-09 03:00:33.68	283.50	14.88	-37.5	-38.5	22.6	0.00e+00	0	33	0	556793856	48	6085
2026-01-09 03:00:34.69	283.71	14.88	-37.6	-38.6	22.6	0.00e+00	0	33	0	558891008	48	6143
2026-01-09 03:00:35.70	283.93	14.88	-37.8	-38.8	22.3	0.00e+00	0	33	0	559939584	48	6284
2026-01-09 03:00:36.71	284.14	14.88	-37.9	-38.9	22.3	0.00e+00	0	33	0	562036736	48	6387
2026-01-09 03:00:37.71	284.35	14.87	-37.8	-38.8	22.4	0.00e+00	0	33	0	564133888	48	6287
2026-01-09 03:00:38.73	284.57	14.87	-37.6	-38.6	22.6	0.00e+00	0	33	0	566231040	48	6138
2026-01-09 03:00:39.73	284.78	14.87	-37.6	-38.6	22.5	0.00e+00	0	33	0	568328192	48	6150
2026-01-09 03:00:40.74	284.99	14.86	-37.2	-38.2	23.0	0.00e+00	0	33	0	569376768	48	5831
2026-01-09 03:00:41.75	285.20	14.86	-36.8	-37.7	23.2	0.00e+00	0	33	0	571473920	48	5544
2026-01-09 03:00:42.76	285.42	14.86	-36.8	-37.7	23.2	0.00e+00	0	33	0	573571072	46	6193
2026-01-09 03:00:43.77	285.63	14.85	-37.2	-38.1	22.9	0.00e+00	0	33	0	575668224	46	6520
2026-01-09 03:00:44.78	285.84	14.85	-37.3	-38.2	22.8	0.00e+00	0	33	0	577765376	46	6592
2026-01-09 03:00:45.79	286.06	14.84	-37.4	-38.4	22.7	0.00e+00	0	33	0	579862528	46	6732
2026-01-09 03:00:46.80	286.27	14.84	-37.4	-38.4	22.8	0.00e+00	0	33	0	580911104	46	6708
2026-01-09 03:00:47.81	286.48	14.83	-37.4	-38.3	22.6	0.00e+00	0	33	0	583008256	46	6688
2026-01-09 03:00:48.82	286.69	14.82	-37.1	-38.0	23.0	0.00e+00	0	33	0	585105408	46	6449
2026-01-09 03:00:49.83	286.91	14.82	-36.8	-37.8	23.1	0.00e+00	0	33	0	587202560	46	6254
2026-01-09 03:00:50.84	287.12	14.81	-36.7	-37.6	23.3	0.00e+00	0	33	0	589299712	46	6128
2026-01-09 03:00:51.84	287.33	14.80	-36.9	-37.8	22.9	0.00e+00	0	33	0	590348288	46	6308
2026-01-09 03:00:52.85	287.54	14.80	-37.0	-37.9	23.0	0.00e+00	0	33	0	592445440	46	6389
2026-01-09 03:00:53.86	287.75	14.79	-37.3	-38.2	22.9	0.00e+00	0	33	0	594542592	46	6612
2026-01-09 03:00:54.87	287.97	14.78	-37.1	-38.0	22.9	0.00e+00	0	33	0	596639744	46	6450
2026-01-09 03:00:55.88	288.18	14.77	-37.0	-37.9	23.0	0.00e+00	0	33	0	598736896	46	6367
2026-01-09 03:00:56.89	288.39	14.76	-36.6	-37.5	23.4	0.00e+00	0	33	0	599785472	46	6078
2026-01-09 03:00:57.90	288.60	14.75	-36.6	-37.5	23.4	0.00e+00	0	33	0	601882624	46	6099
2026-01-09 03:00:58.91	288.81	14.74	-36.4	-37.2	23.5	0.00e+00	0	33	0	603979776	46	5887
2026-01-09 03:00:59.92	289.02	14.73	-36.1	-36.9	23.8	0.00e+00	0	33	0	606076928	46	5665
2026-01-09 03:01:00.92	289.23	14.72	-36.1	-36.9	23.8	0.00e+00	0	32	0	608174080	46	5669
2026-01-09 03:01:01.93	289.44	14.71	-36.1	-37.0	23.8	0.00e+00	0	33	0	609222656	46	5701
2026-01-09 03:01:02.94	289.65	14.70	-36.2	-37.1	23.7	0.00e+00	0	33	0	611319808	46	5807
2026-01-09 03:01:03.95	289.87	14.69	-36.4	-37.3	23.6	0.00e+00	0	33	0	613416960	46	5938
2026-01-09 03:01:04.96	290.08	14.68	-36.5	-37.4	23.3	0.00e+00	0	33	0	615514112	46	6020
2026-01-09 03:01:05.97	290.29	14.66	-36.7	-37.6	23.4	0.00e+00	0	33	0	617611264	46	6141
2026-01-09 03:01:06.98	290.50	14.65	-36.8	-37.7	23.2	0.00e+00	0	33	0	618659840	46	6236
2026-01-09 03:01:07.99	290.71	14.64	-36.9	-37.9	23.2	0.00e+00	0	33	0	620756992	46	6340
2026-01-09 03:01:09.00	290.92	14.62	-36.9	-37.8	23.2	0.00e+00	0	33	0	622854144	46	6285
2026-01-09 03:01:10.01	291.13	14.61	-37.0	-37.9	23.1	0.00e+00	0	33	0	624951296	46	6339
2026-01-09 03:01:11.01	291.33	14.60	-37.0	-37.9	23.1	0.00e+00	0	33	0	627048448	46	6382
2026-01-09 03:01:12.02	291.54	14.58	-36.7	-37.6	23.3	0.00e+00	0	33	0	628097024	46	6159
2026-01-09 03:01:13.03	291.75	14.57	-36.9	-37.8	23.2	0.00e+00	0	33	0	630194176	46	6268
2026-01-09 03:01:14.04	291.96	14.55	-36.9	-37.8	23.1	0.00e+00	0	33	0	632291328	46	6299
2026-01-09 03:01:15.05	292.17	14.54	-36.9	-37.8	23.0	0.00e+00	0	33	0	634388480	46	6272
2026-01-09 03:01:16.06	292.38	14.52	-37.0	-37.9	23.1	0.00e+00	0	33	0	636485632	46	6336
2026-01-09 03:01:17.06	292.58	14.51	-37.0	-38.0	23.1	0.00e+00	0	33	0	637534208	46	6398
2026-01-09 03:01:18.07	292.79	14.49	-37.2	-38.1	22.8	0.00e+00	0	33	0	639631360	46	6517
2026-01-09 03:01:19.08	293.00	14.47	-37.0	-37.9	23.0	0.00e+00	0	33	0	641728512	46	6355
2026-01-09 03:01:20.09	293.21	14.46	-37.3	-38.2	22.8	0.00e+00	0	33	0	643825664	46	6595
2026-01-09 03:01:21.10	293.41	14.44	-37.1	-38.1	23.0	0.00e+00	0	33	0	645922816	46	6471
2026-01-09 03:01:22.11	293.62	14.42	-37.3	-38.3	22.7	0.00e+00	0	33	0	648019968	46	6634
2026-01-09 03:01:23.12	293.83	14.40	-37.2	-38.2	22.9	0.00e+00	0	33	0	649068544	46	6581
2026-01-09 03:01:24.13	294.03	14.38	-37.2	-38.1	22.9	0.00e+00	0	33	0	651165696	46	6511
2026-01-09 03:01:25.14	294.24	14.36	-37.1	-38.1	22.9	0.00e+00	0	33	0	653262848	46	6500
2026-01-09 03:01:26.15	294.45	14.35	-37.0	-37.9	23.2	0.00e+00	0	33	0	655360000	46	6368
2026-01-09 03:01:27.16	294.65	14.33	-36.7	-37.6	23.3	0.00e+00	0	33	0	657457152	46	6123
2026-01-09 03:01:28.17	294.86	14.31	-36.6	-37.5	23.1	0.00e+00	0	33	0	658505728	46	6036
2026-01-09 03:01:29.18	295.06	14.29	-36.6	-37.5	23.4	0.00e+00	0	33	0	660602880	46	6075
2026-01-09 03:01:30.19	295.27	14.27	-36.4	-37.2	23.6	0.00e+00	0	33	0	662700032	46	5892
2026-01-09 03:01:31.20	295.47	14.24	-36.2	-37.1	23.7	0.00e+00	0	33	0	664797184	46	5764
2026-01-09 03:01:32.20	295.67	14.22	-36.2	-37.0	23.7	0.00e+00	0	33	0	666894336	46	5743
2026-01-09 03:01:33.21	295.88	14.20	-35.8	-36.7	24.1	0.00e+00	0	33	0	667942912	46	5528
2026-01-09 03:01:34.22	296.08	14.18	-35.8	-36.7	24.0	0.00e+00	0	33	0	670040064	46	5520
2026-01-09 03:01:35.23	296.28	14.16	-35.7	-36.6	24.1	0.00e+00	0	33	0	672137216	44	6124
2026-01-09 03:01:36.24	296.49	14.14	-35.8	-36.6	24.1	0.00e+00	0	33	0	674234368	44	6168
2026-01-09 03:01:37.25	296.69	14.11	-35.9	-36.7	24.0	0.00e+00	0	33	0	676331520	44	6217
2026-01-09 03:01:38.26	296.89	14.09	-35.8	-36.6	24.0	0.00e+00	0	33	0	677380096	44	6160
2026-01-09 03:01:39.27	297.10	14.07	-35.8	-36.6	24.1	0.00e+00	0	33	0	679477248	44	6160
2026-01-09 03:01:40.28	297.30	14.04	-35.8	-36.6	24.1	0.00e+00	0	33	0	681574400	44	6132
2026-01-09 03:01:41.29	297.50	14.02	-35.6	-36.4	24.0	0.00e+00	0	33	0	683671552	44	5994
2026-01-09 03:01:42.29	297.70	14.00	-35.6	-36.4	24.0	0.00e+00	0	33	0	685768704	44	6000
2026-01-09 03:01:43.30	297.90	13.97	-35.7	-36.5	24.1	0.00e+00	0	33	0	686817280	44	6082
2026-01-09 03:01:44.31	298.10	13.95	-35.7	-36.6	24.1	0.00e+00	0	33	0	688914432	44	6115
2026-01-09 03:01:45.32	298.30	13.92	-36.0	-36.8	23.8	0.00e+00	0	33	0	691011584	44	6293
2026-01-09 03:01:46.33	298.50	13.90	-36.0	-36.9	23.8	0.00e+00	0	33	0	693108736	44	6354
2026-01-09 03:01:47.34	298.70	13.87	-36.2	-37.1	23.7	0.00e+00	0	33	0	695205888	44	6485
2026-01-09 03:01:48.35	298.90	13.85	-36.5	-37.3	23.6	0.00e+00	0	33	0	696254464	44	6688
2026-01-09 03:01:49.36	299.10	13.82	-36.4	-37.2	23.6	0.00e+00	0	33	0	698351616	44	6614
2026-01-09 03:01:50.37	299.30	13.79	-36.5	-37.4	23.4	0.00e+00	0	32	0	700448768	44	6693
2026-01-09 03:01:51.38	299.50	13.77	-36.6	-37.5	23.5	0.00e+00	0	33	0	702545920	44	6798
2026-01-09 03:01:52.39	299.69	13.74	-36.8	-37.7	23.3	0.00e+00	0	32	0	704643072	46	6183
2026-01-09 03:01:53.39	299.89	13.71	-36.9	-37.8	23.1	0.00e+00	0	33	0	705691648	46	6296
2026-01-09 03:01:54.40	300.09	13.69	-36.7	-37.6	23.2	0.00e+00	0	33	0	707788800	46	6169
2026-01-09 03:01:55.41	300.28	13.66	-36.6	-37.5	23.4	0.00e+00	0	33	0	709885952	46	6078
2026-01-09 03:01:56.42	300.48	13.63	-36.3	-37.2	23.6	0.00e+00	0	33	0	711983104	46	5852
2026-01-09 03:01:57.43	300.68	13.60	-36.2	-37.1	23.7	0.00e+00	0	32	0	714080256	46	5766
2026-01-09 03:01:58.44	300.87	13.57	-36.0	-36.9	23.8	0.00e+00	0	33	0	715128832	46	5658
2026-01-09 03:01:59.44	301.06	13.54	-35.9	-36.8	24.0	0.00e+00	0	33	0	717225984	46	5577
2026-01-09 03:02:00.46	301.26	13.51	-35.9	-36.7	24.0	0.00e+00	0	33	0	719323136	46	5562
2026-01-09 03:02:01.46	301.45	13.48	-35.7	-36.5	24.2	0.00e+00	0	33	0	721420288	44	6053
2026-01-09 03:02:02.47	301.65	13.45	-35.6	-36.4	24.2	0.00e+00	0	33	0	723517440	44	6011
2026-01-09 03:02:03.48	301.84	13.42	-35.5	-36.3	24.2	0.00e+00	0	33	0	724566016	44	5919
2026-01-09 03:02:04.49	302.04	13.39	-35.4	-36.2	24.4	0.00e+00	0	33	0	726663168	44	5842
2026-01-09 03:02:05.50	302.23	13.36	-35.3	-36.1	24.4	0.00e+00	0	33	0	728760320	44	5775
2026-01-09 03:02:06.51	302.42	13.33	-35.1	-35.9	24.5	0.00e+00	0	33	0	730857472	44	5695
2026-01-09 03:02:07.52	302.61	13.30	-35.2	-36.0	24.4	0.00e+00	0	33	0	732954624	44	5719
2026-01-09 03:02:08.53	302.81	13.27	-35.3	-36.2	24.3	0.00e+00	0	32	0	734003200	44	5833
2026-01-09 03:02:09.53	303.00	13.24	-35.4	-36.2	24.3	0.00e+00	0	33	0	736100352	44	5844
2026-01-09 03:02:10.54	303.19	13.21	-35.4	-36.2	24.3	0.00e+00	0	33	0	738197504	44	5878
2026-01-09 03:02:11.55	303.38	13.18	-35.5	-36.4	24.2	0.00e+00	0	33	0	740294656	44	5981
2026-01-09 03:02:12.56	303.57	13.14	-35.7	-36.5	24.1	0.00e+00	0	33	0	742391808	44	6060
2026-01-09 03:02:13.57	303.76	13.11	-35.7	-36.5	24.1	0.00e+00	0	33	0	744488960	44	6102
2026-01-09 03:02:14.58	303.95	13.08	-35.9	-36.8	23.9	0.00e+00	0	33	0	745537536	44	6253
2026-01-09 03:02:15.59	304.14	13.05	-35.9	-36.8	23.9	0.00e+00	0	33	0	747634688	44	6283
2026-01-09 03:02:16.60	304.32	13.01	-36.0	-36.9	23.8	0.00e+00	0	33	0	749731840	44	6356
2026-01-09 03:02:17.61	304.51	12.98	-36.2	-37.1	23.6	0.00e+00	0	33	0	751828992	44	6501
2026-01-09 03:02:18.62	304.70	12.95	-36.3	-37.2	23.6	0.00e+00	0	32	0	753926144	44	6563
2026-01-09 03:02:19.63	304.89	12.91	-36.2	-37.1	23.6	0.00e+00	0	33	0	754974720	44	6485
2026-01-09 03:02:20.64	305.07	12.88	-36.0	-36.9	23.8	0.00e+00	0	33	0	757071872	44	6358
2026-01-09 03:02:21.64	305.26	12.84	-35.9	-36.7	23.9	0.00e+00	0	33	0	759169024	44	6236
2026-01-09 03:02:22.65	305.45	12.81	-35.8	-36.7	23.9	0.00e+00	0	33	0	761266176	44	6191
2026-01-09 03:02:23.66	305.63	12.77	-35.9	-36.8	23.8	0.00e+00	0	33	0	763363328	44	6258
2026-01-09 03:02:24.67	305.82	12.74	-35.9	-36.7	23.9	0.00e+00	0	33	0	764411904	44	6236
2026-01-09 03:02:25.68	306.00	12.70	-36.0	-36.9	23.5	0.00e+00	0	33	0	766509056	44	6359
2026-01-09 03:02:26.69	306.19	12.67	-36.1	-37.0	23.5	0.00e+00	0	33	0	768606208	44	6423
2026-01-09 03:02:27.70	306.37	12.63	-36.1	-36.9	23.8	0.00e+00	0	33	0	770703360	44	6371
2026-01-09 03:02:28.71	306.55	12.60	-36.0	-36.9	23.8	0.00e+00	0	33	0	772800512	44	6328
2026-01-09 03:02:29.72	306.74	12.56	-36.2	-37.1	23.4	0.00e+00	0	33	0	773849088	44	6477
2026-01-09 03:02:30.73	306.92	12.52	-36.0	-36.9	23.8	0.00e+00	0	33	0	775946240	44	6340
2026-01-09 03:02:31.74	307.10	12.49	-36.0	-36.9	23.8	0.00e+00	0	33	0	778043392	44	6328
2026-01-09 03:02:32.75	307.28	12.45	-36.0	-36.9	23.8	0.00e+00	0	32	0	780140544	44	6336
2026-01-09 03:02:33.76	307.46	12.41	-36.1	-37.0	23.7	0.00e+00	0	33	0	782237696	44	6407
2026-01-09 03:02:34.77	307.64	12.38	-36.4	-37.3	23.4	0.00e+00	0	33	0	783286272	44	6639
2026-01-09 03:02:35.77	307.82	12.34	-36.7	-37.6	23.2	0.00e+00	0	33	0	785383424	44	6894
2026-01-09 03:02:36.78	308.00	12.30	-36.8	-37.7	23.2	0.00e+00	0	33	0	787480576	46	6199
2026-01-09 03:02:37.79	308.18	12.26	-37.1	-38.0	22.8	0.00e+00	0	33	0	789577728	46	6452
2026-01-09 03:02:38.80	308.36	12.23	-37.4	-38.4	22.8	0.00e+00	0	33	0	791674880	46	6722
2026-01-09 03:02:39.81	308.54	12.19	-37.4	-38.4	22.7	0.00e+00	0	33	0	792723456	46	6697
2026-01-09 03:02:40.82	308.72	12.15	-37.5	-38.5	22.4	0.00e+00	0	33	0	794820608	46	6835
2026-01-09 03:02:41.83	308.90	12.11	-37.8	-38.8	22.1	0.00e+00	0	33	0	796917760	48	6306
2026-01-09 03:02:42.84	309.07	12.07	-37.3	-38.3	22.7	0.00e+00	0	33	0	799014912	48	5898
2026-01-09 03:02:43.85	309.25	12.03	-37.1	-38.1	22.8	0.00e+00	0	33	0	801112064	48	5768
2026-01-09 03:02:44.85	309.42	12.00	-37.2	-38.1	22.8	0.00e+00	0	33	0	802160640	48	5822
2026-01-09 03:02:45.86	309.60	11.96	-37.1	-38.1	22.7	0.00e+00	0	33	0	804257792	48	5789
2026-01-09 03:02:46.87	309.78	11.92	-37.1	-38.0	22.6	0.00e+00	0	33	0	806354944	48	5741
2026-01-09 03:02:47.88	309.95	11.88	-37.4	-38.3	22.5	0.00e+00	0	33	0	808452096	48	5963
2026-01-09 03:02:48.88	310.12	11.84	-37.7	-38.8	22.3	0.00e+00	0	33	0	810549248	48	6254
2026-01-09 03:02:49.89	310.30	11.80	-38.0	-39.1	22.0	0.00e+00	0	33	0	811597824	48	6488
2026-01-09 03:02:50.90	310.47	11.76	-38.3	-39.4	21.7	0.00e+00	0	33	0	813694976	48	6701
2026-01-09 03:02:51.91	310.64	11.72	-38.4	-39.5	21.7	0.00e+00	0	33	0	815792128	48	6786
2026-01-09 03:02:52.92	310.82	11.68	-38.3	-39.4	21.7	0.00e+00	0	33	0	817889280	48	6762
2026-01-09 03:02:53.93	310.99	11.64	-38.5	-39.6	21.6	0.00e+00	0	33	0	819986432	48	6875
2026-01-09 03:02:54.94	311.16	11.60	-38.1	-39.2	21.9	0.00e+00	0	33	0	821035008	48	6598
2026-01-09 03:02:55.95	311.33	11.56	-37.9	-39.0	22.0	0.00e+00	0	33	0	823132160	48	6415
2026-01-09 03:02:56.96	311.50	11.51	-38.1	-39.1	21.9	0.00e+00	0	33	0	825229312	48	6525
2026-01-09 03:02:57.97	311.67	11.47	-38.1	-39.2	21.9	0.00e+00	0	33	0	827326464	48	6570
2026-01-09 03:02:58.98	311.84	11.43	-38.4	-39.5	21.6	0.00e+00	0	33	0	829423616	48	6792
2026-01-09 03:02:59.99	312.01	11.39	-38.5	-39.6	21.4	0.00e+00	0	33	0	830472192	48	6927
2026-01-09 03:03:01.00	312.18	11.35	-38.7	-39.8	21.3	0.00e+00	0	33	0	832569344	48	7079
2026-01-09 03:03:02.01	312.35	11.31	-38.4	-39.5	21.5	0.00e+00	0	33	0	834666496	48	6793
2026-01-09 03:03:03.02	312.52	11.27	-38.1	-39.1	22.0	0.00e+00	0	33	0	836763648	48	6503
2026-01-09 03:03:04.03	312.69	11.22	-37.8	-38.8	22.2	0.00e+00	0	33	0	838860800	48	6276
2026-01-09 03:03:05.03	312.85	11.18	-37.6	-38.6	22.4	0.00e+00	0	33	0	840957952	48	6123
2026-01-09 03:03:06.04	313.02	11.14	-37.4	-38.4	22.4	0.00e+00	0	33	0	842006528	48	6012
2026-01-09 03:03:07.05	313.18	11.10	-37.3	-38.3	22.7	0.00e+00	0	33	0	844103680	48	5948
2026-01-09 03:03:08.06	313.35	11.05	-37.5	-38.5	22.3	0.00e+00	0	33	0	846200832	48	6095
2026-01-09 03:03:09.07	313.52	11.01	-37.8	-38.9	22.1	0.00e+00	0	33	0	848297984	48	6338
2026-01-09 03:03:10.08	313.68	10.97	-38.1	-39.1	21.9	0.00e+00	0	33	0	850395136	48	6520
2026-01-09 03:03:11.09	313.84	10.93	-38.4	-39.4	21.5	0.00e+00	0	33	0	851443712	48	6764
2026-01-09 03:03:12.10	314.01	10.88	-38.7	-39.9	21.3	0.00e+00	0	33	0	853540864	48	7100
2026-01-09 03:03:13.11	314.17	10.84	-38.9	-40.1	21.1	0.00e+00	0	33	0	855638016	50	6492
2026-01-09 03:03:14.12	314.33	10.80	-38.9	-40.0	21.1	0.00e+00	0	33	0	857735168	50	6456
2026-01-09 03:03:15.13	314.50	10.75	-39.0	-40.2	20.9	0.00e+00	0	33	0	859832320	50	6581
2026-01-09 03:03:16.14	314.66	10.71	-39.2	-40.5	20.8	0.00e+00	0	33	0	860880896	50	6797
2026-01-09 03:03:17.15	314.82	10.66	-39.0	-40.2	20.9	0.00e+00	0	33	0	862978048	50	6585
2026-01-09 03:03:18.16	314.98	10.62	-39.1	-40.3	20.9	0.00e+00	0	33	0	865075200	50	6650
2026-01-09 03:03:19.17	315.14	10.58	-38.9	-40.1	21.0	0.00e+00	0	33	0	867172352	50	6523
2026-01-09 03:03:20.18	315.30	10.53	-39.0	-40.2	21.0	0.00e+00	0	33	0	869269504	50	6567
2026-01-09 03:03:21.19	315.46	10.49	-38.8	-39.9	21.2	0.00e+00	0	33	0	870318080	50	6388
2026-01-09 03:03:22.19	315.62	10.44	-38.8	-40.0	21.1	0.00e+00	0	33	0	872415232	50	6412
2026-01-09 03:03:23.20	315.78	10.40	-38.6	-39.8	21.4	0.00e+00	0	33	0	874512384	50	6252
2026-01-09 03:03:24.21	315.94	10.36	-38.4	-39.5	21.5	0.00e+00	0	33	0	876609536	50	6088
2026-01-09 03:03:25.22	316.09	10.31	-38.4	-39.5	21.6	0.00e+00	0	33	0	878706688	50	6067
2026-01-09 03:03:26.23	316.25	10.27	-38.3	-39.4	21.6	0.00e+00	0	33	0	879755264	50	6014
2026-01-09 03:03:27.24	316.41	10.22	-38.4	-39.5	21.5	0.00e+00	0	33	0	881852416	50	6067
2026-01-09 03:03:28.25	316.56	10.18	-38.6	-39.7	21.4	0.00e+00	0	33	0	883949568	50	6236
2026-01-09 03:03:29.26	316.72	10.13	-38.5	-39.7	21.4	0.00e+00	0	33	0	886046720	50	6179
2026-01-09 03:03:30.27	316.88	10.09	-38.7	-39.9	21.4	0.00e+00	0	33	0	888143872	50	6338
2026-01-09 03:03:31.28	317.03	10.04	-38.5	-39.7	21.5	0.00e+00	0	33	0	889192448	50	6180
2026-01-09 03:03:32.29	317.19	10.00	-38.7	-39.9	21.2	0.00e+00	0	33	0	891289600	50	6332
2026-01-09 03:03:33.29	317.34	9.95	-38.4	-39.5	21.6	0.00e+00	0	33	0	893386752	50	6051
2026-01-09 03:03:34.30	317.49	9.90	-38.3	-39.4	21.7	0.00e+00	0	33	0	895483904	50	5981
2026-01-09 03:03:35.31	317.64	9.86	-37.9	-39.0	22.0	0.00e+00	0	33	0	897581056	50	5712
2026-01-09 03:03:36.32	317.80	9.81	-37.7	-38.7	22.1	0.00e+00	0	33	0	898629632	48	6238
2026-01-09 03:03:37.33	317.95	9.77	-37.6	-38.7	22.2	0.00e+00	0	33	0	900726784	48	6179
2026-01-09 03:03:38.34	318.10	9.72	-37.5	-38.5	22.3	0.00e+00	0	33	0	902823936	48	6044
2026-01-09 03:03:39.35	318.25	9.68	-37.8	-38.8	22.1	0.00e+00	0	33	0	904921088	48	6295
2026-01-09 03:03:40.36	318.40	9.63	-37.9	-39.0	21.9	0.00e+00	0	33	0	907018240	48	6414
2026-01-09 03:03:41.37	318.55	9.58	-38.1	-39.2	21.8	0.00e+00	0	33	0	909115392	48	6552
2026-01-09 03:03:42.38	318.70	9.54	-38.4	-39.5	21.5	0.00e+00	0	33	0	910163968	48	6798
2026-01-09 03:03:43.39	318.85	9.49	-38.6	-39.8	21.1	0.00e+00	0	33	0	912261120	48	7021
2026-01-09 03:03:44.40	319.00	9.44	-39.1	-40.4	20.7	0.00e+00	0	33	0	914358272	50	6694
2026-01-09 03:03:45.41	319.15	9.40	-39.2	-40.4	20.8	0.00e+00	0	33	0	916455424	50	6732
2026-01-09 03:03:46.42	319.30	9.35	-39.3	-40.5	20.6	0.00e+00	0	33	0	918552576	50	6828
2026-01-09 03:03:47.43	319.45	9.30	-39.4	-40.7	20.5	0.00e+00	0	33	0	919601152	50	6955
2026-01-09 03:03:48.44	319.59	9.26	-38.9	-40.1	21.1	0.00e+00	0	33	0	921698304	50	6536
2026-01-09 03:03:49.44	319.74	9.21	-38.8	-40.0	21.1	0.00e+00	0	33	0	923795456	50	6426
2026-01-09 03:03:50.45	319.88	9.16	-38.6	-39.8	21.3	0.00e+00	0	33	0	925892608	50	6271
2026-01-09 03:03:51.46	320.03	9.12	-38.6	-39.7	21.3	0.00e+00	0	33	0	927989760	50	6222
2026-01-09 03:03:52.46	320.17	9.07	-38.5	-39.7	21.4	0.00e+00	0	33	0	929038336	50	6189
2026-01-09 03:03:53.47	320.32	9.02	-38.2	-39.3	21.7	0.00e+00	0	33	0	931135488	50	5924
2026-01-09 03:03:54.48	320.46	8.98	-38.1	-39.2	21.7	0.00e+00	0	33	0	933232640	50	5830
2026-01-09 03:03:55.49	320.61	8.93	-38.1	-39.2	21.8	0.00e+00	0	33	0	935329792	50	5865
2026-01-09 03:03:56.50	320.75	8.88	-38.1	-39.2	21.8	0.00e+00	0	33	0	937426944	50	5876
2026-01-09 03:03:57.51	320.89	8.83	-38.2	-39.4	21.7	0.00e+00	0	33	0	938475520	50	5971
2026-01-09 03:03:58.51	321.03	8.79	-38.2	-39.4	21.6	0.00e+00	0	33	0	940572672	50	5967
2026-01-09 03:03:59.52	321.18	8.74	-38.2	-39.3	21.7	0.00e+00	0	33	0	942669824	50	5899
2026-01-09 03:04:00.53	321.32	8.69	-37.8	-38.9	21.9	0.00e+00	0	33	0	944766976	48	6343
2026-01-09 03:04:01.54	321.46	8.64	-37.8	-38.8	22.0	0.00e+00	0	33	0	946864128	48	6316
2026-01-09 03:04:02.55	321.60	8.60	-37.7	-38.7	22.1	0.00e+00	0	33	0	947912704	48	6231
2026-01-09 03:04:03.56	321.74	8.55	-37.7	-38.7	22.1	0.00e+00	0	33	0	950009856	48	6217
2026-01-09 03:04:04.57	321.88	8.50	-37.7	-38.8	22.0	0.00e+00	0	33	0	952107008	48	6280
2026-01-09 03:04:05.58	322.02	8.45	-37.8	-38.8	21.9	0.00e+00	0	33	0	954204160	48	6282
2026-01-09 03:04:06.59	322.16	8.41	-37.8	-38.9	21.9	0.00e+00	0	33	0	956301312	48	6320
2026-01-09 03:04:07.60	322.30	8.36	-38.1	-39.2	21.7	0.00e+00	0	33	0	957349888	48	6545
2026-01-09 03:04:08.61	322.44	8.31	-37.9	-39.0	21.9	0.00e+00	0	33	0	959447040	48	6434
2026-01-09 03:04:09.61	322.57	8.26	-38.2	-39.3	21.6	0.00e+00	0	33	0	961544192	48	6639
2026-01-09 03:04:10.62	322.71	8.21	-38.1	-39.2	21.7	0.00e+00	0	33	0	963641344	48	6615
2026-01-09 03:04:11.63	322.85	8.17	-38.3	-39.4	21.6	0.00e+00	0	33	0	965738496	48	6719
2026-01-09 03:04:12.64	322.98	8.12	-38.2	-39.3	21.6	0.00e+00	0	33	0	966787072	48	6626
2026-01-09 03:04:13.65	323.12	8.07	-37.9	-39.0	21.9	0.00e+00	0	33	0	968884224	48	6392
2026-01-09 03:04:14.66	323.25	8.02	-37.8	-38.9	21.9	0.00e+00	0	33	0	970981376	48	6361
2026-01-09 03:04:15.67	323.39	7.97	-37.8	-38.9	22.0	0.00e+00	0	33	0	973078528	48	6352
2026-01-09 03:04:16.68	323.52	7.93	-37.8	-38.8	22.0	0.00e+00	0	33	0	975175680	48	6299
2026-01-09 03:04:17.69	323.66	7.88	-37.7	-38.8	22.0	0.00e+00	0	33	0	976224256	48	6253
2026-01-09 03:04:18.70	323.79	7.83	-37.8	-38.8	21.9	0.00e+00	0	33	0	978321408	48	6305
2026-01-09 03:04:19.71	323.93	7.78	-38.0	-39.1	21.9	0.00e+00	0	33	0	980418560	48	6484
2026-01-09 03:04:20.72	324.06	7.73	-37.7	-38.8	22.0	0.00e+00	0	33	0	982515712	48	6280
2026-01-09 03:04:21.73	324.19	7.68	-37.8	-38.9	21.7	0.00e+00	0	33	0	984612864	48	6357
2026-01-09 03:04:22.74	324.32	7.63	-37.9	-39.0	21.9	0.00e+00	0	33	0	985661440	48	6423
2026-01-09 03:04:23.75	324.46	7.59	-38.0	-39.2	21.6	0.00e+00	0	33	0	987758592	48	6543
2026-01-09 03:04:24.76	324.59	7.54	-38.1	-39.2	21.3	0.00e+00	0	33	0	989855744	48	6595
2026-01-09 03:04:25.77	324.72	7.49	-38.1	-39.2	21.6	0.00e+00	0	33	0	991952896	48	6585
2026-01-09 03:04:26.78	324.85	7.44	-38.2	-39.3	21.6	0.00e+00	0	33	0	994050048	48	6630
2026-01-09 03:04:27.79	324.98	7.39	-38.2	-39.3	21.5	0.00e+00	0	33	0	995098624	48	6622
2026-01-09 03:04:28.80	325.11	7.34	-38.1	-39.2	21.8	0.00e+00	0	33	0	997195776	48	6609
2026-01-09 03:04:29.81	325.24	7.29	-38.3	-39.5	21.4	0.00e+00	0	33	0	999292928	48	6780
2026-01-09 03:04:30.82	325.37	7.25	-38.2	-39.3	21.5	0.00e+00	0	33	0	1001390080	48	6673
2026-01-09 03:04:31.83	325.49	7.20	-38.0	-39.1	21.6	0.00e+00	0	33	0	1003487232	48	6520
2026-01-09 03:04:32.84	325.62	7.15	-38.3	-39.4	21.4	0.00e+00	0	33	0	1005584384	48	6767
2026-01-09 03:04:33.85	325.75	7.10	-38.1	-39.2	21.5	0.00e+00	0	33	0	1006632960	48	6609
2026-01-09 03:04:34.85	325.87	7.05	-38.1	-39.2	21.6	0.00e+00	0	33	0	1008730112	48	6604
2026-01-09 03:04:35.86	326.00	7.00	-38.3	-39.5	21.5	0.00e+00	0	33	0	1010827264	48	6795
2026-01-09 03:04:36.87	326.13	6.95	-38.2	-39.4	21.4	0.00e+00	0	33	0	1012924416	48	6694
2026-01-09 03:04:37.88	326.25	6.90	-38.2	-39.4	21.4	0.00e+00	0	33	0	1015021568	48	6700
2026-01-09 03:04:38.89	326.38	6.85	-38.2	-39.4	21.5	0.00e+00	0	33	0	1016070144	48	6697
2026-01-09 03:04:39.90	326.50	6.81	-38.2	-39.4	21.3	0.00e+00	0	33	0	1018167296	48	6718
2026-01-09 03:04:40.91	326.63	6.76	-38.2	-39.4	21.3	0.00e+00	0	33	0	1020264448	48	6715
2026-01-09 03:04:41.92	326.75	6.71	-38.3	-39.5	21.2	0.00e+00	0	33	0	1022361600	48	6787
2026-01-09 03:04:42.93	326.88	6.66	-38.3	-39.5	21.4	0.00e+00	0	33	0	1024458752	48	6808
2026-01-09 03:04:43.94	327.00	6.61	-38.3	-39.5	21.2	0.00e+00	0	33	0	1025507328	48	6804
2026-01-09 03:04:44.95	327.12	6.56	-38.1	-39.2	21.6	0.00e+00	0	33	0	1027604480	48	6585
2026-01-09 03:04:45.96	327.25	6.51	-38.0	-39.2	21.6	0.00e+00	0	33	0	1029701632	48	6540
2026-01-09 03:04:46.97	327.37	6.46	-38.3	-39.5	21.4	0.00e+00	0	33	0	1031798784	48	6818
2026-01-09 03:04:47.98	327.49	6.41	-38.1	-39.3	21.4	0.00e+00	0	32	0	1033895936	48	6618
2026-01-09 03:04:48.99	327.61	6.36	-38.2	-39.3	21.4	0.00e+00	0	33	0	1034944512	48	6691
2026-01-09 03:04:49.99	327.73	6.32	-38.4	-39.6	21.1	0.00e+00	0	33	0	1037041664	48	6892
2026-01-09 03:04:51.01	327.85	6.27	-38.5	-39.7	20.9	0.00e+00	0	33	0	1039138816	48	6991
2026-01-09 03:04:52.01	327.97	6.22	-38.7	-39.9	20.9	0.00e+00	0	33	0	1041235968	48	7121
2026-01-09 03:04:53.02	328.09	6.17	-38.9	-40.1	20.6	0.00e+00	0	33	0	1043333120	50	6498
2026-01-09 03:04:54.03	328.21	6.12	-38.8	-40.0	20.7	0.00e+00	0	32	0	1044381696	50	6461
2026-01-09 03:04:55.04	328.33	6.07	-38.8	-40.1	20.6	0.00e+00	0	33	0	1046478848	50	6471
2026-01-09 03:04:56.05	328.45	6.02	-39.0	-40.3	20.6	0.00e+00	0	32	0	1048576000	50	6651
2026-01-09 03:04:57.06	328.57	5.97	-38.7	-40.0	20.7	0.00e+00	0	33	0	1050673152	50	6398
2026-01-09 03:04:58.07	328.69	5.92	-38.7	-39.9	20.8	0.00e+00	0	33	0	1052770304	50	6374
2026-01-09 03:04:59.08	328.80	5.87	-38.7	-39.9	21.0	0.00e+00	0	33	0	1053818880	50	6356
2026-01-09 03:05:00.09	328.92	5.82	-38.6	-39.8	20.8	0.00e+00	0	33	0	1055916032	50	6257
2026-01-09 03:05:01.10	329.04	5.77	-38.5	-39.7	20.9	0.00e+00	0	33	0	1058013184	50	6196
2026-01-09 03:05:02.11	329.16	5.73	-38.6	-39.8	20.8	0.00e+00	0	33	0	1060110336	50	6293
2026-01-09 03:05:03.11	329.27	5.68	-38.7	-39.9	20.9	0.00e+00	0	33	0	1062207488	50	6350
2026-01-09 03:05:04.12	329.39	5.63	-38.4	-39.6	21.1	0.00e+00	0	33	0	1063256064	50	6142
2026-01-09 03:05:05.13	329.50	5.58	-38.5	-39.7	21.0	0.00e+00	0	33	0	1065353216	50	6242
2026-01-09 03:05:06.14	329.62	5.53	-38.4	-39.6	21.0	0.00e+00	0	33	0	1067450368	50	6155
2026-01-09 03:05:07.15	329.73	5.48	-38.5	-39.7	21.0	0.00e+00	0	33	0	1069547520	50	6179
2026-01-09 03:05:08.16	329.85	5.43	-38.6	-39.9	20.8	0.00e+00	0	33	0	1071644672	50	6322
2026-01-09 03:05:09.17	329.96	5.38	-38.5	-39.7	20.9	0.00e+00	0	33	0	1073741824	50	6237
2026-01-09 03:05:10.18	330.07	5.33	-38.6	-39.8	20.9	0.00e+00	0	33	0	1074790400	50	6285
2026-01-09 03:05:11.19	330.19	5.28	-38.5	-39.8	20.9	0.00e+00	0	33	0	1076887552	50	6260
2026-01-09 03:05:12.20	330.30	5.23	-38.6	-39.8	20.8	0.00e+00	0	33	0	1078984704	50	6292
2026-01-09 03:05:13.20	330.41	5.19	-38.6	-39.8	20.8	0.00e+00	0	33	0	1081081856	50	6299
2026-01-09 03:05:14.21	330.52	5.14	-38.6	-39.9	20.7	0.00e+00	0	33	0	1083179008	50	6341
2026-01-09 03:05:15.22	330.63	5.09	-38.7	-39.9	20.7	0.00e+00	0	33	0	1084227584	50	6371
2026-01-09 03:05:16.23	330.75	5.04	-38.9	-40.2	20.5	0.00e+00	0	33	0	1086324736	50	6555
2026-01-09 03:05:17.25	330.86	4.99	-39.0	-40.3	20.3	0.00e+00	0	33	0	1088421888	50	6680
2026-01-09 03:05:18.26	330.97	4.94	-39.2	-40.6	20.0	0.00e+00	0	33	0	1090519040	50	6894
2026-01-09 03:05:19.27	331.08	4.89	-39.2	-40.5	20.1	0.00e+00	0	33	0	1092616192	50	6822
2026-01-09 03:05:20.28	331.19	4.84	-39.4	-40.8	19.8	0.00e+00	0	33	0	1093664768	50	7083
2026-01-09 03:05:21.28	331.30	4.79	-39.6	-41.1	19.5	0.00e+00	0	33	0	1095761920	50	7285
2026-01-09 03:05:22.30	331.41	4.74	-39.6	-41.0	19.4	0.00e+00	0	33	0	1097859072	50	7242
2026-01-09 03:05:23.31	331.52	4.69	-40.0	-41.5	19.0	0.00e+00	0	33	0	1099956224	52	6818
2026-01-09 03:05:24.32	331.62	4.64	-40.0	-41.6	18.7	0.00e+00	0	33	0	1102053376	52	6892
2026-01-09 03:05:25.33	331.73	4.59	-40.4	-42.1	18.2	0.00e+00	0	33	0	1103101952	52	7321
2026-01-09 03:05:26.34	331.84	4.55	-40.6	-42.4	17.9	0.00e+00	0	33	0	1105199104	52	7554
2026-01-09 03:05:27.35	331.95	4.50	-40.8	-42.7	17.4	0.00e+00	0	33	0	1107296256	54	6988
2026-01-09 03:05:28.36	332.06	4.45	-40.9	-43.0	16.8	0.00e+00	0	33	0	1109393408	54	7177
2026-01-09 03:05:29.36	332.16	4.40	-41.2	-43.6	16.0	0.00e+00	0	33	0	1111490560	54	7737
2026-01-09 03:05:30.37	332.27	4.35	-41.6	-44.3	14.9	0.00e+00	0	33	0	1112539136	54	8414
2026-01-09 03:05:31.38	332.37	4.30	-41.9	-45.1	13.7	0.00e+00	0	33	0	1114636288	56	8175
2026-01-09 03:05:32.38	332.48	4.25	-42.2	-46.0	12.5	2.97e-05	0	33	0	1116733440	56	9106
2026-01-09 03:05:33.39	332.58	4.20	-42.5	-47.3	10.5	1.87e-03	0	33	0	1118830592	56	10490
2026-01-09 03:05:34.40	332.69	4.15	-42.7	-48.5	8.7	1.67e-02	0	33	0	1120927744	56	12159
2026-01-09 03:05:35.41	332.79	4.10	-42.7	-49.7	7.0	7.48e-02	0	33	0	1121976320	58	12410
2026-01-09 03:05:36.42	332.90	4.06	-42.8	-50.8	5.6	3.28e-01	0	33	0	1124073472	58	14006
2026-01-09 03:05:37.42	333.00	4.01	-42.8	-51.9	4.4	6.52e-01	0	33	0	1126170624	58	15966
2026-01-09 03:05:38.44	333.11	3.96	-42.8	-53.2	3.8	1.17e+00	0	33	0	1127219200	58	18537
2026-01-09 03:05:39.45	333.21	3.91	-42.8	-55.4	3.7	1.49e+00	0	33	104	1127219200	58	23912
2026-01-09 03:05:40.46	333.31	3.86	-42.8	-56.0	3.6	1.51e+00	0	33	104	1127219200	58	25690
2026-01-09 03:05:41.47	333.42	3.81	-42.8	-56.7	3.6	1.51e+00	0	33	104	1127219200	58	27612
2026-01-09 03:05:42.47	333.52	3.76	-42.8	-57.0	3.6	1.51e+00	0	33	104	1127219200	58	28741
2026-01-09 03:05:43.48	333.62	3.71	-42.7	-57.2	3.6	1.51e+00	0	33	104	1127219200	58	29374
