passes_logs/2026/01/09/R4.6S_Anadyr/R4.6S_Anadyr__20260109_031219_AQUA_rec.log

#Pass ID: 20260109_031219_AQUA
#Satellite: AQUA
#Configuration: AQUA
#almurnet v.1.7.20251203
#Start time: 2026-01-09 03:12:20

#Version: 2.2.20231116
#Station: R4.6S_Anadyr
#Location: 177.4865 lon 64.73178 lat
#TLE: 1 27424U 02022A   26004.96787593  .00001598  00000+0  32997-3 0  9996
#TLE: 2 27424  98.4069 331.2279 0002002  90.2377   0.6092 14.61798176259425

#Time	Az	El	Level	Level2	SNR	BER	BlckErr	Temp	State	Recorded	gain1	gain2
2026-01-09 03:12:20.83	190.33	0.05	-48.1	-63.0	3.6	1.51e+00	0	30	0	0	60	51244
2026-01-09 03:12:21.83	190.38	0.11	-48.3	-66.1	3.5	3.02e+01	0	31	104	0	60	77507
2026-01-09 03:12:22.84	190.43	0.17	-48.2	-66.2	3.5	3.02e+01	0	31	104	0	60	78278
2026-01-09 03:12:23.85	190.48	0.23	-48.3	-66.2	3.5	3.02e+01	0	31	104	0	60	78798
2026-01-09 03:12:24.86	190.53	0.29	-48.3	-66.2	3.5	3.02e+01	0	31	104	0	60	78475
2026-01-09 03:12:25.87	190.58	0.35	-48.2	-66.2	3.5	3.02e+01	0	31	104	0	60	78433
2026-01-09 03:12:26.88	190.62	0.41	-48.3	-66.2	3.5	3.02e+01	0	31	104	0	60	78616
2026-01-09 03:12:27.89	190.67	0.47	-48.4	-66.2	3.5	3.02e+01	0	31	104	0	60	78769
2026-01-09 03:12:28.90	190.72	0.53	-48.4	-66.2	3.5	3.02e+01	0	31	104	0	60	78639
2026-01-09 03:12:29.91	190.77	0.59	-48.4	-66.2	3.5	3.02e+01	0	32	104	0	60	78404
2026-01-09 03:12:30.92	190.82	0.65	-48.3	-66.2	3.5	3.02e+01	0	31	104	0	60	78173
2026-01-09 03:12:31.93	190.87	0.71	-48.3	-66.1	3.5	3.02e+01	0	32	104	0	60	77428
2026-01-09 03:12:32.94	190.93	0.77	-48.1	-66.0	3.5	3.02e+01	0	32	104	0	60	76509
2026-01-09 03:12:33.94	190.98	0.83	-48.0	-65.8	3.5	3.02e+01	0	32	104	0	60	75455
2026-01-09 03:12:34.95	191.03	0.89	-47.7	-65.5	3.5	3.02e+01	0	32	104	0	60	72509
2026-01-09 03:12:35.96	191.08	0.95	-47.4	-65.2	3.5	3.02e+01	0	32	104	0	60	69994
2026-01-09 03:12:36.97	191.13	1.01	-47.1	-64.8	3.5	3.02e+01	0	32	104	0	60	66604
2026-01-09 03:12:37.98	191.18	1.07	-47.0	-64.8	3.5	3.02e+01	0	32	104	0	60	66641
2026-01-09 03:12:38.99	191.23	1.13	-47.0	-64.7	3.5	3.02e+01	0	32	104	0	60	66423
2026-01-09 03:12:40.00	191.29	1.19	-47.0	-64.6	3.5	3.02e+01	0	32	104	0	60	65050
2026-01-09 03:12:41.01	191.34	1.26	-47.0	-64.5	3.5	3.02e+01	0	32	104	0	60	64241
2026-01-09 03:12:42.02	191.39	1.32	-47.0	-64.4	3.5	3.02e+01	0	32	104	0	60	64148
2026-01-09 03:12:43.03	191.44	1.38	-47.0	-64.2	3.5	3.02e+01	0	32	104	0	60	62700
2026-01-09 03:12:44.04	191.50	1.44	-47.0	-64.2	3.5	3.02e+01	0	32	104	0	60	62378
2026-01-09 03:12:45.05	191.55	1.50	-47.0	-64.5	3.5	3.02e+01	0	32	104	0	60	64368
2026-01-09 03:12:46.06	191.60	1.56	-47.0	-64.7	3.5	3.02e+01	0	32	104	0	60	66214
2026-01-09 03:12:47.07	191.66	1.63	-47.0	-64.8	3.5	3.02e+01	0	32	104	0	60	66659
2026-01-09 03:12:48.08	191.71	1.69	-47.0	-64.7	3.5	3.02e+01	0	32	104	0	60	66450
2026-01-09 03:12:49.09	191.76	1.75	-47.0	-64.8	3.5	3.02e+01	0	32	104	0	60	66809
2026-01-09 03:12:50.10	191.82	1.81	-47.0	-64.8	3.5	3.02e+01	0	32	104	0	60	66939
2026-01-09 03:12:51.11	191.87	1.88	-47.0	-64.8	3.5	3.02e+01	0	32	104	0	60	66628
2026-01-09 03:12:52.11	191.93	1.94	-47.0	-64.7	3.5	3.02e+01	0	32	104	0	60	66258
2026-01-09 03:12:53.12	191.98	2.00	-47.0	-64.7	3.5	3.02e+01	0	32	104	0	60	65996
2026-01-09 03:12:54.13	192.04	2.06	-47.0	-64.6	3.5	3.02e+01	0	32	104	0	60	65376
2026-01-09 03:12:55.14	192.09	2.13	-47.0	-64.6	3.5	3.02e+01	0	32	104	0	60	65471
2026-01-09 03:12:56.15	192.15	2.19	-47.0	-64.8	3.5	3.02e+01	0	32	104	0	60	66987
2026-01-09 03:12:57.16	192.21	2.25	-47.0	-64.8	3.5	3.02e+01	0	32	104	0	60	67080
2026-01-09 03:12:58.17	192.26	2.32	-47.0	-64.8	3.5	3.02e+01	0	32	104	0	60	66674
2026-01-09 03:12:59.18	192.32	2.38	-47.0	-64.6	3.5	3.02e+01	0	32	104	0	60	65344
2026-01-09 03:13:00.19	192.38	2.44	-47.0	-64.5	3.5	3.02e+01	0	32	104	0	60	64893
2026-01-09 03:13:01.20	192.43	2.51	-47.0	-64.7	3.5	3.02e+01	0	32	104	0	60	65771
2026-01-09 03:13:02.21	192.49	2.57	-47.0	-64.8	3.5	3.02e+01	0	32	104	0	60	66946
2026-01-09 03:13:03.22	192.55	2.64	-47.0	-64.4	3.5	3.02e+01	0	32	104	0	60	63764
2026-01-09 03:13:04.23	192.61	2.70	-47.0	-63.6	3.5	3.02e+01	0	32	104	0	60	58262
2026-01-09 03:13:05.24	192.66	2.77	-46.9	-61.7	4.0	3.02e+01	0	32	104	0	60	46970
2026-01-09 03:13:06.25	192.72	2.83	-46.8	-60.7	3.7	3.02e+01	0	32	104	0	60	41592
2026-01-09 03:13:07.26	192.78	2.90	-46.8	-60.7	4.4	3.02e+01	0	32	104	0	60	41749
2026-01-09 03:13:08.27	192.84	2.96	-46.9	-62.2	3.7	3.02e+01	0	32	104	0	60	49472
2026-01-09 03:13:09.28	192.90	3.03	-46.9	-61.9	3.6	3.02e+01	0	32	104	0	60	48087
2026-01-09 03:13:10.29	192.96	3.09	-46.4	-56.0	8.1	3.02e+01	59	32	104	0	60	24380
2026-01-09 03:13:11.30	193.02	3.16	-45.3	-50.9	13.8	3.02e+01	0	32	0	1572864	60	13546
2026-01-09 03:13:12.31	193.08	3.22	-43.5	-46.9	17.6	3.02e+01	0	32	0	3145728	60	8533
2026-01-09 03:13:13.32	193.14	3.29	-41.7	-44.1	20.2	3.02e+01	0	32	0	5242880	58	6958
2026-01-09 03:13:14.33	193.20	3.35	-40.1	-42.1	22.3	3.02e+01	0	32	0	6815744	56	6163
2026-01-09 03:13:15.34	193.26	3.42	-38.9	-40.6	23.7	3.02e+01	0	32	0	8912896	54	5835
2026-01-09 03:13:16.35	193.32	3.49	-38.2	-39.9	24.3	3.02e+01	0	32	0	11010048	52	6016
2026-01-09 03:13:17.36	193.38	3.55	-38.3	-39.9	24.3	3.02e+01	0	32	0	12582912	52	6043
2026-01-09 03:13:18.36	193.44	3.62	-38.5	-40.2	23.9	3.02e+01	0	32	0	14680064	52	6239
2026-01-09 03:13:19.37	193.51	3.68	-38.4	-40.0	25.0	3.02e+01	0	32	0	16252928	52	6095
2026-01-09 03:13:20.38	193.57	3.75	-39.2	-40.9	23.5	3.02e+01	0	32	0	18350080	56	5375
2026-01-09 03:13:21.39	193.63	3.82	-42.6	-45.1	20.9	3.02e+01	0	32	0	19922944	60	6959
2026-01-09 03:13:22.40	193.69	3.89	-39.4	-41.2	23.0	3.02e+01	0	32	0	22020096	54	6269
2026-01-09 03:13:23.41	193.76	3.95	-37.6	-39.1	25.4	3.02e+01	0	32	0	24117248	52	5487
2026-01-09 03:13:24.42	193.82	4.02	-41.9	-44.4	20.8	3.02e+01	0	32	0	25690112	60	6371
2026-01-09 03:13:25.43	193.88	4.09	-37.4	-38.9	25.4	3.02e+01	0	32	0	27787264	50	6024
2026-01-09 03:13:26.44	193.95	4.16	-36.9	-38.3	25.9	3.02e+01	0	32	0	29360128	50	5642
2026-01-09 03:13:27.45	194.01	4.22	-36.9	-38.3	26.0	3.02e+01	0	32	0	31457280	48	6348
2026-01-09 03:13:28.45	194.08	4.29	-36.7	-38.2	26.2	3.02e+01	0	32	0	33554432	48	6215
2026-01-09 03:13:29.46	194.14	4.36	-36.7	-38.1	26.1	3.02e+01	0	32	0	35127296	48	6202
2026-01-09 03:13:30.47	194.21	4.43	-36.8	-38.2	26.0	3.02e+01	0	32	0	37224448	48	6251
2026-01-09 03:13:31.48	194.27	4.50	-36.6	-38.0	26.2	3.02e+01	0	32	0	38797312	48	6108
2026-01-09 03:13:32.49	194.34	4.56	-36.7	-38.1	26.2	3.02e+01	0	32	0	40894464	48	6160
2026-01-09 03:13:33.50	194.40	4.63	-36.6	-38.0	26.3	3.02e+01	0	32	0	42991616	48	6110
2026-01-09 03:13:34.51	194.47	4.70	-36.7	-38.1	26.3	3.02e+01	0	32	0	44564480	48	6152
2026-01-09 03:13:35.51	194.54	4.77	-36.5	-37.8	26.5	3.02e+01	0	32	0	46661632	48	5993
2026-01-09 03:13:36.52	194.60	4.84	-36.4	-37.8	26.5	3.02e+01	0	32	0	48234496	48	5953
2026-01-09 03:13:37.53	194.67	4.91	-36.5	-37.9	26.5	3.02e+01	0	32	0	50331648	48	6003
2026-01-09 03:13:38.54	194.74	4.98	-36.4	-37.8	26.5	3.02e+01	0	32	0	52428800	48	5972
2026-01-09 03:13:39.55	194.81	5.05	-36.4	-37.8	26.5	3.02e+01	0	32	0	54001664	48	5964
2026-01-09 03:13:40.56	194.88	5.12	-36.5	-37.9	26.4	3.02e+01	0	32	0	56098816	48	6049
2026-01-09 03:13:41.56	194.94	5.19	-36.6	-38.0	26.3	3.02e+01	0	32	0	58195968	48	6118
2026-01-09 03:13:42.57	195.01	5.26	-36.2	-37.6	26.7	3.02e+01	0	32	0	59768832	48	5827
2026-01-09 03:13:43.58	195.08	5.33	-36.3	-37.7	26.7	3.02e+01	0	32	0	61865984	48	5903
2026-01-09 03:13:44.59	195.15	5.40	-36.3	-37.7	26.6	3.02e+01	0	32	0	63438848	48	5900
2026-01-09 03:13:45.60	195.22	5.47	-36.3	-37.7	26.7	3.02e+01	0	32	0	65536000	48	5883
2026-01-09 03:13:46.61	195.29	5.54	-36.2	-37.6	26.8	3.02e+01	0	32	0	67633152	48	5811
2026-01-09 03:13:47.62	195.37	5.62	-36.2	-37.6	26.8	3.02e+01	0	32	0	69206016	48	5806
2026-01-09 03:13:48.63	195.44	5.69	-36.2	-37.6	26.8	3.02e+01	0	32	0	71303168	48	5820
2026-01-09 03:13:49.63	195.51	5.76	-36.2	-37.6	26.9	3.02e+01	0	32	0	72876032	48	5826
2026-01-09 03:13:50.64	195.58	5.83	-36.2	-37.5	26.9	3.02e+01	0	32	0	74973184	48	5780
2026-01-09 03:13:51.65	195.65	5.90	-36.1	-37.5	26.9	3.02e+01	0	32	0	77070336	48	5745
2026-01-09 03:13:52.66	195.73	5.97	-36.2	-37.6	26.8	3.02e+01	0	32	0	78643200	48	5800
2026-01-09 03:13:53.67	195.80	6.05	-36.3	-37.7	26.8	3.02e+01	0	32	0	80740352	48	5902
2026-01-09 03:13:54.68	195.87	6.12	-36.0	-37.3	27.1	3.02e+01	0	32	0	82313216	48	5648
2026-01-09 03:13:55.69	195.95	6.19	-36.0	-37.4	27.1	3.02e+01	0	32	0	84410368	46	6377
2026-01-09 03:13:56.70	196.02	6.27	-36.0	-37.4	27.1	3.02e+01	0	32	0	86507520	46	6356
2026-01-09 03:13:57.71	196.10	6.34	-35.9	-37.2	27.2	3.02e+01	0	32	0	88080384	46	6244
2026-01-09 03:13:58.72	196.17	6.41	-36.0	-37.3	27.2	3.02e+01	0	32	0	90177536	46	6309
2026-01-09 03:13:59.73	196.25	6.49	-36.0	-37.3	27.2	3.02e+01	0	32	0	91750400	46	6350
2026-01-09 03:14:00.75	196.32	6.56	-36.1	-37.4	27.1	3.02e+01	0	32	0	93847552	46	6384
2026-01-09 03:14:01.76	196.40	6.63	-36.0	-37.3	27.1	3.02e+01	0	32	0	95944704	46	6342
2026-01-09 03:14:02.77	196.48	6.71	-35.9	-37.2	27.3	3.02e+01	0	32	0	97517568	46	6241
2026-01-09 03:14:03.77	196.55	6.78	-35.9	-37.2	27.3	3.02e+01	0	32	0	99614720	46	6276
2026-01-09 03:14:04.78	196.63	6.86	-36.0	-37.3	27.2	3.02e+01	0	32	0	101711872	46	6318
2026-01-09 03:14:05.79	196.71	6.93	-36.0	-37.3	27.3	3.02e+01	0	32	0	103284736	46	6319
2026-01-09 03:14:06.80	196.79	7.01	-36.1	-37.5	27.1	3.02e+01	0	32	0	105381888	46	6453
2026-01-09 03:14:07.81	196.87	7.08	-36.1	-37.5	27.2	3.02e+01	0	32	0	106954752	46	6439
2026-01-09 03:14:08.82	196.94	7.16	-35.9	-37.2	27.3	3.02e+01	0	32	0	109051904	46	6266
2026-01-09 03:14:09.83	197.02	7.23	-35.9	-37.2	27.3	3.02e+01	0	32	0	111149056	46	6229
2026-01-09 03:14:10.84	197.10	7.31	-35.9	-37.2	27.4	3.02e+01	0	32	0	112721920	46	6266
2026-01-09 03:14:11.85	197.18	7.39	-36.0	-37.3	27.3	3.02e+01	0	32	0	114819072	46	6312
2026-01-09 03:14:12.86	197.27	7.46	-36.0	-37.3	27.4	3.02e+01	0	32	0	116391936	46	6315
2026-01-09 03:14:13.87	197.35	7.54	-35.8	-37.1	27.4	3.02e+01	0	32	0	118489088	46	6194
2026-01-09 03:14:14.88	197.43	7.61	-35.8	-37.1	27.5	3.02e+01	0	32	0	120586240	46	6155
2026-01-09 03:14:15.89	197.51	7.69	-35.9	-37.2	27.5	3.02e+01	0	32	0	122159104	46	6252
2026-01-09 03:14:16.90	197.59	7.77	-35.7	-37.0	27.6	3.02e+01	0	32	0	124256256	46	6085
2026-01-09 03:14:17.91	197.68	7.85	-35.8	-37.1	27.5	3.02e+01	0	32	0	126353408	46	6169
2026-01-09 03:14:18.92	197.76	7.92	-35.7	-37.0	27.6	3.02e+01	0	32	0	127926272	46	6085
2026-01-09 03:14:19.92	197.84	8.00	-35.6	-36.9	27.7	3.02e+01	0	32	0	130023424	46	6044
2026-01-09 03:14:20.93	197.93	8.08	-35.6	-36.9	27.7	3.02e+01	0	32	0	131596288	46	6048
2026-01-09 03:14:21.94	198.01	8.16	-35.6	-36.9	27.7	3.02e+01	0	32	0	133693440	46	6038
2026-01-09 03:14:22.95	198.10	8.24	-35.6	-36.9	27.7	3.02e+01	0	32	0	135790592	46	6031
2026-01-09 03:14:23.96	198.19	8.31	-35.7	-37.0	27.7	3.02e+01	0	32	0	137363456	46	6083
2026-01-09 03:14:24.97	198.27	8.39	-35.5	-36.8	27.8	3.02e+01	0	32	0	139460608	46	5946
2026-01-09 03:14:25.98	198.36	8.47	-35.5	-36.9	27.8	3.02e+01	0	32	0	141033472	46	5996
2026-01-09 03:14:26.99	198.45	8.55	-35.5	-36.8	27.8	3.02e+01	0	32	0	143130624	46	5975
2026-01-09 03:14:28.00	198.53	8.63	-35.5	-36.8	27.8	3.02e+01	0	32	0	145227776	46	5962
2026-01-09 03:14:29.01	198.62	8.71	-35.6	-36.9	27.9	3.02e+01	0	32	0	146800640	46	5997
2026-01-09 03:14:30.02	198.71	8.79	-35.4	-36.7	27.9	3.02e+01	0	32	0	148897792	46	5912
2026-01-09 03:14:31.03	198.80	8.87	-35.4	-36.7	27.9	3.02e+01	0	32	0	150470656	46	5914
2026-01-09 03:14:32.03	198.89	8.95	-35.5	-36.8	27.9	3.02e+01	0	32	0	152567808	46	5961
2026-01-09 03:14:33.04	198.98	9.03	-35.4	-36.7	28.0	3.02e+01	0	32	0	154664960	46	5884
2026-01-09 03:14:34.05	199.07	9.11	-35.3	-36.6	28.0	3.02e+01	0	32	0	156237824	46	5794
2026-01-09 03:14:35.06	199.16	9.19	-35.3	-36.6	28.1	3.02e+01	0	32	0	158334976	46	5825
2026-01-09 03:14:36.07	199.26	9.28	-35.2	-36.5	28.2	3.02e+01	0	32	0	159907840	46	5737
2026-01-09 03:14:37.08	199.35	9.36	-35.2	-36.5	28.1	3.02e+01	0	32	0	162004992	46	5745
2026-01-09 03:14:38.09	199.44	9.44	-35.1	-36.4	28.2	3.02e+01	0	32	0	164102144	46	5686
2026-01-09 03:14:39.10	199.54	9.52	-35.2	-36.5	28.2	3.02e+01	0	32	0	165675008	46	5727
2026-01-09 03:14:40.11	199.63	9.60	-35.2	-36.5	28.1	3.02e+01	0	32	0	167772160	46	5744
2026-01-09 03:14:41.12	199.72	9.69	-35.3	-36.5	28.1	3.02e+01	0	32	0	169869312	46	5783
2026-01-09 03:14:42.12	199.82	9.77	-35.2	-36.4	28.2	3.02e+01	0	32	0	171442176	46	5711
2026-01-09 03:14:43.13	199.91	9.85	-35.2	-36.5	28.2	3.02e+01	0	32	0	173539328	46	5741
2026-01-09 03:14:44.14	200.01	9.94	-35.1	-36.4	28.3	3.02e+01	0	32	0	175112192	46	5678
2026-01-09 03:14:45.15	200.11	10.02	-35.3	-36.5	28.2	3.02e+01	0	32	0	177209344	46	5778
2026-01-09 03:14:46.16	200.21	10.10	-35.1	-36.4	28.2	3.02e+01	0	32	0	179306496	46	5705
2026-01-09 03:14:47.17	200.30	10.19	-35.2	-36.4	28.2	3.02e+01	0	32	0	180879360	46	5708
2026-01-09 03:14:48.18	200.40	10.27	-35.0	-36.2	28.4	3.02e+01	0	32	0	182976512	46	5573
2026-01-09 03:14:49.19	200.50	10.36	-35.0	-36.2	28.5	3.02e+01	0	32	0	184549376	46	5572
2026-01-09 03:14:50.20	200.60	10.44	-35.0	-36.2	28.3	3.02e+01	0	32	0	186646528	44	6266
2026-01-09 03:14:51.20	200.70	10.53	-34.8	-36.1	28.5	3.02e+01	0	32	0	188743680	44	6143
2026-01-09 03:14:52.21	200.80	10.61	-34.8	-36.1	28.6	3.02e+01	0	32	0	190316544	44	6161
2026-01-09 03:14:53.22	200.91	10.70	-34.8	-36.1	28.5	3.02e+01	0	32	0	192413696	44	6156
2026-01-09 03:14:54.23	201.01	10.78	-34.7	-36.0	28.6	3.02e+01	0	32	0	193986560	44	6083
2026-01-09 03:14:55.24	201.11	10.87	-34.8	-36.0	28.6	3.02e+01	0	32	0	196083712	44	6121
2026-01-09 03:14:56.25	201.21	10.96	-34.7	-36.0	28.6	3.02e+01	0	32	0	198180864	44	6086
2026-01-09 03:14:57.26	201.32	11.04	-34.8	-36.0	28.6	3.02e+01	0	32	0	199753728	44	6125
2026-01-09 03:14:58.27	201.42	11.13	-34.8	-36.1	28.6	3.02e+01	0	32	0	201850880	44	6138
2026-01-09 03:14:59.27	201.53	11.22	-34.8	-36.0	28.6	3.02e+01	0	32	0	203423744	44	6127
2026-01-09 03:15:00.29	201.64	11.30	-34.8	-36.1	28.6	3.02e+01	0	32	0	205520896	44	6156
2026-01-09 03:15:01.30	201.74	11.39	-34.8	-36.1	28.6	3.02e+01	0	32	0	207618048	44	6140
2026-01-09 03:15:02.31	201.85	11.48	-34.8	-36.0	28.6	3.02e+01	0	32	0	209190912	44	6113
2026-01-09 03:15:03.32	201.96	11.57	-34.6	-35.9	28.8	3.02e+01	0	32	0	211288064	44	6003
2026-01-09 03:15:04.33	202.07	11.66	-34.5	-35.7	28.9	3.02e+01	0	32	0	212860928	44	5925
2026-01-09 03:15:05.34	202.18	11.75	-34.5	-35.8	28.9	3.02e+01	0	32	0	214958080	44	5930
2026-01-09 03:15:06.34	202.29	11.83	-34.7	-35.9	28.7	3.02e+01	0	32	0	217055232	44	6038
2026-01-09 03:15:07.36	202.40	11.92	-34.6	-35.8	28.8	3.02e+01	0	32	0	218628096	44	5983
2026-01-09 03:15:08.37	202.51	12.01	-34.6	-35.9	28.9	3.02e+01	0	32	0	220725248	44	6004
2026-01-09 03:15:09.37	202.62	12.10	-34.8	-36.0	28.8	3.02e+01	0	32	0	222822400	44	6098
2026-01-09 03:15:10.38	202.73	12.19	-34.7	-36.0	28.7	3.02e+01	0	32	0	224395264	44	6080
2026-01-09 03:15:11.39	202.85	12.28	-34.8	-36.0	28.7	3.02e+01	0	32	0	226492416	44	6112
2026-01-09 03:15:12.40	202.96	12.37	-34.5	-35.7	28.9	3.02e+01	0	32	0	228065280	44	5905
2026-01-09 03:15:13.41	203.08	12.47	-34.5	-35.7	28.9	3.02e+01	0	32	0	230162432	44	5926
2026-01-09 03:15:14.42	203.19	12.56	-34.5	-35.7	28.9	3.02e+01	0	32	0	232259584	44	5921
2026-01-09 03:15:15.43	203.31	12.65	-34.5	-35.8	28.9	3.02e+01	0	32	0	233832448	44	5927
2026-01-09 03:15:16.44	203.43	12.74	-34.3	-35.5	29.2	3.02e+01	0	32	0	235929600	44	5728
2026-01-09 03:15:17.44	203.55	12.83	-34.3	-35.6	29.0	3.02e+01	0	32	0	238026752	44	5805
2026-01-09 03:15:18.45	203.67	12.92	-34.2	-35.4	29.2	3.02e+01	0	32	0	239599616	44	5707
2026-01-09 03:15:19.46	203.79	13.02	-34.3	-35.5	29.1	3.02e+01	0	32	0	241696768	44	5768
2026-01-09 03:15:20.47	203.91	13.11	-34.3	-35.5	29.1	3.02e+01	0	32	0	243269632	44	5770
2026-01-09 03:15:21.48	204.03	13.20	-34.4	-35.6	29.1	3.02e+01	0	32	0	245366784	44	5828
2026-01-09 03:15:22.49	204.15	13.30	-34.3	-35.5	29.1	3.02e+01	0	32	0	246939648	44	5765
2026-01-09 03:15:23.50	204.27	13.39	-34.3	-35.5	29.2	3.02e+01	0	32	0	249036800	44	5758
2026-01-09 03:15:24.51	204.40	13.49	-34.4	-35.6	29.0	3.02e+01	0	32	0	251133952	44	5809
2026-01-09 03:15:25.52	204.52	13.58	-34.3	-35.5	29.2	3.02e+01	0	32	0	252706816	44	5780
2026-01-09 03:15:26.53	204.65	13.67	-34.4	-35.6	29.1	3.02e+01	0	32	0	254803968	44	5811
2026-01-09 03:15:27.54	204.77	13.77	-34.3	-35.5	29.2	3.02e+01	0	32	0	256376832	44	5754
2026-01-09 03:15:28.55	204.90	13.87	-34.3	-35.5	29.2	3.02e+01	0	32	0	258473984	44	5755
2026-01-09 03:15:29.56	205.03	13.96	-34.4	-35.6	29.1	3.02e+01	0	32	0	260571136	44	5795
2026-01-09 03:15:30.56	205.16	14.06	-34.2	-35.4	29.2	3.02e+01	0	32	0	262144000	44	5698
2026-01-09 03:15:31.57	205.29	14.15	-34.4	-35.6	29.1	3.02e+01	0	32	0	264241152	44	5827
2026-01-09 03:15:32.58	205.42	14.25	-34.2	-35.4	29.3	3.02e+01	0	32	0	266338304	44	5660
2026-01-09 03:15:33.59	205.55	14.35	-34.1	-35.3	29.3	3.02e+01	0	32	0	267911168	44	5624
2026-01-09 03:15:34.60	205.68	14.44	-34.2	-35.4	29.3	3.02e+01	0	32	0	270008320	44	5670
2026-01-09 03:15:35.61	205.81	14.54	-34.1	-35.3	29.3	3.02e+01	0	32	0	271581184	44	5655
2026-01-09 03:15:36.62	205.95	14.64	-34.1	-35.3	29.4	3.02e+01	0	32	0	273678336	44	5612
2026-01-09 03:15:37.63	206.08	14.74	-34.2	-35.4	29.3	3.02e+01	0	32	0	275775488	44	5676
2026-01-09 03:15:38.64	206.22	14.83	-34.1	-35.3	29.3	3.02e+01	0	32	0	277348352	44	5641
2026-01-09 03:15:39.65	206.36	14.93	-34.1	-35.3	29.4	3.02e+01	0	32	0	279445504	44	5640
2026-01-09 03:15:40.66	206.49	15.03	-34.0	-35.2	29.5	3.02e+01	0	32	0	281018368	44	5552
2026-01-09 03:15:41.67	206.63	15.13	-34.0	-35.2	29.5	3.02e+01	0	32	0	283115520	42	6230
2026-01-09 03:15:42.68	206.77	15.23	-34.0	-35.2	29.5	3.02e+01	0	32	0	285212672	42	6210
2026-01-09 03:15:43.68	206.91	15.33	-34.0	-35.2	29.5	3.02e+01	0	32	0	286785536	42	6259
2026-01-09 03:15:44.69	207.05	15.43	-34.1	-35.3	29.5	3.02e+01	0	32	0	288882688	42	6288
2026-01-09 03:15:45.70	207.20	15.53	-34.2	-35.4	29.3	3.02e+01	0	32	0	290979840	42	6390
2026-01-09 03:15:46.71	207.34	15.63	-34.1	-35.3	29.4	3.02e+01	0	32	0	292552704	42	6327
2026-01-09 03:15:47.72	207.48	15.73	-34.2	-35.4	29.3	3.02e+01	0	32	0	294649856	42	6379
2026-01-09 03:15:48.73	207.63	15.83	-34.1	-35.3	29.5	3.02e+01	0	32	0	296222720	42	6278
2026-01-09 03:15:49.74	207.78	15.94	-34.2	-35.4	29.4	3.02e+01	0	32	0	298319872	42	6360
2026-01-09 03:15:50.75	207.92	16.04	-34.0	-35.2	29.6	3.02e+01	0	32	0	300417024	42	6234
2026-01-09 03:15:51.76	208.07	16.14	-34.0	-35.2	29.5	3.02e+01	0	32	0	301989888	42	6246
2026-01-09 03:15:52.77	208.22	16.24	-34.0	-35.2	29.5	3.02e+01	0	32	0	304087040	42	6272
2026-01-09 03:15:53.78	208.37	16.35	-34.0	-35.2	29.5	3.02e+01	0	32	0	305659904	42	6216
2026-01-09 03:15:54.79	208.53	16.45	-34.2	-35.3	29.3	3.02e+01	0	32	0	307757056	42	6349
2026-01-09 03:15:55.79	208.68	16.55	-34.0	-35.1	29.6	3.02e+01	0	32	0	309854208	42	6205
2026-01-09 03:15:56.80	208.83	16.65	-33.9	-35.1	29.6	3.02e+01	0	32	0	311427072	42	6159
2026-01-09 03:15:57.81	208.99	16.76	-33.9	-35.1	29.5	3.02e+01	0	32	0	313524224	42	6182
2026-01-09 03:15:58.82	209.14	16.86	-34.0	-35.2	29.6	3.02e+01	0	32	0	315097088	42	6212
2026-01-09 03:15:59.83	209.30	16.97	-34.1	-35.3	29.5	3.02e+01	0	32	0	317194240	42	6307
2026-01-09 03:16:00.84	209.46	17.07	-34.1	-35.3	29.4	3.02e+01	0	32	0	319291392	42	6319
2026-01-09 03:16:01.84	209.62	17.18	-34.1	-35.3	29.5	3.02e+01	0	32	0	320864256	42	6323
2026-01-09 03:16:02.85	209.78	17.28	-34.2	-35.4	29.4	3.02e+01	0	32	0	322961408	42	6356
2026-01-09 03:16:03.86	209.94	17.39	-34.0	-35.1	29.6	3.02e+01	0	32	0	324534272	42	6203
2026-01-09 03:16:04.87	210.10	17.49	-34.0	-35.2	29.6	3.02e+01	0	32	0	326631424	42	6231
2026-01-09 03:16:05.87	210.27	17.60	-33.9	-35.0	29.6	3.02e+01	0	32	0	328728576	42	6127
2026-01-09 03:16:06.88	210.43	17.71	-34.0	-35.2	29.5	3.02e+01	0	32	0	330301440	42	6256
2026-01-09 03:16:07.89	210.60	17.81	-34.1	-35.4	29.4	3.02e+01	0	32	0	332398592	42	6353
2026-01-09 03:16:08.90	210.77	17.92	-34.1	-35.3	29.4	3.02e+01	0	32	0	334495744	42	6343
2026-01-09 03:16:09.91	210.94	18.03	-34.1	-35.3	29.5	3.02e+01	0	32	0	336068608	42	6327
2026-01-09 03:16:10.92	211.11	18.14	-34.0	-35.2	29.5	3.02e+01	0	32	0	338165760	42	6263
2026-01-09 03:16:11.93	211.28	18.24	-34.1	-35.2	29.6	3.02e+01	0	32	0	339738624	42	6275
2026-01-09 03:16:12.95	211.45	18.35	-34.0	-35.2	29.6	3.02e+01	0	32	0	341835776	42	6228
2026-01-09 03:16:13.95	211.63	18.46	-34.2	-35.4	29.4	3.02e+01	0	32	0	343932928	42	6400
2026-01-09 03:16:14.96	211.80	18.57	-33.9	-35.1	29.6	3.02e+01	0	32	0	345505792	42	6187
2026-01-09 03:16:15.97	211.98	18.68	-34.0	-35.2	29.6	3.02e+01	0	32	0	347602944	42	6256
2026-01-09 03:16:16.98	212.16	18.79	-34.1	-35.3	29.5	3.02e+01	0	32	0	349175808	42	6291
2026-01-09 03:16:17.99	212.34	18.90	-34.1	-35.3	29.5	3.02e+01	0	32	0	351272960	42	6303
2026-01-09 03:16:19.00	212.52	19.01	-34.0	-35.2	29.6	3.02e+01	0	32	0	353370112	42	6215
2026-01-09 03:16:20.01	212.70	19.12	-34.0	-35.2	29.5	3.02e+01	0	32	0	354942976	42	6262
2026-01-09 03:16:21.02	212.88	19.23	-34.1	-35.3	29.6	3.02e+01	0	32	0	357040128	42	6288
2026-01-09 03:16:22.03	213.07	19.34	-34.1	-35.2	29.6	3.02e+01	0	32	0	358612992	42	6276
2026-01-09 03:16:23.04	213.26	19.45	-34.1	-35.3	29.5	3.02e+01	0	32	0	360710144	42	6284
2026-01-09 03:16:24.04	213.44	19.56	-34.1	-35.3	29.6	3.02e+01	0	32	0	362807296	42	6283
2026-01-09 03:16:25.05	213.63	19.68	-34.0	-35.2	29.6	3.02e+01	0	32	0	364380160	42	6259
2026-01-09 03:16:26.06	213.82	19.79	-33.9	-35.1	29.7	3.02e+01	0	32	0	366477312	42	6135
2026-01-09 03:16:27.07	214.01	19.90	-33.9	-35.1	29.6	3.02e+01	0	32	0	368050176	42	6162
2026-01-09 03:16:28.08	214.21	20.01	-34.0	-35.2	29.6	3.02e+01	0	32	0	370147328	42	6269
2026-01-09 03:16:29.09	214.40	20.13	-34.1	-35.3	29.5	3.02e+01	0	32	0	372244480	42	6281
2026-01-09 03:16:30.10	214.60	20.24	-34.1	-35.3	29.5	3.02e+01	0	32	0	373817344	42	6319
2026-01-09 03:16:31.11	214.80	20.35	-34.0	-35.2	29.5	3.02e+01	0	32	0	375914496	42	6268
2026-01-09 03:16:32.12	215.00	20.46	-33.9	-35.1	29.6	3.02e+01	0	32	0	377487360	42	6153
2026-01-09 03:16:33.13	215.20	20.58	-34.0	-35.2	29.6	3.02e+01	0	32	0	379584512	42	6236
2026-01-09 03:16:34.14	215.40	20.69	-33.9	-35.1	29.7	3.02e+01	0	32	0	381681664	42	6170
2026-01-09 03:16:35.15	215.60	20.81	-34.0	-35.2	29.6	3.02e+01	0	32	0	383254528	42	6239
2026-01-09 03:16:36.16	215.81	20.92	-34.0	-35.2	29.6	3.02e+01	0	32	0	385351680	42	6256
2026-01-09 03:16:37.17	216.02	21.04	-34.1	-35.3	29.5	3.02e+01	0	32	0	387448832	42	6311
2026-01-09 03:16:38.18	216.23	21.15	-34.0	-35.2	29.5	3.02e+01	0	32	0	389021696	42	6242
2026-01-09 03:16:39.19	216.44	21.27	-34.1	-35.3	29.5	3.02e+01	0	32	0	391118848	42	6335
2026-01-09 03:16:40.20	216.65	21.38	-34.0	-35.2	29.5	3.02e+01	0	32	0	392691712	42	6271
2026-01-09 03:16:41.21	216.86	21.50	-34.1	-35.3	29.5	3.02e+01	0	32	0	394788864	42	6304
2026-01-09 03:16:42.22	217.08	21.61	-34.0	-35.2	29.6	3.02e+01	0	32	0	396886016	42	6243
2026-01-09 03:16:43.23	217.29	21.73	-34.1	-35.3	29.5	3.02e+01	0	32	0	398458880	42	6296
2026-01-09 03:16:44.24	217.51	21.84	-34.0	-35.2	29.5	3.02e+01	0	32	0	400556032	42	6259
2026-01-09 03:16:45.24	217.73	21.96	-34.1	-35.3	29.5	3.02e+01	0	32	0	402653184	42	6335
2026-01-09 03:16:46.25	217.95	22.07	-34.2	-35.4	29.4	3.02e+01	0	32	0	404226048	42	6409
2026-01-09 03:16:47.26	218.17	22.19	-34.4	-35.6	29.2	3.02e+01	0	32	0	406323200	42	6537
2026-01-09 03:16:48.27	218.40	22.31	-34.2	-35.4	29.4	3.02e+01	0	32	0	407896064	42	6388
2026-01-09 03:16:49.28	218.63	22.42	-34.1	-35.3	29.5	3.02e+01	0	32	0	409993216	42	6343
2026-01-09 03:16:50.29	218.86	22.54	-34.1	-35.3	29.5	3.02e+01	0	32	0	411566080	42	6331
2026-01-09 03:16:51.30	219.09	22.66	-34.2	-35.4	29.4	3.02e+01	0	32	0	413663232	42	6419
2026-01-09 03:16:52.31	219.32	22.77	-34.3	-35.5	29.3	3.02e+01	0	32	0	415760384	42	6447
2026-01-09 03:16:53.32	219.55	22.89	-34.3	-35.5	29.4	3.02e+01	0	32	0	417333248	42	6429
2026-01-09 03:16:54.33	219.79	23.01	-34.2	-35.4	29.4	3.02e+01	0	32	0	419430400	42	6409
2026-01-09 03:16:55.34	220.03	23.13	-34.5	-35.7	29.3	3.02e+01	0	32	0	421003264	42	6609
2026-01-09 03:16:56.34	220.26	23.24	-34.5	-35.7	29.2	3.02e+01	0	32	0	423100416	42	6596
2026-01-09 03:16:57.36	220.51	23.36	-34.4	-35.6	29.2	3.02e+01	0	32	0	425197568	42	6543
2026-01-09 03:16:58.36	220.75	23.48	-34.2	-35.4	29.4	3.02e+01	0	32	0	426770432	42	6391
2026-01-09 03:16:59.37	220.99	23.60	-34.2	-35.4	29.4	3.02e+01	0	32	0	428867584	42	6384
2026-01-09 03:17:00.38	221.24	23.71	-34.3	-35.5	29.3	3.02e+01	0	32	0	430964736	42	6463
2026-01-09 03:17:01.39	221.49	23.83	-34.2	-35.4	29.4	3.02e+01	0	32	0	432537600	42	6373
2026-01-09 03:17:02.40	221.74	23.95	-34.1	-35.3	29.5	3.02e+01	0	32	0	434634752	42	6315
2026-01-09 03:17:03.41	221.99	24.07	-34.3	-35.5	29.4	3.02e+01	0	32	0	436207616	42	6453
2026-01-09 03:17:04.42	222.25	24.19	-34.4	-35.6	29.3	3.02e+01	0	32	0	438304768	42	6532
2026-01-09 03:17:05.43	222.51	24.30	-34.4	-35.6	29.2	3.02e+01	0	32	0	440401920	42	6554
2026-01-09 03:17:06.44	222.76	24.42	-34.3	-35.5	29.3	3.02e+01	0	32	0	441974784	42	6454
2026-01-09 03:17:07.44	223.02	24.54	-34.3	-35.5	29.4	3.02e+01	0	32	0	444071936	42	6467
2026-01-09 03:17:08.45	223.28	24.66	-34.3	-35.5	29.3	3.02e+01	0	32	0	445644800	42	6480
2026-01-09 03:17:09.46	223.55	24.77	-34.4	-35.6	29.3	3.02e+01	0	32	0	447741952	42	6526
2026-01-09 03:17:10.47	223.82	24.89	-34.4	-35.6	29.3	3.02e+01	0	32	0	449839104	42	6562
2026-01-09 03:17:11.48	224.09	25.01	-34.3	-35.5	29.4	3.02e+01	0	32	0	451411968	42	6442
2026-01-09 03:17:12.49	224.36	25.13	-34.4	-35.6	29.3	3.02e+01	0	32	0	453509120	42	6556
2026-01-09 03:17:13.50	224.63	25.25	-34.4	-35.7	29.2	3.02e+01	0	32	0	455606272	42	6575
2026-01-09 03:17:14.51	224.90	25.36	-34.4	-35.7	29.2	3.02e+01	0	32	0	457179136	42	6575
2026-01-09 03:17:15.51	225.18	25.48	-34.3	-35.5	29.3	3.02e+01	0	32	0	459276288	42	6449
2026-01-09 03:17:16.52	225.46	25.60	-34.3	-35.5	29.4	3.02e+01	0	32	0	460849152	42	6440
2026-01-09 03:17:17.53	225.74	25.71	-34.4	-35.6	29.3	3.02e+01	0	32	0	462946304	42	6568
2026-01-09 03:17:18.54	226.02	25.83	-34.3	-35.6	29.3	3.02e+01	0	32	0	464519168	42	6499
2026-01-09 03:17:19.55	226.31	25.95	-34.5	-35.7	29.3	3.02e+01	0	32	0	466616320	42	6608
2026-01-09 03:17:20.56	226.59	26.06	-34.5	-35.7	29.2	3.02e+01	0	32	0	468713472	42	6621
2026-01-09 03:17:21.57	226.88	26.18	-34.4	-35.6	29.3	3.02e+01	0	32	0	470286336	42	6507
2026-01-09 03:17:22.58	227.18	26.30	-34.3	-35.5	29.3	3.02e+01	0	32	0	472383488	42	6478
2026-01-09 03:17:23.59	227.47	26.41	-34.4	-35.6	29.3	3.02e+01	0	32	0	473956352	42	6566
2026-01-09 03:17:24.60	227.77	26.53	-34.3	-35.4	29.4	3.02e+01	0	32	0	476053504	42	6422
2026-01-09 03:17:25.61	228.07	26.65	-34.5	-35.7	29.2	3.02e+01	0	32	0	478150656	42	6595
2026-01-09 03:17:26.62	228.37	26.76	-34.3	-35.5	29.3	3.02e+01	0	32	0	479723520	42	6442
2026-01-09 03:17:27.63	228.67	26.88	-34.4	-35.6	29.2	3.02e+01	0	32	0	481820672	42	6561
2026-01-09 03:17:28.64	228.98	26.99	-34.4	-35.7	29.3	3.02e+01	0	32	0	483917824	42	6574
2026-01-09 03:17:29.65	229.28	27.11	-34.4	-35.6	29.3	3.02e+01	0	32	0	485490688	42	6502
2026-01-09 03:17:30.66	229.59	27.22	-34.4	-35.6	29.3	3.02e+01	0	32	0	487587840	42	6517
2026-01-09 03:17:31.67	229.90	27.33	-34.3	-35.5	29.4	3.02e+01	0	32	0	489160704	42	6449
2026-01-09 03:17:32.68	230.22	27.45	-34.5	-35.7	29.2	3.02e+01	0	32	0	491257856	42	6594
2026-01-09 03:17:33.69	230.54	27.56	-34.4	-35.6	29.2	3.02e+01	0	32	0	493355008	42	6549
2026-01-09 03:17:34.70	230.85	27.67	-34.4	-35.6	29.3	3.02e+01	0	32	0	494927872	42	6510
2026-01-09 03:17:35.71	231.18	27.78	-34.5	-35.7	29.3	3.02e+01	0	32	0	497025024	42	6602
2026-01-09 03:17:36.72	231.50	27.90	-34.7	-35.9	29.0	3.02e+01	0	32	0	499122176	42	6766
2026-01-09 03:17:37.73	231.82	28.01	-34.3	-35.5	29.4	3.02e+01	0	32	0	500695040	42	6460
2026-01-09 03:17:38.74	232.15	28.12	-34.4	-35.6	29.2	3.02e+01	0	32	0	502792192	42	6562
2026-01-09 03:17:39.75	232.48	28.23	-34.4	-35.6	29.3	3.02e+01	0	32	0	504365056	42	6511
2026-01-09 03:17:40.75	232.81	28.34	-34.5	-35.7	29.2	3.02e+01	0	32	0	506462208	42	6644
2026-01-09 03:17:41.76	233.15	28.45	-34.4	-35.6	29.3	3.02e+01	0	32	0	508559360	42	6546
2026-01-09 03:17:42.77	233.48	28.55	-34.4	-35.7	29.3	3.02e+01	0	32	0	510132224	42	6584
2026-01-09 03:17:43.78	233.82	28.66	-34.3	-35.5	29.3	3.02e+01	0	32	0	512229376	42	6479
2026-01-09 03:17:44.79	234.17	28.77	-34.5	-35.7	29.2	3.02e+01	0	32	0	513802240	42	6599
2026-01-09 03:17:45.80	234.51	28.88	-34.8	-36.1	29.0	3.02e+01	0	32	0	515899392	42	6892
2026-01-09 03:17:46.81	234.86	28.98	-34.7	-35.9	29.0	3.02e+01	0	32	0	517996544	42	6757
2026-01-09 03:17:47.82	235.21	29.09	-34.2	-35.4	29.5	3.02e+01	0	32	0	519569408	42	6393
2026-01-09 03:17:48.83	235.56	29.19	-34.2	-35.4	29.4	3.02e+01	0	32	0	521666560	42	6403
2026-01-09 03:17:49.84	235.91	29.30	-34.3	-35.5	29.4	3.02e+01	0	32	0	523239424	42	6447
2026-01-09 03:17:50.85	236.27	29.40	-34.4	-35.6	29.3	3.02e+01	0	32	0	525336576	42	6554
2026-01-09 03:17:51.85	236.62	29.50	-34.4	-35.6	29.4	3.02e+01	0	32	0	527433728	42	6541
2026-01-09 03:17:52.86	236.98	29.60	-34.2	-35.4	29.5	3.02e+01	0	32	0	529006592	42	6405
2026-01-09 03:17:53.87	237.34	29.71	-34.2	-35.4	29.5	3.02e+01	0	32	0	531103744	42	6395
2026-01-09 03:17:54.88	237.71	29.81	-34.1	-35.3	29.5	3.02e+01	0	32	0	532676608	42	6338
2026-01-09 03:17:55.89	238.08	29.91	-34.2	-35.4	29.4	3.02e+01	0	32	0	534773760	42	6393
2026-01-09 03:17:56.90	238.45	30.00	-34.3	-35.5	29.4	3.02e+01	0	32	0	536870912	42	6439
2026-01-09 03:17:57.91	238.82	30.10	-34.3	-35.6	29.4	3.02e+01	0	32	0	538443776	42	6503
2026-01-09 03:17:58.92	239.19	30.20	-34.2	-35.4	29.5	3.02e+01	0	32	0	540540928	42	6380
2026-01-09 03:17:59.92	239.56	30.29	-33.9	-35.1	29.7	3.02e+01	0	32	0	542113792	42	6151
2026-01-09 03:18:00.93	239.94	30.39	-34.1	-35.3	29.6	3.02e+01	0	32	0	544210944	42	6302
2026-01-09 03:18:01.94	240.32	30.48	-34.2	-35.4	29.4	3.02e+01	0	32	0	546308096	42	6377
2026-01-09 03:18:02.95	240.71	30.57	-34.2	-35.4	29.4	3.02e+01	0	32	0	547880960	42	6387
2026-01-09 03:18:03.96	241.09	30.67	-34.1	-35.3	29.6	3.02e+01	0	32	0	549978112	42	6330
2026-01-09 03:18:04.97	241.48	30.76	-34.3	-35.5	29.5	3.02e+01	0	32	0	552075264	42	6443
2026-01-09 03:18:05.98	241.87	30.85	-34.0	-35.2	29.7	3.02e+01	0	32	0	553648128	42	6252
2026-01-09 03:18:06.99	242.26	30.93	-34.1	-35.3	29.6	3.02e+01	0	32	0	555745280	42	6298
2026-01-09 03:18:08.00	242.66	31.02	-34.2	-35.4	29.5	3.02e+01	0	32	0	557318144	42	6387
2026-01-09 03:18:09.01	243.05	31.11	-34.1	-35.3	29.5	3.02e+01	0	32	0	559415296	42	6334
2026-01-09 03:18:10.02	243.45	31.19	-34.1	-35.3	29.5	3.02e+01	0	32	0	561512448	42	6300
2026-01-09 03:18:11.03	243.85	31.28	-34.0	-35.2	29.7	3.02e+01	0	32	0	563085312	42	6231
2026-01-09 03:18:12.04	244.25	31.36	-34.0	-35.2	29.6	3.02e+01	0	32	0	565182464	42	6263
2026-01-09 03:18:13.05	244.66	31.44	-33.9	-35.1	29.8	3.02e+01	0	32	0	567279616	42	6152
2026-01-09 03:18:14.06	245.07	31.52	-34.0	-35.2	29.6	3.02e+01	0	32	0	568852480	42	6243
2026-01-09 03:18:15.07	245.47	31.60	-34.0	-35.2	29.6	3.02e+01	0	32	0	570949632	42	6237
2026-01-09 03:18:16.07	245.88	31.67	-34.1	-35.3	29.6	3.02e+01	0	33	0	572522496	42	6323
2026-01-09 03:18:17.08	246.29	31.75	-34.1	-35.2	29.5	3.02e+01	0	32	0	574619648	42	6269
2026-01-09 03:18:18.09	246.71	31.82	-34.0	-35.2	29.7	3.02e+01	0	32	0	576192512	42	6251
2026-01-09 03:18:19.10	247.12	31.90	-33.9	-35.1	29.7	3.02e+01	0	32	0	578289664	42	6157
2026-01-09 03:18:20.11	247.54	31.97	-33.8	-35.0	29.8	3.02e+01	0	32	0	580386816	42	6103
2026-01-09 03:18:21.12	247.96	32.04	-33.8	-35.0	29.9	3.02e+01	0	32	0	581959680	42	6082
2026-01-09 03:18:22.13	248.38	32.11	-33.8	-35.0	29.8	3.02e+01	0	32	0	584056832	42	6068
2026-01-09 03:18:23.14	248.81	32.18	-33.8	-35.0	29.8	3.02e+01	0	32	0	585629696	42	6080
2026-01-09 03:18:24.15	249.23	32.24	-33.9	-35.0	29.7	3.02e+01	0	32	0	587726848	42	6117
2026-01-09 03:18:25.16	249.66	32.31	-33.8	-35.0	29.9	3.02e+01	0	32	0	589824000	42	6072
2026-01-09 03:18:26.17	250.09	32.37	-33.7	-34.9	30.0	3.02e+01	0	32	0	591396864	42	5995
2026-01-09 03:18:27.18	250.52	32.43	-33.9	-35.1	29.7	3.02e+01	0	32	0	593494016	42	6180
2026-01-09 03:18:28.19	250.95	32.49	-33.8	-35.0	29.8	3.02e+01	0	32	0	595591168	42	6105
2026-01-09 03:18:29.20	251.39	32.55	-33.9	-35.1	29.7	3.02e+01	0	32	0	597164032	42	6185
2026-01-09 03:18:30.21	251.82	32.60	-33.8	-35.0	29.8	3.02e+01	0	32	0	599261184	42	6094
2026-01-09 03:18:31.22	252.26	32.66	-33.7	-34.9	30.0	3.02e+01	0	32	0	600834048	42	5996
2026-01-09 03:18:32.23	252.70	32.71	-33.7	-34.9	29.9	3.02e+01	0	32	0	602931200	42	6023
2026-01-09 03:18:33.24	253.14	32.76	-33.8	-35.0	29.8	3.02e+01	0	32	0	605028352	42	6080
2026-01-09 03:18:34.25	253.58	32.81	-33.7	-34.9	29.9	3.02e+01	0	32	0	606601216	42	6021
2026-01-09 03:18:35.25	254.02	32.86	-33.7	-34.9	29.9	3.02e+01	0	32	0	608698368	42	5996
2026-01-09 03:18:36.26	254.46	32.90	-33.7	-34.8	30.0	3.02e+01	0	32	0	610271232	42	5986
2026-01-09 03:18:37.27	254.90	32.95	-33.6	-34.8	29.9	3.02e+01	0	32	0	612368384	42	5974
2026-01-09 03:18:38.28	255.35	32.99	-33.8	-34.9	29.9	3.02e+01	0	32	0	614465536	42	6052
2026-01-09 03:18:39.29	255.80	33.03	-33.5	-34.7	30.1	3.02e+01	0	32	0	616038400	42	5878
2026-01-09 03:18:40.30	256.25	33.07	-33.9	-35.1	29.8	3.02e+01	0	32	0	618135552	42	6140
2026-01-09 03:18:41.31	256.70	33.11	-33.6	-34.7	30.1	3.02e+01	0	32	0	620232704	42	5913
2026-01-09 03:18:42.32	257.15	33.14	-33.5	-34.6	30.1	3.02e+01	0	32	0	621805568	42	5835
2026-01-09 03:18:43.33	257.60	33.17	-33.4	-34.6	30.1	3.02e+01	0	32	0	623902720	42	5822
2026-01-09 03:18:44.34	258.05	33.21	-33.4	-34.6	30.2	3.02e+01	0	32	0	625475584	42	5799
2026-01-09 03:18:45.35	258.50	33.24	-33.5	-34.7	30.0	3.02e+01	0	32	0	627572736	42	5903
2026-01-09 03:18:46.36	258.96	33.26	-33.4	-34.5	30.1	3.02e+01	0	32	0	629669888	42	5788
2026-01-09 03:18:47.36	259.41	33.29	-33.8	-35.0	29.9	3.02e+01	0	32	0	631242752	42	6068
2026-01-09 03:18:48.37	259.86	33.31	-33.7	-34.9	30.0	3.02e+01	0	32	0	633339904	42	5999
2026-01-09 03:18:49.38	260.32	33.33	-33.3	-34.5	30.2	3.02e+01	0	32	0	634912768	42	5741
2026-01-09 03:18:50.39	260.77	33.35	-33.4	-34.5	30.2	3.02e+01	0	32	0	637009920	42	5780
2026-01-09 03:18:51.40	261.23	33.37	-33.4	-34.6	30.2	3.02e+01	0	32	0	639107072	42	5797
2026-01-09 03:18:52.41	261.69	33.39	-33.5	-34.7	30.0	3.02e+01	0	32	0	640679936	42	5910
2026-01-09 03:18:53.42	262.15	33.40	-33.5	-34.6	30.1	3.02e+01	0	32	0	642777088	42	5851
2026-01-09 03:18:54.43	262.61	33.41	-33.3	-34.5	30.3	3.02e+01	0	32	0	644349952	42	5726
2026-01-09 03:18:55.44	263.06	33.42	-33.3	-34.5	30.2	3.02e+01	0	32	0	646447104	42	5771
2026-01-09 03:18:56.45	263.52	33.43	-33.5	-34.6	30.1	3.02e+01	0	32	0	648544256	42	5849
2026-01-09 03:18:57.46	263.98	33.44	-33.3	-34.5	30.2	3.02e+01	0	32	0	650117120	42	5733
2026-01-09 03:18:58.47	264.44	33.44	-33.2	-34.4	30.2	3.02e+01	0	32	0	652214272	42	5692
2026-01-09 03:18:59.47	264.90	33.45	-33.2	-34.4	30.3	3.02e+01	0	32	0	653787136	42	5686
2026-01-09 03:19:00.48	265.36	33.45	-33.3	-34.5	30.3	3.02e+01	0	32	0	655884288	42	5752
2026-01-09 03:19:01.49	265.81	33.44	-33.3	-34.4	30.3	3.02e+01	0	32	0	657981440	42	5711
2026-01-09 03:19:02.50	266.27	33.44	-33.3	-34.5	30.3	3.02e+01	0	32	0	659554304	42	5754
2026-01-09 03:19:03.51	266.73	33.44	-33.2	-34.3	30.3	3.02e+01	0	32	0	661651456	42	5643
2026-01-09 03:19:04.52	267.19	33.43	-33.3	-34.5	30.3	3.02e+01	0	32	0	663748608	42	5736
2026-01-09 03:19:05.52	267.65	33.42	-33.2	-34.3	30.3	3.02e+01	0	32	0	665321472	42	5633
2026-01-09 03:19:06.53	268.10	33.41	-33.1	-34.2	30.4	3.02e+01	0	32	0	667418624	42	5587
2026-01-09 03:19:07.54	268.56	33.39	-33.2	-34.4	30.3	3.02e+01	0	32	0	668991488	42	5660
2026-01-09 03:19:08.55	269.02	33.38	-33.2	-34.3	30.4	3.02e+01	0	32	0	671088640	42	5642
2026-01-09 03:19:09.56	269.48	33.36	-33.2	-34.4	30.3	3.02e+01	0	32	0	673185792	42	5682
2026-01-09 03:19:10.57	269.93	33.34	-33.0	-34.2	30.4	3.02e+01	0	32	0	674758656	42	5552
2026-01-09 03:19:11.58	270.39	33.32	-33.1	-34.3	30.5	3.02e+01	0	32	0	676855808	42	5615
2026-01-09 03:19:12.59	270.84	33.30	-33.2	-34.4	30.4	3.02e+01	0	32	0	678428672	42	5661
2026-01-09 03:19:13.60	271.30	33.27	-33.1	-34.3	30.4	3.02e+01	0	32	0	680525824	42	5605
2026-01-09 03:19:14.61	271.75	33.25	-32.8	-33.9	30.6	3.02e+01	0	32	0	682622976	40	6060
2026-01-09 03:19:15.61	272.20	33.22	-32.8	-33.9	30.7	3.02e+01	0	32	0	684195840	40	6025
2026-01-09 03:19:16.62	272.65	33.19	-33.0	-34.1	30.6	3.02e+01	0	32	0	686292992	40	6181
2026-01-09 03:19:17.64	273.11	33.15	-33.1	-34.3	30.4	3.02e+01	0	32	0	687865856	40	6312
2026-01-09 03:19:18.64	273.55	33.12	-33.1	-34.3	30.4	3.02e+01	0	32	0	689963008	40	6287
2026-01-09 03:19:19.65	274.00	33.08	-33.2	-34.4	30.2	3.02e+01	0	32	0	692060160	40	6379
2026-01-09 03:19:20.66	274.45	33.05	-32.9	-34.1	30.6	3.02e+01	0	32	0	693633024	40	6156
2026-01-09 03:19:21.67	274.90	33.01	-33.3	-34.5	30.2	3.02e+01	0	32	0	695730176	40	6449
2026-01-09 03:19:22.67	275.34	32.96	-33.0	-34.1	30.4	3.02e+01	0	32	0	697303040	40	6175
2026-01-09 03:19:23.68	275.78	32.92	-32.9	-34.0	30.6	3.02e+01	0	32	0	699400192	40	6123
2026-01-09 03:19:24.69	276.23	32.88	-32.7	-33.9	30.7	3.02e+01	0	32	0	701497344	40	6005
2026-01-09 03:19:25.70	276.67	32.83	-32.7	-33.9	30.7	3.02e+01	0	32	0	703070208	40	5996
2026-01-09 03:19:26.71	277.11	32.78	-32.8	-34.0	30.6	3.02e+01	0	32	0	705167360	40	6082
2026-01-09 03:19:27.72	277.55	32.73	-32.9	-34.0	30.6	3.02e+01	0	32	0	706740224	40	6114
2026-01-09 03:19:28.73	277.99	32.68	-32.8	-33.9	30.6	3.02e+01	0	32	0	708837376	40	6037
2026-01-09 03:19:29.74	278.43	32.62	-32.7	-33.8	30.8	3.02e+01	0	32	0	710934528	40	5957
2026-01-09 03:19:30.75	278.86	32.57	-32.7	-33.9	30.7	3.02e+01	0	32	0	712507392	40	6030
2026-01-09 03:19:31.76	279.29	32.51	-32.9	-34.0	30.5	3.02e+01	0	32	0	714604544	40	6116
2026-01-09 03:19:32.76	279.72	32.45	-32.7	-33.8	30.7	3.02e+01	0	32	0	716701696	40	5987
2026-01-09 03:19:33.77	280.15	32.39	-32.6	-33.8	30.7	3.02e+01	0	32	0	718274560	40	5940
2026-01-09 03:19:34.78	280.58	32.33	-32.8	-34.0	30.6	3.02e+01	0	32	0	720371712	40	6089
2026-01-09 03:19:35.79	281.01	32.27	-32.8	-33.9	30.7	3.02e+01	0	32	0	721944576	40	6059
2026-01-09 03:19:36.80	281.43	32.20	-32.7	-33.8	30.8	3.02e+01	0	32	0	724041728	40	5978
2026-01-09 03:19:37.81	281.86	32.14	-32.7	-33.8	30.7	3.02e+01	0	32	0	726138880	40	5963
2026-01-09 03:19:38.82	282.28	32.07	-32.7	-33.9	30.7	3.02e+01	0	32	0	727711744	40	6009
2026-01-09 03:19:39.83	282.70	32.00	-32.5	-33.6	31.0	3.02e+01	0	32	0	729808896	40	5827
2026-01-09 03:19:40.84	283.12	31.93	-32.6	-33.7	30.9	3.02e+01	0	32	0	731381760	40	5897
2026-01-09 03:19:41.84	283.53	31.86	-32.8	-34.0	30.6	3.02e+01	0	32	0	733478912	40	6081
2026-01-09 03:19:42.85	283.94	31.78	-32.8	-33.9	30.5	3.02e+01	0	32	0	735576064	40	6051
2026-01-09 03:19:43.86	284.36	31.71	-32.7	-33.9	30.7	3.02e+01	0	32	0	737148928	40	5996
2026-01-09 03:19:44.87	284.77	31.63	-32.6	-33.8	30.8	3.02e+01	0	32	0	739246080	40	5944
2026-01-09 03:19:45.88	285.17	31.55	-32.5	-33.6	30.9	3.02e+01	0	32	0	740818944	40	5846
2026-01-09 03:19:46.89	285.58	31.47	-32.7	-33.8	30.8	3.02e+01	0	32	0	742916096	40	5956
2026-01-09 03:19:47.90	285.99	31.39	-32.8	-33.9	30.6	3.02e+01	0	32	0	745013248	40	6049
2026-01-09 03:19:48.90	286.38	31.31	-32.5	-33.6	30.8	3.02e+01	0	32	0	746586112	40	5842
2026-01-09 03:19:49.91	286.78	31.23	-32.5	-33.7	30.9	3.02e+01	0	32	0	748683264	40	5862
2026-01-09 03:19:50.92	287.18	31.15	-32.5	-33.6	30.9	3.02e+01	0	32	0	750256128	40	5843
2026-01-09 03:19:51.93	287.58	31.06	-32.4	-33.6	30.9	3.02e+01	0	32	0	752353280	40	5809
2026-01-09 03:19:52.94	287.97	30.97	-32.5	-33.6	30.9	3.02e+01	0	32	0	754450432	40	5827
2026-01-09 03:19:53.95	288.36	30.89	-32.5	-33.7	30.9	3.02e+01	0	32	0	756023296	40	5877
2026-01-09 03:19:54.96	288.75	30.80	-32.5	-33.7	30.9	3.02e+01	0	32	0	758120448	40	5863
2026-01-09 03:19:55.97	289.14	30.71	-32.6	-33.7	30.8	3.02e+01	0	32	0	760217600	40	5883
2026-01-09 03:19:56.98	289.53	30.62	-32.5	-33.7	30.9	3.02e+01	0	32	0	761790464	40	5870
2026-01-09 03:19:57.99	289.91	30.53	-32.6	-33.7	30.9	3.02e+01	0	32	0	763887616	40	5897
2026-01-09 03:19:59.00	290.29	30.43	-32.4	-33.5	31.0	3.02e+01	0	32	0	765460480	40	5767
2026-01-09 03:20:00.01	290.67	30.34	-32.4	-33.6	30.9	3.02e+01	0	32	0	767557632	40	5802
2026-01-09 03:20:01.02	291.04	30.24	-32.5	-33.7	30.9	3.02e+01	0	32	0	769654784	40	5865
2026-01-09 03:20:02.02	291.41	30.15	-32.6	-33.7	30.8	3.02e+01	0	32	0	771227648	40	5921
2026-01-09 03:20:03.03	291.79	30.05	-32.6	-33.8	30.8	3.02e+01	0	32	0	773324800	40	5938
2026-01-09 03:20:04.04	292.16	29.95	-32.6	-33.8	30.8	3.02e+01	0	32	0	774897664	40	5941
2026-01-09 03:20:05.05	292.52	29.86	-32.6	-33.7	30.9	3.02e+01	0	32	0	776994816	40	5910
2026-01-09 03:20:06.06	292.89	29.76	-32.5	-33.6	30.8	3.02e+01	0	32	0	779091968	40	5848
2026-01-09 03:20:07.07	293.25	29.66	-32.5	-33.6	30.9	3.02e+01	0	32	0	780664832	40	5831
2026-01-09 03:20:08.08	293.61	29.56	-32.7	-33.8	30.7	3.02e+01	0	32	0	782761984	40	5967
2026-01-09 03:20:09.08	293.97	29.45	-32.7	-33.9	30.7	3.02e+01	0	32	0	784334848	40	6027
2026-01-09 03:20:10.09	294.32	29.35	-32.7	-33.8	30.7	3.02e+01	0	32	0	786432000	40	5977
2026-01-09 03:20:11.11	294.68	29.25	-32.7	-33.8	30.7	3.02e+01	0	32	0	788529152	40	5981
2026-01-09 03:20:12.11	295.02	29.14	-32.6	-33.7	30.8	3.02e+01	0	32	0	790102016	40	5905
2026-01-09 03:20:13.12	295.37	29.04	-32.7	-33.9	30.6	3.02e+01	0	32	0	792199168	40	6006
2026-01-09 03:20:14.13	295.72	28.93	-32.6	-33.8	30.7	3.02e+01	0	32	0	793772032	40	5948
2026-01-09 03:20:15.14	296.06	28.83	-32.7	-33.9	30.7	3.02e+01	0	32	0	795869184	40	6020
2026-01-09 03:20:16.15	296.41	28.72	-32.7	-33.9	30.7	3.02e+01	0	32	0	797966336	40	6027
2026-01-09 03:20:17.16	296.74	28.61	-32.8	-33.9	30.6	3.02e+01	0	32	0	799539200	40	6061
2026-01-09 03:20:18.17	297.08	28.51	-32.6	-33.8	30.7	3.02e+01	0	32	0	801636352	40	5927
2026-01-09 03:20:19.18	297.42	28.40	-32.6	-33.7	30.8	3.02e+01	0	32	0	803209216	40	5886
2026-01-09 03:20:20.19	297.75	28.29	-32.8	-33.9	30.7	3.02e+01	0	32	0	805306368	40	6035
2026-01-09 03:20:21.20	298.08	28.18	-32.9	-34.0	30.5	3.02e+01	0	32	0	807403520	40	6125
2026-01-09 03:20:22.20	298.40	28.07	-33.0	-34.2	30.4	3.02e+01	0	32	0	808976384	40	6225
2026-01-09 03:20:23.21	298.73	27.96	-32.8	-33.9	30.6	3.02e+01	0	32	0	811073536	40	6029
2026-01-09 03:20:24.22	299.05	27.85	-32.9	-34.1	30.5	3.02e+01	0	32	0	813170688	40	6154
2026-01-09 03:20:25.23	299.37	27.74	-33.0	-34.1	30.5	3.02e+01	0	32	0	814743552	40	6199
2026-01-09 03:20:26.24	299.69	27.63	-32.9	-34.0	30.5	3.02e+01	0	32	0	816840704	40	6109
2026-01-09 03:20:27.25	300.01	27.51	-33.0	-34.1	30.4	3.02e+01	0	32	0	818413568	40	6203
2026-01-09 03:20:28.26	300.32	27.40	-32.9	-34.1	30.5	3.02e+01	0	32	0	820510720	40	6174
2026-01-09 03:20:29.27	300.63	27.29	-33.0	-34.1	30.4	3.02e+01	0	32	0	822607872	40	6176
2026-01-09 03:20:30.28	300.94	27.18	-32.9	-34.1	30.5	3.02e+01	0	32	0	824180736	40	6136
2026-01-09 03:20:31.29	301.25	27.06	-33.0	-34.2	30.4	3.02e+01	0	32	0	826277888	40	6255
2026-01-09 03:20:32.30	301.56	26.95	-33.0	-34.2	30.3	3.02e+01	0	32	0	828375040	40	6250
2026-01-09 03:20:33.31	301.86	26.83	-33.1	-34.3	30.3	3.02e+01	0	32	0	829947904	40	6311
2026-01-09 03:20:34.32	302.16	26.72	-33.0	-34.1	30.5	3.02e+01	0	32	0	832045056	40	6205
2026-01-09 03:20:35.33	302.46	26.60	-33.0	-34.2	30.4	3.02e+01	0	32	0	833617920	40	6235
2026-01-09 03:20:36.34	302.75	26.49	-33.0	-34.2	30.4	3.02e+01	0	32	0	835715072	40	6210
2026-01-09 03:20:37.34	303.05	26.38	-33.1	-34.3	30.3	3.02e+01	0	32	0	837812224	40	6284
2026-01-09 03:20:38.35	303.34	26.26	-33.0	-34.1	30.5	3.02e+01	0	32	0	839385088	40	6187
2026-01-09 03:20:39.36	303.63	26.14	-33.1	-34.3	30.4	3.02e+01	0	32	0	841482240	40	6288
2026-01-09 03:20:40.37	303.92	26.03	-33.1	-34.3	30.3	3.02e+01	0	32	0	843055104	40	6313
2026-01-09 03:20:41.38	304.20	25.91	-33.2	-34.4	30.3	3.02e+01	0	32	0	845152256	40	6351
2026-01-09 03:20:42.39	304.48	25.80	-33.1	-34.2	30.3	3.02e+01	0	32	0	846725120	40	6272
2026-01-09 03:20:43.40	304.77	25.68	-33.1	-34.2	30.4	3.02e+01	0	32	0	848822272	40	6265
2026-01-09 03:20:44.41	305.04	25.56	-33.1	-34.2	30.4	3.02e+01	0	32	0	850919424	40	6272
2026-01-09 03:20:45.42	305.32	25.45	-33.1	-34.2	30.3	3.02e+01	0	32	0	852492288	40	6265
2026-01-09 03:20:46.43	305.60	25.33	-33.2	-34.3	30.3	3.02e+01	0	32	0	854589440	40	6344
2026-01-09 03:20:47.44	305.87	25.21	-33.2	-34.4	30.2	3.02e+01	0	32	0	856686592	40	6372
2026-01-09 03:20:48.44	306.14	25.10	-33.3	-34.4	30.2	3.02e+01	0	32	0	858259456	40	6414
2026-01-09 03:20:49.45	306.41	24.98	-33.1	-34.3	30.3	3.02e+01	0	32	0	860356608	40	6306
2026-01-09 03:20:50.46	306.67	24.86	-33.3	-34.4	30.2	3.02e+01	0	32	0	861929472	40	6398
2026-01-09 03:20:51.47	306.94	24.75	-33.1	-34.3	30.3	3.02e+01	0	32	0	864026624	40	6301
2026-01-09 03:20:52.48	307.20	24.63	-33.2	-34.4	30.3	3.02e+01	0	32	0	866123776	40	6388
2026-01-09 03:20:53.49	307.46	24.51	-33.2	-34.4	30.2	3.02e+01	0	32	0	867696640	40	6388
2026-01-09 03:20:54.50	307.72	24.39	-33.2	-34.4	30.2	3.02e+01	0	32	0	869793792	40	6380
2026-01-09 03:20:55.51	307.98	24.28	-33.1	-34.3	30.3	3.02e+01	0	32	0	871366656	40	6299
2026-01-09 03:20:56.52	308.23	24.16	-33.2	-34.4	30.2	3.02e+01	0	32	0	873463808	40	6378
2026-01-09 03:20:57.53	308.48	24.04	-33.1	-34.2	30.3	3.02e+01	0	32	0	875560960	40	6248
2026-01-09 03:20:58.54	308.73	23.92	-33.1	-34.2	30.4	3.02e+01	0	32	0	877133824	40	6251
2026-01-09 03:20:59.55	308.98	23.81	-33.1	-34.3	30.3	3.02e+01	0	32	0	879230976	40	6310
2026-01-09 03:21:00.55	309.23	23.69	-33.2	-34.4	30.1	3.02e+01	0	32	0	881328128	40	6397
2026-01-09 03:21:01.56	309.47	23.57	-33.3	-34.5	30.2	3.02e+01	0	32	0	882900992	40	6436
2026-01-09 03:21:02.57	309.72	23.46	-33.3	-34.5	30.2	3.02e+01	0	32	0	884998144	40	6440
2026-01-09 03:21:03.58	309.96	23.34	-33.2	-34.4	30.3	3.02e+01	0	32	0	886571008	40	6394
2026-01-09 03:21:04.59	310.20	23.22	-33.3	-34.5	30.1	3.02e+01	0	32	0	888668160	40	6425
2026-01-09 03:21:05.60	310.44	23.11	-33.3	-34.5	30.0	3.02e+01	0	32	0	890765312	40	6455
2026-01-09 03:21:06.61	310.67	22.99	-33.1	-34.3	30.2	3.02e+01	0	32	0	892338176	40	6302
2026-01-09 03:21:07.62	310.91	22.87	-33.2	-34.4	30.2	3.02e+01	0	32	0	894435328	40	6351
2026-01-09 03:21:08.63	311.14	22.76	-33.1	-34.3	30.3	3.02e+01	0	32	0	896008192	40	6286
2026-01-09 03:21:09.64	311.37	22.64	-33.2	-34.3	30.3	3.02e+01	0	32	0	898105344	40	6344
2026-01-09 03:21:10.64	311.59	22.53	-33.3	-34.5	30.1	3.02e+01	0	32	0	900202496	40	6434
2026-01-09 03:21:11.65	311.82	22.41	-33.2	-34.4	30.2	3.02e+01	0	32	0	901775360	40	6385
2026-01-09 03:21:12.66	312.05	22.29	-33.2	-34.4	30.2	3.02e+01	0	32	0	903872512	40	6380
2026-01-09 03:21:13.67	312.27	22.18	-33.2	-34.3	30.2	3.02e+01	0	32	0	905445376	40	6336
2026-01-09 03:21:14.68	312.49	22.06	-33.1	-34.2	30.4	3.02e+01	0	32	0	907542528	40	6249
2026-01-09 03:21:15.68	312.71	21.95	-33.2	-34.3	30.2	3.02e+01	0	32	0	909639680	40	6324
2026-01-09 03:21:16.69	312.93	21.83	-33.2	-34.3	30.2	3.02e+01	0	32	0	911212544	40	6339
2026-01-09 03:21:17.70	313.15	21.72	-33.0	-34.2	30.4	3.02e+01	0	32	0	913309696	40	6246
2026-01-09 03:21:18.71	313.36	21.60	-33.1	-34.2	30.3	3.02e+01	0	32	0	914882560	40	6271
2026-01-09 03:21:19.71	313.57	21.49	-32.9	-34.1	30.4	3.02e+01	0	32	0	916979712	40	6164
2026-01-09 03:21:20.72	313.79	21.38	-33.0	-34.1	30.4	3.02e+01	0	32	0	919076864	40	6205
2026-01-09 03:21:21.73	314.00	21.26	-33.0	-34.1	30.4	3.02e+01	0	32	0	920649728	40	6189
2026-01-09 03:21:22.74	314.20	21.15	-33.0	-34.2	30.3	3.02e+01	0	32	0	922746880	40	6214
2026-01-09 03:21:23.75	314.41	21.03	-33.2	-34.3	30.2	3.02e+01	0	32	0	924844032	40	6327
2026-01-09 03:21:24.76	314.62	20.92	-33.0	-34.2	30.3	3.02e+01	0	32	0	926416896	40	6212
2026-01-09 03:21:25.77	314.82	20.81	-33.0	-34.2	30.3	3.02e+01	0	32	0	928514048	40	6225
2026-01-09 03:21:26.78	315.02	20.69	-33.1	-34.2	30.3	3.02e+01	0	32	0	930086912	40	6273
2026-01-09 03:21:27.79	315.23	20.58	-33.1	-34.3	30.2	3.02e+01	0	32	0	932184064	40	6320
2026-01-09 03:21:28.80	315.43	20.47	-33.1	-34.2	30.3	3.02e+01	0	32	0	934281216	40	6264
2026-01-09 03:21:29.80	315.62	20.36	-33.2	-34.4	30.3	3.02e+01	0	32	0	935854080	40	6357
2026-01-09 03:21:30.81	315.82	20.24	-33.2	-34.4	30.2	3.02e+01	0	32	0	937951232	40	6373
2026-01-09 03:21:31.82	316.01	20.13	-33.0	-34.2	30.3	3.02e+01	0	32	0	939524096	40	6248
2026-01-09 03:21:32.83	316.21	20.02	-33.1	-34.3	30.1	3.02e+01	0	32	0	941621248	40	6311
2026-01-09 03:21:33.84	316.40	19.91	-33.1	-34.2	30.3	3.02e+01	0	32	0	943194112	40	6254
2026-01-09 03:21:34.85	316.59	19.80	-33.0	-34.2	30.3	3.02e+01	0	32	0	945291264	40	6231
2026-01-09 03:21:35.86	316.78	19.69	-32.9	-34.1	30.4	3.02e+01	0	32	0	947388416	40	6174
2026-01-09 03:21:36.87	316.97	19.57	-33.0	-34.2	30.3	3.02e+01	0	32	0	948961280	40	6229
2026-01-09 03:21:37.88	317.15	19.46	-32.9	-34.1	30.3	3.02e+01	0	32	0	951058432	40	6142
2026-01-09 03:21:38.89	317.34	19.35	-33.1	-34.3	30.2	3.02e+01	0	32	0	953155584	40	6318
2026-01-09 03:21:39.89	317.52	19.24	-32.9	-34.1	30.4	3.02e+01	0	32	0	954728448	40	6139
2026-01-09 03:21:40.91	317.71	19.13	-32.8	-34.0	30.5	3.02e+01	0	32	0	956825600	40	6086
2026-01-09 03:21:41.91	317.88	19.03	-32.8	-34.0	30.5	3.02e+01	0	32	0	958398464	40	6083
2026-01-09 03:21:42.92	318.06	18.92	-32.9	-34.1	30.5	3.02e+01	0	32	0	960495616	40	6152
2026-01-09 03:21:43.93	318.24	18.81	-32.9	-34.1	30.4	3.02e+01	0	32	0	962592768	40	6178
2026-01-09 03:21:44.94	318.42	18.70	-32.9	-34.1	30.3	3.02e+01	0	32	0	964165632	40	6150
2026-01-09 03:21:45.95	318.60	18.59	-33.1	-34.2	30.3	3.02e+01	0	32	0	966262784	40	6264
2026-01-09 03:21:46.96	318.77	18.48	-32.9	-34.1	30.4	3.02e+01	0	32	0	967835648	40	6163
2026-01-09 03:21:47.97	318.94	18.37	-33.0	-34.2	30.2	3.02e+01	0	32	0	969932800	40	6224
2026-01-09 03:21:48.98	319.12	18.27	-33.0	-34.2	30.2	3.02e+01	0	32	0	972029952	40	6228
2026-01-09 03:21:49.99	319.29	18.16	-33.2	-34.3	30.1	3.02e+01	0	32	0	973602816	40	6339
2026-01-09 03:21:51.00	319.46	18.05	-32.8	-34.0	30.4	3.02e+01	0	32	0	975699968	40	6072
2026-01-09 03:21:52.00	319.62	17.95	-32.8	-34.0	30.4	3.02e+01	0	32	0	977797120	40	6088
2026-01-09 03:21:53.01	319.79	17.84	-32.8	-33.9	30.5	3.02e+01	0	32	0	979369984	40	6040
2026-01-09 03:21:54.02	319.96	17.73	-32.9	-34.0	30.5	3.02e+01	0	32	0	981467136	40	6100
2026-01-09 03:21:55.03	320.12	17.63	-32.9	-34.0	30.4	3.02e+01	0	32	0	983040000	40	6119
2026-01-09 03:21:56.04	320.28	17.52	-32.9	-34.1	30.4	3.02e+01	0	32	0	985137152	40	6158
2026-01-09 03:21:57.04	320.45	17.42	-33.1	-34.3	30.2	3.02e+01	0	32	0	987234304	40	6282
2026-01-09 03:21:58.06	320.61	17.31	-32.9	-34.1	30.3	3.02e+01	0	32	0	988807168	40	6173
2026-01-09 03:21:59.06	320.77	17.21	-33.1	-34.2	30.2	3.02e+01	0	32	0	990904320	40	6272
2026-01-09 03:22:00.07	320.93	17.10	-32.9	-34.1	30.3	3.02e+01	0	32	0	992477184	40	6172
2026-01-09 03:22:01.08	321.08	17.00	-32.9	-34.0	30.3	3.02e+01	0	32	0	994574336	40	6116
2026-01-09 03:22:02.09	321.24	16.90	-32.9	-34.1	30.3	3.02e+01	0	32	0	996147200	40	6137
2026-01-09 03:22:03.10	321.40	16.79	-32.9	-34.1	30.2	3.02e+01	0	32	0	998244352	40	6138
2026-01-09 03:22:04.11	321.55	16.69	-32.9	-34.0	30.3	3.02e+01	0	32	0	1000341504	40	6131
2026-01-09 03:22:05.12	321.70	16.59	-33.1	-34.2	30.1	3.02e+01	0	32	0	1001914368	40	6259
2026-01-09 03:22:06.13	321.86	16.48	-33.0	-34.2	30.2	3.02e+01	0	32	0	1004011520	40	6224
2026-01-09 03:22:07.14	322.01	16.38	-32.8	-34.0	30.3	3.02e+01	0	32	0	1006108672	40	6067
2026-01-09 03:22:08.15	322.16	16.28	-32.8	-33.9	30.4	3.02e+01	0	32	0	1007681536	40	6064
2026-01-09 03:22:09.16	322.31	16.18	-32.8	-33.9	30.4	3.02e+01	0	32	0	1009778688	40	6052
2026-01-09 03:22:10.16	322.45	16.08	-32.8	-33.9	30.4	3.02e+01	0	32	0	1011351552	40	6058
2026-01-09 03:22:11.17	322.60	15.98	-33.0	-34.2	30.3	3.02e+01	0	32	0	1013448704	40	6224
2026-01-09 03:22:12.18	322.75	15.87	-33.0	-34.1	30.2	3.02e+01	0	32	0	1015545856	40	6189
2026-01-09 03:22:13.19	322.89	15.77	-33.1	-34.3	30.2	3.02e+01	0	32	0	1017118720	40	6282
2026-01-09 03:22:14.20	323.04	15.67	-33.2	-34.4	30.1	3.02e+01	0	32	0	1019215872	40	6396
2026-01-09 03:22:15.21	323.18	15.57	-33.1	-34.3	30.2	3.02e+01	0	32	0	1021313024	40	6303
2026-01-09 03:22:16.22	323.32	15.47	-33.2	-34.4	30.0	3.02e+01	0	32	0	1022885888	40	6391
2026-01-09 03:22:17.23	323.46	15.38	-33.3	-34.4	30.0	3.02e+01	0	32	0	1024983040	40	6422
2026-01-09 03:22:18.24	323.60	15.28	-33.2	-34.4	30.0	3.02e+01	0	32	0	1026555904	40	6376
2026-01-09 03:22:19.24	323.74	15.18	-33.0	-34.2	30.1	3.02e+01	0	32	0	1028653056	40	6214
2026-01-09 03:22:20.26	323.88	15.08	-33.2	-34.4	30.0	3.02e+01	0	32	0	1030750208	40	6381
2026-01-09 03:22:21.26	324.02	14.98	-33.1	-34.2	30.1	3.02e+01	0	32	0	1032323072	40	6267
2026-01-09 03:22:22.27	324.15	14.88	-33.1	-34.3	30.2	3.02e+01	0	32	0	1034420224	40	6284
2026-01-09 03:22:23.28	324.29	14.79	-33.2	-34.3	30.0	3.02e+01	0	32	0	1035993088	40	6330
2026-01-09 03:22:24.29	324.42	14.69	-33.2	-34.4	30.1	3.02e+01	0	32	0	1038090240	40	6405
2026-01-09 03:22:25.30	324.56	14.59	-33.2	-34.4	30.0	3.02e+01	0	32	0	1040187392	40	6403
2026-01-09 03:22:26.31	324.69	14.50	-33.1	-34.3	30.1	3.02e+01	0	32	0	1041760256	40	6315
2026-01-09 03:22:27.32	324.82	14.40	-33.2	-34.4	30.0	3.02e+01	0	32	0	1043857408	40	6373
2026-01-09 03:22:28.32	324.95	14.30	-33.2	-34.4	30.0	3.02e+01	0	32	0	1045430272	40	6370
2026-01-09 03:22:29.33	325.08	14.21	-33.2	-34.4	30.0	3.02e+01	0	32	0	1047527424	40	6375
2026-01-09 03:22:30.34	325.21	14.11	-33.3	-34.5	30.0	3.02e+01	0	32	0	1049624576	40	6439
2026-01-09 03:22:31.35	325.34	14.02	-33.3	-34.5	29.9	3.02e+01	0	32	0	1051197440	40	6451
2026-01-09 03:22:32.36	325.47	13.92	-33.2	-34.4	30.0	3.02e+01	0	32	0	1053294592	40	6408
2026-01-09 03:22:33.37	325.59	13.83	-33.3	-34.5	29.9	3.02e+01	0	32	0	1054867456	40	6480
2026-01-09 03:22:34.38	325.72	13.73	-33.5	-34.7	29.8	3.02e+01	0	32	0	1056964608	40	6578
2026-01-09 03:22:35.39	325.84	13.64	-33.4	-34.6	29.8	3.02e+01	0	32	0	1059061760	40	6514
2026-01-09 03:22:36.40	325.97	13.55	-33.3	-34.5	29.9	3.02e+01	0	32	0	1060634624	40	6424
2026-01-09 03:22:37.41	326.09	13.45	-33.3	-34.5	29.8	3.02e+01	0	32	0	1062731776	40	6450
2026-01-09 03:22:38.42	326.21	13.36	-33.4	-34.6	29.8	3.02e+01	0	32	0	1064304640	40	6549
2026-01-09 03:22:39.43	326.34	13.27	-33.4	-34.6	29.8	3.02e+01	0	32	0	1066401792	40	6542
2026-01-09 03:22:40.44	326.46	13.17	-33.3	-34.5	29.9	3.02e+01	0	32	0	1068498944	40	6446
2026-01-09 03:22:41.44	326.58	13.08	-33.3	-34.5	29.8	3.02e+01	0	32	0	1070071808	40	6461
2026-01-09 03:22:42.46	326.70	12.99	-33.5	-34.6	29.8	3.02e+01	0	32	0	1072168960	40	6562
2026-01-09 03:22:43.46	326.81	12.90	-33.4	-34.6	29.7	3.02e+01	0	32	0	1074266112	40	6539
2026-01-09 03:22:44.47	326.93	12.81	-33.5	-34.7	29.7	3.02e+01	0	32	0	1075838976	40	6579
2026-01-09 03:22:45.48	327.05	12.71	-33.5	-34.6	29.7	3.02e+01	0	32	0	1077936128	40	6550
2026-01-09 03:22:46.49	327.17	12.62	-33.3	-34.5	29.8	3.02e+01	0	32	0	1079508992	40	6446
2026-01-09 03:22:47.50	327.28	12.53	-33.3	-34.5	29.9	3.02e+01	0	32	0	1081606144	40	6458
2026-01-09 03:22:48.51	327.40	12.44	-33.3	-34.5	29.8	3.02e+01	0	32	0	1083703296	40	6449
2026-01-09 03:22:49.52	327.51	12.35	-33.4	-34.5	29.8	3.02e+01	0	32	0	1085276160	40	6482
2026-01-09 03:22:50.53	327.63	12.26	-33.4	-34.6	29.7	3.02e+01	0	32	0	1087373312	40	6502
2026-01-09 03:22:51.54	327.74	12.17	-33.4	-34.6	29.7	3.02e+01	0	32	0	1088946176	40	6529
2026-01-09 03:22:52.55	327.85	12.08	-33.4	-34.6	29.7	3.02e+01	0	32	0	1091043328	40	6512
2026-01-09 03:22:53.56	327.96	12.00	-33.6	-34.8	29.6	3.02e+01	0	32	0	1093140480	40	6698
2026-01-09 03:22:54.57	328.07	11.91	-33.7	-34.9	29.5	3.02e+01	0	32	0	1094713344	40	6792
2026-01-09 03:22:55.58	328.18	11.82	-33.7	-34.9	29.6	3.02e+01	0	32	0	1096810496	40	6774
2026-01-09 03:22:56.59	328.29	11.73	-33.7	-34.9	29.5	3.02e+01	0	32	0	1098383360	40	6777
2026-01-09 03:22:57.60	328.40	11.64	-33.8	-35.0	29.4	3.02e+01	0	32	0	1100480512	40	6880
2026-01-09 03:22:58.60	328.51	11.56	-33.8	-35.0	29.5	3.02e+01	0	32	0	1102577664	42	6073
2026-01-09 03:22:59.61	328.62	11.47	-33.9	-35.1	29.4	3.02e+01	0	32	0	1104150528	42	6159
2026-01-09 03:23:00.62	328.72	11.38	-34.0	-35.2	29.3	3.02e+01	0	32	0	1106247680	42	6224
2026-01-09 03:23:01.63	328.83	11.29	-33.8	-35.0	29.4	3.02e+01	0	32	0	1107820544	42	6081
2026-01-09 03:23:02.64	328.93	11.21	-33.8	-35.0	29.4	3.02e+01	0	32	0	1109917696	42	6127
2026-01-09 03:23:03.65	329.04	11.12	-33.8	-35.0	29.4	3.02e+01	0	32	0	1112014848	42	6084
2026-01-09 03:23:04.66	329.14	11.03	-33.9	-35.1	29.4	3.02e+01	0	32	0	1113587712	42	6190
2026-01-09 03:23:05.67	329.25	10.95	-33.9	-35.1	29.3	3.02e+01	0	32	0	1115684864	42	6179
2026-01-09 03:23:06.68	329.35	10.86	-34.0	-35.3	29.2	3.02e+01	0	32	0	1117782016	42	6294
2026-01-09 03:23:07.69	329.45	10.78	-34.1	-35.3	29.2	3.02e+01	0	32	0	1119354880	42	6295
2026-01-09 03:23:08.70	329.55	10.69	-34.1	-35.3	29.0	3.02e+01	0	32	0	1121452032	42	6348
2026-01-09 03:23:09.71	329.66	10.61	-34.2	-35.4	29.0	3.02e+01	0	32	0	1123024896	42	6381
2026-01-09 03:23:10.72	329.76	10.52	-34.2	-35.4	29.0	3.02e+01	0	32	0	1125122048	42	6389
2026-01-09 03:23:11.72	329.86	10.44	-34.1	-35.3	29.1	3.02e+01	0	32	0	1127219200	42	6308
2026-01-09 03:23:12.73	329.95	10.36	-34.1	-35.4	28.9	3.02e+01	0	32	0	1128792064	42	6352
2026-01-09 03:23:13.74	330.05	10.27	-34.1	-35.3	29.1	3.02e+01	0	32	0	1130889216	42	6319
2026-01-09 03:23:14.75	330.15	10.19	-34.2	-35.4	29.0	3.02e+01	0	32	0	1132462080	42	6368
2026-01-09 03:23:15.76	330.25	10.11	-34.2	-35.5	28.9	3.02e+01	0	32	0	1134559232	42	6435
2026-01-09 03:23:16.77	330.35	10.02	-34.4	-35.6	28.8	3.02e+01	0	32	0	1136656384	42	6566
2026-01-09 03:23:17.78	330.44	9.94	-34.3	-35.5	28.8	3.02e+01	0	32	0	1138229248	42	6481
2026-01-09 03:23:18.78	330.54	9.86	-34.2	-35.4	29.0	3.02e+01	0	32	0	1140326400	42	6372
2026-01-09 03:23:19.79	330.63	9.78	-34.3	-35.5	28.9	3.02e+01	0	32	0	1142423552	42	6487
2026-01-09 03:23:20.80	330.73	9.69	-34.3	-35.5	28.9	3.02e+01	0	32	0	1143996416	42	6450
2026-01-09 03:23:21.81	330.82	9.61	-34.7	-44.8	3.6	3.02e+01	0	32	104	1145044992	42	18812
2026-01-09 03:23:22.82	330.92	9.53	-34.7	-44.8	3.6	3.02e+01	0	32	104	1145044992	42	18853
2026-01-09 03:23:23.83	331.01	9.45	-34.7	-44.8	3.6	3.02e+01	0	32	104	1145044992	42	18950
2026-01-09 03:23:24.83	331.10	9.37	-36.1	-46.3	3.6	3.02e+01	0	32	104	1145044992	44	19865
2026-01-09 03:23:25.84	331.19	9.29	-39.8	-50.5	3.6	3.02e+01	0	32	104	1145044992	52	20372
2026-01-09 03:23:26.85	331.29	9.21	-46.5	-61.3	3.5	3.02e+01	0	32	104	1145044992	60	44804
2026-01-09 03:23:27.86	331.38	9.13	-46.5	-61.4	3.5	3.02e+01	0	32	104	1145044992	60	45293
2026-01-09 03:23:28.87	331.47	9.05	-37.7	-47.9	3.7	3.02e+01	0	32	104	1145044992	46	21493
2026-01-09 03:23:29.88	331.56	8.97	-35.5	-45.7	3.6	3.02e+01	0	32	104	1145044992	46	16520
2026-01-09 03:23:30.89	331.65	8.89	-35.2	-45.3	3.4	3.02e+01	0	32	104	1145044992	46	15785
2026-01-09 03:23:31.90	331.74	8.81	-35.1	-45.1	3.6	3.02e+01	0	32	104	1145044992	46	15576
2026-01-09 03:23:32.91	331.82	8.73	-35.3	-45.3	3.6	3.02e+01	0	32	104	1145044992	46	15929
2026-01-09 03:23:33.92	331.91	8.65	-36.1	-46.2	3.4	3.02e+01	0	32	104	1145044992	44	19731
2026-01-09 03:23:34.93	332.00	8.57	-38.6	-49.0	3.5	3.02e+01	0	32	104	1145044992	48	21558
2026-01-09 03:23:35.94	332.09	8.49	-46.3	-60.8	3.5	3.02e+01	0	32	104	1145044992	60	42365
2026-01-09 03:23:36.94	332.17	8.41	-46.7	-62.0	3.5	3.02e+01	0	32	104	1145044992	60	48515
2026-01-09 03:23:37.95	332.26	8.34	-39.4	-49.8	4.0	3.02e+01	0	32	104	1145044992	50	21218
2026-01-09 03:23:38.96	332.35	8.26	-35.9	-46.0	4.1	3.02e+01	0	32	104	1145044992	48	15302
2026-01-09 03:23:39.97	332.43	8.18	-35.7	-45.8	4.1	3.02e+01	0	32	104	1145044992	46	16765
2026-01-09 03:23:40.98	332.52	8.10	-35.7	-45.9	3.5	3.02e+01	0	32	104	1145044992	46	17003
2026-01-09 03:23:41.99	332.60	8.03	-35.3	-45.5	3.5	3.02e+01	0	32	104	1145044992	46	16228
2026-01-09 03:23:43.00	332.68	7.95	-37.7	-48.2	3.5	3.02e+01	0	32	104	1145044992	48	19683
2026-01-09 03:23:44.01	332.77	7.87	-40.3	-51.0	3.5	3.02e+01	0	32	104	1145044992	54	19393
2026-01-09 03:23:45.02	332.85	7.79	-46.7	-62.1	3.5	3.02e+01	0	32	104	1145044992	60	48918
2026-01-09 03:23:46.03	332.93	7.72	-47.1	-64.0	3.5	3.02e+01	0	32	104	1145044992	60	61294
2026-01-09 03:23:47.04	333.01	7.64	-40.0	-50.8	3.5	3.02e+01	0	33	104	1145044992	52	21140
2026-01-09 03:23:48.05	333.10	7.57	-38.8	-49.3	3.5	3.02e+01	0	32	104	1145044992	52	17895
2026-01-09 03:23:49.06	333.18	7.49	-38.9	-49.5	3.5	3.02e+01	0	32	104	1145044992	52	18108
2026-01-09 03:23:50.07	333.26	7.41	-38.8	-49.4	3.5	3.02e+01	0	32	104	1145044992	52	18011
2026-01-09 03:23:51.08	333.34	7.34	-39.0	-49.6	3.5	3.02e+01	0	32	104	1145044992	52	18467
2026-01-09 03:23:52.08	333.42	7.27	-35.5	-45.8	3.5	3.02e+01	0	32	104	1145044992	46	16817
2026-01-09 03:23:53.09	333.50	7.19	-39.3	-49.9	3.5	3.02e+01	0	32	104	1145044992	54	17003
2026-01-09 03:23:54.10	333.58	7.12	-46.3	-61.5	3.5	3.02e+01	0	32	104	1145044992	60	45642
