passes_logs/2026/01/09/R4.6S_Anadyr/R4.6S_Anadyr__20260109_225958_AQUA_rec.log

#Pass ID: 20260109_225958_AQUA
#Satellite: AQUA
#Configuration: AQUA
#almurnet v.1.7.20251203
#Start time: 2026-01-09 23:00:00

#Version: 2.2.20231116
#Station: R4.6S_Anadyr
#Location: 177.4865 lon 64.73178 lat
#TLE: 1 27424U 02022A   26009.00333547  .00001046  00000+0  21942-3 0  9998
#TLE: 2 27424  98.4075 335.3304 0002026  85.7625 349.1392 14.61808998260012

#Time	Az	El	Level	Level2	SNR	BER	BlckErr	Temp	State	Recorded	gain1	gain2
2026-01-09 23:00:00.90	83.58	0.12	-47.8	-60.4	3.5	1.52e+00	0	23	0	0	60	36623
2026-01-09 23:00:01.88	83.50	0.17	-48.3	-66.2	3.5	3.03e+01	0	24	104	0	60	78635
2026-01-09 23:00:02.85	83.43	0.22	-48.4	-66.2	3.5	3.03e+01	0	24	104	0	60	79026
2026-01-09 23:00:03.83	83.35	0.27	-48.2	-66.1	3.5	3.03e+01	0	24	104	0	60	77824
2026-01-09 23:00:04.82	83.27	0.33	-48.3	-66.1	3.5	3.03e+01	0	24	104	0	60	77441
2026-01-09 23:00:05.79	83.19	0.38	-48.3	-66.1	3.5	3.03e+01	0	24	104	0	60	77818
2026-01-09 23:00:06.77	83.11	0.43	-48.2	-66.1	3.5	3.03e+01	0	24	104	0	60	77747
2026-01-09 23:00:07.74	83.04	0.48	-48.4	-66.2	3.5	3.03e+01	0	24	104	0	60	78856
2026-01-09 23:00:08.72	82.96	0.53	-48.2	-66.1	3.5	3.03e+01	0	24	104	0	60	77506
2026-01-09 23:00:09.70	82.88	0.58	-48.3	-66.1	3.5	3.03e+01	0	24	104	0	60	78009
2026-01-09 23:00:10.68	82.80	0.63	-48.3	-66.2	3.5	3.03e+01	0	24	104	0	60	78552
2026-01-09 23:00:11.65	82.72	0.68	-48.3	-66.1	3.5	3.03e+01	0	24	104	0	60	77326
2026-01-09 23:00:12.63	82.64	0.73	-48.1	-66.1	3.5	3.03e+01	0	24	104	0	60	77321
2026-01-09 23:00:13.61	82.56	0.78	-47.1	-66.0	3.5	3.03e+01	0	24	104	0	60	76914
2026-01-09 23:00:14.59	82.48	0.84	-48.1	-65.9	3.5	3.03e+01	0	24	104	0	60	75871
2026-01-09 23:00:15.57	82.39	0.89	-46.4	-65.9	3.5	3.03e+01	0	24	104	0	60	75519
2026-01-09 23:00:16.55	82.31	0.94	-46.8	-65.6	3.5	3.03e+01	0	24	104	0	60	73722
2026-01-09 23:00:17.53	82.23	0.99	-47.2	-65.4	3.5	3.03e+01	0	24	104	0	60	71366
2026-01-09 23:00:18.50	82.15	1.04	-46.7	-64.8	3.5	3.03e+01	0	24	104	0	60	66744
2026-01-09 23:00:19.48	82.07	1.09	-46.6	-64.5	3.5	3.03e+01	0	24	104	0	60	64874
2026-01-09 23:00:20.46	81.98	1.14	-46.6	-64.5	3.5	3.03e+01	0	24	104	0	60	64706
2026-01-09 23:00:21.43	81.90	1.20	-46.6	-64.5	3.5	3.03e+01	0	24	104	0	60	64623
2026-01-09 23:00:22.41	81.82	1.25	-46.6	-64.5	3.5	3.03e+01	0	24	104	0	60	64658
2026-01-09 23:00:23.39	81.73	1.30	-46.6	-64.5	3.5	3.03e+01	0	24	104	0	60	64565
2026-01-09 23:00:24.37	81.65	1.35	-46.6	-64.5	3.5	3.03e+01	0	24	104	0	60	64356
2026-01-09 23:00:25.34	81.57	1.40	-46.6	-64.5	3.5	3.03e+01	0	24	104	0	60	64887
2026-01-09 23:00:26.32	81.48	1.45	-46.6	-64.5	3.5	3.03e+01	0	24	104	0	60	64496
2026-01-09 23:00:27.30	81.40	1.51	-46.6	-64.5	3.5	3.03e+01	0	24	104	0	60	64459
2026-01-09 23:00:28.28	81.31	1.56	-46.6	-64.5	3.5	3.03e+01	0	24	104	0	60	64427
2026-01-09 23:00:29.26	81.22	1.61	-46.6	-64.5	3.5	3.03e+01	0	24	104	0	60	64550
2026-01-09 23:00:30.23	81.14	1.66	-46.6	-64.5	3.5	3.03e+01	0	24	104	0	60	64582
2026-01-09 23:00:31.21	81.05	1.71	-46.6	-64.6	3.5	3.03e+01	0	24	104	0	60	65033
2026-01-09 23:00:32.18	80.97	1.77	-46.6	-64.4	3.5	3.03e+01	0	24	104	0	60	64177
2026-01-09 23:00:33.16	80.88	1.82	-46.6	-64.5	3.5	3.03e+01	0	24	104	0	60	64321
2026-01-09 23:00:34.13	80.79	1.87	-46.6	-64.4	3.5	3.03e+01	0	24	104	0	60	63934
2026-01-09 23:00:35.11	80.70	1.92	-46.5	-64.4	3.4	3.03e+01	0	24	104	0	60	63975
2026-01-09 23:00:36.09	80.62	1.97	-46.6	-64.5	3.5	3.03e+01	0	25	104	0	60	64645
2026-01-09 23:00:37.07	80.53	2.03	-46.6	-64.4	3.5	3.03e+01	0	24	104	0	60	64119
2026-01-09 23:00:38.04	80.44	2.08	-46.7	-64.5	3.5	3.03e+01	0	24	104	0	60	64917
2026-01-09 23:00:39.02	80.35	2.13	-46.6	-64.5	3.5	3.03e+01	0	24	104	0	60	64334
2026-01-09 23:00:40.00	80.26	2.18	-46.6	-64.4	3.5	3.03e+01	0	24	104	0	60	63915
2026-01-09 23:00:40.98	80.17	2.24	-46.6	-64.3	3.5	3.03e+01	0	24	104	0	60	63425
2026-01-09 23:00:41.96	80.08	2.29	-46.6	-64.2	3.5	3.03e+01	0	24	104	0	60	62671
2026-01-09 23:00:42.93	79.99	2.34	-46.5	-64.1	3.5	3.03e+01	0	24	104	0	60	61820
2026-01-09 23:00:43.91	79.90	2.39	-46.5	-64.2	3.5	3.03e+01	0	24	104	0	60	62215
2026-01-09 23:00:44.89	79.81	2.45	-46.5	-64.3	3.5	3.03e+01	0	24	104	0	60	62850
2026-01-09 23:00:45.86	79.72	2.50	-46.6	-64.5	3.5	3.03e+01	0	24	104	0	60	64240
2026-01-09 23:00:46.84	79.62	2.55	-46.6	-64.5	3.5	3.03e+01	0	24	104	0	60	64495
2026-01-09 23:00:47.82	79.53	2.61	-46.6	-64.4	3.5	3.03e+01	0	24	104	0	60	63656
2026-01-09 23:00:48.80	79.44	2.66	-46.6	-64.3	3.5	3.03e+01	0	24	104	0	60	63099
2026-01-09 23:00:49.78	79.34	2.71	-46.6	-64.4	3.5	3.03e+01	0	24	104	0	60	63710
2026-01-09 23:00:50.76	79.25	2.76	-46.6	-64.3	3.5	3.03e+01	0	24	104	0	60	63370
2026-01-09 23:00:51.73	79.16	2.82	-46.5	-63.8	3.5	3.03e+01	0	24	104	0	60	59906
2026-01-09 23:00:52.71	79.06	2.87	-46.4	-63.4	3.5	3.03e+01	0	24	104	0	60	57034
2026-01-09 23:00:53.69	78.97	2.92	-46.5	-63.7	3.5	3.03e+01	0	24	104	0	60	58739
2026-01-09 23:00:54.66	78.87	2.98	-46.6	-64.2	3.5	3.03e+01	0	24	104	0	60	62492
2026-01-09 23:00:55.64	78.78	3.03	-46.1	-62.2	3.5	3.03e+01	0	24	104	0	60	49470
2026-01-09 23:00:56.62	78.68	3.08	-44.6	-57.9	3.5	3.03e+01	0	25	104	0	60	30065
2026-01-09 23:00:57.59	78.58	3.14	-43.1	-55.1	3.5	3.03e+01	0	24	104	0	60	21797
2026-01-09 23:00:58.57	78.49	3.19	-41.5	-52.8	3.5	3.03e+01	0	25	104	0	58	18755
2026-01-09 23:00:59.55	78.39	3.24	-46.7	-63.5	3.5	3.03e+01	0	24	104	0	60	57615
2026-01-09 23:01:00.53	78.29	3.30	-46.7	-63.7	3.5	3.03e+01	0	25	104	0	60	59158
2026-01-09 23:01:01.50	78.20	3.35	-41.3	-52.8	3.5	3.03e+01	0	25	104	0	60	16782
2026-01-09 23:01:02.48	78.10	3.40	-38.5	-49.2	3.5	3.03e+01	0	24	104	0	56	13942
2026-01-09 23:01:03.46	78.00	3.46	-37.4	-47.9	3.4	3.03e+01	0	24	104	0	50	17091
2026-01-09 23:01:04.43	77.90	3.51	-45.1	-63.1	3.5	3.03e+01	0	24	104	0	60	55185
2026-01-09 23:01:05.41	77.80	3.56	-37.8	-48.4	3.5	3.03e+01	0	25	104	0	50	17926
2026-01-09 23:01:06.39	77.70	3.62	-38.1	-48.8	3.5	3.03e+01	0	24	104	0	50	18744
2026-01-09 23:01:07.36	77.60	3.67	-37.9	-48.5	3.5	3.03e+01	0	24	104	0	50	18236
2026-01-09 23:01:08.34	77.50	3.73	-36.9	-47.4	3.6	3.03e+01	0	25	104	0	50	15997
2026-01-09 23:01:09.32	77.40	3.78	-38.9	-49.6	3.6	3.03e+01	0	24	104	0	54	16324
2026-01-09 23:01:10.29	77.30	3.83	-40.5	-51.6	3.5	3.03e+01	0	24	104	0	58	16358
2026-01-09 23:01:11.27	77.19	3.89	-45.0	-59.0	3.5	3.03e+01	0	25	104	0	60	34366
2026-01-09 23:01:12.25	77.09	3.94	-38.7	-49.3	3.5	3.03e+01	0	25	104	0	56	14063
2026-01-09 23:01:13.23	76.99	3.99	-46.5	-64.2	3.5	3.03e+01	0	25	104	0	60	62411
2026-01-09 23:01:14.21	76.88	4.05	-39.4	-50.2	3.5	3.03e+01	0	24	104	0	54	17558
2026-01-09 23:01:15.19	76.78	4.10	-38.9	-49.5	3.5	3.03e+01	0	24	104	0	54	16315
2026-01-09 23:01:16.16	76.68	4.16	-38.7	-49.3	3.5	3.03e+01	0	25	104	0	52	17893
2026-01-09 23:01:17.14	76.57	4.21	-38.2	-48.8	3.6	3.03e+01	0	25	104	0	52	16808
2026-01-09 23:01:18.12	76.47	4.27	-42.3	-54.0	3.5	3.03e+01	0	24	104	0	58	21660
2026-01-09 23:01:19.09	76.36	4.32	-41.5	-52.6	3.6	3.03e+01	0	25	104	0	58	18525
2026-01-09 23:01:20.07	76.26	4.37	-46.6	-64.2	3.5	3.03e+01	0	24	104	0	60	62708
2026-01-09 23:01:21.04	76.15	4.43	-46.3	-63.6	3.5	3.03e+01	0	24	104	0	60	58490
2026-01-09 23:01:22.02	76.04	4.48	-40.7	-52.0	3.6	3.03e+01	0	25	104	0	54	21729
2026-01-09 23:01:23.00	75.94	4.54	-39.4	-50.1	3.5	3.03e+01	0	25	104	0	54	17474
2026-01-09 23:01:23.98	75.83	4.59	-39.1	-49.8	3.5	3.03e+01	0	24	104	0	52	18789
2026-01-09 23:01:24.95	75.72	4.64	-39.0	-49.7	3.5	3.03e+01	0	24	104	0	52	18583
2026-01-09 23:01:25.93	75.61	4.70	-38.8	-49.5	3.6	3.03e+01	0	24	104	0	52	18129
2026-01-09 23:01:26.90	75.50	4.75	-37.9	-48.5	3.5	3.03e+01	0	24	104	0	50	18192
2026-01-09 23:01:27.88	75.39	4.81	-40.5	-51.6	3.5	3.03e+01	0	25	104	0	54	20721
2026-01-09 23:01:28.86	75.28	4.86	-45.6	-59.7	3.5	3.03e+01	0	24	104	0	60	37213
2026-01-09 23:01:29.84	75.17	4.92	-41.1	-52.2	3.5	3.03e+01	0	25	104	0	58	17582
2026-01-09 23:01:30.82	75.06	4.97	-46.7	-64.4	3.5	3.03e+01	0	25	104	0	60	63976
2026-01-09 23:01:31.80	74.95	5.03	-40.2	-51.0	3.6	3.03e+01	0	25	104	0	56	17229
2026-01-09 23:01:32.77	74.84	5.08	-38.4	-49.0	3.5	3.03e+01	0	25	104	0	52	17101
2026-01-09 23:01:33.75	74.73	5.14	-38.2	-48.8	3.5	3.03e+01	0	25	104	0	52	16800
2026-01-09 23:01:34.73	74.61	5.19	-37.6	-48.1	3.6	3.03e+01	0	24	104	0	50	17408
2026-01-09 23:01:35.70	74.50	5.24	-40.5	-51.4	3.4	3.03e+01	0	25	104	0	50	25369
2026-01-09 23:01:36.68	74.39	5.30	-42.6	-54.3	3.5	3.03e+01	0	25	104	0	60	19886
2026-01-09 23:01:37.66	74.27	5.35	-43.5	-55.8	3.5	3.03e+01	0	25	104	0	54	33657
2026-01-09 23:01:38.64	74.16	5.41	-46.2	-64.4	3.5	3.03e+01	0	25	104	0	60	63703
2026-01-09 23:01:39.62	74.04	5.46	-41.8	-53.0	3.5	3.03e+01	0	25	104	0	60	17268
2026-01-09 23:01:40.60	73.93	5.52	-43.1	-54.9	3.6	3.03e+01	0	25	104	0	60	21472
2026-01-09 23:01:41.57	73.81	5.57	-42.6	-54.3	3.5	3.03e+01	0	24	104	0	60	19868
2026-01-09 23:01:42.55	73.69	5.63	-42.5	-54.2	3.5	3.03e+01	0	25	104	0	60	19645
2026-01-09 23:01:43.52	73.58	5.68	-41.3	-52.5	3.5	3.03e+01	0	25	104	0	58	18257
2026-01-09 23:01:44.50	73.46	5.74	-38.7	-49.4	3.5	3.03e+01	0	25	104	0	54	16004
2026-01-09 23:01:45.48	73.34	5.79	-38.0	-48.6	3.5	3.03e+01	0	25	104	0	50	18443
2026-01-09 23:01:46.45	73.22	5.85	-37.9	-48.6	3.5	3.03e+01	0	25	104	0	52	16363
2026-01-09 23:01:47.43	73.10	5.90	-44.1	-57.1	3.5	3.03e+01	0	25	104	0	60	27521
2026-01-09 23:01:48.41	72.98	5.96	-37.0	-47.5	3.5	3.03e+01	0	25	104	0	50	16163
2026-01-09 23:01:49.38	72.87	6.01	-44.2	-62.8	3.5	3.03e+01	0	25	104	0	60	52936
2026-01-09 23:01:50.36	72.74	6.07	-37.8	-48.3	3.6	3.03e+01	0	25	104	0	50	17880
2026-01-09 23:01:51.34	72.62	6.12	-37.5	-48.1	3.5	3.03e+01	0	25	104	0	50	17389
2026-01-09 23:01:52.31	72.50	6.18	-36.7	-47.3	3.5	3.03e+01	0	25	104	0	48	17710
2026-01-09 23:01:53.29	72.38	6.23	-36.3	-46.7	3.5	3.03e+01	0	25	104	0	48	16687
2026-01-09 23:01:54.27	72.26	6.29	-40.5	-51.3	3.5	3.03e+01	0	25	104	0	54	20016
2026-01-09 23:01:55.24	72.13	6.34	-39.1	-50.2	3.5	3.03e+01	0	25	104	0	56	15642
2026-01-09 23:01:56.22	72.01	6.40	-45.9	-65.0	3.5	3.03e+01	0	25	104	0	60	68545
2026-01-09 23:01:57.19	71.89	6.45	-45.2	-63.0	3.5	3.03e+01	0	25	104	0	60	54088
2026-01-09 23:01:58.17	71.76	6.51	-38.7	-49.8	3.6	3.03e+01	0	25	104	0	50	21112
2026-01-09 23:01:59.14	71.64	6.56	-38.1	-48.9	3.6	3.03e+01	0	25	104	0	50	19146
2026-01-09 23:02:00.12	71.51	6.62	-38.2	-49.0	3.5	3.03e+01	0	25	104	0	50	19209
2026-01-09 23:02:01.09	71.39	6.67	-38.2	-48.9	3.5	3.03e+01	0	25	104	0	50	19085
2026-01-09 23:02:02.07	71.26	6.73	-38.8	-49.7	3.6	3.03e+01	0	25	104	0	50	20889
2026-01-09 23:02:03.05	71.13	6.78	-36.5	-47.1	3.5	3.03e+01	0	25	104	0	48	17438
2026-01-09 23:02:04.02	71.00	6.84	-38.8	-50.2	3.5	3.03e+01	0	25	104	0	50	22036
2026-01-09 23:02:04.99	70.88	6.89	-46.8	-64.1	3.5	3.03e+01	0	25	104	0	60	61652
2026-01-09 23:02:05.97	70.75	6.95	-41.8	-53.2	3.5	3.03e+01	0	25	104	0	58	19640
2026-01-09 23:02:06.95	70.62	7.01	-47.0	-64.9	3.5	3.03e+01	0	25	104	0	60	67581
2026-01-09 23:02:07.93	70.49	7.06	-38.5	-49.0	3.5	3.03e+01	0	25	104	0	52	17196
2026-01-09 23:02:08.90	70.36	7.12	-37.2	-47.6	3.5	3.03e+01	0	25	104	0	50	16426
2026-01-09 23:02:09.88	70.23	7.17	-36.8	-47.2	3.5	3.03e+01	0	25	104	0	48	17601
2026-01-09 23:02:10.86	70.09	7.23	-36.5	-46.9	3.5	3.03e+01	0	25	104	0	48	17033
2026-01-09 23:02:11.83	69.96	7.28	-40.3	-51.4	3.5	3.03e+01	0	25	104	0	50	25378
2026-01-09 23:02:12.81	69.83	7.34	-37.2	-47.7	3.5	3.03e+01	0	25	104	0	46	20991
2026-01-09 23:02:13.79	69.70	7.39	-45.5	-61.0	3.5	3.03e+01	0	25	104	0	60	43263
2026-01-09 23:02:14.77	69.56	7.45	-41.3	-52.9	3.5	3.03e+01	0	25	104	0	58	19050
2026-01-09 23:02:15.75	69.43	7.50	-45.4	-58.7	3.5	3.03e+01	0	25	104	0	56	41799
2026-01-09 23:02:16.72	69.29	7.56	-39.9	-50.8	3.6	3.03e+01	0	25	104	0	56	16711
2026-01-09 23:02:17.70	69.16	7.61	-37.3	-47.9	3.5	3.03e+01	0	25	104	0	50	16961
2026-01-09 23:02:18.68	69.02	7.67	-37.1	-47.6	3.5	3.03e+01	0	25	104	0	50	16492
2026-01-09 23:02:19.66	68.88	7.72	-36.4	-46.9	3.5	3.03e+01	0	25	104	0	48	16913
2026-01-09 23:02:20.63	68.75	7.78	-38.1	-48.8	3.5	3.03e+01	0	25	104	0	46	23693
2026-01-09 23:02:21.61	68.61	7.83	-35.4	-45.7	3.5	3.03e+01	0	25	104	0	46	16624
2026-01-09 23:02:22.59	68.47	7.89	-38.8	-49.9	3.5	3.03e+01	0	25	104	0	48	23879
2026-01-09 23:02:23.57	68.33	7.94	-41.4	-53.3	3.5	3.03e+01	0	25	104	0	60	17814
2026-01-09 23:02:24.55	68.19	8.00	-39.2	-50.4	3.6	3.03e+01	0	25	104	0	48	25538
2026-01-09 23:02:25.52	68.05	8.05	-43.8	-58.9	3.5	3.03e+01	0	25	104	0	60	34070
2026-01-09 23:02:26.49	67.91	8.11	-40.8	-52.0	3.5	3.03e+01	0	25	104	0	56	19294
2026-01-09 23:02:27.47	67.77	8.16	-41.0	-52.2	3.5	3.03e+01	0	25	104	0	56	19744
2026-01-09 23:02:28.45	67.63	8.22	-40.4	-51.6	3.6	3.03e+01	0	25	104	0	56	18373
2026-01-09 23:02:29.42	67.48	8.27	-41.4	-53.3	3.5	3.03e+01	0	25	104	0	54	25087
2026-01-09 23:02:30.40	67.34	8.33	-46.0	-65.1	3.5	3.03e+01	0	25	104	0	60	69334
2026-01-09 23:02:31.38	67.20	8.38	-42.6	-54.4	3.6	3.03e+01	0	25	104	0	60	20173
2026-01-09 23:02:32.35	67.05	8.44	-42.7	-54.5	3.5	3.03e+01	0	25	104	0	58	22907
2026-01-09 23:02:33.33	66.91	8.49	-43.8	-56.9	3.6	3.03e+01	0	25	104	0	60	26914
2026-01-09 23:02:34.31	66.76	8.55	-36.4	-46.9	3.5	3.03e+01	0	25	104	0	46	19137
2026-01-09 23:02:35.28	66.62	8.60	-35.5	-46.0	3.5	3.03e+01	0	25	104	0	46	17164
2026-01-09 23:02:36.26	66.47	8.66	-35.1	-45.6	3.5	3.03e+01	0	25	104	0	46	16399
2026-01-09 23:02:37.24	66.32	8.71	-35.3	-45.7	3.6	3.03e+01	0	25	104	0	46	16533
2026-01-09 23:02:38.22	66.17	8.77	-35.0	-45.3	3.5	3.03e+01	0	25	104	0	46	15848
2026-01-09 23:02:39.19	66.03	8.82	-35.9	-46.3	3.5	3.03e+01	0	25	104	0	46	17728
2026-01-09 23:02:40.17	65.88	8.88	-37.6	-48.2	3.5	3.03e+01	0	25	104	0	50	17683
2026-01-09 23:02:41.15	65.73	8.93	-47.1	-63.8	3.5	3.03e+01	0	25	104	0	60	59375
2026-01-09 23:02:42.13	65.57	8.99	-43.7	-55.7	3.5	3.03e+01	0	25	104	0	60	23464
2026-01-09 23:02:43.10	65.42	9.04	-46.4	-64.9	3.5	3.03e+01	0	25	104	0	60	67349
2026-01-09 23:02:44.08	65.27	9.09	-42.9	-54.4	3.5	3.03e+01	0	25	104	0	60	20115
2026-01-09 23:02:45.05	65.12	9.15	-43.4	-55.3	3.5	3.03e+01	0	25	104	0	60	22499
2026-01-09 23:02:46.03	64.97	9.20	-42.9	-54.9	3.5	3.03e+01	0	25	104	0	60	21363
2026-01-09 23:02:47.01	64.81	9.26	-41.6	-53.1	3.5	3.03e+01	0	25	104	0	58	19472
2026-01-09 23:02:47.99	64.66	9.31	-38.3	-48.9	3.5	3.03e+01	0	25	104	0	52	16924
2026-01-09 23:02:48.97	64.50	9.37	-43.2	-65.2	3.5	3.03e+01	0	25	104	0	60	69732
2026-01-09 23:02:49.95	64.35	9.42	-40.9	-52.5	3.5	3.03e+01	0	25	104	0	52	25835
2026-01-09 23:02:50.93	64.19	9.48	-44.5	-65.0	3.5	3.03e+01	0	25	104	0	60	68067
2026-01-09 23:02:51.90	64.04	9.53	-35.7	-46.1	3.5	3.03e+01	0	25	104	0	46	17397
2026-01-09 23:02:52.88	63.88	9.58	-35.7	-46.3	3.5	3.03e+01	0	25	104	0	46	17792
2026-01-09 23:02:53.85	63.72	9.64	-35.8	-46.5	3.5	3.03e+01	0	25	104	0	46	18118
2026-01-09 23:02:54.82	63.56	9.69	-35.8	-46.6	3.5	3.03e+01	0	25	104	0	46	18511
2026-01-09 23:02:55.81	63.40	9.74	-35.5	-46.0	3.5	3.03e+01	0	25	104	0	46	17196
2026-01-09 23:02:56.78	63.24	9.80	-35.6	-46.3	3.5	3.03e+01	0	25	104	0	46	17741
2026-01-09 23:02:57.77	63.08	9.85	-35.8	-46.2	3.5	3.03e+01	0	25	104	0	44	19729
2026-01-09 23:02:58.74	62.92	9.90	-44.1	-57.4	3.5	3.03e+01	0	25	104	0	56	36107
2026-01-09 23:02:59.71	62.76	9.96	-43.8	-57.8	3.5	3.03e+01	0	25	104	0	60	29959
2026-01-09 23:03:00.69	62.60	10.01	-43.5	-56.2	3.5	3.03e+01	0	25	104	0	54	35230
2026-01-09 23:03:01.67	62.43	10.06	-45.4	-59.0	3.5	3.03e+01	0	25	104	0	60	34130
2026-01-09 23:03:02.65	62.27	10.12	-43.1	-54.8	3.5	3.03e+01	0	25	104	0	60	21046
2026-01-09 23:03:03.63	62.10	10.17	-43.3	-55.3	3.5	3.03e+01	0	25	104	0	60	22288
2026-01-09 23:03:04.60	61.94	10.22	-42.8	-54.7	3.5	3.03e+01	0	25	104	0	60	20796
2026-01-09 23:03:05.58	61.77	10.28	-42.4	-53.8	3.5	3.03e+01	0	25	104	0	58	21166
2026-01-09 23:03:06.56	61.61	10.33	-46.9	-62.2	3.5	3.03e+01	0	25	104	0	60	49673
2026-01-09 23:03:07.53	61.44	10.38	-39.0	-49.5	3.7	3.03e+01	0	25	104	0	60	11498
2026-01-09 23:03:08.50	61.27	10.43	-35.6	-45.9	3.5	3.03e+01	0	25	104	0	48	15185
2026-01-09 23:03:09.48	61.10	10.49	-35.6	-45.9	3.5	3.03e+01	0	25	104	0	44	19074
2026-01-09 23:03:10.46	60.94	10.54	-45.9	-60.2	3.5	3.03e+01	0	25	104	0	60	39472
2026-01-09 23:03:11.43	60.77	10.59	-35.9	-46.2	3.5	3.03e+01	0	25	104	0	48	15655
2026-01-09 23:03:12.41	60.60	10.64	-35.2	-45.5	3.5	3.03e+01	0	25	104	0	46	16145
2026-01-09 23:03:13.38	60.43	10.70	-34.8	-45.1	3.5	3.03e+01	0	25	104	0	44	17397
2026-01-09 23:03:14.36	60.25	10.75	-35.0	-45.2	3.5	3.03e+01	0	25	104	0	44	17655
2026-01-09 23:03:15.34	60.08	10.80	-40.5	-51.2	3.6	3.03e+01	0	25	104	0	60	14053
2026-01-09 23:03:16.32	59.91	10.85	-36.0	-46.3	3.5	3.03e+01	0	25	104	0	48	15864
2026-01-09 23:03:17.30	59.73	10.90	-46.8	-61.9	3.6	3.03e+01	0	25	104	0	60	47887
2026-01-09 23:03:18.28	59.56	10.96	-38.9	-49.6	3.5	3.03e+01	0	25	104	0	58	12983
2026-01-09 23:03:19.25	59.38	11.01	-47.6	-65.1	3.5	3.03e+01	0	25	104	0	60	68877
2026-01-09 23:03:20.23	59.21	11.06	-39.4	-50.0	3.5	3.03e+01	0	25	104	0	54	17256
2026-01-09 23:03:21.21	59.03	11.11	-39.7	-50.3	3.5	3.03e+01	0	25	104	0	54	17776
2026-01-09 23:03:22.18	58.85	11.16	-40.2	-50.9	3.5	3.03e+01	0	25	104	0	54	19085
2026-01-09 23:03:23.16	58.68	11.21	-37.9	-48.3	3.6	3.03e+01	0	25	104	0	52	15842
2026-01-09 23:03:24.14	58.50	11.26	-37.6	-48.1	3.5	3.03e+01	0	25	104	0	50	17301
2026-01-09 23:03:25.12	58.32	11.31	-47.4	-65.1	3.5	3.03e+01	0	25	104	0	60	69571
2026-01-09 23:03:26.09	58.14	11.36	-43.2	-54.9	3.5	3.03e+01	0	25	104	0	60	21401
2026-01-09 23:03:27.07	57.96	11.41	-47.3	-65.1	3.5	3.03e+01	0	25	104	0	60	69598
2026-01-09 23:03:28.05	57.78	11.46	-36.5	-46.8	3.5	3.03e+01	0	25	104	0	46	18891
2026-01-09 23:03:29.03	57.59	11.51	-35.9	-46.2	3.5	3.03e+01	0	25	104	0	46	17581
2026-01-09 23:03:30.00	57.41	11.56	-35.8	-46.0	3.5	3.03e+01	0	25	104	0	46	17272
2026-01-09 23:03:30.98	57.23	11.61	-35.3	-45.5	3.5	3.03e+01	0	25	104	0	46	16251
2026-01-09 23:03:31.96	57.04	11.66	-34.8	-45.0	3.5	3.03e+01	0	25	104	0	44	17101
2026-01-09 23:03:32.94	56.86	11.71	-35.3	-45.6	3.5	3.03e+01	0	25	104	0	44	18346
2026-01-09 23:03:33.91	56.68	11.76	-37.1	-47.5	3.5	3.03e+01	0	25	104	0	46	20447
2026-01-09 23:03:34.89	56.49	11.81	-46.3	-64.4	3.5	3.03e+01	0	25	104	0	60	63800
2026-01-09 23:03:35.86	56.30	11.86	-42.2	-53.4	3.5	3.03e+01	0	25	104	0	58	20103
2026-01-09 23:03:36.84	56.12	11.91	-46.5	-63.1	3.5	3.03e+01	0	25	104	0	60	54830
2026-01-09 23:03:37.81	55.93	11.96	-37.4	-48.1	3.5	3.03e+01	0	25	104	0	52	15535
2026-01-09 23:03:38.79	55.74	12.00	-36.0	-46.5	3.5	3.03e+01	0	25	104	0	48	16271
2026-01-09 23:03:39.77	55.55	12.05	-35.9	-46.2	3.5	3.03e+01	0	25	104	0	48	15720
2026-01-09 23:03:40.74	55.36	12.10	-36.1	-46.4	3.6	3.03e+01	0	25	104	0	46	18042
2026-01-09 23:03:41.72	55.17	12.15	-43.6	-55.9	3.5	3.03e+01	0	25	104	0	58	26962
2026-01-09 23:03:42.70	54.98	12.20	-43.5	-56.5	3.5	3.03e+01	0	25	104	0	60	25782
2026-01-09 23:03:43.68	54.79	12.24	-42.3	-53.5	3.5	3.03e+01	0	25	104	0	50	32277
2026-01-09 23:03:44.66	54.59	12.29	-47.5	-64.6	3.5	3.03e+01	0	25	104	0	60	65396
2026-01-09 23:03:45.63	54.40	12.34	-38.5	-48.9	3.5	3.03e+01	0	25	104	0	54	15198
2026-01-09 23:03:46.60	54.21	12.38	-39.4	-50.0	3.5	3.03e+01	0	25	104	0	54	17222
2026-01-09 23:03:47.58	54.01	12.43	-38.2	-48.6	3.5	3.03e+01	0	25	104	0	52	16441
2026-01-09 23:03:48.56	53.82	12.48	-36.6	-46.9	3.5	3.03e+01	0	25	104	0	48	16900
2026-01-09 23:03:49.54	53.62	12.52	-35.4	-45.7	3.5	3.03e+01	0	25	104	0	46	16608
2026-01-09 23:03:50.52	53.42	12.57	-34.5	-44.7	3.6	3.03e+01	0	25	104	0	44	16513
2026-01-09 23:03:51.50	53.23	12.61	-34.7	-44.8	3.5	3.03e+01	0	25	104	0	44	16890
2026-01-09 23:03:52.47	53.03	12.66	-36.5	-46.8	3.5	3.03e+01	0	25	104	0	46	18956
2026-01-09 23:03:53.44	52.83	12.70	-43.7	-56.2	3.5	3.03e+01	0	25	104	0	60	24976
2026-01-09 23:03:54.42	52.63	12.75	-35.8	-46.1	3.5	3.03e+01	0	25	104	0	50	13872
2026-01-09 23:03:55.40	52.43	12.79	-46.2	-59.9	3.5	3.03e+01	0	25	104	0	60	37846
2026-01-09 23:03:56.38	52.23	12.84	-36.6	-46.9	3.5	3.03e+01	0	25	104	0	48	17057
2026-01-09 23:03:57.36	52.03	12.88	-36.7	-47.1	3.5	3.03e+01	0	25	104	0	48	17339
2026-01-09 23:03:58.34	51.83	12.93	-36.8	-47.1	3.5	3.03e+01	0	25	104	0	48	17441
2026-01-09 23:03:59.31	51.63	12.97	-35.9	-46.2	3.5	3.03e+01	0	25	104	0	48	15667
2026-01-09 23:04:00.29	51.42	13.02	-41.7	-52.7	3.6	3.03e+01	0	25	104	0	60	16635
2026-01-09 23:04:01.27	51.22	13.06	-36.0	-46.3	3.5	3.03e+01	0	25	104	0	48	15897
2026-01-09 23:04:02.25	51.01	13.10	-47.2	-63.2	3.5	3.03e+01	0	25	104	0	60	55518
2026-01-09 23:04:03.22	50.81	13.14	-42.1	-53.3	3.5	3.03e+01	0	25	104	0	60	17813
2026-01-09 23:04:04.20	50.60	13.19	-47.3	-65.2	3.5	3.03e+01	0	25	104	0	60	69910
2026-01-09 23:04:05.18	50.40	13.23	-43.1	-54.5	3.5	3.03e+01	0	25	104	0	60	20349
2026-01-09 23:04:06.15	50.19	13.27	-41.2	-52.1	3.5	3.03e+01	0	25	104	0	58	17455
2026-01-09 23:04:07.13	49.98	13.31	-41.3	-52.2	3.5	3.03e+01	0	25	104	0	58	17650
2026-01-09 23:04:08.10	49.77	13.35	-41.2	-52.0	3.5	3.03e+01	0	25	104	0	56	19348
2026-01-09 23:04:09.08	49.56	13.40	-47.3	-65.2	3.5	3.03e+01	0	25	104	0	60	70324
2026-01-09 23:04:10.06	49.35	13.44	-46.9	-65.4	3.5	3.03e+01	0	25	104	0	60	71609
2026-01-09 23:04:11.03	49.15	13.48	-43.0	-54.4	3.5	3.03e+01	0	25	104	0	58	22572
2026-01-09 23:04:12.01	48.93	13.52	-47.4	-65.3	3.5	3.03e+01	0	25	104	0	60	70936
2026-01-09 23:04:12.99	48.72	13.56	-36.3	-46.5	3.5	3.03e+01	0	25	104	0	44	20543
2026-01-09 23:04:13.96	48.51	13.60	-36.0	-46.3	3.5	3.03e+01	0	25	104	0	46	17755
2026-01-09 23:04:14.94	48.30	13.64	-35.8	-46.1	3.5	3.03e+01	0	25	104	0	46	17334
2026-01-09 23:04:15.92	48.08	13.68	-35.3	-45.6	3.5	3.03e+01	0	25	104	0	46	16453
2026-01-09 23:04:16.90	47.87	13.72	-35.4	-45.6	3.5	3.03e+01	0	25	104	0	46	16417
2026-01-09 23:04:17.88	47.66	13.75	-34.5	-44.7	3.5	3.03e+01	0	25	104	0	44	16630
2026-01-09 23:04:18.85	47.44	13.79	-36.2	-46.5	3.5	3.03e+01	0	25	104	0	44	20404
2026-01-09 23:04:19.83	47.23	13.83	-47.1	-62.5	3.5	3.03e+01	0	25	104	0	60	51350
2026-01-09 23:04:20.81	47.01	13.87	-42.6	-54.0	3.5	3.03e+01	0	25	104	0	60	19206
2026-01-09 23:04:21.79	46.79	13.91	-45.1	-57.7	3.5	3.03e+01	0	25	104	0	56	37163
2026-01-09 23:04:22.77	46.57	13.94	-42.4	-53.6	3.5	3.03e+01	0	25	104	0	60	18357
2026-01-09 23:04:23.75	46.35	13.98	-39.5	-50.2	3.5	3.03e+01	0	25	104	0	54	17556
2026-01-09 23:04:24.73	46.13	14.02	-40.3	-51.0	3.5	3.03e+01	0	25	104	0	54	19327
2026-01-09 23:04:25.70	45.92	14.05	-40.5	-51.4	3.5	3.03e+01	0	25	104	0	54	20123
2026-01-09 23:04:26.68	45.70	14.09	-37.3	-47.8	3.5	3.03e+01	0	25	104	0	50	16749
2026-01-09 23:04:27.66	45.48	14.12	-46.1	-59.9	3.5	3.03e+01	0	25	104	0	60	37968
2026-01-09 23:04:28.63	45.26	14.16	-37.2	-47.5	3.5	3.03e+01	0	25	104	0	48	18312
2026-01-09 23:04:29.61	45.03	14.19	-45.5	-59.3	3.5	3.03e+01	0	25	104	0	60	35327
2026-01-09 23:04:30.59	44.81	14.23	-36.7	-47.1	3.5	3.03e+01	0	25	104	0	52	13794
2026-01-09 23:04:31.57	44.59	14.26	-36.5	-46.8	3.5	3.03e+01	0	25	104	0	48	16809
2026-01-09 23:04:32.55	44.36	14.29	-36.1	-46.4	3.5	3.03e+01	0	25	104	0	48	16039
2026-01-09 23:04:33.52	44.14	14.33	-35.3	-45.5	3.5	3.03e+01	0	25	104	0	46	16284
2026-01-09 23:04:34.50	43.92	14.36	-35.1	-45.3	3.5	3.03e+01	0	25	104	0	46	15813
2026-01-09 23:04:35.47	43.69	14.39	-34.5	-44.7	3.5	3.03e+01	0	25	104	0	44	16539
2026-01-09 23:04:36.45	43.47	14.42	-34.4	-44.6	3.5	3.03e+01	0	25	104	0	44	16417
2026-01-09 23:04:37.42	43.24	14.46	-35.2	-45.5	3.5	3.03e+01	0	25	104	0	46	16169
2026-01-09 23:04:38.40	43.02	14.49	-44.3	-56.4	3.5	3.03e+01	0	25	104	0	60	25416
2026-01-09 23:04:39.38	42.79	14.52	-36.0	-46.2	3.5	3.03e+01	0	25	104	0	50	13997
2026-01-09 23:04:40.36	42.56	14.55	-47.4	-63.5	3.5	3.03e+01	0	25	104	0	60	57420
2026-01-09 23:04:41.33	42.34	14.58	-36.6	-46.9	3.5	3.03e+01	0	25	104	0	48	16972
2026-01-09 23:04:42.31	42.11	14.61	-36.5	-46.7	3.5	3.03e+01	0	25	104	0	48	16664
2026-01-09 23:04:43.29	41.88	14.64	-35.6	-45.8	3.5	3.03e+01	0	25	104	0	46	16779
2026-01-09 23:04:44.27	41.65	14.67	-34.7	-44.9	3.5	3.03e+01	0	25	104	0	44	17028
2026-01-09 23:04:45.25	41.42	14.70	-37.0	-47.3	3.5	3.03e+01	0	25	104	0	50	15913
2026-01-09 23:04:46.23	41.19	14.72	-35.9	-46.2	3.5	3.03e+01	0	25	104	0	46	17527
2026-01-09 23:04:47.21	40.96	14.75	-47.4	-63.7	3.5	3.03e+01	0	25	104	0	60	58701
2026-01-09 23:04:48.19	40.72	14.78	-41.1	-52.0	3.5	3.03e+01	0	25	104	0	60	15253
2026-01-09 23:04:49.17	40.49	14.81	-47.7	-65.5	3.5	3.03e+01	0	25	104	0	60	72683
2026-01-09 23:04:50.15	40.26	14.83	-39.8	-50.3	3.5	3.03e+01	0	25	104	0	56	15936
2026-01-09 23:04:51.12	40.03	14.86	-39.3	-49.8	3.4	3.03e+01	0	25	104	0	54	16819
2026-01-09 23:04:52.10	39.79	14.88	-38.4	-48.8	3.6	3.03e+01	0	25	104	0	52	16832
2026-01-09 23:04:53.08	39.56	14.91	-36.5	-38.2	23.7	3.03e+01	59	25	104	0	48	6227
2026-01-09 23:04:54.06	39.33	14.93	-35.7	-37.0	27.8	3.03e+01	63	25	0	524288	46	6127
2026-01-09 23:04:55.04	39.09	14.96	-35.4	-36.7	28.0	3.03e+01	58	25	0	2621440	46	5877
2026-01-09 23:04:56.01	38.86	14.98	-35.0	-36.2	28.5	3.03e+01	61	25	0	4194304	46	5576
2026-01-09 23:04:56.99	38.62	15.01	-34.2	-35.4	29.2	3.03e+01	60	25	0	6291456	44	5700
2026-01-09 23:04:57.97	38.39	15.03	-33.9	-35.1	29.4	3.03e+01	61	25	0	7864320	42	6200
2026-01-09 23:04:58.94	38.15	15.05	-34.1	-35.3	29.3	3.03e+01	61	25	0	9961472	42	6292
2026-01-09 23:04:59.92	37.92	15.07	-34.2	-35.5	29.2	3.03e+01	51	25	0	11534336	42	6431
2026-01-09 23:05:00.90	37.68	15.10	-34.2	-35.4	29.2	3.03e+01	59	25	0	13631488	42	6396
2026-01-09 23:05:01.87	37.44	15.12	-34.1	-35.3	29.3	3.03e+01	60	25	0	15204352	42	6324
2026-01-09 23:05:02.85	37.20	15.14	-34.2	-35.4	29.2	3.03e+01	56	25	0	17301504	42	6416
2026-01-09 23:05:03.83	36.97	15.16	-34.2	-35.4	29.2	3.03e+01	58	25	0	18874368	42	6371
2026-01-09 23:05:04.81	36.73	15.18	-34.1	-35.3	29.2	3.03e+01	63	25	0	20447232	42	6345
2026-01-09 23:05:05.78	36.49	15.20	-34.4	-35.6	29.1	3.03e+01	61	25	0	22544384	42	6569
2026-01-09 23:05:06.76	36.25	15.22	-34.1	-35.3	29.3	3.03e+01	60	25	0	24117248	42	6325
2026-01-09 23:05:07.74	36.01	15.24	-34.3	-35.5	29.1	3.03e+01	57	25	0	26214400	42	6466
2026-01-09 23:05:08.71	35.77	15.25	-34.3	-35.5	29.1	3.03e+01	60	25	0	28311552	42	6455
2026-01-09 23:05:09.69	35.53	15.27	-34.1	-35.4	29.2	3.03e+01	58	25	0	29884416	42	6355
2026-01-09 23:05:10.67	35.29	15.29	-34.1	-35.3	29.3	3.03e+01	44	25	0	31981568	42	6319
2026-01-09 23:05:11.65	35.05	15.31	-34.3	-35.5	29.1	3.03e+01	59	25	0	33554432	42	6446
2026-01-09 23:05:12.62	34.81	15.32	-34.2	-35.4	29.2	3.03e+01	59	25	0	35651584	42	6382
2026-01-09 23:05:13.60	34.57	15.34	-34.0	-35.2	29.3	3.03e+01	56	25	0	37224448	42	6222
2026-01-09 23:05:14.58	34.33	15.35	-34.0	-35.2	29.4	3.03e+01	57	25	0	39321600	42	6236
2026-01-09 23:05:15.56	34.09	15.37	-34.1	-35.3	29.2	3.03e+01	45	25	0	40894464	42	6307
2026-01-09 23:05:16.54	33.85	15.38	-34.2	-35.4	29.1	3.03e+01	60	25	0	42991616	42	6382
2026-01-09 23:05:17.52	33.60	15.40	-34.2	-35.4	29.2	3.03e+01	57	25	0	44564480	42	6396
2026-01-09 23:05:18.50	33.36	15.41	-34.2	-35.4	29.2	3.03e+01	45	25	0	46137344	42	6423
2026-01-09 23:05:19.48	33.12	15.42	-34.1	-35.4	29.2	3.03e+01	57	25	0	48234496	42	6367
2026-01-09 23:05:20.45	32.88	15.44	-34.0	-35.2	29.4	3.03e+01	58	25	0	49807360	42	6223
2026-01-09 23:05:21.43	32.64	15.45	-34.0	-35.2	29.3	3.03e+01	45	25	0	51904512	42	6243
2026-01-09 23:05:22.41	32.39	15.46	-34.1	-35.3	29.2	3.03e+01	56	25	0	53477376	42	6323
2026-01-09 23:05:23.39	32.15	15.47	-34.1	-35.4	29.3	3.03e+01	60	25	0	55574528	42	6357
2026-01-09 23:05:24.37	31.90	15.48	-34.2	-35.4	29.1	3.03e+01	58	25	0	57671680	42	6414
2026-01-09 23:05:25.35	31.66	15.49	-34.2	-35.4	29.2	3.03e+01	60	25	0	59244544	42	6400
2026-01-09 23:05:26.32	31.42	15.50	-34.5	-35.7	28.9	3.03e+01	60	25	0	61341696	42	6615
2026-01-09 23:05:27.30	31.17	15.51	-34.7	-36.0	28.6	3.03e+01	60	25	0	62914560	42	6811
2026-01-09 23:05:28.28	30.93	15.52	-34.7	-36.0	28.7	3.03e+01	60	25	0	65011712	44	6087
2026-01-09 23:05:29.26	30.68	15.53	-35.2	-36.4	28.2	3.03e+01	44	25	0	66584576	44	6411
2026-01-09 23:05:30.23	30.44	15.53	-35.5	-36.8	27.9	3.03e+01	61	25	0	68157440	44	6674
2026-01-09 23:05:31.21	30.20	15.54	-34.8	-36.1	28.6	3.03e+01	58	25	0	70254592	44	6138
2026-01-09 23:05:32.19	29.95	15.55	-34.3	-35.5	29.0	3.03e+01	60	25	0	71827456	44	5784
2026-01-09 23:05:33.16	29.71	15.55	-34.3	-35.6	28.9	3.03e+01	58	25	0	73924608	44	5796
2026-01-09 23:05:34.14	29.46	15.56	-34.2	-35.4	29.2	3.03e+01	45	25	0	75497472	44	5696
2026-01-09 23:05:35.12	29.22	15.57	-34.0	-35.2	29.3	3.03e+01	61	25	0	77594624	44	5590
2026-01-09 23:05:36.09	28.98	15.57	-34.1	-35.3	29.2	3.03e+01	60	25	0	79167488	42	6335
2026-01-09 23:05:37.07	28.73	15.57	-34.1	-35.3	29.2	3.03e+01	49	25	0	81264640	42	6316
2026-01-09 23:05:38.05	28.48	15.58	-34.1	-35.3	29.2	3.03e+01	62	25	0	82837504	42	6337
2026-01-09 23:05:39.03	28.24	15.58	-34.2	-35.4	29.1	3.03e+01	63	25	0	84934656	42	6422
2026-01-09 23:05:40.00	28.00	15.58	-34.3	-35.5	29.1	3.03e+01	47	25	0	86507520	42	6467
2026-01-09 23:05:40.98	27.75	15.59	-34.3	-35.5	29.1	3.03e+01	57	25	0	88604672	42	6445
2026-01-09 23:05:41.95	27.51	15.59	-34.2	-35.4	29.2	3.03e+01	60	25	0	90177536	42	6421
2026-01-09 23:05:42.94	27.26	15.59	-34.0	-35.2	29.3	3.03e+01	60	25	0	92274688	42	6270
2026-01-09 23:05:43.91	27.01	15.59	-34.1	-35.3	29.2	3.03e+01	61	25	0	93847552	42	6346
2026-01-09 23:05:44.89	26.77	15.59	-34.2	-35.4	29.1	3.03e+01	45	25	0	95944704	42	6417
2026-01-09 23:05:45.87	26.52	15.59	-34.3	-35.6	29.0	3.03e+01	60	25	0	97517568	42	6511
2026-01-09 23:05:46.85	26.28	15.59	-34.4	-35.6	29.0	3.03e+01	54	25	0	99614720	42	6571
2026-01-09 23:05:47.83	26.03	15.59	-34.4	-35.6	28.9	3.03e+01	45	25	0	101187584	42	6569
2026-01-09 23:05:48.80	25.79	15.58	-34.1	-35.4	29.2	3.03e+01	60	25	0	103284736	42	6360
2026-01-09 23:05:49.78	25.54	15.58	-34.4	-35.6	29.0	3.03e+01	56	25	0	104857600	42	6541
2026-01-09 23:05:50.76	25.30	15.58	-34.1	-35.3	29.2	3.03e+01	44	25	0	106954752	42	6315
2026-01-09 23:05:51.74	25.05	15.58	-34.1	-35.4	29.2	3.03e+01	62	25	0	108527616	42	6369
2026-01-09 23:05:52.72	24.81	15.57	-34.2	-35.5	29.1	3.03e+01	59	25	0	110624768	42	6441
2026-01-09 23:05:53.70	24.56	15.57	-34.2	-35.4	29.2	3.03e+01	59	25	0	112197632	42	6371
2026-01-09 23:05:54.68	24.31	15.56	-34.3	-35.5	29.1	3.03e+01	59	25	0	114294784	42	6463
2026-01-09 23:05:55.66	24.07	15.56	-34.3	-35.5	29.1	3.03e+01	53	25	0	115867648	42	6463
2026-01-09 23:05:56.64	23.82	15.55	-34.3	-35.5	29.2	3.03e+01	58	25	0	117964800	42	6437
2026-01-09 23:05:57.61	23.58	15.54	-34.2	-35.4	29.2	3.03e+01	58	25	0	119537664	42	6354
2026-01-09 23:05:58.59	23.34	15.54	-34.2	-35.4	29.2	3.03e+01	50	25	0	121634816	42	6390
2026-01-09 23:05:59.57	23.09	15.53	-34.3	-35.5	29.1	3.03e+01	56	25	0	123207680	42	6438
2026-01-09 23:06:00.54	22.85	15.52	-34.3	-35.5	29.1	3.03e+01	60	25	0	125304832	42	6472
2026-01-09 23:06:01.52	22.61	15.51	-34.0	-35.3	29.3	3.03e+01	59	25	0	126877696	42	6296
2026-01-09 23:06:02.50	22.36	15.50	-34.2	-35.5	29.1	3.03e+01	60	25	0	128974848	42	6428
2026-01-09 23:06:03.47	22.12	15.50	-34.4	-35.6	29.0	3.03e+01	53	25	0	130547712	42	6540
2026-01-09 23:06:04.45	21.88	15.49	-34.2	-35.5	29.1	3.03e+01	58	25	0	132644864	42	6438
2026-01-09 23:06:05.43	21.63	15.48	-34.3	-35.6	29.1	3.03e+01	60	25	0	134217728	42	6519
2026-01-09 23:06:06.41	21.39	15.46	-34.2	-35.5	29.1	3.03e+01	51	25	0	136314880	42	6432
2026-01-09 23:06:07.39	21.14	15.45	-34.2	-35.5	29.2	3.03e+01	60	25	0	137887744	42	6434
2026-01-09 23:06:08.36	20.90	15.44	-34.1	-35.4	29.2	3.03e+01	58	25	0	139984896	42	6355
2026-01-09 23:06:09.33	20.66	15.43	-34.2	-35.4	29.2	3.03e+01	45	25	0	141557760	42	6411
2026-01-09 23:06:10.31	20.42	15.42	-34.3	-35.5	29.1	3.03e+01	57	25	0	143654912	42	6440
2026-01-09 23:06:11.29	20.18	15.40	-34.3	-35.5	29.1	3.03e+01	55	25	0	145227776	42	6488
2026-01-09 23:06:12.27	19.93	15.39	-34.3	-35.5	29.1	3.03e+01	62	25	0	147324928	42	6467
2026-01-09 23:06:13.25	19.69	15.37	-34.3	-35.5	29.1	3.03e+01	60	25	0	148897792	42	6450
2026-01-09 23:06:14.22	19.45	15.36	-34.1	-35.4	29.2	3.03e+01	60	25	0	150994944	42	6358
2026-01-09 23:06:15.20	19.21	15.34	-34.1	-35.3	29.2	3.03e+01	59	25	0	152567808	42	6348
2026-01-09 23:06:16.17	18.97	15.33	-34.1	-35.3	29.2	3.03e+01	56	25	0	154664960	42	6342
2026-01-09 23:06:17.15	18.73	15.31	-34.2	-35.4	29.1	3.03e+01	52	25	0	156237824	42	6420
2026-01-09 23:06:18.13	18.49	15.30	-34.2	-35.5	29.1	3.03e+01	59	25	0	158334976	42	6438
2026-01-09 23:06:19.10	18.25	15.28	-34.1	-35.3	29.2	3.03e+01	58	25	0	159907840	42	6301
2026-01-09 23:06:20.08	18.01	15.26	-34.0	-35.2	29.3	3.03e+01	44	25	0	162004992	42	6234
2026-01-09 23:06:21.06	17.77	15.24	-34.1	-35.3	29.2	3.03e+01	60	25	0	163577856	42	6349
2026-01-09 23:06:22.03	17.54	15.23	-34.1	-35.3	29.2	3.03e+01	60	25	0	165675008	42	6320
2026-01-09 23:06:23.01	17.30	15.21	-34.1	-35.4	29.2	3.03e+01	63	25	0	167247872	42	6359
2026-01-09 23:06:23.99	17.06	15.19	-34.4	-35.6	29.0	3.03e+01	58	25	0	169345024	42	6536
2026-01-09 23:06:24.96	16.82	15.17	-34.2	-35.4	29.2	3.03e+01	48	25	0	170917888	42	6381
2026-01-09 23:06:25.94	16.58	15.15	-34.4	-35.6	29.0	3.03e+01	58	25	0	173015040	42	6519
2026-01-09 23:06:26.92	16.35	15.13	-34.2	-35.4	29.1	3.03e+01	58	25	0	174587904	42	6416
2026-01-09 23:06:27.90	16.11	15.10	-34.2	-35.4	29.2	3.03e+01	46	25	0	176685056	42	6373
2026-01-09 23:06:28.87	15.87	15.08	-34.2	-35.4	29.1	3.03e+01	60	25	0	178257920	42	6417
2026-01-09 23:06:29.85	15.64	15.06	-34.1	-35.3	29.2	3.03e+01	60	25	0	180355072	42	6340
2026-01-09 23:06:30.83	15.40	15.04	-34.2	-35.4	29.2	3.03e+01	60	25	0	181927936	42	6384
2026-01-09 23:06:31.80	15.17	15.02	-34.2	-35.5	29.1	3.03e+01	58	25	0	184025088	42	6424
2026-01-09 23:06:32.78	14.93	14.99	-34.3	-35.5	29.0	3.03e+01	47	25	0	185597952	42	6450
2026-01-09 23:06:33.76	14.70	14.97	-34.3	-35.5	29.0	3.03e+01	58	25	0	187695104	42	6488
2026-01-09 23:06:34.74	14.46	14.94	-34.3	-35.5	29.0	3.03e+01	60	25	0	189267968	42	6485
2026-01-09 23:06:35.71	14.23	14.92	-34.2	-35.4	29.2	3.03e+01	46	25	0	191365120	42	6364
2026-01-09 23:06:36.69	14.00	14.89	-34.2	-35.5	29.1	3.03e+01	59	25	0	192937984	42	6429
2026-01-09 23:06:37.67	13.76	14.87	-34.1	-35.3	29.2	3.03e+01	60	25	0	195035136	42	6342
2026-01-09 23:06:38.65	13.53	14.84	-34.1	-35.3	29.2	3.03e+01	54	25	0	196608000	42	6343
2026-01-09 23:06:39.63	13.30	14.82	-34.2	-35.4	29.1	3.03e+01	59	25	0	198705152	42	6413
2026-01-09 23:06:40.61	13.06	14.79	-34.2	-35.5	29.1	3.03e+01	60	25	0	200278016	42	6426
2026-01-09 23:06:41.58	12.83	14.76	-34.1	-35.3	29.2	3.03e+01	60	25	0	202375168	42	6315
2026-01-09 23:06:42.57	12.60	14.73	-34.2	-35.4	29.1	3.03e+01	55	25	0	203948032	42	6375
2026-01-09 23:06:43.54	12.37	14.71	-34.2	-35.5	29.1	3.03e+01	43	25	0	206045184	42	6426
2026-01-09 23:06:44.52	12.14	14.68	-34.1	-35.3	29.2	3.03e+01	59	25	0	207618048	42	6312
2026-01-09 23:06:45.49	11.92	14.65	-34.2	-35.4	29.1	3.03e+01	60	25	0	209715200	42	6401
2026-01-09 23:06:46.47	11.69	14.62	-34.2	-35.4	29.1	3.03e+01	46	25	0	211288064	42	6391
2026-01-09 23:06:47.45	11.46	14.59	-34.3	-35.5	29.0	3.03e+01	54	25	0	213385216	42	6480
2026-01-09 23:06:48.43	11.23	14.56	-34.4	-35.6	29.0	3.03e+01	58	25	0	214958080	42	6562
2026-01-09 23:06:49.41	11.00	14.53	-34.0	-35.2	29.3	3.03e+01	45	25	0	217055232	42	6250
2026-01-09 23:06:50.38	10.78	14.50	-34.2	-35.4	29.2	3.03e+01	59	25	0	218628096	42	6368
2026-01-09 23:06:51.37	10.55	14.47	-34.1	-35.4	29.2	3.03e+01	62	25	0	220725248	42	6361
2026-01-09 23:06:52.34	10.32	14.44	-34.4	-35.6	29.0	3.03e+01	59	25	0	222298112	42	6532
2026-01-09 23:06:53.32	10.10	14.41	-34.1	-35.3	29.2	3.03e+01	58	25	0	224395264	42	6342
2026-01-09 23:06:54.29	9.87	14.37	-34.3	-35.5	29.1	3.03e+01	59	25	0	225968128	42	6466
2026-01-09 23:06:55.27	9.65	14.34	-34.2	-35.4	29.1	3.03e+01	59	25	0	228065280	42	6397
2026-01-09 23:06:56.25	9.43	14.31	-34.3	-35.5	29.0	3.03e+01	51	25	0	229638144	42	6472
2026-01-09 23:06:57.23	9.20	14.27	-34.4	-35.6	29.0	3.03e+01	46	25	0	231735296	42	6534
2026-01-09 23:06:58.21	8.98	14.24	-34.2	-35.4	29.1	3.03e+01	59	25	0	233308160	42	6386
2026-01-09 23:06:59.19	8.76	14.21	-34.3	-35.5	29.0	3.03e+01	61	25	0	235405312	42	6448
2026-01-09 23:07:00.17	8.53	14.17	-34.3	-35.5	29.0	3.03e+01	60	25	0	236978176	42	6457
2026-01-09 23:07:01.14	8.32	14.14	-34.2	-35.4	29.1	3.03e+01	58	25	0	239075328	42	6386
2026-01-09 23:07:02.12	8.09	14.10	-34.2	-35.5	29.1	3.03e+01	57	25	0	240648192	42	6430
2026-01-09 23:07:03.09	7.88	14.07	-34.1	-35.3	29.2	3.03e+01	57	25	0	242745344	42	6306
2026-01-09 23:07:04.08	7.65	14.03	-34.2	-35.5	29.1	3.03e+01	59	25	0	244318208	42	6424
2026-01-09 23:07:05.06	7.44	13.99	-34.2	-35.4	29.1	3.03e+01	51	25	0	246415360	42	6418
2026-01-09 23:07:06.04	7.22	13.96	-34.4	-35.6	28.9	3.03e+01	61	25	0	247988224	42	6556
2026-01-09 23:07:07.02	7.00	13.92	-34.2	-35.4	29.2	3.03e+01	58	25	0	250085376	42	6396
2026-01-09 23:07:07.99	6.78	13.88	-34.3	-35.5	29.0	3.03e+01	45	25	0	251658240	42	6454
2026-01-09 23:07:08.97	6.57	13.85	-34.3	-35.5	29.0	3.03e+01	59	25	0	253755392	42	6465
2026-01-09 23:07:09.95	6.35	13.81	-34.5	-35.7	28.9	3.03e+01	61	25	0	255328256	42	6612
2026-01-09 23:07:10.92	6.14	13.77	-34.6	-35.8	28.7	3.03e+01	60	25	0	257425408	42	6704
2026-01-09 23:07:11.90	5.92	13.73	-34.5	-35.7	28.9	3.03e+01	59	25	0	258998272	42	6603
2026-01-09 23:07:12.88	5.71	13.69	-34.2	-35.5	29.0	3.03e+01	52	25	0	261095424	42	6426
2026-01-09 23:07:13.86	5.49	13.65	-34.2	-35.4	29.1	3.03e+01	61	25	0	262668288	42	6412
2026-01-09 23:07:14.83	5.28	13.61	-34.2	-35.5	29.0	3.03e+01	60	25	0	264765440	42	6440
2026-01-09 23:07:15.81	5.07	13.58	-34.4	-35.6	28.9	3.03e+01	55	25	0	266338304	42	6515
2026-01-09 23:07:16.79	4.86	13.54	-34.5	-35.7	28.9	3.03e+01	60	25	0	268435456	42	6625
2026-01-09 23:07:17.76	4.65	13.50	-34.1	-35.3	29.2	3.03e+01	61	25	0	270008320	42	6328
2026-01-09 23:07:18.74	4.44	13.45	-34.2	-35.5	29.0	3.03e+01	48	25	0	272105472	42	6430
2026-01-09 23:07:19.72	4.23	13.41	-34.4	-35.6	28.9	3.03e+01	60	25	0	273678336	42	6531
2026-01-09 23:07:20.69	4.02	13.37	-34.3	-35.6	28.9	3.03e+01	58	25	0	275251200	42	6505
2026-01-09 23:07:21.67	3.81	13.33	-34.5	-35.8	28.7	3.03e+01	58	25	0	277348352	42	6686
2026-01-09 23:07:22.65	3.61	13.29	-34.5	-35.7	28.9	3.03e+01	59	25	0	278921216	42	6628
2026-01-09 23:07:23.63	3.40	13.25	-34.3	-35.5	29.0	3.03e+01	50	25	0	281018368	42	6466
2026-01-09 23:07:24.61	3.19	13.21	-34.4	-35.6	28.9	3.03e+01	59	25	0	282591232	42	6515
2026-01-09 23:07:25.59	2.98	13.16	-34.5	-35.8	28.8	3.03e+01	59	25	0	284688384	42	6651
2026-01-09 23:07:26.56	2.78	13.12	-34.2	-35.5	29.0	3.03e+01	54	25	0	286785536	42	6428
2026-01-09 23:07:27.54	2.58	13.08	-34.3	-35.5	29.0	3.03e+01	60	25	0	288358400	42	6484
2026-01-09 23:07:28.52	2.37	13.03	-34.3	-35.5	29.0	3.03e+01	59	25	0	290455552	42	6485
2026-01-09 23:07:29.49	2.17	12.99	-34.3	-35.5	29.1	3.03e+01	57	25	0	292028416	42	6453
2026-01-09 23:07:30.47	1.97	12.95	-34.4	-35.6	28.9	3.03e+01	57	25	0	294125568	42	6573
2026-01-09 23:07:31.45	1.77	12.90	-34.4	-35.7	28.9	3.03e+01	59	25	0	295698432	42	6588
2026-01-09 23:07:32.43	1.56	12.86	-34.5	-35.7	28.8	3.03e+01	60	25	0	297795584	42	6626
2026-01-09 23:07:33.40	1.37	12.82	-34.4	-35.6	28.8	3.03e+01	57	25	0	299368448	42	6557
2026-01-09 23:07:34.38	1.16	12.77	-34.3	-35.5	29.0	3.03e+01	61	25	0	300941312	42	6495
2026-01-09 23:07:35.36	0.97	12.73	-34.4	-35.6	28.9	3.03e+01	62	25	0	303038464	42	6525
2026-01-09 23:07:36.34	0.77	12.68	-34.2	-35.4	29.1	3.03e+01	61	25	0	304611328	42	6379
2026-01-09 23:07:37.32	0.57	12.63	-34.2	-35.4	29.0	3.03e+01	54	25	0	306708480	42	6409
2026-01-09 23:07:38.29	0.37	12.59	-34.3	-35.6	29.0	3.03e+01	60	25	0	308281344	42	6504
2026-01-09 23:07:39.27	0.18	12.54	-34.5	-35.8	28.8	3.03e+01	60	25	0	310378496	42	6676
2026-01-09 23:07:40.24	359.98	12.50	-34.3	-35.5	29.0	3.03e+01	58	25	0	311951360	42	6457
2026-01-09 23:07:41.22	359.79	12.45	-34.5	-35.7	28.7	3.03e+01	59	25	0	314048512	42	6639
2026-01-09 23:07:42.20	359.59	12.40	-34.2	-35.4	29.0	3.03e+01	46	25	0	315621376	42	6408
2026-01-09 23:07:43.17	359.40	12.36	-34.5	-35.7	28.7	3.03e+01	58	25	0	317718528	42	6643
2026-01-09 23:07:44.15	359.20	12.31	-34.3	-35.5	28.8	3.03e+01	58	25	0	319291392	42	6488
2026-01-09 23:07:45.13	359.01	12.26	-34.5	-35.8	28.7	3.03e+01	52	25	0	321388544	42	6661
2026-01-09 23:07:46.11	358.82	12.22	-34.2	-35.4	29.0	3.03e+01	58	25	0	323485696	42	6391
2026-01-09 23:07:47.09	358.63	12.17	-34.5	-35.7	28.8	3.03e+01	61	25	0	325058560	42	6613
2026-01-09 23:07:48.07	358.44	12.12	-34.6	-35.8	28.7	3.03e+01	53	25	0	326631424	42	6686
2026-01-09 23:07:49.05	358.25	12.07	-34.6	-35.8	28.6	3.03e+01	60	25	0	328728576	42	6705
2026-01-09 23:07:50.02	358.06	12.03	-34.4	-35.6	28.8	3.03e+01	59	25	0	330301440	42	6548
2026-01-09 23:07:51.00	357.87	11.98	-34.4	-35.7	28.8	3.03e+01	61	25	0	332398592	42	6580
2026-01-09 23:07:51.98	357.68	11.93	-34.5	-35.7	28.7	3.03e+01	60	25	0	333971456	42	6627
2026-01-09 23:07:52.96	357.49	11.88	-34.5	-35.7	28.7	3.03e+01	59	25	0	336068608	42	6625
2026-01-09 23:07:53.93	357.31	11.83	-34.6	-35.9	28.6	3.03e+01	59	25	0	337641472	42	6746
2026-01-09 23:07:54.91	357.12	11.78	-34.6	-35.9	28.6	3.03e+01	59	25	0	339738624	42	6741
2026-01-09 23:07:55.89	356.94	11.73	-35.0	-36.3	28.2	3.03e+01	47	25	0	341311488	42	7058
2026-01-09 23:07:56.87	356.75	11.68	-34.8	-36.1	28.3	3.03e+01	60	25	0	343408640	44	6148
2026-01-09 23:07:57.84	356.57	11.64	-35.5	-36.8	27.8	3.03e+01	58	25	0	344981504	44	6704
2026-01-09 23:07:58.82	356.39	11.59	-34.7	-36.0	28.5	3.03e+01	60	25	0	347078656	44	6088
2026-01-09 23:07:59.80	356.20	11.54	-34.6	-35.9	28.6	3.03e+01	51	25	0	348651520	44	6028
2026-01-09 23:08:00.78	356.02	11.49	-34.5	-35.7	28.7	3.03e+01	48	25	0	350748672	44	5914
2026-01-09 23:08:01.76	355.84	11.44	-34.4	-35.7	28.7	3.03e+01	58	25	0	352321536	44	5866
2026-01-09 23:08:02.74	355.66	11.39	-34.6	-35.9	28.5	3.03e+01	56	25	0	354418688	44	6012
2026-01-09 23:08:03.72	355.48	11.34	-34.4	-35.7	28.7	3.03e+01	45	25	0	355991552	44	5869
2026-01-09 23:08:04.69	355.30	11.29	-34.6	-35.9	28.6	3.03e+01	58	25	0	358088704	44	6004
2026-01-09 23:08:05.67	355.12	11.23	-34.7	-35.9	28.5	3.03e+01	60	25	0	359661568	44	6059
2026-01-09 23:08:06.65	354.95	11.18	-34.7	-35.9	28.5	3.03e+01	50	25	0	361758720	44	6038
2026-01-09 23:08:07.62	354.77	11.13	-35.3	-36.7	27.8	3.03e+01	58	25	0	363331584	44	6590
2026-01-09 23:08:08.60	354.59	11.08	-34.5	-35.7	28.8	3.03e+01	58	25	0	365428736	44	5871
2026-01-09 23:08:09.58	354.42	11.03	-35.3	-36.7	27.8	3.03e+01	59	25	0	367001600	44	6591
2026-01-09 23:08:10.56	354.24	10.98	-34.5	-35.8	28.5	3.03e+01	59	25	0	369098752	44	5928
2026-01-09 23:08:11.54	354.07	10.93	-35.6	-37.0	27.4	3.03e+01	45	25	0	370671616	44	6837
2026-01-09 23:08:12.52	353.89	10.88	-34.4	-35.6	28.6	3.03e+01	60	25	0	372768768	44	5810
2026-01-09 23:08:13.50	353.72	10.82	-35.1	-36.4	27.8	3.03e+01	57	25	0	374341632	44	6411
2026-01-09 23:08:14.48	353.55	10.77	-34.2	-35.4	28.6	3.03e+01	46	25	0	376438784	42	6414
2026-01-09 23:08:15.45	353.38	10.72	-34.7	-35.9	28.1	3.03e+01	54	25	0	378011648	44	6042
2026-01-09 23:08:16.43	353.21	10.67	-34.7	-36.0	28.4	3.03e+01	58	25	0	380108800	44	6079
2026-01-09 23:08:17.41	353.03	10.62	-34.8	-36.0	28.3	3.03e+01	45	25	0	381681664	44	6102
2026-01-09 23:08:18.39	352.86	10.56	-35.2	-36.5	27.9	3.03e+01	61	25	0	383778816	44	6481
2026-01-09 23:08:19.36	352.70	10.51	-34.7	-35.9	28.5	3.03e+01	58	25	0	385351680	44	6016
2026-01-09 23:08:20.34	352.53	10.46	-35.8	-37.2	27.4	3.03e+01	60	25	0	387448832	44	6998
2026-01-09 23:08:21.32	352.36	10.41	-34.3	-35.5	28.6	3.03e+01	57	25	0	389021696	44	5770
2026-01-09 23:08:22.30	352.19	10.35	-35.5	-36.9	27.3	3.03e+01	60	25	0	391118848	44	6761
2026-01-09 23:08:23.27	352.03	10.30	-34.5	-35.7	28.5	3.03e+01	58	25	0	392691712	44	5880
2026-01-09 23:08:24.25	351.86	10.25	-35.5	-36.8	27.4	3.03e+01	57	25	0	394788864	44	6694
2026-01-09 23:08:25.23	351.70	10.20	-35.0	-36.2	28.0	3.03e+01	44	25	0	396361728	44	6263
2026-01-09 23:08:26.21	351.53	10.14	-35.7	-37.1	27.2	3.03e+01	58	25	0	398458880	44	6884
2026-01-09 23:08:27.19	351.37	10.09	-35.3	-36.6	27.6	3.03e+01	58	25	0	400031744	44	6542
2026-01-09 23:08:28.17	351.20	10.04	-35.3	-36.6	27.4	3.03e+01	57	25	0	402128896	46	5841
2026-01-09 23:08:29.15	351.04	9.98	-34.8	-36.1	28.0	3.03e+01	61	25	0	403701760	44	6162
2026-01-09 23:08:30.13	350.88	9.93	-35.3	-36.6	27.6	3.03e+01	46	25	0	405798912	44	6570
2026-01-09 23:08:31.10	350.72	9.88	-35.1	-36.3	28.0	3.03e+01	56	25	0	407371776	44	6331
2026-01-09 23:08:32.08	350.56	9.82	-35.3	-36.6	27.9	3.03e+01	61	25	0	409468928	44	6500
2026-01-09 23:08:33.06	350.40	9.77	-35.6	-36.9	27.5	3.03e+01	50	25	0	411041792	44	6778
2026-01-09 23:08:34.04	350.24	9.72	-35.1	-36.3	28.0	3.03e+01	62	25	0	413138944	44	6320
2026-01-09 23:08:35.02	350.08	9.66	-35.5	-36.8	27.6	3.03e+01	62	25	0	414711808	44	6714
2026-01-09 23:08:36.00	349.92	9.61	-35.7	-37.0	27.4	3.03e+01	46	25	0	416808960	44	6824
2026-01-09 23:08:36.98	349.77	9.55	-35.0	-36.3	28.1	3.03e+01	58	25	0	418381824	44	6284
2026-01-09 23:08:37.96	349.61	9.50	-35.5	-36.8	27.6	3.03e+01	57	25	0	420478976	44	6725
2026-01-09 23:08:38.94	349.45	9.45	-35.2	-36.4	27.8	3.03e+01	58	25	0	422051840	44	6409
2026-01-09 23:08:39.92	349.30	9.39	-34.6	-35.8	28.3	3.03e+01	62	25	0	424148992	44	5967
2026-01-09 23:08:40.90	349.14	9.34	-35.4	-36.7	27.6	3.03e+01	44	25	0	425721856	44	6643
2026-01-09 23:08:41.87	348.99	9.28	-34.9	-36.2	28.1	3.03e+01	58	25	0	427819008	44	6207
2026-01-09 23:08:42.86	348.83	9.23	-35.2	-36.5	27.7	3.03e+01	60	25	0	429391872	44	6432
2026-01-09 23:08:43.84	348.68	9.18	-35.5	-36.9	27.2	3.03e+01	45	25	0	431489024	44	6734
2026-01-09 23:08:44.81	348.53	9.12	-34.5	-35.7	28.4	3.03e+01	60	25	0	433061888	44	5923
2026-01-09 23:08:45.80	348.38	9.07	-35.3	-36.7	27.7	3.03e+01	59	25	0	435159040	44	6595
2026-01-09 23:08:46.78	348.22	9.01	-34.8	-36.1	28.1	3.03e+01	63	25	0	436731904	44	6154
2026-01-09 23:08:47.76	348.07	8.96	-35.1	-36.4	27.9	3.03e+01	58	25	0	438829056	44	6392
2026-01-09 23:08:48.74	347.92	8.90	-35.2	-36.5	27.9	3.03e+01	56	25	0	440401920	44	6441
2026-01-09 23:08:49.72	347.78	8.85	-35.3	-36.7	27.7	3.03e+01	60	25	0	442499072	44	6577
2026-01-09 23:08:50.70	347.63	8.79	-35.1	-36.4	28.0	3.03e+01	58	25	0	444071936	44	6373
2026-01-09 23:08:51.69	347.48	8.74	-35.5	-36.8	27.5	3.03e+01	53	25	0	446169088	44	6711
2026-01-09 23:08:52.68	347.33	8.68	-35.3	-36.6	27.7	3.03e+01	59	25	0	448266240	44	6550
2026-01-09 23:08:53.66	347.18	8.63	-35.1	-36.3	28.0	3.03e+01	57	25	0	449839104	44	6329
2026-01-09 23:08:54.65	347.03	8.57	-35.5	-36.8	27.6	3.03e+01	49	25	0	451411968	44	6726
2026-01-09 23:08:55.63	346.89	8.52	-35.5	-36.8	27.5	3.03e+01	58	25	0	453509120	44	6675
2026-01-09 23:08:56.62	346.74	8.46	-35.4	-36.7	27.6	3.03e+01	59	25	0	455606272	44	6637
2026-01-09 23:08:57.61	346.60	8.41	-35.9	-37.3	27.2	3.03e+01	60	25	0	457179136	46	6320
2026-01-09 23:08:58.60	346.45	8.35	-36.0	-37.4	27.0	3.03e+01	58	25	0	459276288	46	6377
2026-01-09 23:08:59.58	346.31	8.30	-35.9	-37.2	27.3	3.03e+01	59	25	0	460849152	46	6210
2026-01-09 23:09:00.56	346.16	8.24	-36.0	-37.3	26.9	3.03e+01	62	25	0	462946304	46	6346
2026-01-09 23:09:01.54	346.02	8.19	-36.0	-37.3	27.1	3.03e+01	60	25	0	464519168	46	6350
2026-01-09 23:09:02.54	345.88	8.13	-36.2	-37.6	27.0	3.03e+01	45	25	0	466616320	46	6542
2026-01-09 23:09:03.55	345.73	8.07	-36.2	-37.6	26.9	3.03e+01	62	25	0	468189184	46	6522
2026-01-09 23:09:04.55	345.59	8.02	-35.9	-37.2	27.2	3.03e+01	61	25	0	470286336	46	6244
2026-01-09 23:09:05.56	345.45	7.96	-35.5	-36.8	27.6	3.03e+01	58	25	0	471859200	46	5935
2026-01-09 23:09:06.57	345.30	7.90	-35.7	-37.0	27.4	3.03e+01	55	25	0	473956352	46	6092
2026-01-09 23:09:07.56	345.16	7.85	-36.0	-37.3	27.1	3.03e+01	60	25	0	476053504	46	6330
2026-01-09 23:09:08.56	345.02	7.79	-35.5	-36.8	27.5	3.03e+01	59	25	0	477626368	46	5968
2026-01-09 23:09:09.56	344.88	7.73	-35.9	-37.2	27.0	3.03e+01	59	25	0	479723520	46	6260
2026-01-09 23:09:10.56	344.74	7.68	-36.4	-37.8	26.4	3.03e+01	46	25	0	481296384	46	6690
2026-01-09 23:09:11.56	344.60	7.62	-35.6	-36.9	27.4	3.03e+01	57	25	0	483393536	46	6021
2026-01-09 23:09:12.55	344.47	7.57	-36.2	-37.6	26.6	3.03e+01	58	25	0	484966400	46	6537
2026-01-09 23:09:13.55	344.33	7.51	-36.7	-38.2	26.2	3.03e+01	60	25	0	487063552	46	6972
2026-01-09 23:09:14.55	344.19	7.45	-36.0	-37.4	27.0	3.03e+01	60	25	0	489160704	46	6376
2026-01-09 23:09:15.55	344.06	7.40	-36.4	-37.8	26.6	3.03e+01	48	25	0	490733568	46	6666
2026-01-09 23:09:16.54	343.92	7.34	-36.5	-37.9	26.4	3.03e+01	54	25	0	492830720	46	6786
2026-01-09 23:09:17.54	343.79	7.28	-35.9	-37.3	27.1	3.03e+01	58	25	0	494403584	46	6286
2026-01-09 23:09:18.54	343.65	7.23	-36.1	-37.5	26.8	3.03e+01	46	25	0	496500736	46	6428
2026-01-09 23:09:19.53	343.52	7.17	-36.2	-37.6	26.6	3.03e+01	55	25	0	498597888	46	6549
2026-01-09 23:09:20.53	343.39	7.12	-35.7	-37.0	27.1	3.03e+01	58	25	0	500170752	46	6134
2026-01-09 23:09:21.53	343.25	7.06	-36.1	-37.4	26.9	3.03e+01	59	25	0	502267904	46	6421
2026-01-09 23:09:22.53	343.12	7.00	-36.0	-37.3	26.9	3.03e+01	54	25	0	503840768	46	6331
2026-01-09 23:09:23.52	342.99	6.95	-35.7	-37.0	27.2	3.03e+01	45	25	0	505937920	46	6099
2026-01-09 23:09:24.51	342.86	6.89	-36.2	-37.6	26.7	3.03e+01	59	25	0	507510784	46	6519
2026-01-09 23:09:25.51	342.73	6.84	-35.9	-37.3	26.8	3.03e+01	60	25	0	509607936	46	6297
2026-01-09 23:09:26.51	342.60	6.78	-35.8	-37.1	27.0	3.03e+01	48	25	0	511180800	46	6195
2026-01-09 23:09:27.50	342.47	6.72	-36.5	-37.9	26.4	3.03e+01	59	25	0	513277952	46	6797
2026-01-09 23:09:28.50	342.34	6.67	-36.1	-37.4	26.6	3.03e+01	58	25	0	515375104	46	6400
2026-01-09 23:09:29.49	342.21	6.61	-36.1	-37.4	26.6	3.03e+01	55	25	0	516947968	46	6412
2026-01-09 23:09:30.49	342.09	6.55	-36.6	-38.0	26.1	3.03e+01	60	25	0	519045120	46	6858
2026-01-09 23:09:31.50	341.96	6.50	-36.4	-37.8	26.2	3.03e+01	53	25	0	520617984	46	6703
2026-01-09 23:09:32.51	341.83	6.44	-35.5	-36.8	27.3	3.03e+01	61	25	0	522715136	46	5937
2026-01-09 23:09:33.52	341.70	6.38	-36.4	-37.9	26.2	3.03e+01	60	25	0	524812288	46	6754
2026-01-09 23:09:34.53	341.58	6.33	-36.6	-38.1	25.9	3.03e+01	47	25	0	526385152	46	6917
2026-01-09 23:09:35.54	341.45	6.27	-36.2	-37.5	26.6	3.03e+01	58	25	0	528482304	46	6471
2026-01-09 23:09:36.55	341.32	6.21	-37.0	-38.5	25.6	3.03e+01	60	25	0	530055168	46	7234
2026-01-09 23:09:37.55	341.20	6.16	-37.1	-38.7	25.1	3.03e+01	60	25	0	532152320	48	6615
2026-01-09 23:09:38.56	341.07	6.10	-36.3	-37.7	26.0	3.03e+01	58	25	0	534249472	48	5896
2026-01-09 23:09:39.57	340.95	6.04	-36.5	-37.9	25.9	3.03e+01	49	25	0	535822336	48	6011
2026-01-09 23:09:40.58	340.83	5.99	-37.3	-39.0	24.9	3.03e+01	60	25	0	537919488	48	6805
2026-01-09 23:09:41.59	340.70	5.93	-36.8	-38.3	25.4	3.03e+01	62	25	0	539492352	48	6324
2026-01-09 23:09:42.60	340.58	5.87	-36.1	-37.5	26.2	3.03e+01	45	25	0	541589504	48	5756
2026-01-09 23:09:43.61	340.46	5.82	-37.2	-38.8	25.1	3.03e+01	60	25	0	543686656	48	6653
2026-01-09 23:09:44.62	340.34	5.76	-37.4	-39.0	24.8	3.03e+01	52	25	0	545259520	48	6831
2026-01-09 23:09:45.63	340.22	5.70	-36.5	-37.9	25.9	3.03e+01	59	25	0	547356672	48	6007
2026-01-09 23:09:46.64	340.10	5.65	-37.2	-38.7	24.9	3.03e+01	56	25	0	548929536	48	6641
2026-01-09 23:09:47.65	339.98	5.59	-37.7	-39.4	24.3	3.03e+01	51	25	0	551026688	48	7158
2026-01-09 23:09:48.66	339.86	5.53	-37.5	-39.1	24.7	3.03e+01	60	25	0	553123840	48	6888
2026-01-09 23:09:49.67	339.74	5.48	-37.4	-39.0	24.7	3.03e+01	59	25	0	554696704	48	6820
2026-01-09 23:09:50.67	339.62	5.42	-38.4	-40.1	23.7	3.03e+01	48	25	0	556793856	50	6960
2026-01-09 23:09:51.69	339.50	5.36	-37.8	-39.5	23.8	3.03e+01	60	25	0	558891008	50	6481
2026-01-09 23:09:52.69	339.39	5.31	-37.3	-38.9	24.3	3.03e+01	55	25	0	560463872	50	6037
2026-01-09 23:09:53.71	339.27	5.25	-37.9	-39.6	23.4	3.03e+01	58	25	0	562561024	50	6570
2026-01-09 23:09:54.72	339.15	5.19	-38.6	-40.6	22.5	3.03e+01	58	25	0	564133888	50	7355
2026-01-09 23:09:55.73	339.04	5.14	-38.5	-40.5	22.4	3.03e+01	44	25	0	566231040	50	7219
2026-01-09 23:09:56.73	338.92	5.08	-38.4	-40.2	22.7	3.03e+01	61	25	0	568328192	50	7022
2026-01-09 23:09:57.74	338.81	5.03	-39.0	-41.1	21.6	3.03e+01	59	25	0	569901056	52	6959
2026-01-09 23:09:58.75	338.69	4.97	-39.6	-41.9	20.8	3.03e+01	46	25	0	571998208	52	7605
2026-01-09 23:09:59.76	338.58	4.91	-39.3	-41.6	21.0	3.03e+01	61	25	0	573571072	52	7319
2026-01-09 23:10:00.77	338.46	4.86	-39.4	-41.6	21.0	3.03e+01	49	25	0	575668224	52	7357
2026-01-09 23:10:01.78	338.35	4.80	-40.1	-42.7	19.7	3.03e+01	58	25	0	577765376	54	7395
2026-01-09 23:10:02.79	338.24	4.74	-40.5	-43.4	19.0	3.03e+01	63	25	0	579338240	54	8057
2026-01-09 23:10:03.80	338.13	4.69	-40.6	-43.6	18.5	3.03e+01	58	25	0	581435392	54	8236
2026-01-09 23:10:04.81	338.02	4.63	-40.9	-44.2	17.6	3.03e+01	60	25	0	583008256	54	8843
2026-01-09 23:10:05.82	337.91	4.58	-41.7	-45.9	15.9	3.03e+01	60	25	0	585105408	56	9519
2026-01-09 23:10:06.83	337.80	4.52	-42.1	-47.1	14.3	3.03e+01	56	25	0	587202560	58	9749
2026-01-09 23:10:07.83	337.69	4.46	-42.2	-47.8	13.4	3.03e+01	60	25	0	588775424	58	10541
2026-01-09 23:10:08.85	337.58	4.41	-42.4	-48.7	12.1	3.03e+01	46	25	0	590872576	58	11789
2026-01-09 23:10:09.85	337.47	4.35	-42.6	-50.3	10.0	3.03e+01	55	25	0	592445440	58	14117
2026-01-09 23:10:10.86	337.36	4.30	-42.8	-51.8	8.2	3.03e+01	68	25	0	594542592	58	16876
2026-01-09 23:10:11.87	337.25	4.24	-42.9	-52.8	6.8	3.03e+01	92	25	0	596639744	58	18915
2026-01-09 23:10:12.88	337.14	4.19	-43.0	-53.6	5.9	3.03e+01	92	25	0	598212608	60	18446
2026-01-09 23:10:13.89	337.04	4.13	-43.1	-55.9	5.0	3.03e+01	0	25	104	598736896	60	24116
2026-01-09 23:10:14.89	336.93	4.07	-43.1	-57.3	4.3	3.03e+01	0	25	104	598736896	60	28347
2026-01-09 23:10:15.90	336.82	4.02	-43.1	-58.0	3.6	3.03e+01	0	25	104	598736896	60	30469
2026-01-09 23:10:16.91	336.72	3.96	-43.1	-58.6	3.8	3.03e+01	0	25	104	598736896	60	32941
2026-01-09 23:10:17.92	336.61	3.91	-43.1	-59.4	3.5	3.03e+01	0	25	104	598736896	60	36108
2026-01-09 23:10:18.93	336.51	3.85	-43.2	-60.4	3.5	3.03e+01	0	25	104	598736896	60	40165
2026-01-09 23:10:19.94	336.40	3.80	-43.2	-60.8	3.5	3.03e+01	0	25	104	598736896	60	42257
2026-01-09 23:10:20.95	336.30	3.74	-43.3	-59.8	3.5	3.03e+01	0	25	104	598736896	60	37702
2026-01-09 23:10:21.96	336.20	3.69	-43.1	-61.0	3.5	3.03e+01	0	25	104	598736896	60	43075
2026-01-09 23:10:22.97	336.09	3.63	-43.3	-60.5	3.5	3.03e+01	0	25	104	598736896	60	40654
2026-01-09 23:10:23.98	335.99	3.57	-43.2	-60.7	3.5	3.03e+01	0	25	104	598736896	60	41775
2026-01-09 23:10:24.99	335.89	3.52	-43.2	-60.8	3.5	3.03e+01	0	25	104	598736896	60	42300
2026-01-09 23:10:26.00	335.79	3.46	-43.2	-60.9	3.5	3.03e+01	0	25	104	598736896	60	42797
2026-01-09 23:10:27.01	335.69	3.41	-43.1	-61.0	3.5	3.03e+01	0	25	104	598736896	60	43165
2026-01-09 23:10:28.02	335.58	3.35	-43.2	-61.1	3.5	3.03e+01	0	25	104	598736896	60	43437
2026-01-09 23:10:29.03	335.48	3.30	-43.1	-61.0	3.5	3.03e+01	0	25	104	598736896	60	43023
2026-01-09 23:10:30.03	335.38	3.24	-43.1	-60.9	3.5	3.03e+01	0	25	104	598736896	60	42875
2026-01-09 23:10:31.04	335.29	3.19	-43.2	-61.0	3.5	3.03e+01	0	25	104	598736896	60	43156
2026-01-09 23:10:32.05	335.19	3.13	-43.2	-61.0	3.5	3.03e+01	0	25	104	598736896	60	43291
2026-01-09 23:10:33.06	335.09	3.08	-43.1	-60.9	3.5	3.03e+01	0	25	104	598736896	60	42788
2026-01-09 23:10:34.08	334.99	3.02	-43.1	-60.9	3.5	3.03e+01	0	25	104	598736896	60	42793
2026-01-09 23:10:35.08	334.89	2.97	-46.9	-64.7	3.5	3.03e+01	0	25	104	598736896	60	66138
2026-01-09 23:10:36.09	334.79	2.91	-47.6	-65.4	3.5	3.03e+01	0	25	104	598736896	60	71473
2026-01-09 23:10:37.11	334.70	2.86	-47.8	-65.7	3.5	3.03e+01	0	25	104	598736896	60	74294
2026-01-09 23:10:38.11	334.60	2.80	-48.0	-65.9	3.5	3.03e+01	0	25	104	598736896	60	76036
2026-01-09 23:10:39.12	334.50	2.75	-48.3	-66.1	3.5	3.03e+01	0	25	104	598736896	60	77327
2026-01-09 23:10:40.13	334.41	2.70	-48.2	-66.1	3.5	3.03e+01	0	25	104	598736896	60	77927
2026-01-09 23:10:41.14	334.31	2.64	-48.3	-66.2	3.5	3.03e+01	0	25	104	598736896	60	78566
2026-01-09 23:10:42.15	334.22	2.59	-48.2	-66.2	3.5	3.03e+01	0	25	104	598736896	60	78841
2026-01-09 23:10:43.16	334.12	2.53	-48.3	-66.3	3.5	3.03e+01	0	25	104	598736896	60	79416
2026-01-09 23:10:44.17	334.03	2.48	-48.2	-66.3	3.5	3.03e+01	0	25	104	598736896	60	79074
2026-01-09 23:10:45.18	333.93	2.42	-48.3	-66.2	3.5	3.03e+01	0	25	104	598736896	60	78799
2026-01-09 23:10:46.19	333.84	2.37	-48.2	-66.1	3.5	3.03e+01	0	25	104	598736896	60	77591
2026-01-09 23:10:47.20	333.75	2.31	-48.0	-66.1	3.5	3.03e+01	0	25	104	598736896	60	77687
2026-01-09 23:10:48.20	333.66	2.26	-48.2	-66.1	3.5	3.03e+01	0	25	104	598736896	60	77364
2026-01-09 23:10:49.21	333.56	2.21	-48.0	-66.1	3.5	3.03e+01	0	25	104	598736896	60	77503
2026-01-09 23:10:50.22	333.47	2.15	-48.2	-66.2	3.5	3.03e+01	0	25	104	598736896	60	78443
2026-01-09 23:10:51.23	333.38	2.10	-48.3	-66.1	3.5	3.03e+01	0	25	104	598736896	60	77680
2026-01-09 23:10:52.24	333.29	2.04	-48.3	-66.1	3.5	3.03e+01	0	25	104	598736896	60	77875
2026-01-09 23:10:53.25	333.20	1.99	-48.3	-66.1	3.5	3.03e+01	0	25	104	598736896	60	77493
2026-01-09 23:10:54.25	333.11	1.94	-48.3	-66.1	3.5	3.03e+01	0	25	104	598736896	60	77797
2026-01-09 23:10:55.26	333.02	1.88	-48.2	-66.1	3.5	3.03e+01	0	25	104	598736896	60	77258
2026-01-09 23:10:56.27	332.93	1.83	-48.2	-66.1	3.5	3.03e+01	0	25	104	598736896	60	77731
2026-01-09 23:10:57.28	332.84	1.78	-48.2	-66.1	3.5	3.03e+01	0	25	104	598736896	60	77525
2026-01-09 23:10:58.29	332.75	1.72	-48.2	-66.1	3.5	3.03e+01	0	25	104	598736896	60	77540
2026-01-09 23:10:59.30	332.66	1.67	-48.2	-66.1	3.5	3.03e+01	0	25	104	598736896	60	77255
2026-01-09 23:11:00.31	332.57	1.61	-48.2	-66.1	3.5	3.03e+01	0	25	104	598736896	60	77587
2026-01-09 23:11:01.32	332.49	1.56	-48.2	-66.1	3.5	3.03e+01	0	25	104	598736896	60	77291
2026-01-09 23:11:02.33	332.40	1.51	-48.2	-66.0	3.5	3.03e+01	0	25	104	598736896	60	77000
2026-01-09 23:11:03.34	332.31	1.45	-48.2	-66.1	3.5	3.03e+01	0	25	104	598736896	60	77540
2026-01-09 23:11:04.34	332.22	1.40	-48.2	-66.1	3.5	3.03e+01	0	25	104	598736896	60	77272
2026-01-09 23:11:05.35	332.14	1.35	-48.2	-66.1	3.5	3.03e+01	0	25	104	598736896	60	77593
2026-01-09 23:11:06.36	332.05	1.29	-48.3	-66.1	3.5	3.03e+01	0	25	104	598736896	60	78028
2026-01-09 23:11:07.37	331.97	1.24	-48.3	-66.1	3.5	3.03e+01	0	25	104	598736896	60	77700
2026-01-09 23:11:08.38	331.88	1.19	-48.3	-66.1	3.5	3.03e+01	0	25	104	598736896	60	77610
2026-01-09 23:11:09.39	331.80	1.13	-48.3	-66.1	3.5	3.03e+01	0	25	104	598736896	60	77630
2026-01-09 23:11:10.40	331.71	1.08	-48.2	-66.1	3.5	3.03e+01	0	25	104	598736896	60	77567
2026-01-09 23:11:11.41	331.63	1.03	-48.2	-66.0	3.5	3.03e+01	0	25	104	598736896	60	76791
2026-01-09 23:11:12.42	331.54	0.98	-48.2	-66.1	3.5	3.03e+01	0	25	104	598736896	60	77673
2026-01-09 23:11:13.43	331.46	0.92	-48.3	-66.1	3.5	3.03e+01	0	25	104	598736896	60	77586
2026-01-09 23:11:14.44	331.38	0.87	-48.2	-66.0	3.5	3.03e+01	0	25	104	598736896	60	77222
2026-01-09 23:11:15.45	331.29	0.82	-48.2	-66.0	3.5	3.03e+01	0	25	104	598736896	60	77007
2026-01-09 23:11:16.46	331.21	0.76	-48.2	-66.0	3.5	3.03e+01	0	25	104	598736896	60	77153
2026-01-09 23:11:17.47	331.13	0.71	-48.2	-66.1	3.5	3.03e+01	0	25	104	598736896	60	77372
2026-01-09 23:11:18.48	331.05	0.66	-48.2	-66.0	3.5	3.03e+01	0	25	104	598736896	60	77126
2026-01-09 23:11:19.49	330.96	0.61	-48.2	-66.1	3.5	3.03e+01	0	25	104	598736896	60	77267
2026-01-09 23:11:20.49	330.88	0.55	-48.3	-66.1	3.5	3.03e+01	0	25	104	598736896	60	78011
2026-01-09 23:11:21.50	330.80	0.50	-48.3	-66.2	3.5	3.03e+01	0	25	104	598736896	60	78391
2026-01-09 23:11:22.51	330.72	0.45	-48.2	-66.1	3.5	3.03e+01	0	25	104	598736896	60	77441
2026-01-09 23:11:23.52	330.64	0.40	-48.3	-66.0	3.5	3.03e+01	0	25	104	598736896	60	77104
2026-01-09 23:11:24.54	330.56	0.34	-48.2	-66.0	3.5	3.03e+01	0	25	104	598736896	60	77165
2026-01-09 23:11:25.54	330.48	0.29	-48.2	-66.0	3.5	3.03e+01	0	25	104	598736896	60	77069
2026-01-09 23:11:26.55	330.40	0.24	-48.2	-66.1	3.5	3.03e+01	0	25	104	598736896	60	77710
2026-01-09 23:11:27.56	330.32	0.19	-48.2	-66.1	3.5	3.03e+01	0	25	104	598736896	60	77422
2026-01-09 23:11:28.57	330.25	0.13	-48.3	-66.1	3.5	3.03e+01	0	25	104	598736896	60	77764
2026-01-09 23:11:29.58	330.17	0.08	-48.2	-66.0	3.5	3.03e+01	0	25	104	598736896	60	77015
2026-01-09 23:11:30.59	330.09	0.03	-48.2	-66.1	3.5	3.03e+01	0	25	104	598736896	60	77427
2026-01-09 23:11:31.60	330.01	-0.02	-48.2	-66.0	3.5	3.03e+01	0	25	104	598736896	60	77170
2026-01-09 23:11:32.61	329.93	-0.07	-48.2	-66.0	3.5	3.03e+01	0	25	104	598736896	60	77096
2026-01-09 23:11:33.62	329.86	-0.13	-48.2	-66.0	3.5	3.03e+01	0	25	104	598736896	60	76997

#Closed at: 2026-01-09 23:11:34
#Recorded file [598 MB]: D:/lorett/data/35029_260110_110000.dat