passes_logs/2026/01/09/R4.6S_Anadyr/R4.6S_Anadyr__20260109_013419_AQUA_rec.log

#Pass ID: 20260109_013419_AQUA
#Satellite: AQUA
#Configuration: AQUA
#almurnet v.1.7.20251203
#Start time: 2026-01-09 01:34:21

#Version: 2.2.20231116
#Station: R4.6S_Anadyr
#Location: 177.4865 lon 64.73178 lat
#TLE: 1 27424U 02022A   26004.96787593  .00001598  00000+0  32997-3 0  9996
#TLE: 2 27424  98.4069 331.2279 0002002  90.2377   0.6092 14.61798176259425

#Time	Az	El	Level	Level2	SNR	BER	BlckErr	Temp	State	Recorded	gain1	gain2
2026-01-09 01:34:21.34	146.92	0.11	-48.1	-63.0	3.5	1.51e+00	0	30	0	0	60	51000
2026-01-09 01:34:22.35	146.91	0.17	-48.3	-66.1	3.5	3.02e+01	0	31	104	0	60	77862
2026-01-09 01:34:23.36	146.90	0.23	-48.3	-66.1	3.5	3.02e+01	0	31	104	0	60	77842
2026-01-09 01:34:24.36	146.89	0.30	-48.3	-66.1	3.5	3.02e+01	0	31	104	0	60	78121
2026-01-09 01:34:25.37	146.88	0.36	-48.4	-66.2	3.5	3.02e+01	0	31	104	0	60	78852
2026-01-09 01:34:26.38	146.87	0.42	-48.5	-66.3	3.5	3.02e+01	0	32	104	0	60	79306
2026-01-09 01:34:27.39	146.86	0.49	-48.5	-66.3	3.5	3.02e+01	0	32	104	0	60	79575
2026-01-09 01:34:28.40	146.85	0.55	-48.5	-66.3	3.5	3.02e+01	0	32	104	0	60	79792
2026-01-09 01:34:29.41	146.84	0.61	-48.4	-66.3	3.5	3.02e+01	0	32	104	0	60	79587
2026-01-09 01:34:30.42	146.83	0.68	-48.4	-66.2	3.5	3.02e+01	0	32	104	0	60	78680
2026-01-09 01:34:31.43	146.82	0.74	-48.3	-66.1	3.5	3.02e+01	0	32	104	0	60	77776
2026-01-09 01:34:32.44	146.81	0.80	-48.1	-66.0	3.5	3.02e+01	0	32	104	0	60	76781
2026-01-09 01:34:33.45	146.80	0.87	-48.0	-65.9	3.5	3.02e+01	0	32	104	0	60	75693
2026-01-09 01:34:34.46	146.78	0.93	-47.8	-65.6	3.5	3.02e+01	0	32	104	0	60	73709
2026-01-09 01:34:35.47	146.77	1.00	-47.7	-65.5	3.5	3.02e+01	0	32	104	0	60	72164
2026-01-09 01:34:36.48	146.76	1.06	-47.3	-65.2	3.5	3.02e+01	0	32	104	0	60	69674
2026-01-09 01:34:37.49	146.75	1.13	-46.7	-64.5	3.5	3.02e+01	0	32	104	0	60	64359
2026-01-09 01:34:38.50	146.74	1.19	-46.6	-64.3	3.5	3.02e+01	0	32	104	0	60	63162
2026-01-09 01:34:39.51	146.73	1.26	-46.5	-64.3	3.5	3.02e+01	0	32	104	0	60	62920
2026-01-09 01:34:40.51	146.72	1.32	-46.5	-64.3	3.5	3.02e+01	0	32	104	0	60	63393
2026-01-09 01:34:41.52	146.71	1.39	-46.5	-64.4	3.5	3.02e+01	0	32	104	0	60	63522
2026-01-09 01:34:42.53	146.69	1.45	-46.5	-64.4	3.5	3.02e+01	0	32	104	0	60	63561
2026-01-09 01:34:43.54	146.68	1.52	-46.5	-64.5	3.5	3.02e+01	0	32	104	0	60	64269
2026-01-09 01:34:44.55	146.67	1.58	-46.5	-64.4	3.5	3.02e+01	0	32	104	0	60	63818
2026-01-09 01:34:45.56	146.66	1.65	-46.5	-64.4	3.5	3.02e+01	0	32	104	0	60	63654
2026-01-09 01:34:46.57	146.65	1.72	-46.5	-64.4	3.5	3.02e+01	0	32	104	0	60	63521
2026-01-09 01:34:47.58	146.64	1.78	-46.5	-64.2	3.5	3.02e+01	0	32	104	0	60	62396
2026-01-09 01:34:48.59	146.62	1.85	-46.5	-64.0	3.5	3.02e+01	0	32	104	0	60	61265
2026-01-09 01:34:49.60	146.61	1.92	-46.5	-63.8	3.5	3.02e+01	0	32	104	0	60	59539
2026-01-09 01:34:50.61	146.60	1.98	-46.5	-63.5	3.5	3.02e+01	0	32	104	0	60	57885
2026-01-09 01:34:51.62	146.59	2.05	-46.5	-63.5	3.5	3.02e+01	0	32	104	0	60	57809
2026-01-09 01:34:52.63	146.57	2.12	-46.5	-63.4	3.5	3.02e+01	0	32	104	0	60	57055
2026-01-09 01:34:53.64	146.56	2.18	-46.5	-63.3	3.5	3.02e+01	0	32	104	0	60	56299
2026-01-09 01:34:54.65	146.55	2.25	-46.5	-63.3	3.5	3.02e+01	0	32	104	0	60	56457
2026-01-09 01:34:55.66	146.54	2.32	-46.5	-63.2	3.5	3.02e+01	0	32	104	0	60	55912
2026-01-09 01:34:56.67	146.52	2.39	-46.5	-63.1	3.5	3.02e+01	0	32	104	0	60	55040
2026-01-09 01:34:57.68	146.51	2.46	-46.5	-63.2	3.5	3.02e+01	0	32	104	0	60	55612
2026-01-09 01:34:58.69	146.50	2.52	-46.5	-63.4	3.5	3.02e+01	0	32	104	0	60	56732
2026-01-09 01:34:59.70	146.49	2.59	-46.5	-63.3	3.5	3.02e+01	0	32	104	0	60	56551
2026-01-09 01:35:00.71	146.47	2.66	-46.5	-63.5	3.5	3.02e+01	0	32	104	0	60	57909
2026-01-09 01:35:01.71	146.46	2.73	-46.5	-63.7	3.5	3.02e+01	0	32	104	0	60	58654
2026-01-09 01:35:02.72	146.45	2.80	-46.5	-63.3	3.5	3.02e+01	0	32	104	0	60	56026
2026-01-09 01:35:03.73	146.43	2.87	-46.5	-63.2	3.5	3.02e+01	0	32	104	0	60	55492
2026-01-09 01:35:04.74	146.42	2.94	-46.5	-63.1	3.6	3.02e+01	0	32	104	0	60	54936
2026-01-09 01:35:05.75	146.41	3.01	-46.5	-63.3	3.5	3.02e+01	0	32	104	0	60	56238
2026-01-09 01:35:06.76	146.39	3.08	-46.5	-63.9	3.5	3.02e+01	0	32	104	0	60	60203
2026-01-09 01:35:07.77	146.38	3.15	-46.5	-64.3	3.5	3.02e+01	0	32	104	0	60	62998
2026-01-09 01:35:08.78	146.37	3.22	-46.5	-63.1	3.5	3.02e+01	0	32	104	0	60	55211
2026-01-09 01:35:09.79	146.35	3.29	-46.4	-60.1	4.6	3.02e+01	0	32	104	0	60	38963
2026-01-09 01:35:10.80	146.34	3.36	-46.0	-55.3	8.0	3.02e+01	91	32	0	1048576	60	22428
2026-01-09 01:35:11.81	146.33	3.43	-45.4	-52.1	11.5	3.02e+01	90	32	0	2621440	60	15420
2026-01-09 01:35:12.82	146.31	3.50	-44.6	-49.7	14.1	3.02e+01	91	32	0	4718592	60	11822
2026-01-09 01:35:13.83	146.30	3.57	-43.7	-47.6	16.5	3.02e+01	90	32	0	6291456	60	9217
2026-01-09 01:35:14.84	146.28	3.64	-43.0	-46.4	17.6	3.02e+01	90	32	0	8388608	60	8065
2026-01-09 01:35:15.84	146.27	3.71	-42.2	-45.1	18.9	3.02e+01	92	32	0	9961472	60	6933
2026-01-09 01:35:16.85	146.25	3.79	-41.4	-44.0	19.9	3.02e+01	92	32	0	12058624	58	6862
2026-01-09 01:35:17.86	146.24	3.86	-41.0	-43.4	20.5	3.02e+01	92	32	0	14155776	58	6367
2026-01-09 01:35:18.87	146.23	3.93	-40.6	-42.9	21.2	3.02e+01	92	32	0	15728640	56	6763
2026-01-09 01:35:19.88	146.21	4.00	-46.8	-62.7	3.5	3.02e+01	0	32	104	17301504	60	52802
2026-01-09 01:35:20.89	146.20	4.08	-38.2	-40.1	22.3	3.02e+01	88	32	104	17301504	52	6199
2026-01-09 01:35:21.90	146.18	4.15	-46.2	-57.0	4.3	3.02e+01	92	32	0	17825792	60	27176
2026-01-09 01:35:22.90	146.17	4.22	-45.5	-52.0	12.0	3.02e+01	91	32	104	17825792	60	15389
2026-01-09 01:35:23.91	146.15	4.30	-43.3	-47.2	16.2	3.02e+01	83	32	0	19398656	58	9947
2026-01-09 01:35:24.92	146.14	4.37	-37.5	-39.1	25.0	3.02e+01	92	32	0	21495808	50	6150
2026-01-09 01:35:25.93	146.12	4.44	-37.8	-39.4	24.6	3.02e+01	89	32	0	23068672	50	6421
2026-01-09 01:35:26.94	146.11	4.52	-37.6	-39.2	24.8	3.02e+01	88	32	0	25165824	50	6237
2026-01-09 01:35:27.95	146.09	4.59	-37.0	-38.5	25.7	3.02e+01	92	32	0	26738688	50	5741
2026-01-09 01:35:28.96	146.08	4.67	-37.0	-38.5	25.7	3.02e+01	92	32	0	28835840	48	6446
2026-01-09 01:35:29.97	146.06	4.74	-36.8	-38.3	25.8	3.02e+01	92	32	0	30932992	48	6317
2026-01-09 01:35:30.98	146.04	4.82	-36.7	-38.1	26.0	3.02e+01	91	32	0	32505856	48	6190
2026-01-09 01:35:31.99	146.03	4.89	-36.8	-38.3	25.8	3.02e+01	91	32	0	34603008	48	6315
2026-01-09 01:35:32.98	146.01	4.96	-36.7	-38.1	26.0	3.02e+01	91	32	0	36175872	48	6180
2026-01-09 01:35:33.99	146.00	5.04	-36.8	-38.2	26.0	3.02e+01	92	32	0	38273024	48	6240
2026-01-09 01:35:35.00	145.98	5.12	-36.5	-37.9	26.2	3.02e+01	91	32	0	40370176	48	6064
2026-01-09 01:35:36.01	145.96	5.19	-36.4	-37.8	26.3	3.02e+01	92	32	0	41943040	48	5982
2026-01-09 01:35:37.02	145.95	5.27	-36.5	-37.9	26.3	3.02e+01	91	32	0	44040192	48	6046
2026-01-09 01:35:38.03	145.93	5.34	-36.4	-37.9	26.4	3.02e+01	92	32	0	45613056	48	5999
2026-01-09 01:35:39.04	145.91	5.42	-36.3	-37.7	26.4	3.02e+01	91	32	0	47710208	48	5902
2026-01-09 01:35:40.04	145.90	5.50	-36.2	-37.6	26.6	3.02e+01	92	32	0	49807360	48	5818
2026-01-09 01:35:41.05	145.88	5.58	-36.2	-37.6	26.6	3.02e+01	92	32	0	51380224	48	5811
2026-01-09 01:35:42.06	145.86	5.65	-36.2	-37.5	26.7	3.02e+01	92	32	0	53477376	48	5790
2026-01-09 01:35:43.07	145.85	5.73	-36.1	-37.5	26.8	3.02e+01	92	32	0	55050240	48	5734
2026-01-09 01:35:44.08	145.83	5.81	-36.0	-37.4	26.8	3.02e+01	91	32	0	57147392	48	5701
2026-01-09 01:35:45.09	145.81	5.89	-36.1	-37.5	26.7	3.02e+01	89	32	0	59244544	48	5775
2026-01-09 01:35:46.10	145.80	5.97	-36.0	-37.4	26.8	3.02e+01	89	32	0	60817408	48	5709
2026-01-09 01:35:47.11	145.78	6.05	-36.0	-37.3	26.9	3.02e+01	92	32	0	62914560	48	5650
2026-01-09 01:35:48.12	145.76	6.12	-36.0	-37.4	26.9	3.02e+01	92	32	0	65011712	48	5661
2026-01-09 01:35:49.13	145.74	6.20	-35.9	-37.3	27.0	3.02e+01	92	32	0	66584576	46	6308
2026-01-09 01:35:50.14	145.72	6.28	-36.1	-37.5	26.8	3.02e+01	90	32	0	68681728	46	6439
2026-01-09 01:35:51.14	145.71	6.36	-36.0	-37.4	26.9	3.02e+01	92	32	0	70254592	46	6351
2026-01-09 01:35:52.15	145.69	6.44	-35.8	-37.2	27.1	3.02e+01	92	32	0	72351744	46	6215
2026-01-09 01:35:53.16	145.67	6.52	-35.8	-37.2	27.1	3.02e+01	92	32	0	74448896	46	6228
2026-01-09 01:35:54.17	145.65	6.60	-35.9	-37.2	27.1	3.02e+01	92	32	0	76021760	46	6270
2026-01-09 01:35:55.18	145.63	6.69	-35.8	-37.1	27.2	3.02e+01	92	32	0	78118912	46	6201
2026-01-09 01:35:56.19	145.61	6.77	-35.7	-37.0	27.3	3.02e+01	92	32	0	80216064	46	6133
2026-01-09 01:35:57.20	145.60	6.85	-35.7	-37.0	27.2	3.02e+01	91	32	0	81788928	46	6129
2026-01-09 01:35:58.21	145.58	6.93	-35.7	-37.0	27.4	3.02e+01	91	32	0	83886080	46	6099
2026-01-09 01:35:59.22	145.56	7.01	-35.7	-37.1	27.3	3.02e+01	91	32	0	85458944	46	6142
2026-01-09 01:36:00.23	145.54	7.10	-35.6	-36.9	27.5	3.02e+01	91	32	0	87556096	46	6042
2026-01-09 01:36:01.24	145.52	7.18	-35.5	-36.8	27.5	3.02e+01	92	32	0	89128960	46	5972
2026-01-09 01:36:02.24	145.50	7.26	-35.6	-37.0	27.4	3.02e+01	92	32	0	91226112	46	6073
2026-01-09 01:36:03.25	145.48	7.34	-35.5	-36.8	27.5	3.02e+01	92	32	0	93323264	46	5978
2026-01-09 01:36:04.26	145.46	7.43	-35.4	-36.7	27.7	3.02e+01	92	32	0	94896128	46	5885
2026-01-09 01:36:05.27	145.44	7.51	-35.3	-36.6	27.7	3.02e+01	92	32	0	96993280	46	5837
2026-01-09 01:36:06.28	145.42	7.60	-35.3	-36.6	27.8	3.02e+01	92	32	0	98566144	46	5837
2026-01-09 01:36:07.29	145.40	7.68	-35.3	-36.6	27.7	3.02e+01	92	32	0	100663296	46	5822
2026-01-09 01:36:08.30	145.38	7.77	-35.5	-36.8	27.6	3.02e+01	92	33	0	102760448	46	5972
2026-01-09 01:36:09.31	145.36	7.85	-35.2	-36.5	27.9	3.02e+01	92	32	0	104333312	46	5747
2026-01-09 01:36:10.31	145.34	7.94	-35.3	-36.6	27.9	3.02e+01	92	32	0	106430464	46	5795
2026-01-09 01:36:11.32	145.32	8.02	-35.1	-36.4	27.9	3.02e+01	90	32	0	108527616	46	5714
2026-01-09 01:36:12.33	145.30	8.11	-35.1	-36.4	27.9	3.02e+01	92	33	0	110100480	46	5707
2026-01-09 01:36:13.34	145.28	8.19	-35.2	-36.5	27.9	3.02e+01	92	32	0	112197632	46	5752
2026-01-09 01:36:14.35	145.25	8.28	-35.2	-36.5	27.9	3.02e+01	90	32	0	113770496	46	5726
2026-01-09 01:36:15.36	145.23	8.37	-35.0	-36.3	28.1	3.02e+01	91	32	0	115867648	46	5637
2026-01-09 01:36:16.37	145.21	8.46	-35.1	-36.3	28.1	3.02e+01	91	32	0	117964800	46	5650
2026-01-09 01:36:17.38	145.19	8.54	-35.0	-36.3	28.1	3.02e+01	92	32	0	119537664	46	5610
2026-01-09 01:36:18.39	145.17	8.63	-35.0	-36.3	28.1	3.02e+01	92	32	0	121634816	46	5633
2026-01-09 01:36:19.40	145.15	8.72	-34.8	-36.1	28.2	3.02e+01	92	33	0	123207680	44	6177
2026-01-09 01:36:20.41	145.12	8.81	-34.9	-36.1	28.2	3.02e+01	91	32	0	125304832	44	6192
2026-01-09 01:36:21.42	145.10	8.90	-35.0	-36.3	28.1	3.02e+01	89	32	0	127401984	44	6306
2026-01-09 01:36:22.43	145.08	8.99	-34.8	-36.1	28.3	3.02e+01	92	33	0	128974848	44	6139
2026-01-09 01:36:23.44	145.06	9.08	-34.8	-36.0	28.3	3.02e+01	91	32	0	131072000	44	6121
2026-01-09 01:36:24.45	145.03	9.17	-34.8	-36.1	28.3	3.02e+01	91	32	0	133169152	44	6145
2026-01-09 01:36:25.46	145.01	9.26	-34.8	-36.1	28.3	3.02e+01	91	32	0	134742016	44	6176
2026-01-09 01:36:26.47	144.99	9.35	-34.7	-36.0	28.3	3.02e+01	92	32	0	136839168	44	6097
2026-01-09 01:36:27.48	144.96	9.44	-34.8	-36.0	28.4	3.02e+01	86	32	0	138412032	44	6113
2026-01-09 01:36:28.49	144.94	9.53	-34.6	-35.9	28.5	3.02e+01	90	32	0	140509184	44	6025
2026-01-09 01:36:29.49	144.92	9.62	-34.8	-36.1	28.2	3.02e+01	91	32	0	142606336	44	6166
2026-01-09 01:36:30.50	144.89	9.72	-34.7	-36.0	28.4	3.02e+01	92	32	0	144179200	44	6083
2026-01-09 01:36:31.51	144.87	9.81	-34.8	-36.1	28.4	3.02e+01	92	32	0	146276352	44	6169
2026-01-09 01:36:32.52	144.84	9.90	-34.6	-35.9	28.5	3.02e+01	92	32	0	147849216	44	6017
2026-01-09 01:36:33.53	144.82	10.00	-34.5	-35.8	28.6	3.02e+01	91	32	0	149946368	44	5957
2026-01-09 01:36:34.54	144.79	10.09	-34.7	-36.0	28.4	3.02e+01	92	33	0	152043520	44	6086
2026-01-09 01:36:35.55	144.77	10.19	-34.5	-35.8	28.6	3.02e+01	92	32	0	153616384	44	5929
2026-01-09 01:36:36.56	144.74	10.28	-34.5	-35.7	28.6	3.02e+01	91	33	0	155713536	44	5917
2026-01-09 01:36:37.56	144.72	10.37	-34.4	-35.7	28.7	3.02e+01	92	32	0	157286400	44	5886
2026-01-09 01:36:38.57	144.69	10.47	-34.5	-35.7	28.6	3.02e+01	92	32	0	159383552	44	5923
2026-01-09 01:36:39.58	144.67	10.57	-34.4	-35.6	28.7	3.02e+01	91	33	0	161480704	44	5843
2026-01-09 01:36:40.59	144.64	10.66	-34.4	-35.6	28.7	3.02e+01	91	33	0	163053568	44	5858
2026-01-09 01:36:41.60	144.61	10.76	-34.4	-35.6	28.7	3.02e+01	91	33	0	165150720	44	5846
2026-01-09 01:36:42.61	144.59	10.86	-34.4	-35.7	28.7	3.02e+01	91	33	0	166723584	44	5892
2026-01-09 01:36:43.62	144.56	10.96	-34.4	-35.7	28.7	3.02e+01	92	33	0	168820736	44	5881
2026-01-09 01:36:44.62	144.54	11.05	-34.4	-35.6	28.8	3.02e+01	92	33	0	170917888	44	5832
2026-01-09 01:36:45.63	144.51	11.15	-34.4	-35.6	28.7	3.02e+01	92	33	0	172490752	44	5836
2026-01-09 01:36:46.64	144.48	11.25	-34.4	-35.6	28.8	3.02e+01	90	32	0	174587904	44	5843
2026-01-09 01:36:47.64	144.45	11.35	-34.8	-44.9	3.6	3.02e+01	0	33	104	175636480	44	16999
2026-01-09 01:36:48.65	144.43	11.45	-34.9	-45.1	3.6	3.02e+01	0	33	104	175636480	44	17308
2026-01-09 01:36:49.66	144.40	11.55	-34.8	-44.9	3.6	3.02e+01	0	33	104	175636480	44	17069
2026-01-09 01:36:50.67	144.37	11.65	-34.9	-45.0	3.6	3.02e+01	0	33	104	175636480	44	17251
2026-01-09 01:36:51.68	144.34	11.75	-35.7	-45.9	3.6	3.02e+01	0	33	104	175636480	44	18992
2026-01-09 01:36:52.69	144.31	11.85	-42.2	-53.4	3.5	3.02e+01	0	33	104	175636480	52	28426
2026-01-09 01:36:53.70	144.28	11.96	-47.2	-63.7	3.5	3.02e+01	0	33	104	175636480	60	58748
2026-01-09 01:36:54.71	144.25	12.06	-37.5	-47.8	3.6	3.02e+01	0	33	104	175636480	48	18814
2026-01-09 01:36:55.72	144.23	12.16	-39.1	-49.7	3.4	3.02e+01	0	33	104	175636480	56	14775
2026-01-09 01:36:56.73	144.20	12.26	-38.0	-48.3	3.6	3.02e+01	0	33	104	175636480	50	17714
2026-01-09 01:36:57.74	144.17	12.37	-37.8	-48.2	3.4	3.02e+01	0	33	104	175636480	50	17595
2026-01-09 01:36:58.74	144.14	12.47	-37.1	-47.4	3.6	3.02e+01	0	33	104	175636480	50	15999
2026-01-09 01:36:59.75	144.11	12.58	-34.9	-45.0	3.6	3.02e+01	0	33	104	175636480	44	17194
2026-01-09 01:37:00.76	144.08	12.68	-41.9	-52.9	3.7	3.02e+01	0	33	104	175636480	54	24036
2026-01-09 01:37:01.77	144.04	12.79	-46.9	-62.1	3.5	3.02e+01	0	33	104	175636480	60	49106
2026-01-09 01:37:02.78	144.01	12.90	-41.3	-52.2	3.5	3.02e+01	0	33	104	175636480	60	15732
2026-01-09 01:37:03.79	143.98	13.00	-47.5	-64.7	3.5	3.02e+01	0	33	104	175636480	60	66265
2026-01-09 01:37:04.80	143.95	13.11	-40.2	-50.8	4.1	3.02e+01	0	33	104	175636480	56	16742
2026-01-09 01:37:05.81	143.92	13.22	-38.3	-48.7	4.1	3.02e+01	0	33	104	175636480	52	16588
2026-01-09 01:37:06.82	143.89	13.33	-37.9	-48.2	4.1	3.02e+01	0	33	104	175636480	50	17503
2026-01-09 01:37:07.83	143.85	13.44	-36.1	-46.2	4.1	3.02e+01	0	33	104	175636480	48	15706
2026-01-09 01:37:08.84	143.82	13.55	-41.7	-52.7	3.5	3.02e+01	0	33	104	175636480	54	23460
2026-01-09 01:37:09.85	143.79	13.66	-37.7	-48.1	3.5	3.02e+01	0	33	104	175636480	50	17387
2026-01-09 01:37:10.86	143.75	13.77	-46.9	-61.9	3.5	3.02e+01	0	33	104	175636480	60	48104
2026-01-09 01:37:11.87	143.72	13.88	-47.8	-65.3	3.5	3.02e+01	0	33	104	175636480	60	70602
2026-01-09 01:37:12.88	143.69	13.99	-37.7	-48.1	3.5	3.02e+01	0	33	104	175636480	44	24632
2026-01-09 01:37:13.88	143.65	14.10	-35.3	-45.5	3.5	3.02e+01	0	33	104	175636480	46	16220
2026-01-09 01:37:14.89	143.62	14.22	-35.2	-45.4	3.5	3.02e+01	0	33	104	175636480	46	16035
2026-01-09 01:37:15.90	143.58	14.33	-34.5	-44.7	3.5	3.02e+01	0	33	104	175636480	44	16639
2026-01-09 01:37:16.91	143.55	14.44	-34.4	-44.6	3.5	3.02e+01	0	33	104	175636480	44	16466
2026-01-09 01:37:17.92	143.51	14.56	-35.1	-45.3	3.5	3.02e+01	0	33	104	175636480	42	20041
2026-01-09 01:37:18.92	143.48	14.67	-41.0	-51.9	3.5	3.02e+01	0	33	104	175636480	52	23964
2026-01-09 01:37:19.93	143.44	14.79	-47.6	-64.3	3.5	3.02e+01	0	33	104	175636480	60	63096
2026-01-09 01:37:20.94	143.40	14.91	-40.9	-51.7	3.5	3.02e+01	0	33	104	175636480	56	18616
2026-01-09 01:37:21.95	143.37	15.02	-47.8	-65.4	3.5	3.02e+01	0	33	104	175636480	60	71425
2026-01-09 01:37:22.96	143.33	15.14	-38.5	-49.0	3.5	3.02e+01	0	33	104	175636480	54	15329
2026-01-09 01:37:23.97	143.29	15.26	-38.1	-48.6	3.5	3.02e+01	0	33	104	175636480	52	16333
2026-01-09 01:37:24.98	143.25	15.38	-36.4	-46.7	3.5	3.02e+01	0	33	104	175636480	48	16561
2026-01-09 01:37:25.98	143.22	15.50	-35.3	-45.6	3.5	3.02e+01	0	33	104	175636480	46	16346
2026-01-09 01:37:26.99	143.18	15.62	-37.9	-48.4	3.5	3.02e+01	0	33	104	175636480	50	17901
2026-01-09 01:37:28.00	143.14	15.74	-42.0	-53.1	3.5	3.02e+01	0	33	104	175636480	56	21846
2026-01-09 01:37:29.01	143.10	15.86	-47.9	-65.8	3.5	3.02e+01	0	33	104	175636480	60	74879
2026-01-09 01:37:30.02	143.06	15.98	-37.0	-47.4	3.5	3.02e+01	0	33	104	175636480	50	15991
2026-01-09 01:37:31.03	143.02	16.11	-47.8	-64.8	3.5	3.02e+01	0	33	104	175636480	60	66713
2026-01-09 01:37:32.04	142.98	16.23	-35.5	-45.7	3.5	3.02e+01	0	33	104	175636480	46	16609
2026-01-09 01:37:33.05	142.94	16.35	-35.4	-45.6	3.5	3.02e+01	0	33	104	175636480	46	16359
2026-01-09 01:37:34.06	142.90	16.48	-34.8	-45.0	3.5	3.02e+01	0	33	104	175636480	44	17170
2026-01-09 01:37:35.07	142.86	16.60	-34.6	-44.8	3.5	3.02e+01	0	33	104	175636480	44	16712
2026-01-09 01:37:36.08	142.81	16.73	-39.1	-49.7	3.5	3.02e+01	0	33	104	175636480	52	18587
2026-01-09 01:37:37.09	142.77	16.86	-42.6	-53.9	3.5	3.02e+01	0	33	104	175636480	58	21468
2026-01-09 01:37:38.09	142.73	16.98	-47.9	-65.4	3.5	3.02e+01	0	33	104	175636480	60	71535
2026-01-09 01:37:39.10	142.69	17.11	-36.7	-47.0	3.5	3.02e+01	0	33	104	175636480	50	15267
2026-01-09 01:37:40.11	142.64	17.24	-47.6	-63.7	3.5	3.02e+01	0	33	104	175636480	60	58693
2026-01-09 01:37:41.12	142.60	17.37	-35.5	-45.7	3.5	3.02e+01	0	33	104	175636480	46	16687
2026-01-09 01:37:42.13	142.55	17.50	-35.3	-45.4	3.5	3.02e+01	0	33	104	175636480	46	16087
2026-01-09 01:37:43.14	142.51	17.63	-34.7	-44.8	3.5	3.02e+01	0	33	104	175636480	44	16832
2026-01-09 01:37:44.14	142.46	17.77	-34.1	-44.3	3.5	3.02e+01	0	33	104	175636480	44	15869
2026-01-09 01:37:45.15	142.42	17.90	-41.0	-51.8	3.5	3.02e+01	0	33	104	175636480	56	18872
2026-01-09 01:37:46.16	142.37	18.03	-36.9	-47.2	3.5	3.02e+01	0	33	104	175636480	52	13941
2026-01-09 01:37:47.17	142.33	18.17	-47.5	-63.0	3.5	3.02e+01	0	33	104	175636480	60	54462
2026-01-09 01:37:48.18	142.28	18.30	-47.6	-63.7	3.5	3.02e+01	0	33	104	175636480	60	58820
2026-01-09 01:37:49.19	142.23	18.44	-41.3	-52.2	3.5	3.02e+01	0	33	104	175636480	56	19761
2026-01-09 01:37:50.20	142.18	18.58	-35.6	-45.8	3.5	3.02e+01	0	33	104	175636480	46	16819
2026-01-09 01:37:51.21	142.13	18.71	-34.6	-44.7	3.5	3.02e+01	0	33	104	175636480	44	16602
2026-01-09 01:37:52.22	142.09	18.85	-34.3	-44.5	3.5	3.02e+01	0	33	104	175636480	44	16150
2026-01-09 01:37:53.23	142.04	18.99	-34.0	-44.1	3.5	3.02e+01	0	33	104	175636480	44	15482
2026-01-09 01:37:54.24	141.99	19.13	-36.0	-46.2	3.5	3.02e+01	0	33	104	175636480	48	15696
2026-01-09 01:37:55.24	141.94	19.27	-37.0	-47.4	3.5	3.02e+01	0	33	104	175636480	52	14261
2026-01-09 01:37:56.25	141.88	19.41	-47.0	-61.7	3.5	3.02e+01	0	33	104	175636480	60	46599
2026-01-09 01:37:57.26	141.83	19.56	-35.9	-46.2	3.5	3.02e+01	0	33	104	175636480	50	13946
2026-01-09 01:37:58.27	141.78	19.70	-47.1	-61.7	3.5	3.02e+01	0	33	104	175636480	60	46741
2026-01-09 01:37:59.28	141.73	19.85	-35.1	-45.3	3.5	3.02e+01	0	33	104	175636480	46	15873
2026-01-09 01:38:00.29	141.67	19.99	-34.5	-44.8	3.5	3.02e+01	0	33	104	175636480	44	16752
2026-01-09 01:38:01.30	141.62	20.14	-34.0	-44.2	3.5	3.02e+01	0	33	104	175636480	44	15609
2026-01-09 01:38:02.31	141.57	20.28	-34.1	-44.3	3.5	3.02e+01	0	33	104	175636480	42	17838
2026-01-09 01:38:03.32	141.51	20.43	-34.4	-44.6	3.5	3.02e+01	0	33	104	175636480	44	16479
2026-01-09 01:38:04.33	141.45	20.58	-36.5	-46.8	3.5	3.02e+01	0	33	104	175636480	52	13385
2026-01-09 01:38:05.34	141.40	20.73	-46.4	-60.2	3.5	3.02e+01	0	33	104	175636480	60	39548
2026-01-09 01:38:06.35	141.34	20.88	-34.9	-45.1	3.5	3.02e+01	0	33	104	175636480	46	15486
2026-01-09 01:38:07.36	141.28	21.04	-45.1	-57.2	3.5	3.02e+01	0	33	104	175636480	60	28038
2026-01-09 01:38:08.36	141.23	21.19	-35.5	-45.7	3.5	3.02e+01	0	33	104	175636480	46	16627
2026-01-09 01:38:09.38	141.17	21.34	-34.8	-45.0	3.5	3.02e+01	0	33	104	175636480	44	17116
2026-01-09 01:38:10.38	141.11	21.50	-34.3	-44.4	3.5	3.02e+01	0	33	104	175636480	44	16064
2026-01-09 01:38:11.39	141.05	21.65	-34.2	-44.4	3.5	3.02e+01	0	33	104	175636480	44	16038
2026-01-09 01:38:12.40	140.99	21.81	-34.6	-44.8	3.5	3.02e+01	0	33	104	175636480	46	14921
2026-01-09 01:38:13.41	140.92	21.97	-35.7	-45.9	3.5	3.02e+01	0	33	104	175636480	50	13558
2026-01-09 01:38:14.42	140.86	22.13	-46.9	-61.5	3.5	3.02e+01	0	33	104	175636480	60	45535
2026-01-09 01:38:15.43	140.80	22.29	-37.9	-48.3	3.5	3.02e+01	0	33	104	175636480	52	15879
2026-01-09 01:38:16.44	140.74	22.45	-46.1	-59.0	3.5	3.02e+01	0	33	104	175636480	60	34432
2026-01-09 01:38:17.45	140.67	22.61	-40.8	-51.5	3.5	3.02e+01	0	33	104	175636480	56	18203
2026-01-09 01:38:18.46	140.61	22.78	-38.9	-49.4	3.5	3.02e+01	0	33	104	175636480	54	15961
2026-01-09 01:38:19.47	140.54	22.94	-37.8	-48.2	3.5	3.02e+01	0	33	104	175636480	50	17514
2026-01-09 01:38:20.48	140.47	23.11	-36.0	-46.3	3.5	3.02e+01	0	33	104	175636480	48	15814
2026-01-09 01:38:21.49	140.41	23.27	-39.1	-49.5	3.7	3.02e+01	0	33	104	175636480	48	23004
2026-01-09 01:38:22.50	140.34	23.44	-36.4	-46.6	3.5	3.02e+01	0	33	104	175636480	52	13089
2026-01-09 01:38:23.50	140.27	23.61	-44.6	-56.8	3.5	3.02e+01	0	33	104	175636480	58	29845
2026-01-09 01:38:24.51	140.20	23.78	-36.3	-46.5	3.5	3.02e+01	0	33	104	175636480	54	11502
2026-01-09 01:38:25.52	140.13	23.95	-37.0	-47.3	3.5	3.02e+01	0	33	104	175636480	50	15849
2026-01-09 01:38:26.54	140.06	24.12	-35.2	-45.4	3.5	3.02e+01	0	33	104	175636480	46	16125
2026-01-09 01:38:27.54	139.98	24.30	-34.6	-44.8	3.5	3.02e+01	0	33	104	175636480	44	16793
2026-01-09 01:38:28.55	139.91	24.47	-34.2	-44.3	3.5	3.02e+01	0	33	104	175636480	44	15930
2026-01-09 01:38:29.56	139.84	24.65	-36.2	-46.5	3.5	3.02e+01	0	33	104	175636480	44	20453
2026-01-09 01:38:30.57	139.76	24.82	-39.4	-49.9	3.5	3.02e+01	0	33	104	175636480	54	17047
2026-01-09 01:38:31.58	139.69	25.00	-35.9	-46.1	3.5	3.02e+01	0	33	104	175636480	44	19451
2026-01-09 01:38:32.59	139.61	25.18	-47.5	-62.9	3.5	3.02e+01	0	33	104	175636480	60	53797
2026-01-09 01:38:33.60	139.53	25.36	-34.4	-44.5	3.5	3.02e+01	0	33	104	175636480	44	16321
2026-01-09 01:38:34.61	139.45	25.55	-36.0	-46.3	3.6	3.02e+01	0	33	104	175636480	48	15816
2026-01-09 01:38:35.62	139.37	25.73	-34.7	-44.9	3.5	3.02e+01	0	33	104	175636480	44	16937
2026-01-09 01:38:36.63	139.29	25.92	-34.3	-44.6	3.5	3.02e+01	0	33	104	175636480	44	16342
2026-01-09 01:38:37.64	139.21	26.10	-34.4	-44.7	3.5	3.02e+01	0	33	104	175636480	44	16523
2026-01-09 01:38:38.65	139.13	26.29	-37.3	-47.7	3.5	3.02e+01	0	33	104	175636480	46	20887
2026-01-09 01:38:39.66	139.04	26.48	-35.5	-45.7	3.5	3.02e+01	0	33	104	175636480	44	18632
2026-01-09 01:38:40.67	138.96	26.67	-42.7	-53.9	3.5	3.02e+01	0	33	104	175636480	50	34022
2026-01-09 01:38:41.68	138.87	26.86	-44.9	-57.2	3.5	3.02e+01	0	33	104	175636480	60	27764
2026-01-09 01:38:42.68	138.78	27.05	-43.3	-54.6	3.5	3.02e+01	0	33	104	175636480	54	29240
2026-01-09 01:38:43.69	138.70	27.25	-42.9	-53.9	3.5	3.02e+01	0	33	104	175636480	60	19158
2026-01-09 01:38:44.70	138.61	27.44	-39.2	-49.6	3.5	3.02e+01	0	33	104	175636480	54	16506
2026-01-09 01:38:45.71	138.52	27.64	-38.2	-48.6	3.5	3.02e+01	0	33	104	175636480	52	16360
2026-01-09 01:38:46.72	138.42	27.84	-37.5	-47.8	3.5	3.02e+01	0	33	104	175636480	50	16848
2026-01-09 01:38:47.73	138.33	28.04	-43.7	-55.4	3.5	3.02e+01	0	33	104	175636480	58	25538
2026-01-09 01:38:48.74	138.24	28.24	-48.1	-65.6	3.5	3.02e+01	0	33	104	175636480	60	73746
2026-01-09 01:38:49.75	138.14	28.45	-34.8	-45.0	3.4	3.02e+01	0	33	104	175636480	42	19301
2026-01-09 01:38:50.76	138.04	28.65	-36.7	-47.0	3.5	3.02e+01	0	33	104	175636480	48	17158
2026-01-09 01:38:51.77	137.94	28.86	-41.4	-52.2	3.5	3.02e+01	0	33	104	175636480	50	28004
2026-01-09 01:38:52.78	137.84	29.07	-36.2	-46.4	3.5	3.02e+01	0	33	104	175636480	50	14369
2026-01-09 01:38:53.79	137.74	29.28	-34.5	-44.7	3.6	3.02e+01	0	33	104	175636480	44	16635
2026-01-09 01:38:54.80	137.64	29.49	-34.1	-44.2	3.5	3.02e+01	0	33	104	175636480	42	17644
2026-01-09 01:38:55.81	137.54	29.70	-33.4	-43.5	3.5	3.02e+01	0	33	104	175636480	42	16276
2026-01-09 01:38:56.82	137.43	29.92	-39.2	-49.6	3.5	3.02e+01	0	33	104	175636480	50	20718
2026-01-09 01:38:57.83	137.32	30.13	-37.6	-48.0	3.5	3.02e+01	0	33	104	175636480	46	21519
2026-01-09 01:38:58.84	137.21	30.35	-48.2	-65.6	3.5	3.02e+01	0	33	104	175636480	60	72957
2026-01-09 01:38:59.85	137.10	30.57	-40.3	-51.0	3.5	3.02e+01	0	33	104	175636480	56	17145
2026-01-09 01:39:00.85	136.99	30.79	-45.7	-58.3	3.5	3.02e+01	0	33	104	175636480	58	35325
2026-01-09 01:39:01.86	136.88	31.01	-34.8	-44.9	3.5	3.02e+01	0	33	104	175636480	46	15157
2026-01-09 01:39:02.87	136.76	31.23	-33.7	-43.8	3.5	3.02e+01	0	33	104	175636480	42	16720
2026-01-09 01:39:03.88	136.65	31.46	-33.5	-43.6	3.5	3.02e+01	0	33	104	175636480	42	16339
2026-01-09 01:39:04.89	136.53	31.69	-33.3	-43.4	3.5	3.02e+01	0	33	104	175636480	42	16076
2026-01-09 01:39:05.90	136.41	31.92	-37.4	-47.7	3.5	3.02e+01	0	33	104	175636480	46	20829
2026-01-09 01:39:06.91	136.29	32.15	-38.3	-48.7	3.5	3.02e+01	0	33	104	175636480	48	21023
2026-01-09 01:39:07.92	136.16	32.38	-48.3	-66.0	3.5	3.02e+01	0	33	104	175636480	60	76863
2026-01-09 01:39:08.93	136.04	32.62	-45.3	-57.7	3.6	3.02e+01	0	33	104	175636480	60	29442
2026-01-09 01:39:09.94	135.91	32.85	-47.9	-63.8	3.5	3.02e+01	0	33	104	175636480	60	59440
2026-01-09 01:39:10.94	135.78	33.09	-40.1	-50.6	3.5	3.02e+01	0	33	104	175636480	56	16411
2026-01-09 01:39:11.95	135.65	33.33	-39.3	-49.7	3.5	3.02e+01	0	33	104	175636480	54	16630
2026-01-09 01:39:12.96	135.51	33.57	-38.6	-49.0	3.5	3.02e+01	0	33	104	175636480	52	17253
2026-01-09 01:39:13.97	135.38	33.82	-37.6	-48.0	3.5	3.02e+01	0	33	104	175636480	50	17278
2026-01-09 01:39:14.98	135.24	34.06	-39.9	-50.5	3.5	3.02e+01	0	33	104	175636480	54	18309
2026-01-09 01:39:15.99	135.10	34.31	-48.2	-65.3	3.5	3.02e+01	0	33	104	175636480	60	70728
2026-01-09 01:39:17.00	134.96	34.56	-40.6	-51.2	3.5	3.02e+01	0	33	104	175636480	52	22203
2026-01-09 01:39:18.01	134.81	34.81	-40.7	-51.4	3.5	3.02e+01	0	33	104	175636480	54	20107
2026-01-09 01:39:19.02	134.66	35.07	-47.5	-62.5	3.5	3.02e+01	0	33	104	175636480	60	51290
2026-01-09 01:39:20.03	134.51	35.32	-35.5	-45.7	3.5	3.02e+01	0	33	104	175636480	46	16646
2026-01-09 01:39:21.04	134.36	35.58	-35.7	-45.9	3.5	3.02e+01	0	33	104	175636480	46	17064
2026-01-09 01:39:22.05	134.21	35.84	-35.5	-45.8	3.5	3.02e+01	0	33	104	175636480	46	16850
2026-01-09 01:39:23.06	134.05	36.10	-35.5	-45.7	3.5	3.02e+01	0	33	104	175636480	46	16664
2026-01-09 01:39:24.07	133.89	36.37	-39.4	-49.9	3.5	3.02e+01	0	33	104	175636480	52	19065
2026-01-09 01:39:25.08	133.73	36.63	-41.1	-51.9	3.5	3.02e+01	0	33	104	175636480	54	21345
2026-01-09 01:39:26.09	133.56	36.90	-48.3	-65.9	3.5	3.02e+01	0	33	104	175636480	60	76294
2026-01-09 01:39:27.09	133.39	37.17	-41.9	-52.8	3.5	3.02e+01	0	33	104	175636480	60	16796
2026-01-09 01:39:28.10	133.22	37.44	-47.3	-62.0	3.5	3.02e+01	0	33	104	175636480	60	48382
2026-01-09 01:39:29.11	133.05	37.71	-37.0	-47.3	3.5	3.02e+01	0	33	104	175636480	48	17807
2026-01-09 01:39:30.12	132.87	37.99	-36.4	-46.6	3.5	3.02e+01	0	33	104	175636480	48	16506
2026-01-09 01:39:31.13	132.69	38.27	-35.9	-46.1	3.6	3.02e+01	0	33	104	175636480	48	15567
2026-01-09 01:39:32.14	132.51	38.55	-35.9	-46.2	3.5	3.02e+01	0	33	104	175636480	46	17498
2026-01-09 01:39:33.15	132.32	38.83	-38.1	-48.5	3.6	3.02e+01	0	33	104	175636480	52	16183
2026-01-09 01:39:34.16	132.13	39.11	-40.3	-51.1	3.5	3.02e+01	0	33	104	175636480	58	15431
2026-01-09 01:39:35.17	131.93	39.40	-48.4	-66.2	3.5	3.02e+01	0	33	104	175636480	60	78607
2026-01-09 01:39:36.18	131.74	39.69	-44.9	-57.0	3.5	3.02e+01	0	33	104	175636480	60	27305
2026-01-09 01:39:37.18	131.54	39.98	-48.2	-65.0	3.5	3.02e+01	0	33	104	175636480	60	68661
2026-01-09 01:39:38.20	131.33	40.27	-41.9	-52.9	3.5	3.02e+01	0	33	104	175636480	58	19026
2026-01-09 01:39:39.21	131.12	40.57	-39.9	-50.5	3.5	3.02e+01	0	33	104	175636480	56	16158
2026-01-09 01:39:40.21	130.91	40.86	-38.1	-48.5	3.5	3.02e+01	0	33	104	175636480	52	16216
2026-01-09 01:39:41.22	130.69	41.16	-37.6	-48.0	3.6	3.02e+01	0	33	104	175636480	50	17225
2026-01-09 01:39:42.23	130.47	41.46	-37.1	-47.3	3.5	3.02e+01	0	33	104	175636480	50	15838
2026-01-09 01:39:43.24	130.25	41.77	-45.8	-58.3	3.6	3.02e+01	0	33	104	175636480	60	31615
2026-01-09 01:39:44.25	130.02	42.07	-43.6	-54.9	3.5	3.02e+01	0	33	104	175636480	60	21295
2026-01-09 01:39:45.26	129.78	42.38	-47.6	-63.0	3.6	3.02e+01	0	33	104	175636480	60	54209
2026-01-09 01:39:46.28	129.54	42.69	-40.9	-51.7	3.5	3.02e+01	0	33	104	175636480	56	18548
2026-01-09 01:39:47.29	129.30	43.01	-35.6	-45.8	3.5	3.02e+01	0	33	104	175636480	46	16769
2026-01-09 01:39:48.30	129.05	43.32	-34.9	-45.2	3.5	3.02e+01	0	33	104	175636480	46	15639
2026-01-09 01:39:49.30	128.80	43.63	-34.5	-44.6	3.5	3.02e+01	0	33	104	175636480	44	16368
2026-01-09 01:39:50.31	128.54	43.95	-34.2	-44.3	3.6	3.02e+01	0	33	104	175636480	44	15904
2026-01-09 01:39:51.32	128.27	44.27	-35.2	-45.5	3.5	3.02e+01	0	33	104	175636480	46	16138
2026-01-09 01:39:52.33	128.00	44.60	-36.4	-46.8	3.5	3.02e+01	0	33	104	175636480	52	13311
2026-01-09 01:39:53.34	127.72	44.92	-46.9	-61.0	3.6	3.02e+01	0	33	104	175636480	60	43049
2026-01-09 01:39:54.35	127.44	45.25	-36.8	-46.9	3.6	3.02e+01	0	33	104	175636480	54	12049
2026-01-09 01:39:55.36	127.16	45.58	-44.2	-55.9	3.6	3.02e+01	0	33	104	175636480	60	23960
2026-01-09 01:39:56.37	126.86	45.91	-35.6	-45.9	3.5	3.02e+01	0	33	104	175636480	46	16900
2026-01-09 01:39:57.37	126.56	46.24	-34.9	-45.1	3.6	3.02e+01	0	33	104	175636480	46	15571
2026-01-09 01:39:58.38	126.26	46.57	-34.7	-44.9	3.6	3.02e+01	0	33	104	175636480	44	17015
2026-01-09 01:39:59.39	125.94	46.91	-34.4	-44.5	3.5	3.02e+01	0	33	104	175636480	44	16166
2026-01-09 01:40:00.40	125.62	47.25	-35.6	-45.9	3.6	3.02e+01	0	33	104	175636480	48	15059
2026-01-09 01:40:01.41	125.29	47.59	-35.2	-45.6	3.5	3.02e+01	0	33	104	175636480	48	14652
2026-01-09 01:40:02.42	124.96	47.93	-47.6	-63.2	3.5	3.02e+01	0	33	104	175636480	60	55560
2026-01-09 01:40:03.43	124.62	48.27	-39.8	-50.4	3.5	3.02e+01	0	33	104	175636480	60	12771
2026-01-09 01:40:04.44	124.26	48.62	-45.8	-58.5	3.5	3.02e+01	0	33	104	175636480	60	32296
2026-01-09 01:40:05.45	123.91	48.97	-40.3	-50.9	3.5	3.02e+01	0	33	104	175636480	56	16958
2026-01-09 01:40:06.46	123.54	49.32	-38.7	-49.3	3.5	3.02e+01	0	33	104	175636480	52	17696
2026-01-09 01:40:07.47	123.16	49.67	-37.0	-47.3	3.6	3.02e+01	0	33	104	175636480	50	15836
2026-01-09 01:40:08.48	122.78	50.02	-35.7	-45.8	3.5	3.02e+01	0	33	104	175636480	46	16822
2026-01-09 01:40:09.49	122.38	50.37	-38.1	-48.5	3.5	3.02e+01	0	33	104	175636480	46	22977
2026-01-09 01:40:10.50	121.98	50.73	-35.4	-45.6	3.5	3.02e+01	0	33	104	175636480	48	14683
2026-01-09 01:40:11.51	121.57	51.08	-46.2	-59.4	3.5	3.02e+01	0	33	104	175636480	60	35873
2026-01-09 01:40:12.52	121.14	51.44	-35.9	-46.1	3.5	3.02e+01	0	33	104	175636480	54	10927
2026-01-09 01:40:13.53	120.71	51.80	-36.5	-46.8	3.6	3.02e+01	0	33	104	175636480	50	14999
2026-01-09 01:40:14.54	120.26	52.16	-34.8	-45.0	3.5	3.02e+01	0	33	104	175636480	44	17187
2026-01-09 01:40:15.55	119.81	52.52	-33.8	-43.9	3.5	3.02e+01	0	33	104	175636480	42	16999
2026-01-09 01:40:16.56	119.34	52.88	-34.1	-44.2	3.5	3.02e+01	0	33	104	175636480	42	17675
2026-01-09 01:40:17.57	118.86	53.24	-35.8	-46.0	3.5	3.02e+01	0	33	104	175636480	42	21671
2026-01-09 01:40:18.58	118.37	53.61	-33.5	-43.6	3.6	3.02e+01	0	33	104	175636480	42	16444
2026-01-09 01:40:19.59	117.86	53.97	-41.3	-52.1	3.9	3.02e+01	0	33	104	175636480	46	34846
2026-01-09 01:40:20.60	117.35	54.33	-44.0	-55.7	3.5	3.02e+01	0	33	104	175636480	60	23519
2026-01-09 01:40:21.61	116.82	54.70	-37.7	-48.1	3.9	3.02e+01	0	33	104	175636480	42	27501
2026-01-09 01:40:22.62	116.27	55.06	-35.8	-46.1	3.4	3.02e+01	0	33	104	175636480	48	15431
2026-01-09 01:40:23.63	115.71	55.42	-34.2	-44.4	3.5	3.02e+01	0	33	104	175636480	44	15986
2026-01-09 01:40:24.64	115.14	55.79	-34.1	-44.2	3.5	3.02e+01	0	33	104	175636480	42	17511
2026-01-09 01:40:25.65	114.55	56.15	-34.5	-44.6	3.5	3.02e+01	0	33	104	175636480	42	18340
2026-01-09 01:40:26.66	113.95	56.51	-44.8	-56.8	3.5	3.02e+01	0	33	104	175636480	58	30021
2026-01-09 01:40:27.66	113.33	56.87	-34.9	-45.2	3.5	3.02e+01	0	33	104	175636480	46	15720
2026-01-09 01:40:28.67	112.69	57.23	-44.9	-56.9	3.4	3.02e+01	0	33	104	175636480	52	42727
2026-01-09 01:40:29.68	112.04	57.59	-45.2	-57.6	3.5	3.02e+01	0	33	104	175636480	60	29106
2026-01-09 01:40:30.69	111.37	57.95	-40.1	-50.7	3.5	3.02e+01	0	33	104	175636480	46	29372
2026-01-09 01:40:31.70	110.68	58.31	-39.5	-49.9	3.5	3.02e+01	0	33	104	175636480	56	15218
2026-01-09 01:40:32.71	109.97	58.66	-37.2	-47.4	3.5	3.02e+01	0	33	104	175636480	48	18036
2026-01-09 01:40:33.72	109.24	59.02	-37.1	-47.4	3.5	3.02e+01	0	33	104	175636480	48	17968
2026-01-09 01:40:34.73	108.49	59.37	-36.8	-47.1	3.5	3.02e+01	0	33	104	175636480	48	17409
2026-01-09 01:40:35.73	107.73	59.71	-40.1	-50.7	3.5	3.02e+01	0	33	104	175636480	52	20996
2026-01-09 01:40:36.74	106.93	60.06	-47.3	-61.7	3.5	3.02e+01	0	33	104	175636480	60	46932
2026-01-09 01:40:37.75	106.12	60.40	-40.7	-51.2	3.3	3.02e+01	0	33	104	175636480	48	27826
2026-01-09 01:40:38.76	105.29	60.74	-48.2	-65.5	3.5	3.02e+01	0	33	104	175636480	60	72245
2026-01-09 01:40:39.77	104.43	61.08	-36.2	-46.4	3.5	3.02e+01	0	33	104	175636480	46	18009
2026-01-09 01:40:40.78	103.55	61.41	-36.4	-46.7	3.5	3.02e+01	0	33	104	175636480	50	14752
2026-01-09 01:40:41.79	102.65	61.73	-36.2	-46.2	3.5	3.02e+01	0	33	104	175636480	46	17556
2026-01-09 01:40:42.80	101.72	62.06	-36.6	-47.2	3.5	3.02e+01	0	33	104	175636480	46	19727
2026-01-09 01:40:43.81	100.77	62.37	-36.0	-46.2	3.5	3.02e+01	0	33	104	175636480	46	17533
2026-01-09 01:40:44.82	99.79	62.69	-42.8	-54.0	3.5	3.02e+01	0	33	104	175636480	56	24367
2026-01-09 01:40:45.83	98.78	62.99	-38.4	-48.7	3.5	3.02e+01	0	33	104	175636480	48	21004
2026-01-09 01:40:46.84	97.75	63.29	-48.3	-66.1	3.5	3.02e+01	0	33	104	175636480	60	77608
2026-01-09 01:40:47.85	96.70	63.59	-46.6	-60.0	3.5	3.02e+01	0	33	104	175636480	60	38646
2026-01-09 01:40:48.86	95.61	63.87	-46.6	-60.2	3.5	3.02e+01	0	33	104	175636480	60	39172
2026-01-09 01:40:49.86	94.51	64.15	-40.1	-50.8	3.5	3.02e+01	0	33	104	175636480	56	16776
2026-01-09 01:40:50.87	93.38	64.42	-38.1	-48.4	3.5	3.02e+01	0	33	104	175636480	52	16026
2026-01-09 01:40:51.88	92.21	64.68	-37.6	-48.0	3.5	3.02e+01	0	33	104	175636480	50	17102
2026-01-09 01:40:52.89	91.02	64.94	-37.8	-48.3	3.5	3.02e+01	0	33	104	175636480	50	17766
2026-01-09 01:40:53.90	89.81	65.18	-46.8	-60.8	3.5	3.02e+01	0	33	104	175636480	60	41960
2026-01-09 01:40:54.90	88.58	65.41	-39.8	-50.2	3.5	3.02e+01	0	33	104	175636480	50	22128
2026-01-09 01:40:55.91	87.31	65.64	-48.3	-65.9	3.5	3.02e+01	0	33	104	175636480	60	75973
2026-01-09 01:40:56.93	86.00	65.86	-47.3	-62.0	3.5	3.02e+01	0	33	104	175636480	60	48185
2026-01-09 01:40:57.93	84.69	66.06	-47.4	-62.1	3.5	3.02e+01	0	33	104	175636480	60	48926
2026-01-09 01:40:58.94	83.34	66.25	-40.8	-51.7	3.5	3.02e+01	0	33	104	175636480	56	18658
2026-01-09 01:40:59.95	81.97	66.44	-40.0	-50.5	3.5	3.02e+01	0	33	104	175636480	56	16321
2026-01-09 01:41:00.96	80.58	66.60	-40.6	-51.3	3.5	3.02e+01	0	33	104	175636480	54	19896
2026-01-09 01:41:01.97	79.17	66.76	-40.2	-50.7	3.5	3.02e+01	0	33	104	175636480	54	18685
2026-01-09 01:41:02.98	77.74	66.91	-48.0	-64.8	3.5	3.02e+01	0	33	104	175636480	60	66529
2026-01-09 01:41:03.99	76.28	67.04	-48.0	-64.4	3.5	3.02e+01	0	33	104	175636480	60	63987
2026-01-09 01:41:05.00	74.81	67.15	-47.6	-63.2	3.5	3.02e+01	0	33	104	175636480	60	55340
2026-01-09 01:41:06.01	73.33	67.26	-48.3	-65.7	3.5	3.02e+01	0	33	104	175636480	60	74287
2026-01-09 01:41:07.02	71.83	67.35	-43.3	-54.7	3.5	3.02e+01	0	33	104	175636480	58	23523
2026-01-09 01:41:08.02	70.33	67.42	-41.0	-51.6	3.5	3.02e+01	0	33	104	175636480	56	18351
2026-01-09 01:41:09.04	68.80	67.48	-40.7	-51.8	3.5	3.02e+01	0	33	104	175636480	56	18759
2026-01-09 01:41:10.04	67.28	67.53	-40.1	-50.7	3.5	3.02e+01	0	33	104	175636480	56	16578
2026-01-09 01:41:11.05	65.75	67.56	-39.1	-49.5	3.5	3.02e+01	0	33	104	175636480	54	16215
2026-01-09 01:41:12.05	64.22	67.58	-43.0	-54.4	3.5	3.02e+01	0	33	104	175636480	60	20162
2026-01-09 01:41:13.06	62.68	67.58	-43.1	-54.5	3.5	3.02e+01	0	33	104	175636480	58	23035
2026-01-09 01:41:14.07	61.14	67.57	-48.3	-65.9	3.5	3.02e+01	0	33	104	175636480	60	76271
2026-01-09 01:41:15.08	59.61	67.54	-47.7	-63.5	3.5	3.02e+01	0	33	104	175636480	60	57634
2026-01-09 01:41:16.09	58.08	67.50	-47.6	-63.2	3.5	3.02e+01	0	33	104	175636480	60	55447
2026-01-09 01:41:17.10	56.55	67.44	-40.7	-51.1	3.5	3.02e+01	0	33	104	175636480	56	17451
2026-01-09 01:41:18.11	55.04	67.37	-40.7	-51.4	3.5	3.02e+01	0	33	104	175636480	56	17981
2026-01-09 01:41:19.12	53.54	67.29	-40.7	-51.4	3.5	3.02e+01	0	33	104	175636480	56	18043
2026-01-09 01:41:20.13	52.05	67.19	-40.1	-50.6	3.5	3.02e+01	0	33	104	175636480	56	16389
2026-01-09 01:41:21.13	50.59	67.07	-41.8	-53.0	3.5	3.02e+01	0	33	104	175636480	58	19201
2026-01-09 01:41:22.15	49.12	66.94	-47.1	-61.6	3.5	3.02e+01	0	33	104	175636480	60	46508
2026-01-09 01:41:23.16	47.68	66.80	-47.7	-63.3	3.5	3.02e+01	0	33	104	175636480	60	56310
2026-01-09 01:41:24.17	46.26	66.65	-48.3	-66.0	3.5	3.02e+01	0	33	104	175636480	60	76429
2026-01-09 01:41:25.17	44.88	66.49	-44.9	-57.4	3.5	3.02e+01	0	33	104	175636480	60	28422
2026-01-09 01:41:26.18	43.50	66.31	-42.0	-53.0	3.5	3.02e+01	0	33	104	175636480	58	19305
2026-01-09 01:41:27.19	42.15	66.12	-40.4	-50.6	3.5	3.02e+01	0	33	104	175636480	56	16484
2026-01-09 01:41:28.20	40.83	65.92	-40.7	-52.0	3.5	3.02e+01	0	33	104	175636480	56	19333
2026-01-09 01:41:29.21	39.52	65.71	-39.4	-49.9	3.5	3.02e+01	0	33	104	175636480	54	17061
2026-01-09 01:41:30.22	38.25	65.48	-41.8	-52.4	3.5	3.02e+01	0	33	104	175636480	60	16118
2026-01-09 01:41:31.23	37.00	65.25	-41.1	-51.4	3.5	3.02e+01	0	33	104	175636480	58	16063
2026-01-09 01:41:32.24	35.77	65.01	-48.3	-66.1	3.5	3.02e+01	0	33	104	175636480	60	77675
2026-01-09 01:41:33.25	34.58	64.76	-46.0	-59.1	3.5	3.02e+01	0	33	104	175636480	60	34860
2026-01-09 01:41:34.26	33.41	64.50	-46.9	-61.0	3.5	3.02e+01	0	33	104	175636480	60	43232
2026-01-09 01:41:35.27	32.26	64.23	-39.8	-50.3	3.5	3.02e+01	0	33	104	175636480	54	17755
2026-01-09 01:41:36.28	31.15	63.95	-39.7	-50.6	3.5	3.02e+01	0	33	104	175636480	54	18388
2026-01-09 01:41:37.29	30.06	63.67	-38.3	-48.5	3.5	3.02e+01	0	33	104	175636480	52	16179
2026-01-09 01:41:38.30	29.00	63.38	-39.0	-49.6	3.5	3.02e+01	0	33	104	175636480	52	18402
2026-01-09 01:41:39.31	27.96	63.08	-42.7	-54.0	3.5	3.02e+01	0	33	104	175636480	60	19265
2026-01-09 01:41:40.32	26.95	62.78	-42.1	-53.0	3.6	3.02e+01	0	33	104	175636480	60	17232
2026-01-09 01:41:41.33	25.97	62.47	-47.1	-61.1	3.5	3.02e+01	0	33	104	175636480	60	43537
2026-01-09 01:41:42.34	25.01	62.15	-45.8	-58.9	3.5	3.02e+01	0	33	104	175636480	60	33873
2026-01-09 01:41:43.35	24.07	61.83	-41.4	-52.4	3.5	3.02e+01	0	33	104	175636480	58	18103
2026-01-09 01:41:44.35	23.17	61.51	-37.7	-47.8	3.5	3.02e+01	0	33	104	175636480	50	16760
2026-01-09 01:41:45.36	22.29	61.18	-36.7	-46.9	3.5	3.02e+01	0	33	104	175636480	48	17028
2026-01-09 01:41:46.37	21.42	60.84	-36.5	-47.1	3.5	3.02e+01	0	33	104	175636480	48	17312
2026-01-09 01:41:47.38	20.58	60.51	-36.8	-46.7	3.5	3.02e+01	0	33	104	175636480	48	16640
2026-01-09 01:41:48.39	19.77	60.17	-39.8	-50.4	3.5	3.02e+01	0	33	104	175636480	60	12751
2026-01-09 01:41:49.40	18.97	59.82	-35.7	-46.0	3.5	3.02e+01	0	33	104	175636480	48	15279
2026-01-09 01:41:50.41	18.20	59.48	-47.7	-63.6	3.6	3.02e+01	0	33	104	175636480	60	58556
2026-01-09 01:41:51.41	17.45	59.13	-39.3	-49.8	3.5	3.02e+01	0	33	104	175636480	60	11956
2026-01-09 01:41:52.42	16.72	58.78	-43.7	-55.1	3.5	3.02e+01	0	33	104	175636480	60	21784
2026-01-09 01:41:53.43	16.00	58.42	-37.3	-47.4	3.6	3.02e+01	0	33	104	175636480	50	16096
2026-01-09 01:41:54.44	15.31	58.07	-36.7	-47.1	3.6	3.02e+01	0	33	104	175636480	48	17319
2026-01-09 01:41:55.45	14.63	57.71	-35.7	-46.1	3.5	3.02e+01	0	33	104	175636480	46	17362
2026-01-09 01:41:56.46	13.97	57.35	-36.6	-46.7	3.5	3.02e+01	0	33	104	175636480	46	18603
2026-01-09 01:41:57.47	13.33	56.99	-35.2	-45.3	3.5	3.02e+01	0	33	104	175636480	46	15849
2026-01-09 01:41:58.48	12.71	56.63	-34.3	-44.4	3.4	3.02e+01	0	33	104	175636480	44	16117
2026-01-09 01:41:59.49	12.10	56.27	-47.4	-62.7	3.5	3.02e+01	0	33	104	175636480	60	52363
2026-01-09 01:42:00.50	11.50	55.91	-35.9	-46.0	3.5	3.02e+01	0	33	104	175636480	48	15391
2026-01-09 01:42:01.51	10.93	55.55	-40.9	-51.8	3.5	3.02e+01	0	33	104	175636480	60	14930
2026-01-09 01:42:02.52	10.37	55.18	-36.0	-46.0	3.5	3.02e+01	0	33	104	175636480	48	15305
2026-01-09 01:42:03.53	9.82	54.82	-34.9	-45.2	3.5	3.02e+01	0	33	104	175636480	46	15766
2026-01-09 01:42:04.54	9.28	54.46	-33.8	-44.1	3.5	3.02e+01	0	33	104	175636480	42	17335
2026-01-09 01:42:05.54	8.77	54.10	-34.4	-44.5	3.5	3.02e+01	0	33	104	175636480	42	18232
2026-01-09 01:42:06.55	8.26	53.74	-33.8	-43.8	3.5	3.02e+01	0	33	104	175636480	44	14963
2026-01-09 01:42:07.56	7.77	53.37	-36.5	-47.0	3.5	3.02e+01	0	33	104	175636480	42	24242
2026-01-09 01:42:08.57	7.29	53.01	-46.0	-58.8	3.5	3.02e+01	0	33	104	175636480	60	33541
2026-01-09 01:42:09.58	6.81	52.65	-35.6	-45.9	3.5	3.02e+01	0	33	104	175636480	46	17005
2026-01-09 01:42:10.58	6.36	52.30	-40.0	-50.5	3.5	3.02e+01	0	33	104	175636480	56	16321
2026-01-09 01:42:11.59	5.91	51.94	-35.6	-46.0	3.5	3.02e+01	0	33	104	175636480	46	17192
2026-01-09 01:42:12.60	5.48	51.58	-34.5	-44.9	3.5	3.02e+01	0	33	104	175636480	44	16897
2026-01-09 01:42:13.61	5.05	51.22	-34.0	-44.2	3.5	3.02e+01	0	33	104	175636480	44	15661
2026-01-09 01:42:14.62	4.63	50.87	-37.9	-48.0	3.5	3.02e+01	0	33	104	175636480	46	21760
2026-01-09 01:42:15.63	4.23	50.51	-34.0	-44.2	3.5	3.02e+01	0	33	104	175636480	44	15645
2026-01-09 01:42:16.64	3.83	50.16	-46.6	-60.3	3.5	3.02e+01	0	33	104	175636480	54	56369
2026-01-09 01:42:17.65	3.45	49.81	-45.9	-58.7	3.5	3.02e+01	0	33	104	175636480	60	33003
2026-01-09 01:42:18.66	3.07	49.46	-40.0	-50.6	3.5	3.02e+01	0	33	104	175636480	48	26050
2026-01-09 01:42:19.67	2.70	49.11	-39.7	-50.4	3.5	3.02e+01	0	33	104	175636480	56	15990
2026-01-09 01:42:20.68	2.34	48.76	-37.3	-47.6	3.5	3.02e+01	0	33	104	175636480	50	16478
2026-01-09 01:42:21.69	1.98	48.42	-36.5	-46.8	3.5	3.02e+01	0	33	104	175636480	48	16705
2026-01-09 01:42:22.70	1.64	48.08	-35.0	-45.0	3.5	3.02e+01	0	33	104	175636480	46	15325
2026-01-09 01:42:23.71	1.30	47.73	-38.3	-48.4	3.5	3.02e+01	0	33	104	175636480	48	20284
2026-01-09 01:42:24.72	0.97	47.39	-34.7	-44.9	3.5	3.02e+01	0	33	104	175636480	44	16975
2026-01-09 01:42:25.72	0.65	47.06	-48.1	-64.8	3.5	3.02e+01	0	33	104	175636480	60	67181
2026-01-09 01:42:26.73	0.34	46.72	-46.1	-59.1	3.5	3.02e+01	0	33	104	175636480	60	34753
2026-01-09 01:42:27.74	0.03	46.39	-41.6	-52.2	3.5	3.02e+01	0	33	104	175636480	50	27919
2026-01-09 01:42:28.75	359.73	46.06	-39.0	-49.4	3.5	3.02e+01	0	33	104	175636480	54	16032
2026-01-09 01:42:29.76	359.43	45.73	-37.1	-47.1	3.5	3.02e+01	0	33	104	175636480	48	17484
2026-01-09 01:42:30.77	359.14	45.40	-35.7	-45.7	3.5	3.02e+01	0	33	104	175636480	46	16674
2026-01-09 01:42:31.78	358.86	45.07	-34.7	-44.8	3.5	3.02e+01	0	33	104	175636480	44	16805
2026-01-09 01:42:32.79	358.58	44.75	-36.2	-46.4	3.5	3.02e+01	0	33	104	175636480	44	20227
2026-01-09 01:42:33.80	358.31	44.42	-35.6	-46.2	3.5	3.02e+01	0	33	104	175636480	44	19641
2026-01-09 01:42:34.81	358.04	44.10	-48.2	-65.4	3.5	3.02e+01	0	33	104	175636480	60	71258
2026-01-09 01:42:35.81	357.79	43.79	-44.9	-56.7	3.5	3.02e+01	0	33	104	175636480	60	26396
2026-01-09 01:42:36.82	357.53	43.47	-42.6	-53.6	3.9	3.02e+01	0	33	104	175636480	52	29136
2026-01-09 01:42:37.84	357.28	43.16	-36.2	-46.3	3.6	3.02e+01	0	33	104	175636480	48	15877
2026-01-09 01:42:38.85	357.03	42.84	-35.3	-45.6	3.5	3.02e+01	0	33	104	175636480	46	16397
2026-01-09 01:42:39.85	356.80	42.54	-35.4	-45.8	3.5	3.02e+01	0	33	104	175636480	46	16787
2026-01-09 01:42:40.86	356.56	42.23	-35.4	-45.7	3.5	3.02e+01	0	33	104	175636480	46	16648
2026-01-09 01:42:41.87	356.33	41.92	-35.7	-45.7	3.5	3.02e+01	0	33	104	175636480	44	18726
2026-01-09 01:42:42.88	356.10	41.62	-36.8	-46.9	3.5	3.02e+01	0	33	104	175636480	46	19101
2026-01-09 01:42:43.89	355.88	41.32	-48.1	-65.3	3.5	3.02e+01	0	33	104	175636480	60	70809
2026-01-09 01:42:44.90	355.66	41.02	-46.5	-59.6	3.5	3.02e+01	0	33	104	175636480	60	36954
2026-01-09 01:42:45.91	355.45	40.72	-47.0	-61.0	3.5	3.02e+01	0	33	104	175636480	60	43019
2026-01-09 01:42:46.92	355.24	40.43	-39.9	-50.7	3.5	3.02e+01	0	33	104	175636480	56	16669
2026-01-09 01:42:47.93	355.03	40.14	-38.8	-49.5	3.5	3.02e+01	0	33	104	175636480	52	18314
2026-01-09 01:42:48.94	354.83	39.85	-38.3	-48.6	3.5	3.02e+01	0	33	104	175636480	52	16472
2026-01-09 01:42:49.95	354.63	39.56	-38.7	-48.9	3.5	3.02e+01	0	33	104	175636480	52	17046
2026-01-09 01:42:50.96	354.44	39.27	-45.0	-57.2	3.5	3.02e+01	0	33	104	175636480	60	27918
2026-01-09 01:42:51.96	354.25	38.99	-47.0	-61.3	3.5	3.02e+01	0	33	104	175636480	60	44594
2026-01-09 01:42:52.97	354.06	38.71	-47.7	-63.4	3.5	3.02e+01	0	33	104	175636480	60	56854
2026-01-09 01:42:53.98	353.88	38.43	-48.1	-65.4	3.5	3.02e+01	0	33	104	175636480	60	71934
2026-01-09 01:42:54.99	353.69	38.15	-38.3	-48.4	3.5	3.02e+01	0	33	104	175636480	48	20304
2026-01-09 01:42:56.00	353.52	37.87	-36.6	-46.7	3.5	3.02e+01	0	33	104	175636480	48	16612
2026-01-09 01:42:57.01	353.34	37.60	-36.5	-46.8	3.5	3.02e+01	0	33	104	175636480	48	16737
2026-01-09 01:42:58.02	353.17	37.33	-36.0	-46.6	3.5	3.02e+01	0	33	104	175636480	48	16332
2026-01-09 01:42:59.03	353.00	37.06	-35.6	-46.1	3.5	3.02e+01	0	33	104	175636480	46	17375
2026-01-09 01:43:00.04	352.83	36.79	-39.1	-49.7	3.5	3.02e+01	0	33	104	175636480	52	18588
2026-01-09 01:43:01.05	352.67	36.53	-38.0	-48.4	3.5	3.02e+01	0	33	104	175636480	50	17931
2026-01-09 01:43:02.06	352.51	36.26	-48.1	-65.2	3.5	3.02e+01	0	33	104	175636480	60	70330
2026-01-09 01:43:03.07	352.35	36.00	-45.5	-57.8	3.5	3.02e+01	0	33	104	175636480	60	29791
2026-01-09 01:43:04.08	352.20	35.74	-45.6	-58.1	3.5	3.02e+01	0	33	104	175636480	60	30939
2026-01-09 01:43:05.09	352.04	35.48	-35.6	-45.7	3.5	3.02e+01	0	33	104	175636480	46	16607
2026-01-09 01:43:06.10	351.89	35.23	-35.4	-45.5	3.5	3.02e+01	0	33	104	175636480	46	16273
2026-01-09 01:43:07.11	351.75	34.97	-35.5	-45.7	3.5	3.02e+01	0	33	104	175636480	46	16615
2026-01-09 01:43:08.12	351.60	34.72	-34.5	-44.7	3.5	3.02e+01	0	33	104	175636480	44	16588
2026-01-09 01:43:09.13	351.46	34.47	-37.5	-47.7	3.5	3.02e+01	0	33	104	175636480	48	18671
2026-01-09 01:43:10.13	351.32	34.23	-37.2	-47.5	3.5	3.02e+01	0	33	104	175636480	46	20399
2026-01-09 01:43:11.14	351.18	33.98	-48.1	-65.1	3.5	3.02e+01	0	33	104	175636480	60	69299
2026-01-09 01:43:12.15	351.04	33.74	-42.9	-54.0	3.5	3.02e+01	0	33	104	175636480	60	19179
2026-01-09 01:43:13.16	350.91	33.50	-46.3	-59.5	3.5	3.02e+01	0	33	104	175636480	60	36211
2026-01-09 01:43:14.17	350.78	33.26	-37.2	-47.6	3.5	3.02e+01	0	33	104	175636480	50	16418
2026-01-09 01:43:15.18	350.65	33.02	-35.7	-46.0	3.5	3.02e+01	0	33	104	175636480	46	17155
2026-01-09 01:43:16.19	350.52	32.78	-34.6	-44.9	3.5	3.02e+01	0	33	104	175636480	44	17029
2026-01-09 01:43:17.20	350.39	32.55	-34.1	-44.6	3.5	3.02e+01	0	33	104	175636480	44	16436
2026-01-09 01:43:18.21	350.27	32.31	-33.9	-44.3	3.5	3.02e+01	0	33	104	175636480	42	17890
2026-01-09 01:43:19.22	350.15	32.08	-35.0	-45.3	3.5	3.02e+01	0	33	104	175636480	46	15886
2026-01-09 01:43:20.23	350.03	31.85	-48.0	-64.8	3.5	3.02e+01	0	33	104	175636480	60	66781
2026-01-09 01:43:21.24	349.91	31.62	-40.9	-51.5	3.5	3.02e+01	0	33	104	175636480	60	14423
2026-01-09 01:43:22.25	349.79	31.40	-45.9	-58.6	3.4	3.02e+01	0	33	104	175636480	60	32896
2026-01-09 01:43:23.25	349.68	31.18	-37.1	-47.2	3.6	3.02e+01	0	33	104	175636480	48	17579
2026-01-09 01:43:24.26	349.56	30.95	-35.5	-37.1	5.2	3.02e+01	0	33	104	175636480	46	6166
2026-01-09 01:43:25.27	349.45	30.73	-35.0	-36.5	28.5	3.02e+01	57	33	0	175636480	46	5766
2026-01-09 01:43:26.28	349.34	30.51	-35.2	-36.4	28.5	3.02e+01	55	33	0	177209344	44	6387
2026-01-09 01:43:27.29	349.23	30.30	-33.8	-35.0	29.9	3.02e+01	55	33	0	179306496	42	6067
2026-01-09 01:43:28.30	349.12	30.08	-33.1	-34.2	30.4	3.02e+01	58	33	0	181403648	42	5584
2026-01-09 01:43:29.31	349.02	29.87	-33.2	-34.3	30.4	3.02e+01	53	33	0	182976512	42	5648
2026-01-09 01:43:30.32	348.91	29.65	-33.1	-34.2	30.4	3.02e+01	57	33	0	185073664	42	5574
2026-01-09 01:43:31.33	348.81	29.44	-33.1	-34.3	30.4	3.02e+01	57	33	0	186646528	42	5618
2026-01-09 01:43:32.34	348.71	29.23	-33.2	-34.3	30.3	3.02e+01	61	33	0	188743680	42	5651
2026-01-09 01:43:33.35	348.61	29.02	-33.3	-34.5	30.1	3.02e+01	59	33	0	190840832	42	5770
2026-01-09 01:43:34.36	348.51	28.82	-33.4	-34.6	30.1	3.02e+01	51	33	0	192413696	42	5804
2026-01-09 01:43:35.37	348.41	28.61	-33.5	-34.6	30.1	3.02e+01	60	33	0	194510848	42	5855
2026-01-09 01:43:36.38	348.32	28.41	-33.3	-34.4	30.2	3.02e+01	59	33	0	196083712	42	5724
2026-01-09 01:43:37.39	348.22	28.21	-33.3	-34.4	30.1	3.02e+01	51	33	0	198180864	42	5714
2026-01-09 01:43:38.40	348.13	28.01	-33.2	-34.4	30.3	3.02e+01	59	33	0	200278016	42	5678
2026-01-09 01:43:39.41	348.04	27.81	-33.2	-34.4	30.3	3.02e+01	54	33	0	201850880	42	5662
2026-01-09 01:43:40.41	347.95	27.61	-33.4	-34.5	30.2	3.02e+01	58	33	0	203948032	42	5784
2026-01-09 01:43:41.42	347.86	27.42	-33.5	-34.7	30.0	3.02e+01	57	33	0	205520896	42	5881
2026-01-09 01:43:42.43	347.77	27.22	-33.6	-34.7	29.9	3.02e+01	52	33	0	207618048	42	5926
2026-01-09 01:43:43.44	347.68	27.03	-33.7	-34.9	29.7	3.02e+01	60	33	0	209715200	42	6047
2026-01-09 01:43:44.45	347.60	26.84	-33.6	-34.8	29.8	3.02e+01	61	33	0	211288064	42	5952
2026-01-09 01:43:45.46	347.51	26.65	-33.6	-34.8	29.8	3.02e+01	50	33	0	213385216	42	5985
2026-01-09 01:43:46.47	347.43	26.46	-33.5	-34.7	29.9	3.02e+01	56	33	0	214958080	42	5906
2026-01-09 01:43:47.48	347.35	26.27	-33.4	-34.5	30.0	3.02e+01	47	33	0	217055232	42	5765
2026-01-09 01:43:48.49	347.26	26.08	-33.4	-34.6	30.0	3.02e+01	60	33	0	219152384	42	5835
2026-01-09 01:43:49.50	347.18	25.90	-33.4	-34.6	30.0	3.02e+01	58	33	0	220725248	42	5814
2026-01-09 01:43:50.51	347.10	25.71	-33.3	-34.4	30.1	3.02e+01	46	33	0	222822400	42	5712
2026-01-09 01:43:51.52	347.02	25.53	-33.3	-34.4	30.2	3.02e+01	62	33	0	224395264	42	5692
2026-01-09 01:43:52.53	346.95	25.35	-33.4	-34.6	30.1	3.02e+01	56	33	0	226492416	42	5826
2026-01-09 01:43:53.54	346.87	25.17	-33.5	-34.7	30.0	3.02e+01	59	33	0	228589568	42	5876
2026-01-09 01:43:54.55	346.79	24.99	-33.6	-34.8	29.8	3.02e+01	59	33	0	230162432	42	5928
2026-01-09 01:43:55.56	346.72	24.82	-33.7	-34.8	29.8	3.02e+01	59	33	0	232259584	42	5985
2026-01-09 01:43:56.57	346.64	24.64	-33.6	-34.7	30.0	3.02e+01	60	33	0	234356736	42	5908
2026-01-09 01:43:57.58	346.57	24.46	-33.6	-34.8	29.9	3.02e+01	59	33	0	235929600	42	5954
2026-01-09 01:43:58.59	346.50	24.29	-33.7	-34.8	29.9	3.02e+01	45	33	0	238026752	42	5972
2026-01-09 01:43:59.60	346.43	24.12	-33.7	-34.9	29.9	3.02e+01	61	33	0	239599616	42	6025
2026-01-09 01:44:00.61	346.36	23.95	-33.8	-35.0	29.7	3.02e+01	59	33	0	241696768	42	6069
2026-01-09 01:44:01.62	346.29	23.78	-33.8	-35.0	29.7	3.02e+01	57	33	0	243793920	42	6107
2026-01-09 01:44:02.62	346.22	23.61	-34.0	-35.2	29.5	3.02e+01	59	33	0	245366784	42	6219
2026-01-09 01:44:03.63	346.15	23.44	-34.0	-35.3	29.5	3.02e+01	57	33	0	247463936	42	6278
2026-01-09 01:44:04.64	346.08	23.27	-34.1	-35.4	29.4	3.02e+01	58	33	0	249561088	42	6351
2026-01-09 01:44:05.65	346.02	23.11	-34.2	-35.4	29.4	3.02e+01	59	33	0	251133952	42	6373
2026-01-09 01:44:06.66	345.95	22.94	-34.1	-35.3	29.4	3.02e+01	50	33	0	253231104	42	6346
2026-01-09 01:44:07.66	345.89	22.78	-33.9	-35.1	29.5	3.02e+01	59	33	0	254803968	42	6191
2026-01-09 01:44:08.67	345.82	22.62	-34.0	-35.2	29.5	3.02e+01	59	33	0	256901120	42	6206
2026-01-09 01:44:09.68	345.76	22.46	-33.8	-35.0	29.7	3.02e+01	55	33	0	258473984	42	6070
2026-01-09 01:44:10.69	345.70	22.30	-33.8	-34.9	29.7	3.02e+01	59	33	0	260571136	42	6058
2026-01-09 01:44:11.70	345.64	22.14	-33.6	-34.8	29.8	3.02e+01	59	33	0	262668288	42	5964
2026-01-09 01:44:12.71	345.57	21.98	-33.7	-34.9	29.8	3.02e+01	59	33	0	264241152	42	6017
2026-01-09 01:44:13.72	345.51	21.82	-33.7	-34.8	29.8	3.02e+01	57	33	0	266338304	42	5987
2026-01-09 01:44:14.73	345.45	21.67	-33.8	-34.9	29.7	3.02e+01	46	33	0	267911168	42	6060
2026-01-09 01:44:15.74	345.39	21.51	-33.8	-35.0	29.7	3.02e+01	62	33	0	270008320	42	6082
2026-01-09 01:44:16.75	345.34	21.36	-33.9	-35.1	29.6	3.02e+01	52	33	0	272105472	42	6159
2026-01-09 01:44:17.76	345.28	21.21	-33.9	-35.1	29.6	3.02e+01	60	33	0	273678336	42	6172
2026-01-09 01:44:18.77	345.22	21.05	-34.1	-35.3	29.3	3.02e+01	64	33	0	275775488	42	6320
2026-01-09 01:44:19.78	345.16	20.90	-34.1	-35.3	29.4	3.02e+01	52	33	0	277872640	42	6333
2026-01-09 01:44:20.78	345.11	20.75	-34.0	-35.2	29.6	3.02e+01	62	33	0	279445504	42	6213
2026-01-09 01:44:21.79	345.05	20.61	-34.0	-35.2	29.5	3.02e+01	62	33	0	281542656	42	6238
2026-01-09 01:44:22.80	345.00	20.46	-33.9	-35.1	29.5	3.02e+01	58	33	0	283115520	42	6192
2026-01-09 01:44:23.81	344.94	20.31	-34.0	-35.2	29.5	3.02e+01	63	33	0	285212672	42	6220
2026-01-09 01:44:24.82	344.89	20.16	-34.1	-35.3	29.4	3.02e+01	53	33	0	287309824	42	6326
2026-01-09 01:44:25.82	344.84	20.02	-34.1	-35.3	29.4	3.02e+01	55	33	0	288882688	42	6314
2026-01-09 01:44:26.83	344.78	19.87	-34.2	-35.4	29.3	3.02e+01	62	33	0	290979840	42	6417
2026-01-09 01:44:27.84	344.73	19.73	-34.1	-35.3	29.3	3.02e+01	45	33	0	292552704	42	6333
2026-01-09 01:44:28.85	344.68	19.59	-34.2	-35.4	29.3	3.02e+01	59	33	0	294649856	42	6374
2026-01-09 01:44:29.86	344.63	19.45	-34.2	-35.4	29.3	3.02e+01	58	33	0	296747008	42	6384
2026-01-09 01:44:30.87	344.58	19.30	-34.1	-35.3	29.4	3.02e+01	60	33	0	298319872	42	6323
2026-01-09 01:44:31.88	344.53	19.16	-34.0	-35.2	29.4	3.02e+01	56	33	0	300417024	42	6265
2026-01-09 01:44:32.89	344.48	19.03	-33.9	-35.1	29.5	3.02e+01	46	33	0	301989888	42	6141
2026-01-09 01:44:33.90	344.43	18.89	-33.9	-35.1	29.5	3.02e+01	62	33	0	304087040	42	6149
2026-01-09 01:44:34.91	344.38	18.75	-33.9	-35.1	29.5	3.02e+01	55	33	0	306184192	42	6156
2026-01-09 01:44:35.92	344.34	18.61	-33.8	-34.9	29.6	3.02e+01	44	33	0	307757056	42	6059
2026-01-09 01:44:36.93	344.29	18.48	-33.7	-34.9	29.6	3.02e+01	55	33	0	309854208	42	6035
2026-01-09 01:44:37.94	344.24	18.34	-33.7	-34.9	29.6	3.02e+01	57	33	0	311427072	42	6008
2026-01-09 01:44:38.94	344.20	18.21	-33.8	-35.0	29.5	3.02e+01	57	33	0	313524224	42	6102
2026-01-09 01:44:39.95	344.15	18.07	-33.6	-34.8	29.6	3.02e+01	60	33	0	315621376	42	5968
2026-01-09 01:44:40.96	344.10	17.94	-33.8	-35.0	29.6	3.02e+01	54	33	0	317194240	42	6099
2026-01-09 01:44:41.97	344.06	17.81	-33.6	-34.8	29.7	3.02e+01	58	33	0	319291392	42	5974
2026-01-09 01:44:42.98	344.01	17.68	-33.7	-34.9	29.6	3.02e+01	61	33	0	320864256	42	6039
2026-01-09 01:44:43.99	343.97	17.55	-33.6	-34.8	29.7	3.02e+01	46	33	0	322961408	42	5960
2026-01-09 01:44:45.00	343.93	17.42	-33.6	-34.8	29.6	3.02e+01	59	33	0	325058560	42	5968
2026-01-09 01:44:46.01	343.88	17.29	-33.6	-34.8	29.8	3.02e+01	61	33	0	326631424	42	5932
2026-01-09 01:44:47.02	343.84	17.16	-33.6	-34.8	29.7	3.02e+01	63	33	0	328728576	42	5952
2026-01-09 01:44:48.03	343.80	17.03	-33.6	-34.7	29.8	3.02e+01	60	33	0	330825728	42	5917
2026-01-09 01:44:49.04	343.76	16.90	-33.6	-34.8	29.7	3.02e+01	49	33	0	332398592	42	5977
2026-01-09 01:44:50.05	343.71	16.78	-33.6	-34.8	29.7	3.02e+01	58	33	0	334495744	42	5978
2026-01-09 01:44:51.06	343.67	16.65	-33.6	-34.8	29.8	3.02e+01	57	33	0	336068608	42	5930
2026-01-09 01:44:52.06	343.63	16.53	-33.7	-34.9	29.7	3.02e+01	48	33	0	338165760	42	6006
2026-01-09 01:44:53.08	343.59	16.40	-33.7	-34.9	29.6	3.02e+01	59	33	0	340262912	42	6061
2026-01-09 01:44:54.08	343.55	16.28	-33.8	-35.0	29.6	3.02e+01	54	33	0	341835776	42	6112
2026-01-09 01:44:55.09	343.51	16.16	-33.7	-34.9	29.7	3.02e+01	61	33	0	343932928	42	6005
2026-01-09 01:44:56.10	343.47	16.03	-33.8	-35.1	29.4	3.02e+01	58	33	0	345505792	42	6140
2026-01-09 01:44:57.11	343.44	15.91	-33.7	-34.9	29.6	3.02e+01	54	33	0	347602944	42	6008
2026-01-09 01:44:58.12	343.40	15.79	-33.8	-35.0	29.5	3.02e+01	61	33	0	349700096	42	6105
2026-01-09 01:44:59.13	343.36	15.67	-33.7	-34.9	29.6	3.02e+01	59	33	0	351272960	42	6022
2026-01-09 01:45:00.14	343.32	15.55	-33.8	-35.0	29.5	3.02e+01	59	33	0	353370112	42	6068
2026-01-09 01:45:01.14	343.28	15.43	-33.9	-35.1	29.5	3.02e+01	61	33	0	355467264	42	6143
2026-01-09 01:45:02.15	343.25	15.32	-33.7	-34.9	29.5	3.02e+01	44	33	0	357040128	42	6029
2026-01-09 01:45:03.16	343.21	15.20	-33.6	-34.8	29.7	3.02e+01	57	33	0	359137280	42	5948
2026-01-09 01:45:04.17	343.17	15.08	-33.6	-34.8	29.7	3.02e+01	56	33	0	360710144	42	5946
2026-01-09 01:45:05.18	343.14	14.96	-33.6	-34.8	29.7	3.02e+01	44	33	0	362807296	42	5953
2026-01-09 01:45:06.19	343.10	14.85	-33.6	-34.7	29.7	3.02e+01	58	33	0	364904448	42	5910
2026-01-09 01:45:07.20	343.07	14.73	-33.6	-34.7	29.7	3.02e+01	59	33	0	366477312	42	5906
2026-01-09 01:45:08.21	343.03	14.62	-33.7	-34.9	29.7	3.02e+01	57	33	0	368574464	42	6020
2026-01-09 01:45:09.22	343.00	14.50	-33.7	-34.9	29.6	3.02e+01	57	33	0	370147328	42	6008
2026-01-09 01:45:10.23	342.96	14.39	-33.5	-34.7	29.7	3.02e+01	45	33	0	372244480	42	5883
2026-01-09 01:45:11.24	342.93	14.28	-33.7	-34.9	29.7	3.02e+01	59	33	0	374341632	42	6015
2026-01-09 01:45:12.25	342.89	14.16	-33.7	-34.9	29.6	3.02e+01	60	33	0	375914496	42	6011
2026-01-09 01:45:13.25	342.86	14.05	-33.6	-34.8	29.6	3.02e+01	44	33	0	378011648	42	5960
2026-01-09 01:45:14.26	342.83	13.94	-33.8	-34.9	29.6	3.02e+01	60	33	0	379584512	42	6061
2026-01-09 01:45:15.27	342.80	13.83	-33.8	-35.0	29.5	3.02e+01	59	33	0	381681664	42	6116
2026-01-09 01:45:16.28	342.76	13.72	-33.9	-35.1	29.5	3.02e+01	59	33	0	383778816	42	6155
2026-01-09 01:45:17.29	342.73	13.61	-33.8	-35.0	29.5	3.02e+01	58	33	0	385351680	42	6073
2026-01-09 01:45:18.30	342.70	13.50	-33.8	-35.0	29.5	3.02e+01	47	33	0	387448832	42	6097
2026-01-09 01:45:19.31	342.67	13.39	-33.9	-35.1	29.4	3.02e+01	61	33	0	389021696	42	6139
2026-01-09 01:45:20.32	342.63	13.29	-33.9	-35.1	29.4	3.02e+01	59	33	0	391118848	42	6161
2026-01-09 01:45:21.33	342.60	13.18	-33.9	-35.2	29.3	3.02e+01	51	33	0	393216000	42	6209
2026-01-09 01:45:22.34	342.57	13.07	-34.0	-35.2	29.3	3.02e+01	61	33	0	394788864	42	6217
2026-01-09 01:45:23.35	342.54	12.96	-33.8	-35.0	29.5	3.02e+01	59	33	0	396886016	42	6086
2026-01-09 01:45:24.36	342.51	12.86	-33.9	-35.1	29.3	3.02e+01	60	33	0	398983168	42	6170
2026-01-09 01:45:25.37	342.48	12.75	-34.0	-35.3	29.3	3.02e+01	57	33	0	400556032	42	6287
2026-01-09 01:45:26.38	342.45	12.65	-34.0	-35.2	29.2	3.02e+01	47	33	0	402653184	42	6227
2026-01-09 01:45:27.38	342.42	12.54	-33.9	-35.1	29.3	3.02e+01	59	33	0	404226048	42	6200
2026-01-09 01:45:28.39	342.39	12.44	-33.8	-35.0	29.4	3.02e+01	60	33	0	406323200	42	6105
2026-01-09 01:45:29.40	342.36	12.34	-34.0	-35.2	29.3	3.02e+01	50	33	0	408420352	42	6236
2026-01-09 01:45:30.41	342.34	12.23	-34.0	-35.2	29.3	3.02e+01	59	33	0	409993216	42	6251
2026-01-09 01:45:31.42	342.31	12.13	-34.1	-35.3	29.1	3.02e+01	58	33	0	412090368	42	6329
2026-01-09 01:45:32.43	342.28	12.03	-34.0	-35.2	29.2	3.02e+01	56	33	0	413663232	42	6238
2026-01-09 01:45:33.44	342.25	11.93	-33.9	-35.1	29.4	3.02e+01	59	33	0	415760384	42	6147
2026-01-09 01:45:34.45	342.22	11.83	-34.0	-35.3	29.1	3.02e+01	52	33	0	417857536	42	6279
2026-01-09 01:45:35.46	342.19	11.72	-34.0	-35.2	29.2	3.02e+01	57	33	0	419430400	42	6272
2026-01-09 01:45:36.47	342.17	11.62	-34.2	-35.4	29.1	3.02e+01	60	33	0	421527552	42	6409
2026-01-09 01:45:37.48	342.14	11.52	-34.0	-35.2	29.3	3.02e+01	59	33	0	423100416	42	6223
2026-01-09 01:45:38.49	342.11	11.43	-34.0	-35.2	29.2	3.02e+01	53	33	0	425197568	42	6239
2026-01-09 01:45:39.50	342.09	11.33	-34.0	-35.2	29.2	3.02e+01	46	33	0	427294720	42	6266
2026-01-09 01:45:40.51	342.06	11.23	-34.0	-35.2	29.2	3.02e+01	57	33	0	428867584	42	6261
2026-01-09 01:45:41.52	342.03	11.13	-34.0	-35.3	29.2	3.02e+01	63	33	0	430964736	42	6279
2026-01-09 01:45:42.53	342.01	11.03	-34.2	-35.4	29.1	3.02e+01	47	33	0	432537600	42	6413
2026-01-09 01:45:43.54	341.98	10.93	-34.2	-35.4	29.1	3.02e+01	60	33	0	434634752	42	6362
2026-01-09 01:45:44.55	341.96	10.84	-34.3	-35.5	28.9	3.02e+01	59	33	0	436731904	42	6438
2026-01-09 01:45:45.56	341.93	10.74	-34.2	-35.4	29.0	3.02e+01	58	33	0	438304768	42	6403
