passes_logs/2026/01/09/R4.6S_Anadyr/R4.6S_Anadyr__20260109_124652_NOAA_21_JPSS-2_rec.log

#Pass ID: 20260109_124652_NOAA 21 (JPSS-2)
#Satellite: NOAA 21 (JPSS-2)
#Configuration: NOAA-21
#almurnet v.1.7.20251203
#Start time: 2026-01-09 12:46:54

#Version: 2.2.20231116
#Station: R4.6S_Anadyr
#Location: 177.4865 lon 64.73178 lat
#TLE: 1 54234U 22150A   26008.59854928  .00000127  00000+0  81204-4 0  9992
#TLE: 2 54234  98.7494 309.5759 0000887 327.7487  32.3634 14.19533414163905

#Time	Az	El	Level	Level2	SNR	BER	BlckErr	Temp	State	Recorded	gain1	gain2
2026-01-09 12:46:54.17	18.77	0.07	-47.9	-49.4	5.7	7.61e-01	0	21	0	0	60	36265
2026-01-09 12:46:55.17	18.83	0.13	-47.7	-60.6	3.6	1.52e+00	0	23	104	0	60	37582
2026-01-09 12:46:56.18	18.89	0.18	-47.7	-60.6	3.5	1.51e+00	0	23	104	0	60	37656
2026-01-09 12:46:57.19	18.95	0.23	-47.7	-60.7	3.5	1.52e+00	0	23	104	0	60	37889
2026-01-09 12:46:58.20	19.02	0.29	-47.8	-60.6	3.5	1.52e+00	0	23	104	0	60	37819
2026-01-09 12:46:59.21	19.08	0.34	-47.8	-60.7	3.5	1.51e+00	0	23	104	0	60	38047
2026-01-09 12:47:00.22	19.14	0.39	-47.8	-60.7	3.5	1.52e+00	0	23	104	0	60	38004
2026-01-09 12:47:01.23	19.21	0.44	-47.7	-60.7	3.5	1.52e+00	0	23	104	0	60	37894
2026-01-09 12:47:02.24	19.27	0.50	-47.8	-60.6	3.5	1.52e+00	0	23	104	0	60	37737
2026-01-09 12:47:03.25	19.34	0.55	-47.7	-60.6	3.5	1.52e+00	0	23	104	0	60	37465
2026-01-09 12:47:04.26	19.40	0.60	-47.7	-60.5	3.5	1.52e+00	0	23	104	0	60	37167
2026-01-09 12:47:05.27	19.46	0.66	-47.5	-60.4	3.5	1.52e+00	0	23	104	0	60	36672
2026-01-09 12:47:06.28	19.53	0.71	-47.4	-60.3	3.5	1.52e+00	0	23	104	0	60	36226
2026-01-09 12:47:07.29	19.59	0.77	-47.2	-60.1	3.5	1.52e+00	0	23	104	0	60	35361
2026-01-09 12:47:08.30	19.66	0.82	-47.1	-59.9	3.5	1.52e+00	0	23	104	0	60	34838
2026-01-09 12:47:09.31	19.73	0.87	-46.9	-59.7	3.5	1.52e+00	0	23	104	0	60	33949
2026-01-09 12:47:10.32	19.79	0.93	-46.5	-59.3	3.5	1.52e+00	0	23	104	0	60	32547
2026-01-09 12:47:11.33	19.86	0.98	-46.1	-58.9	3.5	1.51e+00	0	23	104	0	60	30990
2026-01-09 12:47:12.34	19.92	1.03	-46.1	-58.9	3.5	1.51e+00	0	23	104	0	60	30850
2026-01-09 12:47:13.35	19.99	1.09	-46.1	-58.8	3.5	1.52e+00	0	23	104	0	60	30687
2026-01-09 12:47:14.36	20.06	1.14	-46.1	-58.8	3.5	1.52e+00	0	23	104	0	60	30679
2026-01-09 12:47:15.37	20.12	1.20	-46.1	-58.8	3.5	1.52e+00	0	23	104	0	60	30574
2026-01-09 12:47:16.38	20.19	1.25	-46.1	-58.9	3.5	1.52e+00	0	23	104	0	60	30867
2026-01-09 12:47:17.39	20.26	1.31	-46.1	-58.9	3.5	1.52e+00	0	23	104	0	60	30889
2026-01-09 12:47:18.40	20.32	1.36	-46.1	-58.9	3.5	1.52e+00	0	23	104	0	60	30747
2026-01-09 12:47:19.41	20.39	1.41	-46.1	-58.9	3.5	1.52e+00	0	23	104	0	60	30992
2026-01-09 12:47:20.41	20.46	1.47	-46.1	-58.9	3.5	1.51e+00	0	23	104	0	60	30897
2026-01-09 12:47:21.42	20.53	1.52	-46.1	-58.9	3.5	1.52e+00	0	23	104	0	60	30976
2026-01-09 12:47:22.43	20.59	1.58	-46.0	-58.9	3.5	1.51e+00	0	23	104	0	60	31041
2026-01-09 12:47:23.44	20.66	1.63	-46.0	-58.9	3.5	1.52e+00	0	23	104	0	60	30990
2026-01-09 12:47:24.45	20.73	1.69	-46.1	-58.9	3.5	1.52e+00	0	23	104	0	60	30855
2026-01-09 12:47:25.46	20.80	1.74	-46.0	-58.8	3.5	1.52e+00	0	23	104	0	60	30543
2026-01-09 12:47:26.47	20.87	1.80	-46.0	-58.7	3.5	1.52e+00	0	24	104	0	60	30323
2026-01-09 12:47:27.48	20.94	1.85	-46.0	-58.8	3.5	1.52e+00	0	23	104	0	60	30443
2026-01-09 12:47:28.49	21.01	1.91	-46.0	-58.8	3.5	1.52e+00	0	23	104	0	60	30400
2026-01-09 12:47:29.50	21.08	1.96	-46.0	-58.8	3.5	1.52e+00	0	23	104	0	60	30491
2026-01-09 12:47:30.51	21.15	2.02	-46.0	-58.9	3.5	1.52e+00	0	24	104	0	60	30765
2026-01-09 12:47:31.52	21.22	2.07	-46.0	-58.9	3.5	1.52e+00	0	23	104	0	60	30812
2026-01-09 12:47:32.53	21.29	2.13	-46.0	-58.8	3.5	1.52e+00	0	23	104	0	60	30556
2026-01-09 12:47:33.54	21.36	2.18	-46.0	-58.8	3.5	1.52e+00	0	23	104	0	60	30739
2026-01-09 12:47:34.54	21.43	2.24	-46.0	-58.8	3.5	1.52e+00	0	24	104	0	60	30579
2026-01-09 12:47:35.55	21.50	2.29	-46.0	-58.5	3.5	1.52e+00	0	23	104	0	60	29636
2026-01-09 12:47:36.57	21.58	2.35	-46.0	-57.9	3.5	1.52e+00	0	23	104	0	60	27456
2026-01-09 12:47:37.57	21.65	2.41	-45.9	-57.3	3.6	1.51e+00	0	24	104	0	60	25852
2026-01-09 12:47:38.58	21.72	2.46	-45.9	-57.3	3.5	1.51e+00	0	24	104	0	60	25866
2026-01-09 12:47:39.59	21.79	2.52	-45.9	-57.9	3.5	1.51e+00	0	24	104	0	60	27421
2026-01-09 12:47:40.60	21.87	2.57	-45.9	-57.3	3.5	1.51e+00	0	24	104	0	60	25642
2026-01-09 12:47:41.61	21.94	2.63	-45.3	-53.3	5.5	1.50e+00	124	23	104	0	60	16282
2026-01-09 12:47:42.62	22.01	2.69	-44.2	-48.5	9.3	7.15e-02	123	24	0	1048576	60	9344
2026-01-09 12:47:43.63	22.08	2.74	-42.3	-45.1	13.2	3.20e-04	120	24	0	4194304	58	7060
2026-01-09 12:47:44.64	22.16	2.80	-40.2	-42.1	16.1	0.00e+00	122	24	0	7340032	54	6339
2026-01-09 12:47:45.65	22.23	2.86	-38.7	-40.3	17.9	0.00e+00	123	24	0	10485760	52	5743
2026-01-09 12:47:46.66	22.31	2.91	-37.6	-39.0	19.0	0.00e+00	123	24	0	13631488	48	6215
2026-01-09 12:47:47.67	22.38	2.97	-37.2	-38.5	19.4	0.00e+00	123	24	0	16777216	48	5914
2026-01-09 12:47:48.68	22.46	3.02	-37.0	-38.2	19.6	0.00e+00	122	24	0	19922944	48	5724
2026-01-09 12:47:49.68	22.53	3.08	-37.6	-39.0	19.0	0.00e+00	123	24	0	23068672	48	6214
2026-01-09 12:47:50.69	22.61	3.14	-38.5	-40.0	18.0	0.00e+00	123	23	0	26214400	48	7014
2026-01-09 12:47:51.70	22.68	3.19	-39.9	-41.6	16.4	0.00e+00	123	24	0	29360128	50	7525
2026-01-09 12:47:52.71	22.76	3.25	-37.2	-38.5	18.7	0.00e+00	122	24	0	32505856	48	5891
2026-01-09 12:47:53.72	22.83	3.31	-37.6	-38.9	19.4	0.00e+00	123	24	0	35651584	50	5478
2026-01-09 12:47:54.73	22.91	3.37	-44.0	-48.4	4.5	0.00e+00	123	24	0	38797312	54	12987
2026-01-09 12:47:55.74	22.99	3.42	-45.1	-52.6	4.0	1.51e+00	0	24	104	38797312	60	14920
2026-01-09 12:47:56.74	23.06	3.48	-39.4	-41.1	16.0	0.00e+00	122	24	0	38797312	48	7983
2026-01-09 12:47:57.75	23.14	3.54	-39.0	-40.4	18.0	0.00e+00	123	24	0	41943040	52	5852
2026-01-09 12:47:58.76	23.22	3.59	-38.5	-40.0	18.3	0.00e+00	120	24	0	45088768	50	6221
2026-01-09 12:47:59.77	23.30	3.65	-37.6	-39.0	19.2	0.00e+00	122	24	0	48234496	50	5531
2026-01-09 12:48:00.78	23.37	3.71	-37.7	-39.0	19.4	0.00e+00	122	24	0	51380224	48	6236
2026-01-09 12:48:01.79	23.45	3.77	-36.8	-38.0	20.1	0.00e+00	122	24	0	54525952	48	5579
2026-01-09 12:48:02.80	23.53	3.83	-36.7	-37.9	20.2	0.00e+00	120	24	0	57671680	46	6142
2026-01-09 12:48:03.81	23.61	3.88	-36.7	-37.9	20.2	0.00e+00	123	24	0	60817408	46	6183
2026-01-09 12:48:04.82	23.69	3.94	-36.8	-38.0	20.3	0.00e+00	123	24	0	63963136	46	6245
2026-01-09 12:48:05.83	23.77	4.00	-36.2	-37.4	20.8	0.00e+00	123	24	0	67108864	46	5796
2026-01-09 12:48:06.84	23.85	4.06	-36.3	-37.5	20.6	0.00e+00	122	24	0	70254592	46	5863
2026-01-09 12:48:07.85	23.93	4.12	-36.2	-37.3	20.7	0.00e+00	122	24	0	73400320	46	5770
2026-01-09 12:48:08.86	24.01	4.17	-36.2	-37.4	20.8	0.00e+00	121	24	0	76546048	46	5817
2026-01-09 12:48:09.87	24.09	4.23	-36.2	-37.3	20.8	0.00e+00	123	24	0	79691776	46	5765
2026-01-09 12:48:10.88	24.17	4.29	-36.1	-37.2	20.9	0.00e+00	120	24	0	82837504	46	5702
2026-01-09 12:48:11.89	24.25	4.35	-36.1	-37.2	20.9	0.00e+00	123	24	0	85983232	46	5695
2026-01-09 12:48:12.90	24.33	4.41	-36.1	-37.3	20.9	0.00e+00	122	24	0	89128960	46	5736
2026-01-09 12:48:13.91	24.42	4.47	-36.2	-37.3	20.8	0.00e+00	122	24	0	92274688	46	5791
2026-01-09 12:48:14.92	24.50	4.53	-36.3	-37.4	20.8	0.00e+00	122	24	0	95420416	46	5834
2026-01-09 12:48:15.93	24.58	4.58	-36.2	-37.4	20.8	0.00e+00	123	24	0	98566144	46	5792
2026-01-09 12:48:16.94	24.66	4.64	-36.1	-37.2	20.9	0.00e+00	122	24	0	101711872	46	5722
2026-01-09 12:48:17.95	24.75	4.70	-36.0	-37.1	21.0	0.00e+00	123	24	0	104857600	46	5647
2026-01-09 12:48:18.96	24.83	4.76	-36.1	-37.2	20.9	0.00e+00	122	24	0	108003328	46	5701
2026-01-09 12:48:19.97	24.91	4.82	-35.9	-37.1	21.0	0.00e+00	122	24	0	111149056	46	5597
2026-01-09 12:48:20.97	25.00	4.88	-36.0	-37.1	21.0	0.00e+00	120	24	0	114294784	46	5612
2026-01-09 12:48:21.98	25.08	4.94	-36.0	-37.1	21.0	0.00e+00	123	24	0	117440512	46	5646
2026-01-09 12:48:22.99	25.17	5.00	-35.9	-37.0	21.1	0.00e+00	123	24	0	120586240	46	5556
2026-01-09 12:48:24.00	25.25	5.06	-35.9	-37.0	21.2	0.00e+00	123	24	0	123731968	46	5550
2026-01-09 12:48:25.01	25.34	5.12	-35.9	-37.0	21.1	0.00e+00	122	24	0	126877696	46	5592
2026-01-09 12:48:26.02	25.42	5.18	-36.0	-37.1	21.1	0.00e+00	122	24	0	130023424	46	5621
2026-01-09 12:48:27.03	25.51	5.24	-35.9	-37.0	21.1	0.00e+00	122	24	0	133169152	46	5584
2026-01-09 12:48:28.04	25.60	5.30	-36.2	-37.3	20.9	0.00e+00	122	24	0	136314880	46	5738
2026-01-09 12:48:29.05	25.68	5.36	-36.0	-37.1	21.1	0.00e+00	123	24	0	139460608	46	5621
2026-01-09 12:48:30.06	25.77	5.42	-36.0	-37.1	21.1	0.00e+00	122	24	0	142606336	46	5626
2026-01-09 12:48:31.07	25.86	5.48	-36.0	-37.1	21.2	0.00e+00	123	24	0	145752064	46	5620
2026-01-09 12:48:32.08	25.95	5.54	-35.9	-37.0	21.2	0.00e+00	120	24	0	148897792	46	5587
2026-01-09 12:48:33.09	26.03	5.60	-35.9	-37.0	21.2	0.00e+00	123	24	0	152043520	46	5582
2026-01-09 12:48:34.10	26.12	5.66	-36.0	-37.1	21.2	0.00e+00	123	24	0	155189248	46	5612
2026-01-09 12:48:35.11	26.21	5.72	-36.0	-37.0	21.3	0.00e+00	123	24	0	158334976	46	5589
2026-01-09 12:48:36.12	26.30	5.78	-35.9	-37.0	21.2	0.00e+00	123	24	0	161480704	46	5590
2026-01-09 12:48:37.13	26.39	5.84	-35.9	-37.0	21.2	0.00e+00	123	24	0	164626432	46	5548
2026-01-09 12:48:38.14	26.48	5.90	-36.0	-37.1	21.2	0.00e+00	123	24	0	167772160	46	5624
2026-01-09 12:48:39.15	26.57	5.96	-35.8	-36.9	21.4	0.00e+00	123	24	0	170917888	46	5475
2026-01-09 12:48:40.16	26.66	6.02	-35.7	-36.8	21.4	0.00e+00	123	24	0	174063616	44	6108
2026-01-09 12:48:41.17	26.75	6.08	-35.8	-36.9	21.3	0.00e+00	122	24	0	177209344	44	6144
2026-01-09 12:48:42.18	26.84	6.14	-35.8	-36.9	21.4	0.00e+00	122	24	0	180355072	44	6180
2026-01-09 12:48:43.19	26.94	6.20	-35.7	-36.8	21.4	0.00e+00	120	24	0	183500800	44	6099
2026-01-09 12:48:44.20	27.03	6.27	-35.7	-36.8	21.5	0.00e+00	123	24	0	186646528	44	6070
2026-01-09 12:48:45.21	27.12	6.33	-35.7	-36.7	21.4	0.00e+00	123	24	0	189792256	44	6064
2026-01-09 12:48:46.21	27.21	6.39	-35.6	-36.7	21.5	0.00e+00	122	24	0	192937984	44	6034
2026-01-09 12:48:47.22	27.31	6.45	-35.7	-36.7	21.6	0.00e+00	123	24	0	196083712	44	6064
2026-01-09 12:48:48.23	27.40	6.51	-35.7	-36.7	21.5	0.00e+00	123	24	0	199229440	44	6050
2026-01-09 12:48:49.24	27.49	6.57	-35.7	-36.7	21.6	0.00e+00	122	24	0	202375168	44	6061
2026-01-09 12:48:50.25	27.59	6.63	-35.7	-36.8	21.6	0.00e+00	123	24	0	205520896	44	6070
2026-01-09 12:48:51.26	27.68	6.70	-35.7	-36.8	21.6	0.00e+00	122	24	0	208666624	44	6072
2026-01-09 12:48:52.27	27.78	6.76	-35.6	-36.7	21.6	0.00e+00	122	24	0	211812352	44	6042
2026-01-09 12:48:53.28	27.87	6.82	-35.7	-36.8	21.6	0.00e+00	123	24	0	214958080	44	6080
2026-01-09 12:48:54.29	27.97	6.88	-35.7	-36.8	21.6	0.00e+00	122	24	0	218103808	44	6101
2026-01-09 12:48:55.30	28.06	6.94	-35.6	-36.7	21.7	0.00e+00	122	24	0	221249536	44	6029
2026-01-09 12:48:56.30	28.16	7.01	-35.7	-36.8	21.5	0.00e+00	123	24	0	224395264	44	6111
2026-01-09 12:48:57.31	28.26	7.07	-35.8	-36.9	21.6	0.00e+00	123	24	0	227540992	44	6146
2026-01-09 12:48:58.32	28.35	7.13	-35.6	-36.6	21.7	0.00e+00	122	24	0	230686720	44	5985
2026-01-09 12:48:59.33	28.45	7.19	-35.6	-36.7	21.7	0.00e+00	123	24	0	233832448	44	6002
2026-01-09 12:49:00.34	28.55	7.26	-35.4	-36.5	21.9	0.00e+00	122	24	0	236978176	44	5861
2026-01-09 12:49:01.35	28.65	7.32	-35.4	-36.5	21.9	0.00e+00	123	24	0	240123904	44	5861
2026-01-09 12:49:02.36	28.75	7.38	-35.5	-36.5	21.8	0.00e+00	122	24	0	243269632	44	5904
2026-01-09 12:49:03.37	28.85	7.44	-35.4	-36.4	21.9	0.00e+00	123	24	0	246415360	44	5858
2026-01-09 12:49:04.38	28.95	7.51	-35.5	-36.5	21.9	0.00e+00	122	24	0	249561088	44	5906
2026-01-09 12:49:05.39	29.05	7.57	-35.4	-36.4	22.0	0.00e+00	120	24	0	252706816	44	5826
2026-01-09 12:49:06.40	29.15	7.63	-35.3	-36.3	22.1	0.00e+00	123	24	0	255852544	44	5765
2026-01-09 12:49:07.41	29.25	7.70	-35.4	-36.4	22.0	0.00e+00	122	24	0	258998272	44	5824
2026-01-09 12:49:08.42	29.35	7.76	-35.3	-36.4	22.0	0.00e+00	123	24	0	262144000	44	5794
2026-01-09 12:49:09.43	29.45	7.82	-35.3	-36.4	22.1	0.00e+00	123	24	0	266338304	44	5793
2026-01-09 12:49:10.44	29.55	7.89	-35.3	-36.3	22.1	0.00e+00	123	24	0	269484032	44	5773
2026-01-09 12:49:11.45	29.66	7.95	-35.2	-36.2	22.2	0.00e+00	123	24	0	272629760	44	5718
2026-01-09 12:49:12.46	29.76	8.01	-35.2	-36.2	22.2	0.00e+00	122	24	0	274726912	44	5684
2026-01-09 12:49:13.47	29.86	8.08	-35.3	-36.3	22.1	0.00e+00	122	24	0	277872640	44	5757
2026-01-09 12:49:14.48	29.97	8.14	-35.2	-36.2	22.2	0.00e+00	123	24	0	281018368	44	5705
2026-01-09 12:49:15.49	30.07	8.20	-35.3	-36.3	22.1	0.00e+00	123	24	0	285212672	44	5751
2026-01-09 12:49:16.50	30.18	8.27	-35.1	-36.2	22.2	0.00e+00	122	24	0	288358400	44	5672
2026-01-09 12:49:17.51	30.28	8.33	-35.2	-36.2	22.3	0.00e+00	122	24	0	291504128	44	5676
2026-01-09 12:49:18.51	30.39	8.40	-35.2	-36.2	22.1	0.00e+00	123	24	0	294649856	44	5722
2026-01-09 12:49:19.52	30.49	8.46	-35.1	-36.2	22.3	0.00e+00	123	24	0	297795584	44	5673
2026-01-09 12:49:20.53	30.60	8.52	-35.0	-36.0	22.3	0.00e+00	122	24	0	300941312	44	5587
2026-01-09 12:49:21.54	30.71	8.59	-35.2	-36.2	22.2	0.00e+00	122	24	0	304087040	44	5696
2026-01-09 12:49:22.55	30.82	8.65	-35.0	-36.0	22.4	0.00e+00	122	24	0	307232768	44	5552
2026-01-09 12:49:23.56	30.92	8.72	-35.0	-36.0	22.4	0.00e+00	123	24	0	310378496	44	5576
2026-01-09 12:49:24.57	31.03	8.78	-34.8	-35.8	22.5	0.00e+00	123	24	0	313524224	44	5459
2026-01-09 12:49:25.58	31.14	8.85	-35.0	-36.0	22.4	0.00e+00	123	24	0	316669952	44	5545
2026-01-09 12:49:26.59	31.25	8.91	-34.8	-35.8	22.6	0.00e+00	120	24	0	319815680	44	5465
2026-01-09 12:49:27.60	31.36	8.98	-35.0	-36.0	22.5	0.00e+00	122	24	0	322961408	44	5546
2026-01-09 12:49:28.61	31.47	9.04	-34.8	-35.8	22.6	0.00e+00	123	24	0	326107136	44	5432
2026-01-09 12:49:29.62	31.58	9.11	-34.8	-35.8	22.6	0.00e+00	122	24	0	329252864	44	5429
2026-01-09 12:49:30.63	31.69	9.17	-34.7	-35.7	22.7	0.00e+00	123	24	0	332398592	42	6052
2026-01-09 12:49:31.64	31.80	9.24	-34.8	-35.8	22.7	0.00e+00	122	24	0	335544320	42	6071
2026-01-09 12:49:32.65	31.92	9.30	-34.7	-35.7	22.7	0.00e+00	123	24	0	338690048	42	6039
2026-01-09 12:49:33.66	32.03	9.37	-34.6	-35.6	22.8	0.00e+00	123	24	0	341835776	42	5985
2026-01-09 12:49:34.67	32.14	9.43	-34.7	-35.7	22.7	0.00e+00	123	24	0	344981504	42	6008
2026-01-09 12:49:35.68	32.26	9.50	-34.6	-35.6	22.7	0.00e+00	122	24	0	348127232	42	5933
2026-01-09 12:49:36.69	32.37	9.56	-34.5	-35.5	22.9	0.00e+00	123	24	0	351272960	42	5909
2026-01-09 12:49:37.69	32.48	9.63	-34.6	-35.6	22.8	0.00e+00	122	24	0	354418688	42	5962
2026-01-09 12:49:38.70	32.60	9.69	-34.4	-35.4	22.9	0.00e+00	120	24	0	357564416	42	5817
2026-01-09 12:49:39.71	32.71	9.76	-34.5	-35.4	22.9	0.00e+00	123	24	0	360710144	42	5856
2026-01-09 12:49:40.72	32.83	9.83	-34.4	-35.4	22.9	0.00e+00	123	24	0	363855872	42	5825
2026-01-09 12:49:41.73	32.95	9.89	-34.5	-35.4	22.8	0.00e+00	123	24	0	367001600	42	5841
2026-01-09 12:49:42.74	33.06	9.96	-34.5	-35.5	22.8	0.00e+00	123	24	0	370147328	42	5916
2026-01-09 12:49:43.75	33.18	10.02	-34.4	-35.4	22.9	0.00e+00	120	24	0	373293056	42	5810
2026-01-09 12:49:44.76	33.30	10.09	-34.3	-35.3	23.0	0.00e+00	123	24	0	376438784	42	5740
2026-01-09 12:49:45.77	33.42	10.16	-34.1	-35.1	23.1	0.00e+00	120	24	0	379584512	42	5621
2026-01-09 12:49:46.78	33.54	10.22	-34.2	-35.2	23.1	0.00e+00	123	24	0	382730240	42	5668
2026-01-09 12:49:47.79	33.66	10.29	-34.1	-35.1	23.2	0.00e+00	122	24	0	385875968	42	5610
2026-01-09 12:49:48.80	33.78	10.36	-34.3	-35.2	23.1	0.00e+00	123	24	0	389021696	42	5707
2026-01-09 12:49:49.81	33.90	10.42	-34.0	-35.0	23.3	0.00e+00	123	24	0	392167424	42	5550
2026-01-09 12:49:50.82	34.02	10.49	-34.1	-35.0	23.2	0.00e+00	123	24	0	395313152	42	5578
2026-01-09 12:49:51.83	34.14	10.56	-34.2	-35.2	23.1	0.00e+00	122	24	0	398458880	42	5681
2026-01-09 12:49:52.84	34.26	10.62	-34.0	-35.0	23.4	0.00e+00	123	24	0	401604608	42	5561
2026-01-09 12:49:53.85	34.39	10.69	-34.1	-35.1	23.2	0.00e+00	123	24	0	404750336	42	5639
2026-01-09 12:49:54.85	34.51	10.76	-34.0	-35.0	23.4	0.00e+00	123	24	0	407896064	42	5552
2026-01-09 12:49:55.87	34.63	10.82	-34.0	-34.9	23.4	0.00e+00	122	24	0	411041792	42	5504
2026-01-09 12:49:56.88	34.76	10.89	-33.9	-34.8	23.5	0.00e+00	122	24	0	414187520	42	5465
2026-01-09 12:49:57.89	34.88	10.96	-33.9	-34.8	23.4	0.00e+00	123	24	0	417333248	42	5466
2026-01-09 12:49:58.90	35.01	11.02	-33.9	-34.9	23.4	0.00e+00	123	24	0	420478976	42	5490
2026-01-09 12:49:59.91	35.14	11.09	-33.9	-34.8	23.5	0.00e+00	122	24	0	423624704	42	5436
2026-01-09 12:50:00.91	35.26	11.16	-33.8	-34.7	23.6	0.00e+00	123	24	0	426770432	42	5388
2026-01-09 12:50:01.92	35.39	11.22	-33.6	-34.6	23.7	0.00e+00	123	24	0	429916160	40	5949
2026-01-09 12:50:02.93	35.52	11.29	-33.7	-34.6	23.7	0.00e+00	122	24	0	433061888	40	5964
2026-01-09 12:50:03.94	35.64	11.36	-33.6	-34.5	23.8	0.00e+00	122	24	0	436207616	40	5902
2026-01-09 12:50:04.95	35.77	11.43	-33.7	-34.6	23.8	0.00e+00	122	24	0	439353344	40	5962
2026-01-09 12:50:05.96	35.90	11.49	-33.7	-34.6	23.8	0.00e+00	123	24	0	442499072	40	5985
2026-01-09 12:50:06.97	36.03	11.56	-33.6	-34.5	23.7	0.00e+00	122	24	0	445644800	40	5909
2026-01-09 12:50:07.98	36.16	11.63	-33.4	-34.3	23.8	0.00e+00	122	24	0	448790528	40	5735
2026-01-09 12:50:08.99	36.29	11.70	-33.4	-34.3	23.9	0.00e+00	123	24	0	451936256	40	5729
2026-01-09 12:50:09.99	36.43	11.76	-33.3	-34.2	24.0	0.00e+00	123	24	0	455081984	40	5701
2026-01-09 12:50:11.00	36.56	11.83	-33.4	-34.3	24.0	0.00e+00	123	24	0	458227712	40	5751
2026-01-09 12:50:12.01	36.69	11.90	-33.2	-34.1	24.1	0.00e+00	120	24	0	461373440	40	5600
2026-01-09 12:50:13.02	36.82	11.97	-33.2	-34.1	24.1	0.00e+00	122	24	0	464519168	40	5598
2026-01-09 12:50:14.03	36.96	12.04	-33.3	-34.3	24.0	0.00e+00	123	24	0	467664896	40	5726
2026-01-09 12:50:15.04	37.09	12.10	-33.2	-34.1	24.1	0.00e+00	123	24	0	470810624	40	5629
2026-01-09 12:50:16.05	37.23	12.17	-33.3	-34.2	23.9	0.00e+00	123	24	0	473956352	40	5692
2026-01-09 12:50:17.06	37.37	12.24	-33.3	-34.2	23.9	0.00e+00	122	24	0	477102080	40	5696
2026-01-09 12:50:18.07	37.50	12.31	-33.3	-34.3	23.9	0.00e+00	123	24	0	480247808	40	5735
2026-01-09 12:50:19.08	37.64	12.38	-33.3	-34.3	23.9	0.00e+00	123	24	0	483393536	40	5726
2026-01-09 12:50:20.09	37.78	12.45	-33.4	-34.3	23.8	0.00e+00	123	24	0	486539264	40	5755
2026-01-09 12:50:21.10	37.92	12.51	-33.4	-34.4	23.9	0.00e+00	123	24	0	489684992	40	5801
2026-01-09 12:50:22.11	38.05	12.58	-33.4	-34.3	23.9	0.00e+00	122	24	0	492830720	40	5770
2026-01-09 12:50:23.12	38.19	12.65	-33.5	-34.4	23.7	0.00e+00	123	24	0	495976448	40	5843
2026-01-09 12:50:24.13	38.33	12.72	-33.3	-34.2	23.9	0.00e+00	120	24	0	499122176	40	5716
2026-01-09 12:50:25.14	38.48	12.79	-33.4	-34.3	23.8	0.00e+00	123	24	0	502267904	40	5752
2026-01-09 12:50:26.15	38.62	12.86	-33.4	-34.3	23.9	0.00e+00	123	24	0	505413632	40	5739
2026-01-09 12:50:27.16	38.76	12.93	-33.3	-34.2	24.0	0.00e+00	123	24	0	508559360	40	5724
2026-01-09 12:50:28.17	38.90	12.99	-33.4	-34.3	24.0	0.00e+00	123	24	0	511705088	40	5741
2026-01-09 12:50:29.18	39.05	13.06	-33.5	-34.4	23.9	0.00e+00	120	24	0	514850816	40	5804
2026-01-09 12:50:30.19	39.19	13.13	-33.5	-34.4	23.8	0.00e+00	122	24	0	517996544	40	5858
2026-01-09 12:50:31.20	39.33	13.20	-33.4	-34.4	23.9	0.00e+00	121	24	0	521142272	40	5805
2026-01-09 12:50:32.21	39.48	13.27	-33.6	-34.5	23.8	0.00e+00	122	24	0	524288000	40	5913
2026-01-09 12:50:33.22	39.63	13.34	-33.4	-34.4	24.0	0.00e+00	122	24	0	527433728	40	5814
2026-01-09 12:50:34.23	39.77	13.41	-33.6	-34.5	23.8	0.00e+00	120	24	0	530579456	40	5902
2026-01-09 12:50:35.24	39.92	13.48	-33.4	-34.4	23.9	0.00e+00	123	24	0	533725184	40	5803
2026-01-09 12:50:36.25	40.07	13.54	-33.4	-34.4	23.9	0.00e+00	122	24	0	536870912	40	5796
2026-01-09 12:50:37.26	40.22	13.61	-33.4	-34.4	23.9	0.00e+00	122	24	0	540016640	40	5797
2026-01-09 12:50:38.27	40.37	13.68	-33.3	-34.2	24.1	0.00e+00	123	24	0	543162368	40	5721
2026-01-09 12:50:39.28	40.52	13.75	-33.4	-34.3	24.0	0.00e+00	122	24	0	546308096	40	5759
2026-01-09 12:50:40.29	40.67	13.82	-33.3	-34.3	24.0	0.00e+00	120	24	0	549453824	40	5739
2026-01-09 12:50:41.30	40.82	13.89	-33.2	-34.2	24.1	0.00e+00	120	24	0	552599552	40	5665
2026-01-09 12:50:42.31	40.97	13.96	-33.3	-34.2	24.1	0.00e+00	123	24	0	555745280	40	5725
2026-01-09 12:50:43.32	41.12	14.03	-33.2	-34.1	24.2	0.00e+00	120	24	0	558891008	40	5620
2026-01-09 12:50:44.33	41.28	14.10	-33.2	-34.1	24.1	0.00e+00	123	24	0	562036736	40	5656
2026-01-09 12:50:45.34	41.43	14.16	-33.1	-34.0	24.2	0.00e+00	123	24	0	565182464	40	5584
2026-01-09 12:50:46.34	41.59	14.23	-33.2	-34.1	24.2	0.00e+00	120	24	0	568328192	40	5606
2026-01-09 12:50:47.35	41.74	14.30	-33.2	-34.1	24.1	0.00e+00	123	24	0	571473920	40	5600
2026-01-09 12:50:48.36	41.90	14.37	-33.2	-34.1	24.1	0.00e+00	122	24	0	574619648	40	5629
2026-01-09 12:50:49.37	42.05	14.44	-33.1	-34.0	24.2	0.00e+00	123	24	0	577765376	40	5557
2026-01-09 12:50:50.38	42.21	14.51	-33.1	-34.0	24.2	0.00e+00	123	24	0	580911104	40	5541
2026-01-09 12:50:51.39	42.37	14.58	-33.2	-34.1	24.1	0.00e+00	123	24	0	584056832	40	5615
2026-01-09 12:50:52.40	42.53	14.65	-33.1	-34.0	24.1	0.00e+00	122	24	0	587202560	40	5559
2026-01-09 12:50:53.41	42.69	14.72	-33.1	-34.1	24.1	0.00e+00	122	24	0	590348288	40	5609
2026-01-09 12:50:54.42	42.85	14.79	-33.1	-34.0	24.2	0.00e+00	122	24	0	593494016	40	5562
2026-01-09 12:50:55.43	43.01	14.85	-33.2	-34.1	24.1	0.00e+00	123	24	0	596639744	40	5637
2026-01-09 12:50:56.44	43.17	14.92	-33.0	-33.9	24.2	0.00e+00	123	24	0	599785472	40	5506
2026-01-09 12:50:57.45	43.34	14.99	-33.0	-33.9	24.4	0.00e+00	123	24	0	602931200	40	5494
2026-01-09 12:50:58.46	43.50	15.06	-32.9	-33.8	24.4	0.00e+00	123	24	0	606076928	40	5453
2026-01-09 12:50:59.47	43.66	15.13	-33.0	-33.9	24.3	0.00e+00	123	24	0	609222656	40	5519
2026-01-09 12:51:00.48	43.83	15.20	-33.0	-33.9	24.4	0.00e+00	123	24	0	612368384	40	5512
2026-01-09 12:51:01.49	43.99	15.27	-33.1	-34.0	24.3	0.00e+00	123	24	0	615514112	40	5533
2026-01-09 12:51:02.50	44.16	15.34	-33.0	-33.9	24.2	0.00e+00	123	24	0	618659840	40	5519
2026-01-09 12:51:03.51	44.33	15.41	-33.0	-33.9	24.3	0.00e+00	122	24	0	621805568	40	5503
2026-01-09 12:51:04.51	44.49	15.47	-33.0	-33.9	24.4	0.00e+00	123	24	0	624951296	40	5495
2026-01-09 12:51:05.52	44.66	15.54	-33.0	-33.9	24.3	0.00e+00	120	24	0	628097024	40	5513
2026-01-09 12:51:06.53	44.83	15.61	-32.8	-33.7	24.3	0.00e+00	123	24	0	632291328	40	5378
2026-01-09 12:51:07.54	45.00	15.68	-32.8	-33.7	24.4	0.00e+00	123	24	0	635437056	38	6020
2026-01-09 12:51:08.55	45.17	15.75	-32.9	-33.9	24.3	0.00e+00	120	24	0	637534208	38	6139
2026-01-09 12:51:09.56	45.35	15.82	-32.7	-33.6	24.4	0.00e+00	123	24	0	640679936	38	5954
2026-01-09 12:51:10.57	45.52	15.89	-32.9	-33.7	24.3	0.00e+00	122	24	0	643825664	38	6063
2026-01-09 12:51:11.58	45.69	15.95	-32.7	-33.6	24.4	0.00e+00	123	24	0	648019968	38	5979
2026-01-09 12:51:12.59	45.87	16.02	-32.8	-33.7	24.4	0.00e+00	120	24	0	651165696	38	6052
2026-01-09 12:51:13.60	46.04	16.09	-32.8	-33.7	24.4	0.00e+00	122	24	0	654311424	38	6023
2026-01-09 12:51:14.61	46.22	16.16	-32.8	-33.7	24.4	0.00e+00	121	24	0	657457152	38	6005
2026-01-09 12:51:15.62	46.39	16.23	-32.9	-33.8	24.4	0.00e+00	123	24	0	660602880	38	6083
2026-01-09 12:51:16.63	46.57	16.30	-32.7	-33.6	24.4	0.00e+00	120	24	0	663748608	38	5983
2026-01-09 12:51:17.64	46.75	16.36	-32.8	-33.6	24.5	0.00e+00	123	24	0	666894336	38	5988
2026-01-09 12:51:18.65	46.93	16.43	-32.8	-33.7	24.5	0.00e+00	120	24	0	670040064	38	6017
2026-01-09 12:51:19.66	47.11	16.50	-32.8	-33.7	24.5	0.00e+00	123	24	0	673185792	38	6024
2026-01-09 12:51:20.67	47.29	16.57	-32.8	-33.7	24.5	0.00e+00	120	24	0	676331520	38	6043
2026-01-09 12:51:21.68	47.47	16.64	-32.9	-33.8	24.4	0.00e+00	123	24	0	679477248	38	6107
2026-01-09 12:51:22.69	47.65	16.70	-32.9	-33.8	24.4	0.00e+00	120	24	0	682622976	38	6070
2026-01-09 12:51:23.70	47.83	16.77	-32.9	-33.8	24.5	0.00e+00	122	24	0	685768704	38	6078
2026-01-09 12:51:24.71	48.02	16.84	-32.9	-33.8	24.5	0.00e+00	123	24	0	688914432	38	6080
2026-01-09 12:51:25.72	48.20	16.91	-32.8	-33.7	24.4	0.00e+00	122	24	0	692060160	38	6042
2026-01-09 12:51:26.73	48.39	16.97	-33.0	-33.9	24.3	0.00e+00	122	24	0	695205888	38	6166
2026-01-09 12:51:27.74	48.57	17.04	-32.9	-33.8	24.5	0.00e+00	123	24	0	698351616	38	6081
2026-01-09 12:51:28.75	48.76	17.11	-33.0	-33.9	24.3	0.00e+00	122	24	0	701497344	38	6164
2026-01-09 12:51:29.76	48.95	17.18	-33.0	-33.9	24.4	0.00e+00	123	24	0	704643072	38	6137
2026-01-09 12:51:30.77	49.13	17.24	-32.9	-33.8	24.4	0.00e+00	120	24	0	707788800	38	6079
2026-01-09 12:51:31.78	49.32	17.31	-32.9	-33.8	24.4	0.00e+00	123	24	0	710934528	38	6123
2026-01-09 12:51:32.78	49.51	17.38	-33.0	-33.9	24.4	0.00e+00	122	24	0	714080256	38	6201
2026-01-09 12:51:33.79	49.70	17.44	-33.2	-34.1	24.3	0.00e+00	123	24	0	717225984	38	6296
2026-01-09 12:51:34.80	49.89	17.51	-33.0	-33.8	24.4	0.00e+00	123	24	0	720371712	38	6128
2026-01-09 12:51:35.81	50.09	17.58	-33.1	-34.1	24.3	0.00e+00	123	24	0	723517440	38	6282
2026-01-09 12:51:36.82	50.28	17.64	-33.2	-34.1	24.3	0.00e+00	123	24	0	726663168	38	6285
2026-01-09 12:51:37.83	50.47	17.71	-33.2	-34.1	24.3	0.00e+00	120	24	0	729808896	38	6312
2026-01-09 12:51:38.84	50.67	17.77	-33.0	-33.9	24.5	0.00e+00	123	24	0	732954624	38	6166
2026-01-09 12:51:39.85	50.86	17.84	-32.8	-33.7	24.6	0.00e+00	120	24	0	736100352	38	6039
2026-01-09 12:51:40.86	51.06	17.91	-32.8	-33.7	24.6	0.00e+00	122	24	0	739246080	38	5999
2026-01-09 12:51:41.87	51.26	17.97	-32.9	-33.8	24.6	0.00e+00	123	24	0	742391808	38	6074
2026-01-09 12:51:42.88	51.46	18.04	-32.9	-33.7	24.6	0.00e+00	123	24	0	745537536	38	6061
2026-01-09 12:51:43.89	51.66	18.10	-32.8	-33.6	24.7	0.00e+00	123	24	0	748683264	38	5984
2026-01-09 12:51:44.90	51.86	18.17	-32.9	-33.7	24.5	0.00e+00	123	24	0	751828992	38	6059
2026-01-09 12:51:45.91	52.06	18.23	-33.0	-33.9	24.5	0.00e+00	123	24	0	754974720	38	6153
2026-01-09 12:51:46.92	52.26	18.30	-33.1	-34.0	24.3	0.00e+00	123	24	0	758120448	38	6264
2026-01-09 12:51:47.93	52.46	18.36	-33.1	-34.1	24.3	0.00e+00	120	24	0	761266176	38	6281
2026-01-09 12:51:48.94	52.66	18.43	-33.2	-34.1	24.2	0.00e+00	122	24	0	764411904	38	6306
2026-01-09 12:51:49.95	52.87	18.49	-33.2	-34.1	24.1	0.00e+00	122	24	0	767557632	38	6316
2026-01-09 12:51:50.96	53.07	18.56	-33.3	-34.2	24.1	0.00e+00	123	24	0	770703360	38	6411
2026-01-09 12:51:51.97	53.28	18.62	-33.3	-34.3	24.1	0.00e+00	122	24	0	773849088	38	6430
2026-01-09 12:51:52.98	53.49	18.68	-33.3	-34.2	24.2	0.00e+00	123	24	0	776994816	38	6420
2026-01-09 12:51:53.99	53.69	18.75	-33.4	-34.3	24.2	0.00e+00	123	24	0	780140544	38	6482
2026-01-09 12:51:55.00	53.90	18.81	-33.1	-34.0	24.5	0.00e+00	123	24	0	783286272	38	6221
2026-01-09 12:51:56.01	54.11	18.87	-33.1	-34.0	24.4	0.00e+00	123	24	0	786432000	38	6249
2026-01-09 12:51:57.02	54.32	18.94	-33.2	-34.1	24.4	0.00e+00	123	24	0	789577728	38	6280
2026-01-09 12:51:58.03	54.53	19.00	-33.1	-34.0	24.5	0.00e+00	123	24	0	792723456	38	6224
2026-01-09 12:51:59.04	54.74	19.06	-33.3	-34.2	24.2	0.00e+00	123	24	0	795869184	38	6388
2026-01-09 12:52:00.05	54.96	19.12	-33.4	-34.3	24.1	0.00e+00	121	24	0	799014912	38	6467
2026-01-09 12:52:01.06	55.17	19.19	-33.4	-34.3	24.1	0.00e+00	122	24	0	802160640	38	6480
2026-01-09 12:52:02.06	55.38	19.25	-33.5	-34.4	23.9	0.00e+00	123	24	0	805306368	38	6534
2026-01-09 12:52:03.08	55.60	19.31	-33.5	-34.5	23.8	0.00e+00	120	24	0	808452096	38	6583
2026-01-09 12:52:04.09	55.81	19.37	-33.3	-34.2	24.0	0.00e+00	122	24	0	811597824	38	6418
2026-01-09 12:52:05.10	56.03	19.43	-33.4	-34.4	24.0	0.00e+00	122	24	0	814743552	38	6510
2026-01-09 12:52:06.11	56.25	19.49	-33.3	-34.2	24.2	0.00e+00	122	24	0	817889280	38	6419
2026-01-09 12:52:07.12	56.47	19.55	-33.2	-34.1	24.3	0.00e+00	123	24	0	821035008	38	6292
2026-01-09 12:52:08.13	56.69	19.61	-33.4	-34.2	24.4	0.00e+00	122	24	0	824180736	38	6423
2026-01-09 12:52:09.14	56.91	19.67	-33.2	-34.1	24.3	0.00e+00	120	24	0	827326464	38	6325
2026-01-09 12:52:10.15	57.13	19.73	-33.5	-34.4	24.2	0.00e+00	123	24	0	830472192	38	6537
2026-01-09 12:52:11.16	57.35	19.79	-33.2	-34.1	24.3	0.00e+00	122	24	0	833617920	38	6319
2026-01-09 12:52:12.17	57.57	19.85	-33.2	-34.1	24.3	0.00e+00	122	24	0	836763648	38	6297
2026-01-09 12:52:13.18	57.80	19.91	-33.0	-33.9	24.3	0.00e+00	123	24	0	839909376	38	6156
2026-01-09 12:52:14.19	58.02	19.97	-33.1	-34.0	24.2	0.00e+00	123	24	0	843055104	38	6229
2026-01-09 12:52:15.20	58.25	20.03	-32.9	-33.8	24.3	0.00e+00	123	24	0	846200832	38	6104
2026-01-09 12:52:16.21	58.47	20.09	-33.0	-33.9	24.4	0.00e+00	123	24	0	849346560	38	6143
2026-01-09 12:52:17.22	58.70	20.14	-33.0	-33.9	24.5	0.00e+00	122	24	0	852492288	38	6195
2026-01-09 12:52:18.22	58.93	20.20	-32.9	-33.8	24.6	0.00e+00	122	24	0	855638016	38	6104
2026-01-09 12:52:19.23	59.15	20.26	-32.9	-33.8	24.5	0.00e+00	123	24	0	858783744	38	6115
2026-01-09 12:52:20.24	59.38	20.31	-32.9	-33.8	24.7	0.00e+00	122	24	0	861929472	38	6088
2026-01-09 12:52:21.25	59.61	20.37	-32.8	-33.7	24.7	0.00e+00	120	24	0	865075200	38	6036
2026-01-09 12:52:22.25	59.84	20.43	-32.7	-33.6	24.7	0.00e+00	122	24	0	868220928	38	5973
2026-01-09 12:52:23.26	60.08	20.48	-32.8	-33.7	24.7	0.00e+00	120	24	0	871366656	38	6039
2026-01-09 12:52:24.27	60.31	20.54	-32.7	-33.6	24.7	0.00e+00	122	24	0	874512384	38	5977
2026-01-09 12:52:25.28	60.54	20.59	-32.8	-33.7	24.6	0.00e+00	120	24	0	877658112	38	6025
2026-01-09 12:52:26.29	60.78	20.65	-32.8	-33.7	24.6	0.00e+00	123	24	0	880803840	38	6036
2026-01-09 12:52:27.30	61.01	20.70	-32.9	-33.9	24.6	0.00e+00	123	24	0	883949568	38	6143
2026-01-09 12:52:28.31	61.25	20.76	-32.9	-33.8	24.5	0.00e+00	120	24	0	887095296	38	6129
2026-01-09 12:52:29.32	61.48	20.81	-32.6	-33.6	24.8	0.00e+00	123	24	0	890241024	38	5933
2026-01-09 12:52:30.33	61.72	20.86	-32.5	-33.5	24.9	0.00e+00	120	24	0	893386752	38	5868
2026-01-09 12:52:31.34	61.96	20.92	-32.6	-33.5	24.8	0.00e+00	123	24	0	896532480	38	5904
2026-01-09 12:52:32.34	62.20	20.97	-32.4	-33.3	24.9	0.00e+00	120	24	0	899678208	38	5738
2026-01-09 12:52:33.35	62.44	21.02	-32.4	-33.2	24.9	0.00e+00	122	24	0	902823936	38	5715
2026-01-09 12:52:34.36	62.68	21.07	-32.5	-33.4	24.8	0.00e+00	123	24	0	905969664	38	5839
2026-01-09 12:52:35.37	62.92	21.12	-32.6	-33.5	24.7	0.00e+00	122	24	0	909115392	38	5864
2026-01-09 12:52:36.38	63.16	21.17	-32.6	-33.5	24.7	0.00e+00	122	24	0	912261120	38	5874
2026-01-09 12:52:37.39	63.41	21.23	-32.6	-33.5	24.8	0.00e+00	122	24	0	915406848	38	5882
2026-01-09 12:52:38.40	63.65	21.28	-32.7	-33.6	24.7	0.00e+00	120	24	0	918552576	38	5950
2026-01-09 12:52:39.41	63.90	21.33	-32.4	-33.3	24.9	0.00e+00	123	24	0	921698304	38	5760
2026-01-09 12:52:40.42	64.14	21.37	-32.5	-33.4	25.0	0.00e+00	120	24	0	924844032	38	5836
2026-01-09 12:52:41.43	64.39	21.42	-32.4	-33.3	24.9	0.00e+00	123	24	0	927989760	38	5738
2026-01-09 12:52:42.43	64.63	21.47	-32.5	-33.4	24.9	0.00e+00	120	24	0	931135488	38	5819
2026-01-09 12:52:43.44	64.88	21.52	-32.4	-33.3	24.8	0.00e+00	122	24	0	934281216	38	5743
2026-01-09 12:52:44.45	65.13	21.57	-32.5	-33.4	24.7	0.00e+00	123	24	0	937426944	38	5849
2026-01-09 12:52:45.46	65.38	21.61	-32.7	-33.6	24.6	0.00e+00	120	24	0	940572672	38	5947
2026-01-09 12:52:46.46	65.63	21.66	-32.8	-33.7	24.6	0.00e+00	122	24	0	943718400	38	6016
2026-01-09 12:52:47.47	65.88	21.71	-32.7	-33.6	24.8	0.00e+00	120	24	0	946864128	38	5934
2026-01-09 12:52:48.48	66.13	21.75	-32.5	-33.4	24.9	0.00e+00	122	24	0	950009856	38	5811
2026-01-09 12:52:49.49	66.38	21.80	-32.5	-33.3	25.0	0.00e+00	121	24	0	953155584	38	5780
2026-01-09 12:52:50.50	66.63	21.84	-32.4	-33.3	25.0	0.00e+00	122	24	0	956301312	38	5731
2026-01-09 12:52:51.51	66.89	21.89	-32.3	-33.2	25.0	0.00e+00	122	24	0	959447040	38	5683
2026-01-09 12:52:52.52	67.14	21.93	-32.3	-33.2	24.9	0.00e+00	123	24	0	962592768	38	5664
2026-01-09 12:52:53.53	67.40	21.97	-32.5	-33.4	24.8	0.00e+00	122	24	0	965738496	38	5811
2026-01-09 12:52:54.54	67.65	22.02	-32.8	-33.7	24.6	0.00e+00	120	24	0	968884224	38	5998
2026-01-09 12:52:55.55	67.91	22.06	-32.7	-33.6	24.8	0.00e+00	123	24	0	972029952	38	5948
2026-01-09 12:52:56.56	68.17	22.10	-32.7	-33.6	24.8	0.00e+00	123	24	0	975175680	38	5947
2026-01-09 12:52:57.57	68.42	22.14	-32.7	-33.5	24.9	0.00e+00	120	24	0	978321408	38	5905
2026-01-09 12:52:58.58	68.68	22.18	-32.6	-33.5	24.9	0.00e+00	123	24	0	981467136	38	5875
2026-01-09 12:52:59.58	68.94	22.22	-32.4	-33.3	25.0	0.00e+00	121	24	0	984612864	38	5726
2026-01-09 12:53:00.59	69.20	22.26	-32.4	-33.3	24.9	0.00e+00	123	24	0	987758592	38	5758
2026-01-09 12:53:01.60	69.46	22.30	-32.4	-33.2	24.9	0.00e+00	123	24	0	990904320	38	5723
2026-01-09 12:53:02.61	69.72	22.34	-32.4	-33.3	24.7	0.00e+00	120	24	0	994050048	38	5784
2026-01-09 12:53:03.62	69.98	22.38	-32.4	-33.2	24.8	0.00e+00	123	24	0	997195776	38	5703
2026-01-09 12:53:04.63	70.25	22.42	-32.4	-33.3	24.8	0.00e+00	120	24	0	1000341504	38	5782
2026-01-09 12:53:05.64	70.51	22.45	-32.4	-33.3	24.7	0.00e+00	123	24	0	1003487232	38	5784
2026-01-09 12:53:06.65	70.77	22.49	-32.5	-33.3	24.8	0.00e+00	120	24	0	1006632960	38	5786
2026-01-09 12:53:07.66	71.04	22.53	-32.5	-33.4	24.8	0.00e+00	122	24	0	1009778688	38	5841
2026-01-09 12:53:08.67	71.30	22.56	-32.3	-33.2	24.9	0.00e+00	120	24	0	1012924416	38	5673
2026-01-09 12:53:09.68	71.57	22.60	-32.2	-33.1	24.8	0.00e+00	123	24	0	1016070144	38	5633
2026-01-09 12:53:10.69	71.83	22.63	-32.3	-33.2	24.8	0.00e+00	121	24	0	1020264448	38	5673
2026-01-09 12:53:11.70	72.10	22.66	-32.3	-33.2	24.7	0.00e+00	123	24	0	1023410176	38	5698
2026-01-09 12:53:12.70	72.37	22.70	-32.3	-33.2	24.8	0.00e+00	120	24	0	1025507328	38	5700
2026-01-09 12:53:13.71	72.63	22.73	-32.3	-33.2	24.7	0.00e+00	122	24	0	1028653056	38	5704
2026-01-09 12:53:14.72	72.90	22.76	-32.4	-33.3	24.8	0.00e+00	123	24	0	1031798784	38	5740
2026-01-09 12:53:15.73	73.17	22.79	-32.2	-33.1	24.9	0.00e+00	123	24	0	1034944512	38	5643
2026-01-09 12:53:16.74	73.44	22.82	-32.2	-33.1	24.9	0.00e+00	122	24	0	1039138816	38	5638
2026-01-09 12:53:17.74	73.71	22.85	-32.3	-33.2	25.0	0.00e+00	123	24	0	1042284544	38	5698
2026-01-09 12:53:18.75	73.98	22.88	-32.4	-33.2	24.9	0.00e+00	120	24	0	1045430272	38	5722
2026-01-09 12:53:19.76	74.25	22.91	-32.4	-33.3	24.9	0.00e+00	123	24	0	1048576000	38	5759
2026-01-09 12:53:20.77	74.52	22.94	-32.6	-33.4	24.8	0.00e+00	122	24	0	1050673152	38	5852
2026-01-09 12:53:21.78	74.79	22.97	-32.5	-33.4	24.9	0.00e+00	123	24	0	1054867456	38	5804
2026-01-09 12:53:22.79	75.06	22.99	-32.3	-33.2	25.0	0.00e+00	122	24	0	1058013184	38	5698
2026-01-09 12:53:23.80	75.34	23.02	-32.3	-33.2	24.9	0.00e+00	123	24	0	1061158912	38	5663
2026-01-09 12:53:24.81	75.61	23.05	-32.2	-33.1	25.0	0.00e+00	123	24	0	1064304640	38	5635
2026-01-09 12:53:25.82	75.88	23.07	-32.3	-33.2	24.9	0.00e+00	122	24	0	1067450368	38	5678
2026-01-09 12:53:26.83	76.16	23.09	-32.1	-32.9	25.1	0.00e+00	123	24	0	1070596096	38	5524
2026-01-09 12:53:27.84	76.43	23.12	-32.2	-33.0	25.0	0.00e+00	123	24	0	1073741824	38	5589
2026-01-09 12:53:28.85	76.71	23.14	-32.1	-33.0	25.1	0.00e+00	122	24	0	1076887552	38	5549
2026-01-09 12:53:29.86	76.98	23.16	-32.4	-33.3	24.9	0.00e+00	123	24	0	1080033280	38	5745
2026-01-09 12:53:30.87	77.26	23.19	-32.0	-32.9	25.2	0.00e+00	123	24	0	1083179008	38	5477
2026-01-09 12:53:31.88	77.54	23.21	-32.2	-33.1	24.9	0.00e+00	120	24	0	1086324736	38	5599
2026-01-09 12:53:32.89	77.81	23.23	-32.1	-33.0	24.9	0.00e+00	122	24	0	1089470464	38	5571
2026-01-09 12:53:33.90	78.09	23.25	-32.3	-33.2	24.9	0.00e+00	123	24	0	1092616192	38	5670
2026-01-09 12:53:34.91	78.37	23.27	-32.3	-33.2	24.8	0.00e+00	123	24	0	1095761920	38	5719
2026-01-09 12:53:35.91	78.64	23.29	-32.3	-33.2	25.0	0.00e+00	120	24	0	1098907648	38	5669
2026-01-09 12:53:36.92	78.92	23.30	-32.2	-33.0	25.1	0.00e+00	122	24	0	1102053376	38	5591
2026-01-09 12:53:37.93	79.20	23.32	-32.1	-33.0	25.0	0.00e+00	122	24	0	1105199104	38	5543
2026-01-09 12:53:38.94	79.48	23.34	-32.2	-33.1	24.9	0.00e+00	123	24	0	1108344832	38	5597
2026-01-09 12:53:39.95	79.75	23.35	-32.2	-33.1	24.9	0.00e+00	120	24	0	1111490560	38	5614
2026-01-09 12:53:40.96	80.03	23.37	-32.3	-33.2	24.9	0.00e+00	123	24	0	1114636288	38	5705
2026-01-09 12:53:41.97	80.31	23.38	-32.3	-33.2	24.9	0.00e+00	120	24	0	1117782016	38	5725
2026-01-09 12:53:42.98	80.59	23.40	-32.3	-33.2	24.9	0.00e+00	122	24	0	1120927744	38	5699
2026-01-09 12:53:43.99	80.87	23.41	-32.3	-33.2	24.9	0.00e+00	123	24	0	1124073472	38	5708
2026-01-09 12:53:45.00	81.15	23.42	-32.5	-33.4	24.9	0.00e+00	124	24	0	1127219200	38	5796
2026-01-09 12:53:46.01	81.43	23.43	-32.4	-33.3	24.9	0.00e+00	122	24	0	1130364928	38	5742
2026-01-09 12:53:47.02	81.71	23.44	-32.5	-33.4	24.8	0.00e+00	122	24	0	1133510656	38	5840
2026-01-09 12:53:48.02	81.99	23.45	-32.5	-33.4	24.7	0.00e+00	123	24	0	1136656384	38	5821
2026-01-09 12:53:49.03	82.27	23.46	-32.5	-33.4	24.8	0.00e+00	123	24	0	1139802112	38	5804
2026-01-09 12:53:50.04	82.55	23.47	-32.3	-33.2	25.0	0.00e+00	120	24	0	1142947840	38	5701
2026-01-09 12:53:51.05	82.83	23.48	-32.2	-33.1	25.2	0.00e+00	122	24	0	1146093568	38	5601
2026-01-09 12:53:52.06	83.12	23.49	-31.9	-32.8	25.3	0.00e+00	123	24	0	1149239296	38	5428
2026-01-09 12:53:53.07	83.40	23.49	-32.0	-32.9	25.2	0.00e+00	122	24	0	1152385024	38	5505
2026-01-09 12:53:54.08	83.68	23.50	-32.1	-33.0	25.1	0.00e+00	122	24	0	1155530752	38	5543
2026-01-09 12:53:55.09	83.96	23.51	-32.3	-33.2	25.0	0.00e+00	123	24	0	1158676480	38	5673
2026-01-09 12:53:56.10	84.24	23.51	-32.4	-33.3	25.0	0.00e+00	123	24	0	1161822208	38	5737
2026-01-09 12:53:57.11	84.52	23.51	-32.4	-33.3	24.7	0.00e+00	122	24	0	1164967936	38	5728
2026-01-09 12:53:58.12	84.81	23.52	-32.4	-33.2	25.1	0.00e+00	123	24	0	1168113664	38	5713
2026-01-09 12:53:59.13	85.09	23.52	-32.3	-33.2	24.9	0.00e+00	123	24	0	1171259392	38	5691
2026-01-09 12:54:00.14	85.37	23.52	-32.4	-33.3	24.9	0.00e+00	122	24	0	1174405120	38	5730
2026-01-09 12:54:01.15	85.65	23.52	-32.3	-33.2	25.0	0.00e+00	123	24	0	1177550848	38	5667
2026-01-09 12:54:02.16	85.93	23.52	-32.4	-33.3	24.8	0.00e+00	123	24	0	1180696576	38	5750
2026-01-09 12:54:03.17	86.22	23.52	-32.4	-33.3	24.8	0.00e+00	122	24	0	1183842304	38	5788
2026-01-09 12:54:04.18	86.50	23.52	-32.5	-33.4	24.8	0.00e+00	120	24	0	1186988032	38	5822
2026-01-09 12:54:05.19	86.78	23.52	-32.3	-33.2	24.9	0.00e+00	122	24	0	1190133760	38	5705
2026-01-09 12:54:06.20	87.06	23.52	-32.2	-33.1	25.1	0.00e+00	122	24	0	1193279488	38	5637
2026-01-09 12:54:07.21	87.34	23.52	-32.3	-33.2	25.0	0.00e+00	123	24	0	1196425216	38	5685
2026-01-09 12:54:08.22	87.63	23.51	-32.3	-33.1	25.0	0.00e+00	123	24	0	1199570944	38	5657
2026-01-09 12:54:09.23	87.91	23.51	-32.2	-33.1	25.0	0.00e+00	123	24	0	1202716672	38	5623
2026-01-09 12:54:10.24	88.19	23.50	-32.3	-33.2	24.9	0.00e+00	123	24	0	1205862400	38	5674
2026-01-09 12:54:11.25	88.47	23.50	-32.2	-33.0	24.9	0.00e+00	120	24	0	1209008128	38	5586
2026-01-09 12:54:12.26	88.75	23.49	-32.0	-32.9	25.0	0.00e+00	123	24	0	1212153856	38	5497
2026-01-09 12:54:13.27	89.04	23.48	-32.0	-32.8	25.1	0.00e+00	122	24	0	1215299584	38	5463
2026-01-09 12:54:14.28	89.32	23.47	-31.9	-32.8	25.1	0.00e+00	122	24	0	1218445312	38	5413
2026-01-09 12:54:15.29	89.60	23.46	-31.8	-32.7	25.2	0.00e+00	122	24	0	1221591040	38	5375
2026-01-09 12:54:16.30	89.88	23.46	-32.0	-32.9	25.1	0.00e+00	123	24	0	1224736768	38	5473
2026-01-09 12:54:17.31	90.16	23.44	-31.9	-32.8	25.1	0.00e+00	123	24	0	1227882496	38	5422
2026-01-09 12:54:18.32	90.44	23.43	-31.9	-32.8	25.3	0.00e+00	122	24	0	1231028224	38	5411
2026-01-09 12:54:19.33	90.72	23.42	-31.9	-32.8	25.2	0.00e+00	123	24	0	1234173952	38	5407
2026-01-09 12:54:20.34	91.00	23.41	-32.0	-32.8	25.1	0.00e+00	123	24	0	1237319680	38	5439
2026-01-09 12:54:21.35	91.28	23.40	-31.9	-32.8	25.1	0.00e+00	123	24	0	1240465408	38	5444
2026-01-09 12:54:22.36	91.56	23.38	-32.0	-32.8	25.1	0.00e+00	122	24	0	1243611136	38	5447
2026-01-09 12:54:23.37	91.84	23.37	-31.8	-32.7	25.3	0.00e+00	123	24	0	1246756864	38	5354
2026-01-09 12:54:24.38	92.12	23.35	-31.9	-32.8	25.3	0.00e+00	120	24	0	1249902592	38	5407
2026-01-09 12:54:25.39	92.40	23.34	-31.7	-32.5	25.5	0.00e+00	122	24	0	1253048320	36	5889
2026-01-09 12:54:26.40	92.68	23.32	-31.6	-32.4	25.4	0.00e+00	123	24	0	1256194048	36	5844
2026-01-09 12:54:27.41	92.96	23.30	-31.6	-32.5	25.4	0.00e+00	122	24	0	1259339776	36	5872
2026-01-09 12:54:28.42	93.24	23.29	-31.8	-32.6	25.2	0.00e+00	122	24	0	1262485504	36	5959
2026-01-09 12:54:29.43	93.51	23.27	-31.8	-32.7	25.3	0.00e+00	122	24	0	1265631232	36	6002
2026-01-09 12:54:30.44	93.79	23.25	-31.8	-32.6	25.3	0.00e+00	120	24	0	1268776960	36	5970
2026-01-09 12:54:31.45	94.07	23.23	-31.8	-32.7	25.3	0.00e+00	122	24	0	1271922688	36	6013
2026-01-09 12:54:32.46	94.35	23.21	-31.8	-32.7	25.3	0.00e+00	123	24	0	1275068416	36	6009
2026-01-09 12:54:33.47	94.62	23.19	-31.9	-32.8	25.3	0.00e+00	120	24	0	1278214144	36	6087
2026-01-09 12:54:34.48	94.90	23.17	-31.9	-32.8	25.2	0.00e+00	122	24	0	1281359872	36	6106
2026-01-09 12:54:35.49	95.17	23.14	-32.1	-32.9	25.0	0.00e+00	120	24	0	1284505600	36	6202
2026-01-09 12:54:36.50	95.45	23.12	-32.0	-32.9	25.2	0.00e+00	122	24	0	1287651328	36	6149
2026-01-09 12:54:37.51	95.72	23.10	-32.0	-32.9	25.2	0.00e+00	120	24	0	1290797056	36	6187
2026-01-09 12:54:38.52	96.00	23.07	-32.0	-32.9	25.2	0.00e+00	123	24	0	1293942784	36	6170
2026-01-09 12:54:39.53	96.27	23.05	-32.1	-33.0	25.2	0.00e+00	123	24	0	1297088512	36	6212
2026-01-09 12:54:40.54	96.55	23.02	-32.0	-32.8	25.1	0.00e+00	120	24	0	1300234240	36	6133
2026-01-09 12:54:41.55	96.82	23.00	-32.1	-32.9	25.1	0.00e+00	123	24	0	1303379968	36	6181
2026-01-09 12:54:42.56	97.09	22.97	-32.1	-33.0	25.1	0.00e+00	123	24	0	1306525696	36	6236
2026-01-09 12:54:43.57	97.37	22.94	-32.3	-33.2	25.0	0.00e+00	123	24	0	1309671424	36	6363
2026-01-09 12:54:44.58	97.64	22.91	-32.4	-33.3	24.8	0.00e+00	121	24	0	1312817152	36	6467
2026-01-09 12:54:45.59	97.91	22.88	-32.4	-33.3	24.9	0.00e+00	123	24	0	1315962880	36	6461
2026-01-09 12:54:46.60	98.18	22.85	-32.4	-33.3	24.9	0.00e+00	120	24	0	1319108608	36	6467
2026-01-09 12:54:47.61	98.45	22.82	-32.4	-33.2	24.9	0.00e+00	122	24	0	1322254336	36	6421
2026-01-09 12:54:48.62	98.72	22.79	-32.3	-33.2	24.8	0.00e+00	122	24	0	1325400064	36	6415
2026-01-09 12:54:49.62	98.99	22.76	-32.3	-33.2	24.9	0.00e+00	120	24	0	1328545792	36	6375
2026-01-09 12:54:50.63	99.26	22.73	-32.3	-33.2	24.9	0.00e+00	123	24	0	1331691520	36	6406
2026-01-09 12:54:51.64	99.53	22.70	-32.2	-33.1	25.0	0.00e+00	123	24	0	1334837248	36	6293
2026-01-09 12:54:52.66	99.80	22.67	-32.2	-33.1	25.1	0.00e+00	123	24	0	1337982976	36	6296
2026-01-09 12:54:53.66	100.06	22.63	-31.9	-32.8	25.2	0.00e+00	123	24	0	1341128704	36	6110
2026-01-09 12:54:54.67	100.33	22.60	-32.1	-32.9	25.1	0.00e+00	121	24	0	1344274432	36	6197
2026-01-09 12:54:55.68	100.59	22.56	-32.0	-32.9	25.2	0.00e+00	123	24	0	1347420160	36	6174
2026-01-09 12:54:56.69	100.86	22.53	-32.3	-33.2	25.0	0.00e+00	122	24	0	1350565888	36	6353
2026-01-09 12:54:57.70	101.12	22.49	-32.3	-33.1	25.1	0.00e+00	123	24	0	1353711616	36	6344
2026-01-09 12:54:58.71	101.39	22.45	-32.4	-33.3	24.9	0.00e+00	122	24	0	1356857344	36	6453
2026-01-09 12:54:59.72	101.65	22.42	-32.3	-33.2	25.0	0.00e+00	123	24	0	1360003072	36	6388
2026-01-09 12:55:00.73	101.92	22.38	-32.4	-33.3	24.9	0.00e+00	123	24	0	1364197376	36	6477
2026-01-09 12:55:01.74	102.18	22.34	-32.3	-33.2	24.9	0.00e+00	123	24	0	1366294528	36	6395
2026-01-09 12:55:02.76	102.44	22.30	-32.2	-33.1	25.0	0.00e+00	123	24	0	1369440256	36	6323
2026-01-09 12:55:03.76	102.70	22.26	-32.1	-33.0	25.0	0.00e+00	123	24	0	1372585984	36	6250
2026-01-09 12:55:04.77	102.96	22.22	-32.2	-33.1	25.0	0.00e+00	123	24	0	1375731712	36	6330
2026-01-09 12:55:05.78	103.22	22.18	-32.3	-33.2	25.0	0.00e+00	122	24	0	1379926016	36	6362
2026-01-09 12:55:06.79	103.48	22.14	-32.3	-33.1	25.0	0.00e+00	122	24	0	1383071744	36	6330
2026-01-09 12:55:07.80	103.74	22.10	-32.2	-33.1	25.0	0.00e+00	122	24	0	1386217472	36	6289
2026-01-09 12:55:08.81	104.00	22.06	-32.3	-33.2	24.9	0.00e+00	122	24	0	1389363200	36	6386
2026-01-09 12:55:09.82	104.26	22.02	-32.4	-33.3	24.8	0.00e+00	122	24	0	1391460352	36	6426
2026-01-09 12:55:10.83	104.51	21.97	-32.5	-33.4	24.8	0.00e+00	123	24	0	1395654656	36	6560
2026-01-09 12:55:11.84	104.77	21.93	-32.5	-33.4	24.9	0.00e+00	123	24	0	1398800384	36	6529
2026-01-09 12:55:12.85	105.02	21.89	-32.5	-33.4	24.9	0.00e+00	120	24	0	1401946112	36	6518
2026-01-09 12:55:13.86	105.28	21.84	-32.6	-33.5	24.8	0.00e+00	122	24	0	1405091840	36	6627
2026-01-09 12:55:14.87	105.53	21.80	-32.5	-33.4	24.8	0.00e+00	122	24	0	1408237568	36	6540
2026-01-09 12:55:15.88	105.79	21.75	-32.5	-33.4	24.8	0.00e+00	120	24	0	1411383296	36	6548
2026-01-09 12:55:16.89	106.04	21.71	-32.6	-33.5	24.8	0.00e+00	123	24	0	1414529024	36	6594
2026-01-09 12:55:17.90	106.29	21.66	-32.5	-33.4	24.7	0.00e+00	123	24	0	1417674752	36	6513
2026-01-09 12:55:18.91	106.54	21.61	-32.6	-33.5	24.7	0.00e+00	122	24	0	1420820480	36	6578
2026-01-09 12:55:19.92	106.79	21.56	-32.7	-33.6	24.4	0.00e+00	123	24	0	1423966208	36	6667
2026-01-09 12:55:20.93	107.04	21.52	-32.4	-33.3	24.9	0.00e+00	122	24	0	1427111936	36	6486
2026-01-09 12:55:21.94	107.29	21.47	-32.4	-33.3	24.8	0.00e+00	123	24	0	1430257664	36	6472
2026-01-09 12:55:22.95	107.54	21.42	-32.5	-33.4	24.8	0.00e+00	120	24	0	1433403392	36	6510
2026-01-09 12:55:23.96	107.78	21.37	-32.4	-33.2	24.9	0.00e+00	122	24	0	1436549120	36	6405
2026-01-09 12:55:24.97	108.03	21.32	-32.4	-33.3	24.8	0.00e+00	123	24	0	1439694848	36	6485
2026-01-09 12:55:25.98	108.28	21.27	-32.4	-33.3	24.9	0.00e+00	123	24	0	1442840576	36	6461
2026-01-09 12:55:26.99	108.52	21.22	-32.5	-33.3	24.7	0.00e+00	120	24	0	1445986304	36	6493
2026-01-09 12:55:28.00	108.76	21.17	-32.5	-33.4	24.8	0.00e+00	123	24	0	1449132032	36	6501
2026-01-09 12:55:29.01	109.01	21.12	-32.7	-33.6	24.6	0.00e+00	123	24	0	1452277760	36	6665
2026-01-09 12:55:30.02	109.25	21.07	-32.5	-33.4	24.8	0.00e+00	123	24	0	1455423488	36	6541
2026-01-09 12:55:31.03	109.49	21.01	-32.6	-33.5	24.7	0.00e+00	123	24	0	1458569216	36	6603
2026-01-09 12:55:32.04	109.73	20.96	-32.7	-33.6	24.6	0.00e+00	122	24	0	1461714944	36	6691
2026-01-09 12:55:33.05	109.97	20.91	-32.7	-33.6	24.7	0.00e+00	125	24	0	1464860672	38	5988
2026-01-09 12:55:34.06	110.21	20.86	-32.7	-33.6	24.7	0.00e+00	123	24	0	1468006400	38	5933
2026-01-09 12:55:35.06	110.45	20.80	-32.6	-33.5	24.8	0.00e+00	122	24	0	1471152128	38	5863
2026-01-09 12:55:36.07	110.69	20.75	-32.4	-33.2	24.9	0.00e+00	123	24	0	1474297856	38	5711
2026-01-09 12:55:37.08	110.92	20.69	-32.3	-33.2	24.9	0.00e+00	120	24	0	1477443584	38	5715
2026-01-09 12:55:38.09	111.16	20.64	-32.2	-33.1	24.9	0.00e+00	123	24	0	1480589312	38	5639
2026-01-09 12:55:39.10	111.40	20.58	-32.3	-33.1	25.0	0.00e+00	122	24	0	1483735040	38	5650
2026-01-09 12:55:40.11	111.63	20.53	-32.4	-33.3	24.9	0.00e+00	123	24	0	1486880768	38	5753
2026-01-09 12:55:41.12	111.86	20.47	-32.6	-33.5	24.8	0.00e+00	123	24	0	1490026496	38	5865
2026-01-09 12:55:42.13	112.10	20.42	-32.5	-33.4	24.9	0.00e+00	123	24	0	1493172224	38	5806
2026-01-09 12:55:43.14	112.33	20.36	-32.6	-33.5	24.8	0.00e+00	122	24	0	1496317952	38	5876
2026-01-09 12:55:44.15	112.56	20.30	-32.6	-33.5	24.8	0.00e+00	121	24	0	1499463680	38	5874
2026-01-09 12:55:45.16	112.79	20.25	-32.6	-33.5	24.9	0.00e+00	122	24	0	1502609408	38	5877
2026-01-09 12:55:46.17	113.02	20.19	-32.6	-33.5	24.8	0.00e+00	123	24	0	1505755136	38	5904
2026-01-09 12:55:47.18	113.25	20.13	-32.6	-33.5	24.8	0.00e+00	123	24	0	1508900864	38	5890
2026-01-09 12:55:48.19	113.48	20.07	-32.4	-33.3	24.9	0.00e+00	123	24	0	1512046592	38	5750
2026-01-09 12:55:49.20	113.70	20.01	-32.5	-33.4	24.9	0.00e+00	123	24	0	1515192320	38	5792
2026-01-09 12:55:50.20	113.93	19.96	-32.5	-33.4	24.9	0.00e+00	123	24	0	1518338048	38	5827
2026-01-09 12:55:51.21	114.15	19.90	-32.6	-33.5	24.8	0.00e+00	123	24	0	1521483776	38	5872
2026-01-09 12:55:52.22	114.38	19.84	-32.6	-33.5	24.9	0.00e+00	123	24	0	1524629504	38	5860
2026-01-09 12:55:53.23	114.60	19.78	-32.8	-33.7	24.7	0.00e+00	122	24	0	1527775232	38	6005
2026-01-09 12:55:54.24	114.82	19.72	-32.6	-33.5	24.8	0.00e+00	123	24	0	1530920960	38	5892
2026-01-09 12:55:55.26	115.05	19.66	-32.8	-33.7	24.6	0.00e+00	123	24	0	1534066688	38	6051
2026-01-09 12:55:56.26	115.27	19.60	-32.7	-33.5	24.7	0.00e+00	122	24	0	1537212416	38	5924
2026-01-09 12:55:57.28	115.49	19.54	-32.7	-33.5	24.7	0.00e+00	122	24	0	1540358144	38	5915
2026-01-09 12:55:58.29	115.71	19.48	-32.7	-33.5	24.7	0.00e+00	121	24	0	1543503872	38	5918
2026-01-09 12:55:59.30	115.93	19.41	-32.7	-33.6	24.6	0.00e+00	123	24	0	1546649600	38	5975
2026-01-09 12:56:00.30	116.14	19.35	-32.6	-33.5	24.7	0.00e+00	122	24	0	1549795328	38	5867
2026-01-09 12:56:01.32	116.36	19.29	-32.6	-33.4	24.6	0.00e+00	123	24	0	1552941056	38	5849
2026-01-09 12:56:02.33	116.58	19.23	-32.5	-33.4	24.5	0.00e+00	123	24	0	1556086784	38	5850
2026-01-09 12:56:03.34	116.79	19.17	-32.6	-33.4	24.5	0.00e+00	120	24	0	1559232512	38	5855
2026-01-09 12:56:04.34	117.00	19.11	-32.6	-33.5	24.5	0.00e+00	122	24	0	1562378240	38	5863
2026-01-09 12:56:05.35	117.22	19.04	-32.6	-33.5	24.6	0.00e+00	123	24	0	1565523968	38	5872
2026-01-09 12:56:06.36	117.43	18.98	-32.6	-33.5	24.7	0.00e+00	122	24	0	1568669696	38	5876
2026-01-09 12:56:07.37	117.64	18.92	-32.3	-33.2	24.9	0.00e+00	120	24	0	1571815424	38	5682
2026-01-09 12:56:08.38	117.85	18.85	-32.4	-33.2	24.8	0.00e+00	122	24	0	1574961152	38	5721
2026-01-09 12:56:09.39	118.06	18.79	-32.4	-33.2	24.8	0.00e+00	120	24	0	1578106880	38	5722
2026-01-09 12:56:10.40	118.27	18.73	-32.5	-33.4	24.7	0.00e+00	122	24	0	1581252608	38	5821
2026-01-09 12:56:11.41	118.48	18.66	-32.5	-33.4	24.6	0.00e+00	120	24	0	1584398336	38	5814
2026-01-09 12:56:12.42	118.69	18.60	-32.5	-33.4	24.6	0.00e+00	122	24	0	1587544064	38	5850
2026-01-09 12:56:13.43	118.89	18.53	-32.5	-33.4	24.6	0.00e+00	122	24	0	1590689792	38	5848
2026-01-09 12:56:14.44	119.10	18.47	-32.6	-33.5	24.5	0.00e+00	123	24	0	1593835520	38	5914
2026-01-09 12:56:15.45	119.31	18.40	-32.7	-33.6	24.4	0.00e+00	123	24	0	1596981248	38	5977
2026-01-09 12:56:16.46	119.51	18.34	-32.5	-33.4	24.6	0.00e+00	122	24	0	1600126976	38	5830
2026-01-09 12:56:17.46	119.71	18.27	-32.6	-33.5	24.6	0.00e+00	122	24	0	1603272704	38	5911
2026-01-09 12:56:18.47	119.91	18.21	-32.6	-33.5	24.6	0.00e+00	123	24	0	1606418432	38	5872
2026-01-09 12:56:19.48	120.11	18.14	-32.6	-33.5	24.7	0.00e+00	123	24	0	1609564160	38	5883
2026-01-09 12:56:20.49	120.32	18.08	-32.6	-33.5	24.8	0.00e+00	123	24	0	1612709888	38	5879
2026-01-09 12:56:21.50	120.52	18.01	-32.5	-33.4	24.9	0.00e+00	123	24	0	1615855616	38	5806
2026-01-09 12:56:22.51	120.71	17.95	-32.5	-33.3	24.8	0.00e+00	122	24	0	1619001344	38	5774
2026-01-09 12:56:23.52	120.91	17.88	-32.5	-33.4	24.8	0.00e+00	123	24	0	1622147072	38	5835
2026-01-09 12:56:24.53	121.11	17.81	-32.6	-33.4	24.7	0.00e+00	122	24	0	1625292800	38	5857
2026-01-09 12:56:25.54	121.31	17.75	-32.6	-33.4	24.7	0.00e+00	123	24	0	1628438528	38	5851
2026-01-09 12:56:26.55	121.50	17.68	-32.7	-33.6	24.6	0.00e+00	123	24	0	1631584256	38	5962
2026-01-09 12:56:27.56	121.70	17.61	-32.8	-33.6	24.5	0.00e+00	122	24	0	1634729984	38	5987
2026-01-09 12:56:28.57	121.89	17.55	-32.7	-33.6	24.5	0.00e+00	123	24	0	1637875712	38	5953
2026-01-09 12:56:29.58	122.08	17.48	-32.7	-33.6	24.6	0.00e+00	123	24	0	1641021440	38	5952
2026-01-09 12:56:30.59	122.28	17.41	-32.7	-33.6	24.6	0.00e+00	120	24	0	1644167168	38	5955
2026-01-09 12:56:31.60	122.47	17.35	-32.7	-33.6	24.6	0.00e+00	124	24	0	1647312896	38	5991
2026-01-09 12:56:32.61	122.66	17.28	-32.7	-33.5	24.6	0.00e+00	121	24	0	1650458624	38	5923
2026-01-09 12:56:33.62	122.85	17.21	-32.6	-33.5	24.6	0.00e+00	123	24	0	1653604352	38	5875
2026-01-09 12:56:34.63	123.04	17.14	-32.7	-33.6	24.5	0.00e+00	122	24	0	1656750080	38	5968
2026-01-09 12:56:35.63	123.22	17.08	-32.7	-33.6	24.6	0.00e+00	122	24	0	1659895808	38	5964
2026-01-09 12:56:36.64	123.41	17.01	-32.9	-33.9	24.3	0.00e+00	120	24	0	1663041536	38	6146
2026-01-09 12:56:37.65	123.60	16.94	-32.7	-33.7	24.5	0.00e+00	120	24	0	1666187264	38	6010
2026-01-09 12:56:38.66	123.78	16.87	-32.9	-33.9	24.3	0.00e+00	123	24	0	1669332992	38	6151
2026-01-09 12:56:39.67	123.97	16.81	-32.9	-33.8	24.4	0.00e+00	123	24	0	1672478720	38	6111
2026-01-09 12:56:40.68	124.15	16.74	-32.9	-33.8	24.5	0.00e+00	120	24	0	1675624448	38	6095
2026-01-09 12:56:41.69	124.34	16.67	-33.0	-33.9	24.4	0.00e+00	123	24	0	1678770176	38	6176
2026-01-09 12:56:42.70	124.52	16.60	-32.9	-33.8	24.5	0.00e+00	123	24	0	1681915904	38	6082
2026-01-09 12:56:43.71	124.70	16.53	-32.9	-33.8	24.5	0.00e+00	122	24	0	1685061632	38	6111
2026-01-09 12:56:44.72	124.88	16.46	-33.0	-33.9	24.5	0.00e+00	123	24	0	1688207360	38	6153
2026-01-09 12:56:45.73	125.06	16.40	-33.1	-34.0	24.4	0.00e+00	120	24	0	1691353088	38	6249
2026-01-09 12:56:46.74	125.24	16.33	-33.0	-33.9	24.4	0.00e+00	123	24	0	1694498816	38	6174
2026-01-09 12:56:47.75	125.42	16.26	-32.9	-33.8	24.5	0.00e+00	123	24	0	1697644544	38	6096
2026-01-09 12:56:48.75	125.60	16.19	-32.8	-33.7	24.5	0.00e+00	123	24	0	1700790272	38	6039
2026-01-09 12:56:49.76	125.77	16.12	-32.9	-33.8	24.5	0.00e+00	122	24	0	1703936000	38	6084
2026-01-09 12:56:50.77	125.95	16.05	-32.9	-33.7	24.5	0.00e+00	122	24	0	1707081728	38	6055
2026-01-09 12:56:51.78	126.12	15.98	-32.8	-33.7	24.6	0.00e+00	123	24	0	1710227456	38	6026
2026-01-09 12:56:52.79	126.30	15.91	-32.9	-33.8	24.5	0.00e+00	122	24	0	1713373184	38	6074
2026-01-09 12:56:53.80	126.47	15.84	-32.9	-33.8	24.3	0.00e+00	122	24	0	1716518912	38	6120
2026-01-09 12:56:54.81	126.65	15.78	-33.0	-33.9	24.2	0.00e+00	123	24	0	1719664640	38	6195
2026-01-09 12:56:55.81	126.82	15.71	-33.1	-34.0	24.1	0.00e+00	123	24	0	1722810368	38	6233
2026-01-09 12:56:56.82	126.99	15.64	-33.2	-34.1	24.0	0.00e+00	122	24	0	1725956096	38	6336
2026-01-09 12:56:57.83	127.16	15.57	-33.2	-34.2	24.0	0.00e+00	123	24	0	1729101824	38	6367
2026-01-09 12:56:58.84	127.33	15.50	-33.4	-34.3	24.0	0.00e+00	123	24	0	1732247552	38	6468
2026-01-09 12:56:59.86	127.50	15.43	-33.3	-34.2	24.0	0.00e+00	122	24	0	1735393280	38	6418
2026-01-09 12:57:00.86	127.67	15.36	-33.4	-34.4	23.8	0.00e+00	123	24	0	1738539008	38	6509
2026-01-09 12:57:01.87	127.83	15.29	-33.5	-34.4	23.8	0.00e+00	123	24	0	1741684736	38	6567
2026-01-09 12:57:02.88	128.00	15.22	-33.5	-34.4	23.9	0.00e+00	122	24	0	1745879040	38	6553
2026-01-09 12:57:03.89	128.17	15.15	-33.7	-34.6	23.7	0.00e+00	123	24	0	1749024768	38	6725
2026-01-09 12:57:04.90	128.33	15.08	-33.7	-34.6	23.7	0.00e+00	123	24	0	1752170496	38	6712
2026-01-09 12:57:05.91	128.50	15.01	-33.8	-34.7	23.7	0.00e+00	122	24	0	1754267648	40	6045
2026-01-09 12:57:06.92	128.66	14.94	-33.6	-34.5	23.8	0.00e+00	123	24	0	1757413376	40	5908
2026-01-09 12:57:07.93	128.83	14.87	-33.6	-34.5	23.8	0.00e+00	123	24	0	1760559104	40	5921
2026-01-09 12:57:08.94	128.99	14.81	-33.6	-34.5	23.7	0.00e+00	122	24	0	1764753408	40	5905
2026-01-09 12:57:09.95	129.15	14.74	-33.7	-34.6	23.5	0.00e+00	122	24	0	1767899136	40	5994
2026-01-09 12:57:10.96	129.31	14.67	-33.6	-34.6	23.6	0.00e+00	122	24	0	1771044864	40	5960
2026-01-09 12:57:11.97	129.47	14.60	-33.7	-34.6	23.6	0.00e+00	123	24	0	1774190592	40	5975
2026-01-09 12:57:12.98	129.63	14.53	-33.8	-34.7	23.7	0.00e+00	123	24	0	1776287744	40	6026
2026-01-09 12:57:13.98	129.79	14.46	-33.6	-34.5	23.8	0.00e+00	123	24	0	1780482048	40	5924
2026-01-09 12:57:15.00	129.95	14.39	-33.6	-34.5	23.8	0.00e+00	123	24	0	1783627776	40	5912
2026-01-09 12:57:16.01	130.11	14.32	-33.5	-34.5	23.9	0.00e+00	123	24	0	1786773504	40	5888
2026-01-09 12:57:17.01	130.26	14.25	-33.6	-34.6	23.8	0.00e+00	122	24	0	1789919232	40	5934
2026-01-09 12:57:18.02	130.42	14.18	-33.5	-34.4	24.0	0.00e+00	122	24	0	1793064960	40	5801
2026-01-09 12:57:19.03	130.57	14.11	-33.4	-34.3	24.0	0.00e+00	122	24	0	1796210688	40	5772
2026-01-09 12:57:20.04	130.73	14.04	-33.3	-34.2	24.0	0.00e+00	123	24	0	1799356416	40	5715
2026-01-09 12:57:21.05	130.88	13.97	-33.3	-34.3	24.0	0.00e+00	123	24	0	1802502144	40	5726
2026-01-09 12:57:22.06	131.03	13.90	-33.5	-34.5	23.8	0.00e+00	123	24	0	1805647872	40	5864
2026-01-09 12:57:23.08	131.19	13.83	-33.7	-34.7	23.7	0.00e+00	122	24	0	1808793600	40	5996
2026-01-09 12:57:24.08	131.34	13.76	-33.7	-34.7	23.6	0.00e+00	122	24	0	1811939328	40	6016
2026-01-09 12:57:25.09	131.49	13.69	-33.8	-34.8	23.6	0.00e+00	123	24	0	1815085056	40	6080
2026-01-09 12:57:26.10	131.64	13.62	-33.9	-34.8	23.5	0.00e+00	122	24	0	1818230784	40	6124
2026-01-09 12:57:27.11	131.79	13.55	-34.0	-34.9	23.4	0.00e+00	122	24	0	1821376512	40	6196
2026-01-09 12:57:28.12	131.94	13.48	-34.0	-35.0	23.4	0.00e+00	121	24	0	1824522240	40	6239
2026-01-09 12:57:29.13	132.09	13.41	-34.1	-35.0	23.4	0.00e+00	123	24	0	1827667968	40	6269
2026-01-09 12:57:30.14	132.24	13.35	-34.1	-35.0	23.4	0.00e+00	123	24	0	1830813696	40	6255
2026-01-09 12:57:31.15	132.38	13.28	-34.1	-35.0	23.4	0.00e+00	123	24	0	1833959424	40	6244
2026-01-09 12:57:32.16	132.53	13.21	-34.1	-35.0	23.4	0.00e+00	123	24	0	1837105152	40	6267
2026-01-09 12:57:33.17	132.68	13.14	-34.1	-35.1	23.3	0.00e+00	122	24	0	1840250880	40	6300
2026-01-09 12:57:34.18	132.82	13.07	-34.1	-35.1	23.4	0.00e+00	120	24	0	1843396608	40	6291
2026-01-09 12:57:35.19	132.96	13.00	-34.1	-35.0	23.4	0.00e+00	123	24	0	1846542336	40	6268
2026-01-09 12:57:36.20	133.11	12.93	-33.9	-34.9	23.5	0.00e+00	122	24	0	1849688064	40	6185
2026-01-09 12:57:37.21	133.25	12.86	-33.9	-34.8	23.6	0.00e+00	123	24	0	1852833792	40	6121
2026-01-09 12:57:38.22	133.39	12.79	-33.8	-34.7	23.6	0.00e+00	123	24	0	1855979520	40	6047
2026-01-09 12:57:39.22	133.54	12.72	-33.8	-34.8	23.5	0.00e+00	123	24	0	1859125248	40	6093
2026-01-09 12:57:40.23	133.68	12.65	-33.7	-34.6	23.6	0.00e+00	123	24	0	1862270976	40	5978
2026-01-09 12:57:41.24	133.82	12.58	-33.7	-34.7	23.5	0.00e+00	123	24	0	1865416704	40	6023
2026-01-09 12:57:42.25	133.96	12.52	-33.8	-34.8	23.5	0.00e+00	122	24	0	1868562432	40	6082
2026-01-09 12:57:43.26	134.10	12.45	-34.0	-35.0	23.3	0.00e+00	123	24	0	1871708160	40	6219
2026-01-09 12:57:44.27	134.24	12.38	-34.1	-35.1	23.3	0.00e+00	123	24	0	1874853888	40	6295
2026-01-09 12:57:45.28	134.37	12.31	-34.1	-35.1	23.3	0.00e+00	122	24	0	1877999616	40	6294
2026-01-09 12:57:46.29	134.51	12.24	-34.2	-35.2	23.4	0.00e+00	122	24	0	1881145344	40	6366
2026-01-09 12:57:47.30	134.65	12.17	-34.2	-35.1	23.3	0.00e+00	122	24	0	1884291072	40	6347
2026-01-09 12:57:48.31	134.78	12.10	-34.4	-35.4	23.2	0.00e+00	122	24	0	1887436800	40	6510
2026-01-09 12:57:49.32	134.92	12.03	-34.3	-35.2	23.3	0.00e+00	123	24	0	1890582528	40	6417
2026-01-09 12:57:50.33	135.05	11.96	-34.2	-35.2	23.3	0.00e+00	120	24	0	1893728256	40	6351
2026-01-09 12:57:51.34	135.19	11.90	-34.2	-35.2	23.3	0.00e+00	123	24	0	1896873984	40	6370
2026-01-09 12:57:52.35	135.32	11.83	-34.2	-35.2	23.3	0.00e+00	123	24	0	1900019712	40	6360
2026-01-09 12:57:53.36	135.46	11.76	-34.1	-35.0	23.3	0.00e+00	122	24	0	1903165440	40	6272
2026-01-09 12:57:54.37	135.59	11.69	-34.0	-35.0	23.3	0.00e+00	122	24	0	1906311168	40	6250
2026-01-09 12:57:55.38	135.72	11.62	-34.1	-35.1	23.2	0.00e+00	122	24	0	1909456896	40	6309
2026-01-09 12:57:56.38	135.85	11.56	-34.2	-35.1	23.2	0.00e+00	122	24	0	1912602624	40	6328
2026-01-09 12:57:57.39	135.98	11.49	-34.0	-35.0	23.2	0.00e+00	123	24	0	1915748352	40	6264
2026-01-09 12:57:58.40	136.11	11.42	-34.1	-35.1	23.2	0.00e+00	123	24	0	1918894080	40	6284
2026-01-09 12:57:59.41	136.24	11.35	-34.2	-35.2	23.2	0.00e+00	122	24	0	1922039808	40	6369
2026-01-09 12:58:00.42	136.37	11.28	-34.1	-35.1	23.2	0.00e+00	123	24	0	1925185536	40	6335
2026-01-09 12:58:01.43	136.50	11.21	-34.1	-35.1	23.1	0.00e+00	123	24	0	1928331264	40	6325
2026-01-09 12:58:02.44	136.63	11.15	-34.0	-35.0	23.2	0.00e+00	122	24	0	1931476992	40	6263
2026-01-09 12:58:03.45	136.76	11.08	-34.2	-35.2	23.1	0.00e+00	122	24	0	1934622720	40	6354
2026-01-09 12:58:04.46	136.88	11.01	-34.2	-35.2	23.1	0.00e+00	123	24	0	1937768448	40	6353
2026-01-09 12:58:05.47	137.01	10.94	-34.2	-35.1	23.1	0.00e+00	120	24	0	1940914176	40	6343
2026-01-09 12:58:06.48	137.13	10.88	-34.2	-35.2	23.1	0.00e+00	123	24	0	1944059904	40	6383
2026-01-09 12:58:07.49	137.26	10.81	-34.1	-35.1	23.2	0.00e+00	122	24	0	1947205632	40	6323
2026-01-09 12:58:08.49	137.38	10.74	-34.3	-35.3	23.1	0.00e+00	123	24	0	1950351360	40	6432
2026-01-09 12:58:09.50	137.51	10.67	-34.1	-35.1	23.2	0.00e+00	123	24	0	1953497088	40	6282
2026-01-09 12:58:10.51	137.63	10.61	-34.2	-35.1	23.2	0.00e+00	120	24	0	1956642816	40	6329
2026-01-09 12:58:11.52	137.75	10.54	-34.3	-35.2	23.1	0.00e+00	123	24	0	1959788544	40	6418
2026-01-09 12:58:12.53	137.88	10.47	-34.2	-35.2	23.1	0.00e+00	123	24	0	1962934272	40	6366
2026-01-09 12:58:13.54	138.00	10.40	-34.2	-35.2	23.1	0.00e+00	123	24	0	1966080000	40	6362
2026-01-09 12:58:14.55	138.12	10.34	-34.4	-35.4	23.0	0.00e+00	123	24	0	1969225728	40	6523
2026-01-09 12:58:15.56	138.24	10.27	-34.3	-35.3	23.1	0.00e+00	127	24	0	1972371456	40	6433
2026-01-09 12:58:16.57	138.36	10.20	-34.4	-35.4	23.1	0.00e+00	122	24	0	1975517184	40	6518
