passes_logs/2026/01/09/R4.6S_Anadyr/R4.6S_Anadyr__20260109_004129_NOAA_21_JPSS-2_rec.log

#Pass ID: 20260109_004129_NOAA 21 (JPSS-2)
#Satellite: NOAA 21 (JPSS-2)
#Configuration: NOAA-21
#almurnet v.1.7.20251203
#Start time: 2026-01-09 00:41:30

#Version: 2.2.20231116
#Station: R4.6S_Anadyr
#Location: 177.4865 lon 64.73178 lat
#TLE: 1 54234U 22150A   26008.31660796  .00000118  00000+0  76746-4 0  9995
#TLE: 2 54234  98.7494 309.2974 0000900 328.8845  31.2277 14.19533293163868

#Time	Az	El	Level	Level2	SNR	BER	BlckErr	Temp	State	Recorded	gain1	gain2
2026-01-09 00:41:30.87	168.20	0.10	-48.2	-63.2	3.5	1.51e+00	0	31	0	0	60	51968
2026-01-09 00:41:31.87	168.21	0.16	-48.1	-61.0	3.5	1.51e+00	0	33	104	0	60	39242
2026-01-09 00:41:32.88	168.23	0.22	-48.1	-60.9	3.5	1.52e+00	0	33	104	0	60	39096
2026-01-09 00:41:33.89	168.25	0.28	-48.2	-61.0	3.5	1.52e+00	0	33	104	0	60	39391
2026-01-09 00:41:34.90	168.27	0.34	-48.2	-61.1	3.5	1.52e+00	0	33	104	0	60	39738
2026-01-09 00:41:35.91	168.28	0.40	-48.2	-61.1	3.5	1.52e+00	0	33	104	0	60	39914
2026-01-09 00:41:36.92	168.30	0.46	-48.3	-61.1	3.5	1.52e+00	0	33	104	0	60	39982
2026-01-09 00:41:37.93	168.32	0.52	-48.2	-61.1	3.5	1.52e+00	0	33	104	0	60	39834
2026-01-09 00:41:38.94	168.34	0.58	-48.2	-61.0	3.5	1.52e+00	0	33	104	0	60	39419
2026-01-09 00:41:39.95	168.36	0.64	-48.1	-61.0	3.5	1.52e+00	0	33	104	0	60	39163
2026-01-09 00:41:40.96	168.38	0.70	-48.0	-60.9	3.5	1.51e+00	0	33	104	0	60	38758
2026-01-09 00:41:41.97	168.39	0.77	-47.8	-60.7	3.5	1.52e+00	0	33	104	0	60	38218
2026-01-09 00:41:42.98	168.41	0.83	-47.7	-60.5	3.5	1.52e+00	0	33	104	0	60	37304
2026-01-09 00:41:43.99	168.43	0.89	-47.6	-60.4	3.5	1.52e+00	0	33	104	0	60	36907
2026-01-09 00:41:45.00	168.45	0.95	-47.5	-60.3	3.5	1.52e+00	0	34	104	0	60	36439
2026-01-09 00:41:46.01	168.47	1.01	-47.2	-60.0	3.5	1.52e+00	0	33	104	0	60	35285
2026-01-09 00:41:47.02	168.49	1.08	-46.7	-59.5	3.5	1.52e+00	0	33	104	0	60	33059
2026-01-09 00:41:48.03	168.51	1.14	-46.7	-59.5	3.5	1.52e+00	0	33	104	0	60	33294
2026-01-09 00:41:49.04	168.52	1.20	-46.7	-59.5	3.5	1.51e+00	0	33	104	0	60	33148
2026-01-09 00:41:50.05	168.54	1.26	-46.7	-59.5	3.5	1.52e+00	0	33	104	0	60	32988
2026-01-09 00:41:51.06	168.56	1.33	-46.7	-59.5	3.5	1.52e+00	0	33	104	0	60	32994
2026-01-09 00:41:52.07	168.58	1.39	-46.7	-59.4	3.5	1.52e+00	0	33	104	0	60	32862
2026-01-09 00:41:53.07	168.60	1.45	-46.7	-59.4	3.5	1.52e+00	0	34	104	0	60	32943
2026-01-09 00:41:54.08	168.62	1.52	-46.7	-59.3	3.5	1.52e+00	0	34	104	0	60	32393
2026-01-09 00:41:55.09	168.64	1.58	-46.7	-59.2	3.5	1.52e+00	0	34	104	0	60	32034
2026-01-09 00:41:56.10	168.66	1.64	-46.6	-59.0	3.5	1.52e+00	0	33	104	0	60	31326
2026-01-09 00:41:57.11	168.68	1.71	-46.6	-59.0	3.5	1.52e+00	0	34	104	0	60	31128
2026-01-09 00:41:58.12	168.70	1.77	-46.6	-58.9	3.5	1.52e+00	0	34	104	0	60	30897
2026-01-09 00:41:59.13	168.72	1.83	-46.6	-59.0	3.5	1.52e+00	0	34	104	0	60	31349
2026-01-09 00:42:00.14	168.73	1.90	-46.6	-59.2	3.5	1.52e+00	0	34	104	0	60	31894
2026-01-09 00:42:01.15	168.75	1.96	-46.7	-59.3	3.5	1.52e+00	0	34	104	0	60	32377
2026-01-09 00:42:02.16	168.77	2.03	-46.7	-59.4	3.5	1.52e+00	0	34	104	0	60	32905
2026-01-09 00:42:03.17	168.79	2.09	-46.7	-59.4	3.5	1.51e+00	0	34	104	0	60	32879
2026-01-09 00:42:04.18	168.81	2.15	-46.7	-59.4	3.5	1.52e+00	0	34	104	0	60	32664
2026-01-09 00:42:05.19	168.83	2.22	-46.7	-59.3	3.5	1.52e+00	0	34	104	0	60	32523
2026-01-09 00:42:06.20	168.85	2.28	-46.6	-59.2	3.5	1.52e+00	0	34	104	0	60	31955
2026-01-09 00:42:07.21	168.87	2.35	-46.6	-59.0	3.5	1.52e+00	0	34	104	0	60	31331
2026-01-09 00:42:08.22	168.89	2.41	-46.6	-58.6	3.5	1.52e+00	0	34	104	0	60	29929
2026-01-09 00:42:09.23	168.91	2.48	-46.6	-58.3	3.5	1.51e+00	0	34	104	0	60	28736
2026-01-09 00:42:10.24	168.93	2.54	-46.5	-57.8	3.5	1.51e+00	0	34	104	0	60	27277
2026-01-09 00:42:11.26	168.95	2.61	-46.5	-57.5	3.5	1.51e+00	0	34	104	0	60	26435
2026-01-09 00:42:12.26	168.97	2.68	-46.5	-57.5	3.7	1.50e+00	0	34	104	0	60	26447
2026-01-09 00:42:13.27	169.00	2.74	-46.5	-57.8	3.5	1.51e+00	0	34	104	0	60	27326
2026-01-09 00:42:14.28	169.02	2.81	-46.6	-58.2	3.5	1.51e+00	0	34	104	0	60	28532
2026-01-09 00:42:15.29	169.04	2.87	-46.5	-58.1	3.5	1.51e+00	0	34	104	0	60	28129
2026-01-09 00:42:16.30	169.06	2.94	-46.3	-56.1	3.6	1.51e+00	0	34	104	0	60	22485
2026-01-09 00:42:17.31	169.08	3.01	-45.8	-52.2	5.9	4.51e-01	118	34	0	0	60	14352
2026-01-09 00:42:18.32	169.10	3.07	-45.0	-49.6	8.6	9.17e-02	120	34	0	3145728	60	10562
2026-01-09 00:42:19.33	169.12	3.14	-43.6	-46.9	11.7	2.39e-03	123	34	0	6291456	60	7724
2026-01-09 00:42:20.34	169.14	3.21	-42.4	-44.8	14.1	2.28e-05	123	34	0	9437184	58	6841
2026-01-09 00:42:21.35	169.16	3.27	-41.1	-43.0	15.8	0.00e+00	123	34	0	12582912	56	6258
2026-01-09 00:42:22.36	169.18	3.34	-40.0	-41.6	17.0	0.00e+00	121	34	0	15728640	54	5971
2026-01-09 00:42:23.37	169.20	3.41	-39.3	-40.8	17.9	0.00e+00	123	34	0	18874368	52	6100
2026-01-09 00:42:24.38	169.23	3.48	-38.7	-40.1	18.6	0.00e+00	123	34	0	22020096	50	6279
2026-01-09 00:42:25.39	169.25	3.55	-38.3	-39.6	19.0	0.00e+00	123	34	0	25165824	50	5959
2026-01-09 00:42:26.40	169.27	3.61	-38.3	-39.6	18.9	0.00e+00	123	34	0	28311552	50	5974
2026-01-09 00:42:27.41	169.29	3.68	-38.4	-39.8	18.8	0.00e+00	124	34	0	31457280	50	6082
2026-01-09 00:42:28.42	169.31	3.75	-39.1	-40.5	18.0	0.00e+00	123	34	0	34603008	50	6635
2026-01-09 00:42:29.43	169.33	3.82	-40.8	-42.6	14.8	0.00e+00	122	34	0	37748736	52	7529
2026-01-09 00:42:30.44	169.36	3.89	-42.7	-45.0	14.5	1.66e-02	122	34	0	40894464	60	6270
2026-01-09 00:42:31.45	169.38	3.96	-39.2	-40.7	17.4	0.00e+00	123	34	0	44040192	52	6042
2026-01-09 00:42:32.46	169.40	4.02	-44.9	-50.0	9.8	1.48e+00	123	34	104	45088768	60	11132
2026-01-09 00:42:33.46	169.42	4.09	-38.8	-40.3	18.3	0.00e+00	122	34	0	46137344	52	5729
2026-01-09 00:42:34.47	169.44	4.16	-42.4	-45.1	14.6	1.44e+00	123	34	104	48234496	60	6341
2026-01-09 00:42:35.48	169.47	4.23	-38.7	-40.0	18.6	0.00e+00	123	34	0	49283072	50	6265
2026-01-09 00:42:36.49	169.49	4.30	-38.2	-39.5	19.2	0.00e+00	120	34	0	52428800	50	5891
2026-01-09 00:42:37.50	169.51	4.37	-37.4	-38.7	19.9	0.00e+00	123	34	0	55574528	48	6004
2026-01-09 00:42:38.51	169.53	4.44	-37.4	-38.7	20.4	0.00e+00	122	34	0	58720256	48	6001
2026-01-09 00:42:39.52	169.56	4.51	-37.0	-38.2	20.4	0.00e+00	123	34	0	61865984	48	5665
2026-01-09 00:42:40.53	169.58	4.58	-36.7	-37.9	20.8	0.00e+00	120	34	0	65011712	46	6143
2026-01-09 00:42:41.54	169.60	4.65	-36.5	-37.6	21.0	0.00e+00	123	34	0	68157440	46	5958
2026-01-09 00:42:42.55	169.63	4.72	-36.6	-37.7	20.9	0.00e+00	122	34	0	71303168	46	6025
2026-01-09 00:42:43.55	169.65	4.79	-36.5	-37.6	21.0	0.00e+00	122	34	0	74448896	46	5984
2026-01-09 00:42:44.56	169.67	4.86	-36.5	-37.7	20.9	0.00e+00	122	34	0	77594624	46	6006
2026-01-09 00:42:45.57	169.69	4.94	-36.4	-37.5	21.1	0.00e+00	123	34	0	80740352	46	5871
2026-01-09 00:42:46.58	169.72	5.01	-36.3	-37.4	21.3	0.00e+00	120	34	0	83886080	46	5818
2026-01-09 00:42:47.59	169.74	5.08	-36.3	-37.4	21.3	0.00e+00	123	34	0	87031808	46	5802
2026-01-09 00:42:48.60	169.77	5.15	-36.3	-37.3	21.2	0.00e+00	122	34	0	90177536	46	5785
2026-01-09 00:42:49.61	169.79	5.22	-36.3	-37.4	21.3	0.00e+00	123	34	0	93323264	46	5806
2026-01-09 00:42:50.62	169.81	5.30	-36.2	-37.3	21.4	0.00e+00	123	34	0	96468992	46	5732
2026-01-09 00:42:51.63	169.84	5.37	-36.1	-37.2	21.4	0.00e+00	123	34	0	99614720	46	5691
2026-01-09 00:42:52.64	169.86	5.44	-36.2	-37.3	21.4	0.00e+00	122	34	0	102760448	46	5767
2026-01-09 00:42:53.65	169.88	5.51	-36.3	-37.4	21.4	0.00e+00	122	34	0	105906176	46	5802
2026-01-09 00:42:54.66	169.91	5.59	-36.1	-37.1	21.5	0.00e+00	120	34	0	109051904	46	5655
2026-01-09 00:42:55.66	169.93	5.66	-36.2	-37.2	21.4	0.00e+00	123	34	0	112197632	46	5715
2026-01-09 00:42:56.67	169.96	5.73	-36.2	-37.2	21.5	0.00e+00	122	34	0	115343360	46	5714
2026-01-09 00:42:57.68	169.98	5.81	-36.2	-37.3	21.5	0.00e+00	122	34	0	118489088	46	5764
2026-01-09 00:42:58.69	170.01	5.88	-36.1	-37.2	21.6	0.00e+00	122	34	0	121634816	46	5675
2026-01-09 00:42:59.70	170.03	5.95	-36.1	-37.1	21.6	0.00e+00	123	34	0	124780544	46	5643
2026-01-09 00:43:00.71	170.06	6.03	-36.2	-37.3	21.6	0.00e+00	123	34	0	127926272	46	5727
2026-01-09 00:43:01.72	170.08	6.10	-36.1	-37.2	21.6	0.00e+00	120	34	0	131072000	46	5675
2026-01-09 00:43:02.73	170.11	6.18	-35.8	-36.9	21.8	0.00e+00	122	34	0	134217728	46	5469
2026-01-09 00:43:03.74	170.13	6.25	-35.9	-36.9	21.7	0.00e+00	122	34	0	137363456	46	5525
2026-01-09 00:43:04.75	170.16	6.33	-35.8	-36.8	21.9	0.00e+00	120	34	0	140509184	46	5434
2026-01-09 00:43:05.76	170.18	6.40	-35.8	-36.8	21.9	0.00e+00	123	34	0	143654912	46	5447
2026-01-09 00:43:06.77	170.21	6.48	-35.8	-36.8	21.9	0.00e+00	120	34	0	146800640	44	6097
2026-01-09 00:43:07.78	170.23	6.56	-35.7	-36.7	22.0	0.00e+00	123	34	0	149946368	44	6023
2026-01-09 00:43:08.79	170.26	6.63	-35.8	-36.8	21.9	0.00e+00	123	34	0	153092096	44	6103
2026-01-09 00:43:09.80	170.28	6.71	-35.7	-36.7	21.9	0.00e+00	123	34	0	156237824	44	6046
2026-01-09 00:43:10.81	170.31	6.78	-35.8	-36.9	21.9	0.00e+00	123	34	0	159383552	44	6144
2026-01-09 00:43:11.82	170.34	6.86	-35.7	-36.8	22.0	0.00e+00	123	34	0	162529280	44	6086
2026-01-09 00:43:12.82	170.36	6.94	-35.6	-36.6	22.1	0.00e+00	123	34	0	165675008	44	5972
2026-01-09 00:43:13.83	170.39	7.01	-35.7	-36.7	22.0	0.00e+00	122	34	0	168820736	44	6037
2026-01-09 00:43:14.84	170.42	7.09	-35.5	-36.5	22.2	0.00e+00	123	34	0	171966464	44	5877
2026-01-09 00:43:15.85	170.44	7.17	-35.5	-36.5	22.2	0.00e+00	123	34	0	175112192	44	5899
2026-01-09 00:43:16.86	170.47	7.25	-35.6	-36.7	22.1	0.00e+00	122	34	0	178257920	44	5999
2026-01-09 00:43:17.87	170.50	7.32	-35.6	-36.6	22.2	0.00e+00	122	34	0	181403648	44	5935
2026-01-09 00:43:18.88	170.52	7.40	-35.5	-36.5	22.3	0.00e+00	122	34	0	184549376	44	5866
2026-01-09 00:43:19.89	170.55	7.48	-35.4	-36.4	22.3	0.00e+00	123	34	0	187695104	44	5854
2026-01-09 00:43:20.90	170.58	7.56	-35.5	-36.5	22.3	0.00e+00	122	34	0	190840832	44	5863
2026-01-09 00:43:21.91	170.60	7.64	-35.4	-36.5	22.3	0.00e+00	123	34	0	193986560	44	5860
2026-01-09 00:43:22.92	170.63	7.72	-35.4	-36.4	22.4	0.00e+00	122	34	0	197132288	44	5810
2026-01-09 00:43:23.92	170.66	7.80	-35.5	-36.5	22.4	0.00e+00	120	34	0	200278016	44	5899
2026-01-09 00:43:24.93	170.69	7.88	-35.4	-36.5	22.3	0.00e+00	123	34	0	203423744	44	5865
2026-01-09 00:43:25.94	170.71	7.96	-35.4	-36.4	22.4	0.00e+00	123	34	0	206569472	44	5800
2026-01-09 00:43:26.95	170.74	8.04	-35.4	-36.4	22.3	0.00e+00	122	34	0	209715200	44	5852
2026-01-09 00:43:27.96	170.77	8.12	-35.4	-36.4	22.4	0.00e+00	121	34	0	212860928	44	5804
2026-01-09 00:43:28.97	170.80	8.20	-35.2	-36.3	22.5	0.00e+00	123	34	0	216006656	44	5728
2026-01-09 00:43:29.98	170.83	8.28	-35.3	-36.3	22.4	0.00e+00	123	34	0	219152384	44	5791
2026-01-09 00:43:30.99	170.86	8.36	-35.3	-36.3	22.5	0.00e+00	123	34	0	222298112	44	5755
2026-01-09 00:43:32.00	170.88	8.44	-35.2	-36.2	22.6	0.00e+00	123	34	0	225443840	44	5669
2026-01-09 00:43:33.01	170.91	8.52	-35.1	-36.1	22.7	0.00e+00	122	34	0	228589568	44	5613
2026-01-09 00:43:34.02	170.94	8.61	-35.1	-36.1	22.8	0.00e+00	120	34	0	231735296	44	5605
2026-01-09 00:43:35.03	170.97	8.69	-35.0	-36.0	22.8	0.00e+00	123	34	0	234881024	44	5570
2026-01-09 00:43:36.04	171.00	8.77	-35.0	-36.0	22.7	0.00e+00	121	34	0	238026752	44	5569
2026-01-09 00:43:37.05	171.03	8.85	-34.9	-35.9	22.8	0.00e+00	123	34	0	241172480	44	5498
2026-01-09 00:43:38.06	171.06	8.94	-35.0	-36.0	22.8	0.00e+00	120	34	0	244318208	44	5537
2026-01-09 00:43:39.07	171.09	9.02	-34.9	-35.9	22.8	0.00e+00	122	34	0	247463936	44	5514
2026-01-09 00:43:40.07	171.12	9.10	-34.9	-35.9	22.9	0.00e+00	120	34	0	250609664	44	5514
2026-01-09 00:43:41.08	171.15	9.19	-34.8	-35.8	22.9	0.00e+00	122	34	0	253755392	42	6071
2026-01-09 00:43:42.10	171.18	9.27	-34.9	-35.9	22.9	0.00e+00	122	34	0	256901120	42	6154
2026-01-09 00:43:43.10	171.21	9.36	-34.7	-35.6	23.1	0.00e+00	123	34	0	260046848	42	5983
2026-01-09 00:43:44.11	171.24	9.44	-34.7	-35.7	23.0	0.00e+00	123	34	0	263192576	42	6002
2026-01-09 00:43:45.12	171.27	9.53	-34.7	-35.6	23.1	0.00e+00	122	34	0	266338304	42	5987
2026-01-09 00:43:46.13	171.30	9.61	-34.6	-35.6	23.1	0.00e+00	123	34	0	269484032	42	5959
2026-01-09 00:43:47.14	171.33	9.70	-34.6	-35.5	23.2	0.00e+00	123	34	0	272629760	42	5911
2026-01-09 00:43:48.15	171.36	9.78	-34.5	-35.4	23.3	0.00e+00	122	34	0	275775488	42	5852
2026-01-09 00:43:49.16	171.40	9.87	-34.6	-35.5	23.2	0.00e+00	123	34	0	278921216	42	5905
2026-01-09 00:43:50.16	171.43	9.95	-34.6	-35.5	23.2	0.00e+00	120	34	0	282066944	42	5923
2026-01-09 00:43:51.17	171.46	10.04	-34.6	-35.5	23.2	0.00e+00	122	34	0	285212672	42	5923
2026-01-09 00:43:52.18	171.49	10.13	-34.5	-35.5	23.4	0.00e+00	123	34	0	289406976	42	5873
2026-01-09 00:43:53.19	171.52	10.22	-34.5	-35.4	23.3	0.00e+00	122	34	0	291504128	42	5832
2026-01-09 00:43:54.20	171.55	10.30	-34.4	-35.3	23.4	0.00e+00	122	34	0	294649856	42	5791
2026-01-09 00:43:55.21	171.59	10.39	-34.3	-35.3	23.4	0.00e+00	123	34	0	297795584	42	5749
2026-01-09 00:43:56.21	171.62	10.48	-34.5	-35.4	23.3	0.00e+00	120	34	0	300941312	42	5841
2026-01-09 00:43:57.22	171.65	10.57	-34.5	-35.5	23.3	0.00e+00	123	34	0	304087040	42	5885
2026-01-09 00:43:58.23	171.68	10.66	-34.2	-35.2	23.5	0.00e+00	120	34	0	308281344	42	5667
2026-01-09 00:43:59.24	171.72	10.75	-34.4	-35.4	23.4	0.00e+00	122	34	0	311427072	42	5808
2026-01-09 00:44:00.25	171.75	10.84	-34.2	-35.1	23.6	0.00e+00	120	34	0	314572800	42	5631
2026-01-09 00:44:01.26	171.78	10.93	-34.2	-35.2	23.5	0.00e+00	122	34	0	316669952	42	5683
2026-01-09 00:44:02.27	171.82	11.02	-34.2	-35.1	23.6	0.00e+00	123	34	0	319815680	42	5656
2026-01-09 00:44:03.28	171.85	11.11	-34.2	-35.1	23.6	0.00e+00	123	34	0	324009984	42	5656
2026-01-09 00:44:04.29	171.88	11.20	-34.2	-35.2	23.6	0.00e+00	123	34	0	327155712	42	5660
2026-01-09 00:44:05.30	171.92	11.29	-34.1	-35.0	23.8	0.00e+00	123	34	0	330301440	42	5576
2026-01-09 00:44:06.31	171.95	11.38	-34.1	-35.0	23.7	0.00e+00	122	34	0	333447168	42	5560
2026-01-09 00:44:07.31	171.99	11.47	-34.1	-35.0	23.8	0.00e+00	120	34	0	336592896	42	5551
2026-01-09 00:44:08.32	172.02	11.56	-34.1	-35.0	23.7	0.00e+00	123	34	0	338690048	42	5568
2026-01-09 00:44:09.33	172.06	11.66	-34.1	-35.0	23.7	0.00e+00	122	34	0	342884352	42	5583
2026-01-09 00:44:10.34	172.09	11.75	-34.2	-35.1	23.7	0.00e+00	122	34	0	346030080	42	5624
2026-01-09 00:44:11.35	172.13	11.84	-34.2	-35.1	23.6	0.00e+00	123	34	0	349175808	42	5642
2026-01-09 00:44:12.35	172.16	11.93	-34.1	-35.0	23.8	0.00e+00	123	34	0	352321536	42	5592
2026-01-09 00:44:13.36	172.20	12.03	-34.0	-34.9	23.9	0.00e+00	123	34	0	355467264	42	5474
2026-01-09 00:44:14.37	172.23	12.12	-34.1	-35.1	23.7	0.00e+00	123	34	0	358612992	42	5610
2026-01-09 00:44:15.38	172.27	12.22	-34.0	-34.9	23.9	0.00e+00	123	34	0	361758720	42	5491
2026-01-09 00:44:16.39	172.31	12.31	-34.0	-35.0	23.8	0.00e+00	120	35	0	364904448	42	5534
2026-01-09 00:44:17.39	172.34	12.41	-33.9	-34.8	23.9	0.00e+00	120	34	0	368050176	42	5452
2026-01-09 00:44:18.40	172.38	12.50	-33.8	-34.7	24.0	0.00e+00	123	35	0	371195904	42	5395
2026-01-09 00:44:19.41	172.42	12.60	-33.8	-34.7	24.0	0.00e+00	123	35	0	374341632	42	5397
2026-01-09 00:44:20.42	172.45	12.70	-33.9	-34.8	23.9	0.00e+00	123	35	0	377487360	42	5424
2026-01-09 00:44:21.43	172.49	12.79	-33.9	-34.8	23.9	0.00e+00	122	35	0	380633088	42	5425
2026-01-09 00:44:22.44	172.53	12.89	-33.8	-34.8	24.0	0.00e+00	120	35	0	383778816	42	5407
2026-01-09 00:44:23.45	172.57	12.99	-34.0	-34.9	23.8	0.00e+00	122	35	0	386924544	42	5507
2026-01-09 00:44:24.46	172.60	13.08	-33.7	-34.6	24.0	0.00e+00	120	34	0	390070272	40	5985
2026-01-09 00:44:25.47	172.64	13.18	-33.9	-34.8	23.9	0.00e+00	123	34	0	393216000	40	6109
2026-01-09 00:44:26.48	172.68	13.28	-33.8	-34.7	24.0	0.00e+00	123	34	0	396361728	40	6023
2026-01-09 00:44:27.49	172.72	13.38	-33.7	-34.7	24.0	0.00e+00	120	35	0	399507456	40	5996
2026-01-09 00:44:28.50	172.76	13.48	-33.8	-34.7	24.0	0.00e+00	116	35	0	402653184	40	6016
2026-01-09 00:44:29.51	172.80	13.58	-33.7	-34.6	24.1	0.00e+00	123	34	0	405798912	40	5950
2026-01-09 00:44:30.52	172.84	13.68	-33.8	-34.7	24.0	0.00e+00	123	35	0	408944640	40	6013
2026-01-09 00:44:31.53	172.88	13.78	-33.7	-34.6	24.1	0.00e+00	120	34	0	412090368	40	5984
2026-01-09 00:44:32.54	172.92	13.88	-33.8	-34.7	24.0	0.00e+00	122	35	0	415236096	40	6033
2026-01-09 00:44:33.55	172.96	13.98	-33.7	-34.6	24.1	0.00e+00	120	34	0	418381824	40	5968
2026-01-09 00:44:34.56	173.00	14.09	-33.7	-34.6	24.2	0.00e+00	122	34	0	421527552	40	5962
2026-01-09 00:44:35.57	173.04	14.19	-33.7	-34.6	24.1	0.00e+00	122	34	0	424673280	40	5948
2026-01-09 00:44:36.57	173.08	14.29	-33.7	-34.6	24.2	0.00e+00	123	34	0	427819008	40	5944
2026-01-09 00:44:37.58	173.12	14.39	-33.6	-34.6	24.2	0.00e+00	122	34	0	430964736	40	5937
2026-01-09 00:44:38.59	173.16	14.50	-33.7	-34.6	24.1	0.00e+00	123	35	0	434110464	40	5970
2026-01-09 00:44:39.60	173.20	14.60	-33.7	-34.6	24.1	0.00e+00	123	34	0	437256192	40	5964
2026-01-09 00:44:40.61	173.25	14.71	-33.7	-34.6	24.1	0.00e+00	122	35	0	440401920	40	5991
2026-01-09 00:44:41.62	173.29	14.81	-33.6	-34.5	24.2	0.00e+00	123	35	0	443547648	40	5913
2026-01-09 00:44:42.63	173.33	14.92	-33.7	-34.6	24.2	0.00e+00	123	34	0	446693376	40	5961
2026-01-09 00:44:43.64	173.37	15.02	-33.7	-34.6	24.2	0.00e+00	120	35	0	449839104	40	5931
2026-01-09 00:44:44.65	173.42	15.13	-33.8	-34.7	24.1	0.00e+00	121	34	0	452984832	40	6004
2026-01-09 00:44:45.66	173.46	15.24	-33.7	-34.6	24.1	0.00e+00	122	35	0	456130560	40	5992
2026-01-09 00:44:46.66	173.50	15.34	-33.8	-34.7	24.1	0.00e+00	123	35	0	459276288	40	6044
2026-01-09 00:44:47.68	173.55	15.45	-33.7	-34.6	24.1	0.00e+00	122	34	0	462422016	40	5991
2026-01-09 00:44:48.69	173.59	15.56	-33.8	-34.7	24.1	0.00e+00	124	35	0	465567744	40	6023
2026-01-09 00:44:49.70	173.64	15.67	-33.7	-34.6	24.2	0.00e+00	122	34	0	468713472	40	5929
2026-01-09 00:44:50.71	173.68	15.78	-33.8	-34.7	24.1	0.00e+00	123	34	0	471859200	40	6025
2026-01-09 00:44:51.72	173.73	15.89	-33.8	-34.7	24.0	0.00e+00	123	34	0	475004928	40	5996
2026-01-09 00:44:52.72	173.77	16.00	-33.8	-34.8	24.1	0.00e+00	123	35	0	478150656	40	6077
2026-01-09 00:44:53.73	173.82	16.11	-33.8	-34.7	24.1	0.00e+00	123	35	0	481296384	40	6052
2026-01-09 00:44:54.74	173.86	16.22	-33.9	-34.8	24.0	0.00e+00	122	35	0	484442112	40	6104
2026-01-09 00:44:55.75	173.91	16.33	-33.8	-34.7	24.1	0.00e+00	123	34	0	487587840	40	6046
2026-01-09 00:44:56.76	173.96	16.44	-33.8	-34.7	24.1	0.00e+00	123	35	0	490733568	40	6011
2026-01-09 00:44:57.77	174.01	16.55	-33.9	-34.8	24.0	0.00e+00	122	35	0	493879296	40	6077
2026-01-09 00:44:58.78	174.05	16.67	-33.8	-34.7	24.1	0.00e+00	120	34	0	497025024	40	6030
2026-01-09 00:44:59.79	174.10	16.78	-33.8	-34.7	24.1	0.00e+00	123	35	0	500170752	40	6038
2026-01-09 00:45:00.79	174.15	16.89	-33.7	-34.6	24.1	0.00e+00	123	35	0	503316480	40	5972
2026-01-09 00:45:01.80	174.20	17.01	-33.8	-34.7	24.1	0.00e+00	121	35	0	506462208	40	6047
2026-01-09 00:45:02.81	174.25	17.12	-33.8	-34.7	24.1	0.00e+00	122	35	0	509607936	40	6014
2026-01-09 00:45:03.82	174.29	17.24	-33.9	-34.8	24.0	0.00e+00	123	35	0	512753664	40	6101
2026-01-09 00:45:04.83	174.34	17.35	-33.7	-34.6	24.1	0.00e+00	123	35	0	515899392	40	5971
2026-01-09 00:45:05.84	174.39	17.47	-33.7	-34.6	24.1	0.00e+00	122	35	0	519045120	40	5941
2026-01-09 00:45:06.85	174.44	17.59	-33.6	-34.5	24.2	0.00e+00	123	34	0	522190848	40	5900
2026-01-09 00:45:07.86	174.49	17.71	-33.7	-34.6	24.1	0.00e+00	123	35	0	525336576	40	5943
2026-01-09 00:45:08.87	174.55	17.82	-33.6	-34.5	24.1	0.00e+00	122	35	0	528482304	40	5913
2026-01-09 00:45:09.88	174.60	17.94	-33.6	-34.6	24.1	0.00e+00	123	35	0	531628032	40	5935
2026-01-09 00:45:10.89	174.65	18.06	-33.8	-34.7	24.1	0.00e+00	120	35	0	534773760	40	6015
2026-01-09 00:45:11.90	174.70	18.18	-33.6	-34.5	24.2	0.00e+00	123	35	0	537919488	40	5902
2026-01-09 00:45:12.91	174.75	18.30	-33.7	-34.6	24.0	0.00e+00	123	35	0	541065216	40	5968
2026-01-09 00:45:13.91	174.80	18.42	-33.5	-34.5	24.2	0.00e+00	123	35	0	544210944	40	5862
2026-01-09 00:45:14.93	174.86	18.55	-33.6	-34.5	24.2	0.00e+00	122	35	0	547356672	40	5869
2026-01-09 00:45:15.93	174.91	18.67	-33.5	-34.4	24.2	0.00e+00	123	35	0	550502400	40	5841
2026-01-09 00:45:16.94	174.97	18.79	-33.6	-34.5	24.1	0.00e+00	123	35	0	553648128	40	5892
2026-01-09 00:45:17.95	175.02	18.91	-33.6	-34.5	24.2	0.00e+00	122	35	0	556793856	40	5880
2026-01-09 00:45:18.96	175.07	19.04	-33.4	-34.4	24.3	0.00e+00	122	35	0	559939584	40	5802
2026-01-09 00:45:19.97	175.13	19.16	-33.4	-34.3	24.3	0.00e+00	123	35	0	563085312	40	5766
2026-01-09 00:45:20.98	175.19	19.29	-33.4	-34.3	24.3	0.00e+00	123	35	0	566231040	40	5787
2026-01-09 00:45:21.99	175.24	19.41	-33.3	-34.2	24.3	0.00e+00	122	35	0	569376768	40	5723
2026-01-09 00:45:23.00	175.30	19.54	-33.2	-34.2	24.3	0.00e+00	122	35	0	572522496	40	5665
2026-01-09 00:45:24.01	175.35	19.67	-33.3	-34.2	24.3	0.00e+00	123	35	0	575668224	40	5690
2026-01-09 00:45:25.02	175.41	19.79	-33.3	-34.3	24.3	0.00e+00	121	35	0	578813952	40	5736
2026-01-09 00:45:26.03	175.47	19.92	-33.3	-34.2	24.4	0.00e+00	123	35	0	581959680	40	5708
2026-01-09 00:45:27.03	175.53	20.05	-33.1	-34.0	24.5	0.00e+00	122	35	0	585105408	40	5585
2026-01-09 00:45:28.05	175.59	20.18	-33.2	-34.1	24.4	0.00e+00	122	35	0	588251136	40	5611
2026-01-09 00:45:29.05	175.65	20.31	-33.0	-33.9	24.6	0.00e+00	120	35	0	591396864	40	5522
2026-01-09 00:45:30.07	175.71	20.44	-33.1	-34.0	24.5	0.00e+00	123	35	0	594542592	40	5583
2026-01-09 00:45:31.07	175.77	20.57	-32.9	-33.8	24.6	0.00e+00	123	35	0	597688320	40	5433
2026-01-09 00:45:32.08	175.83	20.70	-32.9	-33.8	24.6	0.00e+00	123	35	0	600834048	40	5463
2026-01-09 00:45:33.09	175.89	20.84	-32.9	-33.8	24.6	0.00e+00	123	35	0	603979776	40	5434
2026-01-09 00:45:34.10	175.95	20.97	-32.8	-33.7	24.8	0.00e+00	120	35	0	607125504	40	5360
2026-01-09 00:45:35.11	176.01	21.11	-32.8	-33.7	24.8	0.00e+00	123	35	0	610271232	40	5374
2026-01-09 00:45:36.11	176.07	21.24	-32.7	-33.6	24.9	0.00e+00	120	34	0	613416960	38	5969
2026-01-09 00:45:37.12	176.14	21.37	-32.9	-33.8	24.7	0.00e+00	123	35	0	616562688	38	6081
2026-01-09 00:45:38.13	176.20	21.51	-32.7	-33.6	24.8	0.00e+00	122	35	0	619708416	38	5978
2026-01-09 00:45:39.14	176.26	21.65	-32.6	-33.5	24.9	0.00e+00	123	35	0	622854144	38	5898
2026-01-09 00:45:40.15	176.33	21.79	-32.8	-33.7	24.9	0.00e+00	122	35	0	625999872	38	5999
2026-01-09 00:45:41.16	176.39	21.92	-32.7	-33.6	24.9	0.00e+00	123	35	0	629145600	38	5944
2026-01-09 00:45:42.17	176.46	22.06	-32.4	-33.3	25.1	0.00e+00	122	35	0	632291328	38	5750
2026-01-09 00:45:43.18	176.53	22.20	-32.5	-33.4	25.0	0.00e+00	123	35	0	635437056	38	5811
2026-01-09 00:45:44.19	176.59	22.34	-32.4	-33.2	25.1	0.00e+00	123	35	0	638582784	38	5713
2026-01-09 00:45:45.19	176.66	22.48	-32.3	-33.2	25.1	0.00e+00	120	35	0	641728512	38	5669
2026-01-09 00:45:46.20	176.73	22.63	-32.3	-33.1	25.2	0.00e+00	123	35	0	644874240	38	5634
2026-01-09 00:45:47.21	176.80	22.77	-32.3	-33.2	25.1	0.00e+00	124	35	0	648019968	38	5691
2026-01-09 00:45:48.22	176.87	22.91	-32.1	-33.0	25.2	0.00e+00	123	35	0	651165696	38	5555
2026-01-09 00:45:49.23	176.94	23.06	-32.2	-33.1	25.1	0.00e+00	123	35	0	654311424	38	5605
2026-01-09 00:45:50.25	177.01	23.20	-32.1	-33.0	25.2	0.00e+00	121	35	0	657457152	38	5545
2026-01-09 00:45:51.25	177.08	23.35	-31.9	-32.8	25.4	0.00e+00	123	35	0	660602880	38	5414
2026-01-09 00:45:52.26	177.15	23.50	-32.0	-32.9	25.3	0.00e+00	123	35	0	663748608	38	5481
2026-01-09 00:45:53.27	177.22	23.64	-31.8	-32.7	25.5	0.00e+00	123	35	0	666894336	38	5363
2026-01-09 00:45:54.28	177.30	23.79	-32.0	-32.9	25.3	0.00e+00	120	35	0	670040064	38	5484
2026-01-09 00:45:55.29	177.37	23.94	-31.8	-32.6	25.5	0.00e+00	122	35	0	673185792	36	5974
2026-01-09 00:45:56.30	177.44	24.09	-31.9	-32.8	25.4	0.00e+00	122	35	0	676331520	36	6089
2026-01-09 00:45:57.31	177.52	24.24	-31.8	-32.7	25.5	0.00e+00	123	35	0	679477248	36	6003
2026-01-09 00:45:58.33	177.60	24.39	-31.7	-32.6	25.6	0.00e+00	122	35	0	682622976	36	5939
2026-01-09 00:45:59.34	177.67	24.55	-31.8	-32.6	25.7	0.00e+00	122	35	0	685768704	36	5952
2026-01-09 00:46:00.35	177.75	24.70	-31.9	-32.7	25.6	0.00e+00	121	35	0	688914432	36	6029
2026-01-09 00:46:01.35	177.83	24.85	-32.0	-32.8	25.5	0.00e+00	122	35	0	692060160	36	6130
2026-01-09 00:46:02.36	177.90	25.01	-32.2	-33.0	25.5	0.00e+00	123	35	0	695205888	36	6266
2026-01-09 00:46:03.37	177.98	25.16	-32.2	-33.1	25.4	0.00e+00	123	35	0	698351616	36	6298
2026-01-09 00:46:04.38	178.06	25.32	-32.5	-33.3	25.3	0.00e+00	123	35	0	701497344	36	6483
2026-01-09 00:46:05.38	178.14	25.48	-32.4	-33.2	25.3	0.00e+00	123	35	0	704643072	36	6406
2026-01-09 00:46:06.39	178.23	25.63	-32.5	-33.3	25.3	0.00e+00	122	35	0	707788800	36	6484
2026-01-09 00:46:07.40	178.31	25.79	-32.5	-33.4	25.2	0.00e+00	123	35	0	710934528	36	6532
2026-01-09 00:46:08.41	178.39	25.95	-32.7	-33.6	25.1	0.00e+00	122	35	0	714080256	36	6688
2026-01-09 00:46:09.42	178.48	26.12	-32.9	-33.8	24.9	0.00e+00	123	35	0	717225984	38	6077
2026-01-09 00:46:10.43	178.56	26.28	-32.9	-33.8	24.9	0.00e+00	122	35	0	721420288	38	6074
2026-01-09 00:46:11.44	178.65	26.44	-33.0	-33.9	24.9	0.00e+00	123	35	0	724566016	38	6145
2026-01-09 00:46:12.45	178.73	26.60	-33.0	-33.9	25.0	0.00e+00	123	35	0	727711744	38	6163
2026-01-09 00:46:13.46	178.82	26.77	-33.0	-33.9	24.9	0.00e+00	123	35	0	729808896	38	6149
2026-01-09 00:46:14.47	178.91	26.94	-32.9	-33.8	24.9	0.00e+00	123	35	0	732954624	38	6100
2026-01-09 00:46:15.47	179.00	27.10	-32.9	-33.7	24.9	0.00e+00	122	35	0	736100352	38	6056
2026-01-09 00:46:16.48	179.09	27.27	-33.0	-33.9	24.8	0.00e+00	122	35	0	740294656	38	6149
2026-01-09 00:46:17.49	179.18	27.44	-33.1	-34.0	24.7	0.00e+00	123	35	0	743440384	38	6241
2026-01-09 00:46:18.50	179.27	27.61	-33.2	-34.0	24.8	0.00e+00	123	35	0	746586112	38	6263
2026-01-09 00:46:19.51	179.36	27.78	-33.3	-34.2	24.7	0.00e+00	122	35	0	749731840	38	6364
2026-01-09 00:46:20.52	179.46	27.95	-33.5	-34.4	24.5	0.00e+00	123	35	0	751828992	38	6564
2026-01-09 00:46:21.53	179.55	28.12	-33.6	-34.5	24.5	0.00e+00	123	35	0	756023296	38	6581
2026-01-09 00:46:22.54	179.65	28.30	-33.7	-34.6	24.3	0.00e+00	123	35	0	759169024	38	6713
2026-01-09 00:46:23.55	179.74	28.47	-33.7	-34.6	24.3	0.00e+00	123	35	0	762314752	40	5956
2026-01-09 00:46:24.56	179.84	28.65	-33.9	-34.8	24.1	0.00e+00	127	35	0	765460480	40	6080
2026-01-09 00:46:25.57	179.94	28.82	-33.8	-34.8	24.1	0.00e+00	123	35	0	768606208	40	6074
2026-01-09 00:46:26.58	180.04	29.00	-33.9	-34.8	24.0	0.00e+00	122	35	0	771751936	40	6130
2026-01-09 00:46:27.59	180.14	29.18	-33.9	-34.8	24.1	0.00e+00	123	35	0	774897664	40	6090
2026-01-09 00:46:28.60	180.24	29.36	-33.9	-34.8	24.1	0.00e+00	122	35	0	778043392	40	6084
2026-01-09 00:46:29.61	180.34	29.54	-33.7	-34.6	24.2	0.00e+00	122	35	0	781189120	40	5971
2026-01-09 00:46:30.62	180.45	29.72	-33.8	-34.7	24.1	0.00e+00	123	35	0	784334848	40	6051
2026-01-09 00:46:31.63	180.55	29.90	-33.5	-34.4	24.4	0.00e+00	120	35	0	787480576	40	5833
2026-01-09 00:46:32.63	180.66	30.09	-33.5	-34.4	24.4	0.00e+00	123	35	0	790626304	40	5804
2026-01-09 00:46:33.64	180.77	30.27	-33.2	-34.1	24.7	0.00e+00	123	35	0	793772032	40	5611
2026-01-09 00:46:34.65	180.88	30.46	-33.0	-34.0	24.8	0.00e+00	122	35	0	796917760	40	5531
2026-01-09 00:46:35.66	180.99	30.64	-33.1	-33.9	24.9	0.00e+00	120	35	0	800063488	40	5528
2026-01-09 00:46:36.67	181.10	30.83	-32.9	-33.8	25.0	0.00e+00	122	35	0	803209216	40	5429
2026-01-09 00:46:37.68	181.21	31.02	-33.0	-33.9	24.9	0.00e+00	120	35	0	806354944	40	5508
2026-01-09 00:46:38.69	181.32	31.21	-33.0	-33.8	24.9	0.00e+00	122	35	0	809500672	40	5457
2026-01-09 00:46:39.70	181.44	31.41	-33.0	-33.9	24.9	0.00e+00	123	35	0	812646400	40	5480
2026-01-09 00:46:40.71	181.55	31.60	-33.0	-33.9	24.9	0.00e+00	123	35	0	815792128	40	5502
2026-01-09 00:46:41.72	181.67	31.79	-33.0	-33.9	24.9	0.00e+00	123	35	0	818937856	40	5491
2026-01-09 00:46:42.73	181.79	31.99	-33.0	-33.9	24.9	0.00e+00	123	35	0	822083584	40	5488
2026-01-09 00:46:43.74	181.91	32.18	-33.0	-33.8	25.0	0.00e+00	122	35	0	825229312	40	5460
2026-01-09 00:46:44.75	182.03	32.38	-33.1	-33.9	24.9	0.00e+00	123	35	0	828375040	40	5522
2026-01-09 00:46:45.76	182.16	32.58	-33.1	-34.0	24.8	0.00e+00	123	35	0	831520768	40	5566
2026-01-09 00:46:46.77	182.28	32.78	-33.3	-34.1	24.7	0.00e+00	121	35	0	834666496	40	5653
2026-01-09 00:46:47.78	182.41	32.98	-33.1	-34.0	24.8	0.00e+00	123	35	0	837812224	40	5581
2026-01-09 00:46:48.79	182.54	33.18	-33.2	-34.0	24.8	0.00e+00	120	35	0	840957952	40	5583
2026-01-09 00:46:49.80	182.67	33.39	-33.3	-34.2	24.7	0.00e+00	121	35	0	844103680	40	5684
2026-01-09 00:46:50.81	182.80	33.59	-33.3	-34.2	24.7	0.00e+00	123	35	0	847249408	40	5699
2026-01-09 00:46:51.82	182.93	33.80	-33.2	-34.1	24.8	0.00e+00	122	35	0	850395136	40	5620
2026-01-09 00:46:52.83	183.06	34.00	-33.4	-34.3	24.6	0.00e+00	120	35	0	853540864	40	5745
2026-01-09 00:46:53.84	183.20	34.21	-33.5	-34.4	24.6	0.00e+00	122	35	0	856686592	40	5798
2026-01-09 00:46:54.85	183.34	34.42	-33.6	-34.5	24.5	0.00e+00	122	35	0	859832320	40	5892
2026-01-09 00:46:55.86	183.48	34.63	-33.8	-34.7	24.3	0.00e+00	123	35	0	862978048	40	6038
2026-01-09 00:46:56.86	183.62	34.84	-34.0	-34.9	24.2	0.00e+00	123	35	0	866123776	40	6137
2026-01-09 00:46:57.87	183.76	35.06	-34.2	-35.1	24.0	0.00e+00	120	35	0	869269504	40	6296
2026-01-09 00:46:58.88	183.90	35.27	-34.4	-35.4	23.8	0.00e+00	123	35	0	872415232	40	6505
2026-01-09 00:46:59.89	184.05	35.49	-34.4	-35.3	23.8	0.00e+00	123	35	0	875560960	40	6496
2026-01-09 00:47:00.90	184.20	35.70	-34.6	-35.5	23.8	0.00e+00	122	35	0	878706688	40	6587
2026-01-09 00:47:01.91	184.35	35.92	-34.8	-35.7	23.7	0.00e+00	122	35	0	881852416	40	6799
2026-01-09 00:47:02.92	184.50	36.14	-34.8	-35.7	23.6	0.00e+00	120	35	0	884998144	42	6018
2026-01-09 00:47:03.93	184.66	36.36	-34.8	-35.8	23.5	0.00e+00	123	35	0	888143872	42	6085
2026-01-09 00:47:04.94	184.81	36.59	-34.8	-35.7	23.5	0.00e+00	121	35	0	891289600	42	6047
2026-01-09 00:47:05.94	184.97	36.81	-34.9	-35.9	23.5	0.00e+00	123	35	0	894435328	42	6136
2026-01-09 00:47:06.95	185.13	37.03	-35.0	-36.0	23.4	0.00e+00	120	35	0	897581056	42	6228
2026-01-09 00:47:07.97	185.30	37.26	-35.0	-35.9	23.4	0.00e+00	122	35	0	900726784	42	6187
2026-01-09 00:47:08.98	185.46	37.49	-35.1	-36.0	23.4	0.00e+00	120	35	0	903872512	42	6254
2026-01-09 00:47:09.98	185.63	37.71	-35.1	-36.0	23.3	0.00e+00	122	35	0	907018240	42	6250
2026-01-09 00:47:10.99	185.80	37.94	-34.8	-35.8	23.5	0.00e+00	122	35	0	910163968	42	6084
2026-01-09 00:47:12.00	185.97	38.18	-34.8	-35.8	23.5	0.00e+00	122	35	0	913309696	42	6068
2026-01-09 00:47:13.01	186.14	38.41	-34.8	-35.7	23.6	0.00e+00	123	35	0	916455424	42	6020
2026-01-09 00:47:14.02	186.32	38.64	-34.8	-35.7	23.5	0.00e+00	118	35	0	919601152	42	6054
2026-01-09 00:47:15.03	186.50	38.88	-34.9	-35.8	23.5	0.00e+00	123	35	0	922746880	42	6126
2026-01-09 00:47:16.04	186.68	39.11	-35.0	-35.9	23.4	0.00e+00	122	35	0	925892608	42	6173
2026-01-09 00:47:17.05	186.86	39.35	-35.1	-36.1	23.2	0.00e+00	122	35	0	929038336	42	6282
2026-01-09 00:47:18.06	187.05	39.59	-34.9	-35.9	23.2	0.00e+00	123	35	0	932184064	42	6173
2026-01-09 00:47:19.07	187.24	39.83	-35.1	-36.1	23.1	0.00e+00	122	35	0	935329792	42	6288
2026-01-09 00:47:20.08	187.43	40.07	-35.2	-36.2	22.7	0.00e+00	122	35	0	938475520	42	6421
2026-01-09 00:47:21.09	187.63	40.32	-35.2	-36.2	22.8	0.00e+00	123	35	0	941621248	42	6366
2026-01-09 00:47:22.09	187.83	40.56	-35.3	-36.3	22.8	0.00e+00	123	35	0	944766976	42	6450
2026-01-09 00:47:23.10	188.03	40.80	-35.5	-36.5	22.7	0.00e+00	123	35	0	947912704	42	6581
2026-01-09 00:47:24.11	188.23	41.05	-35.8	-36.8	22.5	0.00e+00	123	35	0	951058432	44	6077
2026-01-09 00:47:25.12	188.44	41.30	-35.8	-36.9	22.5	0.00e+00	123	35	0	954204160	44	6135
2026-01-09 00:47:26.13	188.65	41.55	-35.8	-36.8	22.4	0.00e+00	123	35	0	957349888	44	6095
2026-01-09 00:47:27.14	188.86	41.80	-35.9	-36.9	22.3	0.00e+00	123	35	0	960495616	44	6150
2026-01-09 00:47:28.15	189.08	42.05	-35.6	-36.6	22.5	0.00e+00	122	35	0	963641344	44	5974
2026-01-09 00:47:29.16	189.30	42.31	-35.3	-36.3	22.7	0.00e+00	122	35	0	966787072	44	5776
2026-01-09 00:47:30.17	189.52	42.56	-35.3	-36.3	22.6	0.00e+00	123	35	0	969932800	44	5783
2026-01-09 00:47:31.17	189.75	42.81	-35.5	-36.5	22.8	0.00e+00	123	35	0	973078528	44	5862
2026-01-09 00:47:32.18	189.98	43.07	-36.0	-37.0	22.5	0.00e+00	122	35	0	976224256	44	6239
2026-01-09 00:47:33.19	190.21	43.33	-36.1	-37.1	22.4	0.00e+00	123	35	0	979369984	44	6306
2026-01-09 00:47:34.20	190.45	43.59	-36.2	-37.3	22.3	0.00e+00	123	35	0	982515712	44	6451
2026-01-09 00:47:35.21	190.70	43.85	-36.4	-37.4	22.2	0.00e+00	123	35	0	985661440	44	6571
2026-01-09 00:47:36.22	190.94	44.11	-36.5	-37.5	22.0	0.00e+00	123	35	0	988807168	44	6640
2026-01-09 00:47:37.23	191.19	44.38	-36.5	-37.6	22.0	0.00e+00	123	35	0	991952896	44	6674
2026-01-09 00:47:38.24	191.45	44.64	-36.4	-37.5	22.2	0.00e+00	123	35	0	995098624	44	6581
2026-01-09 00:47:39.24	191.70	44.90	-36.3	-37.4	22.3	0.00e+00	122	35	0	998244352	44	6504
2026-01-09 00:47:40.25	191.96	45.17	-35.8	-36.9	22.7	0.00e+00	122	35	0	1001390080	44	6135
2026-01-09 00:47:41.26	192.23	45.44	-35.8	-36.8	22.6	0.00e+00	122	35	0	1004535808	44	6108
2026-01-09 00:47:42.27	192.50	45.71	-35.9	-36.9	22.5	0.00e+00	123	35	0	1007681536	44	6190
2026-01-09 00:47:43.28	192.78	45.98	-36.1	-37.2	22.3	0.00e+00	120	35	0	1010827264	44	6396
2026-01-09 00:47:44.29	193.06	46.25	-36.2	-37.3	22.3	0.00e+00	123	35	0	1013972992	44	6450
2026-01-09 00:47:45.30	193.34	46.52	-35.9	-37.0	22.5	0.00e+00	122	35	0	1017118720	44	6211
2026-01-09 00:47:46.31	193.64	46.79	-35.7	-36.7	22.7	0.00e+00	122	35	0	1020264448	44	6040
2026-01-09 00:47:47.32	193.93	47.07	-35.2	-36.2	23.0	0.00e+00	120	35	0	1023410176	44	5709
2026-01-09 00:47:48.33	194.23	47.34	-34.7	-35.7	23.4	0.00e+00	123	35	0	1026555904	42	6007
2026-01-09 00:47:49.34	194.54	47.62	-34.7	-35.7	23.5	0.00e+00	122	35	0	1029701632	42	5998
2026-01-09 00:47:50.35	194.85	47.90	-34.5	-35.4	23.7	0.00e+00	123	35	0	1032847360	42	5855
2026-01-09 00:47:51.36	195.17	48.17	-34.4	-35.4	23.8	0.00e+00	123	35	0	1035993088	42	5793
2026-01-09 00:47:52.37	195.49	48.45	-34.6	-35.5	23.8	0.00e+00	123	35	0	1039138816	42	5878
2026-01-09 00:47:53.38	195.82	48.73	-34.4	-35.4	23.7	0.00e+00	122	35	0	1042284544	42	5795
2026-01-09 00:47:54.39	196.15	49.01	-34.1	-35.0	24.0	0.00e+00	123	35	0	1045430272	42	5547
2026-01-09 00:47:55.39	196.49	49.29	-34.2	-35.1	23.9	0.00e+00	122	35	0	1048576000	42	5613
2026-01-09 00:47:56.41	196.84	49.58	-34.5	-35.4	23.7	0.00e+00	122	35	0	1051721728	42	5824
2026-01-09 00:47:57.41	197.19	49.86	-34.6	-35.6	23.8	0.00e+00	122	35	0	1054867456	42	5937
2026-01-09 00:47:58.42	197.55	50.14	-34.9	-35.8	23.6	0.00e+00	123	35	0	1058013184	42	6102
2026-01-09 00:47:59.43	197.91	50.42	-35.0	-35.9	23.5	0.00e+00	122	35	0	1061158912	42	6153
2026-01-09 00:48:00.44	198.29	50.71	-34.5	-35.4	23.8	0.00e+00	123	35	0	1064304640	42	5802
2026-01-09 00:48:01.45	198.67	50.99	-34.5	-35.4	23.8	0.00e+00	122	35	0	1067450368	42	5796
2026-01-09 00:48:02.46	199.05	51.28	-34.6	-35.6	23.7	0.00e+00	123	35	0	1070596096	42	5929
2026-01-09 00:48:03.47	199.45	51.56	-34.8	-35.7	23.6	0.00e+00	123	35	0	1073741824	42	6049
2026-01-09 00:48:04.48	199.85	51.85	-34.6	-35.5	23.8	0.00e+00	122	35	0	1076887552	42	5899
2026-01-09 00:48:05.49	200.26	52.14	-34.2	-35.1	24.0	0.00e+00	123	35	0	1080033280	42	5614
2026-01-09 00:48:06.50	200.68	52.42	-34.1	-35.0	24.1	0.00e+00	123	35	0	1083179008	42	5555
2026-01-09 00:48:07.51	201.10	52.71	-33.8	-34.7	24.4	0.00e+00	123	35	0	1086324736	42	5354
2026-01-09 00:48:08.52	201.54	52.99	-33.6	-34.5	24.5	0.00e+00	123	35	0	1089470464	40	5859
2026-01-09 00:48:09.53	201.98	53.28	-33.4	-34.3	24.7	0.00e+00	123	35	0	1092616192	40	5735
2026-01-09 00:48:10.54	202.43	53.57	-33.4	-34.3	24.6	0.00e+00	123	35	0	1095761920	40	5733
2026-01-09 00:48:11.55	202.89	53.85	-33.5	-34.3	24.4	0.00e+00	122	35	0	1098907648	40	5788
2026-01-09 00:48:12.55	203.36	54.14	-33.4	-34.3	24.5	0.00e+00	120	35	0	1102053376	40	5755
2026-01-09 00:48:13.57	203.84	54.42	-33.4	-34.3	24.6	0.00e+00	123	35	0	1105199104	40	5768
2026-01-09 00:48:14.58	204.33	54.71	-33.4	-34.3	24.7	0.00e+00	120	35	0	1108344832	40	5738
2026-01-09 00:48:15.59	204.83	54.99	-33.3	-34.1	24.7	0.00e+00	123	35	0	1112539136	40	5654
2026-01-09 00:48:16.59	205.33	55.27	-33.2	-34.1	24.6	0.00e+00	122	35	0	1115684864	40	5642
2026-01-09 00:48:17.60	205.85	55.56	-33.4	-34.3	24.6	0.00e+00	122	35	0	1117782016	40	5743
2026-01-09 00:48:18.61	206.38	55.84	-33.2	-34.1	24.7	0.00e+00	120	35	0	1120927744	40	5656
2026-01-09 00:48:19.62	206.91	56.12	-33.0	-33.9	24.8	0.00e+00	122	35	0	1124073472	40	5485
2026-01-09 00:48:20.63	207.46	56.40	-32.9	-33.8	24.8	0.00e+00	122	35	0	1128267776	40	5446
2026-01-09 00:48:21.64	208.02	56.68	-33.1	-34.0	24.5	0.00e+00	122	35	0	1131413504	40	5550
2026-01-09 00:48:22.65	208.60	56.96	-33.0	-33.9	24.7	0.00e+00	122	35	0	1134559232	40	5492
2026-01-09 00:48:23.66	209.18	57.23	-33.2	-34.1	24.7	0.00e+00	122	35	0	1137704960	40	5632
2026-01-09 00:48:24.66	209.77	57.51	-32.8	-33.6	25.0	0.00e+00	123	35	0	1139802112	40	5324
2026-01-09 00:48:25.67	210.38	57.78	-32.8	-33.6	24.9	0.00e+00	122	35	0	1142947840	40	5335
2026-01-09 00:48:26.68	211.00	58.05	-32.8	-33.7	24.7	0.00e+00	123	35	0	1147142144	38	6024
2026-01-09 00:48:27.69	211.63	58.32	-32.7	-33.6	24.8	0.00e+00	123	35	0	1150287872	38	5961
2026-01-09 00:48:28.70	212.28	58.59	-32.4	-33.3	25.3	0.00e+00	123	35	0	1153433600	38	5728
2026-01-09 00:48:29.71	212.93	58.85	-32.1	-32.9	25.5	0.00e+00	121	35	0	1156579328	38	5497
2026-01-09 00:48:30.72	213.61	59.12	-31.9	-32.7	25.7	0.00e+00	122	35	0	1159725056	38	5364
2026-01-09 00:48:31.74	214.30	59.38	-31.5	-32.3	25.8	0.00e+00	120	35	0	1162870784	36	5787
2026-01-09 00:48:32.75	215.00	59.64	-31.5	-32.3	25.8	0.00e+00	122	35	0	1166016512	36	5747
2026-01-09 00:48:33.76	215.71	59.89	-31.5	-32.4	25.8	0.00e+00	123	35	0	1169162240	36	5817
2026-01-09 00:48:34.76	216.43	60.14	-31.6	-32.4	25.9	0.00e+00	123	35	0	1172307968	36	5814
2026-01-09 00:48:35.77	217.17	60.39	-31.6	-32.5	25.9	0.00e+00	123	35	0	1175453696	36	5888
2026-01-09 00:48:36.78	217.92	60.64	-31.4	-32.2	26.0	0.00e+00	123	35	0	1178599424	36	5697
2026-01-09 00:48:37.79	218.69	60.88	-31.5	-32.3	25.8	0.00e+00	120	35	0	1181745152	36	5777
2026-01-09 00:48:38.80	219.48	61.12	-31.4	-32.2	26.1	0.00e+00	123	35	0	1184890880	36	5680
2026-01-09 00:48:39.81	220.28	61.35	-31.6	-32.4	25.9	0.00e+00	122	35	0	1188036608	36	5853
2026-01-09 00:48:40.82	221.09	61.58	-31.5	-32.4	26.0	0.00e+00	122	35	0	1191182336	36	5804
2026-01-09 00:48:41.83	221.92	61.81	-31.5	-32.3	26.0	0.00e+00	123	35	0	1194328064	36	5782
2026-01-09 00:48:42.84	222.76	62.03	-31.4	-32.3	25.9	0.00e+00	123	35	0	1197473792	36	5754
2026-01-09 00:48:43.85	223.62	62.25	-31.2	-32.0	26.2	0.00e+00	123	35	0	1200619520	36	5593
2026-01-09 00:48:44.86	224.50	62.46	-31.1	-31.9	26.2	0.00e+00	122	35	0	1203765248	36	5494
2026-01-09 00:48:45.87	225.39	62.67	-31.4	-32.2	26.0	0.00e+00	122	35	0	1206910976	36	5678
2026-01-09 00:48:46.87	226.28	62.87	-32.0	-32.8	25.7	0.00e+00	123	35	0	1210056704	36	6107
2026-01-09 00:48:47.88	227.20	63.06	-32.5	-33.4	25.3	0.00e+00	123	35	0	1213202432	36	6524
2026-01-09 00:48:48.89	228.14	63.26	-32.1	-33.0	25.4	0.00e+00	123	35	0	1216348160	36	6214
2026-01-09 00:48:49.90	229.09	63.44	-31.8	-32.7	25.6	0.00e+00	120	35	0	1219493888	36	6023
2026-01-09 00:48:50.91	230.05	63.62	-31.7	-32.5	25.7	0.00e+00	122	35	0	1222639616	36	5899
2026-01-09 00:48:51.92	231.03	63.79	-31.6	-32.5	25.9	0.00e+00	123	35	0	1225785344	36	5877
2026-01-09 00:48:52.93	232.02	63.96	-31.9	-32.8	25.6	0.00e+00	122	35	0	1228931072	36	6091
2026-01-09 00:48:53.93	233.02	64.12	-32.3	-33.2	25.2	0.00e+00	123	35	0	1232076800	36	6410
2026-01-09 00:48:54.94	234.04	64.27	-32.0	-32.8	25.7	0.00e+00	122	35	0	1235222528	36	6111
2026-01-09 00:48:55.95	235.08	64.42	-31.8	-32.7	25.7	0.00e+00	123	35	0	1238368256	36	6005
2026-01-09 00:48:56.96	236.12	64.55	-31.3	-32.1	25.9	0.00e+00	120	35	0	1241513984	36	5636
2026-01-09 00:48:57.97	237.18	64.69	-31.3	-32.2	25.8	0.00e+00	123	35	0	1244659712	36	5697
2026-01-09 00:48:58.97	238.24	64.81	-31.7	-32.5	25.9	0.00e+00	122	35	0	1247805440	36	5913
2026-01-09 00:48:59.98	239.32	64.92	-31.8	-32.6	25.8	0.00e+00	122	35	0	1250951168	36	5990
2026-01-09 00:49:00.99	240.42	65.03	-31.5	-32.4	26.0	0.00e+00	123	35	0	1254096896	36	5792
2026-01-09 00:49:02.00	241.52	65.13	-31.2	-32.0	26.0	0.00e+00	122	35	0	1257242624	36	5577
2026-01-09 00:49:03.01	242.63	65.22	-31.3	-32.1	25.9	0.00e+00	123	35	0	1260388352	36	5618
2026-01-09 00:49:04.02	243.75	65.31	-31.3	-32.1	25.9	0.00e+00	122	35	0	1263534080	36	5617
2026-01-09 00:49:05.03	244.88	65.38	-31.1	-32.0	26.1	0.00e+00	122	35	0	1266679808	36	5536
2026-01-09 00:49:06.04	246.02	65.45	-31.7	-32.6	25.7	0.00e+00	123	35	0	1269825536	36	5950
2026-01-09 00:49:07.05	247.16	65.51	-31.9	-32.8	25.6	0.00e+00	120	35	0	1272971264	36	6092
2026-01-09 00:49:08.06	248.31	65.56	-31.9	-32.8	25.4	0.00e+00	123	35	0	1276116992	36	6101
2026-01-09 00:49:09.07	249.46	65.60	-32.0	-32.8	25.5	0.00e+00	123	35	0	1279262720	36	6106
2026-01-09 00:49:10.08	250.62	65.63	-31.4	-32.3	26.0	0.00e+00	123	35	0	1282408448	36	5731
2026-01-09 00:49:11.09	251.78	65.65	-31.5	-32.3	26.0	0.00e+00	122	35	0	1285554176	36	5753
2026-01-09 00:49:12.10	252.94	65.67	-31.5	-32.4	26.0	0.00e+00	123	35	0	1288699904	36	5800
2026-01-09 00:49:13.11	254.10	65.67	-31.6	-32.4	25.9	0.00e+00	122	35	0	1291845632	36	5853
2026-01-09 00:49:14.12	255.27	65.67	-31.7	-32.6	25.9	0.00e+00	123	35	0	1294991360	36	5947
2026-01-09 00:49:15.12	256.42	65.66	-31.5	-32.4	25.4	0.00e+00	122	35	0	1298137088	36	5800
2026-01-09 00:49:16.13	257.58	65.63	-31.5	-32.4	25.4	0.00e+00	123	35	0	1301282816	36	5800
2026-01-09 00:49:17.14	258.73	65.60	-31.9	-32.8	25.5	0.00e+00	123	35	0	1304428544	36	6112
2026-01-09 00:49:18.15	259.89	65.56	-32.4	-33.3	25.3	0.00e+00	120	35	0	1307574272	36	6440
2026-01-09 00:49:19.15	261.02	65.51	-32.9	-33.8	25.0	0.00e+00	123	35	0	1310720000	38	6079
2026-01-09 00:49:20.17	262.18	65.46	-32.7	-33.6	25.1	0.00e+00	123	35	0	1313865728	38	5969
2026-01-09 00:49:21.18	263.31	65.39	-32.5	-33.3	25.3	0.00e+00	123	35	0	1317011456	38	5771
2026-01-09 00:49:22.19	264.44	65.32	-32.0	-32.9	25.6	0.00e+00	120	35	0	1320157184	38	5490
2026-01-09 00:49:23.20	265.57	65.23	-31.5	-32.3	25.9	0.00e+00	120	35	0	1323302912	36	5777
2026-01-09 00:49:24.21	266.68	65.14	-31.6	-32.4	25.9	0.00e+00	122	35	0	1326448640	36	5825
2026-01-09 00:49:25.22	267.78	65.04	-32.1	-32.9	25.4	0.00e+00	123	35	0	1329594368	36	6205
2026-01-09 00:49:26.23	268.88	64.94	-32.5	-33.4	25.0	0.00e+00	122	35	0	1332740096	36	6569
2026-01-09 00:49:27.23	269.95	64.82	-31.9	-32.8	25.4	0.00e+00	120	35	0	1335885824	36	6093
2026-01-09 00:49:28.24	271.02	64.70	-31.8	-32.6	25.7	0.00e+00	123	35	0	1339031552	36	5983
2026-01-09 00:49:29.25	272.08	64.57	-31.6	-32.4	25.9	0.00e+00	122	35	0	1342177280	36	5826
2026-01-09 00:49:30.26	273.13	64.43	-32.1	-32.9	25.5	0.00e+00	122	35	0	1345323008	36	6165
2026-01-09 00:49:31.27	274.16	64.29	-32.6	-33.5	25.1	0.00e+00	120	35	0	1348468736	36	6583
2026-01-09 00:49:32.28	275.18	64.13	-32.7	-33.5	25.1	0.00e+00	122	35	0	1351614464	36	6633
2026-01-09 00:49:33.29	276.19	63.97	-32.2	-33.0	25.2	0.00e+00	122	35	0	1354760192	36	6256
2026-01-09 00:49:34.30	277.18	63.81	-31.9	-32.8	25.2	0.00e+00	120	35	0	1357905920	36	6102
2026-01-09 00:49:35.31	278.16	63.64	-32.1	-32.9	25.4	0.00e+00	123	35	0	1361051648	36	6204
2026-01-09 00:49:36.32	279.12	63.46	-31.8	-32.6	25.6	0.00e+00	120	35	0	1364197376	36	5963
2026-01-09 00:49:37.33	280.07	63.27	-31.8	-32.7	25.5	0.00e+00	123	35	0	1367343104	36	6010
2026-01-09 00:49:38.34	281.01	63.08	-32.4	-33.2	25.3	0.00e+00	120	35	0	1370488832	36	6416
2026-01-09 00:49:39.35	281.93	62.89	-32.3	-33.2	25.4	0.00e+00	122	35	0	1373634560	36	6359
2026-01-09 00:49:40.36	282.83	62.69	-31.9	-32.7	25.7	0.00e+00	123	35	0	1376780288	36	6035
2026-01-09 00:49:41.36	283.72	62.48	-31.6	-32.4	25.7	0.00e+00	122	35	0	1379926016	36	5851
2026-01-09 00:49:42.37	284.59	62.27	-31.9	-32.7	25.6	0.00e+00	122	35	0	1383071744	36	6036
2026-01-09 00:49:43.38	285.45	62.06	-32.5	-33.3	25.2	0.00e+00	122	35	0	1386217472	36	6485
2026-01-09 00:49:44.39	286.29	61.83	-32.9	-33.8	24.9	0.00e+00	123	35	0	1389363200	38	6088
2026-01-09 00:49:45.40	287.12	61.61	-33.5	-34.4	24.6	0.00e+00	123	35	0	1392508928	38	6514
2026-01-09 00:49:46.41	287.94	61.38	-33.1	-34.0	24.9	0.00e+00	122	35	0	1395654656	38	6212
2026-01-09 00:49:47.42	288.74	61.15	-32.0	-32.8	25.7	0.00e+00	123	35	0	1398800384	38	5435
2026-01-09 00:49:48.43	289.52	60.91	-31.5	-32.3	26.0	0.00e+00	122	35	0	1401946112	36	5741
2026-01-09 00:49:49.44	290.29	60.67	-31.0	-31.8	26.2	0.00e+00	120	35	0	1405091840	36	5462
2026-01-09 00:49:50.45	291.05	60.42	-32.2	-33.0	25.5	0.00e+00	123	35	0	1408237568	36	6273
2026-01-09 00:49:51.46	291.79	60.17	-33.1	-34.0	24.7	0.00e+00	121	35	0	1411383296	38	6259
2026-01-09 00:49:52.47	292.51	59.92	-33.3	-34.2	24.6	0.00e+00	123	35	0	1414529024	38	6374
2026-01-09 00:49:53.48	293.23	59.67	-32.9	-33.8	24.6	0.00e+00	122	35	0	1417674752	38	6101
2026-01-09 00:49:54.48	293.92	59.42	-32.4	-33.3	24.8	0.00e+00	123	35	0	1420820480	38	5760
2026-01-09 00:49:55.50	294.61	59.15	-31.7	-32.5	25.4	0.00e+00	120	35	0	1423966208	36	5890
2026-01-09 00:49:56.51	295.28	58.89	-31.6	-32.4	25.7	0.00e+00	122	35	0	1427111936	36	5811
2026-01-09 00:49:57.52	295.94	58.63	-32.4	-33.2	25.4	0.00e+00	122	35	0	1430257664	36	6393
2026-01-09 00:49:58.53	296.59	58.36	-33.4	-34.3	24.5	0.00e+00	122	35	0	1433403392	38	6481
2026-01-09 00:49:59.53	297.21	58.09	-34.4	-35.3	23.9	0.00e+00	122	35	0	1436549120	40	6492
2026-01-09 00:50:00.54	297.83	57.82	-33.7	-34.7	23.6	0.00e+00	122	35	0	1439694848	40	6018
2026-01-09 00:50:01.55	298.44	57.55	-33.0	-33.9	23.7	0.00e+00	122	35	0	1442840576	40	5518
2026-01-09 00:50:02.56	299.04	57.28	-32.0	-32.9	24.7	0.00e+00	123	35	0	1445986304	38	5491
2026-01-09 00:50:03.57	299.62	57.00	-31.5	-32.3	25.6	0.00e+00	120	35	0	1449132032	36	5762
2026-01-09 00:50:04.58	300.19	56.72	-32.0	-32.8	25.5	0.00e+00	123	35	0	1452277760	36	6127
2026-01-09 00:50:05.59	300.76	56.45	-33.0	-33.9	24.9	0.00e+00	123	35	0	1455423488	38	6194
2026-01-09 00:50:06.60	301.31	56.17	-33.9	-34.9	24.2	0.00e+00	122	35	0	1458569216	40	6156
2026-01-09 00:50:07.61	301.85	55.89	-34.2	-35.2	24.0	0.00e+00	123	35	0	1461714944	40	6378
2026-01-09 00:50:08.61	302.37	55.61	-34.2	-35.2	23.9	0.00e+00	124	35	0	1464860672	40	6374
2026-01-09 00:50:09.62	302.89	55.33	-33.4	-34.3	24.5	0.00e+00	123	35	0	1468006400	40	5776
2026-01-09 00:50:10.64	303.40	55.04	-32.9	-33.7	25.0	0.00e+00	123	35	0	1471152128	40	5400
2026-01-09 00:50:11.65	303.90	54.76	-32.8	-33.6	25.0	0.00e+00	122	35	0	1474297856	38	5977
2026-01-09 00:50:12.65	304.38	54.48	-33.7	-34.6	24.4	0.00e+00	122	35	0	1477443584	38	6660
2026-01-09 00:50:13.66	304.86	54.19	-34.1	-35.0	23.5	0.00e+00	122	35	0	1480589312	40	6250
2026-01-09 00:50:14.67	305.33	53.91	-34.5	-35.5	23.2	0.00e+00	123	35	0	1483735040	40	6592
2026-01-09 00:50:15.68	305.79	53.62	-34.9	-35.9	23.2	0.00e+00	123	35	0	1486880768	42	6151
2026-01-09 00:50:16.69	306.24	53.34	-34.9	-35.8	23.4	0.00e+00	120	35	0	1490026496	42	6128
2026-01-09 00:50:17.70	306.68	53.05	-34.5	-35.5	23.5	0.00e+00	122	35	0	1493172224	42	5863
2026-01-09 00:50:18.71	307.12	52.77	-33.6	-34.5	23.8	0.00e+00	122	35	0	1496317952	40	5881
2026-01-09 00:50:19.72	307.55	52.48	-32.9	-33.7	23.9	0.00e+00	123	35	0	1499463680	40	5398
2026-01-09 00:50:20.73	307.96	52.20	-33.0	-33.9	24.3	0.00e+00	122	35	0	1502609408	40	5512
2026-01-09 00:50:21.74	308.37	51.91	-33.6	-34.5	24.4	0.00e+00	123	35	0	1505755136	40	5864
2026-01-09 00:50:22.75	308.78	51.63	-34.4	-35.4	23.6	0.00e+00	122	35	0	1508900864	40	6510
2026-01-09 00:50:23.76	309.17	51.34	-35.1	-36.1	23.0	0.00e+00	122	35	0	1512046592	42	6303
2026-01-09 00:50:24.77	309.56	51.06	-35.8	-36.8	22.6	0.00e+00	122	35	0	1515192320	42	6827
2026-01-09 00:50:25.78	309.94	50.77	-36.3	-37.5	21.8	0.00e+00	123	35	0	1518338048	44	6603
2026-01-09 00:50:26.79	310.31	50.49	-36.3	-37.4	22.1	0.00e+00	123	35	0	1522532352	44	6531
2026-01-09 00:50:27.80	310.68	50.21	-35.7	-36.7	22.8	0.00e+00	122	35	0	1525678080	44	6029
2026-01-09 00:50:28.81	311.04	49.93	-35.3	-36.2	23.1	0.00e+00	122	35	0	1527775232	44	5711
2026-01-09 00:50:29.81	311.39	49.65	-34.9	-35.8	23.5	0.00e+00	123	35	0	1530920960	44	5436
2026-01-09 00:50:30.82	311.73	49.37	-34.8	-35.7	23.6	0.00e+00	123	35	0	1534066688	42	6013
2026-01-09 00:50:31.83	312.08	49.09	-34.9	-35.8	23.4	0.00e+00	123	35	0	1538260992	42	6115
2026-01-09 00:50:32.84	312.41	48.81	-34.9	-35.8	23.3	0.00e+00	123	35	0	1541406720	42	6129
2026-01-09 00:50:33.85	312.74	48.53	-35.3	-36.3	23.1	0.00e+00	122	35	0	1544552448	42	6445
2026-01-09 00:50:34.86	313.06	48.25	-35.9	-36.9	22.6	0.00e+00	123	35	0	1547698176	44	6152
2026-01-09 00:50:35.87	313.38	47.97	-36.3	-37.4	22.3	0.00e+00	120	35	0	1549795328	44	6504
2026-01-09 00:50:36.88	313.69	47.70	-36.2	-37.2	22.3	0.00e+00	123	35	0	1552941056	44	6398
2026-01-09 00:50:37.89	314.00	47.42	-35.4	-36.4	23.1	0.00e+00	123	35	0	1557135360	44	5830
2026-01-09 00:50:38.90	314.30	47.15	-34.8	-35.7	23.5	0.00e+00	122	35	0	1560281088	44	5395
2026-01-09 00:50:39.91	314.59	46.87	-34.7	-35.6	23.6	0.00e+00	122	35	0	1563426816	42	5947
2026-01-09 00:50:40.92	314.88	46.60	-35.1	-36.1	23.1	0.00e+00	123	35	0	1566572544	42	6309
2026-01-09 00:50:41.93	315.17	46.33	-35.7	-36.7	22.9	0.00e+00	120	35	0	1569718272	42	6749
2026-01-09 00:50:42.94	315.45	46.06	-36.0	-37.1	22.4	0.00e+00	122	35	0	1572864000	44	6297
2026-01-09 00:50:43.95	315.73	45.79	-36.4	-37.4	22.1	0.00e+00	123	35	0	1576009728	44	6519
2026-01-09 00:50:44.96	316.00	45.52	-36.5	-37.6	22.0	0.00e+00	122	35	0	1579155456	44	6670
2026-01-09 00:50:45.97	316.27	45.26	-36.6	-37.7	21.9	0.00e+00	122	35	0	1582301184	44	6759
2026-01-09 00:50:46.98	316.53	44.99	-36.5	-37.5	21.9	0.00e+00	122	35	0	1585446912	44	6612
2026-01-09 00:50:47.99	316.79	44.73	-36.5	-37.6	22.0	0.00e+00	120	35	0	1588592640	44	6697
2026-01-09 00:50:48.99	317.04	44.46	-36.6	-37.7	21.8	0.00e+00	123	35	0	1591738368	44	6765
2026-01-09 00:50:50.00	317.29	44.20	-36.4	-37.5	21.7	0.00e+00	123	35	0	1594884096	44	6621
2026-01-09 00:50:51.01	317.54	43.94	-36.3	-37.3	22.1	0.00e+00	120	35	0	1598029824	44	6494
2026-01-09 00:50:52.02	317.78	43.68	-36.1	-37.1	22.5	0.00e+00	122	35	0	1601175552	44	6320
2026-01-09 00:50:53.03	318.02	43.42	-35.5	-36.5	22.9	0.00e+00	120	35	0	1604321280	44	5871
2026-01-09 00:50:54.04	318.25	43.17	-35.4	-36.4	23.1	0.00e+00	123	35	0	1607467008	44	5809
2026-01-09 00:50:55.05	318.48	42.91	-35.7	-36.7	22.8	0.00e+00	122	35	0	1610612736	44	6022
2026-01-09 00:50:56.06	318.71	42.65	-36.0	-37.1	22.5	0.00e+00	123	35	0	1613758464	44	6285
2026-01-09 00:50:57.07	318.94	42.40	-36.0	-37.0	22.2	0.00e+00	121	35	0	1616904192	44	6277
2026-01-09 00:50:58.08	319.16	42.15	-35.7	-36.7	22.5	0.00e+00	122	35	0	1620049920	44	6012
2026-01-09 00:50:59.08	319.37	41.90	-35.5	-36.5	22.6	0.00e+00	120	35	0	1623195648	44	5915
2026-01-09 00:51:00.10	319.59	41.65	-35.5	-36.5	22.9	0.00e+00	122	35	0	1626341376	44	5890
2026-01-09 00:51:01.10	319.80	41.40	-35.1	-36.0	23.3	0.00e+00	123	35	0	1629487104	44	5567
2026-01-09 00:51:02.11	320.00	41.15	-35.1	-36.0	23.4	0.00e+00	120	35	0	1632632832	44	5586
2026-01-09 00:51:03.12	320.21	40.91	-35.2	-36.2	23.1	0.00e+00	123	35	0	1635778560	44	5687
2026-01-09 00:51:04.13	320.41	40.66	-35.6	-36.5	22.9	0.00e+00	122	35	0	1638924288	44	5917
2026-01-09 00:51:05.14	320.61	40.42	-35.7	-36.6	22.9	0.00e+00	123	35	0	1642070016	44	5984
2026-01-09 00:51:06.15	320.80	40.18	-35.9	-36.9	22.4	0.00e+00	123	35	0	1645215744	44	6184
2026-01-09 00:51:07.16	321.00	39.93	-36.2	-37.3	21.7	0.00e+00	122	35	0	1648361472	44	6453
2026-01-09 00:51:08.17	321.19	39.70	-36.6	-37.7	21.4	0.00e+00	122	35	0	1651507200	44	6769
2026-01-09 00:51:09.18	321.37	39.46	-36.9	-38.1	21.4	0.00e+00	123	35	0	1654652928	46	6293
2026-01-09 00:51:10.19	321.56	39.22	-36.9	-38.0	21.7	0.00e+00	120	35	0	1657798656	46	6243
2026-01-09 00:51:11.19	321.74	38.99	-36.8	-37.9	21.9	0.00e+00	121	35	0	1660944384	46	6148
2026-01-09 00:51:12.21	321.92	38.75	-36.5	-37.6	22.0	0.00e+00	123	35	0	1664090112	46	5950
2026-01-09 00:51:13.21	322.10	38.52	-36.1	-37.2	22.5	0.00e+00	123	35	0	1667235840	46	5668
2026-01-09 00:51:14.23	322.27	38.28	-35.5	-36.4	23.0	0.00e+00	123	35	0	1670381568	44	5854
2026-01-09 00:51:15.23	322.44	38.06	-35.3	-36.3	23.1	0.00e+00	123	35	0	1673527296	44	5734
2026-01-09 00:51:16.25	322.62	37.83	-35.0	-35.9	23.3	0.00e+00	123	35	0	1676673024	44	5506
2026-01-09 00:51:17.26	322.78	37.60	-34.6	-35.5	23.7	0.00e+00	123	35	0	1679818752	42	5913
2026-01-09 00:51:18.26	322.95	37.37	-34.5	-35.4	23.8	0.00e+00	123	35	0	1682964480	42	5856
2026-01-09 00:51:19.27	323.11	37.15	-34.5	-35.4	23.9	0.00e+00	123	35	0	1686110208	42	5842
2026-01-09 00:51:20.28	323.27	36.92	-34.4	-35.3	23.8	0.00e+00	123	35	0	1689255936	42	5788
2026-01-09 00:51:21.29	323.43	36.70	-34.6	-35.5	23.7	0.00e+00	123	35	0	1692401664	42	5874
2026-01-09 00:51:22.30	323.59	36.48	-34.6	-35.5	23.8	0.00e+00	122	35	0	1695547392	42	5878
2026-01-09 00:51:23.31	323.74	36.26	-34.7	-35.6	23.7	0.00e+00	123	35	0	1698693120	42	5974
2026-01-09 00:51:24.31	323.89	36.04	-34.8	-35.8	23.5	0.00e+00	123	35	0	1701838848	42	6080
2026-01-09 00:51:25.32	324.04	35.83	-34.9	-35.9	23.4	0.00e+00	123	35	0	1704984576	42	6168
2026-01-09 00:51:26.33	324.19	35.61	-35.1	-36.1	23.2	0.00e+00	122	35	0	1708130304	42	6282
2026-01-09 00:51:27.34	324.34	35.39	-35.1	-36.1	23.1	0.00e+00	123	35	0	1711276032	42	6289
2026-01-09 00:51:28.35	324.48	35.18	-35.2	-36.2	23.1	0.00e+00	121	35	0	1714421760	42	6374
2026-01-09 00:51:29.36	324.63	34.97	-35.2	-36.2	23.1	0.00e+00	122	35	0	1717567488	42	6392
2026-01-09 00:51:30.37	324.77	34.76	-35.0	-36.0	23.4	0.00e+00	120	35	0	1720713216	42	6232
2026-01-09 00:51:31.38	324.91	34.55	-35.1	-36.1	23.3	0.00e+00	122	35	0	1723858944	42	6318
2026-01-09 00:51:32.39	325.05	34.34	-35.0	-36.0	23.4	0.00e+00	120	35	0	1727004672	42	6208
2026-01-09 00:51:33.39	325.18	34.13	-34.5	-35.5	23.8	0.00e+00	123	35	0	1730150400	42	5863
2026-01-09 00:51:34.40	325.32	33.93	-34.3	-35.2	24.0	0.00e+00	122	35	0	1733296128	42	5696
2026-01-09 00:51:35.42	325.45	33.72	-34.2	-35.1	24.1	0.00e+00	120	35	0	1736441856	42	5635
2026-01-09 00:51:36.43	325.58	33.51	-34.2	-35.1	24.1	0.00e+00	122	35	0	1739587584	42	5636
2026-01-09 00:51:37.44	325.71	33.31	-34.0	-34.8	24.2	0.00e+00	122	35	0	1742733312	42	5465
2026-01-09 00:51:38.45	325.84	33.11	-33.7	-34.6	24.3	0.00e+00	122	35	0	1745879040	40	5977
2026-01-09 00:51:39.46	325.97	32.91	-33.6	-34.4	24.5	0.00e+00	123	35	0	1749024768	40	5856
2026-01-09 00:51:40.47	326.09	32.71	-33.3	-34.2	24.6	0.00e+00	122	35	0	1752170496	40	5696
2026-01-09 00:51:41.48	326.21	32.51	-33.4	-34.3	24.5	0.00e+00	123	35	0	1755316224	40	5758
2026-01-09 00:51:42.48	326.34	32.32	-33.2	-34.1	24.6	0.00e+00	123	35	0	1758461952	40	5596
2026-01-09 00:51:43.50	326.46	32.12	-32.9	-33.8	24.8	0.00e+00	122	35	0	1761607680	40	5434
2026-01-09 00:51:44.51	326.58	31.92	-33.0	-33.9	24.8	0.00e+00	123	35	0	1764753408	40	5483
2026-01-09 00:51:45.52	326.70	31.73	-33.0	-33.9	24.8	0.00e+00	122	35	0	1767899136	40	5486
2026-01-09 00:51:46.53	326.81	31.54	-33.2	-34.0	24.8	0.00e+00	122	35	0	1771044864	40	5594
2026-01-09 00:51:47.54	326.93	31.35	-33.3	-34.2	24.7	0.00e+00	123	35	0	1774190592	40	5683
2026-01-09 00:51:48.55	327.04	31.16	-33.4	-34.3	24.6	0.00e+00	123	35	0	1777336320	40	5788
2026-01-09 00:51:49.56	327.16	30.97	-33.5	-34.3	24.5	0.00e+00	123	35	0	1780482048	40	5788
2026-01-09 00:51:50.57	327.27	30.78	-33.4	-34.3	24.5	0.00e+00	120	35	0	1783627776	40	5751
2026-01-09 00:51:51.58	327.38	30.59	-33.4	-34.3	24.6	0.00e+00	123	35	0	1786773504	40	5750
2026-01-09 00:51:52.59	327.49	30.41	-33.4	-34.2	24.5	0.00e+00	120	35	0	1789919232	40	5721
2026-01-09 00:51:53.59	327.59	30.23	-33.0	-33.9	24.7	0.00e+00	122	35	0	1793064960	40	5493
2026-01-09 00:51:54.61	327.70	30.04	-33.1	-34.0	24.7	0.00e+00	123	35	0	1796210688	40	5531
2026-01-09 00:51:55.62	327.81	29.86	-32.8	-33.7	24.8	0.00e+00	122	35	0	1799356416	40	5373
2026-01-09 00:51:56.63	327.91	29.68	-32.7	-33.6	24.8	0.00e+00	122	35	0	1802502144	40	5317
2026-01-09 00:51:57.64	328.01	29.50	-32.8	-33.7	24.7	0.00e+00	123	35	0	1805647872	38	6004
2026-01-09 00:51:58.65	328.12	29.32	-32.8	-33.7	24.8	0.00e+00	123	35	0	1808793600	38	6005
2026-01-09 00:51:59.66	328.22	29.14	-32.8	-33.7	24.8	0.00e+00	123	35	0	1811939328	38	5998
2026-01-09 00:52:00.67	328.32	28.96	-32.9	-33.8	24.7	0.00e+00	122	35	0	1815085056	38	6075
2026-01-09 00:52:01.68	328.42	28.79	-33.1	-33.9	24.8	0.00e+00	120	35	0	1818230784	38	6200
2026-01-09 00:52:02.69	328.52	28.61	-33.1	-34.0	24.7	0.00e+00	122	35	0	1821376512	38	6218
2026-01-09 00:52:03.70	328.61	28.44	-33.1	-34.0	24.8	0.00e+00	123	35	0	1824522240	38	6218
2026-01-09 00:52:04.71	328.71	28.26	-33.1	-34.0	24.8	0.00e+00	120	35	0	1827667968	38	6224
2026-01-09 00:52:05.72	328.80	28.09	-33.2	-34.0	24.8	0.00e+00	122	35	0	1830813696	38	6250
2026-01-09 00:52:06.73	328.90	27.92	-33.1	-34.0	24.8	0.00e+00	123	35	0	1833959424	38	6229
2026-01-09 00:52:07.74	328.99	27.75	-33.0	-33.9	24.9	0.00e+00	123	35	0	1837105152	38	6161
2026-01-09 00:52:08.75	329.08	27.58	-33.1	-33.9	24.9	0.00e+00	120	35	0	1840250880	38	6165
2026-01-09 00:52:09.76	329.17	27.41	-32.8	-33.6	25.1	0.00e+00	122	35	0	1843396608	38	5969
2026-01-09 00:52:10.77	329.27	27.25	-32.9	-33.8	25.1	0.00e+00	123	35	0	1846542336	38	6076
2026-01-09 00:52:11.78	329.35	27.08	-32.7	-33.6	25.2	0.00e+00	122	35	0	1849688064	38	5936
2026-01-09 00:52:12.79	329.44	26.92	-32.8	-33.7	24.9	0.00e+00	122	35	0	1852833792	38	6002
2026-01-09 00:52:13.80	329.53	26.75	-32.8	-33.7	25.0	0.00e+00	123	35	0	1855979520	38	6022
2026-01-09 00:52:14.81	329.62	26.59	-33.0	-33.8	24.8	0.00e+00	123	35	0	1859125248	38	6134
2026-01-09 00:52:15.82	329.70	26.43	-33.0	-33.9	24.9	0.00e+00	123	35	0	1862270976	38	6142
2026-01-09 00:52:16.83	329.79	26.26	-33.1	-34.0	24.7	0.00e+00	122	35	0	1865416704	38	6250
2026-01-09 00:52:17.84	329.87	26.10	-33.1	-34.0	24.7	0.00e+00	122	35	0	1868562432	38	6241
2026-01-09 00:52:18.85	329.96	25.94	-33.2	-34.1	24.6	0.00e+00	123	35	0	1871708160	38	6296
2026-01-09 00:52:19.86	330.04	25.78	-33.3	-34.2	24.6	0.00e+00	122	35	0	1874853888	38	6351
2026-01-09 00:52:20.87	330.12	25.63	-33.1	-34.0	24.7	0.00e+00	122	35	0	1877999616	38	6251
2026-01-09 00:52:21.88	330.20	25.47	-33.3	-34.2	24.5	0.00e+00	123	35	0	1881145344	38	6399
2026-01-09 00:52:22.89	330.28	25.31	-33.1	-34.0	24.6	0.00e+00	122	35	0	1885339648	38	6253
2026-01-09 00:52:23.90	330.36	25.16	-33.2	-34.1	24.5	0.00e+00	123	35	0	1888485376	38	6332
2026-01-09 00:52:24.91	330.44	25.00	-33.1	-34.0	24.5	0.00e+00	123	35	0	1890582528	38	6221
2026-01-09 00:52:25.92	330.52	24.85	-33.1	-34.0	24.5	0.00e+00	122	35	0	1893728256	38	6250
2026-01-09 00:52:26.93	330.60	24.70	-33.1	-34.0	24.4	0.00e+00	122	35	0	1896873984	38	6248
2026-01-09 00:52:27.94	330.68	24.55	-33.2	-34.1	24.4	0.00e+00	123	35	0	1901068288	38	6288
2026-01-09 00:52:28.95	330.75	24.39	-33.3	-34.2	24.3	0.00e+00	120	35	0	1904214016	38	6386
2026-01-09 00:52:29.96	330.83	24.24	-33.1	-34.0	24.4	0.00e+00	123	35	0	1907359744	38	6258
2026-01-09 00:52:30.97	330.90	24.09	-33.2	-34.0	24.4	0.00e+00	123	35	0	1910505472	38	6274
2026-01-09 00:52:31.98	330.98	23.95	-33.1	-34.0	24.4	0.00e+00	123	35	0	1912602624	38	6235
2026-01-09 00:52:32.99	331.05	23.80	-33.1	-34.0	24.4	0.00e+00	123	35	0	1916796928	38	6275
2026-01-09 00:52:33.99	331.12	23.65	-33.2	-34.1	24.5	0.00e+00	123	35	0	1919942656	38	6282
2026-01-09 00:52:35.00	331.19	23.51	-33.1	-34.0	24.5	0.00e+00	122	35	0	1923088384	38	6238
2026-01-09 00:52:36.01	331.27	23.36	-33.2	-34.1	24.4	0.00e+00	119	35	0	1926234112	38	6289
2026-01-09 00:52:37.02	331.34	23.22	-33.0	-33.9	24.6	0.00e+00	122	35	0	1929379840	38	6182
2026-01-09 00:52:38.03	331.41	23.07	-33.1	-34.0	24.6	0.00e+00	123	35	0	1932525568	38	6230
2026-01-09 00:52:39.04	331.48	22.93	-33.0	-33.8	24.8	0.00e+00	122	35	0	1935671296	38	6132
2026-01-09 00:52:40.05	331.55	22.79	-33.0	-33.8	24.8	0.00e+00	121	35	0	1938817024	38	6128
2026-01-09 00:52:41.06	331.62	22.64	-32.8	-33.7	24.9	0.00e+00	122	35	0	1941962752	38	6003
2026-01-09 00:52:42.07	331.68	22.50	-32.8	-33.7	24.9	0.00e+00	122	35	0	1945108480	38	6017
2026-01-09 00:52:43.08	331.75	22.36	-32.8	-33.7	24.9	0.00e+00	122	35	0	1948254208	38	6016
2026-01-09 00:52:44.09	331.82	22.22	-32.8	-33.7	24.8	0.00e+00	123	35	0	1951399936	38	6016
2026-01-09 00:52:45.10	331.88	22.08	-32.7	-33.6	24.9	0.00e+00	123	35	0	1954545664	38	5952
2026-01-09 00:52:46.11	331.95	21.95	-32.8	-33.7	24.8	0.00e+00	120	35	0	1957691392	38	6007
2026-01-09 00:52:47.12	332.02	21.81	-32.8	-33.7	24.7	0.00e+00	122	35	0	1960837120	38	6018
