passes_logs/2026/01/09/R4.6S_Anadyr/R4.6S_Anadyr__20260109_151743_NOAA_20_JPSS-1_rec.log

#Pass ID: 20260109_151743_NOAA 20 (JPSS-1)
#Satellite: NOAA 20 (JPSS-1)
#Configuration: NOAA 20
#almurnet v.1.7.20251203
#Start time: 2026-01-09 15:17:43

#Version: 2.2.20231116
#Station: R4.6S_Anadyr
#Location: 177.4865 lon 64.73178 lat
#TLE: 1 43013U 17073A   26008.91585656  .00000107  00000+0  71497-4 0  9999
#TLE: 2 43013  98.7631 309.9196 0001713  47.9261 312.2060 14.19534561421870

#Time	Az	El	Level	Level2	SNR	BER	BlckErr	Temp	State	Recorded	gain1	gain2
2026-01-09 15:17:43.89	21.89	0.04	-47.6	-62.5	3.5	1.51e+00	0	20	0	0	60	48438
2026-01-09 15:17:44.90	21.88	0.10	-47.6	-62.8	3.5	1.51e+00	0	21	104	0	60	49776
2026-01-09 15:17:45.91	21.87	0.16	-47.7	-62.8	3.6	1.51e+00	0	21	104	0	60	50044
2026-01-09 15:17:46.92	21.86	0.22	-47.7	-62.9	3.6	1.51e+00	0	22	104	0	60	50535
2026-01-09 15:17:47.93	21.85	0.28	-47.6	-62.8	3.6	1.51e+00	0	22	104	0	60	50066
2026-01-09 15:17:48.94	21.84	0.34	-47.7	-62.9	3.6	1.51e+00	0	22	104	0	60	50687
2026-01-09 15:17:49.95	21.82	0.40	-47.7	-62.9	3.6	1.51e+00	0	22	104	0	60	50476
2026-01-09 15:17:50.96	21.81	0.46	-47.7	-62.9	3.6	1.51e+00	0	22	104	0	60	50322
2026-01-09 15:17:51.97	21.80	0.52	-47.7	-62.9	3.6	1.51e+00	0	22	104	0	60	50607
2026-01-09 15:17:52.98	21.79	0.58	-47.7	-62.9	3.6	1.51e+00	0	22	104	0	60	50283
2026-01-09 15:17:53.99	21.78	0.65	-47.7	-62.9	3.6	1.51e+00	0	22	104	0	60	50744
2026-01-09 15:17:55.00	21.76	0.71	-47.7	-62.8	3.6	1.51e+00	0	22	104	0	60	50015
2026-01-09 15:17:56.01	21.75	0.77	-47.6	-62.8	3.6	1.51e+00	0	22	104	0	60	49801
2026-01-09 15:17:57.02	21.74	0.83	-47.5	-62.6	3.6	1.51e+00	0	22	104	0	60	48879
2026-01-09 15:17:58.03	21.73	0.89	-47.3	-62.5	3.6	1.51e+00	0	22	104	0	60	48267
2026-01-09 15:17:59.04	21.72	0.95	-47.1	-62.3	3.6	1.51e+00	0	22	104	0	60	47133
2026-01-09 15:18:00.04	21.70	1.01	-47.0	-62.2	3.6	1.51e+00	0	22	104	0	60	46811
2026-01-09 15:18:01.06	21.69	1.08	-46.8	-62.0	3.6	1.51e+00	0	22	104	0	60	45323
2026-01-09 15:18:02.07	21.68	1.14	-46.5	-61.6	3.6	1.51e+00	0	22	104	0	60	43524
2026-01-09 15:18:03.07	21.66	1.20	-46.2	-61.3	3.6	1.51e+00	0	22	104	0	60	42194
2026-01-09 15:18:04.09	21.65	1.26	-46.2	-61.3	3.6	1.51e+00	0	22	104	0	60	41840
2026-01-09 15:18:05.09	21.64	1.33	-46.2	-61.2	3.6	1.51e+00	0	22	104	0	60	41441
2026-01-09 15:18:06.10	21.63	1.39	-46.1	-61.1	3.6	1.51e+00	0	22	104	0	60	40932
2026-01-09 15:18:07.11	21.61	1.45	-46.1	-61.0	3.6	1.51e+00	0	22	104	0	60	40575
2026-01-09 15:18:08.12	21.60	1.51	-46.1	-60.8	3.6	1.51e+00	0	22	104	0	60	39820
2026-01-09 15:18:09.13	21.59	1.58	-46.1	-60.9	3.6	1.51e+00	0	22	104	0	60	39902
2026-01-09 15:18:10.14	21.57	1.64	-46.1	-60.9	3.6	1.51e+00	0	22	104	0	60	40126
2026-01-09 15:18:11.15	21.56	1.70	-46.1	-61.0	3.6	1.51e+00	0	22	104	0	60	40622
2026-01-09 15:18:12.16	21.55	1.77	-46.2	-61.1	3.6	1.51e+00	0	22	104	0	60	41211
2026-01-09 15:18:13.17	21.53	1.83	-46.1	-61.2	3.6	1.51e+00	0	22	104	0	60	41443
2026-01-09 15:18:14.18	21.52	1.90	-46.1	-61.3	3.6	1.51e+00	0	22	104	0	60	41764
2026-01-09 15:18:15.19	21.51	1.96	-46.1	-61.3	3.6	1.51e+00	0	22	104	0	60	41788
2026-01-09 15:18:16.20	21.49	2.02	-46.1	-61.3	3.6	1.51e+00	0	22	104	0	60	41790
2026-01-09 15:18:17.21	21.48	2.09	-46.1	-61.2	3.6	1.51e+00	0	22	104	0	60	41662
2026-01-09 15:18:18.22	21.47	2.15	-46.1	-61.2	3.6	1.51e+00	0	22	104	0	60	41273
2026-01-09 15:18:19.23	21.45	2.22	-46.1	-60.9	3.6	1.51e+00	0	22	104	0	60	40209
2026-01-09 15:18:20.24	21.44	2.28	-46.1	-60.7	3.6	1.51e+00	0	22	104	0	60	39391
2026-01-09 15:18:21.25	21.42	2.35	-46.1	-60.5	3.6	1.51e+00	0	22	104	0	60	38442
2026-01-09 15:18:22.26	21.41	2.41	-46.1	-60.2	3.6	1.51e+00	0	22	104	0	60	36887
2026-01-09 15:18:23.27	21.40	2.48	-46.1	-59.9	3.6	1.51e+00	0	22	104	0	60	35908
2026-01-09 15:18:24.28	21.38	2.54	-46.1	-59.4	3.6	1.50e+00	0	22	104	0	60	33861
2026-01-09 15:18:25.29	21.37	2.61	-46.1	-59.4	3.6	1.51e+00	0	22	104	0	60	33722
2026-01-09 15:18:26.30	21.35	2.67	-46.0	-59.3	3.7	1.50e+00	0	22	104	0	60	33426
2026-01-09 15:18:27.30	21.34	2.74	-46.0	-59.2	3.7	1.50e+00	0	22	104	0	60	33038
2026-01-09 15:18:28.32	21.32	2.80	-46.0	-59.1	3.7	1.50e+00	0	22	104	0	60	32433
2026-01-09 15:18:29.33	21.31	2.87	-46.0	-58.0	4.0	1.48e+00	0	22	104	0	60	28645
2026-01-09 15:18:30.34	21.29	2.94	-45.7	-54.4	5.1	9.64e-01	0	22	0	1048576	60	19049
2026-01-09 15:18:31.35	21.28	3.00	-45.4	-52.4	6.8	2.97e-01	0	22	0	2097152	60	15113
2026-01-09 15:18:32.36	21.26	3.07	-45.0	-50.7	9.0	4.32e-02	0	22	0	4194304	60	12431
2026-01-09 15:18:33.37	21.25	3.14	-44.3	-48.8	11.4	5.21e-03	0	22	0	6291456	60	9910
2026-01-09 15:18:34.38	21.23	3.20	-43.8	-47.6	12.6	2.07e-04	0	22	0	8388608	60	8676
2026-01-09 15:18:35.39	21.22	3.27	-43.2	-46.4	13.9	1.22e-05	0	22	0	10485760	60	7594
2026-01-09 15:18:36.40	21.20	3.34	-42.4	-45.2	15.1	0.00e+00	0	22	0	11534336	58	7346
2026-01-09 15:18:37.41	21.19	3.40	-42.2	-44.8	15.5	0.00e+00	0	22	0	13631488	58	7063
2026-01-09 15:18:38.42	21.17	3.47	-42.1	-44.6	15.6	0.00e+00	0	22	0	15728640	58	6906
2026-01-09 15:18:39.43	21.16	3.54	-41.9	-44.3	16.0	0.00e+00	0	22	0	17825792	58	6626
2026-01-09 15:18:40.44	21.14	3.61	-42.3	-44.9	15.3	0.00e+00	0	22	0	19922944	58	7112
2026-01-09 15:18:41.45	21.12	3.67	-42.6	-45.4	14.7	0.00e+00	0	22	0	20971520	58	7530
2026-01-09 15:18:42.46	21.11	3.74	-45.2	-52.1	5.7	1.05e-04	0	22	0	23068672	60	14496
2026-01-09 15:18:43.47	21.09	3.81	-45.9	-56.2	4.6	1.51e+00	0	22	104	23068672	60	23288
2026-01-09 15:18:44.48	21.08	3.88	-42.2	-44.8	14.5	4.26e-01	0	22	104	23068672	56	7864
2026-01-09 15:18:45.49	21.06	3.95	-44.6	-49.8	5.7	1.50e+00	0	22	104	23068672	60	11184
2026-01-09 15:18:46.50	21.04	4.02	-41.7	-44.1	14.8	4.12e-01	0	22	104	23068672	52	9158
2026-01-09 15:18:47.51	21.03	4.09	-45.0	-51.0	5.7	1.48e+00	0	22	104	23068672	60	12776
2026-01-09 15:18:48.52	21.01	4.15	-40.5	-42.3	17.2	1.85e-02	0	22	104	23068672	54	6671
2026-01-09 15:18:49.53	20.99	4.22	-40.1	-41.8	18.7	0.00e+00	0	22	0	24117248	54	6248
2026-01-09 15:18:50.54	20.98	4.29	-39.9	-41.4	19.0	0.00e+00	0	22	0	26214400	54	6023
2026-01-09 15:18:51.55	20.96	4.36	-39.8	-41.4	19.1	0.00e+00	0	22	0	28311552	52	6714
2026-01-09 15:18:52.56	20.94	4.43	-39.8	-41.3	19.2	0.00e+00	0	22	0	29360128	52	6639
2026-01-09 15:18:53.57	20.93	4.50	-39.7	-41.2	19.3	0.00e+00	0	22	0	31457280	52	6576
2026-01-09 15:18:54.58	20.91	4.57	-39.2	-40.6	20.0	0.00e+00	0	22	0	33554432	52	6115
2026-01-09 15:18:55.59	20.89	4.64	-39.0	-40.3	20.1	0.00e+00	0	22	0	35651584	52	5958
2026-01-09 15:18:56.60	20.88	4.71	-39.1	-40.4	20.0	0.00e+00	0	22	0	37748736	52	6018
2026-01-09 15:18:57.61	20.86	4.78	-39.1	-40.4	20.1	0.00e+00	0	22	0	38797312	52	6000
2026-01-09 15:18:58.62	20.84	4.86	-39.1	-40.4	20.1	0.00e+00	0	22	0	40894464	52	6023
2026-01-09 15:18:59.63	20.82	4.93	-38.9	-40.2	20.3	0.00e+00	0	22	0	42991616	52	5887
2026-01-09 15:19:00.63	20.81	5.00	-38.8	-40.1	20.4	0.00e+00	0	22	0	45088768	52	5821
2026-01-09 15:19:01.64	20.79	5.07	-38.7	-40.0	20.5	0.00e+00	0	22	0	47185920	50	6421
2026-01-09 15:19:02.65	20.77	5.14	-38.7	-40.0	20.5	0.00e+00	0	22	0	48234496	50	6425
2026-01-09 15:19:03.66	20.75	5.21	-38.8	-40.0	20.5	0.00e+00	0	22	0	50331648	50	6462
2026-01-09 15:19:04.68	20.73	5.28	-38.9	-40.2	20.4	0.00e+00	0	22	0	52428800	50	6590
2026-01-09 15:19:05.69	20.72	5.36	-39.0	-40.3	20.3	0.00e+00	0	22	0	54525952	50	6645
2026-01-09 15:19:06.69	20.70	5.43	-38.6	-39.9	20.7	0.00e+00	0	22	0	56623104	50	6343
2026-01-09 15:19:07.71	20.68	5.50	-38.8	-40.1	20.5	0.00e+00	0	22	0	58720256	50	6510
2026-01-09 15:19:08.71	20.66	5.57	-38.8	-40.0	20.5	0.00e+00	0	22	0	59768832	50	6459
2026-01-09 15:19:09.72	20.64	5.65	-38.8	-40.1	20.6	0.00e+00	0	22	0	61865984	50	6468
2026-01-09 15:19:10.73	20.62	5.72	-38.7	-40.0	20.6	0.00e+00	0	22	0	63963136	50	6419
2026-01-09 15:19:11.74	20.60	5.79	-38.8	-40.0	20.7	0.00e+00	0	22	0	66060288	50	6436
2026-01-09 15:19:12.75	20.59	5.87	-38.7	-39.9	20.7	0.00e+00	0	22	0	67108864	50	6349
2026-01-09 15:19:13.76	20.57	5.94	-38.6	-39.8	20.8	0.00e+00	0	22	0	69206016	50	6302
2026-01-09 15:19:14.77	20.55	6.01	-38.6	-39.8	20.8	0.00e+00	0	22	0	71303168	50	6288
2026-01-09 15:19:15.78	20.53	6.09	-38.5	-39.7	20.9	0.00e+00	0	22	0	73400320	50	6218
2026-01-09 15:19:16.79	20.51	6.16	-38.6	-39.8	20.8	0.00e+00	0	22	0	75497472	50	6300
2026-01-09 15:19:17.80	20.49	6.24	-38.5	-39.7	20.9	0.00e+00	0	22	0	76546048	50	6214
2026-01-09 15:19:18.81	20.47	6.31	-38.6	-39.9	20.8	0.00e+00	0	22	0	78643200	50	6323
2026-01-09 15:19:19.82	20.45	6.39	-38.3	-39.5	21.2	0.00e+00	0	22	0	80740352	50	6058
2026-01-09 15:19:20.83	20.43	6.46	-38.3	-39.5	21.2	0.00e+00	0	22	0	82837504	50	6078
2026-01-09 15:19:21.84	20.41	6.54	-38.3	-39.5	21.1	0.00e+00	0	22	0	84934656	50	6082
2026-01-09 15:19:22.85	20.39	6.61	-38.4	-39.6	21.1	0.00e+00	0	22	0	87031808	50	6170
2026-01-09 15:19:23.86	20.37	6.69	-38.3	-39.4	21.2	0.00e+00	0	22	0	88080384	50	6026
2026-01-09 15:19:24.87	20.35	6.77	-38.4	-39.6	21.2	0.00e+00	0	22	0	90177536	50	6162
2026-01-09 15:19:25.88	20.33	6.84	-38.3	-39.4	21.3	0.00e+00	0	22	0	92274688	50	6008
2026-01-09 15:19:26.89	20.31	6.92	-38.2	-39.3	21.4	0.00e+00	0	22	0	94371840	50	5963
2026-01-09 15:19:27.90	20.28	7.00	-38.0	-39.1	21.6	0.00e+00	0	22	0	96468992	50	5800
2026-01-09 15:19:28.91	20.26	7.07	-38.1	-39.3	21.4	0.00e+00	0	22	0	97517568	50	5916
2026-01-09 15:19:29.92	20.24	7.15	-38.2	-39.4	21.3	0.00e+00	0	22	0	99614720	50	5991
2026-01-09 15:19:30.93	20.22	7.23	-38.2	-39.4	21.3	0.00e+00	0	22	0	101711872	50	6003
2026-01-09 15:19:31.94	20.20	7.31	-38.2	-39.3	21.4	0.00e+00	0	22	0	103809024	50	5962
2026-01-09 15:19:32.95	20.18	7.38	-38.0	-39.1	21.6	0.00e+00	0	22	0	105906176	50	5801
2026-01-09 15:19:33.96	20.16	7.46	-38.0	-39.2	21.6	0.00e+00	0	22	0	106954752	50	5840
2026-01-09 15:19:34.97	20.13	7.54	-37.9	-39.0	21.8	0.00e+00	0	22	0	109051904	50	5722
2026-01-09 15:19:35.98	20.11	7.62	-38.0	-39.1	21.7	0.00e+00	0	22	0	111149056	50	5775
2026-01-09 15:19:36.99	20.09	7.70	-37.8	-38.9	21.8	0.00e+00	0	22	0	113246208	50	5664
2026-01-09 15:19:38.00	20.07	7.78	-37.7	-38.8	21.9	0.00e+00	0	22	0	115343360	48	6292
2026-01-09 15:19:39.01	20.05	7.86	-37.7	-38.8	21.9	0.00e+00	0	22	0	116391936	48	6307
2026-01-09 15:19:40.01	20.02	7.94	-37.9	-39.0	21.8	0.00e+00	0	22	0	118489088	48	6397
2026-01-09 15:19:41.02	20.00	8.02	-37.9	-39.0	21.9	0.00e+00	0	22	0	120586240	48	6430
2026-01-09 15:19:42.03	19.98	8.10	-37.9	-39.0	21.8	0.00e+00	0	22	0	122683392	48	6404
2026-01-09 15:19:43.04	19.95	8.18	-37.9	-39.0	21.8	0.00e+00	0	22	0	124780544	48	6412
2026-01-09 15:19:44.05	19.93	8.26	-37.8	-38.9	21.9	0.00e+00	0	22	0	126877696	48	6323
2026-01-09 15:19:45.06	19.91	8.34	-37.7	-38.8	21.9	0.00e+00	0	22	0	127926272	48	6280
2026-01-09 15:19:46.07	19.88	8.42	-37.8	-38.8	22.0	0.00e+00	0	22	0	130023424	48	6297
2026-01-09 15:19:47.08	19.86	8.50	-37.5	-38.6	22.2	0.00e+00	0	22	0	132120576	48	6118
2026-01-09 15:19:48.09	19.84	8.58	-37.6	-38.6	22.1	0.00e+00	0	22	0	134217728	48	6168
2026-01-09 15:19:49.10	19.81	8.66	-37.6	-38.6	22.2	0.00e+00	0	22	0	135266304	48	6141
2026-01-09 15:19:50.11	19.79	8.75	-37.5	-38.5	22.3	0.00e+00	0	22	0	137363456	48	6087
2026-01-09 15:19:51.12	19.76	8.83	-37.6	-38.6	22.2	0.00e+00	0	22	0	139460608	48	6148
2026-01-09 15:19:52.13	19.74	8.91	-37.4	-38.4	22.4	0.00e+00	0	22	0	141557760	48	6001
2026-01-09 15:19:53.14	19.71	8.99	-37.4	-38.4	22.4	0.00e+00	0	22	0	143654912	48	6018
2026-01-09 15:19:54.15	19.69	9.08	-37.4	-38.4	22.3	0.00e+00	0	22	0	144703488	48	6006
2026-01-09 15:19:55.15	19.67	9.16	-37.2	-38.1	22.7	0.00e+00	0	22	0	146800640	48	5828
2026-01-09 15:19:56.17	19.64	9.24	-37.3	-38.3	22.5	0.00e+00	0	22	0	148897792	48	5915
2026-01-09 15:19:57.18	19.61	9.33	-37.2	-38.2	22.6	0.00e+00	0	22	0	150994944	48	5854
2026-01-09 15:19:58.19	19.59	9.41	-37.1	-38.1	22.7	0.00e+00	0	22	0	153092096	48	5796
2026-01-09 15:19:59.20	19.56	9.50	-37.0	-38.0	22.8	0.00e+00	0	22	0	155189248	48	5728
2026-01-09 15:20:00.21	19.54	9.58	-37.1	-38.1	22.7	0.00e+00	0	22	0	156237824	48	5766
2026-01-09 15:20:01.21	19.51	9.67	-36.9	-37.9	22.9	0.00e+00	0	22	0	158334976	48	5631
2026-01-09 15:20:02.23	19.49	9.75	-37.1	-38.1	22.8	0.00e+00	0	22	0	160432128	48	5768
2026-01-09 15:20:03.24	19.46	9.84	-36.9	-37.8	23.0	0.00e+00	0	22	0	162529280	48	5604
2026-01-09 15:20:04.25	19.43	9.92	-36.9	-37.9	22.9	0.00e+00	0	22	0	164626432	48	5639
2026-01-09 15:20:05.25	19.41	10.01	-36.9	-37.9	22.9	0.00e+00	0	22	0	165675008	48	5653
2026-01-09 15:20:06.27	19.38	10.10	-36.9	-37.9	22.9	0.00e+00	0	22	0	167772160	48	5639
2026-01-09 15:20:07.27	19.35	10.18	-36.8	-37.8	23.0	0.00e+00	0	22	0	169869312	48	5591
2026-01-09 15:20:08.28	19.33	10.27	-36.9	-37.8	23.0	0.00e+00	0	22	0	171966464	48	5620
2026-01-09 15:20:09.29	19.30	10.36	-36.8	-37.8	23.0	0.00e+00	0	22	0	174063616	48	5579
2026-01-09 15:20:10.30	19.27	10.45	-36.7	-37.7	23.1	0.00e+00	0	22	0	175112192	46	6175
2026-01-09 15:20:11.31	19.24	10.53	-36.6	-37.5	23.3	0.00e+00	0	22	0	177209344	46	6100
2026-01-09 15:20:12.32	19.21	10.62	-36.7	-37.6	23.2	0.00e+00	0	22	0	179306496	46	6129
2026-01-09 15:20:13.33	19.19	10.71	-36.7	-37.7	23.2	0.00e+00	0	22	0	181403648	46	6183
2026-01-09 15:20:14.34	19.16	10.80	-36.6	-37.5	23.3	0.00e+00	0	23	0	183500800	46	6090
2026-01-09 15:20:15.35	19.13	10.89	-36.7	-37.6	23.2	0.00e+00	0	22	0	184549376	46	6167
2026-01-09 15:20:16.36	19.10	10.98	-36.7	-37.6	23.2	0.00e+00	0	22	0	186646528	46	6170
2026-01-09 15:20:17.37	19.07	11.07	-36.5	-37.4	23.4	0.00e+00	0	23	0	188743680	46	6005
2026-01-09 15:20:18.38	19.04	11.16	-36.4	-37.3	23.5	0.00e+00	0	22	0	190840832	46	5935
2026-01-09 15:20:19.39	19.01	11.25	-36.5	-37.4	23.4	0.00e+00	0	22	0	192937984	46	5994
2026-01-09 15:20:20.40	18.98	11.34	-36.4	-37.3	23.6	0.00e+00	0	22	0	193986560	46	5920
2026-01-09 15:20:21.41	18.95	11.43	-36.5	-37.4	23.5	0.00e+00	0	22	0	196083712	46	5980
2026-01-09 15:20:22.42	18.92	11.52	-36.3	-37.2	23.6	0.00e+00	0	22	0	198180864	46	5883
2026-01-09 15:20:23.43	18.89	11.62	-36.5	-37.4	23.5	0.00e+00	0	22	0	200278016	46	5976
2026-01-09 15:20:24.44	18.86	11.71	-36.2	-37.1	23.7	0.00e+00	0	22	0	202375168	46	5821
2026-01-09 15:20:25.45	18.83	11.80	-36.3	-37.2	23.7	0.00e+00	0	22	0	203423744	46	5851
2026-01-09 15:20:26.46	18.80	11.89	-36.3	-37.2	23.6	0.00e+00	0	22	0	205520896	46	5856
2026-01-09 15:20:27.47	18.77	11.99	-36.2	-37.1	23.7	0.00e+00	0	22	0	207618048	46	5772
2026-01-09 15:20:28.48	18.74	12.08	-36.2	-37.1	23.7	0.00e+00	0	22	0	209715200	46	5807
2026-01-09 15:20:29.49	18.71	12.18	-36.2	-37.1	23.8	0.00e+00	0	22	0	211812352	46	5819
2026-01-09 15:20:30.50	18.67	12.27	-36.3	-37.2	23.7	0.00e+00	0	22	0	212860928	46	5869
2026-01-09 15:20:31.51	18.64	12.36	-36.2	-37.1	23.8	0.00e+00	0	22	0	214958080	46	5810
2026-01-09 15:20:32.52	18.61	12.46	-36.3	-37.2	23.7	0.00e+00	0	22	0	217055232	46	5859
2026-01-09 15:20:33.53	18.58	12.56	-36.3	-37.2	23.6	0.00e+00	0	22	0	219152384	46	5892
2026-01-09 15:20:34.54	18.54	12.65	-36.3	-37.2	23.7	0.00e+00	0	22	0	221249536	46	5849
2026-01-09 15:20:35.55	18.51	12.75	-36.3	-37.2	23.8	0.00e+00	0	22	0	223346688	46	5868
2026-01-09 15:20:36.56	18.48	12.84	-36.0	-36.8	24.0	0.00e+00	0	22	0	224395264	46	5622
2026-01-09 15:20:37.57	18.45	12.94	-35.9	-36.8	24.1	0.00e+00	0	22	0	226492416	46	5594
2026-01-09 15:20:38.57	18.41	13.04	-36.0	-36.9	23.9	0.00e+00	0	23	0	228589568	46	5669
2026-01-09 15:20:39.58	18.38	13.14	-36.0	-36.9	24.0	0.00e+00	0	22	0	230686720	46	5649
2026-01-09 15:20:40.59	18.34	13.23	-35.9	-36.8	24.0	0.00e+00	0	22	0	232783872	46	5580
2026-01-09 15:20:41.60	18.31	13.33	-35.9	-36.7	24.1	0.00e+00	0	22	0	233832448	46	5566
2026-01-09 15:20:42.61	18.27	13.43	-35.9	-36.7	24.1	0.00e+00	0	22	0	235929600	46	5563
2026-01-09 15:20:43.62	18.24	13.53	-35.8	-36.7	24.2	0.00e+00	0	23	0	238026752	46	5525
2026-01-09 15:20:44.63	18.20	13.63	-35.9	-36.7	24.2	0.00e+00	0	22	0	240123904	46	5539
2026-01-09 15:20:45.64	18.17	13.73	-35.9	-36.8	24.1	0.00e+00	0	22	0	242221056	46	5572
2026-01-09 15:20:46.65	18.13	13.83	-35.9	-36.8	24.1	0.00e+00	0	22	0	243269632	46	5609
2026-01-09 15:20:47.66	18.10	13.93	-35.9	-36.8	24.1	0.00e+00	0	22	0	245366784	46	5588
2026-01-09 15:20:48.67	18.06	14.03	-35.8	-36.7	24.2	0.00e+00	0	22	0	247463936	46	5534
2026-01-09 15:20:49.68	18.02	14.13	-35.8	-36.7	24.1	0.00e+00	0	22	0	249561088	46	5517
2026-01-09 15:20:50.69	17.99	14.24	-35.8	-36.7	24.2	0.00e+00	0	22	0	251658240	46	5508
2026-01-09 15:20:51.69	17.95	14.34	-35.6	-36.4	24.3	0.00e+00	0	22	0	252706816	44	6009
2026-01-09 15:20:52.70	17.91	14.44	-35.6	-36.5	24.4	0.00e+00	0	22	0	254803968	44	6045
2026-01-09 15:20:53.71	17.87	14.54	-35.6	-36.4	24.4	0.00e+00	0	22	0	256901120	44	6013
2026-01-09 15:20:54.72	17.84	14.65	-35.6	-36.4	24.4	0.00e+00	0	22	0	258998272	44	5991
2026-01-09 15:20:55.73	17.80	14.75	-35.5	-36.3	24.4	0.00e+00	0	22	0	261095424	44	5929
2026-01-09 15:20:56.74	17.76	14.86	-35.6	-36.4	24.4	0.00e+00	0	22	0	262144000	44	5988
2026-01-09 15:20:57.75	17.72	14.96	-35.5	-36.3	24.4	0.00e+00	0	23	0	264241152	44	5939
2026-01-09 15:20:58.76	17.68	15.07	-35.4	-36.3	24.6	0.00e+00	0	22	0	266338304	44	5914
2026-01-09 15:20:59.77	17.64	15.17	-35.5	-36.3	24.5	0.00e+00	0	22	0	268435456	44	5934
2026-01-09 15:21:00.78	17.60	15.28	-35.5	-36.3	24.5	0.00e+00	0	22	0	270532608	44	5938
2026-01-09 15:21:01.79	17.56	15.39	-35.4	-36.3	24.5	0.00e+00	0	22	0	271581184	44	5906
2026-01-09 15:21:02.80	17.52	15.49	-35.4	-36.2	24.6	0.00e+00	0	22	0	273678336	44	5874
2026-01-09 15:21:03.81	17.48	15.60	-35.3	-36.1	24.7	0.00e+00	0	22	0	275775488	44	5800
2026-01-09 15:21:04.82	17.44	15.71	-35.4	-36.2	24.6	0.00e+00	0	23	0	277872640	44	5867
2026-01-09 15:21:05.83	17.40	15.82	-35.4	-36.2	24.6	0.00e+00	0	22	0	279969792	44	5890
2026-01-09 15:21:06.84	17.36	15.93	-35.5	-36.3	24.5	0.00e+00	0	22	0	281018368	44	5920
2026-01-09 15:21:07.85	17.31	16.04	-35.4	-36.3	24.5	0.00e+00	0	22	0	283115520	44	5907
2026-01-09 15:21:08.86	17.27	16.15	-35.4	-36.2	24.7	0.00e+00	0	22	0	285212672	44	5847
2026-01-09 15:21:09.87	17.23	16.26	-35.3	-36.1	24.7	0.00e+00	0	22	0	287309824	44	5784
2026-01-09 15:21:10.87	17.18	16.37	-35.3	-36.1	24.7	0.00e+00	0	22	0	289406976	44	5786
2026-01-09 15:21:11.88	17.14	16.48	-35.2	-36.0	24.8	0.00e+00	0	22	0	291504128	44	5753
2026-01-09 15:21:12.89	17.10	16.59	-35.2	-36.0	24.7	0.00e+00	0	22	0	292552704	44	5735
2026-01-09 15:21:13.90	17.05	16.70	-35.2	-36.0	24.8	0.00e+00	0	22	0	294649856	44	5708
2026-01-09 15:21:14.91	17.01	16.82	-35.3	-36.1	24.8	0.00e+00	0	22	0	296747008	44	5795
2026-01-09 15:21:15.92	16.96	16.93	-35.3	-36.1	24.7	0.00e+00	0	22	0	298844160	44	5792
2026-01-09 15:21:16.93	16.92	17.05	-35.2	-36.0	24.9	0.00e+00	0	22	0	300941312	44	5707
2026-01-09 15:21:17.94	16.87	17.16	-35.3	-36.1	24.7	0.00e+00	0	22	0	301989888	44	5777
2026-01-09 15:21:18.95	16.83	17.27	-35.1	-35.9	24.9	0.00e+00	0	22	0	304087040	44	5677
2026-01-09 15:21:19.96	16.78	17.39	-35.2	-36.0	24.8	0.00e+00	0	22	0	306184192	44	5756
2026-01-09 15:21:20.98	16.73	17.51	-35.0	-35.8	25.0	0.00e+00	0	23	0	308281344	44	5590
2026-01-09 15:21:21.99	16.69	17.62	-35.1	-35.9	24.9	0.00e+00	0	22	0	310378496	44	5682
2026-01-09 15:21:23.00	16.64	17.74	-35.0	-35.8	25.0	0.00e+00	0	22	0	311427072	44	5611
2026-01-09 15:21:24.01	16.59	17.86	-35.0	-35.8	25.0	0.00e+00	0	22	0	313524224	44	5589
2026-01-09 15:21:25.02	16.54	17.98	-35.1	-35.9	24.9	0.00e+00	0	22	0	315621376	44	5673
2026-01-09 15:21:26.03	16.49	18.10	-35.1	-36.0	24.9	0.00e+00	0	22	0	317718528	44	5696
2026-01-09 15:21:27.04	16.44	18.22	-35.1	-35.9	24.9	0.00e+00	0	22	0	319815680	44	5648
2026-01-09 15:21:28.05	16.39	18.34	-35.1	-35.9	24.9	0.00e+00	0	23	0	320864256	44	5661
2026-01-09 15:21:29.06	16.34	18.46	-35.2	-36.0	24.9	0.00e+00	0	22	0	322961408	44	5740
2026-01-09 15:21:30.07	16.29	18.58	-35.0	-35.8	25.1	0.00e+00	0	23	0	325058560	44	5573
2026-01-09 15:21:31.07	16.24	18.70	-35.0	-35.8	25.0	0.00e+00	0	22	0	327155712	44	5608
2026-01-09 15:21:32.09	16.19	18.82	-35.1	-35.9	24.9	0.00e+00	0	22	0	329252864	44	5667
2026-01-09 15:21:33.09	16.14	18.94	-35.0	-35.8	25.0	0.00e+00	0	22	0	330301440	44	5573
2026-01-09 15:21:34.10	16.09	19.07	-35.1	-35.9	25.0	0.00e+00	0	22	0	332398592	44	5654
2026-01-09 15:21:35.11	16.03	19.19	-35.2	-36.0	24.9	0.00e+00	0	22	0	334495744	44	5699
2026-01-09 15:21:36.12	15.98	19.32	-34.9	-35.7	25.1	0.00e+00	0	22	0	336592896	44	5521
2026-01-09 15:21:37.13	15.93	19.44	-35.0	-35.8	25.1	0.00e+00	0	22	0	338690048	44	5609
2026-01-09 15:21:38.14	15.87	19.57	-34.9	-35.7	25.1	0.00e+00	0	22	0	339738624	44	5530
2026-01-09 15:21:39.15	15.82	19.69	-34.9	-35.7	25.1	0.00e+00	0	22	0	341835776	44	5518
2026-01-09 15:21:40.16	15.76	19.82	-34.9	-35.6	25.1	0.00e+00	0	22	0	343932928	44	5496
2026-01-09 15:21:41.17	15.71	19.95	-34.8	-35.6	25.2	0.00e+00	0	23	0	346030080	44	5487
2026-01-09 15:21:42.18	15.65	20.08	-34.9	-35.7	25.2	0.00e+00	0	22	0	348127232	44	5508
2026-01-09 15:21:43.19	15.59	20.21	-34.9	-35.7	25.1	0.00e+00	0	22	0	349175808	44	5532
2026-01-09 15:21:44.20	15.54	20.33	-34.9	-35.7	25.2	0.00e+00	0	23	0	351272960	44	5536
2026-01-09 15:21:45.21	15.48	20.47	-34.9	-35.7	25.2	0.00e+00	0	22	0	353370112	44	5508
2026-01-09 15:21:46.22	15.42	20.60	-34.8	-35.6	25.2	0.00e+00	0	22	0	355467264	44	5476
2026-01-09 15:21:47.23	15.36	20.73	-34.9	-35.7	25.1	0.00e+00	0	22	0	357564416	44	5539
2026-01-09 15:21:48.24	15.30	20.86	-34.8	-35.6	25.1	0.00e+00	0	22	0	359661568	44	5474
2026-01-09 15:21:49.24	15.24	20.99	-34.8	-35.6	25.1	0.00e+00	0	22	0	360710144	44	5459
2026-01-09 15:21:50.25	15.18	21.12	-34.8	-35.6	25.2	0.00e+00	0	22	0	362807296	42	6124
2026-01-09 15:21:51.26	15.12	21.26	-34.9	-35.7	25.2	0.00e+00	0	22	0	364904448	42	6198
2026-01-09 15:21:52.27	15.06	21.39	-34.9	-35.7	25.1	0.00e+00	0	22	0	367001600	42	6176
2026-01-09 15:21:53.28	15.00	21.53	-34.9	-35.6	25.2	0.00e+00	0	22	0	369098752	42	6166
2026-01-09 15:21:54.29	14.93	21.67	-34.8	-35.6	25.3	0.00e+00	0	22	0	370147328	42	6154
2026-01-09 15:21:55.30	14.87	21.80	-34.8	-35.5	25.3	0.00e+00	0	22	0	372244480	42	6099
2026-01-09 15:21:56.31	14.81	21.94	-34.9	-35.7	25.2	0.00e+00	0	22	0	374341632	42	6201
2026-01-09 15:21:57.32	14.74	22.08	-35.0	-35.8	25.1	0.00e+00	0	23	0	376438784	42	6273
2026-01-09 15:21:58.33	14.68	22.22	-34.8	-35.6	25.2	0.00e+00	0	23	0	378535936	42	6144
2026-01-09 15:21:59.34	14.61	22.36	-34.8	-35.6	25.2	0.00e+00	0	22	0	379584512	42	6148
2026-01-09 15:22:00.35	14.54	22.50	-35.0	-35.8	25.2	0.00e+00	0	23	0	381681664	42	6259
2026-01-09 15:22:01.36	14.48	22.64	-34.8	-35.6	25.3	0.00e+00	0	22	0	383778816	42	6151
2026-01-09 15:22:02.37	14.41	22.78	-34.9	-35.7	25.2	0.00e+00	0	22	0	385875968	42	6207
2026-01-09 15:22:03.38	14.34	22.92	-34.9	-35.7	25.2	0.00e+00	0	22	0	387973120	42	6206
2026-01-09 15:22:04.39	14.27	23.07	-34.9	-35.7	25.2	0.00e+00	0	22	0	389021696	42	6180
2026-01-09 15:22:05.40	14.20	23.21	-35.1	-35.9	25.1	0.00e+00	0	23	0	391118848	42	6347
2026-01-09 15:22:06.41	14.13	23.36	-35.0	-35.8	25.1	0.00e+00	0	23	0	393216000	42	6275
2026-01-09 15:22:07.42	14.06	23.50	-35.0	-35.7	25.1	0.00e+00	0	22	0	395313152	42	6235
2026-01-09 15:22:08.43	13.99	23.65	-35.1	-35.9	25.1	0.00e+00	0	22	0	397410304	42	6334
2026-01-09 15:22:09.44	13.92	23.80	-35.0	-35.8	25.2	0.00e+00	0	22	0	398458880	42	6264
2026-01-09 15:22:10.45	13.84	23.94	-35.1	-35.9	25.1	0.00e+00	0	22	0	400556032	42	6332
2026-01-09 15:22:11.46	13.77	24.09	-35.2	-36.0	25.0	0.00e+00	0	22	0	402653184	42	6399
2026-01-09 15:22:12.46	13.70	24.24	-35.2	-36.0	24.9	0.00e+00	0	22	0	404750336	42	6421
2026-01-09 15:22:13.47	13.62	24.39	-35.3	-36.1	24.9	0.00e+00	0	22	0	406847488	42	6473
2026-01-09 15:22:14.48	13.54	24.54	-35.4	-36.2	24.8	0.00e+00	0	22	0	407896064	42	6563
2026-01-09 15:22:15.49	13.47	24.70	-35.4	-36.2	24.7	0.00e+00	0	22	0	409993216	42	6570
2026-01-09 15:22:16.50	13.39	24.85	-35.5	-36.4	24.7	0.00e+00	0	22	0	412090368	42	6694
2026-01-09 15:22:17.51	13.31	25.00	-35.5	-36.3	24.7	0.00e+00	0	22	0	414187520	42	6689
2026-01-09 15:22:18.52	13.23	25.16	-35.7	-36.5	24.6	0.00e+00	0	22	0	416284672	42	6799
2026-01-09 15:22:19.53	13.15	25.31	-35.7	-36.5	24.5	0.00e+00	0	22	0	418381824	44	6069
2026-01-09 15:22:20.54	13.07	25.47	-35.7	-36.6	24.5	0.00e+00	0	22	0	419430400	44	6107
2026-01-09 15:22:21.55	12.99	25.63	-35.9	-36.7	24.1	0.00e+00	0	22	0	421527552	44	6230
2026-01-09 15:22:22.56	12.91	25.78	-36.0	-36.8	24.3	0.00e+00	0	22	0	423624704	44	6300
2026-01-09 15:22:23.57	12.82	25.94	-36.0	-36.8	24.2	0.00e+00	0	22	0	425721856	44	6287
2026-01-09 15:22:24.58	12.74	26.10	-36.1	-36.9	24.2	0.00e+00	0	23	0	427819008	44	6366
2026-01-09 15:22:25.59	12.65	26.26	-36.2	-37.0	24.2	0.00e+00	0	22	0	428867584	44	6447
2026-01-09 15:22:26.60	12.57	26.42	-36.4	-37.2	23.9	0.00e+00	0	22	0	430964736	44	6614
2026-01-09 15:22:27.61	12.48	26.59	-36.5	-37.4	23.7	0.00e+00	0	22	0	433061888	44	6742
2026-01-09 15:22:28.62	12.39	26.75	-36.7	-37.6	23.6	0.00e+00	0	22	0	435159040	44	6915
2026-01-09 15:22:29.63	12.30	26.92	-36.9	-37.8	23.4	0.00e+00	0	23	0	437256192	46	6315
2026-01-09 15:22:30.64	12.21	27.08	-37.1	-38.0	23.3	0.00e+00	0	23	0	438304768	46	6441
2026-01-09 15:22:31.65	12.12	27.25	-37.3	-38.2	23.1	0.00e+00	0	23	0	440401920	46	6608
2026-01-09 15:22:32.66	12.03	27.41	-37.4	-38.4	22.9	0.00e+00	0	23	0	442499072	46	6744
2026-01-09 15:22:33.67	11.94	27.58	-37.6	-38.6	22.8	0.00e+00	0	22	0	444596224	46	6899
2026-01-09 15:22:34.68	11.84	27.75	-37.8	-38.9	22.4	0.00e+00	0	22	0	446693376	48	6332
2026-01-09 15:22:35.69	11.75	27.92	-38.0	-39.1	22.3	0.00e+00	0	23	0	447741952	48	6466
2026-01-09 15:22:36.70	11.65	28.09	-38.2	-39.2	22.2	0.00e+00	0	23	0	449839104	48	6592
2026-01-09 15:22:37.71	11.55	28.26	-38.2	-39.2	22.2	0.00e+00	0	22	0	451936256	48	6597
2026-01-09 15:22:38.71	11.46	28.43	-38.3	-39.3	22.1	0.00e+00	0	22	0	454033408	48	6679
2026-01-09 15:22:39.72	11.36	28.61	-38.3	-39.4	22.1	0.00e+00	0	23	0	456130560	48	6711
2026-01-09 15:22:40.73	11.26	28.78	-38.1	-39.2	22.2	0.00e+00	0	22	0	457179136	48	6541
2026-01-09 15:22:41.74	11.16	28.96	-38.1	-39.1	22.3	0.00e+00	0	23	0	459276288	48	6510
2026-01-09 15:22:42.75	11.05	29.14	-38.1	-39.2	22.3	0.00e+00	0	23	0	461373440	48	6549
2026-01-09 15:22:43.76	10.95	29.31	-38.0	-39.1	22.3	0.00e+00	0	22	0	463470592	48	6496
2026-01-09 15:22:44.77	10.84	29.49	-38.0	-39.0	22.3	0.00e+00	0	23	0	465567744	48	6444
2026-01-09 15:22:45.78	10.74	29.67	-38.0	-39.0	22.4	0.00e+00	0	23	0	466616320	48	6430
2026-01-09 15:22:46.79	10.63	29.85	-38.3	-39.3	22.0	0.00e+00	0	22	0	468713472	48	6679
2026-01-09 15:22:47.80	10.52	30.03	-38.4	-39.5	22.0	0.00e+00	0	22	0	470810624	48	6833
2026-01-09 15:22:48.80	10.41	30.22	-38.5	-39.6	21.9	0.00e+00	0	23	0	472907776	48	6900
2026-01-09 15:22:49.81	10.30	30.40	-38.9	-40.0	21.5	0.00e+00	0	23	0	475004928	50	6416
2026-01-09 15:22:50.82	10.19	30.59	-38.7	-39.8	21.7	0.00e+00	0	23	0	476053504	50	6262
2026-01-09 15:22:51.83	10.07	30.77	-38.8	-40.0	21.5	0.00e+00	0	23	0	478150656	50	6397
2026-01-09 15:22:52.84	9.96	30.96	-39.0	-40.2	21.4	0.00e+00	0	23	0	480247808	50	6565
2026-01-09 15:22:53.85	9.84	31.15	-38.9	-40.1	21.5	0.00e+00	0	22	0	482344960	50	6485
2026-01-09 15:22:54.86	9.72	31.34	-39.2	-40.3	21.2	0.00e+00	0	23	0	484442112	50	6688
2026-01-09 15:22:55.87	9.60	31.53	-39.3	-40.5	21.0	0.00e+00	0	23	0	486539264	50	6813
2026-01-09 15:22:56.88	9.48	31.72	-39.4	-40.6	20.9	0.00e+00	0	23	0	487587840	50	6880
2026-01-09 15:22:57.89	9.36	31.91	-39.4	-40.6	21.0	0.00e+00	0	23	0	489684992	50	6899
2026-01-09 15:22:58.90	9.23	32.10	-39.3	-40.4	21.1	0.00e+00	0	23	0	491782144	50	6767
2026-01-09 15:22:59.90	9.11	32.30	-39.4	-40.6	21.0	0.00e+00	0	23	0	493879296	50	6908
2026-01-09 15:23:00.92	8.98	32.49	-39.4	-40.7	20.9	0.00e+00	0	23	0	495976448	50	6936
2026-01-09 15:23:01.92	8.85	32.69	-39.3	-40.5	21.0	0.00e+00	0	22	0	497025024	50	6799
2026-01-09 15:23:02.93	8.72	32.89	-39.5	-40.7	20.9	0.00e+00	0	22	0	499122176	50	6960
2026-01-09 15:23:03.94	8.59	33.09	-39.5	-40.7	20.9	0.00e+00	0	23	0	501219328	50	6970
2026-01-09 15:23:04.95	8.46	33.29	-39.5	-40.7	20.7	0.00e+00	0	22	0	503316480	50	6934
2026-01-09 15:23:05.96	8.32	33.49	-39.6	-40.8	20.6	0.00e+00	0	23	0	505413632	50	7064
2026-01-09 15:23:06.97	8.18	33.69	-39.8	-41.1	20.4	0.00e+00	0	22	0	506462208	52	6510
2026-01-09 15:23:07.98	8.04	33.90	-39.9	-41.2	20.4	0.00e+00	0	23	0	508559360	52	6587
2026-01-09 15:23:08.99	7.90	34.10	-39.9	-41.3	20.3	0.00e+00	0	22	0	510656512	52	6616
2026-01-09 15:23:10.00	7.76	34.31	-39.9	-41.2	20.4	0.00e+00	0	23	0	512753664	52	6578
2026-01-09 15:23:11.01	7.62	34.52	-40.1	-41.4	20.2	0.00e+00	0	22	0	514850816	52	6764
2026-01-09 15:23:12.02	7.47	34.72	-40.0	-41.3	20.4	0.00e+00	0	22	0	515899392	52	6636
2026-01-09 15:23:13.03	7.32	34.93	-40.1	-41.4	20.3	0.00e+00	0	23	0	517996544	52	6749
2026-01-09 15:23:14.04	7.17	35.14	-40.2	-41.6	20.0	0.00e+00	0	22	0	520093696	52	6902
2026-01-09 15:23:15.05	7.02	35.36	-40.2	-41.5	20.2	0.00e+00	0	23	0	522190848	52	6822
2026-01-09 15:23:16.06	6.86	35.57	-40.5	-41.9	19.8	0.00e+00	0	22	0	524288000	52	7159
2026-01-09 15:23:17.07	6.71	35.78	-40.4	-41.8	19.9	0.00e+00	0	23	0	525336576	52	7024
2026-01-09 15:23:18.07	6.55	36.00	-40.0	-41.3	20.4	0.00e+00	0	23	0	527433728	52	6619
2026-01-09 15:23:19.08	6.39	36.21	-40.0	-41.4	20.3	0.00e+00	0	22	0	529530880	52	6717
2026-01-09 15:23:20.09	6.23	36.43	-40.0	-41.3	20.4	0.00e+00	0	22	0	531628032	52	6632
2026-01-09 15:23:21.10	6.06	36.65	-40.1	-41.4	20.2	0.00e+00	0	23	0	533725184	52	6744
2026-01-09 15:23:22.11	5.89	36.87	-40.0	-41.3	20.3	0.00e+00	0	22	0	534773760	52	6629
2026-01-09 15:23:23.12	5.72	37.09	-40.0	-41.3	20.5	0.00e+00	0	23	0	536870912	52	6629
2026-01-09 15:23:24.13	5.55	37.32	-39.9	-41.2	20.6	0.00e+00	0	23	0	538968064	52	6546
2026-01-09 15:23:25.14	5.38	37.54	-39.8	-41.0	20.5	0.00e+00	0	22	0	541065216	52	6436
2026-01-09 15:23:26.15	5.20	37.77	-39.8	-41.1	20.6	0.00e+00	0	22	0	543162368	52	6496
2026-01-09 15:23:27.16	5.02	37.99	-39.3	-40.5	21.1	0.00e+00	0	22	0	544210944	52	6076
2026-01-09 15:23:28.17	4.84	38.22	-39.3	-40.5	21.1	0.00e+00	0	22	0	546308096	52	6091
2026-01-09 15:23:29.19	4.65	38.45	-39.3	-40.5	21.2	0.00e+00	0	22	0	548405248	52	6066
2026-01-09 15:23:30.19	4.46	38.68	-39.2	-40.4	21.2	0.00e+00	0	22	0	550502400	52	5978
2026-01-09 15:23:31.20	4.27	38.91	-39.0	-40.2	21.5	0.00e+00	0	23	0	552599552	52	5853
2026-01-09 15:23:32.21	4.08	39.14	-38.7	-39.8	21.8	0.00e+00	0	23	0	554696704	50	6280
2026-01-09 15:23:33.22	3.88	39.38	-38.4	-39.5	21.6	0.00e+00	0	22	0	555745280	50	6037
2026-01-09 15:23:34.23	3.69	39.61	-38.4	-39.5	21.8	0.00e+00	0	22	0	557842432	50	6037
2026-01-09 15:23:35.24	3.48	39.85	-38.2	-39.2	22.2	0.00e+00	0	23	0	559939584	50	5878
2026-01-09 15:23:36.25	3.28	40.09	-38.2	-39.2	22.3	0.00e+00	0	22	0	562036736	50	5881
2026-01-09 15:23:37.26	3.07	40.32	-38.4	-39.5	22.0	0.00e+00	0	23	0	564133888	50	6054
2026-01-09 15:23:38.27	2.86	40.56	-38.1	-39.2	22.3	0.00e+00	0	23	0	565182464	50	5838
2026-01-09 15:23:39.28	2.65	40.80	-37.9	-38.9	22.6	0.00e+00	0	22	0	567279616	48	6375
2026-01-09 15:23:40.29	2.43	41.05	-37.7	-38.7	22.7	0.00e+00	0	22	0	569376768	48	6220
2026-01-09 15:23:41.29	2.21	41.29	-37.9	-38.9	22.6	0.00e+00	0	23	0	571473920	48	6337
2026-01-09 15:23:42.30	1.99	41.53	-37.7	-38.7	22.7	0.00e+00	0	23	0	572522496	48	6232
2026-01-09 15:23:43.31	1.76	41.78	-37.8	-38.8	22.7	0.00e+00	0	22	0	574619648	48	6282
2026-01-09 15:23:44.32	1.53	42.02	-37.8	-38.8	22.7	0.00e+00	0	23	0	576716800	48	6272
2026-01-09 15:23:45.33	1.29	42.27	-37.8	-38.8	22.7	0.00e+00	0	23	0	578813952	48	6306
2026-01-09 15:23:46.34	1.05	42.52	-38.1	-39.1	22.3	0.00e+00	0	23	0	580911104	48	6533
2026-01-09 15:23:47.35	0.81	42.77	-38.3	-39.3	22.1	0.00e+00	0	22	0	583008256	48	6674
2026-01-09 15:23:48.36	0.56	43.02	-38.0	-39.0	22.5	0.00e+00	0	22	0	584056832	48	6442
2026-01-09 15:23:49.37	0.31	43.27	-37.9	-38.9	22.5	0.00e+00	0	22	0	586153984	48	6374
2026-01-09 15:23:50.38	0.06	43.53	-37.7	-38.7	22.8	0.00e+00	0	23	0	588251136	48	6175
2026-01-09 15:23:51.39	359.80	43.78	-37.6	-38.6	22.8	0.00e+00	0	23	0	590348288	48	6127
2026-01-09 15:23:52.40	359.54	44.03	-37.7	-38.7	22.8	0.00e+00	0	22	0	592445440	48	6175
2026-01-09 15:23:53.41	359.27	44.29	-37.6	-38.6	22.9	0.00e+00	0	23	0	593494016	48	6123
2026-01-09 15:23:54.42	359.00	44.55	-37.2	-38.2	23.3	0.00e+00	0	22	0	595591168	48	5840
2026-01-09 15:23:55.42	358.73	44.80	-37.1	-38.1	23.3	0.00e+00	0	23	0	597688320	48	5774
2026-01-09 15:23:56.43	358.45	45.06	-36.8	-37.6	23.8	0.00e+00	0	23	0	599785472	46	6159
2026-01-09 15:23:57.44	358.16	45.32	-36.7	-37.6	23.7	0.00e+00	0	23	0	601882624	46	6131
2026-01-09 15:23:58.45	357.87	45.58	-36.5	-37.4	23.9	0.00e+00	0	22	0	602931200	46	5992
2026-01-09 15:23:59.46	357.58	45.84	-36.7	-37.6	23.8	0.00e+00	0	23	0	605028352	46	6112
2026-01-09 15:24:00.47	357.28	46.11	-36.3	-37.2	24.0	0.00e+00	0	23	0	607125504	46	5872
2026-01-09 15:24:01.48	356.97	46.37	-36.4	-37.2	24.1	0.00e+00	0	23	0	609222656	46	5881
2026-01-09 15:24:02.49	356.66	46.63	-36.6	-37.5	23.8	0.00e+00	0	23	0	611319808	46	6036
2026-01-09 15:24:03.50	356.35	46.90	-36.9	-37.8	23.5	0.00e+00	0	23	0	612368384	46	6297
2026-01-09 15:24:04.51	356.03	47.16	-37.2	-38.1	23.2	0.00e+00	0	23	0	614465536	46	6538
2026-01-09 15:24:05.52	355.70	47.43	-37.4	-38.4	23.1	0.00e+00	0	23	0	616562688	46	6695
2026-01-09 15:24:06.53	355.37	47.70	-37.6	-38.5	22.9	0.00e+00	0	23	0	618659840	46	6846
2026-01-09 15:24:07.54	355.03	47.96	-37.5	-38.5	23.0	0.00e+00	0	22	0	620756992	46	6800
2026-01-09 15:24:08.55	354.69	48.23	-37.5	-38.5	22.9	0.00e+00	0	23	0	621805568	46	6831
2026-01-09 15:24:09.56	354.34	48.50	-37.3	-38.3	23.1	0.00e+00	0	23	0	623902720	46	6644
2026-01-09 15:24:10.57	353.98	48.77	-37.2	-38.1	23.2	0.00e+00	0	22	0	625999872	46	6522
2026-01-09 15:24:11.58	353.62	49.04	-37.1	-38.0	23.3	0.00e+00	0	23	0	628097024	46	6435
2026-01-09 15:24:12.59	353.25	49.31	-37.1	-38.1	23.3	0.00e+00	0	22	0	630194176	46	6493
2026-01-09 15:24:13.60	352.88	49.58	-36.6	-37.5	24.1	0.00e+00	0	22	0	631242752	46	6081
2026-01-09 15:24:14.61	352.49	49.85	-36.2	-37.0	24.2	0.00e+00	0	22	0	633339904	46	5759
2026-01-09 15:24:15.62	352.11	50.12	-36.1	-37.0	24.3	0.00e+00	0	22	0	635437056	46	5710
2026-01-09 15:24:16.63	351.71	50.39	-36.3	-37.1	24.1	0.00e+00	0	22	0	637534208	46	5811
2026-01-09 15:24:17.64	351.31	50.66	-36.1	-37.0	24.4	0.00e+00	0	23	0	639631360	46	5717
2026-01-09 15:24:18.65	350.89	50.93	-36.1	-36.9	24.2	0.00e+00	0	23	0	640679936	46	5692
2026-01-09 15:24:19.66	350.48	51.20	-36.4	-37.2	24.0	0.00e+00	0	23	0	642777088	46	5881
2026-01-09 15:24:20.67	350.05	51.47	-36.4	-37.2	23.9	0.00e+00	0	23	0	644874240	46	5888
2026-01-09 15:24:21.67	349.62	51.74	-36.3	-37.2	24.1	0.00e+00	0	23	0	646971392	46	5845
2026-01-09 15:24:22.69	349.17	52.01	-36.1	-36.9	24.3	0.00e+00	0	23	0	649068544	46	5687
2026-01-09 15:24:23.69	348.73	52.28	-35.7	-36.5	24.7	0.00e+00	0	23	0	651165696	44	6039
2026-01-09 15:24:24.70	348.27	52.55	-35.8	-36.6	24.7	0.00e+00	0	23	0	652214272	44	6112
2026-01-09 15:24:25.71	347.80	52.82	-35.5	-36.4	24.7	0.00e+00	0	23	0	654311424	44	5968
2026-01-09 15:24:26.72	347.33	53.09	-35.7	-36.5	24.2	0.00e+00	0	23	0	656408576	44	6075
2026-01-09 15:24:27.73	346.84	53.35	-35.7	-36.5	24.6	0.00e+00	0	23	0	658505728	44	6069
2026-01-09 15:24:28.74	346.35	53.62	-35.9	-36.8	24.5	0.00e+00	0	22	0	660602880	44	6249
2026-01-09 15:24:29.75	345.85	53.89	-36.0	-36.9	24.4	0.00e+00	0	23	0	661651456	44	6346
2026-01-09 15:24:30.76	345.34	54.15	-36.3	-37.2	24.0	0.00e+00	0	23	0	663748608	44	6576
2026-01-09 15:24:31.77	344.81	54.42	-36.3	-37.2	24.0	0.00e+00	0	23	0	665845760	44	6584
2026-01-09 15:24:32.78	344.28	54.68	-36.5	-37.4	23.9	0.00e+00	0	22	0	667942912	44	6729
2026-01-09 15:24:33.79	343.74	54.94	-36.6	-37.5	23.7	0.00e+00	0	22	0	670040064	44	6776
2026-01-09 15:24:34.80	343.19	55.20	-36.2	-37.0	24.2	0.00e+00	0	22	0	671088640	44	6438
2026-01-09 15:24:35.81	342.63	55.46	-36.0	-36.9	24.4	0.00e+00	0	23	0	673185792	44	6325
2026-01-09 15:24:36.82	342.06	55.72	-36.0	-36.8	24.3	0.00e+00	0	23	0	675282944	44	6311
2026-01-09 15:24:37.83	341.47	55.98	-36.1	-36.9	24.3	0.00e+00	0	23	0	677380096	44	6383
2026-01-09 15:24:38.84	340.88	56.23	-36.1	-37.0	24.3	0.00e+00	0	22	0	679477248	44	6407
2026-01-09 15:24:39.85	340.27	56.48	-36.4	-37.2	23.9	0.00e+00	0	22	0	680525824	44	6580
2026-01-09 15:24:40.86	339.66	56.73	-37.2	-38.1	23.2	0.00e+00	0	23	0	682622976	46	6524
2026-01-09 15:24:41.87	339.03	56.98	-37.7	-38.7	22.7	0.00e+00	0	22	0	684720128	46	6971
2026-01-09 15:24:42.88	338.39	57.23	-37.8	-38.9	22.6	0.00e+00	0	22	0	686817280	48	6318
2026-01-09 15:24:43.89	337.74	57.47	-38.2	-39.3	22.1	0.00e+00	0	23	0	688914432	48	6652
2026-01-09 15:24:44.90	337.08	57.71	-38.6	-39.7	21.9	0.00e+00	0	23	0	689963008	48	6954
2026-01-09 15:24:45.91	336.40	57.95	-38.6	-39.7	21.3	0.00e+00	0	23	0	692060160	48	6980
2026-01-09 15:24:46.92	335.72	58.19	-38.4	-39.5	22.0	0.00e+00	0	23	0	694157312	48	6797
2026-01-09 15:24:47.93	335.02	58.42	-38.4	-39.5	22.0	0.00e+00	0	23	0	696254464	48	6790
2026-01-09 15:24:48.94	334.31	58.65	-37.9	-39.0	22.4	0.00e+00	0	23	0	698351616	48	6414
2026-01-09 15:24:49.95	333.58	58.88	-38.0	-39.0	22.5	0.00e+00	0	23	0	699400192	48	6416
2026-01-09 15:24:50.95	332.86	59.10	-37.7	-38.7	22.7	0.00e+00	0	22	0	701497344	48	6240
2026-01-09 15:24:51.96	332.11	59.32	-38.0	-39.0	22.5	0.00e+00	0	23	0	703594496	48	6448
2026-01-09 15:24:52.97	331.35	59.53	-37.3	-38.2	23.2	0.00e+00	0	23	0	705691648	48	5884
2026-01-09 15:24:53.98	330.57	59.74	-37.1	-38.1	23.2	0.00e+00	0	23	0	707788800	48	5770
2026-01-09 15:24:54.99	329.79	59.95	-37.5	-38.5	22.9	0.00e+00	0	23	0	708837376	48	6068
2026-01-09 15:24:56.00	328.99	60.15	-37.4	-38.4	23.0	0.00e+00	0	23	0	710934528	48	6012
2026-01-09 15:24:57.01	328.18	60.35	-37.1	-38.0	23.3	0.00e+00	0	23	0	713031680	48	5724
2026-01-09 15:24:58.02	327.35	60.55	-36.2	-37.0	24.2	0.00e+00	0	23	0	715128832	46	5750
2026-01-09 15:24:59.03	326.52	60.73	-36.1	-37.0	24.2	0.00e+00	0	23	0	717225984	46	5736
2026-01-09 15:25:00.04	325.67	60.92	-35.8	-36.6	24.6	0.00e+00	0	23	0	719323136	46	5500
2026-01-09 15:25:01.05	324.81	61.10	-35.2	-36.0	25.1	0.00e+00	0	23	0	720371712	44	5741
2026-01-09 15:25:02.06	323.93	61.27	-35.0	-35.8	25.2	0.00e+00	0	23	0	722468864	44	5587
2026-01-09 15:25:03.07	323.05	61.44	-34.9	-35.7	25.3	0.00e+00	0	23	0	724566016	44	5510
2026-01-09 15:25:04.08	322.15	61.60	-34.8	-35.5	25.4	0.00e+00	0	22	0	726663168	42	6103
2026-01-09 15:25:05.09	321.24	61.76	-34.7	-35.5	25.6	0.00e+00	0	23	0	728760320	42	6056
2026-01-09 15:25:06.09	320.33	61.91	-34.6	-35.3	25.7	0.00e+00	0	23	0	729808896	42	5933
2026-01-09 15:25:07.10	319.39	62.05	-34.2	-34.9	25.8	0.00e+00	0	23	0	731906048	42	5688
2026-01-09 15:25:08.11	318.45	62.19	-34.6	-35.4	25.4	0.00e+00	0	23	0	734003200	42	5996
2026-01-09 15:25:09.13	317.49	62.32	-34.5	-35.2	25.7	0.00e+00	0	23	0	736100352	42	5883
2026-01-09 15:25:10.13	316.53	62.45	-34.2	-34.9	25.9	0.00e+00	0	23	0	738197504	42	5681
2026-01-09 15:25:11.14	315.56	62.57	-34.3	-35.0	25.8	0.00e+00	0	23	0	739246080	42	5752
2026-01-09 15:25:12.15	314.58	62.68	-34.3	-35.0	25.9	0.00e+00	0	23	0	741343232	42	5744
2026-01-09 15:25:13.16	313.58	62.78	-34.0	-34.7	26.0	0.00e+00	0	23	0	743440384	42	5549
2026-01-09 15:25:14.17	312.58	62.88	-33.8	-34.5	26.3	0.00e+00	0	23	0	745537536	42	5409
2026-01-09 15:25:15.18	311.58	62.97	-33.7	-34.4	26.4	0.00e+00	0	23	0	747634688	40	6019
2026-01-09 15:25:16.19	310.56	63.05	-33.9	-34.6	26.2	0.00e+00	0	23	0	748683264	40	6162
2026-01-09 15:25:17.20	309.54	63.13	-33.7	-34.4	26.3	0.00e+00	0	23	0	750780416	40	6025
2026-01-09 15:25:18.21	308.51	63.20	-33.5	-34.1	26.6	0.00e+00	0	23	0	752877568	40	5828
2026-01-09 15:25:19.22	307.47	63.26	-33.7	-34.4	26.3	0.00e+00	0	23	0	754974720	40	6014
2026-01-09 15:25:20.23	306.43	63.31	-33.6	-34.3	26.5	0.00e+00	0	23	0	757071872	40	5931
2026-01-09 15:25:21.24	305.39	63.36	-33.5	-34.2	26.3	0.00e+00	0	23	0	758120448	40	5896
2026-01-09 15:25:22.25	304.34	63.39	-33.6	-34.3	26.5	0.00e+00	0	23	0	760217600	40	5955
2026-01-09 15:25:23.26	303.29	63.42	-33.0	-33.7	26.8	0.00e+00	0	23	0	762314752	40	5560
2026-01-09 15:25:24.27	302.24	63.44	-33.0	-33.7	26.8	0.00e+00	0	23	0	764411904	40	5503
2026-01-09 15:25:25.28	301.19	63.45	-33.0	-33.7	26.9	0.00e+00	0	23	0	766509056	40	5520
2026-01-09 15:25:26.29	300.13	63.46	-32.8	-33.5	26.9	0.00e+00	0	23	0	767557632	40	5398
2026-01-09 15:25:27.30	299.08	63.46	-32.8	-33.5	26.9	0.00e+00	0	23	0	769654784	40	5387
2026-01-09 15:25:28.31	298.02	63.45	-32.2	-32.9	27.3	0.00e+00	0	23	0	771751936	38	5647
2026-01-09 15:25:29.32	296.97	63.43	-32.4	-33.0	26.3	0.00e+00	0	23	0	773849088	38	5734
2026-01-09 15:25:30.33	295.92	63.40	-32.5	-33.1	26.9	0.00e+00	0	23	0	775946240	38	5821
2026-01-09 15:25:31.34	294.87	63.36	-32.8	-33.5	27.0	0.00e+00	0	23	0	776994816	38	6046
2026-01-09 15:25:32.35	293.82	63.32	-32.9	-33.6	26.9	0.00e+00	0	23	0	779091968	38	6142
2026-01-09 15:25:33.35	292.79	63.27	-33.1	-33.8	26.8	0.00e+00	0	23	0	781189120	38	6252
2026-01-09 15:25:34.36	291.76	63.21	-33.3	-34.0	26.6	0.00e+00	0	23	0	783286272	38	6452
2026-01-09 15:25:35.37	290.73	63.15	-33.1	-33.8	26.6	0.00e+00	0	23	0	785383424	38	6297
2026-01-09 15:25:36.38	289.70	63.07	-33.2	-33.9	26.8	0.00e+00	0	23	0	787480576	38	6318
2026-01-09 15:25:37.39	288.68	62.99	-33.4	-34.1	26.5	0.00e+00	0	23	0	788529152	38	6538
2026-01-09 15:25:38.40	287.67	62.90	-33.5	-34.2	26.5	0.00e+00	0	23	0	790626304	38	6607
2026-01-09 15:25:39.41	286.67	62.81	-33.9	-34.6	25.8	0.00e+00	0	22	0	792723456	40	6135
2026-01-09 15:25:40.42	285.68	62.70	-33.9	-34.6	26.1	0.00e+00	0	23	0	794820608	40	6143
2026-01-09 15:25:41.43	284.69	62.59	-33.9	-34.6	26.2	0.00e+00	0	23	0	796917760	40	6159
2026-01-09 15:25:42.44	283.71	62.48	-33.8	-34.5	26.1	0.00e+00	0	23	0	797966336	40	6062
2026-01-09 15:25:43.45	282.75	62.35	-33.8	-34.5	26.3	0.00e+00	0	23	0	800063488	40	6079
2026-01-09 15:25:44.46	281.79	62.22	-33.7	-34.5	26.2	0.00e+00	0	23	0	802160640	40	6043
2026-01-09 15:25:45.47	280.84	62.08	-33.7	-34.4	26.2	0.00e+00	0	23	0	804257792	40	6024
2026-01-09 15:25:46.48	279.91	61.94	-33.6	-34.3	26.4	0.00e+00	0	23	0	806354944	40	5929
2026-01-09 15:25:47.49	278.98	61.79	-33.8	-34.5	26.3	0.00e+00	0	23	0	807403520	40	6049
2026-01-09 15:25:48.50	278.07	61.64	-33.7	-34.4	26.2	0.00e+00	0	23	0	809500672	40	6007
2026-01-09 15:25:49.50	277.18	61.48	-33.9	-34.6	26.2	0.00e+00	0	23	0	811597824	40	6167
2026-01-09 15:25:50.51	276.29	61.31	-33.8	-34.6	26.1	0.00e+00	0	23	0	813694976	40	6125
2026-01-09 15:25:51.52	275.41	61.14	-34.3	-35.1	25.8	0.00e+00	0	23	0	815792128	40	6478
2026-01-09 15:25:52.53	274.55	60.96	-34.6	-35.4	25.5	0.00e+00	0	23	0	816840704	40	6737
2026-01-09 15:25:53.54	273.69	60.77	-34.8	-35.6	25.5	0.00e+00	0	23	0	818937856	42	6117
2026-01-09 15:25:54.55	272.85	60.59	-34.7	-35.4	25.5	0.00e+00	0	23	0	821035008	42	6023
2026-01-09 15:25:55.56	272.03	60.39	-34.7	-35.5	25.3	0.00e+00	0	23	0	823132160	42	6068
2026-01-09 15:25:56.57	271.21	60.20	-35.0	-35.8	25.2	0.00e+00	0	23	0	825229312	42	6279
2026-01-09 15:25:57.58	270.41	59.99	-35.6	-36.4	24.8	0.00e+00	0	23	0	826277888	42	6713
2026-01-09 15:25:58.59	269.62	59.79	-36.8	-37.7	23.6	0.00e+00	0	23	0	828375040	44	6963
2026-01-09 15:25:59.60	268.84	59.58	-37.6	-38.7	22.8	0.00e+00	0	23	0	830472192	46	6933
2026-01-09 15:26:00.61	268.08	59.36	-37.9	-39.0	22.5	0.00e+00	0	23	0	832569344	48	6407
2026-01-09 15:26:01.61	267.33	59.14	-38.2	-39.2	22.3	0.00e+00	0	23	0	834666496	48	6573
2026-01-09 15:26:02.62	266.59	58.92	-37.9	-39.0	22.5	0.00e+00	0	23	0	835715072	48	6400
2026-01-09 15:26:03.63	265.87	58.70	-38.1	-39.1	22.3	0.00e+00	0	23	0	837812224	48	6518
2026-01-09 15:26:04.64	265.15	58.47	-38.1	-39.1	22.4	0.00e+00	0	23	0	839909376	48	6519
2026-01-09 15:26:05.65	264.45	58.23	-38.0	-39.1	22.4	0.00e+00	0	23	0	842006528	48	6494
2026-01-09 15:26:06.66	263.76	58.00	-38.4	-39.5	22.0	0.00e+00	0	23	0	844103680	48	6823
2026-01-09 15:26:07.67	263.08	57.76	-38.6	-39.8	21.7	0.00e+00	0	23	0	845152256	48	7030
2026-01-09 15:26:08.68	262.42	57.52	-38.7	-39.8	21.7	0.00e+00	0	23	0	847249408	50	6295
2026-01-09 15:26:09.69	261.76	57.28	-38.4	-39.5	22.0	0.00e+00	0	23	0	849346560	50	6047
2026-01-09 15:26:10.71	261.11	57.03	-37.8	-38.8	22.7	0.00e+00	0	23	0	851443712	50	5617
2026-01-09 15:26:11.72	260.48	56.78	-37.2	-38.1	23.2	0.00e+00	0	23	0	853540864	48	5822
2026-01-09 15:26:12.73	259.86	56.53	-37.4	-38.3	23.1	0.00e+00	0	23	0	855638016	48	5959
2026-01-09 15:26:13.74	259.25	56.28	-37.4	-38.4	23.1	0.00e+00	0	23	0	856686592	48	5978
2026-01-09 15:26:14.74	258.66	56.02	-37.1	-38.0	23.4	0.00e+00	0	23	0	858783744	48	5733
2026-01-09 15:26:15.76	258.07	55.76	-37.0	-38.0	23.5	0.00e+00	0	23	0	860880896	48	5707
2026-01-09 15:26:16.77	257.50	55.51	-36.3	-37.2	24.3	0.00e+00	0	23	0	862978048	46	5876
2026-01-09 15:26:17.78	256.93	55.25	-36.0	-36.8	24.5	0.00e+00	0	23	0	865075200	46	5599
2026-01-09 15:26:18.78	256.38	54.99	-35.7	-36.5	24.5	0.00e+00	0	23	0	866123776	46	5390
2026-01-09 15:26:19.80	255.83	54.72	-35.8	-36.6	24.6	0.00e+00	0	22	0	868220928	44	6153
2026-01-09 15:26:20.80	255.30	54.46	-35.8	-36.6	24.6	0.00e+00	0	23	0	870318080	44	6167
2026-01-09 15:26:21.82	254.77	54.19	-35.6	-36.5	24.7	0.00e+00	0	22	0	872415232	44	6043
2026-01-09 15:26:22.82	254.26	53.93	-35.6	-36.4	24.7	0.00e+00	0	23	0	874512384	44	6020
2026-01-09 15:26:23.83	253.76	53.66	-35.8	-36.6	24.6	0.00e+00	0	22	0	875560960	44	6152
2026-01-09 15:26:24.84	253.26	53.40	-36.1	-37.0	24.3	0.00e+00	0	23	0	877658112	44	6398
2026-01-09 15:26:25.86	252.77	53.13	-36.3	-37.2	24.0	0.00e+00	0	23	0	879755264	44	6588
2026-01-09 15:26:26.87	252.29	52.86	-36.5	-37.4	24.0	0.00e+00	0	23	0	881852416	44	6744
2026-01-09 15:26:27.88	251.82	52.59	-36.6	-37.5	23.8	0.00e+00	0	22	0	883949568	44	6836
2026-01-09 15:26:28.89	251.36	52.32	-36.9	-37.8	23.5	0.00e+00	0	23	0	884998144	46	6315
2026-01-09 15:26:29.90	250.91	52.05	-37.1	-38.0	23.3	0.00e+00	0	22	0	887095296	46	6463
2026-01-09 15:26:30.91	250.46	51.78	-37.3	-38.3	23.1	0.00e+00	0	22	0	889192448	46	6633
2026-01-09 15:26:31.92	250.03	51.50	-37.5	-38.5	22.9	0.00e+00	0	23	0	891289600	46	6777
2026-01-09 15:26:32.93	249.60	51.23	-37.7	-38.6	22.7	0.00e+00	0	23	0	893386752	48	6163
2026-01-09 15:26:33.94	249.18	50.96	-38.1	-39.1	22.5	0.00e+00	0	22	0	894435328	48	6485
2026-01-09 15:26:34.95	248.77	50.69	-38.1	-39.1	22.3	0.00e+00	0	23	0	896532480	48	6496
2026-01-09 15:26:35.96	248.36	50.42	-38.5	-39.5	22.0	0.00e+00	0	22	0	898629632	48	6835
2026-01-09 15:26:36.97	247.96	50.15	-38.9	-40.1	21.5	0.00e+00	0	23	0	900726784	50	6473
2026-01-09 15:26:37.98	247.57	49.88	-38.9	-40.1	21.6	0.00e+00	0	23	0	902823936	50	6483
2026-01-09 15:26:38.99	247.19	49.61	-39.2	-40.4	21.3	0.00e+00	0	23	0	903872512	50	6694
2026-01-09 15:26:39.99	246.81	49.34	-39.5	-40.8	20.9	0.00e+00	0	22	0	905969664	50	7022
2026-01-09 15:26:41.00	246.44	49.07	-39.3	-40.5	21.1	0.00e+00	0	22	0	908066816	50	6841
2026-01-09 15:26:42.01	246.08	48.80	-39.1	-40.3	21.3	0.00e+00	0	22	0	910163968	50	6647
2026-01-09 15:26:43.02	245.72	48.53	-38.7	-39.8	21.6	0.00e+00	0	23	0	912261120	50	6310
2026-01-09 15:26:44.03	245.37	48.26	-38.9	-40.1	21.5	0.00e+00	0	23	0	913309696	50	6487
2026-01-09 15:26:45.04	245.02	47.99	-38.8	-39.9	21.7	0.00e+00	0	22	0	915406848	50	6348
2026-01-09 15:26:46.05	244.68	47.72	-38.3	-39.3	22.3	0.00e+00	0	23	0	917504000	50	5923
2026-01-09 15:26:47.06	244.35	47.45	-37.9	-38.9	22.6	0.00e+00	0	22	0	919601152	50	5689
2026-01-09 15:26:48.07	244.02	47.19	-38.1	-39.2	22.5	0.00e+00	0	22	0	921698304	50	5831
2026-01-09 15:26:49.08	243.70	46.92	-37.9	-38.9	22.7	0.00e+00	0	23	0	922746880	50	5650
2026-01-09 15:26:50.09	243.38	46.66	-37.3	-38.3	23.2	0.00e+00	0	23	0	924844032	48	5919
2026-01-09 15:26:51.10	243.07	46.39	-37.3	-38.2	23.0	0.00e+00	0	22	0	926941184	48	5874
2026-01-09 15:26:52.11	242.77	46.13	-37.6	-38.6	22.9	0.00e+00	0	23	0	929038336	48	6147
2026-01-09 15:26:53.12	242.46	45.86	-37.4	-38.3	23.2	0.00e+00	0	22	0	931135488	48	5964
2026-01-09 15:26:54.13	242.17	45.60	-37.1	-38.0	23.4	0.00e+00	0	23	0	933232640	48	5760
2026-01-09 15:26:55.14	241.88	45.34	-37.0	-38.0	23.5	0.00e+00	0	23	0	934281216	48	5704
2026-01-09 15:26:56.15	241.59	45.08	-37.1	-38.0	23.3	0.00e+00	0	23	0	936378368	48	5742
2026-01-09 15:26:57.16	241.31	44.82	-37.5	-38.5	23.0	0.00e+00	0	23	0	938475520	48	6051
2026-01-09 15:26:58.17	241.03	44.56	-37.8	-38.8	22.7	0.00e+00	0	23	0	940572672	48	6269
2026-01-09 15:26:59.18	240.76	44.30	-37.9	-39.0	22.5	0.00e+00	0	23	0	942669824	48	6428
2026-01-09 15:27:00.19	240.49	44.05	-38.2	-39.3	22.3	0.00e+00	0	23	0	943718400	48	6650
2026-01-09 15:27:01.20	240.23	43.79	-38.4	-39.5	22.1	0.00e+00	0	23	0	945815552	48	6832
2026-01-09 15:27:02.21	239.97	43.53	-38.1	-39.2	22.5	0.00e+00	0	23	0	947912704	48	6544
2026-01-09 15:27:03.22	239.71	43.28	-37.7	-38.7	22.8	0.00e+00	0	22	0	950009856	48	6235
2026-01-09 15:27:04.23	239.46	43.03	-38.0	-39.0	22.6	0.00e+00	0	23	0	952107008	48	6443
2026-01-09 15:27:05.24	239.21	42.78	-38.0	-39.0	22.5	0.00e+00	0	22	0	953155584	48	6409
2026-01-09 15:27:06.24	238.97	42.53	-38.3	-39.4	22.1	0.00e+00	0	22	0	955252736	48	6738
2026-01-09 15:27:07.25	238.73	42.28	-38.4	-39.5	22.1	0.00e+00	0	23	0	957349888	48	6797
2026-01-09 15:27:08.26	238.50	42.03	-39.0	-40.1	21.5	0.00e+00	0	22	0	959447040	50	6518
2026-01-09 15:27:09.27	238.26	41.78	-39.5	-40.7	20.9	0.00e+00	0	23	0	961544192	50	6972
2026-01-09 15:27:10.28	238.03	41.54	-40.2	-41.6	20.0	0.00e+00	0	23	0	962592768	52	6902
2026-01-09 15:27:11.29	237.81	41.29	-40.6	-42.1	19.6	0.00e+00	0	22	0	964689920	52	7284
2026-01-09 15:27:12.30	237.59	41.05	-40.8	-42.3	19.4	0.00e+00	0	23	0	966787072	52	7449
2026-01-09 15:27:13.31	237.37	40.80	-40.5	-42.0	19.7	0.00e+00	0	23	0	968884224	54	6405
2026-01-09 15:27:14.32	237.15	40.56	-40.3	-41.7	20.0	0.00e+00	0	23	0	970981376	54	6211
2026-01-09 15:27:15.33	236.94	40.32	-40.3	-41.7	20.1	0.00e+00	0	23	0	972029952	54	6186
2026-01-09 15:27:16.34	236.73	40.08	-40.7	-42.2	19.5	0.00e+00	0	23	0	974127104	54	6554
2026-01-09 15:27:17.35	236.53	39.84	-40.9	-42.4	19.3	0.00e+00	0	23	0	976224256	54	6757
2026-01-09 15:27:18.36	236.32	39.61	-40.9	-42.4	19.3	0.00e+00	0	23	0	978321408	54	6752
2026-01-09 15:27:19.37	236.12	39.37	-41.0	-42.6	19.2	0.00e+00	0	23	0	980418560	54	6913
2026-01-09 15:27:20.38	235.93	39.14	-40.9	-42.4	19.3	0.00e+00	0	23	0	981467136	54	6743
2026-01-09 15:27:21.38	235.73	38.90	-40.7	-42.3	19.5	0.00e+00	0	23	0	983564288	54	6618
2026-01-09 15:27:22.39	235.54	38.67	-40.8	-42.3	19.4	0.00e+00	0	23	0	985661440	54	6641
2026-01-09 15:27:23.40	235.35	38.44	-40.9	-42.5	19.3	0.00e+00	0	23	0	987758592	54	6791
2026-01-09 15:27:24.41	235.17	38.21	-40.7	-42.3	19.5	0.00e+00	0	23	0	989855744	54	6647
2026-01-09 15:27:25.43	234.98	37.98	-40.9	-42.5	19.3	0.00e+00	0	23	0	990904320	54	6794
2026-01-09 15:27:26.44	234.80	37.75	-40.7	-42.3	19.5	0.00e+00	0	23	0	993001472	54	6636
2026-01-09 15:27:27.45	234.62	37.53	-40.8	-42.4	19.3	0.00e+00	0	23	0	995098624	54	6707
2026-01-09 15:27:28.45	234.45	37.30	-40.6	-42.1	19.7	0.00e+00	0	23	0	997195776	54	6501
2026-01-09 15:27:29.46	234.28	37.08	-40.3	-41.8	20.1	0.00e+00	0	23	0	999292928	54	6256
2026-01-09 15:27:30.48	234.10	36.86	-39.9	-41.2	20.5	0.00e+00	0	23	0	1001390080	54	5871
2026-01-09 15:27:31.49	233.94	36.63	-39.7	-40.9	20.7	0.00e+00	0	23	0	1002438656	52	6388
2026-01-09 15:27:32.49	233.77	36.42	-39.0	-40.1	21.6	0.00e+00	0	23	0	1004535808	52	5811
2026-01-09 15:27:33.50	233.61	36.20	-38.8	-40.0	21.7	0.00e+00	0	23	0	1006632960	52	5700
2026-01-09 15:27:34.51	233.45	35.98	-38.8	-39.9	21.7	0.00e+00	0	23	0	1008730112	52	5688
2026-01-09 15:27:35.52	233.29	35.76	-39.2	-40.4	21.3	0.00e+00	0	23	0	1010827264	52	6022
2026-01-09 15:27:36.53	233.13	35.55	-39.3	-40.5	21.2	0.00e+00	0	23	0	1011875840	52	6089
2026-01-09 15:27:37.54	232.97	35.33	-39.5	-40.8	21.0	0.00e+00	0	23	0	1013972992	52	6283
2026-01-09 15:27:38.55	232.82	35.12	-39.4	-40.6	21.1	0.00e+00	0	23	0	1016070144	52	6138
2026-01-09 15:27:39.56	232.67	34.91	-39.2	-40.4	21.3	0.00e+00	0	23	0	1018167296	52	5997
2026-01-09 15:27:40.58	232.52	34.70	-39.2	-40.4	21.3	0.00e+00	0	23	0	1020264448	52	6005
2026-01-09 15:27:41.59	232.37	34.49	-38.9	-40.1	21.7	0.00e+00	0	23	0	1021313024	52	5779
2026-01-09 15:27:42.60	232.22	34.28	-38.8	-40.0	21.7	0.00e+00	0	23	0	1023410176	52	5698
2026-01-09 15:27:43.61	232.08	34.07	-38.6	-39.7	21.9	0.00e+00	0	23	0	1025507328	50	6191
2026-01-09 15:27:44.62	231.94	33.87	-38.4	-39.5	22.1	0.00e+00	0	23	0	1027604480	50	6070
2026-01-09 15:27:45.63	231.80	33.66	-38.4	-39.4	22.1	0.00e+00	0	23	0	1029701632	50	6031
2026-01-09 15:27:46.64	231.66	33.46	-38.5	-39.6	22.0	0.00e+00	0	23	0	1030750208	50	6151
2026-01-09 15:27:47.65	231.53	33.25	-38.2	-39.3	22.3	0.00e+00	0	23	0	1032847360	50	5899
2026-01-09 15:27:48.66	231.39	33.05	-38.5	-39.6	22.0	0.00e+00	0	23	0	1034944512	50	6145
2026-01-09 15:27:49.67	231.26	32.85	-38.4	-39.4	22.1	0.00e+00	0	23	0	1037041664	50	6030
2026-01-09 15:27:50.68	231.13	32.65	-38.5	-39.6	21.9	0.00e+00	0	23	0	1039138816	50	6154
2026-01-09 15:27:51.69	231.00	32.46	-38.5	-39.6	21.9	0.00e+00	0	23	0	1040187392	50	6141
2026-01-09 15:27:52.70	230.87	32.26	-38.6	-39.7	21.8	0.00e+00	0	23	0	1042284544	50	6214
2026-01-09 15:27:53.70	230.74	32.07	-38.7	-39.8	21.6	0.00e+00	0	23	0	1044381696	50	6314
2026-01-09 15:27:54.71	230.62	31.87	-38.8	-40.0	21.7	0.00e+00	0	23	0	1046478848	50	6400
2026-01-09 15:27:55.72	230.50	31.68	-38.9	-40.1	21.6	0.00e+00	0	23	0	1048576000	50	6487
2026-01-09 15:27:56.73	230.37	31.49	-39.1	-40.2	21.3	0.00e+00	0	23	0	1049624576	50	6611
2026-01-09 15:27:57.74	230.25	31.30	-39.2	-40.3	21.3	0.00e+00	0	23	0	1051721728	50	6692
2026-01-09 15:27:58.75	230.13	31.10	-39.1	-40.3	21.3	0.00e+00	0	23	0	1053818880	50	6673
2026-01-09 15:27:59.76	230.02	30.92	-39.1	-40.3	21.3	0.00e+00	0	23	0	1055916032	50	6648
2026-01-09 15:28:00.77	229.90	30.73	-39.0	-40.2	21.4	0.00e+00	0	23	0	1058013184	50	6551
2026-01-09 15:28:01.78	229.78	30.54	-38.9	-40.1	21.5	0.00e+00	0	23	0	1059061760	50	6477
2026-01-09 15:28:02.79	229.67	30.36	-38.9	-40.0	21.6	0.00e+00	0	23	0	1061158912	50	6434
2026-01-09 15:28:03.79	229.56	30.17	-38.8	-39.9	21.7	0.00e+00	0	23	0	1063256064	50	6360
2026-01-09 15:28:04.81	229.45	29.99	-38.7	-39.8	21.8	0.00e+00	0	23	0	1065353216	50	6276
2026-01-09 15:28:05.82	229.34	29.80	-38.7	-39.8	21.7	0.00e+00	0	22	0	1067450368	50	6303
2026-01-09 15:28:06.83	229.23	29.62	-38.7	-39.8	21.6	0.00e+00	0	23	0	1069547520	50	6312
2026-01-09 15:28:07.84	229.12	29.44	-38.9	-40.0	21.5	0.00e+00	0	22	0	1070596096	50	6431
2026-01-09 15:28:08.85	229.02	29.26	-38.8	-39.9	21.7	0.00e+00	0	23	0	1072693248	50	6361
2026-01-09 15:28:09.86	228.91	29.08	-38.8	-39.9	21.6	0.00e+00	0	23	0	1074790400	50	6385
2026-01-09 15:28:10.87	228.81	28.91	-38.8	-39.9	21.7	0.00e+00	0	23	0	1076887552	50	6322
2026-01-09 15:28:11.87	228.71	28.73	-38.8	-39.9	21.7	0.00e+00	0	23	0	1078984704	50	6363
2026-01-09 15:28:12.89	228.61	28.56	-38.7	-39.8	21.8	0.00e+00	0	23	0	1080033280	50	6301
2026-01-09 15:28:13.90	228.51	28.38	-38.5	-39.5	22.0	0.00e+00	0	23	0	1082130432	50	6078
2026-01-09 15:28:14.91	228.41	28.21	-38.5	-39.6	22.0	0.00e+00	0	23	0	1084227584	50	6148
2026-01-09 15:28:15.91	228.31	28.04	-38.6	-39.6	22.0	0.00e+00	0	23	0	1086324736	50	6158
2026-01-09 15:28:16.92	228.21	27.87	-38.7	-39.8	21.8	0.00e+00	0	23	0	1088421888	50	6271
2026-01-09 15:28:17.93	228.12	27.69	-38.7	-39.8	21.7	0.00e+00	0	23	0	1089470464	50	6304
2026-01-09 15:28:18.95	228.02	27.52	-38.9	-40.1	21.6	0.00e+00	0	23	0	1091567616	50	6481
2026-01-09 15:28:19.96	227.93	27.35	-38.9	-40.0	21.6	0.00e+00	0	23	0	1093664768	50	6451
2026-01-09 15:28:20.97	227.84	27.19	-38.9	-40.0	21.6	0.00e+00	0	23	0	1095761920	50	6447
2026-01-09 15:28:21.98	227.74	27.02	-38.8	-39.9	21.7	0.00e+00	0	23	0	1097859072	50	6336
2026-01-09 15:28:22.99	227.65	26.85	-38.7	-39.8	21.7	0.00e+00	0	23	0	1098907648	50	6315
2026-01-09 15:28:24.00	227.56	26.69	-38.7	-39.8	21.8	0.00e+00	0	23	0	1101004800	50	6312
2026-01-09 15:28:25.01	227.48	26.53	-38.5	-39.6	21.9	0.00e+00	0	23	0	1103101952	50	6157
2026-01-09 15:28:26.02	227.39	26.36	-38.6	-39.7	21.9	0.00e+00	0	23	0	1105199104	50	6211
2026-01-09 15:28:27.03	227.30	26.20	-38.7	-39.8	21.8	0.00e+00	0	23	0	1107296256	50	6309
2026-01-09 15:28:28.04	227.21	26.04	-38.5	-39.6	22.0	0.00e+00	0	23	0	1108344832	50	6132
2026-01-09 15:28:29.05	227.13	25.88	-38.6	-39.7	21.9	0.00e+00	0	23	0	1110441984	50	6241
2026-01-09 15:28:30.06	227.05	25.72	-38.3	-39.4	22.1	0.00e+00	0	23	0	1112539136	50	6002
2026-01-09 15:28:31.07	226.96	25.56	-38.3	-39.4	22.1	0.00e+00	0	23	0	1114636288	50	5969
2026-01-09 15:28:32.08	226.88	25.40	-38.5	-39.6	22.1	0.00e+00	0	23	0	1116733440	50	6120
2026-01-09 15:28:33.08	226.80	25.25	-38.4	-39.5	22.0	0.00e+00	0	23	0	1117782016	50	6068
2026-01-09 15:28:34.09	226.72	25.09	-38.6	-39.8	21.8	0.00e+00	0	23	0	1119879168	50	6259
2026-01-09 15:28:35.10	226.64	24.94	-38.7	-39.8	21.7	0.00e+00	0	23	0	1121976320	50	6300
2026-01-09 15:28:36.11	226.56	24.78	-38.6	-39.7	21.8	0.00e+00	0	23	0	1124073472	50	6235
2026-01-09 15:28:37.12	226.48	24.63	-38.5	-39.6	21.9	0.00e+00	0	23	0	1126170624	50	6146
2026-01-09 15:28:38.13	226.40	24.48	-38.6	-39.7	21.8	0.00e+00	0	23	0	1127219200	50	6207
2026-01-09 15:28:39.14	226.33	24.32	-38.5	-39.6	21.9	0.00e+00	0	23	0	1129316352	50	6139
2026-01-09 15:28:40.15	226.25	24.17	-38.5	-39.7	22.0	0.00e+00	0	23	0	1131413504	50	6177
2026-01-09 15:28:41.16	226.17	24.02	-38.4	-39.5	22.0	0.00e+00	0	23	0	1133510656	50	6095
2026-01-09 15:28:42.17	226.10	23.87	-38.4	-39.6	21.9	0.00e+00	0	23	0	1135607808	50	6116
2026-01-09 15:28:43.18	226.03	23.72	-38.3	-39.5	22.1	0.00e+00	0	23	0	1137704960	50	6053
2026-01-09 15:28:44.19	225.95	23.58	-38.4	-39.5	22.0	0.00e+00	0	23	0	1138753536	50	6057
2026-01-09 15:28:45.20	225.88	23.43	-38.3	-39.4	22.1	0.00e+00	0	23	0	1140850688	50	5999
2026-01-09 15:28:46.21	225.81	23.28	-38.2	-39.3	22.2	0.00e+00	0	23	0	1142947840	50	5927
2026-01-09 15:28:47.22	225.74	23.14	-38.2	-39.3	22.2	0.00e+00	0	23	0	1145044992	50	5915
2026-01-09 15:28:48.23	225.67	22.99	-38.3	-39.4	22.1	0.00e+00	0	23	0	1147142144	50	6021
2026-01-09 15:28:49.24	225.60	22.85	-38.1	-39.2	22.3	0.00e+00	0	23	0	1148190720	50	5880
2026-01-09 15:28:50.25	225.53	22.71	-38.1	-39.2	22.4	0.00e+00	0	23	0	1150287872	50	5830
2026-01-09 15:28:51.26	225.46	22.56	-37.9	-39.0	22.5	0.00e+00	0	23	0	1152385024	50	5727
2026-01-09 15:28:52.27	225.39	22.42	-37.9	-38.9	22.5	0.00e+00	0	23	0	1154482176	50	5686
2026-01-09 15:28:53.27	225.33	22.28	-37.9	-39.0	22.4	0.00e+00	0	23	0	1156579328	50	5710
2026-01-09 15:28:54.28	225.26	22.14	-38.0	-39.1	22.3	0.00e+00	0	23	0	1157627904	50	5821
2026-01-09 15:28:55.30	225.19	22.00	-38.1	-39.2	22.2	0.00e+00	0	23	0	1159725056	50	5890
2026-01-09 15:28:56.30	225.13	21.86	-38.0	-39.2	22.3	0.00e+00	0	23	0	1161822208	50	5833
2026-01-09 15:28:57.31	225.07	21.73	-38.0	-39.1	22.2	0.00e+00	0	23	0	1163919360	50	5812
2026-01-09 15:28:58.32	225.00	21.59	-38.0	-39.1	22.3	0.00e+00	0	23	0	1166016512	50	5783
2026-01-09 15:28:59.33	224.94	21.45	-37.9	-39.0	22.4	0.00e+00	0	23	0	1167065088	50	5755
2026-01-09 15:29:00.34	224.88	21.32	-37.9	-39.0	22.4	0.00e+00	0	23	0	1169162240	50	5724
2026-01-09 15:29:01.35	224.81	21.18	-38.0	-39.2	22.3	0.00e+00	0	23	0	1171259392	50	5840
2026-01-09 15:29:02.36	224.75	21.05	-38.0	-39.1	22.3	0.00e+00	0	23	0	1173356544	50	5820
2026-01-09 15:29:03.37	224.69	20.91	-37.7	-38.7	22.6	0.00e+00	0	23	0	1175453696	48	6243
2026-01-09 15:29:04.38	224.63	20.78	-37.5	-38.6	22.8	0.00e+00	0	23	0	1176502272	48	6153
2026-01-09 15:29:05.39	224.57	20.65	-37.5	-38.5	22.7	0.00e+00	0	23	0	1178599424	48	6096
2026-01-09 15:29:06.40	224.51	20.51	-37.5	-38.5	22.8	0.00e+00	0	23	0	1180696576	48	6078
2026-01-09 15:29:07.41	224.45	20.38	-37.3	-38.4	22.9	0.00e+00	0	23	0	1182793728	48	5991
2026-01-09 15:29:08.42	224.39	20.25	-37.5	-38.5	22.8	0.00e+00	0	23	0	1184890880	48	6100
2026-01-09 15:29:09.43	224.34	20.12	-37.3	-38.4	22.9	0.00e+00	0	23	0	1185939456	48	5990
2026-01-09 15:29:10.44	224.28	19.99	-37.3	-38.3	23.0	0.00e+00	0	23	0	1188036608	48	5926
2026-01-09 15:29:11.45	224.22	19.86	-37.3	-38.3	23.0	0.00e+00	0	23	0	1190133760	48	5940
2026-01-09 15:29:12.46	224.17	19.74	-37.2	-38.2	23.0	0.00e+00	0	23	0	1192230912	48	5891
2026-01-09 15:29:13.47	224.11	19.61	-37.1	-38.1	23.2	0.00e+00	0	23	0	1194328064	48	5811
2026-01-09 15:29:14.48	224.05	19.48	-37.2	-38.2	22.8	0.00e+00	0	23	0	1195376640	48	5853
2026-01-09 15:29:15.49	224.00	19.36	-37.3	-38.3	22.8	0.00e+00	0	23	0	1197473792	48	5916
2026-01-09 15:29:16.50	223.94	19.23	-37.4	-38.4	22.8	0.00e+00	0	23	0	1199570944	48	6033
2026-01-09 15:29:17.50	223.89	19.11	-37.1	-38.1	23.0	0.00e+00	0	23	0	1201668096	48	5794
2026-01-09 15:29:18.51	223.84	18.98	-37.0	-38.0	23.2	0.00e+00	0	23	0	1203765248	48	5725
2026-01-09 15:29:19.52	223.78	18.86	-37.1	-38.1	23.2	0.00e+00	0	23	0	1205862400	48	5822
2026-01-09 15:29:20.53	223.73	18.73	-37.0	-38.0	23.3	0.00e+00	0	23	0	1206910976	48	5718
2026-01-09 15:29:21.54	223.68	18.61	-36.9	-37.9	23.3	0.00e+00	0	23	0	1209008128	48	5672
2026-01-09 15:29:22.55	223.63	18.49	-36.9	-37.8	23.5	0.00e+00	0	23	0	1211105280	48	5622
