passes_logs/2026/01/09/R4.6S_Anadyr/R4.6S_Anadyr__20260109_053752_FENGYUN_3E_rec.log

#Pass ID: 20260109_053752_FENGYUN 3E
#Satellite: FENGYUN 3E
#Configuration: FENGYUN 3E
#almurnet v.1.7.20251203
#Start time: 2026-01-09 05:37:53

#Version: 2.2.20231116
#Station: R4.6S_Anadyr
#Location: 177.4865 lon 64.73178 lat
#TLE: 1 49008U 21062A   26008.31124991 -.00000020  00000+0  11209-4 0  9997
#TLE: 2 49008  98.7482  13.5177 0001702 150.1462 209.9812 14.19884205233892

#Time	Az	El	Level	Level2	SNR	BER	BlckErr	Temp	State	Recorded	gain1	gain2
2026-01-09 05:37:53.80	185.06	0.07	-48.1	-65.8	3.5	3.02e+01	0	28	0	0	60	75308
2026-01-09 05:37:54.80	185.10	0.13	-47.7	-59.0	3.6	8.46e-01	0	29	104	0	60	32286
2026-01-09 05:37:55.81	185.14	0.19	-47.6	-59.0	3.6	8.46e-01	0	29	104	0	60	32315
2026-01-09 05:37:56.82	185.18	0.25	-47.7	-59.0	3.6	8.44e-01	0	29	104	0	60	32315
2026-01-09 05:37:57.83	185.22	0.31	-47.6	-59.0	3.6	8.45e-01	0	29	104	0	60	32330
2026-01-09 05:37:58.84	185.25	0.37	-47.7	-59.2	3.6	8.44e-01	0	29	104	0	60	32825
2026-01-09 05:37:59.85	185.29	0.43	-47.7	-59.1	3.6	8.44e-01	0	29	104	0	60	32663
2026-01-09 05:38:00.86	185.33	0.48	-47.8	-59.0	3.6	8.44e-01	0	29	104	0	60	32305
2026-01-09 05:38:01.87	185.37	0.54	-47.8	-59.0	3.6	8.46e-01	0	29	104	0	60	32296
2026-01-09 05:38:02.88	185.41	0.60	-47.7	-59.0	3.6	8.45e-01	0	29	104	0	60	32361
2026-01-09 05:38:03.89	185.45	0.66	-47.7	-59.0	3.6	8.45e-01	0	29	104	0	60	32031
2026-01-09 05:38:04.89	185.49	0.72	-47.6	-58.8	3.6	8.46e-01	0	29	104	0	60	31573
2026-01-09 05:38:05.90	185.52	0.78	-47.3	-58.6	3.6	8.44e-01	0	29	104	0	60	30837
2026-01-09 05:38:06.92	185.56	0.84	-47.1	-58.3	3.6	8.45e-01	0	29	104	0	60	29718
2026-01-09 05:38:07.93	185.60	0.90	-46.7	-57.9	3.6	8.46e-01	0	29	104	0	60	28384
2026-01-09 05:38:08.94	185.64	0.96	-46.4	-57.3	3.6	8.46e-01	0	29	104	0	60	26354
2026-01-09 05:38:09.95	185.68	1.02	-46.3	-57.3	3.6	8.44e-01	0	29	104	0	60	26563
2026-01-09 05:38:10.95	185.72	1.08	-46.4	-57.3	3.6	8.45e-01	0	29	104	0	60	26552
2026-01-09 05:38:11.97	185.76	1.14	-46.4	-57.3	3.6	8.46e-01	0	29	104	0	60	26615
2026-01-09 05:38:12.97	185.80	1.20	-46.4	-57.4	3.6	8.46e-01	0	29	104	0	60	26920
2026-01-09 05:38:13.98	185.84	1.26	-46.3	-57.5	3.6	8.44e-01	0	29	104	0	60	27070
2026-01-09 05:38:14.99	185.88	1.32	-46.4	-57.5	3.6	8.46e-01	0	29	104	0	60	27098
2026-01-09 05:38:16.00	185.92	1.38	-46.3	-57.5	3.6	8.45e-01	0	30	104	0	60	27042
2026-01-09 05:38:17.01	185.97	1.44	-46.3	-57.5	3.6	8.45e-01	0	29	104	0	60	27030
2026-01-09 05:38:18.03	186.01	1.50	-46.3	-57.5	3.6	8.45e-01	0	30	104	0	60	27029
2026-01-09 05:38:19.03	186.05	1.56	-46.3	-57.5	3.5	8.45e-01	0	30	104	0	60	27177
2026-01-09 05:38:20.04	186.09	1.62	-46.3	-57.4	3.6	8.45e-01	0	30	104	0	60	26909
2026-01-09 05:38:21.05	186.13	1.68	-46.3	-57.3	3.6	8.46e-01	0	30	104	0	60	26507
2026-01-09 05:38:22.06	186.17	1.75	-46.3	-57.2	3.6	8.45e-01	0	29	104	0	60	26166
2026-01-09 05:38:23.07	186.21	1.81	-46.3	-57.2	3.6	8.46e-01	0	29	104	0	60	26059
2026-01-09 05:38:24.08	186.26	1.87	-46.3	-57.1	3.6	8.46e-01	0	30	104	0	60	25904
2026-01-09 05:38:25.09	186.30	1.93	-46.3	-57.1	3.6	8.45e-01	0	29	104	0	60	25919
2026-01-09 05:38:26.10	186.34	1.99	-46.3	-57.2	3.6	8.45e-01	0	30	104	0	60	26211
2026-01-09 05:38:27.11	186.38	2.05	-46.3	-57.4	3.6	8.46e-01	0	30	104	0	60	26754
2026-01-09 05:38:28.12	186.42	2.12	-46.3	-57.4	3.6	8.45e-01	0	30	104	0	60	26656
2026-01-09 05:38:29.13	186.47	2.18	-46.3	-57.3	3.6	8.45e-01	0	30	104	0	60	26570
2026-01-09 05:38:30.14	186.51	2.24	-46.3	-57.1	3.6	8.45e-01	0	30	104	0	60	26030
2026-01-09 05:38:31.15	186.55	2.30	-46.3	-57.2	3.6	8.45e-01	0	30	104	0	60	26092
2026-01-09 05:38:32.16	186.60	2.37	-46.3	-57.4	3.6	8.44e-01	0	30	104	0	60	26650
2026-01-09 05:38:33.17	186.64	2.43	-46.3	-57.5	3.6	8.45e-01	0	30	104	0	60	27205
2026-01-09 05:38:34.18	186.68	2.49	-46.3	-57.4	3.6	8.46e-01	0	30	104	0	60	26784
2026-01-09 05:38:35.19	186.73	2.55	-46.3	-57.0	3.6	8.44e-01	0	30	104	0	60	25551
2026-01-09 05:38:36.20	186.77	2.62	-46.1	-55.8	3.6	8.45e-01	0	30	104	0	60	22412
2026-01-09 05:38:37.21	186.82	2.68	-46.1	-55.4	3.7	8.45e-01	0	30	104	0	60	21182
2026-01-09 05:38:38.22	186.86	2.74	-46.1	-55.6	3.6	8.44e-01	0	30	104	0	60	21698
2026-01-09 05:38:39.23	186.90	2.81	-46.1	-55.8	3.6	8.44e-01	0	30	104	0	60	22175
2026-01-09 05:38:40.24	186.95	2.87	-46.2	-56.2	3.6	8.45e-01	0	30	104	0	60	23245
2026-01-09 05:38:41.25	186.99	2.93	-45.8	-53.4	4.3	8.39e-01	0	30	104	0	60	16836
2026-01-09 05:38:42.26	187.04	3.00	-44.4	-47.9	7.8	2.14e-01	0	30	0	3145728	60	9006
2026-01-09 05:38:43.27	187.08	3.06	-42.5	-44.7	12.0	2.49e-03	0	30	0	10485760	60	6182
2026-01-09 05:38:44.28	187.13	3.13	-40.4	-41.9	14.7	1.14e-05	0	30	0	17825792	54	6334
2026-01-09 05:38:45.28	187.17	3.19	-38.3	-39.3	17.2	0.00e+00	0	30	0	25165824	50	5924
2026-01-09 05:38:46.29	187.22	3.25	-36.3	-37.1	19.3	0.00e+00	0	30	0	32505856	46	5820
2026-01-09 05:38:47.30	187.27	3.32	-35.8	-36.5	19.9	0.00e+00	0	30	0	39845888	46	5419
2026-01-09 05:38:48.31	187.31	3.38	-35.0	-35.7	20.6	0.00e+00	0	30	0	47185920	44	5547
2026-01-09 05:38:49.32	187.36	3.45	-34.5	-35.2	21.1	0.00e+00	0	30	0	54525952	44	5222
2026-01-09 05:38:50.33	187.40	3.51	-34.1	-34.8	21.5	0.00e+00	0	30	0	61865984	42	5572
2026-01-09 05:38:51.34	187.45	3.58	-34.8	-35.5	20.7	0.00e+00	0	30	0	69206016	42	6061
2026-01-09 05:38:52.35	187.50	3.64	-35.1	-35.8	20.5	0.00e+00	0	30	0	76546048	42	6311
2026-01-09 05:38:53.35	187.54	3.71	-38.0	-39.0	16.8	0.00e+00	0	30	0	82837504	46	7222
2026-01-09 05:38:54.36	187.59	3.77	-42.3	-44.5	14.1	8.28e-01	0	30	104	87031808	60	6094
2026-01-09 05:38:55.37	187.64	3.84	-36.5	-37.2	19.3	0.00e+00	0	30	0	89128960	46	5887
2026-01-09 05:38:56.38	187.69	3.90	-35.4	-36.0	21.0	0.00e+00	0	30	0	96468992	48	4573
2026-01-09 05:38:57.39	187.73	3.97	-41.1	-42.6	14.7	2.44e-02	0	30	0	103809024	58	5472
2026-01-09 05:38:58.40	187.78	4.04	-34.0	-34.6	21.8	0.00e+00	0	30	0	110100480	42	5475
2026-01-09 05:38:59.41	187.83	4.10	-34.3	-34.9	21.5	0.00e+00	0	30	0	117440512	42	5676
2026-01-09 05:39:00.42	187.88	4.17	-34.2	-34.8	21.6	0.00e+00	0	30	0	125829120	42	5600
2026-01-09 05:39:01.43	187.93	4.24	-33.6	-34.2	22.3	0.00e+00	0	30	0	132120576	40	5854
2026-01-09 05:39:02.44	187.98	4.30	-33.7	-34.3	22.2	0.00e+00	0	30	0	139460608	40	5915
2026-01-09 05:39:03.45	188.03	4.37	-33.4	-34.0	22.6	0.00e+00	0	30	0	146800640	40	5712
2026-01-09 05:39:04.46	188.08	4.44	-33.1	-33.7	22.8	0.00e+00	0	30	0	154140672	40	5540
2026-01-09 05:39:05.46	188.12	4.50	-33.3	-33.9	22.6	0.00e+00	0	30	0	161480704	38	6375
2026-01-09 05:39:06.47	188.17	4.57	-33.4	-34.0	22.5	0.00e+00	0	30	0	168820736	38	6447
2026-01-09 05:39:07.48	188.22	4.64	-33.2	-33.8	22.8	0.00e+00	0	30	0	176160768	38	6246
2026-01-09 05:39:08.49	188.27	4.70	-33.0	-33.5	23.0	0.00e+00	0	30	0	183500800	38	6093
2026-01-09 05:39:09.50	188.32	4.77	-32.9	-33.5	23.1	0.00e+00	0	30	0	190840832	38	6086
2026-01-09 05:39:10.51	188.37	4.84	-32.9	-33.5	23.1	0.00e+00	0	30	0	198180864	38	6087
2026-01-09 05:39:11.52	188.43	4.91	-33.1	-33.7	23.0	0.00e+00	0	30	0	205520896	38	6178
2026-01-09 05:39:12.53	188.48	4.98	-32.9	-33.5	23.1	0.00e+00	0	30	0	212860928	38	6055
2026-01-09 05:39:13.54	188.53	5.04	-33.0	-33.6	23.1	0.00e+00	0	30	0	220200960	38	6138
2026-01-09 05:39:14.55	188.58	5.11	-32.9	-33.5	23.2	0.00e+00	0	30	0	227540992	38	6047
2026-01-09 05:39:15.56	188.63	5.18	-32.9	-33.5	23.2	0.00e+00	0	30	0	233832448	38	6041
2026-01-09 05:39:16.57	188.68	5.25	-32.7	-33.2	23.4	0.00e+00	0	30	0	242221056	38	5896
2026-01-09 05:39:17.58	188.73	5.32	-32.7	-33.3	23.4	0.00e+00	0	30	0	249561088	38	5913
2026-01-09 05:39:18.59	188.79	5.39	-32.5	-33.1	23.5	0.00e+00	0	30	0	255852544	38	5800
2026-01-09 05:39:19.60	188.84	5.46	-32.5	-33.1	23.5	0.00e+00	0	30	0	263192576	38	5799
2026-01-09 05:39:20.61	188.89	5.53	-32.8	-33.3	23.3	0.00e+00	0	30	0	270532608	38	5954
2026-01-09 05:39:21.61	188.94	5.60	-32.5	-33.1	23.5	0.00e+00	0	30	0	277872640	38	5801
2026-01-09 05:39:22.63	189.00	5.67	-32.5	-33.1	23.6	0.00e+00	0	30	0	285212672	38	5763
2026-01-09 05:39:23.63	189.05	5.74	-32.6	-33.2	23.6	0.00e+00	0	30	0	292552704	38	5833
2026-01-09 05:39:24.64	189.11	5.81	-32.5	-33.1	23.5	0.00e+00	0	30	0	299892736	38	5763
2026-01-09 05:39:25.65	189.16	5.88	-32.5	-33.1	23.6	0.00e+00	0	30	0	307232768	38	5787
2026-01-09 05:39:26.66	189.21	5.95	-32.5	-33.1	23.7	0.00e+00	0	30	0	314572800	38	5773
2026-01-09 05:39:27.67	189.27	6.02	-32.5	-33.0	23.7	0.00e+00	0	30	0	321912832	38	5742
2026-01-09 05:39:28.68	189.32	6.09	-32.5	-33.0	23.7	0.00e+00	0	30	0	329252864	38	5759
2026-01-09 05:39:29.69	189.38	6.16	-32.3	-32.9	23.8	0.00e+00	0	30	0	336592896	38	5656
2026-01-09 05:39:30.70	189.43	6.23	-32.2	-32.8	23.9	0.00e+00	0	30	0	343932928	38	5585
2026-01-09 05:39:31.71	189.49	6.30	-32.3	-32.8	23.9	0.00e+00	0	30	0	351272960	38	5625
2026-01-09 05:39:32.72	189.54	6.37	-32.3	-32.9	23.8	0.00e+00	0	30	0	358612992	38	5652
2026-01-09 05:39:33.73	189.60	6.44	-32.3	-32.8	23.9	0.00e+00	0	30	0	365953024	38	5599
2026-01-09 05:39:34.74	189.66	6.52	-32.3	-32.8	24.0	0.00e+00	0	30	0	373293056	38	5604
2026-01-09 05:39:35.75	189.71	6.59	-32.3	-32.9	24.0	0.00e+00	0	30	0	380633088	38	5648
2026-01-09 05:39:36.76	189.77	6.66	-32.2	-32.7	24.0	0.00e+00	0	30	0	387973120	38	5529
2026-01-09 05:39:37.77	189.83	6.73	-32.3	-32.9	24.0	0.00e+00	0	30	0	395313152	38	5647
2026-01-09 05:39:38.78	189.88	6.81	-32.3	-32.8	23.9	0.00e+00	0	30	0	402653184	38	5601
2026-01-09 05:39:39.78	189.94	6.88	-32.3	-32.9	23.9	0.00e+00	0	30	0	408944640	38	5657
2026-01-09 05:39:40.79	190.00	6.95	-32.2	-32.7	24.0	0.00e+00	0	30	0	416284672	38	5550
2026-01-09 05:39:41.80	190.06	7.02	-32.2	-32.8	23.9	0.00e+00	0	30	0	423624704	36	6260
2026-01-09 05:39:42.81	190.12	7.10	-32.2	-32.8	24.0	0.00e+00	0	30	0	430964736	36	6262
2026-01-09 05:39:43.83	190.17	7.17	-32.1	-32.7	24.1	0.00e+00	0	30	0	438304768	36	6183
2026-01-09 05:39:44.83	190.23	7.24	-32.0	-32.5	24.2	0.00e+00	0	30	0	445644800	36	6088
2026-01-09 05:39:45.84	190.29	7.32	-32.1	-32.7	24.2	0.00e+00	0	30	0	452984832	36	6199
2026-01-09 05:39:46.85	190.35	7.39	-32.2	-32.7	24.0	0.00e+00	0	30	0	460324864	36	6218
2026-01-09 05:39:47.86	190.41	7.47	-32.1	-32.6	24.2	0.00e+00	0	30	0	467664896	36	6139
2026-01-09 05:39:48.87	190.47	7.54	-32.1	-32.6	24.2	0.00e+00	0	30	0	475004928	36	6160
2026-01-09 05:39:49.88	190.53	7.62	-32.1	-32.6	24.2	0.00e+00	0	30	0	482344960	36	6152
2026-01-09 05:39:50.89	190.59	7.69	-31.9	-32.5	24.3	0.00e+00	0	30	0	489684992	36	6056
2026-01-09 05:39:51.90	190.65	7.77	-32.0	-32.5	24.4	0.00e+00	0	30	0	497025024	36	6071
2026-01-09 05:39:52.91	190.72	7.84	-32.0	-32.5	24.4	0.00e+00	0	30	0	504365056	36	6070
2026-01-09 05:39:53.92	190.78	7.92	-32.1	-32.6	24.2	0.00e+00	0	30	0	511705088	36	6171
2026-01-09 05:39:54.93	190.84	7.99	-32.1	-32.6	24.2	0.00e+00	0	30	0	519045120	36	6150
2026-01-09 05:39:55.94	190.90	8.07	-31.9	-32.5	24.4	0.00e+00	0	30	0	526385152	36	6036
2026-01-09 05:39:56.95	190.96	8.14	-32.0	-32.5	24.3	0.00e+00	0	30	0	532676608	36	6068
2026-01-09 05:39:57.95	191.03	8.22	-32.1	-32.7	24.2	0.00e+00	0	30	0	540016640	36	6180
2026-01-09 05:39:58.96	191.09	8.30	-32.0	-32.5	24.3	0.00e+00	0	30	0	548405248	36	6091
2026-01-09 05:39:59.97	191.15	8.37	-32.2	-32.7	24.4	0.00e+00	0	30	0	554696704	36	6203
2026-01-09 05:40:00.98	191.22	8.45	-32.3	-32.9	24.1	0.00e+00	0	30	0	562036736	36	6318
2026-01-09 05:40:01.99	191.28	8.53	-32.0	-32.6	24.3	0.00e+00	0	30	0	569376768	36	6129
2026-01-09 05:40:03.00	191.34	8.60	-32.0	-32.5	24.3	0.00e+00	0	30	0	576716800	36	6085
2026-01-09 05:40:04.01	191.41	8.68	-32.0	-32.5	24.4	0.00e+00	0	30	0	584056832	36	6065
2026-01-09 05:40:05.02	191.47	8.76	-31.9	-32.5	24.4	0.00e+00	0	30	0	591396864	36	6055
2026-01-09 05:40:06.03	191.54	8.84	-31.9	-32.4	24.5	0.00e+00	0	30	0	598736896	36	5999
2026-01-09 05:40:07.04	191.60	8.91	-31.8	-32.3	24.5	0.00e+00	0	30	0	606076928	36	5944
2026-01-09 05:40:08.05	191.67	8.99	-31.8	-32.3	24.5	0.00e+00	0	30	0	613416960	36	5935
2026-01-09 05:40:09.06	191.74	9.07	-31.8	-32.3	24.6	0.00e+00	0	30	0	620756992	36	5946
2026-01-09 05:40:10.07	191.80	9.15	-31.7	-32.2	24.7	0.00e+00	0	30	0	628097024	36	5887
2026-01-09 05:40:11.08	191.87	9.23	-31.8	-32.4	24.5	0.00e+00	0	30	0	635437056	36	5985
2026-01-09 05:40:12.09	191.94	9.31	-31.7	-32.2	24.6	0.00e+00	0	30	0	642777088	36	5871
2026-01-09 05:40:13.10	192.01	9.39	-31.9	-32.5	24.8	0.00e+00	0	30	0	650117120	36	6045
2026-01-09 05:40:14.11	192.07	9.47	-31.6	-32.2	24.8	0.00e+00	0	30	0	657457152	36	5842
2026-01-09 05:40:15.12	192.14	9.55	-31.6	-32.1	24.8	0.00e+00	0	30	0	664797184	36	5823
2026-01-09 05:40:16.13	192.21	9.63	-31.8	-32.3	24.7	0.00e+00	0	30	0	672137216	36	5917
2026-01-09 05:40:17.14	192.28	9.71	-31.7	-32.2	24.8	0.00e+00	0	30	0	679477248	36	5867
2026-01-09 05:40:18.15	192.35	9.79	-31.7	-32.2	24.7	0.00e+00	0	30	0	685768704	36	5888
2026-01-09 05:40:19.16	192.42	9.87	-31.5	-32.0	24.9	0.00e+00	0	30	0	693108736	36	5731
2026-01-09 05:40:20.17	192.49	9.95	-31.6	-32.1	24.8	0.00e+00	0	30	0	701497344	36	5811
2026-01-09 05:40:21.18	192.56	10.03	-31.5	-32.0	24.9	0.00e+00	0	30	0	707788800	36	5744
2026-01-09 05:40:22.19	192.63	10.11	-31.4	-31.9	25.1	0.00e+00	0	30	0	715128832	36	5663
2026-01-09 05:40:23.20	192.70	10.19	-31.7	-32.2	24.8	0.00e+00	0	30	0	722468864	36	5854
2026-01-09 05:40:24.21	192.77	10.28	-31.5	-32.0	24.9	0.00e+00	0	30	0	729808896	36	5753
2026-01-09 05:40:25.22	192.85	10.36	-31.4	-31.9	25.1	0.00e+00	0	30	0	737148928	36	5693
2026-01-09 05:40:26.23	192.92	10.44	-31.5	-32.0	24.9	0.00e+00	0	30	0	744488960	36	5724
2026-01-09 05:40:27.24	192.99	10.52	-31.5	-32.1	24.9	0.00e+00	0	30	0	751828992	36	5768
2026-01-09 05:40:28.25	193.06	10.61	-31.3	-31.9	25.0	0.00e+00	0	30	0	759169024	36	5640
2026-01-09 05:40:29.26	193.14	10.69	-31.3	-31.9	25.1	0.00e+00	0	30	0	766509056	36	5632
2026-01-09 05:40:30.27	193.21	10.77	-31.6	-32.1	24.9	0.00e+00	0	30	0	773849088	36	5816
2026-01-09 05:40:31.28	193.29	10.86	-31.2	-31.7	25.2	0.00e+00	0	30	0	781189120	36	5558
2026-01-09 05:40:32.29	193.36	10.94	-31.1	-31.6	25.3	0.00e+00	0	30	0	788529152	36	5462
2026-01-09 05:40:33.30	193.44	11.02	-31.0	-31.5	25.3	0.00e+00	0	30	0	795869184	36	5434
2026-01-09 05:40:34.31	193.51	11.11	-30.9	-31.5	25.2	0.00e+00	0	30	0	803209216	36	5388
2026-01-09 05:40:35.31	193.59	11.19	-30.9	-31.5	25.5	0.00e+00	0	30	0	810549248	36	5379
2026-01-09 05:40:36.32	193.66	11.28	-31.0	-31.5	25.5	0.00e+00	0	30	0	817889280	36	5383
2026-01-09 05:40:37.33	193.74	11.36	-30.9	-31.4	25.5	0.00e+00	0	30	0	825229312	36	5341
2026-01-09 05:40:38.34	193.82	11.45	-31.0	-31.5	25.4	0.00e+00	0	30	0	832569344	36	5392
2026-01-09 05:40:39.35	193.90	11.53	-30.4	-30.9	25.4	0.00e+00	0	30	0	838860800	34	5682
2026-01-09 05:40:40.36	193.97	11.62	-30.6	-31.1	25.7	0.00e+00	0	30	0	847249408	34	5817
2026-01-09 05:40:41.37	194.05	11.71	-30.7	-31.2	25.7	0.00e+00	0	30	0	853540864	34	5852
2026-01-09 05:40:42.38	194.13	11.79	-30.7	-31.2	25.7	0.00e+00	0	30	0	860880896	34	5835
2026-01-09 05:40:43.39	194.21	11.88	-30.6	-31.1	25.8	0.00e+00	0	30	0	868220928	34	5779
2026-01-09 05:40:44.40	194.29	11.96	-30.7	-31.1	25.6	0.00e+00	0	30	0	875560960	34	5827
2026-01-09 05:40:45.41	194.37	12.05	-30.6	-31.1	25.8	0.00e+00	0	30	0	882900992	34	5773
2026-01-09 05:40:46.42	194.45	12.14	-30.5	-31.0	25.8	0.00e+00	0	30	0	890241024	34	5724
2026-01-09 05:40:47.43	194.53	12.23	-30.5	-31.0	25.9	0.00e+00	0	30	0	897581056	34	5696
2026-01-09 05:40:48.43	194.61	12.31	-30.7	-31.2	25.7	0.00e+00	0	30	0	904921088	34	5848
2026-01-09 05:40:49.44	194.70	12.40	-30.4	-30.9	26.0	0.00e+00	0	30	0	912261120	34	5659
2026-01-09 05:40:50.45	194.78	12.49	-30.4	-30.9	25.9	0.00e+00	0	30	0	919601152	34	5676
2026-01-09 05:40:51.46	194.86	12.58	-30.5	-31.0	25.9	0.00e+00	0	30	0	926941184	34	5702
2026-01-09 05:40:52.47	194.95	12.67	-30.4	-30.9	25.9	0.00e+00	0	30	0	934281216	34	5663
2026-01-09 05:40:53.48	195.03	12.76	-30.5	-31.0	25.9	0.00e+00	0	30	0	941621248	34	5744
2026-01-09 05:40:54.49	195.12	12.85	-30.6	-31.1	25.8	0.00e+00	0	30	0	948961280	34	5774
2026-01-09 05:40:55.50	195.20	12.94	-30.8	-31.3	25.8	0.00e+00	0	30	0	956301312	34	5929
2026-01-09 05:40:56.51	195.29	13.03	-30.6	-31.1	25.8	0.00e+00	0	30	0	963641344	34	5817
2026-01-09 05:40:57.52	195.37	13.12	-30.7	-31.2	25.8	0.00e+00	0	30	0	970981376	34	5836
2026-01-09 05:40:58.53	195.46	13.21	-30.7	-31.2	25.8	0.00e+00	0	30	0	978321408	34	5840
2026-01-09 05:40:59.54	195.55	13.30	-30.5	-31.0	25.9	0.00e+00	0	30	0	984612864	34	5710
2026-01-09 05:41:00.55	195.63	13.39	-30.7	-31.2	25.9	0.00e+00	0	30	0	991952896	34	5841
2026-01-09 05:41:01.56	195.72	13.48	-30.5	-31.0	25.9	0.00e+00	0	30	0	999292928	34	5746
2026-01-09 05:41:02.57	195.81	13.57	-30.5	-31.0	25.9	0.00e+00	0	30	0	1006632960	34	5731
2026-01-09 05:41:03.57	195.90	13.67	-30.5	-31.0	25.9	0.00e+00	0	30	0	1013972992	34	5730
2026-01-09 05:41:04.58	195.99	13.76	-30.6	-31.1	26.0	0.00e+00	0	30	0	1021313024	34	5764
2026-01-09 05:41:05.59	196.08	13.85	-30.8	-31.3	25.9	0.00e+00	0	30	0	1028653056	34	5934
2026-01-09 05:41:06.60	196.17	13.94	-30.6	-31.1	25.8	0.00e+00	0	30	0	1035993088	34	5811
2026-01-09 05:41:07.61	196.26	14.04	-30.5	-31.0	26.0	0.00e+00	0	30	0	1043333120	34	5724
2026-01-09 05:41:08.62	196.35	14.13	-30.5	-31.0	26.0	0.00e+00	0	30	0	1050673152	34	5735
2026-01-09 05:41:09.63	196.45	14.22	-30.4	-30.9	26.0	0.00e+00	0	30	0	1058013184	34	5651
2026-01-09 05:41:10.64	196.54	14.32	-30.4	-30.9	26.3	0.00e+00	0	30	0	1065353216	34	5636
2026-01-09 05:41:11.65	196.63	14.41	-30.3	-30.8	26.1	0.00e+00	0	30	0	1072693248	34	5616
2026-01-09 05:41:12.66	196.73	14.51	-30.2	-30.7	26.1	0.00e+00	0	30	0	1080033280	34	5507
2026-01-09 05:41:13.67	196.82	14.60	-30.2	-30.7	26.2	0.00e+00	0	30	0	1087373312	34	5532
2026-01-09 05:41:14.68	196.92	14.70	-30.1	-30.6	26.3	0.00e+00	0	30	0	1094713344	34	5443
2026-01-09 05:41:15.69	197.01	14.79	-29.9	-30.4	26.4	0.00e+00	0	30	0	1102053376	34	5361
2026-01-09 05:41:16.70	197.11	14.89	-30.0	-30.5	26.3	0.00e+00	0	30	0	1109393408	32	6095
2026-01-09 05:41:17.71	197.21	14.99	-29.9	-30.4	26.4	0.00e+00	0	30	0	1116733440	32	6026
2026-01-09 05:41:18.72	197.30	15.08	-30.0	-30.5	26.4	0.00e+00	0	30	0	1124073472	32	6056
2026-01-09 05:41:19.73	197.40	15.18	-29.8	-30.3	26.5	0.00e+00	0	30	0	1131413504	32	5949
2026-01-09 05:41:20.74	197.50	15.28	-29.9	-30.4	26.5	0.00e+00	0	30	0	1137704960	32	5977
2026-01-09 05:41:21.75	197.60	15.37	-29.8	-30.3	26.5	0.00e+00	0	30	0	1145044992	32	5952
2026-01-09 05:41:22.76	197.70	15.47	-29.9	-30.4	26.4	0.00e+00	0	30	0	1152385024	32	5979
2026-01-09 05:41:23.77	197.80	15.57	-29.9	-30.4	26.4	0.00e+00	0	30	0	1159725056	32	5989
2026-01-09 05:41:24.78	197.90	15.67	-29.8	-30.3	26.5	0.00e+00	0	30	0	1167065088	32	5947
2026-01-09 05:41:25.79	198.01	15.77	-29.9	-30.4	26.4	0.00e+00	0	30	0	1174405120	32	5975
2026-01-09 05:41:26.79	198.11	15.86	-30.0	-30.4	26.5	0.00e+00	0	30	0	1181745152	32	6026
2026-01-09 05:41:27.80	198.21	15.96	-30.3	-30.7	26.4	0.00e+00	0	30	0	1189085184	32	6230
2026-01-09 05:41:28.81	198.31	16.06	-29.8	-30.3	26.5	0.00e+00	0	30	0	1196425216	32	5931
2026-01-09 05:41:29.82	198.42	16.16	-29.6	-30.1	26.7	0.00e+00	0	30	0	1203765248	32	5766
2026-01-09 05:41:30.83	198.52	16.26	-29.7	-30.1	26.7	0.00e+00	0	30	0	1211105280	32	5822
2026-01-09 05:41:31.84	198.63	16.36	-29.8	-30.3	26.6	0.00e+00	0	30	0	1218445312	32	5934
2026-01-09 05:41:32.85	198.74	16.47	-29.6	-30.1	26.8	0.00e+00	0	30	0	1225785344	32	5776
2026-01-09 05:41:33.86	198.84	16.57	-29.5	-30.0	26.8	0.00e+00	0	30	0	1233125376	32	5731
2026-01-09 05:41:34.87	198.95	16.67	-29.6	-30.1	26.7	0.00e+00	0	30	0	1240465408	32	5799
2026-01-09 05:41:35.88	199.06	16.77	-29.6	-30.0	26.8	0.00e+00	0	30	0	1247805440	32	5745
2026-01-09 05:41:36.89	199.17	16.87	-29.5	-30.0	26.8	0.00e+00	0	30	0	1255145472	32	5732
2026-01-09 05:41:37.90	199.28	16.98	-29.6	-30.0	26.8	0.00e+00	0	30	0	1261436928	32	5756
2026-01-09 05:41:38.91	199.39	17.08	-29.5	-29.9	26.8	0.00e+00	0	30	0	1269825536	32	5690
2026-01-09 05:41:39.92	199.50	17.18	-29.4	-29.9	26.9	0.00e+00	0	30	0	1277165568	32	5657
2026-01-09 05:41:40.93	199.62	17.29	-29.3	-29.8	26.9	0.00e+00	0	30	0	1283457024	32	5585
2026-01-09 05:41:41.94	199.73	17.39	-29.2	-29.7	27.0	0.00e+00	0	30	0	1290797056	32	5540
2026-01-09 05:41:42.94	199.84	17.49	-29.2	-29.7	27.1	0.00e+00	0	30	0	1298137088	32	5507
2026-01-09 05:41:43.95	199.96	17.60	-29.1	-29.6	27.1	0.00e+00	0	30	0	1305477120	32	5485
2026-01-09 05:41:44.96	200.07	17.70	-29.2	-29.7	27.2	0.00e+00	0	30	0	1312817152	32	5511
2026-01-09 05:41:45.97	200.19	17.81	-29.1	-29.6	27.1	0.00e+00	0	30	0	1320157184	32	5442
2026-01-09 05:41:46.98	200.31	17.91	-29.0	-29.5	27.2	0.00e+00	0	30	0	1327497216	32	5413
2026-01-09 05:41:47.99	200.42	18.02	-29.2	-29.7	27.3	0.00e+00	0	30	0	1334837248	32	5503
2026-01-09 05:41:49.00	200.54	18.13	-29.0	-29.5	27.3	0.00e+00	0	30	0	1342177280	32	5402
2026-01-09 05:41:50.01	200.66	18.23	-28.9	-29.4	27.3	0.00e+00	0	30	0	1349517312	32	5336
2026-01-09 05:41:51.02	200.78	18.34	-29.0	-29.5	27.2	0.00e+00	0	30	0	1356857344	32	5422
2026-01-09 05:41:52.03	200.90	18.45	-28.8	-29.3	27.4	0.00e+00	0	30	0	1364197376	30	5902
2026-01-09 05:41:53.04	201.03	18.56	-28.8	-29.3	27.4	0.00e+00	0	30	0	1371537408	30	5908
2026-01-09 05:41:54.04	201.15	18.66	-28.7	-29.2	27.5	0.00e+00	0	30	0	1378877440	30	5842
2026-01-09 05:41:55.05	201.27	18.77	-28.6	-29.1	27.6	0.00e+00	0	30	0	1386217472	30	5806
2026-01-09 05:41:56.06	201.40	18.88	-28.7	-29.2	27.5	0.00e+00	0	30	0	1393557504	30	5875
2026-01-09 05:41:57.07	201.52	18.99	-28.7	-29.2	27.5	0.00e+00	0	30	0	1400897536	30	5856
2026-01-09 05:41:58.08	201.65	19.10	-28.6	-29.1	27.6	0.00e+00	0	30	0	1408237568	30	5779
2026-01-09 05:41:59.09	201.77	19.21	-28.7	-29.1	27.6	0.00e+00	0	30	0	1414529024	30	5826
2026-01-09 05:42:00.10	201.90	19.32	-28.8	-29.3	27.5	0.00e+00	0	30	0	1421869056	30	5924
2026-01-09 05:42:01.11	202.03	19.43	-28.8	-29.2	27.5	0.00e+00	0	30	0	1429209088	30	5887
2026-01-09 05:42:02.11	202.16	19.54	-28.8	-29.2	27.4	0.00e+00	0	30	0	1436549120	30	5894
2026-01-09 05:42:03.12	202.29	19.65	-28.8	-29.3	27.4	0.00e+00	0	30	0	1443889152	30	5903
2026-01-09 05:42:04.13	202.42	19.76	-28.8	-29.3	27.6	0.00e+00	0	30	0	1451229184	30	5901
2026-01-09 05:42:05.14	202.55	19.87	-28.7	-29.2	27.5	0.00e+00	0	30	0	1458569216	30	5847
2026-01-09 05:42:06.15	202.69	19.99	-28.7	-29.2	27.5	0.00e+00	0	30	0	1465909248	30	5837
2026-01-09 05:42:07.16	202.82	20.10	-28.9	-29.4	27.6	0.00e+00	0	30	0	1473249280	30	5970
2026-01-09 05:42:08.17	202.96	20.21	-28.8	-29.3	27.5	0.00e+00	0	30	0	1480589312	30	5909
2026-01-09 05:42:09.18	203.09	20.33	-28.8	-29.3	27.5	0.00e+00	0	30	0	1487929344	30	5899
2026-01-09 05:42:10.19	203.23	20.44	-28.7	-29.2	27.5	0.00e+00	0	30	0	1495269376	30	5864
2026-01-09 05:42:11.20	203.37	20.55	-28.6	-29.1	27.6	0.00e+00	0	30	0	1502609408	30	5767
2026-01-09 05:42:12.21	203.51	20.67	-28.5	-28.9	27.7	0.00e+00	0	30	0	1509949440	30	5674
2026-01-09 05:42:13.22	203.65	20.78	-28.5	-28.9	27.7	0.00e+00	0	30	0	1517289472	30	5689
2026-01-09 05:42:14.22	203.79	20.90	-28.5	-28.9	27.8	0.00e+00	0	30	0	1524629504	30	5687
2026-01-09 05:42:15.23	203.93	21.01	-28.3	-28.8	27.7	0.00e+00	0	30	0	1531969536	30	5604
2026-01-09 05:42:16.24	204.07	21.13	-28.3	-28.8	27.9	0.00e+00	0	30	0	1538260992	30	5590
2026-01-09 05:42:17.25	204.22	21.24	-28.3	-28.7	27.9	0.00e+00	0	30	0	1545601024	30	5563
2026-01-09 05:42:18.26	204.36	21.36	-28.2	-28.7	27.9	0.00e+00	0	30	0	1553989632	30	5503
2026-01-09 05:42:19.27	204.51	21.48	-28.1	-28.6	27.8	0.00e+00	0	30	0	1560281088	30	5462
2026-01-09 05:42:20.28	204.66	21.60	-28.2	-28.7	27.9	0.00e+00	0	30	0	1567621120	30	5507
2026-01-09 05:42:21.29	204.81	21.71	-28.3	-28.7	27.9	0.00e+00	0	30	0	1574961152	30	5540
2026-01-09 05:42:22.30	204.96	21.83	-28.2	-28.6	28.0	0.00e+00	0	30	0	1582301184	30	5475
2026-01-09 05:42:23.31	205.11	21.95	-28.2	-28.7	28.0	0.00e+00	0	30	0	1589641216	30	5522
2026-01-09 05:42:24.31	205.26	22.07	-28.4	-28.9	27.9	0.00e+00	0	30	0	1596981248	30	5632
2026-01-09 05:42:25.32	205.41	22.19	-28.3	-28.8	27.8	0.00e+00	0	30	0	1604321280	30	5582
2026-01-09 05:42:26.33	205.57	22.31	-28.4	-28.9	27.8	0.00e+00	0	30	0	1611661312	30	5633
2026-01-09 05:42:27.34	205.72	22.43	-28.4	-28.9	27.9	0.00e+00	0	30	0	1619001344	30	5632
2026-01-09 05:42:28.35	205.88	22.55	-28.5	-29.0	27.8	0.00e+00	0	30	0	1626341376	30	5699
2026-01-09 05:42:29.37	206.04	22.67	-28.5	-29.0	27.7	0.00e+00	0	30	0	1633681408	30	5721
2026-01-09 05:42:30.38	206.20	22.79	-28.4	-28.9	27.9	0.00e+00	0	30	0	1641021440	30	5631
2026-01-09 05:42:31.38	206.36	22.91	-28.3	-28.8	27.9	0.00e+00	0	30	0	1648361472	30	5604
2026-01-09 05:42:32.39	206.52	23.03	-28.3	-28.8	27.9	0.00e+00	0	30	0	1655701504	30	5579
2026-01-09 05:42:33.40	206.68	23.15	-28.3	-28.7	27.9	0.00e+00	0	30	0	1663041536	30	5563
2026-01-09 05:42:34.41	206.84	23.27	-28.2	-28.7	27.9	0.00e+00	0	30	0	1670381568	30	5526
2026-01-09 05:42:35.43	207.01	23.40	-28.3	-28.8	28.0	0.00e+00	0	30	0	1677721600	30	5576
2026-01-09 05:42:36.44	207.18	23.52	-28.3	-28.8	27.9	0.00e+00	0	31	0	1685061632	30	5588
2026-01-09 05:42:37.44	207.34	23.64	-28.2	-28.7	28.0	0.00e+00	0	30	0	1691353088	30	5530
2026-01-09 05:42:38.45	207.51	23.77	-28.2	-28.7	28.1	0.00e+00	0	30	0	1698693120	30	5512
2026-01-09 05:42:39.46	207.68	23.89	-28.2	-28.6	28.0	0.00e+00	0	30	0	1707081728	30	5486
2026-01-09 05:42:40.47	207.85	24.02	-28.1	-28.6	28.0	0.00e+00	0	30	0	1713373184	30	5469
2026-01-09 05:42:41.48	208.03	24.14	-28.2	-28.6	28.1	0.00e+00	0	30	0	1720713216	30	5480
2026-01-09 05:42:42.49	208.20	24.27	-28.1	-28.6	28.1	0.00e+00	0	30	0	1728053248	30	5465
2026-01-09 05:42:43.50	208.38	24.39	-28.3	-28.7	27.9	0.00e+00	0	30	0	1735393280	30	5555
2026-01-09 05:42:44.51	208.55	24.52	-28.1	-28.6	28.1	0.00e+00	0	30	0	1742733312	30	5472
2026-01-09 05:42:45.52	208.73	24.64	-28.1	-28.5	28.1	0.00e+00	0	30	0	1750073344	30	5426
2026-01-09 05:42:46.53	208.91	24.77	-28.3	-28.7	28.0	0.00e+00	0	30	0	1757413376	30	5546
2026-01-09 05:42:47.54	209.09	24.90	-28.2	-28.6	28.0	0.00e+00	0	30	0	1764753408	30	5495
2026-01-09 05:42:48.55	209.28	25.02	-28.1	-28.5	28.1	0.00e+00	0	30	0	1772093440	30	5431
2026-01-09 05:42:49.56	209.46	25.15	-28.0	-28.5	28.1	0.00e+00	0	30	0	1779433472	30	5411
2026-01-09 05:42:50.57	209.65	25.28	-28.2	-28.6	28.0	0.00e+00	0	30	0	1786773504	30	5492
2026-01-09 05:42:51.58	209.83	25.40	-27.9	-28.4	28.1	0.00e+00	0	30	0	1794113536	30	5347
2026-01-09 05:42:52.59	210.02	25.53	-27.9	-28.4	28.1	0.00e+00	0	31	0	1801453568	30	5335
2026-01-09 05:42:53.60	210.21	25.66	-27.8	-28.2	28.3	0.00e+00	0	31	0	1808793600	30	5224
2026-01-09 05:42:54.61	210.40	25.79	-27.7	-28.2	28.3	0.00e+00	0	31	0	1816133632	28	5834
2026-01-09 05:42:55.62	210.59	25.92	-27.7	-28.2	28.3	0.00e+00	0	30	0	1823473664	28	5837
2026-01-09 05:42:56.63	210.79	26.05	-27.8	-28.2	28.4	0.00e+00	0	31	0	1830813696	28	5858
2026-01-09 05:42:57.64	210.99	26.18	-27.7	-28.1	28.4	0.00e+00	0	30	0	1837105152	28	5818
2026-01-09 05:42:58.65	211.18	26.31	-27.8	-28.3	28.2	0.00e+00	0	30	0	1844445184	28	5931
2026-01-09 05:42:59.66	211.38	26.44	-27.9	-28.3	28.3	0.00e+00	0	30	0	1852833792	28	5937
2026-01-09 05:43:00.67	211.58	26.57	-27.9	-28.4	28.2	0.00e+00	0	30	0	1859125248	28	5966
2026-01-09 05:43:01.68	211.79	26.70	-27.9	-28.4	28.2	0.00e+00	0	31	0	1866465280	28	5987
2026-01-09 05:43:02.69	211.99	26.83	-27.9	-28.3	28.2	0.00e+00	0	30	0	1873805312	28	5953
2026-01-09 05:43:03.70	212.19	26.96	-27.9	-28.4	28.1	0.00e+00	0	31	0	1881145344	28	6009
2026-01-09 05:43:04.71	212.40	27.09	-27.8	-28.3	28.3	0.00e+00	0	31	0	1888485376	28	5921
2026-01-09 05:43:05.72	212.61	27.22	-27.8	-28.3	28.3	0.00e+00	0	30	0	1895825408	28	5938
2026-01-09 05:43:06.72	212.82	27.36	-27.7	-28.2	28.3	0.00e+00	0	31	0	1903165440	28	5840
2026-01-09 05:43:07.73	213.03	27.49	-27.7	-28.2	28.4	0.00e+00	0	31	0	1910505472	28	5847
2026-01-09 05:43:08.74	213.25	27.62	-27.8	-28.2	28.4	0.00e+00	0	30	0	1917845504	28	5865
2026-01-09 05:43:09.75	213.46	27.75	-27.7	-28.2	28.4	0.00e+00	0	30	0	1925185536	28	5834
2026-01-09 05:43:10.76	213.68	27.89	-27.7	-28.2	28.4	0.00e+00	0	31	0	1932525568	28	5848
2026-01-09 05:43:11.77	213.90	28.02	-27.5	-28.0	28.4	0.00e+00	0	31	0	1939865600	28	5717
2026-01-09 05:43:12.78	214.12	28.15	-27.7	-28.1	28.4	0.00e+00	0	31	0	1947205632	28	5828
2026-01-09 05:43:13.79	214.34	28.28	-27.9	-28.3	28.2	0.00e+00	0	31	0	1954545664	28	5954
2026-01-09 05:43:14.80	214.57	28.42	-27.9	-28.4	28.3	0.00e+00	0	31	0	1961885696	28	5987
2026-01-09 05:43:15.81	214.79	28.55	-27.9	-28.4	28.3	0.00e+00	0	31	0	1969225728	28	5987
2026-01-09 05:43:16.83	215.03	28.69	-27.8	-28.3	28.3	0.00e+00	0	31	0	1976565760	28	5914
2026-01-09 05:43:17.83	215.25	28.82	-27.7	-28.2	28.3	0.00e+00	0	31	0	1983905792	28	5854
2026-01-09 05:43:18.84	215.49	28.95	-27.9	-28.4	28.2	0.00e+00	0	31	0	1990197248	28	5990
2026-01-09 05:43:19.85	215.72	29.09	-27.8	-28.3	28.2	0.00e+00	0	31	0	1997537280	28	5935
2026-01-09 05:43:20.86	215.96	29.22	-28.0	-28.4	28.1	0.00e+00	0	30	0	2005925888	28	6029
2026-01-09 05:43:21.87	216.19	29.36	-28.1	-28.6	28.2	0.00e+00	0	30	0	2012217344	28	6145
2026-01-09 05:43:22.88	216.43	29.49	-27.9	-28.4	28.2	0.00e+00	0	30	0	2019557376	28	5987
2026-01-09 05:43:23.89	216.68	29.63	-27.8	-28.3	28.3	0.00e+00	0	31	0	2026897408	28	5925
2026-01-09 05:43:24.90	216.92	29.76	-28.0	-28.5	28.1	0.00e+00	0	30	0	2034237440	28	6069
2026-01-09 05:43:25.91	217.17	29.90	-28.1	-28.6	28.1	0.00e+00	0	30	0	2041577472	28	6127
2026-01-09 05:43:26.92	217.41	30.03	-28.1	-28.6	27.9	0.00e+00	0	30	0	2048917504	28	6162
2026-01-09 05:43:27.93	217.66	30.17	-28.2	-28.7	27.9	0.00e+00	0	31	0	2056257536	28	6209
2026-01-09 05:43:28.94	217.92	30.30	-28.3	-28.8	27.9	0.00e+00	0	30	0	2063597568	28	6280
2026-01-09 05:43:29.94	218.17	30.44	-28.2	-28.7	27.9	0.00e+00	0	30	0	2070937600	28	6200
2026-01-09 05:43:30.95	218.42	30.57	-28.2	-28.6	28.0	0.00e+00	0	30	0	2078277632	28	6172
2026-01-09 05:43:31.96	218.68	30.71	-28.0	-28.5	28.1	0.00e+00	0	30	0	2085617664	28	6069
2026-01-09 05:43:32.97	218.94	30.84	-28.1	-28.6	28.0	0.00e+00	0	30	0	2092957696	28	6120
2026-01-09 05:43:33.98	219.21	30.98	-28.3	-28.7	28.0	0.00e+00	0	30	0	2100297728	28	6226
2026-01-09 05:43:34.99	219.47	31.11	-28.0	-28.4	28.2	0.00e+00	0	31	0	2107637760	28	6007
2026-01-09 05:43:36.00	219.74	31.25	-27.9	-28.3	28.0	0.00e+00	0	30	0	2114977792	28	5959
2026-01-09 05:43:37.01	220.01	31.38	-27.9	-28.3	28.1	0.00e+00	0	30	0	2122317824	28	5937
2026-01-09 05:43:38.02	220.28	31.52	-28.1	-28.5	28.1	0.00e+00	0	30	0	2129657856	28	6103
2026-01-09 05:43:39.03	220.55	31.65	-28.0	-28.4	28.2	0.00e+00	0	31	0	2136997888	28	6011
2026-01-09 05:43:40.04	220.83	31.79	-28.1	-28.5	28.0	0.00e+00	0	30	0	2143289344	28	6094
2026-01-09 05:43:41.05	221.10	31.92	-28.2	-28.7	27.9	0.00e+00	0	31	0	2150629376	28	6201
2026-01-09 05:43:42.06	221.38	32.06	-28.2	-28.7	27.9	0.00e+00	0	30	0	2159017984	28	6186
2026-01-09 05:43:43.07	221.67	32.19	-27.9	-28.4	28.2	0.00e+00	0	31	0	2165309440	28	5971
2026-01-09 05:43:44.08	221.95	32.33	-27.9	-28.4	28.2	0.00e+00	0	30	0	2172649472	28	6009
2026-01-09 05:43:45.09	222.24	32.46	-27.8	-28.3	28.3	0.00e+00	0	30	0	2179989504	28	5908
2026-01-09 05:43:46.09	222.53	32.59	-27.8	-28.2	28.3	0.00e+00	0	31	0	2187329536	28	5891
2026-01-09 05:43:47.10	222.82	32.73	-27.7	-28.2	28.4	0.00e+00	0	31	0	2194669568	28	5858
2026-01-09 05:43:48.11	223.11	32.86	-27.7	-28.1	28.4	0.00e+00	0	30	0	2202009600	28	5803
2026-01-09 05:43:49.12	223.41	32.99	-27.8	-28.2	28.4	0.00e+00	0	30	0	2209349632	28	5868
2026-01-09 05:43:50.13	223.71	33.13	-27.8	-28.3	28.3	0.00e+00	0	30	0	2216689664	28	5918
2026-01-09 05:43:51.14	224.01	33.26	-27.7	-28.2	28.4	0.00e+00	0	31	0	2224029696	28	5835
2026-01-09 05:43:52.15	224.31	33.39	-27.6	-28.1	28.5	0.00e+00	0	30	0	2231369728	28	5787
2026-01-09 05:43:53.16	224.62	33.52	-27.7	-28.2	28.5	0.00e+00	0	31	0	2238709760	28	5846
2026-01-09 05:43:54.17	224.93	33.66	-27.6	-28.0	28.5	0.00e+00	0	31	0	2246049792	28	5755
2026-01-09 05:43:55.18	225.24	33.79	-27.6	-28.1	28.5	0.00e+00	0	30	0	2253389824	28	5796
2026-01-09 05:43:56.19	225.55	33.92	-27.8	-28.3	28.4	0.00e+00	0	30	0	2260729856	28	5899
2026-01-09 05:43:57.20	225.87	34.05	-27.9	-28.4	28.2	0.00e+00	0	30	0	2267021312	28	5965
2026-01-09 05:43:58.21	226.19	34.18	-28.1	-28.5	28.1	0.00e+00	0	30	0	2274361344	28	6091
2026-01-09 05:43:59.22	226.51	34.31	-28.1	-28.6	28.1	0.00e+00	0	31	0	2282749952	28	6128
2026-01-09 05:44:00.23	226.83	34.44	-28.2	-28.7	28.1	0.00e+00	0	30	0	2289041408	28	6207
2026-01-09 05:44:01.24	227.16	34.57	-27.8	-28.2	28.4	0.00e+00	0	30	0	2296381440	28	5878
2026-01-09 05:44:02.25	227.49	34.70	-27.6	-28.1	28.4	0.00e+00	0	31	0	2303721472	28	5796
2026-01-09 05:44:03.26	227.82	34.82	-27.7	-28.2	28.4	0.00e+00	0	31	0	2311061504	28	5837
2026-01-09 05:44:04.27	228.15	34.95	-27.6	-28.0	28.6	0.00e+00	0	30	0	2318401536	28	5753
2026-01-09 05:44:05.28	228.49	35.08	-27.5	-27.9	28.6	0.00e+00	0	31	0	2325741568	28	5690
2026-01-09 05:44:06.28	228.82	35.20	-27.6	-28.1	28.5	0.00e+00	0	31	0	2333081600	28	5796
2026-01-09 05:44:07.29	229.17	35.33	-27.5	-28.0	28.4	0.00e+00	0	31	0	2340421632	28	5701
2026-01-09 05:44:08.30	229.51	35.45	-27.5	-28.0	28.5	0.00e+00	0	31	0	2347761664	28	5716
2026-01-09 05:44:09.31	229.86	35.58	-27.6	-28.0	28.5	0.00e+00	0	31	0	2355101696	28	5736
2026-01-09 05:44:10.32	230.21	35.70	-27.6	-28.1	28.5	0.00e+00	0	30	0	2362441728	28	5792
2026-01-09 05:44:11.33	230.56	35.83	-27.6	-28.1	28.4	0.00e+00	0	31	0	2369781760	28	5766
2026-01-09 05:44:12.34	230.91	35.95	-27.8	-28.3	28.3	0.00e+00	0	31	0	2377121792	28	5930
2026-01-09 05:44:13.35	231.27	36.07	-27.8	-28.2	28.3	0.00e+00	0	31	0	2384461824	28	5885
2026-01-09 05:44:14.36	231.63	36.19	-27.8	-28.3	28.3	0.00e+00	0	30	0	2391801856	28	5903
2026-01-09 05:44:15.37	231.99	36.31	-27.9	-28.3	28.3	0.00e+00	0	31	0	2399141888	28	5951
2026-01-09 05:44:16.38	232.36	36.43	-27.7	-28.2	28.4	0.00e+00	0	30	0	2406481920	28	5852
2026-01-09 05:44:17.39	232.72	36.55	-27.8	-28.2	28.4	0.00e+00	0	31	0	2413821952	28	5896
2026-01-09 05:44:18.40	233.09	36.67	-27.6	-28.1	28.5	0.00e+00	0	31	0	2420113408	28	5780
2026-01-09 05:44:19.40	233.46	36.78	-27.6	-28.0	28.5	0.00e+00	0	31	0	2427453440	28	5734
2026-01-09 05:44:20.41	233.84	36.90	-27.7	-28.1	28.5	0.00e+00	0	30	0	2435842048	28	5812
2026-01-09 05:44:21.42	234.22	37.01	-27.8	-28.2	28.3	0.00e+00	0	30	0	2442133504	28	5872
2026-01-09 05:44:22.43	234.60	37.13	-28.0	-28.5	28.1	0.00e+00	0	31	0	2449473536	28	6061
2026-01-09 05:44:23.44	234.98	37.24	-28.0	-28.5	28.2	0.00e+00	0	31	0	2456813568	28	6056
2026-01-09 05:44:24.45	235.37	37.35	-28.1	-28.6	28.1	0.00e+00	0	30	0	2464153600	28	6110
2026-01-09 05:44:25.46	235.76	37.46	-27.8	-28.3	28.3	0.00e+00	0	30	0	2471493632	28	5937
2026-01-09 05:44:26.47	236.15	37.57	-27.9	-28.4	28.3	0.00e+00	0	30	0	2478833664	28	5985
2026-01-09 05:44:27.48	236.54	37.68	-27.7	-28.1	28.5	0.00e+00	0	31	0	2486173696	28	5789
2026-01-09 05:44:28.49	236.94	37.79	-27.7	-28.1	28.5	0.00e+00	0	31	0	2493513728	28	5802
2026-01-09 05:44:29.50	237.34	37.89	-27.7	-28.2	28.4	0.00e+00	0	30	0	2500853760	28	5876
2026-01-09 05:44:30.50	237.73	38.00	-27.7	-28.2	28.4	0.00e+00	0	30	0	2508193792	28	5833
2026-01-09 05:44:31.51	238.14	38.10	-27.7	-28.1	28.4	0.00e+00	0	30	0	2515533824	28	5816
2026-01-09 05:44:32.52	238.54	38.20	-27.7	-28.1	28.4	0.00e+00	0	30	0	2522873856	28	5816
2026-01-09 05:44:33.53	238.95	38.30	-27.9	-28.4	28.2	0.00e+00	0	30	0	2530213888	28	5996
2026-01-09 05:44:34.54	239.36	38.40	-27.6	-28.1	28.5	0.00e+00	0	30	0	2537553920	28	5794
2026-01-09 05:44:35.55	239.78	38.50	-27.7	-28.2	28.4	0.00e+00	0	30	0	2543845376	28	5842
2026-01-09 05:44:36.56	240.19	38.60	-27.7	-28.2	28.4	0.00e+00	0	30	0	2551185408	28	5862
2026-01-09 05:44:37.57	240.61	38.69	-27.6	-28.1	28.5	0.00e+00	0	30	0	2559574016	28	5786
2026-01-09 05:44:38.58	241.03	38.79	-27.7	-28.1	28.4	0.00e+00	0	30	0	2565865472	28	5806
2026-01-09 05:44:39.59	241.46	38.88	-27.6	-28.0	28.3	0.00e+00	0	30	0	2573205504	28	5748
2026-01-09 05:44:40.60	241.88	38.97	-27.7	-28.2	28.4	0.00e+00	0	30	0	2580545536	28	5829
2026-01-09 05:44:41.61	242.31	39.06	-27.9	-28.4	28.3	0.00e+00	0	30	0	2587885568	28	5999
2026-01-09 05:44:42.62	242.74	39.15	-27.8	-28.3	28.4	0.00e+00	0	30	0	2595225600	28	5919
2026-01-09 05:44:43.63	243.18	39.24	-27.8	-28.2	28.4	0.00e+00	0	30	0	2602565632	28	5888
2026-01-09 05:44:44.63	243.61	39.32	-27.8	-28.3	28.3	0.00e+00	0	31	0	2609905664	28	5939
2026-01-09 05:44:45.65	244.05	39.40	-27.9	-28.3	28.2	0.00e+00	0	30	0	2617245696	28	5958
2026-01-09 05:44:46.65	244.48	39.49	-28.1	-28.6	28.1	0.00e+00	0	30	0	2624585728	28	6115
2026-01-09 05:44:47.66	244.92	39.57	-28.3	-28.8	27.9	0.00e+00	0	30	0	2631925760	28	6273
2026-01-09 05:44:48.67	245.37	39.64	-28.1	-28.6	28.0	0.00e+00	0	31	0	2639265792	28	6124
2026-01-09 05:44:49.68	245.81	39.72	-27.9	-28.4	28.3	0.00e+00	0	31	0	2646605824	28	5977
2026-01-09 05:44:50.69	246.26	39.80	-27.9	-28.3	28.3	0.00e+00	0	30	0	2653945856	28	5960
2026-01-09 05:44:51.70	246.71	39.87	-27.7	-28.1	28.4	0.00e+00	0	30	0	2661285888	28	5792
2026-01-09 05:44:52.71	247.16	39.94	-27.6	-28.1	28.5	0.00e+00	0	30	0	2668625920	28	5776
2026-01-09 05:44:53.72	247.62	40.01	-27.7	-28.2	28.3	0.00e+00	0	31	0	2675965952	28	5846
2026-01-09 05:44:54.73	248.07	40.08	-27.9	-28.3	28.4	0.00e+00	0	31	0	2683305984	28	5953
2026-01-09 05:44:55.74	248.53	40.14	-27.8	-28.3	28.3	0.00e+00	0	31	0	2690646016	28	5922
2026-01-09 05:44:56.75	248.99	40.21	-27.7	-28.1	28.5	0.00e+00	0	31	0	2696937472	28	5816
2026-01-09 05:44:57.76	249.45	40.27	-27.6	-28.0	28.5	0.00e+00	0	31	0	2704277504	28	5732
2026-01-09 05:44:58.77	249.91	40.33	-27.3	-27.8	28.5	0.00e+00	0	30	0	2712666112	28	5570
2026-01-09 05:44:59.78	250.38	40.39	-27.3	-27.8	28.7	0.00e+00	0	30	0	2718957568	28	5576
2026-01-09 05:45:00.79	250.84	40.44	-27.5	-28.0	28.6	0.00e+00	0	31	0	2726297600	28	5724
2026-01-09 05:45:01.79	251.31	40.50	-27.8	-28.3	28.3	0.00e+00	0	31	0	2733637632	28	5914
2026-01-09 05:45:02.81	251.78	40.55	-27.7	-28.2	28.4	0.00e+00	0	30	0	2740977664	28	5835
2026-01-09 05:45:03.81	252.25	40.60	-27.7	-28.1	28.4	0.00e+00	0	30	0	2748317696	28	5810
2026-01-09 05:45:04.82	252.72	40.65	-27.7	-28.1	28.5	0.00e+00	0	30	0	2755657728	28	5810
2026-01-09 05:45:05.83	253.19	40.69	-27.4	-27.8	28.7	0.00e+00	0	31	0	2762997760	28	5611
2026-01-09 05:45:06.84	253.67	40.74	-27.3	-27.8	28.6	0.00e+00	0	30	0	2770337792	28	5583
2026-01-09 05:45:07.85	254.14	40.78	-27.4	-27.8	28.6	0.00e+00	0	30	0	2777677824	28	5623
2026-01-09 05:45:08.86	254.62	40.82	-27.5	-28.0	28.5	0.00e+00	0	30	0	2785017856	28	5703
2026-01-09 05:45:09.87	255.10	40.85	-27.6	-28.0	28.5	0.00e+00	0	30	0	2792357888	28	5744
2026-01-09 05:45:10.88	255.58	40.89	-27.6	-28.0	28.4	0.00e+00	0	31	0	2799697920	28	5740
2026-01-09 05:45:11.89	256.06	40.92	-27.7	-28.1	28.5	0.00e+00	0	31	0	2807037952	28	5828
2026-01-09 05:45:12.90	256.54	40.95	-27.8	-28.2	28.3	0.00e+00	0	30	0	2814377984	28	5875
2026-01-09 05:45:13.91	257.02	40.98	-27.8	-28.2	28.4	0.00e+00	0	30	0	2820669440	28	5884
2026-01-09 05:45:14.92	257.50	41.01	-28.0	-28.4	28.2	0.00e+00	0	30	0	2829058048	28	6033
2026-01-09 05:45:15.93	257.99	41.03	-28.0	-28.5	28.1	0.00e+00	0	31	0	2836398080	28	6054
2026-01-09 05:45:16.93	258.47	41.05	-28.1	-28.5	28.2	0.00e+00	0	31	0	2842689536	28	6087
2026-01-09 05:45:17.94	258.95	41.07	-28.1	-28.6	28.1	0.00e+00	0	30	0	2850029568	28	6118
2026-01-09 05:45:18.95	259.44	41.09	-28.1	-28.5	28.2	0.00e+00	0	30	0	2857369600	28	6091
2026-01-09 05:45:19.96	259.92	41.11	-28.0	-28.4	28.1	0.00e+00	0	30	0	2864709632	28	6031
2026-01-09 05:45:20.97	260.41	41.12	-28.2	-28.6	28.1	0.00e+00	0	30	0	2872049664	28	6171
2026-01-09 05:45:21.98	260.89	41.13	-28.0	-28.5	28.2	0.00e+00	0	31	0	2879389696	28	6036
2026-01-09 05:45:22.99	261.38	41.14	-28.3	-28.7	28.0	0.00e+00	0	30	0	2886729728	28	6222
2026-01-09 05:45:24.00	261.87	41.15	-27.9	-28.4	28.3	0.00e+00	0	30	0	2894069760	28	5973
2026-01-09 05:45:25.01	262.36	41.15	-27.9	-28.3	28.3	0.00e+00	0	30	0	2901409792	28	5953
2026-01-09 05:45:26.02	262.84	41.15	-27.8	-28.2	28.3	0.00e+00	0	30	0	2908749824	28	5866
2026-01-09 05:45:27.03	263.33	41.15	-27.6	-28.1	28.5	0.00e+00	0	30	0	2916089856	28	5764
2026-01-09 05:45:28.04	263.82	41.15	-27.6	-28.1	28.4	0.00e+00	0	30	0	2923429888	28	5773
2026-01-09 05:45:29.05	264.30	41.14	-27.8	-28.2	28.3	0.00e+00	0	30	0	2930769920	28	5863
2026-01-09 05:45:30.05	264.79	41.13	-27.8	-28.3	28.3	0.00e+00	0	30	0	2938109952	28	5911
2026-01-09 05:45:31.06	265.27	41.13	-27.8	-28.2	28.3	0.00e+00	0	31	0	2945449984	28	5886
2026-01-09 05:45:32.08	265.76	41.11	-27.7	-28.2	28.4	0.00e+00	0	30	0	2952790016	28	5852
2026-01-09 05:45:33.08	266.25	41.10	-27.7	-28.2	28.3	0.00e+00	0	30	0	2960130048	28	5835
2026-01-09 05:45:34.09	266.73	41.08	-27.7	-28.2	28.4	0.00e+00	0	30	0	2967470080	28	5837
2026-01-09 05:45:35.10	267.22	41.06	-27.8	-28.2	28.4	0.00e+00	0	31	0	2973761536	28	5884
2026-01-09 05:45:36.11	267.70	41.04	-27.8	-28.3	28.4	0.00e+00	0	31	0	2982150144	28	5936
2026-01-09 05:45:37.12	268.18	41.02	-27.9	-28.4	28.1	0.00e+00	0	30	0	2989490176	28	5979
2026-01-09 05:45:38.13	268.67	40.99	-28.1	-28.5	27.9	0.00e+00	0	30	0	2995781632	28	6084
2026-01-09 05:45:39.14	269.15	40.97	-28.1	-28.6	28.0	0.00e+00	0	30	0	3003121664	28	6116
2026-01-09 05:45:40.15	269.63	40.94	-28.2	-28.7	27.8	0.00e+00	0	30	0	3010461696	28	6188
2026-01-09 05:45:41.16	270.11	40.90	-28.1	-28.6	27.8	0.00e+00	0	30	0	3017801728	28	6114
2026-01-09 05:45:42.16	270.58	40.87	-28.2	-28.6	27.7	0.00e+00	0	31	0	3025141760	28	6173
2026-01-09 05:45:43.17	271.06	40.83	-27.8	-28.3	28.1	0.00e+00	0	30	0	3032481792	28	5932
2026-01-09 05:45:44.18	271.54	40.80	-27.7	-28.2	28.4	0.00e+00	0	30	0	3039821824	28	5862
2026-01-09 05:45:45.20	272.02	40.76	-27.7	-28.2	28.3	0.00e+00	0	30	0	3047161856	28	5856
2026-01-09 05:45:46.21	272.49	40.71	-27.8	-28.2	28.3	0.00e+00	0	31	0	3054501888	28	5867
2026-01-09 05:45:47.21	272.96	40.67	-27.8	-28.3	28.4	0.00e+00	0	30	0	3061841920	28	5908
2026-01-09 05:45:48.22	273.44	40.62	-27.8	-28.2	28.3	0.00e+00	0	31	0	3069181952	28	5866
2026-01-09 05:45:49.23	273.91	40.57	-27.7	-28.2	28.4	0.00e+00	0	31	0	3076521984	28	5845
2026-01-09 05:45:50.24	274.38	40.52	-27.5	-28.0	28.5	0.00e+00	0	30	0	3083862016	28	5706
2026-01-09 05:45:51.25	274.84	40.47	-27.5	-27.9	28.6	0.00e+00	0	30	0	3091202048	28	5680
2026-01-09 05:45:52.26	275.31	40.41	-27.5	-28.0	28.5	0.00e+00	0	31	0	3098542080	28	5712
2026-01-09 05:45:53.27	275.77	40.36	-27.7	-28.2	28.4	0.00e+00	0	30	0	3105882112	28	5847
2026-01-09 05:45:54.28	276.24	40.30	-27.6	-28.1	28.4	0.00e+00	0	30	0	3113222144	28	5769
2026-01-09 05:45:55.29	276.70	40.24	-27.6	-28.1	28.4	0.00e+00	0	30	0	3119513600	28	5790
2026-01-09 05:45:56.30	277.16	40.17	-27.6	-28.0	28.5	0.00e+00	0	30	0	3126853632	28	5761
2026-01-09 05:45:57.31	277.62	40.11	-27.6	-28.0	28.5	0.00e+00	0	31	0	3134193664	28	5729
2026-01-09 05:45:58.31	278.07	40.04	-27.4	-27.8	28.7	0.00e+00	0	30	0	3141533696	28	5607
2026-01-09 05:45:59.32	278.52	39.97	-27.6	-28.0	28.5	0.00e+00	0	30	0	3148873728	28	5751
2026-01-09 05:46:00.33	278.97	39.90	-27.8	-28.2	28.3	0.00e+00	0	30	0	3156213760	28	5861
2026-01-09 05:46:01.34	279.42	39.83	-28.0	-28.4	28.2	0.00e+00	0	31	0	3163553792	28	6020
2026-01-09 05:46:02.35	279.87	39.76	-28.2	-28.6	28.0	0.00e+00	0	31	0	3170893824	28	6163
2026-01-09 05:46:03.36	280.32	39.68	-28.1	-28.5	28.2	0.00e+00	0	30	0	3178233856	28	6075
2026-01-09 05:46:04.37	280.76	39.60	-27.9	-28.3	28.3	0.00e+00	0	31	0	3185573888	28	5932
2026-01-09 05:46:05.38	281.20	39.53	-27.8	-28.2	28.4	0.00e+00	0	30	0	3192913920	28	5882
2026-01-09 05:46:06.38	281.64	39.45	-27.7	-28.1	28.3	0.00e+00	0	30	0	3200253952	28	5820
2026-01-09 05:46:07.39	282.08	39.36	-27.9	-28.3	28.3	0.00e+00	0	30	0	3207593984	28	5947
2026-01-09 05:46:08.40	282.51	39.28	-27.9	-28.3	28.3	0.00e+00	0	31	0	3214934016	28	5950
2026-01-09 05:46:09.41	282.95	39.19	-27.9	-28.3	28.3	0.00e+00	0	30	0	3222274048	28	5953
2026-01-09 05:46:10.42	283.38	39.11	-28.0	-28.5	28.2	0.00e+00	0	31	0	3229614080	28	6059
2026-01-09 05:46:11.43	283.81	39.02	-27.9	-28.4	28.3	0.00e+00	0	31	0	3236954112	28	5967
2026-01-09 05:46:12.44	284.23	38.93	-27.8	-28.2	28.3	0.00e+00	0	30	0	3244294144	28	5892
2026-01-09 05:46:13.45	284.66	38.84	-27.7	-28.2	28.3	0.00e+00	0	30	0	3250585600	28	5867
2026-01-09 05:46:14.46	285.08	38.74	-27.6	-28.1	28.5	0.00e+00	0	31	0	3257925632	28	5784
2026-01-09 05:46:15.47	285.50	38.65	-27.8	-28.2	28.3	0.00e+00	0	30	0	3266314240	28	5869
2026-01-09 05:46:16.48	285.91	38.55	-27.8	-28.2	28.3	0.00e+00	0	30	0	3272605696	28	5880
2026-01-09 05:46:17.48	286.32	38.46	-27.9	-28.4	28.2	0.00e+00	0	30	0	3279945728	28	5980
2026-01-09 05:46:18.49	286.74	38.36	-28.0	-28.5	28.1	0.00e+00	0	30	0	3287285760	28	6060
2026-01-09 05:46:19.50	287.14	38.26	-28.0	-28.4	28.2	0.00e+00	0	31	0	3294625792	28	6010
2026-01-09 05:46:20.51	287.55	38.16	-28.0	-28.4	27.9	0.00e+00	0	30	0	3301965824	28	6024
2026-01-09 05:46:21.52	287.96	38.05	-28.0	-28.5	28.2	0.00e+00	0	31	0	3309305856	28	6042
2026-01-09 05:46:22.53	288.36	37.95	-28.0	-28.5	28.2	0.00e+00	0	31	0	3316645888	28	6045
2026-01-09 05:46:23.54	288.76	37.84	-27.9	-28.3	28.2	0.00e+00	0	30	0	3323985920	28	5953
2026-01-09 05:46:24.55	289.15	37.74	-27.6	-28.1	28.5	0.00e+00	0	30	0	3331325952	28	5767
2026-01-09 05:46:25.56	289.55	37.63	-27.2	-27.7	28.7	0.00e+00	0	30	0	3338665984	28	5508
2026-01-09 05:46:26.57	289.94	37.52	-27.3	-27.7	28.7	0.00e+00	0	31	0	3346006016	28	5560
2026-01-09 05:46:27.58	290.33	37.41	-27.2	-27.6	28.7	0.00e+00	0	30	0	3353346048	28	5467
2026-01-09 05:46:28.59	290.71	37.30	-27.3	-27.7	28.6	0.00e+00	0	30	0	3360686080	28	5527
2026-01-09 05:46:29.60	291.10	37.19	-27.3	-27.7	28.6	0.00e+00	0	30	0	3368026112	28	5566
2026-01-09 05:46:30.60	291.47	37.08	-27.5	-27.9	28.5	0.00e+00	0	30	0	3375366144	28	5671
2026-01-09 05:46:31.61	291.85	36.96	-27.6	-28.0	28.4	0.00e+00	0	30	0	3382706176	28	5755
2026-01-09 05:46:32.62	292.23	36.85	-27.6	-28.1	28.4	0.00e+00	0	30	0	3390046208	28	5776
2026-01-09 05:46:33.63	292.60	36.73	-27.7	-28.1	28.4	0.00e+00	0	30	0	3396337664	28	5819
2026-01-09 05:46:34.64	292.97	36.62	-27.7	-28.2	28.3	0.00e+00	0	30	0	3403677696	28	5856
2026-01-09 05:46:35.65	293.34	36.50	-27.8	-28.3	28.2	0.00e+00	0	31	0	3411017728	28	5914
2026-01-09 05:46:36.66	293.71	36.38	-27.8	-28.3	28.3	0.00e+00	0	30	0	3418357760	28	5936
2026-01-09 05:46:37.67	294.07	36.26	-27.9	-28.3	28.2	0.00e+00	0	31	0	3425697792	28	5943
2026-01-09 05:46:38.68	294.43	36.14	-27.7	-28.2	28.2	0.00e+00	0	31	0	3433037824	28	5855
2026-01-09 05:46:39.69	294.79	36.02	-27.8	-28.3	28.3	0.00e+00	0	31	0	3440377856	28	5925
2026-01-09 05:46:40.70	295.14	35.90	-27.8	-28.3	28.4	0.00e+00	0	30	0	3447717888	28	5903
2026-01-09 05:46:41.71	295.49	35.78	-28.0	-28.5	27.9	0.00e+00	0	30	0	3455057920	28	6043
2026-01-09 05:46:42.72	295.84	35.65	-27.9	-28.3	28.3	0.00e+00	0	30	0	3462397952	28	5948
2026-01-09 05:46:43.73	296.19	35.53	-27.7	-28.2	28.4	0.00e+00	0	30	0	3469737984	28	5857
2026-01-09 05:46:44.74	296.54	35.41	-27.7	-28.1	28.4	0.00e+00	0	30	0	3477078016	28	5815
2026-01-09 05:46:45.75	296.88	35.28	-27.8	-28.3	28.3	0.00e+00	0	30	0	3484418048	28	5908
2026-01-09 05:46:46.76	297.22	35.16	-27.7	-28.2	28.3	0.00e+00	0	30	0	3491758080	28	5843
2026-01-09 05:46:47.76	297.55	35.03	-27.7	-28.1	28.3	0.00e+00	0	31	0	3499098112	28	5809
2026-01-09 05:46:48.78	297.89	34.90	-27.9	-28.3	28.3	0.00e+00	0	31	0	3506438144	28	5946
2026-01-09 05:46:49.78	298.22	34.78	-27.7	-28.2	28.3	0.00e+00	0	30	0	3513778176	28	5842
2026-01-09 05:46:50.79	298.55	34.65	-27.8	-28.3	28.3	0.00e+00	0	30	0	3521118208	28	5897
2026-01-09 05:46:51.80	298.87	34.52	-27.6	-28.1	28.5	0.00e+00	0	30	0	3527409664	28	5786
2026-01-09 05:46:52.81	299.20	34.39	-27.5	-28.0	28.5	0.00e+00	0	31	0	3535798272	28	5702
2026-01-09 05:46:53.82	299.52	34.26	-27.6	-28.0	28.4	0.00e+00	0	30	0	3543138304	28	5734
2026-01-09 05:46:54.83	299.84	34.13	-27.3	-27.7	28.7	0.00e+00	0	30	0	3549429760	28	5531
2026-01-09 05:46:55.84	300.15	34.00	-27.3	-27.7	28.6	0.00e+00	0	30	0	3556769792	28	5535
2026-01-09 05:46:56.85	300.47	33.87	-27.4	-27.9	28.5	0.00e+00	0	31	0	3564109824	28	5637
2026-01-09 05:46:57.86	300.78	33.74	-27.6	-28.0	28.5	0.00e+00	0	31	0	3571449856	28	5742
2026-01-09 05:46:58.87	301.09	33.61	-27.7	-28.2	28.3	0.00e+00	0	31	0	3578789888	28	5849
2026-01-09 05:46:59.87	301.39	33.48	-27.9	-28.3	28.3	0.00e+00	0	31	0	3586129920	28	5964
2026-01-09 05:47:00.88	301.70	33.35	-27.9	-28.4	28.2	0.00e+00	0	30	0	3593469952	28	5980
2026-01-09 05:47:01.89	302.00	33.22	-28.0	-28.5	28.1	0.00e+00	0	30	0	3600809984	28	6040
2026-01-09 05:47:02.90	302.30	33.09	-28.1	-28.6	28.0	0.00e+00	0	30	0	3608150016	28	6108
2026-01-09 05:47:03.91	302.60	32.95	-28.0	-28.4	28.1	0.00e+00	0	30	0	3615490048	28	6028
2026-01-09 05:47:04.92	302.89	32.82	-28.1	-28.5	28.0	0.00e+00	0	30	0	3622830080	28	6101
2026-01-09 05:47:05.93	303.18	32.69	-28.1	-28.5	28.1	0.00e+00	0	30	0	3630170112	28	6075
2026-01-09 05:47:06.94	303.47	32.55	-28.1	-28.5	28.2	0.00e+00	0	30	0	3637510144	28	6094
2026-01-09 05:47:07.95	303.76	32.42	-28.0	-28.5	28.2	0.00e+00	0	30	0	3644850176	28	6062
2026-01-09 05:47:08.96	304.05	32.29	-28.2	-28.7	27.9	0.00e+00	0	31	0	3652190208	28	6179
2026-01-09 05:47:09.97	304.33	32.15	-27.9	-28.4	28.1	0.00e+00	0	30	0	3659530240	28	6003
2026-01-09 05:47:10.97	304.61	32.02	-27.9	-28.4	28.2	0.00e+00	0	30	0	3666870272	28	5984
2026-01-09 05:47:11.99	304.89	31.89	-28.0	-28.4	28.1	0.00e+00	0	30	0	3674210304	28	6026
2026-01-09 05:47:12.99	305.16	31.75	-27.8	-28.2	28.3	0.00e+00	0	31	0	3680501760	28	5879
2026-01-09 05:47:14.00	305.44	31.62	-27.7	-28.2	28.3	0.00e+00	0	30	0	3687841792	28	5859
2026-01-09 05:47:15.01	305.71	31.48	-27.8	-28.3	28.2	0.00e+00	0	30	0	3696230400	28	5914
2026-01-09 05:47:16.02	305.98	31.35	-27.9	-28.4	28.2	0.00e+00	0	31	0	3702521856	28	6008
2026-01-09 05:47:17.03	306.24	31.22	-27.9	-28.4	28.2	0.00e+00	0	30	0	3709861888	28	6005
2026-01-09 05:47:18.04	306.51	31.08	-28.1	-28.5	28.0	0.00e+00	0	31	0	3717201920	28	6094
2026-01-09 05:47:19.05	306.77	30.95	-28.2	-28.6	28.0	0.00e+00	0	31	0	3724541952	28	6154
2026-01-09 05:47:20.06	307.03	30.81	-28.1	-28.6	28.1	0.00e+00	0	31	0	3731881984	28	6108
2026-01-09 05:47:21.07	307.29	30.68	-28.1	-28.6	28.0	0.00e+00	0	31	0	3739222016	28	6112
2026-01-09 05:47:22.07	307.55	30.54	-28.0	-28.5	28.2	0.00e+00	0	30	0	3746562048	28	6052
2026-01-09 05:47:23.08	307.80	30.41	-28.0	-28.5	27.9	0.00e+00	0	31	0	3753902080	28	6067
2026-01-09 05:47:24.09	308.05	30.28	-27.9	-28.4	28.2	0.00e+00	0	31	0	3761242112	28	5980
2026-01-09 05:47:25.10	308.30	30.14	-28.0	-28.5	28.2	0.00e+00	0	31	0	3768582144	28	6057
2026-01-09 05:47:26.11	308.55	30.01	-27.9	-28.4	28.2	0.00e+00	0	30	0	3775922176	28	5996
2026-01-09 05:47:27.12	308.80	29.87	-28.1	-28.6	28.1	0.00e+00	0	31	0	3783262208	28	6127
2026-01-09 05:47:28.13	309.04	29.74	-27.9	-28.4	28.1	0.00e+00	0	30	0	3790602240	28	5968
2026-01-09 05:47:29.14	309.29	29.60	-28.0	-28.5	27.9	0.00e+00	0	31	0	3797942272	28	6043
2026-01-09 05:47:30.15	309.53	29.47	-28.0	-28.5	28.1	0.00e+00	0	30	0	3804233728	28	6045
2026-01-09 05:47:31.16	309.76	29.34	-28.0	-28.5	28.0	0.00e+00	0	30	0	3812622336	28	6069
2026-01-09 05:47:32.17	310.00	29.20	-28.1	-28.6	28.1	0.00e+00	0	30	0	3819962368	28	6106
2026-01-09 05:47:33.17	310.23	29.07	-28.1	-28.5	28.0	0.00e+00	0	31	0	3826253824	28	6097
2026-01-09 05:47:34.18	310.47	28.94	-28.1	-28.6	27.9	0.00e+00	0	31	0	3833593856	28	6124
2026-01-09 05:47:35.19	310.70	28.80	-28.1	-28.5	28.1	0.00e+00	0	30	0	3840933888	28	6081
2026-01-09 05:47:36.20	310.93	28.67	-28.2	-28.6	28.0	0.00e+00	0	31	0	3848273920	28	6171
2026-01-09 05:47:37.21	311.15	28.54	-28.1	-28.6	28.1	0.00e+00	0	31	0	3855613952	28	6140
2026-01-09 05:47:38.21	311.38	28.41	-28.2	-28.6	28.0	0.00e+00	0	31	0	3862953984	28	6169
2026-01-09 05:47:39.22	311.60	28.27	-28.1	-28.5	28.0	0.00e+00	0	31	0	3870294016	28	6076
2026-01-09 05:47:40.23	311.82	28.14	-28.1	-28.5	28.0	0.00e+00	0	30	0	3877634048	28	6079
2026-01-09 05:47:41.24	312.04	28.01	-28.1	-28.5	28.0	0.00e+00	0	31	0	3884974080	28	6103
2026-01-09 05:47:42.25	312.26	27.88	-28.1	-28.6	28.0	0.00e+00	0	31	0	3892314112	28	6115
2026-01-09 05:47:43.26	312.48	27.74	-28.0	-28.4	28.1	0.00e+00	0	31	0	3899654144	28	6020
2026-01-09 05:47:44.27	312.69	27.61	-28.0	-28.5	27.8	0.00e+00	0	30	0	3906994176	28	6070
2026-01-09 05:47:45.27	312.90	27.48	-28.1	-28.6	28.0	0.00e+00	0	31	0	3914334208	28	6132
2026-01-09 05:47:46.28	313.11	27.35	-28.1	-28.6	28.0	0.00e+00	0	31	0	3921674240	28	6142
2026-01-09 05:47:47.29	313.32	27.22	-28.1	-28.6	27.9	0.00e+00	0	31	0	3929014272	28	6128
2026-01-09 05:47:48.30	313.53	27.09	-28.3	-28.8	27.9	0.00e+00	0	31	0	3935305728	28	6282
2026-01-09 05:47:49.30	313.74	26.96	-28.0	-28.5	28.1	0.00e+00	0	31	0	3942645760	28	6040
2026-01-09 05:47:50.31	313.94	26.83	-28.1	-28.6	28.1	0.00e+00	0	30	0	3951034368	28	6128
2026-01-09 05:47:51.32	314.14	26.70	-28.1	-28.6	28.0	0.00e+00	0	30	0	3957325824	28	6149
2026-01-09 05:47:52.33	314.34	26.57	-28.2	-28.6	27.9	0.00e+00	0	30	0	3964665856	28	6149
2026-01-09 05:47:53.34	314.54	26.44	-28.2	-28.6	27.9	0.00e+00	0	31	0	3972005888	28	6153
2026-01-09 05:47:54.35	314.74	26.31	-28.3	-28.7	27.8	0.00e+00	0	30	0	3979345920	28	6224
2026-01-09 05:47:55.36	314.94	26.18	-28.3	-28.7	27.9	0.00e+00	0	30	0	3986685952	28	6227
2026-01-09 05:47:56.37	315.13	26.05	-28.2	-28.6	27.9	0.00e+00	0	30	0	3994025984	28	6147
2026-01-09 05:47:57.37	315.33	25.92	-28.2	-28.7	27.9	0.00e+00	0	30	0	4001366016	28	6177
2026-01-09 05:47:58.38	315.52	25.80	-28.1	-28.5	28.1	0.00e+00	0	31	0	4008706048	28	6079
2026-01-09 05:47:59.39	315.71	25.67	-28.2	-28.7	27.9	0.00e+00	0	30	0	4016046080	28	6211
2026-01-09 05:48:00.40	315.90	25.54	-28.2	-28.6	27.8	0.00e+00	0	30	0	4023386112	28	6155
2026-01-09 05:48:01.41	316.08	25.41	-28.2	-28.7	27.8	0.00e+00	0	30	0	4030726144	28	6174
2026-01-09 05:48:02.42	316.27	25.29	-28.3	-28.8	27.7	0.00e+00	0	31	0	4038066176	28	6275
2026-01-09 05:48:03.43	316.46	25.16	-28.4	-28.9	27.5	0.00e+00	0	31	0	4045406208	28	6369
2026-01-09 05:48:04.44	316.64	25.03	-28.2	-28.7	27.3	0.00e+00	0	31	0	4052746240	28	6208
2026-01-09 05:48:05.44	316.82	24.91	-28.3	-28.8	27.2	0.00e+00	0	31	0	4059037696	28	6281
2026-01-09 05:48:06.46	317.00	24.78	-28.2	-28.7	27.6	0.00e+00	0	30	0	4066377728	28	6223
2026-01-09 05:48:07.46	317.18	24.66	-28.2	-28.7	27.8	0.00e+00	0	31	0	4074766336	28	6205
2026-01-09 05:48:08.47	317.36	24.53	-28.1	-28.6	27.7	0.00e+00	0	31	0	4081057792	28	6120
2026-01-09 05:48:09.48	317.53	24.41	-28.3	-28.8	27.6	0.00e+00	0	31	0	4088397824	28	6247
2026-01-09 05:48:10.49	317.71	24.28	-28.1	-28.5	27.7	0.00e+00	0	31	0	4095737856	28	6097
2026-01-09 05:48:11.50	317.88	24.16	-28.1	-28.6	27.8	0.00e+00	0	31	0	4103077888	28	6104
2026-01-09 05:48:12.51	318.05	24.04	-28.1	-28.5	27.9	0.00e+00	0	31	0	4110417920	28	6101
2026-01-09 05:48:13.51	318.22	23.91	-28.2	-28.7	27.5	0.00e+00	0	31	0	4117757952	28	6220
2026-01-09 05:48:14.52	318.39	23.79	-28.3	-28.8	27.6	0.00e+00	0	31	0	4125097984	28	6248
2026-01-09 05:48:15.53	318.56	23.67	-28.3	-28.8	27.7	0.00e+00	0	31	0	4132438016	28	6291
2026-01-09 05:48:16.54	318.73	23.54	-28.5	-29.0	27.7	0.00e+00	0	31	0	4139778048	28	6411
2026-01-09 05:48:17.55	318.89	23.42	-28.6	-29.1	27.3	0.00e+00	0	30	0	4147118080	28	6473
2026-01-09 05:48:18.56	319.06	23.30	-28.7	-29.2	27.3	0.00e+00	0	31	0	4154458112	28	6583
2026-01-09 05:48:19.57	319.22	23.18	-28.8	-29.3	27.3	0.00e+00	0	31	0	4161798144	30	5948
2026-01-09 05:48:20.58	319.38	23.06	-28.9	-29.4	26.9	0.00e+00	0	30	0	4169138176	30	5999
2026-01-09 05:48:21.59	319.54	22.94	-29.0	-29.4	27.1	0.00e+00	0	30	0	4176478208	30	6033
2026-01-09 05:48:22.60	319.70	22.82	-28.9	-29.4	27.2	0.00e+00	0	30	0	4183818240	30	5979
2026-01-09 05:48:23.61	319.86	22.70	-28.8	-29.3	27.4	0.00e+00	0	31	0	4190109696	30	5908
2026-01-09 05:48:24.62	320.02	22.58	-28.8	-29.2	27.4	0.00e+00	0	30	0	4198498304	30	5892
2026-01-09 05:48:25.63	320.17	22.46	-28.7	-29.2	27.4	0.00e+00	0	31	0	4205838336	30	5835
2026-01-09 05:48:26.64	320.33	22.34	-28.7	-29.1	27.5	0.00e+00	0	30	0	4212129792	30	5816
2026-01-09 05:48:27.65	320.48	22.22	-28.6	-29.1	27.5	0.00e+00	0	31	0	4219469824	30	5782
2026-01-09 05:48:28.65	320.63	22.10	-28.4	-28.9	27.7	0.00e+00	0	30	0	4226809856	30	5663
2026-01-09 05:48:29.66	320.79	21.98	-28.4	-28.9	27.7	0.00e+00	0	31	0	4234149888	30	5655
2026-01-09 05:48:30.67	320.94	21.87	-28.4	-28.9	27.7	0.00e+00	0	31	0	4241489920	30	5637
2026-01-09 05:48:31.68	321.09	21.75	-28.4	-28.9	27.6	0.00e+00	0	31	0	4248829952	30	5671
2026-01-09 05:48:32.69	321.23	21.63	-28.5	-29.0	27.6	0.00e+00	0	31	0	4256169984	30	5729
2026-01-09 05:48:33.70	321.38	21.52	-28.7	-29.2	27.5	0.00e+00	0	31	0	4263510016	30	5844
2026-01-09 05:48:34.71	321.53	21.40	-28.7	-29.1	27.5	0.00e+00	0	30	0	4270850048	30	5827
2026-01-09 05:48:35.72	321.67	21.28	-28.8	-29.3	27.4	0.00e+00	0	31	0	4278190080	30	5943
2026-01-09 05:48:36.73	321.82	21.17	-28.8	-29.3	27.3	0.00e+00	0	31	0	4285530112	30	5944
2026-01-09 05:48:37.73	321.96	21.05	-28.9	-29.4	27.3	0.00e+00	0	31	0	4292870144	30	6002
2026-01-09 05:48:38.74	322.10	20.94	-29.0	-29.5	27.3	0.00e+00	0	31	0	4300210176	30	6035
2026-01-09 05:48:39.75	322.24	20.82	-29.1	-29.6	27.2	0.00e+00	0	31	0	4307550208	30	6147
2026-01-09 05:48:40.76	322.38	20.71	-29.1	-29.6	27.1	0.00e+00	0	31	0	4314890240	30	6122
2026-01-09 05:48:41.77	322.52	20.60	-29.1	-29.6	27.1	0.00e+00	0	30	0	4322230272	30	6152
2026-01-09 05:48:42.78	322.66	20.48	-29.1	-29.5	27.2	0.00e+00	0	31	0	4329570304	30	6101
2026-01-09 05:48:43.79	322.79	20.37	-29.2	-29.7	27.1	0.00e+00	0	30	0	4335861760	30	6194
2026-01-09 05:48:44.80	322.93	20.26	-29.2	-29.7	27.2	0.00e+00	0	31	0	4343201792	30	6196
2026-01-09 05:48:45.80	323.06	20.15	-29.0	-29.5	27.3	0.00e+00	0	31	0	4350541824	30	6078
2026-01-09 05:48:46.81	323.20	20.03	-29.0	-29.5	27.3	0.00e+00	0	31	0	4357881856	30	6045
2026-01-09 05:48:47.82	323.33	19.92	-29.0	-29.5	27.3	0.00e+00	0	31	0	4365221888	30	6050
2026-01-09 05:48:48.83	323.46	19.81	-29.0	-29.4	27.3	0.00e+00	0	30	0	4372561920	30	6007
2026-01-09 05:48:49.84	323.60	19.70	-28.8	-29.3	27.4	0.00e+00	0	31	0	4379901952	30	5922
2026-01-09 05:48:50.85	323.73	19.59	-28.9	-29.3	27.4	0.00e+00	0	31	0	4387241984	30	5937
2026-01-09 05:48:51.86	323.86	19.48	-28.8	-29.2	27.4	0.00e+00	0	30	0	4394582016	30	5871
2026-01-09 05:48:52.87	323.98	19.37	-28.8	-29.3	27.3	0.00e+00	0	31	0	4401922048	30	5924
2026-01-09 05:48:53.87	324.11	19.26	-28.9	-29.3	27.4	0.00e+00	0	31	0	4409262080	30	5955
2026-01-09 05:48:54.88	324.24	19.15	-28.9	-29.4	27.3	0.00e+00	0	30	0	4416602112	30	5973
2026-01-09 05:48:55.89	324.36	19.04	-29.1	-29.5	27.2	0.00e+00	0	30	0	4423942144	30	6093
2026-01-09 05:48:56.91	324.49	18.93	-29.1	-29.6	27.0	0.00e+00	0	30	0	4431282176	30	6131
2026-01-09 05:48:57.91	324.61	18.83	-29.3	-29.8	27.0	0.00e+00	0	31	0	4438622208	30	6255
2026-01-09 05:48:58.93	324.74	18.72	-29.3	-29.7	27.0	0.00e+00	0	30	0	4445962240	30	6241
2026-01-09 05:48:59.94	324.86	18.61	-29.3	-29.8	27.0	0.00e+00	0	30	0	4453302272	30	6285
2026-01-09 05:49:00.95	324.98	18.50	-29.5	-29.9	26.8	0.00e+00	0	30	0	4460642304	30	6369
2026-01-09 05:49:01.96	325.10	18.40	-29.6	-30.0	26.8	0.00e+00	0	31	0	4466933760	30	6445
2026-01-09 05:49:02.97	325.22	18.29	-29.7	-30.1	26.7	0.00e+00	0	30	0	4475322368	30	6538
2026-01-09 05:49:03.98	325.34	18.19	-29.6	-30.1	26.7	0.00e+00	0	30	0	4482662400	30	6480
2026-01-09 05:49:04.99	325.46	18.08	-29.8	-30.2	26.6	0.00e+00	0	30	0	4488953856	30	6605
2026-01-09 05:49:05.99	325.58	17.98	-29.7	-30.2	26.6	0.00e+00	0	30	0	4496293888	32	5839
2026-01-09 05:49:07.00	325.69	17.87	-29.8	-30.2	26.7	0.00e+00	0	30	0	4503633920	32	5894
2026-01-09 05:49:08.01	325.81	17.77	-29.8	-30.2	26.6	0.00e+00	0	30	0	4510973952	32	5888
2026-01-09 05:49:09.02	325.93	17.66	-29.8	-30.2	26.5	0.00e+00	0	30	0	4518313984	32	5894
2026-01-09 05:49:10.03	326.04	17.56	-29.6	-30.1	26.7	0.00e+00	0	31	0	4525654016	32	5801
2026-01-09 05:49:11.04	326.15	17.45	-29.7	-30.2	26.6	0.00e+00	0	30	0	4532994048	32	5848
2026-01-09 05:49:12.05	326.27	17.35	-29.7	-30.2	26.7	0.00e+00	0	31	0	4540334080	32	5850
2026-01-09 05:49:13.06	326.38	17.25	-29.6	-30.1	26.7	0.00e+00	0	30	0	4547674112	32	5800
2026-01-09 05:49:14.07	326.49	17.14	-29.7	-30.2	26.6	0.00e+00	0	30	0	4555014144	32	5847
2026-01-09 05:49:15.08	326.60	17.04	-29.8	-30.3	26.5	0.00e+00	0	30	0	4562354176	32	5920
2026-01-09 05:49:16.09	326.71	16.94	-29.7	-30.2	26.7	0.00e+00	0	31	0	4569694208	32	5838
2026-01-09 05:49:17.10	326.82	16.84	-29.7	-30.2	26.6	0.00e+00	0	30	0	4577034240	32	5870
2026-01-09 05:49:18.11	326.93	16.74	-29.7	-30.2	26.5	0.00e+00	0	31	0	4584374272	32	5878
2026-01-09 05:49:19.11	327.04	16.64	-29.7	-30.2	26.6	0.00e+00	0	30	0	4591714304	32	5873
2026-01-09 05:49:20.13	327.15	16.54	-29.8	-30.3	26.4	0.00e+00	0	30	0	4599054336	32	5930
2026-01-09 05:49:21.13	327.25	16.44	-29.8	-30.3	26.5	0.00e+00	0	31	0	4606394368	32	5903
2026-01-09 05:49:22.14	327.36	16.34	-29.8	-30.3	26.5	0.00e+00	0	30	0	4612685824	32	5941
