passes_logs/2026/01/09/R4.6S_Anadyr/R4.6S_Anadyr__20260109_133716_NOAA_20_JPSS-1_rec.log

#Pass ID: 20260109_133716_NOAA 20 (JPSS-1)
#Satellite: NOAA 20 (JPSS-1)
#Configuration: NOAA 20
#almurnet v.1.7.20251203
#Start time: 2026-01-09 13:37:19

#Version: 2.2.20231116
#Station: R4.6S_Anadyr
#Location: 177.4865 lon 64.73178 lat
#TLE: 1 43013U 17073A   26008.91585656  .00000107  00000+0  71497-4 0  9999
#TLE: 2 43013  98.7631 309.9196 0001713  47.9261 312.2060 14.19534561421870

#Time	Az	El	Level	Level2	SNR	BER	BlckErr	Temp	State	Recorded	gain1	gain2
2026-01-09 13:37:19.17	19.04	0.15	-47.6	-62.6	3.5	1.51e+00	0	21	0	0	60	48539
2026-01-09 13:37:20.18	19.07	0.21	-47.6	-62.9	3.6	1.51e+00	0	22	104	0	60	50189
2026-01-09 13:37:21.19	19.11	0.27	-47.6	-62.9	3.6	1.51e+00	0	22	104	0	60	50319
2026-01-09 13:37:22.20	19.15	0.32	-47.6	-62.8	3.6	1.51e+00	0	22	104	0	60	49838
2026-01-09 13:37:23.21	19.19	0.38	-47.6	-62.8	3.6	1.51e+00	0	22	104	0	60	49929
2026-01-09 13:37:24.22	19.23	0.44	-47.6	-62.9	3.6	1.51e+00	0	22	104	0	60	50275
2026-01-09 13:37:25.23	19.26	0.50	-47.9	-63.1	3.6	1.51e+00	0	22	104	0	60	51485
2026-01-09 13:37:26.24	19.30	0.56	-47.7	-62.9	3.6	1.51e+00	0	22	104	0	60	50722
2026-01-09 13:37:27.25	19.34	0.62	-47.9	-63.2	3.6	1.51e+00	0	22	104	0	60	52042
2026-01-09 13:37:28.26	19.38	0.67	-47.7	-62.9	3.6	1.51e+00	0	22	104	0	60	50474
2026-01-09 13:37:29.27	19.42	0.73	-47.7	-62.9	3.6	1.51e+00	0	22	104	0	60	50197
2026-01-09 13:37:30.28	19.46	0.79	-47.7	-62.9	3.6	1.51e+00	0	22	104	0	60	50411
2026-01-09 13:37:31.29	19.50	0.85	-47.8	-63.1	3.6	1.51e+00	0	22	104	0	60	51367
2026-01-09 13:37:32.30	19.54	0.91	-47.8	-63.0	3.6	1.51e+00	0	22	104	0	60	50991
2026-01-09 13:37:33.31	19.58	0.97	-48.0	-63.2	3.6	1.51e+00	0	22	104	0	60	51957
2026-01-09 13:37:34.32	19.61	1.03	-47.7	-62.9	3.6	1.51e+00	0	22	104	0	60	50306
2026-01-09 13:37:35.32	19.65	1.09	-47.7	-62.9	3.6	1.51e+00	0	22	104	0	60	50397
2026-01-09 13:37:36.34	19.69	1.15	-47.7	-62.9	3.6	1.51e+00	0	22	104	0	60	50471
2026-01-09 13:37:37.34	19.73	1.21	-47.7	-62.9	3.6	1.51e+00	0	22	104	0	60	50433
2026-01-09 13:37:38.36	19.77	1.27	-47.7	-62.9	3.6	1.51e+00	0	22	104	0	60	50402
2026-01-09 13:37:39.37	19.81	1.33	-47.8	-63.0	3.6	1.51e+00	0	22	104	0	60	50997
2026-01-09 13:37:40.38	19.85	1.39	-47.8	-62.9	3.6	1.51e+00	0	23	104	0	60	50763
2026-01-09 13:37:41.39	19.89	1.45	-47.8	-63.0	3.6	1.51e+00	0	22	104	0	60	51076
2026-01-09 13:37:42.40	19.94	1.51	-47.8	-63.0	3.6	1.51e+00	0	22	104	0	60	50766
2026-01-09 13:37:43.41	19.98	1.57	-47.8	-63.1	3.6	1.51e+00	0	23	104	0	60	51381
2026-01-09 13:37:44.41	20.02	1.63	-47.7	-63.0	3.6	1.51e+00	0	22	104	0	60	50852
2026-01-09 13:37:45.42	20.06	1.69	-47.7	-63.0	3.6	1.51e+00	0	23	104	0	60	50771
2026-01-09 13:37:46.44	20.10	1.75	-47.7	-62.9	3.6	1.51e+00	0	23	104	0	60	50479
2026-01-09 13:37:47.45	20.14	1.81	-47.8	-63.0	3.6	1.51e+00	0	23	104	0	60	51095
2026-01-09 13:37:48.46	20.18	1.87	-47.6	-62.9	3.6	1.51e+00	0	23	104	0	60	50407
2026-01-09 13:37:49.47	20.22	1.93	-47.7	-62.9	3.6	1.51e+00	0	23	104	0	60	50699
2026-01-09 13:37:50.48	20.27	2.00	-47.7	-63.0	3.6	1.51e+00	0	23	104	0	60	50839
2026-01-09 13:37:51.49	20.31	2.06	-47.7	-62.9	3.6	1.51e+00	0	23	104	0	60	50450
2026-01-09 13:37:52.50	20.35	2.12	-47.7	-63.0	3.6	1.51e+00	0	23	104	0	60	50792
2026-01-09 13:37:53.51	20.39	2.18	-47.6	-62.9	3.6	1.51e+00	0	23	104	0	60	50601
2026-01-09 13:37:54.51	20.43	2.24	-47.6	-62.9	3.6	1.51e+00	0	23	104	0	60	50200
2026-01-09 13:37:55.52	20.48	2.30	-47.6	-62.9	3.6	1.51e+00	0	23	104	0	60	50400
2026-01-09 13:37:56.53	20.52	2.37	-47.6	-62.9	3.6	1.51e+00	0	23	104	0	60	50340
2026-01-09 13:37:57.55	20.56	2.43	-47.7	-62.9	3.6	1.51e+00	0	23	104	0	60	50533
2026-01-09 13:37:58.55	20.61	2.49	-47.6	-62.9	3.6	1.51e+00	0	23	104	0	60	50233
2026-01-09 13:37:59.56	20.65	2.55	-47.6	-62.9	3.6	1.51e+00	0	23	104	0	60	50261
2026-01-09 13:38:00.57	20.69	2.61	-47.8	-63.0	3.6	1.51e+00	0	23	104	0	60	51158
2026-01-09 13:38:01.58	20.74	2.68	-47.8	-63.0	3.6	1.51e+00	0	23	104	0	60	51198
2026-01-09 13:38:02.59	20.78	2.74	-47.7	-62.9	3.6	1.51e+00	0	23	104	0	60	50377
2026-01-09 13:38:03.60	20.82	2.80	-47.7	-62.9	3.6	1.51e+00	0	23	104	0	60	50640
2026-01-09 13:38:04.61	20.87	2.87	-47.7	-62.9	3.6	1.51e+00	0	23	104	0	60	50186
2026-01-09 13:38:05.62	20.91	2.93	-47.9	-63.0	3.6	1.51e+00	0	23	104	0	60	51066
2026-01-09 13:38:06.63	20.96	2.99	-47.8	-63.0	3.6	1.51e+00	0	23	104	0	60	51195
2026-01-09 13:38:07.63	21.00	3.06	-47.8	-63.0	3.6	1.51e+00	0	23	104	0	60	51068
2026-01-09 13:38:08.64	21.04	3.12	-47.7	-62.8	3.6	1.51e+00	0	23	104	0	60	50122
2026-01-09 13:38:09.65	21.09	3.18	-47.6	-62.8	3.6	1.51e+00	0	23	104	0	60	49977
2026-01-09 13:38:10.67	21.13	3.25	-47.6	-62.8	3.6	1.51e+00	0	23	104	0	60	50157
2026-01-09 13:38:11.68	21.18	3.31	-47.7	-62.9	3.6	1.51e+00	0	23	104	0	60	50237
2026-01-09 13:38:12.69	21.23	3.38	-47.6	-62.9	3.6	1.51e+00	0	23	104	0	60	50437
2026-01-09 13:38:13.70	21.27	3.44	-47.6	-62.9	3.6	1.51e+00	0	23	104	0	60	50327
2026-01-09 13:38:14.71	21.32	3.50	-47.6	-62.9	3.6	1.51e+00	0	23	104	0	60	50213
2026-01-09 13:38:15.72	21.36	3.57	-47.6	-62.8	3.6	1.51e+00	0	23	104	0	60	49991
2026-01-09 13:38:16.73	21.41	3.63	-47.6	-62.8	3.6	1.51e+00	0	23	104	0	60	50051
2026-01-09 13:38:17.74	21.45	3.70	-47.6	-62.8	3.6	1.51e+00	0	23	104	0	60	50155
2026-01-09 13:38:18.75	21.50	3.76	-47.6	-62.8	3.6	1.51e+00	0	23	104	0	60	50022
2026-01-09 13:38:19.76	21.55	3.83	-47.6	-62.8	3.6	1.51e+00	0	23	104	0	60	49732
2026-01-09 13:38:20.77	21.59	3.89	-47.7	-62.9	3.6	1.51e+00	0	23	104	0	60	50760
2026-01-09 13:38:21.77	21.64	3.96	-47.7	-62.9	3.6	1.51e+00	0	23	104	0	60	50655
2026-01-09 13:38:22.78	21.69	4.02	-47.6	-62.9	3.6	1.51e+00	0	23	104	0	60	50251
2026-01-09 13:38:23.79	21.74	4.09	-47.6	-62.9	3.6	1.51e+00	0	23	104	0	60	50374
2026-01-09 13:38:24.80	21.78	4.15	-47.6	-62.9	3.6	1.51e+00	0	23	104	0	60	50271
2026-01-09 13:38:25.81	21.83	4.22	-47.7	-62.9	3.6	1.51e+00	0	23	104	0	60	50678
2026-01-09 13:38:26.82	21.88	4.29	-47.7	-62.9	3.6	1.51e+00	0	23	104	0	60	50439
2026-01-09 13:38:27.83	21.93	4.35	-47.7	-62.9	3.6	1.51e+00	0	23	104	0	60	50613
2026-01-09 13:38:28.84	21.98	4.42	-47.6	-62.8	3.6	1.51e+00	0	23	104	0	60	50157
2026-01-09 13:38:29.85	22.02	4.49	-47.6	-62.8	3.6	1.51e+00	0	23	104	0	60	50016
2026-01-09 13:38:30.87	22.07	4.55	-47.6	-62.8	3.6	1.51e+00	0	23	104	0	60	49942
2026-01-09 13:38:31.87	22.12	4.62	-47.7	-62.9	3.5	1.51e+00	0	23	104	0	60	50338
2026-01-09 13:38:32.88	22.17	4.69	-47.7	-62.9	3.6	1.51e+00	0	23	104	0	60	50263
2026-01-09 13:38:33.89	22.22	4.75	-47.7	-62.8	3.6	1.51e+00	0	23	104	0	60	50146
2026-01-09 13:38:34.90	22.27	4.82	-47.7	-62.8	3.6	1.51e+00	0	23	104	0	60	50079
2026-01-09 13:38:35.91	22.32	4.89	-47.7	-62.9	3.6	1.51e+00	0	23	104	0	60	50662
2026-01-09 13:38:36.92	22.37	4.96	-47.7	-62.9	3.6	1.51e+00	0	23	104	0	60	50638
2026-01-09 13:38:37.93	22.42	5.02	-47.6	-62.9	3.6	1.51e+00	0	23	104	0	60	50344
2026-01-09 13:38:38.94	22.47	5.09	-47.6	-62.8	3.6	1.51e+00	0	23	104	0	60	50020
2026-01-09 13:38:39.95	22.52	5.16	-47.6	-62.8	3.6	1.51e+00	0	23	104	0	60	50171
2026-01-09 13:38:40.96	22.57	5.23	-47.6	-62.9	3.6	1.51e+00	0	23	104	0	60	50191
2026-01-09 13:38:41.97	22.62	5.30	-47.7	-62.9	3.6	1.51e+00	0	23	104	0	60	50285
2026-01-09 13:38:42.98	22.68	5.36	-47.6	-62.9	3.6	1.51e+00	0	23	104	0	60	50301
2026-01-09 13:38:43.99	22.73	5.43	-47.6	-62.8	3.6	1.51e+00	0	23	104	0	60	50081
2026-01-09 13:38:44.99	22.78	5.50	-47.6	-62.8	3.6	1.51e+00	0	23	104	0	60	49889
2026-01-09 13:38:46.01	22.83	5.57	-47.6	-62.9	3.6	1.51e+00	0	23	104	0	60	50226
2026-01-09 13:38:47.01	22.88	5.64	-47.7	-62.9	3.6	1.51e+00	0	23	104	0	60	50620
2026-01-09 13:38:48.03	22.93	5.71	-47.6	-62.8	3.6	1.51e+00	0	23	104	0	60	50020
2026-01-09 13:38:49.04	22.99	5.78	-47.7	-62.9	3.6	1.51e+00	0	23	104	0	60	50693
2026-01-09 13:38:50.05	23.04	5.85	-47.7	-62.9	3.6	1.51e+00	0	23	104	0	60	50485
2026-01-09 13:38:51.06	23.09	5.92	-47.6	-62.8	3.6	1.51e+00	0	23	104	0	60	50136
2026-01-09 13:38:52.07	23.15	5.99	-47.6	-62.9	3.6	1.51e+00	0	23	104	0	60	50436
2026-01-09 13:38:53.08	23.20	6.06	-47.6	-62.9	3.6	1.51e+00	0	23	104	0	60	50309
2026-01-09 13:38:54.09	23.25	6.13	-47.6	-62.8	3.6	1.51e+00	0	23	104	0	60	50112
2026-01-09 13:38:55.10	23.31	6.20	-47.7	-62.8	3.6	1.51e+00	0	23	104	0	60	50174
2026-01-09 13:38:56.11	23.36	6.27	-47.7	-62.9	3.6	1.51e+00	0	23	104	0	60	50704
2026-01-09 13:38:57.12	23.42	6.34	-47.7	-62.9	3.5	1.51e+00	0	23	104	0	60	50352
2026-01-09 13:38:58.13	23.47	6.41	-47.7	-62.9	3.6	1.51e+00	0	23	104	0	60	50531
2026-01-09 13:38:59.14	23.53	6.48	-47.7	-62.9	3.6	1.51e+00	0	23	104	0	60	50599
2026-01-09 13:39:00.15	23.58	6.56	-47.7	-62.9	3.6	1.51e+00	0	23	104	0	60	50355
2026-01-09 13:39:01.16	23.64	6.63	-47.7	-62.9	3.6	1.51e+00	0	23	104	0	60	50492
2026-01-09 13:39:02.17	23.69	6.70	-47.7	-62.9	3.6	1.51e+00	0	23	104	0	60	50495
2026-01-09 13:39:03.18	23.75	6.77	-47.7	-62.8	3.6	1.51e+00	0	23	104	0	60	50174
2026-01-09 13:39:04.18	23.80	6.84	-47.7	-62.9	3.6	1.51e+00	0	23	104	0	60	50607
2026-01-09 13:39:05.19	23.86	6.92	-47.7	-62.9	3.6	1.51e+00	0	23	104	0	60	50442
2026-01-09 13:39:06.20	23.92	6.99	-47.7	-62.9	3.6	1.51e+00	0	23	104	0	60	50186
2026-01-09 13:39:07.21	23.98	7.06	-47.7	-62.9	3.6	1.51e+00	0	23	104	0	60	50371
2026-01-09 13:39:08.22	24.03	7.13	-47.7	-62.9	3.6	1.51e+00	0	23	104	0	60	50492
2026-01-09 13:39:09.23	24.09	7.21	-47.7	-63.0	3.6	1.51e+00	0	23	104	0	60	50890
2026-01-09 13:39:10.24	24.15	7.28	-47.7	-62.9	3.6	1.51e+00	0	23	104	0	60	50480
2026-01-09 13:39:11.25	24.21	7.35	-47.6	-62.8	3.6	1.51e+00	0	23	104	0	60	50144
2026-01-09 13:39:12.26	24.26	7.43	-47.7	-62.9	3.6	1.51e+00	0	23	104	0	60	50668
2026-01-09 13:39:13.27	24.32	7.50	-47.6	-62.9	3.6	1.51e+00	0	23	104	0	60	50295
2026-01-09 13:39:14.28	24.38	7.57	-47.6	-62.8	3.6	1.51e+00	0	23	104	0	60	50001
2026-01-09 13:39:15.29	24.44	7.65	-47.6	-62.8	3.6	1.51e+00	0	23	104	0	60	49923
2026-01-09 13:39:16.30	24.50	7.72	-47.7	-62.9	3.6	1.51e+00	0	23	104	0	60	50677
2026-01-09 13:39:17.31	24.56	7.80	-47.6	-62.9	3.6	1.51e+00	0	23	104	0	60	50186
2026-01-09 13:39:18.32	24.62	7.87	-47.6	-62.9	3.6	1.51e+00	0	23	104	0	60	50193
2026-01-09 13:39:19.33	24.68	7.95	-47.6	-62.9	3.6	1.51e+00	0	23	104	0	60	50222
2026-01-09 13:39:20.34	24.74	8.02	-47.6	-62.8	3.6	1.51e+00	0	23	104	0	60	49941
2026-01-09 13:39:21.35	24.80	8.10	-47.6	-62.8	3.5	1.51e+00	0	23	104	0	60	50034
2026-01-09 13:39:22.37	24.86	8.18	-47.6	-62.8	3.6	1.51e+00	0	23	104	0	60	49943
2026-01-09 13:39:23.38	24.93	8.25	-47.6	-62.9	3.6	1.51e+00	0	23	104	0	60	50202
2026-01-09 13:39:24.39	24.99	8.33	-47.7	-62.9	3.6	1.51e+00	0	23	104	0	60	50399
2026-01-09 13:39:25.40	25.05	8.40	-47.6	-62.9	3.6	1.51e+00	0	23	104	0	60	50195
2026-01-09 13:39:26.41	25.11	8.48	-47.6	-62.8	3.6	1.51e+00	0	23	104	0	60	49980
2026-01-09 13:39:27.42	25.17	8.56	-47.6	-62.9	3.6	1.51e+00	0	23	104	0	60	50282
2026-01-09 13:39:28.42	25.24	8.63	-47.6	-62.8	3.6	1.51e+00	0	23	104	0	60	50031
2026-01-09 13:39:29.43	25.30	8.71	-47.6	-62.8	3.5	1.51e+00	0	23	104	0	60	49883
2026-01-09 13:39:30.44	25.36	8.79	-47.6	-62.9	3.6	1.51e+00	0	23	104	0	60	50192
2026-01-09 13:39:31.46	25.43	8.86	-47.5	-62.8	3.6	1.51e+00	0	23	104	0	60	49698
2026-01-09 13:39:32.47	25.49	8.94	-47.6	-62.9	3.6	1.51e+00	0	23	104	0	60	50362
2026-01-09 13:39:33.47	25.56	9.02	-47.6	-62.8	3.6	1.51e+00	0	23	104	0	60	49993
2026-01-09 13:39:34.49	25.62	9.10	-47.6	-62.8	3.6	1.51e+00	0	23	104	0	60	50163
2026-01-09 13:39:35.50	25.69	9.18	-47.6	-62.9	3.6	1.51e+00	0	23	104	0	60	50231
2026-01-09 13:39:36.51	25.75	9.26	-47.6	-62.8	3.6	1.51e+00	0	23	104	0	60	49786
2026-01-09 13:39:37.52	25.82	9.33	-47.7	-62.9	3.6	1.51e+00	0	23	104	0	60	50355
2026-01-09 13:39:38.52	25.88	9.41	-47.6	-62.8	3.6	1.51e+00	0	23	104	0	60	50040
2026-01-09 13:39:39.53	25.95	9.49	-47.6	-62.8	3.6	1.51e+00	0	23	104	0	60	50108
2026-01-09 13:39:40.54	26.02	9.57	-47.6	-62.8	3.6	1.51e+00	0	23	104	0	60	49960
2026-01-09 13:39:41.56	26.08	9.65	-47.6	-62.8	3.6	1.51e+00	0	23	104	0	60	49964
2026-01-09 13:39:42.56	26.15	9.73	-47.6	-62.8	3.6	1.51e+00	0	23	104	0	60	49944
2026-01-09 13:39:43.57	26.22	9.81	-47.6	-62.8	3.6	1.51e+00	0	23	104	0	60	49884
2026-01-09 13:39:44.58	26.29	9.89	-47.7	-62.9	3.6	1.51e+00	0	23	104	0	60	50347
2026-01-09 13:39:45.60	26.36	9.97	-47.6	-62.8	3.6	1.51e+00	0	23	104	0	60	50166
2026-01-09 13:39:46.61	26.43	10.05	-47.7	-62.8	3.6	1.51e+00	0	23	104	0	60	50139
2026-01-09 13:39:47.62	26.49	10.13	-47.7	-62.9	3.6	1.51e+00	0	23	104	0	60	50429
2026-01-09 13:39:48.63	26.56	10.22	-47.6	-62.8	3.6	1.51e+00	0	23	104	0	60	49911
2026-01-09 13:39:49.64	26.63	10.30	-47.6	-62.8	3.6	1.51e+00	0	23	104	0	60	50131
2026-01-09 13:39:50.65	26.70	10.38	-47.6	-62.8	3.5	1.51e+00	0	23	104	0	60	50046
2026-01-09 13:39:51.66	26.78	10.46	-47.6	-62.8	3.6	1.51e+00	0	23	104	0	60	49977
2026-01-09 13:39:52.66	26.85	10.54	-47.6	-62.8	3.6	1.51e+00	0	23	104	0	60	50178
2026-01-09 13:39:53.68	26.92	10.63	-47.7	-62.9	3.6	1.51e+00	0	23	104	0	60	50245
2026-01-09 13:39:54.69	26.99	10.71	-47.6	-62.9	3.6	1.51e+00	0	23	104	0	60	50290
2026-01-09 13:39:55.70	27.06	10.79	-47.6	-62.8	3.6	1.51e+00	0	23	104	0	60	49678
2026-01-09 13:39:56.71	27.13	10.87	-47.6	-62.8	3.6	1.51e+00	0	23	104	0	60	49824
2026-01-09 13:39:57.72	27.21	10.96	-47.7	-62.8	3.6	1.51e+00	0	23	104	0	60	50133
2026-01-09 13:39:58.73	27.28	11.04	-47.6	-62.8	3.6	1.51e+00	0	23	104	0	60	49880
2026-01-09 13:39:59.73	27.35	11.12	-47.6	-62.8	3.6	1.51e+00	0	23	104	0	60	49921
2026-01-09 13:40:00.75	27.43	11.21	-47.6	-62.8	3.5	1.51e+00	0	23	104	0	60	49899
2026-01-09 13:40:01.75	27.50	11.29	-47.6	-62.8	3.6	1.51e+00	0	23	104	0	60	49676
2026-01-09 13:40:02.76	27.58	11.38	-47.7	-62.9	3.6	1.51e+00	0	23	104	0	60	50452
2026-01-09 13:40:03.77	27.65	11.46	-47.7	-62.9	3.6	1.51e+00	0	23	104	0	60	50385
2026-01-09 13:40:04.78	27.73	11.55	-47.7	-62.9	3.6	1.51e+00	0	23	104	0	60	50304
2026-01-09 13:40:05.79	27.80	11.63	-47.6	-62.8	3.6	1.51e+00	0	23	104	0	60	49922
2026-01-09 13:40:06.80	27.88	11.72	-47.6	-62.8	3.6	1.51e+00	0	23	104	0	60	49722
2026-01-09 13:40:07.81	27.96	11.81	-47.6	-62.8	3.6	1.51e+00	0	23	104	0	60	50123
2026-01-09 13:40:08.82	28.04	11.89	-47.6	-62.9	3.6	1.51e+00	0	23	104	0	60	50497
2026-01-09 13:40:09.83	28.11	11.98	-47.6	-62.8	3.6	1.51e+00	0	23	104	0	60	50007
2026-01-09 13:40:10.84	28.19	12.06	-47.6	-62.9	3.6	1.51e+00	0	23	104	0	60	50312
2026-01-09 13:40:11.85	28.27	12.15	-47.6	-62.8	3.6	1.51e+00	0	23	104	0	60	50079
2026-01-09 13:40:12.86	28.35	12.24	-47.6	-62.8	3.6	1.51e+00	0	23	104	0	60	50056
2026-01-09 13:40:13.87	28.43	12.33	-47.6	-62.8	3.6	1.51e+00	0	23	104	0	60	50007
2026-01-09 13:40:14.88	28.51	12.41	-47.6	-62.8	3.6	1.51e+00	0	23	104	0	60	50113
2026-01-09 13:40:15.89	28.59	12.50	-47.6	-62.8	3.6	1.51e+00	0	23	104	0	60	50042
2026-01-09 13:40:16.90	28.67	12.59	-47.6	-62.9	3.6	1.51e+00	0	23	104	0	60	50197
2026-01-09 13:40:17.91	28.75	12.68	-47.6	-62.8	3.6	1.51e+00	0	23	104	0	60	49844
2026-01-09 13:40:18.92	28.83	12.77	-47.7	-62.8	3.6	1.51e+00	0	23	104	0	60	50099
2026-01-09 13:40:19.93	28.92	12.86	-47.6	-62.8	3.6	1.51e+00	0	23	104	0	60	50005
2026-01-09 13:40:20.94	29.00	12.95	-47.6	-62.8	3.6	1.51e+00	0	23	104	0	60	49916
2026-01-09 13:40:21.95	29.08	13.04	-47.6	-62.9	3.6	1.51e+00	0	23	104	0	60	50254
2026-01-09 13:40:22.96	29.17	13.13	-47.6	-62.8	3.6	1.51e+00	0	23	104	0	60	50025
2026-01-09 13:40:23.97	29.25	13.22	-47.6	-62.8	3.6	1.51e+00	0	23	104	0	60	50081
2026-01-09 13:40:24.98	29.34	13.31	-47.6	-62.9	3.6	1.51e+00	0	23	104	0	60	50204
2026-01-09 13:40:25.99	29.42	13.40	-47.6	-62.9	3.6	1.51e+00	0	23	104	0	60	50238
2026-01-09 13:40:27.00	29.51	13.49	-47.6	-62.9	3.6	1.51e+00	0	23	104	0	60	50314
2026-01-09 13:40:28.01	29.59	13.58	-47.7	-62.9	3.6	1.51e+00	0	23	104	0	60	50364
2026-01-09 13:40:29.01	29.68	13.67	-47.6	-62.9	3.6	1.51e+00	0	23	104	0	60	50270
2026-01-09 13:40:30.02	29.77	13.76	-47.6	-62.8	3.6	1.51e+00	0	23	104	0	60	49982
2026-01-09 13:40:31.03	29.85	13.86	-47.6	-62.8	3.6	1.51e+00	0	23	104	0	60	49780
2026-01-09 13:40:32.04	29.94	13.95	-47.6	-62.8	3.6	1.51e+00	0	23	104	0	60	50081
2026-01-09 13:40:33.05	30.03	14.04	-47.6	-62.8	3.6	1.51e+00	0	23	104	0	60	49841
2026-01-09 13:40:34.06	30.12	14.13	-47.6	-62.8	3.6	1.51e+00	0	23	104	0	60	50179
2026-01-09 13:40:35.07	30.21	14.23	-47.6	-62.8	3.6	1.51e+00	0	23	104	0	60	50115
2026-01-09 13:40:36.08	30.30	14.32	-47.6	-62.8	3.6	1.51e+00	0	23	104	0	60	49853
2026-01-09 13:40:37.09	30.39	14.42	-47.7	-62.8	3.6	1.51e+00	0	23	104	0	60	50066
2026-01-09 13:40:38.10	30.48	14.51	-47.7	-62.8	3.6	1.51e+00	0	23	104	0	60	50001
2026-01-09 13:40:39.11	30.58	14.61	-47.6	-62.8	3.6	1.51e+00	0	23	104	0	60	49943
2026-01-09 13:40:40.12	30.67	14.70	-47.7	-62.9	3.6	1.51e+00	0	23	104	0	60	50684
2026-01-09 13:40:41.12	30.76	14.79	-47.6	-62.8	3.5	1.51e+00	0	23	104	0	60	49961
2026-01-09 13:40:42.13	30.85	14.89	-47.6	-62.8	3.6	1.51e+00	0	23	104	0	60	50060
2026-01-09 13:40:43.14	30.95	14.99	-47.6	-62.8	3.6	1.51e+00	0	23	104	0	60	50174
2026-01-09 13:40:44.15	31.04	15.08	-47.6	-62.8	3.6	1.51e+00	0	23	104	0	60	49914
2026-01-09 13:40:45.16	31.14	15.18	-47.6	-62.8	3.6	1.51e+00	0	23	104	0	60	49998
2026-01-09 13:40:46.17	31.23	15.28	-47.7	-62.9	3.6	1.51e+00	0	23	104	0	60	50392
2026-01-09 13:40:47.18	31.33	15.37	-47.6	-62.8	3.6	1.51e+00	0	23	104	0	60	50149
2026-01-09 13:40:48.19	31.43	15.47	-47.7	-63.0	3.5	1.51e+00	0	23	104	0	60	50783
2026-01-09 13:40:49.20	31.53	15.57	-47.7	-62.9	3.5	1.51e+00	0	23	104	0	60	50270
2026-01-09 13:40:50.21	31.62	15.67	-47.6	-62.8	3.6	1.51e+00	0	23	104	0	60	50136
2026-01-09 13:40:51.22	31.72	15.76	-47.6	-62.8	3.6	1.51e+00	0	23	104	0	60	50044
2026-01-09 13:40:52.23	31.82	15.86	-47.7	-63.0	3.6	1.51e+00	0	23	104	0	60	50811
2026-01-09 13:40:53.24	31.92	15.96	-47.8	-63.0	3.6	1.51e+00	0	23	104	0	60	50772
2026-01-09 13:40:54.25	32.03	16.06	-47.7	-62.9	3.6	1.51e+00	0	23	104	0	60	50378
2026-01-09 13:40:55.26	32.13	16.16	-47.6	-62.8	3.6	1.51e+00	0	23	104	0	60	50129
2026-01-09 13:40:56.27	32.23	16.26	-47.6	-62.8	3.6	1.51e+00	0	23	104	0	60	50002
2026-01-09 13:40:57.28	32.33	16.36	-47.6	-62.8	3.5	1.51e+00	0	23	104	0	60	49819
2026-01-09 13:40:58.29	32.44	16.46	-47.6	-62.9	3.6	1.51e+00	0	23	104	0	60	50276
2026-01-09 13:40:59.30	32.54	16.56	-47.6	-62.8	3.6	1.51e+00	0	23	104	0	60	49882
2026-01-09 13:41:00.31	32.64	16.67	-47.6	-62.8	3.6	1.51e+00	0	23	104	0	60	49859
2026-01-09 13:41:01.32	32.75	16.77	-47.6	-62.9	3.6	1.51e+00	0	23	104	0	60	50240
2026-01-09 13:41:02.33	32.86	16.87	-47.6	-62.8	3.6	1.51e+00	0	23	104	0	60	50159
2026-01-09 13:41:03.33	32.96	16.97	-47.7	-62.8	3.6	1.51e+00	0	23	104	0	60	49954
2026-01-09 13:41:04.34	33.07	17.07	-47.6	-62.8	3.6	1.51e+00	0	24	104	0	60	49889
2026-01-09 13:41:05.35	33.18	17.18	-47.6	-62.8	3.6	1.51e+00	0	23	104	0	60	50126
2026-01-09 13:41:06.36	33.29	17.28	-47.6	-62.8	3.6	1.51e+00	0	23	104	0	60	49797
2026-01-09 13:41:07.37	33.40	17.38	-47.6	-62.8	3.6	1.51e+00	0	23	104	0	60	49920
2026-01-09 13:41:08.38	33.51	17.49	-47.6	-62.9	3.6	1.51e+00	0	23	104	0	60	50187
2026-01-09 13:41:09.39	33.62	17.59	-47.6	-62.8	3.6	1.51e+00	0	24	104	0	60	50069
2026-01-09 13:41:10.40	33.73	17.70	-47.6	-62.8	3.6	1.51e+00	0	23	104	0	60	49920
2026-01-09 13:41:11.41	33.84	17.80	-47.6	-62.8	3.6	1.51e+00	0	23	104	0	60	50046
2026-01-09 13:41:12.42	33.96	17.91	-47.6	-62.8	3.6	1.51e+00	0	23	104	0	60	50119
2026-01-09 13:41:13.43	34.07	18.01	-47.6	-62.8	3.6	1.51e+00	0	23	104	0	60	50108
2026-01-09 13:41:14.44	34.19	18.12	-47.6	-62.8	3.6	1.51e+00	0	23	104	0	60	49804
2026-01-09 13:41:15.45	34.30	18.23	-47.6	-62.7	3.6	1.51e+00	0	23	104	0	60	49604
2026-01-09 13:41:16.46	34.42	18.33	-47.6	-62.8	3.6	1.51e+00	0	23	104	0	60	49882
2026-01-09 13:41:17.47	34.54	18.44	-47.6	-62.8	3.6	1.51e+00	0	23	104	0	60	49908
2026-01-09 13:41:18.48	34.66	18.55	-47.6	-62.8	3.6	1.51e+00	0	23	104	0	60	49867
2026-01-09 13:41:19.49	34.77	18.66	-47.6	-62.8	3.6	1.51e+00	0	23	104	0	60	50009
2026-01-09 13:41:20.50	34.89	18.77	-47.6	-62.8	3.6	1.51e+00	0	23	104	0	60	49954
2026-01-09 13:41:21.52	35.02	18.88	-47.6	-62.8	3.6	1.51e+00	0	23	104	0	60	49899
2026-01-09 13:41:22.52	35.14	18.98	-47.7	-62.8	3.6	1.51e+00	0	24	104	0	60	50016
2026-01-09 13:41:23.53	35.26	19.09	-47.6	-62.8	3.6	1.51e+00	0	24	104	0	60	50107
2026-01-09 13:41:24.54	35.38	19.20	-47.6	-62.8	3.6	1.51e+00	0	23	104	0	60	49930
2026-01-09 13:41:25.55	35.51	19.31	-47.6	-62.7	3.6	1.51e+00	0	23	104	0	60	49601
2026-01-09 13:41:26.56	35.63	19.42	-47.6	-62.8	3.6	1.51e+00	0	23	104	0	60	49700
2026-01-09 13:41:27.57	35.76	19.53	-47.6	-62.8	3.6	1.51e+00	0	23	104	0	60	50045
2026-01-09 13:41:28.58	35.88	19.65	-47.6	-62.8	3.6	1.51e+00	0	24	104	0	60	49850
2026-01-09 13:41:29.59	36.01	19.76	-47.6	-62.8	3.6	1.51e+00	0	23	104	0	60	49785
2026-01-09 13:41:30.60	36.14	19.87	-47.7	-62.8	3.6	1.51e+00	0	23	104	0	60	49965
2026-01-09 13:41:31.61	36.27	19.98	-47.6	-62.8	3.6	1.51e+00	0	23	104	0	60	49732
2026-01-09 13:41:32.62	36.40	20.10	-47.6	-62.8	3.6	1.51e+00	0	23	104	0	60	49987
2026-01-09 13:41:33.63	36.53	20.21	-47.7	-62.8	3.6	1.51e+00	0	23	104	0	60	49948
2026-01-09 13:41:34.64	36.66	20.32	-47.7	-62.8	3.6	1.51e+00	0	23	104	0	60	49797
2026-01-09 13:41:35.65	36.80	20.44	-47.7	-62.8	3.6	1.51e+00	0	23	104	0	60	49978
2026-01-09 13:41:36.66	36.93	20.55	-47.6	-62.8	3.6	1.51e+00	0	23	104	0	60	49729
2026-01-09 13:41:37.67	37.06	20.66	-47.6	-62.8	3.6	1.51e+00	0	23	104	0	60	49997
2026-01-09 13:41:38.68	37.20	20.78	-47.6	-62.8	3.6	1.51e+00	0	23	104	0	60	49782
2026-01-09 13:41:39.68	37.34	20.89	-47.6	-62.8	3.6	1.51e+00	0	23	104	0	60	49862
2026-01-09 13:41:40.69	37.47	21.01	-47.6	-62.8	3.6	1.51e+00	0	24	104	0	60	50052
2026-01-09 13:41:41.70	37.61	21.13	-47.6	-62.8	3.6	1.51e+00	0	23	104	0	60	50115
2026-01-09 13:41:42.71	37.75	21.24	-47.6	-62.8	3.6	1.51e+00	0	24	104	0	60	49781
2026-01-09 13:41:43.72	37.89	21.36	-47.6	-62.8	3.6	1.51e+00	0	23	104	0	60	49847
2026-01-09 13:41:44.73	38.04	21.48	-47.6	-62.8	3.6	1.51e+00	0	23	104	0	60	49992
2026-01-09 13:41:45.74	38.18	21.59	-47.6	-62.8	3.6	1.51e+00	0	23	104	0	60	49666
2026-01-09 13:41:46.75	38.32	21.71	-47.6	-62.8	3.6	1.51e+00	0	23	104	0	60	49870
2026-01-09 13:41:47.76	38.47	21.83	-47.6	-62.8	3.6	1.51e+00	0	23	104	0	60	49993
2026-01-09 13:41:48.77	38.61	21.95	-47.6	-62.8	3.6	1.51e+00	0	23	104	0	60	49851
2026-01-09 13:41:49.78	38.76	22.07	-47.6	-62.8	3.6	1.51e+00	0	23	104	0	60	49739
2026-01-09 13:41:50.79	38.91	22.19	-47.6	-62.7	3.6	1.51e+00	0	24	104	0	60	49605
2026-01-09 13:41:51.80	39.06	22.31	-47.6	-62.8	3.6	1.51e+00	0	23	104	0	60	49746
2026-01-09 13:41:52.80	39.21	22.43	-47.6	-62.8	3.6	1.51e+00	0	23	104	0	60	49795
2026-01-09 13:41:53.81	39.36	22.55	-47.6	-62.8	3.6	1.51e+00	0	24	104	0	60	49763
2026-01-09 13:41:54.82	39.51	22.67	-47.6	-62.8	3.6	1.51e+00	0	23	104	0	60	50181
2026-01-09 13:41:55.83	39.67	22.79	-47.6	-62.8	3.6	1.51e+00	0	24	104	0	60	49972
2026-01-09 13:41:56.84	39.82	22.91	-47.6	-62.8	3.6	1.51e+00	0	23	104	0	60	49659
2026-01-09 13:41:57.85	39.98	23.03	-47.6	-62.8	3.6	1.51e+00	0	23	104	0	60	49657
2026-01-09 13:41:58.86	40.14	23.16	-47.5	-62.8	3.6	1.51e+00	0	23	104	0	60	49696
2026-01-09 13:41:59.87	40.30	23.28	-47.6	-62.8	3.6	1.51e+00	0	23	104	0	60	49906
2026-01-09 13:42:00.88	40.46	23.40	-47.6	-62.8	3.6	1.51e+00	0	23	104	0	60	49749
2026-01-09 13:42:01.89	40.62	23.53	-47.5	-62.8	3.6	1.51e+00	0	23	104	0	60	49657
2026-01-09 13:42:02.90	40.78	23.65	-47.6	-62.8	3.6	1.51e+00	0	23	104	0	60	49671
2026-01-09 13:42:03.91	40.94	23.77	-47.6	-62.8	3.6	1.51e+00	0	23	104	0	60	49643
2026-01-09 13:42:04.92	41.11	23.90	-47.6	-62.8	3.6	1.51e+00	0	24	104	0	60	49718
2026-01-09 13:42:05.93	41.28	24.02	-47.6	-62.8	3.6	1.51e+00	0	23	104	0	60	49945
2026-01-09 13:42:06.94	41.44	24.15	-47.6	-62.9	3.6	1.51e+00	0	23	104	0	60	50384
2026-01-09 13:42:07.95	41.61	24.28	-47.6	-62.8	3.6	1.51e+00	0	23	104	0	60	49954
2026-01-09 13:42:08.95	41.78	24.40	-47.6	-62.8	3.6	1.51e+00	0	23	104	0	60	49975
2026-01-09 13:42:09.96	41.95	24.53	-47.6	-62.8	3.6	1.51e+00	0	24	104	0	60	49634
2026-01-09 13:42:10.97	42.13	24.65	-47.6	-62.8	3.6	1.51e+00	0	24	104	0	60	49711
2026-01-09 13:42:11.98	42.30	24.78	-47.6	-62.8	3.6	1.51e+00	0	24	104	0	60	49612
2026-01-09 13:42:12.99	42.48	24.91	-47.6	-62.7	3.6	1.51e+00	0	23	104	0	60	49551
2026-01-09 13:42:14.00	42.65	25.04	-47.6	-62.7	3.6	1.51e+00	0	24	104	0	60	49389
2026-01-09 13:42:15.01	42.83	25.16	-47.6	-62.7	3.6	1.51e+00	0	23	104	0	60	49491
2026-01-09 13:42:16.02	43.01	25.29	-47.6	-62.8	3.6	1.51e+00	0	23	104	0	60	49877
2026-01-09 13:42:17.03	43.19	25.42	-47.6	-62.8	3.6	1.51e+00	0	23	104	0	60	49670
2026-01-09 13:42:18.04	43.38	25.55	-47.6	-62.8	3.6	1.51e+00	0	23	104	0	60	49638
2026-01-09 13:42:19.05	43.56	25.68	-47.6	-62.8	3.6	1.51e+00	0	23	104	0	60	49637
2026-01-09 13:42:20.06	43.75	25.81	-47.6	-62.8	3.6	1.51e+00	0	23	104	0	60	49804
2026-01-09 13:42:21.07	43.93	25.94	-47.6	-62.8	3.6	1.51e+00	0	23	104	0	60	49869
2026-01-09 13:42:22.08	44.12	26.07	-47.6	-62.8	3.6	1.51e+00	0	24	104	0	60	49810
2026-01-09 13:42:23.09	44.31	26.20	-47.6	-62.7	3.6	1.51e+00	0	23	104	0	60	49586
2026-01-09 13:42:24.10	44.50	26.33	-47.6	-62.8	3.6	1.51e+00	0	23	104	0	60	49902
2026-01-09 13:42:25.11	44.70	26.46	-47.6	-62.8	3.6	1.51e+00	0	23	104	0	60	49816
2026-01-09 13:42:26.12	44.89	26.60	-47.6	-62.8	3.6	1.51e+00	0	23	104	0	60	49671
2026-01-09 13:42:27.13	45.09	26.73	-47.6	-62.8	3.6	1.51e+00	0	23	104	0	60	49612
2026-01-09 13:42:28.14	45.29	26.86	-47.6	-62.7	3.6	1.51e+00	0	23	104	0	60	49409
2026-01-09 13:42:29.15	45.49	26.99	-47.6	-62.8	3.6	1.51e+00	0	24	104	0	60	49738
2026-01-09 13:42:30.16	45.69	27.13	-47.6	-62.8	3.6	1.51e+00	0	23	104	0	60	49651
2026-01-09 13:42:31.18	45.89	27.26	-47.6	-62.7	3.6	1.51e+00	0	23	104	0	60	49488
2026-01-09 13:42:32.19	46.10	27.39	-47.6	-62.7	3.6	1.51e+00	0	23	104	0	60	49585
2026-01-09 13:42:33.20	46.30	27.53	-47.6	-62.8	3.6	1.51e+00	0	24	104	0	60	49675
2026-01-09 13:42:34.21	46.51	27.66	-47.6	-62.7	3.6	1.51e+00	0	23	104	0	60	49522
2026-01-09 13:42:35.22	46.72	27.80	-47.6	-62.7	3.6	1.51e+00	0	23	104	0	60	49520
2026-01-09 13:42:36.23	46.93	27.93	-47.6	-62.8	3.6	1.51e+00	0	23	104	0	60	49639
2026-01-09 13:42:37.24	47.15	28.07	-47.6	-62.7	3.6	1.51e+00	0	23	104	0	60	49395
2026-01-09 13:42:38.25	47.36	28.20	-47.6	-62.7	3.6	1.51e+00	0	24	104	0	60	49592
2026-01-09 13:42:39.26	47.58	28.34	-47.5	-62.8	3.6	1.51e+00	0	23	104	0	60	49782
2026-01-09 13:42:40.26	47.79	28.47	-47.5	-62.8	3.6	1.51e+00	0	23	104	0	60	49662
2026-01-09 13:42:41.28	48.02	28.61	-47.5	-62.8	3.6	1.51e+00	0	24	104	0	60	49822
2026-01-09 13:42:42.29	48.24	28.74	-47.6	-62.8	3.6	1.51e+00	0	23	104	0	60	50097
2026-01-09 13:42:43.30	48.46	28.88	-47.6	-62.8	3.6	1.51e+00	0	24	104	0	60	49912
2026-01-09 13:42:44.31	48.69	29.02	-47.6	-62.7	3.6	1.51e+00	0	24	104	0	60	49396
2026-01-09 13:42:45.32	48.92	29.15	-47.6	-62.7	3.6	1.51e+00	0	23	104	0	60	49409
2026-01-09 13:42:46.33	49.15	29.29	-47.6	-62.7	3.6	1.51e+00	0	23	104	0	60	49505
2026-01-09 13:42:47.34	49.38	29.43	-47.6	-62.8	3.6	1.51e+00	0	23	104	0	60	49812
2026-01-09 13:42:48.35	49.61	29.56	-47.6	-62.8	3.6	1.51e+00	0	23	104	0	60	49763
2026-01-09 13:42:49.36	49.85	29.70	-47.6	-62.7	3.6	1.51e+00	0	23	104	0	60	49578
2026-01-09 13:42:50.36	50.08	29.84	-47.5	-62.7	3.6	1.51e+00	0	23	104	0	60	49425
2026-01-09 13:42:51.38	50.32	29.98	-47.5	-62.7	3.6	1.51e+00	0	23	104	0	60	49365
2026-01-09 13:42:52.38	50.56	30.11	-47.5	-62.7	3.6	1.51e+00	0	23	104	0	60	49427
2026-01-09 13:42:53.39	50.81	30.25	-47.6	-62.7	3.6	1.51e+00	0	23	104	0	60	49343
2026-01-09 13:42:54.40	51.05	30.39	-47.5	-62.7	3.6	1.51e+00	0	23	104	0	60	49436
2026-01-09 13:42:55.41	51.30	30.53	-47.5	-62.7	3.6	1.51e+00	0	23	104	0	60	49316
2026-01-09 13:42:56.42	51.55	30.66	-47.5	-62.7	3.6	1.51e+00	0	23	104	0	60	49412
2026-01-09 13:42:57.43	51.80	30.80	-47.5	-62.7	3.6	1.51e+00	0	23	104	0	60	49412
2026-01-09 13:42:58.44	52.06	30.94	-47.5	-62.7	3.6	1.51e+00	0	23	104	0	60	49192
2026-01-09 13:42:59.45	52.31	31.08	-47.5	-62.7	3.6	1.51e+00	0	24	104	0	60	49192
2026-01-09 13:43:00.46	52.57	31.22	-47.4	-62.7	3.6	1.51e+00	0	24	104	0	60	49145
2026-01-09 13:43:01.47	52.83	31.36	-47.5	-62.8	3.5	1.51e+00	0	23	104	0	60	49711
2026-01-09 13:43:02.48	53.09	31.49	-47.4	-62.7	3.6	1.51e+00	0	23	104	0	60	49499
2026-01-09 13:43:03.49	53.36	31.63	-47.4	-62.7	3.6	1.51e+00	0	23	104	0	60	49442
2026-01-09 13:43:04.50	53.63	31.77	-47.4	-62.7	3.6	1.51e+00	0	23	104	0	60	49307
2026-01-09 13:43:05.51	53.89	31.91	-47.4	-62.7	3.6	1.51e+00	0	23	104	0	60	49286
2026-01-09 13:43:06.52	54.17	32.05	-47.5	-62.7	3.6	1.51e+00	0	23	104	0	60	49251
2026-01-09 13:43:07.53	54.44	32.19	-47.5	-62.7	3.6	1.51e+00	0	23	104	0	60	49214
2026-01-09 13:43:08.54	54.72	32.32	-47.5	-62.7	3.6	1.51e+00	0	23	104	0	60	49309
2026-01-09 13:43:09.55	54.99	32.46	-47.5	-62.7	3.6	1.51e+00	0	23	104	0	60	49256
2026-01-09 13:43:10.55	55.27	32.60	-47.5	-62.7	3.6	1.51e+00	0	23	104	0	60	49229
2026-01-09 13:43:11.56	55.56	32.74	-47.5	-62.7	3.6	1.51e+00	0	23	104	0	60	49187
2026-01-09 13:43:12.57	55.84	32.87	-47.5	-62.7	3.6	1.51e+00	0	23	104	0	60	49198
2026-01-09 13:43:13.58	56.13	33.01	-47.5	-62.8	3.6	1.51e+00	0	23	104	0	60	49756
2026-01-09 13:43:14.59	56.42	33.15	-47.5	-62.7	3.6	1.51e+00	0	23	104	0	60	49240
2026-01-09 13:43:15.60	56.71	33.29	-47.5	-62.7	3.6	1.51e+00	0	23	104	0	60	49364
2026-01-09 13:43:16.61	57.01	33.42	-47.5	-62.7	3.6	1.51e+00	0	23	104	0	60	49233
2026-01-09 13:43:17.62	57.31	33.56	-47.5	-62.7	3.6	1.51e+00	0	23	104	0	60	49131
2026-01-09 13:43:18.63	57.61	33.70	-47.5	-62.7	3.6	1.51e+00	0	23	104	0	60	49283
2026-01-09 13:43:19.64	57.91	33.83	-47.5	-62.7	3.6	1.51e+00	0	23	104	0	60	49260
2026-01-09 13:43:20.65	58.21	33.97	-47.5	-62.7	3.6	1.51e+00	0	23	104	0	60	49119
2026-01-09 13:43:21.66	58.52	34.11	-47.5	-62.7	3.6	1.51e+00	0	23	104	0	60	49372
2026-01-09 13:43:22.67	58.83	34.24	-47.5	-62.7	3.6	1.51e+00	0	24	104	0	60	49450
2026-01-09 13:43:23.68	59.14	34.38	-47.5	-62.7	3.6	1.51e+00	0	23	104	0	60	49203
2026-01-09 13:43:24.69	59.46	34.51	-47.5	-62.7	3.6	1.51e+00	0	23	104	0	60	49151
2026-01-09 13:43:25.70	59.78	34.65	-47.5	-62.7	3.6	1.51e+00	0	24	104	0	60	49057
2026-01-09 13:43:26.71	60.10	34.78	-47.5	-62.6	3.6	1.51e+00	0	24	104	0	60	49037
2026-01-09 13:43:27.71	60.42	34.91	-47.5	-62.6	3.6	1.51e+00	0	23	104	0	60	48911
2026-01-09 13:43:28.73	60.75	35.05	-47.5	-62.7	3.6	1.51e+00	0	24	104	0	60	49203
2026-01-09 13:43:29.74	61.08	35.18	-47.5	-62.7	3.6	1.51e+00	0	24	104	0	60	49313
2026-01-09 13:43:30.75	61.41	35.31	-47.5	-62.7	3.6	1.51e+00	0	24	104	0	60	49183
2026-01-09 13:43:31.76	61.74	35.44	-47.5	-62.7	3.6	1.51e+00	0	23	104	0	60	49047
2026-01-09 13:43:32.77	62.08	35.58	-47.4	-62.6	3.6	1.51e+00	0	23	104	0	60	48929
2026-01-09 13:43:33.77	62.41	35.70	-47.4	-62.6	3.6	1.51e+00	0	23	104	0	60	48700
2026-01-09 13:43:34.79	62.76	35.84	-47.4	-62.6	3.6	1.51e+00	0	23	104	0	60	48877
2026-01-09 13:43:35.80	63.10	35.97	-47.4	-62.7	3.6	1.51e+00	0	23	104	0	60	49383
2026-01-09 13:43:36.81	63.45	36.09	-47.4	-62.6	3.6	1.51e+00	0	23	104	0	60	48784
2026-01-09 13:43:37.82	63.80	36.22	-47.4	-62.7	3.6	1.51e+00	0	23	104	0	60	49084
2026-01-09 13:43:38.82	64.15	36.35	-47.4	-62.6	3.6	1.51e+00	0	23	104	0	60	48740
2026-01-09 13:43:39.83	64.50	36.48	-47.4	-62.6	3.6	1.51e+00	0	23	104	0	60	48806
2026-01-09 13:43:40.84	64.86	36.60	-47.4	-62.6	3.6	1.51e+00	0	23	104	0	60	48974
2026-01-09 13:43:41.85	65.22	36.73	-47.5	-62.6	3.6	1.51e+00	0	23	104	0	60	48996
2026-01-09 13:43:42.86	65.59	36.85	-47.5	-62.7	3.6	1.51e+00	0	23	104	0	60	49046
2026-01-09 13:43:43.87	65.95	36.98	-47.4	-62.6	3.6	1.51e+00	0	23	104	0	60	48818
2026-01-09 13:43:44.88	66.32	37.10	-47.4	-62.6	3.6	1.51e+00	0	23	104	0	60	48935
2026-01-09 13:43:45.89	66.69	37.22	-47.4	-62.6	3.6	1.51e+00	0	23	104	0	60	48878
2026-01-09 13:43:46.90	67.07	37.34	-47.5	-62.6	3.6	1.51e+00	0	23	104	0	60	49035
2026-01-09 13:43:47.91	67.44	37.46	-47.4	-62.6	3.6	1.51e+00	0	23	104	0	60	48736
2026-01-09 13:43:48.92	67.82	37.58	-47.4	-62.6	3.6	1.51e+00	0	23	104	0	60	48803
2026-01-09 13:43:49.93	68.21	37.70	-47.4	-62.6	3.6	1.51e+00	0	23	104	0	60	48709
2026-01-09 13:43:50.94	68.59	37.82	-47.4	-62.6	3.6	1.51e+00	0	23	104	0	60	48839
2026-01-09 13:43:51.95	68.98	37.94	-47.4	-62.7	3.6	1.51e+00	0	23	104	0	60	49193
2026-01-09 13:43:52.96	69.37	38.05	-47.4	-62.6	3.6	1.51e+00	0	23	104	0	60	48712
2026-01-09 13:43:53.97	69.77	38.17	-47.4	-62.6	3.6	1.51e+00	0	23	104	0	60	48579
2026-01-09 13:43:54.98	70.16	38.28	-47.4	-62.6	3.6	1.51e+00	0	23	104	0	60	48910
2026-01-09 13:43:55.99	70.56	38.39	-47.4	-62.6	3.6	1.51e+00	0	23	104	0	60	48695
2026-01-09 13:43:57.00	70.96	38.50	-47.4	-62.6	3.6	1.51e+00	0	23	104	0	60	48684
2026-01-09 13:43:58.01	71.37	38.61	-47.4	-62.6	3.6	1.51e+00	0	24	104	0	60	48746
2026-01-09 13:43:59.02	71.77	38.72	-47.4	-62.6	3.6	1.51e+00	0	23	104	0	60	48509
2026-01-09 13:44:00.03	72.18	38.83	-47.4	-62.6	3.6	1.51e+00	0	23	104	0	60	48548
2026-01-09 13:44:01.04	72.60	38.94	-47.4	-62.6	3.6	1.51e+00	0	23	104	0	60	48961
2026-01-09 13:44:02.05	73.01	39.04	-47.4	-62.6	3.6	1.51e+00	0	24	104	0	60	48714
2026-01-09 13:44:03.06	73.43	39.14	-47.4	-62.6	3.6	1.51e+00	0	23	104	0	60	48953
2026-01-09 13:44:04.07	73.85	39.25	-47.4	-62.6	3.6	1.51e+00	0	23	104	0	60	48930
2026-01-09 13:44:05.08	74.27	39.35	-47.4	-62.6	3.6	1.51e+00	0	23	104	0	60	48983
2026-01-09 13:44:06.09	74.70	39.45	-47.4	-62.6	3.6	1.51e+00	0	23	104	0	60	48742
2026-01-09 13:44:07.10	75.13	39.54	-47.4	-62.6	3.6	1.51e+00	0	23	104	0	60	48759
2026-01-09 13:44:08.11	75.56	39.64	-47.4	-62.6	3.6	1.51e+00	0	23	104	0	60	48620
2026-01-09 13:44:09.12	75.99	39.73	-47.4	-62.6	3.6	1.51e+00	0	23	104	0	60	48780
2026-01-09 13:44:10.13	76.43	39.83	-47.4	-62.5	3.6	1.51e+00	0	23	104	0	60	48436
2026-01-09 13:44:11.14	76.87	39.92	-47.4	-62.6	3.6	1.51e+00	0	23	104	0	60	48870
2026-01-09 13:44:12.15	77.31	40.01	-47.4	-62.6	3.6	1.51e+00	0	23	104	0	60	48698
2026-01-09 13:44:13.16	77.75	40.10	-47.4	-62.5	3.6	1.51e+00	0	24	104	0	60	48431
2026-01-09 13:44:14.17	78.20	40.18	-47.4	-62.6	3.6	1.51e+00	0	23	104	0	60	48635
2026-01-09 13:44:15.18	78.65	40.27	-47.4	-62.6	3.6	1.51e+00	0	23	104	0	60	48639
2026-01-09 13:44:16.19	79.10	40.35	-47.4	-62.6	3.6	1.51e+00	0	23	104	0	60	48482
2026-01-09 13:44:17.20	79.55	40.43	-47.4	-62.5	3.6	1.51e+00	0	23	104	0	60	48388
2026-01-09 13:44:18.21	80.00	40.51	-47.4	-62.5	3.6	1.51e+00	0	24	104	0	60	48478
2026-01-09 13:44:19.22	80.46	40.59	-47.4	-62.5	3.6	1.51e+00	0	23	104	0	60	48359
2026-01-09 13:44:20.23	80.92	40.67	-47.4	-62.6	3.6	1.51e+00	0	23	104	0	60	48645
2026-01-09 13:44:21.24	81.38	40.74	-47.4	-62.6	3.6	1.51e+00	0	23	104	0	60	48559
2026-01-09 13:44:22.25	81.84	40.81	-47.3	-62.5	3.6	1.51e+00	0	23	104	0	60	48402
2026-01-09 13:44:23.26	82.31	40.88	-47.3	-62.5	3.6	1.51e+00	0	23	104	0	60	48278
2026-01-09 13:44:24.27	82.78	40.95	-47.3	-62.5	3.6	1.51e+00	0	23	104	0	60	48296
2026-01-09 13:44:25.28	83.25	41.02	-47.3	-62.5	3.6	1.51e+00	0	23	104	0	60	48352
2026-01-09 13:44:26.29	83.72	41.08	-47.3	-62.6	3.6	1.51e+00	0	23	104	0	60	48481
2026-01-09 13:44:27.30	84.19	41.14	-47.3	-62.5	3.6	1.51e+00	0	24	104	0	60	48323
2026-01-09 13:44:28.31	84.66	41.20	-47.3	-62.6	3.6	1.51e+00	0	24	104	0	60	48509
2026-01-09 13:44:29.32	85.14	41.26	-47.4	-62.5	3.6	1.51e+00	0	23	104	0	60	48376
2026-01-09 13:44:30.33	85.62	41.32	-47.3	-62.5	3.6	1.51e+00	0	23	104	0	60	48438
2026-01-09 13:44:31.34	86.10	41.37	-47.3	-62.5	3.6	1.51e+00	0	23	104	0	60	48073
2026-01-09 13:44:32.35	86.58	41.42	-47.3	-62.5	3.6	1.51e+00	0	23	104	0	60	48160
2026-01-09 13:44:33.36	87.06	41.47	-47.3	-62.6	3.6	1.51e+00	0	24	104	0	60	48521
2026-01-09 13:44:34.37	87.55	41.52	-47.3	-62.5	3.6	1.51e+00	0	24	104	0	60	48280
2026-01-09 13:44:35.38	88.03	41.57	-47.3	-62.5	3.6	1.51e+00	0	23	104	0	60	48220
2026-01-09 13:44:36.39	88.52	41.61	-47.3	-62.6	3.6	1.51e+00	0	23	104	0	60	48490
2026-01-09 13:44:37.40	89.01	41.65	-47.3	-62.5	3.6	1.51e+00	0	23	104	0	60	48144
2026-01-09 13:44:38.41	89.50	41.69	-47.3	-62.5	3.6	1.51e+00	0	23	104	0	60	48147
2026-01-09 13:44:39.42	89.99	41.73	-47.3	-62.5	3.6	1.51e+00	0	23	104	0	60	48133
2026-01-09 13:44:40.43	90.48	41.76	-47.3	-62.5	3.6	1.51e+00	0	23	104	0	60	48266
2026-01-09 13:44:41.44	90.97	41.79	-47.3	-62.5	3.6	1.51e+00	0	24	104	0	60	48289
2026-01-09 13:44:42.45	91.47	41.82	-47.3	-62.5	3.6	1.51e+00	0	24	104	0	60	48036
2026-01-09 13:44:43.46	91.96	41.85	-47.3	-62.5	3.6	1.51e+00	0	23	104	0	60	48178
2026-01-09 13:44:44.47	92.46	41.87	-47.3	-62.5	3.6	1.51e+00	0	23	104	0	60	48098
2026-01-09 13:44:45.48	92.95	41.90	-47.3	-62.5	3.6	1.51e+00	0	24	104	0	60	48013
2026-01-09 13:44:46.49	93.45	41.92	-47.3	-62.5	3.6	1.51e+00	0	24	104	0	60	48179
2026-01-09 13:44:47.50	93.95	41.94	-47.3	-62.4	3.6	1.51e+00	0	23	104	0	60	47764
2026-01-09 13:44:48.51	94.45	41.95	-47.2	-62.5	3.6	1.51e+00	0	23	104	0	60	48045
2026-01-09 13:44:49.52	94.94	41.96	-47.2	-62.4	3.6	1.51e+00	0	23	104	0	60	47833
2026-01-09 13:44:50.53	95.44	41.97	-47.2	-62.5	3.6	1.51e+00	0	24	104	0	60	47981
2026-01-09 13:44:51.54	95.94	41.98	-47.2	-62.5	3.6	1.51e+00	0	24	104	0	60	48022
2026-01-09 13:44:52.55	96.44	41.99	-47.2	-62.5	3.6	1.51e+00	0	24	104	0	60	48139
2026-01-09 13:44:53.56	96.94	41.99	-47.2	-62.4	3.6	1.51e+00	0	24	104	0	60	47727
2026-01-09 13:44:54.57	97.44	41.99	-47.2	-62.5	3.6	1.51e+00	0	24	104	0	60	47935
2026-01-09 13:44:55.58	97.94	41.99	-47.2	-62.4	3.6	1.51e+00	0	24	104	0	60	47871
2026-01-09 13:44:56.59	98.44	41.99	-47.2	-62.4	3.6	1.51e+00	0	24	104	0	60	47604
2026-01-09 13:44:57.60	98.94	41.98	-47.2	-62.4	3.6	1.51e+00	0	24	104	0	60	47767
2026-01-09 13:44:58.61	99.44	41.98	-47.2	-62.4	3.6	1.51e+00	0	23	104	0	60	47761
2026-01-09 13:44:59.62	99.94	41.96	-47.2	-62.4	3.6	1.51e+00	0	23	104	0	60	47831
2026-01-09 13:45:00.63	100.44	41.95	-47.2	-62.4	3.6	1.51e+00	0	23	104	0	60	47832
2026-01-09 13:45:01.64	100.93	41.94	-47.2	-62.4	3.6	1.51e+00	0	23	104	0	60	47392
2026-01-09 13:45:02.64	101.43	41.92	-47.2	-62.4	3.6	1.51e+00	0	23	104	0	60	47621
2026-01-09 13:45:03.65	101.92	41.90	-47.2	-62.4	3.6	1.51e+00	0	23	104	0	60	47829
2026-01-09 13:45:04.66	102.42	41.88	-47.2	-62.4	3.6	1.51e+00	0	24	104	0	60	47590
2026-01-09 13:45:05.67	102.92	41.85	-47.2	-62.4	3.6	1.51e+00	0	24	104	0	60	47602
2026-01-09 13:45:06.68	103.41	41.82	-47.2	-62.4	3.6	1.51e+00	0	24	104	0	60	47700
2026-01-09 13:45:07.69	103.90	41.79	-47.2	-62.4	3.6	1.51e+00	0	24	104	0	60	47619
2026-01-09 13:45:08.70	104.40	41.76	-47.2	-62.5	3.6	1.51e+00	0	23	104	0	60	47936
2026-01-09 13:45:09.71	104.89	41.73	-47.2	-62.4	3.6	1.51e+00	0	23	104	0	60	47567
2026-01-09 13:45:10.72	105.38	41.69	-47.2	-62.4	3.6	1.51e+00	0	23	104	0	60	47440
2026-01-09 13:45:11.73	105.87	41.65	-47.2	-62.4	3.6	1.51e+00	0	23	104	0	60	47597
2026-01-09 13:45:12.74	106.36	41.61	-47.2	-62.3	3.6	1.51e+00	0	24	104	0	60	47298
2026-01-09 13:45:13.75	106.85	41.57	-47.2	-62.3	3.6	1.51e+00	0	24	104	0	60	47309
2026-01-09 13:45:14.76	107.33	41.52	-47.2	-62.4	3.6	1.51e+00	0	24	104	0	60	47377
2026-01-09 13:45:15.77	107.82	41.48	-47.1	-62.3	3.6	1.51e+00	0	24	104	0	60	47242
2026-01-09 13:45:16.78	108.30	41.43	-47.1	-62.4	3.6	1.51e+00	0	24	104	0	60	47506
2026-01-09 13:45:17.79	108.78	41.38	-47.1	-62.3	3.6	1.51e+00	0	23	104	0	60	47337
2026-01-09 13:45:18.80	109.26	41.32	-47.1	-62.4	3.6	1.51e+00	0	23	104	0	60	47396
2026-01-09 13:45:19.81	109.74	41.27	-47.1	-62.4	3.6	1.51e+00	0	23	104	0	60	47536
2026-01-09 13:45:20.82	110.22	41.21	-47.1	-62.4	3.6	1.51e+00	0	24	104	0	60	47486
2026-01-09 13:45:21.83	110.70	41.15	-47.1	-62.3	3.6	1.51e+00	0	23	104	0	60	47253
2026-01-09 13:45:22.84	111.17	41.08	-47.1	-62.3	3.6	1.51e+00	0	24	104	0	60	47160
2026-01-09 13:45:23.84	111.64	41.02	-47.2	-62.3	3.6	1.51e+00	0	24	104	0	60	47296
2026-01-09 13:45:24.85	112.11	40.95	-47.1	-62.3	3.6	1.51e+00	0	24	104	0	60	47281
2026-01-09 13:45:25.87	112.58	40.89	-47.1	-62.3	3.6	1.51e+00	0	24	104	0	60	47321
2026-01-09 13:45:26.88	113.05	40.82	-47.1	-62.3	3.6	1.51e+00	0	23	104	0	60	47207
2026-01-09 13:45:27.89	113.51	40.74	-47.1	-62.3	3.6	1.51e+00	0	23	104	0	60	47057
2026-01-09 13:45:28.90	113.97	40.67	-47.1	-62.3	3.6	1.51e+00	0	23	104	0	60	47040
2026-01-09 13:45:29.91	114.43	40.59	-47.1	-62.3	3.6	1.51e+00	0	23	104	0	60	46995
2026-01-09 13:45:30.92	114.89	40.52	-47.1	-62.3	3.6	1.51e+00	0	24	104	0	60	47041
2026-01-09 13:45:31.93	115.35	40.44	-47.1	-62.3	3.6	1.51e+00	0	23	104	0	60	46990
2026-01-09 13:45:32.94	115.80	40.35	-47.1	-62.2	3.6	1.51e+00	0	23	104	0	60	46730
2026-01-09 13:45:33.95	116.25	40.27	-47.1	-62.3	3.6	1.51e+00	0	23	104	0	60	46868
2026-01-09 13:45:34.96	116.70	40.19	-47.1	-62.3	3.6	1.51e+00	0	23	104	0	60	46922
2026-01-09 13:45:35.97	117.15	40.10	-47.1	-62.2	3.6	1.51e+00	0	23	104	0	60	46662
2026-01-09 13:45:36.98	117.59	40.01	-47.1	-62.3	3.6	1.51e+00	0	23	104	0	60	46982
2026-01-09 13:45:37.99	118.03	39.92	-47.1	-62.3	3.6	1.51e+00	0	24	104	0	60	46854
2026-01-09 13:45:39.00	118.47	39.83	-47.1	-62.2	3.6	1.51e+00	0	24	104	0	60	46749
2026-01-09 13:45:40.01	118.91	39.74	-47.1	-62.3	3.6	1.51e+00	0	23	104	0	60	46891
2026-01-09 13:45:41.02	119.34	39.64	-47.1	-62.2	3.6	1.51e+00	0	23	104	0	60	46651
2026-01-09 13:45:42.03	119.77	39.54	-47.1	-62.2	3.6	1.51e+00	0	23	104	0	60	46755
2026-01-09 13:45:43.04	120.20	39.45	-47.0	-62.2	3.6	1.51e+00	0	23	104	0	60	46512
2026-01-09 13:45:44.05	120.63	39.35	-47.0	-62.3	3.6	1.51e+00	0	23	104	0	60	46836
2026-01-09 13:45:45.06	121.05	39.25	-47.0	-62.2	3.6	1.51e+00	0	23	104	0	60	46522
2026-01-09 13:45:46.07	121.48	39.14	-47.0	-62.2	3.6	1.51e+00	0	23	104	0	60	46623
2026-01-09 13:45:47.07	121.89	39.04	-47.0	-62.3	3.6	1.51e+00	0	24	104	0	60	46896
2026-01-09 13:45:48.08	122.31	38.94	-47.0	-62.2	3.6	1.51e+00	0	23	104	0	60	46748
2026-01-09 13:45:49.09	122.72	38.83	-47.0	-62.2	3.6	1.51e+00	0	23	104	0	60	46665
2026-01-09 13:45:50.10	123.13	38.72	-47.0	-62.2	3.6	1.51e+00	0	23	104	0	60	46639
2026-01-09 13:45:51.11	123.54	38.61	-47.0	-62.2	3.6	1.51e+00	0	23	104	0	60	46518
2026-01-09 13:45:52.12	123.95	38.50	-47.0	-62.2	3.6	1.51e+00	0	23	104	0	60	46536
2026-01-09 13:45:53.13	124.35	38.39	-47.0	-62.2	3.5	1.51e+00	0	23	104	0	60	46677
2026-01-09 13:45:54.14	124.75	38.28	-47.0	-62.2	3.6	1.51e+00	0	23	104	0	60	46520
2026-01-09 13:45:55.15	125.15	38.17	-46.9	-62.2	3.6	1.51e+00	0	23	104	0	60	46480
2026-01-09 13:45:56.16	125.54	38.05	-46.9	-62.2	3.6	1.51e+00	0	23	104	0	60	46355
2026-01-09 13:45:57.17	125.93	37.93	-46.9	-62.2	3.6	1.51e+00	0	23	104	0	60	46464
2026-01-09 13:45:58.18	126.32	37.82	-46.9	-62.2	3.6	1.51e+00	0	23	104	0	60	46589
2026-01-09 13:45:59.19	126.71	37.70	-46.8	-62.2	3.6	1.51e+00	0	23	104	0	60	46434
2026-01-09 13:46:00.20	127.09	37.58	-46.8	-62.2	3.6	1.51e+00	0	23	104	0	60	46336
2026-01-09 13:46:01.21	127.47	37.46	-46.8	-62.2	3.6	1.51e+00	0	23	104	0	60	46395
2026-01-09 13:46:02.22	127.85	37.34	-46.9	-62.2	3.6	1.51e+00	0	23	104	0	60	46440
2026-01-09 13:46:03.23	128.23	37.22	-46.9	-62.2	3.6	1.51e+00	0	23	104	0	60	46492
2026-01-09 13:46:04.24	128.60	37.09	-46.9	-62.2	3.6	1.51e+00	0	23	104	0	60	46328
2026-01-09 13:46:05.25	128.97	36.97	-46.9	-62.1	3.6	1.51e+00	0	23	104	0	60	46144
2026-01-09 13:46:06.26	129.34	36.85	-46.9	-62.1	3.6	1.51e+00	0	23	104	0	60	46119
2026-01-09 13:46:07.27	129.70	36.72	-46.9	-62.1	3.6	1.51e+00	0	23	104	0	60	46000
2026-01-09 13:46:08.28	130.06	36.60	-46.8	-62.1	3.6	1.51e+00	0	23	104	0	60	46207
2026-01-09 13:46:09.29	130.42	36.47	-46.8	-62.1	3.6	1.51e+00	0	23	104	0	60	46123
2026-01-09 13:46:10.30	130.78	36.34	-46.8	-62.1	3.6	1.51e+00	0	23	104	0	60	46250
2026-01-09 13:46:11.31	131.13	36.21	-46.8	-62.1	3.6	1.51e+00	0	23	104	0	60	45963
2026-01-09 13:46:12.32	131.48	36.08	-46.9	-62.1	3.6	1.51e+00	0	23	104	0	60	46140
2026-01-09 13:46:13.33	131.83	35.95	-46.9	-62.2	3.6	1.51e+00	0	23	104	0	60	46415
2026-01-09 13:46:14.33	132.17	35.83	-46.9	-62.1	3.6	1.51e+00	0	23	104	0	60	45921
2026-01-09 13:46:15.34	132.52	35.69	-46.9	-62.1	3.6	1.51e+00	0	23	104	0	60	46066
2026-01-09 13:46:16.35	132.86	35.56	-46.9	-62.1	3.6	1.51e+00	0	23	104	0	60	46087
2026-01-09 13:46:17.36	133.19	35.43	-46.9	-62.1	3.6	1.51e+00	0	23	104	0	60	46005
2026-01-09 13:46:18.37	133.53	35.30	-46.9	-62.1	3.6	1.51e+00	0	24	104	0	60	46169
2026-01-09 13:46:19.38	133.86	35.17	-46.9	-62.1	3.6	1.51e+00	0	24	104	0	60	46129
2026-01-09 13:46:20.39	134.19	35.03	-46.9	-62.1	3.6	1.51e+00	0	24	104	0	60	46101
2026-01-09 13:46:21.40	134.52	34.90	-46.9	-62.1	3.6	1.51e+00	0	23	104	0	60	45810
2026-01-09 13:46:22.41	134.84	34.76	-46.9	-62.1	3.6	1.51e+00	0	24	104	0	60	45948
2026-01-09 13:46:23.42	135.16	34.63	-46.9	-62.1	3.6	1.51e+00	0	24	104	0	60	46062
2026-01-09 13:46:24.43	135.48	34.49	-46.9	-62.1	3.6	1.51e+00	0	23	104	0	60	45984
2026-01-09 13:46:25.44	135.80	34.36	-46.9	-62.1	3.6	1.51e+00	0	23	104	0	60	45865
2026-01-09 13:46:26.45	136.11	34.22	-46.9	-62.1	3.6	1.51e+00	0	24	104	0	60	45952
2026-01-09 13:46:27.46	136.42	34.09	-46.9	-62.1	3.6	1.51e+00	0	23	104	0	60	45807
2026-01-09 13:46:28.47	136.73	33.95	-46.9	-62.1	3.6	1.51e+00	0	23	104	0	60	45826
2026-01-09 13:46:29.48	137.04	33.81	-46.9	-62.0	3.6	1.51e+00	0	23	104	0	60	45681
2026-01-09 13:46:30.49	137.34	33.68	-46.9	-62.0	3.6	1.51e+00	0	24	104	0	60	45670
2026-01-09 13:46:31.50	137.64	33.54	-46.9	-62.1	3.6	1.51e+00	0	23	104	0	60	45820
2026-01-09 13:46:32.51	137.94	33.40	-46.9	-62.0	3.6	1.51e+00	0	23	104	0	60	45745
2026-01-09 13:46:33.52	138.24	33.26	-46.9	-62.0	3.6	1.51e+00	0	23	104	0	60	45615
2026-01-09 13:46:34.53	138.53	33.13	-46.9	-62.1	3.6	1.51e+00	0	24	104	0	60	45914
2026-01-09 13:46:35.53	138.82	32.99	-46.9	-62.1	3.6	1.51e+00	0	24	104	0	60	45817
2026-01-09 13:46:36.54	139.11	32.85	-46.8	-62.0	3.6	1.51e+00	0	23	104	0	60	45716
2026-01-09 13:46:37.56	139.40	32.71	-46.8	-62.0	3.6	1.51e+00	0	23	104	0	60	45668
2026-01-09 13:46:38.56	139.68	32.57	-46.8	-62.0	3.6	1.51e+00	0	23	104	0	60	45406
2026-01-09 13:46:39.57	139.96	32.44	-46.8	-62.0	3.6	1.51e+00	0	23	104	0	60	45552
2026-01-09 13:46:40.58	140.24	32.30	-46.8	-62.0	3.6	1.51e+00	0	23	104	0	60	45577
2026-01-09 13:46:41.59	140.51	32.16	-46.8	-62.0	3.6	1.51e+00	0	23	104	0	60	45620
2026-01-09 13:46:42.60	140.79	32.02	-46.8	-62.0	3.6	1.51e+00	0	23	104	0	60	45348
2026-01-09 13:46:43.61	141.06	31.88	-46.8	-62.0	3.6	1.51e+00	0	23	104	0	60	45489
2026-01-09 13:46:44.62	141.33	31.74	-46.8	-62.0	3.6	1.51e+00	0	23	104	0	60	45308
2026-01-09 13:46:45.63	141.60	31.60	-46.8	-62.0	3.6	1.51e+00	0	23	104	0	60	45611
2026-01-09 13:46:46.64	141.86	31.46	-46.8	-62.0	3.6	1.51e+00	0	23	104	0	60	45439
2026-01-09 13:46:47.65	142.13	31.32	-46.8	-62.0	3.6	1.51e+00	0	23	104	0	60	45435
2026-01-09 13:46:48.66	142.39	31.18	-46.8	-61.9	3.6	1.51e+00	0	23	104	0	60	45225
2026-01-09 13:46:49.67	142.65	31.04	-46.8	-62.0	3.6	1.51e+00	0	23	104	0	60	45318
2026-01-09 13:46:50.68	142.90	30.91	-46.8	-61.9	3.6	1.51e+00	0	24	104	0	60	45243
2026-01-09 13:46:51.69	143.16	30.77	-46.8	-62.0	3.6	1.51e+00	0	23	104	0	60	45286
2026-01-09 13:46:52.70	143.41	30.63	-46.8	-62.0	3.6	1.51e+00	0	23	104	0	60	45298
2026-01-09 13:46:53.71	143.66	30.49	-46.8	-62.0	3.6	1.51e+00	0	23	104	0	60	45260
2026-01-09 13:46:54.72	143.91	30.35	-46.8	-61.9	3.6	1.51e+00	0	23	104	0	60	45025
2026-01-09 13:46:55.73	144.16	30.21	-46.8	-61.9	3.6	1.51e+00	0	23	104	0	60	45091
2026-01-09 13:46:56.74	144.40	30.07	-46.8	-61.9	3.6	1.51e+00	0	23	104	0	60	45139
2026-01-09 13:46:57.75	144.64	29.93	-46.7	-61.9	3.6	1.51e+00	0	23	104	0	60	45173
2026-01-09 13:46:58.76	144.88	29.80	-46.7	-61.9	3.6	1.51e+00	0	23	104	0	60	45225
2026-01-09 13:46:59.77	145.12	29.66	-46.7	-61.9	3.6	1.51e+00	0	23	104	0	60	45128
2026-01-09 13:47:00.78	145.36	29.52	-46.7	-61.9	3.6	1.51e+00	0	24	104	0	60	45083
2026-01-09 13:47:01.79	145.59	29.38	-46.7	-61.9	3.6	1.51e+00	0	23	104	0	60	44895
2026-01-09 13:47:02.80	145.82	29.24	-46.7	-61.9	3.6	1.51e+00	0	23	104	0	60	45013
2026-01-09 13:47:03.81	146.05	29.11	-46.7	-61.9	3.6	1.51e+00	0	23	104	0	60	44885
2026-01-09 13:47:04.82	146.28	28.97	-46.7	-61.9	3.6	1.51e+00	0	23	104	0	60	45171
2026-01-09 13:47:05.83	146.51	28.83	-46.7	-61.9	3.6	1.51e+00	0	23	104	0	60	45036
2026-01-09 13:47:06.84	146.73	28.70	-46.7	-61.8	3.6	1.51e+00	0	23	104	0	60	44689
2026-01-09 13:47:07.85	146.96	28.56	-46.7	-61.9	3.6	1.51e+00	0	23	104	0	60	44874
2026-01-09 13:47:08.86	147.18	28.42	-46.7	-61.9	3.6	1.51e+00	0	23	104	0	60	44821
2026-01-09 13:47:09.87	147.40	28.29	-46.7	-61.9	3.6	1.51e+00	0	23	104	0	60	45013
2026-01-09 13:47:10.88	147.61	28.15	-46.7	-61.9	3.6	1.51e+00	0	24	104	0	60	44783
2026-01-09 13:47:11.89	147.83	28.01	-46.7	-61.9	3.6	1.51e+00	0	23	104	0	60	44930
2026-01-09 13:47:12.90	148.04	27.88	-46.7	-61.8	3.6	1.51e+00	0	23	104	0	60	44657
2026-01-09 13:47:13.92	148.26	27.74	-46.7	-61.8	3.6	1.51e+00	0	23	104	0	60	44565
2026-01-09 13:47:14.93	148.47	27.61	-46.7	-61.8	3.6	1.51e+00	0	23	104	0	60	44555
2026-01-09 13:47:15.93	148.67	27.47	-46.7	-61.8	3.6	1.51e+00	0	23	104	0	60	44522
2026-01-09 13:47:16.94	148.88	27.34	-46.7	-61.8	3.6	1.51e+00	0	23	104	0	60	44320
2026-01-09 13:47:17.95	149.08	27.21	-46.6	-61.8	3.6	1.51e+00	0	23	104	0	60	44361
2026-01-09 13:47:18.96	149.29	27.07	-46.6	-61.8	3.6	1.51e+00	0	23	104	0	60	44530
2026-01-09 13:47:19.97	149.49	26.94	-46.6	-61.8	3.6	1.51e+00	0	24	104	0	60	44524
2026-01-09 13:47:20.98	149.69	26.80	-46.6	-61.8	3.6	1.51e+00	0	23	104	0	60	44436
2026-01-09 13:47:21.99	149.89	26.67	-46.6	-61.8	3.6	1.51e+00	0	23	104	0	60	44236
2026-01-09 13:47:23.00	150.08	26.54	-46.6	-61.8	3.6	1.51e+00	0	23	104	0	60	44226
2026-01-09 13:47:24.01	150.28	26.41	-46.6	-61.8	3.6	1.51e+00	0	23	104	0	60	44267
2026-01-09 13:47:25.02	150.47	26.27	-46.6	-61.8	3.6	1.51e+00	0	23	104	0	60	44230
2026-01-09 13:47:26.03	150.67	26.14	-46.6	-61.7	3.6	1.51e+00	0	23	104	0	60	44190
2026-01-09 13:47:27.04	150.86	26.01	-46.5	-61.8	3.6	1.51e+00	0	23	104	0	60	44243
2026-01-09 13:47:28.05	151.05	25.88	-46.5	-61.8	3.6	1.51e+00	0	23	104	0	60	44239
2026-01-09 13:47:29.06	151.23	25.75	-46.5	-61.7	3.6	1.51e+00	0	23	104	0	60	44065
2026-01-09 13:47:30.07	151.42	25.62	-46.5	-61.7	3.6	1.51e+00	0	23	104	0	60	43990
2026-01-09 13:47:31.07	151.60	25.49	-46.5	-61.7	3.6	1.51e+00	0	23	104	0	60	43933
2026-01-09 13:47:32.08	151.78	25.36	-46.5	-61.7	3.6	1.51e+00	0	24	104	0	60	44091
2026-01-09 13:47:33.09	151.97	25.23	-46.5	-61.7	3.6	1.51e+00	0	23	104	0	60	44000
2026-01-09 13:47:34.10	152.15	25.10	-46.5	-61.7	3.6	1.51e+00	0	23	104	0	60	43873
2026-01-09 13:47:35.11	152.32	24.97	-46.5	-61.7	3.6	1.51e+00	0	24	104	0	60	43920
2026-01-09 13:47:36.12	152.50	24.84	-46.5	-61.7	3.6	1.51e+00	0	23	104	0	60	43918
2026-01-09 13:47:37.13	152.68	24.71	-46.5	-61.7	3.6	1.51e+00	0	23	104	0	60	43798
2026-01-09 13:47:38.14	152.85	24.59	-46.5	-61.7	3.6	1.51e+00	0	23	104	0	60	43955
2026-01-09 13:47:39.15	153.03	24.46	-46.5	-61.7	3.6	1.51e+00	0	24	104	0	60	43734
2026-01-09 13:47:40.16	153.20	24.33	-46.5	-61.7	3.6	1.51e+00	0	24	104	0	60	43749
2026-01-09 13:47:41.17	153.37	24.20	-46.4	-61.6	3.6	1.51e+00	0	23	104	0	60	43564
2026-01-09 13:47:42.18	153.54	24.08	-46.4	-61.7	3.6	1.51e+00	0	23	104	0	60	43741
2026-01-09 13:47:43.20	153.71	23.95	-46.4	-61.6	3.6	1.51e+00	0	23	104	0	60	43530
2026-01-09 13:47:44.21	153.87	23.82	-46.4	-61.6	3.6	1.51e+00	0	23	104	0	60	43675
2026-01-09 13:47:45.21	154.04	23.70	-46.4	-61.6	3.6	1.51e+00	0	23	104	0	60	43328
2026-01-09 13:47:46.22	154.20	23.58	-46.4	-61.6	3.6	1.51e+00	0	23	104	0	60	43414
2026-01-09 13:47:47.23	154.36	23.45	-46.4	-61.6	3.6	1.51e+00	0	23	104	0	60	43508
2026-01-09 13:47:48.24	154.52	23.33	-46.4	-61.6	3.6	1.51e+00	0	23	104	0	60	43277
2026-01-09 13:47:49.25	154.68	23.20	-46.4	-61.6	3.6	1.51e+00	0	23	104	0	60	43557
2026-01-09 13:47:50.26	154.84	23.08	-46.4	-61.5	3.6	1.51e+00	0	24	104	0	60	43062
2026-01-09 13:47:51.27	155.00	22.96	-46.4	-61.5	3.6	1.51e+00	0	24	104	0	60	43119
2026-01-09 13:47:52.28	155.16	22.83	-46.4	-61.6	3.6	1.51e+00	0	23	104	0	60	43372
2026-01-09 13:47:53.29	155.31	22.71	-46.4	-61.5	3.6	1.51e+00	0	23	104	0	60	43031
2026-01-09 13:47:54.30	155.47	22.59	-46.3	-61.5	3.6	1.51e+00	0	24	104	0	60	43052
2026-01-09 13:47:55.31	155.62	22.47	-46.3	-61.6	3.6	1.51e+00	0	23	104	0	60	43211
2026-01-09 13:47:56.32	155.77	22.35	-46.3	-61.4	3.6	1.51e+00	0	23	104	0	60	42641
2026-01-09 13:47:57.33	155.92	22.22	-46.3	-61.5	3.6	1.51e+00	0	24	104	0	60	42894
2026-01-09 13:47:58.34	156.07	22.10	-46.3	-61.4	3.6	1.51e+00	0	23	104	0	60	42673
2026-01-09 13:47:59.35	156.22	21.98	-46.3	-61.4	3.6	1.51e+00	0	24	104	0	60	42708
2026-01-09 13:48:00.36	156.37	21.86	-46.3	-61.4	3.6	1.51e+00	0	23	104	0	60	42645
2026-01-09 13:48:01.37	156.52	21.74	-46.3	-61.4	3.6	1.51e+00	0	23	104	0	60	42583
2026-01-09 13:48:02.38	156.66	21.63	-46.2	-61.4	3.6	1.51e+00	0	23	104	0	60	42557
2026-01-09 13:48:03.39	156.80	21.51	-46.2	-61.4	3.6	1.51e+00	0	23	104	0	60	42308
2026-01-09 13:48:04.40	156.95	21.39	-46.2	-61.4	3.6	1.51e+00	0	24	104	0	60	42526
2026-01-09 13:48:05.41	157.09	21.27	-46.2	-61.3	3.6	1.51e+00	0	23	104	0	60	42186
2026-01-09 13:48:06.42	157.23	21.15	-46.2	-61.3	3.6	1.51e+00	0	23	104	0	60	42150
2026-01-09 13:48:07.43	157.37	21.04	-46.2	-61.3	3.6	1.51e+00	0	23	104	0	60	42222
2026-01-09 13:48:08.44	157.51	20.92	-46.2	-61.4	3.6	1.51e+00	0	23	104	0	60	42438
2026-01-09 13:48:09.45	157.65	20.80	-46.2	-61.3	3.6	1.51e+00	0	24	104	0	60	42077
2026-01-09 13:48:10.46	157.78	20.69	-46.1	-61.3	3.6	1.51e+00	0	23	104	0	60	42218
2026-01-09 13:48:11.47	157.92	20.57	-46.1	-61.3	3.6	1.51e+00	0	24	104	0	60	42081
2026-01-09 13:48:12.48	158.05	20.46	-46.1	-61.3	3.6	1.51e+00	0	24	104	0	60	41907
2026-01-09 13:48:13.49	158.19	20.34	-46.1	-61.3	3.6	1.51e+00	0	23	104	0	60	41794
2026-01-09 13:48:14.50	158.32	20.23	-46.1	-61.3	3.6	1.51e+00	0	24	104	0	60	41874
2026-01-09 13:48:15.51	158.45	20.11	-46.1	-61.3	3.6	1.51e+00	0	24	104	0	60	41794
2026-01-09 13:48:16.52	158.58	20.00	-46.2	-61.4	3.6	1.51e+00	0	24	104	0	60	42584
2026-01-09 13:48:17.53	158.71	19.89	-46.8	-61.9	3.6	1.51e+00	0	23	104	0	60	45040
2026-01-09 13:48:18.54	158.84	19.77	-47.1	-62.3	3.6	1.51e+00	0	24	104	0	60	46900
2026-01-09 13:48:19.55	158.97	19.66	-47.3	-62.5	3.6	1.51e+00	0	24	104	0	60	48188
2026-01-09 13:48:20.56	159.10	19.55	-47.4	-62.6	3.6	1.51e+00	0	24	104	0	60	48776
2026-01-09 13:48:21.57	159.23	19.44	-47.5	-62.7	3.6	1.51e+00	0	23	104	0	60	49166
2026-01-09 13:48:22.58	159.35	19.32	-47.6	-62.7	3.6	1.51e+00	0	23	104	0	60	49528
2026-01-09 13:48:23.59	159.48	19.21	-47.5	-62.8	3.6	1.51e+00	0	24	104	0	60	49827
2026-01-09 13:48:24.60	159.60	19.10	-47.6	-62.8	3.6	1.51e+00	0	24	104	0	60	49996
2026-01-09 13:48:25.61	159.72	18.99	-47.5	-62.8	3.6	1.51e+00	0	24	104	0	60	49921
2026-01-09 13:48:26.62	159.85	18.88	-47.6	-62.8	3.6	1.51e+00	0	24	104	0	60	49902
2026-01-09 13:48:27.63	159.97	18.77	-47.4	-62.8	3.6	1.51e+00	0	24	104	0	60	49855
2026-01-09 13:48:28.64	160.09	18.66	-47.6	-62.8	3.6	1.51e+00	0	24	104	0	60	49859
2026-01-09 13:48:29.65	160.21	18.55	-47.7	-62.8	3.6	1.51e+00	0	23	104	0	60	50133
2026-01-09 13:48:30.66	160.33	18.45	-47.8	-62.9	3.6	1.51e+00	0	23	104	0	60	50631
2026-01-09 13:48:31.67	160.44	18.34	-47.7	-62.9	3.6	1.51e+00	0	24	104	0	60	50581
2026-01-09 13:48:32.68	160.56	18.23	-47.6	-62.9	3.6	1.51e+00	0	23	104	0	60	50403
2026-01-09 13:48:33.69	160.68	18.12	-47.6	-62.9	3.6	1.51e+00	0	24	104	0	60	50421
2026-01-09 13:48:34.70	160.79	18.01	-47.7	-62.9	3.6	1.51e+00	0	23	104	0	60	50641
2026-01-09 13:48:35.71	160.91	17.91	-47.6	-62.8	3.6	1.51e+00	0	24	104	0	60	50143
2026-01-09 13:48:36.72	161.02	17.80	-47.7	-62.8	3.6	1.51e+00	0	24	104	0	60	50078
2026-01-09 13:48:37.73	161.14	17.69	-47.6	-62.8	3.6	1.51e+00	0	24	104	0	60	50094
2026-01-09 13:48:38.74	161.25	17.59	-47.6	-62.8	3.6	1.51e+00	0	23	104	0	60	49883
2026-01-09 13:48:39.74	161.36	17.48	-47.6	-62.8	3.6	1.51e+00	0	23	104	0	60	49630
2026-01-09 13:48:40.75	161.47	17.38	-47.5	-62.6	3.6	1.51e+00	0	24	104	0	60	48885
2026-01-09 13:48:41.76	161.58	17.28	-47.4	-62.4	3.6	1.51e+00	0	24	104	0	60	47888
2026-01-09 13:48:42.77	161.69	17.17	-37.4	-38.4	6.2	1.48e+00	0	23	104	0	48	6005
2026-01-09 13:48:43.78	161.80	17.07	-38.2	-39.2	21.4	0.00e+00	0	23	104	0	48	6594
2026-01-09 13:48:44.79	161.91	16.96	-37.5	-38.5	22.4	0.00e+00	0	23	0	1048576	48	6069
2026-01-09 13:48:45.80	162.01	16.86	-42.4	-44.5	15.7	0.00e+00	0	23	0	3145728	56	7618
2026-01-09 13:48:46.81	162.12	16.76	-41.9	-43.9	13.9	0.00e+00	0	24	0	5242880	52	8981
2026-01-09 13:48:47.82	162.23	16.65	-44.6	-48.2	11.7	1.65e-03	0	23	0	6291456	60	9289
2026-01-09 13:48:48.83	162.33	16.55	-42.0	-43.9	14.6	1.63e-03	0	23	0	8388608	52	9015
2026-01-09 13:48:49.84	162.44	16.45	-40.8	-42.3	19.2	3.50e-05	0	23	0	10485760	56	5913
2026-01-09 13:48:50.85	162.54	16.35	-40.5	-42.0	19.4	0.00e+00	0	23	0	12582912	54	6400
2026-01-09 13:48:51.86	162.64	16.25	-39.2	-40.4	21.0	0.00e+00	0	23	0	13631488	52	5973
2026-01-09 13:48:52.87	162.75	16.15	-38.4	-39.5	21.7	0.00e+00	0	23	0	15728640	50	6049
2026-01-09 13:48:53.88	162.85	16.05	-38.0	-39.0	22.2	0.00e+00	0	23	0	17825792	50	5744
2026-01-09 13:48:54.89	162.95	15.95	-38.1	-39.1	22.1	0.00e+00	0	23	0	19922944	50	5797
2026-01-09 13:48:55.90	163.05	15.85	-37.2	-38.1	23.0	0.00e+00	0	23	0	22020096	48	5811
2026-01-09 13:48:56.91	163.15	15.75	-36.8	-37.7	23.4	0.00e+00	0	23	0	23068672	48	5516
2026-01-09 13:48:57.92	163.25	15.65	-36.9	-37.8	23.2	0.00e+00	0	23	0	25165824	46	6289
2026-01-09 13:48:58.93	163.35	15.55	-36.8	-37.7	23.3	0.00e+00	0	23	0	27262976	46	6237
2026-01-09 13:48:59.94	163.45	15.45	-36.7	-37.6	23.4	0.00e+00	0	23	0	29360128	46	6155
2026-01-09 13:49:00.94	163.54	15.35	-36.7	-37.6	23.4	0.00e+00	0	23	0	31457280	46	6164
2026-01-09 13:49:01.95	163.64	15.25	-36.8	-37.8	23.3	0.00e+00	0	23	0	32505856	46	6247
2026-01-09 13:49:02.96	163.74	15.16	-36.8	-37.7	23.3	0.00e+00	0	23	0	34603008	46	6228
2026-01-09 13:49:03.97	163.83	15.06	-36.9	-37.8	23.3	0.00e+00	0	23	0	36700160	46	6268
2026-01-09 13:49:04.98	163.93	14.96	-36.9	-37.8	23.1	0.00e+00	0	23	0	38797312	46	6308
2026-01-09 13:49:05.99	164.02	14.86	-36.9	-37.8	23.2	0.00e+00	0	23	0	40894464	46	6283
2026-01-09 13:49:07.00	164.12	14.77	-36.9	-37.8	23.1	0.00e+00	0	23	0	41943040	46	6306
2026-01-09 13:49:08.01	164.21	14.67	-37.0	-37.9	23.1	0.00e+00	0	23	0	44040192	46	6346
2026-01-09 13:49:09.02	164.30	14.58	-36.9	-37.8	23.3	0.00e+00	0	23	0	46137344	46	6274
2026-01-09 13:49:10.03	164.39	14.48	-36.9	-37.9	23.2	0.00e+00	0	23	0	48234496	46	6336
2026-01-09 13:49:11.04	164.49	14.39	-36.9	-37.8	23.2	0.00e+00	0	23	0	50331648	46	6288
2026-01-09 13:49:12.05	164.58	14.29	-36.9	-37.8	23.2	0.00e+00	0	23	0	52428800	46	6307
2026-01-09 13:49:13.06	164.67	14.20	-37.0	-37.9	23.1	0.00e+00	0	23	0	53477376	46	6369
2026-01-09 13:49:14.06	164.76	14.10	-37.0	-37.9	23.1	0.00e+00	0	23	0	55574528	46	6352
2026-01-09 13:49:15.07	164.85	14.01	-37.1	-38.0	23.0	0.00e+00	0	23	0	57671680	46	6442
2026-01-09 13:49:16.08	164.93	13.92	-37.0	-38.0	23.0	0.00e+00	0	23	0	59768832	46	6424
2026-01-09 13:49:17.09	165.02	13.82	-37.1	-38.0	22.9	0.00e+00	0	23	0	61865984	46	6429
2026-01-09 13:49:18.10	165.11	13.73	-37.1	-38.1	22.8	0.00e+00	0	23	0	62914560	46	6491
2026-01-09 13:49:19.11	165.20	13.64	-37.2	-38.2	22.8	0.00e+00	0	23	0	65011712	46	6543
2026-01-09 13:49:20.12	165.29	13.54	-37.3	-38.3	22.7	0.00e+00	0	23	0	67108864	46	6665
2026-01-09 13:49:21.13	165.37	13.45	-37.4	-38.4	22.7	0.00e+00	0	23	0	69206016	46	6708
2026-01-09 13:49:22.14	165.46	13.36	-37.5	-38.5	22.5	0.00e+00	0	23	0	71303168	46	6823
2026-01-09 13:49:23.15	165.54	13.27	-37.6	-38.6	22.5	0.00e+00	0	23	0	72351744	46	6874
2026-01-09 13:49:24.16	165.63	13.18	-37.7	-38.7	22.4	0.00e+00	0	23	0	74448896	46	6980
2026-01-09 13:49:25.17	165.71	13.09	-37.8	-38.8	22.2	0.00e+00	0	23	0	76546048	48	6295
2026-01-09 13:49:26.18	165.80	13.00	-37.8	-38.8	22.2	0.00e+00	0	23	0	78643200	48	6295
2026-01-09 13:49:27.19	165.88	12.90	-37.9	-39.0	22.1	0.00e+00	0	23	0	80740352	48	6407
2026-01-09 13:49:28.20	165.96	12.81	-37.9	-38.9	22.0	0.00e+00	0	23	0	81788928	48	6369
2026-01-09 13:49:29.20	166.04	12.73	-38.0	-39.0	22.1	0.00e+00	0	23	0	83886080	48	6452
2026-01-09 13:49:30.21	166.13	12.64	-37.9	-38.9	22.0	0.00e+00	0	23	0	85983232	48	6390
2026-01-09 13:49:31.22	166.21	12.55	-37.9	-39.0	22.1	0.00e+00	0	23	0	88080384	48	6414
2026-01-09 13:49:32.23	166.29	12.46	-37.9	-38.9	22.1	0.00e+00	0	23	0	90177536	48	6368
2026-01-09 13:49:33.24	166.37	12.37	-37.7	-38.8	22.3	0.00e+00	0	23	0	91226112	48	6272
2026-01-09 13:49:34.24	166.45	12.28	-37.7	-38.8	22.2	0.00e+00	0	23	0	93323264	48	6268
2026-01-09 13:49:35.25	166.53	12.19	-37.6	-38.6	22.4	0.00e+00	0	23	0	95420416	48	6160
2026-01-09 13:49:36.26	166.61	12.10	-37.6	-38.6	22.4	0.00e+00	0	23	0	97517568	48	6125
2026-01-09 13:49:37.27	166.68	12.02	-37.6	-38.6	22.3	0.00e+00	0	23	0	99614720	48	6141
2026-01-09 13:49:38.28	166.76	11.93	-37.2	-38.2	22.7	0.00e+00	0	23	0	100663296	48	5871
2026-01-09 13:49:39.29	166.84	11.84	-37.3	-38.3	22.7	0.00e+00	0	23	0	102760448	48	5907
2026-01-09 13:49:40.30	166.92	11.76	-37.2	-38.2	22.8	0.00e+00	0	23	0	104857600	48	5843
2026-01-09 13:49:41.31	166.99	11.67	-37.0	-38.0	23.0	0.00e+00	0	23	0	106954752	48	5696
2026-01-09 13:49:42.32	167.07	11.58	-37.0	-37.9	23.0	0.00e+00	0	23	0	109051904	48	5690
2026-01-09 13:49:43.33	167.15	11.50	-36.9	-37.9	23.0	0.00e+00	0	23	0	110100480	48	5637
