passes_logs/2026/01/28/R2M6_AANII_01/R2M6_AANII_01__20260128_030838_FENGYUN_3D_rec.log

#Pass ID: 20260128_030838_FENGYUN 3D
#Satellite: FENGYUN 3D
#Configuration: FENGYUN 3D
#almurnet v.1.7.20240730
#Start time: 2026-01-28 03:08:38

#Version: 2.2.20231116
#Station: R2M6_AANII_01
#Location: 30.233357 lon 59.946436 lat
#TLE: 1 43010U 17072A   26027.47796828  .00000374  00000+0  19850-3 0  9992
#TLE: 2 43010  98.9960 359.4888 0002523  87.5419 272.6045 14.19701595425023

#Time	Az	El	Level	Level2	SNR	BER	BlckErr	Temp	State	Recorded	gain1	gain2
2026-01-28 03:08:38.82	15.40	7.01	-29.7	-32.8	5.5	7.86e-01	0	40	0	0	19	5139
2026-01-28 03:08:39.82	15.37	7.09	-30.3	-34.0	5.3	7.93e-01	0	40	104	0	20	5516
2026-01-28 03:08:40.82	15.34	7.16	-29.9	-32.9	9.9	1.66e-02	0	40	0	0	20	5078
2026-01-28 03:08:41.82	15.31	7.24	-30.1	-33.4	9.6	1.24e-02	0	40	0	5242880	20	5261
2026-01-28 03:08:42.82	15.27	7.32	-29.9	-32.7	10.1	1.20e-02	0	41	0	10485760	20	5001
2026-01-28 03:08:43.83	15.24	7.39	-29.7	-32.7	10.5	6.22e-03	0	40	0	16777216	19	5072
2026-01-28 03:08:44.83	15.21	7.47	-29.7	-32.7	10.5	4.68e-03	0	40	0	22020096	19	5098
2026-01-28 03:08:45.83	15.17	7.55	-29.7	-32.5	10.7	4.99e-03	0	40	0	28311552	19	5020
2026-01-28 03:08:46.83	15.14	7.62	-29.2	-31.5	11.4	1.92e-03	0	40	0	33554432	19	4654
2026-01-28 03:08:47.83	15.10	7.70	-29.0	-31.4	11.8	7.12e-04	0	41	0	38797312	18	4727
2026-01-28 03:08:48.83	15.07	7.78	-28.6	-31.0	12.3	3.63e-04	0	41	0	45088768	17	4706
2026-01-28 03:08:49.84	15.03	7.86	-28.3	-30.1	12.9	7.78e-05	0	41	0	50331648	17	4433
2026-01-28 03:08:50.84	15.00	7.93	-28.2	-30.4	13.0	6.75e-05	0	41	0	55574528	16	4638
2026-01-28 03:08:51.85	14.96	8.01	-28.4	-30.9	12.7	9.15e-05	0	41	0	61865984	16	4810
2026-01-28 03:08:52.85	14.93	8.09	-28.1	-30.0	13.3	3.20e-05	0	41	0	67108864	16	4524
2026-01-28 03:08:53.86	14.89	8.17	-27.9	-29.7	13.5	2.40e-05	0	41	0	73400320	16	4428
2026-01-28 03:08:54.86	14.86	8.25	-27.8	-30.0	13.5	1.71e-05	0	41	0	78643200	15	4627
2026-01-28 03:08:55.86	14.82	8.33	-27.7	-29.6	13.7	1.02e-05	0	41	0	83886080	15	4523
2026-01-28 03:08:56.86	14.79	8.41	-27.8	-30.1	13.4	2.51e-05	0	41	0	90177536	15	4661
2026-01-28 03:08:57.86	14.75	8.49	-27.8	-29.9	13.5	1.37e-05	0	41	0	95420416	15	4588
2026-01-28 03:08:58.86	14.71	8.57	-27.8	-29.9	13.5	1.48e-05	0	41	0	100663296	15	4601
2026-01-28 03:08:59.87	14.68	8.65	-27.9	-30.2	13.4	1.94e-05	0	41	0	106954752	15	4697
2026-01-28 03:09:00.87	14.64	8.73	-27.9	-29.8	13.5	2.28e-05	0	41	0	112197632	16	4436
2026-01-28 03:09:01.87	14.60	8.81	-27.7	-29.3	13.8	1.25e-05	0	41	0	118489088	16	4294
2026-01-28 03:09:02.87	14.56	8.89	-27.4	-29.0	14.1	4.50e-06	0	41	0	123731968	15	4340
2026-01-28 03:09:03.88	14.53	8.97	-27.4	-29.5	14.1	0.00e+00	0	41	0	128974848	14	4596
2026-01-28 03:09:04.88	14.49	9.05	-27.5	-29.2	14.0	3.40e-06	0	41	0	135266304	15	4387
2026-01-28 03:09:05.89	14.45	9.13	-27.3	-29.4	14.1	8.00e-06	0	41	0	140509184	14	4560
2026-01-28 03:09:06.89	14.41	9.22	-27.3	-29.4	14.2	0.00e+00	0	41	0	146800640	14	4551
2026-01-28 03:09:07.90	14.37	9.30	-27.5	-29.7	14.0	0.00e+00	0	41	0	152043520	14	4646
2026-01-28 03:09:08.91	14.33	9.38	-27.4	-28.9	14.1	8.00e-06	0	41	0	157286400	15	4310
2026-01-28 03:09:09.91	14.29	9.46	-27.3	-29.2	14.3	0.00e+00	0	41	0	163577856	14	4508
2026-01-28 03:09:10.92	14.25	9.55	-27.3	-29.2	14.3	2.20e-06	0	41	0	168820736	14	4504
2026-01-28 03:09:11.92	14.21	9.63	-27.3	-29.3	14.3	1.10e-06	0	41	0	174063616	14	4534
2026-01-28 03:09:12.92	14.17	9.71	-27.4	-29.4	14.2	1.10e-06	0	41	0	180355072	14	4572
2026-01-28 03:09:13.93	14.13	9.80	-27.3	-29.2	14.3	2.20e-06	0	41	0	185597952	14	4505
2026-01-28 03:09:14.93	14.09	9.88	-26.2	-27.6	13.8	1.10e-06	0	41	0	191889408	14	4242
2026-01-28 03:09:15.93	14.05	9.97	-27.2	-29.0	13.8	1.10e-06	0	41	0	197132288	14	4448
2026-01-28 03:09:16.93	14.01	10.05	-27.5	-29.3	12.1	5.95e-05	0	41	0	202375168	14	4426
2026-01-28 03:09:17.93	13.97	10.14	-27.0	-28.7	14.2	1.10e-06	0	41	0	208666624	14	4347
2026-01-28 03:09:18.94	13.93	10.22	-27.1	-28.9	14.5	0.00e+00	0	42	0	213909504	14	4411
2026-01-28 03:09:19.94	13.89	10.31	-27.1	-28.7	14.6	1.10e-06	0	41	0	220200960	14	4358
2026-01-28 03:09:20.95	13.85	10.39	-27.1	-28.8	14.6	1.10e-06	0	42	0	225443840	14	4390
2026-01-28 03:09:21.95	13.80	10.48	-27.3	-29.3	14.3	1.10e-06	0	41	0	230686720	14	4527
2026-01-28 03:09:22.95	13.76	10.56	-27.1	-28.8	14.6	1.10e-06	0	42	0	236978176	14	4388
2026-01-28 03:09:23.95	13.72	10.65	-26.9	-28.9	14.8	1.79e-03	0	42	0	242221056	13	4528
2026-01-28 03:09:24.96	13.67	10.74	-26.8	-28.7	15.0	0.00e+00	0	42	0	247463936	13	4457
2026-01-28 03:09:25.97	13.63	10.83	-26.8	-28.6	15.0	1.78e-03	0	42	0	253755392	13	4447
2026-01-28 03:09:26.98	13.59	10.91	-27.0	-29.0	14.8	0.00e+00	0	42	0	258998272	13	4568
2026-01-28 03:09:27.98	13.54	11.00	-26.9	-28.8	14.9	0.00e+00	0	42	0	265289728	13	4506
2026-01-28 03:09:28.99	13.50	11.09	-26.7	-28.5	15.1	1.57e-03	0	42	0	270532608	13	4404
2026-01-28 03:09:29.99	13.45	11.18	-26.8	-28.7	15.0	0.00e+00	0	42	0	275775488	13	4477
2026-01-28 03:09:31.00	13.41	11.27	-26.7	-28.5	15.1	2.36e-04	0	42	0	282066944	13	4402
2026-01-28 03:09:32.01	13.36	11.36	-26.8	-28.6	15.0	0.00e+00	0	42	0	287309824	13	4446
2026-01-28 03:09:33.01	13.32	11.45	-26.8	-28.6	15.0	1.72e-03	0	42	0	293601280	13	4435
2026-01-28 03:09:34.01	13.27	11.54	-26.8	-28.5	15.1	5.14e-05	0	42	0	298844160	13	4412
2026-01-28 03:09:35.01	13.23	11.63	-26.7	-28.5	15.1	1.73e-03	0	42	0	304087040	13	4404
2026-01-28 03:09:36.02	13.18	11.72	-26.8	-28.6	15.1	1.64e-03	0	42	0	310378496	13	4443
2026-01-28 03:09:37.03	13.13	11.81	-26.7	-28.4	15.2	2.33e-04	0	42	0	315621376	13	4385
2026-01-28 03:09:38.03	13.09	11.90	-26.7	-28.5	15.2	1.63e-03	0	42	0	321912832	13	4407
2026-01-28 03:09:39.04	13.04	11.99	-26.7	-28.3	15.3	0.00e+00	0	42	0	327155712	13	4354
2026-01-28 03:09:40.04	12.99	12.08	-26.8	-28.6	15.1	2.57e-04	0	42	0	332398592	13	4448
2026-01-28 03:09:41.05	12.94	12.17	-26.7	-28.4	15.2	1.75e-03	0	42	0	338690048	13	4386
2026-01-28 03:09:42.06	12.89	12.27	-26.6	-28.3	15.3	1.65e-03	0	42	0	343932928	13	4342
2026-01-28 03:09:43.06	12.84	12.36	-26.7	-28.5	15.2	2.23e-04	0	42	0	349175808	13	4392
2026-01-28 03:09:44.06	12.80	12.45	-26.6	-28.1	15.4	1.74e-03	0	42	0	355467264	13	4307
2026-01-28 03:09:45.06	12.75	12.54	-26.6	-28.2	15.4	1.59e-03	0	42	0	360710144	13	4315
2026-01-28 03:09:46.07	12.70	12.64	-26.7	-28.4	15.2	1.94e-04	0	42	0	367001600	13	4372
2026-01-28 03:09:47.06	12.65	12.73	-26.8	-28.6	15.1	1.69e-03	0	42	0	372244480	13	4425
2026-01-28 03:09:48.06	12.60	12.82	-26.6	-28.1	15.4	1.83e-03	0	42	0	377487360	13	4304
2026-01-28 03:09:49.07	12.55	12.92	-26.6	-28.1	15.4	1.96e-04	0	42	0	383778816	13	4300
2026-01-28 03:09:50.08	12.50	13.01	-26.7	-28.3	15.3	1.79e-03	0	42	0	389021696	13	4350
2026-01-28 03:09:51.08	12.44	13.11	-26.6	-28.1	15.4	2.45e-04	0	42	0	395313152	13	4300
2026-01-28 03:09:52.08	12.39	13.20	-26.5	-28.0	15.5	2.07e-04	0	42	0	400556032	13	4259
2026-01-28 03:09:53.09	12.34	13.30	-26.5	-28.0	15.4	1.10e-06	0	42	0	405798912	13	4278
2026-01-28 03:09:54.09	12.29	13.40	-26.7	-28.4	15.3	1.57e-03	0	42	0	412090368	13	4366
2026-01-28 03:09:55.10	12.23	13.49	-26.6	-28.1	15.5	0.00e+00	0	42	0	417333248	13	4279
2026-01-28 03:09:56.11	12.18	13.59	-26.5	-27.9	15.6	1.54e-03	0	42	0	422576128	13	4239
2026-01-28 03:09:57.11	12.13	13.69	-26.4	-28.3	15.6	1.66e-03	0	42	0	428867584	12	4460
2026-01-28 03:09:58.12	12.07	13.79	-26.4	-28.1	15.7	0.00e+00	0	42	0	434110464	12	4414
2026-01-28 03:09:59.12	12.02	13.88	-26.4	-28.2	15.7	1.57e-03	0	42	0	440401920	12	4427
2026-01-28 03:10:00.12	11.96	13.98	-26.5	-27.9	15.6	0.00e+00	0	42	0	445644800	13	4236
2026-01-28 03:10:01.11	11.91	14.08	-26.3	-27.6	15.8	1.81e-04	0	42	0	450887680	13	4156
2026-01-28 03:10:02.12	11.85	14.18	-26.5	-28.0	15.5	0.00e+00	0	42	0	457179136	13	4248
2026-01-28 03:10:03.12	11.80	14.28	-26.2	-27.3	15.9	0.00e+00	0	42	0	462422016	13	4081
2026-01-28 03:10:04.12	11.74	14.38	-26.1	-27.6	16.0	1.61e-04	0	42	0	467664896	12	4266
2026-01-28 03:10:05.12	11.69	14.48	-26.2	-27.8	16.0	0.00e+00	0	42	0	473956352	12	4322
2026-01-28 03:10:06.12	11.63	14.58	-26.4	-28.2	15.7	1.56e-03	0	42	0	479199232	12	4435
2026-01-28 03:10:07.13	11.57	14.68	-26.2	-27.7	16.0	0.00e+00	0	42	0	485490688	12	4294
2026-01-28 03:10:08.13	11.51	14.78	-26.2	-27.8	15.9	8.86e-04	0	42	0	490733568	12	4328
2026-01-28 03:10:09.13	11.45	14.88	-26.2	-27.8	15.9	0.00e+00	0	42	0	495976448	12	4331
2026-01-28 03:10:10.13	11.40	14.99	-26.3	-28.1	15.8	0.00e+00	0	42	0	502267904	12	4390
2026-01-28 03:10:11.14	11.34	15.09	-26.2	-27.8	16.0	0.00e+00	0	42	0	507510784	12	4320
2026-01-28 03:10:12.15	11.28	15.19	-26.2	-27.7	16.0	0.00e+00	0	42	0	513802240	12	4294
2026-01-28 03:10:13.16	11.22	15.30	-26.3	-27.9	15.9	0.00e+00	0	42	0	519045120	12	4358
2026-01-28 03:10:14.16	11.15	15.40	-26.2	-27.6	16.1	0.00e+00	0	42	0	524288000	12	4273
2026-01-28 03:10:15.16	11.09	15.50	-25.9	-27.2	16.3	0.00e+00	0	42	0	530579456	12	4157
2026-01-28 03:10:16.16	11.03	15.61	-25.9	-27.2	16.4	0.00e+00	0	42	0	535822336	12	4148
2026-01-28 03:10:17.17	10.97	15.71	-26.0	-27.3	16.3	0.00e+00	0	42	0	541065216	12	4186
2026-01-28 03:10:18.17	10.91	15.82	-25.8	-26.9	16.5	0.00e+00	0	42	0	547356672	12	4086
2026-01-28 03:10:19.17	10.85	15.93	-25.9	-27.5	16.5	0.00e+00	0	42	0	552599552	11	4357
2026-01-28 03:10:20.16	10.78	16.03	-25.8	-27.5	16.6	0.00e+00	0	42	0	557842432	11	4339
2026-01-28 03:10:21.17	10.72	16.14	-25.8	-27.3	16.6	0.00e+00	0	42	0	564133888	11	4301
2026-01-28 03:10:22.17	10.65	16.24	-25.8	-27.4	16.6	0.00e+00	0	42	0	569376768	11	4332
2026-01-28 03:10:23.18	10.59	16.35	-25.7	-27.1	16.8	0.00e+00	0	42	0	575668224	11	4236
2026-01-28 03:10:24.19	10.52	16.46	-25.6	-26.9	16.8	0.00e+00	0	42	0	580911104	11	4197
2026-01-28 03:10:25.19	10.46	16.57	-25.7	-27.1	16.8	0.00e+00	0	42	0	587202560	11	4247
2026-01-28 03:10:26.20	10.39	16.68	-25.5	-26.8	17.0	0.00e+00	0	42	0	592445440	11	4151
2026-01-28 03:10:27.20	10.32	16.79	-25.6	-26.9	16.9	0.00e+00	0	42	0	597688320	11	4182
2026-01-28 03:10:28.21	10.26	16.90	-25.7	-27.2	16.8	0.00e+00	0	42	0	603979776	11	4266
2026-01-28 03:10:29.21	10.19	17.01	-25.4	-26.6	17.1	0.00e+00	0	42	0	609222656	11	4103
2026-01-28 03:10:30.22	10.12	17.12	-25.3	-26.4	17.2	0.00e+00	0	42	0	614465536	11	4049
2026-01-28 03:10:31.22	10.05	17.23	-25.3	-26.2	17.3	0.00e+00	0	42	0	620756992	11	4004
2026-01-28 03:10:32.23	9.98	17.34	-25.4	-26.9	17.2	0.00e+00	0	42	0	625999872	10	4315
2026-01-28 03:10:33.23	9.91	17.46	-25.4	-27.0	17.1	0.00e+00	0	42	0	632291328	10	4328
2026-01-28 03:10:34.23	9.84	17.57	-25.3	-26.8	17.2	0.00e+00	0	42	0	637534208	10	4274
2026-01-28 03:10:35.24	9.77	17.68	-25.3	-26.8	17.2	0.00e+00	0	42	0	642777088	10	4279
2026-01-28 03:10:36.25	9.70	17.80	-25.3	-26.8	17.2	0.00e+00	0	42	0	649068544	10	4285
2026-01-28 03:10:37.25	9.62	17.91	-25.2	-26.5	17.4	0.00e+00	0	43	0	654311424	10	4196
2026-01-28 03:10:38.26	9.55	18.03	-25.2	-26.5	17.4	0.00e+00	0	42	0	660602880	10	4199
2026-01-28 03:10:39.26	9.48	18.14	-25.3	-26.7	17.3	0.00e+00	0	42	0	665845760	10	4241
2026-01-28 03:10:40.27	9.40	18.26	-25.1	-26.4	17.5	0.00e+00	0	42	0	671088640	10	4172
2026-01-28 03:10:41.27	9.33	18.37	-25.3	-26.7	17.3	0.00e+00	0	43	0	677380096	10	4252
2026-01-28 03:10:42.27	9.25	18.49	-25.1	-26.3	17.6	0.00e+00	0	42	0	682622976	10	4130
2026-01-28 03:10:43.27	9.18	18.61	-25.0	-26.2	17.6	0.00e+00	0	42	0	688914432	10	4106
2026-01-28 03:10:44.28	9.10	18.72	-25.0	-26.1	17.7	0.00e+00	0	43	0	694157312	10	4082
2026-01-28 03:10:45.28	9.02	18.84	-25.0	-26.2	17.6	0.00e+00	0	43	0	699400192	10	4109
2026-01-28 03:10:46.29	8.95	18.96	-25.1	-26.4	17.5	0.00e+00	0	43	0	705691648	10	4172
2026-01-28 03:10:47.29	8.87	19.08	-25.1	-26.4	17.5	0.00e+00	0	42	0	710934528	10	4174
2026-01-28 03:10:48.29	8.79	19.20	-25.1	-26.5	17.5	0.00e+00	0	43	0	716177408	10	4184
2026-01-28 03:10:49.29	8.71	19.32	-25.2	-26.5	17.5	0.00e+00	0	42	0	722468864	10	4184
2026-01-28 03:10:50.30	8.63	19.44	-25.2	-26.6	17.4	0.00e+00	0	43	0	727711744	10	4210
2026-01-28 03:10:51.31	8.55	19.56	-25.1	-26.4	17.6	0.00e+00	0	42	0	734003200	10	4157
2026-01-28 03:10:52.31	8.47	19.68	-25.0	-26.2	17.6	0.00e+00	0	43	0	739246080	10	4125
2026-01-28 03:10:53.32	8.38	19.81	-25.1	-26.3	17.6	0.00e+00	0	42	0	744488960	10	4132
2026-01-28 03:10:54.32	8.30	19.93	-25.1	-26.3	17.6	0.00e+00	0	42	0	750780416	10	4148
2026-01-28 03:10:55.33	8.22	20.05	-25.1	-26.4	17.5	0.00e+00	0	43	0	756023296	10	4180
2026-01-28 03:10:56.33	8.13	20.18	-24.9	-26.0	17.8	0.00e+00	0	43	0	762314752	10	4064
2026-01-28 03:10:57.33	8.05	20.30	-24.9	-26.0	17.8	0.00e+00	0	43	0	767557632	10	4057
2026-01-28 03:10:58.33	7.96	20.42	-24.9	-25.9	17.8	6.08e-04	0	42	0	772800512	10	4049
2026-01-28 03:10:59.33	7.87	20.55	-25.0	-26.1	17.7	0.00e+00	0	43	0	779091968	10	4089
2026-01-28 03:11:00.33	7.79	20.68	-24.8	-26.3	17.9	1.17e-03	0	43	0	784334848	9	4246
2026-01-28 03:11:01.33	7.70	20.80	-24.8	-26.2	17.9	0.00e+00	0	43	0	789577728	9	4234
2026-01-28 03:11:02.33	7.61	20.93	-24.8	-26.3	17.9	0.00e+00	0	43	0	795869184	9	4240
2026-01-28 03:11:03.35	7.52	21.06	-24.9	-26.3	17.8	0.00e+00	0	43	0	801112064	9	4259
2026-01-28 03:11:04.35	7.43	21.19	-24.7	-25.9	18.1	0.00e+00	0	42	0	807403520	9	4156
2026-01-28 03:11:05.36	7.34	21.32	-24.7	-25.9	18.1	0.00e+00	0	43	0	812646400	9	4155
2026-01-28 03:11:06.36	7.25	21.45	-24.7	-25.9	18.1	0.00e+00	0	43	0	817889280	9	4149
2026-01-28 03:11:07.36	7.15	21.58	-24.6	-25.8	18.2	1.11e-03	0	42	0	824180736	9	4115
2026-01-28 03:11:08.37	7.06	21.71	-24.7	-26.0	18.1	0.00e+00	0	42	0	829423616	9	4174
2026-01-28 03:11:09.37	6.97	21.84	-24.7	-26.0	18.0	1.11e-03	0	42	0	835715072	9	4187
2026-01-28 03:11:10.37	6.87	21.97	-24.7	-25.9	18.1	1.02e-03	0	43	0	840957952	9	4157
2026-01-28 03:11:11.37	6.77	22.10	-24.7	-26.1	18.1	0.00e+00	0	43	0	846200832	9	4203
2026-01-28 03:11:12.37	6.68	22.23	-24.8	-26.1	18.0	1.08e-03	0	43	0	852492288	9	4212
2026-01-28 03:11:13.38	6.58	22.37	-24.6	-25.8	18.1	0.00e+00	0	42	0	857735168	9	4139
2026-01-28 03:11:14.38	6.48	22.50	-24.7	-25.9	18.1	0.00e+00	0	43	0	862978048	9	4160
2026-01-28 03:11:15.38	6.38	22.64	-24.6	-25.8	18.2	6.37e-04	0	43	0	869269504	9	4118
2026-01-28 03:11:16.38	6.28	22.77	-24.4	-25.4	18.4	1.13e-03	0	43	0	874512384	9	4022
2026-01-28 03:11:17.38	6.18	22.91	-24.4	-25.3	18.4	0.00e+00	0	42	0	880803840	9	4012
2026-01-28 03:11:18.38	6.08	23.04	-24.4	-25.4	18.4	1.09e-03	0	43	0	886046720	9	4030
2026-01-28 03:11:19.38	5.98	23.18	-24.5	-25.6	18.3	1.08e-03	0	43	0	891289600	9	4075
2026-01-28 03:11:20.39	5.87	23.32	-24.5	-25.6	18.3	0.00e+00	0	43	0	897581056	9	4062
2026-01-28 03:11:21.40	5.76	23.46	-24.4	-25.3	18.5	1.09e-03	0	43	0	902823936	9	4001
2026-01-28 03:11:22.41	5.66	23.60	-24.5	-25.5	18.4	1.03e-03	0	43	0	908066816	9	4055
2026-01-28 03:11:23.41	5.55	23.74	-24.5	-25.5	18.3	0.00e+00	0	43	0	914358272	9	4060
2026-01-28 03:11:24.41	5.44	23.88	-24.4	-25.4	18.4	1.10e-03	0	43	0	919601152	9	4031
2026-01-28 03:11:25.42	5.33	24.02	-24.5	-26.0	18.4	1.17e-03	0	43	0	925892608	8	4294
2026-01-28 03:11:26.42	5.22	24.16	-24.4	-25.4	18.5	0.00e+00	0	42	0	931135488	9	4019
2026-01-28 03:11:27.42	5.11	24.31	-24.2	-25.4	18.7	1.19e-03	0	43	0	936378368	8	4151
2026-01-28 03:11:28.42	5.00	24.45	-24.3	-25.5	18.6	1.23e-03	0	43	0	942669824	8	4173
2026-01-28 03:11:29.42	4.89	24.59	-24.2	-25.5	18.7	0.00e+00	0	43	0	947912704	8	4166
2026-01-28 03:11:30.42	4.77	24.74	-24.2	-25.4	18.7	1.17e-03	0	43	0	954204160	8	4152
2026-01-28 03:11:31.42	4.66	24.88	-24.3	-25.6	18.6	1.10e-03	0	43	0	959447040	8	4199
2026-01-28 03:11:32.43	4.54	25.03	-24.3	-25.7	18.5	0.00e+00	0	43	0	964689920	8	4222
2026-01-28 03:11:33.43	4.42	25.17	-24.3	-25.6	18.6	1.11e-03	0	43	0	970981376	8	4183
2026-01-28 03:11:34.43	4.30	25.32	-24.3	-25.6	18.6	0.00e+00	0	42	0	976224256	8	4192
2026-01-28 03:11:35.44	4.18	25.47	-24.2	-25.4	18.7	0.00e+00	0	43	0	981467136	8	4140
2026-01-28 03:11:36.44	4.06	25.62	-24.2	-25.4	18.7	0.00e+00	0	43	0	987758592	8	4138
2026-01-28 03:11:37.45	3.94	25.77	-24.2	-25.3	18.8	1.17e-03	0	43	0	993001472	8	4113
2026-01-28 03:11:38.46	3.82	25.92	-24.0	-24.9	19.0	3.40e-06	0	43	0	999292928	8	4015
2026-01-28 03:11:39.46	3.69	26.07	-23.9	-24.8	19.0	0.00e+00	0	43	0	1004535808	8	3997
2026-01-28 03:11:40.46	3.57	26.22	-23.9	-24.8	19.0	1.07e-03	0	42	0	1009778688	8	3976
2026-01-28 03:11:41.47	3.44	26.37	-23.8	-24.6	19.1	0.00e+00	0	43	0	1016070144	8	3936
2026-01-28 03:11:42.47	3.31	26.53	-23.8	-24.6	19.2	1.13e-03	0	43	0	1021313024	8	3936
2026-01-28 03:11:43.48	3.18	26.68	-23.9	-25.3	19.0	0.00e+00	0	43	0	1027604480	7	4228
2026-01-28 03:11:44.48	3.05	26.83	-23.9	-24.9	19.0	0.00e+00	0	43	0	1032847360	8	3999
2026-01-28 03:11:45.48	2.92	26.99	-23.7	-24.4	19.2	0.00e+00	0	43	0	1038090240	8	3902
2026-01-28 03:11:46.49	2.78	27.15	-23.7	-24.8	19.2	0.00e+00	0	43	0	1044381696	7	4102
2026-01-28 03:11:47.49	2.65	27.30	-23.7	-24.9	19.2	0.00e+00	0	43	0	1049624576	7	4129
2026-01-28 03:11:48.50	2.51	27.46	-23.8	-25.0	19.2	0.00e+00	0	43	0	1054867456	7	4146
2026-01-28 03:11:49.50	2.37	27.62	-23.8	-25.0	19.2	1.15e-03	0	43	0	1061158912	7	4145
2026-01-28 03:11:50.51	2.23	27.78	-23.7	-24.9	19.2	0.00e+00	0	43	0	1066401792	7	4134
2026-01-28 03:11:51.51	2.09	27.93	-23.8	-25.1	19.2	0.00e+00	0	43	0	1072693248	7	4162
2026-01-28 03:11:52.51	1.95	28.09	-23.7	-24.9	19.2	0.00e+00	0	43	0	1077936128	7	4125
2026-01-28 03:11:53.52	1.81	28.26	-23.6	-24.6	19.4	0.00e+00	0	43	0	1083179008	7	4056
2026-01-28 03:11:54.53	1.66	28.42	-23.6	-24.6	19.4	0.00e+00	0	43	0	1089470464	7	4049
2026-01-28 03:11:55.53	1.51	28.58	-23.7	-24.9	19.2	0.00e+00	0	43	0	1094713344	7	4126
2026-01-28 03:11:56.53	1.37	28.74	-23.8	-25.1	19.2	0.00e+00	0	43	0	1101004800	7	4184
2026-01-28 03:11:57.53	1.22	28.91	-23.8	-25.0	19.2	0.00e+00	0	43	0	1106247680	7	4147
2026-01-28 03:11:58.54	1.06	29.07	-23.9	-25.2	19.1	0.00e+00	0	43	0	1111490560	7	4187
2026-01-28 03:11:59.55	0.91	29.24	-23.9	-25.3	19.1	0.00e+00	0	43	0	1117782016	7	4216
2026-01-28 03:12:00.55	0.76	29.40	-24.0	-25.4	19.0	0.00e+00	0	43	0	1123024896	7	4241
2026-01-28 03:12:01.55	0.60	29.57	-24.2	-25.4	18.8	0.00e+00	0	43	0	1128267776	8	4121
2026-01-28 03:12:02.55	0.44	29.74	-24.2	-25.4	18.7	0.00e+00	0	43	0	1134559232	8	4145
2026-01-28 03:12:03.56	0.28	29.91	-24.3	-25.6	18.7	0.00e+00	0	43	0	1139802112	8	4182
2026-01-28 03:12:04.56	0.12	30.07	-24.2	-25.3	18.8	0.00e+00	0	43	0	1146093568	8	4120
2026-01-28 03:12:05.56	359.96	30.24	-23.8	-24.6	19.2	0.00e+00	0	43	0	1151336448	8	3945
2026-01-28 03:12:06.57	359.79	30.41	-23.6	-24.7	19.4	0.00e+00	0	43	0	1156579328	7	4063
2026-01-28 03:12:07.57	359.63	30.58	-23.6	-24.6	19.4	0.00e+00	0	43	0	1162870784	7	4044
2026-01-28 03:12:08.58	359.46	30.76	-23.5	-24.4	19.5	0.00e+00	0	43	0	1168113664	7	3995
2026-01-28 03:12:09.59	359.29	30.93	-23.3	-24.1	19.6	0.00e+00	0	43	0	1174405120	7	3931
2026-01-28 03:12:10.60	359.11	31.11	-23.2	-23.9	19.8	0.00e+00	0	43	0	1179648000	7	3875
2026-01-28 03:12:11.60	358.94	31.28	-23.3	-24.0	19.7	0.00e+00	0	43	0	1184890880	7	3899
2026-01-28 03:12:12.60	358.77	31.45	-23.2	-23.8	19.8	0.00e+00	0	43	0	1191182336	7	3856
2026-01-28 03:12:13.61	358.59	31.63	-23.1	-24.1	19.9	0.00e+00	0	43	0	1196425216	6	4036
2026-01-28 03:12:14.62	358.41	31.81	-23.1	-24.1	19.9	0.00e+00	0	43	0	1201668096	6	4049
2026-01-28 03:12:15.62	358.22	31.98	-23.2	-24.3	19.8	0.00e+00	0	43	0	1207959552	6	4095
2026-01-28 03:12:16.62	358.04	32.16	-23.2	-24.4	19.7	0.00e+00	0	43	0	1213202432	6	4119
2026-01-28 03:12:17.62	357.86	32.34	-23.3	-24.5	19.7	0.00e+00	0	43	0	1219493888	6	4149
2026-01-28 03:12:18.62	357.67	32.52	-23.4	-24.6	19.6	0.00e+00	0	43	0	1224736768	6	4176
2026-01-28 03:12:19.62	357.48	32.70	-23.3	-24.6	19.7	0.00e+00	0	43	0	1229979648	6	4166
2026-01-28 03:12:20.62	357.29	32.88	-23.4	-24.8	19.6	0.00e+00	0	43	0	1236271104	6	4215
2026-01-28 03:12:21.62	357.09	33.06	-23.6	-24.6	19.4	0.00e+00	0	43	0	1241513984	7	4053
2026-01-28 03:12:22.62	356.90	33.24	-23.5	-24.4	19.6	0.00e+00	0	43	0	1246756864	7	3996
2026-01-28 03:12:23.62	356.70	33.42	-23.4	-24.1	19.7	0.00e+00	0	43	0	1253048320	7	3938
2026-01-28 03:12:24.63	356.50	33.61	-23.4	-24.3	19.6	0.00e+00	0	43	0	1258291200	7	3973
2026-01-28 03:12:25.62	356.30	33.79	-23.4	-24.3	19.6	0.00e+00	0	43	0	1264582656	7	3970
2026-01-28 03:12:26.62	356.09	33.97	-23.5	-24.4	19.6	0.00e+00	0	43	0	1269825536	7	4010
2026-01-28 03:12:27.63	355.88	34.16	-23.5	-24.4	19.6	0.00e+00	0	43	0	1275068416	7	3992
2026-01-28 03:12:28.64	355.67	34.35	-23.6	-24.6	19.4	0.00e+00	0	43	0	1281359872	7	4054
2026-01-28 03:12:29.63	355.46	34.53	-23.4	-24.3	19.6	0.00e+00	0	43	0	1286602752	7	3970
2026-01-28 03:12:30.63	355.24	34.72	-23.0	-23.4	20.1	0.00e+00	0	43	0	1292894208	7	3768
2026-01-28 03:12:31.63	355.03	34.91	-22.8	-23.6	20.2	0.00e+00	0	43	0	1298137088	6	3923
2026-01-28 03:12:32.63	354.81	35.09	-22.9	-23.6	20.2	0.00e+00	0	43	0	1303379968	6	3921
2026-01-28 03:12:33.63	354.58	35.28	-23.0	-23.9	20.1	0.00e+00	0	43	0	1309671424	6	4002
2026-01-28 03:12:34.63	354.36	35.47	-23.2	-24.3	19.9	0.00e+00	0	43	0	1314914304	6	4083
2026-01-28 03:12:35.62	354.13	35.66	-23.2	-24.3	19.9	0.00e+00	0	43	0	1320157184	6	4083
2026-01-28 03:12:36.62	353.90	35.85	-23.2	-24.2	19.9	0.00e+00	0	43	0	1326448640	6	4066
2026-01-28 03:12:37.62	353.67	36.04	-23.2	-24.3	19.9	0.00e+00	0	43	0	1331691520	6	4085
2026-01-28 03:12:38.62	353.43	36.23	-23.1	-24.1	20.0	0.00e+00	0	43	0	1336934400	6	4047
2026-01-28 03:12:39.62	353.19	36.43	-23.1	-24.1	20.0	0.00e+00	0	43	0	1343225856	6	4044
2026-01-28 03:12:40.63	352.95	36.62	-23.2	-24.3	19.9	0.00e+00	0	43	0	1348468736	6	4086
2026-01-28 03:12:41.63	352.70	36.81	-23.4	-24.7	19.7	0.00e+00	0	43	0	1354760192	6	4182
2026-01-28 03:12:42.64	352.45	37.01	-23.4	-24.7	19.7	0.00e+00	0	43	0	1360003072	6	4199
2026-01-28 03:12:43.64	352.20	37.21	-23.5	-24.8	19.6	0.00e+00	0	43	0	1365245952	6	4228
2026-01-28 03:12:44.65	351.95	37.40	-23.3	-24.6	19.7	0.00e+00	0	43	0	1371537408	6	4167
2026-01-28 03:12:45.65	351.69	37.60	-23.2	-24.4	19.8	0.00e+00	0	43	0	1376780288	6	4106
2026-01-28 03:12:46.65	351.43	37.79	-23.2	-24.4	19.8	0.00e+00	0	43	0	1382023168	6	4106
2026-01-28 03:12:47.66	351.16	37.99	-23.1	-24.0	19.8	0.00e+00	0	43	0	1388314624	6	3987
2026-01-28 03:12:48.66	350.90	38.19	-22.7	-23.6	19.2	0.00e+00	0	43	0	1393557504	6	3998
2026-01-28 03:12:49.66	350.63	38.39	-23.3	-24.5	19.5	0.00e+00	0	43	0	1398800384	6	4132
2026-01-28 03:12:50.67	350.35	38.59	-23.5	-24.8	19.6	0.00e+00	0	43	0	1405091840	6	4224
2026-01-28 03:12:51.67	350.07	38.79	-23.5	-24.4	19.6	0.00e+00	0	43	0	1410334720	7	3993
2026-01-28 03:12:52.68	349.79	38.99	-23.3	-24.0	19.8	0.00e+00	0	43	0	1416626176	7	3902
2026-01-28 03:12:53.68	349.51	39.19	-23.2	-23.8	19.9	8.16e-04	0	43	0	1421869056	7	3848
2026-01-28 03:12:54.68	349.22	39.38	-23.4	-24.2	19.7	0.00e+00	0	43	0	1428160512	7	3962
2026-01-28 03:12:55.69	348.93	39.59	-23.4	-24.3	19.7	6.80e-06	0	43	0	1433403392	7	3969
2026-01-28 03:12:56.69	348.63	39.79	-23.4	-24.2	19.7	0.00e+00	0	43	0	1438646272	7	3959
2026-01-28 03:12:57.69	348.33	39.99	-23.4	-24.3	19.7	0.00e+00	0	43	0	1444937728	7	3969
2026-01-28 03:12:58.69	348.03	40.19	-23.5	-24.5	19.6	0.00e+00	0	43	0	1450180608	7	4025
2026-01-28 03:12:59.70	347.72	40.39	-23.5	-24.3	19.6	0.00e+00	0	43	0	1455423488	7	3989
2026-01-28 03:13:00.70	347.41	40.59	-23.4	-24.2	19.7	3.05e-04	0	43	0	1461714944	7	3942
2026-01-28 03:13:01.71	347.10	40.79	-23.4	-24.3	19.7	0.00e+00	0	43	0	1466957824	7	3971
2026-01-28 03:13:02.71	346.78	41.00	-23.4	-24.2	19.7	6.00e-04	0	43	0	1473249280	7	3956
2026-01-28 03:13:03.72	346.45	41.20	-23.4	-24.7	19.7	0.00e+00	0	43	0	1478492160	6	4177
2026-01-28 03:13:04.72	346.13	41.40	-23.4	-24.7	19.7	0.00e+00	0	43	0	1483735040	6	4175
2026-01-28 03:13:05.73	345.80	41.60	-23.4	-24.8	19.7	7.30e-04	0	43	0	1490026496	6	4216
2026-01-28 03:13:06.73	345.46	41.80	-23.4	-24.7	19.7	6.84e-04	0	43	0	1495269376	6	4181
2026-01-28 03:13:07.73	345.12	42.01	-23.3	-24.5	19.8	0.00e+00	0	43	0	1501560832	6	4146
2026-01-28 03:13:08.74	344.78	42.21	-23.3	-24.6	19.8	0.00e+00	0	43	0	1506803712	6	4155
2026-01-28 03:13:09.74	344.43	42.41	-23.6	-24.6	19.5	8.81e-04	0	43	0	1512046592	7	4050
2026-01-28 03:13:10.75	344.08	42.61	-23.5	-24.4	19.6	0.00e+00	0	43	0	1518338048	7	4009
2026-01-28 03:13:11.75	343.72	42.82	-23.4	-24.2	19.7	9.73e-04	0	43	0	1523580928	7	3965
2026-01-28 03:13:12.75	343.36	43.02	-23.4	-24.3	19.7	1.11e-03	0	43	0	1528823808	7	3968
2026-01-28 03:13:13.75	342.99	43.22	-23.5	-24.5	19.6	0.00e+00	0	43	0	1535115264	7	4028
2026-01-28 03:13:14.76	342.62	43.42	-23.4	-24.3	19.7	1.07e-03	0	43	0	1540358144	7	3977
2026-01-28 03:13:15.76	342.25	43.62	-23.3	-24.1	19.8	1.06e-03	0	43	0	1546649600	7	3932
2026-01-28 03:13:16.77	341.86	43.82	-23.4	-24.2	19.8	0.00e+00	0	43	0	1551892480	7	3955
2026-01-28 03:13:17.77	341.48	44.02	-23.3	-24.0	19.9	9.37e-04	0	43	0	1557135360	7	3896
2026-01-28 03:13:18.78	341.09	44.22	-23.1	-23.7	20.0	8.28e-04	0	43	0	1563426816	7	3830
2026-01-28 03:13:19.79	340.69	44.42	-23.1	-23.5	20.1	0.00e+00	0	43	0	1568669696	7	3789
2026-01-28 03:13:20.79	340.29	44.62	-23.2	-24.4	20.0	6.65e-04	0	43	0	1574961152	6	4100
2026-01-28 03:13:21.79	339.89	44.82	-23.2	-24.2	20.0	7.55e-04	0	43	0	1580204032	6	4060
2026-01-28 03:13:22.78	339.48	45.01	-23.2	-24.3	19.9	0.00e+00	0	43	0	1585446912	6	4098
2026-01-28 03:13:23.78	339.07	45.21	-23.5	-24.4	19.6	6.61e-04	0	43	0	1591738368	7	4004
2026-01-28 03:13:24.78	338.65	45.40	-23.6	-24.2	19.5	6.51e-04	0	43	0	1596981248	8	3833
2026-01-28 03:13:25.79	338.22	45.60	-23.4	-23.8	19.8	0.00e+00	0	43	0	1602224128	8	3745
2026-01-28 03:13:26.79	337.79	45.79	-23.4	-24.3	19.7	5.83e-04	0	43	0	1608515584	7	3965
2026-01-28 03:13:27.79	337.35	45.99	-23.4	-24.2	19.7	0.00e+00	0	43	0	1613758464	7	3959
2026-01-28 03:13:28.80	336.91	46.18	-23.5	-24.3	19.7	0.00e+00	0	43	0	1619001344	7	3984
2026-01-28 03:13:29.81	336.46	46.37	-23.3	-24.0	19.9	0.00e+00	0	43	0	1625292800	7	3898
2026-01-28 03:13:30.81	336.01	46.56	-23.2	-23.8	20.0	3.27e-04	0	43	0	1630535680	7	3861
2026-01-28 03:13:31.81	335.55	46.75	-23.3	-24.1	19.8	0.00e+00	0	43	0	1636827136	7	3916
2026-01-28 03:13:32.82	335.08	46.94	-23.2	-23.9	19.9	3.72e-04	0	43	0	1642070016	7	3868
2026-01-28 03:13:33.82	334.61	47.13	-23.3	-24.6	19.8	0.00e+00	0	43	0	1648361472	6	4156
2026-01-28 03:13:34.83	334.14	47.31	-23.4	-24.8	19.7	0.00e+00	0	43	0	1653604352	6	4198
2026-01-28 03:13:35.83	333.66	47.50	-23.6	-24.6	19.6	3.62e-04	0	43	0	1658847232	7	4050
2026-01-28 03:13:36.83	333.17	47.68	-23.8	-25.1	19.3	0.00e+00	0	43	0	1665138688	7	4171
2026-01-28 03:13:37.84	332.67	47.86	-23.7	-24.8	19.5	0.00e+00	0	43	0	1670381568	7	4106
2026-01-28 03:13:38.84	332.18	48.04	-23.6	-24.6	19.6	0.00e+00	0	43	0	1675624448	7	4052
2026-01-28 03:13:39.85	331.67	48.22	-23.8	-25.0	19.4	0.00e+00	0	43	0	1681915904	7	4145
2026-01-28 03:13:40.85	331.16	48.40	-23.9	-25.3	19.2	0.00e+00	0	43	0	1687158784	7	4214
2026-01-28 03:13:41.85	330.65	48.57	-23.9	-25.4	19.2	0.00e+00	0	43	0	1692401664	7	4239
2026-01-28 03:13:42.86	330.12	48.74	-23.7	-24.8	19.5	6.66e-04	0	43	0	1698693120	7	4097
2026-01-28 03:13:43.87	329.59	48.92	-23.5	-24.4	19.7	0.00e+00	0	43	0	1703936000	7	3984
2026-01-28 03:13:44.87	329.06	49.08	-23.7	-24.8	19.5	0.00e+00	0	43	0	1710227456	7	4082
2026-01-28 03:13:45.87	328.52	49.25	-23.8	-24.9	19.4	0.00e+00	0	43	0	1715470336	7	4123
2026-01-28 03:13:46.87	327.98	49.41	-24.3	-25.6	18.8	0.00e+00	0	43	0	1721761792	8	4182
2026-01-28 03:13:47.87	327.43	49.58	-24.4	-25.7	18.8	0.00e+00	0	43	0	1727004672	8	4218
2026-01-28 03:13:48.87	326.87	49.73	-24.3	-25.5	18.9	0.00e+00	0	43	0	1732247552	8	4163
2026-01-28 03:13:49.88	326.30	49.89	-24.3	-25.5	18.9	0.00e+00	0	43	0	1738539008	8	4145
2026-01-28 03:13:50.88	325.74	50.05	-24.7	-25.9	18.5	0.00e+00	0	43	0	1743781888	9	4128
2026-01-28 03:13:51.89	325.16	50.20	-24.7	-25.9	18.5	0.00e+00	0	43	0	1749024768	9	4137
2026-01-28 03:13:52.89	324.58	50.35	-25.1	-26.2	18.1	0.00e+00	0	43	0	1755316224	10	4119
2026-01-28 03:13:53.90	323.99	50.50	-24.5	-25.0	18.7	0.00e+00	0	43	0	1760559104	10	3808
2026-01-28 03:13:54.90	323.40	50.64	-24.1	-24.7	19.1	0.00e+00	0	43	0	1765801984	9	3834
2026-01-28 03:13:55.90	322.80	50.78	-24.2	-24.8	19.0	0.00e+00	0	43	0	1772093440	9	3882
2026-01-28 03:13:56.91	322.19	50.92	-24.4	-25.3	18.8	0.00e+00	0	43	0	1777336320	9	3989
2026-01-28 03:13:57.92	321.58	51.06	-24.7	-26.0	18.4	0.00e+00	0	43	0	1783627776	9	4165
2026-01-28 03:13:58.92	320.97	51.19	-24.6	-25.8	18.5	0.00e+00	0	43	0	1788870656	9	4116
2026-01-28 03:13:59.92	320.35	51.32	-24.4	-25.3	18.8	0.00e+00	0	43	0	1795162112	9	3984
2026-01-28 03:14:00.93	319.72	51.45	-24.4	-25.3	18.8	0.00e+00	0	43	0	1800404992	9	3992
2026-01-28 03:14:01.93	319.09	51.57	-24.3	-25.1	18.9	0.00e+00	0	43	0	1805647872	9	3944
2026-01-28 03:14:02.93	318.45	51.69	-24.2	-25.4	19.0	0.00e+00	0	43	0	1811939328	8	4139
2026-01-28 03:14:03.94	317.81	51.81	-24.2	-25.4	18.9	0.00e+00	0	43	0	1817182208	8	4140
2026-01-28 03:14:04.95	317.16	51.92	-24.5	-25.9	18.7	0.00e+00	0	43	0	1822425088	8	4269
2026-01-28 03:14:05.95	316.51	52.03	-24.2	-24.8	19.0	0.00e+00	0	43	0	1828716544	9	3879
2026-01-28 03:14:06.96	315.85	52.14	-23.9	-24.2	19.3	0.00e+00	0	43	0	1833959424	9	3743
2026-01-28 03:14:07.96	315.19	52.24	-23.9	-24.3	19.3	0.00e+00	0	43	0	1840250880	9	3770
2026-01-28 03:14:08.96	314.53	52.34	-23.9	-24.9	19.2	0.00e+00	0	43	0	1845493760	8	4002
2026-01-28 03:14:09.97	313.85	52.43	-24.0	-24.9	19.2	0.00e+00	0	43	0	1851785216	8	4007
2026-01-28 03:14:10.96	313.19	52.52	-23.6	-24.1	19.6	0.00e+00	0	43	0	1857028096	8	3829
2026-01-28 03:14:11.96	312.51	52.61	-23.7	-24.9	19.4	0.00e+00	0	43	0	1862270976	7	4115
2026-01-28 03:14:12.97	311.83	52.69	-24.2	-25.5	18.9	0.00e+00	0	43	0	1868562432	8	4153
2026-01-28 03:14:13.97	311.14	52.77	-24.1	-25.2	19.0	0.00e+00	0	43	0	1873805312	8	4082
2026-01-28 03:14:14.97	310.46	52.84	-23.8	-24.6	19.3	0.00e+00	0	43	0	1879048192	8	3941
2026-01-28 03:14:15.97	309.77	52.91	-23.9	-24.8	19.3	0.00e+00	0	43	0	1885339648	8	3980
2026-01-28 03:14:16.98	309.07	52.98	-24.3	-25.7	18.8	0.00e+00	0	43	0	1890582528	8	4193
2026-01-28 03:14:17.98	308.37	53.04	-24.5	-25.9	18.7	0.00e+00	0	43	0	1895825408	8	4263
2026-01-28 03:14:18.99	307.66	53.10	-24.3	-25.7	18.8	0.00e+00	0	43	0	1902116864	8	4193
2026-01-28 03:14:19.99	306.96	53.15	-24.7	-25.9	18.5	0.00e+00	0	43	0	1907359744	9	4143
2026-01-28 03:14:20.99	306.26	53.20	-25.1	-26.3	18.0	0.00e+00	0	43	0	1913651200	10	4123
2026-01-28 03:14:21.99	305.55	53.24	-24.8	-25.6	18.3	0.00e+00	0	43	0	1918894080	10	3964
2026-01-28 03:14:23.00	304.83	53.28	-24.6	-25.3	18.5	0.00e+00	0	43	0	1924136960	10	3879
2026-01-28 03:14:24.01	304.11	53.32	-24.4	-25.4	18.7	0.00e+00	0	43	0	1930428416	9	4022
2026-01-28 03:14:25.01	303.40	53.35	-24.2	-24.8	19.0	0.00e+00	0	43	0	1935671296	9	3884
2026-01-28 03:14:26.02	302.68	53.38	-24.7	-26.0	18.4	0.00e+00	0	43	0	1941962752	9	4155
2026-01-28 03:14:27.02	301.97	53.40	-24.2	-24.9	18.9	0.00e+00	0	43	0	1947205632	9	3895
2026-01-28 03:14:28.02	301.25	53.41	-23.8	-24.1	19.3	0.00e+00	0	43	0	1952448512	9	3717
2026-01-28 03:14:29.02	300.53	53.43	-23.9	-24.8	19.2	0.00e+00	0	43	0	1958739968	8	3991
2026-01-28 03:14:30.02	299.82	53.43	-24.4	-25.8	18.7	3.32e-04	0	43	0	1963982848	8	4226
2026-01-28 03:14:31.02	299.10	53.44	-24.1	-25.3	19.0	0.00e+00	0	43	0	1969225728	8	4103
2026-01-28 03:14:32.02	298.38	53.44	-23.9	-24.6	19.3	0.00e+00	0	43	0	1975517184	8	3945
2026-01-28 03:14:33.02	297.66	53.43	-24.1	-25.2	19.0	0.00e+00	0	43	0	1980760064	8	4074
2026-01-28 03:14:34.03	296.94	53.42	-24.0	-24.9	19.2	0.00e+00	0	43	0	1987051520	8	4002
2026-01-28 03:14:35.04	296.22	53.40	-24.0	-25.0	19.1	0.00e+00	0	43	0	1992294400	8	4022
2026-01-28 03:14:36.04	295.50	53.38	-24.2	-25.5	18.8	0.00e+00	0	43	0	1997537280	8	4152
2026-01-28 03:14:37.05	294.78	53.36	-23.9	-24.7	19.3	0.00e+00	0	43	0	2003828736	8	3958
2026-01-28 03:14:38.06	294.06	53.33	-23.7	-24.3	19.5	0.00e+00	0	43	0	2009071616	8	3874
2026-01-28 03:14:39.06	293.35	53.30	-23.7	-24.7	19.4	5.77e-04	0	43	0	2015363072	7	4077
2026-01-28 03:14:40.07	292.63	53.26	-23.6	-24.6	19.5	0.00e+00	0	43	0	2020605952	7	4036
2026-01-28 03:14:41.07	291.92	53.22	-23.8	-24.9	19.3	0.00e+00	0	43	0	2025848832	7	4128
2026-01-28 03:14:42.08	291.21	53.17	-24.0	-25.4	19.1	8.27e-04	0	43	0	2032140288	7	4254
2026-01-28 03:14:43.08	290.51	53.12	-24.2	-25.4	18.9	0.00e+00	0	43	0	2037383168	8	4132
2026-01-28 03:14:44.09	289.80	53.06	-23.9	-24.7	19.2	6.56e-04	0	43	0	2042626048	8	3964
2026-01-28 03:14:45.10	289.09	53.00	-23.6	-24.6	19.5	1.61e-04	0	43	0	2048917504	7	4039
2026-01-28 03:14:46.10	288.40	52.93	-23.5	-24.5	19.6	0.00e+00	0	43	0	2054160384	7	4015
2026-01-28 03:14:47.10	287.71	52.87	-23.6	-24.5	19.5	2.62e-04	0	43	0	2060451840	7	4030
2026-01-28 03:14:48.10	287.02	52.79	-23.9	-25.2	19.2	0.00e+00	0	43	0	2065694720	7	4200
2026-01-28 03:14:49.09	286.34	52.72	-23.9	-25.2	19.2	0.00e+00	0	43	0	2070937600	7	4195
2026-01-28 03:14:50.10	285.65	52.64	-23.8	-25.1	19.3	1.10e-06	0	43	0	2077229056	7	4164
2026-01-28 03:14:51.10	284.97	52.55	-23.9	-25.2	19.2	7.70e-04	0	43	0	2082471936	7	4186
2026-01-28 03:14:52.11	284.29	52.46	-24.3	-25.5	18.8	0.00e+00	0	43	0	2087714816	8	4167
2026-01-28 03:14:53.11	283.62	52.37	-24.2	-25.4	18.8	6.92e-04	0	43	0	2094006272	8	4140
2026-01-28 03:14:54.11	282.96	52.27	-24.0	-25.0	19.0	3.01e-04	0	43	0	2099249152	8	4044
2026-01-28 03:14:55.11	282.30	52.17	-23.7	-24.4	19.3	0.00e+00	0	43	0	2105540608	8	3899
2026-01-28 03:14:56.12	281.63	52.07	-23.6	-24.7	19.5	7.82e-04	0	43	0	2110783488	7	4064
2026-01-28 03:14:57.13	280.98	51.96	-23.5	-24.5	19.5	0.00e+00	0	43	0	2116026368	7	4021
2026-01-28 03:14:58.12	280.34	51.85	-23.7	-24.8	19.4	0.00e+00	0	43	0	2122317824	7	4109
2026-01-28 03:14:59.13	279.69	51.73	-23.4	-24.2	19.7	1.14e-03	0	43	0	2127560704	7	3955
2026-01-28 03:15:00.14	279.05	51.61	-23.5	-24.3	19.6	1.21e-03	0	43	0	2133852160	7	3987
2026-01-28 03:15:01.14	278.41	51.49	-23.6	-24.6	19.4	0.00e+00	0	43	0	2139095040	7	4060
2026-01-28 03:15:02.14	277.79	51.36	-23.5	-24.4	19.6	5.86e-04	0	43	0	2144337920	7	4012
2026-01-28 03:15:03.15	277.16	51.23	-23.5	-24.4	19.6	5.69e-04	0	43	0	2150629376	7	3999
2026-01-28 03:15:04.15	276.54	51.10	-23.6	-24.7	19.4	0.00e+00	0	43	0	2155872256	7	4081
2026-01-28 03:15:05.16	275.93	50.97	-23.7	-25.0	19.2	1.86e-04	0	43	0	2161115136	7	4137
2026-01-28 03:15:06.15	275.33	50.83	-23.7	-24.8	19.3	6.10e-04	0	43	0	2167406592	7	4102
2026-01-28 03:15:07.16	274.73	50.69	-23.7	-24.9	19.3	0.00e+00	0	43	0	2172649472	7	4124
2026-01-28 03:15:08.16	274.13	50.54	-23.6	-24.6	19.5	8.06e-04	0	43	0	2177892352	7	4043
2026-01-28 03:15:09.16	273.54	50.40	-23.6	-24.6	19.4	0.00e+00	0	43	0	2184183808	7	4054
2026-01-28 03:15:10.16	272.96	50.25	-23.8	-25.0	19.2	0.00e+00	0	43	0	2189426688	7	4164
2026-01-28 03:15:11.16	272.39	50.10	-23.6	-24.6	19.4	0.00e+00	0	43	0	2195718144	7	4052
2026-01-28 03:15:12.17	271.81	49.94	-23.7	-24.8	19.3	1.05e-03	0	43	0	2200961024	7	4106
2026-01-28 03:15:13.17	271.25	49.79	-23.6	-24.7	19.4	0.00e+00	0	43	0	2207252480	7	4067
2026-01-28 03:15:14.17	270.69	49.63	-23.6	-24.6	19.4	0.00e+00	0	43	0	2212495360	7	4060
2026-01-28 03:15:15.18	270.13	49.46	-23.6	-24.7	19.4	0.00e+00	0	43	0	2217738240	7	4072
2026-01-28 03:15:16.18	269.58	49.30	-23.5	-24.4	19.5	0.00e+00	0	43	0	2224029696	7	4003
2026-01-28 03:15:17.18	269.04	49.13	-23.5	-24.4	19.5	8.64e-04	0	43	0	2229272576	7	3993
2026-01-28 03:15:18.19	268.50	48.96	-23.4	-24.2	19.6	0.00e+00	0	43	0	2234515456	7	3959
2026-01-28 03:15:19.19	267.97	48.79	-23.3	-24.0	19.7	0.00e+00	0	43	0	2240806912	7	3920
2026-01-28 03:15:20.19	267.45	48.62	-23.3	-24.0	19.7	0.00e+00	0	43	0	2246049792	7	3903
2026-01-28 03:15:21.20	266.92	48.45	-23.3	-24.5	19.7	0.00e+00	0	43	0	2251292672	6	4148
2026-01-28 03:15:22.20	266.41	48.27	-23.2	-24.2	19.8	0.00e+00	0	43	0	2257584128	6	4074
2026-01-28 03:15:23.20	265.91	48.09	-23.1	-24.2	19.9	0.00e+00	0	43	0	2262827008	6	4067
2026-01-28 03:15:24.21	265.40	47.91	-23.3	-24.5	19.7	5.84e-04	0	43	0	2269118464	6	4131
2026-01-28 03:15:25.22	264.90	47.73	-23.2	-24.4	19.7	0.00e+00	0	43	0	2274361344	6	4113
2026-01-28 03:15:26.21	264.42	47.55	-22.9	-23.8	20.0	0.00e+00	0	43	0	2280652800	6	3965
2026-01-28 03:15:27.22	263.93	47.37	-23.0	-23.8	20.0	0.00e+00	0	43	0	2285895680	6	3973
2026-01-28 03:15:28.22	263.46	47.18	-23.3	-24.5	19.7	0.00e+00	0	43	0	2291138560	6	4142
2026-01-28 03:15:29.23	262.98	46.99	-23.2	-24.3	19.8	0.00e+00	0	43	0	2297430016	6	4087
2026-01-28 03:15:30.23	262.51	46.81	-23.0	-23.9	19.9	0.00e+00	0	43	0	2302672896	6	3996
2026-01-28 03:15:31.23	262.05	46.62	-23.1	-24.0	19.9	0.00e+00	0	43	0	2307915776	6	4028
2026-01-28 03:15:32.24	261.59	46.42	-23.1	-24.1	19.8	0.00e+00	0	43	0	2314207232	6	4050
2026-01-28 03:15:33.24	261.15	46.23	-22.7	-23.4	20.2	0.00e+00	0	43	0	2319450112	6	3867
2026-01-28 03:15:34.25	260.70	46.04	-22.6	-23.1	20.3	0.00e+00	0	43	0	2324692992	6	3815
2026-01-28 03:15:35.25	260.26	45.85	-22.7	-23.3	20.2	0.00e+00	0	43	0	2330984448	6	3862
2026-01-28 03:15:36.26	259.82	45.65	-22.9	-24.2	20.0	0.00e+00	0	43	0	2336227328	5	4177
2026-01-28 03:15:37.26	259.40	45.46	-22.8	-24.0	20.1	0.00e+00	0	43	0	2342518784	5	4136
2026-01-28 03:15:38.26	258.97	45.26	-22.7	-23.8	20.2	0.00e+00	0	43	0	2347761664	5	4095
2026-01-28 03:15:39.26	258.56	45.06	-22.8	-24.1	20.0	0.00e+00	0	43	0	2354053120	5	4163
2026-01-28 03:15:40.26	258.15	44.87	-22.9	-24.1	20.0	0.00e+00	0	43	0	2359296000	5	4161
2026-01-28 03:15:41.26	257.74	44.67	-22.6	-23.5	20.3	0.00e+00	0	43	0	2364538880	5	4013
2026-01-28 03:15:42.26	257.34	44.47	-22.5	-23.3	20.4	0.00e+00	0	43	0	2370830336	5	3971
2026-01-28 03:15:43.26	256.94	44.27	-22.5	-23.5	20.3	1.10e-06	0	43	0	2376073216	5	4001
2026-01-28 03:15:44.26	256.55	44.07	-22.5	-23.4	20.4	0.00e+00	0	43	0	2381316096	5	3989
2026-01-28 03:15:45.26	256.16	43.87	-22.5	-23.4	20.3	0.00e+00	0	43	0	2386558976	5	3984
2026-01-28 03:15:46.27	255.78	43.67	-22.4	-23.1	20.5	0.00e+00	0	43	0	2392850432	5	3928
2026-01-28 03:15:47.26	255.40	43.47	-22.4	-23.1	20.5	0.00e+00	0	43	0	2398093312	5	3905
2026-01-28 03:15:48.27	255.03	43.27	-22.4	-23.2	20.4	0.00e+00	0	43	0	2404384768	5	3944
2026-01-28 03:15:49.27	254.66	43.07	-22.5	-23.3	20.4	0.00e+00	0	43	0	2409627648	5	3964
2026-01-28 03:15:50.27	254.30	42.87	-22.7	-23.8	20.1	0.00e+00	0	43	0	2415919104	5	4091
2026-01-28 03:15:51.27	253.94	42.66	-22.8	-24.1	20.0	0.00e+00	0	43	0	2421161984	5	4164
2026-01-28 03:15:52.27	253.58	42.46	-22.9	-24.2	19.9	3.40e-06	0	43	0	2426404864	5	4186
2026-01-28 03:15:53.27	253.23	42.26	-22.9	-24.3	19.9	0.00e+00	0	43	0	2432696320	5	4214
2026-01-28 03:15:54.27	252.89	42.06	-22.9	-24.2	19.9	0.00e+00	0	43	0	2437939200	5	4179
2026-01-28 03:15:55.27	252.55	41.85	-22.9	-24.2	19.9	1.10e-06	0	43	0	2443182080	5	4192
2026-01-28 03:15:56.28	252.21	41.65	-23.0	-23.9	19.8	0.00e+00	0	43	0	2449473536	6	4005
2026-01-28 03:15:57.29	251.87	41.45	-23.3	-24.6	19.5	0.00e+00	0	43	0	2454716416	6	4163
2026-01-28 03:15:58.29	251.55	41.24	-23.5	-24.5	19.3	2.20e-06	0	43	0	2459959296	7	4035
2026-01-28 03:15:59.29	251.22	41.04	-23.2	-23.8	19.7	0.00e+00	0	43	0	2466250752	7	3857
2026-01-28 03:16:00.30	250.90	40.84	-22.9	-23.8	19.9	0.00e+00	0	43	0	2471493632	6	3972
2026-01-28 03:16:01.30	250.58	40.64	-22.9	-23.7	19.9	0.00e+00	0	43	0	2477785088	6	3941
2026-01-28 03:16:02.31	250.27	40.43	-23.0	-23.9	19.8	0.00e+00	0	43	0	2483027968	6	3986
2026-01-28 03:16:03.32	249.96	40.23	-23.0	-24.0	19.8	0.00e+00	0	43	0	2489319424	6	4013
2026-01-28 03:16:04.32	249.65	40.03	-22.9	-23.8	19.9	0.00e+00	0	43	0	2494562304	6	3980
2026-01-28 03:16:05.33	249.35	39.82	-22.8	-23.6	20.0	0.00e+00	0	43	0	2499805184	6	3924
2026-01-28 03:16:06.33	249.05	39.62	-22.7	-23.3	20.1	0.00e+00	0	43	0	2506096640	6	3860
2026-01-28 03:16:07.33	248.76	39.42	-22.6	-23.7	20.2	0.00e+00	0	43	0	2511339520	5	4053
2026-01-28 03:16:08.33	248.47	39.22	-22.5	-23.3	20.3	0.00e+00	0	43	0	2516582400	5	3972
2026-01-28 03:16:09.33	248.18	39.02	-22.5	-23.3	20.3	0.00e+00	0	43	0	2522873856	5	3963
2026-01-28 03:16:10.34	247.90	38.82	-22.6	-23.5	20.3	0.00e+00	0	43	0	2528116736	5	4010
2026-01-28 03:16:11.33	247.62	38.62	-22.5	-23.5	20.3	0.00e+00	0	43	0	2533359616	5	4004
2026-01-28 03:16:12.34	247.34	38.42	-22.6	-23.6	20.2	0.00e+00	0	43	0	2539651072	5	4038
2026-01-28 03:16:13.34	247.07	38.22	-22.6	-23.4	20.1	0.00e+00	0	43	0	2544893952	5	3946
2026-01-28 03:16:14.34	246.80	38.03	-22.1	-23.1	16.3	0.00e+00	0	43	0	2551185408	5	4006
2026-01-28 03:16:15.35	246.54	37.83	-22.7	-23.7	19.9	0.00e+00	0	43	0	2556428288	5	4068
2026-01-28 03:16:16.35	246.27	37.63	-22.7	-23.8	17.5	0.00e+00	0	43	0	2561671168	5	4089
2026-01-28 03:16:17.36	246.01	37.43	-22.6	-23.7	20.1	0.00e+00	0	43	0	2567962624	5	4052
2026-01-28 03:16:18.36	245.76	37.24	-22.5	-23.4	20.3	3.03e-04	0	43	0	2573205504	5	3986
2026-01-28 03:16:19.37	245.50	37.04	-22.5	-23.4	20.3	0.00e+00	0	43	0	2579496960	5	3973
2026-01-28 03:16:20.36	245.25	36.85	-22.4	-23.2	20.4	0.00e+00	0	43	0	2584739840	5	3946
2026-01-28 03:16:21.37	245.00	36.65	-22.3	-23.4	20.5	5.73e-04	0	43	0	2589982720	4	4086
2026-01-28 03:16:22.38	244.76	36.45	-22.3	-23.6	20.4	0.00e+00	0	43	0	2596274176	4	4143
2026-01-28 03:16:23.38	244.52	36.26	-22.6	-23.5	20.2	1.59e-03	0	43	0	2601517056	5	4015
2026-01-28 03:16:24.38	244.28	36.07	-22.7	-23.7	20.1	0.00e+00	0	43	0	2606759936	5	4076
2026-01-28 03:16:25.38	244.04	35.87	-22.7	-23.8	20.1	1.53e-03	0	43	0	2613051392	5	4088
2026-01-28 03:16:26.39	243.81	35.68	-22.5	-23.4	20.3	1.14e-05	0	43	0	2618294272	5	3986
2026-01-28 03:16:27.39	243.58	35.49	-22.4	-23.2	20.4	0.00e+00	0	43	0	2624585728	5	3944
2026-01-28 03:16:28.40	243.35	35.30	-22.4	-23.2	20.4	1.05e-03	0	43	0	2629828608	5	3935
2026-01-28 03:16:29.40	243.13	35.11	-22.3	-23.0	20.5	0.00e+00	0	43	0	2635071488	5	3885
2026-01-28 03:16:30.41	242.90	34.92	-22.3	-23.0	20.5	0.00e+00	0	43	0	2641362944	5	3886
2026-01-28 03:16:31.41	242.68	34.73	-22.3	-22.9	20.5	0.00e+00	0	43	0	2646605824	5	3867
2026-01-28 03:16:32.41	242.47	34.54	-22.2	-22.7	20.6	2.52e-04	0	43	0	2652897280	5	3815
2026-01-28 03:16:33.42	242.25	34.35	-22.2	-22.8	20.5	0.00e+00	0	43	0	2658140160	5	3834
2026-01-28 03:16:34.42	242.04	34.17	-22.2	-22.7	20.6	2.56e-04	0	43	0	2663383040	5	3831
2026-01-28 03:16:35.43	241.83	33.98	-22.4	-23.1	20.4	5.14e-04	0	43	0	2669674496	5	3929
2026-01-28 03:16:36.44	241.62	33.79	-22.5	-23.5	20.2	0.00e+00	0	43	0	2674917376	5	4015
2026-01-28 03:16:37.44	241.42	33.61	-22.5	-23.5	20.2	7.09e-04	0	43	0	2680160256	5	4015
2026-01-28 03:16:38.45	241.21	33.42	-22.6	-23.6	20.1	7.79e-04	0	43	0	2686451712	5	4039
2026-01-28 03:16:39.45	241.01	33.24	-22.5	-23.5	20.2	0.00e+00	0	43	0	2691694592	5	4004
2026-01-28 03:16:40.46	240.81	33.05	-22.4	-23.2	20.3	8.78e-04	0	43	0	2697986048	5	3934
2026-01-28 03:16:41.46	240.62	32.87	-22.4	-23.2	20.3	9.54e-04	0	43	0	2703228928	5	3950
2026-01-28 03:16:42.47	240.42	32.69	-22.5	-23.5	20.2	0.00e+00	0	43	0	2709520384	5	4003
2026-01-28 03:16:43.48	240.23	32.51	-22.7	-23.7	20.0	9.88e-04	0	43	0	2714763264	5	4073
2026-01-28 03:16:44.48	240.04	32.33	-22.8	-24.1	19.9	9.75e-04	0	43	0	2720006144	5	4152
2026-01-28 03:16:45.48	239.85	32.15	-22.9	-24.2	19.8	2.20e-06	0	43	0	2726297600	5	4186
2026-01-28 03:16:46.47	239.67	31.97	-23.0	-24.3	19.7	8.97e-04	0	43	0	2731540480	5	4217
2026-01-28 03:16:47.48	239.49	31.79	-23.0	-24.3	19.7	6.91e-04	0	43	0	2736783360	5	4218
2026-01-28 03:16:48.47	239.31	31.62	-23.0	-23.8	19.8	1.10e-06	0	43	0	2743074816	6	3977
2026-01-28 03:16:49.48	239.13	31.44	-23.0	-23.8	19.7	2.25e-04	0	43	0	2748317696	6	3987
2026-01-28 03:16:50.48	238.95	31.27	-23.0	-24.0	19.7	0.00e+00	0	43	0	2753560576	6	4025
2026-01-28 03:16:51.49	238.78	31.09	-23.0	-23.9	19.7	0.00e+00	0	43	0	2759852032	6	3993
2026-01-28 03:16:52.49	238.60	30.92	-22.9	-23.7	19.8	0.00e+00	0	43	0	2765094912	6	3950
2026-01-28 03:16:53.49	238.43	30.74	-22.9	-23.7	19.8	2.76e-04	0	43	0	2771386368	6	3962
2026-01-28 03:16:54.50	238.26	30.57	-23.1	-24.1	19.6	0.00e+00	0	43	0	2776629248	6	4051
2026-01-28 03:16:55.51	238.09	30.40	-23.1	-24.1	19.6	0.00e+00	0	43	0	2781872128	6	4057
2026-01-28 03:16:56.51	237.93	30.23	-22.9	-23.7	19.8	6.10e-04	0	43	0	2788163584	6	3952
2026-01-28 03:16:57.51	237.76	30.06	-22.9	-23.7	19.8	1.10e-06	0	43	0	2793406464	6	3943
2026-01-28 03:16:58.51	237.60	29.89	-22.9	-23.8	19.7	7.29e-04	0	43	0	2799697920	6	3973
2026-01-28 03:16:59.52	237.44	29.72	-23.0	-24.0	19.6	0.00e+00	0	43	0	2804940800	6	4024
2026-01-28 03:17:00.52	237.28	29.55	-23.1	-24.1	19.6	0.00e+00	0	43	0	2810183680	6	4052
2026-01-28 03:17:01.53	237.12	29.38	-23.1	-24.2	19.6	0.00e+00	0	43	0	2816475136	6	4062
2026-01-28 03:17:02.53	236.97	29.21	-23.1	-24.1	19.6	0.00e+00	0	43	0	2821718016	6	4052
2026-01-28 03:17:03.53	236.82	29.05	-23.1	-24.2	19.6	0.00e+00	0	43	0	2826960896	6	4059
2026-01-28 03:17:04.53	236.66	28.88	-23.1	-24.2	19.5	0.00e+00	0	43	0	2833252352	6	4075
2026-01-28 03:17:05.53	236.51	28.72	-23.2	-24.4	19.4	1.88e-04	0	43	0	2838495232	6	4114
2026-01-28 03:17:06.53	236.36	28.56	-23.2	-24.4	19.4	0.00e+00	0	43	0	2844786688	6	4128
2026-01-28 03:17:07.53	236.22	28.39	-23.2	-24.4	19.4	0.00e+00	0	43	0	2850029568	6	4123
2026-01-28 03:17:08.54	236.07	28.23	-23.2	-24.4	19.4	0.00e+00	0	43	0	2855272448	6	4124
2026-01-28 03:17:09.55	235.92	28.07	-23.2	-24.5	19.4	0.00e+00	0	43	0	2861563904	6	4139
2026-01-28 03:17:10.55	235.78	27.91	-23.2	-24.4	19.4	0.00e+00	0	43	0	2866806784	6	4126
2026-01-28 03:17:11.56	235.64	27.75	-23.2	-24.3	19.5	0.00e+00	0	43	0	2873098240	6	4091
2026-01-28 03:17:12.57	235.50	27.59	-23.2	-24.3	19.5	0.00e+00	0	43	0	2878341120	6	4099
2026-01-28 03:17:13.57	235.36	27.43	-23.1	-24.2	19.5	0.00e+00	0	43	0	2883584000	6	4076
2026-01-28 03:17:14.57	235.22	27.27	-23.1	-24.2	19.5	0.00e+00	0	43	0	2889875456	6	4081
2026-01-28 03:17:15.58	235.08	27.11	-23.2	-24.4	19.4	0.00e+00	0	43	0	2895118336	6	4120
2026-01-28 03:17:16.58	234.95	26.96	-23.3	-24.5	19.3	0.00e+00	0	43	0	2900361216	6	4150
2026-01-28 03:17:17.58	234.82	26.80	-23.3	-24.6	19.3	0.00e+00	0	43	0	2906652672	6	4172
2026-01-28 03:17:18.58	234.69	26.65	-23.3	-24.6	19.3	0.00e+00	0	43	0	2911895552	6	4177
2026-01-28 03:17:19.58	234.56	26.49	-23.3	-24.5	19.3	0.00e+00	0	43	0	2918187008	6	4138
2026-01-28 03:17:20.58	234.43	26.34	-23.3	-24.7	19.2	0.00e+00	0	43	0	2923429888	6	4184
2026-01-28 03:17:21.59	234.30	26.19	-23.3	-24.6	19.3	0.00e+00	0	43	0	2928672768	6	4171
2026-01-28 03:17:22.59	234.17	26.03	-23.3	-24.5	19.3	0.00e+00	0	43	0	2934964224	6	4141
2026-01-28 03:17:23.60	234.04	25.88	-23.3	-24.6	19.3	0.00e+00	0	43	0	2940207104	6	4166
2026-01-28 03:17:24.61	233.92	25.73	-23.4	-24.8	19.2	0.00e+00	0	43	0	2945449984	6	4227
2026-01-28 03:17:25.62	233.79	25.58	-23.4	-24.3	19.2	0.00e+00	0	43	0	2951741440	7	3979
2026-01-28 03:17:26.62	233.67	25.43	-23.3	-24.1	19.2	0.00e+00	0	43	0	2956984320	7	3942
2026-01-28 03:17:27.62	233.55	25.28	-23.4	-24.2	19.2	0.00e+00	0	43	0	2963275776	7	3966
2026-01-28 03:17:28.62	233.43	25.13	-23.4	-24.2	19.2	0.00e+00	0	43	0	2968518656	7	3965
2026-01-28 03:17:29.63	233.31	24.99	-23.4	-24.2	19.2	0.00e+00	0	43	0	2973761536	7	3957
2026-01-28 03:17:30.64	233.19	24.84	-23.5	-24.4	19.1	0.00e+00	0	43	0	2980052992	7	4010
2026-01-28 03:17:31.64	233.08	24.69	-23.4	-24.3	19.1	0.00e+00	0	43	0	2985295872	7	3991
2026-01-28 03:17:32.64	232.96	24.55	-23.3	-24.1	19.2	0.00e+00	0	43	0	2991587328	7	3944
2026-01-28 03:17:33.65	232.85	24.40	-23.3	-24.0	19.2	0.00e+00	0	43	0	2996830208	7	3922
2026-01-28 03:17:34.64	232.74	24.26	-23.3	-24.5	19.2	0.00e+00	0	43	0	3002073088	6	4159
2026-01-28 03:17:35.65	232.62	24.12	-23.3	-24.6	19.2	0.00e+00	0	43	0	3008364544	6	4175
2026-01-28 03:17:36.64	232.51	23.98	-23.3	-24.7	19.2	0.00e+00	0	43	0	3013607424	6	4189
2026-01-28 03:17:37.65	232.40	23.83	-23.4	-24.7	19.1	0.00e+00	0	43	0	3018850304	6	4193
2026-01-28 03:17:38.66	232.29	23.69	-23.4	-24.7	19.1	0.00e+00	0	43	0	3025141760	6	4209
2026-01-28 03:17:39.67	232.18	23.55	-23.3	-24.7	19.2	0.00e+00	0	43	0	3030384640	6	4196
2026-01-28 03:17:40.67	232.08	23.41	-23.5	-24.9	19.0	0.00e+00	0	43	0	3036676096	6	4261
2026-01-28 03:17:41.67	231.97	23.27	-23.4	-24.3	19.1	0.00e+00	0	43	0	3041918976	7	4002
2026-01-28 03:17:42.67	231.87	23.13	-23.4	-24.3	19.1	0.00e+00	0	43	0	3047161856	7	3990
2026-01-28 03:17:43.67	231.76	22.99	-23.4	-24.2	19.1	0.00e+00	0	43	0	3053453312	7	3969
2026-01-28 03:17:44.68	231.66	22.86	-23.3	-24.0	19.2	0.00e+00	0	43	0	3058696192	7	3918
2026-01-28 03:17:45.68	231.56	22.72	-23.3	-24.0	19.2	0.00e+00	0	43	0	3064987648	7	3925
2026-01-28 03:17:46.68	231.46	22.58	-23.3	-24.0	19.2	0.00e+00	0	43	0	3070230528	7	3924
2026-01-28 03:17:47.69	231.35	22.45	-23.4	-24.2	19.1	0.00e+00	0	43	0	3075473408	7	3959
2026-01-28 03:17:48.69	231.25	22.31	-23.4	-24.7	19.1	0.00e+00	0	43	0	3081764864	6	4201
2026-01-28 03:17:49.69	231.16	22.18	-23.5	-24.9	19.0	0.00e+00	0	43	0	3087007744	6	4252
2026-01-28 03:17:50.70	231.06	22.04	-23.8	-25.1	18.6	0.00e+00	0	43	0	3092250624	7	4186
2026-01-28 03:17:51.70	230.96	21.91	-23.8	-25.1	18.6	0.00e+00	0	43	0	3098542080	7	4180
2026-01-28 03:17:52.71	230.86	21.78	-23.7	-24.9	18.8	0.00e+00	0	43	0	3103784960	7	4125
2026-01-28 03:17:53.71	230.77	21.65	-23.7	-24.9	18.7	0.00e+00	0	43	0	3110076416	7	4127
2026-01-28 03:17:54.71	230.67	21.52	-23.8	-25.0	18.6	0.00e+00	0	43	0	3115319296	7	4175
2026-01-28 03:17:55.71	230.58	21.39	-23.9	-25.4	18.5	0.00e+00	0	43	0	3120562176	7	4263
2026-01-28 03:17:56.71	230.49	21.26	-23.9	-25.4	18.4	0.00e+00	0	43	0	3126853632	7	4266
2026-01-28 03:17:57.72	230.40	21.13	-23.7	-24.7	17.8	0.00e+00	0	43	0	3132096512	8	4029
2026-01-28 03:17:58.72	230.30	21.00	-24.2	-25.6	16.1	0.00e+00	0	43	0	3138387968	8	4197
2026-01-28 03:17:59.72	230.21	20.87	-24.2	-25.5	18.0	0.00e+00	0	43	0	3143630848	8	4172
2026-01-28 03:18:00.73	230.12	20.74	-24.1	-25.3	17.8	0.00e+00	0	43	0	3148873728	8	4138
2026-01-28 03:18:01.73	230.04	20.61	-24.1	-25.4	18.0	0.00e+00	0	43	0	3155165184	8	4147
2026-01-28 03:18:02.73	229.95	20.49	-24.1	-25.3	18.2	0.00e+00	0	43	0	3160408064	8	4140
2026-01-28 03:18:03.74	229.86	20.36	-24.2	-25.5	18.1	0.00e+00	0	43	0	3165650944	8	4184
2026-01-28 03:18:04.75	229.77	20.23	-24.2	-25.4	18.2	4.98e-04	0	43	0	3171942400	8	4164
2026-01-28 03:18:05.75	229.69	20.11	-24.1	-25.2	18.3	0.00e+00	0	43	0	3177185280	8	4107
2026-01-28 03:18:06.75	229.60	19.99	-24.1	-25.2	18.3	0.00e+00	0	43	0	3183476736	8	4113
2026-01-28 03:18:07.76	229.52	19.86	-24.1	-25.2	18.3	0.00e+00	0	43	0	3188719616	8	4106
2026-01-28 03:18:08.77	229.43	19.74	-24.1	-25.3	18.2	0.00e+00	0	43	0	3195011072	8	4134
2026-01-28 03:18:09.77	229.35	19.61	-24.2	-25.5	18.1	0.00e+00	0	43	0	3200253952	8	4175
2026-01-28 03:18:10.77	229.27	19.49	-24.2	-25.5	18.1	0.00e+00	0	43	0	3205496832	8	4166
2026-01-28 03:18:11.78	229.18	19.37	-24.3	-25.6	18.1	0.00e+00	0	43	0	3211788288	8	4201
2026-01-28 03:18:12.79	229.10	19.25	-24.2	-25.6	18.1	0.00e+00	0	43	0	3217031168	8	4191
2026-01-28 03:18:13.79	229.02	19.13	-24.3	-25.7	18.0	1.38e-03	0	43	0	3222274048	8	4220
2026-01-28 03:18:14.79	228.94	19.01	-24.3	-25.7	18.0	0.00e+00	0	43	0	3228565504	8	4221
2026-01-28 03:18:15.80	228.86	18.89	-24.3	-25.7	18.0	1.43e-03	0	43	0	3233808384	8	4237
2026-01-28 03:18:16.80	228.78	18.77	-24.5	-25.7	17.7	1.47e-03	0	43	0	3239051264	9	4110
2026-01-28 03:18:17.80	228.71	18.65	-24.8	-26.3	17.4	0.00e+00	0	43	0	3245342720	9	4272
2026-01-28 03:18:18.81	228.63	18.53	-24.7	-26.0	17.6	1.49e-03	0	43	0	3250585600	9	4185
2026-01-28 03:18:19.81	228.55	18.42	-24.5	-25.6	17.8	0.00e+00	0	43	0	3256877056	9	4079
2026-01-28 03:18:20.82	228.47	18.30	-24.4	-25.3	17.9	0.00e+00	0	43	0	3262119936	9	4018
2026-01-28 03:18:21.81	228.40	18.18	-24.4	-25.4	17.9	0.00e+00	0	43	0	3268411392	9	4041
2026-01-28 03:18:22.82	228.33	18.07	-24.4	-25.5	17.8	1.32e-03	0	43	0	3273654272	9	4052
2026-01-28 03:18:23.83	228.25	17.95	-24.4	-25.5	17.8	0.00e+00	0	43	0	3278897152	9	4064
2026-01-28 03:18:24.83	228.18	17.83	-24.4	-25.5	17.8	1.28e-03	0	43	0	3285188608	9	4051
2026-01-28 03:18:25.84	228.10	17.72	-24.6	-25.9	17.6	1.38e-03	0	43	0	3290431488	9	4165
2026-01-28 03:18:26.84	228.03	17.61	-24.6	-25.8	17.6	0.00e+00	0	43	0	3295674368	9	4139
2026-01-28 03:18:27.84	227.96	17.49	-24.6	-25.8	17.6	1.34e-03	0	43	0	3301965824	9	4142
2026-01-28 03:18:28.84	227.89	17.38	-24.7	-26.0	17.5	1.34e-03	0	43	0	3307208704	9	4185
2026-01-28 03:18:29.84	227.82	17.27	-24.7	-26.1	17.5	2.40e-05	0	43	0	3312451584	9	4215
2026-01-28 03:18:30.84	227.75	17.16	-24.8	-26.2	17.4	1.34e-03	0	43	0	3318743040	9	4240
2026-01-28 03:18:31.84	227.68	17.04	-24.8	-26.3	17.3	1.30e-03	0	43	0	3323985920	9	4273
2026-01-28 03:18:32.84	227.61	16.93	-24.8	-26.4	17.3	3.43e-05	0	43	0	3330277376	9	4291
2026-01-28 03:18:33.85	227.54	16.82	-24.9	-26.5	17.2	1.20e-03	0	43	0	3335520256	9	4331
2026-01-28 03:18:34.84	227.47	16.71	-25.0	-26.7	17.1	1.31e-03	0	43	0	3340763136	9	4375
2026-01-28 03:18:35.85	227.40	16.60	-24.9	-26.6	17.2	6.98e-05	0	43	0	3347054592	9	4354
2026-01-28 03:18:36.85	227.34	16.49	-25.1	-26.3	17.0	1.24e-03	0	43	0	3352297472	10	4178
2026-01-28 03:18:37.85	227.27	16.38	-25.3	-26.8	16.8	1.19e-03	0	43	0	3357540352	10	4294
2026-01-28 03:18:38.85	227.20	16.28	-25.2	-26.7	16.9	8.81e-05	0	43	0	3363831808	10	4256
2026-01-28 03:18:39.86	227.14	16.17	-25.1	-26.4	17.0	1.12e-03	0	43	0	3369074688	10	4187
2026-01-28 03:18:40.86	227.07	16.06	-25.0	-26.3	17.0	0.00e+00	0	43	0	3374317568	10	4171
2026-01-28 03:18:41.85	227.01	15.95	-25.1	-26.5	16.9	1.32e-04	0	43	0	3380609024	10	4216
2026-01-28 03:18:42.86	226.94	15.85	-25.1	-26.4	16.9	1.15e-03	0	43	0	3385851904	10	4191
2026-01-28 03:18:43.86	226.88	15.74	-25.2	-26.6	16.9	1.27e-03	0	43	0	3392143360	10	4230
2026-01-28 03:18:44.86	226.82	15.64	-25.0	-26.3	17.0	1.33e-04	0	43	0	3397386240	10	4165
2026-01-28 03:18:45.87	226.75	15.53	-25.0	-26.2	17.0	9.96e-04	0	43	0	3403677696	10	4146
2026-01-28 03:18:46.87	226.69	15.42	-25.0	-26.3	17.0	1.24e-03	0	43	0	3408920576	10	4162
2026-01-28 03:18:47.87	226.63	15.32	-25.1	-26.5	16.9	0.00e+00	0	43	0	3414163456	10	4207
2026-01-28 03:18:48.87	226.57	15.22	-25.0	-26.3	17.0	1.23e-03	0	43	0	3420454912	10	4154
2026-01-28 03:18:49.88	226.51	15.11	-25.0	-26.3	17.0	0.00e+00	0	43	0	3425697792	10	4158
2026-01-28 03:18:50.89	226.45	15.01	-25.1	-26.4	16.9	1.14e-04	0	43	0	3430940672	10	4192
2026-01-28 03:18:51.89	226.39	14.90	-25.1	-26.4	16.9	1.18e-03	0	43	0	3437232128	10	4190
2026-01-28 03:18:52.89	226.33	14.80	-25.1	-26.4	16.9	0.00e+00	0	43	0	3442475008	10	4199
2026-01-28 03:18:53.89	226.27	14.70	-25.2	-26.7	16.7	1.40e-04	0	43	0	3447717888	10	4270
2026-01-28 03:18:54.89	226.21	14.60	-25.2	-26.6	16.8	0.00e+00	0	43	0	3454009344	10	4247
2026-01-28 03:18:55.90	226.15	14.50	-25.2	-26.6	16.8	1.18e-03	0	43	0	3459252224	10	4238
2026-01-28 03:18:56.90	226.09	14.40	-25.2	-26.7	16.7	0.00e+00	0	43	0	3465543680	10	4256
2026-01-28 03:18:57.90	226.03	14.30	-25.4	-27.1	16.5	0.00e+00	0	43	0	3470786560	10	4366
2026-01-28 03:18:58.90	225.98	14.20	-25.3	-26.9	16.6	0.00e+00	0	43	0	3476029440	10	4309
2026-01-28 03:18:59.91	225.92	14.09	-25.3	-27.0	16.5	0.00e+00	0	43	0	3482320896	10	4341
2026-01-28 03:19:00.91	225.86	14.00	-25.4	-27.1	16.5	1.11e-03	0	43	0	3487563776	10	4364
2026-01-28 03:19:01.92	225.81	13.90	-25.5	-26.8	16.3	0.00e+00	0	43	0	3493855232	11	4189
2026-01-28 03:19:02.92	225.75	13.80	-25.5	-26.7	16.4	8.12e-05	0	43	0	3499098112	11	4164
2026-01-28 03:19:03.93	225.70	13.70	-25.5	-26.8	16.3	0.00e+00	0	43	0	3504340992	11	4191
2026-01-28 03:19:04.93	225.64	13.60	-25.5	-26.8	16.3	0.00e+00	0	43	0	3510632448	11	4195
2026-01-28 03:19:05.94	225.59	13.50	-25.6	-27.1	16.1	0.00e+00	0	43	0	3515875328	11	4271
2026-01-28 03:19:06.94	225.53	13.41	-25.6	-27.0	16.2	0.00e+00	0	43	0	3521118208	11	4238
2026-01-28 03:19:07.94	225.48	13.31	-25.6	-27.1	16.2	0.00e+00	0	43	0	3527409664	11	4254
2026-01-28 03:19:08.95	225.43	13.21	-25.7	-27.2	16.1	0.00e+00	0	43	0	3532652544	11	4283
2026-01-28 03:19:09.95	225.37	13.12	-25.6	-27.1	16.1	0.00e+00	0	43	0	3538944000	11	4259
2026-01-28 03:19:10.96	225.32	13.02	-25.7	-27.3	16.0	0.00e+00	0	43	0	3544186880	11	4322
2026-01-28 03:19:11.97	225.27	12.92	-25.7	-27.2	16.1	0.00e+00	0	43	0	3550478336	11	4298
2026-01-28 03:19:12.97	225.22	12.83	-25.7	-27.3	16.0	0.00e+00	0	43	0	3555721216	11	4314
2026-01-28 03:19:13.97	225.16	12.73	-25.9	-27.7	15.8	0.00e+00	0	43	0	3560964096	11	4427
2026-01-28 03:19:14.97	225.11	12.64	-25.8	-27.5	15.9	0.00e+00	0	43	0	3567255552	11	4371
2026-01-28 03:19:15.98	225.06	12.54	-25.9	-27.6	15.8	0.00e+00	0	43	0	3572498432	11	4413
2026-01-28 03:19:16.98	225.01	12.45	-25.9	-27.6	15.8	0.00e+00	0	43	0	3577741312	11	4403
2026-01-28 03:19:17.99	224.96	12.36	-25.9	-27.6	15.8	0.00e+00	0	43	0	3584032768	11	4410
2026-01-28 03:19:18.99	224.91	12.26	-25.9	-27.7	15.8	0.00e+00	0	43	0	3589275648	11	4424
2026-01-28 03:19:20.00	224.86	12.17	-25.9	-27.8	15.7	0.00e+00	0	43	0	3594518528	11	4447
2026-01-28 03:19:21.00	224.81	12.08	-25.8	-27.5	15.8	0.00e+00	0	43	0	3600809984	11	4379
2026-01-28 03:19:22.01	224.76	11.99	-25.8	-27.5	15.8	0.00e+00	0	43	0	3606052864	11	4379
2026-01-28 03:19:23.01	224.71	11.89	-25.8	-27.5	15.8	0.00e+00	0	43	0	3612344320	11	4382
2026-01-28 03:19:24.02	224.67	11.80	-25.9	-27.3	15.6	0.00e+00	0	43	0	3617587200	12	4219
2026-01-28 03:19:25.02	224.62	11.71	-25.8	-27.0	15.7	0.00e+00	0	43	0	3623878656	12	4135
2026-01-28 03:19:26.03	224.57	11.62	-25.8	-26.9	15.8	0.00e+00	0	43	0	3629121536	12	4116
2026-01-28 03:19:27.03	224.52	11.53	-25.8	-26.9	15.8	0.00e+00	0	43	0	3634364416	12	4121
2026-01-28 03:19:28.03	224.48	11.44	-25.8	-27.5	15.8	0.00e+00	0	43	0	3640655872	11	4367
2026-01-28 03:19:29.03	224.43	11.35	-25.9	-27.8	15.6	0.00e+00	0	43	0	3645898752	11	4462
2026-01-28 03:19:30.04	224.38	11.26	-25.8	-27.5	15.8	0.00e+00	0	43	0	3651141632	11	4369
2026-01-28 03:19:31.04	224.34	11.17	-25.9	-27.6	15.7	0.00e+00	0	43	0	3657433088	11	4411
2026-01-28 03:19:32.04	224.29	11.08	-25.8	-27.5	15.8	0.00e+00	0	43	0	3662675968	11	4383
2026-01-28 03:19:33.05	224.25	10.99	-25.9	-27.7	15.6	0.00e+00	0	43	0	3667918848	11	4423
2026-01-28 03:19:34.05	224.20	10.90	-25.9	-27.6	15.7	0.00e+00	0	43	0	3674210304	11	4415
2026-01-28 03:19:35.05	224.16	10.82	-25.9	-27.7	15.6	0.00e+00	0	43	0	3679453184	11	4444
2026-01-28 03:19:36.04	224.11	10.73	-25.9	-27.7	15.6	0.00e+00	0	43	0	3685744640	11	4435
2026-01-28 03:19:37.05	224.07	10.64	-25.9	-27.3	15.5	0.00e+00	0	43	0	3690987520	12	4227
2026-01-28 03:19:38.04	224.02	10.56	-25.9	-27.1	15.6	0.00e+00	0	43	0	3696230400	12	4170
2026-01-28 03:19:39.05	223.98	10.47	-25.9	-27.2	15.5	0.00e+00	0	43	0	3702521856	12	4187
2026-01-28 03:19:40.06	223.93	10.38	-26.0	-27.9	15.4	0.00e+00	0	43	0	3707764736	11	4496
2026-01-28 03:19:41.07	223.89	10.29	-26.0	-27.4	15.4	0.00e+00	0	43	0	3714056192	12	4238
2026-01-28 03:19:42.07	223.85	10.21	-26.1	-27.6	15.3	0.00e+00	0	43	0	3719299072	12	4310
2026-01-28 03:19:43.07	223.81	10.12	-26.0	-27.5	15.3	0.00e+00	0	43	0	3724541952	12	4268
2026-01-28 03:19:44.08	223.76	10.04	-26.1	-27.6	15.3	0.00e+00	0	43	0	3730833408	12	4302
2026-01-28 03:19:45.08	223.72	9.95	-26.2	-27.9	15.1	1.10e-06	0	43	0	3736076288	12	4381
2026-01-28 03:19:46.09	223.68	9.87	-26.1	-27.8	15.2	0.00e+00	0	43	0	3741319168	12	4347
2026-01-28 03:19:47.09	223.64	9.78	-26.2	-28.0	15.0	0.00e+00	0	43	0	3747610624	12	4421
2026-01-28 03:19:48.08	223.60	9.70	-26.0	-27.7	14.0	0.00e+00	0	43	0	3752853504	12	4371
2026-01-28 03:19:49.09	223.55	9.61	-26.3	-28.1	13.2	0.00e+00	0	43	0	3759144960	12	4439
2026-01-28 03:19:50.09	223.51	9.53	-26.3	-28.1	14.9	0.00e+00	0	43	0	3764387840	12	4437
2026-01-28 03:19:51.09	223.47	9.45	-26.4	-28.5	14.7	1.10e-06	0	43	0	3769630720	12	4551
2026-01-28 03:19:52.10	223.43	9.36	-26.4	-28.4	14.7	1.10e-06	0	43	0	3775922176	12	4545
2026-01-28 03:19:53.10	223.39	9.28	-26.5	-28.5	14.6	0.00e+00	0	43	0	3781165056	12	4573
2026-01-28 03:19:54.10	223.35	9.20	-26.7	-28.6	14.3	1.10e-06	0	43	0	3786407936	13	4493
2026-01-28 03:19:55.10	223.31	9.12	-26.6	-28.4	14.5	0.00e+00	0	43	0	3792699392	13	4414
2026-01-28 03:19:56.11	223.27	9.03	-26.5	-28.0	14.6	0.00e+00	0	43	0	3797942272	13	4318
2026-01-28 03:19:57.11	223.23	8.95	-26.3	-28.3	14.8	1.27e-03	0	43	0	3804233728	12	4502
2026-01-28 03:19:58.12	223.20	8.87	-26.5	-28.6	14.6	1.27e-03	0	43	0	3809476608	12	4583
2026-01-28 03:19:59.13	223.16	8.79	-26.4	-28.5	14.7	1.10e-06	0	43	0	3814719488	12	4557
2026-01-28 03:20:00.13	223.12	8.71	-26.4	-28.5	14.6	1.17e-03	0	43	0	3821010944	12	4567
2026-01-28 03:20:01.13	223.08	8.63	-26.6	-28.3	14.5	1.10e-06	0	43	0	3826253824	13	4387
2026-01-28 03:20:02.13	223.04	8.55	-26.8	-28.8	14.1	3.40e-06	0	43	0	3832545280	13	4548
2026-01-28 03:20:03.13	223.00	8.46	-26.7	-28.6	14.3	4.50e-06	0	43	0	3837788160	13	4471
2026-01-28 03:20:04.13	222.97	8.38	-26.8	-28.8	14.1	1.01e-03	0	43	0	3843031040	13	4529
2026-01-28 03:20:05.13	222.93	8.31	-27.0	-28.9	13.8	9.10e-06	0	43	0	3849322496	14	4460
2026-01-28 03:20:06.13	222.89	8.23	-26.8	-28.9	14.0	5.70e-06	0	43	0	3854565376	13	4566
2026-01-28 03:20:07.13	222.86	8.15	-26.8	-28.8	14.1	9.62e-04	0	43	0	3859808256	13	4529
2026-01-28 03:20:08.12	222.82	8.07	-26.9	-29.1	13.9	1.10e-06	0	43	0	3866099712	13	4631
