passes_logs/2026/01/28/R2M6_AANII_01/R2M6_AANII_01__20260128_021204_SUOMI_NPP_rec.log

#Pass ID: 20260128_021204_SUOMI NPP
#Satellite: SUOMI NPP
#Configuration: NPP
#almurnet v.1.7.20240730
#Start time: 2026-01-28 02:12:04

#Version: 2.2.20231116
#Station: R2M6_AANII_01
#Location: 30.233357 lon 59.946436 lat
#TLE: 1 37849U 11061A   26027.50945616  .00000185  00000+0  10897-3 0  9994
#TLE: 2 37849  98.7823 329.4511 0002105  42.1421 317.9917 14.19530771738482

#Time	Az	El	Level	Level2	SNR	BER	BlckErr	Temp	State	Recorded	gain1	gain2
2026-01-28 02:12:04.95	10.84	7.05	-32.6	-40.5	4.1	1.46e+00	0	40	0	0	25	8902
2026-01-28 02:12:05.95	10.75	7.11	-32.5	-39.5	4.3	1.42e+00	0	41	104	0	25	8088
2026-01-28 02:12:06.96	10.67	7.18	-32.5	-39.6	5.4	5.76e-01	0	41	0	0	24	8166
2026-01-28 02:12:07.97	10.58	7.24	-32.5	-39.3	5.4	5.33e-01	0	41	0	1048576	25	7844
2026-01-28 02:12:08.97	10.50	7.31	-32.5	-39.4	5.3	5.45e-01	0	41	0	3145728	25	7947
2026-01-28 02:12:09.97	10.41	7.38	-32.5	-39.5	5.3	5.66e-01	0	41	0	5242880	25	7977
2026-01-28 02:12:10.97	10.33	7.44	-32.6	-39.8	5.1	5.98e-01	0	41	0	7340032	25	8242
2026-01-28 02:12:11.98	10.24	7.51	-32.7	-40.6	4.7	7.72e-01	0	41	0	9437184	25	8918
2026-01-28 02:12:12.98	10.15	7.58	-32.6	-40.1	4.9	8.02e-01	0	41	0	10485760	25	8507
2026-01-28 02:12:13.98	10.06	7.64	-32.5	-39.1	5.5	6.20e-01	0	41	0	12582912	25	7664
2026-01-28 02:12:14.98	9.97	7.71	-32.4	-38.7	6.1	3.43e-01	0	41	0	14680064	24	7414
2026-01-28 02:12:15.99	9.89	7.78	-32.2	-37.5	6.9	2.20e-01	0	41	0	16777216	24	6670
2026-01-28 02:12:16.99	9.80	7.84	-32.0	-36.7	7.5	1.29e-01	0	41	0	17825792	24	6200
2026-01-28 02:12:18.00	9.71	7.91	-31.7	-36.0	8.4	5.82e-02	0	41	0	19922944	23	5890
2026-01-28 02:12:19.00	9.62	7.98	-31.6	-35.4	8.9	3.88e-02	0	41	0	22020096	23	5588
2026-01-28 02:12:20.00	9.53	8.05	-31.4	-34.6	9.7	1.64e-02	0	41	0	24117248	23	5191
2026-01-28 02:12:21.00	9.44	8.11	-31.3	-34.7	9.9	1.29e-02	0	41	0	26214400	22	5316
2026-01-28 02:12:21.99	9.35	8.18	-31.4	-35.2	9.6	1.52e-02	0	41	0	27262976	22	5551
2026-01-28 02:12:23.00	9.25	8.25	-31.3	-34.8	9.9	1.03e-02	0	41	0	29360128	22	5367
2026-01-28 02:12:24.00	9.16	8.32	-31.4	-35.1	9.7	1.42e-02	0	41	0	31457280	22	5486
2026-01-28 02:12:25.00	9.07	8.38	-31.4	-35.1	9.7	1.42e-02	0	41	0	33554432	22	5489
2026-01-28 02:12:26.00	8.98	8.45	-31.4	-35.1	9.7	1.12e-02	0	41	0	35651584	22	5518
2026-01-28 02:12:27.00	8.88	8.52	-31.5	-35.3	9.5	1.39e-02	0	41	0	36700160	22	5595
2026-01-28 02:12:28.00	8.79	8.59	-31.4	-35.2	9.7	1.32e-02	0	41	0	38797312	22	5545
2026-01-28 02:12:29.00	8.69	8.66	-31.5	-34.9	9.5	1.56e-02	0	41	0	40894464	23	5322
2026-01-28 02:12:30.01	8.60	8.73	-31.7	-35.6	8.9	2.65e-02	0	41	0	42991616	23	5665
2026-01-28 02:12:31.02	8.50	8.79	-31.6	-35.1	9.4	2.55e-02	0	41	0	45088768	23	5389
2026-01-28 02:12:32.02	8.41	8.86	-31.4	-34.3	9.9	8.80e-03	0	41	0	46137344	23	5064
2026-01-28 02:12:33.02	8.31	8.93	-31.2	-34.3	10.4	7.38e-03	0	41	0	48234496	22	5147
2026-01-28 02:12:34.03	8.21	9.00	-31.4	-34.9	9.9	8.14e-03	0	41	0	50331648	22	5408
2026-01-28 02:12:35.03	8.12	9.07	-31.3	-34.5	10.2	6.93e-03	0	41	0	52428800	22	5220
2026-01-28 02:12:36.04	8.02	9.14	-31.2	-34.2	10.4	7.12e-03	0	41	0	54525952	22	5108
2026-01-28 02:12:37.04	7.92	9.21	-31.1	-34.1	10.5	6.42e-03	0	41	0	55574528	22	5045
2026-01-28 02:12:38.05	7.82	9.28	-31.2	-34.2	10.5	5.47e-03	0	41	0	57671680	22	5084
2026-01-28 02:12:39.04	7.72	9.35	-31.2	-34.3	10.4	6.09e-03	0	41	0	59768832	22	5119
2026-01-28 02:12:40.05	7.62	9.42	-31.4	-34.8	10.1	8.24e-03	0	41	0	61865984	22	5333
2026-01-28 02:12:41.04	7.52	9.49	-31.3	-34.6	10.2	6.00e-03	0	42	0	62914560	22	5275
2026-01-28 02:12:42.05	7.42	9.56	-31.4	-34.9	9.9	8.14e-03	0	41	0	65011712	22	5407
2026-01-28 02:12:43.05	7.32	9.63	-31.3	-34.6	10.2	1.22e-02	0	41	0	67108864	22	5278
2026-01-28 02:12:44.05	7.22	9.70	-31.4	-35.0	9.8	7.41e-03	0	41	0	69206016	22	5455
2026-01-28 02:12:45.06	7.12	9.77	-31.6	-35.0	9.5	1.45e-02	0	42	0	71303168	23	5349
2026-01-28 02:12:46.06	7.01	9.84	-31.4	-34.5	9.9	1.17e-02	0	42	0	73400320	23	5117
2026-01-28 02:12:47.07	6.91	9.91	-31.3	-34.0	10.2	7.23e-03	0	42	0	74448896	23	4942
2026-01-28 02:12:48.07	6.81	9.98	-31.2	-34.3	10.5	6.54e-03	0	42	0	76546048	22	5111
2026-01-28 02:12:49.07	6.70	10.05	-31.2	-34.4	10.4	3.77e-03	0	42	0	78643200	22	5157
2026-01-28 02:12:50.08	6.60	10.12	-31.2	-34.2	10.5	4.02e-03	0	42	0	80740352	22	5084
2026-01-28 02:12:51.08	6.49	10.19	-31.1	-34.0	10.6	6.38e-03	0	42	0	81788928	22	5025
2026-01-28 02:12:52.08	6.39	10.26	-31.0	-33.7	10.9	2.53e-03	0	42	0	83886080	22	4888
2026-01-28 02:12:53.08	6.28	10.33	-31.1	-34.0	10.7	2.92e-03	0	42	0	85983232	22	5000
2026-01-28 02:12:54.09	6.17	10.40	-31.1	-34.0	10.7	6.40e-03	0	42	0	88080384	22	5003
2026-01-28 02:12:55.09	6.06	10.48	-31.2	-34.1	10.6	5.28e-03	0	42	0	90177536	22	5031
2026-01-28 02:12:56.09	5.96	10.55	-31.4	-35.0	9.9	5.23e-03	0	42	0	91226112	22	5442
2026-01-28 02:12:57.10	5.85	10.62	-31.2	-34.2	10.6	4.69e-03	0	42	0	93323264	22	5094
2026-01-28 02:12:58.10	5.74	10.69	-31.3	-34.6	10.2	6.89e-03	0	42	0	95420416	22	5265
2026-01-28 02:12:59.11	5.63	10.76	-31.5	-34.7	9.9	1.03e-02	0	42	0	97517568	23	5198
2026-01-28 02:13:00.11	5.52	10.83	-31.2	-34.2	10.6	5.62e-03	0	42	0	99614720	22	5078
2026-01-28 02:13:01.11	5.41	10.91	-31.0	-33.5	11.1	5.26e-03	0	42	0	100663296	22	4792
2026-01-28 02:13:02.11	5.30	10.98	-31.0	-33.6	11.1	1.51e-03	0	42	0	102760448	22	4834
2026-01-28 02:13:03.11	5.19	11.05	-30.9	-33.8	11.3	1.41e-03	0	42	0	104857600	21	5006
2026-01-28 02:13:04.11	5.07	11.12	-31.0	-33.4	11.2	1.16e-03	0	42	0	106954752	22	4770
2026-01-28 02:13:05.12	4.96	11.19	-31.0	-33.6	11.1	1.67e-03	0	42	0	109051904	22	4828
2026-01-28 02:13:06.12	4.85	11.27	-30.8	-32.9	11.5	1.04e-03	0	42	0	110100480	22	4565
2026-01-28 02:13:07.12	4.73	11.34	-30.9	-33.6	11.4	1.09e-03	0	42	0	112197632	21	4945
2026-01-28 02:13:08.12	4.62	11.41	-30.9	-33.6	11.4	1.02e-03	0	42	0	114294784	21	4931
2026-01-28 02:13:09.12	4.50	11.48	-30.9	-33.7	11.4	1.09e-03	0	42	0	116391936	21	4964
2026-01-28 02:13:10.11	4.39	11.56	-31.0	-33.8	11.2	1.15e-03	0	42	0	118489088	21	5018
2026-01-28 02:13:11.12	4.27	11.63	-31.0	-33.9	11.2	1.18e-03	0	42	0	119537664	21	5023
2026-01-28 02:13:12.12	4.15	11.70	-31.1	-33.7	11.1	3.86e-03	0	42	0	121634816	22	4854
2026-01-28 02:13:13.12	4.04	11.77	-31.2	-34.0	10.8	2.34e-03	0	42	0	123731968	22	4985
2026-01-28 02:13:14.13	3.92	11.85	-30.9	-33.2	11.4	1.50e-03	0	42	0	125829120	22	4673
2026-01-28 02:13:15.13	3.80	11.92	-30.7	-33.1	11.8	6.97e-04	0	42	0	126877696	21	4726
2026-01-28 02:13:16.14	3.68	12.00	-30.6	-32.7	12.1	2.51e-04	0	42	0	128974848	21	4571
2026-01-28 02:13:17.15	3.56	12.07	-30.5	-32.4	12.3	2.07e-04	0	42	0	131072000	21	4472
2026-01-28 02:13:18.15	3.44	12.14	-30.6	-32.6	12.2	2.13e-04	0	42	0	133169152	21	4551
2026-01-28 02:13:19.16	3.31	12.22	-30.6	-32.6	12.2	2.00e-04	0	42	0	135266304	21	4551
2026-01-28 02:13:20.17	3.19	12.29	-30.7	-33.1	11.9	2.67e-04	0	42	0	136314880	21	4712
2026-01-28 02:13:21.17	3.07	12.37	-30.8	-33.2	11.8	4.45e-04	0	42	0	138412032	21	4753
2026-01-28 02:13:22.17	2.95	12.44	-30.8	-33.3	11.7	5.00e-04	0	42	0	140509184	21	4808
2026-01-28 02:13:23.17	2.82	12.51	-30.9	-33.5	11.5	6.84e-04	0	42	0	142606336	21	4857
2026-01-28 02:13:24.17	2.70	12.59	-31.0	-33.8	11.4	7.30e-04	0	42	0	144703488	21	4981
2026-01-28 02:13:25.17	2.57	12.66	-30.9	-33.5	11.5	7.75e-04	0	42	0	145752064	21	4891
2026-01-28 02:13:26.18	2.45	12.74	-31.0	-33.3	11.4	1.07e-03	0	42	0	147849216	22	4712
2026-01-28 02:13:27.18	2.32	12.81	-31.0	-33.4	11.4	1.02e-03	0	42	0	149946368	22	4743
2026-01-28 02:13:28.19	2.19	12.88	-31.0	-33.4	11.3	9.22e-04	0	42	0	152043520	22	4739
2026-01-28 02:13:29.19	2.06	12.96	-31.0	-33.5	11.3	1.03e-03	0	42	0	154140672	22	4761
2026-01-28 02:13:30.20	1.93	13.03	-30.9	-33.6	10.8	7.89e-04	0	42	0	155189248	21	4906
2026-01-28 02:13:31.20	1.81	13.11	-30.9	-33.5	11.5	8.22e-04	0	42	0	157286400	21	4889
2026-01-28 02:13:32.20	1.68	13.18	-31.0	-33.5	10.9	8.14e-04	0	42	0	159383552	22	4780
2026-01-28 02:13:33.20	1.55	13.26	-31.1	-33.6	11.1	1.22e-03	0	42	0	161480704	22	4812
2026-01-28 02:13:34.21	1.41	13.33	-31.1	-33.8	11.1	1.54e-03	0	42	0	163577856	22	4891
2026-01-28 02:13:35.21	1.28	13.41	-31.1	-33.8	11.1	1.38e-03	0	42	0	164626432	22	4888
2026-01-28 02:13:36.22	1.15	13.48	-31.0	-33.8	11.4	3.77e-03	0	42	0	166723584	21	4986
2026-01-28 02:13:37.23	1.01	13.56	-30.9	-33.2	11.6	8.73e-04	0	42	0	168820736	22	4653
2026-01-28 02:13:38.23	0.88	13.64	-30.8	-33.4	11.7	6.71e-04	0	42	0	170917888	21	4820
2026-01-28 02:13:39.23	0.75	13.71	-30.8	-33.4	11.8	5.36e-04	0	42	0	173015040	21	4815
2026-01-28 02:13:40.23	0.61	13.79	-30.6	-32.5	12.3	2.39e-04	0	42	0	174063616	21	4522
2026-01-28 02:13:41.24	0.47	13.86	-30.4	-32.6	12.6	1.08e-04	0	42	0	176160768	20	4621
2026-01-28 02:13:42.24	0.34	13.94	-30.5	-32.8	12.5	1.34e-04	0	42	0	178257920	20	4690
2026-01-28 02:13:43.25	0.20	14.01	-30.4	-32.4	12.7	2.70e-04	0	42	0	180355072	20	4572
2026-01-28 02:13:44.26	0.06	14.09	-30.4	-32.5	12.7	6.02e-05	0	42	0	182452224	20	4611
2026-01-28 02:13:45.26	359.92	14.17	-30.5	-32.5	12.4	1.16e-04	0	42	0	183500800	21	4489
2026-01-28 02:13:46.26	359.78	14.24	-30.3	-31.8	12.8	2.66e-04	0	43	0	185597952	21	4287
2026-01-28 02:13:47.26	359.64	14.32	-30.3	-32.4	12.8	2.63e-03	0	42	0	187695104	20	4561
2026-01-28 02:13:48.26	359.50	14.39	-30.5	-32.4	12.5	8.46e-05	0	42	0	189792256	21	4452
2026-01-28 02:13:49.26	359.36	14.47	-30.4	-32.1	12.7	1.17e-04	0	42	0	191889408	21	4362
2026-01-28 02:13:50.26	359.22	14.54	-30.4	-32.6	12.6	2.57e-03	0	42	0	192937984	20	4629
2026-01-28 02:13:51.27	359.07	14.62	-30.4	-32.6	12.6	8.54e-05	0	42	0	195035136	20	4623
2026-01-28 02:13:52.28	358.93	14.70	-30.2	-32.0	13.1	4.80e-05	0	42	0	197132288	20	4409
2026-01-28 02:13:53.29	358.78	14.77	-30.3	-32.2	13.0	2.31e-03	0	42	0	199229440	20	4493
2026-01-28 02:13:54.29	358.63	14.85	-30.3	-32.1	13.0	2.50e-03	0	42	0	200278016	20	4459
2026-01-28 02:13:55.30	358.49	14.93	-30.4	-32.5	12.8	4.11e-05	0	42	0	202375168	20	4583
2026-01-28 02:13:56.30	358.34	15.00	-30.5	-32.4	12.5	2.63e-03	0	42	0	204472320	21	4465
2026-01-28 02:13:57.30	358.19	15.08	-30.5	-32.3	12.6	2.54e-03	0	42	0	206569472	21	4425
2026-01-28 02:13:58.31	358.04	15.16	-30.5	-32.4	12.5	1.42e-04	0	42	0	208666624	21	4455
2026-01-28 02:13:59.31	357.89	15.23	-30.6	-32.6	12.4	1.10e-04	0	42	0	209715200	21	4534
2026-01-28 02:14:00.31	357.74	15.31	-30.6	-32.7	12.3	2.45e-03	0	42	0	211812352	21	4564
2026-01-28 02:14:01.32	357.59	15.39	-30.5	-32.3	12.6	4.16e-04	0	42	0	213909504	21	4425
2026-01-28 02:14:02.33	357.44	15.46	-30.4	-32.6	12.7	9.38e-05	0	42	0	216006656	20	4614
2026-01-28 02:14:03.33	357.29	15.54	-30.5	-32.3	12.6	2.51e-03	0	42	0	218103808	21	4431
2026-01-28 02:14:04.34	357.13	15.62	-30.4	-31.9	12.8	3.55e-04	0	43	0	219152384	21	4295
2026-01-28 02:14:05.34	356.98	15.69	-30.4	-32.4	12.8	2.53e-03	0	42	0	221249536	20	4570
2026-01-28 02:14:06.35	356.82	15.77	-30.5	-32.3	12.6	2.50e-03	0	42	0	223346688	21	4435
2026-01-28 02:14:07.36	356.66	15.85	-30.5	-32.3	12.6	3.20e-04	0	42	0	225443840	21	4426
2026-01-28 02:14:08.36	356.51	15.93	-30.7	-32.9	12.1	2.42e-03	0	42	0	227540992	21	4641
2026-01-28 02:14:09.37	356.35	16.00	-30.8	-33.1	12.0	3.30e-04	0	43	0	228589568	21	4698
2026-01-28 02:14:10.37	356.19	16.08	-30.5	-32.4	12.5	3.79e-04	0	43	0	230686720	21	4452
2026-01-28 02:14:11.38	356.03	16.16	-30.5	-32.3	12.6	2.17e-03	0	43	0	232783872	21	4423
2026-01-28 02:14:12.38	355.87	16.23	-30.4	-32.6	12.6	2.49e-03	0	42	0	234881024	20	4642
2026-01-28 02:14:13.39	355.71	16.31	-30.3	-32.3	12.9	2.10e-04	0	42	0	236978176	20	4536
2026-01-28 02:14:14.39	355.55	16.39	-30.4	-32.6	12.8	2.39e-03	0	42	0	238026752	20	4632
2026-01-28 02:14:15.39	355.38	16.47	-30.4	-32.2	12.6	2.22e-03	0	43	0	240123904	21	4415
2026-01-28 02:14:16.40	355.22	16.54	-30.5	-32.5	12.4	1.30e-04	0	43	0	242221056	21	4501
2026-01-28 02:14:17.41	355.05	16.62	-30.7	-32.8	12.2	2.10e-03	0	42	0	244318208	21	4612
2026-01-28 02:14:18.41	354.89	16.70	-30.7	-33.0	12.1	1.97e-03	0	43	0	246415360	21	4665
2026-01-28 02:14:19.42	354.72	16.77	-30.8	-33.2	12.0	5.25e-04	0	42	0	247463936	21	4745
2026-01-28 02:14:20.42	354.55	16.85	-30.8	-33.3	11.9	2.16e-03	0	42	0	249561088	21	4779
2026-01-28 02:14:21.41	354.39	16.93	-30.9	-33.0	11.8	2.50e-03	0	42	0	251658240	22	4589
2026-01-28 02:14:22.42	354.22	17.00	-30.9	-33.1	11.8	7.93e-04	0	42	0	253755392	22	4606
2026-01-28 02:14:23.43	354.05	17.08	-30.9	-33.4	11.9	4.62e-04	0	43	0	255852544	21	4811
2026-01-28 02:14:24.44	353.87	17.16	-30.8	-33.3	11.9	2.23e-03	0	42	0	256901120	21	4768
2026-01-28 02:14:25.44	353.70	17.24	-30.8	-33.1	12.1	5.03e-04	0	42	0	258998272	21	4699
2026-01-28 02:14:26.44	353.53	17.31	-30.8	-33.1	12.1	2.01e-03	0	43	0	261095424	21	4709
2026-01-28 02:14:27.44	353.36	17.39	-30.7	-33.0	12.2	2.62e-04	0	43	0	263192576	21	4650
2026-01-28 02:14:28.44	353.19	17.47	-30.7	-32.9	12.2	3.86e-04	0	43	0	265289728	21	4613
2026-01-28 02:14:29.45	353.01	17.54	-30.8	-33.3	12.1	1.99e-03	0	43	0	266338304	21	4765
2026-01-28 02:14:30.45	352.83	17.62	-30.8	-33.2	12.1	3.08e-04	0	43	0	268435456	21	4746
2026-01-28 02:14:31.45	352.66	17.70	-30.9	-33.4	12.0	4.86e-04	0	43	0	270532608	21	4790
2026-01-28 02:14:32.46	352.48	17.77	-30.8	-33.2	12.0	2.00e-03	0	43	0	272629760	21	4721
2026-01-28 02:14:33.46	352.30	17.85	-30.8	-33.3	12.0	3.68e-04	0	43	0	274726912	21	4769
2026-01-28 02:14:34.46	352.12	17.93	-30.6	-32.7	12.4	2.39e-04	0	43	0	275775488	21	4548
2026-01-28 02:14:35.47	351.94	18.00	-30.7	-32.8	12.3	1.07e-03	0	43	0	277872640	21	4605
2026-01-28 02:14:36.47	351.76	18.08	-30.7	-33.0	12.2	9.31e-04	0	43	0	279969792	21	4645
2026-01-28 02:14:37.48	351.57	18.16	-30.7	-32.9	12.3	1.78e-04	0	43	0	282066944	21	4621
2026-01-28 02:14:38.48	351.39	18.23	-30.8	-33.1	12.1	2.18e-04	0	43	0	283115520	21	4710
2026-01-28 02:14:39.49	351.21	18.31	-30.8	-33.1	12.1	9.75e-04	0	43	0	285212672	21	4695
2026-01-28 02:14:40.50	351.02	18.39	-30.8	-33.2	12.1	2.28e-04	0	43	0	287309824	21	4744
2026-01-28 02:14:41.51	350.83	18.46	-30.9	-33.4	11.9	4.23e-04	0	43	0	289406976	21	4796
2026-01-28 02:14:42.51	350.64	18.54	-30.8	-33.1	12.1	1.87e-03	0	43	0	291504128	21	4721
2026-01-28 02:14:43.51	350.46	18.61	-30.8	-33.1	12.1	2.01e-04	0	43	0	293601280	21	4696
2026-01-28 02:14:44.51	350.27	18.69	-30.7	-32.8	12.3	2.87e-04	0	43	0	294649856	21	4598
2026-01-28 02:14:45.52	350.08	18.77	-30.8	-33.0	12.2	1.46e-04	0	43	0	296747008	21	4679
2026-01-28 02:14:46.52	349.89	18.84	-30.7	-33.0	12.2	3.46e-04	0	43	0	298844160	21	4655
2026-01-28 02:14:47.52	349.69	18.92	-30.9	-33.5	12.0	2.80e-04	0	43	0	300941312	21	4834
2026-01-28 02:14:48.52	349.50	18.99	-30.9	-33.0	11.9	4.60e-04	0	43	0	301989888	22	4569
2026-01-28 02:14:49.53	349.31	19.07	-30.9	-32.8	12.1	5.80e-04	0	43	0	304087040	22	4504
2026-01-28 02:14:50.53	349.11	19.14	-30.8	-33.1	12.2	2.46e-04	0	43	0	306184192	21	4696
2026-01-28 02:14:51.53	348.92	19.22	-30.8	-33.1	12.2	2.52e-04	0	43	0	308281344	21	4685
2026-01-28 02:14:52.53	348.72	19.29	-30.8	-33.1	12.2	2.06e-04	0	43	0	310378496	21	4700
2026-01-28 02:14:53.53	348.52	19.37	-30.9	-32.7	12.2	3.41e-04	0	42	0	311427072	22	4444
2026-01-28 02:14:54.54	348.32	19.44	-30.6	-31.9	12.7	6.10e-05	0	43	0	313524224	22	4194
2026-01-28 02:14:55.54	348.12	19.52	-30.7	-32.3	12.5	6.94e-05	0	43	0	315621376	22	4317
2026-01-28 02:14:56.55	347.92	19.59	-30.9	-33.3	12.0	2.20e-04	0	43	0	317718528	21	4769
2026-01-28 02:14:57.55	347.72	19.66	-30.9	-33.4	12.0	2.50e-04	0	43	0	319815680	21	4791
2026-01-28 02:14:58.56	347.52	19.74	-31.1	-33.4	11.6	4.46e-04	0	43	0	320864256	22	4684
2026-01-28 02:14:59.57	347.31	19.81	-31.3	-33.9	11.4	9.27e-04	0	43	0	322961408	22	4884
2026-01-28 02:15:00.58	347.10	19.89	-31.3	-34.0	11.3	1.11e-03	0	43	0	325058560	22	4918
2026-01-28 02:15:01.58	346.90	19.96	-31.3	-33.4	11.3	2.06e-03	0	43	0	327155712	23	4623
2026-01-28 02:15:02.59	346.69	20.03	-30.9	-32.4	12.0	4.96e-04	0	43	0	329252864	23	4261
2026-01-28 02:15:03.59	346.48	20.11	-30.7	-32.3	12.6	1.21e-04	0	43	0	330301440	22	4315
2026-01-28 02:15:04.59	346.28	20.18	-30.5	-31.7	12.9	3.58e-05	0	43	0	332398592	22	4145
2026-01-28 02:15:05.59	346.07	20.25	-30.4	-31.8	13.1	2.67e-05	0	43	0	334495744	21	4261
2026-01-28 02:15:06.59	345.86	20.33	-30.2	-32.0	13.3	2.89e-05	0	43	0	336592896	20	4402
2026-01-28 02:15:07.60	345.64	20.40	-30.4	-32.4	12.3	5.34e-05	0	43	0	338690048	20	4556
2026-01-28 02:15:08.60	345.43	20.47	-30.5	-32.2	12.5	5.26e-05	0	43	0	339738624	21	4394
2026-01-28 02:15:09.60	345.22	20.54	-30.3	-31.6	13.2	3.89e-05	0	43	0	341835776	21	4206
2026-01-28 02:15:10.60	345.00	20.61	-30.3	-32.3	13.0	2.59e-05	0	43	0	343932928	20	4525
2026-01-28 02:15:11.61	344.79	20.69	-30.0	-31.4	13.7	1.90e-05	0	43	0	346030080	20	4220
2026-01-28 02:15:12.61	344.57	20.76	-29.8	-30.9	14.0	5.30e-06	0	43	0	348127232	20	4088
2026-01-28 02:15:13.61	344.35	20.83	-29.8	-31.3	14.1	2.05e-03	0	43	0	349175808	19	4276
2026-01-28 02:15:14.62	344.13	20.90	-29.7	-31.0	14.2	2.20e-06	0	43	0	351272960	19	4204
2026-01-28 02:15:15.63	343.91	20.97	-29.9	-31.7	13.9	3.00e-06	0	43	0	353370112	19	4416
2026-01-28 02:15:16.63	343.69	21.04	-30.0	-31.8	13.8	2.20e-06	0	43	0	355467264	19	4423
2026-01-28 02:15:17.64	343.47	21.11	-29.9	-31.6	13.9	2.29e-03	0	43	0	357564416	19	4380
2026-01-28 02:15:18.64	343.24	21.18	-29.8	-31.4	14.0	0.00e+00	0	43	0	358612992	19	4310
2026-01-28 02:15:19.64	343.02	21.25	-29.9	-31.0	13.9	6.10e-06	0	42	0	360710144	20	4085
2026-01-28 02:15:20.65	342.79	21.32	-30.0	-31.7	13.9	2.25e-03	0	43	0	362807296	19	4392
2026-01-28 02:15:21.65	342.57	21.39	-29.7	-30.5	14.2	3.00e-06	0	43	0	364904448	20	3970
2026-01-28 02:15:22.65	342.34	21.46	-29.8	-31.2	14.1	7.00e-07	0	43	0	367001600	19	4233
2026-01-28 02:15:23.65	342.11	21.52	-29.8	-31.3	14.2	2.50e-03	0	43	0	368050176	19	4263
2026-01-28 02:15:24.66	341.88	21.59	-29.9	-31.5	14.0	3.00e-06	0	43	0	370147328	19	4335
2026-01-28 02:15:25.66	341.65	21.66	-30.1	-31.5	13.6	6.10e-06	0	43	0	372244480	20	4252
2026-01-28 02:15:26.67	341.42	21.73	-30.2	-31.8	13.5	1.14e-05	0	43	0	374341632	20	4331
2026-01-28 02:15:27.67	341.19	21.80	-30.2	-31.8	13.4	1.75e-05	0	43	0	375390208	20	4332
2026-01-28 02:15:28.67	340.96	21.86	-29.8	-30.9	14.0	2.47e-03	0	43	0	377487360	20	4069
2026-01-28 02:15:29.67	340.72	21.93	-29.6	-30.7	14.5	7.00e-07	0	43	0	379584512	19	4105
2026-01-28 02:15:30.68	340.48	22.00	-29.3	-30.1	14.8	7.00e-07	0	43	0	381681664	19	3928
2026-01-28 02:15:31.68	340.25	22.06	-29.4	-30.6	14.9	2.21e-03	0	43	0	383778816	18	4170
2026-01-28 02:15:32.69	340.01	22.13	-29.2	-30.3	15.0	0.00e+00	0	43	0	384827392	18	4076
2026-01-28 02:15:33.69	339.77	22.19	-29.3	-30.5	15.0	0.00e+00	0	43	0	386924544	18	4125
2026-01-28 02:15:34.69	339.53	22.26	-29.3	-30.6	14.8	2.39e-03	0	43	0	389021696	18	4174
2026-01-28 02:15:35.69	339.29	22.32	-29.4	-30.8	14.8	2.38e-03	0	43	0	391118848	18	4231
2026-01-28 02:15:36.70	339.05	22.38	-29.3	-30.6	14.8	0.00e+00	0	43	0	393216000	18	4163
2026-01-28 02:15:37.70	338.81	22.45	-29.0	-29.9	15.3	2.28e-03	0	43	0	394264576	18	3962
2026-01-28 02:15:38.71	338.56	22.51	-29.2	-30.2	15.2	2.17e-03	0	43	0	396361728	18	4040
2026-01-28 02:15:39.71	338.32	22.57	-29.1	-30.1	15.2	0.00e+00	0	43	0	398458880	18	4023
2026-01-28 02:15:40.72	338.07	22.64	-29.3	-30.5	15.0	2.14e-03	0	43	0	400556032	18	4121
2026-01-28 02:15:41.72	337.83	22.70	-29.5	-30.9	14.8	2.42e-03	0	43	0	402653184	18	4231
2026-01-28 02:15:42.72	337.58	22.76	-29.4	-30.2	14.9	0.00e+00	0	43	0	403701760	19	3949
2026-01-28 02:15:43.73	337.33	22.82	-29.3	-30.4	15.0	0.00e+00	0	43	0	405798912	18	4108
2026-01-28 02:15:44.73	337.08	22.88	-29.1	-30.1	15.3	2.39e-03	0	43	0	407896064	18	4003
2026-01-28 02:15:45.74	336.83	22.94	-29.1	-29.9	15.3	1.50e-06	0	43	0	409993216	18	3968
2026-01-28 02:15:46.74	336.58	23.00	-29.1	-30.0	15.3	2.32e-03	0	43	0	412090368	18	3980
2026-01-28 02:15:47.74	336.33	23.06	-29.4	-30.7	15.0	2.10e-03	0	43	0	413138944	18	4171
2026-01-28 02:15:48.74	336.07	23.12	-29.5	-30.6	14.7	0.00e+00	0	43	0	415236096	19	4047
2026-01-28 02:15:49.75	335.82	23.18	-29.8	-31.1	14.3	2.13e-03	0	43	0	417333248	19	4206
2026-01-28 02:15:50.75	335.56	23.24	-29.9	-31.5	14.0	2.20e-06	0	43	0	419430400	19	4336
2026-01-28 02:15:51.76	335.30	23.29	-29.9	-31.6	14.1	1.50e-06	0	43	0	421527552	19	4345
2026-01-28 02:15:52.76	335.05	23.35	-29.9	-31.4	14.2	2.32e-03	0	43	0	422576128	19	4286
2026-01-28 02:15:53.76	334.79	23.41	-29.7	-31.0	14.4	2.29e-03	0	43	0	424673280	19	4182
2026-01-28 02:15:54.77	334.53	23.46	-29.7	-30.8	14.5	1.50e-06	0	43	0	426770432	19	4123
2026-01-28 02:15:55.77	334.27	23.52	-29.7	-31.0	14.4	2.26e-03	0	43	0	428867584	19	4180
2026-01-28 02:15:56.77	334.01	23.57	-29.6	-30.7	14.6	2.06e-03	0	43	0	430964736	19	4085
2026-01-28 02:15:57.78	333.75	23.63	-29.8	-31.2	14.3	1.50e-06	0	43	0	432013312	19	4218
2026-01-28 02:15:58.78	333.49	23.68	-29.7	-31.0	14.4	2.01e-03	0	43	0	434110464	19	4160
2026-01-28 02:15:59.78	333.22	23.73	-29.5	-30.5	14.7	2.20e-03	0	43	0	436207616	19	4033
2026-01-28 02:16:00.79	332.96	23.79	-29.5	-30.5	14.7	0.00e+00	0	43	0	438304768	19	4043
2026-01-28 02:16:01.78	332.69	23.84	-29.4	-30.2	14.9	9.44e-04	0	43	0	439353344	19	3949
2026-01-28 02:16:02.79	332.43	23.89	-29.4	-30.1	15.0	2.18e-03	0	43	0	441450496	19	3928
2026-01-28 02:16:03.79	332.16	23.94	-29.4	-30.2	14.9	4.50e-06	0	43	0	443547648	19	3937
2026-01-28 02:16:04.80	331.89	23.99	-29.2	-30.2	15.2	0.00e+00	0	43	0	445644800	18	4046
2026-01-28 02:16:05.80	331.62	24.04	-29.1	-30.0	15.3	2.02e-03	0	43	0	447741952	18	3991
2026-01-28 02:16:06.81	331.35	24.09	-29.3	-30.3	15.1	7.00e-07	0	43	0	448790528	18	4076
2026-01-28 02:16:07.81	331.08	24.14	-29.4	-30.1	14.9	0.00e+00	0	43	0	450887680	19	3912
2026-01-28 02:16:08.82	330.81	24.19	-29.3	-30.5	15.1	0.00e+00	0	43	0	452984832	18	4117
2026-01-28 02:16:09.82	330.53	24.23	-29.2	-30.2	15.2	1.56e-04	0	43	0	455081984	18	4024
2026-01-28 02:16:10.82	330.26	24.28	-28.9	-29.4	15.6	1.30e-03	0	43	0	457179136	18	3827
2026-01-28 02:16:11.82	329.99	24.33	-29.0	-30.1	15.6	0.00e+00	0	43	0	458227712	17	4101
2026-01-28 02:16:12.82	329.71	24.37	-28.9	-30.1	15.6	0.00e+00	0	43	0	460324864	17	4095
2026-01-28 02:16:13.83	329.44	24.42	-29.0	-29.8	15.4	2.09e-03	0	43	0	462422016	18	3931
2026-01-28 02:16:14.83	329.16	24.46	-29.4	-30.6	14.9	0.00e+00	0	43	0	464519168	18	4149
2026-01-28 02:16:15.83	328.88	24.51	-29.3	-30.3	15.1	0.00e+00	0	43	0	466616320	18	4081
2026-01-28 02:16:16.83	328.61	24.55	-29.2	-30.3	15.1	1.92e-03	0	43	0	467664896	18	4055
2026-01-28 02:16:17.83	328.33	24.59	-29.1	-30.0	15.3	1.68e-03	0	43	0	469762048	18	3983
2026-01-28 02:16:18.84	328.05	24.63	-28.8	-29.3	15.7	0.00e+00	0	43	0	471859200	18	3790
2026-01-28 02:16:19.84	327.77	24.67	-28.8	-29.1	15.8	0.00e+00	0	43	0	473956352	18	3756
2026-01-28 02:16:20.84	327.49	24.71	-28.9	-29.4	15.6	8.16e-05	0	43	0	476053504	18	3835
2026-01-28 02:16:21.85	327.20	24.75	-28.8	-29.7	15.8	0.00e+00	0	43	0	477102080	17	3987
2026-01-28 02:16:22.85	326.92	24.79	-29.1	-29.9	15.4	0.00e+00	0	43	0	479199232	18	3948
2026-01-28 02:16:23.85	326.64	24.83	-29.2	-30.1	15.2	1.31e-04	0	43	0	481296384	18	4022
2026-01-28 02:16:24.85	326.36	24.87	-29.4	-30.6	15.0	1.50e-06	0	43	0	483393536	18	4150
2026-01-28 02:16:25.85	326.07	24.90	-29.6	-30.6	14.6	7.00e-07	0	43	0	485490688	19	4063
2026-01-28 02:16:26.85	325.79	24.94	-29.5	-30.4	14.6	0.00e+00	0	43	0	486539264	19	4007
2026-01-28 02:16:27.86	325.50	24.97	-29.5	-30.4	14.8	3.29e-04	0	43	0	488636416	19	4003
2026-01-28 02:16:28.86	325.22	25.01	-29.5	-30.6	14.6	7.00e-07	0	43	0	490733568	19	4051
2026-01-28 02:16:29.86	324.93	25.04	-29.9	-31.4	14.1	3.00e-06	0	43	0	492830720	19	4299
2026-01-28 02:16:30.86	324.64	25.08	-30.3	-32.2	13.3	5.30e-06	0	43	0	493879296	20	4446
2026-01-28 02:16:31.87	324.35	25.11	-30.8	-32.9	12.5	5.56e-05	0	43	0	495976448	21	4589
2026-01-28 02:16:32.86	324.07	25.14	-31.1	-33.3	11.9	2.26e-04	0	43	0	498073600	22	4653
2026-01-28 02:16:33.87	323.78	25.17	-30.9	-32.8	12.1	3.62e-04	0	43	0	500170752	22	4492
2026-01-28 02:16:34.87	323.49	25.20	-30.4	-32.0	13.1	1.97e-03	0	43	0	502267904	21	4290
2026-01-28 02:16:35.88	323.19	25.23	-30.2	-31.7	13.6	1.90e-05	0	43	0	503316480	20	4297
2026-01-28 02:16:36.88	322.90	25.26	-30.0	-31.4	13.8	1.50e-06	0	43	0	505413632	20	4204
2026-01-28 02:16:37.89	322.61	25.29	-30.0	-31.3	13.8	3.80e-06	0	43	0	507510784	20	4172
2026-01-28 02:16:38.90	322.32	25.31	-30.0	-31.3	13.9	2.20e-06	0	43	0	509607936	20	4179
2026-01-28 02:16:39.90	322.02	25.34	-30.2	-32.0	13.5	8.30e-06	0	43	0	511705088	20	4382
2026-01-28 02:16:40.90	321.73	25.36	-30.4	-32.4	13.2	1.44e-05	0	43	0	512753664	20	4527
2026-01-28 02:16:41.91	321.44	25.39	-30.5	-32.1	12.9	3.35e-05	0	43	0	514850816	21	4356
2026-01-28 02:16:42.91	321.14	25.41	-30.6	-32.5	12.7	5.34e-05	0	43	0	516947968	21	4489
2026-01-28 02:16:43.91	320.85	25.43	-30.5	-32.2	12.9	5.64e-05	0	43	0	519045120	21	4377
2026-01-28 02:16:44.92	320.55	25.46	-30.3	-31.5	13.3	2.59e-05	0	43	0	521142272	21	4165
2026-01-28 02:16:45.92	320.26	25.48	-30.2	-31.9	13.4	2.13e-05	0	43	0	522190848	20	4364
2026-01-28 02:16:46.93	319.96	25.50	-29.9	-31.2	13.8	4.50e-06	0	43	0	524288000	20	4149
2026-01-28 02:16:47.93	319.67	25.52	-29.9	-31.0	14.0	3.80e-06	0	43	0	526385152	20	4086
2026-01-28 02:16:48.93	319.37	25.54	-28.9	-30.4	13.6	6.80e-06	0	43	0	528482304	20	4280
2026-01-28 02:16:49.93	319.07	25.55	-30.5	-32.8	11.9	3.28e-05	0	43	0	530579456	20	4680
2026-01-28 02:16:50.93	318.78	25.57	-30.7	-32.9	12.1	1.20e-04	0	43	0	531628032	21	4631
2026-01-28 02:16:51.94	318.48	25.59	-30.7	-32.9	11.3	2.75e-03	0	43	0	533725184	21	4604
2026-01-28 02:16:52.95	318.18	25.60	-30.5	-32.3	12.8	6.63e-05	0	43	0	535822336	21	4404
2026-01-28 02:16:53.95	317.88	25.62	-30.2	-31.9	13.3	2.36e-05	0	43	0	537919488	20	4392
2026-01-28 02:16:54.95	317.58	25.63	-30.2	-31.8	13.4	1.22e-05	0	43	0	540016640	20	4353
2026-01-28 02:16:55.96	317.28	25.64	-30.0	-31.3	13.7	9.10e-06	0	43	0	541065216	20	4193
2026-01-28 02:16:56.96	316.98	25.66	-30.0	-31.2	13.8	6.10e-06	0	43	0	543162368	20	4166
2026-01-28 02:16:57.97	316.68	25.67	-30.1	-31.5	13.6	5.30e-06	0	43	0	545259520	20	4254
2026-01-28 02:16:58.97	316.39	25.68	-30.1	-31.7	13.5	2.63e-03	0	43	0	547356672	20	4326
2026-01-28 02:16:59.97	316.09	25.69	-30.2	-32.0	13.4	6.10e-06	0	43	0	549453824	20	4396
2026-01-28 02:17:00.97	315.79	25.70	-30.3	-32.1	13.2	1.98e-05	0	43	0	550502400	20	4430
2026-01-28 02:17:01.97	315.49	25.70	-30.5	-32.4	12.7	3.04e-03	0	43	0	552599552	21	4434
2026-01-28 02:17:02.98	315.19	25.71	-30.6	-32.5	12.7	2.89e-04	0	43	0	554696704	21	4474
2026-01-28 02:17:03.98	314.89	25.72	-30.5	-32.3	12.8	7.24e-05	0	43	0	556793856	21	4414
2026-01-28 02:17:04.99	314.59	25.72	-30.4	-32.4	13.1	3.58e-05	0	43	0	557842432	20	4527
2026-01-28 02:17:05.99	314.29	25.73	-30.3	-32.2	13.3	2.67e-05	0	43	0	559939584	20	4455
2026-01-28 02:17:07.00	313.98	25.73	-30.3	-32.1	13.3	2.67e-05	0	43	0	562036736	20	4435
2026-01-28 02:17:08.00	313.68	25.73	-30.5	-32.3	12.9	2.44e-05	0	43	0	564133888	21	4393
2026-01-28 02:17:08.99	313.39	25.73	-30.4	-31.9	13.0	3.43e-05	0	43	0	566231040	21	4295
2026-01-28 02:17:10.00	313.08	25.74	-30.1	-31.7	13.5	2.55e-03	0	43	0	567279616	20	4301
2026-01-28 02:17:11.00	312.78	25.74	-30.0	-31.3	13.7	6.10e-06	0	43	0	569376768	20	4189
2026-01-28 02:17:12.00	312.49	25.73	-30.0	-31.2	13.8	6.10e-06	0	43	0	571473920	20	4153
2026-01-28 02:17:13.00	312.19	25.73	-29.9	-31.5	14.0	2.44e-03	0	43	0	573571072	19	4338
2026-01-28 02:17:14.01	311.88	25.73	-30.0	-31.3	13.8	7.60e-04	0	43	0	575668224	20	4176
2026-01-28 02:17:15.02	311.58	25.73	-30.2	-31.7	13.6	3.80e-06	0	43	0	576716800	20	4308
2026-01-28 02:17:16.02	311.28	25.72	-30.4	-32.4	13.1	2.21e-03	0	43	0	578813952	20	4548
2026-01-28 02:17:17.03	310.98	25.72	-30.4	-32.3	13.0	2.08e-03	0	43	0	580911104	20	4516
2026-01-28 02:17:18.03	310.68	25.71	-30.5	-32.3	12.8	4.88e-05	0	43	0	583008256	21	4399
2026-01-28 02:17:19.03	310.38	25.70	-30.7	-32.8	12.4	2.10e-03	0	43	0	585105408	21	4587
2026-01-28 02:17:20.03	310.08	25.70	-30.8	-33.0	12.4	1.64e-03	0	43	0	586153984	21	4658
2026-01-28 02:17:21.04	309.78	25.69	-30.7	-32.9	12.4	3.22e-04	0	43	0	588251136	21	4635
2026-01-28 02:17:22.04	309.48	25.68	-30.7	-32.7	12.5	1.12e-04	0	43	0	590348288	21	4569
2026-01-28 02:17:23.04	309.18	25.67	-30.5	-32.3	12.7	1.06e-04	0	43	0	592445440	21	4427
2026-01-28 02:17:24.04	308.88	25.66	-30.5	-32.6	12.9	5.35e-04	0	43	0	594542592	20	4609
2026-01-28 02:17:25.05	308.58	25.64	-29.9	-31.2	13.8	1.98e-05	0	43	0	595591168	20	4168
2026-01-28 02:17:26.05	308.28	25.63	-29.6	-30.8	14.3	1.42e-03	0	43	0	597688320	19	4135
2026-01-28 02:17:27.05	307.99	25.62	-29.5	-30.5	14.6	5.10e-04	0	43	0	599785472	19	4030
2026-01-28 02:17:28.06	307.69	25.60	-29.6	-30.8	14.4	2.03e-03	0	43	0	601882624	19	4116
2026-01-28 02:17:29.06	307.39	25.59	-29.4	-30.7	14.8	2.28e-03	0	43	0	603979776	18	4204
2026-01-28 02:17:30.07	307.09	25.57	-29.4	-30.7	14.9	7.65e-04	0	43	0	605028352	18	4189
2026-01-28 02:17:31.07	306.79	25.55	-29.4	-30.8	14.8	2.28e-03	0	43	0	607125504	18	4208
2026-01-28 02:17:32.07	306.50	25.54	-29.4	-30.6	14.9	2.30e-03	0	43	0	609222656	18	4165
2026-01-28 02:17:33.07	306.20	25.52	-29.3	-30.5	14.9	6.65e-04	0	43	0	611319808	18	4126
2026-01-28 02:17:34.07	305.91	25.50	-29.5	-30.5	14.7	2.32e-03	0	43	0	612368384	19	4025
2026-01-28 02:17:35.07	305.61	25.48	-29.4	-30.6	14.9	2.16e-03	0	43	0	614465536	18	4164
2026-01-28 02:17:36.07	305.32	25.46	-28.9	-29.6	15.5	5.19e-04	0	43	0	616562688	18	3870
2026-01-28 02:17:37.08	305.02	25.44	-28.6	-29.3	15.9	2.26e-03	0	43	0	618659840	17	3880
2026-01-28 02:17:38.08	304.72	25.41	-28.5	-29.1	16.1	2.47e-03	0	43	0	620756992	17	3832
2026-01-28 02:17:39.08	304.43	25.39	-28.7	-29.5	15.8	5.16e-04	0	43	0	621805568	17	3950
2026-01-28 02:17:40.08	304.14	25.36	-28.5	-29.0	16.1	2.53e-03	0	43	0	623902720	17	3803
2026-01-28 02:17:41.09	303.84	25.34	-28.3	-28.5	16.4	2.47e-03	0	43	0	625999872	17	3680
2026-01-28 02:17:42.09	303.55	25.31	-28.4	-28.6	16.3	2.55e-04	0	43	0	628097024	17	3722
2026-01-28 02:17:43.09	303.26	25.29	-28.2	-28.8	16.5	0.00e+00	0	43	0	630194176	16	3855
2026-01-28 02:17:44.10	302.96	25.26	-28.1	-28.7	16.6	2.16e-03	0	43	0	631242752	16	3817
2026-01-28 02:17:45.11	302.67	25.23	-28.2	-28.9	16.5	1.29e-04	0	43	0	633339904	16	3878
2026-01-28 02:17:46.10	302.38	25.20	-28.5	-29.1	16.1	0.00e+00	0	43	0	635437056	17	3835
2026-01-28 02:17:47.10	302.09	25.17	-28.7	-29.5	15.9	2.37e-03	0	43	0	637534208	17	3941
2026-01-28 02:17:48.10	301.81	25.14	-28.8	-29.7	15.7	0.00e+00	0	43	0	639631360	17	4009
2026-01-28 02:17:49.10	301.52	25.11	-28.9	-29.9	15.6	2.26e-03	0	43	0	640679936	17	4055
2026-01-28 02:17:50.11	301.23	25.08	-29.0	-29.7	15.5	0.00e+00	0	43	0	642777088	18	3892
2026-01-28 02:17:51.10	300.94	25.04	-29.1	-29.9	15.3	0.00e+00	0	43	0	644874240	18	3954
2026-01-28 02:17:52.11	300.65	25.01	-29.2	-30.3	15.1	2.07e-03	0	43	0	646971392	18	4064
2026-01-28 02:17:53.11	300.37	24.98	-29.1	-30.0	15.2	7.00e-07	0	43	0	649068544	18	3996
2026-01-28 02:17:54.11	300.08	24.94	-29.1	-29.9	15.3	0.00e+00	0	43	0	650117120	18	3955
2026-01-28 02:17:55.12	299.79	24.90	-29.0	-29.6	15.5	1.98e-03	0	43	0	652214272	18	3884
2026-01-28 02:17:56.12	299.51	24.87	-29.1	-29.9	15.3	2.21e-03	0	43	0	654311424	18	3964
2026-01-28 02:17:57.12	299.23	24.83	-29.1	-30.0	15.2	0.00e+00	0	43	0	656408576	18	3988
2026-01-28 02:17:58.12	298.94	24.79	-29.2	-30.1	15.2	1.71e-03	0	43	0	657457152	18	4004
2026-01-28 02:17:59.11	298.66	24.75	-28.9	-29.5	15.6	1.41e-03	0	43	0	659554304	18	3837
2026-01-28 02:18:00.12	298.38	24.72	-28.9	-29.4	15.6	0.00e+00	0	43	0	661651456	18	3812
2026-01-28 02:18:01.13	298.10	24.67	-29.1	-29.8	15.4	0.00e+00	0	43	0	663748608	18	3931
2026-01-28 02:18:02.14	297.81	24.63	-29.4	-30.7	14.9	1.20e-03	0	43	0	665845760	18	4194
2026-01-28 02:18:03.14	297.53	24.59	-29.8	-31.2	14.2	1.50e-06	0	43	0	666894336	19	4234
2026-01-28 02:18:04.15	297.25	24.55	-29.8	-31.2	14.2	1.50e-06	0	43	0	668991488	19	4251
2026-01-28 02:18:05.16	296.97	24.51	-29.6	-30.6	14.5	2.20e-06	0	43	0	671088640	19	4075
2026-01-28 02:18:06.16	296.70	24.46	-29.5	-30.5	14.6	1.52e-05	0	43	0	673185792	19	4041
2026-01-28 02:18:07.17	296.42	24.42	-29.6	-30.8	14.5	0.00e+00	0	43	0	675282944	19	4114
2026-01-28 02:18:08.17	296.14	24.37	-29.8	-31.1	14.2	1.50e-06	0	43	0	676331520	19	4221
2026-01-28 02:18:09.17	295.87	24.33	-30.0	-31.3	13.7	2.20e-06	0	43	0	678428672	20	4184
2026-01-28 02:18:10.17	295.59	24.28	-30.1	-31.6	13.7	2.20e-06	0	43	0	680525824	20	4279
2026-01-28 02:18:11.18	295.32	24.23	-30.1	-31.7	13.5	1.37e-05	0	43	0	682622976	20	4298
2026-01-28 02:18:12.19	295.04	24.19	-30.3	-31.9	13.5	9.10e-06	0	43	0	684720128	20	4338
2026-01-28 02:18:13.19	294.77	24.14	-30.2	-31.9	13.5	2.11e-03	0	43	0	685768704	20	4350
2026-01-28 02:18:14.20	294.50	24.09	-30.3	-32.0	13.3	1.98e-05	0	43	0	687865856	20	4369
2026-01-28 02:18:15.20	294.23	24.04	-30.4	-32.2	13.3	1.83e-05	0	43	0	689963008	20	4445
2026-01-28 02:18:16.20	293.96	23.99	-30.3	-32.0	13.4	1.42e-03	0	43	0	692060160	20	4377
2026-01-28 02:18:17.20	293.69	23.94	-30.3	-32.1	13.3	1.22e-05	0	43	0	694157312	20	4403
2026-01-28 02:18:18.21	293.42	23.89	-30.4	-32.3	13.2	3.20e-05	0	43	0	695205888	20	4495
2026-01-28 02:18:19.22	293.15	23.84	-30.5	-32.0	13.0	3.05e-05	0	43	0	697303040	21	4299
2026-01-28 02:18:20.22	292.89	23.79	-30.5	-32.2	12.8	4.65e-05	0	43	0	699400192	21	4377
2026-01-28 02:18:21.23	292.62	23.73	-30.6	-32.4	12.7	6.86e-05	0	43	0	701497344	21	4409
2026-01-28 02:18:22.23	292.36	23.68	-30.3	-32.1	13.2	3.43e-05	0	43	0	703594496	20	4417
2026-01-28 02:18:23.23	292.09	23.63	-30.3	-32.0	13.4	1.44e-05	0	43	0	704643072	20	4388
2026-01-28 02:18:24.24	291.83	23.57	-30.4	-31.7	13.2	4.04e-05	0	43	0	706740224	21	4216
2026-01-28 02:18:25.24	291.57	23.52	-30.2	-31.8	13.4	1.44e-05	0	43	0	708837376	20	4328
2026-01-28 02:18:26.25	291.31	23.46	-30.2	-31.9	13.5	1.37e-05	0	43	0	710934528	20	4347
2026-01-28 02:18:27.25	291.05	23.40	-30.4	-32.4	13.1	2.13e-05	0	43	0	713031680	20	4516
2026-01-28 02:18:28.25	290.79	23.35	-30.7	-32.7	12.6	6.40e-05	0	43	0	714080256	21	4510
2026-01-28 02:18:29.26	290.53	23.29	-30.7	-32.8	12.4	1.17e-04	0	43	0	716177408	21	4561
2026-01-28 02:18:30.26	290.27	23.23	-30.8	-32.8	12.4	1.16e-04	0	43	0	718274560	21	4571
2026-01-28 02:18:31.27	290.02	23.18	-30.7	-32.7	12.5	1.11e-04	0	43	0	720371712	21	4527
2026-01-28 02:18:32.27	289.76	23.12	-30.8	-32.9	12.3	1.04e-04	0	43	0	722468864	21	4615
2026-01-28 02:18:33.27	289.51	23.06	-30.5	-33.1	12.1	1.95e-04	0	43	0	723517440	20	4882
2026-01-28 02:18:34.27	289.26	23.00	-31.0	-32.8	12.2	6.56e-05	0	43	0	725614592	21	4436
2026-01-28 02:18:35.27	289.01	22.94	-30.5	-32.1	12.9	4.80e-05	0	43	0	727711744	21	4336
2026-01-28 02:18:36.28	288.75	22.88	-30.3	-32.0	12.9	2.97e-05	0	43	0	729808896	20	4403
2026-01-28 02:18:37.28	288.50	22.82	-30.3	-31.9	13.2	2.82e-05	0	43	0	731906048	20	4366
2026-01-28 02:18:38.29	288.25	22.76	-30.4	-32.4	13.1	2.89e-05	0	43	0	732954624	20	4517
2026-01-28 02:18:39.30	288.00	22.69	-30.6	-32.5	12.7	4.19e-05	0	43	0	735051776	21	4448
2026-01-28 02:18:40.30	287.76	22.63	-30.8	-33.0	12.2	9.37e-04	0	43	0	737148928	21	4639
2026-01-28 02:18:41.31	287.51	22.57	-30.9	-33.4	12.0	3.16e-04	0	43	0	739246080	21	4768
2026-01-28 02:18:42.31	287.26	22.51	-30.9	-33.3	12.1	3.53e-04	0	43	0	741343232	21	4723
2026-01-28 02:18:43.31	287.02	22.44	-31.0	-33.0	11.9	3.96e-04	0	43	0	742391808	22	4548
2026-01-28 02:18:44.31	286.78	22.38	-31.0	-33.0	12.0	3.41e-04	0	43	0	744488960	22	4531
2026-01-28 02:18:45.31	286.54	22.32	-31.0	-33.0	12.0	4.53e-04	0	43	0	746586112	22	4545
2026-01-28 02:18:46.32	286.29	22.25	-30.5	-31.5	12.9	1.23e-04	0	43	0	748683264	22	4063
2026-01-28 02:18:47.31	286.06	22.19	-30.6	-32.0	12.6	1.04e-04	0	43	0	749731840	22	4213
2026-01-28 02:18:48.31	285.82	22.12	-30.9	-32.8	12.1	2.70e-04	0	43	0	751828992	22	4479
2026-01-28 02:18:49.32	285.58	22.06	-30.9	-33.4	12.0	2.82e-04	0	43	0	753926144	21	4778
2026-01-28 02:18:50.32	285.34	21.99	-31.0	-33.3	11.7	6.15e-04	0	43	0	756023296	22	4640
2026-01-28 02:18:51.33	285.10	21.92	-31.3	-33.9	11.3	2.86e-03	0	43	0	758120448	22	4859
2026-01-28 02:18:52.33	284.87	21.86	-31.6	-34.3	10.6	2.12e-03	0	43	0	759169024	23	4956
2026-01-28 02:18:53.34	284.63	21.79	-31.5	-34.3	10.7	4.78e-03	0	43	0	761266176	23	4927
2026-01-28 02:18:54.34	284.40	21.72	-31.0	-33.2	11.8	3.69e-03	0	43	0	763363328	22	4619
2026-01-28 02:18:55.34	284.17	21.66	-30.5	-32.3	12.7	1.87e-04	0	43	0	765460480	21	4392
2026-01-28 02:18:56.35	283.94	21.59	-30.1	-31.4	13.5	3.20e-05	0	43	0	767557632	20	4215
2026-01-28 02:18:57.35	283.71	21.52	-29.8	-31.1	14.2	2.08e-03	0	43	0	768606208	19	4217
2026-01-28 02:18:58.35	283.48	21.45	-29.7	-30.9	14.2	2.30e-03	0	43	0	770703360	19	4143
2026-01-28 02:18:59.35	283.25	21.38	-29.7	-31.0	14.2	0.00e+00	0	43	0	772800512	19	4187
2026-01-28 02:19:00.35	283.03	21.31	-29.8	-31.4	14.0	2.05e-03	0	43	0	774897664	19	4301
2026-01-28 02:19:01.36	282.80	21.24	-30.0	-31.3	13.6	1.43e-03	0	43	0	776994816	20	4201
2026-01-28 02:19:02.37	282.57	21.17	-30.2	-31.8	13.2	4.50e-06	0	43	0	778043392	20	4340
2026-01-28 02:19:03.37	282.35	21.10	-30.4	-32.3	12.9	3.73e-05	0	43	0	780140544	20	4510
2026-01-28 02:19:04.38	282.12	21.03	-30.1	-31.7	13.4	2.13e-05	0	43	0	782237696	20	4293
2026-01-28 02:19:05.38	281.90	20.96	-30.0	-31.2	13.6	9.90e-06	0	43	0	784334848	20	4168
2026-01-28 02:19:06.38	281.68	20.89	-29.9	-31.0	13.8	2.20e-06	0	43	0	786432000	20	4083
2026-01-28 02:19:07.38	281.46	20.82	-29.6	-30.3	14.2	1.50e-06	0	43	0	787480576	20	3904
2026-01-28 02:19:08.38	281.24	20.75	-29.5	-30.1	14.4	7.00e-07	0	43	0	789577728	20	3835
2026-01-28 02:19:09.39	281.03	20.68	-29.6	-30.1	14.4	0.00e+00	0	43	0	791674880	20	3848
2026-01-28 02:19:10.39	280.81	20.61	-29.4	-29.7	14.6	1.50e-06	0	43	0	793772032	20	3734
2026-01-28 02:19:11.40	280.59	20.53	-29.2	-29.6	15.1	0.00e+00	0	43	0	795869184	19	3783
2026-01-28 02:19:12.40	280.38	20.46	-29.3	-29.8	14.9	1.79e-04	0	43	0	796917760	19	3849
2026-01-28 02:19:13.41	280.16	20.39	-29.3	-30.6	14.8	1.88e-04	0	43	0	799014912	18	4150
2026-01-28 02:19:14.40	279.95	20.32	-29.6	-30.7	14.4	0.00e+00	0	43	0	801112064	19	4085
2026-01-28 02:19:15.40	279.74	20.24	-29.8	-31.2	14.0	9.90e-06	0	43	0	803209216	19	4237
2026-01-28 02:19:16.40	279.53	20.17	-30.0	-31.3	13.6	3.80e-06	0	43	0	805306368	20	4185
2026-01-28 02:19:17.40	279.32	20.10	-29.9	-31.1	13.7	3.00e-06	0	43	0	806354944	20	4124
2026-01-28 02:19:18.40	279.11	20.03	-29.7	-30.6	14.0	2.04e-04	0	43	0	808452096	20	3986
2026-01-28 02:19:19.40	278.91	19.95	-29.6	-30.8	14.3	8.80e-04	0	43	0	810549248	19	4125
2026-01-28 02:19:20.40	278.70	19.88	-29.8	-31.3	14.0	2.20e-06	0	43	0	812646400	19	4277
2026-01-28 02:19:21.40	278.50	19.81	-29.9	-31.1	13.7	1.50e-03	0	43	0	813694976	20	4131
2026-01-28 02:19:22.40	278.29	19.73	-30.1	-31.5	13.4	1.67e-03	0	43	0	815792128	20	4266
2026-01-28 02:19:23.40	278.09	19.66	-30.0	-31.3	13.6	6.10e-06	0	43	0	817889280	20	4197
2026-01-28 02:19:24.41	277.88	19.58	-29.9	-31.0	13.8	3.80e-06	0	43	0	819986432	20	4102
2026-01-28 02:19:25.42	277.68	19.51	-29.7	-30.6	13.9	9.34e-04	0	43	0	822083584	20	4000
2026-01-28 02:19:26.42	277.48	19.43	-29.8	-30.7	13.9	5.30e-06	0	43	0	823132160	20	4023
2026-01-28 02:19:27.42	277.28	19.36	-29.8	-31.4	13.9	1.12e-03	0	43	0	825229312	19	4301
2026-01-28 02:19:28.42	277.08	19.28	-29.9	-31.5	13.8	1.95e-03	0	43	0	827326464	19	4324
2026-01-28 02:19:29.43	276.89	19.21	-29.6	-30.7	14.3	2.20e-06	0	43	0	829423616	19	4099
2026-01-28 02:19:30.43	276.69	19.13	-29.4	-30.7	14.6	2.21e-03	0	43	0	831520768	18	4201
2026-01-28 02:19:31.43	276.49	19.06	-29.4	-30.8	14.6	7.00e-07	0	43	0	832569344	18	4223
2026-01-28 02:19:32.44	276.30	18.98	-29.4	-30.4	14.5	1.69e-04	0	43	0	834666496	19	4004
2026-01-28 02:19:33.44	276.10	18.91	-29.5	-31.0	14.5	2.11e-03	0	43	0	836763648	18	4268
2026-01-28 02:19:34.44	275.91	18.83	-29.5	-30.6	14.4	2.28e-03	0	43	0	838860800	19	4071
2026-01-28 02:19:35.44	275.72	18.76	-29.8	-31.3	13.9	8.31e-05	0	43	0	839909376	19	4280
2026-01-28 02:19:36.45	275.53	18.68	-29.9	-31.5	13.7	2.26e-03	0	43	0	842006528	19	4353
2026-01-28 02:19:37.45	275.34	18.60	-29.9	-31.6	13.7	2.26e-03	0	43	0	844103680	19	4375
2026-01-28 02:19:38.45	275.15	18.53	-29.7	-31.1	14.0	1.50e-06	0	43	0	846200832	19	4233
2026-01-28 02:19:39.45	274.96	18.45	-29.7	-31.1	14.0	2.19e-03	0	43	0	848297984	19	4229
2026-01-28 02:19:40.46	274.77	18.37	-29.6	-30.9	14.2	2.05e-03	0	43	0	850395136	19	4159
2026-01-28 02:19:41.46	274.59	18.30	-29.6	-30.8	14.2	0.00e+00	0	43	0	851443712	19	4136
2026-01-28 02:19:42.47	274.40	18.22	-29.7	-31.0	14.1	7.00e-07	0	43	0	853540864	19	4194
2026-01-28 02:19:43.47	274.22	18.15	-29.8	-31.3	13.9	2.27e-03	0	43	0	855638016	19	4277
2026-01-28 02:19:44.47	274.04	18.07	-29.8	-31.5	13.8	3.00e-06	0	43	0	857735168	19	4331
2026-01-28 02:19:45.48	273.85	17.99	-29.9	-31.6	13.7	6.10e-06	0	43	0	858783744	19	4369
2026-01-28 02:19:46.48	273.67	17.92	-29.8	-31.2	13.9	1.85e-03	0	43	0	860880896	19	4266
2026-01-28 02:19:47.48	273.49	17.84	-29.6	-30.8	14.2	4.50e-06	0	43	0	862978048	19	4126
2026-01-28 02:19:48.49	273.31	17.76	-29.5	-30.6	14.3	2.20e-06	0	43	0	865075200	19	4090
2026-01-28 02:19:49.49	273.13	17.68	-29.4	-30.8	14.5	7.00e-07	0	43	0	867172352	18	4228
2026-01-28 02:19:50.50	272.95	17.61	-29.5	-30.5	14.3	0.00e+00	0	43	0	868220928	19	4060
2026-01-28 02:19:51.50	272.78	17.53	-29.6	-30.7	14.2	2.20e-06	0	43	0	870318080	19	4112
2026-01-28 02:19:52.50	272.60	17.45	-29.5	-30.6	14.3	1.50e-06	0	43	0	872415232	19	4080
2026-01-28 02:19:53.50	272.43	17.38	-29.4	-30.2	14.6	7.00e-07	0	43	0	874512384	19	3957
2026-01-28 02:19:54.50	272.25	17.30	-29.3	-30.4	14.7	1.68e-03	0	43	0	876609536	18	4118
2026-01-28 02:19:55.51	272.08	17.22	-29.4	-30.9	14.4	7.00e-07	0	43	0	877658112	18	4251
2026-01-28 02:19:56.51	271.91	17.15	-29.6	-30.7	14.2	2.20e-06	0	43	0	879755264	19	4104
2026-01-28 02:19:57.52	271.73	17.07	-29.7	-31.1	14.0	9.65e-04	0	43	0	881852416	19	4221
2026-01-28 02:19:58.52	271.56	16.99	-29.8	-31.3	13.8	5.30e-06	0	43	0	883949568	19	4302
2026-01-28 02:19:59.52	271.39	16.91	-29.9	-31.7	13.6	3.00e-06	0	43	0	886046720	19	4406
2026-01-28 02:20:00.52	271.23	16.84	-29.8	-31.5	13.7	1.06e-05	0	43	0	887095296	19	4340
2026-01-28 02:20:01.53	271.06	16.76	-29.6	-30.8	14.1	8.46e-05	0	43	0	889192448	19	4154
2026-01-28 02:20:02.53	270.89	16.68	-29.7	-31.0	14.0	2.20e-06	0	43	0	891289600	19	4202
2026-01-28 02:20:03.53	270.72	16.61	-29.5	-30.5	14.3	7.00e-07	0	43	0	893386752	19	4046
2026-01-28 02:20:04.53	270.56	16.53	-29.1	-30.2	14.8	7.00e-07	0	43	0	895483904	18	4055
2026-01-28 02:20:05.53	270.39	16.45	-29.0	-29.7	15.0	0.00e+00	0	43	0	896532480	18	3924
2026-01-28 02:20:06.54	270.23	16.37	-29.0	-29.9	15.0	0.00e+00	0	43	0	898629632	18	3975
2026-01-28 02:20:07.54	270.07	16.30	-29.1	-30.0	14.8	0.00e+00	0	43	0	900726784	18	4019
2026-01-28 02:20:08.55	269.90	16.22	-29.2	-30.3	14.7	0.00e+00	0	43	0	902823936	18	4084
2026-01-28 02:20:09.55	269.74	16.14	-29.2	-30.4	14.7	7.00e-07	0	43	0	904921088	18	4111
2026-01-28 02:20:10.55	269.58	16.07	-29.1	-30.1	14.8	0.00e+00	0	43	0	905969664	18	4046
2026-01-28 02:20:11.55	269.43	15.99	-29.4	-30.8	14.4	7.00e-07	0	43	0	908066816	18	4227
2026-01-28 02:20:12.55	269.27	15.91	-29.4	-30.9	14.3	2.20e-06	0	43	0	910163968	18	4281
2026-01-28 02:20:13.55	269.11	15.83	-29.6	-30.8	14.1	2.20e-06	0	43	0	912261120	19	4142
2026-01-28 02:20:14.55	268.95	15.76	-29.5	-30.7	14.1	2.20e-06	0	43	0	913309696	19	4116
2026-01-28 02:20:15.55	268.80	15.68	-29.5	-30.7	14.1	7.00e-07	0	43	0	915406848	19	4104
2026-01-28 02:20:16.56	268.64	15.60	-29.5	-30.6	14.2	5.30e-06	0	43	0	917504000	19	4080
2026-01-28 02:20:17.57	268.48	15.53	-29.4	-30.3	14.3	0.00e+00	0	43	0	919601152	19	4013
2026-01-28 02:20:18.57	268.33	15.45	-29.3	-30.6	14.5	7.00e-07	0	43	0	921698304	18	4169
2026-01-28 02:20:19.57	268.18	15.37	-28.9	-29.7	15.0	1.50e-06	0	43	0	922746880	18	3924
2026-01-28 02:20:20.57	268.03	15.30	-28.8	-29.3	15.2	0.00e+00	0	43	0	924844032	18	3834
2026-01-28 02:20:21.58	267.87	15.22	-28.8	-29.8	15.2	0.00e+00	0	43	0	926941184	17	4053
2026-01-28 02:20:22.58	267.72	15.14	-29.1	-30.1	14.8	3.00e-06	0	43	0	929038336	18	4033
2026-01-28 02:20:23.58	267.58	15.06	-29.2	-30.3	14.6	0.00e+00	0	43	0	931135488	18	4099
2026-01-28 02:20:24.59	267.43	14.99	-29.4	-30.9	14.3	0.00e+00	0	43	0	932184064	18	4277
2026-01-28 02:20:25.59	267.28	14.91	-29.7	-31.3	13.7	9.10e-06	0	43	0	934281216	19	4284
2026-01-28 02:20:26.60	267.13	14.83	-29.8	-31.4	13.5	1.06e-05	0	43	0	936378368	19	4346
2026-01-28 02:20:27.60	266.98	14.76	-30.0	-31.9	13.3	7.60e-06	0	43	0	938475520	19	4480
2026-01-28 02:20:28.61	266.84	14.68	-30.0	-31.9	13.3	1.67e-05	0	43	0	940572672	19	4492
2026-01-28 02:20:29.61	266.69	14.60	-30.0	-31.5	13.2	3.05e-05	0	43	0	941621248	20	4272
2026-01-28 02:20:30.62	266.55	14.53	-30.0	-31.9	13.2	2.44e-05	0	43	0	943718400	19	4509
2026-01-28 02:20:31.62	266.40	14.45	-29.9	-31.1	13.3	3.28e-05	0	43	0	945815552	20	4175
2026-01-28 02:20:32.63	266.26	14.37	-29.7	-31.2	13.7	3.20e-03	0	43	0	947912704	19	4290
2026-01-28 02:20:33.62	266.12	14.30	-29.6	-30.9	13.9	7.60e-06	0	43	0	950009856	19	4190
2026-01-28 02:20:34.63	265.98	14.22	-29.6	-31.0	13.8	6.10e-06	0	43	0	951058432	19	4212
2026-01-28 02:20:35.63	265.84	14.15	-29.5	-30.7	14.0	2.82e-03	0	43	0	953155584	19	4118
2026-01-28 02:20:36.63	265.70	14.07	-29.5	-30.7	14.0	2.20e-06	0	43	0	955252736	19	4129
2026-01-28 02:20:37.64	265.56	13.99	-29.4	-30.5	14.1	5.30e-06	0	43	0	957349888	19	4061
2026-01-28 02:20:38.64	265.42	13.92	-29.4	-30.8	14.2	3.00e-06	0	43	0	958398464	18	4264
2026-01-28 02:20:39.65	265.28	13.84	-29.2	-30.4	14.5	2.41e-03	0	43	0	960495616	18	4149
2026-01-28 02:20:40.65	265.14	13.77	-29.5	-31.2	14.0	3.00e-06	0	43	0	962592768	18	4360
2026-01-28 02:20:41.66	265.00	13.69	-29.5	-30.6	14.0	3.00e-06	0	43	0	964689920	19	4089
2026-01-28 02:20:42.66	264.87	13.61	-29.4	-31.0	14.0	2.05e-03	0	43	0	966787072	18	4319
2026-01-28 02:20:43.67	264.73	13.54	-29.7	-31.3	13.6	7.60e-06	0	43	0	968884224	19	4302
2026-01-28 02:20:44.67	264.60	13.46	-29.9	-31.9	13.2	1.75e-05	0	43	0	969932800	19	4502
2026-01-28 02:20:45.67	264.47	13.39	-30.2	-32.1	12.7	2.57e-03	0	43	0	972029952	20	4490
2026-01-28 02:20:46.68	264.33	13.31	-30.2	-32.1	12.6	2.24e-04	0	43	0	974127104	20	4493
2026-01-28 02:20:47.68	264.20	13.24	-30.3	-32.6	12.3	1.41e-04	0	43	0	976224256	20	4656
2026-01-28 02:20:48.68	264.07	13.16	-30.4	-32.8	12.1	2.91e-04	0	43	0	977272832	20	4745
2026-01-28 02:20:49.69	263.94	13.09	-30.5	-32.6	12.0	7.64e-04	0	43	0	979369984	21	4565
2026-01-28 02:20:50.70	263.81	13.01	-30.7	-33.1	11.5	4.07e-03	0	43	0	981467136	21	4767
2026-01-28 02:20:51.69	263.68	12.94	-30.4	-32.9	12.1	5.96e-04	0	43	0	983564288	20	4758
2026-01-28 02:20:52.70	263.55	12.86	-30.0	-31.6	12.9	6.72e-04	0	43	0	985661440	20	4336
2026-01-28 02:20:53.70	263.42	12.79	-29.7	-31.3	13.5	3.42e-03	0	43	0	986710016	19	4327
2026-01-28 02:20:54.71	263.29	12.71	-29.5	-30.8	13.8	3.40e-03	0	43	0	988807168	19	4182
2026-01-28 02:20:55.71	263.17	12.64	-29.5	-30.8	13.8	6.76e-04	0	43	0	990904320	19	4175
2026-01-28 02:20:56.72	263.04	12.56	-29.7	-31.2	13.6	3.08e-03	0	43	0	993001472	19	4284
2026-01-28 02:20:57.72	262.91	12.49	-29.6	-31.0	13.7	3.24e-03	0	43	0	995098624	19	4236
2026-01-28 02:20:58.72	262.79	12.41	-29.6	-31.0	13.7	3.00e-06	0	43	0	996147200	19	4244
2026-01-28 02:20:59.72	262.67	12.34	-29.7	-31.4	13.4	3.02e-03	0	43	0	998244352	19	4360
2026-01-28 02:21:00.72	262.54	12.27	-29.9	-31.8	13.1	2.79e-03	0	43	0	1000341504	19	4494
2026-01-28 02:21:01.73	262.42	12.19	-29.8	-31.7	13.2	3.07e-04	0	43	0	1002438656	19	4449
2026-01-28 02:21:02.73	262.30	12.12	-29.7	-31.2	13.6	2.50e-03	0	43	0	1004535808	19	4283
2026-01-28 02:21:03.73	262.17	12.05	-29.6	-31.0	13.7	2.74e-03	0	43	0	1005584384	19	4226
2026-01-28 02:21:04.74	262.05	11.97	-29.6	-31.0	13.7	1.67e-04	0	43	0	1007681536	19	4227
2026-01-28 02:21:05.75	261.93	11.90	-29.7	-31.2	13.5	4.50e-06	0	43	0	1009778688	19	4280
2026-01-28 02:21:06.76	261.81	11.82	-29.8	-31.6	13.2	2.48e-03	0	43	0	1011875840	19	4437
2026-01-28 02:21:07.76	261.69	11.75	-29.9	-31.7	13.2	1.83e-05	0	43	0	1013972992	19	4462
2026-01-28 02:21:08.77	261.57	11.68	-29.9	-31.7	13.1	2.23e-03	0	43	0	1015021568	19	4470
2026-01-28 02:21:09.77	261.45	11.60	-30.0	-32.0	13.0	2.05e-03	0	43	0	1017118720	19	4564
2026-01-28 02:21:10.77	261.34	11.53	-30.1	-32.1	12.5	7.01e-05	0	43	0	1019215872	20	4493
2026-01-28 02:21:11.77	261.22	11.46	-30.1	-32.1	12.5	1.94e-03	0	43	0	1021313024	20	4500
2026-01-28 02:21:12.78	261.10	11.38	-30.2	-32.3	12.4	1.31e-04	0	43	0	1023410176	20	4571
2026-01-28 02:21:13.78	260.99	11.31	-30.3	-32.5	12.2	3.89e-04	0	43	0	1024458752	20	4641
2026-01-28 02:21:14.78	260.87	11.24	-30.1	-32.1	12.5	2.69e-03	0	43	0	1026555904	20	4518
2026-01-28 02:21:15.79	260.76	11.16	-30.3	-32.5	12.2	2.70e-03	0	43	0	1028653056	20	4669
2026-01-28 02:21:16.79	260.64	11.09	-30.3	-32.7	12.1	2.50e-04	0	43	0	1030750208	20	4714
2026-01-28 02:21:17.80	260.53	11.02	-30.3	-32.5	12.2	2.98e-03	0	43	0	1032847360	20	4644
2026-01-28 02:21:18.80	260.42	10.95	-30.4	-32.8	12.0	2.97e-03	0	43	0	1033895936	20	4747
2026-01-28 02:21:19.80	260.31	10.88	-30.4	-32.9	11.9	3.75e-04	0	43	0	1035993088	20	4815
2026-01-28 02:21:20.80	260.19	10.80	-30.5	-32.6	11.7	3.33e-03	0	43	0	1038090240	21	4608
2026-01-28 02:21:21.80	260.08	10.73	-30.6	-33.1	11.4	3.74e-03	0	43	0	1040187392	21	4768
2026-01-28 02:21:22.81	259.97	10.66	-30.8	-33.7	10.9	1.58e-03	0	43	0	1042284544	21	5019
2026-01-28 02:21:23.81	259.86	10.59	-30.7	-33.5	11.1	1.48e-03	0	43	0	1043333120	21	4937
2026-01-28 02:21:24.82	259.75	10.52	-30.8	-33.8	10.8	4.57e-03	0	43	0	1045430272	21	5070
2026-01-28 02:21:25.82	259.64	10.44	-30.8	-33.8	10.9	3.58e-03	0	43	0	1047527424	21	5059
2026-01-28 02:21:26.82	259.54	10.37	-30.8	-33.6	11.0	1.94e-03	0	43	0	1049624576	21	4979
2026-01-28 02:21:27.82	259.43	10.30	-30.9	-33.9	10.8	2.08e-03	0	43	0	1050673152	21	5093
2026-01-28 02:21:28.82	259.32	10.23	-30.7	-33.3	11.2	1.98e-03	0	43	0	1052770304	21	4865
2026-01-28 02:21:29.82	259.21	10.16	-30.5	-32.7	11.6	7.69e-04	0	43	0	1054867456	21	4655
2026-01-28 02:21:30.83	259.11	10.09	-30.2	-32.4	12.2	3.85e-04	0	43	0	1056964608	20	4607
2026-01-28 02:21:31.83	259.00	10.02	-30.2	-32.2	12.3	2.63e-04	0	43	0	1059061760	20	4565
2026-01-28 02:21:32.83	258.90	9.95	-30.1	-32.1	12.4	3.06e-03	0	43	0	1060110336	20	4538
2026-01-28 02:21:33.84	258.79	9.88	-30.1	-32.1	12.4	1.18e-04	0	43	0	1062207488	20	4530
2026-01-28 02:21:34.84	258.69	9.81	-30.1	-32.1	12.4	1.63e-04	0	43	0	1064304640	20	4502
2026-01-28 02:21:35.84	258.58	9.73	-30.0	-31.8	12.6	3.18e-03	0	43	0	1066401792	20	4405
2026-01-28 02:21:36.85	258.48	9.66	-30.0	-31.9	12.5	9.76e-05	0	43	0	1068498944	20	4442
2026-01-28 02:21:37.85	258.38	9.59	-30.1	-32.0	12.4	1.03e-04	0	43	0	1069547520	20	4489
2026-01-28 02:21:38.85	258.28	9.52	-30.3	-32.6	12.0	1.61e-04	0	43	0	1071644672	20	4712
2026-01-28 02:21:39.85	258.18	9.45	-30.3	-32.5	12.0	3.18e-04	0	43	0	1073741824	20	4669
2026-01-28 02:21:40.86	258.07	9.38	-30.2	-32.5	12.0	4.31e-04	0	43	0	1075838976	20	4679
2026-01-28 02:21:41.87	257.97	9.31	-30.4	-33.1	11.6	5.73e-04	0	43	0	1077936128	20	4877
2026-01-28 02:21:42.87	257.87	9.24	-30.4	-33.1	11.6	4.35e-03	0	43	0	1078984704	20	4886
2026-01-28 02:21:43.87	257.77	9.17	-30.5	-33.3	11.5	7.69e-04	0	43	0	1081081856	20	4956
2026-01-28 02:21:44.87	257.67	9.11	-30.5	-32.7	11.5	9.86e-04	0	43	0	1083179008	21	4664
2026-01-28 02:21:45.88	257.57	9.04	-30.5	-32.8	11.4	8.43e-04	0	43	0	1085276160	21	4705
2026-01-28 02:21:46.88	257.48	8.97	-30.4	-32.5	11.6	9.22e-04	0	43	0	1087373312	21	4579
2026-01-28 02:21:47.88	257.38	8.90	-30.4	-32.9	11.6	6.40e-04	0	43	0	1088421888	20	4824
2026-01-28 02:21:48.89	257.28	8.83	-30.3	-32.7	11.8	5.02e-04	0	43	0	1090519040	20	4737
2026-01-28 02:21:49.89	257.18	8.76	-30.2	-32.5	12.0	4.15e-04	0	43	0	1092616192	20	4671
2026-01-28 02:21:50.89	257.09	8.69	-30.3	-32.8	11.7	4.54e-04	0	43	0	1094713344	20	4777
2026-01-28 02:21:51.90	256.99	8.62	-30.2	-32.4	12.0	3.68e-04	0	43	0	1096810496	20	4652
2026-01-28 02:21:52.90	256.90	8.55	-30.1	-32.1	12.2	2.23e-04	0	43	0	1097859072	20	4541
2026-01-28 02:21:53.89	256.80	8.48	-30.1	-32.1	12.1	2.27e-04	0	43	0	1099956224	20	4551
2026-01-28 02:21:54.90	256.71	8.42	-30.1	-32.1	12.1	2.78e-04	0	43	0	1102053376	20	4533
2026-01-28 02:21:55.91	256.61	8.35	-30.1	-32.3	12.0	2.85e-04	0	43	0	1104150528	20	4612
2026-01-28 02:21:56.91	256.52	8.28	-30.1	-32.2	12.0	3.52e-04	0	43	0	1105199104	20	4595
2026-01-28 02:21:57.91	256.43	8.21	-30.2	-32.4	11.9	3.79e-04	0	43	0	1107296256	20	4654
2026-01-28 02:21:58.91	256.34	8.14	-30.2	-32.7	11.7	5.54e-04	0	43	0	1109393408	20	4762
2026-01-28 02:21:59.91	256.24	8.08	-30.3	-32.8	11.6	7.23e-04	0	43	0	1111490560	20	4808
2026-01-28 02:22:00.91	256.15	8.01	-30.3	-32.9	11.5	8.94e-04	0	43	0	1113587712	20	4850
2026-01-28 02:22:01.92	256.06	7.94	-30.4	-33.3	11.2	1.04e-03	0	43	0	1114636288	20	5009
2026-01-28 02:22:02.92	255.97	7.87	-30.5	-33.1	11.0	1.37e-03	0	43	0	1116733440	21	4843
2026-01-28 02:22:03.92	255.88	7.81	-30.6	-33.4	10.8	2.54e-03	0	43	0	1118830592	21	4938
2026-01-28 02:22:04.92	255.79	7.74	-30.8	-34.1	9.8	4.21e-03	0	43	0	1120927744	21	5240
2026-01-28 02:22:05.92	255.70	7.67	-30.7	-33.8	10.1	4.74e-03	0	43	0	1123024896	21	5111
2026-01-28 02:22:06.92	255.61	7.60	-30.7	-33.7	10.5	4.12e-03	0	43	0	1124073472	21	5059
2026-01-28 02:22:07.92	255.52	7.54	-30.7	-33.7	10.4	3.43e-03	0	43	0	1126170624	21	5089
2026-01-28 02:22:08.93	255.43	7.47	-30.8	-34.0	10.3	4.26e-03	0	43	0	1128267776	21	5183
2026-01-28 02:22:09.93	255.35	7.40	-30.8	-34.1	10.2	5.36e-03	0	43	0	1130364928	21	5246
2026-01-28 02:22:10.94	255.26	7.34	-30.8	-34.1	10.1	9.82e-03	0	43	0	1132462080	21	5261
2026-01-28 02:22:11.95	255.17	7.27	-30.9	-34.4	9.9	9.05e-03	0	43	0	1133510656	21	5411
2026-01-28 02:22:12.95	255.08	7.20	-31.0	-34.2	9.7	1.14e-02	0	43	0	1135607808	22	5195
2026-01-28 02:22:13.95	255.00	7.14	-31.1	-34.6	9.4	1.63e-02	0	43	0	1137704960	22	5389
2026-01-28 02:22:14.96	254.91	7.07	-31.1	-34.7	9.3	1.64e-02	0	43	0	1139802112	22	5448
2026-01-28 02:22:15.95	254.83	7.01	-33.1	-45.3	3.8	1.26e+00	0	43	104	1139802112	26	14726
2026-01-28 02:22:16.96	254.74	6.94	-33.5	-45.8	3.8	1.49e+00	0	43	104	1139802112	27	14781
2026-01-28 02:22:17.96	254.66	6.87	-33.9	-46.4	3.8	1.49e+00	0	43	104	1139802112	27	15302

#Closed at: 2026-01-28 02:22:18
#Recorded file [1139 MB]: D:/data/31010_260128_051206.dat