passes_logs/2026/01/28/R2M6_AANII_01/R2M6_AANII_01__20260128_084517_SUOMI_NPP_rec.log

#Pass ID: 20260128_084517_SUOMI NPP
#Satellite: SUOMI NPP
#Configuration: NPP
#almurnet v.1.7.20240730
#Start time: 2026-01-28 08:45:19

#Version: 2.2.20231116
#Station: R2M6_AANII_01
#Location: 30.233357 lon 59.946436 lat
#TLE: 1 37849U 11061A   26027.86188320  .00000172  00000+0  10275-3 0  9990
#TLE: 2 37849  98.7823 329.8005 0002088  41.4184 318.7150 14.19530883738530

#Time	Az	El	Level	Level2	SNR	BER	BlckErr	Temp	State	Recorded	gain1	gain2
2026-01-28 08:45:19.76	109.20	7.14	-32.1	-37.9	4.5	1.37e+00	0	39	0	0	25	7049
2026-01-28 08:45:20.75	109.12	7.21	-32.2	-38.1	4.5	1.37e+00	0	39	104	0	25	7111
2026-01-28 08:45:21.75	109.04	7.27	-32.1	-37.3	6.4	3.23e-01	0	39	0	0	25	6597
2026-01-28 08:45:22.76	108.96	7.34	-32.1	-37.3	6.4	2.58e-01	0	39	0	1048576	25	6563
2026-01-28 08:45:23.76	108.87	7.41	-32.0	-36.9	6.7	2.12e-01	0	39	0	3145728	25	6335
2026-01-28 08:45:24.76	108.79	7.48	-32.1	-37.3	6.5	1.97e-01	0	39	0	5242880	25	6557
2026-01-28 08:45:25.77	108.71	7.55	-32.1	-37.5	6.3	2.39e-01	0	39	0	7340032	25	6698
2026-01-28 08:45:26.77	108.63	7.62	-32.2	-38.0	5.9	2.95e-01	0	39	0	9437184	25	7046
2026-01-28 08:45:27.77	108.54	7.69	-32.2	-38.0	6.0	3.84e-01	0	39	0	10485760	25	7021
2026-01-28 08:45:28.77	108.46	7.76	-32.1	-37.2	6.5	3.04e-01	0	39	0	12582912	25	6484
2026-01-28 08:45:29.78	108.38	7.83	-31.9	-36.2	7.3	1.50e-01	0	39	0	14680064	25	5879
2026-01-28 08:45:30.78	108.29	7.89	-31.7	-35.7	8.0	7.91e-02	0	39	0	16777216	24	5710
2026-01-28 08:45:31.79	108.21	7.96	-31.4	-34.4	9.1	3.36e-02	0	39	0	17825792	24	5090
2026-01-28 08:45:32.79	108.12	8.03	-31.2	-34.3	9.7	1.59e-02	0	39	0	19922944	23	5095
2026-01-28 08:45:33.79	108.04	8.10	-31.1	-33.6	10.2	7.47e-03	0	40	0	22020096	23	4839
2026-01-28 08:45:34.80	107.95	8.17	-30.9	-33.1	10.5	4.49e-03	0	39	0	24117248	23	4634
2026-01-28 08:45:35.80	107.86	8.24	-31.0	-33.4	10.4	3.96e-03	0	40	0	26214400	23	4740
2026-01-28 08:45:36.80	107.78	8.31	-31.1	-33.7	10.1	6.76e-03	0	40	0	27262976	23	4863
2026-01-28 08:45:37.80	107.69	8.38	-31.2	-34.2	9.8	8.11e-03	0	40	0	29360128	23	5051
2026-01-28 08:45:38.80	107.60	8.45	-31.2	-34.1	9.9	7.85e-03	0	40	0	31457280	23	5006
2026-01-28 08:45:39.80	107.51	8.52	-31.1	-33.7	10.2	7.17e-03	0	40	0	33554432	23	4842
2026-01-28 08:45:40.81	107.42	8.60	-30.9	-32.9	10.8	3.78e-03	0	40	0	35651584	23	4546
2026-01-28 08:45:41.81	107.34	8.67	-31.0	-33.2	10.6	3.59e-03	0	40	0	36700160	23	4661
2026-01-28 08:45:42.82	107.24	8.74	-30.9	-33.0	10.7	3.53e-03	0	40	0	38797312	23	4579
2026-01-28 08:45:43.82	107.15	8.81	-30.9	-33.1	10.7	2.85e-03	0	40	0	40894464	23	4601
2026-01-28 08:45:44.83	107.06	8.88	-30.9	-33.1	10.7	3.09e-03	0	40	0	42991616	23	4597
2026-01-28 08:45:45.83	106.97	8.95	-31.1	-33.7	10.3	2.81e-03	0	40	0	45088768	23	4834
2026-01-28 08:45:46.84	106.88	9.02	-31.1	-33.7	10.2	5.54e-03	0	40	0	46137344	23	4856
2026-01-28 08:45:47.84	106.79	9.10	-31.2	-34.0	10.0	6.15e-03	0	40	0	48234496	23	4973
2026-01-28 08:45:48.84	106.70	9.17	-31.2	-33.9	10.1	7.64e-03	0	40	0	50331648	23	4923
2026-01-28 08:45:49.84	106.60	9.24	-31.1	-33.7	10.3	5.52e-03	0	40	0	52428800	23	4831
2026-01-28 08:45:50.85	106.51	9.31	-31.2	-34.0	10.1	5.73e-03	0	40	0	54525952	23	4964
2026-01-28 08:45:51.85	106.42	9.38	-31.0	-33.3	10.7	4.84e-03	0	40	0	55574528	23	4668
2026-01-28 08:45:52.86	106.32	9.46	-31.1	-33.6	10.4	4.19e-03	0	40	0	57671680	23	4792
2026-01-28 08:45:53.86	106.23	9.53	-31.1	-33.6	10.3	4.66e-03	0	40	0	59768832	23	4805
2026-01-28 08:45:54.86	106.13	9.60	-31.3	-34.3	9.9	6.92e-03	0	40	0	61865984	23	5085
2026-01-28 08:45:55.86	106.04	9.67	-31.3	-34.2	10.0	8.89e-03	0	40	0	63963136	23	5020
2026-01-28 08:45:56.87	105.94	9.75	-31.3	-34.1	10.0	8.07e-03	0	40	0	65011712	23	4989
2026-01-28 08:45:57.87	105.84	9.82	-31.2	-33.7	10.3	7.52e-03	0	40	0	67108864	23	4852
2026-01-28 08:45:58.88	105.75	9.89	-31.0	-33.0	10.8	3.50e-03	0	40	0	69206016	23	4576
2026-01-28 08:45:59.88	105.65	9.97	-30.8	-33.1	11.2	1.30e-03	0	40	0	71303168	22	4677
2026-01-28 08:46:00.89	105.55	10.04	-30.7	-32.6	11.5	9.26e-04	0	40	0	73400320	22	4512
2026-01-28 08:46:01.89	105.45	10.11	-30.8	-32.9	11.4	7.77e-04	0	40	0	74448896	22	4595
2026-01-28 08:46:02.89	105.35	10.19	-30.8	-33.1	11.2	9.31e-04	0	40	0	76546048	22	4670
2026-01-28 08:46:03.89	105.25	10.26	-31.1	-33.8	10.7	2.05e-03	0	40	0	78643200	22	4929
2026-01-28 08:46:04.89	105.15	10.33	-31.2	-34.4	10.4	3.64e-03	0	40	0	80740352	22	5189
2026-01-28 08:46:05.90	105.05	10.41	-31.1	-34.1	10.5	5.68e-03	0	40	0	81788928	22	5065
2026-01-28 08:46:06.90	104.95	10.48	-31.0	-33.7	10.7	3.38e-03	0	40	0	83886080	22	4910
2026-01-28 08:46:07.91	104.85	10.56	-30.9	-33.4	11.0	2.21e-03	0	40	0	85983232	22	4807
2026-01-28 08:46:08.91	104.75	10.63	-30.8	-32.9	11.4	1.27e-03	0	40	0	88080384	22	4599
2026-01-28 08:46:09.91	104.64	10.71	-30.8	-33.0	11.3	1.13e-03	0	40	0	90177536	22	4649
2026-01-28 08:46:10.92	104.54	10.78	-30.9	-33.2	11.1	1.22e-03	0	40	0	91226112	22	4715
2026-01-28 08:46:11.92	104.43	10.86	-30.8	-33.1	11.2	1.34e-03	0	41	0	93323264	22	4680
2026-01-28 08:46:12.92	104.33	10.93	-31.0	-33.6	10.8	1.43e-03	0	41	0	95420416	22	4876
2026-01-28 08:46:13.91	104.23	11.00	-31.1	-34.0	10.6	3.58e-03	0	41	0	97517568	22	5037
2026-01-28 08:46:14.92	104.12	11.08	-31.1	-34.0	10.6	3.83e-03	0	41	0	99614720	22	5020
2026-01-28 08:46:15.92	104.01	11.16	-31.2	-34.2	10.5	3.38e-03	0	41	0	100663296	22	5105
2026-01-28 08:46:16.92	103.91	11.23	-31.1	-34.0	10.6	3.44e-03	0	41	0	102760448	22	5020
2026-01-28 08:46:17.92	103.80	11.31	-31.0	-33.5	11.0	2.37e-03	0	41	0	104857600	22	4817
2026-01-28 08:46:18.93	103.69	11.38	-30.9	-33.1	11.3	1.33e-03	0	41	0	106954752	22	4650
2026-01-28 08:46:19.93	103.58	11.46	-30.8	-32.7	11.6	8.58e-04	0	41	0	109051904	22	4529
2026-01-28 08:46:20.93	103.48	11.53	-30.8	-33.0	11.3	9.65e-04	0	41	0	110100480	22	4632
2026-01-28 08:46:21.93	103.37	11.61	-30.9	-33.3	11.2	1.22e-03	0	41	0	112197632	22	4725
2026-01-28 08:46:22.94	103.26	11.69	-31.0	-33.5	11.0	1.55e-03	0	41	0	114294784	22	4811
2026-01-28 08:46:23.94	103.14	11.76	-31.0	-33.6	11.1	1.52e-03	0	41	0	116391936	22	4838
2026-01-28 08:46:24.95	103.03	11.84	-31.0	-33.7	10.9	2.04e-03	0	41	0	118489088	22	4888
2026-01-28 08:46:25.95	102.92	11.92	-30.9	-33.2	11.2	1.90e-03	0	41	0	119537664	22	4709
2026-01-28 08:46:26.95	102.81	11.99	-30.8	-32.8	11.6	9.31e-04	0	41	0	121634816	22	4560
2026-01-28 08:46:27.95	102.70	12.07	-30.6	-32.3	12.0	4.08e-04	0	41	0	123731968	22	4365
2026-01-28 08:46:28.96	102.58	12.15	-30.6	-32.2	12.0	3.53e-04	0	41	0	125829120	22	4334
2026-01-28 08:46:29.97	102.47	12.23	-30.7	-32.6	11.8	4.51e-04	0	41	0	127926272	22	4472
2026-01-28 08:46:30.97	102.35	12.30	-30.7	-32.5	11.9	4.30e-04	0	41	0	128974848	22	4427
2026-01-28 08:46:31.97	102.24	12.38	-30.7	-32.6	11.8	3.84e-04	0	41	0	131072000	22	4482
2026-01-28 08:46:32.98	102.12	12.46	-30.7	-32.6	11.8	5.43e-04	0	41	0	133169152	22	4465
2026-01-28 08:46:33.99	102.00	12.54	-30.9	-33.1	11.4	7.28e-04	0	41	0	135266304	22	4651
2026-01-28 08:46:34.99	101.88	12.62	-31.0	-33.6	11.1	1.23e-03	0	41	0	136314880	22	4828
2026-01-28 08:46:35.99	101.77	12.69	-31.2	-34.1	10.7	2.11e-03	0	41	0	138412032	22	5015
2026-01-28 08:46:36.99	101.65	12.77	-31.1	-33.8	10.9	2.71e-03	0	41	0	140509184	22	4894
2026-01-28 08:46:37.99	101.53	12.85	-31.0	-33.5	11.2	1.69e-03	0	41	0	142606336	22	4784
2026-01-28 08:46:38.99	101.41	12.93	-31.0	-33.5	11.2	1.23e-03	0	41	0	144703488	22	4771
2026-01-28 08:46:39.99	101.29	13.01	-30.9	-33.2	11.4	9.12e-04	0	41	0	145752064	22	4670
2026-01-28 08:46:41.00	101.17	13.09	-30.9	-33.0	11.6	9.96e-04	0	41	0	147849216	22	4586
2026-01-28 08:46:41.99	101.05	13.16	-31.0	-33.3	11.3	8.81e-04	0	41	0	149946368	22	4718
2026-01-28 08:46:43.00	100.92	13.24	-31.1	-33.8	11.0	1.15e-03	0	41	0	152043520	22	4887
2026-01-28 08:46:44.00	100.80	13.32	-31.2	-34.1	10.8	2.16e-03	0	41	0	154140672	22	5015
2026-01-28 08:46:45.00	100.68	13.40	-31.1	-33.8	10.9	2.50e-03	0	41	0	155189248	22	4916
2026-01-28 08:46:46.00	100.55	13.48	-31.1	-33.8	11.0	2.20e-03	0	41	0	157286400	22	4921
2026-01-28 08:46:47.01	100.42	13.56	-31.0	-33.6	11.1	1.59e-03	0	41	0	159383552	22	4810
2026-01-28 08:46:48.01	100.30	13.64	-30.9	-33.1	11.4	8.09e-04	0	41	0	161480704	22	4655
2026-01-28 08:46:49.02	100.17	13.72	-30.8	-33.0	11.6	7.20e-04	0	41	0	163577856	22	4586
2026-01-28 08:46:50.02	100.04	13.80	-30.7	-32.6	11.8	4.86e-04	0	41	0	164626432	22	4458
2026-01-28 08:46:51.02	99.92	13.88	-30.6	-32.2	12.2	2.66e-04	0	41	0	166723584	22	4309
2026-01-28 08:46:52.02	99.79	13.96	-30.6	-32.2	12.2	2.78e-04	0	41	0	168820736	22	4314
2026-01-28 08:46:53.02	99.66	14.04	-30.6	-32.3	12.1	3.29e-04	0	41	0	170917888	22	4349
2026-01-28 08:46:54.02	99.53	14.12	-30.6	-32.2	12.2	2.83e-04	0	41	0	173015040	22	4328
2026-01-28 08:46:55.03	99.40	14.20	-30.4	-31.6	12.7	9.00e-05	0	41	0	174063616	22	4117
2026-01-28 08:46:56.03	99.27	14.28	-30.3	-31.9	12.7	5.26e-05	0	41	0	176160768	21	4304
2026-01-28 08:46:57.04	99.13	14.36	-30.3	-31.8	12.9	5.41e-05	0	41	0	178257920	21	4259
2026-01-28 08:46:58.04	99.00	14.44	-30.3	-31.8	12.8	5.26e-05	0	41	0	180355072	21	4259
2026-01-28 08:46:59.04	98.87	14.52	-30.3	-31.9	12.8	3.89e-05	0	41	0	181403648	21	4285
2026-01-28 08:47:00.04	98.73	14.60	-30.5	-32.3	12.5	1.31e-04	0	41	0	183500800	21	4441
2026-01-28 08:47:01.05	98.59	14.68	-30.3	-31.7	12.9	7.17e-05	0	41	0	185597952	21	4233
2026-01-28 08:47:02.05	98.46	14.77	-30.3	-31.9	12.9	4.11e-05	0	41	0	187695104	21	4280
2026-01-28 08:47:03.06	98.32	14.85	-30.4	-32.0	12.8	4.80e-05	0	41	0	189792256	21	4317
2026-01-28 08:47:04.06	98.18	14.93	-30.2	-31.5	13.1	3.81e-05	0	41	0	191889408	21	4173
2026-01-28 08:47:05.06	98.05	15.01	-30.3	-31.7	12.9	2.89e-05	0	41	0	192937984	21	4216
2026-01-28 08:47:06.06	97.91	15.09	-30.3	-31.8	13.0	4.65e-05	0	41	0	195035136	21	4256
2026-01-28 08:47:07.06	97.77	15.17	-30.3	-31.8	12.9	3.96e-05	0	41	0	197132288	21	4252
2026-01-28 08:47:08.06	97.63	15.25	-30.6	-32.5	12.5	9.99e-05	0	41	0	199229440	21	4483
2026-01-28 08:47:09.06	97.49	15.34	-30.4	-32.0	12.8	7.78e-05	0	41	0	200278016	21	4339
2026-01-28 08:47:10.07	97.34	15.42	-30.4	-32.1	12.8	4.88e-05	0	41	0	202375168	21	4342
2026-01-28 08:47:11.07	97.20	15.50	-30.4	-32.1	12.8	6.17e-05	0	41	0	204472320	21	4340
2026-01-28 08:47:12.08	97.05	15.58	-30.3	-31.6	13.1	3.35e-05	0	41	0	206569472	21	4194
2026-01-28 08:47:13.08	96.91	15.67	-30.3	-31.7	13.1	3.05e-05	0	41	0	208666624	21	4210
2026-01-28 08:47:14.09	96.76	15.75	-30.3	-31.8	13.0	2.67e-05	0	41	0	209715200	21	4254
2026-01-28 08:47:15.09	96.62	15.83	-30.5	-32.3	12.6	6.79e-05	0	41	0	211812352	21	4422
2026-01-28 08:47:16.09	96.47	15.91	-30.4	-32.1	12.8	7.47e-05	0	41	0	213909504	21	4333
2026-01-28 08:47:17.09	96.32	16.00	-30.3	-31.6	13.1	5.79e-05	0	41	0	216006656	21	4190
2026-01-28 08:47:18.09	96.17	16.08	-30.3	-31.7	13.1	2.13e-05	0	41	0	218103808	21	4207
2026-01-28 08:47:19.09	96.02	16.16	-30.3	-31.8	13.0	2.89e-05	0	41	0	219152384	21	4238
2026-01-28 08:47:20.10	95.87	16.24	-30.2	-31.5	13.2	2.21e-05	0	41	0	221249536	21	4140
2026-01-28 08:47:21.10	95.72	16.33	-30.4	-31.8	13.0	2.67e-05	0	41	0	223346688	21	4253
2026-01-28 08:47:22.11	95.57	16.41	-30.6	-32.5	12.6	7.62e-05	0	41	0	225443840	21	4474
2026-01-28 08:47:23.12	95.41	16.49	-30.5	-32.5	12.4	1.01e-04	0	41	0	227540992	21	4522
2026-01-28 08:47:24.12	95.26	16.58	-30.6	-32.7	12.3	1.94e-04	0	41	0	228589568	21	4573
2026-01-28 08:47:25.12	95.11	16.66	-30.3	-31.9	12.9	8.92e-05	0	41	0	230686720	21	4319
2026-01-28 08:47:26.12	94.95	16.74	-30.3	-31.8	12.9	4.11e-05	0	41	0	232783872	21	4286
2026-01-28 08:47:27.12	94.80	16.83	-30.3	-31.8	13.0	3.28e-05	0	41	0	234881024	21	4288
2026-01-28 08:47:28.12	94.64	16.91	-30.5	-32.4	12.5	9.61e-05	0	41	0	236978176	21	4472
2026-01-28 08:47:29.13	94.48	16.99	-30.5	-32.6	12.4	1.01e-04	0	41	0	238026752	21	4562
2026-01-28 08:47:30.14	94.32	17.08	-30.8	-33.4	11.8	3.59e-04	0	41	0	240123904	21	4852
2026-01-28 08:47:31.14	94.16	17.16	-30.9	-33.1	11.7	5.14e-04	0	41	0	242221056	22	4634
2026-01-28 08:47:32.14	94.00	17.24	-30.8	-32.7	12.0	2.81e-04	0	41	0	244318208	22	4496
2026-01-28 08:47:33.14	93.84	17.33	-30.7	-32.3	12.4	2.04e-04	0	41	0	245366784	22	4365
2026-01-28 08:47:34.15	93.67	17.41	-30.7	-32.3	12.4	1.78e-04	0	41	0	247463936	22	4363
2026-01-28 08:47:35.15	93.51	17.50	-30.6	-32.2	12.5	1.23e-04	0	41	0	249561088	22	4304
2026-01-28 08:47:36.16	93.34	17.58	-30.8	-32.7	12.1	1.81e-04	0	41	0	251658240	22	4501
2026-01-28 08:47:37.16	93.18	17.66	-31.0	-33.5	11.6	3.85e-04	0	41	0	253755392	22	4758
2026-01-28 08:47:38.16	93.01	17.75	-31.3	-34.4	10.9	1.94e-03	0	41	0	254803968	22	5147
2026-01-28 08:47:39.16	92.84	17.83	-31.0	-33.4	11.6	1.23e-03	0	41	0	256901120	22	4724
2026-01-28 08:47:40.17	92.68	17.92	-30.8	-32.8	12.1	3.97e-04	0	41	0	258998272	22	4507
2026-01-28 08:47:41.17	92.51	18.00	-30.8	-32.6	12.2	2.27e-04	0	41	0	261095424	22	4460
2026-01-28 08:47:42.18	92.33	18.08	-30.7	-32.5	12.3	1.63e-04	0	41	0	263192576	22	4401
2026-01-28 08:47:43.18	92.16	18.17	-30.8	-32.7	12.1	2.39e-04	0	41	0	264241152	22	4466
2026-01-28 08:47:44.19	91.99	18.25	-30.9	-32.9	12.0	2.86e-04	0	41	0	266338304	22	4553
2026-01-28 08:47:45.19	91.82	18.34	-30.9	-33.0	11.9	4.16e-04	0	41	0	268435456	22	4597
2026-01-28 08:47:46.19	91.64	18.42	-31.0	-33.3	11.8	4.02e-04	0	41	0	270532608	22	4673
2026-01-28 08:47:47.20	91.47	18.51	-30.8	-32.8	12.1	4.16e-04	0	41	0	272629760	22	4511
2026-01-28 08:47:48.20	91.29	18.59	-30.8	-32.7	12.2	3.32e-04	0	41	0	273678336	22	4481
2026-01-28 08:47:49.21	91.11	18.67	-30.7	-32.3	12.5	1.39e-04	0	41	0	275775488	22	4345
2026-01-28 08:47:50.21	90.94	18.76	-30.7	-32.6	12.2	1.87e-04	0	41	0	277872640	22	4435
2026-01-28 08:47:51.22	90.75	18.84	-30.8	-32.7	12.2	2.26e-04	0	41	0	279969792	22	4471
2026-01-28 08:47:52.22	90.58	18.93	-30.9	-33.0	12.0	3.53e-04	0	41	0	282066944	22	4581
2026-01-28 08:47:53.23	90.39	19.01	-30.7	-32.6	12.2	2.46e-04	0	41	0	283115520	22	4444
2026-01-28 08:47:54.23	90.21	19.10	-30.4	-31.6	12.8	1.45e-04	0	41	0	285212672	22	4114
2026-01-28 08:47:55.22	90.03	19.18	-30.6	-32.1	12.6	1.04e-04	0	41	0	287309824	22	4279
2026-01-28 08:47:56.23	89.84	19.26	-30.8	-32.7	12.2	2.51e-04	0	41	0	289406976	22	4491
2026-01-28 08:47:57.23	89.66	19.35	-30.9	-32.8	12.1	1.79e-04	0	41	0	291504128	22	4525
2026-01-28 08:47:58.23	89.47	19.43	-30.9	-33.1	11.9	2.33e-04	0	41	0	292552704	22	4611
2026-01-28 08:47:59.23	89.29	19.51	-30.9	-33.1	12.0	4.05e-04	0	41	0	294649856	22	4605
2026-01-28 08:48:00.23	89.10	19.60	-31.1	-33.6	11.6	4.03e-04	0	41	0	296747008	22	4800
2026-01-28 08:48:01.23	88.91	19.68	-30.9	-33.0	12.0	4.43e-04	0	41	0	298844160	22	4570
2026-01-28 08:48:02.24	88.72	19.77	-30.9	-32.8	12.1	3.07e-04	0	41	0	300941312	22	4527
2026-01-28 08:48:03.24	88.53	19.85	-30.8	-32.7	12.2	3.13e-04	0	41	0	301989888	22	4460
2026-01-28 08:48:04.25	88.33	19.93	-30.5	-31.7	12.9	1.10e-04	0	41	0	304087040	22	4132
2026-01-28 08:48:05.26	88.14	20.02	-30.4	-31.5	13.0	3.58e-05	0	41	0	306184192	22	4090
2026-01-28 08:48:06.26	87.94	20.10	-30.4	-31.3	13.2	3.20e-05	0	41	0	308281344	22	4016
2026-01-28 08:48:07.26	87.75	20.19	-30.5	-31.6	13.1	2.74e-05	0	41	0	310378496	22	4090
2026-01-28 08:48:08.26	87.55	20.27	-30.7	-32.2	12.7	7.01e-05	0	41	0	311427072	22	4273
2026-01-28 08:48:09.27	87.35	20.35	-30.5	-31.6	13.1	2.44e-05	0	41	0	313524224	22	4085
2026-01-28 08:48:10.27	87.16	20.44	-30.5	-31.6	13.0	3.12e-05	0	42	0	315621376	22	4104
2026-01-28 08:48:11.28	86.95	20.52	-30.6	-31.9	12.8	3.89e-05	0	41	0	317718528	22	4182
2026-01-28 08:48:12.27	86.75	20.60	-30.5	-31.7	13.0	4.27e-05	0	41	0	318767104	22	4145
2026-01-28 08:48:13.27	86.55	20.68	-30.8	-32.6	12.4	1.46e-04	0	41	0	320864256	22	4412
2026-01-28 08:48:14.28	86.35	20.77	-31.0	-33.3	11.9	2.83e-04	0	41	0	322961408	22	4652
2026-01-28 08:48:15.28	86.14	20.85	-31.0	-33.2	12.0	3.54e-04	0	41	0	325058560	22	4620
2026-01-28 08:48:16.29	85.94	20.93	-30.8	-32.7	12.3	1.98e-04	0	41	0	327155712	22	4435
2026-01-28 08:48:17.29	85.73	21.02	-30.8	-32.5	12.4	1.11e-04	0	41	0	328204288	22	4375
2026-01-28 08:48:18.30	85.52	21.10	-30.8	-32.5	12.5	1.40e-04	0	41	0	330301440	22	4399
2026-01-28 08:48:19.31	85.31	21.18	-30.6	-31.8	12.9	3.43e-05	0	41	0	332398592	22	4176
2026-01-28 08:48:20.31	85.10	21.26	-30.4	-31.3	13.2	1.83e-05	0	41	0	334495744	22	4025
2026-01-28 08:48:21.31	84.89	21.35	-30.0	-30.7	13.9	6.10e-06	0	41	0	336592896	21	3934
2026-01-28 08:48:22.31	84.68	21.43	-30.1	-31.0	13.8	6.10e-06	0	41	0	337641472	21	4011
2026-01-28 08:48:23.32	84.46	21.51	-29.9	-30.5	14.0	7.00e-07	0	41	0	339738624	21	3883
2026-01-28 08:48:24.32	84.25	21.59	-29.7	-30.7	14.3	7.00e-07	0	41	0	341835776	20	4008
2026-01-28 08:48:25.32	84.04	21.67	-29.9	-31.2	13.9	1.50e-06	0	41	0	343932928	20	4184
2026-01-28 08:48:26.32	83.82	21.75	-29.9	-31.3	13.9	4.50e-06	0	41	0	346030080	20	4191
2026-01-28 08:48:27.32	83.60	21.83	-30.1	-31.8	13.6	6.10e-06	0	41	0	347078656	20	4348
2026-01-28 08:48:28.32	83.38	21.91	-30.0	-31.4	13.8	3.80e-06	0	42	0	349175808	20	4225
2026-01-28 08:48:29.32	83.16	21.99	-29.9	-31.2	13.9	1.50e-06	0	41	0	351272960	20	4183
2026-01-28 08:48:30.32	82.94	22.07	-30.0	-31.4	13.8	4.50e-06	0	41	0	353370112	20	4239
2026-01-28 08:48:31.33	82.72	22.16	-30.0	-31.5	13.8	6.10e-06	0	41	0	355467264	20	4263
2026-01-28 08:48:32.33	82.49	22.24	-30.0	-31.3	13.9	5.30e-06	0	41	0	356515840	20	4198
2026-01-28 08:48:33.34	82.27	22.32	-29.7	-30.7	14.3	2.20e-06	0	41	0	358612992	20	4017
2026-01-28 08:48:34.34	82.04	22.39	-29.9	-31.0	14.1	3.00e-06	0	41	0	360710144	20	4110
2026-01-28 08:48:35.34	81.82	22.47	-29.6	-30.2	14.5	1.50e-06	0	41	0	362807296	20	3892
2026-01-28 08:48:36.34	81.59	22.55	-29.4	-29.8	14.8	7.00e-07	0	41	0	363855872	20	3779
2026-01-28 08:48:37.35	81.36	22.63	-29.4	-29.7	14.9	0.00e+00	0	41	0	365953024	20	3735
2026-01-28 08:48:38.35	81.13	22.71	-29.4	-30.2	15.0	0.00e+00	0	41	0	368050176	19	3952
2026-01-28 08:48:39.35	80.90	22.79	-29.6	-30.7	14.7	0.00e+00	0	41	0	370147328	19	4092
2026-01-28 08:48:40.36	80.66	22.87	-29.8	-31.2	14.4	0.00e+00	0	42	0	372244480	19	4258
2026-01-28 08:48:41.36	80.43	22.94	-29.8	-31.3	14.3	3.00e-06	0	41	0	374341632	19	4263
2026-01-28 08:48:42.37	80.19	23.02	-29.6	-30.8	14.7	7.00e-07	0	41	0	375390208	19	4124
2026-01-28 08:48:43.37	79.95	23.10	-29.5	-30.6	14.8	7.00e-07	0	41	0	377487360	19	4060
2026-01-28 08:48:44.37	79.72	23.18	-29.4	-30.3	14.9	7.00e-07	0	41	0	379584512	19	3985
2026-01-28 08:48:45.38	79.48	23.25	-29.3	-30.0	15.0	0.00e+00	0	41	0	381681664	19	3906
2026-01-28 08:48:46.38	79.24	23.33	-29.2	-29.7	15.3	0.00e+00	0	41	0	382730240	19	3809
2026-01-28 08:48:47.39	78.99	23.41	-29.1	-29.6	15.4	0.00e+00	0	41	0	384827392	19	3782
2026-01-28 08:48:48.39	78.75	23.48	-29.2	-29.8	15.3	0.00e+00	0	41	0	386924544	19	3837
2026-01-28 08:48:49.39	78.51	23.56	-29.2	-29.7	15.3	0.00e+00	0	41	0	389021696	19	3816
2026-01-28 08:48:50.39	78.26	23.63	-29.4	-30.2	14.9	0.00e+00	0	41	0	391118848	19	3964
2026-01-28 08:48:51.39	78.02	23.70	-29.4	-30.2	15.0	0.00e+00	0	41	0	392167424	19	3968
2026-01-28 08:48:52.40	77.77	23.78	-29.6	-30.6	14.7	7.00e-07	0	41	0	394264576	19	4072
2026-01-28 08:48:53.40	77.52	23.85	-29.5	-30.6	14.8	0.00e+00	0	41	0	396361728	19	4060
2026-01-28 08:48:54.40	77.27	23.93	-29.6	-30.7	14.7	7.00e-07	0	41	0	398458880	19	4079
2026-01-28 08:48:55.40	77.02	24.00	-29.4	-30.2	15.0	0.00e+00	0	42	0	400556032	19	3949
2026-01-28 08:48:56.41	76.77	24.07	-29.4	-30.3	14.9	0.00e+00	0	41	0	401604608	19	3963
2026-01-28 08:48:57.41	76.52	24.14	-29.7	-30.9	14.6	7.00e-07	0	42	0	403701760	19	4147
2026-01-28 08:48:58.41	76.26	24.22	-29.8	-31.2	14.4	0.00e+00	0	41	0	405798912	19	4224
2026-01-28 08:48:59.42	76.01	24.29	-29.8	-31.2	14.4	7.00e-07	0	41	0	407896064	19	4230
2026-01-28 08:49:00.42	75.75	24.36	-29.7	-31.1	14.5	0.00e+00	0	41	0	409993216	19	4186
2026-01-28 08:49:01.42	75.49	24.43	-29.8	-31.2	14.5	0.00e+00	0	41	0	411041792	19	4217
2026-01-28 08:49:02.42	75.23	24.50	-29.9	-31.5	14.3	7.00e-07	0	41	0	413138944	19	4325
2026-01-28 08:49:03.43	74.97	24.57	-29.9	-31.1	14.1	7.00e-07	0	42	0	415236096	20	4134
2026-01-28 08:49:04.43	74.71	24.64	-30.1	-31.5	13.8	3.00e-06	0	41	0	417333248	20	4239
2026-01-28 08:49:05.44	74.45	24.71	-30.2	-31.6	13.9	2.20e-06	0	42	0	419430400	20	4260
2026-01-28 08:49:06.44	74.18	24.78	-30.0	-31.4	13.9	2.20e-06	0	41	0	420478976	20	4190
2026-01-28 08:49:07.44	73.92	24.84	-30.2	-31.9	13.6	8.30e-06	0	41	0	422576128	20	4348
2026-01-28 08:49:08.45	73.65	24.91	-29.9	-31.1	14.1	4.50e-06	0	41	0	424673280	20	4107
2026-01-28 08:49:09.45	73.39	24.98	-29.7	-30.5	14.5	0.00e+00	0	41	0	426770432	20	3934
2026-01-28 08:49:10.46	73.12	25.04	-29.8	-30.7	14.4	7.00e-07	0	41	0	427819008	20	3997
2026-01-28 08:49:11.46	72.85	25.11	-29.8	-30.8	14.3	3.00e-06	0	41	0	429916160	20	4036
2026-01-28 08:49:12.47	72.58	25.18	-29.8	-30.8	14.3	1.50e-06	0	41	0	432013312	20	4036
2026-01-28 08:49:13.47	72.30	25.24	-29.9	-31.0	14.1	0.00e+00	0	41	0	434110464	20	4095
2026-01-28 08:49:14.48	72.03	25.30	-30.1	-31.5	13.8	7.00e-07	0	41	0	436207616	20	4235
2026-01-28 08:49:15.48	71.76	25.37	-30.1	-31.6	13.8	1.44e-05	0	41	0	437256192	20	4257
2026-01-28 08:49:16.48	71.48	25.43	-29.7	-30.5	14.5	0.00e+00	0	41	0	439353344	20	3936
2026-01-28 08:49:17.49	71.21	25.49	-29.6	-30.2	14.5	0.00e+00	0	41	0	441450496	20	3865
2026-01-28 08:49:18.49	70.93	25.55	-29.5	-29.8	14.9	7.00e-07	0	41	0	443547648	20	3752
2026-01-28 08:49:19.49	70.65	25.62	-29.5	-29.8	15.0	0.00e+00	0	41	0	445644800	20	3760
2026-01-28 08:49:20.50	70.37	25.68	-29.3	-29.5	15.1	0.00e+00	0	41	0	446693376	20	3672
2026-01-28 08:49:21.50	70.09	25.74	-29.5	-30.0	14.8	0.00e+00	0	41	0	448790528	20	3802
2026-01-28 08:49:22.50	69.81	25.80	-29.5	-29.9	14.9	0.00e+00	0	41	0	450887680	20	3777
2026-01-28 08:49:23.50	69.53	25.85	-29.4	-29.7	15.0	0.00e+00	0	41	0	452984832	20	3735
2026-01-28 08:49:24.51	69.24	25.91	-29.4	-29.7	15.0	0.00e+00	0	41	0	455081984	20	3723
2026-01-28 08:49:25.51	68.96	25.97	-29.3	-29.9	15.3	0.00e+00	0	41	0	456130560	19	3847
2026-01-28 08:49:26.51	68.68	26.03	-29.4	-30.2	15.2	0.00e+00	0	41	0	458227712	19	3927
2026-01-28 08:49:27.51	68.39	26.08	-29.3	-30.0	15.2	7.00e-07	0	41	0	460324864	19	3891
2026-01-28 08:49:28.52	68.10	26.14	-29.5	-30.4	15.0	7.00e-07	0	41	0	462422016	19	3999
2026-01-28 08:49:29.51	67.82	26.19	-29.6	-30.6	14.8	0.00e+00	0	41	0	464519168	19	4043
2026-01-28 08:49:30.52	67.52	26.25	-29.6	-30.7	14.8	0.00e+00	0	42	0	465567744	19	4088
2026-01-28 08:49:31.52	67.23	26.30	-29.4	-30.2	15.1	0.00e+00	0	41	0	467664896	19	3948
2026-01-28 08:49:32.53	66.94	26.35	-29.5	-30.4	15.0	0.00e+00	0	41	0	469762048	19	3984
2026-01-28 08:49:33.53	66.65	26.40	-29.7	-30.8	14.7	0.00e+00	0	41	0	471859200	19	4109
2026-01-28 08:49:34.54	66.35	26.46	-29.7	-31.0	14.6	0.00e+00	0	42	0	473956352	19	4171
2026-01-28 08:49:35.53	66.06	26.51	-30.0	-31.1	14.2	0.00e+00	0	41	0	475004928	20	4124
2026-01-28 08:49:36.54	65.77	26.56	-30.2	-31.9	13.7	2.20e-06	0	41	0	477102080	20	4343
2026-01-28 08:49:37.54	65.47	26.60	-30.4	-32.4	13.3	1.44e-05	0	42	0	479199232	20	4519
2026-01-28 08:49:38.55	65.17	26.65	-30.3	-32.2	13.5	7.60e-06	0	42	0	481296384	20	4438
2026-01-28 08:49:39.55	64.87	26.70	-30.5	-32.2	13.1	1.60e-05	0	41	0	482344960	21	4370
2026-01-28 08:49:40.55	64.58	26.75	-30.8	-32.8	12.7	7.47e-05	0	41	0	484442112	21	4566
2026-01-28 08:49:41.55	64.28	26.79	-30.9	-33.2	12.5	7.93e-05	0	41	0	486539264	21	4676
2026-01-28 08:49:42.55	63.98	26.84	-31.1	-33.2	12.1	1.67e-04	0	41	0	488636416	22	4588
2026-01-28 08:49:43.56	63.67	26.88	-30.9	-32.6	12.6	1.02e-04	0	41	0	490733568	22	4380
2026-01-28 08:49:44.56	63.37	26.93	-30.8	-32.4	12.7	6.33e-05	0	41	0	492830720	22	4326
2026-01-28 08:49:45.57	63.07	26.97	-30.7	-32.0	13.0	4.57e-05	0	41	0	493879296	22	4193
2026-01-28 08:49:46.58	62.76	27.01	-30.5	-31.5	13.4	2.36e-05	0	41	0	495976448	22	4051
2026-01-28 08:49:47.58	62.46	27.05	-31.0	-32.8	12.5	5.49e-05	0	41	0	498073600	22	4455
2026-01-28 08:49:48.59	62.15	27.09	-31.0	-32.9	12.4	1.17e-04	0	41	0	500170752	22	4476
2026-01-28 08:49:49.59	61.85	27.13	-31.1	-33.2	12.2	9.15e-05	0	41	0	501219328	22	4600
2026-01-28 08:49:50.59	61.54	27.17	-31.2	-33.4	12.1	2.40e-04	0	41	0	503316480	22	4654
2026-01-28 08:49:51.59	61.23	27.21	-31.0	-33.1	12.3	1.99e-04	0	42	0	505413632	22	4549
2026-01-28 08:49:52.59	60.93	27.24	-30.8	-32.4	12.8	1.72e-04	0	41	0	507510784	22	4338
2026-01-28 08:49:53.59	60.62	27.28	-30.7	-32.2	12.9	5.79e-05	0	41	0	509607936	22	4252
2026-01-28 08:49:54.59	60.31	27.31	-30.7	-32.2	12.9	3.50e-05	0	41	0	510656512	22	4262
2026-01-28 08:49:55.59	60.00	27.35	-31.0	-32.9	12.4	7.55e-05	0	41	0	512753664	22	4510
2026-01-28 08:49:56.60	59.69	27.38	-31.0	-33.1	12.4	1.45e-04	0	41	0	514850816	22	4550
2026-01-28 08:49:57.60	59.37	27.41	-30.7	-32.0	13.0	5.87e-05	0	41	0	516947968	22	4200
2026-01-28 08:49:58.60	59.06	27.45	-30.7	-32.2	12.9	4.34e-05	0	41	0	519045120	22	4271
2026-01-28 08:49:59.60	58.75	27.48	-31.0	-33.1	12.4	7.32e-05	0	42	0	520093696	22	4558
2026-01-28 08:50:00.61	58.44	27.51	-30.9	-32.8	12.5	1.28e-04	0	42	0	522190848	22	4457
2026-01-28 08:50:01.61	58.12	27.53	-30.7	-32.3	12.9	7.32e-05	0	41	0	524288000	22	4286
2026-01-28 08:50:02.62	57.81	27.56	-31.0	-33.1	12.3	5.49e-05	0	41	0	526385152	22	4564
2026-01-28 08:50:03.62	57.49	27.59	-31.0	-32.9	12.3	1.36e-04	0	41	0	528482304	22	4513
2026-01-28 08:50:04.62	57.18	27.61	-31.1	-33.2	12.2	2.31e-04	0	42	0	529530880	22	4602
2026-01-28 08:50:05.62	56.86	27.64	-31.1	-33.4	12.0	2.49e-04	0	41	0	531628032	22	4669
2026-01-28 08:50:06.62	56.55	27.66	-30.8	-32.5	12.7	1.75e-04	0	41	0	533725184	22	4357
2026-01-28 08:50:07.62	56.23	27.69	-30.4	-31.4	13.3	2.51e-05	0	42	0	535822336	22	4035
2026-01-28 08:50:08.62	55.91	27.71	-30.6	-31.9	13.1	3.12e-05	0	41	0	537919488	22	4187
2026-01-28 08:50:09.62	55.60	27.73	-30.8	-32.4	12.7	5.49e-05	0	41	0	538968064	22	4347
2026-01-28 08:50:10.62	55.28	27.75	-30.8	-32.5	12.7	1.08e-04	0	41	0	541065216	22	4368
2026-01-28 08:50:11.62	54.96	27.77	-30.9	-32.7	12.5	1.30e-04	0	41	0	543162368	22	4433
2026-01-28 08:50:12.63	54.64	27.79	-30.9	-32.8	12.4	8.85e-05	0	41	0	545259520	22	4479
2026-01-28 08:50:13.63	54.32	27.80	-31.0	-33.1	12.1	1.26e-04	0	42	0	546308096	22	4601
2026-01-28 08:50:14.64	54.00	27.82	-31.5	-34.5	11.2	1.09e-03	0	41	0	548405248	22	5131
2026-01-28 08:50:15.63	53.68	27.84	-31.6	-34.5	10.8	1.90e-03	0	42	0	550502400	23	5040
2026-01-28 08:50:16.64	53.36	27.85	-31.3	-33.4	11.7	2.13e-03	0	41	0	552599552	23	4585
2026-01-28 08:50:17.64	53.04	27.86	-31.1	-32.8	12.1	6.34e-04	0	42	0	554696704	23	4401
2026-01-28 08:50:18.65	52.72	27.88	-30.8	-32.0	12.6	2.55e-04	0	41	0	555745280	23	4121
2026-01-28 08:50:19.65	52.40	27.89	-30.6	-31.8	13.1	5.18e-05	0	41	0	557842432	22	4158
2026-01-28 08:50:20.66	52.07	27.90	-30.2	-31.2	13.8	1.14e-05	0	41	0	559939584	21	4046
2026-01-28 08:50:21.66	51.75	27.91	-30.0	-30.8	14.0	2.20e-06	0	41	0	562036736	21	3932
2026-01-28 08:50:22.67	51.43	27.92	-30.0	-30.8	14.1	2.20e-06	0	41	0	564133888	21	3922
2026-01-28 08:50:23.67	51.11	27.92	-30.0	-30.8	14.1	3.80e-06	0	41	0	565182464	21	3936
2026-01-28 08:50:24.67	50.79	27.93	-30.3	-31.4	13.7	3.80e-06	0	42	0	567279616	21	4118
2026-01-28 08:50:25.68	50.46	27.93	-30.4	-31.8	13.5	1.44e-05	0	41	0	569376768	21	4235
2026-01-28 08:50:26.68	50.14	27.94	-30.4	-31.8	13.4	1.67e-05	0	41	0	571473920	21	4223
2026-01-28 08:50:27.69	49.82	27.94	-30.5	-32.1	13.3	9.90e-06	0	41	0	573571072	21	4314
2026-01-28 08:50:28.69	49.49	27.94	-30.7	-32.7	13.0	3.12e-05	0	41	0	574619648	21	4494
2026-01-28 08:50:29.69	49.17	27.95	-31.1	-33.0	12.3	2.96e-04	0	41	0	576716800	22	4529
2026-01-28 08:50:30.70	48.85	27.95	-30.8	-32.3	12.8	1.71e-04	0	41	0	578813952	22	4292
2026-01-28 08:50:31.70	48.53	27.95	-30.4	-31.2	13.6	1.67e-05	0	41	0	580911104	22	3939
2026-01-28 08:50:32.70	48.21	27.94	-30.2	-31.1	13.9	5.30e-06	0	42	0	583008256	21	4029
2026-01-28 08:50:33.70	47.88	27.94	-30.1	-31.1	13.9	7.00e-07	0	41	0	584056832	21	4000
2026-01-28 08:50:34.71	47.56	27.94	-30.2	-31.3	13.7	4.50e-06	0	42	0	586153984	21	4080
2026-01-28 08:50:35.71	47.24	27.93	-30.5	-32.1	13.3	2.21e-05	0	41	0	588251136	21	4297
2026-01-28 08:50:36.71	46.92	27.93	-30.7	-32.5	13.0	3.28e-05	0	41	0	590348288	21	4437
2026-01-28 08:50:37.72	46.59	27.92	-30.7	-32.6	12.9	8.85e-05	0	41	0	592445440	21	4490
2026-01-28 08:50:38.73	46.27	27.91	-30.8	-33.1	12.5	8.85e-05	0	41	0	593494016	21	4661
2026-01-28 08:50:39.73	45.95	27.90	-30.7	-32.3	12.7	1.86e-04	0	42	0	595591168	22	4314
2026-01-28 08:50:40.73	45.63	27.89	-31.0	-32.9	12.3	8.77e-05	0	41	0	597688320	22	4510
2026-01-28 08:50:41.73	45.31	27.88	-31.0	-32.9	12.3	1.86e-04	0	41	0	599785472	22	4510
2026-01-28 08:50:42.74	44.98	27.87	-30.7	-32.3	12.7	1.02e-04	0	41	0	600834048	22	4287
2026-01-28 08:50:43.74	44.66	27.86	-30.4	-31.3	13.4	2.44e-05	0	41	0	602931200	22	3981
2026-01-28 08:50:44.75	44.34	27.84	-30.3	-31.4	13.7	6.80e-06	0	41	0	605028352	21	4104
2026-01-28 08:50:45.75	44.02	27.83	-29.9	-30.3	14.4	2.20e-06	0	41	0	607125504	21	3794
2026-01-28 08:50:46.75	43.70	27.81	-29.6	-30.3	14.7	0.00e+00	0	41	0	609222656	20	3867
2026-01-28 08:50:47.76	43.38	27.80	-29.7	-30.4	14.6	0.00e+00	0	41	0	610271232	20	3900
2026-01-28 08:50:48.76	43.06	27.78	-29.8	-30.8	14.4	7.00e-07	0	41	0	612368384	20	4013
2026-01-28 08:50:49.76	42.75	27.76	-30.0	-31.2	14.1	1.50e-06	0	41	0	614465536	20	4150
2026-01-28 08:50:50.76	42.43	27.74	-30.0	-31.2	14.3	7.00e-07	0	41	0	616562688	20	4125
2026-01-28 08:50:51.77	42.11	27.72	-29.7	-30.5	14.6	7.00e-07	0	41	0	618659840	20	3928
2026-01-28 08:50:52.78	41.79	27.70	-29.8	-30.7	14.5	7.00e-07	0	41	0	619708416	20	3978
2026-01-28 08:50:53.78	41.47	27.68	-29.5	-29.9	14.9	0.00e+00	0	41	0	621805568	20	3769
2026-01-28 08:50:54.79	41.15	27.65	-29.3	-29.5	15.0	0.00e+00	0	41	0	623902720	20	3682
2026-01-28 08:50:55.79	40.84	27.63	-29.4	-30.2	15.0	0.00e+00	0	41	0	625999872	19	3946
2026-01-28 08:50:56.80	40.52	27.60	-29.5	-30.3	14.9	0.00e+00	0	41	0	628097024	19	3963
2026-01-28 08:50:57.80	40.21	27.58	-29.8	-31.2	14.4	0.00e+00	0	41	0	629145600	19	4226
2026-01-28 08:50:58.80	39.89	27.55	-29.9	-31.5	14.3	7.00e-07	0	41	0	631242752	19	4316
2026-01-28 08:50:59.81	39.58	27.52	-30.1	-31.4	13.9	2.20e-06	0	41	0	633339904	20	4188
2026-01-28 08:51:00.81	39.26	27.49	-30.2	-31.6	13.7	3.00e-06	0	41	0	635437056	20	4268
2026-01-28 08:51:01.82	38.95	27.46	-30.0	-31.2	14.1	7.00e-07	0	41	0	637534208	20	4140
2026-01-28 08:51:02.82	38.64	27.43	-29.8	-30.6	14.4	0.00e+00	0	41	0	638582784	20	3975
2026-01-28 08:51:03.82	38.33	27.40	-29.9	-31.0	14.2	0.00e+00	0	41	0	640679936	20	4084
2026-01-28 08:51:04.82	38.02	27.37	-30.0	-31.2	14.0	3.00e-06	0	41	0	642777088	20	4151
2026-01-28 08:51:05.83	37.71	27.33	-30.3	-32.0	13.5	6.80e-06	0	41	0	644874240	20	4382
2026-01-28 08:51:06.83	37.40	27.30	-30.2	-31.9	13.5	5.30e-06	0	41	0	646971392	20	4391
2026-01-28 08:51:07.84	37.09	27.26	-30.0	-31.5	13.7	7.60e-06	0	41	0	648019968	20	4287
2026-01-28 08:51:08.84	36.78	27.23	-30.1	-31.7	13.6	6.80e-06	0	41	0	650117120	20	4338
2026-01-28 08:51:09.84	36.47	27.19	-30.0	-31.3	13.9	2.20e-06	0	41	0	652214272	20	4193
2026-01-28 08:51:10.84	36.17	27.15	-29.7	-30.5	14.4	3.00e-06	0	41	0	654311424	20	3972
2026-01-28 08:51:11.84	35.86	27.11	-29.6	-30.4	14.5	7.00e-07	0	41	0	656408576	20	3939
2026-01-28 08:51:12.83	35.56	27.07	-29.5	-30.1	14.7	0.00e+00	0	41	0	657457152	20	3859
2026-01-28 08:51:13.84	35.25	27.03	-29.7	-30.5	14.3	0.00e+00	0	41	0	659554304	20	3976
2026-01-28 08:51:14.84	34.95	26.99	-30.0	-31.3	13.9	7.00e-07	0	41	0	661651456	20	4178
2026-01-28 08:51:15.84	34.65	26.95	-29.8	-30.7	14.3	2.20e-06	0	41	0	663748608	20	4019
2026-01-28 08:51:16.84	34.35	26.91	-29.7	-30.4	14.4	7.00e-07	0	41	0	664797184	20	3932
2026-01-28 08:51:17.84	34.05	26.86	-29.5	-30.0	14.7	0.00e+00	0	41	0	666894336	20	3807
2026-01-28 08:51:18.85	33.74	26.82	-29.5	-30.1	14.6	0.00e+00	0	41	0	668991488	20	3858
2026-01-28 08:51:19.84	33.45	26.77	-29.6	-30.2	14.5	1.50e-06	0	41	0	671088640	20	3883
2026-01-28 08:51:20.84	33.15	26.73	-29.8	-30.9	14.1	7.00e-07	0	41	0	673185792	20	4091
2026-01-28 08:51:21.85	32.85	26.68	-29.8	-30.9	14.0	2.20e-06	0	41	0	674234368	20	4113
2026-01-28 08:51:22.85	32.55	26.63	-29.9	-31.3	13.9	3.00e-06	0	41	0	676331520	20	4215
2026-01-28 08:51:23.85	32.26	26.59	-30.0	-31.4	13.7	3.80e-06	0	41	0	678428672	20	4244
2026-01-28 08:51:24.86	31.96	26.54	-30.4	-32.5	13.2	1.44e-05	0	41	0	680525824	20	4592
2026-01-28 08:51:25.86	31.67	26.49	-30.4	-32.4	13.1	1.90e-05	0	41	0	682622976	20	4545
2026-01-28 08:51:26.87	31.37	26.43	-30.4	-32.5	13.1	2.74e-05	0	41	0	683671552	20	4548
2026-01-28 08:51:27.87	31.08	26.38	-30.7	-32.7	12.6	3.58e-05	0	41	0	685768704	21	4530
2026-01-28 08:51:28.87	30.79	26.33	-30.6	-32.4	12.8	5.03e-05	0	41	0	687865856	21	4431
2026-01-28 08:51:29.88	30.50	26.28	-30.7	-32.7	12.5	9.38e-05	0	41	0	689963008	21	4550
2026-01-28 08:51:30.89	30.21	26.22	-30.7	-32.9	12.4	1.33e-04	0	41	0	692060160	21	4594
2026-01-28 08:51:31.89	29.92	26.17	-30.8	-33.0	12.3	1.43e-04	0	41	0	693108736	21	4659
2026-01-28 08:51:32.89	29.63	26.12	-30.9	-32.9	11.9	2.50e-04	0	41	0	695205888	22	4504
2026-01-28 08:51:33.89	29.35	26.06	-31.1	-33.4	11.7	4.07e-04	0	41	0	697303040	22	4690
2026-01-28 08:51:34.89	29.06	26.00	-31.0	-33.1	12.0	4.62e-04	0	41	0	699400192	22	4579
2026-01-28 08:51:35.89	28.78	25.95	-31.1	-33.4	11.7	5.72e-04	0	41	0	701497344	22	4707
2026-01-28 08:51:36.89	28.50	25.89	-30.8	-32.6	12.3	3.87e-04	0	41	0	702545920	22	4400
2026-01-28 08:51:37.89	28.22	25.83	-30.7	-32.3	12.5	1.88e-04	0	41	0	704643072	22	4329
2026-01-28 08:51:38.89	27.94	25.77	-30.7	-32.3	12.5	1.72e-04	0	41	0	706740224	22	4329
2026-01-28 08:51:39.89	27.66	25.71	-30.6	-32.1	12.6	1.20e-04	0	41	0	708837376	22	4254
2026-01-28 08:51:40.89	27.38	25.65	-30.5	-31.6	12.8	7.09e-05	0	41	0	709885952	22	4108
2026-01-28 08:51:41.90	27.10	25.59	-30.5	-31.6	12.9	5.95e-05	0	41	0	711983104	22	4091
2026-01-28 08:51:42.91	26.82	25.53	-30.7	-32.3	12.4	1.20e-04	0	41	0	714080256	22	4320
2026-01-28 08:51:43.91	26.55	25.47	-30.5	-31.8	12.7	9.61e-05	0	41	0	716177408	22	4165
2026-01-28 08:51:44.92	26.27	25.41	-30.2	-31.4	13.3	2.97e-05	0	41	0	718274560	21	4143
2026-01-28 08:51:45.92	26.00	25.34	-29.8	-30.5	13.8	3.80e-06	0	41	0	720371712	21	3883
2026-01-28 08:51:46.92	25.73	25.28	-29.6	-30.3	14.3	6.10e-06	0	41	0	721420288	20	3912
2026-01-28 08:51:47.93	25.45	25.22	-29.4	-29.8	14.6	7.00e-07	0	41	0	723517440	20	3762
2026-01-28 08:51:48.93	25.18	25.15	-29.5	-30.2	14.3	0.00e+00	0	41	0	725614592	20	3897
2026-01-28 08:51:49.93	24.91	25.09	-29.8	-31.0	13.9	1.50e-06	0	41	0	727711744	20	4110
2026-01-28 08:51:50.93	24.65	25.02	-30.1	-31.7	13.4	9.10e-06	0	41	0	728760320	20	4334
2026-01-28 08:51:51.94	24.38	24.95	-30.2	-32.1	13.1	1.83e-05	0	41	0	730857472	20	4463
2026-01-28 08:51:52.94	24.11	24.89	-30.4	-32.6	12.9	3.73e-05	0	41	0	732954624	20	4619
2026-01-28 08:51:53.94	23.85	24.82	-30.5	-32.3	12.7	6.10e-05	0	41	0	735051776	21	4437
2026-01-28 08:51:54.95	23.58	24.75	-30.6	-32.6	12.5	1.02e-04	0	41	0	737148928	21	4521
2026-01-28 08:51:55.96	23.32	24.68	-30.6	-32.7	12.4	1.27e-04	0	41	0	738197504	21	4557
2026-01-28 08:51:56.96	23.06	24.62	-31.1	-33.5	11.6	2.52e-04	0	41	0	740294656	22	4778
2026-01-28 08:51:57.96	22.80	24.55	-30.9	-33.1	11.9	6.08e-04	0	41	0	742391808	22	4600
2026-01-28 08:51:58.97	22.54	24.48	-30.8	-32.7	12.1	4.00e-04	0	41	0	744488960	22	4486
2026-01-28 08:51:59.97	22.28	24.41	-30.6	-32.1	12.4	1.68e-04	0	41	0	746586112	22	4291
2026-01-28 08:52:00.98	22.03	24.34	-30.6	-32.1	12.5	1.15e-04	0	41	0	747634688	22	4267
2026-01-28 08:52:01.98	21.77	24.27	-30.7	-32.3	12.4	1.22e-04	0	41	0	749731840	22	4347
2026-01-28 08:52:02.99	21.52	24.19	-30.9	-32.8	12.2	9.99e-05	0	41	0	751828992	22	4478
2026-01-28 08:52:03.99	21.26	24.12	-30.9	-33.0	11.9	2.60e-04	0	41	0	753926144	22	4567
2026-01-28 08:52:05.00	21.01	24.05	-31.0	-33.1	11.9	3.13e-04	0	41	0	756023296	22	4589
2026-01-28 08:52:06.00	20.76	23.98	-31.0	-33.1	11.9	4.81e-04	0	41	0	757071872	22	4591
2026-01-28 08:52:07.00	20.51	23.90	-30.8	-32.5	12.3	2.13e-04	0	41	0	759169024	22	4390
2026-01-28 08:52:08.01	20.26	23.83	-30.8	-32.7	12.2	2.47e-04	0	41	0	761266176	22	4463
2026-01-28 08:52:09.01	20.01	23.76	-30.6	-32.1	12.5	2.27e-04	0	41	0	763363328	22	4268
2026-01-28 08:52:10.01	19.77	23.68	-30.7	-32.3	12.5	1.16e-04	0	41	0	765460480	22	4312
2026-01-28 08:52:11.02	19.52	23.61	-30.7	-32.3	12.5	1.37e-04	0	41	0	766509056	22	4321
2026-01-28 08:52:12.02	19.28	23.53	-30.9	-32.8	12.2	1.59e-04	0	41	0	768606208	22	4479
2026-01-28 08:52:13.02	19.04	23.46	-30.8	-32.5	12.3	3.68e-04	0	41	0	770703360	22	4375
2026-01-28 08:52:14.03	18.80	23.38	-30.8	-32.4	12.4	1.08e-04	0	41	0	772800512	22	4357
2026-01-28 08:52:15.04	18.55	23.31	-31.1	-33.3	11.7	2.66e-04	0	41	0	774897664	22	4674
2026-01-28 08:52:16.04	18.32	23.23	-30.7	-32.2	12.4	3.75e-04	0	41	0	775946240	22	4286
2026-01-28 08:52:17.04	18.08	23.15	-30.7	-32.3	12.5	9.38e-05	0	41	0	778043392	22	4308
2026-01-28 08:52:18.04	17.84	23.08	-31.1	-33.3	11.7	2.61e-04	0	41	0	780140544	22	4665
2026-01-28 08:52:19.05	17.61	23.00	-30.7	-32.2	12.4	2.56e-04	0	41	0	782237696	22	4304
2026-01-28 08:52:20.05	17.37	22.92	-30.9	-32.9	12.0	2.88e-04	0	41	0	783286272	22	4534
2026-01-28 08:52:21.05	17.14	22.85	-31.4	-34.3	11.1	7.44e-04	0	41	0	785383424	22	5025
2026-01-28 08:52:22.05	16.91	22.77	-31.0	-33.1	11.8	7.91e-04	0	41	0	787480576	22	4584
2026-01-28 08:52:23.04	16.68	22.69	-30.7	-32.1	12.5	2.43e-04	0	41	0	789577728	22	4252
2026-01-28 08:52:24.05	16.45	22.61	-30.0	-30.8	13.6	2.13e-05	0	41	0	791674880	21	3963
2026-01-28 08:52:25.05	16.22	22.53	-29.7	-30.5	14.1	4.50e-06	0	41	0	792723456	20	3968
2026-01-28 08:52:26.06	16.00	22.45	-29.4	-29.7	14.6	1.50e-06	0	41	0	794820608	20	3756
2026-01-28 08:52:27.06	15.77	22.38	-29.3	-29.7	14.6	7.00e-07	0	41	0	796917760	20	3735
2026-01-28 08:52:28.06	15.55	22.30	-29.3	-30.1	14.7	0.00e+00	0	41	0	799014912	19	3927
2026-01-28 08:52:29.07	15.32	22.22	-29.5	-30.6	14.4	0.00e+00	0	41	0	801112064	19	4082
2026-01-28 08:52:30.07	15.10	22.14	-30.2	-31.8	13.3	2.05e-05	0	41	0	802160640	20	4348
2026-01-28 08:52:31.08	14.88	22.06	-29.9	-31.1	13.8	6.10e-06	0	41	0	804257792	20	4149
2026-01-28 08:52:32.07	14.66	21.98	-30.3	-32.2	13.0	1.75e-05	0	41	0	806354944	20	4484
2026-01-28 08:52:33.07	14.44	21.90	-30.1	-31.7	13.3	1.60e-05	0	41	0	808452096	20	4333
2026-01-28 08:52:34.08	14.22	21.82	-30.0	-31.4	13.4	6.10e-06	0	41	0	810549248	20	4237
2026-01-28 08:52:35.08	14.01	21.74	-29.9	-31.1	13.6	6.80e-06	0	41	0	811597824	20	4134
2026-01-28 08:52:36.08	13.79	21.65	-29.7	-30.7	13.9	3.80e-06	0	41	0	813694976	20	4033
2026-01-28 08:52:37.09	13.58	21.57	-29.5	-30.1	14.3	3.00e-06	0	41	0	815792128	20	3863
2026-01-28 08:52:38.09	13.36	21.49	-29.6	-30.3	14.2	2.20e-06	0	41	0	817889280	20	3919
2026-01-28 08:52:39.10	13.15	21.41	-29.5	-30.1	14.3	0.00e+00	0	41	0	819986432	20	3856
2026-01-28 08:52:40.10	12.94	21.33	-29.6	-30.3	14.2	1.50e-06	0	41	0	821035008	20	3914
2026-01-28 08:52:41.10	12.73	21.25	-29.5	-30.0	14.3	7.00e-07	0	41	0	823132160	20	3845
2026-01-28 08:52:42.10	12.52	21.17	-29.4	-29.9	14.6	7.00e-07	0	41	0	825229312	20	3812
2026-01-28 08:52:43.11	12.31	21.08	-29.3	-29.7	14.6	0.00e+00	0	41	0	827326464	20	3752
2026-01-28 08:52:44.11	12.11	21.00	-29.1	-29.7	14.9	0.00e+00	0	41	0	829423616	19	3833
2026-01-28 08:52:45.11	11.90	20.92	-29.0	-29.3	15.2	0.00e+00	0	41	0	830472192	19	3713
2026-01-28 08:52:46.11	11.70	20.84	-28.9	-29.0	15.4	0.00e+00	0	41	0	832569344	19	3648
2026-01-28 08:52:47.12	11.49	20.75	-29.1	-29.4	15.1	0.00e+00	0	41	0	834666496	19	3749
2026-01-28 08:52:48.12	11.29	20.67	-28.5	-28.7	15.9	0.00e+00	0	41	0	836763648	18	3649
2026-01-28 08:52:49.12	11.09	20.59	-28.8	-29.3	15.5	0.00e+00	0	41	0	838860800	18	3812
2026-01-28 08:52:50.12	10.89	20.51	-29.0	-29.8	15.2	0.00e+00	0	41	0	839909376	18	3956
2026-01-28 08:52:51.11	10.70	20.42	-29.0	-29.8	15.2	0.00e+00	0	41	0	842006528	18	3932
2026-01-28 08:52:52.12	10.50	20.34	-29.1	-30.0	15.1	7.00e-07	0	41	0	844103680	18	3989
2026-01-28 08:52:53.12	10.30	20.26	-29.3	-30.6	14.7	0.00e+00	0	41	0	846200832	18	4156
2026-01-28 08:52:54.13	10.11	20.17	-29.2	-30.3	14.9	0.00e+00	0	41	0	847249408	18	4073
2026-01-28 08:52:55.13	9.91	20.09	-29.1	-30.0	15.0	0.00e+00	0	41	0	849346560	18	4003
2026-01-28 08:52:56.14	9.72	20.01	-28.9	-29.5	15.4	0.00e+00	0	41	0	851443712	18	3862
2026-01-28 08:52:57.14	9.53	19.92	-28.8	-29.3	15.5	0.00e+00	0	41	0	853540864	18	3813
2026-01-28 08:52:58.14	9.33	19.84	-28.9	-29.5	15.4	0.00e+00	0	41	0	855638016	18	3857
2026-01-28 08:52:59.14	9.14	19.76	-28.8	-29.3	15.4	0.00e+00	0	41	0	856686592	18	3816
2026-01-28 08:53:00.14	8.96	19.67	-28.9	-29.5	15.3	0.00e+00	0	41	0	858783744	18	3863
2026-01-28 08:53:01.15	8.77	19.59	-28.9	-29.6	15.3	0.00e+00	0	41	0	860880896	18	3900
2026-01-28 08:53:02.15	8.58	19.51	-29.1	-30.1	15.0	0.00e+00	0	41	0	862978048	18	4025
2026-01-28 08:53:03.15	8.40	19.42	-29.2	-30.3	14.8	0.00e+00	0	41	0	865075200	18	4086
2026-01-28 08:53:04.16	8.21	19.34	-29.2	-30.4	14.8	0.00e+00	0	41	0	866123776	18	4106
2026-01-28 08:53:05.17	8.02	19.26	-29.3	-30.7	14.6	7.00e-07	0	41	0	868220928	18	4199
2026-01-28 08:53:06.17	7.84	19.17	-29.4	-30.7	14.6	0.00e+00	0	41	0	870318080	18	4212
2026-01-28 08:53:07.17	7.66	19.09	-29.5	-30.5	14.4	7.00e-07	0	41	0	872415232	19	4052
2026-01-28 08:53:08.18	7.48	19.00	-29.3	-30.1	14.7	0.00e+00	0	41	0	874512384	19	3936
2026-01-28 08:53:09.18	7.30	18.92	-29.3	-30.0	14.7	7.00e-07	0	41	0	875560960	19	3916
2026-01-28 08:53:10.19	7.12	18.84	-29.0	-29.4	15.1	0.00e+00	0	41	0	877658112	19	3746
2026-01-28 08:53:11.19	6.94	18.75	-29.0	-29.3	15.2	0.00e+00	0	41	0	879755264	19	3719
2026-01-28 08:53:12.19	6.77	18.67	-29.1	-29.5	15.0	0.00e+00	0	41	0	881852416	19	3778
2026-01-28 08:53:13.19	6.59	18.59	-28.9	-29.0	15.3	0.00e+00	0	41	0	883949568	19	3662
2026-01-28 08:53:14.19	6.42	18.50	-28.7	-29.2	15.4	0.00e+00	0	41	0	884998144	18	3775
2026-01-28 08:53:15.19	6.24	18.42	-28.9	-29.5	15.3	0.00e+00	0	41	0	887095296	18	3859
2026-01-28 08:53:16.20	6.07	18.33	-29.2	-30.3	14.8	0.00e+00	0	41	0	889192448	18	4085
2026-01-28 08:53:17.20	5.90	18.25	-29.3	-30.6	14.8	2.20e-06	0	41	0	891289600	18	4162
2026-01-28 08:53:18.20	5.73	18.17	-29.8	-31.4	13.8	6.10e-06	0	41	0	892338176	19	4327
2026-01-28 08:53:19.21	5.56	18.08	-29.9	-31.7	13.7	3.80e-06	0	41	0	894435328	19	4404
2026-01-28 08:53:20.21	5.39	18.00	-30.2	-32.0	12.9	1.22e-05	0	41	0	896532480	20	4445
2026-01-28 08:53:21.22	5.22	17.92	-30.0	-31.4	13.4	1.37e-05	0	41	0	898629632	20	4235
2026-01-28 08:53:22.21	5.05	17.83	-30.1	-31.8	13.3	1.29e-05	0	41	0	900726784	20	4359
2026-01-28 08:53:23.21	4.89	17.75	-29.9	-31.3	13.5	1.44e-05	0	41	0	901775360	20	4203
2026-01-28 08:53:24.22	4.72	17.66	-29.8	-30.8	13.8	8.30e-06	0	41	0	903872512	20	4073
2026-01-28 08:53:25.21	4.56	17.58	-29.6	-30.3	14.0	1.50e-06	0	41	0	905969664	20	3927
2026-01-28 08:53:26.22	4.39	17.50	-29.6	-30.5	14.0	1.50e-06	0	41	0	908066816	20	3965
2026-01-28 08:53:27.22	4.23	17.42	-29.6	-30.5	14.0	3.00e-06	0	41	0	910163968	20	3969
2026-01-28 08:53:28.23	4.07	17.33	-29.4	-29.8	14.4	1.50e-06	0	41	0	911212544	20	3776
2026-01-28 08:53:29.23	3.91	17.25	-29.5	-30.0	14.3	2.20e-06	0	41	0	913309696	20	3838
2026-01-28 08:53:30.23	3.75	17.17	-29.6	-30.4	14.0	3.00e-06	0	41	0	915406848	20	3957
2026-01-28 08:53:31.23	3.59	17.08	-29.5	-30.2	14.1	1.50e-06	0	41	0	917504000	20	3901
2026-01-28 08:53:32.23	3.43	17.00	-29.7	-30.8	13.8	2.20e-06	0	41	0	919601152	20	4054
2026-01-28 08:53:33.23	3.28	16.92	-29.8	-31.1	13.6	2.20e-06	0	41	0	920649728	20	4135
2026-01-28 08:53:34.23	3.12	16.83	-30.0	-31.4	13.4	4.50e-06	0	41	0	922746880	20	4247
2026-01-28 08:53:35.23	2.97	16.75	-30.2	-32.0	13.0	3.12e-05	0	41	0	924844032	20	4428
2026-01-28 08:53:36.24	2.81	16.67	-30.1	-31.8	13.1	6.02e-05	0	41	0	926941184	20	4359
2026-01-28 08:53:37.24	2.66	16.58	-30.1	-31.7	13.2	2.51e-05	0	41	0	929038336	20	4331
2026-01-28 08:53:38.24	2.51	16.50	-30.1	-31.8	13.1	3.12e-05	0	41	0	930086912	20	4374
2026-01-28 08:53:39.24	2.35	16.42	-30.1	-31.8	13.1	3.81e-05	0	41	0	932184064	20	4366
2026-01-28 08:53:40.24	2.20	16.34	-29.8	-31.0	13.6	2.82e-05	0	41	0	934281216	20	4117
2026-01-28 08:53:41.25	2.05	16.25	-29.6	-30.3	14.0	7.60e-06	0	41	0	936378368	20	3911
2026-01-28 08:53:42.25	1.90	16.17	-29.6	-30.3	14.0	4.50e-06	0	41	0	937426944	20	3918
2026-01-28 08:53:43.25	1.75	16.09	-29.5	-30.2	14.1	3.00e-06	0	41	0	939524096	20	3898
2026-01-28 08:53:44.25	1.61	16.01	-29.7	-30.6	13.8	3.00e-06	0	41	0	941621248	20	4005
2026-01-28 08:53:45.26	1.46	15.92	-29.7	-30.7	13.8	7.60e-06	0	41	0	943718400	20	4035
2026-01-28 08:53:46.26	1.31	15.84	-29.8	-31.0	13.6	4.50e-06	0	41	0	945815552	20	4132
2026-01-28 08:53:47.27	1.17	15.76	-29.9	-31.4	13.4	1.22e-05	0	41	0	946864128	20	4241
2026-01-28 08:53:48.28	1.02	15.68	-30.1	-31.8	13.0	2.74e-05	0	41	0	948961280	20	4374
2026-01-28 08:53:49.28	0.88	15.60	-30.2	-32.0	12.9	4.11e-05	0	41	0	951058432	20	4441
2026-01-28 08:53:50.28	0.74	15.51	-30.1	-31.9	12.9	5.34e-05	0	41	0	953155584	20	4422
2026-01-28 08:53:51.28	0.60	15.43	-30.2	-32.0	12.9	5.64e-05	0	41	0	955252736	20	4450
2026-01-28 08:53:52.29	0.45	15.35	-30.0	-31.6	13.1	4.27e-05	0	41	0	956301312	20	4326
2026-01-28 08:53:53.29	0.31	15.27	-29.9	-31.1	13.4	1.52e-05	0	41	0	958398464	20	4168
2026-01-28 08:53:54.30	0.17	15.19	-29.7	-30.7	13.7	8.30e-06	0	41	0	960495616	20	4042
2026-01-28 08:53:55.30	0.03	15.11	-29.7	-30.7	13.8	9.10e-06	0	41	0	962592768	20	4034
2026-01-28 08:53:56.31	359.90	15.02	-29.7	-30.7	13.7	9.10e-06	0	41	0	964689920	20	4051
2026-01-28 08:53:57.31	359.76	14.94	-29.3	-29.8	14.2	4.50e-06	0	41	0	965738496	20	3785
2026-01-28 08:53:58.31	359.62	14.86	-29.4	-29.9	14.2	7.00e-07	0	41	0	967835648	20	3809
2026-01-28 08:53:59.31	359.49	14.78	-29.4	-30.0	14.1	1.50e-06	0	41	0	969932800	20	3836
2026-01-28 08:54:00.31	359.35	14.70	-29.6	-30.4	13.8	1.50e-06	0	41	0	972029952	20	3966
2026-01-28 08:54:01.31	359.22	14.62	-29.7	-30.6	13.7	3.80e-06	0	41	0	974127104	20	4025
2026-01-28 08:54:02.32	359.08	14.54	-29.5	-30.3	13.9	2.20e-06	0	41	0	975175680	20	3948
2026-01-28 08:54:03.32	358.95	14.46	-29.5	-30.3	13.9	6.10e-06	0	41	0	977272832	20	3928
2026-01-28 08:54:04.33	358.82	14.38	-29.6	-30.5	13.8	5.30e-06	0	41	0	979369984	20	3983
2026-01-28 08:54:05.33	358.69	14.30	-29.8	-31.1	13.4	4.50e-06	0	41	0	981467136	20	4161
2026-01-28 08:54:06.33	358.56	14.22	-29.8	-30.9	13.5	1.14e-05	0	41	0	983564288	20	4111
2026-01-28 08:54:07.33	358.43	14.14	-29.9	-31.4	13.2	1.29e-05	0	41	0	984612864	20	4263
2026-01-28 08:54:08.33	358.30	14.06	-30.0	-31.6	13.0	3.81e-05	0	41	0	986710016	20	4346
2026-01-28 08:54:09.34	358.17	13.98	-30.0	-31.5	13.0	3.35e-05	0	41	0	988807168	20	4297
2026-01-28 08:54:10.34	358.04	13.90	-30.0	-31.6	13.0	3.12e-05	0	41	0	990904320	20	4327
2026-01-28 08:54:11.35	357.92	13.82	-30.0	-31.7	12.9	3.05e-05	0	41	0	991952896	20	4365
2026-01-28 08:54:12.35	357.79	13.74	-30.0	-31.7	12.9	5.64e-05	0	41	0	994050048	20	4352
2026-01-28 08:54:13.36	357.66	13.66	-29.8	-31.2	13.1	3.35e-05	0	41	0	996147200	20	4207
2026-01-28 08:54:14.36	357.54	13.58	-30.2	-32.2	12.5	5.64e-05	0	41	0	998244352	20	4534
2026-01-28 08:54:15.36	357.41	13.50	-30.3	-32.5	12.4	1.51e-04	0	41	0	1000341504	20	4627
2026-01-28 08:54:16.37	357.29	13.42	-30.1	-31.9	12.8	6.17e-05	0	41	0	1002438656	20	4417
2026-01-28 08:54:17.37	357.17	13.34	-30.1	-31.8	12.7	5.72e-05	0	41	0	1003487232	20	4414
2026-01-28 08:54:18.38	357.04	13.26	-30.0	-31.8	12.8	5.95e-05	0	41	0	1005584384	20	4409
2026-01-28 08:54:19.37	356.92	13.19	-30.2	-32.3	12.4	1.13e-04	0	41	0	1007681536	20	4569
2026-01-28 08:54:20.38	356.80	13.11	-30.4	-32.9	12.0	1.90e-04	0	41	0	1009778688	20	4792
2026-01-28 08:54:21.38	356.68	13.03	-30.8	-33.4	11.3	6.71e-04	0	41	0	1010827264	21	4899
2026-01-28 08:54:22.39	356.56	12.95	-30.8	-33.7	11.1	1.21e-03	0	41	0	1012924416	21	4988
2026-01-28 08:54:23.38	356.45	12.87	-31.0	-34.1	10.8	2.14e-03	0	41	0	1015021568	21	5187
2026-01-28 08:54:24.38	356.33	12.80	-30.9	-33.4	10.9	3.21e-03	0	41	0	1017118720	22	4823
2026-01-28 08:54:25.39	356.21	12.72	-30.8	-32.9	11.2	1.52e-03	0	41	0	1019215872	22	4619
2026-01-28 08:54:26.39	356.09	12.64	-30.7	-32.7	11.4	1.06e-03	0	41	0	1020264448	22	4538
2026-01-28 08:54:27.40	355.97	12.56	-30.6	-32.5	11.6	5.74e-04	0	41	0	1022361600	22	4474
2026-01-28 08:54:28.41	355.86	12.48	-30.5	-32.1	11.9	5.45e-04	0	41	0	1024458752	22	4343
2026-01-28 08:54:29.41	355.74	12.41	-30.2	-31.8	12.4	2.30e-04	0	41	0	1026555904	21	4328
2026-01-28 08:54:30.42	355.63	12.33	-30.3	-32.2	12.1	2.53e-04	0	41	0	1028653056	21	4441
2026-01-28 08:54:31.42	355.51	12.25	-30.3	-32.0	12.3	2.74e-04	0	41	0	1029701632	21	4375
2026-01-28 08:54:32.43	355.40	12.17	-30.0	-31.2	12.8	7.55e-05	0	41	0	1031798784	21	4120
2026-01-28 08:54:33.43	355.29	12.10	-29.9	-30.8	13.0	3.12e-05	0	41	0	1033895936	21	4012
2026-01-28 08:54:34.44	355.18	12.02	-29.9	-31.4	13.0	3.20e-05	0	41	0	1035993088	20	4278
2026-01-28 08:54:35.44	355.06	11.94	-30.0	-31.6	12.8	4.27e-05	0	41	0	1038090240	20	4339
2026-01-28 08:54:36.44	354.95	11.87	-30.1	-31.9	12.6	7.17e-05	0	41	0	1039138816	20	4441
2026-01-28 08:54:37.44	354.84	11.79	-30.3	-32.5	12.2	9.00e-05	0	41	0	1041235968	20	4657
2026-01-28 08:54:38.45	354.73	11.72	-30.4	-32.9	11.9	2.91e-04	0	41	0	1043333120	20	4814
2026-01-28 08:54:39.46	354.62	11.64	-30.5	-32.8	11.6	4.82e-04	0	41	0	1045430272	21	4689
2026-01-28 08:54:40.46	354.52	11.56	-30.8	-33.6	11.1	1.85e-03	0	41	0	1047527424	21	4986
2026-01-28 08:54:41.46	354.41	11.49	-30.9	-34.1	10.7	2.10e-03	0	41	0	1048576000	21	5160
2026-01-28 08:54:42.46	354.30	11.41	-31.1	-34.2	10.3	5.16e-03	0	41	0	1050673152	22	5132
2026-01-28 08:54:43.47	354.19	11.34	-31.1	-34.2	10.3	5.39e-03	0	41	0	1052770304	22	5117
2026-01-28 08:54:44.47	354.09	11.26	-31.2	-34.6	10.0	5.90e-03	0	41	0	1054867456	22	5291
2026-01-28 08:54:45.47	353.98	11.19	-31.3	-34.8	9.8	1.11e-02	0	41	0	1056964608	22	5389
2026-01-28 08:54:46.47	353.88	11.11	-31.3	-35.0	9.7	1.02e-02	0	41	0	1058013184	22	5495
2026-01-28 08:54:47.48	353.77	11.04	-31.3	-34.9	9.8	1.02e-02	0	41	0	1060110336	22	5437
2026-01-28 08:54:48.48	353.67	10.96	-31.2	-34.3	10.1	7.17e-03	0	41	0	1062207488	22	5192
2026-01-28 08:54:49.48	353.57	10.89	-31.2	-34.3	10.2	7.65e-03	0	41	0	1064304640	22	5188
2026-01-28 08:54:50.48	353.46	10.81	-31.2	-34.3	10.1	7.13e-03	0	41	0	1065353216	22	5196
2026-01-28 08:54:51.49	353.36	10.74	-31.2	-34.5	10.0	7.19e-03	0	41	0	1067450368	22	5268
2026-01-28 08:54:52.49	353.26	10.66	-31.2	-34.4	10.1	9.10e-03	0	41	0	1069547520	22	5209
2026-01-28 08:54:53.50	353.16	10.59	-31.1	-34.0	10.3	4.98e-03	0	41	0	1071644672	22	5068
2026-01-28 08:54:54.50	353.06	10.52	-31.0	-33.8	10.5	4.96e-03	0	41	0	1073741824	22	4983
2026-01-28 08:54:55.50	352.96	10.44	-30.8	-33.3	10.8	3.66e-03	0	41	0	1074790400	22	4765
2026-01-28 08:54:56.50	352.86	10.37	-31.0	-33.8	10.5	3.20e-03	0	41	0	1076887552	22	4961
2026-01-28 08:54:57.50	352.76	10.29	-31.0	-33.9	10.4	4.25e-03	0	41	0	1078984704	22	5010
2026-01-28 08:54:58.50	352.66	10.22	-31.0	-33.9	10.4	4.14e-03	0	41	0	1081081856	22	5001
2026-01-28 08:54:59.51	352.56	10.15	-31.2	-34.5	10.0	6.01e-03	0	41	0	1083179008	22	5263
2026-01-28 08:55:00.51	352.46	10.07	-31.2	-34.7	9.8	1.03e-02	0	41	0	1084227584	22	5348
2026-01-28 08:55:01.52	352.37	10.00	-31.1	-34.2	10.1	7.28e-03	0	41	0	1086324736	22	5153
2026-01-28 08:55:02.52	352.27	9.93	-31.2	-34.6	9.9	7.22e-03	0	41	0	1088421888	22	5297
2026-01-28 08:55:03.53	352.17	9.85	-31.2	-34.6	9.9	1.20e-02	0	41	0	1090519040	22	5337
2026-01-28 08:55:04.54	352.08	9.78	-31.2	-34.6	9.9	1.03e-02	0	41	0	1092616192	22	5305
2026-01-28 08:55:05.54	351.98	9.71	-31.2	-34.5	9.9	9.51e-03	0	41	0	1093664768	22	5275
2026-01-28 08:55:06.55	351.89	9.64	-31.2	-34.6	9.8	1.04e-02	0	41	0	1095761920	22	5314
2026-01-28 08:55:07.55	351.79	9.56	-31.1	-34.3	10.0	9.96e-03	0	41	0	1097859072	22	5205
2026-01-28 08:55:08.55	351.70	9.49	-31.1	-34.1	10.2	7.55e-03	0	41	0	1099956224	22	5103
2026-01-28 08:55:09.55	351.61	9.42	-31.1	-34.1	10.2	5.97e-03	0	41	0	1102053376	22	5110
2026-01-28 08:55:10.55	351.51	9.35	-31.0	-34.0	10.2	5.88e-03	0	41	0	1103101952	22	5087
2026-01-28 08:55:11.55	351.42	9.28	-31.0	-34.1	10.1	5.18e-03	0	41	0	1105199104	22	5097
2026-01-28 08:55:12.56	351.33	9.21	-30.9	-33.6	10.5	5.16e-03	0	41	0	1107296256	22	4907
2026-01-28 08:55:13.56	351.24	9.13	-30.8	-33.2	10.9	2.40e-03	0	41	0	1109393408	22	4754
2026-01-28 08:55:14.57	351.15	9.06	-30.7	-32.9	11.0	1.77e-03	0	41	0	1111490560	22	4649
2026-01-28 08:55:15.57	351.06	8.99	-30.5	-32.4	11.4	1.67e-03	0	41	0	1112539136	22	4457
2026-01-28 08:55:16.57	350.97	8.92	-30.4	-32.1	11.6	6.37e-04	0	41	0	1114636288	22	4371
2026-01-28 08:55:17.58	350.88	8.85	-30.5	-32.3	11.5	7.52e-04	0	41	0	1116733440	22	4430
2026-01-28 08:55:18.58	350.79	8.78	-30.4	-32.1	11.6	1.00e-03	0	41	0	1118830592	22	4349
2026-01-28 08:55:19.58	350.70	8.71	-30.5	-32.4	11.5	8.77e-04	0	41	0	1120927744	22	4448
2026-01-28 08:55:20.58	350.61	8.64	-30.5	-32.3	11.4	1.59e-03	0	41	0	1121976320	22	4432
2026-01-28 08:55:21.59	350.52	8.57	-30.4	-31.9	11.6	6.83e-04	0	41	0	1124073472	22	4305
2026-01-28 08:55:22.59	350.44	8.50	-30.2	-32.0	11.9	5.44e-04	0	41	0	1126170624	21	4432
2026-01-28 08:55:23.60	350.35	8.43	-30.3	-32.3	11.6	4.62e-04	0	41	0	1128267776	21	4530
2026-01-28 08:55:24.59	350.26	8.36	-30.5	-32.8	11.4	8.25e-04	0	41	0	1129316352	21	4686
2026-01-28 08:55:25.60	350.18	8.29	-30.4	-32.5	11.5	9.89e-04	0	41	0	1131413504	21	4611
2026-01-28 08:55:26.60	350.09	8.22	-30.7	-33.4	10.8	2.08e-03	0	41	0	1133510656	21	4936
2026-01-28 08:55:27.61	350.01	8.15	-30.8	-33.9	10.4	3.28e-03	0	41	0	1135607808	21	5158
2026-01-28 08:55:28.61	349.92	8.08	-30.8	-33.8	10.5	3.65e-03	0	41	0	1137704960	21	5125
2026-01-28 08:55:29.61	349.84	8.01	-30.8	-33.9	10.4	4.66e-03	0	41	0	1139802112	21	5164
2026-01-28 08:55:30.61	349.76	7.94	-30.9	-34.2	10.2	5.12e-03	0	41	0	1140850688	21	5308
2026-01-28 08:55:31.62	349.67	7.87	-31.1	-34.5	9.6	7.76e-03	0	41	0	1142947840	22	5309
2026-01-28 08:55:32.62	349.59	7.80	-31.2	-34.8	9.4	1.33e-02	0	41	0	1145044992	22	5458
2026-01-28 08:55:33.63	349.51	7.73	-31.2	-34.8	9.4	1.45e-02	0	41	0	1147142144	22	5464
2026-01-28 08:55:34.62	349.42	7.66	-31.4	-35.5	8.8	2.31e-02	0	41	0	1148190720	22	5807
2026-01-28 08:55:35.62	349.34	7.60	-31.3	-35.3	8.9	3.51e-02	0	41	0	1150287872	22	5715
2026-01-28 08:55:36.64	349.26	7.53	-31.2	-34.9	9.3	1.97e-02	0	41	0	1152385024	22	5528
2026-01-28 08:55:37.64	349.18	7.46	-31.2	-34.9	9.2	2.03e-02	0	41	0	1154482176	22	5538
2026-01-28 08:55:38.64	349.10	7.39	-31.1	-34.5	9.6	1.94e-02	0	41	0	1156579328	22	5334
2026-01-28 08:55:39.64	349.02	7.32	-31.1	-34.7	9.4	1.54e-02	0	41	0	1157627904	22	5412
2026-01-28 08:55:40.64	348.94	7.25	-31.2	-35.0	9.2	1.77e-02	0	41	0	1159725056	22	5551
2026-01-28 08:55:41.64	348.86	7.19	-31.3	-35.2	9.0	2.09e-02	0	41	0	1161822208	22	5655
2026-01-28 08:55:42.65	348.78	7.12	-31.2	-35.0	9.2	2.35e-02	0	41	0	1163919360	22	5559
2026-01-28 08:55:43.66	348.70	7.05	-33.0	-45.4	3.8	7.99e-01	0	41	104	1164967936	25	15010
2026-01-28 08:55:44.65	348.62	6.98	-33.3	-45.8	3.8	1.49e+00	0	41	104	1164967936	26	15109

#Closed at: 2026-01-28 08:55:45
#Recorded file [1164 MB]: D:/data/31010_260128_114521.dat