passes_logs/2026/01/28/R2M6_AANII_01/R2M6_AANII_01__20260128_094405_FENGYUN_3D_rec.log

#Pass ID: 20260128_094405_FENGYUN 3D
#Satellite: FENGYUN 3D
#Configuration: FENGYUN 3D
#almurnet v.1.7.20240730
#Start time: 2026-01-28 09:44:06

#Version: 2.2.20231116
#Station: R2M6_AANII_01
#Location: 30.233357 lon 59.946436 lat
#TLE: 1 43010U 17072A   26027.90082829  .00000305  00000+0  16579-3 0  9998
#TLE: 2 43010  98.9960 359.9183 0002511  88.1058 272.0405 14.19701796425082

#Time	Az	El	Level	Level2	SNR	BER	BlckErr	Temp	State	Recorded	gain1	gain2
2026-01-28 09:44:06.07	77.54	7.04	-30.7	-34.3	5.1	7.88e-01	0	40	0	0	22	5498
2026-01-28 09:44:07.07	77.42	7.10	-29.4	-31.8	5.4	7.60e-01	0	40	104	0	20	4713
2026-01-28 09:44:08.08	77.30	7.15	-29.5	-31.9	10.4	5.91e-03	0	40	0	0	20	4740
2026-01-28 09:44:09.09	77.17	7.20	-29.4	-31.6	10.6	4.84e-03	0	40	0	5242880	20	4653
2026-01-28 09:44:10.08	77.06	7.25	-29.5	-31.8	10.5	4.65e-03	0	40	0	10485760	20	4711
2026-01-28 09:44:11.09	76.93	7.31	-29.5	-31.8	10.4	5.06e-03	0	40	0	16777216	20	4725
2026-01-28 09:44:12.09	76.81	7.36	-29.5	-31.9	10.4	6.06e-03	0	40	0	22020096	20	4755
2026-01-28 09:44:13.09	76.69	7.41	-29.9	-32.9	9.7	1.16e-02	0	40	0	28311552	20	5093
2026-01-28 09:44:14.10	76.57	7.47	-29.4	-31.7	10.6	6.85e-03	0	40	0	33554432	20	4663
2026-01-28 09:44:15.10	76.44	7.52	-29.1	-31.2	11.3	1.96e-03	0	40	0	38797312	19	4594
2026-01-28 09:44:16.10	76.32	7.57	-28.6	-30.6	12.0	6.50e-04	0	40	0	45088768	18	4507
2026-01-28 09:44:17.11	76.20	7.63	-28.2	-30.0	12.7	1.34e-04	0	40	0	50331648	17	4439
2026-01-28 09:44:18.11	76.07	7.68	-27.9	-29.3	13.1	6.63e-05	0	40	0	55574528	17	4244
2026-01-28 09:44:19.11	75.95	7.73	-27.8	-29.6	13.3	4.23e-05	0	40	0	61865984	16	4421
2026-01-28 09:44:20.11	75.82	7.78	-27.7	-29.3	13.4	3.77e-05	0	41	0	67108864	16	4341
2026-01-28 09:44:21.12	75.70	7.84	-27.8	-29.5	13.3	2.40e-05	0	41	0	73400320	16	4399
2026-01-28 09:44:22.12	75.57	7.89	-27.7	-29.3	13.5	1.25e-05	0	41	0	78643200	16	4333
2026-01-28 09:44:23.12	75.44	7.94	-27.7	-29.3	13.5	1.94e-05	0	41	0	83886080	16	4328
2026-01-28 09:44:24.12	75.32	7.99	-27.7	-29.2	13.5	1.48e-05	0	41	0	90177536	16	4321
2026-01-28 09:44:25.13	75.19	8.05	-27.6	-29.0	13.7	1.71e-05	0	41	0	95420416	16	4257
2026-01-28 09:44:26.13	75.06	8.10	-27.4	-28.6	13.9	1.14e-05	0	41	0	101711872	16	4151
2026-01-28 09:44:27.14	74.93	8.15	-27.5	-28.8	13.8	1.37e-05	0	41	0	106954752	16	4186
2026-01-28 09:44:28.14	74.80	8.21	-27.4	-28.6	13.9	1.10e-06	0	41	0	112197632	16	4142
2026-01-28 09:44:29.14	74.67	8.26	-27.6	-29.0	13.7	9.10e-06	0	41	0	118489088	16	4251
2026-01-28 09:44:30.14	74.55	8.31	-27.4	-28.5	14.0	5.70e-06	0	41	0	123731968	16	4118
2026-01-28 09:44:31.15	74.41	8.36	-27.0	-28.3	14.3	3.40e-06	0	41	0	128974848	15	4158
2026-01-28 09:44:32.15	74.28	8.42	-27.1	-28.6	14.1	4.50e-06	0	41	0	135266304	15	4244
2026-01-28 09:44:33.15	74.15	8.47	-27.2	-28.6	14.1	6.80e-06	0	41	0	140509184	15	4253
2026-01-28 09:44:34.15	74.02	8.52	-27.1	-28.6	14.1	3.40e-06	0	41	0	146800640	15	4249
2026-01-28 09:44:35.16	73.89	8.57	-27.1	-28.6	14.1	5.70e-06	0	41	0	152043520	15	4249
2026-01-28 09:44:36.16	73.76	8.62	-27.2	-28.7	14.0	9.10e-06	0	41	0	157286400	15	4276
2026-01-28 09:44:37.16	73.62	8.68	-27.2	-28.6	14.1	2.20e-06	0	41	0	163577856	15	4257
2026-01-28 09:44:38.16	73.49	8.73	-27.2	-28.8	14.0	1.10e-06	0	41	0	168820736	15	4304
2026-01-28 09:44:39.17	73.35	8.78	-27.1	-28.4	14.2	9.10e-06	0	41	0	174063616	15	4200
2026-01-28 09:44:40.18	73.22	8.83	-27.1	-28.4	14.2	4.50e-06	0	41	0	180355072	15	4187
2026-01-28 09:44:41.18	73.08	8.89	-27.1	-28.4	14.2	1.10e-06	0	41	0	185597952	15	4186
2026-01-28 09:44:42.19	72.95	8.94	-27.0	-28.3	14.3	3.40e-06	0	41	0	191889408	15	4170
2026-01-28 09:44:43.19	72.81	8.99	-27.2	-28.6	14.1	6.80e-06	0	41	0	197132288	15	4265
2026-01-28 09:44:44.20	72.67	9.04	-27.0	-28.3	14.3	0.00e+00	0	41	0	202375168	15	4167
2026-01-28 09:44:45.20	72.54	9.09	-27.0	-28.3	14.3	3.40e-06	0	41	0	208666624	15	4175
2026-01-28 09:44:46.21	72.40	9.15	-27.0	-28.2	14.4	1.10e-06	0	41	0	213909504	15	4148
2026-01-28 09:44:47.21	72.26	9.20	-27.0	-28.2	14.4	3.40e-06	0	41	0	220200960	15	4143
2026-01-28 09:44:48.21	72.12	9.25	-27.0	-28.1	14.4	1.10e-06	0	41	0	225443840	15	4118
2026-01-28 09:44:49.22	71.98	9.30	-27.0	-28.3	14.3	1.10e-06	0	41	0	230686720	15	4169
2026-01-28 09:44:50.22	71.84	9.35	-27.1	-28.4	14.3	2.20e-06	0	41	0	236978176	15	4202
2026-01-28 09:44:51.22	71.70	9.41	-27.0	-28.3	14.4	5.70e-06	0	41	0	242221056	15	4154
2026-01-28 09:44:52.23	71.56	9.46	-27.0	-28.1	14.4	3.40e-06	0	41	0	248512512	15	4124
2026-01-28 09:44:53.23	71.42	9.51	-27.0	-28.2	14.5	1.10e-06	0	41	0	253755392	15	4128
2026-01-28 09:44:54.23	71.28	9.56	-27.2	-28.7	14.2	2.20e-06	0	41	0	258998272	15	4264
2026-01-28 09:44:55.23	71.13	9.61	-27.0	-28.2	14.5	1.10e-06	0	41	0	265289728	15	4128
2026-01-28 09:44:56.24	70.99	9.66	-27.1	-28.5	14.3	0.00e+00	0	42	0	270532608	15	4219
2026-01-28 09:44:57.24	70.85	9.71	-27.3	-28.9	14.0	5.70e-06	0	41	0	275775488	15	4336
2026-01-28 09:44:58.24	70.70	9.76	-27.1	-28.4	14.3	2.20e-06	0	42	0	282066944	15	4190
2026-01-28 09:44:59.24	70.56	9.82	-26.7	-28.1	14.8	1.10e-06	0	42	0	287309824	14	4209
2026-01-28 09:45:00.24	70.42	9.87	-26.9	-28.4	14.6	0.00e+00	0	42	0	293601280	14	4299
2026-01-28 09:45:01.25	70.27	9.92	-26.9	-28.6	14.5	1.10e-06	0	41	0	298844160	14	4352
2026-01-28 09:45:02.26	70.12	9.97	-26.7	-28.0	14.9	0.00e+00	0	42	0	304087040	14	4181
2026-01-28 09:45:03.26	69.98	10.02	-26.8	-28.4	14.7	2.20e-06	0	41	0	310378496	14	4286
2026-01-28 09:45:04.26	69.83	10.07	-26.6	-27.9	14.9	0.00e+00	0	42	0	315621376	14	4167
2026-01-28 09:45:05.26	69.68	10.12	-26.5	-27.7	15.1	1.10e-06	0	42	0	320864256	14	4109
2026-01-28 09:45:06.27	69.53	10.17	-26.5	-27.7	15.0	1.10e-06	0	42	0	327155712	14	4107
2026-01-28 09:45:07.27	69.39	10.22	-26.7	-28.0	14.8	0.00e+00	0	41	0	332398592	14	4198
2026-01-28 09:45:08.28	69.24	10.27	-26.8	-28.4	14.7	0.00e+00	0	42	0	338690048	14	4292
2026-01-28 09:45:09.27	69.09	10.32	-26.6	-27.9	14.9	0.00e+00	0	41	0	343932928	14	4161
2026-01-28 09:45:10.28	68.94	10.37	-26.5	-27.7	15.0	0.00e+00	0	41	0	349175808	14	4110
2026-01-28 09:45:11.28	68.79	10.42	-26.6	-27.7	15.1	0.00e+00	0	42	0	355467264	14	4111
2026-01-28 09:45:12.28	68.64	10.47	-26.6	-27.7	15.1	0.00e+00	0	42	0	360710144	14	4113
2026-01-28 09:45:13.28	68.49	10.52	-26.5	-27.5	15.2	0.00e+00	0	42	0	367001600	14	4063
2026-01-28 09:45:14.29	68.33	10.57	-26.5	-27.7	15.1	0.00e+00	0	42	0	372244480	14	4102
2026-01-28 09:45:15.29	68.18	10.62	-26.6	-27.7	15.0	0.00e+00	0	42	0	377487360	14	4113
2026-01-28 09:45:16.30	68.03	10.67	-26.5	-27.6	15.1	0.00e+00	0	42	0	383778816	14	4083
2026-01-28 09:45:17.30	67.87	10.72	-26.5	-27.6	15.1	0.00e+00	0	42	0	389021696	14	4079
2026-01-28 09:45:18.30	67.72	10.77	-26.5	-27.6	15.1	0.00e+00	0	42	0	394264576	14	4075
2026-01-28 09:45:19.30	67.56	10.82	-26.5	-27.7	15.1	0.00e+00	0	42	0	400556032	14	4096
2026-01-28 09:45:20.31	67.41	10.87	-26.4	-27.4	15.2	0.00e+00	0	42	0	405798912	14	4035
2026-01-28 09:45:21.31	67.25	10.92	-26.3	-27.2	15.4	0.00e+00	0	42	0	411041792	14	3982
2026-01-28 09:45:22.31	67.10	10.97	-26.4	-27.3	15.4	0.00e+00	0	42	0	417333248	14	3994
2026-01-28 09:45:23.32	66.94	11.02	-26.2	-27.5	15.5	0.00e+00	0	42	0	422576128	13	4163
2026-01-28 09:45:24.32	66.78	11.07	-26.2	-27.5	15.5	0.00e+00	0	42	0	428867584	13	4160
2026-01-28 09:45:25.33	66.62	11.12	-26.2	-27.3	15.5	0.00e+00	0	42	0	434110464	13	4116
2026-01-28 09:45:26.33	66.46	11.16	-26.1	-27.3	15.6	0.00e+00	0	42	0	440401920	13	4098
2026-01-28 09:45:27.34	66.30	11.21	-26.2	-27.3	15.6	1.10e-06	0	42	0	445644800	13	4106
2026-01-28 09:45:28.34	66.15	11.26	-26.2	-27.3	15.6	0.00e+00	0	42	0	450887680	13	4102
2026-01-28 09:45:29.34	65.99	11.31	-26.3	-27.5	15.4	0.00e+00	0	42	0	457179136	13	4167
2026-01-28 09:45:30.35	65.82	11.36	-26.3	-27.6	15.4	0.00e+00	0	42	0	462422016	13	4187
2026-01-28 09:45:31.35	65.66	11.41	-26.3	-27.5	15.4	0.00e+00	0	42	0	467664896	13	4163
2026-01-28 09:45:32.36	65.50	11.45	-26.4	-27.7	15.3	1.10e-06	0	42	0	473956352	13	4217
2026-01-28 09:45:33.36	65.34	11.50	-26.3	-27.5	15.5	0.00e+00	0	42	0	479199232	13	4165
2026-01-28 09:45:34.37	65.17	11.55	-26.0	-27.0	15.7	0.00e+00	0	42	0	484442112	13	4039
2026-01-28 09:45:35.38	65.01	11.60	-26.1	-27.1	15.7	0.00e+00	0	42	0	490733568	13	4047
2026-01-28 09:45:36.38	64.85	11.64	-26.0	-27.0	15.9	0.00e+00	0	42	0	495976448	13	4000
2026-01-28 09:45:37.38	64.68	11.69	-26.2	-27.2	15.8	0.00e+00	0	42	0	502267904	13	4070
2026-01-28 09:45:38.39	64.52	11.74	-26.3	-27.6	15.6	0.00e+00	0	42	0	507510784	13	4155
2026-01-28 09:45:39.39	64.35	11.79	-26.3	-27.6	15.5	0.00e+00	0	42	0	513802240	13	4179
2026-01-28 09:45:40.40	64.18	11.83	-26.4	-27.8	15.4	0.00e+00	0	42	0	519045120	13	4227
2026-01-28 09:45:41.40	64.02	11.88	-26.6	-28.1	15.3	1.10e-06	0	42	0	524288000	13	4309
2026-01-28 09:45:42.40	63.85	11.93	-26.2	-27.4	15.7	0.00e+00	0	42	0	530579456	13	4106
2026-01-28 09:45:43.40	63.68	11.97	-26.5	-27.9	15.5	0.00e+00	0	42	0	535822336	13	4246
2026-01-28 09:45:44.41	63.52	12.02	-26.5	-28.0	15.3	0.00e+00	0	42	0	541065216	13	4282
2026-01-28 09:45:45.41	63.35	12.06	-27.0	-29.0	14.9	0.00e+00	0	42	0	547356672	13	4569
2026-01-28 09:45:46.41	63.18	12.11	-26.5	-28.0	15.4	0.00e+00	0	42	0	552599552	13	4266
2026-01-28 09:45:47.41	63.01	12.16	-26.4	-27.8	15.4	0.00e+00	0	42	0	557842432	13	4230
2026-01-28 09:45:48.41	62.84	12.20	-26.7	-28.4	15.1	0.00e+00	0	42	0	564133888	13	4375
2026-01-28 09:45:49.41	62.67	12.25	-26.6	-28.3	15.2	0.00e+00	0	42	0	569376768	13	4345
2026-01-28 09:45:50.42	62.50	12.29	-26.5	-27.5	15.3	0.00e+00	0	42	0	575668224	14	4023
2026-01-28 09:45:51.43	62.32	12.34	-26.3	-27.4	15.6	0.00e+00	0	42	0	580911104	13	4119
2026-01-28 09:45:52.43	62.15	12.38	-26.2	-27.3	15.7	0.00e+00	0	42	0	587202560	13	4099
2026-01-28 09:45:53.43	61.98	12.43	-26.3	-27.5	15.6	0.00e+00	0	42	0	592445440	13	4145
2026-01-28 09:45:54.43	61.81	12.47	-26.4	-27.7	15.5	0.00e+00	0	42	0	597688320	13	4195
2026-01-28 09:45:55.43	61.63	12.52	-26.4	-27.8	15.5	0.00e+00	0	42	0	603979776	13	4216
2026-01-28 09:45:56.44	61.46	12.56	-26.3	-27.6	15.6	0.00e+00	0	42	0	609222656	13	4162
2026-01-28 09:45:57.45	61.28	12.60	-26.4	-27.8	15.5	0.00e+00	0	42	0	614465536	13	4220
2026-01-28 09:45:58.45	61.11	12.65	-26.6	-28.1	15.3	0.00e+00	0	42	0	620756992	13	4317
2026-01-28 09:45:59.45	60.93	12.69	-26.7	-28.4	15.1	0.00e+00	0	42	0	625999872	13	4380
2026-01-28 09:46:00.46	60.75	12.74	-26.5	-27.9	15.4	0.00e+00	0	42	0	631242752	13	4260
2026-01-28 09:46:01.46	60.58	12.78	-26.3	-27.4	15.7	0.00e+00	0	42	0	637534208	13	4120
2026-01-28 09:46:02.47	60.40	12.82	-26.1	-27.1	15.9	0.00e+00	0	42	0	642777088	13	4036
2026-01-28 09:46:03.47	60.22	12.86	-26.0	-26.8	16.0	0.00e+00	0	42	0	649068544	13	3950
2026-01-28 09:46:04.48	60.04	12.91	-25.9	-26.8	16.1	0.00e+00	0	42	0	654311424	13	3950
2026-01-28 09:46:05.49	59.86	12.95	-25.9	-26.7	16.1	0.00e+00	0	42	0	660602880	13	3942
2026-01-28 09:46:06.49	59.68	12.99	-25.8	-26.4	16.3	0.00e+00	0	42	0	665845760	13	3872
2026-01-28 09:46:07.49	59.50	13.03	-26.0	-26.9	16.0	0.00e+00	0	42	0	671088640	13	3984
2026-01-28 09:46:08.50	59.32	13.08	-26.0	-26.9	16.0	0.00e+00	0	42	0	677380096	13	3986
2026-01-28 09:46:09.50	59.14	13.12	-25.8	-26.4	16.2	2.20e-06	0	42	0	682622976	13	3870
2026-01-28 09:46:10.51	58.95	13.16	-25.7	-26.7	16.4	0.00e+00	0	42	0	687865856	12	4037
2026-01-28 09:46:11.51	58.77	13.20	-25.7	-26.8	16.3	0.00e+00	0	42	0	694157312	12	4058
2026-01-28 09:46:12.51	58.59	13.24	-25.7	-26.6	16.4	0.00e+00	0	42	0	699400192	12	4025
2026-01-28 09:46:13.51	58.41	13.28	-25.7	-26.6	16.4	0.00e+00	0	42	0	704643072	12	4027
2026-01-28 09:46:14.52	58.22	13.32	-25.8	-26.8	16.3	0.00e+00	0	42	0	710934528	12	4067
2026-01-28 09:46:15.52	58.04	13.36	-25.8	-26.9	16.3	0.00e+00	0	42	0	716177408	12	4088
2026-01-28 09:46:16.52	57.85	13.40	-25.6	-26.6	16.4	0.00e+00	0	42	0	722468864	12	4012
2026-01-28 09:46:17.52	57.67	13.44	-25.7	-26.6	16.4	1.10e-06	0	42	0	727711744	12	4017
2026-01-28 09:46:18.53	57.48	13.48	-25.6	-26.4	16.5	0.00e+00	0	42	0	734003200	12	3964
2026-01-28 09:46:19.53	57.29	13.52	-25.4	-26.0	16.7	0.00e+00	0	42	0	739246080	12	3871
2026-01-28 09:46:20.53	57.11	13.56	-25.4	-26.0	16.8	1.10e-06	0	42	0	744488960	12	3858
2026-01-28 09:46:21.54	56.92	13.60	-25.4	-26.1	16.7	0.00e+00	0	42	0	750780416	12	3880
2026-01-28 09:46:22.55	56.73	13.64	-25.6	-26.5	16.5	1.10e-06	0	42	0	756023296	12	3979
2026-01-28 09:46:23.55	56.54	13.68	-25.6	-26.6	16.5	0.00e+00	0	42	0	761266176	12	4006
2026-01-28 09:46:24.56	56.35	13.72	-25.7	-26.7	16.4	0.00e+00	0	42	0	767557632	12	4034
2026-01-28 09:46:25.56	56.16	13.75	-25.7	-26.6	16.4	0.00e+00	0	42	0	772800512	12	4024
2026-01-28 09:46:26.56	55.97	13.79	-25.7	-26.8	16.4	0.00e+00	0	42	0	778043392	12	4054
2026-01-28 09:46:27.57	55.78	13.83	-25.7	-26.8	16.4	0.00e+00	0	42	0	784334848	12	4064
2026-01-28 09:46:28.57	55.59	13.87	-25.6	-26.6	16.5	0.00e+00	0	42	0	789577728	12	4009
2026-01-28 09:46:29.58	55.40	13.90	-25.6	-26.4	16.6	0.00e+00	0	42	0	795869184	12	3963
2026-01-28 09:46:30.58	55.21	13.94	-25.7	-26.6	16.5	0.00e+00	0	42	0	801112064	12	4017
2026-01-28 09:46:31.58	55.02	13.98	-25.7	-26.8	16.4	0.00e+00	0	42	0	807403520	12	4053
2026-01-28 09:46:32.59	54.82	14.01	-25.8	-26.8	16.4	0.00e+00	0	42	0	812646400	12	4072
2026-01-28 09:46:33.59	54.63	14.05	-25.8	-27.0	16.3	0.00e+00	0	42	0	817889280	12	4110
2026-01-28 09:46:34.59	54.44	14.08	-25.8	-26.8	16.4	0.00e+00	0	42	0	824180736	12	4075
2026-01-28 09:46:35.60	54.24	14.12	-25.6	-26.5	16.6	0.00e+00	0	42	0	829423616	12	3976
2026-01-28 09:46:36.60	54.05	14.15	-25.6	-26.4	16.6	0.00e+00	0	42	0	834666496	12	3957
2026-01-28 09:46:37.60	53.85	14.19	-25.4	-26.1	16.8	0.00e+00	0	42	0	840957952	12	3890
2026-01-28 09:46:38.61	53.65	14.22	-25.4	-26.0	16.9	0.00e+00	0	42	0	846200832	12	3855
2026-01-28 09:46:39.61	53.46	14.26	-25.6	-26.4	16.6	0.00e+00	0	42	0	851443712	12	3953
2026-01-28 09:46:40.61	53.26	14.29	-25.4	-26.1	16.8	0.00e+00	0	42	0	857735168	12	3876
2026-01-28 09:46:41.62	53.07	14.32	-25.4	-26.0	16.8	0.00e+00	0	42	0	862978048	12	3876
2026-01-28 09:46:42.62	52.87	14.36	-25.4	-26.1	16.8	0.00e+00	0	42	0	869269504	12	3888
2026-01-28 09:46:43.62	52.67	14.39	-25.5	-26.3	16.7	0.00e+00	0	42	0	874512384	12	3939
2026-01-28 09:46:44.63	52.47	14.42	-25.6	-26.4	16.6	0.00e+00	0	42	0	880803840	12	3954
2026-01-28 09:46:45.63	52.27	14.46	-25.6	-26.5	16.6	0.00e+00	0	42	0	886046720	12	3985
2026-01-28 09:46:46.63	52.07	14.49	-25.6	-26.5	16.6	0.00e+00	0	42	0	891289600	12	3989
2026-01-28 09:46:47.64	51.87	14.52	-25.7	-26.7	16.5	0.00e+00	0	42	0	897581056	12	4035
2026-01-28 09:46:48.64	51.67	14.55	-25.5	-26.4	16.7	0.00e+00	0	43	0	902823936	12	3957
2026-01-28 09:46:49.65	51.47	14.58	-25.3	-25.9	16.9	0.00e+00	0	42	0	908066816	12	3842
2026-01-28 09:46:50.66	51.27	14.61	-25.3	-25.9	16.9	0.00e+00	0	42	0	914358272	12	3838
2026-01-28 09:46:51.66	51.07	14.64	-25.4	-25.9	16.9	0.00e+00	0	42	0	919601152	12	3851
2026-01-28 09:46:52.66	50.87	14.67	-25.4	-26.0	16.9	0.00e+00	0	42	0	924844032	12	3858
2026-01-28 09:46:53.67	50.66	14.70	-25.4	-26.1	16.8	0.00e+00	0	42	0	931135488	12	3889
2026-01-28 09:46:54.67	50.46	14.73	-25.4	-26.0	16.9	0.00e+00	0	42	0	936378368	12	3854
2026-01-28 09:46:55.68	50.26	14.76	-25.4	-26.0	16.9	0.00e+00	0	42	0	942669824	12	3855
2026-01-28 09:46:56.68	50.06	14.79	-25.3	-25.8	17.0	0.00e+00	0	42	0	947912704	12	3817
2026-01-28 09:46:57.69	49.85	14.82	-25.4	-26.0	16.9	0.00e+00	0	42	0	954204160	12	3869
2026-01-28 09:46:58.69	49.65	14.85	-25.2	-26.2	17.1	0.00e+00	0	42	0	959447040	11	4002
2026-01-28 09:46:59.69	49.44	14.88	-25.2	-26.0	17.2	0.00e+00	0	43	0	964689920	11	3975
2026-01-28 09:47:00.69	49.24	14.90	-25.3	-26.3	17.0	0.00e+00	0	42	0	970981376	11	4051
2026-01-28 09:47:01.69	49.03	14.93	-25.4	-26.5	16.9	0.00e+00	0	42	0	976224256	11	4095
2026-01-28 09:47:02.69	48.83	14.96	-25.6	-27.0	16.7	0.00e+00	0	43	0	981467136	11	4216
2026-01-28 09:47:03.70	48.62	14.99	-25.7	-27.1	16.6	0.00e+00	0	42	0	987758592	11	4253
2026-01-28 09:47:04.69	48.42	15.01	-25.6	-26.9	16.7	0.00e+00	0	42	0	993001472	11	4193
2026-01-28 09:47:05.69	48.21	15.04	-25.6	-27.0	16.7	0.00e+00	0	42	0	998244352	11	4206
2026-01-28 09:47:06.70	48.00	15.06	-25.5	-26.7	16.8	0.00e+00	0	42	0	1004535808	11	4146
2026-01-28 09:47:07.71	47.80	15.09	-25.3	-26.3	17.0	0.00e+00	0	43	0	1009778688	11	4038
2026-01-28 09:47:08.71	47.59	15.11	-25.1	-25.9	17.2	0.00e+00	0	42	0	1016070144	11	3933
2026-01-28 09:47:09.72	47.38	15.14	-25.2	-26.0	17.2	0.00e+00	0	42	0	1021313024	11	3973
2026-01-28 09:47:10.72	47.17	15.16	-25.2	-26.2	17.1	0.00e+00	0	43	0	1027604480	11	4012
2026-01-28 09:47:11.73	46.96	15.19	-25.3	-26.3	17.0	0.00e+00	0	42	0	1032847360	11	4037
2026-01-28 09:47:12.73	46.75	15.21	-25.4	-26.4	17.0	0.00e+00	0	42	0	1038090240	11	4072
2026-01-28 09:47:13.74	46.54	15.23	-25.3	-26.3	17.0	1.10e-06	0	42	0	1044381696	11	4039
2026-01-28 09:47:14.74	46.33	15.25	-25.3	-26.3	17.0	0.00e+00	0	42	0	1049624576	11	4043
2026-01-28 09:47:15.75	46.12	15.28	-25.1	-26.0	17.2	0.00e+00	0	42	0	1054867456	11	3954
2026-01-28 09:47:16.74	45.91	15.30	-25.1	-26.0	17.2	0.00e+00	0	42	0	1061158912	11	3953
2026-01-28 09:47:17.75	45.70	15.32	-25.2	-26.0	17.2	0.00e+00	0	42	0	1066401792	11	3972
2026-01-28 09:47:18.74	45.49	15.34	-25.3	-26.4	17.0	0.00e+00	0	42	0	1072693248	11	4063
2026-01-28 09:47:19.74	45.28	15.36	-25.4	-26.6	16.9	0.00e+00	0	43	0	1077936128	11	4110
2026-01-28 09:47:20.73	45.07	15.38	-25.4	-26.5	16.9	0.00e+00	0	42	0	1083179008	11	4097
2026-01-28 09:47:21.74	44.86	15.40	-25.3	-26.3	17.0	0.00e+00	0	42	0	1089470464	11	4048
2026-01-28 09:47:22.75	44.65	15.42	-25.3	-26.3	17.0	0.00e+00	0	42	0	1094713344	11	4041
2026-01-28 09:47:23.74	44.44	15.44	-25.5	-26.7	16.8	0.00e+00	0	43	0	1099956224	11	4144
2026-01-28 09:47:24.75	44.22	15.46	-25.5	-26.3	16.7	0.00e+00	0	42	0	1106247680	12	3941
2026-01-28 09:47:25.75	44.01	15.48	-25.2	-26.1	17.2	0.00e+00	0	42	0	1111490560	11	3974
2026-01-28 09:47:26.76	43.79	15.50	-25.4	-26.5	16.9	0.00e+00	0	43	0	1116733440	11	4090
2026-01-28 09:47:27.76	43.58	15.52	-25.3	-26.2	17.1	0.00e+00	0	43	0	1123024896	11	4022
2026-01-28 09:47:28.76	43.37	15.53	-25.6	-26.9	16.7	0.00e+00	0	42	0	1128267776	11	4183
2026-01-28 09:47:29.77	43.15	15.55	-25.4	-26.6	16.9	0.00e+00	0	42	0	1134559232	11	4111
2026-01-28 09:47:30.77	42.94	15.57	-25.1	-25.9	17.2	0.00e+00	0	42	0	1139802112	11	3948
2026-01-28 09:47:31.78	42.72	15.58	-25.0	-25.7	17.4	0.00e+00	0	42	0	1146093568	11	3900
2026-01-28 09:47:32.78	42.51	15.60	-25.1	-25.9	17.3	0.00e+00	0	43	0	1151336448	11	3939
2026-01-28 09:47:33.78	42.29	15.61	-25.2	-26.2	17.1	0.00e+00	0	42	0	1156579328	11	4003
2026-01-28 09:47:34.78	42.08	15.63	-25.4	-26.5	16.9	0.00e+00	0	42	0	1162870784	11	4092
2026-01-28 09:47:35.78	41.87	15.64	-25.5	-26.7	16.8	0.00e+00	0	42	0	1168113664	11	4144
2026-01-28 09:47:36.78	41.65	15.66	-25.5	-26.8	16.8	0.00e+00	0	43	0	1173356544	11	4173
2026-01-28 09:47:37.79	41.43	15.67	-25.4	-26.5	16.9	0.00e+00	0	42	0	1179648000	11	4090
2026-01-28 09:47:38.80	41.22	15.68	-25.1	-25.9	17.2	0.00e+00	0	43	0	1184890880	11	3943
2026-01-28 09:47:39.80	41.00	15.70	-25.0	-25.6	17.4	0.00e+00	0	42	0	1190133760	11	3863
2026-01-28 09:47:40.80	40.78	15.71	-24.9	-25.5	17.5	0.00e+00	0	42	0	1196425216	11	3850
2026-01-28 09:47:41.81	40.57	15.72	-25.0	-25.6	17.4	0.00e+00	0	43	0	1201668096	11	3880
2026-01-28 09:47:42.80	40.35	15.73	-25.0	-25.6	17.4	0.00e+00	0	43	0	1207959552	11	3878
2026-01-28 09:47:43.81	40.13	15.75	-25.0	-25.7	17.3	0.00e+00	0	43	0	1213202432	11	3905
2026-01-28 09:47:44.82	39.92	15.76	-25.0	-25.6	17.4	0.00e+00	0	43	0	1218445312	11	3878
2026-01-28 09:47:45.83	39.70	15.77	-25.0	-25.7	17.4	0.00e+00	0	43	0	1224736768	11	3893
2026-01-28 09:47:46.83	39.48	15.78	-24.9	-25.5	17.5	0.00e+00	0	43	0	1229979648	11	3841
2026-01-28 09:47:47.84	39.26	15.79	-25.0	-25.6	17.5	0.00e+00	0	43	0	1236271104	11	3859
2026-01-28 09:47:48.84	39.04	15.80	-24.9	-25.5	17.5	0.00e+00	0	42	0	1241513984	11	3840
2026-01-28 09:47:49.84	38.83	15.81	-25.0	-25.7	17.4	0.00e+00	0	42	0	1246756864	11	3884
2026-01-28 09:47:50.85	38.61	15.81	-25.1	-25.9	17.3	0.00e+00	0	42	0	1253048320	11	3937
2026-01-28 09:47:51.86	38.39	15.82	-25.1	-25.9	17.3	0.00e+00	0	42	0	1258291200	11	3942
2026-01-28 09:47:52.86	38.17	15.83	-25.1	-25.8	17.3	0.00e+00	0	42	0	1263534080	11	3924
2026-01-28 09:47:53.86	37.95	15.84	-25.2	-26.1	17.2	0.00e+00	0	43	0	1269825536	11	3989
2026-01-28 09:47:54.87	37.73	15.84	-25.1	-25.8	17.4	0.00e+00	0	43	0	1275068416	11	3912
2026-01-28 09:47:55.87	37.52	15.85	-25.0	-25.6	17.5	0.00e+00	0	43	0	1281359872	11	3863
2026-01-28 09:47:56.87	37.30	15.86	-25.0	-25.7	17.4	0.00e+00	0	42	0	1286602752	11	3895
2026-01-28 09:47:57.87	37.08	15.86	-25.0	-25.6	17.4	0.00e+00	0	43	0	1292894208	11	3879
2026-01-28 09:47:58.87	36.86	15.87	-24.9	-25.5	17.5	0.00e+00	0	43	0	1298137088	11	3849
2026-01-28 09:47:59.88	36.64	15.87	-25.1	-25.8	17.4	0.00e+00	0	43	0	1303379968	11	3913
2026-01-28 09:48:00.88	36.42	15.88	-25.0	-25.8	17.4	0.00e+00	0	42	0	1309671424	11	3904
2026-01-28 09:48:01.89	36.20	15.88	-25.2	-26.0	17.2	0.00e+00	0	43	0	1314914304	11	3966
2026-01-28 09:48:02.90	35.98	15.88	-25.3	-26.4	17.0	0.00e+00	0	42	0	1320157184	11	4055
2026-01-28 09:48:03.90	35.76	15.89	-25.3	-26.4	17.0	0.00e+00	0	43	0	1326448640	11	4068
2026-01-28 09:48:04.90	35.55	15.89	-25.6	-26.9	16.7	0.00e+00	0	42	0	1331691520	11	4185
2026-01-28 09:48:05.91	35.32	15.89	-25.5	-26.6	16.9	0.00e+00	0	42	0	1336934400	11	4124
2026-01-28 09:48:06.91	35.11	15.89	-25.5	-26.7	16.8	0.00e+00	0	43	0	1343225856	11	4146
2026-01-28 09:48:07.91	34.89	15.89	-25.6	-26.9	16.8	0.00e+00	0	42	0	1348468736	11	4178
2026-01-28 09:48:08.90	34.67	15.90	-25.7	-27.1	16.6	0.00e+00	0	42	0	1354760192	11	4253
2026-01-28 09:48:09.91	34.45	15.90	-25.5	-26.8	16.8	0.00e+00	0	43	0	1360003072	11	4153
2026-01-28 09:48:10.91	34.23	15.90	-25.5	-26.7	16.8	0.00e+00	0	43	0	1365245952	11	4145
2026-01-28 09:48:11.91	34.01	15.90	-25.6	-26.9	16.8	0.00e+00	0	42	0	1371537408	11	4189
2026-01-28 09:48:12.92	33.79	15.90	-25.6	-26.9	16.8	0.00e+00	0	43	0	1376780288	11	4181
2026-01-28 09:48:13.93	33.57	15.89	-25.6	-27.0	16.7	0.00e+00	0	43	0	1383071744	11	4227
2026-01-28 09:48:14.94	33.35	15.89	-25.7	-27.1	16.7	0.00e+00	0	43	0	1388314624	11	4236
2026-01-28 09:48:15.94	33.13	15.89	-25.6	-27.0	16.7	0.00e+00	0	42	0	1393557504	11	4232
2026-01-28 09:48:16.95	32.91	15.89	-25.9	-27.6	16.4	0.00e+00	0	43	0	1399848960	11	4374
2026-01-28 09:48:17.95	32.70	15.89	-25.5	-26.1	16.8	0.00e+00	0	43	0	1405091840	12	3898
2026-01-28 09:48:18.95	32.48	15.88	-25.3	-26.3	17.0	0.00e+00	0	43	0	1410334720	11	4034
2026-01-28 09:48:19.95	32.26	15.88	-25.5	-26.7	16.8	0.00e+00	0	43	0	1416626176	11	4136
2026-01-28 09:48:20.96	32.04	15.87	-25.5	-26.7	16.9	0.00e+00	0	42	0	1421869056	11	4135
2026-01-28 09:48:21.96	31.82	15.87	-25.5	-26.8	16.8	0.00e+00	0	43	0	1428160512	11	4159
2026-01-28 09:48:22.96	31.60	15.86	-25.6	-26.4	16.7	0.00e+00	0	43	0	1433403392	12	3956
2026-01-28 09:48:23.97	31.38	15.86	-26.0	-27.4	16.1	0.00e+00	0	43	0	1438646272	12	4206
2026-01-28 09:48:24.98	31.16	15.85	-26.2	-27.7	16.0	0.00e+00	0	43	0	1444937728	12	4292
2026-01-28 09:48:25.97	30.95	15.85	-26.3	-27.4	15.8	0.00e+00	0	42	0	1450180608	13	4115
2026-01-28 09:48:26.98	30.73	15.84	-26.8	-28.5	15.2	0.00e+00	0	43	0	1456472064	13	4410
2026-01-28 09:48:27.98	30.51	15.83	-25.9	-27.1	16.2	0.00e+00	0	42	0	1461714944	12	4139
2026-01-28 09:48:28.98	30.29	15.83	-25.7	-26.7	16.5	1.10e-06	0	43	0	1466957824	12	4048
2026-01-28 09:48:29.99	30.07	15.82	-25.4	-26.5	17.0	0.00e+00	0	42	0	1473249280	11	4084
2026-01-28 09:48:31.00	29.85	15.81	-25.2	-26.2	17.1	0.00e+00	0	43	0	1478492160	11	4005
2026-01-28 09:48:32.00	29.64	15.80	-25.2	-26.1	17.1	0.00e+00	0	43	0	1483735040	11	3984
2026-01-28 09:48:33.00	29.42	15.79	-25.1	-25.9	17.2	0.00e+00	0	43	0	1490026496	11	3945
2026-01-28 09:48:34.01	29.20	15.78	-25.3	-26.3	17.0	0.00e+00	0	42	0	1495269376	11	4051
2026-01-28 09:48:35.02	28.98	15.77	-25.8	-27.4	16.4	0.00e+00	0	42	0	1501560832	11	4329
2026-01-28 09:48:36.02	28.76	15.76	-25.4	-26.6	16.9	0.00e+00	0	43	0	1506803712	11	4116
2026-01-28 09:48:37.02	28.55	15.75	-25.3	-26.3	17.0	0.00e+00	0	43	0	1513095168	11	4031
2026-01-28 09:48:38.02	28.33	15.74	-24.9	-25.5	17.4	0.00e+00	0	42	0	1518338048	11	3850
2026-01-28 09:48:39.02	28.12	15.73	-24.8	-25.3	17.6	0.00e+00	0	43	0	1523580928	11	3790
2026-01-28 09:48:40.03	27.90	15.72	-25.1	-25.9	17.3	0.00e+00	0	43	0	1529872384	11	3931
2026-01-28 09:48:41.03	27.68	15.70	-24.8	-25.2	17.6	0.00e+00	0	43	0	1535115264	11	3775
2026-01-28 09:48:42.04	27.47	15.69	-25.0	-26.2	17.3	0.00e+00	0	43	0	1540358144	10	4123
2026-01-28 09:48:43.04	27.25	15.68	-24.8	-25.8	17.6	0.00e+00	0	43	0	1546649600	10	4020
2026-01-28 09:48:44.04	27.03	15.66	-24.9	-26.0	17.4	0.00e+00	0	43	0	1551892480	10	4077
2026-01-28 09:48:45.05	26.82	15.65	-25.3	-26.9	17.0	0.00e+00	0	43	0	1557135360	10	4299
2026-01-28 09:48:46.05	26.60	15.63	-24.8	-25.8	17.5	0.00e+00	0	43	0	1563426816	10	4026
2026-01-28 09:48:47.05	26.39	15.62	-24.6	-25.2	17.8	0.00e+00	0	43	0	1568669696	10	3886
2026-01-28 09:48:48.06	26.17	15.60	-24.7	-25.4	17.7	0.00e+00	0	43	0	1574961152	10	3931
2026-01-28 09:48:49.06	25.96	15.59	-24.7	-25.5	17.7	0.00e+00	0	43	0	1580204032	10	3960
2026-01-28 09:48:50.07	25.74	15.57	-24.9	-25.9	17.5	0.00e+00	0	42	0	1585446912	10	4055
2026-01-28 09:48:51.07	25.53	15.56	-24.9	-26.0	17.4	0.00e+00	0	42	0	1591738368	10	4084
2026-01-28 09:48:52.07	25.32	15.54	-25.1	-26.3	17.3	0.00e+00	0	43	0	1596981248	10	4153
2026-01-28 09:48:53.07	25.10	15.52	-25.1	-26.3	17.2	0.00e+00	0	43	0	1603272704	10	4164
2026-01-28 09:48:54.08	24.89	15.50	-25.1	-26.4	17.2	0.00e+00	0	43	0	1608515584	10	4188
2026-01-28 09:48:55.09	24.67	15.49	-25.0	-26.1	17.4	0.00e+00	0	43	0	1613758464	10	4094
2026-01-28 09:48:56.10	24.46	15.47	-25.0	-26.1	17.4	0.00e+00	0	43	0	1620049920	10	4108
2026-01-28 09:48:57.10	24.25	15.45	-25.0	-26.1	17.4	0.00e+00	0	43	0	1625292800	10	4091
2026-01-28 09:48:58.11	24.03	15.43	-24.9	-26.0	17.4	0.00e+00	0	43	0	1630535680	10	4076
2026-01-28 09:48:59.11	23.82	15.41	-25.1	-26.3	17.3	0.00e+00	0	43	0	1636827136	10	4156
2026-01-28 09:49:00.11	23.61	15.39	-25.1	-26.4	17.2	0.00e+00	0	43	0	1642070016	10	4180
2026-01-28 09:49:01.11	23.40	15.37	-25.2	-26.6	17.1	0.00e+00	0	42	0	1648361472	10	4218
2026-01-28 09:49:02.11	23.19	15.35	-25.0	-26.2	17.3	0.00e+00	0	43	0	1653604352	10	4123
2026-01-28 09:49:03.12	22.98	15.33	-25.0	-26.1	17.4	0.00e+00	0	43	0	1658847232	10	4087
2026-01-28 09:49:04.12	22.77	15.31	-25.1	-26.3	17.2	0.00e+00	0	43	0	1665138688	10	4154
2026-01-28 09:49:05.13	22.56	15.29	-25.1	-26.4	17.2	0.00e+00	0	43	0	1670381568	10	4176
2026-01-28 09:49:06.13	22.35	15.26	-25.2	-26.6	17.1	0.00e+00	0	43	0	1676673024	10	4236
2026-01-28 09:49:07.14	22.13	15.24	-25.2	-26.6	17.1	0.00e+00	0	43	0	1681915904	10	4220
2026-01-28 09:49:08.14	21.93	15.22	-25.2	-26.7	17.0	0.00e+00	0	43	0	1687158784	10	4251
2026-01-28 09:49:09.14	21.72	15.19	-25.4	-26.9	16.9	0.00e+00	0	43	0	1693450240	10	4306
2026-01-28 09:49:10.14	21.51	15.17	-25.1	-26.4	17.2	0.00e+00	0	43	0	1698693120	10	4163
2026-01-28 09:49:11.14	21.30	15.15	-25.1	-26.3	17.3	0.00e+00	0	43	0	1703936000	10	4144
2026-01-28 09:49:12.14	21.09	15.12	-25.1	-26.5	17.2	0.00e+00	0	43	0	1710227456	10	4187
2026-01-28 09:49:13.15	20.89	15.10	-25.3	-26.7	17.0	0.00e+00	0	43	0	1715470336	10	4261
2026-01-28 09:49:14.15	20.68	15.07	-25.3	-26.8	17.0	0.00e+00	0	43	0	1721761792	10	4289
2026-01-28 09:49:15.15	20.47	15.05	-25.3	-26.9	16.9	0.00e+00	0	43	0	1727004672	10	4301
2026-01-28 09:49:16.16	20.26	15.02	-25.4	-27.0	16.8	0.00e+00	0	43	0	1732247552	10	4344
2026-01-28 09:49:17.16	20.06	15.00	-25.3	-26.8	17.0	0.00e+00	0	43	0	1738539008	10	4285
2026-01-28 09:49:18.16	19.85	14.97	-25.2	-26.6	17.1	0.00e+00	0	43	0	1743781888	10	4231
2026-01-28 09:49:19.16	19.65	14.94	-25.3	-26.8	16.9	0.00e+00	0	43	0	1749024768	10	4283
2026-01-28 09:49:20.16	19.45	14.92	-25.4	-27.0	16.9	0.00e+00	0	43	0	1755316224	10	4325
2026-01-28 09:49:21.16	19.24	14.89	-25.5	-26.8	16.7	0.00e+00	0	43	0	1760559104	11	4159
2026-01-28 09:49:22.16	19.04	14.86	-25.4	-26.6	16.8	0.00e+00	0	43	0	1765801984	11	4116
2026-01-28 09:49:23.16	18.83	14.83	-25.4	-26.5	16.8	0.00e+00	0	43	0	1772093440	11	4093
2026-01-28 09:49:24.17	18.63	14.80	-25.4	-26.5	16.8	0.00e+00	0	43	0	1777336320	11	4100
2026-01-28 09:49:25.18	18.42	14.78	-25.2	-26.1	17.0	0.00e+00	0	43	0	1783627776	11	3980
2026-01-28 09:49:26.18	18.22	14.75	-25.1	-25.9	17.1	1.10e-06	0	43	0	1788870656	11	3943
2026-01-28 09:49:27.19	18.02	14.72	-25.2	-26.1	17.0	0.00e+00	0	42	0	1795162112	11	3994
2026-01-28 09:49:28.19	17.82	14.69	-25.3	-26.4	16.9	0.00e+00	0	42	0	1800404992	11	4070
2026-01-28 09:49:29.19	17.62	14.66	-25.4	-26.5	16.8	0.00e+00	0	43	0	1805647872	11	4090
2026-01-28 09:49:30.19	17.42	14.63	-25.3	-26.4	16.9	0.00e+00	0	43	0	1811939328	11	4063
2026-01-28 09:49:31.19	17.22	14.60	-25.3	-26.2	16.9	0.00e+00	0	43	0	1817182208	11	4023
2026-01-28 09:49:32.20	17.01	14.57	-25.2	-26.2	17.0	0.00e+00	0	43	0	1822425088	11	4014
2026-01-28 09:49:33.20	16.82	14.53	-25.2	-26.2	17.0	0.00e+00	0	43	0	1828716544	11	4012
2026-01-28 09:49:34.21	16.61	14.50	-25.2	-26.2	17.0	0.00e+00	0	43	0	1833959424	11	4011
2026-01-28 09:49:35.21	16.42	14.47	-25.2	-26.2	17.0	0.00e+00	0	43	0	1839202304	11	4008
2026-01-28 09:49:36.21	16.22	14.44	-25.4	-26.5	16.8	0.00e+00	0	43	0	1845493760	11	4102
2026-01-28 09:49:37.21	16.02	14.41	-25.4	-26.5	16.8	0.00e+00	0	42	0	1850736640	11	4086
2026-01-28 09:49:38.22	15.82	14.37	-25.6	-26.9	16.6	0.00e+00	0	42	0	1857028096	11	4200
2026-01-28 09:49:39.22	15.63	14.34	-25.5	-26.7	16.7	0.00e+00	0	43	0	1862270976	11	4136
2026-01-28 09:49:40.22	15.43	14.31	-25.6	-26.9	16.5	0.00e+00	0	43	0	1867513856	11	4209
2026-01-28 09:49:41.23	15.23	14.27	-25.7	-27.1	16.4	0.00e+00	0	43	0	1873805312	11	4246
2026-01-28 09:49:42.23	15.04	14.24	-25.6	-27.1	16.4	0.00e+00	0	43	0	1879048192	11	4246
2026-01-28 09:49:43.24	14.84	14.20	-25.7	-27.1	16.4	0.00e+00	0	43	0	1885339648	11	4260
2026-01-28 09:49:44.24	14.65	14.17	-25.6	-27.1	16.5	0.00e+00	0	43	0	1890582528	11	4241
2026-01-28 09:49:45.24	14.45	14.13	-25.8	-27.3	16.3	0.00e+00	0	43	0	1895825408	11	4311
2026-01-28 09:49:46.25	14.26	14.10	-25.7	-27.2	16.4	2.20e-06	0	43	0	1902116864	11	4280
2026-01-28 09:49:47.25	14.06	14.06	-25.8	-27.5	16.2	0.00e+00	0	43	0	1907359744	11	4362
2026-01-28 09:49:48.26	13.87	14.03	-25.6	-27.0	16.5	0.00e+00	0	43	0	1912602624	11	4218
2026-01-28 09:49:49.26	13.68	13.99	-25.5	-26.8	16.6	0.00e+00	0	43	0	1918894080	11	4173
2026-01-28 09:49:50.27	13.48	13.96	-25.5	-26.8	16.6	0.00e+00	0	43	0	1924136960	11	4177
2026-01-28 09:49:51.27	13.29	13.92	-25.5	-26.7	16.7	0.00e+00	0	43	0	1930428416	11	4132
2026-01-28 09:49:52.28	13.10	13.88	-25.3	-26.3	16.9	0.00e+00	0	42	0	1935671296	11	4043
2026-01-28 09:49:53.28	12.91	13.85	-25.4	-26.5	16.7	0.00e+00	0	43	0	1941962752	11	4094
2026-01-28 09:49:54.28	12.72	13.81	-25.5	-26.8	16.6	0.00e+00	0	43	0	1947205632	11	4169
2026-01-28 09:49:55.28	12.53	13.77	-25.4	-26.6	16.7	0.00e+00	0	42	0	1952448512	11	4118
2026-01-28 09:49:56.29	12.34	13.73	-25.5	-26.7	16.6	0.00e+00	0	43	0	1958739968	11	4155
2026-01-28 09:49:57.29	12.15	13.70	-25.5	-26.8	16.6	0.00e+00	0	43	0	1963982848	11	4179
2026-01-28 09:49:58.30	11.96	13.66	-25.4	-26.6	16.7	0.00e+00	0	43	0	1969225728	11	4118
2026-01-28 09:49:59.30	11.78	13.62	-25.6	-26.9	16.5	0.00e+00	0	43	0	1975517184	11	4196
2026-01-28 09:50:00.30	11.59	13.58	-25.5	-26.9	16.5	0.00e+00	0	43	0	1980760064	11	4186
2026-01-28 09:50:01.31	11.40	13.54	-25.6	-26.9	16.5	0.00e+00	0	43	0	1986002944	11	4197
2026-01-28 09:50:02.31	11.22	13.50	-25.6	-27.1	16.4	0.00e+00	0	43	0	1992294400	11	4246
2026-01-28 09:50:03.31	11.03	13.46	-25.5	-26.8	16.6	1.10e-06	0	42	0	1997537280	11	4176
2026-01-28 09:50:04.31	10.85	13.42	-25.5	-26.7	16.6	0.00e+00	0	43	0	2003828736	11	4147
2026-01-28 09:50:05.31	10.66	13.38	-25.6	-27.0	16.4	0.00e+00	0	43	0	2009071616	11	4228
2026-01-28 09:50:06.31	10.48	13.34	-25.6	-26.9	16.5	0.00e+00	0	43	0	2014314496	11	4191
2026-01-28 09:50:07.32	10.29	13.30	-25.4	-26.6	16.7	0.00e+00	0	43	0	2020605952	11	4111
2026-01-28 09:50:08.32	10.11	13.26	-25.4	-26.6	16.7	0.00e+00	0	43	0	2025848832	11	4121
2026-01-28 09:50:09.32	9.93	13.22	-25.4	-26.5	16.7	0.00e+00	0	42	0	2031091712	11	4102
2026-01-28 09:50:10.32	9.75	13.18	-25.4	-26.5	16.7	0.00e+00	0	43	0	2037383168	11	4107
2026-01-28 09:50:11.32	9.57	13.14	-25.5	-26.8	16.6	0.00e+00	0	42	0	2042626048	11	4170
2026-01-28 09:50:12.32	9.39	13.10	-25.6	-26.9	16.5	0.00e+00	0	43	0	2047868928	11	4196
2026-01-28 09:50:13.33	9.21	13.06	-25.6	-26.9	16.5	0.00e+00	0	43	0	2054160384	11	4205
2026-01-28 09:50:14.33	9.03	13.01	-25.6	-27.0	16.4	0.00e+00	0	43	0	2059403264	11	4229
2026-01-28 09:50:15.33	8.85	12.97	-25.8	-27.3	16.2	0.00e+00	0	43	0	2065694720	11	4311
2026-01-28 09:50:16.33	8.67	12.93	-25.7	-27.3	16.3	0.00e+00	0	43	0	2070937600	11	4295
2026-01-28 09:50:17.33	8.49	12.89	-25.9	-27.2	16.0	0.00e+00	0	43	0	2077229056	12	4171
2026-01-28 09:50:18.33	8.31	12.85	-25.8	-26.9	16.2	0.00e+00	0	43	0	2082471936	12	4096
2026-01-28 09:50:19.34	8.13	12.80	-25.8	-26.9	16.2	0.00e+00	0	43	0	2087714816	12	4097
2026-01-28 09:50:20.35	7.96	12.76	-25.8	-27.0	16.1	0.00e+00	0	43	0	2094006272	12	4135
2026-01-28 09:50:21.35	7.78	12.72	-25.8	-26.9	16.2	0.00e+00	0	43	0	2099249152	12	4091
2026-01-28 09:50:22.35	7.61	12.67	-25.8	-26.9	16.1	0.00e+00	0	43	0	2104492032	12	4107
2026-01-28 09:50:23.35	7.43	12.63	-26.0	-27.4	15.9	0.00e+00	0	43	0	2110783488	12	4211
2026-01-28 09:50:24.36	7.25	12.58	-25.8	-26.8	16.2	0.00e+00	0	43	0	2116026368	12	4077
2026-01-28 09:50:25.36	7.08	12.54	-25.6	-26.5	16.4	0.00e+00	0	43	0	2122317824	12	3984
2026-01-28 09:50:26.36	6.91	12.50	-25.6	-26.5	16.3	0.00e+00	0	43	0	2127560704	12	3997
2026-01-28 09:50:27.37	6.73	12.45	-25.6	-26.5	16.3	0.00e+00	0	43	0	2132803584	12	4006
2026-01-28 09:50:28.37	6.56	12.41	-25.7	-26.7	16.2	0.00e+00	0	43	0	2139095040	12	4035
2026-01-28 09:50:29.37	6.39	12.36	-25.7	-26.8	16.2	0.00e+00	0	43	0	2144337920	12	4067
2026-01-28 09:50:30.38	6.22	12.32	-25.7	-26.8	16.1	0.00e+00	0	43	0	2150629376	12	4078
2026-01-28 09:50:31.39	6.04	12.27	-25.8	-26.9	16.1	0.00e+00	0	43	0	2155872256	12	4097
2026-01-28 09:50:32.39	5.87	12.23	-25.8	-27.0	16.0	0.00e+00	0	43	0	2161115136	12	4123
2026-01-28 09:50:33.39	5.71	12.18	-25.9	-27.1	15.9	0.00e+00	0	43	0	2167406592	12	4160
2026-01-28 09:50:34.39	5.54	12.14	-25.9	-27.1	15.9	0.00e+00	0	43	0	2172649472	12	4160
2026-01-28 09:50:35.40	5.37	12.09	-26.0	-27.3	15.9	0.00e+00	0	43	0	2177892352	12	4197
2026-01-28 09:50:36.40	5.20	12.04	-25.9	-27.3	15.8	0.00e+00	0	43	0	2184183808	12	4200
2026-01-28 09:50:37.40	5.03	12.00	-25.9	-27.2	15.8	0.00e+00	0	43	0	2189426688	12	4185
2026-01-28 09:50:38.41	4.86	11.95	-25.8	-27.0	16.0	0.00e+00	0	43	0	2195718144	12	4131
2026-01-28 09:50:39.40	4.70	11.91	-25.7	-26.8	16.1	0.00e+00	0	43	0	2200961024	12	4078
2026-01-28 09:50:40.41	4.53	11.86	-25.7	-26.8	16.1	0.00e+00	0	43	0	2206203904	12	4068
2026-01-28 09:50:41.41	4.37	11.81	-25.8	-27.0	16.0	0.00e+00	0	43	0	2212495360	12	4123
2026-01-28 09:50:42.42	4.20	11.77	-25.9	-27.2	15.9	2.20e-06	0	43	0	2217738240	12	4172
2026-01-28 09:50:43.41	4.04	11.72	-25.9	-27.2	15.8	0.00e+00	0	43	0	2222981120	12	4172
2026-01-28 09:50:44.42	3.87	11.67	-25.9	-27.1	15.9	0.00e+00	0	43	0	2229272576	12	4161
2026-01-28 09:50:45.42	3.71	11.63	-25.9	-27.3	15.9	0.00e+00	0	43	0	2234515456	12	4192
2026-01-28 09:50:46.42	3.55	11.58	-26.0	-27.4	15.8	0.00e+00	0	43	0	2239758336	12	4222
2026-01-28 09:50:47.43	3.38	11.53	-25.8	-26.9	16.1	0.00e+00	0	43	0	2246049792	12	4094
2026-01-28 09:50:48.44	3.22	11.48	-25.7	-26.8	16.1	0.00e+00	0	43	0	2251292672	12	4059
2026-01-28 09:50:49.44	3.06	11.43	-25.8	-26.9	16.1	0.00e+00	0	43	0	2257584128	12	4087
2026-01-28 09:50:50.44	2.90	11.39	-25.8	-26.9	16.0	0.00e+00	0	43	0	2262827008	12	4113
2026-01-28 09:50:51.44	2.74	11.34	-25.9	-27.3	15.8	0.00e+00	0	43	0	2269118464	12	4192
2026-01-28 09:50:52.44	2.58	11.29	-26.0	-27.4	15.7	0.00e+00	0	43	0	2274361344	12	4226
2026-01-28 09:50:53.44	2.42	11.24	-26.0	-27.3	15.7	0.00e+00	0	43	0	2279604224	12	4216
2026-01-28 09:50:54.44	2.26	11.20	-25.9	-27.3	15.8	0.00e+00	0	43	0	2285895680	12	4209
2026-01-28 09:50:55.44	2.10	11.15	-25.9	-27.2	15.8	0.00e+00	0	43	0	2291138560	12	4176
2026-01-28 09:50:56.44	1.95	11.10	-25.9	-27.1	15.9	0.00e+00	0	43	0	2296381440	12	4150
2026-01-28 09:50:57.44	1.79	11.05	-26.0	-27.4	15.7	0.00e+00	0	43	0	2302672896	12	4218
2026-01-28 09:50:58.44	1.63	11.00	-26.0	-27.5	15.6	0.00e+00	0	43	0	2307915776	12	4249
2026-01-28 09:50:59.45	1.48	10.95	-26.1	-27.5	15.6	0.00e+00	0	43	0	2313158656	12	4267
2026-01-28 09:51:00.45	1.32	10.90	-26.2	-27.8	15.4	0.00e+00	0	43	0	2319450112	12	4339
2026-01-28 09:51:01.46	1.17	10.85	-26.3	-28.1	15.3	0.00e+00	0	43	0	2324692992	12	4416
2026-01-28 09:51:02.46	1.01	10.80	-26.4	-28.3	15.1	0.00e+00	0	43	0	2330984448	12	4491
2026-01-28 09:51:03.46	0.86	10.76	-26.5	-28.0	15.1	0.00e+00	0	43	0	2336227328	13	4272
2026-01-28 09:51:04.46	0.71	10.71	-26.5	-28.1	15.0	0.00e+00	0	43	0	2341470208	13	4320
2026-01-28 09:51:05.47	0.55	10.66	-26.7	-28.4	14.8	0.00e+00	0	43	0	2347761664	13	4403
2026-01-28 09:51:06.48	0.40	10.61	-26.7	-28.5	14.8	1.10e-06	0	43	0	2353004544	13	4414
2026-01-28 09:51:07.48	0.25	10.56	-26.8	-28.7	14.6	1.10e-06	0	43	0	2359296000	13	4479
2026-01-28 09:51:08.49	0.09	10.51	-27.0	-28.7	14.4	1.10e-06	0	43	0	2364538880	14	4355
2026-01-28 09:51:09.49	359.94	10.46	-26.8	-28.3	14.6	1.10e-06	0	43	0	2369781760	14	4249
2026-01-28 09:51:10.49	359.79	10.41	-27.0	-28.6	14.4	1.10e-06	0	43	0	2376073216	14	4340
2026-01-28 09:51:11.49	359.65	10.36	-27.1	-28.8	14.3	2.20e-06	0	43	0	2381316096	14	4398
2026-01-28 09:51:12.50	359.50	10.31	-27.0	-28.7	14.3	0.00e+00	0	43	0	2386558976	14	4361
2026-01-28 09:51:13.50	359.35	10.26	-26.9	-28.5	14.4	0.00e+00	0	43	0	2392850432	14	4326
2026-01-28 09:51:14.50	359.20	10.21	-27.1	-28.8	14.2	1.10e-06	0	43	0	2398093312	14	4403
2026-01-28 09:51:15.51	359.05	10.15	-27.0	-28.7	14.3	3.40e-06	0	43	0	2404384768	14	4355
2026-01-28 09:51:16.51	358.90	10.10	-26.9	-28.5	14.5	0.00e+00	0	43	0	2409627648	14	4297
2026-01-28 09:51:17.51	358.76	10.05	-26.8	-28.3	14.5	5.70e-06	0	42	0	2414870528	14	4264
2026-01-28 09:51:18.51	358.61	10.00	-26.7	-28.1	14.7	3.40e-06	0	43	0	2421161984	14	4207
2026-01-28 09:51:19.51	358.47	9.95	-26.9	-28.4	14.5	1.10e-06	0	43	0	2426404864	14	4285
2026-01-28 09:51:20.52	358.32	9.90	-27.0	-28.6	14.3	4.50e-06	0	43	0	2431647744	14	4352
2026-01-28 09:51:21.52	358.18	9.85	-26.9	-28.4	14.5	1.10e-06	0	43	0	2437939200	14	4289
2026-01-28 09:51:22.53	358.03	9.80	-26.9	-28.5	14.4	1.10e-06	0	43	0	2443182080	14	4308
2026-01-28 09:51:23.54	357.89	9.75	-27.0	-28.6	14.4	3.40e-06	0	43	0	2449473536	14	4344
2026-01-28 09:51:24.54	357.75	9.70	-27.0	-28.7	14.2	4.50e-06	0	43	0	2454716416	14	4384
2026-01-28 09:51:25.55	357.60	9.65	-26.6	-27.8	14.7	0.00e+00	0	43	0	2459959296	14	4143
2026-01-28 09:51:26.56	357.46	9.59	-26.5	-27.7	14.9	0.00e+00	0	43	0	2466250752	14	4096
2026-01-28 09:51:27.56	357.32	9.54	-26.4	-27.4	15.0	0.00e+00	0	43	0	2471493632	14	4015
2026-01-28 09:51:28.57	357.18	9.49	-26.5	-27.6	14.9	0.00e+00	0	43	0	2477785088	14	4071
2026-01-28 09:51:29.57	357.04	9.44	-26.6	-27.7	14.8	0.00e+00	0	43	0	2483027968	14	4113
2026-01-28 09:51:30.57	356.90	9.39	-26.6	-27.7	14.8	0.00e+00	0	43	0	2488270848	14	4108
2026-01-28 09:51:31.57	356.76	9.34	-26.7	-27.9	14.7	0.00e+00	0	43	0	2494562304	14	4157
2026-01-28 09:51:32.58	356.62	9.29	-26.6	-27.9	14.7	1.10e-06	0	43	0	2499805184	14	4144
2026-01-28 09:51:33.57	356.48	9.23	-26.6	-27.9	14.7	1.10e-06	0	43	0	2506096640	14	4146
2026-01-28 09:51:34.57	356.34	9.18	-26.6	-27.8	14.8	1.10e-06	0	43	0	2511339520	14	4121
2026-01-28 09:51:35.58	356.21	9.13	-26.8	-28.1	14.5	1.10e-06	0	43	0	2516582400	14	4218
2026-01-28 09:51:36.59	356.07	9.08	-26.9	-28.4	14.4	3.40e-06	0	43	0	2522873856	14	4279
2026-01-28 09:51:37.60	355.93	9.03	-26.9	-28.4	14.4	0.00e+00	0	43	0	2528116736	14	4289
2026-01-28 09:51:38.60	355.80	8.97	-27.3	-29.3	13.9	5.70e-06	0	43	0	2533359616	14	4555
2026-01-28 09:51:39.60	355.66	8.92	-27.2	-29.1	14.0	5.70e-06	0	43	0	2539651072	14	4493
2026-01-28 09:51:40.61	355.52	8.87	-27.1	-29.0	14.0	4.50e-06	0	43	0	2544893952	14	4462
2026-01-28 09:51:41.62	355.39	8.82	-27.0	-28.7	14.1	3.40e-06	0	43	0	2551185408	14	4391
2026-01-28 09:51:42.62	355.26	8.77	-27.2	-29.2	13.9	6.80e-06	0	43	0	2556428288	14	4524
2026-01-28 09:51:43.62	355.12	8.71	-27.2	-29.2	13.8	1.60e-05	0	43	0	2561671168	14	4525
2026-01-28 09:51:44.63	354.99	8.66	-27.0	-28.7	14.1	2.20e-06	0	43	0	2567962624	14	4391
2026-01-28 09:51:45.63	354.86	8.61	-27.0	-28.7	14.1	0.00e+00	0	43	0	2573205504	14	4377
2026-01-28 09:51:46.63	354.73	8.56	-27.0	-28.6	14.1	4.50e-06	0	43	0	2579496960	14	4360
2026-01-28 09:51:47.63	354.59	8.51	-27.2	-29.1	13.9	1.10e-06	0	43	0	2584739840	14	4486
2026-01-28 09:51:48.63	354.46	8.45	-27.1	-29.0	13.9	1.14e-05	0	43	0	2589982720	14	4462
2026-01-28 09:51:49.64	354.33	8.40	-27.3	-29.5	13.7	9.10e-06	0	43	0	2596274176	14	4616
2026-01-28 09:51:50.64	354.20	8.35	-27.2	-29.2	13.8	9.10e-06	0	43	0	2601517056	14	4523
2026-01-28 09:51:51.64	354.07	8.30	-27.1	-28.9	14.0	3.40e-06	0	43	0	2606759936	14	4446
2026-01-28 09:51:52.64	353.94	8.24	-26.9	-28.6	14.2	2.20e-06	0	43	0	2613051392	14	4351
2026-01-28 09:51:53.64	353.82	8.19	-26.9	-28.4	14.3	1.10e-06	0	43	0	2618294272	14	4300
2026-01-28 09:51:54.64	353.69	8.14	-26.8	-28.3	14.4	1.10e-06	0	43	0	2624585728	14	4273
2026-01-28 09:51:55.65	353.56	8.09	-26.9	-28.3	14.4	1.10e-06	0	43	0	2629828608	14	4275
2026-01-28 09:51:56.66	353.43	8.03	-26.9	-28.6	14.2	4.50e-06	0	43	0	2635071488	14	4346
2026-01-28 09:51:57.66	353.31	7.98	-26.9	-28.4	14.3	3.40e-06	0	43	0	2641362944	14	4307
2026-01-28 09:51:58.66	353.18	7.93	-26.8	-28.4	14.3	4.50e-06	0	43	0	2646605824	14	4286
2026-01-28 09:51:59.65	353.06	7.88	-26.9	-28.5	14.2	3.40e-06	0	43	0	2651848704	14	4339
2026-01-28 09:52:00.66	352.93	7.82	-26.9	-28.6	14.2	9.10e-06	0	43	0	2658140160	14	4360
2026-01-28 09:52:01.66	352.81	7.77	-27.0	-28.8	14.0	0.00e+00	0	43	0	2663383040	14	4417
2026-01-28 09:52:02.66	352.68	7.72	-27.1	-28.9	14.0	3.40e-06	0	43	0	2668625920	14	4448
2026-01-28 09:52:03.67	352.56	7.67	-27.0	-28.8	14.0	4.50e-06	0	43	0	2674917376	14	4419
2026-01-28 09:52:04.67	352.43	7.61	-27.0	-28.8	14.0	6.80e-06	0	43	0	2680160256	14	4420
2026-01-28 09:52:05.68	352.31	7.56	-27.0	-28.8	14.0	1.10e-06	0	43	0	2686451712	14	4418
2026-01-28 09:52:06.68	352.19	7.51	-27.2	-29.2	13.7	1.02e-05	0	43	0	2691694592	14	4536
2026-01-28 09:52:07.69	352.07	7.45	-27.3	-29.3	13.7	1.48e-05	0	43	0	2697986048	14	4567
2026-01-28 09:52:08.69	351.94	7.40	-27.4	-29.6	13.5	2.05e-05	0	43	0	2703228928	14	4663
2026-01-28 09:52:09.69	351.82	7.35	-27.4	-29.6	13.5	2.97e-05	0	43	0	2708471808	14	4665
2026-01-28 09:52:10.70	351.70	7.30	-27.4	-29.8	13.4	2.51e-05	0	43	0	2714763264	14	4702
2026-01-28 09:52:11.71	351.58	7.24	-27.6	-29.7	13.1	4.92e-05	0	43	0	2720006144	15	4573
2026-01-28 09:52:12.71	351.46	7.19	-27.5	-29.5	13.2	5.14e-05	0	43	0	2725249024	15	4502
2026-01-28 09:52:13.71	351.34	7.14	-27.5	-29.5	13.2	2.74e-05	0	43	0	2731540480	15	4496
2026-01-28 09:52:14.72	351.22	7.08	-27.6	-29.7	13.1	4.69e-05	0	42	0	2736783360	15	4581
2026-01-28 09:52:15.72	351.10	7.03	-32.9	-43.8	3.8	3.22e-01	0	43	104	2742026240	25	12593
2026-01-28 09:52:16.72	350.99	6.98	-33.3	-44.3	3.8	8.46e-01	0	43	104	2742026240	26	12791
2026-01-28 09:52:17.72	350.87	6.93	-33.6	-44.7	3.8	8.47e-01	0	43	104	2742026240	27	12954
2026-01-28 09:52:18.72	350.75	6.87	-33.8	-45.0	3.8	8.46e-01	0	43	104	2742026240	27	13143

#Closed at: 2026-01-28 09:52:19
#Recorded file [2742 MB]: D:/data/31010_260128_124407.dat