passes_logs/2026/01/28/R2M6_AANII_01/R2M6_AANII_01__20260128_081615_NOAA_21_JPSS-2_rec.log

#Pass ID: 20260128_081615_NOAA 21 (JPSS-2)
#Satellite: NOAA 21 (JPSS-2)
#Configuration: NOAA 21
#almurnet v.1.7.20240730
#Start time: 2026-01-28 08:16:14

#Version: 2.2.20231116
#Station: R2M6_AANII_01
#Location: 30.233357 lon 59.946436 lat
#TLE: 1 54234U 22150A   26027.55906748  .00000170  00000+0  10132-3 0  9996
#TLE: 2 54234  98.7510 328.3076 0000860 204.4692 155.6443 14.19540154166599

#Time	Az	El	Level	Level2	SNR	BER	BlckErr	Temp	State	Recorded	gain1	gain2
2026-01-28 08:16:14.81	96.70	6.98	-31.1	-42.5	3.8	1.49e+00	0	39	0	0	23	13436
2026-01-28 08:16:15.81	96.61	7.04	-31.1	-42.5	3.8	1.49e+00	0	40	104	0	23	13453
2026-01-28 08:16:16.81	96.51	7.10	-31.0	-42.4	3.8	1.49e+00	0	40	104	0	23	13346
2026-01-28 08:16:17.82	96.41	7.16	-31.0	-42.3	3.8	1.49e+00	0	40	104	0	23	13241
2026-01-28 08:16:18.82	96.31	7.22	-30.9	-42.1	3.8	1.49e+00	0	40	104	0	23	13104
2026-01-28 08:16:19.83	96.21	7.29	-30.8	-41.9	3.8	1.49e+00	0	40	104	0	23	12983
2026-01-28 08:16:20.83	96.11	7.35	-30.8	-42.4	3.8	1.49e+00	0	40	104	0	22	13714
2026-01-28 08:16:21.84	96.01	7.41	-30.7	-42.3	3.8	1.49e+00	0	40	104	0	22	13688
2026-01-28 08:16:22.85	95.91	7.48	-30.8	-42.4	3.8	1.49e+00	0	40	104	0	22	13783
2026-01-28 08:16:23.85	95.81	7.54	-30.8	-42.4	3.8	1.49e+00	0	40	104	0	22	13750
2026-01-28 08:16:24.86	95.71	7.60	-30.8	-42.4	3.8	1.49e+00	0	40	104	0	22	13794
2026-01-28 08:16:25.86	95.61	7.67	-30.8	-42.5	3.8	1.49e+00	0	40	104	0	22	13838
2026-01-28 08:16:26.86	95.51	7.73	-30.8	-42.5	3.8	1.49e+00	0	40	104	0	22	13866
2026-01-28 08:16:27.86	95.41	7.79	-30.9	-42.6	3.8	1.49e+00	0	40	104	0	22	13944
2026-01-28 08:16:28.87	95.30	7.85	-30.9	-42.7	3.8	1.49e+00	0	40	104	0	22	13926
2026-01-28 08:16:29.88	95.20	7.92	-31.0	-42.8	3.8	1.49e+00	0	40	104	0	22	14057
2026-01-28 08:16:30.88	95.10	7.98	-31.0	-42.8	3.8	1.49e+00	0	40	104	0	22	14035
2026-01-28 08:16:31.89	94.99	8.05	-31.0	-42.9	3.8	1.49e+00	0	40	104	0	22	14049
2026-01-28 08:16:32.89	94.89	8.11	-31.1	-42.9	3.8	1.49e+00	0	40	104	0	22	14085
2026-01-28 08:16:33.90	94.78	8.17	-31.1	-42.9	3.8	1.49e+00	0	40	104	0	22	14078
2026-01-28 08:16:34.91	94.68	8.24	-31.1	-42.9	3.8	1.49e+00	0	40	104	0	22	14081
2026-01-28 08:16:35.92	94.57	8.30	-31.1	-43.0	3.8	1.49e+00	0	40	104	0	22	14168
2026-01-28 08:16:36.92	94.46	8.36	-31.2	-43.1	3.8	1.49e+00	0	40	104	0	22	14239
2026-01-28 08:16:37.92	94.36	8.43	-31.2	-43.1	3.8	1.49e+00	0	40	104	0	22	14186
2026-01-28 08:16:38.93	94.25	8.49	-31.2	-42.9	3.8	1.49e+00	0	40	104	0	22	13858
2026-01-28 08:16:39.93	94.14	8.56	-31.3	-42.7	3.8	1.49e+00	0	40	104	0	22	13464
2026-01-28 08:16:40.93	94.03	8.62	-31.3	-42.8	3.8	1.49e+00	0	40	104	0	22	13448
2026-01-28 08:16:41.94	93.92	8.68	-31.3	-42.9	3.8	1.49e+00	0	40	104	0	22	13686
2026-01-28 08:16:42.95	93.81	8.75	-31.4	-43.1	3.8	1.49e+00	0	40	104	0	22	13798
2026-01-28 08:16:43.96	93.70	8.81	-31.4	-43.0	3.8	1.49e+00	0	40	104	0	22	13630
2026-01-28 08:16:44.96	93.59	8.88	-31.4	-42.6	3.8	1.49e+00	0	40	104	0	22	13005
2026-01-28 08:16:45.96	93.48	8.94	-31.4	-41.2	4.0	1.49e+00	0	41	104	0	22	11128
2026-01-28 08:16:46.96	93.37	9.01	-31.2	-40.1	3.9	1.48e+00	0	40	104	0	22	10021
2026-01-28 08:16:47.97	93.26	9.07	-31.1	-38.6	4.8	8.72e-01	0	40	104	0	22	8515
2026-01-28 08:16:48.97	93.15	9.13	-31.3	-39.9	4.0	1.47e+00	0	40	104	0	22	9781
2026-01-28 08:16:49.97	93.04	9.20	-31.4	-39.2	4.8	9.04e-01	0	40	104	0	22	8837
2026-01-28 08:16:50.97	92.92	9.26	-30.9	-36.3	6.5	4.09e-01	0	40	104	0	22	6675
2026-01-28 08:16:51.98	92.81	9.33	-30.4	-33.9	8.5	6.23e-02	0	41	104	0	22	5416
2026-01-28 08:16:52.98	92.69	9.39	-30.6	-34.5	8.3	4.43e-02	0	41	104	0	22	5618
2026-01-28 08:16:53.99	92.58	9.46	-31.3	-36.8	6.8	1.51e-01	0	40	104	0	22	6811
2026-01-28 08:16:54.99	92.46	9.52	-30.9	-35.2	8.0	8.70e-02	0	41	104	0	22	5927
2026-01-28 08:16:55.99	92.35	9.59	-30.8	-35.0	8.2	5.29e-02	0	41	104	0	22	5800
2026-01-28 08:16:57.00	92.23	9.65	-31.2	-36.4	7.3	8.96e-02	0	41	104	0	22	6522
2026-01-28 08:16:58.00	92.11	9.72	-31.2	-36.0	7.6	1.22e-01	0	40	104	0	22	6323
2026-01-28 08:16:59.00	92.00	9.78	-31.2	-36.2	7.5	9.70e-02	0	41	104	0	22	6395
2026-01-28 08:17:00.00	91.88	9.85	-31.5	-37.0	6.6	1.89e-01	0	41	104	0	23	6758
2026-01-28 08:17:01.01	91.76	9.91	-31.4	-36.3	7.1	1.52e-01	0	41	104	0	23	6337
2026-01-28 08:17:02.01	91.64	9.98	-31.0	-35.0	8.1	6.58e-02	0	41	104	0	23	5653
2026-01-28 08:17:03.01	91.52	10.04	-30.8	-34.2	8.7	4.38e-02	0	41	104	0	23	5305
2026-01-28 08:17:04.02	91.40	10.11	-30.5	-33.8	9.4	1.76e-02	0	41	104	0	22	5223
2026-01-28 08:17:05.01	91.28	10.17	-30.1	-33.0	10.3	7.15e-03	0	41	104	0	21	5028
2026-01-28 08:17:06.02	91.16	10.24	-30.0	-32.6	10.6	3.54e-03	0	41	104	0	21	4871
2026-01-28 08:17:07.03	91.04	10.31	-29.9	-32.2	11.0	1.80e-03	0	41	104	0	21	4709
2026-01-28 08:17:08.03	90.92	10.37	-29.7	-32.3	11.3	1.67e-03	0	41	104	0	20	4848
2026-01-28 08:17:09.03	90.79	10.44	-29.8	-32.6	11.1	1.70e-03	0	41	104	0	20	4943
2026-01-28 08:17:10.04	90.67	10.50	-29.8	-32.6	11.1	1.41e-03	0	41	104	0	20	4935
2026-01-28 08:17:11.05	90.54	10.57	-29.4	-31.5	11.8	6.10e-04	0	41	104	0	20	4556
2026-01-28 08:17:12.05	90.42	10.63	-29.1	-31.1	12.5	1.22e-04	0	41	104	0	19	4534
2026-01-28 08:17:13.06	90.29	10.70	-28.8	-30.3	13.1	4.42e-05	0	41	104	0	19	4275
2026-01-28 08:17:14.06	90.17	10.77	-28.6	-30.2	13.4	1.29e-05	0	41	104	0	18	4364
2026-01-28 08:17:15.07	90.04	10.83	-28.5	-30.2	13.5	1.29e-05	0	41	104	0	18	4342
2026-01-28 08:17:16.07	89.91	10.90	-28.4	-29.9	13.7	1.14e-05	0	41	104	0	18	4259
2026-01-28 08:17:17.07	89.79	10.96	-28.4	-29.8	13.7	8.30e-06	0	41	104	0	18	4253
2026-01-28 08:17:18.07	89.66	11.03	-28.5	-30.0	13.6	9.10e-06	0	41	104	0	18	4288
2026-01-28 08:17:19.08	89.53	11.10	-28.4	-29.8	13.7	7.60e-06	0	41	104	0	18	4233
2026-01-28 08:17:20.08	89.40	11.16	-28.3	-29.7	13.8	3.80e-06	0	41	104	0	18	4197
2026-01-28 08:17:21.09	89.27	11.23	-28.4	-29.7	13.8	6.80e-06	0	41	104	0	18	4210
2026-01-28 08:17:22.10	89.14	11.29	-28.2	-29.8	14.0	2.20e-06	0	41	104	0	17	4326
2026-01-28 08:17:23.10	89.01	11.36	-28.1	-29.6	14.1	0.00e+00	0	41	104	0	17	4276
2026-01-28 08:17:24.11	88.88	11.43	-28.0	-29.3	14.3	0.00e+00	0	41	104	0	17	4192
2026-01-28 08:17:25.11	88.74	11.49	-28.0	-29.2	14.4	1.50e-06	0	41	104	0	17	4172
2026-01-28 08:17:26.12	88.61	11.56	-27.9	-29.1	14.5	3.00e-06	0	41	104	0	17	4143
2026-01-28 08:17:27.12	88.48	11.63	-27.9	-29.1	14.5	0.00e+00	0	41	104	0	17	4135
2026-01-28 08:17:28.13	88.34	11.69	-27.9	-29.2	14.5	7.00e-07	0	41	104	0	17	4159
2026-01-28 08:17:29.14	88.21	11.76	-27.9	-29.2	14.4	0.00e+00	0	41	104	0	17	4161
2026-01-28 08:17:30.14	88.07	11.83	-28.1	-29.5	14.3	2.20e-06	0	41	104	0	17	4237
2026-01-28 08:17:31.14	87.94	11.89	-27.9	-29.2	14.5	7.00e-07	0	41	104	0	17	4163
2026-01-28 08:17:32.15	87.80	11.96	-27.9	-29.2	14.5	7.00e-07	0	41	104	0	17	4157
2026-01-28 08:17:33.16	87.66	12.03	-28.0	-29.3	14.4	7.00e-07	0	41	104	0	17	4182
2026-01-28 08:17:34.16	87.52	12.09	-27.9	-29.0	14.6	7.00e-07	0	41	104	0	17	4115
2026-01-28 08:17:35.16	87.39	12.16	-27.8	-29.3	14.7	0.00e+00	0	41	104	0	16	4300
2026-01-28 08:17:36.16	87.25	12.22	-27.8	-29.3	14.7	0.00e+00	0	41	104	0	16	4291
2026-01-28 08:17:37.16	87.11	12.29	-27.8	-29.4	14.7	0.00e+00	0	41	104	0	16	4323
2026-01-28 08:17:38.17	86.97	12.36	-27.8	-29.4	14.7	7.00e-07	0	41	104	0	16	4333
2026-01-28 08:17:39.17	86.83	12.42	-27.8	-29.3	14.8	0.00e+00	0	41	104	0	16	4278
2026-01-28 08:17:40.18	86.68	12.49	-27.8	-29.4	14.7	0.00e+00	0	41	104	0	16	4325
2026-01-28 08:17:41.18	86.54	12.56	-27.9	-29.6	14.6	7.00e-07	0	41	104	0	16	4383
2026-01-28 08:17:42.18	86.40	12.62	-28.0	-29.7	14.5	1.50e-06	0	41	104	0	16	4414
2026-01-28 08:17:43.18	86.25	12.69	-28.0	-29.9	14.5	7.00e-07	0	41	104	0	16	4457
2026-01-28 08:17:44.18	86.11	12.76	-28.2	-30.2	14.3	0.00e+00	0	41	104	0	16	4546
2026-01-28 08:17:45.19	85.97	12.82	-28.1	-30.1	14.4	1.50e-06	0	41	104	0	16	4513
2026-01-28 08:17:46.20	85.82	12.89	-28.3	-30.4	14.2	1.50e-06	0	41	104	0	16	4611
2026-01-28 08:17:47.20	85.67	12.96	-28.3	-30.5	14.1	2.20e-06	0	41	104	0	16	4639
2026-01-28 08:17:48.21	85.52	13.02	-28.1	-30.1	14.3	0.00e+00	0	41	104	0	16	4523
2026-01-28 08:17:49.21	85.38	13.09	-28.1	-30.1	14.4	7.00e-07	0	41	104	0	16	4519
2026-01-28 08:17:50.21	85.23	13.16	-28.1	-30.1	14.3	1.50e-06	0	41	104	0	16	4536
2026-01-28 08:17:51.22	85.08	13.22	-28.2	-30.3	14.2	7.00e-07	0	41	104	0	16	4589
2026-01-28 08:17:52.22	84.93	13.29	-28.2	-30.2	14.4	0.00e+00	0	41	104	0	16	4543
2026-01-28 08:17:53.23	84.78	13.36	-28.2	-30.2	14.3	1.50e-06	0	41	104	0	16	4560
2026-01-28 08:17:54.23	84.63	13.42	-28.2	-30.2	14.3	1.50e-06	0	41	104	0	16	4558
2026-01-28 08:17:55.24	84.48	13.49	-28.2	-30.2	14.3	0.00e+00	0	41	104	0	16	4553
2026-01-28 08:17:56.24	84.32	13.55	-28.3	-30.4	14.2	1.50e-06	0	41	104	0	16	4608
2026-01-28 08:17:57.24	84.17	13.62	-28.3	-30.5	14.2	1.50e-06	0	41	104	0	16	4645
2026-01-28 08:17:58.25	84.02	13.69	-28.1	-30.1	14.4	7.00e-07	0	41	104	0	16	4503
2026-01-28 08:17:59.25	83.86	13.75	-28.1	-29.9	14.5	0.00e+00	0	41	104	0	16	4461
2026-01-28 08:18:00.25	83.71	13.82	-28.1	-30.0	14.5	7.00e-07	0	41	104	0	16	4498
2026-01-28 08:18:01.25	83.55	13.89	-27.9	-29.6	14.7	0.00e+00	0	41	104	0	16	4379
2026-01-28 08:18:02.26	83.39	13.95	-28.0	-29.8	14.6	3.00e-06	0	41	104	0	16	4428
2026-01-28 08:18:03.26	83.24	14.02	-28.2	-30.2	14.3	0.00e+00	0	41	104	0	16	4548
2026-01-28 08:18:04.27	83.08	14.08	-28.2	-30.2	14.4	2.20e-06	0	41	104	0	16	4545
2026-01-28 08:18:05.28	82.92	14.15	-28.3	-30.5	14.2	3.00e-06	0	41	104	0	16	4654
2026-01-28 08:18:06.28	82.76	14.22	-28.3	-30.5	14.2	3.00e-06	0	41	104	0	16	4622
2026-01-28 08:18:07.28	82.60	14.28	-28.3	-30.6	14.2	2.20e-06	0	41	104	0	16	4673
2026-01-28 08:18:08.29	82.44	14.35	-28.3	-30.5	14.2	0.00e+00	0	41	104	0	16	4639
2026-01-28 08:18:09.30	82.28	14.42	-28.3	-30.6	14.2	0.00e+00	0	42	104	0	16	4673
2026-01-28 08:18:10.31	82.11	14.48	-28.3	-30.5	14.3	7.00e-07	0	41	104	0	16	4624
2026-01-28 08:18:11.31	81.95	14.55	-28.4	-30.3	14.1	3.80e-06	0	41	104	0	17	4459
2026-01-28 08:18:12.31	81.79	14.61	-28.2	-29.8	14.4	1.50e-06	0	41	104	0	17	4303
2026-01-28 08:18:13.32	81.62	14.68	-28.0	-29.3	14.7	0.00e+00	0	41	104	0	17	4182
2026-01-28 08:18:14.32	81.46	14.74	-28.0	-29.1	14.8	0.00e+00	0	41	104	0	17	4131
2026-01-28 08:18:15.33	81.29	14.81	-28.1	-29.4	14.7	0.00e+00	0	42	104	0	17	4188
2026-01-28 08:18:16.34	81.12	14.88	-28.0	-29.3	14.7	0.00e+00	0	42	104	0	17	4183
2026-01-28 08:18:17.34	80.95	14.94	-28.2	-29.7	14.5	1.50e-06	0	41	104	0	17	4276
2026-01-28 08:18:18.34	80.79	15.01	-28.1	-29.6	14.5	1.50e-06	0	41	104	0	17	4250
2026-01-28 08:18:19.35	80.62	15.07	-28.1	-29.6	14.6	0.00e+00	0	41	104	0	17	4252
2026-01-28 08:18:20.35	80.45	15.14	-28.1	-29.4	14.7	0.00e+00	0	41	104	0	17	4204
2026-01-28 08:18:21.36	80.27	15.20	-28.0	-29.3	14.7	1.50e-06	0	41	104	0	17	4177
2026-01-28 08:18:22.36	80.10	15.27	-28.0	-29.4	14.7	0.00e+00	0	42	104	0	17	4197
2026-01-28 08:18:23.37	79.93	15.33	-28.1	-29.6	14.6	0.00e+00	0	41	104	0	17	4243
2026-01-28 08:18:24.37	79.76	15.40	-28.1	-29.5	14.6	0.00e+00	0	42	104	0	17	4218
2026-01-28 08:18:25.38	79.58	15.46	-28.2	-29.8	14.5	0.00e+00	0	41	104	0	17	4297
2026-01-28 08:18:26.38	79.41	15.53	-28.0	-29.3	14.8	0.00e+00	0	41	104	0	17	4165
2026-01-28 08:18:27.39	79.23	15.59	-27.9	-29.0	14.9	0.00e+00	0	41	104	0	17	4102
2026-01-28 08:18:28.40	79.06	15.66	-28.0	-29.2	14.8	0.00e+00	0	41	104	0	17	4153
2026-01-28 08:18:29.41	78.88	15.72	-28.1	-29.4	14.7	0.00e+00	0	41	104	0	17	4208
2026-01-28 08:18:30.41	78.70	15.79	-28.1	-29.5	14.7	0.00e+00	0	41	104	0	17	4212
2026-01-28 08:18:31.41	78.52	15.85	-28.1	-29.4	14.7	0.00e+00	0	41	104	0	17	4201
2026-01-28 08:18:32.42	78.34	15.92	-28.2	-29.6	14.6	0.00e+00	0	42	104	0	17	4252
2026-01-28 08:18:33.43	78.16	15.98	-28.1	-29.5	14.7	0.00e+00	0	42	104	0	17	4232
2026-01-28 08:18:34.44	77.98	16.04	-28.1	-29.6	14.6	7.00e-07	0	42	104	0	17	4242
2026-01-28 08:18:35.44	77.80	16.11	-28.2	-29.7	14.6	0.00e+00	0	42	104	0	17	4283
2026-01-28 08:18:36.44	77.62	16.17	-28.2	-29.8	14.5	7.00e-07	0	42	104	0	17	4304
2026-01-28 08:18:37.44	77.44	16.23	-28.2	-29.7	14.6	0.00e+00	0	42	104	0	17	4281
2026-01-28 08:18:38.45	77.25	16.30	-28.2	-29.7	14.6	0.00e+00	0	42	104	0	17	4289
2026-01-28 08:18:39.45	77.07	16.36	-28.3	-30.0	14.4	0.00e+00	0	42	104	0	17	4358
2026-01-28 08:18:40.46	76.88	16.42	-28.4	-30.1	14.3	7.00e-07	0	41	104	0	17	4401
2026-01-28 08:18:41.46	76.70	16.49	-28.1	-29.5	14.7	7.00e-07	0	41	104	0	17	4227
2026-01-28 08:18:42.47	76.51	16.55	-28.1	-29.5	14.7	0.00e+00	0	42	104	0	17	4209
2026-01-28 08:18:43.47	76.32	16.61	-28.1	-29.5	14.7	5.30e-06	0	42	104	0	17	4206
2026-01-28 08:18:44.47	76.13	16.67	-28.2	-29.6	14.6	0.00e+00	0	42	104	0	17	4255
2026-01-28 08:18:45.48	75.94	16.74	-28.3	-29.8	14.5	0.00e+00	0	41	104	0	17	4316
2026-01-28 08:18:46.48	75.75	16.80	-28.3	-29.9	14.5	8.30e-06	0	42	104	0	17	4331
2026-01-28 08:18:47.48	75.56	16.86	-28.3	-30.0	14.4	7.00e-07	0	41	104	0	17	4363
2026-01-28 08:18:48.48	75.37	16.92	-28.3	-29.9	14.5	0.00e+00	0	42	104	0	17	4328
2026-01-28 08:18:49.49	75.18	16.98	-28.2	-29.7	14.6	0.00e+00	0	42	104	0	17	4266
2026-01-28 08:18:50.50	74.98	17.05	-28.2	-29.6	14.7	1.50e-06	0	42	104	0	17	4247
2026-01-28 08:18:51.50	74.79	17.11	-28.1	-29.4	14.8	0.00e+00	0	42	104	0	17	4187
2026-01-28 08:18:52.50	74.60	17.17	-28.2	-29.7	14.6	3.80e-06	0	42	104	0	17	4278
2026-01-28 08:18:53.50	74.40	17.23	-28.3	-29.8	14.6	0.00e+00	0	42	104	0	17	4311
2026-01-28 08:18:54.50	74.21	17.29	-28.2	-29.8	14.6	0.00e+00	0	42	104	0	17	4289
2026-01-28 08:18:55.51	74.01	17.35	-28.3	-30.0	14.5	0.00e+00	0	42	104	0	17	4349
2026-01-28 08:18:56.52	73.81	17.41	-28.2	-29.7	14.6	0.00e+00	0	42	104	0	17	4266
2026-01-28 08:18:57.53	73.61	17.47	-28.2	-29.8	14.6	0.00e+00	0	42	104	0	17	4295
2026-01-28 08:18:58.53	73.41	17.53	-28.2	-29.7	14.6	3.00e-06	0	42	104	0	17	4268
2026-01-28 08:18:59.53	73.21	17.59	-28.1	-29.5	14.7	0.00e+00	0	42	104	0	17	4229
2026-01-28 08:19:00.54	73.01	17.65	-28.1	-29.4	14.8	0.00e+00	0	41	104	0	17	4199
2026-01-28 08:19:01.54	72.81	17.71	-28.1	-29.3	14.9	2.20e-06	0	41	104	0	17	4168
2026-01-28 08:19:02.54	72.61	17.77	-28.0	-29.2	15.0	7.00e-07	0	42	104	0	17	4119
2026-01-28 08:19:03.54	72.40	17.83	-28.0	-29.2	14.9	0.00e+00	0	42	104	0	17	4137
2026-01-28 08:19:04.55	72.20	17.88	-28.1	-29.4	14.9	0.00e+00	0	41	104	0	17	4175
2026-01-28 08:19:05.55	71.99	17.94	-28.2	-29.8	14.7	7.00e-07	0	42	104	0	17	4288
2026-01-28 08:19:06.55	71.79	18.00	-28.2	-29.6	14.7	7.00e-07	0	42	104	0	17	4255
2026-01-28 08:19:07.56	71.58	18.06	-28.2	-29.6	14.7	7.00e-07	0	42	104	0	17	4232
2026-01-28 08:19:08.57	71.37	18.12	-28.2	-29.5	14.8	0.00e+00	0	42	104	0	17	4225
2026-01-28 08:19:09.57	71.16	18.17	-28.0	-29.3	14.9	0.00e+00	0	42	104	0	17	4152
2026-01-28 08:19:10.58	70.95	18.23	-27.9	-29.0	15.0	0.00e+00	0	42	104	0	17	4093
2026-01-28 08:19:11.58	70.74	18.29	-27.9	-29.0	15.1	0.00e+00	0	42	104	0	17	4078
2026-01-28 08:19:12.58	70.53	18.34	-27.8	-28.8	15.2	0.00e+00	0	42	104	0	17	4033
2026-01-28 08:19:13.59	70.32	18.40	-27.8	-29.2	15.2	0.00e+00	0	42	104	0	16	4252
2026-01-28 08:19:14.59	70.11	18.46	-27.8	-29.2	15.3	0.00e+00	0	42	104	0	16	4226
2026-01-28 08:19:15.59	69.90	18.51	-27.5	-28.6	15.6	0.00e+00	0	42	104	0	16	4060
2026-01-28 08:19:16.60	69.68	18.57	-27.4	-28.3	15.7	0.00e+00	0	42	104	0	16	4007
2026-01-28 08:19:17.61	69.47	18.62	-27.4	-28.4	15.7	0.00e+00	0	42	104	0	16	4017
2026-01-28 08:19:18.61	69.25	18.68	-27.4	-28.4	15.7	0.00e+00	0	42	104	0	16	4022
2026-01-28 08:19:19.62	69.03	18.73	-27.5	-28.4	15.7	0.00e+00	0	42	104	0	16	4030
2026-01-28 08:19:20.62	68.82	18.79	-27.5	-28.5	15.7	0.00e+00	0	42	104	0	16	4039
2026-01-28 08:19:21.61	68.60	18.84	-27.4	-28.3	15.7	0.00e+00	0	42	104	0	16	4002
2026-01-28 08:19:22.61	68.39	18.89	-27.6	-28.8	15.5	0.00e+00	0	42	104	0	16	4130
2026-01-28 08:19:23.61	68.17	18.95	-27.5	-28.6	15.6	0.00e+00	0	42	104	0	16	4082
2026-01-28 08:19:24.62	67.95	19.00	-27.4	-28.2	15.8	0.00e+00	0	42	104	0	16	3977
2026-01-28 08:19:25.63	67.72	19.05	-27.4	-28.3	15.8	0.00e+00	0	42	104	0	16	4009
2026-01-28 08:19:26.64	67.50	19.10	-27.3	-28.1	15.9	0.00e+00	0	42	104	0	16	3950
2026-01-28 08:19:27.64	67.28	19.16	-27.3	-28.1	15.9	0.00e+00	0	42	104	0	16	3952
2026-01-28 08:19:28.65	67.05	19.21	-27.4	-28.3	15.8	0.00e+00	0	42	104	0	16	3992
2026-01-28 08:19:29.66	66.83	19.26	-27.5	-28.5	15.6	0.00e+00	0	42	104	0	16	4058
2026-01-28 08:19:30.66	66.61	19.31	-27.6	-28.8	15.5	0.00e+00	0	42	104	0	16	4117
2026-01-28 08:19:31.66	66.38	19.36	-27.6	-28.8	15.5	0.00e+00	0	42	104	0	16	4139
2026-01-28 08:19:32.66	66.16	19.41	-27.5	-28.6	15.6	0.00e+00	0	42	104	0	16	4084
2026-01-28 08:19:33.67	65.93	19.46	-27.5	-28.5	15.7	0.00e+00	0	42	104	0	16	4049
2026-01-28 08:19:34.67	65.70	19.51	-27.5	-28.6	15.6	0.00e+00	0	42	104	0	16	4061
2026-01-28 08:19:35.67	65.47	19.56	-27.4	-28.4	15.7	0.00e+00	0	42	104	0	16	4021
2026-01-28 08:19:36.67	65.25	19.61	-27.4	-28.4	15.7	0.00e+00	0	42	104	0	16	4033
2026-01-28 08:19:37.68	65.01	19.65	-27.5	-28.5	15.7	0.00e+00	0	42	104	0	16	4038
2026-01-28 08:19:38.68	64.79	19.70	-27.4	-28.2	15.9	0.00e+00	0	42	104	0	16	3969
2026-01-28 08:19:39.68	64.55	19.75	-27.5	-28.5	15.7	0.00e+00	0	42	104	0	16	4042
2026-01-28 08:19:40.68	64.32	19.80	-27.4	-28.2	15.8	0.00e+00	0	42	104	0	16	3981
2026-01-28 08:19:41.69	64.09	19.84	-27.1	-28.1	16.0	0.00e+00	0	42	104	0	15	4050
2026-01-28 08:19:42.69	63.86	19.89	-27.1	-28.2	16.0	0.00e+00	0	42	104	0	15	4078
2026-01-28 08:19:43.70	63.62	19.94	-27.1	-28.1	16.0	0.00e+00	0	42	104	0	15	4049
2026-01-28 08:19:44.70	63.39	19.98	-27.0	-28.0	16.1	0.00e+00	0	41	104	0	15	4022
2026-01-28 08:19:45.71	63.15	20.03	-27.0	-28.0	16.1	0.00e+00	0	42	104	0	15	4026
2026-01-28 08:19:46.71	62.92	20.07	-27.1	-28.1	16.1	0.00e+00	0	42	104	0	15	4039
2026-01-28 08:19:47.72	62.68	20.11	-27.1	-28.2	16.0	0.00e+00	0	42	104	0	15	4081
2026-01-28 08:19:48.72	62.44	20.16	-27.2	-28.3	15.9	0.00e+00	0	42	104	0	15	4110
2026-01-28 08:19:49.72	62.20	20.20	-27.2	-28.4	15.9	0.00e+00	0	42	104	0	15	4134
2026-01-28 08:19:50.73	61.96	20.24	-27.1	-28.2	16.0	0.00e+00	0	42	104	0	15	4066
2026-01-28 08:19:51.73	61.72	20.29	-27.2	-28.4	15.9	0.00e+00	0	42	104	0	15	4129
2026-01-28 08:19:52.73	61.49	20.33	-27.0	-28.0	16.1	0.00e+00	0	42	104	0	15	4031
2026-01-28 08:19:53.73	61.25	20.37	-27.0	-27.9	16.2	0.00e+00	0	42	104	0	15	3994
2026-01-28 08:19:54.74	61.00	20.41	-27.1	-28.1	16.1	0.00e+00	0	42	104	0	15	4053
2026-01-28 08:19:55.74	60.76	20.45	-26.9	-27.8	16.2	0.00e+00	0	42	104	0	15	3970
2026-01-28 08:19:56.74	60.52	20.49	-27.0	-28.0	16.1	0.00e+00	0	42	104	0	15	4020
2026-01-28 08:19:57.75	60.28	20.53	-27.0	-28.0	16.1	0.00e+00	0	42	104	0	15	4013
2026-01-28 08:19:58.75	60.03	20.57	-26.9	-27.7	16.3	0.00e+00	0	42	104	0	15	3950
2026-01-28 08:19:59.75	59.79	20.61	-27.0	-27.8	16.2	0.00e+00	0	42	104	0	15	3985
2026-01-28 08:20:00.76	59.54	20.65	-27.0	-27.8	16.2	0.00e+00	0	42	104	0	15	3979
2026-01-28 08:20:01.77	59.29	20.68	-27.0	-27.9	16.2	0.00e+00	0	42	104	0	15	4005
2026-01-28 08:20:02.78	59.05	20.72	-27.0	-27.8	16.2	0.00e+00	0	42	104	0	15	3977
2026-01-28 08:20:03.78	58.80	20.76	-27.0	-27.9	16.1	0.00e+00	0	42	104	0	15	4009
2026-01-28 08:20:04.78	58.55	20.79	-27.0	-28.0	16.1	0.00e+00	0	42	104	0	15	4033
2026-01-28 08:20:05.78	58.31	20.83	-27.1	-28.1	16.1	0.00e+00	0	42	104	0	15	4049
2026-01-28 08:20:06.78	58.06	20.86	-27.1	-28.0	16.1	0.00e+00	0	42	104	0	15	4035
2026-01-28 08:20:07.79	57.81	20.90	-27.1	-28.3	16.0	0.00e+00	0	42	104	0	15	4095
2026-01-28 08:20:08.79	57.56	20.93	-27.1	-28.2	16.0	0.00e+00	0	42	104	0	15	4089
2026-01-28 08:20:09.80	57.31	20.96	-27.2	-28.3	16.0	0.00e+00	0	42	104	0	15	4102
2026-01-28 08:20:10.80	57.06	21.00	-27.1	-28.2	16.0	0.00e+00	0	42	104	0	15	4088
2026-01-28 08:20:11.81	56.80	21.03	-27.4	-28.8	15.7	0.00e+00	0	42	104	0	15	4223
2026-01-28 08:20:12.81	56.55	21.06	-27.4	-28.8	15.7	0.00e+00	0	42	104	0	15	4225
2026-01-28 08:20:13.82	56.30	21.09	-27.4	-28.7	15.7	0.00e+00	0	42	104	0	15	4215
2026-01-28 08:20:14.82	56.05	21.12	-27.5	-29.0	15.6	0.00e+00	0	42	104	0	15	4276
2026-01-28 08:20:15.82	55.79	21.15	-27.4	-28.8	15.7	0.00e+00	0	42	104	0	15	4221
2026-01-28 08:20:16.83	55.54	21.18	-27.4	-28.9	15.6	0.00e+00	0	42	104	0	15	4264
2026-01-28 08:20:17.83	55.29	21.21	-27.3	-28.7	15.8	0.00e+00	0	42	104	0	15	4199
2026-01-28 08:20:18.84	55.03	21.24	-27.2	-28.4	15.9	0.00e+00	0	42	104	0	15	4117
2026-01-28 08:20:19.85	54.77	21.27	-27.1	-28.2	16.0	0.00e+00	0	42	104	0	15	4079
2026-01-28 08:20:20.85	54.52	21.30	-27.3	-28.5	15.9	0.00e+00	0	42	104	0	15	4161
2026-01-28 08:20:21.86	54.26	21.32	-27.1	-28.2	16.0	0.00e+00	0	42	104	0	15	4079
2026-01-28 08:20:22.86	54.00	21.35	-27.0	-28.0	16.1	0.00e+00	0	42	104	0	15	4027
2026-01-28 08:20:23.87	53.74	21.37	-27.0	-27.9	16.2	0.00e+00	0	42	104	0	15	4004
2026-01-28 08:20:24.88	53.49	21.40	-27.2	-28.3	16.0	0.00e+00	0	42	104	0	15	4104
2026-01-28 08:20:25.88	53.23	21.42	-27.1	-28.2	16.1	0.00e+00	0	42	104	0	15	4070
2026-01-28 08:20:26.88	52.97	21.45	-27.0	-28.0	16.1	0.00e+00	0	42	104	0	15	4022
2026-01-28 08:20:27.88	52.71	21.47	-27.1	-28.1	16.1	0.00e+00	0	42	104	0	15	4037
2026-01-28 08:20:28.88	52.46	21.49	-27.3	-28.5	15.9	0.00e+00	0	42	104	0	15	4146
2026-01-28 08:20:29.89	52.19	21.51	-27.4	-28.9	15.6	0.00e+00	0	42	104	0	15	4268
2026-01-28 08:20:30.90	51.93	21.54	-27.3	-28.6	15.8	0.00e+00	0	42	104	0	15	4184
2026-01-28 08:20:31.90	51.67	21.56	-27.2	-28.3	15.9	0.00e+00	0	42	104	0	15	4108
2026-01-28 08:20:32.91	51.41	21.58	-27.2	-28.3	16.0	0.00e+00	0	42	104	0	15	4105
2026-01-28 08:20:33.92	51.15	21.60	-27.3	-28.6	15.8	0.00e+00	0	42	104	0	15	4185
2026-01-28 08:20:34.93	50.89	21.62	-27.2	-28.4	15.9	0.00e+00	0	42	104	0	15	4131
2026-01-28 08:20:35.93	50.63	21.63	-27.5	-29.0	15.6	0.00e+00	0	42	104	0	15	4285
2026-01-28 08:20:36.93	50.36	21.65	-27.4	-28.9	15.7	0.00e+00	0	42	104	0	15	4251
2026-01-28 08:20:37.93	50.10	21.67	-27.4	-28.9	15.6	0.00e+00	0	42	104	0	15	4268
2026-01-28 08:20:38.94	49.84	21.68	-27.6	-29.3	15.4	0.00e+00	0	42	104	0	15	4377
2026-01-28 08:20:39.94	49.58	21.70	-27.5	-29.0	15.6	0.00e+00	0	42	104	0	15	4297
2026-01-28 08:20:40.95	49.31	21.72	-27.4	-28.7	15.8	0.00e+00	0	42	104	0	15	4208
2026-01-28 08:20:41.95	49.05	21.73	-27.3	-28.6	15.8	0.00e+00	0	42	104	0	15	4179
2026-01-28 08:20:42.96	48.79	21.74	-27.3	-28.6	15.8	0.00e+00	0	42	104	0	15	4169
2026-01-28 08:20:43.96	48.52	21.76	-27.3	-28.7	15.8	0.00e+00	0	42	104	0	15	4208
2026-01-28 08:20:44.96	48.26	21.77	-27.2	-28.4	15.9	0.00e+00	0	42	104	0	15	4121
2026-01-28 08:20:45.97	47.99	21.78	-27.4	-28.9	15.7	0.00e+00	0	42	104	0	15	4261
2026-01-28 08:20:46.98	47.73	21.79	-27.2	-28.3	16.0	0.00e+00	0	42	104	0	15	4101
2026-01-28 08:20:47.98	47.47	21.80	-27.1	-28.2	16.1	0.00e+00	0	42	104	0	15	4063
2026-01-28 08:20:48.98	47.20	21.81	-27.2	-28.3	16.0	0.00e+00	0	42	104	0	15	4092
2026-01-28 08:20:49.98	46.94	21.82	-27.3	-28.6	15.8	0.00e+00	0	42	104	0	15	4191
2026-01-28 08:20:50.98	46.67	21.83	-27.4	-28.8	15.8	0.00e+00	0	42	104	0	15	4230
2026-01-28 08:20:51.98	46.41	21.84	-27.5	-29.1	15.6	0.00e+00	0	42	104	0	15	4319
2026-01-28 08:20:52.99	46.14	21.85	-27.4	-28.9	15.7	0.00e+00	0	42	104	0	15	4267
2026-01-28 08:20:53.99	45.88	21.85	-27.3	-28.6	15.8	0.00e+00	0	42	104	0	15	4177
2026-01-28 08:20:55.00	45.61	21.86	-27.2	-28.4	15.9	0.00e+00	0	42	104	0	15	4127
2026-01-28 08:20:56.00	45.35	21.86	-27.2	-28.3	16.0	0.00e+00	0	42	104	0	15	4100
2026-01-28 08:20:57.01	45.08	21.87	-27.4	-28.7	15.8	0.00e+00	0	42	104	0	15	4199
2026-01-28 08:20:58.02	44.81	21.87	-27.4	-28.9	15.7	0.00e+00	0	42	104	0	15	4252
2026-01-28 08:20:59.02	44.55	21.88	-27.4	-28.7	15.8	0.00e+00	0	42	104	0	15	4211
2026-01-28 08:21:00.03	44.28	21.88	-27.4	-28.8	15.7	0.00e+00	0	42	104	0	15	4230
2026-01-28 08:21:01.03	44.02	21.88	-27.3	-28.5	15.9	0.00e+00	0	42	104	0	15	4150
2026-01-28 08:21:02.04	43.75	21.88	-27.4	-28.8	15.7	0.00e+00	0	42	104	0	15	4226
2026-01-28 08:21:03.05	43.48	21.88	-27.7	-29.5	15.4	0.00e+00	0	42	104	0	15	4412
2026-01-28 08:21:04.05	43.22	21.88	-27.6	-29.4	15.4	0.00e+00	0	42	104	0	15	4387
2026-01-28 08:21:05.05	42.95	21.88	-27.4	-28.8	15.7	0.00e+00	0	42	104	0	15	4243
2026-01-28 08:21:06.06	42.68	21.88	-27.3	-28.6	15.9	0.00e+00	0	42	104	0	15	4174
2026-01-28 08:21:07.06	42.42	21.88	-27.2	-28.4	15.9	0.00e+00	0	42	104	0	15	4137
2026-01-28 08:21:08.07	42.15	21.88	-27.3	-28.5	15.9	0.00e+00	0	42	104	0	15	4154
2026-01-28 08:21:09.08	41.88	21.87	-27.2	-28.4	15.9	0.00e+00	0	42	104	0	15	4140
2026-01-28 08:21:10.08	41.62	21.87	-27.4	-28.7	15.7	0.00e+00	0	42	104	0	15	4212
2026-01-28 08:21:11.08	41.35	21.87	-27.4	-28.8	15.7	0.00e+00	0	42	104	0	15	4235
2026-01-28 08:21:12.09	41.09	21.86	-27.7	-29.5	15.3	0.00e+00	0	42	104	0	15	4436
2026-01-28 08:21:13.09	40.82	21.86	-27.6	-29.3	15.4	0.00e+00	0	42	104	0	15	4380
2026-01-28 08:21:14.10	40.56	21.85	-27.7	-29.5	15.3	0.00e+00	0	42	104	0	15	4439
2026-01-28 08:21:15.11	40.29	21.84	-27.5	-29.1	15.6	0.00e+00	0	42	104	0	15	4311
2026-01-28 08:21:16.11	40.03	21.83	-27.4	-28.8	15.7	0.00e+00	0	42	104	0	15	4237
2026-01-28 08:21:17.12	39.76	21.83	-27.4	-28.8	15.7	0.00e+00	0	42	104	0	15	4238
2026-01-28 08:21:18.12	39.50	21.82	-27.5	-29.0	15.6	0.00e+00	0	42	104	0	15	4283
2026-01-28 08:21:19.12	39.23	21.81	-27.3	-28.6	15.8	0.00e+00	0	42	104	0	15	4192
2026-01-28 08:21:20.12	38.97	21.80	-27.4	-28.8	15.7	0.00e+00	0	42	104	0	15	4229
2026-01-28 08:21:21.13	38.70	21.79	-27.3	-28.7	15.8	0.00e+00	0	42	104	0	15	4208
2026-01-28 08:21:22.14	38.44	21.77	-27.4	-28.7	15.8	0.00e+00	0	42	104	0	15	4225
2026-01-28 08:21:23.14	38.17	21.76	-27.4	-28.8	15.7	0.00e+00	0	42	104	0	15	4227
2026-01-28 08:21:24.14	37.91	21.75	-27.2	-28.3	16.0	0.00e+00	0	42	104	0	15	4105
2026-01-28 08:21:25.14	37.65	21.74	-27.1	-28.1	16.1	0.00e+00	0	42	104	0	15	4057
2026-01-28 08:21:26.14	37.39	21.72	-27.1	-28.2	16.0	0.00e+00	0	42	104	0	15	4076
2026-01-28 08:21:27.15	37.12	21.71	-27.2	-28.5	15.9	0.00e+00	0	42	104	0	15	4151
2026-01-28 08:21:28.16	36.86	21.69	-27.2	-28.4	15.9	0.00e+00	0	42	104	0	15	4120
2026-01-28 08:21:29.16	36.60	21.67	-27.3	-28.5	15.9	0.00e+00	0	42	104	0	15	4156
2026-01-28 08:21:30.17	36.33	21.66	-27.4	-28.8	15.7	0.00e+00	0	42	104	0	15	4230
2026-01-28 08:21:31.17	36.07	21.64	-27.3	-28.7	15.8	0.00e+00	0	42	104	0	15	4209
2026-01-28 08:21:32.17	35.81	21.62	-27.3	-28.7	15.7	0.00e+00	0	42	104	0	15	4214
2026-01-28 08:21:33.18	35.55	21.60	-27.4	-28.8	15.7	0.00e+00	0	42	104	0	15	4233
2026-01-28 08:21:34.18	35.29	21.58	-27.5	-29.2	15.5	0.00e+00	0	42	104	0	15	4335
2026-01-28 08:21:35.19	35.03	21.56	-27.3	-28.6	15.8	0.00e+00	0	42	104	0	15	4171
2026-01-28 08:21:36.19	34.77	21.54	-27.3	-28.7	15.8	7.00e-07	0	42	104	0	15	4205
2026-01-28 08:21:37.20	34.51	21.52	-27.5	-29.0	15.6	0.00e+00	0	42	104	0	15	4283
2026-01-28 08:21:38.20	34.25	21.50	-27.4	-28.8	15.7	0.00e+00	0	42	104	0	15	4235
2026-01-28 08:21:39.20	33.99	21.48	-27.3	-28.7	15.8	0.00e+00	0	42	104	0	15	4209
2026-01-28 08:21:40.21	33.73	21.46	-27.3	-28.5	15.9	0.00e+00	0	42	104	0	15	4160
2026-01-28 08:21:41.22	33.47	21.43	-27.3	-28.5	15.9	0.00e+00	0	42	104	0	15	4154
2026-01-28 08:21:42.23	33.21	21.41	-27.2	-28.3	15.9	0.00e+00	0	42	104	0	15	4111
2026-01-28 08:21:43.24	32.95	21.38	-27.1	-28.2	16.0	0.00e+00	0	42	104	0	15	4068
2026-01-28 08:21:44.24	32.70	21.36	-27.1	-28.2	16.0	0.00e+00	0	42	104	0	15	4082
2026-01-28 08:21:45.25	32.44	21.33	-27.3	-28.5	15.9	0.00e+00	0	42	104	0	15	4165
2026-01-28 08:21:46.25	32.18	21.31	-27.4	-28.9	15.6	0.00e+00	0	42	104	0	15	4263
2026-01-28 08:21:47.26	31.93	21.28	-27.3	-28.6	15.8	0.00e+00	0	42	104	0	15	4194
2026-01-28 08:21:48.26	31.67	21.25	-27.5	-29.0	15.6	0.00e+00	0	42	104	0	15	4290
2026-01-28 08:21:49.27	31.42	21.22	-27.5	-29.0	15.6	0.00e+00	0	42	104	0	15	4290
2026-01-28 08:21:50.28	31.16	21.19	-27.6	-29.2	15.5	0.00e+00	0	42	104	0	15	4340
2026-01-28 08:21:51.28	30.91	21.17	-27.5	-29.2	15.5	0.00e+00	0	42	104	0	15	4343
2026-01-28 08:21:52.28	30.65	21.14	-27.6	-29.3	15.4	0.00e+00	0	42	104	0	15	4365
2026-01-28 08:21:53.28	30.40	21.11	-27.5	-29.2	15.5	0.00e+00	0	42	104	0	15	4335
2026-01-28 08:21:54.28	30.15	21.07	-27.6	-29.4	15.4	0.00e+00	0	42	104	0	15	4397
2026-01-28 08:21:55.29	29.90	21.04	-27.8	-29.8	15.2	0.00e+00	0	42	104	0	15	4520
2026-01-28 08:21:56.29	29.65	21.01	-27.6	-29.3	15.4	0.00e+00	0	42	104	0	15	4387
2026-01-28 08:21:57.30	29.40	20.98	-27.5	-29.1	15.5	0.00e+00	0	42	104	0	15	4320
2026-01-28 08:21:58.31	29.14	20.95	-27.5	-29.0	15.6	0.00e+00	0	42	104	0	15	4287
2026-01-28 08:21:59.32	28.89	20.91	-27.4	-28.9	15.6	0.00e+00	0	42	104	0	15	4270
2026-01-28 08:22:00.32	28.64	20.88	-27.3	-28.5	15.8	0.00e+00	0	42	104	0	15	4162
2026-01-28 08:22:01.33	28.39	20.84	-27.3	-28.5	15.9	0.00e+00	0	42	104	0	15	4157
2026-01-28 08:22:02.33	28.15	20.81	-27.4	-28.9	15.7	0.00e+00	0	42	104	0	15	4253
2026-01-28 08:22:03.33	27.90	20.77	-27.4	-28.8	15.7	0.00e+00	0	42	104	0	15	4227
2026-01-28 08:22:04.33	27.66	20.74	-27.4	-28.8	15.7	0.00e+00	0	42	104	0	15	4242
2026-01-28 08:22:05.33	27.41	20.70	-27.3	-28.5	15.8	0.00e+00	0	42	104	0	15	4166
2026-01-28 08:22:06.33	27.17	20.66	-27.2	-28.4	15.9	0.00e+00	0	42	104	0	15	4129
2026-01-28 08:22:07.33	26.92	20.62	-27.3	-28.5	15.8	0.00e+00	0	42	104	0	15	4159
2026-01-28 08:22:08.34	26.68	20.59	-27.4	-28.8	15.7	0.00e+00	0	42	104	0	15	4238
2026-01-28 08:22:09.35	26.43	20.55	-27.5	-29.0	15.6	0.00e+00	0	42	104	0	15	4280
2026-01-28 08:22:10.35	26.19	20.51	-27.5	-29.1	15.5	0.00e+00	0	42	104	0	15	4333
2026-01-28 08:22:11.35	25.95	20.47	-27.4	-28.8	15.7	0.00e+00	0	42	104	0	15	4233
2026-01-28 08:22:12.35	25.71	20.43	-27.4	-28.8	15.7	0.00e+00	0	42	104	0	15	4221
2026-01-28 08:22:13.36	25.46	20.39	-27.4	-28.8	15.7	0.00e+00	0	42	104	0	15	4222
2026-01-28 08:22:14.37	25.22	20.35	-27.3	-28.5	15.8	0.00e+00	0	42	104	0	15	4162
2026-01-28 08:22:15.38	24.98	20.30	-27.3	-28.7	15.7	0.00e+00	0	42	104	0	15	4200
2026-01-28 08:22:16.38	24.74	20.26	-27.4	-28.8	15.6	0.00e+00	0	42	104	0	15	4245
2026-01-28 08:22:17.39	24.50	20.22	-27.3	-28.6	15.8	0.00e+00	0	42	104	0	15	4195
2026-01-28 08:22:18.39	24.27	20.18	-27.2	-28.5	15.8	0.00e+00	0	42	104	0	15	4147
2026-01-28 08:22:19.40	24.03	20.13	-27.3	-28.5	15.8	0.00e+00	0	42	104	0	15	4157
2026-01-28 08:22:20.40	23.79	20.09	-27.2	-28.5	15.8	0.00e+00	0	42	104	0	15	4140
2026-01-28 08:22:21.40	23.56	20.05	-27.1	-28.1	16.0	0.00e+00	0	42	104	0	15	4053
2026-01-28 08:22:22.40	23.32	20.00	-27.1	-28.0	16.0	0.00e+00	0	42	104	0	15	4034
2026-01-28 08:22:23.40	23.09	19.96	-27.1	-28.1	16.0	0.00e+00	0	42	104	0	15	4056
2026-01-28 08:22:24.40	22.86	19.91	-27.1	-28.1	16.0	0.00e+00	0	42	104	0	15	4051
2026-01-28 08:22:25.40	22.62	19.86	-27.0	-28.0	16.1	0.00e+00	0	42	104	0	15	4032
2026-01-28 08:22:26.40	22.39	19.82	-27.2	-28.3	15.9	0.00e+00	0	42	104	0	15	4099
2026-01-28 08:22:27.41	22.16	19.77	-27.3	-28.6	15.8	0.00e+00	0	42	104	0	15	4170
2026-01-28 08:22:28.42	21.93	19.72	-27.4	-28.8	15.6	0.00e+00	0	42	104	0	15	4237
2026-01-28 08:22:29.43	21.70	19.68	-27.5	-29.1	15.5	0.00e+00	0	42	104	0	15	4320
2026-01-28 08:22:30.43	21.47	19.63	-27.6	-29.2	15.4	0.00e+00	0	42	104	0	15	4345
2026-01-28 08:22:31.44	21.24	19.58	-27.6	-29.3	15.3	0.00e+00	0	42	104	0	15	4381
2026-01-28 08:22:32.45	21.01	19.53	-27.7	-29.5	15.3	0.00e+00	0	42	104	0	15	4428
2026-01-28 08:22:33.45	20.78	19.48	-27.6	-29.3	15.3	0.00e+00	0	42	104	0	15	4385
2026-01-28 08:22:34.46	20.55	19.43	-27.5	-29.2	15.4	0.00e+00	0	42	104	0	15	4335
2026-01-28 08:22:35.46	20.33	19.38	-27.5	-29.0	15.5	0.00e+00	0	42	104	0	15	4283
2026-01-28 08:22:36.47	20.10	19.33	-27.4	-28.9	15.6	0.00e+00	0	42	104	0	15	4271
2026-01-28 08:22:37.47	19.88	19.28	-27.4	-28.8	15.6	0.00e+00	0	42	104	0	15	4236
2026-01-28 08:22:38.48	19.65	19.23	-27.2	-28.5	15.8	0.00e+00	0	42	104	0	15	4146
2026-01-28 08:22:39.49	19.43	19.18	-27.3	-28.6	15.7	0.00e+00	0	42	104	0	15	4181
2026-01-28 08:22:40.50	19.21	19.13	-27.3	-28.7	15.7	0.00e+00	0	42	104	0	15	4204
2026-01-28 08:22:41.49	18.99	19.08	-27.5	-29.0	15.5	0.00e+00	0	42	104	0	15	4290
2026-01-28 08:22:42.50	18.77	19.02	-27.6	-29.2	15.4	0.00e+00	0	42	104	0	15	4354
2026-01-28 08:22:43.51	18.55	18.97	-27.7	-29.6	15.1	0.00e+00	0	42	104	0	15	4468
2026-01-28 08:22:44.51	18.33	18.92	-27.9	-30.0	14.9	0.00e+00	0	42	104	0	15	4571
2026-01-28 08:22:45.52	18.11	18.86	-28.0	-29.8	14.9	0.00e+00	0	42	104	0	16	4393
2026-01-28 08:22:46.52	17.89	18.81	-27.8	-29.2	15.2	0.00e+00	0	42	104	0	16	4227
2026-01-28 08:22:47.53	17.67	18.76	-27.6	-28.8	15.5	0.00e+00	0	42	104	0	16	4120
2026-01-28 08:22:48.53	17.46	18.70	-27.6	-28.8	15.5	0.00e+00	0	42	104	0	16	4136
2026-01-28 08:22:49.54	17.24	18.65	-27.7	-28.9	15.4	0.00e+00	0	42	104	0	16	4146
2026-01-28 08:22:50.54	17.03	18.59	-27.7	-29.0	15.4	0.00e+00	0	42	104	0	16	4174
2026-01-28 08:22:51.54	16.82	18.54	-27.7	-29.0	15.3	0.00e+00	0	42	104	0	16	4174
2026-01-28 08:22:52.54	16.61	18.48	-27.5	-28.6	15.6	0.00e+00	0	42	104	0	16	4075
2026-01-28 08:22:53.55	16.39	18.43	-27.6	-28.9	15.4	0.00e+00	0	42	104	0	16	4143
2026-01-28 08:22:54.56	16.18	18.37	-27.7	-29.0	15.4	0.00e+00	0	42	104	0	16	4171
2026-01-28 08:22:55.55	15.97	18.31	-27.7	-29.0	15.3	0.00e+00	0	42	104	0	16	4188
2026-01-28 08:22:56.56	15.76	18.26	-27.7	-29.0	15.4	0.00e+00	0	42	104	0	16	4174
2026-01-28 08:22:57.56	15.55	18.20	-27.6	-28.7	15.5	0.00e+00	0	42	104	0	16	4099
2026-01-28 08:22:58.57	15.34	18.14	-27.6	-28.7	15.5	0.00e+00	0	42	104	0	16	4099
2026-01-28 08:22:59.57	15.14	18.09	-27.5	-28.6	15.5	0.00e+00	0	42	104	0	16	4072
2026-01-28 08:23:00.58	14.93	18.03	-27.5	-28.5	15.6	0.00e+00	0	42	104	0	16	4036
2026-01-28 08:23:01.57	14.73	17.97	-27.6	-28.7	15.4	0.00e+00	0	42	104	0	16	4111
2026-01-28 08:23:02.58	14.52	17.91	-27.7	-28.9	15.4	0.00e+00	0	42	104	0	16	4155
2026-01-28 08:23:03.59	14.32	17.85	-27.8	-29.1	15.2	0.00e+00	0	42	104	0	16	4222
2026-01-28 08:23:04.60	14.11	17.80	-27.8	-29.2	15.2	0.00e+00	0	42	104	0	16	4228
2026-01-28 08:23:05.60	13.91	17.74	-27.7	-29.1	15.3	0.00e+00	0	42	104	0	16	4205
2026-01-28 08:23:06.61	13.71	17.68	-27.7	-29.0	15.3	0.00e+00	0	42	104	0	16	4184
2026-01-28 08:23:07.61	13.51	17.62	-27.7	-28.9	15.4	0.00e+00	0	42	104	0	16	4166
2026-01-28 08:23:08.62	13.31	17.56	-27.8	-29.2	15.2	0.00e+00	0	42	104	0	16	4234
2026-01-28 08:23:09.62	13.11	17.50	-27.7	-29.0	15.3	0.00e+00	0	42	104	0	16	4195
2026-01-28 08:23:10.63	12.91	17.44	-27.8	-29.1	15.3	0.00e+00	0	42	104	0	16	4209
2026-01-28 08:23:11.63	12.71	17.38	-27.7	-28.9	15.3	0.00e+00	0	42	104	0	16	4166
2026-01-28 08:23:12.63	12.52	17.32	-27.6	-28.7	15.5	0.00e+00	0	42	104	0	16	4093
2026-01-28 08:23:13.63	12.32	17.26	-27.7	-29.1	15.3	0.00e+00	0	42	104	0	16	4207
2026-01-28 08:23:14.64	12.13	17.20	-27.8	-29.2	15.2	0.00e+00	0	42	104	0	16	4250
2026-01-28 08:23:15.64	11.93	17.14	-27.8	-29.1	15.2	0.00e+00	0	42	104	0	16	4218
2026-01-28 08:23:16.65	11.74	17.08	-27.9	-29.5	15.0	0.00e+00	0	42	104	0	16	4323
2026-01-28 08:23:17.65	11.55	17.02	-27.9	-29.4	15.0	0.00e+00	0	42	104	0	16	4301
2026-01-28 08:23:18.66	11.35	16.95	-27.7	-29.1	15.3	0.00e+00	0	42	104	0	16	4206
2026-01-28 08:23:19.67	11.16	16.89	-27.7	-29.1	15.2	0.00e+00	0	42	104	0	16	4201
2026-01-28 08:23:20.68	10.97	16.83	-27.8	-29.2	15.2	0.00e+00	0	42	104	0	16	4235
2026-01-28 08:23:21.69	10.78	16.77	-27.9	-29.4	15.1	0.00e+00	0	42	104	0	16	4295
2026-01-28 08:23:22.70	10.59	16.71	-27.9	-29.4	15.1	0.00e+00	0	42	104	0	16	4301
2026-01-28 08:23:23.70	10.40	16.64	-28.0	-29.8	14.8	0.00e+00	0	42	104	0	16	4400
2026-01-28 08:23:24.71	10.21	16.58	-28.1	-30.0	14.7	7.00e-07	0	42	104	0	16	4454
2026-01-28 08:23:25.71	10.03	16.52	-28.1	-30.0	14.7	0.00e+00	0	42	104	0	16	4465
2026-01-28 08:23:26.72	9.84	16.46	-28.1	-29.9	14.7	7.00e-07	0	42	104	0	16	4445
2026-01-28 08:23:27.72	9.66	16.39	-28.0	-29.8	14.8	0.00e+00	0	42	104	0	16	4413
2026-01-28 08:23:28.72	9.47	16.33	-28.1	-29.9	14.7	0.00e+00	0	42	104	0	16	4440
2026-01-28 08:23:29.72	9.29	16.27	-27.9	-29.5	15.0	0.00e+00	0	42	104	0	16	4322
2026-01-28 08:23:30.72	9.11	16.20	-27.9	-29.4	15.0	0.00e+00	0	42	104	0	16	4301
2026-01-28 08:23:31.73	8.93	16.14	-27.9	-29.5	15.0	0.00e+00	0	42	104	0	16	4319
2026-01-28 08:23:32.73	8.75	16.08	-27.9	-29.5	14.9	0.00e+00	0	42	104	0	16	4325
2026-01-28 08:23:33.74	8.56	16.01	-27.9	-29.5	15.1	7.00e-07	0	42	104	0	16	4303
2026-01-28 08:23:34.75	8.38	15.95	-27.9	-29.4	15.0	0.00e+00	0	42	104	0	16	4308
2026-01-28 08:23:35.75	8.21	15.89	-27.9	-29.5	15.0	0.00e+00	0	42	104	0	16	4320
2026-01-28 08:23:36.75	8.03	15.82	-28.0	-29.7	14.7	0.00e+00	0	42	104	0	16	4396
2026-01-28 08:23:37.76	7.85	15.76	-27.9	-29.5	14.8	0.00e+00	0	42	104	0	16	4336
2026-01-28 08:23:38.76	7.68	15.69	-27.9	-29.5	14.9	7.00e-07	0	42	104	0	16	4328
2026-01-28 08:23:39.77	7.50	15.63	-28.0	-29.7	14.8	0.00e+00	0	42	104	0	16	4371
2026-01-28 08:23:40.78	7.32	15.56	-27.9	-29.5	14.9	0.00e+00	0	42	104	0	16	4328
2026-01-28 08:23:41.78	7.15	15.50	-27.9	-29.5	14.9	0.00e+00	0	42	104	0	16	4320
2026-01-28 08:23:42.78	6.98	15.44	-27.9	-29.5	14.9	0.00e+00	0	42	104	0	16	4313
2026-01-28 08:23:43.78	6.81	15.37	-27.8	-29.3	14.9	0.00e+00	0	42	104	0	16	4286
2026-01-28 08:23:44.78	6.63	15.31	-27.8	-29.3	15.0	7.00e-07	0	42	104	0	16	4270
2026-01-28 08:23:45.79	6.46	15.24	-28.2	-30.1	14.6	7.00e-07	0	42	104	0	16	4489
2026-01-28 08:23:46.79	6.29	15.18	-28.1	-30.0	14.6	0.00e+00	0	42	104	0	16	4479
2026-01-28 08:23:47.79	6.12	15.11	-28.0	-29.8	14.7	0.00e+00	0	42	104	0	16	4407
2026-01-28 08:23:48.80	5.95	15.05	-27.9	-29.5	14.9	7.00e-07	0	42	104	0	16	4326
2026-01-28 08:23:49.80	5.79	14.98	-28.0	-29.7	14.8	0.00e+00	0	42	104	0	16	4382
2026-01-28 08:23:50.80	5.62	14.92	-28.0	-29.7	14.8	7.00e-07	0	42	104	0	16	4378
2026-01-28 08:23:51.80	5.46	14.85	-28.1	-30.0	14.6	1.50e-06	0	42	104	0	16	4462
2026-01-28 08:23:52.80	5.29	14.79	-28.2	-30.1	14.5	7.00e-07	0	42	104	0	16	4518
2026-01-28 08:23:53.80	5.13	14.72	-28.3	-30.4	14.4	7.00e-07	0	42	104	0	16	4585
2026-01-28 08:23:54.80	4.96	14.66	-28.2	-30.1	14.5	7.00e-07	0	42	104	0	16	4507
2026-01-28 08:23:55.80	4.80	14.59	-28.2	-30.1	14.5	0.00e+00	0	42	104	0	16	4511
2026-01-28 08:23:56.80	4.64	14.53	-28.1	-29.9	14.6	1.50e-06	0	42	104	0	16	4442
2026-01-28 08:23:57.80	4.48	14.46	-28.0	-29.7	14.7	0.00e+00	0	42	104	0	16	4383
2026-01-28 08:23:58.81	4.31	14.39	-27.9	-29.6	14.7	0.00e+00	0	42	104	0	16	4356
2026-01-28 08:23:59.81	4.15	14.33	-28.0	-29.8	14.6	0.00e+00	0	42	104	0	16	4414
2026-01-28 08:24:00.81	3.99	14.26	-28.0	-29.6	14.7	0.00e+00	0	42	104	0	16	4369
2026-01-28 08:24:01.82	3.83	14.20	-27.8	-29.3	14.9	0.00e+00	0	42	104	0	16	4267
2026-01-28 08:24:02.82	3.68	14.13	-27.8	-29.2	14.9	0.00e+00	0	42	104	0	16	4256
2026-01-28 08:24:03.82	3.52	14.07	-27.9	-29.4	14.8	0.00e+00	0	42	104	0	16	4311
2026-01-28 08:24:04.82	3.36	14.00	-27.9	-29.4	14.8	0.00e+00	0	42	104	0	16	4316
2026-01-28 08:24:05.83	3.21	13.93	-27.8	-29.4	14.9	1.50e-06	0	42	104	0	16	4297
2026-01-28 08:24:06.83	3.05	13.87	-27.9	-29.6	14.8	0.00e+00	0	42	104	0	16	4350
2026-01-28 08:24:07.84	2.90	13.80	-27.9	-29.6	14.8	7.00e-07	0	42	104	0	16	4353
2026-01-28 08:24:08.84	2.74	13.73	-28.0	-29.7	14.7	0.00e+00	0	42	104	0	16	4378
2026-01-28 08:24:09.85	2.59	13.67	-27.9	-29.6	14.6	0.00e+00	0	42	104	0	16	4379
2026-01-28 08:24:10.85	2.44	13.60	-28.0	-29.8	14.6	7.00e-07	0	42	104	0	16	4414
2026-01-28 08:24:11.86	2.28	13.54	-28.0	-29.7	14.6	7.00e-07	0	42	104	0	16	4382
2026-01-28 08:24:12.87	2.13	13.47	-27.9	-29.6	14.6	0.00e+00	0	42	104	0	16	4383
2026-01-28 08:24:13.88	1.98	13.40	-27.9	-29.6	14.6	7.00e-07	0	42	104	0	16	4371
2026-01-28 08:24:14.88	1.83	13.34	-28.0	-29.8	14.5	0.00e+00	0	42	104	0	16	4423
2026-01-28 08:24:15.88	1.68	13.27	-27.9	-29.6	14.6	7.00e-07	0	42	104	0	16	4361
2026-01-28 08:24:16.89	1.53	13.20	-28.0	-29.8	14.4	0.00e+00	0	42	104	0	16	4428
2026-01-28 08:24:17.89	1.38	13.14	-28.2	-30.2	14.2	7.00e-07	0	42	104	0	16	4548
2026-01-28 08:24:18.90	1.24	13.07	-28.1	-30.0	14.4	2.20e-06	0	42	104	0	16	4476
2026-01-28 08:24:19.90	1.09	13.00	-28.0	-29.7	14.5	7.00e-07	0	42	104	0	16	4407
2026-01-28 08:24:20.91	0.94	12.94	-28.0	-29.7	14.4	0.00e+00	0	42	104	0	16	4408
2026-01-28 08:24:21.91	0.80	12.87	-28.0	-29.7	14.5	3.00e-06	0	42	104	0	16	4415
2026-01-28 08:24:22.91	0.66	12.81	-28.0	-29.8	14.4	0.00e+00	0	42	104	0	16	4445
2026-01-28 08:24:23.92	0.51	12.74	-28.3	-30.6	14.0	1.50e-06	0	42	104	0	16	4664
2026-01-28 08:24:24.92	0.37	12.67	-28.2	-30.2	14.1	0.00e+00	0	42	104	0	16	4563
2026-01-28 08:24:25.93	0.22	12.61	-28.3	-30.5	13.9	2.20e-06	0	42	104	0	16	4657
2026-01-28 08:24:26.93	0.08	12.54	-28.5	-30.9	13.7	3.00e-06	0	42	104	0	16	4790
2026-01-28 08:24:27.94	359.94	12.47	-28.5	-31.0	13.7	7.60e-06	0	42	104	0	16	4798
2026-01-28 08:24:28.94	359.80	12.41	-28.4	-30.8	13.7	4.50e-06	0	42	104	0	16	4740
2026-01-28 08:24:29.95	359.66	12.34	-28.6	-30.9	13.4	9.90e-06	0	42	104	0	17	4652
2026-01-28 08:24:30.96	359.52	12.27	-28.6	-30.8	13.4	1.67e-05	0	42	104	0	17	4641
2026-01-28 08:24:31.96	359.38	12.21	-28.6	-30.7	13.5	1.22e-05	0	42	104	0	17	4601
2026-01-28 08:24:32.97	359.24	12.14	-28.4	-30.4	13.7	8.30e-06	0	42	104	0	17	4510
2026-01-28 08:24:33.97	359.11	12.08	-28.5	-30.6	13.6	8.30e-06	0	42	104	0	17	4569
2026-01-28 08:24:34.98	358.97	12.01	-28.4	-30.3	13.7	9.90e-06	0	42	104	0	17	4471
2026-01-28 08:24:35.98	358.83	11.94	-28.3	-29.9	13.9	2.20e-06	0	42	104	0	17	4377
2026-01-28 08:24:36.99	358.70	11.88	-28.2	-29.9	13.9	3.00e-06	0	42	104	0	17	4374
2026-01-28 08:24:37.99	358.56	11.81	-28.4	-30.3	13.7	5.30e-06	0	42	104	0	17	4472
2026-01-28 08:24:38.99	358.43	11.74	-28.4	-30.3	13.7	2.20e-06	0	42	104	0	17	4470
2026-01-28 08:24:39.99	358.30	11.68	-28.4	-30.4	13.7	6.10e-06	0	42	104	0	17	4516
2026-01-28 08:24:41.00	358.16	11.61	-28.5	-30.5	13.6	4.50e-06	0	42	104	0	17	4540
2026-01-28 08:24:42.01	358.03	11.55	-28.5	-30.6	13.5	1.06e-05	0	42	104	0	17	4581
2026-01-28 08:24:43.02	357.90	11.48	-28.6	-30.8	13.4	7.60e-06	0	42	104	0	17	4631
2026-01-28 08:24:44.02	357.77	11.41	-28.7	-31.0	13.3	1.98e-05	0	42	104	0	17	4701
2026-01-28 08:24:45.03	357.63	11.35	-28.7	-30.9	13.3	1.67e-05	0	42	104	0	17	4685
2026-01-28 08:24:46.03	357.50	11.28	-28.6	-30.8	13.4	1.44e-05	0	42	104	0	17	4652
2026-01-28 08:24:47.04	357.37	11.22	-28.7	-31.0	13.3	2.05e-05	0	42	104	0	17	4699
2026-01-28 08:24:48.04	357.25	11.15	-28.7	-31.0	13.3	2.05e-05	0	42	104	0	17	4697
2026-01-28 08:24:49.04	357.12	11.08	-28.6	-30.7	13.4	1.75e-05	0	42	104	0	17	4611
2026-01-28 08:24:50.04	356.99	11.02	-28.5	-30.6	13.4	1.75e-05	0	42	104	0	17	4582
2026-01-28 08:24:51.05	356.86	10.95	-28.4	-30.4	13.6	4.50e-06	0	42	104	0	17	4503
2026-01-28 08:24:52.05	356.74	10.89	-28.5	-30.6	13.4	1.22e-05	0	42	104	0	17	4585
2026-01-28 08:24:53.05	356.61	10.82	-28.4	-30.3	13.6	1.29e-05	0	42	104	0	17	4482
2026-01-28 08:24:54.06	356.49	10.76	-28.5	-30.7	13.4	1.67e-05	0	42	104	0	17	4603
2026-01-28 08:24:55.06	356.36	10.69	-28.4	-30.2	13.7	7.60e-06	0	42	104	0	17	4466
2026-01-28 08:24:56.07	356.24	10.62	-28.3	-30.1	13.7	3.80e-06	0	42	104	0	17	4424
2026-01-28 08:24:57.08	356.11	10.56	-28.5	-30.6	13.4	9.90e-06	0	42	104	0	17	4593
2026-01-28 08:24:58.08	355.99	10.49	-28.6	-30.7	13.3	1.44e-05	0	42	104	0	17	4620
2026-01-28 08:24:59.09	355.87	10.43	-28.7	-31.0	13.2	1.52e-05	0	42	104	0	17	4706
2026-01-28 08:25:00.09	355.75	10.36	-28.8	-31.3	13.0	3.89e-05	0	42	104	0	17	4806
2026-01-28 08:25:01.10	355.62	10.30	-28.8	-31.3	13.0	4.80e-05	0	42	104	0	17	4804
2026-01-28 08:25:02.10	355.50	10.23	-28.9	-31.5	12.9	4.27e-05	0	42	104	0	17	4855
2026-01-28 08:25:03.11	355.38	10.17	-28.8	-31.2	13.0	4.04e-05	0	42	104	0	17	4782
2026-01-28 08:25:04.12	355.26	10.10	-28.8	-31.2	13.0	3.81e-05	0	42	104	0	17	4770
2026-01-28 08:25:05.12	355.14	10.03	-28.8	-31.2	13.0	4.57e-05	0	42	104	0	17	4771
2026-01-28 08:25:06.13	355.02	9.97	-28.7	-31.1	13.1	3.05e-05	0	42	104	0	17	4738
2026-01-28 08:25:07.13	354.91	9.90	-28.7	-31.0	13.1	1.98e-05	0	42	104	0	17	4719
2026-01-28 08:25:08.13	354.79	9.84	-28.8	-31.4	12.9	5.87e-05	0	42	104	0	17	4823
2026-01-28 08:25:09.14	354.67	9.77	-28.7	-31.0	13.1	2.74e-05	0	42	104	0	17	4697
2026-01-28 08:25:10.14	354.56	9.71	-28.5	-30.7	13.3	1.90e-05	0	42	104	0	17	4612
2026-01-28 08:25:11.15	354.44	9.64	-28.6	-30.9	13.2	2.13e-05	0	42	104	0	17	4669
2026-01-28 08:25:12.15	354.33	9.58	-28.6	-30.9	13.2	2.82e-05	0	42	104	0	17	4687
2026-01-28 08:25:13.15	354.21	9.52	-28.6	-30.9	13.2	2.05e-05	0	42	104	0	17	4692
2026-01-28 08:25:14.16	354.10	9.45	-28.7	-31.1	13.0	3.20e-05	0	42	104	0	17	4746
2026-01-28 08:25:15.17	353.98	9.39	-28.8	-31.2	12.9	4.42e-05	0	42	104	0	17	4791
2026-01-28 08:25:16.17	353.87	9.32	-28.9	-31.5	12.8	6.10e-05	0	42	104	0	17	4890
2026-01-28 08:25:17.17	353.76	9.26	-28.9	-31.7	12.7	7.24e-05	0	42	104	0	17	4949
2026-01-28 08:25:18.18	353.64	9.19	-29.1	-31.5	12.5	1.05e-04	0	42	104	0	18	4765
2026-01-28 08:25:19.18	353.53	9.13	-29.2	-31.8	12.3	1.59e-04	0	42	104	0	18	4875
2026-01-28 08:25:20.19	353.42	9.06	-29.4	-32.3	12.0	3.46e-04	0	42	104	0	18	5047
2026-01-28 08:25:21.19	353.31	9.00	-29.2	-31.8	12.3	1.99e-04	0	42	104	0	18	4859
2026-01-28 08:25:22.19	353.20	8.93	-29.0	-31.5	12.5	1.42e-04	0	42	104	0	18	4762
2026-01-28 08:25:23.20	353.09	8.87	-29.1	-31.5	12.4	1.26e-04	0	42	104	0	18	4774
2026-01-28 08:25:24.20	352.98	8.81	-29.1	-31.7	12.3	2.03e-04	0	42	104	0	18	4829
2026-01-28 08:25:25.20	352.87	8.74	-29.1	-31.5	12.4	1.62e-04	0	42	104	0	18	4775
2026-01-28 08:25:26.20	352.77	8.68	-29.0	-31.4	12.5	1.31e-04	0	42	104	0	18	4735
2026-01-28 08:25:27.21	352.66	8.61	-29.0	-31.3	12.5	1.03e-04	0	42	104	0	18	4718
2026-01-28 08:25:28.21	352.55	8.55	-29.1	-31.5	12.4	1.45e-04	0	42	104	0	18	4786
2026-01-28 08:25:29.22	352.44	8.49	-28.9	-31.0	12.7	9.07e-05	0	42	104	0	18	4626
2026-01-28 08:25:30.22	352.34	8.42	-28.7	-30.7	12.9	5.18e-05	0	42	104	0	18	4503
2026-01-28 08:25:31.23	352.23	8.36	-28.8	-30.8	12.8	5.11e-05	0	42	104	0	18	4546
2026-01-28 08:25:32.24	352.12	8.30	-28.8	-30.9	12.7	8.92e-05	0	42	104	0	18	4581
2026-01-28 08:25:33.23	352.02	8.23	-28.8	-30.9	12.7	6.79e-05	0	42	104	0	18	4591
2026-01-28 08:25:34.23	351.92	8.17	-29.0	-31.3	12.4	1.17e-04	0	42	104	0	18	4723
2026-01-28 08:25:35.24	351.81	8.11	-28.9	-31.2	12.5	1.14e-04	0	42	104	0	18	4680
2026-01-28 08:25:36.25	351.71	8.04	-29.1	-31.5	12.3	1.78e-04	0	42	104	0	18	4791
2026-01-28 08:25:37.25	351.61	7.98	-29.0	-31.4	12.3	1.76e-04	0	42	104	0	18	4759
2026-01-28 08:25:38.25	351.50	7.92	-29.2	-31.9	12.1	3.13e-04	0	42	104	0	18	4908
2026-01-28 08:25:39.25	351.40	7.85	-29.2	-31.9	12.0	2.47e-04	0	42	104	0	18	4911
2026-01-28 08:25:40.26	351.30	7.79	-29.5	-32.2	11.5	7.82e-04	0	42	104	0	19	4910
2026-01-28 08:25:41.26	351.20	7.73	-29.4	-32.0	11.6	8.04e-04	0	42	104	0	19	4851
2026-01-28 08:25:42.27	351.10	7.66	-29.4	-31.9	11.7	6.01e-04	0	42	104	0	19	4808
2026-01-28 08:25:43.28	351.00	7.60	-29.4	-32.0	11.7	5.97e-04	0	42	104	0	19	4844
2026-01-28 08:25:44.28	350.90	7.54	-29.6	-32.5	11.3	9.97e-04	0	42	104	0	19	5023
2026-01-28 08:25:45.28	350.80	7.48	-29.7	-32.7	11.1	1.36e-03	0	42	104	0	19	5105
2026-01-28 08:25:46.28	350.70	7.41	-29.6	-32.5	11.3	1.65e-03	0	42	104	0	19	5031
2026-01-28 08:25:47.29	350.60	7.35	-29.3	-31.7	11.8	6.06e-04	0	42	104	0	19	4750
2026-01-28 08:25:48.29	350.50	7.29	-29.3	-31.7	11.8	4.61e-04	0	42	104	0	19	4758
2026-01-28 08:25:49.29	350.41	7.23	-29.1	-31.3	12.1	3.31e-04	0	42	104	0	19	4603
2026-01-28 08:25:50.29	350.31	7.16	-29.3	-31.8	11.8	4.27e-04	0	42	104	0	19	4769
2026-01-28 08:25:51.30	350.21	7.10	-30.5	-33.9	10.7	8.09e-04	0	42	104	0	20	5316
2026-01-28 08:25:52.30	350.12	7.04	-33.3	-44.8	3.8	1.48e+00	0	42	104	0	26	13618
2026-01-28 08:25:53.31	350.02	6.98	-33.6	-45.6	3.8	1.49e+00	0	42	104	0	27	14262
2026-01-28 08:25:54.31	349.93	6.92	-33.9	-46.1	3.8	1.49e+00	0	42	104	0	27	14683

#Closed at: 2026-01-28 08:25:55
#Recorded file [0 MB]: D:/data/31010_260128_111614.dat