passes_logs/2026/01/28/R2M6_AANII_01/R2M6_AANII_01__20260128_162558_FENGYUN_3E_rec.log

#Pass ID: 20260128_162558_FENGYUN 3E
#Satellite: FENGYUN 3E
#Configuration: FENGYUN 3E
#almurnet v.1.7.20240730
#Start time: 2026-01-28 16:25:59

#Version: 2.2.20231116
#Station: R2M6_AANII_01
#Location: 30.233357 lon 59.946436 lat
#TLE: 1 49008U 21062A   26027.83084825  .00000170  00000+0  10081-3 0  9997
#TLE: 2 49008  98.7501  32.8098 0002509 114.2687 245.8752 14.19888158236667

#Time	Az	El	Level	Level2	SNR	BER	BlckErr	Temp	State	Recorded	gain1	gain2
2026-01-28 16:25:59.63	221.14	7.04	-28.7	-30.0	5.5	7.48e-01	0	41	0	0	18	4205
2026-01-28 16:26:00.63	221.25	7.10	-28.9	-30.5	5.5	7.51e-01	0	41	104	0	18	4338
2026-01-28 16:26:01.63	221.35	7.16	-28.9	-30.4	10.4	4.49e-03	0	41	0	0	18	4314
2026-01-28 16:26:02.64	221.46	7.22	-28.8	-30.2	10.6	4.08e-03	0	41	0	7340032	18	4256
2026-01-28 16:26:03.64	221.57	7.28	-28.5	-29.6	11.1	2.54e-03	0	41	0	14680064	18	4062
2026-01-28 16:26:04.65	221.68	7.34	-28.6	-29.7	11.0	2.17e-03	0	42	0	22020096	18	4103
2026-01-28 16:26:05.66	221.79	7.40	-28.7	-29.9	10.9	1.98e-03	0	42	0	28311552	18	4151
2026-01-28 16:26:06.66	221.90	7.46	-28.5	-29.5	11.1	1.99e-03	0	41	0	35651584	18	4033
2026-01-28 16:26:07.67	222.01	7.51	-27.9	-29.0	12.1	4.43e-04	0	42	0	42991616	16	4088
2026-01-28 16:26:08.66	222.12	7.57	-27.5	-28.0	12.7	1.41e-04	0	42	0	50331648	16	3845
2026-01-28 16:26:09.67	222.23	7.63	-27.1	-27.8	12.9	5.26e-05	0	42	0	57671680	15	3879
2026-01-28 16:26:10.68	222.34	7.69	-26.8	-27.4	13.4	2.17e-05	0	41	0	65011712	14	3897
2026-01-28 16:26:11.68	222.45	7.75	-26.6	-27.2	13.6	1.02e-05	0	42	0	72351744	14	3833
2026-01-28 16:26:12.67	222.57	7.81	-26.7	-27.3	13.5	1.14e-05	0	42	0	79691776	14	3857
2026-01-28 16:26:13.67	222.68	7.87	-26.8	-27.6	13.3	1.48e-05	0	41	0	85983232	14	3942
2026-01-28 16:26:14.68	222.79	7.93	-26.9	-27.7	13.3	2.17e-05	0	42	0	93323264	14	3969
2026-01-28 16:26:15.68	222.91	7.99	-26.8	-27.5	13.4	1.25e-05	0	42	0	101711872	14	3915
2026-01-28 16:26:16.68	223.02	8.05	-27.0	-28.0	13.1	1.37e-05	0	42	0	108003328	14	4027
2026-01-28 16:26:17.68	223.13	8.11	-27.2	-28.4	12.9	6.63e-05	0	42	0	115343360	14	4148
2026-01-28 16:26:18.68	223.25	8.17	-26.9	-27.7	13.3	1.94e-05	0	42	0	122683392	14	3971
2026-01-28 16:26:19.68	223.36	8.23	-26.8	-27.5	13.5	1.83e-05	0	42	0	130023424	14	3921
2026-01-28 16:26:20.69	223.48	8.29	-26.8	-27.5	13.5	1.94e-05	0	42	0	137363456	14	3905
2026-01-28 16:26:21.69	223.60	8.35	-26.9	-27.7	13.3	1.94e-05	0	42	0	144703488	14	3954
2026-01-28 16:26:22.70	223.71	8.41	-26.8	-27.5	13.5	1.48e-05	0	42	0	152043520	14	3911
2026-01-28 16:26:23.70	223.83	8.47	-26.8	-27.4	13.5	1.02e-05	0	42	0	159383552	14	3893
2026-01-28 16:26:24.70	223.95	8.53	-26.7	-27.4	13.5	1.48e-05	0	42	0	166723584	14	3882
2026-01-28 16:26:25.70	224.07	8.59	-26.6	-27.1	13.7	5.70e-06	0	42	0	173015040	14	3808
2026-01-28 16:26:26.71	224.19	8.65	-26.6	-27.2	13.7	9.10e-06	0	42	0	180355072	14	3819
2026-01-28 16:26:27.71	224.31	8.71	-26.8	-27.5	13.5	1.14e-05	0	42	0	187695104	14	3895
2026-01-28 16:26:28.72	224.43	8.77	-26.6	-27.1	13.7	6.80e-06	0	42	0	195035136	14	3798
2026-01-28 16:26:29.73	224.55	8.83	-26.6	-27.1	13.7	8.00e-06	0	42	0	202375168	14	3803
2026-01-28 16:26:30.73	224.67	8.89	-26.7	-27.3	13.6	6.80e-06	0	42	0	209715200	14	3842
2026-01-28 16:26:31.74	224.79	8.95	-26.6	-27.1	13.7	3.40e-06	0	42	0	217055232	14	3814
2026-01-28 16:26:32.74	224.91	9.01	-26.5	-26.8	13.9	3.40e-06	0	42	0	224395264	14	3738
2026-01-28 16:26:33.74	225.03	9.07	-26.7	-27.3	13.6	5.70e-06	0	42	0	231735296	14	3854
2026-01-28 16:26:34.75	225.16	9.13	-26.6	-27.1	13.7	1.14e-05	0	42	0	239075328	14	3804
2026-01-28 16:26:35.76	225.28	9.19	-26.8	-27.6	13.4	1.02e-05	0	42	0	246415360	14	3933
2026-01-28 16:26:36.76	225.40	9.25	-26.8	-27.5	13.6	1.25e-05	0	42	0	252706816	14	3894
2026-01-28 16:26:37.77	225.53	9.31	-26.6	-27.1	13.7	1.02e-05	0	42	0	260046848	14	3814
2026-01-28 16:26:38.77	225.65	9.37	-26.6	-27.0	13.8	6.80e-06	0	42	0	267386880	14	3790
2026-01-28 16:26:39.78	225.78	9.44	-26.6	-27.1	13.8	9.10e-06	0	42	0	274726912	14	3803
2026-01-28 16:26:40.78	225.90	9.50	-26.6	-27.1	13.8	5.70e-06	0	42	0	282066944	14	3802
2026-01-28 16:26:41.79	226.03	9.56	-26.9	-27.8	13.4	1.37e-05	0	43	0	289406976	14	3985
2026-01-28 16:26:42.79	226.16	9.62	-26.8	-27.5	13.6	1.37e-05	0	42	0	296747008	14	3891
2026-01-28 16:26:43.80	226.28	9.68	-26.6	-27.1	13.8	9.10e-06	0	42	0	304087040	14	3799
2026-01-28 16:26:44.81	226.41	9.74	-26.4	-26.6	14.1	2.20e-06	0	42	0	311427072	14	3684
2026-01-28 16:26:45.81	226.54	9.80	-26.4	-26.7	14.1	0.00e+00	0	42	0	318767104	14	3700
2026-01-28 16:26:46.81	226.67	9.86	-26.4	-27.1	14.0	0.00e+00	0	43	0	326107136	13	3912
2026-01-28 16:26:47.81	226.80	9.92	-26.3	-27.0	14.2	4.50e-06	0	43	0	333447168	13	3862
2026-01-28 16:26:48.82	226.93	9.98	-26.2	-26.7	14.3	0.00e+00	0	43	0	339738624	13	3814
2026-01-28 16:26:49.82	227.06	10.04	-26.3	-26.9	14.2	0.00e+00	0	42	0	347078656	13	3858
2026-01-28 16:26:50.82	227.19	10.10	-26.3	-26.9	14.2	5.70e-06	0	43	0	354418688	13	3856
2026-01-28 16:26:51.83	227.32	10.17	-26.5	-27.3	14.0	0.00e+00	0	43	0	361758720	13	3949
2026-01-28 16:26:52.83	227.45	10.23	-26.5	-27.3	14.0	3.40e-06	0	43	0	369098752	13	3947
2026-01-28 16:26:53.83	227.58	10.29	-26.6	-27.6	13.8	6.80e-06	0	43	0	376438784	13	4024
2026-01-28 16:26:54.84	227.72	10.35	-26.5	-27.3	14.0	4.50e-06	0	43	0	383778816	13	3953
2026-01-28 16:26:55.84	227.85	10.41	-26.5	-27.4	13.9	5.70e-06	0	43	0	391118848	13	3969
2026-01-28 16:26:56.84	227.99	10.47	-26.4	-27.1	14.1	3.40e-06	0	43	0	398458880	13	3894
2026-01-28 16:26:57.84	228.12	10.53	-26.3	-26.9	14.3	3.40e-06	0	43	0	405798912	13	3840
2026-01-28 16:26:58.84	228.25	10.59	-26.3	-26.9	14.3	1.10e-06	0	43	0	413138944	13	3850
2026-01-28 16:26:59.84	228.39	10.65	-26.2	-26.6	14.5	0.00e+00	0	43	0	420478976	13	3763
2026-01-28 16:27:00.84	228.52	10.71	-26.1	-26.4	14.5	0.00e+00	0	43	0	426770432	13	3727
2026-01-28 16:27:01.84	228.66	10.77	-26.1	-26.5	14.5	1.10e-06	0	43	0	434110464	13	3739
2026-01-28 16:27:02.85	228.80	10.84	-26.0	-26.2	14.7	0.00e+00	0	43	0	441450496	13	3676
2026-01-28 16:27:03.86	228.94	10.90	-25.9	-26.0	14.8	1.10e-06	0	43	0	448790528	13	3639
2026-01-28 16:27:04.86	229.08	10.96	-25.9	-26.0	14.8	0.00e+00	0	43	0	456130560	13	3638
2026-01-28 16:27:05.86	229.21	11.02	-26.0	-26.1	14.7	0.00e+00	0	43	0	463470592	13	3665
2026-01-28 16:27:06.87	229.35	11.08	-26.0	-26.3	14.7	0.00e+00	0	43	0	470810624	13	3695
2026-01-28 16:27:07.87	229.49	11.14	-26.0	-26.2	14.6	0.00e+00	0	43	0	478150656	13	3687
2026-01-28 16:27:08.87	229.63	11.20	-26.0	-26.2	14.7	1.10e-06	0	43	0	484442112	13	3671
2026-01-28 16:27:09.87	229.78	11.26	-26.3	-26.8	14.3	1.10e-06	0	43	0	491782144	13	3838
2026-01-28 16:27:10.86	229.92	11.32	-26.5	-27.3	14.1	2.20e-06	0	43	0	499122176	13	3942
2026-01-28 16:27:11.86	230.06	11.38	-26.4	-27.0	14.2	0.00e+00	0	43	0	506462208	13	3873
2026-01-28 16:27:12.86	230.20	11.45	-26.2	-26.6	14.4	2.20e-06	0	43	0	513802240	13	3778
2026-01-28 16:27:13.87	230.34	11.51	-26.2	-26.5	14.5	2.20e-06	0	43	0	521142272	13	3762
2026-01-28 16:27:14.87	230.49	11.57	-26.2	-26.7	14.4	1.10e-06	0	43	0	528482304	13	3804
2026-01-28 16:27:15.87	230.63	11.63	-26.2	-26.7	14.4	1.10e-06	0	43	0	535822336	13	3798
2026-01-28 16:27:16.87	230.78	11.69	-26.5	-27.3	14.1	1.10e-06	0	43	0	543162368	13	3937
2026-01-28 16:27:17.87	230.92	11.75	-26.2	-26.5	14.5	1.10e-06	0	43	0	549453824	13	3750
2026-01-28 16:27:18.87	231.07	11.81	-26.1	-26.4	14.6	1.10e-06	0	43	0	556793856	13	3724
2026-01-28 16:27:19.88	231.22	11.87	-25.9	-26.5	14.9	0.00e+00	0	43	0	565182464	12	3840
2026-01-28 16:27:20.88	231.36	11.93	-26.0	-26.7	14.8	2.20e-06	0	43	0	571473920	12	3883
2026-01-28 16:27:21.88	231.51	11.99	-26.0	-26.7	14.7	0.00e+00	0	43	0	578813952	12	3900
2026-01-28 16:27:22.88	231.66	12.05	-26.0	-26.7	14.7	3.40e-06	0	43	0	586153984	12	3895
2026-01-28 16:27:23.88	231.81	12.11	-26.0	-26.6	14.8	1.10e-06	0	43	0	593494016	12	3867
2026-01-28 16:27:24.87	231.96	12.18	-25.9	-26.4	14.9	0.00e+00	0	43	0	600834048	12	3826
2026-01-28 16:27:25.87	232.11	12.24	-26.0	-26.7	14.7	0.00e+00	0	43	0	608174080	12	3906
2026-01-28 16:27:26.88	232.26	12.30	-25.9	-26.5	14.9	0.00e+00	0	43	0	614465536	12	3843
2026-01-28 16:27:27.88	232.41	12.36	-25.8	-26.2	15.0	1.10e-06	0	43	0	622854144	12	3778
2026-01-28 16:27:28.88	232.56	12.42	-25.8	-26.2	15.0	0.00e+00	0	43	0	630194176	12	3782
2026-01-28 16:27:29.89	232.72	12.48	-25.6	-25.8	15.3	0.00e+00	0	43	0	636485632	12	3688
2026-01-28 16:27:30.89	232.87	12.54	-25.6	-25.7	15.3	0.00e+00	0	43	0	643825664	12	3654
2026-01-28 16:27:31.89	233.02	12.60	-25.6	-25.9	15.3	0.00e+00	0	43	0	651165696	12	3702
2026-01-28 16:27:32.89	233.18	12.66	-25.5	-25.7	15.4	0.00e+00	0	43	0	658505728	12	3653
2026-01-28 16:27:33.89	233.33	12.72	-25.5	-25.7	15.4	0.00e+00	0	43	0	665845760	12	3648
2026-01-28 16:27:34.88	233.49	12.78	-25.6	-25.7	15.3	0.00e+00	0	43	0	673185792	12	3666
2026-01-28 16:27:35.89	233.64	12.84	-25.6	-25.7	15.3	0.00e+00	0	43	0	680525824	12	3664
2026-01-28 16:27:36.89	233.80	12.90	-25.7	-26.1	15.1	0.00e+00	0	43	0	687865856	12	3750
2026-01-28 16:27:37.89	233.96	12.96	-25.7	-26.0	15.2	0.00e+00	0	43	0	694157312	12	3722
2026-01-28 16:27:38.89	234.12	13.02	-25.6	-25.7	15.4	1.10e-06	0	43	0	701497344	12	3657
2026-01-28 16:27:39.90	234.28	13.08	-25.5	-25.5	15.4	0.00e+00	0	43	0	708837376	12	3620
2026-01-28 16:27:40.90	234.43	13.14	-25.6	-25.8	15.3	0.00e+00	0	43	0	716177408	12	3673
2026-01-28 16:27:41.90	234.59	13.20	-25.5	-25.5	15.5	0.00e+00	0	43	0	723517440	12	3604
2026-01-28 16:27:42.90	234.76	13.26	-25.5	-26.0	15.6	0.00e+00	0	43	0	730857472	11	3813
2026-01-28 16:27:43.90	234.92	13.32	-25.4	-25.9	15.6	0.00e+00	0	43	0	738197504	11	3806
2026-01-28 16:27:44.90	235.08	13.38	-25.8	-26.6	15.3	0.00e+00	0	43	0	745537536	11	3961
2026-01-28 16:27:45.90	235.24	13.44	-25.5	-26.0	15.6	0.00e+00	0	43	0	752877568	11	3822
2026-01-28 16:27:46.91	235.41	13.50	-25.3	-25.6	15.8	0.00e+00	0	43	0	759169024	11	3727
2026-01-28 16:27:47.90	235.57	13.56	-25.2	-25.3	15.9	0.00e+00	0	43	0	766509056	11	3665
2026-01-28 16:27:48.91	235.73	13.62	-25.3	-25.7	15.8	0.00e+00	0	43	0	773849088	11	3754
2026-01-28 16:27:49.91	235.90	13.68	-25.3	-25.5	15.8	0.00e+00	0	43	0	781189120	11	3701
2026-01-28 16:27:50.91	236.06	13.74	-25.4	-25.8	15.7	0.00e+00	0	43	0	788529152	11	3772
2026-01-28 16:27:51.92	236.23	13.80	-25.3	-25.6	15.8	0.00e+00	0	43	0	795869184	11	3727
2026-01-28 16:27:52.92	236.40	13.86	-25.5	-26.0	15.6	0.00e+00	0	43	0	803209216	11	3811
2026-01-28 16:27:53.93	236.57	13.92	-25.3	-25.5	15.9	0.00e+00	0	43	0	810549248	11	3705
2026-01-28 16:27:54.93	236.74	13.98	-25.2	-25.4	16.0	0.00e+00	0	43	0	817889280	11	3670
2026-01-28 16:27:55.93	236.91	14.04	-25.2	-25.4	16.0	0.00e+00	0	43	0	825229312	11	3677
2026-01-28 16:27:56.93	237.08	14.10	-25.2	-25.3	16.0	0.00e+00	0	43	0	832569344	11	3668
2026-01-28 16:27:57.93	237.25	14.16	-25.1	-25.2	16.0	0.00e+00	0	43	0	839909376	11	3645
2026-01-28 16:27:58.92	237.41	14.21	-25.2	-25.4	15.9	0.00e+00	0	43	0	846200832	11	3684
2026-01-28 16:27:59.92	237.59	14.27	-25.1	-25.1	16.1	0.00e+00	0	43	0	853540864	11	3621
2026-01-28 16:28:00.91	237.76	14.33	-25.0	-24.9	16.2	0.00e+00	0	43	0	860880896	11	3578
2026-01-28 16:28:01.91	237.93	14.39	-25.0	-25.0	16.2	0.00e+00	0	43	0	868220928	11	3582
2026-01-28 16:28:02.92	238.11	14.45	-25.1	-25.1	16.1	0.00e+00	0	43	0	875560960	11	3602
2026-01-28 16:28:03.93	238.28	14.51	-24.9	-24.7	16.3	0.00e+00	0	43	0	881852416	11	3531
2026-01-28 16:28:04.93	238.46	14.57	-25.0	-25.0	16.2	0.00e+00	0	43	0	890241024	11	3578
2026-01-28 16:28:05.93	238.63	14.62	-25.0	-25.0	16.2	0.00e+00	0	44	0	897581056	11	3579
2026-01-28 16:28:06.94	238.81	14.68	-25.0	-25.0	16.2	0.00e+00	0	43	0	903872512	11	3578
2026-01-28 16:28:07.94	238.99	14.74	-25.0	-24.9	16.3	0.00e+00	0	43	0	911212544	11	3571
2026-01-28 16:28:08.95	239.17	14.80	-25.2	-25.4	16.0	0.00e+00	0	43	0	918552576	11	3679
2026-01-28 16:28:09.95	239.34	14.86	-25.0	-25.0	16.2	0.00e+00	0	43	0	925892608	11	3585
2026-01-28 16:28:10.95	239.52	14.91	-24.9	-25.3	16.4	0.00e+00	0	43	0	933232640	10	3750
2026-01-28 16:28:11.95	239.70	14.97	-25.0	-25.4	16.3	0.00e+00	0	43	0	940572672	10	3780
2026-01-28 16:28:12.96	239.88	15.03	-25.1	-25.7	16.1	0.00e+00	0	43	0	947912704	10	3857
2026-01-28 16:28:13.96	240.06	15.09	-25.0	-25.5	16.2	0.00e+00	0	43	0	955252736	10	3800
2026-01-28 16:28:14.96	240.25	15.14	-24.9	-25.3	16.3	0.00e+00	0	43	0	962592768	10	3757
2026-01-28 16:28:15.96	240.43	15.20	-25.0	-25.4	16.3	0.00e+00	0	43	0	968884224	10	3778
2026-01-28 16:28:16.97	240.61	15.26	-25.0	-25.4	16.3	0.00e+00	0	44	0	976224256	10	3780
2026-01-28 16:28:17.97	240.80	15.31	-25.2	-25.8	16.1	0.00e+00	0	43	0	983564288	10	3870
2026-01-28 16:28:18.98	240.98	15.37	-24.9	-25.2	16.3	0.00e+00	0	44	0	990904320	10	3733
2026-01-28 16:28:19.99	241.17	15.43	-24.8	-25.0	16.5	0.00e+00	0	43	0	998244352	10	3692
2026-01-28 16:28:20.99	241.36	15.48	-24.9	-25.1	16.4	0.00e+00	0	43	0	1005584384	10	3716
2026-01-28 16:28:21.99	241.54	15.54	-24.8	-25.1	16.5	0.00e+00	0	43	0	1012924416	10	3704
2026-01-28 16:28:22.99	241.73	15.60	-24.8	-25.1	16.5	0.00e+00	0	43	0	1020264448	10	3704
2026-01-28 16:28:24.00	241.92	15.65	-25.0	-25.4	16.3	0.00e+00	0	43	0	1027604480	10	3784
2026-01-28 16:28:25.00	242.11	15.71	-24.9	-25.2	16.4	0.00e+00	0	44	0	1034944512	10	3731
2026-01-28 16:28:26.00	242.30	15.76	-25.0	-25.4	16.3	0.00e+00	0	43	0	1042284544	10	3774
2026-01-28 16:28:27.01	242.49	15.82	-25.0	-25.3	16.3	0.00e+00	0	43	0	1048576000	10	3758
2026-01-28 16:28:28.01	242.68	15.87	-24.9	-25.3	16.4	0.00e+00	0	43	0	1055916032	10	3754
2026-01-28 16:28:29.01	242.87	15.93	-24.9	-25.2	16.4	0.00e+00	0	43	0	1063256064	10	3731
2026-01-28 16:28:30.02	243.06	15.98	-24.9	-25.2	16.4	0.00e+00	0	44	0	1070596096	10	3734
2026-01-28 16:28:31.02	243.26	16.04	-25.0	-25.4	16.3	0.00e+00	0	43	0	1077936128	10	3766
2026-01-28 16:28:32.02	243.45	16.09	-25.3	-26.2	15.9	0.00e+00	0	43	0	1085276160	10	3960
2026-01-28 16:28:33.03	243.64	16.15	-25.1	-25.7	16.2	0.00e+00	0	43	0	1092616192	10	3837
2026-01-28 16:28:34.04	243.84	16.20	-24.9	-25.3	16.4	0.00e+00	0	44	0	1099956224	10	3755
2026-01-28 16:28:35.04	244.04	16.26	-24.9	-25.2	16.4	0.00e+00	0	44	0	1107296256	10	3727
2026-01-28 16:28:36.05	244.23	16.31	-24.8	-25.0	16.5	0.00e+00	0	44	0	1114636288	10	3693
2026-01-28 16:28:37.05	244.43	16.36	-24.8	-24.9	16.6	0.00e+00	0	44	0	1121976320	10	3673
2026-01-28 16:28:38.06	244.63	16.42	-24.8	-25.0	16.6	0.00e+00	0	44	0	1129316352	10	3677
2026-01-28 16:28:39.06	244.83	16.47	-24.6	-24.5	16.8	0.00e+00	0	44	0	1135607808	10	3571
2026-01-28 16:28:40.07	245.03	16.52	-24.4	-24.3	16.9	0.00e+00	0	44	0	1142947840	10	3519
2026-01-28 16:28:41.07	245.23	16.57	-24.5	-24.3	16.9	0.00e+00	0	44	0	1150287872	10	3534
2026-01-28 16:28:42.08	245.43	16.63	-24.3	-24.5	17.1	0.00e+00	0	44	0	1157627904	9	3669
2026-01-28 16:28:43.08	245.63	16.68	-24.4	-24.7	17.0	0.00e+00	0	44	0	1164967936	9	3721
2026-01-28 16:28:44.09	245.83	16.73	-24.6	-25.2	16.7	0.00e+00	0	43	0	1172307968	9	3819
2026-01-28 16:28:45.08	246.03	16.78	-24.7	-25.2	16.7	0.00e+00	0	44	0	1179648000	9	3839
2026-01-28 16:28:46.09	246.24	16.83	-24.7	-25.3	16.7	0.00e+00	0	44	0	1186988032	9	3863
2026-01-28 16:28:47.09	246.44	16.89	-24.7	-25.4	16.6	0.00e+00	0	43	0	1194328064	9	3878
2026-01-28 16:28:48.09	246.64	16.94	-24.8	-25.5	16.6	0.00e+00	0	44	0	1201668096	9	3900
2026-01-28 16:28:49.09	246.85	16.99	-24.8	-25.5	16.5	0.00e+00	0	44	0	1209008128	9	3908
2026-01-28 16:28:50.09	247.05	17.04	-24.7	-25.3	16.7	0.00e+00	0	44	0	1216348160	9	3856
2026-01-28 16:28:51.10	247.26	17.09	-24.7	-25.3	16.7	0.00e+00	0	44	0	1222639616	9	3845
2026-01-28 16:28:52.11	247.47	17.14	-24.6	-25.1	16.8	0.00e+00	0	44	0	1229979648	9	3810
2026-01-28 16:28:53.12	247.68	17.19	-24.6	-25.1	16.8	0.00e+00	0	43	0	1237319680	9	3810
2026-01-28 16:28:54.12	247.89	17.24	-24.6	-25.1	16.8	0.00e+00	0	44	0	1244659712	9	3813
2026-01-28 16:28:55.12	248.10	17.29	-24.6	-25.2	16.8	0.00e+00	0	44	0	1251999744	9	3818
2026-01-28 16:28:56.13	248.31	17.34	-24.7	-25.3	16.7	0.00e+00	0	44	0	1259339776	9	3850
2026-01-28 16:28:57.12	248.52	17.38	-24.9	-25.7	16.5	0.00e+00	0	43	0	1266679808	9	3940
2026-01-28 16:28:58.12	248.73	17.43	-24.7	-25.3	16.7	0.00e+00	0	44	0	1274019840	9	3852
2026-01-28 16:28:59.12	248.94	17.48	-24.6	-25.1	16.8	0.00e+00	0	44	0	1280311296	9	3810
2026-01-28 16:29:00.13	249.15	17.53	-24.4	-24.7	17.0	0.00e+00	0	44	0	1287651328	9	3727
2026-01-28 16:29:01.13	249.37	17.58	-24.5	-24.8	17.0	0.00e+00	0	44	0	1296039936	9	3726
2026-01-28 16:29:02.13	249.58	17.62	-24.3	-24.5	17.1	0.00e+00	0	44	0	1302331392	9	3668
2026-01-28 16:29:03.13	249.79	17.67	-24.4	-24.7	17.0	0.00e+00	0	44	0	1309671424	9	3712
2026-01-28 16:29:04.13	250.01	17.72	-24.4	-24.5	17.1	0.00e+00	0	44	0	1317011456	9	3680
2026-01-28 16:29:05.14	250.22	17.76	-24.4	-24.6	17.1	0.00e+00	0	44	0	1324351488	9	3701
2026-01-28 16:29:06.14	250.44	17.81	-24.7	-25.3	16.8	0.00e+00	0	44	0	1331691520	9	3845
2026-01-28 16:29:07.14	250.66	17.86	-24.5	-24.9	16.9	0.00e+00	0	44	0	1339031552	9	3755
2026-01-28 16:29:08.14	250.87	17.90	-24.4	-24.7	17.0	0.00e+00	0	44	0	1346371584	9	3714
2026-01-28 16:29:09.15	251.09	17.95	-24.4	-24.7	17.0	0.00e+00	0	44	0	1353711616	9	3708
2026-01-28 16:29:10.16	251.31	17.99	-24.5	-24.9	16.9	0.00e+00	0	44	0	1361051648	9	3759
2026-01-28 16:29:11.17	251.53	18.04	-24.5	-24.9	16.9	0.00e+00	0	44	0	1367343104	9	3751
2026-01-28 16:29:12.16	251.75	18.08	-24.6	-25.1	16.8	0.00e+00	0	44	0	1374683136	9	3819
2026-01-28 16:29:13.17	251.97	18.12	-24.6	-25.0	16.9	0.00e+00	0	44	0	1382023168	9	3789
2026-01-28 16:29:14.17	252.20	18.17	-24.5	-24.8	17.0	0.00e+00	0	44	0	1389363200	9	3744
2026-01-28 16:29:15.18	252.42	18.21	-24.9	-25.7	16.5	0.00e+00	0	44	0	1396703232	9	3945
2026-01-28 16:29:16.17	252.64	18.25	-24.6	-25.1	16.8	0.00e+00	0	44	0	1404043264	9	3822
2026-01-28 16:29:17.18	252.86	18.30	-24.9	-25.7	16.5	0.00e+00	0	44	0	1411383296	9	3953
2026-01-28 16:29:18.18	253.09	18.34	-24.7	-25.3	16.8	0.00e+00	0	44	0	1418723328	9	3846
2026-01-28 16:29:19.18	253.31	18.38	-24.7	-25.3	16.8	0.00e+00	0	44	0	1426063360	9	3848
2026-01-28 16:29:20.19	253.54	18.42	-24.5	-24.9	16.9	0.00e+00	0	44	0	1433403392	9	3765
2026-01-28 16:29:21.20	253.76	18.46	-24.7	-25.2	16.7	0.00e+00	0	44	0	1440743424	9	3839
2026-01-28 16:29:22.20	253.99	18.50	-24.9	-25.8	16.5	0.00e+00	0	44	0	1447034880	9	3965
2026-01-28 16:29:23.20	254.22	18.54	-25.0	-26.0	16.3	0.00e+00	0	44	0	1454374912	9	4034
2026-01-28 16:29:24.21	254.45	18.58	-24.9	-25.8	16.5	0.00e+00	0	44	0	1461714944	9	3964
2026-01-28 16:29:25.21	254.67	18.62	-24.8	-25.6	16.6	0.00e+00	0	44	0	1469054976	9	3922
2026-01-28 16:29:26.21	254.90	18.66	-24.8	-25.4	16.7	0.00e+00	0	44	0	1476395008	9	3887
2026-01-28 16:29:27.22	255.13	18.70	-24.9	-25.6	16.5	0.00e+00	0	44	0	1483735040	9	3934
2026-01-28 16:29:28.23	255.36	18.74	-24.9	-25.7	16.5	0.00e+00	0	44	0	1491075072	9	3959
2026-01-28 16:29:29.24	255.60	18.78	-25.2	-25.9	16.2	0.00e+00	0	44	0	1498415104	10	3882
2026-01-28 16:29:30.24	255.83	18.82	-24.8	-24.9	16.7	0.00e+00	0	44	0	1505755136	10	3662
2026-01-28 16:29:31.25	256.06	18.85	-24.4	-24.2	17.1	0.00e+00	0	44	0	1513095168	10	3512
2026-01-28 16:29:32.25	256.29	18.89	-24.2	-24.2	17.3	0.00e+00	0	44	0	1520435200	9	3613
2026-01-28 16:29:33.25	256.52	18.93	-24.3	-24.5	17.1	0.00e+00	0	44	0	1527775232	9	3674
2026-01-28 16:29:34.25	256.75	18.96	-24.5	-24.9	16.9	0.00e+00	0	44	0	1534066688	9	3749
2026-01-28 16:29:35.25	256.99	19.00	-24.3	-24.5	17.2	0.00e+00	0	44	0	1541406720	9	3674
2026-01-28 16:29:36.26	257.22	19.03	-24.4	-24.7	17.0	0.00e+00	0	44	0	1548746752	9	3717
2026-01-28 16:29:37.26	257.46	19.07	-24.5	-24.9	16.9	0.00e+00	0	44	0	1556086784	9	3754
2026-01-28 16:29:38.27	257.69	19.10	-24.6	-25.0	16.9	0.00e+00	0	44	0	1563426816	9	3779
2026-01-28 16:29:39.27	257.93	19.14	-24.8	-25.5	16.6	0.00e+00	0	44	0	1570766848	9	3905
2026-01-28 16:29:40.28	258.17	19.17	-24.5	-25.0	16.9	5.70e-06	0	44	0	1578106880	9	3775
2026-01-28 16:29:41.27	258.40	19.20	-24.5	-24.8	17.0	0.00e+00	0	44	0	1585446912	9	3745
2026-01-28 16:29:42.28	258.64	19.23	-24.4	-24.7	17.1	0.00e+00	0	44	0	1592786944	9	3714
2026-01-28 16:29:43.29	258.88	19.27	-24.3	-24.5	17.2	5.70e-06	0	44	0	1600126976	9	3659
2026-01-28 16:29:44.29	259.12	19.30	-24.1	-24.1	17.4	0.00e+00	0	44	0	1607467008	9	3572
2026-01-28 16:29:45.29	259.35	19.33	-24.1	-24.0	17.4	0.00e+00	0	44	0	1614807040	9	3552
2026-01-28 16:29:46.30	259.59	19.36	-24.1	-24.0	17.4	2.20e-06	0	44	0	1621098496	9	3548
2026-01-28 16:29:47.30	259.83	19.39	-24.2	-24.2	17.3	0.00e+00	0	44	0	1628438528	9	3602
2026-01-28 16:29:48.31	260.07	19.42	-24.1	-24.1	17.4	0.00e+00	0	44	0	1635778560	9	3579
2026-01-28 16:29:49.31	260.31	19.45	-24.1	-24.1	17.4	0.00e+00	0	44	0	1643118592	9	3575
2026-01-28 16:29:50.31	260.55	19.48	-24.2	-24.2	17.3	0.00e+00	0	44	0	1650458624	9	3613
2026-01-28 16:29:51.31	260.79	19.51	-24.3	-24.3	17.3	0.00e+00	0	44	0	1657798656	9	3629
2026-01-28 16:29:52.31	261.04	19.54	-24.2	-24.2	17.3	0.00e+00	0	44	0	1665138688	9	3607
2026-01-28 16:29:53.30	261.28	19.56	-24.2	-24.3	17.3	0.00e+00	0	44	0	1672478720	9	3629
2026-01-28 16:29:54.31	261.52	19.59	-24.2	-24.3	17.3	0.00e+00	0	44	0	1678770176	9	3626
2026-01-28 16:29:55.31	261.76	19.62	-24.1	-24.1	17.4	0.00e+00	0	44	0	1686110208	9	3582
2026-01-28 16:29:56.32	262.01	19.64	-24.2	-24.2	17.3	0.00e+00	0	44	0	1693450240	9	3607
2026-01-28 16:29:57.32	262.25	19.67	-24.3	-24.3	17.3	0.00e+00	0	44	0	1700790272	9	3634
2026-01-28 16:29:58.32	262.49	19.69	-24.2	-24.2	17.3	3.40e-06	0	44	0	1708130304	9	3609
2026-01-28 16:29:59.33	262.74	19.72	-24.3	-24.5	17.1	0.00e+00	0	44	0	1715470336	9	3676
2026-01-28 16:30:00.34	262.99	19.74	-24.3	-24.5	17.2	0.00e+00	0	44	0	1722810368	9	3682
2026-01-28 16:30:01.34	263.23	19.77	-24.6	-25.0	16.9	0.00e+00	0	44	0	1730150400	9	3788
2026-01-28 16:30:02.35	263.48	19.79	-24.6	-25.1	16.8	0.00e+00	0	44	0	1737490432	9	3805
2026-01-28 16:30:03.36	263.73	19.81	-24.5	-24.8	17.0	0.00e+00	0	44	0	1744830464	9	3735
2026-01-28 16:30:04.36	263.97	19.84	-24.3	-24.4	17.2	0.00e+00	0	44	0	1752170496	9	3652
2026-01-28 16:30:05.36	264.22	19.86	-24.4	-24.6	17.1	0.00e+00	0	44	0	1759510528	9	3699
2026-01-28 16:30:06.36	264.46	19.88	-24.4	-24.7	17.1	0.00e+00	0	44	0	1765801984	9	3706
2026-01-28 16:30:07.36	264.71	19.90	-24.2	-24.2	17.3	0.00e+00	0	44	0	1773142016	9	3604
2026-01-28 16:30:08.36	264.96	19.92	-24.3	-24.3	17.3	0.00e+00	0	44	0	1780482048	9	3627
2026-01-28 16:30:09.37	265.21	19.94	-24.2	-24.3	17.3	0.00e+00	0	44	0	1787822080	9	3618
2026-01-28 16:30:10.36	265.45	19.96	-24.2	-24.2	17.3	0.00e+00	0	44	0	1795162112	9	3609
2026-01-28 16:30:11.36	265.70	19.98	-24.0	-23.7	17.6	0.00e+00	0	44	0	1802502144	9	3497
2026-01-28 16:30:12.36	265.95	20.00	-23.9	-23.6	17.7	0.00e+00	0	44	0	1809842176	9	3465
2026-01-28 16:30:13.36	266.20	20.01	-23.9	-24.1	17.6	0.00e+00	0	44	0	1817182208	8	3687
2026-01-28 16:30:14.36	266.45	20.03	-23.9	-24.1	17.6	0.00e+00	0	44	0	1824522240	8	3687
2026-01-28 16:30:15.36	266.70	20.05	-24.0	-24.2	17.6	0.00e+00	0	44	0	1830813696	8	3712
2026-01-28 16:30:16.37	266.95	20.06	-24.0	-24.4	17.5	0.00e+00	0	44	0	1838153728	8	3735
2026-01-28 16:30:17.37	267.20	20.08	-24.0	-24.3	17.6	0.00e+00	0	44	0	1845493760	8	3727
2026-01-28 16:30:18.37	267.45	20.09	-24.1	-24.4	17.6	0.00e+00	0	44	0	1852833792	8	3749
2026-01-28 16:30:19.37	267.70	20.11	-24.1	-24.6	17.4	0.00e+00	0	44	0	1860173824	8	3787
2026-01-28 16:30:20.37	267.95	20.12	-24.1	-24.6	17.4	0.00e+00	0	44	0	1867513856	8	3796
2026-01-28 16:30:21.37	268.20	20.13	-24.2	-24.7	17.4	0.00e+00	0	44	0	1874853888	8	3818
2026-01-28 16:30:22.37	268.45	20.15	-24.3	-24.9	17.2	0.00e+00	0	44	0	1882193920	8	3873
2026-01-28 16:30:23.38	268.70	20.16	-24.2	-24.8	17.3	0.00e+00	0	44	0	1889533952	8	3833
2026-01-28 16:30:24.38	268.95	20.17	-24.3	-24.9	17.2	0.00e+00	0	44	0	1896873984	8	3874
2026-01-28 16:30:25.38	269.20	20.18	-24.3	-24.8	17.3	0.00e+00	0	44	0	1903165440	8	3851
2026-01-28 16:30:26.38	269.45	20.19	-24.3	-24.9	17.3	0.00e+00	0	44	0	1910505472	8	3859
2026-01-28 16:30:27.38	269.71	20.20	-24.2	-24.7	17.3	0.00e+00	0	44	0	1917845504	8	3823
2026-01-28 16:30:28.38	269.96	20.21	-24.3	-24.9	17.2	0.00e+00	0	44	0	1925185536	8	3872
2026-01-28 16:30:29.39	270.21	20.22	-24.3	-25.0	17.2	0.00e+00	0	44	0	1932525568	8	3890
2026-01-28 16:30:30.39	270.46	20.23	-24.2	-24.7	17.4	0.00e+00	0	44	0	1939865600	8	3805
2026-01-28 16:30:31.39	270.72	20.24	-24.0	-24.3	17.6	0.00e+00	0	44	0	1947205632	8	3724
2026-01-28 16:30:32.40	270.97	20.25	-24.2	-24.6	17.4	0.00e+00	0	44	0	1954545664	8	3798
2026-01-28 16:30:33.40	271.22	20.25	-24.1	-24.5	17.4	0.00e+00	0	44	0	1961885696	8	3780
2026-01-28 16:30:34.40	271.48	20.26	-24.3	-25.0	17.2	0.00e+00	0	44	0	1969225728	8	3883
2026-01-28 16:30:35.41	271.73	20.27	-24.3	-25.0	17.2	0.00e+00	0	44	0	1975517184	8	3882
2026-01-28 16:30:36.41	271.98	20.27	-24.3	-24.9	17.2	0.00e+00	0	44	0	1982857216	8	3868
2026-01-28 16:30:37.41	272.24	20.28	-24.2	-24.7	17.3	0.00e+00	0	44	0	1990197248	8	3811
2026-01-28 16:30:38.42	272.49	20.28	-24.1	-24.4	17.5	0.00e+00	0	44	0	1997537280	8	3744
2026-01-28 16:30:39.42	272.74	20.28	-24.0	-24.3	17.6	0.00e+00	0	44	0	2004877312	8	3730
2026-01-28 16:30:40.42	273.00	20.29	-24.1	-24.6	17.4	0.00e+00	0	44	0	2012217344	8	3786
2026-01-28 16:30:41.42	273.25	20.29	-24.0	-24.4	17.5	0.00e+00	0	44	0	2019557376	8	3743
2026-01-28 16:30:42.43	273.50	20.29	-24.1	-24.4	17.5	0.00e+00	0	44	0	2026897408	8	3750
2026-01-28 16:30:43.43	273.76	20.29	-24.2	-24.8	17.3	0.00e+00	0	44	0	2034237440	8	3829
2026-01-28 16:30:44.44	274.01	20.29	-24.1	-24.5	17.5	0.00e+00	0	44	0	2041577472	8	3771
2026-01-28 16:30:45.44	274.27	20.29	-24.1	-24.6	17.4	0.00e+00	0	44	0	2048917504	8	3793
2026-01-28 16:30:46.45	274.52	20.29	-24.1	-24.6	17.4	0.00e+00	0	44	0	2055208960	8	3788
2026-01-28 16:30:47.45	274.77	20.29	-23.9	-24.2	17.7	0.00e+00	0	44	0	2062548992	8	3690
2026-01-28 16:30:48.46	275.03	20.29	-24.0	-24.3	17.6	0.00e+00	0	44	0	2069889024	8	3731
2026-01-28 16:30:49.46	275.28	20.29	-23.9	-24.1	17.7	0.00e+00	0	44	0	2077229056	8	3668
2026-01-28 16:30:50.47	275.54	20.29	-23.9	-24.2	17.6	0.00e+00	0	44	0	2084569088	8	3693
2026-01-28 16:30:51.47	275.79	20.28	-24.0	-24.2	17.6	0.00e+00	0	44	0	2091909120	8	3702
2026-01-28 16:30:52.47	276.04	20.28	-24.1	-24.4	17.5	0.00e+00	0	44	0	2099249152	8	3750
2026-01-28 16:30:53.48	276.30	20.27	-24.1	-24.5	17.5	0.00e+00	0	44	0	2106589184	8	3759
2026-01-28 16:30:54.48	276.55	20.27	-24.1	-24.6	17.4	0.00e+00	0	44	0	2113929216	8	3787
2026-01-28 16:30:55.49	276.81	20.26	-24.2	-24.8	17.3	0.00e+00	0	44	0	2121269248	8	3830
2026-01-28 16:30:56.49	277.06	20.26	-24.3	-25.0	17.2	0.00e+00	0	44	0	2128609280	8	3888
2026-01-28 16:30:57.49	277.31	20.25	-24.4	-25.1	17.2	0.00e+00	0	44	0	2135949312	8	3898
2026-01-28 16:30:58.49	277.56	20.25	-24.4	-25.2	17.1	0.00e+00	0	44	0	2142240768	8	3944
2026-01-28 16:30:59.50	277.82	20.24	-24.4	-25.2	17.1	0.00e+00	0	44	0	2149580800	8	3934
2026-01-28 16:31:00.50	278.07	20.23	-24.5	-25.3	17.1	0.00e+00	0	44	0	2156920832	8	3957
2026-01-28 16:31:01.51	278.32	20.22	-24.5	-25.4	17.0	0.00e+00	0	44	0	2164260864	8	3996
2026-01-28 16:31:02.51	278.58	20.21	-24.7	-25.3	16.8	0.00e+00	0	44	0	2171600896	9	3860
2026-01-28 16:31:03.51	278.83	20.20	-24.7	-25.2	16.9	0.00e+00	0	44	0	2178940928	9	3835
2026-01-28 16:31:04.52	279.08	20.19	-24.5	-24.9	17.0	0.00e+00	0	44	0	2186280960	9	3756
2026-01-28 16:31:05.52	279.33	20.18	-24.4	-24.7	17.1	0.00e+00	0	44	0	2193620992	9	3724
2026-01-28 16:31:06.53	279.58	20.17	-24.4	-24.6	17.2	0.00e+00	0	44	0	2200961024	9	3690
2026-01-28 16:31:07.53	279.84	20.16	-24.3	-24.5	17.3	0.00e+00	0	44	0	2208301056	9	3657
2026-01-28 16:31:08.54	280.09	20.15	-24.4	-24.7	17.1	0.00e+00	0	44	0	2215641088	9	3702
2026-01-28 16:31:09.55	280.34	20.13	-24.5	-24.8	17.1	0.00e+00	0	44	0	2222981120	9	3725
2026-01-28 16:31:10.55	280.59	20.12	-24.6	-25.1	16.9	0.00e+00	0	44	0	2229272576	9	3808
2026-01-28 16:31:11.54	280.84	20.10	-24.7	-25.2	16.9	0.00e+00	0	44	0	2236612608	9	3824
2026-01-28 16:31:12.55	281.09	20.09	-24.5	-24.8	17.0	0.00e+00	0	44	0	2243952640	9	3749
2026-01-28 16:31:13.55	281.34	20.08	-24.3	-24.5	17.2	0.00e+00	0	44	0	2251292672	9	3660
2026-01-28 16:31:14.56	281.59	20.06	-24.3	-24.4	17.3	0.00e+00	0	44	0	2258632704	9	3640
2026-01-28 16:31:15.56	281.84	20.04	-24.2	-24.2	17.3	0.00e+00	0	44	0	2265972736	9	3611
2026-01-28 16:31:16.56	282.09	20.03	-24.1	-24.0	17.5	0.00e+00	0	44	0	2273312768	9	3559
2026-01-28 16:31:17.57	282.34	20.01	-24.2	-24.2	17.4	0.00e+00	0	44	0	2280652800	9	3604
2026-01-28 16:31:18.58	282.59	19.99	-24.3	-24.4	17.3	0.00e+00	0	44	0	2287992832	9	3642
2026-01-28 16:31:19.58	282.84	19.97	-24.4	-24.5	17.2	0.00e+00	0	44	0	2295332864	9	3672
2026-01-28 16:31:20.58	283.09	19.95	-24.3	-24.4	17.3	0.00e+00	0	44	0	2302672896	9	3638
2026-01-28 16:31:21.59	283.34	19.94	-24.3	-24.4	17.3	0.00e+00	0	44	0	2308964352	9	3643
2026-01-28 16:31:22.60	283.59	19.92	-24.3	-24.4	17.2	0.00e+00	0	44	0	2316304384	9	3652
2026-01-28 16:31:23.60	283.83	19.90	-24.3	-24.5	17.2	0.00e+00	0	44	0	2323644416	9	3666
2026-01-28 16:31:24.60	284.08	19.87	-24.3	-24.4	17.3	0.00e+00	0	44	0	2330984448	9	3640
2026-01-28 16:31:25.61	284.33	19.85	-24.2	-24.3	17.3	0.00e+00	0	44	0	2338324480	9	3629
2026-01-28 16:31:26.62	284.57	19.83	-24.3	-24.5	17.2	0.00e+00	0	44	0	2345664512	9	3660
2026-01-28 16:31:27.62	284.82	19.81	-24.4	-24.6	17.2	0.00e+00	0	44	0	2353004544	9	3694
2026-01-28 16:31:28.62	285.06	19.79	-24.4	-24.7	17.1	0.00e+00	0	44	0	2360344576	9	3721
2026-01-28 16:31:29.62	285.31	19.76	-24.4	-24.7	17.1	0.00e+00	0	44	0	2367684608	9	3706
2026-01-28 16:31:30.62	285.55	19.74	-24.4	-24.6	17.1	0.00e+00	0	44	0	2373976064	9	3700
2026-01-28 16:31:31.62	285.80	19.71	-24.4	-24.7	17.1	0.00e+00	0	44	0	2381316096	9	3720
2026-01-28 16:31:32.62	286.04	19.69	-24.3	-24.5	17.2	0.00e+00	0	44	0	2388656128	9	3655
2026-01-28 16:31:33.63	286.29	19.66	-24.3	-24.4	17.3	0.00e+00	0	44	0	2395996160	9	3635
2026-01-28 16:31:34.63	286.53	19.64	-24.3	-24.4	17.3	0.00e+00	0	44	0	2403336192	9	3633
2026-01-28 16:31:35.64	286.77	19.61	-24.2	-24.3	17.3	0.00e+00	0	44	0	2410676224	9	3622
2026-01-28 16:31:36.64	287.01	19.59	-24.3	-24.4	17.2	0.00e+00	0	44	0	2418016256	9	3634
2026-01-28 16:31:37.64	287.26	19.56	-24.3	-24.4	17.3	0.00e+00	0	44	0	2425356288	9	3648
2026-01-28 16:31:38.64	287.50	19.53	-24.3	-24.5	17.2	0.00e+00	0	44	0	2432696320	9	3659
2026-01-28 16:31:39.64	287.74	19.50	-24.4	-24.6	17.2	0.00e+00	0	44	0	2440036352	9	3692
2026-01-28 16:31:40.65	287.98	19.47	-24.3	-24.5	17.2	0.00e+00	0	44	0	2447376384	9	3675
2026-01-28 16:31:41.65	288.22	19.45	-24.3	-24.5	17.2	0.00e+00	0	44	0	2454716416	9	3659
2026-01-28 16:31:42.66	288.46	19.42	-24.4	-24.5	17.2	0.00e+00	0	44	0	2461007872	9	3675
2026-01-28 16:31:43.66	288.70	19.39	-24.3	-24.5	17.2	0.00e+00	0	44	0	2468347904	9	3673
2026-01-28 16:31:44.66	288.94	19.36	-24.3	-24.5	17.2	0.00e+00	0	44	0	2475687936	9	3669
2026-01-28 16:31:45.66	289.17	19.33	-24.3	-24.4	17.3	0.00e+00	0	44	0	2483027968	9	3646
2026-01-28 16:31:46.66	289.41	19.29	-24.3	-24.5	17.2	0.00e+00	0	44	0	2490368000	9	3669
2026-01-28 16:31:47.66	289.65	19.26	-24.3	-24.4	17.2	0.00e+00	0	44	0	2497708032	9	3647
2026-01-28 16:31:48.66	289.88	19.23	-24.2	-24.3	17.3	0.00e+00	0	44	0	2505048064	9	3617
2026-01-28 16:31:49.67	290.12	19.20	-24.3	-24.4	17.3	0.00e+00	0	44	0	2512388096	9	3637
2026-01-28 16:31:50.67	290.36	19.16	-24.3	-24.5	17.2	0.00e+00	0	44	0	2518679552	9	3658
2026-01-28 16:31:51.67	290.59	19.13	-24.4	-24.6	17.2	0.00e+00	0	44	0	2526019584	9	3682
2026-01-28 16:31:52.67	290.83	19.10	-24.4	-24.7	17.1	0.00e+00	0	44	0	2533359616	9	3724
2026-01-28 16:31:53.67	291.06	19.06	-24.5	-25.0	17.0	0.00e+00	0	44	0	2540699648	9	3775
2026-01-28 16:31:54.68	291.30	19.03	-24.6	-25.0	16.9	0.00e+00	0	44	0	2548039680	9	3787
2026-01-28 16:31:55.69	291.53	18.99	-24.6	-25.1	16.9	0.00e+00	0	44	0	2555379712	9	3796
2026-01-28 16:31:56.70	291.77	18.96	-24.6	-25.1	16.9	0.00e+00	0	44	0	2562719744	9	3807
2026-01-28 16:31:57.69	291.99	18.92	-24.6	-25.0	16.9	0.00e+00	0	44	0	2570059776	9	3782
2026-01-28 16:31:58.69	292.23	18.89	-24.6	-25.0	16.9	0.00e+00	0	44	0	2577399808	9	3791
2026-01-28 16:31:59.70	292.46	18.85	-24.5	-25.0	16.9	0.00e+00	0	44	0	2584739840	9	3772
2026-01-28 16:32:00.70	292.69	18.81	-24.6	-25.0	16.9	0.00e+00	0	44	0	2592079872	9	3783
2026-01-28 16:32:01.71	292.92	18.77	-24.6	-25.1	16.9	0.00e+00	0	44	0	2599419904	9	3798
2026-01-28 16:32:02.71	293.15	18.74	-24.5	-24.9	17.0	0.00e+00	0	44	0	2605711360	9	3759
2026-01-28 16:32:03.71	293.38	18.70	-24.6	-25.1	16.9	0.00e+00	0	44	0	2613051392	9	3797
2026-01-28 16:32:04.72	293.61	18.66	-24.5	-24.9	17.0	0.00e+00	0	44	0	2620391424	9	3755
2026-01-28 16:32:05.72	293.83	18.62	-24.5	-24.8	17.1	0.00e+00	0	44	0	2627731456	9	3744
2026-01-28 16:32:06.72	294.06	18.58	-24.6	-25.0	17.0	0.00e+00	0	44	0	2635071488	9	3777
2026-01-28 16:32:07.73	294.29	18.54	-24.5	-24.7	17.1	0.00e+00	0	44	0	2642411520	9	3716
2026-01-28 16:32:08.73	294.51	18.50	-24.4	-24.6	17.1	0.00e+00	0	44	0	2649751552	9	3685
2026-01-28 16:32:09.74	294.74	18.46	-24.6	-25.0	16.9	0.00e+00	0	44	0	2657091584	9	3788
2026-01-28 16:32:10.74	294.97	18.42	-24.6	-25.2	16.8	0.00e+00	0	44	0	2664431616	9	3823
2026-01-28 16:32:11.75	295.19	18.38	-24.6	-25.1	16.9	0.00e+00	0	44	0	2671771648	9	3811
2026-01-28 16:32:12.75	295.41	18.34	-24.8	-25.4	16.7	0.00e+00	0	44	0	2679111680	9	3890
2026-01-28 16:32:13.75	295.64	18.29	-24.7	-25.2	16.8	0.00e+00	0	44	0	2685403136	9	3824
2026-01-28 16:32:14.76	295.86	18.25	-24.6	-25.1	16.8	0.00e+00	0	44	0	2692743168	9	3813
2026-01-28 16:32:15.76	296.08	18.21	-24.6	-25.1	16.9	0.00e+00	0	44	0	2700083200	9	3797
2026-01-28 16:32:16.77	296.30	18.17	-24.8	-25.4	16.7	0.00e+00	0	44	0	2707423232	9	3887
2026-01-28 16:32:17.77	296.52	18.12	-24.7	-25.3	16.8	0.00e+00	0	44	0	2714763264	9	3843
2026-01-28 16:32:18.78	296.75	18.08	-24.7	-25.3	16.8	0.00e+00	0	44	0	2722103296	9	3847
2026-01-28 16:32:19.78	296.96	18.03	-24.6	-25.1	16.9	0.00e+00	0	44	0	2729443328	9	3812
2026-01-28 16:32:20.78	297.18	17.99	-24.7	-25.2	16.8	0.00e+00	0	44	0	2736783360	9	3835
2026-01-28 16:32:21.79	297.40	17.95	-24.7	-25.4	16.7	0.00e+00	0	44	0	2744123392	9	3866
2026-01-28 16:32:22.79	297.62	17.90	-24.7	-25.3	16.7	0.00e+00	0	44	0	2751463424	9	3859
2026-01-28 16:32:23.79	297.84	17.86	-24.8	-25.4	16.7	0.00e+00	0	44	0	2758803456	9	3874
2026-01-28 16:32:24.79	298.05	17.81	-24.8	-25.5	16.7	0.00e+00	0	44	0	2766143488	9	3894
2026-01-28 16:32:25.80	298.27	17.76	-24.9	-25.7	16.5	0.00e+00	0	44	0	2772434944	9	3946
2026-01-28 16:32:26.80	298.48	17.72	-24.9	-25.7	16.5	0.00e+00	0	44	0	2779774976	9	3952
2026-01-28 16:32:27.80	298.70	17.67	-24.9	-25.7	16.5	0.00e+00	0	44	0	2787115008	9	3949
2026-01-28 16:32:28.81	298.91	17.62	-24.9	-25.7	16.5	0.00e+00	0	44	0	2794455040	9	3957
2026-01-28 16:32:29.82	299.13	17.58	-25.0	-26.0	16.4	0.00e+00	0	44	0	2801795072	9	4014
2026-01-28 16:32:30.82	299.34	17.53	-25.0	-25.3	16.5	0.00e+00	0	44	0	2809135104	10	3760
2026-01-28 16:32:31.83	299.55	17.48	-24.9	-25.2	16.5	0.00e+00	0	44	0	2816475136	10	3739
2026-01-28 16:32:32.83	299.76	17.43	-24.8	-25.0	16.6	0.00e+00	0	44	0	2823815168	10	3689
2026-01-28 16:32:33.84	299.97	17.39	-24.9	-25.2	16.6	0.00e+00	0	44	0	2831155200	10	3713
2026-01-28 16:32:34.84	300.18	17.34	-24.8	-25.0	16.7	0.00e+00	0	44	0	2838495232	10	3680
2026-01-28 16:32:35.84	300.39	17.29	-24.9	-25.1	16.6	0.00e+00	0	44	0	2845835264	10	3708
2026-01-28 16:32:36.84	300.60	17.24	-24.9	-25.1	16.6	0.00e+00	0	44	0	2853175296	10	3700
2026-01-28 16:32:37.84	300.81	17.19	-24.8	-25.1	16.6	0.00e+00	0	44	0	2859466752	10	3701
2026-01-28 16:32:38.84	301.01	17.14	-24.9	-25.2	16.5	0.00e+00	0	44	0	2866806784	10	3736
2026-01-28 16:32:39.84	301.22	17.09	-24.9	-25.3	16.5	0.00e+00	0	44	0	2874146816	10	3743
2026-01-28 16:32:40.85	301.42	17.04	-25.0	-25.5	16.4	0.00e+00	0	44	0	2881486848	10	3792
2026-01-28 16:32:41.85	301.63	16.99	-25.1	-25.6	16.3	0.00e+00	0	44	0	2888826880	10	3822
2026-01-28 16:32:42.86	301.83	16.94	-25.0	-25.4	16.4	0.00e+00	0	44	0	2896166912	10	3775
2026-01-28 16:32:43.87	302.04	16.89	-25.0	-25.5	16.4	0.00e+00	0	44	0	2903506944	10	3791
2026-01-28 16:32:44.87	302.24	16.84	-25.1	-25.6	16.3	0.00e+00	0	44	0	2910846976	10	3820
2026-01-28 16:32:45.88	302.45	16.79	-25.1	-25.7	16.3	0.00e+00	0	44	0	2917138432	10	3849
2026-01-28 16:32:46.88	302.65	16.74	-25.1	-25.6	16.3	0.00e+00	0	44	0	2925527040	10	3817
2026-01-28 16:32:47.88	302.85	16.68	-25.2	-25.8	16.2	0.00e+00	0	44	0	2932867072	10	3863
2026-01-28 16:32:48.89	303.05	16.63	-25.1	-25.7	16.3	0.00e+00	0	44	0	2939158528	10	3833
2026-01-28 16:32:49.89	303.25	16.58	-25.1	-25.7	16.3	0.00e+00	0	44	0	2946498560	10	3837
2026-01-28 16:32:50.89	303.45	16.53	-25.2	-25.8	16.2	0.00e+00	0	44	0	2953838592	10	3873
2026-01-28 16:32:51.88	303.64	16.48	-25.1	-25.6	16.4	0.00e+00	0	44	0	2961178624	10	3813
2026-01-28 16:32:52.89	303.84	16.42	-25.0	-25.5	16.3	0.00e+00	0	44	0	2968518656	10	3794
2026-01-28 16:32:53.88	304.04	16.37	-25.1	-25.6	16.3	0.00e+00	0	44	0	2975858688	10	3821
2026-01-28 16:32:54.88	304.23	16.32	-25.3	-26.0	16.1	0.00e+00	0	44	0	2983198720	10	3917
2026-01-28 16:32:55.89	304.43	16.27	-25.1	-25.7	16.2	0.00e+00	0	44	0	2990538752	10	3849
2026-01-28 16:32:56.88	304.62	16.21	-25.1	-25.6	16.3	0.00e+00	0	44	0	2997878784	10	3827
2026-01-28 16:32:57.89	304.82	16.16	-25.1	-25.6	16.3	0.00e+00	0	44	0	3004170240	10	3820
2026-01-28 16:32:58.89	305.01	16.10	-25.0	-25.5	16.4	0.00e+00	0	44	0	3011510272	10	3798
2026-01-28 16:32:59.90	305.20	16.05	-24.9	-25.3	16.5	0.00e+00	0	44	0	3018850304	10	3744
2026-01-28 16:33:00.90	305.39	16.00	-25.0	-25.4	16.4	0.00e+00	0	44	0	3026190336	10	3761
2026-01-28 16:33:01.90	305.59	15.94	-25.2	-25.8	16.2	0.00e+00	0	44	0	3033530368	10	3865
2026-01-28 16:33:02.91	305.78	15.89	-25.2	-25.9	16.1	0.00e+00	0	44	0	3040870400	10	3881
2026-01-28 16:33:03.92	305.97	15.83	-25.2	-25.9	16.1	0.00e+00	0	44	0	3048210432	10	3895
2026-01-28 16:33:04.92	306.16	15.78	-25.3	-26.1	16.0	0.00e+00	0	44	0	3055550464	10	3941
2026-01-28 16:33:05.92	306.35	15.72	-25.4	-26.3	15.9	0.00e+00	0	44	0	3062890496	10	3994
2026-01-28 16:33:06.93	306.54	15.67	-25.5	-26.5	15.8	0.00e+00	0	44	0	3070230528	10	4039
2026-01-28 16:33:07.94	306.72	15.61	-25.6	-26.3	15.7	1.10e-06	0	44	0	3077570560	11	3870
2026-01-28 16:33:08.94	306.91	15.56	-26.1	-27.2	15.2	0.00e+00	0	44	0	3084910592	11	4109
2026-01-28 16:33:09.95	307.10	15.50	-25.7	-26.5	15.5	0.00e+00	0	44	0	3091202048	11	3937
2026-01-28 16:33:10.95	307.28	15.44	-25.5	-26.1	15.7	0.00e+00	0	44	0	3098542080	11	3831
2026-01-28 16:33:11.95	307.47	15.39	-25.4	-25.9	15.9	0.00e+00	0	44	0	3105882112	11	3790
2026-01-28 16:33:12.95	307.65	15.33	-25.4	-25.9	15.9	0.00e+00	0	44	0	3113222144	11	3779
2026-01-28 16:33:13.96	307.84	15.27	-25.5	-26.0	15.8	0.00e+00	0	44	0	3120562176	11	3813
2026-01-28 16:33:14.96	308.02	15.22	-25.6	-26.2	15.7	0.00e+00	0	44	0	3127902208	11	3864
2026-01-28 16:33:15.97	308.20	15.16	-25.6	-26.2	15.7	0.00e+00	0	44	0	3135242240	11	3853
2026-01-28 16:33:16.97	308.38	15.10	-25.6	-26.2	15.7	0.00e+00	0	44	0	3142582272	11	3857
2026-01-28 16:33:17.97	308.56	15.05	-25.6	-26.3	15.6	0.00e+00	0	44	0	3148873728	11	3888
2026-01-28 16:33:18.97	308.74	14.99	-25.8	-26.8	15.4	0.00e+00	0	44	0	3156213760	11	4000
2026-01-28 16:33:19.98	308.92	14.93	-25.7	-26.4	15.6	0.00e+00	0	44	0	3164602368	11	3918
2026-01-28 16:33:20.98	309.10	14.88	-25.9	-26.9	15.3	0.00e+00	0	44	0	3170893824	11	4029
2026-01-28 16:33:21.98	309.28	14.82	-25.7	-26.5	15.6	0.00e+00	0	44	0	3178233856	11	3926
2026-01-28 16:33:22.98	309.45	14.76	-25.6	-26.2	15.7	0.00e+00	0	44	0	3185573888	11	3872
2026-01-28 16:33:23.99	309.63	14.70	-25.7	-26.5	15.6	0.00e+00	0	44	0	3192913920	11	3926
2026-01-28 16:33:25.00	309.81	14.65	-25.6	-26.3	15.6	0.00e+00	0	44	0	3200253952	11	3871
2026-01-28 16:33:25.99	309.98	14.59	-25.6	-26.3	15.6	0.00e+00	0	44	0	3207593984	11	3889
2026-01-28 16:33:26.99	310.16	14.53	-25.8	-26.7	15.4	0.00e+00	0	44	0	3214934016	11	3976
2026-01-28 16:33:28.00	310.33	14.47	-26.0	-27.0	15.2	0.00e+00	0	44	0	3222274048	11	4062
2026-01-28 16:33:29.01	310.51	14.41	-25.9	-26.7	15.4	0.00e+00	0	44	0	3229614080	11	3989
2026-01-28 16:33:30.02	310.68	14.36	-25.7	-26.4	15.5	0.00e+00	0	44	0	3235905536	11	3917
2026-01-28 16:33:31.02	310.85	14.30	-25.7	-26.4	15.5	0.00e+00	0	44	0	3243245568	11	3922
2026-01-28 16:33:32.02	311.02	14.24	-25.7	-26.5	15.5	0.00e+00	0	44	0	3250585600	11	3936
2026-01-28 16:33:33.03	311.19	14.18	-25.8	-26.7	15.4	0.00e+00	0	44	0	3257925632	11	3985
2026-01-28 16:33:34.04	311.36	14.12	-25.8	-26.7	15.4	0.00e+00	0	44	0	3265265664	11	3977
2026-01-28 16:33:35.04	311.53	14.06	-26.0	-27.2	15.1	0.00e+00	0	44	0	3272605696	11	4102
2026-01-28 16:33:36.05	311.70	14.00	-25.9	-26.8	15.3	0.00e+00	0	44	0	3279945728	11	4018
2026-01-28 16:33:37.05	311.87	13.95	-25.9	-26.8	15.3	0.00e+00	0	44	0	3287285760	11	4018
2026-01-28 16:33:38.06	312.04	13.89	-25.9	-26.9	15.2	0.00e+00	0	44	0	3294625792	11	4037
2026-01-28 16:33:39.05	312.20	13.83	-25.9	-26.8	15.3	0.00e+00	0	44	0	3301965824	11	4021
2026-01-28 16:33:40.06	312.37	13.77	-26.0	-27.0	15.2	0.00e+00	0	44	0	3309305856	11	4064
2026-01-28 16:33:41.06	312.54	13.71	-25.9	-26.9	15.2	0.00e+00	0	44	0	3315597312	11	4039
2026-01-28 16:33:42.07	312.70	13.65	-26.0	-27.0	15.2	0.00e+00	0	44	0	3322937344	11	4071
2026-01-28 16:33:43.08	312.87	13.59	-26.0	-27.1	15.1	0.00e+00	0	44	0	3330277376	11	4101
2026-01-28 16:33:44.07	313.03	13.53	-25.9	-26.8	15.3	0.00e+00	0	44	0	3337617408	11	4006
2026-01-28 16:33:45.08	313.19	13.47	-25.8	-26.8	15.3	0.00e+00	0	44	0	3344957440	11	4001
2026-01-28 16:33:46.08	313.36	13.41	-25.8	-26.7	15.3	0.00e+00	0	44	0	3352297472	11	3990
2026-01-28 16:33:47.08	313.52	13.35	-25.7	-26.4	15.5	0.00e+00	0	44	0	3359637504	11	3919
2026-01-28 16:33:48.08	313.68	13.29	-25.7	-26.4	15.5	0.00e+00	0	44	0	3366977536	11	3909
2026-01-28 16:33:49.09	313.84	13.23	-25.8	-26.6	15.4	0.00e+00	0	44	0	3374317568	11	3969
2026-01-28 16:33:50.09	314.00	13.17	-25.6	-26.1	15.7	0.00e+00	0	44	0	3381657600	11	3845
2026-01-28 16:33:51.09	314.16	13.11	-25.4	-25.8	15.8	0.00e+00	0	44	0	3388997632	11	3776
2026-01-28 16:33:52.10	314.32	13.05	-25.5	-26.0	15.7	0.00e+00	0	44	0	3396337664	11	3829
2026-01-28 16:33:53.10	314.47	12.99	-25.5	-26.0	15.7	0.00e+00	0	44	0	3402629120	11	3814
2026-01-28 16:33:54.10	314.63	12.94	-25.6	-26.2	15.6	0.00e+00	0	44	0	3409969152	11	3861
2026-01-28 16:33:55.11	314.79	12.87	-25.7	-26.6	15.4	0.00e+00	0	44	0	3417309184	11	3949
2026-01-28 16:33:56.11	314.94	12.82	-25.8	-26.7	15.3	0.00e+00	0	44	0	3424649216	11	3987
2026-01-28 16:33:57.11	315.10	12.76	-25.9	-26.9	15.2	0.00e+00	0	44	0	3431989248	11	4047
2026-01-28 16:33:58.11	315.25	12.70	-25.9	-27.0	15.2	1.10e-06	0	44	0	3439329280	11	4048
2026-01-28 16:33:59.11	315.41	12.64	-26.1	-26.8	15.0	0.00e+00	0	44	0	3446669312	12	3899
2026-01-28 16:34:00.11	315.56	12.58	-26.1	-26.8	14.9	0.00e+00	0	44	0	3454009344	12	3904
2026-01-28 16:34:01.11	315.71	12.52	-26.4	-27.4	14.6	0.00e+00	0	44	0	3461349376	12	4062
2026-01-28 16:34:02.12	315.87	12.45	-26.2	-27.1	14.7	0.00e+00	0	44	0	3467640832	12	3987
2026-01-28 16:34:03.12	316.02	12.39	-26.2	-27.1	14.8	0.00e+00	0	44	0	3474980864	12	3974
2026-01-28 16:34:04.11	316.17	12.34	-26.2	-27.1	14.7	1.10e-06	0	44	0	3482320896	12	3987
2026-01-28 16:34:05.12	316.32	12.27	-26.4	-27.4	14.6	1.10e-06	0	44	0	3489660928	12	4056
2026-01-28 16:34:06.12	316.47	12.21	-26.1	-26.8	14.9	0.00e+00	0	44	0	3497000960	12	3916
2026-01-28 16:34:07.12	316.62	12.15	-26.1	-26.9	14.8	1.10e-06	0	44	0	3504340992	12	3932
2026-01-28 16:34:08.13	316.77	12.09	-26.1	-26.9	14.8	0.00e+00	0	44	0	3511681024	12	3941
2026-01-28 16:34:09.13	316.91	12.03	-26.0	-26.6	15.0	0.00e+00	0	44	0	3519021056	12	3864
2026-01-28 16:34:10.14	317.06	11.97	-25.9	-26.3	15.1	0.00e+00	0	44	0	3526361088	12	3795
2026-01-28 16:34:11.14	317.21	11.91	-25.9	-26.3	15.1	0.00e+00	0	44	0	3533701120	12	3789
2026-01-28 16:34:12.15	317.36	11.85	-25.9	-26.4	15.1	0.00e+00	0	44	0	3541041152	12	3820
2026-01-28 16:34:13.15	317.50	11.79	-25.8	-26.3	15.2	0.00e+00	0	44	0	3547332608	12	3779
2026-01-28 16:34:14.15	317.65	11.73	-25.8	-26.2	15.1	0.00e+00	0	44	0	3554672640	12	3767
2026-01-28 16:34:15.15	317.79	11.67	-25.9	-26.4	15.1	0.00e+00	0	44	0	3562012672	12	3817
2026-01-28 16:34:16.16	317.94	11.61	-25.7	-26.1	15.3	0.00e+00	0	44	0	3569352704	12	3736
2026-01-28 16:34:17.16	318.08	11.55	-25.9	-26.3	15.1	0.00e+00	0	44	0	3576692736	12	3800
2026-01-28 16:34:18.16	318.22	11.49	-26.0	-26.6	15.0	0.00e+00	0	44	0	3584032768	12	3854
2026-01-28 16:34:19.16	318.36	11.43	-25.9	-26.5	15.0	0.00e+00	0	44	0	3591372800	12	3844
2026-01-28 16:34:20.17	318.51	11.37	-26.0	-26.7	14.9	0.00e+00	0	44	0	3598712832	12	3882
2026-01-28 16:34:21.17	318.65	11.31	-26.0	-26.6	14.9	0.00e+00	0	44	0	3606052864	12	3871
2026-01-28 16:34:22.17	318.79	11.25	-26.1	-26.8	14.8	0.00e+00	0	44	0	3612344320	12	3908
2026-01-28 16:34:23.18	318.93	11.19	-26.1	-26.8	14.8	0.00e+00	0	44	0	3619684352	12	3919
2026-01-28 16:34:24.18	319.07	11.13	-26.2	-27.0	14.7	2.20e-06	0	44	0	3628072960	12	3963
2026-01-28 16:34:25.18	319.21	11.07	-26.3	-27.3	14.5	1.10e-06	0	44	0	3634364416	12	4044
2026-01-28 16:34:26.19	319.35	11.01	-26.3	-27.3	14.5	1.10e-06	0	44	0	3641704448	12	4039
2026-01-28 16:34:27.19	319.48	10.94	-26.5	-27.8	14.3	0.00e+00	0	44	0	3649044480	12	4160
2026-01-28 16:34:28.20	319.62	10.88	-26.7	-27.7	14.0	1.10e-06	0	44	0	3656384512	13	4041
2026-01-28 16:34:29.20	319.76	10.82	-26.9	-28.1	13.8	8.00e-06	0	44	0	3663724544	13	4144
2026-01-28 16:34:30.21	319.90	10.76	-26.6	-27.5	14.1	3.40e-06	0	44	0	3671064576	13	4002
2026-01-28 16:34:31.21	320.03	10.70	-26.6	-27.4	14.2	1.10e-06	0	44	0	3678404608	13	3970
2026-01-28 16:34:32.21	320.17	10.64	-26.6	-27.4	14.1	2.20e-06	0	44	0	3685744640	13	3966
2026-01-28 16:34:33.22	320.30	10.58	-26.5	-27.3	14.2	2.20e-06	0	44	0	3692036096	13	3932
2026-01-28 16:34:34.22	320.43	10.52	-26.5	-27.4	14.2	3.40e-06	0	44	0	3699376128	13	3958
2026-01-28 16:34:35.22	320.57	10.46	-26.4	-27.1	14.3	1.10e-06	0	44	0	3706716160	13	3896
2026-01-28 16:34:36.22	320.70	10.40	-26.4	-27.1	14.3	1.10e-06	0	44	0	3714056192	13	3880
2026-01-28 16:34:37.22	320.83	10.34	-26.4	-27.1	14.3	0.00e+00	0	44	0	3721396224	13	3896
2026-01-28 16:34:38.22	320.96	10.28	-26.4	-27.0	14.4	1.10e-06	0	44	0	3728736256	13	3859
2026-01-28 16:34:39.23	321.10	10.22	-26.4	-27.1	14.3	0.00e+00	0	44	0	3736076288	13	3901
2026-01-28 16:34:40.23	321.23	10.16	-26.5	-27.2	14.2	3.40e-06	0	44	0	3743416320	13	3924
2026-01-28 16:34:41.24	321.36	10.10	-26.4	-27.0	14.3	1.10e-06	0	44	0	3750756352	13	3862
2026-01-28 16:34:42.25	321.49	10.04	-26.4	-27.1	14.3	0.00e+00	0	44	0	3758096384	13	3892
2026-01-28 16:34:43.25	321.62	9.98	-26.5	-27.3	14.2	0.00e+00	0	44	0	3765436416	13	3937
2026-01-28 16:34:44.25	321.75	9.92	-26.5	-27.3	14.2	0.00e+00	0	44	0	3772776448	13	3935
2026-01-28 16:34:45.25	321.88	9.86	-26.5	-27.3	14.2	4.50e-06	0	44	0	3779067904	13	3941
2026-01-28 16:34:46.26	322.00	9.80	-26.5	-27.4	14.1	1.10e-06	0	44	0	3786407936	13	3965
2026-01-28 16:34:47.25	322.13	9.74	-26.5	-27.4	14.1	1.10e-06	0	44	0	3793747968	13	3959
2026-01-28 16:34:48.26	322.26	9.68	-26.5	-27.3	14.1	0.00e+00	0	44	0	3801088000	13	3934
2026-01-28 16:34:49.27	322.38	9.62	-26.6	-27.5	14.0	5.70e-06	0	44	0	3808428032	13	3988
2026-01-28 16:34:50.26	322.51	9.56	-26.6	-27.6	14.0	1.10e-06	0	44	0	3815768064	13	4023
2026-01-28 16:34:51.27	322.64	9.50	-26.7	-27.8	13.9	6.80e-06	0	44	0	3823108096	13	4065
2026-01-28 16:34:52.27	322.76	9.44	-26.7	-27.7	13.9	1.10e-06	0	44	0	3830448128	13	4042
2026-01-28 16:34:53.28	322.88	9.38	-26.8	-28.0	13.7	5.70e-06	0	44	0	3837788160	13	4134
2026-01-28 16:34:54.28	323.01	9.32	-26.8	-28.0	13.8	6.80e-06	0	44	0	3845128192	13	4111
2026-01-28 16:34:55.28	323.13	9.26	-27.0	-28.4	13.5	1.48e-05	0	44	0	3852468224	13	4222
2026-01-28 16:34:56.28	323.25	9.20	-26.9	-28.3	13.5	1.25e-05	0	44	0	3859808256	13	4193
2026-01-28 16:34:57.29	323.38	9.14	-26.9	-28.1	13.6	1.02e-05	0	44	0	3866099712	13	4153
2026-01-28 16:34:58.29	323.50	9.08	-26.7	-27.7	13.9	1.02e-05	0	44	0	3873439744	13	4045
2026-01-28 16:34:59.30	323.62	9.02	-26.8	-27.9	13.8	4.50e-06	0	44	0	3880779776	13	4087
2026-01-28 16:35:00.30	323.74	8.96	-26.8	-28.0	13.7	5.70e-06	0	44	0	3888119808	13	4121
2026-01-28 16:35:01.31	323.86	8.90	-26.8	-28.0	13.7	5.70e-06	0	44	0	3895459840	13	4116
2026-01-28 16:35:02.31	323.98	8.84	-26.7	-27.8	13.8	5.70e-06	0	44	0	3902799872	13	4062
2026-01-28 16:35:03.31	324.10	8.78	-26.7	-27.7	13.8	5.70e-06	0	44	0	3910139904	13	4048
2026-01-28 16:35:04.32	324.22	8.72	-26.8	-27.9	13.8	1.10e-06	0	44	0	3917479936	13	4094
2026-01-28 16:35:05.32	324.34	8.66	-26.9	-28.1	13.7	3.40e-06	0	44	0	3923771392	13	4144
2026-01-28 16:35:06.32	324.46	8.60	-26.8	-28.1	13.6	9.10e-06	0	44	0	3931111424	13	4146
2026-01-28 16:35:07.33	324.58	8.54	-26.9	-28.2	13.6	1.25e-05	0	44	0	3938451456	13	4176
2026-01-28 16:35:08.33	324.69	8.48	-27.0	-28.4	13.4	1.25e-05	0	44	0	3945791488	13	4222
2026-01-28 16:35:09.33	324.81	8.42	-27.2	-28.4	13.1	2.63e-05	0	44	0	3953131520	14	4146
2026-01-28 16:35:10.33	324.93	8.36	-27.3	-28.6	13.0	4.46e-05	0	44	0	3960471552	14	4191
2026-01-28 16:35:11.33	325.04	8.30	-27.2	-28.3	13.2	3.54e-05	0	44	0	3967811584	14	4096
2026-01-28 16:35:12.33	325.16	8.24	-27.0	-27.9	13.4	1.94e-05	0	44	0	3975151616	14	3995
2026-01-28 16:35:13.34	325.27	8.18	-27.0	-27.9	13.4	5.70e-06	0	44	0	3982491648	14	3989
2026-01-28 16:35:14.34	325.39	8.13	-26.9	-27.8	13.5	1.48e-05	0	44	0	3989831680	14	3972
2026-01-28 16:35:15.34	325.50	8.07	-27.0	-27.8	13.5	5.70e-06	0	44	0	3997171712	14	3983
2026-01-28 16:35:16.35	325.61	8.01	-27.0	-27.8	13.5	1.02e-05	0	44	0	4004511744	14	3979
2026-01-28 16:35:17.35	325.73	7.95	-26.9	-27.7	13.5	1.14e-05	0	44	0	4010803200	14	3931
2026-01-28 16:35:18.35	325.84	7.89	-26.8	-27.5	13.7	8.00e-06	0	44	0	4018143232	14	3900
2026-01-28 16:35:19.36	325.95	7.83	-26.8	-27.5	13.6	4.50e-06	0	44	0	4025483264	14	3899
2026-01-28 16:35:20.36	326.06	7.77	-26.9	-27.6	13.6	6.80e-06	0	44	0	4032823296	14	3914
2026-01-28 16:35:21.36	326.18	7.71	-26.9	-27.7	13.5	8.00e-06	0	44	0	4040163328	14	3932
2026-01-28 16:35:22.36	326.29	7.65	-26.9	-27.8	13.5	9.10e-06	0	44	0	4047503360	14	3959
2026-01-28 16:35:23.36	326.40	7.60	-27.0	-27.9	13.4	2.05e-05	0	44	0	4054843392	14	4006
2026-01-28 16:35:24.36	326.51	7.54	-27.0	-27.8	13.4	1.71e-05	0	44	0	4062183424	14	3983
2026-01-28 16:35:25.36	326.62	7.48	-26.9	-27.8	13.4	1.14e-05	0	44	0	4068474880	14	3973
2026-01-28 16:35:26.37	326.73	7.42	-26.9	-27.6	13.5	1.02e-05	0	44	0	4075814912	14	3936
2026-01-28 16:35:27.37	326.83	7.36	-27.1	-28.1	13.2	3.20e-05	0	44	0	4083154944	14	4054
2026-01-28 16:35:28.37	326.94	7.30	-27.3	-28.5	13.0	5.14e-05	0	44	0	4090494976	14	4173
2026-01-28 16:35:29.37	327.05	7.24	-27.3	-28.6	12.9	4.69e-05	0	44	0	4097835008	14	4194
2026-01-28 16:35:30.37	327.16	7.19	-27.3	-28.7	12.9	5.14e-05	0	44	0	4105175040	14	4209
2026-01-28 16:35:31.37	327.26	7.13	-27.4	-28.9	12.7	9.38e-05	0	44	0	4112515072	14	4271
2026-01-28 16:35:32.38	327.37	7.07	-32.0	-37.5	5.3	1.07e-04	0	44	0	4119855104	23	6788
2026-01-28 16:35:33.39	327.48	7.01	-33.4	-43.2	3.8	8.45e-01	0	44	104	4119855104	26	11084

#Closed at: 2026-01-28 16:35:34
#Recorded file [4119 MB]: D:/data/31010_260128_192601.dat