passes_logs/2026/01/28/R2M6_AANII_01/R2M6_AANII_01__20260128_113541_NOAA_21_JPSS-2_rec.log

#Pass ID: 20260128_113541_NOAA 21 (JPSS-2)
#Satellite: NOAA 21 (JPSS-2)
#Configuration: NOAA 21
#almurnet v.1.7.20240730
#Start time: 2026-01-28 11:35:43

#Version: 2.2.20231116
#Station: R2M6_AANII_01
#Location: 30.233357 lon 59.946436 lat
#TLE: 1 54234U 22150A   26027.55906748  .00000170  00000+0  10132-3 0  9996
#TLE: 2 54234  98.7510 328.3076 0000860 204.4692 155.6443 14.19540154166599

#Time	Az	El	Level	Level2	SNR	BER	BlckErr	Temp	State	Recorded	gain1	gain2
2026-01-28 11:35:43.11	201.25	7.08	-29.9	-34.0	4.8	1.36e+00	0	42	0	0	20	5758
2026-01-28 11:35:44.11	201.32	7.15	-30.3	-34.3	4.7	1.39e+00	0	42	104	0	22	5686
2026-01-28 11:35:45.11	201.40	7.22	-30.6	-34.3	8.5	3.49e-02	0	42	0	0	22	5507
2026-01-28 11:35:46.11	201.48	7.29	-30.8	-35.0	7.9	6.36e-02	0	42	0	2097152	22	5848
2026-01-28 11:35:47.11	201.55	7.36	-30.5	-34.1	8.6	4.10e-02	0	42	0	5242880	22	5445
2026-01-28 11:35:48.11	201.63	7.43	-30.4	-33.5	9.1	2.31e-02	0	42	0	8388608	22	5178
2026-01-28 11:35:49.12	201.71	7.50	-30.2	-33.4	9.6	1.27e-02	0	42	0	12582912	21	5207
2026-01-28 11:35:50.11	201.79	7.57	-30.4	-34.0	9.2	1.72e-02	0	42	0	15728640	21	5469
2026-01-28 11:35:51.12	201.87	7.64	-30.1	-33.3	9.7	1.31e-02	0	42	0	18874368	21	5182
2026-01-28 11:35:52.12	201.95	7.71	-29.9	-32.5	10.3	6.39e-03	0	42	0	22020096	21	4869
2026-01-28 11:35:53.12	202.03	7.78	-29.7	-32.6	10.5	3.82e-03	0	42	0	24117248	20	5028
2026-01-28 11:35:54.13	202.11	7.85	-29.7	-32.4	10.5	3.61e-03	0	42	0	27262976	20	4967
2026-01-28 11:35:55.13	202.19	7.92	-29.6	-32.3	10.6	3.55e-03	0	42	0	30408704	20	4934
2026-01-28 11:35:56.13	202.27	7.99	-29.8	-33.0	10.1	6.32e-03	0	42	0	33554432	20	5169
2026-01-28 11:35:57.14	202.35	8.06	-29.4	-32.0	10.6	4.25e-03	0	42	0	36700160	20	4846
2026-01-28 11:35:58.14	202.43	8.13	-29.1	-31.7	11.1	2.03e-03	0	42	0	39845888	19	4828
2026-01-28 11:35:59.15	202.52	8.20	-28.9	-31.2	11.2	1.43e-03	0	42	0	42991616	19	4684
2026-01-28 11:36:00.15	202.60	8.27	-28.7	-31.1	11.6	9.73e-04	0	42	0	46137344	18	4750
2026-01-28 11:36:01.16	202.68	8.35	-28.6	-30.8	11.9	4.57e-04	0	42	0	49283072	18	4645
2026-01-28 11:36:02.16	202.77	8.42	-28.8	-31.3	11.6	5.31e-04	0	42	0	52428800	18	4792
2026-01-28 11:36:03.17	202.85	8.49	-28.7	-31.0	12.0	3.46e-04	0	42	0	55574528	18	4685
2026-01-28 11:36:04.17	202.93	8.56	-28.9	-31.3	11.9	3.85e-04	0	43	0	58720256	18	4787
2026-01-28 11:36:05.17	203.02	8.63	-28.7	-30.9	12.3	2.35e-04	0	42	0	61865984	18	4620
2026-01-28 11:36:06.17	203.10	8.70	-28.6	-30.6	12.5	1.27e-04	0	43	0	65011712	18	4534
2026-01-28 11:36:07.17	203.19	8.78	-28.6	-30.5	12.7	1.07e-04	0	42	0	68157440	18	4492
2026-01-28 11:36:08.17	203.27	8.85	-28.6	-30.4	12.9	5.34e-05	0	42	0	71303168	18	4446
2026-01-28 11:36:09.18	203.36	8.92	-28.7	-30.7	12.8	5.26e-05	0	42	0	74448896	18	4521
2026-01-28 11:36:10.19	203.45	9.00	-28.7	-30.6	12.9	5.56e-05	0	42	0	77594624	18	4498
2026-01-28 11:36:11.19	203.53	9.07	-28.6	-30.3	13.1	3.50e-05	0	42	0	80740352	18	4414
2026-01-28 11:36:12.19	203.62	9.14	-28.6	-30.4	13.0	4.65e-05	0	43	0	83886080	18	4430
2026-01-28 11:36:13.20	203.71	9.22	-28.7	-30.7	12.9	5.03e-05	0	42	0	87031808	18	4524
2026-01-28 11:36:14.20	203.80	9.29	-28.5	-30.2	13.1	2.44e-05	0	42	0	90177536	18	4378
2026-01-28 11:36:15.21	203.89	9.36	-28.5	-30.2	13.2	2.05e-05	0	42	0	93323264	18	4361
2026-01-28 11:36:16.21	203.98	9.44	-28.4	-30.0	13.2	2.51e-05	0	43	0	96468992	18	4324
2026-01-28 11:36:17.21	204.06	9.51	-28.4	-29.8	13.3	1.83e-05	0	42	0	99614720	18	4266
2026-01-28 11:36:18.21	204.15	9.58	-28.4	-30.1	13.2	2.74e-05	0	43	0	102760448	18	4330
2026-01-28 11:36:19.21	204.24	9.66	-28.4	-30.1	13.1	2.21e-05	0	43	0	105906176	18	4351
2026-01-28 11:36:20.21	204.33	9.73	-28.4	-29.9	13.2	1.75e-05	0	43	0	109051904	18	4278
2026-01-28 11:36:21.22	204.43	9.81	-28.5	-30.1	13.1	3.28e-05	0	43	0	112197632	18	4357
2026-01-28 11:36:22.22	204.52	9.88	-28.3	-29.7	13.3	1.22e-05	0	43	0	115343360	18	4228
2026-01-28 11:36:23.22	204.61	9.96	-28.2	-30.1	13.3	1.98e-05	0	43	0	118489088	17	4458
2026-01-28 11:36:24.22	204.70	10.03	-28.2	-30.1	13.2	1.75e-05	0	43	0	121634816	17	4465
2026-01-28 11:36:25.23	204.80	10.11	-28.2	-30.1	13.2	1.67e-05	0	43	0	124780544	17	4461
2026-01-28 11:36:26.23	204.89	10.18	-28.2	-29.9	13.3	2.36e-05	0	42	0	127926272	17	4416
2026-01-28 11:36:27.24	204.98	10.26	-28.1	-29.8	13.4	1.75e-05	0	43	0	131072000	17	4383
2026-01-28 11:36:28.23	205.08	10.33	-28.1	-29.9	13.4	1.29e-05	0	43	0	134217728	17	4414
2026-01-28 11:36:29.24	205.17	10.41	-28.2	-30.0	13.3	1.83e-05	0	43	0	137363456	17	4449
2026-01-28 11:36:30.25	205.27	10.49	-28.1	-29.8	13.5	1.29e-05	0	43	0	140509184	17	4364
2026-01-28 11:36:31.25	205.36	10.56	-28.1	-29.7	13.6	8.30e-06	0	43	0	143654912	17	4341
2026-01-28 11:36:32.26	205.46	10.64	-28.1	-29.8	13.5	1.22e-05	0	43	0	146800640	17	4377
2026-01-28 11:36:33.26	205.56	10.72	-28.2	-29.9	13.4	1.06e-05	0	43	0	149946368	17	4407
2026-01-28 11:36:34.27	205.66	10.79	-28.1	-29.8	13.6	2.44e-05	0	43	0	153092096	17	4358
2026-01-28 11:36:35.27	205.75	10.87	-28.3	-30.1	13.4	1.29e-05	0	43	0	156237824	17	4468
2026-01-28 11:36:36.27	205.85	10.95	-28.2	-29.9	13.6	7.60e-06	0	43	0	159383552	17	4402
2026-01-28 11:36:37.28	205.95	11.03	-28.1	-29.8	13.7	1.22e-05	0	43	0	162529280	17	4365
2026-01-28 11:36:38.29	206.05	11.10	-28.3	-30.1	13.5	5.30e-06	0	43	0	165675008	17	4451
2026-01-28 11:36:39.29	206.15	11.18	-28.1	-29.8	13.7	5.30e-06	0	43	0	168820736	17	4354
2026-01-28 11:36:40.29	206.25	11.26	-28.0	-29.5	13.9	1.90e-05	0	43	0	171966464	17	4267
2026-01-28 11:36:41.29	206.35	11.34	-28.0	-29.5	13.8	3.80e-06	0	43	0	175112192	17	4270
2026-01-28 11:36:42.30	206.45	11.42	-28.0	-29.4	13.9	3.00e-06	0	43	0	178257920	17	4258
2026-01-28 11:36:43.30	206.56	11.49	-28.1	-29.6	13.7	1.90e-05	0	43	0	181403648	17	4318
2026-01-28 11:36:44.30	206.66	11.57	-28.0	-29.5	13.9	3.80e-06	0	43	0	184549376	17	4263
2026-01-28 11:36:45.30	206.76	11.65	-27.9	-29.2	14.0	6.80e-06	0	43	0	187695104	17	4194
2026-01-28 11:36:46.31	206.86	11.73	-27.9	-29.3	14.0	2.36e-05	0	43	0	190840832	17	4226
2026-01-28 11:36:47.31	206.97	11.81	-27.9	-29.2	14.1	7.00e-07	0	43	0	193986560	17	4180
2026-01-28 11:36:48.32	207.07	11.89	-28.0	-29.4	14.0	1.50e-06	0	43	0	197132288	17	4235
2026-01-28 11:36:49.32	207.18	11.97	-28.0	-29.4	14.1	1.67e-05	0	43	0	200278016	17	4227
2026-01-28 11:36:50.32	207.28	12.05	-27.9	-29.2	14.2	1.50e-06	0	43	0	203423744	17	4173
2026-01-28 11:36:51.33	207.39	12.13	-27.9	-29.2	14.2	7.00e-07	0	43	0	206569472	17	4182
2026-01-28 11:36:52.34	207.50	12.21	-27.9	-29.3	14.2	1.44e-05	0	43	0	209715200	17	4199
2026-01-28 11:36:53.34	207.61	12.29	-27.9	-29.1	14.3	7.00e-07	0	43	0	212860928	17	4156
2026-01-28 11:36:54.35	207.71	12.37	-27.9	-29.3	14.2	0.00e+00	0	43	0	216006656	17	4207
2026-01-28 11:36:55.34	207.82	12.45	-27.9	-29.2	14.3	1.29e-05	0	43	0	219152384	17	4171
2026-01-28 11:36:56.34	207.93	12.53	-27.8	-28.9	14.4	7.00e-07	0	43	0	222298112	17	4100
2026-01-28 11:36:57.34	208.04	12.61	-27.8	-28.9	14.4	3.00e-06	0	43	0	225443840	17	4099
2026-01-28 11:36:58.34	208.15	12.69	-27.8	-29.0	14.4	9.90e-06	0	43	0	228589568	17	4125
2026-01-28 11:36:59.35	208.26	12.77	-27.9	-29.2	14.3	3.00e-06	0	43	0	231735296	17	4167
2026-01-28 11:37:00.34	208.37	12.85	-27.8	-29.0	14.4	1.50e-06	0	43	0	234881024	17	4131
2026-01-28 11:37:01.33	208.48	12.93	-27.9	-29.2	14.3	1.22e-05	0	43	0	238026752	17	4175
2026-01-28 11:37:02.33	208.59	13.01	-28.0	-29.4	14.2	2.20e-06	0	43	0	241172480	17	4230
2026-01-28 11:37:03.32	208.70	13.09	-27.8	-29.0	14.4	7.00e-07	0	43	0	244318208	17	4122
2026-01-28 11:37:04.32	208.82	13.18	-27.8	-29.3	14.5	1.06e-05	0	43	0	247463936	16	4313
2026-01-28 11:37:05.32	208.93	13.26	-27.7	-29.2	14.6	0.00e+00	0	43	0	250609664	16	4276
2026-01-28 11:37:06.32	209.05	13.34	-27.6	-29.1	14.7	0.00e+00	0	43	0	253755392	16	4234
2026-01-28 11:37:07.32	209.16	13.42	-27.6	-29.0	14.7	0.00e+00	0	43	0	256901120	16	4211
2026-01-28 11:37:08.33	209.28	13.51	-27.7	-29.1	14.7	0.00e+00	0	43	0	260046848	16	4236
2026-01-28 11:37:09.33	209.40	13.59	-27.7	-29.2	14.7	0.00e+00	0	43	0	263192576	16	4265
2026-01-28 11:37:10.33	209.51	13.67	-27.6	-28.9	14.8	1.22e-05	0	43	0	266338304	16	4196
2026-01-28 11:37:11.34	209.63	13.76	-27.6	-28.9	14.8	7.00e-07	0	43	0	269484032	16	4201
2026-01-28 11:37:12.34	209.75	13.84	-27.6	-28.9	14.8	0.00e+00	0	43	0	272629760	16	4187
2026-01-28 11:37:13.34	209.87	13.92	-27.6	-28.9	14.9	0.00e+00	0	43	0	275775488	16	4178
2026-01-28 11:37:14.34	209.99	14.01	-27.6	-28.9	14.8	7.00e-07	0	43	0	277872640	16	4182
2026-01-28 11:37:15.34	210.11	14.09	-27.5	-28.8	14.9	0.00e+00	0	43	0	281018368	16	4157
2026-01-28 11:37:16.34	210.23	14.17	-27.6	-28.9	14.8	0.00e+00	0	43	0	284164096	16	4191
2026-01-28 11:37:17.35	210.35	14.26	-27.6	-28.9	14.8	0.00e+00	0	43	0	287309824	16	4190
2026-01-28 11:37:18.35	210.48	14.34	-27.7	-29.1	14.7	7.00e-07	0	43	0	290455552	16	4242
2026-01-28 11:37:19.35	210.60	14.43	-27.6	-28.9	14.8	7.00e-07	0	43	0	293601280	16	4194
2026-01-28 11:37:20.34	210.72	14.51	-27.6	-28.9	14.8	0.00e+00	0	43	0	296747008	16	4188
2026-01-28 11:37:21.35	210.85	14.60	-27.7	-29.1	14.8	7.00e-07	0	43	0	299892736	16	4235
2026-01-28 11:37:22.35	210.97	14.68	-27.6	-29.0	14.8	7.00e-07	0	43	0	303038464	16	4206
2026-01-28 11:37:23.36	211.10	14.77	-27.6	-29.0	14.8	0.00e+00	0	43	0	306184192	16	4213
2026-01-28 11:37:24.35	211.22	14.85	-27.6	-28.9	14.9	0.00e+00	0	43	0	309329920	16	4176
2026-01-28 11:37:25.35	211.35	14.94	-27.6	-28.8	14.9	0.00e+00	0	43	0	312475648	16	4158
2026-01-28 11:37:26.35	211.48	15.02	-27.6	-28.8	14.9	0.00e+00	0	43	0	315621376	16	4167
2026-01-28 11:37:27.35	211.61	15.11	-27.7	-29.1	14.8	0.00e+00	0	43	0	318767104	16	4231
2026-01-28 11:37:28.35	211.74	15.19	-27.7	-29.2	14.7	0.00e+00	0	43	0	321912832	16	4262
2026-01-28 11:37:29.35	211.87	15.28	-27.6	-29.0	14.9	7.00e-07	0	43	0	325058560	16	4211
2026-01-28 11:37:30.35	212.00	15.37	-27.6	-29.0	14.9	0.00e+00	0	43	0	328204288	16	4217
2026-01-28 11:37:31.35	212.13	15.45	-27.7	-29.2	14.8	0.00e+00	0	43	0	331350016	16	4267
2026-01-28 11:37:32.35	212.26	15.54	-27.7	-29.3	14.7	0.00e+00	0	43	0	334495744	16	4286
2026-01-28 11:37:33.35	212.39	15.63	-27.7	-29.2	14.7	0.00e+00	0	43	0	337641472	16	4267
2026-01-28 11:37:34.34	212.53	15.71	-27.8	-29.4	14.6	0.00e+00	0	43	0	340787200	16	4338
2026-01-28 11:37:35.33	212.66	15.80	-27.7	-29.1	14.8	0.00e+00	0	43	0	343932928	16	4245
2026-01-28 11:37:36.33	212.79	15.89	-27.6	-28.9	15.0	0.00e+00	0	43	0	347078656	16	4172
2026-01-28 11:37:37.33	212.93	15.97	-27.6	-28.9	15.0	0.00e+00	0	43	0	350224384	16	4187
2026-01-28 11:37:38.33	213.07	16.06	-27.6	-28.8	15.0	0.00e+00	0	43	0	353370112	16	4161
2026-01-28 11:37:39.33	213.21	16.15	-27.6	-28.9	14.9	7.00e-07	0	43	0	356515840	16	4193
2026-01-28 11:37:40.34	213.34	16.24	-27.7	-29.0	14.9	7.00e-07	0	43	0	359661568	16	4221
2026-01-28 11:37:41.34	213.48	16.33	-27.7	-29.0	14.9	7.00e-07	0	43	0	362807296	16	4215
2026-01-28 11:37:42.35	213.63	16.41	-27.5	-28.8	15.0	0.00e+00	0	43	0	365953024	16	4154
2026-01-28 11:37:43.35	213.77	16.50	-27.6	-28.9	15.0	0.00e+00	0	43	0	369098752	16	4172
2026-01-28 11:37:44.36	213.91	16.59	-27.7	-29.2	14.8	0.00e+00	0	43	0	372244480	16	4255
2026-01-28 11:37:45.36	214.05	16.68	-27.7	-29.2	14.8	0.00e+00	0	43	0	375390208	16	4280
2026-01-28 11:37:46.36	214.19	16.77	-27.8	-29.3	14.7	7.00e-07	0	43	0	378535936	16	4301
2026-01-28 11:37:47.37	214.34	16.86	-27.7	-29.0	14.9	0.00e+00	0	43	0	381681664	16	4226
2026-01-28 11:37:48.37	214.48	16.95	-27.6	-29.0	14.9	0.00e+00	0	43	0	384827392	16	4205
2026-01-28 11:37:49.37	214.63	17.04	-27.6	-29.0	15.0	0.00e+00	0	43	0	387973120	16	4206
2026-01-28 11:37:50.38	214.78	17.13	-27.7	-29.2	14.9	0.00e+00	0	43	0	391118848	16	4251
2026-01-28 11:37:51.38	214.93	17.22	-27.7	-29.0	14.9	0.00e+00	0	43	0	394264576	16	4220
2026-01-28 11:37:52.38	215.07	17.31	-27.6	-29.0	15.0	7.00e-07	0	43	0	397410304	16	4202
2026-01-28 11:37:53.39	215.22	17.40	-27.7	-29.1	15.0	0.00e+00	0	43	0	400556032	16	4226
2026-01-28 11:37:54.39	215.37	17.49	-27.8	-29.4	14.7	0.00e+00	0	43	0	403701760	16	4306
2026-01-28 11:37:55.40	215.53	17.58	-27.9	-29.5	14.7	0.00e+00	0	43	0	406847488	16	4341
2026-01-28 11:37:56.40	215.68	17.67	-27.7	-29.2	14.9	0.00e+00	0	43	0	409993216	16	4272
2026-01-28 11:37:57.40	215.83	17.76	-27.7	-29.1	15.0	0.00e+00	0	43	0	413138944	16	4225
2026-01-28 11:37:58.41	215.98	17.85	-27.7	-29.1	15.0	7.00e-07	0	43	0	416284672	16	4228
2026-01-28 11:37:59.41	216.14	17.94	-27.7	-29.0	15.0	0.00e+00	0	43	0	419430400	16	4209
2026-01-28 11:38:00.41	216.29	18.03	-27.6	-29.0	15.0	0.00e+00	0	43	0	422576128	16	4197
2026-01-28 11:38:01.42	216.45	18.13	-27.7	-29.0	15.0	0.00e+00	0	43	0	425721856	16	4215
2026-01-28 11:38:02.41	216.61	18.22	-27.7	-29.2	14.9	0.00e+00	0	43	0	428867584	16	4258
2026-01-28 11:38:03.41	216.77	18.31	-27.6	-28.9	15.1	0.00e+00	0	43	0	432013312	16	4170
2026-01-28 11:38:04.40	216.92	18.40	-27.5	-28.8	15.2	0.00e+00	0	43	0	435159040	16	4136
2026-01-28 11:38:05.40	217.08	18.49	-27.6	-28.8	15.2	0.00e+00	0	43	0	438304768	16	4138
2026-01-28 11:38:06.40	217.24	18.58	-27.6	-28.8	15.2	0.00e+00	0	43	0	441450496	16	4156
2026-01-28 11:38:07.40	217.40	18.67	-27.6	-28.9	15.1	0.00e+00	0	43	0	444596224	16	4165
2026-01-28 11:38:08.40	217.57	18.76	-27.5	-28.6	15.3	0.00e+00	0	43	0	447741952	16	4091
2026-01-28 11:38:09.40	217.73	18.86	-27.4	-28.5	15.4	9.10e-06	0	43	0	450887680	16	4056
2026-01-28 11:38:10.40	217.90	18.95	-27.5	-28.6	15.3	0.00e+00	0	43	0	454033408	16	4086
2026-01-28 11:38:11.40	218.06	19.04	-27.4	-28.5	15.4	0.00e+00	0	43	0	457179136	16	4061
2026-01-28 11:38:12.40	218.23	19.13	-27.4	-28.3	15.4	0.00e+00	0	43	0	459276288	16	4026
2026-01-28 11:38:13.41	218.40	19.23	-27.4	-28.5	15.4	0.00e+00	0	43	0	463470592	16	4063
2026-01-28 11:38:14.41	218.57	19.32	-27.3	-28.3	15.5	0.00e+00	0	43	0	466616320	16	4005
2026-01-28 11:38:15.42	218.74	19.41	-27.3	-28.2	15.5	1.06e-05	0	43	0	469762048	16	3987
2026-01-28 11:38:16.43	218.91	19.51	-27.5	-28.6	15.3	0.00e+00	0	43	0	472907776	16	4085
2026-01-28 11:38:17.43	219.08	19.60	-27.5	-28.5	15.3	0.00e+00	0	43	0	476053504	16	4079
2026-01-28 11:38:18.44	219.25	19.69	-27.1	-28.2	15.6	1.06e-05	0	44	0	479199232	15	4104
2026-01-28 11:38:19.44	219.43	19.79	-27.0	-28.1	15.7	0.00e+00	0	43	0	482344960	15	4067
2026-01-28 11:38:20.44	219.60	19.88	-27.0	-28.1	15.7	0.00e+00	0	43	0	484442112	15	4061
2026-01-28 11:38:21.44	219.78	19.97	-26.9	-27.9	15.8	0.00e+00	0	43	0	487587840	15	4019
2026-01-28 11:38:22.44	219.95	20.07	-26.9	-27.8	15.9	0.00e+00	0	43	0	490733568	15	3999
2026-01-28 11:38:23.44	220.13	20.16	-26.9	-27.9	15.8	0.00e+00	0	43	0	493879296	15	4017
2026-01-28 11:38:24.45	220.31	20.25	-27.0	-28.0	15.8	1.29e-05	0	43	0	497025024	15	4041
2026-01-28 11:38:25.44	220.49	20.35	-27.0	-27.9	15.8	0.00e+00	0	43	0	500170752	15	4022
2026-01-28 11:38:26.44	220.67	20.44	-27.0	-28.0	15.8	0.00e+00	0	43	0	503316480	15	4049
2026-01-28 11:38:27.44	220.85	20.53	-27.0	-28.1	15.8	6.80e-06	0	43	0	506462208	15	4061
2026-01-28 11:38:28.44	221.04	20.63	-26.9	-27.8	15.9	0.00e+00	0	43	0	509607936	15	3999
2026-01-28 11:38:29.44	221.22	20.72	-27.0	-27.9	15.8	0.00e+00	0	43	0	512753664	15	4020
2026-01-28 11:38:30.45	221.41	20.82	-27.0	-28.0	15.8	5.30e-06	0	43	0	515899392	15	4053
2026-01-28 11:38:31.45	221.59	20.91	-27.0	-28.0	15.9	0.00e+00	0	43	0	519045120	15	4037
2026-01-28 11:38:32.45	221.78	21.01	-27.0	-28.1	15.8	0.00e+00	0	43	0	522190848	15	4057
2026-01-28 11:38:33.45	221.97	21.10	-26.9	-27.8	15.9	4.50e-06	0	43	0	525336576	15	4006
2026-01-28 11:38:34.44	222.16	21.19	-26.9	-27.9	15.9	0.00e+00	0	43	0	528482304	15	4008
2026-01-28 11:38:35.44	222.35	21.29	-26.9	-27.7	16.0	0.00e+00	0	43	0	531628032	15	3971
2026-01-28 11:38:36.44	222.54	21.38	-26.8	-27.5	16.1	0.00e+00	0	43	0	534773760	15	3920
2026-01-28 11:38:37.44	222.73	21.47	-26.8	-28.1	16.1	0.00e+00	0	43	0	537919488	14	4177
2026-01-28 11:38:38.44	222.93	21.57	-26.8	-28.1	16.0	0.00e+00	0	43	0	541065216	14	4178
2026-01-28 11:38:39.43	223.12	21.66	-26.8	-28.2	16.0	6.80e-06	0	43	0	544210944	14	4197
2026-01-28 11:38:40.43	223.32	21.76	-26.9	-28.3	15.9	0.00e+00	0	43	0	547356672	14	4231
2026-01-28 11:38:41.43	223.52	21.85	-26.9	-28.4	15.9	0.00e+00	0	43	0	550502400	14	4250
2026-01-28 11:38:42.43	223.71	21.94	-26.8	-28.1	16.1	0.00e+00	0	43	0	553648128	14	4186
2026-01-28 11:38:43.43	223.91	22.04	-26.9	-28.2	16.0	0.00e+00	0	44	0	556793856	14	4206
2026-01-28 11:38:44.43	224.12	22.13	-26.8	-28.1	16.1	0.00e+00	0	43	0	559939584	14	4175
2026-01-28 11:38:45.44	224.32	22.23	-26.8	-28.0	16.1	3.80e-06	0	43	0	563085312	14	4140
2026-01-28 11:38:46.45	224.53	22.32	-26.7	-27.9	16.2	0.00e+00	0	43	0	566231040	14	4130
2026-01-28 11:38:47.46	224.73	22.42	-26.8	-28.0	16.1	0.00e+00	0	43	0	569376768	14	4159
2026-01-28 11:38:48.47	224.94	22.51	-26.9	-28.2	16.1	0.00e+00	0	43	0	572522496	14	4195
2026-01-28 11:38:49.48	225.15	22.61	-27.0	-28.4	15.9	0.00e+00	0	44	0	575668224	14	4258
2026-01-28 11:38:50.48	225.36	22.70	-27.0	-28.5	15.8	0.00e+00	0	43	0	578813952	14	4297
2026-01-28 11:38:51.48	225.57	22.80	-26.9	-28.3	16.0	0.00e+00	0	43	0	581959680	14	4231
2026-01-28 11:38:52.49	225.78	22.89	-26.9	-28.2	16.1	0.00e+00	0	43	0	585105408	14	4205
2026-01-28 11:38:53.48	225.99	22.99	-26.8	-28.1	16.1	0.00e+00	0	43	0	588251136	14	4173
2026-01-28 11:38:54.48	226.20	23.08	-26.8	-28.1	16.2	0.00e+00	0	44	0	591396864	14	4161
2026-01-28 11:38:55.48	226.42	23.17	-26.6	-27.7	16.3	0.00e+00	0	43	0	594542592	14	4074
2026-01-28 11:38:56.49	226.64	23.27	-26.8	-28.0	16.2	0.00e+00	0	43	0	597688320	14	4148
2026-01-28 11:38:57.49	226.85	23.36	-26.8	-28.0	16.2	0.00e+00	0	43	0	600834048	14	4145
2026-01-28 11:38:58.50	227.08	23.46	-26.7	-27.8	16.3	0.00e+00	0	43	0	603979776	14	4087
2026-01-28 11:38:59.50	227.30	23.55	-26.6	-27.7	16.4	0.00e+00	0	44	0	607125504	14	4070
2026-01-28 11:39:00.50	227.52	23.64	-26.7	-27.9	16.3	0.00e+00	0	43	0	610271232	14	4109
2026-01-28 11:39:01.50	227.74	23.74	-26.8	-28.1	16.1	0.00e+00	0	44	0	613416960	14	4180
2026-01-28 11:39:02.49	227.96	23.83	-26.9	-28.2	16.1	0.00e+00	0	44	0	616562688	14	4186
2026-01-28 11:39:03.50	228.19	23.92	-26.8	-28.0	16.2	0.00e+00	0	43	0	619708416	14	4142
2026-01-28 11:39:04.50	228.41	24.02	-26.9	-28.2	16.1	0.00e+00	0	43	0	622854144	14	4200
2026-01-28 11:39:05.50	228.64	24.11	-27.0	-28.4	16.0	0.00e+00	0	44	0	625999872	14	4244
2026-01-28 11:39:06.50	228.87	24.20	-27.0	-28.5	15.9	0.00e+00	0	43	0	629145600	14	4282
2026-01-28 11:39:07.50	229.10	24.29	-27.1	-28.7	15.8	0.00e+00	0	44	0	632291328	14	4325
2026-01-28 11:39:08.51	229.33	24.39	-27.1	-28.8	15.8	0.00e+00	0	44	0	635437056	14	4349
2026-01-28 11:39:09.52	229.57	24.48	-27.2	-29.0	15.7	0.00e+00	0	44	0	638582784	14	4429
2026-01-28 11:39:10.52	229.80	24.57	-27.2	-29.0	15.7	0.00e+00	0	44	0	641728512	14	4413
2026-01-28 11:39:11.52	230.04	24.66	-27.5	-29.6	15.3	0.00e+00	0	43	0	644874240	14	4586
2026-01-28 11:39:12.54	230.28	24.76	-27.5	-29.1	15.4	0.00e+00	0	43	0	648019968	15	4332
2026-01-28 11:39:13.54	230.52	24.85	-27.3	-28.8	15.5	0.00e+00	0	43	0	651165696	15	4238
2026-01-28 11:39:14.54	230.76	24.94	-27.3	-28.6	15.6	0.00e+00	0	43	0	654311424	15	4206
2026-01-28 11:39:15.54	231.00	25.03	-27.4	-28.9	15.5	0.00e+00	0	43	0	657457152	15	4268
2026-01-28 11:39:16.54	231.24	25.12	-27.3	-28.8	15.5	0.00e+00	0	43	0	660602880	15	4239
2026-01-28 11:39:17.55	231.49	25.22	-27.4	-28.9	15.5	0.00e+00	0	43	0	663748608	15	4282
2026-01-28 11:39:18.55	231.73	25.31	-27.3	-28.6	15.6	7.00e-07	0	43	0	666894336	15	4198
2026-01-28 11:39:19.55	231.98	25.40	-26.9	-27.8	16.1	0.00e+00	0	44	0	670040064	15	3974
2026-01-28 11:39:20.56	232.23	25.49	-26.9	-27.7	16.1	0.00e+00	0	43	0	673185792	15	3943
2026-01-28 11:39:21.57	232.48	25.58	-27.0	-27.9	16.0	0.00e+00	0	43	0	676331520	15	4006
2026-01-28 11:39:22.57	232.73	25.67	-27.0	-27.9	16.0	0.00e+00	0	43	0	679477248	15	4011
2026-01-28 11:39:23.57	232.99	25.76	-27.1	-28.2	15.8	0.00e+00	0	44	0	682622976	15	4095
2026-01-28 11:39:24.57	233.24	25.84	-27.2	-28.4	15.8	0.00e+00	0	44	0	685768704	15	4123
2026-01-28 11:39:25.57	233.49	25.93	-27.2	-28.4	15.7	0.00e+00	0	43	0	688914432	15	4142
2026-01-28 11:39:26.57	233.75	26.02	-27.1	-28.3	15.8	0.00e+00	0	43	0	692060160	15	4097
2026-01-28 11:39:27.58	234.01	26.11	-27.2	-28.5	15.7	0.00e+00	0	43	0	695205888	15	4159
2026-01-28 11:39:28.58	234.27	26.20	-27.2	-28.4	15.7	0.00e+00	0	44	0	698351616	15	4143
2026-01-28 11:39:29.59	234.53	26.29	-27.2	-28.4	15.8	0.00e+00	0	44	0	701497344	15	4135
2026-01-28 11:39:30.58	234.79	26.37	-27.2	-28.5	15.8	0.00e+00	0	44	0	704643072	15	4149
2026-01-28 11:39:31.59	235.06	26.46	-27.2	-28.4	15.8	0.00e+00	0	44	0	707788800	15	4147
2026-01-28 11:39:32.59	235.32	26.55	-27.2	-28.3	15.8	0.00e+00	0	44	0	710934528	15	4102
2026-01-28 11:39:33.60	235.59	26.63	-27.1	-28.1	16.0	0.00e+00	0	44	0	713031680	15	4039
2026-01-28 11:39:34.60	235.86	26.72	-27.1	-28.2	16.0	0.00e+00	0	44	0	716177408	15	4070
2026-01-28 11:39:35.60	236.13	26.80	-27.3	-28.6	15.8	0.00e+00	0	44	0	719323136	15	4176
2026-01-28 11:39:36.61	236.40	26.89	-27.2	-28.5	15.7	0.00e+00	0	43	0	722468864	15	4163
2026-01-28 11:39:37.62	236.68	26.97	-27.3	-28.7	15.7	0.00e+00	0	43	0	726663168	15	4202
2026-01-28 11:39:38.61	236.95	27.06	-27.4	-28.9	15.6	0.00e+00	0	43	0	729808896	15	4261
2026-01-28 11:39:39.62	237.22	27.14	-27.5	-29.0	15.5	0.00e+00	0	44	0	732954624	15	4297
2026-01-28 11:39:40.62	237.50	27.23	-27.5	-29.0	15.5	0.00e+00	0	44	0	736100352	15	4282
2026-01-28 11:39:41.63	237.78	27.31	-27.4	-28.8	15.6	0.00e+00	0	43	0	738197504	15	4234
2026-01-28 11:39:42.63	238.06	27.39	-27.5	-29.0	15.5	0.00e+00	0	44	0	741343232	15	4292
2026-01-28 11:39:43.63	238.34	27.47	-27.3	-28.7	15.6	0.00e+00	0	44	0	744488960	15	4213
2026-01-28 11:39:44.63	238.62	27.55	-27.2	-28.5	15.8	2.20e-06	0	43	0	747634688	15	4154
2026-01-28 11:39:45.63	238.90	27.63	-27.2	-28.3	15.8	0.00e+00	0	44	0	750780416	15	4108
2026-01-28 11:39:46.63	239.19	27.71	-27.2	-28.3	15.9	0.00e+00	0	43	0	753926144	15	4113
2026-01-28 11:39:47.63	239.47	27.79	-27.3	-28.6	15.6	0.00e+00	0	44	0	757071872	15	4198
2026-01-28 11:39:48.63	239.76	27.87	-27.1	-28.3	15.9	0.00e+00	0	44	0	760217600	15	4094
2026-01-28 11:39:49.63	240.05	27.95	-26.9	-27.8	16.1	7.00e-07	0	44	0	763363328	15	3979
2026-01-28 11:39:50.63	240.34	28.03	-26.8	-27.6	16.3	0.00e+00	0	44	0	766509056	15	3911
2026-01-28 11:39:51.63	240.63	28.11	-26.9	-27.7	16.2	0.00e+00	0	44	0	769654784	15	3959
2026-01-28 11:39:52.63	240.92	28.18	-26.9	-27.7	16.2	0.00e+00	0	44	0	772800512	15	3940
2026-01-28 11:39:53.64	241.22	28.26	-26.9	-27.6	16.2	7.00e-07	0	44	0	775946240	15	3936
2026-01-28 11:39:54.65	241.52	28.34	-26.9	-27.8	16.1	0.00e+00	0	43	0	779091968	15	3979
2026-01-28 11:39:55.65	241.81	28.41	-27.0	-27.9	16.1	0.00e+00	0	44	0	782237696	15	4008
2026-01-28 11:39:56.65	242.11	28.49	-27.1	-28.1	16.0	3.80e-06	0	44	0	785383424	15	4037
2026-01-28 11:39:57.66	242.41	28.56	-27.0	-28.0	16.0	0.00e+00	0	43	0	788529152	15	4026
2026-01-28 11:39:58.67	242.72	28.64	-27.1	-28.1	16.0	0.00e+00	0	43	0	791674880	15	4056
2026-01-28 11:39:59.67	243.02	28.71	-27.0	-28.0	16.1	1.50e-06	0	43	0	794820608	15	4019
2026-01-28 11:40:00.68	243.33	28.78	-27.0	-27.9	16.1	0.00e+00	0	43	0	797966336	15	3992
2026-01-28 11:40:01.68	243.63	28.85	-26.9	-27.7	16.2	0.00e+00	0	44	0	801112064	15	3950
2026-01-28 11:40:02.68	243.94	28.92	-27.1	-28.1	16.0	0.00e+00	0	44	0	804257792	15	4059
2026-01-28 11:40:03.69	244.25	28.99	-27.1	-28.3	15.9	0.00e+00	0	44	0	807403520	15	4090
2026-01-28 11:40:04.69	244.56	29.06	-27.5	-29.0	15.5	0.00e+00	0	43	0	810549248	15	4285
2026-01-28 11:40:05.69	244.87	29.13	-27.6	-29.2	15.4	9.10e-06	0	44	0	813694976	15	4354
2026-01-28 11:40:06.70	245.18	29.20	-27.5	-29.1	15.4	0.00e+00	0	43	0	816840704	15	4328
2026-01-28 11:40:07.71	245.50	29.27	-27.5	-29.1	15.5	0.00e+00	0	44	0	819986432	15	4319
2026-01-28 11:40:08.71	245.81	29.33	-27.4	-28.8	15.6	0.00e+00	0	44	0	823132160	15	4245
2026-01-28 11:40:09.72	246.13	29.40	-27.3	-28.6	15.7	0.00e+00	0	44	0	826277888	15	4189
2026-01-28 11:40:10.73	246.45	29.46	-27.3	-28.7	15.7	0.00e+00	0	44	0	829423616	15	4203
2026-01-28 11:40:11.73	246.77	29.53	-27.4	-28.9	15.5	0.00e+00	0	44	0	832569344	15	4277
2026-01-28 11:40:12.74	247.09	29.59	-27.4	-28.8	15.6	0.00e+00	0	44	0	835715072	15	4237
2026-01-28 11:40:13.74	247.41	29.65	-27.3	-28.6	15.8	0.00e+00	0	43	0	838860800	15	4177
2026-01-28 11:40:14.74	247.73	29.71	-27.3	-28.7	15.7	0.00e+00	0	44	0	842006528	15	4196
2026-01-28 11:40:15.74	248.05	29.77	-27.3	-28.5	15.8	0.00e+00	0	44	0	845152256	15	4167
2026-01-28 11:40:16.74	248.38	29.83	-27.3	-28.7	15.7	0.00e+00	0	44	0	848297984	15	4207
2026-01-28 11:40:17.75	248.71	29.89	-27.3	-28.6	15.7	0.00e+00	0	44	0	851443712	15	4174
2026-01-28 11:40:18.75	249.03	29.95	-27.3	-28.6	15.8	0.00e+00	0	44	0	854589440	15	4177
2026-01-28 11:40:19.75	249.36	30.01	-27.3	-28.5	15.8	0.00e+00	0	44	0	857735168	15	4156
2026-01-28 11:40:20.74	249.68	30.06	-27.4	-28.8	15.6	0.00e+00	0	44	0	860880896	15	4226
2026-01-28 11:40:21.74	250.01	30.12	-27.3	-28.5	15.8	0.00e+00	0	44	0	864026624	15	4158
2026-01-28 11:40:22.74	250.34	30.17	-27.1	-28.2	16.0	0.00e+00	0	43	0	867172352	15	4066
2026-01-28 11:40:23.74	250.68	30.22	-27.1	-28.2	16.0	0.00e+00	0	44	0	870318080	15	4072
2026-01-28 11:40:24.74	251.01	30.28	-27.3	-28.6	15.8	0.00e+00	0	44	0	873463808	15	4174
2026-01-28 11:40:25.74	251.34	30.33	-27.3	-28.7	15.7	0.00e+00	0	44	0	876609536	15	4205
2026-01-28 11:40:26.75	251.68	30.38	-27.4	-28.9	15.6	0.00e+00	0	44	0	879755264	15	4272
2026-01-28 11:40:27.76	252.02	30.43	-27.6	-29.2	15.4	0.00e+00	0	44	0	882900992	15	4361
2026-01-28 11:40:28.76	252.36	30.48	-27.6	-29.2	15.4	0.00e+00	0	44	0	886046720	15	4358
2026-01-28 11:40:29.76	252.69	30.53	-27.5	-29.0	15.5	0.00e+00	0	44	0	889192448	15	4298
2026-01-28 11:40:30.76	253.03	30.57	-27.5	-29.1	15.5	0.00e+00	0	44	0	892338176	15	4327
2026-01-28 11:40:31.77	253.38	30.62	-27.7	-29.6	15.2	0.00e+00	0	44	0	895483904	15	4453
2026-01-28 11:40:32.77	253.72	30.66	-27.8	-29.8	15.1	0.00e+00	0	44	0	898629632	15	4533
2026-01-28 11:40:33.77	254.06	30.71	-27.9	-29.9	15.1	0.00e+00	0	44	0	901775360	15	4541
2026-01-28 11:40:34.77	254.40	30.75	-28.1	-30.0	14.9	0.00e+00	0	44	0	904921088	16	4455
2026-01-28 11:40:35.78	254.75	30.79	-28.3	-30.2	14.8	0.00e+00	0	44	0	908066816	16	4530
2026-01-28 11:40:36.78	255.09	30.83	-28.4	-30.6	14.6	0.00e+00	0	44	0	911212544	16	4632
2026-01-28 11:40:37.78	255.44	30.87	-28.3	-29.9	14.7	0.00e+00	0	44	0	914358272	17	4303
2026-01-28 11:40:38.78	255.78	30.91	-28.2	-29.5	14.9	0.00e+00	0	44	0	917504000	17	4201
2026-01-28 11:40:39.79	256.13	30.94	-28.0	-29.2	15.0	0.00e+00	0	44	0	920649728	17	4134
2026-01-28 11:40:40.79	256.48	30.98	-28.3	-29.7	14.7	0.00e+00	0	44	0	923795456	17	4271
2026-01-28 11:40:41.79	256.83	31.01	-28.3	-29.8	14.7	0.00e+00	0	44	0	926941184	17	4295
2026-01-28 11:40:42.79	257.17	31.05	-28.5	-30.3	14.5	0.00e+00	0	44	0	930086912	17	4433
2026-01-28 11:40:43.80	257.53	31.08	-28.3	-29.7	14.7	7.00e-07	0	44	0	933232640	17	4268
2026-01-28 11:40:44.80	257.88	31.11	-27.9	-28.8	15.3	0.00e+00	0	44	0	936378368	17	4012
2026-01-28 11:40:45.81	258.23	31.14	-27.7	-28.9	15.5	0.00e+00	0	44	0	939524096	16	4133
2026-01-28 11:40:46.81	258.58	31.17	-27.8	-29.2	15.3	0.00e+00	0	44	0	942669824	16	4219
2026-01-28 11:40:47.81	258.93	31.20	-27.9	-29.5	15.2	0.00e+00	0	44	0	945815552	16	4314
2026-01-28 11:40:48.81	259.29	31.23	-28.1	-29.9	15.0	0.00e+00	0	43	0	948961280	16	4413
2026-01-28 11:40:49.81	259.64	31.25	-28.0	-29.6	15.1	0.00e+00	0	44	0	952107008	16	4352
2026-01-28 11:40:50.81	259.99	31.28	-27.8	-29.1	15.4	0.00e+00	0	44	0	955252736	16	4210
2026-01-28 11:40:51.81	260.35	31.30	-27.7	-28.9	15.6	0.00e+00	0	44	0	958398464	16	4134
2026-01-28 11:40:52.81	260.70	31.32	-27.9	-29.3	15.3	0.00e+00	0	44	0	961544192	16	4258
2026-01-28 11:40:53.81	261.06	31.34	-27.8	-29.2	15.4	0.00e+00	0	44	0	964689920	16	4232
2026-01-28 11:40:54.82	261.42	31.36	-28.1	-29.8	15.0	0.00e+00	0	44	0	967835648	16	4405
2026-01-28 11:40:55.82	261.77	31.38	-28.0	-29.7	15.1	0.00e+00	0	44	0	970981376	16	4367
2026-01-28 11:40:56.82	262.13	31.40	-28.2	-30.1	14.9	0.00e+00	0	44	0	974127104	16	4468
2026-01-28 11:40:57.82	262.49	31.42	-28.1	-29.8	15.0	0.00e+00	0	44	0	977272832	16	4392
2026-01-28 11:40:58.83	262.85	31.43	-27.9	-29.4	15.2	0.00e+00	0	44	0	980418560	16	4291
2026-01-28 11:40:59.83	263.20	31.45	-27.9	-29.5	15.2	0.00e+00	0	43	0	983564288	16	4305
2026-01-28 11:41:00.83	263.56	31.46	-27.8	-29.3	15.3	0.00e+00	0	44	0	986710016	16	4247
2026-01-28 11:41:01.84	263.92	31.47	-27.8	-29.2	15.3	0.00e+00	0	44	0	988807168	16	4233
2026-01-28 11:41:02.84	264.28	31.48	-27.8	-29.1	15.4	0.00e+00	0	44	0	991952896	16	4203
2026-01-28 11:41:03.86	264.65	31.49	-27.8	-29.3	15.3	0.00e+00	0	44	0	995098624	16	4253
2026-01-28 11:41:04.86	265.00	31.50	-27.8	-29.3	15.3	0.00e+00	0	44	0	998244352	16	4251
2026-01-28 11:41:05.86	265.36	31.50	-28.0	-29.7	15.1	0.00e+00	0	44	0	1002438656	16	4362
2026-01-28 11:41:06.86	265.72	31.51	-28.1	-29.8	15.0	0.00e+00	0	44	0	1005584384	16	4388
2026-01-28 11:41:07.86	266.08	31.51	-28.1	-29.8	15.1	0.00e+00	0	44	0	1008730112	16	4384
2026-01-28 11:41:08.86	266.44	31.52	-28.1	-30.0	14.9	0.00e+00	0	44	0	1011875840	16	4449
2026-01-28 11:41:09.87	266.80	31.52	-28.2	-30.1	14.9	0.00e+00	0	43	0	1013972992	16	4474
2026-01-28 11:41:10.87	267.16	31.52	-28.2	-30.0	14.9	5.30e-06	0	44	0	1017118720	16	4457
2026-01-28 11:41:11.87	267.52	31.52	-28.3	-30.3	14.8	7.00e-07	0	44	0	1020264448	16	4530
2026-01-28 11:41:12.88	267.88	31.52	-28.1	-29.9	15.0	0.00e+00	0	44	0	1023410176	16	4413
2026-01-28 11:41:13.88	268.24	31.51	-28.0	-29.7	15.1	0.00e+00	0	44	0	1026555904	16	4359
2026-01-28 11:41:14.88	268.60	31.51	-28.0	-29.7	15.1	0.00e+00	0	44	0	1029701632	16	4360
2026-01-28 11:41:15.89	268.96	31.50	-28.0	-29.6	15.2	0.00e+00	0	44	0	1032847360	16	4321
2026-01-28 11:41:16.89	269.32	31.50	-28.2	-30.1	14.9	6.10e-06	0	44	0	1035993088	16	4469
2026-01-28 11:41:17.90	269.68	31.49	-28.1	-29.9	15.0	7.00e-07	0	44	0	1039138816	16	4423
2026-01-28 11:41:18.91	270.04	31.48	-27.9	-29.4	15.2	0.00e+00	0	44	0	1042284544	16	4286
2026-01-28 11:41:19.90	270.40	31.47	-27.9	-29.5	15.2	1.50e-06	0	44	0	1045430272	16	4296
2026-01-28 11:41:20.90	270.75	31.46	-28.1	-29.9	15.0	0.00e+00	0	44	0	1048576000	16	4422
2026-01-28 11:41:21.91	271.12	31.45	-28.0	-29.7	15.1	0.00e+00	0	44	0	1051721728	16	4351
2026-01-28 11:41:22.90	271.47	31.43	-28.0	-29.6	15.1	3.80e-06	0	44	0	1054867456	16	4347
2026-01-28 11:41:23.90	271.83	31.42	-28.0	-29.7	15.1	0.00e+00	0	44	0	1058013184	16	4368
2026-01-28 11:41:24.91	272.19	31.40	-27.9	-29.3	15.3	0.00e+00	0	44	0	1061158912	16	4253
2026-01-28 11:41:25.91	272.54	31.38	-27.7	-28.9	15.5	3.80e-06	0	44	0	1064304640	16	4154
2026-01-28 11:41:26.91	272.90	31.36	-27.8	-29.1	15.5	0.00e+00	0	44	0	1067450368	16	4190
2026-01-28 11:41:27.91	273.25	31.34	-27.9	-29.4	15.3	0.00e+00	0	44	0	1070596096	16	4268
2026-01-28 11:41:28.91	273.61	31.32	-28.2	-30.1	14.9	0.00e+00	0	44	0	1073741824	16	4462
2026-01-28 11:41:29.91	273.96	31.30	-27.9	-29.3	15.3	0.00e+00	0	44	0	1076887552	16	4258
2026-01-28 11:41:30.91	274.31	31.28	-27.7	-28.9	15.5	0.00e+00	0	44	0	1080033280	16	4145
2026-01-28 11:41:31.91	274.67	31.25	-27.5	-28.5	15.8	3.00e-06	0	44	0	1083179008	16	4030
2026-01-28 11:41:32.92	275.02	31.23	-27.4	-28.3	15.9	0.00e+00	0	44	0	1086324736	16	3974
2026-01-28 11:41:33.92	275.38	31.20	-27.7	-29.0	15.5	0.00e+00	0	44	0	1089470464	16	4156
2026-01-28 11:41:34.92	275.73	31.17	-27.7	-29.0	15.5	0.00e+00	0	44	0	1092616192	16	4172
2026-01-28 11:41:35.93	276.08	31.14	-27.7	-29.0	15.4	0.00e+00	0	44	0	1095761920	16	4179
2026-01-28 11:41:36.92	276.43	31.11	-27.5	-28.6	15.7	0.00e+00	0	44	0	1098907648	16	4068
2026-01-28 11:41:37.93	276.78	31.08	-27.6	-28.7	15.6	0.00e+00	0	44	0	1102053376	16	4102
2026-01-28 11:41:38.93	277.13	31.05	-27.7	-28.8	15.5	0.00e+00	0	44	0	1105199104	16	4126
2026-01-28 11:41:39.93	277.48	31.01	-27.8	-29.1	15.4	0.00e+00	0	44	0	1108344832	16	4197
2026-01-28 11:41:40.94	277.83	30.98	-27.6	-28.8	15.6	0.00e+00	0	44	0	1111490560	16	4131
2026-01-28 11:41:41.94	278.18	30.94	-27.6	-28.7	15.7	0.00e+00	0	43	0	1114636288	16	4084
2026-01-28 11:41:42.94	278.52	30.90	-27.4	-28.3	15.9	0.00e+00	0	44	0	1117782016	16	3989
2026-01-28 11:41:43.95	278.87	30.87	-27.5	-28.6	15.7	0.00e+00	0	44	0	1120927744	16	4062
2026-01-28 11:41:44.94	279.21	30.83	-27.6	-28.8	15.6	0.00e+00	0	44	0	1124073472	16	4108
2026-01-28 11:41:45.94	279.55	30.79	-27.9	-29.4	15.3	7.00e-07	0	44	0	1127219200	16	4290
2026-01-28 11:41:46.94	279.90	30.75	-27.9	-29.3	15.3	0.00e+00	0	44	0	1130364928	16	4264
2026-01-28 11:41:47.94	280.24	30.70	-28.0	-29.7	15.1	1.50e-06	0	44	0	1133510656	16	4365
2026-01-28 11:41:48.93	280.57	30.66	-27.9	-29.5	15.2	0.00e+00	0	44	0	1136656384	16	4299
2026-01-28 11:41:49.94	280.92	30.62	-27.7	-28.9	15.5	0.00e+00	0	44	0	1139802112	16	4154
2026-01-28 11:41:50.94	281.26	30.57	-27.7	-28.9	15.5	0.00e+00	0	44	0	1142947840	16	4150
2026-01-28 11:41:51.95	281.60	30.52	-27.9	-29.4	15.3	0.00e+00	0	44	0	1146093568	16	4273
2026-01-28 11:41:52.95	281.94	30.48	-27.7	-29.0	15.5	0.00e+00	0	44	0	1149239296	16	4173
2026-01-28 11:41:53.95	282.27	30.43	-27.6	-28.8	15.6	0.00e+00	0	44	0	1152385024	16	4115
2026-01-28 11:41:54.95	282.61	30.38	-27.7	-29.0	15.5	0.00e+00	0	44	0	1155530752	16	4179
2026-01-28 11:41:55.96	282.94	30.33	-27.7	-29.0	15.5	0.00e+00	0	44	0	1158676480	16	4157
2026-01-28 11:41:56.96	283.28	30.28	-27.8	-29.2	15.4	0.00e+00	0	44	0	1161822208	16	4228
2026-01-28 11:41:57.97	283.61	30.22	-27.8	-29.2	15.3	0.00e+00	0	44	0	1164967936	16	4236
2026-01-28 11:41:58.97	283.94	30.17	-27.8	-29.2	15.3	0.00e+00	0	44	0	1168113664	16	4236
2026-01-28 11:41:59.97	284.27	30.12	-27.8	-29.3	15.3	0.00e+00	0	44	0	1171259392	16	4250
2026-01-28 11:42:00.98	284.60	30.06	-27.7	-29.0	15.5	0.00e+00	0	44	0	1174405120	16	4166
2026-01-28 11:42:01.98	284.93	30.01	-27.6	-28.7	15.6	0.00e+00	0	44	0	1177550848	16	4091
2026-01-28 11:42:02.98	285.26	29.95	-27.6	-28.8	15.6	0.00e+00	0	44	0	1180696576	16	4123
2026-01-28 11:42:03.99	285.59	29.89	-27.8	-29.2	15.4	0.00e+00	0	44	0	1183842304	16	4223
2026-01-28 11:42:04.99	285.91	29.83	-27.5	-28.5	15.7	0.00e+00	0	44	0	1186988032	16	4040
2026-01-28 11:42:06.00	286.24	29.77	-27.4	-28.4	15.8	0.00e+00	0	44	0	1190133760	16	4003
2026-01-28 11:42:07.00	286.56	29.71	-27.4	-28.4	15.8	0.00e+00	0	44	0	1193279488	16	4003
2026-01-28 11:42:08.00	286.88	29.65	-27.6	-28.6	15.7	0.00e+00	0	44	0	1196425216	16	4066
2026-01-28 11:42:09.01	287.20	29.59	-27.5	-28.5	15.8	0.00e+00	0	44	0	1199570944	16	4032
2026-01-28 11:42:10.01	287.52	29.53	-27.5	-28.5	15.8	0.00e+00	0	44	0	1202716672	16	4036
2026-01-28 11:42:11.01	287.83	29.46	-27.3	-28.1	16.0	0.00e+00	0	44	0	1205862400	16	3947
2026-01-28 11:42:12.01	288.15	29.40	-27.4	-28.4	15.9	0.00e+00	0	44	0	1209008128	16	4005
2026-01-28 11:42:13.01	288.46	29.33	-27.3	-28.0	16.0	0.00e+00	0	44	0	1212153856	16	3912
2026-01-28 11:42:14.02	288.78	29.27	-27.4	-28.3	15.9	0.00e+00	0	44	0	1215299584	16	3979
2026-01-28 11:42:15.02	289.09	29.20	-27.5	-28.5	15.7	0.00e+00	0	44	0	1218445312	16	4031
2026-01-28 11:42:16.03	289.41	29.13	-27.6	-28.7	15.6	0.00e+00	0	44	0	1221591040	16	4094
2026-01-28 11:42:17.03	289.71	29.07	-27.5	-28.5	15.7	0.00e+00	0	44	0	1224736768	16	4045
2026-01-28 11:42:18.03	290.02	29.00	-27.5	-28.5	15.8	0.00e+00	0	44	0	1227882496	16	4039
2026-01-28 11:42:19.03	290.33	28.93	-27.5	-28.6	15.7	0.00e+00	0	44	0	1231028224	16	4067
2026-01-28 11:42:20.04	290.64	28.86	-27.3	-28.1	16.0	0.00e+00	0	44	0	1234173952	16	3942
2026-01-28 11:42:21.04	290.94	28.79	-27.1	-28.0	16.1	0.00e+00	0	44	0	1237319680	15	4025
2026-01-28 11:42:22.04	291.24	28.71	-27.1	-28.2	16.0	0.00e+00	0	44	0	1240465408	15	4078
2026-01-28 11:42:23.05	291.55	28.64	-27.4	-28.7	15.7	0.00e+00	0	44	0	1242562560	15	4211
2026-01-28 11:42:24.05	291.85	28.57	-27.4	-28.8	15.7	0.00e+00	0	44	0	1245708288	15	4244
2026-01-28 11:42:25.06	292.15	28.49	-27.6	-29.3	15.4	0.00e+00	0	44	0	1248854016	15	4356
2026-01-28 11:42:26.06	292.45	28.42	-27.6	-29.2	15.4	0.00e+00	0	44	0	1251999744	15	4356
2026-01-28 11:42:27.06	292.74	28.35	-27.8	-29.6	15.2	0.00e+00	0	44	0	1255145472	15	4463
2026-01-28 11:42:28.06	293.04	28.27	-27.6	-29.3	15.4	0.00e+00	0	44	0	1259339776	15	4371
2026-01-28 11:42:29.06	293.33	28.19	-27.5	-29.0	15.6	0.00e+00	0	44	0	1262485504	15	4299
2026-01-28 11:42:30.07	293.62	28.12	-27.6	-29.2	15.5	0.00e+00	0	44	0	1265631232	15	4340
2026-01-28 11:42:31.07	293.91	28.04	-27.4	-28.8	15.7	2.20e-06	0	44	0	1267728384	15	4233
2026-01-28 11:42:32.07	294.20	27.96	-27.5	-28.9	15.6	0.00e+00	0	44	0	1270874112	15	4265
2026-01-28 11:42:33.07	294.49	27.88	-27.7	-29.4	15.3	7.00e-07	0	44	0	1274019840	15	4392
2026-01-28 11:42:34.07	294.78	27.81	-27.3	-28.6	15.8	0.00e+00	0	44	0	1277165568	15	4178
2026-01-28 11:42:35.08	295.06	27.73	-27.2	-28.3	15.9	0.00e+00	0	44	0	1280311296	15	4108
2026-01-28 11:42:36.08	295.35	27.65	-27.3	-28.5	15.8	0.00e+00	0	44	0	1283457024	15	4150
2026-01-28 11:42:37.08	295.63	27.57	-27.4	-28.9	15.6	7.00e-07	0	44	0	1286602752	15	4249
2026-01-28 11:42:38.08	295.91	27.48	-27.4	-28.7	15.7	0.00e+00	0	44	0	1289748480	15	4219
2026-01-28 11:42:39.09	296.19	27.40	-27.3	-28.6	15.8	0.00e+00	0	44	0	1292894208	15	4165
2026-01-28 11:42:40.09	296.47	27.32	-27.2	-28.5	15.9	1.50e-06	0	44	0	1296039936	15	4138
2026-01-28 11:42:41.09	296.75	27.24	-27.4	-28.7	15.7	0.00e+00	0	44	0	1299185664	15	4206
2026-01-28 11:42:42.10	297.02	27.16	-27.2	-28.4	15.9	0.00e+00	0	44	0	1302331392	15	4116
2026-01-28 11:42:43.10	297.30	27.07	-27.2	-28.4	15.9	0.00e+00	0	44	0	1305477120	15	4125
2026-01-28 11:42:44.10	297.57	26.99	-27.2	-28.4	15.9	0.00e+00	0	44	0	1308622848	15	4141
2026-01-28 11:42:45.11	297.84	26.90	-27.2	-28.3	16.0	0.00e+00	0	44	0	1311768576	15	4093
2026-01-28 11:42:46.11	298.11	26.82	-27.2	-28.3	16.0	0.00e+00	0	44	0	1314914304	15	4086
2026-01-28 11:42:47.11	298.38	26.74	-27.2	-28.4	15.9	0.00e+00	0	44	0	1318060032	15	4131
2026-01-28 11:42:48.11	298.65	26.65	-27.1	-28.2	16.0	0.00e+00	0	44	0	1321205760	15	4068
2026-01-28 11:42:49.10	298.91	26.57	-27.0	-28.0	16.1	0.00e+00	0	44	0	1324351488	15	4028
2026-01-28 11:42:50.10	299.17	26.48	-27.1	-28.1	16.0	0.00e+00	0	44	0	1327497216	15	4061
2026-01-28 11:42:51.10	299.44	26.39	-27.2	-28.4	15.9	0.00e+00	0	44	0	1330642944	15	4114
2026-01-28 11:42:52.10	299.70	26.31	-26.9	-27.8	16.2	0.00e+00	0	44	0	1333788672	15	3964
2026-01-28 11:42:53.11	299.96	26.22	-27.0	-27.9	16.1	0.00e+00	0	44	0	1336934400	15	3998
2026-01-28 11:42:54.11	300.22	26.13	-27.0	-27.9	16.1	0.00e+00	0	44	0	1340080128	15	4007
2026-01-28 11:42:55.12	300.48	26.04	-26.9	-27.8	16.2	0.00e+00	0	44	0	1343225856	15	3979
2026-01-28 11:42:56.12	300.73	25.96	-27.1	-28.0	16.1	0.00e+00	0	44	0	1346371584	15	4034
2026-01-28 11:42:57.13	300.99	25.87	-26.9	-27.8	16.2	0.00e+00	0	44	0	1349517312	15	3965
2026-01-28 11:42:58.13	301.24	25.78	-26.8	-27.6	16.3	0.00e+00	0	44	0	1352663040	15	3909
2026-01-28 11:42:59.14	301.49	25.69	-26.8	-27.9	16.4	0.00e+00	0	44	0	1355808768	14	4109
2026-01-28 11:43:00.14	301.74	25.60	-26.5	-27.4	16.7	0.00e+00	0	44	0	1358954496	14	3972
2026-01-28 11:43:01.15	301.99	25.51	-26.5	-27.3	16.7	7.00e-07	0	44	0	1362100224	14	3956
2026-01-28 11:43:02.15	302.24	25.42	-26.7	-27.8	16.4	0.00e+00	0	44	0	1365245952	14	4076
2026-01-28 11:43:03.15	302.49	25.33	-26.9	-28.1	16.3	0.00e+00	0	44	0	1368391680	14	4152
2026-01-28 11:43:04.15	302.73	25.24	-27.0	-28.4	16.2	0.00e+00	0	44	0	1371537408	14	4236
2026-01-28 11:43:05.15	302.97	25.15	-26.9	-28.3	16.2	0.00e+00	0	44	0	1374683136	14	4200
2026-01-28 11:43:06.15	303.22	25.06	-27.0	-28.5	16.1	0.00e+00	0	44	0	1377828864	14	4257
2026-01-28 11:43:07.15	303.46	24.97	-27.1	-28.6	16.0	0.00e+00	0	44	0	1380974592	14	4303
2026-01-28 11:43:08.16	303.70	24.88	-27.2	-28.9	15.9	0.00e+00	0	44	0	1384120320	14	4358
2026-01-28 11:43:09.16	303.94	24.79	-27.2	-29.0	15.8	0.00e+00	0	44	0	1387266048	14	4406
2026-01-28 11:43:10.17	304.17	24.70	-27.3	-29.1	15.7	0.00e+00	0	44	0	1390411776	14	4443
2026-01-28 11:43:11.17	304.41	24.61	-27.4	-29.3	15.6	0.00e+00	0	44	0	1393557504	14	4482
2026-01-28 11:43:12.17	304.64	24.51	-27.3	-29.1	15.7	0.00e+00	0	44	0	1396703232	14	4442
2026-01-28 11:43:13.17	304.87	24.42	-27.4	-29.3	15.6	0.00e+00	0	44	0	1399848960	14	4493
2026-01-28 11:43:14.18	305.11	24.33	-27.2	-28.8	15.9	0.00e+00	0	44	0	1402994688	14	4354
2026-01-28 11:43:15.19	305.34	24.24	-27.1	-28.6	16.0	0.00e+00	0	44	0	1406140416	14	4288
2026-01-28 11:43:16.19	305.57	24.15	-27.2	-28.8	15.9	0.00e+00	0	44	0	1409286144	14	4360
2026-01-28 11:43:17.19	305.79	24.05	-27.2	-28.9	15.8	0.00e+00	0	44	0	1412431872	14	4382
2026-01-28 11:43:18.19	306.02	23.96	-27.2	-28.9	15.8	0.00e+00	0	44	0	1415577600	14	4388
2026-01-28 11:43:19.19	306.24	23.87	-27.2	-29.0	15.8	0.00e+00	0	44	0	1418723328	14	4391
2026-01-28 11:43:20.20	306.47	23.77	-27.3	-29.1	15.7	7.00e-07	0	44	0	1421869056	14	4439
2026-01-28 11:43:21.20	306.69	23.68	-27.1	-28.6	16.0	0.00e+00	0	44	0	1425014784	14	4290
2026-01-28 11:43:22.20	306.91	23.59	-27.0	-28.5	16.0	0.00e+00	0	44	0	1428160512	14	4267
2026-01-28 11:43:23.21	307.13	23.50	-27.0	-28.5	16.0	0.00e+00	0	44	0	1431306240	14	4256
2026-01-28 11:43:24.21	307.35	23.40	-27.1	-28.6	16.0	0.00e+00	0	44	0	1434451968	14	4307
2026-01-28 11:43:25.21	307.57	23.31	-27.1	-28.6	16.0	0.00e+00	0	44	0	1437597696	14	4284
2026-01-28 11:43:26.20	307.78	23.22	-27.1	-28.7	15.9	0.00e+00	0	44	0	1440743424	14	4309
2026-01-28 11:43:27.20	307.99	23.12	-26.8	-28.0	16.3	0.00e+00	0	44	0	1443889152	14	4141
2026-01-28 11:43:28.21	308.21	23.03	-26.7	-27.7	16.5	0.00e+00	0	44	0	1447034880	14	4038
2026-01-28 11:43:29.21	308.42	22.94	-26.6	-27.6	16.5	0.00e+00	0	44	0	1450180608	14	4016
2026-01-28 11:43:30.21	308.63	22.84	-26.8	-27.9	16.3	0.00e+00	0	44	0	1453326336	14	4107
2026-01-28 11:43:31.22	308.84	22.75	-26.7	-27.7	16.5	0.00e+00	0	44	0	1456472064	14	4042
2026-01-28 11:43:32.22	309.05	22.66	-26.7	-27.7	16.5	0.00e+00	0	44	0	1459617792	14	4055
2026-01-28 11:43:33.23	309.26	22.56	-26.8	-27.9	16.4	0.00e+00	0	44	0	1462763520	14	4094
2026-01-28 11:43:34.23	309.46	22.47	-26.9	-28.1	16.2	0.00e+00	0	44	0	1465909248	14	4152
2026-01-28 11:43:35.23	309.67	22.37	-26.9	-28.3	16.2	0.00e+00	0	44	0	1469054976	14	4204
2026-01-28 11:43:36.24	309.87	22.28	-27.1	-28.7	15.9	0.00e+00	0	44	0	1472200704	14	4318
2026-01-28 11:43:37.24	310.07	22.19	-27.2	-28.9	15.8	0.00e+00	0	44	0	1475346432	14	4386
2026-01-28 11:43:38.24	310.27	22.09	-27.4	-29.3	15.6	0.00e+00	0	44	0	1478492160	14	4504
2026-01-28 11:43:39.25	310.48	22.00	-27.3	-29.2	15.6	0.00e+00	0	44	0	1481637888	14	4466
2026-01-28 11:43:40.25	310.67	21.91	-27.3	-29.1	15.7	0.00e+00	0	44	0	1484783616	14	4433
2026-01-28 11:43:41.26	310.87	21.81	-27.3	-29.1	15.7	0.00e+00	0	44	0	1487929344	14	4434
2026-01-28 11:43:42.27	311.07	21.72	-27.2	-28.9	15.8	0.00e+00	0	44	0	1491075072	14	4365
2026-01-28 11:43:43.27	311.27	21.62	-27.1	-28.7	15.9	0.00e+00	0	44	0	1494220800	14	4330
2026-01-28 11:43:44.28	311.46	21.53	-27.1	-28.6	16.0	0.00e+00	0	44	0	1497366528	14	4290
2026-01-28 11:43:45.28	311.65	21.43	-27.1	-28.6	16.0	0.00e+00	0	44	0	1500512256	14	4286
2026-01-28 11:43:46.29	311.85	21.34	-27.0	-28.5	16.0	0.00e+00	0	44	0	1503657984	14	4280
2026-01-28 11:43:47.30	312.04	21.25	-27.1	-28.7	15.9	0.00e+00	0	44	0	1506803712	14	4326
2026-01-28 11:43:48.30	312.23	21.15	-27.0	-28.5	16.0	0.00e+00	0	44	0	1509949440	14	4272
2026-01-28 11:43:49.31	312.42	21.06	-27.0	-28.5	16.0	0.00e+00	0	44	0	1513095168	14	4275
2026-01-28 11:43:50.31	312.61	20.97	-27.0	-28.4	16.0	0.00e+00	0	44	0	1516240896	14	4233
2026-01-28 11:43:51.31	312.79	20.87	-27.1	-28.6	15.9	0.00e+00	0	44	0	1519386624	14	4288
2026-01-28 11:43:52.32	312.98	20.78	-27.0	-28.5	16.0	0.00e+00	0	44	0	1522532352	14	4264
2026-01-28 11:43:53.32	313.16	20.68	-27.1	-28.7	15.9	0.00e+00	0	44	0	1525678080	14	4335
2026-01-28 11:43:54.32	313.34	20.59	-27.1	-28.7	15.9	0.00e+00	0	44	0	1528823808	14	4323
2026-01-28 11:43:55.32	313.52	20.50	-27.2	-29.0	15.7	0.00e+00	0	44	0	1531969536	14	4400
2026-01-28 11:43:56.33	313.71	20.40	-27.3	-29.2	15.6	0.00e+00	0	44	0	1535115264	14	4469
2026-01-28 11:43:57.32	313.88	20.31	-27.1	-28.7	15.9	0.00e+00	0	44	0	1538260992	14	4321
2026-01-28 11:43:58.33	314.06	20.22	-27.1	-28.6	15.9	0.00e+00	0	44	0	1541406720	14	4288
2026-01-28 11:43:59.33	314.24	20.13	-27.1	-28.7	15.9	0.00e+00	0	44	0	1543503872	14	4318
2026-01-28 11:44:00.33	314.42	20.03	-27.2	-28.9	15.7	0.00e+00	0	44	0	1546649600	14	4383
2026-01-28 11:44:01.34	314.59	19.94	-27.2	-28.9	15.8	0.00e+00	0	44	0	1549795328	14	4372
2026-01-28 11:44:02.34	314.77	19.85	-27.1	-28.8	15.8	0.00e+00	0	44	0	1552941056	14	4339
2026-01-28 11:44:03.34	314.94	19.76	-27.2	-28.8	15.8	0.00e+00	0	44	0	1556086784	14	4352
2026-01-28 11:44:04.34	315.11	19.66	-27.3	-29.1	15.7	0.00e+00	0	44	0	1559232512	14	4426
2026-01-28 11:44:05.34	315.28	19.57	-27.3	-29.1	15.6	0.00e+00	0	44	0	1562378240	14	4440
2026-01-28 11:44:06.35	315.46	19.48	-27.4	-29.4	15.4	0.00e+00	0	44	0	1565523968	14	4534
2026-01-28 11:44:07.35	315.63	19.39	-27.5	-29.2	15.3	0.00e+00	0	44	0	1568669696	15	4354
2026-01-28 11:44:08.36	315.79	19.29	-27.7	-29.6	15.1	0.00e+00	0	44	0	1571815424	15	4470
2026-01-28 11:44:09.36	315.96	19.20	-27.7	-29.7	15.0	0.00e+00	0	44	0	1574961152	15	4499
2026-01-28 11:44:10.36	316.13	19.11	-27.7	-29.5	15.1	0.00e+00	0	44	0	1578106880	15	4459
2026-01-28 11:44:11.37	316.29	19.02	-27.6	-29.4	15.1	0.00e+00	0	44	0	1581252608	15	4420
2026-01-28 11:44:12.37	316.46	18.93	-27.6	-29.3	15.2	0.00e+00	0	44	0	1584398336	15	4404
2026-01-28 11:44:13.38	316.62	18.83	-27.7	-29.6	15.0	0.00e+00	0	44	0	1587544064	15	4467
2026-01-28 11:44:14.38	316.79	18.74	-27.7	-29.7	14.9	0.00e+00	0	44	0	1590689792	15	4500
2026-01-28 11:44:15.39	316.95	18.65	-27.9	-30.1	14.7	0.00e+00	0	44	0	1593835520	15	4634
2026-01-28 11:44:16.39	317.11	18.56	-28.1	-30.0	14.7	0.00e+00	0	44	0	1596981248	16	4468
2026-01-28 11:44:17.41	317.27	18.47	-27.9	-29.6	14.9	0.00e+00	0	44	0	1600126976	16	4350
2026-01-28 11:44:18.41	317.43	18.38	-27.8	-29.2	15.1	0.00e+00	0	44	0	1603272704	16	4247
2026-01-28 11:44:19.42	317.59	18.29	-27.8	-29.1	15.1	0.00e+00	0	44	0	1606418432	16	4227
2026-01-28 11:44:20.43	317.75	18.19	-27.7	-29.0	15.3	7.00e-07	0	44	0	1609564160	16	4176
2026-01-28 11:44:21.44	317.90	18.10	-27.6	-28.9	15.3	0.00e+00	0	44	0	1612709888	16	4153
2026-01-28 11:44:22.45	318.06	18.01	-27.6	-28.8	15.3	0.00e+00	0	44	0	1615855616	16	4136
2026-01-28 11:44:23.45	318.22	17.92	-27.4	-28.4	15.5	0.00e+00	0	44	0	1619001344	16	4030
2026-01-28 11:44:24.46	318.37	17.83	-27.4	-28.3	15.6	0.00e+00	0	44	0	1622147072	16	3993
2026-01-28 11:44:25.46	318.52	17.74	-27.4	-28.5	15.5	0.00e+00	0	44	0	1625292800	16	4042
2026-01-28 11:44:26.47	318.67	17.65	-27.5	-28.6	15.4	0.00e+00	0	44	0	1628438528	16	4076
2026-01-28 11:44:27.47	318.82	17.56	-27.4	-28.4	15.5	0.00e+00	0	44	0	1631584256	16	4021
2026-01-28 11:44:28.47	318.97	17.47	-27.4	-28.4	15.5	7.00e-07	0	44	0	1634729984	16	4024
2026-01-28 11:44:29.48	319.12	17.38	-27.4	-28.5	15.5	0.00e+00	0	44	0	1637875712	16	4041
2026-01-28 11:44:30.49	319.27	17.29	-27.4	-28.4	15.5	0.00e+00	0	44	0	1641021440	16	4019
2026-01-28 11:44:31.50	319.42	17.20	-27.4	-28.4	15.5	0.00e+00	0	44	0	1644167168	16	4036
2026-01-28 11:44:32.50	319.57	17.11	-27.5	-28.5	15.5	0.00e+00	0	44	0	1647312896	16	4050
2026-01-28 11:44:33.51	319.72	17.02	-27.4	-28.4	15.5	0.00e+00	0	44	0	1650458624	16	4030
2026-01-28 11:44:34.51	319.86	16.94	-27.6	-28.9	15.2	0.00e+00	0	44	0	1653604352	16	4154
2026-01-28 11:44:35.51	320.00	16.85	-27.6	-28.8	15.3	0.00e+00	0	44	0	1656750080	16	4126
2026-01-28 11:44:36.51	320.15	16.76	-27.6	-28.8	15.3	0.00e+00	0	44	0	1659895808	16	4127
2026-01-28 11:44:37.52	320.29	16.67	-27.7	-29.1	15.1	0.00e+00	0	44	0	1663041536	16	4222
2026-01-28 11:44:38.52	320.43	16.58	-27.7	-29.0	15.1	0.00e+00	0	44	0	1666187264	16	4200
2026-01-28 11:44:39.53	320.57	16.49	-27.7	-29.0	15.2	0.00e+00	0	44	0	1669332992	16	4179
2026-01-28 11:44:40.53	320.71	16.41	-27.7	-29.0	15.1	7.00e-07	0	44	0	1672478720	16	4189
2026-01-28 11:44:41.53	320.85	16.32	-27.6	-28.8	15.3	0.00e+00	0	44	0	1675624448	16	4137
2026-01-28 11:44:42.53	320.99	16.23	-27.7	-29.1	15.1	0.00e+00	0	44	0	1678770176	16	4219
2026-01-28 11:44:43.54	321.13	16.14	-27.8	-29.2	15.0	0.00e+00	0	44	0	1681915904	16	4239
2026-01-28 11:44:44.53	321.26	16.06	-27.6	-28.9	15.2	0.00e+00	0	44	0	1685061632	16	4163
2026-01-28 11:44:45.54	321.40	15.97	-27.6	-28.7	15.3	0.00e+00	0	44	0	1688207360	16	4107
2026-01-28 11:44:46.54	321.54	15.88	-27.6	-28.7	15.2	0.00e+00	0	44	0	1691353088	16	4108
2026-01-28 11:44:47.55	321.67	15.80	-27.5	-28.6	15.3	0.00e+00	0	44	0	1694498816	16	4095
2026-01-28 11:44:48.55	321.80	15.71	-27.5	-28.6	15.3	0.00e+00	0	44	0	1697644544	16	4084
2026-01-28 11:44:49.56	321.94	15.62	-27.5	-28.7	15.2	7.00e-07	0	44	0	1700790272	16	4102
2026-01-28 11:44:50.56	322.07	15.54	-27.5	-28.5	15.3	0.00e+00	0	44	0	1703936000	16	4060
2026-01-28 11:44:51.56	322.20	15.45	-27.6	-28.8	15.2	0.00e+00	0	44	0	1707081728	16	4129
2026-01-28 11:44:52.56	322.33	15.37	-27.7	-29.1	15.0	0.00e+00	0	44	0	1710227456	16	4213
2026-01-28 11:44:53.56	322.46	15.28	-27.8	-29.2	14.9	0.00e+00	0	44	0	1713373184	16	4256
2026-01-28 11:44:54.57	322.59	15.19	-28.0	-29.7	14.6	0.00e+00	0	44	0	1716518912	16	4383
2026-01-28 11:44:55.57	322.72	15.11	-28.0	-29.7	14.6	0.00e+00	0	44	0	1719664640	16	4393
2026-01-28 11:44:56.58	322.85	15.02	-28.0	-29.9	14.5	7.00e-07	0	44	0	1722810368	16	4441
2026-01-28 11:44:57.58	322.98	14.94	-28.1	-30.0	14.5	7.00e-07	0	44	0	1725956096	16	4470
2026-01-28 11:44:58.58	323.10	14.85	-28.1	-30.0	14.5	0.00e+00	0	44	0	1729101824	16	4480
2026-01-28 11:44:59.58	323.23	14.77	-28.1	-29.9	14.5	0.00e+00	0	44	0	1732247552	16	4452
2026-01-28 11:45:00.59	323.36	14.69	-28.1	-29.9	14.5	7.00e-07	0	44	0	1735393280	16	4461
2026-01-28 11:45:01.59	323.48	14.60	-28.1	-30.1	14.4	1.50e-06	0	44	0	1738539008	16	4501
2026-01-28 11:45:02.59	323.60	14.52	-28.2	-30.2	14.4	7.00e-07	0	44	0	1741684736	16	4532
2026-01-28 11:45:03.60	323.73	14.43	-28.1	-30.0	14.4	2.20e-06	0	44	0	1744830464	16	4469
2026-01-28 11:45:04.60	323.85	14.35	-28.0	-29.9	14.5	0.00e+00	0	44	0	1747976192	16	4441
2026-01-28 11:45:05.61	323.97	14.27	-28.1	-30.0	14.5	7.00e-07	0	44	0	1751121920	16	4466
2026-01-28 11:45:06.61	324.09	14.18	-28.1	-30.0	14.4	1.50e-06	0	44	0	1754267648	16	4473
2026-01-28 11:45:07.61	324.21	14.10	-28.1	-30.1	14.4	1.50e-06	0	44	0	1757413376	16	4504
2026-01-28 11:45:08.62	324.33	14.02	-28.2	-30.2	14.3	7.00e-07	0	44	0	1760559104	16	4538
2026-01-28 11:45:09.62	324.45	13.93	-28.1	-30.0	14.4	7.00e-07	0	44	0	1763704832	16	4480
2026-01-28 11:45:10.63	324.57	13.85	-28.2	-30.2	14.3	0.00e+00	0	44	0	1766850560	16	4546
2026-01-28 11:45:11.63	324.69	13.77	-28.2	-30.3	14.3	3.80e-06	0	44	0	1769996288	16	4565
2026-01-28 11:45:12.63	324.81	13.68	-28.0	-29.8	14.5	0.00e+00	0	44	0	1773142016	16	4435
2026-01-28 11:45:13.63	324.92	13.60	-28.1	-29.9	14.5	0.00e+00	0	44	0	1776287744	16	4444
2026-01-28 11:45:14.63	325.04	13.52	-28.1	-29.9	14.5	1.50e-06	0	44	0	1779433472	16	4454
2026-01-28 11:45:15.63	325.16	13.44	-28.1	-29.9	14.4	1.50e-06	0	44	0	1782579200	16	4462
2026-01-28 11:45:16.64	325.27	13.36	-28.2	-30.1	14.3	4.50e-06	0	44	0	1785724928	16	4519
2026-01-28 11:45:17.64	325.39	13.28	-28.2	-30.2	14.3	7.00e-07	0	44	0	1788870656	16	4524
2026-01-28 11:45:18.64	325.50	13.19	-28.3	-30.4	14.1	3.00e-06	0	44	0	1792016384	16	4603
2026-01-28 11:45:19.65	325.61	13.11	-28.3	-30.4	14.2	7.00e-07	0	44	0	1795162112	16	4601
2026-01-28 11:45:20.65	325.73	13.03	-28.4	-30.8	13.9	3.80e-06	0	44	0	1798307840	16	4720
2026-01-28 11:45:21.66	325.84	12.95	-28.5	-30.6	13.7	6.10e-06	0	44	0	1801453568	17	4546
2026-01-28 11:45:22.66	325.95	12.87	-28.7	-31.0	13.5	4.50e-06	0	44	0	1804599296	17	4689
2026-01-28 11:45:23.66	326.06	12.79	-28.7	-30.9	13.6	9.10e-06	0	44	0	1807745024	17	4653
2026-01-28 11:45:24.66	326.17	12.71	-28.7	-31.0	13.5	1.29e-05	0	44	0	1810890752	17	4679
2026-01-28 11:45:25.67	326.28	12.63	-28.6	-30.8	13.6	1.06e-05	0	44	0	1814036480	17	4631
2026-01-28 11:45:26.67	326.39	12.55	-28.7	-31.0	13.4	1.14e-05	0	44	0	1817182208	17	4680
2026-01-28 11:45:27.67	326.50	12.47	-28.6	-30.8	13.6	8.30e-06	0	44	0	1820327936	17	4621
2026-01-28 11:45:28.67	326.60	12.39	-28.4	-30.3	13.9	3.80e-06	0	44	0	1823473664	17	4474
2026-01-28 11:45:29.68	326.71	12.31	-28.4	-30.2	13.9	3.80e-06	0	44	0	1826619392	17	4442
2026-01-28 11:45:30.68	326.82	12.23	-28.4	-30.3	13.9	3.80e-06	0	44	0	1829765120	17	4457
2026-01-28 11:45:31.68	326.93	12.15	-28.5	-30.4	13.8	1.50e-06	0	44	0	1832910848	17	4483
2026-01-28 11:45:32.68	327.03	12.07	-28.4	-30.2	13.9	5.30e-06	0	44	0	1836056576	17	4441
2026-01-28 11:45:33.68	327.14	12.00	-28.5	-30.5	13.8	1.50e-06	0	44	0	1839202304	17	4520
2026-01-28 11:45:34.69	327.24	11.92	-28.5	-30.6	13.7	6.10e-06	0	44	0	1842348032	17	4551
2026-01-28 11:45:35.69	327.35	11.84	-28.6	-30.7	13.6	6.10e-06	0	44	0	1845493760	17	4574
2026-01-28 11:45:36.70	327.45	11.76	-28.5	-30.6	13.7	1.14e-05	0	44	0	1848639488	17	4545
2026-01-28 11:45:37.70	327.55	11.68	-28.5	-30.4	13.8	6.10e-06	0	44	0	1851785216	17	4494
2026-01-28 11:45:38.71	327.66	11.60	-28.4	-30.2	13.9	6.10e-06	0	44	0	1854930944	17	4428
2026-01-28 11:45:39.72	327.76	11.53	-28.5	-30.4	13.8	2.20e-06	0	44	0	1858076672	17	4499
2026-01-28 11:45:40.72	327.86	11.45	-28.5	-30.6	13.7	3.80e-06	0	44	0	1861222400	17	4552
2026-01-28 11:45:41.72	327.96	11.37	-28.5	-30.6	13.7	7.60e-06	0	44	0	1864368128	17	4560
2026-01-28 11:45:42.72	328.06	11.29	-28.6	-30.7	13.6	3.80e-06	0	44	0	1867513856	17	4587
2026-01-28 11:45:43.72	328.16	11.22	-28.5	-30.6	13.6	2.20e-06	0	44	0	1870659584	17	4558
2026-01-28 11:45:44.73	328.26	11.14	-28.5	-30.6	13.7	6.10e-06	0	44	0	1873805312	17	4549
2026-01-28 11:45:45.74	328.36	11.06	-28.6	-30.7	13.5	6.80e-06	0	44	0	1876951040	17	4601
2026-01-28 11:45:46.74	328.46	10.99	-28.6	-30.6	13.6	1.29e-05	0	44	0	1880096768	17	4569
2026-01-28 11:45:47.74	328.56	10.91	-28.6	-30.7	13.6	9.10e-06	0	44	0	1883242496	17	4588
2026-01-28 11:45:48.74	328.65	10.83	-28.4	-30.4	13.8	4.50e-06	0	44	0	1886388224	17	4483
2026-01-28 11:45:49.75	328.75	10.76	-28.4	-30.2	13.8	5.30e-06	0	44	0	1889533952	17	4440
2026-01-28 11:45:50.75	328.85	10.68	-28.6	-30.7	13.6	5.30e-06	0	44	0	1891631104	17	4587
2026-01-28 11:45:51.75	328.94	10.61	-28.4	-30.4	13.7	7.60e-06	0	44	0	1895825408	17	4493
2026-01-28 11:45:52.76	329.04	10.53	-28.5	-30.5	13.7	4.50e-06	0	44	0	1898971136	17	4524
2026-01-28 11:45:53.76	329.14	10.45	-28.5	-30.5	13.6	6.80e-06	0	44	0	1902116864	17	4535
2026-01-28 11:45:54.77	329.23	10.38	-28.5	-30.6	13.6	4.50e-06	0	44	0	1905262592	17	4563
2026-01-28 11:45:55.77	329.32	10.30	-28.5	-30.6	13.6	4.50e-06	0	44	0	1908408320	17	4554
2026-01-28 11:45:56.77	329.42	10.23	-28.5	-30.4	13.7	6.80e-06	0	44	0	1911554048	17	4513
2026-01-28 11:45:57.78	329.51	10.15	-28.6	-30.8	13.4	1.06e-05	0	44	0	1913651200	17	4641
2026-01-28 11:45:58.78	329.61	10.08	-28.7	-31.1	13.3	1.44e-05	0	44	0	1916796928	17	4713
2026-01-28 11:45:59.79	329.70	10.00	-28.7	-31.1	13.3	1.37e-05	0	44	0	1919942656	17	4728
2026-01-28 11:46:00.79	329.79	9.93	-28.8	-31.2	13.2	1.90e-05	0	44	0	1923088384	17	4747
2026-01-28 11:46:01.79	329.88	9.86	-28.8	-31.3	13.1	2.28e-05	0	44	0	1926234112	17	4780
2026-01-28 11:46:02.80	329.97	9.78	-28.9	-31.5	13.0	3.05e-05	0	44	0	1929379840	17	4859
2026-01-28 11:46:03.80	330.06	9.71	-28.9	-31.5	13.0	4.42e-05	0	44	0	1932525568	17	4856
2026-01-28 11:46:04.80	330.15	9.64	-28.8	-31.2	13.2	2.82e-05	0	44	0	1935671296	17	4767
2026-01-28 11:46:05.81	330.24	9.56	-29.0	-31.6	12.9	3.89e-05	0	44	0	1938817024	17	4901
2026-01-28 11:46:06.81	330.33	9.49	-29.0	-31.7	12.9	4.65e-05	0	44	0	1941962752	17	4916
2026-01-28 11:46:07.81	330.42	9.42	-28.9	-31.4	13.0	3.43e-05	0	44	0	1945108480	17	4825
2026-01-28 11:46:08.81	330.51	9.34	-28.9	-31.6	12.9	4.19e-05	0	44	0	1948254208	17	4892
2026-01-28 11:46:09.81	330.60	9.27	-28.9	-31.5	13.0	3.58e-05	0	44	0	1951399936	17	4846
2026-01-28 11:46:10.81	330.69	9.20	-28.9	-31.4	13.0	5.03e-05	0	44	0	1954545664	17	4831
2026-01-28 11:46:11.81	330.77	9.13	-28.9	-31.6	12.9	4.34e-05	0	44	0	1957691392	17	4910
2026-01-28 11:46:12.81	330.86	9.05	-29.0	-31.2	12.9	5.41e-05	0	44	0	1960837120	18	4635
2026-01-28 11:46:13.81	330.95	8.98	-29.0	-31.1	12.9	4.88e-05	0	44	0	1963982848	18	4635
2026-01-28 11:46:14.82	331.03	8.91	-28.9	-31.0	12.9	4.73e-05	0	44	0	1967128576	18	4604
2026-01-28 11:46:15.82	331.12	8.84	-29.3	-32.0	12.3	9.38e-05	0	44	0	1970274304	18	4915
2026-01-28 11:46:16.82	331.20	8.77	-29.2	-31.8	12.4	1.81e-04	0	44	0	1973420032	18	4866
2026-01-28 11:46:17.83	331.29	8.69	-29.1	-31.6	12.5	1.25e-04	0	44	0	1976565760	18	4788
2026-01-28 11:46:18.83	331.37	8.62	-29.1	-31.6	12.5	1.18e-04	0	44	0	1979711488	18	4801
2026-01-28 11:46:19.84	331.46	8.55	-29.1	-31.6	12.5	9.53e-05	0	44	0	1982857216	18	4804
2026-01-28 11:46:20.85	331.54	8.48	-29.1	-31.7	12.5	1.09e-04	0	44	0	1986002944	18	4815
2026-01-28 11:46:21.85	331.63	8.41	-29.3	-32.0	12.3	1.82e-04	0	44	0	1989148672	18	4908
2026-01-28 11:46:22.85	331.71	8.34	-29.4	-32.2	12.1	2.42e-04	0	44	0	1992294400	18	4991
2026-01-28 11:46:23.86	331.79	8.27	-29.2	-31.8	12.3	1.91e-04	0	44	0	1995440128	18	4856
2026-01-28 11:46:24.86	331.87	8.20	-29.1	-31.6	12.4	1.18e-04	0	44	0	1998585856	18	4804
2026-01-28 11:46:25.87	331.96	8.13	-29.0	-31.4	12.6	1.02e-04	0	44	0	2001731584	18	4737
2026-01-28 11:46:26.87	332.04	8.06	-29.0	-31.3	12.7	8.08e-05	0	44	0	2004877312	18	4698
2026-01-28 11:46:27.87	332.12	7.99	-29.1	-31.5	12.6	9.84e-05	0	44	0	2008023040	18	4758
2026-01-28 11:46:28.88	332.20	7.92	-29.0	-31.3	12.6	1.26e-04	0	44	0	2011168768	18	4692
2026-01-28 11:46:29.89	332.28	7.85	-29.1	-31.5	12.6	8.46e-05	0	44	0	2014314496	18	4745
2026-01-28 11:46:30.89	332.36	7.78	-29.0	-31.4	12.6	9.84e-05	0	44	0	2017460224	18	4741
2026-01-28 11:46:31.89	332.44	7.71	-29.0	-31.3	12.6	9.07e-05	0	44	0	2020605952	18	4698
2026-01-28 11:46:32.90	332.52	7.64	-29.2	-31.7	12.4	1.32e-04	0	44	0	2023751680	18	4828
2026-01-28 11:46:33.91	332.60	7.57	-29.1	-31.7	12.3	1.61e-04	0	44	0	2026897408	18	4820
2026-01-28 11:46:34.91	332.68	7.50	-28.9	-31.1	12.7	1.20e-04	0	44	0	2030043136	18	4626
2026-01-28 11:46:35.92	332.76	7.43	-29.1	-31.7	12.1	1.81e-04	0	44	0	2033188864	18	4828
2026-01-28 11:46:36.92	332.83	7.36	-28.9	-31.1	12.6	1.36e-04	0	44	0	2036334592	18	4647
2026-01-28 11:46:37.92	332.91	7.29	-29.1	-31.5	12.4	1.67e-04	0	44	0	2039480320	18	4775
2026-01-28 11:46:38.93	332.99	7.22	-29.1	-31.5	12.4	1.62e-04	0	44	0	2042626048	18	4780
2026-01-28 11:46:39.93	333.07	7.15	-29.2	-31.9	12.2	1.94e-04	0	44	0	2045771776	18	4911
2026-01-28 11:46:40.93	333.14	7.09	-29.1	-31.5	12.4	1.26e-04	0	44	0	2048917504	18	4785
2026-01-28 11:46:41.94	333.22	7.02	-33.3	-44.9	3.8	1.49e+00	0	44	104	2051014656	26	13612
2026-01-28 11:46:42.94	333.29	6.95	-33.7	-45.8	3.8	1.49e+00	0	44	104	2051014656	27	14414
2026-01-28 11:46:43.95	333.37	6.88	-33.9	-46.2	3.8	1.49e+00	0	44	104	2051014656	27	14779

#Closed at: 2026-01-28 11:46:44
#Recorded file [2051 MB]: D:/data/31010_260128_143545.dat