passes_logs/2026/01/28/R2M6_AANII_01/R2M6_AANII_01__20260128_234255_NOAA_21_JPSS-2_rec.log

#Pass ID: 20260128_234255_NOAA 21 (JPSS-2)
#Satellite: NOAA 21 (JPSS-2)
#Configuration: NOAA 21
#almurnet v.1.7.20240730
#Start time: 2026-01-28 23:42:55

#Version: 2.2.20231116
#Station: R2M6_AANII_01
#Location: 30.233357 lon 59.946436 lat
#TLE: 1 54234U 22150A   26027.77052245  .00000166  00000+0  99439-4 0  9997
#TLE: 2 54234  98.7510 328.5165 0000872 203.6403 156.4733 14.19540252166628

#Time	Az	El	Level	Level2	SNR	BER	BlckErr	Temp	State	Recorded	gain1	gain2
2026-01-28 23:42:55.30	21.72	6.98	-30.0	-34.4	4.7	1.39e+00	0	41	0	0	20	6037
2026-01-28 23:42:56.30	21.76	7.05	-30.3	-35.6	4.6	1.41e+00	0	41	104	0	20	6613
2026-01-28 23:42:57.30	21.80	7.13	-30.3	-34.7	8.5	4.82e-02	0	41	0	0	20	5981
2026-01-28 23:42:58.31	21.84	7.20	-30.1	-34.3	8.7	3.36e-02	0	41	0	3145728	20	5811
2026-01-28 23:42:59.32	21.88	7.28	-30.2	-34.5	8.6	3.84e-02	0	41	0	6291456	20	5894
2026-01-28 23:43:00.32	21.92	7.35	-30.4	-35.2	8.1	6.75e-02	0	41	0	9437184	20	6251
2026-01-28 23:43:01.32	21.96	7.43	-30.3	-34.9	8.4	4.82e-02	0	41	0	12582912	20	6075
2026-01-28 23:43:02.32	22.00	7.50	-30.3	-34.8	8.4	5.07e-02	0	41	0	15728640	20	6021
2026-01-28 23:43:03.33	22.04	7.58	-30.2	-34.5	8.6	4.30e-02	0	41	0	18874368	20	5887
2026-01-28 23:43:04.33	22.08	7.66	-30.0	-33.7	9.2	2.38e-02	0	41	0	20971520	20	5512
2026-01-28 23:43:05.34	22.12	7.73	-29.8	-33.6	9.7	1.54e-02	0	41	0	24117248	19	5589
2026-01-28 23:43:06.34	22.16	7.81	-29.6	-33.0	10.1	8.06e-03	0	41	0	27262976	19	5324
2026-01-28 23:43:07.35	22.20	7.89	-29.4	-32.5	10.5	5.37e-03	0	41	0	30408704	19	5123
2026-01-28 23:43:08.36	22.24	7.97	-29.4	-32.9	10.6	3.35e-03	0	41	0	34603008	18	5377
2026-01-28 23:43:09.36	22.28	8.04	-29.4	-33.0	10.5	7.12e-03	0	41	0	37748736	18	5433
2026-01-28 23:43:10.37	22.32	8.12	-29.0	-31.8	11.3	1.51e-03	0	42	0	40894464	18	4965
2026-01-28 23:43:11.37	22.37	8.20	-28.6	-31.4	11.9	3.49e-03	0	42	0	44040192	17	4931
2026-01-28 23:43:12.38	22.41	8.28	-28.3	-31.1	12.4	2.99e-03	0	41	0	46137344	16	4947
2026-01-28 23:43:13.38	22.45	8.36	-28.2	-30.7	12.7	1.06e-04	0	41	0	49283072	16	4800
2026-01-28 23:43:14.38	22.49	8.44	-28.1	-30.4	12.9	2.88e-03	0	42	0	52428800	16	4699
2026-01-28 23:43:15.39	22.53	8.51	-27.9	-30.7	12.9	2.83e-03	0	42	0	55574528	15	4919
2026-01-28 23:43:16.39	22.58	8.59	-27.9	-30.6	12.9	3.35e-05	0	42	0	58720256	15	4896
2026-01-28 23:43:17.39	22.62	8.67	-28.2	-30.8	12.7	2.92e-03	0	42	0	61865984	16	4826
2026-01-28 23:43:18.39	22.66	8.75	-28.0	-30.2	13.0	4.73e-05	0	42	0	65011712	16	4646
2026-01-28 23:43:19.39	22.70	8.83	-27.8	-29.8	13.3	1.83e-05	0	42	0	68157440	16	4524
2026-01-28 23:43:20.40	22.75	8.91	-27.5	-29.7	13.5	1.83e-03	0	42	0	71303168	15	4591
2026-01-28 23:43:21.40	22.79	8.99	-27.5	-29.7	13.5	1.60e-03	0	42	0	74448896	15	4591
2026-01-28 23:43:22.41	22.84	9.07	-27.6	-29.7	13.5	1.22e-05	0	42	0	77594624	15	4614
2026-01-28 23:43:23.42	22.88	9.16	-27.7	-30.0	13.3	2.05e-05	0	42	0	80740352	15	4711
2026-01-28 23:43:24.42	22.92	9.24	-27.7	-30.1	13.3	2.28e-05	0	42	0	83886080	15	4724
2026-01-28 23:43:25.42	22.97	9.32	-27.7	-30.0	13.0	1.98e-05	0	42	0	87031808	15	4703
2026-01-28 23:43:26.43	23.01	9.40	-27.7	-29.9	13.2	1.14e-03	0	42	0	90177536	15	4674
2026-01-28 23:43:27.43	23.06	9.48	-27.6	-29.8	13.4	9.38e-04	0	42	0	93323264	15	4638
2026-01-28 23:43:28.44	23.10	9.56	-27.6	-29.8	13.5	1.22e-05	0	42	0	96468992	15	4637
2026-01-28 23:43:29.44	23.15	9.65	-27.7	-29.9	13.3	4.38e-04	0	42	0	99614720	15	4684
2026-01-28 23:43:30.45	23.20	9.73	-27.6	-29.8	13.4	1.14e-05	0	42	0	102760448	15	4642
2026-01-28 23:43:31.45	23.24	9.81	-27.7	-30.0	13.4	1.60e-05	0	42	0	105906176	15	4697
2026-01-28 23:43:32.46	23.29	9.90	-27.7	-30.0	13.3	8.85e-04	0	42	0	109051904	15	4684
2026-01-28 23:43:33.47	23.33	9.98	-27.6	-29.9	13.4	1.52e-05	0	42	0	112197632	15	4649
2026-01-28 23:43:34.47	23.38	10.06	-27.6	-29.8	13.5	4.57e-04	0	42	0	115343360	15	4618
2026-01-28 23:43:35.47	23.43	10.15	-27.5	-29.6	13.6	4.81e-04	0	42	0	118489088	15	4565
2026-01-28 23:43:36.48	23.47	10.23	-27.6	-29.7	13.5	6.80e-06	0	42	0	121634816	15	4601
2026-01-28 23:43:37.47	23.52	10.32	-27.6	-29.7	13.5	1.37e-05	0	42	0	124780544	15	4607
2026-01-28 23:43:38.48	23.57	10.40	-27.4	-29.3	13.8	6.10e-06	0	42	0	127926272	15	4471
2026-01-28 23:43:39.48	23.62	10.49	-27.2	-28.8	14.1	2.20e-06	0	42	0	131072000	15	4338
2026-01-28 23:43:40.48	23.66	10.57	-27.2	-29.2	14.2	5.30e-04	0	42	0	134217728	14	4548
2026-01-28 23:43:41.48	23.71	10.66	-27.2	-29.2	14.2	5.96e-04	0	42	0	137363456	14	4546
2026-01-28 23:43:42.49	23.76	10.74	-27.1	-29.1	14.2	2.20e-06	0	42	0	140509184	14	4521
2026-01-28 23:43:43.49	23.81	10.83	-27.2	-29.3	14.2	5.44e-04	0	42	0	143654912	14	4579
2026-01-28 23:43:44.49	23.86	10.92	-27.2	-29.3	14.1	5.27e-04	0	42	0	146800640	14	4575
2026-01-28 23:43:45.50	23.91	11.00	-27.0	-28.9	14.4	0.00e+00	0	42	0	149946368	14	4470
2026-01-28 23:43:46.50	23.96	11.09	-26.9	-28.7	14.5	5.64e-04	0	42	0	153092096	14	4392
2026-01-28 23:43:47.51	24.01	11.18	-26.9	-28.7	14.5	5.26e-04	0	42	0	156237824	14	4397
2026-01-28 23:43:48.51	24.06	11.27	-26.9	-28.7	14.5	1.50e-06	0	42	0	159383552	14	4398
2026-01-28 23:43:49.51	24.11	11.35	-27.1	-29.0	14.4	5.45e-04	0	42	0	162529280	14	4487
2026-01-28 23:43:50.52	24.16	11.44	-27.1	-29.0	14.3	5.05e-04	0	42	0	165675008	14	4504
2026-01-28 23:43:51.52	24.21	11.53	-27.1	-29.0	14.4	1.50e-06	0	42	0	168820736	14	4481
2026-01-28 23:43:52.53	24.26	11.62	-27.1	-29.1	14.3	5.16e-04	0	42	0	171966464	14	4522
2026-01-28 23:43:53.54	24.31	11.71	-27.2	-29.2	14.2	1.50e-06	0	42	0	175112192	14	4559
2026-01-28 23:43:54.54	24.37	11.80	-27.1	-29.1	14.3	7.00e-07	0	42	0	178257920	14	4516
2026-01-28 23:43:55.55	24.42	11.89	-27.1	-29.1	14.3	5.31e-04	0	42	0	181403648	14	4503
2026-01-28 23:43:56.55	24.47	11.98	-27.2	-29.2	14.3	5.07e-04	0	42	0	184549376	14	4549
2026-01-28 23:43:57.56	24.52	12.07	-27.2	-29.2	14.3	1.50e-06	0	42	0	187695104	14	4554
2026-01-28 23:43:58.56	24.58	12.16	-27.2	-29.2	14.3	3.00e-06	0	42	0	190840832	14	4557
2026-01-28 23:43:59.56	24.63	12.25	-27.3	-29.4	14.1	1.50e-06	0	42	0	193986560	14	4611
2026-01-28 23:44:00.56	24.68	12.35	-27.3	-29.5	14.1	4.50e-06	0	42	0	197132288	14	4624
2026-01-28 23:44:01.57	24.74	12.44	-27.0	-28.8	14.5	6.13e-04	0	42	0	200278016	14	4442
2026-01-28 23:44:02.56	24.79	12.53	-26.9	-29.0	14.7	0.00e+00	0	42	0	203423744	13	4607
2026-01-28 23:44:03.56	24.84	12.62	-26.8	-28.9	14.7	0.00e+00	0	42	0	206569472	13	4554
2026-01-28 23:44:04.56	24.90	12.71	-26.9	-29.1	14.6	0.00e+00	0	42	0	209715200	13	4628
2026-01-28 23:44:05.56	24.95	12.81	-27.0	-28.7	14.6	0.00e+00	0	42	0	212860928	14	4412
2026-01-28 23:44:06.57	25.01	12.90	-26.9	-28.5	14.7	0.00e+00	0	42	0	216006656	14	4345
2026-01-28 23:44:07.57	25.07	12.99	-26.8	-28.9	14.8	0.00e+00	0	43	0	219152384	13	4565
2026-01-28 23:44:08.57	25.12	13.09	-26.8	-28.8	14.8	7.00e-07	0	42	0	222298112	13	4547
2026-01-28 23:44:09.58	25.18	13.18	-26.8	-28.8	14.8	0.00e+00	0	43	0	225443840	13	4530
2026-01-28 23:44:10.58	25.24	13.28	-26.9	-29.2	14.6	0.00e+00	0	43	0	228589568	13	4644
2026-01-28 23:44:11.58	25.29	13.37	-27.1	-29.0	14.4	0.00e+00	0	43	0	231735296	14	4496
2026-01-28 23:44:12.59	25.35	13.47	-27.1	-29.0	14.5	7.00e-07	0	42	0	234881024	14	4475
2026-01-28 23:44:13.59	25.41	13.57	-27.2	-29.2	14.4	1.50e-06	0	42	0	238026752	14	4532
2026-01-28 23:44:14.58	25.47	13.66	-27.1	-29.1	14.4	7.00e-07	0	43	0	241172480	14	4506
2026-01-28 23:44:15.58	25.52	13.76	-27.0	-28.7	14.6	7.00e-07	0	43	0	244318208	14	4406
2026-01-28 23:44:16.58	25.58	13.85	-27.0	-28.9	14.6	0.00e+00	0	43	0	247463936	14	4448
2026-01-28 23:44:17.59	25.64	13.95	-27.0	-28.7	14.6	0.00e+00	0	43	0	250609664	14	4402
2026-01-28 23:44:18.59	25.70	14.05	-27.2	-29.3	14.3	0.00e+00	0	42	0	253755392	14	4562
2026-01-28 23:44:19.59	25.76	14.15	-27.2	-29.1	14.4	2.20e-06	0	43	0	256901120	14	4526
2026-01-28 23:44:20.59	25.82	14.24	-27.0	-28.7	14.7	0.00e+00	0	43	0	260046848	14	4385
2026-01-28 23:44:21.59	25.88	14.34	-27.0	-28.7	14.7	0.00e+00	0	43	0	263192576	14	4393
2026-01-28 23:44:22.60	25.94	14.44	-26.9	-28.5	14.8	0.00e+00	0	43	0	266338304	14	4330
2026-01-28 23:44:23.60	26.00	14.54	-26.9	-29.1	14.7	0.00e+00	0	43	0	269484032	13	4617
2026-01-28 23:44:24.60	26.07	14.64	-27.0	-28.7	14.7	7.00e-07	0	43	0	272629760	14	4377
2026-01-28 23:44:25.60	26.13	14.74	-27.0	-28.8	14.6	0.00e+00	0	43	0	275775488	14	4434
2026-01-28 23:44:26.61	26.19	14.84	-27.1	-29.0	14.5	0.00e+00	0	43	0	278921216	14	4490
2026-01-28 23:44:27.61	26.25	14.94	-27.2	-29.3	14.4	0.00e+00	0	43	0	282066944	14	4557
2026-01-28 23:44:28.62	26.32	15.05	-27.2	-29.3	14.3	3.00e-06	0	43	0	285212672	14	4576
2026-01-28 23:44:29.62	26.38	15.15	-27.0	-28.9	14.6	0.00e+00	0	43	0	288358400	14	4438
2026-01-28 23:44:30.62	26.45	15.25	-27.0	-28.7	14.7	0.00e+00	0	43	0	291504128	14	4393
2026-01-28 23:44:31.63	26.51	15.35	-27.0	-28.7	14.7	7.00e-07	0	43	0	294649856	14	4387
2026-01-28 23:44:32.63	26.58	15.46	-27.1	-29.1	14.5	0.00e+00	0	43	0	297795584	14	4508
2026-01-28 23:44:33.63	26.64	15.56	-27.3	-29.5	14.3	7.00e-07	0	43	0	300941312	14	4618
2026-01-28 23:44:34.63	26.71	15.66	-27.3	-29.4	13.8	7.00e-07	0	43	0	304087040	14	4594
2026-01-28 23:44:35.63	26.77	15.77	-27.1	-29.0	14.4	0.00e+00	0	43	0	307232768	14	4484
2026-01-28 23:44:36.64	26.84	15.87	-27.1	-28.9	14.6	7.00e-07	0	43	0	310378496	14	4456
2026-01-28 23:44:37.65	26.91	15.98	-27.0	-28.7	14.7	0.00e+00	0	43	0	313524224	14	4395
2026-01-28 23:44:38.64	26.97	16.08	-26.9	-29.1	14.8	3.60e-04	0	43	0	316669952	13	4617
2026-01-28 23:44:39.65	27.04	16.19	-26.9	-28.9	14.9	0.00e+00	0	43	0	319815680	13	4567
2026-01-28 23:44:40.65	27.11	16.30	-26.8	-28.8	14.9	0.00e+00	0	43	0	322961408	13	4531
2026-01-28 23:44:41.65	27.18	16.40	-26.9	-29.0	14.8	0.00e+00	0	43	0	326107136	13	4581
2026-01-28 23:44:42.66	27.25	16.51	-26.9	-29.0	14.8	0.00e+00	0	43	0	329252864	13	4587
2026-01-28 23:44:43.67	27.32	16.62	-26.9	-29.1	14.8	9.99e-05	0	43	0	332398592	13	4617
2026-01-28 23:44:44.67	27.39	16.73	-27.0	-28.8	14.7	4.80e-05	0	43	0	335544320	14	4414
2026-01-28 23:44:45.68	27.46	16.84	-27.0	-28.7	14.8	7.00e-07	0	43	0	338690048	14	4374
2026-01-28 23:44:46.68	27.53	16.95	-26.9	-28.6	14.8	3.80e-06	0	43	0	341835776	14	4347
2026-01-28 23:44:47.68	27.60	17.06	-27.0	-28.7	14.8	7.00e-07	0	43	0	344981504	14	4385
2026-01-28 23:44:48.68	27.68	17.17	-26.9	-28.6	14.8	0.00e+00	0	43	0	347078656	14	4353
2026-01-28 23:44:49.69	27.75	17.28	-26.8	-28.2	15.0	9.10e-06	0	43	0	350224384	14	4255
2026-01-28 23:44:50.70	27.82	17.39	-26.8	-28.7	15.0	3.50e-05	0	43	0	353370112	13	4489
2026-01-28 23:44:51.69	27.90	17.50	-26.7	-28.7	15.1	0.00e+00	0	43	0	356515840	13	4486
2026-01-28 23:44:52.70	27.97	17.61	-26.9	-29.0	14.9	3.58e-05	0	43	0	359661568	13	4573
2026-01-28 23:44:53.70	28.05	17.72	-27.0	-29.2	14.7	2.97e-05	0	43	0	363855872	13	4647
2026-01-28 23:44:54.71	28.12	17.84	-27.1	-28.9	14.3	0.00e+00	0	43	0	367001600	14	4452
2026-01-28 23:44:55.71	28.20	17.95	-27.1	-28.8	14.3	7.47e-05	0	43	0	370147328	14	4426
2026-01-28 23:44:56.72	28.27	18.06	-26.9	-28.5	14.9	8.92e-05	0	43	0	372244480	14	4312
2026-01-28 23:44:57.72	28.35	18.18	-26.8	-28.7	15.0	0.00e+00	0	43	0	375390208	13	4501
2026-01-28 23:44:58.73	28.43	18.29	-26.8	-28.8	15.0	6.71e-05	0	43	0	378535936	13	4530
2026-01-28 23:44:59.73	28.51	18.41	-27.0	-29.2	14.8	8.16e-05	0	43	0	381681664	13	4636
2026-01-28 23:45:00.73	28.59	18.52	-27.3	-29.4	14.4	7.00e-07	0	43	0	384827392	14	4601
2026-01-28 23:45:01.73	28.66	18.64	-27.1	-29.0	14.6	1.08e-03	0	43	0	387973120	14	4459
2026-01-28 23:45:02.74	28.75	18.76	-26.8	-28.3	15.0	2.20e-06	0	43	0	391118848	14	4269
2026-01-28 23:45:03.74	28.83	18.87	-26.6	-28.2	15.4	0.00e+00	0	43	0	394264576	13	4353
2026-01-28 23:45:04.75	28.91	18.99	-26.6	-28.3	15.3	1.78e-04	0	43	0	397410304	13	4390
2026-01-28 23:45:05.75	28.99	19.11	-26.6	-28.3	15.3	2.12e-04	0	43	0	400556032	13	4381
2026-01-28 23:45:06.76	29.07	19.23	-26.6	-28.3	15.3	1.40e-03	0	43	0	403701760	13	4366
2026-01-28 23:45:07.76	29.15	19.35	-26.6	-28.4	15.3	1.36e-03	0	43	0	406847488	13	4403
2026-01-28 23:45:08.76	29.24	19.47	-26.5	-28.2	15.4	0.00e+00	0	43	0	409993216	13	4333
2026-01-28 23:45:09.76	29.32	19.59	-26.5	-28.1	15.4	0.00e+00	0	43	0	413138944	13	4309
2026-01-28 23:45:10.76	29.41	19.71	-26.5	-28.0	15.5	1.15e-04	0	43	0	416284672	13	4294
2026-01-28 23:45:11.76	29.49	19.83	-26.7	-28.5	15.2	7.00e-07	0	43	0	419430400	13	4433
2026-01-28 23:45:12.76	29.58	19.95	-26.6	-28.4	15.3	7.01e-04	0	43	0	422576128	13	4397
2026-01-28 23:45:13.76	29.66	20.08	-26.8	-28.6	15.1	7.16e-04	0	43	0	425721856	13	4476
2026-01-28 23:45:14.76	29.75	20.20	-26.7	-28.4	15.3	0.00e+00	0	43	0	428867584	13	4411
2026-01-28 23:45:15.77	29.84	20.32	-26.5	-28.0	15.5	5.75e-04	0	43	0	432013312	13	4287
2026-01-28 23:45:16.77	29.93	20.45	-26.3	-27.6	15.8	6.32e-04	0	43	0	435159040	13	4189
2026-01-28 23:45:17.78	30.02	20.57	-26.4	-27.7	15.7	0.00e+00	0	43	0	438304768	13	4214
2026-01-28 23:45:18.79	30.11	20.70	-26.3	-28.1	15.8	5.28e-04	0	43	0	441450496	12	4436
2026-01-28 23:45:19.78	30.20	20.82	-26.4	-28.2	15.7	4.96e-04	0	43	0	444596224	12	4473
2026-01-28 23:45:20.78	30.29	20.95	-26.3	-28.1	15.7	2.20e-06	0	43	0	447741952	12	4445
2026-01-28 23:45:21.79	30.38	21.08	-26.3	-28.0	15.8	5.11e-04	0	43	0	450887680	12	4405
2026-01-28 23:45:22.79	30.47	21.20	-26.3	-28.0	15.8	5.88e-04	0	43	0	454033408	12	4401
2026-01-28 23:45:23.79	30.57	21.33	-26.3	-28.1	15.8	0.00e+00	0	43	0	457179136	12	4422
2026-01-28 23:45:24.79	30.66	21.46	-26.1	-27.8	16.0	4.92e-04	0	43	0	460324864	12	4334
2026-01-28 23:45:25.79	30.75	21.59	-26.2	-27.9	15.9	5.39e-04	0	43	0	463470592	12	4359
2026-01-28 23:45:26.80	30.85	21.72	-26.3	-28.1	15.8	0.00e+00	0	43	0	466616320	12	4432
2026-01-28 23:45:27.79	30.95	21.85	-26.2	-27.8	15.9	3.66e-04	0	43	0	469762048	12	4348
2026-01-28 23:45:28.80	31.04	21.98	-26.1	-27.7	16.0	3.93e-04	0	43	0	472907776	12	4311
2026-01-28 23:45:29.80	31.14	22.11	-26.1	-27.7	16.0	0.00e+00	0	43	0	476053504	12	4315
2026-01-28 23:45:30.81	31.24	22.24	-26.1	-27.7	16.0	0.00e+00	0	43	0	479199232	12	4327
2026-01-28 23:45:31.81	31.34	22.38	-26.2	-27.9	15.9	0.00e+00	0	43	0	482344960	12	4377
2026-01-28 23:45:32.81	31.44	22.51	-26.1	-27.7	16.0	0.00e+00	0	43	0	485490688	12	4312
2026-01-28 23:45:33.81	31.54	22.64	-26.1	-27.6	16.1	4.75e-04	0	43	0	488636416	12	4297
2026-01-28 23:45:34.82	31.65	22.78	-26.0	-27.5	16.1	0.00e+00	0	43	0	491782144	12	4264
2026-01-28 23:45:35.82	31.75	22.92	-26.2	-27.8	16.0	0.00e+00	0	43	0	494927872	12	4333
2026-01-28 23:45:36.83	31.85	23.05	-26.0	-27.5	16.1	0.00e+00	0	43	0	498073600	12	4266
2026-01-28 23:45:37.83	31.96	23.19	-25.9	-27.2	16.3	4.50e-04	0	43	0	501219328	12	4182
2026-01-28 23:45:38.83	32.06	23.33	-25.9	-27.2	16.3	0.00e+00	0	43	0	504365056	12	4174
2026-01-28 23:45:39.83	32.17	23.46	-26.0	-27.3	16.3	7.00e-07	0	43	0	507510784	12	4208
2026-01-28 23:45:40.83	32.28	23.60	-26.2	-27.8	16.0	0.00e+00	0	43	0	510656512	12	4342
2026-01-28 23:45:41.83	32.39	23.74	-26.0	-27.4	16.2	0.00e+00	0	43	0	513802240	12	4227
2026-01-28 23:45:42.84	32.50	23.88	-25.8	-27.0	16.4	0.00e+00	0	43	0	516947968	12	4136
2026-01-28 23:45:43.84	32.61	24.02	-25.7	-26.9	16.5	0.00e+00	0	43	0	520093696	12	4089
2026-01-28 23:45:44.85	32.72	24.16	-25.8	-27.0	16.5	0.00e+00	0	43	0	523239424	12	4138
2026-01-28 23:45:45.85	32.83	24.30	-25.7	-26.7	16.6	0.00e+00	0	43	0	526385152	12	4049
2026-01-28 23:45:46.86	32.94	24.45	-25.8	-27.0	16.5	0.00e+00	0	43	0	529530880	12	4119
2026-01-28 23:45:47.86	33.06	24.59	-25.7	-26.8	16.6	0.00e+00	0	43	0	532676608	12	4074
2026-01-28 23:45:48.87	33.17	24.74	-25.6	-27.1	16.8	0.00e+00	0	43	0	535822336	11	4251
2026-01-28 23:45:49.88	33.29	24.88	-25.7	-27.3	16.7	0.00e+00	0	43	0	538968064	11	4302
2026-01-28 23:45:50.88	33.41	25.03	-25.6	-27.1	16.8	0.00e+00	0	43	0	542113792	11	4252
2026-01-28 23:45:51.89	33.53	25.17	-25.5	-26.8	16.9	0.00e+00	0	43	0	545259520	11	4180
2026-01-28 23:45:52.89	33.65	25.32	-25.6	-27.1	16.8	0.00e+00	0	43	0	548405248	11	4250
2026-01-28 23:45:53.89	33.77	25.47	-25.6	-27.0	16.8	0.00e+00	0	43	0	551550976	11	4231
2026-01-28 23:45:54.90	33.89	25.62	-25.7	-27.2	16.8	0.00e+00	0	43	0	554696704	11	4275
2026-01-28 23:45:55.90	34.01	25.76	-25.7	-27.2	16.7	0.00e+00	0	43	0	557842432	11	4292
2026-01-28 23:45:56.90	34.13	25.91	-25.8	-27.5	16.6	0.00e+00	0	43	0	560988160	11	4366
2026-01-28 23:45:57.90	34.26	26.06	-25.9	-27.6	16.5	0.00e+00	0	43	0	564133888	11	4399
2026-01-28 23:45:58.91	34.39	26.21	-25.8	-27.4	16.6	0.00e+00	0	43	0	567279616	11	4336
2026-01-28 23:45:59.91	34.51	26.37	-25.8	-27.3	16.7	0.00e+00	0	43	0	570425344	11	4318
2026-01-28 23:46:00.92	34.64	26.52	-26.0	-27.8	16.4	0.00e+00	0	43	0	573571072	11	4443
2026-01-28 23:46:01.92	34.77	26.67	-25.9	-27.2	16.4	0.00e+00	0	43	0	576716800	12	4160
2026-01-28 23:46:02.92	34.90	26.83	-26.0	-27.4	16.3	0.00e+00	0	43	0	579862528	12	4236
2026-01-28 23:46:03.93	35.04	26.98	-26.0	-27.5	16.3	0.00e+00	0	43	0	583008256	12	4250
2026-01-28 23:46:04.93	35.17	27.14	-26.2	-27.7	16.2	0.00e+00	0	43	0	586153984	12	4314
2026-01-28 23:46:05.93	35.30	27.29	-26.1	-27.7	16.2	0.00e+00	0	43	0	589299712	12	4308
2026-01-28 23:46:06.93	35.44	27.45	-26.2	-27.8	16.1	0.00e+00	0	43	0	592445440	12	4329
2026-01-28 23:46:07.94	35.58	27.61	-26.3	-28.1	16.0	0.00e+00	0	43	0	595591168	12	4405
2026-01-28 23:46:08.95	35.72	27.76	-26.3	-28.0	16.0	0.00e+00	0	43	0	598736896	12	4401
2026-01-28 23:46:09.95	35.86	27.92	-26.4	-28.3	15.9	0.00e+00	0	43	0	601882624	12	4468
2026-01-28 23:46:10.95	36.00	28.08	-26.5	-28.4	15.8	0.00e+00	0	43	0	605028352	12	4498
2026-01-28 23:46:11.95	36.14	28.24	-26.5	-28.0	15.7	0.00e+00	0	43	0	608174080	13	4280
2026-01-28 23:46:12.96	36.28	28.40	-26.8	-28.7	15.4	0.00e+00	0	43	0	611319808	13	4463
2026-01-28 23:46:13.97	36.43	28.57	-26.6	-28.3	15.6	0.00e+00	0	43	0	614465536	13	4350
2026-01-28 23:46:14.97	36.58	28.73	-26.8	-28.7	15.4	0.00e+00	0	43	0	617611264	13	4468
2026-01-28 23:46:15.97	36.72	28.89	-26.9	-29.0	15.2	0.00e+00	0	43	0	620756992	13	4554
2026-01-28 23:46:16.97	36.87	29.06	-27.0	-28.7	15.1	6.10e-06	0	43	0	623902720	14	4367
2026-01-28 23:46:17.97	37.02	29.22	-27.1	-28.8	15.1	0.00e+00	0	43	0	627048448	14	4405
2026-01-28 23:46:18.98	37.18	29.39	-27.1	-28.8	15.1	0.00e+00	0	43	0	630194176	14	4385
2026-01-28 23:46:19.98	37.33	29.55	-27.1	-28.9	15.0	0.00e+00	0	43	0	633339904	14	4409
2026-01-28 23:46:20.98	37.49	29.72	-27.0	-28.7	15.2	0.00e+00	0	43	0	636485632	14	4352
2026-01-28 23:46:21.99	37.65	29.89	-27.2	-29.0	14.9	5.30e-06	0	43	0	639631360	14	4456
2026-01-28 23:46:23.00	37.81	30.06	-27.0	-28.6	15.2	7.00e-07	0	43	0	642777088	14	4319
2026-01-28 23:46:24.00	37.97	30.23	-26.9	-28.4	15.2	0.00e+00	0	43	0	645922816	14	4266
2026-01-28 23:46:25.01	38.13	30.40	-26.8	-28.1	15.5	0.00e+00	0	43	0	649068544	14	4207
2026-01-28 23:46:26.01	38.29	30.57	-26.9	-28.4	15.3	0.00e+00	0	43	0	652214272	14	4279
2026-01-28 23:46:27.01	38.46	30.74	-26.8	-28.2	15.4	0.00e+00	0	43	0	655360000	14	4223
2026-01-28 23:46:28.01	38.63	30.91	-26.9	-28.3	15.4	5.30e-06	0	43	0	658505728	14	4252
2026-01-28 23:46:29.02	38.80	31.09	-26.8	-28.2	15.4	2.20e-06	0	43	0	661651456	14	4234
2026-01-28 23:46:30.03	38.97	31.26	-26.9	-28.3	15.4	2.79e-04	0	43	0	664797184	14	4259
2026-01-28 23:46:31.03	39.14	31.44	-26.9	-28.5	15.3	0.00e+00	0	43	0	667942912	14	4296
2026-01-28 23:46:32.03	39.31	31.61	-26.8	-28.1	15.5	7.00e-07	0	43	0	671088640	14	4210
2026-01-28 23:46:33.03	39.49	31.79	-26.5	-27.6	15.8	0.00e+00	0	43	0	673185792	14	4057
2026-01-28 23:46:34.03	39.67	31.97	-26.5	-27.4	15.9	7.00e-07	0	43	0	676331520	14	4010
2026-01-28 23:46:35.03	39.85	32.14	-26.4	-27.3	16.0	7.00e-07	0	43	0	679477248	14	3989
2026-01-28 23:46:36.04	40.03	32.32	-26.4	-27.2	16.0	0.00e+00	0	43	0	682622976	14	3964
2026-01-28 23:46:37.04	40.22	32.50	-26.3	-27.1	16.1	3.00e-06	0	43	0	685768704	14	3942
2026-01-28 23:46:38.04	40.40	32.68	-26.6	-27.6	15.8	5.30e-06	0	44	0	688914432	14	4065
2026-01-28 23:46:39.04	40.59	32.86	-26.5	-27.5	15.9	0.00e+00	0	43	0	692060160	14	4039
2026-01-28 23:46:40.04	40.78	33.05	-26.8	-28.1	15.6	3.80e-06	0	43	0	695205888	14	4178
2026-01-28 23:46:41.04	40.97	33.23	-26.8	-28.2	15.5	0.00e+00	0	43	0	698351616	14	4220
2026-01-28 23:46:42.05	41.17	33.41	-27.1	-28.9	15.1	0.00e+00	0	43	0	701497344	14	4422
2026-01-28 23:46:43.05	41.36	33.60	-27.2	-29.1	15.0	0.00e+00	0	43	0	704643072	14	4472
2026-01-28 23:46:44.05	41.56	33.78	-27.2	-29.1	15.0	0.00e+00	0	43	0	707788800	14	4457
2026-01-28 23:46:45.05	41.76	33.97	-27.4	-29.6	14.7	0.00e+00	0	43	0	710934528	14	4625
2026-01-28 23:46:46.05	41.96	34.15	-27.5	-29.7	14.7	0.00e+00	0	43	0	714080256	14	4654
2026-01-28 23:46:47.05	42.17	34.34	-27.6	-29.5	14.5	1.50e-06	0	43	0	717225984	15	4488
2026-01-28 23:46:48.05	42.38	34.52	-27.8	-30.0	14.2	7.00e-07	0	43	0	720371712	15	4621
2026-01-28 23:46:49.05	42.59	34.71	-27.7	-29.7	14.4	1.22e-05	0	43	0	723517440	15	4538
2026-01-28 23:46:50.06	42.80	34.90	-28.2	-30.3	13.9	6.10e-06	0	43	0	726663168	16	4597
2026-01-28 23:46:51.06	43.02	35.09	-28.1	-30.0	14.1	0.00e+00	0	43	0	729808896	16	4509
2026-01-28 23:46:52.06	43.23	35.28	-27.9	-29.6	14.3	2.20e-06	0	43	0	732954624	16	4396
2026-01-28 23:46:53.07	43.45	35.48	-28.1	-30.1	14.0	9.90e-06	0	43	0	736100352	16	4545
2026-01-28 23:46:54.07	43.68	35.67	-28.3	-30.6	13.8	5.30e-06	0	43	0	739246080	16	4703
2026-01-28 23:46:55.07	43.90	35.86	-28.5	-31.0	13.5	9.90e-06	0	43	0	742391808	16	4826
2026-01-28 23:46:56.08	44.13	36.06	-28.7	-31.2	13.1	3.20e-05	0	43	0	745537536	17	4772
2026-01-28 23:46:57.08	44.36	36.25	-28.5	-30.7	13.4	1.60e-05	0	44	0	748683264	17	4616
2026-01-28 23:46:58.08	44.59	36.44	-28.3	-30.2	13.7	2.20e-06	0	43	0	751828992	17	4444
2026-01-28 23:46:59.09	44.83	36.64	-28.3	-30.1	13.8	4.73e-05	0	43	0	754974720	17	4412
2026-01-28 23:47:00.09	45.07	36.84	-28.3	-30.0	13.8	1.50e-06	0	43	0	758120448	17	4400
2026-01-28 23:47:01.09	45.31	37.03	-28.4	-30.3	13.6	7.60e-06	0	43	0	761266176	17	4499
2026-01-28 23:47:02.09	45.55	37.23	-28.2	-29.9	13.9	5.30e-06	0	43	0	764411904	17	4358
2026-01-28 23:47:03.10	45.80	37.43	-28.2	-29.9	13.9	4.50e-06	0	43	0	767557632	17	4364
2026-01-28 23:47:04.10	46.05	37.63	-28.4	-30.4	13.7	1.14e-05	0	43	0	770703360	17	4505
2026-01-28 23:47:05.10	46.31	37.83	-28.1	-29.6	14.1	4.50e-06	0	43	0	773849088	17	4271
2026-01-28 23:47:06.10	46.56	38.02	-27.9	-29.0	14.4	7.00e-07	0	43	0	776994816	17	4118
2026-01-28 23:47:07.10	46.82	38.22	-27.9	-29.1	14.4	7.00e-07	0	43	0	780140544	17	4145
2026-01-28 23:47:08.10	47.08	38.42	-28.2	-29.8	14.0	1.50e-06	0	43	0	783286272	17	4338
2026-01-28 23:47:09.11	47.35	38.63	-28.1	-29.6	14.1	3.80e-06	0	43	0	786432000	17	4289
2026-01-28 23:47:10.11	47.62	38.83	-28.3	-30.2	13.8	3.80e-06	0	43	0	789577728	17	4458
2026-01-28 23:47:11.11	47.89	39.03	-28.3	-30.1	13.8	5.30e-06	0	43	0	792723456	17	4423
2026-01-28 23:47:12.11	48.17	39.23	-28.4	-30.2	13.7	1.50e-06	0	43	0	795869184	17	4462
2026-01-28 23:47:13.12	48.45	39.44	-28.2	-29.8	14.0	2.20e-06	0	43	0	799014912	17	4331
2026-01-28 23:47:14.12	48.73	39.64	-28.1	-29.7	14.1	2.20e-06	0	43	0	802160640	17	4296
2026-01-28 23:47:15.13	49.02	39.85	-28.2	-29.8	14.0	1.50e-06	0	43	0	805306368	17	4334
2026-01-28 23:47:16.13	49.31	40.05	-28.2	-29.8	14.0	3.80e-06	0	43	0	808452096	17	4330
2026-01-28 23:47:17.13	49.60	40.26	-28.3	-30.0	13.9	7.00e-07	0	43	0	811597824	17	4385
2026-01-28 23:47:18.13	49.90	40.46	-28.4	-30.2	13.8	5.30e-06	0	43	0	814743552	17	4456
2026-01-28 23:47:19.14	50.20	40.67	-28.5	-30.6	13.6	1.52e-05	0	43	0	817889280	17	4578
2026-01-28 23:47:20.13	50.50	40.87	-28.4	-30.4	13.7	7.60e-06	0	43	0	821035008	17	4508
2026-01-28 23:47:21.13	50.81	41.08	-28.5	-30.6	13.6	4.50e-06	0	43	0	824180736	17	4570
2026-01-28 23:47:22.14	51.13	41.29	-28.5	-30.6	13.6	6.80e-06	0	43	0	827326464	17	4583
2026-01-28 23:47:23.14	51.44	41.49	-28.5	-30.5	13.6	8.30e-06	0	43	0	830472192	17	4540
2026-01-28 23:47:24.14	51.76	41.70	-28.4	-30.4	13.7	4.50e-06	0	43	0	833617920	17	4495
2026-01-28 23:47:25.15	52.09	41.91	-28.7	-31.0	13.3	1.67e-05	0	43	0	836763648	17	4697
2026-01-28 23:47:26.15	52.42	42.11	-28.5	-30.4	13.7	9.10e-06	0	43	0	839909376	17	4521
2026-01-28 23:47:27.15	52.75	42.32	-28.5	-30.5	13.7	6.80e-06	0	43	0	843055104	17	4523
2026-01-28 23:47:28.16	53.09	42.53	-28.7	-30.9	13.4	6.80e-06	0	43	0	846200832	17	4671
2026-01-28 23:47:29.17	53.43	42.74	-28.8	-31.3	13.2	1.98e-05	0	43	0	849346560	17	4780
2026-01-28 23:47:30.17	53.78	42.95	-28.8	-31.3	13.2	2.51e-05	0	43	0	852492288	17	4777
2026-01-28 23:47:31.18	54.13	43.16	-28.8	-31.3	13.2	2.36e-05	0	43	0	855638016	17	4803
2026-01-28 23:47:32.18	54.49	43.36	-29.0	-31.3	12.9	4.42e-05	0	43	0	858783744	18	4674
2026-01-28 23:47:33.19	54.85	43.57	-29.0	-31.1	13.0	4.42e-05	0	43	0	861929472	18	4607
2026-01-28 23:47:34.18	55.21	43.78	-29.0	-31.3	13.0	4.11e-05	0	43	0	865075200	18	4676
2026-01-28 23:47:35.19	55.58	43.99	-29.1	-31.4	12.9	4.19e-05	0	43	0	868220928	18	4709
2026-01-28 23:47:36.19	55.95	44.19	-29.0	-31.1	13.0	4.80e-05	0	43	0	871366656	18	4623
2026-01-28 23:47:37.19	56.33	44.40	-28.9	-31.1	13.0	3.50e-05	0	44	0	874512384	18	4602
2026-01-28 23:47:38.20	56.72	44.61	-29.0	-31.2	13.0	4.50e-05	0	43	0	877658112	18	4639
2026-01-28 23:47:39.21	57.11	44.82	-28.7	-30.5	13.4	9.10e-06	0	43	0	880803840	18	4428
2026-01-28 23:47:40.21	57.50	45.02	-28.5	-30.1	13.7	1.14e-05	0	43	0	883949568	18	4295
2026-01-28 23:47:41.21	57.90	45.23	-28.6	-30.3	13.6	9.90e-06	0	43	0	887095296	18	4360
2026-01-28 23:47:42.22	58.31	45.43	-28.8	-30.9	13.2	2.28e-05	0	43	0	890241024	18	4548
2026-01-28 23:47:43.22	58.71	45.64	-29.0	-31.2	13.0	2.97e-05	0	43	0	893386752	18	4641
2026-01-28 23:47:44.22	59.13	45.84	-29.0	-31.2	13.0	4.27e-05	0	43	0	896532480	18	4629
2026-01-28 23:47:45.22	59.55	46.05	-28.9	-31.1	13.1	3.43e-05	0	44	0	899678208	18	4607
2026-01-28 23:47:46.23	59.98	46.25	-28.9	-31.0	13.1	2.21e-05	0	43	0	902823936	18	4583
2026-01-28 23:47:47.24	60.41	46.45	-29.0	-31.2	13.0	3.89e-05	0	44	0	905969664	18	4637
2026-01-28 23:47:48.25	60.85	46.66	-28.9	-31.1	13.0	2.97e-05	0	43	0	909115392	18	4607
2026-01-28 23:47:49.26	61.29	46.86	-29.0	-31.1	13.0	2.97e-05	0	43	0	912261120	18	4628
2026-01-28 23:47:50.26	61.74	47.06	-29.1	-31.6	12.7	4.95e-05	0	43	0	915406848	18	4766
2026-01-28 23:47:51.26	62.19	47.26	-29.1	-31.6	12.8	7.32e-05	0	43	0	918552576	18	4761
2026-01-28 23:47:52.27	62.65	47.46	-29.0	-31.3	12.9	5.18e-05	0	43	0	921698304	18	4665
2026-01-28 23:47:53.27	63.12	47.65	-29.0	-31.1	13.2	5.34e-05	0	43	0	924844032	18	4619
2026-01-28 23:47:54.28	63.59	47.85	-29.0	-31.2	13.0	3.20e-05	0	43	0	927989760	18	4657
2026-01-28 23:47:55.28	64.07	48.04	-28.9	-31.0	13.2	2.36e-05	0	43	0	931135488	18	4577
2026-01-28 23:47:56.29	64.55	48.24	-28.8	-30.7	13.3	2.13e-05	0	43	0	934281216	18	4479
2026-01-28 23:47:57.30	65.05	48.43	-28.6	-30.3	13.5	3.50e-05	0	44	0	937426944	18	4376
2026-01-28 23:47:58.30	65.54	48.62	-28.8	-30.7	13.4	1.22e-05	0	43	0	940572672	18	4473
2026-01-28 23:47:59.30	66.04	48.81	-28.6	-30.2	13.6	8.30e-06	0	43	0	943718400	18	4333
2026-01-28 23:48:00.30	66.54	49.00	-28.8	-30.8	13.2	1.44e-05	0	43	0	946864128	18	4521
2026-01-28 23:48:01.30	67.06	49.18	-29.3	-31.9	12.6	7.78e-05	0	43	0	950009856	18	4877
2026-01-28 23:48:02.30	67.57	49.37	-29.3	-32.0	12.6	1.14e-04	0	44	0	953155584	18	4914
2026-01-28 23:48:03.31	68.10	49.55	-29.3	-31.8	12.7	1.17e-04	0	43	0	956301312	18	4845
2026-01-28 23:48:04.31	68.63	49.73	-28.8	-30.7	13.4	2.28e-05	0	43	0	959447040	18	4464
2026-01-28 23:48:05.32	69.18	49.91	-28.4	-29.7	14.0	2.20e-06	0	43	0	962592768	18	4189
2026-01-28 23:48:06.32	69.72	50.09	-28.3	-30.0	14.1	6.10e-05	0	43	0	965738496	17	4379
2026-01-28 23:48:07.32	70.27	50.26	-28.1	-29.5	14.4	7.17e-05	0	43	0	968884224	17	4229
2026-01-28 23:48:08.33	70.83	50.44	-27.8	-29.3	14.8	0.00e+00	0	43	0	972029952	16	4291
2026-01-28 23:48:09.33	71.39	50.61	-27.8	-29.2	14.9	0.00e+00	0	43	0	974127104	16	4249
2026-01-28 23:48:10.33	71.96	50.78	-27.9	-29.6	14.6	1.29e-05	0	43	0	977272832	16	4366
2026-01-28 23:48:11.33	72.53	50.94	-28.0	-29.7	14.6	0.00e+00	0	43	0	980418560	16	4402
2026-01-28 23:48:12.33	73.11	51.10	-28.1	-29.9	14.5	4.50e-05	0	43	0	983564288	16	4460
2026-01-28 23:48:13.33	73.70	51.27	-28.2	-30.3	14.2	2.21e-05	0	43	0	986710016	16	4589
2026-01-28 23:48:14.32	74.29	51.42	-28.0	-29.8	14.5	0.00e+00	0	44	0	989855744	16	4433
2026-01-28 23:48:15.33	74.89	51.58	-28.3	-30.5	14.1	1.50e-06	0	43	0	993001472	16	4643
2026-01-28 23:48:16.33	75.50	51.73	-28.4	-30.8	13.9	5.30e-06	0	44	0	996147200	16	4753
2026-01-28 23:48:17.32	76.10	51.88	-28.3	-30.6	14.0	4.50e-06	0	44	0	999292928	16	4676
2026-01-28 23:48:18.33	76.73	52.03	-28.2	-30.3	14.2	3.80e-06	0	43	0	1002438656	16	4583
2026-01-28 23:48:19.33	77.35	52.17	-28.1	-30.1	14.3	2.20e-06	0	43	0	1005584384	16	4520
2026-01-28 23:48:20.33	77.98	52.31	-28.3	-30.5	14.1	7.00e-07	0	43	0	1008730112	16	4638
2026-01-28 23:48:21.33	78.62	52.45	-28.4	-30.8	13.9	7.00e-07	0	43	0	1011875840	16	4742
2026-01-28 23:48:22.33	79.26	52.59	-28.5	-30.5	13.7	8.30e-06	0	43	0	1015021568	17	4534
2026-01-28 23:48:23.34	79.91	52.72	-28.2	-29.7	14.2	0.00e+00	0	43	0	1018167296	17	4299
2026-01-28 23:48:24.34	80.57	52.85	-28.3	-30.1	14.1	1.50e-06	0	43	0	1021313024	17	4400
2026-01-28 23:48:25.34	81.23	52.97	-28.7	-30.9	13.5	1.67e-05	0	43	0	1024458752	17	4653
2026-01-28 23:48:26.35	81.90	53.09	-28.7	-31.0	13.3	1.60e-05	0	44	0	1027604480	17	4702
2026-01-28 23:48:27.35	82.57	53.21	-28.9	-31.6	13.1	1.75e-05	0	44	0	1030750208	17	4883
2026-01-28 23:48:28.36	83.25	53.33	-28.8	-31.2	13.4	1.98e-05	0	43	0	1033895936	17	4761
2026-01-28 23:48:29.36	83.93	53.44	-28.7	-30.9	13.6	9.10e-06	0	43	0	1037041664	17	4633
2026-01-28 23:48:30.37	84.62	53.54	-28.6	-30.7	13.6	4.50e-06	0	44	0	1040187392	17	4601
2026-01-28 23:48:31.37	85.31	53.64	-28.9	-31.5	13.2	3.20e-05	0	44	0	1043333120	17	4864
2026-01-28 23:48:32.37	86.01	53.74	-28.8	-31.1	13.4	2.74e-05	0	43	0	1046478848	17	4724
2026-01-28 23:48:33.37	86.71	53.84	-28.3	-30.0	14.1	6.86e-05	0	43	0	1049624576	17	4363
2026-01-28 23:48:34.37	87.42	53.93	-28.2	-29.7	14.3	7.00e-07	0	43	0	1052770304	17	4292
2026-01-28 23:48:35.37	88.12	54.01	-28.4	-30.2	14.0	1.50e-06	0	43	0	1055916032	17	4437
2026-01-28 23:48:36.38	88.84	54.09	-28.4	-30.3	14.0	1.50e-06	0	43	0	1059061760	17	4472
2026-01-28 23:48:37.39	89.57	54.17	-28.0	-29.2	14.6	0.00e+00	0	44	0	1062207488	17	4152
2026-01-28 23:48:38.40	90.30	54.25	-27.6	-28.9	15.0	0.00e+00	0	44	0	1065353216	16	4175
2026-01-28 23:48:39.40	91.02	54.31	-27.5	-28.5	15.3	0.00e+00	0	44	0	1068498944	16	4072
2026-01-28 23:48:40.41	91.76	54.38	-27.6	-28.8	15.1	7.00e-07	0	43	0	1071644672	16	4162
2026-01-28 23:48:41.41	92.49	54.44	-27.5	-28.6	15.2	0.00e+00	0	43	0	1074790400	16	4085
2026-01-28 23:48:42.42	93.23	54.49	-27.1	-28.3	15.6	0.00e+00	0	43	0	1077936128	15	4118
2026-01-28 23:48:43.43	93.97	54.54	-27.1	-28.3	15.5	0.00e+00	0	44	0	1081081856	15	4136
2026-01-28 23:48:44.43	94.71	54.59	-27.0	-28.0	15.6	0.00e+00	0	44	0	1084227584	15	4051
2026-01-28 23:48:45.43	95.45	54.63	-27.2	-28.5	15.3	0.00e+00	0	44	0	1087373312	15	4191
2026-01-28 23:48:46.44	96.20	54.67	-27.1	-28.3	15.5	0.00e+00	0	44	0	1090519040	15	4126
2026-01-28 23:48:47.44	96.95	54.70	-27.2	-28.4	15.4	0.00e+00	0	43	0	1093664768	15	4154
2026-01-28 23:48:48.45	97.70	54.73	-27.4	-28.9	15.2	0.00e+00	0	44	0	1096810496	15	4275
2026-01-28 23:48:49.46	98.46	54.75	-27.6	-29.4	14.9	0.00e+00	0	44	0	1099956224	15	4423
2026-01-28 23:48:50.46	99.21	54.77	-27.6	-29.5	14.8	0.00e+00	0	43	0	1103101952	15	4472
2026-01-28 23:48:51.46	99.96	54.78	-27.3	-28.7	15.3	0.00e+00	0	44	0	1106247680	15	4225
2026-01-28 23:48:52.47	100.71	54.78	-27.1	-28.3	15.5	0.00e+00	0	44	0	1109393408	15	4131
2026-01-28 23:48:53.47	101.46	54.79	-27.4	-29.1	15.0	7.00e-07	0	44	0	1112539136	15	4338
2026-01-28 23:48:54.47	102.21	54.79	-27.8	-30.0	14.5	7.00e-07	0	44	0	1115684864	15	4617
2026-01-28 23:48:55.48	102.97	54.78	-27.7	-29.6	14.8	8.30e-06	0	44	0	1118830592	15	4499
2026-01-28 23:48:56.48	103.72	54.77	-27.4	-29.0	15.1	0.00e+00	0	44	0	1121976320	15	4317
2026-01-28 23:48:57.48	104.47	54.75	-27.5	-29.1	15.1	0.00e+00	0	44	0	1125122048	15	4344
2026-01-28 23:48:58.48	105.22	54.73	-27.4	-29.1	15.1	0.00e+00	0	43	0	1128267776	15	4336
2026-01-28 23:48:59.49	105.97	54.70	-27.1	-28.3	15.5	0.00e+00	0	44	0	1131413504	15	4129
2026-01-28 23:49:00.49	106.72	54.67	-27.0	-28.1	15.6	0.00e+00	0	43	0	1134559232	15	4076
2026-01-28 23:49:01.50	107.47	54.63	-27.1	-28.2	15.6	0.00e+00	0	43	0	1137704960	15	4103
2026-01-28 23:49:02.50	108.21	54.59	-27.0	-28.1	15.6	0.00e+00	0	44	0	1140850688	15	4075
2026-01-28 23:49:03.50	108.95	54.55	-26.9	-27.9	15.8	0.00e+00	0	44	0	1143996416	15	4026
2026-01-28 23:49:04.50	109.69	54.50	-26.9	-27.9	15.8	0.00e+00	0	44	0	1147142144	15	4004
2026-01-28 23:49:05.51	110.43	54.44	-26.9	-27.8	15.8	0.00e+00	0	44	0	1150287872	15	3989
2026-01-28 23:49:06.51	111.16	54.38	-27.3	-28.6	15.4	0.00e+00	0	43	0	1153433600	15	4217
2026-01-28 23:49:07.51	111.89	54.32	-27.5	-29.1	15.1	0.00e+00	0	44	0	1156579328	15	4351
2026-01-28 23:49:08.52	112.62	54.25	-27.2	-28.5	15.4	0.00e+00	0	44	0	1159725056	15	4186
2026-01-28 23:49:09.52	113.35	54.18	-27.0	-28.1	15.7	0.00e+00	0	43	0	1162870784	15	4076
2026-01-28 23:49:10.53	114.07	54.10	-27.1	-28.2	15.5	0.00e+00	0	43	0	1166016512	15	4105
2026-01-28 23:49:11.53	114.78	54.02	-27.1	-28.3	15.5	0.00e+00	0	44	0	1169162240	15	4114
2026-01-28 23:49:12.54	115.50	53.93	-27.2	-28.6	15.4	0.00e+00	0	43	0	1172307968	15	4202
2026-01-28 23:49:13.55	116.21	53.84	-27.5	-29.0	15.1	7.00e-07	0	43	0	1175453696	15	4323
2026-01-28 23:49:14.55	116.92	53.75	-27.5	-29.3	15.0	0.00e+00	0	44	0	1178599424	15	4383
2026-01-28 23:49:15.56	117.62	53.65	-27.3	-28.6	15.4	0.00e+00	0	43	0	1181745152	15	4210
2026-01-28 23:49:16.56	118.31	53.55	-26.9	-27.8	15.8	0.00e+00	0	44	0	1184890880	15	3994
2026-01-28 23:49:17.57	119.01	53.44	-27.0	-28.0	15.7	0.00e+00	0	44	0	1188036608	15	4045
2026-01-28 23:49:18.57	119.69	53.33	-26.8	-27.7	15.9	0.00e+00	0	43	0	1191182336	15	3954
2026-01-28 23:49:19.57	120.36	53.22	-26.8	-28.1	15.9	0.00e+00	0	43	0	1194328064	14	4170
2026-01-28 23:49:20.57	121.04	53.10	-26.7	-27.9	16.0	0.00e+00	0	43	0	1197473792	14	4135
2026-01-28 23:49:21.57	121.70	52.98	-26.6	-27.7	16.2	0.00e+00	0	43	0	1200619520	14	4067
2026-01-28 23:49:22.58	122.37	52.85	-27.0	-28.4	15.7	0.00e+00	0	44	0	1203765248	14	4252
2026-01-28 23:49:23.59	123.03	52.72	-27.3	-29.1	15.4	0.00e+00	0	43	0	1206910976	14	4451
2026-01-28 23:49:24.59	123.68	52.59	-27.5	-29.3	15.0	0.00e+00	0	43	0	1210056704	15	4403
2026-01-28 23:49:25.59	124.32	52.46	-27.7	-29.6	14.8	0.00e+00	0	43	0	1213202432	15	4481
2026-01-28 23:49:26.60	124.97	52.32	-27.9	-30.1	14.5	1.50e-06	0	44	0	1216348160	15	4636
2026-01-28 23:49:27.61	125.60	52.18	-28.4	-30.8	13.9	3.00e-06	0	43	0	1219493888	16	4722
2026-01-28 23:49:28.61	126.23	52.03	-28.5	-30.4	13.9	1.50e-06	0	43	0	1222639616	17	4501
2026-01-28 23:49:29.62	126.86	51.88	-28.0	-29.4	14.5	0.00e+00	0	44	0	1225785344	17	4198
2026-01-28 23:49:30.62	127.47	51.73	-28.2	-29.7	14.4	7.00e-07	0	43	0	1228931072	17	4279
2026-01-28 23:49:31.63	128.08	51.58	-28.4	-30.4	13.9	7.00e-07	0	43	0	1232076800	17	4490
2026-01-28 23:49:32.63	128.68	51.42	-28.3	-29.9	14.2	1.50e-06	0	44	0	1235222528	17	4352
2026-01-28 23:49:33.63	129.28	51.26	-28.0	-29.3	14.6	0.00e+00	0	43	0	1238368256	17	4168
2026-01-28 23:49:34.63	129.87	51.10	-27.7	-29.1	15.0	0.00e+00	0	43	0	1241513984	16	4225
2026-01-28 23:49:35.63	130.45	50.94	-28.0	-29.9	14.5	1.99e-04	0	43	0	1244659712	16	4456
2026-01-28 23:49:36.63	131.02	50.77	-28.3	-30.4	14.2	3.80e-06	0	43	0	1247805440	16	4615
2026-01-28 23:49:37.63	131.59	50.60	-28.3	-30.6	14.1	2.20e-06	0	44	0	1250951168	16	4665
2026-01-28 23:49:38.64	132.16	50.43	-28.9	-31.5	13.2	9.90e-06	0	43	0	1254096896	17	4845
2026-01-28 23:49:39.64	132.72	50.26	-29.2	-31.8	12.8	6.94e-05	0	43	0	1257242624	18	4854
2026-01-28 23:49:40.64	133.27	50.08	-29.4	-32.4	12.4	1.09e-04	0	44	0	1260388352	18	5071
2026-01-28 23:49:41.64	133.81	49.91	-29.2	-31.2	12.7	1.59e-04	0	44	0	1263534080	19	4564
2026-01-28 23:49:42.64	134.35	49.73	-28.9	-30.6	13.2	2.51e-05	0	43	0	1266679808	19	4347
2026-01-28 23:49:43.65	134.89	49.54	-28.8	-30.3	13.4	1.37e-05	0	44	0	1269825536	19	4253
2026-01-28 23:49:44.65	135.41	49.36	-28.8	-30.3	13.4	9.38e-05	0	44	0	1272971264	19	4250
2026-01-28 23:49:45.66	135.94	49.18	-28.9	-31.0	13.3	3.00e-04	0	43	0	1276116992	18	4575
2026-01-28 23:49:46.66	136.45	48.99	-28.9	-31.0	13.3	3.05e-05	0	44	0	1279262720	18	4558
2026-01-28 23:49:47.66	136.96	48.80	-29.0	-31.2	13.1	8.31e-04	0	44	0	1282408448	18	4640
2026-01-28 23:49:48.66	137.46	48.61	-29.2	-31.7	12.8	6.99e-04	0	44	0	1285554176	18	4805
2026-01-28 23:49:49.67	137.96	48.42	-29.1	-31.6	12.9	6.63e-05	0	44	0	1288699904	18	4753
2026-01-28 23:49:50.67	138.45	48.23	-28.9	-30.9	13.3	2.28e-04	0	43	0	1291845632	18	4532
2026-01-28 23:49:51.68	138.93	48.03	-28.8	-31.3	13.3	4.30e-04	0	43	0	1294991360	17	4780
2026-01-28 23:49:52.68	139.41	47.84	-28.9	-31.4	13.3	1.44e-05	0	43	0	1297088512	17	4803
2026-01-28 23:49:53.69	139.89	47.64	-29.0	-31.1	13.2	9.45e-04	0	43	0	1300234240	18	4602
2026-01-28 23:49:54.70	140.36	47.44	-29.0	-31.3	13.1	9.82e-04	0	43	0	1303379968	18	4663
2026-01-28 23:49:55.70	140.82	47.24	-29.0	-31.2	13.1	2.44e-05	0	43	0	1307574272	18	4649
2026-01-28 23:49:56.70	141.27	47.04	-29.0	-31.3	13.0	1.06e-03	0	43	0	1310720000	18	4703
2026-01-28 23:49:57.71	141.72	46.84	-29.0	-31.3	13.1	1.00e-03	0	43	0	1313865728	18	4683
2026-01-28 23:49:58.71	142.16	46.64	-29.1	-31.5	12.9	5.03e-05	0	43	0	1317011456	18	4761
2026-01-28 23:49:59.71	142.60	46.44	-29.0	-31.2	13.1	2.97e-05	0	43	0	1320157184	18	4633
2026-01-28 23:50:00.71	143.03	46.23	-29.0	-31.1	13.1	7.35e-04	0	43	0	1322254336	18	4624
2026-01-28 23:50:01.72	143.46	46.03	-29.1	-31.4	13.0	4.34e-05	0	43	0	1325400064	18	4711
2026-01-28 23:50:02.73	143.88	45.82	-29.0	-31.2	13.1	3.58e-05	0	43	0	1328545792	18	4640
2026-01-28 23:50:03.73	144.30	45.62	-28.8	-30.8	13.3	1.67e-05	0	43	0	1331691520	18	4509
2026-01-28 23:50:04.73	144.71	45.41	-29.2	-31.8	12.7	4.80e-05	0	43	0	1334837248	18	4831
2026-01-28 23:50:05.73	145.11	45.21	-29.4	-32.2	12.4	2.34e-04	0	43	0	1337982976	18	4981
2026-01-28 23:50:06.73	145.51	45.00	-29.3	-31.9	12.6	1.38e-04	0	43	0	1341128704	18	4870
2026-01-28 23:50:07.74	145.91	44.79	-29.2	-31.7	12.7	6.71e-05	0	43	0	1344274432	18	4791
2026-01-28 23:50:08.74	146.30	44.58	-29.2	-31.6	12.8	5.56e-05	0	43	0	1347420160	18	4763
2026-01-28 23:50:09.74	146.68	44.38	-29.4	-32.3	12.3	1.65e-04	0	43	0	1350565888	18	5008
2026-01-28 23:50:10.74	147.06	44.17	-29.3	-31.8	12.6	1.36e-04	0	43	0	1353711616	18	4851
2026-01-28 23:50:11.74	147.43	43.96	-28.9	-31.0	13.2	2.98e-04	0	43	0	1356857344	18	4560
2026-01-28 23:50:12.75	147.81	43.75	-28.5	-30.1	13.7	1.06e-05	0	44	0	1360003072	18	4300
2026-01-28 23:50:13.75	148.17	43.54	-28.3	-29.5	14.1	6.10e-06	0	43	0	1363148800	18	4135
2026-01-28 23:50:14.75	148.53	43.34	-28.5	-30.0	13.8	6.10e-06	0	43	0	1366294528	18	4260
2026-01-28 23:50:15.76	148.89	43.13	-28.7	-30.4	13.5	1.22e-05	0	43	0	1369440256	18	4402
2026-01-28 23:50:16.76	149.24	42.92	-29.1	-31.5	12.9	3.50e-05	0	43	0	1372585984	18	4752
2026-01-28 23:50:17.76	149.59	42.71	-29.2	-31.7	12.7	7.78e-05	0	43	0	1375731712	18	4822
2026-01-28 23:50:18.76	149.93	42.50	-29.4	-32.4	12.3	1.23e-04	0	43	0	1378877440	18	5040
2026-01-28 23:50:19.76	150.26	42.29	-29.2	-31.8	12.6	1.32e-04	0	43	0	1382023168	18	4837
2026-01-28 23:50:20.77	150.60	42.08	-29.0	-31.3	13.0	7.01e-05	0	43	0	1385168896	18	4663
2026-01-28 23:50:21.77	150.93	41.87	-28.7	-30.5	13.4	1.29e-05	0	43	0	1388314624	18	4429
2026-01-28 23:50:22.78	151.26	41.66	-28.6	-30.4	13.5	9.90e-06	0	43	0	1391460352	18	4388
2026-01-28 23:50:23.79	151.58	41.45	-28.9	-31.0	13.2	1.06e-05	0	44	0	1394606080	18	4578
2026-01-28 23:50:24.79	151.90	41.25	-28.9	-31.0	13.1	2.44e-05	0	43	0	1397751808	18	4577
2026-01-28 23:50:25.79	152.21	41.04	-28.8	-30.7	13.3	1.83e-05	0	43	0	1400897536	18	4485
2026-01-28 23:50:26.78	152.52	40.83	-28.6	-30.4	13.5	1.44e-05	0	44	0	1404043264	18	4391
2026-01-28 23:50:27.79	152.83	40.63	-28.7	-30.5	13.4	1.75e-05	0	43	0	1407188992	18	4435
2026-01-28 23:50:28.79	153.13	40.42	-28.5	-30.1	13.7	1.37e-05	0	44	0	1410334720	18	4292
2026-01-28 23:50:29.79	153.42	40.21	-28.6	-30.2	13.6	9.10e-06	0	43	0	1413480448	18	4337
2026-01-28 23:50:30.80	153.72	40.01	-28.8	-30.9	13.2	1.60e-05	0	44	0	1416626176	18	4543
2026-01-28 23:50:31.80	154.01	39.80	-29.1	-31.6	12.8	4.73e-05	0	44	0	1419771904	18	4789
2026-01-28 23:50:32.80	154.30	39.60	-28.9	-31.1	13.1	3.05e-05	0	43	0	1422917632	18	4617
2026-01-28 23:50:33.80	154.58	39.39	-28.5	-30.0	13.7	4.50e-06	0	43	0	1426063360	18	4298
2026-01-28 23:50:34.81	154.86	39.18	-28.1	-29.7	14.2	7.00e-07	0	43	0	1429209088	17	4293
2026-01-28 23:50:35.81	155.14	38.98	-28.1	-29.5	14.3	1.50e-06	0	43	0	1432354816	17	4258
2026-01-28 23:50:36.81	155.41	38.78	-28.4	-30.4	13.8	3.00e-06	0	43	0	1435500544	17	4502
2026-01-28 23:50:37.82	155.68	38.57	-28.5	-30.7	13.6	7.60e-06	0	43	0	1438646272	17	4593
2026-01-28 23:50:38.81	155.95	38.37	-28.6	-30.9	13.5	1.44e-05	0	43	0	1441792000	17	4661
2026-01-28 23:50:39.82	156.21	38.17	-28.6	-30.9	13.4	1.37e-05	0	44	0	1444937728	17	4666
2026-01-28 23:50:40.82	156.47	37.97	-28.7	-31.0	13.4	2.36e-05	0	43	0	1448083456	17	4699
2026-01-28 23:50:41.83	156.73	37.77	-28.4	-30.3	13.8	6.10e-06	0	43	0	1451229184	17	4469
2026-01-28 23:50:42.83	156.98	37.57	-28.1	-29.6	14.2	1.50e-06	0	44	0	1454374912	17	4252
2026-01-28 23:50:43.83	157.23	37.37	-28.1	-29.6	14.2	0.00e+00	0	43	0	1457520640	17	4261
2026-01-28 23:50:44.83	157.48	37.17	-28.0	-29.3	14.3	7.00e-07	0	44	0	1460666368	17	4176
2026-01-28 23:50:45.84	157.73	36.97	-27.8	-29.3	14.7	0.00e+00	0	44	0	1463812096	16	4288
2026-01-28 23:50:46.84	157.97	36.77	-27.6	-29.0	14.8	1.50e-06	0	44	0	1466957824	16	4202
2026-01-28 23:50:47.85	158.21	36.57	-27.8	-29.3	14.7	7.00e-07	0	44	0	1470103552	16	4296
2026-01-28 23:50:48.85	158.45	36.38	-27.8	-29.4	14.6	0.00e+00	0	44	0	1473249280	16	4329
2026-01-28 23:50:49.85	158.68	36.18	-27.6	-29.0	14.8	0.00e+00	0	43	0	1476395008	16	4219
2026-01-28 23:50:50.86	158.91	35.98	-27.6	-29.0	14.8	7.00e-07	0	44	0	1479540736	16	4202
2026-01-28 23:50:51.86	159.14	35.79	-27.6	-29.5	14.6	0.00e+00	0	44	0	1482686464	15	4473
2026-01-28 23:50:52.86	159.37	35.60	-27.4	-29.0	14.9	0.00e+00	0	44	0	1485832192	15	4332
2026-01-28 23:50:53.87	159.59	35.40	-27.3	-28.8	15.0	7.00e-07	0	44	0	1488977920	15	4268
2026-01-28 23:50:54.87	159.81	35.21	-27.4	-29.0	15.0	0.00e+00	0	44	0	1492123648	15	4317
2026-01-28 23:50:55.87	160.03	35.02	-27.3	-28.8	15.1	1.37e-04	0	44	0	1495269376	15	4263
2026-01-28 23:50:56.88	160.24	34.83	-27.4	-29.0	14.9	2.20e-06	0	44	0	1498415104	15	4338
2026-01-28 23:50:57.88	160.46	34.64	-27.5	-29.6	14.8	0.00e+00	0	43	0	1501560832	14	4623
2026-01-28 23:50:58.88	160.67	34.45	-27.2	-29.1	15.1	0.00e+00	0	43	0	1504706560	14	4477
2026-01-28 23:50:59.88	160.87	34.26	-27.1	-28.7	15.3	7.00e-07	0	44	0	1507852288	14	4354
2026-01-28 23:51:00.88	161.08	34.07	-27.1	-28.8	15.3	4.50e-04	0	43	0	1510998016	14	4380
2026-01-28 23:51:01.88	161.28	33.88	-27.3	-29.2	15.1	4.45e-04	0	43	0	1514143744	14	4503
2026-01-28 23:51:02.89	161.49	33.70	-27.5	-29.4	14.7	0.00e+00	0	44	0	1517289472	15	4431
2026-01-28 23:51:03.89	161.68	33.51	-27.8	-30.0	14.3	7.00e-07	0	44	0	1520435200	15	4639
2026-01-28 23:51:04.90	161.88	33.32	-28.1	-30.0	14.2	2.36e-04	0	43	0	1523580928	16	4521
2026-01-28 23:51:05.91	162.08	33.14	-28.1	-30.2	14.1	2.20e-06	0	43	0	1526726656	16	4568
2026-01-28 23:51:06.91	162.27	32.96	-28.1	-30.0	14.2	2.00e-04	0	43	0	1529872384	16	4501
2026-01-28 23:51:07.91	162.46	32.77	-27.9	-30.2	14.2	1.56e-03	0	44	0	1533018112	15	4682
2026-01-28 23:51:08.91	162.65	32.59	-27.5	-29.3	14.6	0.00e+00	0	44	0	1536163840	15	4420
2026-01-28 23:51:09.92	162.84	32.41	-27.1	-28.3	15.3	2.40e-04	0	44	0	1539309568	15	4122
2026-01-28 23:51:10.92	163.02	32.23	-26.7	-28.5	15.7	3.76e-04	0	44	0	1542455296	13	4395
2026-01-28 23:51:11.92	163.20	32.05	-26.6	-28.2	15.8	0.00e+00	0	44	0	1545601024	13	4318
2026-01-28 23:51:12.93	163.38	31.87	-26.5	-28.0	16.0	5.88e-04	0	44	0	1548746752	13	4258
2026-01-28 23:51:13.93	163.56	31.69	-26.5	-27.9	16.0	5.20e-04	0	44	0	1551892480	13	4234
2026-01-28 23:51:14.94	163.74	31.51	-26.5	-28.0	15.9	4.50e-06	0	44	0	1555038208	13	4287
2026-01-28 23:51:15.95	163.91	31.33	-26.7	-28.5	15.6	6.16e-04	0	44	0	1558183936	13	4432
2026-01-28 23:51:16.95	164.09	31.16	-26.6	-28.3	15.8	5.84e-04	0	44	0	1561329664	13	4365
2026-01-28 23:51:17.95	164.26	30.98	-26.7	-28.4	15.7	6.31e-04	0	44	0	1564475392	13	4402
2026-01-28 23:51:18.96	164.43	30.81	-26.8	-28.7	15.5	0.00e+00	0	43	0	1567621120	13	4470
2026-01-28 23:51:19.96	164.59	30.64	-26.9	-28.9	15.4	6.62e-04	0	44	0	1570766848	13	4552
2026-01-28 23:51:20.97	164.76	30.46	-26.9	-29.0	15.3	0.00e+00	0	44	0	1573912576	13	4584
2026-01-28 23:51:21.97	164.93	30.29	-26.8	-28.8	15.5	3.29e-04	0	43	0	1577058304	13	4500
2026-01-28 23:51:22.98	165.09	30.12	-26.8	-28.6	15.6	9.62e-04	0	44	0	1580204032	13	4460
2026-01-28 23:51:23.99	165.25	29.95	-26.8	-28.7	15.5	5.42e-04	0	43	0	1583349760	13	4481
2026-01-28 23:51:25.00	165.41	29.78	-26.6	-28.3	15.8	0.00e+00	0	43	0	1586495488	13	4353
2026-01-28 23:51:26.00	165.57	29.61	-26.7	-28.4	15.7	4.32e-04	0	44	0	1589641216	13	4404
2026-01-28 23:51:27.00	165.72	29.44	-26.7	-28.4	15.6	0.00e+00	0	43	0	1592786944	13	4391
2026-01-28 23:51:28.00	165.88	29.27	-26.6	-28.3	15.7	0.00e+00	0	44	0	1595932672	13	4359
2026-01-28 23:51:29.01	166.03	29.10	-26.6	-28.3	15.7	3.71e-04	0	44	0	1599078400	13	4359
2026-01-28 23:51:30.02	166.18	28.94	-26.8	-28.7	15.5	3.60e-04	0	44	0	1602224128	13	4480
2026-01-28 23:51:31.01	166.33	28.77	-26.5	-28.0	15.9	0.00e+00	0	43	0	1605369856	13	4267
2026-01-28 23:51:32.02	166.48	28.61	-26.4	-27.7	16.0	0.00e+00	0	43	0	1608515584	13	4198
2026-01-28 23:51:33.02	166.63	28.45	-26.4	-28.2	16.0	5.38e-04	0	43	0	1611661312	12	4454
2026-01-28 23:51:34.01	166.77	28.29	-26.4	-28.2	16.1	0.00e+00	0	43	0	1614807040	12	4434
2026-01-28 23:51:35.02	166.91	28.12	-26.4	-28.2	16.0	5.88e-04	0	43	0	1617952768	12	4443
2026-01-28 23:51:36.03	167.06	27.96	-26.4	-28.4	15.9	6.06e-04	0	43	0	1620049920	12	4490
2026-01-28 23:51:37.03	167.20	27.80	-26.7	-28.4	15.6	0.00e+00	0	44	0	1623195648	13	4389
2026-01-28 23:51:38.03	167.34	27.64	-27.2	-29.0	15.0	5.90e-04	0	44	0	1626341376	14	4459
2026-01-28 23:51:39.03	167.47	27.48	-27.4	-29.5	14.8	6.38e-04	0	44	0	1629487104	14	4601
2026-01-28 23:51:40.04	167.61	27.32	-27.4	-29.5	14.8	0.00e+00	0	44	0	1632632832	14	4593
2026-01-28 23:51:41.04	167.75	27.17	-27.7	-29.7	14.4	7.00e-07	0	43	0	1635778560	15	4552
2026-01-28 23:51:42.05	167.88	27.01	-27.5	-29.3	14.6	7.00e-07	0	43	0	1638924288	15	4417
2026-01-28 23:51:43.04	168.02	26.85	-27.1	-28.8	15.1	0.00e+00	0	43	0	1642070016	14	4399
2026-01-28 23:51:44.05	168.15	26.70	-27.1	-28.9	15.1	0.00e+00	0	43	0	1645215744	14	4419
2026-01-28 23:51:45.06	168.28	26.54	-27.1	-28.9	15.1	7.92e-04	0	44	0	1648361472	14	4432
2026-01-28 23:51:46.06	168.41	26.39	-27.0	-28.5	15.3	0.00e+00	0	44	0	1651507200	14	4308
2026-01-28 23:51:47.06	168.54	26.24	-27.4	-29.6	14.7	0.00e+00	0	43	0	1654652928	14	4615
2026-01-28 23:51:48.06	168.66	26.08	-27.0	-28.6	15.3	0.00e+00	0	44	0	1657798656	14	4320
2026-01-28 23:51:49.06	168.79	25.93	-26.5	-27.6	15.8	0.00e+00	0	44	0	1660944384	14	4059
2026-01-28 23:51:50.07	168.91	25.78	-26.3	-27.5	16.1	7.71e-04	0	44	0	1664090112	13	4148
2026-01-28 23:51:51.07	169.04	25.63	-26.2	-27.9	16.2	0.00e+00	0	44	0	1667235840	12	4364
2026-01-28 23:51:52.08	169.16	25.48	-26.5	-28.4	15.9	0.00e+00	0	44	0	1670381568	12	4513
2026-01-28 23:51:53.08	169.28	25.33	-26.6	-28.3	15.7	0.00e+00	0	44	0	1673527296	13	4360
2026-01-28 23:51:54.09	169.40	25.18	-26.5	-28.1	15.8	0.00e+00	0	43	0	1676673024	13	4291
2026-01-28 23:51:55.09	169.52	25.04	-26.6	-28.1	15.8	0.00e+00	0	43	0	1679818752	13	4311
2026-01-28 23:51:56.10	169.64	24.89	-26.6	-28.3	15.7	3.80e-06	0	44	0	1682964480	13	4366
2026-01-28 23:51:57.11	169.76	24.74	-26.5	-28.0	15.8	0.00e+00	0	44	0	1686110208	13	4287
2026-01-28 23:51:58.11	169.87	24.60	-26.4	-27.8	15.9	0.00e+00	0	43	0	1689255936	13	4225
2026-01-28 23:51:59.11	169.99	24.45	-26.4	-28.3	15.9	6.10e-06	0	44	0	1692401664	12	4471
2026-01-28 23:52:00.12	170.10	24.31	-26.3	-28.1	16.0	0.00e+00	0	43	0	1695547392	12	4425
2026-01-28 23:52:01.12	170.22	24.16	-26.7	-28.3	15.6	0.00e+00	0	43	0	1698693120	13	4364
2026-01-28 23:52:02.11	170.33	24.02	-26.3	-27.6	16.0	0.00e+00	0	43	0	1701838848	13	4175
2026-01-28 23:52:03.12	170.44	23.88	-26.1	-27.2	16.3	0.00e+00	0	44	0	1704984576	13	4061
2026-01-28 23:52:04.13	170.55	23.74	-26.1	-27.0	16.4	0.00e+00	0	43	0	1708130304	13	4020
2026-01-28 23:52:05.13	170.66	23.60	-26.1	-27.5	16.3	1.14e-05	0	44	0	1711276032	12	4244
2026-01-28 23:52:06.13	170.77	23.46	-26.2	-27.7	16.2	0.00e+00	0	43	0	1714421760	12	4308
2026-01-28 23:52:07.13	170.87	23.32	-26.2	-27.8	16.2	0.00e+00	0	43	0	1717567488	12	4345
2026-01-28 23:52:08.14	170.98	23.18	-26.2	-27.9	16.1	1.29e-05	0	43	0	1720713216	12	4373
2026-01-28 23:52:09.13	171.08	23.04	-26.2	-27.9	16.2	0.00e+00	0	43	0	1723858944	12	4355
2026-01-28 23:52:10.14	171.19	22.91	-26.3	-28.0	16.1	0.00e+00	0	43	0	1727004672	12	4386
2026-01-28 23:52:11.14	171.29	22.77	-26.3	-28.0	16.1	0.00e+00	0	44	0	1730150400	12	4388
2026-01-28 23:52:12.14	171.39	22.63	-26.3	-28.1	16.0	0.00e+00	0	44	0	1733296128	12	4406
2026-01-28 23:52:13.15	171.50	22.50	-26.3	-28.0	15.6	0.00e+00	0	44	0	1736441856	12	4385
2026-01-28 23:52:14.16	171.60	22.36	-26.3	-28.1	16.0	1.29e-05	0	43	0	1739587584	12	4410
2026-01-28 23:52:15.17	171.70	22.23	-26.3	-28.0	16.0	0.00e+00	0	44	0	1742733312	12	4392
2026-01-28 23:52:16.17	171.80	22.09	-26.3	-28.0	16.1	0.00e+00	0	44	0	1745879040	12	4393
2026-01-28 23:52:17.17	171.90	21.96	-26.3	-28.1	16.0	0.00e+00	0	44	0	1749024768	12	4424
2026-01-28 23:52:18.18	172.00	21.83	-26.3	-28.1	16.0	4.24e-04	0	44	0	1752170496	12	4420
2026-01-28 23:52:19.18	172.09	21.70	-26.3	-28.1	16.0	0.00e+00	0	43	0	1755316224	12	4432
2026-01-28 23:52:20.18	172.19	21.56	-26.3	-28.2	16.0	0.00e+00	0	44	0	1758461952	12	4433
2026-01-28 23:52:21.18	172.28	21.43	-26.4	-28.2	15.9	0.00e+00	0	43	0	1761607680	12	4451
2026-01-28 23:52:22.19	172.38	21.30	-26.4	-28.3	15.9	0.00e+00	0	44	0	1764753408	12	4462
2026-01-28 23:52:23.19	172.47	21.17	-26.5	-28.5	15.8	0.00e+00	0	43	0	1767899136	12	4521
2026-01-28 23:52:24.19	172.57	21.05	-26.5	-27.9	15.8	5.11e-04	0	43	0	1771044864	13	4260
2026-01-28 23:52:25.19	172.66	20.92	-26.6	-28.1	15.7	0.00e+00	0	44	0	1774190592	13	4322
2026-01-28 23:52:26.19	172.75	20.79	-26.9	-28.8	15.2	0.00e+00	0	43	0	1777336320	13	4518
2026-01-28 23:52:27.19	172.84	20.66	-26.6	-28.2	15.7	5.87e-04	0	43	0	1780482048	13	4326
2026-01-28 23:52:28.20	172.93	20.54	-26.5	-28.1	15.7	5.84e-04	0	44	0	1783627776	13	4302
2026-01-28 23:52:29.20	173.02	20.41	-26.5	-28.0	15.7	0.00e+00	0	44	0	1786773504	13	4289
2026-01-28 23:52:30.21	173.11	20.29	-26.5	-28.0	15.7	5.88e-04	0	43	0	1789919232	13	4296
2026-01-28 23:52:31.21	173.20	20.16	-26.4	-28.4	15.8	0.00e+00	0	43	0	1793064960	12	4505
2026-01-28 23:52:32.21	173.28	20.04	-26.5	-28.0	15.7	0.00e+00	0	43	0	1796210688	13	4290
2026-01-28 23:52:33.21	173.37	19.91	-26.4	-27.8	15.8	4.37e-04	0	43	0	1799356416	13	4227
2026-01-28 23:52:34.21	173.46	19.79	-26.5	-28.0	15.7	4.26e-04	0	44	0	1802502144	13	4289
2026-01-28 23:52:35.21	173.54	19.67	-26.3	-27.6	15.9	0.00e+00	0	44	0	1805647872	13	4169
2026-01-28 23:52:36.22	173.63	19.55	-26.3	-28.0	16.0	0.00e+00	0	43	0	1808793600	12	4396
2026-01-28 23:52:37.22	173.71	19.42	-26.3	-28.0	16.0	4.27e-04	0	43	0	1811939328	12	4391
2026-01-28 23:52:38.22	173.79	19.30	-26.3	-28.1	15.9	0.00e+00	0	43	0	1815085056	12	4420
2026-01-28 23:52:39.23	173.88	19.18	-26.4	-28.4	15.8	4.32e-04	0	44	0	1818230784	12	4500
2026-01-28 23:52:40.23	173.96	19.06	-26.5	-28.0	15.7	5.88e-04	0	44	0	1821376512	13	4280
2026-01-28 23:52:41.23	174.04	18.94	-26.5	-28.0	15.7	0.00e+00	0	43	0	1824522240	13	4283
2026-01-28 23:52:42.23	174.12	18.83	-26.5	-28.1	15.7	5.49e-04	0	43	0	1827667968	13	4314
2026-01-28 23:52:43.23	174.20	18.71	-26.5	-28.1	15.6	5.90e-04	0	43	0	1830813696	13	4314
2026-01-28 23:52:44.23	174.28	18.59	-26.6	-28.3	15.5	0.00e+00	0	43	0	1833959424	13	4365
2026-01-28 23:52:45.24	174.36	18.47	-26.5	-28.1	15.6	5.97e-04	0	43	0	1837105152	13	4324
2026-01-28 23:52:46.24	174.44	18.36	-26.7	-28.5	15.0	0.00e+00	0	44	0	1840250880	13	4429
2026-01-28 23:52:47.24	174.52	18.24	-26.7	-28.4	15.2	0.00e+00	0	43	0	1843396608	13	4399
2026-01-28 23:52:48.25	174.60	18.12	-26.8	-28.8	15.3	6.33e-04	0	43	0	1846542336	13	4506
2026-01-28 23:52:49.26	174.67	18.01	-26.7	-28.5	15.4	5.76e-04	0	43	0	1849688064	13	4419
2026-01-28 23:52:50.26	174.75	17.89	-26.6	-28.2	15.5	0.00e+00	0	44	0	1852833792	13	4345
2026-01-28 23:52:51.26	174.83	17.78	-26.6	-28.3	15.5	0.00e+00	0	44	0	1855979520	13	4366
2026-01-28 23:52:52.27	174.90	17.66	-26.7	-28.6	15.3	2.53e-04	0	43	0	1859125248	13	4460
2026-01-28 23:52:53.27	174.98	17.55	-26.8	-28.7	15.2	2.91e-04	0	43	0	1862270976	13	4506
2026-01-28 23:52:54.28	175.05	17.44	-26.8	-28.8	15.2	5.40e-04	0	44	0	1865416704	13	4519
2026-01-28 23:52:55.29	175.13	17.32	-26.8	-28.9	15.1	0.00e+00	0	43	0	1868562432	13	4557
2026-01-28 23:52:56.30	175.20	17.21	-27.1	-28.9	14.9	0.00e+00	0	44	0	1871708160	14	4443
2026-01-28 23:52:57.30	175.27	17.10	-26.9	-28.6	15.0	0.00e+00	0	43	0	1874853888	14	4371
2026-01-28 23:52:58.31	175.34	16.99	-26.9	-29.1	15.0	1.57e-04	0	43	0	1877999616	13	4625
2026-01-28 23:52:59.31	175.42	16.88	-27.0	-29.2	14.9	1.43e-04	0	44	0	1881145344	13	4663
2026-01-28 23:53:00.32	175.49	16.77	-27.1	-29.0	14.8	0.00e+00	0	44	0	1884291072	14	4468
2026-01-28 23:53:01.32	175.56	16.66	-27.1	-29.1	14.7	1.65e-04	0	43	0	1887436800	14	4499
2026-01-28 23:53:02.32	175.63	16.55	-27.1	-28.9	14.8	1.83e-04	0	44	0	1890582528	14	4442
2026-01-28 23:53:03.33	175.70	16.44	-27.0	-28.8	14.9	0.00e+00	0	43	0	1893728256	14	4423
2026-01-28 23:53:04.34	175.77	16.33	-27.0	-28.9	14.9	2.14e-04	0	43	0	1896873984	14	4438
2026-01-28 23:53:05.34	175.84	16.22	-27.0	-28.9	14.8	2.12e-04	0	43	0	1900019712	14	4440
2026-01-28 23:53:06.34	175.91	16.12	-27.1	-29.0	14.7	7.00e-07	0	43	0	1903165440	14	4488
2026-01-28 23:53:07.35	175.97	16.01	-27.0	-28.8	14.8	3.51e-04	0	44	0	1906311168	14	4428
2026-01-28 23:53:08.35	176.04	15.90	-27.0	-28.8	14.9	4.47e-04	0	43	0	1909456896	14	4409
2026-01-28 23:53:09.35	176.11	15.80	-27.0	-28.8	14.9	0.00e+00	0	44	0	1912602624	14	4411
2026-01-28 23:53:10.35	176.17	15.69	-27.1	-28.9	14.8	5.71e-04	0	43	0	1915748352	14	4438
2026-01-28 23:53:11.36	176.24	15.58	-27.1	-29.0	14.7	0.00e+00	0	43	0	1918894080	14	4473
2026-01-28 23:53:12.36	176.31	15.48	-27.1	-28.9	14.8	0.00e+00	0	44	0	1922039808	14	4447
2026-01-28 23:53:13.36	176.37	15.38	-27.1	-28.9	14.8	7.09e-04	0	43	0	1925185536	14	4434
2026-01-28 23:53:14.36	176.44	15.27	-27.1	-28.9	14.8	6.81e-04	0	43	0	1928331264	14	4449
2026-01-28 23:53:15.36	176.50	15.17	-27.2	-29.1	14.7	0.00e+00	0	44	0	1931476992	14	4498
2026-01-28 23:53:16.36	176.56	15.07	-27.1	-29.0	14.7	0.00e+00	0	43	0	1934622720	14	4480
2026-01-28 23:53:17.37	176.63	14.96	-27.2	-29.1	14.7	6.63e-04	0	44	0	1937768448	14	4502
2026-01-28 23:53:18.37	176.69	14.86	-27.2	-29.2	14.6	1.50e-06	0	43	0	1940914176	14	4530
2026-01-28 23:53:19.37	176.75	14.76	-27.2	-29.3	14.5	6.85e-04	0	44	0	1943011328	14	4563
2026-01-28 23:53:20.38	176.82	14.66	-27.2	-29.2	14.6	0.00e+00	0	43	0	1946157056	14	4535
2026-01-28 23:53:21.38	176.88	14.55	-27.2	-29.2	14.5	0.00e+00	0	43	0	1949302784	14	4544
2026-01-28 23:53:22.39	176.94	14.45	-27.3	-29.4	14.5	0.00e+00	0	44	0	1952448512	14	4596
2026-01-28 23:53:23.39	177.00	14.35	-27.3	-29.4	14.5	7.39e-04	0	43	0	1955594240	14	4590
2026-01-28 23:53:24.40	177.06	14.25	-27.2	-29.3	14.6	7.00e-07	0	43	0	1958739968	14	4554
2026-01-28 23:53:25.40	177.12	14.15	-27.3	-29.4	14.5	7.00e-07	0	43	0	1961885696	14	4584
2026-01-28 23:53:26.40	177.18	14.05	-27.4	-29.6	14.3	7.00e-07	0	44	0	1966080000	14	4658
2026-01-28 23:53:27.40	177.24	13.96	-27.3	-29.5	14.4	0.00e+00	0	44	0	1968177152	14	4614
2026-01-28 23:53:28.40	177.30	13.86	-27.3	-29.5	14.4	7.00e-07	0	44	0	1971322880	14	4622
2026-01-28 23:53:29.40	177.36	13.76	-27.4	-29.6	14.3	6.93e-04	0	44	0	1974468608	14	4666
2026-01-28 23:53:30.40	177.42	13.66	-27.4	-29.6	14.3	3.80e-06	0	43	0	1977614336	14	4664
2026-01-28 23:53:31.40	177.48	13.57	-27.5	-29.8	14.2	3.00e-06	0	44	0	1980760064	14	4718
2026-01-28 23:53:32.40	177.53	13.47	-27.5	-29.5	14.0	7.00e-07	0	44	0	1983905792	15	4521
2026-01-28 23:53:33.40	177.59	13.37	-27.6	-29.5	14.1	3.80e-06	0	44	0	1987051520	15	4516
2026-01-28 23:53:34.41	177.65	13.27	-27.5	-29.3	14.1	7.00e-07	0	43	0	1990197248	15	4462
2026-01-28 23:53:35.41	177.70	13.18	-27.6	-29.6	14.0	3.00e-06	0	44	0	1993342976	15	4548
2026-01-28 23:53:36.42	177.76	13.08	-27.6	-29.7	13.9	3.00e-06	0	43	0	1996488704	15	4587
2026-01-28 23:53:37.42	177.82	12.99	-27.6	-29.6	14.0	2.20e-06	0	43	0	1999634432	15	4530
2026-01-28 23:53:38.43	177.87	12.89	-27.6	-29.7	13.9	6.10e-06	0	43	0	2002780160	15	4568
2026-01-28 23:53:39.43	177.93	12.80	-27.5	-29.5	14.0	3.00e-06	0	43	0	2005925888	15	4506
2026-01-28 23:53:40.44	177.98	12.70	-27.5	-29.3	14.1	2.20e-06	0	43	0	2009071616	15	4452
2026-01-28 23:53:41.44	178.04	12.61	-27.5	-29.3	14.1	3.80e-06	0	43	0	2012217344	15	4462
2026-01-28 23:53:42.45	178.09	12.52	-27.5	-29.9	13.7	0.00e+00	0	43	0	2015363072	14	4737
2026-01-28 23:53:43.46	178.15	12.42	-27.5	-29.4	14.1	2.20e-06	0	43	0	2018508800	15	4480
2026-01-28 23:53:44.46	178.20	12.33	-27.7	-29.9	13.8	4.50e-06	0	44	0	2021654528	15	4621
2026-01-28 23:53:45.47	178.25	12.24	-27.7	-30.0	13.7	4.19e-05	0	43	0	2024800256	15	4660
2026-01-28 23:53:46.46	178.31	12.14	-27.8	-30.0	13.7	3.80e-06	0	43	0	2027945984	15	4671
2026-01-28 23:53:47.46	178.36	12.05	-27.8	-30.1	13.6	1.37e-05	0	43	0	2031091712	15	4706
2026-01-28 23:53:48.47	178.41	11.96	-27.6	-29.5	14.0	2.20e-06	0	43	0	2034237440	15	4527
2026-01-28 23:53:49.47	178.46	11.87	-27.4	-29.2	14.1	1.50e-06	0	43	0	2037383168	15	4429
2026-01-28 23:53:50.47	178.52	11.78	-27.4	-29.6	14.2	1.29e-03	0	43	0	2040528896	14	4649
2026-01-28 23:53:51.48	178.57	11.69	-27.4	-29.6	14.2	1.33e-03	0	44	0	2043674624	14	4650
2026-01-28 23:53:52.48	178.62	11.60	-27.4	-29.7	14.1	2.20e-06	0	44	0	2046820352	14	4698
2026-01-28 23:53:53.49	178.67	11.51	-27.4	-29.8	14.1	4.50e-06	0	43	0	2049966080	14	4705
2026-01-28 23:53:54.49	178.72	11.42	-27.4	-29.7	14.1	1.50e-06	0	44	0	2053111808	14	4691
2026-01-28 23:53:55.50	178.77	11.33	-27.5	-29.5	14.0	1.50e-06	0	43	0	2056257536	15	4508
2026-01-28 23:53:56.51	178.82	11.24	-27.7	-29.9	13.7	1.15e-03	0	44	0	2059403264	15	4641
2026-01-28 23:53:57.51	178.87	11.15	-27.8	-30.0	13.6	1.16e-03	0	43	0	2062548992	15	4682
2026-01-28 23:53:58.52	178.92	11.06	-27.6	-29.7	13.9	2.20e-06	0	43	0	2065694720	15	4563
2026-01-28 23:53:59.52	178.97	10.97	-27.7	-29.9	13.7	3.00e-06	0	43	0	2068840448	15	4645
2026-01-28 23:54:00.52	179.02	10.89	-27.8	-30.1	13.6	1.32e-03	0	43	0	2071986176	15	4695
2026-01-28 23:54:01.52	179.07	10.80	-27.8	-30.1	13.5	4.50e-06	0	44	0	2075131904	15	4707
2026-01-28 23:54:02.53	179.12	10.71	-27.9	-30.4	13.4	1.37e-03	0	43	0	2078277632	15	4779
2026-01-28 23:54:03.53	179.17	10.62	-27.9	-30.3	13.4	1.17e-03	0	44	0	2081423360	15	4778
2026-01-28 23:54:04.54	179.21	10.54	-28.2	-30.6	13.1	1.83e-05	0	44	0	2084569088	16	4746
2026-01-28 23:54:05.55	179.26	10.45	-28.3	-30.7	13.1	1.12e-03	0	43	0	2087714816	16	4762
2026-01-28 23:54:06.55	179.31	10.36	-28.3	-30.7	13.1	1.17e-03	0	44	0	2090860544	16	4771
2026-01-28 23:54:07.56	179.36	10.28	-28.4	-31.2	12.8	5.72e-05	0	44	0	2094006272	16	4931
2026-01-28 23:54:08.56	179.40	10.19	-28.5	-30.7	12.7	1.33e-03	0	43	0	2097152000	17	4670
2026-01-28 23:54:09.56	179.45	10.11	-28.3	-30.7	13.0	5.72e-05	0	43	0	2100297728	16	4777
2026-01-28 23:54:10.57	179.50	10.02	-28.2	-30.5	13.1	2.44e-05	0	43	0	2103443456	16	4718
2026-01-28 23:54:11.57	179.54	9.94	-28.3	-30.9	12.9	1.18e-03	0	44	0	2106589184	16	4847
2026-01-28 23:54:12.58	179.59	9.85	-28.2	-30.7	13.0	1.28e-03	0	43	0	2109734912	16	4776
2026-01-28 23:54:13.58	179.63	9.77	-28.5	-30.8	12.6	8.01e-05	0	43	0	2112880640	17	4708
2026-01-28 23:54:14.58	179.68	9.68	-28.6	-31.2	12.4	9.99e-05	0	44	0	2116026368	17	4828
2026-01-28 23:54:15.58	179.73	9.60	-28.9	-31.9	11.9	1.30e-03	0	43	0	2119172096	17	5062
2026-01-28 23:54:16.59	179.77	9.52	-29.0	-31.7	11.7	3.98e-04	0	43	0	2122317824	18	4880
2026-01-28 23:54:17.60	179.82	9.43	-29.3	-32.4	11.3	1.81e-03	0	44	0	2125463552	18	5135
2026-01-28 23:54:18.61	179.86	9.35	-29.3	-32.3	11.3	1.21e-03	0	43	0	2128609280	18	5113
2026-01-28 23:54:19.60	179.90	9.27	-29.3	-32.4	11.4	1.02e-03	0	43	0	2131755008	18	5134
2026-01-28 23:54:20.61	179.95	9.19	-29.3	-32.5	11.2	1.36e-03	0	43	0	2134900736	18	5186
2026-01-28 23:54:21.61	179.99	9.10	-29.2	-32.1	11.5	1.14e-03	0	44	0	2138046464	18	5040
