passes_logs/2026/01/28/R2M6_AANII_01/R2M6_AANII_01__20260128_044916_FENGYUN_3D_rec.log

#Pass ID: 20260128_044916_FENGYUN 3D
#Satellite: FENGYUN 3D
#Configuration: FENGYUN 3D
#almurnet v.1.7.20240730
#Start time: 2026-01-28 04:49:16

#Version: 2.2.20231116
#Station: R2M6_AANII_01
#Location: 30.233357 lon 59.946436 lat
#TLE: 1 43010U 17072A   26027.47796828  .00000374  00000+0  19850-3 0  9992
#TLE: 2 43010  98.9960 359.4888 0002523  87.5419 272.6045 14.19701595425023

#Time	Az	El	Level	Level2	SNR	BER	BlckErr	Temp	State	Recorded	gain1	gain2
2026-01-28 04:49:16.78	9.70	7.02	-31.7	-36.9	4.7	8.15e-01	0	41	0	0	23	6556
2026-01-28 04:49:17.77	9.59	7.08	-30.6	-34.3	5.2	7.83e-01	0	41	104	0	21	5518
2026-01-28 04:49:18.77	9.49	7.14	-30.5	-34.1	9.0	3.36e-02	0	41	0	0	21	5408
2026-01-28 04:49:19.77	9.38	7.20	-30.6	-34.2	8.9	3.43e-02	0	41	0	5242880	21	5439
2026-01-28 04:49:20.78	9.27	7.26	-30.6	-34.2	8.9	3.63e-02	0	41	0	11534336	21	5447
2026-01-28 04:49:21.78	9.16	7.31	-30.5	-34.0	9.0	3.56e-02	0	41	0	16777216	21	5382
2026-01-28 04:49:22.79	9.05	7.37	-30.6	-34.3	8.8	3.54e-02	0	41	0	22020096	21	5511
2026-01-28 04:49:23.79	8.94	7.43	-30.9	-35.2	8.2	5.60e-02	0	41	0	28311552	21	5876
2026-01-28 04:49:24.79	8.83	7.49	-30.6	-34.2	8.9	5.77e-02	0	41	0	33554432	21	5436
2026-01-28 04:49:25.79	8.72	7.55	-30.1	-32.9	9.8	1.47e-02	0	41	0	38797312	21	4924
2026-01-28 04:49:26.80	8.60	7.60	-29.7	-32.5	10.8	7.19e-03	0	41	0	45088768	19	4989
2026-01-28 04:49:27.80	8.49	7.66	-29.2	-31.7	11.7	3.18e-03	0	41	0	50331648	18	4827
2026-01-28 04:49:28.81	8.38	7.72	-28.7	-30.6	12.4	2.87e-04	0	41	0	55574528	18	4468
2026-01-28 04:49:29.81	8.27	7.78	-28.4	-30.8	12.9	1.88e-03	0	41	0	61865984	16	4745
2026-01-28 04:49:30.81	8.15	7.84	-28.4	-30.8	12.9	6.75e-05	0	41	0	67108864	16	4755
2026-01-28 04:49:31.81	8.04	7.89	-28.4	-30.8	12.9	2.10e-04	0	41	0	73400320	16	4741
2026-01-28 04:49:32.81	7.92	7.95	-28.3	-30.7	13.0	7.55e-05	0	41	0	78643200	16	4702
2026-01-28 04:49:33.82	7.81	8.01	-28.4	-30.7	13.0	6.40e-05	0	41	0	83886080	16	4715
2026-01-28 04:49:34.82	7.69	8.07	-28.2	-30.4	13.2	4.11e-05	0	41	0	90177536	16	4631
2026-01-28 04:49:35.82	7.58	8.13	-28.2	-30.3	13.3	4.92e-05	0	41	0	95420416	16	4582
2026-01-28 04:49:36.83	7.46	8.19	-28.2	-30.4	13.2	5.60e-05	0	41	0	101711872	16	4624
2026-01-28 04:49:37.83	7.34	8.24	-28.1	-30.1	13.4	2.86e-05	0	41	0	106954752	16	4532
2026-01-28 04:49:38.84	7.23	8.30	-28.4	-30.8	13.0	4.34e-05	0	41	0	112197632	16	4742
2026-01-28 04:49:39.84	7.11	8.36	-28.1	-30.1	13.4	2.86e-05	0	41	0	118489088	16	4531
2026-01-28 04:49:40.85	6.99	8.42	-27.7	-29.2	13.9	1.48e-05	0	41	0	123731968	16	4276
2026-01-28 04:49:41.85	6.87	8.48	-27.4	-29.0	14.2	4.50e-06	0	41	0	128974848	15	4332
2026-01-28 04:49:42.86	6.75	8.54	-27.3	-29.3	14.3	0.00e+00	0	41	0	135266304	14	4534
2026-01-28 04:49:43.86	6.63	8.60	-27.4	-29.6	14.2	5.70e-06	0	41	0	140509184	14	4600
2026-01-28 04:49:44.86	6.51	8.65	-27.5	-29.1	14.1	2.20e-06	0	42	0	146800640	15	4371
2026-01-28 04:49:45.86	6.39	8.71	-27.5	-29.2	14.1	5.70e-06	0	41	0	152043520	15	4398
2026-01-28 04:49:46.86	6.27	8.77	-27.5	-29.1	14.1	3.40e-06	0	41	0	157286400	15	4364
2026-01-28 04:49:47.87	6.15	8.83	-27.5	-29.7	14.1	3.40e-06	0	42	0	163577856	14	4648
2026-01-28 04:49:48.87	6.03	8.89	-27.3	-29.4	14.3	2.20e-06	0	42	0	168820736	14	4559
2026-01-28 04:49:49.88	5.90	8.95	-27.3	-29.3	14.3	1.10e-06	0	41	0	174063616	14	4517
2026-01-28 04:49:50.88	5.78	9.01	-27.5	-29.7	14.2	6.80e-06	0	41	0	180355072	14	4641
2026-01-28 04:49:51.89	5.65	9.06	-27.5	-29.2	14.1	2.20e-06	0	41	0	185597952	15	4397
2026-01-28 04:49:52.89	5.53	9.12	-27.4	-29.0	14.3	2.20e-06	0	42	0	191889408	15	4318
2026-01-28 04:49:53.90	5.40	9.18	-27.4	-29.6	14.2	1.10e-06	0	42	0	197132288	14	4608
2026-01-28 04:49:54.90	5.28	9.24	-27.5	-29.1	14.2	4.50e-06	0	42	0	202375168	15	4363
2026-01-28 04:49:55.91	5.15	9.30	-27.5	-29.2	14.1	1.10e-06	0	41	0	208666624	15	4388
2026-01-28 04:49:56.91	5.03	9.36	-27.5	-29.6	14.2	2.20e-06	0	42	0	213909504	14	4616
2026-01-28 04:49:57.91	4.90	9.42	-27.4	-29.4	14.3	5.70e-06	0	42	0	220200960	14	4562
2026-01-28 04:49:58.91	4.77	9.48	-27.2	-29.0	14.6	1.10e-06	0	42	0	225443840	14	4432
2026-01-28 04:49:59.92	4.64	9.53	-27.2	-28.9	14.6	2.20e-06	0	42	0	230686720	14	4413
2026-01-28 04:50:00.92	4.52	9.59	-27.3	-29.2	14.4	2.20e-06	0	42	0	236978176	14	4485
2026-01-28 04:50:01.92	4.39	9.65	-27.3	-29.4	14.4	0.00e+00	0	42	0	242221056	14	4543
2026-01-28 04:50:02.92	4.26	9.71	-27.3	-29.3	14.4	0.00e+00	0	42	0	247463936	14	4512
2026-01-28 04:50:03.92	4.13	9.77	-27.5	-29.2	14.1	3.40e-06	0	42	0	253755392	15	4386
2026-01-28 04:50:04.93	4.00	9.83	-27.4	-28.9	14.3	1.10e-06	0	42	0	258998272	15	4306
2026-01-28 04:50:05.93	3.87	9.89	-27.3	-29.2	14.5	2.20e-06	0	42	0	265289728	14	4481
2026-01-28 04:50:06.93	3.73	9.94	-27.2	-29.0	14.6	0.00e+00	0	42	0	270532608	14	4420
2026-01-28 04:50:07.93	3.60	10.00	-27.3	-29.1	14.5	0.00e+00	0	42	0	275775488	14	4477
2026-01-28 04:50:08.94	3.47	10.06	-27.2	-28.9	14.7	0.00e+00	0	42	0	282066944	14	4400
2026-01-28 04:50:09.95	3.33	10.12	-27.1	-28.9	14.7	0.00e+00	0	42	0	287309824	14	4394
2026-01-28 04:50:10.95	3.20	10.18	-27.2	-29.0	14.6	2.20e-06	0	42	0	293601280	14	4422
2026-01-28 04:50:11.96	3.07	10.24	-27.1	-28.7	14.8	0.00e+00	0	42	0	298844160	14	4342
2026-01-28 04:50:12.96	2.93	10.30	-27.0	-28.5	14.9	0.00e+00	0	42	0	304087040	14	4287
2026-01-28 04:50:13.96	2.80	10.35	-26.9	-28.7	15.1	0.00e+00	0	42	0	310378496	13	4470
2026-01-28 04:50:14.97	2.66	10.41	-26.9	-28.9	15.0	0.00e+00	0	42	0	315621376	13	4511
2026-01-28 04:50:15.97	2.52	10.47	-26.8	-28.7	15.1	0.00e+00	0	42	0	320864256	13	4463
2026-01-28 04:50:16.97	2.38	10.53	-26.8	-28.7	15.1	0.00e+00	0	42	0	327155712	13	4450
2026-01-28 04:50:17.97	2.25	10.59	-26.9	-28.8	15.1	0.00e+00	0	42	0	332398592	13	4478
2026-01-28 04:50:18.98	2.11	10.65	-26.8	-28.6	15.2	0.00e+00	0	42	0	337641472	13	4428
2026-01-28 04:50:19.98	1.97	10.70	-26.8	-28.6	15.2	0.00e+00	0	42	0	343932928	13	4420
2026-01-28 04:50:20.98	1.83	10.76	-26.8	-28.7	15.1	0.00e+00	0	42	0	349175808	13	4456
2026-01-28 04:50:21.98	1.69	10.82	-26.9	-28.8	15.0	0.00e+00	0	42	0	355467264	13	4494
2026-01-28 04:50:22.99	1.55	10.88	-26.2	-28.0	14.6	1.10e-06	0	42	0	360710144	13	4431
2026-01-28 04:50:23.99	1.41	10.94	-26.4	-28.3	13.1	0.00e+00	0	42	0	367001600	13	4473
2026-01-28 04:50:24.99	1.27	11.00	-26.9	-28.9	14.9	0.00e+00	0	42	0	372244480	13	4528
2026-01-28 04:50:26.00	1.12	11.05	-26.9	-28.9	13.9	1.10e-06	0	42	0	377487360	13	4526
2026-01-28 04:50:27.01	0.98	11.11	-27.1	-28.8	14.8	0.00e+00	0	42	0	383778816	14	4367
2026-01-28 04:50:28.01	0.84	11.17	-27.3	-29.2	14.6	1.10e-06	0	42	0	389021696	14	4499
2026-01-28 04:50:29.01	0.69	11.23	-27.1	-28.7	14.9	1.53e-03	0	42	0	394264576	14	4346
2026-01-28 04:50:30.01	0.55	11.29	-26.9	-28.8	15.0	0.00e+00	0	42	0	400556032	13	4493
2026-01-28 04:50:31.01	0.40	11.34	-26.8	-28.7	15.1	0.00e+00	0	42	0	405798912	13	4455
2026-01-28 04:50:32.01	0.26	11.40	-26.9	-28.8	15.0	0.00e+00	0	42	0	411041792	13	4500
2026-01-28 04:50:33.01	0.11	11.46	-26.9	-28.9	15.0	0.00e+00	0	42	0	417333248	13	4507
2026-01-28 04:50:34.02	359.96	11.52	-26.9	-28.7	15.1	0.00e+00	0	42	0	422576128	13	4466
2026-01-28 04:50:35.02	359.82	11.58	-26.8	-28.7	15.1	1.10e-06	0	42	0	428867584	13	4458
2026-01-28 04:50:36.02	359.67	11.63	-26.8	-28.7	15.1	1.51e-03	0	42	0	434110464	13	4455
2026-01-28 04:50:37.02	359.52	11.69	-26.9	-28.8	15.1	1.10e-06	0	42	0	439353344	13	4490
2026-01-28 04:50:38.02	359.37	11.75	-26.8	-28.6	15.2	0.00e+00	0	42	0	445644800	13	4437
2026-01-28 04:50:39.02	359.22	11.81	-26.9	-28.8	15.1	0.00e+00	0	42	0	450887680	13	4472
2026-01-28 04:50:40.02	359.07	11.86	-27.0	-29.0	15.0	0.00e+00	0	42	0	456130560	13	4531
2026-01-28 04:50:41.02	358.92	11.92	-26.8	-28.6	15.2	1.42e-03	0	42	0	462422016	13	4430
2026-01-28 04:50:42.02	358.77	11.98	-26.7	-28.3	15.3	0.00e+00	0	42	0	467664896	13	4348
2026-01-28 04:50:43.03	358.61	12.04	-26.6	-28.2	15.4	1.48e-04	0	42	0	472907776	13	4317
2026-01-28 04:50:44.03	358.46	12.09	-26.7	-28.5	15.3	0.00e+00	0	42	0	479199232	13	4396
2026-01-28 04:50:45.04	358.31	12.15	-26.6	-28.0	15.5	1.41e-03	0	42	0	484442112	13	4270
2026-01-28 04:50:46.03	358.15	12.21	-26.8	-28.5	15.3	1.60e-04	0	42	0	490733568	13	4395
2026-01-28 04:50:47.04	358.00	12.26	-26.6	-28.2	15.5	1.42e-03	0	42	0	495976448	13	4309
2026-01-28 04:50:48.04	357.84	12.32	-26.5	-28.0	15.6	1.23e-03	0	42	0	502267904	13	4263
2026-01-28 04:50:49.04	357.69	12.38	-26.5	-27.9	15.6	0.00e+00	0	42	0	507510784	13	4243
2026-01-28 04:50:50.04	357.53	12.43	-26.4	-28.2	15.7	1.25e-03	0	42	0	512753664	12	4430
2026-01-28 04:50:51.05	357.37	12.49	-26.4	-28.3	15.7	0.00e+00	0	42	0	519045120	12	4456
2026-01-28 04:50:52.05	357.22	12.55	-26.4	-28.2	15.7	1.98e-04	0	42	0	524288000	12	4424
2026-01-28 04:50:53.04	357.06	12.60	-26.5	-28.0	15.6	1.34e-03	0	42	0	529530880	13	4255
2026-01-28 04:50:54.04	356.90	12.66	-26.6	-28.2	15.5	1.31e-03	0	43	0	535822336	13	4300
2026-01-28 04:50:55.05	356.74	12.72	-26.5	-28.0	15.6	1.61e-04	0	42	0	541065216	13	4248
2026-01-28 04:50:56.04	356.58	12.77	-26.4	-27.8	15.7	0.00e+00	0	42	0	546308096	13	4197
2026-01-28 04:50:57.05	356.42	12.83	-26.4	-28.3	15.7	1.17e-03	0	42	0	552599552	12	4452
2026-01-28 04:50:58.05	356.26	12.89	-26.4	-28.1	15.8	1.29e-04	0	42	0	557842432	12	4407
2026-01-28 04:50:59.05	356.09	12.94	-26.3	-28.0	15.9	1.05e-03	0	43	0	564133888	12	4375
2026-01-28 04:51:00.06	355.93	13.00	-26.4	-28.2	15.8	1.14e-03	0	42	0	569376768	12	4419
2026-01-28 04:51:01.07	355.77	13.05	-26.6	-28.1	15.5	9.49e-05	0	43	0	574619648	13	4292
2026-01-28 04:51:02.08	355.60	13.11	-26.7	-28.4	15.4	9.74e-04	0	42	0	580911104	13	4366
2026-01-28 04:51:03.08	355.44	13.17	-26.4	-27.7	15.8	0.00e+00	0	43	0	586153984	13	4182
2026-01-28 04:51:04.09	355.27	13.22	-26.2	-27.7	16.0	1.11e-04	0	43	0	592445440	12	4301
2026-01-28 04:51:05.08	355.10	13.28	-26.2	-27.7	16.1	0.00e+00	0	42	0	597688320	12	4283
2026-01-28 04:51:06.09	354.94	13.33	-26.2	-27.8	16.0	7.97e-04	0	43	0	602931200	12	4309
2026-01-28 04:51:07.09	354.77	13.39	-26.2	-27.8	16.0	1.40e-04	0	42	0	609222656	12	4321
2026-01-28 04:51:08.09	354.60	13.44	-26.4	-28.1	15.8	6.37e-04	0	43	0	614465536	12	4404
2026-01-28 04:51:09.09	354.43	13.50	-26.4	-28.3	15.8	8.82e-04	0	42	0	619708416	12	4444
2026-01-28 04:51:10.10	354.26	13.55	-26.5	-28.0	15.6	0.00e+00	0	42	0	625999872	13	4263
2026-01-28 04:51:11.10	354.09	13.61	-26.5	-28.0	15.6	8.73e-04	0	42	0	631242752	13	4269
2026-01-28 04:51:12.11	353.92	13.66	-26.5	-28.0	15.7	1.10e-06	0	43	0	637534208	13	4255
2026-01-28 04:51:13.12	353.75	13.72	-26.5	-27.9	15.7	1.68e-04	0	43	0	642777088	13	4236
2026-01-28 04:51:14.12	353.58	13.77	-26.3	-28.0	15.9	8.49e-04	0	42	0	648019968	12	4369
2026-01-28 04:51:15.12	353.41	13.82	-26.2	-27.9	16.0	0.00e+00	0	42	0	654311424	12	4337
2026-01-28 04:51:16.12	353.23	13.88	-26.3	-28.0	15.9	1.30e-04	0	42	0	659554304	12	4384
2026-01-28 04:51:17.13	353.06	13.93	-26.1	-27.5	16.2	0.00e+00	0	43	0	665845760	12	4231
2026-01-28 04:51:18.13	352.88	13.99	-25.9	-27.1	16.4	8.18e-04	0	43	0	671088640	12	4140
2026-01-28 04:51:19.14	352.71	14.04	-25.9	-27.0	16.5	0.00e+00	0	43	0	676331520	12	4114
2026-01-28 04:51:20.14	352.53	14.09	-26.0	-27.2	16.4	0.00e+00	0	43	0	682622976	12	4154
2026-01-28 04:51:21.13	352.36	14.14	-25.8	-26.9	16.6	0.00e+00	0	43	0	687865856	12	4066
2026-01-28 04:51:22.14	352.18	14.20	-25.7	-26.7	16.6	0.00e+00	0	43	0	693108736	12	4040
2026-01-28 04:51:23.14	352.00	14.25	-26.0	-27.7	16.5	3.27e-04	0	43	0	699400192	11	4399
2026-01-28 04:51:24.15	351.82	14.30	-25.9	-27.6	16.5	0.00e+00	0	43	0	704643072	11	4378
2026-01-28 04:51:25.16	351.64	14.36	-25.9	-27.1	16.4	0.00e+00	0	43	0	710934528	12	4134
2026-01-28 04:51:26.15	351.46	14.41	-26.0	-27.3	16.3	0.00e+00	0	42	0	716177408	12	4183
2026-01-28 04:51:27.15	351.28	14.46	-25.9	-27.2	16.4	0.00e+00	0	43	0	721420288	12	4157
2026-01-28 04:51:28.16	351.10	14.51	-26.0	-27.4	16.3	0.00e+00	0	43	0	727711744	12	4213
2026-01-28 04:51:29.16	350.92	14.57	-25.9	-27.1	16.4	0.00e+00	0	43	0	732954624	12	4120
2026-01-28 04:51:30.17	350.74	14.62	-25.9	-27.6	16.5	0.00e+00	0	42	0	738197504	11	4376
2026-01-28 04:51:31.17	350.56	14.67	-26.0	-27.7	16.5	0.00e+00	0	43	0	744488960	11	4393
2026-01-28 04:51:32.18	350.37	14.72	-26.0	-27.3	16.3	0.00e+00	0	43	0	749731840	12	4184
2026-01-28 04:51:33.19	350.18	14.77	-26.1	-27.6	16.2	0.00e+00	0	43	0	756023296	12	4252
2026-01-28 04:51:34.19	350.00	14.82	-26.0	-27.2	16.4	0.00e+00	0	43	0	761266176	12	4165
2026-01-28 04:51:35.20	349.81	14.87	-25.9	-27.1	16.5	0.00e+00	0	42	0	766509056	12	4128
2026-01-28 04:51:36.20	349.63	14.92	-26.0	-27.2	16.4	0.00e+00	0	43	0	772800512	12	4157
2026-01-28 04:51:37.21	349.44	14.98	-25.9	-27.1	16.5	0.00e+00	0	43	0	778043392	12	4132
2026-01-28 04:51:38.22	349.25	15.03	-26.0	-27.2	16.4	0.00e+00	0	43	0	784334848	12	4159
2026-01-28 04:51:39.22	349.06	15.08	-26.1	-27.6	16.2	0.00e+00	0	43	0	789577728	12	4256
2026-01-28 04:51:40.22	348.87	15.13	-26.1	-27.6	16.2	0.00e+00	0	43	0	794820608	12	4259
2026-01-28 04:51:41.23	348.68	15.17	-26.3	-28.0	16.0	0.00e+00	0	43	0	801112064	12	4370
2026-01-28 04:51:42.23	348.49	15.22	-26.1	-27.6	16.2	0.00e+00	0	43	0	806354944	12	4268
2026-01-28 04:51:43.23	348.30	15.27	-26.0	-27.3	16.4	0.00e+00	0	43	0	812646400	12	4179
2026-01-28 04:51:44.24	348.11	15.32	-25.9	-27.1	16.5	0.00e+00	0	43	0	817889280	12	4139
2026-01-28 04:51:45.24	347.92	15.37	-25.9	-27.5	16.6	0.00e+00	0	43	0	823132160	11	4352
2026-01-28 04:51:46.25	347.73	15.42	-25.8	-27.4	16.7	0.00e+00	0	43	0	829423616	11	4304
2026-01-28 04:51:47.25	347.53	15.47	-25.7	-27.2	16.8	0.00e+00	0	43	0	834666496	11	4257
2026-01-28 04:51:48.26	347.34	15.52	-25.7	-27.0	16.8	0.00e+00	0	43	0	839909376	11	4213
2026-01-28 04:51:49.26	347.14	15.56	-25.7	-27.1	16.8	0.00e+00	0	43	0	846200832	11	4246
2026-01-28 04:51:50.26	346.95	15.61	-25.6	-27.0	16.9	0.00e+00	0	43	0	851443712	11	4203
2026-01-28 04:51:51.26	346.75	15.66	-25.7	-27.0	16.8	0.00e+00	0	43	0	857735168	11	4217
2026-01-28 04:51:52.27	346.56	15.71	-25.7	-27.2	16.8	0.00e+00	0	43	0	862978048	11	4259
2026-01-28 04:51:53.27	346.36	15.75	-25.7	-27.1	16.8	0.00e+00	0	43	0	868220928	11	4247
2026-01-28 04:51:54.27	346.16	15.80	-25.7	-27.2	16.8	0.00e+00	0	43	0	874512384	11	4279
2026-01-28 04:51:55.27	345.97	15.84	-25.8	-27.3	16.7	0.00e+00	0	43	0	879755264	11	4282
2026-01-28 04:51:56.27	345.77	15.89	-25.8	-27.4	16.7	0.00e+00	0	43	0	884998144	11	4308
2026-01-28 04:51:57.28	345.57	15.94	-25.7	-27.1	16.8	0.00e+00	0	43	0	891289600	11	4241
2026-01-28 04:51:58.28	345.37	15.98	-25.7	-27.1	16.9	0.00e+00	0	43	0	896532480	11	4232
2026-01-28 04:51:59.28	345.17	16.03	-25.7	-27.1	16.8	0.00e+00	0	43	0	902823936	11	4242
2026-01-28 04:52:00.27	344.97	16.07	-25.7	-27.0	16.9	0.00e+00	0	43	0	908066816	11	4225
2026-01-28 04:52:01.28	344.76	16.12	-25.7	-27.1	16.8	0.00e+00	0	43	0	913309696	11	4230
2026-01-28 04:52:02.28	344.56	16.16	-25.5	-26.8	17.0	0.00e+00	0	43	0	919601152	11	4147
2026-01-28 04:52:03.28	344.36	16.20	-25.4	-26.6	17.1	0.00e+00	0	43	0	924844032	11	4108
2026-01-28 04:52:04.29	344.15	16.25	-25.4	-26.6	17.1	0.00e+00	0	43	0	931135488	11	4099
2026-01-28 04:52:05.29	343.95	16.29	-25.5	-26.6	17.1	0.00e+00	0	43	0	936378368	11	4119
2026-01-28 04:52:06.30	343.74	16.33	-25.5	-26.6	17.0	0.00e+00	0	43	0	941621248	11	4118
2026-01-28 04:52:07.30	343.54	16.38	-25.5	-26.8	17.0	0.00e+00	0	43	0	947912704	11	4150
2026-01-28 04:52:08.31	343.33	16.42	-25.6	-26.9	16.9	0.00e+00	0	43	0	953155584	11	4196
2026-01-28 04:52:09.31	343.13	16.46	-25.7	-27.1	16.8	0.00e+00	0	43	0	958398464	11	4241
2026-01-28 04:52:10.31	342.92	16.50	-25.4	-26.4	17.0	0.00e+00	0	43	0	964689920	11	4036
2026-01-28 04:52:11.31	342.71	16.55	-24.2	-25.4	14.4	0.00e+00	0	43	0	969932800	10	4145
2026-01-28 04:52:12.32	342.50	16.59	-25.3	-26.8	17.2	0.00e+00	0	43	0	976224256	10	4276
2026-01-28 04:52:13.32	342.29	16.63	-25.4	-26.9	14.2	0.00e+00	0	43	0	981467136	10	4304
2026-01-28 04:52:14.33	342.08	16.67	-25.4	-26.9	17.2	0.00e+00	0	43	0	986710016	10	4304
2026-01-28 04:52:15.33	341.87	16.71	-25.4	-26.9	17.2	0.00e+00	0	43	0	993001472	10	4306
2026-01-28 04:52:16.34	341.66	16.75	-25.3	-26.7	17.3	0.00e+00	0	43	0	998244352	10	4236
2026-01-28 04:52:17.34	341.45	16.79	-25.2	-26.5	17.4	1.27e-03	0	43	0	1004535808	10	4186
2026-01-28 04:52:18.34	341.24	16.83	-25.1	-26.3	17.5	0.00e+00	0	43	0	1009778688	10	4149
2026-01-28 04:52:19.35	341.02	16.87	-25.1	-26.4	17.4	0.00e+00	0	43	0	1015021568	10	4176
2026-01-28 04:52:20.35	340.81	16.91	-25.3	-26.7	17.3	1.39e-03	0	43	0	1021313024	10	4242
2026-01-28 04:52:21.35	340.60	16.94	-25.3	-26.7	17.3	0.00e+00	0	43	0	1026555904	10	4240
2026-01-28 04:52:22.36	340.38	16.98	-25.2	-26.7	17.3	1.48e-03	0	43	0	1031798784	10	4233
2026-01-28 04:52:23.36	340.17	17.02	-25.3	-26.8	17.3	0.00e+00	0	43	0	1038090240	10	4259
2026-01-28 04:52:24.36	339.95	17.06	-25.2	-26.6	17.3	5.83e-05	0	43	0	1043333120	10	4231
2026-01-28 04:52:25.37	339.74	17.09	-25.3	-26.7	17.3	0.00e+00	0	43	0	1049624576	10	4244
2026-01-28 04:52:26.37	339.52	17.13	-25.3	-26.8	17.3	0.00e+00	0	43	0	1054867456	10	4263
2026-01-28 04:52:27.38	339.30	17.17	-25.3	-26.9	17.2	2.74e-05	0	43	0	1061158912	10	4292
2026-01-28 04:52:28.39	339.08	17.20	-25.1	-26.4	17.4	1.41e-03	0	43	0	1066401792	10	4179
2026-01-28 04:52:29.39	338.86	17.24	-25.0	-26.2	17.6	1.45e-03	0	43	0	1071644672	10	4102
2026-01-28 04:52:30.40	338.64	17.27	-24.9	-25.9	17.7	0.00e+00	0	43	0	1077936128	10	4037
2026-01-28 04:52:31.41	338.42	17.31	-25.0	-26.0	17.7	1.48e-03	0	43	0	1083179008	10	4072
2026-01-28 04:52:32.41	338.21	17.34	-24.9	-26.5	17.6	1.44e-03	0	43	0	1088421888	9	4306
2026-01-28 04:52:33.41	337.99	17.38	-24.8	-26.2	17.8	2.86e-05	0	43	0	1094713344	9	4225
2026-01-28 04:52:34.42	337.76	17.41	-24.7	-26.1	17.9	1.37e-03	0	43	0	1099956224	9	4205
2026-01-28 04:52:35.43	337.54	17.44	-24.8	-26.2	17.8	1.29e-03	0	43	0	1105199104	9	4236
2026-01-28 04:52:36.43	337.32	17.48	-24.9	-26.3	17.7	0.00e+00	0	43	0	1111490560	9	4260
2026-01-28 04:52:37.43	337.10	17.51	-24.9	-26.4	17.7	0.00e+00	0	43	0	1116733440	9	4281
2026-01-28 04:52:38.44	336.87	17.54	-25.0	-26.0	17.7	1.36e-03	0	43	0	1123024896	10	4075
2026-01-28 04:52:39.45	336.65	17.57	-24.9	-25.9	17.8	0.00e+00	0	43	0	1128267776	10	4038
2026-01-28 04:52:40.46	336.43	17.60	-24.9	-26.4	17.7	1.38e-03	0	43	0	1134559232	9	4274
2026-01-28 04:52:41.46	336.20	17.64	-24.9	-26.5	17.7	1.30e-03	0	43	0	1139802112	9	4310
2026-01-28 04:52:42.46	335.98	17.67	-25.0	-26.2	17.6	0.00e+00	0	43	0	1145044992	10	4111
2026-01-28 04:52:43.46	335.75	17.70	-25.0	-26.2	17.6	1.38e-03	0	43	0	1151336448	10	4113
2026-01-28 04:52:44.47	335.53	17.72	-24.9	-26.0	17.7	0.00e+00	0	43	0	1156579328	10	4067
2026-01-28 04:52:45.47	335.30	17.75	-25.0	-26.0	17.7	0.00e+00	0	43	0	1161822208	10	4081
2026-01-28 04:52:46.48	335.07	17.78	-25.0	-26.2	17.6	1.21e-03	0	43	0	1168113664	10	4116
2026-01-28 04:52:47.48	334.85	17.81	-25.2	-26.5	17.4	1.29e-03	0	43	0	1173356544	10	4196
2026-01-28 04:52:48.49	334.62	17.84	-25.2	-26.7	17.4	0.00e+00	0	43	0	1179648000	10	4231
2026-01-28 04:52:49.49	334.39	17.87	-25.1	-26.4	17.5	0.00e+00	0	43	0	1184890880	10	4156
2026-01-28 04:52:50.49	334.17	17.89	-25.1	-26.4	17.5	1.29e-03	0	43	0	1190133760	10	4178
2026-01-28 04:52:51.50	333.94	17.92	-25.2	-26.6	17.4	0.00e+00	0	43	0	1196425216	10	4216
2026-01-28 04:52:52.50	333.71	17.95	-25.2	-26.5	17.4	1.29e-03	0	43	0	1201668096	10	4199
2026-01-28 04:52:53.50	333.48	17.97	-25.2	-26.6	17.3	0.00e+00	0	43	0	1207959552	10	4222
2026-01-28 04:52:54.51	333.25	18.00	-25.2	-26.5	17.4	0.00e+00	0	43	0	1213202432	10	4191
2026-01-28 04:52:55.51	333.02	18.02	-25.0	-26.0	17.7	0.00e+00	0	43	0	1218445312	10	4079
2026-01-28 04:52:56.52	332.79	18.04	-24.8	-25.8	17.8	0.00e+00	0	43	0	1224736768	10	4004
2026-01-28 04:52:57.52	332.56	18.07	-24.8	-25.7	17.8	0.00e+00	0	43	0	1229979648	10	3990
2026-01-28 04:52:58.52	332.33	18.09	-24.8	-26.2	17.8	0.00e+00	0	43	0	1235222528	9	4233
2026-01-28 04:52:59.52	332.10	18.11	-24.8	-26.2	17.8	1.21e-03	0	43	0	1241513984	9	4222
2026-01-28 04:53:00.53	331.86	18.14	-24.8	-26.2	17.8	0.00e+00	0	43	0	1246756864	9	4229
2026-01-28 04:53:01.53	331.63	18.16	-24.7	-26.1	17.9	0.00e+00	0	43	0	1253048320	9	4197
2026-01-28 04:53:02.54	331.40	18.18	-24.7	-26.0	17.9	0.00e+00	0	43	0	1258291200	9	4179
2026-01-28 04:53:03.54	331.17	18.20	-24.8	-26.2	17.8	0.00e+00	0	43	0	1263534080	9	4237
2026-01-28 04:53:04.54	330.93	18.22	-24.8	-26.1	17.9	0.00e+00	0	43	0	1269825536	9	4209
2026-01-28 04:53:05.54	330.70	18.24	-24.6	-25.7	18.1	0.00e+00	0	43	0	1275068416	9	4102
2026-01-28 04:53:06.55	330.47	18.26	-24.5	-25.7	18.1	0.00e+00	0	43	0	1281359872	9	4095
2026-01-28 04:53:07.55	330.23	18.28	-24.4	-25.4	18.2	0.00e+00	0	43	0	1286602752	9	4040
2026-01-28 04:53:08.56	330.00	18.30	-24.5	-25.7	18.1	0.00e+00	0	43	0	1291845632	9	4094
2026-01-28 04:53:09.56	329.76	18.32	-24.5	-25.5	18.2	0.00e+00	0	43	0	1298137088	9	4052
2026-01-28 04:53:10.56	329.53	18.33	-24.4	-25.4	18.3	0.00e+00	0	43	0	1303379968	9	4022
2026-01-28 04:53:11.57	329.29	18.35	-24.4	-25.4	18.2	0.00e+00	0	43	0	1308622848	9	4026
2026-01-28 04:53:12.57	329.06	18.37	-24.4	-25.4	18.2	0.00e+00	0	43	0	1314914304	9	4033
2026-01-28 04:53:13.57	328.82	18.38	-24.4	-25.4	18.2	0.00e+00	0	43	0	1320157184	9	4037
2026-01-28 04:53:14.57	328.59	18.40	-24.6	-25.7	18.1	0.00e+00	0	43	0	1325400064	9	4096
2026-01-28 04:53:15.58	328.35	18.42	-24.5	-25.5	18.2	0.00e+00	0	43	0	1331691520	9	4060
2026-01-28 04:53:16.58	328.11	18.43	-24.5	-25.6	18.1	0.00e+00	0	43	0	1336934400	9	4072
2026-01-28 04:53:17.58	327.88	18.44	-24.6	-25.8	18.1	0.00e+00	0	43	0	1343225856	9	4127
2026-01-28 04:53:18.59	327.64	18.46	-24.6	-25.7	18.1	0.00e+00	0	43	0	1348468736	9	4115
2026-01-28 04:53:19.59	327.40	18.47	-24.4	-25.3	18.2	0.00e+00	0	43	0	1354760192	9	4014
2026-01-28 04:53:20.59	327.17	18.48	-24.4	-25.4	18.2	0.00e+00	0	43	0	1360003072	9	4027
2026-01-28 04:53:21.60	326.93	18.50	-24.4	-25.4	18.2	0.00e+00	0	43	0	1365245952	9	4020
2026-01-28 04:53:22.60	326.69	18.51	-24.4	-25.4	18.2	0.00e+00	0	43	0	1371537408	9	4037
2026-01-28 04:53:23.61	326.45	18.52	-24.5	-25.7	18.1	0.00e+00	0	43	0	1376780288	9	4096
2026-01-28 04:53:24.61	326.21	18.53	-24.5	-25.5	18.2	0.00e+00	0	43	0	1382023168	9	4052
2026-01-28 04:53:25.61	325.98	18.54	-24.4	-25.3	18.3	0.00e+00	0	43	0	1388314624	9	4018
2026-01-28 04:53:26.61	325.74	18.55	-24.4	-25.4	18.3	0.00e+00	0	43	0	1393557504	9	4021
2026-01-28 04:53:27.62	325.50	18.56	-24.5	-25.5	18.1	0.00e+00	0	43	0	1398800384	9	4051
2026-01-28 04:53:28.62	325.26	18.57	-24.5	-25.5	18.2	0.00e+00	0	43	0	1405091840	9	4063
2026-01-28 04:53:29.62	325.02	18.58	-24.5	-25.6	18.1	0.00e+00	0	43	0	1410334720	9	4083
2026-01-28 04:53:30.62	324.78	18.58	-24.5	-25.6	18.1	0.00e+00	0	43	0	1416626176	9	4081
2026-01-28 04:53:31.63	324.54	18.59	-24.5	-25.6	18.1	0.00e+00	0	43	0	1421869056	9	4079
2026-01-28 04:53:32.63	324.30	18.60	-24.5	-25.5	18.2	0.00e+00	0	43	0	1428160512	9	4057
2026-01-28 04:53:33.64	324.06	18.60	-24.5	-25.6	18.2	0.00e+00	0	43	0	1433403392	9	4076
2026-01-28 04:53:34.64	323.82	18.61	-24.4	-25.5	18.2	0.00e+00	0	43	0	1438646272	9	4042
2026-01-28 04:53:35.65	323.58	18.61	-24.4	-25.4	18.2	0.00e+00	0	43	0	1444937728	9	4035
2026-01-28 04:53:36.65	323.35	18.62	-24.5	-25.5	18.2	0.00e+00	0	43	0	1450180608	9	4044
2026-01-28 04:53:37.66	323.10	18.62	-24.4	-25.3	18.3	0.00e+00	0	43	0	1455423488	9	4011
2026-01-28 04:53:38.66	322.86	18.63	-24.3	-25.1	18.4	0.00e+00	0	43	0	1461714944	9	3948
2026-01-28 04:53:39.66	322.63	18.63	-24.3	-25.0	18.4	0.00e+00	0	43	0	1466957824	9	3946
2026-01-28 04:53:40.65	322.39	18.63	-24.2	-25.4	18.5	0.00e+00	0	43	0	1472200704	8	4152
2026-01-28 04:53:41.66	322.15	18.63	-24.2	-25.4	18.5	0.00e+00	0	43	0	1478492160	8	4137
2026-01-28 04:53:42.66	321.91	18.63	-24.1	-25.2	18.6	0.00e+00	0	43	0	1483735040	8	4093
2026-01-28 04:53:43.67	321.67	18.63	-24.1	-25.2	18.5	0.00e+00	0	43	0	1490026496	8	4097
2026-01-28 04:53:44.67	321.43	18.64	-24.2	-25.5	18.4	0.00e+00	0	43	0	1495269376	8	4166
2026-01-28 04:53:45.67	321.19	18.63	-24.3	-25.6	18.4	0.00e+00	0	43	0	1500512256	8	4204
2026-01-28 04:53:46.67	320.95	18.63	-24.4	-25.8	18.2	0.00e+00	0	43	0	1506803712	8	4248
2026-01-28 04:53:47.68	320.71	18.63	-24.4	-25.8	18.3	0.00e+00	0	43	0	1512046592	8	4232
2026-01-28 04:53:48.68	320.47	18.63	-24.3	-25.7	18.3	0.00e+00	0	43	0	1518338048	8	4208
2026-01-28 04:53:49.68	320.23	18.63	-24.5	-26.0	18.2	1.34e-03	0	43	0	1523580928	8	4289
2026-01-28 04:53:50.68	319.99	18.63	-24.7	-26.0	17.9	0.00e+00	0	43	0	1528823808	9	4187
2026-01-28 04:53:51.68	319.75	18.62	-24.7	-26.0	17.9	1.26e-03	0	43	0	1535115264	9	4178
2026-01-28 04:53:52.69	319.51	18.62	-24.5	-25.7	18.1	0.00e+00	0	43	0	1540358144	9	4096
2026-01-28 04:53:53.69	319.27	18.61	-24.6	-25.8	18.0	0.00e+00	0	43	0	1545601024	9	4121
2026-01-28 04:53:54.69	319.03	18.61	-24.6	-25.8	18.0	6.87e-04	0	43	0	1551892480	9	4133
2026-01-28 04:53:55.70	318.79	18.60	-24.8	-26.1	17.8	0.00e+00	0	43	0	1557135360	9	4211
2026-01-28 04:53:56.71	318.55	18.60	-24.7	-25.9	17.9	2.39e-04	0	43	0	1563426816	9	4169
2026-01-28 04:53:57.71	318.31	18.59	-24.6	-25.7	18.1	0.00e+00	0	43	0	1568669696	9	4110
2026-01-28 04:53:58.71	318.07	18.59	-24.7	-25.9	18.0	6.53e-04	0	43	0	1573912576	9	4159
2026-01-28 04:53:59.72	317.83	18.58	-24.6	-25.8	18.0	0.00e+00	0	43	0	1580204032	9	4119
2026-01-28 04:54:00.72	317.60	18.57	-24.5	-25.6	18.1	0.00e+00	0	43	0	1585446912	9	4090
2026-01-28 04:54:01.72	317.36	18.56	-24.6	-25.7	18.0	8.59e-04	0	43	0	1590689792	9	4114
2026-01-28 04:54:02.72	317.12	18.55	-24.4	-25.3	18.2	0.00e+00	0	43	0	1596981248	9	4018
2026-01-28 04:54:03.72	316.88	18.54	-24.4	-25.4	18.2	8.85e-04	0	43	0	1602224128	9	4040
2026-01-28 04:54:04.73	316.64	18.53	-24.3	-25.1	18.4	0.00e+00	0	43	0	1608515584	9	3944
2026-01-28 04:54:05.73	316.40	18.52	-24.2	-25.4	18.4	2.41e-04	0	43	0	1613758464	8	4146
2026-01-28 04:54:06.73	316.17	18.51	-24.3	-25.6	18.4	9.90e-04	0	43	0	1619001344	8	4188
2026-01-28 04:54:07.74	315.93	18.50	-24.3	-25.6	18.3	1.04e-03	0	43	0	1625292800	8	4203
2026-01-28 04:54:08.74	315.69	18.49	-24.4	-25.8	18.3	1.85e-04	0	43	0	1630535680	8	4241
2026-01-28 04:54:09.74	315.45	18.48	-24.4	-25.9	18.2	0.00e+00	0	43	0	1636827136	8	4267
2026-01-28 04:54:10.74	315.22	18.46	-24.3	-25.6	18.3	1.15e-03	0	43	0	1642070016	8	4198
2026-01-28 04:54:11.75	314.98	18.45	-24.1	-25.3	18.5	2.48e-04	0	43	0	1647312896	8	4111
2026-01-28 04:54:12.76	314.74	18.43	-24.2	-25.4	18.4	1.17e-03	0	43	0	1653604352	8	4144
2026-01-28 04:54:13.77	314.50	18.42	-24.2	-25.3	18.4	1.07e-03	0	43	0	1658847232	8	4123
2026-01-28 04:54:14.77	314.27	18.41	-24.2	-25.4	18.4	1.89e-04	0	43	0	1664090112	8	4140
2026-01-28 04:54:15.78	314.03	18.39	-24.3	-25.7	18.3	8.71e-04	0	43	0	1670381568	8	4217
2026-01-28 04:54:16.79	313.79	18.37	-24.3	-25.6	18.3	1.02e-03	0	43	0	1675624448	8	4193
2026-01-28 04:54:17.80	313.55	18.36	-24.3	-25.7	18.3	1.20e-04	0	43	0	1681915904	8	4220
2026-01-28 04:54:18.80	313.32	18.34	-24.3	-25.7	18.3	0.00e+00	0	43	0	1687158784	8	4224
2026-01-28 04:54:19.80	313.08	18.32	-24.5	-26.0	18.1	1.20e-03	0	43	0	1692401664	8	4303
2026-01-28 04:54:20.80	312.85	18.30	-24.4	-25.5	18.2	1.42e-04	0	43	0	1698693120	9	4042
2026-01-28 04:54:21.80	312.62	18.29	-24.5	-25.5	18.1	1.22e-03	0	43	0	1703936000	9	4059
2026-01-28 04:54:22.80	312.38	18.27	-24.5	-25.5	18.1	1.10e-03	0	43	0	1710227456	9	4068
2026-01-28 04:54:23.81	312.15	18.25	-24.4	-25.4	18.2	0.00e+00	0	43	0	1715470336	9	4031
2026-01-28 04:54:24.81	311.91	18.23	-24.5	-25.5	18.1	1.13e-03	0	43	0	1720713216	9	4053
2026-01-28 04:54:25.81	311.68	18.21	-24.4	-25.4	18.2	0.00e+00	0	43	0	1727004672	9	4040
2026-01-28 04:54:26.81	311.45	18.19	-24.5	-25.5	18.1	1.14e-05	0	43	0	1732247552	9	4057
2026-01-28 04:54:27.81	311.22	18.17	-24.5	-25.6	18.1	1.21e-03	0	43	0	1737490432	9	4076
2026-01-28 04:54:28.82	310.98	18.14	-24.5	-25.6	18.1	6.76e-04	0	43	0	1743781888	9	4066
2026-01-28 04:54:29.82	310.75	18.12	-24.5	-25.7	18.0	2.86e-05	0	43	0	1749024768	9	4096
2026-01-28 04:54:30.82	310.52	18.10	-24.6	-25.7	18.0	0.00e+00	0	43	0	1754267648	9	4115
2026-01-28 04:54:31.83	310.29	18.08	-24.6	-25.8	18.0	1.06e-03	0	43	0	1760559104	9	4131
2026-01-28 04:54:32.82	310.06	18.05	-24.8	-26.1	17.8	0.00e+00	0	43	0	1765801984	9	4220
2026-01-28 04:54:33.83	309.83	18.03	-24.7	-26.0	17.8	9.38e-04	0	43	0	1772093440	9	4188
2026-01-28 04:54:34.83	309.60	18.00	-24.7	-25.9	17.9	0.00e+00	0	43	0	1777336320	9	4153
2026-01-28 04:54:35.84	309.36	17.98	-24.6	-25.9	17.9	0.00e+00	0	43	0	1783627776	9	4150
2026-01-28 04:54:36.85	309.13	17.95	-24.7	-25.9	17.9	0.00e+00	0	43	0	1788870656	9	4156
2026-01-28 04:54:37.85	308.91	17.93	-24.6	-25.9	17.9	0.00e+00	0	43	0	1794113536	9	4149
2026-01-28 04:54:38.86	308.67	17.90	-24.7	-26.0	17.8	0.00e+00	0	43	0	1800404992	9	4189
2026-01-28 04:54:39.86	308.45	17.87	-24.6	-25.9	17.9	0.00e+00	0	43	0	1805647872	9	4144
2026-01-28 04:54:40.87	308.22	17.85	-24.6	-25.7	17.9	0.00e+00	0	43	0	1810890752	9	4118
2026-01-28 04:54:41.88	307.99	17.82	-24.7	-26.0	17.8	0.00e+00	0	43	0	1817182208	9	4192
2026-01-28 04:54:42.88	307.76	17.79	-24.7	-26.1	17.8	0.00e+00	0	43	0	1822425088	9	4196
2026-01-28 04:54:43.89	307.53	17.76	-24.8	-26.3	17.7	0.00e+00	0	43	0	1828716544	9	4260
2026-01-28 04:54:44.89	307.31	17.73	-25.0	-26.6	17.5	0.00e+00	0	43	0	1833959424	9	4331
2026-01-28 04:54:45.90	307.08	17.70	-25.0	-26.2	17.5	0.00e+00	0	43	0	1839202304	10	4116
2026-01-28 04:54:46.90	306.86	17.67	-25.0	-26.2	17.5	0.00e+00	0	43	0	1845493760	10	4133
2026-01-28 04:54:47.90	306.63	17.64	-25.1	-26.4	17.4	0.00e+00	0	43	0	1850736640	10	4175
2026-01-28 04:54:48.90	306.41	17.61	-24.9	-25.9	17.6	0.00e+00	0	43	0	1857028096	10	4039
2026-01-28 04:54:49.91	306.18	17.58	-24.7	-25.5	17.8	0.00e+00	0	43	0	1862270976	10	3940
2026-01-28 04:54:50.91	305.96	17.55	-24.7	-25.5	17.8	0.00e+00	0	43	0	1867513856	10	3940
2026-01-28 04:54:51.91	305.74	17.52	-24.7	-26.1	17.8	0.00e+00	0	43	0	1873805312	9	4195
2026-01-28 04:54:52.92	305.51	17.49	-24.6	-25.8	17.9	0.00e+00	0	43	0	1879048192	9	4140
2026-01-28 04:54:53.92	305.29	17.45	-24.6	-25.8	17.9	0.00e+00	0	43	0	1884291072	9	4123
2026-01-28 04:54:54.92	305.07	17.42	-24.6	-25.7	18.0	0.00e+00	0	43	0	1890582528	9	4103
2026-01-28 04:54:55.93	304.85	17.39	-24.7	-26.1	17.8	0.00e+00	0	43	0	1895825408	9	4194
2026-01-28 04:54:56.93	304.63	17.35	-24.5	-25.7	18.0	0.00e+00	0	43	0	1902116864	9	4094
2026-01-28 04:54:57.94	304.41	17.32	-24.5	-25.5	18.1	0.00e+00	0	43	0	1907359744	9	4056
2026-01-28 04:54:58.94	304.19	17.28	-24.5	-25.6	18.0	0.00e+00	0	43	0	1912602624	9	4089
2026-01-28 04:54:59.94	303.97	17.25	-24.6	-25.9	17.9	0.00e+00	0	43	0	1918894080	9	4147
2026-01-28 04:55:00.95	303.75	17.21	-24.7	-26.1	17.7	0.00e+00	0	43	0	1924136960	9	4202
2026-01-28 04:55:01.95	303.53	17.18	-24.7	-26.1	17.7	0.00e+00	0	43	0	1930428416	9	4210
2026-01-28 04:55:02.95	303.31	17.14	-24.7	-26.0	17.8	0.00e+00	0	43	0	1935671296	9	4178
2026-01-28 04:55:03.96	303.10	17.11	-24.7	-26.0	17.8	0.00e+00	0	43	0	1940914176	9	4174
2026-01-28 04:55:04.97	302.88	17.07	-24.8	-26.3	17.6	0.00e+00	0	43	0	1947205632	9	4255
2026-01-28 04:55:05.97	302.66	17.03	-24.7	-26.1	17.7	0.00e+00	0	43	0	1952448512	9	4200
2026-01-28 04:55:06.97	302.45	16.99	-24.8	-26.3	17.6	0.00e+00	0	43	0	1957691392	9	4268
2026-01-28 04:55:07.98	302.23	16.96	-24.8	-26.1	17.7	0.00e+00	0	43	0	1963982848	9	4219
2026-01-28 04:55:08.99	302.01	16.92	-24.7	-26.1	17.7	0.00e+00	0	43	0	1969225728	9	4200
2026-01-28 04:55:09.99	301.80	16.88	-24.5	-25.7	17.9	0.00e+00	0	43	0	1975517184	9	4094
2026-01-28 04:55:10.99	301.59	16.84	-24.6	-25.8	17.8	0.00e+00	0	43	0	1980760064	9	4136
2026-01-28 04:55:11.99	301.38	16.80	-24.8	-26.3	17.6	0.00e+00	0	43	0	1986002944	9	4260
2026-01-28 04:55:13.00	301.16	16.76	-24.8	-26.2	17.7	0.00e+00	0	43	0	1992294400	9	4235
2026-01-28 04:55:14.00	300.95	16.72	-24.8	-26.2	17.7	0.00e+00	0	43	0	1997537280	9	4229
2026-01-28 04:55:15.02	300.74	16.68	-24.8	-26.2	17.6	0.00e+00	0	43	0	2003828736	9	4241
2026-01-28 04:55:16.02	300.53	16.64	-24.8	-26.2	17.6	0.00e+00	0	43	0	2009071616	9	4227
2026-01-28 04:55:17.02	300.32	16.60	-24.9	-26.4	17.5	0.00e+00	0	43	0	2014314496	9	4287
2026-01-28 04:55:18.02	300.11	16.56	-25.0	-26.2	17.4	0.00e+00	0	43	0	2020605952	10	4122
2026-01-28 04:55:19.02	299.90	16.52	-25.0	-26.1	17.4	0.00e+00	0	43	0	2025848832	10	4099
2026-01-28 04:55:20.02	299.69	16.47	-25.0	-26.1	17.4	0.00e+00	0	43	0	2031091712	10	4099
2026-01-28 04:55:21.03	299.49	16.43	-25.0	-26.1	17.4	0.00e+00	0	43	0	2037383168	10	4110
2026-01-28 04:55:22.02	299.28	16.39	-24.9	-26.0	17.5	0.00e+00	0	43	0	2042626048	10	4065
2026-01-28 04:55:23.03	299.07	16.35	-25.0	-26.6	17.4	0.00e+00	0	43	0	2048917504	9	4337
2026-01-28 04:55:24.03	298.87	16.30	-25.0	-26.1	17.3	0.00e+00	0	43	0	2054160384	10	4088
2026-01-28 04:55:25.03	298.66	16.26	-25.0	-26.4	16.4	0.00e+00	0	43	0	2060451840	10	4212
2026-01-28 04:55:26.04	298.46	16.22	-25.2	-26.6	16.3	0.00e+00	0	43	0	2065694720	10	4223
2026-01-28 04:55:27.04	298.25	16.17	-25.3	-26.8	16.4	0.00e+00	0	43	0	2070937600	10	4279
2026-01-28 04:55:28.05	298.05	16.13	-25.3	-26.7	17.0	0.00e+00	0	43	0	2077229056	10	4263
2026-01-28 04:55:29.05	297.85	16.08	-25.3	-26.8	17.0	0.00e+00	0	43	0	2082471936	10	4273
2026-01-28 04:55:30.05	297.65	16.04	-25.4	-27.0	16.9	0.00e+00	0	43	0	2087714816	10	4330
2026-01-28 04:55:31.06	297.44	15.99	-25.1	-26.5	17.2	9.28e-04	0	43	0	2094006272	10	4193
2026-01-28 04:55:32.06	297.24	15.95	-25.3	-26.9	17.0	0.00e+00	0	43	0	2099249152	10	4299
2026-01-28 04:55:33.06	297.04	15.90	-25.2	-26.5	17.1	0.00e+00	0	43	0	2104492032	10	4212
2026-01-28 04:55:34.07	296.84	15.86	-25.2	-26.5	17.2	0.00e+00	0	43	0	2110783488	10	4203
2026-01-28 04:55:35.07	296.64	15.81	-25.2	-26.7	17.1	0.00e+00	0	43	0	2116026368	10	4241
2026-01-28 04:55:36.08	296.44	15.76	-25.1	-26.4	17.2	4.11e-05	0	43	0	2122317824	10	4173
2026-01-28 04:55:37.08	296.25	15.72	-25.1	-26.4	17.2	0.00e+00	0	43	0	2127560704	10	4170
2026-01-28 04:55:38.08	296.05	15.67	-25.2	-26.6	17.1	5.70e-06	0	43	0	2133852160	10	4230
2026-01-28 04:55:39.08	295.85	15.62	-25.1	-26.3	17.2	0.00e+00	0	43	0	2139095040	10	4147
2026-01-28 04:55:40.08	295.66	15.57	-25.0	-26.2	17.3	1.07e-03	0	43	0	2144337920	10	4122
2026-01-28 04:55:41.08	295.46	15.53	-25.1	-26.4	17.2	0.00e+00	0	43	0	2150629376	10	4167
2026-01-28 04:55:42.09	295.27	15.48	-25.1	-26.4	17.2	1.14e-03	0	43	0	2155872256	10	4167
2026-01-28 04:55:43.10	295.07	15.43	-25.2	-26.7	17.1	1.07e-03	0	43	0	2161115136	10	4241
2026-01-28 04:55:44.10	294.88	15.38	-25.1	-26.5	17.2	0.00e+00	0	43	0	2167406592	10	4194
2026-01-28 04:55:45.11	294.68	15.33	-25.2	-26.6	17.1	1.16e-03	0	43	0	2172649472	10	4230
2026-01-28 04:55:46.12	294.49	15.28	-25.3	-26.7	17.0	0.00e+00	0	43	0	2177892352	10	4263
2026-01-28 04:55:47.12	294.30	15.23	-25.5	-26.8	16.7	1.98e-04	0	43	0	2184183808	11	4164
2026-01-28 04:55:48.13	294.11	15.18	-25.4	-26.4	16.9	1.56e-03	0	43	0	2189426688	11	4078
2026-01-28 04:55:49.13	293.92	15.13	-25.3	-26.8	16.9	1.56e-03	0	43	0	2195718144	10	4278
2026-01-28 04:55:50.13	293.73	15.09	-25.3	-26.7	17.0	2.92e-04	0	43	0	2200961024	10	4257
2026-01-28 04:55:51.13	293.54	15.04	-25.1	-26.4	17.1	1.54e-03	0	43	0	2207252480	10	4176
2026-01-28 04:55:52.13	293.35	14.99	-25.1	-26.5	17.1	1.41e-03	0	43	0	2212495360	10	4192
2026-01-28 04:55:53.14	293.16	14.93	-25.3	-26.9	16.9	1.32e-04	0	43	0	2217738240	10	4295
2026-01-28 04:55:54.14	292.98	14.88	-25.3	-26.8	16.9	1.25e-03	0	43	0	2224029696	10	4277
2026-01-28 04:55:55.14	292.79	14.83	-25.4	-27.1	16.8	1.24e-03	0	43	0	2229272576	10	4351
2026-01-28 04:55:56.14	292.61	14.78	-25.4	-27.0	16.8	1.19e-04	0	43	0	2234515456	10	4346
2026-01-28 04:55:57.15	292.42	14.73	-25.4	-27.0	16.8	1.14e-03	0	43	0	2240806912	10	4349
2026-01-28 04:55:58.15	292.24	14.68	-25.5	-27.1	16.7	1.12e-03	0	43	0	2246049792	10	4376
2026-01-28 04:55:59.15	292.05	14.63	-25.4	-26.9	16.9	0.00e+00	0	43	0	2251292672	10	4317
2026-01-28 04:56:00.16	291.87	14.58	-25.4	-27.0	16.8	0.00e+00	0	43	0	2257584128	10	4344
2026-01-28 04:56:01.17	291.68	14.52	-25.3	-26.8	16.9	1.15e-03	0	43	0	2262827008	10	4285
2026-01-28 04:56:02.17	291.50	14.47	-25.4	-27.0	16.8	0.00e+00	0	43	0	2269118464	10	4322
2026-01-28 04:56:03.17	291.32	14.42	-25.5	-26.8	16.7	1.22e-03	0	43	0	2274361344	11	4157
2026-01-28 04:56:04.17	291.14	14.37	-25.5	-26.7	16.7	1.31e-03	0	43	0	2279604224	11	4136
2026-01-28 04:56:05.18	290.96	14.31	-25.5	-26.7	16.6	0.00e+00	0	43	0	2285895680	11	4154
2026-01-28 04:56:06.18	290.78	14.26	-25.6	-26.9	16.5	1.30e-03	0	43	0	2291138560	11	4187
2026-01-28 04:56:07.18	290.60	14.21	-25.5	-26.6	16.7	0.00e+00	0	43	0	2297430016	11	4127
2026-01-28 04:56:08.18	290.43	14.16	-25.5	-26.8	16.6	0.00e+00	0	43	0	2302672896	11	4156
2026-01-28 04:56:09.19	290.25	14.10	-25.6	-27.1	16.5	0.00e+00	0	43	0	2307915776	11	4244
2026-01-28 04:56:10.20	290.07	14.05	-25.8	-27.3	16.3	0.00e+00	0	43	0	2314207232	11	4306
2026-01-28 04:56:11.19	289.90	14.00	-25.7	-27.3	16.3	3.40e-06	0	43	0	2319450112	11	4296
2026-01-28 04:56:12.20	289.72	13.94	-25.7	-27.2	16.3	0.00e+00	0	43	0	2324692992	11	4293
2026-01-28 04:56:13.20	289.54	13.89	-25.8	-27.3	16.3	1.50e-03	0	43	0	2330984448	11	4309
2026-01-28 04:56:14.20	289.37	13.83	-25.6	-27.0	16.4	0.00e+00	0	43	0	2336227328	11	4238
2026-01-28 04:56:15.20	289.20	13.78	-25.6	-26.9	16.5	1.46e-03	0	43	0	2342518784	11	4199
2026-01-28 04:56:16.21	289.02	13.72	-25.6	-27.0	16.5	0.00e+00	0	43	0	2347761664	11	4210
2026-01-28 04:56:17.21	288.85	13.67	-25.5	-26.7	16.6	0.00e+00	0	43	0	2353004544	11	4153
2026-01-28 04:56:18.21	288.68	13.62	-25.6	-27.1	16.4	1.41e-03	0	43	0	2359296000	11	4244
2026-01-28 04:56:19.21	288.51	13.56	-25.5	-26.9	16.5	0.00e+00	0	43	0	2364538880	11	4195
2026-01-28 04:56:20.21	288.34	13.51	-25.6	-26.9	16.5	0.00e+00	0	43	0	2369781760	11	4201
2026-01-28 04:56:21.22	288.17	13.45	-25.5	-26.8	16.6	0.00e+00	0	43	0	2376073216	11	4161
2026-01-28 04:56:22.22	288.00	13.40	-25.5	-26.8	16.5	0.00e+00	0	43	0	2381316096	11	4183
2026-01-28 04:56:23.22	287.83	13.34	-25.6	-27.1	16.3	0.00e+00	0	43	0	2386558976	11	4236
2026-01-28 04:56:24.23	287.66	13.29	-25.8	-27.3	16.2	0.00e+00	0	43	0	2392850432	11	4311
2026-01-28 04:56:25.23	287.50	13.23	-25.8	-27.5	16.1	0.00e+00	0	43	0	2398093312	11	4356
2026-01-28 04:56:26.22	287.33	13.18	-25.9	-27.7	16.0	0.00e+00	0	43	0	2404384768	11	4411
2026-01-28 04:56:27.23	287.17	13.12	-25.9	-27.3	15.9	0.00e+00	0	43	0	2409627648	12	4199
2026-01-28 04:56:28.23	287.00	13.06	-26.0	-27.3	15.9	0.00e+00	0	43	0	2415919104	12	4206
2026-01-28 04:56:29.24	286.84	13.01	-26.0	-27.4	15.8	0.00e+00	0	43	0	2421161984	12	4238
2026-01-28 04:56:30.24	286.67	12.95	-26.0	-27.3	15.9	0.00e+00	0	43	0	2426404864	12	4190
2026-01-28 04:56:31.25	286.51	12.89	-26.0	-27.5	15.7	0.00e+00	0	43	0	2432696320	12	4247
2026-01-28 04:56:32.26	286.34	12.84	-25.8	-26.9	16.1	0.00e+00	0	43	0	2437939200	12	4098
2026-01-28 04:56:33.26	286.18	12.78	-25.7	-27.2	16.3	0.00e+00	0	43	0	2443182080	11	4271
2026-01-28 04:56:34.27	286.02	12.72	-25.9	-27.7	16.0	0.00e+00	0	43	0	2449473536	11	4409
2026-01-28 04:56:35.28	285.86	12.67	-26.0	-27.8	15.9	0.00e+00	0	43	0	2454716416	11	4455
2026-01-28 04:56:36.28	285.70	12.61	-26.2	-27.8	15.6	0.00e+00	0	43	0	2461007872	12	4336
2026-01-28 04:56:37.29	285.54	12.55	-26.3	-28.2	15.4	0.00e+00	0	43	0	2466250752	12	4435
2026-01-28 04:56:38.29	285.38	12.50	-26.1	-27.6	15.6	0.00e+00	0	43	0	2471493632	12	4288
2026-01-28 04:56:39.29	285.22	12.44	-26.1	-27.7	15.6	0.00e+00	0	43	0	2477785088	12	4296
2026-01-28 04:56:40.29	285.06	12.38	-26.2	-27.7	15.6	0.00e+00	0	43	0	2483027968	12	4309
2026-01-28 04:56:41.29	284.91	12.33	-26.1	-27.7	15.6	0.00e+00	0	43	0	2489319424	12	4312
2026-01-28 04:56:42.30	284.75	12.27	-26.3	-28.1	15.4	0.00e+00	0	43	0	2494562304	12	4405
2026-01-28 04:56:43.30	284.59	12.21	-26.3	-28.1	15.4	0.00e+00	0	43	0	2499805184	12	4423
2026-01-28 04:56:44.31	284.44	12.16	-26.4	-28.2	15.3	0.00e+00	0	43	0	2506096640	12	4456
2026-01-28 04:56:45.31	284.28	12.10	-26.8	-28.7	14.7	0.00e+00	0	43	0	2511339520	13	4488
2026-01-28 04:56:46.31	284.13	12.04	-27.1	-28.9	14.3	4.50e-06	0	43	0	2516582400	14	4436
2026-01-28 04:56:47.32	283.98	11.98	-26.8	-28.1	14.8	1.10e-06	0	43	0	2522873856	14	4203
2026-01-28 04:56:48.32	283.82	11.93	-26.4	-27.9	15.2	0.00e+00	0	43	0	2528116736	13	4247
2026-01-28 04:56:49.33	283.67	11.87	-26.2	-27.9	15.5	0.00e+00	0	43	0	2533359616	12	4372
2026-01-28 04:56:50.33	283.52	11.81	-26.1	-27.7	15.6	0.00e+00	0	43	0	2539651072	12	4294
2026-01-28 04:56:51.33	283.37	11.75	-26.2	-27.9	15.5	1.10e-06	0	43	0	2544893952	12	4354
2026-01-28 04:56:52.34	283.22	11.69	-26.2	-27.9	15.4	0.00e+00	0	43	0	2551185408	12	4377
2026-01-28 04:56:53.34	283.07	11.64	-26.3	-28.1	15.3	0.00e+00	0	43	0	2556428288	12	4433
2026-01-28 04:56:54.34	282.92	11.58	-26.3	-28.1	15.3	0.00e+00	0	43	0	2562719744	12	4418
2026-01-28 04:56:55.34	282.77	11.52	-26.4	-28.2	15.3	0.00e+00	0	43	0	2567962624	12	4464
2026-01-28 04:56:56.35	282.62	11.46	-26.3	-28.2	15.3	0.00e+00	0	43	0	2573205504	12	4442
2026-01-28 04:56:57.36	282.47	11.40	-26.5	-28.4	15.2	0.00e+00	0	43	0	2579496960	12	4513
2026-01-28 04:56:58.36	282.33	11.35	-26.6	-28.1	15.1	0.00e+00	0	43	0	2584739840	13	4317
2026-01-28 04:56:59.36	282.18	11.29	-26.5	-28.1	15.1	0.00e+00	0	43	0	2589982720	13	4306
2026-01-28 04:57:00.35	282.04	11.23	-26.4	-27.8	15.2	0.00e+00	0	43	0	2596274176	13	4232
2026-01-28 04:57:01.36	281.89	11.17	-26.5	-28.1	15.1	0.00e+00	0	43	0	2601517056	13	4299
2026-01-28 04:57:02.36	281.75	11.11	-26.6	-28.3	14.9	1.10e-06	0	43	0	2606759936	13	4368
2026-01-28 04:57:03.37	281.60	11.06	-26.7	-28.5	14.8	3.40e-06	0	43	0	2613051392	13	4435
2026-01-28 04:57:04.37	281.46	11.00	-26.7	-28.5	14.8	1.10e-06	0	43	0	2618294272	13	4429
2026-01-28 04:57:05.37	281.32	10.94	-26.7	-28.5	14.8	1.10e-06	0	43	0	2624585728	13	4432
2026-01-28 04:57:06.38	281.17	10.88	-25.6	-27.5	14.3	1.10e-06	0	43	0	2629828608	12	4462
2026-01-28 04:57:07.38	281.03	10.82	-26.4	-28.4	14.1	0.00e+00	0	43	0	2636120064	12	4512
2026-01-28 04:57:08.38	280.89	10.76	-26.6	-28.3	13.3	0.00e+00	0	43	0	2641362944	13	4362
2026-01-28 04:57:09.38	280.75	10.71	-26.6	-28.3	14.7	2.20e-06	0	43	0	2646605824	13	4380
2026-01-28 04:57:10.39	280.61	10.65	-26.4	-28.4	15.1	1.10e-06	0	43	0	2652897280	12	4498
2026-01-28 04:57:11.39	280.47	10.59	-26.5	-28.1	15.0	0.00e+00	0	43	0	2658140160	13	4308
2026-01-28 04:57:12.39	280.33	10.53	-26.8	-28.7	14.6	1.92e-03	0	43	0	2663383040	13	4489
2026-01-28 04:57:13.39	280.20	10.47	-26.9	-28.9	14.5	1.10e-06	0	43	0	2669674496	13	4546
2026-01-28 04:57:14.40	280.06	10.41	-26.7	-28.5	14.7	0.00e+00	0	43	0	2674917376	13	4433
2026-01-28 04:57:15.39	279.92	10.36	-26.7	-28.4	14.8	0.00e+00	0	43	0	2680160256	13	4393
2026-01-28 04:57:16.40	279.78	10.30	-26.7	-28.4	14.8	0.00e+00	0	43	0	2686451712	13	4397
2026-01-28 04:57:17.41	279.65	10.24	-26.7	-28.5	14.7	1.95e-03	0	43	0	2691694592	13	4420
2026-01-28 04:57:18.41	279.51	10.18	-26.6	-28.3	14.8	0.00e+00	0	43	0	2697986048	13	4366
2026-01-28 04:57:19.41	279.38	10.12	-26.4	-27.9	15.0	1.74e-04	0	43	0	2703228928	13	4253
2026-01-28 04:57:20.41	279.24	10.06	-26.4	-28.3	15.1	0.00e+00	0	43	0	2708471808	12	4473
2026-01-28 04:57:21.41	279.11	10.00	-26.4	-28.4	15.0	0.00e+00	0	43	0	2714763264	12	4512
2026-01-28 04:57:22.42	278.98	9.94	-26.5	-28.5	15.0	0.00e+00	0	43	0	2720006144	12	4528
2026-01-28 04:57:23.42	278.84	9.89	-26.7	-28.5	14.7	0.00e+00	0	43	0	2725249024	13	4415
2026-01-28 04:57:24.42	278.71	9.83	-26.8	-28.7	14.6	2.15e-03	0	43	0	2731540480	13	4481
2026-01-28 04:57:25.42	278.58	9.77	-26.8	-28.6	14.6	0.00e+00	0	43	0	2736783360	13	4469
2026-01-28 04:57:26.43	278.45	9.71	-26.7	-28.6	14.6	2.11e-03	0	43	0	2743074816	13	4446
2026-01-28 04:57:27.42	278.32	9.65	-26.5	-28.0	14.9	0.00e+00	0	43	0	2748317696	13	4283
2026-01-28 04:57:28.42	278.19	9.59	-26.5	-28.4	15.0	1.10e-06	0	43	0	2753560576	12	4523
2026-01-28 04:57:29.42	278.06	9.53	-26.5	-28.1	14.9	2.07e-03	0	43	0	2759852032	13	4313
2026-01-28 04:57:30.42	277.93	9.48	-26.6	-28.2	14.8	0.00e+00	0	43	0	2765094912	13	4338
2026-01-28 04:57:31.42	277.81	9.42	-26.6	-28.2	14.8	3.55e-04	0	43	0	2770337792	13	4331
2026-01-28 04:57:32.42	277.68	9.36	-26.6	-28.3	14.7	0.00e+00	0	43	0	2776629248	13	4389
2026-01-28 04:57:33.41	277.55	9.30	-26.7	-28.5	14.6	2.32e-03	0	43	0	2781872128	13	4438
2026-01-28 04:57:34.42	277.42	9.24	-26.8	-28.8	14.4	6.23e-04	0	43	0	2787115008	13	4520
2026-01-28 04:57:35.42	277.30	9.18	-26.9	-29.0	14.3	2.41e-03	0	43	0	2793406464	13	4568
2026-01-28 04:57:36.42	277.17	9.12	-26.7	-28.6	14.5	2.35e-03	0	43	0	2798649344	13	4474
2026-01-28 04:57:37.42	277.05	9.06	-26.7	-28.6	14.5	1.10e-06	0	43	0	2803892224	13	4470
2026-01-28 04:57:38.43	276.92	9.01	-26.7	-28.6	14.6	2.28e-03	0	43	0	2810183680	13	4448
2026-01-28 04:57:39.44	276.80	8.95	-26.8	-28.6	14.5	2.40e-04	0	43	0	2815426560	13	4467
2026-01-28 04:57:40.44	276.67	8.89	-26.8	-28.7	14.4	6.06e-04	0	43	0	2821718016	13	4503
2026-01-28 04:57:41.45	276.55	8.83	-26.7	-28.6	14.6	1.93e-03	0	43	0	2826960896	13	4446
2026-01-28 04:57:42.45	276.43	8.77	-26.8	-28.7	14.4	1.98e-03	0	43	0	2833252352	13	4480
2026-01-28 04:57:43.45	276.31	8.71	-26.8	-28.7	14.4	3.43e-04	0	43	0	2838495232	13	4490
2026-01-28 04:57:44.45	276.18	8.65	-26.8	-28.8	14.4	1.74e-03	0	43	0	2843738112	13	4534
2026-01-28 04:57:45.46	276.06	8.59	-26.9	-29.0	14.2	1.78e-03	0	43	0	2850029568	13	4581
2026-01-28 04:57:46.46	275.94	8.54	-26.9	-28.9	14.3	1.65e-04	0	43	0	2855272448	13	4546
2026-01-28 04:57:47.46	275.82	8.48	-27.0	-28.7	14.1	1.55e-03	0	43	0	2860515328	14	4383
2026-01-28 04:57:48.46	275.70	8.42	-27.1	-28.9	14.0	1.53e-03	0	43	0	2866806784	14	4436
2026-01-28 04:57:49.46	275.58	8.36	-27.1	-28.9	14.1	2.17e-04	0	43	0	2872049664	14	4429
2026-01-28 04:57:50.46	275.47	8.30	-27.5	-29.5	14.1	1.51e-03	0	43	0	2877292544	14	4527
2026-01-28 04:57:51.46	275.35	8.24	-26.9	-29.0	14.2	2.20e-06	0	43	0	2883584000	13	4587
2026-01-28 04:57:52.46	275.23	8.19	-27.0	-29.2	14.1	2.54e-04	0	43	0	2888826880	13	4643
2026-01-28 04:57:53.47	275.11	8.13	-27.0	-28.8	14.0	1.74e-03	0	43	0	2895118336	14	4425
2026-01-28 04:57:54.47	274.99	8.07	-27.3	-29.4	13.7	1.79e-03	0	43	0	2900361216	14	4591
2026-01-28 04:57:55.47	274.88	8.01	-27.3	-29.5	13.6	3.10e-04	0	43	0	2905604096	14	4616
2026-01-28 04:57:56.48	274.76	7.95	-27.1	-29.0	13.9	1.02e-05	0	43	0	2911895552	14	4476
2026-01-28 04:57:57.49	274.65	7.89	-27.0	-28.8	14.0	9.19e-04	0	43	0	2917138432	14	4412
2026-01-28 04:57:58.50	274.53	7.83	-27.0	-28.7	14.1	5.70e-06	0	43	0	2923429888	14	4374
2026-01-28 04:57:59.50	274.42	7.78	-26.9	-28.4	14.2	3.10e-04	0	43	0	2928672768	14	4304
2026-01-28 04:58:00.51	274.30	7.72	-27.0	-28.8	14.0	3.40e-06	0	43	0	2933915648	14	4422
2026-01-28 04:58:01.52	274.19	7.66	-27.2	-29.1	13.8	2.86e-05	0	43	0	2940207104	14	4504
2026-01-28 04:58:02.52	274.07	7.60	-27.0	-28.8	14.0	6.80e-06	0	43	0	2945449984	14	4406
2026-01-28 04:58:03.52	273.96	7.54	-26.9	-28.6	14.1	3.40e-06	0	43	0	2950692864	14	4353
2026-01-28 04:58:04.53	273.85	7.48	-26.9	-28.6	14.0	4.50e-06	0	43	0	2956984320	14	4373
2026-01-28 04:58:05.53	273.74	7.42	-26.9	-29.1	14.0	6.80e-06	0	43	0	2962227200	13	4628
2026-01-28 04:58:06.53	273.63	7.37	-27.0	-29.1	14.0	1.63e-03	0	43	0	2968518656	13	4632
2026-01-28 04:58:07.53	273.52	7.31	-27.2	-29.2	13.7	1.25e-05	0	43	0	2973761536	14	4524
2026-01-28 04:58:08.54	273.41	7.25	-27.1	-29.1	13.8	6.80e-06	0	43	0	2980052992	14	4497
2026-01-28 04:58:09.54	273.30	7.19	-27.1	-29.1	13.7	1.02e-05	0	43	0	2985295872	14	4511
2026-01-28 04:58:10.54	273.19	7.13	-27.2	-29.2	13.6	1.25e-05	0	43	0	2990538752	14	4537
2026-01-28 04:58:11.54	273.08	7.08	-32.8	-43.3	3.8	5.30e-01	0	43	104	2995781632	25	12012
2026-01-28 04:58:12.54	272.97	7.02	-33.3	-44.7	3.8	8.47e-01	0	43	104	2995781632	26	13362
2026-01-28 04:58:13.55	272.86	6.96	-33.8	-45.1	3.8	8.46e-01	0	43	104	2995781632	27	13264
2026-01-28 04:58:14.55	272.75	6.90	-34.0	-45.1	3.8	8.45e-01	0	43	104	2995781632	28	12931

#Closed at: 2026-01-28 04:58:15
#Recorded file [2995 MB]: D:/data/31010_260128_074918.dat