passes_logs/2026/01/28/R2M6_AANII_01/R2M6_AANII_01__20260128_144341_FENGYUN_3E_rec.log

#Pass ID: 20260128_144341_FENGYUN 3E
#Satellite: FENGYUN 3E
#Configuration: FENGYUN 3E
#almurnet v.1.7.20240730
#Start time: 2026-01-28 14:43:41

#Version: 2.2.20231116
#Station: R2M6_AANII_01
#Location: 30.233357 lon 59.946436 lat
#TLE: 1 49008U 21062A   26027.83084825  .00000170  00000+0  10081-3 0  9997
#TLE: 2 49008  98.7501  32.8098 0002509 114.2687 245.8752 14.19888158236667

#Time	Az	El	Level	Level2	SNR	BER	BlckErr	Temp	State	Recorded	gain1	gain2
2026-01-28 14:43:41.94	164.03	7.06	-29.8	-32.9	5.0	8.00e-01	0	41	0	0	20	5138
2026-01-28 14:43:42.93	164.05	7.14	-29.1	-31.5	5.2	7.85e-01	0	41	104	0	19	4708
2026-01-28 14:43:43.94	164.06	7.22	-29.5	-32.3	8.5	3.62e-02	0	41	0	0	19	4964
2026-01-28 14:43:44.95	164.07	7.30	-29.5	-32.3	8.5	4.13e-02	0	41	0	7340032	19	4995
2026-01-28 14:43:45.95	164.08	7.37	-29.4	-31.9	8.8	4.44e-02	0	41	0	14680064	19	4847
2026-01-28 14:43:46.95	164.09	7.45	-29.2	-31.6	9.0	2.25e-02	0	41	0	22020096	19	4725
2026-01-28 14:43:47.95	164.11	7.53	-29.4	-32.2	8.6	3.55e-02	0	41	0	28311552	19	4930
2026-01-28 14:43:48.95	164.12	7.61	-29.4	-32.1	8.6	3.53e-02	0	42	0	35651584	19	4911
2026-01-28 14:43:49.96	164.13	7.69	-29.3	-31.7	8.9	3.09e-02	0	41	0	42991616	19	4767
2026-01-28 14:43:50.96	164.14	7.77	-28.8	-30.9	9.7	1.37e-02	0	41	0	50331648	18	4616
2026-01-28 14:43:51.96	164.15	7.85	-28.2	-30.0	10.6	3.65e-03	0	42	0	57671680	17	4418
2026-01-28 14:43:52.97	164.17	7.93	-27.7	-29.2	11.3	1.52e-03	0	41	0	65011712	16	4322
2026-01-28 14:43:53.97	164.18	8.01	-27.1	-28.5	11.9	5.73e-04	0	41	0	72351744	15	4217
2026-01-28 14:43:54.98	164.19	8.09	-26.8	-28.3	12.3	2.29e-04	0	42	0	79691776	14	4263
2026-01-28 14:43:55.98	164.20	8.17	-26.3	-27.6	13.0	5.14e-05	0	42	0	85983232	13	4186
2026-01-28 14:43:56.99	164.22	8.26	-26.3	-27.6	12.9	3.31e-05	0	42	0	93323264	13	4216
2026-01-28 14:43:58.00	164.23	8.34	-26.0	-26.9	13.3	1.37e-05	0	42	0	101711872	13	4025
2026-01-28 14:43:59.00	164.24	8.42	-26.0	-27.5	13.3	1.02e-05	0	42	0	108003328	12	4288
2026-01-28 14:44:00.00	164.25	8.50	-25.8	-27.2	13.5	5.70e-06	0	42	0	115343360	12	4194
2026-01-28 14:44:01.01	164.27	8.58	-25.8	-27.0	13.6	2.20e-06	0	42	0	122683392	12	4150
2026-01-28 14:44:02.01	164.28	8.67	-25.7	-26.9	13.7	8.00e-06	0	42	0	130023424	12	4116
2026-01-28 14:44:03.02	164.29	8.75	-25.7	-26.9	13.7	2.20e-06	0	42	0	137363456	12	4115
2026-01-28 14:44:04.03	164.30	8.83	-25.7	-26.8	13.7	3.40e-06	0	42	0	144703488	12	4093
2026-01-28 14:44:05.04	164.32	8.92	-25.7	-26.8	13.8	3.40e-06	0	42	0	152043520	12	4080
2026-01-28 14:44:06.03	164.33	9.00	-25.7	-26.8	13.8	5.70e-06	0	42	0	159383552	12	4082
2026-01-28 14:44:07.03	164.34	9.08	-25.6	-26.7	13.8	2.20e-06	0	42	0	166723584	12	4066
2026-01-28 14:44:08.04	164.36	9.17	-25.8	-27.0	13.6	8.00e-06	0	42	0	173015040	12	4149
2026-01-28 14:44:09.04	164.37	9.25	-25.7	-26.8	13.8	3.40e-06	0	42	0	180355072	12	4091
2026-01-28 14:44:10.04	164.38	9.34	-25.4	-26.2	14.1	2.20e-06	0	42	0	188743680	12	3929
2026-01-28 14:44:11.05	164.40	9.42	-25.5	-26.4	14.0	2.20e-06	0	42	0	195035136	12	3990
2026-01-28 14:44:12.06	164.41	9.51	-25.5	-26.5	14.0	2.20e-06	0	42	0	202375168	12	4004
2026-01-28 14:44:13.06	164.42	9.60	-25.4	-26.2	14.1	3.40e-06	0	42	0	209715200	12	3941
2026-01-28 14:44:14.07	164.44	9.68	-25.4	-26.7	14.2	0.00e+00	0	42	0	217055232	11	4162
2026-01-28 14:44:15.08	164.45	9.77	-25.4	-26.5	14.3	1.10e-06	0	42	0	224395264	11	4118
2026-01-28 14:44:16.08	164.46	9.86	-25.5	-26.9	14.1	2.20e-06	0	42	0	231735296	11	4205
2026-01-28 14:44:17.08	164.48	9.94	-25.2	-26.2	14.5	0.00e+00	0	42	0	239075328	11	4038
2026-01-28 14:44:18.08	164.49	10.03	-25.4	-26.7	14.2	2.20e-06	0	42	0	246415360	11	4164
2026-01-28 14:44:19.09	164.50	10.12	-25.3	-26.5	14.3	0.00e+00	0	42	0	253755392	11	4121
2026-01-28 14:44:20.10	164.52	10.21	-25.3	-26.4	14.4	0.00e+00	0	42	0	261095424	11	4074
2026-01-28 14:44:21.11	164.53	10.30	-25.5	-26.7	14.2	0.00e+00	0	42	0	268435456	11	4176
2026-01-28 14:44:22.11	164.55	10.38	-25.3	-26.5	14.4	0.00e+00	0	42	0	274726912	11	4105
2026-01-28 14:44:23.11	164.56	10.47	-25.2	-26.3	14.5	1.10e-06	0	42	0	282066944	11	4048
2026-01-28 14:44:24.12	164.57	10.56	-25.2	-26.2	14.5	1.10e-06	0	42	0	289406976	11	4041
2026-01-28 14:44:25.13	164.59	10.65	-25.1	-25.9	14.7	0.00e+00	0	42	0	296747008	11	3961
2026-01-28 14:44:26.13	164.60	10.74	-25.1	-25.9	14.7	1.10e-06	0	42	0	304087040	11	3963
2026-01-28 14:44:27.14	164.62	10.83	-25.2	-26.2	14.6	0.00e+00	0	42	0	311427072	11	4037
2026-01-28 14:44:28.14	164.63	10.92	-25.1	-25.9	14.8	0.00e+00	0	42	0	318767104	11	3949
2026-01-28 14:44:29.14	164.64	11.01	-25.3	-26.3	14.5	0.00e+00	0	42	0	326107136	11	4061
2026-01-28 14:44:30.14	164.66	11.11	-25.2	-26.1	14.7	0.00e+00	0	42	0	333447168	11	4007
2026-01-28 14:44:31.14	164.67	11.20	-25.2	-26.2	14.6	0.00e+00	0	42	0	340787200	11	4022
2026-01-28 14:44:32.15	164.69	11.29	-25.0	-25.6	14.9	0.00e+00	0	43	0	348127232	11	3874
2026-01-28 14:44:33.15	164.70	11.38	-25.0	-25.8	14.9	0.00e+00	0	43	0	355467264	11	3915
2026-01-28 14:44:34.15	164.72	11.47	-25.1	-25.9	14.8	0.00e+00	0	42	0	361758720	11	3952
2026-01-28 14:44:35.15	164.73	11.57	-25.1	-25.9	14.8	0.00e+00	0	43	0	369098752	11	3949
2026-01-28 14:44:36.16	164.75	11.66	-25.3	-26.3	14.6	0.00e+00	0	43	0	376438784	11	4030
2026-01-28 14:44:37.16	164.76	11.75	-25.1	-26.0	14.8	0.00e+00	0	43	0	383778816	11	3957
2026-01-28 14:44:38.17	164.78	11.85	-25.1	-25.8	14.9	0.00e+00	0	43	0	391118848	11	3912
2026-01-28 14:44:39.17	164.79	11.94	-24.9	-25.5	15.1	0.00e+00	0	43	0	398458880	11	3839
2026-01-28 14:44:40.18	164.81	12.04	-24.9	-26.0	15.1	0.00e+00	0	43	0	405798912	10	4064
2026-01-28 14:44:41.18	164.82	12.13	-24.8	-25.7	15.2	1.10e-06	0	43	0	413138944	10	3994
2026-01-28 14:44:42.19	164.84	12.23	-24.8	-25.8	15.2	0.00e+00	0	43	0	420478976	10	4014
2026-01-28 14:44:43.19	164.85	12.32	-24.8	-25.7	15.2	0.00e+00	0	43	0	427819008	10	4007
2026-01-28 14:44:44.19	164.87	12.42	-24.9	-25.9	15.1	0.00e+00	0	43	0	435159040	10	4033
2026-01-28 14:44:45.20	164.88	12.52	-25.2	-26.5	14.8	0.00e+00	0	43	0	442499072	10	4208
2026-01-28 14:44:46.20	164.90	12.61	-25.0	-26.2	14.9	0.00e+00	0	43	0	448790528	10	4112
2026-01-28 14:44:47.21	164.92	12.71	-24.8	-25.7	15.2	0.00e+00	0	43	0	456130560	10	3993
2026-01-28 14:44:48.21	164.93	12.81	-24.6	-25.2	15.5	2.20e-06	0	43	0	463470592	10	3870
2026-01-28 14:44:49.22	164.95	12.91	-24.6	-25.3	15.5	0.00e+00	0	43	0	470810624	10	3897
2026-01-28 14:44:50.22	164.96	13.01	-24.6	-25.4	15.5	0.00e+00	0	43	0	478150656	10	3903
2026-01-28 14:44:51.22	164.98	13.11	-24.6	-25.1	15.6	0.00e+00	0	43	0	485490688	10	3855
2026-01-28 14:44:52.22	165.00	13.21	-24.5	-25.0	15.7	0.00e+00	0	43	0	492830720	10	3810
2026-01-28 14:44:53.22	165.01	13.30	-24.7	-25.4	15.5	0.00e+00	0	43	0	500170752	10	3900
2026-01-28 14:44:54.22	165.03	13.40	-24.5	-25.1	15.6	0.00e+00	0	43	0	506462208	10	3851
2026-01-28 14:44:55.23	165.05	13.51	-24.4	-24.9	15.7	0.00e+00	0	43	0	513802240	10	3795
2026-01-28 14:44:56.23	165.06	13.61	-24.3	-25.2	15.8	0.00e+00	0	43	0	521142272	9	3961
2026-01-28 14:44:57.23	165.08	13.71	-24.3	-25.2	15.8	0.00e+00	0	43	0	528482304	9	3970
2026-01-28 14:44:58.23	165.09	13.81	-24.4	-25.2	15.8	0.00e+00	0	43	0	535822336	9	3966
2026-01-28 14:44:59.24	165.11	13.91	-24.5	-25.5	15.7	0.00e+00	0	43	0	543162368	9	4047
2026-01-28 14:45:00.24	165.13	14.02	-24.9	-26.3	15.3	4.50e-06	0	43	0	550502400	9	4249
2026-01-28 14:45:01.25	165.15	14.12	-24.6	-25.7	15.7	0.00e+00	0	43	0	557842432	9	4073
2026-01-28 14:45:02.25	165.16	14.22	-24.5	-25.4	15.8	0.00e+00	0	43	0	565182464	9	4015
2026-01-28 14:45:03.25	165.18	14.33	-24.2	-24.8	16.1	0.00e+00	0	43	0	572522496	9	3856
2026-01-28 14:45:04.26	165.20	14.43	-24.2	-24.9	16.0	0.00e+00	0	43	0	579862528	9	3878
2026-01-28 14:45:05.27	165.21	14.54	-24.3	-25.0	16.0	0.00e+00	0	43	0	587202560	9	3913
2026-01-28 14:45:06.27	165.23	14.64	-24.3	-25.0	16.0	0.00e+00	0	43	0	593494016	9	3919
2026-01-28 14:45:07.27	165.25	14.75	-24.5	-25.5	15.8	0.00e+00	0	43	0	600834048	9	4024
2026-01-28 14:45:08.28	165.27	14.86	-24.2	-24.9	16.0	0.00e+00	0	43	0	608174080	9	3890
2026-01-28 14:45:09.28	165.29	14.96	-24.2	-24.9	16.0	1.10e-06	0	43	0	615514112	9	3886
2026-01-28 14:45:10.29	165.30	15.07	-24.1	-24.7	16.2	0.00e+00	0	43	0	622854144	9	3831
2026-01-28 14:45:11.29	165.32	15.18	-24.1	-24.7	16.2	0.00e+00	0	43	0	630194176	9	3841
2026-01-28 14:45:12.29	165.34	15.29	-24.2	-24.9	16.1	0.00e+00	0	43	0	637534208	9	3906
2026-01-28 14:45:13.29	165.36	15.39	-24.2	-24.8	16.1	0.00e+00	0	43	0	644874240	9	3877
2026-01-28 14:45:14.30	165.38	15.50	-24.2	-24.9	16.1	0.00e+00	0	43	0	652214272	9	3887
2026-01-28 14:45:15.30	165.39	15.61	-24.2	-24.9	16.0	0.00e+00	0	43	0	659554304	9	3902
2026-01-28 14:45:16.30	165.41	15.72	-24.2	-24.9	16.0	0.00e+00	0	43	0	666894336	9	3898
2026-01-28 14:45:17.31	165.43	15.83	-24.2	-24.9	16.0	0.00e+00	0	43	0	674234368	9	3905
2026-01-28 14:45:18.32	165.45	15.95	-24.2	-24.9	16.1	0.00e+00	0	43	0	680525824	9	3886
2026-01-28 14:45:19.32	165.47	16.06	-24.3	-25.0	16.0	0.00e+00	0	43	0	687865856	9	3939
2026-01-28 14:45:20.33	165.49	16.17	-24.2	-24.9	16.0	0.00e+00	0	43	0	695205888	9	3905
2026-01-28 14:45:21.34	165.51	16.28	-24.2	-24.9	16.1	0.00e+00	0	43	0	702545920	9	3911
2026-01-28 14:45:22.34	165.53	16.40	-24.2	-24.9	16.1	0.00e+00	0	43	0	709885952	9	3902
2026-01-28 14:45:23.34	165.55	16.51	-24.4	-25.4	15.8	0.00e+00	0	43	0	717225984	9	4021
2026-01-28 14:45:24.35	165.57	16.63	-24.1	-24.7	16.2	0.00e+00	0	43	0	724566016	9	3851
2026-01-28 14:45:25.36	165.59	16.74	-24.0	-24.5	16.3	0.00e+00	0	43	0	731906048	9	3795
2026-01-28 14:45:26.36	165.61	16.86	-24.2	-24.7	16.2	0.00e+00	0	43	0	739246080	9	3854
2026-01-28 14:45:27.36	165.63	16.97	-24.1	-24.6	16.3	0.00e+00	0	43	0	746586112	9	3811
2026-01-28 14:45:28.36	165.65	17.09	-24.1	-24.7	16.2	0.00e+00	0	43	0	753926144	9	3845
2026-01-28 14:45:29.36	165.67	17.21	-24.2	-24.8	16.2	0.00e+00	0	43	0	760217600	9	3866
2026-01-28 14:45:30.36	165.69	17.32	-24.2	-24.8	16.2	0.00e+00	0	43	0	767557632	9	3868
2026-01-28 14:45:31.37	165.71	17.44	-24.1	-24.6	16.3	0.00e+00	0	43	0	774897664	9	3815
2026-01-28 14:45:32.38	165.73	17.56	-24.3	-25.1	16.0	0.00e+00	0	43	0	782237696	9	3928
2026-01-28 14:45:33.38	165.75	17.68	-24.2	-24.8	16.2	0.00e+00	0	43	0	789577728	9	3873
2026-01-28 14:45:34.38	165.77	17.80	-24.1	-24.7	16.3	0.00e+00	0	43	0	796917760	9	3838
2026-01-28 14:45:35.39	165.79	17.92	-24.5	-25.4	15.9	0.00e+00	0	43	0	804257792	9	3993
2026-01-28 14:45:36.39	165.81	18.04	-24.2	-24.8	16.2	0.00e+00	0	43	0	811597824	9	3866
2026-01-28 14:45:37.39	165.83	18.16	-24.0	-24.4	16.4	0.00e+00	0	43	0	818937856	9	3768
2026-01-28 14:45:38.39	165.85	18.29	-23.9	-24.7	16.5	0.00e+00	0	43	0	825229312	8	3944
2026-01-28 14:45:39.40	165.88	18.41	-23.9	-24.6	16.6	0.00e+00	0	43	0	833617920	8	3908
2026-01-28 14:45:40.40	165.90	18.53	-24.1	-25.1	16.3	0.00e+00	0	43	0	840957952	8	4053
2026-01-28 14:45:41.40	165.92	18.66	-23.8	-24.4	16.7	0.00e+00	0	43	0	847249408	8	3870
2026-01-28 14:45:42.41	165.94	18.78	-23.6	-24.1	16.9	0.00e+00	0	43	0	854589440	8	3792
2026-01-28 14:45:43.41	165.96	18.91	-23.6	-24.0	16.9	0.00e+00	0	43	0	861929472	8	3763
2026-01-28 14:45:44.41	165.99	19.03	-23.7	-24.3	16.7	0.00e+00	0	43	0	869269504	8	3847
2026-01-28 14:45:45.41	166.01	19.16	-23.6	-23.9	16.9	0.00e+00	0	43	0	876609536	8	3757
2026-01-28 14:45:46.42	166.03	19.29	-23.6	-23.9	16.9	0.00e+00	0	43	0	883949568	8	3754
2026-01-28 14:45:47.42	166.05	19.42	-23.6	-24.0	16.9	0.00e+00	0	43	0	891289600	8	3771
2026-01-28 14:45:48.43	166.08	19.54	-23.4	-23.7	17.1	0.00e+00	0	43	0	898629632	8	3697
2026-01-28 14:45:49.43	166.10	19.67	-23.6	-24.0	16.9	0.00e+00	0	43	0	904921088	8	3781
2026-01-28 14:45:50.44	166.12	19.80	-23.3	-23.9	17.2	0.00e+00	0	43	0	912261120	7	3853
2026-01-28 14:45:51.44	166.15	19.94	-23.3	-24.0	17.1	0.00e+00	0	43	0	920649728	7	3873
2026-01-28 14:45:52.45	166.17	20.07	-23.3	-23.9	17.1	0.00e+00	0	43	0	926941184	7	3867
2026-01-28 14:45:53.45	166.19	20.20	-23.3	-23.9	17.2	0.00e+00	0	43	0	934281216	7	3844
2026-01-28 14:45:54.46	166.22	20.33	-23.1	-23.4	17.4	0.00e+00	0	43	0	941621248	7	3733
2026-01-28 14:45:55.47	166.24	20.47	-23.1	-23.6	17.3	0.00e+00	0	43	0	948961280	7	3790
2026-01-28 14:45:56.48	166.27	20.60	-23.3	-23.9	17.2	0.00e+00	0	43	0	956301312	7	3867
2026-01-28 14:45:57.48	166.29	20.74	-23.2	-23.7	17.2	0.00e+00	0	43	0	963641344	7	3819
2026-01-28 14:45:58.49	166.32	20.87	-23.1	-23.5	17.3	0.00e+00	0	44	0	970981376	7	3778
2026-01-28 14:45:59.49	166.34	21.01	-23.1	-23.6	17.3	0.00e+00	0	44	0	978321408	7	3783
2026-01-28 14:46:00.50	166.37	21.15	-23.2	-23.7	17.2	0.00e+00	0	43	0	985661440	7	3828
2026-01-28 14:46:01.50	166.39	21.29	-23.5	-24.4	16.9	0.00e+00	0	44	0	993001472	7	3990
2026-01-28 14:46:02.50	166.42	21.42	-23.4	-24.2	17.0	0.00e+00	0	44	0	1000341504	7	3954
2026-01-28 14:46:03.50	166.44	21.56	-23.4	-24.2	17.0	0.00e+00	0	43	0	1007681536	7	3947
2026-01-28 14:46:04.51	166.47	21.70	-23.5	-24.4	16.9	0.00e+00	0	43	0	1013972992	7	4000
2026-01-28 14:46:05.51	166.50	21.84	-23.5	-24.3	16.9	0.00e+00	0	43	0	1021313024	7	3982
2026-01-28 14:46:06.51	166.52	21.99	-23.7	-24.8	16.7	0.00e+00	0	44	0	1028653056	7	4087
2026-01-28 14:46:07.52	166.55	22.13	-23.7	-24.8	16.6	0.00e+00	0	44	0	1035993088	7	4106
2026-01-28 14:46:08.52	166.58	22.27	-24.0	-25.4	16.4	0.00e+00	0	43	0	1043333120	7	4255
2026-01-28 14:46:09.52	166.60	22.42	-23.8	-25.1	16.5	0.00e+00	0	44	0	1050673152	7	4183
2026-01-28 14:46:10.53	166.63	22.56	-23.9	-25.4	16.3	0.00e+00	0	43	0	1058013184	7	4256
2026-01-28 14:46:11.53	166.66	22.71	-24.0	-25.0	16.3	0.00e+00	0	43	0	1065353216	8	4038
2026-01-28 14:46:12.54	166.69	22.86	-23.8	-24.6	16.5	0.00e+00	0	44	0	1072693248	8	3957
2026-01-28 14:46:13.54	166.71	23.00	-23.7	-24.4	16.7	0.00e+00	0	44	0	1078984704	8	3891
2026-01-28 14:46:14.54	166.74	23.15	-23.7	-24.3	16.7	0.00e+00	0	44	0	1087373312	8	3867
2026-01-28 14:46:15.54	166.77	23.30	-23.3	-24.1	17.0	0.00e+00	0	44	0	1094713344	7	3934
2026-01-28 14:46:16.55	166.80	23.45	-23.2	-23.7	17.1	0.00e+00	0	44	0	1101004800	7	3855
2026-01-28 14:46:17.55	166.83	23.60	-23.0	-23.4	17.4	0.00e+00	0	43	0	1108344832	7	3765
2026-01-28 14:46:18.56	166.86	23.75	-22.9	-23.3	17.4	0.00e+00	0	44	0	1115684864	7	3755
2026-01-28 14:46:19.56	166.89	23.91	-23.0	-23.4	17.3	0.00e+00	0	44	0	1123024896	7	3780
2026-01-28 14:46:20.57	166.92	24.06	-23.0	-24.0	17.3	0.00e+00	0	44	0	1130364928	6	4019
2026-01-28 14:46:21.57	166.95	24.21	-22.9	-23.7	17.5	0.00e+00	0	43	0	1137704960	6	3940
2026-01-28 14:46:22.56	166.98	24.37	-22.7	-23.2	17.7	0.00e+00	0	43	0	1145044992	6	3826
2026-01-28 14:46:23.56	167.01	24.52	-22.7	-23.3	17.6	0.00e+00	0	44	0	1152385024	6	3852
2026-01-28 14:46:24.56	167.04	24.68	-22.7	-23.2	17.7	0.00e+00	0	44	0	1158676480	6	3840
2026-01-28 14:46:25.56	167.07	24.84	-22.8	-23.4	17.6	0.00e+00	0	43	0	1166016512	6	3877
2026-01-28 14:46:26.57	167.10	25.00	-22.6	-23.1	17.7	0.00e+00	0	43	0	1173356544	6	3811
2026-01-28 14:46:27.58	167.13	25.16	-22.6	-23.1	17.7	0.00e+00	0	44	0	1180696576	6	3812
2026-01-28 14:46:28.58	167.16	25.32	-22.8	-23.4	17.6	0.00e+00	0	43	0	1188036608	6	3866
2026-01-28 14:46:29.58	167.19	25.48	-22.9	-23.7	17.5	0.00e+00	0	44	0	1195376640	6	3934
2026-01-28 14:46:30.59	167.23	25.65	-22.7	-23.2	17.8	0.00e+00	0	43	0	1202716672	6	3818
2026-01-28 14:46:31.59	167.26	25.81	-22.5	-22.8	18.0	0.00e+00	0	43	0	1210056704	6	3733
2026-01-28 14:46:32.59	167.29	25.97	-22.5	-22.8	18.0	0.00e+00	0	43	0	1217396736	6	3736
2026-01-28 14:46:33.60	167.33	26.14	-22.5	-22.9	17.9	0.00e+00	0	43	0	1224736768	6	3761
2026-01-28 14:46:34.60	167.36	26.31	-22.5	-22.9	18.0	0.00e+00	0	44	0	1232076800	6	3749
2026-01-28 14:46:35.60	167.39	26.47	-22.6	-23.0	17.9	0.00e+00	0	44	0	1239416832	6	3767
2026-01-28 14:46:36.60	167.43	26.64	-22.6	-23.0	17.9	0.00e+00	0	43	0	1245708288	6	3768
2026-01-28 14:46:37.61	167.46	26.81	-22.5	-22.8	18.0	0.00e+00	0	44	0	1253048320	6	3740
2026-01-28 14:46:38.61	167.50	26.99	-22.3	-22.9	18.2	0.00e+00	0	44	0	1260388352	5	3843
2026-01-28 14:46:39.62	167.53	27.16	-22.4	-23.0	18.2	0.00e+00	0	44	0	1267728384	5	3867
2026-01-28 14:46:40.62	167.57	27.33	-22.3	-22.9	18.2	0.00e+00	0	44	0	1275068416	5	3851
2026-01-28 14:46:41.62	167.60	27.51	-22.3	-22.8	18.3	0.00e+00	0	44	0	1282408448	5	3818
2026-01-28 14:46:42.63	167.64	27.68	-22.3	-22.7	18.3	0.00e+00	0	44	0	1289748480	5	3807
2026-01-28 14:46:43.63	167.68	27.86	-22.2	-22.6	18.4	0.00e+00	0	44	0	1297088512	5	3787
2026-01-28 14:46:44.64	167.71	28.04	-22.2	-22.7	18.3	0.00e+00	0	44	0	1304428544	5	3799
2026-01-28 14:46:45.65	167.75	28.22	-22.3	-22.8	18.3	0.00e+00	0	43	0	1311768576	5	3826
2026-01-28 14:46:46.65	167.79	28.40	-22.3	-22.9	18.3	0.00e+00	0	43	0	1319108608	5	3838
2026-01-28 14:46:47.65	167.83	28.58	-22.3	-22.7	18.4	0.00e+00	0	44	0	1326448640	5	3800
2026-01-28 14:46:48.65	167.87	28.76	-22.4	-23.0	18.2	0.00e+00	0	44	0	1332740096	5	3857
2026-01-28 14:46:49.65	167.91	28.94	-22.4	-23.0	18.3	0.00e+00	0	43	0	1340080128	5	3857
2026-01-28 14:46:50.66	167.95	29.13	-22.4	-23.0	18.3	0.00e+00	0	44	0	1347420160	5	3856
2026-01-28 14:46:51.66	167.99	29.32	-22.3	-22.9	18.3	0.00e+00	0	43	0	1354760192	5	3837
2026-01-28 14:46:52.66	168.03	29.50	-22.5	-23.3	18.1	0.00e+00	0	44	0	1362100224	5	3931
2026-01-28 14:46:53.67	168.07	29.69	-22.5	-23.2	18.1	0.00e+00	0	44	0	1369440256	5	3910
2026-01-28 14:46:54.68	168.11	29.88	-22.5	-23.2	18.1	0.00e+00	0	44	0	1376780288	5	3925
2026-01-28 14:46:55.68	168.15	30.07	-22.7	-23.6	17.9	0.00e+00	0	43	0	1384120320	5	4012
2026-01-28 14:46:56.69	168.19	30.27	-22.7	-23.7	17.9	0.00e+00	0	44	0	1390411776	5	4038
2026-01-28 14:46:57.69	168.23	30.46	-22.6	-23.4	18.0	0.00e+00	0	44	0	1398800384	5	3963
2026-01-28 14:46:58.69	168.28	30.65	-22.2	-22.5	18.5	0.00e+00	0	44	0	1405091840	5	3762
2026-01-28 14:46:59.69	168.32	30.85	-22.6	-22.9	19.0	0.00e+00	0	44	0	1412431872	5	3718
2026-01-28 14:47:00.70	168.36	31.05	-22.6	-23.0	18.9	0.00e+00	0	44	0	1419771904	5	3739
2026-01-28 14:47:01.70	168.41	31.25	-22.9	-23.6	18.6	0.00e+00	0	43	0	1427111936	5	3873
2026-01-28 14:47:02.71	168.45	31.45	-22.9	-22.9	18.7	0.00e+00	0	44	0	1434451968	6	3633
2026-01-28 14:47:03.71	168.50	31.65	-23.0	-23.1	18.6	0.00e+00	0	44	0	1441792000	6	3675
2026-01-28 14:47:04.71	168.55	31.85	-23.0	-23.3	18.6	0.00e+00	0	44	0	1449132032	6	3709
2026-01-28 14:47:05.72	168.59	32.06	-23.1	-23.4	18.5	0.00e+00	0	44	0	1456472064	6	3746
2026-01-28 14:47:06.73	168.64	32.27	-23.3	-23.7	18.3	0.00e+00	0	43	0	1463812096	6	3810
2026-01-28 14:47:07.73	168.69	32.47	-23.4	-24.0	18.2	0.00e+00	0	44	0	1471152128	6	3876
2026-01-28 14:47:08.74	168.74	32.68	-23.2	-23.6	18.4	0.00e+00	0	44	0	1478492160	6	3773
2026-01-28 14:47:09.74	168.78	32.89	-23.4	-24.0	18.2	0.00e+00	0	44	0	1484783616	6	3873
2026-01-28 14:47:10.74	168.83	33.10	-23.2	-23.6	18.4	0.00e+00	0	43	0	1493172224	6	3779
2026-01-28 14:47:11.75	168.88	33.32	-23.0	-23.3	18.6	0.00e+00	0	44	0	1499463680	6	3701
2026-01-28 14:47:12.75	168.94	33.53	-23.2	-23.6	18.4	0.00e+00	0	44	0	1506803712	6	3774
2026-01-28 14:47:13.75	168.99	33.75	-23.3	-23.8	18.3	0.00e+00	0	44	0	1514143744	6	3828
2026-01-28 14:47:14.76	169.04	33.97	-23.2	-23.7	18.4	0.00e+00	0	44	0	1521483776	6	3800
2026-01-28 14:47:15.77	169.09	34.19	-23.4	-24.1	18.2	0.00e+00	0	43	0	1528823808	6	3897
2026-01-28 14:47:16.77	169.14	34.41	-23.3	-24.0	18.3	0.00e+00	0	43	0	1536163840	6	3860
2026-01-28 14:47:17.78	169.20	34.63	-23.2	-23.6	18.5	0.00e+00	0	44	0	1543503872	6	3767
2026-01-28 14:47:18.78	169.25	34.85	-23.0	-23.3	18.6	0.00e+00	0	43	0	1550843904	6	3710
2026-01-28 14:47:19.79	169.31	35.08	-23.0	-23.3	18.6	0.00e+00	0	44	0	1558183936	6	3710
2026-01-28 14:47:20.79	169.36	35.31	-23.0	-23.2	18.6	0.00e+00	0	44	0	1565523968	6	3680
2026-01-28 14:47:21.79	169.42	35.53	-22.9	-23.0	18.7	0.00e+00	0	44	0	1572864000	6	3640
2026-01-28 14:47:22.79	169.48	35.76	-22.9	-23.0	18.7	0.00e+00	0	44	0	1579155456	6	3648
2026-01-28 14:47:23.80	169.54	36.00	-23.0	-23.1	18.7	0.00e+00	0	44	0	1586495488	6	3672
2026-01-28 14:47:24.80	169.60	36.23	-22.7	-22.6	19.0	0.00e+00	0	43	0	1593835520	6	3547
2026-01-28 14:47:25.80	169.66	36.46	-22.5	-22.3	19.1	0.00e+00	0	43	0	1601175552	6	3485
2026-01-28 14:47:26.81	169.72	36.70	-22.7	-22.6	19.0	0.00e+00	0	43	0	1608515584	6	3551
2026-01-28 14:47:27.80	169.78	36.94	-22.8	-22.7	18.9	0.00e+00	0	44	0	1615855616	6	3576
2026-01-28 14:47:28.81	169.84	37.18	-23.0	-23.1	18.7	0.00e+00	0	44	0	1623195648	6	3667
2026-01-28 14:47:29.81	169.90	37.42	-23.0	-23.3	18.6	0.00e+00	0	44	0	1630535680	6	3710
2026-01-28 14:47:30.82	169.97	37.66	-23.4	-24.0	18.3	0.00e+00	0	44	0	1637875712	6	3875
2026-01-28 14:47:31.83	170.03	37.91	-23.5	-24.2	18.2	5.70e-06	0	44	0	1644167168	6	3909
2026-01-28 14:47:32.84	170.10	38.16	-23.5	-24.3	18.1	0.00e+00	0	44	0	1651507200	6	3929
2026-01-28 14:47:33.84	170.17	38.41	-23.6	-23.9	18.1	0.00e+00	0	44	0	1659895808	7	3743
2026-01-28 14:47:34.85	170.24	38.66	-23.8	-24.4	17.8	5.70e-06	0	44	0	1666187264	7	3862
2026-01-28 14:47:35.85	170.30	38.91	-23.7	-24.1	18.0	0.00e+00	0	44	0	1673527296	7	3779
2026-01-28 14:47:36.86	170.37	39.17	-23.3	-23.4	18.3	0.00e+00	0	44	0	1680867328	7	3625
2026-01-28 14:47:37.86	170.45	39.42	-23.3	-23.4	18.3	6.80e-06	0	43	0	1688207360	7	3629
2026-01-28 14:47:38.87	170.52	39.68	-23.4	-23.6	18.2	0.00e+00	0	44	0	1695547392	7	3677
2026-01-28 14:47:39.87	170.59	39.94	-23.6	-23.9	18.1	0.00e+00	0	44	0	1702887424	7	3740
2026-01-28 14:47:40.87	170.67	40.20	-23.3	-23.4	18.3	3.40e-06	0	44	0	1710227456	7	3634
2026-01-28 14:47:41.87	170.74	40.47	-23.4	-23.6	18.2	0.00e+00	0	44	0	1717567488	7	3680
2026-01-28 14:47:42.87	170.82	40.73	-23.4	-23.6	18.3	0.00e+00	0	44	0	1724907520	7	3669
2026-01-28 14:47:43.88	170.90	41.00	-23.3	-23.3	18.4	0.00e+00	0	44	0	1731198976	7	3598
2026-01-28 14:47:44.89	170.98	41.27	-23.2	-23.2	18.5	0.00e+00	0	43	0	1738539008	7	3586
2026-01-28 14:47:45.89	171.06	41.54	-23.1	-22.9	18.6	0.00e+00	0	44	0	1746927616	7	3523
2026-01-28 14:47:46.90	171.14	41.82	-23.2	-23.1	18.5	0.00e+00	0	44	0	1753219072	7	3563
2026-01-28 14:47:47.90	171.22	42.09	-23.3	-23.2	18.5	0.00e+00	0	43	0	1760559104	7	3587
2026-01-28 14:47:48.91	171.31	42.37	-23.3	-23.2	18.5	0.00e+00	0	44	0	1767899136	7	3591
2026-01-28 14:47:49.91	171.39	42.65	-23.0	-22.8	18.6	0.00e+00	0	43	0	1775239168	7	3492
2026-01-28 14:47:50.91	171.48	42.93	-23.0	-23.2	18.7	0.00e+00	0	44	0	1782579200	6	3693
2026-01-28 14:47:51.92	171.57	43.22	-23.2	-23.6	18.5	0.00e+00	0	44	0	1789919232	6	3765
2026-01-28 14:47:52.92	171.66	43.50	-23.2	-23.7	18.5	0.00e+00	0	44	0	1797259264	6	3788
2026-01-28 14:47:53.93	171.75	43.79	-23.4	-24.1	18.3	0.00e+00	0	44	0	1804599296	6	3884
2026-01-28 14:47:54.93	171.84	44.08	-23.2	-23.6	18.5	0.00e+00	0	44	0	1810890752	6	3780
2026-01-28 14:47:55.94	171.94	44.37	-23.3	-23.9	18.4	0.00e+00	0	44	0	1819279360	6	3838
2026-01-28 14:47:56.94	172.04	44.67	-23.5	-23.6	18.2	0.00e+00	0	44	0	1826619392	7	3678
2026-01-28 14:47:57.95	172.14	44.97	-23.6	-23.9	18.1	0.00e+00	0	43	0	1832910848	7	3740
2026-01-28 14:47:58.95	172.24	45.26	-23.6	-23.9	18.1	0.00e+00	0	44	0	1840250880	7	3729
2026-01-28 14:47:59.95	172.34	45.56	-23.5	-23.7	18.2	0.00e+00	0	44	0	1847590912	7	3687
2026-01-28 14:48:00.96	172.44	45.87	-23.9	-24.7	17.7	0.00e+00	0	44	0	1854930944	7	3918
2026-01-28 14:48:01.96	172.55	46.17	-23.8	-24.4	17.9	0.00e+00	0	44	0	1862270976	7	3843
2026-01-28 14:48:02.97	172.66	46.48	-23.9	-24.5	17.8	0.00e+00	0	44	0	1869611008	7	3882
2026-01-28 14:48:03.97	172.77	46.79	-24.0	-24.7	17.7	0.00e+00	0	44	0	1876951040	7	3932
2026-01-28 14:48:04.98	172.88	47.10	-24.1	-24.5	17.6	0.00e+00	0	44	0	1884291072	8	3760
2026-01-28 14:48:05.99	172.99	47.42	-24.3	-24.9	17.5	0.00e+00	0	43	0	1891631104	8	3858
2026-01-28 14:48:06.99	173.11	47.73	-24.0	-24.2	17.8	0.00e+00	0	44	0	1898971136	8	3695
2026-01-28 14:48:08.00	173.23	48.05	-24.0	-24.3	17.7	0.00e+00	0	44	0	1906311168	8	3733
2026-01-28 14:48:09.01	173.35	48.37	-24.3	-24.8	17.5	0.00e+00	0	44	0	1913651200	8	3847
2026-01-28 14:48:10.01	173.48	48.70	-24.3	-25.0	17.4	0.00e+00	0	44	0	1919942656	8	3879
2026-01-28 14:48:11.02	173.60	49.02	-24.8	-25.5	16.9	0.00e+00	0	43	0	1927282688	9	3910
2026-01-28 14:48:12.02	173.73	49.35	-25.6	-26.2	15.9	0.00e+00	0	44	0	1934622720	11	3870
2026-01-28 14:48:13.03	173.87	49.68	-25.1	-25.1	16.6	0.00e+00	0	44	0	1941962752	11	3604
2026-01-28 14:48:14.03	174.00	50.01	-24.7	-24.7	17.1	0.00e+00	0	44	0	1949302784	10	3607
2026-01-28 14:48:15.03	174.14	50.34	-24.3	-24.4	17.5	0.00e+00	0	44	0	1956642816	9	3644
2026-01-28 14:48:16.04	174.28	50.68	-24.3	-24.3	17.5	0.00e+00	0	44	0	1963982848	9	3632
2026-01-28 14:48:17.04	174.42	51.02	-24.4	-24.7	17.3	0.00e+00	0	44	0	1971322880	9	3710
2026-01-28 14:48:18.04	174.57	51.36	-24.5	-24.8	17.3	0.00e+00	0	44	0	1978662912	9	3736
2026-01-28 14:48:19.05	174.72	51.70	-24.7	-25.2	17.0	0.00e+00	0	44	0	1986002944	9	3838
2026-01-28 14:48:20.05	174.87	52.05	-24.8	-25.6	16.9	0.00e+00	0	44	0	1993342976	9	3919
2026-01-28 14:48:21.05	175.03	52.39	-24.9	-25.7	16.8	0.00e+00	0	44	0	2000683008	9	3951
2026-01-28 14:48:22.06	175.19	52.75	-24.7	-24.7	17.0	0.00e+00	0	44	0	2006974464	10	3620
2026-01-28 14:48:23.06	175.36	53.10	-24.9	-25.2	16.8	0.00e+00	0	44	0	2014314496	10	3733
2026-01-28 14:48:24.07	175.53	53.45	-24.5	-24.3	17.2	0.00e+00	0	44	0	2021654528	10	3528
2026-01-28 14:48:25.07	175.70	53.81	-24.2	-24.2	17.6	0.00e+00	0	44	0	2028994560	9	3597
2026-01-28 14:48:26.08	175.88	54.17	-24.2	-24.3	17.6	0.00e+00	0	44	0	2036334592	9	3613
2026-01-28 14:48:27.08	176.06	54.53	-24.5	-24.8	17.3	0.00e+00	0	44	0	2043674624	9	3736
2026-01-28 14:48:28.09	176.24	54.89	-24.5	-24.9	17.1	0.00e+00	0	44	0	2051014656	9	3756
2026-01-28 14:48:29.09	176.43	55.26	-25.2	-25.7	16.6	0.00e+00	0	44	0	2058354688	10	3854
2026-01-28 14:48:30.10	176.63	55.63	-25.2	-25.8	16.5	0.00e+00	0	44	0	2065694720	10	3860
2026-01-28 14:48:31.10	176.83	56.00	-24.9	-25.1	16.9	0.00e+00	0	44	0	2073034752	10	3707
2026-01-28 14:48:32.10	177.04	56.37	-24.7	-24.8	17.1	0.00e+00	0	44	0	2080374784	10	3636
2026-01-28 14:48:33.10	177.25	56.74	-25.0	-25.3	16.4	0.00e+00	0	44	0	2086666240	10	3731
2026-01-28 14:48:34.10	177.46	57.12	-24.8	-24.9	17.0	0.00e+00	0	44	0	2094006272	10	3652
2026-01-28 14:48:35.10	177.69	57.49	-24.9	-25.1	16.9	0.00e+00	0	44	0	2101346304	10	3709
2026-01-28 14:48:36.10	177.91	57.87	-25.4	-26.2	16.4	0.00e+00	0	44	0	2108686336	10	3958
2026-01-28 14:48:37.10	178.15	58.25	-25.1	-25.6	16.6	0.00e+00	0	44	0	2116026368	10	3815
2026-01-28 14:48:38.11	178.39	58.64	-24.6	-24.5	17.0	0.00e+00	0	44	0	2123366400	10	3554
2026-01-28 14:48:39.12	178.65	59.03	-24.7	-25.3	17.1	0.00e+00	0	44	0	2130706432	9	3834
2026-01-28 14:48:40.12	178.90	59.42	-24.6	-25.1	17.1	0.00e+00	0	44	0	2138046464	9	3813
2026-01-28 14:48:41.13	179.17	59.81	-24.3	-24.5	17.5	0.00e+00	0	44	0	2145386496	9	3660
2026-01-28 14:48:42.12	179.44	60.20	-24.5	-24.8	17.4	0.00e+00	0	44	0	2151677952	9	3720
2026-01-28 14:48:43.13	179.72	60.59	-23.9	-24.1	18.0	0.00e+00	0	44	0	2159017984	8	3682
2026-01-28 14:48:44.13	180.01	60.99	-24.6	-25.1	17.2	0.00e+00	0	44	0	2166358016	9	3802
2026-01-28 14:48:45.14	180.31	61.39	-24.5	-24.9	17.3	0.00e+00	0	44	0	2173698048	9	3765
2026-01-28 14:48:46.14	180.62	61.79	-24.5	-24.7	17.4	0.00e+00	0	44	0	2181038080	9	3716
2026-01-28 14:48:47.14	180.93	62.19	-24.2	-24.2	17.7	0.00e+00	0	44	0	2188378112	9	3595
2026-01-28 14:48:48.14	181.26	62.59	-23.7	-23.7	18.2	0.00e+00	0	44	0	2195718144	8	3583
2026-01-28 14:48:49.15	181.61	62.99	-24.3	-24.3	17.6	0.00e+00	0	44	0	2203058176	9	3628
2026-01-28 14:48:50.15	181.96	63.40	-24.1	-24.0	17.8	0.00e+00	0	44	0	2210398208	9	3553
2026-01-28 14:48:51.16	182.32	63.81	-24.1	-24.0	17.8	0.00e+00	0	44	0	2217738240	9	3560
2026-01-28 14:48:52.16	182.70	64.22	-24.4	-24.7	17.5	0.00e+00	0	44	0	2225078272	9	3701
2026-01-28 14:48:53.16	183.09	64.62	-24.2	-24.3	17.7	0.00e+00	0	44	0	2231369728	9	3621
2026-01-28 14:48:54.17	183.49	65.04	-23.9	-24.0	18.0	0.00e+00	0	44	0	2238709760	8	3648
2026-01-28 14:48:55.18	183.92	65.45	-23.8	-23.8	18.2	0.00e+00	0	44	0	2246049792	8	3603
2026-01-28 14:48:56.18	184.35	65.86	-23.8	-23.9	18.1	0.00e+00	0	44	0	2253389824	8	3643
2026-01-28 14:48:57.19	184.81	66.28	-23.3	-23.4	18.6	0.00e+00	0	44	0	2260729856	7	3623
2026-01-28 14:48:58.19	185.27	66.69	-23.3	-23.3	18.7	0.00e+00	0	44	0	2268069888	7	3608
2026-01-28 14:48:59.20	185.77	67.11	-23.7	-23.7	17.8	0.00e+00	0	44	0	2275409920	8	3584
2026-01-28 14:49:00.21	186.28	67.53	-23.1	-22.8	18.9	0.00e+00	0	44	0	2282749952	7	3500
2026-01-28 14:49:01.21	186.80	67.94	-22.9	-22.5	19.1	0.00e+00	0	44	0	2290089984	7	3433
2026-01-28 14:49:02.21	187.35	68.36	-23.1	-22.9	18.9	0.00e+00	0	44	0	2297430016	7	3514
2026-01-28 14:49:03.21	187.93	68.77	-22.8	-22.8	19.1	0.00e+00	0	44	0	2304770048	6	3599
2026-01-28 14:49:04.21	188.52	69.19	-22.8	-22.8	18.9	0.00e+00	0	44	0	2312110080	6	3587
2026-01-28 14:49:05.21	189.14	69.60	-23.1	-23.3	18.9	0.00e+00	0	44	0	2318401536	6	3696
2026-01-28 14:49:06.21	189.79	70.02	-23.3	-23.8	18.7	0.00e+00	0	44	0	2325741568	6	3803
2026-01-28 14:49:07.22	190.48	70.43	-23.9	-24.5	18.1	0.00e+00	0	44	0	2333081600	7	3877
2026-01-28 14:49:08.21	191.18	70.84	-23.4	-23.6	18.5	0.00e+00	0	44	0	2340421632	7	3674
2026-01-28 14:49:09.22	191.93	71.26	-22.9	-22.5	19.1	0.00e+00	0	44	0	2347761664	7	3427
2026-01-28 14:49:10.22	192.71	71.67	-22.7	-22.5	19.4	0.00e+00	0	44	0	2355101696	6	3529
2026-01-28 14:49:11.23	193.54	72.08	-22.8	-22.8	19.2	0.00e+00	0	44	0	2362441728	6	3592
2026-01-28 14:49:12.24	194.40	72.49	-22.9	-22.9	19.1	0.00e+00	0	44	0	2369781760	6	3614
2026-01-28 14:49:13.24	195.30	72.89	-23.1	-23.4	18.9	0.00e+00	0	44	0	2377121792	6	3733
2026-01-28 14:49:14.24	196.25	73.29	-23.2	-23.6	18.8	0.00e+00	0	44	0	2384461824	6	3784
2026-01-28 14:49:15.24	197.24	73.69	-22.9	-22.9	19.1	0.00e+00	0	44	0	2391801856	6	3607
2026-01-28 14:49:16.25	198.30	74.09	-23.0	-23.1	19.1	0.00e+00	0	44	0	2399141888	6	3665
2026-01-28 14:49:17.25	199.40	74.48	-23.4	-24.1	18.6	0.00e+00	0	44	0	2405433344	6	3888
2026-01-28 14:49:18.25	200.55	74.86	-23.1	-23.5	18.9	0.00e+00	0	44	0	2412773376	6	3747
2026-01-28 14:49:19.26	201.79	75.25	-23.0	-23.1	19.1	0.00e+00	0	44	0	2420113408	6	3665
2026-01-28 14:49:20.26	203.07	75.62	-22.9	-22.9	19.1	0.00e+00	0	44	0	2427453440	6	3607
2026-01-28 14:49:21.26	204.43	75.99	-22.6	-22.3	19.3	0.00e+00	0	44	0	2434793472	6	3490
2026-01-28 14:49:22.26	205.87	76.35	-22.5	-22.0	19.7	0.00e+00	0	44	0	2442133504	6	3427
2026-01-28 14:49:23.27	207.39	76.71	-22.3	-22.2	19.8	0.00e+00	0	44	0	2449473536	5	3558
2026-01-28 14:49:24.28	209.01	77.05	-22.2	-22.1	19.9	0.00e+00	0	44	0	2456813568	5	3533
2026-01-28 14:49:25.28	210.69	77.39	-22.3	-22.2	19.8	0.00e+00	0	44	0	2463105024	5	3569
2026-01-28 14:49:26.29	212.49	77.72	-22.5	-22.6	19.7	0.00e+00	0	44	0	2470445056	5	3645
2026-01-28 14:49:27.29	214.37	78.03	-21.9	-21.5	20.2	0.00e+00	0	44	0	2478833664	5	3414
2026-01-28 14:49:28.30	216.36	78.33	-21.8	-21.8	20.3	0.00e+00	0	44	0	2485125120	4	3572
2026-01-28 14:49:29.30	218.45	78.62	-22.1	-22.3	20.0	0.00e+00	0	44	0	2492465152	4	3687
2026-01-28 14:49:30.30	220.64	78.89	-21.7	-21.6	20.4	0.00e+00	0	44	0	2499805184	4	3528
2026-01-28 14:49:31.31	222.96	79.15	-21.3	-21.2	20.8	0.00e+00	0	44	0	2507145216	3	3544
2026-01-28 14:49:32.31	225.36	79.38	-21.4	-21.3	20.8	0.00e+00	0	44	0	2514485248	3	3575
2026-01-28 14:49:33.32	227.90	79.60	-21.6	-21.8	20.6	0.00e+00	0	44	0	2521825280	3	3672
2026-01-28 14:49:34.32	230.52	79.80	-21.3	-21.1	20.9	0.00e+00	0	44	0	2529165312	3	3527
2026-01-28 14:49:35.32	233.24	79.98	-21.1	-20.8	21.0	0.00e+00	0	44	0	2536505344	3	3472
2026-01-28 14:49:36.33	236.08	80.13	-21.2	-21.0	20.9	0.00e+00	0	44	0	2543845376	3	3508
2026-01-28 14:49:37.33	238.98	80.26	-21.2	-21.1	20.8	0.00e+00	0	44	0	2550136832	3	3523
2026-01-28 14:49:38.34	241.98	80.37	-21.1	-20.8	21.0	0.00e+00	0	44	0	2557476864	3	3462
2026-01-28 14:49:39.33	244.97	80.45	-21.5	-21.5	20.7	0.00e+00	0	44	0	2564816896	3	3606
2026-01-28 14:49:40.33	248.04	80.50	-21.7	-22.0	20.5	0.00e+00	0	44	0	2572156928	3	3714
2026-01-28 14:49:41.34	251.16	80.52	-22.0	-22.1	20.0	0.00e+00	0	44	0	2579496960	4	3641
2026-01-28 14:49:42.34	254.26	80.52	-22.0	-22.1	20.3	0.00e+00	0	44	0	2586836992	4	3630
2026-01-28 14:49:43.34	257.35	80.49	-22.0	-22.1	20.3	0.00e+00	0	44	0	2594177024	4	3631
2026-01-28 14:49:44.35	260.44	80.43	-22.1	-22.3	20.2	0.00e+00	0	44	0	2601517056	4	3672
2026-01-28 14:49:45.35	263.46	80.35	-22.1	-22.3	20.2	0.00e+00	0	44	0	2608857088	4	3669
2026-01-28 14:49:46.36	266.44	80.24	-22.2	-22.6	20.0	0.00e+00	0	44	0	2616197120	4	3742
2026-01-28 14:49:47.36	269.32	80.11	-22.7	-23.0	19.6	0.00e+00	0	44	0	2623537152	5	3728
2026-01-28 14:49:48.37	272.15	79.95	-22.9	-23.5	19.3	0.00e+00	0	44	0	2630877184	5	3846
2026-01-28 14:49:49.37	274.85	79.77	-22.1	-21.8	20.1	0.00e+00	0	44	0	2637168640	5	3482
2026-01-28 14:49:50.37	277.45	79.57	-21.8	-21.6	20.5	0.00e+00	0	44	0	2644508672	4	3538
2026-01-28 14:49:51.38	279.97	79.34	-22.0	-22.0	20.2	0.00e+00	0	44	0	2651848704	4	3629
2026-01-28 14:49:52.38	282.35	79.10	-22.4	-22.9	19.8	0.00e+00	0	44	0	2659188736	4	3810
2026-01-28 14:49:53.39	284.66	78.84	-22.3	-22.7	19.9	0.00e+00	0	44	0	2666528768	4	3769
2026-01-28 14:49:54.39	286.82	78.57	-22.1	-22.2	20.1	0.00e+00	0	44	0	2673868800	4	3665
2026-01-28 14:49:55.39	288.89	78.28	-22.1	-22.3	20.1	0.00e+00	0	44	0	2681208832	4	3680
2026-01-28 14:49:56.40	290.86	77.98	-22.4	-22.9	19.8	0.00e+00	0	44	0	2688548864	4	3806
2026-01-28 14:49:57.40	292.72	77.66	-23.0	-23.6	19.2	0.00e+00	0	44	0	2695888896	5	3877
2026-01-28 14:49:58.41	294.50	77.33	-23.0	-23.7	19.1	0.00e+00	0	44	0	2703228928	5	3907
2026-01-28 14:49:59.42	296.19	76.99	-22.8	-23.2	19.3	0.00e+00	0	44	0	2710568960	5	3792
2026-01-28 14:50:00.42	297.77	76.65	-22.4	-22.4	19.7	0.00e+00	0	44	0	2716860416	5	3597
2026-01-28 14:50:01.42	299.27	76.29	-22.3	-22.1	19.9	0.00e+00	0	44	0	2724200448	5	3549
2026-01-28 14:50:02.42	300.68	75.93	-22.3	-22.2	19.9	0.00e+00	0	44	0	2731540480	5	3562
2026-01-28 14:50:03.42	302.03	75.56	-22.3	-22.3	19.8	0.00e+00	0	44	0	2738880512	5	3579
2026-01-28 14:50:04.43	303.32	75.18	-22.5	-22.5	19.8	0.00e+00	0	44	0	2746220544	5	3624
2026-01-28 14:50:05.43	304.53	74.80	-22.8	-23.3	19.3	0.00e+00	0	44	0	2753560576	5	3796
2026-01-28 14:50:06.43	305.68	74.42	-23.0	-23.6	19.2	0.00e+00	0	44	0	2760900608	5	3878
2026-01-28 14:50:07.44	306.78	74.02	-23.2	-23.5	18.8	0.00e+00	0	44	0	2768240640	6	3748
2026-01-28 14:50:08.45	307.82	73.63	-23.5	-23.7	18.6	0.00e+00	0	44	0	2775580672	7	3674
2026-01-28 14:50:09.45	308.80	73.23	-23.3	-23.2	18.9	0.00e+00	0	44	0	2782920704	7	3578
2026-01-28 14:50:10.45	309.74	72.83	-23.5	-23.7	18.6	0.00e+00	0	44	0	2790260736	7	3683
2026-01-28 14:50:11.45	310.63	72.43	-24.1	-24.5	18.0	0.00e+00	0	44	0	2797600768	8	3753
2026-01-28 14:50:12.45	311.48	72.02	-24.2	-24.7	17.8	0.00e+00	0	44	0	2803892224	8	3820
2026-01-28 14:50:13.44	312.28	71.62	-24.3	-24.9	17.8	0.00e+00	0	44	0	2811232256	8	3857
2026-01-28 14:50:14.44	313.06	71.21	-24.0	-24.3	18.1	0.00e+00	0	44	0	2818572288	8	3707
2026-01-28 14:50:15.45	313.80	70.79	-24.1	-24.5	18.0	0.00e+00	0	44	0	2825912320	8	3765
2026-01-28 14:50:16.45	314.51	70.38	-24.3	-24.9	17.7	0.00e+00	0	44	0	2833252352	8	3862
2026-01-28 14:50:17.45	315.18	69.97	-24.4	-25.2	17.6	0.00e+00	0	44	0	2840592384	8	3926
2026-01-28 14:50:18.45	315.83	69.56	-24.0	-24.2	18.1	0.00e+00	0	44	0	2847932416	8	3689
2026-01-28 14:50:19.46	316.45	69.14	-23.5	-23.2	18.6	0.00e+00	0	44	0	2855272448	8	3471
2026-01-28 14:50:20.46	317.04	68.72	-23.2	-23.0	18.9	0.00e+00	0	44	0	2861563904	7	3537
2026-01-28 14:50:21.46	317.61	68.31	-23.3	-23.2	18.8	0.00e+00	0	44	0	2868903936	7	3581
2026-01-28 14:50:22.46	318.16	67.90	-23.3	-23.2	18.8	0.00e+00	0	44	0	2876243968	7	3573
2026-01-28 14:50:23.47	318.69	67.48	-23.3	-23.2	18.9	0.00e+00	0	44	0	2883584000	7	3575
2026-01-28 14:50:24.48	319.19	67.06	-23.0	-22.7	19.0	0.00e+00	0	44	0	2890924032	7	3469
2026-01-28 14:50:25.48	319.68	66.65	-23.0	-22.7	19.0	0.00e+00	0	44	0	2898264064	7	3457
2026-01-28 14:50:26.49	320.15	66.23	-23.5	-23.6	18.6	0.00e+00	0	44	0	2905604096	7	3665
2026-01-28 14:50:27.49	320.59	65.82	-23.5	-23.8	18.5	0.00e+00	0	44	0	2912944128	7	3699
2026-01-28 14:50:28.50	321.03	65.41	-24.0	-24.8	18.0	0.00e+00	0	44	0	2920284160	7	3935
2026-01-28 14:50:29.49	321.44	65.00	-23.7	-24.1	18.4	0.00e+00	0	44	0	2927624192	7	3767
2026-01-28 14:50:30.49	321.84	64.59	-23.4	-23.5	18.6	0.00e+00	0	44	0	2934964224	7	3652
2026-01-28 14:50:31.49	322.23	64.19	-23.4	-23.4	18.7	0.00e+00	0	44	0	2942304256	7	3619
2026-01-28 14:50:32.49	322.60	63.78	-23.4	-23.5	18.6	0.00e+00	0	44	0	2948595712	7	3643
2026-01-28 14:50:33.50	322.97	63.37	-23.4	-23.6	18.6	0.00e+00	0	44	0	2955935744	7	3656
2026-01-28 14:50:34.50	323.32	62.97	-23.4	-23.6	18.6	0.00e+00	0	44	0	2963275776	7	3661
2026-01-28 14:50:35.51	323.66	62.56	-23.7	-24.1	18.2	0.00e+00	0	44	0	2970615808	7	3781
2026-01-28 14:50:36.51	323.99	62.16	-23.8	-24.3	18.2	0.00e+00	0	44	0	2977955840	7	3817
2026-01-28 14:50:37.51	324.30	61.76	-24.2	-24.6	17.8	0.00e+00	0	44	0	2985295872	8	3789
2026-01-28 14:50:38.52	324.61	61.36	-24.4	-25.0	17.5	0.00e+00	0	44	0	2992635904	8	3887
2026-01-28 14:50:39.52	324.91	60.97	-24.5	-25.3	17.5	0.00e+00	0	44	0	2999975936	8	3946
2026-01-28 14:50:40.53	325.20	60.57	-24.5	-25.3	17.5	0.00e+00	0	44	0	3007315968	8	3939
2026-01-28 14:50:41.54	325.48	60.17	-24.6	-25.0	17.4	0.00e+00	0	44	0	3013607424	9	3772
2026-01-28 14:50:42.54	325.75	59.78	-24.5	-24.7	17.5	0.00e+00	0	44	0	3021996032	9	3709
2026-01-28 14:50:43.54	326.01	59.40	-24.3	-24.3	17.7	0.00e+00	0	44	0	3029336064	9	3623
2026-01-28 14:50:44.54	326.27	59.01	-24.4	-24.5	17.5	0.00e+00	0	44	0	3035627520	9	3661
2026-01-28 14:50:45.55	326.52	58.62	-24.3	-24.5	17.5	0.00e+00	0	44	0	3042967552	9	3658
2026-01-28 14:50:46.55	326.76	58.24	-24.6	-25.0	17.3	0.00e+00	0	44	0	3050307584	9	3776
2026-01-28 14:50:47.56	327.00	57.86	-24.7	-25.1	17.2	0.00e+00	0	44	0	3057647616	9	3810
2026-01-28 14:50:48.56	327.22	57.48	-24.8	-25.5	17.0	0.00e+00	0	44	0	3064987648	9	3893
2026-01-28 14:50:49.57	327.45	57.10	-24.8	-25.5	17.1	0.00e+00	0	44	0	3072327680	9	3878
2026-01-28 14:50:50.57	327.66	56.73	-24.5	-24.7	17.4	0.00e+00	0	44	0	3079667712	9	3709
2026-01-28 14:50:51.58	327.88	56.35	-24.3	-24.5	17.5	0.00e+00	0	44	0	3087007744	9	3652
2026-01-28 14:50:52.58	328.08	55.98	-24.5	-24.9	17.4	0.00e+00	0	44	0	3093299200	9	3750
2026-01-28 14:50:53.59	328.28	55.61	-24.7	-25.3	17.1	0.00e+00	0	43	0	3100639232	9	3851
2026-01-28 14:50:54.60	328.48	55.24	-24.9	-25.6	17.0	0.00e+00	0	44	0	3109027840	9	3926
2026-01-28 14:50:55.60	328.67	54.88	-24.8	-25.4	17.1	0.00e+00	0	44	0	3115319296	9	3863
2026-01-28 14:50:56.61	328.85	54.52	-25.0	-25.8	16.8	0.00e+00	0	44	0	3122659328	9	3966
2026-01-28 14:50:57.61	329.03	54.16	-25.1	-25.5	16.8	0.00e+00	0	44	0	3129999360	10	3784
2026-01-28 14:50:58.62	329.21	53.80	-25.0	-25.3	16.9	0.00e+00	0	43	0	3137339392	10	3744
2026-01-28 14:50:59.62	329.38	53.44	-24.8	-25.0	16.9	0.00e+00	0	44	0	3144679424	10	3678
2026-01-28 14:51:00.62	329.55	53.09	-24.8	-24.9	17.1	0.00e+00	0	44	0	3152019456	10	3644
2026-01-28 14:51:01.62	329.71	52.74	-24.7	-24.8	17.1	0.00e+00	0	44	0	3159359488	10	3630
2026-01-28 14:51:02.62	329.87	52.40	-24.7	-24.6	17.2	0.00e+00	0	44	0	3166699520	10	3589
2026-01-28 14:51:03.62	330.03	52.05	-24.4	-24.6	17.4	0.00e+00	0	44	0	3174039552	9	3678
2026-01-28 14:51:04.63	330.19	51.71	-24.5	-24.8	17.3	0.00e+00	0	44	0	3180331008	9	3726
2026-01-28 14:51:05.63	330.33	51.37	-24.6	-25.1	17.1	0.00e+00	0	44	0	3187671040	9	3789
2026-01-28 14:51:06.63	330.48	51.03	-24.8	-25.4	17.0	0.00e+00	0	44	0	3195011072	9	3860
2026-01-28 14:51:07.64	330.63	50.69	-24.8	-25.4	17.0	0.00e+00	0	44	0	3202351104	9	3873
2026-01-28 14:51:08.64	330.77	50.35	-24.7	-25.2	17.1	0.00e+00	0	44	0	3209691136	9	3832
2026-01-28 14:51:09.63	330.90	50.03	-24.4	-24.6	17.4	0.00e+00	0	44	0	3217031168	9	3693
2026-01-28 14:51:10.64	331.04	49.69	-24.2	-24.2	17.6	0.00e+00	0	44	0	3224371200	9	3602
2026-01-28 14:51:11.64	331.17	49.37	-24.2	-24.2	17.6	0.00e+00	0	44	0	3231711232	9	3596
2026-01-28 14:51:12.65	331.30	49.04	-24.3	-24.3	17.6	0.00e+00	0	44	0	3239051264	9	3624
2026-01-28 14:51:13.65	331.42	48.72	-24.3	-24.4	17.4	0.00e+00	0	44	0	3246391296	9	3651
2026-01-28 14:51:14.66	331.55	48.39	-24.2	-24.3	17.5	0.00e+00	0	44	0	3253731328	9	3618
2026-01-28 14:51:15.66	331.67	48.08	-24.0	-24.2	17.9	0.00e+00	0	44	0	3260022784	8	3694
2026-01-28 14:51:16.66	331.79	47.76	-23.7	-23.6	18.2	0.00e+00	0	44	0	3267362816	8	3563
2026-01-28 14:51:17.66	331.90	47.45	-23.5	-23.3	18.3	0.00e+00	0	44	0	3274702848	8	3489
2026-01-28 14:51:18.67	332.02	47.13	-23.6	-23.4	18.2	0.00e+00	0	44	0	3282042880	8	3518
2026-01-28 14:51:19.67	332.13	46.82	-23.6	-23.4	18.3	0.00e+00	0	44	0	3289382912	8	3526
2026-01-28 14:51:20.67	332.24	46.52	-23.4	-23.0	18.4	0.00e+00	0	44	0	3296722944	8	3441
2026-01-28 14:51:21.68	332.35	46.21	-23.4	-23.5	18.5	0.00e+00	0	44	0	3304062976	7	3640
2026-01-28 14:51:22.69	332.46	45.90	-23.6	-23.9	18.2	0.00e+00	0	44	0	3311403008	7	3742
2026-01-28 14:51:23.69	332.56	45.60	-23.6	-23.9	18.2	0.00e+00	0	44	0	3318743040	7	3727
2026-01-28 14:51:24.70	332.66	45.30	-23.4	-23.6	18.4	0.00e+00	0	44	0	3326083072	7	3672
2026-01-28 14:51:25.71	332.76	45.00	-23.6	-23.9	18.2	0.00e+00	0	44	0	3333423104	7	3739
2026-01-28 14:51:26.71	332.86	44.71	-23.6	-23.9	18.1	0.00e+00	0	44	0	3340763136	7	3742
2026-01-28 14:51:27.71	332.96	44.42	-23.2	-23.2	18.5	0.00e+00	0	44	0	3347054592	7	3569
2026-01-28 14:51:28.72	333.06	44.12	-23.1	-22.9	18.7	0.00e+00	0	44	0	3354394624	7	3521
2026-01-28 14:51:29.72	333.15	43.84	-23.1	-22.8	18.8	0.00e+00	0	44	0	3361734656	7	3501
2026-01-28 14:51:30.73	333.24	43.55	-23.1	-22.9	18.7	0.00e+00	0	44	0	3369074688	7	3504
2026-01-28 14:51:31.73	333.33	43.26	-23.2	-23.0	18.6	0.00e+00	0	44	0	3376414720	7	3547
2026-01-28 14:51:32.73	333.42	42.98	-23.2	-23.1	18.6	0.00e+00	0	44	0	3383754752	7	3554
2026-01-28 14:51:33.74	333.51	42.70	-23.2	-23.2	18.6	0.00e+00	0	44	0	3391094784	7	3570
2026-01-28 14:51:34.74	333.59	42.42	-23.3	-23.3	18.5	0.00e+00	0	44	0	3398434816	7	3599
2026-01-28 14:51:35.75	333.68	42.15	-23.2	-23.1	18.3	0.00e+00	0	44	0	3405774848	7	3559
2026-01-28 14:51:36.75	333.76	41.87	-23.4	-23.4	18.3	0.00e+00	0	44	0	3413114880	7	3625
2026-01-28 14:51:37.76	333.84	41.60	-23.5	-23.8	18.3	0.00e+00	0	44	0	3420454912	7	3710
2026-01-28 14:51:38.76	333.92	41.33	-23.6	-24.0	18.1	0.00e+00	0	44	0	3427794944	7	3759
2026-01-28 14:51:39.77	334.00	41.06	-23.8	-24.3	18.0	0.00e+00	0	44	0	3434086400	7	3822
2026-01-28 14:51:40.77	334.08	40.79	-23.8	-24.4	18.0	0.00e+00	0	44	0	3441426432	7	3844
2026-01-28 14:51:41.77	334.16	40.53	-23.8	-24.4	17.8	0.00e+00	0	44	0	3448766464	7	3852
2026-01-28 14:51:42.77	334.23	40.27	-23.8	-24.5	17.9	0.00e+00	0	44	0	3456106496	7	3866
2026-01-28 14:51:43.78	334.31	40.00	-23.9	-24.5	17.9	0.00e+00	0	44	0	3463446528	7	3869
2026-01-28 14:51:44.79	334.38	39.74	-23.7	-24.3	18.0	0.00e+00	0	44	0	3470786560	7	3821
2026-01-28 14:51:45.80	334.46	39.48	-23.4	-23.6	18.3	0.00e+00	0	44	0	3478126592	7	3679
2026-01-28 14:51:46.80	334.53	39.23	-23.2	-23.1	18.5	0.00e+00	0	44	0	3485466624	7	3571
2026-01-28 14:51:47.81	334.60	38.98	-23.1	-23.0	18.5	0.00e+00	0	44	0	3492806656	7	3539
2026-01-28 14:51:48.81	334.67	38.72	-23.0	-22.7	18.6	0.00e+00	0	44	0	3500146688	7	3481
2026-01-28 14:51:49.81	334.73	38.48	-22.8	-22.8	18.9	0.00e+00	0	44	0	3507486720	6	3592
2026-01-28 14:51:50.81	334.80	38.23	-22.8	-22.7	19.0	0.00e+00	0	44	0	3513778176	6	3578
2026-01-28 14:51:51.82	334.87	37.98	-22.9	-23.0	18.8	0.00e+00	0	44	0	3521118208	6	3643
2026-01-28 14:51:52.82	334.93	37.74	-23.0	-23.1	18.8	0.00e+00	0	44	0	3528458240	6	3667
2026-01-28 14:51:53.82	335.00	37.50	-23.0	-23.1	18.8	0.00e+00	0	44	0	3535798272	6	3654
2026-01-28 14:51:54.83	335.06	37.25	-23.0	-23.2	18.8	0.00e+00	0	44	0	3543138304	6	3668
2026-01-28 14:51:55.83	335.12	37.01	-23.1	-23.5	18.6	0.00e+00	0	43	0	3550478336	6	3740
2026-01-28 14:51:56.83	335.19	36.78	-23.2	-23.6	18.6	0.00e+00	0	44	0	3557818368	6	3763
2026-01-28 14:51:57.83	335.25	36.54	-23.2	-23.6	18.6	0.00e+00	0	44	0	3565158400	6	3764
2026-01-28 14:51:58.83	335.31	36.31	-23.2	-23.7	18.5	0.00e+00	0	44	0	3572498432	6	3794
2026-01-28 14:51:59.84	335.37	36.08	-23.2	-23.7	18.5	0.00e+00	0	44	0	3578789888	6	3797
2026-01-28 14:52:00.84	335.42	35.85	-23.1	-23.5	18.6	0.00e+00	0	44	0	3587178496	6	3744
2026-01-28 14:52:01.84	335.48	35.62	-23.2	-23.6	18.6	0.00e+00	0	44	0	3594518528	6	3767
2026-01-28 14:52:02.85	335.54	35.39	-23.1	-23.4	18.6	0.00e+00	0	44	0	3600809984	6	3739
2026-01-28 14:52:03.85	335.60	35.16	-23.0	-23.2	18.7	0.00e+00	0	44	0	3608150016	6	3679
2026-01-28 14:52:04.86	335.65	34.94	-23.0	-23.2	18.8	0.00e+00	0	44	0	3615490048	6	3672
2026-01-28 14:52:05.86	335.71	34.71	-22.8	-22.8	19.0	0.00e+00	0	44	0	3622830080	6	3596
2026-01-28 14:52:06.86	335.76	34.49	-22.8	-22.7	18.9	0.00e+00	0	44	0	3630170112	6	3567
2026-01-28 14:52:07.87	335.81	34.27	-22.8	-22.7	19.0	0.00e+00	0	44	0	3637510144	6	3574
2026-01-28 14:52:08.87	335.87	34.05	-22.8	-22.8	18.9	0.00e+00	0	44	0	3644850176	6	3597
2026-01-28 14:52:09.88	335.92	33.84	-22.7	-22.6	19.0	0.00e+00	0	44	0	3652190208	6	3557
2026-01-28 14:52:10.87	335.97	33.62	-22.8	-22.8	18.9	0.00e+00	0	44	0	3659530240	6	3595
2026-01-28 14:52:11.88	336.02	33.41	-22.8	-22.8	18.9	0.00e+00	0	44	0	3665821696	6	3603
2026-01-28 14:52:12.88	336.07	33.20	-22.9	-23.0	18.8	0.00e+00	0	44	0	3673161728	6	3625
2026-01-28 14:52:13.88	336.12	32.99	-23.1	-23.4	18.6	0.00e+00	0	44	0	3680501760	6	3716
2026-01-28 14:52:14.89	336.17	32.78	-23.1	-23.3	18.7	0.00e+00	0	44	0	3687841792	6	3707
2026-01-28 14:52:15.90	336.22	32.57	-22.9	-23.0	18.6	0.00e+00	0	44	0	3695181824	6	3643
2026-01-28 14:52:16.90	336.27	32.36	-22.9	-23.0	18.8	0.00e+00	0	44	0	3702521856	6	3635
2026-01-28 14:52:17.90	336.32	32.16	-22.9	-23.0	18.8	0.00e+00	0	44	0	3709861888	6	3651
2026-01-28 14:52:18.90	336.36	31.95	-22.9	-23.0	18.8	0.00e+00	0	44	0	3717201920	6	3647
2026-01-28 14:52:19.91	336.41	31.75	-22.9	-23.0	18.8	0.00e+00	0	44	0	3724541952	6	3637
2026-01-28 14:52:20.90	336.45	31.55	-23.0	-23.2	18.7	0.00e+00	0	44	0	3731881984	6	3690
2026-01-28 14:52:21.91	336.50	31.35	-23.0	-23.2	18.7	0.00e+00	0	44	0	3739222016	6	3689
2026-01-28 14:52:22.91	336.54	31.15	-23.0	-23.1	18.7	0.00e+00	0	44	0	3745513472	6	3673
2026-01-28 14:52:23.91	336.59	30.96	-23.0	-23.3	18.6	0.00e+00	0	44	0	3752853504	6	3702
2026-01-28 14:52:24.92	336.63	30.76	-23.1	-23.4	18.6	0.00e+00	0	43	0	3760193536	6	3730
2026-01-28 14:52:25.91	336.68	30.57	-23.1	-23.4	18.5	0.00e+00	0	44	0	3767533568	6	3739
2026-01-28 14:52:26.91	336.72	30.38	-23.2	-23.6	18.5	0.00e+00	0	44	0	3774873600	6	3763
2026-01-28 14:52:27.92	336.76	30.18	-23.2	-23.7	18.4	0.00e+00	0	44	0	3782213632	6	3796
2026-01-28 14:52:28.93	336.80	29.99	-23.3	-23.7	18.4	0.00e+00	0	44	0	3789553664	6	3803
2026-01-28 14:52:29.93	336.85	29.80	-23.4	-24.1	18.2	0.00e+00	0	44	0	3796893696	6	3881
2026-01-28 14:52:30.93	336.89	29.62	-23.6	-24.4	18.1	0.00e+00	0	44	0	3804233728	6	3953
2026-01-28 14:52:31.93	336.93	29.43	-23.7	-24.3	17.9	0.00e+00	0	44	0	3810525184	7	3817
2026-01-28 14:52:32.94	336.97	29.24	-23.7	-24.2	17.9	0.00e+00	0	44	0	3817865216	7	3806
2026-01-28 14:52:33.94	337.01	29.06	-23.7	-24.2	17.9	0.00e+00	0	44	0	3826253824	7	3805
2026-01-28 14:52:34.94	337.05	28.88	-23.9	-24.5	17.7	0.00e+00	0	44	0	3832545280	7	3873
2026-01-28 14:52:35.94	337.09	28.70	-23.8	-24.4	17.8	0.00e+00	0	44	0	3839885312	7	3840
2026-01-28 14:52:36.95	337.12	28.51	-23.9	-24.7	17.6	0.00e+00	0	44	0	3847225344	7	3916
2026-01-28 14:52:37.95	337.16	28.33	-23.9	-24.6	17.7	0.00e+00	0	44	0	3854565376	7	3905
2026-01-28 14:52:38.95	337.20	28.16	-23.6	-23.9	18.0	0.00e+00	0	44	0	3861905408	7	3741
2026-01-28 14:52:39.95	337.24	27.98	-23.5	-23.8	18.1	0.00e+00	0	44	0	3869245440	7	3721
2026-01-28 14:52:40.96	337.28	27.80	-23.6	-23.8	18.0	0.00e+00	0	44	0	3876585472	7	3721
2026-01-28 14:52:41.95	337.31	27.63	-23.5	-23.7	18.1	0.00e+00	0	44	0	3883925504	7	3693
2026-01-28 14:52:42.96	337.35	27.45	-23.5	-23.7	18.2	0.00e+00	0	44	0	3890216960	7	3689
2026-01-28 14:52:43.96	337.38	27.28	-23.5	-23.6	18.1	0.00e+00	0	43	0	3897556992	7	3679
2026-01-28 14:52:44.96	337.42	27.11	-23.6	-23.9	18.0	0.00e+00	0	44	0	3904897024	7	3747
2026-01-28 14:52:45.97	337.46	26.94	-23.6	-24.0	18.0	0.00e+00	0	44	0	3912237056	7	3752
2026-01-28 14:52:46.98	337.49	26.77	-23.4	-23.5	18.2	0.00e+00	0	44	0	3919577088	7	3651
2026-01-28 14:52:47.98	337.53	26.60	-23.2	-23.2	18.4	0.00e+00	0	44	0	3926917120	7	3589
2026-01-28 14:52:48.98	337.56	26.43	-23.2	-23.2	18.4	0.00e+00	0	44	0	3934257152	7	3574
2026-01-28 14:52:49.98	337.59	26.27	-23.3	-23.3	18.3	0.00e+00	0	44	0	3941597184	7	3608
2026-01-28 14:52:50.99	337.63	26.10	-23.3	-23.3	18.3	0.00e+00	0	44	0	3948937216	7	3612
2026-01-28 14:52:51.99	337.66	25.94	-23.5	-23.7	18.1	0.00e+00	0	44	0	3955228672	7	3701
2026-01-28 14:52:52.99	337.70	25.77	-23.5	-23.7	18.1	0.00e+00	0	44	0	3963617280	7	3693
2026-01-28 14:52:54.00	337.73	25.61	-23.4	-23.6	18.1	0.00e+00	0	44	0	3970957312	7	3668
2026-01-28 14:52:55.00	337.76	25.45	-23.4	-23.6	18.2	0.00e+00	0	44	0	3977248768	7	3670
2026-01-28 14:52:56.01	337.79	25.29	-23.5	-23.6	18.1	0.00e+00	0	44	0	3984588800	7	3682
2026-01-28 14:52:57.00	337.83	25.13	-23.5	-23.7	18.1	0.00e+00	0	44	0	3991928832	7	3692
2026-01-28 14:52:58.01	337.86	24.97	-23.4	-23.7	18.0	0.00e+00	0	44	0	3999268864	7	3686
2026-01-28 14:52:59.00	337.89	24.81	-23.5	-23.8	18.0	0.00e+00	0	44	0	4006608896	7	3726
2026-01-28 14:53:00.00	337.92	24.66	-23.6	-24.0	17.9	0.00e+00	0	44	0	4013948928	7	3770
2026-01-28 14:53:01.01	337.95	24.50	-23.6	-24.0	17.9	0.00e+00	0	44	0	4021288960	7	3757
2026-01-28 14:53:02.02	337.98	24.34	-23.4	-23.6	18.1	0.00e+00	0	44	0	4028628992	7	3680
2026-01-28 14:53:03.02	338.01	24.19	-23.3	-23.4	18.2	0.00e+00	0	44	0	4035969024	7	3631
2026-01-28 14:53:04.02	338.04	24.04	-23.4	-23.5	18.2	0.00e+00	0	44	0	4042260480	7	3646
2026-01-28 14:53:05.02	338.07	23.89	-23.4	-23.4	18.2	0.00e+00	0	44	0	4049600512	7	3638
2026-01-28 14:53:06.03	338.10	23.73	-23.3	-23.3	18.2	0.00e+00	0	44	0	4056940544	7	3605
2026-01-28 14:53:07.03	338.13	23.58	-23.3	-23.3	18.3	0.00e+00	0	44	0	4064280576	7	3603
2026-01-28 14:53:08.04	338.16	23.43	-23.3	-23.4	18.2	0.00e+00	0	44	0	4071620608	7	3627
2026-01-28 14:53:09.05	338.19	23.28	-23.3	-23.3	18.2	0.00e+00	0	44	0	4078960640	7	3611
2026-01-28 14:53:10.06	338.22	23.14	-23.3	-23.3	18.3	0.00e+00	0	44	0	4086300672	7	3593
2026-01-28 14:53:11.06	338.25	22.99	-23.3	-23.2	18.3	0.00e+00	0	44	0	4093640704	7	3594
2026-01-28 14:53:12.07	338.28	22.84	-23.3	-23.3	18.2	0.00e+00	0	44	0	4100980736	7	3603
2026-01-28 14:53:13.07	338.30	22.70	-23.3	-23.4	18.2	0.00e+00	0	44	0	4108320768	7	3622
2026-01-28 14:53:14.08	338.33	22.55	-23.3	-23.3	18.2	0.00e+00	0	44	0	4115660800	7	3611
2026-01-28 14:53:15.08	338.36	22.41	-23.4	-23.5	18.2	0.00e+00	0	44	0	4121952256	7	3641
2026-01-28 14:53:16.08	338.39	22.27	-23.4	-23.5	18.2	0.00e+00	0	44	0	4129292288	7	3638
2026-01-28 14:53:17.08	338.41	22.12	-23.4	-23.5	18.1	0.00e+00	0	44	0	4136632320	7	3647
2026-01-28 14:53:18.09	338.44	21.98	-23.5	-23.8	18.0	0.00e+00	0	44	0	4143972352	7	3709
2026-01-28 14:53:19.09	338.47	21.84	-23.5	-23.8	18.0	0.00e+00	0	44	0	4151312384	7	3707
2026-01-28 14:53:20.10	338.49	21.70	-23.5	-23.8	17.9	0.00e+00	0	44	0	4158652416	7	3722
2026-01-28 14:53:21.10	338.52	21.56	-23.8	-24.3	17.7	0.00e+00	0	44	0	4165992448	7	3833
2026-01-28 14:53:22.10	338.55	21.42	-23.7	-24.2	17.7	0.00e+00	0	44	0	4173332480	7	3817
2026-01-28 14:53:23.11	338.57	21.29	-23.9	-24.6	17.6	0.00e+00	0	44	0	4180672512	7	3895
2026-01-28 14:53:24.11	338.60	21.15	-23.9	-24.6	17.6	0.00e+00	0	44	0	4188012544	7	3890
2026-01-28 14:53:25.12	338.62	21.01	-24.1	-24.6	17.3	0.00e+00	0	44	0	4195352576	8	3790
2026-01-28 14:53:26.12	338.65	20.88	-24.5	-25.3	17.0	0.00e+00	0	44	0	4202692608	8	3956
2026-01-28 14:53:27.13	338.67	20.74	-24.4	-25.2	17.0	0.00e+00	0	44	0	4208984064	8	3927
2026-01-28 14:53:28.13	338.70	20.61	-24.6	-25.6	16.8	0.00e+00	0	44	0	4216324096	8	4025
2026-01-28 14:53:29.13	338.72	20.48	-24.5	-24.9	16.9	0.00e+00	0	44	0	4223664128	9	3770
2026-01-28 14:53:30.14	338.75	20.34	-24.3	-24.4	17.1	0.00e+00	0	44	0	4231004160	9	3648
2026-01-28 14:53:31.14	338.77	20.21	-24.1	-24.0	17.3	0.00e+00	0	44	0	4238344192	9	3566
2026-01-28 14:53:32.15	338.80	20.08	-23.9	-23.6	17.5	0.00e+00	0	44	0	4245684224	9	3479
2026-01-28 14:53:33.15	338.82	19.95	-23.9	-24.0	17.5	0.00e+00	0	44	0	4253024256	8	3672
2026-01-28 14:53:34.15	338.85	19.82	-23.9	-24.1	17.5	0.00e+00	0	44	0	4260364288	8	3687
2026-01-28 14:53:35.15	338.87	19.69	-24.1	-24.5	17.3	0.00e+00	0	44	0	4267704320	8	3778
2026-01-28 14:53:36.16	338.89	19.56	-24.0	-24.3	17.4	0.00e+00	0	44	0	4275044352	8	3732
2026-01-28 14:53:37.16	338.92	19.43	-23.9	-24.1	17.5	0.00e+00	0	44	0	4282384384	8	3680
2026-01-28 14:53:38.16	338.94	19.31	-24.0	-24.3	17.4	0.00e+00	0	44	0	4288675840	8	3729
2026-01-28 14:53:39.17	338.96	19.18	-23.9	-24.1	17.5	0.00e+00	0	44	0	4296015872	8	3687
2026-01-28 14:53:40.18	338.99	19.05	-24.0	-24.4	17.3	0.00e+00	0	44	0	4303355904	8	3748
2026-01-28 14:53:41.18	339.01	18.93	-24.0	-24.2	17.4	0.00e+00	0	44	0	4310695936	8	3716
2026-01-28 14:53:42.18	339.03	18.81	-24.0	-24.3	17.3	0.00e+00	0	44	0	4318035968	8	3733
2026-01-28 14:53:43.19	339.05	18.68	-24.2	-24.8	17.1	0.00e+00	0	44	0	4325376000	8	3839
2026-01-28 14:53:44.18	339.08	18.56	-24.2	-24.8	17.1	0.00e+00	0	44	0	4332716032	8	3840
2026-01-28 14:53:45.18	339.10	18.44	-24.3	-24.9	17.0	0.00e+00	0	44	0	4340056064	8	3879
2026-01-28 14:53:46.19	339.12	18.31	-24.3	-24.9	17.0	0.00e+00	0	44	0	4347396096	8	3870
2026-01-28 14:53:47.19	339.14	18.19	-24.5	-25.3	16.8	0.00e+00	0	44	0	4354736128	8	3959
2026-01-28 14:53:48.20	339.16	18.07	-24.6	-25.1	16.7	0.00e+00	0	44	0	4362076160	9	3803
2026-01-28 14:53:49.20	339.19	17.95	-24.9	-25.7	16.4	0.00e+00	0	44	0	4369416192	9	3944
2026-01-28 14:53:50.20	339.21	17.83	-24.7	-25.3	16.5	0.00e+00	0	44	0	4375707648	9	3856
2026-01-28 14:53:51.20	339.23	17.71	-24.7	-25.2	16.6	0.00e+00	0	44	0	4383047680	9	3843
2026-01-28 14:53:52.21	339.25	17.59	-24.7	-25.3	16.6	0.00e+00	0	44	0	4390387712	9	3850
2026-01-28 14:53:53.21	339.27	17.48	-24.7	-25.4	16.5	0.00e+00	0	44	0	4397727744	9	3876
2026-01-28 14:53:54.22	339.29	17.36	-24.7	-25.2	16.6	0.00e+00	0	44	0	4405067776	9	3845
2026-01-28 14:53:55.22	339.31	17.24	-24.9	-25.8	16.2	0.00e+00	0	44	0	4412407808	9	3971
2026-01-28 14:53:56.22	339.33	17.13	-24.7	-25.4	16.5	0.00e+00	0	44	0	4419747840	9	3882
2026-01-28 14:53:57.23	339.35	17.01	-24.6	-25.1	16.6	0.00e+00	0	44	0	4427087872	9	3809
2026-01-28 14:53:58.23	339.38	16.89	-24.5	-24.8	16.7	0.00e+00	0	44	0	4434427904	9	3749
2026-01-28 14:53:59.23	339.40	16.78	-24.4	-24.8	16.8	0.00e+00	0	44	0	4440719360	9	3732
2026-01-28 14:54:00.24	339.42	16.67	-24.5	-24.9	16.7	0.00e+00	0	44	0	4448059392	9	3764
2026-01-28 14:54:01.24	339.44	16.55	-24.6	-25.0	16.6	1.10e-06	0	44	0	4456448000	9	3796
2026-01-28 14:54:02.24	339.46	16.44	-24.7	-25.3	16.5	0.00e+00	0	44	0	4462739456	9	3852
2026-01-28 14:54:03.24	339.48	16.33	-24.6	-25.2	16.5	0.00e+00	0	44	0	4470079488	9	3827
2026-01-28 14:54:04.25	339.50	16.21	-24.6	-25.2	16.5	0.00e+00	0	44	0	4477419520	9	3828
2026-01-28 14:54:05.26	339.52	16.10	-24.7	-25.2	16.4	0.00e+00	0	44	0	4484759552	9	3844
2026-01-28 14:54:06.26	339.54	15.99	-24.7	-25.3	16.4	0.00e+00	0	44	0	4492099584	9	3868
2026-01-28 14:54:07.26	339.55	15.88	-24.8	-25.6	16.3	0.00e+00	0	44	0	4499439616	9	3920
2026-01-28 14:54:08.26	339.57	15.77	-24.8	-25.6	16.3	0.00e+00	0	44	0	4506779648	9	3924
2026-01-28 14:54:09.26	339.59	15.66	-24.9	-25.7	16.2	0.00e+00	0	44	0	4514119680	9	3947
2026-01-28 14:54:10.26	339.61	15.55	-24.9	-25.7	16.2	0.00e+00	0	44	0	4520411136	9	3961
2026-01-28 14:54:11.25	339.63	15.45	-24.9	-25.7	16.2	0.00e+00	0	44	0	4527751168	9	3952
2026-01-28 14:54:12.26	339.65	15.34	-25.0	-25.9	16.1	0.00e+00	0	44	0	4535091200	9	4015
2026-01-28 14:54:13.26	339.67	15.23	-24.9	-25.8	16.1	0.00e+00	0	43	0	4542431232	9	3988
2026-01-28 14:54:14.27	339.69	15.12	-25.1	-26.1	16.0	0.00e+00	0	44	0	4549771264	9	4054
2026-01-28 14:54:15.27	339.71	15.02	-25.1	-25.7	15.9	0.00e+00	0	44	0	4557111296	10	3858
2026-01-28 14:54:16.28	339.72	14.91	-25.4	-26.2	15.7	0.00e+00	0	44	0	4564451328	10	3980
2026-01-28 14:54:17.28	339.74	14.81	-25.3	-26.1	15.8	0.00e+00	0	44	0	4571791360	10	3937
2026-01-28 14:54:18.29	339.76	14.70	-25.4	-26.3	15.6	0.00e+00	0	44	0	4579131392	10	3999
2026-01-28 14:54:19.29	339.78	14.59	-25.4	-26.3	15.7	0.00e+00	0	44	0	4586471424	10	3990
2026-01-28 14:54:20.29	339.80	14.49	-25.5	-26.6	15.5	0.00e+00	0	44	0	4593811456	10	4079
2026-01-28 14:54:21.29	339.82	14.39	-25.5	-26.6	15.4	0.00e+00	0	44	0	4601151488	10	4083
2026-01-28 14:54:22.29	339.83	14.28	-25.6	-26.7	15.4	0.00e+00	0	44	0	4607442944	10	4095
2026-01-28 14:54:23.29	339.85	14.18	-25.8	-26.8	15.1	0.00e+00	0	44	0	4614782976	11	4007
2026-01-28 14:54:24.30	339.87	14.08	-25.8	-26.7	15.1	0.00e+00	0	44	0	4622123008	11	3993
2026-01-28 14:54:25.30	339.89	13.98	-25.9	-27.0	15.0	0.00e+00	0	44	0	4629463040	11	4061
2026-01-28 14:54:26.30	339.90	13.88	-25.8	-26.8	15.1	0.00e+00	0	44	0	4636803072	11	4009
2026-01-28 14:54:27.31	339.92	13.77	-26.1	-27.3	14.8	0.00e+00	0	44	0	4644143104	11	4135
2026-01-28 14:54:28.32	339.94	13.67	-25.8	-26.6	15.1	0.00e+00	0	44	0	4651483136	11	3972
2026-01-28 14:54:29.32	339.96	13.57	-25.7	-26.4	15.3	0.00e+00	0	44	0	4658823168	11	3917
2026-01-28 14:54:30.32	339.97	13.47	-25.7	-26.4	15.3	0.00e+00	0	44	0	4665114624	11	3925
2026-01-28 14:54:31.33	339.99	13.37	-25.7	-26.6	15.2	0.00e+00	0	44	0	4672454656	11	3956
2026-01-28 14:54:32.33	340.01	13.27	-25.6	-26.3	15.3	0.00e+00	0	44	0	4679794688	11	3903
2026-01-28 14:54:33.33	340.02	13.17	-25.8	-26.6	15.1	0.00e+00	0	44	0	4687134720	11	3971
2026-01-28 14:54:34.34	340.04	13.08	-25.7	-26.5	15.2	0.00e+00	0	44	0	4694474752	11	3950
2026-01-28 14:54:35.34	340.06	12.98	-25.6	-26.3	15.3	1.10e-06	0	44	0	4701814784	11	3898
2026-01-28 14:54:36.34	340.07	12.88	-25.5	-26.1	15.4	0.00e+00	0	44	0	4709154816	11	3846
2026-01-28 14:54:37.35	340.09	12.78	-25.7	-26.5	15.2	0.00e+00	0	44	0	4716494848	11	3944
2026-01-28 14:54:38.34	340.11	12.69	-25.8	-26.7	15.0	0.00e+00	0	44	0	4723834880	11	3994
2026-01-28 14:54:39.35	340.12	12.59	-25.7	-26.4	15.2	0.00e+00	0	44	0	4731174912	11	3918
2026-01-28 14:54:40.35	340.14	12.49	-25.6	-26.2	15.3	0.00e+00	0	44	0	4738514944	11	3881
2026-01-28 14:54:41.35	340.16	12.40	-25.7	-26.5	15.2	0.00e+00	0	44	0	4745854976	11	3935
2026-01-28 14:54:42.35	340.17	12.30	-25.6	-26.3	15.3	0.00e+00	0	44	0	4752146432	11	3904
2026-01-28 14:54:43.35	340.19	12.21	-25.6	-26.4	15.2	0.00e+00	0	44	0	4759486464	11	3918
2026-01-28 14:54:44.36	340.20	12.11	-25.6	-26.4	15.2	0.00e+00	0	44	0	4766826496	11	3919
2026-01-28 14:54:45.36	340.22	12.02	-25.7	-26.4	15.2	0.00e+00	0	44	0	4774166528	11	3929
2026-01-28 14:54:46.37	340.24	11.93	-25.6	-26.4	15.2	0.00e+00	0	44	0	4781506560	11	3923
2026-01-28 14:54:47.37	340.25	11.83	-25.8	-26.7	15.0	0.00e+00	0	44	0	4788846592	11	3998
2026-01-28 14:54:48.38	340.27	11.74	-25.7	-26.6	15.1	0.00e+00	0	44	0	4796186624	11	3973
2026-01-28 14:54:49.38	340.28	11.65	-25.8	-26.7	15.0	0.00e+00	0	44	0	4803526656	11	3987
2026-01-28 14:54:50.38	340.30	11.55	-25.9	-27.0	14.8	0.00e+00	0	44	0	4810866688	11	4064
2026-01-28 14:54:51.39	340.31	11.46	-25.9	-26.9	14.9	0.00e+00	0	44	0	4818206720	11	4053
2026-01-28 14:54:52.39	340.33	11.37	-25.9	-26.9	14.9	1.10e-06	0	44	0	4825546752	11	4058
2026-01-28 14:54:53.39	340.35	11.28	-26.1	-26.9	14.5	0.00e+00	0	44	0	4832886784	12	3960
2026-01-28 14:54:54.39	340.36	11.19	-26.4	-27.6	14.1	1.10e-06	0	44	0	4839178240	12	4127
2026-01-28 14:54:55.39	340.38	11.10	-26.2	-27.1	14.4	0.00e+00	0	44	0	4846518272	12	3989
2026-01-28 14:54:56.39	340.39	11.01	-26.1	-26.9	14.5	0.00e+00	0	44	0	4853858304	12	3953
2026-01-28 14:54:57.39	340.41	10.92	-26.3	-27.4	14.2	1.10e-06	0	44	0	4861198336	12	4083
2026-01-28 14:54:58.39	340.42	10.83	-26.2	-27.2	14.3	0.00e+00	0	44	0	4868538368	12	4031
2026-01-28 14:54:59.40	340.44	10.74	-26.3	-27.3	14.3	1.10e-06	0	44	0	4875878400	12	4056
2026-01-28 14:55:00.40	340.45	10.65	-26.3	-27.4	14.2	0.00e+00	0	44	0	4883218432	12	4078
2026-01-28 14:55:01.41	340.47	10.56	-26.6	-28.0	13.9	2.20e-06	0	44	0	4890558464	12	4238
2026-01-28 14:55:02.41	340.48	10.47	-26.6	-27.5	13.9	3.40e-06	0	44	0	4896849920	13	3995
2026-01-28 14:55:03.42	340.50	10.38	-26.2	-26.7	14.3	2.20e-06	0	44	0	4904189952	13	3794
2026-01-28 14:55:04.42	340.51	10.30	-26.0	-26.3	14.6	2.20e-06	0	44	0	4911529984	13	3703
2026-01-28 14:55:05.42	340.52	10.21	-26.0	-26.3	14.6	0.00e+00	0	44	0	4918870016	13	3704
2026-01-28 14:55:06.43	340.54	10.12	-26.0	-26.2	14.6	1.10e-06	0	44	0	4926210048	13	3689
2026-01-28 14:55:07.43	340.55	10.03	-26.1	-26.3	14.5	0.00e+00	0	44	0	4933550080	13	3717
2026-01-28 14:55:08.44	340.57	9.95	-25.9	-26.1	14.6	1.10e-06	0	44	0	4940890112	13	3662
