passes_logs/2026/01/28/R2M6_AANII_01/R2M6_AANII_01__20260128_095433_NOAA_21_JPSS-2_rec.log

#Pass ID: 20260128_095433_NOAA 21 (JPSS-2)
#Satellite: NOAA 21 (JPSS-2)
#Configuration: NOAA 21
#almurnet v.1.7.20240730
#Start time: 2026-01-28 09:54:32

#Version: 2.2.20231116
#Station: R2M6_AANII_01
#Location: 30.233357 lon 59.946436 lat
#TLE: 1 54234U 22150A   26027.55906748  .00000170  00000+0  10132-3 0  9996
#TLE: 2 54234  98.7510 328.3076 0000860 204.4692 155.6443 14.19540154166599

#Time	Az	El	Level	Level2	SNR	BER	BlckErr	Temp	State	Recorded	gain1	gain2
2026-01-28 09:54:32.81	147.44	6.96	-28.4	-35.9	4.5	1.41e+00	0	42	0	0	17	8558
2026-01-28 09:54:33.81	147.42	7.04	-28.9	-38.3	4.2	1.44e+00	0	41	104	0	18	10514
2026-01-28 09:54:34.81	147.40	7.12	-29.1	-37.7	5.8	4.20e-01	0	41	0	0	18	9646
2026-01-28 09:54:35.82	147.38	7.19	-29.2	-37.1	6.3	3.05e-01	0	41	0	3145728	18	8968
2026-01-28 09:54:36.82	147.37	7.27	-29.3	-37.7	5.9	3.14e-01	0	42	0	6291456	18	9466
2026-01-28 09:54:37.83	147.35	7.35	-29.5	-37.4	6.3	2.85e-01	0	42	0	9437184	18	8996
2026-01-28 09:54:38.83	147.33	7.43	-29.5	-36.5	7.1	1.85e-01	0	42	0	12582912	18	8107
2026-01-28 09:54:39.83	147.31	7.51	-29.4	-35.9	7.7	9.66e-02	0	42	0	15728640	18	7528
2026-01-28 09:54:40.84	147.29	7.59	-29.3	-34.9	8.5	4.58e-02	0	42	0	18874368	18	6891
2026-01-28 09:54:41.84	147.27	7.67	-29.2	-34.3	9.1	2.20e-02	0	42	0	22020096	18	6489
2026-01-28 09:54:42.84	147.25	7.75	-29.1	-33.7	9.6	1.36e-02	0	42	0	24117248	18	6134
2026-01-28 09:54:43.84	147.23	7.82	-29.1	-33.4	9.9	1.01e-02	0	42	0	27262976	18	5932
2026-01-28 09:54:44.84	147.22	7.90	-29.0	-33.0	10.3	8.24e-03	0	42	0	30408704	18	5674
2026-01-28 09:54:45.85	147.20	7.98	-29.0	-32.6	10.8	2.50e-03	0	42	0	33554432	18	5441
2026-01-28 09:54:46.85	147.18	8.06	-29.1	-32.6	10.8	2.14e-03	0	42	0	36700160	18	5436
2026-01-28 09:54:47.86	147.16	8.15	-29.2	-32.9	10.6	3.38e-03	0	42	0	39845888	18	5553
2026-01-28 09:54:48.86	147.14	8.23	-29.3	-33.2	10.5	4.74e-03	0	42	0	42991616	18	5634
2026-01-28 09:54:49.86	147.12	8.31	-29.2	-32.9	10.7	4.05e-03	0	42	0	46137344	18	5493
2026-01-28 09:54:50.86	147.10	8.39	-29.0	-32.2	11.3	1.59e-03	0	42	0	49283072	18	5167
2026-01-28 09:54:51.86	147.08	8.47	-28.8	-31.6	11.7	7.21e-04	0	42	0	52428800	18	4925
2026-01-28 09:54:52.86	147.06	8.55	-28.8	-31.3	11.9	4.19e-04	0	42	0	55574528	18	4826
2026-01-28 09:54:53.87	147.04	8.63	-28.5	-30.6	12.4	1.56e-04	0	42	0	58720256	18	4572
2026-01-28 09:54:54.87	147.02	8.72	-28.5	-30.5	12.5	1.33e-04	0	42	0	61865984	18	4541
2026-01-28 09:54:55.88	147.00	8.80	-28.6	-30.6	12.5	1.23e-04	0	42	0	65011712	18	4568
2026-01-28 09:54:56.88	146.98	8.88	-28.5	-30.4	12.6	1.20e-04	0	42	0	68157440	18	4485
2026-01-28 09:54:57.89	146.96	8.97	-28.5	-30.5	12.5	9.46e-05	0	42	0	71303168	18	4530
2026-01-28 09:54:58.89	146.94	9.05	-28.4	-30.1	12.8	8.23e-05	0	42	0	74448896	18	4392
2026-01-28 09:54:59.89	146.91	9.13	-28.6	-30.5	12.6	6.48e-05	0	42	0	77594624	18	4506
2026-01-28 09:55:00.89	146.89	9.22	-28.5	-30.3	12.7	6.40e-05	0	42	0	80740352	18	4449
2026-01-28 09:55:01.89	146.87	9.30	-28.6	-30.5	12.6	1.02e-04	0	42	0	83886080	18	4510
2026-01-28 09:55:02.90	146.85	9.39	-28.4	-30.1	12.9	8.08e-05	0	42	0	87031808	18	4377
2026-01-28 09:55:03.90	146.83	9.47	-28.6	-30.6	12.6	8.54e-05	0	42	0	90177536	18	4528
2026-01-28 09:55:04.91	146.81	9.56	-28.4	-30.0	12.9	6.25e-05	0	42	0	93323264	18	4354
2026-01-28 09:55:05.91	146.79	9.64	-28.1	-29.9	13.3	2.05e-05	0	42	0	96468992	17	4410
2026-01-28 09:55:06.91	146.76	9.73	-28.1	-29.8	13.3	2.13e-05	0	42	0	99614720	17	4418
2026-01-28 09:55:07.91	146.74	9.81	-28.0	-29.8	13.4	1.14e-05	0	42	0	102760448	17	4397
2026-01-28 09:55:08.92	146.72	9.90	-28.1	-30.0	13.3	1.98e-05	0	42	0	105906176	17	4455
2026-01-28 09:55:09.91	146.70	9.99	-28.1	-29.9	13.3	1.67e-05	0	42	0	109051904	17	4446
2026-01-28 09:55:10.92	146.67	10.07	-28.0	-29.8	13.3	2.28e-05	0	42	0	112197632	17	4423
2026-01-28 09:55:11.92	146.65	10.16	-28.1	-30.1	13.2	2.05e-05	0	42	0	115343360	17	4521
2026-01-28 09:55:12.93	146.63	10.25	-27.8	-29.3	13.6	1.06e-05	0	42	0	118489088	17	4287
2026-01-28 09:55:13.93	146.61	10.34	-27.8	-29.7	13.7	5.30e-06	0	42	0	121634816	16	4504
2026-01-28 09:55:14.93	146.58	10.42	-27.8	-29.8	13.6	6.80e-06	0	42	0	124780544	16	4532
2026-01-28 09:55:15.94	146.56	10.51	-27.7	-29.5	13.8	9.90e-06	0	42	0	127926272	16	4450
2026-01-28 09:55:16.94	146.54	10.60	-27.7	-29.5	13.8	6.80e-06	0	42	0	131072000	16	4436
2026-01-28 09:55:17.94	146.51	10.69	-27.8	-29.7	13.7	5.30e-06	0	42	0	134217728	16	4498
2026-01-28 09:55:18.94	146.49	10.78	-27.7	-29.5	13.8	5.30e-06	0	42	0	137363456	16	4422
2026-01-28 09:55:19.94	146.46	10.87	-27.6	-29.2	14.0	4.50e-06	0	42	0	140509184	16	4341
2026-01-28 09:55:20.94	146.44	10.96	-27.5	-29.1	14.1	1.50e-06	0	42	0	143654912	16	4310
2026-01-28 09:55:21.93	146.42	11.05	-27.6	-29.3	14.0	1.50e-06	0	43	0	146800640	16	4377
2026-01-28 09:55:22.93	146.39	11.14	-27.5	-29.0	14.1	2.20e-06	0	42	0	149946368	16	4291
2026-01-28 09:55:23.94	146.37	11.23	-27.5	-29.0	14.1	1.50e-06	0	42	0	153092096	16	4286
2026-01-28 09:55:24.94	146.34	11.32	-27.8	-29.6	13.8	5.30e-06	0	42	0	156237824	16	4457
2026-01-28 09:55:25.94	146.32	11.41	-27.6	-29.2	14.0	3.80e-06	0	42	0	159383552	16	4348
2026-01-28 09:55:26.95	146.29	11.51	-27.5	-29.1	14.1	4.50e-06	0	42	0	162529280	16	4304
2026-01-28 09:55:27.95	146.27	11.60	-27.7	-29.5	13.9	1.50e-06	0	42	0	165675008	16	4435
2026-01-28 09:55:28.95	146.24	11.69	-27.5	-29.1	14.1	0.00e+00	0	43	0	168820736	16	4311
2026-01-28 09:55:29.95	146.22	11.78	-27.5	-29.1	14.1	2.20e-06	0	42	0	171966464	16	4305
2026-01-28 09:55:30.96	146.19	11.88	-27.4	-28.8	14.3	1.50e-06	0	42	0	175112192	16	4225
2026-01-28 09:55:31.97	146.16	11.97	-27.3	-28.5	14.5	0.00e+00	0	42	0	178257920	16	4135
2026-01-28 09:55:32.96	146.14	12.06	-27.4	-28.7	14.4	1.50e-06	0	42	0	181403648	16	4183
2026-01-28 09:55:33.97	146.11	12.16	-27.3	-28.5	14.5	0.00e+00	0	42	0	184549376	16	4120
2026-01-28 09:55:34.97	146.08	12.25	-27.1	-28.6	14.5	0.00e+00	0	43	0	187695104	15	4271
2026-01-28 09:55:35.97	146.06	12.35	-27.2	-28.7	14.5	7.00e-07	0	43	0	190840832	15	4305
2026-01-28 09:55:36.96	146.03	12.44	-27.2	-28.7	14.5	7.00e-07	0	43	0	193986560	15	4308
2026-01-28 09:55:37.96	146.00	12.54	-27.2	-28.8	14.5	0.00e+00	0	43	0	197132288	15	4319
2026-01-28 09:55:38.95	145.98	12.63	-27.3	-28.9	14.4	2.20e-06	0	43	0	200278016	15	4351
2026-01-28 09:55:39.95	145.95	12.73	-27.3	-29.0	14.4	0.00e+00	0	42	0	203423744	15	4379
2026-01-28 09:55:40.94	145.92	12.83	-27.3	-28.9	14.4	0.00e+00	0	43	0	206569472	15	4357
2026-01-28 09:55:41.94	145.89	12.92	-27.4	-29.3	14.2	0.00e+00	0	43	0	209715200	15	4461
2026-01-28 09:55:42.93	145.87	13.02	-27.3	-29.0	14.3	0.00e+00	0	42	0	212860928	15	4380
2026-01-28 09:55:43.92	145.84	13.12	-27.4	-29.3	14.2	7.00e-07	0	42	0	216006656	15	4459
2026-01-28 09:55:44.92	145.81	13.22	-27.2	-28.8	14.4	0.00e+00	0	42	0	219152384	15	4326
2026-01-28 09:55:45.93	145.78	13.32	-27.1	-28.6	14.6	0.00e+00	0	42	0	222298112	15	4265
2026-01-28 09:55:46.93	145.75	13.41	-27.0	-28.4	14.7	0.00e+00	0	43	0	225443840	15	4208
2026-01-28 09:55:47.92	145.72	13.51	-27.0	-28.4	14.6	7.00e-07	0	42	0	228589568	15	4230
2026-01-28 09:55:48.93	145.69	13.61	-27.0	-28.2	14.8	7.00e-07	0	43	0	230686720	15	4176
2026-01-28 09:55:49.94	145.66	13.72	-26.9	-28.2	14.8	0.00e+00	0	43	0	233832448	15	4166
2026-01-28 09:55:50.94	145.63	13.82	-27.0	-28.5	14.6	0.00e+00	0	43	0	236978176	15	4243
2026-01-28 09:55:51.94	145.60	13.92	-27.0	-28.3	14.7	0.00e+00	0	42	0	240123904	15	4202
2026-01-28 09:55:52.95	145.57	14.02	-27.0	-28.3	14.7	0.00e+00	0	43	0	243269632	15	4210
2026-01-28 09:55:53.95	145.54	14.12	-27.0	-28.3	14.8	7.00e-07	0	43	0	246415360	15	4191
2026-01-28 09:55:54.95	145.51	14.22	-27.0	-28.3	14.8	0.00e+00	0	43	0	249561088	15	4190
2026-01-28 09:55:55.95	145.48	14.33	-27.0	-28.3	14.7	0.00e+00	0	43	0	252706816	15	4197
2026-01-28 09:55:56.95	145.45	14.43	-27.0	-28.4	14.7	7.00e-07	0	43	0	255852544	15	4197
2026-01-28 09:55:57.95	145.42	14.53	-27.2	-28.8	14.5	7.00e-07	0	43	0	258998272	15	4324
2026-01-28 09:55:58.94	145.39	14.64	-27.1	-28.5	14.7	0.00e+00	0	43	0	262144000	15	4228
2026-01-28 09:55:59.94	145.35	14.74	-27.0	-28.4	14.7	1.50e-06	0	43	0	265289728	15	4204
2026-01-28 09:56:00.94	145.32	14.85	-27.1	-28.6	14.6	0.00e+00	0	42	0	268435456	15	4253
2026-01-28 09:56:01.94	145.29	14.95	-27.1	-28.5	14.7	7.00e-07	0	43	0	271581184	15	4223
2026-01-28 09:56:02.94	145.26	15.06	-27.2	-28.8	14.6	0.00e+00	0	43	0	274726912	15	4299
2026-01-28 09:56:03.94	145.22	15.16	-27.1	-28.5	14.7	0.00e+00	0	43	0	277872640	15	4238
2026-01-28 09:56:04.94	145.19	15.27	-27.2	-28.6	14.7	0.00e+00	0	43	0	281018368	15	4258
2026-01-28 09:56:05.93	145.16	15.38	-27.1	-28.4	14.7	0.00e+00	0	43	0	284164096	15	4210
2026-01-28 09:56:06.93	145.12	15.48	-27.3	-28.8	14.5	1.50e-06	0	43	0	287309824	15	4313
2026-01-28 09:56:07.93	145.09	15.59	-27.2	-28.6	14.7	0.00e+00	0	43	0	290455552	15	4239
2026-01-28 09:56:08.93	145.06	15.70	-27.1	-28.4	14.8	7.00e-07	0	43	0	293601280	15	4189
2026-01-28 09:56:09.93	145.02	15.81	-27.1	-28.5	14.8	7.00e-07	0	43	0	296747008	15	4211
2026-01-28 09:56:10.93	144.99	15.92	-27.3	-29.0	14.6	7.00e-07	0	43	0	299892736	15	4338
2026-01-28 09:56:11.94	144.95	16.03	-27.2	-28.6	14.7	6.10e-06	0	43	0	303038464	15	4240
2026-01-28 09:56:12.94	144.92	16.14	-27.2	-28.7	14.7	0.00e+00	0	43	0	306184192	15	4271
2026-01-28 09:56:13.95	144.88	16.25	-27.3	-29.0	14.5	0.00e+00	0	43	0	309329920	15	4345
2026-01-28 09:56:14.95	144.84	16.37	-27.5	-29.5	14.3	0.00e+00	0	43	0	312475648	15	4500
2026-01-28 09:56:15.95	144.81	16.48	-27.5	-29.3	14.3	7.00e-07	0	43	0	315621376	15	4447
2026-01-28 09:56:16.96	144.77	16.59	-27.5	-29.4	14.3	0.00e+00	0	43	0	318767104	15	4469
2026-01-28 09:56:17.95	144.74	16.70	-27.4	-29.2	14.4	1.06e-05	0	43	0	321912832	15	4421
2026-01-28 09:56:18.96	144.70	16.82	-27.4	-29.1	14.5	7.00e-07	0	43	0	325058560	15	4388
2026-01-28 09:56:19.95	144.66	16.93	-27.7	-29.7	14.1	2.20e-06	0	43	0	328204288	15	4573
2026-01-28 09:56:20.95	144.62	17.05	-27.5	-29.3	14.4	0.00e+00	0	43	0	331350016	15	4430
2026-01-28 09:56:21.96	144.59	17.16	-27.7	-29.7	14.2	0.00e+00	0	42	0	334495744	15	4550
2026-01-28 09:56:22.97	144.55	17.28	-27.5	-29.3	14.4	7.00e-07	0	43	0	337641472	15	4429
2026-01-28 09:56:23.97	144.51	17.39	-27.4	-29.1	14.6	6.10e-06	0	43	0	340787200	15	4366
2026-01-28 09:56:24.97	144.47	17.51	-27.3	-28.8	14.7	0.00e+00	0	43	0	343932928	15	4303
2026-01-28 09:56:25.98	144.43	17.63	-27.4	-29.2	14.6	7.00e-07	0	43	0	347078656	15	4391
2026-01-28 09:56:26.97	144.39	17.75	-27.4	-29.1	14.6	6.10e-06	0	43	0	350224384	15	4379
2026-01-28 09:56:27.97	144.35	17.87	-27.4	-29.0	14.7	0.00e+00	0	43	0	353370112	15	4357
2026-01-28 09:56:28.96	144.31	17.98	-27.4	-29.0	14.7	0.00e+00	0	43	0	356515840	15	4346
2026-01-28 09:56:29.96	144.27	18.10	-27.4	-29.0	14.7	0.00e+00	0	43	0	359661568	15	4350
2026-01-28 09:56:30.96	144.23	18.22	-27.3	-28.9	14.8	1.50e-06	0	43	0	362807296	15	4315
2026-01-28 09:56:31.97	144.19	18.34	-27.3	-29.0	14.8	7.00e-07	0	43	0	365953024	15	4336
2026-01-28 09:56:32.97	144.15	18.47	-27.5	-29.4	14.5	0.00e+00	0	43	0	369098752	15	4450
2026-01-28 09:56:33.97	144.10	18.59	-27.3	-28.8	14.9	0.00e+00	0	43	0	372244480	15	4295
2026-01-28 09:56:34.97	144.06	18.71	-27.4	-29.1	14.7	0.00e+00	0	43	0	375390208	15	4378
2026-01-28 09:56:35.97	144.02	18.83	-27.3	-29.0	14.8	7.00e-07	0	43	0	378535936	15	4329
2026-01-28 09:56:36.97	143.98	18.96	-27.4	-29.1	14.8	0.00e+00	0	43	0	381681664	15	4358
2026-01-28 09:56:37.97	143.93	19.08	-27.3	-28.9	14.9	0.00e+00	0	43	0	384827392	15	4312
2026-01-28 09:56:38.98	143.89	19.21	-27.3	-28.9	14.9	0.00e+00	0	43	0	387973120	15	4291
2026-01-28 09:56:39.99	143.84	19.33	-27.3	-28.8	15.0	0.00e+00	0	43	0	391118848	15	4289
2026-01-28 09:56:40.99	143.80	19.46	-27.3	-28.7	15.0	0.00e+00	0	43	0	394264576	15	4244
2026-01-28 09:56:42.00	143.75	19.59	-27.3	-28.8	14.9	3.00e-06	0	43	0	397410304	15	4288
2026-01-28 09:56:43.00	143.71	19.71	-27.5	-29.3	14.7	0.00e+00	0	43	0	400556032	15	4412
2026-01-28 09:56:44.01	143.66	19.84	-27.4	-28.9	15.0	0.00e+00	0	43	0	403701760	15	4305
2026-01-28 09:56:45.01	143.62	19.97	-27.1	-28.4	15.3	7.60e-06	0	43	0	406847488	15	4148
2026-01-28 09:56:46.01	143.57	20.10	-27.0	-28.1	15.4	0.00e+00	0	43	0	409993216	15	4090
2026-01-28 09:56:47.01	143.52	20.23	-27.1	-28.2	15.4	0.00e+00	0	43	0	412090368	15	4114
2026-01-28 09:56:48.01	143.47	20.36	-26.9	-27.9	15.5	6.80e-06	0	43	0	416284672	15	4029
2026-01-28 09:56:49.02	143.43	20.49	-26.9	-27.9	15.6	0.00e+00	0	43	0	419430400	15	4019
2026-01-28 09:56:50.01	143.38	20.63	-27.0	-28.1	15.4	0.00e+00	0	43	0	422576128	15	4087
2026-01-28 09:56:51.01	143.33	20.76	-26.9	-27.8	15.6	0.00e+00	0	43	0	425721856	15	3998
2026-01-28 09:56:52.01	143.28	20.89	-26.8	-27.6	15.7	0.00e+00	0	43	0	427819008	15	3948
2026-01-28 09:56:53.02	143.23	21.03	-26.7	-27.9	15.9	0.00e+00	0	43	0	432013312	14	4131
2026-01-28 09:56:54.02	143.18	21.16	-26.6	-27.7	16.0	9.10e-06	0	43	0	435159040	14	4081
2026-01-28 09:56:55.01	143.13	21.29	-26.6	-27.7	16.0	0.00e+00	0	43	0	437256192	14	4080
2026-01-28 09:56:56.02	143.08	21.43	-26.7	-27.9	15.9	0.00e+00	0	43	0	440401920	14	4139
2026-01-28 09:56:57.02	143.03	21.57	-26.8	-28.1	15.8	0.00e+00	0	43	0	443547648	14	4169
2026-01-28 09:56:58.02	142.97	21.71	-26.7	-27.8	15.9	0.00e+00	0	43	0	446693376	14	4099
2026-01-28 09:56:59.02	142.92	21.84	-26.6	-27.7	16.0	0.00e+00	0	43	0	449839104	14	4078
2026-01-28 09:57:00.02	142.87	21.98	-26.7	-27.8	16.0	0.00e+00	0	43	0	452984832	14	4091
2026-01-28 09:57:01.02	142.81	22.12	-26.7	-28.0	15.9	0.00e+00	0	43	0	456130560	14	4145
2026-01-28 09:57:02.02	142.76	22.26	-26.3	-27.0	16.4	0.00e+00	0	43	0	459276288	14	3891
2026-01-28 09:57:03.02	142.71	22.40	-26.5	-27.4	16.2	0.00e+00	0	43	0	462422016	14	3996
2026-01-28 09:57:04.02	142.65	22.55	-26.7	-27.8	16.0	0.00e+00	0	43	0	465567744	14	4104
2026-01-28 09:57:05.02	142.60	22.69	-26.3	-27.4	16.4	0.00e+00	0	43	0	468713472	13	4110
2026-01-28 09:57:06.02	142.54	22.83	-26.2	-27.4	16.5	0.00e+00	0	43	0	471859200	13	4092
2026-01-28 09:57:07.03	142.48	22.98	-26.4	-27.8	16.2	0.00e+00	0	43	0	475004928	13	4210
2026-01-28 09:57:08.03	142.43	23.12	-26.2	-27.4	16.5	0.00e+00	0	43	0	478150656	13	4090
2026-01-28 09:57:09.04	142.37	23.27	-26.1	-26.9	16.7	0.00e+00	0	43	0	481296384	13	3982
2026-01-28 09:57:10.04	142.31	23.42	-26.0	-26.9	16.8	0.00e+00	0	43	0	484442112	13	3971
2026-01-28 09:57:11.04	142.25	23.56	-26.2	-27.2	16.6	0.00e+00	0	43	0	487587840	13	4056
2026-01-28 09:57:12.05	142.19	23.71	-26.1	-26.9	16.8	0.00e+00	0	43	0	490733568	13	3982
2026-01-28 09:57:13.05	142.13	23.86	-26.1	-27.1	16.7	0.00e+00	0	43	0	493879296	13	4013
2026-01-28 09:57:14.04	142.07	24.01	-26.3	-27.4	16.5	0.00e+00	0	43	0	497025024	13	4095
2026-01-28 09:57:15.04	142.01	24.16	-26.4	-27.7	16.3	0.00e+00	0	43	0	500170752	13	4178
2026-01-28 09:57:16.04	141.95	24.31	-26.2	-27.3	16.6	0.00e+00	0	43	0	503316480	13	4077
2026-01-28 09:57:17.04	141.88	24.46	-26.1	-27.0	16.7	0.00e+00	0	43	0	506462208	13	4007
2026-01-28 09:57:18.04	141.82	24.62	-26.2	-27.1	16.7	0.00e+00	0	43	0	509607936	13	4029
2026-01-28 09:57:19.03	141.76	24.77	-26.2	-27.2	16.7	0.00e+00	0	43	0	512753664	13	4038
2026-01-28 09:57:20.04	141.69	24.93	-26.2	-27.2	16.6	0.00e+00	0	43	0	515899392	13	4046
2026-01-28 09:57:21.03	141.63	25.08	-26.2	-27.3	16.6	0.00e+00	0	43	0	519045120	13	4070
2026-01-28 09:57:22.03	141.56	25.24	-26.6	-28.0	16.2	0.00e+00	0	43	0	522190848	13	4269
2026-01-28 09:57:23.03	141.49	25.39	-26.4	-27.6	16.5	0.00e+00	0	43	0	525336576	13	4157
2026-01-28 09:57:24.03	141.43	25.55	-26.7	-28.4	16.0	0.00e+00	0	43	0	528482304	13	4383
2026-01-28 09:57:25.02	141.36	25.71	-26.5	-27.9	16.3	0.00e+00	0	43	0	531628032	13	4229
2026-01-28 09:57:26.02	141.29	25.87	-26.5	-27.8	16.3	0.00e+00	0	43	0	534773760	13	4218
2026-01-28 09:57:27.01	141.22	26.03	-26.4	-27.8	16.4	0.00e+00	0	43	0	537919488	13	4201
2026-01-28 09:57:28.02	141.15	26.19	-26.6	-28.1	16.2	0.00e+00	0	43	0	541065216	13	4292
2026-01-28 09:57:29.02	141.08	26.36	-26.9	-28.8	15.9	0.00e+00	0	43	0	544210944	13	4473
2026-01-28 09:57:30.01	141.01	26.52	-26.8	-28.6	15.9	0.00e+00	0	43	0	547356672	13	4436
2026-01-28 09:57:31.02	140.94	26.68	-27.1	-28.7	15.7	0.00e+00	0	43	0	550502400	14	4330
2026-01-28 09:57:32.02	140.86	26.85	-26.9	-28.3	15.9	0.00e+00	0	43	0	553648128	14	4232
2026-01-28 09:57:33.02	140.79	27.02	-27.0	-28.4	15.8	0.00e+00	0	43	0	556793856	14	4258
2026-01-28 09:57:34.02	140.71	27.18	-27.0	-28.5	15.7	0.00e+00	0	43	0	559939584	14	4291
2026-01-28 09:57:35.02	140.64	27.35	-27.2	-28.9	15.5	0.00e+00	0	43	0	563085312	14	4381
2026-01-28 09:57:36.03	140.56	27.52	-27.1	-28.8	15.6	0.00e+00	0	43	0	566231040	14	4360
2026-01-28 09:57:37.03	140.48	27.69	-27.4	-29.4	15.3	0.00e+00	0	43	0	569376768	14	4540
2026-01-28 09:57:38.03	140.41	27.87	-27.3	-29.1	15.5	0.00e+00	0	43	0	572522496	14	4435
2026-01-28 09:57:39.04	140.33	28.04	-27.5	-29.2	15.2	0.00e+00	0	43	0	575668224	15	4350
2026-01-28 09:57:40.04	140.25	28.21	-27.4	-28.9	15.4	0.00e+00	0	43	0	578813952	15	4270
2026-01-28 09:57:41.04	140.17	28.39	-27.4	-28.8	15.4	0.00e+00	0	43	0	581959680	15	4259
2026-01-28 09:57:42.05	140.08	28.57	-27.6	-29.3	15.1	0.00e+00	0	43	0	585105408	15	4386
2026-01-28 09:57:43.05	140.00	28.74	-27.3	-28.7	15.4	0.00e+00	0	43	0	588251136	15	4234
2026-01-28 09:57:44.06	139.92	28.92	-27.2	-28.4	15.7	0.00e+00	0	43	0	591396864	15	4137
2026-01-28 09:57:45.07	139.83	29.10	-27.3	-28.8	15.5	0.00e+00	0	43	0	594542592	15	4242
2026-01-28 09:57:46.07	139.74	29.28	-27.2	-28.5	15.6	0.00e+00	0	43	0	597688320	15	4161
2026-01-28 09:57:47.08	139.66	29.47	-27.3	-28.7	15.5	0.00e+00	0	43	0	600834048	15	4233
2026-01-28 09:57:48.09	139.57	29.65	-27.4	-28.9	15.4	0.00e+00	0	43	0	603979776	15	4283
2026-01-28 09:57:49.09	139.48	29.83	-27.3	-28.6	15.6	0.00e+00	0	43	0	607125504	15	4193
2026-01-28 09:57:50.09	139.39	30.02	-27.2	-28.4	15.6	0.00e+00	0	43	0	610271232	15	4153
2026-01-28 09:57:51.09	139.30	30.20	-27.2	-28.4	15.7	0.00e+00	0	43	0	613416960	15	4134
2026-01-28 09:57:52.10	139.21	30.39	-27.2	-28.4	15.7	0.00e+00	0	43	0	616562688	15	4133
2026-01-28 09:57:53.10	139.11	30.58	-26.9	-27.8	15.9	0.00e+00	0	43	0	618659840	15	3990
2026-01-28 09:57:54.11	139.02	30.77	-27.1	-28.1	15.8	0.00e+00	0	43	0	621805568	15	4062
2026-01-28 09:57:55.11	138.92	30.96	-26.9	-27.7	16.0	0.00e+00	0	43	0	624951296	15	3964
2026-01-28 09:57:56.11	138.83	31.15	-26.8	-27.5	16.1	0.00e+00	0	43	0	629145600	15	3920
2026-01-28 09:57:57.12	138.73	31.35	-26.8	-28.1	16.1	0.00e+00	0	43	0	632291328	14	4171
2026-01-28 09:57:58.12	138.63	31.54	-26.9	-28.2	16.1	0.00e+00	0	43	0	635437056	14	4193
2026-01-28 09:57:59.13	138.53	31.74	-26.9	-28.2	16.0	0.00e+00	0	43	0	638582784	14	4201
2026-01-28 09:58:00.13	138.43	31.93	-27.0	-28.6	15.9	0.00e+00	0	43	0	641728512	14	4294
2026-01-28 09:58:01.13	138.32	32.13	-27.0	-28.6	15.8	0.00e+00	0	43	0	643825664	14	4310
2026-01-28 09:58:02.13	138.22	32.33	-27.3	-29.2	15.5	0.00e+00	0	43	0	646971392	14	4467
2026-01-28 09:58:03.13	138.12	32.53	-27.3	-29.2	15.6	0.00e+00	0	43	0	650117120	14	4463
2026-01-28 09:58:04.13	138.01	32.73	-27.3	-29.3	15.5	0.00e+00	0	43	0	653262848	14	4497
2026-01-28 09:58:05.12	137.90	32.93	-27.4	-29.5	15.3	0.00e+00	0	43	0	656408576	14	4570
2026-01-28 09:58:06.12	137.79	33.13	-27.4	-29.5	15.4	0.00e+00	0	43	0	659554304	14	4558
2026-01-28 09:58:07.12	137.68	33.33	-27.3	-29.2	15.5	0.00e+00	0	43	0	662700032	14	4488
2026-01-28 09:58:08.12	137.57	33.54	-27.4	-29.3	15.5	0.00e+00	0	43	0	665845760	14	4515
2026-01-28 09:58:09.13	137.46	33.75	-27.4	-29.3	15.5	0.00e+00	0	43	0	668991488	14	4507
2026-01-28 09:58:10.13	137.34	33.96	-27.5	-29.2	15.3	0.00e+00	0	43	0	672137216	15	4362
2026-01-28 09:58:11.13	137.22	34.17	-27.8	-29.7	15.0	0.00e+00	0	43	0	675282944	15	4517
2026-01-28 09:58:12.12	137.11	34.38	-27.7	-29.7	15.0	7.00e-07	0	43	0	678428672	15	4506
2026-01-28 09:58:13.13	136.99	34.59	-27.8	-29.8	14.9	7.00e-07	0	43	0	681574400	15	4530
2026-01-28 09:58:14.12	136.87	34.80	-27.8	-29.8	15.0	6.10e-06	0	43	0	684720128	15	4544
2026-01-28 09:58:15.12	136.74	35.02	-27.9	-30.2	14.7	0.00e+00	0	43	0	687865856	15	4648
2026-01-28 09:58:16.13	136.62	35.23	-27.9	-30.1	14.8	0.00e+00	0	43	0	691011584	15	4641
2026-01-28 09:58:17.13	136.49	35.45	-28.1	-30.0	14.7	0.00e+00	0	43	0	694157312	16	4466
2026-01-28 09:58:18.13	136.36	35.67	-28.4	-30.7	14.4	7.00e-07	0	43	0	697303040	16	4673
2026-01-28 09:58:19.13	136.23	35.89	-28.4	-30.6	14.4	7.00e-07	0	43	0	700448768	16	4652
2026-01-28 09:58:20.14	136.10	36.11	-28.4	-30.6	14.4	3.00e-06	0	43	0	703594496	16	4646
2026-01-28 09:58:21.15	135.97	36.34	-28.5	-30.5	14.2	0.00e+00	0	43	0	706740224	17	4495
2026-01-28 09:58:22.15	135.83	36.56	-28.7	-30.8	14.0	4.50e-06	0	43	0	709885952	17	4602
2026-01-28 09:58:23.15	135.69	36.79	-28.6	-30.7	14.0	3.00e-06	0	43	0	713031680	17	4584
2026-01-28 09:58:24.15	135.55	37.01	-28.7	-31.0	13.9	4.50e-06	0	43	0	716177408	17	4667
2026-01-28 09:58:25.15	135.41	37.24	-28.6	-30.7	14.1	3.80e-06	0	43	0	719323136	17	4558
2026-01-28 09:58:26.15	135.27	37.47	-28.6	-30.7	14.1	1.37e-05	0	43	0	722468864	17	4580
2026-01-28 09:58:27.15	135.12	37.70	-28.6	-30.7	14.0	0.00e+00	0	43	0	725614592	17	4590
2026-01-28 09:58:28.15	134.98	37.93	-28.7	-30.9	13.9	3.00e-06	0	43	0	728760320	17	4646
2026-01-28 09:58:29.15	134.83	38.17	-28.6	-30.7	14.1	1.44e-05	0	43	0	731906048	17	4567
2026-01-28 09:58:30.15	134.68	38.40	-28.7	-30.8	14.0	3.00e-06	0	43	0	735051776	17	4604
2026-01-28 09:58:31.15	134.52	38.64	-28.7	-30.8	14.0	1.50e-06	0	43	0	738197504	17	4612
2026-01-28 09:58:32.15	134.36	38.88	-28.7	-30.9	14.0	2.20e-06	0	43	0	741343232	17	4612
2026-01-28 09:58:33.15	134.21	39.12	-28.7	-30.7	14.1	7.00e-07	0	43	0	744488960	17	4573
2026-01-28 09:58:34.16	134.04	39.36	-28.8	-31.0	13.9	5.30e-06	0	43	0	747634688	17	4668
2026-01-28 09:58:35.17	133.88	39.60	-28.7	-30.7	14.1	1.29e-05	0	43	0	750780416	17	4577
2026-01-28 09:58:36.17	133.71	39.85	-28.5	-30.4	14.3	1.50e-06	0	43	0	753926144	17	4487
2026-01-28 09:58:37.18	133.54	40.09	-28.5	-30.4	14.3	3.00e-06	0	43	0	757071872	17	4483
2026-01-28 09:58:38.19	133.37	40.34	-28.5	-30.5	14.3	7.00e-07	0	43	0	760217600	17	4490
2026-01-28 09:58:39.19	133.19	40.59	-28.5	-30.5	14.2	0.00e+00	0	43	0	763363328	17	4505
2026-01-28 09:58:40.19	133.02	40.84	-28.5	-30.4	14.2	1.50e-06	0	43	0	766509056	17	4480
2026-01-28 09:58:41.19	132.84	41.09	-28.6	-30.7	14.1	7.60e-06	0	43	0	769654784	17	4556
2026-01-28 09:58:42.20	132.65	41.34	-29.0	-31.5	13.6	7.60e-06	0	43	0	772800512	17	4816
2026-01-28 09:58:43.20	132.47	41.60	-29.2	-31.5	13.4	1.60e-05	0	43	0	775946240	18	4725
2026-01-28 09:58:44.21	132.28	41.86	-29.3	-31.9	13.1	2.51e-05	0	43	0	779091968	18	4842
2026-01-28 09:58:45.21	132.09	42.11	-29.4	-32.0	13.1	4.95e-05	0	43	0	782237696	18	4885
2026-01-28 09:58:46.22	131.89	42.37	-29.4	-32.0	13.2	3.43e-05	0	43	0	785383424	18	4850
2026-01-28 09:58:47.22	131.69	42.63	-29.3	-31.7	13.3	1.06e-05	0	43	0	788529152	18	4769
2026-01-28 09:58:48.23	131.49	42.89	-29.4	-31.9	13.2	2.21e-05	0	43	0	791674880	18	4820
2026-01-28 09:58:49.24	131.28	43.16	-29.3	-31.8	13.2	9.90e-06	0	43	0	794820608	18	4780
2026-01-28 09:58:50.24	131.08	43.42	-29.4	-32.1	13.1	2.67e-05	0	43	0	797966336	18	4870
2026-01-28 09:58:51.24	130.87	43.69	-29.5	-31.8	13.0	3.05e-05	0	43	0	801112064	19	4656
2026-01-28 09:58:52.25	130.65	43.95	-29.7	-32.1	12.8	3.96e-05	0	43	0	804257792	19	4767
2026-01-28 09:58:53.26	130.43	44.22	-29.8	-32.5	12.5	1.01e-04	0	43	0	807403520	19	4910
2026-01-28 09:58:54.26	130.21	44.49	-29.9	-32.8	12.4	1.68e-04	0	43	0	810549248	19	4996
2026-01-28 09:58:55.26	129.98	44.76	-29.9	-32.2	12.3	1.85e-04	0	43	0	813694976	20	4716
2026-01-28 09:58:56.26	129.75	45.03	-29.9	-32.2	12.4	1.43e-04	0	43	0	816840704	20	4692
2026-01-28 09:58:57.27	129.51	45.31	-29.7	-31.8	12.7	9.53e-05	0	43	0	819986432	20	4566
2026-01-28 09:58:58.27	129.27	45.58	-29.6	-31.6	12.8	6.33e-05	0	43	0	823132160	20	4516
2026-01-28 09:58:59.28	129.03	45.86	-29.6	-31.5	12.8	5.34e-05	0	43	0	826277888	20	4491
2026-01-28 09:59:00.28	128.78	46.14	-29.5	-31.3	13.0	8.23e-05	0	43	0	829423616	20	4408
2026-01-28 09:59:01.28	128.53	46.42	-29.3	-31.1	13.4	1.37e-05	0	43	0	832569344	19	4454
2026-01-28 09:59:02.28	128.28	46.70	-29.2	-31.0	13.5	6.10e-06	0	43	0	835715072	19	4423
2026-01-28 09:59:03.28	128.02	46.98	-29.1	-30.6	13.7	4.50e-06	0	43	0	838860800	19	4304
2026-01-28 09:59:04.28	127.75	47.26	-29.2	-30.8	13.7	3.80e-06	0	44	0	842006528	19	4363
2026-01-28 09:59:05.29	127.48	47.54	-29.3	-31.1	13.4	1.67e-05	0	43	0	845152256	19	4450
2026-01-28 09:59:06.29	127.20	47.83	-29.2	-31.0	13.4	1.37e-05	0	44	0	848297984	19	4422
2026-01-28 09:59:07.29	126.92	48.11	-29.3	-31.2	13.4	1.90e-05	0	43	0	851443712	19	4473
2026-01-28 09:59:08.30	126.63	48.40	-29.1	-30.8	13.6	1.14e-05	0	43	0	854589440	19	4360
2026-01-28 09:59:09.30	126.34	48.69	-29.0	-30.6	13.8	4.50e-06	0	43	0	857735168	19	4291
2026-01-28 09:59:10.30	126.05	48.98	-29.1	-30.8	13.6	6.80e-06	0	43	0	860880896	19	4351
2026-01-28 09:59:11.31	125.74	49.27	-29.4	-31.4	13.2	2.51e-05	0	44	0	864026624	19	4551
2026-01-28 09:59:12.31	125.43	49.56	-29.5	-31.8	13.1	3.20e-05	0	44	0	867172352	19	4662
2026-01-28 09:59:13.31	125.12	49.85	-29.5	-31.7	13.1	3.43e-05	0	43	0	870318080	19	4644
2026-01-28 09:59:14.32	124.79	50.15	-29.5	-31.8	13.0	2.59e-05	0	44	0	873463808	19	4674
2026-01-28 09:59:15.33	124.46	50.44	-29.6	-32.0	13.0	3.43e-05	0	43	0	876609536	19	4716
2026-01-28 09:59:16.33	124.13	50.74	-29.8	-32.5	12.7	6.33e-05	0	44	0	879755264	19	4904
2026-01-28 09:59:17.33	123.79	51.03	-29.7	-32.1	12.9	5.11e-05	0	44	0	882900992	19	4780
2026-01-28 09:59:18.34	123.44	51.33	-29.7	-32.3	12.8	5.03e-05	0	44	0	886046720	19	4836
2026-01-28 09:59:19.34	123.09	51.63	-29.8	-32.4	12.7	9.15e-05	0	44	0	889192448	19	4874
2026-01-28 09:59:20.33	122.73	51.92	-29.5	-31.8	13.1	2.97e-05	0	44	0	892338176	19	4693
2026-01-28 09:59:21.34	122.36	52.22	-29.5	-31.8	13.1	2.89e-05	0	44	0	895483904	19	4667
2026-01-28 09:59:22.34	121.98	52.52	-29.6	-32.0	13.0	3.89e-05	0	44	0	897581056	19	4722
2026-01-28 09:59:23.35	121.60	52.82	-29.7	-32.2	12.9	7.40e-05	0	44	0	900726784	19	4776
2026-01-28 09:59:24.36	121.20	53.12	-29.4	-31.4	13.4	2.05e-05	0	43	0	903872512	19	4529
2026-01-28 09:59:25.36	120.80	53.42	-29.2	-31.0	13.6	1.06e-05	0	44	0	907018240	19	4425
2026-01-28 09:59:26.37	120.39	53.72	-29.1	-30.8	13.8	5.30e-06	0	44	0	911212544	19	4370
2026-01-28 09:59:27.37	119.97	54.02	-29.1	-30.8	13.8	6.10e-06	0	43	0	914358272	19	4357
2026-01-28 09:59:28.37	119.55	54.32	-28.6	-30.1	14.5	1.50e-06	0	44	0	917504000	18	4269
2026-01-28 09:59:29.37	119.11	54.63	-27.9	-28.9	15.4	0.00e+00	0	44	0	919601152	17	4034
2026-01-28 09:59:30.37	118.67	54.93	-27.5	-28.6	15.8	0.00e+00	0	44	0	922746880	16	4057
2026-01-28 09:59:31.38	118.21	55.23	-27.6	-28.8	15.8	0.00e+00	0	43	0	925892608	16	4133
2026-01-28 09:59:32.38	117.75	55.53	-27.7	-28.9	15.7	0.00e+00	0	44	0	929038336	16	4155
2026-01-28 09:59:33.38	117.27	55.83	-27.8	-29.1	15.5	0.00e+00	0	44	0	932184064	16	4202
2026-01-28 09:59:34.38	116.79	56.13	-27.8	-29.3	15.5	0.00e+00	0	44	0	935329792	16	4250
2026-01-28 09:59:35.38	116.30	56.43	-27.8	-29.2	15.6	0.00e+00	0	44	0	938475520	16	4219
2026-01-28 09:59:36.38	115.79	56.73	-27.6	-28.8	15.8	0.00e+00	0	43	0	941621248	16	4119
2026-01-28 09:59:37.38	115.28	57.02	-27.0	-28.0	16.3	0.00e+00	0	44	0	944766976	15	4029
2026-01-28 09:59:38.39	114.74	57.32	-26.8	-27.6	16.6	0.00e+00	0	43	0	947912704	15	3917
2026-01-28 09:59:39.40	114.20	57.62	-27.1	-28.2	16.3	0.00e+00	0	44	0	951058432	15	4067
2026-01-28 09:59:40.40	113.65	57.92	-27.4	-28.8	15.9	0.00e+00	0	43	0	954204160	15	4247
2026-01-28 09:59:41.41	113.08	58.22	-27.5	-29.1	15.8	0.00e+00	0	44	0	957349888	15	4316
2026-01-28 09:59:42.41	112.50	58.51	-27.5	-29.1	15.8	0.00e+00	0	44	0	960495616	15	4310
2026-01-28 09:59:43.41	111.91	58.80	-27.1	-28.1	16.3	0.00e+00	0	44	0	963641344	15	4040
2026-01-28 09:59:44.41	111.31	59.09	-26.8	-27.5	16.7	0.00e+00	0	43	0	966787072	15	3879
2026-01-28 09:59:45.41	110.69	59.38	-26.9	-28.2	16.6	0.00e+00	0	44	0	969932800	14	4161
2026-01-28 09:59:46.42	110.06	59.67	-26.9	-28.2	16.5	7.00e-07	0	44	0	973078528	14	4188
2026-01-28 09:59:47.43	109.41	59.96	-27.0	-28.4	16.5	0.00e+00	0	44	0	976224256	14	4216
2026-01-28 09:59:48.43	108.75	60.24	-26.9	-28.2	16.5	0.00e+00	0	43	0	979369984	14	4182
2026-01-28 09:59:49.44	108.07	60.52	-26.7	-27.8	16.8	0.00e+00	0	44	0	982515712	14	4066
2026-01-28 09:59:50.44	107.38	60.80	-26.7	-27.7	16.8	0.00e+00	0	44	0	985661440	14	4049
2026-01-28 09:59:51.44	106.68	61.08	-26.7	-27.7	16.9	0.00e+00	0	43	0	988807168	14	4030
2026-01-28 09:59:52.44	105.96	61.35	-26.4	-27.0	17.2	0.00e+00	0	44	0	991952896	14	3874
2026-01-28 09:59:53.45	105.22	61.62	-26.3	-26.9	17.3	0.00e+00	0	44	0	995098624	14	3845
2026-01-28 09:59:54.45	104.47	61.89	-26.5	-27.4	17.0	0.00e+00	0	44	0	998244352	14	3964
2026-01-28 09:59:55.46	103.69	62.16	-26.4	-27.0	17.2	0.00e+00	0	44	0	1001390080	14	3868
2026-01-28 09:59:56.46	102.91	62.42	-26.4	-27.1	17.2	0.00e+00	0	44	0	1004535808	14	3895
2026-01-28 09:59:57.46	102.10	62.67	-26.4	-27.0	17.3	0.00e+00	0	44	0	1007681536	14	3867
2026-01-28 09:59:58.47	101.28	62.93	-26.5	-27.2	17.1	3.80e-06	0	44	0	1010827264	14	3915
2026-01-28 09:59:59.47	100.44	63.18	-26.4	-27.1	17.2	0.00e+00	0	44	0	1013972992	14	3889
2026-01-28 10:00:00.47	99.59	63.42	-26.1	-27.0	17.5	0.00e+00	0	44	0	1017118720	13	3959
2026-01-28 10:00:01.47	98.71	63.66	-26.6	-27.9	17.0	0.00e+00	0	44	0	1020264448	13	4211
2026-01-28 10:00:02.47	97.83	63.89	-26.9	-28.6	16.6	0.00e+00	0	44	0	1023410176	13	4391
2026-01-28 10:00:03.48	96.91	64.13	-27.0	-28.3	16.6	0.00e+00	0	44	0	1026555904	14	4204
2026-01-28 10:00:04.48	95.98	64.35	-26.6	-27.5	17.0	0.00e+00	0	44	0	1029701632	14	3999
2026-01-28 10:00:05.49	95.03	64.57	-26.4	-27.1	17.3	0.00e+00	0	44	0	1032847360	14	3877
2026-01-28 10:00:06.48	94.08	64.78	-26.7	-27.8	16.9	0.00e+00	0	44	0	1035993088	14	4060
2026-01-28 10:00:07.49	93.09	64.99	-27.0	-28.3	16.6	0.00e+00	0	43	0	1039138816	14	4208
2026-01-28 10:00:08.49	92.09	65.19	-27.0	-28.4	16.5	0.00e+00	0	43	0	1042284544	14	4217
2026-01-28 10:00:09.50	91.06	65.39	-27.0	-28.3	16.6	0.00e+00	0	44	0	1045430272	14	4189
2026-01-28 10:00:10.50	90.03	65.57	-26.8	-27.8	16.8	0.00e+00	0	44	0	1048576000	14	4068
2026-01-28 10:00:11.50	88.98	65.76	-26.5	-27.4	17.1	0.00e+00	0	44	0	1051721728	14	3961
2026-01-28 10:00:12.50	87.91	65.93	-26.3	-26.9	17.4	0.00e+00	0	44	0	1054867456	14	3838
2026-01-28 10:00:13.51	86.81	66.10	-26.6	-27.4	17.1	0.00e+00	0	44	0	1058013184	14	3971
2026-01-28 10:00:14.51	85.71	66.26	-26.5	-27.4	17.1	0.00e+00	0	44	0	1061158912	14	3962
2026-01-28 10:00:15.52	84.58	66.41	-26.4	-27.0	17.3	0.00e+00	0	44	0	1064304640	14	3870
2026-01-28 10:00:16.52	83.45	66.55	-26.4	-27.0	17.3	0.00e+00	0	44	0	1067450368	14	3866
2026-01-28 10:00:17.52	82.30	66.68	-26.3	-26.9	17.4	0.00e+00	0	44	0	1070596096	14	3839
2026-01-28 10:00:18.53	81.13	66.81	-26.2	-27.2	17.5	0.00e+00	0	44	0	1073741824	13	4014
2026-01-28 10:00:19.54	79.94	66.93	-26.1	-26.9	17.6	0.00e+00	0	44	0	1076887552	13	3939
2026-01-28 10:00:20.54	78.75	67.04	-25.8	-26.3	17.9	0.00e+00	0	44	0	1080033280	13	3798
2026-01-28 10:00:21.54	77.55	67.14	-25.6	-26.2	18.2	0.00e+00	0	44	0	1083179008	12	3879
2026-01-28 10:00:22.54	76.34	67.23	-25.6	-26.3	18.1	0.00e+00	0	44	0	1086324736	12	3910
2026-01-28 10:00:23.54	75.12	67.31	-25.8	-26.7	18.0	0.00e+00	0	44	0	1089470464	12	4001
2026-01-28 10:00:24.54	73.89	67.38	-26.0	-27.1	17.7	0.00e+00	0	44	0	1092616192	12	4111
2026-01-28 10:00:25.54	72.66	67.44	-25.7	-26.5	18.0	0.00e+00	0	44	0	1095761920	12	3950
2026-01-28 10:00:26.54	71.41	67.49	-25.8	-26.7	18.0	0.00e+00	0	43	0	1098907648	12	3994
2026-01-28 10:00:27.55	70.15	67.53	-26.3	-27.8	17.4	0.00e+00	0	44	0	1102053376	12	4292
2026-01-28 10:00:28.54	68.91	67.56	-26.6	-28.0	17.0	0.00e+00	0	44	0	1105199104	13	4214
2026-01-28 10:00:29.55	67.64	67.59	-26.4	-27.5	17.3	0.00e+00	0	44	0	1108344832	13	4099
2026-01-28 10:00:30.56	66.37	67.60	-26.2	-27.2	17.5	0.00e+00	0	44	0	1111490560	13	4020
2026-01-28 10:00:31.56	65.10	67.60	-26.5	-27.7	17.2	0.00e+00	0	43	0	1114636288	13	4152
2026-01-28 10:00:32.56	63.84	67.59	-26.6	-28.1	17.0	0.00e+00	0	44	0	1117782016	13	4239
2026-01-28 10:00:33.56	62.59	67.57	-26.5	-27.7	17.1	0.00e+00	0	43	0	1120927744	13	4147
2026-01-28 10:00:34.56	61.33	67.55	-26.7	-28.1	16.9	0.00e+00	0	44	0	1124073472	13	4252
2026-01-28 10:00:35.56	60.08	67.51	-26.5	-27.7	17.2	0.00e+00	0	43	0	1127219200	13	4139
2026-01-28 10:00:36.57	58.82	67.46	-26.2	-27.1	17.5	0.00e+00	0	44	0	1130364928	13	3984
2026-01-28 10:00:37.58	57.57	67.40	-26.4	-27.4	17.3	0.00e+00	0	44	0	1133510656	13	4068
2026-01-28 10:00:38.57	56.35	67.34	-26.8	-28.3	16.9	0.00e+00	0	44	0	1136656384	13	4306
2026-01-28 10:00:39.58	55.11	67.26	-27.1	-28.5	16.5	0.00e+00	0	44	0	1139802112	14	4255
2026-01-28 10:00:40.58	53.90	67.17	-27.1	-28.5	16.5	0.00e+00	0	44	0	1142947840	14	4257
2026-01-28 10:00:41.59	52.68	67.08	-26.7	-27.6	17.0	0.00e+00	0	44	0	1146093568	14	4012
2026-01-28 10:00:42.60	51.48	66.97	-26.5	-27.3	17.1	0.00e+00	0	44	0	1149239296	14	3933
2026-01-28 10:00:43.60	50.30	66.86	-26.8	-27.9	16.8	0.00e+00	0	43	0	1152385024	14	4090
2026-01-28 10:00:44.60	49.13	66.73	-27.3	-28.9	16.2	0.00e+00	0	44	0	1155530752	14	4375
2026-01-28 10:00:45.61	47.97	66.60	-27.6	-29.3	15.7	0.00e+00	0	44	0	1158676480	15	4358
2026-01-28 10:00:46.61	46.83	66.46	-27.4	-28.7	16.1	0.00e+00	0	44	0	1161822208	15	4211
2026-01-28 10:00:47.62	45.70	66.31	-26.7	-27.7	16.9	0.00e+00	0	44	0	1164967936	14	4030
2026-01-28 10:00:48.63	44.58	66.16	-26.2	-27.2	17.3	0.00e+00	0	44	0	1168113664	13	4020
2026-01-28 10:00:49.64	43.48	65.99	-26.5	-27.9	17.0	0.00e+00	0	44	0	1171259392	13	4199
2026-01-28 10:00:50.63	42.42	65.82	-26.4	-27.6	17.2	0.00e+00	0	44	0	1174405120	13	4117
2026-01-28 10:00:51.64	41.35	65.64	-26.2	-27.1	17.4	0.00e+00	0	44	0	1177550848	13	3987
2026-01-28 10:00:52.64	40.31	65.46	-26.6	-28.0	16.8	0.00e+00	0	44	0	1180696576	13	4234
2026-01-28 10:00:53.64	39.29	65.27	-27.1	-28.6	16.2	0.00e+00	0	44	0	1183842304	14	4283
2026-01-28 10:00:54.64	38.29	65.07	-27.3	-29.1	16.1	0.00e+00	0	43	0	1186988032	14	4417
2026-01-28 10:00:55.65	37.29	64.86	-27.1	-28.6	16.4	0.00e+00	0	44	0	1190133760	14	4269
2026-01-28 10:00:56.65	36.32	64.65	-27.3	-29.0	16.2	0.00e+00	0	44	0	1193279488	14	4390
2026-01-28 10:00:57.65	35.37	64.44	-28.2	-30.0	15.3	0.00e+00	0	44	0	1196425216	16	4435
2026-01-28 10:00:58.66	34.43	64.21	-28.8	-31.0	14.3	0.00e+00	0	44	0	1198522368	17	4642
2026-01-28 10:00:59.66	33.52	63.98	-28.1	-29.2	15.4	0.00e+00	0	44	0	1202716672	17	4113
2026-01-28 10:01:00.67	32.61	63.75	-27.4	-28.1	16.3	0.00e+00	0	44	0	1205862400	16	3936
2026-01-28 10:01:01.67	31.74	63.51	-27.1	-28.1	16.5	0.00e+00	0	44	0	1209008128	15	4027
2026-01-28 10:01:02.68	30.87	63.27	-27.5	-28.9	16.0	0.00e+00	0	44	0	1212153856	15	4251
2026-01-28 10:01:03.68	30.03	63.02	-27.6	-29.3	15.7	6.10e-06	0	44	0	1215299584	15	4365
2026-01-28 10:01:04.68	29.20	62.77	-27.5	-28.9	15.9	0.00e+00	0	44	0	1218445312	15	4254
2026-01-28 10:01:05.69	28.39	62.51	-27.2	-28.3	16.1	0.00e+00	0	44	0	1220542464	15	4103
2026-01-28 10:01:06.69	27.60	62.26	-26.8	-27.4	16.7	0.00e+00	0	44	0	1223688192	15	3865
2026-01-28 10:01:07.70	26.82	61.99	-26.7	-27.6	16.9	0.00e+00	0	44	0	1226833920	14	4013
2026-01-28 10:01:08.70	26.06	61.73	-27.0	-28.3	16.5	0.00e+00	0	44	0	1229979648	14	4203
2026-01-28 10:01:09.71	25.32	61.46	-27.4	-29.2	16.0	0.00e+00	0	43	0	1233125376	14	4453
2026-01-28 10:01:10.70	24.60	61.19	-28.3	-30.4	15.0	0.00e+00	0	44	0	1236271104	16	4555
2026-01-28 10:01:11.71	23.88	60.91	-28.3	-29.7	15.2	0.00e+00	0	44	0	1239416832	17	4244
2026-01-28 10:01:12.72	23.19	60.63	-27.5	-28.4	16.1	0.00e+00	0	44	0	1243611136	16	4001
2026-01-28 10:01:13.72	22.51	60.35	-26.3	-26.8	17.3	0.00e+00	0	43	0	1245708288	14	3826
2026-01-28 10:01:14.72	21.85	60.07	-25.7	-26.5	18.0	0.00e+00	0	44	0	1248854016	12	3950
2026-01-28 10:01:15.73	21.19	59.78	-26.0	-27.3	17.5	0.00e+00	0	44	0	1251999744	12	4148
2026-01-28 10:01:16.74	20.55	59.50	-27.1	-28.6	16.3	0.00e+00	0	43	0	1255145472	14	4285
2026-01-28 10:01:17.74	19.93	59.21	-28.3	-30.3	15.0	0.00e+00	0	43	0	1258291200	16	4524
2026-01-28 10:01:18.75	19.32	58.92	-28.1	-29.9	15.2	0.00e+00	0	43	0	1261436928	16	4417
2026-01-28 10:01:19.75	18.73	58.63	-27.0	-28.0	16.3	0.00e+00	0	44	0	1264582656	15	4001
2026-01-28 10:01:20.76	18.14	58.33	-26.7	-27.7	16.8	0.00e+00	0	44	0	1267728384	14	4034
2026-01-28 10:01:21.76	17.57	58.04	-27.0	-28.5	16.4	0.00e+00	0	43	0	1270874112	14	4235
2026-01-28 10:01:22.77	17.01	57.74	-27.4	-29.1	16.0	0.00e+00	0	43	0	1274019840	14	4426
2026-01-28 10:01:23.78	16.47	57.44	-27.9	-30.0	15.2	0.00e+00	0	44	0	1277165568	15	4554
2026-01-28 10:01:24.78	15.93	57.15	-28.7	-30.7	14.3	0.00e+00	0	44	0	1280311296	17	4549
2026-01-28 10:01:25.79	15.41	56.85	-29.3	-31.7	13.5	7.60e-06	0	43	0	1283457024	18	4726
2026-01-28 10:01:26.79	14.90	56.55	-29.5	-31.5	13.3	2.13e-05	0	44	0	1286602752	19	4572
2026-01-28 10:01:27.80	14.40	56.25	-28.8	-30.3	14.3	1.50e-06	0	44	0	1289748480	18	4305
2026-01-28 10:01:28.81	13.91	55.95	-27.6	-28.6	15.9	0.00e+00	0	44	0	1292894208	16	4054
2026-01-28 10:01:29.81	13.43	55.65	-27.1	-28.0	16.4	0.00e+00	0	43	0	1296039936	15	4000
2026-01-28 10:01:30.82	12.96	55.35	-28.2	-30.0	15.1	0.00e+00	0	44	0	1299185664	16	4429
2026-01-28 10:01:31.81	12.51	55.05	-28.9	-31.3	14.0	7.00e-07	0	44	0	1302331392	17	4699
2026-01-28 10:01:32.81	12.07	54.75	-29.4	-31.8	13.5	9.10e-06	0	44	0	1305477120	18	4749
2026-01-28 10:01:33.82	11.63	54.45	-29.9	-32.6	12.6	6.40e-05	0	44	0	1308622848	19	4926
2026-01-28 10:01:34.82	11.20	54.15	-29.9	-32.1	12.5	1.36e-04	0	43	0	1311768576	20	4654
2026-01-28 10:01:35.83	10.77	53.85	-29.6	-31.5	12.9	6.86e-05	0	43	0	1314914304	20	4452
2026-01-28 10:01:36.83	10.36	53.55	-29.3	-31.1	13.5	1.60e-05	0	44	0	1318060032	19	4435
2026-01-28 10:01:37.84	9.96	53.25	-28.6	-30.1	14.5	7.00e-07	0	44	0	1321205760	18	4242
2026-01-28 10:01:38.84	9.57	52.95	-28.4	-29.5	14.8	0.00e+00	0	44	0	1324351488	18	4093
2026-01-28 10:01:39.84	9.18	52.65	-28.5	-29.9	14.4	7.00e-07	0	44	0	1327497216	18	4191
2026-01-28 10:01:40.85	8.80	52.35	-28.8	-30.4	14.0	3.80e-06	0	44	0	1330642944	18	4357
2026-01-28 10:01:41.85	8.43	52.05	-29.8	-32.5	12.6	2.82e-05	0	44	0	1333788672	19	4893
2026-01-28 10:01:42.85	8.07	51.76	-30.0	-32.5	12.3	2.00e-04	0	44	0	1336934400	20	4790
2026-01-28 10:01:43.86	7.71	51.46	-29.5	-31.1	13.1	4.19e-05	0	44	0	1340080128	20	4372
2026-01-28 10:01:44.86	7.36	51.16	-28.9	-30.3	14.0	4.50e-06	0	44	0	1343225856	19	4212
2026-01-28 10:01:45.87	7.02	50.87	-28.6	-30.0	14.5	7.00e-07	0	44	0	1346371584	18	4239
2026-01-28 10:01:46.88	6.68	50.57	-28.2	-29.4	15.1	7.00e-07	0	43	0	1349517312	17	4171
2026-01-28 10:01:47.88	6.35	50.28	-28.0	-29.1	15.3	0.00e+00	0	44	0	1352663040	17	4094
2026-01-28 10:01:48.88	6.03	49.99	-28.3	-29.7	15.0	0.00e+00	0	44	0	1355808768	17	4231
2026-01-28 10:01:49.88	5.71	49.70	-28.1	-29.2	15.2	7.00e-07	0	43	0	1358954496	17	4113
2026-01-28 10:01:50.88	5.40	49.41	-28.4	-30.0	14.8	0.00e+00	0	43	0	1362100224	17	4315
2026-01-28 10:01:51.88	5.10	49.12	-29.1	-31.2	13.8	7.00e-07	0	43	0	1365245952	18	4579
2026-01-28 10:01:52.89	4.80	48.83	-29.9	-32.8	12.5	4.57e-05	0	44	0	1368391680	19	4980
2026-01-28 10:01:53.90	4.50	48.54	-30.0	-32.4	12.3	1.58e-04	0	44	0	1371537408	20	4768
2026-01-28 10:01:54.90	4.22	48.25	-29.6	-31.5	12.9	8.01e-05	0	44	0	1374683136	20	4458
2026-01-28 10:01:55.91	3.93	47.96	-29.3	-31.2	13.5	9.90e-06	0	44	0	1377828864	19	4458
2026-01-28 10:01:56.91	3.66	47.68	-29.6	-31.8	13.1	1.75e-05	0	44	0	1380974592	19	4646
2026-01-28 10:01:57.91	3.39	47.40	-29.6	-31.9	13.0	2.28e-05	0	44	0	1384120320	19	4696
2026-01-28 10:01:58.92	3.12	47.11	-30.0	-32.4	12.4	8.62e-05	0	44	0	1387266048	20	4738
2026-01-28 10:01:59.91	2.86	46.84	-29.8	-32.0	12.7	1.01e-04	0	44	0	1390411776	20	4608
2026-01-28 10:02:00.92	2.60	46.56	-29.6	-31.4	13.0	3.89e-05	0	44	0	1393557504	20	4422
2026-01-28 10:02:01.92	2.35	46.28	-29.5	-31.1	13.2	2.59e-05	0	44	0	1396703232	20	4350
2026-01-28 10:02:02.92	2.10	46.00	-29.3	-31.2	13.5	1.06e-05	0	44	0	1399848960	19	4464
2026-01-28 10:02:03.92	1.86	45.73	-29.6	-31.9	13.1	1.29e-05	0	44	0	1402994688	19	4699
2026-01-28 10:02:04.93	1.61	45.45	-30.2	-33.0	12.0	1.46e-04	0	44	0	1406140416	20	4971
2026-01-28 10:02:05.93	1.38	45.18	-30.5	-33.3	11.4	8.68e-04	0	44	0	1409286144	21	4992
2026-01-28 10:02:06.93	1.15	44.91	-30.7	-33.9	11.0	1.83e-03	0	43	0	1412431872	21	5192
2026-01-28 10:02:07.93	0.92	44.64	-30.1	-32.3	12.1	4.47e-04	0	44	0	1415577600	21	4619
2026-01-28 10:02:08.94	0.70	44.37	-29.4	-30.9	13.3	3.96e-05	0	44	0	1418723328	20	4273
2026-01-28 10:02:09.95	0.47	44.10	-29.0	-30.3	14.0	7.60e-06	0	44	0	1421869056	19	4214
2026-01-28 10:02:10.95	0.26	43.83	-28.8	-30.3	14.2	3.00e-06	0	44	0	1425014784	18	4318
2026-01-28 10:02:11.96	0.05	43.57	-28.6	-30.0	14.3	7.00e-07	0	44	0	1428160512	18	4238
2026-01-28 10:02:12.96	359.84	43.30	-29.0	-30.8	13.9	7.00e-07	0	44	0	1431306240	18	4458
2026-01-28 10:02:13.96	359.63	43.04	-29.2	-31.4	13.5	1.44e-05	0	44	0	1434451968	18	4658
2026-01-28 10:02:14.95	359.43	42.79	-29.6	-31.9	12.9	2.36e-05	0	44	0	1437597696	19	4706
2026-01-28 10:02:15.96	359.23	42.52	-29.7	-32.3	12.7	5.49e-05	0	44	0	1440743424	19	4824
2026-01-28 10:02:16.96	359.04	42.27	-30.0	-32.4	12.3	1.51e-04	0	44	0	1443889152	20	4777
2026-01-28 10:02:17.97	358.84	42.01	-29.7	-31.7	12.7	8.62e-05	0	44	0	1447034880	20	4522
2026-01-28 10:02:18.97	358.65	41.75	-29.5	-31.2	13.0	3.73e-05	0	44	0	1450180608	20	4389
2026-01-28 10:02:19.97	358.47	41.50	-29.4	-31.0	13.2	3.28e-05	0	44	0	1453326336	20	4311
2026-01-28 10:02:20.97	358.29	41.25	-29.4	-31.0	13.1	2.59e-05	0	44	0	1456472064	20	4326
2026-01-28 10:02:21.98	358.10	41.00	-29.4	-31.0	13.0	3.96e-05	0	44	0	1459617792	20	4338
2026-01-28 10:02:22.98	357.93	40.75	-29.0	-30.5	13.7	9.90e-06	0	44	0	1462763520	19	4292
2026-01-28 10:02:23.99	357.75	40.50	-28.5	-29.8	14.4	7.00e-07	0	44	0	1465909248	18	4188
2026-01-28 10:02:24.99	357.58	40.25	-28.3	-29.7	14.7	1.50e-06	0	44	0	1469054976	17	4264
2026-01-28 10:02:26.00	357.41	40.01	-28.2	-29.6	14.8	0.00e+00	0	44	0	1472200704	17	4226
2026-01-28 10:02:27.00	357.24	39.76	-28.3	-29.8	14.7	0.00e+00	0	44	0	1475346432	17	4276
2026-01-28 10:02:28.00	357.08	39.52	-28.2	-29.6	14.8	7.00e-07	0	43	0	1478492160	17	4235
2026-01-28 10:02:29.01	356.91	39.28	-28.5	-30.2	14.4	7.00e-07	0	44	0	1481637888	17	4401
2026-01-28 10:02:30.01	356.76	39.04	-28.7	-30.9	14.1	1.50e-06	0	44	0	1484783616	17	4601
2026-01-28 10:02:31.01	356.60	38.80	-29.0	-31.5	13.7	3.00e-06	0	44	0	1487929344	17	4807
2026-01-28 10:02:32.02	356.44	38.56	-29.4	-31.9	13.2	1.60e-05	0	44	0	1491075072	18	4833
2026-01-28 10:02:33.02	356.29	38.33	-29.4	-32.1	13.1	2.59e-05	0	43	0	1494220800	18	4881
2026-01-28 10:02:34.02	356.14	38.10	-29.5	-32.2	13.0	4.27e-05	0	44	0	1497366528	18	4917
2026-01-28 10:02:35.02	355.99	37.86	-29.3	-31.9	13.2	2.67e-05	0	44	0	1500512256	18	4819
2026-01-28 10:02:36.02	355.85	37.63	-29.2	-31.5	13.4	2.13e-05	0	44	0	1503657984	18	4701
2026-01-28 10:02:37.03	355.70	37.40	-29.1	-31.2	13.6	4.50e-06	0	44	0	1506803712	18	4584
2026-01-28 10:02:38.03	355.56	37.18	-29.1	-31.3	13.6	6.10e-06	0	44	0	1509949440	18	4611
2026-01-28 10:02:39.03	355.42	36.95	-29.3	-31.6	13.3	9.90e-06	0	44	0	1513095168	18	4733
2026-01-28 10:02:40.03	355.28	36.72	-28.7	-30.3	14.1	4.50e-06	0	44	0	1516240896	18	4336
2026-01-28 10:02:41.04	355.15	36.50	-28.8	-30.6	13.9	0.00e+00	0	44	0	1519386624	18	4411
2026-01-28 10:02:42.04	355.01	36.28	-28.5	-29.8	14.4	0.00e+00	0	43	0	1522532352	18	4189
2026-01-28 10:02:43.04	354.88	36.05	-28.3	-29.4	14.6	0.00e+00	0	44	0	1525678080	18	4091
2026-01-28 10:02:44.05	354.75	35.83	-28.4	-29.5	14.5	7.00e-07	0	44	0	1528823808	18	4118
2026-01-28 10:02:45.05	354.62	35.61	-28.4	-29.7	14.4	7.00e-07	0	43	0	1531969536	18	4154
2026-01-28 10:02:46.05	354.50	35.40	-28.2	-29.7	14.7	7.00e-07	0	43	0	1535115264	17	4266
2026-01-28 10:02:47.05	354.37	35.18	-27.9	-28.8	15.2	0.00e+00	0	44	0	1538260992	17	4029
2026-01-28 10:02:48.06	354.25	34.97	-27.6	-28.7	15.5	0.00e+00	0	44	0	1541406720	16	4109
2026-01-28 10:02:49.06	354.13	34.75	-27.6	-28.7	15.7	0.00e+00	0	44	0	1543503872	16	4085
2026-01-28 10:02:50.06	354.01	34.54	-27.8	-29.1	15.4	0.00e+00	0	44	0	1546649600	16	4206
2026-01-28 10:02:51.06	353.89	34.33	-27.7	-29.1	15.4	0.00e+00	0	44	0	1550843904	16	4197
2026-01-28 10:02:52.06	353.77	34.12	-27.9	-29.4	15.2	0.00e+00	0	44	0	1553989632	16	4292
2026-01-28 10:02:53.07	353.66	33.91	-28.0	-29.7	15.0	0.00e+00	0	44	0	1557135360	16	4376
2026-01-28 10:02:54.07	353.54	33.70	-28.3	-30.4	14.6	0.00e+00	0	43	0	1560281088	16	4568
2026-01-28 10:02:55.08	353.43	33.50	-28.3	-30.3	14.6	0.00e+00	0	44	0	1563426816	16	4564
2026-01-28 10:02:56.08	353.32	33.29	-28.4	-30.5	14.5	0.00e+00	0	44	0	1566572544	16	4630
2026-01-28 10:02:57.08	353.21	33.09	-28.1	-30.0	14.8	0.00e+00	0	43	0	1568669696	16	4472
2026-01-28 10:02:58.08	353.10	32.89	-28.0	-29.7	15.0	0.00e+00	0	44	0	1571815424	16	4367
2026-01-28 10:02:59.09	352.99	32.69	-27.8	-29.2	15.2	0.00e+00	0	44	0	1574961152	16	4251
2026-01-28 10:03:00.09	352.89	32.49	-27.8	-29.1	15.3	0.00e+00	0	43	0	1578106880	16	4216
2026-01-28 10:03:01.09	352.78	32.29	-27.9	-29.5	15.1	0.00e+00	0	44	0	1581252608	16	4321
2026-01-28 10:03:02.10	352.68	32.09	-27.6	-28.7	15.6	0.00e+00	0	43	0	1584398336	16	4098
2026-01-28 10:03:03.10	352.58	31.90	-27.4	-28.3	15.8	0.00e+00	0	44	0	1587544064	16	4005
2026-01-28 10:03:04.10	352.48	31.70	-27.5	-28.5	15.7	0.00e+00	0	43	0	1590689792	16	4044
2026-01-28 10:03:05.10	352.38	31.51	-27.6	-28.8	15.5	0.00e+00	0	43	0	1593835520	16	4122
2026-01-28 10:03:06.11	352.28	31.31	-27.6	-28.8	15.5	0.00e+00	0	44	0	1596981248	16	4124
2026-01-28 10:03:07.12	352.19	31.12	-27.7	-29.0	15.4	0.00e+00	0	44	0	1600126976	16	4180
2026-01-28 10:03:08.12	352.09	30.93	-27.9	-29.5	15.1	0.00e+00	0	44	0	1603272704	16	4317
2026-01-28 10:03:09.12	352.00	30.74	-28.3	-30.3	14.7	7.00e-07	0	43	0	1606418432	16	4546
2026-01-28 10:03:10.13	351.90	30.55	-28.0	-29.7	15.0	0.00e+00	0	43	0	1609564160	16	4364
2026-01-28 10:03:11.13	351.81	30.37	-27.9	-29.3	15.2	0.00e+00	0	43	0	1612709888	16	4277
2026-01-28 10:03:12.14	351.72	30.18	-27.8	-29.2	15.2	0.00e+00	0	44	0	1615855616	16	4236
2026-01-28 10:03:13.14	351.63	30.00	-27.8	-29.3	15.2	0.00e+00	0	43	0	1619001344	16	4262
2026-01-28 10:03:14.14	351.54	29.81	-27.9	-29.4	15.1	0.00e+00	0	44	0	1622147072	16	4292
2026-01-28 10:03:15.14	351.45	29.63	-27.9	-29.4	15.1	0.00e+00	0	44	0	1625292800	16	4301
2026-01-28 10:03:16.15	351.37	29.45	-28.1	-30.0	14.9	7.00e-07	0	44	0	1628438528	16	4442
2026-01-28 10:03:17.15	351.28	29.27	-27.9	-29.4	15.2	0.00e+00	0	43	0	1631584256	16	4288
2026-01-28 10:03:18.16	351.20	29.09	-27.8	-29.2	15.3	0.00e+00	0	43	0	1634729984	16	4218
2026-01-28 10:03:19.17	351.11	28.91	-27.7	-29.1	15.4	0.00e+00	0	43	0	1637875712	16	4200
2026-01-28 10:03:20.17	351.03	28.73	-27.5	-28.5	15.7	0.00e+00	0	43	0	1641021440	16	4041
2026-01-28 10:03:21.18	350.95	28.56	-27.0	-28.0	16.1	0.00e+00	0	43	0	1644167168	15	4017
2026-01-28 10:03:22.18	350.87	28.38	-27.1	-28.2	16.1	0.00e+00	0	43	0	1647312896	15	4069
2026-01-28 10:03:23.19	350.79	28.21	-26.9	-27.8	16.2	0.00e+00	0	43	0	1650458624	15	3960
2026-01-28 10:03:24.19	350.71	28.03	-27.2	-28.3	15.9	0.00e+00	0	44	0	1653604352	15	4090
2026-01-28 10:03:25.20	350.63	27.86	-27.0	-27.8	16.2	0.00e+00	0	44	0	1656750080	15	3964
2026-01-28 10:03:26.20	350.55	27.69	-27.0	-27.9	16.1	0.00e+00	0	43	0	1659895808	15	4002
2026-01-28 10:03:27.21	350.47	27.52	-26.8	-27.4	16.4	0.00e+00	0	44	0	1663041536	15	3874
2026-01-28 10:03:28.21	350.40	27.35	-26.5	-27.3	16.7	0.00e+00	0	44	0	1666187264	14	3951
2026-01-28 10:03:29.22	350.32	27.18	-26.4	-27.0	16.8	0.00e+00	0	44	0	1669332992	14	3886
2026-01-28 10:03:30.22	350.25	27.02	-26.5	-27.2	16.8	0.00e+00	0	44	0	1672478720	14	3928
2026-01-28 10:03:31.22	350.18	26.85	-26.5	-27.2	16.7	0.00e+00	0	44	0	1675624448	14	3928
2026-01-28 10:03:32.22	350.11	26.69	-26.3	-26.9	16.9	0.00e+00	0	43	0	1678770176	14	3848
2026-01-28 10:03:33.22	350.03	26.52	-26.3	-27.0	16.9	0.00e+00	0	44	0	1681915904	14	3867
2026-01-28 10:03:34.23	349.96	26.36	-26.4	-27.1	16.7	0.00e+00	0	43	0	1685061632	14	3913
2026-01-28 10:03:35.24	349.89	26.19	-26.5	-27.3	16.7	0.00e+00	0	43	0	1688207360	14	3961
2026-01-28 10:03:36.25	349.82	26.03	-26.6	-27.6	16.5	0.00e+00	0	43	0	1691353088	14	4029
2026-01-28 10:03:37.25	349.75	25.87	-26.7	-27.7	16.4	0.00e+00	0	44	0	1694498816	14	4066
2026-01-28 10:03:38.26	349.69	25.71	-26.7	-27.9	16.3	0.00e+00	0	43	0	1697644544	14	4099
2026-01-28 10:03:39.26	349.62	25.55	-26.8	-27.9	16.3	0.00e+00	0	43	0	1700790272	14	4120
2026-01-28 10:03:40.26	349.55	25.40	-26.8	-28.1	16.2	0.00e+00	0	44	0	1703936000	14	4165
2026-01-28 10:03:41.27	349.49	25.24	-26.9	-28.3	16.1	0.00e+00	0	44	0	1707081728	14	4206
2026-01-28 10:03:42.27	349.42	25.08	-27.0	-28.5	16.0	0.00e+00	0	44	0	1710227456	14	4262
2026-01-28 10:03:43.27	349.36	24.93	-27.0	-28.4	16.0	0.00e+00	0	44	0	1713373184	14	4249
2026-01-28 10:03:44.27	349.29	24.77	-27.0	-28.5	15.9	0.00e+00	0	44	0	1716518912	14	4268
2026-01-28 10:03:45.27	349.23	24.62	-27.2	-29.0	15.7	7.00e-07	0	44	0	1719664640	14	4406
2026-01-28 10:03:46.27	349.17	24.47	-27.2	-28.9	15.7	0.00e+00	0	43	0	1722810368	14	4397
2026-01-28 10:03:47.28	349.11	24.32	-27.4	-29.3	15.5	0.00e+00	0	43	0	1725956096	14	4488
2026-01-28 10:03:48.27	349.05	24.17	-27.3	-29.3	15.5	0.00e+00	0	43	0	1729101824	14	4491
2026-01-28 10:03:49.28	348.99	24.02	-27.5	-29.2	15.3	0.00e+00	0	43	0	1732247552	15	4342
2026-01-28 10:03:50.28	348.93	23.87	-27.4	-29.0	15.4	0.00e+00	0	43	0	1735393280	15	4287
2026-01-28 10:03:51.29	348.87	23.72	-27.5	-29.0	15.3	0.00e+00	0	44	0	1738539008	15	4309
2026-01-28 10:03:52.30	348.81	23.57	-27.5	-29.1	15.3	0.00e+00	0	43	0	1741684736	15	4341
2026-01-28 10:03:53.30	348.75	23.43	-27.5	-29.1	15.3	0.00e+00	0	43	0	1744830464	15	4330
2026-01-28 10:03:54.31	348.69	23.28	-27.6	-29.4	15.1	0.00e+00	0	43	0	1747976192	15	4409
2026-01-28 10:03:55.31	348.64	23.13	-27.7	-29.5	15.1	0.00e+00	0	44	0	1751121920	15	4441
2026-01-28 10:03:56.32	348.58	22.99	-27.6	-29.4	15.2	0.00e+00	0	43	0	1754267648	15	4409
2026-01-28 10:03:57.32	348.52	22.85	-27.6	-29.3	15.2	0.00e+00	0	43	0	1757413376	15	4380
2026-01-28 10:03:58.32	348.47	22.70	-27.7	-29.5	15.2	0.00e+00	0	44	0	1760559104	15	4436
2026-01-28 10:03:59.32	348.41	22.56	-27.6	-29.3	15.3	0.00e+00	0	43	0	1763704832	15	4388
2026-01-28 10:04:00.33	348.36	22.42	-27.4	-28.9	15.5	0.00e+00	0	43	0	1766850560	15	4267
2026-01-28 10:04:01.33	348.31	22.28	-27.3	-28.8	15.5	0.00e+00	0	43	0	1769996288	15	4233
2026-01-28 10:04:02.33	348.25	22.14	-27.5	-29.0	15.4	0.00e+00	0	44	0	1773142016	15	4304
2026-01-28 10:04:03.33	348.20	22.00	-27.3	-28.7	15.5	0.00e+00	0	43	0	1776287744	15	4230
2026-01-28 10:04:04.33	348.15	21.86	-27.2	-28.5	15.6	0.00e+00	0	43	0	1779433472	15	4154
2026-01-28 10:04:05.34	348.10	21.72	-27.2	-28.4	15.7	0.00e+00	0	44	0	1782579200	15	4141
2026-01-28 10:04:06.34	348.04	21.59	-27.2	-28.5	15.6	0.00e+00	0	44	0	1785724928	15	4166
2026-01-28 10:04:07.35	347.99	21.45	-27.3	-28.7	15.5	0.00e+00	0	44	0	1788870656	15	4230
2026-01-28 10:04:08.35	347.94	21.32	-27.1	-28.2	15.7	0.00e+00	0	43	0	1792016384	15	4092
2026-01-28 10:04:09.35	347.89	21.18	-27.2	-28.5	15.6	0.00e+00	0	44	0	1795162112	15	4163
2026-01-28 10:04:10.35	347.84	21.05	-27.2	-28.4	15.6	0.00e+00	0	43	0	1798307840	15	4143
2026-01-28 10:04:11.36	347.80	20.91	-27.1	-28.2	15.7	0.00e+00	0	43	0	1801453568	15	4083
2026-01-28 10:04:12.37	347.75	20.78	-27.1	-28.1	15.8	0.00e+00	0	43	0	1804599296	15	4073
2026-01-28 10:04:13.38	347.70	20.65	-27.1	-28.2	15.7	0.00e+00	0	43	0	1807745024	15	4085
2026-01-28 10:04:14.38	347.65	20.52	-27.1	-28.3	15.8	7.00e-07	0	44	0	1810890752	15	4101
2026-01-28 10:04:15.39	347.60	20.39	-27.0	-28.0	15.9	0.00e+00	0	43	0	1814036480	15	4023
2026-01-28 10:04:16.39	347.56	20.26	-27.0	-27.9	15.9	0.00e+00	0	44	0	1817182208	15	4008
2026-01-28 10:04:17.39	347.51	20.13	-26.9	-27.8	16.0	0.00e+00	0	43	0	1820327936	15	3971
2026-01-28 10:04:18.40	347.46	20.00	-26.8	-28.1	16.1	0.00e+00	0	44	0	1823473664	14	4155
2026-01-28 10:04:19.40	347.42	19.87	-26.8	-28.1	16.0	0.00e+00	0	43	0	1826619392	14	4176
2026-01-28 10:04:20.41	347.37	19.74	-26.8	-28.1	16.0	0.00e+00	0	44	0	1829765120	14	4158
2026-01-28 10:04:21.41	347.33	19.61	-26.8	-28.0	16.1	0.00e+00	0	43	0	1832910848	14	4147
2026-01-28 10:04:22.42	347.29	19.49	-26.9	-28.3	15.9	0.00e+00	0	43	0	1836056576	14	4220
2026-01-28 10:04:23.42	347.24	19.36	-26.9	-28.3	15.9	0.00e+00	0	43	0	1839202304	14	4234
2026-01-28 10:04:24.42	347.20	19.24	-26.8	-28.0	16.0	0.00e+00	0	43	0	1842348032	14	4153
2026-01-28 10:04:25.43	347.16	19.11	-26.8	-28.1	16.0	0.00e+00	0	44	0	1845493760	14	4161
2026-01-28 10:04:26.43	347.11	18.99	-26.9	-28.3	15.8	0.00e+00	0	44	0	1848639488	14	4229
2026-01-28 10:04:27.44	347.07	18.87	-26.9	-28.3	15.8	0.00e+00	0	43	0	1851785216	14	4223
2026-01-28 10:04:28.44	347.03	18.74	-26.9	-28.3	15.8	0.00e+00	0	44	0	1854930944	14	4225
2026-01-28 10:04:29.44	346.99	18.62	-26.8	-28.1	15.9	0.00e+00	0	44	0	1858076672	14	4176
2026-01-28 10:04:30.44	346.95	18.50	-26.8	-28.0	16.0	0.00e+00	0	44	0	1861222400	14	4135
2026-01-28 10:04:31.44	346.91	18.38	-26.8	-28.2	15.9	0.00e+00	0	44	0	1864368128	14	4185
2026-01-28 10:04:32.44	346.87	18.26	-26.8	-28.1	15.9	0.00e+00	0	43	0	1867513856	14	4168
2026-01-28 10:04:33.44	346.83	18.14	-26.8	-28.1	15.9	0.00e+00	0	44	0	1870659584	14	4170
2026-01-28 10:04:34.45	346.79	18.02	-26.9	-28.2	15.8	0.00e+00	0	43	0	1873805312	14	4206
2026-01-28 10:04:35.45	346.75	17.90	-26.8	-28.2	15.9	0.00e+00	0	44	0	1876951040	14	4188
2026-01-28 10:04:36.45	346.71	17.79	-27.0	-28.6	15.6	0.00e+00	0	44	0	1880096768	14	4307
2026-01-28 10:04:37.45	346.67	17.67	-27.1	-28.8	15.5	0.00e+00	0	44	0	1883242496	14	4351
2026-01-28 10:04:38.45	346.63	17.55	-27.0	-28.5	15.7	0.00e+00	0	44	0	1886388224	14	4275
2026-01-28 10:04:39.46	346.59	17.44	-27.0	-28.6	15.6	0.00e+00	0	43	0	1889533952	14	4314
2026-01-28 10:04:40.47	346.55	17.32	-27.1	-28.7	15.5	0.00e+00	0	43	0	1892679680	14	4352
2026-01-28 10:04:41.47	346.52	17.20	-27.1	-28.8	15.5	0.00e+00	0	44	0	1895825408	14	4365
2026-01-28 10:04:42.47	346.48	17.09	-27.2	-29.0	15.3	0.00e+00	0	43	0	1898971136	14	4436
2026-01-28 10:04:43.47	346.44	16.98	-27.2	-29.1	15.3	0.00e+00	0	43	0	1902116864	14	4452
2026-01-28 10:04:44.47	346.41	16.86	-27.3	-29.3	15.2	0.00e+00	0	43	0	1905262592	14	4499
2026-01-28 10:04:45.48	346.37	16.75	-27.3	-29.2	15.2	7.00e-07	0	43	0	1908408320	14	4495
2026-01-28 10:04:46.48	346.33	16.64	-27.4	-29.4	15.1	0.00e+00	0	43	0	1911554048	14	4533
2026-01-28 10:04:47.49	346.30	16.52	-27.3	-29.3	15.2	0.00e+00	0	43	0	1913651200	14	4513
2026-01-28 10:04:48.49	346.26	16.41	-27.4	-29.5	15.1	0.00e+00	0	43	0	1916796928	14	4563
2026-01-28 10:04:49.49	346.23	16.30	-27.5	-29.5	15.1	7.00e-07	0	44	0	1919942656	14	4583
2026-01-28 10:04:50.49	346.19	16.19	-27.4	-29.5	15.1	0.00e+00	0	44	0	1923088384	14	4575
2026-01-28 10:04:51.50	346.16	16.08	-27.5	-29.1	15.0	9.90e-06	0	44	0	1926234112	15	4346
2026-01-28 10:04:52.50	346.13	15.97	-27.5	-29.1	15.0	7.00e-07	0	43	0	1929379840	15	4344
2026-01-28 10:04:53.51	346.09	15.86	-27.5	-29.2	14.9	7.00e-07	0	44	0	1932525568	15	4373
2026-01-28 10:04:54.50	346.06	15.75	-27.6	-29.3	14.9	0.00e+00	0	44	0	1935671296	15	4401
2026-01-28 10:04:55.51	346.02	15.64	-27.6	-29.4	14.7	0.00e+00	0	43	0	1938817024	15	4444
2026-01-28 10:04:56.52	345.99	15.54	-27.6	-29.4	14.7	0.00e+00	0	43	0	1941962752	15	4447
2026-01-28 10:04:57.51	345.96	15.43	-27.6	-29.4	14.8	0.00e+00	0	43	0	1945108480	15	4430
2026-01-28 10:04:58.52	345.93	15.32	-27.8	-29.9	14.5	7.00e-07	0	43	0	1948254208	15	4570
2026-01-28 10:04:59.52	345.89	15.22	-27.7	-29.7	14.6	0.00e+00	0	43	0	1951399936	15	4529
2026-01-28 10:05:00.52	345.86	15.11	-27.7	-29.7	14.6	0.00e+00	0	43	0	1954545664	15	4520
2026-01-28 10:05:01.53	345.83	15.00	-27.8	-30.0	14.4	1.50e-06	0	44	0	1957691392	15	4621
2026-01-28 10:05:02.53	345.80	14.90	-27.9	-30.0	14.3	3.00e-06	0	43	0	1960837120	15	4634
2026-01-28 10:05:03.53	345.77	14.79	-27.8	-30.0	14.4	3.00e-06	0	44	0	1963982848	15	4614
2026-01-28 10:05:04.53	345.74	14.69	-27.8	-29.9	14.4	3.00e-06	0	44	0	1967128576	15	4579
2026-01-28 10:05:05.53	345.71	14.59	-27.8	-29.9	14.4	7.00e-07	0	43	0	1970274304	15	4603
2026-01-28 10:05:06.54	345.67	14.48	-27.8	-30.0	14.3	7.00e-07	0	43	0	1973420032	15	4621
2026-01-28 10:05:07.54	345.64	14.38	-27.9	-30.2	14.2	7.00e-07	0	43	0	1976565760	15	4672
2026-01-28 10:05:08.54	345.61	14.28	-27.9	-30.1	14.2	1.50e-06	0	43	0	1979711488	15	4653
2026-01-28 10:05:09.55	345.58	14.18	-27.9	-30.3	14.1	3.58e-05	0	43	0	1982857216	15	4709
2026-01-28 10:05:10.55	345.55	14.07	-27.9	-30.2	14.2	7.00e-07	0	44	0	1986002944	15	4695
2026-01-28 10:05:11.56	345.53	13.97	-28.2	-30.3	14.0	0.00e+00	0	44	0	1989148672	16	4596
2026-01-28 10:05:12.56	345.50	13.87	-28.2	-30.3	14.0	3.00e-06	0	43	0	1992294400	16	4587
2026-01-28 10:05:13.57	345.47	13.77	-28.1	-30.1	14.1	7.00e-07	0	44	0	1995440128	16	4542
2026-01-28 10:05:14.57	345.44	13.67	-28.2	-30.2	14.0	1.50e-06	0	44	0	1998585856	16	4564
2026-01-28 10:05:15.58	345.41	13.57	-28.3	-30.7	13.8	5.30e-06	0	44	0	2001731584	16	4703
2026-01-28 10:05:16.58	345.38	13.47	-28.2	-30.5	13.9	6.80e-06	0	44	0	2004877312	16	4649
2026-01-28 10:05:17.58	345.35	13.37	-28.1	-30.2	14.0	7.60e-06	0	43	0	2008023040	16	4571
2026-01-28 10:05:18.58	345.33	13.28	-28.1	-30.2	14.0	2.20e-06	0	44	0	2011168768	16	4554
2026-01-28 10:05:19.59	345.30	13.18	-28.1	-30.1	14.0	7.00e-07	0	43	0	2014314496	16	4531
2026-01-28 10:05:20.59	345.27	13.08	-28.1	-30.1	14.0	7.00e-07	0	43	0	2017460224	16	4534
2026-01-28 10:05:21.60	345.24	12.98	-28.1	-30.2	14.0	2.20e-06	0	44	0	2020605952	16	4552
2026-01-28 10:05:22.60	345.22	12.89	-28.1	-30.0	14.1	3.00e-06	0	43	0	2023751680	16	4515
2026-01-28 10:05:23.60	345.19	12.79	-28.0	-29.9	14.1	6.10e-06	0	44	0	2026897408	16	4474
2026-01-28 10:05:24.60	345.16	12.69	-28.0	-29.9	14.1	2.20e-06	0	44	0	2030043136	16	4477
2026-01-28 10:05:25.60	345.14	12.60	-28.0	-29.9	14.1	7.00e-07	0	43	0	2033188864	16	4464
2026-01-28 10:05:26.61	345.11	12.50	-27.9	-29.8	14.2	1.50e-06	0	44	0	2036334592	16	4438
2026-01-28 10:05:27.60	345.09	12.41	-28.1	-30.2	13.9	2.20e-06	0	43	0	2039480320	16	4570
2026-01-28 10:05:28.61	345.06	12.31	-28.1	-30.1	14.0	3.80e-06	0	43	0	2042626048	16	4533
2026-01-28 10:05:29.62	345.03	12.22	-28.0	-30.0	14.0	2.20e-06	0	43	0	2045771776	16	4494
2026-01-28 10:05:30.62	345.01	12.12	-28.0	-29.8	14.1	3.00e-06	0	43	0	2048917504	16	4461
2026-01-28 10:05:31.62	344.98	12.03	-28.1	-30.1	14.1	2.20e-06	0	43	0	2052063232	16	4519
2026-01-28 10:05:32.62	344.96	11.94	-28.1	-30.0	14.1	7.00e-07	0	43	0	2055208960	16	4501
2026-01-28 10:05:33.62	344.93	11.85	-28.2	-30.4	13.9	7.00e-07	0	43	0	2058354688	16	4611
2026-01-28 10:05:34.63	344.91	11.75	-28.3	-30.5	13.8	6.80e-06	0	44	0	2061500416	16	4660
2026-01-28 10:05:35.63	344.88	11.66	-28.3	-30.6	13.8	5.30e-06	0	43	0	2064646144	16	4670
2026-01-28 10:05:36.64	344.86	11.57	-28.2	-30.3	13.9	5.30e-06	0	44	0	2067791872	16	4607
2026-01-28 10:05:37.64	344.84	11.48	-28.1	-30.1	14.0	7.60e-06	0	43	0	2070937600	16	4539
2026-01-28 10:05:38.64	344.81	11.39	-28.1	-30.0	14.1	2.20e-06	0	43	0	2074083328	16	4511
2026-01-28 10:05:39.64	344.79	11.29	-28.0	-29.8	14.2	1.50e-06	0	44	0	2077229056	16	4440
2026-01-28 10:05:40.65	344.76	11.20	-28.1	-30.0	14.0	2.20e-06	0	44	0	2080374784	16	4518
2026-01-28 10:05:41.65	344.74	11.11	-28.0	-29.9	14.1	1.50e-06	0	44	0	2083520512	16	4480
2026-01-28 10:05:42.65	344.72	11.02	-28.1	-30.1	14.0	2.13e-05	0	43	0	2086666240	16	4542
2026-01-28 10:05:43.66	344.69	10.93	-28.1	-30.2	13.9	6.80e-06	0	44	0	2089811968	16	4565
2026-01-28 10:05:44.65	344.67	10.85	-28.1	-30.1	13.9	3.00e-06	0	43	0	2092957696	16	4543
2026-01-28 10:05:45.66	344.65	10.76	-28.2	-30.4	13.8	5.30e-06	0	44	0	2096103424	16	4634
2026-01-28 10:05:46.67	344.63	10.67	-28.2	-30.3	13.8	5.30e-06	0	43	0	2099249152	16	4614
2026-01-28 10:05:47.68	344.60	10.58	-28.1	-30.1	13.9	1.50e-06	0	43	0	2102394880	16	4557
2026-01-28 10:05:48.68	344.58	10.49	-28.3	-30.5	13.7	3.80e-06	0	43	0	2105540608	16	4660
2026-01-28 10:05:49.69	344.56	10.40	-28.4	-30.8	13.5	9.10e-06	0	43	0	2108686336	16	4775
2026-01-28 10:05:50.69	344.54	10.32	-28.4	-30.7	13.5	1.06e-05	0	43	0	2111832064	16	4741
2026-01-28 10:05:51.69	344.51	10.23	-28.5	-30.7	13.3	2.05e-05	0	43	0	2114977792	17	4602
2026-01-28 10:05:52.69	344.49	10.14	-28.2	-29.9	13.7	1.29e-05	0	43	0	2118123520	17	4371
2026-01-28 10:05:53.70	344.47	10.05	-28.2	-29.8	13.8	6.10e-06	0	43	0	2121269248	17	4346
2026-01-28 10:05:54.70	344.45	9.97	-28.2	-29.9	13.7	6.80e-06	0	44	0	2124414976	17	4381
2026-01-28 10:05:55.70	344.43	9.88	-28.3	-30.1	13.6	7.60e-06	0	44	0	2127560704	17	4423
2026-01-28 10:05:56.71	344.41	9.80	-28.2	-30.0	13.6	9.90e-06	0	44	0	2130706432	17	4398
