passes_logs/2026/01/28/R2M6_AANII_01/R2M6_AANII_01__20260128_005203_NOAA_20_JPSS-1_rec.log

#Pass ID: 20260128_005203_NOAA 20 (JPSS-1)
#Satellite: NOAA 20 (JPSS-1)
#Configuration: NOAA 20
#almurnet v.1.7.20240730
#Start time: 2026-01-28 00:52:02

#Version: 2.2.20231116
#Station: R2M6_AANII_01
#Location: 30.233357 lon 59.946436 lat
#TLE: 1 43013U 17073A   26027.45344144  .00000161  00000+0  97205-4 0  9999
#TLE: 2 43013  98.7647 328.2621 0000962  21.7793 338.3424 14.19541101424503

#Time	Az	El	Level	Level2	SNR	BER	BlckErr	Temp	State	Recorded	gain1	gain2
2026-01-28 00:52:02.89	15.65	6.96	-32.0	-38.6	4.9	1.30e+00	0	40	0	0	24	7662
2026-01-28 00:52:03.89	15.63	7.04	-32.4	-40.4	4.6	1.37e+00	0	40	104	0	24	9103
2026-01-28 00:52:04.89	15.60	7.11	-32.4	-40.6	5.9	3.50e-01	0	40	0	0	24	9216
2026-01-28 00:52:05.90	15.58	7.19	-32.3	-39.7	6.6	2.54e-01	0	40	0	1048576	24	8469
2026-01-28 00:52:06.91	15.55	7.27	-32.4	-40.1	6.3	2.37e-01	0	40	0	3145728	24	8810
2026-01-28 00:52:07.91	15.53	7.34	-32.3	-39.5	6.8	2.39e-01	0	40	0	5242880	24	8281
2026-01-28 00:52:08.92	15.50	7.42	-32.1	-38.7	7.4	1.55e-01	0	41	0	7340032	24	7677
2026-01-28 00:52:09.93	15.48	7.50	-32.0	-37.9	8.1	7.79e-02	0	41	0	9437184	24	7104
2026-01-28 00:52:10.93	15.45	7.58	-31.9	-37.9	8.5	5.54e-02	0	41	0	10485760	23	7203
2026-01-28 00:52:11.93	15.43	7.65	-32.0	-38.3	8.2	4.11e-02	0	41	0	12582912	23	7471
2026-01-28 00:52:12.93	15.40	7.73	-32.2	-38.6	7.6	7.97e-02	0	40	0	14680064	24	7572
2026-01-28 00:52:13.93	15.38	7.81	-32.1	-38.1	7.9	9.62e-02	0	41	0	16777216	24	7255
2026-01-28 00:52:14.94	15.35	7.89	-31.9	-37.8	8.6	5.46e-02	0	41	0	17825792	23	7134
2026-01-28 00:52:15.95	15.33	7.97	-31.7	-37.0	9.2	2.25e-02	0	41	0	19922944	23	6649
2026-01-28 00:52:16.95	15.30	8.05	-31.4	-36.1	10.0	1.27e-02	0	41	0	22020096	23	6155
2026-01-28 00:52:17.96	15.27	8.13	-31.2	-35.8	10.5	6.54e-03	0	41	0	24117248	22	6117
2026-01-28 00:52:18.96	15.25	8.21	-31.0	-35.2	11.0	5.97e-03	0	41	0	26214400	22	5812
2026-01-28 00:52:19.97	15.22	8.29	-31.0	-35.4	11.2	1.41e-03	0	41	0	28311552	21	6022
2026-01-28 00:52:20.96	15.20	8.37	-31.0	-35.5	11.2	1.49e-03	0	41	0	29360128	21	6065
2026-01-28 00:52:21.97	15.17	8.45	-31.2	-35.6	10.8	4.70e-03	0	41	0	31457280	22	5991
2026-01-28 00:52:22.98	15.14	8.53	-31.4	-36.4	10.2	4.78e-03	0	41	0	33554432	22	6408
2026-01-28 00:52:23.98	15.11	8.61	-31.2	-35.7	10.7	4.79e-03	0	41	0	35651584	22	6043
2026-01-28 00:52:24.98	15.09	8.69	-31.0	-34.9	11.3	4.70e-03	0	41	0	36700160	22	5649
2026-01-28 00:52:25.99	15.06	8.77	-30.7	-34.4	12.0	4.42e-04	0	41	0	38797312	21	5564
2026-01-28 00:52:26.99	15.03	8.85	-30.6	-34.1	12.2	2.49e-04	0	41	0	40894464	21	5440
2026-01-28 00:52:28.00	15.00	8.94	-30.5	-33.9	12.4	3.66e-04	0	41	0	42991616	21	5319
2026-01-28 00:52:29.00	14.98	9.02	-30.5	-33.9	12.4	1.75e-04	0	41	0	45088768	21	5334
2026-01-28 00:52:30.00	14.95	9.10	-30.5	-33.9	12.5	1.27e-04	0	41	0	46137344	21	5315
2026-01-28 00:52:31.01	14.92	9.18	-30.6	-34.1	12.2	1.52e-04	0	41	0	48234496	21	5434
2026-01-28 00:52:32.01	14.89	9.27	-30.4	-33.8	12.5	1.94e-04	0	41	0	50331648	21	5271
2026-01-28 00:52:33.01	14.86	9.35	-30.4	-34.2	12.6	1.13e-04	0	41	0	52428800	20	5562
2026-01-28 00:52:34.02	14.83	9.43	-30.4	-34.2	12.6	8.62e-05	0	41	0	54525952	20	5558
2026-01-28 00:52:35.02	14.80	9.52	-30.5	-34.0	12.4	1.38e-04	0	41	0	55574528	21	5382
2026-01-28 00:52:36.03	14.77	9.60	-30.7	-34.5	12.1	2.30e-04	0	41	0	57671680	21	5569
2026-01-28 00:52:37.03	14.75	9.69	-30.6	-34.2	12.3	1.94e-04	0	41	0	59768832	21	5446
2026-01-28 00:52:38.02	14.72	9.77	-30.6	-34.1	12.3	1.55e-04	0	41	0	61865984	21	5422
2026-01-28 00:52:39.03	14.69	9.85	-30.7	-34.5	12.0	4.81e-04	0	41	0	63963136	21	5583
2026-01-28 00:52:40.04	14.66	9.94	-30.5	-34.0	12.4	1.63e-04	0	41	0	65011712	21	5354
2026-01-28 00:52:41.04	14.63	10.03	-30.5	-33.8	12.5	1.11e-04	0	41	0	67108864	21	5289
2026-01-28 00:52:42.03	14.59	10.11	-30.5	-34.3	12.6	9.30e-05	0	41	0	69206016	20	5584
2026-01-28 00:52:43.04	14.56	10.20	-30.4	-34.1	12.8	7.24e-05	0	42	0	71303168	20	5508
2026-01-28 00:52:44.04	14.53	10.28	-30.3	-33.8	12.9	4.50e-05	0	41	0	73400320	20	5367
2026-01-28 00:52:45.05	14.50	10.37	-30.2	-33.5	13.1	3.28e-05	0	41	0	74448896	20	5284
2026-01-28 00:52:46.05	14.47	10.46	-30.1	-33.3	13.2	2.05e-05	0	41	0	76546048	20	5205
2026-01-28 00:52:47.05	14.44	10.54	-30.1	-33.3	13.3	1.67e-05	0	41	0	78643200	20	5188
2026-01-28 00:52:48.05	14.41	10.63	-30.2	-33.6	13.1	1.98e-05	0	41	0	80740352	20	5292
2026-01-28 00:52:49.05	14.38	10.72	-30.2	-33.4	13.2	2.13e-05	0	42	0	82837504	20	5218
2026-01-28 00:52:50.06	14.34	10.81	-30.2	-33.5	13.2	2.51e-05	0	41	0	83886080	20	5267
2026-01-28 00:52:51.06	14.31	10.89	-30.2	-33.6	13.1	3.35e-05	0	41	0	85983232	20	5296
2026-01-28 00:52:52.06	14.28	10.98	-29.9	-33.3	13.2	1.37e-05	0	41	0	88080384	20	5304
2026-01-28 00:52:53.06	14.25	11.07	-30.2	-33.4	13.2	1.37e-05	0	41	0	90177536	20	5237
2026-01-28 00:52:54.07	14.21	11.16	-30.3	-33.8	12.6	2.74e-05	0	42	0	91226112	20	5404
2026-01-28 00:52:55.07	14.18	11.25	-30.1	-33.4	12.1	2.51e-05	0	42	0	93323264	20	5210
2026-01-28 00:52:56.07	14.15	11.34	-30.1	-33.3	13.2	1.52e-05	0	42	0	95420416	20	5163
2026-01-28 00:52:57.07	14.11	11.43	-30.1	-33.3	12.9	2.21e-05	0	42	0	97517568	20	5194
2026-01-28 00:52:58.08	14.08	11.52	-30.2	-33.4	13.2	1.29e-05	0	42	0	99614720	20	5218
2026-01-28 00:52:59.09	14.04	11.61	-30.2	-33.5	13.2	2.13e-05	0	42	0	100663296	20	5272
2026-01-28 00:53:00.09	14.01	11.71	-30.0	-33.0	13.6	2.45e-03	0	42	0	102760448	20	5051
2026-01-28 00:53:01.09	13.97	11.80	-30.0	-32.9	13.6	6.80e-06	0	42	0	104857600	20	5035
2026-01-28 00:53:02.09	13.94	11.89	-29.9	-32.7	13.7	9.10e-06	0	42	0	106954752	20	4975
2026-01-28 00:53:03.09	13.90	11.98	-29.9	-33.2	13.8	2.69e-03	0	42	0	109051904	19	5241
2026-01-28 00:53:04.09	13.87	12.07	-30.0	-33.3	13.8	4.50e-06	0	42	0	110100480	19	5265
2026-01-28 00:53:05.10	13.83	12.17	-29.9	-33.1	13.9	3.80e-06	0	42	0	112197632	19	5195
2026-01-28 00:53:06.10	13.80	12.26	-29.9	-33.1	14.0	3.00e-06	0	42	0	114294784	19	5194
2026-01-28 00:53:07.10	13.76	12.35	-30.0	-33.3	13.8	2.40e-03	0	42	0	116391936	19	5279
2026-01-28 00:53:08.11	13.72	12.45	-29.9	-33.1	13.9	2.20e-06	0	42	0	118489088	19	5199
2026-01-28 00:53:09.11	13.69	12.54	-29.9	-33.0	14.0	1.50e-06	0	42	0	119537664	19	5175
2026-01-28 00:53:10.11	13.65	12.64	-29.9	-33.0	14.0	2.38e-03	0	42	0	121634816	19	5151
2026-01-28 00:53:11.11	13.61	12.73	-29.9	-33.1	13.9	2.29e-04	0	42	0	123731968	19	5215
2026-01-28 00:53:12.12	13.58	12.83	-29.8	-32.8	14.2	7.00e-07	0	42	0	125829120	19	5083
2026-01-28 00:53:13.12	13.54	12.92	-29.8	-32.9	14.1	1.50e-06	0	42	0	127926272	19	5117
2026-01-28 00:53:14.13	13.50	13.02	-29.9	-33.0	14.1	4.42e-04	0	42	0	128974848	19	5149
2026-01-28 00:53:15.13	13.46	13.11	-29.8	-32.9	14.2	2.20e-06	0	42	0	131072000	19	5105
2026-01-28 00:53:16.14	13.42	13.21	-29.7	-32.7	14.3	0.00e+00	0	42	0	133169152	19	5030
2026-01-28 00:53:17.14	13.38	13.31	-29.8	-32.8	14.2	4.05e-04	0	42	0	135266304	19	5082
2026-01-28 00:53:18.15	13.34	13.41	-29.8	-32.7	14.2	2.46e-03	0	42	0	137363456	19	5059
2026-01-28 00:53:19.16	13.30	13.51	-29.8	-32.7	14.2	2.20e-06	0	42	0	138412032	19	5043
2026-01-28 00:53:20.16	13.27	13.60	-29.7	-32.4	14.5	3.89e-04	0	42	0	140509184	19	4946
2026-01-28 00:53:21.16	13.23	13.70	-29.7	-32.6	14.3	2.57e-03	0	42	0	142606336	19	5015
2026-01-28 00:53:22.16	13.18	13.80	-29.8	-32.7	14.3	1.50e-03	0	42	0	144703488	19	5049
2026-01-28 00:53:23.17	13.14	13.90	-29.9	-33.0	14.1	7.00e-07	0	42	0	146800640	19	5171
2026-01-28 00:53:24.17	13.10	14.00	-29.8	-32.7	14.3	2.40e-03	0	42	0	147849216	19	5037
2026-01-28 00:53:25.18	13.06	14.10	-29.7	-32.5	14.4	2.35e-03	0	42	0	149946368	19	4969
2026-01-28 00:53:26.19	13.02	14.20	-29.6	-32.3	14.5	1.50e-06	0	42	0	152043520	19	4915
2026-01-28 00:53:27.19	12.98	14.30	-29.6	-32.3	14.5	2.59e-03	0	42	0	154140672	19	4910
2026-01-28 00:53:28.19	12.94	14.41	-29.7	-32.5	14.5	2.37e-03	0	42	0	155189248	19	4958
2026-01-28 00:53:29.20	12.89	14.51	-29.8	-32.7	14.3	2.08e-04	0	42	0	157286400	19	5033
2026-01-28 00:53:30.20	12.85	14.61	-29.7	-32.5	14.4	2.56e-03	0	42	0	159383552	19	4954
2026-01-28 00:53:31.20	12.81	14.71	-29.6	-32.2	14.7	2.12e-03	0	42	0	161480704	19	4847
2026-01-28 00:53:32.21	12.76	14.82	-29.6	-32.3	14.6	3.95e-04	0	42	0	163577856	19	4911
2026-01-28 00:53:33.21	12.72	14.92	-29.6	-32.3	14.6	7.00e-07	0	42	0	164626432	19	4911
2026-01-28 00:53:34.22	12.68	15.03	-29.7	-32.3	14.6	2.37e-03	0	42	0	166723584	19	4905
2026-01-28 00:53:35.21	12.63	15.13	-29.6	-32.3	14.6	4.68e-04	0	42	0	168820736	19	4911
2026-01-28 00:53:36.22	12.59	15.23	-29.6	-32.1	14.7	2.60e-03	0	42	0	170917888	19	4841
2026-01-28 00:53:37.23	12.54	15.34	-29.6	-32.3	14.6	2.27e-03	0	42	0	173015040	19	4880
2026-01-28 00:53:38.24	12.50	15.45	-29.6	-32.3	14.6	4.22e-04	0	42	0	174063616	19	4908
2026-01-28 00:53:39.24	12.45	15.55	-29.6	-32.2	14.7	2.48e-03	0	42	0	176160768	19	4853
2026-01-28 00:53:40.25	12.40	15.66	-29.6	-32.3	14.6	0.00e+00	0	42	0	178257920	19	4906
2026-01-28 00:53:41.25	12.36	15.77	-29.6	-32.3	14.7	4.11e-04	0	42	0	180355072	19	4886
2026-01-28 00:53:42.25	12.31	15.87	-29.7	-32.5	14.5	2.27e-03	0	42	0	182452224	19	4961
2026-01-28 00:53:43.25	12.26	15.98	-29.7	-32.5	14.5	2.32e-03	0	42	0	183500800	19	4981
2026-01-28 00:53:44.26	12.21	16.09	-29.6	-32.1	14.8	3.79e-04	0	42	0	185597952	19	4821
2026-01-28 00:53:45.26	12.17	16.20	-29.5	-32.0	14.8	2.58e-03	0	42	0	187695104	19	4793
2026-01-28 00:53:46.26	12.12	16.31	-29.6	-32.1	14.8	2.27e-03	0	42	0	189792256	19	4833
2026-01-28 00:53:47.26	12.07	16.42	-29.5	-31.9	14.9	0.00e+00	0	42	0	191889408	19	4760
2026-01-28 00:53:48.26	12.02	16.53	-29.5	-32.1	14.8	2.48e-03	0	42	0	192937984	19	4807
2026-01-28 00:53:49.26	11.97	16.64	-29.6	-32.1	14.8	2.16e-03	0	42	0	195035136	19	4827
2026-01-28 00:53:50.26	11.92	16.75	-29.7	-32.3	14.6	3.63e-04	0	42	0	197132288	19	4910
2026-01-28 00:53:51.26	11.87	16.86	-29.7	-32.5	14.6	1.76e-04	0	42	0	199229440	19	4959
2026-01-28 00:53:52.26	11.82	16.97	-29.5	-32.0	14.9	2.46e-03	0	42	0	201326592	19	4775
2026-01-28 00:53:53.26	11.77	17.09	-29.5	-31.8	15.0	3.28e-04	0	42	0	202375168	19	4722
2026-01-28 00:53:54.27	11.72	17.20	-29.5	-31.9	15.0	0.00e+00	0	42	0	204472320	19	4754
2026-01-28 00:53:55.27	11.67	17.31	-29.5	-31.8	15.0	2.29e-03	0	42	0	206569472	19	4720
2026-01-28 00:53:56.28	11.61	17.43	-29.4	-31.8	15.1	3.60e-04	0	42	0	208666624	19	4698
2026-01-28 00:53:57.29	11.56	17.54	-29.4	-32.2	15.1	2.47e-03	0	42	0	209715200	18	4955
2026-01-28 00:53:58.29	11.51	17.66	-29.4	-32.2	15.1	0.00e+00	0	42	0	211812352	18	4975
2026-01-28 00:53:59.29	11.45	17.77	-29.4	-32.2	15.1	4.02e-04	0	42	0	213909504	18	4950
2026-01-28 00:54:00.29	11.40	17.89	-29.4	-32.1	15.2	2.28e-03	0	42	0	216006656	18	4933
2026-01-28 00:54:01.29	11.34	18.01	-29.4	-32.3	15.1	0.00e+00	0	42	0	218103808	18	4981
2026-01-28 00:54:02.29	11.29	18.12	-29.5	-32.0	15.0	1.93e-04	0	42	0	219152384	19	4766
2026-01-28 00:54:03.29	11.23	18.24	-29.5	-31.9	15.0	2.49e-03	0	42	0	221249536	19	4734
2026-01-28 00:54:04.29	11.18	18.36	-29.6	-32.1	14.9	0.00e+00	0	42	0	223346688	19	4822
2026-01-28 00:54:05.30	11.12	18.48	-29.5	-32.0	14.9	0.00e+00	0	42	0	225443840	19	4784
2026-01-28 00:54:06.30	11.06	18.60	-29.7	-32.3	14.8	2.49e-03	0	42	0	227540992	19	4878
2026-01-28 00:54:07.31	11.01	18.72	-29.7	-32.4	14.7	7.00e-07	0	42	0	228589568	19	4905
2026-01-28 00:54:08.31	10.95	18.84	-29.7	-32.3	14.8	0.00e+00	0	42	0	230686720	19	4870
2026-01-28 00:54:09.32	10.89	18.96	-29.8	-32.5	14.6	1.13e-04	0	42	0	232783872	19	4957
2026-01-28 00:54:10.32	10.83	19.08	-29.6	-32.1	14.9	2.36e-03	0	42	0	234881024	19	4806
2026-01-28 00:54:11.32	10.77	19.20	-29.4	-31.6	15.2	0.00e+00	0	42	0	236978176	19	4654
2026-01-28 00:54:12.32	10.71	19.33	-29.5	-32.3	15.1	7.00e-07	0	42	0	238026752	18	4989
2026-01-28 00:54:13.33	10.65	19.45	-29.5	-31.9	15.1	2.14e-03	0	42	0	240123904	19	4737
2026-01-28 00:54:14.34	10.59	19.58	-29.6	-32.1	15.0	0.00e+00	0	42	0	242221056	19	4799
2026-01-28 00:54:15.34	10.53	19.70	-29.5	-31.8	15.1	0.00e+00	0	42	0	244318208	19	4717
2026-01-28 00:54:16.35	10.47	19.83	-29.4	-32.1	15.2	0.00e+00	0	42	0	246415360	18	4931
2026-01-28 00:54:17.35	10.40	19.95	-29.5	-32.0	15.0	7.00e-07	0	42	0	247463936	19	4768
2026-01-28 00:54:18.36	10.34	20.08	-29.7	-32.4	14.7	7.00e-07	0	42	0	249561088	19	4910
2026-01-28 00:54:19.37	10.28	20.21	-29.7	-32.5	14.7	0.00e+00	0	42	0	251658240	19	4925
2026-01-28 00:54:20.37	10.21	20.34	-29.6	-32.0	15.0	1.75e-04	0	43	0	253755392	19	4785
2026-01-28 00:54:21.37	10.15	20.46	-29.5	-31.7	15.2	0.00e+00	0	42	0	255852544	19	4680
2026-01-28 00:54:22.38	10.08	20.59	-29.4	-32.1	15.3	0.00e+00	0	43	0	256901120	18	4934
2026-01-28 00:54:23.38	10.01	20.72	-29.5	-31.8	15.1	0.00e+00	0	42	0	258998272	19	4710
2026-01-28 00:54:24.38	9.95	20.85	-29.6	-32.1	15.0	0.00e+00	0	42	0	261095424	19	4809
2026-01-28 00:54:25.38	9.88	20.98	-29.7	-32.4	14.8	7.00e-07	0	43	0	263192576	19	4909
2026-01-28 00:54:26.39	9.81	21.11	-29.5	-32.0	15.1	0.00e+00	0	42	0	265289728	19	4757
2026-01-28 00:54:27.39	9.75	21.25	-29.4	-31.7	15.3	0.00e+00	0	42	0	266338304	19	4661
2026-01-28 00:54:28.40	9.68	21.38	-29.4	-32.2	15.3	0.00e+00	0	42	0	268435456	18	4951
2026-01-28 00:54:29.41	9.61	21.51	-29.4	-32.1	15.3	0.00e+00	0	42	0	270532608	18	4922
2026-01-28 00:54:30.41	9.54	21.65	-29.4	-32.0	15.4	0.00e+00	0	42	0	272629760	18	4874
2026-01-28 00:54:31.42	9.46	21.78	-29.4	-32.0	15.4	0.00e+00	0	42	0	274726912	18	4879
2026-01-28 00:54:32.42	9.39	21.92	-29.3	-31.9	15.5	0.00e+00	0	42	0	275775488	18	4831
2026-01-28 00:54:33.43	9.32	22.06	-29.4	-32.0	15.4	0.00e+00	0	43	0	277872640	18	4874
2026-01-28 00:54:34.44	9.25	22.19	-29.3	-31.9	15.4	0.00e+00	0	42	0	279969792	18	4846
2026-01-28 00:54:35.44	9.17	22.33	-29.3	-31.9	15.4	0.00e+00	0	42	0	282066944	18	4828
2026-01-28 00:54:36.44	9.10	22.47	-29.4	-32.1	15.2	0.00e+00	0	43	0	284164096	18	4896
2026-01-28 00:54:37.44	9.02	22.61	-29.4	-32.1	15.3	0.00e+00	0	43	0	285212672	18	4905
2026-01-28 00:54:38.43	8.95	22.74	-28.5	-31.2	15.1	0.00e+00	0	42	0	287309824	18	4881
2026-01-28 00:54:39.45	8.87	22.89	-29.4	-32.0	15.5	0.00e+00	0	42	0	289406976	18	4875
2026-01-28 00:54:40.45	8.79	23.03	-29.3	-31.9	15.3	0.00e+00	0	42	0	291504128	18	4856
2026-01-28 00:54:41.45	8.72	23.17	-29.4	-32.1	15.3	0.00e+00	0	43	0	293601280	18	4921
2026-01-28 00:54:42.46	8.64	23.31	-29.5	-31.8	15.2	0.00e+00	0	43	0	294649856	19	4706
2026-01-28 00:54:43.46	8.56	23.45	-29.6	-32.0	15.1	0.00e+00	0	43	0	296747008	19	4772
2026-01-28 00:54:44.46	8.48	23.60	-29.6	-32.1	15.0	2.02e-03	0	43	0	298844160	19	4786
2026-01-28 00:54:45.46	8.40	23.74	-29.7	-32.3	15.0	0.00e+00	0	42	0	300941312	19	4852
2026-01-28 00:54:46.46	8.32	23.89	-29.7	-32.4	14.9	0.00e+00	0	43	0	301989888	19	4897
2026-01-28 00:54:47.46	8.23	24.03	-29.8	-32.6	14.8	0.00e+00	0	43	0	304087040	19	4972
2026-01-28 00:54:48.47	8.15	24.18	-29.9	-32.8	14.7	2.17e-03	0	42	0	306184192	19	5023
2026-01-28 00:54:49.47	8.07	24.33	-30.0	-33.1	14.5	2.20e-06	0	43	0	308281344	19	5132
2026-01-28 00:54:50.48	7.98	24.48	-30.2	-33.1	14.1	2.20e-06	0	42	0	310378496	20	5038
2026-01-28 00:54:51.48	7.90	24.63	-30.3	-33.3	13.9	1.99e-03	0	42	0	311427072	20	5118
2026-01-28 00:54:52.49	7.81	24.78	-30.1	-33.0	14.1	1.50e-06	0	43	0	313524224	20	5001
2026-01-28 00:54:53.49	7.72	24.93	-30.0	-32.7	14.4	7.00e-07	0	43	0	315621376	20	4909
2026-01-28 00:54:54.49	7.63	25.08	-30.0	-32.6	14.4	1.50e-06	0	43	0	317718528	20	4846
2026-01-28 00:54:55.49	7.54	25.23	-30.0	-32.7	14.4	0.00e+00	0	42	0	319815680	20	4895
2026-01-28 00:54:56.50	7.45	25.38	-30.0	-32.7	14.3	2.20e-06	0	43	0	320864256	20	4906
2026-01-28 00:54:57.50	7.36	25.54	-30.1	-32.8	14.3	7.00e-07	0	42	0	322961408	20	4944
2026-01-28 00:54:58.51	7.27	25.69	-30.2	-33.1	14.1	3.89e-05	0	43	0	325058560	20	5031
2026-01-28 00:54:59.51	7.18	25.85	-30.3	-33.3	14.0	2.04e-03	0	42	0	327155712	20	5115
2026-01-28 00:55:00.52	7.08	26.01	-30.3	-33.4	13.9	1.50e-06	0	43	0	329252864	20	5149
2026-01-28 00:55:01.52	6.99	26.16	-30.4	-33.6	13.8	6.33e-05	0	42	0	330301440	20	5232
2026-01-28 00:55:02.53	6.89	26.32	-30.5	-33.8	13.7	2.00e-03	0	43	0	332398592	20	5288
2026-01-28 00:55:03.53	6.79	26.48	-30.6	-33.8	13.4	9.90e-06	0	43	0	334495744	21	5179
2026-01-28 00:55:04.53	6.70	26.64	-30.7	-34.0	13.2	2.05e-05	0	42	0	336592896	21	5259
2026-01-28 00:55:05.54	6.60	26.80	-30.8	-34.2	13.1	2.09e-03	0	42	0	338690048	21	5322
2026-01-28 00:55:06.54	6.50	26.96	-30.8	-34.3	13.1	2.14e-03	0	42	0	339738624	21	5369
2026-01-28 00:55:07.54	6.40	27.12	-30.8	-34.3	13.1	2.97e-05	0	42	0	341835776	21	5378
2026-01-28 00:55:08.55	6.29	27.29	-30.9	-34.6	12.9	2.09e-03	0	42	0	343932928	21	5475
2026-01-28 00:55:09.55	6.19	27.45	-31.1	-34.6	12.5	2.12e-03	0	43	0	346030080	22	5390
2026-01-28 00:55:10.56	6.09	27.62	-31.2	-35.0	12.3	1.20e-04	0	43	0	348127232	22	5542
2026-01-28 00:55:11.55	5.98	27.78	-31.3	-35.3	12.1	2.57e-03	0	43	0	349175808	22	5659
2026-01-28 00:55:12.56	5.87	27.95	-31.4	-35.6	11.8	2.74e-03	0	43	0	351272960	22	5818
2026-01-28 00:55:13.56	5.77	28.12	-31.5	-35.2	11.9	7.11e-04	0	43	0	353370112	23	5509
2026-01-28 00:55:14.56	5.66	28.28	-31.4	-35.4	12.0	3.82e-04	0	42	0	355467264	22	5715
2026-01-28 00:55:15.56	5.55	28.45	-31.4	-35.4	12.0	2.69e-03	0	43	0	357564416	22	5719
2026-01-28 00:55:16.57	5.44	28.63	-31.4	-35.5	12.0	5.61e-04	0	43	0	358612992	22	5738
2026-01-28 00:55:17.57	5.32	28.80	-31.3	-35.2	12.2	2.76e-03	0	42	0	360710144	22	5618
2026-01-28 00:55:18.58	5.21	28.97	-31.3	-35.2	12.1	2.43e-03	0	43	0	362807296	22	5631
2026-01-28 00:55:19.58	5.09	29.14	-31.4	-35.5	11.9	4.32e-04	0	42	0	364904448	22	5768
2026-01-28 00:55:20.59	4.98	29.32	-31.5	-35.3	11.7	2.78e-03	0	43	0	365953024	23	5582
2026-01-28 00:55:21.59	4.86	29.49	-31.4	-35.5	11.9	4.35e-04	0	42	0	368050176	22	5764
2026-01-28 00:55:22.59	4.74	29.67	-31.5	-35.3	11.7	5.52e-04	0	42	0	370147328	23	5575
2026-01-28 00:55:23.60	4.62	29.85	-31.6	-35.5	11.5	3.30e-03	0	42	0	372244480	23	5660
2026-01-28 00:55:24.61	4.50	30.02	-31.6	-35.5	11.6	3.42e-03	0	43	0	374341632	23	5666
2026-01-28 00:55:25.61	4.37	30.20	-31.7	-35.8	11.4	9.19e-04	0	43	0	375390208	23	5779
2026-01-28 00:55:26.61	4.25	30.38	-31.7	-35.8	11.4	3.33e-03	0	43	0	377487360	23	5777
2026-01-28 00:55:27.61	4.13	30.56	-31.6	-35.6	11.5	2.99e-03	0	42	0	379584512	23	5706
2026-01-28 00:55:28.61	4.00	30.74	-31.6	-35.6	11.5	8.89e-04	0	43	0	381681664	23	5667
2026-01-28 00:55:29.61	3.87	30.93	-31.6	-35.7	11.5	2.86e-03	0	42	0	383778816	23	5719
2026-01-28 00:55:30.62	3.74	31.11	-31.7	-35.9	11.3	3.39e-03	0	43	0	384827392	23	5826
2026-01-28 00:55:31.62	3.61	31.29	-31.8	-36.0	11.3	1.66e-03	0	43	0	386924544	23	5883
2026-01-28 00:55:32.62	3.47	31.48	-31.9	-36.4	11.1	3.80e-03	0	43	0	389021696	23	6037
2026-01-28 00:55:33.63	3.34	31.67	-31.9	-36.3	11.0	4.75e-03	0	43	0	391118848	23	6041
2026-01-28 00:55:34.64	3.20	31.86	-31.8	-36.0	11.2	1.76e-03	0	43	0	393216000	23	5860
2026-01-28 00:55:35.65	3.06	32.05	-31.8	-36.2	11.2	1.32e-03	0	43	0	394264576	23	5945
2026-01-28 00:55:36.65	2.92	32.24	-31.8	-36.2	11.1	3.71e-03	0	43	0	396361728	23	5974
2026-01-28 00:55:37.65	2.78	32.43	-31.8	-36.2	11.1	1.32e-03	0	43	0	398458880	23	5968
2026-01-28 00:55:38.65	2.64	32.62	-31.9	-36.5	10.9	1.96e-03	0	42	0	400556032	23	6095
2026-01-28 00:55:39.66	2.49	32.81	-31.8	-36.3	11.1	2.03e-03	0	42	0	402653184	23	5998
2026-01-28 00:55:40.66	2.34	33.00	-31.8	-36.1	11.3	1.31e-03	0	43	0	403701760	23	5917
2026-01-28 00:55:41.66	2.20	33.20	-31.7	-35.7	11.5	3.47e-03	0	43	0	405798912	23	5729
2026-01-28 00:55:42.67	2.04	33.40	-31.7	-35.8	11.5	7.18e-04	0	43	0	407896064	23	5770
2026-01-28 00:55:43.67	1.89	33.59	-31.7	-35.8	11.4	1.02e-03	0	43	0	409993216	23	5788
2026-01-28 00:55:44.67	1.74	33.79	-31.7	-35.9	11.4	3.51e-03	0	43	0	412090368	23	5828
2026-01-28 00:55:45.67	1.58	33.99	-31.8	-36.0	11.3	1.10e-03	0	43	0	413138944	23	5856
2026-01-28 00:55:46.67	1.42	34.19	-31.8	-36.2	11.2	1.30e-03	0	43	0	415236096	23	5952
2026-01-28 00:55:47.67	1.26	34.39	-31.9	-36.5	11.0	3.55e-03	0	43	0	417333248	23	6083
2026-01-28 00:55:48.68	1.10	34.59	-31.8	-36.2	11.2	4.65e-03	0	43	0	419430400	23	5958
2026-01-28 00:55:49.68	0.94	34.79	-31.9	-36.5	11.0	1.97e-03	0	43	0	420478976	23	6081
2026-01-28 00:55:50.69	0.77	35.00	-32.1	-36.6	10.5	3.49e-03	0	43	0	422576128	24	6049
2026-01-28 00:55:51.69	0.60	35.20	-32.1	-36.7	10.4	7.14e-03	0	43	0	424673280	24	6097
2026-01-28 00:55:52.70	0.43	35.41	-32.1	-36.7	10.4	4.19e-03	0	42	0	426770432	24	6112
2026-01-28 00:55:53.70	0.26	35.62	-32.1	-36.6	10.5	4.43e-03	0	43	0	428867584	24	6025
2026-01-28 00:55:54.71	0.08	35.83	-32.0	-36.3	10.8	5.49e-03	0	43	0	430964736	24	5911
2026-01-28 00:55:55.71	359.90	36.04	-32.1	-36.5	10.7	2.99e-03	0	43	0	432013312	24	5972
2026-01-28 00:55:56.72	359.72	36.25	-32.0	-36.2	10.9	3.03e-03	0	43	0	434110464	24	5858
2026-01-28 00:55:57.71	359.54	36.46	-32.1	-36.4	10.7	2.17e-03	0	42	0	436207616	24	5946
2026-01-28 00:55:58.71	359.36	36.67	-32.0	-36.2	10.8	3.38e-03	0	43	0	438304768	24	5852
2026-01-28 00:55:59.71	359.17	36.88	-31.7	-35.8	11.5	1.15e-03	0	43	0	439353344	23	5747
2026-01-28 00:56:00.72	358.98	37.10	-31.4	-34.8	12.2	4.23e-04	0	43	0	441450496	23	5336
2026-01-28 00:56:01.72	358.79	37.31	-31.3	-35.0	12.5	2.28e-04	0	43	0	443547648	22	5533
2026-01-28 00:56:02.73	358.59	37.53	-31.2	-34.8	12.6	9.23e-05	0	43	0	445644800	22	5442
2026-01-28 00:56:03.73	358.39	37.75	-31.3	-34.9	12.5	8.39e-05	0	43	0	447741952	22	5479
2026-01-28 00:56:04.74	358.19	37.97	-31.4	-35.4	12.2	1.30e-04	0	42	0	448790528	22	5668
2026-01-28 00:56:05.74	357.99	38.19	-31.5	-35.3	11.9	3.46e-04	0	43	0	450887680	23	5521
2026-01-28 00:56:06.74	357.78	38.41	-31.6	-35.6	11.7	5.46e-04	0	42	0	452984832	23	5653
2026-01-28 00:56:07.75	357.57	38.63	-31.6	-35.4	11.8	6.61e-04	0	43	0	455081984	23	5592
2026-01-28 00:56:08.75	357.36	38.86	-31.4	-34.9	12.2	4.03e-04	0	42	0	457179136	23	5352
2026-01-28 00:56:09.75	357.15	39.08	-31.6	-35.3	11.9	2.87e-04	0	43	0	458227712	23	5537
2026-01-28 00:56:10.75	356.93	39.30	-31.7	-35.7	11.6	4.09e-04	0	43	0	460324864	23	5742
2026-01-28 00:56:11.76	356.71	39.53	-31.7	-35.6	11.7	7.56e-04	0	43	0	462422016	23	5670
2026-01-28 00:56:12.76	356.49	39.76	-31.7	-35.9	11.5	6.16e-04	0	42	0	464519168	23	5781
2026-01-28 00:56:13.77	356.26	39.99	-31.7	-35.6	11.7	7.21e-04	0	43	0	466616320	23	5669
2026-01-28 00:56:14.77	356.03	40.21	-31.6	-35.3	11.9	5.12e-04	0	43	0	467664896	23	5546
2026-01-28 00:56:15.78	355.79	40.45	-31.6	-35.3	11.9	3.79e-04	0	43	0	469762048	23	5551
2026-01-28 00:56:16.78	355.56	40.67	-31.8	-36.1	11.3	6.96e-04	0	43	0	471859200	23	5908
2026-01-28 00:56:17.78	355.32	40.91	-31.7	-35.7	11.6	8.94e-04	0	43	0	473956352	23	5697
2026-01-28 00:56:18.78	355.07	41.14	-31.7	-35.6	11.7	6.35e-04	0	43	0	476053504	23	5659
2026-01-28 00:56:19.78	354.83	41.37	-30.7	-34.9	11.5	7.97e-04	0	43	0	477102080	23	5816
2026-01-28 00:56:20.78	354.58	41.60	-31.7	-35.9	11.5	1.01e-03	0	43	0	479199232	23	5794
2026-01-28 00:56:21.78	354.32	41.84	-31.8	-36.1	11.3	8.63e-04	0	43	0	481296384	23	5894
2026-01-28 00:56:22.79	354.06	42.08	-31.7	-35.9	11.0	2.61e-03	0	43	0	483393536	23	5797
2026-01-28 00:56:23.79	353.80	42.31	-31.7	-35.7	11.3	6.58e-04	0	43	0	484442112	23	5722
2026-01-28 00:56:24.79	353.53	42.55	-31.8	-36.1	11.4	7.78e-04	0	43	0	486539264	23	5876
2026-01-28 00:56:25.79	353.26	42.79	-32.0	-36.6	11.0	1.22e-03	0	43	0	488636416	23	6140
2026-01-28 00:56:26.80	352.99	43.03	-31.8	-36.0	11.4	1.44e-03	0	43	0	490733568	23	5850
2026-01-28 00:56:27.81	352.70	43.27	-31.5	-35.2	12.0	5.94e-04	0	43	0	492830720	23	5478
2026-01-28 00:56:28.81	352.42	43.51	-31.3	-35.1	12.5	1.86e-04	0	43	0	493879296	22	5552
2026-01-28 00:56:29.81	352.13	43.75	-31.1	-34.4	12.9	1.81e-03	0	43	0	495976448	22	5276
2026-01-28 00:56:30.81	351.84	43.99	-31.2	-34.7	12.7	4.04e-05	0	43	0	498073600	22	5372
2026-01-28 00:56:31.81	351.55	44.23	-31.2	-34.6	12.8	5.56e-05	0	43	0	500170752	22	5345
2026-01-28 00:56:32.81	351.25	44.48	-31.3	-35.1	12.4	1.89e-03	0	43	0	502267904	22	5555
2026-01-28 00:56:33.81	350.94	44.72	-31.3	-34.9	12.6	1.07e-04	0	43	0	503316480	22	5466
2026-01-28 00:56:34.81	350.63	44.96	-31.0	-34.2	13.0	6.56e-05	0	43	0	505413632	22	5209
2026-01-28 00:56:35.82	350.31	45.21	-30.8	-34.1	13.4	1.75e-05	0	43	0	507510784	21	5264
2026-01-28 00:56:36.82	349.99	45.46	-30.7	-33.8	13.6	7.01e-05	0	43	0	509607936	21	5145
2026-01-28 00:56:37.83	349.67	45.70	-30.8	-34.0	13.5	1.14e-05	0	43	0	511705088	21	5232
2026-01-28 00:56:38.83	349.34	45.95	-30.9	-34.2	13.3	1.06e-05	0	43	0	512753664	21	5314
2026-01-28 00:56:39.83	349.00	46.20	-31.1	-34.4	12.9	6.25e-05	0	43	0	514850816	22	5257
2026-01-28 00:56:40.83	348.66	46.44	-31.1	-34.3	12.9	1.48e-03	0	43	0	516947968	22	5242
2026-01-28 00:56:41.84	348.31	46.69	-31.1	-34.4	12.9	4.34e-05	0	43	0	519045120	22	5275
2026-01-28 00:56:42.84	347.96	46.94	-31.2	-34.7	12.8	6.17e-05	0	43	0	521142272	22	5379
2026-01-28 00:56:43.85	347.60	47.19	-31.3	-35.0	12.6	6.13e-04	0	43	0	522190848	22	5495
2026-01-28 00:56:44.85	347.24	47.44	-31.4	-35.2	12.5	1.24e-03	0	43	0	524288000	22	5580
2026-01-28 00:56:45.85	346.87	47.69	-31.3	-34.9	12.6	1.11e-04	0	43	0	526385152	22	5457
2026-01-28 00:56:46.85	346.49	47.93	-31.3	-35.1	12.5	2.00e-03	0	43	0	528482304	22	5538
2026-01-28 00:56:47.85	346.11	48.18	-31.1	-34.5	12.9	2.08e-03	0	43	0	530579456	22	5290
2026-01-28 00:56:48.85	345.72	48.43	-31.0	-34.2	13.1	4.27e-05	0	43	0	531628032	22	5186
2026-01-28 00:56:49.86	345.33	48.68	-30.8	-34.2	13.4	2.08e-03	0	43	0	533725184	21	5324
2026-01-28 00:56:50.86	344.93	48.93	-30.7	-33.9	13.6	2.10e-03	0	43	0	535822336	21	5199
2026-01-28 00:56:51.87	344.52	49.18	-30.8	-34.0	13.5	6.10e-06	0	43	0	537919488	21	5224
2026-01-28 00:56:52.87	344.10	49.43	-30.8	-34.1	13.5	1.75e-05	0	43	0	538968064	21	5243
2026-01-28 00:56:53.88	343.68	49.68	-31.0	-34.5	13.2	2.19e-03	0	43	0	541065216	21	5406
2026-01-28 00:56:54.88	343.25	49.92	-30.9	-33.9	13.3	2.97e-05	0	43	0	543162368	22	5085
2026-01-28 00:56:55.88	342.82	50.17	-30.8	-34.1	13.5	2.21e-03	0	43	0	545259520	21	5282
2026-01-28 00:56:56.89	342.37	50.42	-30.8	-34.0	13.5	2.03e-03	0	43	0	547356672	21	5239
2026-01-28 00:56:57.90	341.92	50.67	-30.9	-34.5	13.2	3.81e-05	0	43	0	549453824	21	5426
2026-01-28 00:56:58.90	341.46	50.91	-30.9	-33.9	13.3	2.01e-03	0	43	0	550502400	22	5089
2026-01-28 00:56:59.91	340.99	51.16	-30.5	-33.4	13.9	1.66e-03	0	43	0	552599552	21	4984
2026-01-28 00:57:00.90	340.52	51.40	-30.4	-33.0	14.2	1.22e-05	0	43	0	554696704	21	4842
2026-01-28 00:57:01.91	340.04	51.65	-30.4	-33.4	14.3	9.90e-04	0	43	0	556793856	20	5101
2026-01-28 00:57:02.92	339.55	51.89	-30.0	-32.6	14.7	9.36e-04	0	43	0	557842432	20	4816
2026-01-28 00:57:03.92	339.05	52.13	-29.5	-31.3	15.5	0.00e+00	0	43	0	559939584	20	4409
2026-01-28 00:57:04.92	338.55	52.37	-29.4	-31.4	15.8	9.99e-04	0	43	0	562036736	19	4538
2026-01-28 00:57:05.92	338.04	52.61	-29.4	-32.0	15.8	1.01e-03	0	43	0	564133888	18	4841
2026-01-28 00:57:06.92	337.52	52.85	-29.4	-31.5	15.8	0.00e+00	0	43	0	566231040	19	4571
2026-01-28 00:57:07.92	336.99	53.09	-29.4	-31.5	15.8	7.30e-04	0	43	0	567279616	19	4573
2026-01-28 00:57:08.93	336.44	53.32	-29.4	-32.0	15.8	5.26e-04	0	43	0	569376768	18	4828
2026-01-28 00:57:09.93	335.90	53.56	-29.3	-31.7	15.9	7.00e-07	0	43	0	571473920	18	4734
2026-01-28 00:57:10.94	335.34	53.79	-29.3	-31.8	15.9	9.77e-04	0	43	0	573571072	18	4768
2026-01-28 00:57:11.94	334.77	54.02	-29.3	-31.8	15.9	1.09e-03	0	43	0	575668224	18	4765
2026-01-28 00:57:12.94	334.20	54.25	-29.3	-31.7	15.9	0.00e+00	0	43	0	576716800	18	4729
2026-01-28 00:57:13.95	333.61	54.48	-29.4	-31.9	15.8	0.00e+00	0	43	0	578813952	18	4813
2026-01-28 00:57:14.96	333.01	54.70	-29.6	-31.8	15.6	1.06e-03	0	43	0	580911104	19	4670
2026-01-28 00:57:15.96	332.41	54.92	-29.5	-31.7	15.6	0.00e+00	0	43	0	583008256	19	4623
2026-01-28 00:57:16.96	331.80	55.14	-29.5	-31.7	15.7	0.00e+00	0	43	0	585105408	19	4616
2026-01-28 00:57:17.97	331.17	55.36	-29.7	-32.2	15.3	1.10e-03	0	43	0	586153984	19	4808
2026-01-28 00:57:18.97	330.54	55.58	-30.0	-32.5	14.8	0.00e+00	0	43	0	588251136	20	4793
2026-01-28 00:57:19.97	329.90	55.79	-30.6	-33.6	13.8	1.37e-03	0	43	0	590348288	21	5077
2026-01-28 00:57:20.98	329.25	56.00	-31.0	-34.2	13.1	1.90e-05	0	43	0	592445440	22	5164
2026-01-28 00:57:21.98	328.59	56.21	-31.1	-34.3	13.0	6.10e-05	0	43	0	594542592	22	5234
2026-01-28 00:57:22.99	327.91	56.41	-31.2	-34.7	12.8	1.70e-03	0	43	0	595591168	22	5385
2026-01-28 00:57:23.99	327.23	56.61	-31.5	-35.5	12.2	1.12e-04	0	43	0	597688320	22	5720
2026-01-28 00:57:24.99	326.54	56.81	-31.4	-34.8	12.3	2.02e-04	0	43	0	599785472	23	5323
2026-01-28 00:57:26.00	325.83	57.00	-31.2	-34.8	12.6	2.15e-03	0	43	0	601882624	22	5422
2026-01-28 00:57:27.00	325.12	57.19	-31.2	-34.8	12.7	4.80e-05	0	43	0	603979776	22	5415
2026-01-28 00:57:28.01	324.40	57.38	-31.4	-35.3	12.4	1.02e-04	0	43	0	605028352	22	5633
2026-01-28 00:57:29.01	323.67	57.56	-31.6	-35.2	12.1	1.98e-03	0	43	0	607125504	23	5471
2026-01-28 00:57:30.01	322.93	57.74	-31.7	-35.6	11.9	1.50e-03	0	43	0	609222656	23	5638
2026-01-28 00:57:31.02	322.17	57.92	-31.5	-34.9	12.3	3.40e-04	0	43	0	611319808	23	5365
2026-01-28 00:57:32.02	321.41	58.09	-31.4	-34.9	12.3	1.65e-04	0	43	0	613416960	23	5333
2026-01-28 00:57:33.02	320.65	58.26	-31.5	-35.4	12.3	4.82e-04	0	43	0	614465536	22	5672
2026-01-28 00:57:34.02	319.87	58.42	-31.3	-34.9	12.7	8.39e-05	0	43	0	616562688	22	5447
2026-01-28 00:57:35.03	319.07	58.58	-31.6	-35.2	12.2	1.43e-04	0	43	0	618659840	23	5470
2026-01-28 00:57:36.03	318.28	58.73	-31.4	-34.7	12.4	1.96e-04	0	43	0	620756992	23	5285
2026-01-28 00:57:37.04	317.46	58.88	-31.4	-34.8	12.4	1.24e-04	0	43	0	621805568	23	5320
2026-01-28 00:57:38.04	316.65	59.02	-31.5	-35.0	12.2	2.05e-04	0	43	0	623902720	23	5399
2026-01-28 00:57:39.04	315.82	59.16	-31.3	-34.4	12.6	1.01e-04	0	43	0	625999872	23	5170
2026-01-28 00:57:40.04	314.99	59.29	-30.9	-33.3	13.5	4.88e-05	0	43	0	628097024	23	4735
2026-01-28 00:57:41.04	314.15	59.42	-30.6	-32.9	14.0	2.20e-06	0	43	0	630194176	22	4708
2026-01-28 00:57:42.04	313.30	59.54	-30.5	-33.1	14.0	5.30e-06	0	43	0	631242752	21	4900
2026-01-28 00:57:43.05	312.44	59.66	-30.3	-32.8	14.3	2.20e-06	0	43	0	633339904	21	4793
2026-01-28 00:57:44.05	311.57	59.77	-30.1	-32.7	14.7	0.00e+00	0	43	0	635437056	20	4860
2026-01-28 00:57:45.06	310.69	59.87	-30.0	-32.4	14.9	2.20e-06	0	43	0	637534208	20	4757
2026-01-28 00:57:46.06	309.81	59.97	-30.0	-32.4	14.8	0.00e+00	0	43	0	639631360	20	4762
2026-01-28 00:57:47.06	308.93	60.06	-30.3	-33.2	14.3	0.00e+00	0	43	0	640679936	20	5052
2026-01-28 00:57:48.07	308.03	60.15	-30.0	-32.6	14.7	0.00e+00	0	43	0	642777088	20	4825
2026-01-28 00:57:49.07	307.13	60.23	-29.8	-32.0	15.0	0.00e+00	0	43	0	644874240	20	4640
2026-01-28 00:57:50.08	306.22	60.30	-29.7	-31.7	15.2	0.00e+00	0	43	0	646971392	20	4547
2026-01-28 00:57:51.08	305.31	60.37	-29.9	-32.2	15.0	0.00e+00	0	43	0	649068544	20	4681
2026-01-28 00:57:52.08	304.40	60.43	-29.7	-31.8	15.3	0.00e+00	0	43	0	650117120	20	4566
2026-01-28 00:57:53.09	303.47	60.49	-29.6	-31.9	15.5	0.00e+00	0	43	0	652214272	19	4688
2026-01-28 00:57:54.09	302.55	60.54	-29.5	-31.8	15.5	0.00e+00	0	43	0	654311424	19	4681
2026-01-28 00:57:55.09	301.63	60.58	-28.7	-31.2	15.0	0.00e+00	0	43	0	656408576	18	4785
2026-01-28 00:57:56.09	300.70	60.61	-29.4	-31.4	15.9	0.00e+00	0	43	0	658505728	19	4533
2026-01-28 00:57:57.10	299.76	60.64	-29.2	-31.4	16.0	0.00e+00	0	43	0	659554304	18	4653
2026-01-28 00:57:58.09	298.84	60.66	-29.0	-31.0	16.3	0.00e+00	0	43	0	661651456	18	4516
2026-01-28 00:57:59.09	297.91	60.68	-28.9	-30.7	16.5	0.00e+00	0	43	0	663748608	18	4452
2026-01-28 00:58:00.09	296.98	60.68	-28.6	-30.6	16.9	0.00e+00	0	43	0	665845760	17	4519
2026-01-28 00:58:01.10	296.04	60.69	-28.3	-30.4	16.9	0.00e+00	0	43	0	667942912	16	4566
2026-01-28 00:58:02.10	295.10	60.68	-28.0	-29.7	17.5	0.00e+00	0	43	0	668991488	16	4375
2026-01-28 00:58:03.11	294.16	60.67	-28.2	-30.0	17.1	0.00e+00	0	43	0	671088640	16	4472
2026-01-28 00:58:04.12	293.22	60.65	-28.2	-30.2	17.3	1.47e-03	0	43	0	673185792	16	4509
2026-01-28 00:58:05.12	292.29	60.62	-28.1	-29.8	17.5	0.00e+00	0	43	0	675282944	16	4413
2026-01-28 00:58:06.12	291.36	60.59	-27.9	-29.5	17.6	0.00e+00	0	43	0	676331520	16	4315
2026-01-28 00:58:07.12	290.44	60.55	-28.2	-30.1	17.3	0.00e+00	0	43	0	678428672	16	4500
2026-01-28 00:58:08.13	289.51	60.50	-28.2	-30.1	17.4	1.39e-03	0	43	0	680525824	16	4488
2026-01-28 00:58:09.13	288.59	60.45	-28.2	-30.1	17.3	0.00e+00	0	43	0	682622976	16	4490
2026-01-28 00:58:10.12	287.69	60.39	-27.9	-30.0	17.5	0.00e+00	0	43	0	684720128	15	4592
2026-01-28 00:58:11.12	286.78	60.33	-27.8	-29.8	17.6	9.01e-04	0	43	0	685768704	15	4527
2026-01-28 00:58:12.12	285.87	60.26	-28.4	-30.5	17.1	0.00e+00	0	43	0	687865856	16	4619
2026-01-28 00:58:13.12	284.97	60.18	-28.4	-30.7	17.0	0.00e+00	0	43	0	689963008	16	4658
2026-01-28 00:58:14.12	284.08	60.09	-28.4	-30.5	17.0	0.00e+00	0	43	0	692060160	16	4622
2026-01-28 00:58:15.12	283.19	60.00	-28.1	-30.0	17.3	0.00e+00	0	43	0	694157312	16	4460
2026-01-28 00:58:16.12	282.31	59.91	-28.3	-30.4	17.2	0.00e+00	0	43	0	695205888	16	4586
2026-01-28 00:58:17.12	281.43	59.81	-28.7	-30.8	16.6	0.00e+00	0	43	0	697303040	17	4590
2026-01-28 00:58:18.12	280.56	59.70	-28.9	-31.3	16.3	0.00e+00	0	43	0	699400192	17	4755
2026-01-28 00:58:19.13	279.70	59.58	-29.1	-31.3	16.1	2.02e-03	0	43	0	701497344	18	4629
2026-01-28 00:58:20.13	278.84	59.46	-29.0	-31.1	16.2	0.00e+00	0	43	0	703594496	18	4556
2026-01-28 00:58:21.14	277.99	59.34	-29.0	-31.1	16.2	0.00e+00	0	43	0	704643072	18	4563
2026-01-28 00:58:22.14	277.15	59.21	-29.2	-31.6	15.8	2.10e-03	0	43	0	706740224	18	4716
2026-01-28 00:58:23.15	276.32	59.07	-29.3	-31.7	15.8	0.00e+00	0	43	0	708837376	18	4744
2026-01-28 00:58:24.14	275.51	58.93	-29.4	-31.9	15.7	0.00e+00	0	43	0	710934528	18	4829
2026-01-28 00:58:25.15	274.69	58.78	-29.1	-31.2	16.1	2.07e-03	0	43	0	713031680	18	4607
2026-01-28 00:58:26.15	273.89	58.63	-29.3	-31.7	15.8	1.94e-03	0	43	0	714080256	18	4753
2026-01-28 00:58:27.15	273.09	58.48	-29.7	-32.3	15.1	0.00e+00	0	43	0	716177408	19	4845
2026-01-28 00:58:28.16	272.30	58.32	-30.1	-32.9	14.4	2.10e-03	0	43	0	718274560	20	4935
2026-01-28 00:58:29.16	271.53	58.15	-30.3	-33.3	14.1	2.26e-03	0	43	0	720371712	20	5090
2026-01-28 00:58:30.17	270.76	57.98	-30.2	-33.0	14.3	0.00e+00	0	43	0	721420288	20	4987
2026-01-28 00:58:31.17	270.01	57.81	-30.1	-32.7	14.5	0.00e+00	0	43	0	723517440	20	4862
2026-01-28 00:58:32.18	269.26	57.63	-29.8	-32.0	14.8	1.96e-03	0	43	0	725614592	20	4648
2026-01-28 00:58:33.18	268.52	57.45	-29.8	-32.1	14.9	6.94e-05	0	43	0	727711744	20	4667
2026-01-28 00:58:34.19	267.79	57.26	-30.0	-32.6	14.6	0.00e+00	0	43	0	729808896	20	4833
2026-01-28 00:58:35.19	267.08	57.07	-29.9	-32.3	14.7	1.75e-03	0	43	0	730857472	20	4749
2026-01-28 00:58:36.19	266.37	56.88	-29.4	-31.0	15.6	0.00e+00	0	43	0	732954624	20	4340
2026-01-28 00:58:37.20	265.67	56.68	-29.4	-31.9	15.7	1.89e-03	0	43	0	735051776	18	4813
2026-01-28 00:58:38.21	264.98	56.48	-29.7	-32.2	15.2	2.07e-03	0	43	0	737148928	19	4800
2026-01-28 00:58:39.21	264.30	56.28	-29.7	-32.4	15.1	0.00e+00	0	43	0	739246080	19	4876
2026-01-28 00:58:40.21	263.64	56.07	-29.6	-32.0	15.3	2.12e-03	0	43	0	740294656	19	4754
2026-01-28 00:58:41.22	262.98	55.86	-29.5	-31.8	15.4	0.00e+00	0	43	0	742391808	19	4672
2026-01-28 00:58:42.23	262.33	55.65	-29.5	-31.8	15.4	3.68e-04	0	43	0	744488960	19	4685
2026-01-28 00:58:43.23	261.69	55.43	-29.7	-32.3	15.1	9.03e-04	0	43	0	746586112	19	4851
2026-01-28 00:58:44.23	261.07	55.21	-29.5	-32.2	15.5	6.35e-04	0	43	0	748683264	18	4936
2026-01-28 00:58:45.22	260.46	55.00	-29.6	-32.0	15.3	2.72e-04	0	43	0	749731840	19	4761
2026-01-28 00:58:46.23	259.85	54.77	-29.9	-32.7	14.9	4.29e-04	0	43	0	751828992	19	4986
2026-01-28 00:58:47.23	259.25	54.55	-29.9	-32.8	14.8	1.15e-04	0	43	0	753926144	19	5030
2026-01-28 00:58:48.23	258.66	54.32	-29.9	-32.7	14.9	7.00e-07	0	43	0	756023296	19	4973
2026-01-28 00:58:49.24	258.08	54.09	-29.7	-32.2	15.1	5.11e-04	0	43	0	758120448	19	4822
2026-01-28 00:58:50.24	257.51	53.86	-29.7	-32.2	15.1	4.52e-04	0	43	0	759169024	19	4817
2026-01-28 00:58:51.25	256.94	53.63	-29.8	-32.4	15.0	0.00e+00	0	43	0	761266176	19	4889
2026-01-28 00:58:52.25	256.39	53.40	-29.6	-32.0	15.2	0.00e+00	0	43	0	763363328	19	4761
2026-01-28 00:58:53.26	255.85	53.16	-29.8	-32.5	14.9	1.50e-06	0	43	0	765460480	19	4903
2026-01-28 00:58:54.27	255.31	52.92	-30.3	-33.3	14.0	7.00e-07	0	43	0	767557632	20	5096
2026-01-28 00:58:55.27	254.78	52.68	-30.3	-33.3	14.0	1.50e-06	0	43	0	768606208	20	5091
2026-01-28 00:58:56.27	254.27	52.44	-30.4	-33.6	13.8	7.06e-04	0	43	0	770703360	20	5194
2026-01-28 00:58:57.28	253.75	52.20	-30.0	-32.7	14.4	5.30e-06	0	43	0	772800512	20	4881
2026-01-28 00:58:58.28	253.25	51.96	-30.0	-32.6	14.5	5.85e-04	0	43	0	774897664	20	4838
2026-01-28 00:58:59.29	252.76	51.71	-30.1	-32.9	14.2	7.00e-07	0	43	0	776994816	20	4969
2026-01-28 00:59:00.28	252.28	51.47	-30.4	-33.7	13.8	3.12e-05	0	43	0	778043392	20	5241
2026-01-28 00:59:01.28	251.80	51.23	-30.5	-33.5	13.6	1.75e-03	0	43	0	780140544	21	5072
2026-01-28 00:59:02.28	251.34	50.98	-30.6	-33.6	13.4	1.83e-05	0	43	0	782237696	21	5115
2026-01-28 00:59:03.28	250.88	50.74	-30.7	-34.0	13.1	1.60e-05	0	43	0	784334848	21	5285
2026-01-28 00:59:04.28	250.42	50.49	-30.9	-34.7	12.7	4.59e-04	0	43	0	785383424	21	5556
2026-01-28 00:59:05.29	249.97	50.24	-31.2	-35.1	12.2	1.18e-04	0	43	0	787480576	22	5604
2026-01-28 00:59:06.29	249.54	50.00	-31.6	-35.6	11.4	6.45e-04	0	43	0	789577728	23	5730
2026-01-28 00:59:07.29	249.11	49.75	-31.8	-36.2	11.0	3.63e-03	0	43	0	791674880	23	6015
2026-01-28 00:59:08.30	248.68	49.50	-31.3	-34.8	11.9	3.41e-03	0	43	0	793772032	23	5396
2026-01-28 00:59:09.30	248.26	49.25	-31.1	-34.7	12.3	2.36e-04	0	43	0	794820608	22	5444
2026-01-28 00:59:10.31	247.85	49.00	-31.2	-34.8	12.3	2.12e-04	0	43	0	796917760	22	5487
2026-01-28 00:59:11.32	247.44	48.75	-31.2	-34.9	12.3	2.71e-03	0	43	0	799014912	22	5508
2026-01-28 00:59:12.32	247.04	48.50	-31.2	-35.1	12.1	2.17e-04	0	43	0	801112064	22	5602
2026-01-28 00:59:13.32	246.65	48.25	-31.5	-35.5	11.4	6.45e-04	0	43	0	803209216	23	5692
2026-01-28 00:59:14.32	246.27	48.00	-31.8	-36.5	10.7	5.23e-03	0	43	0	804257792	23	6155
2026-01-28 00:59:15.32	245.89	47.75	-32.0	-36.7	10.1	5.10e-03	0	43	0	806354944	24	6164
2026-01-28 00:59:16.33	245.51	47.50	-31.8	-36.4	10.7	3.76e-03	0	43	0	808452096	23	6131
2026-01-28 00:59:17.33	245.15	47.25	-31.9	-36.6	10.6	3.15e-03	0	43	0	810549248	23	6199
2026-01-28 00:59:18.33	244.79	47.00	-31.8	-36.3	10.8	3.53e-03	0	43	0	812646400	23	6059
2026-01-28 00:59:19.34	244.43	46.75	-31.4	-34.9	11.8	7.48e-04	0	43	0	813694976	23	5444
2026-01-28 00:59:20.34	244.08	46.50	-31.0	-34.4	12.5	1.36e-04	0	43	0	815792128	22	5322
2026-01-28 00:59:21.34	243.74	46.26	-31.0	-34.3	12.6	9.53e-05	0	43	0	817889280	22	5286
2026-01-28 00:59:22.34	243.40	46.01	-31.1	-34.7	12.3	3.67e-04	0	43	0	819986432	22	5448
2026-01-28 00:59:23.35	243.06	45.76	-31.0	-34.4	12.5	1.40e-04	0	43	0	822083584	22	5335
2026-01-28 00:59:24.35	242.74	45.51	-31.0	-34.3	12.6	9.84e-05	0	43	0	823132160	22	5268
2026-01-28 00:59:25.35	242.41	45.27	-31.0	-34.5	12.4	2.37e-03	0	43	0	825229312	22	5384
2026-01-28 00:59:26.36	242.09	45.02	-31.1	-34.7	12.3	1.48e-04	0	43	0	827326464	22	5438
2026-01-28 00:59:27.36	241.78	44.77	-31.1	-34.7	12.3	1.63e-04	0	43	0	829423616	22	5469
2026-01-28 00:59:28.37	241.47	44.53	-31.0	-34.5	12.4	1.67e-04	0	43	0	831520768	22	5365
2026-01-28 00:59:29.37	241.17	44.28	-30.9	-34.1	12.7	6.86e-05	0	43	0	832569344	22	5207
2026-01-28 00:59:30.37	240.87	44.04	-31.0	-34.5	12.5	9.53e-05	0	43	0	834666496	22	5377
2026-01-28 00:59:31.37	240.58	43.80	-31.1	-34.6	12.4	1.62e-04	0	43	0	836763648	22	5420
2026-01-28 00:59:32.37	240.29	43.55	-31.0	-34.5	12.5	1.82e-04	0	43	0	838860800	22	5353
2026-01-28 00:59:33.37	240.00	43.31	-30.9	-34.2	12.6	1.08e-04	0	43	0	839909376	22	5238
2026-01-28 00:59:34.37	239.72	43.07	-31.0	-34.9	12.4	1.11e-04	0	43	0	842006528	21	5657
2026-01-28 00:59:35.37	239.45	42.83	-30.9	-34.6	12.7	7.47e-05	0	43	0	844103680	21	5513
2026-01-28 00:59:36.37	239.17	42.59	-30.9	-34.6	12.7	7.01e-05	0	43	0	846200832	21	5513
2026-01-28 00:59:37.37	238.90	42.36	-31.0	-34.5	12.4	1.45e-04	0	43	0	848297984	22	5389
2026-01-28 00:59:38.38	238.64	42.12	-31.2	-35.0	12.1	2.23e-04	0	43	0	849346560	22	5567
2026-01-28 00:59:39.38	238.38	41.88	-31.3	-35.4	11.8	4.16e-04	0	43	0	851443712	22	5751
2026-01-28 00:59:40.39	238.12	41.64	-31.4	-35.8	11.5	8.52e-04	0	43	0	853540864	22	5952
2026-01-28 00:59:41.39	237.87	41.41	-31.4	-35.8	11.5	8.76e-04	0	43	0	855638016	22	5950
2026-01-28 00:59:42.39	237.62	41.17	-31.6	-35.8	10.6	1.03e-03	0	43	0	857735168	23	5880
2026-01-28 00:59:43.40	237.37	40.94	-31.7	-36.2	10.2	2.26e-03	0	43	0	858783744	23	6024
2026-01-28 00:59:44.40	237.13	40.71	-31.7	-36.2	10.9	2.01e-03	0	43	0	860880896	23	6020
2026-01-28 00:59:45.41	236.89	40.47	-31.8	-36.4	10.5	4.13e-03	0	43	0	862978048	23	6118
2026-01-28 00:59:46.42	236.65	40.24	-31.6	-35.9	11.0	2.08e-03	0	43	0	865075200	23	5893
2026-01-28 00:59:47.42	236.42	40.01	-31.7	-36.3	10.8	2.16e-03	0	43	0	867172352	23	6063
2026-01-28 00:59:48.43	236.19	39.78	-31.9	-36.8	10.4	3.61e-03	0	43	0	868220928	23	6313
2026-01-28 00:59:49.43	235.96	39.55	-31.9	-36.9	10.3	8.14e-03	0	43	0	870318080	23	6410
2026-01-28 00:59:50.44	235.74	39.32	-32.0	-37.0	10.2	4.93e-03	0	43	0	872415232	23	6461
2026-01-28 00:59:51.44	235.52	39.10	-31.9	-36.7	10.3	7.34e-03	0	43	0	874512384	23	6313
2026-01-28 00:59:52.44	235.30	38.87	-31.7	-36.1	10.9	3.43e-03	0	43	0	876609536	23	5973
2026-01-28 00:59:53.44	235.09	38.65	-31.7	-36.3	10.7	3.07e-03	0	43	0	877658112	23	6088
2026-01-28 00:59:54.44	234.88	38.43	-31.8	-36.5	10.6	3.04e-03	0	43	0	879755264	23	6182
2026-01-28 00:59:55.45	234.67	38.21	-31.8	-36.6	10.5	4.71e-03	0	43	0	881852416	23	6221
2026-01-28 00:59:56.45	234.47	37.98	-31.5	-35.7	11.2	1.74e-03	0	43	0	883949568	23	5781
2026-01-28 00:59:57.45	234.27	37.77	-31.2	-35.2	11.8	7.66e-04	0	43	0	886046720	22	5687
2026-01-28 00:59:58.46	234.07	37.54	-31.1	-34.9	12.0	3.18e-04	0	43	0	887095296	22	5562
2026-01-28 00:59:59.46	233.87	37.33	-31.1	-34.8	12.1	3.27e-04	0	43	0	889192448	22	5532
2026-01-28 01:00:00.46	233.68	37.11	-31.1	-34.7	12.2	1.98e-03	0	43	0	891289600	22	5495
2026-01-28 01:00:01.47	233.48	36.89	-31.2	-35.2	11.8	2.84e-04	0	43	0	893386752	22	5702
2026-01-28 01:00:02.48	233.29	36.68	-31.3	-35.5	11.6	5.57e-04	0	43	0	895483904	22	5825
2026-01-28 01:00:03.48	233.11	36.46	-31.3	-35.5	11.6	2.98e-03	0	43	0	896532480	22	5842
2026-01-28 01:00:04.49	232.92	36.25	-31.2	-35.3	11.7	2.17e-03	0	43	0	898629632	22	5736
2026-01-28 01:00:05.49	232.74	36.04	-31.3	-35.4	11.7	5.32e-04	0	43	0	900726784	22	5773
2026-01-28 01:00:06.50	232.56	35.83	-31.2	-35.3	11.7	2.83e-03	0	43	0	902823936	22	5763
2026-01-28 01:00:07.50	232.39	35.62	-31.2	-35.2	11.8	2.65e-03	0	43	0	904921088	22	5691
2026-01-28 01:00:08.50	232.21	35.41	-31.2	-35.2	11.8	5.10e-04	0	43	0	905969664	22	5694
2026-01-28 01:00:09.51	232.04	35.20	-31.3	-35.6	11.5	2.65e-03	0	43	0	908066816	22	5898
2026-01-28 01:00:10.51	231.87	35.00	-31.3	-35.5	11.5	2.95e-03	0	43	0	910163968	22	5877
2026-01-28 01:00:11.52	231.70	34.79	-31.1	-34.9	12.0	4.78e-04	0	43	0	912261120	22	5574
2026-01-28 01:00:12.52	231.53	34.59	-31.1	-34.9	12.0	3.49e-04	0	43	0	914358272	22	5579
2026-01-28 01:00:13.53	231.37	34.38	-31.1	-35.0	12.0	2.29e-03	0	43	0	915406848	22	5615
2026-01-28 01:00:14.53	231.21	34.18	-31.1	-35.1	11.8	4.80e-04	0	43	0	917504000	22	5683
2026-01-28 01:00:15.53	231.05	33.98	-31.3	-35.4	11.5	4.96e-04	0	43	0	919601152	22	5826
2026-01-28 01:00:16.54	230.89	33.78	-31.4	-36.0	11.1	3.33e-03	0	43	0	921698304	22	6107
2026-01-28 01:00:17.55	230.73	33.58	-31.5	-35.9	10.9	1.63e-03	0	43	0	923795456	23	5918
2026-01-28 01:00:18.54	230.58	33.38	-31.8	-36.6	10.4	5.09e-03	0	43	0	924844032	23	6286
2026-01-28 01:00:19.55	230.43	33.18	-31.7	-36.5	10.4	6.57e-03	0	43	0	926941184	23	6223
2026-01-28 01:00:20.55	230.28	32.99	-31.6	-36.2	10.5	4.24e-03	0	43	0	929038336	23	6107
2026-01-28 01:00:21.55	230.13	32.79	-31.5	-35.6	11.0	4.37e-03	0	43	0	931135488	23	5801
2026-01-28 01:00:22.55	229.99	32.60	-31.4	-35.8	11.2	3.71e-03	0	43	0	932184064	22	6020
2026-01-28 01:00:23.55	229.84	32.41	-31.3	-35.4	11.5	9.38e-04	0	43	0	934281216	22	5822
2026-01-28 01:00:24.55	229.70	32.22	-31.1	-34.9	12.0	2.50e-03	0	43	0	936378368	22	5577
2026-01-28 01:00:25.56	229.56	32.03	-31.0	-34.6	12.1	2.50e-03	0	43	0	938475520	22	5452
2026-01-28 01:00:26.56	229.42	31.84	-31.0	-34.8	12.0	3.09e-04	0	43	0	940572672	22	5535
2026-01-28 01:00:27.56	229.28	31.65	-31.1	-34.8	11.9	2.53e-03	0	43	0	941621248	22	5561
2026-01-28 01:00:28.56	229.15	31.46	-31.0	-34.8	11.9	2.43e-03	0	43	0	943718400	22	5548
2026-01-28 01:00:29.56	229.01	31.27	-31.2	-35.1	11.8	5.28e-04	0	43	0	945815552	22	5687
2026-01-28 01:00:30.57	228.88	31.09	-31.1	-34.9	11.8	2.68e-03	0	43	0	947912704	22	5611
2026-01-28 01:00:31.57	228.75	30.90	-31.2	-35.2	11.7	2.60e-03	0	43	0	950009856	22	5743
2026-01-28 01:00:32.58	228.62	30.72	-31.2	-35.3	11.6	7.00e-04	0	43	0	951058432	22	5774
2026-01-28 01:00:33.58	228.49	30.54	-31.2	-35.2	11.6	6.32e-04	0	43	0	953155584	22	5733
2026-01-28 01:00:34.59	228.36	30.35	-31.2	-35.4	11.5	2.94e-03	0	43	0	955252736	22	5811
2026-01-28 01:00:35.59	228.23	30.17	-31.3	-35.7	11.3	9.97e-04	0	43	0	957349888	22	5944
2026-01-28 01:00:36.59	228.11	29.99	-31.5	-35.7	10.9	3.55e-03	0	43	0	959447040	23	5871
2026-01-28 01:00:37.59	227.99	29.82	-31.8	-36.6	10.2	6.11e-03	0	43	0	960495616	23	6313
2026-01-28 01:00:38.59	227.87	29.64	-31.8	-36.7	10.1	9.19e-03	0	43	0	962592768	23	6354
2026-01-28 01:00:39.60	227.75	29.46	-31.7	-36.4	10.4	7.93e-03	0	43	0	964689920	23	6199
2026-01-28 01:00:40.60	227.63	29.28	-31.6	-36.1	10.7	3.66e-03	0	43	0	966787072	23	6035
2026-01-28 01:00:41.60	227.51	29.11	-31.5	-35.8	10.8	3.15e-03	0	43	0	968884224	23	5904
2026-01-28 01:00:42.61	227.39	28.94	-31.5	-35.7	10.9	4.90e-03	0	43	0	969932800	23	5873
2026-01-28 01:00:43.61	227.28	28.76	-31.5	-36.2	10.9	2.11e-03	0	43	0	972029952	22	6179
2026-01-28 01:00:44.61	227.17	28.59	-31.4	-35.4	11.1	2.54e-03	0	43	0	974127104	23	5744
2026-01-28 01:00:45.62	227.05	28.42	-31.4	-36.0	11.0	4.43e-03	0	43	0	976224256	22	6120
2026-01-28 01:00:46.62	226.94	28.25	-31.3	-35.3	11.2	4.63e-03	0	43	0	977272832	23	5668
2026-01-28 01:00:47.62	226.83	28.08	-31.1	-34.9	11.8	6.72e-04	0	43	0	979369984	22	5602
2026-01-28 01:00:48.62	226.72	27.91	-30.8	-34.8	12.2	3.11e-03	0	43	0	981467136	21	5663
2026-01-28 01:00:49.63	226.62	27.74	-30.8	-34.6	12.3	2.35e-03	0	43	0	983564288	21	5593
2026-01-28 01:00:50.63	226.51	27.58	-30.8	-34.7	12.3	1.62e-04	0	43	0	985661440	21	5632
2026-01-28 01:00:51.63	226.40	27.41	-30.6	-34.2	12.6	1.62e-04	0	43	0	986710016	21	5445
2026-01-28 01:00:52.63	226.30	27.25	-30.6	-34.0	12.7	2.27e-03	0	43	0	988807168	21	5340
2026-01-28 01:00:53.64	226.20	27.08	-30.6	-34.1	12.7	3.24e-04	0	43	0	990904320	21	5387
2026-01-28 01:00:54.64	226.10	26.92	-30.5	-33.9	12.8	8.08e-05	0	43	0	993001472	21	5312
2026-01-28 01:00:55.64	225.99	26.76	-30.6	-34.1	12.6	6.86e-05	0	43	0	995098624	21	5373
2026-01-28 01:00:56.64	225.90	26.60	-30.5	-33.9	12.7	2.65e-04	0	43	0	996147200	21	5321
2026-01-28 01:00:57.64	225.80	26.44	-30.6	-34.1	12.6	9.23e-05	0	43	0	998244352	21	5386
2026-01-28 01:00:58.64	225.70	26.28	-30.6	-34.2	12.5	1.15e-04	0	43	0	1000341504	21	5452
2026-01-28 01:00:59.64	225.60	26.12	-30.5	-33.7	12.9	3.18e-04	0	43	0	1002438656	21	5250
2026-01-28 01:01:00.65	225.51	25.96	-30.5	-33.9	12.7	4.95e-05	0	43	0	1004535808	21	5305
2026-01-28 01:01:01.65	225.41	25.80	-30.7	-34.4	12.4	9.00e-05	0	43	0	1005584384	21	5516
2026-01-28 01:01:02.66	225.32	25.65	-30.6	-34.0	12.6	1.45e-04	0	43	0	1007681536	21	5360
2026-01-28 01:01:03.66	225.22	25.49	-30.4	-33.5	13.0	2.07e-03	0	43	0	1009778688	21	5167
2026-01-28 01:01:04.66	225.13	25.34	-30.3	-33.9	13.1	3.73e-05	0	43	0	1011875840	20	5423
2026-01-28 01:01:05.66	225.04	25.18	-30.3	-33.8	13.2	2.89e-05	0	43	0	1013972992	20	5367
2026-01-28 01:01:06.66	224.95	25.03	-30.3	-33.7	13.2	2.67e-05	0	43	0	1015021568	20	5342
2026-01-28 01:01:07.66	224.86	24.88	-30.3	-33.9	13.1	2.97e-05	0	43	0	1017118720	20	5427
2026-01-28 01:01:08.67	224.77	24.73	-30.3	-33.9	13.0	4.27e-05	0	43	0	1019215872	20	5432
2026-01-28 01:01:09.67	224.69	24.58	-30.3	-33.7	13.2	2.82e-05	0	43	0	1021313024	20	5356
2026-01-28 01:01:10.68	224.60	24.42	-30.3	-33.8	13.1	3.72e-04	0	43	0	1022361600	20	5394
2026-01-28 01:01:11.68	224.51	24.28	-30.3	-34.0	13.0	4.34e-05	0	43	0	1024458752	20	5457
2026-01-28 01:01:12.69	224.43	24.13	-30.4	-34.1	12.9	3.81e-05	0	43	0	1026555904	20	5509
2026-01-28 01:01:13.69	224.34	23.98	-30.5	-33.9	12.6	6.71e-05	0	43	0	1028653056	21	5336
2026-01-28 01:01:14.69	224.26	23.83	-30.5	-34.0	12.6	1.04e-04	0	43	0	1030750208	21	5367
2026-01-28 01:01:15.68	224.18	23.69	-30.6	-34.1	12.6	7.01e-05	0	43	0	1031798784	21	5403
2026-01-28 01:01:16.68	224.10	23.54	-30.5	-33.9	12.7	1.23e-04	0	43	0	1033895936	21	5331
2026-01-28 01:01:17.69	224.02	23.40	-30.4	-33.6	12.9	5.18e-05	0	43	0	1035993088	21	5221
2026-01-28 01:01:18.68	223.94	23.26	-30.3	-33.9	13.0	4.57e-05	0	43	0	1038090240	20	5441
2026-01-28 01:01:19.69	223.86	23.11	-30.3	-33.9	13.0	3.28e-05	0	43	0	1040187392	20	5426
2026-01-28 01:01:20.69	223.78	22.97	-30.4	-34.2	12.8	3.43e-05	0	43	0	1041235968	20	5569
2026-01-28 01:01:21.69	223.70	22.83	-30.3	-33.8	13.0	4.73e-05	0	43	0	1043333120	20	5385
2026-01-28 01:01:22.70	223.62	22.69	-30.1	-33.3	13.4	1.60e-05	0	43	0	1045430272	20	5211
2026-01-28 01:01:23.70	223.55	22.55	-30.1	-33.2	13.4	1.14e-05	0	43	0	1047527424	20	5165
2026-01-28 01:01:24.71	223.47	22.41	-30.1	-33.2	13.4	1.75e-05	0	43	0	1049624576	20	5164
2026-01-28 01:01:25.71	223.39	22.27	-30.1	-33.4	13.3	1.60e-05	0	43	0	1050673152	20	5253
2026-01-28 01:01:26.72	223.32	22.13	-30.0	-33.2	13.4	2.67e-05	0	43	0	1052770304	20	5212
2026-01-28 01:01:27.72	223.25	21.99	-28.6	-32.0	13.1	1.23e-03	0	43	0	1054867456	19	5286
2026-01-28 01:01:28.72	223.17	21.86	-30.0	-33.1	13.3	1.44e-05	0	43	0	1056964608	20	5133
2026-01-28 01:01:29.73	223.10	21.72	-30.1	-33.2	11.9	1.14e-05	0	43	0	1059061760	20	5178
2026-01-28 01:01:30.74	223.03	21.58	-30.1	-33.3	12.6	9.90e-06	0	43	0	1060110336	20	5216
2026-01-28 01:01:31.73	222.96	21.45	-30.2	-33.4	13.0	1.83e-05	0	43	0	1062207488	20	5258
2026-01-28 01:01:32.74	222.89	21.31	-30.1	-33.4	13.1	2.59e-05	0	43	0	1064304640	20	5249
2026-01-28 01:01:33.73	222.82	21.18	-30.2	-33.5	13.2	1.52e-05	0	43	0	1066401792	20	5259
2026-01-28 01:01:34.74	222.75	21.05	-30.3	-34.0	12.9	4.35e-04	0	43	0	1067450368	20	5479
2026-01-28 01:01:35.74	222.68	20.92	-30.3	-33.8	13.0	5.49e-05	0	43	0	1069547520	20	5399
2026-01-28 01:01:36.74	222.61	20.79	-30.2	-33.6	13.1	2.59e-05	0	43	0	1071644672	20	5336
2026-01-28 01:01:37.75	222.54	20.65	-30.1	-33.4	13.2	5.98e-04	0	43	0	1073741824	20	5232
2026-01-28 01:01:38.75	222.48	20.52	-30.1	-33.4	13.2	2.44e-05	0	43	0	1075838976	20	5247
2026-01-28 01:01:39.76	222.41	20.39	-30.3	-33.8	13.0	2.28e-05	0	43	0	1077936128	20	5407
2026-01-28 01:01:40.76	222.34	20.27	-30.1	-33.4	13.2	3.43e-05	0	43	0	1078984704	20	5252
2026-01-28 01:01:41.77	222.28	20.14	-30.1	-33.4	13.2	2.36e-03	0	43	0	1081081856	20	5241
2026-01-28 01:01:42.77	222.21	20.01	-30.1	-33.3	13.3	2.28e-05	0	43	0	1083179008	20	5191
2026-01-28 01:01:43.77	222.15	19.88	-30.0	-32.9	13.5	9.10e-06	0	43	0	1085276160	20	5065
2026-01-28 01:01:44.78	222.09	19.76	-30.0	-33.0	13.5	2.36e-03	0	43	0	1086324736	20	5094
2026-01-28 01:01:45.78	222.02	19.63	-29.9	-33.3	13.6	2.42e-03	0	43	0	1088421888	19	5315
2026-01-28 01:01:46.78	221.96	19.50	-30.0	-33.4	13.6	8.30e-06	0	43	0	1090519040	19	5342
2026-01-28 01:01:47.78	221.90	19.38	-29.9	-33.3	13.6	5.30e-06	0	43	0	1092616192	19	5324
2026-01-28 01:01:48.79	221.84	19.26	-29.8	-33.1	13.8	2.17e-03	0	43	0	1094713344	19	5231
2026-01-28 01:01:49.79	221.78	19.13	-29.8	-33.1	13.8	8.30e-06	0	43	0	1095761920	19	5219
2026-01-28 01:01:50.79	221.72	19.01	-30.0	-33.5	13.5	7.60e-06	0	43	0	1097859072	19	5393
2026-01-28 01:01:51.80	221.66	18.89	-30.0	-33.4	13.5	1.87e-03	0	43	0	1099956224	19	5377
2026-01-28 01:01:52.80	221.60	18.77	-30.0	-33.0	13.4	2.24e-04	0	43	0	1102053376	20	5107
2026-01-28 01:01:53.80	221.54	18.64	-30.2	-33.6	13.0	2.51e-05	0	43	0	1104150528	20	5341
2026-01-28 01:01:54.80	221.48	18.52	-30.2	-33.5	13.1	1.47e-03	0	43	0	1105199104	20	5304
2026-01-28 01:01:55.81	221.42	18.40	-30.1	-33.4	13.1	3.66e-04	0	43	0	1107296256	20	5267
2026-01-28 01:01:56.81	221.37	18.28	-30.2	-33.6	13.0	1.29e-03	0	43	0	1109393408	20	5323
2026-01-28 01:01:57.81	221.31	18.17	-30.2	-33.6	13.0	3.35e-05	0	43	0	1111490560	20	5335
2026-01-28 01:01:58.81	221.25	18.05	-30.3	-34.0	12.7	4.14e-04	0	43	0	1113587712	20	5493
2026-01-28 01:01:59.82	221.20	17.93	-30.3	-33.8	12.8	1.59e-03	0	43	0	1114636288	20	5420
2026-01-28 01:02:00.82	221.14	17.81	-30.2	-33.7	12.9	4.95e-05	0	43	0	1116733440	20	5369
2026-01-28 01:02:01.82	221.09	17.69	-30.2	-33.7	12.9	4.01e-04	0	43	0	1118830592	20	5394
2026-01-28 01:02:02.82	221.03	17.58	-30.2	-33.6	13.0	1.87e-03	0	43	0	1120927744	20	5324
2026-01-28 01:02:03.82	220.98	17.46	-30.1	-33.3	13.1	1.72e-03	0	43	0	1123024896	20	5224
2026-01-28 01:02:04.82	220.92	17.35	-30.1	-33.3	13.1	2.74e-05	0	43	0	1124073472	20	5219
2026-01-28 01:02:05.82	220.87	17.23	-30.1	-33.3	13.1	1.99e-03	0	43	0	1126170624	20	5221
2026-01-28 01:02:06.83	220.82	17.12	-30.0	-33.2	13.2	2.00e-03	0	43	0	1128267776	20	5183
2026-01-28 01:02:07.83	220.76	17.01	-30.1	-33.4	13.0	2.53e-04	0	43	0	1130364928	20	5279
2026-01-28 01:02:08.83	220.71	16.89	-30.2	-33.6	12.9	2.38e-03	0	43	0	1131413504	20	5330
2026-01-28 01:02:09.83	220.66	16.78	-30.1	-33.5	12.9	2.06e-03	0	43	0	1133510656	20	5319
2026-01-28 01:02:10.84	220.61	16.67	-30.2	-33.7	12.8	2.68e-04	0	43	0	1135607808	20	5407
2026-01-28 01:02:11.84	220.56	16.56	-30.2	-33.8	12.7	8.92e-05	0	43	0	1137704960	20	5434
2026-01-28 01:02:12.85	220.51	16.44	-30.3	-33.9	12.6	2.39e-03	0	43	0	1139802112	20	5485
2026-01-28 01:02:13.85	220.46	16.33	-30.3	-34.0	12.6	4.91e-04	0	43	0	1140850688	20	5498
2026-01-28 01:02:14.85	220.41	16.22	-30.3	-34.1	12.5	2.36e-03	0	43	0	1142947840	20	5580
2026-01-28 01:02:15.86	220.36	16.11	-30.3	-34.0	12.6	2.32e-03	0	43	0	1145044992	20	5513
2026-01-28 01:02:16.87	220.31	16.00	-30.3	-34.0	12.6	5.07e-04	0	43	0	1147142144	20	5510
2026-01-28 01:02:17.87	220.26	15.89	-30.3	-34.2	12.4	2.27e-03	0	43	0	1149239296	20	5594
2026-01-28 01:02:18.88	220.21	15.78	-30.3	-34.1	12.5	1.40e-04	0	43	0	1150287872	20	5552
2026-01-28 01:02:19.88	220.16	15.68	-30.3	-34.2	12.4	5.79e-04	0	43	0	1152385024	20	5603
2026-01-28 01:02:20.89	220.12	15.57	-30.4	-34.2	12.4	2.45e-03	0	43	0	1154482176	20	5621
2026-01-28 01:02:21.89	220.07	15.46	-30.3	-34.1	12.5	2.19e-03	0	43	0	1156579328	20	5553
2026-01-28 01:02:22.89	220.02	15.35	-30.3	-34.2	12.4	5.98e-04	0	43	0	1158676480	20	5599
2026-01-28 01:02:23.89	219.98	15.25	-30.3	-34.2	12.4	2.33e-03	0	43	0	1159725056	20	5617
2026-01-28 01:02:24.89	219.93	15.14	-30.3	-33.9	12.5	1.89e-03	0	43	0	1161822208	20	5493
2026-01-28 01:02:25.90	219.89	15.04	-30.3	-34.1	12.4	3.94e-04	0	43	0	1163919360	20	5583
2026-01-28 01:02:26.89	219.84	14.93	-30.3	-34.0	12.5	2.13e-03	0	43	0	1166016512	20	5513
2026-01-28 01:02:27.90	219.80	14.83	-30.3	-34.1	12.4	1.78e-03	0	43	0	1168113664	20	5554
2026-01-28 01:02:28.90	219.75	14.72	-30.3	-34.2	12.3	3.97e-04	0	43	0	1169162240	20	5628
2026-01-28 01:02:29.91	219.71	14.62	-30.3	-34.1	12.4	3.62e-04	0	43	0	1171259392	20	5554
2026-01-28 01:02:30.91	219.66	14.52	-30.3	-34.0	12.5	1.85e-03	0	43	0	1173356544	20	5508
2026-01-28 01:02:31.91	219.62	14.41	-30.2	-33.9	12.5	4.04e-04	0	43	0	1175453696	20	5491
2026-01-28 01:02:32.91	219.58	14.31	-30.3	-34.2	12.3	3.47e-04	0	43	0	1177550848	20	5637
2026-01-28 01:02:33.92	219.53	14.21	-30.4	-34.4	12.2	1.84e-03	0	43	0	1178599424	20	5696
2026-01-28 01:02:34.92	219.49	14.11	-30.4	-34.3	12.2	3.95e-04	0	43	0	1180696576	20	5639
2026-01-28 01:02:35.92	219.45	14.01	-30.4	-34.3	12.2	3.74e-04	0	43	0	1182793728	20	5639
2026-01-28 01:02:36.93	219.40	13.91	-30.4	-34.4	12.1	2.10e-04	0	43	0	1184890880	20	5705
2026-01-28 01:02:37.93	219.36	13.81	-30.4	-34.3	12.2	4.28e-04	0	43	0	1185939456	20	5669
2026-01-28 01:02:38.93	219.32	13.71	-30.3	-34.2	12.2	1.76e-03	0	43	0	1188036608	20	5640
2026-01-28 01:02:39.94	219.28	13.61	-30.4	-34.4	12.1	2.40e-04	0	43	0	1190133760	20	5728
2026-01-28 01:02:40.93	219.24	13.51	-30.3	-34.3	12.2	3.73e-04	0	43	0	1192230912	20	5666
2026-01-28 01:02:41.94	219.20	13.41	-30.3	-34.1	12.3	1.64e-03	0	43	0	1194328064	20	5584
2026-01-28 01:02:42.94	219.16	13.31	-30.3	-34.2	12.3	1.61e-04	0	43	0	1195376640	20	5612
2026-01-28 01:02:43.94	219.12	13.21	-30.3	-34.1	12.3	3.14e-04	0	43	0	1197473792	20	5589
2026-01-28 01:02:44.94	219.08	13.12	-30.3	-34.2	12.2	1.52e-03	0	43	0	1199570944	20	5611
2026-01-28 01:02:45.95	219.04	13.02	-30.3	-34.3	12.1	2.43e-04	0	43	0	1201668096	20	5682
2026-01-28 01:02:46.95	219.00	12.92	-30.4	-34.4	12.1	4.18e-04	0	43	0	1203765248	20	5697
2026-01-28 01:02:47.95	218.96	12.83	-30.4	-34.3	12.1	4.02e-04	0	43	0	1204813824	20	5691
2026-01-28 01:02:48.96	218.92	12.73	-30.4	-34.6	11.9	1.28e-03	0	43	0	1206910976	20	5794
2026-01-28 01:02:49.96	218.88	12.63	-30.4	-34.4	12.0	3.13e-04	0	43	0	1209008128	20	5741
2026-01-28 01:02:50.97	218.85	12.54	-30.4	-34.6	11.9	4.65e-04	0	43	0	1211105280	20	5811
2026-01-28 01:02:51.98	218.81	12.44	-30.4	-34.5	11.9	1.02e-03	0	43	0	1213202432	20	5788
2026-01-28 01:02:52.98	218.77	12.35	-30.5	-34.7	11.8	4.16e-04	0	43	0	1214251008	20	5870
2026-01-28 01:02:53.99	218.73	12.25	-30.6	-34.5	11.5	8.75e-04	0	43	0	1216348160	21	5685
2026-01-28 01:02:54.99	218.69	12.16	-30.7	-35.1	11.1	1.16e-03	0	43	0	1218445312	21	5959
2026-01-28 01:02:55.99	218.66	12.06	-30.7	-34.9	11.3	1.65e-03	0	43	0	1220542464	21	5851
2026-01-28 01:02:57.00	218.62	11.97	-30.8	-35.2	11.0	1.43e-03	0	43	0	1222639616	21	6022
2026-01-28 01:02:58.00	218.58	11.88	-30.6	-34.8	11.3	1.45e-03	0	43	0	1223688192	21	5806
2026-01-28 01:02:59.01	218.55	11.78	-30.7	-35.0	11.2	1.26e-03	0	43	0	1225785344	21	5886
2026-01-28 01:03:00.00	218.51	11.69	-30.7	-34.9	11.2	1.25e-03	0	43	0	1227882496	21	5838
2026-01-28 01:03:01.00	218.48	11.60	-30.6	-34.7	11.3	1.20e-03	0	43	0	1229979648	21	5795
2026-01-28 01:03:02.01	218.44	11.51	-30.6	-34.8	11.2	1.24e-03	0	43	0	1232076800	21	5827
2026-01-28 01:03:03.01	218.41	11.42	-30.7	-35.1	11.0	1.53e-03	0	43	0	1233125376	21	5949
2026-01-28 01:03:04.02	218.37	11.33	-30.7	-34.9	11.1	1.53e-03	0	43	0	1235222528	21	5882
2026-01-28 01:03:05.02	218.34	11.24	-30.7	-35.0	11.1	1.43e-03	0	43	0	1237319680	21	5909
2026-01-28 01:03:06.03	218.30	11.15	-30.6	-34.6	11.3	1.47e-03	0	43	0	1239416832	21	5738
2026-01-28 01:03:07.03	218.27	11.06	-30.5	-34.3	11.6	8.67e-04	0	43	0	1241513984	21	5616
2026-01-28 01:03:08.03	218.23	10.97	-30.5	-34.4	11.5	6.95e-04	0	43	0	1242562560	21	5625
2026-01-28 01:03:09.04	218.20	10.88	-30.6	-34.7	11.3	9.46e-04	0	43	0	1244659712	21	5778
2026-01-28 01:03:10.04	218.17	10.79	-30.5	-34.4	11.5	8.38e-04	0	43	0	1246756864	21	5650
2026-01-28 01:03:11.03	218.13	10.70	-30.5	-34.5	11.4	1.02e-03	0	43	0	1248854016	21	5713
2026-01-28 01:03:12.04	218.10	10.61	-30.6	-34.7	11.3	1.07e-03	0	43	0	1249902592	21	5772
2026-01-28 01:03:13.04	218.07	10.52	-30.5	-34.6	11.4	1.15e-03	0	43	0	1251999744	21	5724
2026-01-28 01:03:14.05	218.03	10.43	-30.6	-34.7	11.3	1.16e-03	0	43	0	1254096896	21	5759
2026-01-28 01:03:15.05	218.00	10.35	-30.6	-34.8	11.2	1.35e-03	0	43	0	1256194048	21	5819
2026-01-28 01:03:16.06	217.97	10.26	-30.6	-34.8	11.2	1.28e-03	0	43	0	1258291200	21	5823
2026-01-28 01:03:17.07	217.94	10.17	-30.6	-34.8	11.1	1.53e-03	0	43	0	1260388352	21	5854
2026-01-28 01:03:18.07	217.91	10.09	-30.6	-34.8	11.1	1.63e-03	0	43	0	1261436928	21	5835
2026-01-28 01:03:19.08	217.87	10.00	-30.7	-35.1	10.9	1.63e-03	0	43	0	1263534080	21	5969
2026-01-28 01:03:20.07	217.84	9.91	-30.7	-35.0	11.0	2.24e-03	0	43	0	1265631232	21	5947
2026-01-28 01:03:21.08	217.81	9.83	-30.7	-35.1	10.9	2.10e-03	0	43	0	1267728384	21	5960
2026-01-28 01:03:22.08	217.78	9.74	-30.8	-35.5	10.6	2.68e-03	0	43	0	1268776960	21	6180
2026-01-28 01:03:23.08	217.75	9.66	-30.8	-35.4	10.6	3.44e-03	0	43	0	1270874112	21	6157
2026-01-28 01:03:24.08	217.72	9.57	-30.7	-35.2	10.8	2.75e-03	0	43	0	1272971264	21	6035
2026-01-28 01:03:25.09	217.69	9.49	-30.8	-35.4	10.7	2.90e-03	0	43	0	1275068416	21	6148
2026-01-28 01:03:26.09	217.66	9.40	-30.8	-35.4	10.6	3.33e-03	0	43	0	1277165568	21	6161
2026-01-28 01:03:27.09	217.63	9.32	-30.8	-35.4	10.6	3.82e-03	0	43	0	1278214144	21	6151
2026-01-28 01:03:28.10	217.60	9.24	-30.8	-35.6	10.5	3.53e-03	0	43	0	1280311296	21	6220
2026-01-28 01:03:29.09	217.57	9.15	-30.8	-35.7	10.4	4.57e-03	0	43	0	1282408448	21	6283
2026-01-28 01:03:30.09	217.54	9.07	-30.9	-35.9	10.2	5.41e-03	0	43	0	1284505600	21	6415
2026-01-28 01:03:31.09	217.51	8.99	-30.9	-36.1	10.1	6.07e-03	0	43	0	1286602752	21	6491
