passes_logs/2026/01/28/R2M6_AANII_01/R2M6_AANII_01__20260128_134549_AQUA_rec.log

#Pass ID: 20260128_134549_AQUA
#Satellite: AQUA
#Configuration: AQUA
#almurnet v.1.7.20240730
#Start time: 2026-01-28 13:45:50

#Version: 2.2.20231116
#Station: R2M6_AANII_01
#Location: 30.233357 lon 59.946436 lat
#TLE: 1 27424U 02022A   26027.88561574  .00001798  00000+0  36942-3 0  9997
#TLE: 2 27424  98.4102 354.5311 0001840  63.5604 322.5877 14.61868111262779

#Time	Az	El	Level	Level2	SNR	BER	BlckErr	Temp	State	Recorded	gain1	gain2
2026-01-28 13:45:50.85	220.71	7.11	-31.2	-36.7	5.2	7.09e-01	0	41	0	0	24	6748
2026-01-28 13:45:51.85	220.83	7.17	-31.9	-38.7	5.0	7.11e-01	0	41	104	0	25	7954
2026-01-28 13:45:52.86	220.95	7.24	-32.0	-38.6	12.7	6.12e-01	0	41	0	0	25	7683
2026-01-28 13:45:53.87	221.08	7.30	-32.2	-39.5	12.0	6.14e-01	0	41	0	1572864	25	8332
2026-01-28 13:45:54.87	221.20	7.36	-32.0	-38.6	12.7	6.08e-01	0	41	0	3670016	25	7708
2026-01-28 13:45:55.88	221.33	7.42	-31.8	-37.7	13.5	6.08e-01	0	41	0	5242880	25	7055
2026-01-28 13:45:56.88	221.45	7.49	-31.6	-36.8	14.2	6.07e-01	0	41	0	7340032	25	6516
2026-01-28 13:45:57.88	221.58	7.55	-31.5	-36.3	14.6	6.07e-01	0	41	0	9437184	25	6259
2026-01-28 13:45:58.89	221.71	7.61	-31.5	-36.0	14.8	6.08e-01	0	41	0	11010048	25	6094
2026-01-28 13:45:59.90	221.84	7.68	-31.3	-36.1	15.2	6.07e-01	0	41	0	13107200	24	6217
2026-01-28 13:46:00.89	221.96	7.74	-31.4	-36.2	15.1	6.05e-01	0	41	0	14680064	24	6297
2026-01-28 13:46:01.89	222.09	7.80	-31.1	-35.3	15.8	6.06e-01	0	41	0	16777216	24	5804
2026-01-28 13:46:02.90	222.22	7.86	-30.8	-34.6	16.6	6.05e-01	0	41	0	18874368	23	5613
2026-01-28 13:46:03.91	222.35	7.93	-30.7	-34.4	16.8	6.07e-01	0	41	0	20447232	23	5507
2026-01-28 13:46:04.91	222.48	7.99	-30.6	-34.1	17.0	6.03e-01	0	41	0	22544384	23	5395
2026-01-28 13:46:05.92	222.62	8.05	-30.5	-33.8	17.2	6.06e-01	0	41	0	24117248	23	5269
2026-01-28 13:46:06.92	222.75	8.12	-30.6	-34.0	17.1	6.06e-01	0	41	0	26214400	23	5323
2026-01-28 13:46:07.93	222.88	8.18	-30.5	-33.8	17.2	6.08e-01	0	41	0	28311552	23	5262
2026-01-28 13:46:08.93	223.01	8.24	-30.7	-34.2	16.9	6.06e-01	0	41	0	29884416	23	5441
2026-01-28 13:46:09.93	223.15	8.31	-30.6	-34.0	17.1	6.07e-01	0	41	0	31981568	23	5343
2026-01-28 13:46:10.93	223.28	8.37	-30.4	-33.5	17.4	6.07e-01	0	41	0	33554432	23	5138
2026-01-28 13:46:11.94	223.42	8.43	-30.3	-33.6	17.7	6.05e-01	0	41	0	35651584	22	5264
2026-01-28 13:46:12.94	223.55	8.50	-30.3	-33.7	17.7	6.06e-01	0	41	0	37224448	22	5309
2026-01-28 13:46:13.95	223.69	8.56	-30.5	-34.1	17.5	6.06e-01	0	41	0	39321600	22	5456
2026-01-28 13:46:14.95	223.82	8.62	-30.5	-34.2	17.4	6.06e-01	0	41	0	41418752	22	5498
2026-01-28 13:46:15.95	223.96	8.69	-30.4	-34.0	17.5	6.04e-01	0	41	0	42991616	22	5448
2026-01-28 13:46:16.96	224.10	8.75	-30.5	-34.2	17.4	6.08e-01	0	41	0	45088768	22	5497
2026-01-28 13:46:17.96	224.24	8.82	-30.4	-34.0	17.5	6.08e-01	0	41	0	46661632	22	5407
2026-01-28 13:46:18.96	224.38	8.88	-30.4	-34.0	17.5	6.05e-01	0	41	0	48758784	22	5416
2026-01-28 13:46:19.96	224.52	8.94	-30.4	-33.8	17.6	6.07e-01	0	42	0	50855936	22	5340
2026-01-28 13:46:20.96	224.66	9.01	-30.4	-33.8	17.6	6.07e-01	0	41	0	52428800	22	5335
2026-01-28 13:46:21.97	224.80	9.07	-30.5	-34.1	17.4	6.06e-01	0	41	0	54525952	22	5463
2026-01-28 13:46:22.97	224.94	9.13	-30.4	-33.8	17.6	6.05e-01	0	41	0	56098816	22	5348
2026-01-28 13:46:23.98	225.08	9.20	-30.3	-33.6	17.8	6.07e-01	0	42	0	58195968	22	5250
2026-01-28 13:46:24.98	225.23	9.26	-30.2	-33.4	17.9	6.06e-01	0	41	0	59768832	22	5171
2026-01-28 13:46:25.99	225.37	9.33	-30.2	-33.2	18.1	6.06e-01	0	42	0	61865984	22	5087
2026-01-28 13:46:26.99	225.51	9.39	-30.2	-33.3	18.0	6.07e-01	0	42	0	63963136	22	5131
2026-01-28 13:46:28.00	225.66	9.46	-30.1	-33.1	18.1	6.07e-01	0	42	0	65536000	22	5070
2026-01-28 13:46:29.00	225.81	9.52	-30.3	-33.5	17.9	6.06e-01	0	42	0	67633152	22	5222
2026-01-28 13:46:30.00	225.95	9.58	-30.2	-33.4	18.0	6.05e-01	0	41	0	69206016	22	5161
2026-01-28 13:46:31.01	226.10	9.65	-30.3	-33.7	17.8	6.07e-01	0	42	0	71303168	22	5281
2026-01-28 13:46:32.01	226.25	9.71	-30.1	-32.9	18.3	6.06e-01	0	42	0	73400320	22	4992
2026-01-28 13:46:33.01	226.39	9.78	-30.0	-32.8	18.4	6.08e-01	0	42	0	74973184	22	4931
2026-01-28 13:46:34.02	226.54	9.84	-30.0	-32.8	18.4	6.06e-01	0	42	0	77070336	22	4939
2026-01-28 13:46:35.02	226.69	9.90	-30.0	-32.8	18.4	6.07e-01	0	42	0	78643200	22	4930
2026-01-28 13:46:36.03	226.85	9.97	-30.0	-32.7	18.5	6.04e-01	0	42	0	80740352	22	4908
2026-01-28 13:46:37.02	227.00	10.03	-30.1	-32.8	18.4	6.06e-01	0	42	0	82837504	22	4953
2026-01-28 13:46:38.03	227.15	10.10	-30.1	-32.9	18.3	6.07e-01	0	42	0	84410368	22	4980
2026-01-28 13:46:39.03	227.30	10.16	-30.0	-32.6	18.5	6.04e-01	0	42	0	86507520	22	4884
2026-01-28 13:46:40.04	227.45	10.23	-29.9	-32.5	18.6	6.08e-01	0	42	0	88080384	22	4836
2026-01-28 13:46:41.04	227.61	10.29	-30.0	-32.7	18.5	6.06e-01	0	42	0	90177536	22	4890
2026-01-28 13:46:42.04	227.76	10.36	-30.0	-32.6	18.5	6.06e-01	0	42	0	91750400	22	4887
2026-01-28 13:46:43.04	227.92	10.42	-30.1	-32.9	18.4	6.08e-01	0	42	0	93847552	22	4977
2026-01-28 13:46:44.05	228.07	10.48	-30.0	-32.6	18.6	6.06e-01	0	42	0	95944704	22	4871
2026-01-28 13:46:45.05	228.23	10.55	-29.9	-32.3	18.7	6.07e-01	0	42	0	97517568	22	4767
2026-01-28 13:46:46.06	228.39	10.61	-29.9	-32.8	18.7	6.07e-01	0	42	0	99614720	21	5040
2026-01-28 13:46:47.07	228.55	10.68	-29.7	-32.4	19.0	6.07e-01	0	42	0	101711872	21	4907
2026-01-28 13:46:48.07	228.71	10.74	-29.8	-32.6	18.9	6.04e-01	0	42	0	103284736	21	4956
2026-01-28 13:46:49.07	228.87	10.81	-29.9	-32.9	18.7	6.05e-01	0	42	0	105381888	21	5091
2026-01-28 13:46:50.07	229.03	10.87	-30.0	-33.2	18.5	6.06e-01	0	42	0	106954752	21	5201
2026-01-28 13:46:51.07	229.19	10.94	-30.0	-33.2	18.5	6.07e-01	0	42	0	109051904	21	5186
2026-01-28 13:46:52.08	229.35	11.00	-30.1	-33.4	18.4	6.07e-01	0	42	0	110624768	21	5256
2026-01-28 13:46:53.08	229.51	11.07	-30.0	-33.1	18.6	6.06e-01	0	42	0	112721920	21	5159
2026-01-28 13:46:54.08	229.68	11.13	-30.0	-33.1	18.6	6.06e-01	0	42	0	114819072	21	5139
2026-01-28 13:46:55.08	229.84	11.19	-30.0	-33.1	18.6	6.05e-01	0	42	0	116391936	21	5139
2026-01-28 13:46:56.09	230.01	11.26	-29.9	-32.9	18.7	6.05e-01	0	42	0	118489088	21	5087
2026-01-28 13:46:57.09	230.17	11.32	-30.1	-33.4	18.4	6.07e-01	0	42	0	120061952	21	5271
2026-01-28 13:46:58.09	230.34	11.39	-30.0	-33.0	18.7	6.06e-01	0	42	0	122159104	21	5122
2026-01-28 13:46:59.09	230.50	11.45	-29.9	-32.8	18.8	6.08e-01	0	42	0	123731968	21	5026
2026-01-28 13:47:00.10	230.67	11.52	-29.8	-32.5	19.0	6.06e-01	0	42	0	125829120	21	4907
2026-01-28 13:47:01.10	230.84	11.58	-29.8	-32.5	19.0	6.06e-01	0	42	0	127926272	21	4939
2026-01-28 13:47:02.10	231.01	11.65	-29.7	-32.4	19.0	6.08e-01	0	42	0	129499136	21	4885
2026-01-28 13:47:03.11	231.18	11.71	-29.8	-32.5	19.0	6.04e-01	0	42	0	131596288	21	4915
2026-01-28 13:47:04.11	231.35	11.77	-29.7	-32.3	19.1	6.05e-01	0	42	0	133169152	21	4856
2026-01-28 13:47:05.12	231.53	11.84	-29.7	-32.4	19.0	6.05e-01	0	42	0	135266304	21	4876
2026-01-28 13:47:06.12	231.70	11.90	-29.8	-32.4	19.1	6.07e-01	0	42	0	137363456	21	4882
2026-01-28 13:47:07.12	231.87	11.97	-29.8	-32.5	18.9	6.08e-01	0	42	0	138936320	21	4904
2026-01-28 13:47:08.12	232.05	12.03	-29.7	-32.4	19.0	6.07e-01	0	42	0	141033472	21	4863
2026-01-28 13:47:09.12	232.22	12.09	-29.8	-32.5	19.0	6.05e-01	0	42	0	142606336	21	4918
2026-01-28 13:47:10.13	232.40	12.16	-29.8	-32.5	19.0	6.06e-01	0	42	0	144703488	21	4922
2026-01-28 13:47:11.13	232.57	12.22	-29.8	-32.6	18.9	6.05e-01	0	42	0	146800640	21	4963
2026-01-28 13:47:12.14	232.75	12.29	-29.7	-32.3	19.1	6.06e-01	0	42	0	148373504	21	4833
2026-01-28 13:47:13.14	232.93	12.35	-29.8	-32.4	19.0	6.06e-01	0	42	0	150470656	21	4863
2026-01-28 13:47:14.14	233.11	12.42	-29.7	-32.2	19.2	6.04e-01	0	42	0	152043520	21	4793
2026-01-28 13:47:15.15	233.29	12.48	-29.9	-32.6	19.0	6.07e-01	0	42	0	154140672	21	4959
2026-01-28 13:47:16.15	233.47	12.54	-29.8	-32.5	19.1	6.07e-01	0	42	0	155713536	21	4904
2026-01-28 13:47:17.15	233.65	12.61	-29.8	-32.5	19.1	6.05e-01	0	42	0	157810688	21	4898
2026-01-28 13:47:18.16	233.84	12.67	-29.7	-32.3	19.1	6.06e-01	0	42	0	159907840	21	4841
2026-01-28 13:47:19.16	234.02	12.73	-29.8	-32.5	19.0	6.07e-01	0	42	0	161480704	21	4912
2026-01-28 13:47:20.16	234.20	12.80	-29.9	-32.6	18.9	6.07e-01	0	42	0	163577856	21	4958
2026-01-28 13:47:21.17	234.39	12.86	-30.1	-33.3	18.5	6.06e-01	0	42	0	165150720	21	5201
2026-01-28 13:47:22.18	234.58	12.92	-29.9	-32.8	18.9	6.05e-01	0	42	0	167247872	21	5004
2026-01-28 13:47:23.19	234.76	12.99	-30.0	-32.9	18.8	6.05e-01	0	42	0	169345024	21	5064
2026-01-28 13:47:24.19	234.95	13.05	-30.0	-32.9	18.8	6.08e-01	0	42	0	170917888	21	5058
2026-01-28 13:47:25.19	235.14	13.11	-29.9	-32.7	18.9	6.06e-01	0	42	0	173015040	21	4982
2026-01-28 13:47:26.19	235.33	13.18	-29.9	-32.7	19.0	6.05e-01	0	43	0	174587904	21	4971
2026-01-28 13:47:27.19	235.52	13.24	-29.8	-32.5	19.2	6.07e-01	0	42	0	176685056	21	4890
2026-01-28 13:47:28.20	235.71	13.30	-29.9	-32.6	19.0	6.05e-01	0	43	0	178782208	21	4953
2026-01-28 13:47:29.20	235.90	13.37	-30.0	-33.1	18.8	6.06e-01	0	42	0	180355072	21	5120
2026-01-28 13:47:30.20	236.09	13.43	-30.2	-33.6	18.4	6.06e-01	0	42	0	182452224	21	5328
2026-01-28 13:47:31.21	236.29	13.49	-30.0	-33.0	18.8	6.07e-01	0	42	0	184025088	21	5084
2026-01-28 13:47:32.22	236.48	13.55	-29.9	-32.7	19.1	6.07e-01	0	43	0	186122240	21	4973
2026-01-28 13:47:33.22	236.68	13.62	-29.7	-32.3	19.3	6.07e-01	0	43	0	188219392	21	4836
2026-01-28 13:47:34.22	236.87	13.68	-29.6	-32.1	19.4	6.05e-01	0	43	0	189792256	21	4754
2026-01-28 13:47:35.23	237.07	13.74	-29.7	-32.1	19.5	6.07e-01	0	43	0	191889408	21	4754
2026-01-28 13:47:36.23	237.27	13.80	-29.7	-32.1	19.4	6.05e-01	0	43	0	193462272	21	4752
2026-01-28 13:47:37.23	237.46	13.86	-29.6	-31.9	19.5	6.04e-01	0	43	0	195559424	21	4708
2026-01-28 13:47:38.24	237.67	13.93	-29.6	-31.9	19.5	6.05e-01	0	43	0	197132288	21	4704
2026-01-28 13:47:39.24	237.87	13.99	-29.7	-32.1	19.5	6.06e-01	0	43	0	199229440	21	4773
2026-01-28 13:47:40.25	238.07	14.05	-29.6	-31.9	19.6	6.03e-01	0	43	0	201326592	21	4696
2026-01-28 13:47:41.25	238.27	14.11	-29.6	-31.8	19.6	6.06e-01	0	42	0	202899456	21	4666
2026-01-28 13:47:42.26	238.47	14.17	-29.7	-32.1	19.5	6.05e-01	0	43	0	204996608	21	4736
2026-01-28 13:47:43.26	238.68	14.23	-29.8	-32.3	19.4	6.07e-01	0	43	0	207093760	21	4821
2026-01-28 13:47:44.26	238.88	14.29	-29.7	-32.2	19.4	6.05e-01	0	42	0	208666624	21	4798
2026-01-28 13:47:45.25	239.08	14.35	-29.8	-32.4	19.3	6.04e-01	0	43	0	210763776	21	4854
2026-01-28 13:47:46.25	239.29	14.41	-29.8	-32.5	19.2	6.05e-01	0	43	0	212336640	21	4905
2026-01-28 13:47:47.25	239.50	14.47	-29.9	-32.6	19.2	6.06e-01	0	42	0	214433792	21	4926
2026-01-28 13:47:48.25	239.70	14.53	-30.0	-33.0	19.0	6.07e-01	0	43	0	216006656	21	5062
2026-01-28 13:47:49.26	239.91	14.60	-30.0	-32.8	19.0	6.06e-01	0	43	0	218103808	21	5017
2026-01-28 13:47:50.26	240.12	14.65	-30.0	-33.0	18.9	6.07e-01	0	43	0	220200960	21	5075
2026-01-28 13:47:51.26	240.33	14.71	-29.8	-32.3	19.4	6.08e-01	0	43	0	221773824	21	4819
2026-01-28 13:47:52.27	240.55	14.77	-29.6	-31.8	19.7	6.07e-01	0	43	0	223870976	21	4642
2026-01-28 13:47:53.27	240.76	14.83	-29.5	-31.7	19.7	6.07e-01	0	43	0	225443840	21	4617
2026-01-28 13:47:54.27	240.97	14.89	-29.6	-31.8	19.7	6.06e-01	0	43	0	227540992	21	4649
2026-01-28 13:47:55.27	241.18	14.95	-29.6	-31.9	19.6	6.05e-01	0	43	0	229113856	21	4691
2026-01-28 13:47:56.27	241.40	15.01	-29.5	-31.7	19.7	6.07e-01	0	42	0	231211008	21	4621
2026-01-28 13:47:57.28	241.62	15.07	-29.5	-31.6	19.8	6.06e-01	0	43	0	233308160	21	4580
2026-01-28 13:47:58.27	241.83	15.13	-29.5	-31.7	19.8	6.05e-01	0	43	0	234881024	21	4618
2026-01-28 13:47:59.28	242.05	15.18	-29.5	-31.5	19.9	6.06e-01	0	43	0	236978176	21	4544
2026-01-28 13:48:00.28	242.27	15.24	-29.5	-31.5	19.9	6.06e-01	0	43	0	238551040	21	4562
2026-01-28 13:48:01.29	242.49	15.30	-29.5	-31.7	19.8	6.03e-01	0	43	0	240648192	21	4620
2026-01-28 13:48:02.29	242.71	15.36	-29.5	-31.6	19.8	6.06e-01	0	43	0	242221056	21	4574
2026-01-28 13:48:03.29	242.93	15.41	-29.5	-31.6	19.8	6.08e-01	0	43	0	244318208	21	4588
2026-01-28 13:48:04.30	243.15	15.47	-29.5	-31.6	19.8	6.07e-01	0	43	0	246415360	21	4589
2026-01-28 13:48:05.30	243.37	15.53	-29.5	-31.6	19.8	6.06e-01	0	43	0	247988224	21	4586
2026-01-28 13:48:06.30	243.60	15.58	-29.4	-31.3	20.0	6.05e-01	0	43	0	250085376	21	4482
2026-01-28 13:48:07.31	243.82	15.64	-29.5	-31.7	19.8	6.05e-01	0	43	0	252182528	21	4612
2026-01-28 13:48:08.32	244.05	15.70	-29.6	-31.9	19.6	6.05e-01	0	43	0	253755392	21	4694
2026-01-28 13:48:09.33	244.28	15.75	-29.6	-31.9	19.7	6.07e-01	0	43	0	255852544	21	4674
2026-01-28 13:48:10.33	244.51	15.81	-29.5	-31.6	19.8	6.04e-01	0	43	0	257425408	21	4591
2026-01-28 13:48:11.33	244.73	15.86	-29.4	-31.4	19.9	6.06e-01	0	43	0	259522560	21	4513
2026-01-28 13:48:12.33	244.96	15.92	-29.5	-31.6	19.8	6.06e-01	0	43	0	261095424	21	4597
2026-01-28 13:48:13.33	245.19	15.97	-29.7	-32.0	19.6	6.07e-01	0	43	0	263192576	21	4702
2026-01-28 13:48:14.34	245.42	16.03	-29.6	-31.7	19.7	6.06e-01	0	43	0	265289728	21	4612
2026-01-28 13:48:15.34	245.65	16.08	-29.6	-31.8	19.7	6.05e-01	0	43	0	266862592	21	4659
2026-01-28 13:48:16.34	245.89	16.14	-29.5	-31.7	19.8	6.08e-01	0	43	0	268959744	21	4602
2026-01-28 13:48:17.34	246.12	16.19	-29.6	-31.8	19.7	6.04e-01	0	43	0	270532608	21	4642
2026-01-28 13:48:18.35	246.36	16.24	-29.7	-32.0	19.6	6.08e-01	0	43	0	272629760	21	4700
2026-01-28 13:48:19.35	246.59	16.30	-29.6	-31.9	19.7	6.06e-01	0	43	0	274202624	21	4686
2026-01-28 13:48:20.35	246.82	16.35	-29.7	-32.1	19.6	6.06e-01	0	43	0	276299776	21	4735
2026-01-28 13:48:21.36	247.06	16.40	-29.6	-31.9	19.7	6.07e-01	0	43	0	278396928	21	4688
2026-01-28 13:48:22.36	247.30	16.45	-29.6	-31.8	19.7	6.04e-01	0	43	0	279969792	21	4652
2026-01-28 13:48:23.36	247.54	16.50	-29.5	-31.6	19.9	6.05e-01	0	43	0	282066944	21	4567
2026-01-28 13:48:24.36	247.78	16.55	-29.7	-32.1	19.6	6.09e-01	0	43	0	283639808	21	4725
2026-01-28 13:48:25.37	248.02	16.61	-29.8	-32.2	19.5	6.07e-01	0	43	0	285736960	21	4786
2026-01-28 13:48:26.37	248.26	16.66	-29.6	-31.9	19.7	6.06e-01	0	43	0	287834112	21	4656
2026-01-28 13:48:27.38	248.50	16.71	-29.6	-31.8	19.8	6.06e-01	0	43	0	289406976	21	4639
2026-01-28 13:48:28.38	248.74	16.76	-29.6	-31.9	19.7	6.07e-01	0	43	0	291504128	21	4659
2026-01-28 13:48:29.39	248.99	16.81	-29.6	-31.7	19.9	6.04e-01	0	43	0	293076992	21	4603
2026-01-28 13:48:30.39	249.23	16.85	-29.6	-31.8	19.8	6.07e-01	0	43	0	295174144	21	4625
2026-01-28 13:48:31.40	249.48	16.90	-29.6	-31.9	19.8	6.07e-01	0	43	0	297271296	21	4659
2026-01-28 13:48:32.41	249.73	16.95	-29.6	-31.9	19.7	6.06e-01	0	43	0	298844160	21	4676
2026-01-28 13:48:33.41	249.97	17.00	-29.6	-31.7	19.9	6.06e-01	0	43	0	300941312	21	4603
2026-01-28 13:48:34.41	250.22	17.05	-29.5	-31.6	19.9	6.07e-01	0	43	0	302514176	21	4580
2026-01-28 13:48:35.41	250.47	17.09	-29.5	-31.6	19.9	6.03e-01	0	43	0	304611328	21	4583
2026-01-28 13:48:36.41	250.72	17.14	-29.6	-31.8	19.8	6.03e-01	0	43	0	306708480	21	4645
2026-01-28 13:48:37.41	250.97	17.19	-29.6	-31.9	19.7	6.06e-01	0	43	0	308281344	21	4674
2026-01-28 13:48:38.42	251.22	17.23	-29.5	-31.6	19.9	6.06e-01	0	43	0	310378496	21	4579
2026-01-28 13:48:39.42	251.47	17.28	-29.6	-31.7	19.9	6.03e-01	0	43	0	311951360	21	4597
2026-01-28 13:48:40.42	251.72	17.32	-29.6	-31.7	19.9	6.06e-01	0	43	0	314048512	21	4612
2026-01-28 13:48:41.43	251.98	17.37	-29.7	-32.1	19.7	6.04e-01	0	43	0	315621376	21	4726
2026-01-28 13:48:42.43	252.23	17.41	-29.6	-31.8	19.8	6.05e-01	0	43	0	317718528	21	4648
2026-01-28 13:48:43.44	252.49	17.46	-29.8	-32.2	19.6	6.05e-01	0	43	0	319815680	21	4757
2026-01-28 13:48:44.44	252.74	17.50	-29.9	-32.5	19.4	6.06e-01	0	43	0	321388544	21	4876
2026-01-28 13:48:45.44	253.00	17.54	-29.8	-32.3	19.5	6.08e-01	0	43	0	323485696	21	4792
2026-01-28 13:48:46.44	253.25	17.59	-29.7	-32.0	19.7	6.07e-01	0	43	0	325058560	21	4693
2026-01-28 13:48:47.44	253.51	17.63	-29.7	-32.0	19.6	6.06e-01	0	43	0	327155712	21	4713
2026-01-28 13:48:48.44	253.77	17.67	-29.7	-32.1	19.5	6.08e-01	0	43	0	328728576	21	4750
2026-01-28 13:48:49.45	254.03	17.71	-29.6	-31.9	19.6	6.04e-01	0	43	0	330825728	21	4678
2026-01-28 13:48:50.45	254.29	17.75	-29.6	-31.9	19.7	6.08e-01	0	43	0	332922880	21	4660
2026-01-28 13:48:51.45	254.55	17.79	-29.6	-31.9	19.7	6.07e-01	0	43	0	334495744	21	4659
2026-01-28 13:48:52.45	254.81	17.83	-29.7	-32.1	19.5	6.06e-01	0	43	0	336592896	21	4729
2026-01-28 13:48:53.46	255.07	17.87	-29.7	-32.1	19.6	6.05e-01	0	43	0	338690048	21	4721
2026-01-28 13:48:54.46	255.34	17.91	-29.7	-32.0	19.6	6.04e-01	0	43	0	340262912	21	4699
2026-01-28 13:48:55.46	255.60	17.95	-29.9	-32.4	19.4	6.05e-01	0	43	0	342360064	21	4844
2026-01-28 13:48:56.46	255.86	17.99	-30.0	-32.9	19.1	6.04e-01	0	43	0	343932928	21	5009
2026-01-28 13:48:57.46	256.13	18.02	-30.0	-32.9	19.1	6.07e-01	0	43	0	346030080	21	5000
2026-01-28 13:48:58.47	256.39	18.06	-29.9	-32.5	19.4	6.07e-01	0	43	0	347602944	21	4862
2026-01-28 13:48:59.48	256.66	18.10	-29.7	-32.0	19.7	6.06e-01	0	43	0	349700096	21	4704
2026-01-28 13:49:00.48	256.93	18.13	-29.7	-32.1	19.7	6.05e-01	0	43	0	351797248	21	4725
2026-01-28 13:49:01.48	257.19	18.17	-29.7	-32.0	19.8	6.04e-01	0	43	0	353370112	21	4690
2026-01-28 13:49:02.49	257.46	18.20	-29.8	-32.2	19.6	6.04e-01	0	43	0	355467264	21	4758
2026-01-28 13:49:03.49	257.73	18.24	-29.7	-32.0	19.7	6.06e-01	0	43	0	357040128	21	4703
2026-01-28 13:49:04.49	258.00	18.27	-29.8	-32.3	19.6	6.05e-01	0	43	0	359137280	21	4801
2026-01-28 13:49:05.50	258.27	18.30	-29.9	-32.5	19.4	6.05e-01	0	43	0	360710144	21	4861
2026-01-28 13:49:06.50	258.54	18.33	-29.8	-32.2	19.6	6.06e-01	0	43	0	362807296	21	4759
2026-01-28 13:49:07.51	258.81	18.37	-29.7	-32.0	19.7	6.07e-01	0	43	0	364904448	21	4714
2026-01-28 13:49:08.52	259.09	18.40	-29.7	-32.0	19.7	6.06e-01	0	43	0	366477312	21	4704
2026-01-28 13:49:09.52	259.36	18.43	-29.8	-32.3	19.6	6.07e-01	0	43	0	368574464	21	4792
2026-01-28 13:49:10.52	259.63	18.46	-29.9	-32.5	19.4	6.07e-01	0	43	0	370671616	21	4878
2026-01-28 13:49:11.53	259.91	18.49	-29.7	-32.0	19.7	6.06e-01	0	43	0	372244480	21	4705
2026-01-28 13:49:12.53	260.18	18.52	-29.6	-31.8	19.8	6.06e-01	0	43	0	374341632	21	4648
2026-01-28 13:49:13.53	260.45	18.55	-29.7	-31.9	19.7	6.06e-01	0	43	0	375914496	21	4681
2026-01-28 13:49:14.54	260.73	18.58	-29.8	-32.2	19.6	6.04e-01	0	43	0	378011648	21	4759
2026-01-28 13:49:15.54	261.00	18.60	-29.6	-31.9	19.8	6.07e-01	0	43	0	379584512	21	4666
2026-01-28 13:49:16.55	261.28	18.63	-29.6	-31.7	19.9	6.06e-01	0	43	0	381681664	21	4614
2026-01-28 13:49:17.55	261.56	18.66	-29.7	-31.9	19.7	6.07e-01	0	43	0	383778816	21	4672
2026-01-28 13:49:18.56	261.84	18.68	-29.8	-32.2	19.5	6.06e-01	0	43	0	385351680	21	4775
2026-01-28 13:49:19.57	262.12	18.71	-30.0	-32.7	19.3	6.06e-01	0	43	0	387448832	21	4947
2026-01-28 13:49:20.57	262.39	18.73	-29.9	-32.4	19.4	6.07e-01	0	43	0	389021696	21	4852
2026-01-28 13:49:21.57	262.67	18.75	-29.7	-32.0	19.7	6.08e-01	0	43	0	391118848	21	4702
2026-01-28 13:49:22.58	262.95	18.78	-29.7	-32.1	19.7	6.05e-01	0	43	0	393216000	21	4727
2026-01-28 13:49:23.58	263.23	18.80	-29.7	-32.0	19.7	6.05e-01	0	43	0	394788864	21	4699
2026-01-28 13:49:24.59	263.51	18.82	-29.7	-31.9	19.8	6.07e-01	0	43	0	396886016	21	4665
2026-01-28 13:49:25.59	263.79	18.84	-29.8	-32.2	19.7	6.08e-01	0	43	0	398458880	21	4759
2026-01-28 13:49:26.59	264.07	18.86	-29.8	-32.2	19.6	6.06e-01	0	43	0	400556032	21	4774
2026-01-28 13:49:27.59	264.35	18.88	-29.8	-32.2	19.6	6.06e-01	0	43	0	402653184	21	4761
2026-01-28 13:49:28.59	264.63	18.90	-29.8	-32.1	19.7	6.04e-01	0	43	0	404226048	21	4742
2026-01-28 13:49:29.59	264.91	18.92	-29.7	-32.0	19.7	6.06e-01	0	43	0	406323200	21	4704
2026-01-28 13:49:30.60	265.19	18.94	-29.7	-31.9	19.8	6.08e-01	0	43	0	407896064	21	4671
2026-01-28 13:49:31.60	265.48	18.96	-29.7	-32.1	19.7	6.06e-01	0	43	0	409993216	21	4725
2026-01-28 13:49:32.61	265.76	18.98	-29.7	-32.1	19.7	6.06e-01	0	43	0	412090368	21	4721
2026-01-28 13:49:33.62	266.05	18.99	-29.7	-31.9	19.8	6.07e-01	0	43	0	413663232	21	4652
2026-01-28 13:49:34.62	266.33	19.01	-29.8	-32.3	19.6	6.07e-01	0	43	0	415760384	21	4792
2026-01-28 13:49:35.62	266.61	19.02	-29.9	-32.5	19.4	6.04e-01	0	43	0	417333248	21	4876
2026-01-28 13:49:36.62	266.89	19.04	-29.8	-32.3	19.6	6.06e-01	0	43	0	419430400	21	4779
2026-01-28 13:49:37.63	267.18	19.05	-30.0	-32.7	19.4	6.07e-01	0	43	0	421003264	21	4921
2026-01-28 13:49:38.63	267.46	19.06	-29.9	-32.6	19.4	6.07e-01	0	43	0	423100416	21	4889
2026-01-28 13:49:39.63	267.75	19.08	-29.9	-32.4	19.5	6.06e-01	0	43	0	425197568	21	4807
2026-01-28 13:49:40.64	268.03	19.09	-29.8	-32.1	19.7	6.04e-01	0	43	0	426770432	21	4727
2026-01-28 13:49:41.64	268.32	19.10	-29.8	-32.3	19.6	6.05e-01	0	43	0	428867584	21	4775
2026-01-28 13:49:42.64	268.60	19.11	-29.8	-32.3	19.6	6.07e-01	0	43	0	430440448	21	4774
2026-01-28 13:49:43.65	268.89	19.12	-29.8	-32.1	19.7	6.05e-01	0	43	0	432537600	21	4732
2026-01-28 13:49:44.66	269.17	19.13	-29.8	-32.3	19.6	6.04e-01	0	43	0	434634752	21	4773
2026-01-28 13:49:45.66	269.46	19.14	-29.8	-32.2	19.6	6.06e-01	0	43	0	436207616	21	4769
2026-01-28 13:49:46.66	269.74	19.14	-29.8	-32.2	19.7	6.07e-01	0	43	0	438304768	21	4735
2026-01-28 13:49:47.66	270.03	19.15	-29.8	-32.3	19.6	6.05e-01	0	43	0	439877632	21	4775
2026-01-28 13:49:48.67	270.32	19.16	-29.8	-32.3	19.6	6.05e-01	0	43	0	441974784	21	4778
2026-01-28 13:49:49.67	270.60	19.16	-29.9	-32.4	19.6	6.06e-01	0	43	0	444071936	21	4808
2026-01-28 13:49:50.67	270.89	19.17	-29.9	-32.4	19.6	6.06e-01	0	43	0	445644800	21	4808
2026-01-28 13:49:51.67	271.17	19.17	-29.8	-32.3	19.7	6.06e-01	0	43	0	447741952	21	4774
2026-01-28 13:49:52.68	271.46	19.18	-29.8	-32.3	19.7	6.07e-01	0	43	0	449314816	21	4769
2026-01-28 13:49:53.68	271.75	19.18	-29.8	-32.3	19.6	6.05e-01	0	43	0	451411968	21	4791
2026-01-28 13:49:54.68	272.03	19.18	-29.9	-32.6	19.4	6.05e-01	0	43	0	452984832	21	4899
2026-01-28 13:49:55.68	272.32	19.18	-29.9	-32.5	19.5	6.07e-01	0	43	0	455081984	21	4857
2026-01-28 13:49:56.69	272.61	19.18	-29.8	-32.1	19.7	6.07e-01	0	43	0	457179136	21	4721
2026-01-28 13:49:57.69	272.89	19.18	-29.8	-32.3	19.6	6.05e-01	0	43	0	458752000	21	4777
2026-01-28 13:49:58.69	273.18	19.18	-29.9	-32.4	19.6	6.06e-01	0	43	0	460849152	21	4811
2026-01-28 13:49:59.69	273.46	19.18	-29.9	-32.6	19.5	6.05e-01	0	43	0	462422016	21	4872
2026-01-28 13:50:00.69	273.75	19.18	-30.0	-32.7	19.4	6.03e-01	0	43	0	464519168	21	4914
2026-01-28 13:50:01.70	274.04	19.18	-30.2	-42.5	3.8	7.46e-01	0	43	104	465567744	21	14932
2026-01-28 13:50:02.70	274.32	19.17	-30.2	-42.6	3.8	7.43e-01	0	43	104	465567744	21	14985
2026-01-28 13:50:03.71	274.61	19.17	-30.4	-43.1	3.8	7.46e-01	0	43	104	465567744	21	15594
2026-01-28 13:50:04.71	274.90	19.17	-30.7	-43.4	3.8	7.44e-01	0	43	104	465567744	22	15536
2026-01-28 13:50:05.71	275.18	19.16	-31.1	-44.4	3.8	7.44e-01	0	43	104	465567744	22	16690
2026-01-28 13:50:06.72	275.47	19.16	-31.5	-45.3	3.8	7.45e-01	0	43	104	465567744	23	17534
2026-01-28 13:50:07.73	275.76	19.15	-31.9	-45.9	3.8	7.49e-01	0	43	104	465567744	24	18021
2026-01-28 13:50:08.73	276.04	19.14	-32.1	-46.3	3.8	7.47e-01	0	43	104	465567744	24	18586
2026-01-28 13:50:09.73	276.33	19.13	-32.2	-46.1	3.8	7.44e-01	0	43	104	465567744	25	17927
2026-01-28 13:50:10.73	276.61	19.13	-32.3	-46.4	3.8	7.47e-01	0	43	104	465567744	25	18460
2026-01-28 13:50:11.73	276.90	19.12	-32.4	-47.0	3.8	7.45e-01	0	43	104	465567744	25	19209
2026-01-28 13:50:12.74	277.18	19.11	-32.6	-47.2	3.8	7.43e-01	0	43	104	465567744	26	19256
2026-01-28 13:50:13.74	277.47	19.10	-32.8	-47.9	3.8	7.47e-01	0	43	104	465567744	26	20357
2026-01-28 13:50:14.75	277.75	19.08	-33.0	-48.6	3.8	7.45e-01	0	43	104	465567744	26	21664
2026-01-28 13:50:15.75	278.04	19.07	-33.2	-48.7	3.8	7.45e-01	0	43	104	465567744	27	21534
2026-01-28 13:50:16.76	278.32	19.06	-33.3	-49.1	3.8	7.45e-01	0	43	104	465567744	27	22406
2026-01-28 13:50:17.76	278.61	19.05	-33.4	-49.6	3.8	7.45e-01	0	43	104	465567744	27	23215
2026-01-28 13:50:18.76	278.89	19.03	-33.4	-49.7	3.8	7.43e-01	0	43	104	465567744	27	23594
2026-01-28 13:50:19.76	279.17	19.02	-33.4	-50.0	3.8	7.47e-01	0	43	104	465567744	27	24324
2026-01-28 13:50:20.76	279.45	19.00	-33.4	-49.9	3.8	7.46e-01	0	43	104	465567744	27	24001
2026-01-28 13:50:21.76	279.73	18.99	-33.4	-50.0	3.8	7.46e-01	0	43	104	465567744	27	24094
2026-01-28 13:50:22.76	280.02	18.97	-33.5	-50.1	3.8	7.43e-01	0	43	104	465567744	27	24340
2026-01-28 13:50:23.77	280.30	18.96	-33.5	-50.1	3.8	7.48e-01	0	43	104	465567744	27	24332
2026-01-28 13:50:24.78	280.58	18.94	-33.5	-50.0	3.8	7.44e-01	0	43	104	465567744	27	24217
2026-01-28 13:50:25.79	280.87	18.92	-33.4	-50.0	3.8	7.43e-01	0	43	104	465567744	27	24158
2026-01-28 13:50:26.79	281.15	18.90	-33.4	-49.9	3.8	7.43e-01	0	43	104	465567744	27	23940
2026-01-28 13:50:27.80	281.43	18.88	-33.4	-49.7	3.8	7.46e-01	0	43	104	465567744	27	23449
2026-01-28 13:50:28.81	281.71	18.86	-33.3	-49.4	3.8	7.43e-01	0	43	104	465567744	27	23054
2026-01-28 13:50:29.81	281.99	18.84	-33.2	-49.0	3.8	7.44e-01	0	43	104	465567744	27	22227
2026-01-28 13:50:30.82	282.27	18.82	-33.1	-48.4	3.8	7.44e-01	0	43	104	465567744	27	21071
2026-01-28 13:50:31.82	282.55	18.80	-32.9	-47.6	3.8	7.44e-01	0	43	104	465567744	27	19659
2026-01-28 13:50:32.83	282.83	18.77	-32.7	-46.9	3.8	7.44e-01	0	43	104	465567744	27	18378
2026-01-28 13:50:33.82	283.10	18.75	-32.4	-46.1	3.8	7.43e-01	0	43	104	465567744	27	17262
2026-01-28 13:50:34.82	283.38	18.73	-32.2	-45.8	3.8	7.47e-01	0	43	104	465567744	26	17117
2026-01-28 13:50:35.82	283.66	18.70	-32.0	-45.1	3.8	7.42e-01	0	43	104	465567744	26	16140
2026-01-28 13:50:36.83	283.94	18.68	-31.9	-44.9	3.8	7.46e-01	0	43	104	465567744	26	15990
2026-01-28 13:50:37.83	284.21	18.65	-31.8	-45.2	3.8	7.43e-01	0	43	104	465567744	25	16691
2026-01-28 13:50:38.84	284.49	18.63	-31.8	-45.1	3.8	7.44e-01	0	43	104	465567744	25	16556
2026-01-28 13:50:39.84	284.76	18.60	-31.4	-43.9	3.8	7.44e-01	0	43	104	465567744	25	15036
2026-01-28 13:50:40.85	285.04	18.57	-31.1	-43.3	3.8	7.46e-01	0	43	104	465567744	24	14746
2026-01-28 13:50:41.85	285.31	18.54	-30.7	-42.8	3.8	7.44e-01	0	43	104	465567744	23	14503
2026-01-28 13:50:42.85	285.59	18.52	-30.4	-42.1	3.8	7.44e-01	0	43	104	465567744	23	13831
2026-01-28 13:50:43.86	285.86	18.49	-30.2	-42.1	3.8	7.45e-01	0	43	104	465567744	22	14184
2026-01-28 13:50:44.86	286.13	18.46	-30.4	-42.4	3.8	7.44e-01	0	43	104	465567744	22	14345
2026-01-28 13:50:45.86	286.40	18.43	-30.6	-43.1	3.8	7.45e-01	0	43	104	465567744	22	15125
2026-01-28 13:50:46.86	286.67	18.40	-30.7	-43.3	3.8	7.45e-01	0	43	104	465567744	22	15402
2026-01-28 13:50:47.86	286.94	18.36	-30.8	-43.7	3.8	7.44e-01	0	43	104	465567744	22	15899
2026-01-28 13:50:48.86	287.21	18.33	-30.9	-43.8	3.8	7.42e-01	0	43	104	465567744	22	15953
2026-01-28 13:50:49.86	287.48	18.30	-30.8	-43.4	3.8	7.43e-01	0	43	104	465567744	22	15526
2026-01-28 13:50:50.87	287.75	18.27	-30.7	-43.3	3.8	7.45e-01	0	43	104	465567744	22	15323
2026-01-28 13:50:51.88	288.02	18.23	-30.7	-43.2	3.8	7.46e-01	0	43	104	465567744	22	15289
2026-01-28 13:50:52.88	288.29	18.20	-31.0	-44.2	3.8	7.47e-01	0	43	104	465567744	22	16521
2026-01-28 13:50:53.89	288.56	18.16	-31.4	-44.8	3.8	7.40e-01	0	43	104	465567744	23	16847
2026-01-28 13:50:54.89	288.83	18.13	-31.8	-45.4	3.8	7.49e-01	0	43	104	465567744	24	17307
2026-01-28 13:50:55.90	289.09	18.09	-32.2	-46.1	3.8	7.43e-01	0	43	104	465567744	25	17870
2026-01-28 13:50:56.90	289.36	18.06	-32.5	-47.3	3.8	7.44e-01	0	43	104	465567744	25	19707
2026-01-28 13:50:57.91	289.62	18.02	-32.8	-48.0	3.8	7.44e-01	0	43	104	465567744	26	20682
2026-01-28 13:50:58.91	289.89	17.98	-32.9	-48.2	3.8	7.45e-01	0	43	104	465567744	26	20926
2026-01-28 13:50:59.92	290.15	17.95	-32.9	-48.4	3.8	7.45e-01	0	43	104	465567744	26	21422
2026-01-28 13:51:00.93	290.42	17.91	-33.0	-48.5	3.8	7.45e-01	0	43	104	465567744	26	21475
2026-01-28 13:51:01.94	290.68	17.87	-33.1	-48.9	3.8	7.47e-01	0	43	104	465567744	26	22173
2026-01-28 13:51:02.94	290.94	17.83	-33.2	-49.0	3.8	7.43e-01	0	43	104	465567744	27	22165
2026-01-28 13:51:03.95	291.20	17.79	-33.2	-49.2	3.8	7.44e-01	0	43	104	465567744	27	22707
2026-01-28 13:51:04.95	291.46	17.75	-33.3	-49.5	3.8	7.45e-01	0	43	104	465567744	27	23110
2026-01-28 13:51:05.95	291.72	17.71	-33.4	-49.6	3.8	7.48e-01	0	43	104	465567744	27	23304
2026-01-28 13:51:06.96	291.98	17.67	-33.4	-49.7	3.8	7.43e-01	0	43	104	465567744	27	23487
2026-01-28 13:51:07.96	292.24	17.63	-33.4	-49.9	3.8	7.43e-01	0	43	104	465567744	27	24050
2026-01-28 13:51:08.96	292.49	17.58	-33.4	-49.8	3.8	7.43e-01	0	43	104	465567744	27	23937
2026-01-28 13:51:09.96	292.75	17.54	-33.3	-49.6	3.8	7.45e-01	0	43	104	465567744	27	23364
2026-01-28 13:51:10.95	293.00	17.50	-33.3	-49.5	3.8	7.46e-01	0	43	104	465567744	27	23157
2026-01-28 13:51:11.96	293.25	17.46	-33.4	-49.8	3.8	7.42e-01	0	43	104	465567744	27	23722
2026-01-28 13:51:12.97	293.51	17.41	-33.4	-50.1	3.8	7.43e-01	0	43	104	465567744	27	24434
2026-01-28 13:51:13.97	293.76	17.37	-33.5	-50.4	3.8	7.45e-01	0	43	104	465567744	27	25236
2026-01-28 13:51:14.97	294.01	17.32	-33.5	-50.2	3.8	7.46e-01	0	43	104	465567744	27	24727
2026-01-28 13:51:15.97	294.26	17.28	-33.4	-49.8	3.8	7.46e-01	0	43	104	465567744	27	23941
2026-01-28 13:51:16.98	294.52	17.23	-33.3	-49.4	3.8	7.49e-01	0	43	104	465567744	27	23049
2026-01-28 13:51:17.98	294.77	17.19	-33.2	-49.0	3.8	7.47e-01	0	43	104	465567744	27	22227
2026-01-28 13:51:18.99	295.02	17.14	-33.1	-48.7	3.8	7.42e-01	0	43	104	465567744	27	21638
2026-01-28 13:51:19.99	295.26	17.10	-33.0	-48.0	3.8	7.42e-01	0	43	104	465567744	27	20371
2026-01-28 13:51:21.00	295.51	17.05	-32.8	-47.4	3.8	7.45e-01	0	43	104	465567744	27	19273
2026-01-28 13:51:22.00	295.76	17.00	-32.6	-46.7	3.8	7.43e-01	0	43	104	465567744	27	18203
2026-01-28 13:51:23.01	296.01	16.95	-32.4	-46.1	3.8	7.45e-01	0	43	104	465567744	27	17365
2026-01-28 13:51:24.01	296.25	16.90	-32.1	-45.5	3.8	7.42e-01	0	43	104	465567744	26	16824
2026-01-28 13:51:25.01	296.49	16.86	-31.8	-45.0	3.8	7.45e-01	0	43	104	465567744	25	16473
2026-01-28 13:51:26.02	296.74	16.81	-31.6	-44.3	3.8	7.45e-01	0	43	104	465567744	25	15600
2026-01-28 13:51:27.02	296.98	16.76	-31.4	-44.0	3.8	7.45e-01	0	43	104	465567744	25	15311
2026-01-28 13:51:28.02	297.22	16.71	-31.3	-44.2	3.8	7.45e-01	0	43	104	465567744	24	15778
2026-01-28 13:51:29.03	297.46	16.66	-31.3	-44.0	3.8	7.47e-01	0	43	104	465567744	24	15587
2026-01-28 13:51:30.03	297.70	16.61	-31.0	-43.1	3.8	7.44e-01	0	43	104	465567744	24	14554
2026-01-28 13:51:31.04	297.94	16.56	-30.7	-42.9	3.8	7.44e-01	0	43	104	465567744	23	14616
2026-01-28 13:51:32.04	298.18	16.51	-30.4	-42.3	3.8	7.43e-01	0	43	104	465567744	23	14076
2026-01-28 13:51:33.04	298.42	16.46	-30.7	-43.0	3.8	7.45e-01	0	43	104	465567744	23	14821
2026-01-28 13:51:34.05	298.65	16.40	-31.0	-43.9	3.8	7.43e-01	0	43	104	465567744	23	15909
2026-01-28 13:51:35.05	298.89	16.35	-31.4	-45.0	3.8	7.41e-01	0	43	104	465567744	23	17154
2026-01-28 13:51:36.06	299.13	16.30	-31.8	-45.4	3.8	7.44e-01	0	43	104	465567744	24	17297
2026-01-28 13:51:37.06	299.36	16.25	-31.8	-45.4	3.8	7.47e-01	0	43	104	465567744	24	17297
2026-01-28 13:51:38.07	299.59	16.19	-31.8	-45.6	3.8	7.46e-01	0	43	104	465567744	24	17653
2026-01-28 13:51:39.07	299.83	16.14	-31.9	-45.9	3.8	7.43e-01	0	43	104	465567744	24	18135
2026-01-28 13:51:40.08	300.06	16.09	-31.8	-45.7	3.8	7.44e-01	0	43	104	465567744	24	17761
2026-01-28 13:51:41.09	300.29	16.03	-31.8	-45.6	3.8	7.46e-01	0	43	104	465567744	24	17664
2026-01-28 13:51:42.09	300.52	15.98	-31.8	-45.7	3.8	7.47e-01	0	43	104	465567744	24	17824
2026-01-28 13:51:43.10	300.75	15.92	-32.2	-46.4	3.8	7.44e-01	0	43	104	465567744	25	18433
2026-01-28 13:51:44.10	300.98	15.87	-32.5	-47.6	3.8	7.46e-01	0	43	104	465567744	25	20386
2026-01-28 13:51:45.11	301.21	15.82	-32.8	-48.1	3.8	7.47e-01	0	43	104	465567744	26	20989
2026-01-28 13:51:46.11	301.43	15.76	-33.0	-48.9	3.8	7.41e-01	0	43	104	465567744	26	22529
2026-01-28 13:51:47.12	301.66	15.70	-33.2	-49.1	3.8	7.47e-01	0	43	104	465567744	27	22501
2026-01-28 13:51:48.12	301.88	15.65	-33.3	-49.7	3.8	7.46e-01	0	43	104	465567744	27	23639
2026-01-28 13:51:49.13	302.11	15.59	-33.3	-49.5	3.8	7.46e-01	0	43	104	465567744	27	23302
2026-01-28 13:51:50.13	302.33	15.54	-33.2	-49.5	3.8	7.41e-01	0	43	104	465567744	27	23414
2026-01-28 13:51:51.13	302.55	15.48	-33.2	-49.5	3.8	7.45e-01	0	43	104	465567744	27	23499
2026-01-28 13:51:52.14	302.77	15.42	-33.2	-49.5	3.8	7.48e-01	0	43	104	465567744	27	23434
2026-01-28 13:51:53.14	302.99	15.37	-33.3	-49.6	3.8	7.46e-01	0	43	104	465567744	27	23583
2026-01-28 13:51:54.15	303.21	15.31	-33.3	-49.6	3.8	7.47e-01	0	43	104	465567744	27	23456
2026-01-28 13:51:55.16	303.43	15.25	-33.3	-49.7	3.8	7.47e-01	0	43	104	465567744	27	23757
2026-01-28 13:51:56.15	303.65	15.20	-33.3	-49.9	3.8	7.45e-01	0	43	104	465567744	27	24200
2026-01-28 13:51:57.16	303.86	15.14	-33.3	-49.7	3.8	7.43e-01	0	43	104	465567744	27	23855
2026-01-28 13:51:58.15	304.08	15.08	-33.3	-49.6	3.8	7.40e-01	0	43	104	465567744	27	23508
2026-01-28 13:51:59.15	304.29	15.02	-33.2	-49.3	3.8	7.42e-01	0	43	104	465567744	27	23031
2026-01-28 13:52:00.15	304.50	14.96	-33.2	-49.1	3.8	7.44e-01	0	43	104	465567744	27	22528
2026-01-28 13:52:01.16	304.72	14.91	-33.1	-48.7	3.8	7.45e-01	0	43	104	465567744	27	21670
2026-01-28 13:52:02.17	304.93	14.85	-33.2	-49.1	3.8	7.45e-01	0	43	104	465567744	27	22581
2026-01-28 13:52:03.18	305.14	14.79	-33.3	-49.7	3.8	7.45e-01	0	43	104	465567744	27	23767
2026-01-28 13:52:04.18	305.35	14.73	-33.4	-50.2	3.8	7.45e-01	0	43	104	465567744	27	24845
2026-01-28 13:52:05.19	305.57	14.67	-33.3	-49.6	3.8	7.44e-01	0	43	104	465567744	27	23618
2026-01-28 13:52:06.20	305.78	14.61	-33.2	-49.2	3.8	7.47e-01	0	43	104	465567744	27	22780
2026-01-28 13:52:07.20	305.98	14.55	-33.1	-49.1	3.8	7.48e-01	0	43	104	465567744	27	22500
2026-01-28 13:52:08.20	306.19	14.49	-33.0	-48.3	3.8	7.45e-01	0	43	104	465567744	27	21079
2026-01-28 13:52:09.21	306.40	14.43	-32.8	-47.7	3.8	7.43e-01	0	43	104	465567744	27	20062
2026-01-28 13:52:10.21	306.60	14.37	-32.7	-47.0	3.8	7.47e-01	0	43	104	465567744	27	18828
2026-01-28 13:52:11.21	306.80	14.31	-32.4	-46.0	3.8	7.44e-01	0	43	104	465567744	27	17254
2026-01-28 13:52:12.22	307.01	14.25	-32.1	-45.4	3.8	7.45e-01	0	43	104	465567744	26	16777
2026-01-28 13:52:13.22	307.21	14.19	-31.8	-45.1	3.8	7.42e-01	0	43	104	465567744	25	16699
2026-01-28 13:52:14.22	307.41	14.13	-31.6	-44.4	3.8	7.44e-01	0	43	104	465567744	25	15842
2026-01-28 13:52:15.23	307.61	14.07	-31.4	-44.4	3.9	7.42e-01	0	43	104	465567744	24	16171
2026-01-28 13:52:16.23	307.81	14.01	-31.1	-43.6	3.8	7.47e-01	0	43	104	465567744	24	15236
2026-01-28 13:52:17.23	308.01	13.95	-30.9	-43.2	3.8	7.45e-01	0	43	104	465567744	24	14712
2026-01-28 13:52:18.23	308.21	13.88	-30.8	-43.3	3.8	7.41e-01	0	43	104	465567744	23	15185
2026-01-28 13:52:19.24	308.41	13.82	-30.7	-42.9	3.8	7.45e-01	0	43	104	465567744	23	14755
2026-01-28 13:52:20.24	308.60	13.76	-30.5	-42.5	3.8	7.42e-01	0	43	104	465567744	23	14316
2026-01-28 13:52:21.25	308.80	13.70	-30.8	-43.4	3.8	7.48e-01	0	43	104	465567744	23	15266
2026-01-28 13:52:22.25	309.00	13.64	-31.2	-44.3	3.8	7.44e-01	0	43	104	465567744	23	16386
2026-01-28 13:52:23.25	309.19	13.58	-31.5	-45.3	3.8	7.45e-01	0	43	104	465567744	23	17640
2026-01-28 13:52:24.25	309.38	13.51	-31.9	-46.0	3.8	7.47e-01	0	43	104	465567744	24	18220
2026-01-28 13:52:25.26	309.57	13.45	-32.3	-46.8	3.8	7.42e-01	0	43	104	465567744	25	19183
2026-01-28 13:52:26.26	309.77	13.39	-32.6	-47.9	3.8	7.44e-01	0	43	104	465567744	25	21007
2026-01-28 13:52:27.27	309.96	13.33	-32.7	-47.6	3.8	7.45e-01	0	43	104	465567744	26	20129
2026-01-28 13:52:28.28	310.15	13.27	-32.7	-47.9	3.8	7.46e-01	0	43	104	465567744	26	20613
2026-01-28 13:52:29.28	310.34	13.20	-32.8	-48.2	3.8	7.44e-01	0	43	104	465567744	26	21225
2026-01-28 13:52:30.29	310.53	13.14	-32.7	-47.6	3.8	7.47e-01	0	43	104	465567744	26	20224
2026-01-28 13:52:31.30	310.71	13.08	-32.6	-47.4	3.8	7.48e-01	0	43	104	465567744	26	19868
2026-01-28 13:52:32.30	310.90	13.01	-32.6	-47.6	3.8	7.46e-01	0	43	104	465567744	26	20214
2026-01-28 13:52:33.30	311.09	12.95	-32.9	-48.7	3.8	7.47e-01	0	43	104	465567744	26	22157
2026-01-28 13:52:34.31	311.27	12.89	-33.1	-49.5	3.8	7.45e-01	0	43	104	465567744	26	23790
2026-01-28 13:52:35.32	311.46	12.83	-33.2	-49.6	3.8	7.44e-01	0	43	104	465567744	27	23665
2026-01-28 13:52:36.32	311.64	12.76	-33.3	-50.1	3.8	7.47e-01	0	43	104	465567744	27	24934
2026-01-28 13:52:37.33	311.82	12.70	-33.4	-50.6	3.8	7.48e-01	0	43	104	465567744	27	26043
2026-01-28 13:52:38.33	312.00	12.64	-33.5	-50.9	3.8	7.45e-01	0	43	104	465567744	27	26873
2026-01-28 13:52:39.33	312.18	12.57	-33.4	-50.6	3.8	7.46e-01	0	43	104	465567744	27	26182
2026-01-28 13:52:40.34	312.36	12.51	-33.4	-50.4	3.8	7.47e-01	0	43	104	465567744	27	25519
2026-01-28 13:52:41.34	312.54	12.45	-33.3	-50.2	3.8	7.47e-01	0	43	104	465567744	27	25091
2026-01-28 13:52:42.35	312.72	12.38	-33.3	-49.9	3.8	7.44e-01	0	43	104	465567744	27	24437
2026-01-28 13:52:43.36	312.90	12.32	-33.3	-49.9	3.8	7.47e-01	0	44	104	465567744	27	24364
2026-01-28 13:52:44.37	313.08	12.26	-33.2	-49.8	3.8	7.45e-01	0	43	104	465567744	27	24217
2026-01-28 13:52:45.37	313.25	12.19	-33.2	-49.7	3.8	7.45e-01	0	43	104	465567744	27	23990
2026-01-28 13:52:46.37	313.43	12.13	-33.2	-49.6	3.8	7.46e-01	0	43	104	465567744	27	23782
2026-01-28 13:52:47.38	313.60	12.07	-33.2	-49.5	3.8	7.43e-01	0	43	104	465567744	27	23582
2026-01-28 13:52:48.38	313.78	12.00	-33.1	-49.3	3.8	7.45e-01	0	43	104	465567744	27	23100
2026-01-28 13:52:49.38	313.95	11.94	-33.0	-48.8	3.8	7.46e-01	0	43	104	465567744	27	22197
2026-01-28 13:52:50.38	314.12	11.87	-32.9	-48.1	3.8	7.42e-01	0	43	104	465567744	27	20844
2026-01-28 13:52:51.39	314.29	11.81	-32.8	-47.7	3.8	7.44e-01	0	43	104	465567744	27	20110
2026-01-28 13:52:52.39	314.46	11.75	-32.9	-48.3	3.8	7.45e-01	0	43	104	465567744	27	21205
2026-01-28 13:52:53.39	314.63	11.68	-33.1	-49.2	3.8	7.44e-01	0	43	104	465567744	27	22890
2026-01-28 13:52:54.41	314.80	11.62	-33.2	-49.5	3.8	7.45e-01	0	43	104	465567744	27	23490
2026-01-28 13:52:55.41	314.97	11.56	-33.0	-48.9	3.8	7.47e-01	0	43	104	465567744	27	22272
2026-01-28 13:52:56.42	315.14	11.49	-32.9	-48.1	3.8	7.44e-01	0	43	104	465567744	27	20830
2026-01-28 13:52:57.43	315.31	11.43	-32.7	-47.5	3.8	7.45e-01	0	43	104	465567744	27	19737
2026-01-28 13:52:58.43	315.47	11.36	-32.5	-46.6	3.8	7.47e-01	0	43	104	465567744	27	18275
2026-01-28 13:52:59.44	315.64	11.30	-32.2	-46.0	3.8	7.45e-01	0	43	104	465567744	26	17707
2026-01-28 13:53:00.45	315.80	11.23	-32.0	-45.3	3.8	7.44e-01	0	43	104	465567744	26	16744
2026-01-28 13:53:01.45	315.97	11.17	-31.8	-45.2	3.8	7.46e-01	0	43	104	465567744	25	16899
2026-01-28 13:53:02.45	316.13	11.11	-31.7	-44.9	3.8	7.42e-01	0	43	104	465567744	25	16525
2026-01-28 13:53:03.46	316.29	11.04	-31.8	-45.3	3.9	7.45e-01	0	43	104	465567744	25	17074
2026-01-28 13:53:04.46	316.45	10.98	-31.6	-44.7	3.8	7.44e-01	0	43	104	465567744	25	16279
2026-01-28 13:53:05.46	316.61	10.92	-31.4	-44.2	3.8	7.43e-01	0	43	104	465567744	25	15724
2026-01-28 13:53:06.47	316.77	10.85	-31.4	-44.1	3.8	7.45e-01	0	43	104	465567744	25	15563
2026-01-28 13:53:07.48	316.93	10.79	-31.3	-44.3	3.8	7.46e-01	0	43	104	465567744	24	16098
2026-01-28 13:53:08.49	317.09	10.72	-31.3	-44.2	3.8	7.44e-01	0	43	104	465567744	24	16000
2026-01-28 13:53:09.50	317.25	10.66	-31.4	-44.6	3.8	7.42e-01	0	43	104	465567744	24	16463
2026-01-28 13:53:10.50	317.41	10.59	-31.7	-45.7	3.8	7.46e-01	0	43	104	465567744	24	17881
2026-01-28 13:53:11.51	317.56	10.53	-32.0	-46.6	3.8	7.46e-01	0	43	104	465567744	24	19314
2026-01-28 13:53:12.51	317.72	10.47	-32.3	-47.3	3.8	7.41e-01	0	43	104	465567744	25	20069
2026-01-28 13:53:13.51	317.87	10.40	-32.6	-47.8	3.8	7.42e-01	0	43	104	465567744	26	20693
2026-01-28 13:53:14.52	318.03	10.34	-32.8	-48.8	3.8	7.42e-01	0	43	104	465567744	26	22481
2026-01-28 13:53:15.52	318.18	10.28	-33.0	-49.5	3.8	7.48e-01	0	43	104	465567744	26	23981
2026-01-28 13:53:16.52	318.33	10.21	-33.1	-49.8	3.8	7.44e-01	0	43	104	465567744	26	24719
2026-01-28 13:53:17.52	318.48	10.15	-33.1	-49.7	3.8	7.45e-01	0	43	104	465567744	27	24156
2026-01-28 13:53:18.52	318.64	10.08	-33.2	-49.9	3.8	7.43e-01	0	43	104	465567744	27	24785
2026-01-28 13:53:19.53	318.79	10.02	-33.2	-50.0	3.8	7.43e-01	0	43	104	465567744	27	24961
2026-01-28 13:53:20.54	318.94	9.96	-33.1	-49.8	3.8	7.44e-01	0	43	104	465567744	27	24438
2026-01-28 13:53:21.54	319.09	9.89	-33.1	-49.6	3.8	7.46e-01	0	43	104	465567744	27	23980
2026-01-28 13:53:22.54	319.23	9.83	-33.2	-49.8	3.8	7.44e-01	0	43	104	465567744	27	24566
2026-01-28 13:53:23.55	319.38	9.77	-33.2	-50.2	3.8	7.47e-01	0	43	104	465567744	27	25414
2026-01-28 13:53:24.55	319.53	9.70	-33.3	-50.5	3.8	7.41e-01	0	43	104	465567744	27	26077
2026-01-28 13:53:25.56	319.68	9.64	-33.3	-50.8	3.8	7.49e-01	0	43	104	465567744	27	27017
2026-01-28 13:53:26.57	319.82	9.57	-33.3	-50.8	3.8	7.44e-01	0	43	104	465567744	27	27035
2026-01-28 13:53:27.58	319.97	9.51	-33.3	-50.5	3.8	7.45e-01	0	43	104	465567744	27	26192
2026-01-28 13:53:28.58	320.11	9.45	-33.2	-50.3	3.8	7.47e-01	0	43	104	465567744	27	25527
2026-01-28 13:53:29.58	320.26	9.38	-33.2	-50.0	3.8	7.45e-01	0	43	104	465567744	27	24992
2026-01-28 13:53:30.58	320.40	9.32	-33.2	-50.0	3.8	7.48e-01	0	43	104	465567744	27	24923
2026-01-28 13:53:31.59	320.54	9.26	-33.2	-49.8	3.8	7.46e-01	0	43	104	465567744	27	24587
2026-01-28 13:53:32.60	320.69	9.19	-33.1	-49.8	3.8	7.45e-01	0	43	104	465567744	27	24509
2026-01-28 13:53:33.60	320.83	9.13	-33.2	-50.0	3.8	7.43e-01	0	43	104	465567744	27	24911
2026-01-28 13:53:34.60	320.97	9.07	-33.2	-49.9	3.8	7.43e-01	0	43	104	465567744	27	24824
2026-01-28 13:53:35.59	321.11	9.00	-33.1	-49.9	3.8	7.45e-01	0	43	104	465567744	27	24897
2026-01-28 13:53:36.60	321.25	8.94	-33.1	-49.8	3.8	7.48e-01	0	43	104	465567744	27	24530
2026-01-28 13:53:37.60	321.38	8.88	-33.1	-49.5	3.8	7.43e-01	0	43	104	465567744	27	23943
2026-01-28 13:53:38.60	321.52	8.81	-32.9	-48.8	3.8	7.45e-01	0	43	104	465567744	27	22518
2026-01-28 13:53:39.60	321.66	8.75	-32.8	-48.2	3.8	7.44e-01	0	43	104	465567744	27	21302
2026-01-28 13:53:40.61	321.80	8.69	-32.5	-47.2	3.8	7.47e-01	0	43	104	465567744	27	19544
2026-01-28 13:53:41.62	321.93	8.62	-32.6	-47.5	3.8	7.48e-01	0	43	104	465567744	27	19902
2026-01-28 13:53:42.62	322.07	8.56	-32.7	-47.9	3.8	7.48e-01	0	43	104	465567744	27	20601
2026-01-28 13:53:43.63	322.20	8.50	-32.9	-48.8	3.8	7.46e-01	0	43	104	465567744	27	22421
2026-01-28 13:53:44.64	322.34	8.44	-32.8	-48.2	3.8	7.50e-01	0	43	104	465567744	27	21270
2026-01-28 13:53:45.64	322.47	8.37	-32.7	-47.8	3.8	7.48e-01	0	43	104	465567744	27	20515
2026-01-28 13:53:46.64	322.60	8.31	-32.5	-47.3	3.8	7.47e-01	0	43	104	465567744	27	19651
2026-01-28 13:53:47.65	322.74	8.25	-32.4	-46.6	3.8	7.47e-01	0	43	104	465567744	27	18603
2026-01-28 13:53:48.66	322.87	8.18	-32.0	-45.9	3.8	7.43e-01	0	43	104	465567744	26	17732
2026-01-28 13:53:49.66	323.00	8.12	-31.8	-45.6	3.8	7.48e-01	0	43	104	465567744	25	17667
2026-01-28 13:53:50.66	323.13	8.06	-31.9	-46.0	3.8	7.43e-01	0	43	104	465567744	25	18149
2026-01-28 13:53:51.66	323.26	8.00	-32.1	-46.7	3.8	7.43e-01	0	43	104	465567744	25	19196
2026-01-28 13:53:52.67	323.39	7.93	-32.4	-47.6	3.8	7.44e-01	0	43	104	465567744	25	20754
2026-01-28 13:53:53.67	323.52	7.87	-32.3	-47.4	3.8	7.44e-01	0	43	104	465567744	25	20515
2026-01-28 13:53:54.67	323.65	7.81	-32.2	-47.2	3.8	7.46e-01	0	43	104	465567744	25	20120
2026-01-28 13:53:55.67	323.78	7.75	-32.2	-47.0	3.8	7.43e-01	0	43	104	465567744	25	19854
2026-01-28 13:53:56.68	323.90	7.69	-32.2	-47.2	3.8	7.44e-01	0	43	104	465567744	25	20211
2026-01-28 13:53:57.69	324.03	7.62	-32.1	-46.7	3.8	7.44e-01	0	43	104	465567744	25	19459
2026-01-28 13:53:58.69	324.16	7.56	-32.1	-46.9	3.8	7.43e-01	0	43	104	465567744	25	19737
2026-01-28 13:53:59.70	324.28	7.50	-32.3	-47.6	3.8	7.46e-01	0	43	104	465567744	25	21043
2026-01-28 13:54:00.70	324.41	7.44	-32.5	-48.5	3.8	7.45e-01	0	43	104	465567744	25	22589
2026-01-28 13:54:01.71	324.53	7.38	-32.7	-48.8	3.8	7.48e-01	0	43	104	465567744	26	23057
2026-01-28 13:54:02.72	324.66	7.31	-32.8	-49.4	3.8	7.44e-01	0	43	104	465567744	26	24426
2026-01-28 13:54:03.73	324.78	7.25	-32.9	-50.0	3.8	7.45e-01	0	43	104	465567744	26	25851
2026-01-28 13:54:04.73	324.91	7.19	-33.0	-50.4	3.8	7.45e-01	0	43	104	465567744	26	26747
2026-01-28 13:54:05.73	325.03	7.13	-33.0	-50.5	3.8	7.46e-01	0	43	104	465567744	26	27105
2026-01-28 13:54:06.73	325.15	7.07	-33.6	-53.0	3.8	7.46e-01	0	43	104	465567744	27	33790
2026-01-28 13:54:07.73	325.27	7.01	-33.9	-53.3	3.8	7.45e-01	0	43	104	465567744	28	33685
2026-01-28 13:54:08.72	325.39	6.94	-34.1	-53.3	3.8	7.46e-01	0	43	104	465567744	29	32806
2026-01-28 13:54:09.73	325.51	6.88	-34.3	-53.6	3.8	7.44e-01	0	43	104	465567744	29	33415

#Closed at: 2026-01-28 13:54:10
#Recorded file [465 MB]: D:/data/31010_260128_164552.dat