passes_logs/2026/01/28/R2M6_AANII_01/R2M6_AANII_01__20260128_122757_NOAA_20_JPSS-1_rec.log

#Pass ID: 20260128_122757_NOAA 20 (JPSS-1)
#Satellite: NOAA 20 (JPSS-1)
#Configuration: NOAA 20
#almurnet v.1.7.20240730
#Start time: 2026-01-28 12:27:58

#Version: 2.2.20231116
#Station: R2M6_AANII_01
#Location: 30.233357 lon 59.946436 lat
#TLE: 1 43013U 17073A   26027.80586608  .00000156  00000+0  94940-4 0  9998
#TLE: 2 43013  98.7647 328.6108 0000947  21.3465 338.7750 14.19541216424550

#Time	Az	El	Level	Level2	SNR	BER	BlckErr	Temp	State	Recorded	gain1	gain2
2026-01-28 12:27:58.42	233.46	7.06	-31.4	-36.9	5.2	1.14e+00	0	41	0	0	23	6789
2026-01-28 12:27:59.41	233.58	7.11	-32.0	-39.2	4.7	1.28e+00	0	41	104	0	24	8291
2026-01-28 12:28:00.42	233.71	7.17	-31.9	-38.6	7.0	1.59e-01	0	41	0	0	24	7762
2026-01-28 12:28:01.42	233.83	7.22	-32.0	-38.8	6.8	2.08e-01	0	41	0	1048576	24	7931
2026-01-28 12:28:02.43	233.96	7.27	-32.1	-39.6	6.3	2.11e-01	0	41	0	3145728	24	8528
2026-01-28 12:28:03.43	234.08	7.32	-32.1	-39.6	6.3	3.20e-01	0	41	0	5242880	24	8524
2026-01-28 12:28:04.43	234.21	7.37	-32.0	-39.1	6.7	2.29e-01	0	41	0	7340032	24	8112
2026-01-28 12:28:05.44	234.34	7.42	-32.0	-39.2	6.5	2.49e-01	0	41	0	9437184	24	8213
2026-01-28 12:28:06.44	234.46	7.47	-31.9	-38.3	7.3	1.71e-01	0	41	0	10485760	24	7509
2026-01-28 12:28:07.45	234.59	7.52	-31.9	-38.2	7.4	1.25e-01	0	41	0	12582912	24	7451
2026-01-28 12:28:08.45	234.72	7.57	-31.7	-37.3	8.0	8.02e-02	0	41	0	14680064	24	6894
2026-01-28 12:28:09.46	234.84	7.63	-31.6	-36.8	8.5	5.23e-02	0	41	0	16777216	24	6540
2026-01-28 12:28:10.46	234.97	7.68	-31.4	-36.1	9.1	3.04e-02	0	41	0	17825792	24	6154
2026-01-28 12:28:11.46	235.10	7.73	-31.3	-35.5	9.6	1.99e-02	0	41	0	19922944	24	5873
2026-01-28 12:28:12.46	235.23	7.78	-31.3	-35.9	9.7	1.21e-02	0	41	0	22020096	23	6151
2026-01-28 12:28:13.47	235.36	7.83	-31.2	-35.7	9.9	8.96e-03	0	41	0	24117248	23	6023
2026-01-28 12:28:14.47	235.49	7.88	-31.3	-36.0	9.6	9.13e-03	0	41	0	26214400	23	6186
2026-01-28 12:28:15.48	235.62	7.93	-31.3	-36.0	9.6	1.53e-02	0	41	0	28311552	23	6182
2026-01-28 12:28:16.48	235.75	7.98	-30.9	-34.7	10.6	7.62e-03	0	41	0	29360128	23	5548
2026-01-28 12:28:17.48	235.88	8.03	-30.9	-35.1	10.7	1.53e-03	0	41	0	31457280	22	5851
2026-01-28 12:28:18.49	236.02	8.08	-31.0	-35.3	10.5	3.21e-03	0	41	0	33554432	22	5961
2026-01-28 12:28:19.49	236.15	8.13	-31.1	-35.7	10.3	6.52e-03	0	42	0	35651584	22	6129
2026-01-28 12:28:20.50	236.28	8.19	-30.9	-35.1	10.7	2.91e-03	0	42	0	36700160	22	5845
2026-01-28 12:28:21.50	236.41	8.24	-30.9	-35.1	10.6	2.82e-03	0	42	0	38797312	22	5867
2026-01-28 12:28:22.49	236.55	8.29	-30.9	-35.1	10.7	4.42e-03	0	41	0	40894464	22	5830
2026-01-28 12:28:23.50	236.68	8.34	-30.8	-34.8	11.0	1.53e-03	0	41	0	42991616	22	5685
2026-01-28 12:28:24.50	236.81	8.39	-30.8	-34.8	10.9	1.99e-03	0	42	0	45088768	22	5684
2026-01-28 12:28:25.51	236.95	8.44	-30.8	-34.7	11.0	1.65e-03	0	42	0	46137344	22	5638
2026-01-28 12:28:26.52	237.09	8.49	-30.7	-34.3	11.3	2.80e-03	0	42	0	48234496	22	5456
2026-01-28 12:28:27.52	237.22	8.54	-30.9	-35.0	10.8	1.29e-03	0	42	0	50331648	22	5773
2026-01-28 12:28:28.53	237.36	8.59	-30.6	-34.2	11.4	7.31e-04	0	42	0	52428800	22	5417
2026-01-28 12:28:29.53	237.50	8.64	-30.8	-34.9	10.9	1.53e-03	0	42	0	54525952	22	5715
2026-01-28 12:28:30.54	237.63	8.69	-30.9	-34.9	10.9	1.85e-03	0	42	0	55574528	22	5752
2026-01-28 12:28:31.54	237.77	8.74	-31.0	-35.3	10.6	2.22e-03	0	42	0	57671680	22	5933
2026-01-28 12:28:32.55	237.91	8.79	-31.0	-35.3	10.6	4.27e-03	0	42	0	59768832	22	5923
2026-01-28 12:28:33.54	238.05	8.84	-30.7	-34.3	11.4	1.34e-03	0	42	0	61865984	22	5458
2026-01-28 12:28:34.54	238.19	8.89	-30.7	-34.4	11.4	1.07e-03	0	42	0	63963136	22	5486
2026-01-28 12:28:35.55	238.33	8.94	-30.7	-34.4	11.3	1.18e-03	0	42	0	65011712	22	5516
2026-01-28 12:28:36.56	238.47	8.99	-30.7	-34.3	11.4	1.03e-03	0	42	0	67108864	22	5434
2026-01-28 12:28:37.56	238.61	9.04	-30.7	-34.4	11.3	8.98e-04	0	42	0	69206016	22	5516
2026-01-28 12:28:38.56	238.75	9.09	-30.7	-34.2	11.5	9.44e-04	0	42	0	71303168	22	5419
2026-01-28 12:28:39.56	238.89	9.14	-30.6	-34.0	11.6	8.19e-04	0	42	0	73400320	22	5318
2026-01-28 12:28:40.57	239.03	9.19	-30.5	-33.6	11.9	4.79e-04	0	42	0	74448896	22	5151
2026-01-28 12:28:41.57	239.17	9.24	-30.4	-33.2	12.2	2.80e-04	0	42	0	76546048	22	5024
2026-01-28 12:28:42.57	239.31	9.29	-30.4	-33.4	12.1	2.86e-04	0	42	0	78643200	22	5077
2026-01-28 12:28:43.58	239.46	9.34	-30.4	-33.3	12.2	2.05e-04	0	42	0	80740352	22	5051
2026-01-28 12:28:44.58	239.60	9.39	-30.4	-33.3	12.2	2.51e-04	0	42	0	82837504	22	5023
2026-01-28 12:28:45.59	239.75	9.44	-30.3	-33.1	12.3	1.72e-04	0	42	0	83886080	22	4959
2026-01-28 12:28:46.59	239.89	9.49	-30.2	-33.3	12.5	1.23e-04	0	42	0	85983232	21	5130
2026-01-28 12:28:47.59	240.04	9.54	-30.2	-33.4	12.4	1.30e-04	0	42	0	88080384	21	5169
2026-01-28 12:28:48.60	240.18	9.59	-30.2	-33.4	12.5	1.49e-04	0	42	0	90177536	21	5175
2026-01-28 12:28:49.60	240.33	9.64	-30.2	-33.2	12.6	1.21e-04	0	42	0	91226112	21	5092
2026-01-28 12:28:50.60	240.47	9.69	-30.1	-33.0	12.7	5.64e-05	0	42	0	93323264	21	5040
2026-01-28 12:28:51.60	240.62	9.74	-30.0	-32.8	12.8	8.01e-05	0	42	0	95420416	21	4973
2026-01-28 12:28:52.60	240.77	9.79	-30.1	-33.1	12.6	9.68e-05	0	42	0	97517568	21	5084
2026-01-28 12:28:53.61	240.92	9.84	-30.1	-32.9	12.8	9.91e-05	0	42	0	99614720	21	4996
2026-01-28 12:28:54.61	241.06	9.88	-30.0	-32.8	12.8	5.79e-05	0	42	0	100663296	21	4954
2026-01-28 12:28:55.62	241.21	9.93	-30.0	-32.6	13.0	3.73e-05	0	42	0	102760448	21	4898
2026-01-28 12:28:56.62	241.36	9.98	-29.9	-32.5	13.0	4.65e-05	0	42	0	104857600	21	4852
2026-01-28 12:28:57.62	241.51	10.03	-29.9	-32.4	13.1	2.82e-05	0	42	0	106954752	21	4808
2026-01-28 12:28:58.63	241.66	10.08	-29.9	-32.6	13.0	2.97e-05	0	42	0	109051904	21	4864
2026-01-28 12:28:59.63	241.82	10.13	-29.9	-32.5	13.1	4.42e-05	0	42	0	110100480	21	4830
2026-01-28 12:29:00.63	241.97	10.18	-29.9	-32.5	13.1	3.05e-05	0	42	0	112197632	21	4846
2026-01-28 12:29:01.63	242.12	10.23	-29.9	-32.5	13.1	2.89e-05	0	42	0	114294784	21	4847
2026-01-28 12:29:02.63	242.27	10.27	-29.9	-32.5	13.1	3.28e-05	0	42	0	116391936	21	4831
2026-01-28 12:29:03.64	242.42	10.32	-30.0	-32.8	12.9	4.19e-05	0	42	0	118489088	21	4931
2026-01-28 12:29:04.64	242.58	10.37	-30.0	-32.6	13.1	4.27e-05	0	42	0	119537664	21	4873
2026-01-28 12:29:05.64	242.73	10.42	-29.9	-32.5	13.1	2.51e-05	0	42	0	121634816	21	4826
2026-01-28 12:29:06.64	242.88	10.47	-30.0	-32.8	12.9	5.49e-05	0	43	0	123731968	21	4952
2026-01-28 12:29:07.64	243.04	10.51	-30.0	-32.6	13.0	4.11e-05	0	42	0	125829120	21	4871
2026-01-28 12:29:08.65	243.19	10.56	-30.0	-32.6	13.1	3.96e-05	0	43	0	127926272	21	4861
2026-01-28 12:29:09.65	243.35	10.61	-30.1	-32.8	12.9	3.81e-05	0	42	0	128974848	21	4953
2026-01-28 12:29:10.65	243.50	10.66	-30.0	-32.8	13.0	4.80e-05	0	42	0	131072000	21	4924
2026-01-28 12:29:11.65	243.66	10.71	-30.0	-32.5	13.1	4.34e-05	0	42	0	133169152	21	4843
2026-01-28 12:29:12.66	243.82	10.75	-29.8	-32.2	13.3	1.83e-05	0	42	0	135266304	21	4732
2026-01-28 12:29:13.66	243.98	10.80	-29.9	-32.3	13.3	1.37e-05	0	42	0	136314880	21	4740
2026-01-28 12:29:14.66	244.13	10.85	-29.8	-32.2	13.4	2.44e-05	0	43	0	138412032	21	4732
2026-01-28 12:29:15.66	244.29	10.89	-29.8	-32.0	13.5	1.06e-05	0	42	0	140509184	21	4665
2026-01-28 12:29:16.66	244.45	10.94	-29.9	-32.3	13.3	1.29e-05	0	43	0	142606336	21	4748
2026-01-28 12:29:17.67	244.61	10.99	-29.8	-32.1	13.4	2.05e-05	0	43	0	144703488	21	4698
2026-01-28 12:29:18.68	244.77	11.04	-29.8	-32.1	13.5	1.44e-05	0	42	0	146800640	21	4673
2026-01-28 12:29:19.69	244.93	11.08	-29.9	-32.7	13.4	8.30e-06	0	43	0	147849216	20	5017
2026-01-28 12:29:20.69	245.10	11.13	-29.9	-32.9	13.2	1.67e-05	0	43	0	149946368	20	5090
2026-01-28 12:29:21.70	245.26	11.18	-29.9	-32.9	13.2	3.12e-05	0	42	0	152043520	20	5094
2026-01-28 12:29:22.70	245.42	11.22	-29.9	-33.0	13.2	2.21e-05	0	43	0	154140672	20	5108
2026-01-28 12:29:23.70	245.58	11.27	-30.0	-33.1	13.1	1.75e-05	0	42	0	155189248	20	5169
2026-01-28 12:29:24.71	245.75	11.32	-30.1	-33.4	12.9	3.81e-05	0	42	0	157286400	20	5260
2026-01-28 12:29:25.72	245.91	11.36	-30.1	-33.3	13.0	5.95e-05	0	43	0	159383552	20	5229
2026-01-28 12:29:26.71	246.07	11.41	-30.0	-33.1	13.1	2.21e-05	0	43	0	161480704	20	5154
2026-01-28 12:29:27.72	246.24	11.45	-30.0	-33.0	13.3	2.51e-05	0	43	0	163577856	20	5107
2026-01-28 12:29:28.71	246.40	11.50	-29.9	-32.9	13.3	3.35e-05	0	42	0	164626432	20	5072
2026-01-28 12:29:29.72	246.57	11.54	-30.0	-33.1	13.2	2.28e-05	0	43	0	166723584	20	5132
2026-01-28 12:29:30.72	246.73	11.59	-29.9	-32.8	13.4	2.89e-05	0	43	0	168820736	20	5027
2026-01-28 12:29:31.73	246.90	11.64	-29.8	-32.6	13.5	1.22e-05	0	43	0	170917888	20	4947
2026-01-28 12:29:32.73	247.07	11.68	-29.9	-32.8	13.3	2.28e-05	0	42	0	173015040	20	5041
2026-01-28 12:29:33.74	247.24	11.73	-29.9	-32.8	13.3	1.37e-05	0	43	0	174063616	20	5035
2026-01-28 12:29:34.75	247.41	11.77	-29.9	-32.9	13.3	1.98e-05	0	43	0	176160768	20	5082
2026-01-28 12:29:35.76	247.58	11.82	-29.9	-33.0	13.2	2.05e-05	0	43	0	178257920	20	5099
2026-01-28 12:29:36.76	247.75	11.86	-30.1	-33.3	13.0	2.82e-05	0	43	0	180355072	20	5246
2026-01-28 12:29:37.76	247.91	11.91	-30.1	-33.3	13.1	4.80e-05	0	43	0	182452224	20	5199
2026-01-28 12:29:38.76	248.08	11.95	-30.1	-33.3	13.0	2.59e-05	0	43	0	183500800	20	5246
2026-01-28 12:29:39.76	248.25	11.99	-30.0	-33.2	13.1	3.73e-05	0	43	0	185597952	20	5182
2026-01-28 12:29:40.77	248.43	12.04	-29.9	-32.9	13.3	2.44e-05	0	43	0	187695104	20	5076
2026-01-28 12:29:41.77	248.60	12.08	-29.9	-32.8	13.4	7.60e-06	0	43	0	189792256	20	5043
2026-01-28 12:29:42.77	248.77	12.13	-29.9	-32.9	13.4	1.14e-05	0	43	0	191889408	20	5061
2026-01-28 12:29:43.78	248.94	12.17	-30.0	-33.2	13.2	1.29e-05	0	43	0	192937984	20	5161
2026-01-28 12:29:44.78	249.12	12.21	-30.1	-33.2	13.1	2.82e-05	0	43	0	195035136	20	5187
2026-01-28 12:29:45.78	249.29	12.26	-30.1	-33.3	13.1	2.13e-05	0	43	0	197132288	20	5218
2026-01-28 12:29:46.79	249.46	12.30	-30.2	-33.8	12.8	3.66e-05	0	43	0	199229440	20	5400
2026-01-28 12:29:47.79	249.64	12.34	-30.2	-33.7	12.8	8.92e-05	0	43	0	201326592	20	5395
2026-01-28 12:29:48.80	249.81	12.39	-30.2	-33.7	12.8	6.48e-05	0	43	0	202375168	20	5376
2026-01-28 12:29:49.80	249.99	12.43	-30.3	-33.9	12.7	7.01e-05	0	43	0	204472320	20	5459
2026-01-28 12:29:50.80	250.16	12.47	-30.4	-34.1	12.6	1.02e-04	0	43	0	206569472	20	5540
2026-01-28 12:29:51.81	250.34	12.51	-30.4	-34.2	12.5	1.31e-04	0	43	0	208666624	20	5563
2026-01-28 12:29:52.82	250.52	12.56	-30.5	-34.0	12.2	1.25e-04	0	43	0	209715200	21	5402
2026-01-28 12:29:53.82	250.70	12.60	-30.8	-35.0	11.6	3.46e-04	0	43	0	211812352	21	5810
2026-01-28 12:29:54.83	250.88	12.64	-30.6	-34.4	12.0	6.01e-04	0	43	0	213909504	21	5531
2026-01-28 12:29:55.83	251.05	12.68	-30.8	-34.9	11.7	3.00e-04	0	43	0	216006656	21	5758
2026-01-28 12:29:56.84	251.24	12.72	-30.8	-34.9	11.7	6.84e-04	0	43	0	218103808	21	5765
2026-01-28 12:29:57.84	251.41	12.76	-31.0	-35.5	11.2	7.28e-04	0	43	0	220200960	21	6065
2026-01-28 12:29:58.84	251.59	12.80	-31.0	-35.0	11.2	1.40e-03	0	43	0	221249536	22	5730
2026-01-28 12:29:59.85	251.78	12.85	-30.9	-34.7	11.4	1.15e-03	0	43	0	223346688	22	5596
2026-01-28 12:30:00.86	251.96	12.89	-30.9	-34.6	11.6	7.26e-04	0	43	0	225443840	22	5528
2026-01-28 12:30:01.86	252.14	12.93	-30.9	-34.6	11.6	5.99e-04	0	43	0	227540992	22	5526
2026-01-28 12:30:02.86	252.32	12.97	-30.8	-34.5	11.6	6.24e-04	0	43	0	228589568	22	5488
2026-01-28 12:30:03.87	252.50	13.01	-30.8	-34.3	11.8	5.34e-04	0	43	0	230686720	22	5405
2026-01-28 12:30:04.87	252.69	13.05	-30.7	-34.2	11.9	4.03e-04	0	43	0	232783872	22	5361
2026-01-28 12:30:05.87	252.87	13.09	-30.8	-34.3	11.8	4.70e-04	0	43	0	234881024	22	5385
2026-01-28 12:30:06.87	253.05	13.13	-30.9	-34.5	11.6	6.29e-04	0	43	0	236978176	22	5501
2026-01-28 12:30:07.87	253.23	13.16	-30.8	-34.4	11.8	5.38e-04	0	43	0	238026752	22	5420
2026-01-28 12:30:08.88	253.42	13.20	-30.8	-34.2	11.8	4.46e-04	0	43	0	240123904	22	5375
2026-01-28 12:30:09.88	253.61	13.24	-30.8	-34.4	11.7	4.76e-04	0	43	0	242221056	22	5425
2026-01-28 12:30:10.88	253.79	13.28	-30.8	-34.4	11.7	5.07e-04	0	43	0	244318208	22	5455
2026-01-28 12:30:11.88	253.98	13.32	-30.9	-34.7	11.6	6.01e-04	0	43	0	246415360	22	5557
2026-01-28 12:30:12.89	254.16	13.36	-30.9	-34.7	11.6	7.48e-04	0	43	0	247463936	22	5565
2026-01-28 12:30:13.89	254.35	13.40	-31.0	-34.9	11.4	8.65e-04	0	43	0	249561088	22	5646
2026-01-28 12:30:14.90	254.54	13.43	-30.9	-34.8	11.5	9.32e-04	0	43	0	251658240	22	5586
2026-01-28 12:30:15.90	254.73	13.47	-31.0	-34.9	11.5	7.45e-04	0	43	0	253755392	22	5635
2026-01-28 12:30:16.90	254.91	13.51	-31.0	-34.8	11.5	8.07e-04	0	43	0	255852544	22	5588
2026-01-28 12:30:17.90	255.10	13.55	-31.0	-35.1	11.3	1.04e-03	0	43	0	256901120	22	5726
2026-01-28 12:30:18.90	255.29	13.58	-31.0	-34.9	11.4	1.08e-03	0	43	0	258998272	22	5628
2026-01-28 12:30:19.91	255.48	13.62	-30.9	-34.6	11.7	6.86e-04	0	43	0	261095424	22	5523
2026-01-28 12:30:20.91	255.67	13.66	-30.9	-34.5	11.7	5.42e-04	0	43	0	263192576	22	5479
2026-01-28 12:30:21.92	255.86	13.69	-30.9	-34.6	11.7	6.13e-04	0	43	0	265289728	22	5496
2026-01-28 12:30:22.92	256.06	13.73	-30.9	-34.6	11.6	5.45e-04	0	43	0	266338304	22	5521
2026-01-28 12:30:23.92	256.25	13.76	-31.0	-34.8	11.5	7.28e-04	0	43	0	268435456	22	5604
2026-01-28 12:30:24.93	256.44	13.80	-31.0	-34.9	11.5	8.22e-04	0	43	0	270532608	22	5651
2026-01-28 12:30:25.93	256.63	13.83	-31.0	-35.1	11.4	1.00e-03	0	43	0	272629760	22	5722
2026-01-28 12:30:26.93	256.82	13.87	-31.2	-35.5	11.0	1.53e-03	0	43	0	274726912	22	5929
2026-01-28 12:30:27.93	257.02	13.90	-31.2	-35.4	11.1	1.85e-03	0	43	0	275775488	22	5878
2026-01-28 12:30:28.93	257.21	13.94	-31.3	-35.8	10.8	1.78e-03	0	43	0	277872640	22	6048
2026-01-28 12:30:29.94	257.41	13.97	-31.2	-35.5	11.0	1.68e-03	0	43	0	279969792	22	5930
2026-01-28 12:30:30.95	257.60	14.01	-31.2	-35.5	11.1	1.68e-03	0	43	0	282066944	22	5899
2026-01-28 12:30:31.95	257.80	14.04	-31.1	-35.3	11.3	1.42e-03	0	43	0	283115520	22	5803
2026-01-28 12:30:32.95	257.99	14.07	-31.1	-35.1	11.3	1.11e-03	0	43	0	285212672	22	5746
2026-01-28 12:30:33.95	258.19	14.11	-31.2	-35.5	11.0	1.58e-03	0	43	0	287309824	22	5913
2026-01-28 12:30:34.95	258.38	14.14	-31.0	-35.0	11.4	1.16e-03	0	43	0	289406976	22	5680
2026-01-28 12:30:35.95	258.58	14.17	-30.9	-34.6	11.6	7.39e-04	0	43	0	291504128	22	5529
2026-01-28 12:30:36.95	258.77	14.20	-30.8	-34.4	11.8	4.61e-04	0	43	0	292552704	22	5425
2026-01-28 12:30:37.95	258.97	14.24	-30.9	-34.6	11.7	4.74e-04	0	43	0	294649856	22	5499
2026-01-28 12:30:38.96	259.17	14.27	-30.9	-34.5	11.8	4.81e-04	0	43	0	296747008	22	5480
2026-01-28 12:30:39.96	259.37	14.30	-30.8	-34.3	11.9	4.48e-04	0	43	0	298844160	22	5389
2026-01-28 12:30:40.96	259.57	14.33	-30.9	-34.7	11.6	5.56e-04	0	43	0	300941312	22	5545
2026-01-28 12:30:41.97	259.77	14.36	-30.9	-34.5	11.8	5.28e-04	0	43	0	301989888	22	5450
2026-01-28 12:30:42.97	259.97	14.39	-31.0	-34.9	11.5	4.94e-04	0	43	0	304087040	22	5640
2026-01-28 12:30:43.98	260.17	14.42	-30.9	-34.5	11.8	4.94e-04	0	43	0	306184192	22	5462
2026-01-28 12:30:44.98	260.37	14.45	-30.8	-34.2	12.0	3.65e-04	0	43	0	308281344	22	5331
2026-01-28 12:30:45.99	260.57	14.48	-30.7	-33.9	12.2	2.58e-04	0	43	0	310378496	22	5225
2026-01-28 12:30:47.00	260.77	14.51	-30.6	-33.8	12.3	1.90e-04	0	43	0	311427072	22	5169
2026-01-28 12:30:48.00	260.97	14.54	-30.6	-33.7	12.4	1.57e-04	0	43	0	313524224	22	5129
2026-01-28 12:30:49.00	261.18	14.57	-30.5	-33.3	12.6	9.30e-05	0	43	0	315621376	22	4994
2026-01-28 12:30:50.00	261.38	14.60	-30.3	-32.9	12.9	4.80e-05	0	43	0	317718528	22	4821
2026-01-28 12:30:51.01	261.58	14.63	-30.2	-33.1	13.0	3.20e-05	0	43	0	319815680	21	5032
2026-01-28 12:30:52.00	261.78	14.65	-30.0	-32.5	13.5	1.37e-05	0	43	0	320864256	21	4788
2026-01-28 12:30:53.01	261.99	14.68	-29.9	-32.3	13.7	8.30e-06	0	43	0	322961408	21	4713
2026-01-28 12:30:54.02	262.19	14.71	-29.9	-32.3	13.6	7.60e-06	0	43	0	325058560	21	4735
2026-01-28 12:30:55.03	262.40	14.74	-29.9	-32.2	13.7	6.10e-06	0	43	0	327155712	21	4684
2026-01-28 12:30:56.03	262.60	14.76	-29.9	-32.1	13.7	2.20e-06	0	43	0	329252864	21	4674
2026-01-28 12:30:57.04	262.81	14.79	-30.0	-32.4	13.6	6.80e-06	0	43	0	330301440	21	4757
2026-01-28 12:30:58.04	263.01	14.82	-30.1	-32.7	13.4	1.14e-05	0	43	0	332398592	21	4863
2026-01-28 12:30:59.04	263.22	14.84	-30.0	-32.6	13.5	1.37e-05	0	43	0	334495744	21	4815
2026-01-28 12:31:00.04	263.42	14.87	-30.0	-32.4	13.6	1.14e-05	0	43	0	336592896	21	4743
2026-01-28 12:31:01.05	263.63	14.89	-30.0	-32.5	13.5	9.10e-06	0	43	0	338690048	21	4795
2026-01-28 12:31:02.05	263.84	14.92	-30.1	-32.6	13.4	1.98e-05	0	43	0	339738624	21	4828
2026-01-28 12:31:03.05	264.04	14.94	-30.1	-32.8	13.3	9.90e-06	0	43	0	341835776	21	4902
2026-01-28 12:31:04.05	264.25	14.97	-30.0	-32.4	13.6	1.14e-05	0	43	0	343932928	21	4751
2026-01-28 12:31:05.05	264.46	14.99	-30.0	-32.4	13.6	1.37e-05	0	43	0	346030080	21	4756
2026-01-28 12:31:06.06	264.67	15.01	-30.0	-32.3	13.6	8.30e-06	0	43	0	347078656	21	4729
2026-01-28 12:31:07.06	264.87	15.04	-30.1	-32.6	13.4	3.00e-06	0	43	0	349175808	21	4843
2026-01-28 12:31:08.07	265.08	15.06	-30.2	-33.1	13.1	2.59e-05	0	43	0	351272960	21	4997
2026-01-28 12:31:09.07	265.29	15.08	-30.2	-33.0	13.2	2.74e-05	0	43	0	353370112	21	4968
2026-01-28 12:31:10.07	265.50	15.11	-30.3	-33.3	13.0	2.51e-05	0	43	0	355467264	21	5096
2026-01-28 12:31:11.07	265.71	15.13	-30.3	-33.3	13.0	4.73e-05	0	43	0	357564416	21	5074
2026-01-28 12:31:12.08	265.92	15.15	-30.4	-33.6	12.8	4.65e-05	0	43	0	358612992	21	5204
2026-01-28 12:31:13.08	266.13	15.17	-30.5	-33.9	12.6	7.17e-05	0	43	0	360710144	21	5305
2026-01-28 12:31:14.09	266.34	15.19	-30.5	-34.0	12.5	1.24e-04	0	43	0	362807296	21	5342
2026-01-28 12:31:15.09	266.55	15.21	-30.5	-33.8	12.7	7.70e-05	0	43	0	364904448	21	5278
2026-01-28 12:31:16.09	266.76	15.23	-30.5	-33.8	12.7	7.24e-05	0	43	0	365953024	21	5263
2026-01-28 12:31:17.10	266.97	15.25	-30.6	-34.0	12.5	8.69e-05	0	43	0	368050176	21	5360
2026-01-28 12:31:18.10	267.18	15.27	-30.5	-33.8	12.7	7.70e-05	0	43	0	370147328	21	5267
2026-01-28 12:31:19.11	267.40	15.29	-30.5	-33.7	12.8	8.31e-05	0	43	0	372244480	21	5235
2026-01-28 12:31:20.10	267.61	15.31	-30.5	-33.9	12.6	8.16e-05	0	43	0	374341632	21	5298
2026-01-28 12:31:21.10	267.82	15.33	-30.6	-34.1	12.5	1.23e-04	0	43	0	375390208	21	5392
2026-01-28 12:31:22.11	268.03	15.35	-30.6	-34.1	12.6	9.15e-05	0	43	0	377487360	21	5369
2026-01-28 12:31:23.11	268.24	15.36	-30.7	-34.3	12.3	1.48e-04	0	43	0	379584512	21	5483
2026-01-28 12:31:24.11	268.46	15.38	-30.5	-33.9	12.6	1.22e-04	0	43	0	381681664	21	5307
2026-01-28 12:31:25.12	268.67	15.40	-30.6	-34.0	12.6	1.03e-04	0	43	0	383778816	21	5346
2026-01-28 12:31:26.12	268.88	15.42	-30.6	-34.2	12.4	1.22e-04	0	43	0	384827392	21	5417
2026-01-28 12:31:27.13	269.10	15.43	-30.6	-34.1	12.5	1.07e-04	0	43	0	386924544	21	5384
2026-01-28 12:31:28.14	269.31	15.45	-30.6	-34.2	12.5	1.13e-04	0	43	0	389021696	21	5416
2026-01-28 12:31:29.14	269.53	15.46	-30.6	-34.2	12.5	1.20e-04	0	43	0	391118848	21	5405
2026-01-28 12:31:30.14	269.74	15.48	-30.6	-34.1	12.5	1.36e-04	0	43	0	393216000	21	5404
2026-01-28 12:31:31.15	269.96	15.49	-30.5	-33.8	12.7	7.40e-05	0	43	0	394264576	21	5253
2026-01-28 12:31:32.16	270.17	15.51	-30.5	-33.8	12.8	9.61e-05	0	43	0	396361728	21	5255
2026-01-28 12:31:33.16	270.39	15.52	-30.5	-33.8	12.8	5.95e-05	0	43	0	398458880	21	5243
2026-01-28 12:31:34.16	270.60	15.54	-30.6	-34.0	12.6	7.62e-05	0	43	0	400556032	21	5357
2026-01-28 12:31:35.17	270.82	15.55	-30.5	-33.9	12.8	5.95e-05	0	43	0	402653184	21	5281
2026-01-28 12:31:36.18	271.03	15.56	-30.6	-33.9	12.7	6.63e-05	0	43	0	403701760	21	5306
2026-01-28 12:31:37.18	271.25	15.57	-30.6	-33.9	12.7	8.77e-05	0	43	0	405798912	21	5315
2026-01-28 12:31:38.18	271.46	15.59	-30.6	-34.0	12.6	8.08e-05	0	43	0	407896064	21	5342
2026-01-28 12:31:39.19	271.68	15.60	-30.6	-34.0	12.6	7.47e-05	0	43	0	409993216	21	5322
2026-01-28 12:31:40.19	271.90	15.61	-30.6	-34.0	12.7	8.62e-05	0	43	0	412090368	21	5326
2026-01-28 12:31:41.19	272.11	15.62	-30.6	-34.1	12.6	8.62e-05	0	43	0	413138944	21	5377
2026-01-28 12:31:42.19	272.33	15.63	-30.4	-33.5	12.9	6.25e-05	0	43	0	415236096	21	5154
2026-01-28 12:31:43.19	272.54	15.64	-30.3	-33.2	13.2	2.36e-05	0	43	0	417333248	21	5009
2026-01-28 12:31:44.20	272.76	15.65	-30.3	-33.1	13.2	3.20e-05	0	43	0	419430400	21	5002
2026-01-28 12:31:45.20	272.98	15.66	-30.4	-33.4	13.1	3.58e-05	0	43	0	420478976	21	5113
2026-01-28 12:31:46.20	273.20	15.67	-30.3	-33.2	13.2	2.21e-05	0	43	0	422576128	21	5008
2026-01-28 12:31:47.21	273.41	15.68	-30.4	-33.4	13.1	2.82e-05	0	43	0	424673280	21	5087
2026-01-28 12:31:48.22	273.63	15.69	-30.3	-33.2	13.2	2.28e-05	0	43	0	426770432	21	5022
2026-01-28 12:31:49.23	273.85	15.70	-30.4	-33.4	13.0	2.89e-05	0	43	0	428867584	21	5109
2026-01-28 12:31:50.23	274.07	15.70	-30.3	-33.1	13.2	2.67e-05	0	43	0	430964736	21	4990
2026-01-28 12:31:51.24	274.29	15.71	-30.3	-33.2	13.2	2.13e-05	0	43	0	432013312	21	5007
2026-01-28 12:31:52.24	274.50	15.72	-30.3	-33.3	13.1	2.89e-05	0	43	0	434110464	21	5061
2026-01-28 12:31:53.24	274.72	15.73	-30.3	-33.3	13.1	2.21e-05	0	43	0	436207616	21	5052
2026-01-28 12:31:54.24	274.94	15.73	-30.3	-33.4	13.0	2.51e-05	0	43	0	438304768	21	5089
2026-01-28 12:31:55.24	275.15	15.74	-30.4	-33.3	13.0	3.35e-05	0	43	0	439353344	21	5083
2026-01-28 12:31:56.24	275.37	15.74	-30.3	-33.1	13.2	2.89e-05	0	43	0	441450496	21	5009
2026-01-28 12:31:57.24	275.59	15.75	-30.3	-33.2	13.2	2.13e-05	0	43	0	443547648	21	5020
2026-01-28 12:31:58.23	275.80	15.75	-30.3	-33.3	13.1	3.81e-05	0	43	0	445644800	21	5067
2026-01-28 12:31:59.24	276.02	15.76	-30.3	-33.1	13.2	3.05e-05	0	43	0	447741952	21	4999
2026-01-28 12:32:00.24	276.24	15.76	-30.2	-33.0	13.3	1.90e-05	0	43	0	448790528	21	4965
2026-01-28 12:32:01.24	276.46	15.76	-30.4	-33.5	13.0	1.37e-05	0	43	0	450887680	21	5127
2026-01-28 12:32:02.24	276.68	15.77	-30.5	-33.9	12.7	5.72e-05	0	43	0	452984832	21	5296
2026-01-28 12:32:03.25	276.90	15.77	-30.5	-33.9	12.7	9.07e-05	0	43	0	455081984	21	5287
2026-01-28 12:32:04.25	277.11	15.77	-30.4	-33.6	12.9	6.86e-05	0	43	0	457179136	21	5191
2026-01-28 12:32:05.25	277.33	15.77	-30.5	-33.7	12.8	6.25e-05	0	43	0	458227712	21	5232
2026-01-28 12:32:06.26	277.55	15.78	-30.5	-33.7	12.8	6.40e-05	0	43	0	460324864	21	5226
2026-01-28 12:32:07.26	277.77	15.78	-30.6	-34.1	12.6	5.26e-05	0	43	0	462422016	21	5376
2026-01-28 12:32:08.27	277.99	15.78	-30.6	-34.0	12.6	1.02e-04	0	43	0	464519168	21	5333
2026-01-28 12:32:09.27	278.21	15.78	-30.6	-33.9	12.7	5.56e-05	0	43	0	466616320	21	5320
2026-01-28 12:32:10.28	278.43	15.78	-30.7	-34.3	12.4	1.29e-04	0	43	0	467664896	21	5477
2026-01-28 12:32:11.28	278.64	15.78	-30.5	-33.7	12.8	1.21e-04	0	43	0	469762048	21	5224
2026-01-28 12:32:12.28	278.86	15.78	-30.4	-33.4	13.0	3.89e-05	0	43	0	471859200	21	5113
2026-01-28 12:32:13.28	279.08	15.77	-30.3	-33.3	13.1	2.97e-05	0	43	0	473956352	21	5068
2026-01-28 12:32:14.29	279.30	15.77	-30.3	-33.3	13.1	2.74e-05	0	43	0	476053504	21	5059
2026-01-28 12:32:15.29	279.52	15.77	-30.4	-33.6	13.0	4.42e-05	0	43	0	477102080	21	5163
2026-01-28 12:32:16.29	279.73	15.77	-30.5	-33.9	12.7	6.40e-05	0	43	0	479199232	21	5305
2026-01-28 12:32:17.30	279.95	15.77	-30.5	-33.9	12.6	9.61e-05	0	43	0	481296384	21	5317
2026-01-28 12:32:18.30	280.17	15.76	-30.3	-33.2	13.2	4.95e-05	0	43	0	483393536	21	5026
2026-01-28 12:32:19.30	280.39	15.76	-30.2	-32.8	13.4	1.06e-05	0	43	0	484442112	21	4893
2026-01-28 12:32:20.31	280.61	15.75	-30.0	-32.5	13.6	3.80e-06	0	43	0	486539264	21	4777
2026-01-28 12:32:21.31	280.83	15.75	-30.0	-32.3	13.8	4.50e-06	0	43	0	488636416	21	4704
2026-01-28 12:32:22.32	281.05	15.75	-29.9	-32.1	13.8	5.30e-06	0	43	0	490733568	21	4648
2026-01-28 12:32:23.32	281.26	15.74	-30.0	-32.3	13.7	4.50e-06	0	43	0	492830720	21	4697
2026-01-28 12:32:24.33	281.48	15.73	-30.0	-32.5	13.6	6.80e-06	0	43	0	493879296	21	4777
2026-01-28 12:32:25.34	281.70	15.73	-30.1	-32.7	13.5	2.20e-06	0	43	0	495976448	21	4831
2026-01-28 12:32:26.35	281.92	15.72	-30.1	-32.8	13.4	1.29e-05	0	43	0	498073600	21	4883
2026-01-28 12:32:27.35	282.14	15.72	-30.2	-32.8	13.4	1.06e-05	0	43	0	500170752	21	4908
2026-01-28 12:32:28.35	282.35	15.71	-30.2	-33.0	13.3	1.83e-05	0	43	0	502267904	21	4957
2026-01-28 12:32:29.36	282.57	15.70	-30.1	-32.8	13.4	1.60e-05	0	43	0	503316480	21	4868
2026-01-28 12:32:30.36	282.79	15.69	-30.2	-32.9	13.4	1.14e-05	0	43	0	505413632	21	4906
2026-01-28 12:32:31.37	283.01	15.69	-30.2	-32.9	13.4	1.52e-05	0	43	0	507510784	21	4909
2026-01-28 12:32:32.36	283.22	15.68	-30.2	-33.1	13.2	1.06e-05	0	43	0	509607936	21	4978
2026-01-28 12:32:33.36	283.44	15.67	-30.3	-33.3	13.1	3.73e-05	0	43	0	511705088	21	5053
2026-01-28 12:32:34.37	283.66	15.66	-30.2	-33.0	13.3	2.13e-05	0	43	0	512753664	21	4957
2026-01-28 12:32:35.38	283.87	15.65	-30.2	-32.9	13.3	1.22e-05	0	43	0	514850816	21	4936
2026-01-28 12:32:36.39	284.09	15.64	-30.2	-32.9	13.4	2.05e-05	0	43	0	516947968	21	4925
2026-01-28 12:32:37.39	284.31	15.63	-30.2	-33.0	13.3	1.67e-05	0	43	0	519045120	21	4942
2026-01-28 12:32:38.40	284.52	15.62	-30.3	-33.3	13.1	3.66e-05	0	43	0	521142272	21	5071
2026-01-28 12:32:39.41	284.74	15.61	-30.1	-32.7	13.4	1.83e-05	0	43	0	522190848	21	4847
2026-01-28 12:32:40.41	284.96	15.59	-30.0	-32.3	13.7	1.14e-05	0	43	0	524288000	21	4715
2026-01-28 12:32:41.41	285.17	15.58	-30.0	-32.4	13.7	3.80e-06	0	43	0	526385152	21	4752
2026-01-28 12:32:42.42	285.39	15.57	-30.0	-32.5	13.6	4.50e-06	0	43	0	528482304	21	4763
2026-01-28 12:32:43.43	285.60	15.56	-30.1	-32.6	13.5	1.22e-05	0	43	0	530579456	21	4829
2026-01-28 12:32:44.42	285.82	15.54	-30.2	-32.8	13.3	1.98e-05	0	43	0	531628032	21	4895
2026-01-28 12:32:45.43	286.03	15.53	-30.2	-33.1	13.2	2.28e-05	0	43	0	533725184	21	4986
2026-01-28 12:32:46.43	286.25	15.52	-30.3	-33.1	13.1	3.66e-05	0	43	0	535822336	21	5008
2026-01-28 12:32:47.43	286.46	15.50	-30.2	-33.1	13.2	2.74e-05	0	43	0	537919488	21	4994
2026-01-28 12:32:48.44	286.68	15.49	-30.2	-33.0	13.3	1.98e-05	0	43	0	540016640	21	4952
2026-01-28 12:32:49.44	286.89	15.47	-30.1	-32.7	13.4	1.75e-05	0	43	0	541065216	21	4860
2026-01-28 12:32:50.44	287.10	15.46	-30.1	-32.6	13.5	1.06e-05	0	43	0	543162368	21	4832
2026-01-28 12:32:51.44	287.32	15.44	-30.1	-32.6	13.5	1.22e-05	0	43	0	545259520	21	4815
2026-01-28 12:32:52.45	287.53	15.42	-30.2	-32.9	13.3	1.29e-05	0	43	0	547356672	21	4925
2026-01-28 12:32:53.45	287.74	15.41	-30.3	-33.2	13.0	3.12e-05	0	43	0	549453824	21	5058
2026-01-28 12:32:54.46	287.96	15.39	-30.2	-33.0	13.2	2.82e-05	0	43	0	550502400	21	4967
2026-01-28 12:32:55.47	288.17	15.37	-30.3	-33.2	13.1	2.21e-05	0	43	0	552599552	21	5038
2026-01-28 12:32:56.47	288.38	15.36	-30.4	-33.5	12.9	4.80e-05	0	43	0	554696704	21	5150
2026-01-28 12:32:57.47	288.59	15.34	-30.2	-33.0	13.2	2.67e-05	0	43	0	556793856	21	4979
2026-01-28 12:32:58.48	288.81	15.32	-30.2	-32.9	13.3	2.28e-05	0	43	0	558891008	21	4935
2026-01-28 12:32:59.48	289.02	15.30	-30.2	-33.0	13.2	2.13e-05	0	43	0	559939584	21	4966
2026-01-28 12:33:00.49	289.23	15.28	-30.2	-33.1	13.1	2.05e-05	0	43	0	562036736	21	5021
2026-01-28 12:33:01.49	289.44	15.26	-30.2	-33.1	13.1	3.28e-05	0	43	0	564133888	21	4998
2026-01-28 12:33:02.49	289.65	15.24	-30.0	-32.5	13.5	1.14e-05	0	43	0	566231040	21	4791
2026-01-28 12:33:03.50	289.86	15.22	-29.9	-32.1	13.8	1.50e-06	0	43	0	567279616	21	4661
2026-01-28 12:33:04.50	290.07	15.20	-29.9	-32.2	13.8	3.80e-06	0	43	0	569376768	21	4679
2026-01-28 12:33:05.50	290.28	15.18	-29.9	-32.2	13.7	6.80e-06	0	43	0	571473920	21	4686
2026-01-28 12:33:06.51	290.49	15.16	-30.1	-32.6	13.5	9.90e-06	0	43	0	573571072	21	4807
2026-01-28 12:33:07.51	290.70	15.14	-30.1	-32.7	13.4	2.44e-05	0	43	0	575668224	21	4869
2026-01-28 12:33:08.51	290.91	15.12	-30.0	-32.5	13.5	1.06e-05	0	43	0	576716800	21	4782
2026-01-28 12:33:09.51	291.12	15.10	-30.0	-32.3	13.6	8.30e-06	0	43	0	578813952	21	4733
2026-01-28 12:33:10.52	291.33	15.07	-29.9	-32.2	13.7	7.60e-06	0	43	0	580911104	21	4689
2026-01-28 12:33:11.53	291.54	15.05	-29.8	-32.0	13.8	5.30e-06	0	43	0	583008256	21	4620
2026-01-28 12:33:12.54	291.75	15.03	-29.9	-32.1	13.8	6.10e-06	0	43	0	585105408	21	4635
2026-01-28 12:33:13.54	291.95	15.01	-29.9	-32.1	13.8	3.80e-06	0	43	0	586153984	21	4663
2026-01-28 12:33:14.55	292.16	14.98	-29.8	-32.0	13.9	6.10e-06	0	43	0	588251136	21	4615
2026-01-28 12:33:15.55	292.37	14.96	-29.7	-32.2	14.0	7.00e-07	0	43	0	590348288	20	4796
2026-01-28 12:33:16.55	292.57	14.93	-29.7	-32.0	14.1	1.50e-06	0	43	0	592445440	20	4735
2026-01-28 12:33:17.56	292.78	14.91	-29.8	-32.3	14.0	2.20e-06	0	43	0	594542592	20	4818
2026-01-28 12:33:18.56	292.99	14.88	-29.8	-32.3	14.0	3.00e-06	0	43	0	595591168	20	4809
2026-01-28 12:33:19.56	293.19	14.86	-29.9	-32.5	13.9	5.30e-06	0	43	0	597688320	20	4900
2026-01-28 12:33:20.56	293.40	14.83	-29.9	-32.5	13.9	5.30e-06	0	43	0	599785472	20	4876
2026-01-28 12:33:21.56	293.60	14.81	-29.7	-32.2	14.0	3.00e-06	0	44	0	601882624	20	4795
2026-01-28 12:33:22.56	293.80	14.78	-29.9	-32.5	13.8	1.50e-06	0	43	0	603979776	20	4897
2026-01-28 12:33:23.56	294.01	14.75	-29.9	-32.5	13.9	5.30e-06	0	43	0	605028352	20	4900
2026-01-28 12:33:24.57	294.21	14.73	-29.9	-32.6	13.8	3.80e-06	0	43	0	607125504	20	4919
2026-01-28 12:33:25.57	294.42	14.70	-29.9	-32.8	13.6	9.10e-06	0	43	0	609222656	20	5003
2026-01-28 12:33:26.58	294.62	14.67	-30.0	-32.9	13.5	4.50e-06	0	43	0	611319808	20	5051
2026-01-28 12:33:27.59	294.82	14.65	-29.9	-32.6	13.8	1.37e-05	0	43	0	613416960	20	4939
2026-01-28 12:33:28.59	295.03	14.62	-29.8	-32.3	13.9	5.30e-06	0	43	0	614465536	20	4823
2026-01-28 12:33:29.60	295.23	14.59	-29.7	-32.1	14.1	3.80e-06	0	43	0	616562688	20	4749
2026-01-28 12:33:30.60	295.43	14.56	-29.6	-31.9	14.2	7.00e-07	0	43	0	618659840	20	4674
2026-01-28 12:33:31.60	295.63	14.53	-29.6	-31.8	14.3	2.20e-06	0	43	0	620756992	20	4656
2026-01-28 12:33:32.60	295.83	14.50	-29.6	-32.0	14.2	1.50e-06	0	43	0	622854144	20	4712
2026-01-28 12:33:33.61	296.03	14.47	-29.5	-31.7	14.3	1.50e-06	0	43	0	623902720	20	4636
2026-01-28 12:33:34.61	296.23	14.44	-29.5	-31.6	14.4	1.50e-06	0	43	0	625999872	20	4589
2026-01-28 12:33:35.62	296.43	14.41	-29.3	-31.1	14.7	0.00e+00	0	43	0	628097024	20	4430
2026-01-28 12:33:36.63	296.63	14.38	-29.5	-31.5	14.5	1.50e-06	0	43	0	630194176	20	4568
2026-01-28 12:33:37.63	296.83	14.35	-29.4	-31.4	14.5	0.00e+00	0	43	0	632291328	20	4529
2026-01-28 12:33:38.63	297.03	14.32	-29.3	-31.2	14.6	0.00e+00	0	43	0	633339904	20	4471
2026-01-28 12:33:39.63	297.23	14.29	-29.5	-31.5	14.4	2.20e-06	0	43	0	635437056	20	4564
2026-01-28 12:33:40.63	297.42	14.26	-29.6	-31.8	14.3	5.30e-06	0	43	0	637534208	20	4644
2026-01-28 12:33:41.64	297.62	14.23	-29.6	-31.9	14.2	7.00e-07	0	43	0	639631360	20	4688
2026-01-28 12:33:42.65	297.82	14.19	-29.6	-31.9	14.2	3.00e-06	0	43	0	640679936	20	4704
2026-01-28 12:33:43.65	298.01	14.16	-29.7	-32.2	14.0	7.00e-07	0	43	0	642777088	20	4800
2026-01-28 12:33:44.66	298.21	14.13	-29.8	-32.4	13.9	2.20e-06	0	43	0	644874240	20	4871
2026-01-28 12:33:45.66	298.41	14.10	-29.8	-32.6	13.8	5.30e-06	0	43	0	646971392	20	4928
2026-01-28 12:33:46.67	298.60	14.06	-29.8	-32.4	13.9	1.50e-06	0	43	0	649068544	20	4850
2026-01-28 12:33:47.67	298.80	14.03	-29.9	-32.7	13.7	8.30e-06	0	43	0	651165696	20	4962
2026-01-28 12:33:48.67	298.99	14.00	-29.8	-32.4	13.9	5.30e-06	0	43	0	652214272	20	4876
2026-01-28 12:33:49.68	299.19	13.96	-29.7	-32.1	14.1	3.00e-06	0	43	0	654311424	20	4746
2026-01-28 12:33:50.68	299.38	13.93	-29.7	-32.1	14.1	1.50e-06	0	43	0	656408576	20	4745
2026-01-28 12:33:51.68	299.57	13.90	-29.6	-32.0	14.2	5.30e-06	0	43	0	658505728	20	4710
2026-01-28 12:33:52.69	299.76	13.86	-29.8	-32.3	14.0	1.50e-06	0	43	0	659554304	20	4833
2026-01-28 12:33:53.70	299.96	13.83	-29.7	-32.0	14.1	3.80e-06	0	43	0	661651456	20	4736
2026-01-28 12:33:54.70	300.15	13.79	-29.6	-31.8	14.3	1.50e-06	0	43	0	663748608	20	4642
2026-01-28 12:33:55.71	300.34	13.75	-29.5	-31.7	14.3	0.00e+00	0	43	0	665845760	20	4611
2026-01-28 12:33:56.71	300.53	13.72	-29.5	-31.6	14.4	7.00e-07	0	43	0	667942912	20	4604
2026-01-28 12:33:57.71	300.72	13.68	-29.6	-31.8	14.3	7.00e-07	0	43	0	668991488	20	4655
2026-01-28 12:33:58.71	300.91	13.65	-29.7	-32.1	14.1	2.20e-06	0	43	0	671088640	20	4752
2026-01-28 12:33:59.72	301.10	13.61	-29.8	-32.3	14.0	2.20e-06	0	43	0	673185792	20	4821
2026-01-28 12:34:00.72	301.29	13.58	-29.9	-32.6	13.8	4.50e-06	0	43	0	675282944	20	4930
2026-01-28 12:34:01.72	301.48	13.54	-30.0	-32.9	13.6	6.80e-06	0	43	0	677380096	20	5033
2026-01-28 12:34:02.72	301.66	13.50	-30.0	-33.0	13.5	1.14e-05	0	43	0	678428672	20	5085
2026-01-28 12:34:03.72	301.85	13.46	-30.1	-33.1	13.4	1.29e-05	0	43	0	680525824	20	5112
2026-01-28 12:34:04.72	302.04	13.43	-30.2	-33.5	13.2	2.28e-05	0	43	0	682622976	20	5270
2026-01-28 12:34:05.72	302.22	13.39	-30.4	-34.0	12.8	4.65e-05	0	43	0	684720128	20	5468
2026-01-28 12:34:06.72	302.41	13.35	-30.3	-33.9	12.9	4.50e-05	0	43	0	686817280	20	5426
2026-01-28 12:34:07.72	302.59	13.31	-30.3	-33.8	13.0	3.73e-05	0	43	0	687865856	20	5369
2026-01-28 12:34:08.72	302.78	13.28	-30.3	-33.7	13.0	4.34e-05	0	43	0	689963008	20	5359
2026-01-28 12:34:09.73	302.96	13.24	-30.3	-33.8	13.0	3.66e-05	0	43	0	692060160	20	5382
2026-01-28 12:34:10.73	303.15	13.20	-30.3	-33.7	13.0	5.18e-05	0	43	0	694157312	20	5361
2026-01-28 12:34:11.73	303.33	13.16	-30.5	-34.3	12.5	5.72e-05	0	43	0	696254464	20	5617
2026-01-28 12:34:12.73	303.51	13.12	-30.4	-34.1	12.7	1.04e-04	0	43	0	697303040	20	5504
2026-01-28 12:34:13.74	303.70	13.08	-30.3	-33.8	13.0	4.80e-05	0	43	0	699400192	20	5374
2026-01-28 12:34:14.74	303.88	13.04	-30.2	-33.5	13.2	2.82e-05	0	43	0	701497344	20	5276
2026-01-28 12:34:15.74	304.06	13.00	-30.2	-33.5	13.2	2.51e-05	0	43	0	703594496	20	5259
2026-01-28 12:34:16.75	304.24	12.96	-30.1	-33.4	13.2	2.44e-05	0	43	0	704643072	20	5217
2026-01-28 12:34:17.75	304.42	12.92	-30.2	-33.5	13.2	1.90e-05	0	43	0	706740224	20	5285
2026-01-28 12:34:18.76	304.60	12.88	-30.2	-33.6	13.1	2.59e-05	0	43	0	708837376	20	5296
2026-01-28 12:34:19.76	304.78	12.84	-30.3	-33.9	12.9	2.74e-05	0	43	0	710934528	20	5439
2026-01-28 12:34:20.75	304.96	12.80	-30.3	-33.9	12.8	4.57e-05	0	43	0	713031680	20	5438
2026-01-28 12:34:21.75	305.14	12.76	-30.5	-34.3	12.6	6.10e-05	0	43	0	714080256	20	5592
2026-01-28 12:34:22.75	305.32	12.72	-30.6	-34.1	12.4	1.37e-04	0	43	0	716177408	21	5424
2026-01-28 12:34:23.75	305.49	12.68	-30.7	-34.6	12.1	2.43e-04	0	43	0	718274560	21	5594
2026-01-28 12:34:24.76	305.67	12.64	-30.9	-35.0	11.7	4.47e-04	0	43	0	720371712	21	5816
2026-01-28 12:34:25.76	305.85	12.60	-30.9	-35.1	11.7	7.44e-04	0	43	0	722468864	21	5856
2026-01-28 12:34:26.76	306.03	12.56	-31.1	-35.2	11.3	7.80e-04	0	43	0	723517440	22	5777
2026-01-28 12:34:27.76	306.20	12.51	-31.3	-36.0	10.8	2.15e-03	0	43	0	725614592	22	6127
2026-01-28 12:34:28.75	306.37	12.47	-31.3	-35.9	10.7	3.73e-03	0	43	0	727711744	22	6099
2026-01-28 12:34:29.75	306.55	12.43	-31.3	-35.8	10.9	2.27e-03	0	43	0	729808896	22	6038
2026-01-28 12:34:30.76	306.72	12.39	-31.2	-35.7	10.9	2.14e-03	0	43	0	731906048	22	5989
2026-01-28 12:34:31.76	306.90	12.35	-31.3	-35.8	10.8	2.18e-03	0	43	0	732954624	22	6064
2026-01-28 12:34:32.76	307.07	12.30	-31.3	-36.0	10.7	2.82e-03	0	43	0	735051776	22	6165
2026-01-28 12:34:33.77	307.25	12.26	-31.4	-36.2	10.6	3.37e-03	0	43	0	737148928	22	6232
2026-01-28 12:34:34.77	307.42	12.22	-31.5	-36.1	10.2	4.92e-03	0	44	0	739246080	23	6083
2026-01-28 12:34:35.77	307.59	12.17	-31.5	-36.0	10.3	5.33e-03	0	43	0	741343232	23	6058
2026-01-28 12:34:36.77	307.76	12.13	-31.5	-36.0	10.3	4.86e-03	0	43	0	742391808	23	6036
2026-01-28 12:34:37.78	307.93	12.09	-31.5	-36.0	10.3	5.76e-03	0	43	0	744488960	23	6055
2026-01-28 12:34:38.78	308.10	12.04	-31.5	-35.9	10.4	4.59e-03	0	43	0	746586112	23	6001
2026-01-28 12:34:39.79	308.27	12.00	-31.4	-35.8	10.5	5.79e-03	0	43	0	748683264	23	5950
2026-01-28 12:34:40.80	308.44	11.96	-31.4	-35.8	10.4	3.91e-03	0	43	0	749731840	23	5964
2026-01-28 12:34:41.80	308.61	11.91	-31.5	-36.2	10.1	5.29e-03	0	43	0	751828992	23	6164
2026-01-28 12:34:42.81	308.78	11.87	-31.5	-36.0	10.3	6.26e-03	0	43	0	753926144	23	6034
2026-01-28 12:34:43.81	308.95	11.82	-31.4	-35.6	10.6	3.70e-03	0	43	0	756023296	23	5838
2026-01-28 12:34:44.82	309.12	11.78	-31.2	-35.1	10.9	2.52e-03	0	43	0	758120448	23	5644
2026-01-28 12:34:45.82	309.29	11.73	-31.3	-35.5	10.7	2.24e-03	0	43	0	760217600	23	5796
2026-01-28 12:34:46.82	309.45	11.69	-31.3	-35.5	10.7	2.98e-03	0	43	0	761266176	23	5789
2026-01-28 12:34:47.83	309.62	11.64	-31.5	-36.0	10.2	4.57e-03	0	44	0	763363328	23	6077
2026-01-28 12:34:48.83	309.78	11.60	-31.5	-36.2	10.1	6.77e-03	0	43	0	765460480	23	6157
2026-01-28 12:34:49.84	309.95	11.55	-31.7	-36.7	9.8	7.87e-03	0	43	0	767557632	23	6438
2026-01-28 12:34:50.84	310.11	11.51	-31.7	-36.7	9.7	1.38e-02	0	43	0	768606208	23	6404
2026-01-28 12:34:51.84	310.28	11.46	-31.9	-37.6	9.0	1.65e-02	0	43	0	770703360	23	6939
2026-01-28 12:34:52.84	310.44	11.42	-31.9	-37.4	9.2	2.48e-02	0	43	0	772800512	23	6836
2026-01-28 12:34:53.85	310.61	11.37	-31.9	-37.5	9.1	2.08e-02	0	43	0	774897664	23	6896
2026-01-28 12:34:54.85	310.77	11.33	-31.9	-37.7	8.9	3.02e-02	0	43	0	776994816	23	7030
2026-01-28 12:34:55.86	310.93	11.28	-31.8	-37.2	9.2	2.61e-02	0	44	0	778043392	23	6736
2026-01-28 12:34:56.87	311.09	11.24	-31.7	-36.7	9.6	1.76e-02	0	43	0	780140544	23	6448
2026-01-28 12:34:57.87	311.26	11.19	-31.6	-36.3	10.0	9.43e-03	0	43	0	782237696	23	6208
2026-01-28 12:34:58.87	311.42	11.14	-31.6	-36.5	9.9	8.41e-03	0	44	0	784334848	23	6298
2026-01-28 12:34:59.87	311.58	11.10	-31.5	-36.1	10.1	8.51e-03	0	43	0	786432000	23	6145
2026-01-28 12:35:00.88	311.74	11.05	-31.4	-35.6	10.5	4.87e-03	0	43	0	787480576	23	5873
2026-01-28 12:35:01.88	311.89	11.00	-31.2	-35.1	10.9	2.83e-03	0	43	0	789577728	23	5632
2026-01-28 12:35:02.88	312.05	10.96	-31.1	-34.9	11.0	1.90e-03	0	43	0	791674880	23	5556
2026-01-28 12:35:03.89	312.21	10.91	-31.1	-34.9	11.0	1.78e-03	0	43	0	793772032	23	5555
2026-01-28 12:35:04.89	312.37	10.86	-31.2	-35.0	11.0	1.75e-03	0	43	0	795869184	23	5589
2026-01-28 12:35:05.89	312.53	10.82	-31.2	-35.1	10.9	2.08e-03	0	43	0	796917760	23	5632
2026-01-28 12:35:06.89	312.68	10.77	-31.2	-35.2	10.8	2.30e-03	0	43	0	799014912	23	5702
2026-01-28 12:35:07.90	312.84	10.72	-31.0	-34.6	11.2	1.60e-03	0	43	0	801112064	23	5441
2026-01-28 12:35:08.90	313.00	10.68	-30.9	-34.3	11.4	1.08e-03	0	43	0	803209216	23	5286
2026-01-28 12:35:09.90	313.15	10.63	-30.9	-34.2	11.5	7.45e-04	0	43	0	805306368	23	5270
2026-01-28 12:35:10.91	313.31	10.58	-30.9	-34.3	11.4	8.32e-04	0	43	0	806354944	23	5294
2026-01-28 12:35:11.91	313.46	10.53	-31.1	-34.7	11.1	1.34e-03	0	44	0	808452096	23	5491
2026-01-28 12:35:12.91	313.61	10.49	-30.9	-34.3	11.4	1.29e-03	0	43	0	810549248	23	5290
2026-01-28 12:35:13.92	313.77	10.44	-31.0	-34.5	11.2	1.19e-03	0	43	0	812646400	23	5391
2026-01-28 12:35:14.92	313.92	10.39	-30.9	-34.2	11.4	1.14e-03	0	43	0	814743552	23	5274
2026-01-28 12:35:15.93	314.07	10.34	-30.9	-34.3	11.4	9.86e-04	0	44	0	815792128	23	5295
2026-01-28 12:35:16.93	314.23	10.30	-31.0	-34.6	11.1	1.17e-03	0	43	0	817889280	23	5448
2026-01-28 12:35:17.92	314.38	10.25	-31.0	-34.5	11.1	1.54e-03	0	43	0	819986432	23	5391
2026-01-28 12:35:18.93	314.53	10.20	-31.1	-34.9	10.9	2.15e-03	0	43	0	822083584	23	5558
2026-01-28 12:35:19.93	314.68	10.15	-31.2	-35.3	10.5	2.92e-03	0	43	0	823132160	23	5768
2026-01-28 12:35:20.93	314.83	10.10	-31.1	-34.9	10.8	2.81e-03	0	43	0	825229312	23	5579
2026-01-28 12:35:21.94	314.98	10.05	-31.0	-34.7	11.0	1.77e-03	0	44	0	827326464	23	5469
2026-01-28 12:35:22.94	315.13	10.01	-31.0	-34.5	11.1	1.70e-03	0	43	0	829423616	23	5409
2026-01-28 12:35:23.94	315.27	9.96	-31.1	-34.9	10.9	1.65e-03	0	43	0	831520768	23	5544
2026-01-28 12:35:24.95	315.42	9.91	-31.1	-34.8	11.0	1.97e-03	0	43	0	832569344	23	5514
2026-01-28 12:35:25.96	315.57	9.86	-30.9	-34.3	11.3	1.43e-03	0	43	0	834666496	23	5312
2026-01-28 12:35:26.97	315.72	9.81	-31.0	-34.4	11.3	1.30e-03	0	43	0	836763648	23	5351
2026-01-28 12:35:27.97	315.87	9.76	-30.9	-34.2	11.4	1.05e-03	0	43	0	838860800	23	5261
2026-01-28 12:35:28.97	316.01	9.71	-31.0	-34.5	11.2	1.16e-03	0	43	0	840957952	23	5396
2026-01-28 12:35:29.98	316.16	9.67	-30.8	-33.8	11.6	1.05e-03	0	43	0	842006528	23	5112
2026-01-28 12:35:30.99	316.30	9.62	-30.6	-33.8	12.0	3.39e-04	0	43	0	844103680	22	5200
2026-01-28 12:35:31.99	316.45	9.57	-30.5	-33.5	12.3	2.03e-04	0	43	0	846200832	22	5087
2026-01-28 12:35:32.99	316.59	9.52	-30.4	-33.1	12.5	1.33e-04	0	43	0	848297984	22	4949
2026-01-28 12:35:33.99	316.74	9.47	-30.4	-33.2	12.4	1.22e-04	0	43	0	850395136	22	4970
2026-01-28 12:35:34.99	316.88	9.42	-30.4	-33.3	12.3	1.79e-04	0	43	0	851443712	22	5024
2026-01-28 12:35:35.99	317.02	9.37	-30.3	-33.0	12.6	1.22e-04	0	43	0	853540864	22	4884
2026-01-28 12:35:37.00	317.17	9.32	-30.4	-33.3	12.3	1.33e-04	0	43	0	855638016	22	5010
2026-01-28 12:35:38.00	317.31	9.27	-30.4	-33.1	12.4	1.65e-04	0	43	0	857735168	22	4954
2026-01-28 12:35:39.01	317.45	9.22	-30.6	-33.8	11.9	2.61e-04	0	43	0	859832320	22	5200
2026-01-28 12:35:40.01	317.59	9.17	-30.5	-33.6	12.0	3.24e-04	0	43	0	860880896	22	5149
2026-01-28 12:35:41.01	317.73	9.12	-30.7	-34.2	11.6	5.05e-04	0	43	0	862978048	22	5375
2026-01-28 12:35:42.01	317.87	9.08	-30.6	-34.0	11.8	6.15e-04	0	43	0	865075200	22	5281
2026-01-28 12:35:43.01	318.01	9.03	-30.7	-34.0	11.8	4.83e-04	0	44	0	867172352	22	5313
2026-01-28 12:35:44.02	318.15	8.98	-30.7	-34.2	11.7	4.91e-04	0	44	0	868220928	22	5358
2026-01-28 12:35:45.02	318.29	8.93	-30.5	-33.7	12.1	2.86e-04	0	44	0	870318080	22	5171
2026-01-28 12:35:46.02	318.43	8.88	-30.5	-33.5	12.2	2.49e-04	0	44	0	872415232	22	5099
2026-01-28 12:35:47.03	318.56	8.83	-30.4	-33.2	12.4	1.94e-04	0	43	0	874512384	22	4973
2026-01-28 12:35:48.03	318.70	8.78	-30.4	-33.2	12.4	1.60e-04	0	43	0	876609536	22	4982
2026-01-28 12:35:49.02	318.84	8.73	-30.5	-33.5	12.1	2.39e-04	0	44	0	878706688	22	5082
2026-01-28 12:35:50.03	318.97	8.68	-30.3	-33.2	12.2	2.91e-04	0	43	0	879755264	22	4974
2026-01-28 12:35:51.02	319.11	8.63	-30.6	-33.8	11.6	3.12e-04	0	44	0	881852416	22	5223
2026-01-28 12:35:52.03	319.24	8.58	-30.5	-33.7	11.8	4.92e-04	0	44	0	883949568	22	5179
2026-01-28 12:35:53.03	319.38	8.53	-30.6	-34.0	11.6	5.12e-04	0	43	0	886046720	22	5292
2026-01-28 12:35:54.03	319.51	8.48	-30.6	-33.9	11.8	5.80e-04	0	43	0	887095296	22	5250
2026-01-28 12:35:55.04	319.65	8.43	-30.6	-33.8	11.8	4.89e-04	0	43	0	889192448	22	5216
2026-01-28 12:35:56.04	319.78	8.38	-30.6	-33.9	11.6	5.40e-04	0	43	0	891289600	22	5254
2026-01-28 12:35:57.04	319.92	8.33	-30.6	-33.9	11.5	8.28e-04	0	43	0	893386752	22	5274
2026-01-28 12:35:58.05	320.05	8.28	-30.6	-34.0	11.4	9.11e-04	0	44	0	895483904	22	5313
2026-01-28 12:35:59.06	320.18	8.23	-30.8	-34.4	11.2	1.37e-03	0	44	0	896532480	22	5500
2026-01-28 12:36:00.06	320.31	8.18	-30.6	-34.0	11.5	1.03e-03	0	44	0	898629632	22	5322
2026-01-28 12:36:01.06	320.45	8.13	-30.5	-33.7	11.9	5.70e-04	0	44	0	900726784	22	5169
2026-01-28 12:36:02.07	320.58	8.08	-30.5	-33.6	12.0	2.43e-04	0	44	0	902823936	22	5138
2026-01-28 12:36:03.07	320.71	8.03	-30.4	-33.5	11.4	4.86e-04	0	44	0	904921088	22	5141
2026-01-28 12:36:04.07	320.84	7.98	-30.2	-33.8	10.7	1.42e-03	0	43	0	905969664	21	5423
2026-01-28 12:36:05.08	320.97	7.93	-30.1	-33.7	9.5	1.03e-02	0	44	0	908066816	21	5476
2026-01-28 12:36:06.08	321.10	7.88	-29.8	-33.8	8.5	2.46e-02	0	44	0	910163968	20	5709
2026-01-28 12:36:07.08	321.23	7.83	-29.6	-33.6	8.1	4.67e-02	0	44	0	912261120	20	5665
2026-01-28 12:36:08.08	321.35	7.78	-29.6	-33.7	7.8	5.40e-02	0	43	0	914358272	20	5745
2026-01-28 12:36:09.08	321.48	7.73	-29.9	-34.2	8.1	6.34e-02	0	43	0	915406848	20	5914
2026-01-28 12:36:10.08	321.61	7.68	-30.1	-34.4	9.0	3.36e-02	0	43	0	917504000	20	5901
2026-01-28 12:36:11.08	321.74	7.63	-30.0	-34.3	8.3	2.41e-02	0	44	0	919601152	20	5926
2026-01-28 12:36:12.08	321.86	7.58	-29.2	-33.7	6.5	1.52e-01	0	44	0	921698304	19	6025
2026-01-28 12:36:13.09	321.99	7.52	-28.7	-33.4	5.7	3.49e-01	0	43	0	923795456	18	6203
2026-01-28 12:36:14.09	322.12	7.47	-28.7	-33.3	5.9	3.91e-01	0	43	0	924844032	18	6094
2026-01-28 12:36:15.10	322.24	7.42	-29.1	-33.9	6.3	2.83e-01	0	43	0	926941184	18	6277
2026-01-28 12:36:16.10	322.37	7.37	-29.4	-34.5	6.9	1.73e-01	0	44	0	929038336	18	6410
2026-01-28 12:36:17.10	322.49	7.32	-29.6	-34.2	7.3	1.24e-01	0	44	0	931135488	19	6096
2026-01-28 12:36:18.10	322.62	7.27	-29.9	-34.5	7.6	1.06e-01	0	44	0	932184064	20	6059
2026-01-28 12:36:19.11	322.74	7.22	-30.0	-34.3	8.4	5.61e-02	0	43	0	934281216	20	5903
2026-01-28 12:36:20.11	322.86	7.17	-30.2	-34.5	9.7	2.04e-02	0	44	0	936378368	20	5878
2026-01-28 12:36:21.11	322.99	7.12	-30.6	-34.9	10.4	6.23e-03	0	43	0	938475520	21	5903
2026-01-28 12:36:22.11	323.11	7.07	-30.8	-35.1	10.8	3.32e-03	0	43	0	940572672	21	5955
2026-01-28 12:36:23.11	323.23	7.02	-33.4	-47.5	3.8	1.49e+00	0	43	104	940572672	26	18265

#Closed at: 2026-01-28 12:36:23
#Recorded file [940 MB]: D:/data/31010_260128_152800.dat