passes_logs/2026/01/28/R2M6_AANII_01/R2M6_AANII_01__20260128_130129_FENGYUN_3D_rec.log

#Pass ID: 20260128_130129_FENGYUN 3D
#Satellite: FENGYUN 3D
#Configuration: FENGYUN 3D
#almurnet v.1.7.20240730
#Start time: 2026-01-28 13:01:30

#Version: 2.2.20231116
#Station: R2M6_AANII_01
#Location: 30.233357 lon 59.946436 lat
#TLE: 1 43010U 17072A   26027.90082829  .00000305  00000+0  16579-3 0  9998
#TLE: 2 43010  98.9960 359.9183 0002511  88.1058 272.0405 14.19701796425082

#Time	Az	El	Level	Level2	SNR	BER	BlckErr	Temp	State	Recorded	gain1	gain2
2026-01-28 13:01:30.99	180.08	7.14	-28.3	-31.0	5.7	7.75e-01	0	41	0	0	16	4902
2026-01-28 13:01:31.99	180.12	7.22	-28.7	-31.0	5.6	7.81e-01	0	41	104	0	18	4654
2026-01-28 13:01:33.00	180.16	7.30	-29.0	-31.6	11.1	2.06e-03	0	41	0	0	18	4854
2026-01-28 13:01:34.00	180.21	7.37	-28.8	-31.0	11.4	1.87e-03	0	41	0	5242880	18	4669
2026-01-28 13:01:35.01	180.25	7.45	-28.1	-29.8	12.5	6.43e-04	0	41	0	11534336	17	4383
2026-01-28 13:01:36.01	180.29	7.53	-27.7	-29.3	13.1	7.78e-05	0	41	0	16777216	16	4345
2026-01-28 13:01:37.01	180.33	7.60	-27.1	-28.6	13.7	4.69e-05	0	41	0	22020096	15	4252
2026-01-28 13:01:38.01	180.38	7.68	-26.9	-28.0	14.1	5.70e-06	0	41	0	28311552	15	4094
2026-01-28 13:01:39.00	180.42	7.76	-26.6	-27.8	14.4	4.50e-06	0	41	0	33554432	14	4146
2026-01-28 13:01:40.00	180.46	7.83	-26.5	-27.7	14.5	0.00e+00	0	41	0	38797312	14	4113
2026-01-28 13:01:41.01	180.51	7.91	-26.3	-27.3	14.8	0.00e+00	0	41	0	45088768	14	4015
2026-01-28 13:01:42.01	180.55	7.99	-26.4	-27.5	14.7	0.00e+00	0	41	0	50331648	14	4068
2026-01-28 13:01:43.02	180.59	8.07	-26.5	-27.6	14.6	0.00e+00	0	41	0	55574528	14	4083
2026-01-28 13:01:44.02	180.64	8.15	-26.8	-28.3	14.2	0.00e+00	0	41	0	61865984	14	4283
2026-01-28 13:01:45.02	180.68	8.22	-26.5	-27.7	14.6	0.00e+00	0	41	0	67108864	14	4109
2026-01-28 13:01:46.02	180.73	8.30	-26.5	-27.6	14.7	1.10e-06	0	41	0	73400320	14	4099
2026-01-28 13:01:47.02	180.77	8.38	-26.4	-27.5	14.7	0.00e+00	0	41	0	78643200	14	4071
2026-01-28 13:01:48.03	180.82	8.46	-26.2	-27.5	14.9	0.00e+00	0	41	0	83886080	13	4184
2026-01-28 13:01:49.03	180.86	8.54	-26.5	-28.2	14.5	3.40e-06	0	41	0	90177536	13	4383
2026-01-28 13:01:50.04	180.91	8.62	-26.4	-28.0	14.6	1.10e-06	0	42	0	95420416	13	4309
2026-01-28 13:01:51.04	180.95	8.70	-26.3	-27.7	14.8	0.00e+00	0	41	0	100663296	13	4229
2026-01-28 13:01:52.05	181.00	8.78	-26.3	-27.8	14.8	0.00e+00	0	41	0	106954752	13	4243
2026-01-28 13:01:53.05	181.04	8.86	-26.4	-27.9	14.7	0.00e+00	0	41	0	112197632	13	4293
2026-01-28 13:01:54.06	181.09	8.94	-26.6	-28.4	14.5	0.00e+00	0	42	0	118489088	13	4420
2026-01-28 13:01:55.06	181.14	9.03	-26.4	-27.9	14.7	0.00e+00	0	41	0	123731968	13	4280
2026-01-28 13:01:56.05	181.18	9.11	-26.3	-27.7	14.9	0.00e+00	0	41	0	128974848	13	4236
2026-01-28 13:01:57.06	181.23	9.19	-26.2	-27.6	15.0	0.00e+00	0	42	0	135266304	13	4192
2026-01-28 13:01:58.06	181.28	9.27	-26.5	-28.0	14.7	0.00e+00	0	42	0	140509184	13	4326
2026-01-28 13:01:59.06	181.32	9.35	-26.6	-28.4	14.5	2.20e-06	0	42	0	146800640	13	4421
2026-01-28 13:02:00.06	181.37	9.43	-26.6	-28.4	14.5	0.00e+00	0	41	0	152043520	13	4425
2026-01-28 13:02:01.06	181.42	9.52	-26.8	-28.7	14.3	2.20e-06	0	42	0	157286400	13	4517
2026-01-28 13:02:02.06	181.47	9.60	-26.5	-28.2	14.6	2.20e-06	0	42	0	163577856	13	4366
2026-01-28 13:02:03.06	181.52	9.68	-26.4	-28.0	14.8	2.20e-06	0	42	0	168820736	13	4303
2026-01-28 13:02:04.07	181.57	9.77	-26.3	-27.8	14.8	1.10e-06	0	42	0	174063616	13	4262
2026-01-28 13:02:05.07	181.62	9.85	-26.4	-28.0	14.8	1.10e-06	0	42	0	180355072	13	4300
2026-01-28 13:02:06.08	181.66	9.93	-26.3	-27.7	14.9	0.00e+00	0	42	0	185597952	13	4229
2026-01-28 13:02:07.09	181.71	10.02	-26.3	-27.7	14.9	0.00e+00	0	42	0	190840832	13	4219
2026-01-28 13:02:08.09	181.76	10.10	-26.4	-27.9	14.8	0.00e+00	0	42	0	197132288	13	4279
2026-01-28 13:02:09.10	181.82	10.19	-26.6	-28.3	14.6	0.00e+00	0	42	0	202375168	13	4388
2026-01-28 13:02:10.10	181.87	10.27	-26.3	-27.8	14.9	0.00e+00	0	42	0	208666624	13	4250
2026-01-28 13:02:11.10	181.92	10.36	-26.3	-27.7	14.9	0.00e+00	0	42	0	213909504	13	4221
2026-01-28 13:02:12.11	181.97	10.44	-26.3	-27.7	15.0	1.10e-06	0	42	0	220200960	13	4223
2026-01-28 13:02:13.12	182.02	10.53	-26.1	-27.2	15.2	0.00e+00	0	42	0	225443840	13	4094
2026-01-28 13:02:14.12	182.07	10.62	-26.2	-27.5	15.0	0.00e+00	0	42	0	230686720	13	4182
2026-01-28 13:02:15.13	182.12	10.70	-26.1	-27.3	15.2	0.00e+00	0	42	0	236978176	13	4121
2026-01-28 13:02:16.13	182.17	10.79	-26.0	-26.9	15.4	0.00e+00	0	42	0	242221056	13	4029
2026-01-28 13:02:17.13	182.23	10.88	-26.1	-27.3	15.2	0.00e+00	0	42	0	247463936	13	4116
2026-01-28 13:02:18.14	182.28	10.97	-25.8	-26.7	15.6	0.00e+00	0	42	0	253755392	13	3956
2026-01-28 13:02:19.15	182.33	11.05	-25.8	-26.7	15.6	0.00e+00	0	42	0	258998272	13	3952
2026-01-28 13:02:20.15	182.39	11.14	-25.9	-26.8	15.5	0.00e+00	0	42	0	265289728	13	3979
2026-01-28 13:02:21.16	182.44	11.23	-26.0	-27.1	15.3	0.00e+00	0	42	0	270532608	13	4062
2026-01-28 13:02:22.16	182.49	11.32	-25.8	-26.6	15.6	0.00e+00	0	42	0	275775488	13	3936
2026-01-28 13:02:23.17	182.55	11.41	-25.7	-26.9	15.7	0.00e+00	0	42	0	282066944	12	4115
2026-01-28 13:02:24.17	182.60	11.50	-25.7	-26.7	15.7	0.00e+00	0	42	0	287309824	12	4073
2026-01-28 13:02:25.17	182.66	11.59	-25.7	-26.8	15.7	0.00e+00	0	42	0	293601280	12	4105
2026-01-28 13:02:26.18	182.71	11.68	-25.6	-26.7	15.9	0.00e+00	0	42	0	298844160	12	4062
2026-01-28 13:02:27.18	182.77	11.77	-25.9	-27.2	15.5	1.83e-05	0	42	0	304087040	12	4205
2026-01-28 13:02:28.19	182.83	11.86	-25.7	-26.8	15.8	0.00e+00	0	42	0	310378496	12	4099
2026-01-28 13:02:29.19	182.88	11.95	-25.6	-26.6	15.9	0.00e+00	0	42	0	315621376	12	4044
2026-01-28 13:02:30.20	182.94	12.04	-25.7	-26.8	15.8	1.14e-05	0	42	0	321912832	12	4089
2026-01-28 13:02:31.20	182.99	12.13	-25.6	-26.6	15.9	0.00e+00	0	42	0	327155712	12	4042
2026-01-28 13:02:32.19	183.05	12.22	-25.7	-26.9	15.7	0.00e+00	0	42	0	332398592	12	4132
2026-01-28 13:02:33.19	183.11	12.31	-25.8	-27.1	15.7	0.00e+00	0	42	0	337641472	12	4160
2026-01-28 13:02:34.18	183.17	12.40	-25.8	-27.1	15.6	0.00e+00	0	42	0	343932928	12	4163
2026-01-28 13:02:35.19	183.22	12.50	-25.8	-27.1	15.7	0.00e+00	0	42	0	349175808	12	4166
2026-01-28 13:02:36.19	183.28	12.59	-25.8	-27.0	15.7	0.00e+00	0	42	0	355467264	12	4142
2026-01-28 13:02:37.20	183.34	12.68	-25.6	-26.6	15.9	0.00e+00	0	42	0	360710144	12	4054
2026-01-28 13:02:38.20	183.40	12.78	-25.8	-27.0	15.7	0.00e+00	0	42	0	367001600	12	4142
2026-01-28 13:02:39.21	183.46	12.87	-25.8	-27.1	15.7	1.71e-05	0	42	0	372244480	12	4164
2026-01-28 13:02:40.21	183.52	12.97	-25.9	-27.3	15.6	0.00e+00	0	42	0	377487360	12	4219
2026-01-28 13:02:41.21	183.58	13.06	-25.8	-27.0	15.8	0.00e+00	0	42	0	383778816	12	4145
2026-01-28 13:02:42.22	183.64	13.16	-25.7	-26.9	15.8	1.60e-05	0	42	0	389021696	12	4123
2026-01-28 13:02:43.23	183.70	13.25	-25.8	-27.0	15.8	0.00e+00	0	42	0	394264576	12	4134
2026-01-28 13:02:44.23	183.76	13.35	-25.8	-26.9	15.8	0.00e+00	0	42	0	400556032	12	4129
2026-01-28 13:02:45.23	183.83	13.44	-25.7	-26.9	15.8	1.14e-05	0	42	0	405798912	12	4107
2026-01-28 13:02:46.23	183.89	13.54	-25.8	-26.9	15.8	0.00e+00	0	42	0	411041792	12	4130
2026-01-28 13:02:47.23	183.95	13.64	-25.9	-27.2	15.6	1.10e-06	0	42	0	417333248	12	4208
2026-01-28 13:02:48.24	184.01	13.73	-25.8	-27.0	15.8	3.40e-06	0	42	0	422576128	12	4138
2026-01-28 13:02:49.24	184.08	13.83	-25.6	-26.6	16.0	0.00e+00	0	42	0	428867584	12	4035
2026-01-28 13:02:50.25	184.14	13.93	-25.5	-26.3	16.2	0.00e+00	0	42	0	434110464	12	3968
2026-01-28 13:02:51.24	184.20	14.03	-25.4	-26.2	16.2	0.00e+00	0	42	0	440401920	12	3929
2026-01-28 13:02:52.26	184.27	14.13	-25.5	-26.4	16.1	0.00e+00	0	42	0	445644800	12	3990
2026-01-28 13:02:53.26	184.33	14.22	-25.7	-26.8	15.9	0.00e+00	0	43	0	450887680	12	4088
2026-01-28 13:02:54.27	184.40	14.32	-25.4	-26.2	16.2	0.00e+00	0	42	0	457179136	12	3948
2026-01-28 13:02:55.27	184.47	14.42	-25.6	-26.7	16.0	0.00e+00	0	42	0	462422016	12	4057
2026-01-28 13:02:56.28	184.53	14.52	-25.5	-26.3	16.2	0.00e+00	0	43	0	467664896	12	3968
2026-01-28 13:02:57.29	184.60	14.63	-25.3	-25.9	16.4	0.00e+00	0	42	0	473956352	12	3868
2026-01-28 13:02:58.29	184.67	14.73	-25.2	-26.2	16.6	0.00e+00	0	43	0	479199232	11	4042
2026-01-28 13:02:59.30	184.73	14.83	-25.4	-26.6	16.4	0.00e+00	0	43	0	485490688	11	4151
2026-01-28 13:03:00.30	184.80	14.93	-25.3	-26.5	16.5	6.80e-06	0	42	0	490733568	11	4118
2026-01-28 13:03:01.30	184.87	15.03	-25.3	-26.4	16.5	0.00e+00	0	43	0	495976448	11	4081
2026-01-28 13:03:02.31	184.94	15.13	-25.4	-26.6	16.4	0.00e+00	0	43	0	502267904	11	4156
2026-01-28 13:03:03.30	185.01	15.24	-25.4	-26.6	16.4	0.00e+00	0	43	0	507510784	11	4156
2026-01-28 13:03:04.30	185.08	15.34	-25.3	-26.3	16.6	0.00e+00	0	43	0	513802240	11	4076
2026-01-28 13:03:05.31	185.15	15.44	-25.1	-26.0	16.7	0.00e+00	0	43	0	519045120	11	4003
2026-01-28 13:03:06.31	185.22	15.55	-25.2	-26.2	16.6	0.00e+00	0	42	0	524288000	11	4051
2026-01-28 13:03:07.32	185.29	15.65	-25.0	-25.8	16.9	0.00e+00	0	42	0	530579456	11	3939
2026-01-28 13:03:08.33	185.36	15.76	-25.0	-25.7	16.9	0.00e+00	0	43	0	535822336	11	3923
2026-01-28 13:03:09.33	185.43	15.86	-25.0	-25.7	16.9	0.00e+00	0	43	0	541065216	11	3919
2026-01-28 13:03:10.33	185.51	15.97	-25.0	-25.7	16.9	0.00e+00	0	42	0	547356672	11	3913
2026-01-28 13:03:11.34	185.58	16.07	-25.0	-25.8	16.9	0.00e+00	0	42	0	552599552	11	3933
2026-01-28 13:03:12.34	185.65	16.18	-24.8	-25.3	17.1	0.00e+00	0	43	0	557842432	11	3828
2026-01-28 13:03:13.34	185.73	16.29	-24.7	-25.6	17.2	0.00e+00	0	43	0	564133888	10	4003
2026-01-28 13:03:14.34	185.80	16.39	-24.8	-25.9	17.1	0.00e+00	0	43	0	569376768	10	4065
2026-01-28 13:03:15.35	185.88	16.50	-24.8	-25.8	17.2	0.00e+00	0	43	0	575668224	10	4041
2026-01-28 13:03:16.36	185.95	16.61	-24.7	-25.6	17.2	0.00e+00	0	43	0	580911104	10	4008
2026-01-28 13:03:17.35	186.03	16.72	-24.8	-25.7	17.2	0.00e+00	0	43	0	587202560	10	4034
2026-01-28 13:03:18.36	186.10	16.83	-24.8	-25.8	17.2	0.00e+00	0	43	0	592445440	10	4051
2026-01-28 13:03:19.36	186.18	16.94	-24.8	-25.8	17.2	0.00e+00	0	43	0	597688320	10	4037
2026-01-28 13:03:20.37	186.26	17.05	-24.7	-25.6	17.2	0.00e+00	0	43	0	603979776	10	4013
2026-01-28 13:03:21.38	186.34	17.16	-24.8	-25.9	17.2	0.00e+00	0	43	0	609222656	10	4060
2026-01-28 13:03:22.38	186.42	17.27	-24.8	-26.0	17.1	0.00e+00	0	43	0	614465536	10	4090
2026-01-28 13:03:23.39	186.50	17.38	-24.7	-25.6	17.3	0.00e+00	0	43	0	620756992	10	4005
2026-01-28 13:03:24.39	186.58	17.49	-24.5	-25.3	17.4	0.00e+00	0	43	0	625999872	10	3927
2026-01-28 13:03:25.40	186.66	17.61	-24.5	-25.3	17.4	0.00e+00	0	43	0	632291328	10	3920
2026-01-28 13:03:26.40	186.74	17.72	-24.7	-25.5	17.3	0.00e+00	0	43	0	637534208	10	3982
2026-01-28 13:03:27.41	186.82	17.83	-24.6	-25.4	17.4	0.00e+00	0	43	0	642777088	10	3944
2026-01-28 13:03:28.41	186.90	17.95	-24.6	-25.5	17.4	0.00e+00	0	43	0	649068544	10	3973
2026-01-28 13:03:29.42	186.98	18.06	-24.6	-25.3	17.5	0.00e+00	0	43	0	654311424	10	3932
2026-01-28 13:03:30.42	187.07	18.18	-24.4	-24.9	17.7	0.00e+00	0	43	0	660602880	10	3840
2026-01-28 13:03:31.42	187.15	18.29	-24.6	-25.4	17.4	0.00e+00	0	43	0	665845760	10	3945
2026-01-28 13:03:32.43	187.24	18.41	-24.7	-25.6	17.4	0.00e+00	0	43	0	671088640	10	3996
2026-01-28 13:03:33.42	187.32	18.52	-24.5	-25.1	17.6	0.00e+00	0	43	0	677380096	10	3889
2026-01-28 13:03:34.42	187.41	18.64	-24.5	-25.2	17.6	0.00e+00	0	43	0	682622976	10	3898
2026-01-28 13:03:35.42	187.49	18.75	-24.5	-25.3	17.5	0.00e+00	0	43	0	687865856	10	3925
2026-01-28 13:03:36.43	187.58	18.87	-24.5	-25.2	17.6	0.00e+00	0	43	0	694157312	10	3900
2026-01-28 13:03:37.44	187.67	18.99	-24.4	-25.1	17.6	0.00e+00	0	43	0	699400192	10	3880
2026-01-28 13:03:38.44	187.76	19.11	-24.6	-25.4	17.5	0.00e+00	0	43	0	704643072	10	3951
2026-01-28 13:03:39.44	187.84	19.23	-24.8	-25.8	17.3	0.00e+00	0	43	0	710934528	10	4056
2026-01-28 13:03:40.45	187.94	19.35	-25.0	-26.3	17.0	0.00e+00	0	43	0	716177408	10	4168
2026-01-28 13:03:41.45	188.03	19.47	-24.8	-25.8	17.3	0.00e+00	0	43	0	722468864	10	4048
2026-01-28 13:03:42.45	188.12	19.59	-24.6	-25.5	17.5	0.00e+00	0	43	0	727711744	10	3965
2026-01-28 13:03:43.46	188.21	19.71	-24.7	-25.6	17.3	0.00e+00	0	43	0	734003200	10	4006
2026-01-28 13:03:44.46	188.30	19.83	-24.8	-25.8	17.3	0.00e+00	0	43	0	739246080	10	4051
2026-01-28 13:03:45.47	188.39	19.95	-24.7	-25.6	17.4	0.00e+00	0	43	0	744488960	10	4002
2026-01-28 13:03:46.47	188.49	20.08	-24.7	-25.6	17.4	0.00e+00	0	43	0	750780416	10	4000
2026-01-28 13:03:47.48	188.58	20.20	-24.5	-25.2	17.6	0.00e+00	0	43	0	756023296	10	3894
2026-01-28 13:03:48.48	188.68	20.32	-24.3	-24.8	17.8	0.00e+00	0	43	0	761266176	10	3801
2026-01-28 13:03:49.48	188.77	20.45	-24.3	-25.3	17.8	0.00e+00	0	43	0	767557632	9	4024
2026-01-28 13:03:50.48	188.87	20.57	-24.2	-25.1	17.9	2.20e-06	0	43	0	772800512	9	3992
2026-01-28 13:03:51.49	188.97	20.70	-24.0	-24.7	18.1	0.00e+00	0	43	0	778043392	9	3892
2026-01-28 13:03:52.50	189.07	20.83	-23.9	-24.4	18.3	0.00e+00	0	43	0	784334848	9	3810
2026-01-28 13:03:53.49	189.17	20.95	-23.8	-24.6	18.4	0.00e+00	0	43	0	789577728	8	3984
2026-01-28 13:03:54.49	189.27	21.08	-23.7	-24.5	18.5	0.00e+00	0	43	0	795869184	8	3951
2026-01-28 13:03:55.50	189.37	21.21	-23.6	-24.3	18.6	0.00e+00	0	43	0	801112064	8	3900
2026-01-28 13:03:56.51	189.47	21.33	-23.6	-24.4	18.6	0.00e+00	0	43	0	807403520	8	3914
2026-01-28 13:03:57.50	189.57	21.46	-23.6	-24.4	18.6	0.00e+00	0	43	0	812646400	8	3913
2026-01-28 13:03:58.51	189.67	21.59	-23.4	-24.0	18.8	0.00e+00	0	43	0	817889280	8	3830
2026-01-28 13:03:59.51	189.78	21.72	-23.4	-23.8	18.9	0.00e+00	0	43	0	824180736	8	3786
2026-01-28 13:04:00.52	189.88	21.85	-23.4	-24.0	18.8	0.00e+00	0	43	0	829423616	8	3821
2026-01-28 13:04:01.53	189.99	21.98	-23.4	-24.0	18.8	0.00e+00	0	43	0	834666496	8	3822
2026-01-28 13:04:02.53	190.10	22.12	-23.4	-23.8	18.9	5.70e-06	0	43	0	840957952	8	3789
2026-01-28 13:04:03.53	190.20	22.25	-23.4	-23.9	18.8	0.00e+00	0	43	0	846200832	8	3809
2026-01-28 13:04:04.53	190.31	22.38	-23.5	-24.0	18.8	0.00e+00	0	43	0	851443712	8	3835
2026-01-28 13:04:05.54	190.42	22.51	-23.5	-24.0	18.8	0.00e+00	0	43	0	857735168	8	3828
2026-01-28 13:04:06.54	190.53	22.65	-23.6	-24.3	18.6	0.00e+00	0	43	0	862978048	8	3905
2026-01-28 13:04:07.55	190.64	22.78	-23.6	-24.4	18.6	0.00e+00	0	43	0	869269504	8	3912
2026-01-28 13:04:08.54	190.75	22.92	-23.7	-24.6	18.5	0.00e+00	0	43	0	874512384	8	3968
2026-01-28 13:04:09.55	190.87	23.05	-23.8	-24.7	18.4	0.00e+00	0	43	0	880803840	8	3999
2026-01-28 13:04:10.55	190.98	23.19	-23.8	-24.7	18.5	0.00e+00	0	43	0	886046720	8	3988
2026-01-28 13:04:11.56	191.10	23.33	-23.6	-24.4	18.6	0.00e+00	0	43	0	891289600	8	3919
2026-01-28 13:04:12.56	191.21	23.46	-23.7	-24.6	18.5	0.00e+00	0	43	0	897581056	8	3974
2026-01-28 13:04:13.56	191.33	23.60	-23.7	-24.4	18.6	0.00e+00	0	43	0	902823936	8	3934
2026-01-28 13:04:14.56	191.45	23.74	-23.6	-24.4	18.5	0.00e+00	0	43	0	908066816	8	3925
2026-01-28 13:04:15.56	191.56	23.88	-23.6	-24.4	18.6	0.00e+00	0	43	0	914358272	8	3919
2026-01-28 13:04:16.56	191.68	24.02	-23.6	-24.3	18.7	0.00e+00	0	43	0	919601152	8	3901
2026-01-28 13:04:17.57	191.81	24.16	-23.7	-24.5	18.6	0.00e+00	0	43	0	925892608	8	3941
2026-01-28 13:04:18.57	191.93	24.30	-23.6	-24.3	18.7	0.00e+00	0	43	0	931135488	8	3902
2026-01-28 13:04:19.57	192.05	24.44	-23.3	-23.7	18.9	0.00e+00	0	43	0	936378368	8	3761
2026-01-28 13:04:20.57	192.17	24.59	-23.3	-24.0	19.0	1.10e-06	0	43	0	942669824	7	3941
2026-01-28 13:04:21.57	192.30	24.73	-23.2	-23.9	19.1	0.00e+00	0	43	0	947912704	7	3907
2026-01-28 13:04:22.57	192.42	24.87	-23.2	-24.0	19.0	0.00e+00	0	43	0	953155584	7	3938
2026-01-28 13:04:23.57	192.55	25.02	-23.2	-24.0	19.0	0.00e+00	0	43	0	959447040	7	3927
2026-01-28 13:04:24.57	192.68	25.16	-23.1	-23.7	19.2	0.00e+00	0	43	0	964689920	7	3864
2026-01-28 13:04:25.58	192.81	25.31	-23.1	-23.7	19.2	0.00e+00	0	43	0	969932800	7	3849
2026-01-28 13:04:26.59	192.94	25.46	-23.1	-23.6	19.2	1.10e-06	0	43	0	976224256	7	3846
2026-01-28 13:04:27.59	193.07	25.60	-23.0	-23.6	19.2	0.00e+00	0	43	0	981467136	7	3836
2026-01-28 13:04:28.59	193.21	25.75	-23.0	-23.6	19.3	0.00e+00	0	43	0	987758592	7	3840
2026-01-28 13:04:29.60	193.34	25.90	-23.1	-23.7	19.2	0.00e+00	0	43	0	993001472	7	3861
2026-01-28 13:04:30.60	193.48	26.05	-23.3	-24.1	19.0	0.00e+00	0	43	0	999292928	7	3947
2026-01-28 13:04:31.60	193.61	26.20	-23.3	-24.1	19.0	0.00e+00	0	43	0	1004535808	7	3960
2026-01-28 13:04:32.60	193.75	26.35	-23.2	-23.9	19.1	2.20e-06	0	43	0	1009778688	7	3909
2026-01-28 13:04:33.61	193.89	26.50	-23.1	-23.8	19.2	0.00e+00	0	43	0	1016070144	7	3878
2026-01-28 13:04:34.62	194.03	26.65	-23.2	-24.0	19.1	0.00e+00	0	43	0	1021313024	7	3930
2026-01-28 13:04:35.62	194.18	26.81	-23.2	-23.9	19.1	0.00e+00	0	43	0	1026555904	7	3902
2026-01-28 13:04:36.63	194.32	26.96	-23.3	-24.1	19.0	0.00e+00	0	43	0	1032847360	7	3961
2026-01-28 13:04:37.64	194.47	27.11	-23.4	-24.3	18.9	0.00e+00	0	43	0	1038090240	7	4001
2026-01-28 13:04:38.64	194.61	27.27	-23.4	-24.4	18.9	0.00e+00	0	43	0	1043333120	7	4018
2026-01-28 13:04:39.64	194.76	27.42	-23.3	-24.2	19.0	0.00e+00	0	43	0	1049624576	7	3975
2026-01-28 13:04:40.64	194.91	27.58	-23.1	-23.7	19.2	0.00e+00	0	43	0	1054867456	7	3872
2026-01-28 13:04:41.65	195.06	27.74	-23.0	-23.4	19.4	0.00e+00	0	43	0	1061158912	7	3798
2026-01-28 13:04:42.65	195.21	27.89	-23.0	-23.5	19.3	0.00e+00	0	43	0	1066401792	7	3821
2026-01-28 13:04:43.66	195.36	28.05	-23.0	-23.4	19.4	0.00e+00	0	43	0	1072693248	7	3801
2026-01-28 13:04:44.66	195.52	28.21	-22.9	-23.2	19.4	0.00e+00	0	43	0	1077936128	7	3749
2026-01-28 13:04:45.66	195.67	28.37	-22.9	-23.4	19.4	0.00e+00	0	43	0	1083179008	7	3787
2026-01-28 13:04:46.66	195.83	28.53	-23.1	-23.8	19.2	0.00e+00	0	43	0	1089470464	7	3884
2026-01-28 13:04:47.67	195.99	28.69	-23.1	-23.8	19.2	0.00e+00	0	43	0	1094713344	7	3880
2026-01-28 13:04:48.67	196.15	28.85	-23.0	-23.4	19.3	0.00e+00	0	43	0	1099956224	7	3799
2026-01-28 13:04:49.68	196.32	29.02	-22.8	-23.1	19.5	0.00e+00	0	43	0	1106247680	7	3730
2026-01-28 13:04:50.68	196.48	29.18	-23.0	-23.5	19.4	0.00e+00	0	43	0	1111490560	7	3802
2026-01-28 13:04:51.69	196.65	29.34	-23.0	-23.5	19.3	0.00e+00	0	43	0	1116733440	7	3814
2026-01-28 13:04:52.69	196.81	29.51	-23.1	-23.7	19.2	0.00e+00	0	43	0	1123024896	7	3864
2026-01-28 13:04:53.69	196.98	29.67	-23.1	-23.6	19.3	0.00e+00	0	43	0	1128267776	7	3844
2026-01-28 13:04:54.70	197.15	29.84	-23.0	-23.5	19.3	0.00e+00	0	43	0	1134559232	7	3822
2026-01-28 13:04:55.71	197.33	30.01	-23.0	-23.4	19.4	0.00e+00	0	43	0	1139802112	7	3795
2026-01-28 13:04:56.71	197.50	30.17	-22.9	-23.4	19.5	0.00e+00	0	43	0	1146093568	7	3777
2026-01-28 13:04:57.71	197.68	30.34	-23.2	-24.0	19.2	0.00e+00	0	43	0	1151336448	7	3915
2026-01-28 13:04:58.72	197.86	30.51	-23.8	-25.2	18.6	0.00e+00	0	43	0	1156579328	7	4216
2026-01-28 13:04:59.72	198.03	30.68	-23.5	-24.6	18.9	0.00e+00	0	43	0	1162870784	7	4065
2026-01-28 13:05:00.71	198.21	30.85	-23.7	-24.9	18.7	0.00e+00	0	43	0	1168113664	7	4149
2026-01-28 13:05:01.72	198.40	31.02	-23.8	-25.2	18.6	0.00e+00	0	43	0	1173356544	7	4212
2026-01-28 13:05:02.73	198.58	31.19	-23.7	-25.0	18.6	0.00e+00	0	43	0	1179648000	7	4182
2026-01-28 13:05:03.73	198.77	31.36	-23.7	-24.9	18.7	0.00e+00	0	43	0	1184890880	7	4146
2026-01-28 13:05:04.73	198.96	31.54	-24.0	-25.5	18.4	0.00e+00	0	43	0	1190133760	7	4308
2026-01-28 13:05:05.73	199.15	31.71	-23.8	-25.1	18.6	0.00e+00	0	43	0	1196425216	7	4209
2026-01-28 13:05:06.73	199.34	31.88	-24.1	-25.4	18.3	0.00e+00	0	43	0	1201668096	8	4160
2026-01-28 13:05:07.74	199.54	32.06	-24.0	-25.1	18.4	0.00e+00	0	43	0	1207959552	8	4095
2026-01-28 13:05:08.75	199.74	32.23	-23.6	-24.3	18.8	0.00e+00	0	43	0	1213202432	8	3884
2026-01-28 13:05:09.76	199.94	32.41	-23.4	-23.9	19.0	0.00e+00	0	43	0	1219493888	8	3793
2026-01-28 13:05:10.76	200.14	32.59	-23.1	-23.8	19.3	0.00e+00	0	43	0	1224736768	7	3875
2026-01-28 13:05:11.77	200.34	32.77	-23.2	-23.8	19.2	0.00e+00	0	43	0	1229979648	7	3896
2026-01-28 13:05:12.77	200.55	32.94	-23.0	-23.6	19.4	0.00e+00	0	43	0	1236271104	7	3838
2026-01-28 13:05:13.78	200.76	33.12	-22.9	-23.3	19.5	0.00e+00	0	43	0	1241513984	7	3760
2026-01-28 13:05:14.79	200.97	33.30	-22.7	-23.5	19.7	0.00e+00	0	43	0	1246756864	6	3910
2026-01-28 13:05:15.79	201.18	33.48	-22.7	-23.3	19.8	0.00e+00	0	43	0	1253048320	6	3879
2026-01-28 13:05:16.79	201.40	33.66	-22.7	-23.3	19.8	0.00e+00	0	43	0	1258291200	6	3872
2026-01-28 13:05:17.80	201.62	33.85	-22.9	-23.8	19.6	0.00e+00	0	43	0	1264582656	6	3983
2026-01-28 13:05:18.81	201.84	34.03	-22.8	-23.5	19.7	0.00e+00	0	43	0	1269825536	6	3910
2026-01-28 13:05:19.81	202.06	34.21	-22.7	-23.3	19.8	0.00e+00	0	43	0	1275068416	6	3881
2026-01-28 13:05:20.82	202.29	34.40	-22.9	-23.9	19.5	0.00e+00	0	43	0	1281359872	6	4013
2026-01-28 13:05:21.83	202.51	34.58	-22.9	-23.8	19.5	0.00e+00	0	43	0	1286602752	6	3992
2026-01-28 13:05:22.83	202.74	34.76	-22.8	-23.6	19.6	2.20e-06	0	43	0	1292894208	6	3945
2026-01-28 13:05:23.84	202.98	34.95	-22.8	-23.5	19.7	0.00e+00	0	43	0	1298137088	6	3925
2026-01-28 13:05:24.85	203.21	35.14	-22.9	-23.8	19.5	0.00e+00	0	43	0	1304428544	6	3983
2026-01-28 13:05:25.86	203.45	35.32	-22.6	-23.1	19.9	0.00e+00	0	43	0	1309671424	6	3832
2026-01-28 13:05:26.86	203.69	35.51	-22.4	-22.8	20.0	0.00e+00	0	43	0	1314914304	6	3759
2026-01-28 13:05:27.86	203.93	35.70	-22.5	-22.9	20.0	0.00e+00	0	43	0	1321205760	6	3777
2026-01-28 13:05:28.87	204.18	35.89	-22.5	-23.0	20.0	0.00e+00	0	43	0	1326448640	6	3795
2026-01-28 13:05:29.87	204.43	36.07	-22.6	-23.2	19.9	0.00e+00	0	43	0	1331691520	6	3844
2026-01-28 13:05:30.87	204.68	36.26	-22.7	-23.4	19.8	0.00e+00	0	43	0	1337982976	6	3887
2026-01-28 13:05:31.88	204.93	36.45	-22.8	-23.7	19.6	1.10e-06	0	43	0	1343225856	6	3967
2026-01-28 13:05:32.87	205.19	36.64	-23.1	-24.2	19.4	0.00e+00	0	43	0	1348468736	6	4092
2026-01-28 13:05:33.88	205.45	36.83	-22.8	-23.7	19.6	0.00e+00	0	43	0	1354760192	6	3966
2026-01-28 13:05:34.89	205.72	37.02	-22.7	-23.3	19.8	0.00e+00	0	43	0	1360003072	6	3879
2026-01-28 13:05:35.88	205.98	37.21	-22.5	-23.0	19.9	0.00e+00	0	43	0	1366294528	6	3817
2026-01-28 13:05:36.89	206.25	37.40	-22.4	-22.8	20.1	0.00e+00	0	43	0	1371537408	6	3746
2026-01-28 13:05:37.89	206.52	37.59	-22.8	-23.5	19.8	0.00e+00	0	43	0	1376780288	6	3909
2026-01-28 13:05:38.89	206.79	37.79	-22.5	-22.8	20.1	0.00e+00	0	43	0	1383071744	6	3764
2026-01-28 13:05:39.89	207.07	37.98	-22.6	-23.1	20.0	0.00e+00	0	43	0	1388314624	6	3829
2026-01-28 13:05:40.91	207.36	38.17	-22.6	-23.1	19.9	0.00e+00	0	43	0	1394606080	6	3834
2026-01-28 13:05:41.91	207.64	38.37	-22.8	-23.6	19.7	0.00e+00	0	43	0	1399848960	6	3951
2026-01-28 13:05:42.92	207.93	38.56	-22.8	-23.7	19.7	0.00e+00	0	43	0	1405091840	6	3961
2026-01-28 13:05:43.92	208.22	38.76	-23.2	-24.3	19.4	0.00e+00	0	43	0	1411383296	6	4127
2026-01-28 13:05:44.93	208.52	38.95	-23.1	-24.1	19.4	0.00e+00	0	43	0	1416626176	6	4069
2026-01-28 13:05:45.93	208.82	39.14	-22.6	-23.2	19.9	0.00e+00	0	43	0	1421869056	6	3839
2026-01-28 13:05:46.94	209.12	39.34	-22.4	-22.7	20.1	0.00e+00	0	43	0	1428160512	6	3735
2026-01-28 13:05:47.95	209.43	39.54	-22.5	-22.9	20.0	0.00e+00	0	43	0	1433403392	6	3783
2026-01-28 13:05:48.95	209.74	39.73	-22.4	-22.7	20.1	0.00e+00	0	43	0	1439694848	6	3745
2026-01-28 13:05:49.95	210.05	39.93	-22.5	-23.0	20.0	0.00e+00	0	43	0	1444937728	6	3803
2026-01-28 13:05:50.94	210.37	40.12	-22.5	-23.0	20.0	0.00e+00	0	43	0	1450180608	6	3793
2026-01-28 13:05:51.94	210.69	40.31	-22.6	-23.1	20.0	0.00e+00	0	43	0	1456472064	6	3832
2026-01-28 13:05:52.95	211.01	40.51	-22.4	-22.8	20.1	0.00e+00	0	43	0	1461714944	6	3764
2026-01-28 13:05:53.95	211.34	40.71	-22.4	-22.7	20.2	0.00e+00	0	43	0	1468006400	6	3733
2026-01-28 13:05:54.95	211.67	40.90	-22.5	-23.0	20.0	0.00e+00	0	43	0	1473249280	6	3791
2026-01-28 13:05:55.96	212.01	41.10	-22.5	-22.9	20.3	0.00e+00	0	43	0	1478492160	6	3773
2026-01-28 13:05:56.96	212.35	41.29	-22.9	-23.8	19.8	0.00e+00	0	43	0	1484783616	6	3965
2026-01-28 13:05:57.96	212.69	41.49	-23.0	-23.8	19.8	0.00e+00	0	43	0	1490026496	6	3977
2026-01-28 13:05:58.96	213.04	41.68	-22.6	-23.1	20.2	0.00e+00	0	43	0	1495269376	6	3810
2026-01-28 13:05:59.97	213.40	41.88	-22.5	-22.9	20.3	0.00e+00	0	43	0	1501560832	6	3764
2026-01-28 13:06:00.97	213.75	42.07	-22.8	-23.5	20.0	0.00e+00	0	43	0	1506803712	6	3905
2026-01-28 13:06:01.97	214.11	42.27	-22.8	-23.6	20.0	0.00e+00	0	43	0	1513095168	6	3914
2026-01-28 13:06:02.98	214.48	42.46	-23.0	-23.9	19.8	0.00e+00	0	43	0	1518338048	6	3998
2026-01-28 13:06:03.98	214.85	42.66	-22.8	-23.4	20.0	0.00e+00	0	43	0	1523580928	6	3886
2026-01-28 13:06:04.99	215.23	42.85	-23.1	-24.0	19.7	0.00e+00	0	43	0	1529872384	6	4023
2026-01-28 13:06:06.00	215.61	43.05	-22.9	-23.6	20.0	0.00e+00	0	43	0	1535115264	6	3932
2026-01-28 13:06:07.00	215.99	43.24	-22.7	-23.4	20.1	0.00e+00	0	43	0	1541406720	6	3877
2026-01-28 13:06:08.01	216.38	43.44	-22.8	-23.4	20.0	0.00e+00	0	43	0	1546649600	6	3890
2026-01-28 13:06:09.01	216.77	43.63	-22.8	-23.5	20.0	0.00e+00	0	43	0	1551892480	6	3911
2026-01-28 13:06:10.01	217.17	43.82	-23.0	-24.0	19.8	0.00e+00	0	43	0	1558183936	6	4011
2026-01-28 13:06:11.02	217.57	44.01	-23.2	-24.3	19.6	0.00e+00	0	43	0	1563426816	6	4098
2026-01-28 13:06:12.02	217.98	44.20	-23.2	-24.3	19.6	0.00e+00	0	43	0	1568669696	6	4101
2026-01-28 13:06:13.02	218.39	44.39	-23.3	-24.5	19.5	0.00e+00	0	43	0	1574961152	6	4145
2026-01-28 13:06:14.03	218.81	44.58	-23.1	-24.2	19.7	0.00e+00	0	43	0	1580204032	6	4058
2026-01-28 13:06:15.04	219.24	44.77	-23.1	-24.2	19.7	0.00e+00	0	43	0	1586495488	6	4071
2026-01-28 13:06:16.04	219.66	44.96	-23.4	-24.7	19.4	0.00e+00	0	43	0	1591738368	6	4200
2026-01-28 13:06:17.05	220.10	45.15	-23.2	-24.3	19.6	0.00e+00	0	43	0	1598029824	6	4101
2026-01-28 13:06:18.05	220.53	45.33	-23.5	-24.9	19.4	0.00e+00	0	43	0	1603272704	6	4228
2026-01-28 13:06:19.06	220.98	45.52	-23.2	-24.3	19.6	0.00e+00	0	43	0	1608515584	6	4090
2026-01-28 13:06:20.06	221.42	45.70	-23.0	-24.0	19.8	0.00e+00	0	43	0	1614807040	6	4010
2026-01-28 13:06:21.06	221.87	45.88	-22.9	-23.7	19.9	0.00e+00	0	43	0	1620049920	6	3950
2026-01-28 13:06:22.06	222.33	46.07	-22.8	-23.5	20.0	0.00e+00	0	43	0	1625292800	6	3909
2026-01-28 13:06:23.07	222.79	46.25	-22.9	-23.7	20.0	0.00e+00	0	43	0	1631584256	6	3949
2026-01-28 13:06:24.07	223.26	46.43	-22.9	-23.6	20.0	0.00e+00	0	43	0	1636827136	6	3922
2026-01-28 13:06:25.07	223.73	46.60	-23.0	-23.9	19.9	0.00e+00	0	43	0	1642070016	6	4005
2026-01-28 13:06:26.07	224.21	46.78	-23.3	-24.6	19.5	0.00e+00	0	43	0	1648361472	6	4174
2026-01-28 13:06:27.08	224.70	46.96	-23.2	-24.3	19.7	0.00e+00	0	43	0	1653604352	6	4094
2026-01-28 13:06:28.09	225.19	47.13	-22.8	-23.5	20.1	0.00e+00	0	43	0	1659895808	6	3911
2026-01-28 13:06:29.10	225.69	47.31	-22.8	-23.5	20.1	0.00e+00	0	43	0	1665138688	6	3905
2026-01-28 13:06:30.10	226.18	47.48	-23.2	-24.3	19.7	0.00e+00	0	43	0	1671430144	6	4082
2026-01-28 13:06:31.11	226.69	47.65	-23.1	-24.1	19.8	0.00e+00	0	43	0	1676673024	6	4035
2026-01-28 13:06:32.11	227.20	47.81	-23.2	-24.4	19.6	0.00e+00	0	43	0	1681915904	6	4132
2026-01-28 13:06:33.12	227.72	47.98	-23.1	-24.1	19.8	0.00e+00	0	43	0	1688207360	6	4046
2026-01-28 13:06:34.12	228.24	48.14	-22.9	-23.7	20.0	0.00e+00	0	43	0	1693450240	6	3953
2026-01-28 13:06:35.12	228.77	48.30	-22.9	-23.6	20.0	0.00e+00	0	43	0	1698693120	6	3923
2026-01-28 13:06:36.12	229.30	48.46	-22.8	-23.4	20.1	0.00e+00	0	43	0	1704984576	6	3868
2026-01-28 13:06:37.13	229.84	48.62	-23.0	-23.9	19.9	0.00e+00	0	43	0	1710227456	6	4004
2026-01-28 13:06:38.13	230.38	48.78	-23.2	-24.3	19.7	0.00e+00	0	43	0	1715470336	6	4084
2026-01-28 13:06:39.13	230.93	48.93	-23.2	-24.4	19.6	0.00e+00	0	43	0	1721761792	6	4114
2026-01-28 13:06:40.13	231.48	49.08	-22.8	-23.5	20.1	0.00e+00	0	43	0	1727004672	6	3888
2026-01-28 13:06:41.13	232.04	49.23	-22.8	-23.5	20.1	0.00e+00	0	43	0	1733296128	6	3890
2026-01-28 13:06:42.13	232.60	49.38	-23.1	-24.2	19.8	0.00e+00	0	43	0	1738539008	6	4053
2026-01-28 13:06:43.13	233.17	49.52	-23.2	-24.3	19.7	0.00e+00	0	43	0	1743781888	6	4097
2026-01-28 13:06:44.13	233.75	49.66	-23.3	-24.5	19.6	0.00e+00	0	43	0	1750073344	6	4146
2026-01-28 13:06:45.14	234.33	49.80	-23.1	-24.1	19.8	0.00e+00	0	43	0	1755316224	6	4054
2026-01-28 13:06:46.15	234.92	49.94	-23.1	-24.2	19.8	0.00e+00	0	43	0	1761607680	6	4064
2026-01-28 13:06:47.16	235.52	50.07	-23.4	-24.7	19.5	0.00e+00	0	43	0	1766850560	6	4192
2026-01-28 13:06:48.17	236.12	50.20	-23.2	-24.4	19.7	0.00e+00	0	43	0	1772093440	6	4109
2026-01-28 13:06:49.17	236.72	50.33	-23.1	-24.1	19.8	0.00e+00	0	43	0	1778384896	6	4037
2026-01-28 13:06:50.17	237.32	50.45	-23.3	-24.6	19.6	0.00e+00	0	43	0	1783627776	6	4162
2026-01-28 13:06:51.18	237.94	50.58	-23.5	-24.6	19.3	0.00e+00	0	43	0	1788870656	7	4045
2026-01-28 13:06:52.18	238.55	50.69	-23.2	-23.9	19.7	0.00e+00	0	43	0	1795162112	7	3884
2026-01-28 13:06:53.19	239.18	50.81	-23.0	-23.4	19.9	0.00e+00	0	43	0	1800404992	7	3765
2026-01-28 13:06:54.19	239.80	50.92	-23.2	-23.9	19.7	0.00e+00	0	43	0	1806696448	7	3880
2026-01-28 13:06:55.19	240.43	51.03	-23.5	-24.5	19.4	0.00e+00	0	43	0	1811939328	7	4017
2026-01-28 13:06:56.19	241.06	51.14	-23.1	-23.7	19.8	0.00e+00	0	43	0	1818230784	7	3827
2026-01-28 13:06:57.19	241.70	51.24	-23.0	-23.3	20.0	0.00e+00	0	43	0	1823473664	7	3748
2026-01-28 13:06:58.20	242.35	51.34	-23.2	-23.7	19.8	0.00e+00	0	43	0	1828716544	7	3848
2026-01-28 13:06:59.21	243.00	51.43	-23.0	-23.4	19.9	0.00e+00	0	43	0	1835008000	7	3777
2026-01-28 13:07:00.21	243.65	51.52	-23.0	-23.3	20.0	0.00e+00	0	43	0	1840250880	7	3755
2026-01-28 13:07:01.22	244.31	51.61	-23.4	-24.1	19.6	0.00e+00	0	43	0	1845493760	7	3936
2026-01-28 13:07:02.22	244.96	51.70	-23.7	-24.8	19.3	0.00e+00	0	43	0	1851785216	7	4106
2026-01-28 13:07:03.23	245.63	51.78	-23.8	-25.0	19.2	0.00e+00	0	43	0	1857028096	7	4145
2026-01-28 13:07:04.23	246.30	51.85	-23.4	-24.1	19.6	0.00e+00	0	43	0	1862270976	7	3935
2026-01-28 13:07:05.23	246.96	51.92	-23.2	-23.7	19.8	0.00e+00	0	43	0	1868562432	7	3849
2026-01-28 13:07:06.24	247.64	51.99	-23.2	-23.9	19.7	0.00e+00	0	43	0	1873805312	7	3882
2026-01-28 13:07:07.24	248.31	52.06	-23.5	-24.4	19.4	1.10e-06	0	43	0	1880096768	7	4010
2026-01-28 13:07:08.25	249.00	52.12	-23.8	-25.0	19.2	0.00e+00	0	43	0	1885339648	7	4158
2026-01-28 13:07:09.25	249.68	52.18	-23.6	-24.7	19.3	0.00e+00	0	43	0	1891631104	7	4067
2026-01-28 13:07:10.25	250.36	52.23	-23.5	-24.5	19.4	2.20e-06	0	43	0	1896873984	7	4018
2026-01-28 13:07:11.25	251.04	52.28	-23.5	-24.4	19.5	0.00e+00	0	43	0	1902116864	7	3992
2026-01-28 13:07:12.26	251.73	52.32	-23.3	-24.1	19.6	0.00e+00	0	43	0	1908408320	7	3930
2026-01-28 13:07:13.26	252.42	52.36	-23.3	-23.9	19.7	0.00e+00	0	43	0	1913651200	7	3875
2026-01-28 13:07:14.26	253.11	52.40	-23.4	-24.3	19.5	0.00e+00	0	43	0	1918894080	7	3972
2026-01-28 13:07:15.26	253.80	52.43	-23.8	-25.1	19.1	0.00e+00	0	43	0	1925185536	7	4187
2026-01-28 13:07:16.27	254.50	52.46	-23.7	-24.9	19.2	2.20e-06	0	43	0	1930428416	7	4133
2026-01-28 13:07:17.27	255.20	52.48	-23.7	-24.9	19.2	0.00e+00	0	43	0	1936719872	7	4111
2026-01-28 13:07:18.28	255.90	52.50	-24.2	-25.3	18.8	0.00e+00	0	43	0	1941962752	8	4114
2026-01-28 13:07:19.29	256.60	52.51	-24.3	-25.5	18.7	2.20e-06	0	43	0	1947205632	8	4177
2026-01-28 13:07:20.29	257.30	52.53	-24.2	-25.4	18.7	0.00e+00	0	43	0	1953497088	8	4144
2026-01-28 13:07:21.30	258.00	52.53	-23.6	-24.1	19.4	0.00e+00	0	43	0	1958739968	8	3816
2026-01-28 13:07:22.31	258.70	52.53	-23.6	-24.1	19.4	0.00e+00	0	43	0	1965031424	8	3811
2026-01-28 13:07:23.31	259.40	52.53	-23.8	-24.7	19.1	0.00e+00	0	43	0	1970274304	8	3955
2026-01-28 13:07:24.31	260.09	52.52	-24.2	-25.4	18.8	0.00e+00	0	43	0	1975517184	8	4136
2026-01-28 13:07:25.32	260.80	52.51	-24.5	-25.4	18.5	0.00e+00	0	43	0	1981808640	9	4027
2026-01-28 13:07:26.32	261.49	52.50	-24.0	-24.4	19.1	0.00e+00	0	43	0	1987051520	9	3779
2026-01-28 13:07:27.32	262.19	52.48	-23.6	-24.1	19.4	0.00e+00	0	43	0	1992294400	8	3825
2026-01-28 13:07:28.32	262.88	52.45	-23.5	-24.0	19.5	1.10e-06	0	43	0	1998585856	8	3811
2026-01-28 13:07:29.33	263.58	52.43	-23.6	-24.2	19.4	0.00e+00	0	43	0	2003828736	8	3859
2026-01-28 13:07:30.33	264.27	52.39	-23.3	-23.6	19.7	0.00e+00	0	43	0	2010120192	8	3695
2026-01-28 13:07:31.33	264.96	52.36	-23.2	-23.9	19.8	0.00e+00	0	43	0	2015363072	7	3876
2026-01-28 13:07:32.33	265.65	52.32	-23.4	-24.2	19.6	0.00e+00	0	43	0	2020605952	7	3964
2026-01-28 13:07:33.33	266.33	52.27	-23.7	-24.9	19.2	1.10e-06	0	43	0	2026897408	7	4126
2026-01-28 13:07:34.33	267.01	52.22	-23.4	-24.3	19.6	0.00e+00	0	43	0	2032140288	7	3978
2026-01-28 13:07:35.34	267.70	52.17	-23.3	-23.9	19.7	0.00e+00	0	43	0	2037383168	7	3889
2026-01-28 13:07:36.34	268.38	52.11	-23.5	-24.3	19.5	0.00e+00	0	43	0	2043674624	7	3984
2026-01-28 13:07:37.35	269.06	52.05	-23.8	-25.1	19.1	0.00e+00	0	43	0	2048917504	7	4180
2026-01-28 13:07:38.35	269.73	51.98	-23.8	-25.0	19.2	0.00e+00	0	43	0	2055208960	7	4163
2026-01-28 13:07:39.36	270.41	51.92	-23.8	-25.0	19.2	0.00e+00	0	43	0	2060451840	7	4156
2026-01-28 13:07:40.37	271.08	51.84	-23.7	-24.8	19.3	0.00e+00	0	43	0	2065694720	7	4101
2026-01-28 13:07:41.36	271.74	51.77	-23.3	-23.9	19.8	0.00e+00	0	43	0	2071986176	7	3886
2026-01-28 13:07:42.36	272.40	51.69	-23.3	-23.9	19.7	0.00e+00	0	43	0	2077229056	7	3884
2026-01-28 13:07:43.37	273.06	51.60	-23.5	-24.5	19.4	0.00e+00	0	43	0	2083520512	7	4039
2026-01-28 13:07:44.37	273.71	51.51	-23.8	-25.1	19.2	0.00e+00	0	43	0	2088763392	7	4178
2026-01-28 13:07:45.38	274.37	51.42	-23.7	-24.9	19.3	0.00e+00	0	43	0	2094006272	7	4128
2026-01-28 13:07:46.38	275.01	51.33	-23.4	-24.1	19.7	0.00e+00	0	43	0	2100297728	7	3932
2026-01-28 13:07:47.38	275.65	51.23	-23.3	-24.1	19.7	0.00e+00	0	43	0	2105540608	7	3920
2026-01-28 13:07:48.38	276.29	51.12	-23.5	-24.4	19.5	0.00e+00	0	43	0	2110783488	7	4006
2026-01-28 13:07:49.39	276.93	51.02	-23.5	-24.5	19.5	0.00e+00	0	43	0	2117074944	7	4024
2026-01-28 13:07:50.40	277.56	50.91	-23.4	-24.2	19.6	0.00e+00	0	43	0	2122317824	7	3944
2026-01-28 13:07:51.40	278.18	50.80	-23.2	-23.7	19.9	0.00e+00	0	43	0	2128609280	7	3839
2026-01-28 13:07:52.40	278.80	50.68	-23.0	-23.5	20.0	0.00e+00	0	43	0	2133852160	7	3778
2026-01-28 13:07:53.42	279.42	50.56	-23.2	-23.9	19.8	0.00e+00	0	43	0	2139095040	7	3876
2026-01-28 13:07:54.42	280.03	50.44	-23.4	-24.3	19.6	0.00e+00	0	43	0	2145386496	7	3985
2026-01-28 13:07:55.42	280.63	50.32	-23.4	-24.3	19.5	0.00e+00	0	43	0	2150629376	7	3970
2026-01-28 13:07:56.43	281.24	50.19	-23.3	-24.0	19.8	0.00e+00	0	43	0	2156920832	7	3896
2026-01-28 13:07:57.43	281.83	50.06	-23.3	-24.1	19.7	0.00e+00	0	43	0	2162163712	7	3926
2026-01-28 13:07:58.43	282.42	49.92	-23.4	-24.2	19.6	0.00e+00	0	43	0	2167406592	7	3957
2026-01-28 13:07:59.44	283.01	49.79	-23.4	-24.2	19.6	0.00e+00	0	43	0	2173698048	7	3961
2026-01-28 13:08:00.44	283.59	49.65	-23.5	-24.5	19.5	0.00e+00	0	43	0	2178940928	7	4035
2026-01-28 13:08:01.44	284.16	49.51	-23.2	-23.8	19.8	0.00e+00	0	44	0	2185232384	7	3871
2026-01-28 13:08:02.45	284.73	49.36	-23.0	-23.4	20.1	0.00e+00	0	43	0	2190475264	7	3761
2026-01-28 13:08:03.45	285.29	49.22	-23.1	-23.6	20.0	0.00e+00	0	43	0	2195718144	7	3800
2026-01-28 13:08:04.45	285.85	49.07	-23.2	-23.9	19.8	0.00e+00	0	43	0	2202009600	7	3892
2026-01-28 13:08:05.46	286.40	48.92	-23.2	-23.8	19.8	0.00e+00	0	43	0	2207252480	7	3863
2026-01-28 13:08:06.46	286.95	48.76	-23.2	-23.7	19.9	0.00e+00	0	43	0	2212495360	7	3841
2026-01-28 13:08:07.46	287.49	48.61	-23.1	-23.6	19.9	0.00e+00	0	43	0	2218786816	7	3819
2026-01-28 13:08:08.46	288.03	48.45	-23.1	-23.7	19.9	0.00e+00	0	43	0	2224029696	7	3853
2026-01-28 13:08:09.47	288.56	48.29	-23.1	-23.7	19.9	0.00e+00	0	43	0	2230321152	7	3836
2026-01-28 13:08:10.47	289.08	48.13	-23.3	-23.9	19.8	0.00e+00	0	43	0	2235564032	7	3886
2026-01-28 13:08:11.48	289.61	47.97	-23.6	-24.6	19.4	0.00e+00	0	43	0	2240806912	7	4048
2026-01-28 13:08:12.48	290.12	47.80	-23.8	-25.1	19.1	0.00e+00	0	43	0	2247098368	7	4180
2026-01-28 13:08:13.49	290.63	47.63	-24.0	-25.4	19.0	0.00e+00	0	43	0	2252341248	7	4262
2026-01-28 13:08:14.49	291.13	47.47	-24.1	-25.2	18.9	0.00e+00	0	43	0	2257584128	8	4095
2026-01-28 13:08:15.49	291.63	47.30	-24.0	-25.0	19.0	0.00e+00	0	43	0	2263875584	8	4026
2026-01-28 13:08:16.49	292.12	47.12	-24.0	-24.9	19.0	0.00e+00	0	43	0	2269118464	8	4001
2026-01-28 13:08:17.50	292.61	46.95	-24.0	-24.9	19.1	0.00e+00	0	43	0	2275409920	8	3999
2026-01-28 13:08:18.50	293.09	46.78	-23.9	-24.7	19.1	0.00e+00	0	43	0	2280652800	8	3970
2026-01-28 13:08:19.50	293.57	46.60	-24.3	-25.6	18.7	0.00e+00	0	43	0	2285895680	8	4169
2026-01-28 13:08:20.50	294.04	46.42	-24.3	-25.2	18.7	0.00e+00	0	43	0	2292187136	9	3966
2026-01-28 13:08:21.51	294.51	46.24	-23.9	-24.2	19.2	0.00e+00	0	43	0	2297430016	9	3742
2026-01-28 13:08:22.51	294.97	46.06	-23.6	-24.1	19.4	0.00e+00	0	43	0	2303721472	8	3825
2026-01-28 13:08:23.51	295.42	45.88	-23.7	-24.3	19.4	0.00e+00	0	43	0	2308964352	8	3872
2026-01-28 13:08:24.52	295.88	45.70	-23.7	-24.4	19.3	0.00e+00	0	43	0	2314207232	8	3900
2026-01-28 13:08:25.52	296.32	45.52	-23.5	-24.0	19.5	0.00e+00	0	43	0	2320498688	8	3800
2026-01-28 13:08:26.52	296.76	45.33	-23.5	-24.0	19.5	0.00e+00	0	43	0	2325741568	8	3807
2026-01-28 13:08:27.52	297.19	45.15	-23.7	-24.4	19.3	0.00e+00	0	43	0	2330984448	8	3901
2026-01-28 13:08:28.53	297.63	44.96	-24.0	-24.9	19.1	0.00e+00	0	43	0	2337275904	8	4021
2026-01-28 13:08:29.54	298.05	44.77	-23.9	-24.7	19.2	0.00e+00	0	43	0	2342518784	8	3967
2026-01-28 13:08:30.54	298.47	44.58	-23.4	-23.7	19.7	0.00e+00	0	43	0	2347761664	8	3723
2026-01-28 13:08:31.55	298.89	44.39	-23.1	-23.6	19.9	0.00e+00	0	43	0	2354053120	7	3819
2026-01-28 13:08:32.55	299.30	44.21	-23.1	-23.7	19.9	0.00e+00	0	43	0	2359296000	7	3837
2026-01-28 13:08:33.56	299.71	44.01	-23.1	-23.5	20.0	0.00e+00	0	43	0	2365587456	7	3806
2026-01-28 13:08:34.55	300.11	43.83	-22.9	-23.2	20.1	0.00e+00	0	43	0	2370830336	7	3734
2026-01-28 13:08:35.56	300.50	43.63	-23.1	-23.5	19.9	0.00e+00	0	43	0	2377121792	7	3798
2026-01-28 13:08:36.56	300.89	43.44	-23.2	-23.8	19.8	0.00e+00	0	43	0	2382364672	7	3865
2026-01-28 13:08:37.57	301.28	43.25	-23.5	-24.5	19.4	0.00e+00	0	43	0	2387607552	7	4033
2026-01-28 13:08:38.58	301.67	43.06	-23.6	-24.8	19.3	0.00e+00	0	43	0	2393899008	7	4096
2026-01-28 13:08:39.58	302.05	42.86	-23.3	-24.0	19.7	0.00e+00	0	43	0	2399141888	7	3900
2026-01-28 13:08:40.59	302.42	42.67	-23.0	-23.3	20.0	0.00e+00	0	43	0	2404384768	7	3754
2026-01-28 13:08:41.60	302.79	42.47	-22.9	-23.2	20.1	0.00e+00	0	43	0	2410676224	7	3712
2026-01-28 13:08:42.60	303.16	42.28	-22.9	-23.1	20.1	0.00e+00	0	43	0	2415919104	7	3695
2026-01-28 13:08:43.61	303.52	42.08	-22.9	-23.2	20.1	0.00e+00	0	43	0	2422210560	7	3722
2026-01-28 13:08:44.61	303.87	41.89	-23.0	-23.3	20.0	0.00e+00	0	44	0	2427453440	7	3757
2026-01-28 13:08:45.62	304.23	41.70	-23.0	-23.4	20.0	0.00e+00	0	43	0	2432696320	7	3774
2026-01-28 13:08:46.63	304.58	41.50	-23.0	-23.5	19.9	0.00e+00	0	43	0	2438987776	7	3794
2026-01-28 13:08:47.62	304.92	41.31	-22.9	-23.2	20.1	0.00e+00	0	43	0	2444230656	7	3721
2026-01-28 13:08:48.63	305.26	41.11	-22.7	-23.2	20.3	0.00e+00	0	43	0	2450522112	6	3815
2026-01-28 13:08:49.64	305.60	40.92	-22.6	-23.0	20.4	0.00e+00	0	43	0	2455764992	6	3786
2026-01-28 13:08:50.64	305.93	40.72	-22.8	-23.5	20.2	0.00e+00	0	43	0	2461007872	6	3886
2026-01-28 13:08:51.65	306.26	40.53	-22.8	-23.4	20.2	0.00e+00	0	43	0	2467299328	6	3880
2026-01-28 13:08:52.65	306.58	40.33	-22.8	-23.4	20.2	0.00e+00	0	43	0	2472542208	6	3882
2026-01-28 13:08:53.66	306.90	40.14	-22.9	-23.6	20.1	0.00e+00	0	43	0	2478833664	6	3923
2026-01-28 13:08:54.66	307.22	39.94	-22.7	-23.3	20.3	0.00e+00	0	43	0	2484076544	6	3844
2026-01-28 13:08:55.67	307.53	39.75	-22.6	-23.1	20.3	0.00e+00	0	43	0	2489319424	6	3811
2026-01-28 13:08:56.67	307.84	39.55	-22.7	-23.3	20.3	0.00e+00	0	43	0	2495610880	6	3857
2026-01-28 13:08:57.67	308.14	39.36	-22.8	-23.6	20.1	0.00e+00	0	43	0	2500853760	6	3912
2026-01-28 13:08:58.67	308.44	39.17	-22.8	-23.5	20.2	0.00e+00	0	43	0	2506096640	6	3891
2026-01-28 13:08:59.68	308.74	38.97	-22.8	-23.6	20.1	0.00e+00	0	43	0	2512388096	6	3918
2026-01-28 13:09:00.68	309.04	38.78	-22.8	-23.4	20.2	0.00e+00	0	43	0	2517630976	6	3877
2026-01-28 13:09:01.69	309.33	38.58	-22.8	-23.4	20.2	0.00e+00	0	43	0	2523922432	6	3872
2026-01-28 13:09:02.70	309.62	38.39	-22.8	-23.6	20.1	0.00e+00	0	43	0	2529165312	6	3920
2026-01-28 13:09:03.70	309.90	38.20	-22.8	-23.5	20.2	0.00e+00	0	43	0	2535456768	6	3890
2026-01-28 13:09:04.71	310.18	38.01	-22.7	-23.3	20.2	0.00e+00	0	43	0	2540699648	6	3850
2026-01-28 13:09:05.71	310.46	37.82	-22.9	-23.6	20.1	0.00e+00	0	43	0	2545942528	6	3926
2026-01-28 13:09:06.71	310.73	37.62	-22.8	-23.4	20.2	0.00e+00	0	43	0	2552233984	6	3882
2026-01-28 13:09:07.72	311.01	37.43	-22.7	-23.2	20.3	0.00e+00	0	43	0	2557476864	6	3838
2026-01-28 13:09:08.73	311.28	37.24	-22.8	-23.4	20.2	0.00e+00	0	43	0	2562719744	6	3882
2026-01-28 13:09:09.73	311.54	37.05	-22.8	-23.6	20.1	0.00e+00	0	43	0	2569011200	6	3921
2026-01-28 13:09:10.73	311.80	36.86	-23.0	-24.0	19.9	0.00e+00	0	43	0	2574254080	6	4020
2026-01-28 13:09:11.74	312.06	36.67	-23.1	-24.0	19.9	0.00e+00	0	43	0	2579496960	6	4025
2026-01-28 13:09:12.74	312.32	36.48	-22.9	-23.7	20.0	0.00e+00	0	43	0	2585788416	6	3959
2026-01-28 13:09:13.74	312.57	36.30	-22.9	-23.6	20.1	0.00e+00	0	43	0	2591031296	6	3934
2026-01-28 13:09:14.75	312.82	36.11	-22.7	-23.4	20.2	0.00e+00	0	43	0	2597322752	6	3872
2026-01-28 13:09:15.76	313.07	35.92	-22.7	-23.2	20.3	0.00e+00	0	43	0	2602565632	6	3837
2026-01-28 13:09:16.76	313.32	35.73	-22.8	-23.4	20.2	0.00e+00	0	43	0	2608857088	6	3882
2026-01-28 13:09:17.77	313.56	35.55	-22.8	-23.6	20.1	0.00e+00	0	43	0	2614099968	6	3916
2026-01-28 13:09:18.77	313.80	35.36	-23.0	-23.9	19.9	0.00e+00	0	43	0	2619342848	6	3993
2026-01-28 13:09:19.78	314.04	35.17	-23.1	-24.0	19.9	0.00e+00	0	43	0	2625634304	6	4029
2026-01-28 13:09:20.79	314.27	34.99	-23.1	-24.2	19.8	0.00e+00	0	43	0	2630877184	6	4075
2026-01-28 13:09:21.79	314.51	34.81	-23.2	-24.4	19.7	0.00e+00	0	43	0	2636120064	6	4114
2026-01-28 13:09:22.79	314.73	34.62	-23.2	-24.3	19.7	0.00e+00	0	43	0	2642411520	6	4101
2026-01-28 13:09:23.79	314.96	34.44	-23.3	-24.5	19.6	0.00e+00	0	43	0	2647654400	6	4135
2026-01-28 13:09:24.79	315.18	34.26	-23.1	-24.2	19.7	0.00e+00	0	43	0	2652897280	6	4064
2026-01-28 13:09:25.79	315.40	34.08	-23.5	-24.9	19.4	0.00e+00	0	43	0	2659188736	6	4239
2026-01-28 13:09:26.79	315.62	33.90	-23.4	-24.2	19.5	0.00e+00	0	43	0	2664431616	7	3944
2026-01-28 13:09:27.80	315.84	33.72	-23.1	-23.6	19.8	0.00e+00	0	43	0	2670723072	7	3821
2026-01-28 13:09:28.80	316.05	33.54	-23.0	-23.4	19.9	0.00e+00	0	43	0	2675965952	7	3775
2026-01-28 13:09:29.80	316.27	33.36	-23.0	-23.3	19.9	0.00e+00	0	43	0	2682257408	7	3758
2026-01-28 13:09:30.81	316.48	33.18	-23.0	-23.4	19.9	0.00e+00	0	43	0	2687500288	7	3773
2026-01-28 13:09:31.81	316.68	33.00	-23.1	-23.6	19.8	0.00e+00	0	43	0	2692743168	7	3811
2026-01-28 13:09:32.82	316.89	32.82	-23.0	-23.5	19.9	0.00e+00	0	43	0	2699034624	7	3792
2026-01-28 13:09:33.83	317.10	32.65	-23.0	-23.5	19.9	0.00e+00	0	43	0	2704277504	7	3790
2026-01-28 13:09:34.83	317.30	32.47	-23.2	-23.8	19.7	0.00e+00	0	43	0	2709520384	7	3857
2026-01-28 13:09:35.84	317.50	32.30	-23.0	-23.5	19.8	0.00e+00	0	43	0	2715811840	7	3791
2026-01-28 13:09:36.84	317.69	32.12	-22.9	-23.2	20.0	0.00e+00	0	43	0	2721054720	7	3735
2026-01-28 13:09:37.85	317.89	31.95	-23.0	-23.3	19.9	0.00e+00	0	43	0	2727346176	7	3751
2026-01-28 13:09:38.85	318.08	31.77	-23.0	-23.3	19.9	0.00e+00	0	43	0	2732589056	7	3755
2026-01-28 13:09:39.86	318.27	31.60	-23.1	-23.7	19.7	0.00e+00	0	43	0	2737831936	7	3837
2026-01-28 13:09:40.87	318.46	31.43	-23.1	-23.6	19.7	0.00e+00	0	43	0	2744123392	7	3827
2026-01-28 13:09:41.87	318.65	31.26	-23.3	-24.0	19.5	0.00e+00	0	43	0	2749366272	7	3918
2026-01-28 13:09:42.88	318.84	31.09	-23.3	-24.1	19.5	0.00e+00	0	43	0	2755657728	7	3944
2026-01-28 13:09:43.88	319.02	30.92	-23.6	-24.6	19.3	0.00e+00	0	43	0	2760900608	7	4051
2026-01-28 13:09:44.88	319.20	30.75	-23.4	-24.4	19.4	0.00e+00	0	43	0	2766143488	7	3999
2026-01-28 13:09:45.89	319.38	30.58	-23.5	-24.5	19.3	0.00e+00	0	43	0	2772434944	7	4032
2026-01-28 13:09:46.89	319.56	30.41	-23.5	-24.4	19.3	0.00e+00	0	43	0	2777677824	7	4018
2026-01-28 13:09:47.89	319.73	30.24	-23.5	-24.5	19.3	0.00e+00	0	43	0	2782920704	7	4040
2026-01-28 13:09:48.90	319.91	30.08	-23.4	-24.4	19.4	0.00e+00	0	43	0	2789212160	7	3998
2026-01-28 13:09:49.90	320.08	29.91	-23.5	-24.4	19.4	0.00e+00	0	43	0	2794455040	7	4010
2026-01-28 13:09:50.91	320.25	29.75	-23.6	-24.6	19.3	0.00e+00	0	43	0	2800746496	7	4058
2026-01-28 13:09:51.91	320.42	29.58	-23.4	-24.3	19.4	0.00e+00	0	43	0	2805989376	7	3981
2026-01-28 13:09:52.92	320.59	29.42	-23.2	-23.9	19.6	0.00e+00	0	43	0	2811232256	7	3889
2026-01-28 13:09:53.92	320.75	29.26	-23.3	-24.0	19.5	0.00e+00	0	43	0	2817523712	7	3904
2026-01-28 13:09:54.92	320.92	29.09	-23.1	-23.7	19.7	0.00e+00	0	43	0	2822766592	7	3831
2026-01-28 13:09:55.93	321.08	28.93	-23.2	-23.7	19.7	0.00e+00	0	43	0	2829058048	7	3847
2026-01-28 13:09:56.94	321.24	28.77	-23.3	-24.1	19.5	0.00e+00	0	43	0	2834300928	7	3931
2026-01-28 13:09:57.94	321.40	28.61	-23.2	-23.8	19.6	0.00e+00	0	43	0	2840592384	7	3870
2026-01-28 13:09:58.95	321.56	28.45	-23.2	-23.8	19.6	0.00e+00	0	43	0	2845835264	7	3864
2026-01-28 13:09:59.95	321.72	28.29	-23.3	-24.0	19.5	0.00e+00	0	43	0	2851078144	7	3907
2026-01-28 13:10:00.95	321.87	28.13	-23.3	-23.9	19.5	0.00e+00	0	43	0	2857369600	7	3901
2026-01-28 13:10:01.95	322.02	27.98	-23.4	-24.2	19.4	0.00e+00	0	43	0	2862612480	7	3970
2026-01-28 13:10:02.97	322.18	27.82	-23.4	-24.2	19.4	0.00e+00	0	43	0	2867855360	7	3964
2026-01-28 13:10:03.97	322.33	27.66	-23.4	-24.3	19.3	0.00e+00	0	43	0	2874146816	7	3991
2026-01-28 13:10:04.97	322.48	27.51	-23.6	-24.7	19.2	0.00e+00	0	43	0	2879389696	7	4083
2026-01-28 13:10:05.97	322.62	27.36	-23.5	-24.4	19.3	0.00e+00	0	43	0	2884632576	7	4003
2026-01-28 13:10:06.98	322.77	27.20	-23.3	-24.1	19.5	0.00e+00	0	43	0	2890924032	7	3932
2026-01-28 13:10:07.98	322.91	27.05	-23.3	-24.0	19.6	0.00e+00	0	43	0	2896166912	7	3915
2026-01-28 13:10:08.99	323.06	26.89	-23.4	-24.2	19.4	0.00e+00	0	43	0	2902458368	7	3953
2026-01-28 13:10:09.99	323.20	26.74	-23.2	-23.8	19.6	0.00e+00	0	43	0	2907701248	7	3860
2026-01-28 13:10:11.00	323.34	26.59	-23.3	-24.1	19.4	0.00e+00	0	43	0	2913992704	7	3932
2026-01-28 13:10:12.00	323.48	26.44	-23.1	-23.7	19.7	0.00e+00	0	43	0	2919235584	7	3843
2026-01-28 13:10:13.01	323.62	26.29	-23.1	-23.7	19.6	0.00e+00	0	43	0	2924478464	7	3836
2026-01-28 13:10:14.01	323.76	26.14	-23.2	-23.9	19.6	0.00e+00	0	43	0	2930769920	7	3888
2026-01-28 13:10:15.02	323.89	25.99	-23.4	-24.2	19.4	0.00e+00	0	43	0	2936012800	7	3951
2026-01-28 13:10:16.02	324.03	25.84	-23.3	-24.1	19.4	0.00e+00	0	43	0	2941255680	7	3938
2026-01-28 13:10:17.03	324.16	25.70	-23.5	-24.5	19.2	0.00e+00	0	43	0	2947547136	7	4025
2026-01-28 13:10:18.03	324.29	25.55	-23.8	-25.1	18.9	0.00e+00	0	43	0	2952790016	7	4172
2026-01-28 13:10:19.03	324.42	25.41	-23.6	-24.6	19.1	0.00e+00	0	43	0	2958032896	7	4060
2026-01-28 13:10:20.04	324.55	25.26	-23.6	-24.6	19.2	0.00e+00	0	43	0	2964324352	7	4053
2026-01-28 13:10:21.04	324.68	25.12	-23.6	-24.8	19.0	0.00e+00	0	44	0	2969567232	7	4096
2026-01-28 13:10:22.05	324.81	24.97	-23.6	-24.6	19.2	0.00e+00	0	43	0	2975858688	7	4048
2026-01-28 13:10:23.05	324.94	24.83	-23.6	-24.6	19.1	0.00e+00	0	43	0	2981101568	7	4050
2026-01-28 13:10:24.05	325.06	24.69	-23.6	-24.7	19.1	0.00e+00	0	43	0	2987393024	7	4072
2026-01-28 13:10:25.06	325.19	24.54	-23.9	-25.4	18.7	0.00e+00	0	43	0	2992635904	7	4247
2026-01-28 13:10:26.06	325.31	24.40	-23.7	-24.8	19.0	0.00e+00	0	43	0	2997878784	7	4114
2026-01-28 13:10:27.06	325.43	24.26	-23.6	-24.6	19.1	0.00e+00	0	43	0	3004170240	7	4065
2026-01-28 13:10:28.06	325.55	24.12	-23.6	-24.6	19.1	0.00e+00	0	43	0	3009413120	7	4052
2026-01-28 13:10:29.07	325.67	23.98	-23.7	-24.9	19.0	0.00e+00	0	43	0	3014656000	7	4125
2026-01-28 13:10:30.07	325.79	23.84	-23.7	-24.9	18.9	0.00e+00	0	43	0	3020947456	7	4144
2026-01-28 13:10:31.07	325.91	23.71	-23.9	-25.3	18.7	0.00e+00	0	43	0	3026190336	7	4234
2026-01-28 13:10:32.08	326.03	23.57	-23.9	-25.3	18.7	0.00e+00	0	43	0	3031433216	7	4241
2026-01-28 13:10:33.08	326.14	23.43	-24.0	-25.1	18.6	0.00e+00	0	43	0	3037724672	8	4071
2026-01-28 13:10:34.08	326.26	23.29	-24.0	-25.1	18.7	0.00e+00	0	43	0	3042967552	8	4069
2026-01-28 13:10:35.08	326.37	23.16	-24.1	-25.2	18.6	0.00e+00	0	43	0	3049259008	8	4088
2026-01-28 13:10:36.09	326.49	23.02	-24.1	-25.2	18.6	0.00e+00	0	43	0	3054501888	8	4104
2026-01-28 13:10:37.09	326.60	22.89	-24.2	-25.5	18.4	0.00e+00	0	44	0	3059744768	8	4159
2026-01-28 13:10:38.09	326.71	22.76	-24.1	-25.1	18.6	0.00e+00	0	43	0	3066036224	8	4082
2026-01-28 13:10:39.09	326.82	22.62	-24.1	-25.2	18.6	0.00e+00	0	44	0	3071279104	8	4092
2026-01-28 13:10:40.09	326.93	22.49	-24.1	-25.3	18.5	0.00e+00	0	43	0	3076521984	8	4128
2026-01-28 13:10:41.09	327.04	22.36	-24.0	-25.0	18.7	0.00e+00	0	43	0	3082813440	8	4035
2026-01-28 13:10:42.10	327.14	22.23	-23.9	-24.9	18.7	0.00e+00	0	44	0	3088056320	8	4009
2026-01-28 13:10:43.11	327.25	22.10	-24.0	-24.9	18.7	0.00e+00	0	43	0	3094347776	8	4029
2026-01-28 13:10:44.10	327.36	21.97	-24.0	-25.0	18.7	0.00e+00	0	43	0	3099590656	8	4050
2026-01-28 13:10:45.11	327.46	21.84	-24.1	-25.3	18.5	0.00e+00	0	43	0	3104833536	8	4108
2026-01-28 13:10:46.11	327.57	21.71	-24.0	-25.1	18.6	0.00e+00	0	43	0	3111124992	8	4062
2026-01-28 13:10:47.12	327.67	21.58	-24.1	-25.1	18.6	0.00e+00	0	43	0	3116367872	8	4072
2026-01-28 13:10:48.12	327.77	21.45	-24.1	-25.3	18.5	0.00e+00	0	43	0	3122659328	8	4114
2026-01-28 13:10:49.12	327.87	21.32	-24.1	-25.3	18.5	0.00e+00	0	43	0	3127902208	8	4120
2026-01-28 13:10:50.12	327.97	21.20	-24.2	-25.5	18.4	0.00e+00	0	43	0	3133145088	8	4167
2026-01-28 13:10:51.12	328.07	21.07	-24.3	-25.7	18.3	0.00e+00	0	43	0	3139436544	8	4225
2026-01-28 13:10:52.12	328.17	20.94	-24.3	-25.7	18.3	0.00e+00	0	43	0	3144679424	8	4218
2026-01-28 13:10:53.12	328.27	20.82	-24.4	-25.8	18.2	0.00e+00	0	43	0	3149922304	8	4243
2026-01-28 13:10:54.12	328.37	20.70	-24.4	-25.9	18.1	0.00e+00	0	43	0	3156213760	8	4264
2026-01-28 13:10:55.12	328.47	20.57	-24.4	-25.9	18.1	0.00e+00	0	43	0	3161456640	8	4278
2026-01-28 13:10:56.12	328.56	20.45	-24.4	-25.9	18.1	0.00e+00	0	43	0	3166699520	8	4266
2026-01-28 13:10:57.13	328.66	20.32	-24.4	-26.0	18.1	0.00e+00	0	43	0	3172990976	8	4285
2026-01-28 13:10:58.13	328.75	20.20	-24.6	-25.7	18.0	0.00e+00	0	43	0	3178233856	9	4104
2026-01-28 13:10:59.13	328.85	20.08	-24.8	-26.1	17.7	0.00e+00	0	43	0	3184525312	9	4213
2026-01-28 13:11:00.14	328.94	19.96	-24.5	-25.7	18.0	0.00e+00	0	43	0	3189768192	9	4100
2026-01-28 13:11:01.14	329.03	19.84	-24.4	-25.3	18.1	0.00e+00	0	43	0	3195011072	9	4012
2026-01-28 13:11:02.14	329.13	19.72	-24.4	-25.3	18.1	0.00e+00	0	43	0	3201302528	9	4015
2026-01-28 13:11:03.15	329.22	19.60	-24.6	-25.7	17.9	0.00e+00	0	43	0	3206545408	9	4117
2026-01-28 13:11:04.15	329.31	19.48	-24.7	-26.0	17.8	0.00e+00	0	43	0	3212836864	9	4169
2026-01-28 13:11:05.16	329.40	19.36	-24.6	-25.9	17.9	0.00e+00	0	43	0	3218079744	9	4152
2026-01-28 13:11:06.16	329.49	19.24	-24.7	-26.0	17.8	0.00e+00	0	43	0	3223322624	9	4188
2026-01-28 13:11:07.16	329.58	19.12	-24.7	-25.9	17.8	0.00e+00	0	43	0	3229614080	9	4168
2026-01-28 13:11:08.16	329.66	19.00	-24.8	-26.1	17.7	0.00e+00	0	43	0	3234856960	9	4220
2026-01-28 13:11:09.17	329.75	18.89	-24.8	-26.3	17.6	0.00e+00	0	43	0	3240099840	9	4254
2026-01-28 13:11:10.17	329.84	18.77	-24.9	-26.5	17.5	0.00e+00	0	43	0	3246391296	9	4319
2026-01-28 13:11:11.18	329.93	18.65	-24.8	-26.2	17.7	0.00e+00	0	43	0	3251634176	9	4231
2026-01-28 13:11:12.18	330.01	18.54	-24.8	-26.2	17.7	0.00e+00	0	43	0	3257925632	9	4229
2026-01-28 13:11:13.18	330.10	18.42	-24.9	-26.4	17.5	1.10e-06	0	43	0	3263168512	9	4294
2026-01-28 13:11:14.19	330.18	18.31	-25.1	-26.5	17.2	0.00e+00	0	43	0	3268411392	10	4191
2026-01-28 13:11:15.19	330.27	18.20	-25.4	-27.1	16.9	0.00e+00	0	43	0	3274702848	10	4356
2026-01-28 13:11:16.19	330.35	18.08	-25.3	-26.8	17.1	0.00e+00	0	43	0	3279945728	10	4268
2026-01-28 13:11:17.19	330.43	17.97	-25.4	-27.1	16.9	0.00e+00	0	44	0	3286237184	10	4346
2026-01-28 13:11:18.20	330.51	17.86	-25.4	-27.0	17.0	0.00e+00	0	43	0	3291480064	10	4323
2026-01-28 13:11:19.20	330.59	17.74	-25.4	-27.1	16.9	0.00e+00	0	43	0	3296722944	10	4362
2026-01-28 13:11:20.20	330.67	17.63	-25.3	-26.8	17.1	0.00e+00	0	43	0	3303014400	10	4288
2026-01-28 13:11:21.20	330.75	17.52	-25.3	-26.8	17.1	0.00e+00	0	43	0	3308257280	10	4276
2026-01-28 13:11:22.21	330.84	17.41	-25.3	-26.9	17.0	0.00e+00	0	43	0	3314548736	10	4306
2026-01-28 13:11:23.21	330.91	17.30	-25.3	-26.7	17.1	0.00e+00	0	44	0	3319791616	10	4266
2026-01-28 13:11:24.21	330.99	17.19	-25.5	-26.7	16.8	0.00e+00	0	43	0	3325034496	11	4141
2026-01-28 13:11:25.21	331.07	17.08	-25.4	-26.5	17.0	0.00e+00	0	43	0	3331325952	11	4089
2026-01-28 13:11:26.22	331.15	16.97	-25.3	-26.3	17.1	0.00e+00	0	43	0	3336568832	11	4037
2026-01-28 13:11:27.23	331.23	16.86	-25.2	-26.0	17.2	0.00e+00	0	43	0	3341811712	11	3970
2026-01-28 13:11:28.23	331.30	16.75	-25.3	-26.3	17.0	0.00e+00	0	43	0	3348103168	11	4044
2026-01-28 13:11:29.23	331.38	16.65	-25.5	-26.7	16.8	0.00e+00	0	43	0	3353346048	11	4126
2026-01-28 13:11:30.24	331.45	16.54	-25.5	-26.7	16.8	0.00e+00	0	43	0	3358588928	11	4134
2026-01-28 13:11:31.25	331.53	16.43	-25.6	-26.9	16.7	0.00e+00	0	43	0	3364880384	11	4197
2026-01-28 13:11:32.25	331.60	16.33	-25.7	-27.1	16.6	0.00e+00	0	43	0	3370123264	11	4256
2026-01-28 13:11:33.26	331.68	16.22	-25.6	-27.0	16.6	0.00e+00	0	43	0	3376414720	11	4212
2026-01-28 13:11:34.26	331.75	16.11	-25.6	-27.0	16.6	0.00e+00	0	43	0	3381657600	11	4227
2026-01-28 13:11:35.26	331.83	16.01	-25.6	-27.0	16.6	0.00e+00	0	43	0	3387949056	11	4218
2026-01-28 13:11:36.26	331.90	15.90	-25.7	-27.1	16.5	0.00e+00	0	43	0	3393191936	11	4251
2026-01-28 13:11:37.26	331.97	15.80	-25.8	-27.5	16.3	0.00e+00	0	43	0	3398434816	11	4355
2026-01-28 13:11:38.26	332.04	15.70	-25.8	-27.5	16.3	0.00e+00	0	43	0	3404726272	11	4351
2026-01-28 13:11:39.26	332.11	15.59	-25.9	-27.2	16.2	0.00e+00	0	43	0	3409969152	12	4162
2026-01-28 13:11:40.27	332.18	15.49	-25.7	-26.6	16.4	0.00e+00	0	43	0	3415212032	12	4024
2026-01-28 13:11:41.27	332.25	15.39	-25.7	-26.6	16.5	0.00e+00	0	43	0	3421503488	12	4014
2026-01-28 13:11:42.28	332.32	15.28	-25.7	-26.7	16.4	0.00e+00	0	43	0	3426746368	12	4038
2026-01-28 13:11:43.29	332.39	15.18	-25.6	-26.5	16.5	0.00e+00	0	43	0	3431989248	12	3977
2026-01-28 13:11:44.29	332.46	15.08	-25.7	-26.7	16.4	0.00e+00	0	43	0	3438280704	12	4041
2026-01-28 13:11:45.30	332.53	14.98	-25.7	-26.8	16.3	0.00e+00	0	43	0	3443523584	12	4062
2026-01-28 13:11:46.31	332.60	14.88	-25.7	-26.7	16.4	0.00e+00	0	43	0	3449815040	12	4038
2026-01-28 13:11:47.31	332.67	14.78	-25.8	-26.9	16.3	0.00e+00	0	43	0	3455057920	12	4086
2026-01-28 13:11:48.31	332.73	14.68	-25.8	-26.8	16.3	0.00e+00	0	43	0	3461349376	12	4070
2026-01-28 13:11:49.31	332.80	14.58	-25.8	-26.8	16.3	0.00e+00	0	43	0	3466592256	12	4066
2026-01-28 13:11:50.31	332.87	14.48	-25.8	-27.0	16.2	0.00e+00	0	43	0	3471835136	12	4108
2026-01-28 13:11:51.32	332.93	14.38	-25.9	-27.1	16.1	0.00e+00	0	44	0	3478126592	12	4133
2026-01-28 13:11:52.32	333.00	14.28	-26.0	-27.3	16.0	0.00e+00	0	43	0	3483369472	12	4193
2026-01-28 13:11:53.32	333.06	14.18	-26.1	-27.5	15.9	0.00e+00	0	43	0	3488612352	12	4250
2026-01-28 13:11:54.33	333.13	14.09	-25.9	-27.2	16.1	0.00e+00	0	43	0	3494903808	12	4168
2026-01-28 13:11:55.33	333.19	13.99	-26.0	-27.3	16.1	0.00e+00	0	44	0	3500146688	12	4181
2026-01-28 13:11:56.33	333.26	13.89	-26.1	-27.5	16.0	0.00e+00	0	43	0	3505389568	12	4239
2026-01-28 13:11:57.33	333.32	13.80	-26.2	-27.7	15.8	0.00e+00	0	43	0	3511681024	12	4314
2026-01-28 13:11:58.33	333.38	13.70	-26.1	-27.6	15.9	0.00e+00	0	43	0	3516923904	12	4269
2026-01-28 13:11:59.34	333.45	13.60	-26.1	-27.7	15.8	0.00e+00	0	43	0	3523215360	12	4297
2026-01-28 13:12:00.34	333.51	13.51	-26.2	-27.8	15.7	0.00e+00	0	43	0	3528458240	12	4340
2026-01-28 13:12:01.34	333.57	13.41	-26.3	-28.0	15.6	0.00e+00	0	43	0	3533701120	12	4394
2026-01-28 13:12:02.34	333.63	13.32	-26.4	-28.2	15.5	0.00e+00	0	43	0	3539992576	12	4431
2026-01-28 13:12:03.34	333.69	13.22	-26.1	-27.6	15.8	0.00e+00	0	43	0	3545235456	12	4285
2026-01-28 13:12:04.35	333.75	13.13	-26.2	-27.8	15.7	0.00e+00	0	43	0	3551526912	12	4340
2026-01-28 13:12:05.36	333.82	13.03	-26.2	-27.7	15.7	0.00e+00	0	43	0	3556769792	12	4308
2026-01-28 13:12:06.36	333.88	12.94	-26.2	-27.8	15.6	0.00e+00	0	44	0	3562012672	12	4334
2026-01-28 13:12:07.36	333.94	12.85	-26.2	-27.9	15.6	0.00e+00	0	44	0	3568304128	12	4353
2026-01-28 13:12:08.37	334.00	12.75	-26.2	-27.8	15.7	0.00e+00	0	44	0	3573547008	12	4330
2026-01-28 13:12:09.37	334.05	12.66	-26.2	-27.9	15.6	0.00e+00	0	43	0	3578789888	12	4352
2026-01-28 13:12:10.37	334.11	12.57	-26.1	-27.6	15.7	0.00e+00	0	44	0	3585081344	12	4286
2026-01-28 13:12:11.38	334.17	12.48	-26.1	-27.6	15.8	0.00e+00	0	43	0	3590324224	12	4277
2026-01-28 13:12:12.38	334.23	12.39	-26.2	-27.9	15.6	0.00e+00	0	43	0	3596615680	12	4366
2026-01-28 13:12:13.38	334.29	12.30	-26.2	-27.8	15.6	0.00e+00	0	43	0	3601858560	12	4343
2026-01-28 13:12:14.39	334.35	12.20	-26.2	-27.9	15.6	0.00e+00	0	43	0	3607101440	12	4363
2026-01-28 13:12:15.39	334.40	12.11	-26.3	-27.9	15.5	0.00e+00	0	44	0	3613392896	12	4367
2026-01-28 13:12:16.40	334.46	12.02	-26.3	-28.0	15.5	0.00e+00	0	43	0	3618635776	12	4400
2026-01-28 13:12:17.40	334.52	11.93	-26.3	-28.0	15.5	0.00e+00	0	44	0	3624927232	12	4393
2026-01-28 13:12:18.40	334.57	11.84	-26.3	-28.1	15.5	0.00e+00	0	43	0	3630170112	12	4398
2026-01-28 13:12:19.41	334.63	11.75	-26.4	-28.3	15.3	0.00e+00	0	43	0	3635412992	12	4480
2026-01-28 13:12:20.41	334.68	11.66	-26.2	-27.9	15.6	0.00e+00	0	43	0	3641704448	12	4355
2026-01-28 13:12:21.42	334.74	11.58	-26.2	-27.9	15.5	0.00e+00	0	43	0	3646947328	12	4359
2026-01-28 13:12:22.42	334.79	11.49	-26.2	-27.8	15.6	0.00e+00	0	43	0	3652190208	12	4337
2026-01-28 13:12:23.43	334.85	11.40	-26.3	-28.0	15.5	0.00e+00	0	43	0	3658481664	12	4399
2026-01-28 13:12:24.43	334.90	11.31	-26.4	-28.2	15.4	0.00e+00	0	43	0	3663724544	12	4444
2026-01-28 13:12:25.44	334.96	11.22	-26.4	-28.2	15.4	0.00e+00	0	44	0	3670016000	12	4440
2026-01-28 13:12:26.44	335.01	11.14	-26.3	-28.1	15.4	0.00e+00	0	44	0	3675258880	12	4426
2026-01-28 13:12:27.45	335.07	11.05	-26.3	-28.0	15.4	0.00e+00	0	44	0	3681550336	12	4388
2026-01-28 13:12:28.45	335.12	10.96	-26.2	-27.9	15.5	0.00e+00	0	44	0	3686793216	12	4363
2026-01-28 13:12:29.45	335.17	10.88	-26.3	-28.0	15.4	0.00e+00	0	44	0	3692036096	12	4389
2026-01-28 13:12:30.45	335.22	10.79	-26.3	-28.0	15.4	0.00e+00	0	43	0	3698327552	12	4391
2026-01-28 13:12:31.46	335.28	10.70	-26.3	-28.1	15.4	0.00e+00	0	43	0	3703570432	12	4415
2026-01-28 13:12:32.47	335.33	10.62	-26.4	-28.2	15.3	0.00e+00	0	44	0	3708813312	12	4458
2026-01-28 13:12:33.47	335.38	10.53	-26.4	-27.9	15.2	0.00e+00	0	43	0	3715104768	13	4237
2026-01-28 13:12:34.47	335.43	10.45	-26.3	-27.6	15.3	0.00e+00	0	44	0	3720347648	13	4170
2026-01-28 13:12:35.47	335.48	10.36	-26.3	-27.4	15.4	0.00e+00	0	43	0	3725590528	13	4130
2026-01-28 13:12:36.48	335.53	10.28	-26.4	-27.7	15.2	0.00e+00	0	44	0	3731881984	13	4209
2026-01-28 13:12:37.49	335.59	10.19	-26.3	-27.7	15.3	0.00e+00	0	44	0	3737124864	13	4196
2026-01-28 13:12:38.49	335.64	10.11	-26.4	-27.7	15.2	0.00e+00	0	44	0	3743416320	13	4210
2026-01-28 13:12:39.50	335.69	10.03	-26.5	-27.9	15.2	0.00e+00	0	43	0	3748659200	13	4254
2026-01-28 13:12:40.50	335.74	9.94	-26.4	-27.8	15.2	0.00e+00	0	44	0	3754950656	13	4221
2026-01-28 13:12:41.51	335.79	9.86	-26.5	-28.1	15.0	0.00e+00	0	43	0	3760193536	13	4304
2026-01-28 13:12:42.51	335.84	9.78	-26.6	-28.3	14.9	1.10e-06	0	43	0	3765436416	13	4369
2026-01-28 13:12:43.52	335.89	9.69	-26.7	-28.4	14.9	0.00e+00	0	43	0	3771727872	13	4394
2026-01-28 13:12:44.52	335.93	9.61	-26.7	-28.4	14.9	0.00e+00	0	43	0	3776970752	13	4383
2026-01-28 13:12:45.52	335.98	9.53	-26.8	-28.6	14.7	0.00e+00	0	43	0	3782213632	13	4452
2026-01-28 13:12:46.52	336.03	9.45	-26.8	-28.8	14.6	0.00e+00	0	43	0	3788505088	13	4504
2026-01-28 13:12:47.53	336.08	9.37	-26.7	-28.5	14.8	0.00e+00	0	44	0	3793747968	13	4412
2026-01-28 13:12:48.52	336.13	9.28	-26.6	-28.2	15.0	1.10e-06	0	43	0	3798990848	13	4334
2026-01-28 13:12:49.52	336.17	9.20	-26.7	-28.5	14.8	1.10e-06	0	44	0	3805282304	13	4421
2026-01-28 13:12:50.52	336.22	9.12	-26.8	-28.8	14.6	0.00e+00	0	43	0	3810525184	13	4495
2026-01-28 13:12:51.47	336.27	9.05	-26.8	-28.8	14.6	1.10e-06	0	43	0	3816816640	13	4498
2026-01-28 13:12:52.47	336.31	8.97	-26.7	-28.5	14.7	0.00e+00	0	43	0	3822059520	13	4427
2026-01-28 13:12:53.48	336.36	8.89	-26.7	-28.4	14.8	0.00e+00	0	43	0	3827302400	13	4390
2026-01-28 13:12:54.49	336.41	8.81	-26.7	-28.5	14.7	1.10e-06	0	44	0	3833593856	13	4423
2026-01-28 13:12:55.49	336.45	8.73	-26.7	-28.4	14.8	0.00e+00	0	43	0	3838836736	13	4393
2026-01-28 13:12:56.50	336.50	8.65	-26.7	-28.4	14.7	0.00e+00	0	44	0	3845128192	13	4406
