passes_logs/2026/01/28/R2M6_AANII_01/R2M6_AANII_01__20260128_023049_AQUA_rec.log

#Pass ID: 20260128_023049_AQUA
#Satellite: AQUA
#Configuration: AQUA
#almurnet v.1.7.20240730
#Start time: 2026-01-28 02:30:50

#Version: 2.2.20231116
#Station: R2M6_AANII_01
#Location: 30.233357 lon 59.946436 lat
#TLE: 1 27424U 02022A   26027.49103455  .00001862  00000+0  38220-3 0  9997
#TLE: 2 27424  98.4102 354.1298 0001846  63.8060  46.9979 14.61867034262711

#Time	Az	El	Level	Level2	SNR	BER	BlckErr	Temp	State	Recorded	gain1	gain2
2026-01-28 02:30:50.67	14.16	7.07	-32.2	-39.3	4.9	7.14e-01	0	40	0	0	25	8202
2026-01-28 02:30:51.67	14.13	7.15	-32.3	-39.7	4.9	7.14e-01	0	40	104	0	25	8447
2026-01-28 02:30:52.68	14.10	7.23	-32.3	-38.8	10.8	6.13e-01	0	40	0	0	25	7674
2026-01-28 02:30:53.68	14.07	7.31	-32.3	-38.7	11.4	6.08e-01	0	40	0	1572864	25	7554
2026-01-28 02:30:54.69	14.04	7.39	-32.0	-38.1	12.2	6.07e-01	0	40	0	3670016	24	7268
2026-01-28 02:30:55.69	14.01	7.48	-31.9	-37.8	12.6	6.06e-01	0	40	0	5242880	24	7075
2026-01-28 02:30:56.69	13.98	7.56	-31.8	-37.2	12.8	6.05e-01	0	41	0	7340032	24	6725
2026-01-28 02:30:57.70	13.95	7.64	-31.8	-37.2	13.4	6.05e-01	0	41	0	9437184	24	6704
2026-01-28 02:30:58.70	13.92	7.72	-31.8	-37.0	13.4	6.05e-01	0	40	0	11010048	24	6594
2026-01-28 02:30:59.70	13.89	7.81	-31.6	-36.4	13.8	6.03e-01	0	41	0	13107200	24	6290
2026-01-28 02:31:00.70	13.86	7.89	-31.3	-36.1	14.4	6.03e-01	0	41	0	14680064	23	6203
2026-01-28 02:31:01.71	13.83	7.97	-31.1	-35.3	15.0	6.00e-01	0	41	0	16777216	23	5819
2026-01-28 02:31:02.71	13.80	8.06	-31.0	-35.3	15.8	6.03e-01	0	41	0	18350080	22	5942
2026-01-28 02:31:03.72	13.77	8.14	-30.8	-34.7	16.4	6.01e-01	0	41	0	20447232	22	5651
2026-01-28 02:31:04.72	13.74	8.23	-30.6	-34.3	16.6	6.04e-01	0	41	0	22544384	22	5468
2026-01-28 02:31:05.72	13.70	8.31	-30.5	-34.4	17.0	6.02e-01	0	41	0	24117248	21	5646
2026-01-28 02:31:06.73	13.67	8.40	-30.4	-34.2	17.2	6.02e-01	0	41	0	26214400	21	5545
2026-01-28 02:31:07.72	13.64	8.48	-30.4	-34.3	17.1	6.00e-01	0	41	0	28311552	21	5581
2026-01-28 02:31:08.73	13.61	8.57	-30.5	-34.3	17.0	6.04e-01	0	41	0	29884416	21	5616
2026-01-28 02:31:09.73	13.58	8.66	-30.5	-34.3	17.2	6.02e-01	0	41	0	31981568	21	5582
2026-01-28 02:31:10.74	13.54	8.74	-30.3	-33.9	17.5	5.98e-01	0	41	0	33554432	21	5420
2026-01-28 02:31:11.74	13.51	8.83	-30.4	-34.0	17.4	6.03e-01	0	41	0	35651584	21	5451
2026-01-28 02:31:12.75	13.48	8.92	-30.3	-33.9	17.6	6.04e-01	0	41	0	37224448	21	5423
2026-01-28 02:31:13.75	13.44	9.00	-30.4	-34.1	17.4	6.03e-01	0	41	0	39321600	21	5488
2026-01-28 02:31:14.75	13.41	9.09	-30.3	-33.9	17.5	6.00e-01	0	41	0	41418752	21	5421
2026-01-28 02:31:15.75	13.38	9.18	-30.3	-33.9	17.6	6.00e-01	0	41	0	42991616	21	5405
2026-01-28 02:31:16.75	13.34	9.27	-30.3	-33.7	17.7	6.01e-01	0	41	0	45088768	21	5330
2026-01-28 02:31:17.76	13.31	9.36	-30.3	-33.7	17.6	6.01e-01	0	41	0	46661632	21	5347
2026-01-28 02:31:18.76	13.27	9.45	-30.2	-33.6	17.8	6.02e-01	0	41	0	48758784	21	5302
2026-01-28 02:31:19.76	13.24	9.54	-30.2	-33.5	18.0	6.03e-01	0	41	0	50331648	21	5243
2026-01-28 02:31:20.77	13.20	9.63	-30.3	-33.8	17.7	6.01e-01	0	41	0	52428800	21	5364
2026-01-28 02:31:21.77	13.17	9.72	-30.3	-33.7	17.8	6.00e-01	0	41	0	54525952	21	5318
2026-01-28 02:31:22.77	13.13	9.81	-30.3	-33.8	17.8	6.00e-01	0	41	0	56098816	21	5368
2026-01-28 02:31:23.78	13.10	9.90	-30.4	-34.1	17.6	6.01e-01	0	41	0	58195968	21	5492
2026-01-28 02:31:24.78	13.06	9.99	-30.3	-33.7	17.9	6.02e-01	0	41	0	59768832	21	5337
2026-01-28 02:31:25.79	13.02	10.08	-30.3	-33.8	17.8	6.03e-01	0	41	0	61865984	21	5369
2026-01-28 02:31:26.79	12.99	10.17	-30.3	-33.7	17.8	6.02e-01	0	41	0	63963136	21	5350
2026-01-28 02:31:27.80	12.95	10.27	-30.4	-34.1	17.5	6.02e-01	0	41	0	65536000	21	5496
2026-01-28 02:31:28.81	12.91	10.36	-30.4	-33.9	17.7	6.02e-01	0	41	0	67633152	21	5415
2026-01-28 02:31:29.81	12.87	10.45	-30.3	-33.7	17.9	6.03e-01	0	41	0	69206016	21	5313
2026-01-28 02:31:30.81	12.84	10.55	-30.2	-33.5	18.1	6.02e-01	0	41	0	71303168	21	5252
2026-01-28 02:31:31.82	12.80	10.64	-30.3	-33.6	18.1	6.02e-01	0	41	0	73400320	21	5289
2026-01-28 02:31:32.83	12.76	10.74	-30.2	-33.3	18.3	6.00e-01	0	41	0	74973184	21	5167
2026-01-28 02:31:33.83	12.72	10.83	-30.2	-33.3	18.4	6.03e-01	0	41	0	77070336	21	5181
2026-01-28 02:31:34.84	12.68	10.93	-30.1	-33.2	18.5	6.03e-01	0	41	0	78643200	21	5133
2026-01-28 02:31:35.84	12.64	11.02	-30.2	-33.4	18.3	6.00e-01	0	41	0	80740352	21	5212
2026-01-28 02:31:36.84	12.60	11.12	-30.2	-33.3	18.4	6.03e-01	0	42	0	82837504	21	5187
2026-01-28 02:31:37.85	12.56	11.22	-30.2	-33.3	18.6	6.03e-01	0	42	0	84410368	21	5157
2026-01-28 02:31:38.85	12.52	11.31	-30.1	-33.3	18.6	6.02e-01	0	42	0	86507520	21	5153
2026-01-28 02:31:39.86	12.48	11.41	-30.2	-33.3	18.5	6.02e-01	0	41	0	88080384	21	5184
2026-01-28 02:31:40.86	12.44	11.51	-30.3	-33.6	18.4	6.01e-01	0	42	0	90177536	21	5284
2026-01-28 02:31:41.86	12.40	11.61	-30.2	-33.4	18.6	6.03e-01	0	41	0	91750400	21	5191
2026-01-28 02:31:42.87	12.36	11.70	-30.1	-33.1	18.8	6.00e-01	0	41	0	93847552	21	5107
2026-01-28 02:31:43.87	12.31	11.80	-30.1	-33.2	18.9	6.01e-01	0	42	0	95944704	21	5117
2026-01-28 02:31:44.87	12.27	11.90	-30.1	-33.0	18.9	6.02e-01	0	42	0	97517568	21	5061
2026-01-28 02:31:45.88	12.23	12.00	-30.2	-33.5	18.6	6.04e-01	0	42	0	99614720	21	5238
2026-01-28 02:31:46.88	12.19	12.10	-30.1	-33.2	18.9	6.03e-01	0	41	0	101711872	21	5126
2026-01-28 02:31:47.88	12.14	12.20	-30.1	-33.0	19.1	6.03e-01	0	42	0	103284736	21	5054
2026-01-28 02:31:48.89	12.10	12.31	-30.2	-33.3	18.9	6.03e-01	0	42	0	105381888	21	5164
2026-01-28 02:31:49.89	12.06	12.41	-30.1	-33.1	19.0	6.02e-01	0	42	0	106954752	21	5095
2026-01-28 02:31:50.89	12.01	12.51	-30.2	-33.4	18.9	6.02e-01	0	42	0	109051904	21	5184
2026-01-28 02:31:51.89	11.97	12.61	-30.1	-33.1	19.0	6.03e-01	0	42	0	110624768	21	5087
2026-01-28 02:31:52.90	11.92	12.71	-30.2	-33.2	18.9	6.03e-01	0	42	0	112721920	21	5133
2026-01-28 02:31:53.90	11.88	12.82	-30.1	-33.1	19.0	6.01e-01	0	42	0	114819072	21	5095
2026-01-28 02:31:54.91	11.83	12.92	-30.2	-33.3	18.9	6.03e-01	0	42	0	116391936	21	5163
2026-01-28 02:31:55.91	11.78	13.03	-30.2	-33.3	18.9	6.05e-01	0	42	0	118489088	21	5144
2026-01-28 02:31:56.92	11.74	13.13	-30.1	-33.1	19.1	6.04e-01	0	42	0	120061952	21	5082
2026-01-28 02:31:57.92	11.69	13.24	-30.2	-33.3	19.0	6.02e-01	0	42	0	122159104	21	5143
2026-01-28 02:31:58.92	11.64	13.34	-30.1	-33.2	19.0	6.03e-01	0	42	0	123731968	21	5106
2026-01-28 02:31:59.92	11.60	13.45	-30.1	-33.1	19.0	6.00e-01	0	42	0	125829120	21	5076
2026-01-28 02:32:00.93	11.55	13.56	-30.1	-33.0	19.1	6.04e-01	0	42	0	127926272	21	5057
2026-01-28 02:32:01.93	11.50	13.66	-30.3	-33.5	18.8	6.03e-01	0	42	0	129499136	21	5238
2026-01-28 02:32:02.93	11.45	13.77	-30.1	-33.0	19.1	6.02e-01	0	42	0	131596288	21	5053
2026-01-28 02:32:03.93	11.40	13.88	-30.0	-33.3	19.2	6.02e-01	0	42	0	133169152	20	5266
2026-01-28 02:32:04.92	11.35	13.99	-30.1	-33.5	19.1	6.01e-01	0	42	0	135266304	20	5334
2026-01-28 02:32:05.93	11.30	14.10	-30.2	-33.3	19.0	6.00e-01	0	42	0	137363456	21	5149
2026-01-28 02:32:06.94	11.25	14.21	-30.4	-33.7	18.7	6.02e-01	0	42	0	138936320	21	5309
2026-01-28 02:32:07.94	11.20	14.32	-30.2	-33.3	19.0	6.02e-01	0	42	0	141033472	21	5151
2026-01-28 02:32:08.95	11.15	14.43	-30.1	-33.1	19.1	6.02e-01	0	42	0	142606336	21	5052
2026-01-28 02:32:09.95	11.09	14.54	-30.1	-32.9	19.1	6.02e-01	0	42	0	144703488	21	4991
2026-01-28 02:32:10.95	11.04	14.65	-30.1	-33.1	19.0	6.03e-01	0	42	0	146800640	21	5064
2026-01-28 02:32:11.95	10.99	14.76	-30.2	-33.4	18.9	6.01e-01	0	42	0	148373504	21	5167
2026-01-28 02:32:12.96	10.94	14.88	-30.1	-32.9	19.1	6.04e-01	0	42	0	150470656	21	4993
2026-01-28 02:32:13.96	10.88	14.99	-30.0	-33.3	19.1	6.01e-01	0	42	0	152043520	20	5235
2026-01-28 02:32:14.97	10.83	15.11	-30.1	-33.4	19.0	6.01e-01	0	42	0	154140672	20	5286
2026-01-28 02:32:15.97	10.77	15.22	-29.9	-33.0	19.2	6.03e-01	0	42	0	155713536	20	5149
2026-01-28 02:32:16.97	10.72	15.34	-29.9	-33.0	19.2	5.99e-01	0	42	0	157810688	20	5127
2026-01-28 02:32:17.98	10.66	15.45	-29.9	-33.0	19.2	6.02e-01	0	42	0	159907840	20	5123
2026-01-28 02:32:18.98	10.60	15.57	-29.9	-33.0	19.2	6.04e-01	0	42	0	161480704	20	5147
2026-01-28 02:32:19.99	10.55	15.69	-30.1	-33.4	19.0	6.00e-01	0	42	0	163577856	20	5284
2026-01-28 02:32:20.99	10.49	15.80	-29.9	-32.9	19.2	6.02e-01	0	42	0	165150720	20	5115
2026-01-28 02:32:21.99	10.43	15.92	-29.8	-32.7	19.4	6.02e-01	0	42	0	167247872	20	5011
2026-01-28 02:32:22.99	10.37	16.04	-28.7	-31.6	19.6	6.02e-01	0	42	0	169345024	20	4995
2026-01-28 02:32:24.00	10.32	16.16	-29.8	-32.6	19.4	6.01e-01	0	42	0	170917888	20	4982
2026-01-28 02:32:25.00	10.26	16.28	-30.4	-33.9	19.3	6.04e-01	0	42	0	173015040	20	5333
2026-01-28 02:32:26.00	10.20	16.40	-29.8	-32.8	17.6	6.08e-01	0	42	0	174587904	20	5060
2026-01-28 02:32:27.01	10.14	16.52	-29.9	-32.9	19.3	6.03e-01	0	42	0	176685056	20	5086
2026-01-28 02:32:28.01	10.07	16.65	-30.0	-33.1	17.1	6.10e-01	0	42	0	178782208	20	5167
2026-01-28 02:32:29.02	10.01	16.77	-29.9	-32.8	17.1	6.06e-01	0	42	0	180355072	20	5063
2026-01-28 02:32:30.03	9.95	16.89	-29.9	-32.9	19.4	6.03e-01	0	42	0	182452224	20	5078
2026-01-28 02:32:31.03	9.89	17.02	-29.9	-32.9	19.4	6.00e-01	0	42	0	184025088	20	5095
2026-01-28 02:32:32.03	9.82	17.14	-30.0	-33.2	19.2	6.02e-01	0	42	0	186122240	20	5200
2026-01-28 02:32:33.04	9.76	17.27	-29.8	-32.8	19.5	6.03e-01	0	42	0	188219392	20	5049
2026-01-28 02:32:34.04	9.70	17.39	-29.8	-32.7	19.6	6.04e-01	0	42	0	189792256	20	5027
2026-01-28 02:32:35.04	9.63	17.52	-29.8	-32.7	19.7	5.99e-01	0	42	0	191889408	20	5025
2026-01-28 02:32:36.05	9.56	17.65	-29.9	-32.9	19.6	6.01e-01	0	42	0	193462272	20	5074
2026-01-28 02:32:37.05	9.50	17.78	-29.9	-33.0	19.6	6.02e-01	0	42	0	195559424	20	5120
2026-01-28 02:32:38.05	9.43	17.90	-30.0	-33.1	19.5	5.99e-01	0	42	0	197132288	20	5170
2026-01-28 02:32:39.05	9.36	18.03	-30.0	-33.1	19.5	6.00e-01	0	42	0	199229440	20	5162
2026-01-28 02:32:40.06	9.29	18.16	-30.0	-33.2	19.5	6.03e-01	0	42	0	201326592	20	5177
2026-01-28 02:32:41.07	9.23	18.30	-30.1	-32.9	19.4	6.02e-01	0	42	0	202899456	21	4984
2026-01-28 02:32:42.06	9.16	18.43	-30.0	-32.6	19.6	6.02e-01	0	42	0	204996608	21	4874
2026-01-28 02:32:43.07	9.09	18.56	-29.9	-32.9	19.7	6.00e-01	0	42	0	206569472	20	5069
2026-01-28 02:32:44.06	9.02	18.69	-29.9	-32.8	19.6	6.01e-01	0	42	0	208666624	20	5055
2026-01-28 02:32:45.06	8.94	18.83	-29.8	-32.6	19.7	6.02e-01	0	42	0	210239488	20	4985
2026-01-28 02:32:46.07	8.87	18.96	-29.8	-32.7	19.7	6.05e-01	0	42	0	212336640	20	5020
2026-01-28 02:32:47.07	8.80	19.10	-30.0	-33.1	19.4	6.01e-01	0	42	0	214433792	20	5155
2026-01-28 02:32:48.08	8.72	19.23	-29.8	-32.6	19.7	6.03e-01	0	42	0	216006656	20	4965
2026-01-28 02:32:49.07	8.65	19.37	-29.7	-32.5	19.8	6.02e-01	0	42	0	218103808	20	4925
2026-01-28 02:32:50.08	8.57	19.51	-29.7	-32.4	19.8	5.99e-01	0	42	0	220200960	20	4904
2026-01-28 02:32:51.09	8.50	19.65	-29.8	-32.7	19.7	6.03e-01	0	42	0	221773824	20	5002
2026-01-28 02:32:52.09	8.42	19.79	-29.8	-32.6	19.7	6.02e-01	0	42	0	223870976	20	4978
2026-01-28 02:32:53.09	8.34	19.93	-29.9	-32.8	19.6	6.01e-01	0	42	0	225443840	20	5049
2026-01-28 02:32:54.09	8.27	20.07	-29.9	-32.9	19.5	6.01e-01	0	42	0	227540992	20	5067
2026-01-28 02:32:55.09	8.19	20.21	-29.9	-33.0	19.5	6.01e-01	0	42	0	229113856	20	5099
2026-01-28 02:32:56.09	8.11	20.35	-30.0	-33.0	19.4	6.05e-01	0	42	0	231211008	20	5114
2026-01-28 02:32:57.10	8.03	20.49	-30.1	-33.3	19.2	6.03e-01	0	42	0	233308160	20	5221
2026-01-28 02:32:58.10	7.94	20.64	-30.1	-33.3	19.1	6.03e-01	0	42	0	234881024	20	5208
2026-01-28 02:32:59.11	7.86	20.78	-30.1	-32.9	19.1	6.01e-01	0	42	0	236978176	21	4976
2026-01-28 02:33:00.11	7.78	20.93	-30.3	-33.5	18.7	6.02e-01	0	42	0	238551040	21	5165
2026-01-28 02:33:01.11	7.69	21.08	-30.2	-33.0	19.0	6.00e-01	0	42	0	240648192	21	5007
2026-01-28 02:33:02.12	7.61	21.22	-30.1	-32.8	19.2	6.01e-01	0	42	0	242221056	21	4930
2026-01-28 02:33:03.12	7.52	21.37	-30.1	-32.9	19.2	6.02e-01	0	42	0	244318208	21	4943
2026-01-28 02:33:04.12	7.43	21.52	-30.1	-32.9	19.1	6.02e-01	0	42	0	246415360	21	4960
2026-01-28 02:33:05.12	7.35	21.67	-30.2	-33.1	19.0	6.02e-01	0	42	0	247988224	21	5039
2026-01-28 02:33:06.13	7.26	21.82	-30.3	-33.3	19.0	6.04e-01	0	42	0	250085376	21	5090
2026-01-28 02:33:07.13	7.17	21.98	-30.2	-33.0	19.2	6.03e-01	0	42	0	252182528	21	4980
2026-01-28 02:33:08.13	7.08	22.13	-30.1	-32.8	19.3	5.99e-01	0	42	0	253755392	21	4933
2026-01-28 02:33:09.13	6.99	22.28	-30.1	-32.8	19.2	6.03e-01	0	42	0	255852544	21	4923
2026-01-28 02:33:10.14	6.89	22.44	-30.0	-33.2	19.4	6.01e-01	0	42	0	257425408	20	5157
2026-01-28 02:33:11.14	6.80	22.59	-30.0	-33.2	19.5	6.04e-01	0	42	0	259522560	20	5163
2026-01-28 02:33:12.15	6.70	22.75	-30.0	-33.1	19.5	6.00e-01	0	42	0	261095424	20	5147
2026-01-28 02:33:13.14	6.61	22.91	-30.1	-33.2	19.4	6.01e-01	0	43	0	263192576	20	5184
2026-01-28 02:33:14.15	6.51	23.07	-30.0	-33.1	19.6	6.05e-01	0	42	0	265289728	20	5139
2026-01-28 02:33:15.16	6.41	23.23	-30.1	-33.2	19.6	6.01e-01	0	42	0	266862592	20	5184
2026-01-28 02:33:16.17	6.31	23.39	-30.2	-33.0	19.5	6.03e-01	0	42	0	268959744	21	4990
2026-01-28 02:33:17.17	6.21	23.55	-30.3	-33.3	19.3	6.02e-01	0	42	0	270532608	21	5093
2026-01-28 02:33:18.18	6.11	23.72	-30.3	-33.4	19.3	6.00e-01	0	42	0	272629760	21	5120
2026-01-28 02:33:19.18	6.01	23.88	-30.5	-33.7	19.2	6.02e-01	0	42	0	274726912	21	5242
2026-01-28 02:33:20.19	5.90	24.05	-30.6	-33.5	19.0	6.07e-01	0	42	0	276299776	22	5049
2026-01-28 02:33:21.20	5.80	24.21	-30.4	-33.1	19.3	6.02e-01	0	43	0	278396928	22	4888
2026-01-28 02:33:22.20	5.69	24.38	-30.2	-33.1	19.6	6.04e-01	0	42	0	279969792	21	5032
2026-01-28 02:33:23.20	5.58	24.55	-30.2	-33.1	19.6	6.03e-01	0	43	0	282066944	21	5022
2026-01-28 02:33:24.21	5.48	24.72	-30.3	-33.2	19.6	6.01e-01	0	42	0	283639808	21	5050
2026-01-28 02:33:25.21	5.37	24.89	-30.1	-32.8	19.8	6.03e-01	0	42	0	285736960	21	4905
2026-01-28 02:33:26.21	5.25	25.06	-30.1	-32.9	19.8	6.01e-01	0	42	0	287834112	21	4935
2026-01-28 02:33:27.22	5.14	25.23	-30.2	-33.1	19.7	6.01e-01	0	43	0	289406976	21	5002
2026-01-28 02:33:28.22	5.03	25.41	-30.1	-32.9	19.8	6.02e-01	0	42	0	291504128	21	4949
2026-01-28 02:33:29.22	4.91	25.58	-30.2	-33.0	19.7	6.02e-01	0	42	0	293601280	21	4965
2026-01-28 02:33:30.23	4.80	25.76	-30.3	-33.2	19.6	6.02e-01	0	42	0	295174144	21	5046
2026-01-28 02:33:31.23	4.68	25.93	-30.4	-33.4	19.5	6.05e-01	0	42	0	297271296	21	5135
2026-01-28 02:33:32.23	4.56	26.11	-30.4	-33.6	19.3	6.04e-01	0	43	0	298844160	21	5198
2026-01-28 02:33:33.24	4.44	26.29	-30.4	-33.5	19.5	6.03e-01	0	43	0	300941312	21	5142
2026-01-28 02:33:34.24	4.32	26.47	-30.5	-33.7	19.3	6.01e-01	0	42	0	302514176	21	5232
2026-01-28 02:33:35.25	4.19	26.65	-30.4	-33.4	19.5	6.08e-01	0	43	0	304611328	21	5123
2026-01-28 02:33:36.25	4.07	26.84	-30.3	-33.4	19.5	6.00e-01	0	42	0	306708480	21	5117
2026-01-28 02:33:37.26	3.94	27.02	-30.4	-33.4	19.5	5.99e-01	0	42	0	308281344	21	5129
2026-01-28 02:33:38.26	3.81	27.21	-30.4	-33.6	19.4	6.00e-01	0	42	0	310378496	21	5174
2026-01-28 02:33:39.26	3.68	27.39	-30.1	-32.9	19.8	6.04e-01	0	42	0	311951360	21	4930
2026-01-28 02:33:40.26	3.55	27.58	-30.0	-33.0	20.0	6.00e-01	0	42	0	314048512	20	5097
2026-01-28 02:33:41.26	3.42	27.77	-30.1	-32.8	19.9	6.04e-01	0	43	0	315621376	21	4913
2026-01-28 02:33:42.26	3.28	27.96	-30.3	-33.4	19.6	6.01e-01	0	42	0	317718528	21	5108
2026-01-28 02:33:43.27	3.14	28.15	-30.6	-33.4	19.3	6.05e-01	0	42	0	319815680	22	4999
2026-01-28 02:33:44.27	3.01	28.34	-30.4	-33.5	19.5	6.03e-01	0	43	0	321388544	21	5136
2026-01-28 02:33:45.27	2.87	28.53	-30.5	-33.9	19.2	6.01e-01	0	43	0	323485696	21	5302
2026-01-28 02:33:46.27	2.72	28.73	-30.5	-33.8	19.3	6.01e-01	0	42	0	325058560	21	5259
2026-01-28 02:33:47.27	2.58	28.92	-30.5	-33.8	19.3	6.03e-01	0	42	0	327155712	21	5269
2026-01-28 02:33:48.27	2.43	29.12	-30.2	-33.1	19.7	6.00e-01	0	42	0	329252864	21	4989
2026-01-28 02:33:49.28	2.29	29.32	-30.0	-32.5	20.0	6.02e-01	0	42	0	330825728	21	4799
2026-01-28 02:33:50.28	2.14	29.52	-29.9	-32.7	20.2	6.03e-01	0	42	0	332922880	20	4973
2026-01-28 02:33:51.28	1.98	29.72	-29.7	-32.3	20.4	6.03e-01	0	42	0	334495744	20	4847
2026-01-28 02:33:52.28	1.83	29.92	-29.6	-32.0	20.6	6.04e-01	0	42	0	336592896	20	4744
2026-01-28 02:33:53.29	1.67	30.13	-29.7	-32.2	20.5	6.02e-01	0	42	0	338690048	20	4805
2026-01-28 02:33:54.29	1.52	30.34	-29.8	-32.5	20.3	6.00e-01	0	42	0	340262912	20	4906
2026-01-28 02:33:55.29	1.36	30.54	-29.7	-32.3	20.4	6.01e-01	0	42	0	342360064	20	4842
2026-01-28 02:33:56.29	1.20	30.75	-29.8	-32.5	20.2	5.99e-01	0	42	0	343932928	20	4913
2026-01-28 02:33:57.30	1.03	30.96	-29.8	-32.6	20.2	6.03e-01	0	42	0	346030080	20	4940
2026-01-28 02:33:58.30	0.86	31.17	-29.7	-32.2	20.4	6.03e-01	0	42	0	347602944	20	4811
2026-01-28 02:33:59.30	0.70	31.38	-29.8	-32.4	20.4	6.02e-01	0	43	0	349700096	20	4865
2026-01-28 02:34:00.30	0.52	31.59	-29.8	-32.6	20.2	6.02e-01	0	42	0	351797248	20	4926
2026-01-28 02:34:01.31	0.35	31.81	-29.7	-32.3	20.4	6.00e-01	0	42	0	353370112	20	4831
2026-01-28 02:34:02.31	0.17	32.03	-29.7	-32.2	20.4	6.05e-01	0	43	0	355467264	20	4805
2026-01-28 02:34:03.31	360.00	32.24	-29.7	-32.3	20.3	6.03e-01	0	43	0	357040128	20	4854
2026-01-28 02:34:04.32	359.81	32.46	-29.9	-32.8	20.1	6.04e-01	0	43	0	359137280	20	5001
2026-01-28 02:34:05.32	359.63	32.68	-30.1	-32.8	19.8	6.04e-01	0	42	0	360710144	21	4896
2026-01-28 02:34:06.32	359.44	32.91	-28.3	-30.8	19.9	6.04e-01	0	43	0	362807296	20	4800
2026-01-28 02:34:07.32	359.26	33.13	-29.9	-33.1	20.3	6.02e-01	0	42	0	364904448	19	5202
2026-01-28 02:34:08.33	359.06	33.35	-29.9	-32.8	20.0	6.01e-01	0	42	0	366477312	20	5004
2026-01-28 02:34:09.33	358.87	33.58	-30.0	-33.1	19.9	6.01e-01	0	42	0	368574464	20	5110
2026-01-28 02:34:10.34	358.67	33.81	-30.2	-33.0	19.7	6.01e-01	0	42	0	370671616	21	4957
2026-01-28 02:34:11.34	358.47	34.04	-30.0	-32.5	20.1	6.05e-01	0	43	0	372244480	21	4795
2026-01-28 02:34:12.35	358.26	34.27	-30.0	-33.0	20.1	6.05e-01	0	43	0	374341632	20	5088
2026-01-28 02:34:13.35	358.06	34.50	-30.1	-32.7	20.0	6.01e-01	0	42	0	375914496	21	4861
2026-01-28 02:34:14.35	357.85	34.73	-30.0	-32.5	20.1	6.01e-01	0	43	0	378011648	21	4810
2026-01-28 02:34:15.36	357.63	34.97	-30.2	-33.1	19.8	6.04e-01	0	42	0	379584512	21	4984
2026-01-28 02:34:16.36	357.42	35.20	-30.4	-33.4	19.6	6.02e-01	0	42	0	381681664	21	5120
2026-01-28 02:34:17.36	357.20	35.44	-30.4	-33.6	19.5	6.02e-01	0	42	0	383778816	21	5162
2026-01-28 02:34:18.36	356.98	35.68	-30.5	-33.8	19.4	6.04e-01	0	43	0	385351680	21	5257
2026-01-28 02:34:19.37	356.75	35.92	-30.6	-33.9	19.3	6.00e-01	0	42	0	387448832	21	5307
2026-01-28 02:34:20.37	356.52	36.16	-30.8	-33.9	19.0	6.01e-01	0	43	0	389021696	22	5156
2026-01-28 02:34:21.37	356.29	36.41	-30.9	-34.2	18.8	6.02e-01	0	42	0	391118848	22	5275
2026-01-28 02:34:22.37	356.05	36.65	-30.7	-33.7	19.2	6.03e-01	0	43	0	392691712	22	5095
2026-01-28 02:34:23.38	355.81	36.90	-30.8	-34.1	19.0	6.02e-01	0	43	0	394788864	22	5237
2026-01-28 02:34:24.38	355.57	37.14	-30.9	-34.4	18.8	6.02e-01	0	42	0	396886016	22	5347
2026-01-28 02:34:25.39	355.32	37.39	-30.9	-34.2	18.9	6.03e-01	0	43	0	398458880	22	5267
2026-01-28 02:34:26.39	355.07	37.64	-30.8	-34.0	19.0	6.00e-01	0	43	0	400556032	22	5215
2026-01-28 02:34:27.40	354.81	37.90	-31.2	-34.5	18.4	6.03e-01	0	43	0	402653184	23	5279
2026-01-28 02:34:28.40	354.55	38.15	-31.4	-35.2	17.9	6.01e-01	0	42	0	404226048	23	5572
2026-01-28 02:34:29.39	354.29	38.40	-31.4	-35.1	17.9	6.04e-01	0	43	0	406323200	23	5525
2026-01-28 02:34:30.40	354.02	38.66	-30.9	-34.4	18.7	6.00e-01	0	43	0	407896064	22	5348
2026-01-28 02:34:31.40	353.74	38.91	-30.9	-34.2	18.9	5.99e-01	0	43	0	409993216	22	5284
2026-01-28 02:34:32.40	353.47	39.17	-31.2	-34.6	18.4	6.03e-01	0	43	0	411566080	23	5322
2026-01-28 02:34:33.41	353.18	39.43	-31.3	-34.7	18.3	6.04e-01	0	43	0	413663232	23	5366
2026-01-28 02:34:34.41	352.90	39.69	-31.2	-34.4	18.5	6.00e-01	0	43	0	415760384	23	5256
2026-01-28 02:34:35.42	352.60	39.95	-31.3	-34.9	18.2	6.02e-01	0	43	0	417333248	23	5420
2026-01-28 02:34:36.42	352.31	40.22	-31.6	-35.2	17.7	6.04e-01	0	43	0	419430400	24	5463
2026-01-28 02:34:37.42	352.00	40.48	-31.5	-35.5	17.8	6.02e-01	0	43	0	421003264	23	5666
2026-01-28 02:34:38.43	351.70	40.75	-31.2	-34.7	18.3	6.01e-01	0	43	0	423100416	23	5346
2026-01-28 02:34:39.43	351.38	41.01	-31.2	-34.5	18.4	6.01e-01	0	42	0	425197568	23	5284
2026-01-28 02:34:40.44	351.06	41.28	-31.4	-35.0	18.2	6.01e-01	0	42	0	426770432	23	5456
2026-01-28 02:34:41.44	350.74	41.55	-31.2	-34.4	18.5	6.03e-01	0	43	0	428867584	23	5247
2026-01-28 02:34:42.44	350.41	41.82	-31.2	-34.5	18.4	6.03e-01	0	43	0	430440448	23	5287
2026-01-28 02:34:43.45	350.08	42.09	-31.4	-35.2	18.0	6.00e-01	0	43	0	432537600	23	5561
2026-01-28 02:34:44.45	349.74	42.36	-31.4	-35.1	18.0	6.02e-01	0	43	0	434110464	23	5523
2026-01-28 02:34:45.45	349.39	42.64	-31.2	-34.6	18.4	6.02e-01	0	43	0	436207616	23	5302
2026-01-28 02:34:46.46	349.04	42.91	-31.4	-35.2	18.0	6.03e-01	0	43	0	438304768	23	5549
2026-01-28 02:34:47.46	348.68	43.19	-31.6	-35.2	17.7	6.03e-01	0	43	0	439877632	24	5427
2026-01-28 02:34:48.45	348.32	43.46	-31.7	-35.4	17.6	6.03e-01	0	43	0	441974784	24	5530
2026-01-28 02:34:49.46	347.95	43.74	-31.9	-36.2	17.1	6.03e-01	0	43	0	443547648	24	5868
2026-01-28 02:34:50.45	347.57	44.01	-32.0	-36.5	16.9	6.02e-01	0	43	0	445644800	24	5993
2026-01-28 02:34:51.46	347.19	44.29	-31.9	-35.5	17.2	6.01e-01	0	43	0	447741952	25	5443
2026-01-28 02:34:52.46	346.80	44.57	-31.5	-35.0	17.9	6.01e-01	0	43	0	449314816	24	5338
2026-01-28 02:34:53.46	346.40	44.85	-31.2	-34.0	18.4	6.01e-01	0	43	0	451411968	24	4993
2026-01-28 02:34:54.46	345.99	45.12	-31.3	-34.8	18.2	6.00e-01	0	43	0	452984832	23	5403
2026-01-28 02:34:55.47	345.58	45.41	-31.4	-35.1	18.0	6.01e-01	0	43	0	455081984	23	5528
2026-01-28 02:34:56.48	345.15	45.69	-31.2	-34.5	18.4	6.02e-01	0	43	0	457179136	23	5277
2026-01-28 02:34:57.49	344.72	45.97	-31.1	-34.6	18.7	6.03e-01	0	42	0	458752000	22	5426
2026-01-28 02:34:58.48	344.29	46.25	-31.1	-34.2	18.7	6.05e-01	0	43	0	460849152	23	5146
2026-01-28 02:34:59.49	343.84	46.53	-31.0	-34.0	18.8	6.02e-01	0	42	0	462422016	23	5064
2026-01-28 02:35:00.47	343.40	46.80	-31.3	-34.7	18.3	6.02e-01	0	42	0	464519168	23	5334
2026-01-28 02:35:01.47	342.94	47.08	-31.3	-34.8	18.3	6.03e-01	0	43	0	466092032	23	5378
2026-01-28 02:35:02.47	342.47	47.36	-31.5	-35.4	17.9	6.02e-01	0	42	0	468189184	23	5647
2026-01-28 02:35:03.47	341.99	47.64	-31.5	-35.2	18.0	6.03e-01	0	43	0	470286336	23	5561
2026-01-28 02:35:04.48	341.50	47.93	-31.4	-35.1	18.1	6.02e-01	0	43	0	471859200	23	5512
2026-01-28 02:35:05.48	341.01	48.21	-31.5	-35.4	17.9	6.03e-01	0	43	0	473956352	23	5628
2026-01-28 02:35:06.49	340.50	48.49	-31.8	-35.7	17.4	6.02e-01	0	43	0	475529216	24	5662
2026-01-28 02:35:07.49	339.99	48.77	-31.7	-35.4	17.6	6.02e-01	0	43	0	477626368	24	5523
2026-01-28 02:35:08.49	339.46	49.04	-31.7	-35.3	17.6	6.03e-01	0	43	0	479723520	24	5483
2026-01-28 02:35:09.49	338.93	49.32	-31.5	-35.3	18.0	6.03e-01	0	42	0	481296384	23	5572
2026-01-28 02:35:10.49	338.39	49.60	-31.6	-35.2	17.8	6.02e-01	0	43	0	483393536	24	5416
2026-01-28 02:35:11.49	337.84	49.87	-31.4	-34.6	18.1	6.02e-01	0	43	0	484966400	24	5197
2026-01-28 02:35:12.50	337.27	50.15	-31.0	-34.0	18.8	6.02e-01	0	43	0	487063552	23	5068
2026-01-28 02:35:13.50	336.69	50.42	-30.7	-33.7	19.3	6.04e-01	0	42	0	488636416	22	5077
2026-01-28 02:35:14.50	336.11	50.69	-30.8	-34.0	19.1	6.01e-01	0	43	0	490733568	22	5201
2026-01-28 02:35:15.51	335.51	50.96	-30.9	-34.3	18.9	6.02e-01	0	43	0	492830720	22	5287
2026-01-28 02:35:16.52	334.90	51.23	-30.8	-34.0	19.1	6.01e-01	0	42	0	494403584	22	5178
2026-01-28 02:35:17.52	334.28	51.50	-30.5	-33.2	19.5	6.03e-01	0	43	0	496500736	22	4917
2026-01-28 02:35:18.52	333.65	51.76	-30.5	-33.7	19.6	6.02e-01	0	43	0	498073600	21	5207
2026-01-28 02:35:19.52	333.01	52.03	-30.5	-33.2	19.6	6.01e-01	0	43	0	500170752	22	4900
2026-01-28 02:35:20.53	332.36	52.29	-30.5	-33.1	19.7	5.98e-01	0	43	0	502267904	22	4869
2026-01-28 02:35:21.53	331.69	52.55	-30.1	-32.7	20.2	6.01e-01	0	43	0	503840768	21	4859
2026-01-28 02:35:22.53	331.02	52.80	-30.4	-33.4	19.7	6.01e-01	0	43	0	505937920	21	5082
2026-01-28 02:35:23.54	330.32	53.05	-30.4	-33.4	19.8	6.01e-01	0	43	0	507510784	21	5074
2026-01-28 02:35:24.54	329.63	53.30	-30.2	-32.8	20.1	6.01e-01	0	43	0	509607936	21	4872
2026-01-28 02:35:25.54	328.92	53.55	-30.0	-33.0	20.3	6.03e-01	0	42	0	511180800	20	5050
2026-01-28 02:35:26.55	328.18	53.79	-30.2	-32.8	20.1	6.01e-01	0	43	0	513277952	21	4886
2026-01-28 02:35:27.55	327.45	54.03	-30.2	-33.0	20.0	6.05e-01	0	43	0	515375104	21	4931
2026-01-28 02:35:28.55	326.70	54.27	-30.1	-32.6	20.3	6.01e-01	0	42	0	516947968	21	4805
2026-01-28 02:35:29.56	325.93	54.50	-30.4	-33.3	19.9	6.02e-01	0	43	0	519045120	21	5061
2026-01-28 02:35:30.56	325.16	54.73	-30.7	-33.6	19.3	6.01e-01	0	43	0	520617984	22	5053
2026-01-28 02:35:31.56	324.38	54.95	-30.3	-32.8	19.8	6.00e-01	0	42	0	522715136	22	4753
2026-01-28 02:35:32.56	323.58	55.17	-30.2	-32.5	20.0	6.01e-01	0	43	0	524812288	22	4651
2026-01-28 02:35:33.57	322.76	55.39	-30.5	-33.6	19.7	6.02e-01	0	43	0	526385152	21	5149
2026-01-28 02:35:34.57	321.94	55.60	-30.5	-33.7	19.6	6.02e-01	0	43	0	528482304	21	5189
2026-01-28 02:35:35.57	321.10	55.80	-30.3	-33.3	19.8	6.05e-01	0	43	0	530055168	21	5032
2026-01-28 02:35:36.57	320.25	56.00	-30.4	-33.5	19.7	6.02e-01	0	43	0	532152320	21	5113
2026-01-28 02:35:37.57	319.39	56.19	-30.7	-33.6	19.4	6.02e-01	0	43	0	533725184	22	5032
2026-01-28 02:35:38.57	318.52	56.38	-30.6	-33.4	19.4	6.00e-01	0	43	0	535822336	22	4973
2026-01-28 02:35:39.57	317.64	56.56	-30.4	-33.0	19.7	6.01e-01	0	43	0	537919488	22	4832
2026-01-28 02:35:40.56	316.75	56.73	-30.6	-33.4	19.5	6.01e-01	0	43	0	539492352	22	4962
2026-01-28 02:35:41.56	315.85	56.90	-30.7	-33.7	19.2	6.02e-01	0	43	0	541589504	22	5067
2026-01-28 02:35:42.56	314.93	57.07	-30.6	-33.5	19.4	6.00e-01	0	43	0	543162368	22	5024
2026-01-28 02:35:43.57	313.99	57.23	-30.7	-33.6	19.3	6.03e-01	0	43	0	545259520	22	5049
2026-01-28 02:35:44.57	313.05	57.38	-30.7	-33.8	19.2	6.01e-01	0	43	0	546832384	22	5109
2026-01-28 02:35:45.57	312.10	57.52	-30.8	-33.9	19.0	6.01e-01	0	43	0	548929536	22	5151
2026-01-28 02:35:46.58	311.13	57.65	-30.9	-34.2	18.9	6.01e-01	0	43	0	551026688	22	5266
2026-01-28 02:35:47.58	310.17	57.78	-31.0	-34.5	18.8	6.04e-01	0	43	0	552599552	22	5391
2026-01-28 02:35:48.58	309.19	57.90	-31.0	-34.5	18.8	6.02e-01	0	43	0	554696704	22	5383
2026-01-28 02:35:49.59	308.19	58.02	-31.1	-34.7	18.7	6.04e-01	0	43	0	556269568	22	5451
2026-01-28 02:35:50.59	307.20	58.12	-31.2	-34.5	18.5	5.99e-01	0	43	0	558366720	23	5278
2026-01-28 02:35:51.58	306.20	58.22	-31.1	-34.4	18.6	6.02e-01	0	43	0	560463872	23	5227
2026-01-28 02:35:52.59	305.18	58.31	-30.9	-33.8	18.9	6.05e-01	0	43	0	562036736	23	5004
2026-01-28 02:35:53.59	304.17	58.39	-30.9	-33.7	18.9	6.01e-01	0	43	0	564133888	23	4971
2026-01-28 02:35:54.59	303.15	58.46	-30.8	-33.9	19.1	6.00e-01	0	43	0	565706752	22	5155
2026-01-28 02:35:55.59	302.12	58.53	-30.8	-33.9	19.2	6.03e-01	0	43	0	567803904	22	5140
2026-01-28 02:35:56.59	301.09	58.58	-30.8	-34.0	19.1	6.04e-01	0	43	0	569901056	22	5192
2026-01-28 02:35:57.59	300.05	58.63	-30.9	-34.4	18.7	6.00e-01	0	43	0	571473920	22	5346
2026-01-28 02:35:58.60	299.00	58.67	-30.8	-34.0	19.1	6.01e-01	0	43	0	573571072	22	5189
2026-01-28 02:35:59.61	297.95	58.70	-30.8	-33.8	18.3	6.04e-01	0	43	0	575143936	22	5129
2026-01-28 02:36:00.61	296.90	58.72	-31.1	-34.7	18.0	6.04e-01	0	43	0	577241088	22	5453
2026-01-28 02:36:01.62	295.85	58.73	-30.9	-33.8	18.8	6.00e-01	0	42	0	578813952	23	5010
2026-01-28 02:36:02.62	294.80	58.73	-30.9	-34.3	17.6	6.02e-01	0	43	0	580911104	22	5337
2026-01-28 02:36:03.63	293.74	58.73	-30.9	-34.3	18.9	6.01e-01	0	43	0	583008256	22	5303
2026-01-28 02:36:04.63	292.70	58.71	-31.0	-34.5	18.7	6.02e-01	0	43	0	584581120	22	5399
2026-01-28 02:36:05.64	291.64	58.69	-31.0	-34.6	18.6	6.01e-01	0	43	0	586678272	22	5427
2026-01-28 02:36:06.65	290.59	58.66	-30.7	-33.7	19.2	6.01e-01	0	43	0	588251136	22	5078
2026-01-28 02:36:07.65	289.55	58.62	-31.1	-34.5	18.5	6.03e-01	0	43	0	590348288	23	5275
2026-01-28 02:36:08.66	288.51	58.56	-30.7	-33.7	19.1	6.01e-01	0	43	0	592445440	22	5108
2026-01-28 02:36:09.66	287.48	58.51	-30.4	-33.0	19.5	6.02e-01	0	43	0	594018304	22	4837
2026-01-28 02:36:10.67	286.44	58.44	-30.8	-33.6	19.0	6.01e-01	0	43	0	596115456	23	4961
2026-01-28 02:36:11.68	285.41	58.36	-30.9	-34.4	18.7	6.01e-01	0	43	0	598212608	22	5370
2026-01-28 02:36:12.68	284.39	58.28	-30.8	-34.0	18.8	6.05e-01	0	43	0	599785472	22	5218
2026-01-28 02:36:13.69	283.38	58.19	-31.0	-34.1	18.6	6.00e-01	0	43	0	601882624	23	5136
2026-01-28 02:36:14.69	282.38	58.09	-31.0	-34.1	18.6	6.01e-01	0	43	0	603455488	23	5148
2026-01-28 02:36:15.69	281.38	57.98	-30.9	-34.3	18.8	6.02e-01	0	43	0	605552640	22	5343
2026-01-28 02:36:16.69	280.40	57.86	-31.1	-34.4	18.3	6.03e-01	0	43	0	607125504	23	5276
2026-01-28 02:36:17.69	279.42	57.74	-31.1	-34.4	18.3	6.02e-01	0	43	0	609222656	23	5264
2026-01-28 02:36:18.70	278.45	57.61	-30.9	-33.8	18.7	6.01e-01	0	43	0	611319808	23	5021
2026-01-28 02:36:19.70	277.49	57.47	-31.0	-34.2	18.5	6.03e-01	0	43	0	612892672	23	5167
2026-01-28 02:36:20.71	276.53	57.32	-31.0	-34.0	18.7	6.03e-01	0	43	0	614989824	23	5118
2026-01-28 02:36:21.70	275.61	57.17	-30.8	-34.2	18.9	6.01e-01	0	43	0	616562688	22	5280
2026-01-28 02:36:22.71	274.67	57.01	-30.8	-34.0	18.9	6.05e-01	0	43	0	618659840	22	5205
2026-01-28 02:36:23.72	273.75	56.84	-30.8	-34.1	18.9	6.03e-01	0	43	0	620232704	22	5249
2026-01-28 02:36:24.72	272.84	56.67	-30.9	-34.3	18.8	6.01e-01	0	43	0	622329856	22	5320
2026-01-28 02:36:25.72	271.95	56.49	-31.1	-34.8	18.5	6.02e-01	0	43	0	624427008	22	5519
2026-01-28 02:36:26.73	271.06	56.31	-30.6	-33.4	19.3	6.04e-01	0	43	0	625999872	22	5002
2026-01-28 02:36:27.73	270.20	56.12	-30.3	-33.3	19.6	6.01e-01	0	43	0	628097024	21	5091
2026-01-28 02:36:28.74	269.33	55.92	-30.3	-33.2	19.8	6.00e-01	0	43	0	630194176	21	5033
2026-01-28 02:36:29.74	268.49	55.72	-30.1	-32.8	20.0	6.01e-01	0	43	0	631767040	21	4890
2026-01-28 02:36:30.74	267.66	55.51	-29.8	-32.5	20.4	6.02e-01	0	43	0	633864192	20	4899
2026-01-28 02:36:31.75	266.83	55.30	-29.8	-32.6	20.4	6.03e-01	0	43	0	635437056	20	4938
2026-01-28 02:36:32.75	266.02	55.08	-30.1	-32.7	19.9	5.99e-01	0	43	0	637534208	21	4879
2026-01-28 02:36:33.75	265.23	54.86	-29.8	-32.5	20.4	6.02e-01	0	43	0	639107072	20	4906
2026-01-28 02:36:34.76	264.44	54.63	-29.5	-31.7	20.8	6.02e-01	0	43	0	641204224	20	4647
2026-01-28 02:36:35.76	263.67	54.40	-30.4	-33.7	19.4	6.04e-01	0	43	0	643301376	21	5207
2026-01-28 02:36:36.76	262.91	54.17	-30.3	-32.7	19.6	6.02e-01	0	43	0	644874240	22	4761
2026-01-28 02:36:37.77	262.16	53.93	-29.6	-31.4	20.8	6.00e-01	0	43	0	646971392	21	4441
2026-01-28 02:36:38.77	261.43	53.69	-29.7	-32.3	20.5	6.02e-01	0	43	0	648544256	20	4861
2026-01-28 02:36:39.77	260.71	53.45	-29.7	-32.3	20.5	6.02e-01	0	43	0	650641408	20	4860
2026-01-28 02:36:40.78	259.99	53.20	-29.7	-32.3	20.4	6.03e-01	0	43	0	652738560	20	4856
2026-01-28 02:36:41.78	259.30	52.95	-29.6	-32.0	20.6	6.00e-01	0	43	0	654311424	20	4735
2026-01-28 02:36:42.78	258.62	52.69	-29.9	-32.9	20.2	6.02e-01	0	43	0	656408576	20	5054
2026-01-28 02:36:43.79	257.94	52.43	-30.1	-32.7	20.0	6.01e-01	0	42	0	657981440	21	4864
2026-01-28 02:36:44.79	257.28	52.17	-29.3	-31.3	21.0	6.05e-01	0	43	0	660078592	20	4541
2026-01-28 02:36:45.79	256.63	51.91	-29.3	-31.8	21.1	6.04e-01	0	43	0	661651456	19	4802
2026-01-28 02:36:46.80	255.99	51.65	-29.5	-32.3	20.8	6.02e-01	0	43	0	663748608	19	4950
2026-01-28 02:36:47.80	255.36	51.38	-29.3	-31.4	20.9	6.03e-01	0	43	0	665845760	20	4561
2026-01-28 02:36:48.80	254.75	51.11	-29.5	-32.2	20.9	6.04e-01	0	43	0	667418624	19	4926
2026-01-28 02:36:49.81	254.14	50.84	-29.5	-32.4	20.7	6.04e-01	0	43	0	669515776	19	4992
2026-01-28 02:36:50.81	253.55	50.57	-29.5	-31.8	20.7	6.01e-01	0	43	0	671088640	20	4693
2026-01-28 02:36:51.81	252.97	50.30	-29.5	-32.4	20.7	6.02e-01	0	43	0	673185792	19	4978
2026-01-28 02:36:52.82	252.39	50.02	-30.1	-33.3	19.8	6.01e-01	0	43	0	675282944	20	5225
2026-01-28 02:36:53.81	251.84	49.75	-29.9	-32.7	20.2	6.01e-01	0	42	0	676855808	20	4992
2026-01-28 02:36:54.82	251.28	49.47	-29.9	-32.8	20.2	6.00e-01	0	43	0	678952960	20	5023
2026-01-28 02:36:55.82	250.74	49.19	-29.8	-32.6	20.2	6.04e-01	0	43	0	680525824	20	4972
2026-01-28 02:36:56.82	250.21	48.92	-29.7	-32.4	20.3	6.02e-01	0	43	0	682622976	20	4885
2026-01-28 02:36:57.82	249.69	48.64	-29.8	-32.6	20.2	6.02e-01	0	43	0	684720128	20	4952
2026-01-28 02:36:58.83	249.18	48.35	-29.7	-32.3	20.3	6.01e-01	0	43	0	686292992	20	4854
2026-01-28 02:36:59.83	248.68	48.07	-29.3	-31.8	21.0	6.01e-01	0	43	0	688390144	19	4806
2026-01-28 02:37:00.82	248.19	47.80	-29.2	-31.6	21.1	6.01e-01	0	43	0	689963008	19	4751
2026-01-28 02:37:01.83	247.70	47.51	-29.4	-32.0	20.9	6.03e-01	0	43	0	692060160	19	4879
2026-01-28 02:37:02.83	247.23	47.23	-29.6	-32.1	20.5	6.03e-01	0	43	0	693633024	20	4788
2026-01-28 02:37:03.84	246.76	46.95	-29.6	-32.4	20.5	6.02e-01	0	43	0	695730176	19	5018
2026-01-28 02:37:04.84	246.30	46.67	-29.4	-31.9	20.8	6.02e-01	0	43	0	697827328	19	4851
2026-01-28 02:37:05.84	245.85	46.39	-29.2	-31.7	21.0	6.00e-01	0	43	0	699400192	19	4760
2026-01-28 02:37:06.85	245.40	46.10	-29.0	-31.0	21.4	6.02e-01	0	43	0	701497344	19	4551
2026-01-28 02:37:07.85	244.97	45.82	-29.2	-31.6	21.1	6.02e-01	0	43	0	703070208	19	4737
2026-01-28 02:37:08.86	244.54	45.54	-29.5	-32.4	20.7	6.02e-01	0	43	0	705167360	19	4992
2026-01-28 02:37:09.86	244.12	45.26	-29.4	-32.0	20.8	6.00e-01	0	43	0	706740224	19	4881
2026-01-28 02:37:10.87	243.71	44.98	-29.4	-32.0	20.8	6.01e-01	0	43	0	708837376	19	4882
2026-01-28 02:37:11.88	243.30	44.69	-29.2	-31.6	21.1	6.01e-01	0	43	0	710934528	19	4745
2026-01-28 02:37:12.88	242.91	44.41	-29.2	-31.6	21.1	6.01e-01	0	43	0	712507392	19	4731
2026-01-28 02:37:13.89	242.51	44.13	-29.3	-31.9	20.9	5.99e-01	0	43	0	714604544	19	4848
2026-01-28 02:37:14.89	242.13	43.86	-29.5	-32.2	20.7	6.02e-01	0	43	0	716701696	19	4937
2026-01-28 02:37:15.89	241.76	43.58	-29.7	-32.4	20.2	6.02e-01	0	43	0	718274560	20	4902
2026-01-28 02:37:16.89	241.39	43.30	-29.4	-31.6	20.6	6.02e-01	0	43	0	720371712	20	4627
2026-01-28 02:37:17.89	241.03	43.03	-29.4	-32.2	20.6	6.03e-01	0	43	0	721944576	19	4926
2026-01-28 02:37:18.90	240.67	42.75	-29.3	-31.8	20.9	6.03e-01	0	43	0	724041728	19	4803
2026-01-28 02:37:19.90	240.32	42.48	-29.7	-32.3	20.3	6.01e-01	0	43	0	725614592	20	4877
2026-01-28 02:37:20.91	239.97	42.20	-30.1	-33.4	19.6	6.02e-01	0	43	0	727711744	20	5274
2026-01-28 02:37:21.91	239.63	41.93	-30.1	-32.8	19.5	6.02e-01	0	43	0	729808896	21	4947
2026-01-28 02:37:22.91	239.30	41.66	-29.7	-31.9	20.2	6.05e-01	0	43	0	731381760	21	4608
2026-01-28 02:37:23.92	238.97	41.39	-29.9	-32.8	19.9	6.04e-01	0	43	0	733478912	20	5037
2026-01-28 02:37:24.92	238.65	41.12	-30.2	-33.2	19.4	6.02e-01	0	42	0	735051776	21	5056
2026-01-28 02:37:25.93	238.33	40.85	-30.4	-33.7	19.1	6.04e-01	0	43	0	737148928	21	5268
2026-01-28 02:37:26.93	238.02	40.58	-30.1	-33.0	19.6	6.01e-01	0	43	0	739246080	21	4986
2026-01-28 02:37:27.94	237.72	40.31	-30.2	-33.1	19.5	6.00e-01	0	43	0	740818944	21	5013
2026-01-28 02:37:28.94	237.42	40.05	-30.7	-34.0	18.6	6.03e-01	0	43	0	742916096	22	5247
2026-01-28 02:37:29.94	237.12	39.79	-30.4	-33.2	19.1	6.02e-01	0	43	0	744488960	22	4956
2026-01-28 02:37:30.94	236.83	39.53	-30.2	-33.0	19.5	6.01e-01	0	43	0	746586112	21	5014
2026-01-28 02:37:31.95	236.54	39.26	-30.2	-33.2	19.4	6.01e-01	0	43	0	748683264	21	5068
2026-01-28 02:37:32.95	236.26	39.00	-30.7	-33.9	18.7	6.01e-01	0	43	0	750256128	22	5241
2026-01-28 02:37:33.95	235.99	38.75	-30.7	-33.9	18.7	6.02e-01	0	43	0	752353280	22	5221
2026-01-28 02:37:34.96	235.71	38.49	-30.7	-34.0	18.6	6.01e-01	0	43	0	753926144	22	5242
2026-01-28 02:37:35.96	235.45	38.23	-31.0	-34.7	18.2	6.02e-01	0	43	0	756023296	22	5538
2026-01-28 02:37:36.97	235.18	37.98	-30.8	-34.3	18.4	6.06e-01	0	43	0	757596160	22	5376
2026-01-28 02:37:37.97	234.92	37.72	-30.6	-33.8	18.7	6.02e-01	0	43	0	759693312	22	5201
2026-01-28 02:37:38.98	234.67	37.47	-30.5	-33.9	18.5	6.07e-01	0	43	0	761790464	21	5340
2026-01-28 02:37:39.98	234.42	37.22	-30.4	-33.8	19.0	6.00e-01	0	43	0	763363328	21	5307
2026-01-28 02:37:40.99	234.17	36.97	-30.4	-33.7	17.6	6.04e-01	0	43	0	765460480	21	5253
2026-01-28 02:37:41.99	233.93	36.72	-30.4	-33.7	17.6	6.03e-01	0	43	0	767033344	21	5271
2026-01-28 02:37:42.99	233.69	36.48	-30.1	-33.0	19.4	5.99e-01	0	43	0	769130496	21	5009
2026-01-28 02:37:44.00	233.45	36.23	-30.1	-33.0	18.8	6.02e-01	0	43	0	771227648	21	5027
2026-01-28 02:37:45.01	233.22	35.98	-30.3	-33.6	17.6	5.99e-01	0	42	0	772800512	21	5255
2026-01-28 02:37:46.01	232.99	35.74	-30.4	-33.8	18.9	5.98e-01	0	43	0	774897664	21	5345
2026-01-28 02:37:47.01	232.76	35.50	-30.2	-33.2	18.7	5.99e-01	0	43	0	776470528	21	5090
2026-01-28 02:37:48.02	232.54	35.26	-30.0	-33.2	19.5	5.99e-01	0	43	0	778567680	20	5210
2026-01-28 02:37:49.02	232.32	35.03	-30.0	-33.2	19.6	6.02e-01	0	43	0	780140544	20	5210
2026-01-28 02:37:50.03	232.11	34.79	-30.0	-33.2	19.6	6.04e-01	0	43	0	782237696	20	5221
2026-01-28 02:37:51.03	231.89	34.55	-30.2	-33.4	19.1	6.01e-01	0	43	0	784334848	21	5183
2026-01-28 02:37:52.04	231.68	34.32	-30.1	-33.2	19.2	6.01e-01	0	43	0	785907712	21	5106
2026-01-28 02:37:53.03	231.48	34.09	-30.0	-33.2	19.5	6.03e-01	0	43	0	788004864	20	5228
2026-01-28 02:37:54.03	231.28	33.86	-30.0	-33.2	19.5	5.98e-01	0	43	0	790102016	20	5235
2026-01-28 02:37:55.03	231.08	33.63	-29.9	-33.0	19.6	6.02e-01	0	43	0	791674880	20	5150
2026-01-28 02:37:56.04	230.88	33.40	-29.8	-32.9	19.7	6.03e-01	0	43	0	793772032	20	5111
2026-01-28 02:37:57.04	230.69	33.18	-29.9	-32.9	19.7	6.03e-01	0	43	0	795344896	20	5121
2026-01-28 02:37:58.04	230.50	32.95	-29.5	-32.0	20.3	6.01e-01	0	43	0	797442048	20	4784
2026-01-28 02:37:59.04	230.31	32.73	-29.4	-32.2	20.5	6.03e-01	0	43	0	799014912	19	4987
2026-01-28 02:38:00.04	230.12	32.51	-29.5	-32.5	20.3	6.02e-01	0	43	0	801112064	19	5076
2026-01-28 02:38:01.05	229.94	32.28	-29.5	-32.5	20.3	6.00e-01	0	43	0	803209216	19	5086
2026-01-28 02:38:02.05	229.76	32.07	-29.4	-32.2	20.4	6.01e-01	0	43	0	804782080	19	4987
2026-01-28 02:38:03.06	229.58	31.85	-29.5	-32.4	20.4	6.02e-01	0	43	0	806879232	19	5030
2026-01-28 02:38:04.06	229.40	31.63	-29.3	-31.9	20.6	5.99e-01	0	43	0	808452096	19	4878
2026-01-28 02:38:05.06	229.23	31.42	-29.5	-32.4	20.3	6.01e-01	0	43	0	810549248	19	5041
2026-01-28 02:38:06.06	229.06	31.20	-29.3	-32.0	20.5	6.02e-01	0	43	0	812122112	19	4902
2026-01-28 02:38:07.07	228.89	30.99	-29.1	-31.6	20.8	6.01e-01	0	43	0	814219264	19	4777
2026-01-28 02:38:08.08	228.72	30.78	-29.1	-31.6	20.8	6.02e-01	0	43	0	816316416	19	4759
2026-01-28 02:38:09.08	228.56	30.57	-29.1	-31.6	20.9	6.02e-01	0	43	0	817889280	19	4757
2026-01-28 02:38:10.08	228.40	30.36	-29.3	-31.9	20.7	6.02e-01	0	43	0	819986432	19	4875
2026-01-28 02:38:11.09	228.24	30.15	-29.2	-31.7	20.8	6.03e-01	0	43	0	822083584	19	4818
2026-01-28 02:38:12.09	228.08	29.95	-29.4	-32.1	20.5	6.03e-01	0	43	0	823656448	19	4953
2026-01-28 02:38:13.09	227.93	29.74	-29.2	-31.6	20.8	5.99e-01	0	43	0	825753600	19	4787
2026-01-28 02:38:14.09	227.77	29.54	-29.1	-31.6	20.9	6.02e-01	0	43	0	827326464	19	4764
2026-01-28 02:38:15.09	227.62	29.34	-29.2	-31.6	20.8	6.00e-01	0	43	0	829423616	19	4784
2026-01-28 02:38:16.09	227.47	29.14	-29.1	-31.6	20.9	6.02e-01	0	43	0	830996480	19	4765
2026-01-28 02:38:17.10	227.32	28.94	-29.2	-31.6	20.8	6.02e-01	0	43	0	833093632	19	4780
2026-01-28 02:38:18.10	227.18	28.74	-29.1	-31.5	20.8	5.99e-01	0	43	0	835190784	19	4755
2026-01-28 02:38:19.11	227.03	28.55	-29.2	-31.8	20.8	6.03e-01	0	43	0	836763648	19	4830
2026-01-28 02:38:20.11	226.89	28.35	-29.2	-31.8	20.7	6.00e-01	0	43	0	838860800	19	4846
2026-01-28 02:38:21.11	226.75	28.16	-29.4	-32.2	20.4	6.01e-01	0	43	0	840433664	19	4968
2026-01-28 02:38:22.11	226.62	27.97	-29.3	-32.1	20.5	6.03e-01	0	43	0	842530816	19	4934
2026-01-28 02:38:23.12	226.48	27.77	-29.5	-32.4	20.3	6.02e-01	0	42	0	844103680	19	5063
2026-01-28 02:38:24.12	226.34	27.58	-29.4	-32.2	20.4	6.03e-01	0	43	0	846200832	19	5000
2026-01-28 02:38:25.12	226.21	27.40	-29.4	-32.3	20.4	6.03e-01	0	43	0	848297984	19	5023
2026-01-28 02:38:26.12	226.08	27.21	-29.5	-32.4	20.3	6.02e-01	0	43	0	849870848	19	5072
2026-01-28 02:38:27.13	225.95	27.02	-29.3	-32.1	20.5	6.03e-01	0	43	0	851968000	19	4962
2026-01-28 02:38:28.13	225.82	26.84	-29.4	-32.2	20.5	6.03e-01	0	43	0	854065152	19	4970
2026-01-28 02:38:29.14	225.69	26.65	-29.4	-32.3	20.3	6.01e-01	0	43	0	855638016	19	5036
2026-01-28 02:38:30.14	225.57	26.47	-29.5	-32.5	20.2	6.02e-01	0	43	0	857735168	19	5094
2026-01-28 02:38:31.15	225.44	26.29	-29.6	-32.4	20.0	6.01e-01	0	43	0	859308032	20	4941
2026-01-28 02:38:32.16	225.32	26.10	-29.8	-32.8	19.7	6.02e-01	0	43	0	861405184	20	5111
2026-01-28 02:38:33.16	225.20	25.92	-29.6	-32.3	20.0	6.02e-01	0	43	0	862978048	20	4924
2026-01-28 02:38:34.16	225.08	25.75	-29.5	-32.2	20.1	6.01e-01	0	43	0	865075200	20	4874
2026-01-28 02:38:35.17	224.96	25.57	-29.6	-32.2	20.0	6.01e-01	0	43	0	867172352	20	4903
2026-01-28 02:38:36.17	224.85	25.39	-29.6	-32.3	20.0	6.05e-01	0	43	0	868745216	20	4909
2026-01-28 02:38:37.17	224.73	25.22	-29.6	-32.7	20.1	6.01e-01	0	43	0	870842368	19	5159
2026-01-28 02:38:38.18	224.62	25.04	-29.6	-32.3	19.9	6.02e-01	0	43	0	872415232	20	4936
2026-01-28 02:38:39.18	224.51	24.87	-29.7	-32.7	19.7	6.04e-01	0	43	0	874512384	20	5067
2026-01-28 02:38:40.18	224.39	24.70	-29.6	-32.3	19.9	6.00e-01	0	43	0	876609536	20	4914
2026-01-28 02:38:41.19	224.28	24.53	-29.6	-32.4	19.8	6.02e-01	0	43	0	878182400	20	4965
2026-01-28 02:38:42.20	224.17	24.36	-29.7	-32.8	19.6	6.03e-01	0	43	0	880279552	20	5100
2026-01-28 02:38:43.20	224.07	24.19	-29.8	-32.9	19.6	6.04e-01	0	43	0	881852416	20	5151
2026-01-28 02:38:44.21	223.96	24.02	-29.9	-33.2	19.3	6.00e-01	0	43	0	883949568	20	5277
2026-01-28 02:38:45.21	223.86	23.86	-29.8	-32.8	19.6	6.03e-01	0	43	0	885522432	20	5128
2026-01-28 02:38:46.21	223.75	23.69	-29.7	-32.7	19.7	6.01e-01	0	43	0	887619584	20	5081
2026-01-28 02:38:47.21	223.65	23.53	-29.7	-32.6	19.7	6.00e-01	0	43	0	889716736	20	5038
2026-01-28 02:38:48.21	223.55	23.37	-29.6	-32.5	19.8	6.00e-01	0	43	0	891289600	20	4985
2026-01-28 02:38:49.22	223.45	23.20	-29.7	-32.5	19.8	6.01e-01	0	43	0	893386752	20	5009
2026-01-28 02:38:50.23	223.35	23.04	-29.8	-32.8	19.6	6.02e-01	0	43	0	895483904	20	5117
2026-01-28 02:38:51.23	223.25	22.88	-29.8	-32.9	19.6	6.03e-01	0	43	0	897056768	20	5139
2026-01-28 02:38:52.24	223.15	22.72	-29.8	-33.0	19.5	6.03e-01	0	43	0	899153920	20	5175
2026-01-28 02:38:53.24	223.06	22.57	-29.9	-33.1	19.4	6.03e-01	0	43	0	900726784	20	5224
2026-01-28 02:38:54.25	222.96	22.41	-29.9	-33.1	19.4	6.03e-01	0	43	0	902823936	20	5216
2026-01-28 02:38:55.24	222.87	22.25	-29.9	-33.2	19.4	6.00e-01	0	43	0	904396800	20	5238
2026-01-28 02:38:56.25	222.78	22.10	-29.9	-33.2	19.3	6.02e-01	0	43	0	906493952	20	5263
2026-01-28 02:38:57.26	222.68	21.94	-29.8	-32.9	19.6	6.03e-01	0	43	0	908591104	20	5125
2026-01-28 02:38:58.26	222.59	21.79	-29.7	-32.6	19.7	6.00e-01	0	43	0	910163968	20	5049
2026-01-28 02:38:59.26	222.50	21.64	-29.8	-32.8	19.6	6.01e-01	0	43	0	912261120	20	5099
2026-01-28 02:39:00.26	222.41	21.49	-29.8	-32.9	19.5	6.02e-01	0	43	0	913833984	20	5131
2026-01-28 02:39:01.26	222.33	21.34	-29.8	-33.0	19.4	6.01e-01	0	43	0	915931136	20	5180
2026-01-28 02:39:02.27	222.24	21.19	-29.8	-33.0	19.4	6.03e-01	0	43	0	917504000	20	5175
2026-01-28 02:39:03.27	222.15	21.04	-29.8	-32.8	19.5	6.03e-01	0	43	0	919601152	20	5119
2026-01-28 02:39:04.28	222.07	20.89	-29.7	-32.7	19.6	6.02e-01	0	43	0	921698304	20	5060
2026-01-28 02:39:05.28	221.98	20.74	-29.8	-32.9	19.4	6.00e-01	0	43	0	923271168	20	5156
2026-01-28 02:39:06.28	221.90	20.60	-29.8	-32.9	19.5	5.99e-01	0	43	0	925368320	20	5139
2026-01-28 02:39:07.29	221.82	20.45	-29.9	-33.1	19.3	6.03e-01	0	43	0	927465472	20	5221
2026-01-28 02:39:08.30	221.73	20.30	-29.9	-33.2	19.2	5.96e-01	0	43	0	929038336	20	5267
2026-01-28 02:39:09.30	221.65	20.16	-29.8	-32.9	19.4	6.03e-01	0	43	0	931135488	20	5155
2026-01-28 02:39:10.31	221.57	20.02	-29.8	-33.0	19.3	6.02e-01	0	43	0	932708352	20	5194
2026-01-28 02:39:11.31	221.49	19.88	-29.9	-33.1	19.3	6.01e-01	0	43	0	934805504	20	5212
2026-01-28 02:39:12.31	221.41	19.74	-29.7	-32.7	19.5	6.04e-01	0	43	0	936378368	20	5063
2026-01-28 02:39:13.32	221.33	19.60	-29.7	-32.6	19.6	6.01e-01	0	43	0	938475520	20	5041
2026-01-28 02:39:14.32	221.26	19.46	-29.7	-32.7	18.8	6.08e-01	0	43	0	940572672	20	5096
2026-01-28 02:39:15.33	221.18	19.32	-29.7	-32.6	19.4	6.04e-01	0	43	0	942145536	20	5044
2026-01-28 02:39:16.34	221.10	19.18	-29.6	-32.5	17.3	6.09e-01	0	42	0	944242688	20	5003
2026-01-28 02:39:17.34	221.03	19.04	-29.7	-32.7	17.5	6.03e-01	0	43	0	945815552	20	5077
2026-01-28 02:39:18.35	220.96	18.90	-29.8	-32.8	19.2	6.05e-01	0	43	0	947912704	20	5129
2026-01-28 02:39:19.35	220.88	18.77	-29.7	-32.8	18.4	6.00e-01	0	43	0	950009856	20	5100
2026-01-28 02:39:20.35	220.81	18.63	-29.7	-32.6	18.7	6.02e-01	0	43	0	951582720	20	5052
2026-01-28 02:39:21.35	220.74	18.50	-29.7	-32.7	19.5	6.02e-01	0	43	0	953679872	20	5066
2026-01-28 02:39:22.36	220.67	18.37	-29.7	-32.8	19.4	6.01e-01	0	43	0	955252736	20	5121
2026-01-28 02:39:23.36	220.60	18.23	-29.7	-32.8	19.4	6.03e-01	0	43	0	957349888	20	5111
2026-01-28 02:39:24.36	220.53	18.10	-29.7	-32.8	19.5	6.03e-01	0	43	0	958922752	20	5109
2026-01-28 02:39:25.36	220.46	17.97	-29.7	-32.7	19.5	6.02e-01	0	42	0	961019904	20	5094
2026-01-28 02:39:26.37	220.39	17.84	-29.7	-32.6	19.5	6.01e-01	0	43	0	963117056	20	5053
2026-01-28 02:39:27.37	220.32	17.71	-29.8	-32.8	19.4	6.02e-01	0	43	0	964689920	20	5137
2026-01-28 02:39:28.38	220.25	17.58	-29.9	-33.1	19.2	6.03e-01	0	43	0	966787072	20	5239
2026-01-28 02:39:29.38	220.19	17.46	-29.9	-33.1	19.2	6.01e-01	0	43	0	968884224	20	5238
2026-01-28 02:39:30.38	220.12	17.33	-29.8	-33.0	19.3	6.04e-01	0	43	0	970457088	20	5194
2026-01-28 02:39:31.39	220.05	17.20	-29.9	-33.1	19.2	6.03e-01	0	43	0	972554240	20	5242
2026-01-28 02:39:32.39	219.99	17.07	-29.9	-33.2	19.2	6.01e-01	0	43	0	974127104	20	5255
2026-01-28 02:39:33.40	219.92	16.95	-30.0	-33.5	19.0	6.00e-01	0	43	0	976224256	20	5371
2026-01-28 02:39:34.39	219.86	16.83	-30.0	-33.5	18.9	6.03e-01	0	43	0	977797120	20	5399
2026-01-28 02:39:35.40	219.80	16.70	-30.0	-33.6	18.8	5.99e-01	0	43	0	979894272	20	5449
2026-01-28 02:39:36.40	219.74	16.58	-30.3	-33.9	18.4	6.05e-01	0	43	0	981991424	21	5438
2026-01-28 02:39:37.41	219.67	16.45	-30.4	-34.2	18.1	6.01e-01	0	43	0	983564288	21	5562
2026-01-28 02:39:38.41	219.61	16.33	-30.1	-33.3	18.6	6.01e-01	0	43	0	985661440	21	5216
2026-01-28 02:39:39.42	219.55	16.21	-29.8	-32.6	19.1	6.01e-01	0	43	0	987234304	21	4954
2026-01-28 02:39:40.42	219.49	16.09	-29.8	-32.9	19.2	6.04e-01	0	43	0	989331456	20	5168
2026-01-28 02:39:41.43	219.43	15.97	-29.7	-32.8	19.3	6.03e-01	0	43	0	991428608	20	5131
2026-01-28 02:39:42.43	219.37	15.85	-29.8	-32.9	19.2	6.05e-01	0	43	0	993001472	20	5173
2026-01-28 02:39:43.43	219.31	15.73	-29.8	-33.1	19.1	6.04e-01	0	43	0	995098624	20	5232
2026-01-28 02:39:44.43	219.25	15.61	-29.8	-32.9	19.2	6.04e-01	0	43	0	996671488	20	5184
2026-01-28 02:39:45.43	219.20	15.49	-29.8	-33.0	19.1	6.03e-01	0	43	0	998768640	20	5207
2026-01-28 02:39:46.43	219.14	15.38	-29.8	-33.2	19.0	6.01e-01	0	43	0	1000865792	20	5266
2026-01-28 02:39:47.43	219.08	15.26	-29.9	-33.2	18.9	6.02e-01	0	43	0	1002438656	20	5298
2026-01-28 02:39:48.44	219.03	15.14	-29.8	-33.1	19.0	6.02e-01	0	43	0	1004535808	20	5229
2026-01-28 02:39:49.44	218.97	15.03	-29.9	-33.2	18.9	6.03e-01	0	43	0	1006108672	20	5293
2026-01-28 02:39:50.44	218.92	14.92	-29.8	-32.9	19.1	6.05e-01	0	43	0	1008205824	20	5168
2026-01-28 02:39:51.44	218.86	14.80	-29.7	-32.7	19.2	6.02e-01	0	43	0	1009778688	20	5118
2026-01-28 02:39:52.45	218.81	14.69	-29.7	-32.7	19.2	6.02e-01	0	43	0	1011875840	20	5113
2026-01-28 02:39:53.45	218.75	14.57	-29.7	-32.8	19.1	6.01e-01	0	42	0	1013972992	20	5147
2026-01-28 02:39:54.45	218.70	14.46	-29.8	-33.2	18.9	6.02e-01	0	43	0	1015545856	20	5283
2026-01-28 02:39:55.46	218.65	14.35	-29.9	-33.3	18.8	6.04e-01	0	43	0	1017643008	20	5340
2026-01-28 02:39:56.47	218.59	14.24	-29.8	-32.9	19.0	6.04e-01	0	43	0	1019215872	20	5188
2026-01-28 02:39:57.47	218.54	14.13	-29.7	-32.8	19.1	6.02e-01	0	43	0	1021313024	20	5158
2026-01-28 02:39:58.47	218.49	14.02	-29.7	-32.9	19.1	6.02e-01	0	43	0	1022885888	20	5163
2026-01-28 02:39:59.47	218.44	13.91	-29.7	-32.9	19.1	6.02e-01	0	43	0	1024983040	20	5169
2026-01-28 02:40:00.47	218.39	13.80	-29.8	-33.0	19.0	6.02e-01	0	43	0	1027080192	20	5223
2026-01-28 02:40:01.47	218.34	13.69	-29.8	-33.1	19.0	6.01e-01	0	43	0	1028653056	20	5251
2026-01-28 02:40:02.47	218.29	13.58	-29.8	-33.1	18.9	6.02e-01	0	43	0	1030750208	20	5283
2026-01-28 02:40:03.48	218.24	13.47	-29.7	-32.7	19.1	6.01e-01	0	43	0	1032323072	20	5125
2026-01-28 02:40:04.48	218.19	13.36	-29.6	-32.6	19.2	6.02e-01	0	43	0	1034420224	20	5083
2026-01-28 02:40:05.48	218.14	13.26	-29.6	-32.6	19.2	6.01e-01	0	43	0	1036517376	20	5091
2026-01-28 02:40:06.48	218.09	13.15	-29.6	-32.7	19.2	6.00e-01	0	43	0	1038090240	20	5102
2026-01-28 02:40:07.48	218.05	13.05	-29.6	-32.5	19.3	6.03e-01	0	43	0	1040187392	20	5057
2026-01-28 02:40:08.49	218.00	12.94	-29.6	-32.6	19.2	6.02e-01	0	43	0	1041760256	20	5063
2026-01-28 02:40:09.49	217.95	12.84	-29.6	-32.7	19.2	6.01e-01	0	43	0	1043857408	20	5119
2026-01-28 02:40:10.50	217.90	12.73	-29.7	-32.7	19.1	6.02e-01	0	42	0	1045954560	20	5136
2026-01-28 02:40:11.50	217.86	12.63	-29.6	-32.6	19.2	6.00e-01	0	43	0	1047527424	20	5090
2026-01-28 02:40:12.50	217.81	12.52	-29.6	-32.6	19.2	6.02e-01	0	43	0	1049624576	20	5089
2026-01-28 02:40:13.50	217.77	12.42	-29.7	-32.9	19.0	6.02e-01	0	43	0	1051197440	20	5182
2026-01-28 02:40:14.51	217.72	12.32	-29.7	-32.9	19.0	6.03e-01	0	43	0	1053294592	20	5197
2026-01-28 02:40:15.51	217.68	12.22	-29.7	-32.9	19.0	6.02e-01	0	43	0	1054867456	20	5183
2026-01-28 02:40:16.51	217.63	12.12	-29.8	-33.0	18.9	6.00e-01	0	43	0	1056964608	20	5238
2026-01-28 02:40:17.51	217.59	12.01	-29.8	-33.1	18.8	6.02e-01	0	43	0	1059061760	20	5295
2026-01-28 02:40:18.52	217.54	11.91	-29.8	-33.2	18.7	6.00e-01	0	43	0	1060634624	20	5334
2026-01-28 02:40:19.52	217.50	11.81	-29.9	-33.4	18.6	6.03e-01	0	43	0	1062731776	20	5387
2026-01-28 02:40:20.53	217.46	11.71	-29.9	-33.5	18.6	6.02e-01	0	43	0	1064304640	20	5431
2026-01-28 02:40:21.52	217.41	11.61	-29.9	-33.6	18.5	6.02e-01	0	43	0	1066401792	20	5480
2026-01-28 02:40:22.53	217.37	11.52	-30.0	-33.6	18.4	6.03e-01	0	43	0	1068498944	20	5497
2026-01-28 02:40:23.54	217.33	11.42	-30.0	-33.8	18.3	6.01e-01	0	43	0	1070071808	20	5555
2026-01-28 02:40:24.54	217.29	11.32	-30.0	-33.8	18.3	6.01e-01	0	43	0	1072168960	20	5574
2026-01-28 02:40:25.55	217.24	11.22	-30.0	-33.9	18.2	6.01e-01	0	43	0	1073741824	20	5600
2026-01-28 02:40:26.55	217.20	11.12	-30.1	-33.7	18.1	6.04e-01	0	43	0	1075838976	21	5405
2026-01-28 02:40:27.55	217.16	11.03	-30.3	-34.3	17.7	6.01e-01	0	43	0	1077936128	21	5657
2026-01-28 02:40:28.56	217.12	10.93	-30.6	-35.0	17.1	6.02e-01	0	42	0	1079508992	21	6017
2026-01-28 02:40:29.56	217.08	10.83	-30.6	-34.7	17.0	6.01e-01	0	43	0	1081606144	22	5736
2026-01-28 02:40:30.56	217.04	10.74	-30.6	-34.7	17.0	6.01e-01	0	43	0	1083179008	22	5768
2026-01-28 02:40:31.57	217.00	10.64	-30.9	-35.6	16.3	6.02e-01	0	42	0	1085276160	22	6186
2026-01-28 02:40:32.57	216.96	10.55	-31.1	-35.9	15.8	6.02e-01	0	43	0	1086849024	23	6230
2026-01-28 02:40:33.58	216.92	10.45	-31.1	-35.8	15.8	6.00e-01	0	43	0	1088946176	23	6167
2026-01-28 02:40:34.58	216.88	10.36	-31.1	-35.9	15.7	6.02e-01	0	43	0	1091043328	23	6207
2026-01-28 02:40:35.58	216.85	10.27	-31.2	-36.2	15.5	6.02e-01	0	43	0	1092616192	23	6397
2026-01-28 02:40:36.58	216.81	10.17	-31.2	-36.0	15.6	6.00e-01	0	43	0	1094713344	23	6288
2026-01-28 02:40:37.58	216.77	10.08	-31.1	-35.8	15.7	6.02e-01	0	43	0	1096286208	23	6177
2026-01-28 02:40:38.58	216.73	9.99	-31.1	-35.9	15.7	6.00e-01	0	43	0	1098383360	23	6208
2026-01-28 02:40:39.59	216.69	9.89	-31.1	-35.9	15.7	6.01e-01	0	43	0	1100480512	23	6211
2026-01-28 02:40:40.59	216.66	9.80	-31.3	-36.4	15.3	6.02e-01	0	43	0	1102053376	23	6505
2026-01-28 02:40:41.59	216.62	9.71	-31.3	-36.4	15.2	6.01e-01	0	43	0	1104150528	23	6521
2026-01-28 02:40:42.60	216.58	9.62	-31.0	-35.4	16.0	6.04e-01	0	43	0	1105723392	23	5978
2026-01-28 02:40:43.60	216.55	9.53	-30.6	-34.8	16.7	6.00e-01	0	43	0	1107820544	22	5816
2026-01-28 02:40:44.60	216.51	9.44	-30.3	-34.4	17.3	6.03e-01	0	43	0	1109393408	21	5723
2026-01-28 02:40:45.60	216.48	9.35	-30.2	-33.9	17.7	6.02e-01	0	43	0	1111490560	21	5526
2026-01-28 02:40:46.60	216.44	9.26	-30.0	-33.9	18.0	6.02e-01	0	43	0	1113587712	20	5624
2026-01-28 02:40:47.61	216.40	9.17	-30.0	-33.8	18.1	6.00e-01	0	43	0	1115160576	20	5595
2026-01-28 02:40:48.62	216.37	9.08	-29.9	-33.7	18.1	6.03e-01	0	43	0	1117257728	20	5580
2026-01-28 02:40:49.62	216.33	8.99	-29.9	-33.7	18.1	6.04e-01	0	43	0	1118830592	20	5573
2026-01-28 02:40:50.62	216.30	8.90	-30.0	-33.9	18.0	6.00e-01	0	43	0	1120927744	20	5637
2026-01-28 02:40:51.62	216.27	8.82	-30.0	-33.9	18.0	6.02e-01	0	43	0	1123024896	20	5640
2026-01-28 02:40:52.63	216.23	8.73	-30.0	-34.0	17.9	6.01e-01	0	43	0	1124597760	20	5694
2026-01-28 02:40:53.63	216.20	8.64	-30.0	-34.0	17.8	6.02e-01	0	43	0	1126694912	20	5715
2026-01-28 02:40:54.63	216.16	8.56	-30.1	-33.8	17.7	5.98e-01	0	43	0	1128267776	21	5502
2026-01-28 02:40:55.64	216.13	8.47	-30.2	-34.0	17.6	6.02e-01	0	43	0	1130364928	21	5570
2026-01-28 02:40:56.64	216.10	8.38	-30.2	-34.0	17.6	6.04e-01	0	43	0	1132462080	21	5564
2026-01-28 02:40:57.64	216.06	8.30	-30.2	-33.9	17.6	6.00e-01	0	42	0	1134034944	21	5533
2026-01-28 02:40:58.64	216.03	8.21	-30.2	-34.1	17.4	6.01e-01	0	43	0	1136132096	21	5637
2026-01-28 02:40:59.64	216.00	8.13	-30.2	-34.1	17.4	6.04e-01	0	43	0	1137704960	21	5611
2026-01-28 02:41:00.64	215.97	8.04	-29.1	-33.0	17.5	6.00e-01	0	43	0	1139802112	21	5580
2026-01-28 02:41:01.64	215.94	7.96	-30.2	-34.0	17.5	6.01e-01	0	43	0	1141374976	21	5577
2026-01-28 02:41:02.65	215.90	7.87	-30.2	-33.9	17.5	6.03e-01	0	43	0	1143472128	21	5559
2026-01-28 02:41:03.66	215.87	7.79	-30.1	-33.8	17.3	6.03e-01	0	43	0	1145569280	21	5521
2026-01-28 02:41:04.67	215.84	7.70	-30.1	-33.8	17.1	6.04e-01	0	43	0	1147142144	21	5514
2026-01-28 02:41:05.67	215.81	7.62	-30.2	-33.9	17.4	6.04e-01	0	43	0	1149239296	21	5562
2026-01-28 02:41:06.68	215.78	7.54	-30.2	-34.2	17.3	6.01e-01	0	43	0	1151336448	21	5679
2026-01-28 02:41:07.68	215.75	7.45	-30.2	-34.2	17.3	6.02e-01	0	43	0	1152909312	21	5679
2026-01-28 02:41:08.68	215.72	7.37	-30.2	-34.0	17.4	6.01e-01	0	43	0	1155006464	21	5581
2026-01-28 02:41:09.69	215.69	7.29	-30.2	-34.1	17.3	6.00e-01	0	43	0	1156579328	21	5651
2026-01-28 02:41:10.70	215.66	7.20	-30.2	-34.0	17.3	6.02e-01	0	43	0	1158676480	21	5613
2026-01-28 02:41:11.70	215.63	7.12	-30.2	-34.0	17.4	6.00e-01	0	43	0	1160249344	21	5606
2026-01-28 02:41:12.70	215.60	7.04	-33.3	-52.0	3.7	7.47e-01	0	43	104	1161822208	27	31164

#Closed at: 2026-01-28 02:41:13
#Recorded file [1161 MB]: D:/data/31010_260128_053052.dat