passes_logs/2026/01/28/R2M6_AANII_01/R2M6_AANII_01__20260128_120616_SUOMI_NPP_rec.log

#Pass ID: 20260128_120616_SUOMI NPP
#Satellite: SUOMI NPP
#Configuration: NPP
#almurnet v.1.7.20240730
#Start time: 2026-01-28 12:06:18

#Version: 2.2.20231116
#Station: R2M6_AANII_01
#Location: 30.233357 lon 59.946436 lat
#TLE: 1 37849U 11061A   26027.86188320  .00000172  00000+0  10275-3 0  9990
#TLE: 2 37849  98.7823 329.8005 0002088  41.4184 318.7150 14.19530883738530

#Time	Az	El	Level	Level2	SNR	BER	BlckErr	Temp	State	Recorded	gain1	gain2
2026-01-28 12:06:18.50	216.64	7.12	-31.4	-35.5	5.1	1.20e+00	0	41	0	0	23	5795
2026-01-28 12:06:19.49	216.74	7.18	-31.8	-37.1	4.7	1.28e+00	0	41	104	0	24	6570
2026-01-28 12:06:20.49	216.84	7.24	-31.8	-36.8	6.9	2.10e-01	0	41	0	0	24	6412
2026-01-28 12:06:21.50	216.94	7.31	-31.7	-36.0	7.5	1.06e-01	0	41	0	1048576	24	5951
2026-01-28 12:06:22.50	217.05	7.37	-31.6	-35.7	7.8	7.74e-02	0	41	0	3145728	24	5752
2026-01-28 12:06:23.51	217.15	7.43	-31.5	-35.0	8.5	6.75e-02	0	41	0	5242880	24	5387
2026-01-28 12:06:24.51	217.25	7.49	-31.4	-34.6	8.7	3.60e-02	0	41	0	7340032	24	5223
2026-01-28 12:06:25.52	217.36	7.55	-31.3	-34.6	9.2	2.50e-02	0	41	0	9437184	23	5288
2026-01-28 12:06:26.52	217.46	7.62	-31.1	-33.8	9.8	1.51e-02	0	41	0	10485760	23	4953
2026-01-28 12:06:27.52	217.56	7.68	-31.0	-33.7	9.9	9.74e-03	0	41	0	12582912	23	4884
2026-01-28 12:06:28.51	217.67	7.74	-31.1	-33.8	9.8	8.92e-03	0	41	0	14680064	23	4939
2026-01-28 12:06:29.51	217.77	7.80	-31.0	-33.6	10.0	1.13e-02	0	41	0	16777216	23	4844
2026-01-28 12:06:30.52	217.88	7.86	-30.8	-32.8	10.6	5.05e-03	0	41	0	17825792	23	4553
2026-01-28 12:06:31.52	217.99	7.93	-30.5	-32.5	11.2	1.71e-03	0	41	0	19922944	22	4503
2026-01-28 12:06:32.53	218.09	7.99	-30.4	-32.0	11.6	8.38e-04	0	41	0	22020096	22	4333
2026-01-28 12:06:33.53	218.20	8.05	-30.4	-32.0	11.6	7.55e-04	0	41	0	24117248	22	4322
2026-01-28 12:06:34.53	218.31	8.12	-30.3	-31.8	11.7	5.80e-04	0	41	0	26214400	22	4271
2026-01-28 12:06:35.54	218.42	8.18	-30.4	-32.1	11.6	5.77e-04	0	41	0	27262976	22	4360
2026-01-28 12:06:36.54	218.52	8.24	-30.5	-32.3	11.4	8.94e-04	0	41	0	29360128	22	4427
2026-01-28 12:06:37.55	218.63	8.30	-30.4	-32.0	11.6	6.93e-04	0	41	0	31457280	22	4327
2026-01-28 12:06:38.55	218.74	8.37	-30.3	-31.9	11.7	5.48e-04	0	41	0	33554432	22	4291
2026-01-28 12:06:39.55	218.85	8.43	-30.5	-32.4	11.3	6.22e-04	0	42	0	35651584	22	4485
2026-01-28 12:06:40.56	218.96	8.49	-30.5	-32.3	11.4	1.04e-03	0	41	0	36700160	22	4435
2026-01-28 12:06:41.56	219.07	8.56	-30.4	-32.0	11.7	5.06e-04	0	41	0	38797312	22	4320
2026-01-28 12:06:42.57	219.19	8.62	-30.5	-32.1	11.6	5.52e-04	0	41	0	40894464	22	4358
2026-01-28 12:06:43.57	219.30	8.68	-30.3	-31.8	11.8	6.93e-04	0	42	0	42991616	22	4240
2026-01-28 12:06:44.57	219.41	8.75	-30.3	-31.6	12.0	3.90e-04	0	42	0	45088768	22	4191
2026-01-28 12:06:45.57	219.52	8.81	-30.5	-32.8	11.5	5.04e-04	0	42	0	46137344	21	4705
2026-01-28 12:06:46.57	219.63	8.87	-30.5	-32.8	11.4	1.01e-03	0	42	0	48234496	21	4698
2026-01-28 12:06:47.58	219.75	8.94	-30.4	-32.6	11.6	8.96e-04	0	42	0	50331648	21	4604
2026-01-28 12:06:48.58	219.86	9.00	-30.5	-32.9	11.4	7.33e-04	0	42	0	52428800	21	4735
2026-01-28 12:06:49.59	219.98	9.07	-30.6	-33.1	11.3	1.44e-03	0	42	0	54525952	21	4787
2026-01-28 12:06:50.59	220.09	9.13	-30.6	-33.1	11.3	1.24e-03	0	42	0	55574528	21	4787
2026-01-28 12:06:51.60	220.21	9.19	-30.7	-33.5	10.9	1.61e-03	0	42	0	57671680	21	4975
2026-01-28 12:06:52.61	220.32	9.26	-30.7	-33.5	10.9	2.63e-03	0	42	0	59768832	21	4961
2026-01-28 12:06:53.61	220.44	9.32	-30.6	-33.2	11.2	1.60e-03	0	42	0	61865984	21	4846
2026-01-28 12:06:54.61	220.56	9.39	-30.8	-33.7	10.8	1.78e-03	0	42	0	63963136	21	5043
2026-01-28 12:06:55.61	220.67	9.45	-30.8	-33.8	10.7	2.65e-03	0	42	0	65011712	21	5063
2026-01-28 12:06:56.62	220.79	9.51	-30.8	-33.7	10.8	1.53e-03	0	42	0	67108864	21	5028
2026-01-28 12:06:57.61	220.91	9.58	-30.8	-33.8	10.7	2.56e-03	0	42	0	69206016	21	5088
2026-01-28 12:06:58.62	221.03	9.64	-30.8	-33.6	10.9	2.11e-03	0	42	0	71303168	21	5009
2026-01-28 12:06:59.62	221.15	9.71	-30.7	-33.3	11.1	1.74e-03	0	42	0	73400320	21	4882
2026-01-28 12:07:00.62	221.27	9.77	-30.7	-33.4	11.0	1.48e-03	0	42	0	74448896	21	4907
2026-01-28 12:07:01.62	221.39	9.84	-30.8	-33.6	10.9	1.81e-03	0	42	0	76546048	21	4978
2026-01-28 12:07:02.63	221.51	9.90	-30.7	-33.3	11.1	1.63e-03	0	42	0	78643200	21	4873
2026-01-28 12:07:03.63	221.63	9.96	-30.8	-33.6	11.0	1.31e-03	0	42	0	80740352	21	4968
2026-01-28 12:07:04.64	221.75	10.03	-30.7	-33.4	11.0	3.07e-03	0	42	0	81788928	21	4912
2026-01-28 12:07:05.64	221.88	10.09	-30.6	-33.1	11.4	1.09e-03	0	42	0	83886080	21	4790
2026-01-28 12:07:06.65	222.00	10.16	-30.7	-33.4	11.1	1.17e-03	0	42	0	85983232	21	4910
2026-01-28 12:07:07.65	222.12	10.22	-30.6	-32.9	11.4	1.30e-03	0	42	0	88080384	21	4728
2026-01-28 12:07:08.66	222.25	10.29	-30.5	-32.7	11.7	4.97e-04	0	42	0	90177536	21	4640
2026-01-28 12:07:09.66	222.37	10.35	-30.3	-32.2	12.0	3.49e-04	0	42	0	91226112	21	4449
2026-01-28 12:07:10.66	222.50	10.42	-30.4	-32.4	11.9	3.12e-04	0	42	0	93323264	21	4540
2026-01-28 12:07:11.67	222.62	10.49	-30.3	-32.1	12.1	3.07e-04	0	42	0	95420416	21	4421
2026-01-28 12:07:12.67	222.75	10.55	-30.1	-31.6	12.4	1.43e-04	0	42	0	97517568	21	4248
2026-01-28 12:07:13.67	222.88	10.61	-30.2	-31.7	12.4	1.62e-04	0	42	0	99614720	21	4287
2026-01-28 12:07:14.67	223.00	10.68	-30.1	-31.6	12.5	1.19e-04	0	42	0	100663296	21	4261
2026-01-28 12:07:15.68	223.13	10.75	-30.1	-31.5	12.5	1.39e-04	0	42	0	102760448	21	4236
2026-01-28 12:07:16.68	223.26	10.81	-30.1	-31.4	12.5	1.30e-04	0	42	0	104857600	21	4205
2026-01-28 12:07:17.68	223.39	10.88	-30.0	-31.4	12.6	1.40e-04	0	42	0	106954752	21	4191
2026-01-28 12:07:18.69	223.52	10.94	-30.2	-31.7	12.4	1.19e-04	0	42	0	109051904	21	4297
2026-01-28 12:07:19.69	223.65	11.01	-30.2	-31.7	12.3	2.23e-04	0	42	0	110100480	21	4302
2026-01-28 12:07:20.70	223.78	11.07	-29.9	-31.0	12.9	8.01e-05	0	42	0	112197632	21	4067
2026-01-28 12:07:21.70	223.91	11.14	-30.0	-31.1	12.7	5.41e-05	0	42	0	114294784	21	4108
2026-01-28 12:07:22.71	224.05	11.20	-30.1	-31.5	12.5	8.62e-05	0	42	0	116391936	21	4241
2026-01-28 12:07:23.72	224.18	11.27	-30.0	-31.2	12.7	8.69e-05	0	42	0	118489088	21	4145
2026-01-28 12:07:24.73	224.31	11.34	-30.0	-31.2	12.7	7.09e-05	0	42	0	119537664	21	4133
2026-01-28 12:07:25.72	224.44	11.40	-30.0	-31.2	12.7	7.17e-05	0	42	0	121634816	21	4130
2026-01-28 12:07:26.72	224.58	11.47	-30.2	-31.7	12.4	8.39e-05	0	42	0	123731968	21	4291
2026-01-28 12:07:27.73	224.71	11.53	-30.0	-31.2	12.7	1.50e-04	0	42	0	125829120	21	4140
2026-01-28 12:07:28.73	224.85	11.60	-29.9	-31.0	12.9	6.94e-05	0	42	0	127926272	21	4067
2026-01-28 12:07:29.73	224.98	11.66	-29.8	-30.6	13.1	3.28e-05	0	42	0	128974848	21	3959
2026-01-28 12:07:30.74	225.12	11.73	-29.9	-30.8	13.0	3.96e-05	0	42	0	131072000	21	4026
2026-01-28 12:07:31.74	225.26	11.80	-30.0	-31.1	12.9	4.04e-05	0	42	0	133169152	21	4094
2026-01-28 12:07:32.74	225.40	11.86	-29.8	-30.6	13.2	3.66e-05	0	42	0	135266304	21	3937
2026-01-28 12:07:33.75	225.54	11.93	-29.8	-30.6	13.2	3.28e-05	0	42	0	136314880	21	3953
2026-01-28 12:07:34.75	225.67	11.99	-29.9	-31.3	13.1	2.13e-05	0	42	0	138412032	20	4240
2026-01-28 12:07:35.75	225.81	12.06	-29.9	-31.5	12.9	2.67e-05	0	42	0	140509184	20	4304
2026-01-28 12:07:36.75	225.95	12.13	-29.9	-31.4	13.1	3.96e-05	0	42	0	142606336	20	4263
2026-01-28 12:07:37.76	226.09	12.19	-30.0	-31.5	12.9	3.43e-05	0	43	0	144703488	20	4318
2026-01-28 12:07:38.76	226.23	12.26	-30.1	-31.9	12.7	6.33e-05	0	42	0	146800640	20	4419
2026-01-28 12:07:39.77	226.38	12.33	-30.1	-31.9	12.6	6.71e-05	0	42	0	147849216	20	4442
2026-01-28 12:07:40.77	226.52	12.39	-30.2	-32.1	12.5	1.07e-04	0	42	0	149946368	20	4504
2026-01-28 12:07:41.78	226.66	12.46	-30.1	-32.0	12.6	7.62e-05	0	43	0	152043520	20	4470
2026-01-28 12:07:42.78	226.81	12.52	-30.0	-31.8	12.8	6.56e-05	0	42	0	154140672	20	4389
2026-01-28 12:07:43.78	226.95	12.59	-30.2	-32.1	12.5	1.14e-04	0	42	0	155189248	20	4516
2026-01-28 12:07:44.79	227.10	12.66	-30.2	-32.2	12.5	1.63e-04	0	43	0	157286400	20	4536
2026-01-28 12:07:45.79	227.24	12.72	-30.0	-31.8	12.8	9.38e-05	0	42	0	159383552	20	4403
2026-01-28 12:07:46.79	227.39	12.79	-30.1	-31.9	12.7	7.47e-05	0	43	0	161480704	20	4433
2026-01-28 12:07:47.80	227.54	12.86	-30.1	-31.8	12.8	6.02e-05	0	42	0	163577856	20	4405
2026-01-28 12:07:48.80	227.68	12.92	-29.8	-31.2	13.2	4.50e-05	0	43	0	164626432	20	4217
2026-01-28 12:07:49.81	227.83	12.99	-29.7	-30.8	13.4	2.05e-05	0	42	0	166723584	20	4102
2026-01-28 12:07:50.80	227.98	13.05	-29.7	-30.9	13.4	9.10e-06	0	43	0	168820736	20	4113
2026-01-28 12:07:51.81	228.13	13.12	-29.6	-30.6	13.6	1.37e-05	0	42	0	170917888	20	4020
2026-01-28 12:07:52.81	228.28	13.19	-29.5	-30.3	13.8	9.90e-06	0	43	0	173015040	20	3935
2026-01-28 12:07:53.81	228.43	13.25	-29.3	-29.8	14.1	2.20e-06	0	43	0	174063616	20	3806
2026-01-28 12:07:54.82	228.58	13.32	-29.5	-30.2	13.9	5.30e-06	0	43	0	176160768	20	3913
2026-01-28 12:07:55.82	228.74	13.39	-29.5	-30.2	13.9	4.50e-06	0	43	0	178257920	20	3909
2026-01-28 12:07:56.82	228.89	13.45	-29.2	-30.0	14.4	1.50e-06	0	42	0	180355072	19	3937
2026-01-28 12:07:57.83	229.04	13.52	-29.5	-30.7	14.0	0.00e+00	0	43	0	182452224	19	4130
2026-01-28 12:07:58.83	229.20	13.58	-29.4	-30.5	14.1	1.50e-06	0	43	0	183500800	19	4058
2026-01-28 12:07:59.83	229.35	13.65	-29.4	-30.5	14.1	1.50e-06	0	43	0	185597952	19	4073
2026-01-28 12:08:00.83	229.51	13.72	-29.7	-31.1	13.7	3.00e-06	0	43	0	187695104	19	4247
2026-01-28 12:08:01.84	229.66	13.78	-29.7	-31.1	13.7	7.60e-06	0	43	0	189792256	19	4250
2026-01-28 12:08:02.84	229.82	13.85	-29.6	-31.0	13.8	6.80e-06	0	43	0	191889408	19	4229
2026-01-28 12:08:03.84	229.98	13.92	-29.6	-31.1	13.8	1.50e-06	0	43	0	192937984	19	4247
2026-01-28 12:08:04.84	230.13	13.98	-29.7	-31.2	13.7	5.30e-06	0	43	0	195035136	19	4288
2026-01-28 12:08:05.85	230.29	14.05	-29.6	-31.0	13.8	6.80e-06	0	43	0	197132288	19	4211
2026-01-28 12:08:06.85	230.45	14.11	-29.9	-31.7	13.4	9.10e-06	0	43	0	199229440	19	4425
2026-01-28 12:08:07.86	230.61	14.18	-29.7	-31.1	13.7	9.90e-06	0	43	0	201326592	19	4250
2026-01-28 12:08:08.86	230.77	14.25	-29.7	-31.1	13.8	9.10e-06	0	43	0	202375168	19	4255
2026-01-28 12:08:09.87	230.94	14.31	-29.9	-31.6	13.4	6.80e-06	0	43	0	204472320	19	4412
2026-01-28 12:08:10.87	231.10	14.38	-29.8	-31.4	13.6	1.06e-05	0	43	0	206569472	19	4351
2026-01-28 12:08:11.87	231.26	14.44	-29.9	-31.7	13.4	1.83e-05	0	43	0	208666624	19	4422
2026-01-28 12:08:12.88	231.43	14.51	-29.9	-31.7	13.4	1.75e-05	0	43	0	209715200	19	4439
2026-01-28 12:08:13.88	231.59	14.58	-30.0	-31.6	13.1	1.60e-05	0	43	0	211812352	20	4314
2026-01-28 12:08:14.89	231.76	14.64	-29.9	-31.2	13.4	1.44e-05	0	43	0	213909504	20	4185
2026-01-28 12:08:15.90	231.92	14.71	-30.1	-31.7	13.0	1.75e-05	0	43	0	216006656	20	4362
2026-01-28 12:08:16.90	232.09	14.78	-29.9	-31.1	13.4	1.75e-05	0	43	0	218103808	20	4173
2026-01-28 12:08:17.90	232.26	14.84	-29.7	-30.6	13.8	6.10e-06	0	43	0	220200960	20	4005
2026-01-28 12:08:18.90	232.43	14.91	-29.6	-30.4	13.9	6.80e-06	0	43	0	221249536	20	3958
2026-01-28 12:08:19.90	232.59	14.97	-29.6	-30.5	13.9	1.50e-06	0	43	0	223346688	20	3974
2026-01-28 12:08:20.90	232.76	15.04	-29.6	-30.3	13.9	5.30e-06	0	43	0	225443840	20	3934
2026-01-28 12:08:21.91	232.93	15.10	-29.5	-30.1	14.1	1.50e-06	0	43	0	227540992	20	3878
2026-01-28 12:08:22.91	233.10	15.17	-29.6	-30.5	13.8	5.30e-06	0	43	0	228589568	20	3970
2026-01-28 12:08:23.91	233.28	15.23	-29.5	-30.3	14.1	4.50e-06	0	43	0	230686720	20	3909
2026-01-28 12:08:24.92	233.45	15.30	-29.6	-30.5	13.9	1.50e-06	0	43	0	232783872	20	3962
2026-01-28 12:08:25.91	233.62	15.36	-29.5	-30.1	14.2	6.80e-06	0	43	0	234881024	20	3851
2026-01-28 12:08:26.92	233.80	15.43	-29.5	-30.2	14.1	7.00e-07	0	43	0	236978176	20	3895
2026-01-28 12:08:27.93	233.97	15.50	-29.5	-30.1	14.1	5.30e-06	0	43	0	238026752	20	3870
2026-01-28 12:08:28.93	234.15	15.56	-29.6	-30.5	13.9	4.50e-06	0	43	0	240123904	20	3979
2026-01-28 12:08:29.94	234.32	15.63	-29.5	-30.0	14.2	1.50e-06	0	43	0	242221056	20	3839
2026-01-28 12:08:30.95	234.50	15.69	-29.4	-30.0	14.2	0.00e+00	0	43	0	244318208	20	3825
2026-01-28 12:08:31.96	234.68	15.76	-29.5	-30.0	14.2	1.50e-06	0	43	0	246415360	20	3848
2026-01-28 12:08:32.96	234.86	15.82	-29.4	-29.8	14.3	1.50e-06	0	43	0	247463936	20	3789
2026-01-28 12:08:33.96	235.04	15.89	-29.5	-30.0	14.2	1.50e-06	0	43	0	249561088	20	3843
2026-01-28 12:08:34.96	235.22	15.95	-29.6	-30.3	14.1	3.80e-06	0	43	0	251658240	20	3898
2026-01-28 12:08:35.97	235.40	16.01	-29.6	-30.3	14.1	3.00e-06	0	43	0	253755392	20	3913
2026-01-28 12:08:36.97	235.58	16.08	-29.8	-31.0	13.7	7.00e-07	0	43	0	255852544	20	4093
2026-01-28 12:08:37.97	235.76	16.14	-29.8	-30.7	13.9	2.20e-06	0	43	0	256901120	20	4025
2026-01-28 12:08:38.97	235.94	16.21	-30.0	-31.5	13.4	6.80e-06	0	43	0	258998272	20	4241
2026-01-28 12:08:39.98	236.13	16.27	-29.9	-31.2	13.6	6.80e-06	0	43	0	261095424	20	4172
2026-01-28 12:08:40.98	236.31	16.33	-29.9	-31.2	13.5	1.06e-05	0	43	0	263192576	20	4184
2026-01-28 12:08:41.98	236.50	16.40	-30.1	-31.7	13.2	1.14e-05	0	43	0	265289728	20	4326
2026-01-28 12:08:42.98	236.68	16.46	-30.1	-31.7	13.2	2.44e-05	0	43	0	266338304	20	4338
2026-01-28 12:08:43.98	236.87	16.53	-30.1	-31.6	13.2	1.83e-05	0	43	0	268435456	20	4292
2026-01-28 12:08:44.99	237.06	16.59	-29.9	-31.3	13.5	1.60e-05	0	43	0	270532608	20	4192
2026-01-28 12:08:45.99	237.24	16.65	-30.0	-31.4	13.5	5.30e-06	0	43	0	272629760	20	4228
2026-01-28 12:08:47.00	237.43	16.72	-29.9	-31.2	13.6	7.60e-06	0	43	0	274726912	20	4175
2026-01-28 12:08:48.01	237.62	16.78	-30.1	-31.8	13.1	1.83e-05	0	43	0	275775488	20	4366
2026-01-28 12:08:49.01	237.81	16.84	-30.0	-31.4	13.4	1.67e-05	0	43	0	277872640	20	4237
2026-01-28 12:08:50.02	238.01	16.91	-30.3	-32.1	12.9	3.89e-05	0	43	0	279969792	20	4458
2026-01-28 12:08:51.02	238.20	16.97	-30.3	-32.3	12.8	3.96e-05	0	43	0	282066944	20	4517
2026-01-28 12:08:52.02	238.39	17.03	-30.5	-32.2	12.5	8.62e-05	0	43	0	283115520	21	4407
2026-01-28 12:08:53.02	238.58	17.09	-30.3	-31.8	12.8	5.79e-05	0	43	0	285212672	21	4270
2026-01-28 12:08:54.02	238.78	17.15	-30.1	-31.2	13.2	3.28e-05	0	43	0	287309824	21	4082
2026-01-28 12:08:55.02	238.97	17.22	-30.0	-30.8	13.5	1.44e-05	0	43	0	289406976	21	3964
2026-01-28 12:08:56.03	239.17	17.28	-30.0	-31.0	13.3	9.10e-06	0	43	0	291504128	21	4036
2026-01-28 12:08:57.03	239.37	17.34	-30.2	-31.4	13.1	3.28e-05	0	43	0	292552704	21	4130
2026-01-28 12:08:58.04	239.57	17.40	-30.0	-31.0	13.3	1.90e-05	0	43	0	294649856	21	4018
2026-01-28 12:08:59.04	239.76	17.46	-29.8	-30.5	13.6	6.80e-06	0	43	0	296747008	21	3871
2026-01-28 12:09:00.04	239.96	17.52	-29.9	-30.7	13.5	8.30e-06	0	43	0	298844160	21	3936
2026-01-28 12:09:01.05	240.16	17.59	-29.9	-31.1	13.6	7.60e-06	0	43	0	300941312	20	4147
2026-01-28 12:09:02.05	240.36	17.65	-29.8	-31.0	13.7	4.50e-06	0	43	0	301989888	20	4098
2026-01-28 12:09:03.06	240.57	17.71	-29.9	-31.2	13.5	9.10e-06	0	43	0	304087040	20	4160
2026-01-28 12:09:04.07	240.77	17.77	-29.8	-30.8	13.7	7.60e-06	0	43	0	306184192	20	4056
2026-01-28 12:09:05.07	240.97	17.83	-29.8	-30.8	13.8	8.30e-06	0	43	0	308281344	20	4044
2026-01-28 12:09:06.08	241.18	17.89	-29.6	-30.3	14.1	7.00e-07	0	43	0	310378496	20	3905
2026-01-28 12:09:07.07	241.38	17.95	-29.9	-31.1	13.6	1.14e-05	0	43	0	311427072	20	4147
2026-01-28 12:09:08.07	241.58	18.01	-29.6	-30.5	14.0	4.50e-06	0	43	0	313524224	20	3956
2026-01-28 12:09:09.07	241.79	18.07	-29.8	-30.9	13.7	1.50e-06	0	43	0	315621376	20	4079
2026-01-28 12:09:10.08	242.00	18.13	-29.9	-31.1	13.5	4.50e-06	0	43	0	317718528	20	4155
2026-01-28 12:09:11.08	242.21	18.19	-30.0	-31.4	13.4	1.29e-05	0	43	0	319815680	20	4224
2026-01-28 12:09:12.08	242.41	18.24	-30.2	-31.9	13.1	1.83e-05	0	43	0	320864256	20	4382
2026-01-28 12:09:13.09	242.62	18.30	-29.7	-30.7	13.8	6.10e-06	0	43	0	322961408	20	4019
2026-01-28 12:09:14.09	242.83	18.36	-29.6	-30.2	14.1	3.00e-06	0	43	0	325058560	20	3893
2026-01-28 12:09:15.10	243.05	18.42	-29.5	-30.2	14.2	2.20e-06	0	43	0	327155712	20	3880
2026-01-28 12:09:16.10	243.26	18.48	-29.7	-30.6	13.9	1.50e-06	0	43	0	329252864	20	3988
2026-01-28 12:09:17.10	243.47	18.53	-29.6	-30.3	14.1	2.20e-06	0	43	0	330301440	20	3912
2026-01-28 12:09:18.10	243.68	18.59	-29.9	-31.1	13.6	7.60e-06	0	43	0	332398592	20	4127
2026-01-28 12:09:19.11	243.90	18.65	-30.1	-31.7	13.2	1.67e-05	0	43	0	334495744	20	4327
2026-01-28 12:09:20.11	244.11	18.71	-30.2	-31.9	13.1	3.12e-05	0	43	0	336592896	20	4374
2026-01-28 12:09:21.11	244.33	18.76	-30.0	-31.4	13.4	1.75e-05	0	43	0	338690048	20	4222
2026-01-28 12:09:22.11	244.54	18.82	-29.9	-31.1	13.6	7.60e-06	0	43	0	339738624	20	4148
2026-01-28 12:09:23.12	244.76	18.87	-29.8	-30.9	13.7	5.30e-06	0	43	0	341835776	20	4077
2026-01-28 12:09:24.12	244.98	18.93	-29.9	-31.1	13.6	9.10e-06	0	43	0	343932928	20	4149
2026-01-28 12:09:25.12	245.20	18.99	-29.8	-30.7	13.9	6.10e-06	0	43	0	346030080	20	4023
2026-01-28 12:09:26.12	245.41	19.04	-30.0	-31.4	13.5	9.10e-06	0	43	0	347078656	20	4217
2026-01-28 12:09:27.13	245.64	19.10	-30.3	-32.3	12.9	2.13e-05	0	43	0	349175808	20	4515
2026-01-28 12:09:28.13	245.86	19.15	-30.4	-32.5	12.7	5.18e-05	0	43	0	351272960	20	4580
2026-01-28 12:09:29.13	246.08	19.20	-30.5	-32.7	12.6	7.47e-05	0	43	0	353370112	20	4647
2026-01-28 12:09:30.13	246.30	19.26	-30.4	-32.1	12.7	5.41e-05	0	43	0	355467264	21	4349
2026-01-28 12:09:31.14	246.52	19.31	-30.3	-31.6	13.1	2.13e-05	0	43	0	356515840	21	4189
2026-01-28 12:09:32.14	246.75	19.37	-30.3	-31.7	13.0	4.19e-05	0	43	0	358612992	21	4222
2026-01-28 12:09:33.14	246.97	19.42	-30.4	-32.0	12.7	3.73e-05	0	43	0	360710144	21	4328
2026-01-28 12:09:34.15	247.20	19.47	-30.5	-32.1	12.7	7.17e-05	0	43	0	362807296	21	4368
2026-01-28 12:09:35.16	247.43	19.52	-30.8	-33.0	12.0	1.98e-04	0	43	0	364904448	21	4670
2026-01-28 12:09:36.16	247.65	19.58	-30.7	-32.9	12.1	1.94e-04	0	43	0	365953024	21	4642
2026-01-28 12:09:37.16	247.88	19.63	-30.7	-32.9	12.2	3.17e-04	0	43	0	368050176	21	4638
2026-01-28 12:09:38.16	248.11	19.68	-30.9	-33.3	12.0	3.87e-04	0	43	0	370147328	21	4762
2026-01-28 12:09:39.17	248.34	19.73	-31.2	-33.7	11.3	1.19e-03	0	43	0	372244480	22	4833
2026-01-28 12:09:40.17	248.57	19.78	-30.9	-32.8	11.9	6.21e-04	0	43	0	374341632	22	4488
2026-01-28 12:09:41.18	248.80	19.83	-31.1	-33.5	11.5	6.24e-04	0	43	0	375390208	22	4729
2026-01-28 12:09:42.18	249.03	19.88	-31.0	-33.3	11.5	7.79e-04	0	43	0	377487360	22	4672
2026-01-28 12:09:43.19	249.27	19.93	-31.1	-33.5	11.4	8.84e-04	0	43	0	379584512	22	4762
2026-01-28 12:09:44.20	249.50	19.98	-31.2	-33.7	11.3	1.05e-03	0	43	0	381681664	22	4819
2026-01-28 12:09:45.20	249.73	20.03	-31.1	-33.5	11.5	1.21e-03	0	43	0	383778816	22	4732
2026-01-28 12:09:46.19	249.96	20.08	-30.8	-32.7	11.9	6.37e-04	0	43	0	384827392	22	4459
2026-01-28 12:09:47.19	250.20	20.13	-30.7	-32.3	12.2	3.92e-04	0	43	0	386924544	22	4344
2026-01-28 12:09:48.20	250.44	20.17	-30.5	-31.8	12.6	9.91e-05	0	43	0	389021696	22	4156
2026-01-28 12:09:49.20	250.67	20.22	-30.5	-31.6	12.8	6.79e-05	0	43	0	391118848	22	4112
2026-01-28 12:09:50.21	250.91	20.27	-30.5	-31.7	12.8	6.10e-05	0	43	0	393216000	22	4123
2026-01-28 12:09:51.21	251.15	20.31	-30.3	-31.5	13.1	3.05e-05	0	43	0	394264576	21	4168
2026-01-28 12:09:52.21	251.39	20.36	-30.3	-31.7	13.0	4.04e-05	0	43	0	396361728	21	4231
2026-01-28 12:09:53.22	251.63	20.41	-30.2	-31.3	13.2	3.28e-05	0	43	0	398458880	21	4109
2026-01-28 12:09:54.22	251.87	20.45	-30.4	-31.8	12.9	2.67e-05	0	43	0	400556032	21	4268
2026-01-28 12:09:55.23	252.11	20.50	-30.5	-32.3	12.6	7.85e-05	0	43	0	402653184	21	4427
2026-01-28 12:09:56.23	252.35	20.54	-30.5	-32.3	12.6	6.10e-05	0	43	0	403701760	21	4417
2026-01-28 12:09:57.23	252.59	20.59	-30.8	-33.2	12.0	1.36e-04	0	43	0	405798912	21	4731
2026-01-28 12:09:58.23	252.83	20.63	-30.7	-32.9	12.3	2.14e-04	0	43	0	407896064	21	4616
2026-01-28 12:09:59.23	253.08	20.67	-30.8	-33.1	12.1	3.30e-04	0	43	0	409993216	21	4687
2026-01-28 12:10:00.23	253.32	20.71	-30.8	-33.0	12.1	3.17e-04	0	43	0	411041792	21	4644
2026-01-28 12:10:01.23	253.56	20.76	-30.5	-32.3	12.6	1.31e-04	0	43	0	413138944	21	4398
2026-01-28 12:10:02.23	253.81	20.80	-30.5	-32.2	12.8	9.00e-05	0	43	0	415236096	21	4379
2026-01-28 12:10:03.23	254.05	20.84	-30.5	-32.1	12.7	6.86e-05	0	43	0	417333248	21	4361
2026-01-28 12:10:04.24	254.30	20.88	-30.3	-31.5	13.2	4.19e-05	0	43	0	419430400	21	4168
2026-01-28 12:10:05.24	254.55	20.92	-30.3	-31.7	13.0	2.28e-05	0	43	0	420478976	21	4223
2026-01-28 12:10:06.25	254.80	20.96	-30.5	-32.2	12.7	7.09e-05	0	43	0	422576128	21	4388
2026-01-28 12:10:07.24	255.04	21.00	-30.4	-31.9	13.0	4.88e-05	0	43	0	424673280	21	4271
2026-01-28 12:10:08.24	255.29	21.04	-30.3	-31.5	13.2	1.98e-05	0	43	0	426770432	21	4158
2026-01-28 12:10:09.24	255.54	21.08	-30.1	-31.0	13.5	1.22e-05	0	43	0	428867584	21	4012
2026-01-28 12:10:10.25	255.79	21.12	-30.1	-31.0	13.5	9.10e-06	0	43	0	429916160	21	4016
2026-01-28 12:10:11.25	256.04	21.15	-30.1	-31.1	13.4	1.60e-05	0	43	0	432013312	21	4045
2026-01-28 12:10:12.25	256.29	21.19	-30.4	-31.9	12.9	6.10e-05	0	43	0	434110464	21	4275
2026-01-28 12:10:13.25	256.55	21.23	-30.6	-32.4	12.6	4.88e-05	0	43	0	436207616	21	4434
2026-01-28 12:10:14.25	256.80	21.26	-30.5	-32.2	12.6	7.40e-05	0	43	0	437256192	21	4386
2026-01-28 12:10:15.25	257.05	21.30	-30.3	-31.7	13.0	4.11e-05	0	43	0	439353344	21	4228
2026-01-28 12:10:16.25	257.30	21.33	-30.1	-31.0	13.5	1.83e-05	0	43	0	441450496	21	4012
2026-01-28 12:10:17.26	257.56	21.37	-30.0	-30.8	13.7	6.10e-06	0	43	0	443547648	21	3942
2026-01-28 12:10:18.25	257.81	21.40	-29.9	-30.6	13.8	5.30e-06	0	43	0	445644800	21	3881
2026-01-28 12:10:19.26	258.07	21.44	-29.8	-30.9	13.9	1.50e-06	0	43	0	447741952	20	4057
2026-01-28 12:10:20.26	258.32	21.47	-29.9	-31.2	13.8	3.00e-06	0	43	0	448790528	20	4148
2026-01-28 12:10:21.27	258.58	21.50	-30.0	-31.3	13.6	3.80e-06	0	43	0	450887680	20	4195
2026-01-28 12:10:22.28	258.84	21.53	-30.1	-31.5	13.5	5.30e-06	0	43	0	452984832	20	4234
2026-01-28 12:10:23.28	259.10	21.56	-30.1	-31.4	13.6	8.30e-06	0	43	0	455081984	20	4225
2026-01-28 12:10:24.28	259.35	21.60	-30.0	-31.2	13.8	3.80e-06	0	43	0	456130560	20	4144
2026-01-28 12:10:25.29	259.62	21.63	-30.1	-31.5	13.5	8.30e-06	0	43	0	458227712	20	4248
2026-01-28 12:10:26.29	259.87	21.66	-29.9	-31.1	13.8	4.50e-06	0	43	0	460324864	20	4122
2026-01-28 12:10:27.29	260.13	21.68	-29.9	-31.0	13.8	3.80e-06	0	43	0	462422016	20	4103
2026-01-28 12:10:28.29	260.39	21.71	-29.9	-31.0	13.9	6.10e-06	0	43	0	464519168	20	4085
2026-01-28 12:10:29.30	260.65	21.74	-29.5	-30.1	14.4	2.20e-06	0	43	0	465567744	20	3842
2026-01-28 12:10:30.31	260.92	21.77	-29.6	-30.3	14.3	7.00e-07	0	43	0	467664896	20	3909
2026-01-28 12:10:31.31	261.18	21.80	-29.6	-30.3	14.3	2.20e-06	0	43	0	469762048	20	3884
2026-01-28 12:10:32.32	261.44	21.82	-29.7	-30.4	14.3	7.00e-07	0	43	0	471859200	20	3907
2026-01-28 12:10:33.32	261.70	21.85	-29.8	-30.7	14.0	2.20e-06	0	43	0	473956352	20	4012
2026-01-28 12:10:34.32	261.96	21.87	-29.7	-30.6	14.1	3.00e-06	0	43	0	475004928	20	3987
2026-01-28 12:10:35.32	262.23	21.90	-29.5	-29.9	14.5	0.00e+00	0	43	0	477102080	20	3782
2026-01-28 12:10:36.32	262.49	21.92	-29.5	-30.0	14.5	7.00e-07	0	43	0	479199232	20	3801
2026-01-28 12:10:37.32	262.75	21.95	-29.6	-30.2	14.4	0.00e+00	0	43	0	481296384	20	3869
2026-01-28 12:10:38.33	263.02	21.97	-29.8	-30.8	14.0	0.00e+00	0	43	0	483393536	20	4022
2026-01-28 12:10:39.32	263.28	21.99	-30.0	-31.1	13.8	1.50e-06	0	43	0	484442112	20	4132
2026-01-28 12:10:40.32	263.54	22.01	-30.2	-31.8	13.4	9.10e-06	0	43	0	486539264	20	4331
2026-01-28 12:10:41.32	263.81	22.03	-30.1	-31.6	13.5	1.14e-05	0	43	0	488636416	20	4281
2026-01-28 12:10:42.32	264.07	22.05	-30.1	-31.6	13.5	1.44e-05	0	43	0	490733568	20	4266
2026-01-28 12:10:43.33	264.34	22.07	-30.0	-31.4	13.6	9.90e-06	0	43	0	492830720	20	4200
2026-01-28 12:10:44.33	264.61	22.09	-29.7	-30.6	14.2	3.80e-06	0	43	0	493879296	20	3965
2026-01-28 12:10:45.33	264.87	22.11	-29.8	-30.9	14.0	3.00e-06	0	43	0	495976448	20	4044
2026-01-28 12:10:46.33	265.14	22.13	-30.1	-31.5	13.6	2.20e-06	0	43	0	498073600	20	4226
2026-01-28 12:10:47.34	265.41	22.15	-30.3	-32.2	13.1	1.29e-05	0	43	0	500170752	20	4456
2026-01-28 12:10:48.34	265.67	22.16	-30.3	-32.2	13.1	3.35e-05	0	43	0	501219328	20	4454
2026-01-28 12:10:49.34	265.94	22.18	-30.2	-31.7	13.5	9.90e-06	0	43	0	503316480	20	4291
2026-01-28 12:10:50.34	266.21	22.19	-29.8	-30.9	14.0	5.30e-06	0	43	0	505413632	20	4049
2026-01-28 12:10:51.33	266.47	22.21	-29.7	-30.4	14.3	2.20e-06	0	43	0	507510784	20	3922
2026-01-28 12:10:52.33	266.74	22.22	-29.9	-30.9	14.0	7.00e-07	0	43	0	509607936	20	4049
2026-01-28 12:10:53.34	267.01	22.24	-30.0	-31.3	13.8	6.10e-06	0	43	0	510656512	20	4169
2026-01-28 12:10:54.34	267.28	22.25	-30.1	-31.6	13.5	5.30e-06	0	43	0	512753664	20	4278
2026-01-28 12:10:55.34	267.55	22.26	-30.3	-32.0	13.2	1.44e-05	0	43	0	514850816	20	4401
2026-01-28 12:10:56.34	267.82	22.27	-30.3	-32.0	13.3	2.67e-05	0	43	0	516947968	20	4374
2026-01-28 12:10:57.34	268.08	22.29	-30.0	-31.3	13.7	1.67e-05	0	43	0	519045120	20	4187
2026-01-28 12:10:58.34	268.35	22.30	-30.0	-31.2	13.8	6.10e-06	0	43	0	520093696	20	4146
2026-01-28 12:10:59.35	268.62	22.31	-30.2	-31.7	13.5	3.00e-06	0	43	0	522190848	20	4283
2026-01-28 12:11:00.35	268.89	22.32	-30.3	-32.1	13.2	2.13e-05	0	43	0	524288000	20	4418
2026-01-28 12:11:01.36	269.17	22.32	-30.3	-32.1	13.3	1.60e-05	0	43	0	526385152	20	4414
2026-01-28 12:11:02.36	269.44	22.33	-30.4	-32.4	13.0	2.36e-05	0	43	0	528482304	20	4509
2026-01-28 12:11:03.36	269.71	22.34	-30.4	-32.2	13.1	3.43e-05	0	43	0	529530880	20	4455
2026-01-28 12:11:04.37	269.98	22.35	-30.1	-31.5	13.6	2.13e-05	0	43	0	531628032	20	4223
2026-01-28 12:11:05.37	270.25	22.35	-29.9	-31.0	13.9	7.60e-06	0	43	0	533725184	20	4095
2026-01-28 12:11:06.38	270.52	22.36	-30.0	-31.2	13.8	4.50e-06	0	43	0	535822336	20	4135
2026-01-28 12:11:07.38	270.79	22.36	-30.1	-31.5	13.6	8.30e-06	0	43	0	537919488	20	4222
2026-01-28 12:11:08.38	271.06	22.37	-30.1	-31.5	13.6	4.50e-06	0	43	0	538968064	20	4221
2026-01-28 12:11:09.39	271.33	22.37	-30.1	-31.5	13.6	7.60e-06	0	43	0	541065216	20	4234
2026-01-28 12:11:10.39	271.60	22.37	-30.1	-31.4	13.6	9.10e-06	0	43	0	543162368	20	4206
2026-01-28 12:11:11.38	271.87	22.37	-29.8	-30.8	14.0	3.00e-06	0	43	0	545259520	20	4030
2026-01-28 12:11:12.39	272.14	22.38	-29.7	-30.4	14.3	0.00e+00	0	43	0	546308096	20	3912
2026-01-28 12:11:13.38	272.41	22.38	-29.8	-30.8	14.0	1.50e-06	0	43	0	548405248	20	4027
2026-01-28 12:11:14.39	272.68	22.38	-30.3	-31.9	13.4	6.10e-06	0	43	0	550502400	20	4376
2026-01-28 12:11:15.39	272.95	22.38	-30.5	-32.2	12.8	3.96e-05	0	43	0	552599552	21	4367
2026-01-28 12:11:16.39	273.22	22.38	-30.7	-32.5	12.6	6.25e-05	0	43	0	554696704	21	4467
2026-01-28 12:11:17.40	273.50	22.37	-30.7	-32.6	12.5	1.39e-04	0	43	0	555745280	21	4499
2026-01-28 12:11:18.40	273.77	22.37	-30.6	-32.3	12.8	8.62e-05	0	43	0	557842432	21	4386
2026-01-28 12:11:19.40	274.04	22.37	-30.4	-31.9	13.0	5.56e-05	0	43	0	559939584	21	4262
2026-01-28 12:11:20.41	274.31	22.36	-30.3	-31.5	13.3	2.51e-05	0	43	0	562036736	21	4150
2026-01-28 12:11:21.41	274.58	22.36	-30.2	-31.3	13.4	1.37e-05	0	43	0	564133888	21	4089
2026-01-28 12:11:22.41	274.85	22.36	-30.2	-31.2	13.4	1.67e-05	0	43	0	565182464	21	4069
2026-01-28 12:11:23.41	275.12	22.35	-30.1	-31.1	13.6	9.10e-06	0	43	0	567279616	21	4023
2026-01-28 12:11:24.41	275.39	22.34	-30.0	-30.7	13.8	3.00e-06	0	43	0	569376768	21	3897
2026-01-28 12:11:25.42	275.66	22.34	-29.9	-30.4	14.0	1.50e-06	0	43	0	571473920	21	3822
2026-01-28 12:11:26.42	275.93	22.33	-29.9	-30.5	13.9	2.20e-06	0	43	0	573571072	21	3854
2026-01-28 12:11:27.41	276.20	22.32	-30.0	-30.9	13.7	4.50e-06	0	43	0	574619648	21	3957
2026-01-28 12:11:28.41	276.47	22.31	-30.1	-31.1	13.6	1.60e-05	0	43	0	576716800	21	4024
2026-01-28 12:11:29.42	276.74	22.30	-30.0	-30.9	13.7	4.50e-06	0	43	0	578813952	21	3967
2026-01-28 12:11:30.42	277.01	22.29	-30.2	-31.2	13.5	1.06e-05	0	43	0	580911104	21	4048
2026-01-28 12:11:31.42	277.28	22.28	-30.1	-31.0	13.6	9.90e-06	0	43	0	583008256	21	3985
2026-01-28 12:11:32.43	277.55	22.27	-29.9	-30.5	13.9	4.50e-06	0	43	0	584056832	21	3867
2026-01-28 12:11:33.44	277.82	22.26	-29.8	-30.8	14.0	1.50e-06	0	43	0	586153984	20	4020
2026-01-28 12:11:34.44	278.09	22.25	-29.8	-30.7	14.1	2.20e-06	0	43	0	588251136	20	3992
2026-01-28 12:11:35.45	278.36	22.23	-29.7	-30.5	14.3	7.00e-07	0	43	0	590348288	20	3936
2026-01-28 12:11:36.45	278.62	22.22	-29.6	-30.2	14.4	1.50e-06	0	43	0	592445440	20	3861
2026-01-28 12:11:37.45	278.89	22.20	-29.6	-30.1	14.5	0.00e+00	0	43	0	593494016	20	3827
2026-01-28 12:11:38.45	279.16	22.19	-29.6	-30.3	14.4	0.00e+00	0	43	0	595591168	20	3889
2026-01-28 12:11:39.45	279.42	22.17	-29.6	-30.1	14.5	2.20e-06	0	43	0	597688320	20	3828
2026-01-28 12:11:40.46	279.69	22.16	-29.5	-30.0	14.5	7.00e-07	0	43	0	599785472	20	3808
2026-01-28 12:11:41.46	279.96	22.14	-29.6	-30.2	14.4	7.00e-07	0	43	0	600834048	20	3858
2026-01-28 12:11:42.46	280.23	22.12	-29.7	-30.4	14.3	2.20e-06	0	43	0	602931200	20	3916
2026-01-28 12:11:43.47	280.49	22.10	-29.7	-30.5	14.1	6.10e-06	0	43	0	605028352	20	3950
2026-01-28 12:11:44.47	280.76	22.09	-29.9	-31.1	13.9	2.20e-06	0	43	0	607125504	20	4100
2026-01-28 12:11:45.47	281.02	22.07	-30.0	-31.2	13.8	2.20e-06	0	43	0	609222656	20	4133
2026-01-28 12:11:46.47	281.29	22.05	-29.8	-30.6	14.2	3.00e-06	0	43	0	610271232	20	3967
2026-01-28 12:11:47.47	281.55	22.03	-29.7	-30.4	14.3	0.00e+00	0	43	0	612368384	20	3906
2026-01-28 12:11:48.48	281.82	22.00	-29.6	-30.2	14.3	7.00e-07	0	43	0	614465536	20	3871
2026-01-28 12:11:49.48	282.08	21.98	-29.8	-30.6	14.2	7.00e-07	0	43	0	616562688	20	3982
2026-01-28 12:11:50.48	282.35	21.96	-29.8	-30.8	14.0	2.20e-06	0	43	0	618659840	20	4032
2026-01-28 12:11:51.48	282.61	21.94	-30.0	-31.2	13.8	3.80e-06	0	43	0	619708416	20	4130
2026-01-28 12:11:52.49	282.87	21.91	-30.0	-31.2	13.8	5.30e-06	0	43	0	621805568	20	4150
2026-01-28 12:11:53.49	283.14	21.89	-30.0	-31.4	13.7	7.60e-06	0	43	0	623902720	20	4195
2026-01-28 12:11:54.49	283.40	21.86	-29.8	-30.6	14.2	7.00e-07	0	43	0	625999872	20	3983
2026-01-28 12:11:55.50	283.66	21.84	-29.8	-30.8	14.1	7.00e-07	0	43	0	628097024	20	4020
2026-01-28 12:11:56.50	283.92	21.81	-29.9	-30.9	14.0	0.00e+00	0	43	0	629145600	20	4060
2026-01-28 12:11:57.50	284.18	21.79	-30.0	-31.3	13.7	7.60e-06	0	43	0	631242752	20	4177
2026-01-28 12:11:58.50	284.44	21.76	-30.0	-31.3	13.7	7.60e-06	0	43	0	633339904	20	4178
2026-01-28 12:11:59.50	284.70	21.73	-30.3	-32.0	13.3	1.22e-05	0	43	0	635437056	20	4381
2026-01-28 12:12:00.50	284.96	21.70	-30.2	-31.9	13.4	1.37e-05	0	43	0	636485632	20	4346
2026-01-28 12:12:01.50	285.22	21.68	-30.2	-31.9	13.4	1.83e-05	0	43	0	638582784	20	4371
2026-01-28 12:12:02.50	285.48	21.65	-30.1	-31.6	13.6	6.10e-06	0	43	0	640679936	20	4264
2026-01-28 12:12:03.50	285.73	21.62	-30.1	-31.6	13.5	1.44e-05	0	43	0	642777088	20	4274
2026-01-28 12:12:04.50	285.99	21.59	-30.1	-31.5	13.6	1.22e-05	0	43	0	644874240	20	4226
2026-01-28 12:12:05.51	286.25	21.55	-29.9	-30.9	14.0	3.80e-06	0	43	0	645922816	20	4059
2026-01-28 12:12:06.51	286.51	21.52	-29.9	-31.1	13.9	2.20e-06	0	43	0	648019968	20	4114
2026-01-28 12:12:07.52	286.76	21.49	-30.0	-31.2	13.7	6.10e-06	0	43	0	650117120	20	4138
2026-01-28 12:12:08.53	287.02	21.46	-30.1	-31.5	13.6	3.00e-06	0	43	0	652214272	20	4235
2026-01-28 12:12:09.53	287.28	21.43	-30.0	-31.3	13.6	9.90e-06	0	43	0	654311424	20	4181
2026-01-28 12:12:10.53	287.53	21.39	-29.9	-31.1	13.8	5.30e-06	0	43	0	655360000	20	4123
2026-01-28 12:12:11.54	287.79	21.36	-29.9	-31.0	13.9	1.50e-06	0	43	0	657457152	20	4084
2026-01-28 12:12:12.54	288.04	21.32	-29.9	-31.1	13.8	1.50e-06	0	43	0	659554304	20	4120
2026-01-28 12:12:13.55	288.29	21.29	-29.9	-31.0	13.9	4.50e-06	0	43	0	661651456	20	4093
2026-01-28 12:12:14.55	288.54	21.25	-29.7	-30.4	14.3	7.00e-07	0	43	0	663748608	20	3917
2026-01-28 12:12:15.55	288.80	21.22	-29.6	-30.2	14.4	0.00e+00	0	43	0	664797184	20	3867
2026-01-28 12:12:16.55	289.05	21.18	-29.6	-30.2	14.4	1.50e-06	0	43	0	666894336	20	3863
2026-01-28 12:12:17.55	289.30	21.14	-29.6	-30.2	14.3	0.00e+00	0	43	0	668991488	20	3875
2026-01-28 12:12:18.55	289.55	21.11	-29.6	-30.3	14.3	1.50e-06	0	43	0	671088640	20	3894
2026-01-28 12:12:19.56	289.80	21.07	-29.5	-30.0	14.5	0.00e+00	0	43	0	673185792	20	3808
2026-01-28 12:12:20.56	290.04	21.03	-29.5	-29.9	14.6	7.00e-07	0	43	0	674234368	20	3790
2026-01-28 12:12:21.57	290.29	20.99	-29.5	-30.0	14.5	0.00e+00	0	43	0	676331520	20	3802
2026-01-28 12:12:22.57	290.54	20.95	-29.4	-29.8	14.6	7.00e-07	0	43	0	678428672	20	3744
2026-01-28 12:12:23.57	290.79	20.91	-29.5	-29.9	14.5	0.00e+00	0	43	0	680525824	20	3784
2026-01-28 12:12:24.58	291.04	20.87	-29.6	-30.3	14.4	7.00e-07	0	43	0	682622976	20	3880
2026-01-28 12:12:25.58	291.28	20.83	-29.8	-30.8	14.0	0.00e+00	0	43	0	683671552	20	4033
2026-01-28 12:12:26.58	291.52	20.79	-29.9	-30.9	13.9	3.00e-06	0	43	0	685768704	20	4067
2026-01-28 12:12:27.58	291.77	20.75	-29.9	-30.9	14.0	7.00e-07	0	43	0	687865856	20	4057
2026-01-28 12:12:28.58	292.01	20.70	-29.9	-31.1	13.9	3.80e-06	0	44	0	689963008	20	4105
2026-01-28 12:12:29.59	292.26	20.66	-29.7	-30.5	14.2	6.10e-06	0	43	0	692060160	20	3944
2026-01-28 12:12:30.59	292.50	20.62	-29.7	-30.5	14.2	1.50e-06	0	43	0	693108736	20	3953
2026-01-28 12:12:31.59	292.74	20.57	-29.7	-30.4	14.3	2.20e-06	0	43	0	695205888	20	3919
2026-01-28 12:12:32.60	292.98	20.53	-29.8	-30.7	14.1	0.00e+00	0	43	0	697303040	20	4018
2026-01-28 12:12:33.60	293.22	20.49	-29.8	-30.8	14.0	7.00e-07	0	43	0	699400192	20	4034
2026-01-28 12:12:34.60	293.46	20.44	-29.7	-30.6	14.2	3.80e-06	0	43	0	701497344	20	3959
2026-01-28 12:12:35.60	293.70	20.40	-29.6	-30.2	14.4	7.00e-07	0	43	0	702545920	20	3857
2026-01-28 12:12:36.59	293.93	20.35	-29.5	-30.0	14.5	1.50e-06	0	43	0	704643072	20	3807
2026-01-28 12:12:37.60	294.17	20.30	-29.6	-30.1	14.4	0.00e+00	0	43	0	706740224	20	3840
2026-01-28 12:12:38.60	294.41	20.26	-29.7	-30.4	14.2	2.20e-06	0	43	0	708837376	20	3929
2026-01-28 12:12:39.61	294.65	20.21	-29.8	-30.8	14.0	7.00e-07	0	43	0	709885952	20	4024
2026-01-28 12:12:40.62	294.88	20.16	-29.7	-30.5	14.2	7.00e-07	0	43	0	711983104	20	3955
2026-01-28 12:12:41.62	295.12	20.12	-30.0	-31.2	13.7	6.80e-06	0	43	0	714080256	20	4150
2026-01-28 12:12:42.62	295.35	20.07	-29.9	-31.0	13.9	6.80e-06	0	43	0	716177408	20	4076
2026-01-28 12:12:43.63	295.58	20.02	-29.7	-30.6	14.1	4.50e-06	0	43	0	718274560	20	3971
2026-01-28 12:12:44.64	295.82	19.97	-29.7	-30.4	14.2	3.00e-06	0	43	0	719323136	20	3930
2026-01-28 12:12:45.64	296.05	19.92	-29.7	-30.4	14.2	1.50e-06	0	43	0	721420288	20	3923
2026-01-28 12:12:46.64	296.28	19.87	-29.7	-30.5	14.2	1.50e-06	0	43	0	723517440	20	3944
2026-01-28 12:12:47.65	296.51	19.82	-29.8	-30.6	14.1	3.00e-06	0	43	0	725614592	20	3988
2026-01-28 12:12:48.65	296.74	19.77	-30.0	-31.4	13.6	4.50e-06	0	43	0	727711744	20	4217
2026-01-28 12:12:49.64	296.97	19.72	-30.1	-31.5	13.6	1.44e-05	0	43	0	728760320	20	4238
2026-01-28 12:12:50.63	297.19	19.67	-30.1	-31.6	13.5	1.22e-05	0	43	0	730857472	20	4255
2026-01-28 12:12:51.63	297.42	19.62	-30.1	-31.5	13.6	1.22e-05	0	43	0	732954624	20	4233
2026-01-28 12:12:52.63	297.64	19.57	-29.8	-30.8	14.0	2.20e-06	0	43	0	735051776	20	4021
2026-01-28 12:12:53.64	297.87	19.52	-29.8	-30.7	14.1	7.00e-07	0	43	0	737148928	20	3992
2026-01-28 12:12:54.64	298.10	19.47	-29.6	-30.2	14.4	0.00e+00	0	43	0	738197504	20	3854
2026-01-28 12:12:55.65	298.32	19.41	-29.5	-29.9	14.5	7.00e-07	0	43	0	740294656	20	3794
2026-01-28 12:12:56.66	298.55	19.36	-29.5	-30.1	14.5	0.00e+00	0	43	0	742391808	20	3829
2026-01-28 12:12:57.66	298.77	19.31	-29.6	-30.3	14.3	7.00e-07	0	43	0	744488960	20	3886
2026-01-28 12:12:58.66	298.99	19.25	-29.6	-30.2	14.4	7.00e-07	0	43	0	746586112	20	3864
2026-01-28 12:12:59.66	299.21	19.20	-29.6	-30.2	14.3	7.00e-07	0	43	0	747634688	20	3872
2026-01-28 12:13:00.66	299.43	19.15	-29.6	-30.4	14.3	7.00e-07	0	43	0	749731840	20	3909
2026-01-28 12:13:01.67	299.65	19.09	-29.8	-30.8	14.0	6.10e-06	0	43	0	751828992	20	4044
2026-01-28 12:13:02.67	299.87	19.04	-30.1	-31.5	13.6	9.90e-06	0	43	0	753926144	20	4234
2026-01-28 12:13:03.68	300.09	18.98	-30.5	-32.5	12.9	2.21e-05	0	43	0	754974720	20	4575
2026-01-28 12:13:04.68	300.31	18.93	-30.7	-32.6	12.5	9.46e-05	0	43	0	757071872	21	4499
2026-01-28 12:13:05.68	300.52	18.87	-30.9	-33.3	12.0	2.32e-04	0	43	0	759169024	21	4765
2026-01-28 12:13:06.67	300.74	18.82	-30.8	-33.1	12.2	2.78e-04	0	43	0	761266176	21	4669
2026-01-28 12:13:07.67	300.95	18.76	-30.6	-32.6	12.5	1.71e-04	0	43	0	763363328	21	4489
2026-01-28 12:13:08.68	301.17	18.70	-30.6	-32.6	12.5	1.67e-04	0	43	0	765460480	21	4493
2026-01-28 12:13:09.69	301.38	18.65	-30.5	-32.3	12.7	1.28e-04	0	43	0	766509056	21	4389
2026-01-28 12:13:10.70	301.60	18.59	-30.4	-31.9	13.0	3.73e-05	0	43	0	768606208	21	4258
2026-01-28 12:13:11.70	301.81	18.53	-30.3	-31.7	13.1	5.26e-05	0	43	0	770703360	21	4206
2026-01-28 12:13:12.71	302.02	18.48	-30.5	-32.2	12.8	6.48e-05	0	43	0	772800512	21	4356
2026-01-28 12:13:13.71	302.23	18.42	-30.7	-32.7	12.5	1.14e-04	0	43	0	773849088	21	4522
2026-01-28 12:13:14.72	302.44	18.36	-30.6	-32.4	12.6	1.39e-04	0	43	0	775946240	21	4447
2026-01-28 12:13:15.73	302.65	18.30	-30.7	-32.8	12.4	8.69e-05	0	43	0	778043392	21	4560
2026-01-28 12:13:16.73	302.86	18.24	-30.5	-32.1	12.9	8.01e-05	0	43	0	780140544	21	4322
2026-01-28 12:13:17.73	303.07	18.19	-30.4	-31.9	13.0	4.88e-05	0	43	0	782237696	21	4264
2026-01-28 12:13:18.73	303.27	18.13	-30.3	-31.7	13.1	4.95e-05	0	43	0	783286272	21	4198
2026-01-28 12:13:19.74	303.48	18.07	-30.5	-32.3	12.7	7.01e-05	0	43	0	785383424	21	4396
2026-01-28 12:13:20.74	303.68	18.01	-30.4	-32.0	12.9	7.09e-05	0	43	0	787480576	21	4307
2026-01-28 12:13:21.74	303.89	17.95	-30.4	-32.0	12.8	3.96e-05	0	43	0	789577728	21	4318
2026-01-28 12:13:22.75	304.09	17.89	-30.6	-32.6	12.5	6.17e-05	0	43	0	791674880	21	4513
2026-01-28 12:13:23.75	304.29	17.83	-30.6	-32.4	12.6	1.01e-04	0	44	0	792723456	21	4441
2026-01-28 12:13:24.75	304.50	17.77	-30.6	-32.6	12.4	1.01e-04	0	43	0	794820608	21	4499
2026-01-28 12:13:25.76	304.70	17.71	-30.7	-32.9	12.3	1.91e-04	0	43	0	796917760	21	4602
2026-01-28 12:13:26.77	304.90	17.65	-30.9	-33.2	12.0	2.56e-04	0	43	0	799014912	21	4737
2026-01-28 12:13:27.77	305.10	17.59	-31.1	-33.4	11.6	5.10e-04	0	44	0	801112064	22	4690
2026-01-28 12:13:28.77	305.30	17.53	-31.2	-33.6	11.4	9.27e-04	0	43	0	802160640	22	4788
2026-01-28 12:13:29.78	305.50	17.47	-31.1	-33.4	11.6	6.78e-04	0	43	0	804257792	22	4702
2026-01-28 12:13:30.78	305.69	17.41	-31.1	-33.4	11.6	6.00e-04	0	43	0	806354944	22	4683
2026-01-28 12:13:31.78	305.89	17.35	-31.0	-33.2	11.7	7.27e-04	0	44	0	808452096	22	4636
2026-01-28 12:13:32.78	306.08	17.29	-31.2	-33.8	11.3	7.04e-04	0	43	0	810549248	22	4837
2026-01-28 12:13:33.78	306.28	17.23	-31.1	-33.3	11.6	9.17e-04	0	43	0	811597824	22	4677
2026-01-28 12:13:34.79	306.47	17.16	-31.0	-33.0	11.8	4.59e-04	0	43	0	813694976	22	4566
2026-01-28 12:13:35.79	306.67	17.10	-30.9	-32.9	11.9	4.49e-04	0	43	0	815792128	22	4524
2026-01-28 12:13:36.80	306.86	17.04	-30.9	-32.9	11.9	3.42e-04	0	43	0	817889280	22	4527
2026-01-28 12:13:37.80	307.05	16.98	-30.8	-32.7	12.1	3.19e-04	0	43	0	819986432	22	4438
2026-01-28 12:13:38.81	307.24	16.92	-30.9	-32.8	12.0	2.86e-04	0	43	0	821035008	22	4488
2026-01-28 12:13:39.81	307.43	16.85	-31.1	-33.4	11.6	6.57e-04	0	44	0	823132160	22	4702
2026-01-28 12:13:40.82	307.62	16.79	-31.2	-33.8	11.2	9.22e-04	0	43	0	825229312	22	4857
2026-01-28 12:13:41.82	307.81	16.73	-31.1	-33.5	11.5	9.80e-04	0	43	0	827326464	22	4720
2026-01-28 12:13:42.82	308.00	16.67	-31.0	-33.2	11.7	7.85e-04	0	43	0	828375040	22	4608
2026-01-28 12:13:43.83	308.19	16.60	-31.0	-33.2	11.7	5.74e-04	0	43	0	830472192	22	4634
2026-01-28 12:13:44.84	308.38	16.54	-31.1	-33.3	11.6	4.57e-04	0	43	0	832569344	22	4679
2026-01-28 12:13:45.84	308.56	16.48	-30.8	-32.4	12.2	3.90e-04	0	43	0	834666496	22	4370
2026-01-28 12:13:46.85	308.75	16.41	-30.6	-32.0	12.5	1.13e-04	0	43	0	836763648	22	4216
2026-01-28 12:13:47.85	308.93	16.35	-30.6	-31.9	12.6	1.48e-04	0	43	0	838860800	22	4180
2026-01-28 12:13:48.85	309.11	16.29	-30.7	-32.2	12.4	1.44e-04	0	43	0	839909376	22	4297
2026-01-28 12:13:49.85	309.29	16.22	-30.7	-32.3	12.3	1.81e-04	0	43	0	842006528	22	4327
2026-01-28 12:13:50.85	309.48	16.16	-30.5	-31.6	12.8	9.99e-05	0	43	0	844103680	22	4100
2026-01-28 12:13:51.86	309.66	16.09	-30.5	-31.6	12.8	6.71e-05	0	43	0	846200832	22	4098
2026-01-28 12:13:52.85	309.84	16.03	-30.4	-31.4	12.9	5.87e-05	0	43	0	847249408	22	4041
2026-01-28 12:13:53.85	310.02	15.97	-30.4	-31.5	12.8	7.70e-05	0	43	0	849346560	22	4062
2026-01-28 12:13:54.86	310.20	15.90	-30.7	-32.3	12.3	1.59e-04	0	43	0	851443712	22	4311
2026-01-28 12:13:55.86	310.37	15.84	-30.6	-32.0	12.5	1.04e-04	0	43	0	853540864	22	4217
2026-01-28 12:13:56.86	310.55	15.78	-30.6	-31.9	12.5	9.84e-05	0	43	0	855638016	22	4207
2026-01-28 12:13:57.86	310.73	15.71	-30.7	-32.4	12.2	1.75e-04	0	43	0	856686592	22	4353
2026-01-28 12:13:58.87	310.90	15.65	-30.9	-33.0	11.8	2.74e-04	0	43	0	858783744	22	4554
2026-01-28 12:13:59.87	311.08	15.58	-31.1	-33.6	11.4	7.05e-04	0	43	0	860880896	22	4767
2026-01-28 12:14:00.88	311.25	15.52	-31.0	-33.2	11.6	5.98e-04	0	43	0	862978048	22	4645
2026-01-28 12:14:01.89	311.43	15.45	-31.1	-33.4	11.5	7.32e-04	0	43	0	865075200	22	4717
2026-01-28 12:14:02.89	311.60	15.39	-30.8	-32.7	12.0	4.94e-04	0	43	0	866123776	22	4459
2026-01-28 12:14:03.89	311.77	15.32	-30.6	-32.1	12.4	1.98e-04	0	43	0	868220928	22	4264
2026-01-28 12:14:04.90	311.94	15.26	-30.4	-31.6	12.7	9.99e-05	0	43	0	870318080	22	4099
2026-01-28 12:14:05.90	312.11	15.19	-30.3	-31.1	13.0	3.58e-05	0	43	0	872415232	22	3958
2026-01-28 12:14:06.90	312.28	15.13	-30.4	-32.1	12.7	4.73e-05	0	43	0	874512384	21	4342
2026-01-28 12:14:07.90	312.45	15.06	-30.4	-31.9	12.8	7.93e-05	0	43	0	875560960	21	4274
2026-01-28 12:14:08.90	312.62	15.00	-30.4	-32.0	12.7	4.65e-05	0	43	0	877658112	21	4334
2026-01-28 12:14:09.91	312.79	14.93	-30.6	-32.5	12.4	1.36e-04	0	43	0	879755264	21	4484
2026-01-28 12:14:10.91	312.96	14.87	-30.6	-32.5	12.4	2.03e-04	0	43	0	881852416	21	4480
2026-01-28 12:14:11.92	313.12	14.80	-30.8	-33.0	12.0	2.20e-04	0	43	0	883949568	21	4678
2026-01-28 12:14:12.92	313.29	14.74	-30.7	-32.8	12.2	2.93e-04	0	43	0	884998144	21	4575
2026-01-28 12:14:13.92	313.45	14.67	-30.6	-32.4	12.3	2.20e-04	0	43	0	887095296	21	4470
2026-01-28 12:14:14.93	313.62	14.61	-30.5	-32.3	12.5	1.19e-04	0	44	0	889192448	21	4410
2026-01-28 12:14:15.94	313.78	14.54	-30.5	-32.4	12.4	1.36e-04	0	43	0	891289600	21	4446
2026-01-28 12:14:16.94	313.95	14.48	-30.7	-32.7	12.1	1.83e-04	0	43	0	893386752	21	4576
2026-01-28 12:14:17.95	314.11	14.41	-30.6	-32.7	12.2	2.60e-04	0	43	0	894435328	21	4563
2026-01-28 12:14:18.96	314.27	14.35	-30.7	-32.9	12.1	2.55e-04	0	43	0	896532480	21	4622
2026-01-28 12:14:19.96	314.43	14.28	-30.9	-33.5	11.7	4.64e-04	0	43	0	898629632	21	4837
2026-01-28 12:14:20.97	314.59	14.21	-31.0	-33.3	11.4	7.78e-04	0	43	0	900726784	22	4687
2026-01-28 12:14:21.97	314.75	14.15	-31.1	-33.8	11.0	1.83e-03	0	43	0	901775360	22	4873
2026-01-28 12:14:22.98	314.91	14.08	-31.4	-34.7	10.4	4.03e-03	0	43	0	903872512	22	5227
2026-01-28 12:14:23.98	315.07	14.02	-31.4	-34.6	10.5	3.56e-03	0	43	0	905969664	22	5183
2026-01-28 12:14:24.98	315.23	13.95	-31.2	-34.1	10.8	2.80e-03	0	43	0	908066816	22	4996
2026-01-28 12:14:25.99	315.39	13.89	-31.1	-33.6	11.1	1.39e-03	0	43	0	910163968	22	4795
2026-01-28 12:14:26.98	315.54	13.82	-31.0	-33.3	11.2	1.45e-03	0	43	0	911212544	22	4702
2026-01-28 12:14:27.99	315.70	13.76	-30.8	-32.8	11.5	1.10e-03	0	43	0	913309696	22	4520
2026-01-28 12:14:28.99	315.85	13.69	-30.6	-32.2	11.9	4.78e-04	0	43	0	915406848	22	4323
2026-01-28 12:14:30.00	316.01	13.62	-30.6	-32.1	12.0	3.07e-04	0	43	0	917504000	22	4294
2026-01-28 12:14:31.00	316.16	13.56	-30.6	-32.2	12.0	4.39e-04	0	43	0	919601152	22	4311
2026-01-28 12:14:32.00	316.31	13.49	-30.6	-32.1	12.0	3.89e-04	0	43	0	920649728	22	4282
2026-01-28 12:14:33.00	316.46	13.43	-30.5	-31.9	12.1	3.56e-04	0	43	0	922746880	22	4222
2026-01-28 12:14:34.01	316.61	13.36	-30.4	-31.4	12.7	1.36e-04	0	43	0	924844032	22	4055
2026-01-28 12:14:35.01	316.77	13.30	-30.2	-31.6	12.8	6.17e-05	0	43	0	926941184	21	4213
2026-01-28 12:14:36.01	316.91	13.23	-30.4	-32.0	12.6	5.79e-05	0	43	0	929038336	21	4325
2026-01-28 12:14:37.02	317.07	13.16	-30.2	-31.5	12.9	6.40e-05	0	43	0	930086912	21	4187
2026-01-28 12:14:38.02	317.21	13.10	-30.1	-31.1	13.1	5.03e-05	0	43	0	932184064	21	4076
2026-01-28 12:14:39.03	317.36	13.03	-30.0	-31.0	13.2	3.12e-05	0	43	0	934281216	21	4018
2026-01-28 12:14:40.03	317.51	12.97	-30.1	-31.2	13.0	2.36e-05	0	43	0	936378368	21	4106
2026-01-28 12:14:41.04	317.66	12.90	-30.1	-31.3	12.9	2.67e-05	0	43	0	938475520	21	4141
2026-01-28 12:14:42.04	317.80	12.84	-30.3	-32.0	12.5	6.63e-05	0	43	0	939524096	21	4337
2026-01-28 12:14:43.04	317.95	12.77	-30.2	-31.6	12.8	9.53e-05	0	43	0	941621248	21	4210
2026-01-28 12:14:44.05	318.10	12.70	-30.2	-31.6	12.9	5.95e-05	0	43	0	943718400	21	4209
2026-01-28 12:14:45.05	318.24	12.64	-30.4	-32.0	12.5	7.78e-05	0	43	0	945815552	21	4344
2026-01-28 12:14:46.05	318.38	12.57	-30.6	-32.8	12.0	1.49e-04	0	43	0	947912704	21	4619
2026-01-28 12:14:47.05	318.53	12.51	-30.5	-32.6	12.0	3.39e-04	0	43	0	948961280	21	4572
2026-01-28 12:14:48.05	318.67	12.44	-30.6	-32.7	12.0	4.29e-04	0	43	0	951058432	21	4600
2026-01-28 12:14:49.05	318.81	12.38	-30.7	-32.9	11.8	4.53e-04	0	43	0	953155584	21	4683
2026-01-28 12:14:50.06	318.95	12.31	-30.6	-32.7	11.9	3.99e-04	0	43	0	955252736	21	4588
2026-01-28 12:14:51.06	319.09	12.25	-30.6	-32.8	11.9	4.41e-04	0	43	0	957349888	21	4625
2026-01-28 12:14:52.06	319.23	12.18	-30.6	-32.9	11.9	3.91e-04	0	43	0	958398464	21	4643
2026-01-28 12:14:53.05	319.37	12.12	-30.7	-32.9	11.9	3.78e-04	0	43	0	960495616	21	4659
2026-01-28 12:14:54.06	319.51	12.05	-30.6	-32.7	12.0	3.78e-04	0	43	0	962592768	21	4587
2026-01-28 12:14:55.07	319.65	11.99	-30.7	-33.1	11.7	5.45e-04	0	43	0	964689920	21	4732
2026-01-28 12:14:56.07	319.79	11.92	-30.6	-32.9	11.8	6.55e-04	0	43	0	965738496	21	4666
2026-01-28 12:14:57.08	319.92	11.85	-30.8	-33.5	11.3	6.20e-04	0	43	0	967835648	21	4917
2026-01-28 12:14:58.08	320.06	11.79	-31.2	-34.2	10.5	2.22e-03	0	43	0	969932800	22	5076
2026-01-28 12:14:59.08	320.20	11.72	-31.0	-33.5	11.0	1.87e-03	0	43	0	972029952	22	4819
2026-01-28 12:15:00.09	320.33	11.66	-30.8	-32.8	11.6	7.57e-04	0	43	0	974127104	22	4528
2026-01-28 12:15:01.09	320.47	11.59	-30.6	-32.3	11.9	4.16e-04	0	43	0	975175680	22	4367
2026-01-28 12:15:02.10	320.60	11.53	-30.5	-31.9	12.2	2.17e-04	0	43	0	977272832	22	4232
2026-01-28 12:15:03.10	320.73	11.46	-30.2	-31.6	12.7	1.62e-04	0	43	0	979369984	21	4240
2026-01-28 12:15:04.10	320.87	11.40	-30.3	-31.8	12.6	1.04e-04	0	43	0	981467136	21	4287
2026-01-28 12:15:05.10	321.00	11.33	-29.9	-30.8	13.2	3.43e-05	0	43	0	983564288	21	3997
2026-01-28 12:15:06.11	321.13	11.27	-29.9	-30.8	13.2	2.21e-05	0	43	0	984612864	21	3996
2026-01-28 12:15:07.11	321.26	11.20	-29.9	-30.7	13.2	1.83e-05	0	43	0	986710016	21	3971
2026-01-28 12:15:08.11	321.39	11.14	-29.9	-30.8	13.2	2.13e-05	0	43	0	988807168	21	3981
2026-01-28 12:15:09.12	321.53	11.07	-29.9	-30.6	13.3	1.83e-05	0	43	0	990904320	21	3933
2026-01-28 12:15:10.13	321.66	11.01	-30.0	-31.0	13.1	2.97e-05	0	43	0	993001472	21	4042
2026-01-28 12:15:11.13	321.78	10.94	-30.0	-31.1	13.0	4.19e-05	0	43	0	994050048	21	4075
2026-01-28 12:15:12.13	321.91	10.88	-30.2	-31.7	12.6	8.16e-05	0	43	0	996147200	21	4249
2026-01-28 12:15:13.14	322.04	10.81	-30.2	-31.6	12.6	1.13e-04	0	43	0	998244352	21	4229
2026-01-28 12:15:14.14	322.17	10.75	-30.2	-31.5	12.7	8.39e-05	0	43	0	1000341504	21	4203
2026-01-28 12:15:15.15	322.30	10.69	-30.3	-31.8	12.4	1.13e-04	0	43	0	1002438656	21	4314
2026-01-28 12:15:16.15	322.42	10.62	-30.2	-31.6	12.7	8.08e-05	0	43	0	1003487232	21	4219
2026-01-28 12:15:17.15	322.55	10.56	-30.2	-31.7	12.6	9.53e-05	0	43	0	1005584384	21	4255
2026-01-28 12:15:18.16	322.67	10.49	-30.2	-31.5	12.8	9.15e-05	0	43	0	1007681536	21	4200
2026-01-28 12:15:19.15	322.80	10.43	-30.2	-31.6	12.6	7.32e-05	0	43	0	1009778688	21	4243
2026-01-28 12:15:20.16	322.92	10.36	-30.3	-32.0	12.4	1.69e-04	0	43	0	1011875840	21	4354
2026-01-28 12:15:21.16	323.05	10.30	-30.3	-32.1	12.3	1.79e-04	0	43	0	1012924416	21	4389
2026-01-28 12:15:22.17	323.17	10.23	-30.4	-32.3	12.1	2.68e-04	0	43	0	1015021568	21	4466
2026-01-28 12:15:23.17	323.29	10.17	-30.6	-32.7	11.8	3.23e-04	0	43	0	1017118720	21	4627
2026-01-28 12:15:24.17	323.42	10.11	-30.7	-33.1	11.5	6.85e-04	0	43	0	1019215872	21	4738
2026-01-28 12:15:25.17	323.54	10.04	-30.8	-33.3	11.3	9.04e-04	0	43	0	1020264448	21	4849
2026-01-28 12:15:26.18	323.66	9.98	-30.8	-33.4	11.3	1.04e-03	0	43	0	1022361600	21	4873
2026-01-28 12:15:27.18	323.78	9.91	-30.8	-33.6	11.2	1.12e-03	0	43	0	1024458752	21	4936
2026-01-28 12:15:28.18	323.90	9.85	-30.8	-33.4	11.3	1.09e-03	0	43	0	1026555904	21	4860
2026-01-28 12:15:29.19	324.02	9.79	-30.7	-33.2	11.4	9.67e-04	0	43	0	1028653056	21	4814
2026-01-28 12:15:30.20	324.14	9.72	-30.8	-33.5	11.2	1.02e-03	0	43	0	1030750208	21	4907
2026-01-28 12:15:31.20	324.26	9.66	-30.8	-33.4	11.3	1.11e-03	0	44	0	1031798784	21	4867
2026-01-28 12:15:32.21	324.38	9.60	-30.4	-32.2	12.1	6.06e-04	0	43	0	1033895936	21	4454
2026-01-28 12:15:33.21	324.49	9.53	-30.3	-31.9	12.2	3.08e-04	0	43	0	1035993088	21	4348
2026-01-28 12:15:34.22	324.61	9.47	-30.3	-31.9	12.3	2.20e-04	0	43	0	1038090240	21	4339
2026-01-28 12:15:35.22	324.73	9.40	-30.3	-32.0	12.2	1.89e-04	0	43	0	1039138816	21	4372
2026-01-28 12:15:36.23	324.85	9.34	-30.4	-32.2	12.0	2.46e-04	0	44	0	1041235968	21	4450
2026-01-28 12:15:37.23	324.96	9.28	-30.2	-31.6	12.4	1.85e-04	0	43	0	1043333120	21	4254
2026-01-28 12:15:38.24	325.08	9.21	-30.1	-31.5	12.6	1.44e-04	0	43	0	1045430272	21	4217
2026-01-28 12:15:39.25	325.19	9.15	-30.1	-31.5	12.5	1.22e-04	0	43	0	1047527424	21	4221
2026-01-28 12:15:40.25	325.31	9.09	-30.2	-31.8	12.4	1.82e-04	0	43	0	1048576000	21	4297
2026-01-28 12:15:41.26	325.42	9.02	-30.2	-31.9	12.3	1.80e-04	0	44	0	1050673152	21	4349
2026-01-28 12:15:42.26	325.53	8.96	-30.5	-32.6	11.7	4.47e-04	0	43	0	1052770304	21	4594
2026-01-28 12:15:43.26	325.65	8.90	-30.5	-32.8	11.6	4.65e-04	0	43	0	1054867456	21	4651
2026-01-28 12:15:44.26	325.76	8.84	-30.7	-33.3	11.2	1.13e-03	0	44	0	1056964608	21	4865
2026-01-28 12:15:45.26	325.87	8.77	-30.7	-33.2	11.3	8.90e-04	0	44	0	1058013184	21	4814
2026-01-28 12:15:46.26	325.98	8.71	-30.8	-33.6	11.0	1.49e-03	0	43	0	1060110336	21	4955
2026-01-28 12:15:47.27	326.09	8.65	-30.8	-33.7	11.0	1.60e-03	0	44	0	1062207488	21	4987
2026-01-28 12:15:48.27	326.20	8.59	-30.9	-33.9	10.8	2.34e-03	0	44	0	1064304640	21	5084
2026-01-28 12:15:49.28	326.32	8.52	-30.8	-33.8	10.9	2.35e-03	0	43	0	1066401792	21	5040
2026-01-28 12:15:50.29	326.43	8.46	-31.0	-33.8	10.5	4.49e-03	0	43	0	1067450368	22	4960
2026-01-28 12:15:51.29	326.53	8.40	-30.9	-33.2	10.9	2.40e-03	0	43	0	1069547520	22	4740
2026-01-28 12:15:52.29	326.64	8.34	-31.0	-33.8	10.5	4.00e-03	0	43	0	1071644672	22	4946
2026-01-28 12:15:53.29	326.75	8.27	-31.1	-34.3	10.1	5.55e-03	0	44	0	1073741824	22	5162
2026-01-28 12:15:54.29	326.86	8.21	-31.2	-34.4	10.0	6.81e-03	0	43	0	1075838976	22	5225
2026-01-28 12:15:55.29	326.97	8.15	-31.3	-34.8	9.7	1.12e-02	0	43	0	1076887552	22	5405
2026-01-28 12:15:56.29	327.07	8.09	-31.1	-34.8	9.5	1.26e-02	0	43	0	1078984704	22	5536
2026-01-28 12:15:57.29	327.18	8.03	-31.2	-35.2	9.2	1.76e-02	0	43	0	1081081856	22	5729
2026-01-28 12:15:58.30	327.29	7.96	-31.3	-35.5	9.2	2.22e-02	0	43	0	1083179008	22	5795
2026-01-28 12:15:59.30	327.39	7.90	-31.4	-35.3	9.2	1.69e-02	0	43	0	1085276160	22	5672
2026-01-28 12:16:00.31	327.50	7.84	-31.4	-35.3	9.2	1.54e-02	0	44	0	1086324736	22	5677
2026-01-28 12:16:01.31	327.60	7.78	-31.2	-34.8	9.6	1.66e-02	0	43	0	1088421888	22	5442
2026-01-28 12:16:02.30	327.71	7.72	-31.1	-34.4	9.9	9.64e-03	0	43	0	1090519040	22	5235
2026-01-28 12:16:03.30	327.81	7.66	-31.2	-34.5	9.9	1.09e-02	0	43	0	1092616192	22	5277
2026-01-28 12:16:04.30	327.91	7.59	-31.0	-34.0	10.3	5.55e-03	0	44	0	1093664768	22	5075
2026-01-28 12:16:05.31	328.02	7.53	-31.2	-34.6	9.8	7.16e-03	0	43	0	1095761920	22	5299
2026-01-28 12:16:06.31	328.12	7.47	-31.2	-34.7	9.7	1.39e-02	0	44	0	1097859072	22	5347
2026-01-28 12:16:07.32	328.22	7.41	-31.0	-34.0	10.2	8.66e-03	0	43	0	1099956224	22	5055
2026-01-28 12:16:08.33	328.32	7.35	-31.0	-33.8	10.4	4.32e-03	0	43	0	1102053376	22	4972
2026-01-28 12:16:09.32	328.42	7.29	-30.9	-33.6	10.4	3.92e-03	0	43	0	1103101952	22	4906
2026-01-28 12:16:10.32	328.53	7.23	-31.0	-33.8	10.3	5.23e-03	0	44	0	1105199104	22	4991
2026-01-28 12:16:11.33	328.63	7.17	-31.0	-33.9	10.2	5.63e-03	0	43	0	1107296256	22	5035
2026-01-28 12:16:12.33	328.73	7.11	-31.2	-34.5	9.8	6.29e-03	0	43	0	1109393408	22	5280
2026-01-28 12:16:13.33	328.83	7.04	-32.1	-37.4	7.6	9.89e-03	0	43	0	1111490560	24	6605
2026-01-28 12:16:14.34	328.93	6.98	-33.5	-46.1	3.8	1.49e+00	0	43	104	1111490560	26	15473
2026-01-28 12:16:15.34	329.03	6.92	-33.8	-46.3	3.8	1.49e+00	0	43	104	1111490560	27	15180
2026-01-28 12:16:16.34	329.12	6.86	-33.9	-46.6	3.8	1.49e+00	0	43	104	1111490560	27	15444

#Closed at: 2026-01-28 12:16:17
#Recorded file [1111 MB]: D:/data/31010_260128_150620.dat