passes_logs/2026/01/28/R2M6_AANII_01/R2M6_AANII_01__20260128_104451_NOAA_20_JPSS-1_rec.log

#Pass ID: 20260128_104451_NOAA 20 (JPSS-1)
#Satellite: NOAA 20 (JPSS-1)
#Configuration: NOAA 20
#almurnet v.1.7.20240730
#Start time: 2026-01-28 10:44:51

#Version: 2.2.20231116
#Station: R2M6_AANII_01
#Location: 30.233357 lon 59.946436 lat
#TLE: 1 43013U 17073A   26027.80586608  .00000156  00000+0  94940-4 0  9998
#TLE: 2 43013  98.7647 328.6108 0000947  21.3465 338.7750 14.19541216424550

#Time	Az	El	Level	Level2	SNR	BER	BlckErr	Temp	State	Recorded	gain1	gain2
2026-01-28 10:44:51.89	173.40	7.02	-30.4	-34.6	5.5	1.18e+00	0	41	0	0	21	5802
2026-01-28 10:44:52.89	173.43	7.10	-30.9	-35.8	5.3	1.22e+00	0	41	104	0	22	6301
2026-01-28 10:44:53.90	173.46	7.18	-30.6	-34.7	10.4	7.97e-03	0	41	0	0	22	5755
2026-01-28 10:44:54.91	173.49	7.25	-30.8	-35.2	10.1	5.59e-03	0	41	0	1048576	22	5992
2026-01-28 10:44:55.92	173.52	7.33	-30.6	-34.6	10.5	4.56e-03	0	41	0	3145728	22	5712
2026-01-28 10:44:56.92	173.55	7.41	-30.5	-34.1	11.0	2.66e-03	0	41	0	5242880	22	5449
2026-01-28 10:44:57.93	173.58	7.49	-30.2	-33.7	11.6	1.17e-03	0	41	0	7340032	21	5378
2026-01-28 10:44:58.92	173.61	7.56	-30.0	-33.3	11.9	5.13e-04	0	41	0	9437184	21	5234
2026-01-28 10:44:59.92	173.63	7.64	-30.0	-33.0	12.1	3.24e-04	0	41	0	10485760	21	5108
2026-01-28 10:45:00.93	173.66	7.72	-29.9	-32.9	12.2	2.42e-04	0	41	0	12582912	21	5075
2026-01-28 10:45:01.93	173.69	7.80	-30.0	-33.0	12.1	2.60e-04	0	41	0	14680064	21	5111
2026-01-28 10:45:02.94	173.72	7.88	-29.9	-32.8	12.4	2.11e-04	0	41	0	16777216	21	5001
2026-01-28 10:45:03.94	173.75	7.96	-29.9	-32.8	12.4	1.33e-04	0	41	0	17825792	21	5004
2026-01-28 10:45:04.94	173.78	8.04	-30.0	-32.9	12.2	1.99e-04	0	41	0	19922944	21	5068
2026-01-28 10:45:05.95	173.82	8.12	-29.9	-32.9	12.3	1.80e-04	0	41	0	22020096	21	5039
2026-01-28 10:45:06.95	173.85	8.20	-29.8	-32.5	12.6	1.43e-04	0	41	0	24117248	21	4903
2026-01-28 10:45:07.96	173.88	8.28	-29.8	-32.5	12.6	9.00e-05	0	41	0	26214400	21	4901
2026-01-28 10:45:08.96	173.91	8.36	-29.9	-32.6	12.5	9.61e-05	0	41	0	28311552	21	4936
2026-01-28 10:45:09.97	173.94	8.44	-29.8	-32.4	12.7	1.11e-04	0	41	0	29360128	21	4864
2026-01-28 10:45:10.97	173.97	8.52	-29.7	-32.6	12.9	6.40e-05	0	41	0	31457280	20	5050
2026-01-28 10:45:11.97	174.00	8.60	-29.8	-32.9	12.7	7.17e-05	0	41	0	33554432	20	5142
2026-01-28 10:45:12.98	174.03	8.69	-29.8	-32.8	12.7	6.17e-05	0	41	0	35651584	20	5105
2026-01-28 10:45:13.98	174.06	8.77	-29.7	-32.7	12.9	7.17e-05	0	41	0	36700160	20	5057
2026-01-28 10:45:14.99	174.10	8.85	-29.8	-32.9	12.7	7.01e-05	0	41	0	38797312	20	5152
2026-01-28 10:45:15.99	174.13	8.93	-29.8	-32.8	12.7	8.31e-05	0	41	0	40894464	20	5119
2026-01-28 10:45:17.00	174.16	9.02	-29.8	-32.8	12.8	5.41e-05	0	41	0	42991616	20	5098
2026-01-28 10:45:18.00	174.19	9.10	-29.6	-32.3	13.1	5.34e-05	0	41	0	45088768	20	4910
2026-01-28 10:45:19.00	174.23	9.18	-29.7	-32.6	12.9	4.27e-05	0	41	0	46137344	20	5024
2026-01-28 10:45:20.00	174.26	9.26	-29.8	-32.7	12.9	5.11e-05	0	41	0	48234496	20	5066
2026-01-28 10:45:21.00	174.29	9.35	-29.6	-32.3	13.1	4.80e-05	0	41	0	50331648	20	4929
2026-01-28 10:45:22.00	174.32	9.43	-29.6	-32.3	13.2	2.74e-05	0	42	0	52428800	20	4904
2026-01-28 10:45:23.01	174.36	9.52	-29.6	-32.3	13.2	1.52e-05	0	41	0	54525952	20	4907
2026-01-28 10:45:24.01	174.39	9.60	-29.7	-32.6	13.0	3.35e-05	0	42	0	55574528	20	5014
2026-01-28 10:45:25.02	174.42	9.69	-29.6	-32.3	13.2	3.28e-05	0	42	0	57671680	20	4911
2026-01-28 10:45:26.02	174.46	9.77	-29.6	-32.3	13.3	2.13e-05	0	42	0	59768832	20	4886
2026-01-28 10:45:27.02	174.49	9.86	-29.6	-32.3	13.3	1.75e-05	0	41	0	61865984	20	4892
2026-01-28 10:45:28.02	174.53	9.94	-29.7	-32.4	13.1	2.82e-05	0	42	0	63963136	20	4951
2026-01-28 10:45:29.02	174.56	10.03	-29.6	-32.2	13.3	1.98e-05	0	41	0	65011712	20	4850
2026-01-28 10:45:30.03	174.59	10.11	-29.6	-32.3	13.3	1.52e-05	0	42	0	67108864	20	4894
2026-01-28 10:45:31.02	174.63	10.20	-29.6	-32.2	13.3	1.90e-05	0	42	0	69206016	20	4854
2026-01-28 10:45:32.03	174.66	10.29	-29.6	-32.2	13.3	1.44e-05	0	42	0	71303168	20	4877
2026-01-28 10:45:33.04	174.70	10.38	-29.6	-32.4	13.2	2.59e-05	0	42	0	73400320	20	4926
2026-01-28 10:45:34.04	174.73	10.46	-29.6	-32.2	13.3	1.22e-05	0	42	0	74448896	20	4876
2026-01-28 10:45:35.05	174.77	10.55	-29.6	-32.3	13.3	1.14e-05	0	42	0	76546048	20	4909
2026-01-28 10:45:36.06	174.80	10.64	-29.6	-32.3	13.2	2.21e-05	0	41	0	78643200	20	4905
2026-01-28 10:45:37.06	174.84	10.73	-29.5	-32.0	13.5	1.37e-05	0	41	0	80740352	20	4794
2026-01-28 10:45:38.06	174.88	10.82	-29.5	-31.9	13.5	8.30e-06	0	42	0	82837504	20	4771
2026-01-28 10:45:39.05	174.91	10.90	-29.5	-32.0	13.5	1.14e-05	0	42	0	83886080	20	4778
2026-01-28 10:45:40.06	174.95	10.99	-29.5	-32.0	13.5	1.98e-05	0	42	0	85983232	20	4779
2026-01-28 10:45:41.06	174.98	11.08	-29.5	-32.1	13.5	6.80e-06	0	42	0	88080384	20	4816
2026-01-28 10:45:42.07	175.02	11.17	-29.6	-32.3	13.3	1.67e-05	0	42	0	90177536	20	4879
2026-01-28 10:45:43.07	175.06	11.26	-29.6	-32.3	13.3	2.05e-05	0	42	0	91226112	20	4911
2026-01-28 10:45:44.07	175.10	11.36	-29.5	-32.0	13.5	1.52e-05	0	42	0	93323264	20	4780
2026-01-28 10:45:45.08	175.13	11.45	-29.5	-32.0	13.5	1.06e-05	0	42	0	95420416	20	4803
2026-01-28 10:45:46.09	175.17	11.54	-29.5	-32.0	13.6	1.44e-05	0	42	0	97517568	20	4780
2026-01-28 10:45:47.09	175.21	11.63	-29.6	-32.3	13.3	1.67e-05	0	42	0	99614720	20	4911
2026-01-28 10:45:48.10	175.25	11.72	-29.7	-32.4	13.3	2.21e-05	0	42	0	101711872	20	4936
2026-01-28 10:45:49.10	175.29	11.81	-29.5	-32.1	13.5	1.37e-05	0	42	0	102760448	20	4812
2026-01-28 10:45:50.10	175.32	11.91	-29.6	-32.2	13.5	1.37e-05	0	42	0	104857600	20	4860
2026-01-28 10:45:51.10	175.36	12.00	-29.6	-32.3	13.4	1.29e-05	0	42	0	106954752	20	4896
2026-01-28 10:45:52.11	175.40	12.09	-29.6	-32.2	13.4	1.22e-05	0	42	0	109051904	20	4870
2026-01-28 10:45:53.11	175.44	12.19	-29.6	-32.1	13.5	1.44e-05	0	42	0	110100480	20	4810
2026-01-28 10:45:54.11	175.48	12.28	-29.6	-32.3	13.4	8.30e-06	0	42	0	112197632	20	4888
2026-01-28 10:45:55.12	175.52	12.38	-29.5	-32.1	13.5	6.10e-06	0	42	0	114294784	20	4810
2026-01-28 10:45:56.12	175.56	12.47	-29.4	-31.7	13.8	8.30e-06	0	42	0	116391936	20	4690
2026-01-28 10:45:57.13	175.60	12.57	-29.3	-31.5	13.9	6.80e-06	0	42	0	118489088	20	4610
2026-01-28 10:45:58.13	175.64	12.66	-29.4	-31.6	13.9	9.10e-06	0	42	0	119537664	20	4634
2026-01-28 10:45:59.13	175.68	12.76	-29.3	-31.3	14.0	3.00e-06	0	42	0	121634816	20	4560
2026-01-28 10:46:00.13	175.72	12.85	-29.4	-31.6	13.9	7.00e-07	0	42	0	123731968	20	4630
2026-01-28 10:46:01.13	175.76	12.95	-29.3	-31.4	14.0	9.10e-06	0	42	0	125829120	20	4561
2026-01-28 10:46:02.14	175.80	13.05	-29.3	-31.9	14.1	1.50e-06	0	42	0	127926272	19	4839
2026-01-28 10:46:03.15	175.85	13.15	-29.4	-32.2	13.9	3.80e-06	0	42	0	128974848	19	4947
2026-01-28 10:46:04.15	175.89	13.24	-29.4	-32.1	14.0	1.14e-05	0	42	0	131072000	19	4926
2026-01-28 10:46:05.15	175.93	13.34	-29.5	-32.3	13.9	2.20e-06	0	42	0	133169152	19	4989
2026-01-28 10:46:06.16	175.97	13.44	-29.5	-32.5	13.7	1.50e-06	0	42	0	135266304	19	5047
2026-01-28 10:46:07.16	176.01	13.54	-29.4	-32.2	14.0	8.30e-06	0	42	0	137363456	19	4942
2026-01-28 10:46:08.16	176.06	13.64	-29.4	-32.1	14.0	7.00e-07	0	42	0	138412032	19	4921
2026-01-28 10:46:09.16	176.10	13.74	-29.5	-32.3	13.9	3.80e-06	0	42	0	140509184	19	4970
2026-01-28 10:46:10.17	176.14	13.84	-29.6	-32.5	13.8	1.75e-05	0	42	0	142606336	19	5039
2026-01-28 10:46:11.17	176.19	13.94	-29.5	-32.4	13.8	6.10e-06	0	42	0	144703488	19	5011
2026-01-28 10:46:12.17	176.23	14.04	-29.5	-32.4	13.8	3.00e-06	0	42	0	146800640	19	5015
2026-01-28 10:46:13.18	176.28	14.14	-29.5	-32.4	13.8	2.20e-06	0	42	0	147849216	19	5020
2026-01-28 10:46:14.18	176.32	14.24	-29.6	-32.5	13.8	7.60e-06	0	42	0	149946368	19	5059
2026-01-28 10:46:15.19	176.36	14.34	-29.6	-32.5	13.8	6.10e-06	0	42	0	152043520	19	5063
2026-01-28 10:46:16.19	176.41	14.45	-29.6	-32.7	13.7	6.10e-06	0	42	0	154140672	19	5125
2026-01-28 10:46:17.20	176.45	14.55	-29.6	-32.6	13.7	3.80e-06	0	42	0	156237824	19	5082
2026-01-28 10:46:18.20	176.50	14.65	-29.6	-32.7	13.7	7.60e-06	0	42	0	157286400	19	5097
2026-01-28 10:46:19.20	176.55	14.76	-29.7	-32.8	13.6	4.50e-06	0	42	0	159383552	19	5171
2026-01-28 10:46:20.20	176.59	14.86	-29.8	-33.0	13.5	1.22e-05	0	42	0	161480704	19	5239
2026-01-28 10:46:21.21	176.64	14.97	-29.7	-32.9	13.6	7.60e-06	0	42	0	163577856	19	5183
2026-01-28 10:46:22.21	176.69	15.07	-29.7	-32.8	13.7	1.44e-05	0	43	0	164626432	19	5129
2026-01-28 10:46:23.22	176.73	15.18	-29.7	-32.8	13.7	8.30e-06	0	42	0	166723584	19	5142
2026-01-28 10:46:24.22	176.78	15.28	-29.7	-32.9	13.6	7.60e-06	0	42	0	168820736	19	5172
2026-01-28 10:46:25.22	176.83	15.39	-29.7	-32.9	13.6	1.37e-05	0	42	0	170917888	19	5196
2026-01-28 10:46:26.22	176.88	15.49	-29.7	-32.8	13.7	4.50e-06	0	43	0	173015040	19	5132
2026-01-28 10:46:27.23	176.92	15.60	-29.7	-32.7	13.7	4.50e-06	0	42	0	174063616	19	5121
2026-01-28 10:46:28.23	176.97	15.71	-29.7	-32.8	13.6	8.30e-06	0	42	0	176160768	19	5157
2026-01-28 10:46:29.23	177.02	15.82	-29.7	-32.7	13.7	5.30e-06	0	43	0	178257920	19	5110
2026-01-28 10:46:30.23	177.07	15.93	-29.7	-32.8	13.7	6.80e-06	0	42	0	180355072	19	5149
2026-01-28 10:46:31.24	177.12	16.04	-29.8	-33.0	13.5	9.90e-06	0	43	0	182452224	19	5221
2026-01-28 10:46:32.24	177.17	16.15	-29.8	-33.0	13.6	9.10e-06	0	42	0	183500800	19	5236
2026-01-28 10:46:33.24	177.22	16.26	-29.7	-32.9	13.6	1.22e-05	0	43	0	185597952	19	5205
2026-01-28 10:46:34.24	177.27	16.37	-29.7	-33.0	13.6	1.52e-05	0	43	0	187695104	19	5230
2026-01-28 10:46:35.24	177.32	16.48	-29.8	-33.1	13.5	1.29e-05	0	43	0	189792256	19	5263
2026-01-28 10:46:36.25	177.38	16.59	-29.8	-33.3	13.4	1.06e-05	0	43	0	191889408	19	5336
2026-01-28 10:46:37.25	177.43	16.70	-29.9	-33.6	13.2	2.89e-05	0	43	0	192937984	19	5468
2026-01-28 10:46:38.26	177.48	16.81	-29.8	-33.2	13.5	1.75e-05	0	42	0	195035136	19	5296
2026-01-28 10:46:39.26	177.53	16.93	-29.9	-33.3	13.3	1.22e-05	0	43	0	197132288	19	5369
2026-01-28 10:46:40.26	177.58	17.04	-29.9	-33.4	13.3	1.83e-05	0	43	0	199229440	19	5397
2026-01-28 10:46:41.27	177.64	17.15	-29.9	-33.5	13.3	2.05e-05	0	43	0	201326592	19	5422
2026-01-28 10:46:42.27	177.69	17.27	-30.0	-33.1	13.1	1.83e-05	0	42	0	202375168	20	5180
2026-01-28 10:46:43.27	177.75	17.38	-30.1	-33.5	12.9	4.73e-05	0	43	0	204472320	20	5326
2026-01-28 10:46:44.28	177.80	17.50	-30.2	-33.9	12.5	1.09e-04	0	43	0	206569472	20	5496
2026-01-28 10:46:45.28	177.85	17.62	-30.0	-33.4	12.9	6.86e-05	0	42	0	208666624	20	5300
2026-01-28 10:46:46.28	177.91	17.73	-29.9	-33.1	13.2	3.50e-05	0	42	0	209715200	20	5155
2026-01-28 10:46:47.29	177.97	17.85	-29.9	-32.9	13.3	1.67e-05	0	43	0	211812352	20	5082
2026-01-28 10:46:48.29	178.02	17.97	-29.8	-32.8	13.3	1.75e-05	0	43	0	213909504	20	5064
2026-01-28 10:46:49.29	178.08	18.09	-29.9	-32.8	13.3	1.14e-05	0	43	0	216006656	20	5075
2026-01-28 10:46:50.29	178.13	18.20	-29.9	-32.9	13.3	1.29e-05	0	43	0	218103808	20	5106
2026-01-28 10:46:51.29	178.19	18.32	-29.8	-32.8	13.4	1.90e-05	0	43	0	219152384	20	5061
2026-01-28 10:46:52.30	178.25	18.44	-29.8	-32.9	13.3	1.90e-05	0	42	0	221249536	20	5089
2026-01-28 10:46:53.31	178.31	18.57	-29.8	-32.8	13.4	9.90e-06	0	43	0	223346688	20	5056
2026-01-28 10:46:54.31	178.37	18.69	-29.9	-32.9	13.3	8.30e-06	0	43	0	225443840	20	5126
2026-01-28 10:46:55.31	178.43	18.81	-29.8	-32.9	13.3	1.75e-05	0	43	0	227540992	20	5094
2026-01-28 10:46:56.31	178.48	18.93	-29.7	-32.6	13.5	1.67e-05	0	43	0	228589568	20	5000
2026-01-28 10:46:57.31	178.54	19.05	-29.9	-33.0	13.3	1.44e-05	0	43	0	230686720	20	5136
2026-01-28 10:46:58.32	178.61	19.18	-29.9	-33.1	13.1	2.82e-05	0	42	0	232783872	20	5206
2026-01-28 10:46:59.32	178.67	19.30	-29.8	-32.6	13.4	1.29e-05	0	43	0	234881024	20	5021
2026-01-28 10:47:00.32	178.73	19.42	-29.8	-32.7	13.5	1.60e-05	0	43	0	236978176	20	5022
2026-01-28 10:47:01.32	178.79	19.55	-29.8	-32.9	13.3	1.22e-05	0	43	0	238026752	20	5106
2026-01-28 10:47:02.33	178.85	19.68	-30.0	-33.3	13.0	2.82e-05	0	43	0	240123904	20	5267
2026-01-28 10:47:03.33	178.91	19.80	-30.0	-33.5	12.9	3.96e-05	0	43	0	242221056	20	5333
2026-01-28 10:47:04.33	178.98	19.93	-30.2	-33.8	12.7	5.79e-05	0	43	0	244318208	20	5456
2026-01-28 10:47:05.33	179.04	20.06	-30.1	-33.6	12.9	5.87e-05	0	43	0	246415360	20	5381
2026-01-28 10:47:06.33	179.10	20.18	-30.2	-33.7	12.8	5.72e-05	0	43	0	247463936	20	5399
2026-01-28 10:47:07.33	179.17	20.31	-30.2	-33.7	12.8	5.11e-05	0	43	0	249561088	20	5386
2026-01-28 10:47:08.34	179.23	20.44	-30.3	-33.9	12.7	6.25e-05	0	43	0	251658240	20	5491
2026-01-28 10:47:09.34	179.30	20.57	-30.3	-34.2	12.5	1.11e-04	0	43	0	253755392	20	5581
2026-01-28 10:47:10.34	179.37	20.70	-30.2	-33.7	12.9	6.48e-05	0	43	0	254803968	20	5395
2026-01-28 10:47:11.34	179.43	20.83	-30.1	-33.3	13.2	2.67e-05	0	43	0	256901120	20	5216
2026-01-28 10:47:12.35	179.50	20.97	-30.0	-33.0	13.4	2.36e-05	0	43	0	258998272	20	5092
2026-01-28 10:47:13.35	179.57	21.10	-30.0	-32.9	13.5	6.80e-06	0	43	0	261095424	20	5067
2026-01-28 10:47:14.35	179.64	21.23	-29.9	-32.9	13.5	6.10e-06	0	43	0	263192576	20	5042
2026-01-28 10:47:15.35	179.71	21.36	-29.8	-32.6	13.7	1.37e-05	0	43	0	265289728	20	4935
2026-01-28 10:47:16.36	179.78	21.50	-29.8	-32.5	13.7	9.10e-06	0	43	0	266338304	20	4921
2026-01-28 10:47:17.36	179.85	21.64	-29.8	-32.6	13.7	8.30e-06	0	43	0	268435456	20	4933
2026-01-28 10:47:18.36	179.92	21.77	-29.8	-32.5	13.8	6.80e-06	0	43	0	270532608	20	4902
2026-01-28 10:47:19.36	179.99	21.91	-29.9	-32.7	13.6	6.10e-06	0	43	0	272629760	20	4988
2026-01-28 10:47:20.35	180.06	22.04	-29.9	-32.7	13.7	3.80e-06	0	43	0	273678336	20	4971
2026-01-28 10:47:21.36	180.13	22.18	-30.0	-32.9	13.6	6.10e-06	0	43	0	275775488	20	5038
2026-01-28 10:47:22.36	180.20	22.32	-30.0	-33.0	13.5	1.22e-05	0	43	0	277872640	20	5091
2026-01-28 10:47:23.36	180.28	22.46	-30.0	-33.1	13.5	1.29e-05	0	43	0	279969792	20	5107
2026-01-28 10:47:24.37	180.35	22.60	-29.9	-32.8	13.6	9.90e-06	0	43	0	282066944	20	5014
2026-01-28 10:47:25.36	180.43	22.74	-29.8	-32.6	13.7	8.30e-06	0	43	0	283115520	20	4932
2026-01-28 10:47:26.37	180.50	22.88	-30.0	-32.9	13.5	3.80e-06	0	43	0	285212672	20	5064
2026-01-28 10:47:27.37	180.58	23.03	-30.1	-33.2	13.3	1.44e-05	0	43	0	287309824	20	5156
2026-01-28 10:47:28.37	180.66	23.17	-29.9	-32.8	13.6	9.10e-06	0	43	0	289406976	20	5002
2026-01-28 10:47:29.37	180.73	23.31	-29.9	-32.7	13.7	9.90e-06	0	43	0	291504128	20	4973
2026-01-28 10:47:30.37	180.81	23.46	-29.8	-32.4	13.9	1.14e-05	0	43	0	292552704	20	4858
2026-01-28 10:47:31.38	180.89	23.60	-29.8	-32.3	14.0	2.20e-06	0	43	0	294649856	20	4836
2026-01-28 10:47:32.38	180.97	23.75	-29.7	-32.1	14.1	3.80e-06	0	43	0	296747008	20	4772
2026-01-28 10:47:33.38	181.05	23.90	-29.7	-32.2	14.0	3.00e-06	0	43	0	298844160	20	4801
2026-01-28 10:47:34.38	181.13	24.04	-29.8	-32.4	14.0	4.50e-06	0	43	0	300941312	20	4834
2026-01-28 10:47:35.39	181.21	24.19	-29.7	-32.2	14.0	1.50e-06	0	43	0	301989888	20	4796
2026-01-28 10:47:36.39	181.30	24.34	-29.6	-31.9	14.2	2.20e-06	0	43	0	304087040	20	4702
2026-01-28 10:47:37.39	181.38	24.49	-29.6	-31.8	14.3	7.00e-07	0	43	0	306184192	20	4663
2026-01-28 10:47:38.40	181.47	24.64	-29.6	-31.9	14.3	1.50e-06	0	43	0	308281344	20	4693
2026-01-28 10:47:39.40	181.55	24.80	-29.5	-31.7	14.4	6.80e-06	0	43	0	310378496	20	4612
2026-01-28 10:47:40.41	181.64	24.95	-29.6	-31.8	14.3	1.50e-06	0	43	0	311427072	20	4642
2026-01-28 10:47:41.41	181.72	25.10	-29.6	-31.9	14.3	2.20e-06	0	43	0	313524224	20	4682
2026-01-28 10:47:42.42	181.81	25.26	-29.5	-31.6	14.5	3.80e-06	0	43	0	315621376	20	4569
2026-01-28 10:47:43.43	181.90	25.41	-29.4	-31.5	14.6	7.00e-07	0	43	0	317718528	20	4536
2026-01-28 10:47:44.43	181.99	25.57	-29.5	-31.5	14.5	7.00e-07	0	43	0	318767104	20	4556
2026-01-28 10:47:45.44	182.08	25.73	-29.4	-31.4	14.6	1.50e-06	0	43	0	320864256	20	4522
2026-01-28 10:47:46.44	182.17	25.88	-29.4	-31.2	14.7	1.50e-06	0	43	0	322961408	20	4461
2026-01-28 10:47:47.45	182.26	26.04	-29.3	-31.2	14.8	0.00e+00	0	43	0	325058560	20	4445
2026-01-28 10:47:48.45	182.35	26.20	-29.4	-31.4	14.6	0.00e+00	0	43	0	327155712	20	4508
2026-01-28 10:47:49.45	182.45	26.36	-29.5	-31.5	14.6	7.00e-07	0	43	0	329252864	20	4541
2026-01-28 10:47:50.45	182.54	26.52	-29.3	-31.0	14.8	7.00e-07	0	43	0	330301440	20	4404
2026-01-28 10:47:51.46	182.64	26.69	-29.4	-31.2	14.7	7.00e-07	0	43	0	332398592	20	4463
2026-01-28 10:47:52.46	182.73	26.85	-29.5	-31.5	14.6	0.00e+00	0	43	0	334495744	20	4534
2026-01-28 10:47:53.46	182.83	27.01	-29.5	-31.6	14.5	7.00e-07	0	43	0	336592896	20	4571
2026-01-28 10:47:54.46	182.93	27.18	-29.5	-31.5	14.6	0.00e+00	0	43	0	337641472	20	4553
2026-01-28 10:47:55.46	183.03	27.34	-29.6	-31.8	14.4	0.00e+00	0	43	0	339738624	20	4639
2026-01-28 10:47:56.47	183.13	27.51	-29.6	-31.7	14.5	1.50e-06	0	43	0	341835776	20	4624
2026-01-28 10:47:57.47	183.23	27.68	-29.5	-31.6	14.6	1.50e-06	0	43	0	343932928	20	4570
2026-01-28 10:47:58.47	183.33	27.85	-29.5	-31.4	14.7	7.00e-07	0	43	0	346030080	20	4526
2026-01-28 10:47:59.48	183.43	28.02	-29.5	-31.5	14.6	0.00e+00	0	43	0	347078656	20	4533
2026-01-28 10:48:00.48	183.54	28.19	-29.5	-31.7	14.5	2.20e-06	0	43	0	349175808	20	4591
2026-01-28 10:48:01.48	183.64	28.36	-29.6	-31.8	14.4	7.00e-07	0	43	0	351272960	20	4633
2026-01-28 10:48:02.48	183.75	28.53	-29.8	-32.2	14.2	3.00e-06	0	43	0	353370112	20	4772
2026-01-28 10:48:03.49	183.86	28.70	-29.7	-32.1	14.3	7.00e-07	0	43	0	355467264	20	4731
2026-01-28 10:48:04.49	183.97	28.88	-29.8	-32.3	14.1	1.50e-06	0	43	0	356515840	20	4812
2026-01-28 10:48:05.49	184.08	29.05	-30.0	-32.9	13.7	6.80e-06	0	43	0	358612992	20	5031
2026-01-28 10:48:06.50	184.19	29.23	-30.1	-33.1	13.6	4.50e-06	0	43	0	360710144	20	5096
2026-01-28 10:48:07.50	184.30	29.41	-30.2	-33.5	13.4	9.90e-06	0	43	0	362807296	20	5232
2026-01-28 10:48:08.50	184.41	29.58	-30.3	-33.8	13.2	1.98e-05	0	43	0	364904448	20	5359
2026-01-28 10:48:09.50	184.53	29.76	-30.4	-34.1	13.0	2.05e-05	0	43	0	365953024	20	5465
2026-01-28 10:48:10.51	184.64	29.94	-30.4	-33.6	13.0	6.17e-05	0	43	0	368050176	21	5173
2026-01-28 10:48:11.52	184.76	30.13	-30.3	-33.2	13.3	2.21e-05	0	43	0	370147328	21	5012
2026-01-28 10:48:12.52	184.88	30.31	-30.3	-33.3	13.2	2.74e-05	0	43	0	372244480	21	5059
2026-01-28 10:48:13.52	185.00	30.49	-30.3	-33.1	13.3	1.83e-05	0	43	0	374341632	21	4982
2026-01-28 10:48:14.53	185.12	30.68	-30.3	-33.3	13.2	1.90e-05	0	43	0	375390208	21	5055
2026-01-28 10:48:15.53	185.24	30.86	-30.3	-33.3	13.2	2.59e-05	0	43	0	377487360	21	5062
2026-01-28 10:48:16.53	185.36	31.05	-30.4	-33.4	13.1	2.36e-05	0	43	0	379584512	21	5082
2026-01-28 10:48:17.54	185.49	31.24	-30.4	-33.5	13.0	3.73e-05	0	43	0	381681664	21	5148
2026-01-28 10:48:18.54	185.62	31.42	-30.6	-33.9	12.8	6.94e-05	0	43	0	383778816	21	5282
2026-01-28 10:48:19.55	185.75	31.62	-30.7	-34.3	12.5	1.07e-04	0	43	0	384827392	21	5463
2026-01-28 10:48:20.56	185.88	31.81	-30.8	-34.6	12.3	1.25e-04	0	43	0	386924544	21	5582
2026-01-28 10:48:21.56	186.01	32.00	-30.8	-34.7	12.3	1.65e-04	0	43	0	389021696	21	5603
2026-01-28 10:48:22.56	186.14	32.19	-30.9	-35.0	12.0	3.70e-04	0	43	0	391118848	21	5763
2026-01-28 10:48:23.56	186.27	32.38	-30.9	-34.8	12.2	2.58e-04	0	43	0	392167424	21	5677
2026-01-28 10:48:24.56	186.41	32.58	-30.9	-34.8	12.2	2.49e-04	0	43	0	394264576	21	5680
2026-01-28 10:48:25.56	186.54	32.77	-30.8	-34.5	12.3	2.03e-04	0	43	0	396361728	21	5556
2026-01-28 10:48:26.56	186.68	32.97	-30.7	-34.4	12.4	1.56e-04	0	43	0	398458880	21	5514
2026-01-28 10:48:27.56	186.82	33.17	-30.8	-34.7	12.2	1.93e-04	0	43	0	400556032	21	5610
2026-01-28 10:48:28.57	186.97	33.37	-30.9	-34.8	12.2	1.85e-04	0	43	0	401604608	21	5642
2026-01-28 10:48:29.57	187.11	33.57	-30.9	-34.7	12.3	2.40e-04	0	43	0	403701760	21	5622
2026-01-28 10:48:30.57	187.25	33.77	-31.0	-34.7	12.0	2.23e-04	0	43	0	405798912	22	5502
2026-01-28 10:48:31.57	187.40	33.97	-31.2	-35.2	11.7	3.90e-04	0	43	0	407896064	22	5697
2026-01-28 10:48:32.58	187.55	34.18	-31.1	-35.0	11.7	5.95e-04	0	43	0	409993216	22	5634
2026-01-28 10:48:33.58	187.70	34.38	-31.0	-34.8	11.9	4.19e-04	0	43	0	411041792	22	5552
2026-01-28 10:48:34.59	187.85	34.59	-31.0	-34.6	12.0	3.58e-04	0	43	0	413138944	22	5476
2026-01-28 10:48:35.59	188.01	34.80	-31.0	-34.7	12.0	3.07e-04	0	43	0	415236096	22	5500
2026-01-28 10:48:36.60	188.17	35.01	-31.1	-35.1	11.7	4.37e-04	0	43	0	417333248	22	5671
2026-01-28 10:48:37.60	188.32	35.22	-31.2	-35.1	11.7	5.50e-04	0	43	0	419430400	22	5693
2026-01-28 10:48:38.61	188.49	35.43	-31.3	-35.4	11.4	1.01e-03	0	43	0	420478976	22	5830
2026-01-28 10:48:39.61	188.65	35.64	-31.2	-35.4	11.5	8.17e-04	0	43	0	422576128	22	5812
2026-01-28 10:48:40.61	188.81	35.85	-31.2	-35.3	11.5	8.93e-04	0	43	0	424673280	22	5759
2026-01-28 10:48:41.62	188.98	36.07	-31.1	-34.9	11.8	7.45e-04	0	43	0	426770432	22	5607
2026-01-28 10:48:42.62	189.15	36.29	-31.1	-35.0	11.8	4.19e-04	0	43	0	428867584	22	5618
2026-01-28 10:48:43.62	189.32	36.50	-31.0	-34.8	11.9	4.00e-04	0	43	0	429916160	22	5532
2026-01-28 10:48:44.62	189.49	36.72	-31.1	-34.9	11.8	2.88e-04	0	43	0	432013312	22	5595
2026-01-28 10:48:45.63	189.67	36.94	-31.0	-34.6	12.0	4.24e-04	0	43	0	434110464	22	5459
2026-01-28 10:48:46.63	189.85	37.16	-31.2	-35.3	11.6	3.65e-04	0	43	0	436207616	22	5765
2026-01-28 10:48:47.64	190.03	37.38	-31.3	-35.4	11.5	7.14e-04	0	43	0	437256192	22	5832
2026-01-28 10:48:48.64	190.21	37.60	-31.2	-35.4	11.5	8.51e-04	0	43	0	439353344	22	5815
2026-01-28 10:48:49.64	190.40	37.83	-31.4	-35.8	11.2	9.70e-04	0	43	0	441450496	22	6008
2026-01-28 10:48:50.64	190.58	38.05	-31.4	-35.9	11.2	1.58e-03	0	43	0	443547648	22	6034
2026-01-28 10:48:51.65	190.77	38.28	-31.4	-35.8	11.2	1.19e-03	0	43	0	445644800	22	5979
2026-01-28 10:48:52.66	190.97	38.51	-31.5	-36.1	11.0	1.39e-03	0	43	0	447741952	22	6144
2026-01-28 10:48:53.66	191.16	38.74	-31.7	-36.2	10.6	2.96e-03	0	43	0	448790528	23	6088
2026-01-28 10:48:54.66	191.36	38.97	-31.7	-36.3	10.5	4.16e-03	0	43	0	450887680	23	6100
2026-01-28 10:48:55.65	191.56	39.19	-31.6	-36.0	10.8	2.62e-03	0	43	0	452984832	23	5951
2026-01-28 10:48:56.65	191.76	39.42	-31.5	-35.8	10.9	2.26e-03	0	43	0	455081984	23	5879
2026-01-28 10:48:57.66	191.97	39.66	-31.4	-35.4	11.1	1.83e-03	0	43	0	456130560	23	5700
2026-01-28 10:48:58.67	192.18	39.90	-31.3	-35.1	11.4	1.30e-03	0	43	0	458227712	23	5561
2026-01-28 10:48:59.67	192.39	40.13	-31.2	-34.6	11.7	7.14e-04	0	43	0	460324864	23	5361
2026-01-28 10:49:00.67	192.61	40.37	-31.3	-34.9	11.6	7.10e-04	0	43	0	462422016	23	5490
2026-01-28 10:49:01.67	192.83	40.60	-31.1	-34.4	11.9	6.42e-04	0	43	0	464519168	23	5260
2026-01-28 10:49:02.67	193.05	40.84	-31.0	-34.0	12.2	2.30e-04	0	43	0	465567744	23	5118
2026-01-28 10:49:03.68	193.28	41.08	-30.8	-33.6	12.5	1.46e-04	0	43	0	467664896	23	4929
2026-01-28 10:49:04.68	193.50	41.32	-30.8	-33.6	12.5	1.23e-04	0	43	0	469762048	23	4952
2026-01-28 10:49:05.68	193.73	41.57	-30.7	-33.7	12.7	9.68e-05	0	43	0	471859200	22	5082
2026-01-28 10:49:06.69	193.97	41.81	-30.6	-33.3	13.0	4.34e-05	0	43	0	473956352	22	4952
2026-01-28 10:49:07.69	194.21	42.05	-30.4	-32.8	13.3	1.90e-05	0	43	0	475004928	22	4755
2026-01-28 10:49:08.69	194.45	42.30	-30.4	-33.0	13.3	1.83e-05	0	43	0	477102080	22	4808
2026-01-28 10:49:09.69	194.70	42.54	-30.3	-32.7	13.4	1.06e-05	0	43	0	479199232	22	4707
2026-01-28 10:49:10.69	194.95	42.79	-30.3	-32.6	13.5	1.44e-05	0	43	0	481296384	22	4688
2026-01-28 10:49:11.70	195.20	43.04	-30.2	-32.7	13.7	8.30e-06	0	43	0	483393536	21	4822
2026-01-28 10:49:12.70	195.46	43.29	-30.2	-32.9	13.6	9.90e-06	0	43	0	484442112	21	4884
2026-01-28 10:49:13.71	195.72	43.54	-30.2	-32.9	13.6	2.20e-06	0	43	0	486539264	21	4909
2026-01-28 10:49:14.71	195.99	43.79	-30.5	-33.5	13.2	1.44e-05	0	43	0	488636416	21	5132
2026-01-28 10:49:15.71	196.26	44.05	-30.7	-34.2	12.8	4.42e-05	0	43	0	490733568	21	5390
2026-01-28 10:49:16.71	196.53	44.30	-30.8	-34.6	12.5	1.01e-04	0	43	0	492830720	21	5547
2026-01-28 10:49:17.71	196.81	44.55	-30.7	-34.2	12.8	1.02e-04	0	43	0	493879296	21	5381
2026-01-28 10:49:18.72	197.09	44.81	-30.5	-33.5	13.2	5.26e-05	0	43	0	495976448	21	5104
2026-01-28 10:49:19.72	197.38	45.07	-30.4	-33.2	13.4	1.37e-05	0	43	0	498073600	21	5010
2026-01-28 10:49:20.72	197.67	45.32	-30.5	-33.7	13.1	9.90e-06	0	43	0	500170752	21	5178
2026-01-28 10:49:21.72	197.96	45.58	-30.4	-33.5	13.3	3.81e-05	0	43	0	501219328	21	5095
2026-01-28 10:49:22.73	198.27	45.84	-30.8	-34.4	12.7	6.48e-05	0	43	0	503316480	21	5444
2026-01-28 10:49:23.74	198.58	46.10	-31.0	-34.5	12.2	1.66e-04	0	43	0	505413632	22	5409
2026-01-28 10:49:24.74	198.89	46.36	-31.3	-35.4	11.7	3.81e-04	0	43	0	507510784	22	5763
2026-01-28 10:49:25.75	199.21	46.62	-31.3	-35.4	11.7	6.10e-04	0	43	0	509607936	22	5802
2026-01-28 10:49:26.75	199.53	46.89	-31.2	-35.1	11.9	4.24e-04	0	43	0	510656512	22	5638
2026-01-28 10:49:27.76	199.86	47.15	-31.2	-35.2	11.8	4.95e-04	0	43	0	512753664	22	5717
2026-01-28 10:49:28.75	200.18	47.41	-31.2	-35.2	11.8	5.24e-04	0	43	0	514850816	22	5701
2026-01-28 10:49:29.76	200.52	47.67	-30.8	-33.9	12.6	1.51e-04	0	43	0	516947968	22	5171
2026-01-28 10:49:30.76	200.87	47.94	-30.6	-33.5	12.9	5.26e-05	0	43	0	519045120	22	4991
2026-01-28 10:49:31.77	201.22	48.20	-30.7	-33.8	12.8	2.89e-05	0	43	0	520093696	22	5098
2026-01-28 10:49:32.77	201.57	48.47	-30.8	-33.9	12.7	5.79e-05	0	43	0	522190848	22	5143
2026-01-28 10:49:33.78	201.94	48.74	-30.9	-34.3	12.4	1.23e-04	0	43	0	524288000	22	5319
2026-01-28 10:49:34.79	202.31	49.00	-31.0	-34.4	12.3	1.20e-04	0	43	0	526385152	22	5372
2026-01-28 10:49:35.79	202.68	49.27	-31.0	-34.6	12.3	1.72e-04	0	43	0	528482304	22	5416
2026-01-28 10:49:36.79	203.06	49.54	-30.8	-34.0	12.6	1.22e-04	0	43	0	529530880	22	5183
2026-01-28 10:49:37.80	203.45	49.81	-30.4	-32.9	13.4	4.27e-05	0	43	0	531628032	22	4790
2026-01-28 10:49:38.80	203.85	50.07	-30.5	-33.6	13.3	1.29e-05	0	43	0	533725184	21	5150
2026-01-28 10:49:39.80	204.25	50.34	-30.4	-33.2	13.5	1.22e-05	0	43	0	535822336	21	4983
2026-01-28 10:49:40.81	204.66	50.61	-30.0	-32.1	14.1	3.00e-06	0	43	0	537919488	21	4626
2026-01-28 10:49:41.82	205.08	50.88	-29.8	-31.7	14.5	2.20e-06	0	43	0	538968064	21	4470
2026-01-28 10:49:42.82	205.50	51.14	-29.5	-31.4	14.9	0.00e+00	0	43	0	541065216	20	4504
2026-01-28 10:49:43.82	205.93	51.41	-29.1	-31.0	15.6	0.00e+00	0	43	0	543162368	19	4451
2026-01-28 10:49:44.83	206.37	51.68	-28.7	-30.4	16.2	0.00e+00	0	43	0	545259520	18	4377
2026-01-28 10:49:45.83	206.81	51.94	-28.5	-29.9	16.5	0.00e+00	0	43	0	547356672	18	4240
2026-01-28 10:49:46.83	207.27	52.21	-28.6	-30.2	16.4	0.00e+00	0	43	0	548405248	18	4333
2026-01-28 10:49:47.84	207.73	52.48	-28.5	-30.1	16.5	0.00e+00	0	43	0	550502400	18	4286
2026-01-28 10:49:48.84	208.20	52.74	-28.5	-29.9	16.6	0.00e+00	0	43	0	552599552	18	4232
2026-01-28 10:49:49.84	208.68	53.01	-28.6	-30.1	16.5	0.00e+00	0	43	0	554696704	18	4291
2026-01-28 10:49:50.84	209.16	53.27	-28.6	-30.1	16.4	0.00e+00	0	43	0	556793856	18	4293
2026-01-28 10:49:51.85	209.66	53.54	-28.5	-30.0	16.6	0.00e+00	0	43	0	557842432	18	4274
2026-01-28 10:49:52.85	210.17	53.80	-28.5	-29.9	16.5	0.00e+00	0	43	0	559939584	18	4253
2026-01-28 10:49:53.86	210.69	54.06	-28.5	-30.0	16.5	0.00e+00	0	43	0	562036736	18	4257
2026-01-28 10:49:54.85	211.20	54.32	-28.8	-30.6	16.1	0.00e+00	0	43	0	564133888	18	4443
2026-01-28 10:49:55.86	211.74	54.58	-29.4	-32.0	15.4	0.00e+00	0	43	0	566231040	18	4884
2026-01-28 10:49:56.87	212.29	54.84	-29.6	-32.2	14.9	0.00e+00	0	43	0	567279616	19	4832
2026-01-28 10:49:57.87	212.84	55.10	-30.0	-32.8	14.2	1.50e-06	0	43	0	569376768	20	4932
2026-01-28 10:49:58.87	213.40	55.35	-29.7	-32.0	14.7	1.50e-06	0	43	0	571473920	20	4668
2026-01-28 10:49:59.87	213.97	55.61	-29.5	-31.5	15.0	0.00e+00	0	43	0	573571072	20	4502
2026-01-28 10:50:00.88	214.56	55.86	-29.7	-31.9	14.8	7.00e-07	0	43	0	574619648	20	4632
2026-01-28 10:50:01.88	215.15	56.11	-29.8	-32.2	14.6	0.00e+00	0	43	0	576716800	20	4736
2026-01-28 10:50:02.88	215.75	56.36	-30.0	-32.6	14.3	1.50e-06	0	43	0	578813952	20	4866
2026-01-28 10:50:03.88	216.37	56.61	-30.4	-33.7	13.7	3.00e-06	0	43	0	580911104	20	5259
2026-01-28 10:50:04.89	217.00	56.85	-30.3	-33.5	13.7	5.30e-06	0	43	0	583008256	20	5212
2026-01-28 10:50:05.90	217.64	57.10	-30.2	-33.3	13.9	3.80e-06	0	43	0	585105408	20	5128
2026-01-28 10:50:06.90	218.29	57.34	-30.2	-33.3	13.9	2.20e-06	0	43	0	586153984	20	5120
2026-01-28 10:50:07.91	218.95	57.58	-30.2	-33.1	14.0	1.50e-06	0	43	0	588251136	20	5051
2026-01-28 10:50:08.91	219.62	57.81	-30.4	-33.6	13.7	5.30e-06	0	43	0	590348288	20	5230
2026-01-28 10:50:09.92	220.31	58.05	-30.5	-33.5	13.5	7.60e-06	0	43	0	592445440	21	5078
2026-01-28 10:50:10.92	221.00	58.27	-30.3	-32.9	13.9	9.10e-06	0	43	0	593494016	21	4872
2026-01-28 10:50:11.93	221.72	58.50	-29.7	-32.0	14.7	7.00e-07	0	43	0	595591168	20	4656
2026-01-28 10:50:12.93	222.43	58.72	-29.8	-32.1	14.7	0.00e+00	0	43	0	597688320	20	4716
2026-01-28 10:50:13.94	223.17	58.95	-29.6	-31.6	15.0	7.00e-07	0	43	0	599785472	20	4551
2026-01-28 10:50:14.94	223.91	59.16	-29.4	-31.2	15.3	0.00e+00	0	43	0	601882624	20	4415
2026-01-28 10:50:15.94	224.67	59.37	-29.4	-31.6	15.4	7.00e-07	0	43	0	602931200	19	4632
2026-01-28 10:50:16.94	225.43	59.58	-29.4	-31.5	15.4	0.00e+00	0	43	0	605028352	19	4589
2026-01-28 10:50:17.95	226.22	59.79	-29.1	-31.0	15.8	0.00e+00	0	43	0	607125504	19	4432
2026-01-28 10:50:18.94	227.00	59.99	-28.9	-30.4	16.1	0.00e+00	0	43	0	609222656	19	4273
2026-01-28 10:50:19.94	227.80	60.18	-29.2	-31.0	15.7	0.00e+00	0	43	0	611319808	19	4450
2026-01-28 10:50:20.94	228.62	60.37	-29.2	-31.1	15.6	0.00e+00	0	43	0	612368384	19	4487
2026-01-28 10:50:21.94	229.44	60.56	-29.5	-31.9	15.2	0.00e+00	0	43	0	614465536	19	4738
2026-01-28 10:50:22.95	230.29	60.74	-29.0	-30.7	15.8	0.00e+00	0	43	0	616562688	19	4346
2026-01-28 10:50:23.95	231.14	60.92	-29.1	-30.9	15.8	0.00e+00	0	43	0	618659840	19	4412
2026-01-28 10:50:24.95	232.00	61.09	-29.6	-32.0	15.1	0.00e+00	0	43	0	620756992	19	4764
2026-01-28 10:50:25.96	232.88	61.26	-29.7	-32.3	15.0	0.00e+00	0	43	0	621805568	19	4870
2026-01-28 10:50:26.96	233.77	61.42	-29.7	-32.3	15.0	0.00e+00	0	43	0	623902720	19	4849
2026-01-28 10:50:27.96	234.67	61.58	-29.8	-32.6	14.8	0.00e+00	0	43	0	625999872	19	4948
2026-01-28 10:50:28.97	235.58	61.73	-29.2	-31.1	15.7	0.00e+00	0	43	0	628097024	19	4462
2026-01-28 10:50:29.97	236.50	61.87	-29.0	-30.6	16.0	0.00e+00	0	43	0	630194176	19	4336
2026-01-28 10:50:30.98	237.44	62.01	-29.4	-31.5	15.5	0.00e+00	0	43	0	631242752	19	4603
2026-01-28 10:50:31.99	238.39	62.15	-29.6	-32.2	15.1	0.00e+00	0	43	0	633339904	19	4816
2026-01-28 10:50:32.98	239.33	62.27	-29.5	-31.7	15.4	0.00e+00	0	43	0	635437056	19	4655
2026-01-28 10:50:33.99	240.30	62.39	-29.3	-31.2	15.7	0.00e+00	0	43	0	637534208	19	4502
2026-01-28 10:50:34.99	241.27	62.50	-29.5	-31.7	15.4	0.00e+00	0	43	0	638582784	19	4672
2026-01-28 10:50:35.99	242.24	62.61	-29.4	-31.5	15.5	0.00e+00	0	43	0	640679936	19	4604
2026-01-28 10:50:36.99	243.23	62.71	-30.0	-32.6	14.5	0.00e+00	0	43	0	642777088	20	4856
2026-01-28 10:50:38.00	244.23	62.80	-29.9	-32.3	14.7	7.00e-07	0	43	0	644874240	20	4738
2026-01-28 10:50:39.00	245.23	62.88	-29.4	-31.2	15.4	0.00e+00	0	43	0	646971392	20	4395
2026-01-28 10:50:40.00	246.24	62.96	-29.1	-30.9	15.9	0.00e+00	0	43	0	648019968	19	4402
2026-01-28 10:50:41.01	247.26	63.03	-29.2	-31.1	15.8	0.00e+00	0	43	0	650117120	19	4469
2026-01-28 10:50:42.01	248.28	63.09	-29.8	-32.6	14.9	0.00e+00	0	43	0	652214272	19	4959
2026-01-28 10:50:43.01	249.30	63.15	-29.9	-32.4	14.6	7.00e-07	0	43	0	654311424	20	4781
2026-01-28 10:50:44.01	250.33	63.20	-30.1	-32.8	14.3	0.00e+00	0	43	0	656408576	20	4927
2026-01-28 10:50:45.01	251.36	63.24	-29.4	-31.2	15.3	0.00e+00	0	43	0	657457152	20	4388
2026-01-28 10:50:46.01	252.40	63.27	-29.2	-30.9	15.9	0.00e+00	0	43	0	659554304	19	4414
2026-01-28 10:50:47.02	253.44	63.29	-29.2	-30.9	15.9	0.00e+00	0	43	0	661651456	19	4413
2026-01-28 10:50:48.03	254.49	63.31	-29.3	-31.3	15.7	0.00e+00	0	43	0	663748608	19	4512
2026-01-28 10:50:49.03	255.53	63.32	-29.1	-30.9	15.9	0.00e+00	0	43	0	665845760	19	4402
2026-01-28 10:50:50.03	256.57	63.32	-28.5	-29.9	16.8	7.00e-07	0	43	0	666894336	18	4221
2026-01-28 10:50:51.04	257.63	63.32	-28.5	-30.0	16.8	0.00e+00	0	43	0	668991488	18	4240
2026-01-28 10:50:52.04	258.67	63.30	-28.8	-30.6	16.4	0.00e+00	0	43	0	671088640	18	4420
2026-01-28 10:50:53.04	259.70	63.28	-28.7	-30.3	16.5	7.00e-07	0	43	0	673185792	18	4343
2026-01-28 10:50:54.05	260.75	63.25	-28.7	-30.4	16.5	0.00e+00	0	43	0	675282944	18	4358
2026-01-28 10:50:55.05	261.78	63.21	-28.9	-30.8	16.2	0.00e+00	0	43	0	676331520	18	4489
2026-01-28 10:50:56.06	262.82	63.17	-28.7	-30.3	16.5	0.00e+00	0	43	0	678428672	18	4342
2026-01-28 10:50:57.06	263.85	63.12	-29.2	-31.6	15.8	0.00e+00	0	43	0	680525824	18	4725
2026-01-28 10:50:58.07	264.88	63.06	-29.1	-31.3	16.0	0.00e+00	0	43	0	682622976	18	4625
2026-01-28 10:50:59.07	265.89	62.99	-29.0	-31.1	16.1	1.50e-06	0	43	0	684720128	18	4563
2026-01-28 10:51:00.07	266.90	62.92	-29.4	-32.0	15.5	0.00e+00	0	43	0	685768704	18	4861
2026-01-28 10:51:01.07	267.90	62.83	-28.9	-30.8	16.2	0.00e+00	0	43	0	687865856	18	4486
2026-01-28 10:51:02.07	268.90	62.75	-28.7	-30.4	16.5	0.00e+00	0	43	0	689963008	18	4350
2026-01-28 10:51:03.08	269.90	62.65	-28.5	-29.7	16.9	0.00e+00	0	43	0	692060160	18	4178
2026-01-28 10:51:04.08	270.87	62.55	-28.6	-30.1	16.6	0.00e+00	0	43	0	693108736	18	4282
2026-01-28 10:51:05.08	271.85	62.44	-28.8	-30.7	16.4	0.00e+00	0	43	0	695205888	18	4445
2026-01-28 10:51:06.09	272.82	62.32	-29.4	-32.1	15.5	0.00e+00	0	43	0	697303040	18	4886
2026-01-28 10:51:07.10	273.78	62.20	-29.4	-31.9	15.6	0.00e+00	0	43	0	699400192	18	4844
2026-01-28 10:51:08.10	274.72	62.07	-29.6	-32.1	15.2	0.00e+00	0	43	0	701497344	19	4792
2026-01-28 10:51:09.11	275.66	61.93	-29.8	-32.6	14.9	0.00e+00	0	43	0	703594496	19	4965
2026-01-28 10:51:10.11	276.58	61.79	-30.0	-32.9	14.8	0.00e+00	0	43	0	704643072	19	5059
2026-01-28 10:51:11.12	277.50	61.64	-30.6	-33.7	13.5	6.80e-06	0	43	0	706740224	21	5138
2026-01-28 10:51:12.12	278.40	61.49	-30.3	-32.8	14.1	6.10e-06	0	43	0	708837376	21	4813
2026-01-28 10:51:13.13	279.30	61.33	-30.1	-32.3	14.4	7.00e-07	0	43	0	710934528	21	4647
2026-01-28 10:51:14.13	280.18	61.16	-30.1	-32.3	14.4	7.00e-07	0	43	0	711983104	21	4635
2026-01-28 10:51:15.13	281.05	60.99	-30.6	-33.6	13.5	3.00e-06	0	43	0	714080256	21	5127
2026-01-28 10:51:16.13	281.90	60.82	-30.7	-33.9	13.4	1.37e-05	0	43	0	716177408	21	5236
2026-01-28 10:51:17.14	282.75	60.64	-31.4	-35.4	12.0	8.01e-05	0	43	0	718274560	22	5732
2026-01-28 10:51:18.14	283.58	60.45	-31.0	-34.2	12.8	8.77e-05	0	43	0	720371712	22	5226
2026-01-28 10:51:19.15	284.41	60.26	-30.4	-32.5	14.0	9.90e-06	0	43	0	721420288	22	4626
2026-01-28 10:51:20.15	285.21	60.07	-30.4	-32.7	13.9	1.50e-06	0	43	0	723517440	22	4670
2026-01-28 10:51:21.16	286.01	59.87	-30.7	-33.5	13.3	1.52e-05	0	43	0	725614592	22	4944
2026-01-28 10:51:22.16	286.79	59.67	-30.6	-33.2	13.5	1.52e-05	0	43	0	727711744	22	4858
2026-01-28 10:51:23.16	287.56	59.46	-30.8	-33.6	13.3	1.06e-05	0	43	0	729808896	22	4984
2026-01-28 10:51:24.15	288.31	59.25	-31.3	-35.0	12.3	1.05e-04	0	43	0	730857472	22	5558
2026-01-28 10:51:25.15	289.06	59.04	-31.4	-35.5	12.0	3.70e-04	0	43	0	732954624	22	5749
2026-01-28 10:51:26.16	289.80	58.82	-31.5	-35.3	11.8	5.37e-04	0	43	0	735051776	23	5544
2026-01-28 10:51:27.16	290.52	58.60	-31.0	-33.7	12.8	2.26e-04	0	43	0	737148928	23	4948
2026-01-28 10:51:28.16	291.23	58.37	-30.4	-32.6	13.9	6.80e-06	0	43	0	739246080	22	4653
2026-01-28 10:51:29.17	291.93	58.14	-30.1	-32.4	14.4	7.00e-07	0	43	0	740294656	21	4666
2026-01-28 10:51:30.18	292.62	57.91	-30.4	-33.0	13.9	2.20e-06	0	43	0	742391808	21	4890
2026-01-28 10:51:31.18	293.30	57.68	-30.8	-34.2	13.2	1.83e-05	0	43	0	744488960	21	5341
2026-01-28 10:51:32.18	293.96	57.44	-30.8	-34.2	13.2	3.96e-05	0	43	0	746586112	21	5338
2026-01-28 10:51:33.18	294.61	57.21	-30.1	-32.4	14.4	5.30e-06	0	43	0	748683264	21	4659
2026-01-28 10:51:34.18	295.25	56.97	-29.8	-31.6	14.8	7.00e-07	0	43	0	749731840	21	4425
2026-01-28 10:51:35.19	295.88	56.72	-29.5	-31.4	15.3	0.00e+00	0	43	0	751828992	20	4457
2026-01-28 10:51:36.20	296.51	56.47	-29.5	-31.2	15.4	0.00e+00	0	43	0	753926144	20	4400
2026-01-28 10:51:37.21	297.12	56.22	-29.7	-31.9	15.0	0.00e+00	0	43	0	756023296	20	4605
2026-01-28 10:51:38.21	297.71	55.98	-29.5	-31.2	15.4	0.00e+00	0	43	0	758120448	20	4398
2026-01-28 10:51:39.21	298.30	55.73	-29.4	-31.0	15.6	0.00e+00	0	43	0	759169024	20	4329
2026-01-28 10:51:40.22	298.88	55.47	-29.2	-31.0	15.8	7.00e-07	0	43	0	761266176	19	4434
2026-01-28 10:51:41.22	299.44	55.22	-28.6	-30.0	16.7	0.00e+00	0	43	0	763363328	18	4263
2026-01-28 10:51:42.23	300.00	54.96	-27.9	-29.1	17.5	0.00e+00	0	43	0	765460480	17	4103
2026-01-28 10:51:43.23	300.55	54.70	-27.5	-28.6	18.1	0.00e+00	0	43	0	766509056	16	4071
2026-01-28 10:51:44.23	301.08	54.45	-27.5	-28.6	18.1	0.00e+00	0	43	0	768606208	16	4075
2026-01-28 10:51:45.24	301.61	54.18	-27.7	-29.0	17.9	0.00e+00	0	43	0	770703360	16	4179
2026-01-28 10:51:46.24	302.13	53.92	-27.3	-28.2	18.3	0.00e+00	0	43	0	772800512	16	3976
2026-01-28 10:51:47.24	302.64	53.66	-26.6	-27.5	19.0	0.00e+00	0	43	0	774897664	14	4022
2026-01-28 10:51:48.25	303.14	53.40	-26.7	-27.7	18.9	0.00e+00	0	43	0	776994816	14	4076
2026-01-28 10:51:49.25	303.63	53.14	-27.2	-28.9	18.2	0.00e+00	0	43	0	778043392	14	4404
2026-01-28 10:51:50.25	304.11	52.87	-27.6	-29.3	17.8	0.00e+00	0	43	0	780140544	15	4377
2026-01-28 10:51:51.25	304.58	52.61	-27.6	-29.2	17.8	0.00e+00	0	43	0	782237696	15	4368
2026-01-28 10:51:52.26	305.05	52.34	-27.6	-29.3	17.8	0.00e+00	0	43	0	784334848	15	4387
2026-01-28 10:51:53.26	305.50	52.08	-27.4	-29.0	17.9	0.00e+00	0	43	0	785383424	15	4297
2026-01-28 10:51:54.27	305.95	51.81	-27.8	-29.7	17.6	0.00e+00	0	43	0	787480576	15	4511
2026-01-28 10:51:55.26	306.39	51.55	-28.2	-30.1	17.2	0.00e+00	0	43	0	789577728	16	4500
2026-01-28 10:51:56.27	306.82	51.28	-28.9	-31.3	16.3	0.00e+00	0	43	0	791674880	17	4753
2026-01-28 10:51:57.27	307.25	51.02	-29.5	-31.8	15.4	0.00e+00	0	43	0	793772032	19	4680
2026-01-28 10:51:58.27	307.67	50.75	-29.6	-32.0	15.2	2.20e-06	0	43	0	794820608	19	4748
2026-01-28 10:51:59.28	308.08	50.48	-29.1	-30.8	16.0	0.00e+00	0	43	0	796917760	19	4361
2026-01-28 10:52:00.28	308.48	50.22	-29.3	-31.3	15.7	0.00e+00	0	43	0	799014912	19	4515
2026-01-28 10:52:01.28	308.88	49.95	-30.3	-33.2	14.1	0.00e+00	0	43	0	801112064	20	5076
2026-01-28 10:52:02.29	309.27	49.68	-31.5	-35.8	11.8	1.31e-04	0	43	0	803209216	22	5903
2026-01-28 10:52:03.29	309.65	49.42	-31.7	-36.0	11.3	1.57e-03	0	43	0	804257792	23	5865
2026-01-28 10:52:04.29	310.03	49.16	-31.4	-35.0	12.0	6.51e-04	0	43	0	806354944	23	5428
2026-01-28 10:52:05.30	310.40	48.89	-31.4	-35.0	12.0	2.68e-04	0	43	0	808452096	23	5435
2026-01-28 10:52:06.30	310.76	48.62	-31.6	-35.5	11.6	5.39e-04	0	43	0	810549248	23	5644
2026-01-28 10:52:07.30	311.12	48.36	-31.6	-35.5	11.7	7.74e-04	0	43	0	812646400	23	5638
2026-01-28 10:52:08.30	311.47	48.10	-31.7	-35.9	11.3	7.53e-04	0	43	0	813694976	23	5834
2026-01-28 10:52:09.31	311.82	47.83	-32.2	-36.9	10.2	3.18e-03	0	43	0	815792128	24	6215
2026-01-28 10:52:10.31	312.16	47.57	-32.7	-38.3	8.9	1.24e-02	0	43	0	817889280	25	6849
2026-01-28 10:52:11.32	312.49	47.31	-32.7	-38.4	8.7	4.18e-02	0	43	0	819986432	25	6955
2026-01-28 10:52:12.32	312.82	47.05	-32.2	-36.5	10.2	1.13e-02	0	43	0	822083584	25	5882
2026-01-28 10:52:13.32	313.14	46.79	-31.7	-35.3	11.3	1.95e-03	0	43	0	823132160	24	5476
2026-01-28 10:52:14.32	313.46	46.53	-31.8	-35.8	11.1	8.81e-04	0	43	0	825229312	24	5678
2026-01-28 10:52:15.32	313.77	46.27	-32.5	-37.7	9.3	1.09e-02	0	43	0	827326464	25	6570
2026-01-28 10:52:16.33	314.08	46.01	-32.7	-38.5	8.6	4.00e-02	0	43	0	829423616	25	7014
2026-01-28 10:52:17.33	314.39	45.75	-32.2	-36.6	10.0	2.23e-02	0	43	0	830472192	25	5977
2026-01-28 10:52:18.33	314.68	45.49	-31.8	-35.5	11.3	3.55e-03	0	43	0	832569344	24	5533
2026-01-28 10:52:19.34	314.98	45.24	-31.9	-35.8	11.1	1.16e-03	0	43	0	834666496	24	5668
2026-01-28 10:52:20.34	315.27	44.98	-32.3	-37.4	9.9	4.44e-03	0	43	0	836763648	24	6450
2026-01-28 10:52:21.34	315.55	44.73	-32.6	-38.1	8.9	1.48e-02	0	43	0	838860800	25	6786
2026-01-28 10:52:22.35	315.83	44.47	-32.4	-37.3	9.5	2.56e-02	0	43	0	839909376	25	6350
2026-01-28 10:52:23.35	316.11	44.22	-31.8	-35.2	11.1	4.70e-03	0	43	0	842006528	25	5322
2026-01-28 10:52:24.35	316.38	43.97	-31.3	-34.1	12.2	7.04e-04	0	43	0	844103680	24	4977
2026-01-28 10:52:25.35	316.65	43.72	-31.2	-34.4	12.4	1.29e-04	0	43	0	846200832	23	5182
2026-01-28 10:52:26.36	316.91	43.47	-31.3	-34.5	12.3	2.41e-04	0	43	0	848297984	23	5229
2026-01-28 10:52:27.36	317.17	43.22	-31.0	-33.7	12.9	1.15e-04	0	43	0	849346560	23	4908
2026-01-28 10:52:28.36	317.42	42.97	-30.9	-33.4	13.1	4.04e-05	0	43	0	851443712	23	4806
2026-01-28 10:52:29.37	317.68	42.72	-31.0	-33.6	12.9	3.20e-05	0	43	0	853540864	23	4884
2026-01-28 10:52:30.37	317.92	42.48	-31.2	-34.3	12.4	6.71e-05	0	43	0	855638016	23	5147
2026-01-28 10:52:31.38	318.17	42.23	-30.9	-33.6	12.9	1.13e-04	0	43	0	857735168	23	4888
2026-01-28 10:52:32.38	318.41	41.99	-30.1	-32.3	14.4	3.00e-06	0	43	0	858783744	21	4648
2026-01-28 10:52:33.38	318.64	41.75	-29.2	-31.1	15.7	0.00e+00	0	43	0	860880896	19	4476
2026-01-28 10:52:34.39	318.88	41.50	-28.8	-30.1	16.4	0.00e+00	0	43	0	862978048	19	4181
2026-01-28 10:52:35.39	319.11	41.26	-29.0	-31.1	16.0	0.00e+00	0	43	0	865075200	18	4582
2026-01-28 10:52:36.39	319.33	41.02	-29.9	-32.8	14.7	0.00e+00	0	43	0	867172352	19	5014
2026-01-28 10:52:37.40	319.56	40.78	-30.7	-34.1	13.2	5.30e-06	0	43	0	868220928	21	5304
2026-01-28 10:52:38.40	319.78	40.55	-31.1	-34.6	12.4	9.99e-05	0	43	0	870318080	22	5416
2026-01-28 10:52:39.40	319.99	40.31	-30.5	-33.1	13.4	3.81e-05	0	43	0	872415232	22	4817
2026-01-28 10:52:40.40	320.21	40.08	-29.6	-31.7	15.0	1.50e-06	0	43	0	874512384	20	4545
2026-01-28 10:52:41.41	320.42	39.84	-29.1	-30.8	15.9	0.00e+00	0	43	0	876609536	19	4363
2026-01-28 10:52:42.41	320.63	39.61	-29.1	-30.8	15.9	0.00e+00	0	43	0	877658112	19	4379
2026-01-28 10:52:43.42	320.83	39.38	-29.5	-31.7	15.4	0.00e+00	0	43	0	879755264	19	4649
2026-01-28 10:52:44.43	321.04	39.15	-29.7	-32.4	14.9	0.00e+00	0	43	0	881852416	19	4904
2026-01-28 10:52:45.43	321.24	38.92	-30.3	-33.5	13.8	3.80e-06	0	43	0	883949568	20	5183
2026-01-28 10:52:46.43	321.43	38.69	-30.9	-34.6	12.7	2.59e-05	0	43	0	886046720	21	5530
2026-01-28 10:52:47.43	321.63	38.46	-31.0	-34.5	12.6	1.20e-04	0	43	0	887095296	22	5360
2026-01-28 10:52:48.43	321.82	38.24	-30.9	-34.1	12.8	1.20e-04	0	43	0	889192448	22	5200
2026-01-28 10:52:49.43	322.01	38.02	-30.5	-33.0	13.5	1.83e-05	0	43	0	891289600	22	4779
2026-01-28 10:52:50.43	322.19	37.79	-30.0	-32.1	14.4	2.20e-06	0	43	0	893386752	21	4601
2026-01-28 10:52:51.44	322.38	37.57	-29.9	-31.8	14.6	0.00e+00	0	43	0	894435328	21	4489
2026-01-28 10:52:52.44	322.56	37.35	-29.9	-31.8	14.6	0.00e+00	0	43	0	896532480	21	4494
2026-01-28 10:52:53.44	322.74	37.13	-30.1	-32.2	14.4	7.00e-07	0	43	0	898629632	21	4625
2026-01-28 10:52:54.44	322.91	36.91	-29.8	-32.1	14.7	0.00e+00	0	43	0	900726784	20	4702
2026-01-28 10:52:55.45	323.09	36.69	-30.2	-33.2	13.9	3.00e-06	0	43	0	902823936	20	5079
2026-01-28 10:52:56.45	323.26	36.48	-30.7	-34.1	13.1	1.98e-05	0	43	0	903872512	21	5299
2026-01-28 10:52:57.45	323.43	36.26	-31.2	-34.9	12.2	9.15e-05	0	43	0	905969664	22	5533
2026-01-28 10:52:58.45	323.60	36.05	-31.4	-35.6	11.8	4.05e-04	0	43	0	908066816	22	5815
2026-01-28 10:52:59.46	323.76	35.84	-31.3	-35.3	11.9	4.29e-04	0	43	0	910163968	22	5698
2026-01-28 10:53:00.46	323.93	35.62	-31.0	-34.2	12.7	2.61e-04	0	43	0	912261120	22	5253
2026-01-28 10:53:01.47	324.09	35.41	-30.5	-32.8	13.7	2.89e-05	0	43	0	913309696	22	4698
2026-01-28 10:53:02.46	324.25	35.21	-30.3	-32.8	14.1	0.00e+00	0	43	0	915406848	21	4799
2026-01-28 10:53:03.46	324.40	35.00	-29.8	-31.7	14.7	1.50e-06	0	43	0	917504000	21	4447
2026-01-28 10:53:04.47	324.56	34.79	-29.9	-32.3	14.6	0.00e+00	0	43	0	919601152	20	4762
2026-01-28 10:53:05.47	324.71	34.58	-30.1	-32.8	14.3	7.00e-07	0	43	0	921698304	20	4932
2026-01-28 10:53:06.48	324.87	34.38	-30.3	-33.4	14.0	2.20e-06	0	43	0	922746880	20	5132
2026-01-28 10:53:07.48	325.02	34.17	-30.5	-33.6	13.4	9.10e-06	0	43	0	924844032	21	5108
2026-01-28 10:53:08.48	325.16	33.97	-30.7	-34.1	13.1	2.21e-05	0	43	0	926941184	21	5311
2026-01-28 10:53:09.49	325.31	33.77	-31.0	-34.5	12.6	8.62e-05	0	43	0	929038336	22	5344
2026-01-28 10:53:10.49	325.45	33.57	-31.1	-34.8	12.3	1.36e-04	0	43	0	931135488	22	5471
2026-01-28 10:53:11.49	325.60	33.37	-31.1	-34.7	12.3	1.78e-04	0	43	0	932184064	22	5427
2026-01-28 10:53:12.49	325.74	33.17	-30.9	-34.0	12.8	8.62e-05	0	43	0	934281216	22	5155
2026-01-28 10:53:13.50	325.88	32.98	-30.9	-34.1	12.7	7.85e-05	0	43	0	936378368	22	5196
2026-01-28 10:53:14.51	326.02	32.78	-31.0	-34.3	12.6	1.04e-04	0	43	0	938475520	22	5266
2026-01-28 10:53:15.51	326.15	32.59	-30.9	-34.0	12.7	1.04e-04	0	43	0	940572672	22	5162
2026-01-28 10:53:16.50	326.29	32.39	-31.0	-34.4	12.5	9.91e-05	0	43	0	941621248	22	5315
2026-01-28 10:53:17.51	326.42	32.20	-31.0	-34.4	12.4	1.56e-04	0	43	0	943718400	22	5340
2026-01-28 10:53:18.50	326.55	32.01	-31.0	-34.4	12.5	1.01e-04	0	43	0	945815552	22	5312
2026-01-28 10:53:19.51	326.68	31.82	-31.1	-34.6	12.4	1.52e-04	0	43	0	947912704	22	5387
2026-01-28 10:53:20.51	326.81	31.63	-31.1	-34.6	12.3	1.73e-04	0	43	0	948961280	22	5417
2026-01-28 10:53:21.52	326.94	31.44	-31.0	-34.5	12.3	1.40e-04	0	43	0	951058432	22	5357
2026-01-28 10:53:22.52	327.06	31.25	-31.0	-34.5	12.3	1.83e-04	0	43	0	953155584	22	5379
2026-01-28 10:53:23.52	327.19	31.07	-31.0	-34.5	12.3	3.25e-04	0	43	0	955252736	22	5389
2026-01-28 10:53:24.53	327.31	30.88	-31.0	-34.3	12.4	1.79e-04	0	43	0	957349888	22	5305
2026-01-28 10:53:25.53	327.43	30.70	-31.0	-34.4	12.5	1.32e-04	0	43	0	958398464	22	5319
2026-01-28 10:53:26.53	327.55	30.52	-31.2	-34.9	12.0	2.21e-04	0	43	0	960495616	22	5556
2026-01-28 10:53:27.53	327.67	30.34	-31.2	-34.9	12.0	2.31e-04	0	43	0	962592768	22	5536
2026-01-28 10:53:28.54	327.79	30.15	-31.3	-35.4	11.7	4.39e-04	0	43	0	964689920	22	5755
2026-01-28 10:53:29.55	327.91	29.97	-31.4	-35.7	11.4	9.00e-04	0	43	0	966787072	22	5916
2026-01-28 10:53:30.55	328.02	29.79	-31.5	-36.0	11.3	1.08e-03	0	43	0	967835648	22	6018
2026-01-28 10:53:31.56	328.14	29.61	-31.5	-35.6	11.3	1.08e-03	0	43	0	969932800	23	5733
2026-01-28 10:53:32.56	328.25	29.44	-31.5	-35.5	11.2	1.33e-03	0	43	0	972029952	23	5710
2026-01-28 10:53:33.56	328.36	29.26	-31.5	-35.5	11.3	1.23e-03	0	43	0	974127104	23	5718
2026-01-28 10:53:34.56	328.47	29.09	-31.6	-35.7	11.1	1.34e-03	0	43	0	976224256	23	5815
2026-01-28 10:53:35.56	328.58	28.92	-31.6	-36.0	10.9	1.66e-03	0	43	0	977272832	23	5944
2026-01-28 10:53:36.57	328.69	28.74	-31.5	-35.6	11.1	1.75e-03	0	43	0	979369984	23	5739
2026-01-28 10:53:37.58	328.80	28.57	-31.4	-35.2	11.4	1.53e-03	0	43	0	981467136	23	5590
2026-01-28 10:53:38.58	328.91	28.40	-31.4	-35.1	11.5	8.70e-04	0	43	0	983564288	23	5541
2026-01-28 10:53:39.58	329.01	28.23	-31.5	-35.5	11.2	6.44e-04	0	43	0	985661440	23	5698
2026-01-28 10:53:40.58	329.11	28.06	-31.5	-35.3	11.5	1.62e-03	0	43	0	986710016	23	5600
2026-01-28 10:53:41.58	329.22	27.89	-31.5	-35.5	11.3	9.31e-04	0	43	0	988807168	23	5678
2026-01-28 10:53:42.58	329.32	27.72	-31.6	-35.8	11.0	1.35e-03	0	43	0	990904320	23	5826
2026-01-28 10:53:43.59	329.42	27.56	-31.5	-35.6	11.1	2.27e-03	0	43	0	993001472	23	5759
2026-01-28 10:53:44.59	329.52	27.39	-31.3	-34.7	11.7	1.08e-03	0	43	0	995098624	23	5380
2026-01-28 10:53:45.60	329.62	27.23	-31.1	-34.3	12.1	3.97e-04	0	43	0	996147200	23	5210
2026-01-28 10:53:46.60	329.72	27.06	-30.9	-33.8	12.5	1.50e-04	0	43	0	998244352	23	5000
2026-01-28 10:53:47.60	329.81	26.90	-30.9	-33.6	12.6	1.17e-04	0	43	0	1000341504	23	4915
2026-01-28 10:53:48.60	329.91	26.74	-30.9	-33.6	12.5	1.08e-04	0	43	0	1002438656	23	4941
2026-01-28 10:53:49.61	330.01	26.58	-30.8	-33.5	12.7	6.56e-05	0	43	0	1004535808	23	4869
2026-01-28 10:53:50.61	330.10	26.42	-30.6	-33.5	13.0	3.89e-05	0	43	0	1005584384	22	4973
2026-01-28 10:53:51.62	330.19	26.26	-30.6	-33.2	13.2	2.51e-05	0	43	0	1007681536	22	4880
2026-01-28 10:53:52.62	330.29	26.10	-30.6	-33.4	13.0	2.97e-05	0	43	0	1009778688	22	4945
2026-01-28 10:53:53.62	330.38	25.94	-30.5	-33.1	13.2	2.89e-05	0	43	0	1011875840	22	4844
2026-01-28 10:53:54.62	330.47	25.79	-30.3	-32.6	13.6	1.06e-05	0	43	0	1012924416	22	4668
2026-01-28 10:53:55.63	330.56	25.63	-30.2	-32.8	13.7	9.90e-06	0	43	0	1015021568	21	4856
2026-01-28 10:53:56.62	330.65	25.48	-30.1	-32.4	14.0	2.20e-06	0	43	0	1017118720	21	4715
2026-01-28 10:53:57.62	330.73	25.32	-30.1	-32.5	13.9	5.30e-06	0	43	0	1019215872	21	4749
2026-01-28 10:53:58.62	330.82	25.17	-30.1	-32.6	13.8	1.50e-06	0	43	0	1021313024	21	4779
2026-01-28 10:53:59.62	330.91	25.02	-29.9	-32.0	14.2	1.50e-06	0	43	0	1022361600	21	4562
2026-01-28 10:54:00.62	330.99	24.87	-29.8	-31.8	14.4	2.20e-06	0	43	0	1024458752	21	4514
2026-01-28 10:54:01.62	331.08	24.72	-29.8	-31.7	14.4	0.00e+00	0	43	0	1026555904	21	4487
2026-01-28 10:54:02.62	331.16	24.57	-29.8	-31.7	14.4	7.00e-07	0	43	0	1028653056	21	4480
2026-01-28 10:54:03.62	331.25	24.42	-29.8	-32.3	14.2	0.00e+00	0	43	0	1030750208	20	4783
2026-01-28 10:54:04.62	331.33	24.27	-29.9	-32.6	14.0	3.80e-06	0	43	0	1031798784	20	4889
2026-01-28 10:54:05.63	331.41	24.12	-29.9	-32.6	14.0	0.00e+00	0	43	0	1033895936	20	4895
2026-01-28 10:54:06.63	331.49	23.98	-30.0	-32.8	14.0	6.80e-06	0	43	0	1035993088	20	4951
2026-01-28 10:54:07.64	331.57	23.83	-30.1	-33.1	13.8	5.30e-06	0	43	0	1038090240	20	5072
2026-01-28 10:54:08.64	331.65	23.68	-30.2	-33.4	13.6	7.60e-06	0	43	0	1039138816	20	5189
2026-01-28 10:54:09.64	331.73	23.54	-30.3	-33.6	13.5	1.06e-05	0	43	0	1041235968	20	5249
2026-01-28 10:54:10.65	331.81	23.40	-30.3	-33.6	13.4	1.44e-05	0	43	0	1043333120	20	5259
2026-01-28 10:54:11.65	331.89	23.25	-30.3	-33.5	13.4	1.52e-05	0	43	0	1045430272	20	5216
2026-01-28 10:54:12.65	331.97	23.11	-30.3	-33.5	13.5	8.30e-06	0	43	0	1047527424	20	5245
2026-01-28 10:54:13.66	332.04	22.97	-30.2	-33.4	13.6	9.10e-06	0	43	0	1049624576	20	5179
2026-01-28 10:54:14.66	332.12	22.83	-30.2	-33.4	13.5	1.29e-05	0	43	0	1050673152	20	5203
2026-01-28 10:54:15.66	332.19	22.69	-30.3	-33.7	13.3	8.30e-06	0	43	0	1052770304	20	5304
2026-01-28 10:54:16.66	332.27	22.55	-30.3	-33.7	13.2	2.82e-05	0	43	0	1054867456	20	5330
2026-01-28 10:54:17.67	332.34	22.41	-30.3	-33.7	13.3	1.22e-05	0	43	0	1056964608	20	5289
2026-01-28 10:54:18.68	332.42	22.27	-30.2	-33.4	13.5	1.75e-05	0	43	0	1058013184	20	5200
2026-01-28 10:54:19.68	332.49	22.13	-30.1	-33.0	13.8	9.90e-06	0	43	0	1060110336	20	5055
2026-01-28 10:54:20.68	332.56	22.00	-30.0	-32.9	13.7	2.20e-06	0	43	0	1062207488	20	5021
2026-01-28 10:54:21.68	332.63	21.86	-30.0	-32.9	13.7	6.10e-06	0	43	0	1064304640	20	5001
2026-01-28 10:54:22.69	332.70	21.73	-29.9	-32.5	13.9	3.80e-06	0	43	0	1066401792	20	4883
2026-01-28 10:54:23.69	332.77	21.59	-30.2	-33.4	13.3	9.90e-06	0	43	0	1067450368	20	5190
2026-01-28 10:54:24.69	332.84	21.46	-30.2	-33.4	13.2	3.28e-05	0	43	0	1069547520	20	5210
2026-01-28 10:54:25.69	332.91	21.33	-30.0	-32.8	13.3	1.29e-05	0	43	0	1071644672	20	4987
2026-01-28 10:54:26.69	332.98	21.19	-30.4	-34.2	12.1	3.96e-05	0	43	0	1073741824	20	5546
2026-01-28 10:54:27.69	333.05	21.06	-30.2	-33.2	11.9	5.48e-04	0	43	0	1075838976	21	5072
2026-01-28 10:54:28.70	333.12	20.93	-29.7	-32.3	12.8	7.40e-05	0	43	0	1076887552	20	4835
2026-01-28 10:54:29.70	333.18	20.80	-29.5	-31.7	13.4	2.97e-05	0	43	0	1078984704	20	4617
2026-01-28 10:54:30.71	333.25	20.67	-29.2	-31.4	14.1	2.20e-06	0	43	0	1081081856	19	4619
2026-01-28 10:54:31.71	333.32	20.54	-29.0	-31.0	14.3	7.00e-07	0	43	0	1083179008	19	4485
2026-01-28 10:54:32.71	333.38	20.41	-29.0	-30.8	14.1	1.50e-06	0	43	0	1085276160	19	4446
2026-01-28 10:54:33.71	333.45	20.28	-29.0	-30.8	14.3	7.00e-07	0	43	0	1086324736	19	4445
2026-01-28 10:54:34.71	333.51	20.16	-29.0	-30.9	14.7	0.00e+00	0	43	0	1088421888	19	4475
2026-01-28 10:54:35.71	333.57	20.03	-29.1	-31.1	14.9	0.00e+00	0	43	0	1090519040	19	4516
2026-01-28 10:54:36.71	333.64	19.91	-29.1	-31.1	15.2	0.00e+00	0	43	0	1092616192	19	4497
2026-01-28 10:54:37.72	333.70	19.78	-29.2	-31.2	15.0	0.00e+00	0	43	0	1094713344	19	4558
2026-01-28 10:54:38.72	333.76	19.65	-29.2	-31.3	14.4	0.00e+00	0	43	0	1095761920	19	4582
2026-01-28 10:54:39.73	333.83	19.53	-29.0	-31.0	13.6	1.50e-06	0	43	0	1097859072	19	4509
2026-01-28 10:54:40.73	333.89	19.41	-29.1	-31.2	13.5	9.90e-06	0	43	0	1099956224	19	4586
2026-01-28 10:54:41.74	333.95	19.28	-29.2	-31.3	14.2	2.20e-06	0	43	0	1102053376	19	4594
2026-01-28 10:54:42.75	334.01	19.16	-29.2	-31.4	14.4	7.00e-07	0	43	0	1104150528	19	4628
2026-01-28 10:54:43.75	334.07	19.04	-29.0	-31.1	12.9	5.30e-06	0	43	0	1105199104	19	4611
2026-01-28 10:54:44.75	334.13	18.92	-28.6	-31.0	11.1	4.81e-04	0	43	0	1107296256	18	4777
2026-01-28 10:54:45.75	334.19	18.79	-28.3	-30.8	10.1	2.92e-03	0	43	0	1109393408	18	4766
2026-01-28 10:54:46.76	334.25	18.67	-28.6	-31.4	10.4	4.46e-03	0	43	0	1111490560	18	4945
2026-01-28 10:54:47.76	334.31	18.55	-28.8	-31.4	11.6	6.95e-04	0	43	0	1112539136	18	4870
2026-01-28 10:54:48.76	334.36	18.44	-29.2	-31.9	13.7	4.57e-05	0	43	0	1114636288	18	4935
2026-01-28 10:54:49.77	334.42	18.32	-29.3	-32.0	14.8	0.00e+00	0	43	0	1116733440	18	4929
2026-01-28 10:54:50.78	334.48	18.20	-29.3	-32.1	14.6	0.00e+00	0	43	0	1118830592	18	4971
2026-01-28 10:54:51.78	334.54	18.08	-29.4	-32.3	13.8	3.00e-06	0	43	0	1120927744	18	5061
2026-01-28 10:54:52.79	334.59	17.96	-29.2	-31.9	13.6	4.50e-06	0	43	0	1121976320	18	4938
2026-01-28 10:54:53.80	334.65	17.84	-29.1	-31.8	13.6	5.30e-06	0	43	0	1124073472	18	4906
2026-01-28 10:54:54.80	334.71	17.73	-29.1	-31.8	13.5	6.80e-06	0	43	0	1126170624	18	4887
2026-01-28 10:54:55.81	334.76	17.61	-29.1	-31.7	13.8	6.10e-06	0	43	0	1128267776	18	4854
2026-01-28 10:54:56.81	334.82	17.50	-29.2	-31.9	13.6	5.30e-06	0	43	0	1130364928	18	4920
2026-01-28 10:54:57.82	334.87	17.38	-29.1	-31.7	13.4	1.22e-05	0	43	0	1131413504	18	4870
2026-01-28 10:54:58.82	334.92	17.27	-29.1	-31.8	13.2	1.22e-05	0	43	0	1133510656	18	4909
2026-01-28 10:54:59.83	334.98	17.16	-29.2	-32.0	13.5	9.90e-06	0	43	0	1135607808	18	4964
2026-01-28 10:55:00.83	335.03	17.04	-29.3	-32.2	13.9	8.30e-06	0	43	0	1137704960	18	4999
2026-01-28 10:55:01.84	335.09	16.93	-29.4	-32.4	14.3	7.00e-07	0	43	0	1139802112	18	5059
2026-01-28 10:55:02.83	335.14	16.82	-29.5	-32.5	14.4	0.00e+00	0	43	0	1140850688	18	5112
2026-01-28 10:55:03.84	335.19	16.71	-29.6	-32.4	14.3	0.00e+00	0	43	0	1142947840	19	4942
2026-01-28 10:55:04.85	335.24	16.60	-29.7	-32.6	14.1	3.00e-06	0	43	0	1145044992	19	5007
2026-01-28 10:55:05.85	335.29	16.49	-29.6	-32.5	14.2	7.00e-07	0	43	0	1147142144	19	4981
2026-01-28 10:55:06.86	335.35	16.38	-29.8	-32.9	13.9	0.00e+00	0	43	0	1149239296	19	5144
2026-01-28 10:55:07.86	335.40	16.27	-29.9	-33.0	13.9	3.00e-06	0	43	0	1150287872	19	5171
2026-01-28 10:55:08.86	335.45	16.16	-29.9	-33.0	13.9	2.20e-06	0	43	0	1152385024	19	5174
2026-01-28 10:55:09.87	335.50	16.05	-29.9	-33.2	13.9	7.00e-07	0	43	0	1154482176	19	5223
2026-01-28 10:55:10.87	335.55	15.94	-30.0	-33.3	13.7	4.50e-06	0	43	0	1156579328	19	5293
2026-01-28 10:55:11.87	335.60	15.83	-30.0	-32.8	13.7	4.50e-06	0	43	0	1158676480	20	5003
2026-01-28 10:55:12.87	335.64	15.73	-30.0	-32.8	13.6	1.06e-05	0	43	0	1159725056	20	5010
2026-01-28 10:55:13.88	335.69	15.62	-30.1	-33.2	13.4	8.30e-06	0	43	0	1161822208	20	5137
2026-01-28 10:55:14.88	335.74	15.51	-30.0	-33.1	13.4	1.22e-05	0	43	0	1163919360	20	5113
2026-01-28 10:55:15.88	335.79	15.41	-30.2	-33.4	13.2	1.67e-05	0	43	0	1166016512	20	5238
2026-01-28 10:55:16.88	335.84	15.30	-30.0	-33.1	13.3	3.05e-05	0	43	0	1168113664	20	5124
2026-01-28 10:55:17.89	335.89	15.20	-29.9	-32.7	13.6	1.75e-05	0	43	0	1169162240	20	4977
2026-01-28 10:55:18.88	335.93	15.09	-29.9	-32.7	13.6	3.80e-06	0	43	0	1171259392	20	4971
2026-01-28 10:55:19.88	335.98	14.99	-29.9	-32.7	13.6	7.60e-06	0	43	0	1173356544	20	4966
2026-01-28 10:55:20.88	336.03	14.89	-30.0	-32.9	13.5	9.10e-06	0	43	0	1175453696	20	5043
2026-01-28 10:55:21.89	336.07	14.78	-30.0	-33.1	13.3	1.67e-05	0	43	0	1176502272	20	5136
2026-01-28 10:55:22.90	336.12	14.68	-30.0	-32.9	13.4	1.60e-05	0	43	0	1178599424	20	5047
2026-01-28 10:55:23.90	336.17	14.58	-29.9	-32.8	13.5	1.22e-05	0	43	0	1180696576	20	5032
2026-01-28 10:55:24.91	336.21	14.48	-30.0	-33.0	13.4	1.98e-05	0	43	0	1182793728	20	5084
2026-01-28 10:55:25.91	336.26	14.37	-30.0	-33.1	13.3	1.83e-05	0	43	0	1184890880	20	5137
2026-01-28 10:55:26.91	336.30	14.27	-30.0	-33.1	13.3	1.37e-05	0	43	0	1185939456	20	5115
2026-01-28 10:55:27.92	336.35	14.17	-30.1	-33.2	13.2	2.21e-05	0	43	0	1188036608	20	5156
2026-01-28 10:55:28.92	336.39	14.07	-29.9	-32.8	13.5	9.90e-06	0	43	0	1190133760	20	4995
2026-01-28 10:55:29.93	336.44	13.97	-29.9	-32.6	13.6	5.30e-06	0	43	0	1192230912	20	4960
2026-01-28 10:55:30.94	336.48	13.87	-29.9	-32.6	13.6	6.80e-06	0	43	0	1194328064	20	4956
2026-01-28 10:55:31.94	336.52	13.77	-29.8	-32.4	13.7	5.30e-06	0	43	0	1195376640	20	4881
2026-01-28 10:55:32.94	336.57	13.67	-29.9	-32.6	13.6	8.30e-06	0	43	0	1197473792	20	4955
2026-01-28 10:55:33.95	336.61	13.57	-29.8	-32.4	13.7	6.10e-06	0	43	0	1199570944	20	4858
2026-01-28 10:55:34.96	336.65	13.48	-29.9	-32.7	13.6	7.60e-06	0	43	0	1201668096	20	4972
2026-01-28 10:55:35.96	336.70	13.38	-29.8	-32.5	13.6	6.10e-06	0	43	0	1203765248	20	4918
2026-01-28 10:55:36.96	336.74	13.28	-30.0	-33.0	13.3	1.14e-05	0	43	0	1204813824	20	5082
2026-01-28 10:55:37.96	336.78	13.19	-29.9	-32.7	13.5	6.80e-06	0	43	0	1206910976	20	4990
2026-01-28 10:55:38.96	336.82	13.09	-29.8	-32.4	13.7	6.80e-06	0	43	0	1209008128	20	4893
2026-01-28 10:55:39.97	336.86	12.99	-29.7	-32.4	13.7	9.90e-06	0	43	0	1211105280	20	4860
2026-01-28 10:55:40.97	336.91	12.90	-29.8	-32.5	13.6	3.00e-06	0	43	0	1213202432	20	4907
2026-01-28 10:55:41.98	336.95	12.80	-29.9	-32.7	13.5	1.14e-05	0	43	0	1214251008	20	4983
2026-01-28 10:55:42.98	336.99	12.71	-29.9	-32.8	13.4	1.14e-05	0	43	0	1216348160	20	5022
2026-01-28 10:55:43.98	337.03	12.61	-29.9	-32.9	13.3	9.90e-06	0	43	0	1218445312	20	5049
2026-01-28 10:55:44.98	337.07	12.52	-30.0	-33.0	13.3	9.10e-06	0	43	0	1220542464	20	5085
2026-01-28 10:55:45.99	337.11	12.42	-30.0	-33.2	13.1	2.51e-05	0	43	0	1222639616	20	5177
2026-01-28 10:55:46.99	337.15	12.33	-30.0	-33.2	13.1	3.12e-05	0	43	0	1223688192	20	5166
2026-01-28 10:55:47.99	337.19	12.24	-30.1	-33.3	13.0	3.12e-05	0	43	0	1225785344	20	5222
2026-01-28 10:55:49.00	337.23	12.14	-30.4	-34.1	12.5	7.55e-05	0	43	0	1227882496	20	5533
2026-01-28 10:55:49.99	337.27	12.05	-30.2	-33.5	12.9	6.94e-05	0	43	0	1229979648	20	5309
2026-01-28 10:55:50.98	337.31	11.96	-30.2	-33.5	12.9	4.50e-05	0	43	0	1231028224	20	5278
2026-01-28 10:55:51.99	337.35	11.87	-30.1	-33.3	13.0	4.11e-05	0	43	0	1233125376	20	5224
2026-01-28 10:55:52.98	337.38	11.78	-30.1	-33.5	12.9	4.11e-05	0	43	0	1235222528	20	5297
2026-01-28 10:55:53.98	337.42	11.69	-30.1	-33.5	12.8	3.66e-05	0	43	0	1237319680	20	5312
2026-01-28 10:55:54.98	337.46	11.60	-30.2	-33.7	12.7	6.71e-05	0	43	0	1239416832	20	5377
2026-01-28 10:55:55.98	337.50	11.51	-30.2	-33.6	12.8	7.47e-05	0	43	0	1240465408	20	5348
2026-01-28 10:55:56.98	337.54	11.42	-30.3	-33.9	12.5	8.31e-05	0	43	0	1242562560	20	5483
2026-01-28 10:55:57.99	337.57	11.33	-30.3	-34.0	12.5	1.05e-04	0	43	0	1244659712	20	5496
2026-01-28 10:55:58.99	337.61	11.24	-30.3	-34.2	12.4	1.23e-04	0	43	0	1246756864	20	5583
2026-01-28 10:55:59.99	337.65	11.15	-30.5	-34.1	12.0	2.67e-04	0	43	0	1248854016	21	5475
2026-01-28 10:56:00.99	337.69	11.06	-30.5	-34.2	11.9	3.53e-04	0	43	0	1249902592	21	5507
2026-01-28 10:56:02.00	337.72	10.97	-30.5	-34.2	11.9	3.95e-04	0	43	0	1251999744	21	5497
2026-01-28 10:56:03.00	337.76	10.88	-30.5	-34.3	11.9	4.74e-04	0	43	0	1254096896	21	5524
2026-01-28 10:56:04.01	337.80	10.79	-30.5	-34.2	11.9	3.89e-04	0	43	0	1256194048	21	5500
2026-01-28 10:56:05.01	337.83	10.71	-30.6	-34.5	11.8	4.08e-04	0	43	0	1258291200	21	5607
2026-01-28 10:56:06.01	337.87	10.62	-30.6	-34.4	11.8	5.39e-04	0	43	0	1259339776	21	5586
2026-01-28 10:56:07.01	337.90	10.53	-30.7	-34.9	11.4	6.66e-04	0	43	0	1261436928	21	5821
2026-01-28 10:56:08.01	337.94	10.45	-30.6	-34.6	11.6	8.15e-04	0	43	0	1263534080	21	5667
2026-01-28 10:56:09.02	337.98	10.36	-30.5	-34.3	11.8	5.21e-04	0	43	0	1265631232	21	5555
2026-01-28 10:56:10.02	338.01	10.27	-30.5	-34.2	11.9	3.34e-04	0	43	0	1267728384	21	5491
2026-01-28 10:56:11.03	338.05	10.19	-30.5	-34.3	11.9	4.26e-04	0	43	0	1268776960	21	5533
2026-01-28 10:56:12.03	338.08	10.10	-30.5	-34.0	12.0	3.68e-04	0	43	0	1270874112	21	5443
2026-01-28 10:56:13.02	338.12	10.02	-30.5	-34.2	11.9	3.99e-04	0	43	0	1272971264	21	5505
2026-01-28 10:56:14.03	338.15	9.93	-30.5	-34.3	11.8	4.64e-04	0	43	0	1275068416	21	5540
2026-01-28 10:56:15.03	338.19	9.85	-30.5	-34.1	11.9	4.22e-04	0	43	0	1277165568	21	5491
2026-01-28 10:56:16.03	338.22	9.76	-30.6	-34.5	11.6	5.43e-04	0	43	0	1278214144	21	5630
2026-01-28 10:56:17.04	338.25	9.68	-30.5	-34.3	11.7	5.87e-04	0	43	0	1280311296	21	5567
