passes_logs/2026/01/28/R2M6_AANII_01/R2M6_AANII_01__20260128_112131_FENGYUN_3D_rec.log

#Pass ID: 20260128_112131_FENGYUN 3D
#Satellite: FENGYUN 3D
#Configuration: FENGYUN 3D
#almurnet v.1.7.20240730
#Start time: 2026-01-28 11:21:31

#Version: 2.2.20231116
#Station: R2M6_AANII_01
#Location: 30.233357 lon 59.946436 lat
#TLE: 1 43010U 17072A   26027.90082829  .00000305  00000+0  16579-3 0  9998
#TLE: 2 43010  98.9960 359.9183 0002511  88.1058 272.0405 14.19701796425082

#Time	Az	El	Level	Level2	SNR	BER	BlckErr	Temp	State	Recorded	gain1	gain2
2026-01-28 11:21:31.11	128.33	6.97	-29.9	-32.7	5.3	7.91e-01	0	41	0	0	21	4943
2026-01-28 11:21:32.11	128.28	7.04	-30.0	-33.1	5.2	7.93e-01	0	40	104	0	21	5112
2026-01-28 11:21:33.12	128.23	7.12	-30.1	-33.2	9.0	2.83e-02	0	41	0	0	21	5136
2026-01-28 11:21:34.12	128.18	7.19	-30.0	-32.7	9.4	2.56e-02	0	41	0	5242880	21	4960
2026-01-28 11:21:35.12	128.13	7.27	-30.0	-32.9	9.3	1.77e-02	0	41	0	11534336	21	5003
2026-01-28 11:21:36.13	128.08	7.34	-30.1	-33.1	9.1	3.00e-02	0	41	0	16777216	21	5097
2026-01-28 11:21:37.14	128.03	7.42	-29.8	-32.2	9.7	2.05e-02	0	41	0	22020096	21	4772
2026-01-28 11:21:38.14	127.97	7.49	-29.5	-32.1	10.2	8.76e-03	0	41	0	28311552	20	4804
2026-01-28 11:21:39.15	127.92	7.57	-29.6	-32.2	10.1	7.72e-03	0	41	0	33554432	20	4853
2026-01-28 11:21:40.14	127.87	7.64	-29.6	-32.1	10.2	6.97e-03	0	41	0	38797312	20	4821
2026-01-28 11:21:41.15	127.82	7.72	-29.7	-32.4	10.0	9.81e-03	0	41	0	45088768	20	4931
2026-01-28 11:21:42.15	127.77	7.80	-30.0	-33.3	9.4	1.63e-02	0	41	0	50331648	20	5262
2026-01-28 11:21:43.15	127.71	7.87	-29.7	-32.4	10.1	1.05e-02	0	41	0	55574528	20	4921
2026-01-28 11:21:44.16	127.66	7.95	-29.1	-31.3	11.2	2.60e-03	0	41	0	61865984	19	4642
2026-01-28 11:21:45.16	127.61	8.03	-28.8	-30.9	11.7	9.26e-04	0	41	0	67108864	18	4633
2026-01-28 11:21:46.16	127.55	8.10	-28.2	-30.1	12.5	2.62e-04	0	41	0	73400320	17	4475
2026-01-28 11:21:47.17	127.50	8.18	-28.0	-29.5	13.0	8.01e-05	0	41	0	78643200	17	4289
2026-01-28 11:21:48.17	127.45	8.26	-27.5	-29.0	13.6	1.60e-05	0	41	0	84934656	16	4251
2026-01-28 11:21:49.18	127.39	8.34	-27.4	-28.6	13.8	8.00e-06	0	41	0	90177536	16	4161
2026-01-28 11:21:50.18	127.34	8.41	-27.0	-28.4	14.1	6.80e-06	0	41	0	95420416	15	4199
2026-01-28 11:21:51.19	127.28	8.49	-27.1	-28.5	14.0	4.50e-06	0	41	0	101711872	15	4216
2026-01-28 11:21:52.20	127.23	8.57	-27.0	-28.3	14.1	2.20e-06	0	41	0	106954752	15	4187
2026-01-28 11:21:53.20	127.17	8.65	-27.0	-28.3	14.1	9.10e-06	0	41	0	112197632	15	4164
2026-01-28 11:21:54.21	127.12	8.73	-27.1	-28.4	14.0	2.20e-06	0	41	0	118489088	15	4210
2026-01-28 11:21:55.20	127.06	8.81	-27.2	-28.7	13.9	4.50e-06	0	41	0	123731968	15	4279
2026-01-28 11:21:56.20	127.00	8.88	-27.1	-28.4	14.0	3.40e-06	0	41	0	128974848	15	4202
2026-01-28 11:21:57.21	126.95	8.96	-27.1	-28.4	14.0	8.00e-06	0	41	0	135266304	15	4210
2026-01-28 11:21:58.21	126.89	9.04	-27.3	-28.9	13.7	6.80e-06	0	42	0	140509184	15	4350
2026-01-28 11:21:59.21	126.83	9.12	-27.0	-28.3	14.1	6.80e-06	0	42	0	146800640	15	4183
2026-01-28 11:22:00.21	126.77	9.20	-27.1	-28.6	13.9	4.50e-06	0	41	0	152043520	15	4258
2026-01-28 11:22:01.21	126.72	9.28	-27.1	-28.6	13.9	4.50e-06	0	41	0	158334976	15	4254
2026-01-28 11:22:02.22	126.66	9.36	-27.0	-28.2	14.2	0.00e+00	0	42	0	163577856	15	4157
2026-01-28 11:22:03.22	126.60	9.44	-26.9	-28.1	14.3	2.20e-06	0	42	0	168820736	15	4109
2026-01-28 11:22:04.22	126.54	9.52	-26.9	-28.1	14.3	3.40e-06	0	41	0	175112192	15	4115
2026-01-28 11:22:05.22	126.48	9.61	-27.0	-28.1	14.3	2.20e-06	0	41	0	180355072	15	4128
2026-01-28 11:22:06.23	126.42	9.69	-26.8	-27.8	14.5	3.40e-06	0	42	0	185597952	15	4032
2026-01-28 11:22:07.24	126.36	9.77	-26.7	-28.0	14.6	1.10e-06	0	42	0	191889408	14	4210
2026-01-28 11:22:08.24	126.30	9.85	-26.7	-28.1	14.6	0.00e+00	0	42	0	197132288	14	4235
2026-01-28 11:22:09.25	126.24	9.93	-26.7	-28.1	14.6	2.20e-06	0	42	0	202375168	14	4211
2026-01-28 11:22:10.24	126.18	10.01	-26.8	-28.2	14.5	0.00e+00	0	42	0	208666624	14	4256
2026-01-28 11:22:11.25	126.11	10.10	-26.9	-28.6	14.3	0.00e+00	0	42	0	213909504	14	4372
2026-01-28 11:22:12.25	126.05	10.18	-26.7	-28.1	14.6	0.00e+00	0	42	0	220200960	14	4215
2026-01-28 11:22:13.26	125.99	10.26	-26.7	-28.2	14.6	0.00e+00	0	42	0	225443840	14	4238
2026-01-28 11:22:14.26	125.93	10.35	-26.7	-28.1	14.6	1.10e-06	0	42	0	231735296	14	4231
2026-01-28 11:22:15.26	125.86	10.43	-26.6	-28.0	14.7	1.10e-06	0	42	0	236978176	14	4186
2026-01-28 11:22:16.27	125.80	10.51	-26.6	-27.9	14.8	0.00e+00	0	42	0	242221056	14	4182
2026-01-28 11:22:17.27	125.74	10.60	-26.8	-28.3	14.5	0.00e+00	0	42	0	248512512	14	4271
2026-01-28 11:22:18.27	125.67	10.68	-26.6	-27.7	14.9	1.10e-06	0	42	0	253755392	14	4122
2026-01-28 11:22:19.26	125.61	10.77	-26.5	-27.7	14.9	1.10e-06	0	42	0	258998272	14	4119
2026-01-28 11:22:20.27	125.54	10.85	-26.5	-27.6	15.0	0.00e+00	0	42	0	265289728	14	4085
2026-01-28 11:22:21.28	125.48	10.94	-26.5	-27.6	14.9	0.00e+00	0	42	0	270532608	14	4095
2026-01-28 11:22:22.28	125.41	11.02	-26.5	-27.6	15.0	0.00e+00	0	42	0	275775488	14	4091
2026-01-28 11:22:23.29	125.35	11.11	-26.5	-27.5	15.0	0.00e+00	0	42	0	282066944	14	4071
2026-01-28 11:22:24.30	125.28	11.19	-26.5	-27.5	15.0	0.00e+00	0	42	0	287309824	14	4074
2026-01-28 11:22:25.30	125.21	11.28	-26.4	-27.4	15.1	0.00e+00	0	42	0	293601280	14	4040
2026-01-28 11:22:26.30	125.14	11.37	-26.3	-27.3	15.2	0.00e+00	0	42	0	298844160	14	4000
2026-01-28 11:22:27.31	125.08	11.45	-26.4	-27.4	15.1	0.00e+00	0	42	0	305135616	14	4043
2026-01-28 11:22:28.32	125.01	11.54	-26.5	-27.5	15.1	0.00e+00	0	42	0	310378496	14	4049
2026-01-28 11:22:29.32	124.94	11.63	-26.2	-27.5	15.4	0.00e+00	0	42	0	315621376	13	4158
2026-01-28 11:22:30.33	124.87	11.72	-26.2	-27.5	15.3	0.00e+00	0	42	0	321912832	13	4160
2026-01-28 11:22:31.33	124.80	11.80	-26.2	-27.4	15.4	0.00e+00	0	42	0	327155712	13	4128
2026-01-28 11:22:32.33	124.73	11.89	-26.2	-27.3	15.5	1.10e-06	0	42	0	332398592	13	4118
2026-01-28 11:22:33.33	124.66	11.98	-26.2	-27.4	15.4	0.00e+00	0	42	0	338690048	13	4145
2026-01-28 11:22:34.34	124.59	12.07	-26.1	-27.1	15.6	0.00e+00	0	42	0	343932928	13	4064
2026-01-28 11:22:35.34	124.52	12.16	-26.0	-27.0	15.6	0.00e+00	0	42	0	349175808	13	4041
2026-01-28 11:22:36.34	124.45	12.25	-26.1	-27.1	15.6	0.00e+00	0	42	0	355467264	13	4056
2026-01-28 11:22:37.35	124.37	12.34	-26.0	-26.9	15.7	0.00e+00	0	42	0	360710144	13	4007
2026-01-28 11:22:38.35	124.30	12.43	-26.0	-27.0	15.7	0.00e+00	0	42	0	367001600	13	4027
2026-01-28 11:22:39.36	124.23	12.52	-26.0	-27.0	15.7	0.00e+00	0	42	0	372244480	13	4041
2026-01-28 11:22:40.36	124.15	12.61	-26.2	-27.4	15.5	0.00e+00	0	42	0	378535936	13	4120
2026-01-28 11:22:41.36	124.08	12.70	-26.2	-27.4	15.5	0.00e+00	0	42	0	383778816	13	4140
2026-01-28 11:22:42.36	124.01	12.79	-26.2	-27.3	15.5	0.00e+00	0	42	0	389021696	13	4113
2026-01-28 11:22:43.37	123.93	12.88	-26.2	-27.4	15.5	0.00e+00	0	42	0	395313152	13	4126
2026-01-28 11:22:44.38	123.85	12.97	-26.2	-27.5	15.4	0.00e+00	0	42	0	400556032	13	4167
2026-01-28 11:22:45.38	123.78	13.06	-26.1	-27.3	15.6	0.00e+00	0	42	0	405798912	13	4104
2026-01-28 11:22:46.38	123.70	13.15	-26.2	-27.4	15.5	0.00e+00	0	42	0	412090368	13	4145
2026-01-28 11:22:47.39	123.62	13.25	-26.2	-27.5	15.4	0.00e+00	0	42	0	417333248	13	4161
2026-01-28 11:22:48.40	123.55	13.34	-26.1	-27.2	15.6	0.00e+00	0	42	0	422576128	13	4085
2026-01-28 11:22:49.40	123.47	13.43	-26.0	-26.9	15.8	0.00e+00	0	42	0	428867584	13	4002
2026-01-28 11:22:50.40	123.39	13.53	-25.9	-26.7	15.9	0.00e+00	0	43	0	434110464	13	3960
2026-01-28 11:22:51.40	123.31	13.62	-25.8	-26.6	16.0	0.00e+00	0	42	0	440401920	13	3926
2026-01-28 11:22:52.41	123.23	13.71	-25.8	-26.5	16.0	0.00e+00	0	42	0	445644800	13	3903
2026-01-28 11:22:53.42	123.15	13.81	-25.8	-26.5	16.1	0.00e+00	0	42	0	451936256	13	3896
2026-01-28 11:22:54.42	123.07	13.90	-25.7	-26.7	16.2	0.00e+00	0	42	0	457179136	12	4067
2026-01-28 11:22:55.42	122.99	14.00	-25.6	-26.7	16.2	0.00e+00	0	42	0	462422016	12	4044
2026-01-28 11:22:56.43	122.91	14.09	-25.7	-26.8	16.1	0.00e+00	0	42	0	468713472	12	4077
2026-01-28 11:22:57.44	122.82	14.19	-25.7	-26.9	16.1	0.00e+00	0	42	0	473956352	12	4101
2026-01-28 11:22:58.45	122.74	14.28	-25.6	-26.6	16.3	0.00e+00	0	42	0	479199232	12	4035
2026-01-28 11:22:59.45	122.66	14.38	-25.6	-26.5	16.4	0.00e+00	0	42	0	485490688	12	3993
2026-01-28 11:23:00.45	122.57	14.48	-25.5	-26.4	16.4	0.00e+00	0	42	0	490733568	12	3979
2026-01-28 11:23:01.46	122.49	14.57	-25.6	-26.5	16.3	0.00e+00	0	42	0	497025024	12	4013
2026-01-28 11:23:02.46	122.40	14.67	-25.5	-26.4	16.4	0.00e+00	0	42	0	502267904	12	3983
2026-01-28 11:23:03.47	122.32	14.77	-25.6	-26.5	16.4	0.00e+00	0	42	0	507510784	12	4003
2026-01-28 11:23:04.47	122.23	14.87	-25.6	-26.6	16.4	0.00e+00	0	42	0	513802240	12	4022
2026-01-28 11:23:05.47	122.15	14.96	-25.5	-26.4	16.4	0.00e+00	0	42	0	519045120	12	3978
2026-01-28 11:23:06.48	122.06	15.06	-25.6	-26.5	16.4	0.00e+00	0	42	0	525336576	12	4002
2026-01-28 11:23:07.48	121.97	15.16	-25.6	-26.5	16.4	0.00e+00	0	43	0	530579456	12	4006
2026-01-28 11:23:08.49	121.88	15.26	-25.5	-26.3	16.5	0.00e+00	0	42	0	535822336	12	3947
2026-01-28 11:23:09.48	121.79	15.36	-25.5	-26.3	16.5	0.00e+00	0	43	0	542113792	12	3959
2026-01-28 11:23:10.49	121.70	15.46	-25.5	-26.3	16.5	0.00e+00	0	42	0	547356672	12	3949
2026-01-28 11:23:11.49	121.61	15.56	-25.6	-26.5	16.4	0.00e+00	0	43	0	552599552	12	4000
2026-01-28 11:23:12.50	121.52	15.66	-25.6	-26.5	16.4	0.00e+00	0	43	0	558891008	12	4003
2026-01-28 11:23:13.51	121.43	15.76	-25.6	-26.7	16.4	0.00e+00	0	42	0	564133888	12	4048
2026-01-28 11:23:14.51	121.34	15.86	-25.5	-26.2	16.6	0.00e+00	0	42	0	570425344	12	3946
2026-01-28 11:23:15.52	121.24	15.96	-25.6	-26.5	16.4	0.00e+00	0	43	0	575668224	12	4015
2026-01-28 11:23:16.52	121.15	16.06	-25.6	-26.5	16.4	0.00e+00	0	42	0	580911104	12	4019
2026-01-28 11:23:17.52	121.06	16.16	-25.5	-26.4	16.5	0.00e+00	0	42	0	587202560	12	3978
2026-01-28 11:23:18.53	120.96	16.27	-25.3	-26.0	16.7	0.00e+00	0	43	0	592445440	12	3893
2026-01-28 11:23:19.53	120.87	16.37	-25.4	-26.1	16.7	1.10e-06	0	43	0	598736896	12	3911
2026-01-28 11:23:20.53	120.77	16.47	-25.3	-26.0	16.7	0.00e+00	0	42	0	603979776	12	3886
2026-01-28 11:23:21.53	120.67	16.58	-25.3	-25.9	16.8	0.00e+00	0	42	0	609222656	12	3865
2026-01-28 11:23:22.54	120.58	16.68	-25.4	-26.1	16.7	0.00e+00	0	43	0	615514112	12	3904
2026-01-28 11:23:23.54	120.48	16.78	-25.4	-26.2	16.7	0.00e+00	0	43	0	620756992	12	3920
2026-01-28 11:23:24.55	120.38	16.89	-25.3	-26.4	16.9	0.00e+00	0	43	0	625999872	11	4098
2026-01-28 11:23:25.55	120.28	16.99	-25.3	-26.3	16.9	0.00e+00	0	43	0	632291328	11	4070
2026-01-28 11:23:26.55	120.18	17.10	-25.3	-26.4	16.9	0.00e+00	0	43	0	637534208	11	4075
2026-01-28 11:23:27.55	120.08	17.20	-25.3	-26.3	16.9	0.00e+00	0	43	0	642777088	11	4067
2026-01-28 11:23:28.56	119.98	17.31	-25.1	-26.1	17.1	0.00e+00	0	43	0	649068544	11	3996
2026-01-28 11:23:29.56	119.87	17.42	-25.1	-26.0	17.1	0.00e+00	0	43	0	654311424	11	3983
2026-01-28 11:23:30.56	119.77	17.52	-25.2	-26.2	17.0	0.00e+00	0	43	0	660602880	11	4036
2026-01-28 11:23:31.56	119.67	17.63	-25.1	-26.0	17.1	1.10e-06	0	43	0	665845760	11	3986
2026-01-28 11:23:32.57	119.56	17.74	-25.0	-25.8	17.3	0.00e+00	0	43	0	672137216	11	3924
2026-01-28 11:23:33.57	119.46	17.84	-25.0	-25.8	17.3	0.00e+00	0	42	0	677380096	11	3921
2026-01-28 11:23:34.58	119.35	17.95	-25.1	-26.0	17.2	0.00e+00	0	43	0	682622976	11	3977
2026-01-28 11:23:35.58	119.24	18.06	-25.2	-26.2	17.0	0.00e+00	0	43	0	688914432	11	4043
2026-01-28 11:23:36.58	119.13	18.17	-25.2	-26.1	17.1	0.00e+00	0	43	0	694157312	11	4000
2026-01-28 11:23:37.59	119.02	18.28	-25.1	-25.8	17.3	0.00e+00	0	43	0	699400192	11	3940
2026-01-28 11:23:38.58	118.92	18.39	-25.1	-25.9	17.2	0.00e+00	0	43	0	705691648	11	3946
2026-01-28 11:23:39.59	118.81	18.50	-25.0	-25.8	17.3	0.00e+00	0	43	0	710934528	11	3938
2026-01-28 11:23:40.60	118.69	18.61	-25.1	-26.0	17.2	0.00e+00	0	43	0	716177408	11	3982
2026-01-28 11:23:41.60	118.58	18.72	-25.3	-26.3	17.0	0.00e+00	0	43	0	722468864	11	4059
2026-01-28 11:23:42.60	118.47	18.83	-25.2	-26.1	17.1	0.00e+00	0	43	0	727711744	11	4007
2026-01-28 11:23:43.61	118.36	18.94	-25.3	-26.3	17.0	0.00e+00	0	43	0	734003200	11	4063
2026-01-28 11:23:44.62	118.24	19.06	-25.4	-26.6	16.9	0.00e+00	0	43	0	739246080	11	4126
2026-01-28 11:23:45.62	118.12	19.17	-25.5	-26.9	16.7	0.00e+00	0	43	0	745537536	11	4204
2026-01-28 11:23:46.62	118.01	19.28	-25.3	-26.3	17.0	0.00e+00	0	43	0	750780416	11	4063
2026-01-28 11:23:47.63	117.89	19.39	-25.3	-26.5	17.0	0.00e+00	0	43	0	756023296	11	4099
2026-01-28 11:23:48.63	117.77	19.51	-25.2	-26.1	17.1	0.00e+00	0	43	0	762314752	11	4011
2026-01-28 11:23:49.64	117.65	19.62	-25.0	-25.7	17.3	0.00e+00	0	43	0	767557632	11	3906
2026-01-28 11:23:50.64	117.53	19.73	-24.9	-25.5	17.4	0.00e+00	0	43	0	772800512	11	3859
2026-01-28 11:23:51.64	117.41	19.85	-24.9	-25.9	17.5	0.00e+00	0	43	0	779091968	10	4077
2026-01-28 11:23:52.64	117.29	19.96	-24.8	-25.7	17.6	0.00e+00	0	43	0	784334848	10	4023
2026-01-28 11:23:53.65	117.17	20.08	-24.6	-25.4	17.8	0.00e+00	0	43	0	789577728	10	3940
2026-01-28 11:23:54.66	117.04	20.20	-24.7	-25.5	17.7	0.00e+00	0	43	0	795869184	10	3959
2026-01-28 11:23:55.65	116.92	20.31	-24.5	-25.2	17.9	0.00e+00	0	43	0	801112064	10	3888
2026-01-28 11:23:56.66	116.80	20.43	-24.4	-25.0	18.0	0.00e+00	0	43	0	807403520	10	3840
2026-01-28 11:23:57.66	116.67	20.54	-24.3	-24.8	18.1	0.00e+00	0	43	0	812646400	10	3800
2026-01-28 11:23:58.66	116.54	20.66	-24.3	-24.8	18.1	0.00e+00	0	43	0	818937856	10	3806
2026-01-28 11:23:59.66	116.41	20.78	-24.4	-24.9	18.1	0.00e+00	0	43	0	824180736	10	3820
2026-01-28 11:24:00.67	116.28	20.90	-24.5	-25.1	17.9	0.00e+00	0	43	0	829423616	10	3878
2026-01-28 11:24:01.66	116.16	21.01	-24.4	-25.1	18.0	0.00e+00	0	43	0	835715072	10	3863
2026-01-28 11:24:02.67	116.02	21.13	-24.4	-24.9	18.0	0.00e+00	0	43	0	840957952	10	3831
2026-01-28 11:24:03.68	115.89	21.25	-24.4	-24.9	18.1	0.00e+00	0	43	0	846200832	10	3820
2026-01-28 11:24:04.69	115.76	21.38	-24.4	-24.9	18.1	0.00e+00	0	43	0	852492288	10	3830
2026-01-28 11:24:05.69	115.62	21.50	-24.6	-25.3	17.9	0.00e+00	0	43	0	857735168	10	3930
2026-01-28 11:24:06.70	115.48	21.62	-24.4	-24.9	18.1	0.00e+00	0	43	0	862978048	10	3819
2026-01-28 11:24:07.71	115.35	21.74	-24.2	-25.0	18.3	0.00e+00	0	43	0	869269504	9	3944
2026-01-28 11:24:08.71	115.21	21.86	-24.1	-24.9	18.4	0.00e+00	0	43	0	874512384	9	3921
2026-01-28 11:24:09.72	115.07	21.98	-24.3	-25.1	18.3	0.00e+00	0	43	0	880803840	9	3980
2026-01-28 11:24:10.72	114.93	22.10	-24.2	-24.9	18.3	0.00e+00	0	43	0	886046720	9	3935
2026-01-28 11:24:11.73	114.79	22.23	-24.2	-25.0	18.3	0.00e+00	0	43	0	892338176	9	3946
2026-01-28 11:24:12.73	114.65	22.35	-24.3	-25.1	18.3	0.00e+00	0	43	0	897581056	9	3981
2026-01-28 11:24:13.73	114.50	22.47	-24.3	-25.1	18.3	0.00e+00	0	43	0	902823936	9	3983
2026-01-28 11:24:14.74	114.36	22.60	-24.1	-24.9	18.4	0.00e+00	0	43	0	909115392	9	3925
2026-01-28 11:24:15.74	114.21	22.72	-24.3	-25.2	18.2	0.00e+00	0	43	0	914358272	9	4007
2026-01-28 11:24:16.75	114.06	22.85	-24.3	-25.1	18.3	0.00e+00	0	43	0	919601152	9	3975
2026-01-28 11:24:17.76	113.91	22.97	-24.0	-24.5	18.6	0.00e+00	0	43	0	925892608	9	3825
2026-01-28 11:24:18.77	113.76	23.10	-23.9	-24.3	18.7	0.00e+00	0	43	0	931135488	9	3792
2026-01-28 11:24:19.77	113.61	23.22	-23.9	-24.3	18.7	0.00e+00	0	43	0	937426944	9	3782
2026-01-28 11:24:20.78	113.46	23.35	-23.8	-24.6	18.8	0.00e+00	0	43	0	942669824	8	3952
2026-01-28 11:24:21.78	113.31	23.48	-23.8	-24.6	18.8	0.00e+00	0	43	0	947912704	8	3955
2026-01-28 11:24:22.79	113.15	23.60	-23.7	-24.5	18.9	0.00e+00	0	43	0	954204160	8	3937
2026-01-28 11:24:23.80	113.00	23.73	-23.9	-24.9	18.7	0.00e+00	0	43	0	959447040	8	4027
2026-01-28 11:24:24.81	112.84	23.86	-23.9	-24.8	18.7	0.00e+00	0	43	0	965738496	8	4017
2026-01-28 11:24:25.81	112.68	23.99	-23.8	-24.6	18.8	0.00e+00	0	43	0	970981376	8	3959
2026-01-28 11:24:26.81	112.52	24.12	-23.8	-24.7	18.7	0.00e+00	0	43	0	977272832	8	4002
2026-01-28 11:24:27.81	112.36	24.25	-23.8	-24.8	18.7	0.00e+00	0	43	0	982515712	8	4009
2026-01-28 11:24:28.81	112.20	24.37	-23.8	-24.6	18.8	0.00e+00	0	43	0	987758592	8	3977
2026-01-28 11:24:29.82	112.03	24.50	-23.9	-24.8	18.7	0.00e+00	0	43	0	994050048	8	4016
2026-01-28 11:24:30.82	111.87	24.63	-23.8	-24.7	18.7	0.00e+00	0	43	0	999292928	8	3987
2026-01-28 11:24:31.83	111.70	24.77	-23.8	-24.6	18.8	0.00e+00	0	43	0	1004535808	8	3960
2026-01-28 11:24:32.83	111.53	24.90	-23.9	-24.9	18.6	0.00e+00	0	43	0	1010827264	8	4041
2026-01-28 11:24:33.83	111.37	25.03	-23.7	-24.4	18.9	0.00e+00	0	43	0	1016070144	8	3918
2026-01-28 11:24:34.84	111.19	25.16	-23.6	-24.3	19.0	0.00e+00	0	43	0	1022361600	8	3887
2026-01-28 11:24:35.84	111.02	25.29	-23.7	-24.4	18.9	0.00e+00	0	43	0	1027604480	8	3905
2026-01-28 11:24:36.84	110.85	25.42	-23.6	-24.1	19.1	0.00e+00	0	43	0	1032847360	8	3851
2026-01-28 11:24:37.85	110.67	25.56	-23.5	-23.9	19.2	0.00e+00	0	43	0	1039138816	8	3807
2026-01-28 11:24:38.85	110.50	25.69	-23.5	-24.1	19.1	0.00e+00	0	43	0	1044381696	8	3836
2026-01-28 11:24:39.86	110.32	25.82	-23.4	-23.8	19.2	0.00e+00	0	43	0	1049624576	8	3774
2026-01-28 11:24:40.86	110.14	25.96	-23.3	-23.7	19.3	0.00e+00	0	43	0	1055916032	8	3742
2026-01-28 11:24:41.87	109.96	26.09	-23.4	-23.9	19.2	0.00e+00	0	43	0	1061158912	8	3802
2026-01-28 11:24:42.87	109.77	26.23	-23.4	-23.9	19.2	0.00e+00	0	43	0	1067450368	8	3795
2026-01-28 11:24:43.88	109.59	26.36	-23.5	-24.0	19.1	0.00e+00	0	43	0	1072693248	8	3826
2026-01-28 11:24:44.88	109.40	26.50	-23.5	-24.0	19.1	0.00e+00	0	43	0	1077936128	8	3831
2026-01-28 11:24:45.89	109.21	26.63	-23.6	-24.2	19.1	0.00e+00	0	43	0	1084227584	8	3860
2026-01-28 11:24:46.89	109.03	26.77	-23.5	-24.0	19.2	0.00e+00	0	43	0	1089470464	8	3820
2026-01-28 11:24:47.90	108.83	26.90	-23.4	-23.8	19.2	0.00e+00	0	43	0	1095761920	8	3782
2026-01-28 11:24:48.90	108.64	27.04	-23.4	-23.8	19.3	0.00e+00	0	43	0	1101004800	8	3774
2026-01-28 11:24:49.90	108.45	27.18	-23.2	-24.0	19.4	0.00e+00	0	43	0	1106247680	7	3926
2026-01-28 11:24:50.89	108.25	27.31	-23.3	-24.1	19.4	0.00e+00	0	43	0	1112539136	7	3956
2026-01-28 11:24:51.90	108.06	27.45	-23.2	-23.9	19.4	0.00e+00	0	43	0	1117782016	7	3909
2026-01-28 11:24:52.90	107.86	27.59	-23.2	-23.9	19.4	0.00e+00	0	43	0	1123024896	7	3907
2026-01-28 11:24:53.91	107.66	27.73	-23.3	-24.0	19.4	0.00e+00	0	43	0	1129316352	7	3934
2026-01-28 11:24:54.92	107.45	27.87	-23.4	-24.2	19.3	0.00e+00	0	43	0	1134559232	7	3981
2026-01-28 11:24:55.93	107.25	28.01	-23.4	-24.3	19.2	0.00e+00	0	43	0	1140850688	7	4002
2026-01-28 11:24:56.94	107.04	28.15	-23.5	-24.6	19.1	0.00e+00	0	43	0	1146093568	7	4079
2026-01-28 11:24:57.94	106.83	28.28	-23.4	-24.4	19.3	0.00e+00	0	43	0	1151336448	7	4015
2026-01-28 11:24:58.95	106.62	28.42	-23.4	-24.3	19.3	0.00e+00	0	43	0	1157627904	7	3989
2026-01-28 11:24:59.95	106.41	28.56	-23.5	-24.5	19.2	0.00e+00	0	43	0	1162870784	7	4034
2026-01-28 11:25:00.95	106.19	28.70	-23.3	-24.1	19.4	0.00e+00	0	43	0	1169162240	7	3953
2026-01-28 11:25:01.96	105.98	28.84	-23.4	-24.3	19.3	0.00e+00	0	43	0	1174405120	7	3988
2026-01-28 11:25:02.96	105.76	28.98	-23.3	-24.2	19.3	0.00e+00	0	43	0	1180696576	7	3972
2026-01-28 11:25:03.96	105.54	29.12	-23.4	-24.3	19.3	0.00e+00	0	43	0	1185939456	7	3989
2026-01-28 11:25:04.97	105.32	29.27	-23.5	-24.5	19.2	0.00e+00	0	43	0	1191182336	7	4050
2026-01-28 11:25:05.97	105.10	29.41	-23.3	-24.1	19.4	0.00e+00	0	43	0	1197473792	7	3960
2026-01-28 11:25:06.97	104.87	29.55	-23.3	-24.1	19.4	0.00e+00	0	43	0	1202716672	7	3951
2026-01-28 11:25:07.97	104.64	29.69	-23.4	-24.2	19.3	0.00e+00	0	43	0	1207959552	7	3981
2026-01-28 11:25:08.98	104.41	29.83	-23.3	-24.0	19.4	0.00e+00	0	43	0	1214251008	7	3928
2026-01-28 11:25:09.99	104.18	29.98	-23.2	-24.0	19.5	0.00e+00	0	43	0	1219493888	7	3930
2026-01-28 11:25:10.99	103.95	30.12	-23.3	-24.1	19.4	0.00e+00	0	43	0	1224736768	7	3955
2026-01-28 11:25:12.00	103.71	30.26	-23.2	-23.8	19.6	0.00e+00	0	43	0	1231028224	7	3881
2026-01-28 11:25:13.00	103.47	30.40	-23.2	-23.9	19.5	0.00e+00	0	43	0	1236271104	7	3899
2026-01-28 11:25:14.01	103.23	30.55	-23.4	-24.3	19.3	0.00e+00	0	43	0	1242562560	7	3990
2026-01-28 11:25:15.02	102.99	30.69	-23.3	-24.1	19.4	0.00e+00	0	43	0	1247805440	7	3944
2026-01-28 11:25:16.01	102.75	30.83	-23.2	-23.9	19.5	0.00e+00	0	43	0	1254096896	7	3913
2026-01-28 11:25:17.01	102.50	30.97	-23.2	-23.9	19.5	0.00e+00	0	43	0	1259339776	7	3906
2026-01-28 11:25:18.01	102.25	31.11	-23.3	-24.1	19.4	0.00e+00	0	43	0	1264582656	7	3945
2026-01-28 11:25:19.01	102.00	31.26	-23.1	-23.7	19.6	0.00e+00	0	43	0	1270874112	7	3841
2026-01-28 11:25:20.01	101.75	31.40	-23.1	-23.7	19.6	0.00e+00	0	43	0	1276116992	7	3848
2026-01-28 11:25:21.01	101.50	31.54	-23.2	-24.0	19.5	0.00e+00	0	43	0	1281359872	7	3921
2026-01-28 11:25:22.02	101.24	31.69	-23.1	-23.8	19.6	0.00e+00	0	43	0	1287651328	7	3879
2026-01-28 11:25:23.02	100.98	31.83	-23.1	-23.7	19.6	0.00e+00	0	43	0	1292894208	7	3866
2026-01-28 11:25:24.02	100.72	31.97	-23.3	-24.1	19.4	0.00e+00	0	43	0	1298137088	7	3942
2026-01-28 11:25:25.03	100.45	32.12	-23.2	-23.9	19.5	0.00e+00	0	43	0	1304428544	7	3903
2026-01-28 11:25:26.02	100.19	32.26	-23.2	-23.9	19.5	0.00e+00	0	43	0	1309671424	7	3902
2026-01-28 11:25:27.03	99.92	32.40	-23.4	-24.3	19.3	0.00e+00	0	43	0	1315962880	7	3987
2026-01-28 11:25:28.04	99.64	32.55	-23.3	-24.1	19.4	0.00e+00	0	43	0	1321205760	7	3945
2026-01-28 11:25:29.04	99.37	32.69	-23.4	-24.3	19.3	0.00e+00	0	43	0	1326448640	7	4001
2026-01-28 11:25:30.04	99.10	32.83	-23.6	-24.8	19.1	0.00e+00	0	43	0	1332740096	7	4108
2026-01-28 11:25:31.04	98.82	32.98	-23.3	-24.2	19.4	0.00e+00	0	43	0	1337982976	7	3963
2026-01-28 11:25:32.04	98.54	33.12	-23.3	-24.1	19.4	0.00e+00	0	43	0	1343225856	7	3947
2026-01-28 11:25:33.04	98.25	33.26	-23.4	-24.4	19.3	0.00e+00	0	43	0	1349517312	7	4022
2026-01-28 11:25:34.04	97.97	33.40	-23.2	-23.8	19.6	0.00e+00	0	43	0	1354760192	7	3884
2026-01-28 11:25:35.04	97.68	33.54	-23.1	-23.6	19.7	0.00e+00	0	43	0	1360003072	7	3833
2026-01-28 11:25:36.04	97.39	33.69	-23.1	-23.7	19.7	0.00e+00	0	43	0	1366294528	7	3853
2026-01-28 11:25:37.04	97.10	33.83	-23.1	-23.8	19.6	0.00e+00	0	43	0	1371537408	7	3871
2026-01-28 11:25:38.04	96.80	33.97	-23.4	-24.3	19.4	0.00e+00	0	43	0	1377828864	7	4008
2026-01-28 11:25:39.04	96.50	34.11	-23.2	-23.8	19.6	0.00e+00	0	43	0	1383071744	7	3886
2026-01-28 11:25:40.05	96.20	34.25	-23.0	-23.4	19.8	0.00e+00	0	43	0	1388314624	7	3794
2026-01-28 11:25:41.05	95.90	34.39	-22.9	-23.3	19.9	0.00e+00	0	43	0	1394606080	7	3764
2026-01-28 11:25:42.05	95.59	34.53	-23.1	-23.6	19.8	0.00e+00	0	43	0	1399848960	7	3827
2026-01-28 11:25:43.05	95.28	34.67	-23.0	-23.4	19.8	0.00e+00	0	43	0	1405091840	7	3792
2026-01-28 11:25:44.05	94.97	34.81	-22.9	-23.2	19.9	0.00e+00	0	43	0	1411383296	7	3743
2026-01-28 11:25:45.05	94.66	34.95	-22.9	-23.2	19.9	0.00e+00	0	43	0	1416626176	7	3749
2026-01-28 11:25:46.06	94.34	35.09	-22.8	-23.1	20.0	0.00e+00	0	43	0	1421869056	7	3715
2026-01-28 11:25:47.06	94.02	35.23	-22.9	-23.3	19.9	0.00e+00	0	43	0	1428160512	7	3756
2026-01-28 11:25:48.06	93.69	35.37	-22.9	-23.4	19.9	0.00e+00	0	43	0	1433403392	7	3781
2026-01-28 11:25:49.07	93.37	35.51	-23.0	-23.6	19.8	0.00e+00	0	43	0	1439694848	7	3827
2026-01-28 11:25:50.07	93.04	35.65	-23.1	-23.7	19.7	0.00e+00	0	43	0	1444937728	7	3856
2026-01-28 11:25:51.08	92.70	35.79	-23.2	-23.9	19.6	0.00e+00	0	43	0	1451229184	7	3904
2026-01-28 11:25:52.08	92.37	35.92	-23.3	-24.1	19.5	0.00e+00	0	43	0	1456472064	7	3947
2026-01-28 11:25:53.08	92.03	36.06	-23.3	-24.1	19.5	0.00e+00	0	43	0	1461714944	7	3941
2026-01-28 11:25:54.09	91.69	36.19	-23.2	-23.9	19.6	0.00e+00	0	43	0	1468006400	7	3907
2026-01-28 11:25:55.09	91.35	36.33	-23.3	-24.2	19.5	0.00e+00	0	43	0	1473249280	7	3967
2026-01-28 11:25:56.10	91.00	36.46	-23.4	-24.2	19.4	0.00e+00	0	43	0	1478492160	7	3985
2026-01-28 11:25:57.10	90.65	36.60	-23.4	-24.4	19.4	0.00e+00	0	43	0	1484783616	7	4016
2026-01-28 11:25:58.11	90.30	36.73	-23.4	-24.3	19.4	0.00e+00	0	43	0	1490026496	7	3992
2026-01-28 11:25:59.10	89.95	36.86	-23.3	-24.2	19.5	0.00e+00	0	43	0	1495269376	7	3961
2026-01-28 11:26:00.11	89.59	36.99	-23.0	-23.4	19.9	0.00e+00	0	43	0	1501560832	7	3786
2026-01-28 11:26:01.11	89.23	37.12	-22.8	-23.1	20.0	0.00e+00	0	43	0	1506803712	7	3713
2026-01-28 11:26:02.12	88.86	37.26	-22.9	-23.3	19.9	0.00e+00	0	43	0	1513095168	7	3761
2026-01-28 11:26:03.12	88.50	37.38	-23.0	-23.5	19.8	0.00e+00	0	43	0	1518338048	7	3801
2026-01-28 11:26:04.12	88.13	37.51	-23.3	-24.1	19.5	0.00e+00	0	43	0	1524629504	7	3939
2026-01-28 11:26:05.13	87.76	37.64	-23.1	-23.8	19.7	0.00e+00	0	43	0	1529872384	7	3872
2026-01-28 11:26:06.13	87.38	37.77	-23.1	-23.7	19.7	0.00e+00	0	43	0	1535115264	7	3846
2026-01-28 11:26:07.12	87.01	37.89	-23.3	-24.1	19.5	0.00e+00	0	43	0	1541406720	7	3948
2026-01-28 11:26:08.13	86.63	38.02	-23.2	-23.9	19.6	0.00e+00	0	43	0	1546649600	7	3897
2026-01-28 11:26:09.14	86.24	38.14	-23.2	-23.9	19.7	0.00e+00	0	43	0	1551892480	7	3898
2026-01-28 11:26:10.14	85.85	38.26	-23.2	-23.9	19.6	0.00e+00	0	43	0	1558183936	7	3900
2026-01-28 11:26:11.14	85.47	38.38	-23.1	-23.6	19.8	0.00e+00	0	43	0	1563426816	7	3830
2026-01-28 11:26:12.15	85.07	38.51	-23.0	-23.4	19.9	0.00e+00	0	43	0	1568669696	7	3777
2026-01-28 11:26:13.15	84.68	38.62	-23.2	-23.8	19.7	0.00e+00	0	43	0	1574961152	7	3879
2026-01-28 11:26:14.15	84.28	38.74	-23.1	-23.7	19.8	0.00e+00	0	43	0	1580204032	7	3848
2026-01-28 11:26:15.16	83.88	38.86	-23.1	-23.8	19.7	0.00e+00	0	43	0	1586495488	7	3867
2026-01-28 11:26:16.16	83.47	38.98	-23.2	-23.8	19.7	0.00e+00	0	43	0	1591738368	7	3884
2026-01-28 11:26:17.16	83.07	39.09	-23.3	-24.0	19.6	0.00e+00	0	43	0	1598029824	7	3925
2026-01-28 11:26:18.17	82.66	39.20	-23.2	-24.0	19.6	0.00e+00	0	43	0	1603272704	7	3913
2026-01-28 11:26:19.18	82.24	39.32	-23.2	-23.9	19.7	0.00e+00	0	43	0	1608515584	7	3892
2026-01-28 11:26:20.19	81.82	39.43	-23.4	-24.3	19.5	0.00e+00	0	43	0	1614807040	7	3988
2026-01-28 11:26:21.19	81.40	39.54	-23.4	-24.3	19.5	0.00e+00	0	43	0	1620049920	7	4001
2026-01-28 11:26:22.19	80.98	39.64	-23.4	-24.4	19.5	0.00e+00	0	43	0	1625292800	7	4013
2026-01-28 11:26:23.19	80.56	39.75	-23.2	-23.9	19.7	0.00e+00	0	43	0	1631584256	7	3885
2026-01-28 11:26:24.20	80.13	39.86	-23.3	-24.1	19.6	0.00e+00	0	43	0	1636827136	7	3936
2026-01-28 11:26:25.20	79.70	39.96	-23.0	-23.4	19.9	0.00e+00	0	43	0	1642070016	7	3774
2026-01-28 11:26:26.20	79.27	40.06	-22.8	-23.1	20.1	0.00e+00	0	43	0	1648361472	7	3723
2026-01-28 11:26:27.20	78.84	40.16	-22.8	-23.0	20.1	0.00e+00	0	43	0	1653604352	7	3696
2026-01-28 11:26:28.21	78.40	40.26	-22.8	-23.0	20.2	0.00e+00	0	43	0	1659895808	7	3690
2026-01-28 11:26:29.21	77.96	40.36	-22.7	-23.3	20.2	0.00e+00	0	43	0	1665138688	6	3857
2026-01-28 11:26:30.22	77.51	40.45	-22.8	-23.6	20.1	0.00e+00	0	43	0	1671430144	6	3928
2026-01-28 11:26:31.22	77.07	40.55	-23.0	-24.0	19.9	0.00e+00	0	43	0	1676673024	6	4021
2026-01-28 11:26:32.23	76.62	40.64	-23.2	-24.3	19.7	0.00e+00	0	43	0	1681915904	6	4100
2026-01-28 11:26:33.23	76.17	40.73	-23.1	-24.1	19.8	0.00e+00	0	43	0	1688207360	6	4059
2026-01-28 11:26:34.24	75.71	40.82	-23.2	-24.4	19.7	0.00e+00	0	43	0	1693450240	6	4117
2026-01-28 11:26:35.25	75.26	40.90	-23.3	-24.7	19.6	0.00e+00	0	43	0	1698693120	6	4194
2026-01-28 11:26:36.25	74.80	40.99	-23.1	-24.1	19.8	0.00e+00	0	43	0	1704984576	6	4064
2026-01-28 11:26:37.25	74.34	41.07	-23.0	-24.0	19.9	0.00e+00	0	43	0	1710227456	6	4029
2026-01-28 11:26:38.26	73.87	41.15	-23.0	-23.9	20.0	0.00e+00	0	43	0	1716518912	6	3996
2026-01-28 11:26:39.26	73.41	41.23	-23.0	-24.0	19.9	0.00e+00	0	43	0	1721761792	6	4029
2026-01-28 11:26:40.27	72.94	41.31	-22.8	-23.6	20.1	0.00e+00	0	43	0	1727004672	6	3926
2026-01-28 11:26:41.28	72.47	41.38	-22.7	-23.3	20.2	0.00e+00	0	43	0	1733296128	6	3867
2026-01-28 11:26:42.28	72.00	41.46	-22.8	-23.5	20.2	0.00e+00	0	43	0	1738539008	6	3909
2026-01-28 11:26:43.29	71.52	41.53	-22.8	-23.6	20.1	0.00e+00	0	43	0	1744830464	6	3926
2026-01-28 11:26:44.29	71.05	41.60	-22.8	-23.6	20.1	0.00e+00	0	43	0	1750073344	6	3927
2026-01-28 11:26:45.29	70.57	41.66	-22.6	-23.2	20.3	0.00e+00	0	43	0	1755316224	6	3837
2026-01-28 11:26:46.29	70.09	41.73	-22.7	-23.4	20.2	0.00e+00	0	43	0	1761607680	6	3875
2026-01-28 11:26:47.29	69.61	41.79	-23.0	-23.9	20.0	0.00e+00	0	43	0	1766850560	6	4013
2026-01-28 11:26:48.29	69.13	41.85	-23.0	-23.9	20.0	0.00e+00	0	43	0	1772093440	6	4004
2026-01-28 11:26:49.30	68.64	41.91	-23.0	-23.9	20.0	0.00e+00	0	43	0	1778384896	6	4003
2026-01-28 11:26:50.30	68.16	41.96	-23.0	-24.0	19.9	0.00e+00	0	43	0	1783627776	6	4041
2026-01-28 11:26:51.30	67.67	42.01	-23.0	-24.0	19.9	0.00e+00	0	43	0	1788870656	6	4031
2026-01-28 11:26:52.31	67.18	42.07	-22.9	-23.8	20.0	0.00e+00	0	43	0	1795162112	6	3985
2026-01-28 11:26:53.32	66.68	42.12	-22.9	-23.8	20.1	0.00e+00	0	43	0	1800404992	6	3969
2026-01-28 11:26:54.32	66.19	42.16	-23.0	-23.9	20.1	0.00e+00	0	43	0	1806696448	6	3998
2026-01-28 11:26:55.33	65.69	42.21	-22.9	-23.7	20.3	0.00e+00	0	43	0	1811939328	6	3941
2026-01-28 11:26:56.34	65.19	42.25	-23.3	-24.6	19.8	0.00e+00	0	43	0	1818230784	6	4169
2026-01-28 11:26:57.35	64.69	42.29	-23.5	-24.9	19.7	0.00e+00	0	43	0	1823473664	6	4225
2026-01-28 11:26:58.35	64.20	42.32	-23.7	-24.9	19.4	0.00e+00	0	43	0	1828716544	7	4120
2026-01-28 11:26:59.36	63.69	42.36	-23.9	-24.8	19.3	0.00e+00	0	43	0	1835008000	8	3981
2026-01-28 11:27:00.36	63.20	42.39	-23.5	-24.0	19.7	0.00e+00	0	43	0	1840250880	8	3800
2026-01-28 11:27:01.36	62.70	42.42	-23.3	-23.5	19.9	0.00e+00	0	43	0	1846542336	8	3697
2026-01-28 11:27:02.37	62.19	42.45	-23.1	-23.6	20.0	0.00e+00	0	43	0	1851785216	7	3821
2026-01-28 11:27:03.37	61.69	42.47	-22.9	-23.1	20.3	0.00e+00	0	43	0	1857028096	7	3698
2026-01-28 11:27:04.38	61.18	42.49	-22.8	-23.0	20.3	0.00e+00	0	43	0	1863319552	7	3682
2026-01-28 11:27:05.38	60.68	42.51	-23.1	-23.6	20.1	0.00e+00	0	43	0	1868562432	7	3818
2026-01-28 11:27:06.38	60.18	42.53	-22.9	-23.2	20.2	0.00e+00	0	43	0	1873805312	7	3730
2026-01-28 11:27:07.38	59.67	42.55	-22.4	-22.7	20.7	0.00e+00	0	43	0	1880096768	6	3712
2026-01-28 11:27:08.39	59.16	42.56	-22.4	-22.6	20.8	0.00e+00	0	43	0	1885339648	6	3695
2026-01-28 11:27:09.38	58.66	42.57	-22.6	-23.1	20.6	0.00e+00	0	43	0	1891631104	6	3812
2026-01-28 11:27:10.39	58.15	42.57	-22.5	-22.8	20.7	0.00e+00	0	43	0	1896873984	6	3747
2026-01-28 11:27:11.39	57.65	42.58	-22.3	-22.4	20.9	0.00e+00	0	43	0	1902116864	6	3652
2026-01-28 11:27:12.40	57.14	42.58	-22.3	-22.8	20.9	0.00e+00	0	43	0	1908408320	5	3846
2026-01-28 11:27:13.40	56.63	42.58	-22.4	-23.1	20.8	0.00e+00	0	43	0	1913651200	5	3906
2026-01-28 11:27:14.40	56.13	42.58	-22.5	-23.3	20.7	0.00e+00	0	43	0	1918894080	5	3962
2026-01-28 11:27:15.41	55.62	42.57	-22.6	-23.6	20.5	0.00e+00	0	43	0	1925185536	5	4034
2026-01-28 11:27:16.41	55.12	42.56	-22.9	-24.3	20.2	0.00e+00	0	43	0	1930428416	5	4192
2026-01-28 11:27:17.42	54.61	42.55	-23.1	-24.0	20.1	0.00e+00	0	43	0	1936719872	6	4019
2026-01-28 11:27:18.43	54.10	42.54	-22.7	-23.4	20.4	0.00e+00	0	43	0	1941962752	6	3861
2026-01-28 11:27:19.44	53.59	42.52	-22.3	-22.5	20.8	0.00e+00	0	43	0	1947205632	6	3671
2026-01-28 11:27:20.44	53.09	42.51	-22.4	-22.6	20.8	0.00e+00	0	43	0	1953497088	6	3701
2026-01-28 11:27:21.44	52.58	42.49	-22.3	-22.5	20.8	0.00e+00	0	43	0	1958739968	6	3681
2026-01-28 11:27:22.44	52.08	42.46	-22.3	-22.9	20.8	0.00e+00	0	43	0	1965031424	5	3864
2026-01-28 11:27:23.45	51.58	42.44	-22.3	-23.0	20.8	0.00e+00	0	43	0	1970274304	5	3882
2026-01-28 11:27:24.45	51.08	42.41	-22.4	-23.3	20.7	0.00e+00	0	43	0	1975517184	5	3950
2026-01-28 11:27:25.46	50.57	42.38	-22.5	-23.4	20.6	0.00e+00	0	43	0	1981808640	5	3979
2026-01-28 11:27:26.46	50.07	42.35	-22.3	-22.8	20.9	0.00e+00	0	43	0	1987051520	5	3851
2026-01-28 11:27:27.47	49.57	42.31	-22.3	-22.9	20.9	0.00e+00	0	43	0	1993342976	5	3854
2026-01-28 11:27:28.47	49.08	42.27	-22.4	-23.2	20.7	0.00e+00	0	43	0	1998585856	5	3926
2026-01-28 11:27:29.48	48.58	42.23	-22.7	-23.7	20.5	0.00e+00	0	43	0	2003828736	5	4053
2026-01-28 11:27:30.49	48.08	42.19	-22.7	-23.8	20.4	0.00e+00	0	43	0	2010120192	5	4086
2026-01-28 11:27:31.49	47.59	42.15	-22.5	-23.3	20.6	0.00e+00	0	43	0	2015363072	5	3969
2026-01-28 11:27:32.49	47.10	42.10	-22.4	-23.1	20.7	0.00e+00	0	43	0	2021654528	5	3917
2026-01-28 11:27:33.50	46.60	42.05	-22.4	-23.2	20.7	0.00e+00	0	43	0	2026897408	5	3933
2026-01-28 11:27:34.50	46.12	42.00	-22.5	-23.4	20.6	0.00e+00	0	43	0	2032140288	5	3985
2026-01-28 11:27:35.51	45.63	41.94	-22.6	-23.5	20.5	0.00e+00	0	43	0	2038431744	5	4008
2026-01-28 11:27:36.51	45.14	41.89	-22.7	-23.7	20.5	0.00e+00	0	43	0	2043674624	5	4058
2026-01-28 11:27:37.52	44.65	41.83	-22.6	-23.6	20.5	0.00e+00	0	43	0	2049966080	5	4025
2026-01-28 11:27:38.53	44.17	41.77	-22.8	-23.9	20.4	0.00e+00	0	43	0	2055208960	5	4109
2026-01-28 11:27:39.53	43.69	41.70	-22.9	-24.2	20.2	0.00e+00	0	43	0	2060451840	5	4187
2026-01-28 11:27:40.54	43.21	41.64	-22.8	-24.1	20.3	0.00e+00	0	43	0	2066743296	5	4144
2026-01-28 11:27:41.54	42.73	41.57	-22.7	-23.8	20.4	0.00e+00	0	43	0	2071986176	5	4075
2026-01-28 11:27:42.55	42.26	41.50	-22.6	-23.7	20.5	0.00e+00	0	43	0	2077229056	5	4041
2026-01-28 11:27:43.55	41.78	41.43	-22.8	-24.0	20.3	0.00e+00	0	43	0	2083520512	5	4132
2026-01-28 11:27:44.56	41.31	41.36	-22.8	-24.0	20.3	0.00e+00	0	43	0	2088763392	5	4130
2026-01-28 11:27:45.57	40.84	41.28	-22.7	-23.7	20.4	0.00e+00	0	43	0	2095054848	5	4053
2026-01-28 11:27:46.57	40.38	41.20	-22.6	-23.6	20.5	0.00e+00	0	43	0	2100297728	5	4022
2026-01-28 11:27:47.57	39.91	41.12	-22.7	-23.7	20.4	0.00e+00	0	43	0	2106589184	5	4053
2026-01-28 11:27:48.57	39.45	41.04	-22.5	-23.4	20.6	0.00e+00	0	43	0	2111832064	5	3980
2026-01-28 11:27:49.57	39.00	40.96	-22.6	-23.5	20.6	0.00e+00	0	43	0	2117074944	5	3995
2026-01-28 11:27:50.57	38.54	40.87	-22.7	-23.8	20.4	0.00e+00	0	43	0	2123366400	5	4067
2026-01-28 11:27:51.57	38.09	40.79	-22.9	-24.1	20.2	0.00e+00	0	43	0	2128609280	5	4156
2026-01-28 11:27:52.58	37.64	40.70	-22.9	-23.7	20.2	0.00e+00	0	43	0	2133852160	6	3940
2026-01-28 11:27:53.59	37.18	40.61	-22.7	-23.2	20.5	0.00e+00	0	43	0	2140143616	6	3814
2026-01-28 11:27:54.59	36.74	40.52	-22.6	-23.1	20.5	0.00e+00	0	43	0	2145386496	6	3799
2026-01-28 11:27:55.60	36.29	40.42	-22.6	-23.1	20.5	0.00e+00	0	43	0	2150629376	6	3795
2026-01-28 11:27:56.61	35.85	40.32	-22.5	-22.9	20.6	0.00e+00	0	43	0	2156920832	6	3749
2026-01-28 11:27:57.61	35.41	40.23	-22.4	-22.6	20.7	0.00e+00	0	43	0	2162163712	6	3699
2026-01-28 11:27:58.62	34.97	40.13	-22.6	-23.0	20.6	0.00e+00	0	43	0	2168455168	6	3782
2026-01-28 11:27:59.62	34.54	40.03	-22.6	-23.0	20.6	0.00e+00	0	43	0	2173698048	6	3774
2026-01-28 11:28:00.63	34.11	39.92	-22.3	-22.4	20.8	0.00e+00	0	43	0	2179989504	6	3655
2026-01-28 11:28:01.63	33.68	39.82	-22.3	-23.0	20.8	0.00e+00	0	43	0	2185232384	5	3875
2026-01-28 11:28:02.63	33.26	39.72	-22.5	-23.3	20.6	0.00e+00	0	43	0	2190475264	5	3965
2026-01-28 11:28:03.63	32.84	39.61	-22.6	-23.7	20.4	0.00e+00	0	43	0	2196766720	5	4056
2026-01-28 11:28:04.64	32.42	39.50	-22.5	-23.3	20.6	0.00e+00	0	43	0	2202009600	5	3967
2026-01-28 11:28:05.64	32.00	39.39	-22.4	-23.1	20.7	0.00e+00	0	43	0	2207252480	5	3900
2026-01-28 11:28:06.64	31.59	39.28	-22.5	-23.4	20.6	0.00e+00	0	43	0	2213543936	5	3993
2026-01-28 11:28:07.64	31.18	39.17	-22.8	-23.9	20.3	0.00e+00	0	43	0	2218786816	5	4109
2026-01-28 11:28:08.64	30.77	39.06	-22.9	-24.1	20.2	0.00e+00	0	43	0	2224029696	5	4155
2026-01-28 11:28:09.65	30.36	38.94	-22.9	-24.1	20.2	0.00e+00	0	43	0	2230321152	5	4144
2026-01-28 11:28:10.65	29.96	38.83	-22.8	-24.0	20.3	0.00e+00	0	43	0	2235564032	5	4126
2026-01-28 11:28:11.65	29.57	38.71	-22.9	-24.2	20.2	0.00e+00	0	43	0	2241855488	5	4184
2026-01-28 11:28:12.65	29.17	38.59	-22.9	-23.8	20.1	0.00e+00	0	43	0	2247098368	6	3968
2026-01-28 11:28:13.66	28.77	38.47	-22.9	-23.6	20.2	0.00e+00	0	43	0	2253389824	6	3922
2026-01-28 11:28:14.66	28.38	38.35	-22.8	-23.4	20.3	0.00e+00	0	43	0	2258632704	6	3869
2026-01-28 11:28:15.67	27.99	38.23	-22.9	-23.7	20.2	0.00e+00	0	43	0	2263875584	6	3931
2026-01-28 11:28:16.67	27.61	38.11	-22.8	-23.5	20.3	0.00e+00	0	43	0	2270167040	6	3904
2026-01-28 11:28:17.67	27.23	37.98	-22.9	-23.7	20.2	0.00e+00	0	43	0	2275409920	6	3950
2026-01-28 11:28:18.68	26.85	37.86	-22.9	-23.7	20.2	0.00e+00	0	43	0	2280652800	6	3935
2026-01-28 11:28:19.68	26.47	37.73	-22.7	-23.3	20.4	0.00e+00	0	43	0	2286944256	6	3851
2026-01-28 11:28:20.68	26.10	37.61	-22.7	-23.3	20.4	0.00e+00	0	43	0	2292187136	6	3853
2026-01-28 11:28:21.68	25.73	37.48	-22.7	-23.3	20.4	0.00e+00	0	43	0	2297430016	6	3852
2026-01-28 11:28:22.68	25.37	37.35	-22.8	-23.4	20.3	0.00e+00	0	43	0	2303721472	6	3888
2026-01-28 11:28:23.69	25.00	37.22	-22.9	-23.6	20.2	0.00e+00	0	43	0	2308964352	6	3922
2026-01-28 11:28:24.69	24.64	37.09	-22.9	-23.8	20.1	0.00e+00	0	43	0	2315255808	6	3959
2026-01-28 11:28:25.70	24.28	36.96	-22.8	-23.5	20.2	0.00e+00	0	43	0	2320498688	6	3899
2026-01-28 11:28:26.70	23.93	36.83	-22.7	-23.2	20.4	0.00e+00	0	43	0	2325741568	6	3831
2026-01-28 11:28:27.70	23.57	36.70	-22.7	-23.2	20.4	0.00e+00	0	43	0	2332033024	6	3834
2026-01-28 11:28:28.71	23.22	36.56	-22.8	-23.5	20.3	0.00e+00	0	43	0	2337275904	6	3888
2026-01-28 11:28:29.71	22.88	36.43	-22.8	-23.4	20.3	0.00e+00	0	43	0	2343567360	6	3871
2026-01-28 11:28:30.72	22.53	36.29	-22.7	-23.3	20.4	0.00e+00	0	43	0	2348810240	6	3850
2026-01-28 11:28:31.73	22.19	36.16	-22.7	-23.4	20.3	0.00e+00	0	43	0	2354053120	6	3865
2026-01-28 11:28:32.73	21.85	36.02	-22.5	-22.9	20.5	0.00e+00	0	43	0	2360344576	6	3767
2026-01-28 11:28:33.74	21.51	35.89	-22.3	-22.5	20.7	0.00e+00	0	43	0	2365587456	6	3668
2026-01-28 11:28:34.74	21.18	35.75	-22.2	-22.8	20.8	0.00e+00	0	43	0	2370830336	5	3848
2026-01-28 11:28:35.75	20.85	35.61	-22.2	-22.6	20.9	0.00e+00	0	43	0	2377121792	5	3805
2026-01-28 11:28:36.75	20.52	35.48	-22.0	-22.4	21.0	0.00e+00	0	43	0	2382364672	5	3743
2026-01-28 11:28:37.76	20.20	35.34	-22.1	-22.5	21.0	0.00e+00	0	43	0	2388656128	5	3772
2026-01-28 11:28:38.76	19.88	35.20	-22.2	-22.8	20.8	0.00e+00	0	43	0	2393899008	5	3835
2026-01-28 11:28:39.76	19.56	35.06	-22.3	-23.0	20.7	0.00e+00	0	43	0	2400190464	5	3899
2026-01-28 11:28:40.77	19.24	34.92	-22.3	-23.0	20.7	0.00e+00	0	43	0	2405433344	5	3903
2026-01-28 11:28:41.76	18.93	34.78	-22.4	-23.1	20.6	0.00e+00	0	43	0	2410676224	5	3922
2026-01-28 11:28:42.76	18.62	34.64	-22.5	-23.4	20.5	0.00e+00	0	43	0	2416967680	5	3982
2026-01-28 11:28:43.76	18.31	34.50	-22.6	-23.5	20.4	0.00e+00	0	43	0	2422210560	5	4018
2026-01-28 11:28:44.77	18.01	34.36	-22.6	-23.6	20.4	0.00e+00	0	43	0	2427453440	5	4043
2026-01-28 11:28:45.77	17.71	34.22	-22.6	-23.7	20.4	0.00e+00	0	43	0	2433744896	5	4048
2026-01-28 11:28:46.77	17.41	34.08	-22.6	-23.6	20.4	0.00e+00	0	43	0	2438987776	5	4027
2026-01-28 11:28:47.77	17.11	33.94	-22.7	-23.7	20.3	0.00e+00	0	43	0	2444230656	5	4061
2026-01-28 11:28:48.78	16.81	33.80	-22.6	-23.5	20.5	0.00e+00	0	43	0	2450522112	5	4002
2026-01-28 11:28:49.78	16.52	33.66	-22.5	-23.4	20.5	0.00e+00	0	43	0	2455764992	5	3994
2026-01-28 11:28:50.78	16.23	33.52	-22.5	-23.3	20.5	0.00e+00	0	43	0	2462056448	5	3954
2026-01-28 11:28:51.79	15.95	33.37	-22.5	-23.4	20.5	0.00e+00	0	43	0	2467299328	5	3987
2026-01-28 11:28:52.79	15.66	33.23	-22.6	-23.5	20.4	0.00e+00	0	43	0	2472542208	5	4007
2026-01-28 11:28:53.80	15.38	33.09	-22.7	-23.8	20.3	0.00e+00	0	43	0	2478833664	5	4088
2026-01-28 11:28:54.79	15.10	32.95	-22.7	-23.7	20.3	0.00e+00	0	43	0	2484076544	5	4058
2026-01-28 11:28:55.79	14.83	32.81	-22.7	-23.9	20.3	0.00e+00	0	43	0	2489319424	5	4099
2026-01-28 11:28:56.79	14.55	32.66	-22.6	-23.6	20.4	0.00e+00	0	43	0	2495610880	5	4038
2026-01-28 11:28:57.80	14.28	32.52	-22.5	-23.4	20.4	0.00e+00	0	43	0	2500853760	5	3993
2026-01-28 11:28:58.81	14.01	32.38	-22.6	-23.5	20.4	0.00e+00	0	43	0	2507145216	5	4014
2026-01-28 11:28:59.81	13.74	32.23	-22.6	-23.5	20.4	0.00e+00	0	43	0	2512388096	5	4000
2026-01-28 11:29:00.81	13.48	32.09	-22.6	-23.6	20.3	0.00e+00	0	43	0	2517630976	5	4043
2026-01-28 11:29:01.81	13.21	31.95	-22.8	-24.0	20.2	0.00e+00	0	43	0	2523922432	5	4132
2026-01-28 11:29:02.82	12.95	31.81	-22.9	-24.1	20.1	0.00e+00	0	43	0	2529165312	5	4164
2026-01-28 11:29:03.83	12.69	31.66	-22.9	-24.2	20.1	0.00e+00	0	43	0	2535456768	5	4170
2026-01-28 11:29:04.83	12.44	31.52	-22.7	-23.8	20.2	0.00e+00	0	43	0	2540699648	5	4086
2026-01-28 11:29:05.84	12.18	31.38	-22.7	-23.7	20.3	0.00e+00	0	43	0	2545942528	5	4055
2026-01-28 11:29:06.84	11.93	31.23	-22.7	-23.7	20.3	0.00e+00	0	43	0	2552233984	5	4057
2026-01-28 11:29:07.84	11.68	31.09	-22.8	-24.0	20.1	0.00e+00	0	43	0	2557476864	5	4123
2026-01-28 11:29:08.84	11.44	30.95	-22.9	-24.2	20.0	0.00e+00	0	43	0	2562719744	5	4191
2026-01-28 11:29:09.85	11.19	30.81	-23.1	-24.1	19.9	0.00e+00	0	43	0	2569011200	6	4053
2026-01-28 11:29:10.85	10.95	30.67	-23.4	-24.7	19.5	0.00e+00	0	43	0	2574254080	6	4202
2026-01-28 11:29:11.86	10.71	30.52	-23.3	-24.5	19.6	0.00e+00	0	43	0	2580545536	6	4137
2026-01-28 11:29:12.86	10.47	30.38	-23.2	-24.4	19.7	0.00e+00	0	43	0	2585788416	6	4108
2026-01-28 11:29:13.86	10.24	30.24	-23.3	-24.5	19.6	0.00e+00	0	43	0	2591031296	6	4143
2026-01-28 11:29:14.87	10.00	30.10	-23.2	-24.4	19.7	0.00e+00	0	43	0	2597322752	6	4122
2026-01-28 11:29:15.87	9.77	29.96	-23.3	-24.4	19.7	0.00e+00	0	43	0	2602565632	6	4126
2026-01-28 11:29:16.87	9.54	29.81	-23.4	-24.7	19.5	0.00e+00	0	43	0	2608857088	6	4183
2026-01-28 11:29:17.88	9.31	29.67	-23.1	-24.1	19.8	0.00e+00	0	43	0	2614099968	6	4046
2026-01-28 11:29:18.88	9.09	29.53	-22.9	-23.8	20.0	0.00e+00	0	43	0	2619342848	6	3957
2026-01-28 11:29:19.89	8.86	29.39	-22.9	-23.7	20.0	0.00e+00	0	43	0	2625634304	6	3947
2026-01-28 11:29:20.89	8.64	29.25	-23.0	-23.8	19.9	0.00e+00	0	43	0	2630877184	6	3975
2026-01-28 11:29:21.90	8.42	29.11	-23.0	-24.0	19.9	0.00e+00	0	43	0	2636120064	6	4008
2026-01-28 11:29:22.91	8.20	28.97	-23.1	-24.0	19.8	0.00e+00	0	43	0	2642411520	6	4023
2026-01-28 11:29:23.92	7.98	28.83	-23.1	-24.1	19.8	0.00e+00	0	43	0	2647654400	6	4049
2026-01-28 11:29:24.92	7.77	28.69	-23.2	-24.3	19.7	0.00e+00	0	43	0	2653945856	6	4082
2026-01-28 11:29:25.92	7.56	28.55	-23.3	-24.5	19.6	0.00e+00	0	43	0	2659188736	6	4134
2026-01-28 11:29:26.93	7.35	28.41	-23.3	-24.6	19.5	0.00e+00	0	43	0	2664431616	6	4161
2026-01-28 11:29:27.93	7.14	28.27	-23.3	-24.5	19.6	0.00e+00	0	43	0	2670723072	6	4140
2026-01-28 11:29:28.94	6.93	28.13	-23.3	-24.5	19.6	0.00e+00	0	43	0	2675965952	6	4141
2026-01-28 11:29:29.94	6.73	27.99	-23.4	-24.7	19.5	0.00e+00	0	43	0	2682257408	6	4185
2026-01-28 11:29:30.94	6.52	27.86	-23.3	-24.5	19.6	0.00e+00	0	43	0	2687500288	6	4129
2026-01-28 11:29:31.95	6.32	27.72	-23.3	-24.5	19.6	0.00e+00	0	43	0	2692743168	6	4147
2026-01-28 11:29:32.95	6.12	27.58	-23.4	-24.7	19.4	0.00e+00	0	43	0	2699034624	6	4191
2026-01-28 11:29:33.95	5.92	27.44	-23.5	-24.5	19.3	0.00e+00	0	43	0	2704277504	7	4035
2026-01-28 11:29:34.96	5.73	27.31	-23.8	-25.0	19.0	0.00e+00	0	43	0	2709520384	7	4159
2026-01-28 11:29:35.96	5.53	27.17	-23.6	-24.6	19.2	0.00e+00	0	43	0	2715811840	7	4066
2026-01-28 11:29:36.97	5.34	27.03	-23.5	-24.4	19.3	0.00e+00	0	43	0	2721054720	7	4009
2026-01-28 11:29:37.98	5.15	26.90	-23.5	-24.4	19.3	0.00e+00	0	43	0	2727346176	7	4011
2026-01-28 11:29:38.98	4.96	26.76	-23.6	-24.7	19.2	0.00e+00	0	43	0	2732589056	7	4070
2026-01-28 11:29:39.99	4.77	26.63	-23.5	-24.4	19.4	0.00e+00	0	43	0	2737831936	7	3996
2026-01-28 11:29:40.99	4.58	26.49	-23.5	-24.5	19.3	0.00e+00	0	43	0	2744123392	7	4018
2026-01-28 11:29:41.99	4.40	26.36	-23.4	-24.3	19.4	0.00e+00	0	43	0	2749366272	7	3987
2026-01-28 11:29:43.00	4.22	26.22	-23.5	-24.4	19.3	0.00e+00	0	43	0	2755657728	7	4014
2026-01-28 11:29:44.00	4.04	26.09	-23.5	-24.4	19.3	0.00e+00	0	43	0	2760900608	7	4008
2026-01-28 11:29:45.00	3.86	25.96	-23.6	-24.6	19.2	0.00e+00	0	43	0	2766143488	7	4054
2026-01-28 11:29:46.01	3.68	25.82	-23.5	-24.4	19.3	0.00e+00	0	43	0	2772434944	7	3999
2026-01-28 11:29:47.01	3.50	25.69	-23.4	-24.2	19.4	0.00e+00	0	43	0	2777677824	7	3958
2026-01-28 11:29:48.01	3.33	25.56	-23.4	-24.3	19.4	0.00e+00	0	44	0	2783969280	7	3975
2026-01-28 11:29:49.02	3.15	25.43	-23.6	-24.7	19.2	0.00e+00	0	43	0	2789212160	7	4073
2026-01-28 11:29:50.02	2.98	25.29	-23.4	-24.3	19.4	0.00e+00	0	43	0	2794455040	7	3977
2026-01-28 11:29:51.02	2.81	25.16	-23.3	-24.1	19.5	0.00e+00	0	43	0	2800746496	7	3939
2026-01-28 11:29:52.03	2.64	25.03	-23.4	-24.3	19.4	0.00e+00	0	43	0	2805989376	7	3975
2026-01-28 11:29:53.03	2.47	24.90	-23.3	-24.1	19.5	0.00e+00	0	43	0	2811232256	7	3927
2026-01-28 11:29:54.03	2.31	24.77	-23.3	-24.0	19.5	0.00e+00	0	43	0	2817523712	7	3922
2026-01-28 11:29:55.03	2.14	24.64	-23.4	-24.2	19.4	0.00e+00	0	43	0	2822766592	7	3945
2026-01-28 11:29:56.04	1.98	24.51	-23.3	-24.0	19.5	0.00e+00	0	43	0	2829058048	7	3900
2026-01-28 11:29:57.05	1.81	24.38	-23.3	-24.0	19.5	0.00e+00	0	43	0	2834300928	7	3913
2026-01-28 11:29:58.06	1.65	24.25	-23.5	-24.4	19.3	0.00e+00	0	43	0	2839543808	7	3998
2026-01-28 11:29:59.06	1.49	24.12	-23.4	-24.2	19.4	0.00e+00	0	43	0	2845835264	7	3944
2026-01-28 11:30:00.06	1.33	24.00	-23.4	-24.3	19.4	0.00e+00	0	43	0	2851078144	7	3972
2026-01-28 11:30:01.06	1.18	23.87	-23.5	-24.4	19.3	0.00e+00	0	43	0	2857369600	7	4003
2026-01-28 11:30:02.06	1.02	23.74	-23.6	-24.7	19.2	0.00e+00	0	43	0	2862612480	7	4070
2026-01-28 11:30:03.06	0.87	23.62	-23.7	-24.9	19.0	0.00e+00	0	43	0	2867855360	7	4121
2026-01-28 11:30:04.06	0.72	23.49	-23.8	-25.1	19.0	0.00e+00	0	43	0	2874146816	7	4165
2026-01-28 11:30:05.06	0.56	23.37	-23.9	-25.2	18.8	0.00e+00	0	43	0	2879389696	7	4204
2026-01-28 11:30:06.06	0.41	23.24	-23.8	-25.2	18.9	0.00e+00	0	43	0	2884632576	7	4200
2026-01-28 11:30:07.06	0.26	23.12	-24.1	-25.3	18.6	0.00e+00	0	43	0	2890924032	8	4112
2026-01-28 11:30:08.06	0.12	22.99	-24.5	-25.6	18.2	0.00e+00	0	43	0	2896166912	9	4079
2026-01-28 11:30:09.07	359.97	22.87	-24.2	-24.8	18.5	0.00e+00	0	43	0	2902458368	9	3888
2026-01-28 11:30:10.08	359.82	22.74	-23.9	-24.2	18.9	0.00e+00	0	43	0	2907701248	9	3754
2026-01-28 11:30:11.08	359.68	22.62	-23.7	-24.4	19.0	0.00e+00	0	43	0	2912944128	8	3891
2026-01-28 11:30:12.09	359.53	22.49	-24.0	-25.0	18.7	0.00e+00	0	43	0	2919235584	8	4047
2026-01-28 11:30:13.09	359.39	22.37	-24.0	-25.1	18.7	0.00e+00	0	43	0	2924478464	8	4057
2026-01-28 11:30:14.10	359.25	22.25	-24.0	-25.0	18.7	0.00e+00	0	43	0	2929721344	8	4038
2026-01-28 11:30:15.10	359.11	22.13	-24.0	-25.1	18.7	0.00e+00	0	43	0	2936012800	8	4058
2026-01-28 11:30:16.11	358.97	22.01	-24.0	-24.9	18.7	0.00e+00	0	43	0	2941255680	8	4024
2026-01-28 11:30:17.12	358.83	21.88	-23.9	-24.9	18.7	0.00e+00	0	43	0	2947547136	8	4013
2026-01-28 11:30:18.12	358.70	21.76	-24.1	-25.1	18.6	0.00e+00	0	43	0	2952790016	8	4064
2026-01-28 11:30:19.13	358.56	21.64	-23.9	-24.8	18.8	0.00e+00	0	43	0	2958032896	8	3987
2026-01-28 11:30:20.13	358.42	21.52	-24.1	-25.1	18.6	0.00e+00	0	43	0	2964324352	8	4070
2026-01-28 11:30:21.13	358.29	21.40	-23.9	-24.8	18.8	0.00e+00	0	43	0	2969567232	8	3983
2026-01-28 11:30:22.14	358.16	21.28	-23.9	-24.7	18.8	0.00e+00	0	43	0	2975858688	8	3977
2026-01-28 11:30:23.14	358.03	21.16	-24.1	-25.2	18.6	0.00e+00	0	43	0	2981101568	8	4092
2026-01-28 11:30:24.14	357.90	21.05	-24.2	-25.4	18.5	0.00e+00	0	43	0	2986344448	8	4144
2026-01-28 11:30:25.14	357.77	20.93	-24.4	-25.9	18.2	0.00e+00	0	43	0	2992635904	8	4267
2026-01-28 11:30:26.15	357.64	20.81	-24.8	-26.2	17.7	0.00e+00	0	43	0	2997878784	9	4243
2026-01-28 11:30:27.16	357.51	20.69	-24.7	-26.0	17.9	0.00e+00	0	43	0	3003121664	9	4180
2026-01-28 11:30:28.16	357.39	20.58	-24.9	-25.9	17.6	0.00e+00	0	43	0	3009413120	10	4055
2026-01-28 11:30:29.17	357.26	20.46	-24.8	-25.8	17.7	0.00e+00	0	43	0	3014656000	10	4026
2026-01-28 11:30:30.18	357.13	20.34	-24.7	-25.5	17.9	0.00e+00	0	43	0	3020947456	10	3948
2026-01-28 11:30:31.19	357.01	20.23	-24.7	-25.6	17.9	0.00e+00	0	43	0	3026190336	10	3962
2026-01-28 11:30:32.19	356.89	20.11	-25.0	-26.1	17.6	0.00e+00	0	43	0	3031433216	10	4082
2026-01-28 11:30:33.20	356.77	20.00	-24.9	-25.9	17.7	0.00e+00	0	43	0	3037724672	10	4031
2026-01-28 11:30:34.20	356.64	19.88	-25.0	-26.2	17.5	0.00e+00	0	43	0	3042967552	10	4106
2026-01-28 11:30:35.21	356.52	19.77	-24.7	-25.6	17.8	0.00e+00	0	43	0	3049259008	10	3963
2026-01-28 11:30:36.21	356.41	19.65	-24.5	-25.1	18.0	0.00e+00	0	43	0	3054501888	10	3860
2026-01-28 11:30:37.22	356.29	19.54	-24.6	-25.3	17.9	0.00e+00	0	43	0	3060793344	10	3895
2026-01-28 11:30:38.22	356.17	19.43	-24.6	-25.3	18.0	0.00e+00	0	43	0	3066036224	10	3886
2026-01-28 11:30:39.22	356.06	19.32	-24.6	-25.3	17.9	0.00e+00	0	43	0	3071279104	10	3909
2026-01-28 11:30:40.22	355.94	19.20	-24.7	-25.4	17.9	0.00e+00	0	43	0	3077570560	10	3924
2026-01-28 11:30:41.23	355.83	19.09	-24.7	-25.5	17.8	0.00e+00	0	43	0	3082813440	10	3953
2026-01-28 11:30:42.22	355.71	18.98	-24.7	-25.6	17.8	0.00e+00	0	43	0	3088056320	10	3972
2026-01-28 11:30:43.23	355.60	18.87	-24.6	-25.3	18.0	0.00e+00	0	43	0	3094347776	10	3891
2026-01-28 11:30:44.24	355.49	18.76	-24.6	-25.4	17.9	0.00e+00	0	43	0	3099590656	10	3917
2026-01-28 11:30:45.24	355.38	18.65	-24.8	-25.7	17.7	0.00e+00	0	43	0	3104833536	10	3989
2026-01-28 11:30:46.25	355.27	18.54	-24.7	-25.4	17.8	0.00e+00	0	43	0	3111124992	10	3928
2026-01-28 11:30:47.25	355.16	18.43	-24.7	-25.4	17.8	0.00e+00	0	43	0	3116367872	10	3934
2026-01-28 11:30:48.25	355.05	18.32	-24.6	-25.3	17.9	0.00e+00	0	43	0	3122659328	10	3909
2026-01-28 11:30:49.25	354.94	18.21	-24.6	-25.3	17.9	0.00e+00	0	43	0	3127902208	10	3890
2026-01-28 11:30:50.26	354.83	18.10	-24.7	-25.4	17.8	0.00e+00	0	43	0	3133145088	10	3928
2026-01-28 11:30:51.26	354.73	18.00	-24.7	-25.6	17.8	0.00e+00	0	43	0	3139436544	10	3965
2026-01-28 11:30:52.26	354.62	17.89	-24.7	-25.6	17.8	0.00e+00	0	43	0	3144679424	10	3968
2026-01-28 11:30:53.26	354.52	17.78	-24.8	-25.6	17.7	0.00e+00	0	43	0	3150970880	10	3978
2026-01-28 11:30:54.26	354.42	17.67	-24.8	-25.8	17.6	0.00e+00	0	43	0	3156213760	10	4019
2026-01-28 11:30:55.27	354.31	17.57	-24.8	-25.8	17.6	0.00e+00	0	43	0	3161456640	10	4022
2026-01-28 11:30:56.27	354.21	17.46	-24.9	-25.9	17.5	0.00e+00	0	43	0	3167748096	10	4060
2026-01-28 11:30:57.27	354.11	17.36	-24.9	-26.0	17.5	0.00e+00	0	43	0	3172990976	10	4066
2026-01-28 11:30:58.27	354.01	17.25	-25.0	-26.1	17.4	0.00e+00	0	43	0	3178233856	10	4111
2026-01-28 11:30:59.28	353.91	17.15	-25.0	-26.1	17.4	0.00e+00	0	43	0	3184525312	10	4103
2026-01-28 11:31:00.28	353.81	17.04	-25.0	-26.2	17.3	0.00e+00	0	43	0	3189768192	10	4132
2026-01-28 11:31:01.29	353.71	16.94	-25.0	-26.2	17.3	0.00e+00	0	43	0	3196059648	10	4132
2026-01-28 11:31:02.30	353.61	16.83	-25.1	-26.4	17.3	0.00e+00	0	43	0	3201302528	10	4172
2026-01-28 11:31:03.30	353.51	16.73	-25.1	-26.3	17.3	0.00e+00	0	43	0	3206545408	10	4158
2026-01-28 11:31:04.30	353.42	16.63	-25.2	-26.6	17.1	0.00e+00	0	43	0	3212836864	10	4219
2026-01-28 11:31:05.31	353.32	16.52	-25.3	-26.9	17.0	0.00e+00	0	43	0	3218079744	10	4296
2026-01-28 11:31:06.31	353.23	16.42	-25.4	-26.6	16.9	0.00e+00	0	43	0	3224371200	11	4116
2026-01-28 11:31:07.32	353.13	16.32	-25.4	-26.6	16.8	0.00e+00	0	44	0	3229614080	11	4118
2026-01-28 11:31:08.33	353.04	16.21	-25.6	-26.9	16.7	0.00e+00	0	43	0	3234856960	11	4202
2026-01-28 11:31:09.32	352.94	16.11	-25.7	-27.2	16.5	0.00e+00	0	43	0	3241148416	11	4270
2026-01-28 11:31:10.33	352.85	16.01	-25.6	-27.0	16.6	0.00e+00	0	43	0	3246391296	11	4236
2026-01-28 11:31:11.33	352.76	15.91	-25.8	-27.4	16.4	0.00e+00	0	43	0	3251634176	11	4329
2026-01-28 11:31:12.32	352.67	15.81	-25.9	-27.0	16.2	0.00e+00	0	43	0	3257925632	12	4124
2026-01-28 11:31:13.32	352.58	15.71	-25.6	-26.5	16.5	1.10e-06	0	43	0	3263168512	12	3985
2026-01-28 11:31:14.32	352.49	15.61	-25.4	-26.0	16.8	0.00e+00	0	43	0	3269459968	12	3857
2026-01-28 11:31:15.32	352.40	15.51	-25.3	-25.8	16.9	0.00e+00	0	43	0	3274702848	12	3818
2026-01-28 11:31:16.32	352.31	15.42	-25.3	-26.3	16.9	0.00e+00	0	43	0	3279945728	11	4048
2026-01-28 11:31:17.33	352.22	15.32	-25.3	-26.4	16.9	0.00e+00	0	43	0	3286237184	11	4056
2026-01-28 11:31:18.34	352.14	15.22	-25.4	-26.6	16.8	0.00e+00	0	43	0	3291480064	11	4118
2026-01-28 11:31:19.35	352.05	15.12	-25.5	-26.8	16.7	0.00e+00	0	43	0	3296722944	11	4153
2026-01-28 11:31:20.35	351.96	15.02	-25.3	-26.3	16.9	0.00e+00	0	43	0	3303014400	11	4050
2026-01-28 11:31:21.35	351.88	14.92	-25.4	-26.4	16.9	0.00e+00	0	43	0	3308257280	11	4066
2026-01-28 11:31:22.35	351.79	14.83	-25.4	-26.5	16.8	0.00e+00	0	43	0	3313500160	11	4076
2026-01-28 11:31:23.36	351.71	14.73	-25.4	-26.5	16.8	0.00e+00	0	43	0	3319791616	11	4080
2026-01-28 11:31:24.36	351.62	14.63	-25.5	-26.7	16.7	0.00e+00	0	43	0	3325034496	11	4151
2026-01-28 11:31:25.36	351.54	14.54	-25.5	-26.8	16.6	0.00e+00	0	43	0	3331325952	11	4162
2026-01-28 11:31:26.36	351.46	14.44	-25.5	-26.7	16.7	0.00e+00	0	43	0	3336568832	11	4139
2026-01-28 11:31:27.37	351.37	14.34	-25.5	-26.7	16.7	0.00e+00	0	43	0	3342860288	11	4140
2026-01-28 11:31:28.37	351.29	14.25	-25.6	-26.9	16.5	0.00e+00	0	43	0	3348103168	11	4206
2026-01-28 11:31:29.38	351.21	14.15	-25.7	-27.1	16.4	0.00e+00	0	43	0	3353346048	11	4255
2026-01-28 11:31:30.38	351.13	14.06	-25.8	-27.5	16.2	0.00e+00	0	43	0	3359637504	11	4350
2026-01-28 11:31:31.38	351.05	13.97	-25.8	-27.5	16.2	0.00e+00	0	43	0	3364880384	11	4351
2026-01-28 11:31:32.39	350.97	13.87	-25.9	-27.6	16.2	0.00e+00	0	43	0	3370123264	11	4383
2026-01-28 11:31:33.39	350.89	13.78	-25.8	-27.4	16.3	0.00e+00	0	43	0	3376414720	11	4331
2026-01-28 11:31:34.40	350.81	13.68	-25.9	-27.6	16.2	0.00e+00	0	43	0	3381657600	11	4383
2026-01-28 11:31:35.40	350.73	13.59	-25.9	-27.6	16.1	0.00e+00	0	43	0	3387949056	11	4391
2026-01-28 11:31:36.41	350.66	13.50	-25.9	-27.7	16.1	0.00e+00	0	43	0	3393191936	11	4405
2026-01-28 11:31:37.41	350.58	13.41	-26.3	-28.0	15.5	0.00e+00	0	43	0	3399483392	12	4397
2026-01-28 11:31:38.42	350.50	13.31	-26.3	-27.9	15.6	0.00e+00	0	43	0	3404726272	12	4370
2026-01-28 11:31:39.42	350.43	13.22	-25.9	-27.2	16.0	0.00e+00	0	43	0	3409969152	12	4182
2026-01-28 11:31:40.42	350.35	13.13	-25.8	-26.9	16.2	0.00e+00	0	43	0	3416260608	12	4086
2026-01-28 11:31:41.43	350.28	13.04	-25.7	-26.7	16.3	0.00e+00	0	43	0	3421503488	12	4034
2026-01-28 11:31:42.43	350.20	12.95	-25.7	-26.7	16.3	0.00e+00	0	43	0	3426746368	12	4044
2026-01-28 11:31:43.43	350.13	12.86	-25.7	-26.8	16.2	0.00e+00	0	43	0	3433037824	12	4062
2026-01-28 11:31:44.44	350.05	12.77	-25.8	-26.9	16.2	0.00e+00	0	43	0	3438280704	12	4085
2026-01-28 11:31:45.44	349.98	12.68	-25.8	-26.9	16.1	0.00e+00	0	43	0	3443523584	12	4108
2026-01-28 11:31:46.45	349.91	12.58	-25.8	-26.9	16.1	0.00e+00	0	43	0	3449815040	12	4095
2026-01-28 11:31:47.44	349.84	12.50	-25.9	-27.2	16.0	0.00e+00	0	43	0	3455057920	12	4170
2026-01-28 11:31:48.44	349.76	12.41	-25.9	-27.3	15.9	0.00e+00	0	43	0	3461349376	12	4203
2026-01-28 11:31:49.45	349.69	12.32	-26.0	-27.4	15.8	0.00e+00	0	43	0	3466592256	12	4238
2026-01-28 11:31:50.44	349.62	12.23	-26.0	-27.4	15.8	0.00e+00	0	43	0	3471835136	12	4241
2026-01-28 11:31:51.45	349.55	12.14	-26.1	-27.6	15.7	0.00e+00	0	43	0	3478126592	12	4277
2026-01-28 11:31:52.46	349.48	12.05	-26.1	-27.6	15.7	0.00e+00	0	43	0	3483369472	12	4294
2026-01-28 11:31:53.47	349.41	11.96	-26.1	-27.7	15.7	0.00e+00	0	43	0	3489660928	12	4303
2026-01-28 11:31:54.47	349.34	11.88	-26.3	-28.0	15.5	0.00e+00	0	43	0	3494903808	12	4392
2026-01-28 11:31:55.48	349.27	11.79	-26.3	-28.1	15.4	0.00e+00	0	43	0	3500146688	12	4429
2026-01-28 11:31:56.48	349.21	11.70	-26.2	-27.8	15.5	0.00e+00	0	43	0	3506438144	12	4353
2026-01-28 11:31:57.48	349.14	11.62	-26.2	-27.8	15.6	0.00e+00	0	43	0	3511681024	12	4351
2026-01-28 11:31:58.49	349.07	11.53	-26.2	-27.7	15.6	0.00e+00	0	43	0	3516923904	12	4317
2026-01-28 11:31:59.49	349.00	11.44	-26.1	-27.7	15.6	0.00e+00	0	43	0	3523215360	12	4315
2026-01-28 11:32:00.49	348.94	11.36	-26.1	-27.7	15.6	0.00e+00	0	43	0	3528458240	12	4319
2026-01-28 11:32:01.49	348.87	11.27	-26.2	-27.7	15.6	1.10e-06	0	43	0	3534749696	12	4322
2026-01-28 11:32:02.49	348.81	11.19	-26.2	-27.7	15.6	0.00e+00	0	43	0	3539992576	12	4320
2026-01-28 11:32:03.50	348.74	11.10	-26.2	-27.8	15.5	0.00e+00	0	43	0	3545235456	12	4329
2026-01-28 11:32:04.50	348.68	11.01	-26.3	-28.0	15.4	0.00e+00	0	43	0	3551526912	12	4399
2026-01-28 11:32:05.51	348.61	10.93	-26.3	-28.0	15.4	0.00e+00	0	43	0	3556769792	12	4377
2026-01-28 11:32:06.51	348.55	10.85	-26.2	-27.8	15.5	0.00e+00	0	43	0	3563061248	12	4345
2026-01-28 11:32:07.51	348.48	10.76	-26.2	-27.9	15.4	3.40e-06	0	43	0	3568304128	12	4369
2026-01-28 11:32:08.51	348.42	10.68	-26.3	-27.9	15.4	0.00e+00	0	43	0	3573547008	12	4376
2026-01-28 11:32:09.52	348.36	10.59	-26.3	-28.1	15.3	0.00e+00	0	43	0	3579838464	12	4430
2026-01-28 11:32:10.52	348.29	10.51	-26.2	-27.8	15.5	0.00e+00	0	43	0	3585081344	12	4346
2026-01-28 11:32:11.53	348.23	10.43	-26.3	-28.2	15.3	0.00e+00	0	43	0	3590324224	12	4434
2026-01-28 11:32:12.53	348.17	10.34	-26.5	-28.0	15.1	0.00e+00	0	43	0	3596615680	13	4270
2026-01-28 11:32:13.54	348.11	10.26	-26.3	-27.5	15.3	0.00e+00	0	43	0	3601858560	13	4158
2026-01-28 11:32:14.54	348.05	10.18	-26.2	-27.3	15.5	0.00e+00	0	43	0	3608150016	13	4085
2026-01-28 11:32:15.55	347.99	10.09	-26.3	-27.5	15.4	0.00e+00	0	43	0	3613392896	13	4140
2026-01-28 11:32:16.55	347.93	10.01	-26.3	-27.5	15.4	0.00e+00	0	43	0	3618635776	13	4149
2026-01-28 11:32:17.55	347.87	9.93	-26.2	-27.3	15.4	0.00e+00	0	43	0	3624927232	13	4101
2026-01-28 11:32:18.55	347.81	9.85	-26.3	-27.6	15.3	0.00e+00	0	43	0	3630170112	13	4170
2026-01-28 11:32:19.55	347.75	9.77	-26.3	-27.5	15.3	0.00e+00	0	43	0	3635412992	13	4146
2026-01-28 11:32:20.56	347.69	9.69	-26.3	-27.6	15.3	0.00e+00	0	43	0	3641704448	13	4169
2026-01-28 11:32:21.56	347.63	9.61	-26.3	-27.6	15.2	0.00e+00	0	43	0	3646947328	13	4169
2026-01-28 11:32:22.57	347.57	9.53	-26.3	-27.5	15.3	0.00e+00	0	43	0	3653238784	13	4160
2026-01-28 11:32:23.57	347.51	9.45	-26.3	-27.6	15.2	1.10e-06	0	43	0	3658481664	13	4186
2026-01-28 11:32:24.57	347.46	9.37	-26.3	-27.5	15.3	0.00e+00	0	43	0	3663724544	13	4156
2026-01-28 11:32:25.57	347.40	9.29	-26.4	-27.7	15.1	0.00e+00	0	43	0	3670016000	13	4211
2026-01-28 11:32:26.57	347.34	9.21	-26.6	-28.2	14.9	0.00e+00	0	43	0	3675258880	13	4340
2026-01-28 11:32:27.58	347.29	9.13	-26.5	-28.1	14.9	1.10e-06	0	43	0	3681550336	13	4315
2026-01-28 11:32:28.58	347.23	9.05	-26.5	-28.1	14.9	0.00e+00	0	43	0	3686793216	13	4308
2026-01-28 11:32:29.58	347.17	8.97	-26.6	-28.2	14.8	0.00e+00	0	43	0	3692036096	13	4351
2026-01-28 11:32:30.58	347.12	8.89	-26.6	-28.3	14.8	0.00e+00	0	43	0	3698327552	13	4368
2026-01-28 11:32:31.59	347.06	8.81	-26.6	-28.2	14.8	0.00e+00	0	43	0	3703570432	13	4346
2026-01-28 11:32:32.59	347.01	8.73	-26.7	-28.4	14.7	0.00e+00	0	43	0	3708813312	13	4411
2026-01-28 11:32:33.59	346.95	8.65	-26.7	-28.4	14.7	0.00e+00	0	43	0	3715104768	13	4410
2026-01-28 11:32:34.60	346.90	8.58	-26.7	-28.5	14.6	0.00e+00	0	43	0	3720347648	13	4444
2026-01-28 11:32:35.60	346.85	8.50	-26.8	-28.8	14.4	1.10e-06	0	43	0	3725590528	13	4520
2026-01-28 11:32:36.61	346.79	8.42	-26.6	-28.4	14.7	0.00e+00	0	43	0	3731881984	13	4389
2026-01-28 11:32:37.60	346.74	8.34	-26.5	-28.0	14.9	0.00e+00	0	43	0	3737124864	13	4300
2026-01-28 11:32:38.61	346.69	8.27	-26.7	-28.4	14.6	0.00e+00	0	43	0	3743416320	13	4411
2026-01-28 11:32:39.61	346.63	8.19	-26.6	-28.3	14.7	0.00e+00	0	43	0	3748659200	13	4380
2026-01-28 11:32:40.62	346.58	8.11	-26.8	-28.7	14.5	0.00e+00	0	43	0	3754950656	13	4484
2026-01-28 11:32:41.63	346.53	8.04	-26.7	-28.6	14.5	0.00e+00	0	43	0	3760193536	13	4466
2026-01-28 11:32:42.63	346.48	7.96	-26.6	-28.4	14.6	1.10e-06	0	43	0	3765436416	13	4402
2026-01-28 11:32:43.63	346.42	7.88	-26.8	-28.9	14.3	2.20e-06	0	43	0	3771727872	13	4542
2026-01-28 11:32:44.64	346.37	7.81	-26.8	-28.7	14.4	4.50e-06	0	43	0	3776970752	13	4502
2026-01-28 11:32:45.65	346.32	7.73	-26.8	-28.8	14.3	1.10e-06	0	43	0	3782213632	13	4534
2026-01-28 11:32:46.65	346.27	7.66	-26.7	-28.4	14.6	3.40e-06	0	43	0	3788505088	13	4420
2026-01-28 11:32:47.66	346.22	7.58	-27.0	-29.1	14.1	2.20e-06	0	43	0	3793747968	13	4627
2026-01-28 11:32:48.66	346.17	7.51	-27.1	-28.9	14.0	1.25e-05	0	43	0	3800039424	14	4435
2026-01-28 11:32:49.66	346.12	7.43	-26.9	-28.5	14.2	0.00e+00	0	43	0	3805282304	14	4330
2026-01-28 11:32:50.66	346.07	7.36	-26.8	-28.3	14.3	3.40e-06	0	43	0	3810525184	14	4271
2026-01-28 11:32:51.67	346.02	7.28	-27.0	-28.7	14.1	3.40e-06	0	43	0	3816816640	14	4386
2026-01-28 11:32:52.67	345.97	7.21	-27.0	-28.8	14.1	1.10e-06	0	43	0	3822059520	14	4410
2026-01-28 11:32:53.68	345.92	7.13	-27.3	-29.3	13.7	6.80e-06	0	43	0	3828350976	14	4578
2026-01-28 11:32:54.68	345.88	7.06	-32.8	-42.2	3.8	5.20e-01	0	43	104	3832545280	25	10626
2026-01-28 11:32:55.69	345.83	6.99	-33.3	-44.1	3.8	8.45e-01	0	43	104	3832545280	26	12449

#Closed at: 2026-01-28 11:32:56
#Recorded file [3832 MB]: D:/data/31010_260128_142132.dat