passes_logs/2026/01/28/R2M6_AANII_01/R2M6_AANII_01__20260128_223253_SUOMI_NPP_rec.log

#Pass ID: 20260128_223253_SUOMI NPP
#Satellite: SUOMI NPP
#Configuration: NPP
#almurnet v.1.7.20240730
#Start time: 2026-01-28 22:32:52

#Version: 2.2.20231116
#Station: R2M6_AANII_01
#Location: 30.233357 lon 59.946436 lat
#TLE: 1 37849U 11061A   26027.86188320  .00000172  00000+0  10275-3 0  9990
#TLE: 2 37849  98.7823 329.8005 0002088  41.4184 318.7150 14.19530883738530

#Time	Az	El	Level	Level2	SNR	BER	BlckErr	Temp	State	Recorded	gain1	gain2
2026-01-28 22:32:52.70	33.19	6.98	-31.3	-36.4	4.9	1.24e+00	0	41	0	0	22	6464
2026-01-28 22:32:53.70	33.30	7.03	-31.3	-36.2	4.9	1.23e+00	0	41	104	0	22	6337
2026-01-28 22:32:54.70	33.41	7.09	-31.4	-36.5	7.5	1.12e-01	0	41	0	0	22	6533
2026-01-28 22:32:55.70	33.52	7.15	-31.3	-36.1	7.8	8.71e-02	0	41	0	1048576	22	6256
2026-01-28 22:32:56.71	33.63	7.20	-31.3	-36.2	7.8	7.46e-02	0	41	0	3145728	22	6329
2026-01-28 22:32:57.72	33.74	7.26	-31.4	-36.7	7.3	9.51e-02	0	41	0	5242880	22	6629
2026-01-28 22:32:58.72	33.85	7.32	-31.4	-36.5	7.6	1.24e-01	0	41	0	7340032	22	6457
2026-01-28 22:32:59.72	33.96	7.38	-31.3	-36.1	7.9	8.12e-02	0	41	0	9437184	22	6229
2026-01-28 22:33:00.73	34.07	7.43	-31.3	-35.9	8.1	6.57e-02	0	41	0	10485760	22	6133
2026-01-28 22:33:01.73	34.19	7.49	-31.2	-35.6	8.3	5.63e-02	0	41	0	12582912	22	5944
2026-01-28 22:33:02.73	34.30	7.55	-31.2	-35.6	8.4	4.77e-02	0	41	0	14680064	22	5972
2026-01-28 22:33:03.74	34.41	7.61	-31.2	-35.6	8.3	4.68e-02	0	41	0	16777216	22	5970
2026-01-28 22:33:04.75	34.53	7.66	-31.1	-34.9	8.8	4.86e-02	0	41	0	17825792	22	5620
2026-01-28 22:33:05.76	34.64	7.72	-30.8	-33.9	9.8	1.48e-02	0	41	0	19922944	22	5128
2026-01-28 22:33:06.76	34.76	7.78	-30.6	-33.2	10.3	6.31e-03	0	41	0	22020096	22	4840
2026-01-28 22:33:07.77	34.87	7.84	-30.3	-32.8	10.8	3.51e-03	0	41	0	24117248	21	4793
2026-01-28 22:33:08.78	34.99	7.89	-30.1	-32.7	11.4	1.80e-03	0	41	0	26214400	20	4834
2026-01-28 22:33:09.79	35.10	7.95	-30.0	-32.2	11.7	6.07e-04	0	41	0	28311552	20	4655
2026-01-28 22:33:10.78	35.22	8.01	-30.0	-32.1	11.8	4.59e-04	0	41	0	29360128	20	4613
2026-01-28 22:33:11.79	35.34	8.07	-30.0	-32.3	11.7	4.45e-04	0	41	0	31457280	20	4662
2026-01-28 22:33:12.79	35.45	8.12	-30.0	-32.2	11.8	3.96e-04	0	41	0	33554432	20	4648
2026-01-28 22:33:13.79	35.57	8.18	-30.0	-32.3	11.8	5.15e-04	0	41	0	35651584	20	4677
2026-01-28 22:33:14.80	35.69	8.24	-30.0	-32.2	11.8	5.98e-04	0	41	0	36700160	20	4637
2026-01-28 22:33:15.80	35.81	8.30	-30.0	-32.2	11.8	4.26e-04	0	41	0	38797312	20	4645
2026-01-28 22:33:16.80	35.93	8.35	-30.1	-32.3	11.8	5.23e-04	0	41	0	40894464	20	4678
2026-01-28 22:33:17.81	36.05	8.41	-30.1	-32.5	11.7	4.80e-04	0	41	0	42991616	20	4725
2026-01-28 22:33:18.81	36.17	8.47	-30.0	-32.0	11.8	5.00e-04	0	41	0	45088768	20	4564
2026-01-28 22:33:19.81	36.29	8.53	-30.0	-32.2	11.8	3.84e-04	0	41	0	46137344	20	4605
2026-01-28 22:33:20.82	36.41	8.59	-30.0	-32.1	12.0	3.89e-04	0	42	0	48234496	20	4571
2026-01-28 22:33:21.83	36.53	8.64	-30.1	-32.4	11.7	3.30e-04	0	42	0	50331648	20	4682
2026-01-28 22:33:22.84	36.65	8.70	-30.0	-32.2	11.9	3.56e-04	0	42	0	52428800	20	4615
2026-01-28 22:33:23.84	36.77	8.76	-30.1	-32.3	11.9	4.25e-04	0	42	0	54525952	20	4655
2026-01-28 22:33:24.85	36.90	8.82	-30.1	-32.3	11.8	3.93e-04	0	42	0	55574528	20	4663
2026-01-28 22:33:25.85	37.02	8.88	-30.1	-32.3	11.8	4.98e-04	0	42	0	57671680	20	4654
2026-01-28 22:33:26.85	37.14	8.93	-30.2	-32.5	11.6	5.38e-04	0	42	0	59768832	20	4732
2026-01-28 22:33:27.86	37.27	8.99	-30.2	-32.5	11.8	6.32e-04	0	42	0	61865984	20	4689
2026-01-28 22:33:28.86	37.39	9.05	-30.2	-32.7	11.7	4.85e-04	0	42	0	63963136	20	4767
2026-01-28 22:33:29.87	37.52	9.11	-30.3	-33.0	11.4	8.19e-04	0	42	0	65011712	20	4909
2026-01-28 22:33:30.87	37.64	9.17	-30.2	-32.5	11.8	7.51e-04	0	42	0	67108864	20	4696
2026-01-28 22:33:31.87	37.77	9.23	-30.2	-32.5	11.8	4.26e-04	0	42	0	69206016	20	4712
2026-01-28 22:33:32.87	37.89	9.28	-30.3	-32.9	11.5	6.55e-04	0	42	0	71303168	20	4844
2026-01-28 22:33:33.88	38.02	9.34	-30.1	-32.3	11.9	5.12e-04	0	42	0	73400320	20	4643
2026-01-28 22:33:34.88	38.15	9.40	-30.1	-32.1	12.1	3.17e-04	0	42	0	74448896	20	4579
2026-01-28 22:33:35.88	38.28	9.46	-30.0	-32.0	12.1	2.31e-04	0	42	0	76546048	20	4538
2026-01-28 22:33:36.88	38.40	9.52	-30.0	-31.9	12.3	2.52e-04	0	42	0	78643200	20	4489
2026-01-28 22:33:37.88	38.53	9.57	-30.0	-32.1	12.1	2.15e-04	0	42	0	80740352	20	4553
2026-01-28 22:33:38.89	38.66	9.63	-30.0	-31.9	12.2	2.46e-04	0	42	0	82837504	20	4482
2026-01-28 22:33:39.89	38.79	9.69	-29.9	-31.8	12.3	1.91e-04	0	42	0	83886080	20	4457
2026-01-28 22:33:40.90	38.92	9.75	-29.9	-31.6	12.4	1.50e-04	0	42	0	85983232	20	4403
2026-01-28 22:33:41.90	39.05	9.81	-30.0	-31.9	12.3	1.36e-04	0	42	0	88080384	20	4489
2026-01-28 22:33:42.90	39.19	9.87	-29.8	-31.5	12.6	1.51e-04	0	42	0	90177536	20	4337
2026-01-28 22:33:43.90	39.32	9.92	-30.0	-31.9	12.3	1.10e-04	0	42	0	92274688	20	4482
2026-01-28 22:33:44.91	39.45	9.98	-29.9	-31.7	12.4	1.44e-04	0	42	0	93323264	20	4431
2026-01-28 22:33:45.91	39.58	10.04	-29.8	-31.4	12.6	9.61e-05	0	42	0	95420416	20	4338
2026-01-28 22:33:46.91	39.72	10.10	-30.0	-31.8	12.3	1.56e-04	0	42	0	97517568	20	4463
2026-01-28 22:33:47.91	39.85	10.16	-29.9	-31.6	12.5	1.47e-04	0	42	0	99614720	20	4378
2026-01-28 22:33:48.92	39.98	10.22	-29.8	-31.4	12.6	9.00e-05	0	42	0	101711872	20	4305
2026-01-28 22:33:49.91	40.12	10.27	-29.8	-31.3	12.7	9.00e-05	0	42	0	102760448	20	4278
2026-01-28 22:33:50.92	40.25	10.33	-30.0	-31.9	12.3	1.40e-04	0	42	0	104857600	20	4492
2026-01-28 22:33:51.92	40.39	10.39	-29.8	-31.5	12.6	1.81e-04	0	42	0	106954752	20	4344
2026-01-28 22:33:52.92	40.53	10.45	-29.9	-31.7	12.4	1.05e-04	0	42	0	109051904	20	4427
2026-01-28 22:33:53.93	40.66	10.51	-29.9	-31.7	12.4	1.69e-04	0	42	0	110100480	20	4436
2026-01-28 22:33:54.94	40.80	10.57	-30.0	-31.9	12.3	1.44e-04	0	42	0	112197632	20	4479
2026-01-28 22:33:55.95	40.94	10.62	-30.0	-31.9	12.3	1.92e-04	0	42	0	114294784	20	4492
2026-01-28 22:33:56.95	41.08	10.68	-29.9	-31.8	12.4	1.63e-04	0	42	0	116391936	20	4460
2026-01-28 22:33:57.94	41.22	10.74	-30.2	-32.7	11.8	2.80e-04	0	42	0	118489088	20	4762
2026-01-28 22:33:58.94	41.36	10.80	-30.0	-32.0	12.2	3.07e-04	0	42	0	119537664	20	4530
2026-01-28 22:33:59.95	41.50	10.86	-30.0	-31.9	12.4	1.43e-04	0	42	0	121634816	20	4486
2026-01-28 22:34:00.95	41.64	10.91	-30.0	-32.0	12.3	2.00e-04	0	42	0	123731968	20	4497
2026-01-28 22:34:01.95	41.78	10.97	-30.1	-32.2	12.2	2.33e-04	0	42	0	125829120	20	4579
2026-01-28 22:34:02.95	41.92	11.03	-30.2	-32.5	11.9	2.88e-04	0	42	0	127926272	20	4667
2026-01-28 22:34:03.95	42.06	11.09	-30.1	-32.3	12.1	2.47e-04	0	42	0	128974848	20	4609
2026-01-28 22:34:04.96	42.21	11.15	-30.2	-32.4	12.0	2.47e-04	0	42	0	131072000	20	4658
2026-01-28 22:34:05.96	42.35	11.21	-30.1	-32.2	12.2	2.55e-04	0	42	0	133169152	20	4564
2026-01-28 22:34:06.96	42.49	11.26	-30.1	-32.0	12.3	1.97e-04	0	42	0	135266304	20	4507
2026-01-28 22:34:07.97	42.64	11.32	-30.1	-32.1	12.3	1.59e-04	0	43	0	137363456	20	4533
2026-01-28 22:34:08.98	42.78	11.38	-29.9	-31.6	12.6	1.16e-04	0	42	0	138412032	20	4376
2026-01-28 22:34:09.98	42.93	11.44	-29.9	-31.5	12.6	8.85e-05	0	42	0	140509184	20	4336
2026-01-28 22:34:10.97	43.07	11.50	-29.9	-31.6	12.6	5.64e-05	0	42	0	142606336	20	4367
2026-01-28 22:34:11.98	43.22	11.55	-30.0	-31.7	12.5	9.61e-05	0	43	0	144703488	20	4410
2026-01-28 22:34:12.98	43.37	11.61	-30.0	-31.8	12.4	1.38e-04	0	42	0	146800640	20	4449
2026-01-28 22:34:13.99	43.52	11.67	-30.1	-32.0	12.3	1.40e-04	0	42	0	147849216	20	4512
2026-01-28 22:34:14.99	43.67	11.73	-30.0	-31.8	12.5	1.23e-04	0	42	0	149946368	20	4428
2026-01-28 22:34:15.99	43.81	11.79	-30.1	-32.1	12.4	1.36e-04	0	43	0	152043520	20	4517
2026-01-28 22:34:17.00	43.96	11.84	-30.1	-32.1	12.3	2.21e-04	0	43	0	154140672	20	4523
2026-01-28 22:34:18.00	44.11	11.90	-30.1	-32.1	12.3	1.75e-04	0	42	0	155189248	20	4523
2026-01-28 22:34:19.00	44.27	11.96	-30.1	-32.2	12.2	1.87e-04	0	42	0	157286400	20	4562
2026-01-28 22:34:20.01	44.42	12.02	-30.0	-31.8	12.5	1.27e-04	0	43	0	159383552	20	4435
2026-01-28 22:34:21.01	44.57	12.07	-29.7	-31.0	13.1	5.79e-05	0	42	0	161480704	20	4177
2026-01-28 22:34:22.01	44.72	12.13	-29.5	-30.4	13.5	5.03e-05	0	42	0	163577856	20	4002
2026-01-28 22:34:23.01	44.87	12.19	-29.5	-30.3	13.5	1.06e-05	0	43	0	164626432	20	3969
2026-01-28 22:34:24.01	45.03	12.25	-29.5	-31.0	13.5	8.30e-06	0	43	0	166723584	19	4234
2026-01-28 22:34:25.02	45.18	12.31	-29.5	-30.7	13.7	3.00e-06	0	43	0	168820736	19	4174
2026-01-28 22:34:26.02	45.34	12.36	-29.6	-31.1	13.4	1.37e-05	0	42	0	170917888	19	4300
2026-01-28 22:34:27.02	45.49	12.42	-29.5	-30.8	13.6	1.06e-05	0	43	0	173015040	19	4200
2026-01-28 22:34:28.02	45.65	12.48	-29.5	-30.9	13.6	1.14e-05	0	43	0	174063616	19	4239
2026-01-28 22:34:29.02	45.80	12.53	-29.7	-31.4	13.3	1.44e-05	0	43	0	176160768	19	4366
2026-01-28 22:34:30.03	45.96	12.59	-29.6	-31.2	13.3	1.13e-04	0	43	0	178257920	19	4320
2026-01-28 22:34:31.03	46.12	12.65	-29.7	-31.4	13.2	1.75e-05	0	43	0	180355072	19	4388
2026-01-28 22:34:32.04	46.28	12.71	-29.7	-31.5	13.2	2.82e-05	0	43	0	182452224	19	4407
2026-01-28 22:34:33.05	46.44	12.76	-29.7	-31.5	13.2	3.12e-05	0	43	0	183500800	19	4401
2026-01-28 22:34:34.05	46.60	12.82	-29.7	-31.5	13.2	1.75e-05	0	42	0	185597952	19	4420
2026-01-28 22:34:35.06	46.76	12.88	-29.7	-31.5	13.2	1.83e-05	0	43	0	187695104	19	4401
2026-01-28 22:34:36.06	46.92	12.94	-29.7	-31.4	13.2	2.74e-05	0	43	0	189792256	19	4387
2026-01-28 22:34:37.06	47.08	12.99	-29.7	-31.3	13.3	1.29e-05	0	43	0	191889408	19	4336
2026-01-28 22:34:38.07	47.24	13.05	-29.6	-31.2	13.5	1.29e-05	0	43	0	192937984	19	4294
2026-01-28 22:34:39.07	47.41	13.11	-29.6	-31.2	13.4	6.80e-06	0	43	0	195035136	19	4308
2026-01-28 22:34:40.07	47.57	13.16	-29.6	-31.0	13.5	2.51e-05	0	43	0	197132288	19	4259
2026-01-28 22:34:41.08	47.73	13.22	-29.5	-30.8	13.7	5.30e-06	0	43	0	199229440	19	4185
2026-01-28 22:34:42.08	47.90	13.28	-29.5	-31.0	13.5	1.06e-05	0	43	0	201326592	19	4233
2026-01-28 22:34:43.08	48.06	13.33	-29.6	-31.0	13.6	6.80e-06	0	43	0	202375168	19	4244
2026-01-28 22:34:44.09	48.23	13.39	-29.6	-31.1	13.5	1.22e-05	0	43	0	204472320	19	4265
2026-01-28 22:34:45.09	48.39	13.44	-29.6	-31.1	13.5	1.06e-05	0	43	0	206569472	19	4262
2026-01-28 22:34:46.09	48.56	13.50	-29.7	-31.2	13.4	9.10e-06	0	43	0	208666624	19	4312
2026-01-28 22:34:47.09	48.73	13.56	-29.6	-31.1	13.5	1.37e-05	0	43	0	209715200	19	4269
2026-01-28 22:34:48.10	48.90	13.61	-29.7	-31.3	13.3	1.44e-05	0	43	0	211812352	19	4341
2026-01-28 22:34:49.10	49.07	13.67	-29.8	-31.5	13.2	1.90e-05	0	43	0	213909504	19	4422
2026-01-28 22:34:50.11	49.24	13.72	-29.8	-31.5	13.2	1.98e-05	0	43	0	216006656	19	4406
2026-01-28 22:34:51.12	49.41	13.78	-29.8	-31.6	13.2	1.60e-05	0	43	0	218103808	19	4437
2026-01-28 22:34:52.12	49.58	13.84	-29.9	-31.8	13.0	2.05e-05	0	43	0	220200960	19	4516
2026-01-28 22:34:53.12	49.75	13.89	-29.8	-31.6	13.2	1.60e-05	0	43	0	221249536	19	4428
2026-01-28 22:34:54.12	49.92	13.95	-29.9	-31.9	13.0	2.67e-05	0	43	0	223346688	19	4535
2026-01-28 22:34:55.12	50.09	14.00	-29.9	-31.3	12.9	3.28e-05	0	43	0	225443840	20	4255
2026-01-28 22:34:56.13	50.27	14.06	-29.6	-30.9	13.2	2.28e-05	0	43	0	227540992	20	4141
2026-01-28 22:34:57.13	50.44	14.11	-29.5	-30.4	13.5	9.10e-06	0	43	0	228589568	20	3981
2026-01-28 22:34:58.13	50.61	14.17	-29.5	-30.4	13.6	1.67e-05	0	43	0	230686720	20	3993
2026-01-28 22:34:59.13	50.79	14.22	-29.6	-30.9	13.4	1.90e-05	0	43	0	232783872	19	4227
2026-01-28 22:35:00.14	50.96	14.28	-29.6	-31.1	13.4	1.14e-05	0	43	0	234881024	19	4282
2026-01-28 22:35:01.14	51.14	14.33	-29.8	-31.5	13.2	1.75e-05	0	43	0	236978176	19	4399
2026-01-28 22:35:02.14	51.32	14.38	-29.9	-31.9	13.0	2.36e-05	0	43	0	238026752	19	4510
2026-01-28 22:35:03.15	51.50	14.44	-29.9	-31.5	12.9	3.73e-05	0	43	0	240123904	20	4328
2026-01-28 22:35:04.15	51.67	14.49	-30.0	-31.6	12.9	6.86e-05	0	43	0	242221056	20	4335
2026-01-28 22:35:05.15	51.85	14.55	-30.1	-31.9	12.7	1.04e-04	0	43	0	244318208	20	4437
2026-01-28 22:35:06.15	52.03	14.60	-30.0	-31.8	12.7	8.92e-05	0	43	0	246415360	20	4414
2026-01-28 22:35:07.15	52.21	14.65	-30.1	-31.9	12.6	7.55e-05	0	43	0	247463936	20	4437
2026-01-28 22:35:08.15	52.39	14.71	-30.0	-31.6	12.8	4.02e-04	0	43	0	249561088	20	4357
2026-01-28 22:35:09.15	52.57	14.76	-30.0	-31.7	12.8	4.73e-05	0	43	0	251658240	20	4359
2026-01-28 22:35:10.16	52.75	14.81	-30.0	-31.7	12.8	4.19e-05	0	43	0	253755392	20	4381
2026-01-28 22:35:11.16	52.94	14.87	-30.0	-31.8	12.8	1.82e-04	0	43	0	255852544	20	4398
2026-01-28 22:35:12.16	53.12	14.92	-30.1	-32.1	12.6	8.69e-05	0	43	0	256901120	20	4490
2026-01-28 22:35:13.17	53.30	14.97	-30.3	-32.5	12.3	1.26e-04	0	43	0	258998272	20	4624
2026-01-28 22:35:14.17	53.49	15.03	-30.3	-32.5	12.3	3.51e-04	0	43	0	261095424	20	4652
2026-01-28 22:35:15.18	53.67	15.08	-30.4	-32.9	12.0	5.47e-04	0	43	0	263192576	20	4770
2026-01-28 22:35:16.18	53.86	15.13	-30.3	-32.4	12.4	1.81e-04	0	43	0	265289728	20	4592
2026-01-28 22:35:17.18	54.04	15.18	-30.2	-32.2	12.5	1.30e-04	0	43	0	266338304	20	4547
2026-01-28 22:35:18.19	54.23	15.24	-30.2	-32.2	12.5	4.33e-04	0	43	0	268435456	20	4527
2026-01-28 22:35:19.19	54.42	15.29	-30.1	-31.9	12.7	1.02e-04	0	43	0	270532608	20	4444
2026-01-28 22:35:20.19	54.61	15.34	-30.2	-32.2	12.5	1.04e-04	0	43	0	272629760	20	4532
2026-01-28 22:35:21.19	54.80	15.39	-30.1	-31.9	12.7	3.89e-04	0	43	0	273678336	20	4417
2026-01-28 22:35:22.19	54.99	15.44	-30.1	-31.8	12.8	6.56e-05	0	43	0	275775488	20	4412
2026-01-28 22:35:23.19	55.18	15.49	-30.0	-31.7	12.8	8.23e-05	0	43	0	277872640	20	4381
2026-01-28 22:35:24.20	55.37	15.54	-30.0	-31.6	12.9	7.01e-05	0	43	0	279969792	20	4348
2026-01-28 22:35:25.20	55.56	15.59	-30.0	-31.7	12.9	5.95e-05	0	43	0	282066944	20	4362
2026-01-28 22:35:26.20	55.75	15.64	-30.1	-31.8	12.8	7.70e-05	0	43	0	283115520	20	4403
2026-01-28 22:35:27.21	55.94	15.69	-30.1	-31.8	12.8	7.85e-05	0	43	0	285212672	20	4397
2026-01-28 22:35:28.21	56.14	15.74	-30.1	-32.0	12.7	9.00e-05	0	43	0	287309824	20	4453
2026-01-28 22:35:29.21	56.33	15.79	-30.3	-32.5	12.3	2.01e-04	0	43	0	289406976	20	4648
2026-01-28 22:35:30.22	56.53	15.84	-30.3	-32.3	12.4	1.95e-04	0	43	0	291504128	20	4571
2026-01-28 22:35:31.22	56.72	15.89	-30.4	-32.8	12.1	2.03e-04	0	43	0	292552704	20	4748
2026-01-28 22:35:32.23	56.92	15.94	-30.4	-32.6	12.2	7.80e-04	0	43	0	294649856	20	4683
2026-01-28 22:35:33.23	57.11	15.99	-30.2	-32.2	12.5	1.16e-03	0	43	0	296747008	20	4517
2026-01-28 22:35:34.23	57.31	16.04	-30.3	-32.3	12.5	1.01e-04	0	43	0	298844160	20	4580
2026-01-28 22:35:35.23	57.51	16.09	-30.2	-32.1	12.6	1.01e-03	0	43	0	300941312	20	4487
2026-01-28 22:35:36.24	57.71	16.14	-30.3	-32.5	12.2	6.91e-04	0	43	0	301989888	20	4646
2026-01-28 22:35:37.24	57.91	16.19	-30.1	-32.1	12.6	1.10e-04	0	43	0	304087040	20	4484
2026-01-28 22:35:38.25	58.11	16.24	-30.4	-32.7	12.3	2.95e-04	0	43	0	306184192	20	4711
2026-01-28 22:35:39.25	58.31	16.28	-30.5	-32.9	12.0	3.42e-04	0	43	0	308281344	20	4789
2026-01-28 22:35:40.26	58.51	16.33	-30.7	-33.1	11.6	4.56e-04	0	43	0	310378496	21	4754
2026-01-28 22:35:41.27	58.71	16.38	-30.8	-33.3	11.4	1.10e-03	0	43	0	311427072	21	4838
2026-01-28 22:35:42.27	58.91	16.43	-30.6	-33.0	11.6	9.96e-04	0	43	0	313524224	21	4716
2026-01-28 22:35:43.27	59.12	16.47	-30.7	-33.2	11.5	7.54e-04	0	43	0	315621376	21	4812
2026-01-28 22:35:44.28	59.32	16.52	-30.7	-33.1	11.6	1.24e-03	0	43	0	317718528	21	4740
2026-01-28 22:35:45.28	59.52	16.56	-30.6	-33.0	11.7	6.32e-04	0	43	0	319815680	21	4729
2026-01-28 22:35:46.28	59.73	16.61	-30.8	-33.3	11.4	7.10e-04	0	43	0	320864256	21	4827
2026-01-28 22:35:47.28	59.93	16.66	-30.5	-32.6	12.0	8.56e-04	0	43	0	322961408	21	4575
2026-01-28 22:35:48.28	60.14	16.70	-30.5	-32.4	12.1	2.78e-04	0	43	0	325058560	21	4503
2026-01-28 22:35:49.28	60.34	16.75	-30.6	-32.9	11.7	4.78e-04	0	43	0	327155712	21	4680
2026-01-28 22:35:50.29	60.55	16.79	-30.7	-33.1	11.6	9.60e-04	0	43	0	328204288	21	4747
2026-01-28 22:35:51.28	60.76	16.84	-30.5	-32.4	12.0	6.33e-04	0	43	0	330301440	21	4499
2026-01-28 22:35:52.29	60.97	16.88	-30.2	-31.7	12.6	1.20e-04	0	43	0	332398592	21	4269
2026-01-28 22:35:53.29	61.18	16.92	-30.1	-31.4	12.8	8.23e-05	0	43	0	334495744	21	4164
2026-01-28 22:35:54.30	61.39	16.97	-30.1	-31.5	12.7	8.54e-05	0	43	0	336592896	21	4196
2026-01-28 22:35:55.30	61.60	17.01	-30.2	-31.5	12.7	5.72e-05	0	43	0	337641472	21	4203
2026-01-28 22:35:56.29	61.80	17.06	-30.1	-31.3	12.8	6.02e-05	0	43	0	339738624	21	4151
2026-01-28 22:35:57.30	62.02	17.10	-30.2	-31.5	12.7	1.25e-04	0	43	0	341835776	21	4208
2026-01-28 22:35:58.30	62.23	17.14	-30.3	-31.9	12.4	1.14e-04	0	43	0	343932928	21	4328
2026-01-28 22:35:59.31	62.44	17.18	-30.1	-31.3	12.8	7.17e-05	0	43	0	346030080	21	4146
2026-01-28 22:36:00.31	62.66	17.23	-30.0	-31.5	13.0	5.26e-04	0	43	0	347078656	20	4299
2026-01-28 22:36:01.32	62.87	17.27	-29.8	-31.0	13.4	1.90e-05	0	43	0	349175808	20	4127
2026-01-28 22:36:02.31	63.08	17.31	-29.7	-31.1	13.7	4.50e-06	0	43	0	351272960	19	4258
2026-01-28 22:36:03.32	63.30	17.35	-29.7	-31.1	13.7	6.55e-04	0	43	0	353370112	19	4262
2026-01-28 22:36:04.32	63.51	17.39	-29.7	-31.2	13.6	1.22e-05	0	43	0	355467264	19	4297
2026-01-28 22:36:05.32	63.73	17.43	-29.8	-31.4	13.5	8.30e-06	0	43	0	356515840	19	4350
2026-01-28 22:36:06.32	63.94	17.47	-29.8	-31.6	13.4	9.90e-06	0	43	0	358612992	19	4420
2026-01-28 22:36:07.32	64.16	17.51	-30.0	-31.5	13.0	1.98e-05	0	43	0	360710144	20	4306
2026-01-28 22:36:08.32	64.38	17.55	-30.0	-31.6	13.0	3.69e-04	0	43	0	362807296	20	4328
2026-01-28 22:36:09.33	64.60	17.59	-30.1	-31.8	12.9	4.27e-05	0	43	0	364904448	20	4376
2026-01-28 22:36:10.33	64.82	17.63	-30.0	-31.6	13.0	4.42e-05	0	43	0	365953024	20	4324
2026-01-28 22:36:11.33	65.03	17.67	-30.0	-31.7	12.9	3.63e-04	0	43	0	368050176	20	4356
2026-01-28 22:36:12.33	65.25	17.71	-29.9	-31.3	13.2	2.51e-05	0	43	0	370147328	20	4209
2026-01-28 22:36:13.34	65.48	17.74	-30.0	-31.5	13.1	1.44e-05	0	43	0	372244480	20	4280
2026-01-28 22:36:14.34	65.70	17.78	-30.0	-31.4	13.1	3.50e-04	0	43	0	374341632	20	4269
2026-01-28 22:36:15.34	65.92	17.82	-29.9	-31.3	13.2	4.24e-04	0	43	0	375390208	20	4236
2026-01-28 22:36:16.35	66.14	17.86	-29.6	-30.6	13.7	1.22e-05	0	43	0	377487360	20	4014
2026-01-28 22:36:17.36	66.36	17.89	-29.5	-30.6	14.0	1.50e-06	0	43	0	379584512	19	4096
2026-01-28 22:36:18.36	66.59	17.93	-29.4	-30.8	14.3	4.30e-04	0	43	0	381681664	18	4248
2026-01-28 22:36:19.36	66.81	17.96	-29.3	-30.7	14.4	7.00e-07	0	43	0	383778816	18	4214
2026-01-28 22:36:20.37	67.04	18.00	-29.3	-30.8	14.3	7.00e-07	0	43	0	384827392	18	4237
2026-01-28 22:36:21.36	67.26	18.03	-29.3	-30.6	14.3	0.00e+00	0	43	0	386924544	18	4199
2026-01-28 22:36:22.37	67.48	18.07	-29.4	-31.0	14.1	1.50e-06	0	43	0	389021696	18	4329
2026-01-28 22:36:23.37	67.71	18.10	-29.6	-30.9	13.9	4.50e-06	0	43	0	391118848	19	4191
2026-01-28 22:36:24.38	67.94	18.14	-29.8	-31.5	13.5	6.80e-06	0	43	0	392167424	19	4385
2026-01-28 22:36:25.38	68.16	18.17	-29.7	-31.3	13.6	8.30e-06	0	43	0	394264576	19	4316
2026-01-28 22:36:26.39	68.39	18.20	-29.6	-30.9	13.9	6.10e-06	0	43	0	396361728	19	4189
2026-01-28 22:36:27.39	68.62	18.24	-29.5	-30.7	14.1	2.20e-06	0	43	0	398458880	19	4128
2026-01-28 22:36:28.39	68.85	18.27	-29.3	-30.2	14.4	7.00e-07	0	43	0	400556032	19	3994
2026-01-28 22:36:29.39	69.07	18.30	-29.4	-30.5	14.2	7.00e-07	0	43	0	401604608	19	4058
2026-01-28 22:36:30.40	69.30	18.33	-29.4	-30.4	14.2	7.00e-07	0	43	0	403701760	19	4044
2026-01-28 22:36:31.41	69.53	18.36	-29.4	-30.5	14.2	2.20e-06	0	43	0	405798912	19	4059
2026-01-28 22:36:32.40	69.76	18.39	-29.5	-30.7	14.1	6.10e-06	0	43	0	407896064	19	4119
2026-01-28 22:36:33.41	69.99	18.42	-29.6	-30.9	13.9	1.50e-06	0	43	0	409993216	19	4173
2026-01-28 22:36:34.41	70.22	18.45	-29.6	-30.9	13.9	3.80e-06	0	43	0	411041792	19	4197
2026-01-28 22:36:35.41	70.45	18.48	-29.6	-31.0	13.9	3.00e-06	0	43	0	413138944	19	4209
2026-01-28 22:36:36.41	70.69	18.51	-29.6	-30.9	13.9	5.30e-06	0	43	0	415236096	19	4172
2026-01-28 22:36:37.42	70.92	18.54	-29.6	-30.9	13.9	9.10e-06	0	43	0	417333248	19	4173
2026-01-28 22:36:38.43	71.15	18.57	-29.7	-31.2	13.7	6.10e-06	0	43	0	419430400	19	4282
2026-01-28 22:36:39.43	71.39	18.60	-29.8	-31.4	13.6	9.90e-06	0	43	0	420478976	19	4327
2026-01-28 22:36:40.43	71.62	18.62	-29.6	-30.9	13.9	9.90e-06	0	43	0	422576128	19	4183
2026-01-28 22:36:41.44	71.85	18.65	-29.3	-30.2	14.3	2.20e-06	0	43	0	424673280	19	3989
2026-01-28 22:36:42.44	72.09	18.68	-29.1	-29.7	14.7	0.00e+00	0	43	0	426770432	19	3835
2026-01-28 22:36:43.44	72.32	18.70	-29.1	-29.7	14.7	7.00e-07	0	43	0	428867584	19	3833
2026-01-28 22:36:44.45	72.56	18.73	-29.3	-30.2	14.4	0.00e+00	0	43	0	429916160	19	3978
2026-01-28 22:36:45.45	72.79	18.75	-29.5	-30.7	14.1	7.00e-07	0	43	0	432013312	19	4124
2026-01-28 22:36:46.46	73.03	18.78	-29.8	-31.5	13.6	6.10e-06	0	43	0	434110464	19	4366
2026-01-28 22:36:47.46	73.27	18.80	-29.9	-31.6	13.5	7.17e-05	0	43	0	436207616	19	4411
2026-01-28 22:36:48.47	73.50	18.83	-29.8	-31.4	13.6	1.37e-05	0	43	0	438304768	19	4347
2026-01-28 22:36:49.47	73.74	18.85	-29.7	-31.2	13.7	7.60e-06	0	43	0	439353344	19	4290
2026-01-28 22:36:50.47	73.98	18.87	-29.7	-31.3	13.6	6.63e-05	0	43	0	441450496	19	4314
2026-01-28 22:36:51.47	74.21	18.90	-29.8	-31.4	13.6	4.11e-05	0	43	0	443547648	19	4341
2026-01-28 22:36:52.48	74.45	18.92	-29.9	-31.7	13.4	1.22e-05	0	43	0	445644800	19	4439
2026-01-28 22:36:53.48	74.69	18.94	-30.1	-31.8	12.9	3.28e-05	0	43	0	447741952	20	4392
2026-01-28 22:36:54.48	74.93	18.96	-30.1	-31.9	12.9	6.63e-05	0	43	0	448790528	20	4418
2026-01-28 22:36:55.48	75.17	18.98	-30.2	-32.0	12.8	5.49e-05	0	43	0	450887680	20	4431
2026-01-28 22:36:56.48	75.41	19.00	-30.2	-32.0	12.8	4.19e-05	0	43	0	452984832	20	4438
2026-01-28 22:36:57.49	75.65	19.02	-30.2	-32.0	12.8	4.27e-05	0	43	0	455081984	20	4442
2026-01-28 22:36:58.49	75.89	19.04	-30.1	-31.8	12.9	5.34e-05	0	43	0	456130560	20	4395
2026-01-28 22:36:59.49	76.13	19.06	-30.1	-31.9	13.0	3.20e-05	0	43	0	458227712	20	4408
2026-01-28 22:37:00.50	76.37	19.08	-30.1	-32.0	12.8	7.93e-05	0	43	0	460324864	20	4442
2026-01-28 22:37:01.50	76.61	19.09	-30.1	-31.9	12.9	6.17e-05	0	43	0	462422016	20	4425
2026-01-28 22:37:02.51	76.85	19.11	-30.1	-31.9	12.9	5.87e-05	0	43	0	464519168	20	4423
2026-01-28 22:37:03.50	77.09	19.13	-30.1	-31.9	12.8	3.81e-05	0	43	0	465567744	20	4419
2026-01-28 22:37:04.51	77.33	19.14	-30.0	-31.5	13.2	3.43e-05	0	43	0	467664896	20	4279
2026-01-28 22:37:05.51	77.57	19.16	-29.8	-31.0	13.4	1.75e-05	0	43	0	469762048	20	4137
2026-01-28 22:37:06.50	77.81	19.17	-29.8	-30.9	13.5	8.30e-06	0	43	0	471859200	20	4103
2026-01-28 22:37:07.51	78.06	19.19	-29.7	-30.8	13.7	5.30e-06	0	43	0	473956352	20	4058
2026-01-28 22:37:08.51	78.30	19.20	-29.8	-31.0	13.5	1.22e-05	0	43	0	475004928	20	4127
2026-01-28 22:37:09.52	78.54	19.22	-29.9	-31.3	13.3	1.29e-05	0	43	0	477102080	20	4217
2026-01-28 22:37:10.53	78.79	19.23	-29.8	-31.0	13.5	1.83e-05	0	43	0	479199232	20	4146
2026-01-28 22:37:11.52	79.03	19.24	-29.8	-31.0	13.5	1.67e-05	0	43	0	481296384	20	4133
2026-01-28 22:37:12.52	79.27	19.26	-29.9	-31.2	13.4	1.67e-05	0	43	0	483393536	20	4182
2026-01-28 22:37:13.53	79.52	19.27	-29.9	-31.1	13.5	9.90e-06	0	43	0	484442112	20	4177
2026-01-28 22:37:14.54	79.76	19.28	-29.8	-30.9	13.6	8.30e-06	0	43	0	486539264	20	4109
2026-01-28 22:37:15.55	80.01	19.29	-30.0	-31.5	13.1	9.90e-06	0	43	0	488636416	20	4276
2026-01-28 22:37:16.55	80.25	19.30	-30.1	-31.7	13.0	4.73e-05	0	43	0	490733568	20	4358
2026-01-28 22:37:17.55	80.49	19.31	-30.0	-31.5	13.2	1.23e-04	0	43	0	492830720	20	4301
2026-01-28 22:37:18.56	80.74	19.32	-30.0	-31.6	13.1	3.96e-05	0	43	0	493879296	20	4326
2026-01-28 22:37:19.56	80.98	19.33	-29.9	-31.4	13.2	3.02e-04	0	43	0	495976448	20	4248
2026-01-28 22:37:20.55	81.23	19.34	-29.9	-31.2	13.4	2.73e-04	0	43	0	498073600	20	4195
2026-01-28 22:37:21.56	81.47	19.34	-30.0	-31.6	13.1	2.13e-05	0	43	0	500170752	20	4310
2026-01-28 22:37:22.57	81.72	19.35	-30.0	-31.5	13.2	4.34e-05	0	43	0	502267904	20	4270
2026-01-28 22:37:23.57	81.96	19.36	-30.0	-31.7	13.1	8.16e-05	0	43	0	503316480	20	4332
2026-01-28 22:37:24.57	82.21	19.36	-30.2	-32.0	12.8	5.41e-05	0	43	0	505413632	20	4443
2026-01-28 22:37:25.58	82.45	19.37	-30.4	-32.6	12.5	9.23e-05	0	43	0	507510784	20	4650
2026-01-28 22:37:26.59	82.70	19.38	-30.4	-32.7	12.4	1.52e-04	0	43	0	509607936	20	4671
2026-01-28 22:37:27.58	82.94	19.38	-30.5	-32.6	12.2	2.45e-04	0	43	0	510656512	21	4547
2026-01-28 22:37:28.58	83.19	19.38	-30.5	-32.5	12.2	2.54e-04	0	44	0	512753664	21	4517
2026-01-28 22:37:29.59	83.44	19.39	-30.4	-32.1	12.4	1.85e-04	0	43	0	514850816	21	4391
2026-01-28 22:37:30.60	83.68	19.39	-30.3	-31.8	12.6	1.24e-04	0	43	0	516947968	21	4303
2026-01-28 22:37:31.60	83.93	19.39	-30.3	-32.0	12.5	1.15e-04	0	43	0	519045120	21	4350
2026-01-28 22:37:32.59	84.17	19.40	-30.4	-32.3	12.4	1.31e-04	0	43	0	520093696	21	4443
2026-01-28 22:37:33.60	84.42	19.40	-30.4	-32.1	12.5	1.47e-04	0	43	0	522190848	21	4382
2026-01-28 22:37:34.61	84.67	19.40	-30.2	-31.7	12.7	1.27e-04	0	43	0	524288000	21	4265
2026-01-28 22:37:35.61	84.91	19.40	-30.2	-31.5	12.8	6.56e-05	0	43	0	526385152	21	4202
2026-01-28 22:37:36.61	85.16	19.40	-30.1	-31.2	13.0	3.58e-05	0	43	0	528482304	21	4113
2026-01-28 22:37:37.62	85.40	19.40	-30.1	-31.2	13.0	4.19e-05	0	43	0	529530880	21	4102
2026-01-28 22:37:38.62	85.65	19.40	-30.0	-31.0	13.2	1.44e-05	0	43	0	531628032	21	4054
2026-01-28 22:37:39.62	85.89	19.40	-30.2	-31.6	12.8	4.65e-05	0	43	0	533725184	21	4224
2026-01-28 22:37:40.62	86.14	19.39	-30.2	-31.7	12.7	8.54e-05	0	43	0	535822336	21	4262
2026-01-28 22:37:41.62	86.38	19.39	-30.3	-31.9	12.6	1.27e-04	0	43	0	537919488	21	4313
2026-01-28 22:37:42.63	86.63	19.39	-30.4	-32.1	12.5	9.30e-05	0	43	0	538968064	21	4381
2026-01-28 22:37:43.64	86.88	19.39	-30.3	-31.9	12.6	1.07e-04	0	43	0	541065216	21	4316
2026-01-28 22:37:44.64	87.12	19.38	-30.2	-31.7	12.7	8.69e-05	0	43	0	543162368	21	4242
2026-01-28 22:37:45.64	87.37	19.38	-30.1	-31.4	12.9	6.17e-05	0	43	0	545259520	21	4148
2026-01-28 22:37:46.63	87.61	19.37	-30.1	-31.3	13.0	6.17e-05	0	43	0	547356672	21	4120
2026-01-28 22:37:47.63	87.86	19.37	-30.0	-31.1	13.1	2.82e-05	0	43	0	548405248	21	4072
2026-01-28 22:37:48.64	88.10	19.36	-30.0	-31.0	13.1	4.57e-05	0	43	0	550502400	21	4055
2026-01-28 22:37:49.65	88.35	19.35	-29.9	-30.9	13.3	3.81e-05	0	43	0	552599552	21	4010
2026-01-28 22:37:50.65	88.60	19.35	-30.0	-30.9	13.2	2.21e-05	0	43	0	554696704	21	4031
2026-01-28 22:37:51.66	88.84	19.34	-30.0	-31.2	13.1	2.74e-05	0	43	0	556793856	21	4091
2026-01-28 22:37:52.67	89.09	19.33	-30.1	-31.2	13.0	5.56e-05	0	43	0	557842432	21	4117
2026-01-28 22:37:53.67	89.33	19.32	-30.2	-31.5	12.8	5.41e-05	0	44	0	559939584	21	4204
2026-01-28 22:37:54.68	89.58	19.31	-30.3	-31.8	12.6	6.79e-05	0	43	0	562036736	21	4294
2026-01-28 22:37:55.68	89.82	19.30	-30.3	-31.9	12.6	1.08e-04	0	43	0	564133888	21	4315
2026-01-28 22:37:56.69	90.07	19.29	-30.1	-31.4	12.9	9.00e-05	0	43	0	566231040	21	4165
2026-01-28 22:37:57.69	90.31	19.28	-30.1	-31.2	13.0	3.58e-05	0	43	0	567279616	21	4119
2026-01-28 22:37:58.69	90.56	19.27	-30.1	-31.4	12.9	2.89e-05	0	43	0	569376768	21	4160
2026-01-28 22:37:59.69	90.80	19.26	-29.8	-30.6	13.4	4.73e-05	0	43	0	571473920	21	3938
2026-01-28 22:38:00.67	91.04	19.25	-29.8	-30.9	13.6	9.10e-06	0	43	0	573571072	20	4095
2026-01-28 22:38:01.68	91.28	19.23	-29.7	-30.8	13.6	1.29e-05	0	43	0	574619648	20	4078
2026-01-28 22:38:02.68	91.52	19.22	-29.8	-30.9	13.6	1.44e-05	0	43	0	576716800	20	4099
2026-01-28 22:38:03.69	91.77	19.21	-29.9	-31.3	13.3	1.90e-05	0	43	0	578813952	20	4229
2026-01-28 22:38:04.70	92.01	19.19	-30.1	-31.8	13.0	3.73e-05	0	43	0	580911104	20	4383
2026-01-28 22:38:05.71	92.26	19.18	-30.1	-32.0	12.8	5.64e-05	0	43	0	583008256	20	4441
2026-01-28 22:38:06.71	92.50	19.16	-30.0	-31.6	13.1	4.95e-05	0	43	0	584056832	20	4320
2026-01-28 22:38:07.72	92.74	19.15	-30.0	-31.6	13.1	1.52e-05	0	43	0	586153984	20	4311
2026-01-28 22:38:08.72	92.99	19.13	-29.9	-31.3	13.3	2.28e-05	0	43	0	588251136	20	4224
2026-01-28 22:38:09.73	93.23	19.11	-29.9	-31.2	13.3	2.28e-05	0	43	0	590348288	20	4190
2026-01-28 22:38:10.73	93.47	19.10	-30.0	-31.5	13.1	2.89e-05	0	43	0	592445440	20	4300
2026-01-28 22:38:11.73	93.71	19.08	-30.0	-31.6	13.0	4.34e-05	0	43	0	593494016	20	4310
2026-01-28 22:38:12.74	93.95	19.06	-30.0	-31.6	13.1	3.58e-05	0	43	0	595591168	20	4334
2026-01-28 22:38:13.74	94.19	19.04	-30.0	-31.6	13.1	2.67e-05	0	43	0	597688320	20	4331
2026-01-28 22:38:14.74	94.43	19.02	-30.0	-31.7	13.0	3.20e-05	0	43	0	599785472	20	4348
2026-01-28 22:38:15.74	94.67	19.00	-29.9	-31.4	13.2	3.20e-05	0	43	0	601882624	20	4262
2026-01-28 22:38:16.75	94.91	18.98	-29.8	-30.9	13.5	1.52e-05	0	43	0	602931200	20	4118
2026-01-28 22:38:17.75	95.15	18.96	-29.9	-31.3	13.3	1.98e-05	0	43	0	605028352	20	4213
2026-01-28 22:38:18.75	95.39	18.94	-29.9	-31.2	13.3	3.12e-05	0	43	0	607125504	20	4189
2026-01-28 22:38:19.75	95.63	18.92	-30.0	-31.6	13.0	2.13e-05	0	43	0	609222656	20	4332
2026-01-28 22:38:20.75	95.87	18.90	-30.2	-32.0	12.8	5.41e-05	0	43	0	611319808	20	4461
2026-01-28 22:38:21.75	96.10	18.88	-30.4	-32.7	12.3	1.18e-04	0	43	0	612368384	20	4704
2026-01-28 22:38:22.76	96.34	18.85	-30.4	-32.8	12.2	2.26e-04	0	43	0	614465536	20	4716
2026-01-28 22:38:23.77	96.58	18.83	-30.4	-32.6	12.3	1.59e-04	0	43	0	616562688	20	4675
2026-01-28 22:38:24.77	96.82	18.81	-30.1	-32.0	12.8	8.16e-05	0	43	0	618659840	20	4443
2026-01-28 22:38:25.77	97.05	18.78	-29.7	-30.7	13.6	2.97e-05	0	44	0	620756992	20	4055
2026-01-28 22:38:26.78	97.29	18.76	-29.5	-30.3	13.9	1.22e-05	0	43	0	621805568	20	3932
2026-01-28 22:38:27.78	97.53	18.73	-29.6	-30.4	13.8	3.00e-06	0	44	0	623902720	20	3962
2026-01-28 22:38:28.78	97.76	18.71	-29.5	-30.3	13.8	3.80e-06	0	43	0	625999872	20	3945
2026-01-28 22:38:29.79	98.00	18.68	-29.7	-30.7	13.6	5.30e-06	0	43	0	628097024	20	4041
2026-01-28 22:38:30.80	98.24	18.65	-29.8	-31.1	13.4	1.22e-05	0	43	0	629145600	20	4180
2026-01-28 22:38:31.80	98.47	18.63	-29.9	-31.4	13.2	2.36e-05	0	43	0	631242752	20	4265
2026-01-28 22:38:32.80	98.70	18.60	-29.7	-30.8	13.5	2.82e-05	0	44	0	633339904	20	4091
2026-01-28 22:38:33.80	98.94	18.57	-29.6	-30.6	13.7	1.14e-05	0	43	0	635437056	20	4018
2026-01-28 22:38:34.81	99.17	18.54	-29.6	-30.4	13.8	3.80e-06	0	43	0	637534208	20	3964
2026-01-28 22:38:35.81	99.40	18.51	-29.7	-30.7	13.7	1.06e-05	0	44	0	639631360	20	4038
2026-01-28 22:38:36.81	99.63	18.48	-29.6	-30.6	13.8	7.60e-06	0	43	0	640679936	20	4023
2026-01-28 22:38:37.82	99.87	18.46	-29.6	-30.6	13.6	5.30e-06	0	44	0	642777088	20	4038
2026-01-28 22:38:38.83	100.10	18.42	-29.6	-30.6	13.6	7.60e-06	0	44	0	644874240	20	4036
2026-01-28 22:38:39.83	100.33	18.39	-29.8	-31.0	13.4	9.10e-06	0	44	0	646971392	20	4137
2026-01-28 22:38:40.83	100.56	18.36	-29.8	-31.0	13.4	8.30e-06	0	44	0	648019968	20	4145
2026-01-28 22:38:41.84	100.79	18.33	-29.7	-30.8	13.5	6.10e-06	0	43	0	650117120	20	4097
2026-01-28 22:38:42.84	101.02	18.30	-29.8	-31.2	13.3	2.36e-05	0	43	0	652214272	20	4206
2026-01-28 22:38:43.85	101.25	18.27	-29.6	-30.5	13.7	2.13e-05	0	43	0	654311424	20	4013
2026-01-28 22:38:44.85	101.48	18.24	-29.3	-29.8	14.1	7.00e-07	0	43	0	656408576	20	3807
2026-01-28 22:38:45.86	101.71	18.20	-29.2	-30.0	14.4	7.00e-07	0	43	0	657457152	19	3940
2026-01-28 22:38:46.86	101.94	18.17	-29.3	-30.2	14.3	7.00e-07	0	43	0	659554304	19	3987
2026-01-28 22:38:47.86	102.17	18.14	-29.3	-30.2	14.3	2.20e-06	0	43	0	661651456	19	3997
2026-01-28 22:38:48.87	102.39	18.10	-29.3	-30.3	14.2	2.20e-06	0	43	0	663748608	19	4020
2026-01-28 22:38:49.87	102.62	18.07	-29.5	-30.7	13.9	3.80e-06	0	44	0	665845760	19	4155
2026-01-28 22:38:50.88	102.85	18.03	-29.6	-31.2	13.7	6.10e-06	0	43	0	666894336	19	4285
2026-01-28 22:38:51.88	103.07	18.00	-29.5	-30.9	13.8	1.14e-05	0	43	0	668991488	19	4191
2026-01-28 22:38:52.89	103.30	17.96	-29.5	-30.8	13.9	3.00e-06	0	43	0	671088640	19	4159
2026-01-28 22:38:53.89	103.52	17.93	-29.6	-30.9	13.8	3.00e-06	0	44	0	673185792	19	4210
2026-01-28 22:38:54.89	103.74	17.89	-29.7	-31.2	13.6	2.20e-06	0	43	0	675282944	19	4299
2026-01-28 22:38:55.90	103.97	17.85	-29.8	-31.4	13.5	6.80e-06	0	44	0	676331520	19	4369
2026-01-28 22:38:56.90	104.19	17.82	-29.8	-31.5	13.4	9.90e-06	0	44	0	678428672	19	4398
2026-01-28 22:38:57.90	104.41	17.78	-29.9	-31.8	13.3	2.97e-05	0	43	0	680525824	19	4469
2026-01-28 22:38:58.91	104.64	17.74	-29.8	-31.4	13.5	5.64e-05	0	43	0	682622976	19	4363
2026-01-28 22:38:59.91	104.86	17.70	-29.7	-31.4	13.5	1.29e-05	0	43	0	684720128	19	4348
2026-01-28 22:39:00.91	105.08	17.67	-29.6	-31.1	13.7	9.90e-06	0	43	0	685768704	19	4250
2026-01-28 22:39:01.91	105.30	17.63	-29.6	-31.0	13.7	2.82e-05	0	43	0	687865856	19	4227
2026-01-28 22:39:02.92	105.52	17.59	-29.8	-31.5	13.4	4.50e-06	0	44	0	689963008	19	4393
2026-01-28 22:39:03.92	105.74	17.55	-29.8	-31.4	13.5	6.80e-06	0	43	0	692060160	19	4365
2026-01-28 22:39:04.92	105.95	17.51	-30.0	-31.5	13.0	1.98e-05	0	43	0	694157312	20	4303
2026-01-28 22:39:05.92	106.17	17.47	-29.7	-30.7	13.5	1.44e-05	0	43	0	695205888	20	4068
2026-01-28 22:39:06.93	106.39	17.43	-29.6	-30.4	13.7	5.30e-06	0	43	0	697303040	20	3977
2026-01-28 22:39:07.92	106.60	17.39	-29.6	-30.5	13.7	5.30e-06	0	43	0	699400192	20	4004
2026-01-28 22:39:08.92	106.82	17.35	-29.9	-31.3	13.2	9.90e-06	0	44	0	701497344	20	4249
2026-01-28 22:39:09.93	107.04	17.31	-30.0	-31.5	13.0	2.28e-05	0	44	0	702545920	20	4313
2026-01-28 22:39:10.93	107.25	17.26	-30.2	-32.1	12.6	5.41e-05	0	43	0	704643072	20	4486
2026-01-28 22:39:11.93	107.46	17.22	-30.4	-32.7	12.2	1.27e-04	0	43	0	706740224	20	4719
2026-01-28 22:39:12.93	107.68	17.18	-30.4	-32.8	12.1	2.12e-04	0	44	0	708837376	20	4741
2026-01-28 22:39:13.94	107.89	17.14	-30.4	-32.8	12.2	1.89e-04	0	43	0	710934528	20	4726
2026-01-28 22:39:14.94	108.10	17.09	-30.4	-32.8	12.1	2.23e-04	0	43	0	711983104	20	4749
2026-01-28 22:39:15.95	108.32	17.05	-30.2	-32.3	12.4	2.40e-04	0	43	0	714080256	20	4567
2026-01-28 22:39:16.95	108.53	17.01	-30.1	-32.0	12.6	1.53e-04	0	43	0	716177408	20	4464
2026-01-28 22:39:17.95	108.74	16.96	-30.1	-32.0	12.7	8.16e-05	0	43	0	718274560	20	4447
2026-01-28 22:39:18.95	108.95	16.92	-30.2	-32.2	12.5	9.99e-05	0	43	0	720371712	20	4533
2026-01-28 22:39:19.95	109.16	16.88	-30.1	-32.0	12.6	8.31e-05	0	44	0	721420288	20	4457
2026-01-28 22:39:20.95	109.37	16.83	-30.2	-32.3	12.4	8.23e-05	0	44	0	723517440	20	4569
2026-01-28 22:39:21.96	109.58	16.79	-30.3	-32.4	12.3	1.43e-04	0	43	0	725614592	20	4598
2026-01-28 22:39:22.96	109.78	16.74	-29.9	-31.5	13.0	1.01e-04	0	43	0	727711744	20	4297
2026-01-28 22:39:23.96	109.99	16.70	-29.7	-30.9	13.4	1.90e-05	0	43	0	729808896	20	4116
2026-01-28 22:39:24.96	110.20	16.65	-29.6	-30.4	13.6	7.60e-06	0	43	0	730857472	20	3979
2026-01-28 22:39:25.96	110.40	16.60	-29.6	-30.7	13.5	1.15e-04	0	43	0	732954624	20	4045
2026-01-28 22:39:26.97	110.61	16.56	-29.8	-30.9	13.3	1.44e-05	0	43	0	735051776	20	4132
2026-01-28 22:39:27.98	110.81	16.51	-30.0	-31.6	12.9	1.67e-04	0	43	0	737148928	20	4324
2026-01-28 22:39:28.98	111.02	16.46	-30.1	-31.9	12.7	4.73e-05	0	43	0	739246080	20	4429
2026-01-28 22:39:29.98	111.22	16.42	-30.3	-32.4	12.4	1.51e-04	0	43	0	740294656	20	4607
2026-01-28 22:39:30.99	111.43	16.37	-30.5	-32.6	11.8	3.39e-04	0	43	0	742391808	21	4586
2026-01-28 22:39:31.99	111.63	16.32	-30.6	-32.7	11.8	4.39e-04	0	43	0	744488960	21	4626
2026-01-28 22:39:33.00	111.83	16.27	-30.5	-32.7	11.7	5.26e-04	0	44	0	746586112	21	4624
2026-01-28 22:39:34.00	112.03	16.23	-30.4	-32.5	11.9	4.43e-04	0	43	0	748683264	21	4548
2026-01-28 22:39:35.01	112.23	16.18	-30.4	-32.4	12.0	3.96e-04	0	44	0	749731840	21	4541
2026-01-28 22:39:36.01	112.43	16.13	-30.3	-32.2	12.1	3.78e-04	0	43	0	751828992	21	4475
2026-01-28 22:39:37.02	112.63	16.08	-30.3	-32.0	12.2	2.73e-04	0	43	0	753926144	21	4392
2026-01-28 22:39:38.02	112.83	16.03	-30.2	-31.7	12.4	1.59e-04	0	43	0	756023296	21	4296
2026-01-28 22:39:39.03	113.03	15.98	-30.1	-31.6	12.5	1.15e-04	0	44	0	758120448	21	4250
2026-01-28 22:39:40.03	113.23	15.93	-30.2	-31.7	12.5	7.85e-05	0	43	0	759169024	21	4287
2026-01-28 22:39:41.03	113.42	15.88	-30.1	-31.4	12.6	1.45e-04	0	43	0	761266176	21	4203
2026-01-28 22:39:42.03	113.62	15.83	-29.8	-30.6	13.2	4.27e-05	0	43	0	763363328	21	3966
2026-01-28 22:39:43.03	113.81	15.78	-29.9	-30.9	13.0	4.73e-05	0	44	0	765460480	21	4053
2026-01-28 22:39:44.03	114.01	15.73	-30.0	-31.2	12.8	2.97e-05	0	44	0	766509056	21	4133
2026-01-28 22:39:45.03	114.20	15.68	-30.0	-31.1	12.8	6.63e-05	0	43	0	768606208	21	4107
2026-01-28 22:39:46.04	114.40	15.63	-30.5	-32.6	11.8	2.52e-04	0	44	0	770703360	21	4594
2026-01-28 22:39:47.04	114.59	15.58	-30.7	-33.4	11.3	7.86e-04	0	43	0	772800512	21	4882
2026-01-28 22:39:48.05	114.78	15.53	-31.0	-34.2	10.7	2.15e-03	0	43	0	774897664	21	5211
2026-01-28 22:39:49.06	114.98	15.48	-31.3	-34.8	9.8	5.28e-03	0	43	0	776994816	22	5367
2026-01-28 22:39:50.06	115.17	15.43	-31.2	-34.5	10.0	6.84e-03	0	44	0	778043392	22	5272
2026-01-28 22:39:51.06	115.36	15.37	-31.2	-34.4	10.1	6.76e-03	0	43	0	780140544	22	5237
2026-01-28 22:39:52.06	115.54	15.32	-31.2	-34.4	10.1	8.08e-03	0	43	0	782237696	22	5225
2026-01-28 22:39:53.06	115.73	15.27	-30.9	-33.4	10.8	5.47e-03	0	43	0	784334848	22	4826
2026-01-28 22:39:54.07	115.92	15.22	-30.7	-32.7	11.3	1.40e-03	0	43	0	785383424	22	4562
2026-01-28 22:39:55.07	116.11	15.17	-30.6	-32.4	11.5	9.56e-04	0	43	0	787480576	22	4464
2026-01-28 22:39:56.08	116.30	15.11	-30.5	-32.3	11.6	5.74e-04	0	44	0	789577728	22	4417
2026-01-28 22:39:57.08	116.48	15.06	-30.5	-32.3	11.6	5.33e-04	0	43	0	791674880	22	4418
2026-01-28 22:39:58.09	116.67	15.01	-30.4	-32.0	11.8	5.61e-04	0	43	0	793772032	22	4297
2026-01-28 22:39:59.09	116.86	14.95	-30.6	-32.6	11.4	6.35e-04	0	44	0	794820608	22	4517
2026-01-28 22:40:00.09	117.04	14.90	-30.2	-31.9	12.2	3.14e-04	0	43	0	796917760	21	4365
2026-01-28 22:40:01.08	117.22	14.85	-30.0	-31.4	12.5	1.39e-04	0	43	0	799014912	21	4185
2026-01-28 22:40:02.08	117.41	14.79	-29.9	-31.0	12.8	7.32e-05	0	44	0	801112064	21	4072
2026-01-28 22:40:03.09	117.59	14.74	-29.9	-30.9	12.9	6.17e-05	0	43	0	803209216	21	4033
2026-01-28 22:40:04.09	117.77	14.69	-30.0	-31.3	12.6	7.32e-05	0	43	0	804257792	21	4181
2026-01-28 22:40:05.10	117.95	14.63	-30.2	-31.7	12.4	1.57e-04	0	43	0	806354944	21	4291
2026-01-28 22:40:06.10	118.13	14.58	-30.2	-31.7	12.3	1.61e-04	0	43	0	808452096	21	4303
2026-01-28 22:40:07.11	118.32	14.52	-30.3	-32.0	12.1	2.67e-04	0	43	0	810549248	21	4405
2026-01-28 22:40:08.11	118.49	14.47	-30.2	-31.9	12.1	2.49e-04	0	43	0	812646400	21	4379
2026-01-28 22:40:09.12	118.67	14.41	-30.2	-31.9	12.2	2.30e-04	0	43	0	813694976	21	4355
2026-01-28 22:40:10.11	118.85	14.36	-30.2	-31.8	12.2	2.23e-04	0	43	0	815792128	21	4349
2026-01-28 22:40:11.12	119.03	14.31	-30.1	-31.7	12.3	1.84e-04	0	43	0	817889280	21	4290
2026-01-28 22:40:12.13	119.21	14.25	-30.3	-32.2	11.9	2.01e-04	0	43	0	819986432	21	4466
2026-01-28 22:40:13.13	119.38	14.20	-30.1	-31.7	12.4	2.03e-04	0	44	0	822083584	21	4291
2026-01-28 22:40:14.13	119.56	14.14	-30.0	-31.4	12.5	1.22e-04	0	43	0	823132160	21	4216
2026-01-28 22:40:15.13	119.73	14.08	-30.1	-32.1	12.2	1.79e-04	0	43	0	825229312	20	4536
2026-01-28 22:40:16.14	119.91	14.03	-30.1	-32.2	12.0	2.29e-04	0	43	0	827326464	20	4594
2026-01-28 22:40:17.14	120.08	13.97	-30.2	-32.6	11.9	2.62e-04	0	43	0	829423616	20	4739
2026-01-28 22:40:18.15	120.26	13.92	-30.2	-32.6	11.9	3.11e-04	0	44	0	830472192	20	4721
2026-01-28 22:40:19.15	120.43	13.86	-30.3	-32.8	11.8	3.17e-04	0	43	0	832569344	20	4805
2026-01-28 22:40:20.15	120.60	13.81	-30.4	-33.1	11.6	6.23e-04	0	43	0	834666496	20	4898
2026-01-28 22:40:21.15	120.77	13.75	-30.3	-32.6	12.0	6.24e-04	0	43	0	836763648	20	4724
2026-01-28 22:40:22.15	120.94	13.69	-30.6	-33.0	11.4	5.71e-04	0	43	0	838860800	21	4752
2026-01-28 22:40:23.16	121.11	13.64	-30.8	-33.6	10.9	1.38e-03	0	43	0	839909376	21	4996
2026-01-28 22:40:24.17	121.28	13.58	-30.9	-34.1	10.5	3.78e-03	0	43	0	842006528	21	5212
2026-01-28 22:40:25.17	121.45	13.52	-30.7	-33.5	11.0	3.57e-03	0	43	0	844103680	21	4963
2026-01-28 22:40:26.17	121.62	13.47	-30.8	-33.7	10.8	2.77e-03	0	44	0	846200832	21	5012
2026-01-28 22:40:27.18	121.79	13.41	-30.6	-33.2	11.2	1.95e-03	0	43	0	848297984	21	4828
2026-01-28 22:40:28.18	121.95	13.35	-30.4	-32.5	11.7	1.20e-03	0	44	0	849346560	21	4576
2026-01-28 22:40:29.18	122.12	13.30	-30.2	-32.0	12.0	4.81e-04	0	44	0	851443712	21	4401
2026-01-28 22:40:30.19	122.29	13.24	-30.2	-32.0	12.0	2.64e-04	0	44	0	853540864	21	4399
2026-01-28 22:40:31.19	122.45	13.18	-30.2	-32.0	12.0	3.43e-04	0	43	0	855638016	21	4422
2026-01-28 22:40:32.20	122.62	13.13	-30.3	-32.3	11.8	3.48e-04	0	43	0	857735168	21	4525
2026-01-28 22:40:33.20	122.78	13.07	-30.1	-31.7	12.1	2.94e-04	0	43	0	858783744	21	4336
2026-01-28 22:40:34.20	122.94	13.01	-30.0	-31.4	12.4	1.24e-04	0	43	0	860880896	21	4215
2026-01-28 22:40:35.20	123.10	12.96	-29.9	-31.3	12.5	1.07e-04	0	43	0	862978048	21	4193
2026-01-28 22:40:36.21	123.27	12.90	-30.0	-31.5	12.3	1.69e-04	0	44	0	865075200	21	4260
2026-01-28 22:40:37.21	123.43	12.84	-30.2	-32.2	11.8	3.39e-04	0	44	0	867172352	21	4497
2026-01-28 22:40:38.21	123.59	12.78	-30.3	-32.5	11.6	6.08e-04	0	44	0	868220928	21	4606
2026-01-28 22:40:39.21	123.75	12.73	-30.3	-32.4	11.6	6.25e-04	0	43	0	870318080	21	4587
2026-01-28 22:40:40.22	123.91	12.67	-30.2	-32.0	12.0	3.90e-04	0	44	0	872415232	21	4420
2026-01-28 22:40:41.22	124.07	12.61	-30.1	-31.6	12.2	3.13e-04	0	43	0	874512384	21	4296
2026-01-28 22:40:42.22	124.22	12.55	-29.9	-31.0	12.6	1.14e-04	0	43	0	876609536	21	4105
2026-01-28 22:40:43.23	124.38	12.49	-29.8	-31.1	12.9	1.07e-04	0	44	0	877658112	20	4224
2026-01-28 22:40:44.23	124.54	12.44	-29.6	-30.6	13.3	2.89e-05	0	43	0	879755264	20	4055
2026-01-28 22:40:45.23	124.70	12.38	-29.5	-30.3	13.4	1.98e-05	0	44	0	881852416	20	3977
2026-01-28 22:40:46.24	124.85	12.32	-29.5	-30.9	13.4	1.58e-04	0	44	0	883949568	19	4231
2026-01-28 22:40:47.24	125.01	12.26	-29.5	-31.0	13.4	1.22e-05	0	44	0	884998144	19	4245
2026-01-28 22:40:48.24	125.16	12.21	-29.5	-30.9	13.5	6.40e-05	0	43	0	887095296	19	4218
2026-01-28 22:40:49.25	125.32	12.15	-29.7	-31.4	13.1	1.98e-05	0	44	0	889192448	19	4377
2026-01-28 22:40:50.26	125.47	12.09	-29.7	-31.4	13.1	2.82e-05	0	44	0	891289600	19	4403
2026-01-28 22:40:51.26	125.63	12.03	-29.6	-31.4	13.1	2.67e-05	0	44	0	893386752	19	4406
2026-01-28 22:40:52.27	125.78	11.97	-29.7	-31.6	12.9	3.50e-05	0	43	0	895483904	19	4474
2026-01-28 22:40:53.28	125.93	11.91	-29.6	-31.5	13.0	3.12e-05	0	43	0	896532480	19	4456
2026-01-28 22:40:54.28	126.08	11.85	-29.7	-31.7	12.8	1.74e-04	0	43	0	898629632	19	4536
2026-01-28 22:40:55.29	126.23	11.80	-29.7	-31.6	12.9	4.19e-04	0	43	0	900726784	19	4490
2026-01-28 22:40:56.29	126.38	11.74	-29.8	-31.8	12.8	5.56e-05	0	44	0	902823936	19	4546
2026-01-28 22:40:57.30	126.53	11.68	-29.8	-32.0	12.6	5.32e-04	0	44	0	903872512	19	4614
2026-01-28 22:40:58.30	126.68	11.62	-30.1	-32.1	12.2	4.53e-04	0	44	0	905969664	20	4549
2026-01-28 22:40:59.29	126.83	11.56	-30.3	-32.6	11.8	3.07e-04	0	43	0	908066816	20	4736
2026-01-28 22:41:00.29	126.98	11.50	-30.3	-32.9	11.6	5.51e-04	0	44	0	910163968	20	4856
2026-01-28 22:41:01.30	127.13	11.45	-30.5	-33.3	11.3	8.25e-04	0	44	0	912261120	20	4978
2026-01-28 22:41:02.30	127.27	11.39	-30.4	-33.0	11.5	9.22e-04	0	44	0	913309696	20	4891
2026-01-28 22:41:03.30	127.42	11.33	-30.4	-33.0	11.4	9.54e-04	0	43	0	915406848	20	4905
2026-01-28 22:41:04.31	127.56	11.27	-30.3	-33.0	11.4	9.16e-04	0	44	0	917504000	20	4916
2026-01-28 22:41:05.31	127.71	11.21	-30.3	-32.9	11.5	1.22e-03	0	43	0	919601152	20	4850
2026-01-28 22:41:06.31	127.85	11.15	-30.1	-32.4	11.8	5.94e-04	0	44	0	921698304	20	4688
2026-01-28 22:41:07.32	128.00	11.09	-30.1	-32.3	11.9	3.86e-04	0	44	0	922746880	20	4640
2026-01-28 22:41:08.32	128.14	11.03	-30.0	-32.0	12.1	3.40e-04	0	43	0	924844032	20	4555
2026-01-28 22:41:09.32	128.28	10.98	-30.0	-32.1	12.0	2.97e-04	0	43	0	926941184	20	4583
2026-01-28 22:41:10.33	128.43	10.92	-30.0	-32.1	12.1	3.08e-04	0	44	0	929038336	20	4566
2026-01-28 22:41:11.33	128.57	10.86	-30.3	-32.8	11.6	5.78e-04	0	43	0	931135488	20	4803
2026-01-28 22:41:12.33	128.71	10.80	-30.2	-32.5	11.7	5.87e-04	0	44	0	932184064	20	4714
2026-01-28 22:41:13.34	128.85	10.74	-30.3	-32.7	11.6	5.84e-04	0	44	0	934281216	20	4787
2026-01-28 22:41:14.34	128.99	10.68	-30.2	-32.5	11.7	6.95e-04	0	44	0	936378368	20	4711
2026-01-28 22:41:15.34	129.13	10.62	-30.2	-32.6	11.7	6.06e-04	0	44	0	938475520	20	4740
2026-01-28 22:41:16.34	129.27	10.56	-30.2	-32.6	11.6	5.10e-04	0	44	0	940572672	20	4747
2026-01-28 22:41:17.34	129.40	10.51	-30.1	-32.4	11.7	6.81e-04	0	44	0	941621248	20	4685
2026-01-28 22:41:18.34	129.54	10.45	-29.9	-31.8	12.1	4.26e-04	0	43	0	943718400	20	4493
2026-01-28 22:41:19.34	129.68	10.39	-29.9	-31.7	12.2	2.19e-04	0	44	0	945815552	20	4465
2026-01-28 22:41:20.35	129.82	10.33	-29.8	-31.5	12.4	1.69e-04	0	43	0	947912704	20	4378
2026-01-28 22:41:21.35	129.95	10.27	-29.9	-31.7	12.2	1.35e-04	0	43	0	950009856	20	4439
2026-01-28 22:41:22.36	130.09	10.21	-29.9	-31.9	12.1	2.77e-04	0	43	0	951058432	20	4493
2026-01-28 22:41:23.36	130.22	10.15	-29.9	-31.7	12.2	2.34e-04	0	43	0	953155584	20	4440
2026-01-28 22:41:24.37	130.36	10.09	-30.0	-32.0	12.0	2.62e-04	0	43	0	955252736	20	4554
2026-01-28 22:41:25.38	130.49	10.03	-30.0	-32.0	12.0	3.80e-04	0	43	0	957349888	20	4556
2026-01-28 22:41:26.38	130.63	9.98	-30.0	-32.2	11.9	3.78e-04	0	43	0	958398464	20	4597
2026-01-28 22:41:27.39	130.76	9.92	-30.1	-32.3	11.8	4.13e-04	0	43	0	960495616	20	4643
2026-01-28 22:41:28.39	130.89	9.86	-30.1	-32.3	11.8	4.66e-04	0	43	0	962592768	20	4647
2026-01-28 22:41:29.40	131.03	9.80	-29.9	-31.9	12.1	3.36e-04	0	44	0	964689920	20	4505
2026-01-28 22:41:30.40	131.16	9.74	-29.8	-31.6	12.3	2.37e-04	0	44	0	966787072	20	4411
2026-01-28 22:41:31.40	131.29	9.68	-29.8	-31.5	12.3	2.32e-04	0	43	0	968884224	20	4373
2026-01-28 22:41:32.41	131.42	9.62	-29.8	-31.5	12.3	2.49e-04	0	44	0	969932800	20	4380
2026-01-28 22:41:33.41	131.55	9.56	-29.9	-31.8	12.0	2.59e-04	0	44	0	972029952	20	4486
2026-01-28 22:41:34.42	131.68	9.50	-29.9	-31.8	12.0	3.22e-04	0	43	0	974127104	20	4498
2026-01-28 22:41:35.42	131.81	9.45	-29.9	-31.9	11.9	3.66e-04	0	43	0	976224256	20	4530
2026-01-28 22:41:36.41	131.94	9.39	-30.1	-32.4	11.6	4.63e-04	0	44	0	977272832	20	4697
2026-01-28 22:41:37.42	132.06	9.33	-30.1	-32.6	11.5	7.93e-04	0	44	0	979369984	20	4771
2026-01-28 22:41:38.43	132.19	9.27	-30.3	-33.1	11.1	1.41e-03	0	44	0	981467136	20	4968
2026-01-28 22:41:39.43	132.32	9.21	-30.3	-33.1	11.1	1.34e-03	0	44	0	983564288	20	4952
2026-01-28 22:41:40.44	132.45	9.15	-30.2	-32.9	11.2	1.45e-03	0	43	0	985661440	20	4896
2026-01-28 22:41:41.45	132.57	9.09	-30.1	-32.4	11.6	9.21e-04	0	43	0	986710016	20	4697
2026-01-28 22:41:42.45	132.70	9.03	-30.0	-32.1	11.8	6.48e-04	0	44	0	988807168	20	4588
2026-01-28 22:41:43.46	132.82	8.97	-29.8	-31.6	12.1	3.03e-04	0	44	0	990904320	20	4441
2026-01-28 22:41:44.47	132.95	8.92	-29.8	-31.6	12.1	2.30e-04	0	44	0	993001472	20	4433
2026-01-28 22:41:45.47	133.07	8.86	-29.8	-31.6	12.1	2.36e-04	0	43	0	995098624	20	4441
2026-01-28 22:41:46.47	133.20	8.80	-29.7	-31.4	12.2	3.39e-04	0	43	0	996147200	20	4376
2026-01-28 22:41:47.47	133.32	8.74	-29.6	-31.2	12.3	1.44e-04	0	44	0	998244352	20	4319
2026-01-28 22:41:48.48	133.44	8.68	-29.7	-31.4	12.1	1.68e-04	0	44	0	1000341504	20	4395
2026-01-28 22:41:49.49	133.57	8.62	-29.8	-31.7	11.9	4.16e-04	0	43	0	1002438656	20	4512
2026-01-28 22:41:50.49	133.69	8.56	-29.8	-31.8	11.7	4.99e-04	0	44	0	1004535808	20	4542
2026-01-28 22:41:51.50	133.81	8.51	-29.9	-32.2	11.4	9.72e-04	0	43	0	1005584384	20	4687
2026-01-28 22:41:52.50	133.93	8.45	-30.1	-32.7	11.1	9.74e-04	0	44	0	1007681536	20	4879
2026-01-28 22:41:53.50	134.05	8.39	-30.3	-33.6	10.4	2.26e-03	0	44	0	1009778688	20	5242
2026-01-28 22:41:54.51	134.17	8.33	-30.4	-33.9	10.1	7.27e-03	0	43	0	1011875840	20	5379
2026-01-28 22:41:55.51	134.29	8.27	-30.5	-34.3	9.8	7.51e-03	0	43	0	1013972992	20	5607
2026-01-28 22:41:56.51	134.41	8.21	-30.5	-33.9	9.7	1.32e-02	0	43	0	1015021568	21	5349
2026-01-28 22:41:57.52	134.53	8.16	-30.4	-33.7	9.8	9.16e-03	0	43	0	1017118720	21	5276
2026-01-28 22:41:58.53	134.65	8.10	-30.3	-33.3	10.1	7.78e-03	0	44	0	1019215872	21	5094
2026-01-28 22:41:59.53	134.76	8.04	-30.2	-33.1	10.2	6.48e-03	0	43	0	1021313024	21	5028
2026-01-28 22:42:00.53	134.88	7.98	-30.4	-33.7	9.8	8.36e-03	0	44	0	1023410176	21	5282
2026-01-28 22:42:01.54	135.00	7.92	-30.4	-33.8	9.7	1.34e-02	0	43	0	1024458752	21	5306
2026-01-28 22:42:02.54	135.11	7.86	-30.3	-33.6	9.9	9.90e-03	0	43	0	1026555904	21	5211
2026-01-28 22:42:03.54	135.23	7.81	-30.4	-33.7	9.8	9.92e-03	0	43	0	1028653056	21	5277
2026-01-28 22:42:04.55	135.35	7.75	-30.5	-34.0	9.7	1.05e-02	0	43	0	1030750208	21	5361
2026-01-28 22:42:05.55	135.46	7.69	-30.7	-34.7	9.0	1.42e-02	0	44	0	1031798784	21	5725
2026-01-28 22:42:06.55	135.57	7.63	-30.8	-34.9	8.9	2.81e-02	0	43	0	1033895936	21	5794
2026-01-28 22:42:07.55	135.69	7.57	-30.9	-35.1	8.8	2.67e-02	0	43	0	1035993088	21	5872
2026-01-28 22:42:08.56	135.80	7.52	-30.9	-35.4	8.6	3.44e-02	0	44	0	1038090240	21	5982
2026-01-28 22:42:09.56	135.92	7.46	-30.9	-35.2	8.7	3.42e-02	0	44	0	1040187392	21	5935
2026-01-28 22:42:10.56	136.03	7.40	-30.9	-35.1	8.8	3.31e-02	0	44	0	1042284544	21	5878
2026-01-28 22:42:11.55	136.14	7.34	-30.8	-34.8	9.0	3.31e-02	0	43	0	1043333120	21	5751
2026-01-28 22:42:12.56	136.25	7.29	-30.6	-34.3	9.4	2.00e-02	0	44	0	1045430272	21	5504
2026-01-28 22:42:13.56	136.36	7.23	-30.6	-34.3	9.3	1.54e-02	0	43	0	1047527424	21	5512
2026-01-28 22:42:14.56	136.47	7.17	-30.4	-33.9	9.6	1.64e-02	0	43	0	1049624576	21	5329
2026-01-28 22:42:15.56	136.58	7.11	-30.3	-33.3	10.0	8.42e-03	0	44	0	1050673152	21	5119
2026-01-28 22:42:16.56	136.69	7.06	-32.3	-45.0	3.8	1.77e-02	0	43	104	1052770304	24	15549
2026-01-28 22:42:17.57	136.80	7.00	-33.0	-45.3	3.8	1.49e+00	0	43	104	1052770304	26	14800

#Closed at: 2026-01-28 22:42:18
#Recorded file [1052 MB]: D:/data/31010_260129_013254.dat