passes_logs/2026/01/28/R2M6_AANII_01/R2M6_AANII_01__20260128_003128_SUOMI_NPP_rec.log

#Pass ID: 20260128_003128_SUOMI NPP
#Satellite: SUOMI NPP
#Configuration: NPP
#almurnet v.1.7.20240730
#Start time: 2026-01-28 00:31:28

#Version: 2.2.20231116
#Station: R2M6_AANII_01
#Location: 30.233357 lon 59.946436 lat
#TLE: 1 37849U 11061A   26027.50945616  .00000185  00000+0  10897-3 0  9994
#TLE: 2 37849  98.7823 329.4511 0002105  42.1421 317.9917 14.19530771738482

#Time	Az	El	Level	Level2	SNR	BER	BlckErr	Temp	State	Recorded	gain1	gain2
2026-01-28 00:31:28.91	17.66	7.02	-32.3	-38.9	4.5	1.39e+00	0	40	0	0	24	7685
2026-01-28 00:31:29.91	17.66	7.10	-32.6	-39.9	4.2	1.44e+00	0	40	104	0	25	8372
2026-01-28 00:31:30.92	17.66	7.18	-32.5	-39.0	5.5	5.94e-01	0	40	0	0	25	7646
2026-01-28 00:31:31.92	17.65	7.26	-32.6	-39.6	5.1	5.50e-01	0	40	0	1048576	25	8108
2026-01-28 00:31:32.93	17.65	7.33	-32.5	-39.0	5.5	5.50e-01	0	40	0	3145728	25	7635
2026-01-28 00:31:33.93	17.65	7.41	-32.4	-38.8	6.0	3.81e-01	0	40	0	5242880	24	7557
2026-01-28 00:31:34.93	17.65	7.49	-32.3	-38.1	6.5	2.92e-01	0	40	0	7340032	24	7034
2026-01-28 00:31:35.93	17.65	7.57	-32.2	-37.7	6.7	1.96e-01	0	40	0	9437184	24	6791
2026-01-28 00:31:36.93	17.65	7.65	-32.2	-37.3	7.1	1.64e-01	0	41	0	10485760	24	6526
2026-01-28 00:31:37.93	17.64	7.73	-32.2	-37.3	7.2	1.40e-01	0	41	0	12582912	24	6470
2026-01-28 00:31:38.94	17.64	7.81	-32.2	-37.5	7.1	1.50e-01	0	41	0	14680064	24	6592
2026-01-28 00:31:39.94	17.64	7.89	-32.1	-36.9	7.5	1.46e-01	0	41	0	16777216	24	6231
2026-01-28 00:31:40.94	17.64	7.96	-32.0	-36.4	7.8	1.04e-01	0	41	0	17825792	24	5963
2026-01-28 00:31:41.94	17.64	8.04	-31.9	-36.5	8.1	5.94e-02	0	41	0	19922944	23	6130
2026-01-28 00:31:42.95	17.63	8.13	-31.9	-36.5	8.1	5.52e-02	0	41	0	22020096	23	6099
2026-01-28 00:31:43.95	17.63	8.21	-32.0	-36.8	7.9	6.22e-02	0	41	0	24117248	23	6279
2026-01-28 00:31:44.96	17.63	8.29	-31.9	-36.6	8.1	7.26e-02	0	41	0	26214400	23	6168
2026-01-28 00:31:45.97	17.63	8.37	-31.8	-36.1	8.5	4.68e-02	0	41	0	28311552	23	5890
2026-01-28 00:31:46.96	17.63	8.45	-31.8	-35.8	8.7	3.23e-02	0	41	0	29360128	23	5753
2026-01-28 00:31:47.97	17.62	8.53	-31.7	-35.6	9.0	3.35e-02	0	41	0	31457280	23	5624
2026-01-28 00:31:48.97	17.62	8.61	-31.6	-35.2	9.2	2.11e-02	0	41	0	33554432	23	5442
2026-01-28 00:31:49.97	17.62	8.70	-31.7	-35.5	9.1	2.09e-02	0	41	0	35651584	23	5596
2026-01-28 00:31:50.97	17.62	8.78	-31.7	-35.7	8.9	2.59e-02	0	41	0	36700160	23	5700
2026-01-28 00:31:51.97	17.62	8.86	-31.7	-35.4	9.2	2.01e-02	0	41	0	38797312	23	5508
2026-01-28 00:31:52.98	17.61	8.94	-31.6	-35.0	9.4	1.73e-02	0	41	0	40894464	23	5347
2026-01-28 00:31:53.98	17.61	9.03	-31.7	-35.3	9.3	2.01e-02	0	41	0	42991616	23	5475
2026-01-28 00:31:54.98	17.61	9.11	-31.7	-35.4	9.1	2.05e-02	0	41	0	45088768	23	5508
2026-01-28 00:31:55.99	17.61	9.19	-31.6	-35.0	9.5	1.50e-02	0	41	0	46137344	23	5344
2026-01-28 00:31:56.99	17.60	9.28	-31.6	-35.1	9.5	1.51e-02	0	41	0	48234496	23	5366
2026-01-28 00:31:57.99	17.60	9.36	-31.6	-35.1	9.4	2.05e-02	0	41	0	50331648	23	5372
2026-01-28 00:31:59.00	17.60	9.45	-31.6	-35.2	9.4	1.59e-02	0	41	0	52428800	23	5410
2026-01-28 00:32:00.00	17.60	9.53	-31.6	-34.9	9.6	1.39e-02	0	41	0	54525952	23	5276
2026-01-28 00:32:01.00	17.59	9.62	-31.5	-34.6	9.9	1.15e-02	0	41	0	55574528	23	5148
2026-01-28 00:32:02.01	17.59	9.70	-31.5	-34.6	9.8	1.07e-02	0	41	0	57671680	23	5157
2026-01-28 00:32:03.01	17.59	9.79	-31.5	-34.6	9.9	8.87e-03	0	41	0	59768832	23	5161
2026-01-28 00:32:04.02	17.59	9.88	-31.4	-34.9	10.0	7.50e-03	0	41	0	61865984	22	5379
2026-01-28 00:32:05.02	17.58	9.96	-31.4	-34.9	10.1	7.35e-03	0	41	0	63963136	22	5364
2026-01-28 00:32:06.02	17.58	10.05	-31.4	-34.9	10.1	6.34e-03	0	41	0	65011712	22	5348
2026-01-28 00:32:07.02	17.58	10.14	-31.5	-35.0	10.0	6.53e-03	0	41	0	67108864	22	5396
2026-01-28 00:32:08.03	17.57	10.22	-31.5	-34.6	9.9	6.98e-03	0	41	0	69206016	23	5166
2026-01-28 00:32:09.03	17.57	10.31	-31.5	-34.7	9.8	1.00e-02	0	41	0	71303168	23	5207
2026-01-28 00:32:10.03	17.57	10.40	-31.6	-34.9	9.7	1.12e-02	0	41	0	73400320	23	5265
2026-01-28 00:32:11.04	17.56	10.49	-31.5	-34.7	9.8	1.15e-02	0	41	0	74448896	23	5205
2026-01-28 00:32:12.05	17.56	10.58	-31.5	-34.6	9.9	1.11e-02	0	41	0	76546048	23	5152
2026-01-28 00:32:13.05	17.56	10.67	-31.5	-34.6	10.0	8.97e-03	0	41	0	78643200	23	5140
2026-01-28 00:32:14.06	17.56	10.76	-31.5	-34.7	9.9	8.92e-03	0	41	0	80740352	23	5165
2026-01-28 00:32:15.07	17.55	10.85	-31.5	-34.6	9.9	8.12e-03	0	42	0	82837504	23	5149
2026-01-28 00:32:16.07	17.55	10.94	-31.6	-34.9	9.7	9.05e-03	0	41	0	83886080	23	5280
2026-01-28 00:32:17.08	17.55	11.03	-31.5	-34.6	10.1	8.61e-03	0	41	0	85983232	23	5122
2026-01-28 00:32:18.08	17.54	11.12	-31.7	-35.2	9.5	9.67e-03	0	42	0	88080384	23	5398
2026-01-28 00:32:19.08	17.54	11.21	-31.5	-34.3	10.2	7.47e-03	0	41	0	90177536	23	5016
2026-01-28 00:32:20.08	17.53	11.30	-31.4	-34.5	10.5	3.82e-03	0	41	0	91226112	22	5178
2026-01-28 00:32:21.08	17.53	11.39	-31.4	-34.7	10.3	4.85e-03	0	41	0	93323264	22	5280
2026-01-28 00:32:22.09	17.53	11.48	-31.3	-34.2	10.6	4.44e-03	0	42	0	95420416	22	5065
2026-01-28 00:32:23.09	17.52	11.58	-31.2	-33.8	11.0	2.24e-03	0	41	0	97517568	22	4895
2026-01-28 00:32:24.10	17.52	11.67	-31.1	-33.7	11.1	1.92e-03	0	42	0	99614720	22	4860
2026-01-28 00:32:25.09	17.52	11.76	-31.1	-33.5	11.2	1.77e-03	0	42	0	100663296	22	4782
2026-01-28 00:32:26.10	17.51	11.86	-31.1	-33.6	11.1	1.61e-03	0	42	0	102760448	22	4809
2026-01-28 00:32:27.10	17.51	11.95	-31.2	-33.8	11.0	1.60e-03	0	42	0	104857600	22	4899
2026-01-28 00:32:28.10	17.51	12.04	-31.7	-34.7	10.9	1.70e-03	0	42	0	106954752	22	5117
2026-01-28 00:32:29.10	17.50	12.14	-31.1	-33.8	10.9	1.90e-03	0	42	0	109051904	22	4886
2026-01-28 00:32:30.11	17.50	12.23	-30.1	-32.6	10.9	1.42e-03	0	42	0	110100480	22	4813
2026-01-28 00:32:31.11	17.49	12.33	-30.9	-33.6	11.5	9.25e-04	0	42	0	112197632	21	4898
2026-01-28 00:32:32.11	17.49	12.42	-31.0	-33.7	11.5	8.62e-04	0	42	0	114294784	21	4924
2026-01-28 00:32:33.12	17.49	12.52	-30.9	-33.5	11.6	7.36e-04	0	42	0	116391936	21	4851
2026-01-28 00:32:34.12	17.48	12.62	-30.9	-33.5	11.6	7.59e-04	0	42	0	118489088	21	4868
2026-01-28 00:32:35.13	17.48	12.71	-30.9	-33.5	11.6	6.99e-04	0	42	0	119537664	21	4850
2026-01-28 00:32:36.13	17.47	12.81	-31.0	-33.3	11.4	3.32e-03	0	42	0	121634816	22	4697
2026-01-28 00:32:37.14	17.47	12.91	-31.1	-33.6	11.2	1.14e-03	0	42	0	123731968	22	4815
2026-01-28 00:32:38.14	17.46	13.01	-31.2	-34.1	10.9	1.80e-03	0	42	0	125829120	22	4976
2026-01-28 00:32:39.14	17.46	13.10	-31.0	-33.4	11.3	1.29e-03	0	42	0	127926272	22	4728
2026-01-28 00:32:40.15	17.45	13.20	-31.1	-33.5	11.3	1.70e-03	0	42	0	128974848	22	4752
2026-01-28 00:32:41.15	17.45	13.30	-31.1	-33.4	11.4	1.08e-03	0	42	0	131072000	22	4743
2026-01-28 00:32:42.15	17.45	13.40	-31.2	-33.7	11.2	1.13e-03	0	42	0	133169152	22	4834
2026-01-28 00:32:43.16	17.44	13.50	-31.3	-34.1	10.9	2.50e-03	0	42	0	135266304	22	4994
2026-01-28 00:32:44.16	17.44	13.60	-31.1	-33.6	11.3	1.62e-03	0	42	0	136314880	22	4807
2026-01-28 00:32:45.17	17.43	13.70	-31.0	-33.3	11.5	1.09e-03	0	42	0	138412032	22	4692
2026-01-28 00:32:46.16	17.43	13.80	-31.0	-33.1	11.6	1.52e-03	0	42	0	140509184	22	4603
2026-01-28 00:32:47.17	17.42	13.91	-30.8	-33.1	11.9	3.50e-03	0	42	0	142606336	21	4711
2026-01-28 00:32:48.17	17.42	14.01	-30.7	-32.9	12.2	3.23e-04	0	42	0	144703488	21	4612
2026-01-28 00:32:49.18	17.41	14.11	-30.7	-32.9	12.1	2.74e-04	0	42	0	146800640	21	4632
2026-01-28 00:32:50.19	17.41	14.21	-30.9	-33.5	11.8	3.05e-03	0	42	0	147849216	21	4835
2026-01-28 00:32:51.19	17.40	14.32	-30.7	-32.8	12.2	3.06e-04	0	42	0	149946368	21	4580
2026-01-28 00:32:52.18	17.40	14.42	-30.5	-32.4	12.5	1.27e-04	0	42	0	152043520	21	4439
2026-01-28 00:32:53.19	17.39	14.52	-30.6	-32.4	12.5	2.89e-03	0	42	0	154140672	21	4463
2026-01-28 00:32:54.19	17.38	14.63	-30.5	-32.3	12.6	2.55e-03	0	42	0	155189248	21	4425
2026-01-28 00:32:55.19	17.38	14.73	-30.6	-32.6	12.4	1.85e-04	0	42	0	157286400	21	4511
2026-01-28 00:32:56.20	17.37	14.84	-30.8	-33.1	12.0	2.25e-04	0	42	0	159383552	21	4699
2026-01-28 00:32:57.20	17.37	14.95	-30.5	-32.3	12.6	2.43e-03	0	42	0	161480704	21	4420
2026-01-28 00:32:58.20	17.36	15.05	-30.5	-32.1	12.8	5.32e-04	0	42	0	163577856	21	4358
2026-01-28 00:32:59.21	17.36	15.16	-30.4	-32.3	12.9	4.57e-05	0	42	0	164626432	20	4508
2026-01-28 00:33:00.21	17.35	15.27	-30.3	-32.0	13.1	2.46e-03	0	42	0	166723584	20	4395
2026-01-28 00:33:01.21	17.34	15.37	-30.3	-32.2	13.0	4.68e-04	0	42	0	168820736	20	4473
2026-01-28 00:33:02.21	17.34	15.48	-30.2	-31.9	13.3	2.63e-04	0	42	0	170917888	20	4358
2026-01-28 00:33:03.21	17.33	15.59	-30.2	-31.9	13.3	2.46e-03	0	42	0	173015040	20	4377
2026-01-28 00:33:04.21	17.33	15.70	-30.4	-32.0	12.9	4.33e-04	0	42	0	174063616	21	4298
2026-01-28 00:33:05.22	17.32	15.81	-30.5	-32.2	12.8	2.77e-03	0	42	0	176160768	21	4365
2026-01-28 00:33:06.23	17.31	15.92	-30.4	-32.3	13.0	5.56e-05	0	42	0	178257920	20	4493
2026-01-28 00:33:07.23	17.31	16.03	-30.3	-32.1	13.1	4.29e-04	0	42	0	180355072	20	4431
2026-01-28 00:33:08.23	17.30	16.14	-30.4	-32.3	13.0	2.43e-03	0	42	0	182452224	20	4510
2026-01-28 00:33:09.23	17.30	16.26	-30.5	-32.3	12.8	2.54e-03	0	42	0	183500800	21	4390
2026-01-28 00:33:10.24	17.29	16.37	-30.3	-32.2	13.1	4.55e-04	0	42	0	185597952	20	4456
2026-01-28 00:33:11.25	17.28	16.48	-30.3	-32.2	13.1	2.72e-03	0	42	0	187695104	20	4464
2026-01-28 00:33:12.25	17.28	16.60	-30.4	-32.3	13.0	2.46e-03	0	42	0	189792256	20	4492
2026-01-28 00:33:13.26	17.27	16.71	-30.4	-32.4	13.0	2.72e-04	0	42	0	191889408	20	4521
2026-01-28 00:33:14.26	17.26	16.82	-30.7	-32.6	12.5	2.81e-03	0	42	0	192937984	21	4501
2026-01-28 00:33:15.27	17.25	16.94	-30.9	-33.2	12.2	2.59e-03	0	42	0	195035136	21	4697
2026-01-28 00:33:16.28	17.25	17.06	-31.0	-32.9	11.9	7.84e-04	0	42	0	197132288	22	4519
2026-01-28 00:33:17.27	17.24	17.17	-30.8	-33.0	12.2	2.80e-03	0	42	0	199229440	21	4649
2026-01-28 00:33:18.28	17.23	17.29	-30.6	-32.4	12.7	2.61e-03	0	42	0	201326592	21	4437
2026-01-28 00:33:19.28	17.23	17.41	-30.4	-31.9	13.0	5.41e-04	0	42	0	202375168	21	4262
2026-01-28 00:33:20.28	17.22	17.52	-30.6	-32.3	12.8	2.52e-03	0	42	0	204472320	21	4397
2026-01-28 00:33:21.29	17.21	17.64	-30.6	-32.5	12.7	2.49e-03	0	42	0	206569472	21	4459
2026-01-28 00:33:22.29	17.20	17.76	-30.5	-32.2	12.9	5.80e-04	0	42	0	208666624	21	4353
2026-01-28 00:33:23.29	17.20	17.88	-30.7	-32.6	12.5	2.81e-03	0	42	0	209715200	21	4480
2026-01-28 00:33:24.29	17.19	18.00	-30.5	-32.1	12.9	2.30e-03	0	42	0	211812352	21	4314
2026-01-28 00:33:25.29	17.18	18.12	-30.4	-31.8	13.1	5.80e-04	0	42	0	213909504	21	4252
2026-01-28 00:33:26.30	17.17	18.24	-30.5	-32.5	13.0	2.60e-03	0	42	0	216006656	20	4543
2026-01-28 00:33:27.30	17.16	18.36	-30.7	-32.6	12.6	7.93e-05	0	42	0	218103808	21	4481
2026-01-28 00:33:28.31	17.16	18.49	-31.0	-33.1	12.0	8.11e-04	0	42	0	219152384	22	4561
2026-01-28 00:33:29.31	17.15	18.61	-31.1	-33.2	11.8	3.40e-03	0	42	0	221249536	22	4623
2026-01-28 00:33:30.31	17.14	18.73	-30.9	-33.2	12.2	1.84e-04	0	42	0	223346688	21	4685
2026-01-28 00:33:31.32	17.13	18.86	-30.8	-33.0	12.3	3.18e-04	0	42	0	225443840	21	4642
2026-01-28 00:33:32.32	17.12	18.98	-30.8	-33.0	12.3	2.84e-03	0	42	0	227540992	21	4619
2026-01-28 00:33:33.32	17.11	19.11	-31.0	-33.4	12.0	2.47e-03	0	42	0	228589568	21	4773
2026-01-28 00:33:34.32	17.10	19.24	-31.0	-33.4	12.0	2.35e-04	0	42	0	230686720	21	4787
2026-01-28 00:33:35.33	17.09	19.36	-31.2	-33.5	11.7	2.96e-03	0	42	0	232783872	22	4705
2026-01-28 00:33:36.33	17.09	19.49	-31.0	-33.1	12.0	3.22e-03	0	42	0	234881024	22	4561
2026-01-28 00:33:37.33	17.08	19.62	-30.7	-32.1	12.6	1.46e-04	0	42	0	236978176	22	4239
2026-01-28 00:33:38.33	17.07	19.75	-30.5	-31.9	13.0	7.55e-05	0	42	0	238026752	21	4274
2026-01-28 00:33:39.34	17.06	19.88	-30.3	-31.9	13.4	2.31e-03	0	42	0	240123904	20	4343
2026-01-28 00:33:40.33	17.05	20.01	-30.0	-31.2	13.9	5.30e-06	0	42	0	242221056	20	4136
2026-01-28 00:33:41.33	17.04	20.14	-29.9	-31.0	14.0	3.00e-06	0	43	0	244318208	20	4091
2026-01-28 00:33:42.33	17.03	20.27	-29.8	-31.2	14.3	2.06e-03	0	42	0	246415360	19	4231
2026-01-28 00:33:43.34	17.02	20.40	-29.9	-31.3	14.2	3.91e-04	0	42	0	247463936	19	4258
2026-01-28 00:33:44.34	17.01	20.53	-29.9	-31.3	14.2	7.00e-07	0	42	0	249561088	19	4264
2026-01-28 00:33:45.34	17.00	20.67	-29.8	-31.2	14.3	2.20e-06	0	42	0	251658240	19	4232
2026-01-28 00:33:46.35	16.99	20.80	-29.9	-31.3	14.2	1.50e-04	0	42	0	253755392	19	4258
2026-01-28 00:33:47.34	16.98	20.94	-30.0	-31.2	13.9	3.00e-06	0	42	0	254803968	20	4143
2026-01-28 00:33:48.35	16.97	21.07	-30.1	-31.5	13.7	4.50e-06	0	42	0	256901120	20	4211
2026-01-28 00:33:49.35	16.96	21.21	-30.0	-31.3	13.9	1.50e-06	0	42	0	258998272	20	4156
2026-01-28 00:33:50.35	16.95	21.35	-30.1	-31.5	13.8	2.51e-03	0	42	0	261095424	20	4209
2026-01-28 00:33:51.36	16.94	21.49	-30.2	-31.7	13.6	7.60e-06	0	43	0	263192576	20	4289
2026-01-28 00:33:52.37	16.93	21.63	-30.1	-31.5	13.7	9.90e-06	0	43	0	265289728	20	4225
2026-01-28 00:33:53.37	16.91	21.76	-30.3	-32.1	13.3	2.08e-03	0	43	0	266338304	20	4395
2026-01-28 00:33:54.38	16.90	21.91	-30.6	-32.3	12.9	4.34e-05	0	43	0	268435456	21	4391
2026-01-28 00:33:55.38	16.89	22.05	-30.5	-32.0	13.1	1.44e-05	0	42	0	270532608	21	4277
2026-01-28 00:33:56.39	16.88	22.19	-30.7	-32.7	12.7	4.50e-05	0	43	0	272629760	21	4534
2026-01-28 00:33:57.39	16.87	22.33	-31.0	-32.9	12.2	2.72e-04	0	42	0	273678336	22	4489
2026-01-28 00:33:58.39	16.86	22.48	-30.6	-32.4	12.8	9.15e-05	0	42	0	275775488	21	4428
2026-01-28 00:33:59.39	16.85	22.62	-30.5	-32.0	13.2	3.28e-05	0	42	0	277872640	21	4269
2026-01-28 00:34:00.38	16.83	22.76	-30.3	-32.1	13.4	2.51e-05	0	43	0	279969792	20	4398
2026-01-28 00:34:01.37	16.82	22.91	-30.4	-32.2	13.3	1.98e-05	0	43	0	282066944	20	4439
2026-01-28 00:34:02.38	16.81	23.06	-30.3	-32.0	13.5	1.67e-05	0	43	0	283115520	20	4364
2026-01-28 00:34:03.39	16.80	23.20	-30.2	-31.6	13.7	1.14e-05	0	43	0	285212672	20	4248
2026-01-28 00:34:04.39	16.78	23.35	-30.3	-32.1	13.4	7.60e-06	0	43	0	287309824	20	4401
2026-01-28 00:34:05.39	16.77	23.50	-30.5	-32.1	13.1	2.05e-05	0	42	0	289406976	21	4315
2026-01-28 00:34:06.40	16.76	23.65	-30.2	-31.8	13.6	1.52e-05	0	43	0	291504128	20	4320
2026-01-28 00:34:07.40	16.74	23.80	-30.3	-31.8	13.6	7.60e-06	0	43	0	292552704	20	4312
2026-01-28 00:34:08.40	16.73	23.96	-30.2	-31.8	13.6	1.44e-05	0	43	0	294649856	20	4313
2026-01-28 00:34:09.41	16.72	24.11	-30.4	-32.3	13.3	9.10e-06	0	43	0	296747008	20	4466
2026-01-28 00:34:10.41	16.70	24.26	-30.6	-32.3	13.0	2.51e-05	0	43	0	298844160	21	4366
2026-01-28 00:34:11.41	16.69	24.42	-30.5	-32.1	13.1	1.83e-05	0	43	0	300941312	21	4301
2026-01-28 00:34:12.42	16.68	24.57	-30.7	-32.6	12.8	5.11e-05	0	43	0	301989888	21	4486
2026-01-28 00:34:13.42	16.66	24.73	-31.0	-32.8	12.3	9.99e-05	0	43	0	304087040	22	4440
2026-01-28 00:34:14.43	16.65	24.89	-30.6	-32.2	13.0	3.20e-05	0	43	0	306184192	21	4354
2026-01-28 00:34:15.43	16.63	25.05	-30.2	-31.1	13.6	1.06e-05	0	43	0	308281344	21	4008
2026-01-28 00:34:16.43	16.62	25.21	-30.2	-31.7	13.7	2.36e-05	0	43	0	310378496	20	4285
2026-01-28 00:34:17.43	16.60	25.37	-29.4	-31.2	13.3	1.06e-05	0	42	0	311427072	20	4421
2026-01-28 00:34:18.44	16.59	25.53	-30.4	-32.2	13.4	1.64e-04	0	43	0	313524224	20	4432
2026-01-28 00:34:19.44	16.57	25.69	-30.4	-32.3	12.5	3.05e-05	0	43	0	315621376	20	4459
2026-01-28 00:34:20.44	16.56	25.85	-30.4	-32.3	12.2	2.21e-05	0	43	0	317718528	20	4448
2026-01-28 00:34:21.44	16.54	26.02	-30.7	-32.6	12.8	1.62e-04	0	43	0	318767104	21	4481
2026-01-28 00:34:22.45	16.52	26.18	-30.8	-32.8	12.6	6.17e-05	0	43	0	320864256	21	4529
2026-01-28 00:34:23.45	16.51	26.35	-30.6	-32.2	12.9	4.73e-05	0	42	0	322961408	21	4341
2026-01-28 00:34:24.46	16.49	26.52	-30.7	-32.5	12.8	4.95e-05	0	43	0	325058560	21	4433
2026-01-28 00:34:25.45	16.48	26.69	-30.9	-33.0	12.6	2.61e-04	0	43	0	327155712	21	4597
2026-01-28 00:34:26.45	16.46	26.85	-30.9	-33.1	12.5	1.17e-04	0	43	0	328204288	21	4646
2026-01-28 00:34:27.46	16.44	27.03	-30.9	-32.6	12.5	1.56e-04	0	43	0	330301440	22	4367
2026-01-28 00:34:28.47	16.42	27.20	-31.1	-33.0	12.2	2.47e-03	0	43	0	332398592	22	4502
2026-01-28 00:34:29.47	16.41	27.37	-31.2	-33.3	12.0	2.43e-04	0	43	0	334495744	22	4600
2026-01-28 00:34:30.48	16.39	27.55	-30.9	-33.2	12.4	1.57e-04	0	43	0	336592896	21	4665
2026-01-28 00:34:31.49	16.37	27.72	-30.7	-32.6	13.0	2.65e-03	0	43	0	337641472	21	4448
2026-01-28 00:34:32.50	16.35	27.90	-30.8	-32.7	12.8	6.40e-05	0	42	0	339738624	21	4486
2026-01-28 00:34:33.50	16.33	28.08	-30.7	-32.5	13.0	4.34e-05	0	43	0	341835776	21	4419
2026-01-28 00:34:34.51	16.31	28.26	-30.7	-32.4	13.0	3.96e-05	0	42	0	343932928	21	4384
2026-01-28 00:34:35.51	16.30	28.44	-30.7	-32.4	12.9	2.12e-03	0	43	0	346030080	21	4403
2026-01-28 00:34:36.52	16.28	28.62	-30.7	-32.6	12.8	2.65e-04	0	43	0	347078656	21	4460
2026-01-28 00:34:37.52	16.26	28.80	-30.8	-32.9	12.6	3.35e-05	0	43	0	349175808	21	4547
2026-01-28 00:34:38.52	16.24	28.98	-30.9	-33.0	12.6	2.44e-03	0	43	0	351272960	21	4608
2026-01-28 00:34:39.52	16.22	29.17	-31.1	-33.2	12.3	4.09e-04	0	42	0	353370112	22	4557
2026-01-28 00:34:40.53	16.20	29.35	-31.2	-33.3	12.1	2.43e-04	0	43	0	355467264	22	4588
2026-01-28 00:34:41.53	16.18	29.54	-31.3	-33.9	11.7	2.62e-03	0	43	0	356515840	22	4814
2026-01-28 00:34:42.53	16.16	29.73	-31.1	-33.2	12.2	5.55e-04	0	43	0	358612992	22	4570
2026-01-28 00:34:43.53	16.13	29.92	-31.2	-33.5	12.0	7.02e-04	0	43	0	360710144	22	4662
2026-01-28 00:34:44.53	16.11	30.11	-31.3	-33.6	11.9	4.16e-04	0	43	0	362807296	22	4696
2026-01-28 00:34:45.54	16.09	30.30	-31.2	-33.3	12.1	4.03e-04	0	43	0	364904448	22	4598
2026-01-28 00:34:46.54	16.07	30.49	-31.2	-33.4	12.0	2.17e-03	0	43	0	365953024	22	4628
2026-01-28 00:34:47.54	16.05	30.69	-31.1	-33.1	12.3	2.21e-04	0	43	0	368050176	22	4512
2026-01-28 00:34:48.54	16.02	30.88	-31.2	-33.3	12.0	4.10e-04	0	43	0	370147328	22	4611
2026-01-28 00:34:49.54	16.00	31.08	-31.5	-34.2	11.5	2.42e-03	0	43	0	372244480	22	4927
2026-01-28 00:34:50.55	15.98	31.28	-31.3	-33.2	11.8	2.35e-03	0	43	0	374341632	23	4480
2026-01-28 00:34:51.55	15.95	31.48	-31.7	-34.5	10.9	6.38e-04	0	42	0	375390208	23	4965
2026-01-28 00:34:52.55	15.93	31.68	-31.8	-34.7	10.7	3.44e-03	0	43	0	377487360	23	5034
2026-01-28 00:34:53.55	15.91	31.88	-31.7	-34.4	11.1	4.80e-03	0	43	0	379584512	23	4909
2026-01-28 00:34:54.56	15.88	32.08	-31.9	-35.0	10.5	3.03e-03	0	43	0	381681664	23	5177
2026-01-28 00:34:55.56	15.86	32.29	-32.0	-34.8	10.4	4.65e-03	0	43	0	382730240	24	4992
2026-01-28 00:34:56.56	15.83	32.50	-31.7	-34.4	11.0	3.19e-03	0	43	0	384827392	23	4903
2026-01-28 00:34:57.57	15.80	32.71	-31.7	-34.5	11.0	3.01e-03	0	43	0	386924544	23	4946
2026-01-28 00:34:58.57	15.78	32.91	-31.6	-33.5	11.3	5.05e-03	0	43	0	389021696	24	4493
2026-01-28 00:34:59.58	15.75	33.13	-32.0	-35.3	10.4	4.03e-03	0	43	0	391118848	23	5261
2026-01-28 00:35:00.58	15.72	33.34	-32.0	-34.8	10.4	3.98e-03	0	43	0	392167424	24	4994
2026-01-28 00:35:01.59	15.70	33.55	-31.9	-35.0	10.6	8.01e-03	0	43	0	394264576	23	5142
2026-01-28 00:35:02.59	15.67	33.77	-32.1	-35.2	10.0	9.11e-03	0	43	0	396361728	24	5140
2026-01-28 00:35:03.60	15.64	33.99	-32.0	-35.1	10.1	5.06e-03	0	43	0	398458880	24	5095
2026-01-28 00:35:04.60	15.61	34.21	-31.7	-34.4	10.9	3.99e-03	0	43	0	400556032	23	4917
2026-01-28 00:35:05.60	15.58	34.43	-31.5	-33.6	11.6	3.31e-03	0	43	0	401604608	23	4624
2026-01-28 00:35:06.61	15.55	34.65	-31.0	-32.4	12.4	6.16e-04	0	43	0	403701760	23	4195
2026-01-28 00:35:07.61	15.52	34.87	-31.0	-32.8	12.5	2.02e-03	0	43	0	405798912	22	4433
2026-01-28 00:35:08.61	15.49	35.10	-30.8	-32.8	12.8	3.28e-05	0	43	0	407896064	21	4505
2026-01-28 00:35:09.62	15.46	35.32	-30.5	-31.9	13.4	6.80e-06	0	43	0	409993216	21	4224
2026-01-28 00:35:10.62	15.43	35.55	-30.3	-31.9	13.7	1.67e-03	0	42	0	411041792	20	4320
2026-01-28 00:35:11.62	15.40	35.78	-30.2	-31.5	14.0	1.35e-03	0	43	0	413138944	20	4204
2026-01-28 00:35:12.63	15.36	36.01	-30.2	-31.6	13.9	1.50e-06	0	43	0	415236096	20	4220
2026-01-28 00:35:13.63	15.33	36.25	-30.1	-31.4	14.1	1.42e-03	0	43	0	417333248	20	4165
2026-01-28 00:35:14.63	15.30	36.48	-29.7	-30.3	14.8	1.34e-03	0	43	0	419430400	20	3851
2026-01-28 00:35:15.63	15.26	36.72	-29.6	-30.1	14.8	0.00e+00	0	43	0	420478976	20	3802
2026-01-28 00:35:16.64	15.23	36.96	-29.5	-30.4	15.0	1.07e-03	0	43	0	422576128	19	3969
2026-01-28 00:35:17.64	15.19	37.19	-29.4	-30.4	15.3	1.08e-03	0	43	0	424673280	18	4078
2026-01-28 00:35:18.65	15.16	37.44	-29.2	-30.1	15.5	0.00e+00	0	43	0	426770432	18	3994
2026-01-28 00:35:19.65	15.12	37.68	-29.1	-29.8	15.7	0.00e+00	0	43	0	428867584	18	3908
2026-01-28 00:35:20.66	15.08	37.93	-29.3	-30.4	15.4	1.02e-03	0	43	0	429916160	18	4050
2026-01-28 00:35:21.66	15.05	38.17	-29.4	-30.1	15.2	9.61e-05	0	43	0	432013312	19	3883
2026-01-28 00:35:22.67	15.01	38.42	-29.7	-30.7	14.8	0.00e+00	0	43	0	434110464	19	4055
2026-01-28 00:35:23.67	14.97	38.67	-29.7	-30.7	14.9	2.65e-04	0	43	0	436207616	19	4051
2026-01-28 00:35:24.67	14.93	38.93	-29.4	-30.1	15.2	8.39e-05	0	43	0	438304768	19	3896
2026-01-28 00:35:25.68	14.89	39.18	-29.4	-30.1	15.3	0.00e+00	0	43	0	439353344	19	3879
2026-01-28 00:35:26.68	14.85	39.44	-29.4	-30.6	15.2	0.00e+00	0	43	0	441450496	18	4116
2026-01-28 00:35:27.69	14.81	39.70	-29.7	-30.7	14.9	0.00e+00	0	43	0	443547648	19	4057
2026-01-28 00:35:28.70	14.76	39.96	-29.2	-29.6	15.5	0.00e+00	0	43	0	445644800	19	3749
2026-01-28 00:35:29.70	14.72	40.22	-29.3	-30.2	15.5	0.00e+00	0	43	0	447741952	18	4005
2026-01-28 00:35:30.71	14.68	40.49	-29.6	-30.5	15.0	0.00e+00	0	43	0	448790528	19	3980
2026-01-28 00:35:31.71	14.63	40.75	-29.2	-30.1	15.6	3.42e-04	0	43	0	450887680	18	3967
2026-01-28 00:35:32.72	14.58	41.02	-29.2	-30.1	15.6	0.00e+00	0	43	0	452984832	18	3969
2026-01-28 00:35:33.72	14.54	41.29	-29.3	-30.2	15.6	0.00e+00	0	43	0	455081984	18	3994
2026-01-28 00:35:34.73	14.49	41.56	-29.4	-30.5	15.4	3.29e-04	0	43	0	457179136	18	4100
2026-01-28 00:35:35.73	14.44	41.84	-29.7	-30.7	14.9	0.00e+00	0	43	0	458227712	19	4056
2026-01-28 00:35:36.74	14.39	42.12	-30.1	-31.3	14.2	0.00e+00	0	43	0	460324864	20	4138
2026-01-28 00:35:37.74	14.34	42.39	-30.2	-31.5	14.1	3.00e-06	0	43	0	462422016	20	4181
2026-01-28 00:35:38.75	14.29	42.68	-30.1	-31.4	14.1	1.50e-06	0	43	0	464519168	20	4166
2026-01-28 00:35:39.76	14.24	42.96	-30.4	-32.2	13.6	7.60e-06	0	43	0	465567744	20	4413
2026-01-28 00:35:40.76	14.19	43.24	-30.4	-32.2	13.7	7.60e-06	0	43	0	467664896	20	4401
2026-01-28 00:35:41.77	14.13	43.53	-30.2	-31.6	14.0	0.00e+00	0	43	0	469762048	20	4236
2026-01-28 00:35:42.77	14.08	43.82	-30.3	-31.7	13.9	1.50e-06	0	43	0	471859200	20	4255
2026-01-28 00:35:43.77	14.02	44.11	-30.2	-31.5	14.1	1.50e-06	0	43	0	473956352	20	4188
2026-01-28 00:35:44.78	13.97	44.40	-30.3	-31.9	13.7	0.00e+00	0	43	0	476053504	20	4309
2026-01-28 00:35:45.78	13.91	44.70	-30.2	-31.7	14.0	3.00e-06	0	43	0	477102080	20	4242
2026-01-28 00:35:46.78	13.85	44.99	-30.4	-31.5	13.7	9.10e-06	0	43	0	479199232	21	4110
2026-01-28 00:35:47.78	13.79	45.29	-30.7	-32.5	13.1	2.05e-05	0	43	0	481296384	21	4404
2026-01-28 00:35:48.79	13.73	45.60	-30.9	-33.0	12.9	2.89e-05	0	43	0	483393536	21	4586
2026-01-28 00:35:49.79	13.66	45.90	-30.8	-32.0	13.2	1.44e-05	0	43	0	484442112	22	4169
2026-01-28 00:35:50.79	13.60	46.21	-31.0	-32.8	12.6	3.66e-05	0	43	0	486539264	22	4430
2026-01-28 00:35:51.80	13.53	46.52	-31.3	-33.4	12.2	1.02e-04	0	43	0	488636416	22	4627
2026-01-28 00:35:52.80	13.46	46.83	-31.5	-33.8	11.6	4.53e-04	0	43	0	490733568	23	4654
2026-01-28 00:35:53.80	13.40	47.14	-31.8	-34.7	11.0	1.49e-03	0	43	0	492830720	23	5024
2026-01-28 00:35:54.81	13.33	47.45	-32.3	-35.8	9.8	2.93e-03	0	43	0	493879296	24	5360
2026-01-28 00:35:55.81	13.25	47.77	-32.0	-34.9	10.4	3.90e-03	0	43	0	495976448	24	4996
2026-01-28 00:35:56.82	13.18	48.09	-31.7	-33.9	10.9	3.19e-03	0	43	0	498073600	24	4636
2026-01-28 00:35:57.82	13.11	48.42	-31.5	-33.3	11.6	1.86e-03	0	43	0	500170752	24	4407
2026-01-28 00:35:58.83	13.03	48.74	-31.4	-33.0	11.8	6.11e-04	0	43	0	502267904	24	4308
2026-01-28 00:35:59.83	12.95	49.07	-31.4	-33.4	11.8	2.88e-04	0	43	0	503316480	23	4541
2026-01-28 00:36:00.83	12.87	49.40	-31.0	-32.2	12.6	1.65e-04	0	43	0	505413632	23	4139
2026-01-28 00:36:01.83	12.79	49.73	-30.5	-31.4	13.3	2.05e-05	0	43	0	507510784	22	3999
2026-01-28 00:36:02.84	12.71	50.06	-30.4	-31.7	13.6	2.89e-05	0	43	0	509607936	21	4167
2026-01-28 00:36:03.83	12.62	50.40	-29.9	-30.3	14.4	1.50e-06	0	43	0	511705088	21	3772
2026-01-28 00:36:04.84	12.53	50.74	-29.4	-30.0	15.3	0.00e+00	0	43	0	512753664	19	3868
2026-01-28 00:36:05.84	12.44	51.08	-29.4	-30.1	15.2	0.00e+00	0	43	0	514850816	19	3897
2026-01-28 00:36:06.85	12.35	51.42	-29.3	-29.8	15.4	1.83e-05	0	43	0	516947968	19	3802
2026-01-28 00:36:07.85	12.26	51.77	-29.1	-29.2	15.8	0.00e+00	0	43	0	519045120	19	3661
2026-01-28 00:36:08.85	12.16	52.12	-29.3	-29.8	15.4	0.00e+00	0	43	0	521142272	19	3796
2026-01-28 00:36:09.85	12.06	52.47	-29.5	-30.4	15.3	6.10e-06	0	43	0	522190848	19	3953
2026-01-28 00:36:10.86	11.96	52.82	-29.4	-29.9	15.3	0.00e+00	0	43	0	524288000	19	3835
2026-01-28 00:36:11.86	11.86	53.18	-29.4	-30.1	15.3	0.00e+00	0	43	0	526385152	19	3885
2026-01-28 00:36:12.86	11.75	53.54	-29.3	-29.7	15.3	1.62e-04	0	43	0	528482304	19	3787
2026-01-28 00:36:13.86	11.64	53.90	-29.0	-29.5	15.8	2.78e-04	0	43	0	529530880	18	3830
2026-01-28 00:36:14.86	11.53	54.26	-28.9	-29.3	16.1	0.00e+00	0	43	0	531628032	18	3761
2026-01-28 00:36:15.87	11.42	54.63	-29.5	-30.3	15.2	3.34e-04	0	43	0	533725184	19	3938
2026-01-28 00:36:16.87	11.30	54.99	-29.1	-29.9	15.7	3.81e-04	0	43	0	535822336	18	3914
2026-01-28 00:36:17.88	11.18	55.37	-29.2	-30.1	15.6	0.00e+00	0	43	0	537919488	18	3965
2026-01-28 00:36:18.88	11.05	55.74	-29.3	-30.2	15.5	0.00e+00	0	43	0	538968064	18	4006
2026-01-28 00:36:19.89	10.92	56.12	-29.3	-30.2	15.5	6.01e-04	0	43	0	541065216	18	3999
2026-01-28 00:36:20.89	10.79	56.49	-29.3	-30.3	15.5	0.00e+00	0	43	0	543162368	18	4038
2026-01-28 00:36:21.89	10.66	56.87	-29.8	-30.9	14.9	0.00e+00	0	43	0	545259520	19	4114
2026-01-28 00:36:22.89	10.52	57.25	-30.3	-31.8	13.9	5.68e-04	0	43	0	547356672	20	4293
2026-01-28 00:36:23.88	10.37	57.64	-30.4	-31.6	13.7	6.80e-06	0	43	0	548405248	21	4131
2026-01-28 00:36:24.89	10.23	58.03	-30.9	-32.6	12.8	8.26e-04	0	43	0	550502400	22	4350
2026-01-28 00:36:25.89	10.07	58.41	-31.1	-32.9	12.6	1.40e-04	0	43	0	552599552	22	4456
2026-01-28 00:36:26.89	9.92	58.81	-31.0	-32.8	12.6	7.85e-05	0	43	0	554696704	22	4410
2026-01-28 00:36:27.90	9.75	59.20	-31.1	-32.9	12.7	6.96e-04	0	43	0	556793856	22	4461
2026-01-28 00:36:28.91	9.59	59.60	-31.1	-33.1	12.4	8.33e-04	0	43	0	557842432	22	4520
2026-01-28 00:36:29.91	9.41	60.00	-31.5	-33.9	11.6	5.09e-04	0	43	0	559939584	23	4712
2026-01-28 00:36:30.91	9.24	60.40	-31.8	-34.6	10.9	1.57e-03	0	43	0	562036736	23	4960
2026-01-28 00:36:31.91	9.05	60.81	-31.6	-34.1	11.3	1.28e-03	0	43	0	564133888	23	4790
2026-01-28 00:36:32.91	8.86	61.21	-31.2	-32.8	12.2	2.01e-04	0	43	0	566231040	23	4344
2026-01-28 00:36:33.92	8.67	61.62	-31.0	-32.8	12.6	5.34e-04	0	43	0	567279616	22	4425
2026-01-28 00:36:34.92	8.47	62.03	-30.7	-32.0	13.2	5.06e-04	0	43	0	569376768	22	4158
2026-01-28 00:36:35.93	8.25	62.45	-30.5	-31.5	13.6	1.06e-05	0	43	0	571473920	22	3998
2026-01-28 00:36:36.93	8.04	62.86	-29.9	-30.8	14.7	1.62e-04	0	43	0	573571072	20	3983
2026-01-28 00:36:37.94	7.81	63.28	-29.4	-29.5	15.4	3.80e-06	0	43	0	575668224	20	3643
2026-01-28 00:36:38.94	7.58	63.70	-29.5	-29.7	15.2	0.00e+00	0	43	0	576716800	20	3704
2026-01-28 00:36:39.95	7.33	64.13	-29.2	-29.5	15.6	0.00e+00	0	43	0	578813952	19	3737
2026-01-28 00:36:40.95	7.08	64.55	-29.2	-29.6	15.6	0.00e+00	0	43	0	580911104	19	3744
2026-01-28 00:36:41.95	6.82	64.97	-29.3	-29.8	15.5	2.20e-06	0	43	0	583008256	19	3809
2026-01-28 00:36:42.96	6.55	65.40	-29.5	-30.1	15.4	0.00e+00	0	43	0	585105408	19	3896
2026-01-28 00:36:43.97	6.26	65.84	-30.1	-31.2	14.3	0.00e+00	0	43	0	586153984	20	4115
2026-01-28 00:36:44.97	5.97	66.27	-30.5	-31.8	13.7	1.06e-05	0	43	0	588251136	21	4182
2026-01-28 00:36:45.98	5.66	66.70	-30.9	-33.0	12.9	1.67e-05	0	43	0	590348288	21	4559
2026-01-28 00:36:46.99	5.34	67.14	-31.2	-33.2	12.5	1.40e-04	0	43	0	592445440	22	4528
2026-01-28 00:36:47.99	5.01	67.57	-31.0	-32.8	12.7	1.62e-04	0	43	0	594542592	22	4397
2026-01-28 00:36:48.99	4.66	68.01	-31.3	-33.7	12.1	4.21e-04	0	43	0	595591168	22	4720
2026-01-28 00:36:50.00	4.30	68.45	-31.9	-34.8	10.8	1.79e-03	0	43	0	597688320	23	5056
2026-01-28 00:36:51.00	3.92	68.89	-32.0	-34.8	10.7	4.11e-03	0	43	0	599785472	24	4951
2026-01-28 00:36:52.00	3.52	69.33	-31.6	-33.8	11.6	1.91e-03	0	43	0	601882624	23	4678
2026-01-28 00:36:53.00	3.11	69.77	-31.5	-34.1	11.8	8.25e-04	0	43	0	602931200	22	4866
2026-01-28 00:36:54.00	2.68	70.22	-31.7	-34.3	11.3	7.02e-04	0	43	0	605028352	23	4845
2026-01-28 00:36:55.00	2.22	70.66	-31.5	-33.7	11.8	1.66e-03	0	43	0	607125504	23	4626
2026-01-28 00:36:56.00	1.74	71.10	-31.0	-32.3	12.7	1.11e-03	0	43	0	609222656	23	4151
2026-01-28 00:36:57.00	1.24	71.55	-30.5	-31.3	13.6	3.00e-06	0	43	0	611319808	22	3945
2026-01-28 00:36:58.01	0.70	72.00	-30.2	-31.5	14.2	7.00e-07	0	43	0	612368384	20	4183
2026-01-28 00:36:59.02	0.13	72.45	-30.4	-32.1	13.8	5.41e-04	0	43	0	614465536	20	4356
2026-01-28 00:37:00.01	359.55	72.89	-30.2	-31.5	14.1	3.80e-06	0	43	0	616562688	20	4194
2026-01-28 00:37:01.01	358.93	73.33	-30.6	-32.1	13.6	4.50e-06	0	43	0	618659840	21	4257
2026-01-28 00:37:02.02	358.26	73.78	-31.1	-32.9	12.7	1.59e-03	0	43	0	620756992	22	4440
2026-01-28 00:37:03.02	357.56	74.23	-31.0	-32.7	12.8	5.03e-05	0	43	0	621805568	22	4352
2026-01-28 00:37:04.02	356.82	74.67	-31.5	-33.6	12.0	2.83e-04	0	43	0	623902720	23	4572
2026-01-28 00:37:05.03	356.02	75.12	-32.7	-36.6	8.8	7.55e-03	0	43	0	625999872	25	5658
2026-01-28 00:37:06.03	355.18	75.56	-32.1	-34.6	10.4	2.17e-02	0	43	0	628097024	25	4763
2026-01-28 00:37:07.03	354.29	76.00	-31.6	-33.3	11.8	8.99e-04	0	43	0	630194176	24	4363
2026-01-28 00:37:08.03	353.33	76.44	-32.3	-35.7	10.2	1.31e-03	0	43	0	631242752	24	5292
2026-01-28 00:37:09.03	352.31	76.87	-32.9	-37.1	8.2	4.20e-02	0	43	0	633339904	26	5789
2026-01-28 00:37:10.03	351.22	77.30	-32.0	-33.9	11.0	2.64e-02	0	43	0	635437056	25	4520
2026-01-28 00:37:11.03	350.05	77.73	-32.0	-34.5	10.9	1.15e-03	0	43	0	637534208	24	4808
2026-01-28 00:37:12.04	348.78	78.16	-32.4	-36.0	9.9	5.24e-03	0	43	0	639631360	24	5433
2026-01-28 00:37:13.04	347.42	78.58	-32.1	-34.3	10.7	1.14e-02	0	43	0	640679936	25	4658
2026-01-28 00:37:14.05	345.95	78.99	-32.5	-36.0	9.5	6.70e-03	0	43	0	642777088	25	5350
2026-01-28 00:37:15.05	344.37	79.40	-33.0	-37.3	7.9	8.50e-02	0	43	0	644874240	26	5918
2026-01-28 00:37:16.05	342.67	79.80	-32.2	-34.8	10.3	3.25e-02	0	43	0	646971392	25	4854
2026-01-28 00:37:17.05	340.83	80.19	-32.4	-36.0	9.8	5.57e-03	0	43	0	648019968	24	5430
2026-01-28 00:37:18.06	338.81	80.57	-32.3	-35.2	10.0	1.93e-02	0	43	0	650117120	25	5037
2026-01-28 00:37:19.07	336.62	80.94	-31.3	-32.4	12.4	2.44e-03	0	43	0	652214272	24	4077
2026-01-28 00:37:20.07	334.27	81.30	-30.6	-31.6	13.7	1.14e-05	0	43	0	654311424	22	4010
2026-01-28 00:37:21.07	331.72	81.64	-31.0	-32.5	13.0	2.36e-05	0	43	0	656408576	22	4298
2026-01-28 00:37:22.07	328.96	81.96	-30.7	-31.7	13.5	1.37e-05	0	43	0	658505728	22	4050
2026-01-28 00:37:23.07	325.97	82.26	-31.0	-32.4	13.1	1.67e-05	0	43	0	659554304	22	4262
2026-01-28 00:37:24.08	322.71	82.55	-31.1	-32.7	13.0	2.51e-05	0	43	0	661651456	22	4367
2026-01-28 00:37:25.08	319.24	82.80	-30.9	-32.3	13.2	9.10e-06	0	43	0	663748608	22	4217
2026-01-28 00:37:26.08	315.53	83.03	-30.9	-32.4	13.2	1.22e-05	0	43	0	665845760	22	4265
2026-01-28 00:37:27.09	311.54	83.23	-30.8	-32.0	13.4	3.12e-05	0	43	0	666894336	22	4127
2026-01-28 00:37:28.09	307.38	83.39	-30.3	-30.8	14.0	5.30e-06	0	43	0	668991488	22	3802
2026-01-28 00:37:29.10	302.98	83.51	-30.4	-32.0	14.0	1.50e-06	0	43	0	671088640	20	4327
2026-01-28 00:37:30.10	298.48	83.60	-30.8	-32.6	13.3	1.14e-05	0	43	0	673185792	21	4428
2026-01-28 00:37:31.10	293.89	83.65	-30.1	-30.7	14.5	7.00e-07	0	43	0	675282944	21	3869
2026-01-28 00:37:32.11	289.20	83.65	-30.2	-31.5	14.3	3.00e-06	0	43	0	676331520	20	4181
2026-01-28 00:37:33.11	284.59	83.62	-30.2	-31.6	13.9	1.50e-06	0	43	0	678428672	20	4197
2026-01-28 00:37:34.11	280.06	83.54	-30.7	-32.1	13.5	7.60e-06	0	43	0	680525824	21	4266
2026-01-28 00:37:35.11	275.66	83.43	-30.0	-30.5	14.5	3.80e-06	0	43	0	682622976	21	3810
2026-01-28 00:37:36.12	271.40	83.27	-29.7	-30.6	15.1	0.00e+00	0	43	0	684720128	19	4003
2026-01-28 00:37:37.12	267.39	83.08	-30.3	-31.8	14.0	2.06e-04	0	43	0	685768704	20	4284
2026-01-28 00:37:38.12	263.61	82.87	-31.1	-33.0	12.7	4.04e-05	0	43	0	687865856	22	4463
2026-01-28 00:37:39.13	260.04	82.62	-31.1	-33.0	12.6	1.81e-04	0	43	0	689963008	22	4454
2026-01-28 00:37:40.13	256.75	82.34	-31.1	-33.0	12.6	7.32e-05	0	43	0	692060160	22	4471
2026-01-28 00:37:41.13	253.69	82.05	-31.3	-33.1	12.1	4.58e-04	0	43	0	694157312	23	4422
2026-01-28 00:37:42.13	250.87	81.73	-31.3	-33.1	12.1	3.29e-04	0	43	0	695205888	23	4419
2026-01-28 00:37:43.13	248.26	81.39	-31.6	-33.9	11.5	2.46e-04	0	43	0	697303040	23	4716
2026-01-28 00:37:44.14	245.83	81.04	-32.0	-34.6	10.6	5.73e-03	0	43	0	699400192	24	4881
2026-01-28 00:37:45.13	243.64	80.68	-32.2	-35.5	9.9	7.55e-03	0	43	0	701497344	24	5272
2026-01-28 00:37:46.14	241.57	80.30	-32.2	-35.4	10.2	7.16e-03	0	43	0	703594496	24	5229
2026-01-28 00:37:47.14	239.69	79.91	-32.4	-35.9	9.2	1.60e-02	0	43	0	704643072	25	5336
2026-01-28 00:37:48.15	237.93	79.51	-32.2	-35.5	10.1	1.16e-02	0	43	0	706740224	24	5272
2026-01-28 00:37:49.16	236.30	79.10	-32.5	-36.1	9.0	1.43e-02	0	43	0	708837376	25	5482
2026-01-28 00:37:50.16	234.81	78.69	-32.8	-37.3	8.1	3.90e-02	0	43	0	710934528	25	6051
2026-01-28 00:37:51.17	233.41	78.27	-32.2	-35.6	9.8	1.54e-02	0	43	0	713031680	24	5299
2026-01-28 00:37:52.17	232.13	77.84	-32.2	-35.4	9.9	7.11e-03	0	43	0	714080256	24	5229
2026-01-28 00:37:53.18	230.92	77.41	-32.2	-35.6	9.9	9.88e-03	0	43	0	716177408	24	5298
2026-01-28 00:37:54.18	229.81	76.98	-32.1	-35.1	10.3	8.21e-03	0	43	0	718274560	24	5093
2026-01-28 00:37:55.19	228.76	76.54	-31.8	-34.8	10.7	5.55e-03	0	43	0	720371712	23	5047
2026-01-28 00:37:56.19	227.79	76.11	-31.3	-33.0	12.0	5.79e-04	0	43	0	721420288	23	4405
2026-01-28 00:37:57.19	226.88	75.67	-31.2	-33.3	12.2	2.23e-04	0	43	0	723517440	22	4582
2026-01-28 00:37:58.19	226.02	75.22	-31.3	-33.8	11.9	1.95e-03	0	43	0	725614592	22	4786
2026-01-28 00:37:59.19	225.22	74.78	-30.9	-32.5	12.6	3.66e-04	0	43	0	727711744	22	4343
2026-01-28 00:38:00.18	224.48	74.34	-30.3	-31.4	13.6	1.06e-05	0	43	0	729808896	21	4076
2026-01-28 00:38:01.19	223.76	73.89	-30.2	-31.6	14.0	3.72e-04	0	43	0	730857472	20	4222
2026-01-28 00:38:02.18	223.09	73.45	-30.7	-32.4	13.1	5.30e-06	0	43	0	732954624	21	4380
2026-01-28 00:38:03.19	222.45	73.00	-30.8	-32.8	12.7	6.01e-04	0	43	0	735051776	21	4540
2026-01-28 00:38:04.20	221.85	72.55	-31.3	-33.7	11.7	1.38e-04	0	43	0	737148928	22	4764
2026-01-28 00:38:05.20	221.28	72.10	-32.4	-36.4	9.1	8.74e-03	0	43	0	739246080	24	5712
2026-01-28 00:38:06.21	220.74	71.65	-32.1	-35.3	9.9	3.38e-02	0	43	0	740294656	24	5248
2026-01-28 00:38:07.22	220.22	71.20	-31.6	-33.6	11.2	4.47e-03	0	43	0	742391808	24	4530
2026-01-28 00:38:08.22	219.73	70.76	-31.9	-34.7	10.4	2.27e-03	0	43	0	744488960	24	4972
2026-01-28 00:38:09.23	219.27	70.31	-31.9	-34.5	10.5	7.78e-03	0	43	0	746586112	24	4880
2026-01-28 00:38:10.24	218.82	69.86	-31.6	-34.1	11.3	2.99e-03	0	43	0	748683264	23	4812
2026-01-28 00:38:11.24	218.40	69.42	-32.1	-35.4	9.8	4.79e-03	0	43	0	749731840	24	5258
2026-01-28 00:38:12.24	218.00	68.98	-32.3	-36.1	9.3	2.03e-02	0	43	0	751828992	24	5563
2026-01-28 00:38:13.25	217.62	68.53	-31.7	-34.4	10.9	6.44e-03	0	43	0	753926144	23	4919
2026-01-28 00:38:14.25	217.25	68.10	-31.1	-32.7	12.2	7.58e-04	0	43	0	756023296	23	4315
2026-01-28 00:38:15.25	216.90	67.66	-31.5	-33.8	11.3	1.21e-03	0	43	0	758120448	23	4689
2026-01-28 00:38:16.25	216.57	67.22	-31.1	-33.0	12.2	6.66e-04	0	43	0	759169024	22	4517
2026-01-28 00:38:17.25	216.24	66.79	-30.8	-32.3	12.8	4.88e-05	0	43	0	761266176	22	4276
2026-01-28 00:38:18.26	215.93	66.35	-31.2	-33.4	12.1	1.32e-03	0	43	0	763363328	22	4642
2026-01-28 00:38:19.27	215.63	65.91	-30.6	-31.8	13.1	1.51e-03	0	43	0	765460480	22	4118
2026-01-28 00:38:20.27	215.35	65.49	-29.7	-30.3	14.7	3.00e-06	0	43	0	767557632	20	3863
2026-01-28 00:38:21.27	215.08	65.06	-29.0	-29.6	15.7	0.00e+00	0	43	0	768606208	18	3857
2026-01-28 00:38:22.27	214.81	64.63	-29.3	-30.4	15.3	1.19e-03	0	43	0	770703360	18	4065
2026-01-28 00:38:23.27	214.56	64.21	-29.9	-31.3	14.4	7.00e-07	0	43	0	772800512	19	4233
2026-01-28 00:38:24.28	214.31	63.78	-30.1	-31.5	14.0	1.22e-03	0	43	0	774897664	20	4199
2026-01-28 00:38:25.28	214.08	63.36	-30.4	-31.8	13.4	1.32e-03	0	43	0	776994816	21	4200
2026-01-28 00:38:26.28	213.85	62.94	-30.1	-30.8	14.1	3.80e-06	0	43	0	778043392	21	3904
2026-01-28 00:38:27.29	213.63	62.52	-30.8	-32.7	12.8	1.49e-03	0	43	0	780140544	21	4505
2026-01-28 00:38:28.30	213.42	62.11	-30.5	-32.0	13.2	7.78e-05	0	43	0	782237696	21	4268
2026-01-28 00:38:29.30	213.21	61.70	-29.8	-30.1	14.4	2.36e-05	0	43	0	784334848	21	3743
2026-01-28 00:38:30.30	213.01	61.29	-29.7	-30.9	14.6	1.92e-03	0	43	0	785383424	19	4123
2026-01-28 00:38:31.31	212.82	60.88	-29.7	-30.8	14.6	2.17e-03	0	43	0	787480576	19	4106
2026-01-28 00:38:32.31	212.64	60.47	-29.3	-29.9	15.2	0.00e+00	0	43	0	789577728	19	3841
2026-01-28 00:38:33.31	212.46	60.07	-30.3	-31.8	13.7	2.21e-03	0	43	0	791674880	20	4316
2026-01-28 00:38:34.31	212.28	59.67	-30.7	-32.6	12.8	2.28e-03	0	43	0	793772032	21	4486
2026-01-28 00:38:35.31	212.12	59.27	-30.1	-31.0	13.8	9.10e-06	0	43	0	794820608	21	3967
2026-01-28 00:38:36.31	211.95	58.88	-29.1	-29.2	15.6	2.17e-03	0	43	0	796917760	19	3666
2026-01-28 00:38:37.32	211.79	58.48	-28.9	-29.4	15.7	1.87e-03	0	43	0	799014912	18	3818
2026-01-28 00:38:38.33	211.64	58.08	-28.7	-28.8	16.1	0.00e+00	0	43	0	801112064	18	3663
2026-01-28 00:38:39.33	211.49	57.70	-28.5	-29.0	16.3	0.00e+00	0	43	0	803209216	17	3793
2026-01-28 00:38:40.34	211.34	57.31	-28.7	-29.4	16.1	1.88e-03	0	43	0	804257792	17	3893
2026-01-28 00:38:41.34	211.20	56.92	-29.4	-30.6	15.1	7.00e-07	0	43	0	806354944	18	4135
2026-01-28 00:38:42.35	211.07	56.54	-29.6	-30.7	14.8	0.00e+00	0	43	0	808452096	19	4069
2026-01-28 00:38:43.35	210.93	56.16	-29.0	-29.0	15.8	0.00e+00	0	43	0	810549248	19	3617
2026-01-28 00:38:44.36	210.80	55.78	-28.3	-28.4	16.7	1.06e-05	0	43	0	812646400	17	3644
2026-01-28 00:38:45.36	210.68	55.41	-28.2	-28.6	16.8	0.00e+00	0	43	0	813694976	16	3797
2026-01-28 00:38:46.36	210.56	55.03	-28.1	-28.6	16.9	0.00e+00	0	43	0	815792128	16	3791
2026-01-28 00:38:47.37	210.44	54.66	-27.8	-27.8	17.2	0.00e+00	0	43	0	817889280	16	3597
2026-01-28 00:38:48.37	210.32	54.30	-27.6	-27.8	17.3	0.00e+00	0	43	0	819986432	15	3697
2026-01-28 00:38:49.37	210.21	53.93	-28.3	-28.9	16.6	0.00e+00	0	43	0	822083584	16	3865
2026-01-28 00:38:50.38	210.10	53.57	-29.6	-30.7	14.7	0.00e+00	0	43	0	823132160	19	4071
2026-01-28 00:38:51.38	209.99	53.21	-29.9	-31.4	14.3	1.81e-03	0	43	0	825229312	19	4270
2026-01-28 00:38:52.39	209.89	52.85	-30.0	-31.1	14.1	2.20e-06	0	43	0	827326464	20	4103
2026-01-28 00:38:53.39	209.78	52.49	-30.4	-32.2	13.5	3.80e-06	0	43	0	829423616	20	4445
2026-01-28 00:38:54.39	209.68	52.14	-30.7	-32.6	12.8	4.27e-05	0	43	0	831520768	21	4454
2026-01-28 00:38:55.40	209.59	51.79	-30.0	-30.7	14.0	6.80e-06	0	43	0	832569344	21	3891
2026-01-28 00:38:56.40	209.49	51.44	-30.0	-30.6	14.0	3.80e-06	0	43	0	834666496	21	3866
2026-01-28 00:38:57.40	209.40	51.10	-30.0	-31.6	14.2	7.00e-07	0	43	0	836763648	19	4340
2026-01-28 00:38:58.41	209.31	50.75	-29.8	-30.7	14.4	3.41e-04	0	43	0	838860800	20	3976
2026-01-28 00:38:59.41	209.22	50.41	-29.5	-30.3	14.9	0.00e+00	0	43	0	839909376	19	3951
2026-01-28 00:39:00.41	209.13	50.08	-30.0	-31.7	14.1	0.00e+00	0	43	0	842006528	19	4385
2026-01-28 00:39:01.42	209.05	49.74	-30.2	-31.7	13.6	7.60e-06	0	43	0	844103680	20	4298
2026-01-28 00:39:02.42	208.97	49.41	-30.4	-32.3	13.1	9.87e-04	0	43	0	846200832	20	4503
2026-01-28 00:39:03.43	208.89	49.07	-30.5	-32.1	13.1	7.70e-05	0	43	0	848297984	21	4334
2026-01-28 00:39:04.43	208.81	48.75	-30.6	-32.6	12.7	3.43e-05	0	43	0	850395136	21	4489
2026-01-28 00:39:05.43	208.73	48.42	-30.4	-32.5	12.6	6.19e-04	0	43	0	851443712	21	4558
2026-01-28 00:39:06.43	208.66	48.10	-30.5	-32.7	12.4	1.45e-03	0	43	0	853540864	21	4634
2026-01-28 00:39:07.44	208.58	47.77	-30.6	-32.5	12.8	6.72e-04	0	43	0	855638016	21	4470
2026-01-28 00:39:08.45	208.51	47.45	-30.8	-32.8	12.6	6.56e-05	0	43	0	857735168	21	4549
2026-01-28 00:39:09.45	208.44	47.14	-30.6	-31.8	12.9	2.21e-04	0	43	0	858783744	22	4147
2026-01-28 00:39:10.46	208.37	46.82	-31.0	-33.1	12.1	1.47e-04	0	43	0	860880896	22	4552
2026-01-28 00:39:11.46	208.30	46.51	-30.5	-31.6	13.2	2.37e-04	0	43	0	862978048	22	4077
2026-01-28 00:39:12.47	208.23	46.20	-29.8	-30.3	14.2	3.00e-06	0	43	0	865075200	21	3789
2026-01-28 00:39:13.47	208.17	45.89	-29.6	-30.1	14.6	0.00e+00	0	43	0	867172352	20	3825
2026-01-28 00:39:14.47	208.11	45.59	-30.5	-32.5	13.2	4.50e-06	0	43	0	868220928	20	4532
2026-01-28 00:39:15.48	208.04	45.28	-31.3	-33.9	11.5	8.38e-04	0	43	0	870318080	22	4846
2026-01-28 00:39:16.48	207.98	44.98	-32.1	-35.5	9.6	2.94e-03	0	43	0	872415232	24	5360
2026-01-28 00:39:17.48	207.92	44.68	-32.5	-36.8	8.2	2.87e-02	0	43	0	874512384	25	5915
2026-01-28 00:39:18.49	207.86	44.38	-33.0	-38.8	6.3	8.68e-02	0	43	0	876609536	26	7001
2026-01-28 00:39:19.49	207.81	44.09	-33.3	-40.6	5.3	4.01e-01	0	43	0	877658112	26	8351
2026-01-28 00:39:20.49	207.75	43.80	-33.1	-39.3	6.0	3.63e-01	0	43	0	879755264	26	7382
2026-01-28 00:39:21.49	207.69	43.51	-33.2	-39.8	5.6	5.70e-01	0	43	0	881852416	26	7691
2026-01-28 00:39:22.50	207.64	43.22	-32.6	-36.8	7.8	1.46e-01	0	43	0	883949568	26	5819
2026-01-28 00:39:23.51	207.59	42.93	-31.4	-33.7	11.1	8.17e-03	0	43	0	886046720	23	4709
2026-01-28 00:39:24.51	207.53	42.65	-30.6	-32.2	12.9	2.56e-04	0	43	0	887095296	21	4368
2026-01-28 00:39:25.51	207.48	42.37	-30.7	-32.6	12.7	5.87e-05	0	43	0	889192448	21	4491
2026-01-28 00:39:26.51	207.43	42.09	-30.7	-32.5	12.8	6.13e-04	0	43	0	891289600	21	4471
2026-01-28 00:39:27.52	207.38	41.81	-30.9	-32.9	12.5	2.42e-04	0	43	0	893386752	22	4511
2026-01-28 00:39:28.53	207.33	41.54	-31.5	-33.9	11.1	1.65e-03	0	43	0	895483904	23	4797
2026-01-28 00:39:29.54	207.28	41.26	-31.8	-35.0	10.3	3.70e-03	0	43	0	896532480	23	5234
2026-01-28 00:39:30.54	207.24	40.99	-31.9	-34.9	10.0	1.19e-02	0	43	0	898629632	24	5074
2026-01-28 00:39:31.54	207.19	40.72	-32.3	-36.5	8.8	1.10e-02	0	43	0	900726784	24	5818
2026-01-28 00:39:32.55	207.15	40.45	-32.5	-36.9	8.0	8.46e-02	0	43	0	902823936	25	5968
2026-01-28 00:39:33.56	207.10	40.19	-31.7	-34.1	10.5	2.17e-02	0	43	0	904921088	24	4751
2026-01-28 00:39:34.56	207.06	39.92	-30.6	-31.9	12.8	1.19e-03	0	43	0	905969664	22	4164
2026-01-28 00:39:35.56	207.02	39.66	-30.0	-31.4	13.9	1.29e-05	0	43	0	908066816	20	4195
2026-01-28 00:39:36.56	206.97	39.40	-29.2	-29.6	15.3	3.42e-04	0	43	0	910163968	19	3773
2026-01-28 00:39:37.57	206.93	39.15	-29.2	-29.8	15.2	7.00e-07	0	43	0	912261120	19	3833
2026-01-28 00:39:38.57	206.89	38.89	-29.7	-31.0	14.3	0.00e+00	0	43	0	914358272	19	4184
2026-01-28 00:39:39.58	206.85	38.64	-30.2	-31.8	13.5	1.68e-04	0	43	0	915406848	20	4330
2026-01-28 00:39:40.58	206.81	38.38	-31.0	-33.5	12.0	1.13e-04	0	43	0	917504000	21	4814
2026-01-28 00:39:41.58	206.77	38.13	-31.8	-35.2	10.1	1.39e-03	0	43	0	919601152	23	5340
2026-01-28 00:39:42.59	206.73	37.88	-31.8	-35.3	10.1	6.66e-03	0	43	0	921698304	23	5358
2026-01-28 00:39:43.59	206.70	37.64	-31.4	-33.9	10.9	5.13e-03	0	43	0	923795456	23	4794
2026-01-28 00:39:44.59	206.66	37.40	-31.4	-33.9	11.1	2.05e-03	0	43	0	924844032	23	4781
2026-01-28 00:39:45.60	206.62	37.15	-31.4	-33.8	11.1	2.68e-03	0	43	0	926941184	23	4769
2026-01-28 00:39:46.60	206.59	36.91	-31.4	-33.8	11.1	1.11e-03	0	43	0	929038336	23	4762
2026-01-28 00:39:47.60	206.55	36.67	-31.4	-33.9	11.0	2.44e-03	0	43	0	931135488	23	4786
2026-01-28 00:39:48.60	206.52	36.44	-31.4	-33.8	11.1	2.52e-03	0	43	0	932184064	23	4761
2026-01-28 00:39:49.61	206.48	36.20	-31.5	-34.2	10.8	2.34e-03	0	43	0	934281216	23	4888
2026-01-28 00:39:50.61	206.45	35.96	-31.6	-34.7	10.5	7.06e-03	0	43	0	936378368	23	5088
2026-01-28 00:39:51.61	206.42	35.73	-31.8	-35.2	10.0	5.98e-03	0	43	0	938475520	23	5307
2026-01-28 00:39:52.61	206.38	35.50	-31.4	-33.8	11.1	2.97e-03	0	43	0	940572672	23	4741
2026-01-28 00:39:53.61	206.35	35.27	-31.0	-33.0	12.0	3.24e-03	0	43	0	941621248	22	4532
2026-01-28 00:39:54.61	206.32	35.05	-30.6	-32.5	12.7	2.54e-03	0	43	0	943718400	21	4482
2026-01-28 00:39:55.61	206.29	34.82	-30.5	-32.2	12.9	5.18e-05	0	43	0	945815552	21	4356
2026-01-28 00:39:56.62	206.26	34.60	-30.5	-32.2	12.8	2.37e-03	0	43	0	947912704	21	4371
2026-01-28 00:39:57.62	206.23	34.37	-30.8	-33.1	12.2	2.24e-03	0	43	0	950009856	21	4670
2026-01-28 00:39:58.62	206.20	34.15	-30.8	-33.1	12.2	2.04e-04	0	43	0	951058432	21	4691
2026-01-28 00:39:59.63	206.17	33.93	-30.8	-32.4	12.4	3.74e-04	0	43	0	953155584	22	4335
2026-01-28 00:40:00.63	206.14	33.71	-31.3	-34.1	11.2	3.09e-03	0	43	0	955252736	22	4965
2026-01-28 00:40:01.63	206.11	33.50	-31.5	-34.3	10.7	1.86e-03	0	43	0	957349888	23	4949
2026-01-28 00:40:02.63	206.08	33.28	-31.8	-34.6	10.0	6.36e-03	0	43	0	959447040	24	4997
2026-01-28 00:40:03.63	206.06	33.07	-32.2	-36.2	8.9	2.77e-02	0	43	0	960495616	24	5688
2026-01-28 00:40:04.64	206.03	32.86	-32.4	-37.0	8.2	4.12e-02	0	43	0	962592768	24	6120
2026-01-28 00:40:05.65	206.00	32.65	-32.4	-36.9	8.3	4.99e-02	0	43	0	964689920	24	6081
2026-01-28 00:40:06.65	205.98	32.44	-32.5	-37.1	7.7	6.94e-02	0	43	0	966787072	25	6104
2026-01-28 00:40:07.65	205.95	32.23	-32.6	-37.4	7.5	5.98e-02	0	43	0	968884224	25	6245
2026-01-28 00:40:08.66	205.92	32.02	-32.3	-36.5	8.5	7.86e-02	0	43	0	969932800	24	5873
2026-01-28 00:40:09.66	205.90	31.82	-32.0	-35.3	9.5	1.97e-02	0	43	0	972029952	24	5277
2026-01-28 00:40:10.66	205.87	31.62	-31.7	-34.9	10.1	8.45e-03	0	43	0	974127104	23	5200
2026-01-28 00:40:11.66	205.85	31.41	-31.4	-34.0	10.8	6.07e-03	0	43	0	976224256	23	4833
2026-01-28 00:40:12.66	205.83	31.21	-31.4	-33.8	10.9	2.34e-03	0	43	0	978321408	23	4778
2026-01-28 00:40:13.66	205.80	31.01	-31.4	-33.8	10.9	2.32e-03	0	43	0	979369984	23	4759
2026-01-28 00:40:14.66	205.78	30.82	-31.3	-34.2	11.1	4.40e-03	0	43	0	981467136	22	4998
2026-01-28 00:40:15.66	205.76	30.62	-31.2	-33.9	11.3	3.69e-03	0	43	0	983564288	22	4890
2026-01-28 00:40:16.67	205.73	30.42	-31.1	-33.4	11.6	6.74e-04	0	43	0	985661440	22	4709
2026-01-28 00:40:17.67	205.71	30.23	-31.0	-33.2	11.8	4.96e-04	0	43	0	986710016	22	4628
2026-01-28 00:40:18.68	205.69	30.04	-30.9	-33.0	11.9	2.56e-03	0	43	0	988807168	22	4556
2026-01-28 00:40:19.67	205.67	29.85	-30.7	-32.9	12.2	2.84e-04	0	43	0	990904320	21	4648
2026-01-28 00:40:20.68	205.64	29.66	-30.8	-33.1	12.1	2.24e-04	0	43	0	993001472	21	4694
2026-01-28 00:40:21.69	205.62	29.47	-30.5	-32.3	12.6	7.78e-05	0	43	0	995098624	21	4442
2026-01-28 00:40:22.69	205.60	29.28	-30.5	-32.2	12.8	5.32e-04	0	43	0	996147200	21	4402
2026-01-28 00:40:23.69	205.58	29.09	-30.5	-32.4	12.6	1.20e-04	0	43	0	998244352	21	4449
2026-01-28 00:40:24.70	205.56	28.91	-30.5	-32.4	12.6	1.27e-04	0	43	0	1000341504	21	4465
2026-01-28 00:40:25.70	205.54	28.72	-30.6	-32.6	12.4	3.92e-04	0	43	0	1002438656	21	4533
2026-01-28 00:40:26.70	205.52	28.54	-30.7	-32.8	12.2	1.98e-04	0	43	0	1004535808	21	4624
2026-01-28 00:40:27.71	205.50	28.36	-31.0	-33.8	11.6	3.91e-04	0	43	0	1005584384	21	4976
2026-01-28 00:40:28.71	205.48	28.18	-31.0	-33.5	11.5	7.57e-04	0	43	0	1007681536	22	4753
2026-01-28 00:40:29.71	205.46	28.00	-31.2	-33.9	11.2	2.88e-03	0	43	0	1009778688	22	4906
2026-01-28 00:40:30.71	205.44	27.82	-31.3	-34.3	10.9	1.72e-03	0	43	0	1011875840	22	5077
2026-01-28 00:40:31.71	205.42	27.65	-31.3	-34.2	10.9	2.06e-03	0	43	0	1013972992	22	5044
2026-01-28 00:40:32.71	205.40	27.47	-31.2	-33.9	11.1	1.81e-03	0	43	0	1015021568	22	4946
2026-01-28 00:40:33.72	205.39	27.29	-31.1	-33.6	11.4	1.51e-03	0	43	0	1017118720	22	4813
2026-01-28 00:40:34.72	205.37	27.12	-31.0	-33.2	11.6	1.15e-03	0	43	0	1019215872	22	4674
2026-01-28 00:40:35.72	205.35	26.95	-30.6	-32.5	12.4	2.90e-04	0	43	0	1021313024	21	4509
2026-01-28 00:40:36.72	205.33	26.78	-30.3	-31.8	12.9	5.64e-05	0	43	0	1023410176	21	4282
2026-01-28 00:40:37.73	205.31	26.61	-30.2	-31.6	13.1	3.28e-05	0	43	0	1024458752	21	4198
2026-01-28 00:40:38.74	205.30	26.44	-29.9	-31.1	13.7	1.75e-05	0	43	0	1026555904	20	4139
2026-01-28 00:40:39.74	205.28	26.27	-29.7	-31.0	14.1	3.80e-06	0	43	0	1028653056	19	4212
2026-01-28 00:40:40.74	205.26	26.10	-29.4	-30.3	14.6	0.00e+00	0	43	0	1030750208	19	4005
2026-01-28 00:40:41.74	205.25	25.94	-29.2	-30.4	14.8	0.00e+00	0	43	0	1031798784	18	4119
2026-01-28 00:40:42.75	205.23	25.77	-29.5	-30.7	14.4	7.00e-07	0	43	0	1033895936	19	4104
2026-01-28 00:40:43.75	205.21	25.61	-29.5	-30.6	14.4	7.00e-07	0	43	0	1035993088	19	4097
2026-01-28 00:40:44.75	205.20	25.44	-29.8	-31.5	13.9	7.00e-07	0	43	0	1038090240	19	4338
2026-01-28 00:40:45.74	205.18	25.28	-30.1	-31.7	13.3	9.90e-06	0	43	0	1040187392	20	4327
2026-01-28 00:40:46.75	205.17	25.12	-30.4	-32.5	12.7	2.97e-05	0	43	0	1041235968	20	4586
2026-01-28 00:40:47.75	205.15	24.96	-30.7	-32.9	12.2	1.27e-04	0	43	0	1043333120	21	4637
2026-01-28 00:40:48.75	205.14	24.80	-31.1	-33.6	11.3	7.30e-04	0	43	0	1045430272	22	4800
2026-01-28 00:40:49.76	205.12	24.64	-31.2	-34.0	11.0	1.47e-03	0	43	0	1047527424	22	4955
2026-01-28 00:40:50.76	205.11	24.49	-31.4	-34.5	10.5	3.05e-03	0	43	0	1049624576	22	5176
2026-01-28 00:40:51.77	205.09	24.33	-31.5	-34.4	10.4	4.53e-03	0	43	0	1050673152	23	5034
2026-01-28 00:40:52.78	205.08	24.17	-31.3	-34.3	10.8	3.67e-03	0	43	0	1052770304	22	5088
2026-01-28 00:40:53.78	205.06	24.02	-31.0	-33.3	11.5	4.75e-03	0	43	0	1054867456	22	4681
2026-01-28 00:40:54.78	205.05	23.86	-31.2	-33.8	11.2	1.55e-03	0	43	0	1056964608	22	4887
2026-01-28 00:40:55.79	205.04	23.71	-30.2	-32.7	11.3	1.29e-03	0	43	0	1059061760	22	4794
2026-01-28 00:40:56.80	205.02	23.56	-31.0	-33.4	11.4	7.29e-04	0	43	0	1060110336	22	4723
2026-01-28 00:40:57.79	205.01	23.41	-31.0	-33.4	11.3	9.00e-04	0	43	0	1062207488	22	4742
2026-01-28 00:40:58.80	204.99	23.26	-30.7	-33.0	11.9	8.51e-04	0	43	0	1064304640	21	4680
2026-01-28 00:40:59.79	204.98	23.11	-30.4	-32.7	12.6	1.56e-04	0	43	0	1066401792	20	4651
2026-01-28 00:41:00.79	204.97	22.96	-30.3	-31.6	12.9	4.50e-05	0	43	0	1068498944	21	4213
2026-01-28 00:41:01.80	204.95	22.81	-30.0	-31.7	13.6	1.14e-05	0	43	0	1069547520	19	4426
2026-01-28 00:41:02.80	204.94	22.67	-29.8	-31.5	13.8	3.80e-06	0	43	0	1071644672	19	4339
2026-01-28 00:41:03.80	204.93	22.52	-29.8	-31.2	13.9	3.80e-06	0	43	0	1073741824	19	4262
2026-01-28 00:41:04.80	204.92	22.38	-29.5	-31.0	14.4	2.31e-03	0	43	0	1075838976	18	4280
2026-01-28 00:41:05.81	204.90	22.23	-29.4	-30.8	14.5	7.00e-07	0	43	0	1077936128	18	4230
2026-01-28 00:41:06.82	204.89	22.09	-29.6	-30.7	14.2	0.00e+00	0	43	0	1078984704	19	4111
2026-01-28 00:41:07.82	204.88	21.95	-29.3	-30.6	14.6	2.32e-03	0	43	0	1081081856	18	4184
2026-01-28 00:41:08.83	204.87	21.80	-29.0	-29.9	15.0	7.00e-07	0	43	0	1083179008	18	3964
2026-01-28 00:41:09.83	204.86	21.66	-29.2	-30.3	14.8	3.00e-06	0	43	0	1085276160	18	4077
2026-01-28 00:41:10.84	204.84	21.52	-29.1	-30.1	14.9	2.16e-03	0	43	0	1087373312	18	4032
2026-01-28 00:41:11.84	204.83	21.38	-29.3	-30.5	14.7	2.26e-03	0	43	0	1088421888	18	4157
2026-01-28 00:41:12.84	204.82	21.24	-29.5	-30.5	14.3	0.00e+00	0	43	0	1090519040	19	4057
2026-01-28 00:41:13.85	204.81	21.10	-29.6	-30.9	14.1	0.00e+00	0	43	0	1092616192	19	4162
2026-01-28 00:41:14.85	204.80	20.97	-29.6	-30.9	14.1	2.15e-03	0	43	0	1094713344	19	4179
2026-01-28 00:41:15.85	204.79	20.83	-29.6	-30.9	14.0	4.80e-05	0	43	0	1095761920	19	4178
2026-01-28 00:41:16.85	204.78	20.70	-29.8	-31.5	13.3	2.83e-03	0	43	0	1097859072	19	4414
2026-01-28 00:41:17.85	204.77	20.56	-29.8	-31.6	13.0	1.22e-02	0	43	0	1099956224	19	4477
2026-01-28 00:41:18.86	204.76	20.43	-29.8	-31.7	13.2	7.07e-03	0	43	0	1102053376	19	4486
2026-01-28 00:41:19.86	204.74	20.29	-29.7	-31.2	13.6	9.29e-04	0	43	0	1104150528	19	4311
2026-01-28 00:41:20.86	204.73	20.16	-29.8	-31.6	13.3	2.69e-03	0	43	0	1105199104	19	4444
2026-01-28 00:41:21.86	204.72	20.03	-29.6	-31.1	13.6	2.72e-03	0	43	0	1107296256	19	4285
2026-01-28 00:41:22.87	204.71	19.90	-29.6	-31.3	13.4	3.84e-03	0	43	0	1109393408	19	4349
2026-01-28 00:41:23.87	204.70	19.77	-29.6	-31.2	13.6	3.00e-03	0	43	0	1111490560	19	4292
2026-01-28 00:41:24.88	204.69	19.64	-29.5	-30.8	13.5	2.65e-03	0	43	0	1113587712	19	4186
2026-01-28 00:41:25.88	204.68	19.51	-29.3	-30.8	13.8	1.66e-02	0	43	0	1114636288	18	4321
2026-01-28 00:41:26.89	204.67	19.38	-29.2	-30.8	13.7	1.59e-02	0	43	0	1116733440	18	4336
2026-01-28 00:41:27.90	204.66	19.25	-29.3	-30.9	13.7	1.40e-02	0	43	0	1118830592	18	4336
2026-01-28 00:41:28.90	204.65	19.12	-29.5	-31.3	13.9	4.77e-03	0	43	0	1120927744	18	4416
2026-01-28 00:41:29.90	204.64	18.99	-29.6	-31.0	13.7	3.14e-03	0	43	0	1123024896	19	4236
2026-01-28 00:41:30.91	204.64	18.87	-29.9	-32.0	12.9	9.08e-03	0	43	0	1124073472	19	4555
2026-01-28 00:41:31.92	204.63	18.74	-30.0	-31.7	12.7	1.16e-02	0	43	0	1126170624	20	4387
2026-01-28 00:41:32.91	204.62	18.62	-30.0	-31.8	12.8	3.22e-03	0	43	0	1128267776	20	4406
2026-01-28 00:41:33.92	204.61	18.49	-30.4	-32.8	12.3	1.16e-03	0	43	0	1130364928	20	4716
2026-01-28 00:41:34.92	204.60	18.37	-30.7	-33.2	11.7	2.72e-03	0	43	0	1132462080	21	4760
2026-01-28 00:41:35.93	204.59	18.25	-30.8	-33.4	11.5	2.88e-03	0	43	0	1133510656	21	4850
2026-01-28 00:41:36.93	204.58	18.12	-31.1	-33.7	11.0	1.06e-03	0	43	0	1135607808	22	4875
2026-01-28 00:41:37.93	204.57	18.00	-31.3	-34.5	10.4	5.54e-03	0	43	0	1137704960	22	5180
2026-01-28 00:41:38.94	204.56	17.88	-31.4	-34.7	10.2	8.58e-03	0	43	0	1139802112	22	5294
2026-01-28 00:41:39.94	204.56	17.76	-31.6	-35.0	9.5	9.34e-03	0	43	0	1141899264	23	5340
2026-01-28 00:41:40.95	204.55	17.64	-31.5	-34.8	9.8	1.11e-02	0	43	0	1142947840	23	5262
2026-01-28 00:41:41.95	204.54	17.52	-31.6	-35.2	9.4	1.42e-02	0	43	0	1145044992	23	5442
2026-01-28 00:41:42.96	204.53	17.40	-31.6	-35.2	9.4	1.59e-02	0	43	0	1147142144	23	5445
2026-01-28 00:41:43.96	204.52	17.28	-31.7	-35.4	9.2	1.86e-02	0	43	0	1149239296	23	5551
2026-01-28 00:41:44.97	204.51	17.16	-31.7	-35.5	9.2	1.80e-02	0	43	0	1151336448	23	5572
2026-01-28 00:41:45.98	204.51	17.05	-31.6	-35.3	9.3	1.79e-02	0	43	0	1152385024	23	5498
2026-01-28 00:41:46.97	204.50	16.93	-31.7	-35.5	9.2	3.11e-02	0	43	0	1154482176	23	5559
2026-01-28 00:41:47.98	204.49	16.81	-31.6	-35.2	9.4	2.03e-02	0	43	0	1156579328	23	5437
2026-01-28 00:41:48.98	204.48	16.70	-31.6	-35.2	9.4	1.61e-02	0	43	0	1158676480	23	5427
2026-01-28 00:41:49.99	204.47	16.58	-31.5	-34.8	9.7	1.64e-02	0	43	0	1160773632	23	5277
2026-01-28 00:41:50.98	204.47	16.47	-31.5	-34.8	9.7	1.14e-02	0	43	0	1161822208	23	5273
2026-01-28 00:41:51.98	204.46	16.36	-31.6	-35.1	9.5	1.48e-02	0	43	0	1163919360	23	5382
2026-01-28 00:41:52.98	204.45	16.24	-31.5	-34.7	9.7	1.39e-02	0	43	0	1166016512	23	5241
2026-01-28 00:41:53.99	204.45	16.13	-31.4	-34.8	10.0	8.93e-03	0	43	0	1168113664	22	5373
2026-01-28 00:41:54.99	204.44	16.02	-31.5	-35.2	9.7	1.07e-02	0	43	0	1169162240	22	5523
2026-01-28 00:41:56.00	204.43	15.91	-31.3	-34.8	10.0	9.41e-03	0	43	0	1171259392	22	5347
2026-01-28 00:41:57.00	204.42	15.80	-31.3	-34.8	10.0	1.02e-02	0	43	0	1173356544	22	5363
2026-01-28 00:41:58.00	204.42	15.68	-31.4	-34.9	9.9	9.06e-03	0	43	0	1175453696	22	5400
2026-01-28 00:41:59.00	204.41	15.57	-31.2	-34.1	10.5	4.77e-03	0	43	0	1177550848	22	5078
2026-01-28 00:42:00.01	204.40	15.46	-31.3	-34.6	10.1	1.01e-02	0	43	0	1178599424	22	5286
2026-01-28 00:42:01.01	204.40	15.36	-31.2	-34.5	10.2	6.12e-03	0	43	0	1180696576	22	5217
2026-01-28 00:42:02.01	204.39	15.25	-31.3	-34.6	10.2	5.86e-03	0	43	0	1182793728	22	5262
2026-01-28 00:42:03.01	204.38	15.14	-31.4	-35.0	9.8	8.99e-03	0	43	0	1184890880	22	5441
2026-01-28 00:42:04.02	204.38	15.03	-31.2	-34.5	10.2	7.27e-03	0	43	0	1186988032	22	5230
2026-01-28 00:42:05.03	204.37	14.92	-31.3	-34.8	9.9	7.77e-03	0	43	0	1188036608	22	5355
2026-01-28 00:42:06.03	204.36	14.82	-31.5	-35.2	9.6	1.07e-02	0	43	0	1190133760	22	5555
2026-01-28 00:42:07.03	204.36	14.71	-31.3	-34.5	10.1	8.03e-03	0	43	0	1192230912	22	5252
2026-01-28 00:42:08.03	204.35	14.60	-31.3	-34.5	10.1	6.25e-03	0	43	0	1194328064	22	5246
2026-01-28 00:42:09.04	204.34	14.50	-31.2	-34.2	10.4	5.07e-03	0	43	0	1196425216	22	5103
2026-01-28 00:42:10.04	204.34	14.39	-31.1	-34.1	10.4	4.48e-03	0	43	0	1197473792	22	5047
2026-01-28 00:42:11.05	204.33	14.29	-31.2	-34.4	10.1	6.50e-03	0	43	0	1199570944	22	5217
2026-01-28 00:42:12.05	204.33	14.18	-31.0	-33.7	10.7	3.23e-03	0	43	0	1201668096	22	4905
2026-01-28 00:42:13.06	204.32	14.08	-30.9	-33.3	11.0	2.43e-03	0	43	0	1203765248	22	4743
2026-01-28 00:42:14.06	204.31	13.98	-30.8	-33.5	11.1	2.01e-03	0	43	0	1205862400	21	4928
2026-01-28 00:42:15.07	204.31	13.87	-30.7	-33.2	11.4	1.28e-03	0	43	0	1206910976	21	4811
2026-01-28 00:42:16.07	204.30	13.77	-30.8	-33.4	11.2	1.21e-03	0	43	0	1209008128	21	4903
2026-01-28 00:42:17.08	204.30	13.67	-30.6	-33.0	11.5	1.14e-03	0	43	0	1211105280	21	4730
2026-01-28 00:42:18.07	204.29	13.57	-30.7	-33.2	11.4	8.05e-04	0	43	0	1213202432	21	4805
2026-01-28 00:42:19.08	204.28	13.47	-30.7	-33.1	11.4	1.25e-03	0	43	0	1215299584	21	4790
2026-01-28 00:42:20.09	204.28	13.37	-30.6	-32.9	11.5	1.15e-03	0	43	0	1216348160	21	4713
2026-01-28 00:42:21.09	204.27	13.27	-30.4	-32.2	12.0	6.94e-04	0	43	0	1218445312	21	4463
2026-01-28 00:42:22.09	204.27	13.17	-30.4	-33.0	11.8	4.03e-04	0	43	0	1220542464	20	4831
2026-01-28 00:42:23.09	204.26	13.07	-30.4	-32.5	11.8	5.06e-04	0	43	0	1222639616	21	4561
2026-01-28 00:42:24.09	204.26	12.97	-30.4	-32.9	11.9	3.91e-04	0	43	0	1224736768	20	4786
2026-01-28 00:42:25.09	204.25	12.87	-30.4	-32.8	12.0	3.81e-04	0	43	0	1225785344	20	4748
2026-01-28 00:42:26.09	204.25	12.77	-30.3	-32.7	11.9	4.15e-04	0	43	0	1227882496	20	4732
2026-01-28 00:42:27.08	204.24	12.68	-30.4	-32.3	11.9	3.81e-04	0	43	0	1229979648	21	4497
2026-01-28 00:42:28.09	204.24	12.58	-30.4	-32.3	11.9	3.25e-04	0	43	0	1232076800	21	4497
2026-01-28 00:42:29.09	204.23	12.48	-30.3	-32.6	12.0	3.94e-04	0	43	0	1233125376	20	4710
2026-01-28 00:42:30.10	204.23	12.38	-29.8	-32.3	11.8	3.83e-04	0	43	0	1235222528	20	4798
2026-01-28 00:42:31.10	204.22	12.29	-30.4	-33.1	11.7	5.68e-04	0	43	0	1237319680	20	4888
2026-01-28 00:42:32.10	204.22	12.19	-30.4	-33.0	11.7	4.65e-04	0	43	0	1239416832	20	4851
2026-01-28 00:42:33.10	204.21	12.10	-30.5	-32.8	11.5	6.03e-04	0	43	0	1241513984	21	4683
2026-01-28 00:42:34.10	204.21	12.00	-30.5	-32.7	11.6	6.44e-04	0	43	0	1242562560	21	4632
2026-01-28 00:42:35.10	204.20	11.91	-30.5	-33.2	11.6	2.40e-03	0	43	0	1244659712	20	4904
2026-01-28 00:42:36.11	204.20	11.81	-30.7	-33.5	11.0	1.67e-03	0	43	0	1246756864	21	4941
2026-01-28 00:42:37.11	204.19	11.72	-30.6	-33.0	11.3	1.58e-03	0	43	0	1248854016	21	4754
2026-01-28 00:42:38.11	204.19	11.62	-30.6	-33.0	11.3	9.57e-04	0	43	0	1250951168	21	4769
2026-01-28 00:42:39.11	204.18	11.53	-30.5	-32.8	11.5	1.21e-03	0	43	0	1251999744	21	4694
2026-01-28 00:42:40.10	204.18	11.44	-30.5	-32.9	11.4	9.41e-04	0	43	0	1254096896	21	4716
2026-01-28 00:42:41.10	204.17	11.35	-30.6	-33.1	11.3	8.60e-04	0	43	0	1256194048	21	4793
2026-01-28 00:42:42.10	204.17	11.26	-30.6	-33.0	11.3	1.38e-03	0	43	0	1258291200	21	4765
2026-01-28 00:42:43.11	204.17	11.16	-30.5	-32.8	11.4	8.32e-04	0	43	0	1260388352	21	4691
2026-01-28 00:42:44.11	204.16	11.07	-30.6	-33.1	11.2	1.15e-03	0	43	0	1261436928	21	4805
2026-01-28 00:42:45.12	204.16	10.98	-30.6	-33.1	11.2	1.41e-03	0	43	0	1263534080	21	4807
2026-01-28 00:42:46.12	204.15	10.89	-30.7	-33.5	10.9	3.68e-03	0	43	0	1265631232	21	4945
2026-01-28 00:42:47.13	204.15	10.80	-30.7	-33.6	10.9	2.41e-03	0	43	0	1267728384	21	4981
2026-01-28 00:42:48.13	204.14	10.71	-30.7	-33.4	11.0	2.07e-03	0	43	0	1269825536	21	4919
2026-01-28 00:42:49.13	204.14	10.62	-30.6	-33.2	11.1	3.82e-03	0	43	0	1270874112	21	4851
2026-01-28 00:42:50.14	204.14	10.53	-30.6	-33.2	11.1	4.12e-03	0	43	0	1272971264	21	4835
2026-01-28 00:42:51.13	204.13	10.44	-30.6	-33.3	11.0	1.43e-03	0	43	0	1275068416	21	4875
2026-01-28 00:42:52.14	204.13	10.35	-30.7	-33.4	11.0	2.30e-03	0	43	0	1277165568	21	4917
2026-01-28 00:42:53.14	204.12	10.26	-30.7	-33.5	10.8	5.28e-03	0	43	0	1278214144	21	4975
2026-01-28 00:42:54.15	204.12	10.17	-30.8	-33.7	10.7	2.35e-03	0	43	0	1280311296	21	5064
2026-01-28 00:42:55.14	204.12	10.09	-30.9	-34.2	10.3	3.82e-03	0	43	0	1282408448	21	5263
2026-01-28 00:42:56.14	204.11	10.00	-30.7	-33.6	10.7	5.50e-03	0	43	0	1284505600	21	5021
2026-01-28 00:42:57.14	204.11	9.91	-30.6	-33.2	11.0	2.22e-03	0	43	0	1286602752	21	4852
2026-01-28 00:42:58.14	204.11	9.82	-30.6	-33.1	11.1	1.77e-03	0	43	0	1287651328	21	4813
2026-01-28 00:42:59.14	204.10	9.74	-30.7	-33.5	10.9	1.79e-03	0	43	0	1289748480	21	4958
