passes_logs/2026/01/28/R2M6_AANII_01/R2M6_AANII_01__20260128_063140_FENGYUN_3E_rec.log

#Pass ID: 20260128_063140_FENGYUN 3E
#Satellite: FENGYUN 3E
#Configuration: FENGYUN 3E
#almurnet v.1.7.20240730
#Start time: 2026-01-28 06:31:41

#Version: 2.2.20231116
#Station: R2M6_AANII_01
#Location: 30.233357 lon 59.946436 lat
#TLE: 1 49008U 21062A   26027.61944472  .00000309  00000+0  16619-3 0  9993
#TLE: 2 49008  98.7500  32.6009 0002501 114.4803 245.6635 14.19888604236631

#Time	Az	El	Level	Level2	SNR	BER	BlckErr	Temp	State	Recorded	gain1	gain2
2026-01-28 06:31:41.70	10.26	7.06	-30.9	-34.3	4.9	7.97e-01	0	40	0	0	21	5371
2026-01-28 06:31:42.70	10.17	7.12	-30.1	-32.5	5.2	7.74e-01	0	40	104	0	20	4754
2026-01-28 06:31:43.70	10.08	7.18	-30.0	-32.3	9.0	2.24e-02	0	41	0	0	20	4687
2026-01-28 06:31:44.71	9.99	7.25	-30.1	-32.4	9.0	2.20e-02	0	41	0	7340032	20	4711
2026-01-28 06:31:45.72	9.90	7.31	-30.0	-32.3	9.1	2.35e-02	0	41	0	14680064	20	4691
2026-01-28 06:31:46.72	9.81	7.38	-30.0	-32.3	9.1	2.02e-02	0	41	0	22020096	20	4677
2026-01-28 06:31:47.72	9.71	7.44	-29.6	-31.6	9.9	1.39e-02	0	41	0	28311552	19	4545
2026-01-28 06:31:48.73	9.62	7.51	-29.1	-30.8	10.8	2.72e-03	0	41	0	35651584	18	4393
2026-01-28 06:31:49.73	9.53	7.57	-28.7	-29.9	11.4	9.77e-04	0	41	0	42991616	18	4118
2026-01-28 06:31:50.74	9.43	7.64	-28.2	-29.7	12.1	4.24e-04	0	41	0	50331648	16	4269
2026-01-28 06:31:51.74	9.34	7.70	-28.3	-29.9	12.0	2.44e-04	0	41	0	57671680	16	4310
2026-01-28 06:31:52.75	9.24	7.77	-28.2	-29.7	12.2	2.18e-04	0	41	0	65011712	16	4248
2026-01-28 06:31:53.75	9.15	7.83	-28.3	-29.9	12.1	2.32e-04	0	41	0	72351744	16	4306
2026-01-28 06:31:54.76	9.05	7.90	-28.1	-29.5	12.3	1.88e-04	0	41	0	79691776	16	4195
2026-01-28 06:31:55.76	8.96	7.96	-27.9	-29.5	12.4	1.33e-04	0	41	0	87031808	15	4319
2026-01-28 06:31:56.77	8.86	8.03	-28.1	-29.4	12.3	1.98e-04	0	41	0	94371840	16	4187
2026-01-28 06:31:57.77	8.76	8.10	-28.1	-29.8	12.2	1.77e-04	0	41	0	101711872	15	4415
2026-01-28 06:31:58.77	8.67	8.16	-27.9	-29.4	12.5	1.20e-04	0	41	0	108003328	15	4278
2026-01-28 06:31:59.77	8.57	8.23	-27.7	-29.0	12.8	7.43e-05	0	41	0	115343360	15	4173
2026-01-28 06:32:00.77	8.47	8.29	-27.5	-28.4	13.1	1.60e-05	0	41	0	122683392	15	4019
2026-01-28 06:32:01.78	8.37	8.36	-27.2	-28.3	13.5	1.14e-05	0	41	0	130023424	14	4082
2026-01-28 06:32:02.79	8.27	8.43	-27.2	-28.4	13.5	1.48e-05	0	41	0	137363456	14	4116
2026-01-28 06:32:03.79	8.17	8.49	-27.1	-28.2	13.6	2.20e-06	0	41	0	144703488	14	4052
2026-01-28 06:32:04.80	8.07	8.56	-27.1	-28.2	13.6	3.40e-06	0	41	0	152043520	14	4054
2026-01-28 06:32:05.80	7.97	8.62	-27.4	-28.9	13.2	2.05e-05	0	41	0	159383552	14	4234
2026-01-28 06:32:06.80	7.87	8.69	-27.5	-29.0	13.1	1.37e-05	0	42	0	166723584	14	4288
2026-01-28 06:32:07.80	7.77	8.76	-27.4	-28.8	13.2	2.17e-05	0	41	0	174063616	14	4228
2026-01-28 06:32:08.81	7.66	8.82	-27.6	-29.2	13.0	3.08e-05	0	41	0	181403648	14	4324
2026-01-28 06:32:09.81	7.56	8.89	-27.5	-28.9	13.2	2.17e-05	0	42	0	188743680	14	4249
2026-01-28 06:32:10.82	7.46	8.96	-27.4	-28.7	13.3	1.94e-05	0	41	0	195035136	14	4204
2026-01-28 06:32:11.82	7.35	9.03	-27.4	-28.6	13.3	1.71e-05	0	41	0	202375168	14	4174
2026-01-28 06:32:12.82	7.25	9.09	-27.6	-28.7	13.0	2.40e-05	0	42	0	209715200	15	4076
2026-01-28 06:32:13.82	7.15	9.16	-27.4	-28.3	13.3	2.63e-05	0	41	0	217055232	15	3978
2026-01-28 06:32:14.83	7.04	9.23	-27.7	-28.9	12.9	2.97e-05	0	42	0	224395264	15	4146
2026-01-28 06:32:15.83	6.94	9.29	-27.6	-28.7	13.0	4.23e-05	0	42	0	231735296	15	4090
2026-01-28 06:32:16.84	6.83	9.36	-27.4	-28.1	13.4	1.83e-05	0	42	0	239075328	15	3942
2026-01-28 06:32:17.84	6.72	9.43	-27.1	-28.1	13.7	4.50e-06	0	42	0	246415360	14	4019
2026-01-28 06:32:18.85	6.61	9.50	-27.1	-28.1	13.7	4.50e-06	0	42	0	253755392	14	4040
2026-01-28 06:32:19.86	6.51	9.56	-27.5	-28.8	13.2	8.00e-06	0	42	0	261095424	14	4224
2026-01-28 06:32:20.86	6.40	9.63	-27.6	-28.8	13.0	4.34e-05	0	42	0	268435456	15	4115
2026-01-28 06:32:21.87	6.29	9.70	-27.5	-28.5	13.2	1.83e-05	0	42	0	274726912	15	4043
2026-01-28 06:32:22.87	6.18	9.77	-27.6	-28.6	13.1	3.31e-05	0	42	0	282066944	15	4055
2026-01-28 06:32:23.88	6.07	9.84	-27.5	-28.6	13.2	1.83e-05	0	42	0	289406976	15	4046
2026-01-28 06:32:24.87	5.96	9.90	-27.7	-28.8	13.0	3.08e-05	0	42	0	296747008	15	4119
2026-01-28 06:32:25.88	5.85	9.97	-27.5	-28.5	13.2	2.97e-05	0	42	0	304087040	15	4038
2026-01-28 06:32:26.88	5.74	10.04	-27.7	-28.9	12.9	3.89e-05	0	42	0	311427072	15	4150
2026-01-28 06:32:27.88	5.63	10.11	-27.5	-28.4	13.3	1.02e-05	0	42	0	318767104	15	4016
2026-01-28 06:32:28.89	5.51	10.18	-27.1	-27.4	13.8	1.10e-06	0	42	0	326107136	15	3766
2026-01-28 06:32:29.89	5.40	10.24	-26.9	-27.7	14.0	1.10e-06	0	42	0	333447168	14	3917
2026-01-28 06:32:30.88	5.29	10.31	-26.9	-28.2	14.0	3.40e-06	0	42	0	339738624	13	4156
2026-01-28 06:32:31.88	5.18	10.38	-26.8	-27.9	14.2	0.00e+00	0	42	0	347078656	13	4085
2026-01-28 06:32:32.89	5.06	10.45	-26.7	-27.6	14.4	1.10e-06	0	42	0	354418688	13	3990
2026-01-28 06:32:33.89	4.94	10.52	-26.6	-27.5	14.4	0.00e+00	0	42	0	361758720	13	3967
2026-01-28 06:32:34.89	4.83	10.59	-26.8	-27.8	14.2	1.10e-06	0	42	0	369098752	13	4053
2026-01-28 06:32:35.90	4.71	10.66	-26.6	-27.9	13.3	0.00e+00	0	42	0	376438784	12	4172
2026-01-28 06:32:36.90	4.60	10.73	-26.5	-27.7	14.5	0.00e+00	0	42	0	383778816	12	4140
2026-01-28 06:32:37.91	4.48	10.79	-26.6	-27.4	14.5	0.00e+00	0	42	0	391118848	13	3947
2026-01-28 06:32:38.91	4.36	10.86	-26.7	-27.6	14.4	0.00e+00	0	42	0	398458880	13	3992
2026-01-28 06:32:39.91	4.24	10.93	-26.7	-27.6	14.4	2.20e-06	0	42	0	405798912	13	4001
2026-01-28 06:32:40.91	4.12	11.00	-26.7	-27.6	14.4	1.95e-03	0	42	0	413138944	13	3991
2026-01-28 06:32:41.91	4.00	11.07	-26.9	-28.1	14.0	0.00e+00	0	42	0	420478976	13	4139
2026-01-28 06:32:42.92	3.88	11.14	-26.8	-27.8	14.3	0.00e+00	0	42	0	426770432	13	4042
2026-01-28 06:32:43.92	3.76	11.21	-26.6	-27.5	14.4	1.10e-06	0	42	0	434110464	13	3976
2026-01-28 06:32:44.93	3.64	11.28	-26.6	-27.5	14.5	0.00e+00	0	42	0	441450496	13	3962
2026-01-28 06:32:45.93	3.52	11.35	-26.6	-27.5	14.5	1.32e-04	0	42	0	448790528	13	3974
2026-01-28 06:32:46.94	3.39	11.42	-26.7	-27.7	14.4	3.40e-06	0	42	0	456130560	13	4016
2026-01-28 06:32:47.94	3.27	11.49	-26.6	-27.4	14.5	0.00e+00	0	42	0	463470592	13	3956
2026-01-28 06:32:48.94	3.15	11.56	-26.5	-27.1	14.7	0.00e+00	0	42	0	470810624	13	3877
2026-01-28 06:32:49.95	3.02	11.63	-26.5	-27.8	14.6	1.95e-03	0	42	0	478150656	12	4148
2026-01-28 06:32:50.96	2.90	11.70	-26.5	-27.7	14.6	2.00e-03	0	42	0	485490688	12	4122
2026-01-28 06:32:51.97	2.77	11.77	-26.6	-27.8	14.6	0.00e+00	0	42	0	492830720	12	4152
2026-01-28 06:32:52.97	2.64	11.84	-26.6	-27.5	14.5	1.97e-03	0	42	0	500170752	13	3970
2026-01-28 06:32:53.97	2.52	11.91	-26.5	-27.8	14.6	1.71e-03	0	42	0	506462208	12	4152
2026-01-28 06:32:54.97	2.39	11.98	-26.6	-27.4	14.5	9.72e-05	0	42	0	513802240	13	3948
2026-01-28 06:32:55.98	2.26	12.05	-26.8	-27.8	14.3	1.77e-03	0	42	0	521142272	13	4043
2026-01-28 06:32:56.98	2.13	12.12	-26.6	-27.4	14.5	0.00e+00	0	42	0	528482304	13	3959
2026-01-28 06:32:57.98	2.00	12.19	-26.5	-27.2	14.7	7.89e-05	0	42	0	535822336	13	3892
2026-01-28 06:32:58.99	1.87	12.26	-26.4	-27.6	14.7	1.95e-03	0	42	0	543162368	12	4089
2026-01-28 06:32:59.99	1.74	12.33	-26.4	-27.5	14.8	1.83e-03	0	42	0	550502400	12	4083
2026-01-28 06:33:00.99	1.61	12.40	-26.6	-27.4	14.6	5.83e-05	0	42	0	557842432	13	3951
2026-01-28 06:33:02.00	1.48	12.47	-26.4	-27.5	14.8	0.00e+00	0	42	0	565182464	12	4070
2026-01-28 06:33:02.99	1.35	12.54	-26.3	-27.3	14.9	1.71e-03	0	42	0	571473920	12	4029
2026-01-28 06:33:04.00	1.21	12.61	-26.3	-27.3	14.9	4.23e-05	0	42	0	579862528	12	4017
2026-01-28 06:33:05.00	1.08	12.68	-26.3	-27.2	15.0	1.63e-03	0	43	0	587202560	12	4001
2026-01-28 06:33:06.01	0.94	12.76	-26.3	-27.3	14.9	1.88e-03	0	43	0	593494016	12	4026
2026-01-28 06:33:07.02	0.81	12.83	-26.4	-27.5	14.8	0.00e+00	0	43	0	600834048	12	4086
2026-01-28 06:33:08.02	0.67	12.90	-26.5	-27.6	14.8	1.84e-03	0	42	0	608174080	12	4105
2026-01-28 06:33:09.03	0.53	12.97	-26.4	-27.4	14.9	1.74e-03	0	42	0	615514112	12	4053
2026-01-28 06:33:10.04	0.40	13.04	-26.4	-27.4	14.9	8.81e-05	0	42	0	622854144	12	4049
2026-01-28 06:33:11.04	0.26	13.11	-26.4	-27.3	14.9	1.83e-03	0	42	0	630194176	12	4038
2026-01-28 06:33:12.05	0.12	13.18	-26.3	-27.3	15.0	1.10e-06	0	42	0	637534208	12	4018
2026-01-28 06:33:13.05	359.98	13.25	-26.3	-27.2	15.1	7.78e-05	0	42	0	644874240	12	3989
2026-01-28 06:33:14.05	359.84	13.33	-26.5	-27.6	14.8	0.00e+00	0	42	0	652214272	12	4094
2026-01-28 06:33:15.06	359.70	13.40	-26.2	-27.0	15.1	0.00e+00	0	42	0	659554304	12	3936
2026-01-28 06:33:16.06	359.56	13.47	-26.0	-26.5	15.4	0.00e+00	0	42	0	666894336	12	3832
2026-01-28 06:33:17.06	359.41	13.54	-26.0	-27.1	15.4	0.00e+00	0	42	0	674234368	11	4085
2026-01-28 06:33:18.06	359.27	13.61	-26.2	-26.9	15.2	1.76e-03	0	42	0	680525824	12	3933
2026-01-28 06:33:19.06	359.13	13.68	-26.3	-27.3	15.0	0.00e+00	0	42	0	687865856	12	4019
2026-01-28 06:33:20.06	358.98	13.75	-26.3	-27.2	15.0	1.10e-06	0	42	0	695205888	12	3989
2026-01-28 06:33:21.06	358.84	13.82	-26.3	-27.3	15.0	0.00e+00	0	42	0	702545920	12	4029
2026-01-28 06:33:22.06	358.69	13.89	-26.3	-27.2	15.0	0.00e+00	0	42	0	709885952	12	4014
2026-01-28 06:33:23.07	358.55	13.97	-26.4	-27.3	15.0	0.00e+00	0	42	0	717225984	12	4034
2026-01-28 06:33:24.07	358.40	14.04	-26.6	-27.8	14.7	1.10e-06	0	43	0	724566016	12	4143
2026-01-28 06:33:25.07	358.25	14.11	-26.3	-27.3	15.0	0.00e+00	0	42	0	731906048	12	4025
2026-01-28 06:33:26.07	358.10	14.18	-26.3	-27.2	15.0	0.00e+00	0	43	0	738197504	12	4000
2026-01-28 06:33:27.07	357.96	14.25	-26.4	-27.4	14.9	0.00e+00	0	43	0	745537536	12	4060
2026-01-28 06:33:28.08	357.80	14.32	-26.3	-27.2	15.0	0.00e+00	0	43	0	752877568	12	4009
2026-01-28 06:33:29.08	357.65	14.39	-26.2	-27.1	15.1	0.00e+00	0	43	0	760217600	12	3974
2026-01-28 06:33:30.09	357.50	14.47	-26.3	-27.1	15.1	0.00e+00	0	42	0	767557632	12	3977
2026-01-28 06:33:31.09	357.35	14.54	-26.1	-26.8	15.3	0.00e+00	0	42	0	774897664	12	3901
2026-01-28 06:33:32.09	357.20	14.61	-26.2	-26.9	15.2	0.00e+00	0	43	0	782237696	12	3922
2026-01-28 06:33:33.09	357.04	14.68	-26.0	-26.5	15.5	0.00e+00	0	43	0	789577728	12	3816
2026-01-28 06:33:34.10	356.89	14.75	-25.9	-26.3	15.5	0.00e+00	0	43	0	796917760	12	3783
2026-01-28 06:33:35.10	356.73	14.82	-26.0	-26.5	15.5	0.00e+00	0	42	0	804257792	12	3829
2026-01-28 06:33:36.11	356.58	14.90	-26.0	-27.0	15.5	0.00e+00	0	43	0	811597824	11	4045
2026-01-28 06:33:37.11	356.42	14.97	-26.0	-27.0	15.6	0.00e+00	0	42	0	818937856	11	4044
2026-01-28 06:33:38.12	356.26	15.04	-25.9	-26.8	15.7	0.00e+00	0	43	0	825229312	11	3995
2026-01-28 06:33:39.12	356.10	15.11	-25.9	-26.8	15.6	0.00e+00	0	43	0	832569344	11	4000
2026-01-28 06:33:40.12	355.94	15.18	-25.8	-26.6	15.7	0.00e+00	0	42	0	839909376	11	3954
2026-01-28 06:33:41.13	355.78	15.25	-25.8	-26.5	15.8	0.00e+00	0	43	0	847249408	11	3930
2026-01-28 06:33:42.14	355.62	15.33	-26.0	-27.1	15.5	0.00e+00	0	43	0	854589440	11	4065
2026-01-28 06:33:43.14	355.46	15.40	-25.8	-26.6	15.8	0.00e+00	0	42	0	861929472	11	3935
2026-01-28 06:33:44.14	355.30	15.47	-25.8	-26.5	15.8	0.00e+00	0	43	0	869269504	11	3934
2026-01-28 06:33:45.14	355.13	15.54	-25.7	-26.4	15.9	0.00e+00	0	43	0	876609536	11	3902
2026-01-28 06:33:46.15	354.97	15.61	-25.5	-26.0	16.1	0.00e+00	0	43	0	883949568	11	3814
2026-01-28 06:33:47.15	354.80	15.68	-25.5	-26.0	16.1	0.00e+00	0	43	0	891289600	11	3790
2026-01-28 06:33:48.16	354.64	15.75	-25.6	-26.1	16.1	0.00e+00	0	43	0	898629632	11	3821
2026-01-28 06:33:49.16	354.47	15.82	-25.5	-26.4	16.2	0.00e+00	0	43	0	904921088	10	4004
2026-01-28 06:33:50.17	354.30	15.90	-25.6	-26.1	16.1	0.00e+00	0	43	0	912261120	11	3825
2026-01-28 06:33:51.17	354.14	15.97	-25.6	-26.1	16.1	0.00e+00	0	43	0	919601152	11	3817
2026-01-28 06:33:52.18	353.97	16.04	-25.6	-26.1	16.1	0.00e+00	0	43	0	926941184	11	3824
2026-01-28 06:33:53.18	353.80	16.11	-25.6	-26.2	16.0	0.00e+00	0	43	0	934281216	11	3856
2026-01-28 06:33:54.18	353.63	16.18	-25.6	-26.1	16.1	0.00e+00	0	43	0	941621248	11	3831
2026-01-28 06:33:55.18	353.46	16.25	-25.6	-26.3	16.0	0.00e+00	0	43	0	948961280	11	3864
2026-01-28 06:33:56.19	353.28	16.32	-25.7	-26.3	16.0	0.00e+00	0	43	0	956301312	11	3869
2026-01-28 06:33:57.19	353.11	16.39	-25.6	-26.1	16.1	0.00e+00	0	43	0	963641344	11	3832
2026-01-28 06:33:58.19	352.94	16.46	-25.7	-26.4	15.9	0.00e+00	0	43	0	969932800	11	3900
2026-01-28 06:33:59.20	352.76	16.54	-25.7	-26.4	15.9	0.00e+00	0	43	0	978321408	11	3904
2026-01-28 06:34:00.21	352.58	16.61	-25.7	-26.3	16.0	0.00e+00	0	43	0	985661440	11	3884
2026-01-28 06:34:01.21	352.41	16.68	-25.6	-26.1	16.1	0.00e+00	0	43	0	991952896	11	3832
2026-01-28 06:34:02.21	352.23	16.75	-25.6	-26.2	16.1	0.00e+00	0	43	0	999292928	11	3843
2026-01-28 06:34:03.21	352.05	16.82	-25.7	-26.3	16.0	0.00e+00	0	43	0	1006632960	11	3883
2026-01-28 06:34:04.21	351.88	16.89	-25.5	-26.0	16.2	0.00e+00	0	43	0	1013972992	11	3813
2026-01-28 06:34:05.22	351.69	16.96	-25.6	-26.1	16.1	0.00e+00	0	43	0	1021313024	11	3833
2026-01-28 06:34:06.22	351.51	17.03	-25.4	-25.7	16.3	0.00e+00	0	43	0	1028653056	11	3739
2026-01-28 06:34:07.22	351.33	17.10	-25.4	-25.8	16.3	0.00e+00	0	43	0	1035993088	11	3747
2026-01-28 06:34:08.23	351.15	17.17	-25.4	-26.2	16.4	0.00e+00	0	43	0	1043333120	10	3947
2026-01-28 06:34:09.23	350.97	17.24	-25.3	-25.9	16.5	0.00e+00	0	43	0	1050673152	10	3892
2026-01-28 06:34:10.24	350.78	17.31	-25.3	-26.0	16.5	0.00e+00	0	43	0	1056964608	10	3902
2026-01-28 06:34:11.25	350.60	17.38	-25.3	-25.9	16.5	0.00e+00	0	43	0	1064304640	10	3896
2026-01-28 06:34:12.24	350.41	17.45	-25.1	-25.6	16.7	0.00e+00	0	43	0	1071644672	10	3819
2026-01-28 06:34:13.25	350.22	17.52	-25.0	-25.3	16.8	0.00e+00	0	43	0	1078984704	10	3739
2026-01-28 06:34:14.25	350.04	17.59	-24.9	-25.2	16.9	0.00e+00	0	43	0	1086324736	10	3719
2026-01-28 06:34:15.26	349.85	17.66	-24.9	-25.7	16.9	0.00e+00	0	43	0	1093664768	9	3947
2026-01-28 06:34:16.27	349.66	17.73	-24.8	-25.5	17.0	0.00e+00	0	43	0	1101004800	9	3891
2026-01-28 06:34:17.28	349.46	17.79	-24.9	-25.6	16.9	0.00e+00	0	43	0	1108344832	9	3909
2026-01-28 06:34:18.28	349.27	17.86	-25.0	-25.8	16.8	0.00e+00	0	43	0	1115684864	9	3965
2026-01-28 06:34:19.28	349.08	17.93	-25.3	-26.0	16.5	0.00e+00	0	43	0	1123024896	10	3910
2026-01-28 06:34:20.29	348.89	18.00	-25.5	-26.4	16.2	0.00e+00	0	43	0	1130364928	10	4009
2026-01-28 06:34:21.29	348.70	18.07	-25.3	-26.0	16.5	0.00e+00	0	43	0	1136656384	10	3905
2026-01-28 06:34:22.30	348.50	18.14	-25.2	-25.9	16.5	0.00e+00	0	43	0	1145044992	10	3876
2026-01-28 06:34:23.30	348.30	18.21	-25.3	-26.0	16.5	0.00e+00	0	43	0	1152385024	10	3904
2026-01-28 06:34:24.31	348.11	18.27	-25.3	-26.1	16.4	0.00e+00	0	43	0	1158676480	10	3935
2026-01-28 06:34:25.32	347.91	18.34	-25.4	-26.3	16.4	2.02e-04	0	43	0	1166016512	10	3971
2026-01-28 06:34:26.32	347.71	18.41	-25.3	-26.0	16.5	0.00e+00	0	43	0	1173356544	10	3900
2026-01-28 06:34:27.33	347.51	18.48	-25.2	-25.9	16.5	0.00e+00	0	43	0	1180696576	10	3883
2026-01-28 06:34:28.32	347.31	18.54	-25.2	-25.9	16.6	0.00e+00	0	43	0	1188036608	10	3872
2026-01-28 06:34:29.33	347.11	18.61	-25.2	-25.9	16.5	0.00e+00	0	43	0	1195376640	10	3875
2026-01-28 06:34:30.33	346.91	18.68	-25.0	-25.3	16.9	0.00e+00	0	43	0	1202716672	10	3731
2026-01-28 06:34:31.34	346.70	18.74	-24.8	-24.9	17.1	0.00e+00	0	43	0	1210056704	10	3646
2026-01-28 06:34:32.35	346.50	18.81	-24.7	-24.8	17.1	0.00e+00	0	43	0	1217396736	10	3629
2026-01-28 06:34:33.35	346.29	18.88	-24.8	-24.9	17.1	0.00e+00	0	43	0	1223688192	10	3644
2026-01-28 06:34:34.35	346.09	18.94	-24.7	-25.3	17.1	8.16e-04	0	43	0	1232076800	9	3839
2026-01-28 06:34:35.35	345.88	19.01	-24.8	-25.3	17.1	9.85e-04	0	43	0	1239416832	9	3854
2026-01-28 06:34:36.35	345.68	19.07	-24.8	-25.4	17.0	0.00e+00	0	43	0	1245708288	9	3878
2026-01-28 06:34:37.36	345.47	19.14	-24.9	-25.6	16.9	1.27e-03	0	43	0	1253048320	9	3926
2026-01-28 06:34:38.37	345.26	19.21	-24.9	-25.6	16.9	1.24e-03	0	43	0	1260388352	9	3922
2026-01-28 06:34:39.37	345.05	19.27	-24.9	-25.7	16.9	0.00e+00	0	43	0	1267728384	9	3952
2026-01-28 06:34:40.37	344.84	19.34	-25.0	-25.9	16.8	1.35e-03	0	43	0	1275068416	9	3985
2026-01-28 06:34:41.37	344.63	19.40	-25.0	-26.0	16.8	1.21e-03	0	43	0	1282408448	9	4004
2026-01-28 06:34:42.38	344.41	19.46	-25.0	-25.8	16.8	0.00e+00	0	43	0	1289748480	9	3970
2026-01-28 06:34:43.37	344.20	19.53	-24.9	-25.8	16.9	1.22e-03	0	43	0	1297088512	9	3951
2026-01-28 06:34:44.37	343.99	19.59	-25.0	-25.9	16.8	1.37e-03	0	43	0	1304428544	9	3991
2026-01-28 06:34:45.37	343.77	19.65	-25.0	-26.0	16.8	0.00e+00	0	43	0	1310720000	9	4008
2026-01-28 06:34:46.37	343.56	19.72	-25.1	-25.5	16.8	1.48e-03	0	43	0	1318060032	10	3794
2026-01-28 06:34:47.37	343.34	19.78	-25.1	-25.6	16.8	1.44e-03	0	43	0	1325400064	10	3798
2026-01-28 06:34:48.38	343.12	19.84	-25.0	-25.3	16.9	0.00e+00	0	43	0	1332740096	10	3734
2026-01-28 06:34:49.38	342.90	19.91	-25.0	-25.8	16.8	5.98e-04	0	43	0	1340080128	9	3975
2026-01-28 06:34:50.38	342.68	19.97	-25.1	-25.5	16.8	1.54e-03	0	43	0	1347420160	10	3792
2026-01-28 06:34:51.38	342.46	20.03	-24.8	-25.0	17.1	0.00e+00	0	43	0	1354760192	10	3673
2026-01-28 06:34:52.38	342.24	20.09	-24.7	-25.2	17.2	1.39e-03	0	43	0	1362100224	9	3816
2026-01-28 06:34:53.39	342.02	20.15	-24.6	-25.1	17.3	1.58e-03	0	43	0	1368391680	9	3793
2026-01-28 06:34:54.39	341.79	20.21	-24.6	-24.9	17.3	0.00e+00	0	43	0	1375731712	9	3752
2026-01-28 06:34:55.39	341.57	20.27	-24.5	-24.8	17.4	1.55e-03	0	43	0	1383071744	9	3731
2026-01-28 06:34:56.40	341.34	20.33	-24.6	-25.0	17.3	0.00e+00	0	43	0	1390411776	9	3783
2026-01-28 06:34:57.40	341.12	20.39	-24.6	-25.1	17.3	0.00e+00	0	43	0	1397751808	9	3788
2026-01-28 06:34:58.40	340.89	20.45	-24.5	-24.9	17.4	1.60e-03	0	43	0	1405091840	9	3741
2026-01-28 06:34:59.40	340.66	20.51	-24.5	-25.3	17.4	0.00e+00	0	43	0	1412431872	8	3958
2026-01-28 06:35:00.39	340.44	20.57	-24.5	-25.3	17.4	0.00e+00	0	43	0	1419771904	8	3939
2026-01-28 06:35:01.38	340.21	20.63	-24.5	-25.4	17.4	1.50e-03	0	43	0	1427111936	8	3963
2026-01-28 06:35:02.38	339.98	20.69	-24.6	-25.0	17.3	0.00e+00	0	43	0	1433403392	9	3785
2026-01-28 06:35:03.39	339.75	20.74	-24.6	-25.1	17.3	0.00e+00	0	43	0	1440743424	9	3786
2026-01-28 06:35:04.39	339.52	20.80	-24.6	-24.9	17.3	0.00e+00	0	43	0	1448083456	9	3759
2026-01-28 06:35:05.39	339.28	20.86	-24.6	-24.9	17.4	1.62e-03	0	43	0	1455423488	9	3755
2026-01-28 06:35:06.40	339.05	20.92	-24.5	-24.9	17.4	0.00e+00	0	43	0	1462763520	9	3747
2026-01-28 06:35:07.40	338.81	20.97	-24.4	-24.6	17.5	0.00e+00	0	43	0	1470103552	9	3690
2026-01-28 06:35:08.40	338.58	21.03	-24.5	-24.9	17.4	0.00e+00	0	43	0	1477443584	9	3749
2026-01-28 06:35:09.41	338.34	21.08	-24.6	-25.0	17.3	0.00e+00	0	43	0	1484783616	9	3776
2026-01-28 06:35:10.41	338.10	21.14	-24.4	-25.1	17.5	0.00e+00	0	43	0	1492123648	8	3907
2026-01-28 06:35:11.41	337.86	21.19	-24.4	-25.0	17.6	0.00e+00	0	43	0	1499463680	8	3888
2026-01-28 06:35:12.42	337.62	21.25	-24.4	-25.0	17.6	0.00e+00	0	43	0	1506803712	8	3886
2026-01-28 06:35:13.42	337.38	21.30	-24.3	-24.9	17.7	0.00e+00	0	43	0	1513095168	8	3853
2026-01-28 06:35:14.42	337.14	21.36	-24.2	-24.8	17.7	0.00e+00	0	43	0	1520435200	8	3825
2026-01-28 06:35:15.42	336.90	21.41	-24.2	-24.8	17.7	0.00e+00	0	43	0	1527775232	8	3822
2026-01-28 06:35:16.43	336.66	21.46	-24.2	-24.7	17.8	0.00e+00	0	43	0	1535115264	8	3802
2026-01-28 06:35:17.42	336.42	21.51	-24.3	-24.8	17.7	0.00e+00	0	43	0	1542455296	8	3842
2026-01-28 06:35:18.43	336.17	21.57	-24.3	-24.9	17.6	0.00e+00	0	43	0	1549795328	8	3859
2026-01-28 06:35:19.43	335.92	21.62	-24.2	-24.6	17.8	0.00e+00	0	43	0	1557135360	8	3791
2026-01-28 06:35:20.44	335.68	21.67	-24.1	-24.6	17.8	0.00e+00	0	43	0	1564475392	8	3772
2026-01-28 06:35:21.45	335.43	21.72	-24.2	-24.7	17.8	0.00e+00	0	43	0	1571815424	8	3811
2026-01-28 06:35:22.46	335.18	21.77	-24.3	-24.9	17.6	0.00e+00	0	43	0	1579155456	8	3864
2026-01-28 06:35:23.46	334.93	21.82	-24.4	-25.0	17.6	0.00e+00	0	43	0	1586495488	8	3880
2026-01-28 06:35:24.46	334.68	21.87	-24.3	-24.8	17.7	0.00e+00	0	43	0	1593835520	8	3829
2026-01-28 06:35:25.47	334.43	21.92	-24.2	-24.6	17.8	0.00e+00	0	43	0	1600126976	8	3782
2026-01-28 06:35:26.47	334.18	21.96	-24.3	-24.8	17.7	0.00e+00	0	43	0	1607467008	8	3831
2026-01-28 06:35:27.47	333.93	22.01	-24.2	-24.7	17.8	0.00e+00	0	43	0	1614807040	8	3804
2026-01-28 06:35:28.48	333.67	22.06	-24.2	-24.7	17.8	0.00e+00	0	43	0	1622147072	8	3799
2026-01-28 06:35:29.48	333.42	22.10	-24.4	-25.0	17.6	0.00e+00	0	43	0	1629487104	8	3872
2026-01-28 06:35:30.48	333.17	22.15	-24.3	-24.9	17.7	0.00e+00	0	43	0	1636827136	8	3854
2026-01-28 06:35:31.48	332.91	22.20	-24.3	-24.8	17.7	0.00e+00	0	43	0	1644167168	8	3824
2026-01-28 06:35:32.49	332.66	22.24	-24.3	-24.9	17.7	0.00e+00	0	43	0	1651507200	8	3854
2026-01-28 06:35:33.49	332.40	22.29	-24.3	-24.9	17.7	0.00e+00	0	43	0	1658847232	8	3849
2026-01-28 06:35:34.50	332.14	22.33	-24.1	-24.5	17.9	0.00e+00	0	43	0	1665138688	8	3753
2026-01-28 06:35:35.49	331.89	22.37	-24.0	-24.3	18.0	0.00e+00	0	43	0	1672478720	8	3725
2026-01-28 06:35:36.50	331.63	22.42	-24.1	-24.4	17.9	0.00e+00	0	43	0	1679818752	8	3741
2026-01-28 06:35:37.50	331.37	22.46	-24.1	-24.4	17.9	0.00e+00	0	43	0	1687158784	8	3745
2026-01-28 06:35:38.50	331.11	22.50	-24.1	-24.4	17.9	0.00e+00	0	43	0	1694498816	8	3739
2026-01-28 06:35:39.50	330.85	22.54	-23.9	-24.0	18.1	0.00e+00	0	43	0	1701838848	8	3652
2026-01-28 06:35:40.51	330.59	22.58	-24.0	-24.8	18.0	0.00e+00	0	43	0	1709178880	7	3932
2026-01-28 06:35:41.51	330.32	22.62	-24.1	-24.5	17.9	0.00e+00	0	43	0	1716518912	8	3753
2026-01-28 06:35:42.51	330.06	22.66	-24.1	-24.4	17.9	0.00e+00	0	43	0	1723858944	8	3736
2026-01-28 06:35:43.52	329.80	22.70	-24.1	-24.5	17.9	0.00e+00	0	43	0	1731198976	8	3765
2026-01-28 06:35:44.52	329.53	22.74	-24.2	-24.6	17.8	0.00e+00	0	43	0	1738539008	8	3779
2026-01-28 06:35:45.53	329.27	22.77	-24.2	-24.7	17.8	0.00e+00	0	43	0	1744830464	8	3816
2026-01-28 06:35:46.54	329.00	22.81	-24.3	-24.8	17.7	0.00e+00	0	43	0	1752170496	8	3843
2026-01-28 06:35:47.54	328.73	22.85	-24.2	-24.8	17.7	0.00e+00	0	43	0	1759510528	8	3833
2026-01-28 06:35:48.54	328.47	22.88	-24.3	-24.9	17.7	0.00e+00	0	43	0	1766850560	8	3861
2026-01-28 06:35:49.55	328.20	22.92	-24.2	-24.7	17.8	0.00e+00	0	43	0	1774190592	8	3819
2026-01-28 06:35:50.56	327.93	22.95	-24.1	-24.5	17.9	0.00e+00	0	43	0	1781530624	8	3760
2026-01-28 06:35:51.56	327.66	22.99	-24.1	-24.5	17.9	0.00e+00	0	43	0	1788870656	8	3754
2026-01-28 06:35:52.56	327.39	23.02	-24.1	-24.4	17.9	0.00e+00	0	43	0	1796210688	8	3732
2026-01-28 06:35:53.57	327.12	23.05	-24.1	-24.4	17.9	0.00e+00	0	43	0	1803550720	8	3737
2026-01-28 06:35:54.58	326.85	23.09	-24.1	-24.4	17.9	0.00e+00	0	43	0	1810890752	8	3744
2026-01-28 06:35:55.59	326.58	23.12	-24.0	-24.2	18.0	0.00e+00	0	43	0	1818230784	8	3693
2026-01-28 06:35:56.59	326.31	23.15	-24.0	-24.2	18.0	0.00e+00	0	43	0	1825570816	8	3691
2026-01-28 06:35:57.59	326.04	23.18	-23.9	-24.5	18.1	0.00e+00	0	43	0	1831862272	7	3870
2026-01-28 06:35:58.59	325.76	23.21	-23.8	-24.4	18.1	0.00e+00	0	43	0	1839202304	7	3838
2026-01-28 06:35:59.60	325.49	23.24	-23.9	-24.5	18.1	0.00e+00	0	43	0	1847590912	7	3875
2026-01-28 06:36:00.60	325.22	23.26	-24.0	-24.8	17.9	0.00e+00	0	43	0	1853882368	7	3937
2026-01-28 06:36:01.60	324.94	23.29	-24.0	-24.8	18.0	0.00e+00	0	43	0	1861222400	7	3928
2026-01-28 06:36:02.60	324.67	23.32	-24.0	-24.7	17.9	0.00e+00	0	43	0	1868562432	7	3914
2026-01-28 06:36:03.60	324.40	23.34	-24.2	-24.6	17.8	0.00e+00	0	43	0	1875902464	8	3790
2026-01-28 06:36:04.60	324.12	23.37	-24.4	-25.2	17.5	0.00e+00	0	43	0	1883242496	8	3927
2026-01-28 06:36:05.61	323.84	23.39	-23.7	-24.4	17.6	0.00e+00	0	43	0	1890582528	8	3880
2026-01-28 06:36:06.61	323.57	23.42	-24.3	-25.0	14.6	0.00e+00	0	43	0	1897922560	8	3872
2026-01-28 06:36:07.62	323.29	23.44	-24.6	-25.5	15.9	0.00e+00	0	43	0	1905262592	8	3998
2026-01-28 06:36:08.62	323.01	23.46	-24.6	-25.4	17.3	0.00e+00	0	43	0	1912602624	8	3985
2026-01-28 06:36:09.62	322.74	23.48	-24.6	-25.1	17.3	0.00e+00	0	43	0	1918894080	9	3798
2026-01-28 06:36:10.62	322.46	23.50	-24.9	-25.7	17.0	1.02e-03	0	43	0	1926234112	9	3928
2026-01-28 06:36:11.63	322.18	23.53	-24.8	-25.5	17.1	0.00e+00	0	43	0	1933574144	9	3882
2026-01-28 06:36:12.64	321.90	23.55	-24.6	-25.1	17.3	0.00e+00	0	43	0	1940914176	9	3788
2026-01-28 06:36:13.65	321.62	23.56	-24.4	-25.1	17.5	0.00e+00	0	43	0	1948254208	8	3908
2026-01-28 06:36:14.65	321.34	23.58	-24.4	-25.2	17.5	0.00e+00	0	43	0	1955594240	8	3913
2026-01-28 06:36:15.65	321.06	23.60	-24.5	-25.2	17.5	1.42e-03	0	43	0	1962934272	8	3935
2026-01-28 06:36:16.66	320.78	23.62	-24.4	-25.1	17.5	0.00e+00	0	43	0	1970274304	8	3897
2026-01-28 06:36:17.66	320.50	23.63	-24.4	-25.1	17.5	5.00e-04	0	43	0	1977614336	8	3901
2026-01-28 06:36:18.67	320.22	23.65	-24.4	-25.1	17.5	1.22e-03	0	43	0	1984954368	8	3905
2026-01-28 06:36:19.67	319.94	23.66	-24.2	-24.7	17.7	0.00e+00	0	43	0	1992294400	8	3803
2026-01-28 06:36:20.67	319.66	23.68	-24.0	-24.7	18.0	3.09e-04	0	43	0	1998585856	7	3918
2026-01-28 06:36:21.67	319.38	23.69	-24.0	-24.8	17.9	0.00e+00	0	43	0	2005925888	7	3941
2026-01-28 06:36:22.67	319.10	23.70	-24.0	-24.2	18.0	1.43e-03	0	43	0	2013265920	8	3689
2026-01-28 06:36:23.68	318.81	23.71	-23.8	-24.3	18.2	3.24e-04	0	43	0	2020605952	7	3819
2026-01-28 06:36:24.68	318.53	23.72	-23.8	-24.4	18.1	0.00e+00	0	43	0	2027945984	7	3854
2026-01-28 06:36:25.68	318.25	23.73	-23.8	-24.3	18.1	1.45e-03	0	43	0	2035286016	7	3821
2026-01-28 06:36:26.68	317.97	23.74	-23.8	-24.4	18.1	2.93e-04	0	43	0	2042626048	7	3853
2026-01-28 06:36:27.68	317.69	23.75	-23.8	-24.4	18.1	1.54e-03	0	43	0	2049966080	7	3843
2026-01-28 06:36:28.69	317.40	23.76	-23.8	-24.4	18.1	1.50e-03	0	43	0	2057306112	7	3858
2026-01-28 06:36:29.69	317.12	23.77	-23.8	-24.4	18.1	3.18e-04	0	43	0	2063597568	7	3847
2026-01-28 06:36:30.70	316.83	23.77	-24.0	-24.7	18.0	1.57e-03	0	43	0	2071986176	7	3906
2026-01-28 06:36:31.71	316.55	23.78	-24.0	-24.7	18.0	0.00e+00	0	43	0	2079326208	7	3904
2026-01-28 06:36:32.71	316.27	23.78	-23.9	-24.6	18.0	3.33e-04	0	43	0	2085617664	7	3890
2026-01-28 06:36:33.71	315.98	23.79	-24.0	-24.7	18.0	1.68e-03	0	43	0	2092957696	7	3910
2026-01-28 06:36:34.71	315.70	23.79	-24.1	-25.0	17.8	1.61e-03	0	43	0	2100297728	7	3980
2026-01-28 06:36:35.72	315.42	23.79	-24.3	-24.8	17.7	2.56e-04	0	43	0	2107637760	8	3836
2026-01-28 06:36:36.73	315.13	23.80	-24.1	-24.5	17.8	0.00e+00	0	43	0	2114977792	8	3764
2026-01-28 06:36:37.73	314.85	23.80	-23.9	-24.1	18.0	1.45e-03	0	43	0	2122317824	8	3679
2026-01-28 06:36:38.73	314.57	23.80	-23.9	-24.0	18.1	3.66e-05	0	43	0	2129657856	8	3649
2026-01-28 06:36:39.74	314.28	23.80	-23.8	-24.3	18.1	0.00e+00	0	43	0	2136997888	7	3828
2026-01-28 06:36:40.75	314.00	23.79	-23.9	-24.6	18.0	1.66e-03	0	43	0	2143289344	7	3890
2026-01-28 06:36:41.75	313.71	23.79	-23.9	-24.5	18.0	0.00e+00	0	43	0	2151677952	7	3869
2026-01-28 06:36:42.76	313.43	23.79	-23.8	-24.4	18.1	1.79e-03	0	43	0	2159017984	7	3850
2026-01-28 06:36:43.76	313.14	23.79	-23.8	-24.4	18.1	0.00e+00	0	43	0	2165309440	7	3847
2026-01-28 06:36:44.77	312.86	23.78	-23.8	-24.3	18.1	0.00e+00	0	43	0	2172649472	7	3825
2026-01-28 06:36:45.77	312.58	23.78	-23.9	-24.5	18.0	1.58e-03	0	43	0	2179989504	7	3856
2026-01-28 06:36:46.78	312.29	23.77	-24.0	-24.7	17.9	0.00e+00	0	43	0	2187329536	7	3920
2026-01-28 06:36:47.78	312.01	23.76	-24.0	-24.8	17.9	0.00e+00	0	43	0	2194669568	7	3937
2026-01-28 06:36:48.78	311.73	23.76	-24.1	-24.6	17.8	0.00e+00	0	43	0	2202009600	8	3784
2026-01-28 06:36:49.78	311.45	23.75	-24.4	-25.0	17.6	0.00e+00	0	43	0	2209349632	8	3883
2026-01-28 06:36:50.79	311.16	23.74	-24.2	-24.7	17.7	0.00e+00	0	43	0	2216689664	8	3808
2026-01-28 06:36:51.79	310.88	23.73	-24.1	-24.4	17.8	0.00e+00	0	43	0	2224029696	8	3747
2026-01-28 06:36:52.79	310.60	23.72	-24.1	-24.4	17.8	0.00e+00	0	43	0	2230321152	8	3751
2026-01-28 06:36:53.80	310.31	23.71	-24.1	-24.5	17.8	0.00e+00	0	43	0	2238709760	8	3757
2026-01-28 06:36:54.80	310.03	23.70	-24.0	-24.2	17.9	0.00e+00	0	43	0	2246049792	8	3705
2026-01-28 06:36:55.80	309.75	23.69	-23.8	-24.4	18.1	0.00e+00	0	43	0	2252341248	7	3832
2026-01-28 06:36:56.80	309.47	23.67	-23.9	-24.5	18.0	0.00e+00	0	43	0	2259681280	7	3861
2026-01-28 06:36:57.81	309.19	23.66	-23.8	-24.4	18.1	0.00e+00	0	43	0	2267021312	7	3850
2026-01-28 06:36:58.81	308.91	23.64	-23.9	-24.5	18.0	0.00e+00	0	43	0	2274361344	7	3876
2026-01-28 06:36:59.82	308.63	23.63	-23.8	-24.3	18.1	0.00e+00	0	43	0	2281701376	7	3822
2026-01-28 06:37:00.81	308.35	23.61	-23.8	-24.2	18.1	1.10e-06	0	43	0	2289041408	7	3811
2026-01-28 06:37:01.82	308.07	23.59	-23.9	-24.6	18.0	0.00e+00	0	43	0	2296381440	7	3889
2026-01-28 06:37:02.82	307.79	23.58	-23.8	-24.4	18.1	0.00e+00	0	43	0	2303721472	7	3833
2026-01-28 06:37:03.83	307.51	23.56	-23.8	-24.2	18.2	0.00e+00	0	43	0	2311061504	7	3805
2026-01-28 06:37:04.83	307.23	23.54	-23.7	-24.1	18.2	0.00e+00	0	43	0	2317352960	7	3784
2026-01-28 06:37:05.83	306.95	23.52	-23.8	-24.4	18.0	0.00e+00	0	43	0	2324692992	7	3843
2026-01-28 06:37:06.84	306.67	23.50	-23.7	-24.2	18.2	0.00e+00	0	43	0	2332033024	7	3796
2026-01-28 06:37:07.84	306.39	23.48	-23.7	-24.2	18.1	0.00e+00	0	43	0	2339373056	7	3810
2026-01-28 06:37:08.83	306.12	23.46	-23.9	-24.6	18.0	0.00e+00	0	43	0	2346713088	7	3892
2026-01-28 06:37:09.84	305.84	23.43	-23.8	-24.4	18.0	0.00e+00	0	43	0	2354053120	7	3858
2026-01-28 06:37:10.84	305.56	23.41	-23.7	-24.2	18.1	0.00e+00	0	43	0	2361393152	7	3806
2026-01-28 06:37:11.84	305.29	23.39	-23.8	-24.3	18.1	0.00e+00	0	43	0	2368733184	7	3827
2026-01-28 06:37:12.84	305.01	23.36	-23.8	-24.2	18.1	0.00e+00	0	43	0	2375024640	7	3806
2026-01-28 06:37:13.85	304.73	23.34	-23.7	-24.2	18.2	0.00e+00	0	43	0	2383413248	7	3790
2026-01-28 06:37:14.85	304.46	23.31	-23.8	-24.3	18.1	0.00e+00	0	43	0	2390753280	7	3824
2026-01-28 06:37:15.85	304.19	23.28	-23.7	-24.1	18.2	0.00e+00	0	43	0	2397044736	7	3777
2026-01-28 06:37:16.85	303.91	23.26	-23.6	-23.9	18.3	0.00e+00	0	43	0	2404384768	7	3725
2026-01-28 06:37:17.86	303.64	23.23	-23.7	-24.1	18.2	0.00e+00	0	43	0	2411724800	7	3767
2026-01-28 06:37:18.87	303.36	23.20	-23.5	-23.7	18.4	0.00e+00	0	43	0	2419064832	7	3693
2026-01-28 06:37:19.87	303.09	23.17	-23.5	-23.8	18.3	0.00e+00	0	43	0	2426404864	7	3709
2026-01-28 06:37:20.87	302.82	23.14	-23.7	-24.1	18.2	0.00e+00	0	43	0	2433744896	7	3768
2026-01-28 06:37:21.88	302.55	23.11	-23.8	-24.3	18.0	0.00e+00	0	43	0	2441084928	7	3834
2026-01-28 06:37:22.88	302.28	23.08	-23.8	-24.3	18.1	0.00e+00	0	43	0	2448424960	7	3812
2026-01-28 06:37:23.89	302.00	23.04	-23.8	-24.4	18.0	0.00e+00	0	43	0	2455764992	7	3837
2026-01-28 06:37:24.89	301.73	23.01	-23.8	-24.4	18.0	0.00e+00	0	43	0	2462056448	7	3839
2026-01-28 06:37:25.90	301.46	22.98	-23.8	-24.3	18.0	0.00e+00	0	43	0	2470445056	7	3813
2026-01-28 06:37:26.90	301.19	22.94	-23.9	-24.5	18.0	0.00e+00	0	43	0	2477785088	7	3865
2026-01-28 06:37:27.91	300.92	22.91	-23.7	-24.1	18.1	0.00e+00	0	43	0	2484076544	7	3776
2026-01-28 06:37:28.91	300.66	22.87	-23.5	-23.8	18.3	0.00e+00	0	43	0	2491416576	7	3713
2026-01-28 06:37:29.91	300.39	22.84	-23.6	-23.9	18.2	0.00e+00	0	43	0	2498756608	7	3735
2026-01-28 06:37:30.91	300.13	22.80	-23.5	-23.8	18.3	0.00e+00	0	43	0	2506096640	7	3708
2026-01-28 06:37:31.92	299.86	22.76	-23.5	-23.7	18.3	0.00e+00	0	43	0	2513436672	7	3689
2026-01-28 06:37:32.92	299.59	22.73	-23.6	-23.9	18.3	0.00e+00	0	43	0	2520776704	7	3743
2026-01-28 06:37:33.92	299.33	22.69	-23.5	-23.8	18.3	0.00e+00	0	43	0	2528116736	7	3711
2026-01-28 06:37:34.93	299.06	22.65	-23.6	-23.8	18.3	0.00e+00	0	43	0	2535456768	7	3719
2026-01-28 06:37:35.93	298.80	22.61	-23.7	-24.2	18.1	0.00e+00	0	43	0	2542796800	7	3795
2026-01-28 06:37:36.93	298.54	22.57	-23.6	-23.9	18.2	0.00e+00	0	43	0	2549088256	7	3737
2026-01-28 06:37:37.93	298.28	22.53	-23.5	-23.8	18.3	0.00e+00	0	43	0	2556428288	7	3708
2026-01-28 06:37:38.94	298.02	22.49	-23.6	-23.8	18.3	0.00e+00	0	43	0	2563768320	7	3718
2026-01-28 06:37:39.95	297.75	22.44	-23.7	-24.1	18.1	0.00e+00	0	43	0	2571108352	7	3771
2026-01-28 06:37:40.95	297.49	22.40	-23.9	-24.5	17.9	0.00e+00	0	43	0	2578448384	7	3872
2026-01-28 06:37:41.96	297.23	22.36	-23.8	-24.3	18.0	0.00e+00	0	43	0	2585788416	7	3831
2026-01-28 06:37:42.96	296.98	22.32	-23.7	-24.2	18.1	0.00e+00	0	43	0	2593128448	7	3803
2026-01-28 06:37:43.97	296.72	22.27	-23.7	-24.2	18.0	0.00e+00	0	43	0	2600468480	7	3803
2026-01-28 06:37:44.97	296.46	22.23	-23.8	-24.3	18.0	0.00e+00	0	43	0	2607808512	7	3822
2026-01-28 06:37:45.97	296.21	22.18	-23.9	-24.5	17.9	0.00e+00	0	43	0	2615148544	7	3876
2026-01-28 06:37:46.97	295.95	22.14	-23.7	-24.1	18.0	0.00e+00	0	43	0	2622488576	7	3787
2026-01-28 06:37:47.98	295.69	22.09	-24.0	-24.8	17.7	0.00e+00	0	43	0	2628780032	7	3937
2026-01-28 06:37:48.97	295.44	22.04	-23.8	-24.3	18.0	0.00e+00	0	43	0	2636120064	7	3836
2026-01-28 06:37:49.98	295.19	22.00	-23.6	-24.0	18.1	0.00e+00	0	43	0	2643460096	7	3753
2026-01-28 06:37:50.98	294.94	21.95	-23.7	-24.1	18.1	0.00e+00	0	43	0	2650800128	7	3787
2026-01-28 06:37:51.99	294.68	21.90	-23.7	-24.1	18.1	0.00e+00	0	43	0	2658140160	7	3778
2026-01-28 06:37:53.00	294.43	21.85	-23.8	-24.3	18.0	0.00e+00	0	43	0	2665480192	7	3833
2026-01-28 06:37:54.01	294.18	21.80	-23.7	-24.1	18.1	0.00e+00	0	43	0	2672820224	7	3775
2026-01-28 06:37:55.01	293.93	21.75	-23.6	-24.0	18.1	7.68e-04	0	43	0	2680160256	7	3754
2026-01-28 06:37:56.02	293.68	21.70	-23.8	-24.3	18.0	0.00e+00	0	43	0	2687500288	7	3820
2026-01-28 06:37:57.02	293.44	21.65	-23.6	-23.8	18.2	0.00e+00	0	43	0	2694840320	7	3717
2026-01-28 06:37:58.02	293.19	21.60	-23.7	-24.0	18.1	5.89e-04	0	43	0	2702180352	7	3766
2026-01-28 06:37:59.03	292.94	21.55	-23.8	-24.3	18.0	0.00e+00	0	43	0	2709520384	7	3824
2026-01-28 06:38:00.03	292.70	21.50	-23.8	-24.4	17.9	3.62e-04	0	43	0	2715811840	7	3854
2026-01-28 06:38:01.03	292.45	21.44	-24.0	-24.8	17.7	0.00e+00	0	43	0	2723151872	7	3954
2026-01-28 06:38:02.04	292.21	21.39	-24.1	-24.9	17.6	0.00e+00	0	43	0	2730491904	7	3973
2026-01-28 06:38:03.04	291.97	21.34	-24.2	-24.7	17.5	3.54e-05	0	43	0	2737831936	8	3810
2026-01-28 06:38:04.04	291.73	21.28	-24.4	-25.2	17.3	0.00e+00	0	43	0	2745171968	8	3924
2026-01-28 06:38:05.05	291.48	21.23	-24.1	-24.6	17.5	0.00e+00	0	43	0	2752512000	8	3785
2026-01-28 06:38:06.05	291.24	21.17	-24.0	-24.2	17.7	0.00e+00	0	43	0	2759852032	8	3694
2026-01-28 06:38:07.06	291.00	21.12	-24.0	-24.2	17.7	1.02e-04	0	43	0	2767192064	8	3694
2026-01-28 06:38:08.07	290.76	21.06	-24.0	-24.2	17.7	0.00e+00	0	43	0	2774532096	8	3692
2026-01-28 06:38:09.07	290.53	21.01	-23.8	-23.8	17.9	0.00e+00	0	43	0	2781872128	8	3621
2026-01-28 06:38:10.07	290.29	20.95	-23.8	-23.8	17.9	2.40e-05	0	43	0	2789212160	8	3607
2026-01-28 06:38:11.07	290.06	20.89	-23.9	-24.0	17.8	0.00e+00	0	43	0	2795503616	8	3662
2026-01-28 06:38:12.08	289.82	20.84	-23.8	-23.8	17.9	0.00e+00	0	43	0	2802843648	8	3616
2026-01-28 06:38:13.08	289.59	20.78	-23.8	-23.8	17.9	0.00e+00	0	43	0	2810183680	8	3620
2026-01-28 06:38:14.08	289.35	20.72	-23.9	-24.1	17.8	0.00e+00	0	43	0	2817523712	8	3676
2026-01-28 06:38:15.09	289.12	20.66	-23.9	-24.0	17.8	0.00e+00	0	43	0	2824863744	8	3654
2026-01-28 06:38:16.09	288.89	20.60	-24.0	-24.3	17.6	0.00e+00	0	43	0	2832203776	8	3729
2026-01-28 06:38:17.09	288.66	20.55	-24.2	-24.8	17.4	0.00e+00	0	43	0	2839543808	8	3832
2026-01-28 06:38:18.09	288.43	20.49	-24.2	-24.7	17.4	5.63e-04	0	43	0	2846883840	8	3814
2026-01-28 06:38:19.09	288.20	20.43	-24.1	-24.4	17.6	0.00e+00	0	43	0	2854223872	8	3751
2026-01-28 06:38:20.10	287.97	20.37	-24.1	-24.6	17.5	0.00e+00	0	43	0	2861563904	8	3789
2026-01-28 06:38:21.10	287.75	20.31	-24.2	-24.6	17.5	0.00e+00	0	43	0	2868903936	8	3799
2026-01-28 06:38:22.10	287.52	20.25	-24.3	-24.8	17.4	8.87e-04	0	43	0	2876243968	8	3842
2026-01-28 06:38:23.11	287.30	20.19	-24.1	-24.6	17.5	0.00e+00	0	43	0	2882535424	8	3785
2026-01-28 06:38:24.11	287.07	20.12	-24.1	-24.4	17.6	0.00e+00	0	43	0	2889875456	8	3749
2026-01-28 06:38:25.12	286.85	20.06	-24.1	-24.5	17.5	3.74e-04	0	43	0	2897215488	8	3766
2026-01-28 06:38:26.13	286.62	20.00	-24.0	-24.4	17.6	0.00e+00	0	43	0	2904555520	8	3740
2026-01-28 06:38:27.14	286.40	19.94	-24.0	-24.4	17.6	0.00e+00	0	43	0	2911895552	8	3741
2026-01-28 06:38:28.14	286.18	19.88	-24.2	-24.6	17.4	0.00e+00	0	43	0	2919235584	8	3804
2026-01-28 06:38:29.15	285.96	19.81	-24.1	-24.5	17.6	0.00e+00	0	43	0	2926575616	8	3776
2026-01-28 06:38:30.15	285.74	19.75	-24.1	-24.6	17.5	0.00e+00	0	43	0	2933915648	8	3784
2026-01-28 06:38:31.15	285.52	19.69	-24.1	-24.5	17.5	0.00e+00	0	43	0	2941255680	8	3769
2026-01-28 06:38:32.15	285.31	19.62	-24.2	-24.7	17.5	0.00e+00	0	43	0	2948595712	8	3807
2026-01-28 06:38:33.16	285.09	19.56	-24.2	-24.6	17.5	0.00e+00	0	43	0	2955935744	8	3791
2026-01-28 06:38:34.16	284.88	19.50	-24.3	-24.9	17.3	0.00e+00	0	43	0	2963275776	8	3853
2026-01-28 06:38:35.17	284.66	19.43	-24.2	-24.7	17.4	0.00e+00	0	43	0	2969567232	8	3816
2026-01-28 06:38:36.17	284.45	19.37	-24.2	-24.8	17.4	0.00e+00	0	43	0	2976907264	8	3838
2026-01-28 06:38:37.17	284.24	19.30	-24.3	-24.9	17.3	0.00e+00	0	43	0	2984247296	8	3857
2026-01-28 06:38:38.18	284.02	19.24	-24.3	-24.9	17.3	0.00e+00	0	43	0	2991587328	8	3855
2026-01-28 06:38:39.18	283.81	19.17	-24.3	-24.9	17.3	0.00e+00	0	43	0	2998927360	8	3850
2026-01-28 06:38:40.19	283.60	19.11	-24.3	-24.9	17.3	0.00e+00	0	43	0	3006267392	8	3867
2026-01-28 06:38:41.19	283.39	19.04	-24.3	-24.9	17.2	0.00e+00	0	43	0	3013607424	8	3874
2026-01-28 06:38:42.20	283.19	18.97	-24.3	-24.8	17.3	0.00e+00	0	43	0	3020947456	8	3846
2026-01-28 06:38:43.20	282.98	18.91	-24.4	-25.1	17.2	0.00e+00	0	43	0	3028287488	8	3909
2026-01-28 06:38:44.21	282.77	18.84	-24.2	-24.7	17.4	0.00e+00	0	43	0	3035627520	8	3815
2026-01-28 06:38:45.21	282.57	18.77	-24.3	-24.9	17.3	0.00e+00	0	43	0	3042967552	8	3853
2026-01-28 06:38:46.22	282.36	18.71	-24.3	-24.9	17.3	0.00e+00	0	43	0	3049259008	8	3865
2026-01-28 06:38:47.23	282.16	18.64	-24.3	-24.9	17.3	0.00e+00	0	43	0	3056599040	8	3873
2026-01-28 06:38:48.23	281.96	18.57	-24.4	-25.1	17.2	0.00e+00	0	43	0	3063939072	8	3915
2026-01-28 06:38:49.24	281.75	18.50	-24.5	-25.4	17.0	0.00e+00	0	43	0	3071279104	8	3972
2026-01-28 06:38:50.24	281.55	18.44	-24.4	-25.1	17.1	0.00e+00	0	43	0	3078619136	8	3923
2026-01-28 06:38:51.24	281.35	18.37	-24.5	-25.4	17.0	0.00e+00	0	43	0	3085959168	8	3972
2026-01-28 06:38:52.24	281.15	18.30	-24.7	-25.3	16.8	0.00e+00	0	43	0	3093299200	9	3845
2026-01-28 06:38:53.25	280.96	18.23	-24.9	-25.8	16.5	0.00e+00	0	43	0	3100639232	9	3960
2026-01-28 06:38:54.25	280.76	18.17	-24.8	-25.5	16.7	0.00e+00	0	43	0	3107979264	9	3896
2026-01-28 06:38:55.25	280.56	18.10	-24.9	-25.8	16.5	0.00e+00	0	43	0	3114270720	9	3969
2026-01-28 06:38:56.25	280.37	18.03	-24.8	-25.5	16.6	0.00e+00	0	43	0	3121610752	9	3907
2026-01-28 06:38:57.25	280.18	17.96	-24.9	-25.6	16.6	0.00e+00	0	43	0	3128950784	9	3926
2026-01-28 06:38:58.25	279.98	17.89	-24.9	-25.7	16.5	0.00e+00	0	43	0	3136290816	9	3946
2026-01-28 06:38:59.26	279.79	17.82	-24.9	-25.7	16.6	0.00e+00	0	43	0	3143630848	9	3936
2026-01-28 06:39:00.26	279.60	17.75	-24.8	-25.5	16.6	0.00e+00	0	43	0	3150970880	9	3905
2026-01-28 06:39:01.27	279.41	17.68	-24.7	-25.2	16.8	0.00e+00	0	43	0	3158310912	9	3823
2026-01-28 06:39:02.27	279.22	17.62	-24.6	-25.1	16.9	0.00e+00	0	43	0	3165650944	9	3799
2026-01-28 06:39:03.27	279.03	17.55	-24.6	-25.0	16.9	0.00e+00	0	43	0	3172990976	9	3778
2026-01-28 06:39:04.27	278.84	17.48	-24.6	-24.9	16.9	0.00e+00	0	43	0	3180331008	9	3765
2026-01-28 06:39:05.28	278.65	17.41	-24.7	-25.2	16.8	0.00e+00	0	43	0	3187671040	9	3822
2026-01-28 06:39:06.28	278.47	17.34	-24.8	-25.5	16.7	0.00e+00	0	43	0	3193962496	9	3887
2026-01-28 06:39:07.29	278.28	17.27	-24.7	-25.4	16.7	0.00e+00	0	43	0	3201302528	9	3874
2026-01-28 06:39:08.29	278.09	17.20	-24.9	-25.6	16.6	0.00e+00	0	43	0	3208642560	9	3926
2026-01-28 06:39:09.30	277.91	17.13	-24.9	-25.6	16.6	0.00e+00	0	43	0	3215982592	9	3936
2026-01-28 06:39:10.30	277.73	17.06	-25.0	-26.0	16.4	0.00e+00	0	43	0	3223322624	9	4029
2026-01-28 06:39:11.30	277.55	16.99	-25.0	-25.8	16.4	0.00e+00	0	43	0	3230662656	9	3975
2026-01-28 06:39:12.31	277.36	16.91	-25.0	-26.0	16.4	0.00e+00	0	43	0	3238002688	9	4020
2026-01-28 06:39:13.31	277.18	16.84	-24.9	-25.6	16.6	0.00e+00	0	43	0	3245342720	9	3925
2026-01-28 06:39:14.31	277.00	16.77	-24.8	-25.4	16.7	0.00e+00	0	43	0	3252682752	9	3882
2026-01-28 06:39:15.32	276.82	16.70	-24.8	-25.4	16.7	0.00e+00	0	43	0	3260022784	9	3875
2026-01-28 06:39:16.32	276.65	16.63	-24.7	-25.4	16.7	0.00e+00	0	43	0	3267362816	9	3869
2026-01-28 06:39:17.33	276.47	16.56	-24.7	-25.2	16.8	0.00e+00	0	43	0	3274702848	9	3823
2026-01-28 06:39:18.33	276.29	16.49	-24.7	-25.2	16.8	0.00e+00	0	43	0	3280994304	9	3832
2026-01-28 06:39:19.33	276.12	16.42	-24.8	-25.6	16.6	0.00e+00	0	43	0	3288334336	9	3914
2026-01-28 06:39:20.34	275.94	16.35	-24.9	-25.8	16.4	0.00e+00	0	43	0	3295674368	9	3977
2026-01-28 06:39:21.34	275.77	16.28	-25.0	-25.9	16.4	0.00e+00	0	43	0	3303014400	9	3986
2026-01-28 06:39:22.35	275.60	16.21	-25.2	-25.8	16.2	0.00e+00	0	43	0	3310354432	10	3857
2026-01-28 06:39:23.35	275.42	16.13	-25.2	-25.8	16.2	0.00e+00	0	43	0	3317694464	10	3857
2026-01-28 06:39:24.34	275.26	16.06	-25.2	-25.9	16.1	0.00e+00	0	43	0	3325034496	10	3902
2026-01-28 06:39:25.35	275.08	15.99	-25.2	-25.9	16.1	0.00e+00	0	43	0	3332374528	10	3902
2026-01-28 06:39:26.35	274.91	15.92	-24.5	-25.2	15.4	0.00e+00	0	43	0	3339714560	10	3918
2026-01-28 06:39:27.35	274.75	15.85	-25.3	-26.1	12.5	0.00e+00	0	43	0	3347054592	10	3939
2026-01-28 06:39:28.35	274.58	15.78	-25.3	-26.1	16.0	0.00e+00	0	43	0	3354394624	10	3939
2026-01-28 06:39:29.35	274.41	15.71	-25.4	-26.3	15.9	0.00e+00	0	43	0	3361734656	10	3994
2026-01-28 06:39:30.36	274.25	15.63	-25.5	-26.4	15.8	0.00e+00	0	43	0	3368026112	10	4026
2026-01-28 06:39:31.36	274.08	15.56	-25.6	-26.1	15.7	0.00e+00	0	43	0	3375366144	11	3842
2026-01-28 06:39:32.37	273.91	15.49	-25.5	-26.6	15.7	0.00e+00	0	43	0	3382706176	10	4070
2026-01-28 06:39:33.37	273.75	15.42	-25.6	-26.2	15.7	0.00e+00	0	43	0	3390046208	11	3867
2026-01-28 06:39:34.38	273.59	15.35	-25.5	-26.1	15.7	0.00e+00	0	43	0	3397386240	11	3843
2026-01-28 06:39:35.39	273.42	15.28	-25.5	-26.5	15.7	1.77e-03	0	43	0	3404726272	10	4043
2026-01-28 06:39:36.39	273.26	15.20	-25.4	-26.3	15.9	0.00e+00	0	43	0	3412066304	10	3984
2026-01-28 06:39:37.39	273.10	15.13	-25.4	-26.2	15.9	0.00e+00	0	43	0	3419406336	10	3980
2026-01-28 06:39:38.39	272.94	15.06	-25.3	-26.2	15.9	0.00e+00	0	43	0	3425697792	10	3954
2026-01-28 06:39:39.39	272.78	14.99	-25.2	-25.8	16.1	0.00e+00	0	43	0	3433037824	10	3874
2026-01-28 06:39:40.39	272.63	14.92	-25.2	-25.8	16.1	3.01e-04	0	43	0	3440377856	10	3877
2026-01-28 06:39:41.39	272.47	14.85	-25.2	-25.9	16.1	0.00e+00	0	43	0	3447717888	10	3892
2026-01-28 06:39:42.40	272.31	14.77	-25.3	-26.1	16.0	1.69e-03	0	43	0	3455057920	10	3929
2026-01-28 06:39:43.40	272.16	14.70	-25.3	-26.1	16.0	1.69e-04	0	43	0	3462397952	10	3949
2026-01-28 06:39:44.40	272.00	14.63	-25.4	-26.3	15.8	1.80e-03	0	43	0	3469737984	10	3996
2026-01-28 06:39:45.41	271.85	14.56	-25.4	-26.3	15.9	1.76e-03	0	43	0	3477078016	10	3985
2026-01-28 06:39:46.42	271.69	14.49	-25.4	-26.3	15.8	0.00e+00	0	43	0	3484418048	10	4001
2026-01-28 06:39:47.42	271.54	14.41	-25.5	-26.5	15.7	1.77e-03	0	43	0	3491758080	10	4038
2026-01-28 06:39:48.42	271.39	14.34	-25.5	-26.5	15.7	2.07e-03	0	43	0	3499098112	10	4040
2026-01-28 06:39:49.43	271.23	14.27	-25.5	-26.5	15.7	3.96e-04	0	43	0	3506438144	10	4043
2026-01-28 06:39:50.43	271.08	14.20	-25.5	-26.4	15.7	2.12e-03	0	43	0	3512729600	10	4021
2026-01-28 06:39:51.43	270.93	14.13	-25.5	-26.4	15.8	2.22e-03	0	43	0	3520069632	10	4024
2026-01-28 06:39:52.44	270.78	14.06	-25.4	-26.4	15.7	6.73e-04	0	43	0	3527409664	10	4015
2026-01-28 06:39:53.45	270.63	13.98	-25.4	-26.4	15.7	2.33e-03	0	43	0	3534749696	10	4012
2026-01-28 06:39:54.45	270.49	13.91	-25.5	-26.5	15.7	2.15e-03	0	43	0	3542089728	10	4043
2026-01-28 06:39:55.45	270.34	13.84	-25.6	-26.7	15.6	7.86e-04	0	43	0	3549429760	10	4091
2026-01-28 06:39:56.46	270.19	13.77	-25.7	-26.5	15.4	0.00e+00	0	43	0	3556769792	11	3929
2026-01-28 06:39:57.47	270.05	13.70	-25.8	-26.6	15.3	2.61e-03	0	43	0	3564109824	11	3974
2026-01-28 06:39:58.47	269.90	13.63	-25.9	-26.9	15.2	8.23e-04	0	43	0	3571449856	11	4036
2026-01-28 06:39:59.47	269.76	13.55	-26.0	-27.2	15.0	1.10e-06	0	43	0	3578789888	11	4120
2026-01-28 06:40:00.47	269.61	13.48	-26.1	-26.8	14.9	2.70e-03	0	43	0	3586129920	12	3909
2026-01-28 06:40:01.48	269.47	13.41	-26.1	-26.8	14.9	0.00e+00	0	43	0	3592421376	12	3903
2026-01-28 06:40:02.48	269.33	13.34	-26.0	-27.1	15.0	2.52e-03	0	43	0	3599761408	11	4099
2026-01-28 06:40:03.49	269.19	13.27	-26.0	-27.1	15.0	2.25e-03	0	43	0	3607101440	11	4103
2026-01-28 06:40:04.49	269.05	13.20	-26.0	-27.1	15.0	0.00e+00	0	43	0	3614441472	11	4095
2026-01-28 06:40:05.50	268.90	13.12	-26.1	-26.7	14.9	0.00e+00	0	43	0	3621781504	12	3901
2026-01-28 06:40:06.50	268.77	13.05	-26.3	-27.2	14.6	0.00e+00	0	43	0	3629121536	12	4022
2026-01-28 06:40:07.51	268.63	12.98	-26.2	-27.2	14.6	0.00e+00	0	43	0	3636461568	12	4007
2026-01-28 06:40:08.51	268.49	12.91	-26.0	-26.6	14.9	0.00e+00	0	43	0	3643801600	12	3858
2026-01-28 06:40:09.52	268.35	12.84	-25.9	-26.9	15.1	0.00e+00	0	43	0	3651141632	11	4041
2026-01-28 06:40:10.52	268.21	12.77	-25.9	-26.9	15.1	0.00e+00	0	43	0	3658481664	11	4041
2026-01-28 06:40:11.52	268.08	12.70	-26.0	-27.2	15.0	0.00e+00	0	43	0	3665821696	11	4110
2026-01-28 06:40:12.53	267.94	12.63	-25.9	-26.5	15.0	1.10e-06	0	43	0	3673161728	12	3843
2026-01-28 06:40:13.53	267.81	12.55	-26.0	-26.5	15.0	0.00e+00	0	43	0	3679453184	12	3846
2026-01-28 06:40:14.53	267.67	12.48	-26.0	-27.2	14.9	0.00e+00	0	43	0	3686793216	11	4111
2026-01-28 06:40:15.53	267.54	12.41	-26.0	-27.1	14.9	1.10e-06	0	43	0	3694133248	11	4099
2026-01-28 06:40:16.54	267.41	12.34	-26.1	-26.9	14.7	0.00e+00	0	43	0	3701473280	12	3948
2026-01-28 06:40:17.54	267.28	12.27	-26.3	-27.3	14.5	1.10e-06	0	43	0	3708813312	12	4042
2026-01-28 06:40:18.54	267.14	12.20	-26.3	-27.3	14.5	0.00e+00	0	43	0	3716153344	12	4044
2026-01-28 06:40:19.55	267.01	12.13	-26.1	-26.8	14.8	0.00e+00	0	43	0	3723493376	12	3912
2026-01-28 06:40:20.55	266.88	12.06	-26.0	-26.7	14.8	0.00e+00	0	43	0	3730833408	12	3889
2026-01-28 06:40:21.56	266.75	11.99	-26.1	-26.9	14.7	0.00e+00	0	43	0	3738173440	12	3950
2026-01-28 06:40:22.57	266.62	11.92	-26.1	-27.0	14.6	0.00e+00	0	43	0	3745513472	12	3960
2026-01-28 06:40:23.57	266.49	11.85	-26.3	-27.3	14.5	0.00e+00	0	43	0	3752853504	12	4037
2026-01-28 06:40:24.57	266.37	11.78	-26.2	-27.2	14.5	1.10e-06	0	43	0	3760193536	12	4013
2026-01-28 06:40:25.58	266.24	11.71	-26.3	-27.4	14.4	1.10e-06	0	43	0	3766484992	12	4080
2026-01-28 06:40:26.59	266.11	11.64	-26.4	-27.6	14.2	0.00e+00	0	43	0	3773825024	12	4135
2026-01-28 06:40:27.59	265.99	11.57	-26.4	-27.6	14.3	1.10e-06	0	43	0	3781165056	12	4118
2026-01-28 06:40:28.59	265.86	11.50	-26.4	-27.6	14.3	1.10e-06	0	43	0	3788505088	12	4124
2026-01-28 06:40:29.60	265.74	11.42	-26.5	-27.7	14.2	2.20e-06	0	43	0	3795845120	12	4166
2026-01-28 06:40:30.59	265.61	11.36	-26.4	-27.7	14.2	0.00e+00	0	43	0	3803185152	12	4143
2026-01-28 06:40:31.60	265.49	11.29	-26.3	-27.3	14.4	0.00e+00	0	43	0	3810525184	12	4050
2026-01-28 06:40:32.60	265.37	11.22	-26.3	-27.3	14.4	2.20e-06	0	43	0	3817865216	12	4058
2026-01-28 06:40:33.60	265.25	11.15	-26.2	-27.1	14.5	0.00e+00	0	43	0	3825205248	12	4000
2026-01-28 06:40:34.61	265.12	11.08	-26.1	-27.0	14.6	0.00e+00	0	43	0	3832545280	12	3961
2026-01-28 06:40:35.61	265.00	11.01	-26.2	-27.1	14.5	0.00e+00	0	43	0	3839885312	12	3988
2026-01-28 06:40:36.61	264.88	10.94	-26.1	-26.8	14.6	0.00e+00	0	43	0	3846176768	12	3929
2026-01-28 06:40:37.62	264.76	10.87	-26.0	-27.1	14.8	0.00e+00	0	43	0	3853516800	11	4105
2026-01-28 06:40:38.62	264.64	10.80	-26.0	-26.8	14.7	0.00e+00	0	43	0	3860856832	12	3918
2026-01-28 06:40:39.63	264.52	10.73	-26.3	-27.4	14.3	0.00e+00	0	43	0	3868196864	12	4062
2026-01-28 06:40:40.64	264.40	10.66	-26.4	-27.5	14.2	1.10e-06	0	43	0	3875536896	12	4108
2026-01-28 06:40:41.64	264.29	10.59	-26.5	-27.8	14.1	0.00e+00	0	43	0	3882876928	12	4182
2026-01-28 06:40:42.64	264.17	10.52	-26.7	-27.8	13.8	2.20e-06	0	43	0	3890216960	13	4076
2026-01-28 06:40:43.65	264.05	10.45	-26.8	-27.9	13.6	5.70e-06	0	43	0	3897556992	13	4109
2026-01-28 06:40:44.65	263.94	10.38	-26.8	-27.9	13.6	8.00e-06	0	43	0	3904897024	13	4108
2026-01-28 06:40:45.65	263.82	10.31	-26.8	-28.0	13.6	4.50e-06	0	43	0	3912237056	13	4137
2026-01-28 06:40:46.66	263.71	10.24	-26.8	-27.9	13.7	5.70e-06	0	43	0	3919577088	13	4097
2026-01-28 06:40:47.66	263.59	10.18	-26.7	-27.7	13.7	2.20e-06	0	43	0	3926917120	13	4058
2026-01-28 06:40:48.67	263.48	10.11	-26.7	-27.8	13.7	8.00e-06	0	43	0	3933208576	13	4073
2026-01-28 06:40:49.67	263.37	10.04	-26.7	-27.8	13.7	5.70e-06	0	43	0	3940548608	13	4080
2026-01-28 06:40:50.67	263.25	9.97	-26.7	-27.7	13.7	3.40e-06	0	43	0	3947888640	13	4044
2026-01-28 06:40:51.67	263.14	9.90	-26.5	-27.8	13.9	2.20e-06	0	43	0	3955228672	12	4195
2026-01-28 06:40:52.68	263.03	9.83	-26.5	-27.9	13.9	0.00e+00	0	43	0	3962568704	12	4208
2026-01-28 06:40:53.68	262.92	9.77	-26.6	-27.6	13.8	1.10e-06	0	43	0	3969908736	13	4030
2026-01-28 06:40:54.69	262.81	9.70	-26.8	-28.0	13.5	4.50e-06	0	43	0	3977248768	13	4122
2026-01-28 06:40:55.69	262.70	9.63	-26.8	-28.1	13.5	1.14e-05	0	43	0	3984588800	13	4156
2026-01-28 06:40:56.69	262.59	9.56	-26.7	-27.7	13.7	1.02e-05	0	43	0	3990880256	13	4056
2026-01-28 06:40:57.70	262.48	9.49	-26.4	-27.2	14.0	1.10e-06	0	43	0	3998220288	13	3924
2026-01-28 06:40:58.70	262.37	9.43	-26.4	-27.1	14.1	1.10e-06	0	43	0	4006608896	13	3899
2026-01-28 06:40:59.70	262.27	9.36	-26.5	-27.7	14.0	1.10e-06	0	43	0	4012900352	12	4164
2026-01-28 06:41:00.71	262.16	9.29	-26.5	-27.9	13.9	3.40e-06	0	43	0	4020240384	12	4201
2026-01-28 06:41:01.72	262.05	9.22	-26.4	-27.6	14.0	4.50e-06	0	43	0	4027580416	12	4146
2026-01-28 06:41:02.72	261.94	9.16	-25.9	-26.9	14.2	2.20e-06	0	43	0	4034920448	12	4053
2026-01-28 06:41:03.73	261.84	9.09	-26.2	-27.1	14.3	0.00e+00	0	43	0	4042260480	12	3998
2026-01-28 06:41:04.73	261.73	9.02	-25.4	-26.4	11.3	0.00e+00	0	43	0	4049600512	12	4018
2026-01-28 06:41:05.73	261.63	8.95	-26.2	-27.2	11.2	5.70e-06	0	43	0	4056940544	12	4032
2026-01-28 06:41:06.73	261.52	8.89	-26.3	-27.4	14.0	0.00e+00	0	43	0	4064280576	12	4073
2026-01-28 06:41:07.74	261.42	8.82	-26.2	-27.2	14.0	2.87e-03	0	43	0	4071620608	12	4039
2026-01-28 06:41:08.74	261.32	8.75	-26.2	-27.2	14.2	1.10e-06	0	43	0	4077912064	12	4018
2026-01-28 06:41:09.75	261.21	8.69	-26.3	-27.4	14.1	1.10e-06	0	43	0	4085252096	12	4071
2026-01-28 06:41:10.75	261.11	8.62	-26.3	-27.4	14.1	5.70e-06	0	43	0	4093640704	12	4090
2026-01-28 06:41:11.76	261.01	8.55	-26.3	-27.4	14.1	1.10e-06	0	43	0	4099932160	12	4090
2026-01-28 06:41:12.76	260.91	8.49	-26.4	-27.7	13.9	1.07e-03	0	43	0	4107272192	12	4168
2026-01-28 06:41:13.77	260.81	8.42	-26.4	-27.7	13.9	1.10e-06	0	43	0	4114612224	12	4161
2026-01-28 06:41:14.77	260.71	8.35	-26.5	-27.9	13.7	3.94e-03	0	43	0	4121952256	12	4221
2026-01-28 06:41:15.78	260.60	8.29	-26.7	-27.9	13.4	1.55e-03	0	43	0	4129292288	13	4109
2026-01-28 06:41:16.78	260.51	8.22	-26.8	-28.0	13.3	5.70e-06	0	43	0	4136632320	13	4142
2026-01-28 06:41:17.78	260.41	8.15	-26.7	-27.8	13.5	6.19e-03	0	43	0	4143972352	13	4084
2026-01-28 06:41:18.78	260.31	8.09	-26.7	-27.8	13.5	4.50e-06	0	43	0	4151312384	13	4104
2026-01-28 06:41:19.78	260.21	8.02	-26.7	-28.0	13.3	6.57e-03	0	43	0	4158652416	13	4138
2026-01-28 06:41:20.78	260.11	7.96	-26.9	-28.3	13.2	6.67e-03	0	43	0	4164943872	13	4220
2026-01-28 06:41:21.78	260.02	7.89	-26.8	-28.2	13.2	3.20e-05	0	43	0	4172283904	13	4197
2026-01-28 06:41:22.78	259.92	7.83	-26.9	-28.4	13.1	6.96e-03	0	43	0	4179623936	13	4264
2026-01-28 06:41:23.78	259.82	7.76	-27.0	-28.6	13.0	2.85e-03	0	43	0	4186963968	13	4311
2026-01-28 06:41:24.79	259.73	7.69	-27.2	-28.4	12.8	1.95e-03	0	43	0	4194304000	14	4159
2026-01-28 06:41:25.79	259.63	7.63	-27.4	-28.9	12.4	6.60e-03	0	43	0	4201644032	14	4303
2026-01-28 06:41:26.80	259.54	7.56	-27.2	-28.5	12.7	6.87e-03	0	43	0	4208984064	14	4183
2026-01-28 06:41:27.81	259.44	7.50	-27.2	-28.6	12.6	1.74e-03	0	43	0	4216324096	14	4210
2026-01-28 06:41:28.81	259.35	7.43	-27.2	-28.5	12.6	6.40e-05	0	43	0	4223664128	14	4185
2026-01-28 06:41:29.81	259.25	7.37	-27.2	-28.5	12.6	5.58e-03	0	43	0	4231004160	14	4188
2026-01-28 06:41:30.81	259.16	7.30	-27.3	-28.6	12.6	1.24e-03	0	43	0	4238344192	14	4222
2026-01-28 06:41:31.82	259.07	7.24	-27.0	-28.1	12.9	4.19e-03	0	43	0	4244635648	14	4082
2026-01-28 06:41:32.82	258.97	7.17	-26.9	-28.3	13.0	4.38e-03	0	43	0	4251975680	13	4242
2026-01-28 06:41:33.83	258.88	7.11	-27.0	-28.6	12.9	2.51e-05	0	43	0	4259315712	13	4325
2026-01-28 06:41:34.84	258.79	7.04	-32.7	-41.7	3.8	8.45e-01	0	43	104	4263510016	25	10217
2026-01-28 06:41:35.85	258.70	6.98	-33.5	-43.3	3.8	8.46e-01	0	43	104	4263510016	26	11165
2026-01-28 06:41:36.85	258.61	6.91	-33.8	-43.6	3.8	8.46e-01	0	43	104	4263510016	27	11018

#Closed at: 2026-01-28 06:41:37
#Recorded file [4263 MB]: D:/data/31010_260128_093143.dat