passes_logs/2026/01/28/R2M6_AANII_01/R2M6_AANII_01__20260128_000142_NOAA_21_JPSS-2_rec.log

#Pass ID: 20260128_000142_NOAA 21 (JPSS-2)
#Satellite: NOAA 21 (JPSS-2)
#Configuration: NOAA 21
#almurnet v.1.7.20240730
#Start time: 2026-01-28 00:01:41

#Version: 2.2.20231116
#Station: R2M6_AANII_01
#Location: 30.233357 lon 59.946436 lat
#TLE: 1 54234U 22150A   26027.41809747  .00000179  00000+0  10565-3 0  9991
#TLE: 2 54234  98.7510 328.1683 0000854 205.0798 155.0336 14.19540145166571

#Time	Az	El	Level	Level2	SNR	BER	BlckErr	Temp	State	Recorded	gain1	gain2
2026-01-28 00:01:41.70	19.80	6.94	-29.8	-34.1	4.8	1.38e+00	0	40	0	0	19	5948
2026-01-28 00:01:42.70	19.82	7.01	-29.9	-34.6	4.8	1.39e+00	0	40	104	0	19	6167
2026-01-28 00:01:43.71	19.84	7.09	-30.1	-33.8	9.3	1.61e-02	0	40	0	0	20	5560
2026-01-28 00:01:44.71	19.86	7.17	-30.0	-33.8	9.4	1.77e-02	0	40	0	3145728	20	5539
2026-01-28 00:01:45.71	19.88	7.24	-29.9	-33.8	9.8	1.11e-02	0	40	0	6291456	19	5635
2026-01-28 00:01:46.72	19.91	7.32	-30.1	-34.0	9.2	2.04e-02	0	40	0	9437184	20	5641
2026-01-28 00:01:47.72	19.93	7.40	-30.1	-34.0	9.2	2.20e-02	0	40	0	12582912	20	5623
2026-01-28 00:01:48.72	19.95	7.48	-30.2	-34.3	9.0	2.06e-02	0	40	0	15728640	20	5757
2026-01-28 00:01:49.72	19.97	7.55	-30.4	-34.9	8.6	3.40e-02	0	40	0	18874368	20	6042
2026-01-28 00:01:50.72	19.99	7.63	-30.4	-35.0	8.5	4.00e-02	0	40	0	22020096	20	6054
2026-01-28 00:01:51.73	20.01	7.71	-30.4	-35.0	8.6	3.44e-02	0	40	0	24117248	20	6066
2026-01-28 00:01:52.73	20.04	7.79	-30.5	-34.8	8.4	5.72e-02	0	40	0	27262976	21	5860
2026-01-28 00:01:53.74	20.06	7.87	-30.2	-34.3	9.1	3.02e-02	0	40	0	30408704	20	5731
2026-01-28 00:01:54.74	20.08	7.95	-30.0	-33.5	9.6	1.55e-02	0	40	0	33554432	20	5409
2026-01-28 00:01:55.74	20.10	8.03	-29.9	-33.3	9.8	1.11e-02	0	40	0	36700160	20	5309
2026-01-28 00:01:56.75	20.13	8.11	-29.6	-32.9	10.5	4.47e-03	0	40	0	40894464	19	5261
2026-01-28 00:01:57.75	20.15	8.18	-29.6	-32.8	10.5	3.83e-03	0	41	0	44040192	19	5219
2026-01-28 00:01:58.75	20.17	8.26	-29.5	-32.6	10.7	2.95e-03	0	41	0	47185920	19	5148
2026-01-28 00:01:59.76	20.19	8.35	-29.5	-32.4	10.8	3.21e-03	0	41	0	49283072	19	5071
2026-01-28 00:02:00.77	20.22	8.43	-29.1	-31.9	11.5	1.08e-03	0	41	0	52428800	18	4988
2026-01-28 00:02:01.77	20.24	8.51	-28.9	-31.3	11.9	5.21e-04	0	41	0	55574528	18	4775
2026-01-28 00:02:02.77	20.26	8.59	-28.7	-31.3	12.2	2.25e-04	0	41	0	58720256	17	4878
2026-01-28 00:02:03.78	20.29	8.67	-28.0	-30.7	12.1	2.14e-04	0	41	0	61865984	17	4928
2026-01-28 00:02:04.78	20.31	8.75	-28.7	-31.3	12.2	2.56e-04	0	41	0	65011712	17	4883
2026-01-28 00:02:05.78	20.33	8.83	-28.8	-31.5	12.0	2.27e-04	0	41	0	68157440	17	4948
2026-01-28 00:02:06.78	20.36	8.91	-28.7	-31.5	12.2	2.95e-04	0	41	0	71303168	17	4926
2026-01-28 00:02:07.79	20.38	9.00	-28.6	-31.0	12.4	1.48e-04	0	41	0	74448896	17	4788
2026-01-28 00:02:08.79	20.40	9.08	-28.4	-30.6	12.7	7.93e-05	0	41	0	77594624	17	4635
2026-01-28 00:02:09.79	20.43	9.16	-28.2	-30.7	13.0	3.71e-04	0	41	0	80740352	16	4778
2026-01-28 00:02:10.79	20.45	9.25	-28.2	-30.6	13.0	4.04e-05	0	41	0	83886080	16	4756
2026-01-28 00:02:11.80	20.47	9.33	-28.4	-31.2	12.6	5.79e-05	0	41	0	87031808	16	4957
2026-01-28 00:02:12.80	20.50	9.41	-28.3	-30.9	12.9	6.56e-05	0	41	0	90177536	16	4836
2026-01-28 00:02:13.80	20.52	9.50	-28.1	-30.4	13.2	3.58e-05	0	41	0	93323264	16	4695
2026-01-28 00:02:14.81	20.55	9.58	-28.2	-30.6	13.1	3.77e-04	0	41	0	96468992	16	4748
2026-01-28 00:02:15.81	20.57	9.67	-28.1	-30.3	13.3	3.42e-04	0	41	0	99614720	16	4639
2026-01-28 00:02:16.81	20.60	9.75	-28.2	-30.5	13.1	1.60e-05	0	41	0	102760448	16	4727
2026-01-28 00:02:17.82	20.62	9.84	-28.0	-30.2	13.4	1.60e-05	0	41	0	105906176	16	4607
2026-01-28 00:02:18.83	20.65	9.92	-28.1	-30.4	13.3	4.28e-04	0	41	0	109051904	16	4664
2026-01-28 00:02:19.83	20.67	10.01	-28.0	-30.1	13.4	1.67e-05	0	41	0	112197632	16	4585
2026-01-28 00:02:20.83	20.70	10.09	-27.7	-30.0	13.6	3.82e-04	0	41	0	115343360	15	4671
2026-01-28 00:02:21.84	20.72	10.18	-27.6	-29.8	13.7	3.68e-04	0	41	0	118489088	15	4606
2026-01-28 00:02:22.84	20.75	10.27	-27.7	-30.0	13.6	5.30e-06	0	41	0	121634816	15	4686
2026-01-28 00:02:23.85	20.77	10.35	-27.7	-29.9	13.6	3.50e-04	0	41	0	124780544	15	4644
2026-01-28 00:02:24.86	20.80	10.44	-27.6	-29.7	13.8	3.47e-04	0	41	0	127926272	15	4584
2026-01-28 00:02:25.87	20.82	10.53	-27.5	-29.5	13.9	5.30e-06	0	41	0	131072000	15	4518
2026-01-28 00:02:26.87	20.85	10.62	-27.6	-29.6	13.9	4.20e-04	0	41	0	134217728	15	4543
2026-01-28 00:02:27.87	20.88	10.71	-27.6	-29.6	13.9	4.43e-04	0	41	0	137363456	15	4546
2026-01-28 00:02:28.87	20.90	10.79	-27.0	-29.0	13.9	4.50e-06	0	41	0	140509184	15	4513
2026-01-28 00:02:29.87	20.93	10.88	-27.6	-29.6	13.4	4.11e-04	0	41	0	143654912	15	4542
2026-01-28 00:02:30.88	20.95	10.97	-27.8	-30.3	13.4	4.83e-04	0	41	0	146800640	15	4761
2026-01-28 00:02:31.88	20.98	11.06	-27.7	-29.8	13.2	1.06e-05	0	41	0	149946368	15	4617
2026-01-28 00:02:32.89	21.01	11.15	-27.5	-29.5	13.9	4.36e-04	0	41	0	153092096	15	4513
2026-01-28 00:02:33.89	21.03	11.24	-27.3	-29.5	14.2	4.79e-04	0	41	0	156237824	14	4621
2026-01-28 00:02:34.89	21.06	11.33	-27.2	-29.3	14.4	3.00e-06	0	41	0	159383552	14	4567
2026-01-28 00:02:35.90	21.09	11.42	-27.4	-29.6	14.2	4.58e-04	0	41	0	162529280	14	4662
2026-01-28 00:02:36.90	21.11	11.51	-27.3	-29.4	14.3	4.78e-04	0	41	0	165675008	14	4598
2026-01-28 00:02:37.90	21.14	11.61	-27.3	-29.5	14.3	3.00e-06	0	41	0	168820736	14	4634
2026-01-28 00:02:38.90	21.17	11.70	-27.5	-29.5	14.0	3.08e-03	0	41	0	171966464	15	4506
2026-01-28 00:02:39.91	21.20	11.79	-27.5	-29.4	14.1	1.50e-06	0	41	0	175112192	15	4467
2026-01-28 00:02:40.91	21.22	11.88	-27.4	-29.6	14.2	1.50e-06	0	41	0	178257920	14	4665
2026-01-28 00:02:41.92	21.25	11.97	-27.4	-29.6	14.2	5.02e-04	0	41	0	181403648	14	4668
2026-01-28 00:02:42.92	21.28	12.07	-27.5	-29.4	14.0	3.80e-06	0	41	0	184549376	15	4492
2026-01-28 00:02:43.92	21.31	12.16	-27.5	-29.4	14.1	3.28e-03	0	42	0	187695104	15	4477
2026-01-28 00:02:44.93	21.34	12.26	-27.3	-29.5	14.3	3.70e-03	0	42	0	190840832	14	4625
2026-01-28 00:02:45.93	21.37	12.35	-27.3	-29.5	14.3	4.51e-04	0	41	0	193986560	14	4620
2026-01-28 00:02:46.93	21.39	12.44	-27.5	-29.5	14.0	1.50e-06	0	41	0	197132288	15	4510
2026-01-28 00:02:47.94	21.42	12.54	-27.7	-29.8	13.9	3.62e-03	0	42	0	200278016	15	4608
2026-01-28 00:02:48.94	21.45	12.63	-27.5	-29.4	14.1	2.20e-06	0	42	0	203423744	15	4464
2026-01-28 00:02:49.94	21.48	12.73	-27.6	-29.6	14.0	3.71e-03	0	41	0	206569472	15	4535
2026-01-28 00:02:50.95	21.51	12.83	-27.5	-29.4	14.1	3.35e-03	0	42	0	209715200	15	4473
2026-01-28 00:02:51.95	21.54	12.92	-27.3	-29.0	14.3	1.50e-06	0	42	0	212860928	15	4360
2026-01-28 00:02:52.95	21.57	13.02	-27.2	-29.1	14.6	3.33e-03	0	42	0	216006656	14	4511
2026-01-28 00:02:53.96	21.60	13.12	-27.1	-29.0	14.6	3.83e-03	0	42	0	219152384	14	4469
2026-01-28 00:02:54.96	21.63	13.21	-27.2	-29.3	14.5	1.50e-06	0	41	0	222298112	14	4545
2026-01-28 00:02:55.97	21.66	13.31	-27.2	-29.2	14.5	3.80e-03	0	41	0	225443840	14	4542
2026-01-28 00:02:56.97	21.69	13.41	-27.4	-29.6	14.3	3.72e-03	0	42	0	228589568	14	4655
2026-01-28 00:02:57.98	21.72	13.51	-27.2	-29.2	14.6	1.50e-06	0	41	0	231735296	14	4519
2026-01-28 00:02:58.98	21.75	13.61	-27.0	-28.8	14.8	3.66e-03	0	41	0	234881024	14	4409
2026-01-28 00:02:59.98	21.78	13.71	-26.9	-29.1	14.9	3.43e-03	0	41	0	238026752	13	4599
2026-01-28 00:03:00.98	21.81	13.81	-26.9	-29.1	14.9	0.00e+00	0	41	0	241172480	13	4607
2026-01-28 00:03:01.98	21.84	13.91	-27.2	-29.1	14.7	3.41e-03	0	42	0	244318208	14	4494
2026-01-28 00:03:02.99	21.88	14.01	-27.2	-29.1	14.6	3.76e-03	0	42	0	247463936	14	4507
2026-01-28 00:03:03.99	21.91	14.11	-27.2	-29.2	14.6	0.00e+00	0	42	0	250609664	14	4524
2026-01-28 00:03:04.99	21.94	14.21	-27.2	-29.1	14.6	3.86e-03	0	42	0	253755392	14	4512
2026-01-28 00:03:06.00	21.97	14.31	-27.3	-29.3	14.5	3.67e-03	0	42	0	256901120	14	4566
2026-01-28 00:03:07.00	22.00	14.42	-27.3	-29.5	14.5	0.00e+00	0	42	0	260046848	14	4601
2026-01-28 00:03:08.00	22.03	14.52	-27.5	-29.8	14.2	0.00e+00	0	42	0	263192576	14	4702
2026-01-28 00:03:09.01	22.07	14.62	-27.4	-29.6	14.4	7.00e-07	0	42	0	266338304	14	4638
2026-01-28 00:03:10.02	22.10	14.73	-27.4	-29.7	14.4	1.50e-06	0	42	0	269484032	14	4663
2026-01-28 00:03:11.03	22.13	14.83	-27.4	-29.7	14.4	3.36e-03	0	42	0	272629760	14	4659
2026-01-28 00:03:12.03	22.17	14.94	-27.5	-29.4	14.2	7.00e-07	0	42	0	275775488	15	4470
2026-01-28 00:03:13.04	22.20	15.04	-27.6	-29.7	14.0	2.20e-06	0	42	0	278921216	15	4562
2026-01-28 00:03:14.04	22.23	15.15	-28.0	-30.5	13.6	4.50e-06	0	42	0	282066944	15	4813
2026-01-28 00:03:15.04	22.27	15.25	-28.1	-30.1	13.7	3.48e-03	0	42	0	285212672	16	4573
2026-01-28 00:03:16.05	22.30	15.36	-28.1	-30.2	13.6	6.10e-06	0	42	0	288358400	16	4599
2026-01-28 00:03:17.04	22.33	15.47	-28.2	-30.5	13.5	1.06e-05	0	42	0	291504128	16	4691
2026-01-28 00:03:18.04	22.37	15.57	-28.1	-30.3	13.6	1.29e-05	0	42	0	294649856	16	4618
2026-01-28 00:03:19.05	22.40	15.68	-28.1	-30.2	13.7	8.30e-06	0	42	0	297795584	16	4585
2026-01-28 00:03:20.05	22.44	15.79	-27.9	-30.2	13.8	6.10e-06	0	42	0	300941312	15	4706
2026-01-28 00:03:21.06	22.47	15.90	-27.9	-30.4	13.7	3.80e-06	0	42	0	304087040	15	4786
2026-01-28 00:03:22.06	22.51	16.01	-28.4	-31.0	13.2	1.14e-05	0	42	0	307232768	16	4835
2026-01-28 00:03:23.08	22.54	16.12	-28.1	-30.3	13.6	1.29e-05	0	42	0	310378496	16	4621
2026-01-28 00:03:24.08	22.58	16.23	-27.9	-29.8	13.9	3.80e-06	0	42	0	313524224	16	4476
2026-01-28 00:03:25.09	22.62	16.34	-27.7	-29.3	14.2	7.00e-07	0	42	0	316669952	16	4326
2026-01-28 00:03:26.09	22.65	16.45	-27.5	-29.3	14.4	2.20e-06	0	42	0	319815680	15	4424
2026-01-28 00:03:27.09	22.69	16.56	-27.5	-29.3	14.4	0.00e+00	0	42	0	322961408	15	4433
2026-01-28 00:03:28.09	22.73	16.68	-27.4	-29.2	14.4	1.50e-06	0	42	0	326107136	15	4405
2026-01-28 00:03:29.10	22.76	16.79	-27.6	-29.5	14.3	1.50e-06	0	42	0	329252864	15	4492
2026-01-28 00:03:30.10	22.80	16.90	-27.4	-29.6	14.5	7.00e-07	0	42	0	332398592	14	4630
2026-01-28 00:03:31.10	22.84	17.02	-27.5	-29.3	14.4	1.50e-06	0	42	0	335544320	15	4430
2026-01-28 00:03:32.11	22.87	17.13	-27.7	-29.9	14.0	3.00e-06	0	42	0	338690048	15	4618
2026-01-28 00:03:33.11	22.91	17.25	-27.8	-30.1	13.9	4.50e-06	0	42	0	341835776	15	4709
2026-01-28 00:03:34.12	22.95	17.36	-27.7	-29.9	14.0	3.00e-06	0	42	0	344981504	15	4600
2026-01-28 00:03:35.12	22.99	17.48	-27.7	-29.8	13.9	7.00e-07	0	42	0	348127232	15	4590
2026-01-28 00:03:36.13	23.03	17.59	-27.8	-30.1	13.8	3.80e-06	0	42	0	351272960	15	4691
2026-01-28 00:03:37.12	23.07	17.71	-27.7	-29.8	14.1	1.50e-06	0	42	0	354418688	15	4593
2026-01-28 00:03:38.13	23.11	17.83	-27.6	-29.5	14.3	2.35e-04	0	42	0	357564416	15	4492
2026-01-28 00:03:39.13	23.15	17.95	-27.5	-29.4	14.4	0.00e+00	0	42	0	360710144	15	4447
2026-01-28 00:03:40.14	23.19	18.07	-27.7	-29.8	14.1	2.20e-06	0	42	0	363855872	15	4574
2026-01-28 00:03:41.15	23.23	18.19	-27.5	-29.3	14.4	1.50e-06	0	42	0	367001600	15	4421
2026-01-28 00:03:42.15	23.27	18.31	-27.3	-29.4	14.6	0.00e+00	0	42	0	370147328	14	4583
2026-01-28 00:03:43.16	23.31	18.43	-27.6	-29.6	14.3	0.00e+00	0	42	0	373293056	15	4508
2026-01-28 00:03:44.16	23.35	18.55	-27.9	-30.1	13.9	2.85e-04	0	42	0	376438784	15	4685
2026-01-28 00:03:45.16	23.39	18.67	-27.6	-29.5	14.3	1.50e-06	0	42	0	379584512	15	4494
2026-01-28 00:03:46.16	23.43	18.79	-27.3	-28.8	14.7	0.00e+00	0	42	0	382730240	15	4296
2026-01-28 00:03:47.17	23.47	18.91	-27.0	-28.6	15.1	0.00e+00	0	42	0	385875968	14	4343
2026-01-28 00:03:48.18	23.51	19.04	-26.8	-28.8	15.2	3.42e-04	0	42	0	389021696	13	4510
2026-01-28 00:03:49.18	23.56	19.16	-26.9	-29.0	15.2	0.00e+00	0	42	0	392167424	13	4569
2026-01-28 00:03:50.18	23.60	19.29	-26.9	-29.0	15.2	3.55e-04	0	42	0	395313152	13	4569
2026-01-28 00:03:51.19	23.64	19.41	-27.0	-28.7	15.1	0.00e+00	0	42	0	397410304	14	4363
2026-01-28 00:03:52.19	23.69	19.54	-26.9	-28.4	15.2	0.00e+00	0	42	0	400556032	14	4293
2026-01-28 00:03:53.20	23.73	19.66	-26.8	-28.7	15.3	3.48e-04	0	42	0	403701760	13	4485
2026-01-28 00:03:54.19	23.77	19.79	-26.8	-28.7	15.3	3.68e-04	0	42	0	406847488	13	4486
2026-01-28 00:03:55.20	23.82	19.92	-26.8	-28.8	15.3	0.00e+00	0	42	0	411041792	13	4505
2026-01-28 00:03:56.21	23.86	20.05	-26.9	-28.8	15.3	3.40e-04	0	42	0	414187520	13	4509
2026-01-28 00:03:57.21	23.91	20.18	-26.9	-29.0	15.2	3.23e-04	0	42	0	417333248	13	4560
2026-01-28 00:03:58.21	23.95	20.31	-26.7	-28.4	15.5	0.00e+00	0	42	0	419430400	13	4405
2026-01-28 00:03:59.21	24.00	20.44	-26.6	-28.2	15.6	2.82e-04	0	42	0	422576128	13	4347
2026-01-28 00:04:00.21	24.04	20.57	-26.5	-28.1	15.7	2.91e-04	0	42	0	425721856	13	4304
2026-01-28 00:04:01.22	24.09	20.70	-26.6	-28.1	15.7	0.00e+00	0	42	0	428867584	13	4321
2026-01-28 00:04:02.22	24.14	20.83	-26.6	-28.1	15.7	0.00e+00	0	42	0	432013312	13	4320
2026-01-28 00:04:03.23	24.18	20.97	-26.5	-28.0	15.8	2.11e-04	0	42	0	435159040	13	4292
2026-01-28 00:04:04.23	24.23	21.10	-26.6	-28.1	15.7	0.00e+00	0	42	0	438304768	13	4313
2026-01-28 00:04:05.24	24.28	21.23	-26.4	-27.8	15.9	1.23e-04	0	42	0	441450496	13	4228
2026-01-28 00:04:06.25	24.33	21.37	-26.5	-27.9	15.9	4.34e-05	0	42	0	444596224	13	4243
2026-01-28 00:04:07.25	24.38	21.51	-26.4	-27.8	15.9	0.00e+00	0	42	0	447741952	13	4227
2026-01-28 00:04:08.25	24.43	21.64	-26.3	-28.1	16.0	0.00e+00	0	42	0	450887680	12	4421
2026-01-28 00:04:09.25	24.47	21.78	-26.3	-28.1	16.0	0.00e+00	0	42	0	454033408	12	4415
2026-01-28 00:04:10.26	24.53	21.92	-26.4	-28.4	14.8	0.00e+00	0	42	0	457179136	12	4492
2026-01-28 00:04:11.26	24.58	22.06	-26.3	-28.0	15.6	0.00e+00	0	42	0	460324864	12	4378
2026-01-28 00:04:12.26	24.63	22.20	-26.2	-27.8	16.2	0.00e+00	0	42	0	463470592	12	4328
2026-01-28 00:04:13.27	24.68	22.34	-26.1	-27.6	16.3	0.00e+00	0	42	0	466616320	12	4283
2026-01-28 00:04:14.27	24.73	22.48	-26.2	-27.8	16.2	0.00e+00	0	42	0	469762048	12	4337
2026-01-28 00:04:15.27	24.78	22.62	-26.3	-28.1	16.1	0.00e+00	0	42	0	472907776	12	4404
2026-01-28 00:04:16.27	24.83	22.76	-26.4	-28.2	16.0	0.00e+00	0	42	0	476053504	12	4450
2026-01-28 00:04:17.27	24.88	22.90	-26.3	-28.1	16.0	0.00e+00	0	42	0	479199232	12	4411
2026-01-28 00:04:18.28	24.94	23.05	-26.5	-28.1	15.8	0.00e+00	0	42	0	482344960	13	4290
2026-01-28 00:04:19.28	24.99	23.19	-26.7	-28.4	15.6	9.92e-04	0	42	0	485490688	13	4398
2026-01-28 00:04:20.28	25.05	23.34	-26.8	-28.7	15.5	0.00e+00	0	42	0	488636416	13	4460
2026-01-28 00:04:21.29	25.10	23.49	-26.6	-28.1	15.8	0.00e+00	0	42	0	491782144	13	4314
2026-01-28 00:04:22.29	25.16	23.63	-26.8	-28.6	15.5	0.00e+00	0	42	0	494927872	13	4439
2026-01-28 00:04:23.30	25.21	23.78	-26.5	-28.4	15.9	1.45e-03	0	42	0	498073600	12	4499
2026-01-28 00:04:24.29	25.27	23.93	-26.2	-27.8	16.2	0.00e+00	0	42	0	501219328	12	4337
2026-01-28 00:04:25.30	25.32	24.08	-26.1	-27.5	16.4	1.87e-03	0	42	0	504365056	12	4252
2026-01-28 00:04:26.31	25.38	24.23	-26.2	-27.7	16.3	0.00e+00	0	42	0	507510784	12	4314
2026-01-28 00:04:27.30	25.44	24.38	-26.2	-27.7	16.3	0.00e+00	0	42	0	510656512	12	4313
2026-01-28 00:04:28.30	25.50	24.53	-26.2	-27.9	16.2	2.63e-03	0	42	0	513802240	12	4351
2026-01-28 00:04:29.31	25.56	24.69	-26.4	-27.7	16.0	2.68e-03	0	42	0	516947968	13	4196
2026-01-28 00:04:30.31	25.61	24.84	-26.1	-27.1	16.4	0.00e+00	0	42	0	520093696	13	4032
2026-01-28 00:04:31.32	25.67	25.00	-25.9	-27.2	16.6	2.87e-03	0	42	0	523239424	12	4182
2026-01-28 00:04:32.32	25.73	25.15	-26.0	-27.3	16.5	0.00e+00	0	42	0	526385152	12	4201
2026-01-28 00:04:33.32	25.80	25.31	-26.1	-27.5	16.4	0.00e+00	0	42	0	529530880	12	4254
2026-01-28 00:04:34.32	25.86	25.47	-26.2	-27.7	16.3	3.03e-03	0	42	0	532676608	12	4308
2026-01-28 00:04:35.33	25.92	25.63	-26.3	-27.9	16.2	2.98e-03	0	42	0	535822336	12	4364
2026-01-28 00:04:36.34	25.98	25.79	-26.3	-28.1	16.1	0.00e+00	0	42	0	538968064	12	4408
2026-01-28 00:04:37.34	26.04	25.95	-26.4	-28.2	16.1	0.00e+00	0	42	0	542113792	12	4449
2026-01-28 00:04:38.34	26.11	26.11	-26.4	-28.2	16.1	2.73e-03	0	42	0	545259520	12	4437
2026-01-28 00:04:39.34	26.17	26.27	-26.4	-28.2	16.1	0.00e+00	0	42	0	548405248	12	4454
2026-01-28 00:04:40.34	26.24	26.43	-26.4	-28.4	16.0	2.43e-03	0	42	0	551550976	12	4484
2026-01-28 00:04:41.35	26.30	26.60	-26.6	-28.1	15.9	2.59e-03	0	42	0	554696704	13	4299
2026-01-28 00:04:42.36	26.37	26.76	-26.8	-28.7	15.6	0.00e+00	0	42	0	557842432	13	4454
2026-01-28 00:04:43.36	26.44	26.93	-26.8	-28.8	15.5	2.54e-03	0	42	0	560988160	13	4485
2026-01-28 00:04:44.36	26.50	27.10	-26.7	-28.4	15.7	2.47e-03	0	42	0	564133888	13	4376
2026-01-28 00:04:45.36	26.57	27.26	-26.7	-28.3	15.8	0.00e+00	0	42	0	567279616	13	4362
2026-01-28 00:04:46.37	26.64	27.43	-26.8	-28.5	15.7	1.62e-03	0	42	0	570425344	13	4416
2026-01-28 00:04:47.37	26.71	27.60	-26.8	-28.6	15.6	0.00e+00	0	42	0	573571072	13	4443
2026-01-28 00:04:48.37	26.78	27.78	-26.9	-28.9	15.4	0.00e+00	0	42	0	576716800	13	4539
2026-01-28 00:04:49.37	26.85	27.95	-27.1	-28.8	15.3	1.15e-03	0	42	0	579862528	14	4388
2026-01-28 00:04:50.37	26.92	28.12	-27.3	-29.2	15.1	8.81e-04	0	42	0	583008256	14	4486
2026-01-28 00:04:51.37	27.00	28.29	-27.3	-29.3	15.0	0.00e+00	0	42	0	586153984	14	4529
2026-01-28 00:04:52.38	27.07	28.47	-27.5	-29.2	14.8	0.00e+00	0	42	0	589299712	15	4385
2026-01-28 00:04:53.38	27.14	28.65	-27.5	-29.2	14.8	0.00e+00	0	42	0	592445440	15	4373
2026-01-28 00:04:54.39	27.22	28.83	-27.6	-29.5	14.6	0.00e+00	0	42	0	595591168	15	4473
2026-01-28 00:04:55.39	27.29	29.00	-27.7	-29.8	14.4	5.59e-04	0	42	0	598736896	15	4545
2026-01-28 00:04:56.40	27.37	29.18	-27.6	-29.4	14.6	4.10e-04	0	42	0	601882624	15	4449
2026-01-28 00:04:57.40	27.45	29.36	-27.5	-29.2	14.8	7.00e-07	0	42	0	605028352	15	4371
2026-01-28 00:04:58.41	27.53	29.55	-27.4	-29.0	14.9	0.00e+00	0	42	0	608174080	15	4333
2026-01-28 00:04:59.41	27.60	29.73	-27.3	-28.8	15.0	0.00e+00	0	42	0	611319808	15	4272
2026-01-28 00:05:00.42	27.68	29.92	-27.2	-28.5	15.2	0.00e+00	0	42	0	614465536	15	4199
2026-01-28 00:05:01.42	27.77	30.10	-27.2	-28.6	15.2	3.94e-04	0	42	0	617611264	15	4213
2026-01-28 00:05:02.41	27.85	30.29	-27.3	-29.2	15.1	0.00e+00	0	42	0	620756992	14	4498
2026-01-28 00:05:03.42	27.93	30.47	-27.3	-29.2	15.1	0.00e+00	0	42	0	623902720	14	4498
2026-01-28 00:05:04.42	28.01	30.66	-27.0	-28.5	15.5	7.00e-07	0	42	0	627048448	14	4298
2026-01-28 00:05:05.42	28.10	30.85	-26.7	-27.9	15.8	0.00e+00	0	42	0	630194176	14	4131
2026-01-28 00:05:06.43	28.18	31.05	-26.5	-27.5	16.0	0.00e+00	0	42	0	633339904	14	4019
2026-01-28 00:05:07.43	28.27	31.24	-26.5	-28.0	16.0	0.00e+00	0	42	0	636485632	13	4259
2026-01-28 00:05:08.43	28.35	31.43	-26.5	-27.9	16.1	0.00e+00	0	42	0	639631360	13	4241
2026-01-28 00:05:09.43	28.44	31.62	-26.5	-28.0	16.0	0.00e+00	0	42	0	642777088	13	4261
2026-01-28 00:05:10.44	28.53	31.82	-26.5	-28.1	16.0	0.00e+00	0	42	0	645922816	13	4286
2026-01-28 00:05:11.44	28.62	32.02	-26.6	-28.2	16.0	0.00e+00	0	42	0	649068544	13	4308
2026-01-28 00:05:12.44	28.71	32.22	-26.7	-28.4	15.8	0.00e+00	0	42	0	652214272	13	4380
2026-01-28 00:05:13.45	28.80	32.42	-26.7	-28.4	15.8	0.00e+00	0	42	0	655360000	13	4386
2026-01-28 00:05:14.45	28.90	32.62	-26.8	-28.5	15.8	0.00e+00	0	42	0	658505728	13	4411
2026-01-28 00:05:15.45	28.99	32.82	-26.8	-28.6	15.7	0.00e+00	0	42	0	661651456	13	4441
2026-01-28 00:05:16.46	29.09	33.03	-26.9	-28.8	15.7	0.00e+00	0	42	0	664797184	13	4484
2026-01-28 00:05:17.46	29.18	33.23	-27.0	-29.0	15.5	0.00e+00	0	42	0	667942912	13	4557
2026-01-28 00:05:18.47	29.28	33.44	-27.2	-29.0	15.3	0.00e+00	0	42	0	671088640	14	4426
2026-01-28 00:05:19.47	29.38	33.65	-27.3	-29.4	15.1	0.00e+00	0	42	0	674234368	14	4543
2026-01-28 00:05:20.48	29.48	33.86	-27.3	-29.3	15.1	0.00e+00	0	42	0	677380096	14	4508
2026-01-28 00:05:21.48	29.58	34.07	-27.5	-29.6	14.9	0.00e+00	0	42	0	680525824	14	4617
2026-01-28 00:05:22.48	29.69	34.28	-27.5	-29.1	14.9	0.00e+00	0	42	0	683671552	15	4360
2026-01-28 00:05:23.48	29.79	34.49	-27.5	-29.3	14.8	0.00e+00	0	42	0	686817280	15	4404
2026-01-28 00:05:24.48	29.90	34.70	-27.6	-29.5	14.8	7.00e-07	0	42	0	689963008	15	4451
2026-01-28 00:05:25.48	30.00	34.92	-27.8	-29.8	14.5	7.00e-07	0	42	0	693108736	15	4559
2026-01-28 00:05:26.49	30.11	35.14	-27.9	-30.1	14.4	0.00e+00	0	42	0	696254464	15	4655
2026-01-28 00:05:27.50	30.22	35.36	-28.2	-30.3	14.2	2.20e-06	0	42	0	699400192	16	4586
2026-01-28 00:05:28.51	30.33	35.58	-28.3	-30.5	14.1	4.50e-06	0	42	0	702545920	16	4623
2026-01-28 00:05:29.51	30.45	35.80	-28.0	-29.9	14.4	0.00e+00	0	42	0	705691648	16	4450
2026-01-28 00:05:30.51	30.56	36.02	-27.9	-29.7	14.5	0.00e+00	0	42	0	708837376	16	4389
2026-01-28 00:05:31.50	30.67	36.24	-28.0	-29.8	14.5	4.42e-05	0	42	0	711983104	16	4413
2026-01-28 00:05:32.51	30.79	36.47	-28.1	-30.0	14.4	1.05e-04	0	42	0	715128832	16	4475
2026-01-28 00:05:33.51	30.91	36.70	-28.2	-30.2	14.2	3.00e-06	0	42	0	718274560	16	4558
2026-01-28 00:05:34.52	31.03	36.93	-28.2	-30.3	14.2	2.20e-06	0	42	0	721420288	16	4573
2026-01-28 00:05:35.52	31.15	37.16	-28.3	-30.5	14.1	6.10e-05	0	42	0	723517440	16	4641
2026-01-28 00:05:36.53	31.28	37.39	-28.2	-30.3	14.2	2.20e-06	0	42	0	726663168	16	4590
2026-01-28 00:05:37.54	31.40	37.63	-28.1	-29.9	14.4	3.66e-05	0	42	0	729808896	16	4468
2026-01-28 00:05:38.54	31.53	37.86	-28.0	-29.7	14.6	3.89e-05	0	42	0	732954624	16	4400
2026-01-28 00:05:39.55	31.66	38.10	-28.0	-29.7	14.5	0.00e+00	0	42	0	736100352	16	4411
2026-01-28 00:05:40.55	31.79	38.34	-28.1	-30.1	14.3	7.00e-07	0	42	0	740294656	16	4515
2026-01-28 00:05:41.55	31.92	38.57	-28.1	-30.0	14.3	1.50e-06	0	42	0	743440384	16	4493
2026-01-28 00:05:42.55	32.06	38.81	-28.1	-29.9	14.4	7.00e-07	0	42	0	745537536	16	4455
2026-01-28 00:05:43.56	32.19	39.06	-28.1	-30.0	14.4	4.04e-05	0	42	0	748683264	16	4489
2026-01-28 00:05:44.56	32.33	39.30	-28.2	-30.2	14.3	0.00e+00	0	42	0	751828992	16	4548
2026-01-28 00:05:45.56	32.47	39.55	-28.3	-30.5	14.2	0.00e+00	0	42	0	754974720	16	4626
2026-01-28 00:05:46.57	32.62	39.80	-28.3	-30.6	14.1	0.00e+00	0	42	0	758120448	16	4657
2026-01-28 00:05:47.57	32.76	40.04	-28.3	-30.6	14.1	9.15e-05	0	42	0	761266176	16	4662
2026-01-28 00:05:48.58	32.91	40.30	-28.5	-30.4	13.9	3.00e-06	0	42	0	764411904	17	4512
2026-01-28 00:05:49.57	33.06	40.54	-28.6	-30.8	13.7	8.30e-06	0	42	0	767557632	17	4622
2026-01-28 00:05:50.57	33.21	40.80	-28.9	-31.4	13.3	1.37e-05	0	42	0	770703360	17	4803
2026-01-28 00:05:51.58	33.36	41.05	-29.0	-31.3	13.1	2.59e-05	0	42	0	773849088	18	4654
2026-01-28 00:05:52.59	33.52	41.31	-29.2	-31.8	12.8	9.23e-05	0	42	0	776994816	18	4819
2026-01-28 00:05:53.60	33.68	41.57	-29.4	-32.2	12.5	9.61e-05	0	43	0	780140544	18	4977
2026-01-28 00:05:54.60	33.84	41.83	-29.4	-32.2	12.6	8.62e-05	0	42	0	783286272	18	4966
2026-01-28 00:05:55.61	34.00	42.09	-29.3	-31.9	12.7	8.77e-05	0	42	0	786432000	18	4876
2026-01-28 00:05:56.61	34.17	42.36	-29.3	-32.0	12.7	8.16e-05	0	43	0	789577728	18	4887
2026-01-28 00:05:57.61	34.34	42.62	-29.3	-31.9	12.8	4.66e-04	0	42	0	792723456	18	4849
2026-01-28 00:05:58.60	34.51	42.88	-29.1	-31.5	13.0	6.96e-04	0	42	0	795869184	18	4747
2026-01-28 00:05:59.61	34.68	43.15	-29.2	-31.7	12.8	4.80e-05	0	43	0	799014912	18	4807
2026-01-28 00:06:00.61	34.86	43.42	-29.3	-32.0	12.7	7.70e-05	0	42	0	802160640	18	4909
2026-01-28 00:06:01.62	35.04	43.70	-29.5	-31.9	12.4	1.20e-04	0	42	0	805306368	19	4760
2026-01-28 00:06:02.62	35.22	43.97	-29.8	-32.7	12.0	2.27e-04	0	42	0	808452096	19	5021
2026-01-28 00:06:03.62	35.41	44.24	-29.8	-32.6	12.0	9.28e-04	0	42	0	811597824	19	4990
2026-01-28 00:06:04.63	35.60	44.52	-29.8	-32.6	12.0	3.42e-04	0	42	0	814743552	19	4988
2026-01-28 00:06:05.63	35.79	44.80	-29.8	-32.8	11.9	3.55e-04	0	42	0	817889280	19	5048
2026-01-28 00:06:06.63	35.99	45.07	-29.7	-32.5	12.1	3.16e-04	0	42	0	821035008	19	4955
2026-01-28 00:06:07.63	36.19	45.35	-29.7	-32.3	12.1	5.31e-04	0	42	0	824180736	19	4889
2026-01-28 00:06:08.64	36.39	45.64	-29.8	-32.6	11.9	3.26e-04	0	42	0	827326464	19	4992
2026-01-28 00:06:09.64	36.60	45.92	-29.5	-31.9	12.3	9.12e-04	0	42	0	830472192	19	4761
2026-01-28 00:06:10.65	36.81	46.21	-29.3	-31.9	12.7	8.69e-04	0	42	0	833617920	18	4857
2026-01-28 00:06:11.65	37.02	46.50	-29.1	-31.4	13.1	2.82e-05	0	43	0	836763648	18	4689
2026-01-28 00:06:12.65	37.24	46.78	-29.0	-31.1	13.2	9.44e-04	0	42	0	839909376	18	4597
2026-01-28 00:06:13.66	37.46	47.08	-28.9	-31.4	13.3	1.07e-03	0	42	0	843055104	17	4804
2026-01-28 00:06:14.67	37.69	47.37	-28.9	-30.8	13.4	2.21e-05	0	43	0	846200832	18	4503
2026-01-28 00:06:15.67	37.92	47.66	-28.6	-30.7	13.7	9.19e-04	0	42	0	849346560	17	4586
2026-01-28 00:06:16.68	38.16	47.96	-28.4	-30.3	14.0	1.30e-03	0	42	0	852492288	17	4455
2026-01-28 00:06:17.68	38.40	48.26	-28.3	-29.9	14.2	1.50e-06	0	42	0	855638016	17	4336
2026-01-28 00:06:18.68	38.64	48.55	-28.3	-30.5	14.2	7.70e-04	0	42	0	858783744	16	4638
2026-01-28 00:06:19.68	38.89	48.85	-28.3	-30.5	14.2	6.26e-04	0	42	0	861929472	16	4616
2026-01-28 00:06:20.69	39.14	49.16	-28.4	-30.6	14.2	1.50e-06	0	42	0	865075200	16	4653
2026-01-28 00:06:21.69	39.40	49.46	-28.5	-30.5	13.9	4.68e-04	0	42	0	868220928	17	4521
2026-01-28 00:06:22.70	39.67	49.77	-28.6	-30.7	13.9	3.40e-04	0	43	0	871366656	17	4573
2026-01-28 00:06:23.70	39.93	50.07	-28.6	-30.6	13.9	5.30e-06	0	42	0	874512384	17	4537
2026-01-28 00:06:24.71	40.21	50.38	-28.6	-30.7	13.9	6.05e-04	0	43	0	877658112	17	4591
2026-01-28 00:06:25.72	40.49	50.69	-28.8	-31.1	13.6	6.52e-04	0	42	0	880803840	17	4700
2026-01-28 00:06:26.72	40.78	51.00	-28.8	-31.1	13.6	9.10e-06	0	42	0	883949568	17	4716
2026-01-28 00:06:27.73	41.07	51.31	-28.9	-31.3	13.5	8.30e-06	0	42	0	887095296	17	4781
2026-01-28 00:06:28.74	41.37	51.63	-29.0	-31.6	13.3	1.09e-03	0	42	0	890241024	17	4858
2026-01-28 00:06:29.74	41.67	51.94	-28.9	-31.0	13.5	1.44e-05	0	43	0	893386752	18	4554
2026-01-28 00:06:30.74	41.98	52.25	-28.5	-30.3	14.1	1.75e-03	0	43	0	896532480	17	4468
2026-01-28 00:06:31.75	42.30	52.57	-28.2	-29.8	14.4	0.00e+00	0	42	0	899678208	17	4300
2026-01-28 00:06:32.75	42.62	52.89	-28.1	-29.4	14.6	0.00e+00	0	42	0	902823936	17	4209
2026-01-28 00:06:33.75	42.95	53.21	-28.2	-30.1	14.5	0.00e+00	0	43	0	905969664	16	4518
2026-01-28 00:06:34.75	43.29	53.52	-27.8	-29.9	14.8	8.43e-04	0	43	0	909115392	15	4585
2026-01-28 00:06:35.76	43.64	53.85	-28.1	-30.0	14.6	7.00e-07	0	43	0	912261120	16	4481
2026-01-28 00:06:36.77	43.99	54.17	-28.2	-30.4	14.4	7.00e-07	0	43	0	915406848	16	4591
2026-01-28 00:06:37.77	44.35	54.49	-28.3	-30.6	14.3	0.00e+00	0	43	0	918552576	16	4656
2026-01-28 00:06:38.78	44.72	54.82	-28.1	-30.1	14.6	7.00e-07	0	43	0	921698304	16	4513
2026-01-28 00:06:39.79	45.10	55.14	-27.9	-29.5	14.8	0.00e+00	0	42	0	924844032	16	4341
2026-01-28 00:06:40.79	45.49	55.47	-27.7	-29.6	14.9	0.00e+00	0	42	0	927989760	15	4485
2026-01-28 00:06:41.80	45.89	55.80	-27.7	-29.6	15.0	0.00e+00	0	43	0	931135488	15	4474
2026-01-28 00:06:42.81	46.29	56.12	-27.6	-29.5	15.1	0.00e+00	0	42	0	934281216	15	4434
2026-01-28 00:06:43.82	46.71	56.45	-27.6	-29.3	15.2	0.00e+00	0	42	0	937426944	15	4395
2026-01-28 00:06:44.82	47.13	56.78	-27.6	-29.4	15.1	0.00e+00	0	42	0	940572672	15	4412
2026-01-28 00:06:45.83	47.57	57.11	-27.5	-29.1	15.2	0.00e+00	0	43	0	943718400	15	4350
2026-01-28 00:06:46.83	48.01	57.44	-27.5	-29.1	15.3	0.00e+00	0	43	0	946864128	15	4331
2026-01-28 00:06:47.83	48.47	57.76	-27.5	-29.1	15.3	0.00e+00	0	42	0	950009856	15	4340
2026-01-28 00:06:48.83	48.93	58.09	-27.5	-29.0	15.3	0.00e+00	0	42	0	953155584	15	4309
2026-01-28 00:06:49.82	49.40	58.42	-27.3	-28.5	15.6	0.00e+00	0	43	0	956301312	15	4175
2026-01-28 00:06:50.83	49.90	58.75	-27.2	-28.3	15.7	0.00e+00	0	42	0	959447040	15	4120
2026-01-28 00:06:51.83	50.40	59.07	-27.1	-28.8	15.7	0.00e+00	0	42	0	962592768	14	4349
2026-01-28 00:06:52.83	50.91	59.40	-27.0	-28.5	15.9	0.00e+00	0	43	0	965738496	14	4269
2026-01-28 00:06:53.83	51.43	59.73	-26.9	-28.4	16.0	0.00e+00	0	42	0	968884224	14	4237
2026-01-28 00:06:54.83	51.97	60.05	-27.1	-28.8	15.7	9.10e-06	0	42	0	972029952	14	4344
2026-01-28 00:06:55.84	52.53	60.38	-26.7	-27.9	16.1	1.29e-05	0	42	0	975175680	14	4119
2026-01-28 00:06:56.85	53.10	60.71	-27.0	-28.4	16.0	0.00e+00	0	43	0	978321408	14	4232
2026-01-28 00:06:57.85	53.69	61.04	-26.6	-28.0	16.4	0.00e+00	0	42	0	981467136	13	4251
2026-01-28 00:06:58.86	54.29	61.36	-26.2	-27.2	16.8	7.00e-07	0	42	0	984612864	13	4030
2026-01-28 00:06:59.86	54.90	61.68	-26.2	-27.3	16.8	0.00e+00	0	42	0	987758592	13	4069
2026-01-28 00:07:00.87	55.54	62.01	-26.3	-27.8	16.8	5.34e-05	0	42	0	990904320	12	4322
2026-01-28 00:07:01.87	56.18	62.33	-26.0	-27.2	17.1	5.03e-05	0	42	0	994050048	12	4139
2026-01-28 00:07:02.87	56.84	62.64	-25.6	-26.4	17.6	0.00e+00	0	43	0	997195776	12	3935
2026-01-28 00:07:03.88	57.53	62.96	-25.6	-26.4	17.6	7.00e-07	0	43	0	1000341504	12	3940
2026-01-28 00:07:04.88	58.23	63.28	-25.7	-26.5	17.5	6.10e-06	0	43	0	1003487232	12	3972
2026-01-28 00:07:05.88	58.95	63.59	-25.6	-26.3	17.6	0.00e+00	0	42	0	1006632960	12	3923
2026-01-28 00:07:06.88	59.68	63.90	-25.7	-26.5	17.5	5.30e-06	0	43	0	1009778688	12	3968
2026-01-28 00:07:07.89	60.45	64.21	-25.9	-27.0	17.3	0.00e+00	0	43	0	1012924416	12	4090
2026-01-28 00:07:08.89	61.22	64.51	-26.2	-27.6	16.9	0.00e+00	0	42	0	1016070144	12	4245
2026-01-28 00:07:09.89	62.02	64.81	-25.8	-26.8	17.3	6.94e-05	0	43	0	1019215872	12	4029
2026-01-28 00:07:10.88	62.83	65.11	-25.3	-25.8	17.9	6.10e-05	0	42	0	1022361600	12	3791
2026-01-28 00:07:11.88	63.67	65.40	-25.3	-26.1	18.0	0.00e+00	0	43	0	1025507328	11	3980
2026-01-28 00:07:12.89	64.54	65.69	-25.6	-26.9	17.6	0.00e+00	0	43	0	1028653056	11	4186
2026-01-28 00:07:13.89	65.43	65.98	-26.0	-27.3	17.2	3.80e-06	0	43	0	1031798784	12	4169
2026-01-28 00:07:14.89	66.33	66.26	-25.7	-26.6	17.4	0.00e+00	0	43	0	1034944512	12	4000
2026-01-28 00:07:15.90	67.28	66.54	-25.7	-27.0	17.6	0.00e+00	0	43	0	1038090240	11	4198
2026-01-28 00:07:16.91	68.24	66.82	-25.8	-27.3	17.5	0.00e+00	0	43	0	1041235968	11	4278
2026-01-28 00:07:17.92	69.23	67.09	-25.8	-27.4	17.5	0.00e+00	0	42	0	1044381696	11	4301
2026-01-28 00:07:18.92	70.24	67.35	-26.0	-27.3	17.2	0.00e+00	0	43	0	1047527424	12	4182
2026-01-28 00:07:19.92	71.27	67.61	-25.9	-26.9	17.4	2.20e-06	0	43	0	1050673152	12	4078
2026-01-28 00:07:20.93	72.34	67.86	-25.7	-26.5	17.5	0.00e+00	0	42	0	1053818880	12	3972
2026-01-28 00:07:21.93	73.43	68.10	-25.8	-27.4	17.5	0.00e+00	0	42	0	1056964608	11	4302
2026-01-28 00:07:22.93	74.54	68.34	-25.8	-27.3	17.5	7.60e-06	0	43	0	1060110336	11	4284
2026-01-28 00:07:23.93	75.67	68.57	-25.8	-27.2	17.5	0.00e+00	0	42	0	1063256064	11	4261
2026-01-28 00:07:24.94	76.85	68.80	-25.9	-27.4	17.4	0.00e+00	0	43	0	1066401792	11	4308
2026-01-28 00:07:25.94	78.04	69.01	-25.9	-27.4	17.5	0.00e+00	0	42	0	1068498944	11	4309
2026-01-28 00:07:26.95	79.26	69.22	-26.2	-27.7	17.0	0.00e+00	0	43	0	1072693248	12	4287
2026-01-28 00:07:27.96	80.52	69.42	-26.1	-27.6	17.0	0.00e+00	0	43	0	1075838976	12	4247
2026-01-28 00:07:28.97	81.80	69.61	-26.6	-28.0	16.6	3.80e-06	0	43	0	1078984704	13	4252
2026-01-28 00:07:29.97	83.09	69.79	-26.0	-26.8	17.2	0.00e+00	0	42	0	1082130432	13	3931
2026-01-28 00:07:30.98	84.42	69.97	-25.8	-26.9	16.2	0.00e+00	0	43	0	1085276160	12	4073
2026-01-28 00:07:31.98	85.76	70.13	-25.8	-26.8	17.5	0.00e+00	0	42	0	1088421888	12	4031
2026-01-28 00:07:32.98	87.12	70.28	-25.4	-26.4	17.7	0.00e+00	0	43	0	1091567616	11	4035
2026-01-28 00:07:33.99	88.52	70.42	-25.5	-26.7	17.9	0.00e+00	0	43	0	1093664768	11	4113
2026-01-28 00:07:35.00	89.94	70.55	-25.3	-26.3	18.1	0.00e+00	0	42	0	1097859072	11	4009
2026-01-28 00:07:36.00	91.37	70.67	-25.3	-26.7	18.1	0.00e+00	0	42	0	1101004800	10	4227
2026-01-28 00:07:37.00	92.81	70.78	-25.5	-26.6	17.9	0.00e+00	0	42	0	1104150528	11	4095
2026-01-28 00:07:38.00	94.27	70.88	-25.4	-26.5	17.9	1.46e-04	0	43	0	1107296256	11	4066
2026-01-28 00:07:39.00	95.74	70.96	-25.7	-27.2	17.5	3.24e-03	0	43	0	1110441984	11	4243
2026-01-28 00:07:40.01	97.25	71.04	-25.9	-27.1	17.3	0.00e+00	0	43	0	1113587712	12	4120
2026-01-28 00:07:41.01	98.74	71.10	-25.7	-26.6	17.6	0.00e+00	0	43	0	1116733440	12	3993
2026-01-28 00:07:42.02	100.27	71.15	-25.7	-27.1	17.6	2.09e-03	0	42	0	1118830592	11	4230
2026-01-28 00:07:43.02	101.78	71.19	-26.1	-27.6	17.0	2.32e-03	0	42	0	1121976320	12	4239
2026-01-28 00:07:44.02	103.31	71.21	-25.9	-27.0	17.4	0.00e+00	0	43	0	1125122048	12	4100
2026-01-28 00:07:45.03	104.84	71.22	-25.7	-27.0	17.7	0.00e+00	0	42	0	1128267776	11	4196
2026-01-28 00:07:46.03	106.37	71.22	-25.5	-26.7	17.8	0.00e+00	0	43	0	1131413504	11	4105
2026-01-28 00:07:47.03	107.89	71.21	-25.5	-26.6	17.9	0.00e+00	0	42	0	1134559232	11	4091
2026-01-28 00:07:48.04	109.43	71.18	-26.2	-27.6	17.1	9.73e-04	0	42	0	1137704960	12	4251
2026-01-28 00:07:49.04	110.95	71.14	-26.2	-27.7	17.1	1.04e-03	0	42	0	1140850688	12	4291
2026-01-28 00:07:50.05	112.47	71.09	-26.5	-27.8	16.7	0.00e+00	0	43	0	1143996416	13	4191
2026-01-28 00:07:51.05	113.97	71.03	-26.7	-28.3	16.5	1.13e-03	0	43	0	1147142144	13	4335
2026-01-28 00:07:52.05	115.45	70.96	-25.9	-27.1	17.4	2.21e-03	0	42	0	1150287872	12	4108
2026-01-28 00:07:53.06	116.94	70.87	-25.6	-26.4	17.8	0.00e+00	0	43	0	1153433600	12	3929
2026-01-28 00:07:54.06	118.40	70.77	-25.5	-26.2	17.9	1.52e-04	0	42	0	1156579328	12	3883
2026-01-28 00:07:55.06	119.84	70.66	-26.0	-27.3	17.2	2.21e-05	0	43	0	1159725056	12	4163
2026-01-28 00:07:56.07	121.28	70.54	-26.3	-27.9	16.9	0.00e+00	0	42	0	1162870784	12	4337
2026-01-28 00:07:57.07	122.69	70.41	-26.3	-28.0	16.9	1.65e-03	0	43	0	1166016512	12	4352
2026-01-28 00:07:58.07	124.07	70.27	-26.3	-28.0	16.9	2.47e-03	0	42	0	1169162240	12	4356
2026-01-28 00:07:59.07	125.43	70.11	-26.5	-28.3	16.8	0.00e+00	0	43	0	1172307968	12	4452
2026-01-28 00:08:00.08	126.79	69.95	-26.5	-27.8	16.7	2.54e-03	0	42	0	1175453696	13	4191
2026-01-28 00:08:01.09	128.11	69.78	-26.8	-28.6	16.3	1.49e-04	0	43	0	1178599424	13	4401
2026-01-28 00:08:02.09	129.40	69.59	-26.2	-27.3	17.0	0.00e+00	0	42	0	1181745152	13	4054
2026-01-28 00:08:03.09	130.67	69.40	-25.8	-26.8	17.6	2.52e-03	0	42	0	1184890880	12	4030
2026-01-28 00:08:04.09	131.91	69.20	-25.8	-27.3	17.6	2.14e-03	0	42	0	1188036608	11	4281
2026-01-28 00:08:05.09	133.13	69.00	-25.4	-26.4	18.1	0.00e+00	0	42	0	1191182336	11	4048
2026-01-28 00:08:06.10	134.33	68.78	-25.9	-27.4	17.6	0.00e+00	0	42	0	1194328064	11	4307
2026-01-28 00:08:07.10	135.49	68.55	-26.3	-27.9	17.0	0.00e+00	0	43	0	1197473792	12	4308
2026-01-28 00:08:08.11	136.64	68.32	-26.2	-27.6	17.2	0.00e+00	0	42	0	1200619520	12	4245
2026-01-28 00:08:09.11	137.74	68.08	-25.7	-26.5	17.8	3.89e-04	0	43	0	1203765248	12	3959
2026-01-28 00:08:10.11	138.83	67.84	-25.3	-26.1	18.3	1.93e-03	0	43	0	1206910976	11	3979
2026-01-28 00:08:11.11	139.89	67.59	-25.2	-25.9	18.3	0.00e+00	0	43	0	1210056704	11	3919
2026-01-28 00:08:12.12	140.93	67.33	-25.4	-26.8	18.1	0.00e+00	0	42	0	1213202432	10	4265
2026-01-28 00:08:13.12	141.93	67.06	-25.9	-27.1	17.4	0.00e+00	0	43	0	1216348160	12	4117
2026-01-28 00:08:14.12	142.92	66.79	-26.4	-28.1	16.9	0.00e+00	0	43	0	1219493888	12	4370
2026-01-28 00:08:15.12	143.87	66.52	-26.0	-27.2	17.4	3.21e-03	0	42	0	1222639616	12	4146
2026-01-28 00:08:16.12	144.80	66.24	-25.2	-25.9	18.3	0.00e+00	0	43	0	1225785344	11	3926
2026-01-28 00:08:17.12	145.71	65.96	-25.1	-25.7	18.5	0.00e+00	0	42	0	1228931072	11	3861
2026-01-28 00:08:18.12	146.60	65.67	-25.6	-26.8	17.9	7.00e-07	0	43	0	1232076800	11	4130
2026-01-28 00:08:19.13	147.47	65.38	-26.2	-27.6	17.2	0.00e+00	0	43	0	1235222528	12	4256
2026-01-28 00:08:20.14	148.32	65.08	-27.0	-28.9	16.2	0.00e+00	0	43	0	1238368256	13	4496
2026-01-28 00:08:21.14	149.13	64.78	-26.5	-28.0	16.7	0.00e+00	0	43	0	1241513984	13	4237
2026-01-28 00:08:22.15	149.94	64.48	-25.5	-26.2	17.9	0.00e+00	0	42	0	1244659712	12	3892
2026-01-28 00:08:23.15	150.71	64.17	-25.3	-26.1	18.2	0.00e+00	0	43	0	1247805440	11	3968
2026-01-28 00:08:24.15	151.47	63.86	-25.9	-27.5	17.5	0.00e+00	0	42	0	1250951168	11	4326
2026-01-28 00:08:25.16	152.21	63.55	-26.3	-27.8	16.9	0.00e+00	0	42	0	1254096896	12	4302
2026-01-28 00:08:26.17	152.94	63.23	-27.7	-29.7	15.2	0.00e+00	0	43	0	1257242624	15	4494
2026-01-28 00:08:27.17	153.63	62.92	-28.2	-30.1	14.9	7.00e-07	0	42	0	1260388352	16	4501
2026-01-28 00:08:28.17	154.31	62.60	-28.0	-29.8	15.0	3.00e-06	0	43	0	1263534080	16	4399
2026-01-28 00:08:29.17	154.98	62.28	-26.8	-27.6	16.4	0.00e+00	0	43	0	1266679808	15	3916
2026-01-28 00:08:30.18	155.63	61.96	-25.9	-26.6	17.4	0.00e+00	0	42	0	1269825536	13	3876
2026-01-28 00:08:31.18	156.25	61.64	-25.8	-26.9	17.4	0.00e+00	0	43	0	1272971264	12	4061
2026-01-28 00:08:32.19	156.87	61.31	-26.6	-28.0	16.6	0.00e+00	0	43	0	1276116992	13	4248
2026-01-28 00:08:33.19	157.47	60.99	-27.6	-29.2	15.4	4.50e-06	0	43	0	1279262720	15	4364
2026-01-28 00:08:34.19	158.05	60.66	-28.5	-30.4	14.4	1.14e-05	0	43	0	1282408448	17	4466
2026-01-28 00:08:35.19	158.62	60.34	-27.6	-28.8	15.5	0.00e+00	0	43	0	1285554176	16	4119
2026-01-28 00:08:36.20	159.17	60.01	-26.2	-27.1	17.0	0.00e+00	0	43	0	1288699904	13	4022
2026-01-28 00:08:37.20	159.71	59.68	-25.4	-26.0	17.9	0.00e+00	0	43	0	1291845632	12	3832
2026-01-28 00:08:38.21	160.24	59.35	-25.5	-26.3	17.8	0.00e+00	0	43	0	1294991360	12	3903
2026-01-28 00:08:39.22	160.76	59.02	-26.2	-27.7	16.9	0.00e+00	0	43	0	1298137088	12	4282
2026-01-28 00:08:40.22	161.26	58.69	-27.3	-29.2	15.7	0.00e+00	0	43	0	1301282816	14	4473
2026-01-28 00:08:41.23	161.75	58.36	-28.5	-30.9	14.4	7.00e-07	0	43	0	1304428544	16	4739
2026-01-28 00:08:42.24	162.23	58.02	-28.1	-29.5	14.8	0.00e+00	0	43	0	1307574272	17	4229
2026-01-28 00:08:43.25	162.70	57.69	-27.4	-28.4	15.6	0.00e+00	0	43	0	1310720000	16	4007
2026-01-28 00:08:44.25	163.15	57.36	-26.8	-28.0	16.2	0.00e+00	0	43	0	1313865728	14	4140
2026-01-28 00:08:45.25	163.60	57.04	-26.7	-27.8	16.4	0.00e+00	0	43	0	1317011456	14	4065
2026-01-28 00:08:46.26	164.03	56.70	-26.3	-27.4	16.9	0.00e+00	0	43	0	1320157184	13	4078
2026-01-28 00:08:47.26	164.45	56.38	-26.9	-28.7	16.1	0.00e+00	0	42	0	1323302912	13	4423
2026-01-28 00:08:48.27	164.87	56.05	-28.2	-30.1	14.7	0.00e+00	0	43	0	1326448640	16	4488
2026-01-28 00:08:49.27	165.27	55.72	-29.3	-31.8	13.1	3.35e-05	0	43	0	1329594368	18	4817
2026-01-28 00:08:50.27	165.67	55.39	-29.4	-32.0	13.1	4.34e-05	0	42	0	1332740096	18	4863
2026-01-28 00:08:51.27	166.05	55.07	-28.8	-30.6	13.8	1.06e-05	0	43	0	1335885824	18	4429
2026-01-28 00:08:52.28	166.43	54.74	-28.3	-30.0	14.4	7.00e-07	0	42	0	1339031552	17	4366
2026-01-28 00:08:53.29	166.80	54.42	-28.2	-29.7	14.6	7.00e-07	0	43	0	1342177280	17	4289
2026-01-28 00:08:54.30	167.16	54.09	-28.2	-29.6	14.7	1.50e-06	0	43	0	1345323008	17	4251
2026-01-28 00:08:55.30	167.52	53.77	-28.0	-29.3	14.9	0.00e+00	0	43	0	1348468736	17	4154
2026-01-28 00:08:56.30	167.86	53.45	-28.5	-30.4	14.3	7.00e-07	0	43	0	1351614464	17	4480
2026-01-28 00:08:57.31	168.20	53.12	-29.2	-31.5	13.2	1.44e-05	0	43	0	1354760192	18	4723
2026-01-28 00:08:58.31	168.53	52.81	-29.7	-32.4	12.4	7.93e-05	0	43	0	1357905920	19	4906
2026-01-28 00:08:59.31	168.85	52.49	-30.0	-32.5	12.0	4.42e-04	0	43	0	1361051648	20	4834
2026-01-28 00:09:00.32	169.17	52.17	-29.8	-32.0	12.3	1.86e-04	0	43	0	1364197376	20	4650
2026-01-28 00:09:01.32	169.48	51.85	-29.5	-31.4	12.6	1.33e-04	0	43	0	1367343104	20	4469
2026-01-28 00:09:02.33	169.78	51.54	-29.3	-31.2	13.1	4.57e-05	0	43	0	1370488832	19	4487
2026-01-28 00:09:03.33	170.08	51.22	-28.9	-30.4	13.7	9.90e-06	0	43	0	1373634560	19	4255
2026-01-28 00:09:04.33	170.37	50.91	-28.9	-30.4	13.7	5.30e-06	0	43	0	1376780288	19	4243
2026-01-28 00:09:05.33	170.65	50.60	-29.2	-31.1	13.2	2.44e-05	0	43	0	1379926016	19	4453
2026-01-28 00:09:06.34	170.93	50.29	-29.5	-31.8	12.8	3.20e-05	0	43	0	1383071744	19	4689
2026-01-28 00:09:07.34	171.21	49.98	-30.2	-33.2	11.5	5.03e-04	0	43	0	1386217472	20	5080
2026-01-28 00:09:08.34	171.47	49.68	-30.4	-33.6	11.3	8.78e-04	0	43	0	1389363200	20	5228
2026-01-28 00:09:09.35	171.74	49.37	-30.6	-33.7	10.8	2.97e-03	0	43	0	1392508928	21	5157
2026-01-28 00:09:10.35	172.00	49.07	-30.4	-33.2	11.2	1.38e-03	0	43	0	1395654656	21	4958
2026-01-28 00:09:11.36	172.25	48.76	-30.2	-32.7	11.6	8.93e-04	0	43	0	1398800384	21	4790
2026-01-28 00:09:12.36	172.50	48.46	-29.6	-31.7	12.5	2.40e-04	0	43	0	1401946112	20	4543
2026-01-28 00:09:13.36	172.74	48.16	-28.8	-30.1	13.8	1.29e-05	0	43	0	1405091840	19	4168
2026-01-28 00:09:14.37	172.98	47.86	-28.4	-29.6	14.3	0.00e+00	0	43	0	1408237568	18	4123
2026-01-28 00:09:15.37	173.21	47.57	-28.6	-30.0	14.0	1.50e-06	0	43	0	1411383296	18	4258
2026-01-28 00:09:16.38	173.45	47.27	-29.0	-31.1	13.5	6.10e-06	0	43	0	1414529024	18	4568
2026-01-28 00:09:17.39	173.67	46.98	-29.1	-31.2	13.4	1.94e-04	0	43	0	1417674752	18	4609
2026-01-28 00:09:18.39	173.89	46.69	-29.2	-31.4	13.1	3.36e-04	0	43	0	1420820480	18	4681
2026-01-28 00:09:19.40	174.11	46.39	-29.1	-31.3	13.3	1.67e-05	0	43	0	1423966208	18	4642
2026-01-28 00:09:20.40	174.33	46.11	-29.1	-31.4	13.3	2.51e-05	0	43	0	1427111936	18	4670
2026-01-28 00:09:21.40	174.54	45.82	-29.1	-31.2	13.4	6.16e-04	0	43	0	1430257664	18	4614
2026-01-28 00:09:22.40	174.74	45.54	-28.9	-30.8	13.7	4.50e-06	0	43	0	1433403392	18	4492
2026-01-28 00:09:23.41	174.95	45.25	-28.8	-30.6	13.8	5.21e-04	0	43	0	1436549120	18	4412
2026-01-28 00:09:24.41	175.15	44.97	-29.0	-31.1	13.5	4.75e-04	0	43	0	1439694848	18	4559
2026-01-28 00:09:25.41	175.34	44.69	-29.6	-32.1	12.5	4.19e-05	0	43	0	1442840576	19	4803
2026-01-28 00:09:26.42	175.53	44.41	-30.2	-33.0	11.6	5.54e-04	0	43	0	1445986304	20	5022
2026-01-28 00:09:27.42	175.72	44.13	-30.0	-32.6	11.8	6.67e-04	0	43	0	1449132032	20	4876
2026-01-28 00:09:28.43	175.91	43.86	-29.7	-31.9	12.3	1.98e-04	0	43	0	1452277760	20	4642
2026-01-28 00:09:29.44	176.09	43.58	-29.4	-31.2	12.7	6.48e-05	0	43	0	1455423488	20	4390
2026-01-28 00:09:30.45	176.28	43.31	-29.4	-31.1	12.7	8.16e-05	0	43	0	1458569216	20	4363
2026-01-28 00:09:31.45	176.45	43.04	-29.5	-31.2	12.7	8.92e-05	0	43	0	1461714944	20	4416
2026-01-28 00:09:32.45	176.63	42.77	-29.7	-31.8	12.3	9.38e-05	0	43	0	1464860672	20	4585
2026-01-28 00:09:33.45	176.80	42.50	-29.8	-32.2	12.0	3.05e-04	0	43	0	1468006400	20	4738
2026-01-28 00:09:34.45	176.96	42.24	-29.7	-31.9	12.2	3.43e-04	0	43	0	1471152128	20	4622
2026-01-28 00:09:35.45	177.13	41.97	-29.5	-31.4	12.5	1.52e-04	0	43	0	1474297856	20	4479
2026-01-28 00:09:36.46	177.29	41.71	-29.5	-31.4	12.6	9.15e-05	0	43	0	1477443584	20	4459
2026-01-28 00:09:37.46	177.45	41.45	-29.5	-31.3	12.6	1.46e-04	0	43	0	1480589312	20	4428
2026-01-28 00:09:38.47	177.61	41.19	-29.3	-31.3	13.0	1.71e-04	0	43	0	1483735040	19	4530
2026-01-28 00:09:39.47	177.77	40.93	-28.8	-30.5	13.7	1.56e-04	0	43	0	1486880768	18	4395
2026-01-28 00:09:40.47	177.92	40.68	-28.7	-30.3	13.8	5.30e-06	0	43	0	1488977920	18	4335
2026-01-28 00:09:41.47	178.07	40.42	-28.9	-30.9	13.6	7.60e-06	0	43	0	1492123648	18	4531
2026-01-28 00:09:42.48	178.22	40.17	-29.3	-31.8	13.0	5.45e-04	0	43	0	1495269376	18	4794
2026-01-28 00:09:43.49	178.37	39.92	-29.6	-32.0	12.6	6.86e-05	0	43	0	1498415104	19	4768
2026-01-28 00:09:44.49	178.51	39.67	-29.7	-32.3	12.4	1.06e-03	0	43	0	1501560832	19	4856
2026-01-28 00:09:45.49	178.65	39.42	-29.4	-31.6	12.8	9.61e-05	0	43	0	1504706560	19	4648
2026-01-28 00:09:46.50	178.80	39.17	-29.1	-30.9	13.2	3.96e-05	0	43	0	1508900864	19	4419
2026-01-28 00:09:47.50	178.93	38.93	-28.9	-30.9	13.5	1.14e-05	0	43	0	1510998016	18	4510
2026-01-28 00:09:48.51	179.07	38.68	-28.9	-31.5	13.5	8.30e-06	0	43	0	1514143744	17	4811
2026-01-28 00:09:49.52	179.21	38.44	-28.9	-30.9	13.6	1.75e-05	0	43	0	1517289472	18	4512
2026-01-28 00:09:50.51	179.34	38.20	-28.6	-30.5	14.0	3.00e-06	0	43	0	1520435200	17	4510
2026-01-28 00:09:51.52	179.47	37.96	-28.3	-30.0	14.3	2.20e-06	0	43	0	1523580928	17	4369
2026-01-28 00:09:52.52	179.59	37.72	-28.2	-29.8	14.4	1.50e-06	0	43	0	1526726656	17	4291
2026-01-28 00:09:53.53	179.72	37.49	-28.2	-30.2	14.5	0.00e+00	0	43	0	1529872384	16	4517
2026-01-28 00:09:54.53	179.85	37.25	-28.0	-30.2	14.6	0.00e+00	0	43	0	1533018112	15	4640
2026-01-28 00:09:55.54	179.97	37.02	-28.2	-30.2	14.4	7.00e-07	0	43	0	1536163840	16	4543
2026-01-28 00:09:56.54	180.09	36.79	-28.3	-30.5	14.3	2.20e-06	0	43	0	1539309568	16	4619
2026-01-28 00:09:57.54	180.21	36.56	-28.1	-30.0	14.5	1.50e-06	0	43	0	1542455296	16	4481
2026-01-28 00:09:58.55	180.33	36.33	-28.0	-29.8	14.7	1.50e-06	0	43	0	1545601024	16	4418
2026-01-28 00:09:59.55	180.45	36.10	-27.9	-30.2	14.6	7.00e-07	0	43	0	1548746752	15	4643
2026-01-28 00:10:00.56	180.56	35.88	-28.1	-30.0	14.6	7.00e-07	0	43	0	1551892480	16	4485
2026-01-28 00:10:01.56	180.68	35.65	-28.0	-29.6	14.8	0.00e+00	0	43	0	1555038208	16	4366
2026-01-28 00:10:02.56	180.79	35.43	-28.1	-29.9	14.6	1.50e-06	0	43	0	1558183936	16	4445
2026-01-28 00:10:03.57	180.90	35.21	-28.0	-29.7	14.7	6.80e-06	0	43	0	1561329664	16	4388
2026-01-28 00:10:04.56	181.01	34.99	-28.0	-29.7	14.8	0.00e+00	0	43	0	1564475392	16	4375
2026-01-28 00:10:05.57	181.12	34.77	-28.2	-30.1	14.5	1.50e-06	0	43	0	1567621120	16	4511
2026-01-28 00:10:06.57	181.22	34.56	-28.3	-30.5	14.3	6.10e-06	0	43	0	1570766848	16	4640
2026-01-28 00:10:07.58	181.33	34.34	-28.5	-30.6	13.9	7.00e-07	0	43	0	1573912576	17	4542
2026-01-28 00:10:08.58	181.43	34.13	-28.7	-31.1	13.6	7.60e-06	0	42	0	1577058304	17	4699
2026-01-28 00:10:09.59	181.53	33.91	-28.8	-31.2	13.5	7.60e-06	0	43	0	1580204032	17	4759
2026-01-28 00:10:10.59	181.63	33.70	-28.8	-31.1	13.6	1.22e-05	0	43	0	1583349760	17	4703
2026-01-28 00:10:11.59	181.73	33.49	-28.6	-30.8	13.8	8.30e-06	0	43	0	1586495488	17	4607
2026-01-28 00:10:12.60	181.83	33.28	-28.5	-30.4	14.0	3.00e-06	0	43	0	1589641216	17	4490
2026-01-28 00:10:13.60	181.93	33.08	-28.4	-30.3	14.1	1.50e-06	0	43	0	1592786944	17	4446
2026-01-28 00:10:14.60	182.03	32.87	-28.5	-30.5	14.0	8.30e-06	0	43	0	1595932672	17	4502
2026-01-28 00:10:15.61	182.12	32.67	-28.2	-29.8	14.4	2.20e-06	0	43	0	1599078400	17	4304
2026-01-28 00:10:16.61	182.22	32.46	-28.0	-29.4	14.6	0.00e+00	0	43	0	1602224128	17	4191
2026-01-28 00:10:17.62	182.31	32.26	-28.2	-30.2	14.4	1.50e-06	0	43	0	1605369856	16	4547
2026-01-28 00:10:18.61	182.40	32.06	-28.1	-29.9	14.6	3.80e-06	0	43	0	1608515584	16	4447
2026-01-28 00:10:19.62	182.49	31.86	-27.8	-29.4	14.9	0.00e+00	0	43	0	1611661312	16	4292
2026-01-28 00:10:20.62	182.58	31.66	-27.7	-29.6	14.9	0.00e+00	0	43	0	1614807040	15	4475
2026-01-28 00:10:21.63	182.67	31.47	-27.7	-29.6	14.8	7.00e-07	0	43	0	1617952768	15	4486
2026-01-28 00:10:22.63	182.76	31.27	-27.9	-30.1	14.6	7.00e-07	0	43	0	1621098496	15	4633
2026-01-28 00:10:23.63	182.84	31.08	-28.1	-30.0	14.5	7.60e-06	0	43	0	1624244224	16	4468
2026-01-28 00:10:24.63	182.93	30.89	-28.1	-30.0	14.5	0.00e+00	0	43	0	1627389952	16	4494
2026-01-28 00:10:25.63	183.01	30.69	-28.0	-29.7	14.6	0.00e+00	0	43	0	1630535680	16	4392
2026-01-28 00:10:26.64	183.10	30.50	-27.5	-28.7	15.3	2.20e-06	0	43	0	1633681408	16	4110
2026-01-28 00:10:27.64	183.18	30.31	-27.0	-28.1	15.7	0.00e+00	0	43	0	1636827136	15	4057
2026-01-28 00:10:28.64	183.26	30.12	-26.7	-27.7	16.1	0.00e+00	0	43	0	1639972864	14	4079
2026-01-28 00:10:29.64	183.34	29.94	-26.5	-27.8	16.3	1.50e-06	0	43	0	1643118592	13	4209
2026-01-28 00:10:30.65	183.42	29.75	-26.5	-27.9	16.3	0.00e+00	0	43	0	1646264320	13	4238
2026-01-28 00:10:31.66	183.50	29.56	-26.6	-28.1	16.1	0.00e+00	0	43	0	1649410048	13	4277
2026-01-28 00:10:32.66	183.58	29.38	-26.8	-28.5	16.0	2.20e-06	0	43	0	1652555776	13	4384
2026-01-28 00:10:33.67	183.66	29.20	-26.8	-28.6	15.9	0.00e+00	0	43	0	1655701504	13	4417
2026-01-28 00:10:34.67	183.74	29.02	-26.9	-28.8	15.8	0.00e+00	0	43	0	1658847232	13	4491
2026-01-28 00:10:35.68	183.81	28.83	-26.9	-28.7	15.8	7.00e-07	0	43	0	1661992960	13	4455
2026-01-28 00:10:36.68	183.89	28.66	-26.9	-28.9	15.7	0.00e+00	0	43	0	1665138688	13	4505
2026-01-28 00:10:37.69	183.96	28.48	-26.9	-28.3	15.8	0.00e+00	0	43	0	1668284416	14	4240
2026-01-28 00:10:38.69	184.03	28.30	-26.9	-28.2	15.8	0.00e+00	0	43	0	1671430144	14	4211
2026-01-28 00:10:39.69	184.11	28.12	-26.8	-28.7	15.8	0.00e+00	0	43	0	1674575872	13	4446
2026-01-28 00:10:40.70	184.18	27.95	-27.0	-29.0	15.6	0.00e+00	0	43	0	1677721600	13	4526
2026-01-28 00:10:41.70	184.25	27.78	-26.9	-28.9	15.7	0.00e+00	0	42	0	1680867328	13	4497
2026-01-28 00:10:42.70	184.32	27.60	-26.8	-28.5	15.9	0.00e+00	0	43	0	1684013056	13	4393
2026-01-28 00:10:43.71	184.39	27.43	-26.8	-28.5	15.9	0.00e+00	0	43	0	1687158784	13	4402
2026-01-28 00:10:44.72	184.46	27.26	-26.8	-28.6	15.9	0.00e+00	0	43	0	1690304512	13	4426
2026-01-28 00:10:45.72	184.53	27.09	-26.8	-28.7	15.8	0.00e+00	0	43	0	1693450240	13	4450
2026-01-28 00:10:46.72	184.60	26.92	-26.8	-28.7	15.8	3.29e-03	0	43	0	1696595968	13	4445
2026-01-28 00:10:47.73	184.66	26.75	-26.8	-28.6	15.8	0.00e+00	0	43	0	1699741696	13	4438
2026-01-28 00:10:48.73	184.73	26.59	-26.9	-28.9	15.7	0.00e+00	0	43	0	1702887424	13	4505
2026-01-28 00:10:49.74	184.80	26.42	-27.2	-29.0	15.3	0.00e+00	0	43	0	1706033152	14	4441
2026-01-28 00:10:50.74	184.86	26.25	-27.1	-28.9	15.4	3.57e-03	0	43	0	1709178880	14	4399
2026-01-28 00:10:51.74	184.92	26.09	-27.1	-28.7	15.5	1.98e-05	0	43	0	1712324608	14	4341
2026-01-28 00:10:52.75	184.99	25.93	-27.2	-29.0	15.3	3.55e-03	0	43	0	1715470336	14	4438
2026-01-28 00:10:53.76	185.05	25.76	-27.2	-29.0	15.3	0.00e+00	0	43	0	1718616064	14	4441
2026-01-28 00:10:54.76	185.12	25.60	-27.1	-28.8	15.5	0.00e+00	0	43	0	1721761792	14	4366
2026-01-28 00:10:55.76	185.18	25.44	-27.0	-28.6	15.6	3.03e-03	0	43	0	1724907520	14	4319
2026-01-28 00:10:56.77	185.24	25.28	-27.1	-28.7	15.5	3.00e-03	0	43	0	1728053248	14	4354
2026-01-28 00:10:57.77	185.30	25.13	-27.0	-28.6	15.6	2.74e-05	0	43	0	1731198976	14	4311
2026-01-28 00:10:58.77	185.36	24.97	-26.8	-28.6	15.8	2.91e-03	0	43	0	1734344704	13	4440
2026-01-28 00:10:59.77	185.42	24.81	-26.8	-28.7	15.7	0.00e+00	0	43	0	1737490432	13	4457
2026-01-28 00:11:00.77	185.48	24.66	-26.8	-28.5	15.8	7.17e-05	0	43	0	1740636160	13	4411
2026-01-28 00:11:01.78	185.54	24.50	-26.8	-28.5	15.8	2.83e-03	0	43	0	1743781888	13	4410
2026-01-28 00:11:02.79	185.60	24.35	-26.8	-28.7	15.7	2.73e-03	0	43	0	1746927616	13	4461
2026-01-28 00:11:03.79	185.65	24.20	-26.9	-28.8	15.6	1.20e-04	0	43	0	1750073344	13	4508
2026-01-28 00:11:04.79	185.71	24.04	-27.0	-29.1	15.5	0.00e+00	0	43	0	1753219072	13	4575
2026-01-28 00:11:05.79	185.77	23.89	-27.0	-28.6	15.5	2.98e-03	0	43	0	1756364800	14	4334
2026-01-28 00:11:06.78	185.82	23.75	-27.0	-28.6	15.5	2.35e-04	0	43	0	1759510528	14	4332
2026-01-28 00:11:07.79	185.88	23.59	-27.0	-29.0	15.5	2.92e-03	0	43	0	1762656256	13	4573
2026-01-28 00:11:08.80	185.93	23.44	-27.0	-28.7	15.4	3.01e-03	0	43	0	1765801984	14	4348
2026-01-28 00:11:09.80	185.99	23.30	-27.1	-28.7	15.4	0.00e+00	0	43	0	1768947712	14	4359
2026-01-28 00:11:10.81	186.04	23.15	-27.1	-28.9	15.3	2.81e-03	0	43	0	1772093440	14	4420
2026-01-28 00:11:11.82	186.09	23.00	-27.1	-28.8	15.3	2.61e-03	0	43	0	1775239168	14	4385
2026-01-28 00:11:12.82	186.15	22.86	-27.1	-28.8	15.4	2.40e-04	0	42	0	1778384896	14	4382
2026-01-28 00:11:13.82	186.20	22.71	-27.1	-28.8	15.3	2.61e-03	0	43	0	1781530624	14	4385
2026-01-28 00:11:14.82	186.25	22.57	-27.3	-29.2	15.2	7.00e-07	0	43	0	1784676352	14	4493
2026-01-28 00:11:15.83	186.30	22.43	-27.2	-29.0	15.2	0.00e+00	0	43	0	1787822080	14	4442
2026-01-28 00:11:16.83	186.36	22.28	-27.0	-28.5	15.5	2.80e-03	0	43	0	1790967808	14	4299
2026-01-28 00:11:17.83	186.41	22.14	-26.8	-28.6	15.8	2.81e-03	0	43	0	1794113536	13	4422
2026-01-28 00:11:18.83	186.46	22.00	-26.8	-28.6	15.7	2.83e-04	0	43	0	1797259264	13	4419
2026-01-28 00:11:19.84	186.51	21.86	-26.9	-28.8	15.6	1.46e-04	0	43	0	1800404992	13	4484
2026-01-28 00:11:20.84	186.56	21.72	-26.7	-28.5	15.8	1.69e-04	0	43	0	1803550720	13	4398
2026-01-28 00:11:21.84	186.61	21.59	-26.5	-28.1	16.0	3.07e-04	0	43	0	1806696448	13	4287
2026-01-28 00:11:22.85	186.65	21.45	-26.4	-28.3	16.1	2.76e-03	0	43	0	1809842176	12	4472
2026-01-28 00:11:23.85	186.70	21.31	-26.6	-28.2	15.9	2.80e-03	0	43	0	1812987904	13	4315
2026-01-28 00:11:24.85	186.75	21.17	-26.7	-28.5	15.7	0.00e+00	0	43	0	1816133632	13	4408
2026-01-28 00:11:25.86	186.80	21.04	-26.9	-28.8	15.6	2.06e-04	0	43	0	1819279360	13	4502
2026-01-28 00:11:26.87	186.85	20.90	-26.9	-28.9	15.5	2.06e-04	0	43	0	1822425088	13	4523
2026-01-28 00:11:27.87	186.89	20.77	-26.9	-29.0	15.5	0.00e+00	0	42	0	1825570816	13	4545
2026-01-28 00:11:28.88	186.94	20.63	-27.0	-29.0	15.4	2.28e-03	0	43	0	1828716544	13	4562
2026-01-28 00:11:29.88	186.99	20.50	-27.2	-29.0	15.2	2.37e-04	0	43	0	1831862272	14	4435
2026-01-28 00:11:30.88	187.03	20.37	-27.5	-29.7	14.9	0.00e+00	0	43	0	1833959424	14	4634
2026-01-28 00:11:31.89	187.08	20.24	-27.3	-28.8	15.0	2.13e-04	0	43	0	1837105152	15	4262
2026-01-28 00:11:32.89	187.12	20.11	-27.3	-29.4	15.0	2.21e-04	0	43	0	1840250880	14	4549
2026-01-28 00:11:33.90	187.17	19.98	-27.3	-29.2	15.1	0.00e+00	0	43	0	1844445184	14	4500
2026-01-28 00:11:34.90	187.21	19.85	-27.4	-29.4	14.9	1.81e-04	0	43	0	1847590912	14	4568
2026-01-28 00:11:35.90	187.25	19.72	-27.3	-29.4	14.9	1.59e-04	0	43	0	1850736640	14	4558
2026-01-28 00:11:36.91	187.30	19.59	-27.5	-29.7	14.8	0.00e+00	0	43	0	1853882368	14	4655
2026-01-28 00:11:37.91	187.34	19.46	-27.5	-29.1	14.8	1.27e-04	0	43	0	1857028096	15	4371
2026-01-28 00:11:38.92	187.38	19.34	-27.3	-28.7	15.0	0.00e+00	0	43	0	1859125248	15	4250
2026-01-28 00:11:39.92	187.43	19.21	-27.3	-29.3	15.0	0.00e+00	0	42	0	1862270976	14	4531
2026-01-28 00:11:40.93	187.47	19.08	-27.3	-29.4	15.0	3.80e-06	0	43	0	1865416704	14	4557
2026-01-28 00:11:41.93	187.51	18.96	-27.7	-29.8	14.5	1.06e-05	0	42	0	1868562432	15	4564
2026-01-28 00:11:42.93	187.55	18.84	-27.7	-29.7	14.5	0.00e+00	0	43	0	1871708160	15	4534
2026-01-28 00:11:43.94	187.59	18.71	-28.2	-30.3	14.0	3.00e-06	0	43	0	1874853888	16	4592
2026-01-28 00:11:44.94	187.64	18.59	-28.0	-30.0	14.2	0.00e+00	0	43	0	1877999616	16	4495
2026-01-28 00:11:45.94	187.68	18.47	-27.8	-29.5	14.5	7.00e-07	0	43	0	1881145344	16	4365
2026-01-28 00:11:46.95	187.72	18.34	-27.7	-29.3	14.6	7.00e-07	0	43	0	1884291072	16	4295
2026-01-28 00:11:47.95	187.76	18.22	-27.7	-29.2	14.6	0.00e+00	0	43	0	1887436800	16	4285
2026-01-28 00:11:48.95	187.80	18.10	-27.7	-29.2	14.6	7.00e-07	0	43	0	1890582528	16	4268
2026-01-28 00:11:49.95	187.84	17.98	-27.8	-29.4	14.5	0.00e+00	0	43	0	1893728256	16	4330
2026-01-28 00:11:50.96	187.88	17.86	-28.1	-30.1	14.1	3.00e-06	0	42	0	1896873984	16	4537
2026-01-28 00:11:51.96	187.91	17.74	-27.9	-29.8	14.3	4.50e-06	0	43	0	1900019712	16	4436
2026-01-28 00:11:52.96	187.95	17.62	-27.8	-29.4	14.5	1.50e-06	0	43	0	1903165440	16	4333
2026-01-28 00:11:53.96	187.99	17.51	-27.7	-29.2	14.6	7.00e-07	0	43	0	1906311168	16	4278
2026-01-28 00:11:54.97	188.03	17.39	-27.7	-29.2	14.6	7.00e-07	0	43	0	1909456896	16	4290
2026-01-28 00:11:55.97	188.07	17.27	-27.8	-29.3	14.5	1.50e-06	0	43	0	1912602624	16	4312
2026-01-28 00:11:56.97	188.11	17.16	-27.8	-29.4	14.5	7.00e-07	0	43	0	1915748352	16	4337
2026-01-28 00:11:57.98	188.14	17.04	-27.7	-29.3	14.6	0.00e+00	0	43	0	1918894080	16	4292
2026-01-28 00:11:58.99	188.18	16.92	-27.7	-29.3	14.5	0.00e+00	0	43	0	1922039808	16	4312
2026-01-28 00:11:59.99	188.22	16.81	-27.7	-29.3	14.5	0.00e+00	0	43	0	1925185536	16	4296
2026-01-28 00:12:01.00	188.25	16.70	-27.9	-29.6	14.3	1.50e-06	0	43	0	1928331264	16	4393
2026-01-28 00:12:02.00	188.29	16.58	-27.8	-29.5	14.3	1.50e-06	0	43	0	1931476992	16	4372
2026-01-28 00:12:03.01	188.33	16.47	-27.9	-29.8	14.2	7.00e-07	0	43	0	1934622720	16	4443
2026-01-28 00:12:04.01	188.36	16.36	-27.8	-29.6	14.3	7.00e-07	0	43	0	1937768448	16	4383
2026-01-28 00:12:05.02	188.40	16.24	-27.8	-29.5	14.4	7.00e-07	0	43	0	1940914176	16	4359
2026-01-28 00:12:06.01	188.43	16.13	-27.8	-29.5	14.4	7.00e-07	0	43	0	1944059904	16	4355
2026-01-28 00:12:07.01	188.47	16.02	-27.7	-29.2	14.5	7.00e-07	0	43	0	1947205632	16	4292
2026-01-28 00:12:08.02	188.50	15.91	-27.8	-29.3	14.4	7.00e-07	0	43	0	1950351360	16	4322
2026-01-28 00:12:09.02	188.54	15.80	-27.9	-29.8	14.2	7.00e-07	0	43	0	1953497088	16	4440
2026-01-28 00:12:10.03	188.57	15.69	-28.0	-29.8	14.2	7.00e-07	0	43	0	1956642816	16	4457
2026-01-28 00:12:11.03	188.61	15.58	-28.1	-30.1	14.0	5.30e-06	0	43	0	1959788544	16	4543
2026-01-28 00:12:12.04	188.64	15.47	-27.9	-29.6	14.2	2.20e-06	0	43	0	1962934272	16	4405
2026-01-28 00:12:13.04	188.67	15.37	-27.9	-29.6	14.2	1.50e-06	0	43	0	1966080000	16	4407
2026-01-28 00:12:14.05	188.71	15.26	-27.9	-29.7	14.2	2.20e-06	0	43	0	1969225728	16	4430
2026-01-28 00:12:15.04	188.74	15.15	-27.9	-29.6	14.2	7.00e-07	0	43	0	1972371456	16	4403
2026-01-28 00:12:16.05	188.77	15.04	-28.1	-30.1	14.0	3.80e-06	0	43	0	1975517184	16	4534
2026-01-28 00:12:17.05	188.81	14.94	-28.0	-29.9	14.1	7.00e-07	0	42	0	1978662912	16	4470
2026-01-28 00:12:18.06	188.84	14.83	-28.1	-30.1	14.0	3.80e-06	0	43	0	1981808640	16	4539
2026-01-28 00:12:19.06	188.87	14.73	-28.3	-30.6	13.4	6.80e-06	0	43	0	1984954368	16	4713
2026-01-28 00:12:20.07	188.91	14.62	-28.2	-30.3	13.3	9.90e-06	0	43	0	1988100096	16	4622
2026-01-28 00:12:21.07	188.94	14.52	-28.4	-30.9	13.4	8.30e-06	0	43	0	1991245824	16	4805
2026-01-28 00:12:22.07	188.97	14.41	-28.6	-30.9	13.1	2.44e-05	0	43	0	1994391552	17	4668
2026-01-28 00:12:23.07	189.00	14.31	-28.5	-30.6	13.3	2.05e-05	0	43	0	1997537280	17	4591
2026-01-28 00:12:24.07	189.03	14.21	-28.6	-30.9	13.2	2.44e-05	0	42	0	2000683008	17	4673
2026-01-28 00:12:25.07	189.06	14.10	-28.6	-30.9	13.1	3.43e-05	0	43	0	2003828736	17	4703
2026-01-28 00:12:26.06	189.09	14.00	-28.6	-30.9	13.2	1.17e-03	0	43	0	2006974464	17	4672
2026-01-28 00:12:27.07	189.13	13.90	-28.8	-31.3	12.9	4.19e-05	0	43	0	2010120192	17	4820
2026-01-28 00:12:28.07	189.16	13.80	-28.5	-30.7	13.2	2.74e-05	0	43	0	2013265920	17	4629
2026-01-28 00:12:29.08	189.19	13.70	-28.4	-30.3	13.4	1.83e-05	0	43	0	2016411648	17	4507
2026-01-28 00:12:30.08	189.22	13.60	-28.2	-29.8	13.7	6.80e-06	0	43	0	2019557376	17	4358
2026-01-28 00:12:31.08	189.25	13.50	-28.1	-30.3	13.8	1.49e-03	0	43	0	2022703104	16	4596
2026-01-28 00:12:32.08	189.28	13.40	-28.1	-30.2	13.8	6.10e-06	0	43	0	2025848832	16	4568
2026-01-28 00:12:33.08	189.31	13.30	-28.1	-30.3	13.8	2.20e-06	0	43	0	2028994560	16	4602
2026-01-28 00:12:34.08	189.34	13.20	-28.2	-30.3	13.8	2.20e-06	0	43	0	2032140288	16	4618
2026-01-28 00:12:35.08	189.37	13.10	-28.4	-30.9	13.4	1.86e-03	0	43	0	2035286016	16	4794
2026-01-28 00:12:36.08	189.39	13.00	-28.2	-30.5	13.7	7.60e-06	0	43	0	2038431744	16	4659
2026-01-28 00:12:37.08	189.42	12.91	-27.8	-30.1	14.0	1.06e-05	0	43	0	2041577472	15	4657
2026-01-28 00:12:38.08	189.45	12.81	-27.8	-29.9	14.1	2.20e-06	0	43	0	2044723200	15	4616
2026-01-28 00:12:39.09	189.48	12.71	-27.7	-29.9	14.1	2.20e-06	0	43	0	2047868928	15	4606
2026-01-28 00:12:40.09	189.51	12.62	-27.9	-30.2	13.9	1.99e-03	0	43	0	2051014656	15	4696
2026-01-28 00:12:41.08	189.54	12.52	-27.8	-29.9	14.1	2.01e-03	0	43	0	2054160384	15	4613
2026-01-28 00:12:42.08	189.57	12.42	-28.0	-30.4	13.8	1.50e-06	0	43	0	2057306112	15	4784
2026-01-28 00:12:43.08	189.59	12.33	-28.1	-30.2	13.8	2.28e-05	0	43	0	2060451840	16	4590
2026-01-28 00:12:44.08	189.62	12.23	-28.0	-30.5	13.7	6.80e-06	0	43	0	2063597568	15	4789
2026-01-28 00:12:45.08	189.65	12.14	-28.2	-30.5	13.6	1.14e-05	0	43	0	2066743296	16	4676
2026-01-28 00:12:46.08	189.68	12.05	-28.2	-30.4	13.7	2.31e-03	0	43	0	2069889024	16	4639
2026-01-28 00:12:47.07	189.70	11.95	-28.4	-30.8	13.4	2.26e-03	0	43	0	2073034752	16	4783
2026-01-28 00:12:48.07	189.73	11.86	-28.5	-31.1	13.2	2.36e-05	0	43	0	2076180480	16	4879
2026-01-28 00:12:49.07	189.76	11.77	-28.4	-31.0	13.2	3.58e-05	0	43	0	2079326208	16	4845
2026-01-28 00:12:50.08	189.79	11.67	-28.6	-30.9	13.1	2.15e-03	0	43	0	2082471936	17	4685
2026-01-28 00:12:51.08	189.81	11.58	-28.8	-31.5	12.7	5.72e-05	0	43	0	2085617664	17	4879
2026-01-28 00:12:52.08	189.84	11.49	-28.7	-31.2	12.8	2.17e-03	0	43	0	2087714816	17	4808
2026-01-28 00:12:53.06	189.87	11.40	-28.7	-31.3	12.7	2.08e-03	0	43	0	2090860544	17	4822
2026-01-28 00:12:54.06	189.89	11.31	-28.9	-31.8	12.4	1.10e-04	0	43	0	2094006272	17	4999
2026-01-28 00:12:55.06	189.92	11.22	-28.9	-31.3	12.4	2.20e-03	0	43	0	2097152000	18	4717
2026-01-28 00:12:56.06	189.94	11.12	-28.8	-31.3	12.7	2.20e-03	0	43	0	2100297728	17	4839
2026-01-28 00:12:57.05	189.97	11.03	-28.6	-31.0	12.9	5.11e-05	0	43	0	2103443456	17	4721
2026-01-28 00:12:58.05	190.00	10.94	-28.7	-31.2	12.8	2.25e-03	0	43	0	2106589184	17	4784
2026-01-28 00:12:59.06	190.02	10.85	-28.9	-31.7	12.5	2.36e-03	0	43	0	2109734912	17	4964
2026-01-28 00:13:00.06	190.05	10.76	-28.8	-31.4	12.6	1.38e-04	0	43	0	2112880640	17	4878
2026-01-28 00:13:01.07	190.07	10.67	-28.6	-30.9	13.0	2.55e-03	0	43	0	2116026368	17	4688
2026-01-28 00:13:02.07	190.10	10.59	-28.4	-30.5	13.1	2.63e-03	0	42	0	2119172096	17	4587
2026-01-28 00:13:03.07	190.12	10.50	-28.3	-30.3	13.3	1.29e-05	0	42	0	2122317824	17	4519
2026-01-28 00:13:04.07	190.15	10.41	-28.4	-30.9	13.2	2.81e-03	0	43	0	2125463552	16	4804
2026-01-28 00:13:05.07	190.17	10.32	-28.3	-30.6	13.4	2.87e-03	0	42	0	2128609280	16	4732
2026-01-28 00:13:06.08	190.20	10.23	-28.3	-30.8	13.3	1.83e-05	0	42	0	2131755008	16	4787
2026-01-28 00:13:07.08	190.22	10.15	-28.4	-31.0	13.2	2.89e-03	0	43	0	2134900736	16	4840
2026-01-28 00:13:08.09	190.25	10.06	-28.4	-31.1	13.1	2.85e-03	0	42	0	2138046464	16	4874
