passes_logs/2026/01/28/R2M6_AANII_01/R2M6_AANII_01__20260128_012822_FENGYUN_3D_rec.log

#Pass ID: 20260128_012822_FENGYUN 3D
#Satellite: FENGYUN 3D
#Configuration: FENGYUN 3D
#almurnet v.1.7.20240730
#Start time: 2026-01-28 01:28:23

#Version: 2.2.20231116
#Station: R2M6_AANII_01
#Location: 30.233357 lon 59.946436 lat
#TLE: 1 43010U 17072A   26027.47796828  .00000374  00000+0  19850-3 0  9992
#TLE: 2 43010  98.9960 359.4888 0002523  87.5419 272.6045 14.19701595425023

#Time	Az	El	Level	Level2	SNR	BER	BlckErr	Temp	State	Recorded	gain1	gain2
2026-01-28 01:28:23.83	24.85	7.10	-28.9	-32.0	5.5	7.79e-01	0	41	0	0	17	5147
2026-01-28 01:28:24.83	24.91	7.17	-29.6	-32.8	5.4	7.89e-01	0	41	104	0	19	5229
2026-01-28 01:28:25.83	24.97	7.25	-29.8	-33.3	9.4	1.71e-02	0	41	0	0	19	5417
2026-01-28 01:28:26.84	25.03	7.32	-29.6	-32.9	9.7	1.85e-02	0	41	0	5242880	19	5244
2026-01-28 01:28:27.83	25.09	7.39	-29.5	-32.4	10.0	1.32e-02	0	41	0	10485760	19	5068
2026-01-28 01:28:28.84	25.15	7.46	-29.2	-32.3	10.4	5.94e-03	0	41	0	16777216	18	5133
2026-01-28 01:28:29.84	25.21	7.54	-29.0	-31.6	10.9	3.96e-03	0	41	0	22020096	18	4887
2026-01-28 01:28:30.84	25.27	7.61	-28.8	-31.8	11.1	2.61e-03	0	41	0	28311552	17	5042
2026-01-28 01:28:31.84	25.33	7.68	-28.8	-31.6	11.3	1.83e-03	0	41	0	33554432	17	4987
2026-01-28 01:28:32.85	25.39	7.76	-28.5	-30.9	11.7	8.69e-04	0	41	0	38797312	17	4734
2026-01-28 01:28:33.85	25.46	7.83	-28.2	-30.1	12.2	4.30e-04	0	41	0	45088768	17	4478
2026-01-28 01:28:34.86	25.52	7.91	-27.8	-29.6	12.8	2.92e-04	0	41	0	50331648	16	4452
2026-01-28 01:28:35.86	25.58	7.98	-27.3	-28.9	13.3	3.54e-05	0	41	0	55574528	15	4368
2026-01-28 01:28:36.87	25.64	8.05	-27.2	-28.7	13.5	2.28e-05	0	41	0	61865984	15	4301
2026-01-28 01:28:37.88	25.71	8.13	-27.0	-28.9	13.6	1.92e-04	0	41	0	67108864	14	4467
2026-01-28 01:28:38.88	25.77	8.20	-27.1	-29.0	13.6	1.14e-05	0	41	0	73400320	14	4498
2026-01-28 01:28:39.88	25.84	8.28	-27.3	-29.5	13.3	2.06e-04	0	41	0	78643200	14	4640
2026-01-28 01:28:40.89	25.90	8.35	-27.0	-28.8	13.8	2.17e-05	0	41	0	84934656	14	4434
2026-01-28 01:28:41.90	25.96	8.43	-26.8	-28.4	13.9	3.40e-06	0	41	0	90177536	14	4332
2026-01-28 01:28:42.90	26.03	8.51	-26.7	-28.1	14.1	2.10e-04	0	41	0	95420416	14	4237
2026-01-28 01:28:43.91	26.09	8.58	-26.5	-28.2	14.3	2.43e-04	0	41	0	101711872	13	4373
2026-01-28 01:28:44.91	26.16	8.66	-26.5	-28.2	14.4	5.70e-06	0	41	0	106954752	13	4373
2026-01-28 01:28:45.92	26.23	8.73	-26.9	-29.0	13.9	3.40e-06	0	41	0	112197632	13	4611
2026-01-28 01:28:46.93	26.29	8.81	-26.7	-28.6	14.2	2.69e-04	0	41	0	118489088	13	4472
2026-01-28 01:28:47.93	26.36	8.89	-26.5	-28.2	14.4	2.20e-06	0	41	0	123731968	13	4372
2026-01-28 01:28:48.93	26.43	8.96	-26.5	-28.1	14.5	3.54e-04	0	41	0	130023424	13	4338
2026-01-28 01:28:49.94	26.49	9.04	-26.5	-28.1	14.4	3.70e-04	0	42	0	135266304	13	4348
2026-01-28 01:28:50.94	26.56	9.12	-26.6	-28.5	14.3	1.10e-06	0	41	0	140509184	13	4460
2026-01-28 01:28:51.94	26.63	9.20	-26.6	-28.4	14.3	3.97e-04	0	41	0	146800640	13	4433
2026-01-28 01:28:52.95	26.70	9.27	-26.6	-28.4	14.3	6.05e-04	0	42	0	152043520	13	4429
2026-01-28 01:28:53.95	26.76	9.35	-26.7	-28.7	14.2	5.70e-06	0	41	0	158334976	13	4506
2026-01-28 01:28:54.96	26.83	9.43	-26.6	-28.4	14.3	1.77e-04	0	42	0	163577856	13	4441
2026-01-28 01:28:55.97	26.90	9.51	-26.6	-28.4	14.3	4.78e-04	0	41	0	168820736	13	4431
2026-01-28 01:28:56.97	26.97	9.59	-26.6	-28.5	14.3	3.40e-06	0	42	0	175112192	13	4446
2026-01-28 01:28:57.97	27.04	9.67	-26.7	-28.6	14.3	6.71e-04	0	41	0	180355072	13	4484
2026-01-28 01:28:58.97	27.11	9.74	-26.6	-28.4	14.3	3.81e-04	0	41	0	185597952	13	4439
2026-01-28 01:28:59.98	27.18	9.82	-26.3	-27.8	14.7	0.00e+00	0	42	0	191889408	13	4247
2026-01-28 01:29:00.99	27.25	9.90	-26.2	-28.0	14.9	3.20e-04	0	42	0	197132288	12	4436
2026-01-28 01:29:01.99	27.32	9.98	-26.3	-28.2	14.8	3.03e-04	0	42	0	203423744	12	4483
2026-01-28 01:29:02.99	27.40	10.06	-26.5	-28.2	14.5	0.00e+00	0	42	0	208666624	13	4356
2026-01-28 01:29:03.99	27.47	10.14	-26.3	-27.7	14.8	2.48e-04	0	42	0	213909504	13	4230
2026-01-28 01:29:05.00	27.54	10.22	-26.1	-27.7	15.1	1.96e-04	0	42	0	220200960	12	4334
2026-01-28 01:29:06.00	27.61	10.30	-26.2	-27.9	15.0	0.00e+00	0	42	0	225443840	12	4373
2026-01-28 01:29:07.01	27.69	10.38	-26.1	-27.7	15.1	1.85e-04	0	42	0	231735296	12	4337
2026-01-28 01:29:08.02	27.76	10.47	-25.9	-27.4	15.3	3.55e-04	0	42	0	236978176	12	4247
2026-01-28 01:29:09.02	27.83	10.55	-25.9	-27.4	15.3	0.00e+00	0	42	0	242221056	12	4240
2026-01-28 01:29:10.03	27.91	10.63	-26.0	-27.4	15.3	1.37e-04	0	42	0	248512512	12	4258
2026-01-28 01:29:11.03	27.98	10.71	-26.1	-27.7	15.1	1.25e-04	0	42	0	253755392	12	4326
2026-01-28 01:29:12.03	28.06	10.79	-25.9	-27.3	15.3	0.00e+00	0	42	0	260046848	12	4226
2026-01-28 01:29:13.04	28.13	10.87	-26.0	-27.4	15.3	2.28e-05	0	42	0	265289728	12	4256
2026-01-28 01:29:14.05	28.21	10.96	-26.3	-28.1	14.9	2.05e-05	0	42	0	270532608	12	4453
2026-01-28 01:29:15.05	28.28	11.04	-25.9	-27.3	15.3	0.00e+00	0	42	0	276824064	12	4213
2026-01-28 01:29:16.06	28.36	11.12	-25.9	-27.7	15.5	1.02e-05	0	42	0	282066944	11	4438
2026-01-28 01:29:17.05	28.44	11.20	-26.0	-27.9	15.4	2.40e-05	0	42	0	287309824	11	4497
2026-01-28 01:29:18.06	28.51	11.29	-26.1	-27.7	15.1	0.00e+00	0	42	0	293601280	12	4331
2026-01-28 01:29:19.06	28.59	11.37	-26.3	-28.1	14.9	1.25e-05	0	42	0	298844160	12	4434
2026-01-28 01:29:20.06	28.67	11.46	-26.1	-27.7	15.2	0.00e+00	0	42	0	305135616	12	4323
2026-01-28 01:29:21.06	28.75	11.54	-26.0	-27.6	15.2	0.00e+00	0	42	0	310378496	12	4287
2026-01-28 01:29:22.06	28.83	11.62	-26.1	-27.6	15.2	0.00e+00	0	42	0	315621376	12	4309
2026-01-28 01:29:23.07	28.91	11.71	-26.0	-27.5	15.3	1.89e-04	0	42	0	321912832	12	4265
2026-01-28 01:29:24.08	28.99	11.79	-26.1	-27.6	15.2	0.00e+00	0	42	0	327155712	12	4304
2026-01-28 01:29:25.08	29.07	11.88	-26.2	-27.9	15.0	1.97e-04	0	42	0	333447168	12	4394
2026-01-28 01:29:26.09	29.15	11.96	-25.9	-27.3	15.4	2.59e-04	0	42	0	338690048	12	4212
2026-01-28 01:29:27.09	29.23	12.05	-25.8	-27.1	15.5	0.00e+00	0	42	0	343932928	12	4167
2026-01-28 01:29:28.10	29.31	12.14	-25.8	-27.6	15.6	3.62e-04	0	42	0	350224384	11	4398
2026-01-28 01:29:29.11	29.39	12.22	-25.8	-27.6	15.6	0.00e+00	0	42	0	355467264	11	4412
2026-01-28 01:29:30.11	29.48	12.31	-25.9	-27.3	15.4	0.00e+00	0	42	0	360710144	12	4226
2026-01-28 01:29:31.11	29.56	12.39	-25.8	-27.6	15.6	0.00e+00	0	42	0	367001600	11	4421
2026-01-28 01:29:32.11	29.64	12.48	-26.1	-27.7	15.2	0.00e+00	0	42	0	372244480	12	4321
2026-01-28 01:29:33.12	29.73	12.57	-26.4	-28.3	14.8	0.00e+00	0	42	0	378535936	12	4504
2026-01-28 01:29:34.12	29.81	12.66	-26.0	-27.4	15.4	1.10e-06	0	42	0	383778816	12	4249
2026-01-28 01:29:35.13	29.90	12.74	-25.8	-27.4	15.7	7.76e-04	0	43	0	389021696	11	4370
2026-01-28 01:29:36.12	29.98	12.83	-25.5	-26.9	16.0	0.00e+00	0	42	0	395313152	11	4209
2026-01-28 01:29:37.12	30.07	12.92	-25.4	-26.7	16.1	0.00e+00	0	42	0	400556032	11	4163
2026-01-28 01:29:38.13	30.15	13.01	-25.4	-27.1	16.2	0.00e+00	0	42	0	405798912	10	4400
2026-01-28 01:29:39.14	30.24	13.10	-25.4	-27.0	16.2	0.00e+00	0	42	0	412090368	10	4369
2026-01-28 01:29:40.14	30.33	13.18	-25.5	-26.9	16.0	0.00e+00	0	42	0	417333248	11	4228
2026-01-28 01:29:41.14	30.42	13.27	-25.7	-27.3	15.8	0.00e+00	0	42	0	423624704	11	4340
2026-01-28 01:29:42.15	30.50	13.36	-25.4	-26.7	16.2	0.00e+00	0	43	0	428867584	11	4172
2026-01-28 01:29:43.15	30.59	13.45	-25.3	-26.5	16.2	0.00e+00	0	42	0	434110464	11	4118
2026-01-28 01:29:44.16	30.68	13.54	-25.3	-26.9	16.3	0.00e+00	0	42	0	440401920	10	4318
2026-01-28 01:29:45.16	30.77	13.63	-25.4	-27.1	16.2	0.00e+00	0	42	0	445644800	10	4384
2026-01-28 01:29:46.16	30.86	13.72	-25.4	-27.2	16.2	0.00e+00	0	42	0	451936256	10	4413
2026-01-28 01:29:47.17	30.95	13.81	-25.4	-27.2	16.2	0.00e+00	0	42	0	457179136	10	4402
2026-01-28 01:29:48.16	31.04	13.90	-25.6	-27.0	16.0	0.00e+00	0	42	0	462422016	11	4241
2026-01-28 01:29:49.17	31.14	14.00	-25.7	-27.3	15.9	0.00e+00	0	43	0	468713472	11	4319
2026-01-28 01:29:50.17	31.23	14.09	-25.9	-27.7	15.6	0.00e+00	0	43	0	473956352	11	4438
2026-01-28 01:29:51.18	31.32	14.18	-25.6	-27.0	16.0	0.00e+00	0	42	0	479199232	11	4256
2026-01-28 01:29:52.18	31.42	14.27	-25.4	-26.5	16.3	0.00e+00	0	43	0	485490688	11	4121
2026-01-28 01:29:53.18	31.51	14.36	-25.2	-26.3	16.5	0.00e+00	0	42	0	490733568	11	4049
2026-01-28 01:29:54.19	31.61	14.46	-25.2	-26.8	16.4	0.00e+00	0	43	0	497025024	10	4290
2026-01-28 01:29:55.19	31.70	14.55	-25.2	-26.8	16.5	0.00e+00	0	42	0	502267904	10	4292
2026-01-28 01:29:56.20	31.80	14.64	-25.2	-26.7	16.5	0.00e+00	0	42	0	507510784	10	4264
2026-01-28 01:29:57.20	31.89	14.74	-25.3	-26.8	16.4	0.00e+00	0	42	0	513802240	10	4313
2026-01-28 01:29:58.20	31.99	14.83	-25.1	-26.5	16.6	1.98e-04	0	42	0	519045120	10	4222
2026-01-28 01:29:59.21	32.09	14.93	-25.0	-26.2	16.8	0.00e+00	0	42	0	525336576	10	4146
2026-01-28 01:30:00.22	32.19	15.02	-25.0	-26.3	16.7	2.31e-04	0	43	0	530579456	10	4179
2026-01-28 01:30:01.22	32.29	15.12	-25.1	-26.4	16.7	0.00e+00	0	43	0	535822336	10	4195
2026-01-28 01:30:02.22	32.38	15.21	-25.0	-26.3	16.7	0.00e+00	0	42	0	542113792	10	4157
2026-01-28 01:30:03.22	32.48	15.31	-25.1	-26.5	16.6	0.00e+00	0	42	0	547356672	10	4219
2026-01-28 01:30:04.23	32.59	15.40	-25.1	-26.6	16.6	0.00e+00	0	43	0	552599552	10	4240
2026-01-28 01:30:05.23	32.69	15.50	-25.0	-26.3	16.7	0.00e+00	0	43	0	558891008	10	4179
2026-01-28 01:30:06.24	32.79	15.59	-25.0	-26.1	16.8	0.00e+00	0	43	0	564133888	10	4130
2026-01-28 01:30:07.24	32.89	15.69	-24.9	-26.1	16.8	1.91e-04	0	43	0	570425344	10	4121
2026-01-28 01:30:08.25	33.00	15.79	-24.8	-25.8	17.0	0.00e+00	0	42	0	575668224	10	4055
2026-01-28 01:30:09.26	33.10	15.89	-24.7	-25.7	17.1	1.69e-04	0	43	0	580911104	10	4015
2026-01-28 01:30:10.26	33.20	15.98	-24.8	-25.9	17.0	1.59e-04	0	43	0	587202560	10	4063
2026-01-28 01:30:11.27	33.31	16.08	-24.9	-26.0	16.9	0.00e+00	0	43	0	592445440	10	4088
2026-01-28 01:30:12.27	33.41	16.18	-24.6	-25.4	17.2	1.54e-04	0	43	0	598736896	10	3945
2026-01-28 01:30:13.28	33.52	16.28	-24.6	-25.4	17.3	0.00e+00	0	43	0	603979776	10	3931
2026-01-28 01:30:14.28	33.63	16.38	-24.5	-25.2	17.3	0.00e+00	0	43	0	610271232	10	3902
2026-01-28 01:30:15.29	33.74	16.48	-24.5	-25.7	17.4	1.84e-04	0	43	0	615514112	9	4119
2026-01-28 01:30:16.30	33.85	16.58	-24.5	-25.6	17.4	1.69e-04	0	42	0	620756992	9	4110
2026-01-28 01:30:17.30	33.96	16.68	-24.5	-25.6	17.4	0.00e+00	0	43	0	627048448	9	4102
2026-01-28 01:30:18.31	34.07	16.78	-24.5	-25.7	17.3	1.89e-04	0	43	0	632291328	9	4128
2026-01-28 01:30:19.32	34.18	16.88	-23.9	-25.1	16.3	1.85e-04	0	43	0	637534208	9	4134
2026-01-28 01:30:20.32	34.29	16.98	-24.6	-25.8	17.3	0.00e+00	0	43	0	643825664	9	4157
2026-01-28 01:30:21.32	34.40	17.08	-24.7	-26.1	17.0	1.52e-04	0	43	0	649068544	9	4218
2026-01-28 01:30:22.32	34.51	17.18	-24.6	-25.9	17.1	1.17e-04	0	43	0	654311424	9	4188
2026-01-28 01:30:23.33	34.63	17.28	-24.6	-25.9	17.3	0.00e+00	0	43	0	660602880	9	4172
2026-01-28 01:30:24.33	34.74	17.38	-24.5	-25.7	17.4	8.12e-05	0	43	0	665845760	9	4116
2026-01-28 01:30:25.33	34.85	17.49	-24.5	-25.7	17.3	9.38e-05	0	43	0	672137216	9	4127
2026-01-28 01:30:26.33	34.97	17.59	-24.4	-25.6	17.4	0.00e+00	0	43	0	677380096	9	4089
2026-01-28 01:30:27.34	35.09	17.69	-24.4	-25.5	17.5	7.00e-04	0	43	0	683671552	9	4069
2026-01-28 01:30:28.34	35.20	17.79	-24.3	-25.3	17.6	9.49e-05	0	43	0	688914432	9	4020
2026-01-28 01:30:29.35	35.32	17.90	-24.3	-25.3	17.6	0.00e+00	0	43	0	694157312	9	4017
2026-01-28 01:30:30.35	35.44	18.00	-24.3	-25.2	17.7	1.04e-04	0	43	0	700448768	9	3993
2026-01-28 01:30:31.35	35.56	18.11	-24.3	-25.3	17.6	8.46e-05	0	43	0	705691648	9	4014
2026-01-28 01:30:32.36	35.68	18.21	-24.3	-25.3	17.6	0.00e+00	0	43	0	710934528	9	4021
2026-01-28 01:30:33.36	35.80	18.32	-24.2	-25.1	17.7	5.49e-05	0	43	0	717225984	9	3979
2026-01-28 01:30:34.36	35.92	18.42	-24.3	-25.2	17.6	0.00e+00	0	43	0	722468864	9	4007
2026-01-28 01:30:35.37	36.05	18.53	-24.4	-25.4	17.6	0.00e+00	0	43	0	727711744	9	4044
2026-01-28 01:30:36.37	36.17	18.63	-24.4	-25.5	17.5	0.00e+00	0	43	0	734003200	9	4077
2026-01-28 01:30:37.38	36.30	18.74	-24.4	-25.4	17.5	5.95e-05	0	43	0	739246080	9	4055
2026-01-28 01:30:38.38	36.42	18.85	-24.4	-25.4	17.5	0.00e+00	0	43	0	745537536	9	4056
2026-01-28 01:30:39.39	36.55	18.95	-24.3	-25.2	17.7	3.43e-05	0	43	0	750780416	9	4000
2026-01-28 01:30:40.39	36.67	19.06	-24.3	-25.3	17.6	4.57e-05	0	43	0	757071872	9	4014
2026-01-28 01:30:41.39	36.80	19.17	-24.3	-25.3	17.6	0.00e+00	0	43	0	762314752	9	4030
2026-01-28 01:30:42.40	36.93	19.28	-24.3	-25.2	17.6	8.35e-05	0	43	0	767557632	9	4007
2026-01-28 01:30:43.40	37.06	19.38	-24.3	-25.3	17.7	2.18e-04	0	43	0	773849088	9	4022
2026-01-28 01:30:44.40	37.19	19.49	-24.3	-25.1	17.7	0.00e+00	0	43	0	779091968	9	3982
2026-01-28 01:30:45.41	37.32	19.60	-24.3	-25.2	17.7	2.07e-04	0	43	0	784334848	9	3993
2026-01-28 01:30:46.41	37.45	19.71	-24.3	-25.1	17.7	1.98e-04	0	43	0	790626304	9	3982
2026-01-28 01:30:47.40	37.59	19.82	-24.0	-24.7	18.0	0.00e+00	0	43	0	795869184	9	3871
2026-01-28 01:30:48.40	37.72	19.93	-23.9	-24.4	18.1	1.32e-04	0	43	0	801112064	9	3806
2026-01-28 01:30:49.40	37.85	20.04	-24.0	-24.5	18.1	1.41e-04	0	43	0	807403520	9	3837
2026-01-28 01:30:50.41	37.99	20.15	-24.0	-24.5	18.0	0.00e+00	0	43	0	812646400	9	3841
2026-01-28 01:30:51.42	38.13	20.26	-24.0	-24.7	18.0	3.20e-05	0	43	0	818937856	9	3872
2026-01-28 01:30:52.42	38.27	20.37	-24.1	-24.8	18.0	1.25e-05	0	43	0	824180736	9	3900
2026-01-28 01:30:53.43	38.41	20.48	-23.8	-24.2	18.2	0.00e+00	0	43	0	829423616	9	3774
2026-01-28 01:30:54.43	38.54	20.60	-23.8	-24.6	18.3	0.00e+00	0	43	0	835715072	8	3962
2026-01-28 01:30:55.43	38.69	20.71	-23.8	-24.6	18.3	0.00e+00	0	43	0	840957952	8	3968
2026-01-28 01:30:56.44	38.83	20.82	-23.6	-24.3	18.4	0.00e+00	0	43	0	847249408	8	3900
2026-01-28 01:30:57.44	38.97	20.93	-23.6	-24.3	18.5	1.10e-06	0	43	0	852492288	8	3883
2026-01-28 01:30:58.44	39.11	21.05	-23.6	-24.3	18.5	0.00e+00	0	43	0	857735168	8	3891
2026-01-28 01:30:59.44	39.26	21.16	-23.6	-24.2	18.5	0.00e+00	0	43	0	864026624	8	3874
2026-01-28 01:31:00.44	39.40	21.27	-23.6	-24.3	18.5	1.02e-04	0	43	0	869269504	8	3887
2026-01-28 01:31:01.45	39.55	21.39	-23.6	-24.3	18.5	0.00e+00	0	43	0	874512384	8	3884
2026-01-28 01:31:02.45	39.70	21.50	-23.6	-24.3	18.5	0.00e+00	0	43	0	880803840	8	3889
2026-01-28 01:31:03.45	39.85	21.62	-23.7	-24.4	18.4	0.00e+00	0	43	0	886046720	8	3901
2026-01-28 01:31:04.46	40.00	21.73	-23.7	-24.5	18.4	1.67e-04	0	43	0	892338176	8	3932
2026-01-28 01:31:05.47	40.15	21.85	-23.7	-24.4	18.4	0.00e+00	0	43	0	897581056	8	3914
2026-01-28 01:31:06.47	40.30	21.96	-23.7	-24.5	18.4	0.00e+00	0	43	0	902823936	8	3923
2026-01-28 01:31:07.48	40.46	22.08	-23.7	-24.4	18.5	1.29e-04	0	43	0	909115392	8	3905
2026-01-28 01:31:08.49	40.61	22.20	-23.7	-24.5	18.4	0.00e+00	0	43	0	914358272	8	3929
2026-01-28 01:31:09.49	40.77	22.32	-23.7	-24.4	18.4	8.92e-05	0	43	0	920649728	8	3912
2026-01-28 01:31:10.50	40.93	22.43	-23.6	-24.2	18.6	0.00e+00	0	43	0	925892608	8	3866
2026-01-28 01:31:11.50	41.08	22.55	-23.5	-24.1	18.6	0.00e+00	0	43	0	931135488	8	3849
2026-01-28 01:31:12.50	41.24	22.67	-23.5	-24.1	18.6	0.00e+00	0	43	0	937426944	8	3846
2026-01-28 01:31:13.51	41.40	22.79	-23.5	-24.1	18.6	0.00e+00	0	43	0	942669824	8	3833
2026-01-28 01:31:14.51	41.57	22.91	-23.4	-23.7	18.8	0.00e+00	0	43	0	948961280	8	3760
2026-01-28 01:31:15.51	41.73	23.02	-23.4	-23.7	18.8	0.00e+00	0	43	0	954204160	8	3755
2026-01-28 01:31:16.52	41.89	23.14	-23.4	-23.8	18.8	1.09e-04	0	43	0	959447040	8	3764
2026-01-28 01:31:17.52	42.06	23.26	-23.5	-24.0	18.6	0.00e+00	0	43	0	965738496	8	3823
2026-01-28 01:31:18.53	42.23	23.38	-23.5	-24.0	18.7	0.00e+00	0	43	0	970981376	8	3812
2026-01-28 01:31:19.53	42.39	23.50	-23.4	-23.8	18.8	0.00e+00	0	43	0	976224256	8	3775
2026-01-28 01:31:20.53	42.56	23.62	-23.5	-24.1	18.6	0.00e+00	0	43	0	982515712	8	3846
2026-01-28 01:31:21.54	42.73	23.75	-23.5	-24.1	18.6	0.00e+00	0	43	0	987758592	8	3838
2026-01-28 01:31:22.54	42.90	23.87	-23.6	-24.3	18.5	0.00e+00	0	43	0	994050048	8	3884
2026-01-28 01:31:23.54	43.08	23.99	-23.6	-24.2	18.6	0.00e+00	0	43	0	999292928	8	3861
2026-01-28 01:31:24.54	43.25	24.11	-23.4	-23.9	18.8	0.00e+00	0	43	0	1004535808	8	3785
2026-01-28 01:31:25.55	43.43	24.23	-23.4	-23.8	18.8	0.00e+00	0	43	0	1010827264	8	3768
2026-01-28 01:31:26.55	43.60	24.35	-23.4	-23.8	18.8	0.00e+00	0	43	0	1016070144	8	3758
2026-01-28 01:31:27.55	43.78	24.48	-23.3	-23.5	18.9	0.00e+00	0	43	0	1022361600	8	3710
2026-01-28 01:31:28.56	43.96	24.60	-23.2	-23.9	19.0	0.00e+00	0	43	0	1027604480	7	3900
2026-01-28 01:31:29.57	44.14	24.72	-23.2	-23.9	19.0	0.00e+00	0	43	0	1032847360	7	3905
2026-01-28 01:31:30.57	44.32	24.85	-23.1	-23.7	19.1	0.00e+00	0	43	0	1039138816	7	3842
2026-01-28 01:31:31.57	44.51	24.97	-23.1	-23.7	19.1	0.00e+00	0	43	0	1044381696	7	3857
2026-01-28 01:31:32.56	44.69	25.09	-23.2	-24.0	18.9	0.00e+00	0	43	0	1049624576	7	3917
2026-01-28 01:31:33.57	44.88	25.22	-23.3	-24.1	18.9	0.00e+00	0	43	0	1055916032	7	3942
2026-01-28 01:31:34.58	45.07	25.34	-23.3	-24.2	18.8	0.00e+00	0	43	0	1061158912	7	3966
2026-01-28 01:31:35.58	45.26	25.47	-23.3	-24.1	18.9	0.00e+00	0	43	0	1066401792	7	3939
2026-01-28 01:31:36.59	45.45	25.59	-23.2	-23.8	19.0	0.00e+00	0	43	0	1072693248	7	3880
2026-01-28 01:31:37.59	45.64	25.72	-23.2	-23.9	19.0	0.00e+00	0	43	0	1077936128	7	3885
2026-01-28 01:31:38.60	45.83	25.85	-23.2	-23.9	19.0	0.00e+00	0	43	0	1084227584	7	3899
2026-01-28 01:31:39.60	46.03	25.97	-23.3	-24.2	18.9	0.00e+00	0	43	0	1089470464	7	3958
2026-01-28 01:31:40.61	46.23	26.10	-23.3	-24.1	18.9	0.00e+00	0	43	0	1095761920	7	3951
2026-01-28 01:31:41.61	46.43	26.22	-23.1	-23.6	19.2	0.00e+00	0	43	0	1101004800	7	3838
2026-01-28 01:31:42.62	46.63	26.35	-22.9	-23.1	19.4	0.00e+00	0	43	0	1106247680	7	3724
2026-01-28 01:31:43.62	46.83	26.48	-22.8	-23.1	19.4	0.00e+00	0	43	0	1112539136	7	3707
2026-01-28 01:31:44.62	47.03	26.60	-22.8	-23.0	19.5	0.00e+00	0	43	0	1117782016	7	3699
2026-01-28 01:31:45.63	47.24	26.73	-22.8	-23.5	19.5	0.00e+00	0	43	0	1123024896	6	3902
2026-01-28 01:31:46.64	47.44	26.86	-22.9	-23.7	19.4	0.00e+00	0	43	0	1129316352	6	3955
2026-01-28 01:31:47.63	47.65	26.99	-22.8	-23.5	19.5	0.00e+00	0	43	0	1134559232	6	3911
2026-01-28 01:31:48.64	47.86	27.12	-22.7	-23.3	19.6	0.00e+00	0	43	0	1140850688	6	3868
2026-01-28 01:31:49.64	48.07	27.24	-22.8	-23.5	19.5	0.00e+00	0	43	0	1146093568	6	3918
2026-01-28 01:31:50.64	48.28	27.37	-22.7	-23.4	19.6	0.00e+00	0	43	0	1151336448	6	3885
2026-01-28 01:31:51.65	48.50	27.50	-22.7	-23.4	19.6	0.00e+00	0	43	0	1157627904	6	3877
2026-01-28 01:31:52.66	48.72	27.63	-22.8	-23.6	19.5	0.00e+00	0	43	0	1162870784	6	3935
2026-01-28 01:31:53.65	48.93	27.76	-22.8	-23.6	19.5	0.00e+00	0	43	0	1169162240	6	3947
2026-01-28 01:31:54.66	49.15	27.89	-22.8	-24.1	19.4	0.00e+00	0	43	0	1174405120	5	4170
2026-01-28 01:31:55.66	49.37	28.02	-22.8	-24.0	19.5	0.00e+00	0	43	0	1179648000	5	4142
2026-01-28 01:31:56.67	49.60	28.15	-22.7	-23.9	19.5	0.00e+00	0	43	0	1185939456	5	4120
2026-01-28 01:31:57.68	49.83	28.28	-22.6	-23.7	19.7	0.00e+00	0	43	0	1191182336	5	4059
2026-01-28 01:31:58.68	50.05	28.41	-22.5	-23.4	19.8	0.00e+00	0	43	0	1196425216	5	4000
2026-01-28 01:31:59.68	50.28	28.54	-22.6	-23.6	19.7	0.00e+00	0	43	0	1202716672	5	4043
2026-01-28 01:32:00.68	50.51	28.67	-22.6	-23.6	19.7	0.00e+00	0	43	0	1207959552	5	4038
2026-01-28 01:32:01.68	50.74	28.80	-22.7	-23.8	19.6	0.00e+00	0	43	0	1213202432	5	4085
2026-01-28 01:32:02.69	50.98	28.93	-22.6	-23.6	19.7	0.00e+00	0	43	0	1219493888	5	4049
2026-01-28 01:32:03.68	51.21	29.06	-22.4	-23.3	19.9	4.23e-05	0	43	0	1224736768	5	3971
2026-01-28 01:32:04.69	51.45	29.19	-22.5	-23.3	19.9	0.00e+00	0	43	0	1231028224	5	3985
2026-01-28 01:32:05.69	51.69	29.32	-22.5	-23.4	19.9	0.00e+00	0	43	0	1236271104	5	3986
2026-01-28 01:32:06.69	51.93	29.45	-22.5	-23.3	19.9	0.00e+00	0	43	0	1242562560	5	3978
2026-01-28 01:32:07.69	52.17	29.58	-22.5	-23.4	19.8	0.00e+00	0	43	0	1247805440	5	4002
2026-01-28 01:32:08.70	52.42	29.71	-22.5	-23.4	19.8	0.00e+00	0	43	0	1253048320	5	4006
2026-01-28 01:32:09.70	52.67	29.84	-22.5	-23.5	19.8	0.00e+00	0	43	0	1259339776	5	4010
2026-01-28 01:32:10.70	52.92	29.97	-22.4	-23.2	20.0	0.00e+00	0	43	0	1264582656	5	3938
2026-01-28 01:32:11.70	53.17	30.10	-22.3	-23.0	20.1	0.00e+00	0	43	0	1269825536	5	3891
2026-01-28 01:32:12.71	53.42	30.23	-22.4	-23.3	19.9	0.00e+00	0	43	0	1276116992	5	3958
2026-01-28 01:32:13.72	53.68	30.37	-22.6	-23.5	19.8	0.00e+00	0	43	0	1281359872	5	4034
2026-01-28 01:32:14.72	53.94	30.50	-22.6	-23.6	19.7	0.00e+00	0	43	0	1286602752	5	4059
2026-01-28 01:32:15.72	54.19	30.63	-22.7	-23.8	19.6	3.15e-04	0	43	0	1292894208	5	4091
2026-01-28 01:32:16.72	54.46	30.76	-22.7	-23.9	19.6	0.00e+00	0	43	0	1298137088	5	4119
2026-01-28 01:32:17.73	54.72	30.89	-22.5	-23.4	19.9	1.52e-04	0	43	0	1304428544	5	3994
2026-01-28 01:32:18.73	54.99	31.02	-22.2	-22.8	20.2	5.03e-05	0	43	0	1309671424	5	3852
2026-01-28 01:32:19.73	55.25	31.15	-22.1	-22.7	20.3	0.00e+00	0	43	0	1314914304	5	3822
2026-01-28 01:32:20.73	55.52	31.28	-22.1	-22.6	20.3	4.80e-05	0	43	0	1321205760	5	3810
2026-01-28 01:32:21.73	55.79	31.41	-22.1	-22.7	20.2	0.00e+00	0	43	0	1326448640	5	3821
2026-01-28 01:32:22.74	56.07	31.54	-22.2	-22.9	20.2	0.00e+00	0	43	0	1332740096	5	3868
2026-01-28 01:32:23.74	56.35	31.67	-22.3	-23.0	20.1	0.00e+00	0	43	0	1337982976	5	3907
2026-01-28 01:32:24.74	56.62	31.80	-22.3	-23.1	20.0	2.48e-04	0	43	0	1343225856	5	3919
2026-01-28 01:32:25.75	56.91	31.93	-22.3	-23.0	20.1	0.00e+00	0	43	0	1349517312	5	3890
2026-01-28 01:32:26.75	57.19	32.06	-22.2	-22.9	20.2	2.08e-04	0	43	0	1354760192	5	3865
2026-01-28 01:32:27.75	57.48	32.19	-22.3	-23.1	20.1	2.62e-04	0	43	0	1360003072	5	3916
2026-01-28 01:32:28.76	57.77	32.32	-22.3	-22.9	20.1	0.00e+00	0	43	0	1366294528	5	3874
2026-01-28 01:32:29.75	58.05	32.45	-22.3	-23.0	20.1	2.96e-04	0	43	0	1371537408	5	3902
2026-01-28 01:32:30.77	58.35	32.58	-22.4	-23.2	20.0	3.17e-04	0	43	0	1377828864	5	3943
2026-01-28 01:32:31.77	58.64	32.70	-22.5	-23.4	19.9	0.00e+00	0	43	0	1383071744	5	4006
2026-01-28 01:32:32.78	58.94	32.83	-22.5	-23.4	19.9	3.16e-04	0	43	0	1388314624	5	3998
2026-01-28 01:32:33.78	59.24	32.96	-22.5	-23.5	19.9	2.77e-04	0	43	0	1394606080	5	4012
2026-01-28 01:32:34.78	59.54	33.09	-22.5	-23.5	19.9	0.00e+00	0	43	0	1399848960	5	4012
2026-01-28 01:32:35.79	59.85	33.22	-22.4	-23.2	20.0	1.13e-04	0	43	0	1406140416	5	3948
2026-01-28 01:32:36.79	60.15	33.34	-22.4	-23.2	20.0	1.25e-04	0	43	0	1411383296	5	3937
2026-01-28 01:32:37.80	60.46	33.47	-22.5	-23.4	19.9	0.00e+00	0	43	0	1416626176	5	4005
2026-01-28 01:32:38.80	60.77	33.60	-22.5	-23.3	19.9	1.06e-04	0	43	0	1422917632	5	3978
2026-01-28 01:32:39.80	61.09	33.72	-22.3	-23.1	20.1	1.33e-04	0	43	0	1428160512	5	3919
2026-01-28 01:32:40.81	61.40	33.85	-22.4	-23.1	20.0	0.00e+00	0	43	0	1433403392	5	3927
2026-01-28 01:32:41.82	61.72	33.97	-22.3	-23.0	20.1	9.72e-05	0	43	0	1439694848	5	3905
2026-01-28 01:32:42.82	62.04	34.10	-22.4	-23.3	20.0	0.00e+00	0	43	0	1444937728	5	3965
2026-01-28 01:32:43.82	62.37	34.22	-22.4	-23.2	20.0	0.00e+00	0	43	0	1451229184	5	3950
2026-01-28 01:32:44.82	62.69	34.34	-22.4	-23.1	20.1	0.00e+00	0	43	0	1456472064	5	3932
2026-01-28 01:32:45.83	63.02	34.47	-22.4	-23.1	20.0	1.92e-04	0	43	0	1461714944	5	3933
2026-01-28 01:32:46.83	63.35	34.59	-22.5	-23.4	19.9	0.00e+00	0	43	0	1468006400	5	3997
2026-01-28 01:32:47.83	63.68	34.71	-22.3	-23.1	20.1	0.00e+00	0	43	0	1473249280	5	3913
2026-01-28 01:32:48.83	64.02	34.83	-22.3	-23.0	20.1	1.54e-04	0	43	0	1478492160	5	3902
2026-01-28 01:32:49.83	64.35	34.95	-22.4	-23.2	20.0	0.00e+00	0	43	0	1484783616	5	3942
2026-01-28 01:32:50.84	64.70	35.07	-22.4	-23.2	20.1	1.44e-04	0	43	0	1490026496	5	3937
2026-01-28 01:32:51.84	65.04	35.19	-22.5	-23.4	19.9	1.10e-06	0	43	0	1496317952	5	4006
2026-01-28 01:32:52.84	65.38	35.31	-22.5	-23.4	19.9	0.00e+00	0	43	0	1501560832	5	3992
2026-01-28 01:32:53.84	65.73	35.43	-22.5	-23.3	19.9	0.00e+00	0	43	0	1506803712	5	3984
2026-01-28 01:32:54.85	66.08	35.55	-22.3	-23.1	20.1	0.00e+00	0	43	0	1513095168	5	3916
2026-01-28 01:32:55.86	66.44	35.66	-22.3	-23.0	20.1	0.00e+00	0	43	0	1518338048	5	3908
2026-01-28 01:32:56.86	66.79	35.78	-22.3	-23.0	20.1	0.00e+00	0	43	0	1524629504	5	3902
2026-01-28 01:32:57.86	67.15	35.89	-22.4	-23.3	20.0	1.25e-05	0	43	0	1529872384	5	3963
2026-01-28 01:32:58.86	67.51	36.01	-22.5	-23.3	20.0	0.00e+00	0	43	0	1535115264	5	3977
2026-01-28 01:32:59.86	67.87	36.12	-22.6	-23.6	19.9	0.00e+00	0	43	0	1541406720	5	4033
2026-01-28 01:33:00.86	68.23	36.23	-22.5	-23.3	20.0	3.40e-06	0	43	0	1546649600	5	3985
2026-01-28 01:33:01.87	68.60	36.35	-22.3	-22.9	20.2	0.00e+00	0	43	0	1551892480	5	3880
2026-01-28 01:33:02.87	68.97	36.46	-22.2	-22.8	20.2	0.00e+00	0	43	0	1558183936	5	3867
2026-01-28 01:33:03.88	69.35	36.57	-22.4	-23.2	20.1	1.10e-06	0	43	0	1563426816	5	3948
2026-01-28 01:33:04.88	69.72	36.67	-22.3	-23.0	20.0	0.00e+00	0	43	0	1569718272	5	3913
2026-01-28 01:33:05.89	70.10	36.78	-22.2	-22.9	20.0	0.00e+00	0	43	0	1574961152	5	3892
2026-01-28 01:33:06.89	70.48	36.89	-22.2	-22.8	20.1	0.00e+00	0	43	0	1580204032	5	3861
2026-01-28 01:33:07.90	70.87	37.00	-22.3	-23.0	20.0	0.00e+00	0	43	0	1586495488	5	3906
2026-01-28 01:33:08.90	71.25	37.10	-22.2	-22.8	20.1	0.00e+00	0	43	0	1591738368	5	3860
2026-01-28 01:33:09.91	71.64	37.20	-22.3	-23.1	20.0	0.00e+00	0	43	0	1598029824	5	3931
2026-01-28 01:33:10.91	72.03	37.31	-22.1	-22.6	20.2	0.00e+00	0	43	0	1603272704	5	3823
2026-01-28 01:33:11.91	72.42	37.41	-21.9	-22.2	20.4	0.00e+00	0	43	0	1608515584	5	3730
2026-01-28 01:33:12.91	72.81	37.51	-21.9	-22.2	20.4	0.00e+00	0	43	0	1614807040	5	3722
2026-01-28 01:33:13.92	73.21	37.61	-21.9	-22.2	20.4	0.00e+00	0	43	0	1620049920	5	3732
2026-01-28 01:33:14.92	73.61	37.70	-22.0	-22.3	20.3	0.00e+00	0	43	0	1625292800	5	3762
2026-01-28 01:33:15.93	74.02	37.80	-22.0	-22.4	20.3	0.00e+00	0	43	0	1631584256	5	3766
2026-01-28 01:33:16.93	74.42	37.89	-22.0	-22.5	20.2	0.00e+00	0	43	0	1636827136	5	3797
2026-01-28 01:33:17.94	74.83	37.99	-21.8	-22.0	20.5	0.00e+00	0	43	0	1643118592	5	3688
2026-01-28 01:33:18.94	75.24	38.08	-21.8	-22.5	20.5	0.00e+00	0	43	0	1648361472	4	3907
2026-01-28 01:33:19.94	75.65	38.17	-22.0	-22.9	20.3	0.00e+00	0	43	0	1653604352	4	3994
2026-01-28 01:33:20.95	76.06	38.26	-22.1	-23.2	20.1	0.00e+00	0	43	0	1659895808	4	4064
2026-01-28 01:33:21.95	76.48	38.35	-22.1	-23.1	20.2	0.00e+00	0	43	0	1665138688	4	4052
2026-01-28 01:33:22.96	76.90	38.44	-21.9	-22.7	20.4	0.00e+00	0	43	0	1671430144	4	3940
2026-01-28 01:33:23.96	77.32	38.52	-21.8	-22.6	20.5	0.00e+00	0	43	0	1676673024	4	3915
2026-01-28 01:33:24.97	77.74	38.61	-22.2	-23.3	20.1	0.00e+00	0	43	0	1681915904	4	4090
2026-01-28 01:33:25.97	78.16	38.69	-22.1	-23.2	20.1	0.00e+00	0	43	0	1688207360	4	4076
2026-01-28 01:33:26.98	78.59	38.77	-22.4	-23.7	19.9	0.00e+00	0	43	0	1693450240	4	4197
2026-01-28 01:33:27.99	79.03	38.85	-22.0	-22.9	20.3	0.00e+00	0	43	0	1699741696	4	4008
2026-01-28 01:33:28.99	79.46	38.93	-22.1	-23.2	20.2	0.00e+00	0	43	0	1704984576	4	4064
2026-01-28 01:33:29.99	79.89	39.00	-22.5	-24.0	19.8	0.00e+00	0	43	0	1710227456	4	4271
2026-01-28 01:33:30.99	80.32	39.08	-22.4	-23.2	19.9	0.00e+00	0	43	0	1716518912	5	3954
2026-01-28 01:33:31.99	80.76	39.15	-22.2	-22.9	20.0	0.00e+00	0	43	0	1721761792	5	3902
2026-01-28 01:33:33.00	81.20	39.22	-22.1	-22.6	20.2	0.00e+00	0	43	0	1727004672	5	3832
2026-01-28 01:33:34.00	81.64	39.29	-22.0	-22.5	20.3	0.00e+00	0	43	0	1733296128	5	3798
2026-01-28 01:33:35.00	82.08	39.36	-22.1	-22.7	20.2	0.00e+00	0	43	0	1738539008	5	3837
2026-01-28 01:33:36.00	82.52	39.42	-21.9	-22.2	20.5	0.00e+00	0	43	0	1744830464	5	3722
2026-01-28 01:33:37.01	82.97	39.49	-21.9	-22.3	20.4	0.00e+00	0	43	0	1750073344	5	3744
2026-01-28 01:33:38.01	83.42	39.55	-22.2	-22.8	20.1	0.00e+00	0	43	0	1755316224	5	3864
2026-01-28 01:33:39.02	83.87	39.61	-22.0	-22.5	20.3	0.00e+00	0	43	0	1761607680	5	3791
2026-01-28 01:33:40.02	84.32	39.67	-21.9	-22.2	20.4	0.00e+00	0	43	0	1766850560	5	3731
2026-01-28 01:33:41.03	84.77	39.73	-22.0	-22.5	20.3	0.00e+00	0	43	0	1772093440	5	3800
2026-01-28 01:33:42.03	85.23	39.78	-22.0	-22.4	20.4	0.00e+00	0	43	0	1778384896	5	3765
2026-01-28 01:33:43.03	85.68	39.83	-21.9	-22.2	20.4	0.00e+00	0	43	0	1783627776	5	3734
2026-01-28 01:33:44.04	86.14	39.88	-21.8	-22.1	20.5	0.00e+00	0	43	0	1789919232	5	3709
2026-01-28 01:33:45.04	86.60	39.93	-22.0	-22.4	20.3	3.77e-05	0	43	0	1795162112	5	3764
2026-01-28 01:33:46.05	87.06	39.98	-21.9	-22.1	20.5	0.00e+00	0	43	0	1800404992	5	3710
2026-01-28 01:33:47.05	87.52	40.03	-21.9	-22.3	20.4	0.00e+00	0	43	0	1806696448	5	3749
2026-01-28 01:33:48.05	87.98	40.07	-22.2	-22.8	20.1	0.00e+00	0	43	0	1811939328	5	3878
2026-01-28 01:33:49.05	88.44	40.11	-22.5	-23.6	19.8	0.00e+00	0	43	0	1818230784	5	4052
2026-01-28 01:33:50.06	88.91	40.15	-22.4	-23.3	19.9	6.86e-05	0	43	0	1823473664	5	3980
2026-01-28 01:33:51.06	89.38	40.19	-22.2	-22.9	20.1	0.00e+00	0	43	0	1828716544	5	3889
2026-01-28 01:33:52.06	89.84	40.22	-22.2	-22.8	20.2	0.00e+00	0	43	0	1835008000	5	3859
2026-01-28 01:33:53.07	90.31	40.25	-22.4	-23.2	20.0	0.00e+00	0	43	0	1840250880	5	3963
2026-01-28 01:33:54.07	90.78	40.28	-22.2	-22.9	20.1	0.00e+00	0	43	0	1845493760	5	3902
2026-01-28 01:33:55.07	91.25	40.31	-22.5	-23.4	19.8	0.00e+00	0	43	0	1851785216	5	4018
2026-01-28 01:33:56.07	91.72	40.34	-22.2	-22.9	20.1	0.00e+00	0	43	0	1857028096	5	3891
2026-01-28 01:33:57.08	92.19	40.36	-22.2	-22.8	20.2	1.37e-05	0	43	0	1862270976	5	3862
2026-01-28 01:33:58.08	92.66	40.39	-22.2	-22.8	20.2	0.00e+00	0	43	0	1868562432	5	3863
2026-01-28 01:33:59.08	93.13	40.41	-22.0	-22.4	20.4	2.40e-05	0	43	0	1873805312	5	3771
2026-01-28 01:34:00.08	93.60	40.42	-22.0	-22.4	20.3	2.05e-05	0	43	0	1880096768	5	3782
2026-01-28 01:34:01.08	94.08	40.44	-22.4	-23.3	20.0	0.00e+00	0	43	0	1885339648	5	3974
2026-01-28 01:34:02.08	94.55	40.45	-22.7	-23.9	19.6	1.71e-05	0	43	0	1890582528	5	4143
2026-01-28 01:34:03.08	95.02	40.47	-22.6	-23.6	19.8	0.00e+00	0	43	0	1896873984	5	4068
2026-01-28 01:34:04.08	95.50	40.48	-22.5	-23.4	19.9	0.00e+00	0	43	0	1902116864	5	4015
2026-01-28 01:34:05.09	95.97	40.48	-22.6	-23.7	19.7	3.43e-05	0	43	0	1908408320	5	4089
2026-01-28 01:34:06.09	96.45	40.49	-22.5	-23.4	19.9	4.80e-05	0	43	0	1913651200	5	3995
2026-01-28 01:34:07.09	96.92	40.49	-22.5	-23.4	19.9	0.00e+00	0	43	0	1918894080	5	4019
2026-01-28 01:34:08.09	97.39	40.49	-22.6	-23.7	19.7	8.58e-05	0	43	0	1925185536	5	4086
2026-01-28 01:34:09.10	97.87	40.49	-22.4	-23.2	20.0	1.38e-04	0	43	0	1930428416	5	3975
2026-01-28 01:34:10.11	98.35	40.49	-22.2	-22.8	20.1	0.00e+00	0	43	0	1936719872	5	3866
2026-01-28 01:34:11.12	98.83	40.48	-22.1	-22.7	20.2	5.14e-05	0	43	0	1941962752	5	3853
2026-01-28 01:34:12.12	99.30	40.47	-22.3	-23.0	20.0	0.00e+00	0	43	0	1947205632	5	3921
2026-01-28 01:34:13.12	99.78	40.46	-22.3	-23.0	20.1	0.00e+00	0	43	0	1953497088	5	3914
2026-01-28 01:34:14.13	100.26	40.45	-22.4	-23.2	19.9	0.00e+00	0	43	0	1958739968	5	3973
2026-01-28 01:34:15.13	100.73	40.44	-22.5	-23.4	19.9	0.00e+00	0	43	0	1965031424	5	4017
2026-01-28 01:34:16.13	101.20	40.42	-22.3	-23.0	20.1	0.00e+00	0	43	0	1970274304	5	3913
2026-01-28 01:34:17.14	101.68	40.40	-22.2	-22.8	20.2	0.00e+00	0	43	0	1975517184	5	3873
2026-01-28 01:34:18.14	102.15	40.38	-22.2	-22.9	20.1	6.80e-06	0	43	0	1981808640	5	3882
2026-01-28 01:34:19.15	102.62	40.36	-22.4	-23.3	19.9	0.00e+00	0	43	0	1987051520	5	3989
2026-01-28 01:34:20.15	103.09	40.33	-22.3	-23.1	20.0	9.10e-06	0	43	0	1992294400	5	3941
2026-01-28 01:34:21.15	103.56	40.31	-22.3	-23.0	20.1	0.00e+00	0	43	0	1998585856	5	3916
2026-01-28 01:34:22.16	104.04	40.28	-22.3	-23.1	20.0	0.00e+00	0	43	0	2003828736	5	3949
2026-01-28 01:34:23.16	104.50	40.25	-22.4	-23.2	20.0	0.00e+00	0	43	0	2010120192	5	3961
2026-01-28 01:34:24.16	104.97	40.21	-22.3	-23.1	20.0	0.00e+00	0	43	0	2015363072	5	3939
2026-01-28 01:34:25.16	105.44	40.18	-22.3	-23.0	20.1	0.00e+00	0	43	0	2020605952	5	3909
2026-01-28 01:34:26.17	105.90	40.14	-22.2	-22.9	20.1	0.00e+00	0	43	0	2026897408	5	3893
2026-01-28 01:34:27.17	106.37	40.10	-22.2	-22.7	20.2	0.00e+00	0	43	0	2032140288	5	3853
2026-01-28 01:34:28.18	106.83	40.06	-22.0	-22.5	20.3	0.00e+00	0	43	0	2037383168	5	3804
2026-01-28 01:34:29.18	107.30	40.02	-22.0	-22.4	20.3	0.00e+00	0	43	0	2043674624	5	3781
2026-01-28 01:34:30.18	107.76	39.97	-22.1	-22.6	20.3	0.00e+00	0	43	0	2048917504	5	3819
2026-01-28 01:34:31.18	108.21	39.92	-22.0	-22.4	20.3	0.00e+00	0	43	0	2055208960	5	3785
2026-01-28 01:34:32.19	108.68	39.87	-22.1	-22.7	20.2	1.10e-06	0	43	0	2060451840	5	3859
2026-01-28 01:34:33.19	109.13	39.82	-22.1	-22.6	20.3	0.00e+00	0	43	0	2065694720	5	3827
2026-01-28 01:34:34.19	109.59	39.77	-21.9	-22.3	20.4	0.00e+00	0	43	0	2071986176	5	3759
2026-01-28 01:34:35.20	110.04	39.71	-22.0	-22.4	20.4	0.00e+00	0	43	0	2077229056	5	3764
2026-01-28 01:34:36.20	110.50	39.66	-22.3	-22.9	20.1	0.00e+00	0	43	0	2083520512	5	3894
2026-01-28 01:34:37.20	110.95	39.60	-22.3	-23.1	20.0	0.00e+00	0	43	0	2088763392	5	3930
2026-01-28 01:34:38.21	111.40	39.54	-22.7	-23.8	19.7	0.00e+00	0	43	0	2094006272	5	4110
2026-01-28 01:34:39.21	111.85	39.47	-22.4	-23.3	19.9	0.00e+00	0	43	0	2100297728	5	3992
2026-01-28 01:34:40.20	112.29	39.41	-22.3	-23.1	20.0	0.00e+00	0	43	0	2105540608	5	3940
2026-01-28 01:34:41.21	112.73	39.34	-22.4	-23.2	19.9	0.00e+00	0	43	0	2110783488	5	3967
2026-01-28 01:34:42.21	113.18	39.28	-22.3	-23.1	20.0	0.00e+00	0	43	0	2117074944	5	3933
2026-01-28 01:34:43.22	113.62	39.20	-22.4	-23.4	19.9	0.00e+00	0	43	0	2122317824	5	4001
2026-01-28 01:34:44.22	114.06	39.13	-22.5	-23.5	19.8	0.00e+00	0	43	0	2127560704	5	4044
2026-01-28 01:34:45.22	114.49	39.06	-22.3	-23.0	20.1	0.00e+00	0	43	0	2133852160	5	3912
2026-01-28 01:34:46.23	114.93	38.99	-21.9	-22.2	20.4	0.00e+00	0	43	0	2139095040	5	3736
2026-01-28 01:34:47.23	115.36	38.91	-21.8	-22.1	20.5	0.00e+00	0	43	0	2145386496	5	3697
2026-01-28 01:34:48.24	115.80	38.83	-21.9	-22.3	20.4	0.00e+00	0	43	0	2150629376	5	3750
2026-01-28 01:34:49.24	116.22	38.75	-22.1	-22.7	20.2	0.00e+00	0	43	0	2156920832	5	3841
2026-01-28 01:34:50.24	116.65	38.67	-22.3	-23.1	20.0	0.00e+00	0	43	0	2162163712	5	3939
2026-01-28 01:34:51.25	117.08	38.59	-22.3	-23.1	20.0	0.00e+00	0	43	0	2167406592	5	3952
2026-01-28 01:34:52.25	117.50	38.50	-22.3	-23.0	20.0	0.00e+00	0	43	0	2173698048	5	3925
2026-01-28 01:34:53.25	117.92	38.42	-22.2	-22.9	20.1	0.00e+00	0	43	0	2178940928	5	3881
2026-01-28 01:34:54.26	118.34	38.33	-22.2	-22.9	20.1	0.00e+00	0	43	0	2184183808	5	3891
2026-01-28 01:34:55.26	118.75	38.24	-22.1	-22.7	20.2	0.00e+00	0	43	0	2190475264	5	3840
2026-01-28 01:34:56.26	119.17	38.15	-22.1	-22.6	20.3	0.00e+00	0	43	0	2195718144	5	3825
2026-01-28 01:34:57.27	119.58	38.06	-22.1	-22.6	20.2	0.00e+00	0	43	0	2200961024	5	3833
2026-01-28 01:34:58.27	119.99	37.97	-22.2	-22.8	20.2	0.00e+00	0	43	0	2207252480	5	3882
2026-01-28 01:34:59.27	120.40	37.87	-22.2	-22.8	20.1	0.00e+00	0	43	0	2212495360	5	3880
2026-01-28 01:35:00.28	120.80	37.77	-22.3	-23.1	20.0	0.00e+00	0	43	0	2218786816	5	3935
2026-01-28 01:35:01.27	121.20	37.68	-22.2	-22.9	20.1	0.00e+00	0	43	0	2224029696	5	3899
2026-01-28 01:35:02.28	121.60	37.58	-22.4	-23.2	20.0	1.10e-06	0	43	0	2229272576	5	3954
2026-01-28 01:35:03.28	122.00	37.48	-22.5	-23.5	19.8	0.00e+00	0	43	0	2235564032	5	4023
2026-01-28 01:35:04.29	122.40	37.38	-22.5	-23.4	19.8	0.00e+00	0	43	0	2240806912	5	4016
2026-01-28 01:35:05.29	122.79	37.28	-22.6	-23.7	19.7	0.00e+00	0	43	0	2247098368	5	4081
2026-01-28 01:35:06.29	123.18	37.18	-22.4	-23.4	19.9	0.00e+00	0	43	0	2252341248	5	4003
2026-01-28 01:35:07.30	123.57	37.07	-22.4	-23.3	19.9	0.00e+00	0	43	0	2257584128	5	3987
2026-01-28 01:35:08.31	123.96	36.97	-22.4	-23.4	19.9	0.00e+00	0	43	0	2263875584	5	4008
2026-01-28 01:35:09.31	124.34	36.86	-22.4	-23.2	19.9	0.00e+00	0	43	0	2269118464	5	3971
2026-01-28 01:35:10.31	124.72	36.75	-22.4	-23.3	19.9	0.00e+00	0	43	0	2274361344	5	3995
2026-01-28 01:35:11.31	125.10	36.64	-22.6	-23.7	19.7	0.00e+00	0	43	0	2280652800	5	4094
2026-01-28 01:35:12.31	125.47	36.54	-22.7	-23.8	19.6	0.00e+00	0	43	0	2285895680	5	4112
2026-01-28 01:35:13.31	125.84	36.43	-22.4	-23.2	19.9	0.00e+00	0	43	0	2292187136	5	3958
2026-01-28 01:35:14.32	126.22	36.31	-22.2	-22.7	20.2	0.00e+00	0	43	0	2297430016	5	3854
2026-01-28 01:35:15.33	126.59	36.20	-22.1	-22.7	20.2	0.00e+00	0	43	0	2302672896	5	3834
2026-01-28 01:35:16.33	126.95	36.09	-22.3	-23.0	20.1	0.00e+00	0	43	0	2308964352	5	3906
2026-01-28 01:35:17.33	127.31	35.97	-22.3	-23.1	20.0	0.00e+00	0	43	0	2314207232	5	3944
2026-01-28 01:35:18.34	127.68	35.86	-22.5	-23.5	19.8	0.00e+00	0	43	0	2320498688	5	4026
2026-01-28 01:35:19.34	128.03	35.74	-22.5	-23.4	19.8	0.00e+00	0	43	0	2325741568	5	4023
2026-01-28 01:35:20.34	128.39	35.63	-22.4	-23.3	19.9	0.00e+00	0	43	0	2330984448	5	3988
2026-01-28 01:35:21.35	128.74	35.51	-22.2	-22.8	20.1	0.00e+00	0	43	0	2337275904	5	3869
2026-01-28 01:35:22.35	129.09	35.39	-22.1	-22.6	20.2	0.00e+00	0	43	0	2342518784	5	3823
2026-01-28 01:35:23.35	129.44	35.27	-22.2	-22.8	20.1	0.00e+00	0	43	0	2347761664	5	3872
2026-01-28 01:35:24.35	129.78	35.15	-22.1	-22.7	20.1	0.00e+00	0	43	0	2354053120	5	3851
2026-01-28 01:35:25.35	130.13	35.03	-22.2	-22.9	20.0	0.00e+00	0	43	0	2359296000	5	3903
2026-01-28 01:35:26.36	130.47	34.91	-22.3	-23.0	20.0	0.00e+00	0	43	0	2365587456	5	3920
2026-01-28 01:35:27.36	130.81	34.79	-22.2	-22.8	20.1	0.00e+00	0	43	0	2370830336	5	3871
2026-01-28 01:35:28.36	131.14	34.67	-22.1	-22.7	20.1	0.00e+00	0	43	0	2376073216	5	3848
2026-01-28 01:35:29.36	131.47	34.55	-22.2	-22.9	20.0	0.00e+00	0	43	0	2382364672	5	3904
2026-01-28 01:35:30.37	131.81	34.42	-22.4	-23.3	19.8	0.00e+00	0	43	0	2387607552	5	3997
2026-01-28 01:35:31.36	132.13	34.30	-22.5	-23.4	19.8	0.00e+00	0	43	0	2392850432	5	4021
2026-01-28 01:35:32.37	132.46	34.18	-22.3	-23.2	19.9	0.00e+00	0	43	0	2399141888	5	3962
2026-01-28 01:35:33.37	132.78	34.05	-22.5	-23.4	19.8	0.00e+00	0	43	0	2404384768	5	4030
2026-01-28 01:35:34.38	133.11	33.93	-22.7	-23.9	19.5	0.00e+00	0	43	0	2409627648	5	4142
2026-01-28 01:35:35.38	133.42	33.80	-22.7	-24.0	19.5	0.00e+00	0	43	0	2415919104	5	4161
2026-01-28 01:35:36.39	133.74	33.67	-22.7	-24.0	19.4	0.00e+00	0	43	0	2421161984	5	4167
2026-01-28 01:35:37.39	134.06	33.55	-22.7	-23.8	19.5	0.00e+00	0	43	0	2427453440	5	4127
2026-01-28 01:35:38.39	134.37	33.42	-22.6	-23.6	19.6	1.58e-04	0	43	0	2432696320	5	4070
2026-01-28 01:35:39.40	134.68	33.29	-22.4	-23.3	19.8	0.00e+00	0	43	0	2438987776	5	3997
2026-01-28 01:35:40.41	134.99	33.16	-22.6	-23.6	19.6	1.96e-04	0	43	0	2444230656	5	4078
2026-01-28 01:35:41.41	135.29	33.04	-22.6	-23.8	19.5	1.52e-04	0	43	0	2449473536	5	4116
2026-01-28 01:35:42.41	135.59	32.91	-22.5	-23.6	19.6	0.00e+00	0	43	0	2455764992	5	4063
2026-01-28 01:35:43.41	135.89	32.78	-22.6	-23.7	19.6	3.66e-05	0	43	0	2461007872	5	4094
2026-01-28 01:35:44.41	136.19	32.65	-22.8	-24.1	19.4	0.00e+00	0	43	0	2466250752	5	4187
2026-01-28 01:35:45.41	136.48	32.52	-22.9	-23.9	19.3	0.00e+00	0	43	0	2472542208	6	4018
2026-01-28 01:35:46.42	136.78	32.39	-22.6	-23.2	19.6	0.00e+00	0	43	0	2477785088	6	3863
2026-01-28 01:35:47.43	137.07	32.26	-22.5	-23.1	19.7	6.06e-05	0	43	0	2483027968	6	3824
2026-01-28 01:35:48.43	137.35	32.13	-22.6	-23.2	19.6	0.00e+00	0	43	0	2489319424	6	3857
2026-01-28 01:35:49.43	137.64	32.00	-22.6	-23.3	19.6	0.00e+00	0	43	0	2494562304	6	3870
2026-01-28 01:35:50.43	137.92	31.87	-22.7	-23.4	19.5	1.61e-04	0	43	0	2500853760	6	3906
2026-01-28 01:35:51.44	138.21	31.74	-22.8	-23.7	19.4	0.00e+00	0	43	0	2506096640	6	3969
2026-01-28 01:35:52.44	138.48	31.61	-22.9	-23.8	19.3	2.75e-04	0	43	0	2512388096	6	3998
2026-01-28 01:35:53.45	138.76	31.48	-22.9	-23.8	19.3	3.00e-04	0	43	0	2517630976	6	4003
2026-01-28 01:35:54.45	139.04	31.35	-22.8	-23.6	19.4	0.00e+00	0	43	0	2522873856	6	3944
2026-01-28 01:35:55.46	139.31	31.22	-22.7	-23.3	19.5	2.95e-04	0	43	0	2529165312	6	3890
2026-01-28 01:35:56.46	139.58	31.08	-22.6	-23.2	19.6	2.30e-04	0	43	0	2534408192	6	3866
2026-01-28 01:35:57.46	139.85	30.95	-22.6	-23.2	19.6	0.00e+00	0	43	0	2539651072	6	3844
2026-01-28 01:35:58.47	140.12	30.82	-22.6	-23.1	19.6	2.71e-04	0	43	0	2545942528	6	3844
2026-01-28 01:35:59.47	140.38	30.69	-22.6	-23.1	19.6	2.88e-04	0	43	0	2551185408	6	3837
2026-01-28 01:36:00.47	140.64	30.56	-22.7	-23.5	19.4	0.00e+00	0	43	0	2556428288	6	3926
2026-01-28 01:36:01.48	140.90	30.43	-22.9	-23.9	19.2	5.38e-04	0	43	0	2562719744	6	4023
2026-01-28 01:36:02.48	141.16	30.30	-23.1	-24.2	19.1	5.23e-04	0	43	0	2567962624	6	4115
2026-01-28 01:36:03.48	141.42	30.16	-23.2	-24.5	18.9	0.00e+00	0	43	0	2574254080	6	4168
2026-01-28 01:36:04.49	141.67	30.03	-23.2	-24.4	19.0	5.19e-04	0	43	0	2579496960	6	4152
2026-01-28 01:36:05.49	141.92	29.90	-23.1	-24.2	19.1	0.00e+00	0	43	0	2585788416	6	4107
2026-01-28 01:36:06.50	142.17	29.77	-23.0	-24.1	19.2	0.00e+00	0	43	0	2591031296	6	4061
2026-01-28 01:36:07.50	142.42	29.64	-23.1	-24.3	19.0	0.00e+00	0	43	0	2596274176	6	4116
2026-01-28 01:36:08.51	142.67	29.50	-23.1	-24.2	19.1	6.21e-04	0	43	0	2602565632	6	4093
2026-01-28 01:36:09.52	142.91	29.37	-22.9	-23.8	19.3	0.00e+00	0	43	0	2607808512	6	4000
2026-01-28 01:36:10.52	143.16	29.24	-22.9	-23.8	19.3	0.00e+00	0	43	0	2613051392	6	3999
2026-01-28 01:36:11.53	143.40	29.11	-22.9	-23.9	19.2	7.20e-04	0	43	0	2619342848	6	4026
2026-01-28 01:36:12.53	143.63	28.98	-23.1	-24.2	19.1	0.00e+00	0	43	0	2624585728	6	4099
2026-01-28 01:36:13.53	143.87	28.85	-23.1	-24.2	19.0	7.00e-04	0	43	0	2629828608	6	4109
2026-01-28 01:36:14.53	144.10	28.72	-23.0	-24.2	19.1	0.00e+00	0	43	0	2636120064	6	4097
2026-01-28 01:36:15.53	144.34	28.59	-23.2	-24.4	19.0	0.00e+00	0	43	0	2641362944	6	4149
2026-01-28 01:36:16.53	144.56	28.46	-23.1	-24.2	19.1	7.64e-04	0	43	0	2647654400	6	4093
2026-01-28 01:36:17.53	144.79	28.32	-22.8	-23.7	19.3	0.00e+00	0	43	0	2652897280	6	3966
2026-01-28 01:36:18.54	145.02	28.19	-22.8	-23.6	19.4	0.00e+00	0	43	0	2659188736	6	3945
2026-01-28 01:36:19.55	145.25	28.06	-22.8	-23.6	19.4	0.00e+00	0	43	0	2664431616	6	3947
2026-01-28 01:36:20.55	145.47	27.93	-22.9	-23.9	19.2	9.66e-04	0	43	0	2669674496	6	4016
2026-01-28 01:36:21.56	145.69	27.80	-23.0	-24.0	19.1	0.00e+00	0	43	0	2675965952	6	4048
2026-01-28 01:36:22.56	145.91	27.67	-22.9	-24.0	19.2	0.00e+00	0	43	0	2681208832	6	4043
2026-01-28 01:36:23.57	146.13	27.54	-23.0	-24.1	19.1	0.00e+00	0	43	0	2686451712	6	4070
2026-01-28 01:36:24.56	146.35	27.41	-23.0	-24.1	19.1	0.00e+00	0	43	0	2692743168	6	4087
2026-01-28 01:36:25.57	146.56	27.28	-23.0	-24.1	19.1	0.00e+00	0	43	0	2697986048	6	4085
2026-01-28 01:36:26.57	146.77	27.15	-23.0	-24.0	19.1	0.00e+00	0	43	0	2703228928	6	4066
2026-01-28 01:36:27.58	146.99	27.02	-23.0	-24.0	19.1	0.00e+00	0	43	0	2709520384	6	4038
2026-01-28 01:36:28.58	147.20	26.90	-22.8	-23.6	19.3	0.00e+00	0	43	0	2714763264	6	3952
2026-01-28 01:36:29.58	147.40	26.77	-22.9	-23.7	19.3	0.00e+00	0	43	0	2721054720	6	3973
2026-01-28 01:36:30.58	147.61	26.64	-22.8	-23.7	19.3	0.00e+00	0	43	0	2726297600	6	3961
2026-01-28 01:36:31.58	147.81	26.51	-22.7	-23.5	19.4	0.00e+00	0	43	0	2732589056	6	3924
2026-01-28 01:36:32.58	148.02	26.38	-22.9	-24.3	19.2	0.00e+00	0	43	0	2737831936	5	4226
2026-01-28 01:36:33.58	148.22	26.26	-22.9	-24.4	19.1	0.00e+00	0	43	0	2743074816	5	4267
2026-01-28 01:36:34.59	148.42	26.13	-23.1	-24.3	19.0	0.00e+00	0	43	0	2749366272	6	4115
2026-01-28 01:36:35.59	148.62	26.00	-23.4	-24.8	18.7	0.00e+00	0	43	0	2754609152	6	4259
2026-01-28 01:36:36.59	148.81	25.88	-23.4	-24.4	18.6	0.00e+00	0	43	0	2759852032	7	4049
2026-01-28 01:36:37.59	149.01	25.75	-23.2	-24.1	18.8	0.00e+00	0	43	0	2766143488	7	3963
2026-01-28 01:36:38.60	149.20	25.62	-23.2	-24.5	18.9	0.00e+00	0	43	0	2771386368	6	4167
2026-01-28 01:36:39.60	149.39	25.50	-23.2	-24.4	18.9	0.00e+00	0	43	0	2776629248	6	4156
2026-01-28 01:36:40.60	149.58	25.37	-23.2	-24.5	18.8	0.00e+00	0	43	0	2782920704	6	4172
2026-01-28 01:36:41.60	149.77	25.24	-23.2	-24.5	18.8	0.00e+00	0	43	0	2788163584	6	4185
2026-01-28 01:36:42.60	149.96	25.12	-23.2	-24.5	18.8	0.00e+00	0	43	0	2794455040	6	4186
2026-01-28 01:36:43.60	150.15	25.00	-23.2	-24.4	18.9	0.00e+00	0	43	0	2799697920	6	4145
2026-01-28 01:36:44.60	150.33	24.87	-23.2	-24.4	18.9	0.00e+00	0	43	0	2804940800	6	4144
2026-01-28 01:36:45.60	150.51	24.75	-23.1	-24.3	18.9	0.00e+00	0	43	0	2811232256	6	4121
2026-01-28 01:36:46.61	150.70	24.62	-23.1	-24.3	19.0	0.00e+00	0	43	0	2816475136	6	4112
2026-01-28 01:36:47.60	150.88	24.50	-23.2	-24.5	18.8	0.00e+00	0	43	0	2821718016	6	4183
2026-01-28 01:36:48.61	151.06	24.37	-23.3	-24.6	18.7	0.00e+00	0	43	0	2828009472	6	4203
2026-01-28 01:36:49.61	151.23	24.25	-23.3	-24.7	18.7	0.00e+00	0	43	0	2833252352	6	4231
2026-01-28 01:36:50.62	151.41	24.13	-23.4	-24.9	18.6	0.00e+00	0	43	0	2838495232	6	4263
2026-01-28 01:36:51.63	151.59	24.00	-23.5	-25.0	18.5	0.00e+00	0	43	0	2844786688	6	4310
2026-01-28 01:36:52.63	151.76	23.88	-23.5	-24.6	18.5	0.00e+00	0	43	0	2850029568	7	4088
2026-01-28 01:36:53.63	151.93	23.76	-23.7	-24.9	18.3	0.00e+00	0	43	0	2856321024	7	4162
2026-01-28 01:36:54.63	152.10	23.64	-23.6	-24.9	18.3	0.00e+00	0	43	0	2861563904	7	4152
2026-01-28 01:36:55.64	152.28	23.52	-23.8	-25.2	18.1	0.00e+00	0	43	0	2867855360	7	4248
2026-01-28 01:36:56.65	152.45	23.39	-24.2	-25.6	17.8	0.00e+00	0	43	0	2873098240	8	4211
2026-01-28 01:36:57.65	152.61	23.27	-24.1	-25.5	17.8	0.00e+00	0	43	0	2878341120	8	4188
2026-01-28 01:36:58.66	152.78	23.15	-23.8	-24.8	18.2	0.00e+00	0	43	0	2884632576	8	4017
2026-01-28 01:36:59.67	152.95	23.03	-23.6	-24.8	18.3	0.00e+00	0	43	0	2889875456	7	4148
2026-01-28 01:37:00.67	153.11	22.91	-23.5	-24.7	18.4	0.00e+00	0	43	0	2895118336	7	4109
2026-01-28 01:37:01.67	153.27	22.79	-23.6	-24.8	18.3	0.00e+00	0	43	0	2901409792	7	4147
2026-01-28 01:37:02.67	153.43	22.67	-23.8	-25.2	18.1	0.00e+00	0	43	0	2906652672	7	4247
2026-01-28 01:37:03.68	153.59	22.55	-23.8	-25.3	18.1	0.00e+00	0	43	0	2911895552	7	4257
2026-01-28 01:37:04.68	153.75	22.44	-23.9	-25.5	18.0	0.00e+00	0	43	0	2918187008	7	4314
2026-01-28 01:37:05.68	153.91	22.32	-23.9	-25.5	18.0	0.00e+00	0	43	0	2923429888	7	4320
2026-01-28 01:37:06.69	154.07	22.20	-23.9	-25.5	18.0	2.20e-06	0	44	0	2929721344	7	4308
2026-01-28 01:37:07.69	154.22	22.08	-23.9	-25.5	17.9	0.00e+00	0	43	0	2934964224	7	4329
2026-01-28 01:37:08.69	154.38	21.97	-23.9	-25.5	18.0	0.00e+00	0	43	0	2941255680	7	4309
2026-01-28 01:37:09.70	154.53	21.85	-24.0	-25.7	17.9	3.40e-06	0	43	0	2946498560	7	4365
2026-01-28 01:37:10.70	154.68	21.73	-24.3	-25.8	17.5	0.00e+00	0	43	0	2951741440	8	4289
2026-01-28 01:37:11.71	154.84	21.61	-24.2	-25.5	17.7	0.00e+00	0	43	0	2958032896	8	4200
2026-01-28 01:37:12.71	154.98	21.50	-23.9	-24.9	18.0	0.00e+00	0	43	0	2963275776	8	4050
2026-01-28 01:37:13.71	155.13	21.38	-23.2	-23.9	15.6	0.00e+00	0	43	0	2968518656	8	3927
2026-01-28 01:37:14.72	155.28	21.27	-23.8	-24.8	18.1	0.00e+00	0	43	0	2974810112	8	4017
2026-01-28 01:37:15.71	155.43	21.15	-23.9	-25.0	15.8	2.20e-06	0	43	0	2980052992	8	4072
2026-01-28 01:37:16.71	155.57	21.04	-24.0	-25.2	17.7	0.00e+00	0	43	0	2985295872	8	4128
2026-01-28 01:37:17.72	155.72	20.93	-24.1	-25.4	17.8	0.00e+00	0	43	0	2991587328	8	4179
2026-01-28 01:37:18.72	155.86	20.81	-24.2	-25.6	17.7	1.10e-06	0	43	0	2996830208	8	4240
2026-01-28 01:37:19.72	156.00	20.70	-24.2	-25.7	17.6	0.00e+00	0	43	0	3003121664	8	4278
2026-01-28 01:37:20.72	156.14	20.59	-24.3	-25.9	17.5	0.00e+00	0	43	0	3008364544	8	4331
2026-01-28 01:37:21.73	156.29	20.47	-24.3	-25.9	17.5	0.00e+00	0	43	0	3013607424	8	4319
2026-01-28 01:37:22.73	156.42	20.36	-24.4	-26.0	17.5	0.00e+00	0	43	0	3019898880	8	4340
2026-01-28 01:37:23.74	156.56	20.25	-24.3	-25.8	17.5	0.00e+00	0	43	0	3025141760	8	4293
2026-01-28 01:37:24.74	156.70	20.14	-24.2	-25.7	17.6	9.34e-04	0	43	0	3031433216	8	4251
2026-01-28 01:37:25.75	156.84	20.02	-24.2	-25.6	17.7	0.00e+00	0	43	0	3036676096	8	4226
2026-01-28 01:37:26.75	156.97	19.91	-24.3	-25.7	17.6	0.00e+00	0	43	0	3041918976	8	4260
2026-01-28 01:37:27.75	157.11	19.80	-24.2	-25.6	17.7	2.20e-06	0	43	0	3048210432	8	4220
2026-01-28 01:37:28.76	157.24	19.69	-24.2	-25.6	17.7	9.54e-04	0	43	0	3053453312	8	4229
2026-01-28 01:37:29.77	157.38	19.58	-24.2	-25.6	17.7	0.00e+00	0	43	0	3058696192	8	4220
2026-01-28 01:37:30.77	157.51	19.47	-24.2	-25.7	17.6	2.20e-06	0	43	0	3064987648	8	4245
2026-01-28 01:37:31.78	157.64	19.36	-24.3	-25.8	17.6	1.13e-03	0	43	0	3070230528	8	4280
2026-01-28 01:37:32.78	157.77	19.25	-24.3	-25.9	17.5	0.00e+00	0	43	0	3076521984	8	4313
2026-01-28 01:37:33.79	157.90	19.14	-24.4	-26.0	17.5	1.15e-03	0	43	0	3081764864	8	4322
2026-01-28 01:37:34.79	158.03	19.03	-24.4	-26.1	17.3	9.38e-05	0	43	0	3088056320	8	4375
2026-01-28 01:37:35.79	158.16	18.93	-24.6	-25.9	17.2	0.00e+00	0	43	0	3093299200	9	4182
2026-01-28 01:37:36.79	158.28	18.82	-24.8	-26.4	17.0	1.14e-03	0	43	0	3098542080	9	4313
2026-01-28 01:37:37.79	158.41	18.71	-24.7	-26.1	17.1	1.09e-03	0	43	0	3104833536	9	4258
2026-01-28 01:37:38.80	158.53	18.60	-24.5	-25.7	17.3	0.00e+00	0	43	0	3110076416	9	4151
2026-01-28 01:37:39.80	158.66	18.50	-24.5	-25.6	17.3	0.00e+00	0	43	0	3115319296	9	4127
2026-01-28 01:37:40.80	158.78	18.39	-24.5	-25.8	17.3	1.15e-03	0	43	0	3121610752	9	4159
2026-01-28 01:37:41.81	158.90	18.28	-24.4	-25.6	17.4	0.00e+00	0	43	0	3126853632	9	4114
2026-01-28 01:37:42.81	159.02	18.18	-24.6	-25.9	17.2	1.13e-03	0	43	0	3133145088	9	4182
2026-01-28 01:37:43.81	159.14	18.07	-24.5	-25.7	17.3	1.14e-03	0	43	0	3138387968	9	4143
2026-01-28 01:37:44.81	159.26	17.97	-24.5	-25.6	17.3	0.00e+00	0	43	0	3143630848	9	4124
2026-01-28 01:37:45.82	159.38	17.86	-24.5	-25.8	17.2	1.14e-03	0	43	0	3149922304	9	4164
2026-01-28 01:37:46.82	159.50	17.76	-24.6	-25.9	17.2	1.04e-03	0	43	0	3155165184	9	4198
2026-01-28 01:37:47.82	159.62	17.66	-24.6	-26.0	17.1	0.00e+00	0	43	0	3160408064	9	4233
2026-01-28 01:37:48.83	159.74	17.55	-24.8	-26.3	16.9	1.12e-03	0	43	0	3166699520	9	4304
2026-01-28 01:37:49.83	159.85	17.45	-24.8	-26.4	16.9	1.24e-03	0	43	0	3171942400	9	4331
2026-01-28 01:37:50.83	159.97	17.35	-24.9	-26.6	16.8	0.00e+00	0	43	0	3178233856	9	4377
2026-01-28 01:37:51.84	160.08	17.24	-24.9	-26.7	16.8	5.02e-04	0	43	0	3183476736	9	4398
2026-01-28 01:37:52.84	160.19	17.14	-24.9	-26.7	16.8	1.23e-03	0	43	0	3188719616	9	4403
2026-01-28 01:37:53.84	160.31	17.04	-24.9	-26.6	16.8	0.00e+00	0	43	0	3195011072	9	4383
2026-01-28 01:37:54.84	160.42	16.94	-25.0	-26.4	16.7	1.22e-03	0	43	0	3200253952	10	4208
2026-01-28 01:37:55.84	160.53	16.84	-25.2	-26.8	16.5	0.00e+00	0	43	0	3206545408	10	4310
2026-01-28 01:37:56.84	160.64	16.73	-25.1	-26.6	16.6	0.00e+00	0	43	0	3211788288	10	4255
2026-01-28 01:37:57.84	160.75	16.63	-25.0	-26.2	16.7	1.25e-03	0	43	0	3217031168	10	4169
2026-01-28 01:37:58.85	160.86	16.53	-24.9	-26.1	16.8	0.00e+00	0	43	0	3223322624	10	4147
2026-01-28 01:37:59.85	160.97	16.43	-25.0	-26.3	16.7	0.00e+00	0	43	0	3228565504	10	4174
2026-01-28 01:38:00.85	161.08	16.33	-24.9	-26.1	16.8	0.00e+00	0	43	0	3233808384	10	4146
2026-01-28 01:38:01.85	161.18	16.23	-25.0	-26.8	16.7	1.29e-03	0	43	0	3240099840	9	4428
2026-01-28 01:38:02.85	161.29	16.14	-24.9	-26.7	16.7	0.00e+00	0	43	0	3245342720	9	4404
2026-01-28 01:38:03.85	161.40	16.04	-25.0	-26.4	16.6	0.00e+00	0	43	0	3250585600	10	4218
2026-01-28 01:38:04.85	161.50	15.94	-25.0	-26.4	16.6	1.28e-03	0	43	0	3256877056	10	4229
2026-01-28 01:38:05.85	161.61	15.84	-25.0	-26.4	16.5	0.00e+00	0	43	0	3262119936	10	4236
2026-01-28 01:38:06.85	161.71	15.74	-25.1	-26.5	16.5	1.29e-03	0	43	0	3268411392	10	4263
2026-01-28 01:38:07.86	161.81	15.64	-25.2	-26.8	16.4	0.00e+00	0	43	0	3273654272	10	4335
2026-01-28 01:38:08.85	161.91	15.55	-25.2	-26.8	16.4	0.00e+00	0	43	0	3278897152	10	4345
2026-01-28 01:38:09.85	162.02	15.45	-25.2	-26.9	16.3	0.00e+00	0	43	0	3285188608	10	4378
2026-01-28 01:38:10.85	162.12	15.35	-25.2	-26.9	16.3	0.00e+00	0	43	0	3290431488	10	4395
2026-01-28 01:38:11.86	162.22	15.26	-25.2	-27.0	16.2	1.10e-06	0	43	0	3295674368	10	4401
2026-01-28 01:38:12.86	162.32	15.16	-25.2	-26.9	16.3	0.00e+00	0	43	0	3301965824	10	4382
2026-01-28 01:38:13.86	162.42	15.07	-25.3	-27.0	16.2	1.24e-03	0	43	0	3307208704	10	4410
2026-01-28 01:38:14.87	162.52	14.97	-25.2	-26.9	16.3	1.02e-05	0	43	0	3312451584	10	4369
2026-01-28 01:38:15.87	162.62	14.87	-25.2	-26.8	16.4	0.00e+00	0	43	0	3318743040	10	4330
2026-01-28 01:38:16.88	162.71	14.78	-25.2	-27.0	16.3	0.00e+00	0	43	0	3323985920	10	4380
2026-01-28 01:38:17.87	162.81	14.69	-25.2	-26.9	16.3	9.10e-06	0	43	0	3330277376	10	4350
2026-01-28 01:38:18.88	162.91	14.59	-25.2	-26.7	16.4	0.00e+00	0	43	0	3335520256	10	4304
2026-01-28 01:38:19.88	163.00	14.50	-25.3	-27.0	16.2	0.00e+00	0	43	0	3340763136	10	4376
2026-01-28 01:38:20.89	163.10	14.40	-25.2	-26.8	16.3	1.83e-05	0	43	0	3347054592	10	4325
2026-01-28 01:38:21.90	163.19	14.31	-25.3	-26.9	16.3	6.80e-06	0	43	0	3352297472	10	4348
2026-01-28 01:38:22.90	163.29	14.21	-25.3	-26.9	16.3	0.00e+00	0	43	0	3358588928	10	4346
2026-01-28 01:38:23.90	163.38	14.12	-25.3	-27.0	16.2	4.69e-05	0	43	0	3363831808	10	4383
2026-01-28 01:38:24.90	163.47	14.03	-25.3	-27.0	16.2	0.00e+00	0	43	0	3369074688	10	4383
2026-01-28 01:38:25.91	163.57	13.94	-25.4	-27.2	16.1	0.00e+00	0	43	0	3375366144	10	4441
2026-01-28 01:38:26.91	163.66	13.85	-25.4	-27.3	16.0	1.19e-04	0	43	0	3380609024	10	4460
2026-01-28 01:38:27.91	163.75	13.75	-25.6	-27.2	15.8	1.15e-04	0	43	0	3385851904	11	4306
2026-01-28 01:38:28.92	163.84	13.66	-25.7	-27.4	15.7	0.00e+00	0	43	0	3392143360	11	4375
2026-01-28 01:38:29.92	163.93	13.57	-25.7	-27.4	15.7	1.02e-05	0	43	0	3397386240	11	4390
2026-01-28 01:38:30.92	164.02	13.48	-25.9	-27.8	15.5	1.18e-04	0	43	0	3403677696	11	4482
2026-01-28 01:38:31.93	164.11	13.39	-25.8	-27.7	15.5	0.00e+00	0	43	0	3408920576	11	4471
2026-01-28 01:38:32.94	164.20	13.30	-26.0	-28.0	15.4	8.69e-05	0	43	0	3415212032	11	4561
2026-01-28 01:38:33.94	164.29	13.21	-26.0	-28.0	15.4	4.92e-05	0	43	0	3420454912	11	4547
2026-01-28 01:38:34.95	164.38	13.12	-26.0	-27.6	15.2	0.00e+00	0	43	0	3425697792	12	4340
2026-01-28 01:38:35.95	164.46	13.03	-26.2	-28.1	15.0	6.98e-05	0	43	0	3431989248	12	4478
2026-01-28 01:38:36.96	164.55	12.94	-26.1	-27.8	15.1	6.06e-05	0	43	0	3437232128	12	4384
2026-01-28 01:38:37.97	164.64	12.85	-25.9	-27.5	15.1	0.00e+00	0	43	0	3442475008	12	4296
2026-01-28 01:38:38.97	164.72	12.76	-25.8	-27.3	15.4	0.00e+00	0	43	0	3448766464	12	4246
2026-01-28 01:38:39.97	164.81	12.67	-26.0	-28.0	15.3	9.49e-05	0	43	0	3454009344	11	4549
2026-01-28 01:38:40.98	164.89	12.58	-25.9	-27.9	15.4	0.00e+00	0	43	0	3459252224	11	4523
2026-01-28 01:38:41.98	164.98	12.49	-25.9	-27.8	15.5	1.23e-04	0	43	0	3465543680	11	4488
2026-01-28 01:38:42.99	165.06	12.41	-25.9	-27.8	15.4	1.45e-04	0	43	0	3470786560	11	4498
2026-01-28 01:38:43.99	165.14	12.32	-25.8	-27.6	15.5	0.00e+00	0	43	0	3477078016	11	4443
2026-01-28 01:38:44.99	165.23	12.23	-25.9	-27.9	15.4	1.33e-04	0	43	0	3482320896	11	4508
2026-01-28 01:38:46.00	165.31	12.14	-26.0	-27.7	15.2	0.00e+00	0	43	0	3488612352	12	4350
2026-01-28 01:38:47.00	165.39	12.06	-26.3	-28.2	14.9	1.10e-06	0	43	0	3493855232	12	4508
2026-01-28 01:38:48.00	165.47	11.97	-26.0	-27.7	15.2	0.00e+00	0	43	0	3499098112	12	4338
2026-01-28 01:38:49.00	165.55	11.89	-26.1	-27.8	15.1	0.00e+00	0	43	0	3505389568	12	4371
2026-01-28 01:38:50.01	165.63	11.80	-26.3	-28.2	14.9	0.00e+00	0	43	0	3510632448	12	4506
2026-01-28 01:38:51.01	165.71	11.71	-26.1	-27.9	15.0	0.00e+00	0	43	0	3515875328	12	4421
2026-01-28 01:38:52.02	165.79	11.63	-26.1	-27.8	15.0	5.03e-05	0	43	0	3522166784	12	4400
2026-01-28 01:38:53.02	165.87	11.54	-26.3	-28.2	14.9	0.00e+00	0	43	0	3527409664	12	4503
2026-01-28 01:38:54.03	165.95	11.46	-26.2	-28.1	14.9	1.71e-05	0	43	0	3532652544	12	4487
2026-01-28 01:38:55.03	166.03	11.37	-26.2	-28.1	14.3	1.10e-06	0	43	0	3538944000	12	4485
2026-01-28 01:38:56.04	166.11	11.29	-26.1	-27.9	15.0	0.00e+00	0	43	0	3544186880	12	4422
2026-01-28 01:38:57.04	166.19	11.20	-26.1	-27.8	15.1	0.00e+00	0	43	0	3550478336	12	4390
2026-01-28 01:38:58.05	166.26	11.12	-26.1	-27.9	15.0	0.00e+00	0	43	0	3555721216	12	4418
2026-01-28 01:38:59.05	166.34	11.04	-26.1	-27.9	15.0	1.10e-04	0	43	0	3562012672	12	4416
2026-01-28 01:39:00.06	166.42	10.95	-26.2	-28.0	14.9	1.10e-06	0	43	0	3567255552	12	4450
2026-01-28 01:39:01.05	166.49	10.87	-26.3	-28.3	14.8	0.00e+00	0	43	0	3572498432	12	4527
2026-01-28 01:39:02.06	166.57	10.79	-26.3	-28.2	14.8	1.10e-06	0	43	0	3578789888	12	4515
2026-01-28 01:39:03.06	166.64	10.70	-26.2	-28.2	14.8	0.00e+00	0	43	0	3584032768	12	4495
2026-01-28 01:39:04.07	166.72	10.62	-26.3	-28.3	14.7	1.28e-03	0	43	0	3589275648	12	4537
2026-01-28 01:39:05.07	166.79	10.54	-26.3	-28.3	14.7	0.00e+00	0	43	0	3595567104	12	4523
2026-01-28 01:39:06.07	166.87	10.46	-26.3	-28.3	14.7	1.28e-03	0	43	0	3600809984	12	4537
2026-01-28 01:39:07.07	166.94	10.38	-26.5	-28.7	14.5	2.20e-06	0	43	0	3606052864	12	4639
2026-01-28 01:39:08.07	167.01	10.30	-26.5	-28.6	14.5	0.00e+00	0	43	0	3612344320	12	4626
2026-01-28 01:39:09.07	167.08	10.21	-26.6	-28.5	14.3	0.00e+00	0	43	0	3617587200	13	4478
2026-01-28 01:39:10.08	167.16	10.13	-26.8	-28.9	14.1	4.50e-06	0	43	0	3623878656	13	4598
2026-01-28 01:39:11.09	167.23	10.05	-26.6	-28.6	14.3	1.23e-04	0	43	0	3629121536	13	4490
2026-01-28 01:39:12.09	167.30	9.97	-26.6	-28.4	14.4	2.20e-06	0	43	0	3635412992	13	4449
2026-01-28 01:39:13.09	167.37	9.89	-26.5	-28.3	14.4	1.32e-03	0	43	0	3640655872	13	4408
2026-01-28 01:39:14.10	167.44	9.81	-26.6	-28.5	14.3	0.00e+00	0	43	0	3645898752	13	4486
2026-01-28 01:39:15.10	167.51	9.73	-26.7	-28.7	14.2	1.29e-03	0	43	0	3652190208	13	4523
2026-01-28 01:39:16.10	167.58	9.65	-26.5	-28.2	14.5	1.23e-03	0	43	0	3657433088	13	4399
2026-01-28 01:39:17.11	167.65	9.57	-26.3	-27.9	14.7	0.00e+00	0	43	0	3662675968	13	4295
2026-01-28 01:39:18.11	167.72	9.49	-26.3	-28.4	14.6	1.20e-03	0	43	0	3668967424	12	4560
2026-01-28 01:39:19.12	167.79	9.41	-26.4	-28.6	14.5	0.00e+00	0	43	0	3674210304	12	4639
2026-01-28 01:39:20.12	167.86	9.33	-26.5	-28.2	14.4	8.46e-05	0	43	0	3679453184	13	4393
2026-01-28 01:39:21.12	167.93	9.26	-26.5	-28.3	14.4	1.29e-03	0	43	0	3685744640	13	4438
2026-01-28 01:39:22.12	167.99	9.18	-26.5	-28.2	14.4	1.28e-03	0	43	0	3690987520	13	4400
2026-01-28 01:39:23.12	168.06	9.10	-26.6	-28.6	14.2	8.46e-05	0	43	0	3697278976	13	4503
2026-01-28 01:39:24.13	168.13	9.02	-26.6	-28.5	14.2	1.16e-03	0	43	0	3702521856	13	4482
2026-01-28 01:39:25.13	168.20	8.94	-26.7	-28.8	14.1	1.18e-03	0	43	0	3707764736	13	4574
2026-01-28 01:39:26.13	168.26	8.87	-26.6	-28.5	14.2	1.10e-06	0	43	0	3714056192	13	4491
2026-01-28 01:39:27.14	168.33	8.79	-26.6	-28.5	14.2	1.19e-03	0	43	0	3719299072	13	4495
2026-01-28 01:39:28.15	168.40	8.71	-26.6	-28.5	14.2	1.18e-03	0	44	0	3725590528	13	4487
2026-01-28 01:39:29.15	168.46	8.63	-26.7	-28.7	14.1	1.10e-04	0	43	0	3730833408	13	4538
2026-01-28 01:39:30.16	168.53	8.56	-26.8	-29.0	13.9	1.17e-03	0	43	0	3736076288	13	4624
2026-01-28 01:39:31.16	168.59	8.48	-26.7	-28.9	14.0	1.13e-03	0	43	0	3742367744	13	4606
2026-01-28 01:39:32.17	168.66	8.40	-26.8	-28.9	13.9	1.21e-04	0	43	0	3747610624	13	4614
2026-01-28 01:39:33.17	168.72	8.33	-26.8	-29.1	13.8	3.40e-06	0	43	0	3752853504	13	4668
2026-01-28 01:39:34.17	168.78	8.25	-26.8	-28.9	13.9	1.21e-03	0	43	0	3759144960	13	4620
2026-01-28 01:39:35.17	168.85	8.18	-26.8	-29.0	13.8	1.14e-04	0	43	0	3764387840	13	4650
2026-01-28 01:39:36.18	168.91	8.10	-26.8	-29.0	13.9	1.27e-03	0	43	0	3770679296	13	4646
2026-01-28 01:39:37.19	168.97	8.02	-26.8	-29.0	13.9	4.50e-06	0	43	0	3775922176	13	4636
2026-01-28 01:39:38.19	169.04	7.95	-26.9	-29.2	13.8	8.00e-06	0	43	0	3782213632	13	4690
2026-01-28 01:39:39.19	169.10	7.87	-26.8	-29.0	13.9	1.42e-03	0	43	0	3787456512	13	4637
2026-01-28 01:39:40.20	169.16	7.80	-26.7	-28.9	13.9	2.20e-06	0	43	0	3792699392	13	4604
2026-01-28 01:39:41.20	169.22	7.72	-26.8	-28.9	13.3	9.95e-05	0	43	0	3798990848	13	4621
2026-01-28 01:39:42.20	169.28	7.65	-26.7	-28.8	13.4	3.40e-06	0	43	0	3804233728	13	4573
2026-01-28 01:39:43.20	169.34	7.58	-26.7	-28.7	14.0	2.20e-06	0	43	0	3809476608	13	4561
2026-01-28 01:39:44.21	169.41	7.50	-26.8	-29.0	13.8	2.61e-04	0	43	0	3815768064	13	4647
2026-01-28 01:39:45.22	169.47	7.43	-27.0	-29.0	13.5	1.48e-05	0	43	0	3821010944	14	4538
2026-01-28 01:39:46.22	169.53	7.35	-26.8	-29.0	13.8	1.39e-03	0	43	0	3826253824	13	4633
2026-01-28 01:39:47.23	169.59	7.28	-26.7	-28.9	13.9	4.50e-06	0	43	0	3832545280	13	4594
2026-01-28 01:39:48.23	169.65	7.21	-26.7	-28.7	14.0	1.41e-03	0	43	0	3837788160	13	4548
2026-01-28 01:39:49.23	169.71	7.13	-26.7	-28.8	13.9	2.20e-06	0	43	0	3844079616	13	4589
2026-01-28 01:39:50.24	169.77	7.06	-28.4	-31.3	11.9	1.02e-05	0	43	0	3849322496	16	5039
2026-01-28 01:39:51.24	169.82	6.99	-32.7	-43.1	3.8	8.45e-01	0	43	104	3850371072	25	11936
2026-01-28 01:39:52.25	169.88	6.92	-32.9	-44.4	3.8	8.45e-01	0	43	104	3850371072	25	13461

#Closed at: 2026-01-28 01:39:52
#Recorded file [3850 MB]: D:/data/31010_260128_042825.dat