passes_logs/2026/01/28/R2M6_AANII_01/R2M6_AANII_01__20260128_102414_SUOMI_NPP_rec.log

#Pass ID: 20260128_102414_SUOMI NPP
#Satellite: SUOMI NPP
#Configuration: NPP
#almurnet v.1.7.20240730
#Start time: 2026-01-28 10:24:14

#Version: 2.2.20231116
#Station: R2M6_AANII_01
#Location: 30.233357 lon 59.946436 lat
#TLE: 1 37849U 11061A   26027.86188320  .00000172  00000+0  10275-3 0  9990
#TLE: 2 37849  98.7823 329.8005 0002088  41.4184 318.7150 14.19530883738530

#Time	Az	El	Level	Level2	SNR	BER	BlckErr	Temp	State	Recorded	gain1	gain2
2026-01-28 10:24:14.01	160.30	6.99	-31.7	-38.3	4.4	1.42e+00	0	40	0	0	24	7719
2026-01-28 10:24:15.01	160.30	7.07	-31.3	-36.0	4.8	1.36e+00	0	40	104	0	24	6206
2026-01-28 10:24:16.02	160.31	7.15	-31.3	-36.1	7.2	1.60e-01	0	40	0	0	23	6306
2026-01-28 10:24:17.02	160.31	7.23	-31.4	-37.3	6.4	2.06e-01	0	41	0	1048576	23	7099
2026-01-28 10:24:18.03	160.32	7.31	-31.4	-36.7	6.8	1.94e-01	0	40	0	3145728	23	6651
2026-01-28 10:24:19.03	160.32	7.38	-31.3	-36.5	6.9	1.58e-01	0	41	0	5242880	23	6556
2026-01-28 10:24:20.04	160.33	7.46	-31.3	-36.3	7.1	1.50e-01	0	41	0	7340032	23	6421
2026-01-28 10:24:21.04	160.33	7.54	-31.2	-36.2	7.2	1.39e-01	0	41	0	9437184	23	6375
2026-01-28 10:24:22.03	160.34	7.62	-31.1	-35.8	7.5	1.09e-01	0	41	0	10485760	23	6201
2026-01-28 10:24:23.04	160.34	7.70	-31.0	-35.5	7.7	9.76e-02	0	41	0	12582912	23	5983
2026-01-28 10:24:24.04	160.35	7.78	-30.8	-34.6	8.4	5.48e-02	0	41	0	14680064	23	5538
2026-01-28 10:24:25.05	160.35	7.86	-30.8	-34.5	8.4	4.90e-02	0	41	0	16777216	23	5511
2026-01-28 10:24:26.05	160.36	7.94	-30.8	-35.1	8.4	4.71e-02	0	41	0	17825792	22	5865
2026-01-28 10:24:27.06	160.36	8.02	-30.7	-34.6	8.8	3.34e-02	0	41	0	19922944	22	5660
2026-01-28 10:24:28.06	160.37	8.11	-30.8	-35.2	8.3	4.66e-02	0	41	0	22020096	22	5982
2026-01-28 10:24:29.07	160.37	8.19	-30.6	-34.4	9.0	4.24e-02	0	41	0	24117248	22	5566
2026-01-28 10:24:30.08	160.38	8.27	-30.7	-34.6	8.9	2.37e-02	0	41	0	26214400	22	5633
2026-01-28 10:24:31.08	160.38	8.35	-30.6	-34.5	8.9	2.77e-02	0	41	0	28311552	22	5639
2026-01-28 10:24:32.08	160.39	8.43	-30.6	-34.2	9.2	2.42e-02	0	41	0	29360128	22	5437
2026-01-28 10:24:33.09	160.40	8.52	-30.6	-34.3	9.1	2.04e-02	0	41	0	31457280	22	5491
2026-01-28 10:24:34.09	160.40	8.60	-30.6	-34.1	9.2	1.91e-02	0	41	0	33554432	22	5416
2026-01-28 10:24:35.09	160.41	8.68	-30.5	-33.8	9.5	1.23e-02	0	41	0	35651584	22	5262
2026-01-28 10:24:36.09	160.41	8.76	-30.5	-33.9	9.5	1.53e-02	0	41	0	36700160	22	5287
2026-01-28 10:24:37.10	160.42	8.85	-30.6	-33.9	9.5	1.65e-02	0	41	0	38797312	22	5262
2026-01-28 10:24:38.10	160.42	8.93	-30.7	-34.4	9.1	1.79e-02	0	41	0	40894464	22	5494
2026-01-28 10:24:39.10	160.43	9.02	-30.9	-34.9	8.8	2.75e-02	0	41	0	42991616	22	5739
2026-01-28 10:24:40.11	160.43	9.10	-30.7	-34.4	9.2	2.34e-02	0	41	0	45088768	22	5468
2026-01-28 10:24:41.12	160.44	9.19	-30.8	-34.6	9.0	2.43e-02	0	41	0	46137344	22	5593
2026-01-28 10:24:42.12	160.44	9.27	-30.8	-34.4	9.2	2.18e-02	0	41	0	48234496	22	5488
2026-01-28 10:24:43.13	160.45	9.36	-30.8	-34.6	9.1	2.03e-02	0	41	0	50331648	22	5546
2026-01-28 10:24:44.13	160.45	9.44	-30.9	-35.0	8.7	3.04e-02	0	41	0	52428800	22	5781
2026-01-28 10:24:45.13	160.46	9.53	-30.8	-34.3	9.3	2.70e-02	0	41	0	54525952	22	5435
2026-01-28 10:24:46.12	160.47	9.61	-30.8	-34.4	9.2	2.13e-02	0	41	0	55574528	22	5486
2026-01-28 10:24:47.12	160.47	9.70	-30.8	-34.7	8.9	2.30e-02	0	41	0	57671680	22	5626
2026-01-28 10:24:48.13	160.48	9.79	-30.8	-34.7	9.0	2.54e-02	0	41	0	59768832	22	5627
2026-01-28 10:24:49.13	160.48	9.87	-30.8	-34.7	9.0	2.67e-02	0	41	0	61865984	22	5643
2026-01-28 10:24:50.14	160.49	9.96	-30.8	-34.8	8.9	2.71e-02	0	41	0	63963136	22	5666
2026-01-28 10:24:51.13	160.49	10.05	-30.9	-35.3	8.6	3.34e-02	0	41	0	65011712	22	5921
2026-01-28 10:24:52.13	160.50	10.13	-30.8	-34.9	8.9	2.94e-02	0	42	0	67108864	22	5718
2026-01-28 10:24:53.13	160.50	10.22	-30.9	-35.0	8.8	2.89e-02	0	41	0	69206016	22	5781
2026-01-28 10:24:54.14	160.51	10.31	-31.0	-35.5	8.4	4.52e-02	0	42	0	71303168	22	6068
2026-01-28 10:24:55.13	160.52	10.40	-30.9	-35.1	8.6	3.57e-02	0	42	0	73400320	22	5854
2026-01-28 10:24:56.14	160.52	10.49	-30.7	-34.4	9.3	2.24e-02	0	42	0	74448896	22	5480
2026-01-28 10:24:57.15	160.53	10.58	-30.8	-34.6	9.1	2.21e-02	0	42	0	76546048	22	5614
2026-01-28 10:24:58.15	160.53	10.67	-30.7	-34.3	9.3	2.16e-02	0	42	0	78643200	22	5444
2026-01-28 10:24:59.16	160.54	10.76	-30.8	-34.5	9.2	1.65e-02	0	42	0	80740352	22	5509
2026-01-28 10:25:00.16	160.54	10.85	-30.9	-34.7	9.2	2.47e-02	0	42	0	82837504	22	5559
2026-01-28 10:25:01.17	160.55	10.94	-30.8	-34.1	9.6	1.61e-02	0	42	0	83886080	22	5316
2026-01-28 10:25:02.17	160.56	11.03	-31.0	-34.9	9.0	2.14e-02	0	42	0	85983232	22	5660
2026-01-28 10:25:03.18	160.56	11.13	-31.0	-34.7	9.3	2.11e-02	0	42	0	88080384	22	5509
2026-01-28 10:25:04.19	160.57	11.22	-31.0	-34.8	9.3	1.74e-02	0	42	0	90177536	22	5519
2026-01-28 10:25:05.19	160.57	11.31	-31.3	-35.5	8.7	2.43e-02	0	42	0	91226112	22	5855
2026-01-28 10:25:06.20	160.58	11.40	-31.2	-35.2	9.0	2.96e-02	0	42	0	93323264	22	5715
2026-01-28 10:25:07.20	160.59	11.50	-31.4	-35.9	8.5	2.57e-02	0	42	0	95420416	22	6014
2026-01-28 10:25:08.21	160.59	11.59	-31.5	-35.6	8.4	4.63e-02	0	42	0	97517568	23	5773
2026-01-28 10:25:09.20	160.60	11.68	-31.3	-35.0	8.8	3.70e-02	0	42	0	99614720	23	5493
2026-01-28 10:25:10.21	160.60	11.78	-31.3	-34.8	8.9	3.05e-02	0	42	0	100663296	23	5411
2026-01-28 10:25:11.21	160.61	11.87	-31.3	-34.7	9.0	2.63e-02	0	42	0	102760448	23	5346
2026-01-28 10:25:12.21	160.61	11.97	-31.2	-34.5	9.2	2.03e-02	0	42	0	104857600	23	5243
2026-01-28 10:25:13.22	160.62	12.06	-31.3	-34.9	8.9	2.45e-02	0	42	0	106954752	23	5439
2026-01-28 10:25:14.22	160.63	12.16	-31.3	-34.7	9.1	2.42e-02	0	42	0	109051904	23	5331
2026-01-28 10:25:15.22	160.63	12.25	-31.4	-35.1	8.7	3.06e-02	0	42	0	110100480	23	5555
2026-01-28 10:25:16.23	160.64	12.35	-31.3	-35.0	8.9	3.19e-02	0	42	0	112197632	23	5506
2026-01-28 10:25:17.23	160.64	12.45	-31.4	-35.4	8.5	3.22e-02	0	42	0	114294784	23	5694
2026-01-28 10:25:18.24	160.65	12.54	-31.7	-36.5	7.7	7.52e-02	0	42	0	116391936	23	6271
2026-01-28 10:25:19.24	160.66	12.64	-31.5	-35.9	8.2	6.80e-02	0	42	0	118489088	23	5930
2026-01-28 10:25:20.25	160.66	12.74	-31.4	-35.2	8.7	4.02e-02	0	42	0	119537664	23	5604
2026-01-28 10:25:21.25	160.67	12.84	-31.4	-35.1	8.8	3.19e-02	0	42	0	121634816	23	5517
2026-01-28 10:25:22.26	160.68	12.94	-31.3	-34.9	8.9	3.11e-02	0	42	0	123731968	23	5471
2026-01-28 10:25:23.27	160.68	13.04	-31.3	-35.0	8.8	2.87e-02	0	42	0	125829120	23	5508
2026-01-28 10:25:24.27	160.69	13.13	-31.3	-34.6	9.2	2.47e-02	0	42	0	127926272	23	5296
2026-01-28 10:25:25.28	160.69	13.24	-31.2	-34.3	9.4	1.76e-02	0	42	0	128974848	23	5159
2026-01-28 10:25:26.28	160.70	13.34	-31.2	-34.4	9.4	1.52e-02	0	42	0	131072000	23	5183
2026-01-28 10:25:27.29	160.71	13.44	-31.3	-34.7	9.2	1.67e-02	0	42	0	133169152	23	5359
2026-01-28 10:25:28.28	160.71	13.54	-31.4	-35.1	8.8	3.03e-02	0	42	0	135266304	23	5536
2026-01-28 10:25:29.29	160.72	13.64	-31.2	-34.5	9.3	2.09e-02	0	42	0	137363456	23	5248
2026-01-28 10:25:30.30	160.73	13.74	-31.0	-33.8	9.8	1.48e-02	0	42	0	138412032	23	4968
2026-01-28 10:25:31.30	160.73	13.84	-30.7	-33.4	10.5	4.71e-03	0	42	0	140509184	22	4894
2026-01-28 10:25:32.31	160.74	13.95	-30.3	-32.1	11.4	1.43e-03	0	42	0	142606336	22	4434
2026-01-28 10:25:33.31	160.74	14.05	-30.0	-31.6	12.1	4.75e-04	0	42	0	144703488	21	4358
2026-01-28 10:25:34.31	160.75	14.15	-29.9	-31.4	12.2	2.77e-04	0	42	0	146800640	21	4268
2026-01-28 10:25:35.32	160.76	14.26	-29.8	-31.1	12.4	1.78e-04	0	42	0	147849216	21	4202
2026-01-28 10:25:36.32	160.76	14.36	-29.8	-31.7	12.4	1.14e-04	0	42	0	149946368	20	4461
2026-01-28 10:25:37.33	160.77	14.47	-29.8	-31.7	12.4	1.79e-04	0	42	0	152043520	20	4457
2026-01-28 10:25:38.34	160.78	14.57	-29.6	-31.2	12.7	9.91e-05	0	42	0	154140672	20	4316
2026-01-28 10:25:39.34	160.78	14.68	-29.7	-31.2	12.7	6.71e-05	0	42	0	156237824	20	4320
2026-01-28 10:25:40.34	160.79	14.79	-29.7	-31.4	12.6	7.85e-05	0	42	0	157286400	20	4360
2026-01-28 10:25:41.34	160.80	14.89	-29.8	-31.4	12.6	9.23e-05	0	42	0	159383552	20	4351
2026-01-28 10:25:42.34	160.80	15.00	-29.8	-31.5	12.6	1.33e-04	0	42	0	161480704	20	4372
2026-01-28 10:25:43.35	160.81	15.11	-29.9	-31.7	12.5	1.07e-04	0	42	0	163577856	20	4423
2026-01-28 10:25:44.35	160.82	15.22	-29.9	-31.6	12.6	1.13e-04	0	42	0	164626432	20	4376
2026-01-28 10:25:45.36	160.82	15.33	-29.8	-31.3	12.8	9.00e-05	0	42	0	166723584	20	4287
2026-01-28 10:25:46.35	160.83	15.43	-29.9	-31.6	12.6	6.79e-05	0	42	0	168820736	20	4385
2026-01-28 10:25:47.36	160.84	15.54	-30.0	-31.7	12.5	1.04e-04	0	42	0	170917888	20	4417
2026-01-28 10:25:48.36	160.84	15.65	-29.8	-31.2	12.9	5.87e-05	0	42	0	173015040	20	4240
2026-01-28 10:25:49.36	160.85	15.76	-29.7	-30.9	13.1	3.35e-05	0	42	0	174063616	20	4159
2026-01-28 10:25:50.36	160.86	15.88	-29.5	-30.4	13.4	2.13e-05	0	42	0	176160768	20	4003
2026-01-28 10:25:51.37	160.86	15.99	-29.5	-30.5	13.4	1.52e-05	0	42	0	178257920	20	4017
2026-01-28 10:25:52.36	160.87	16.10	-29.4	-30.2	13.6	8.30e-06	0	42	0	180355072	20	3929
2026-01-28 10:25:53.37	160.88	16.21	-29.4	-30.2	13.6	9.10e-06	0	42	0	182452224	20	3925
2026-01-28 10:25:54.37	160.88	16.33	-29.5	-30.4	13.5	9.90e-06	0	42	0	183500800	20	3994
2026-01-28 10:25:55.37	160.89	16.44	-29.5	-30.5	13.4	1.14e-05	0	42	0	185597952	20	4035
2026-01-28 10:25:56.37	160.90	16.55	-29.5	-30.3	13.6	9.10e-06	0	42	0	187695104	20	3964
2026-01-28 10:25:57.38	160.91	16.67	-29.5	-30.3	13.6	6.10e-06	0	42	0	189792256	20	3965
2026-01-28 10:25:58.38	160.91	16.78	-29.5	-30.5	13.5	6.80e-06	0	42	0	191889408	20	3998
2026-01-28 10:25:59.39	160.92	16.90	-29.7	-30.8	13.3	1.29e-05	0	43	0	192937984	20	4104
2026-01-28 10:26:00.39	160.93	17.02	-29.6	-30.7	13.4	2.21e-05	0	42	0	195035136	20	4067
2026-01-28 10:26:01.39	160.93	17.13	-29.6	-30.7	13.4	1.29e-05	0	43	0	197132288	20	4069
2026-01-28 10:26:02.40	160.94	17.25	-29.7	-30.9	13.3	1.44e-05	0	42	0	199229440	20	4133
2026-01-28 10:26:03.41	160.95	17.37	-29.6	-30.6	13.4	1.60e-05	0	43	0	201326592	20	4062
2026-01-28 10:26:04.41	160.96	17.49	-29.7	-31.0	13.1	1.44e-05	0	43	0	202375168	20	4168
2026-01-28 10:26:05.42	160.96	17.61	-29.7	-31.0	13.1	4.50e-05	0	43	0	204472320	20	4171
2026-01-28 10:26:06.42	160.97	17.73	-29.5	-30.5	13.5	2.28e-05	0	43	0	206569472	20	4011
2026-01-28 10:26:07.43	160.98	17.85	-29.7	-30.9	13.3	1.75e-05	0	42	0	208666624	20	4136
2026-01-28 10:26:08.43	160.99	17.97	-29.6	-30.6	13.5	1.52e-05	0	43	0	210763776	20	4035
2026-01-28 10:26:09.44	160.99	18.10	-29.4	-30.0	13.8	6.80e-06	0	42	0	211812352	20	3889
2026-01-28 10:26:10.44	161.00	18.22	-29.3	-29.9	13.9	7.00e-07	0	43	0	213909504	20	3845
2026-01-28 10:26:11.45	161.01	18.34	-29.4	-30.4	14.0	4.50e-06	0	43	0	216006656	19	4062
2026-01-28 10:26:12.45	161.01	18.46	-29.3	-30.3	14.1	2.20e-06	0	42	0	218103808	19	4032
2026-01-28 10:26:13.44	161.02	18.59	-29.3	-30.2	14.2	7.00e-07	0	43	0	220200960	19	3988
2026-01-28 10:26:14.44	161.03	18.71	-29.4	-30.5	14.0	7.00e-07	0	42	0	221249536	19	4081
2026-01-28 10:26:15.44	161.04	18.84	-29.6	-31.1	13.7	6.80e-06	0	42	0	223346688	19	4250
2026-01-28 10:26:16.45	161.05	18.96	-29.5	-30.7	13.9	3.00e-06	0	43	0	225443840	19	4136
2026-01-28 10:26:17.45	161.05	19.09	-29.7	-31.2	13.6	3.80e-06	0	42	0	227540992	19	4272
2026-01-28 10:26:18.45	161.06	19.22	-29.6	-30.9	13.7	2.20e-06	0	43	0	228589568	19	4202
2026-01-28 10:26:19.46	161.07	19.35	-29.5	-30.6	14.0	3.80e-06	0	43	0	230686720	19	4098
2026-01-28 10:26:20.46	161.08	19.48	-29.4	-30.4	14.1	4.50e-06	0	43	0	232783872	19	4059
2026-01-28 10:26:21.46	161.08	19.60	-29.5	-30.7	13.9	2.20e-06	0	42	0	234881024	19	4146
2026-01-28 10:26:22.47	161.09	19.74	-29.5	-30.7	14.0	3.80e-06	0	43	0	236978176	19	4128
2026-01-28 10:26:23.48	161.10	19.87	-29.6	-30.9	13.8	5.30e-06	0	43	0	238026752	19	4202
2026-01-28 10:26:24.48	161.11	20.00	-29.5	-30.6	14.0	3.80e-06	0	43	0	240123904	19	4106
2026-01-28 10:26:25.48	161.12	20.13	-29.7	-31.1	13.7	9.90e-06	0	43	0	242221056	19	4244
2026-01-28 10:26:26.48	161.12	20.26	-29.8	-31.4	13.5	1.06e-05	0	43	0	244318208	19	4361
2026-01-28 10:26:27.48	161.13	20.40	-29.4	-30.4	14.1	4.50e-06	0	43	0	246415360	19	4054
2026-01-28 10:26:28.48	161.14	20.53	-29.3	-30.1	14.3	0.00e+00	0	43	0	247463936	19	3959
2026-01-28 10:26:29.49	161.15	20.67	-29.2	-30.0	14.3	7.00e-07	0	43	0	249561088	19	3942
2026-01-28 10:26:30.49	161.16	20.80	-29.3	-30.3	14.2	1.50e-06	0	43	0	251658240	19	4018
2026-01-28 10:26:31.50	161.17	20.94	-29.4	-30.3	14.2	0.00e+00	0	43	0	253755392	19	4029
2026-01-28 10:26:32.50	161.17	21.08	-29.2	-29.9	14.4	7.00e-07	0	43	0	255852544	19	3920
2026-01-28 10:26:33.50	161.18	21.21	-29.2	-29.9	14.4	3.00e-06	0	43	0	256901120	19	3916
2026-01-28 10:26:34.51	161.19	21.35	-29.4	-30.5	14.1	7.00e-07	0	43	0	258998272	19	4064
2026-01-28 10:26:35.51	161.20	21.49	-29.4	-30.3	14.2	1.50e-06	0	43	0	261095424	19	4024
2026-01-28 10:26:36.52	161.21	21.63	-29.5	-30.6	14.0	0.00e+00	0	43	0	263192576	19	4120
2026-01-28 10:26:37.52	161.22	21.78	-29.5	-30.8	13.9	3.80e-06	0	43	0	265289728	19	4172
2026-01-28 10:26:38.52	161.22	21.92	-29.6	-31.0	13.8	6.10e-06	0	43	0	266338304	19	4240
2026-01-28 10:26:39.51	161.23	22.06	-29.6	-30.9	13.8	1.06e-05	0	43	0	268435456	19	4200
2026-01-28 10:26:40.51	161.24	22.20	-29.6	-31.0	13.8	5.30e-06	0	43	0	270532608	19	4228
2026-01-28 10:26:41.52	161.25	22.35	-29.7	-31.2	13.7	7.60e-06	0	43	0	272629760	19	4282
2026-01-28 10:26:42.52	161.26	22.49	-29.8	-31.5	13.5	6.10e-06	0	43	0	274726912	19	4377
2026-01-28 10:26:43.52	161.27	22.64	-29.7	-31.3	13.6	5.30e-06	0	43	0	275775488	19	4327
2026-01-28 10:26:44.53	161.28	22.78	-29.6	-30.9	13.8	8.30e-06	0	43	0	277872640	19	4206
2026-01-28 10:26:45.53	161.29	22.93	-29.6	-31.1	13.8	7.60e-06	0	43	0	279969792	19	4240
2026-01-28 10:26:46.53	161.29	23.08	-29.7	-31.1	13.7	7.60e-06	0	43	0	282066944	19	4259
2026-01-28 10:26:47.54	161.30	23.23	-29.6	-30.9	13.9	3.00e-06	0	43	0	283115520	19	4179
2026-01-28 10:26:48.55	161.31	23.38	-29.7	-31.1	13.8	5.30e-06	0	43	0	285212672	19	4254
2026-01-28 10:26:49.55	161.32	23.53	-29.7	-31.2	13.8	6.80e-06	0	43	0	287309824	19	4264
2026-01-28 10:26:50.55	161.33	23.68	-29.7	-31.2	13.8	4.50e-06	0	43	0	289406976	19	4288
2026-01-28 10:26:51.55	161.34	23.84	-29.8	-31.4	13.6	1.29e-05	0	43	0	291504128	19	4344
2026-01-28 10:26:52.55	161.35	23.99	-30.0	-32.0	13.3	1.14e-05	0	43	0	292552704	19	4527
2026-01-28 10:26:53.56	161.36	24.15	-30.0	-31.7	13.1	1.37e-05	0	43	0	294649856	20	4341
2026-01-28 10:26:54.57	161.37	24.30	-30.1	-31.8	13.0	3.43e-05	0	43	0	296747008	20	4379
2026-01-28 10:26:55.58	161.38	24.46	-30.0	-31.6	13.1	2.44e-05	0	43	0	298844160	20	4320
2026-01-28 10:26:56.58	161.39	24.62	-30.3	-32.5	12.6	8.54e-05	0	43	0	300941312	20	4605
2026-01-28 10:26:57.58	161.40	24.78	-30.3	-32.6	12.5	1.14e-04	0	43	0	301989888	20	4644
2026-01-28 10:26:58.58	161.41	24.93	-30.2	-32.1	12.8	7.24e-05	0	43	0	304087040	20	4498
2026-01-28 10:26:59.59	161.42	25.10	-30.3	-32.3	12.7	7.93e-05	0	43	0	306184192	20	4545
2026-01-28 10:27:00.59	161.43	25.26	-30.2	-32.0	12.8	6.79e-05	0	43	0	308281344	20	4446
2026-01-28 10:27:01.59	161.44	25.42	-30.1	-31.8	13.0	2.74e-05	0	43	0	310378496	20	4382
2026-01-28 10:27:02.59	161.45	25.58	-30.1	-31.7	13.1	3.35e-05	0	43	0	311427072	20	4362
2026-01-28 10:27:03.59	161.46	25.75	-29.9	-31.3	13.4	2.51e-05	0	43	0	313524224	20	4217
2026-01-28 10:27:04.60	161.47	25.91	-30.1	-31.8	13.0	2.44e-05	0	43	0	315621376	20	4388
2026-01-28 10:27:05.60	161.48	26.08	-30.2	-32.0	12.8	9.38e-05	0	43	0	317718528	20	4456
2026-01-28 10:27:06.60	161.49	26.25	-29.9	-31.2	13.4	2.28e-05	0	43	0	319815680	20	4201
2026-01-28 10:27:07.60	161.50	26.41	-30.1	-31.9	13.0	3.12e-05	0	43	0	320864256	20	4404
2026-01-28 10:27:08.60	161.51	26.58	-30.3	-32.3	12.8	4.19e-05	0	43	0	322961408	20	4540
2026-01-28 10:27:09.61	161.52	26.76	-30.2	-32.2	12.9	5.03e-05	0	43	0	325058560	20	4492
2026-01-28 10:27:10.61	161.53	26.93	-30.4	-32.7	12.5	9.76e-05	0	43	0	327155712	20	4673
2026-01-28 10:27:11.61	161.54	27.10	-30.5	-32.3	12.4	1.13e-04	0	43	0	329252864	21	4443
2026-01-28 10:27:12.61	161.55	27.27	-30.5	-32.3	12.4	1.05e-04	0	43	0	330301440	21	4439
2026-01-28 10:27:13.62	161.56	27.45	-30.4	-32.1	12.6	1.22e-04	0	43	0	332398592	21	4370
2026-01-28 10:27:14.62	161.57	27.62	-30.1	-31.2	13.2	8.62e-05	0	43	0	334495744	21	4094
2026-01-28 10:27:15.62	161.58	27.80	-30.2	-31.6	12.9	4.73e-05	0	43	0	336592896	21	4217
2026-01-28 10:27:16.62	161.60	27.98	-30.1	-31.2	13.2	3.66e-05	0	43	0	338690048	21	4091
2026-01-28 10:27:17.63	161.61	28.16	-30.1	-31.2	13.2	1.67e-05	0	43	0	339738624	21	4096
2026-01-28 10:27:18.63	161.62	28.34	-30.5	-32.5	12.4	7.17e-05	0	43	0	341835776	21	4491
2026-01-28 10:27:19.63	161.63	28.52	-30.6	-32.6	12.3	1.56e-04	0	43	0	343932928	21	4542
2026-01-28 10:27:20.63	161.64	28.70	-30.6	-32.8	12.2	1.16e-04	0	43	0	346030080	21	4588
2026-01-28 10:27:21.63	161.65	28.89	-30.7	-32.8	12.2	2.74e-04	0	43	0	347078656	21	4603
2026-01-28 10:27:22.64	161.66	29.08	-30.4	-32.0	12.7	2.69e-04	0	43	0	349175808	21	4323
2026-01-28 10:27:23.64	161.68	29.26	-30.4	-32.1	12.6	1.34e-04	0	43	0	351272960	21	4363
2026-01-28 10:27:24.64	161.69	29.45	-30.5	-32.3	12.5	9.15e-05	0	43	0	353370112	21	4423
2026-01-28 10:27:25.64	161.70	29.64	-30.3	-31.7	12.9	1.13e-04	0	43	0	355467264	21	4233
2026-01-28 10:27:26.65	161.71	29.83	-30.5	-32.3	12.5	9.99e-05	0	43	0	356515840	21	4451
2026-01-28 10:27:27.64	161.72	30.02	-30.5	-32.4	12.4	1.16e-04	0	43	0	358612992	21	4484
2026-01-28 10:27:28.65	161.74	30.21	-30.6	-32.7	12.2	1.47e-04	0	43	0	360710144	21	4572
2026-01-28 10:27:29.66	161.75	30.41	-30.5	-32.2	12.6	1.22e-04	0	43	0	362807296	21	4392
2026-01-28 10:27:30.66	161.76	30.61	-30.8	-33.3	11.9	3.00e-04	0	43	0	364904448	21	4762
2026-01-28 10:27:31.67	161.77	30.80	-30.8	-33.1	12.0	2.91e-04	0	43	0	365953024	21	4712
2026-01-28 10:27:32.67	161.79	31.00	-30.9	-32.8	11.9	6.95e-04	0	43	0	368050176	22	4494
2026-01-28 10:27:33.67	161.80	31.20	-31.0	-33.1	11.7	1.23e-03	0	43	0	370147328	22	4595
2026-01-28 10:27:34.67	161.81	31.40	-31.1	-33.4	11.5	6.11e-04	0	43	0	372244480	22	4728
2026-01-28 10:27:35.67	161.83	31.60	-31.0	-33.1	11.7	1.08e-03	0	43	0	374341632	22	4594
2026-01-28 10:27:36.67	161.84	31.81	-31.0	-33.3	11.5	9.35e-04	0	43	0	375390208	22	4685
2026-01-28 10:27:37.68	161.85	32.02	-31.2	-33.9	11.1	1.11e-03	0	43	0	377487360	22	4908
2026-01-28 10:27:38.68	161.87	32.22	-31.4	-34.6	10.6	9.43e-04	0	43	0	379584512	22	5177
2026-01-28 10:27:39.68	161.88	32.43	-31.1	-33.4	11.5	7.00e-04	0	43	0	381681664	22	4722
2026-01-28 10:27:40.68	161.89	32.64	-31.2	-33.9	11.1	1.22e-03	0	43	0	383778816	22	4917
2026-01-28 10:27:41.69	161.91	32.85	-31.4	-33.8	10.8	3.26e-03	0	43	0	384827392	23	4791
2026-01-28 10:27:42.69	161.92	33.06	-31.2	-33.4	11.1	1.39e-03	0	43	0	386924544	23	4643
2026-01-28 10:27:43.69	161.93	33.28	-31.4	-34.0	10.7	1.68e-03	0	43	0	389021696	23	4852
2026-01-28 10:27:44.69	161.95	33.49	-31.4	-33.9	10.8	3.82e-03	0	43	0	391118848	23	4815
2026-01-28 10:27:45.69	161.96	33.71	-31.2	-33.4	11.2	2.01e-03	0	43	0	392167424	23	4606
2026-01-28 10:27:46.70	161.98	33.93	-31.0	-32.8	11.6	8.12e-04	0	43	0	394264576	23	4404
2026-01-28 10:27:47.70	161.99	34.15	-30.8	-32.2	12.0	3.70e-04	0	43	0	396361728	23	4215
2026-01-28 10:27:48.70	162.01	34.37	-30.5	-31.8	12.6	2.40e-04	0	43	0	398458880	22	4152
2026-01-28 10:27:49.70	162.02	34.59	-30.6	-32.1	12.5	1.95e-04	0	43	0	400556032	22	4248
2026-01-28 10:27:50.71	162.04	34.82	-30.7	-32.4	12.3	1.55e-04	0	43	0	401604608	22	4360
2026-01-28 10:27:51.71	162.05	35.05	-30.5	-31.8	12.6	1.64e-04	0	43	0	403701760	22	4174
2026-01-28 10:27:52.71	162.07	35.27	-30.2	-31.4	13.3	6.02e-05	0	43	0	405798912	21	4115
2026-01-28 10:27:53.71	162.08	35.50	-30.1	-31.1	13.5	7.60e-06	0	43	0	407896064	21	4033
2026-01-28 10:27:54.71	162.10	35.74	-29.9	-30.4	13.8	1.44e-05	0	43	0	409993216	21	3848
2026-01-28 10:27:55.71	162.12	35.97	-30.0	-30.7	13.6	8.30e-06	0	43	0	411041792	21	3925
2026-01-28 10:27:56.72	162.13	36.21	-29.9	-30.5	13.8	9.10e-06	0	43	0	413138944	21	3872
2026-01-28 10:27:57.72	162.15	36.44	-29.7	-30.7	14.1	2.20e-06	0	43	0	415236096	20	4002
2026-01-28 10:27:58.73	162.17	36.68	-29.5	-30.1	14.4	1.50e-06	0	43	0	417333248	20	3831
2026-01-28 10:27:59.73	162.18	36.92	-29.2	-29.6	15.0	0.00e+00	0	43	0	419430400	19	3804
2026-01-28 10:28:00.74	162.20	37.17	-29.2	-29.7	15.1	7.00e-07	0	43	0	420478976	19	3815
2026-01-28 10:28:01.73	162.22	37.41	-29.3	-29.9	14.9	0.00e+00	0	43	0	422576128	19	3874
2026-01-28 10:28:02.74	162.23	37.65	-29.0	-29.3	15.3	0.00e+00	0	43	0	424673280	19	3720
2026-01-28 10:28:03.75	162.25	37.90	-29.4	-30.3	14.7	1.50e-06	0	43	0	426770432	19	3983
2026-01-28 10:28:04.75	162.27	38.15	-29.2	-29.8	15.1	0.00e+00	0	43	0	428867584	19	3836
2026-01-28 10:28:05.76	162.29	38.41	-29.0	-29.1	15.4	0.00e+00	0	43	0	429916160	19	3676
2026-01-28 10:28:06.76	162.31	38.66	-28.9	-29.0	15.5	7.00e-07	0	43	0	432013312	19	3637
2026-01-28 10:28:07.76	162.32	38.91	-28.8	-29.2	15.7	0.00e+00	0	43	0	434110464	18	3767
2026-01-28 10:28:08.77	162.34	39.17	-28.8	-29.2	15.7	0.00e+00	0	43	0	436207616	18	3774
2026-01-28 10:28:09.77	162.36	39.43	-28.8	-29.3	15.6	0.00e+00	0	43	0	438304768	18	3792
2026-01-28 10:28:10.78	162.38	39.69	-29.3	-30.5	14.8	0.00e+00	0	43	0	439353344	18	4133
2026-01-28 10:28:11.78	162.40	39.95	-29.4	-30.4	14.7	0.00e+00	0	43	0	441450496	19	4003
2026-01-28 10:28:12.78	162.42	40.22	-29.7	-31.1	14.4	7.00e-07	0	43	0	443547648	19	4208
2026-01-28 10:28:13.79	162.44	40.49	-29.5	-30.6	14.5	0.00e+00	0	43	0	445644800	19	4062
2026-01-28 10:28:14.79	162.46	40.75	-29.4	-30.3	14.6	1.50e-06	0	43	0	447741952	19	3987
2026-01-28 10:28:15.80	162.48	41.03	-29.7	-31.0	14.3	7.00e-07	0	43	0	448790528	19	4194
2026-01-28 10:28:16.80	162.50	41.30	-29.6	-30.7	14.5	7.00e-07	0	43	0	450887680	19	4104
2026-01-28 10:28:17.81	162.52	41.58	-29.9	-31.4	14.1	7.00e-07	0	43	0	452984832	19	4305
2026-01-28 10:28:18.81	162.55	41.85	-29.8	-30.8	14.0	5.30e-06	0	43	0	455081984	20	4043
2026-01-28 10:28:19.80	162.57	42.13	-29.5	-30.1	14.5	0.00e+00	0	43	0	456130560	20	3843
2026-01-28 10:28:20.81	162.59	42.41	-29.3	-30.1	14.9	0.00e+00	0	43	0	458227712	19	3928
2026-01-28 10:28:21.81	162.61	42.69	-29.4	-30.3	14.7	0.00e+00	0	43	0	460324864	19	3984
2026-01-28 10:28:22.81	162.63	42.98	-29.6	-30.8	14.4	1.50e-06	0	43	0	462422016	19	4129
2026-01-28 10:28:23.82	162.66	43.27	-29.5	-30.5	14.6	7.00e-07	0	43	0	464519168	19	4022
2026-01-28 10:28:24.82	162.68	43.56	-29.7	-31.0	14.3	3.00e-06	0	43	0	465567744	19	4182
2026-01-28 10:28:25.83	162.71	43.85	-29.8	-31.2	14.2	3.00e-06	0	43	0	467664896	19	4223
2026-01-28 10:28:26.83	162.73	44.15	-29.7	-30.9	14.4	0.00e+00	0	43	0	469762048	19	4152
2026-01-28 10:28:27.83	162.75	44.44	-30.1	-31.4	13.6	4.50e-06	0	43	0	471859200	20	4207
2026-01-28 10:28:28.83	162.78	44.74	-30.3	-32.1	13.3	1.60e-05	0	43	0	473956352	20	4434
2026-01-28 10:28:29.84	162.80	45.04	-30.7	-32.6	12.6	3.50e-05	0	43	0	475004928	21	4503
2026-01-28 10:28:30.84	162.83	45.35	-30.8	-33.1	12.3	1.62e-04	0	43	0	477102080	21	4666
2026-01-28 10:28:31.86	162.86	45.66	-31.2	-33.7	11.6	5.88e-04	0	43	0	479199232	22	4791
2026-01-28 10:28:32.86	162.88	45.96	-31.1	-33.5	11.6	1.00e-03	0	43	0	481296384	22	4742
2026-01-28 10:28:33.87	162.91	46.28	-31.1	-33.5	11.7	7.17e-04	0	43	0	483393536	22	4731
2026-01-28 10:28:34.87	162.94	46.59	-31.1	-33.3	11.6	5.29e-04	0	43	0	484442112	22	4671
2026-01-28 10:28:35.87	162.97	46.90	-31.1	-33.4	11.7	4.03e-04	0	43	0	486539264	22	4702
2026-01-28 10:28:36.88	163.00	47.22	-30.9	-32.8	12.1	4.42e-04	0	43	0	488636416	22	4464
2026-01-28 10:28:37.88	163.03	47.54	-30.9	-32.8	12.2	4.26e-04	0	43	0	490733568	22	4469
2026-01-28 10:28:38.88	163.06	47.86	-31.2	-33.8	11.5	6.07e-04	0	43	0	492830720	22	4821
2026-01-28 10:28:39.89	163.09	48.19	-31.4	-34.3	11.1	1.18e-03	0	43	0	493879296	22	5039
2026-01-28 10:28:40.90	163.12	48.52	-31.4	-34.4	11.1	1.82e-03	0	43	0	495976448	22	5065
2026-01-28 10:28:41.90	163.15	48.85	-31.2	-33.2	11.5	1.35e-03	0	43	0	498073600	23	4511
2026-01-28 10:28:42.91	163.18	49.18	-31.1	-32.8	11.9	1.14e-03	0	43	0	500170752	23	4371
2026-01-28 10:28:43.91	163.21	49.51	-31.5	-34.0	11.1	1.23e-03	0	43	0	502267904	23	4805
2026-01-28 10:28:44.92	163.25	49.85	-31.5	-33.9	10.9	1.52e-03	0	43	0	503316480	23	4797
2026-01-28 10:28:45.93	163.28	50.20	-31.3	-33.5	11.3	5.69e-04	0	43	0	505413632	23	4649
2026-01-28 10:28:46.93	163.32	50.54	-31.3	-33.4	11.4	9.42e-04	0	43	0	507510784	23	4607
2026-01-28 10:28:47.93	163.35	50.88	-30.9	-32.3	12.3	4.90e-04	0	43	0	509607936	23	4210
2026-01-28 10:28:48.94	163.39	51.23	-30.6	-32.0	12.8	1.24e-04	0	43	0	511705088	22	4192
2026-01-28 10:28:49.94	163.42	51.58	-30.4	-31.2	13.3	3.43e-05	0	43	0	512753664	22	3975
2026-01-28 10:28:50.94	163.46	51.93	-30.3	-31.5	13.3	2.28e-05	0	43	0	514850816	21	4142
2026-01-28 10:28:51.95	163.50	52.29	-30.1	-31.0	13.7	3.80e-06	0	43	0	516947968	21	3995
2026-01-28 10:28:52.95	163.54	52.64	-30.0	-31.1	13.9	7.00e-07	0	43	0	519045120	20	4117
2026-01-28 10:28:53.96	163.58	53.01	-29.9	-30.9	14.1	1.50e-06	0	43	0	521142272	20	4049
2026-01-28 10:28:54.96	163.62	53.37	-30.1	-31.5	13.7	3.00e-06	0	43	0	522190848	20	4243
2026-01-28 10:28:55.96	163.66	53.73	-29.8	-30.7	14.2	7.00e-07	0	43	0	524288000	20	4005
2026-01-28 10:28:56.96	163.71	54.10	-29.8	-30.8	14.2	2.20e-06	0	43	0	526385152	20	4018
2026-01-28 10:28:57.96	163.75	54.47	-30.0	-31.2	13.9	3.00e-06	0	43	0	528482304	20	4134
2026-01-28 10:28:58.96	163.80	54.84	-30.2	-31.8	13.6	3.80e-06	0	43	0	530579456	20	4307
2026-01-28 10:28:59.96	163.84	55.22	-29.8	-30.7	14.2	3.00e-06	0	43	0	531628032	20	3998
2026-01-28 10:29:00.96	163.89	55.59	-29.4	-29.8	14.8	0.00e+00	0	43	0	533725184	20	3745
2026-01-28 10:29:01.96	163.94	55.97	-28.8	-29.1	15.9	0.00e+00	0	43	0	535822336	18	3741
2026-01-28 10:29:02.97	163.99	56.36	-28.3	-27.9	16.6	0.00e+00	0	43	0	537919488	18	3459
2026-01-28 10:29:03.97	164.04	56.75	-28.5	-29.0	16.2	0.00e+00	0	43	0	538968064	17	3801
2026-01-28 10:29:04.98	164.09	57.14	-28.3	-28.6	16.5	0.00e+00	0	43	0	541065216	17	3697
2026-01-28 10:29:05.99	164.15	57.53	-28.4	-28.8	16.4	0.00e+00	0	43	0	543162368	17	3744
2026-01-28 10:29:06.99	164.20	57.93	-29.0	-30.1	15.7	0.00e+00	0	43	0	545259520	17	4098
2026-01-28 10:29:07.99	164.26	58.32	-29.3	-30.5	15.1	0.00e+00	0	43	0	547356672	18	4108
2026-01-28 10:29:09.00	164.32	58.72	-29.7	-30.9	14.6	7.00e-07	0	43	0	548405248	19	4140
2026-01-28 10:29:10.00	164.38	59.12	-29.7	-30.9	14.4	0.00e+00	0	43	0	550502400	19	4142
2026-01-28 10:29:11.00	164.44	59.53	-29.5	-30.4	15.0	0.00e+00	0	43	0	552599552	19	3978
2026-01-28 10:29:12.00	164.51	59.94	-28.9	-29.0	15.8	0.00e+00	0	43	0	554696704	19	3613
2026-01-28 10:29:13.00	164.57	60.34	-28.5	-28.4	16.3	0.00e+00	0	43	0	556793856	18	3551
2026-01-28 10:29:14.00	164.64	60.76	-28.4	-28.3	16.4	0.00e+00	0	43	0	557842432	18	3528
2026-01-28 10:29:15.00	164.71	61.17	-28.6	-28.6	16.3	0.00e+00	0	43	0	559939584	18	3605
2026-01-28 10:29:16.01	164.78	61.59	-28.1	-27.9	16.9	0.00e+00	0	43	0	562036736	17	3528
2026-01-28 10:29:17.01	164.86	62.01	-27.4	-26.8	17.8	0.00e+00	0	43	0	564133888	16	3366
2026-01-28 10:29:18.02	164.94	62.44	-26.9	-26.3	18.2	0.00e+00	0	43	0	566231040	15	3352
2026-01-28 10:29:19.02	165.02	62.86	-27.1	-26.7	18.0	0.00e+00	0	43	0	567279616	15	3449
2026-01-28 10:29:20.02	165.10	63.29	-27.1	-26.8	17.9	0.00e+00	0	43	0	569376768	15	3460
2026-01-28 10:29:21.02	165.19	63.72	-27.4	-27.4	17.6	0.00e+00	0	43	0	571473920	15	3597
2026-01-28 10:29:22.02	165.27	64.15	-27.5	-27.7	17.5	0.00e+00	0	43	0	573571072	15	3681
2026-01-28 10:29:23.02	165.37	64.58	-27.7	-28.0	17.3	0.00e+00	0	43	0	575668224	15	3758
2026-01-28 10:29:24.02	165.46	65.02	-28.1	-28.6	16.9	0.00e+00	0	43	0	576716800	16	3783
2026-01-28 10:29:25.02	165.56	65.46	-28.2	-28.7	16.8	0.00e+00	0	43	0	578813952	16	3828
2026-01-28 10:29:26.02	165.66	65.90	-28.7	-29.3	16.3	0.00e+00	0	43	0	580911104	17	3862
2026-01-28 10:29:27.02	165.77	66.35	-29.3	-30.4	15.3	0.00e+00	0	43	0	583008256	18	4072
2026-01-28 10:29:28.02	165.88	66.79	-29.2	-30.1	15.5	0.00e+00	0	43	0	584056832	18	3975
2026-01-28 10:29:29.03	166.00	67.25	-29.3	-29.8	15.3	0.00e+00	0	43	0	586153984	19	3820
2026-01-28 10:29:30.03	166.12	67.70	-29.4	-30.2	15.2	0.00e+00	0	43	0	588251136	19	3914
2026-01-28 10:29:31.03	166.25	68.15	-29.9	-31.3	14.5	0.00e+00	0	43	0	590348288	19	4232
2026-01-28 10:29:32.03	166.38	68.61	-31.1	-33.3	12.1	1.11e-04	0	43	0	592445440	22	4608
2026-01-28 10:29:33.04	166.52	69.07	-32.1	-35.3	10.0	5.94e-03	0	43	0	593494016	24	5203
2026-01-28 10:29:34.04	166.66	69.53	-32.3	-36.1	9.2	2.68e-02	0	43	0	595591168	24	5578
2026-01-28 10:29:35.05	166.82	70.00	-32.0	-34.9	10.2	1.26e-02	0	43	0	597688320	24	5013
2026-01-28 10:29:36.05	166.98	70.46	-32.0	-35.0	10.2	9.92e-03	0	43	0	599785472	24	5096
2026-01-28 10:29:37.05	167.14	70.93	-32.6	-36.5	8.7	2.28e-02	0	43	0	601882624	25	5699
2026-01-28 10:29:38.06	167.32	71.40	-32.2	-35.1	9.7	2.78e-02	0	43	0	602931200	25	5036
2026-01-28 10:29:39.06	167.51	71.87	-31.9	-34.1	10.5	1.14e-02	0	43	0	605028352	25	4651
2026-01-28 10:29:40.07	167.70	72.35	-31.2	-33.0	12.0	1.25e-03	0	43	0	607125504	23	4428
2026-01-28 10:29:41.08	167.91	72.83	-30.6	-31.7	13.2	1.38e-04	0	43	0	609222656	22	4089
2026-01-28 10:29:42.08	168.13	73.31	-30.1	-30.8	14.0	3.00e-06	0	43	0	611319808	21	3925
2026-01-28 10:29:43.09	168.37	73.79	-29.7	-30.3	14.7	7.00e-07	0	43	0	612368384	20	3872
2026-01-28 10:29:44.09	168.62	74.27	-29.9	-30.8	14.4	0.00e+00	0	43	0	614465536	20	4016
2026-01-28 10:29:45.09	168.88	74.75	-30.5	-32.0	13.4	1.50e-06	0	43	0	616562688	21	4258
2026-01-28 10:29:46.10	169.16	75.24	-31.0	-32.9	12.5	8.69e-05	0	43	0	618659840	22	4486
2026-01-28 10:29:47.10	169.47	75.72	-31.6	-34.3	11.1	6.63e-04	0	43	0	620756992	23	4879
2026-01-28 10:29:48.10	169.79	76.21	-31.7	-34.5	11.0	1.41e-03	0	43	0	621805568	23	4940
2026-01-28 10:29:49.11	170.14	76.70	-31.9	-35.1	10.6	2.80e-03	0	43	0	623902720	23	5216
2026-01-28 10:29:50.10	170.51	77.18	-30.9	-32.1	12.6	4.21e-04	0	43	0	625999872	23	4124
2026-01-28 10:29:51.10	170.91	77.67	-29.6	-30.1	14.9	2.20e-06	0	43	0	628097024	20	3800
2026-01-28 10:29:52.10	171.35	78.16	-30.2	-31.5	14.1	0.00e+00	0	43	0	629145600	20	4183
2026-01-28 10:29:53.10	171.83	78.65	-31.3	-33.6	12.1	1.33e-04	0	43	0	631242752	22	4708
2026-01-28 10:29:54.11	172.35	79.14	-31.2	-32.9	12.1	5.43e-04	0	43	0	633339904	23	4365
2026-01-28 10:29:55.11	172.92	79.63	-31.1	-32.5	12.5	1.63e-04	0	43	0	635437056	23	4229
2026-01-28 10:29:56.12	173.56	80.13	-31.1	-32.6	12.4	3.86e-04	0	43	0	637534208	23	4254
2026-01-28 10:29:57.12	174.25	80.62	-30.7	-31.8	13.2	1.33e-04	0	43	0	639631360	22	4083
2026-01-28 10:29:58.12	175.02	81.11	-31.2	-33.4	12.2	3.73e-05	0	43	0	640679936	22	4598
2026-01-28 10:29:59.13	175.90	81.61	-32.1	-35.1	10.4	2.60e-03	0	43	0	642777088	24	5107
2026-01-28 10:30:00.13	176.87	82.09	-32.6	-36.3	9.1	1.44e-02	0	43	0	644874240	25	5512
2026-01-28 10:30:01.13	177.97	82.58	-32.5	-36.2	9.0	3.94e-02	0	43	0	646971392	25	5502
2026-01-28 10:30:02.14	179.24	83.07	-32.4	-35.8	9.3	4.41e-02	0	43	0	648019968	25	5289
2026-01-28 10:30:03.14	180.69	83.55	-31.7	-33.7	11.4	3.22e-03	0	43	0	650117120	24	4531
2026-01-28 10:30:04.15	182.39	84.04	-31.1	-32.4	12.9	1.80e-04	0	43	0	652214272	23	4178
2026-01-28 10:30:05.16	184.39	84.51	-31.8	-34.3	11.5	2.16e-04	0	43	0	654311424	23	4847
2026-01-28 10:30:06.16	186.74	84.98	-32.0	-34.5	10.9	2.50e-03	0	43	0	656408576	24	4811
2026-01-28 10:30:07.16	189.57	85.44	-31.8	-34.0	11.3	1.08e-03	0	43	0	657457152	24	4625
2026-01-28 10:30:08.17	193.05	85.88	-32.2	-35.1	10.6	9.88e-04	0	43	0	659554304	24	5019
2026-01-28 10:30:09.17	197.32	86.31	-32.2	-35.1	10.6	2.38e-03	0	43	0	661651456	24	5057
2026-01-28 10:30:10.17	202.67	86.71	-32.8	-36.8	9.4	5.81e-03	0	43	0	663748608	25	5677
2026-01-28 10:30:11.18	209.48	87.07	-33.5	-39.2	6.7	4.96e-02	0	43	0	665845760	26	6986
2026-01-28 10:30:12.18	217.99	87.38	-33.5	-38.8	6.7	2.15e-01	0	43	0	666894336	27	6621
2026-01-28 10:30:13.18	228.50	87.62	-33.2	-37.3	7.7	8.34e-02	0	43	0	668991488	27	5795
2026-01-28 10:30:14.19	240.98	87.77	-32.7	-35.9	9.5	3.31e-02	0	43	0	671088640	26	5170
2026-01-28 10:30:15.19	254.32	87.80	-32.6	-35.4	9.8	7.88e-03	0	43	0	673185792	26	4985
2026-01-28 10:30:16.19	267.31	87.71	-32.8	-36.2	9.3	9.24e-03	0	43	0	675282944	26	5319
2026-01-28 10:30:17.19	278.78	87.51	-31.8	-33.2	11.6	1.16e-02	0	43	0	676331520	25	4261
2026-01-28 10:30:18.19	288.27	87.24	-30.8	-31.5	13.4	1.09e-04	0	43	0	678428672	23	3895
2026-01-28 10:30:19.19	295.85	86.90	-32.2	-35.3	10.5	1.81e-03	0	43	0	680525824	24	5136
2026-01-28 10:30:20.19	301.86	86.51	-32.3	-35.1	10.0	1.18e-02	0	43	0	682622976	25	4959
2026-01-28 10:30:21.19	306.63	86.10	-31.3	-32.8	12.5	1.36e-03	0	43	0	684720128	23	4308
2026-01-28 10:30:22.20	310.51	85.66	-31.4	-33.4	12.1	1.48e-04	0	43	0	685768704	23	4488
2026-01-28 10:30:23.20	313.63	85.21	-31.5	-33.7	11.8	5.26e-04	0	43	0	687865856	23	4610
2026-01-28 10:30:24.20	316.20	84.75	-30.9	-31.9	13.0	1.92e-04	0	43	0	689963008	23	4027
2026-01-28 10:30:25.21	318.38	84.28	-30.8	-32.3	13.1	4.42e-05	0	43	0	692060160	22	4241
2026-01-28 10:30:26.21	320.21	83.80	-31.1	-33.1	12.4	1.17e-04	0	43	0	694157312	22	4524
2026-01-28 10:30:27.22	321.78	83.32	-31.2	-33.2	12.3	1.19e-04	0	43	0	695205888	22	4558
2026-01-28 10:30:28.22	323.13	82.83	-31.5	-33.6	11.8	3.07e-04	0	43	0	697303040	23	4585
2026-01-28 10:30:29.23	324.32	82.34	-31.2	-32.8	12.3	2.90e-04	0	43	0	699400192	23	4308
2026-01-28 10:30:30.23	325.35	81.86	-31.6	-34.1	11.3	9.97e-04	0	43	0	701497344	23	4769
2026-01-28 10:30:31.23	326.27	81.37	-32.1	-35.1	10.2	5.41e-03	0	43	0	703594496	24	5093
2026-01-28 10:30:32.24	327.10	80.87	-30.9	-32.0	12.7	1.39e-03	0	43	0	704643072	23	4085
2026-01-28 10:30:33.25	327.84	80.38	-31.4	-33.5	11.8	1.91e-04	0	43	0	706740224	23	4547
2026-01-28 10:30:34.24	328.49	79.89	-31.2	-32.7	12.2	7.86e-04	0	43	0	708837376	23	4303
2026-01-28 10:30:35.25	329.09	79.40	-31.4	-33.4	11.8	1.23e-04	0	43	0	710934528	23	4546
2026-01-28 10:30:36.25	329.64	78.91	-32.6	-36.6	8.8	1.86e-02	0	43	0	711983104	25	5695
2026-01-28 10:30:37.26	330.14	78.41	-32.8	-37.3	7.9	7.10e-02	0	43	0	714080256	25	6093
2026-01-28 10:30:38.26	330.60	77.92	-32.2	-35.0	10.0	1.15e-02	0	43	0	716177408	25	4976
2026-01-28 10:30:39.27	331.02	77.43	-32.7	-37.1	8.3	3.80e-02	0	43	0	718274560	25	5959
2026-01-28 10:30:40.28	331.41	76.94	-32.6	-36.6	8.6	3.78e-02	0	43	0	720371712	25	5703
2026-01-28 10:30:41.27	331.77	76.46	-32.0	-34.3	10.4	1.68e-02	0	43	0	721420288	25	4719
2026-01-28 10:30:42.27	332.11	75.97	-31.1	-32.6	12.3	9.65e-04	0	43	0	723517440	23	4288
2026-01-28 10:30:43.28	332.42	75.48	-31.2	-32.9	12.1	3.04e-04	0	43	0	725614592	23	4360
2026-01-28 10:30:44.29	332.71	75.00	-31.7	-34.3	11.1	4.92e-04	0	43	0	727711744	23	4863
2026-01-28 10:30:45.29	332.99	74.52	-32.5	-36.2	8.9	1.73e-02	0	43	0	729808896	25	5550
2026-01-28 10:30:46.29	333.24	74.04	-32.4	-35.8	9.2	2.88e-02	0	43	0	730857472	25	5320
2026-01-28 10:30:47.30	333.48	73.55	-31.5	-33.3	11.5	3.18e-03	0	43	0	732954624	24	4440
2026-01-28 10:30:48.30	333.71	73.08	-31.6	-34.1	11.3	4.61e-04	0	43	0	735051776	23	4804
2026-01-28 10:30:49.31	333.93	72.60	-32.3	-36.3	9.2	3.02e-03	0	43	0	737148928	24	5660
2026-01-28 10:30:50.31	334.13	72.13	-32.5	-36.6	8.3	4.33e-02	0	43	0	739246080	25	5766
2026-01-28 10:30:51.31	334.32	71.66	-31.4	-33.2	11.4	2.64e-03	0	43	0	740294656	24	4404
2026-01-28 10:30:52.32	334.50	71.18	-31.9	-34.9	10.2	1.51e-03	0	43	0	742391808	24	5074
2026-01-28 10:30:53.32	334.67	70.72	-32.6	-37.0	8.1	4.94e-02	0	43	0	744488960	25	5997
2026-01-28 10:30:54.32	334.84	70.25	-32.0	-34.8	9.9	3.13e-02	0	43	0	746586112	25	4919
2026-01-28 10:30:55.31	334.99	69.79	-32.2	-35.3	9.6	1.79e-02	0	43	0	748683264	25	5179
2026-01-28 10:30:56.32	335.14	69.33	-31.6	-34.0	10.8	7.37e-03	0	43	0	749731840	24	4695
2026-01-28 10:30:57.32	335.28	68.87	-30.5	-31.5	13.3	7.78e-05	0	43	0	751828992	22	4041
2026-01-28 10:30:58.32	335.42	68.41	-31.6	-34.2	10.9	3.18e-04	0	43	0	753926144	23	4898
2026-01-28 10:30:59.32	335.54	67.96	-31.8	-35.0	10.5	4.14e-03	0	43	0	756023296	23	5185
2026-01-28 10:31:00.32	335.67	67.51	-31.6	-34.3	11.0	1.89e-03	0	43	0	758120448	23	4926
2026-01-28 10:31:01.33	335.79	67.06	-32.0	-35.6	9.9	2.83e-03	0	43	0	759169024	23	5473
2026-01-28 10:31:02.33	335.90	66.61	-32.3	-36.4	8.9	1.54e-02	0	43	0	761266176	24	5796
2026-01-28 10:31:03.34	336.01	66.16	-31.4	-33.2	11.3	3.81e-03	0	43	0	763363328	24	4411
2026-01-28 10:31:04.35	336.12	65.71	-31.1	-32.8	11.9	2.52e-04	0	43	0	765460480	23	4386
2026-01-28 10:31:05.35	336.22	65.27	-31.0	-32.6	12.1	3.20e-04	0	43	0	766509056	23	4314
2026-01-28 10:31:06.36	336.32	64.83	-30.6	-32.0	12.7	2.19e-04	0	43	0	768606208	22	4187
2026-01-28 10:31:07.36	336.41	64.40	-30.1	-31.0	13.8	2.20e-06	0	43	0	770703360	21	3988
2026-01-28 10:31:08.36	336.50	63.97	-30.6	-32.2	13.0	1.75e-05	0	43	0	772800512	21	4368
2026-01-28 10:31:09.36	336.59	63.54	-31.2	-33.4	11.9	1.31e-04	0	43	0	774897664	22	4675
2026-01-28 10:31:10.36	336.67	63.11	-30.9	-32.2	12.3	6.19e-04	0	43	0	776994816	23	4173
2026-01-28 10:31:11.37	336.76	62.68	-29.6	-30.1	14.6	4.50e-06	0	43	0	778043392	20	3836
2026-01-28 10:31:12.36	336.83	62.26	-29.3	-29.9	15.1	0.00e+00	0	43	0	780140544	19	3845
2026-01-28 10:31:13.37	336.91	61.84	-29.2	-29.7	15.3	0.00e+00	0	43	0	782237696	19	3792
2026-01-28 10:31:14.37	336.98	61.42	-29.8	-30.6	14.4	1.50e-06	0	43	0	784334848	20	3948
2026-01-28 10:31:15.37	337.06	61.01	-30.9	-33.1	12.4	1.29e-05	0	43	0	785383424	21	4637
2026-01-28 10:31:16.38	337.13	60.59	-32.0	-35.3	9.7	2.57e-03	0	43	0	787480576	24	5239
2026-01-28 10:31:17.37	337.19	60.19	-31.5	-33.7	10.9	4.63e-03	0	43	0	789577728	24	4601
2026-01-28 10:31:18.38	337.26	59.78	-30.1	-30.8	13.8	2.38e-04	0	43	0	791674880	21	3939
2026-01-28 10:31:19.39	337.32	59.37	-29.6	-30.2	14.5	7.00e-07	0	43	0	793772032	20	3847
2026-01-28 10:31:20.39	337.38	58.97	-30.2	-31.6	13.6	6.80e-06	0	43	0	794820608	20	4266
2026-01-28 10:31:21.40	337.44	58.56	-29.9	-30.8	14.1	3.00e-06	0	43	0	796917760	20	4024
2026-01-28 10:31:22.40	337.50	58.17	-29.5	-30.0	14.6	7.00e-07	0	43	0	799014912	20	3807
2026-01-28 10:31:23.41	337.56	57.77	-30.4	-32.3	13.2	7.00e-07	0	43	0	801112064	20	4498
2026-01-28 10:31:24.41	337.61	57.38	-30.8	-32.3	12.6	2.70e-04	0	43	0	803209216	22	4296
2026-01-28 10:31:25.41	337.67	56.99	-29.6	-30.1	14.5	1.52e-05	0	43	0	804257792	20	3816
2026-01-28 10:31:26.41	337.72	56.61	-28.7	-29.0	15.9	0.00e+00	0	43	0	806354944	18	3722
2026-01-28 10:31:27.41	337.77	56.22	-29.7	-30.9	14.4	0.00e+00	0	43	0	808452096	19	4148
2026-01-28 10:31:28.41	337.82	55.84	-30.9	-33.4	12.1	3.28e-05	0	43	0	810549248	21	4755
2026-01-28 10:31:29.41	337.87	55.47	-30.6	-31.7	12.8	2.62e-04	0	43	0	811597824	22	4115
2026-01-28 10:31:30.42	337.92	55.09	-29.6	-30.2	14.5	2.20e-06	0	43	0	813694976	20	3859
2026-01-28 10:31:31.42	337.96	54.72	-29.9	-30.9	14.1	0.00e+00	0	43	0	815792128	20	4066
2026-01-28 10:31:32.42	338.01	54.35	-30.8	-33.0	12.3	2.74e-05	0	43	0	817889280	21	4632
2026-01-28 10:31:33.42	338.05	53.98	-31.1	-33.3	11.9	4.64e-04	0	43	0	819986432	22	4641
2026-01-28 10:31:34.42	338.09	53.61	-30.6	-31.8	12.8	2.44e-04	0	43	0	822083584	22	4155
2026-01-28 10:31:35.42	338.13	53.25	-30.2	-31.3	13.4	1.75e-05	0	43	0	823132160	21	4069
2026-01-28 10:31:36.42	338.18	52.89	-30.6	-32.5	12.8	9.10e-06	0	43	0	825229312	21	4445
2026-01-28 10:31:37.43	338.22	52.53	-31.2	-33.6	11.6	4.22e-04	0	43	0	827326464	22	4755
2026-01-28 10:31:38.43	338.25	52.18	-31.5	-34.2	10.8	1.07e-03	0	43	0	829423616	23	4891
2026-01-28 10:31:39.44	338.29	51.82	-31.9	-35.3	9.9	7.65e-03	0	43	0	830472192	23	5363
2026-01-28 10:31:40.45	338.33	51.47	-31.8	-35.3	9.9	8.66e-03	0	43	0	832569344	23	5338
2026-01-28 10:31:41.45	338.37	51.13	-32.1	-35.9	9.0	3.13e-02	0	43	0	834666496	24	5539
2026-01-28 10:31:42.45	338.40	50.78	-31.8	-34.7	10.0	7.79e-03	0	43	0	836763648	24	5006
2026-01-28 10:31:43.45	338.44	50.44	-31.0	-32.4	12.1	1.89e-03	0	43	0	838860800	23	4240
2026-01-28 10:31:44.46	338.47	50.10	-30.2	-31.3	13.4	1.22e-05	0	43	0	839909376	21	4097
2026-01-28 10:31:45.46	338.51	49.76	-30.2	-31.2	13.5	1.29e-05	0	44	0	842006528	21	4048
2026-01-28 10:31:46.46	338.54	49.43	-30.3	-31.5	13.3	1.22e-05	0	44	0	844103680	21	4156
2026-01-28 10:31:47.47	338.57	49.09	-30.9	-33.3	12.0	1.30e-04	0	43	0	846200832	21	4763
2026-01-28 10:31:48.47	338.61	48.77	-31.6	-34.6	10.4	1.11e-03	0	43	0	848297984	23	5082
2026-01-28 10:31:49.48	338.64	48.44	-32.5	-37.5	8.0	1.63e-02	0	43	0	849346560	24	6372
2026-01-28 10:31:50.48	338.67	48.11	-32.2	-35.6	8.7	8.92e-02	0	43	0	851443712	25	5353
2026-01-28 10:31:51.49	338.70	47.79	-30.7	-32.3	12.3	2.12e-03	0	43	0	853540864	22	4317
2026-01-28 10:31:52.49	338.73	47.47	-29.5	-29.9	14.6	1.14e-05	0	43	0	855638016	20	3776
2026-01-28 10:31:53.50	338.76	47.15	-29.0	-29.3	15.3	0.00e+00	0	43	0	857735168	19	3703
2026-01-28 10:31:54.50	338.79	46.84	-29.1	-29.5	15.2	0.00e+00	0	43	0	858783744	19	3772
2026-01-28 10:31:55.50	338.82	46.52	-29.9	-31.4	14.0	7.00e-07	0	43	0	860880896	19	4289
2026-01-28 10:31:56.50	338.84	46.21	-29.7	-30.6	14.1	4.50e-06	0	43	0	862978048	20	3985
2026-01-28 10:31:57.50	338.87	45.91	-30.2	-31.7	13.4	7.60e-06	0	43	0	865075200	20	4319
2026-01-28 10:31:58.50	338.90	45.60	-30.0	-31.3	13.6	1.44e-05	0	43	0	867172352	20	4187
2026-01-28 10:31:59.50	338.92	45.30	-30.2	-32.0	13.4	1.29e-05	0	43	0	868220928	20	4412
2026-01-28 10:32:00.50	338.95	45.00	-30.4	-32.0	12.8	6.71e-05	0	43	0	870318080	21	4316
2026-01-28 10:32:01.50	338.97	44.70	-29.9	-30.6	13.7	3.80e-06	0	43	0	872415232	21	3901
2026-01-28 10:32:02.51	339.00	44.40	-29.5	-30.1	14.4	1.50e-06	0	43	0	874512384	20	3836
2026-01-28 10:32:03.51	339.02	44.11	-29.3	-29.9	14.9	1.50e-06	0	43	0	876609536	19	3868
2026-01-28 10:32:04.51	339.05	43.82	-28.9	-28.9	15.5	0.00e+00	0	43	0	877658112	19	3615
2026-01-28 10:32:05.52	339.07	43.52	-28.5	-28.5	16.1	0.00e+00	0	43	0	879755264	18	3598
2026-01-28 10:32:06.51	339.10	43.24	-28.8	-29.1	15.6	0.00e+00	0	43	0	881852416	18	3749
2026-01-28 10:32:07.52	339.12	42.95	-29.1	-30.0	15.1	0.00e+00	0	43	0	883949568	18	3985
2026-01-28 10:32:08.52	339.14	42.67	-29.8	-31.3	14.1	0.00e+00	0	43	0	884998144	19	4266
2026-01-28 10:32:09.53	339.17	42.39	-30.3	-32.2	13.0	6.10e-06	0	43	0	887095296	20	4473
2026-01-28 10:32:10.53	339.19	42.11	-31.2	-33.7	11.4	1.08e-04	0	43	0	889192448	22	4810
2026-01-28 10:32:11.54	339.21	41.83	-31.3	-33.6	11.0	2.38e-03	0	43	0	891289600	23	4698
2026-01-28 10:32:12.54	339.23	41.55	-31.3	-33.5	11.1	1.27e-03	0	43	0	893386752	23	4671
2026-01-28 10:32:13.54	339.25	41.28	-31.2	-33.1	11.3	8.99e-04	0	43	0	894435328	23	4525
2026-01-28 10:32:14.54	339.27	41.01	-31.1	-33.0	11.6	4.44e-04	0	43	0	896532480	23	4453
2026-01-28 10:32:15.55	339.30	40.74	-31.0	-32.5	11.9	8.25e-04	0	43	0	898629632	23	4316
2026-01-28 10:32:16.55	339.32	40.47	-31.0	-32.6	11.8	4.56e-04	0	43	0	900726784	23	4350
2026-01-28 10:32:17.55	339.34	40.21	-31.2	-33.2	11.3	8.76e-04	0	43	0	902823936	23	4538
2026-01-28 10:32:18.55	339.36	39.95	-30.9	-32.5	11.8	8.19e-04	0	43	0	903872512	23	4298
2026-01-28 10:32:19.55	339.38	39.69	-31.1	-33.4	11.5	3.81e-04	0	43	0	905969664	22	4714
2026-01-28 10:32:20.56	339.40	39.43	-31.4	-34.3	10.9	7.11e-04	0	43	0	908066816	22	5069
2026-01-28 10:32:21.56	339.41	39.17	-31.8	-35.2	9.8	9.84e-03	0	43	0	910163968	23	5351
2026-01-28 10:32:22.56	339.43	38.92	-32.1	-36.2	8.7	3.67e-02	0	43	0	912261120	24	5752
2026-01-28 10:32:23.56	339.45	38.66	-32.6	-38.0	7.1	8.61e-02	0	43	0	913309696	25	6678
2026-01-28 10:32:24.57	339.47	38.41	-32.9	-39.6	5.8	3.62e-01	0	43	0	915406848	25	7726
2026-01-28 10:32:25.57	339.49	38.16	-32.9	-39.1	6.1	3.66e-01	0	43	0	917504000	25	7412
2026-01-28 10:32:26.58	339.51	37.91	-32.7	-38.3	6.6	2.69e-01	0	43	0	919601152	25	6846
2026-01-28 10:32:27.58	339.53	37.67	-32.2	-36.2	8.1	1.96e-01	0	43	0	921698304	25	5685
2026-01-28 10:32:28.58	339.54	37.42	-31.8	-34.7	9.3	2.08e-02	0	43	0	922746880	25	5017
2026-01-28 10:32:29.59	339.56	37.18	-31.8	-34.9	9.6	1.05e-02	0	43	0	924844032	24	5181
2026-01-28 10:32:30.59	339.58	36.94	-31.8	-34.9	9.7	8.16e-03	0	43	0	926941184	24	5155
2026-01-28 10:32:31.59	339.59	36.70	-31.5	-34.0	10.4	1.19e-02	0	43	0	929038336	24	4777
2026-01-28 10:32:32.59	339.61	36.46	-31.5	-33.9	10.4	7.46e-03	0	43	0	930086912	24	4724
2026-01-28 10:32:33.59	339.63	36.23	-31.6	-34.0	10.3	9.00e-03	0	43	0	932184064	24	4766
2026-01-28 10:32:34.59	339.64	36.00	-31.3	-33.6	11.0	3.03e-03	0	43	0	934281216	23	4688
2026-01-28 10:32:35.59	339.66	35.77	-31.3	-33.6	11.0	1.66e-03	0	43	0	936378368	23	4708
2026-01-28 10:32:36.59	339.68	35.54	-31.3	-33.7	10.9	2.49e-03	0	43	0	938475520	23	4728
2026-01-28 10:32:37.59	339.69	35.31	-31.4	-34.1	10.7	4.10e-03	0	43	0	939524096	23	4883
2026-01-28 10:32:38.60	339.71	35.08	-31.6	-34.8	10.2	5.51e-03	0	43	0	941621248	23	5159
2026-01-28 10:32:39.60	339.72	34.85	-32.3	-36.8	8.1	1.89e-02	0	43	0	943718400	24	6084
2026-01-28 10:32:40.60	339.74	34.63	-32.4	-36.9	7.7	5.93e-02	0	43	0	945815552	25	6019
2026-01-28 10:32:41.60	339.76	34.41	-32.6	-37.7	7.1	9.98e-02	0	43	0	947912704	25	6482
2026-01-28 10:32:42.61	339.77	34.19	-32.7	-38.4	6.5	2.57e-01	0	43	0	948961280	25	6962
2026-01-28 10:32:43.61	339.79	33.97	-32.8	-38.7	6.3	2.90e-01	0	43	0	951058432	25	7168
2026-01-28 10:32:44.61	339.80	33.75	-32.6	-37.9	6.9	1.87e-01	0	43	0	953155584	25	6650
2026-01-28 10:32:45.62	339.82	33.54	-32.6	-38.0	6.8	1.85e-01	0	43	0	955252736	25	6709
2026-01-28 10:32:46.62	339.83	33.32	-32.5	-37.2	7.4	1.25e-01	0	43	0	957349888	25	6201
2026-01-28 10:32:47.62	339.84	33.11	-32.4	-36.9	7.8	1.45e-01	0	43	0	958398464	25	6018
2026-01-28 10:32:48.62	339.86	32.90	-32.3	-36.5	8.0	9.40e-02	0	43	0	960495616	25	5814
2026-01-28 10:32:49.63	339.87	32.69	-32.1	-35.6	8.7	5.43e-02	0	43	0	962592768	25	5347
2026-01-28 10:32:50.63	339.89	32.48	-31.8	-34.3	9.7	2.25e-02	0	43	0	964689920	25	4822
2026-01-28 10:32:51.64	339.90	32.27	-31.7	-34.6	9.9	1.07e-02	0	43	0	966787072	24	5004
2026-01-28 10:32:52.64	339.91	32.07	-31.4	-33.5	10.6	4.04e-03	0	43	0	967835648	24	4583
2026-01-28 10:32:53.64	339.93	31.86	-31.2	-33.2	11.2	2.65e-03	0	43	0	969932800	23	4566
2026-01-28 10:32:54.65	339.94	31.66	-31.1	-32.9	11.4	3.07e-03	0	43	0	972029952	23	4453
2026-01-28 10:32:55.65	339.96	31.46	-31.1	-33.1	11.3	6.60e-04	0	43	0	974127104	23	4501
2026-01-28 10:32:56.65	339.97	31.26	-31.1	-33.0	11.3	8.30e-04	0	43	0	975175680	23	4471
2026-01-28 10:32:57.66	339.98	31.06	-31.2	-33.2	11.2	8.22e-04	0	43	0	977272832	23	4568
2026-01-28 10:32:58.66	340.00	30.86	-31.6	-34.6	10.1	6.01e-03	0	43	0	979369984	23	5079
2026-01-28 10:32:59.67	340.01	30.66	-31.8	-35.3	9.7	9.19e-03	0	43	0	981467136	23	5392
2026-01-28 10:33:00.68	340.02	30.47	-32.0	-36.0	9.1	1.72e-02	0	43	0	983564288	23	5728
2026-01-28 10:33:01.68	340.03	30.27	-32.3	-37.1	7.9	4.21e-02	0	43	0	985661440	24	6257
2026-01-28 10:33:02.68	340.05	30.08	-32.6	-37.8	7.0	1.17e-01	0	43	0	986710016	25	6581
2026-01-28 10:33:03.69	340.06	29.89	-32.5	-37.7	7.0	1.99e-01	0	43	0	988807168	25	6483
2026-01-28 10:33:04.70	340.07	29.70	-32.5	-37.3	7.3	1.96e-01	0	43	0	990904320	25	6292
2026-01-28 10:33:05.70	340.08	29.51	-32.4	-37.0	7.5	1.03e-01	0	43	0	993001472	25	6081
2026-01-28 10:33:06.71	340.10	29.32	-32.1	-35.9	8.4	3.91e-02	0	43	0	994050048	25	5534
2026-01-28 10:33:07.71	340.11	29.14	-31.7	-34.6	9.5	2.45e-02	0	43	0	996147200	24	5047
2026-01-28 10:33:08.71	340.12	28.95	-31.4	-33.7	10.4	8.09e-03	0	43	0	998244352	24	4658
2026-01-28 10:33:09.72	340.13	28.77	-31.1	-33.2	11.1	2.70e-03	0	43	0	1000341504	23	4571
2026-01-28 10:33:10.72	340.14	28.59	-31.0	-32.8	11.5	1.18e-03	0	43	0	1002438656	23	4414
2026-01-28 10:33:11.73	340.16	28.41	-30.7	-32.4	12.0	5.71e-04	0	43	0	1003487232	22	4383
2026-01-28 10:33:12.74	340.17	28.23	-30.7	-32.4	12.1	2.70e-04	0	43	0	1005584384	22	4376
2026-01-28 10:33:13.74	340.18	28.05	-30.6	-32.1	12.4	2.41e-04	0	43	0	1007681536	22	4260
2026-01-28 10:33:14.75	340.19	27.87	-30.4	-32.1	12.6	7.40e-05	0	43	0	1009778688	21	4369
2026-01-28 10:33:15.76	340.20	27.69	-30.3	-31.9	12.8	7.70e-05	0	43	0	1011875840	21	4289
2026-01-28 10:33:16.76	340.21	27.52	-30.3	-31.7	12.8	5.79e-05	0	43	0	1012924416	21	4246
2026-01-28 10:33:17.77	340.23	27.34	-30.2	-31.4	13.1	4.80e-05	0	43	0	1015021568	21	4138
2026-01-28 10:33:18.78	340.24	27.17	-30.0	-30.8	13.4	1.22e-05	0	43	0	1017118720	21	3969
2026-01-28 10:33:19.77	340.25	27.00	-30.0	-31.0	13.3	1.83e-05	0	43	0	1019215872	21	4019
2026-01-28 10:33:20.78	340.26	26.83	-29.9	-30.6	13.6	1.52e-05	0	43	0	1021313024	21	3908
2026-01-28 10:33:21.79	340.27	26.65	-29.8	-30.8	13.8	1.14e-05	0	43	0	1022361600	20	4047
2026-01-28 10:33:22.79	340.28	26.49	-29.7	-30.6	13.9	3.80e-06	0	43	0	1024458752	20	4008
2026-01-28 10:33:23.79	340.29	26.32	-29.8	-30.9	13.7	3.80e-06	0	43	0	1026555904	20	4086
2026-01-28 10:33:24.79	340.30	26.15	-29.6	-30.4	14.0	6.80e-06	0	43	0	1028653056	20	3935
2026-01-28 10:33:25.79	340.31	25.99	-29.3	-30.0	14.6	0.00e+00	0	43	0	1030750208	19	3902
2026-01-28 10:33:26.79	340.32	25.82	-29.1	-29.5	14.8	0.00e+00	0	43	0	1031798784	19	3792
2026-01-28 10:33:27.79	340.34	25.66	-29.0	-29.2	15.1	0.00e+00	0	43	0	1033895936	19	3709
2026-01-28 10:33:28.80	340.35	25.50	-29.2	-29.8	14.7	0.00e+00	0	43	0	1035993088	19	3863
2026-01-28 10:33:29.80	340.36	25.34	-29.1	-29.7	14.7	0.00e+00	0	43	0	1038090240	19	3845
2026-01-28 10:33:30.80	340.37	25.18	-29.2	-30.0	14.6	0.00e+00	0	43	0	1040187392	19	3912
2026-01-28 10:33:31.81	340.38	25.02	-29.3	-30.2	14.4	0.00e+00	0	43	0	1041235968	19	3978
2026-01-28 10:33:32.81	340.39	24.86	-29.5	-30.5	14.2	0.00e+00	0	43	0	1043333120	19	4075
2026-01-28 10:33:33.81	340.40	24.70	-29.5	-30.7	14.1	3.00e-06	0	43	0	1045430272	19	4123
2026-01-28 10:33:34.81	340.41	24.55	-29.6	-30.9	13.9	2.20e-06	0	43	0	1047527424	19	4187
2026-01-28 10:33:35.82	340.42	24.39	-29.8	-31.3	13.6	3.00e-06	0	43	0	1049624576	19	4307
2026-01-28 10:33:36.83	340.43	24.23	-29.7	-31.1	13.7	3.80e-06	0	43	0	1050673152	19	4254
2026-01-28 10:33:37.83	340.44	24.08	-29.5	-30.7	13.9	5.30e-06	0	43	0	1052770304	19	4131
2026-01-28 10:33:38.83	340.45	23.93	-29.5	-30.5	14.0	7.00e-07	0	43	0	1054867456	19	4082
2026-01-28 10:33:39.83	340.46	23.78	-29.3	-30.1	14.4	1.50e-06	0	43	0	1056964608	19	3945
2026-01-28 10:33:40.83	340.47	23.62	-29.1	-29.5	14.8	2.20e-06	0	43	0	1059061760	19	3804
2026-01-28 10:33:41.84	340.48	23.47	-29.3	-30.2	14.3	0.00e+00	0	43	0	1060110336	19	3979
2026-01-28 10:33:42.84	340.49	23.32	-29.0	-29.3	14.8	0.00e+00	0	43	0	1062207488	19	3748
2026-01-28 10:33:43.84	340.50	23.18	-29.0	-29.3	14.9	0.00e+00	0	43	0	1064304640	19	3735
2026-01-28 10:33:44.84	340.51	23.03	-28.9	-29.0	15.0	0.00e+00	0	43	0	1066401792	19	3671
2026-01-28 10:33:45.84	340.52	22.88	-28.7	-29.1	15.3	0.00e+00	0	43	0	1067450368	18	3777
2026-01-28 10:33:46.84	340.52	22.74	-28.8	-29.4	15.1	0.00e+00	0	43	0	1069547520	18	3849
2026-01-28 10:33:47.85	340.53	22.59	-28.9	-29.5	15.1	0.00e+00	0	43	0	1071644672	18	3885
2026-01-28 10:33:48.85	340.54	22.45	-28.8	-29.4	15.0	0.00e+00	0	43	0	1073741824	18	3850
2026-01-28 10:33:49.86	340.55	22.30	-28.9	-29.5	15.1	0.00e+00	0	43	0	1075838976	18	3872
2026-01-28 10:33:50.86	340.56	22.16	-29.0	-29.8	14.9	7.00e-07	0	43	0	1076887552	18	3950
2026-01-28 10:33:51.86	340.57	22.02	-28.9	-29.6	15.0	7.00e-07	0	43	0	1078984704	18	3906
2026-01-28 10:33:52.87	340.58	21.88	-29.0	-29.9	14.9	0.00e+00	0	43	0	1081081856	18	3976
2026-01-28 10:33:53.87	340.59	21.74	-29.1	-30.1	14.7	7.00e-07	0	43	0	1083179008	18	4043
2026-01-28 10:33:54.87	340.60	21.60	-29.0	-29.7	14.9	0.00e+00	0	43	0	1085276160	18	3943
2026-01-28 10:33:55.88	340.61	21.46	-29.2	-30.3	14.6	0.00e+00	0	43	0	1086324736	18	4096
2026-01-28 10:33:56.88	340.62	21.32	-29.1	-30.1	14.7	0.00e+00	0	43	0	1088421888	18	4032
2026-01-28 10:33:57.89	340.63	21.18	-29.0	-29.9	14.8	7.00e-07	0	43	0	1090519040	18	3986
2026-01-28 10:33:58.89	340.63	21.04	-29.3	-30.5	14.5	0.00e+00	0	43	0	1092616192	18	4171
2026-01-28 10:33:59.89	340.64	20.91	-29.3	-30.6	14.4	7.00e-07	0	43	0	1094713344	18	4191
2026-01-28 10:34:00.90	340.65	20.77	-29.4	-30.8	14.2	0.00e+00	0	43	0	1095761920	18	4262
2026-01-28 10:34:01.90	340.66	20.64	-29.3	-30.7	14.2	1.50e-06	0	43	0	1097859072	18	4227
2026-01-28 10:34:02.90	340.67	20.51	-29.4	-30.9	14.2	7.00e-07	0	43	0	1099956224	18	4273
2026-01-28 10:34:03.90	340.68	20.37	-29.6	-31.0	13.8	3.00e-06	0	43	0	1102053376	19	4221
2026-01-28 10:34:04.90	340.69	20.24	-29.5	-30.7	13.9	9.10e-06	0	43	0	1104150528	19	4140
2026-01-28 10:34:05.91	340.70	20.11	-29.6	-30.9	13.9	3.00e-06	0	43	0	1105199104	19	4176
2026-01-28 10:34:06.91	340.70	19.98	-29.8	-31.6	13.4	9.90e-06	0	43	0	1107296256	19	4411
2026-01-28 10:34:07.91	340.71	19.85	-29.8	-31.4	13.6	1.67e-05	0	43	0	1109393408	19	4326
2026-01-28 10:34:08.92	340.72	19.72	-29.8	-31.4	13.5	9.10e-06	0	43	0	1111490560	19	4350
2026-01-28 10:34:09.92	340.73	19.59	-29.7	-31.2	13.7	6.80e-06	0	43	0	1113587712	19	4268
2026-01-28 10:34:10.92	340.74	19.46	-29.7	-31.2	13.6	9.10e-06	0	43	0	1114636288	19	4273
2026-01-28 10:34:11.92	340.75	19.34	-29.7	-31.3	13.6	7.60e-06	0	43	0	1116733440	19	4322
2026-01-28 10:34:12.93	340.76	19.21	-29.6	-30.8	13.9	4.50e-06	0	43	0	1118830592	19	4168
2026-01-28 10:34:13.93	340.76	19.08	-29.5	-30.6	14.0	3.00e-06	0	43	0	1120927744	19	4102
2026-01-28 10:34:14.93	340.77	18.96	-29.5	-30.8	13.9	0.00e+00	0	43	0	1123024896	19	4170
2026-01-28 10:34:15.93	340.78	18.83	-29.4	-30.4	14.2	7.60e-06	0	43	0	1124073472	19	4031
2026-01-28 10:34:16.92	340.79	18.71	-29.1	-29.7	14.5	1.50e-06	0	43	0	1126170624	19	3855
2026-01-28 10:34:17.92	340.80	18.59	-29.1	-29.6	14.6	0.00e+00	0	43	0	1128267776	19	3837
2026-01-28 10:34:18.93	340.80	18.46	-29.1	-29.8	14.5	0.00e+00	0	43	0	1130364928	19	3872
2026-01-28 10:34:19.93	340.81	18.34	-29.1	-29.7	14.6	0.00e+00	0	43	0	1131413504	19	3841
2026-01-28 10:34:20.94	340.82	18.22	-29.3	-30.2	14.2	7.00e-07	0	43	0	1133510656	19	3993
2026-01-28 10:34:21.94	340.83	18.10	-29.2	-30.0	14.3	2.20e-06	0	43	0	1135607808	19	3942
2026-01-28 10:34:22.95	340.84	17.97	-29.2	-30.0	14.3	0.00e+00	0	43	0	1137704960	19	3929
2026-01-28 10:34:23.96	340.85	17.85	-29.4	-30.6	14.0	3.00e-06	0	43	0	1139802112	19	4095
2026-01-28 10:34:24.96	340.85	17.74	-29.3	-30.3	14.1	6.10e-06	0	43	0	1140850688	19	4019
2026-01-28 10:34:25.97	340.86	17.62	-29.5	-30.8	13.8	3.80e-06	0	43	0	1142947840	19	4151
2026-01-28 10:34:26.97	340.87	17.50	-29.5	-30.6	13.8	7.00e-07	0	43	0	1145044992	19	4124
2026-01-28 10:34:27.97	340.88	17.38	-29.4	-30.6	13.9	1.50e-06	0	43	0	1147142144	19	4101
2026-01-28 10:34:28.97	340.88	17.26	-29.7	-31.2	13.5	5.30e-06	0	43	0	1149239296	19	4279
2026-01-28 10:34:29.98	340.89	17.15	-29.5	-30.6	13.8	5.30e-06	0	43	0	1150287872	19	4125
2026-01-28 10:34:30.98	340.90	17.03	-29.5	-30.8	13.7	4.50e-06	0	43	0	1152385024	19	4176
2026-01-28 10:34:31.99	340.91	16.91	-29.6	-30.9	13.7	1.06e-05	0	43	0	1154482176	19	4208
2026-01-28 10:34:32.99	340.92	16.80	-29.4	-30.4	13.9	9.10e-06	0	43	0	1156579328	19	4059
2026-01-28 10:34:33.99	340.92	16.69	-29.3	-30.3	14.1	1.50e-06	0	43	0	1158676480	19	4020
2026-01-28 10:34:35.00	340.93	16.57	-29.5	-30.9	13.7	1.50e-06	0	43	0	1159725056	19	4199
2026-01-28 10:34:36.00	340.94	16.46	-29.3	-30.4	14.0	2.20e-06	0	43	0	1161822208	19	4045
2026-01-28 10:34:37.00	340.95	16.35	-29.4	-30.4	13.9	2.20e-06	0	43	0	1163919360	19	4065
2026-01-28 10:34:38.01	340.95	16.23	-29.5	-30.6	13.7	2.20e-06	0	43	0	1166016512	19	4131
2026-01-28 10:34:39.01	340.96	16.12	-29.4	-30.4	13.9	1.50e-06	0	43	0	1168113664	19	4070
2026-01-28 10:34:40.02	340.97	16.01	-29.4	-30.6	13.9	3.80e-06	0	43	0	1169162240	19	4100
2026-01-28 10:34:41.02	340.98	15.90	-29.7	-31.1	13.5	1.29e-05	0	43	0	1171259392	19	4276
2026-01-28 10:34:42.03	340.98	15.79	-29.5	-30.8	13.7	6.80e-06	0	43	0	1173356544	19	4164
2026-01-28 10:34:43.04	340.99	15.68	-29.6	-30.9	13.6	5.30e-06	0	43	0	1175453696	19	4215
2026-01-28 10:34:44.03	341.00	15.57	-29.7	-31.2	13.5	1.60e-05	0	43	0	1177550848	19	4297
2026-01-28 10:34:45.04	341.01	15.46	-29.6	-31.0	13.5	1.67e-05	0	43	0	1178599424	19	4244
2026-01-28 10:34:46.04	341.01	15.35	-29.5	-30.9	13.6	1.37e-05	0	43	0	1180696576	19	4209
2026-01-28 10:34:47.04	341.02	15.24	-29.6	-31.0	13.5	8.30e-06	0	43	0	1182793728	19	4250
2026-01-28 10:34:48.04	341.03	15.14	-29.7	-31.4	13.3	1.44e-05	0	43	0	1184890880	19	4383
2026-01-28 10:34:49.04	341.04	15.03	-29.9	-31.5	12.8	4.95e-05	0	43	0	1185939456	20	4319
2026-01-28 10:34:50.04	341.04	14.92	-29.9	-31.4	12.9	5.72e-05	0	43	0	1188036608	20	4292
2026-01-28 10:34:51.04	341.05	14.82	-29.8	-31.3	13.0	3.73e-05	0	43	0	1190133760	20	4241
2026-01-28 10:34:52.05	341.06	14.71	-30.0	-31.6	12.7	6.33e-05	0	43	0	1192230912	20	4360
2026-01-28 10:34:53.05	341.07	14.61	-29.8	-31.2	13.0	6.63e-05	0	43	0	1194328064	20	4212
2026-01-28 10:34:54.05	341.07	14.50	-30.0	-31.7	12.6	4.88e-05	0	43	0	1195376640	20	4389
2026-01-28 10:34:55.05	341.08	14.40	-30.0	-31.7	12.7	7.70e-05	0	43	0	1197473792	20	4381
2026-01-28 10:34:56.05	341.09	14.30	-29.9	-31.4	12.8	5.72e-05	0	43	0	1199570944	20	4287
2026-01-28 10:34:57.05	341.09	14.19	-29.9	-31.5	12.7	6.71e-05	0	43	0	1201668096	20	4335
2026-01-28 10:34:58.06	341.10	14.09	-30.0	-31.6	12.6	6.25e-05	0	43	0	1203765248	20	4362
2026-01-28 10:34:59.06	341.11	13.99	-29.9	-31.6	12.7	6.40e-05	0	43	0	1204813824	20	4355
2026-01-28 10:35:00.07	341.12	13.89	-29.9	-31.5	12.7	9.38e-05	0	43	0	1206910976	20	4328
2026-01-28 10:35:01.07	341.12	13.78	-29.8	-31.2	12.9	6.56e-05	0	43	0	1209008128	20	4240
2026-01-28 10:35:02.07	341.13	13.68	-29.8	-31.2	12.9	4.27e-05	0	43	0	1211105280	20	4240
2026-01-28 10:35:03.07	341.14	13.58	-30.0	-31.7	12.6	6.79e-05	0	43	0	1213202432	20	4398
2026-01-28 10:35:04.07	341.14	13.48	-29.7	-30.9	13.1	3.96e-05	0	43	0	1214251008	20	4135
2026-01-28 10:35:05.07	341.15	13.38	-29.8	-31.1	12.9	4.11e-05	0	43	0	1216348160	20	4210
2026-01-28 10:35:06.07	341.16	13.28	-29.9	-31.6	12.7	5.87e-05	0	43	0	1218445312	20	4350
2026-01-28 10:35:07.08	341.17	13.19	-29.7	-30.9	13.1	3.43e-05	0	43	0	1220542464	20	4148
2026-01-28 10:35:08.08	341.17	13.09	-29.7	-30.9	13.1	3.50e-05	0	43	0	1222639616	20	4144
2026-01-28 10:35:09.09	341.18	12.99	-29.7	-30.8	13.1	2.82e-05	0	43	0	1223688192	20	4121
2026-01-28 10:35:10.09	341.19	12.89	-29.6	-30.8	13.1	2.51e-05	0	43	0	1225785344	20	4103
2026-01-28 10:35:11.09	341.19	12.79	-29.6	-30.6	13.3	1.14e-05	0	43	0	1227882496	20	4066
2026-01-28 10:35:12.10	341.20	12.70	-29.6	-30.6	13.2	1.83e-05	0	43	0	1229979648	20	4062
2026-01-28 10:35:13.10	341.21	12.60	-29.7	-31.0	13.0	2.89e-05	0	43	0	1231028224	20	4158
2026-01-28 10:35:14.10	341.21	12.50	-29.6	-30.6	13.3	3.66e-05	0	43	0	1233125376	20	4043
2026-01-28 10:35:15.11	341.22	12.41	-29.4	-30.2	13.5	1.37e-05	0	43	0	1235222528	20	3944
2026-01-28 10:35:16.12	341.23	12.31	-29.6	-30.7	13.2	2.05e-05	0	43	0	1237319680	20	4071
2026-01-28 10:35:17.12	341.23	12.22	-29.5	-30.4	13.3	2.74e-05	0	43	0	1239416832	20	3992
2026-01-28 10:35:18.13	341.24	12.12	-29.6	-30.6	13.2	1.29e-05	0	43	0	1241513984	20	4069
2026-01-28 10:35:19.13	341.25	12.03	-29.7	-31.0	12.9	3.66e-05	0	43	0	1242562560	20	4167
2026-01-28 10:35:20.13	341.25	11.93	-29.5	-30.5	13.3	2.89e-05	0	43	0	1244659712	20	4023
2026-01-28 10:35:21.13	341.26	11.84	-29.4	-30.2	13.5	1.29e-05	0	43	0	1246756864	20	3939
2026-01-28 10:35:22.13	341.27	11.75	-29.5	-30.5	13.2	2.28e-05	0	43	0	1248854016	20	4031
2026-01-28 10:35:23.13	341.27	11.65	-29.5	-30.5	13.2	2.59e-05	0	43	0	1249902592	20	4031
2026-01-28 10:35:24.14	341.28	11.56	-29.5	-30.6	13.2	3.20e-05	0	43	0	1251999744	20	4047
2026-01-28 10:35:25.14	341.29	11.47	-29.6	-30.6	13.2	2.97e-05	0	43	0	1254096896	20	4064
2026-01-28 10:35:26.14	341.29	11.38	-29.6	-30.8	13.1	2.67e-05	0	43	0	1256194048	20	4130
2026-01-28 10:35:27.15	341.30	11.28	-29.6	-30.7	13.1	3.96e-05	0	43	0	1258291200	20	4096
2026-01-28 10:35:28.14	341.31	11.19	-29.5	-30.5	13.2	3.12e-05	0	43	0	1259339776	20	4037
2026-01-28 10:35:29.15	341.31	11.10	-29.6	-30.7	13.1	3.12e-05	0	43	0	1261436928	20	4085
2026-01-28 10:35:30.16	341.32	11.01	-29.5	-30.6	13.1	3.28e-05	0	43	0	1263534080	20	4056
2026-01-28 10:35:31.15	341.33	10.92	-29.5	-30.6	13.2	1.75e-05	0	43	0	1265631232	20	4050
2026-01-28 10:35:32.16	341.33	10.83	-29.7	-31.0	12.9	3.43e-05	0	43	0	1267728384	20	4173
2026-01-28 10:35:33.17	341.34	10.74	-29.7	-31.1	12.8	4.65e-05	0	43	0	1268776960	20	4228
2026-01-28 10:35:34.17	341.35	10.65	-29.7	-31.1	12.8	5.72e-05	0	43	0	1270874112	20	4209
2026-01-28 10:35:35.18	341.35	10.56	-29.7	-31.0	12.9	5.18e-05	0	43	0	1272971264	20	4184
2026-01-28 10:35:36.18	341.36	10.48	-29.7	-31.0	12.8	6.86e-05	0	43	0	1275068416	20	4187
2026-01-28 10:35:37.18	341.37	10.39	-29.7	-31.1	12.8	7.70e-05	0	43	0	1277165568	20	4232
2026-01-28 10:35:38.19	341.37	10.30	-29.8	-31.3	12.7	8.46e-05	0	43	0	1278214144	20	4276
2026-01-28 10:35:39.19	341.38	10.21	-29.8	-31.4	12.6	9.91e-05	0	43	0	1280311296	20	4317
2026-01-28 10:35:40.20	341.39	10.12	-29.8	-31.3	12.6	1.20e-04	0	43	0	1282408448	20	4298
