passes_logs/2026/01/28/R2M6_AANII_01/R2M6_AANII_01__20260128_090514_NOAA_20_JPSS-1_rec.log

#Pass ID: 20260128_090514_NOAA 20 (JPSS-1)
#Satellite: NOAA 20 (JPSS-1)
#Configuration: NOAA 20
#almurnet v.1.7.20240730
#Start time: 2026-01-28 09:05:14

#Version: 2.2.20231116
#Station: R2M6_AANII_01
#Location: 30.233357 lon 59.946436 lat
#TLE: 1 43013U 17073A   26027.80586608  .00000156  00000+0  94940-4 0  9998
#TLE: 2 43013  98.7647 328.6108 0000947  21.3465 338.7750 14.19541216424550

#Time	Az	El	Level	Level2	SNR	BER	BlckErr	Temp	State	Recorded	gain1	gain2
2026-01-28 09:05:14.61	122.01	7.00	-32.0	-38.8	4.7	1.33e+00	0	39	0	0	25	7837
2026-01-28 09:05:15.61	121.95	7.07	-32.0	-38.8	4.7	1.33e+00	0	39	104	0	25	7854
2026-01-28 09:05:16.62	121.89	7.14	-32.0	-38.6	6.7	2.12e-01	0	39	0	0	25	7654
2026-01-28 09:05:17.62	121.83	7.22	-32.0	-38.6	6.7	1.77e-01	0	39	0	1048576	25	7644
2026-01-28 09:05:18.62	121.77	7.29	-32.0	-38.5	6.8	2.08e-01	0	39	0	3145728	25	7596
2026-01-28 09:05:19.62	121.71	7.36	-32.1	-38.8	6.6	1.85e-01	0	39	0	5242880	25	7807
2026-01-28 09:05:20.62	121.64	7.43	-32.1	-38.8	6.6	2.28e-01	0	40	0	7340032	25	7787
2026-01-28 09:05:21.63	121.58	7.51	-32.0	-38.1	7.2	1.65e-01	0	40	0	9437184	25	7278
2026-01-28 09:05:22.63	121.52	7.58	-31.8	-37.5	8.0	9.70e-02	0	40	0	10485760	24	6988
2026-01-28 09:05:23.63	121.46	7.66	-31.6	-36.7	8.6	5.07e-02	0	40	0	12582912	24	6494
2026-01-28 09:05:24.64	121.39	7.73	-31.3	-35.6	9.5	1.81e-02	0	40	0	14680064	24	5895
2026-01-28 09:05:25.64	121.33	7.80	-31.1	-35.3	10.1	8.99e-03	0	40	0	16777216	23	5842
2026-01-28 09:05:26.64	121.26	7.88	-30.9	-34.7	10.6	4.84e-03	0	40	0	17825792	23	5573
2026-01-28 09:05:27.64	121.20	7.95	-30.8	-34.3	10.9	2.35e-03	0	40	0	19922944	23	5378
2026-01-28 09:05:28.65	121.13	8.03	-30.8	-34.7	11.0	1.90e-03	0	40	0	22020096	22	5659
2026-01-28 09:05:29.65	121.07	8.10	-30.8	-34.9	10.8	2.10e-03	0	40	0	24117248	22	5740
2026-01-28 09:05:30.65	121.00	8.18	-30.9	-35.0	10.8	2.40e-03	0	40	0	26214400	22	5803
2026-01-28 09:05:31.65	120.94	8.25	-30.9	-35.1	10.7	3.24e-03	0	40	0	27262976	22	5856
2026-01-28 09:05:32.66	120.87	8.33	-31.0	-35.3	10.6	3.21e-03	0	40	0	29360128	22	5938
2026-01-28 09:05:33.66	120.81	8.40	-31.0	-35.5	10.5	3.88e-03	0	40	0	31457280	22	6011
2026-01-28 09:05:34.66	120.74	8.48	-31.1	-35.7	10.3	4.49e-03	0	40	0	33554432	22	6136
2026-01-28 09:05:35.67	120.67	8.55	-31.0	-35.4	10.5	4.70e-03	0	40	0	35651584	22	5988
2026-01-28 09:05:36.67	120.60	8.63	-31.0	-35.4	10.6	3.62e-03	0	40	0	36700160	22	5963
2026-01-28 09:05:37.67	120.54	8.71	-31.0	-35.4	10.6	3.63e-03	0	40	0	38797312	22	5965
2026-01-28 09:05:38.67	120.47	8.78	-31.1	-35.8	10.3	4.28e-03	0	40	0	40894464	22	6181
2026-01-28 09:05:39.67	120.40	8.86	-31.1	-35.6	10.4	5.24e-03	0	40	0	42991616	22	6052
2026-01-28 09:05:40.68	120.33	8.94	-30.9	-35.0	10.9	3.47e-03	0	40	0	45088768	22	5790
2026-01-28 09:05:41.68	120.26	9.01	-30.8	-34.7	11.1	1.76e-03	0	40	0	46137344	22	5645
2026-01-28 09:05:42.68	120.19	9.09	-30.9	-34.9	11.0	1.72e-03	0	40	0	48234496	22	5727
2026-01-28 09:05:43.69	120.12	9.17	-31.0	-35.3	10.7	2.19e-03	0	40	0	50331648	22	5896
2026-01-28 09:05:44.69	120.05	9.24	-31.0	-35.4	10.6	2.83e-03	0	40	0	52428800	22	5948
2026-01-28 09:05:45.69	119.98	9.32	-31.0	-35.4	10.6	3.88e-03	0	40	0	54525952	22	5977
2026-01-28 09:05:46.70	119.91	9.40	-31.1	-35.6	10.5	3.18e-03	0	40	0	55574528	22	6069
2026-01-28 09:05:47.70	119.84	9.48	-31.0	-35.4	10.7	3.66e-03	0	40	0	57671680	22	5946
2026-01-28 09:05:48.71	119.76	9.56	-30.9	-35.0	11.0	2.22e-03	0	40	0	59768832	22	5756
2026-01-28 09:05:49.71	119.69	9.64	-30.9	-34.9	11.1	1.93e-03	0	40	0	61865984	22	5727
2026-01-28 09:05:50.72	119.62	9.72	-30.8	-34.8	11.2	1.59e-03	0	40	0	63963136	22	5653
2026-01-28 09:05:51.72	119.54	9.79	-30.8	-34.6	11.3	1.19e-03	0	40	0	65011712	22	5589
2026-01-28 09:05:52.72	119.47	9.87	-30.9	-35.0	11.0	1.41e-03	0	41	0	67108864	22	5768
2026-01-28 09:05:53.72	119.40	9.95	-31.0	-35.2	10.9	2.31e-03	0	41	0	69206016	22	5832
2026-01-28 09:05:54.73	119.32	10.03	-31.1	-35.4	10.8	2.30e-03	0	41	0	71303168	22	5952
2026-01-28 09:05:55.73	119.25	10.11	-31.0	-35.4	10.8	2.97e-03	0	41	0	73400320	22	5935
2026-01-28 09:05:56.73	119.17	10.19	-31.0	-35.4	10.8	2.35e-03	0	41	0	74448896	22	5942
2026-01-28 09:05:57.73	119.10	10.27	-31.1	-35.5	10.7	3.10e-03	0	41	0	76546048	22	5999
2026-01-28 09:05:58.74	119.02	10.35	-31.1	-35.6	10.7	3.61e-03	0	41	0	78643200	22	6030
2026-01-28 09:05:59.74	118.94	10.43	-31.2	-36.0	10.3	4.03e-03	0	41	0	80740352	22	6225
2026-01-28 09:06:00.75	118.86	10.51	-31.1	-35.7	10.6	4.62e-03	0	41	0	81788928	22	6072
2026-01-28 09:06:01.75	118.79	10.60	-31.0	-35.2	10.9	2.48e-03	0	41	0	83886080	22	5852
2026-01-28 09:06:02.76	118.71	10.68	-31.0	-35.2	11.0	2.03e-03	0	41	0	85983232	22	5825
2026-01-28 09:06:03.76	118.63	10.76	-31.1	-35.5	10.8	2.15e-03	0	41	0	88080384	22	5970
2026-01-28 09:06:04.76	118.55	10.84	-31.0	-35.3	11.0	2.20e-03	0	41	0	90177536	22	5868
2026-01-28 09:06:05.76	118.47	10.92	-30.9	-34.9	11.2	1.57e-03	0	41	0	91226112	22	5717
2026-01-28 09:06:06.76	118.39	11.00	-30.8	-34.6	11.5	1.08e-03	0	41	0	93323264	22	5561
2026-01-28 09:06:07.76	118.31	11.09	-30.8	-34.5	11.6	8.48e-04	0	41	0	95420416	22	5500
2026-01-28 09:06:08.76	118.23	11.17	-30.7	-34.0	11.9	5.13e-04	0	41	0	97517568	22	5296
2026-01-28 09:06:09.77	118.15	11.25	-30.6	-33.8	12.1	3.20e-04	0	41	0	99614720	22	5190
2026-01-28 09:06:10.77	118.07	11.34	-30.6	-33.8	12.1	2.87e-04	0	41	0	100663296	22	5194
2026-01-28 09:06:11.77	117.99	11.42	-30.7	-34.2	11.8	3.85e-04	0	41	0	102760448	22	5351
2026-01-28 09:06:12.77	117.90	11.50	-30.8	-34.3	11.7	5.39e-04	0	41	0	104857600	22	5412
2026-01-28 09:06:13.78	117.82	11.59	-30.9	-34.7	11.4	6.30e-04	0	41	0	106954752	22	5587
2026-01-28 09:06:14.78	117.74	11.67	-30.9	-34.7	11.5	8.77e-04	0	41	0	109051904	22	5600
2026-01-28 09:06:15.78	117.65	11.75	-30.9	-34.9	11.3	9.66e-04	0	41	0	110100480	22	5661
2026-01-28 09:06:16.79	117.57	11.84	-31.0	-35.0	11.3	1.19e-03	0	41	0	112197632	22	5703
2026-01-28 09:06:17.79	117.48	11.92	-30.8	-34.5	11.6	1.08e-03	0	41	0	114294784	22	5512
2026-01-28 09:06:18.79	117.40	12.01	-30.8	-34.4	11.6	5.83e-04	0	41	0	116391936	22	5469
2026-01-28 09:06:19.79	117.31	12.09	-31.0	-34.9	11.4	8.93e-04	0	41	0	118489088	22	5652
2026-01-28 09:06:20.80	117.22	12.18	-30.8	-34.5	11.7	8.83e-04	0	41	0	119537664	22	5462
2026-01-28 09:06:21.81	117.13	12.26	-30.7	-34.0	12.0	3.65e-04	0	41	0	121634816	22	5273
2026-01-28 09:06:22.81	117.05	12.35	-30.6	-33.8	12.2	2.24e-04	0	41	0	123731968	22	5169
2026-01-28 09:06:23.81	116.96	12.44	-30.6	-33.7	12.2	1.73e-04	0	41	0	125829120	22	5165
2026-01-28 09:06:24.82	116.87	12.52	-30.7	-33.9	12.2	1.99e-04	0	41	0	127926272	22	5226
2026-01-28 09:06:25.82	116.78	12.61	-30.8	-34.3	11.9	3.53e-04	0	41	0	128974848	22	5399
2026-01-28 09:06:26.82	116.69	12.70	-30.6	-33.8	12.2	2.79e-04	0	41	0	131072000	22	5185
2026-01-28 09:06:27.82	116.60	12.78	-30.5	-33.4	12.5	2.01e-04	0	41	0	133169152	22	5047
2026-01-28 09:06:28.83	116.51	12.87	-30.4	-33.2	12.6	8.62e-05	0	41	0	135266304	22	4977
2026-01-28 09:06:29.83	116.42	12.96	-30.5	-33.4	12.5	9.84e-05	0	41	0	136314880	22	5038
2026-01-28 09:06:30.84	116.32	13.05	-30.5	-33.4	12.5	1.11e-04	0	41	0	138412032	22	5045
2026-01-28 09:06:31.85	116.23	13.13	-30.6	-33.7	12.3	1.11e-04	0	41	0	140509184	22	5160
2026-01-28 09:06:32.85	116.14	13.22	-30.5	-33.5	12.4	1.96e-04	0	41	0	142606336	22	5099
2026-01-28 09:06:33.85	116.04	13.31	-30.5	-33.5	12.5	1.64e-04	0	41	0	144703488	22	5066
2026-01-28 09:06:34.86	115.95	13.40	-30.5	-33.4	12.5	1.14e-04	0	41	0	145752064	22	5050
2026-01-28 09:06:35.86	115.85	13.49	-30.6	-33.8	12.3	1.42e-04	0	41	0	147849216	22	5192
2026-01-28 09:06:36.86	115.76	13.58	-30.5	-33.6	12.4	1.42e-04	0	41	0	149946368	22	5106
2026-01-28 09:06:37.86	115.66	13.67	-30.6	-33.6	12.5	1.20e-04	0	41	0	152043520	22	5109
2026-01-28 09:06:38.87	115.56	13.76	-30.6	-33.8	12.3	1.71e-04	0	41	0	154140672	22	5208
2026-01-28 09:06:39.87	115.47	13.85	-30.7	-34.1	12.1	2.18e-04	0	41	0	155189248	22	5293
2026-01-28 09:06:40.88	115.37	13.94	-30.6	-33.8	12.3	2.30e-04	0	41	0	157286400	22	5192
2026-01-28 09:06:41.88	115.27	14.03	-30.6	-33.6	12.5	1.56e-04	0	41	0	159383552	22	5088
2026-01-28 09:06:42.88	115.17	14.12	-30.5	-33.5	12.5	1.22e-04	0	41	0	161480704	22	5065
2026-01-28 09:06:43.89	115.07	14.21	-30.6	-33.5	12.5	9.30e-05	0	41	0	163577856	22	5074
2026-01-28 09:06:44.89	114.97	14.30	-30.7	-34.0	12.2	1.48e-04	0	41	0	164626432	22	5270
2026-01-28 09:06:45.90	114.87	14.39	-30.7	-34.0	12.2	1.98e-04	0	41	0	166723584	22	5257
2026-01-28 09:06:46.90	114.77	14.48	-30.7	-34.1	12.2	2.12e-04	0	41	0	168820736	22	5273
2026-01-28 09:06:47.90	114.66	14.58	-30.8	-34.4	12.0	2.56e-04	0	41	0	170917888	22	5420
2026-01-28 09:06:48.91	114.56	14.67	-30.6	-33.8	12.4	2.92e-04	0	41	0	173015040	22	5150
2026-01-28 09:06:49.91	114.46	14.76	-30.5	-33.4	12.7	8.77e-05	0	41	0	174063616	22	4998
2026-01-28 09:06:50.92	114.35	14.85	-30.5	-33.3	12.8	5.26e-05	0	41	0	176160768	22	4974
2026-01-28 09:06:51.92	114.25	14.95	-30.5	-33.2	12.8	5.79e-05	0	41	0	178257920	22	4948
2026-01-28 09:06:52.92	114.14	15.04	-30.4	-33.1	12.9	4.73e-05	0	41	0	180355072	22	4895
2026-01-28 09:06:53.93	114.03	15.13	-30.5	-33.5	12.7	5.18e-05	0	41	0	182452224	22	5029
2026-01-28 09:06:54.93	113.93	15.23	-30.4	-33.0	13.0	6.02e-05	0	41	0	183500800	22	4850
2026-01-28 09:06:55.94	113.82	15.32	-30.3	-32.8	13.1	2.59e-05	0	41	0	185597952	22	4780
2026-01-28 09:06:56.94	113.71	15.42	-30.2	-32.9	13.3	2.05e-05	0	42	0	187695104	21	4946
2026-01-28 09:06:57.95	113.60	15.51	-30.2	-33.0	13.3	1.37e-05	0	41	0	189792256	21	4970
2026-01-28 09:06:58.95	113.49	15.61	-30.2	-33.2	13.2	1.90e-05	0	41	0	191889408	21	5035
2026-01-28 09:06:59.95	113.38	15.70	-30.3	-33.3	13.1	2.36e-05	0	42	0	192937984	21	5061
2026-01-28 09:07:00.95	113.27	15.80	-30.3	-33.3	13.1	3.58e-05	0	41	0	195035136	21	5071
2026-01-28 09:07:01.95	113.16	15.89	-30.4	-33.5	12.9	4.34e-05	0	42	0	197132288	21	5165
2026-01-28 09:07:02.95	113.05	15.99	-30.4	-33.5	13.0	3.81e-05	0	41	0	199229440	21	5152
2026-01-28 09:07:03.95	112.93	16.08	-30.5	-33.8	12.8	4.88e-05	0	41	0	200278016	21	5275
2026-01-28 09:07:04.95	112.82	16.18	-30.4	-33.7	12.8	5.87e-05	0	41	0	202375168	21	5257
2026-01-28 09:07:05.96	112.70	16.28	-30.5	-33.9	12.7	7.32e-05	0	41	0	204472320	21	5315
2026-01-28 09:07:06.96	112.59	16.37	-30.4	-33.6	12.9	5.49e-05	0	41	0	206569472	21	5209
2026-01-28 09:07:07.96	112.47	16.47	-30.4	-33.4	13.1	3.66e-05	0	41	0	208666624	21	5113
2026-01-28 09:07:08.97	112.35	16.57	-30.4	-33.4	13.1	2.74e-05	0	41	0	209715200	21	5096
2026-01-28 09:07:09.97	112.23	16.67	-30.4	-33.6	13.0	2.89e-05	0	41	0	211812352	21	5164
2026-01-28 09:07:10.97	112.12	16.76	-30.4	-33.4	13.1	3.28e-05	0	42	0	213909504	21	5098
2026-01-28 09:07:11.98	111.99	16.86	-30.4	-33.5	13.1	3.89e-05	0	41	0	216006656	21	5126
2026-01-28 09:07:12.99	111.87	16.96	-30.5	-33.8	12.8	4.88e-05	0	41	0	218103808	21	5252
2026-01-28 09:07:13.98	111.75	17.06	-30.5	-33.8	12.9	4.65e-05	0	41	0	219152384	21	5243
2026-01-28 09:07:14.98	111.63	17.16	-30.6	-34.1	12.7	6.79e-05	0	42	0	221249536	21	5359
2026-01-28 09:07:15.99	111.51	17.26	-30.6	-34.0	12.8	6.48e-05	0	41	0	223346688	21	5310
2026-01-28 09:07:16.99	111.38	17.36	-30.5	-33.9	12.9	4.27e-05	0	42	0	225443840	21	5269
2026-01-28 09:07:18.00	111.26	17.46	-30.6	-33.9	12.8	5.34e-05	0	42	0	227540992	21	5301
2026-01-28 09:07:19.00	111.13	17.56	-30.4	-33.5	13.2	3.50e-05	0	42	0	228589568	21	5112
2026-01-28 09:07:20.00	111.01	17.66	-30.5	-33.7	13.0	2.82e-05	0	42	0	230686720	21	5211
2026-01-28 09:07:21.00	110.88	17.76	-30.7	-34.3	12.6	8.23e-05	0	42	0	232783872	21	5448
2026-01-28 09:07:22.01	110.75	17.86	-30.6	-34.1	12.7	9.00e-05	0	41	0	234881024	21	5380
2026-01-28 09:07:23.01	110.62	17.96	-30.8	-34.6	12.4	1.31e-04	0	42	0	236978176	21	5584
2026-01-28 09:07:24.01	110.49	18.06	-30.7	-34.3	12.6	1.10e-04	0	41	0	238026752	21	5459
2026-01-28 09:07:25.01	110.36	18.16	-30.6	-34.0	12.8	7.32e-05	0	41	0	240123904	21	5310
2026-01-28 09:07:26.02	110.23	18.26	-30.6	-33.9	12.8	4.80e-05	0	42	0	242221056	21	5303
2026-01-28 09:07:27.02	110.10	18.37	-30.6	-34.0	12.8	5.41e-05	0	42	0	244318208	21	5302
2026-01-28 09:07:28.02	109.97	18.47	-30.8	-34.7	12.4	9.23e-05	0	42	0	246415360	21	5610
2026-01-28 09:07:29.02	109.83	18.57	-30.8	-34.4	12.5	1.47e-04	0	42	0	247463936	21	5503
2026-01-28 09:07:30.03	109.70	18.67	-30.9	-35.0	12.2	2.23e-04	0	42	0	249561088	21	5741
2026-01-28 09:07:31.03	109.56	18.78	-30.9	-34.8	12.3	1.52e-04	0	42	0	251658240	21	5661
2026-01-28 09:07:32.03	109.42	18.88	-30.8	-34.5	12.5	1.44e-04	0	42	0	253755392	21	5547
2026-01-28 09:07:33.03	109.29	18.98	-30.8	-34.5	12.5	1.13e-04	0	42	0	254803968	21	5522
2026-01-28 09:07:34.04	109.15	19.09	-30.7	-34.3	12.7	8.01e-05	0	42	0	256901120	21	5436
2026-01-28 09:07:35.04	109.01	19.19	-30.7	-34.4	12.7	5.34e-05	0	42	0	258998272	21	5461
2026-01-28 09:07:36.05	108.86	19.30	-30.9	-34.8	12.4	9.68e-05	0	42	0	261095424	21	5618
2026-01-28 09:07:37.05	108.72	19.40	-30.8	-34.6	12.5	1.17e-04	0	42	0	263192576	21	5558
2026-01-28 09:07:38.05	108.58	19.51	-30.9	-34.8	12.3	1.79e-04	0	42	0	264241152	21	5659
2026-01-28 09:07:39.06	108.44	19.61	-31.0	-34.7	12.1	1.75e-04	0	42	0	266338304	22	5471
2026-01-28 09:07:40.06	108.29	19.72	-30.8	-34.0	12.6	9.15e-05	0	42	0	268435456	22	5210
2026-01-28 09:07:41.07	108.14	19.83	-30.8	-34.0	12.6	8.77e-05	0	42	0	270532608	22	5198
2026-01-28 09:07:42.07	108.00	19.93	-30.9	-34.3	12.4	1.30e-04	0	42	0	272629760	22	5312
2026-01-28 09:07:43.08	107.85	20.04	-30.8	-33.9	12.7	8.16e-05	0	42	0	273678336	22	5144
2026-01-28 09:07:44.09	107.70	20.15	-30.7	-33.7	12.9	5.26e-05	0	42	0	275775488	22	5067
2026-01-28 09:07:45.09	107.55	20.25	-30.7	-33.6	12.9	6.10e-05	0	42	0	277872640	22	5037
2026-01-28 09:07:46.10	107.40	20.36	-30.7	-33.7	12.8	4.34e-05	0	42	0	279969792	22	5091
2026-01-28 09:07:47.11	107.24	20.47	-30.6	-33.3	13.1	3.28e-05	0	42	0	282066944	22	4941
2026-01-28 09:07:48.11	107.09	20.57	-30.4	-32.9	13.4	2.05e-05	0	42	0	283115520	22	4795
2026-01-28 09:07:49.12	106.93	20.68	-30.4	-32.8	13.5	9.10e-06	0	42	0	285212672	22	4744
2026-01-28 09:07:50.12	106.78	20.79	-30.5	-33.0	13.3	1.29e-05	0	42	0	287309824	22	4818
2026-01-28 09:07:51.12	106.62	20.90	-30.5	-33.2	13.2	2.59e-05	0	42	0	289406976	22	4881
2026-01-28 09:07:52.13	106.46	21.01	-30.5	-33.1	13.3	2.21e-05	0	42	0	291504128	22	4854
2026-01-28 09:07:53.13	106.31	21.12	-30.4	-32.8	13.5	7.60e-06	0	42	0	292552704	22	4750
2026-01-28 09:07:54.13	106.15	21.23	-30.4	-32.7	13.6	9.90e-06	0	42	0	294649856	22	4710
2026-01-28 09:07:55.14	105.98	21.34	-30.5	-33.1	13.3	9.10e-06	0	42	0	296747008	22	4851
2026-01-28 09:07:56.14	105.82	21.44	-30.4	-32.8	13.5	1.06e-05	0	42	0	298844160	22	4744
2026-01-28 09:07:57.14	105.66	21.55	-30.4	-32.8	13.5	6.10e-06	0	42	0	300941312	22	4743
2026-01-28 09:07:58.15	105.49	21.66	-30.4	-32.8	13.6	6.80e-06	0	42	0	301989888	22	4722
2026-01-28 09:07:59.16	105.33	21.78	-30.4	-32.8	13.5	8.30e-06	0	42	0	304087040	22	4741
2026-01-28 09:08:00.16	105.16	21.89	-30.5	-33.1	13.4	1.14e-05	0	42	0	306184192	22	4822
2026-01-28 09:08:01.17	104.99	22.00	-30.5	-33.1	13.4	9.10e-06	0	42	0	308281344	22	4838
2026-01-28 09:08:02.17	104.82	22.11	-30.5	-33.2	13.4	1.22e-05	0	42	0	310378496	22	4864
2026-01-28 09:08:03.17	104.65	22.22	-30.7	-33.5	13.1	3.43e-05	0	42	0	311427072	22	4986
2026-01-28 09:08:04.18	104.48	22.33	-30.5	-33.2	13.3	1.22e-05	0	42	0	313524224	22	4871
2026-01-28 09:08:05.18	104.30	22.44	-30.6	-33.3	13.2	1.98e-05	0	42	0	315621376	22	4918
2026-01-28 09:08:06.18	104.13	22.55	-30.5	-33.2	13.3	2.74e-05	0	42	0	317718528	22	4863
2026-01-28 09:08:07.18	103.95	22.66	-30.4	-32.8	13.6	9.10e-06	0	42	0	319815680	22	4747
2026-01-28 09:08:08.19	103.78	22.78	-30.4	-32.7	13.7	7.60e-06	0	42	0	320864256	22	4687
2026-01-28 09:08:09.19	103.60	22.89	-30.5	-32.9	13.6	5.30e-06	0	42	0	322961408	22	4765
2026-01-28 09:08:10.20	103.42	23.00	-30.4	-32.8	13.6	9.90e-06	0	42	0	325058560	22	4736
2026-01-28 09:08:11.19	103.24	23.11	-30.5	-33.1	13.4	9.90e-06	0	42	0	327155712	22	4826
2026-01-28 09:08:12.20	103.05	23.22	-30.5	-32.9	13.6	1.06e-05	0	42	0	329252864	22	4748
2026-01-28 09:08:13.20	102.87	23.34	-30.5	-33.0	13.5	1.22e-05	0	42	0	330301440	22	4801
2026-01-28 09:08:14.20	102.69	23.45	-30.7	-33.5	13.2	2.36e-05	0	42	0	332398592	22	4980
2026-01-28 09:08:15.21	102.50	23.56	-30.7	-33.6	13.1	3.12e-05	0	42	0	334495744	22	5013
2026-01-28 09:08:16.21	102.31	23.68	-30.7	-33.7	13.0	3.96e-05	0	42	0	336592896	22	5049
2026-01-28 09:08:17.22	102.12	23.79	-30.8	-34.0	12.9	3.89e-05	0	42	0	338690048	22	5162
2026-01-28 09:08:18.22	101.93	23.90	-30.9	-34.0	12.9	5.03e-05	0	42	0	339738624	22	5167
2026-01-28 09:08:19.23	101.74	24.02	-31.0	-34.4	12.5	8.85e-05	0	42	0	341835776	22	5332
2026-01-28 09:08:20.23	101.55	24.13	-31.0	-34.4	12.6	9.23e-05	0	42	0	343932928	22	5317
2026-01-28 09:08:21.23	101.35	24.25	-31.0	-34.4	12.5	9.68e-05	0	42	0	346030080	22	5347
2026-01-28 09:08:22.24	101.15	24.36	-31.0	-34.3	12.6	1.15e-04	0	42	0	347078656	22	5306
2026-01-28 09:08:23.24	100.96	24.48	-31.0	-34.4	12.6	7.93e-05	0	42	0	349175808	22	5329
2026-01-28 09:08:24.25	100.76	24.59	-31.1	-34.7	12.4	1.64e-04	0	42	0	351272960	22	5451
2026-01-28 09:08:25.25	100.56	24.71	-31.1	-34.6	12.5	1.31e-04	0	42	0	353370112	22	5421
2026-01-28 09:08:26.25	100.36	24.82	-31.1	-34.8	12.3	1.71e-04	0	42	0	355467264	22	5496
2026-01-28 09:08:27.26	100.15	24.94	-31.1	-34.6	12.4	1.68e-04	0	42	0	356515840	22	5421
2026-01-28 09:08:28.26	99.95	25.05	-31.2	-35.0	12.2	1.66e-04	0	42	0	358612992	22	5572
2026-01-28 09:08:29.27	99.74	25.17	-31.3	-35.1	12.1	2.09e-04	0	42	0	360710144	22	5620
2026-01-28 09:08:30.27	99.53	25.28	-31.2	-35.1	12.2	2.14e-04	0	42	0	362807296	22	5593
2026-01-28 09:08:31.27	99.32	25.39	-31.3	-35.2	12.1	2.93e-04	0	42	0	364904448	22	5650
2026-01-28 09:08:32.27	99.11	25.51	-31.4	-35.4	11.9	3.49e-04	0	42	0	365953024	22	5732
2026-01-28 09:08:33.27	98.90	25.62	-31.1	-34.8	12.4	2.12e-04	0	42	0	368050176	22	5470
2026-01-28 09:08:34.27	98.69	25.74	-31.1	-34.8	12.4	1.47e-04	0	42	0	370147328	22	5497
2026-01-28 09:08:35.27	98.47	25.85	-31.2	-35.1	12.2	1.88e-04	0	42	0	372244480	22	5600
2026-01-28 09:08:36.28	98.25	25.97	-31.2	-35.1	12.2	1.98e-04	0	42	0	374341632	22	5625
2026-01-28 09:08:37.28	98.03	26.09	-31.3	-35.3	12.1	3.04e-04	0	42	0	375390208	22	5687
2026-01-28 09:08:38.28	97.81	26.20	-31.3	-35.2	12.1	2.35e-04	0	42	0	377487360	22	5646
2026-01-28 09:08:39.28	97.59	26.32	-31.3	-35.2	12.1	2.43e-04	0	42	0	379584512	22	5636
2026-01-28 09:08:40.29	97.37	26.43	-31.2	-35.0	12.2	2.08e-04	0	42	0	381681664	22	5578
2026-01-28 09:08:41.29	97.14	26.55	-31.2	-34.9	12.3	2.16e-04	0	42	0	383778816	22	5524
2026-01-28 09:08:42.30	96.91	26.66	-31.1	-34.6	12.6	1.32e-04	0	42	0	384827392	22	5390
2026-01-28 09:08:43.30	96.68	26.78	-31.1	-34.5	12.6	9.07e-05	0	42	0	386924544	22	5361
2026-01-28 09:08:44.30	96.46	26.89	-31.1	-34.6	12.6	9.76e-05	0	42	0	389021696	22	5401
2026-01-28 09:08:45.31	96.22	27.01	-31.1	-34.5	12.6	9.00e-05	0	42	0	391118848	22	5360
2026-01-28 09:08:46.31	95.99	27.13	-31.2	-35.0	12.4	1.13e-04	0	42	0	392167424	22	5533
2026-01-28 09:08:47.31	95.75	27.24	-31.2	-35.0	12.3	2.20e-04	0	42	0	394264576	22	5575
2026-01-28 09:08:48.32	95.51	27.36	-31.1	-34.6	12.5	1.30e-04	0	42	0	396361728	22	5404
2026-01-28 09:08:49.32	95.28	27.47	-31.1	-34.7	12.5	1.28e-04	0	42	0	398458880	22	5456
2026-01-28 09:08:50.32	95.04	27.59	-31.2	-35.1	12.2	1.65e-04	0	42	0	400556032	22	5624
2026-01-28 09:08:51.33	94.79	27.70	-31.3	-35.1	12.2	1.81e-04	0	42	0	402653184	22	5632
2026-01-28 09:08:52.33	94.55	27.82	-31.3	-35.3	12.1	2.81e-04	0	42	0	403701760	22	5679
2026-01-28 09:08:53.33	94.30	27.93	-31.2	-35.0	12.4	1.75e-04	0	42	0	405798912	22	5526
2026-01-28 09:08:54.34	94.05	28.05	-31.3	-35.0	12.3	2.15e-04	0	42	0	407896064	22	5559
2026-01-28 09:08:55.35	93.80	28.16	-31.3	-35.2	12.2	2.15e-04	0	42	0	409993216	22	5639
2026-01-28 09:08:56.35	93.55	28.28	-31.3	-35.2	12.2	2.94e-04	0	42	0	411041792	22	5647
2026-01-28 09:08:57.35	93.30	28.39	-31.2	-35.0	12.3	2.14e-04	0	42	0	413138944	22	5541
2026-01-28 09:08:58.36	93.04	28.51	-31.2	-35.0	12.3	1.68e-04	0	42	0	415236096	22	5534
2026-01-28 09:08:59.36	92.79	28.62	-31.2	-34.9	12.4	1.28e-04	0	42	0	417333248	22	5489
2026-01-28 09:09:00.36	92.53	28.73	-31.2	-34.9	12.4	1.65e-04	0	42	0	419430400	22	5507
2026-01-28 09:09:01.37	92.26	28.85	-31.2	-34.9	12.5	1.53e-04	0	42	0	420478976	22	5500
2026-01-28 09:09:02.37	92.00	28.96	-31.2	-34.7	12.6	1.19e-04	0	42	0	422576128	22	5428
2026-01-28 09:09:03.38	91.74	29.08	-31.3	-35.1	12.3	1.32e-04	0	42	0	424673280	22	5583
2026-01-28 09:09:04.38	91.47	29.19	-31.3	-35.2	12.2	2.17e-04	0	42	0	426770432	22	5650
2026-01-28 09:09:05.38	91.20	29.30	-31.4	-35.4	12.1	2.30e-04	0	42	0	428867584	22	5729
2026-01-28 09:09:06.38	90.93	29.41	-31.4	-35.5	12.0	2.86e-04	0	42	0	429916160	22	5761
2026-01-28 09:09:07.38	90.66	29.52	-31.4	-35.5	12.1	3.06e-04	0	42	0	432013312	22	5751
2026-01-28 09:09:08.38	90.39	29.64	-31.5	-35.3	11.8	4.06e-04	0	42	0	434110464	23	5576
2026-01-28 09:09:09.38	90.12	29.75	-31.6	-35.4	11.8	5.40e-04	0	42	0	436207616	23	5584
2026-01-28 09:09:10.38	89.84	29.86	-31.8	-36.0	11.3	6.68e-04	0	42	0	438304768	23	5857
2026-01-28 09:09:11.37	89.56	29.97	-32.0	-36.7	10.8	2.11e-03	0	42	0	439353344	23	6206
2026-01-28 09:09:12.38	89.28	30.08	-32.2	-36.9	10.3	3.92e-03	0	42	0	441450496	24	6197
2026-01-28 09:09:13.39	88.99	30.19	-32.2	-36.8	10.4	4.28e-03	0	42	0	443547648	24	6138
2026-01-28 09:09:14.39	88.71	30.30	-32.3	-37.2	10.2	6.29e-03	0	42	0	445644800	24	6335
2026-01-28 09:09:15.39	88.42	30.41	-32.3	-37.3	10.0	8.18e-03	0	42	0	447741952	24	6385
2026-01-28 09:09:16.40	88.13	30.52	-32.4	-37.8	9.7	9.53e-03	0	42	0	448790528	24	6656
2026-01-28 09:09:17.40	87.84	30.63	-32.5	-37.6	9.4	1.07e-02	0	42	0	450887680	25	6479
2026-01-28 09:09:18.41	87.55	30.74	-32.6	-37.8	9.2	2.02e-02	0	42	0	452984832	25	6602
2026-01-28 09:09:19.41	87.25	30.84	-32.6	-38.0	9.1	2.34e-02	0	42	0	455081984	25	6674
2026-01-28 09:09:20.41	86.95	30.95	-32.6	-37.8	9.3	2.08e-02	0	42	0	456130560	25	6582
2026-01-28 09:09:21.41	86.66	31.06	-32.7	-38.3	8.9	2.70e-02	0	42	0	458227712	25	6872
2026-01-28 09:09:22.41	86.36	31.16	-32.8	-38.7	8.6	3.90e-02	0	42	0	460324864	25	7085
2026-01-28 09:09:23.41	86.05	31.27	-32.6	-38.0	9.1	2.59e-02	0	42	0	462422016	25	6709
2026-01-28 09:09:24.42	85.75	31.38	-32.6	-38.1	9.1	2.40e-02	0	42	0	464519168	25	6738
2026-01-28 09:09:25.43	85.44	31.48	-32.7	-38.4	8.9	2.84e-02	0	42	0	465567744	25	6916
2026-01-28 09:09:26.43	85.13	31.58	-32.8	-38.6	8.6	3.67e-02	0	42	0	467664896	25	7075
2026-01-28 09:09:27.43	84.82	31.69	-32.8	-38.8	8.5	4.27e-02	0	42	0	469762048	25	7155
2026-01-28 09:09:28.44	84.50	31.79	-32.9	-39.4	8.0	6.02e-02	0	42	0	471859200	25	7582
2026-01-28 09:09:29.45	84.19	31.90	-32.9	-39.4	8.0	5.96e-02	0	42	0	473956352	25	7567
2026-01-28 09:09:30.45	83.87	32.00	-32.9	-39.4	8.0	7.04e-02	0	42	0	475004928	25	7573
2026-01-28 09:09:31.44	83.56	32.10	-33.0	-39.4	7.6	8.90e-02	0	42	0	477102080	26	7466
2026-01-28 09:09:32.45	83.23	32.20	-33.1	-39.5	7.7	8.64e-02	0	42	0	479199232	26	7526
2026-01-28 09:09:33.45	82.91	32.30	-33.0	-39.2	7.9	8.69e-02	0	42	0	481296384	26	7318
2026-01-28 09:09:34.46	82.58	32.40	-32.9	-38.9	8.1	6.73e-02	0	42	0	483393536	26	7125
2026-01-28 09:09:35.46	82.26	32.49	-32.9	-38.7	8.2	5.62e-02	0	42	0	484442112	26	6993
2026-01-28 09:09:36.46	81.93	32.59	-32.8	-38.2	8.7	4.19e-02	0	42	0	486539264	26	6708
2026-01-28 09:09:37.46	81.60	32.69	-32.8	-38.2	8.6	3.73e-02	0	42	0	488636416	26	6703
2026-01-28 09:09:38.47	81.26	32.78	-32.8	-38.3	8.6	4.41e-02	0	42	0	490733568	26	6751
2026-01-28 09:09:39.47	80.93	32.88	-32.7	-37.8	8.9	2.54e-02	0	42	0	492830720	26	6491
2026-01-28 09:09:40.48	80.59	32.97	-32.7	-38.1	8.7	3.14e-02	0	42	0	493879296	26	6642
2026-01-28 09:09:41.49	80.25	33.07	-32.8	-38.1	8.8	3.66e-02	0	42	0	495976448	26	6649
2026-01-28 09:09:42.49	79.91	33.16	-32.6	-37.5	9.2	2.47e-02	0	42	0	498073600	26	6297
2026-01-28 09:09:43.49	79.57	33.25	-32.6	-37.3	9.3	2.07e-02	0	42	0	500170752	26	6203
2026-01-28 09:09:44.50	79.22	33.34	-32.5	-37.1	9.5	1.70e-02	0	42	0	502267904	26	6104
2026-01-28 09:09:45.50	78.87	33.43	-32.5	-37.2	9.5	1.37e-02	0	42	0	503316480	26	6122
2026-01-28 09:09:46.51	78.52	33.52	-32.5	-37.0	9.6	1.49e-02	0	42	0	505413632	26	6069
2026-01-28 09:09:47.52	78.17	33.61	-32.4	-36.5	10.0	1.32e-02	0	42	0	507510784	26	5796
2026-01-28 09:09:48.52	77.82	33.70	-32.2	-36.3	10.5	5.51e-03	0	42	0	509607936	25	5806
2026-01-28 09:09:49.52	77.47	33.78	-31.9	-35.6	11.0	2.53e-03	0	42	0	511705088	25	5489
2026-01-28 09:09:50.52	77.11	33.87	-31.8	-35.1	11.3	1.42e-03	0	42	0	512753664	25	5284
2026-01-28 09:09:51.52	76.75	33.95	-31.7	-35.2	11.7	5.77e-04	0	42	0	514850816	24	5387
2026-01-28 09:09:52.53	76.39	34.04	-31.5	-34.7	12.0	3.31e-04	0	42	0	516947968	24	5173
2026-01-28 09:09:53.53	76.03	34.12	-31.5	-34.6	12.1	2.55e-04	0	42	0	519045120	24	5172
2026-01-28 09:09:54.54	75.66	34.20	-31.4	-34.2	12.3	3.20e-04	0	42	0	521142272	24	5011
2026-01-28 09:09:55.54	75.30	34.28	-31.3	-34.6	12.5	8.85e-05	0	42	0	522190848	23	5247
2026-01-28 09:09:56.55	74.93	34.36	-31.3	-34.6	12.4	1.32e-04	0	42	0	524288000	23	5269
2026-01-28 09:09:57.55	74.56	34.44	-31.4	-34.7	12.4	1.46e-04	0	42	0	526385152	23	5280
2026-01-28 09:09:58.55	74.19	34.51	-31.4	-34.8	12.3	1.65e-04	0	42	0	528482304	23	5332
2026-01-28 09:09:59.55	73.82	34.59	-31.4	-34.7	12.4	2.30e-04	0	42	0	529530880	23	5293
2026-01-28 09:10:00.56	73.45	34.66	-31.3	-34.4	12.6	9.23e-05	0	42	0	531628032	23	5148
2026-01-28 09:10:01.57	73.07	34.73	-31.3	-34.4	12.6	9.00e-05	0	42	0	533725184	23	5170
2026-01-28 09:10:02.57	72.69	34.81	-31.4	-34.7	12.4	1.30e-04	0	42	0	535822336	23	5279
2026-01-28 09:10:03.58	72.31	34.88	-31.5	-35.2	12.1	1.80e-04	0	42	0	537919488	23	5468
2026-01-28 09:10:04.58	71.93	34.94	-31.4	-34.9	12.3	1.97e-04	0	42	0	538968064	23	5366
2026-01-28 09:10:05.58	71.55	35.01	-31.2	-34.2	12.7	9.84e-05	0	42	0	541065216	23	5099
2026-01-28 09:10:06.58	71.17	35.08	-30.9	-33.4	13.3	3.28e-05	0	42	0	543162368	23	4778
2026-01-28 09:10:07.58	70.78	35.14	-30.8	-33.4	13.6	1.22e-05	0	42	0	545259520	22	4907
2026-01-28 09:10:08.58	70.40	35.21	-30.7	-33.3	13.6	5.30e-06	0	42	0	547356672	22	4863
2026-01-28 09:10:09.58	70.01	35.27	-30.7	-33.3	13.6	4.50e-06	0	42	0	548405248	22	4860
2026-01-28 09:10:10.59	69.62	35.33	-30.7	-33.4	13.5	8.30e-06	0	42	0	550502400	22	4899
2026-01-28 09:10:11.59	69.23	35.39	-30.6	-33.0	13.8	1.22e-05	0	42	0	552599552	22	4768
2026-01-28 09:10:12.59	68.83	35.45	-30.5	-32.7	14.0	7.00e-07	0	42	0	554696704	22	4662
2026-01-28 09:10:13.60	68.44	35.50	-30.3	-32.3	14.4	7.00e-07	0	42	0	556793856	22	4507
2026-01-28 09:10:14.61	68.04	35.56	-30.1	-32.3	14.6	0.00e+00	0	42	0	557842432	21	4616
2026-01-28 09:10:15.61	67.64	35.61	-30.0	-32.0	14.8	0.00e+00	0	42	0	559939584	21	4537
2026-01-28 09:10:16.62	67.24	35.66	-30.1	-32.2	14.7	0.00e+00	0	42	0	562036736	21	4601
2026-01-28 09:10:17.62	66.85	35.71	-30.1	-32.2	14.7	0.00e+00	0	42	0	564133888	21	4599
2026-01-28 09:10:18.63	66.44	35.76	-30.2	-32.4	14.6	0.00e+00	0	42	0	566231040	21	4668
2026-01-28 09:10:19.63	66.04	35.81	-30.2	-32.6	14.4	0.00e+00	0	42	0	567279616	21	4738
2026-01-28 09:10:20.63	65.64	35.86	-30.0	-32.1	14.7	0.00e+00	0	42	0	569376768	21	4549
2026-01-28 09:10:21.63	65.24	35.90	-29.9	-31.8	14.9	0.00e+00	0	42	0	571473920	21	4462
2026-01-28 09:10:22.63	64.83	35.94	-30.0	-31.9	14.8	0.00e+00	0	42	0	573571072	21	4517
2026-01-28 09:10:23.64	64.42	35.99	-29.9	-31.8	14.9	0.00e+00	0	42	0	575668224	21	4485
2026-01-28 09:10:24.64	64.02	36.03	-29.8	-31.9	15.1	0.00e+00	0	42	0	576716800	20	4614
2026-01-28 09:10:25.65	63.61	36.06	-29.6	-31.5	15.4	7.00e-07	0	42	0	578813952	20	4487
2026-01-28 09:10:26.64	63.20	36.10	-29.7	-31.6	15.4	0.00e+00	0	42	0	580911104	20	4516
2026-01-28 09:10:27.65	62.79	36.13	-29.7	-31.7	15.3	0.00e+00	0	42	0	583008256	20	4538
2026-01-28 09:10:28.65	62.38	36.17	-29.6	-31.4	15.5	0.00e+00	0	42	0	585105408	20	4454
2026-01-28 09:10:29.66	61.97	36.20	-29.7	-31.7	15.3	0.00e+00	0	42	0	586153984	20	4520
2026-01-28 09:10:30.66	61.56	36.23	-29.8	-31.9	15.1	0.00e+00	0	42	0	588251136	20	4606
2026-01-28 09:10:31.66	61.15	36.26	-29.9	-32.2	15.0	0.00e+00	0	42	0	590348288	20	4690
2026-01-28 09:10:32.67	60.73	36.28	-30.1	-32.6	14.8	0.00e+00	0	42	0	592445440	20	4830
2026-01-28 09:10:33.68	60.31	36.31	-30.1	-32.7	14.7	7.00e-07	0	42	0	594542592	20	4864
2026-01-28 09:10:34.68	59.90	36.33	-30.2	-33.1	14.5	7.00e-07	0	42	0	595591168	20	4994
2026-01-28 09:10:35.68	59.48	36.35	-30.3	-33.2	14.4	1.50e-06	0	42	0	597688320	20	5038
2026-01-28 09:10:36.68	59.07	36.37	-30.4	-33.5	14.2	1.50e-06	0	42	0	599785472	20	5152
2026-01-28 09:10:37.69	58.65	36.39	-30.5	-33.2	14.0	0.00e+00	0	42	0	601882624	21	4934
2026-01-28 09:10:38.69	58.23	36.41	-30.6	-33.5	13.8	1.50e-06	0	42	0	602931200	21	5045
2026-01-28 09:10:39.69	57.82	36.42	-30.7	-33.9	13.7	7.60e-06	0	42	0	605028352	21	5165
2026-01-28 09:10:40.70	57.40	36.44	-30.6	-33.6	13.8	4.50e-06	0	42	0	607125504	21	5064
2026-01-28 09:10:41.70	56.98	36.45	-30.6	-33.5	13.8	3.80e-06	0	42	0	609222656	21	5038
2026-01-28 09:10:42.70	56.56	36.46	-30.7	-33.7	13.6	2.20e-06	0	42	0	611319808	21	5114
2026-01-28 09:10:43.70	56.15	36.46	-30.7	-33.8	13.7	6.10e-06	0	42	0	612368384	21	5140
2026-01-28 09:10:44.70	55.73	36.47	-30.8	-34.0	13.6	1.06e-05	0	42	0	614465536	21	5208
2026-01-28 09:10:45.70	55.31	36.47	-30.7	-33.7	13.8	6.80e-06	0	42	0	616562688	21	5084
2026-01-28 09:10:46.71	54.89	36.48	-30.4	-33.1	14.1	3.00e-06	0	42	0	618659840	21	4896
2026-01-28 09:10:47.71	54.47	36.48	-30.5	-33.2	14.0	1.50e-06	0	42	0	620756992	21	4940
2026-01-28 09:10:48.71	54.06	36.48	-30.6	-33.5	13.9	2.20e-06	0	42	0	621805568	21	5023
2026-01-28 09:10:49.71	53.64	36.47	-30.7	-33.8	13.7	5.30e-06	0	42	0	623902720	21	5162
2026-01-28 09:10:50.71	53.22	36.47	-30.8	-34.1	13.4	6.10e-06	0	42	0	625999872	21	5254
2026-01-28 09:10:51.71	52.80	36.46	-31.0	-34.6	13.2	2.67e-05	0	42	0	628097024	21	5444
2026-01-28 09:10:52.71	52.39	36.45	-31.1	-34.5	12.9	3.35e-05	0	42	0	630194176	22	5293
2026-01-28 09:10:53.72	51.97	36.44	-31.3	-34.8	12.7	6.63e-05	0	42	0	631242752	22	5445
2026-01-28 09:10:54.72	51.55	36.43	-31.1	-34.4	13.0	6.79e-05	0	42	0	633339904	22	5247
2026-01-28 09:10:55.72	51.13	36.42	-30.9	-33.9	13.3	2.36e-05	0	42	0	635437056	22	5067
2026-01-28 09:10:56.73	50.71	36.41	-31.0	-34.2	13.2	2.44e-05	0	42	0	637534208	22	5178
2026-01-28 09:10:57.73	50.30	36.39	-31.2	-34.6	12.8	3.12e-05	0	42	0	639631360	22	5345
2026-01-28 09:10:58.73	49.88	36.37	-31.3	-34.9	12.7	7.40e-05	0	42	0	640679936	22	5463
2026-01-28 09:10:59.72	49.47	36.35	-31.3	-35.0	12.6	8.85e-05	0	42	0	642777088	22	5515
2026-01-28 09:11:00.73	49.05	36.33	-31.3	-35.0	12.6	1.01e-04	0	42	0	644874240	22	5516
2026-01-28 09:11:01.73	48.64	36.31	-31.6	-35.4	12.0	1.85e-04	0	42	0	646971392	23	5587
2026-01-28 09:11:02.73	48.23	36.28	-31.7	-35.8	11.7	4.81e-04	0	42	0	648019968	23	5755
2026-01-28 09:11:03.73	47.82	36.25	-31.8	-35.9	11.6	7.39e-04	0	42	0	650117120	23	5779
2026-01-28 09:11:04.73	47.40	36.23	-31.8	-35.9	11.7	8.60e-04	0	42	0	652214272	23	5765
2026-01-28 09:11:05.74	46.99	36.19	-31.7	-35.8	11.7	5.68e-04	0	42	0	654311424	23	5727
2026-01-28 09:11:06.74	46.58	36.16	-31.8	-35.9	11.6	6.81e-04	0	42	0	656408576	23	5790
2026-01-28 09:11:07.74	46.17	36.13	-31.6	-35.4	11.9	4.79e-04	0	42	0	657457152	23	5562
2026-01-28 09:11:08.74	45.76	36.09	-31.6	-35.4	12.0	3.57e-04	0	42	0	659554304	23	5540
2026-01-28 09:11:09.74	45.36	36.06	-31.8	-35.9	11.7	5.34e-04	0	42	0	661651456	23	5760
2026-01-28 09:11:10.74	44.95	36.02	-31.9	-36.3	11.3	7.78e-04	0	42	0	663748608	23	5984
2026-01-28 09:11:11.75	44.54	35.98	-31.9	-36.3	11.3	1.33e-03	0	42	0	665845760	23	5950
2026-01-28 09:11:12.75	44.14	35.94	-31.8	-36.0	11.5	1.10e-03	0	42	0	666894336	23	5843
2026-01-28 09:11:13.76	43.73	35.90	-31.8	-35.9	11.6	7.16e-04	0	42	0	668991488	23	5779
2026-01-28 09:11:14.76	43.33	35.85	-31.8	-36.0	11.5	7.49e-04	0	42	0	671088640	23	5819
2026-01-28 09:11:15.76	42.93	35.80	-31.7	-35.8	11.7	6.82e-04	0	42	0	673185792	23	5738
2026-01-28 09:11:16.76	42.53	35.76	-31.7	-35.8	11.6	6.93e-04	0	42	0	675282944	23	5745
2026-01-28 09:11:17.77	42.12	35.71	-31.8	-36.0	11.5	8.17e-04	0	42	0	676331520	23	5853
2026-01-28 09:11:18.76	41.73	35.66	-31.8	-36.1	11.4	8.83e-04	0	42	0	678428672	23	5874
2026-01-28 09:11:19.76	41.33	35.61	-31.8	-35.9	11.5	8.20e-04	0	42	0	680525824	23	5793
2026-01-28 09:11:20.76	40.94	35.55	-31.8	-35.9	11.5	7.35e-04	0	42	0	682622976	23	5808
2026-01-28 09:11:21.77	40.54	35.50	-31.8	-36.1	11.4	8.74e-04	0	42	0	684720128	23	5866
2026-01-28 09:11:22.78	40.15	35.44	-31.9	-36.4	11.3	9.57e-04	0	42	0	685768704	23	6010
2026-01-28 09:11:23.78	39.76	35.38	-31.6	-35.4	11.9	6.76e-04	0	42	0	687865856	23	5580
2026-01-28 09:11:24.78	39.37	35.32	-31.4	-34.8	12.3	2.78e-04	0	42	0	689963008	23	5309
2026-01-28 09:11:25.78	38.98	35.26	-31.4	-34.7	12.3	1.49e-04	0	42	0	692060160	23	5298
2026-01-28 09:11:26.78	38.59	35.20	-31.6	-35.4	11.9	3.47e-04	0	42	0	693108736	23	5551
2026-01-28 09:11:27.79	38.20	35.14	-31.5	-35.0	12.2	2.92e-04	0	42	0	695205888	23	5408
2026-01-28 09:11:28.79	37.82	35.07	-31.4	-34.7	12.4	1.73e-04	0	42	0	697303040	23	5268
2026-01-28 09:11:29.80	37.44	35.00	-31.3	-34.6	12.5	1.38e-04	0	42	0	699400192	23	5241
2026-01-28 09:11:30.80	37.06	34.94	-31.3	-34.6	12.4	1.42e-04	0	42	0	701497344	23	5244
2026-01-28 09:11:31.81	36.67	34.87	-31.5	-35.0	12.2	1.72e-04	0	42	0	702545920	23	5421
2026-01-28 09:11:32.81	36.30	34.80	-31.2	-34.1	12.7	2.29e-04	0	42	0	704643072	23	5057
2026-01-28 09:11:33.81	35.92	34.73	-30.8	-33.5	13.5	2.44e-05	0	42	0	706740224	22	4935
2026-01-28 09:11:34.81	35.55	34.65	-30.5	-32.7	14.0	4.50e-06	0	42	0	708837376	22	4659
2026-01-28 09:11:35.82	35.17	34.58	-30.3	-32.3	14.2	1.50e-06	0	42	0	710934528	22	4534
2026-01-28 09:11:36.82	34.80	34.51	-30.4	-32.5	14.2	2.20e-06	0	42	0	711983104	22	4594
2026-01-28 09:11:37.82	34.43	34.43	-30.5	-32.9	13.9	7.00e-07	0	42	0	714080256	22	4729
2026-01-28 09:11:38.83	34.06	34.35	-30.8	-33.5	13.5	3.00e-06	0	42	0	716177408	22	4936
2026-01-28 09:11:39.83	33.70	34.27	-31.0	-34.2	13.1	1.90e-05	0	42	0	718274560	22	5191
2026-01-28 09:11:40.84	33.33	34.19	-31.0	-34.1	13.1	2.97e-05	0	42	0	720371712	22	5164
2026-01-28 09:11:41.84	32.97	34.11	-30.9	-34.0	13.2	3.58e-05	0	42	0	721420288	22	5107
2026-01-28 09:11:42.84	32.61	34.03	-30.9	-33.9	13.2	2.97e-05	0	42	0	723517440	22	5098
2026-01-28 09:11:43.85	32.25	33.95	-30.8	-33.7	13.3	1.60e-05	0	42	0	725614592	22	5014
2026-01-28 09:11:44.85	31.89	33.86	-30.9	-33.9	13.2	2.13e-05	0	42	0	727711744	22	5102
2026-01-28 09:11:45.85	31.54	33.78	-31.1	-34.4	12.9	3.20e-05	0	42	0	729808896	22	5272
2026-01-28 09:11:46.85	31.19	33.69	-31.4	-35.4	12.2	6.79e-05	0	42	0	730857472	22	5720
2026-01-28 09:11:47.85	30.84	33.61	-31.6	-35.5	11.8	3.90e-04	0	42	0	732954624	23	5651
2026-01-28 09:11:48.86	30.49	33.52	-31.8	-36.2	11.2	9.45e-04	0	42	0	735051776	23	5955
2026-01-28 09:11:49.86	30.14	33.43	-31.8	-36.1	11.3	1.55e-03	0	42	0	737148928	23	5913
2026-01-28 09:11:50.85	29.80	33.34	-31.9	-36.6	10.9	2.10e-03	0	42	0	738197504	23	6161
2026-01-28 09:11:51.86	29.45	33.25	-31.7	-35.8	11.4	1.34e-03	0	42	0	740294656	23	5772
2026-01-28 09:11:52.87	29.11	33.16	-31.5	-35.2	11.8	6.56e-04	0	42	0	742391808	23	5517
2026-01-28 09:11:53.87	28.77	33.07	-31.2	-34.4	12.4	1.76e-04	0	42	0	744488960	23	5184
2026-01-28 09:11:54.87	28.43	32.97	-31.2	-34.2	12.6	8.85e-05	0	42	0	746586112	23	5123
2026-01-28 09:11:55.87	28.10	32.88	-31.1	-34.2	12.5	9.68e-05	0	42	0	748683264	23	5116
2026-01-28 09:11:56.88	27.76	32.78	-31.4	-35.1	11.9	1.74e-04	0	42	0	749731840	23	5482
2026-01-28 09:11:57.88	27.43	32.69	-31.5	-35.2	11.8	4.94e-04	0	42	0	751828992	23	5526
2026-01-28 09:11:58.88	27.10	32.59	-31.6	-35.6	11.5	5.84e-04	0	42	0	753926144	23	5707
2026-01-28 09:11:59.88	26.78	32.49	-31.6	-35.7	11.5	7.56e-04	0	42	0	756023296	23	5733
2026-01-28 09:12:00.89	26.45	32.40	-31.7	-35.9	11.4	1.00e-03	0	42	0	757071872	23	5823
2026-01-28 09:12:01.89	26.12	32.30	-31.6	-35.7	11.5	8.83e-04	0	42	0	759169024	23	5727
2026-01-28 09:12:02.89	25.80	32.20	-31.6	-35.6	11.5	7.05e-04	0	42	0	761266176	23	5706
2026-01-28 09:12:03.90	25.48	32.10	-31.7	-35.9	11.4	8.60e-04	0	42	0	763363328	23	5808
2026-01-28 09:12:04.90	25.16	32.00	-31.8	-36.3	11.0	1.45e-03	0	42	0	765460480	23	6020
2026-01-28 09:12:05.91	24.85	31.89	-31.9	-36.7	10.8	2.63e-03	0	42	0	766509056	23	6230
2026-01-28 09:12:06.91	24.53	31.79	-31.8	-36.4	10.9	2.97e-03	0	42	0	768606208	23	6116
2026-01-28 09:12:07.92	24.22	31.69	-31.7	-36.1	11.1	1.57e-03	0	42	0	770703360	23	5957
2026-01-28 09:12:08.93	23.91	31.59	-31.7	-35.9	11.3	1.23e-03	0	42	0	772800512	23	5840
2026-01-28 09:12:09.92	23.60	31.48	-31.7	-35.8	11.3	1.05e-03	0	42	0	774897664	23	5801
2026-01-28 09:12:10.93	23.29	31.38	-31.8	-36.3	11.0	1.35e-03	0	42	0	775946240	23	6013
2026-01-28 09:12:11.93	22.99	31.27	-31.7	-35.8	11.4	1.39e-03	0	42	0	778043392	23	5783
2026-01-28 09:12:12.94	22.69	31.17	-31.6	-35.7	11.4	9.46e-04	0	42	0	780140544	23	5738
2026-01-28 09:12:13.94	22.39	31.06	-31.8	-36.2	11.0	1.34e-03	0	42	0	782237696	23	5979
2026-01-28 09:12:14.95	22.09	30.95	-31.8	-36.3	11.0	1.78e-03	0	42	0	784334848	23	6022
2026-01-28 09:12:15.95	21.79	30.85	-31.9	-36.7	10.7	2.28e-03	0	42	0	785383424	23	6218
2026-01-28 09:12:16.95	21.50	30.74	-31.8	-36.4	10.9	3.02e-03	0	42	0	787480576	23	6064
2026-01-28 09:12:17.96	21.21	30.63	-31.9	-36.6	10.7	2.40e-03	0	42	0	789577728	23	6170
2026-01-28 09:12:18.96	20.92	30.52	-31.9	-36.4	10.9	2.59e-03	0	42	0	791674880	23	6091
2026-01-28 09:12:19.96	20.63	30.42	-32.0	-36.8	10.6	2.82e-03	0	42	0	793772032	23	6245
2026-01-28 09:12:20.97	20.34	30.31	-32.1	-36.8	10.2	4.75e-03	0	42	0	794820608	24	6184
2026-01-28 09:12:21.97	20.06	30.20	-31.9	-36.0	10.7	3.68e-03	0	42	0	796917760	24	5797
2026-01-28 09:12:22.97	19.78	30.09	-31.8	-35.8	10.9	2.27e-03	0	42	0	799014912	24	5702
2026-01-28 09:12:23.97	19.50	29.98	-31.7	-35.5	11.1	1.83e-03	0	42	0	801112064	24	5560
2026-01-28 09:12:24.98	19.22	29.87	-31.7	-35.3	11.3	1.32e-03	0	42	0	803209216	24	5477
2026-01-28 09:12:25.99	18.94	29.75	-31.6	-35.0	11.5	9.14e-04	0	42	0	804257792	24	5353
2026-01-28 09:12:26.98	18.67	29.64	-31.4	-34.6	11.7	6.71e-04	0	42	0	806354944	24	5185
2026-01-28 09:12:27.99	18.39	29.53	-31.4	-34.4	11.9	3.92e-04	0	42	0	808452096	24	5114
2026-01-28 09:12:29.00	18.12	29.42	-31.3	-34.3	12.0	3.08e-04	0	42	0	810549248	24	5041
2026-01-28 09:12:30.00	17.85	29.31	-31.3	-34.2	12.1	2.82e-04	0	42	0	811597824	24	5032
2026-01-28 09:12:31.00	17.59	29.20	-31.1	-34.1	12.5	2.28e-04	0	42	0	813694976	23	5065
2026-01-28 09:12:31.99	17.33	29.08	-31.0	-33.7	12.8	7.70e-05	0	42	0	815792128	23	4943
2026-01-28 09:12:32.99	17.06	28.97	-31.0	-33.7	12.7	6.48e-05	0	42	0	817889280	23	4935
2026-01-28 09:12:34.00	16.80	28.86	-31.0	-33.8	12.7	5.26e-05	0	42	0	819986432	23	4954
2026-01-28 09:12:35.00	16.54	28.75	-31.0	-33.9	12.6	9.46e-05	0	42	0	821035008	23	5011
2026-01-28 09:12:36.00	16.28	28.63	-31.1	-34.2	12.5	1.05e-04	0	42	0	823132160	23	5124
2026-01-28 09:12:37.01	16.03	28.52	-30.8	-33.3	13.1	7.85e-05	0	42	0	825229312	23	4788
2026-01-28 09:12:38.01	15.77	28.40	-30.6	-33.1	13.5	6.10e-06	0	42	0	827326464	22	4820
2026-01-28 09:12:39.02	15.52	28.29	-30.5	-32.8	13.7	9.10e-06	0	42	0	829423616	22	4728
2026-01-28 09:12:40.02	15.27	28.18	-30.5	-32.8	13.7	9.10e-06	0	42	0	830472192	22	4723
2026-01-28 09:12:41.01	15.03	28.06	-30.6	-33.3	13.4	1.60e-05	0	42	0	832569344	22	4884
2026-01-28 09:12:42.02	14.78	27.95	-30.4	-32.8	13.7	1.29e-05	0	42	0	834666496	22	4703
2026-01-28 09:12:43.03	14.53	27.83	-30.4	-32.7	13.7	3.00e-06	0	42	0	836763648	22	4664
2026-01-28 09:12:44.03	14.29	27.72	-30.4	-32.8	13.7	4.50e-06	0	42	0	838860800	22	4708
2026-01-28 09:12:45.03	14.05	27.60	-30.4	-32.7	13.7	3.00e-06	0	42	0	839909376	22	4689
2026-01-28 09:12:46.04	13.81	27.49	-30.4	-32.8	13.7	6.10e-06	0	42	0	842006528	22	4710
2026-01-28 09:12:47.04	13.57	27.37	-31.0	-34.2	12.6	9.10e-06	0	42	0	844103680	22	5252
2026-01-28 09:12:48.05	13.33	27.26	-30.5	-32.9	13.4	2.74e-05	0	42	0	846200832	22	4756
2026-01-28 09:12:49.04	13.10	27.15	-30.4	-32.8	13.6	1.52e-05	0	42	0	848297984	22	4703
2026-01-28 09:12:50.04	12.87	27.03	-30.4	-32.6	13.7	3.00e-06	0	42	0	849346560	22	4649
2026-01-28 09:12:51.04	12.64	26.92	-30.8	-33.7	12.9	1.14e-05	0	42	0	851443712	22	5041
2026-01-28 09:12:52.05	12.41	26.80	-30.5	-33.0	13.4	1.90e-05	0	42	0	853540864	22	4795
2026-01-28 09:12:53.06	12.18	26.68	-30.6	-33.1	13.3	1.75e-05	0	42	0	855638016	22	4836
2026-01-28 09:12:54.06	11.95	26.57	-30.3	-32.5	13.5	2.51e-05	0	42	0	857735168	22	4641
2026-01-28 09:12:55.06	11.73	26.46	-30.2	-32.8	13.7	7.60e-06	0	42	0	858783744	21	4823
2026-01-28 09:12:56.06	11.51	26.34	-30.2	-32.7	13.6	6.80e-06	0	42	0	860880896	21	4801
2026-01-28 09:12:57.06	11.29	26.23	-30.1	-32.5	13.5	6.80e-06	0	42	0	862978048	21	4744
2026-01-28 09:12:58.06	11.07	26.11	-30.3	-32.9	13.2	1.83e-05	0	42	0	865075200	21	4884
2026-01-28 09:12:59.07	10.85	26.00	-30.1	-32.5	13.6	1.06e-05	0	42	0	867172352	21	4742
2026-01-28 09:13:00.07	10.63	25.88	-29.9	-32.0	14.1	3.80e-06	0	42	0	868220928	21	4584
2026-01-28 09:13:01.07	10.42	25.77	-29.8	-32.1	14.4	7.00e-07	0	42	0	870318080	20	4700
2026-01-28 09:13:02.07	10.21	25.65	-29.7	-31.8	14.6	1.50e-06	0	42	0	872415232	20	4615
2026-01-28 09:13:03.08	9.99	25.54	-29.6	-31.7	14.5	7.00e-07	0	42	0	874512384	20	4593
2026-01-28 09:13:04.09	9.78	25.42	-29.8	-32.1	14.0	3.80e-06	0	42	0	875560960	20	4726
2026-01-28 09:13:05.09	9.57	25.31	-29.7	-31.9	13.9	2.20e-06	0	42	0	877658112	20	4665
2026-01-28 09:13:06.09	9.37	25.19	-29.7	-32.0	13.6	6.80e-06	0	42	0	879755264	20	4705
2026-01-28 09:13:07.10	9.16	25.08	-29.6	-31.9	13.7	5.30e-06	0	42	0	881852416	20	4647
2026-01-28 09:13:08.11	8.96	24.96	-29.7	-32.1	13.5	6.80e-06	0	42	0	883949568	20	4728
2026-01-28 09:13:09.11	8.75	24.85	-29.7	-32.0	13.6	1.06e-05	0	42	0	884998144	20	4717
2026-01-28 09:13:10.11	8.55	24.73	-29.8	-32.3	13.3	1.14e-05	0	42	0	887095296	20	4812
2026-01-28 09:13:11.11	8.35	24.62	-29.7	-32.3	12.9	1.75e-05	0	42	0	889192448	20	4839
2026-01-28 09:13:12.11	8.16	24.51	-29.6	-32.2	11.9	1.65e-04	0	42	0	891289600	20	4887
2026-01-28 09:13:13.11	7.96	24.39	-29.7	-32.5	11.3	7.29e-04	0	42	0	893386752	20	4997
2026-01-28 09:13:14.12	7.76	24.28	-29.6	-32.3	11.9	5.29e-04	0	42	0	894435328	20	4881
2026-01-28 09:13:15.12	7.57	24.17	-29.7	-32.3	12.7	8.54e-05	0	42	0	896532480	20	4857
2026-01-28 09:13:16.12	7.38	24.05	-29.9	-32.7	13.4	2.28e-05	0	42	0	898629632	20	4931
2026-01-28 09:13:17.12	7.19	23.94	-30.0	-32.7	14.0	2.20e-06	0	42	0	900726784	20	4907
2026-01-28 09:13:18.12	7.00	23.83	-30.0	-32.6	14.2	7.00e-07	0	42	0	902823936	20	4880
2026-01-28 09:13:19.12	6.81	23.71	-30.0	-32.7	14.0	2.20e-06	0	42	0	903872512	20	4909
2026-01-28 09:13:20.12	6.63	23.60	-29.8	-32.2	14.0	3.80e-06	0	42	0	905969664	20	4771
2026-01-28 09:13:21.13	6.44	23.49	-29.7	-32.0	13.7	3.80e-06	0	42	0	908066816	20	4698
2026-01-28 09:13:22.13	6.26	23.38	-29.6	-32.0	13.3	1.14e-05	0	42	0	910163968	20	4703
2026-01-28 09:13:23.14	6.07	23.26	-29.6	-31.8	13.3	1.98e-05	0	42	0	912261120	20	4650
2026-01-28 09:13:24.14	5.89	23.15	-29.7	-32.1	13.6	6.80e-06	0	42	0	913309696	20	4718
2026-01-28 09:13:25.15	5.71	23.04	-29.8	-32.2	13.7	3.80e-06	0	42	0	915406848	20	4756
2026-01-28 09:13:26.15	5.53	22.93	-29.8	-32.5	12.0	6.79e-05	0	42	0	917504000	20	4917
2026-01-28 09:13:27.16	5.35	22.81	-29.5	-32.3	10.4	1.00e-03	0	42	0	919601152	20	4921
2026-01-28 09:13:28.16	5.18	22.70	-29.3	-32.0	9.1	6.52e-03	0	42	0	921698304	20	4927
2026-01-28 09:13:29.16	5.00	22.59	-29.1	-32.5	7.9	4.98e-02	0	42	0	922746880	19	5317
2026-01-28 09:13:30.17	4.83	22.48	-29.1	-32.5	8.1	6.01e-02	0	42	0	924844032	19	5321
2026-01-28 09:13:31.17	4.66	22.37	-29.5	-33.0	9.1	3.98e-02	0	42	0	926941184	19	5414
2026-01-28 09:13:32.17	4.49	22.26	-30.0	-33.4	11.0	2.46e-03	0	42	0	929038336	20	5287
2026-01-28 09:13:33.18	4.32	22.15	-30.2	-33.7	11.9	5.17e-04	0	42	0	931135488	20	5364
2026-01-28 09:13:34.18	4.15	22.04	-30.5	-33.7	12.5	1.75e-04	0	42	0	932184064	21	5224
2026-01-28 09:13:35.19	3.98	21.93	-30.5	-33.5	12.8	6.94e-05	0	42	0	934281216	21	5135
2026-01-28 09:13:36.19	3.81	21.82	-30.4	-33.5	12.3	8.77e-05	0	42	0	936378368	21	5150
2026-01-28 09:13:37.19	3.65	21.71	-30.4	-33.7	11.5	4.55e-04	0	42	0	938475520	21	5239
2026-01-28 09:13:38.20	3.49	21.60	-30.5	-33.9	10.9	1.39e-03	0	42	0	939524096	21	5351
2026-01-28 09:13:39.20	3.32	21.49	-30.5	-34.2	10.2	4.47e-03	0	42	0	941621248	21	5506
2026-01-28 09:13:40.20	3.16	21.38	-30.5	-34.3	9.9	7.03e-03	0	42	0	943718400	21	5572
2026-01-28 09:13:41.20	3.00	21.27	-30.8	-35.0	9.9	8.36e-03	0	42	0	945815552	21	5853
2026-01-28 09:13:42.20	2.84	21.17	-30.8	-34.7	10.7	5.97e-03	0	42	0	947912704	21	5679
2026-01-28 09:13:43.21	2.68	21.06	-30.8	-34.8	11.2	1.90e-03	0	42	0	948961280	21	5694
2026-01-28 09:13:44.21	2.53	20.95	-30.8	-34.7	11.8	7.35e-04	0	42	0	951058432	21	5637
2026-01-28 09:13:45.22	2.37	20.84	-30.8	-34.7	11.7	4.36e-04	0	42	0	953155584	21	5647
2026-01-28 09:13:46.22	2.22	20.73	-30.8	-34.5	11.8	5.68e-04	0	42	0	955252736	21	5554
2026-01-28 09:13:47.22	2.06	20.63	-30.6	-34.2	12.1	3.06e-04	0	42	0	957349888	21	5416
2026-01-28 09:13:48.22	1.91	20.52	-30.6	-34.0	12.3	2.10e-04	0	42	0	958398464	21	5341
2026-01-28 09:13:49.22	1.76	20.41	-30.7	-34.2	12.5	1.27e-04	0	42	0	960495616	21	5391
2026-01-28 09:13:50.21	1.61	20.31	-30.8	-34.4	12.5	1.52e-04	0	42	0	962592768	21	5493
2026-01-28 09:13:51.22	1.46	20.20	-30.8	-34.4	12.6	8.31e-05	0	42	0	964689920	21	5465
2026-01-28 09:13:52.22	1.32	20.10	-30.9	-34.7	12.4	1.19e-04	0	42	0	966787072	21	5594
2026-01-28 09:13:53.23	1.17	19.99	-30.8	-34.5	12.4	1.27e-04	0	42	0	967835648	21	5533
2026-01-28 09:13:54.23	1.02	19.88	-30.9	-34.9	12.0	2.45e-04	0	42	0	969932800	21	5693
2026-01-28 09:13:55.23	0.88	19.78	-30.8	-34.6	12.2	2.86e-04	0	42	0	972029952	21	5579
2026-01-28 09:13:56.24	0.73	19.67	-30.9	-34.8	12.0	3.52e-04	0	42	0	974127104	21	5654
2026-01-28 09:13:57.24	0.59	19.57	-31.0	-35.1	11.8	3.97e-04	0	42	0	976224256	21	5812
2026-01-28 09:13:58.24	0.45	19.46	-31.1	-35.0	11.7	4.56e-04	0	42	0	977272832	22	5612
2026-01-28 09:13:59.25	0.31	19.36	-31.2	-35.2	11.6	6.55e-04	0	42	0	979369984	22	5717
2026-01-28 09:14:00.25	0.17	19.26	-31.0	-34.8	11.9	4.10e-04	0	42	0	981467136	22	5535
2026-01-28 09:14:01.25	0.03	19.15	-30.9	-34.3	12.2	2.81e-04	0	42	0	983564288	22	5328
2026-01-28 09:14:02.26	359.89	19.05	-30.8	-34.0	12.4	1.74e-04	0	42	0	985661440	22	5202
2026-01-28 09:14:03.26	359.75	18.94	-30.8	-34.1	12.4	1.21e-04	0	42	0	986710016	22	5235
2026-01-28 09:14:04.26	359.62	18.84	-30.8	-34.1	12.4	1.79e-04	0	42	0	988807168	22	5257
2026-01-28 09:14:05.27	359.48	18.74	-30.7	-33.8	12.6	1.09e-04	0	42	0	990904320	22	5144
2026-01-28 09:14:06.27	359.35	18.64	-30.7	-33.9	12.5	1.12e-04	0	42	0	993001472	22	5157
2026-01-28 09:14:07.27	359.21	18.53	-30.7	-33.8	12.6	9.61e-05	0	43	0	994050048	22	5118
2026-01-28 09:14:08.28	359.08	18.43	-30.7	-33.8	12.6	9.07e-05	0	42	0	996147200	22	5135
2026-01-28 09:14:09.28	358.95	18.33	-30.8	-34.0	12.5	8.92e-05	0	42	0	998244352	22	5196
2026-01-28 09:14:10.28	358.82	18.23	-30.8	-34.0	12.5	1.43e-04	0	42	0	1000341504	22	5192
2026-01-28 09:14:11.29	358.69	18.13	-30.7	-33.7	12.6	1.10e-04	0	42	0	1002438656	22	5109
2026-01-28 09:14:12.29	358.56	18.03	-30.7	-33.8	12.6	9.61e-05	0	42	0	1003487232	22	5117
2026-01-28 09:14:13.29	358.43	17.93	-30.7	-33.7	12.6	8.85e-05	0	42	0	1005584384	22	5109
2026-01-28 09:14:14.30	358.30	17.82	-30.7	-33.8	12.6	1.06e-04	0	42	0	1007681536	22	5122
2026-01-28 09:14:15.31	358.17	17.72	-30.6	-33.4	12.8	7.70e-05	0	42	0	1009778688	22	4983
2026-01-28 09:14:16.31	358.05	17.62	-30.5	-33.2	12.9	4.65e-05	0	42	0	1011875840	22	4913
2026-01-28 09:14:17.30	357.93	17.53	-30.5	-33.2	13.0	3.43e-05	0	42	0	1012924416	22	4911
2026-01-28 09:14:18.31	357.80	17.43	-30.5	-33.2	12.9	3.58e-05	0	42	0	1015021568	22	4917
2026-01-28 09:14:19.31	357.68	17.33	-30.6	-33.6	12.7	5.11e-05	0	42	0	1017118720	22	5061
2026-01-28 09:14:20.31	357.56	17.23	-30.8	-34.0	12.4	1.29e-04	0	42	0	1019215872	22	5219
2026-01-28 09:14:21.31	357.44	17.13	-30.7	-33.9	12.5	1.07e-04	0	42	0	1021313024	22	5169
2026-01-28 09:14:22.32	357.32	17.03	-30.8	-34.0	12.3	1.68e-04	0	42	0	1022361600	22	5222
2026-01-28 09:14:23.32	357.20	16.93	-30.8	-34.1	12.3	1.80e-04	0	42	0	1024458752	22	5261
2026-01-28 09:14:24.32	357.08	16.84	-30.6	-33.6	12.6	1.01e-04	0	43	0	1026555904	22	5089
2026-01-28 09:14:25.33	356.96	16.74	-30.7	-33.7	12.6	1.07e-04	0	42	0	1028653056	22	5106
2026-01-28 09:14:26.33	356.84	16.64	-30.6	-33.6	12.6	1.01e-04	0	42	0	1030750208	22	5083
2026-01-28 09:14:27.34	356.72	16.54	-30.7	-33.7	12.5	1.05e-04	0	42	0	1031798784	22	5131
2026-01-28 09:14:28.34	356.61	16.45	-30.7	-33.7	12.5	1.22e-04	0	42	0	1033895936	22	5105
2026-01-28 09:14:29.34	356.49	16.35	-30.6	-33.5	12.6	9.76e-05	0	42	0	1035993088	22	5051
2026-01-28 09:14:30.35	356.38	16.25	-30.6	-33.7	12.5	1.25e-04	0	42	0	1038090240	22	5113
2026-01-28 09:14:31.35	356.27	16.16	-30.6	-33.4	12.7	8.69e-05	0	42	0	1039138816	22	5017
2026-01-28 09:14:32.36	356.15	16.06	-30.6	-33.6	12.6	8.01e-05	0	43	0	1041235968	22	5084
2026-01-28 09:14:33.36	356.04	15.97	-30.7	-33.7	12.5	1.35e-04	0	42	0	1043333120	22	5129
2026-01-28 09:14:34.36	355.93	15.87	-30.6	-33.7	12.5	9.15e-05	0	42	0	1045430272	22	5110
2026-01-28 09:14:35.36	355.82	15.78	-30.7	-33.8	12.4	1.27e-04	0	42	0	1047527424	22	5135
2026-01-28 09:14:36.37	355.71	15.68	-30.7	-34.0	12.3	1.62e-04	0	42	0	1049624576	22	5226
2026-01-28 09:14:37.37	355.60	15.59	-30.7	-34.0	12.3	2.14e-04	0	42	0	1050673152	22	5232
2026-01-28 09:14:38.37	355.49	15.49	-30.6	-33.5	12.6	1.35e-04	0	43	0	1052770304	22	5039
2026-01-28 09:14:39.37	355.39	15.40	-30.5	-33.3	12.7	8.31e-05	0	42	0	1054867456	22	4959
2026-01-28 09:14:40.37	355.28	15.31	-30.5	-33.3	12.7	6.25e-05	0	42	0	1056964608	22	4963
2026-01-28 09:14:41.38	355.17	15.21	-30.4	-33.1	12.8	6.86e-05	0	43	0	1058013184	22	4896
2026-01-28 09:14:42.38	355.07	15.12	-30.4	-33.0	12.9	5.64e-05	0	42	0	1060110336	22	4872
2026-01-28 09:14:43.39	354.96	15.03	-30.6	-33.5	12.6	7.17e-05	0	42	0	1062207488	22	5031
2026-01-28 09:14:44.39	354.86	14.93	-30.6	-33.6	12.5	1.41e-04	0	43	0	1064304640	22	5092
2026-01-28 09:14:45.40	354.75	14.84	-30.5	-33.2	12.8	6.71e-05	0	42	0	1066401792	22	4926
2026-01-28 09:14:46.40	354.65	14.75	-30.4	-33.0	12.9	5.41e-05	0	42	0	1067450368	22	4856
2026-01-28 09:14:47.40	354.55	14.66	-30.3	-32.9	13.0	3.58e-05	0	42	0	1069547520	22	4818
2026-01-28 09:14:48.41	354.45	14.56	-30.4	-33.1	12.8	5.18e-05	0	43	0	1071644672	22	4896
2026-01-28 09:14:49.41	354.35	14.47	-30.5	-33.3	12.7	6.79e-05	0	42	0	1073741824	22	4980
2026-01-28 09:14:50.41	354.25	14.38	-30.5	-33.4	12.6	8.39e-05	0	42	0	1075838976	22	4998
2026-01-28 09:14:51.41	354.15	14.29	-30.6	-33.6	12.5	1.12e-04	0	42	0	1076887552	22	5093
2026-01-28 09:14:52.42	354.05	14.20	-30.7	-33.8	12.3	1.73e-04	0	43	0	1078984704	22	5168
2026-01-28 09:14:53.42	353.95	14.11	-30.7	-33.8	12.3	1.83e-04	0	42	0	1081081856	22	5179
2026-01-28 09:14:54.43	353.85	14.02	-30.7	-34.0	12.2	1.65e-04	0	42	0	1083179008	22	5243
2026-01-28 09:14:55.43	353.75	13.93	-30.8	-34.3	12.0	3.33e-04	0	42	0	1085276160	22	5375
2026-01-28 09:14:56.43	353.66	13.84	-30.8	-34.2	12.0	3.47e-04	0	42	0	1086324736	22	5330
2026-01-28 09:14:57.44	353.56	13.75	-30.8	-34.3	11.9	3.05e-04	0	42	0	1088421888	22	5381
2026-01-28 09:14:58.44	353.46	13.66	-30.9	-34.5	11.8	5.16e-04	0	43	0	1090519040	22	5464
2026-01-28 09:14:59.45	353.37	13.57	-30.8	-34.3	11.9	4.14e-04	0	43	0	1092616192	22	5385
2026-01-28 09:15:00.46	353.27	13.48	-30.8	-34.3	11.9	4.64e-04	0	43	0	1094713344	22	5391
2026-01-28 09:15:01.46	353.18	13.40	-30.9	-34.7	11.7	4.20e-04	0	42	0	1095761920	22	5533
2026-01-28 09:15:02.47	353.09	13.31	-31.0	-34.9	11.5	8.69e-04	0	42	0	1097859072	22	5636
2026-01-28 09:15:03.48	352.99	13.22	-30.8	-34.1	12.0	4.20e-04	0	42	0	1099956224	22	5313
2026-01-28 09:15:04.48	352.90	13.13	-30.7	-34.0	12.1	2.85e-04	0	42	0	1102053376	22	5245
2026-01-28 09:15:05.48	352.81	13.04	-30.7	-34.0	12.1	2.67e-04	0	42	0	1104150528	22	5240
2026-01-28 09:15:06.48	352.72	12.96	-30.8	-34.2	12.0	2.89e-04	0	42	0	1105199104	22	5336
2026-01-28 09:15:07.48	352.63	12.87	-30.8	-34.4	11.7	5.45e-04	0	42	0	1107296256	22	5434
2026-01-28 09:15:08.48	352.54	12.78	-30.8	-34.5	11.7	5.80e-04	0	42	0	1109393408	22	5456
2026-01-28 09:15:09.48	352.45	12.70	-30.9	-34.6	11.6	5.99e-04	0	43	0	1111490560	22	5531
2026-01-28 09:15:10.48	352.36	12.61	-31.0	-34.8	11.5	7.82e-04	0	42	0	1112539136	22	5612
2026-01-28 09:15:11.48	352.28	12.53	-30.9	-34.7	11.5	6.42e-04	0	42	0	1114636288	22	5591
2026-01-28 09:15:12.48	352.19	12.44	-31.0	-34.8	11.4	9.46e-04	0	42	0	1116733440	22	5637
2026-01-28 09:15:13.48	352.10	12.35	-31.0	-35.1	11.2	1.17e-03	0	42	0	1118830592	22	5730
2026-01-28 09:15:14.48	352.02	12.27	-31.0	-35.1	11.1	1.54e-03	0	42	0	1120927744	22	5775
2026-01-28 09:15:15.48	351.93	12.19	-31.0	-34.9	11.3	1.21e-03	0	42	0	1121976320	22	5672
2026-01-28 09:15:16.49	351.84	12.10	-31.0	-35.0	11.2	1.11e-03	0	42	0	1124073472	22	5720
2026-01-28 09:15:17.49	351.76	12.02	-31.0	-35.1	11.2	1.49e-03	0	42	0	1126170624	22	5754
2026-01-28 09:15:18.50	351.67	11.93	-31.0	-35.2	11.1	1.38e-03	0	42	0	1128267776	22	5785
2026-01-28 09:15:19.51	351.59	11.85	-31.2	-35.5	10.9	2.08e-03	0	43	0	1130364928	22	5937
2026-01-28 09:15:20.51	351.51	11.76	-31.2	-35.6	10.8	2.34e-03	0	42	0	1131413504	22	5983
2026-01-28 09:15:21.51	351.42	11.68	-31.2	-35.7	10.7	2.93e-03	0	42	0	1133510656	22	6037
2026-01-28 09:15:22.51	351.34	11.60	-31.1	-35.5	10.8	2.61e-03	0	42	0	1135607808	22	5943
2026-01-28 09:15:23.51	351.26	11.51	-31.1	-35.5	10.8	2.21e-03	0	42	0	1137704960	22	5951
2026-01-28 09:15:24.50	351.18	11.43	-31.2	-35.7	10.7	2.71e-03	0	42	0	1139802112	22	6041
2026-01-28 09:15:25.51	351.10	11.35	-31.2	-35.8	10.6	3.46e-03	0	42	0	1140850688	22	6078
2026-01-28 09:15:26.51	351.02	11.26	-31.1	-35.6	10.8	2.88e-03	0	42	0	1142947840	22	6001
2026-01-28 09:15:27.51	350.94	11.18	-31.1	-35.5	10.8	2.63e-03	0	42	0	1145044992	22	5949
2026-01-28 09:15:28.51	350.86	11.10	-31.2	-35.6	10.8	2.66e-03	0	42	0	1147142144	22	6005
2026-01-28 09:15:29.52	350.78	11.02	-31.2	-35.6	10.7	3.32e-03	0	42	0	1149239296	22	6016
2026-01-28 09:15:30.51	350.70	10.94	-31.1	-35.5	10.7	3.02e-03	0	43	0	1150287872	22	5981
2026-01-28 09:15:31.51	350.62	10.86	-31.2	-35.8	10.6	3.32e-03	0	42	0	1152385024	22	6121
2026-01-28 09:15:32.52	350.55	10.77	-31.3	-36.2	10.2	4.32e-03	0	42	0	1154482176	22	6317
2026-01-28 09:15:33.52	350.47	10.69	-31.4	-36.4	10.1	7.17e-03	0	43	0	1156579328	22	6424
2026-01-28 09:15:34.52	350.39	10.61	-31.3	-36.0	10.4	5.36e-03	0	42	0	1157627904	22	6228
2026-01-28 09:15:35.53	350.32	10.53	-31.2	-35.8	10.5	4.10e-03	0	42	0	1159725056	22	6132
2026-01-28 09:15:36.53	350.24	10.45	-31.3	-36.2	10.2	4.57e-03	0	43	0	1161822208	22	6326
2026-01-28 09:15:37.54	350.16	10.37	-31.3	-36.3	10.2	6.31e-03	0	42	0	1163919360	22	6354
2026-01-28 09:15:38.54	350.09	10.29	-31.4	-36.4	10.1	6.79e-03	0	43	0	1166016512	22	6400
2026-01-28 09:15:39.54	350.01	10.21	-31.3	-36.2	10.1	6.79e-03	0	43	0	1167065088	22	6343
2026-01-28 09:15:40.54	349.94	10.13	-31.3	-36.2	10.2	6.47e-03	0	43	0	1169162240	22	6345
2026-01-28 09:15:41.54	349.87	10.05	-31.3	-36.2	10.2	6.26e-03	0	42	0	1171259392	22	6302
2026-01-28 09:15:42.55	349.79	9.97	-31.3	-36.3	10.1	7.15e-03	0	43	0	1173356544	22	6370
2026-01-28 09:15:43.55	349.72	9.89	-31.3	-36.2	10.2	6.52e-03	0	42	0	1175453696	22	6304
2026-01-28 09:15:44.55	349.65	9.82	-31.2	-36.0	10.3	6.16e-03	0	43	0	1176502272	22	6228
2026-01-28 09:15:45.55	349.58	9.74	-31.3	-36.2	10.1	6.03e-03	0	42	0	1178599424	22	6346
2026-01-28 09:15:46.56	349.50	9.66	-31.3	-36.1	10.2	6.84e-03	0	42	0	1180696576	22	6279
2026-01-28 09:15:47.57	349.43	9.58	-31.2	-36.0	10.3	5.38e-03	0	42	0	1182793728	22	6242
2026-01-28 09:15:48.57	349.36	9.50	-31.3	-36.0	10.2	5.67e-03	0	42	0	1184890880	22	6250
2026-01-28 09:15:49.57	349.29	9.42	-31.2	-35.9	10.4	5.31e-03	0	42	0	1185939456	22	6187
2026-01-28 09:15:50.57	349.22	9.35	-31.2	-36.0	10.2	5.32e-03	0	42	0	1188036608	22	6256
2026-01-28 09:15:51.58	349.15	9.27	-31.2	-36.1	10.1	6.58e-03	0	42	0	1190133760	22	6289
2026-01-28 09:15:52.58	349.08	9.19	-31.3	-36.2	10.0	6.26e-03	0	43	0	1192230912	22	6353
2026-01-28 09:15:53.58	349.01	9.12	-31.2	-36.0	10.3	7.42e-03	0	42	0	1194328064	22	6216
2026-01-28 09:15:54.59	348.94	9.04	-31.2	-35.9	10.3	5.36e-03	0	42	0	1195376640	22	6206
2026-01-28 09:15:55.58	348.88	8.96	-31.2	-36.1	10.1	6.28e-03	0	42	0	1197473792	22	6297
2026-01-28 09:15:56.59	348.81	8.89	-31.3	-36.2	10.0	6.26e-03	0	42	0	1199570944	22	6354
2026-01-28 09:15:57.60	348.74	8.81	-31.3	-36.3	10.0	8.27e-03	0	42	0	1201668096	22	6389
2026-01-28 09:15:58.60	348.67	8.73	-31.3	-36.5	9.8	9.17e-03	0	42	0	1202716672	22	6500
2026-01-28 09:15:59.60	348.61	8.66	-31.3	-36.2	10.0	1.01e-02	0	42	0	1204813824	22	6363
2026-01-28 09:16:00.60	348.54	8.58	-31.4	-36.6	9.7	8.51e-03	0	42	0	1206910976	22	6555
2026-01-28 09:16:01.61	348.47	8.51	-31.3	-36.4	9.8	9.25e-03	0	43	0	1209008128	22	6473
2026-01-28 09:16:02.61	348.41	8.43	-31.3	-36.6	9.7	1.08e-02	0	42	0	1211105280	22	6564
2026-01-28 09:16:03.61	348.34	8.36	-31.4	-36.8	9.5	1.34e-02	0	42	0	1213202432	22	6686
2026-01-28 09:16:04.62	348.28	8.28	-31.4	-36.6	9.6	1.19e-02	0	43	0	1214251008	22	6596
2026-01-28 09:16:05.63	348.21	8.21	-31.5	-37.1	9.2	1.67e-02	0	42	0	1216348160	22	6875
2026-01-28 09:16:06.64	348.15	8.13	-31.5	-36.7	9.1	2.23e-02	0	43	0	1218445312	23	6579
2026-01-28 09:16:07.64	348.09	8.06	-31.4	-36.4	9.3	1.97e-02	0	43	0	1220542464	23	6412
2026-01-28 09:16:08.64	348.02	7.98	-31.4	-36.2	9.5	1.46e-02	0	43	0	1221591040	23	6296
2026-01-28 09:16:09.65	347.96	7.91	-31.4	-36.4	9.4	1.65e-02	0	42	0	1223688192	23	6395
2026-01-28 09:16:10.65	347.90	7.83	-31.4	-36.4	9.4	1.76e-02	0	42	0	1225785344	23	6404
2026-01-28 09:16:11.65	347.83	7.76	-31.5	-36.6	9.2	1.94e-02	0	42	0	1227882496	23	6500
2026-01-28 09:16:12.65	347.77	7.69	-31.5	-36.6	9.2	2.50e-02	0	42	0	1229979648	23	6513
2026-01-28 09:16:13.65	347.71	7.62	-31.4	-36.3	9.4	1.96e-02	0	42	0	1231028224	23	6364
2026-01-28 09:16:14.66	347.65	7.54	-31.4	-36.5	9.3	1.76e-02	0	43	0	1233125376	23	6446
2026-01-28 09:16:15.66	347.59	7.47	-31.4	-36.5	9.2	2.01e-02	0	42	0	1235222528	23	6446
2026-01-28 09:16:16.67	347.53	7.40	-31.4	-36.4	9.3	1.85e-02	0	42	0	1237319680	23	6382
2026-01-28 09:16:17.67	347.47	7.32	-31.4	-36.6	9.1	1.80e-02	0	42	0	1239416832	23	6506
2026-01-28 09:16:18.67	347.41	7.25	-31.4	-36.6	9.1	2.40e-02	0	43	0	1240465408	23	6544
2026-01-28 09:16:19.68	347.35	7.18	-31.4	-36.7	9.1	2.18e-02	0	43	0	1242562560	23	6581
2026-01-28 09:16:20.68	347.29	7.11	-31.5	-36.8	8.9	2.63e-02	0	43	0	1244659712	23	6645
2026-01-28 09:16:21.68	347.23	7.04	-33.1	-46.9	3.8	7.07e-01	0	42	104	1246756864	26	17612

#Closed at: 2026-01-28 09:16:22
#Recorded file [1246 MB]: D:/data/31010_260128_120516.dat