passes_logs/2026/01/28/R2M6_AANII_01/R2M6_AANII_01__20260128_225308_NOAA_20_JPSS-1_rec.log

#Pass ID: 20260128_225308_NOAA 20 (JPSS-1)
#Satellite: NOAA 20 (JPSS-1)
#Configuration: NOAA 20
#almurnet v.1.7.20240730
#Start time: 2026-01-28 22:53:08

#Version: 2.2.20231116
#Station: R2M6_AANII_01
#Location: 30.233357 lon 59.946436 lat
#TLE: 1 43013U 17073A   26027.80586608  .00000156  00000+0  94940-4 0  9998
#TLE: 2 43013  98.7647 328.6108 0000947  21.3465 338.7750 14.19541216424550

#Time	Az	El	Level	Level2	SNR	BER	BlckErr	Temp	State	Recorded	gain1	gain2
2026-01-28 22:53:08.57	28.46	7.03	-31.1	-36.5	5.2	1.18e+00	0	41	0	0	22	6747
2026-01-28 22:53:09.57	28.55	7.09	-31.8	-39.5	4.7	1.31e+00	0	41	104	0	23	8689
2026-01-28 22:53:10.57	28.63	7.16	-31.8	-39.0	6.7	2.48e-01	0	41	0	0	23	8326
2026-01-28 22:53:11.58	28.72	7.22	-31.8	-39.0	6.8	1.73e-01	0	41	0	1048576	23	8282
2026-01-28 22:53:12.59	28.81	7.29	-31.7	-38.8	7.0	2.02e-01	0	41	0	3145728	23	8119
2026-01-28 22:53:13.60	28.90	7.36	-31.6	-38.1	7.5	1.33e-01	0	41	0	5242880	23	7597
2026-01-28 22:53:14.60	28.99	7.42	-31.4	-37.3	8.2	8.07e-02	0	41	0	7340032	23	7045
2026-01-28 22:53:15.60	29.07	7.49	-31.2	-36.3	9.0	2.79e-02	0	41	0	9437184	23	6456
2026-01-28 22:53:16.60	29.16	7.55	-31.1	-36.2	9.4	2.09e-02	0	41	0	10485760	22	6500
2026-01-28 22:53:17.59	29.25	7.62	-30.9	-35.5	10.0	1.28e-02	0	41	0	12582912	22	6120
2026-01-28 22:53:18.60	29.34	7.69	-30.9	-35.3	10.2	7.34e-03	0	41	0	14680064	22	6021
2026-01-28 22:53:19.61	29.43	7.75	-30.8	-35.8	10.2	5.82e-03	0	41	0	16777216	21	6381
2026-01-28 22:53:20.62	29.52	7.82	-30.8	-35.6	10.4	6.99e-03	0	41	0	18874368	21	6268
2026-01-28 22:53:21.63	29.61	7.89	-30.6	-34.8	10.9	2.68e-03	0	41	0	19922944	21	5889
2026-01-28 22:53:22.63	29.70	7.95	-30.5	-34.5	11.2	1.41e-03	0	41	0	22020096	21	5727
2026-01-28 22:53:23.64	29.80	8.02	-30.5	-35.0	11.2	1.32e-03	0	41	0	24117248	20	6085
2026-01-28 22:53:24.65	29.89	8.09	-30.7	-35.2	10.7	1.62e-03	0	41	0	26214400	21	6045
2026-01-28 22:53:25.65	29.98	8.16	-30.7	-35.2	10.7	3.29e-03	0	41	0	28311552	21	6036
2026-01-28 22:53:26.65	30.07	8.22	-30.7	-35.1	10.7	2.03e-03	0	42	0	29360128	21	6005
2026-01-28 22:53:27.65	30.17	8.29	-30.7	-35.0	10.8	2.98e-03	0	41	0	31457280	21	5968
2026-01-28 22:53:28.65	30.26	8.36	-30.6	-34.8	11.0	1.85e-03	0	41	0	33554432	21	5862
2026-01-28 22:53:29.66	30.35	8.43	-30.5	-34.6	11.2	1.45e-03	0	41	0	35651584	21	5775
2026-01-28 22:53:30.66	30.45	8.49	-30.5	-34.5	11.3	1.31e-03	0	42	0	36700160	21	5716
2026-01-28 22:53:31.66	30.54	8.56	-30.5	-34.6	11.2	1.13e-03	0	42	0	38797312	21	5769
2026-01-28 22:53:32.66	30.64	8.63	-30.6	-34.9	11.0	1.66e-03	0	42	0	40894464	21	5905
2026-01-28 22:53:33.67	30.73	8.70	-30.6	-34.9	10.9	1.19e-03	0	42	0	42991616	21	5869
2026-01-28 22:53:34.67	30.83	8.77	-30.5	-34.6	11.2	1.97e-03	0	42	0	45088768	21	5753
2026-01-28 22:53:35.67	30.92	8.83	-30.4	-34.1	11.6	7.26e-04	0	42	0	46137344	21	5504
2026-01-28 22:53:36.67	31.02	8.90	-30.3	-34.3	11.9	4.69e-04	0	42	0	48234496	20	5714
2026-01-28 22:53:37.68	31.12	8.97	-30.2	-34.2	12.0	5.07e-04	0	42	0	50331648	20	5653
2026-01-28 22:53:38.69	31.22	9.04	-30.4	-34.7	11.6	6.32e-04	0	42	0	52428800	20	5899
2026-01-28 22:53:39.69	31.32	9.11	-30.4	-34.2	11.5	9.54e-04	0	42	0	54525952	21	5565
2026-01-28 22:53:40.70	31.41	9.18	-30.5	-34.8	11.5	9.66e-04	0	42	0	55574528	20	5941
2026-01-28 22:53:41.70	31.51	9.25	-30.5	-34.5	11.4	9.45e-04	0	42	0	57671680	21	5707
2026-01-28 22:53:42.71	31.61	9.32	-30.4	-34.1	11.6	1.34e-03	0	42	0	59768832	21	5525
2026-01-28 22:53:43.71	31.71	9.39	-30.4	-34.5	11.7	5.51e-04	0	42	0	61865984	20	5809
2026-01-28 22:53:44.72	31.81	9.46	-30.3	-34.3	11.9	5.55e-04	0	42	0	63963136	20	5702
2026-01-28 22:53:45.73	31.92	9.53	-30.4	-34.7	11.6	1.15e-03	0	42	0	65011712	20	5907
2026-01-28 22:53:46.73	32.02	9.60	-30.3	-34.4	11.8	6.51e-04	0	42	0	67108864	20	5767
2026-01-28 22:53:47.73	32.12	9.67	-30.1	-33.6	12.4	2.71e-04	0	42	0	69206016	20	5377
2026-01-28 22:53:48.74	32.22	9.74	-30.0	-33.3	12.6	7.94e-04	0	42	0	71303168	20	5285
2026-01-28 22:53:49.74	32.32	9.81	-29.9	-33.2	12.7	7.86e-04	0	42	0	73400320	20	5240
2026-01-28 22:53:50.75	32.43	9.88	-30.0	-33.3	12.7	7.55e-05	0	42	0	74448896	20	5260
2026-01-28 22:53:51.75	32.53	9.95	-29.9	-33.2	12.8	7.47e-05	0	42	0	76546048	20	5230
2026-01-28 22:53:52.75	32.64	10.02	-29.9	-33.2	12.7	6.02e-04	0	42	0	78643200	20	5223
2026-01-28 22:53:53.75	32.74	10.09	-29.9	-33.1	12.8	7.93e-05	0	42	0	80740352	20	5211
2026-01-28 22:53:54.76	32.85	10.16	-29.9	-33.6	12.9	5.11e-05	0	42	0	82837504	19	5467
2026-01-28 22:53:55.76	32.95	10.23	-29.9	-33.5	13.0	4.60e-04	0	42	0	83886080	19	5448
2026-01-28 22:53:56.77	33.06	10.30	-29.9	-33.5	12.9	4.19e-05	0	42	0	85983232	19	5468
2026-01-28 22:53:57.78	33.16	10.37	-29.9	-33.4	13.0	4.27e-05	0	42	0	88080384	19	5426
2026-01-28 22:53:58.78	33.27	10.44	-29.9	-33.6	12.9	4.22e-04	0	42	0	90177536	19	5505
2026-01-28 22:53:59.78	33.38	10.52	-29.9	-33.0	12.9	5.03e-05	0	42	0	92274688	20	5163
2026-01-28 22:54:00.78	33.49	10.59	-30.0	-33.4	12.7	4.23e-04	0	42	0	93323264	20	5317
2026-01-28 22:54:01.79	33.60	10.66	-30.0	-33.2	12.8	8.08e-05	0	42	0	95420416	20	5229
2026-01-28 22:54:02.79	33.70	10.73	-29.9	-33.1	12.9	6.10e-05	0	42	0	97517568	20	5171
2026-01-28 22:54:03.79	33.81	10.80	-30.0	-33.3	12.7	4.16e-04	0	42	0	99614720	20	5289
2026-01-28 22:54:04.79	33.92	10.87	-29.9	-33.1	12.8	4.21e-04	0	42	0	101711872	20	5205
2026-01-28 22:54:05.80	34.04	10.95	-30.0	-33.3	12.8	7.01e-05	0	42	0	102760448	20	5268
2026-01-28 22:54:06.80	34.15	11.02	-30.1	-33.6	12.6	3.55e-04	0	42	0	104857600	20	5372
2026-01-28 22:54:07.81	34.26	11.09	-30.0	-33.4	12.7	3.93e-04	0	42	0	106954752	20	5312
2026-01-28 22:54:08.81	34.37	11.16	-30.1	-33.6	12.5	1.07e-04	0	42	0	109051904	20	5378
2026-01-28 22:54:09.82	34.48	11.24	-30.1	-33.7	12.5	3.55e-04	0	42	0	111149056	20	5408
2026-01-28 22:54:10.82	34.60	11.31	-30.1	-33.6	12.5	3.39e-04	0	42	0	112197632	20	5404
2026-01-28 22:54:11.82	34.71	11.38	-30.1	-33.7	12.5	1.29e-04	0	42	0	114294784	20	5441
2026-01-28 22:54:12.82	34.82	11.45	-30.2	-33.9	12.3	3.81e-04	0	42	0	116391936	20	5510
2026-01-28 22:54:13.82	34.94	11.53	-30.0	-33.3	12.8	2.57e-04	0	42	0	118489088	20	5261
2026-01-28 22:54:14.83	35.06	11.60	-30.2	-33.8	12.5	1.20e-04	0	42	0	119537664	20	5456
2026-01-28 22:54:15.84	35.17	11.67	-30.2	-33.8	12.5	1.44e-04	0	42	0	121634816	20	5457
2026-01-28 22:54:16.84	35.29	11.75	-30.2	-33.9	12.3	3.53e-04	0	42	0	123731968	20	5519
2026-01-28 22:54:17.84	35.41	11.82	-30.1	-33.6	12.6	1.46e-04	0	43	0	125829120	20	5368
2026-01-28 22:54:18.85	35.52	11.89	-30.0	-33.2	12.9	7.55e-05	0	43	0	127926272	20	5240
2026-01-28 22:54:19.85	35.64	11.97	-29.9	-33.1	12.9	2.61e-04	0	43	0	128974848	20	5193
2026-01-28 22:54:20.86	35.76	12.04	-29.9	-33.0	13.1	2.59e-05	0	42	0	131072000	20	5137
2026-01-28 22:54:21.86	35.88	12.12	-29.8	-32.8	13.2	2.04e-04	0	42	0	133169152	20	5051
2026-01-28 22:54:22.86	36.00	12.19	-29.8	-32.7	13.3	1.83e-05	0	42	0	135266304	20	5011
2026-01-28 22:54:23.86	36.12	12.26	-29.8	-32.8	13.2	1.90e-05	0	43	0	137363456	20	5056
2026-01-28 22:54:24.87	36.24	12.34	-30.0	-33.6	13.1	2.01e-04	0	43	0	138412032	19	5474
2026-01-28 22:54:25.87	36.36	12.41	-29.9	-33.3	13.2	1.83e-05	0	43	0	140509184	19	5365
2026-01-28 22:54:26.87	36.49	12.49	-29.9	-33.5	13.1	2.67e-05	0	43	0	142606336	19	5421
2026-01-28 22:54:27.88	36.61	12.56	-30.0	-33.2	13.0	1.77e-04	0	43	0	144703488	20	5201
2026-01-28 22:54:28.88	36.73	12.64	-30.2	-34.0	12.4	1.01e-04	0	43	0	146800640	20	5517
2026-01-28 22:54:29.88	36.86	12.71	-30.1	-33.6	12.6	1.33e-04	0	43	0	147849216	20	5365
2026-01-28 22:54:30.89	36.98	12.79	-30.2	-33.9	12.5	2.11e-04	0	43	0	149946368	20	5478
2026-01-28 22:54:31.89	37.11	12.86	-30.4	-34.5	12.1	2.29e-04	0	42	0	152043520	20	5761
2026-01-28 22:54:32.89	37.23	12.94	-30.2	-33.9	12.4	1.80e-04	0	43	0	154140672	20	5512
2026-01-28 22:54:33.89	37.36	13.01	-30.0	-33.3	12.9	6.10e-05	0	43	0	156237824	20	5244
2026-01-28 22:54:34.89	37.49	13.09	-29.9	-32.8	13.2	8.16e-05	0	43	0	157286400	20	5057
2026-01-28 22:54:35.89	37.61	13.16	-29.8	-32.5	13.4	9.10e-06	0	43	0	159383552	20	4959
2026-01-28 22:54:36.89	37.74	13.24	-29.8	-32.6	13.4	1.29e-05	0	43	0	161480704	20	4980
2026-01-28 22:54:37.89	37.87	13.31	-29.8	-32.5	13.4	1.60e-05	0	43	0	163577856	20	4959
2026-01-28 22:54:38.90	38.00	13.39	-29.7	-32.3	13.6	1.44e-05	0	43	0	164626432	20	4867
2026-01-28 22:54:39.91	38.13	13.47	-29.6	-32.1	13.7	4.50e-06	0	43	0	166723584	20	4804
2026-01-28 22:54:40.91	38.26	13.54	-29.7	-32.3	13.6	8.30e-06	0	43	0	168820736	20	4876
2026-01-28 22:54:41.91	38.39	13.62	-29.7	-32.4	13.6	9.10e-06	0	43	0	170917888	20	4909
2026-01-28 22:54:42.91	38.53	13.69	-29.7	-32.5	13.5	1.67e-05	0	43	0	173015040	20	4939
2026-01-28 22:54:43.92	38.66	13.77	-29.7	-32.4	13.5	2.59e-05	0	43	0	175112192	20	4915
2026-01-28 22:54:44.93	38.79	13.85	-29.7	-32.4	13.6	9.10e-06	0	43	0	176160768	20	4894
2026-01-28 22:54:45.93	38.93	13.93	-29.8	-32.5	13.5	2.05e-05	0	43	0	178257920	20	4942
2026-01-28 22:54:46.93	39.06	14.00	-29.7	-32.3	13.6	2.74e-05	0	43	0	180355072	20	4875
2026-01-28 22:54:47.93	39.20	14.08	-29.7	-32.5	13.5	9.90e-06	0	43	0	182452224	20	4930
2026-01-28 22:54:48.93	39.33	14.15	-29.8	-32.7	13.3	9.90e-06	0	43	0	183500800	20	5030
2026-01-28 22:54:49.93	39.47	14.23	-29.7	-32.4	13.5	1.52e-05	0	43	0	185597952	20	4913
2026-01-28 22:54:50.94	39.61	14.31	-29.7	-32.2	13.7	4.50e-06	0	43	0	187695104	20	4838
2026-01-28 22:54:51.94	39.75	14.39	-29.6	-32.2	13.7	8.30e-06	0	43	0	189792256	20	4824
2026-01-28 22:54:52.94	39.89	14.46	-29.7	-32.2	13.7	1.90e-05	0	43	0	191889408	20	4834
2026-01-28 22:54:53.94	40.03	14.54	-29.7	-32.4	13.6	1.06e-05	0	43	0	192937984	20	4881
2026-01-28 22:54:54.95	40.17	14.62	-29.8	-32.6	13.5	9.90e-06	0	43	0	195035136	20	4961
2026-01-28 22:54:55.95	40.31	14.70	-29.7	-32.2	13.7	2.59e-05	0	43	0	197132288	20	4840
2026-01-28 22:54:56.95	40.45	14.77	-29.6	-31.9	13.9	3.80e-06	0	43	0	199229440	20	4729
2026-01-28 22:54:57.95	40.59	14.85	-29.5	-31.9	14.0	3.80e-06	0	43	0	201326592	20	4714
2026-01-28 22:54:58.96	40.74	14.93	-29.6	-32.0	13.9	7.00e-07	0	43	0	202375168	20	4764
2026-01-28 22:54:59.95	40.88	15.01	-29.6	-32.0	13.9	2.20e-06	0	43	0	204472320	20	4737
2026-01-28 22:55:00.96	41.02	15.08	-29.6	-31.9	14.0	5.30e-06	0	43	0	206569472	20	4720
2026-01-28 22:55:01.96	41.17	15.16	-29.6	-32.0	13.9	3.80e-06	0	43	0	208666624	20	4767
2026-01-28 22:55:02.96	41.32	15.24	-29.5	-31.9	14.0	6.10e-06	0	43	0	209715200	20	4709
2026-01-28 22:55:03.97	41.46	15.32	-29.5	-31.8	14.0	1.50e-06	0	43	0	211812352	20	4679
2026-01-28 22:55:04.97	41.61	15.40	-29.7	-32.2	13.7	3.00e-06	0	43	0	213909504	20	4837
2026-01-28 22:55:05.98	41.76	15.48	-29.5	-31.8	14.0	5.30e-06	0	43	0	216006656	20	4700
2026-01-28 22:55:06.98	41.91	15.55	-29.5	-31.8	14.0	1.50e-06	0	43	0	218103808	20	4674
2026-01-28 22:55:07.98	42.06	15.63	-29.5	-31.8	14.0	1.50e-06	0	43	0	220200960	20	4700
2026-01-28 22:55:08.99	42.21	15.71	-29.4	-31.6	14.1	2.20e-06	0	43	0	221249536	20	4621
2026-01-28 22:55:09.99	42.36	15.79	-29.4	-31.5	14.2	0.00e+00	0	43	0	223346688	20	4593
2026-01-28 22:55:10.99	42.51	15.87	-29.5	-31.6	14.2	1.50e-06	0	43	0	225443840	20	4625
2026-01-28 22:55:11.99	42.67	15.95	-29.4	-31.5	14.3	7.00e-07	0	43	0	227540992	20	4586
2026-01-28 22:55:12.99	42.82	16.03	-29.3	-31.3	14.4	7.00e-07	0	43	0	228589568	20	4513
2026-01-28 22:55:13.99	42.97	16.10	-29.4	-31.5	14.3	7.00e-07	0	43	0	230686720	20	4569
2026-01-28 22:55:15.00	43.13	16.18	-29.3	-31.3	14.4	0.00e+00	0	43	0	232783872	20	4497
2026-01-28 22:55:16.00	43.29	16.26	-29.4	-31.9	14.4	0.00e+00	0	43	0	234881024	19	4802
2026-01-28 22:55:17.01	43.45	16.34	-29.4	-31.8	14.5	0.00e+00	0	43	0	236978176	19	4777
2026-01-28 22:55:18.02	43.60	16.42	-29.3	-31.6	14.6	0.00e+00	0	43	0	238026752	19	4720
2026-01-28 22:55:19.03	43.76	16.50	-29.3	-31.7	14.5	7.00e-07	0	43	0	240123904	19	4740
2026-01-28 22:55:20.03	43.92	16.58	-29.3	-31.6	14.7	0.00e+00	0	43	0	242221056	19	4689
2026-01-28 22:55:21.04	44.09	16.66	-29.2	-31.5	14.7	0.00e+00	0	43	0	244318208	19	4671
2026-01-28 22:55:22.03	44.24	16.74	-29.3	-31.5	14.6	0.00e+00	0	43	0	246415360	19	4684
2026-01-28 22:55:23.04	44.41	16.82	-29.2	-31.4	14.7	7.00e-07	0	43	0	247463936	19	4648
2026-01-28 22:55:24.04	44.57	16.90	-29.1	-31.2	14.9	7.00e-07	0	43	0	249561088	19	4586
2026-01-28 22:55:25.04	44.73	16.98	-29.3	-31.7	14.6	0.00e+00	0	43	0	251658240	19	4736
2026-01-28 22:55:26.05	44.90	17.06	-29.2	-31.5	14.7	7.00e-07	0	43	0	253755392	19	4667
2026-01-28 22:55:27.05	45.06	17.14	-29.3	-31.5	14.7	7.00e-07	0	43	0	255852544	19	4683
2026-01-28 22:55:28.05	45.23	17.22	-29.3	-31.6	14.6	7.00e-07	0	43	0	256901120	19	4718
2026-01-28 22:55:29.05	45.40	17.30	-29.3	-31.6	14.7	1.50e-06	0	43	0	258998272	19	4709
2026-01-28 22:55:30.04	45.56	17.38	-29.3	-31.7	14.6	0.00e+00	0	43	0	261095424	19	4744
2026-01-28 22:55:31.05	45.73	17.46	-29.3	-31.8	14.5	0.00e+00	0	43	0	263192576	19	4756
2026-01-28 22:55:32.05	45.90	17.54	-29.4	-31.9	14.5	0.00e+00	0	43	0	265289728	19	4806
2026-01-28 22:55:33.06	46.07	17.62	-29.5	-32.1	14.4	7.00e-07	0	43	0	266338304	19	4858
2026-01-28 22:55:34.06	46.24	17.70	-29.4	-31.9	14.5	0.00e+00	0	43	0	268435456	19	4805
2026-01-28 22:55:35.07	46.42	17.78	-29.5	-32.0	14.4	0.00e+00	0	43	0	270532608	19	4832
2026-01-28 22:55:36.07	46.59	17.86	-29.5	-32.1	14.4	7.00e-07	0	43	0	272629760	19	4873
2026-01-28 22:55:37.07	46.76	17.93	-29.5	-32.2	14.3	0.00e+00	0	43	0	274726912	19	4893
2026-01-28 22:55:38.08	46.94	18.02	-29.6	-32.4	14.2	1.50e-06	0	43	0	275775488	19	4985
2026-01-28 22:55:39.07	47.11	18.09	-29.7	-32.6	14.1	7.00e-07	0	43	0	277872640	19	5028
2026-01-28 22:55:40.08	47.29	18.17	-29.7	-32.8	14.0	3.00e-06	0	43	0	279969792	19	5099
2026-01-28 22:55:41.08	47.47	18.25	-29.6	-32.4	14.2	0.00e+00	0	43	0	282066944	19	4963
2026-01-28 22:55:42.08	47.65	18.33	-29.5	-32.2	14.4	3.00e-06	0	43	0	283115520	19	4887
2026-01-28 22:55:43.09	47.83	18.41	-29.5	-32.2	14.4	1.50e-06	0	43	0	285212672	19	4877
2026-01-28 22:55:44.10	48.01	18.49	-29.5	-32.2	14.4	7.00e-07	0	43	0	287309824	19	4884
2026-01-28 22:55:45.10	48.19	18.57	-29.4	-31.8	14.6	7.00e-07	0	43	0	289406976	19	4751
2026-01-28 22:55:46.10	48.37	18.65	-29.4	-31.8	14.6	0.00e+00	0	43	0	291504128	19	4756
2026-01-28 22:55:47.10	48.56	18.73	-29.4	-31.9	14.5	0.00e+00	0	43	0	292552704	19	4802
2026-01-28 22:55:48.10	48.74	18.81	-29.4	-31.7	14.7	7.00e-07	0	43	0	294649856	19	4735
2026-01-28 22:55:49.10	48.92	18.89	-29.3	-31.7	14.7	0.00e+00	0	43	0	296747008	19	4711
2026-01-28 22:55:50.11	49.11	18.97	-29.3	-31.5	14.8	0.00e+00	0	43	0	298844160	19	4648
2026-01-28 22:55:51.12	49.30	19.05	-29.4	-31.8	14.6	0.00e+00	0	43	0	300941312	19	4753
2026-01-28 22:55:52.12	49.49	19.13	-29.4	-31.8	14.6	0.00e+00	0	43	0	301989888	19	4752
2026-01-28 22:55:53.12	49.68	19.21	-29.1	-31.1	15.1	7.00e-07	0	43	0	304087040	19	4513
2026-01-28 22:55:54.12	49.87	19.29	-29.0	-30.8	15.0	0.00e+00	0	43	0	306184192	19	4440
2026-01-28 22:55:55.11	50.05	19.37	-29.1	-31.0	15.2	7.00e-07	0	43	0	308281344	19	4486
2026-01-28 22:55:56.11	50.25	19.45	-29.2	-31.2	15.0	0.00e+00	0	43	0	310378496	19	4571
2026-01-28 22:55:57.11	50.44	19.53	-28.9	-30.7	15.3	0.00e+00	0	43	0	311427072	19	4391
2026-01-28 22:55:58.12	50.63	19.61	-28.7	-30.7	15.7	0.00e+00	0	43	0	313524224	18	4493
2026-01-28 22:55:59.12	50.83	19.69	-28.8	-30.8	15.6	0.00e+00	0	43	0	315621376	18	4536
2026-01-28 22:56:00.12	51.02	19.77	-28.7	-30.7	15.7	0.00e+00	0	43	0	317718528	18	4505
2026-01-28 22:56:01.12	51.22	19.84	-28.7	-30.7	15.7	0.00e+00	0	43	0	319815680	18	4501
2026-01-28 22:56:02.12	51.42	19.92	-28.8	-30.9	15.5	0.00e+00	0	43	0	320864256	18	4554
2026-01-28 22:56:03.12	51.61	20.00	-28.7	-30.5	15.8	0.00e+00	0	43	0	322961408	18	4432
2026-01-28 22:56:04.13	51.82	20.08	-28.6	-30.2	15.9	1.52e-05	0	43	0	325058560	18	4363
2026-01-28 22:56:05.14	52.02	20.16	-28.6	-30.4	15.8	0.00e+00	0	43	0	327155712	18	4421
2026-01-28 22:56:06.14	52.22	20.24	-28.7	-30.5	15.7	0.00e+00	0	43	0	329252864	18	4440
2026-01-28 22:56:07.15	52.42	20.32	-28.7	-30.5	15.7	0.00e+00	0	43	0	330301440	18	4458
2026-01-28 22:56:08.15	52.63	20.40	-28.6	-30.4	15.8	0.00e+00	0	43	0	332398592	18	4423
2026-01-28 22:56:09.16	52.83	20.48	-28.6	-30.3	15.8	0.00e+00	0	43	0	334495744	18	4400
2026-01-28 22:56:10.16	53.04	20.55	-28.8	-31.4	15.5	0.00e+00	0	43	0	336592896	17	4836
2026-01-28 22:56:11.16	53.24	20.63	-28.7	-31.1	15.7	0.00e+00	0	43	0	337641472	17	4750
2026-01-28 22:56:12.16	53.45	20.71	-28.9	-31.5	15.4	0.00e+00	0	43	0	339738624	17	4886
2026-01-28 22:56:13.17	53.66	20.79	-28.7	-31.1	15.7	0.00e+00	0	43	0	341835776	17	4733
2026-01-28 22:56:14.17	53.87	20.86	-28.8	-31.2	15.6	0.00e+00	0	43	0	343932928	17	4791
2026-01-28 22:56:15.17	54.08	20.94	-28.8	-31.4	15.5	0.00e+00	0	43	0	346030080	17	4831
2026-01-28 22:56:16.17	54.29	21.02	-28.9	-31.6	15.4	0.00e+00	0	43	0	347078656	17	4914
2026-01-28 22:56:17.17	54.51	21.10	-28.9	-31.5	15.5	0.00e+00	0	43	0	349175808	17	4884
2026-01-28 22:56:18.17	54.72	21.17	-28.9	-31.7	15.4	2.36e-05	0	43	0	351272960	17	4936
2026-01-28 22:56:19.17	54.93	21.25	-28.8	-31.4	15.5	0.00e+00	0	43	0	353370112	17	4824
2026-01-28 22:56:20.17	55.15	21.33	-28.7	-31.0	15.8	0.00e+00	0	43	0	355467264	17	4719
2026-01-28 22:56:21.17	55.37	21.40	-28.6	-30.9	15.9	0.00e+00	0	43	0	356515840	17	4658
2026-01-28 22:56:22.18	55.59	21.48	-28.7	-31.0	15.8	0.00e+00	0	43	0	358612992	17	4697
2026-01-28 22:56:23.18	55.80	21.56	-28.7	-31.2	15.7	0.00e+00	0	43	0	360710144	17	4763
2026-01-28 22:56:24.19	56.03	21.63	-28.7	-31.0	15.8	0.00e+00	0	43	0	362807296	17	4705
2026-01-28 22:56:25.19	56.25	21.71	-28.7	-31.1	15.8	0.00e+00	0	43	0	364904448	17	4729
2026-01-28 22:56:26.19	56.47	21.78	-28.9	-31.4	15.5	0.00e+00	0	43	0	365953024	17	4846
2026-01-28 22:56:27.19	56.69	21.86	-28.9	-31.5	15.5	0.00e+00	0	43	0	368050176	17	4872
2026-01-28 22:56:28.19	56.92	21.93	-28.9	-31.6	15.5	0.00e+00	0	43	0	370147328	17	4906
2026-01-28 22:56:29.19	57.14	22.01	-28.9	-31.6	15.5	0.00e+00	0	43	0	372244480	17	4885
2026-01-28 22:56:30.19	57.37	22.08	-28.9	-31.6	15.4	0.00e+00	0	43	0	374341632	17	4908
2026-01-28 22:56:31.20	57.60	22.16	-29.1	-31.6	15.2	0.00e+00	0	43	0	375390208	18	4768
2026-01-28 22:56:32.20	57.83	22.23	-29.3	-32.0	14.9	0.00e+00	0	43	0	377487360	18	4938
2026-01-28 22:56:33.21	58.06	22.31	-29.3	-32.0	15.0	4.42e-05	0	43	0	379584512	18	4926
2026-01-28 22:56:34.21	58.29	22.38	-29.3	-32.1	14.9	0.00e+00	0	43	0	381681664	18	4937
2026-01-28 22:56:35.21	58.52	22.45	-29.4	-32.2	14.8	0.00e+00	0	43	0	382730240	18	4992
2026-01-28 22:56:36.22	58.76	22.53	-29.4	-32.4	14.8	0.00e+00	0	43	0	384827392	18	5037
2026-01-28 22:56:37.22	58.99	22.60	-29.5	-32.1	14.6	0.00e+00	0	43	0	386924544	19	4844
2026-01-28 22:56:38.23	59.23	22.67	-29.4	-31.9	14.7	0.00e+00	0	43	0	389021696	19	4762
2026-01-28 22:56:39.23	59.46	22.75	-29.5	-32.0	14.7	6.17e-05	0	43	0	391118848	19	4795
2026-01-28 22:56:40.24	59.70	22.82	-29.4	-31.8	14.8	9.23e-05	0	43	0	392167424	19	4730
2026-01-28 22:56:41.24	59.94	22.89	-29.3	-31.5	14.9	0.00e+00	0	43	0	394264576	19	4643
2026-01-28 22:56:42.24	60.18	22.96	-29.3	-31.4	15.1	4.73e-05	0	43	0	396361728	19	4621
2026-01-28 22:56:43.25	60.42	23.03	-29.2	-31.4	15.1	1.75e-05	0	43	0	398458880	19	4601
2026-01-28 22:56:44.25	60.66	23.11	-29.2	-31.1	15.2	0.00e+00	0	43	0	400556032	19	4529
2026-01-28 22:56:45.26	60.91	23.18	-29.3	-31.4	15.0	4.65e-05	0	43	0	401604608	19	4616
2026-01-28 22:56:46.26	61.15	23.25	-29.4	-31.7	14.9	4.27e-05	0	43	0	403701760	19	4694
2026-01-28 22:56:47.26	61.40	23.32	-29.4	-31.8	14.8	0.00e+00	0	43	0	405798912	19	4745
2026-01-28 22:56:48.27	61.64	23.39	-29.5	-32.0	14.7	0.00e+00	0	43	0	407896064	19	4812
2026-01-28 22:56:49.27	61.89	23.46	-29.5	-32.0	14.7	2.70e-04	0	43	0	409993216	19	4800
2026-01-28 22:56:50.28	62.14	23.52	-29.4	-31.8	14.8	0.00e+00	0	43	0	411041792	19	4749
2026-01-28 22:56:51.28	62.39	23.59	-29.4	-32.2	14.9	3.66e-04	0	43	0	413138944	18	5001
2026-01-28 22:56:52.28	62.64	23.66	-29.3	-32.1	14.9	3.97e-04	0	43	0	415236096	18	4964
2026-01-28 22:56:53.28	62.89	23.73	-29.5	-32.1	14.6	0.00e+00	0	43	0	417333248	19	4853
2026-01-28 22:56:54.28	63.14	23.80	-29.7	-32.6	14.3	4.35e-04	0	43	0	419430400	19	5014
2026-01-28 22:56:55.28	63.40	23.86	-29.6	-32.2	14.6	0.00e+00	0	43	0	420478976	19	4872
2026-01-28 22:56:56.28	63.65	23.93	-29.7	-32.5	14.4	7.00e-07	0	43	0	422576128	19	4978
2026-01-28 22:56:57.29	63.91	24.00	-29.9	-33.1	14.0	4.00e-04	0	43	0	424673280	19	5189
2026-01-28 22:56:58.29	64.16	24.06	-30.0	-33.3	13.9	3.31e-04	0	43	0	426770432	19	5273
2026-01-28 22:56:59.29	64.42	24.13	-30.1	-33.1	13.6	3.00e-06	0	43	0	428867584	20	5113
2026-01-28 22:57:00.29	64.68	24.19	-30.3	-33.7	13.3	1.46e-04	0	43	0	429916160	20	5315
2026-01-28 22:57:01.29	64.94	24.26	-30.2	-33.5	13.4	1.33e-04	0	43	0	432013312	20	5236
2026-01-28 22:57:02.29	65.20	24.32	-30.1	-33.1	13.6	1.29e-05	0	43	0	434110464	20	5115
2026-01-28 22:57:03.29	65.46	24.38	-30.1	-33.1	13.6	7.47e-05	0	43	0	436207616	20	5116
2026-01-28 22:57:04.29	65.72	24.45	-30.0	-33.0	13.7	4.42e-05	0	43	0	437256192	20	5065
2026-01-28 22:57:05.29	65.99	24.51	-30.2	-33.4	13.4	1.75e-05	0	43	0	439353344	20	5219
2026-01-28 22:57:06.30	66.25	24.57	-30.1	-33.1	13.6	7.60e-06	0	43	0	441450496	20	5092
2026-01-28 22:57:07.30	66.52	24.63	-30.2	-33.5	13.4	2.67e-05	0	44	0	443547648	20	5251
2026-01-28 22:57:08.31	66.79	24.69	-30.3	-33.6	13.3	1.75e-05	0	43	0	445644800	20	5290
2026-01-28 22:57:09.31	67.06	24.75	-30.5	-33.7	12.8	2.89e-05	0	43	0	446693376	21	5226
2026-01-28 22:57:10.31	67.33	24.81	-30.5	-33.9	12.7	4.95e-05	0	43	0	448790528	21	5297
2026-01-28 22:57:11.31	67.60	24.87	-30.7	-34.3	12.5	1.05e-04	0	43	0	450887680	21	5458
2026-01-28 22:57:12.31	67.87	24.93	-30.8	-34.6	12.3	1.91e-04	0	43	0	452984832	21	5578
2026-01-28 22:57:13.31	68.14	24.99	-30.8	-34.6	12.2	2.91e-04	0	44	0	455081984	21	5610
2026-01-28 22:57:14.31	68.41	25.05	-30.7	-34.3	12.4	1.40e-04	0	43	0	456130560	21	5460
2026-01-28 22:57:15.32	68.69	25.11	-30.7	-34.2	12.5	1.16e-04	0	43	0	458227712	21	5429
2026-01-28 22:57:16.32	68.96	25.16	-30.6	-33.9	12.7	7.85e-05	0	43	0	460324864	21	5289
2026-01-28 22:57:17.32	69.24	25.22	-30.4	-33.5	13.0	4.57e-05	0	43	0	462422016	21	5152
2026-01-28 22:57:18.33	69.52	25.28	-30.5	-33.8	12.9	4.19e-05	0	43	0	464519168	21	5248
2026-01-28 22:57:19.34	69.80	25.33	-30.7	-34.2	12.6	9.68e-05	0	43	0	465567744	21	5412
2026-01-28 22:57:20.34	70.08	25.39	-30.7	-34.4	12.5	1.14e-04	0	43	0	467664896	21	5474
2026-01-28 22:57:21.34	70.36	25.44	-31.0	-34.8	11.8	2.34e-04	0	43	0	469762048	22	5562
2026-01-28 22:57:22.34	70.64	25.49	-31.3	-35.5	11.4	8.60e-04	0	43	0	471859200	22	5867
2026-01-28 22:57:23.35	70.92	25.55	-31.5	-36.2	10.8	2.00e-03	0	43	0	473956352	22	6212
2026-01-28 22:57:24.35	71.20	25.60	-31.5	-35.9	10.6	3.19e-03	0	43	0	475004928	23	5954
2026-01-28 22:57:25.36	71.49	25.65	-31.6	-36.0	10.6	3.19e-03	0	43	0	477102080	23	6024
2026-01-28 22:57:26.36	71.77	25.70	-31.5	-36.0	10.6	3.25e-03	0	43	0	479199232	23	5989
2026-01-28 22:57:27.36	72.06	25.75	-31.5	-35.7	10.8	3.99e-03	0	43	0	481296384	23	5868
2026-01-28 22:57:28.37	72.35	25.80	-31.2	-34.7	11.6	1.40e-03	0	43	0	483393536	23	5402
2026-01-28 22:57:29.37	72.63	25.85	-30.9	-33.7	12.2	2.64e-04	0	43	0	484442112	23	5016
2026-01-28 22:57:30.38	72.92	25.90	-30.7	-33.9	12.5	1.48e-04	0	43	0	486539264	22	5176
2026-01-28 22:57:31.38	73.21	25.95	-30.8	-34.0	12.5	1.26e-04	0	43	0	488636416	22	5202
2026-01-28 22:57:32.38	73.50	25.99	-30.9	-34.2	12.2	1.56e-04	0	43	0	490733568	22	5305
2026-01-28 22:57:33.37	73.79	26.04	-30.9	-34.5	12.0	2.78e-04	0	43	0	492830720	22	5425
2026-01-28 22:57:34.38	74.08	26.09	-31.0	-34.6	12.0	2.46e-04	0	43	0	493879296	22	5480
2026-01-28 22:57:35.37	74.37	26.13	-31.1	-34.8	11.8	5.76e-04	0	43	0	495976448	22	5560
2026-01-28 22:57:36.37	74.67	26.17	-31.0	-34.7	12.0	3.71e-04	0	43	0	498073600	22	5503
2026-01-28 22:57:37.37	74.96	26.22	-30.9	-34.5	12.0	3.21e-04	0	43	0	500170752	22	5414
2026-01-28 22:57:38.38	75.26	26.26	-30.9	-34.4	12.1	2.74e-04	0	43	0	501219328	22	5380
2026-01-28 22:57:39.38	75.55	26.30	-30.9	-34.5	12.1	2.90e-04	0	43	0	503316480	22	5420
2026-01-28 22:57:40.38	75.85	26.34	-30.8	-34.1	12.4	1.62e-04	0	43	0	505413632	22	5272
2026-01-28 22:57:41.39	76.15	26.38	-30.9	-34.3	12.2	2.17e-04	0	43	0	507510784	22	5354
2026-01-28 22:57:42.39	76.44	26.42	-30.9	-34.4	12.2	3.18e-04	0	43	0	509607936	22	5366
2026-01-28 22:57:43.39	76.74	26.46	-30.7	-33.7	12.6	9.23e-05	0	43	0	510656512	22	5083
2026-01-28 22:57:44.39	77.04	26.50	-30.7	-33.6	12.7	6.33e-05	0	43	0	512753664	22	5071
2026-01-28 22:57:45.39	77.34	26.54	-30.7	-33.7	12.6	8.16e-05	0	43	0	514850816	22	5112
2026-01-28 22:57:46.39	77.64	26.57	-30.7	-33.7	12.7	8.31e-05	0	44	0	516947968	22	5086
2026-01-28 22:57:47.38	77.94	26.61	-30.5	-33.3	12.9	5.95e-05	0	43	0	519045120	22	4944
2026-01-28 22:57:48.39	78.24	26.65	-30.4	-32.8	13.2	2.97e-05	0	43	0	520093696	22	4779
2026-01-28 22:57:49.39	78.54	26.68	-30.4	-32.9	13.1	2.82e-05	0	44	0	522190848	22	4803
2026-01-28 22:57:50.40	78.85	26.71	-30.5	-33.1	13.0	2.74e-05	0	43	0	524288000	22	4885
2026-01-28 22:57:51.40	79.15	26.75	-30.5	-33.1	13.0	4.34e-05	0	43	0	526385152	22	4864
2026-01-28 22:57:52.40	79.46	26.78	-30.4	-32.9	13.1	3.35e-05	0	43	0	527433728	22	4815
2026-01-28 22:57:53.40	79.76	26.81	-30.4	-32.9	13.2	2.67e-05	0	43	0	529530880	22	4795
2026-01-28 22:57:54.40	80.07	26.84	-30.4	-33.1	13.1	2.74e-05	0	43	0	531628032	22	4865
2026-01-28 22:57:55.41	80.38	26.87	-30.6	-33.5	12.7	4.42e-05	0	44	0	533725184	22	5036
2026-01-28 22:57:56.41	80.68	26.90	-30.7	-33.8	12.5	8.39e-05	0	43	0	535822336	22	5146
2026-01-28 22:57:57.42	80.99	26.93	-30.8	-34.0	12.4	1.30e-04	0	43	0	536870912	22	5215
2026-01-28 22:57:58.42	81.30	26.95	-30.8	-34.2	12.3	1.68e-04	0	43	0	538968064	22	5291
2026-01-28 22:57:59.42	81.61	26.98	-30.8	-34.2	12.3	1.59e-04	0	43	0	541065216	22	5294
2026-01-28 22:58:00.42	81.92	27.00	-30.9	-34.3	12.2	2.37e-04	0	43	0	543162368	22	5347
2026-01-28 22:58:01.42	82.23	27.03	-30.8	-34.3	12.2	2.37e-04	0	43	0	545259520	22	5329
2026-01-28 22:58:02.42	82.54	27.05	-30.9	-34.4	12.1	2.14e-04	0	43	0	546308096	22	5401
2026-01-28 22:58:03.43	82.85	27.08	-30.8	-34.2	12.3	2.22e-04	0	43	0	548405248	22	5292
2026-01-28 22:58:04.43	83.16	27.10	-30.7	-33.8	12.5	1.12e-04	0	43	0	550502400	22	5156
2026-01-28 22:58:05.44	83.47	27.12	-30.6	-33.4	12.8	9.38e-05	0	43	0	552599552	22	4994
2026-01-28 22:58:06.44	83.78	27.14	-30.5	-33.3	12.9	6.10e-05	0	43	0	554696704	22	4936
2026-01-28 22:58:07.44	84.10	27.16	-30.5	-33.2	12.9	4.95e-05	0	43	0	555745280	22	4927
2026-01-28 22:58:08.44	84.41	27.18	-30.4	-32.9	13.2	2.82e-05	0	43	0	557842432	22	4802
2026-01-28 22:58:09.45	84.72	27.19	-30.4	-32.8	13.3	1.75e-05	0	43	0	559939584	22	4791
2026-01-28 22:58:10.45	85.04	27.21	-30.4	-32.8	13.2	2.74e-05	0	43	0	562036736	22	4789
2026-01-28 22:58:11.45	85.35	27.22	-30.1	-32.8	13.5	1.60e-05	0	43	0	564133888	21	4870
2026-01-28 22:58:12.45	85.66	27.24	-30.2	-33.0	13.3	7.60e-06	0	43	0	565182464	21	4957
2026-01-28 22:58:13.45	85.97	27.25	-30.2	-32.9	13.4	2.36e-05	0	43	0	567279616	21	4924
2026-01-28 22:58:14.45	86.29	27.27	-30.1	-32.7	13.5	1.14e-05	0	43	0	569376768	21	4853
2026-01-28 22:58:15.46	86.61	27.28	-30.2	-32.8	13.5	1.37e-05	0	43	0	571473920	21	4881
2026-01-28 22:58:16.47	86.92	27.29	-30.1	-32.7	13.6	1.60e-05	0	43	0	573571072	21	4837
2026-01-28 22:58:17.47	87.24	27.30	-30.1	-32.8	13.5	9.90e-06	0	44	0	574619648	21	4874
2026-01-28 22:58:18.47	87.55	27.31	-30.2	-32.8	13.5	9.10e-06	0	43	0	576716800	21	4894
2026-01-28 22:58:19.47	87.87	27.32	-30.2	-32.9	13.4	1.44e-05	0	43	0	578813952	21	4903
2026-01-28 22:58:20.47	88.18	27.33	-30.0	-32.3	13.8	7.60e-06	0	43	0	580911104	21	4711
2026-01-28 22:58:21.47	88.50	27.33	-29.8	-31.8	14.1	1.50e-06	0	43	0	583008256	21	4553
2026-01-28 22:58:22.47	88.81	27.34	-29.6	-31.9	14.4	7.00e-07	0	43	0	584056832	20	4661
2026-01-28 22:58:23.48	89.13	27.34	-29.6	-31.9	14.4	7.00e-07	0	43	0	586153984	20	4654
2026-01-28 22:58:24.48	89.45	27.35	-29.7	-31.9	14.4	1.50e-06	0	43	0	588251136	20	4684
2026-01-28 22:58:25.48	89.76	27.35	-29.8	-32.3	14.2	7.00e-07	0	43	0	590348288	20	4798
2026-01-28 22:58:26.48	90.08	27.35	-29.9	-32.6	14.0	3.00e-06	0	43	0	591396864	20	4920
2026-01-28 22:58:27.48	90.39	27.35	-30.1	-33.2	13.6	8.30e-06	0	43	0	593494016	20	5148
2026-01-28 22:58:28.49	90.71	27.35	-30.2	-33.5	13.4	1.52e-05	0	43	0	595591168	20	5235
2026-01-28 22:58:29.50	91.03	27.35	-30.2	-33.5	13.3	1.67e-05	0	43	0	597688320	20	5264
2026-01-28 22:58:30.50	91.35	27.35	-30.2	-33.5	13.4	8.54e-05	0	43	0	599785472	20	5258
2026-01-28 22:58:31.50	91.66	27.35	-30.1	-33.0	13.7	1.44e-05	0	43	0	600834048	20	5064
2026-01-28 22:58:32.50	91.98	27.34	-30.0	-32.9	13.8	1.36e-04	0	43	0	602931200	20	5020
2026-01-28 22:58:33.51	92.30	27.34	-30.0	-33.0	13.7	5.30e-06	0	43	0	605028352	20	5047
2026-01-28 22:58:34.51	92.61	27.33	-30.1	-33.1	13.6	8.30e-06	0	43	0	607125504	20	5107
2026-01-28 22:58:35.51	92.93	27.33	-30.1	-33.2	13.6	1.02e-04	0	43	0	609222656	20	5142
2026-01-28 22:58:36.52	93.24	27.32	-30.4	-33.8	13.2	1.29e-04	0	44	0	610271232	20	5367
2026-01-28 22:58:37.52	93.56	27.31	-30.5	-33.7	12.9	3.05e-05	0	43	0	612368384	21	5219
2026-01-28 22:58:38.52	93.87	27.30	-30.6	-34.0	12.7	9.38e-05	0	43	0	614465536	21	5331
2026-01-28 22:58:39.53	94.19	27.29	-30.6	-34.1	12.6	1.07e-04	0	44	0	616562688	21	5384
2026-01-28 22:58:40.54	94.51	27.28	-30.6	-34.2	12.6	8.92e-05	0	43	0	618659840	21	5403
2026-01-28 22:58:41.54	94.82	27.27	-30.6	-34.0	12.7	7.32e-05	0	43	0	619708416	21	5363
2026-01-28 22:58:42.54	95.14	27.26	-30.5	-33.8	12.9	5.95e-05	0	43	0	621805568	21	5252
2026-01-28 22:58:43.54	95.45	27.24	-30.4	-33.5	13.0	3.58e-05	0	43	0	623902720	21	5138
2026-01-28 22:58:44.54	95.76	27.23	-30.3	-33.3	13.1	2.21e-05	0	44	0	625999872	21	5065
2026-01-28 22:58:45.54	96.08	27.21	-30.5	-33.7	12.9	3.58e-05	0	44	0	628097024	21	5221
2026-01-28 22:58:46.55	96.39	27.20	-30.5	-33.8	12.9	7.78e-05	0	44	0	629145600	21	5235
2026-01-28 22:58:47.55	96.71	27.18	-30.4	-33.5	13.0	3.81e-05	0	43	0	631242752	21	5155
2026-01-28 22:58:48.55	97.02	27.16	-30.6	-34.0	12.7	5.72e-05	0	44	0	633339904	21	5336
2026-01-28 22:58:49.56	97.33	27.14	-30.7	-34.4	12.4	1.09e-04	0	43	0	635437056	21	5494
2026-01-28 22:58:50.56	97.65	27.12	-30.8	-34.5	12.3	1.77e-04	0	43	0	636485632	21	5566
2026-01-28 22:58:51.56	97.96	27.10	-30.9	-35.0	12.0	2.81e-04	0	44	0	638582784	21	5757
2026-01-28 22:58:52.56	98.27	27.08	-30.9	-35.0	12.0	3.52e-04	0	43	0	640679936	21	5772
2026-01-28 22:58:53.57	98.58	27.06	-30.8	-34.9	12.0	3.11e-04	0	44	0	642777088	21	5744
2026-01-28 22:58:54.58	98.89	27.03	-30.7	-34.4	12.4	2.08e-04	0	43	0	644874240	21	5535
2026-01-28 22:58:55.59	99.21	27.01	-30.4	-33.6	12.9	7.40e-05	0	44	0	646971392	21	5182
2026-01-28 22:58:56.59	99.52	26.98	-30.2	-32.9	13.4	2.28e-05	0	43	0	648019968	21	4953
2026-01-28 22:58:57.60	99.83	26.96	-30.1	-32.7	13.6	6.80e-06	0	44	0	650117120	21	4858
2026-01-28 22:58:58.60	100.14	26.93	-30.1	-32.8	13.5	1.37e-05	0	43	0	652214272	21	4898
2026-01-28 22:58:59.61	100.45	26.90	-30.2	-32.9	13.4	1.44e-05	0	43	0	654311424	21	4948
2026-01-28 22:59:00.60	100.75	26.87	-30.3	-33.2	13.2	1.98e-05	0	43	0	655360000	21	5046
2026-01-28 22:59:01.60	101.06	26.85	-30.3	-33.3	13.1	2.82e-05	0	43	0	657457152	21	5088
2026-01-28 22:59:02.60	101.36	26.82	-30.3	-33.2	13.2	3.28e-05	0	43	0	659554304	21	5054
2026-01-28 22:59:03.61	101.67	26.78	-30.5	-33.8	12.8	4.65e-05	0	44	0	661651456	21	5264
2026-01-28 22:59:04.60	101.97	26.75	-30.3	-33.3	13.1	4.88e-05	0	44	0	663748608	21	5097
2026-01-28 22:59:05.60	102.28	26.72	-30.0	-32.4	13.7	6.10e-06	0	43	0	664797184	21	4772
2026-01-28 22:59:06.60	102.58	26.69	-29.8	-32.0	14.0	6.80e-06	0	44	0	666894336	21	4626
2026-01-28 22:59:07.60	102.88	26.65	-29.7	-32.3	14.1	3.80e-06	0	43	0	668991488	20	4811
2026-01-28 22:59:08.60	103.18	26.62	-29.8	-32.5	14.0	2.20e-06	0	43	0	671088640	20	4888
2026-01-28 22:59:09.60	103.49	26.58	-29.9	-32.6	13.9	3.00e-06	0	43	0	673185792	20	4934
2026-01-28 22:59:10.61	103.79	26.54	-29.9	-32.9	13.7	3.00e-06	0	43	0	674234368	20	5030
2026-01-28 22:59:11.61	104.09	26.51	-29.8	-32.4	14.0	3.00e-06	0	43	0	676331520	20	4848
2026-01-28 22:59:12.62	104.39	26.47	-29.7	-32.1	14.3	3.00e-06	0	44	0	678428672	20	4740
2026-01-28 22:59:13.63	104.70	26.43	-29.7	-32.1	14.2	0.00e+00	0	44	0	680525824	20	4744
2026-01-28 22:59:14.63	104.99	26.39	-29.8	-32.5	13.9	6.10e-06	0	43	0	682622976	20	4908
2026-01-28 22:59:15.64	105.29	26.35	-30.0	-33.1	13.6	5.30e-06	0	44	0	683671552	20	5109
2026-01-28 22:59:16.64	105.59	26.31	-30.0	-33.0	13.6	6.80e-06	0	44	0	685768704	20	5076
2026-01-28 22:59:17.65	105.89	26.27	-29.9	-32.8	13.8	9.10e-06	0	43	0	687865856	20	4991
2026-01-28 22:59:18.65	106.18	26.22	-29.7	-32.2	14.1	3.00e-06	0	43	0	689963008	20	4804
2026-01-28 22:59:19.65	106.48	26.18	-29.8	-32.5	14.0	7.00e-07	0	44	0	692060160	20	4886
2026-01-28 22:59:20.66	106.78	26.13	-29.8	-32.4	14.0	1.50e-06	0	44	0	693108736	20	4875
2026-01-28 22:59:21.66	107.07	26.09	-29.8	-32.5	13.9	2.20e-06	0	43	0	695205888	20	4903
2026-01-28 22:59:22.67	107.36	26.04	-30.0	-32.8	13.8	2.20e-06	0	44	0	697303040	20	5024
2026-01-28 22:59:23.67	107.65	26.00	-29.8	-32.5	14.0	3.80e-06	0	43	0	699400192	20	4885
2026-01-28 22:59:24.67	107.94	25.95	-29.5	-31.7	14.4	1.50e-06	0	44	0	701497344	20	4636
2026-01-28 22:59:25.67	108.23	25.90	-29.3	-31.5	14.9	0.00e+00	0	44	0	702545920	19	4638
2026-01-28 22:59:26.68	108.53	25.85	-29.1	-31.1	15.2	0.00e+00	0	43	0	704643072	19	4517
2026-01-28 22:59:27.69	108.82	25.81	-29.1	-31.1	15.2	0.00e+00	0	43	0	706740224	19	4509
2026-01-28 22:59:28.68	109.10	25.76	-29.2	-31.2	15.1	0.00e+00	0	44	0	708837376	19	4568
2026-01-28 22:59:29.69	109.39	25.71	-29.3	-31.5	14.9	0.00e+00	0	43	0	709885952	19	4657
2026-01-28 22:59:30.70	109.68	25.65	-29.5	-32.0	14.6	0.00e+00	0	43	0	711983104	19	4829
2026-01-28 22:59:31.70	109.96	25.60	-29.5	-32.1	14.6	0.00e+00	0	43	0	714080256	19	4864
2026-01-28 22:59:32.70	110.24	25.55	-29.6	-32.3	14.4	0.00e+00	0	43	0	716177408	19	4931
2026-01-28 22:59:33.70	110.53	25.50	-29.5	-32.1	14.6	7.00e-07	0	44	0	718274560	19	4861
2026-01-28 22:59:34.70	110.81	25.44	-29.4	-31.8	14.8	0.00e+00	0	43	0	719323136	19	4751
2026-01-28 22:59:35.70	111.09	25.39	-29.4	-31.8	14.8	0.00e+00	0	43	0	721420288	19	4751
2026-01-28 22:59:36.71	111.37	25.33	-29.3	-31.6	14.9	0.00e+00	0	44	0	723517440	19	4662
2026-01-28 22:59:37.71	111.65	25.28	-29.3	-31.5	15.0	0.00e+00	0	43	0	725614592	19	4644
2026-01-28 22:59:38.72	111.93	25.22	-29.3	-31.6	14.9	0.00e+00	0	43	0	727711744	19	4669
2026-01-28 22:59:39.72	112.21	25.17	-29.3	-31.6	14.8	0.00e+00	0	44	0	728760320	19	4696
2026-01-28 22:59:40.72	112.48	25.11	-29.4	-31.9	14.7	0.00e+00	0	44	0	730857472	19	4768
2026-01-28 22:59:41.73	112.76	25.05	-29.5	-32.0	14.6	0.00e+00	0	43	0	732954624	19	4826
2026-01-28 22:59:42.72	113.03	24.99	-29.6	-32.4	14.3	1.50e-06	0	43	0	735051776	19	4968
2026-01-28 22:59:43.73	113.31	24.93	-29.9	-33.2	13.8	1.50e-06	0	43	0	737148928	19	5264
2026-01-28 22:59:44.74	113.58	24.87	-30.0	-33.0	13.5	1.14e-05	0	43	0	738197504	20	5078
2026-01-28 22:59:45.74	113.85	24.82	-30.0	-32.8	13.6	8.30e-06	0	43	0	740294656	20	5023
2026-01-28 22:59:46.75	114.12	24.75	-29.8	-32.5	13.8	6.10e-06	0	43	0	742391808	20	4893
2026-01-28 22:59:47.76	114.40	24.69	-29.7	-32.1	14.1	3.80e-06	0	43	0	744488960	20	4780
2026-01-28 22:59:48.76	114.66	24.63	-29.6	-32.0	14.2	3.00e-06	0	43	0	746586112	20	4719
2026-01-28 22:59:49.77	114.93	24.57	-29.6	-31.9	14.2	7.00e-07	0	43	0	747634688	20	4699
2026-01-28 22:59:50.77	115.20	24.51	-29.7	-32.1	14.1	1.50e-06	0	43	0	749731840	20	4773
2026-01-28 22:59:51.78	115.47	24.44	-29.7	-32.3	13.9	3.00e-06	0	44	0	751828992	20	4828
2026-01-28 22:59:52.78	115.73	24.38	-29.9	-32.8	13.6	2.67e-05	0	43	0	753926144	20	5008
2026-01-28 22:59:53.78	115.99	24.32	-29.9	-32.8	13.6	1.06e-05	0	44	0	756023296	20	5004
2026-01-28 22:59:54.78	116.25	24.25	-29.9	-32.7	13.7	7.60e-06	0	43	0	757071872	20	4988
2026-01-28 22:59:55.79	116.52	24.19	-29.9	-32.8	13.6	2.44e-05	0	43	0	759169024	20	5030
2026-01-28 22:59:56.79	116.78	24.12	-30.0	-33.1	13.4	1.52e-05	0	44	0	761266176	20	5127
2026-01-28 22:59:57.80	117.04	24.06	-30.1	-33.3	13.2	1.44e-05	0	43	0	763363328	20	5204
2026-01-28 22:59:58.79	117.29	23.99	-30.2	-33.6	13.0	1.04e-04	0	43	0	765460480	20	5328
2026-01-28 22:59:59.79	117.55	23.92	-30.2	-33.6	13.0	1.07e-04	0	43	0	766509056	20	5330
2026-01-28 23:00:00.80	117.81	23.86	-30.2	-33.6	13.0	3.58e-05	0	43	0	768606208	20	5322
2026-01-28 23:00:01.80	118.06	23.79	-29.9	-32.8	13.5	3.35e-05	0	43	0	770703360	20	5018
2026-01-28 23:00:02.80	118.31	23.72	-29.9	-32.7	13.6	7.60e-06	0	43	0	772800512	20	4977
2026-01-28 23:00:03.80	118.56	23.65	-30.0	-32.9	13.5	9.90e-06	0	44	0	773849088	20	5057
2026-01-28 23:00:04.80	118.82	23.59	-29.7	-32.3	13.9	9.10e-06	0	43	0	775946240	20	4828
2026-01-28 23:00:05.81	119.07	23.52	-29.5	-31.8	14.2	7.00e-07	0	43	0	778043392	20	4661
2026-01-28 23:00:06.81	119.32	23.45	-29.5	-31.7	14.3	7.00e-07	0	44	0	780140544	20	4631
2026-01-28 23:00:07.81	119.56	23.38	-29.6	-32.0	14.0	1.50e-06	0	44	0	782237696	20	4744
2026-01-28 23:00:08.81	119.81	23.31	-29.7	-32.2	14.0	3.00e-06	0	43	0	783286272	20	4798
2026-01-28 23:00:09.81	120.06	23.24	-29.7	-32.2	13.9	3.00e-06	0	43	0	785383424	20	4799
2026-01-28 23:00:10.82	120.30	23.17	-29.8	-32.5	13.8	1.50e-06	0	44	0	787480576	20	4909
2026-01-28 23:00:11.81	120.54	23.10	-29.8	-32.6	13.7	5.30e-06	0	43	0	789577728	20	4937
2026-01-28 23:00:12.81	120.79	23.02	-29.9	-32.9	13.5	9.10e-06	0	43	0	791674880	20	5057
2026-01-28 23:00:13.81	121.03	22.95	-30.0	-33.0	13.4	1.06e-05	0	43	0	792723456	20	5097
2026-01-28 23:00:14.82	121.27	22.88	-29.9	-32.8	13.6	9.90e-06	0	44	0	794820608	20	5014
2026-01-28 23:00:15.82	121.51	22.81	-29.8	-32.4	13.8	2.13e-05	0	43	0	796917760	20	4857
2026-01-28 23:00:16.81	121.75	22.74	-29.8	-32.4	13.8	3.00e-06	0	43	0	799014912	20	4854
2026-01-28 23:00:17.82	121.98	22.66	-30.0	-32.9	13.5	1.75e-05	0	44	0	801112064	20	5057
2026-01-28 23:00:18.82	122.22	22.59	-29.7	-32.3	13.8	3.80e-06	0	43	0	802160640	20	4846
2026-01-28 23:00:19.83	122.46	22.52	-29.7	-32.1	14.0	6.10e-05	0	43	0	804257792	20	4781
2026-01-28 23:00:20.82	122.69	22.44	-29.6	-32.0	14.1	3.50e-05	0	43	0	806354944	20	4735
2026-01-28 23:00:21.82	122.92	22.37	-29.7	-32.3	13.8	3.80e-06	0	43	0	808452096	20	4852
2026-01-28 23:00:22.82	123.15	22.30	-29.8	-32.5	13.7	3.20e-05	0	43	0	810549248	20	4912
2026-01-28 23:00:23.82	123.38	22.22	-29.7	-32.2	13.9	1.14e-05	0	43	0	811597824	20	4802
2026-01-28 23:00:24.82	123.61	22.15	-29.6	-32.0	14.0	5.30e-06	0	43	0	813694976	20	4737
2026-01-28 23:00:25.82	123.84	22.07	-29.7	-32.3	13.8	4.50e-06	0	43	0	815792128	20	4855
2026-01-28 23:00:26.83	124.07	22.00	-29.8	-32.7	13.6	3.00e-06	0	44	0	817889280	20	4974
2026-01-28 23:00:27.83	124.30	21.92	-30.1	-33.5	13.0	1.37e-05	0	43	0	818937856	20	5295
2026-01-28 23:00:28.83	124.52	21.85	-30.4	-34.2	12.5	7.55e-05	0	43	0	821035008	20	5610
2026-01-28 23:00:29.84	124.75	21.77	-30.7	-34.7	11.8	2.95e-04	0	44	0	823132160	21	5720
2026-01-28 23:00:30.84	124.97	21.69	-30.7	-34.5	12.0	3.97e-04	0	43	0	825229312	21	5619
2026-01-28 23:00:31.84	125.19	21.62	-30.5	-33.9	12.4	3.58e-04	0	43	0	827326464	21	5347
2026-01-28 23:00:32.84	125.41	21.54	-30.2	-33.1	13.0	6.33e-05	0	43	0	828375040	21	5026
2026-01-28 23:00:33.85	125.64	21.46	-30.1	-32.8	13.2	2.74e-05	0	43	0	830472192	21	4913
2026-01-28 23:00:34.85	125.86	21.39	-30.3	-33.4	12.8	8.54e-05	0	44	0	832569344	21	5124
2026-01-28 23:00:35.86	126.08	21.31	-30.3	-33.3	12.8	1.16e-04	0	43	0	834666496	21	5109
2026-01-28 23:00:36.87	126.29	21.23	-30.6	-34.3	12.2	1.49e-04	0	44	0	836763648	21	5499
2026-01-28 23:00:37.87	126.51	21.15	-30.6	-34.3	12.1	3.18e-04	0	43	0	837812224	21	5537
2026-01-28 23:00:38.88	126.73	21.07	-30.6	-34.5	11.9	2.54e-04	0	44	0	839909376	21	5615
2026-01-28 23:00:39.88	126.94	21.00	-30.3	-33.5	12.6	1.51e-04	0	43	0	842006528	21	5197
2026-01-28 23:00:40.88	127.15	20.92	-29.9	-32.4	13.4	3.73e-05	0	43	0	844103680	21	4778
2026-01-28 23:00:41.89	127.37	20.84	-29.8	-32.4	13.7	9.90e-06	0	44	0	846200832	20	4888
2026-01-28 23:00:42.89	127.58	20.76	-29.8	-32.5	13.7	7.60e-06	0	43	0	847249408	20	4925
2026-01-28 23:00:43.89	127.78	20.68	-29.9	-32.7	13.5	1.22e-05	0	43	0	849346560	20	4986
2026-01-28 23:00:44.90	128.00	20.61	-30.1	-33.3	13.1	1.06e-05	0	44	0	851443712	20	5216
2026-01-28 23:00:45.90	128.20	20.53	-30.1	-33.5	13.0	5.87e-05	0	43	0	853540864	20	5285
2026-01-28 23:00:46.90	128.41	20.45	-30.1	-33.5	13.0	4.73e-05	0	43	0	855638016	20	5280
2026-01-28 23:00:47.91	128.62	20.37	-29.9	-32.8	13.4	3.20e-05	0	43	0	856686592	20	5043
2026-01-28 23:00:48.91	128.82	20.29	-29.7	-32.1	13.8	1.67e-05	0	43	0	858783744	20	4796
2026-01-28 23:00:49.91	129.02	20.21	-29.4	-31.5	14.2	3.80e-06	0	43	0	860880896	20	4602
2026-01-28 23:00:50.91	129.22	20.13	-29.4	-31.5	14.2	7.00e-07	0	43	0	862978048	20	4605
2026-01-28 23:00:51.92	129.43	20.05	-29.9	-32.9	13.3	8.30e-06	0	43	0	865075200	20	5087
2026-01-28 23:00:52.92	129.63	19.97	-30.0	-33.1	13.1	2.67e-05	0	44	0	866123776	20	5178
2026-01-28 23:00:53.93	129.83	19.89	-30.3	-34.2	12.4	9.00e-05	0	44	0	868220928	20	5613
2026-01-28 23:00:54.93	130.03	19.81	-30.5	-34.3	11.9	2.58e-04	0	44	0	870318080	21	5564
2026-01-28 23:00:55.93	130.22	19.73	-30.5	-34.4	11.9	4.45e-04	0	43	0	872415232	21	5609
2026-01-28 23:00:56.93	130.42	19.65	-30.5	-34.2	12.0	3.38e-04	0	43	0	874512384	21	5526
2026-01-28 23:00:57.94	130.62	19.57	-30.4	-34.0	12.1	2.97e-04	0	43	0	875560960	21	5460
2026-01-28 23:00:58.94	130.81	19.49	-30.3	-33.6	12.3	2.93e-04	0	43	0	877658112	21	5296
2026-01-28 23:00:59.94	131.00	19.41	-30.5	-34.3	11.9	3.91e-04	0	43	0	879755264	21	5607
2026-01-28 23:01:00.95	131.20	19.33	-30.3	-33.8	12.2	2.78e-04	0	44	0	881852416	21	5363
2026-01-28 23:01:01.95	131.39	19.25	-30.7	-35.0	11.4	4.77e-04	0	44	0	882900992	21	5884
2026-01-28 23:01:02.96	131.58	19.17	-30.8	-35.2	11.2	2.31e-03	0	43	0	884998144	21	5988
2026-01-28 23:01:03.96	131.77	19.09	-31.1	-35.8	10.5	2.79e-03	0	43	0	887095296	22	6141
2026-01-28 23:01:04.97	131.96	19.01	-31.0	-35.3	10.9	3.52e-03	0	43	0	889192448	22	5890
2026-01-28 23:01:05.97	132.15	18.93	-30.8	-34.5	11.4	1.58e-03	0	43	0	891289600	22	5552
2026-01-28 23:01:06.97	132.33	18.85	-30.5	-33.7	12.0	4.95e-04	0	43	0	892338176	22	5200
2026-01-28 23:01:07.98	132.52	18.77	-30.2	-33.4	12.5	1.96e-04	0	43	0	894435328	21	5199
2026-01-28 23:01:08.98	132.71	18.69	-30.2	-33.2	12.6	8.77e-05	0	44	0	896532480	21	5117
2026-01-28 23:01:09.98	132.89	18.61	-30.0	-32.8	12.9	4.80e-05	0	43	0	898629632	21	4959
2026-01-28 23:01:10.99	133.07	18.53	-29.7	-32.6	13.4	2.36e-05	0	43	0	900726784	20	4981
2026-01-28 23:01:11.99	133.26	18.45	-29.7	-32.5	13.4	1.37e-05	0	44	0	901775360	20	4969
2026-01-28 23:01:12.99	133.44	18.37	-30.0	-33.2	13.0	2.44e-05	0	44	0	903872512	20	5210
2026-01-28 23:01:14.00	133.62	18.29	-29.9	-33.0	13.1	3.50e-05	0	43	0	905969664	20	5143
2026-01-28 23:01:15.00	133.80	18.21	-29.9	-33.0	13.1	2.67e-05	0	44	0	908066816	20	5115
2026-01-28 23:01:16.00	133.97	18.13	-29.7	-32.5	13.5	1.14e-05	0	43	0	910163968	20	4930
2026-01-28 23:01:17.00	134.15	18.05	-29.6	-32.0	13.7	3.80e-06	0	43	0	911212544	20	4778
2026-01-28 23:01:18.01	134.33	17.97	-29.6	-32.0	13.7	4.50e-06	0	43	0	913309696	20	4770
2026-01-28 23:01:19.01	134.50	17.89	-29.6	-32.2	13.6	9.10e-06	0	43	0	915406848	20	4853
2026-01-28 23:01:20.02	134.68	17.80	-29.6	-32.1	13.6	6.10e-05	0	43	0	917504000	20	4819
2026-01-28 23:01:21.02	134.85	17.72	-29.8	-32.7	13.2	1.14e-05	0	43	0	919601152	20	5045
2026-01-28 23:01:22.02	135.03	17.64	-29.8	-32.8	13.2	9.90e-06	0	43	0	920649728	20	5047
2026-01-28 23:01:23.03	135.20	17.56	-30.0	-33.2	12.9	2.89e-05	0	43	0	922746880	20	5230
2026-01-28 23:01:24.03	135.37	17.48	-29.8	-32.9	13.1	3.35e-05	0	44	0	924844032	20	5093
2026-01-28 23:01:25.04	135.54	17.40	-29.8	-32.7	13.2	1.90e-05	0	44	0	926941184	20	5028
2026-01-28 23:01:26.04	135.71	17.32	-29.7	-32.6	13.3	2.36e-05	0	44	0	929038336	20	4980
2026-01-28 23:01:27.04	135.88	17.24	-29.7	-32.5	13.3	1.52e-05	0	43	0	930086912	20	4963
2026-01-28 23:01:28.04	136.04	17.16	-29.5	-32.0	13.6	9.10e-06	0	44	0	932184064	20	4770
2026-01-28 23:01:29.04	136.21	17.08	-29.4	-31.6	13.8	3.80e-06	0	43	0	934281216	20	4654
2026-01-28 23:01:30.04	136.38	17.00	-29.4	-31.6	13.8	4.50e-06	0	43	0	936378368	20	4653
2026-01-28 23:01:31.04	136.54	16.92	-29.5	-32.4	13.7	4.50e-06	0	43	0	937426944	19	5047
2026-01-28 23:01:32.04	136.70	16.84	-29.4	-32.4	13.7	3.00e-06	0	44	0	939524096	19	5034
2026-01-28 23:01:33.04	136.87	16.76	-29.5	-32.6	13.5	7.60e-06	0	44	0	941621248	19	5119
2026-01-28 23:01:34.05	137.03	16.68	-29.5	-32.4	13.6	9.07e-05	0	43	0	943718400	19	5060
2026-01-28 23:01:35.05	137.19	16.60	-29.4	-32.2	13.8	6.10e-06	0	44	0	945815552	19	4976
2026-01-28 23:01:36.05	137.35	16.52	-29.3	-32.0	13.9	3.80e-06	0	44	0	946864128	19	4923
2026-01-28 23:01:37.05	137.51	16.44	-29.4	-32.2	13.8	5.30e-06	0	43	0	948961280	19	4962
2026-01-28 23:01:38.05	137.67	16.36	-29.6	-32.7	13.4	8.31e-05	0	44	0	951058432	19	5163
2026-01-28 23:01:39.06	137.83	16.28	-29.3	-32.0	13.8	9.90e-06	0	44	0	953155584	19	4932
2026-01-28 23:01:40.06	137.99	16.20	-29.2	-31.8	14.0	7.00e-07	0	43	0	955252736	19	4847
2026-01-28 23:01:41.07	138.15	16.12	-29.1	-31.6	14.1	8.08e-05	0	43	0	956301312	19	4763
2026-01-28 23:01:42.06	138.30	16.04	-29.2	-31.7	14.0	7.00e-07	0	43	0	958398464	19	4841
2026-01-28 23:01:43.07	138.46	15.96	-29.2	-31.7	14.0	1.50e-06	0	44	0	960495616	19	4824
2026-01-28 23:01:44.07	138.61	15.88	-29.2	-31.7	14.0	3.35e-05	0	43	0	962592768	19	4824
2026-01-28 23:01:45.08	138.76	15.80	-29.2	-32.0	13.8	5.30e-06	0	43	0	964689920	19	4918
2026-01-28 23:01:46.07	138.92	15.72	-29.3	-32.0	13.8	6.80e-06	0	44	0	965738496	19	4931
2026-01-28 23:01:47.08	139.07	15.64	-29.3	-32.2	13.6	3.80e-06	0	44	0	967835648	19	5002
2026-01-28 23:01:48.08	139.22	15.57	-29.4	-32.4	13.5	7.60e-06	0	43	0	969932800	19	5091
2026-01-28 23:01:49.08	139.37	15.49	-29.5	-32.6	13.4	7.24e-05	0	43	0	972029952	19	5156
2026-01-28 23:01:50.09	139.52	15.41	-29.6	-33.1	13.0	1.29e-05	0	44	0	974127104	19	5343
2026-01-28 23:01:51.10	139.67	15.33	-29.7	-33.3	12.8	4.73e-05	0	44	0	975175680	19	5456
2026-01-28 23:01:52.10	139.82	15.25	-29.6	-33.1	13.0	1.09e-04	0	44	0	977272832	19	5364
2026-01-28 23:01:53.10	139.96	15.17	-29.7	-33.3	12.8	4.19e-05	0	43	0	979369984	19	5465
2026-01-28 23:01:54.10	140.11	15.09	-29.6	-33.1	12.9	4.95e-05	0	43	0	981467136	19	5369
2026-01-28 23:01:55.11	140.26	15.01	-29.6	-33.1	12.8	8.69e-05	0	43	0	982515712	19	5411
2026-01-28 23:01:56.11	140.40	14.93	-29.7	-33.4	12.6	1.03e-04	0	44	0	984612864	19	5523
2026-01-28 23:01:57.12	140.55	14.85	-29.5	-32.9	13.0	6.33e-05	0	44	0	986710016	19	5328
2026-01-28 23:01:58.12	140.69	14.78	-29.6	-33.1	12.8	1.22e-04	0	44	0	988807168	19	5386
2026-01-28 23:01:59.12	140.83	14.70	-29.5	-32.8	13.0	1.07e-04	0	44	0	990904320	19	5273
2026-01-28 23:02:00.12	140.98	14.62	-29.5	-32.9	12.9	3.28e-05	0	44	0	993001472	19	5312
2026-01-28 23:02:01.13	141.12	14.54	-29.5	-33.0	12.9	1.32e-04	0	44	0	994050048	19	5349
2026-01-28 23:02:02.14	141.26	14.46	-29.5	-32.9	12.9	1.34e-04	0	44	0	996147200	19	5316
2026-01-28 23:02:03.14	141.40	14.38	-29.6	-33.0	12.8	4.57e-05	0	44	0	998244352	19	5363
2026-01-28 23:02:04.14	141.54	14.31	-29.7	-33.3	12.7	1.43e-04	0	44	0	1000341504	19	5469
2026-01-28 23:02:05.15	141.68	14.23	-29.7	-33.2	12.7	1.82e-04	0	43	0	1001390080	19	5420
2026-01-28 23:02:06.15	141.82	14.15	-29.6	-33.0	12.8	8.62e-05	0	44	0	1003487232	19	5326
2026-01-28 23:02:07.15	141.95	14.07	-29.8	-33.5	12.5	3.71e-04	0	44	0	1005584384	19	5533
2026-01-28 23:02:08.16	142.09	14.00	-29.7	-33.4	12.5	4.02e-04	0	43	0	1007681536	19	5483
2026-01-28 23:02:09.16	142.23	13.92	-29.9	-34.0	12.1	1.91e-04	0	44	0	1009778688	19	5787
2026-01-28 23:02:10.17	142.36	13.84	-30.0	-34.2	12.0	6.12e-04	0	43	0	1010827264	19	5863
2026-01-28 23:02:11.17	142.50	13.76	-30.0	-34.3	11.8	3.94e-04	0	44	0	1012924416	19	5925
2026-01-28 23:02:12.17	142.63	13.69	-30.0	-34.0	11.5	6.46e-04	0	43	0	1015021568	20	5752
2026-01-28 23:02:13.17	142.76	13.61	-30.1	-34.5	11.2	1.39e-03	0	43	0	1017118720	20	5985
2026-01-28 23:02:14.18	142.90	13.53	-30.0	-34.2	11.3	1.18e-03	0	44	0	1019215872	20	5878
2026-01-28 23:02:15.18	143.03	13.46	-30.0	-34.3	11.2	1.26e-03	0	43	0	1020264448	20	5940
2026-01-28 23:02:16.18	143.16	13.38	-30.0	-34.5	11.1	2.27e-03	0	43	0	1022361600	20	6039
2026-01-28 23:02:17.19	143.29	13.30	-30.0	-34.8	11.3	1.64e-03	0	43	0	1024458752	19	6261
2026-01-28 23:02:18.19	143.42	13.23	-30.1	-34.7	10.9	1.70e-03	0	44	0	1026555904	20	6120
2026-01-28 23:02:19.19	143.55	13.15	-30.2	-35.1	10.6	3.99e-03	0	44	0	1028653056	20	6329
2026-01-28 23:02:20.20	143.68	13.07	-30.0	-34.3	11.2	2.89e-03	0	43	0	1029701632	20	5948
2026-01-28 23:02:21.20	143.80	13.00	-29.9	-34.0	11.4	1.07e-03	0	43	0	1031798784	20	5773
2026-01-28 23:02:22.20	143.93	12.92	-29.8	-34.3	11.7	6.09e-04	0	43	0	1033895936	19	5992
2026-01-28 23:02:23.20	144.06	12.84	-30.0	-34.7	11.4	1.77e-03	0	44	0	1035993088	19	6192
2026-01-28 23:02:24.20	144.18	12.77	-29.9	-34.1	11.4	1.04e-03	0	43	0	1038090240	20	5835
2026-01-28 23:02:25.21	144.31	12.69	-30.0	-34.4	11.2	1.15e-03	0	44	0	1039138816	20	5924
2026-01-28 23:02:26.21	144.43	12.62	-30.1	-34.5	11.1	2.29e-03	0	44	0	1041235968	20	5988
2026-01-28 23:02:27.21	144.56	12.54	-30.2	-34.8	10.9	1.94e-03	0	44	0	1043333120	20	6128
2026-01-28 23:02:28.21	144.68	12.47	-30.2	-34.8	10.9	2.06e-03	0	44	0	1045430272	20	6102
2026-01-28 23:02:29.21	144.80	12.39	-30.2	-34.8	10.9	2.29e-03	0	44	0	1046478848	20	6138
2026-01-28 23:02:30.22	144.93	12.32	-30.1	-34.4	11.3	1.54e-03	0	44	0	1048576000	20	5890
2026-01-28 23:02:31.23	145.05	12.24	-30.1	-34.5	11.2	1.13e-03	0	44	0	1050673152	20	5935
2026-01-28 23:02:32.23	145.17	12.17	-30.1	-34.5	11.2	1.30e-03	0	44	0	1052770304	20	5970
2026-01-28 23:02:33.23	145.29	12.09	-30.0	-34.2	11.4	9.28e-04	0	44	0	1054867456	20	5845
2026-01-28 23:02:34.23	145.41	12.02	-30.1	-34.4	11.3	2.33e-03	0	44	0	1055916032	20	5923
2026-01-28 23:02:35.23	145.53	11.94	-30.0	-34.4	11.2	1.60e-03	0	43	0	1058013184	20	5928
2026-01-28 23:02:36.24	145.65	11.87	-30.0	-34.4	11.3	1.35e-03	0	44	0	1060110336	20	5911
2026-01-28 23:02:37.24	145.77	11.79	-30.1	-34.6	11.0	2.47e-03	0	43	0	1062207488	20	6056
2026-01-28 23:02:38.25	145.89	11.72	-30.0	-34.3	11.3	1.23e-03	0	43	0	1064304640	20	5888
2026-01-28 23:02:39.25	146.00	11.64	-30.1	-34.4	11.2	1.23e-03	0	43	0	1065353216	20	5938
2026-01-28 23:02:40.25	146.12	11.57	-30.1	-34.4	11.2	1.50e-03	0	43	0	1067450368	20	5958
2026-01-28 23:02:41.25	146.23	11.50	-30.0	-34.3	11.3	2.76e-03	0	43	0	1069547520	20	5899
2026-01-28 23:02:42.25	146.35	11.42	-30.0	-34.4	11.2	1.37e-03	0	43	0	1071644672	20	5931
2026-01-28 23:02:43.24	146.46	11.35	-30.0	-34.4	11.1	1.43e-03	0	43	0	1073741824	20	5981
2026-01-28 23:02:44.24	146.58	11.28	-30.0	-34.5	11.0	1.89e-03	0	44	0	1074790400	20	6030
2026-01-28 23:02:45.25	146.69	11.20	-30.0	-34.4	11.1	1.68e-03	0	44	0	1076887552	20	5997
2026-01-28 23:02:46.25	146.80	11.13	-29.8	-33.9	11.4	1.33e-03	0	44	0	1078984704	20	5778
2026-01-28 23:02:47.25	146.92	11.06	-29.8	-34.4	11.4	8.14e-04	0	44	0	1081081856	19	6125
2026-01-28 23:02:48.25	147.03	10.98	-29.8	-34.6	11.3	1.09e-03	0	43	0	1083179008	19	6221
2026-01-28 23:02:49.27	147.14	10.91	-29.7	-34.3	11.5	7.66e-04	0	44	0	1084227584	19	6072
2026-01-28 23:02:50.27	147.25	10.84	-29.8	-34.4	11.5	8.09e-04	0	44	0	1086324736	19	6141
2026-01-28 23:02:51.27	147.36	10.77	-29.7	-34.0	11.7	8.18e-04	0	43	0	1088421888	19	5958
2026-01-28 23:02:52.27	147.47	10.69	-29.6	-34.0	11.7	5.52e-04	0	44	0	1090519040	19	5920
2026-01-28 23:02:53.27	147.58	10.62	-29.7	-34.2	11.6	6.77e-04	0	44	0	1092616192	19	6034
2026-01-28 23:02:54.27	147.69	10.55	-29.6	-33.8	11.9	5.76e-04	0	44	0	1093664768	19	5811
2026-01-28 23:02:55.27	147.80	10.48	-29.6	-33.6	12.1	2.88e-04	0	44	0	1095761920	19	5719
2026-01-28 23:02:56.28	147.91	10.40	-29.6	-33.6	12.1	3.26e-04	0	44	0	1097859072	19	5707
2026-01-28 23:02:57.28	148.01	10.33	-29.5	-33.3	12.3	1.95e-04	0	44	0	1099956224	19	5547
2026-01-28 23:02:58.29	148.12	10.26	-29.6	-33.4	12.3	1.60e-04	0	44	0	1101004800	19	5581
2026-01-28 23:02:59.30	148.23	10.19	-29.6	-33.3	12.3	1.88e-04	0	43	0	1103101952	19	5537
2026-01-28 23:03:00.30	148.33	10.12	-29.7	-33.5	12.2	2.14e-04	0	44	0	1105199104	19	5626
2026-01-28 23:03:01.31	148.44	10.04	-29.7	-33.8	11.9	3.14e-04	0	44	0	1107296256	19	5758
2026-01-28 23:03:02.31	148.54	9.97	-29.6	-33.5	12.2	2.58e-04	0	44	0	1109393408	19	5618
2026-01-28 23:03:03.32	148.65	9.90	-29.6	-33.5	12.2	2.18e-04	0	44	0	1111490560	19	5627
2026-01-28 23:03:04.32	148.75	9.83	-29.7	-33.7	12.0	2.72e-04	0	43	0	1112539136	19	5716
2026-01-28 23:03:05.33	148.86	9.76	-29.7	-33.7	12.0	3.29e-04	0	43	0	1114636288	19	5734
2026-01-28 23:03:06.34	148.96	9.69	-29.7	-33.9	11.8	4.15e-04	0	44	0	1116733440	19	5832
2026-01-28 23:03:07.34	149.06	9.62	-29.7	-33.9	11.7	5.34e-04	0	44	0	1118830592	19	5874
2026-01-28 23:03:08.34	149.16	9.55	-29.7	-34.0	11.6	5.42e-04	0	44	0	1119879168	19	5908
2026-01-28 23:03:09.35	149.27	9.48	-29.7	-34.1	11.6	7.03e-04	0	44	0	1121976320	19	5965
2026-01-28 23:03:10.35	149.37	9.41	-29.7	-33.9	11.7	7.33e-04	0	44	0	1124073472	19	5904
2026-01-28 23:03:11.35	149.47	9.34	-29.8	-34.2	11.6	5.73e-04	0	44	0	1126170624	19	5981
2026-01-28 23:03:12.36	149.57	9.27	-29.9	-34.3	11.4	3.16e-03	0	44	0	1128267776	19	6028
2026-01-28 23:03:13.36	149.67	9.20	-29.8	-34.3	11.5	7.70e-04	0	44	0	1129316352	19	6007
2026-01-28 23:03:14.36	149.77	9.13	-29.9	-34.5	11.3	9.25e-04	0	44	0	1131413504	19	6104
2026-01-28 23:03:15.36	149.87	9.06	-29.9	-34.5	11.3	1.25e-03	0	43	0	1133510656	19	6085
2026-01-28 23:03:16.37	149.96	8.99	-29.9	-34.2	11.6	2.79e-03	0	44	0	1135607808	19	5927
2026-01-28 23:03:17.37	150.06	8.92	-29.9	-34.1	11.6	6.65e-04	0	44	0	1137704960	19	5889
2026-01-28 23:03:18.38	150.16	8.85	-29.7	-33.9	11.7	6.28e-04	0	43	0	1138753536	19	5839
2026-01-28 23:03:19.39	150.26	8.78	-29.7	-33.9	11.7	2.54e-03	0	43	0	1140850688	19	5855
2026-01-28 23:03:20.39	150.35	8.71	-29.5	-33.7	11.7	6.19e-04	0	44	0	1142947840	19	5805
2026-01-28 23:03:21.39	150.45	8.64	-29.3	-34.0	11.7	5.33e-04	0	43	0	1145044992	18	6167
2026-01-28 23:03:22.40	150.55	8.57	-29.2	-34.0	11.5	3.06e-03	0	43	0	1147142144	18	6298
2026-01-28 23:03:23.41	150.64	8.50	-29.1	-33.8	11.6	8.44e-04	0	43	0	1148190720	18	6180
2026-01-28 23:03:24.41	150.74	8.43	-29.1	-34.0	11.5	7.94e-04	0	43	0	1150287872	18	6302
2026-01-28 23:03:25.41	150.83	8.36	-29.1	-34.1	11.3	9.73e-04	0	44	0	1152385024	18	6412
2026-01-28 23:03:26.42	150.93	8.30	-29.0	-34.0	11.2	1.39e-03	0	44	0	1154482176	18	6473
2026-01-28 23:03:27.42	151.02	8.23	-28.8	-34.4	11.1	3.64e-03	0	44	0	1156579328	17	6884
2026-01-28 23:03:28.42	151.11	8.16	-28.8	-34.4	11.1	1.78e-03	0	44	0	1157627904	17	6885
2026-01-28 23:03:29.43	151.20	8.09	-28.7	-34.4	11.1	1.71e-03	0	44	0	1159725056	17	6888
2026-01-28 23:03:30.43	151.30	8.02	-28.8	-34.6	11.0	4.41e-03	0	44	0	1161822208	17	6993
2026-01-28 23:03:31.43	151.39	7.96	-28.8	-34.5	11.0	2.02e-03	0	44	0	1163919360	17	6912
2026-01-28 23:03:32.44	151.48	7.89	-28.9	-34.6	11.0	1.84e-03	0	43	0	1166016512	17	6922
2026-01-28 23:03:33.44	151.57	7.82	-29.1	-34.4	10.9	4.26e-03	0	44	0	1167065088	18	6617
2026-01-28 23:03:34.44	151.66	7.75	-29.3	-34.5	10.9	4.32e-03	0	44	0	1169162240	18	6619
2026-01-28 23:03:35.45	151.75	7.69	-29.2	-34.4	11.0	1.82e-03	0	44	0	1171259392	18	6511
2026-01-28 23:03:36.46	151.84	7.62	-29.3	-34.4	11.0	3.91e-03	0	43	0	1173356544	18	6495
2026-01-28 23:03:37.46	151.93	7.55	-29.5	-34.1	11.1	3.86e-03	0	44	0	1174405120	19	6081
2026-01-28 23:03:38.47	152.02	7.48	-29.8	-34.4	11.0	1.81e-03	0	44	0	1176502272	19	6166
2026-01-28 23:03:39.47	152.11	7.42	-29.8	-34.5	11.0	4.63e-03	0	44	0	1178599424	19	6166
2026-01-28 23:03:40.48	152.20	7.35	-29.8	-34.4	11.1	3.87e-03	0	44	0	1180696576	19	6094
2026-01-28 23:03:41.48	152.29	7.28	-29.9	-34.5	11.0	2.06e-03	0	44	0	1182793728	19	6131
2026-01-28 23:03:42.48	152.37	7.22	-29.7	-34.1	11.3	3.78e-03	0	44	0	1184890880	19	5973
2026-01-28 23:03:43.49	152.46	7.15	-29.6	-34.0	11.3	3.26e-03	0	44	0	1185939456	19	5951
2026-01-28 23:03:44.50	152.55	7.08	-31.2	-46.5	3.7	1.41e-03	0	44	0	1188036608	22	21063
2026-01-28 23:03:45.50	152.64	7.02	-32.3	-46.6	3.8	1.49e+00	0	44	104	1188036608	25	18571

#Closed at: 2026-01-28 23:03:46
#Recorded file [1188 MB]: D:/data/31010_260129_015310.dat