passes_logs/2026/01/28/R2M6_AANII_01/R2M6_AANII_01__20260128_014213_NOAA_21_JPSS-2_rec.log

#Pass ID: 20260128_014213_NOAA 21 (JPSS-2)
#Satellite: NOAA 21 (JPSS-2)
#Configuration: NOAA 21
#almurnet v.1.7.20240730
#Start time: 2026-01-28 01:42:14

#Version: 2.2.20231116
#Station: R2M6_AANII_01
#Location: 30.233357 lon 59.946436 lat
#TLE: 1 54234U 22150A   26027.41809747  .00000179  00000+0  10565-3 0  9991
#TLE: 2 54234  98.7510 328.1683 0000854 205.0798 155.0336 14.19540145166571

#Time	Az	El	Level	Level2	SNR	BER	BlckErr	Temp	State	Recorded	gain1	gain2
2026-01-28 01:42:14.86	12.15	7.11	-31.8	-38.5	4.3	1.44e+00	0	42	0	0	23	7797
2026-01-28 01:42:15.86	12.09	7.18	-31.7	-37.9	4.4	1.43e+00	0	41	104	0	23	7345
2026-01-28 01:42:16.87	12.02	7.25	-32.2	-38.1	6.4	1.90e-01	0	41	0	0	23	7096
2026-01-28 01:42:17.87	11.95	7.32	-31.8	-37.5	6.4	2.18e-01	0	42	0	3145728	23	6927
2026-01-28 01:42:18.87	11.89	7.39	-31.7	-37.0	6.8	1.86e-01	0	41	0	6291456	23	6626
2026-01-28 01:42:19.87	11.82	7.46	-31.7	-36.9	6.9	1.60e-01	0	41	0	9437184	23	6582
2026-01-28 01:42:20.88	11.75	7.54	-31.7	-37.0	6.9	1.69e-01	0	42	0	12582912	23	6643
2026-01-28 01:42:21.88	11.68	7.61	-31.5	-36.2	7.4	1.36e-01	0	42	0	15728640	23	6215
2026-01-28 01:42:22.88	11.61	7.68	-31.1	-35.3	8.4	6.25e-02	0	42	0	18874368	22	5864
2026-01-28 01:42:23.87	11.55	7.75	-30.7	-34.5	9.4	2.15e-02	0	42	0	22020096	21	5584
2026-01-28 01:42:24.88	11.48	7.82	-30.3	-33.3	10.2	7.63e-03	0	42	0	24117248	21	5095
2026-01-28 01:42:25.88	11.41	7.89	-30.6	-34.3	9.6	1.56e-02	0	42	0	27262976	21	5484
2026-01-28 01:42:26.88	11.34	7.97	-30.3	-33.7	10.3	8.33e-03	0	42	0	30408704	20	5362
2026-01-28 01:42:27.88	11.27	8.04	-30.4	-34.1	10.1	5.91e-03	0	42	0	33554432	20	5501
2026-01-28 01:42:28.85	11.20	8.11	-30.3	-33.8	10.3	6.08e-03	0	42	0	36700160	20	5381
2026-01-28 01:42:29.85	11.13	8.18	-30.2	-33.4	10.5	3.69e-03	0	42	0	39845888	20	5252
2026-01-28 01:42:30.85	11.05	8.25	-30.1	-33.3	10.6	3.92e-03	0	42	0	42991616	20	5202
2026-01-28 01:42:31.86	10.98	8.33	-30.1	-33.3	10.6	7.80e-03	0	42	0	46137344	20	5205
2026-01-28 01:42:32.87	10.91	8.40	-30.2	-33.4	10.6	4.34e-03	0	42	0	49283072	20	5227
2026-01-28 01:42:33.87	10.84	8.48	-30.5	-34.0	9.9	7.77e-03	0	42	0	52428800	21	5368
2026-01-28 01:42:34.87	10.76	8.55	-30.2	-33.5	10.5	5.25e-03	0	42	0	55574528	20	5262
2026-01-28 01:42:35.87	10.69	8.62	-29.9	-33.2	11.2	6.18e-03	0	42	0	58720256	19	5260
2026-01-28 01:42:36.88	10.62	8.70	-29.5	-32.2	11.8	1.01e-03	0	42	0	61865984	19	4877
2026-01-28 01:42:37.89	10.54	8.77	-29.2	-31.8	12.4	4.50e-03	0	42	0	65011712	18	4840
2026-01-28 01:42:38.89	10.47	8.85	-28.9	-31.5	12.9	6.40e-05	0	42	0	68157440	17	4868
2026-01-28 01:42:39.89	10.39	8.92	-28.7	-31.1	13.2	2.82e-05	0	42	0	71303168	17	4724
2026-01-28 01:42:40.88	10.32	8.99	-28.6	-30.8	13.4	4.13e-03	0	42	0	74448896	17	4637
2026-01-28 01:42:41.89	10.24	9.07	-28.6	-30.7	13.5	3.83e-03	0	42	0	77594624	17	4605
2026-01-28 01:42:42.89	10.16	9.14	-28.5	-30.6	13.5	3.71e-04	0	42	0	80740352	17	4573
2026-01-28 01:42:43.89	10.09	9.22	-28.6	-30.9	13.4	3.78e-03	0	42	0	83886080	17	4660
2026-01-28 01:42:44.89	10.01	9.30	-28.5	-30.5	13.6	4.20e-03	0	42	0	87031808	17	4553
2026-01-28 01:42:45.90	9.93	9.37	-28.5	-30.6	13.5	3.22e-04	0	42	0	90177536	17	4560
2026-01-28 01:42:46.90	9.85	9.45	-28.5	-30.4	13.6	4.05e-03	0	42	0	93323264	17	4516
2026-01-28 01:42:47.91	9.78	9.52	-28.6	-30.8	13.5	3.96e-03	0	42	0	96468992	17	4620
2026-01-28 01:42:48.91	9.70	9.60	-28.5	-30.6	13.6	2.89e-04	0	42	0	99614720	17	4569
2026-01-28 01:42:49.91	9.62	9.68	-28.5	-30.6	13.6	3.71e-03	0	42	0	102760448	17	4568
2026-01-28 01:42:50.91	9.54	9.75	-28.4	-30.7	13.8	3.52e-03	0	42	0	105906176	16	4700
2026-01-28 01:42:51.91	9.46	9.83	-28.5	-30.6	13.5	2.07e-04	0	42	0	109051904	17	4575
2026-01-28 01:42:52.91	9.38	9.91	-28.5	-30.6	13.6	3.62e-03	0	42	0	112197632	17	4557
2026-01-28 01:42:53.92	9.30	9.98	-28.8	-31.3	13.2	4.13e-03	0	42	0	115343360	17	4779
2026-01-28 01:42:54.92	9.21	10.06	-28.4	-30.6	13.5	2.25e-04	0	42	0	118489088	17	4646
2026-01-28 01:42:55.93	9.13	10.14	-28.5	-30.9	13.6	4.12e-03	0	42	0	121634816	16	4789
2026-01-28 01:42:56.93	9.05	10.22	-28.5	-30.5	13.6	3.95e-03	0	42	0	124780544	17	4552
2026-01-28 01:42:57.94	8.97	10.29	-28.6	-30.8	13.5	2.73e-04	0	42	0	127926272	17	4626
2026-01-28 01:42:58.95	8.88	10.37	-28.4	-30.8	13.8	4.00e-03	0	42	0	131072000	16	4739
2026-01-28 01:42:59.95	8.80	10.45	-28.4	-30.9	13.7	7.60e-06	0	42	0	134217728	16	4777
2026-01-28 01:43:00.95	8.71	10.53	-28.3	-30.5	13.9	1.09e-04	0	42	0	137363456	16	4650
2026-01-28 01:43:01.95	8.63	10.61	-28.2	-30.3	14.1	3.76e-03	0	42	0	140509184	16	4586
2026-01-28 01:43:02.95	8.54	10.69	-28.1	-30.1	14.2	4.08e-03	0	42	0	143654912	16	4516
2026-01-28 01:43:03.95	8.46	10.76	-28.2	-30.2	14.2	2.72e-04	0	42	0	146800640	16	4547
2026-01-28 01:43:04.96	8.37	10.84	-27.9	-30.1	14.3	4.42e-05	0	42	0	149946368	15	4644
2026-01-28 01:43:05.96	8.29	10.92	-27.9	-30.1	14.3	7.00e-07	0	42	0	153092096	15	4661
2026-01-28 01:43:06.97	8.20	11.00	-28.1	-30.1	14.2	2.95e-04	0	42	0	156237824	16	4509
2026-01-28 01:43:07.97	8.11	11.08	-28.3	-30.5	14.0	4.00e-03	0	42	0	159383552	16	4654
2026-01-28 01:43:08.97	8.02	11.16	-28.5	-30.9	13.7	3.80e-06	0	42	0	162529280	16	4776
2026-01-28 01:43:09.97	7.93	11.24	-28.4	-30.7	13.9	4.50e-06	0	42	0	165675008	16	4710
2026-01-28 01:43:10.97	7.84	11.32	-28.2	-30.4	14.1	2.20e-06	0	42	0	168820736	16	4609
2026-01-28 01:43:11.97	7.76	11.40	-28.3	-30.4	14.1	3.00e-06	0	42	0	171966464	16	4620
2026-01-28 01:43:12.98	7.66	11.48	-28.3	-30.4	14.0	2.25e-04	0	42	0	175112192	16	4625
2026-01-28 01:43:13.98	7.57	11.56	-28.2	-30.3	14.1	1.50e-06	0	42	0	178257920	16	4590
2026-01-28 01:43:14.97	7.48	11.64	-28.5	-30.5	13.7	3.80e-06	0	42	0	181403648	17	4541
2026-01-28 01:43:15.98	7.39	11.73	-28.2	-29.8	14.2	2.20e-06	0	42	0	184549376	17	4317
2026-01-28 01:43:16.98	7.30	11.81	-28.0	-29.9	14.4	7.00e-07	0	42	0	187695104	16	4445
2026-01-28 01:43:17.99	7.21	11.89	-28.2	-30.3	14.2	2.20e-06	0	43	0	190840832	16	4590
2026-01-28 01:43:18.99	7.11	11.97	-28.1	-29.9	14.4	5.30e-06	0	42	0	193986560	16	4464
2026-01-28 01:43:19.99	7.02	12.05	-28.0	-29.8	14.5	3.00e-06	0	42	0	197132288	16	4421
2026-01-28 01:43:21.00	6.92	12.14	-27.8	-29.9	14.5	7.00e-07	0	42	0	200278016	15	4576
2026-01-28 01:43:22.00	6.83	12.22	-27.8	-29.9	14.6	1.50e-06	0	43	0	203423744	15	4570
2026-01-28 01:43:23.00	6.73	12.30	-27.9	-30.2	14.4	1.50e-06	0	42	0	206569472	15	4658
2026-01-28 01:43:24.01	6.64	12.38	-27.8	-29.8	14.6	0.00e+00	0	42	0	209715200	15	4534
2026-01-28 01:43:25.00	6.54	12.47	-27.6	-29.5	14.8	4.50e-06	0	43	0	212860928	15	4446
2026-01-28 01:43:26.00	6.44	12.55	-27.7	-29.6	14.7	1.50e-06	0	42	0	216006656	15	4487
2026-01-28 01:43:27.01	6.34	12.63	-27.8	-29.8	14.7	7.00e-07	0	42	0	219152384	15	4539
2026-01-28 01:43:28.01	6.25	12.72	-27.7	-29.5	14.8	7.00e-07	0	42	0	222298112	15	4469
2026-01-28 01:43:29.02	6.15	12.80	-27.7	-29.7	14.6	0.00e+00	0	42	0	225443840	15	4518
2026-01-28 01:43:30.02	6.05	12.88	-27.6	-29.4	14.8	0.00e+00	0	42	0	228589568	15	4441
2026-01-28 01:43:31.02	5.95	12.97	-27.6	-29.5	14.8	9.84e-05	0	43	0	231735296	15	4446
2026-01-28 01:43:32.03	5.85	13.05	-27.6	-29.5	14.8	9.46e-05	0	42	0	234881024	15	4444
2026-01-28 01:43:33.03	5.74	13.14	-27.9	-30.0	14.6	0.00e+00	0	43	0	238026752	15	4608
2026-01-28 01:43:34.02	5.64	13.22	-27.7	-29.6	14.7	0.00e+00	0	42	0	241172480	15	4486
2026-01-28 01:43:35.02	5.54	13.31	-27.8	-29.9	14.6	3.81e-05	0	42	0	244318208	15	4583
2026-01-28 01:43:36.02	5.44	13.39	-27.8	-29.9	14.6	7.00e-07	0	42	0	247463936	15	4585
2026-01-28 01:43:37.02	5.34	13.48	-27.9	-30.1	14.5	1.29e-05	0	42	0	250609664	15	4624
2026-01-28 01:43:38.02	5.23	13.56	-27.7	-29.7	14.7	7.00e-07	0	42	0	253755392	15	4532
2026-01-28 01:43:39.02	5.13	13.65	-27.8	-29.9	14.6	1.50e-06	0	43	0	255852544	15	4592
2026-01-28 01:43:40.02	5.02	13.73	-27.8	-29.8	14.7	0.00e+00	0	42	0	258998272	15	4539
2026-01-28 01:43:41.03	4.91	13.82	-27.8	-29.9	14.6	2.67e-05	0	42	0	262144000	15	4561
2026-01-28 01:43:42.03	4.81	13.91	-27.9	-30.2	14.5	1.50e-06	0	43	0	265289728	15	4650
2026-01-28 01:43:43.03	4.70	13.99	-27.6	-29.4	14.9	7.00e-07	0	43	0	269484032	15	4436
2026-01-28 01:43:44.03	4.59	14.08	-27.5	-29.2	15.0	0.00e+00	0	42	0	271581184	15	4376
2026-01-28 01:43:45.03	4.48	14.17	-27.5	-29.2	15.1	0.00e+00	0	43	0	274726912	15	4362
2026-01-28 01:43:46.03	4.37	14.25	-27.6	-29.4	15.0	0.00e+00	0	43	0	277872640	15	4420
2026-01-28 01:43:47.03	4.26	14.34	-27.5	-29.2	15.1	0.00e+00	0	43	0	281018368	15	4356
2026-01-28 01:43:48.03	4.15	14.43	-27.6	-29.4	15.0	0.00e+00	0	43	0	284164096	15	4408
2026-01-28 01:43:49.03	4.04	14.51	-27.6	-29.3	15.0	0.00e+00	0	43	0	287309824	15	4398
2026-01-28 01:43:50.04	3.93	14.60	-27.5	-29.1	15.1	0.00e+00	0	43	0	290455552	15	4345
2026-01-28 01:43:51.05	3.81	14.69	-27.6	-29.3	15.0	0.00e+00	0	42	0	293601280	15	4380
2026-01-28 01:43:52.05	3.70	14.78	-27.7	-29.5	15.0	0.00e+00	0	42	0	296747008	15	4449
2026-01-28 01:43:53.05	3.59	14.87	-27.6	-29.3	15.1	0.00e+00	0	43	0	299892736	15	4377
2026-01-28 01:43:54.05	3.47	14.96	-27.5	-29.2	15.1	0.00e+00	0	43	0	303038464	15	4376
2026-01-28 01:43:55.06	3.36	15.05	-27.6	-29.4	14.9	0.00e+00	0	42	0	306184192	15	4425
2026-01-28 01:43:56.06	3.24	15.14	-27.5	-29.2	15.1	0.00e+00	0	43	0	309329920	15	4376
2026-01-28 01:43:57.07	3.12	15.23	-27.5	-29.2	15.1	0.00e+00	0	43	0	312475648	15	4365
2026-01-28 01:43:58.07	3.00	15.32	-27.5	-29.2	15.1	0.00e+00	0	42	0	315621376	15	4360
2026-01-28 01:43:59.08	2.88	15.41	-27.6	-29.4	15.0	0.00e+00	0	43	0	318767104	15	4411
2026-01-28 01:44:00.09	2.76	15.50	-27.5	-29.1	15.2	0.00e+00	0	42	0	321912832	15	4323
2026-01-28 01:44:01.09	2.64	15.59	-27.5	-29.1	15.1	0.00e+00	0	43	0	325058560	15	4328
2026-01-28 01:44:02.10	2.52	15.68	-27.5	-29.1	15.2	0.00e+00	0	43	0	328204288	15	4341
2026-01-28 01:44:03.10	2.40	15.77	-27.5	-29.0	15.2	0.00e+00	0	43	0	331350016	15	4304
2026-01-28 01:44:04.10	2.28	15.86	-27.6	-29.3	15.1	0.00e+00	0	43	0	334495744	15	4379
2026-01-28 01:44:05.11	2.15	15.95	-27.5	-29.0	15.2	0.00e+00	0	43	0	337641472	15	4312
2026-01-28 01:44:06.11	2.03	16.04	-27.4	-29.4	15.3	0.00e+00	0	43	0	340787200	14	4536
2026-01-28 01:44:07.11	1.91	16.13	-27.4	-29.5	15.3	0.00e+00	0	43	0	343932928	14	4554
2026-01-28 01:44:08.11	1.78	16.23	-27.5	-29.1	15.2	0.00e+00	0	43	0	347078656	15	4330
2026-01-28 01:44:09.12	1.65	16.32	-27.4	-29.0	15.3	0.00e+00	0	43	0	350224384	15	4295
2026-01-28 01:44:10.13	1.53	16.41	-27.6	-29.4	15.0	0.00e+00	0	43	0	353370112	15	4424
2026-01-28 01:44:11.13	1.40	16.50	-28.0	-30.2	12.9	0.00e+00	0	43	0	356515840	15	4591
2026-01-28 01:44:12.14	1.27	16.60	-27.6	-29.4	15.0	0.00e+00	0	43	0	359661568	15	4404
2026-01-28 01:44:13.14	1.14	16.69	-27.7	-29.5	14.9	0.00e+00	0	43	0	362807296	15	4444
2026-01-28 01:44:14.15	1.01	16.78	-27.7	-29.5	15.0	0.00e+00	0	43	0	365953024	15	4460
2026-01-28 01:44:15.15	0.88	16.88	-27.7	-29.6	15.0	2.06e-04	0	43	0	369098752	15	4475
2026-01-28 01:44:16.15	0.74	16.97	-27.8	-29.7	14.9	0.00e+00	0	43	0	372244480	15	4511
2026-01-28 01:44:17.16	0.61	17.06	-27.7	-29.7	14.9	0.00e+00	0	43	0	375390208	15	4489
2026-01-28 01:44:18.16	0.48	17.16	-27.8	-29.7	14.9	0.00e+00	0	43	0	378535936	15	4516
2026-01-28 01:44:19.16	0.34	17.25	-27.7	-29.6	15.0	0.00e+00	0	43	0	381681664	15	4473
2026-01-28 01:44:20.16	0.21	17.34	-27.8	-29.9	14.8	3.70e-03	0	43	0	384827392	15	4559
2026-01-28 01:44:21.16	0.07	17.44	-27.9	-30.1	14.7	2.46e-04	0	43	0	387973120	15	4612
2026-01-28 01:44:22.16	359.93	17.53	-27.7	-29.6	15.0	0.00e+00	0	43	0	391118848	15	4476
2026-01-28 01:44:23.17	359.80	17.63	-27.6	-29.3	15.1	0.00e+00	0	43	0	394264576	15	4401
2026-01-28 01:44:24.18	359.66	17.72	-27.7	-29.6	15.0	0.00e+00	0	43	0	397410304	15	4457
2026-01-28 01:44:25.18	359.52	17.82	-27.8	-29.7	14.9	4.13e-03	0	43	0	400556032	15	4491
2026-01-28 01:44:26.18	359.38	17.91	-27.9	-29.9	14.8	3.96e-03	0	43	0	403701760	15	4576
2026-01-28 01:44:27.19	359.23	18.01	-27.8	-29.8	14.9	2.43e-04	0	43	0	406847488	15	4539
2026-01-28 01:44:28.20	359.09	18.11	-27.9	-30.0	14.8	0.00e+00	0	43	0	409993216	15	4606
2026-01-28 01:44:29.20	358.95	18.20	-27.8	-29.9	14.8	0.00e+00	0	43	0	413138944	15	4553
2026-01-28 01:44:30.21	358.80	18.30	-27.9	-30.0	14.8	1.94e-04	0	43	0	416284672	15	4588
2026-01-28 01:44:31.21	358.65	18.39	-27.8	-29.7	14.9	3.61e-03	0	43	0	419430400	15	4513
2026-01-28 01:44:32.22	358.51	18.49	-27.8	-29.7	15.0	4.00e-03	0	43	0	422576128	15	4505
2026-01-28 01:44:33.22	358.36	18.59	-27.2	-29.0	15.0	0.00e+00	0	43	0	425721856	15	4468
2026-01-28 01:44:34.22	358.21	18.68	-27.7	-29.7	14.7	1.07e-03	0	43	0	428867584	15	4494
2026-01-28 01:44:35.22	358.06	18.78	-27.6	-29.3	15.2	3.84e-03	0	43	0	432013312	15	4381
2026-01-28 01:44:36.22	357.91	18.88	-27.6	-29.4	15.1	3.18e-04	0	43	0	435159040	15	4422
2026-01-28 01:44:37.23	357.76	18.98	-27.7	-29.5	15.1	3.75e-03	0	43	0	438304768	15	4434
2026-01-28 01:44:38.24	357.61	19.07	-27.6	-29.3	15.2	3.60e-03	0	43	0	441450496	15	4385
2026-01-28 01:44:39.23	357.46	19.17	-27.6	-29.3	15.2	2.37e-04	0	43	0	444596224	15	4393
2026-01-28 01:44:40.23	357.30	19.27	-27.6	-29.3	15.2	3.60e-03	0	43	0	447741952	15	4372
2026-01-28 01:44:41.24	357.15	19.37	-27.6	-29.3	15.2	3.93e-03	0	43	0	450887680	15	4387
2026-01-28 01:44:42.24	356.99	19.46	-27.6	-29.4	15.2	3.29e-04	0	43	0	454033408	15	4401
2026-01-28 01:44:43.25	356.83	19.56	-27.8	-29.7	15.0	4.20e-03	0	43	0	457179136	15	4502
2026-01-28 01:44:44.25	356.67	19.66	-27.5	-29.1	15.3	0.00e+00	0	43	0	460324864	15	4318
2026-01-28 01:44:45.25	356.51	19.76	-27.3	-29.1	15.6	2.93e-04	0	43	0	463470592	14	4435
2026-01-28 01:44:46.26	356.35	19.86	-27.2	-28.9	15.7	3.71e-03	0	43	0	466616320	14	4383
2026-01-28 01:44:47.27	356.19	19.96	-27.2	-28.9	15.7	3.37e-03	0	43	0	469762048	14	4379
2026-01-28 01:44:48.26	356.03	20.06	-27.2	-28.8	15.8	4.68e-04	0	43	0	472907776	14	4364
2026-01-28 01:44:49.27	355.86	20.16	-27.2	-28.8	15.8	2.20e-04	0	43	0	476053504	14	4359
2026-01-28 01:44:50.27	355.70	20.26	-26.9	-28.3	16.1	0.00e+00	0	42	0	479199232	14	4220
2026-01-28 01:44:51.27	355.53	20.36	-27.0	-28.4	16.1	1.63e-04	0	43	0	482344960	14	4232
2026-01-28 01:44:52.28	355.37	20.46	-27.0	-28.4	16.0	3.83e-03	0	43	0	485490688	14	4251
2026-01-28 01:44:53.28	355.20	20.56	-26.9	-28.7	16.1	3.28e-03	0	43	0	488636416	13	4455
2026-01-28 01:44:54.28	355.03	20.65	-26.9	-28.8	16.1	2.82e-04	0	43	0	491782144	13	4455
2026-01-28 01:44:55.28	354.86	20.75	-26.9	-28.8	16.0	2.46e-04	0	43	0	494927872	13	4469
2026-01-28 01:44:56.28	354.69	20.85	-26.9	-28.3	16.0	0.00e+00	0	43	0	498073600	14	4224
2026-01-28 01:44:57.28	354.52	20.95	-26.8	-28.1	16.1	4.20e-04	0	43	0	501219328	14	4164
2026-01-28 01:44:58.29	354.34	21.06	-26.7	-28.4	16.3	2.98e-03	0	43	0	504365056	13	4343
2026-01-28 01:44:59.29	354.17	21.16	-26.7	-28.3	16.3	0.00e+00	0	43	0	507510784	13	4339
2026-01-28 01:45:00.30	353.99	21.26	-26.6	-28.1	16.5	1.25e-04	0	43	0	510656512	13	4274
2026-01-28 01:45:01.30	353.81	21.36	-26.6	-28.1	16.4	7.93e-05	0	43	0	513802240	13	4266
2026-01-28 01:45:02.30	353.63	21.46	-26.6	-28.1	16.4	2.94e-03	0	43	0	516947968	13	4275
2026-01-28 01:45:03.30	353.46	21.56	-26.6	-28.0	16.5	2.05e-05	0	43	0	520093696	13	4238
2026-01-28 01:45:04.30	353.28	21.66	-26.6	-28.0	16.5	3.50e-05	0	43	0	523239424	13	4251
2026-01-28 01:45:05.31	353.09	21.76	-26.6	-28.1	16.5	0.00e+00	0	43	0	526385152	13	4271
2026-01-28 01:45:06.32	352.91	21.86	-26.6	-28.0	16.5	0.00e+00	0	43	0	529530880	13	4237
2026-01-28 01:45:07.32	352.72	21.96	-26.6	-28.1	16.5	0.00e+00	0	43	0	532676608	13	4273
2026-01-28 01:45:08.33	352.54	22.07	-26.5	-27.8	16.6	0.00e+00	0	43	0	535822336	13	4195
2026-01-28 01:45:09.33	352.35	22.17	-26.7	-28.2	16.4	0.00e+00	0	43	0	538968064	13	4307
2026-01-28 01:45:10.32	352.16	22.27	-26.8	-28.6	16.2	0.00e+00	0	43	0	542113792	13	4405
2026-01-28 01:45:11.33	351.97	22.37	-26.7	-28.3	16.4	0.00e+00	0	43	0	545259520	13	4322
2026-01-28 01:45:12.33	351.78	22.47	-26.7	-28.2	16.4	0.00e+00	0	43	0	548405248	13	4298
2026-01-28 01:45:13.33	351.59	22.57	-26.6	-28.0	16.5	0.00e+00	0	43	0	551550976	13	4248
2026-01-28 01:45:14.33	351.40	22.68	-26.6	-28.1	16.5	0.00e+00	0	43	0	554696704	13	4260
2026-01-28 01:45:15.34	351.20	22.78	-26.6	-28.0	16.5	0.00e+00	0	43	0	557842432	13	4247
2026-01-28 01:45:16.35	351.01	22.88	-26.6	-28.0	16.5	0.00e+00	0	43	0	560988160	13	4239
2026-01-28 01:45:17.35	350.81	22.98	-26.5	-27.9	16.6	0.00e+00	0	43	0	564133888	13	4204
2026-01-28 01:45:18.36	350.61	23.08	-26.5	-27.9	16.6	0.00e+00	0	43	0	567279616	13	4207
2026-01-28 01:45:19.36	350.41	23.19	-26.6	-28.0	16.5	0.00e+00	0	43	0	570425344	13	4232
2026-01-28 01:45:20.36	350.21	23.29	-26.7	-28.2	16.4	0.00e+00	0	43	0	573571072	13	4298
2026-01-28 01:45:21.37	350.00	23.39	-26.7	-28.2	16.4	0.00e+00	0	43	0	576716800	13	4300
2026-01-28 01:45:22.37	349.80	23.49	-26.8	-28.6	16.2	0.00e+00	0	43	0	578813952	13	4405
2026-01-28 01:45:23.37	349.60	23.59	-26.7	-28.3	16.4	0.00e+00	0	43	0	581959680	13	4322
2026-01-28 01:45:24.37	349.39	23.70	-26.7	-28.4	16.3	0.00e+00	0	43	0	585105408	13	4354
2026-01-28 01:45:25.37	349.18	23.80	-26.6	-28.2	16.4	0.00e+00	0	43	0	588251136	13	4290
2026-01-28 01:45:26.37	348.97	23.90	-26.6	-28.1	16.5	0.00e+00	0	43	0	591396864	13	4265
2026-01-28 01:45:27.37	348.76	24.00	-26.6	-28.1	16.4	0.00e+00	0	43	0	594542592	13	4279
2026-01-28 01:45:28.38	348.55	24.10	-26.7	-28.2	16.4	0.00e+00	0	43	0	598736896	13	4303
2026-01-28 01:45:29.38	348.34	24.21	-26.8	-28.5	16.3	0.00e+00	0	43	0	601882624	13	4364
2026-01-28 01:45:30.39	348.12	24.31	-26.9	-28.7	16.2	0.00e+00	0	43	0	603979776	13	4444
2026-01-28 01:45:31.39	347.91	24.41	-27.0	-28.4	16.1	0.00e+00	0	43	0	607125504	14	4245
2026-01-28 01:45:32.40	347.69	24.51	-27.0	-28.4	16.1	0.00e+00	0	43	0	610271232	14	4233
2026-01-28 01:45:33.40	347.47	24.61	-26.9	-28.2	16.2	0.00e+00	0	43	0	613416960	14	4182
2026-01-28 01:45:34.40	347.25	24.72	-26.9	-28.3	16.2	0.00e+00	0	43	0	616562688	14	4204
2026-01-28 01:45:35.42	347.02	24.82	-26.9	-28.1	16.3	0.00e+00	0	43	0	619708416	14	4165
2026-01-28 01:45:36.42	346.80	24.92	-26.7	-27.7	16.5	0.00e+00	0	43	0	622854144	14	4057
2026-01-28 01:45:37.43	346.57	25.02	-26.7	-27.8	16.4	0.00e+00	0	43	0	625999872	14	4074
2026-01-28 01:45:38.43	346.35	25.12	-26.7	-27.9	16.4	0.00e+00	0	43	0	629145600	14	4095
2026-01-28 01:45:39.44	346.12	25.23	-26.9	-28.3	16.2	0.00e+00	0	43	0	632291328	14	4203
2026-01-28 01:45:40.44	345.89	25.33	-27.0	-28.5	16.0	0.00e+00	0	43	0	635437056	14	4271
2026-01-28 01:45:41.44	345.66	25.43	-27.1	-28.6	16.0	0.00e+00	0	43	0	638582784	14	4291
2026-01-28 01:45:42.44	345.43	25.53	-27.3	-29.1	15.8	0.00e+00	0	43	0	641728512	14	4426
2026-01-28 01:45:43.44	345.19	25.63	-27.3	-29.1	15.7	0.00e+00	0	43	0	644874240	14	4432
2026-01-28 01:45:44.43	344.96	25.73	-27.1	-28.7	15.9	0.00e+00	0	43	0	648019968	14	4335
2026-01-28 01:45:45.44	344.72	25.83	-27.1	-28.6	16.0	0.00e+00	0	43	0	651165696	14	4289
2026-01-28 01:45:46.44	344.48	25.93	-27.2	-28.8	15.9	0.00e+00	0	43	0	654311424	14	4341
2026-01-28 01:45:47.44	344.24	26.03	-27.3	-29.0	15.8	0.00e+00	0	43	0	657457152	14	4411
2026-01-28 01:45:48.43	344.01	26.13	-27.3	-29.0	15.8	0.00e+00	0	43	0	660602880	14	4408
2026-01-28 01:45:49.44	343.76	26.23	-27.3	-29.2	15.7	0.00e+00	0	43	0	663748608	14	4467
2026-01-28 01:45:50.44	343.52	26.33	-27.4	-29.3	15.6	0.00e+00	0	43	0	666894336	14	4498
2026-01-28 01:45:51.45	343.27	26.43	-27.4	-29.2	15.6	0.00e+00	0	43	0	670040064	14	4473
2026-01-28 01:45:52.46	343.02	26.53	-27.4	-29.3	15.6	0.00e+00	0	43	0	673185792	14	4497
2026-01-28 01:45:53.46	342.77	26.62	-27.6	-29.3	15.3	7.00e-07	0	43	0	676331520	15	4374
2026-01-28 01:45:54.47	342.52	26.72	-27.6	-29.4	15.3	1.50e-06	0	43	0	679477248	15	4400
2026-01-28 01:45:55.47	342.27	26.82	-27.4	-28.8	15.6	0.00e+00	0	43	0	682622976	15	4244
2026-01-28 01:45:56.47	342.01	26.92	-27.4	-29.3	15.6	0.00e+00	0	43	0	685768704	14	4481
2026-01-28 01:45:57.47	341.76	27.02	-27.4	-29.3	15.6	0.00e+00	0	43	0	688914432	14	4485
2026-01-28 01:45:58.47	341.50	27.11	-27.4	-29.4	15.6	0.00e+00	0	43	0	692060160	14	4507
2026-01-28 01:45:59.48	341.24	27.21	-27.4	-29.4	15.6	0.00e+00	0	43	0	695205888	14	4499
2026-01-28 01:46:00.48	340.98	27.31	-27.3	-29.1	15.7	0.00e+00	0	43	0	698351616	14	4445
2026-01-28 01:46:01.48	340.72	27.41	-27.3	-29.2	15.7	0.00e+00	0	43	0	701497344	14	4456
2026-01-28 01:46:02.48	340.46	27.50	-27.3	-29.1	15.7	0.00e+00	0	43	0	704643072	14	4429
2026-01-28 01:46:03.47	340.19	27.60	-26.4	-28.3	15.6	0.00e+00	0	43	0	707788800	14	4453
2026-01-28 01:46:04.48	339.92	27.69	-27.2	-29.0	13.7	0.00e+00	0	43	0	710934528	14	4405
2026-01-28 01:46:05.48	339.66	27.79	-27.1	-28.6	16.0	0.00e+00	0	43	0	714080256	14	4297
2026-01-28 01:46:06.48	339.39	27.88	-27.0	-28.9	14.2	0.00e+00	0	43	0	717225984	13	4484
2026-01-28 01:46:07.48	339.12	27.98	-27.0	-28.9	16.1	0.00e+00	0	43	0	720371712	13	4480
2026-01-28 01:46:08.48	338.84	28.07	-27.0	-28.9	16.1	0.00e+00	0	43	0	723517440	13	4493
2026-01-28 01:46:09.49	338.57	28.16	-26.2	-27.8	15.6	3.43e-05	0	43	0	726663168	14	4309
2026-01-28 01:46:10.49	338.29	28.26	-27.2	-28.8	15.9	2.12e-03	0	43	0	729808896	14	4341
2026-01-28 01:46:11.49	338.01	28.35	-27.2	-28.9	14.9	0.00e+00	0	43	0	732954624	14	4371
2026-01-28 01:46:12.49	337.73	28.44	-27.3	-29.2	15.6	0.00e+00	0	43	0	736100352	14	4471
2026-01-28 01:46:13.50	337.45	28.53	-27.5	-29.5	15.5	0.00e+00	0	43	0	739246080	14	4537
2026-01-28 01:46:14.50	337.17	28.63	-27.6	-29.3	15.3	1.97e-04	0	43	0	742391808	15	4390
2026-01-28 01:46:15.50	336.88	28.72	-27.6	-29.3	15.4	6.53e-04	0	43	0	745537536	15	4366
2026-01-28 01:46:16.50	336.60	28.81	-27.3	-29.0	15.8	5.94e-04	0	43	0	748683264	14	4417
2026-01-28 01:46:17.51	336.31	28.90	-27.2	-28.8	15.9	0.00e+00	0	43	0	751828992	14	4350
2026-01-28 01:46:18.51	336.02	28.99	-27.2	-28.9	15.9	0.00e+00	0	43	0	754974720	14	4374
2026-01-28 01:46:19.51	335.73	29.07	-27.1	-28.7	16.0	0.00e+00	0	43	0	758120448	14	4329
2026-01-28 01:46:20.51	335.44	29.16	-27.0	-28.4	16.1	6.10e-04	0	43	0	761266176	14	4239
2026-01-28 01:46:21.52	335.14	29.25	-26.9	-28.1	16.3	4.01e-04	0	43	0	764411904	14	4157
2026-01-28 01:46:22.52	334.85	29.34	-26.9	-28.2	16.2	0.00e+00	0	43	0	767557632	14	4188
2026-01-28 01:46:23.52	334.55	29.42	-26.9	-28.7	16.2	0.00e+00	0	43	0	770703360	13	4438
2026-01-28 01:46:24.53	334.25	29.51	-26.9	-28.8	16.2	3.07e-04	0	43	0	773849088	13	4458
2026-01-28 01:46:25.53	333.95	29.60	-27.0	-28.4	16.1	2.41e-04	0	43	0	776994816	14	4244
2026-01-28 01:46:26.54	333.64	29.68	-27.0	-28.4	16.1	4.08e-04	0	43	0	780140544	14	4230
2026-01-28 01:46:27.53	333.34	29.76	-27.2	-28.8	15.9	8.55e-04	0	43	0	783286272	14	4349
2026-01-28 01:46:28.54	333.03	29.85	-27.1	-28.7	15.9	2.15e-03	0	43	0	786432000	14	4311
2026-01-28 01:46:29.54	332.73	29.93	-27.2	-28.8	15.9	6.28e-04	0	43	0	789577728	14	4348
2026-01-28 01:46:30.54	332.42	30.01	-27.3	-29.1	15.7	3.42e-03	0	43	0	792723456	14	4426
2026-01-28 01:46:31.54	332.11	30.09	-27.3	-29.1	15.7	3.40e-03	0	43	0	795869184	14	4419
2026-01-28 01:46:32.55	331.79	30.17	-27.2	-29.0	15.8	6.54e-04	0	43	0	799014912	14	4395
2026-01-28 01:46:33.55	331.48	30.25	-27.3	-29.1	15.7	3.00e-03	0	43	0	802160640	14	4442
2026-01-28 01:46:34.55	331.17	30.33	-27.4	-29.3	15.6	2.22e-03	0	43	0	805306368	14	4488
2026-01-28 01:46:35.55	330.85	30.41	-27.4	-28.8	15.7	6.35e-04	0	43	0	808452096	15	4227
2026-01-28 01:46:36.55	330.53	30.49	-27.3	-29.1	15.7	3.18e-03	0	43	0	811597824	14	4435
2026-01-28 01:46:37.56	330.21	30.56	-27.3	-29.1	15.8	3.79e-03	0	43	0	814743552	14	4426
2026-01-28 01:46:38.56	329.89	30.64	-27.3	-29.0	15.8	5.63e-04	0	43	0	817889280	14	4409
2026-01-28 01:46:39.56	329.57	30.71	-27.3	-29.0	15.8	3.90e-03	0	43	0	821035008	14	4406
2026-01-28 01:46:40.57	329.24	30.79	-27.2	-28.9	15.9	3.70e-03	0	43	0	824180736	14	4363
2026-01-28 01:46:41.57	328.92	30.86	-27.3	-29.0	15.7	5.90e-04	0	43	0	827326464	14	4410
2026-01-28 01:46:42.58	328.59	30.94	-27.4	-29.4	15.6	3.87e-03	0	44	0	830472192	14	4517
2026-01-28 01:46:43.59	328.25	31.01	-27.5	-29.1	15.4	1.23e-03	0	43	0	833617920	15	4334
2026-01-28 01:46:44.59	327.93	31.08	-27.6	-29.3	15.4	0.00e+00	0	43	0	836763648	15	4378
2026-01-28 01:46:45.59	327.59	31.15	-27.5	-29.1	15.5	0.00e+00	0	43	0	839909376	15	4325
2026-01-28 01:46:46.59	327.26	31.22	-27.5	-29.1	15.5	3.98e-03	0	43	0	843055104	15	4302
2026-01-28 01:46:47.60	326.92	31.28	-27.5	-29.1	15.5	1.47e-04	0	43	0	846200832	15	4308
2026-01-28 01:46:48.61	326.59	31.35	-27.6	-29.3	15.4	6.10e-06	0	44	0	849346560	15	4366
2026-01-28 01:46:49.62	326.25	31.42	-27.7	-29.5	15.3	0.00e+00	0	43	0	852492288	15	4421
2026-01-28 01:46:50.61	325.91	31.48	-27.6	-29.3	15.4	0.00e+00	0	43	0	855638016	15	4375
2026-01-28 01:46:51.61	325.57	31.55	-27.7	-29.5	15.3	4.15e-03	0	43	0	857735168	15	4421
2026-01-28 01:46:52.61	325.23	31.61	-27.7	-29.5	15.3	3.80e-03	0	43	0	860880896	15	4445
2026-01-28 01:46:53.61	324.89	31.67	-27.7	-29.5	15.3	2.80e-04	0	43	0	864026624	15	4432
2026-01-28 01:46:54.62	324.54	31.73	-27.8	-29.8	15.1	0.00e+00	0	43	0	867172352	15	4529
2026-01-28 01:46:55.63	324.19	31.79	-28.1	-29.9	14.9	0.00e+00	0	43	0	870318080	16	4432
2026-01-28 01:46:56.63	323.85	31.85	-28.3	-30.5	14.6	0.00e+00	0	43	0	874512384	16	4596
2026-01-28 01:46:57.63	323.50	31.91	-28.3	-30.4	14.7	0.00e+00	0	44	0	877658112	16	4567
2026-01-28 01:46:58.64	323.15	31.97	-28.2	-30.2	14.8	0.00e+00	0	43	0	879755264	16	4513
2026-01-28 01:46:59.64	322.80	32.02	-28.2	-30.2	14.8	0.00e+00	0	43	0	882900992	16	4511
2026-01-28 01:47:00.65	322.44	32.08	-28.3	-30.4	14.7	0.00e+00	0	43	0	886046720	16	4562
2026-01-28 01:47:01.65	322.09	32.13	-28.3	-30.4	14.6	0.00e+00	0	43	0	889192448	16	4568
2026-01-28 01:47:02.65	321.74	32.18	-28.4	-30.6	14.6	0.00e+00	0	43	0	892338176	16	4625
2026-01-28 01:47:03.64	321.39	32.23	-28.3	-30.5	14.6	0.00e+00	0	43	0	895483904	16	4591
2026-01-28 01:47:04.65	321.03	32.28	-28.2	-30.2	14.8	0.00e+00	0	43	0	898629632	16	4521
2026-01-28 01:47:05.65	320.67	32.33	-28.2	-30.1	14.8	0.00e+00	0	43	0	901775360	16	4492
2026-01-28 01:47:06.65	320.31	32.38	-28.1	-29.9	14.9	0.00e+00	0	43	0	904921088	16	4439
2026-01-28 01:47:07.65	319.96	32.42	-27.9	-29.9	15.0	0.00e+00	0	43	0	908066816	15	4556
2026-01-28 01:47:08.66	319.59	32.47	-28.0	-30.1	14.9	0.00e+00	0	43	0	911212544	15	4600
2026-01-28 01:47:09.66	319.23	32.51	-28.1	-29.9	14.9	0.00e+00	0	44	0	914358272	16	4436
2026-01-28 01:47:10.67	318.87	32.56	-28.2	-30.0	14.9	0.00e+00	0	43	0	917504000	16	4468
2026-01-28 01:47:11.68	318.50	32.60	-28.2	-30.0	14.8	0.00e+00	0	43	0	920649728	16	4462
2026-01-28 01:47:12.68	318.14	32.64	-28.2	-30.1	14.8	0.00e+00	0	43	0	923795456	16	4493
2026-01-28 01:47:13.68	317.77	32.68	-28.5	-30.7	14.4	7.00e-07	0	43	0	926941184	16	4681
2026-01-28 01:47:14.68	317.41	32.71	-28.4	-30.6	14.6	7.00e-07	0	43	0	930086912	16	4628
2026-01-28 01:47:15.69	317.04	32.75	-28.3	-30.3	14.7	0.00e+00	0	43	0	933232640	16	4552
2026-01-28 01:47:16.69	316.67	32.78	-28.5	-30.4	14.4	0.00e+00	0	43	0	936378368	17	4458
2026-01-28 01:47:17.69	316.30	32.82	-28.4	-30.0	14.6	0.00e+00	0	43	0	939524096	17	4337
2026-01-28 01:47:18.69	315.93	32.85	-28.2	-30.0	14.9	0.00e+00	0	43	0	942669824	16	4468
2026-01-28 01:47:19.69	315.56	32.88	-28.0	-29.6	15.1	0.00e+00	0	43	0	945815552	16	4343
2026-01-28 01:47:20.69	315.19	32.91	-28.0	-29.7	15.1	0.00e+00	0	43	0	948961280	16	4364
2026-01-28 01:47:21.70	314.82	32.94	-28.2	-30.1	14.8	0.00e+00	0	43	0	952107008	16	4483
2026-01-28 01:47:22.70	314.45	32.97	-28.2	-30.1	14.8	0.00e+00	0	43	0	955252736	16	4467
2026-01-28 01:47:23.71	314.07	32.99	-28.1	-29.9	15.0	0.00e+00	0	43	0	958398464	16	4434
2026-01-28 01:47:24.71	313.70	33.02	-27.9	-30.0	15.0	0.00e+00	0	43	0	961544192	15	4585
2026-01-28 01:47:25.71	313.33	33.04	-28.2	-30.2	14.8	0.00e+00	0	43	0	964689920	16	4507
2026-01-28 01:47:26.71	312.95	33.06	-28.1	-29.8	15.0	0.00e+00	0	43	0	967835648	16	4403
2026-01-28 01:47:27.71	312.58	33.08	-28.1	-29.9	15.0	0.00e+00	0	43	0	970981376	16	4418
2026-01-28 01:47:28.72	312.20	33.10	-28.2	-30.1	14.9	0.00e+00	0	43	0	974127104	16	4468
2026-01-28 01:47:29.72	311.82	33.12	-28.2	-30.2	14.8	0.00e+00	0	43	0	977272832	16	4510
2026-01-28 01:47:30.73	311.45	33.13	-28.2	-30.2	14.8	0.00e+00	0	43	0	980418560	16	4507
2026-01-28 01:47:31.73	311.07	33.15	-28.2	-30.2	14.8	7.00e-07	0	43	0	983564288	16	4506
2026-01-28 01:47:32.74	310.69	33.16	-28.5	-30.3	14.4	0.00e+00	0	43	0	986710016	17	4431
2026-01-28 01:47:33.74	310.31	33.17	-28.7	-30.8	14.2	1.50e-06	0	43	0	989855744	17	4570
2026-01-28 01:47:34.74	309.94	33.18	-28.5	-30.2	14.5	7.00e-07	0	43	0	993001472	17	4406
2026-01-28 01:47:35.75	309.56	33.19	-28.2	-29.6	14.8	1.50e-06	0	43	0	996147200	17	4227
2026-01-28 01:47:36.74	309.18	33.20	-28.2	-30.0	14.8	0.00e+00	0	43	0	999292928	16	4467
2026-01-28 01:47:37.75	308.80	33.21	-28.2	-30.1	14.8	0.00e+00	0	43	0	1002438656	16	4468
2026-01-28 01:47:38.75	308.42	33.21	-28.3	-30.3	14.7	0.00e+00	0	43	0	1005584384	16	4555
2026-01-28 01:47:39.75	308.05	33.21	-28.3	-30.4	14.6	0.00e+00	0	43	0	1008730112	16	4583
2026-01-28 01:47:40.75	307.67	33.22	-28.3	-30.4	14.6	7.00e-07	0	43	0	1011875840	16	4567
2026-01-28 01:47:41.75	307.29	33.22	-28.3	-30.4	14.7	7.00e-07	0	43	0	1015021568	16	4561
2026-01-28 01:47:42.75	306.91	33.22	-28.4	-30.6	14.5	0.00e+00	0	43	0	1018167296	16	4644
2026-01-28 01:47:43.75	306.54	33.21	-28.5	-30.3	14.4	1.50e-06	0	43	0	1021313024	17	4446
2026-01-28 01:47:44.76	306.15	33.21	-28.6	-30.6	14.3	1.50e-06	0	43	0	1024458752	17	4509
2026-01-28 01:47:45.76	305.78	33.20	-28.5	-30.2	14.4	1.50e-06	0	43	0	1027604480	17	4414
2026-01-28 01:47:46.77	305.40	33.20	-28.5	-30.4	14.3	0.00e+00	0	44	0	1030750208	17	4471
2026-01-28 01:47:47.77	305.02	33.19	-28.5	-30.3	14.4	7.00e-07	0	43	0	1033895936	17	4426
2026-01-28 01:47:48.77	304.64	33.18	-28.3	-30.4	14.6	3.00e-06	0	43	0	1037041664	16	4590
2026-01-28 01:47:49.77	304.27	33.17	-28.2	-30.1	14.8	0.00e+00	0	43	0	1040187392	16	4492
2026-01-28 01:47:50.78	303.88	33.16	-28.2	-30.1	14.8	0.00e+00	0	44	0	1043333120	16	4480
2026-01-28 01:47:51.78	303.51	33.14	-28.3	-30.4	14.6	7.00e-07	0	43	0	1046478848	16	4558
2026-01-28 01:47:52.78	303.13	33.13	-28.3	-30.4	14.6	0.00e+00	0	43	0	1049624576	16	4558
2026-01-28 01:47:53.78	302.76	33.11	-28.5	-30.8	14.5	0.00e+00	0	43	0	1052770304	16	4687
2026-01-28 01:47:54.79	302.38	33.09	-28.5	-30.3	14.4	1.50e-06	0	43	0	1055916032	17	4431
2026-01-28 01:47:55.79	302.00	33.07	-28.3	-29.9	14.6	1.50e-06	0	43	0	1059061760	17	4308
2026-01-28 01:47:56.79	301.63	33.05	-28.2	-29.7	14.8	0.00e+00	0	43	0	1062207488	17	4250
2026-01-28 01:47:57.80	301.25	33.03	-28.4	-30.1	14.5	0.00e+00	0	43	0	1065353216	17	4361
2026-01-28 01:47:58.80	300.88	33.01	-28.4	-30.5	14.5	0.00e+00	0	43	0	1068498944	16	4613
2026-01-28 01:47:59.80	300.51	32.98	-27.5	-29.6	13.6	0.00e+00	0	43	0	1071644672	16	4580
2026-01-28 01:48:00.81	300.13	32.96	-28.4	-30.5	12.8	7.00e-07	0	44	0	1074790400	16	4602
2026-01-28 01:48:01.82	299.76	32.93	-28.6	-30.6	14.1	7.00e-07	0	43	0	1077936128	17	4516
2026-01-28 01:48:02.81	299.39	32.90	-28.4	-30.7	13.4	7.00e-07	0	43	0	1081081856	16	4667
2026-01-28 01:48:03.82	299.01	32.87	-28.4	-30.7	14.4	7.00e-07	0	44	0	1084227584	16	4661
2026-01-28 01:48:04.82	298.64	32.84	-28.6	-30.6	14.2	1.50e-06	0	43	0	1087373312	17	4513
2026-01-28 01:48:05.82	298.28	32.81	-28.8	-31.0	14.0	1.50e-06	0	43	0	1090519040	17	4651
2026-01-28 01:48:06.82	297.91	32.77	-28.4	-30.2	14.4	1.50e-06	0	43	0	1093664768	17	4394
2026-01-28 01:48:07.83	297.54	32.74	-28.3	-30.2	14.6	0.00e+00	0	43	0	1096810496	16	4523
2026-01-28 01:48:08.84	297.17	32.70	-28.4	-30.5	14.5	0.00e+00	0	43	0	1099956224	16	4615
2026-01-28 01:48:09.84	296.80	32.66	-28.3	-30.3	14.6	7.00e-07	0	44	0	1103101952	16	4555
2026-01-28 01:48:10.84	296.44	32.62	-28.3	-30.4	14.6	8.41e-04	0	43	0	1106247680	16	4561
2026-01-28 01:48:11.85	296.07	32.58	-28.4	-30.5	14.6	3.34e-03	0	43	0	1109393408	16	4602
2026-01-28 01:48:12.85	295.71	32.54	-28.5	-30.8	14.4	2.20e-06	0	43	0	1112539136	16	4704
2026-01-28 01:48:13.85	295.34	32.50	-28.9	-31.3	13.8	2.97e-05	0	44	0	1115684864	17	4736
2026-01-28 01:48:14.86	294.98	32.45	-28.6	-30.6	14.2	9.68e-04	0	43	0	1118830592	17	4533
2026-01-28 01:48:15.86	294.62	32.41	-28.3	-30.2	14.7	3.89e-03	0	43	0	1121976320	16	4527
2026-01-28 01:48:16.87	294.26	32.36	-28.1	-29.8	14.9	1.69e-04	0	43	0	1125122048	16	4409
2026-01-28 01:48:17.88	293.90	32.31	-27.8	-29.8	15.0	3.88e-03	0	43	0	1128267776	15	4537
2026-01-28 01:48:18.88	293.54	32.26	-27.9	-29.9	15.0	0.00e+00	0	43	0	1131413504	15	4565
2026-01-28 01:48:19.88	293.18	32.21	-27.9	-29.9	15.0	3.42e-04	0	43	0	1134559232	15	4557
2026-01-28 01:48:20.89	292.82	32.16	-27.8	-29.7	15.1	3.65e-03	0	43	0	1137704960	15	4498
2026-01-28 01:48:21.90	292.47	32.11	-27.9	-30.0	14.9	3.50e-03	0	43	0	1140850688	15	4574
2026-01-28 01:48:22.90	292.11	32.05	-27.7	-29.6	15.1	7.00e-07	0	43	0	1143996416	15	4469
2026-01-28 01:48:23.91	291.76	32.00	-27.8	-29.7	15.1	3.51e-03	0	43	0	1147142144	15	4501
2026-01-28 01:48:24.91	291.41	31.94	-27.9	-30.1	14.9	4.05e-03	0	43	0	1150287872	15	4601
2026-01-28 01:48:25.92	291.06	31.89	-28.0	-30.2	14.8	1.51e-04	0	43	0	1153433600	15	4635
2026-01-28 01:48:26.92	290.71	31.83	-28.1	-30.0	14.7	3.98e-03	0	43	0	1155530752	16	4465
2026-01-28 01:48:27.93	290.36	31.77	-28.2	-30.2	14.7	3.68e-03	0	43	0	1158676480	16	4506
2026-01-28 01:48:28.93	290.02	31.71	-28.0	-29.7	14.9	2.46e-04	0	43	0	1162870784	16	4363
2026-01-28 01:48:29.93	289.67	31.65	-27.8	-29.7	15.0	0.00e+00	0	43	0	1166016512	15	4496
2026-01-28 01:48:30.93	289.33	31.58	-27.9	-30.0	14.9	3.48e-03	0	43	0	1169162240	15	4587
2026-01-28 01:48:31.94	288.98	31.52	-28.2	-30.2	14.7	7.00e-07	0	43	0	1172307968	16	4526
2026-01-28 01:48:32.95	288.64	31.45	-28.4	-30.7	14.4	3.65e-03	0	43	0	1175453696	16	4671
2026-01-28 01:48:33.95	288.30	31.39	-28.7	-30.9	14.0	4.05e-03	0	43	0	1178599424	17	4630
2026-01-28 01:48:34.96	287.96	31.32	-28.6	-30.6	14.1	1.50e-06	0	43	0	1180696576	17	4539
2026-01-28 01:48:35.97	287.62	31.25	-28.3	-30.5	14.5	7.00e-07	0	43	0	1183842304	16	4605
2026-01-28 01:48:36.97	287.29	31.19	-28.2	-30.0	14.8	3.76e-03	0	43	0	1186988032	16	4469
2026-01-28 01:48:37.97	286.96	31.12	-28.2	-30.1	14.7	1.18e-04	0	43	0	1190133760	16	4479
2026-01-28 01:48:38.98	286.62	31.05	-27.6	-29.3	15.3	3.63e-03	0	43	0	1193279488	15	4377
2026-01-28 01:48:39.98	286.29	30.98	-27.7	-29.5	15.1	0.00e+00	0	43	0	1197473792	15	4447
2026-01-28 01:48:40.98	285.96	30.90	-27.7	-29.6	15.1	0.00e+00	0	43	0	1200619520	15	4465
2026-01-28 01:48:41.99	285.63	30.83	-28.2	-30.1	14.7	0.00e+00	0	43	0	1203765248	16	4486
2026-01-28 01:48:42.99	285.31	30.76	-28.2	-30.2	14.6	1.13e-04	0	43	0	1205862400	16	4514
2026-01-28 01:48:43.99	284.98	30.68	-28.4	-30.6	14.4	7.00e-07	0	43	0	1209008128	16	4633
2026-01-28 01:48:44.99	284.66	30.61	-28.1	-30.0	14.7	7.00e-07	0	43	0	1212153856	16	4458
2026-01-28 01:48:46.00	284.34	30.53	-27.5	-29.2	15.3	0.00e+00	0	43	0	1215299584	15	4353
2026-01-28 01:48:47.00	284.02	30.45	-27.2	-28.3	15.7	0.00e+00	0	43	0	1218445312	15	4116
2026-01-28 01:48:48.00	283.70	30.37	-27.1	-28.7	15.8	3.56e-03	0	43	0	1221591040	14	4332
2026-01-28 01:48:49.00	283.38	30.30	-27.3	-29.1	15.6	2.08e-03	0	43	0	1224736768	14	4448
2026-01-28 01:48:50.01	283.07	30.22	-27.3	-29.1	15.6	0.00e+00	0	44	0	1227882496	14	4424
2026-01-28 01:48:51.01	282.75	30.14	-27.6	-29.3	15.3	0.00e+00	0	43	0	1231028224	15	4370
2026-01-28 01:48:52.02	282.44	30.05	-27.6	-29.3	15.2	0.00e+00	0	43	0	1234173952	15	4391
2026-01-28 01:48:53.02	282.13	29.97	-27.7	-29.5	15.1	0.00e+00	0	44	0	1237319680	15	4430
2026-01-28 01:48:54.03	281.82	29.89	-27.2	-28.5	15.7	0.00e+00	0	43	0	1240465408	15	4154
2026-01-28 01:48:55.04	281.51	29.81	-26.9	-27.8	16.0	0.00e+00	0	43	0	1243611136	15	3966
2026-01-28 01:48:56.04	281.20	29.72	-26.8	-27.6	16.2	0.00e+00	0	43	0	1246756864	15	3924
2026-01-28 01:48:57.04	280.90	29.64	-27.1	-28.6	15.8	0.00e+00	0	43	0	1249902592	14	4299
2026-01-28 01:48:58.04	280.60	29.55	-27.3	-29.1	15.6	0.00e+00	0	43	0	1253048320	14	4437
2026-01-28 01:48:59.05	280.29	29.47	-27.4	-29.4	15.4	0.00e+00	0	43	0	1256194048	14	4520
2026-01-28 01:49:00.04	280.00	29.38	-27.6	-29.4	15.1	0.00e+00	0	43	0	1259339776	15	4419
2026-01-28 01:49:01.04	279.70	29.29	-27.8	-29.8	14.9	1.50e-06	0	43	0	1262485504	15	4535
2026-01-28 01:49:02.04	279.40	29.21	-27.3	-28.7	15.5	0.00e+00	0	43	0	1265631232	15	4216
2026-01-28 01:49:03.05	279.11	29.12	-26.9	-28.1	16.1	0.00e+00	0	43	0	1268776960	14	4170
2026-01-28 01:49:04.05	278.81	29.03	-26.5	-27.9	16.4	0.00e+00	0	43	0	1271922688	13	4228
2026-01-28 01:49:05.05	278.52	28.94	-26.4	-27.7	16.6	0.00e+00	0	43	0	1275068416	13	4155
2026-01-28 01:49:06.05	278.23	28.85	-26.6	-28.1	16.4	0.00e+00	0	43	0	1278214144	13	4278
2026-01-28 01:49:07.06	277.94	28.76	-26.7	-28.3	16.3	0.00e+00	0	43	0	1281359872	13	4317
2026-01-28 01:49:08.06	277.66	28.67	-27.1	-28.8	15.7	0.00e+00	0	43	0	1284505600	14	4343
2026-01-28 01:49:09.07	277.37	28.58	-27.4	-29.3	15.4	0.00e+00	0	43	0	1287651328	14	4494
2026-01-28 01:49:10.08	277.08	28.48	-27.6	-29.4	15.1	0.00e+00	0	43	0	1290797056	15	4415
2026-01-28 01:49:11.08	276.80	28.39	-27.6	-29.4	15.0	0.00e+00	0	43	0	1293942784	15	4416
2026-01-28 01:49:12.09	276.52	28.30	-27.2	-28.5	15.6	0.00e+00	0	43	0	1297088512	15	4158
2026-01-28 01:49:13.09	276.24	28.21	-26.9	-28.2	16.0	0.00e+00	0	43	0	1300234240	14	4198
2026-01-28 01:49:14.10	275.96	28.11	-26.8	-28.0	16.1	0.00e+00	0	43	0	1303379968	14	4141
2026-01-28 01:49:15.10	275.69	28.02	-26.9	-28.7	16.0	0.00e+00	0	43	0	1306525696	13	4456
2026-01-28 01:49:16.10	275.42	27.92	-26.9	-28.7	16.0	0.00e+00	0	43	0	1309671424	13	4449
2026-01-28 01:49:17.10	275.14	27.83	-27.2	-28.9	15.6	0.00e+00	0	43	0	1312817152	14	4382
2026-01-28 01:49:18.10	274.88	27.73	-27.3	-29.1	15.5	0.00e+00	0	43	0	1315962880	14	4429
2026-01-28 01:49:19.11	274.60	27.64	-27.5	-29.1	15.2	0.00e+00	0	43	0	1319108608	15	4333
2026-01-28 01:49:20.11	274.34	27.54	-27.3	-28.6	15.5	0.00e+00	0	43	0	1322254336	15	4205
2026-01-28 01:49:21.12	274.07	27.44	-27.0	-28.1	15.8	0.00e+00	0	43	0	1325400064	15	4060
2026-01-28 01:49:22.13	273.80	27.35	-26.8	-28.0	16.1	0.00e+00	0	43	0	1328545792	14	4133
2026-01-28 01:49:23.13	273.54	27.25	-26.6	-27.6	16.3	0.00e+00	0	43	0	1331691520	14	4032
2026-01-28 01:49:24.14	273.28	27.15	-26.4	-27.2	16.5	0.00e+00	0	43	0	1334837248	14	3944
2026-01-28 01:49:25.15	273.02	27.05	-26.5	-27.9	16.4	0.00e+00	0	43	0	1337982976	13	4217
2026-01-28 01:49:26.15	272.76	26.96	-26.7	-28.3	16.2	0.00e+00	0	43	0	1341128704	13	4329
2026-01-28 01:49:27.16	272.50	26.86	-27.1	-28.6	15.8	0.00e+00	0	43	0	1344274432	14	4309
2026-01-28 01:49:28.16	272.25	26.76	-27.3	-29.1	15.5	0.00e+00	0	43	0	1347420160	14	4436
2026-01-28 01:49:29.16	272.00	26.66	-27.6	-29.4	15.0	0.00e+00	0	43	0	1350565888	15	4431
2026-01-28 01:49:30.16	271.75	26.56	-27.7	-29.5	15.0	0.00e+00	0	43	0	1353711616	15	4447
2026-01-28 01:49:31.17	271.50	26.46	-27.4	-28.9	15.3	0.00e+00	0	43	0	1356857344	15	4295
2026-01-28 01:49:32.17	271.25	26.36	-27.2	-28.4	15.6	0.00e+00	0	43	0	1360003072	15	4133
2026-01-28 01:49:33.18	271.00	26.26	-26.9	-28.2	15.9	0.00e+00	0	43	0	1363148800	14	4198
2026-01-28 01:49:34.18	270.76	26.16	-26.8	-28.0	16.1	0.00e+00	0	43	0	1366294528	14	4131
2026-01-28 01:49:35.18	270.51	26.06	-26.7	-27.9	16.1	0.00e+00	0	43	0	1369440256	14	4111
2026-01-28 01:49:36.18	270.27	25.96	-26.6	-28.0	16.3	0.00e+00	0	43	0	1372585984	13	4254
2026-01-28 01:49:37.19	270.03	25.86	-26.6	-28.1	16.3	0.00e+00	0	43	0	1375731712	13	4272
2026-01-28 01:49:38.19	269.79	25.76	-26.7	-28.4	16.1	0.00e+00	0	43	0	1378877440	13	4348
2026-01-28 01:49:39.19	269.56	25.66	-26.8	-28.5	16.0	0.00e+00	0	43	0	1382023168	13	4392
2026-01-28 01:49:40.20	269.32	25.56	-26.3	-28.2	15.8	0.00e+00	0	43	0	1385168896	13	4490
2026-01-28 01:49:41.20	269.08	25.46	-26.9	-28.8	14.5	0.00e+00	0	43	0	1388314624	13	4488
2026-01-28 01:49:42.21	268.85	25.35	-27.1	-28.6	13.4	0.00e+00	0	43	0	1391460352	14	4314
2026-01-28 01:49:43.21	268.62	25.25	-27.0	-28.6	15.7	0.00e+00	0	43	0	1394606080	14	4298
2026-01-28 01:49:44.21	268.39	25.15	-27.1	-28.7	15.6	0.00e+00	0	43	0	1397751808	14	4332
2026-01-28 01:49:45.22	268.16	25.05	-27.1	-28.7	15.6	2.20e-06	0	43	0	1400897536	14	4343
2026-01-28 01:49:46.23	267.93	24.95	-26.9	-28.4	15.8	0.00e+00	0	43	0	1404043264	14	4250
2026-01-28 01:49:47.22	267.71	24.85	-26.9	-28.8	15.8	0.00e+00	0	43	0	1407188992	13	4477
2026-01-28 01:49:48.22	267.49	24.74	-26.9	-28.7	15.8	0.00e+00	0	43	0	1410334720	13	4460
2026-01-28 01:49:49.22	267.26	24.64	-26.9	-28.7	15.9	1.06e-04	0	43	0	1413480448	13	4446
2026-01-28 01:49:50.22	267.04	24.54	-27.0	-28.4	15.8	2.59e-04	0	43	0	1416626176	14	4262
2026-01-28 01:49:51.22	266.82	24.44	-26.9	-28.2	15.9	2.29e-04	0	43	0	1419771904	14	4211
2026-01-28 01:49:52.22	266.61	24.34	-26.9	-28.3	15.8	0.00e+00	0	43	0	1422917632	14	4235
2026-01-28 01:49:53.22	266.39	24.23	-27.0	-28.6	15.7	5.93e-04	0	43	0	1426063360	14	4317
2026-01-28 01:49:54.22	266.18	24.13	-27.0	-28.6	15.7	5.30e-06	0	43	0	1429209088	14	4300
2026-01-28 01:49:55.22	265.96	24.03	-27.1	-28.6	15.7	1.16e-03	0	43	0	1432354816	14	4322
2026-01-28 01:49:56.22	265.75	23.93	-27.2	-29.0	15.4	1.76e-03	0	43	0	1435500544	14	4426
2026-01-28 01:49:57.22	265.54	23.83	-27.3	-29.1	15.4	0.00e+00	0	43	0	1438646272	14	4465
2026-01-28 01:49:58.22	265.33	23.72	-27.4	-29.3	15.3	2.20e-03	0	43	0	1441792000	14	4522
2026-01-28 01:49:59.23	265.12	23.62	-27.4	-29.5	15.2	2.33e-03	0	43	0	1444937728	14	4579
2026-01-28 01:50:00.23	264.91	23.52	-27.4	-29.4	15.2	2.67e-03	0	43	0	1448083456	14	4555
2026-01-28 01:50:01.24	264.71	23.41	-27.5	-29.6	15.1	2.53e-03	0	43	0	1451229184	14	4591
2026-01-28 01:50:02.24	264.50	23.31	-27.4	-29.5	15.2	3.43e-03	0	43	0	1454374912	14	4567
2026-01-28 01:50:03.24	264.30	23.21	-27.6	-29.5	14.9	4.27e-03	0	43	0	1457520640	15	4447
2026-01-28 01:50:04.24	264.10	23.11	-27.8	-29.7	14.7	2.04e-03	0	43	0	1460666368	15	4528
2026-01-28 01:50:05.25	263.90	23.00	-27.3	-29.3	15.2	6.76e-03	0	43	0	1463812096	14	4508
2026-01-28 01:50:06.25	263.70	22.90	-27.1	-28.7	15.6	4.66e-03	0	43	0	1466957824	14	4335
2026-01-28 01:50:07.25	263.50	22.80	-27.0	-28.9	15.7	6.41e-04	0	43	0	1470103552	13	4519
2026-01-28 01:50:08.26	263.31	22.70	-27.0	-28.6	15.7	4.80e-03	0	43	0	1473249280	14	4302
2026-01-28 01:50:09.26	263.11	22.60	-27.0	-28.6	15.6	1.99e-03	0	43	0	1476395008	14	4309
2026-01-28 01:50:10.26	262.92	22.49	-27.0	-28.5	15.6	9.18e-04	0	43	0	1479540736	14	4292
2026-01-28 01:50:11.27	262.72	22.39	-27.1	-28.8	15.5	4.61e-03	0	43	0	1481637888	14	4365
2026-01-28 01:50:12.27	262.53	22.29	-27.2	-29.0	15.4	4.30e-03	0	43	0	1484783616	14	4424
2026-01-28 01:50:13.27	262.34	22.19	-27.1	-28.9	15.5	0.00e+00	0	43	0	1487929344	14	4401
2026-01-28 01:50:14.28	262.15	22.08	-27.2	-29.0	15.4	0.00e+00	0	43	0	1492123648	14	4433
2026-01-28 01:50:15.29	261.97	21.98	-27.2	-29.0	15.4	3.65e-03	0	43	0	1495269376	14	4434
2026-01-28 01:50:16.29	261.78	21.88	-27.2	-28.9	15.4	0.00e+00	0	43	0	1498415104	14	4412
2026-01-28 01:50:17.29	261.60	21.78	-26.9	-28.9	15.7	2.98e-03	0	43	0	1501560832	13	4505
2026-01-28 01:50:18.29	261.41	21.68	-26.8	-28.5	15.9	3.08e-03	0	43	0	1503657984	13	4396
2026-01-28 01:50:19.30	261.23	21.57	-26.6	-28.2	16.0	0.00e+00	0	43	0	1506803712	13	4324
2026-01-28 01:50:20.31	261.05	21.47	-26.6	-28.1	16.1	0.00e+00	0	43	0	1509949440	13	4285
2026-01-28 01:50:21.31	260.87	21.37	-26.4	-27.7	16.3	3.13e-03	0	43	0	1513095168	13	4173
2026-01-28 01:50:22.32	260.69	21.27	-26.3	-28.0	16.4	0.00e+00	0	43	0	1516240896	12	4373
2026-01-28 01:50:23.33	260.51	21.17	-26.3	-28.1	16.4	2.20e-03	0	43	0	1520435200	12	4394
2026-01-28 01:50:24.33	260.33	21.07	-26.4	-28.2	16.3	0.00e+00	0	43	0	1523580928	12	4434
2026-01-28 01:50:25.34	260.15	20.96	-26.5	-28.0	16.1	0.00e+00	0	43	0	1526726656	13	4249
2026-01-28 01:50:26.34	259.98	20.86	-26.8	-28.5	15.9	0.00e+00	0	43	0	1528823808	13	4395
2026-01-28 01:50:27.35	259.81	20.76	-26.9	-28.8	15.7	2.05e-03	0	43	0	1531969536	13	4497
2026-01-28 01:50:28.35	259.63	20.66	-26.8	-28.6	15.8	0.00e+00	0	43	0	1535115264	13	4416
2026-01-28 01:50:29.35	259.46	20.56	-26.7	-28.5	15.8	0.00e+00	0	43	0	1538260992	13	4399
2026-01-28 01:50:30.36	259.29	20.46	-26.8	-28.5	15.8	0.00e+00	0	43	0	1541406720	13	4403
2026-01-28 01:50:31.36	259.13	20.36	-26.8	-28.6	15.7	0.00e+00	0	43	0	1544552448	13	4442
2026-01-28 01:50:32.36	258.96	20.26	-26.9	-28.9	15.6	0.00e+00	0	43	0	1547698176	13	4524
2026-01-28 01:50:33.37	258.79	20.16	-26.9	-28.8	15.7	0.00e+00	0	43	0	1550843904	13	4488
2026-01-28 01:50:34.37	258.63	20.06	-26.9	-28.8	15.7	0.00e+00	0	43	0	1553989632	13	4484
2026-01-28 01:50:35.38	258.46	19.96	-26.9	-28.9	15.6	0.00e+00	0	43	0	1557135360	13	4512
2026-01-28 01:50:36.39	258.30	19.86	-26.8	-28.7	15.7	0.00e+00	0	43	0	1560281088	13	4462
2026-01-28 01:50:37.39	258.13	19.76	-26.7	-28.3	15.9	0.00e+00	0	43	0	1563426816	13	4349
2026-01-28 01:50:38.40	257.97	19.66	-26.6	-28.2	16.0	0.00e+00	0	43	0	1566572544	13	4318
2026-01-28 01:50:39.40	257.81	19.56	-26.7	-28.5	15.8	0.00e+00	0	43	0	1569718272	13	4402
2026-01-28 01:50:40.40	257.65	19.46	-26.8	-28.5	15.8	0.00e+00	0	43	0	1572864000	13	4409
2026-01-28 01:50:41.40	257.50	19.37	-26.5	-28.0	16.0	0.00e+00	0	43	0	1576009728	13	4276
2026-01-28 01:50:42.41	257.34	19.27	-26.5	-27.9	16.1	0.00e+00	0	43	0	1579155456	13	4241
2026-01-28 01:50:43.41	257.18	19.17	-26.6	-28.2	15.9	0.00e+00	0	43	0	1582301184	13	4319
2026-01-28 01:50:44.41	257.03	19.07	-26.9	-28.7	15.6	0.00e+00	0	43	0	1585446912	13	4474
2026-01-28 01:50:45.42	256.87	18.97	-27.1	-28.7	15.4	0.00e+00	0	43	0	1588592640	14	4351
2026-01-28 01:50:46.42	256.72	18.88	-27.1	-28.8	15.3	0.00e+00	0	43	0	1591738368	14	4376
2026-01-28 01:50:47.43	256.57	18.78	-27.2	-28.9	15.2	0.00e+00	0	43	0	1594884096	14	4420
2026-01-28 01:50:48.43	256.42	18.68	-27.2	-29.0	15.2	0.00e+00	0	43	0	1598029824	14	4433
2026-01-28 01:50:49.44	256.27	18.58	-27.2	-29.0	15.2	0.00e+00	0	43	0	1601175552	14	4441
2026-01-28 01:50:50.43	256.12	18.49	-27.2	-29.1	15.2	1.06e-05	0	43	0	1604321280	14	4460
2026-01-28 01:50:51.43	255.97	18.39	-27.2	-29.0	15.2	0.00e+00	0	43	0	1607467008	14	4452
2026-01-28 01:50:52.44	255.83	18.29	-27.1	-28.8	15.3	0.00e+00	0	43	0	1610612736	14	4381
2026-01-28 01:50:53.44	255.68	18.20	-27.1	-28.8	15.3	1.14e-05	0	43	0	1613758464	14	4370
2026-01-28 01:50:54.44	255.54	18.10	-27.1	-28.7	15.3	0.00e+00	0	43	0	1616904192	14	4364
2026-01-28 01:50:55.45	255.39	18.00	-27.0	-28.6	15.4	0.00e+00	0	43	0	1620049920	14	4334
2026-01-28 01:50:56.45	255.25	17.91	-27.1	-28.8	15.3	0.00e+00	0	43	0	1623195648	14	4383
2026-01-28 01:50:57.46	255.10	17.81	-27.2	-28.9	15.2	7.00e-07	0	43	0	1626341376	14	4414
2026-01-28 01:50:58.46	254.96	17.71	-27.2	-29.1	15.2	0.00e+00	0	43	0	1629487104	14	4456
2026-01-28 01:50:59.46	254.82	17.62	-27.3	-29.4	15.0	6.80e-06	0	43	0	1632632832	14	4545
2026-01-28 01:51:00.46	254.68	17.52	-27.4	-29.6	14.8	0.00e+00	0	43	0	1635778560	14	4614
2026-01-28 01:51:01.47	254.54	17.43	-27.8	-29.8	14.4	0.00e+00	0	43	0	1638924288	15	4573
2026-01-28 01:51:02.47	254.41	17.33	-27.8	-29.8	14.3	8.30e-06	0	43	0	1642070016	15	4579
2026-01-28 01:51:03.48	254.27	17.24	-27.4	-29.5	14.8	0.00e+00	0	43	0	1645215744	14	4603
2026-01-28 01:51:04.48	254.13	17.14	-27.2	-29.1	15.1	0.00e+00	0	43	0	1648361472	14	4461
2026-01-28 01:51:05.48	254.00	17.05	-27.1	-28.8	15.2	1.14e-05	0	43	0	1651507200	14	4392
2026-01-28 01:51:06.49	253.86	16.96	-27.1	-28.9	15.2	0.00e+00	0	43	0	1654652928	14	4399
2026-01-28 01:51:07.49	253.73	16.86	-27.1	-28.7	15.3	2.21e-03	0	43	0	1657798656	14	4366
2026-01-28 01:51:08.49	253.60	16.77	-26.9	-28.8	15.5	1.22e-05	0	43	0	1660944384	13	4510
2026-01-28 01:51:09.50	253.47	16.67	-26.9	-28.8	15.5	0.00e+00	0	43	0	1664090112	13	4506
2026-01-28 01:51:10.50	253.33	16.58	-26.8	-28.7	15.6	0.00e+00	0	43	0	1667235840	13	4456
2026-01-28 01:51:11.51	253.20	16.49	-26.7	-28.3	15.7	0.00e+00	0	43	0	1670381568	13	4360
2026-01-28 01:51:12.52	253.07	16.39	-26.7	-28.4	15.7	1.72e-03	0	43	0	1673527296	13	4370
2026-01-28 01:51:13.52	252.95	16.30	-26.8	-28.7	15.5	0.00e+00	0	43	0	1676673024	13	4470
2026-01-28 01:51:14.53	252.82	16.21	-27.0	-28.7	15.3	6.80e-06	0	43	0	1679818752	14	4349
2026-01-28 01:51:15.53	252.69	16.12	-27.1	-28.9	15.1	0.00e+00	0	43	0	1682964480	14	4408
2026-01-28 01:51:16.54	252.56	16.02	-27.2	-29.0	15.1	8.62e-05	0	43	0	1686110208	14	4453
2026-01-28 01:51:17.55	252.44	15.93	-27.3	-29.3	14.9	0.00e+00	0	43	0	1689255936	14	4526
2026-01-28 01:51:18.55	252.31	15.84	-27.4	-29.5	14.8	1.50e-06	0	43	0	1692401664	14	4602
2026-01-28 01:51:19.56	252.19	15.75	-27.2	-29.5	14.6	7.00e-07	0	43	0	1695547392	14	4649
2026-01-28 01:51:20.56	252.06	15.66	-26.7	-28.5	13.5	1.50e-06	0	43	0	1698693120	15	4460
2026-01-28 01:51:21.56	251.94	15.57	-27.5	-29.7	13.6	0.00e+00	0	43	0	1701838848	14	4648
2026-01-28 01:51:22.57	251.82	15.47	-27.3	-29.3	13.1	7.00e-07	0	43	0	1704984576	14	4544
2026-01-28 01:51:23.58	251.70	15.38	-27.3	-29.3	14.3	0.00e+00	0	43	0	1708130304	14	4547
2026-01-28 01:51:24.58	251.58	15.29	-27.2	-29.1	15.0	0.00e+00	0	43	0	1711276032	14	4487
2026-01-28 01:51:25.59	251.46	15.20	-27.1	-28.8	15.1	6.59e-03	0	43	0	1714421760	14	4390
2026-01-28 01:51:26.59	251.34	15.11	-27.0	-29.1	15.2	0.00e+00	0	43	0	1717567488	13	4580
2026-01-28 01:51:27.60	251.22	15.02	-26.9	-28.9	15.3	0.00e+00	0	43	0	1720713216	13	4521
2026-01-28 01:51:28.61	251.10	14.93	-26.9	-28.8	15.3	0.00e+00	0	43	0	1723858944	13	4503
2026-01-28 01:51:29.60	250.99	14.84	-27.0	-29.0	15.2	5.52e-03	0	43	0	1727004672	13	4562
2026-01-28 01:51:30.61	250.87	14.75	-27.1	-28.9	15.0	3.28e-03	0	43	0	1730150400	14	4433
2026-01-28 01:51:31.61	250.76	14.66	-27.2	-29.0	14.9	7.14e-03	0	43	0	1733296128	14	4442
2026-01-28 01:51:32.62	250.64	14.58	-27.3	-29.3	14.8	0.00e+00	0	43	0	1736441856	14	4530
2026-01-28 01:51:33.61	250.53	14.49	-27.3	-29.4	14.7	2.20e-06	0	43	0	1739587584	14	4572
2026-01-28 01:51:34.62	250.42	14.40	-27.5	-29.3	14.5	6.60e-03	0	43	0	1742733312	15	4441
2026-01-28 01:51:35.62	250.31	14.31	-27.8	-29.9	14.1	6.10e-03	0	43	0	1745879040	15	4612
2026-01-28 01:51:36.62	250.19	14.22	-27.8	-30.0	14.1	1.48e-03	0	43	0	1749024768	15	4628
2026-01-28 01:51:37.63	250.08	14.14	-27.7	-29.7	14.3	1.21e-04	0	43	0	1752170496	15	4554
2026-01-28 01:51:38.63	249.97	14.05	-27.6	-29.5	14.4	0.00e+00	0	43	0	1755316224	15	4486
2026-01-28 01:51:39.64	249.86	13.96	-27.6	-29.6	14.3	1.09e-03	0	43	0	1758461952	15	4530
2026-01-28 01:51:40.64	249.75	13.87	-27.7	-29.7	14.3	5.11e-03	0	43	0	1761607680	15	4534
2026-01-28 01:51:41.65	249.65	13.79	-27.7	-29.8	14.2	5.44e-03	0	43	0	1764753408	15	4573
2026-01-28 01:51:42.64	249.54	13.70	-27.9	-30.3	13.9	4.72e-04	0	43	0	1767899136	15	4728
2026-01-28 01:51:43.64	249.43	13.61	-27.8	-30.1	14.0	5.45e-03	0	43	0	1771044864	15	4664
2026-01-28 01:51:44.65	249.33	13.53	-27.7	-29.7	14.2	5.55e-03	0	43	0	1774190592	15	4542
2026-01-28 01:51:45.65	249.22	13.44	-27.5	-29.4	14.4	6.57e-04	0	43	0	1777336320	15	4449
2026-01-28 01:51:46.65	249.12	13.36	-27.5	-29.4	14.4	5.86e-03	0	43	0	1780482048	15	4464
2026-01-28 01:51:47.65	249.01	13.27	-27.5	-29.4	14.4	6.00e-03	0	43	0	1783627776	15	4449
2026-01-28 01:51:48.65	248.91	13.18	-27.5	-29.3	14.4	2.42e-04	0	43	0	1786773504	15	4426
2026-01-28 01:51:49.65	248.80	13.10	-27.6	-29.5	14.3	6.47e-03	0	43	0	1789919232	15	4498
2026-01-28 01:51:50.65	248.70	13.02	-27.5	-29.4	14.3	6.96e-03	0	43	0	1793064960	15	4462
2026-01-28 01:51:51.65	248.60	12.93	-27.5	-29.7	14.4	1.86e-03	0	43	0	1796210688	14	4666
2026-01-28 01:51:52.66	248.50	12.85	-27.6	-29.5	14.3	6.97e-03	0	43	0	1799356416	15	4494
2026-01-28 01:51:53.66	248.40	12.76	-27.7	-29.8	14.1	3.00e-06	0	43	0	1802502144	15	4584
2026-01-28 01:51:54.67	248.30	12.68	-27.7	-29.7	14.1	2.30e-03	0	43	0	1805647872	15	4559
2026-01-28 01:51:55.67	248.20	12.59	-27.7	-29.8	14.1	6.25e-03	0	43	0	1808793600	15	4589
2026-01-28 01:51:56.67	248.10	12.51	-27.7	-29.9	14.0	6.06e-03	0	43	0	1811939328	15	4606
2026-01-28 01:51:57.67	248.00	12.43	-27.8	-30.1	13.9	2.13e-03	0	43	0	1815085056	15	4685
2026-01-28 01:51:58.67	247.90	12.34	-27.9	-30.4	13.7	1.06e-05	0	43	0	1818230784	15	4760
2026-01-28 01:51:59.68	247.80	12.26	-28.3	-30.6	13.4	8.30e-06	0	43	0	1821376512	16	4728
2026-01-28 01:52:00.68	247.71	12.18	-28.3	-30.6	13.5	9.72e-04	0	43	0	1824522240	16	4709
2026-01-28 01:52:01.68	247.61	12.09	-28.5	-31.1	13.2	5.02e-03	0	43	0	1827667968	16	4878
2026-01-28 01:52:02.69	247.52	12.01	-28.5	-30.6	13.2	4.54e-03	0	43	0	1830813696	17	4613
2026-01-28 01:52:03.69	247.42	11.93	-28.4	-30.5	13.2	1.37e-05	0	43	0	1833959424	17	4561
2026-01-28 01:52:04.70	247.33	11.85	-28.4	-31.1	13.2	3.28e-05	0	43	0	1837105152	16	4862
2026-01-28 01:52:05.69	247.23	11.76	-28.4	-31.0	13.2	2.74e-05	0	43	0	1840250880	16	4833
2026-01-28 01:52:06.70	247.14	11.68	-28.4	-31.1	13.2	9.53e-05	0	43	0	1843396608	16	4863
2026-01-28 01:52:07.70	247.05	11.60	-28.5	-31.1	13.1	3.16e-03	0	43	0	1846542336	16	4893
2026-01-28 01:52:08.71	246.95	11.52	-28.5	-30.8	13.0	3.81e-05	0	43	0	1849688064	17	4669
2026-01-28 01:52:09.70	246.86	11.44	-28.4	-30.5	13.2	3.43e-05	0	43	0	1851785216	17	4585
2026-01-28 01:52:10.71	246.77	11.36	-28.3	-30.7	13.4	1.90e-05	0	43	0	1854930944	16	4757
2026-01-28 01:52:11.71	246.68	11.28	-28.3	-30.6	13.4	1.67e-05	0	43	0	1858076672	16	4722
2026-01-28 01:52:12.72	246.59	11.19	-28.3	-30.8	13.3	1.60e-05	0	43	0	1861222400	16	4786
2026-01-28 01:52:13.73	246.50	11.11	-28.3	-30.6	13.4	2.05e-05	0	43	0	1864368128	16	4719
2026-01-28 01:52:14.73	246.41	11.03	-28.3	-30.6	13.3	1.14e-05	0	43	0	1868562432	16	4728
2026-01-28 01:52:15.74	246.32	10.95	-28.2	-30.4	13.5	1.22e-05	0	43	0	1871708160	16	4652
2026-01-28 01:52:16.74	246.23	10.87	-27.9	-30.4	13.6	6.80e-06	0	43	0	1873805312	15	4784
2026-01-28 01:52:17.74	246.14	10.79	-28.0	-30.4	13.6	6.10e-06	0	43	0	1876951040	15	4788
2026-01-28 01:52:18.74	246.06	10.71	-28.2	-30.4	13.5	9.10e-06	0	43	0	1880096768	16	4640
2026-01-28 01:52:19.75	245.97	10.63	-28.2	-30.5	13.4	9.10e-06	0	43	0	1883242496	16	4689
2026-01-28 01:52:20.75	245.88	10.56	-28.2	-30.6	13.4	1.90e-05	0	43	0	1886388224	16	4711
2026-01-28 01:52:21.75	245.80	10.48	-28.4	-31.0	13.1	2.05e-05	0	43	0	1889533952	16	4851
2026-01-28 01:52:22.76	245.71	10.40	-28.4	-30.9	13.2	2.59e-05	0	43	0	1892679680	16	4824
2026-01-28 01:52:23.76	245.63	10.32	-28.3	-30.8	13.2	2.21e-05	0	43	0	1895825408	16	4793
2026-01-28 01:52:24.77	245.54	10.24	-28.3	-30.9	13.2	2.89e-05	0	43	0	1898971136	16	4806
2026-01-28 01:52:25.77	245.46	10.16	-28.5	-31.2	13.0	3.12e-05	0	43	0	1902116864	16	4912
2026-01-28 01:52:26.77	245.37	10.08	-28.5	-30.8	12.9	5.26e-05	0	43	0	1905262592	17	4690
2026-01-28 01:52:27.78	245.29	10.01	-28.6	-31.1	12.7	8.31e-05	0	43	0	1908408320	17	4787
2026-01-28 01:52:28.78	245.21	9.93	-28.7	-31.3	12.5	1.16e-04	0	43	0	1911554048	17	4854
2026-01-28 01:52:29.79	245.13	9.85	-28.8	-31.5	12.4	1.21e-04	0	43	0	1914699776	17	4931
2026-01-28 01:52:30.79	245.04	9.77	-28.8	-31.4	12.5	1.54e-04	0	43	0	1917845504	17	4900
2026-01-28 01:52:31.80	244.96	9.70	-28.8	-31.4	12.5	1.34e-04	0	43	0	1920991232	17	4892
2026-01-28 01:52:32.80	244.88	9.62	-28.8	-31.6	12.4	1.32e-04	0	43	0	1924136960	17	4939
2026-01-28 01:52:33.80	244.80	9.54	-28.7	-31.3	12.5	1.06e-04	0	43	0	1927282688	17	4847
2026-01-28 01:52:34.81	244.72	9.47	-28.8	-31.5	12.4	1.40e-04	0	43	0	1930428416	17	4932
2026-01-28 01:52:35.81	244.64	9.39	-28.7	-31.4	12.5	1.54e-04	0	43	0	1933574144	17	4875
2026-01-28 01:52:36.81	244.56	9.31	-28.7	-31.3	12.5	1.04e-04	0	43	0	1936719872	17	4831
2026-01-28 01:52:37.82	244.48	9.24	-28.7	-31.3	12.5	1.27e-04	0	43	0	1939865600	17	4862
2026-01-28 01:52:38.82	244.40	9.16	-28.8	-31.5	12.3	1.65e-04	0	43	0	1943011328	17	4938
2026-01-28 01:52:39.82	244.33	9.09	-28.6	-31.1	12.5	1.04e-04	0	43	0	1946157056	17	4793
2026-01-28 01:52:40.82	244.25	9.01	-28.7	-31.4	12.4	1.33e-04	0	43	0	1949302784	17	4884
2026-01-28 01:52:41.83	244.17	8.94	-28.6	-31.1	12.6	1.01e-04	0	43	0	1952448512	17	4782
2026-01-28 01:52:42.83	244.10	8.86	-28.5	-30.7	12.8	7.93e-05	0	43	0	1955594240	17	4640
2026-01-28 01:52:43.83	244.02	8.79	-28.4	-30.9	13.0	4.19e-05	0	43	0	1958739968	16	4843
2026-01-28 01:52:44.83	243.94	8.71	-28.3	-30.9	13.0	3.35e-05	0	43	0	1961885696	16	4818
2026-01-28 01:52:45.84	243.87	8.64	-28.4	-31.1	12.8	4.88e-05	0	43	0	1965031424	16	4894
2026-01-28 01:52:46.84	243.79	8.56	-28.6	-31.1	12.5	9.53e-05	0	43	0	1968177152	17	4783
2026-01-28 01:52:47.84	243.72	8.49	-28.8	-31.5	12.2	1.60e-04	0	43	0	1971322880	17	4947
2026-01-28 01:52:48.85	243.64	8.41	-28.6	-31.1	12.5	1.59e-04	0	43	0	1974468608	17	4806
2026-01-28 01:52:49.85	243.57	8.34	-28.5	-30.8	12.7	8.01e-05	0	43	0	1977614336	17	4691
2026-01-28 01:52:50.86	243.50	8.27	-28.5	-31.3	12.7	7.47e-05	0	43	0	1980760064	16	4971
2026-01-28 01:52:51.87	243.42	8.19	-28.5	-30.9	12.6	9.46e-05	0	43	0	1983905792	17	4733
2026-01-28 01:52:52.87	243.35	8.12	-28.7	-31.4	12.2	1.36e-04	0	43	0	1987051520	17	4907
2026-01-28 01:52:53.88	243.28	8.04	-28.6	-31.2	12.4	1.79e-04	0	43	0	1990197248	17	4827
2026-01-28 01:52:54.88	243.20	7.97	-28.5	-31.0	12.5	1.25e-04	0	43	0	1993342976	17	4762
2026-01-28 01:52:55.88	243.13	7.90	-28.5	-30.9	12.6	9.07e-05	0	43	0	1996488704	17	4746
2026-01-28 01:52:56.89	243.06	7.83	-28.5	-30.9	12.5	1.17e-04	0	43	0	1999634432	17	4749
2026-01-28 01:52:57.89	242.99	7.75	-28.5	-31.0	12.5	1.36e-04	0	43	0	2002780160	17	4767
2026-01-28 01:52:58.89	242.92	7.68	-28.5	-31.0	12.5	1.25e-04	0	43	0	2005925888	17	4772
2026-01-28 01:52:59.89	242.85	7.61	-28.7	-31.4	12.2	1.77e-04	0	43	0	2009071616	17	4904
2026-01-28 01:53:00.90	242.78	7.54	-28.6	-31.2	12.3	1.90e-04	0	43	0	2012217344	17	4850
2026-01-28 01:53:01.90	242.71	7.47	-28.7	-31.5	12.1	2.22e-04	0	43	0	2015363072	17	4937
2026-01-28 01:53:02.90	242.64	7.39	-28.8	-31.7	12.0	3.36e-04	0	43	0	2018508800	17	5017
2026-01-28 01:53:03.91	242.57	7.32	-28.7	-31.5	12.1	2.94e-04	0	43	0	2021654528	17	4960
2026-01-28 01:53:04.91	242.51	7.25	-28.0	-31.1	11.7	3.82e-04	0	43	0	2024800256	17	5143
2026-01-28 01:53:05.91	242.44	7.18	-28.8	-31.6	12.0	4.07e-04	0	43	0	2027945984	17	5016
2026-01-28 01:53:06.91	242.37	7.11	-28.8	-31.8	10.4	4.07e-04	0	43	0	2031091712	17	5084
2026-01-28 01:53:07.92	242.30	7.04	-32.8	-44.6	3.8	1.49e+00	0	43	104	2032140288	25	13949
2026-01-28 01:53:08.92	242.24	6.97	-33.3	-45.4	3.8	1.49e+00	0	43	104	2032140288	26	14586
2026-01-28 01:53:09.93	242.17	6.90	-33.6	-45.6	3.8	1.49e+00	0	43	104	2032140288	27	14297

#Closed at: 2026-01-28 01:53:10
#Recorded file [2032 MB]: D:/data/31010_260128_044216.dat