passes_logs/2026/01/12/R2M6_AANII_01/R2M6_AANII_01__20260112_113530_NOAA_21_JPSS-2_rec.log

#Pass ID: 20260112_113530_NOAA 21 (JPSS-2)
#Satellite: NOAA 21 (JPSS-2)
#Configuration: NOAA 21
#almurnet v.1.7.20240730
#Start time: 2026-01-12 11:35:33

#Version: 2.2.20231116
#Station: R2M6_AANII_01
#Location: 30.233357 lon 59.946436 lat
#TLE: 1 54234U 22150A   26011.27699114  .00000090  00000+0  63771-4 0  9993
#TLE: 2 54234  98.7494 312.2218 0000765 314.9553  45.1561 14.19534106164285

#Time	Az	El	Level	Level2	SNR	BER	BlckErr	Temp	State	Recorded	gain1	gain2
2026-01-12 11:35:33.06	201.33	7.17	-33.6	-44.6	3.8	8.46e-01	0	42	0	0	27	12904
2026-01-12 11:35:34.06	201.41	7.24	-34.0	-45.3	3.8	1.49e+00	0	42	104	0	29	13252
2026-01-12 11:35:35.07	201.49	7.31	-34.0	-45.3	3.8	1.49e+00	0	42	104	0	29	13238
2026-01-12 11:35:36.07	201.57	7.38	-34.0	-45.4	3.8	1.49e+00	0	42	104	0	29	13335
2026-01-12 11:35:37.07	201.64	7.45	-34.0	-45.4	3.8	1.49e+00	0	42	104	0	29	13303
2026-01-12 11:35:38.08	201.72	7.52	-34.0	-45.4	3.8	1.49e+00	0	42	104	0	29	13310
2026-01-12 11:35:39.09	201.80	7.59	-34.0	-45.4	3.8	1.49e+00	0	42	104	0	29	13352
2026-01-12 11:35:40.10	201.88	7.66	-34.0	-45.4	3.8	1.49e+00	0	42	104	0	29	13351
2026-01-12 11:35:41.10	201.96	7.73	-34.0	-45.4	3.8	1.49e+00	0	42	104	0	29	13317
2026-01-12 11:35:42.10	202.04	7.80	-34.0	-45.4	3.8	1.49e+00	0	42	104	0	29	13317
2026-01-12 11:35:43.10	202.12	7.87	-34.0	-45.4	3.8	1.49e+00	0	42	104	0	29	13290
2026-01-12 11:35:44.11	202.20	7.94	-34.0	-45.4	3.8	1.49e+00	0	42	104	0	29	13330
2026-01-12 11:35:45.11	202.28	8.01	-34.0	-45.4	3.8	1.49e+00	0	42	104	0	29	13292
2026-01-12 11:35:46.11	202.36	8.08	-34.0	-45.3	3.8	1.49e+00	0	42	104	0	29	13265
2026-01-12 11:35:47.12	202.45	8.16	-34.0	-45.3	3.8	1.49e+00	0	42	104	0	29	13281
2026-01-12 11:35:48.13	202.53	8.23	-34.0	-45.4	3.8	1.49e+00	0	42	104	0	29	13314
2026-01-12 11:35:49.13	202.61	8.30	-34.0	-45.3	3.8	1.49e+00	0	42	104	0	29	13283
2026-01-12 11:35:50.13	202.70	8.37	-34.0	-45.3	3.8	1.49e+00	0	42	104	0	29	13276
2026-01-12 11:35:51.14	202.78	8.44	-34.0	-45.4	3.8	1.49e+00	0	42	104	0	29	13312
2026-01-12 11:35:52.14	202.86	8.52	-34.0	-45.4	3.8	1.49e+00	0	42	104	0	29	13339
2026-01-12 11:35:53.14	202.95	8.59	-34.0	-45.3	3.8	1.49e+00	0	42	104	0	29	13269
2026-01-12 11:35:54.14	203.03	8.66	-34.0	-45.4	3.8	1.49e+00	0	42	104	0	29	13326
2026-01-12 11:35:55.14	203.12	8.73	-34.0	-45.3	3.8	1.49e+00	0	42	104	0	29	13234
2026-01-12 11:35:56.15	203.20	8.80	-34.0	-45.3	3.8	1.49e+00	0	42	104	0	29	13277
2026-01-12 11:35:57.16	203.29	8.88	-33.9	-45.2	3.8	1.49e+00	0	42	104	0	29	13175
2026-01-12 11:35:58.16	203.38	8.95	-33.8	-45.0	3.8	1.49e+00	0	42	104	0	29	13054
2026-01-12 11:35:59.16	203.46	9.02	-33.8	-45.0	3.8	1.49e+00	0	42	104	0	29	12991
2026-01-12 11:36:00.17	203.55	9.10	-33.8	-45.0	3.8	1.49e+00	0	42	104	0	29	13037
2026-01-12 11:36:01.18	203.64	9.17	-33.8	-45.4	3.8	1.49e+00	0	42	104	0	28	13706
2026-01-12 11:36:02.18	203.73	9.24	-33.7	-45.3	3.8	1.49e+00	0	42	104	0	28	13672
2026-01-12 11:36:03.18	203.81	9.32	-33.6	-45.2	3.8	1.49e+00	0	42	104	0	28	13582
2026-01-12 11:36:04.18	203.90	9.39	-33.5	-45.0	3.8	1.49e+00	0	42	104	0	28	13506
2026-01-12 11:36:05.19	203.99	9.47	-33.5	-44.9	3.8	1.49e+00	0	42	104	0	28	13318
2026-01-12 11:36:06.20	204.08	9.54	-33.4	-44.7	3.8	1.49e+00	0	42	104	0	28	13163
2026-01-12 11:36:07.19	204.17	9.61	-33.3	-44.9	3.8	1.49e+00	0	42	104	0	27	13739
2026-01-12 11:36:08.19	204.26	9.69	-32.8	-42.4	3.8	1.49e+00	0	42	104	0	27	10865
2026-01-12 11:36:09.20	204.35	9.76	-32.7	-42.2	3.9	1.49e+00	0	42	104	0	26	10669
2026-01-12 11:36:10.20	204.44	9.84	-32.8	-43.0	3.8	1.49e+00	0	42	104	0	26	11620
2026-01-12 11:36:11.21	204.54	9.91	-32.8	-43.1	3.8	1.49e+00	0	42	104	0	26	11794
2026-01-12 11:36:12.22	204.63	9.99	-32.8	-42.9	3.8	1.49e+00	0	42	104	0	26	11527
2026-01-12 11:36:13.23	204.72	10.06	-32.7	-42.5	3.8	1.49e+00	0	42	104	0	26	11068
2026-01-12 11:36:14.23	204.82	10.14	-32.5	-40.8	3.9	1.48e+00	0	42	104	0	26	9362
2026-01-12 11:36:15.23	204.91	10.21	-32.1	-38.4	5.2	7.87e-01	0	42	104	0	25	7442
2026-01-12 11:36:16.24	205.00	10.29	-31.5	-36.2	6.9	2.57e-01	0	42	0	2097152	24	6159
2026-01-12 11:36:17.25	205.10	10.37	-30.8	-34.1	8.6	5.43e-02	0	42	0	5242880	23	5300
2026-01-12 11:36:18.25	205.20	10.44	-30.1	-33.0	10.1	9.56e-03	0	42	0	8388608	21	5019
2026-01-12 11:36:19.26	205.29	10.52	-29.5	-31.9	11.2	1.55e-03	0	42	0	11534336	20	4724
2026-01-12 11:36:20.26	205.39	10.60	-29.1	-31.1	12.1	3.43e-04	0	42	0	14680064	19	4579
2026-01-12 11:36:21.28	205.49	10.67	-28.7	-30.7	12.7	1.20e-04	0	42	0	17825792	18	4527
2026-01-12 11:36:22.28	205.58	10.75	-28.5	-30.2	13.0	4.65e-05	0	42	0	20971520	18	4384
2026-01-12 11:36:23.28	205.68	10.83	-28.4	-30.0	13.1	2.74e-05	0	42	0	24117248	18	4336
2026-01-12 11:36:24.29	205.78	10.91	-28.6	-30.4	12.8	4.80e-05	0	42	0	27262976	18	4455
2026-01-12 11:36:25.29	205.88	10.98	-28.9	-31.2	12.3	1.75e-04	0	42	0	30408704	18	4712
2026-01-12 11:36:26.30	205.98	11.06	-29.3	-32.4	11.6	3.99e-04	0	42	0	33554432	18	5107
2026-01-12 11:36:27.30	206.08	11.14	-29.8	-33.2	10.7	1.98e-03	0	42	0	36700160	19	5310
2026-01-12 11:36:28.31	206.18	11.22	-29.8	-32.8	10.6	4.19e-03	0	42	0	39845888	20	5054
2026-01-12 11:36:29.31	206.28	11.29	-29.6	-32.0	11.1	1.45e-03	0	42	0	42991616	20	4777
2026-01-12 11:36:30.32	206.38	11.37	-29.6	-32.2	11.0	2.75e-03	0	42	0	46137344	20	4848
2026-01-12 11:36:31.33	206.48	11.45	-29.2	-31.5	11.9	5.35e-04	0	42	0	49283072	19	4695
2026-01-12 11:36:32.33	206.58	11.53	-28.9	-30.7	12.4	2.06e-04	0	42	0	52428800	19	4430
2026-01-12 11:36:33.34	206.69	11.61	-28.7	-30.7	12.7	1.04e-04	0	42	0	55574528	18	4518
2026-01-12 11:36:34.34	206.79	11.69	-28.5	-30.2	13.1	4.27e-05	0	42	0	58720256	18	4372
2026-01-12 11:36:35.35	206.89	11.77	-28.4	-29.9	13.2	2.59e-05	0	42	0	61865984	18	4289
2026-01-12 11:36:36.35	207.00	11.85	-28.3	-29.7	13.4	9.10e-06	0	41	0	65011712	18	4218
2026-01-12 11:36:37.35	207.10	11.93	-28.3	-30.1	13.5	1.14e-05	0	42	0	68157440	17	4450
2026-01-12 11:36:38.36	207.21	12.01	-28.2	-29.9	13.6	1.67e-05	0	42	0	71303168	17	4379
2026-01-12 11:36:39.36	207.31	12.08	-28.0	-29.4	13.9	1.50e-06	0	42	0	74448896	17	4256
2026-01-12 11:36:40.37	207.42	12.17	-27.7	-29.3	14.3	0.00e+00	0	42	0	77594624	16	4303
2026-01-12 11:36:41.38	207.53	12.25	-27.8	-29.4	14.2	1.14e-05	0	42	0	80740352	16	4337
2026-01-12 11:36:42.38	207.64	12.33	-27.7	-29.3	14.3	0.00e+00	0	42	0	83886080	16	4303
2026-01-12 11:36:43.39	207.75	12.41	-27.6	-29.1	14.4	7.00e-07	0	42	0	87031808	16	4255
2026-01-12 11:36:44.39	207.85	12.49	-27.7	-29.1	14.4	1.22e-05	0	42	0	90177536	16	4264
2026-01-12 11:36:45.40	207.96	12.57	-27.7	-29.2	14.4	7.00e-07	0	42	0	93323264	16	4274
2026-01-12 11:36:46.41	208.07	12.65	-27.6	-29.1	14.4	0.00e+00	0	42	0	96468992	16	4246
2026-01-12 11:36:47.41	208.19	12.73	-27.6	-29.0	14.5	1.22e-05	0	42	0	99614720	16	4240
2026-01-12 11:36:48.42	208.30	12.81	-27.6	-29.1	14.4	7.00e-07	0	42	0	102760448	16	4249
2026-01-12 11:36:49.43	208.41	12.89	-27.6	-29.0	14.5	1.50e-06	0	42	0	105906176	16	4223
2026-01-12 11:36:50.43	208.52	12.98	-27.6	-29.0	14.5	7.00e-07	0	41	0	109051904	16	4242
2026-01-12 11:36:51.44	208.64	13.06	-27.6	-29.0	14.5	1.50e-06	0	41	0	112197632	16	4228
2026-01-12 11:36:52.45	208.75	13.14	-27.6	-28.9	14.6	0.00e+00	0	41	0	115343360	16	4199
2026-01-12 11:36:53.45	208.86	13.22	-27.6	-28.9	14.5	9.10e-06	0	42	0	118489088	16	4210
2026-01-12 11:36:54.45	208.98	13.31	-27.6	-28.9	14.5	1.50e-06	0	41	0	121634816	16	4211
2026-01-12 11:36:55.46	209.09	13.39	-27.5	-28.8	14.6	0.00e+00	0	41	0	124780544	16	4178
2026-01-12 11:36:56.46	209.21	13.47	-27.4	-28.6	14.7	7.00e-07	0	41	0	127926272	16	4124
2026-01-12 11:36:57.47	209.33	13.55	-27.4	-28.5	14.8	0.00e+00	0	42	0	131072000	16	4105
2026-01-12 11:36:58.47	209.44	13.64	-27.6	-29.0	14.5	0.00e+00	0	42	0	134217728	16	4222
2026-01-12 11:36:59.48	209.56	13.72	-27.6	-29.0	14.5	0.00e+00	0	41	0	137363456	16	4233
2026-01-12 11:37:00.48	209.68	13.80	-27.4	-28.5	14.8	0.00e+00	0	41	0	140509184	16	4097
2026-01-12 11:37:01.48	209.80	13.89	-27.5	-28.8	14.7	0.00e+00	0	41	0	143654912	16	4164
2026-01-12 11:37:02.48	209.92	13.97	-27.5	-28.8	14.6	7.00e-07	0	41	0	146800640	16	4168
2026-01-12 11:37:03.48	210.04	14.05	-27.4	-28.6	14.8	0.00e+00	0	41	0	149946368	16	4117
2026-01-12 11:37:04.49	210.16	14.14	-27.5	-28.7	14.7	0.00e+00	0	41	0	153092096	16	4151
2026-01-12 11:37:05.50	210.28	14.22	-27.5	-28.8	14.7	7.00e-07	0	41	0	156237824	16	4165
2026-01-12 11:37:06.50	210.41	14.31	-27.7	-29.3	14.4	0.00e+00	0	41	0	159383552	16	4310
2026-01-12 11:37:07.51	210.53	14.39	-27.8	-29.4	14.3	7.00e-07	0	41	0	162529280	16	4325
2026-01-12 11:37:08.52	210.65	14.48	-27.5	-28.9	14.6	0.00e+00	0	41	0	165675008	16	4191
2026-01-12 11:37:09.52	210.78	14.56	-27.5	-28.7	14.7	1.50e-06	0	41	0	168820736	16	4144
2026-01-12 11:37:10.53	210.90	14.65	-27.5	-28.7	14.8	0.00e+00	0	41	0	171966464	16	4133
2026-01-12 11:37:11.54	211.03	14.74	-27.6	-28.9	14.6	7.00e-07	0	42	0	175112192	16	4195
2026-01-12 11:37:12.54	211.16	14.82	-27.6	-28.9	14.6	0.00e+00	0	41	0	178257920	16	4204
2026-01-12 11:37:13.54	211.28	14.91	-27.6	-29.0	14.6	0.00e+00	0	41	0	181403648	16	4211
2026-01-12 11:37:14.54	211.41	14.99	-27.5	-28.8	14.7	0.00e+00	0	41	0	184549376	16	4178
2026-01-12 11:37:15.55	211.54	15.08	-27.5	-28.8	14.7	0.00e+00	0	41	0	187695104	16	4179
2026-01-12 11:37:16.55	211.67	15.16	-27.5	-28.6	14.8	0.00e+00	0	42	0	190840832	16	4113
2026-01-12 11:37:17.55	211.80	15.25	-27.6	-29.0	14.6	0.00e+00	0	42	0	193986560	16	4228
2026-01-12 11:37:18.56	211.93	15.34	-27.6	-29.0	14.6	1.50e-06	0	41	0	197132288	16	4224
2026-01-12 11:37:19.57	212.07	15.42	-27.6	-29.0	14.6	7.00e-07	0	42	0	200278016	16	4224
2026-01-12 11:37:20.57	212.20	15.51	-27.6	-29.0	14.6	7.00e-07	0	41	0	203423744	16	4221
2026-01-12 11:37:21.59	212.33	15.60	-27.5	-28.7	14.8	7.00e-07	0	41	0	206569472	16	4139
2026-01-12 11:37:22.59	212.47	15.69	-27.6	-29.0	14.7	0.00e+00	0	41	0	209715200	16	4215
2026-01-12 11:37:23.59	212.60	15.77	-27.6	-29.0	14.7	7.00e-07	0	41	0	212860928	16	4209
2026-01-12 11:37:24.60	212.74	15.86	-27.6	-28.9	14.7	0.00e+00	0	41	0	216006656	16	4187
2026-01-12 11:37:25.60	212.87	15.95	-27.5	-28.8	14.8	0.00e+00	0	41	0	219152384	16	4165
2026-01-12 11:37:26.61	213.01	16.04	-27.7	-29.2	14.6	0.00e+00	0	41	0	222298112	16	4271
2026-01-12 11:37:27.61	213.15	16.13	-27.6	-29.0	14.6	0.00e+00	0	41	0	225443840	16	4228
2026-01-12 11:37:28.62	213.29	16.21	-27.5	-28.7	14.8	0.00e+00	0	41	0	228589568	16	4128
2026-01-12 11:37:29.63	213.43	16.30	-27.5	-28.6	14.9	0.00e+00	0	41	0	231735296	16	4117
2026-01-12 11:37:30.63	213.57	16.39	-27.4	-28.5	15.0	0.00e+00	0	42	0	234881024	16	4083
2026-01-12 11:37:31.63	213.71	16.48	-27.4	-28.5	15.0	7.00e-07	0	42	0	238026752	16	4085
2026-01-12 11:37:32.63	213.85	16.57	-27.5	-28.8	14.8	0.00e+00	0	41	0	241172480	16	4156
2026-01-12 11:37:33.64	213.99	16.66	-27.6	-29.0	14.7	0.00e+00	0	41	0	244318208	16	4228
2026-01-12 11:37:34.64	214.14	16.75	-27.6	-28.9	14.8	0.00e+00	0	41	0	247463936	16	4177
2026-01-12 11:37:35.63	214.28	16.84	-27.5	-28.6	14.9	0.00e+00	0	41	0	250609664	16	4109
2026-01-12 11:37:36.64	214.42	16.93	-27.5	-28.6	14.9	0.00e+00	0	41	0	253755392	16	4120
2026-01-12 11:37:37.64	214.57	17.01	-27.4	-28.5	15.0	1.44e-05	0	42	0	256901120	16	4091
2026-01-12 11:37:38.65	214.72	17.11	-27.5	-28.8	14.8	7.00e-07	0	41	0	260046848	16	4167
2026-01-12 11:37:39.65	214.86	17.19	-27.7	-29.1	14.7	0.00e+00	0	42	0	263192576	16	4240
2026-01-12 11:37:40.66	215.01	17.29	-27.6	-29.0	14.7	0.00e+00	0	42	0	266338304	16	4214
2026-01-12 11:37:41.66	215.16	17.38	-27.6	-28.9	14.8	0.00e+00	0	42	0	269484032	16	4176
2026-01-12 11:37:42.67	215.31	17.47	-27.5	-28.8	14.9	0.00e+00	0	42	0	272629760	16	4162
2026-01-12 11:37:43.65	215.46	17.55	-27.6	-29.0	14.7	1.14e-05	0	42	0	275775488	16	4227
2026-01-12 11:37:44.65	215.61	17.65	-27.7	-29.1	14.7	0.00e+00	0	42	0	278921216	16	4236
2026-01-12 11:37:45.65	215.76	17.74	-27.7	-29.2	14.7	7.00e-07	0	42	0	282066944	16	4261
2026-01-12 11:37:46.66	215.92	17.83	-27.8	-29.3	14.6	1.06e-05	0	42	0	285212672	16	4284
2026-01-12 11:37:47.66	216.07	17.92	-27.8	-29.3	14.6	0.00e+00	0	42	0	288358400	16	4314
2026-01-12 11:37:48.67	216.23	18.01	-27.6	-29.0	14.8	7.00e-07	0	42	0	291504128	16	4224
2026-01-12 11:37:49.67	216.39	18.10	-27.5	-28.7	14.9	9.90e-06	0	42	0	294649856	16	4121
2026-01-12 11:37:50.67	216.54	18.19	-27.4	-28.5	15.1	0.00e+00	0	42	0	297795584	16	4080
2026-01-12 11:37:51.66	216.70	18.28	-27.4	-28.4	15.1	0.00e+00	0	42	0	300941312	16	4058
2026-01-12 11:37:52.67	216.86	18.38	-27.4	-28.3	15.2	1.22e-05	0	42	0	304087040	16	4033
2026-01-12 11:37:53.67	217.02	18.47	-27.3	-28.3	15.2	0.00e+00	0	42	0	307232768	16	4014
2026-01-12 11:37:54.67	217.18	18.56	-27.3	-28.2	15.2	0.00e+00	0	42	0	310378496	16	3999
2026-01-12 11:37:55.68	217.34	18.65	-27.4	-28.5	15.1	0.00e+00	0	42	0	313524224	16	4075
2026-01-12 11:37:56.68	217.50	18.74	-27.4	-28.4	15.1	0.00e+00	0	42	0	316669952	16	4037
2026-01-12 11:37:57.68	217.67	18.84	-27.3	-28.2	15.2	0.00e+00	0	42	0	319815680	16	4003
2026-01-12 11:37:58.69	217.83	18.93	-27.3	-28.2	15.3	6.80e-06	0	42	0	322961408	16	4009
2026-01-12 11:37:59.70	218.00	19.02	-27.1	-28.3	15.4	0.00e+00	0	42	0	326107136	15	4125
2026-01-12 11:38:00.70	218.17	19.11	-27.1	-28.3	15.3	0.00e+00	0	42	0	329252864	15	4118
2026-01-12 11:38:01.70	218.33	19.21	-27.3	-28.8	15.0	6.80e-06	0	42	0	332398592	15	4270
2026-01-12 11:38:02.70	218.50	19.30	-27.2	-28.6	15.2	0.00e+00	0	42	0	335544320	15	4203
2026-01-12 11:38:03.71	218.67	19.39	-27.0	-28.0	15.5	0.00e+00	0	42	0	338690048	15	4045
2026-01-12 11:38:04.71	218.84	19.49	-26.9	-27.8	15.6	0.00e+00	0	42	0	341835776	15	3997
2026-01-12 11:38:05.71	219.02	19.58	-26.9	-27.8	15.7	0.00e+00	0	42	0	344981504	15	3989
2026-01-12 11:38:06.72	219.19	19.67	-26.8	-27.7	15.7	0.00e+00	0	42	0	348127232	15	3968
2026-01-12 11:38:07.73	219.36	19.77	-26.9	-27.8	15.6	1.37e-05	0	42	0	351272960	15	4000
2026-01-12 11:38:08.74	219.54	19.86	-27.0	-28.0	15.5	0.00e+00	0	42	0	354418688	15	4065
2026-01-12 11:38:09.75	219.72	19.96	-26.9	-27.9	15.6	0.00e+00	0	42	0	357564416	15	4038
2026-01-12 11:38:10.75	219.89	20.05	-26.8	-27.6	15.7	0.00e+00	0	42	0	360710144	15	3955
2026-01-12 11:38:11.75	220.07	20.14	-26.7	-27.9	15.8	0.00e+00	0	42	0	363855872	14	4141
2026-01-12 11:38:12.76	220.25	20.24	-26.8	-28.2	15.8	0.00e+00	0	42	0	367001600	14	4195
2026-01-12 11:38:13.76	220.43	20.33	-26.7	-28.0	15.9	0.00e+00	0	42	0	370147328	14	4147
2026-01-12 11:38:14.77	220.61	20.43	-26.8	-28.2	15.7	0.00e+00	0	42	0	373293056	14	4203
2026-01-12 11:38:15.77	220.80	20.52	-26.8	-28.1	15.8	0.00e+00	0	42	0	376438784	14	4176
2026-01-12 11:38:16.78	220.98	20.61	-26.7	-27.9	15.8	0.00e+00	0	42	0	379584512	14	4136
2026-01-12 11:38:17.78	221.16	20.71	-26.7	-27.9	15.9	0.00e+00	0	42	0	382730240	14	4141
2026-01-12 11:38:18.79	221.35	20.80	-26.9	-28.3	15.7	0.00e+00	0	42	0	385875968	14	4222
2026-01-12 11:38:19.79	221.54	20.90	-26.7	-28.0	15.8	0.00e+00	0	42	0	389021696	14	4148
2026-01-12 11:38:20.79	221.73	20.99	-26.8	-28.1	15.8	0.00e+00	0	42	0	392167424	14	4175
2026-01-12 11:38:21.79	221.91	21.08	-26.7	-27.9	15.9	0.00e+00	0	42	0	395313152	14	4116
2026-01-12 11:38:22.80	222.10	21.18	-26.7	-27.8	16.0	0.00e+00	0	42	0	397410304	14	4095
2026-01-12 11:38:23.80	222.30	21.27	-26.6	-27.7	16.0	0.00e+00	0	42	0	400556032	14	4077
2026-01-12 11:38:24.81	222.49	21.37	-26.6	-27.7	16.0	0.00e+00	0	42	0	404750336	14	4073
2026-01-12 11:38:25.81	222.68	21.46	-26.8	-28.0	15.9	0.00e+00	0	42	0	407896064	14	4159
2026-01-12 11:38:26.82	222.88	21.56	-27.0	-28.6	15.5	0.00e+00	0	42	0	411041792	14	4318
2026-01-12 11:38:27.82	223.07	21.65	-27.0	-28.5	15.6	0.00e+00	0	42	0	414187520	14	4292
2026-01-12 11:38:28.82	223.27	21.75	-26.9	-28.2	15.7	0.00e+00	0	42	0	417333248	14	4214
2026-01-12 11:38:29.83	223.47	21.84	-26.9	-28.4	15.6	7.00e-07	0	42	0	419430400	14	4264
2026-01-12 11:38:30.83	223.67	21.94	-26.9	-28.3	15.7	0.00e+00	0	42	0	422576128	14	4230
2026-01-12 11:38:31.83	223.87	22.03	-26.8	-28.1	15.8	0.00e+00	0	42	0	425721856	14	4181
2026-01-12 11:38:32.84	224.07	22.13	-26.9	-28.3	15.7	0.00e+00	0	42	0	428867584	14	4242
2026-01-12 11:38:33.85	224.28	22.22	-26.8	-28.1	15.8	0.00e+00	0	42	0	432013312	14	4171
2026-01-12 11:38:34.84	224.48	22.32	-26.9	-28.2	15.8	0.00e+00	0	42	0	435159040	14	4215
2026-01-12 11:38:35.84	224.68	22.41	-26.7	-28.0	15.9	0.00e+00	0	42	0	438304768	14	4140
2026-01-12 11:38:36.86	224.89	22.51	-26.7	-27.8	16.0	0.00e+00	0	42	0	442499072	14	4093
2026-01-12 11:38:37.86	225.10	22.60	-26.6	-27.6	16.1	0.00e+00	0	42	0	444596224	14	4053
2026-01-12 11:38:38.86	225.31	22.69	-26.5	-27.5	16.2	0.00e+00	0	42	0	447741952	14	4028
2026-01-12 11:38:39.87	225.52	22.79	-26.8	-28.0	15.9	0.00e+00	0	42	0	450887680	14	4165
2026-01-12 11:38:40.88	225.73	22.88	-26.7	-27.8	16.0	0.00e+00	0	42	0	454033408	14	4113
2026-01-12 11:38:41.88	225.94	22.98	-26.6	-27.7	16.1	0.00e+00	0	42	0	457179136	14	4066
2026-01-12 11:38:42.89	226.16	23.07	-26.6	-27.6	16.2	1.06e-05	0	42	0	460324864	14	4045
2026-01-12 11:38:43.90	226.38	23.17	-26.7	-27.8	16.0	0.00e+00	0	42	0	463470592	14	4107
2026-01-12 11:38:44.91	226.60	23.26	-26.5	-27.4	16.2	0.00e+00	0	42	0	466616320	14	3995
2026-01-12 11:38:45.91	226.81	23.36	-26.4	-27.2	16.3	0.00e+00	0	42	0	469762048	14	3955
2026-01-12 11:38:46.92	227.03	23.45	-26.5	-27.5	16.3	0.00e+00	0	42	0	472907776	14	4011
2026-01-12 11:38:47.92	227.25	23.55	-26.4	-27.2	16.3	0.00e+00	0	42	0	476053504	14	3956
2026-01-12 11:38:48.93	227.48	23.64	-26.4	-27.1	16.4	1.29e-05	0	42	0	479199232	14	3931
2026-01-12 11:38:49.94	227.70	23.73	-26.4	-27.2	16.3	0.00e+00	0	42	0	482344960	14	3951
2026-01-12 11:38:50.95	227.93	23.83	-26.4	-27.2	16.4	0.00e+00	0	42	0	485490688	14	3936
2026-01-12 11:38:51.96	228.15	23.92	-26.5	-27.3	16.3	1.29e-05	0	42	0	489684992	14	3971
2026-01-12 11:38:52.96	228.38	24.02	-26.5	-27.3	16.3	0.00e+00	0	42	0	491782144	14	3968
2026-01-12 11:38:53.97	228.61	24.11	-26.6	-27.5	16.2	0.00e+00	0	42	0	494927872	14	4022
2026-01-12 11:38:54.98	228.84	24.20	-26.7	-27.9	16.1	1.37e-05	0	42	0	498073600	14	4114
2026-01-12 11:38:55.99	229.07	24.30	-26.7	-27.8	16.1	0.00e+00	0	42	0	501219328	14	4101
2026-01-12 11:38:56.99	229.31	24.39	-26.9	-28.2	15.8	0.00e+00	0	42	0	504365056	14	4211
2026-01-12 11:38:57.99	229.54	24.48	-26.8	-28.1	15.9	1.14e-05	0	42	0	507510784	14	4185
2026-01-12 11:38:59.00	229.78	24.58	-26.9	-28.4	15.8	0.00e+00	0	42	0	510656512	14	4260
2026-01-12 11:39:00.01	230.01	24.67	-26.8	-28.1	15.9	0.00e+00	0	42	0	514850816	14	4187
2026-01-12 11:39:01.02	230.25	24.76	-27.0	-28.4	15.7	0.00e+00	0	42	0	516947968	14	4265
2026-01-12 11:39:02.03	230.49	24.85	-26.9	-28.2	15.9	0.00e+00	0	42	0	520093696	14	4211
2026-01-12 11:39:03.03	230.73	24.95	-26.8	-28.1	15.9	0.00e+00	0	42	0	523239424	14	4187
2026-01-12 11:39:04.03	230.97	25.04	-26.8	-28.2	15.9	1.06e-05	0	42	0	526385152	14	4193
2026-01-12 11:39:05.04	231.22	25.13	-26.9	-28.3	15.8	0.00e+00	0	42	0	529530880	14	4239
2026-01-12 11:39:06.03	231.46	25.22	-26.7	-27.8	16.1	0.00e+00	0	42	0	532676608	14	4108
2026-01-12 11:39:07.04	231.71	25.31	-26.6	-27.7	16.2	0.00e+00	0	42	0	535822336	14	4057
2026-01-12 11:39:08.04	231.96	25.40	-26.7	-27.8	16.1	0.00e+00	0	42	0	538968064	14	4090
2026-01-12 11:39:09.05	232.21	25.49	-26.6	-27.6	16.2	0.00e+00	0	42	0	542113792	14	4050
2026-01-12 11:39:10.06	232.46	25.58	-26.6	-27.7	16.2	0.00e+00	0	42	0	545259520	14	4056
2026-01-12 11:39:11.07	232.71	25.67	-26.9	-28.2	15.9	0.00e+00	0	43	0	548405248	14	4203
2026-01-12 11:39:12.08	232.97	25.76	-26.9	-28.2	15.9	0.00e+00	0	42	0	551550976	14	4199
2026-01-12 11:39:13.08	233.22	25.85	-27.0	-28.6	15.7	0.00e+00	0	42	0	554696704	14	4298
2026-01-12 11:39:14.09	233.48	25.94	-27.1	-28.8	15.6	0.00e+00	0	42	0	557842432	14	4360
2026-01-12 11:39:15.10	233.74	26.03	-27.0	-28.5	15.7	0.00e+00	0	42	0	560988160	14	4289
2026-01-12 11:39:16.10	233.99	26.12	-27.0	-28.5	15.7	0.00e+00	0	42	0	564133888	14	4287
2026-01-12 11:39:17.11	234.26	26.21	-27.0	-28.6	15.7	0.00e+00	0	42	0	567279616	14	4305
2026-01-12 11:39:18.11	234.52	26.30	-27.1	-28.7	15.7	0.00e+00	0	42	0	570425344	14	4331
2026-01-12 11:39:19.12	234.78	26.38	-27.1	-28.7	15.7	0.00e+00	0	42	0	573571072	14	4327
2026-01-12 11:39:20.12	235.04	26.47	-27.2	-29.0	15.5	0.00e+00	0	42	0	576716800	14	4416
2026-01-12 11:39:21.12	235.31	26.56	-27.0	-28.5	15.8	0.00e+00	0	42	0	579862528	14	4283
2026-01-12 11:39:22.13	235.58	26.64	-26.8	-28.0	16.1	7.00e-07	0	42	0	583008256	14	4141
2026-01-12 11:39:23.13	235.85	26.73	-26.8	-27.9	16.1	0.00e+00	0	42	0	586153984	14	4128
2026-01-12 11:39:24.14	236.12	26.82	-26.8	-28.1	16.0	0.00e+00	0	42	0	589299712	14	4180
2026-01-12 11:39:25.14	236.39	26.90	-26.8	-28.0	16.0	0.00e+00	0	42	0	592445440	14	4144
2026-01-12 11:39:26.14	236.66	26.98	-27.0	-28.4	15.8	0.00e+00	0	42	0	595591168	14	4245
2026-01-12 11:39:27.15	236.94	27.07	-27.0	-28.5	15.8	0.00e+00	0	42	0	598736896	14	4274
2026-01-12 11:39:28.16	237.21	27.15	-27.1	-28.8	15.6	0.00e+00	0	42	0	601882624	14	4373
2026-01-12 11:39:29.16	237.49	27.24	-27.1	-28.7	15.7	0.00e+00	0	42	0	605028352	14	4333
2026-01-12 11:39:30.17	237.77	27.32	-27.1	-28.8	15.6	0.00e+00	0	42	0	608174080	14	4363
2026-01-12 11:39:31.18	238.05	27.40	-27.2	-29.0	15.5	0.00e+00	0	42	0	611319808	14	4405
2026-01-12 11:39:32.18	238.33	27.48	-27.2	-29.0	15.5	1.50e-06	0	42	0	614465536	14	4408
2026-01-12 11:39:33.18	238.61	27.57	-27.1	-28.7	15.6	0.00e+00	0	42	0	617611264	14	4335
2026-01-12 11:39:34.19	238.90	27.65	-27.1	-28.8	15.6	7.00e-07	0	42	0	620756992	14	4361
2026-01-12 11:39:35.20	239.19	27.73	-27.2	-29.0	15.5	0.00e+00	0	42	0	623902720	14	4405
2026-01-12 11:39:36.21	239.48	27.81	-27.1	-28.6	15.7	1.50e-06	0	42	0	627048448	14	4316
2026-01-12 11:39:37.21	239.76	27.89	-26.9	-28.2	16.0	1.50e-06	0	42	0	630194176	14	4197
2026-01-12 11:39:38.21	240.05	27.97	-26.9	-28.3	16.0	0.00e+00	0	42	0	633339904	14	4211
2026-01-12 11:39:39.21	240.34	28.05	-26.9	-28.2	16.0	0.00e+00	0	42	0	636485632	14	4182
2026-01-12 11:39:40.21	240.64	28.12	-27.0	-28.4	15.8	0.00e+00	0	42	0	639631360	14	4259
2026-01-12 11:39:41.22	240.93	28.20	-26.8	-28.0	16.1	0.00e+00	0	42	0	642777088	14	4138
2026-01-12 11:39:42.22	241.23	28.28	-26.7	-27.9	16.1	0.00e+00	0	42	0	645922816	14	4117
2026-01-12 11:39:43.23	241.52	28.35	-26.8	-28.0	16.1	0.00e+00	0	42	0	649068544	14	4142
2026-01-12 11:39:44.23	241.82	28.43	-26.9	-28.2	16.0	0.00e+00	0	43	0	652214272	14	4195
2026-01-12 11:39:45.24	242.12	28.50	-26.8	-28.0	16.1	0.00e+00	0	42	0	655360000	14	4147
2026-01-12 11:39:46.25	242.43	28.58	-26.9	-28.4	15.9	0.00e+00	0	42	0	658505728	14	4236
2026-01-12 11:39:47.25	242.73	28.65	-26.8	-28.1	16.0	0.00e+00	0	42	0	661651456	14	4166
2026-01-12 11:39:48.25	243.03	28.72	-26.9	-28.3	16.0	3.00e-06	0	42	0	664797184	14	4211
2026-01-12 11:39:49.24	243.33	28.80	-26.8	-28.0	16.1	0.00e+00	0	42	0	667942912	14	4132
2026-01-12 11:39:50.24	243.64	28.87	-26.8	-28.0	16.1	0.00e+00	0	42	0	671088640	14	4139
2026-01-12 11:39:51.25	243.94	28.94	-26.9	-28.3	15.9	0.00e+00	0	42	0	674234368	14	4230
2026-01-12 11:39:52.25	244.25	29.01	-26.9	-28.2	16.0	0.00e+00	0	42	0	677380096	14	4185
2026-01-12 11:39:53.26	244.56	29.08	-27.0	-28.5	15.8	0.00e+00	0	42	0	680525824	14	4289
2026-01-12 11:39:54.27	244.88	29.15	-27.3	-29.1	15.6	9.10e-06	0	42	0	683671552	14	4432
2026-01-12 11:39:55.27	245.19	29.21	-27.3	-29.2	15.5	0.00e+00	0	42	0	686817280	14	4465
2026-01-12 11:39:56.27	245.50	29.28	-27.3	-29.1	15.5	0.00e+00	0	42	0	689963008	14	4448
2026-01-12 11:39:57.28	245.82	29.35	-27.2	-29.0	15.6	9.90e-06	0	42	0	693108736	14	4402
2026-01-12 11:39:58.29	246.14	29.41	-27.2	-29.0	15.6	0.00e+00	0	42	0	696254464	14	4403
2026-01-12 11:39:59.29	246.46	29.48	-27.1	-28.7	15.7	0.00e+00	0	42	0	699400192	14	4340
2026-01-12 11:40:00.30	246.78	29.54	-27.0	-28.4	15.9	9.90e-06	0	42	0	702545920	14	4247
2026-01-12 11:40:01.30	247.10	29.61	-27.0	-28.5	15.9	0.00e+00	0	42	0	705691648	14	4269
2026-01-12 11:40:02.31	247.42	29.67	-27.1	-28.6	15.8	0.00e+00	0	42	0	708837376	14	4312
2026-01-12 11:40:03.31	247.74	29.73	-27.1	-28.7	15.7	8.30e-06	0	42	0	711983104	14	4331
2026-01-12 11:40:04.31	248.06	29.79	-27.1	-28.6	15.8	0.00e+00	0	42	0	715128832	14	4310
2026-01-12 11:40:05.32	248.39	29.85	-27.1	-28.6	15.8	0.00e+00	0	42	0	718274560	14	4293
2026-01-12 11:40:06.32	248.72	29.91	-27.0	-28.5	15.8	0.00e+00	0	42	0	721420288	14	4282
2026-01-12 11:40:07.32	249.04	29.97	-27.0	-28.5	15.8	0.00e+00	0	42	0	724566016	14	4274
2026-01-12 11:40:08.33	249.37	30.02	-27.1	-28.6	15.8	0.00e+00	0	42	0	727711744	14	4303
2026-01-12 11:40:09.33	249.70	30.08	-27.0	-28.5	15.8	6.80e-06	0	42	0	730857472	14	4291
2026-01-12 11:40:10.33	250.03	30.13	-27.0	-28.4	15.9	0.00e+00	0	42	0	734003200	14	4248
2026-01-12 11:40:11.33	250.36	30.19	-27.0	-28.4	15.9	0.00e+00	0	42	0	737148928	14	4258
2026-01-12 11:40:12.34	250.70	30.24	-27.1	-28.8	15.7	0.00e+00	0	42	0	740294656	14	4351
2026-01-12 11:40:13.34	251.03	30.29	-27.2	-28.9	15.7	0.00e+00	0	42	0	743440384	14	4378
2026-01-12 11:40:14.34	251.37	30.35	-27.3	-29.1	15.5	0.00e+00	0	42	0	746586112	14	4446
2026-01-12 11:40:15.34	251.70	30.40	-27.5	-29.2	15.2	0.00e+00	0	42	0	749731840	15	4363
2026-01-12 11:40:16.34	252.04	30.45	-27.6	-29.4	15.1	0.00e+00	0	42	0	752877568	15	4425
2026-01-12 11:40:17.35	252.38	30.49	-27.7	-29.5	15.0	0.00e+00	0	42	0	756023296	15	4448
2026-01-12 11:40:18.35	252.72	30.54	-27.7	-29.5	15.1	0.00e+00	0	42	0	759169024	15	4435
2026-01-12 11:40:19.34	253.05	30.59	-27.6	-29.4	15.1	0.00e+00	0	42	0	762314752	15	4409
2026-01-12 11:40:20.35	253.39	30.63	-27.2	-28.5	15.6	0.00e+00	0	42	0	765460480	15	4152
2026-01-12 11:40:21.35	253.74	30.68	-27.2	-28.4	15.7	0.00e+00	0	42	0	768606208	15	4130
2026-01-12 11:40:22.35	254.08	30.72	-27.3	-28.5	15.5	0.00e+00	0	42	0	771751936	15	4173
2026-01-12 11:40:23.35	254.42	30.76	-27.4	-28.9	15.4	0.00e+00	0	42	0	774897664	15	4273
2026-01-12 11:40:24.35	254.76	30.81	-27.5	-29.2	15.2	0.00e+00	0	42	0	778043392	15	4366
2026-01-12 11:40:25.36	255.11	30.85	-27.6	-29.4	15.1	0.00e+00	0	42	0	781189120	15	4427
2026-01-12 11:40:26.36	255.46	30.88	-27.5	-29.1	15.3	0.00e+00	0	42	0	784334848	15	4319
2026-01-12 11:40:27.37	255.81	30.92	-27.5	-29.0	15.4	0.00e+00	0	42	0	787480576	15	4289
2026-01-12 11:40:28.38	256.16	30.96	-27.4	-28.9	15.4	0.00e+00	0	42	0	790626304	15	4271
2026-01-12 11:40:29.38	256.50	31.00	-27.4	-28.8	15.4	0.00e+00	0	42	0	793772032	15	4246
2026-01-12 11:40:30.38	256.85	31.03	-27.5	-29.0	15.3	0.00e+00	0	42	0	796917760	15	4313
2026-01-12 11:40:31.39	257.20	31.07	-27.5	-29.0	15.3	0.00e+00	0	42	0	800063488	15	4307
2026-01-12 11:40:32.39	257.55	31.10	-27.4	-28.9	15.3	0.00e+00	0	42	0	803209216	15	4276
2026-01-12 11:40:33.40	257.91	31.13	-27.5	-29.0	15.3	0.00e+00	0	42	0	806354944	15	4308
2026-01-12 11:40:34.40	258.26	31.16	-27.5	-29.2	15.2	7.00e-07	0	42	0	809500672	15	4355
2026-01-12 11:40:35.40	258.61	31.19	-27.4	-28.9	15.3	0.00e+00	0	42	0	812646400	15	4275
2026-01-12 11:40:36.40	258.96	31.22	-27.4	-29.0	15.3	0.00e+00	0	42	0	815792128	15	4300
2026-01-12 11:40:37.40	259.32	31.24	-27.6	-29.2	15.2	0.00e+00	0	42	0	818937856	15	4372
2026-01-12 11:40:38.40	259.67	31.27	-27.5	-29.2	15.2	0.00e+00	0	42	0	822083584	15	4351
2026-01-12 11:40:39.41	260.03	31.29	-27.4	-28.9	15.4	7.00e-07	0	42	0	825229312	15	4279
2026-01-12 11:40:40.41	260.38	31.32	-27.4	-28.9	15.4	0.00e+00	0	42	0	828375040	15	4274
2026-01-12 11:40:41.42	260.74	31.34	-27.5	-29.1	15.2	0.00e+00	0	42	0	831520768	15	4330
2026-01-12 11:40:42.43	261.10	31.36	-27.4	-29.0	15.3	7.00e-07	0	42	0	834666496	15	4287
2026-01-12 11:40:43.43	261.45	31.38	-27.5	-29.0	15.3	0.00e+00	0	42	0	837812224	15	4298
2026-01-12 11:40:44.44	261.81	31.40	-27.6	-29.2	15.2	0.00e+00	0	42	0	840957952	15	4367
2026-01-12 11:40:45.45	262.17	31.42	-27.7	-29.5	15.1	0.00e+00	0	42	0	844103680	15	4434
2026-01-12 11:40:46.45	262.53	31.43	-27.6	-29.4	15.1	0.00e+00	0	42	0	847249408	15	4401
2026-01-12 11:40:47.46	262.89	31.45	-27.5	-29.2	15.2	0.00e+00	0	42	0	850395136	15	4362
2026-01-12 11:40:48.46	263.25	31.46	-27.6	-29.4	15.1	0.00e+00	0	42	0	853540864	15	4402
2026-01-12 11:40:49.47	263.61	31.47	-27.7	-29.5	15.1	0.00e+00	0	42	0	856686592	15	4446
2026-01-12 11:40:50.47	263.97	31.49	-27.5	-29.1	15.3	0.00e+00	0	42	0	859832320	15	4316
2026-01-12 11:40:51.48	264.33	31.50	-27.4	-28.9	15.4	0.00e+00	0	42	0	862978048	15	4281
2026-01-12 11:40:52.48	264.69	31.51	-27.4	-28.9	15.3	0.00e+00	0	42	0	866123776	15	4287
2026-01-12 11:40:53.48	265.05	31.51	-27.5	-29.1	15.3	0.00e+00	0	42	0	869269504	15	4333
2026-01-12 11:40:54.48	265.41	31.52	-27.6	-29.3	15.2	0.00e+00	0	42	0	872415232	15	4383
2026-01-12 11:40:55.48	265.77	31.52	-27.7	-29.5	15.1	0.00e+00	0	42	0	875560960	15	4437
2026-01-12 11:40:56.49	266.13	31.53	-27.6	-29.4	15.1	0.00e+00	0	42	0	878706688	15	4426
2026-01-12 11:40:57.49	266.49	31.53	-27.7	-29.6	15.0	0.00e+00	0	42	0	881852416	15	4481
2026-01-12 11:40:58.50	266.85	31.53	-27.7	-29.6	15.0	0.00e+00	0	42	0	884998144	15	4470
2026-01-12 11:40:59.50	267.21	31.53	-27.7	-29.5	15.1	9.10e-06	0	42	0	887095296	15	4446
2026-01-12 11:41:00.50	267.57	31.53	-27.6	-29.3	15.1	0.00e+00	0	42	0	890241024	15	4389
2026-01-12 11:41:01.51	267.93	31.53	-27.6	-29.4	15.1	0.00e+00	0	42	0	894435328	15	4400
2026-01-12 11:41:02.51	268.29	31.53	-27.7	-29.5	15.1	0.00e+00	0	42	0	897581056	15	4433
2026-01-12 11:41:03.52	268.65	31.52	-27.7	-29.5	15.1	0.00e+00	0	42	0	900726784	15	4449
2026-01-12 11:41:04.52	269.01	31.52	-27.7	-29.5	15.0	0.00e+00	0	42	0	903872512	15	4456
2026-01-12 11:41:05.53	269.37	31.51	-27.6	-29.3	15.2	3.80e-06	0	42	0	907018240	15	4391
2026-01-12 11:41:06.53	269.73	31.50	-27.6	-29.3	15.2	0.00e+00	0	42	0	910163968	15	4380
2026-01-12 11:41:07.53	270.09	31.49	-27.6	-29.2	15.2	0.00e+00	0	42	0	912261120	15	4358
2026-01-12 11:41:08.53	270.45	31.48	-27.5	-29.2	15.3	2.20e-06	0	42	0	915406848	15	4349
2026-01-12 11:41:09.54	270.81	31.47	-27.6	-29.4	15.1	0.00e+00	0	42	0	918552576	15	4418
2026-01-12 11:41:10.55	271.17	31.46	-27.6	-29.4	15.1	0.00e+00	0	42	0	921698304	15	4415
2026-01-12 11:41:11.56	271.53	31.44	-27.4	-29.0	15.4	5.30e-06	0	42	0	925892608	15	4293
2026-01-12 11:41:12.56	271.89	31.43	-27.4	-28.8	15.5	0.00e+00	0	42	0	929038336	15	4237
2026-01-12 11:41:13.57	272.25	31.41	-27.3	-28.7	15.6	0.00e+00	0	42	0	932184064	15	4205
2026-01-12 11:41:14.57	272.61	31.39	-27.4	-28.8	15.5	3.80e-06	0	42	0	934281216	15	4235
2026-01-12 11:41:15.57	272.96	31.37	-27.4	-28.8	15.4	0.00e+00	0	42	0	937426944	15	4249
2026-01-12 11:41:16.57	273.32	31.35	-27.5	-29.1	15.3	0.00e+00	0	42	0	940572672	15	4334
2026-01-12 11:41:17.58	273.67	31.33	-27.5	-29.2	15.3	0.00e+00	0	42	0	943718400	15	4352
2026-01-12 11:41:18.58	274.03	31.31	-27.5	-29.0	15.3	0.00e+00	0	42	0	946864128	15	4313
2026-01-12 11:41:19.59	274.39	31.29	-27.5	-29.0	15.3	0.00e+00	0	42	0	950009856	15	4305
2026-01-12 11:41:20.59	274.74	31.26	-27.6	-29.3	15.3	7.60e-06	0	42	0	953155584	15	4371
2026-01-12 11:41:21.59	275.09	31.23	-27.5	-29.1	15.3	0.00e+00	0	42	0	956301312	15	4326
2026-01-12 11:41:22.59	275.44	31.21	-27.5	-29.1	15.3	0.00e+00	0	42	0	959447040	15	4327
2026-01-12 11:41:23.59	275.80	31.18	-27.6	-29.3	15.2	0.00e+00	0	42	0	962592768	15	4377
2026-01-12 11:41:24.58	276.14	31.15	-27.6	-29.3	15.1	0.00e+00	0	42	0	965738496	15	4394
2026-01-12 11:41:25.57	276.49	31.12	-27.7	-29.4	15.1	0.00e+00	0	42	0	968884224	15	4421
2026-01-12 11:41:26.58	276.84	31.09	-27.7	-29.6	15.0	0.00e+00	0	42	0	972029952	15	4465
2026-01-12 11:41:27.58	277.19	31.05	-27.6	-29.3	15.2	0.00e+00	0	42	0	975175680	15	4384
2026-01-12 11:41:28.59	277.54	31.02	-27.6	-29.3	15.2	0.00e+00	0	42	0	978321408	15	4386
2026-01-12 11:41:29.59	277.89	30.99	-27.6	-29.3	15.2	1.50e-06	0	42	0	981467136	15	4396
2026-01-12 11:41:30.60	278.24	30.95	-27.3	-28.7	15.5	0.00e+00	0	42	0	984612864	15	4227
2026-01-12 11:41:31.61	278.59	30.91	-27.1	-28.2	15.8	0.00e+00	0	42	0	987758592	15	4077
2026-01-12 11:41:32.61	278.94	30.87	-27.1	-28.1	15.9	0.00e+00	0	42	0	990904320	15	4061
2026-01-12 11:41:33.61	279.28	30.83	-27.3	-28.7	15.5	0.00e+00	0	42	0	994050048	15	4211
2026-01-12 11:41:34.62	279.63	30.79	-27.4	-28.9	15.4	0.00e+00	0	42	0	997195776	15	4286
2026-01-12 11:41:35.62	279.97	30.75	-27.5	-29.1	15.3	0.00e+00	0	42	0	1000341504	15	4318
2026-01-12 11:41:36.63	280.31	30.71	-27.6	-29.3	15.2	0.00e+00	0	42	0	1003487232	15	4370
2026-01-12 11:41:37.63	280.66	30.66	-27.5	-29.2	15.3	0.00e+00	0	42	0	1006632960	15	4358
2026-01-12 11:41:38.63	281.00	30.62	-27.4	-28.8	15.5	0.00e+00	0	42	0	1009778688	15	4252
2026-01-12 11:41:39.63	281.33	30.57	-27.3	-28.6	15.6	0.00e+00	0	42	0	1012924416	15	4189
2026-01-12 11:41:40.64	281.68	30.53	-27.5	-29.1	15.3	0.00e+00	0	42	0	1016070144	15	4330
2026-01-12 11:41:41.64	282.01	30.48	-27.4	-29.0	15.4	0.00e+00	0	42	0	1019215872	15	4290
2026-01-12 11:41:42.64	282.35	30.43	-27.4	-28.8	15.4	0.00e+00	0	42	0	1022361600	15	4247
2026-01-12 11:41:43.65	282.69	30.38	-27.5	-29.1	15.3	0.00e+00	0	42	0	1025507328	15	4333
2026-01-12 11:41:44.66	283.02	30.33	-27.7	-29.4	15.1	0.00e+00	0	42	0	1028653056	15	4420
2026-01-12 11:41:45.66	283.36	30.28	-27.7	-29.6	15.0	0.00e+00	0	42	0	1031798784	15	4480
2026-01-12 11:41:46.66	283.69	30.23	-27.7	-29.5	15.1	0.00e+00	0	42	0	1034944512	15	4438
2026-01-12 11:41:47.66	284.02	30.17	-27.6	-29.3	15.1	7.00e-07	0	42	0	1038090240	15	4395
2026-01-12 11:41:48.66	284.35	30.12	-27.7	-29.5	15.1	0.00e+00	0	42	0	1041235968	15	4433
2026-01-12 11:41:49.66	284.68	30.06	-27.6	-29.3	15.2	0.00e+00	0	42	0	1044381696	15	4397
2026-01-12 11:41:50.67	285.01	30.01	-27.4	-28.8	15.5	0.00e+00	0	42	0	1047527424	15	4232
2026-01-12 11:41:51.67	285.33	29.95	-27.1	-28.2	15.8	0.00e+00	0	42	0	1050673152	15	4082
2026-01-12 11:41:52.67	285.66	29.89	-27.1	-28.2	15.8	0.00e+00	0	42	0	1053818880	15	4075
2026-01-12 11:41:53.67	285.98	29.83	-27.1	-28.1	15.9	0.00e+00	0	42	0	1056964608	15	4057
2026-01-12 11:41:54.67	286.31	29.77	-27.1	-28.1	15.9	0.00e+00	0	42	0	1060110336	15	4043
2026-01-12 11:41:55.68	286.63	29.71	-27.1	-28.2	15.8	7.00e-07	0	42	0	1063256064	15	4078
2026-01-12 11:41:56.68	286.95	29.65	-27.1	-28.2	15.8	0.00e+00	0	42	0	1066401792	15	4092
2026-01-12 11:41:57.70	287.28	29.59	-27.1	-28.3	15.8	0.00e+00	0	42	0	1069547520	15	4102
2026-01-12 11:41:58.70	287.59	29.53	-27.2	-28.5	15.7	0.00e+00	0	42	0	1072693248	15	4159
2026-01-12 11:41:59.71	287.91	29.46	-27.2	-28.4	15.7	0.00e+00	0	42	0	1075838976	15	4143
2026-01-12 11:42:00.71	288.23	29.40	-27.1	-28.2	15.8	0.00e+00	0	42	0	1078984704	15	4086
2026-01-12 11:42:01.72	288.55	29.33	-27.1	-28.3	15.8	0.00e+00	0	42	0	1082130432	15	4099
2026-01-12 11:42:02.72	288.86	29.26	-27.3	-28.6	15.6	0.00e+00	0	42	0	1085276160	15	4186
2026-01-12 11:42:03.73	289.17	29.20	-27.3	-28.7	15.5	0.00e+00	0	42	0	1088421888	15	4222
2026-01-12 11:42:04.73	289.48	29.13	-27.4	-28.8	15.5	0.00e+00	0	42	0	1091567616	15	4235
2026-01-12 11:42:05.73	289.79	29.06	-27.3	-28.7	15.5	0.00e+00	0	42	0	1094713344	15	4209
2026-01-12 11:42:06.73	290.10	28.99	-27.4	-28.8	15.5	0.00e+00	0	42	0	1097859072	15	4249
2026-01-12 11:42:07.73	290.41	28.92	-27.2	-28.5	15.6	0.00e+00	0	42	0	1101004800	15	4155
2026-01-12 11:42:08.74	290.72	28.85	-27.2	-28.3	15.7	0.00e+00	0	42	0	1104150528	15	4112
2026-01-12 11:42:09.75	291.02	28.78	-27.3	-28.5	15.6	0.00e+00	0	42	0	1107296256	15	4170
2026-01-12 11:42:10.75	291.33	28.71	-27.2	-28.5	15.6	0.00e+00	0	42	0	1110441984	15	4169
2026-01-12 11:42:11.76	291.63	28.64	-27.5	-29.1	15.3	0.00e+00	0	42	0	1113587712	15	4324
2026-01-12 11:42:12.76	291.93	28.56	-27.5	-29.1	15.3	0.00e+00	0	42	0	1116733440	15	4331
2026-01-12 11:42:13.76	292.23	28.49	-27.5	-29.1	15.3	0.00e+00	0	42	0	1119879168	15	4322
2026-01-12 11:42:14.77	292.53	28.41	-27.5	-29.0	15.3	0.00e+00	0	42	0	1123024896	15	4306
2026-01-12 11:42:15.77	292.82	28.34	-27.5	-29.1	15.3	0.00e+00	0	42	0	1126170624	15	4334
2026-01-12 11:42:16.77	293.12	28.26	-27.5	-29.0	15.4	1.50e-06	0	42	0	1129316352	15	4298
2026-01-12 11:42:17.78	293.41	28.19	-27.4	-28.8	15.5	0.00e+00	0	42	0	1132462080	15	4236
2026-01-12 11:42:18.78	293.70	28.11	-27.2	-28.5	15.7	0.00e+00	0	42	0	1135607808	15	4152
2026-01-12 11:42:19.78	293.99	28.03	-27.2	-28.4	15.7	3.00e-06	0	42	0	1138753536	15	4140
2026-01-12 11:42:20.78	294.28	27.95	-27.0	-27.9	16.0	0.00e+00	0	42	0	1141899264	15	3995
2026-01-12 11:42:21.78	294.57	27.88	-26.9	-27.7	16.1	0.00e+00	0	42	0	1145044992	15	3946
2026-01-12 11:42:22.78	294.86	27.80	-26.9	-27.8	16.0	0.00e+00	0	42	0	1148190720	15	3982
2026-01-12 11:42:23.78	295.14	27.72	-27.0	-27.9	15.9	0.00e+00	0	42	0	1151336448	15	4004
2026-01-12 11:42:24.78	295.42	27.64	-27.1	-28.1	15.8	0.00e+00	0	42	0	1154482176	15	4069
2026-01-12 11:42:25.78	295.71	27.56	-27.2	-28.4	15.7	0.00e+00	0	42	0	1157627904	15	4125
2026-01-12 11:42:26.78	295.99	27.48	-27.2	-28.5	15.6	0.00e+00	0	42	0	1160773632	15	4156
2026-01-12 11:42:27.77	296.26	27.40	-27.1	-28.2	15.8	0.00e+00	0	42	0	1163919360	15	4068
2026-01-12 11:42:28.77	296.54	27.31	-27.1	-28.1	15.9	0.00e+00	0	42	0	1167065088	15	4052
2026-01-12 11:42:29.78	296.82	27.23	-27.2	-28.4	15.7	0.00e+00	0	42	0	1170210816	15	4126
2026-01-12 11:42:30.79	297.10	27.15	-27.2	-28.4	15.7	0.00e+00	0	42	0	1173356544	15	4132
2026-01-12 11:42:31.80	297.37	27.06	-27.3	-28.6	15.6	0.00e+00	0	42	0	1176502272	15	4185
2026-01-12 11:42:32.80	297.64	26.98	-27.1	-28.2	15.8	0.00e+00	0	42	0	1179648000	15	4096
2026-01-12 11:42:33.80	297.91	26.90	-26.9	-27.8	16.0	0.00e+00	0	42	0	1182793728	15	3983
2026-01-12 11:42:34.81	298.19	26.81	-26.9	-27.9	16.0	0.00e+00	0	42	0	1185939456	15	3997
2026-01-12 11:42:35.81	298.45	26.73	-26.9	-27.7	16.1	0.00e+00	0	42	0	1189085184	15	3963
2026-01-12 11:42:36.81	298.72	26.64	-26.9	-27.8	16.1	0.00e+00	0	42	0	1192230912	15	3975
2026-01-12 11:42:37.82	298.99	26.55	-27.0	-28.0	15.9	0.00e+00	0	42	0	1195376640	15	4027
2026-01-12 11:42:38.82	299.25	26.47	-27.1	-28.3	15.8	0.00e+00	0	42	0	1198522368	15	4099
2026-01-12 11:42:39.82	299.51	26.38	-27.1	-28.1	15.9	0.00e+00	0	42	0	1201668096	15	4046
2026-01-12 11:42:40.83	299.78	26.29	-27.0	-27.9	16.0	0.00e+00	0	42	0	1204813824	15	3997
2026-01-12 11:42:41.83	300.04	26.21	-27.0	-27.9	16.0	0.00e+00	0	42	0	1207959552	15	3995
2026-01-12 11:42:42.83	300.29	26.12	-27.1	-28.1	15.8	0.00e+00	0	42	0	1210056704	15	4066
2026-01-12 11:42:43.84	300.55	26.03	-26.9	-27.8	16.0	0.00e+00	0	42	0	1213202432	15	3985
2026-01-12 11:42:44.85	300.81	25.94	-27.1	-28.2	15.8	0.00e+00	0	42	0	1216348160	15	4075
2026-01-12 11:42:45.85	301.06	25.86	-26.9	-27.7	16.1	0.00e+00	0	42	0	1220542464	15	3946
2026-01-12 11:42:46.86	301.32	25.77	-26.6	-27.5	16.4	0.00e+00	0	42	0	1223688192	14	4013
2026-01-12 11:42:47.87	301.57	25.68	-26.4	-27.1	16.7	7.00e-07	0	42	0	1226833920	14	3906
2026-01-12 11:42:48.87	301.82	25.59	-26.4	-27.1	16.6	0.00e+00	0	42	0	1229979648	14	3912
2026-01-12 11:42:49.88	302.07	25.50	-26.4	-27.2	16.6	0.00e+00	0	42	0	1233125376	14	3929
2026-01-12 11:42:50.88	302.32	25.41	-26.6	-27.6	16.3	0.00e+00	0	42	0	1235222528	14	4040
2026-01-12 11:42:51.89	302.57	25.32	-26.9	-28.1	16.1	0.00e+00	0	42	0	1238368256	14	4175
2026-01-12 11:42:52.89	302.81	25.23	-26.8	-28.1	16.1	0.00e+00	0	42	0	1241513984	14	4156
2026-01-12 11:42:53.89	303.05	25.14	-26.9	-28.3	16.0	0.00e+00	0	42	0	1244659712	14	4210
2026-01-12 11:42:54.89	303.29	25.05	-26.9	-28.3	16.0	0.00e+00	0	42	0	1247805440	14	4230
2026-01-12 11:42:55.89	303.53	24.96	-27.0	-28.4	16.0	0.00e+00	0	42	0	1250951168	14	4238
2026-01-12 11:42:56.89	303.77	24.86	-27.0	-28.4	15.9	0.00e+00	0	42	0	1254096896	14	4255
2026-01-12 11:42:57.89	304.01	24.77	-27.0	-28.4	15.9	0.00e+00	0	42	0	1257242624	14	4252
2026-01-12 11:42:58.89	304.25	24.68	-27.0	-28.6	15.8	0.00e+00	0	42	0	1260388352	14	4303
2026-01-12 11:42:59.90	304.48	24.59	-27.1	-28.6	15.8	0.00e+00	0	42	0	1263534080	14	4308
2026-01-12 11:43:00.90	304.72	24.50	-27.1	-28.6	15.8	0.00e+00	0	42	0	1266679808	14	4305
2026-01-12 11:43:01.90	304.95	24.41	-27.1	-28.8	15.8	0.00e+00	0	42	0	1269825536	14	4354
2026-01-12 11:43:02.90	305.18	24.32	-27.0	-28.5	15.9	0.00e+00	0	42	0	1272971264	14	4263
2026-01-12 11:43:03.90	305.41	24.22	-27.0	-28.5	15.9	0.00e+00	0	42	0	1276116992	14	4278
2026-01-12 11:43:04.91	305.64	24.13	-27.1	-28.6	15.8	0.00e+00	0	42	0	1279262720	14	4319
2026-01-12 11:43:05.91	305.86	24.04	-27.0	-28.6	15.8	0.00e+00	0	42	0	1282408448	14	4294
2026-01-12 11:43:06.91	306.09	23.95	-27.0	-28.5	15.9	0.00e+00	0	42	0	1285554176	14	4273
2026-01-12 11:43:07.92	306.32	23.85	-27.0	-28.5	15.8	0.00e+00	0	42	0	1288699904	14	4283
2026-01-12 11:43:08.93	306.54	23.76	-27.0	-28.4	15.9	0.00e+00	0	42	0	1291845632	14	4243
2026-01-12 11:43:09.93	306.76	23.67	-26.9	-28.2	16.1	0.00e+00	0	42	0	1294991360	14	4181
2026-01-12 11:43:10.93	306.98	23.57	-26.8	-28.1	16.1	0.00e+00	0	42	0	1298137088	14	4157
2026-01-12 11:43:11.94	307.20	23.48	-27.0	-28.6	15.9	0.00e+00	0	42	0	1301282816	14	4286
2026-01-12 11:43:12.94	307.42	23.39	-26.9	-28.3	16.0	0.00e+00	0	42	0	1304428544	14	4217
2026-01-12 11:43:13.94	307.64	23.29	-26.8	-28.1	16.1	0.00e+00	0	42	0	1307574272	14	4154
2026-01-12 11:43:14.95	307.85	23.20	-26.7	-27.9	16.2	0.00e+00	0	42	0	1310720000	14	4105
2026-01-12 11:43:15.95	308.07	23.11	-26.8	-28.0	16.1	0.00e+00	0	42	0	1313865728	14	4138
2026-01-12 11:43:16.96	308.28	23.01	-26.6	-27.6	16.4	0.00e+00	0	42	0	1317011456	14	4042
2026-01-12 11:43:17.97	308.50	22.92	-26.6	-27.5	16.4	0.00e+00	0	42	0	1320157184	14	4001
2026-01-12 11:43:18.97	308.71	22.82	-26.7	-27.7	16.3	0.00e+00	0	42	0	1323302912	14	4062
2026-01-12 11:43:19.98	308.92	22.73	-26.6	-27.6	16.3	0.00e+00	0	42	0	1326448640	14	4035
2026-01-12 11:43:20.98	309.12	22.64	-26.6	-27.6	16.3	0.00e+00	0	42	0	1329594368	14	4036
2026-01-12 11:43:21.99	309.33	22.54	-26.7	-27.9	16.2	0.00e+00	0	42	0	1332740096	14	4102
2026-01-12 11:43:22.98	309.53	22.45	-26.8	-28.0	16.1	0.00e+00	0	42	0	1335885824	14	4125
2026-01-12 11:43:23.99	309.74	22.35	-27.1	-28.6	15.8	0.00e+00	0	42	0	1339031552	14	4296
2026-01-12 11:43:24.99	309.94	22.26	-27.0	-28.6	15.8	0.00e+00	0	42	0	1342177280	14	4297
2026-01-12 11:43:26.00	310.15	22.17	-27.3	-29.2	15.5	0.00e+00	0	42	0	1345323008	14	4479
2026-01-12 11:43:27.01	310.35	22.07	-27.2	-29.0	15.6	0.00e+00	0	42	0	1348468736	14	4431
2026-01-12 11:43:28.01	310.55	21.98	-27.1	-28.8	15.7	0.00e+00	0	42	0	1351614464	14	4360
2026-01-12 11:43:29.01	310.75	21.88	-27.1	-28.8	15.6	0.00e+00	0	42	0	1354760192	14	4367
2026-01-12 11:43:30.00	310.94	21.79	-27.1	-28.7	15.7	0.00e+00	0	42	0	1357905920	14	4338
2026-01-12 11:43:31.00	311.14	21.70	-27.1	-28.7	15.7	0.00e+00	0	42	0	1361051648	14	4319
2026-01-12 11:43:32.00	311.33	21.60	-27.1	-28.7	15.8	0.00e+00	0	42	0	1364197376	14	4319
2026-01-12 11:43:33.00	311.52	21.51	-27.2	-28.9	15.6	0.00e+00	0	42	0	1367343104	14	4372
2026-01-12 11:43:34.01	311.72	21.42	-26.9	-28.3	15.9	0.00e+00	0	42	0	1370488832	14	4231
2026-01-12 11:43:35.01	311.91	21.32	-26.9	-28.2	16.0	0.00e+00	0	42	0	1373634560	14	4202
2026-01-12 11:43:36.02	312.10	21.23	-26.9	-28.3	16.0	0.00e+00	0	42	0	1376780288	14	4208
2026-01-12 11:43:37.03	312.29	21.13	-27.0	-28.4	15.9	0.00e+00	0	42	0	1379926016	14	4245
2026-01-12 11:43:38.03	312.48	21.04	-27.1	-28.7	15.7	0.00e+00	0	42	0	1383071744	14	4317
2026-01-12 11:43:39.04	312.67	20.95	-27.0	-28.5	15.8	0.00e+00	0	42	0	1386217472	14	4289
2026-01-12 11:43:40.04	312.85	20.85	-27.1	-28.8	15.7	0.00e+00	0	42	0	1389363200	14	4354
2026-01-12 11:43:41.05	313.04	20.76	-27.0	-28.5	15.8	7.00e-07	0	42	0	1392508928	14	4273
2026-01-12 11:43:42.04	313.22	20.67	-27.1	-28.8	15.7	0.00e+00	0	42	0	1395654656	14	4356
2026-01-12 11:43:43.05	313.40	20.57	-27.0	-28.6	15.8	0.00e+00	0	42	0	1398800384	14	4297
2026-01-12 11:43:44.05	313.59	20.48	-27.0	-28.5	15.8	0.00e+00	0	42	0	1401946112	14	4288
2026-01-12 11:43:45.06	313.77	20.39	-27.1	-28.8	15.6	0.00e+00	0	42	0	1405091840	14	4350
2026-01-12 11:43:46.06	313.95	20.29	-27.0	-28.5	15.8	0.00e+00	0	42	0	1408237568	14	4281
2026-01-12 11:43:47.07	314.13	20.20	-27.2	-28.9	15.6	0.00e+00	0	42	0	1411383296	14	4399
2026-01-12 11:43:48.06	314.30	20.11	-27.0	-28.6	15.8	0.00e+00	0	42	0	1414529024	14	4293
2026-01-12 11:43:49.07	314.48	20.01	-26.9	-28.4	15.9	0.00e+00	0	42	0	1417674752	14	4237
2026-01-12 11:43:50.08	314.66	19.92	-27.0	-28.4	15.8	0.00e+00	0	42	0	1420820480	14	4260
2026-01-12 11:43:51.09	314.83	19.83	-27.0	-28.5	15.8	0.00e+00	0	42	0	1423966208	14	4281
2026-01-12 11:43:52.09	315.00	19.74	-27.1	-28.7	15.7	0.00e+00	0	42	0	1427111936	14	4323
2026-01-12 11:43:53.10	315.18	19.64	-27.2	-29.0	15.5	0.00e+00	0	42	0	1430257664	14	4405
2026-01-12 11:43:54.10	315.35	19.55	-27.2	-28.9	15.6	0.00e+00	0	42	0	1433403392	14	4388
2026-01-12 11:43:55.11	315.52	19.46	-27.3	-29.2	15.4	0.00e+00	0	42	0	1436549120	14	4479
2026-01-12 11:43:56.12	315.69	19.36	-27.3	-29.3	15.3	0.00e+00	0	42	0	1439694848	14	4516
2026-01-12 11:43:57.12	315.86	19.27	-27.5	-29.6	15.2	0.00e+00	0	42	0	1442840576	14	4596
2026-01-12 11:43:58.13	316.03	19.18	-27.5	-29.6	15.2	0.00e+00	0	42	0	1445986304	14	4584
2026-01-12 11:43:59.13	316.19	19.09	-27.4	-29.5	15.2	0.00e+00	0	42	0	1449132032	14	4565
2026-01-12 11:44:00.14	316.36	19.00	-27.6	-29.5	15.0	0.00e+00	0	42	0	1452277760	15	4443
2026-01-12 11:44:01.15	316.52	18.90	-27.9	-30.0	14.6	0.00e+00	0	42	0	1455423488	15	4603
2026-01-12 11:44:02.15	316.69	18.81	-27.6	-29.4	15.0	0.00e+00	0	42	0	1458569216	15	4438
2026-01-12 11:44:03.16	316.85	18.72	-27.5	-29.2	15.1	0.00e+00	0	42	0	1461714944	15	4368
2026-01-12 11:44:04.16	317.01	18.63	-27.5	-29.1	15.1	0.00e+00	0	42	0	1464860672	15	4342
2026-01-12 11:44:05.17	317.17	18.54	-27.5	-29.1	15.1	0.00e+00	0	42	0	1468006400	15	4351
2026-01-12 11:44:06.17	317.33	18.45	-27.4	-29.0	15.1	0.00e+00	0	42	0	1471152128	15	4328
2026-01-12 11:44:07.17	317.49	18.36	-27.5	-29.1	15.1	0.00e+00	0	42	0	1474297856	15	4338
2026-01-12 11:44:08.17	317.65	18.26	-27.5	-29.3	15.0	0.00e+00	0	42	0	1477443584	15	4391
2026-01-12 11:44:09.18	317.81	18.17	-27.3	-28.7	15.3	0.00e+00	0	42	0	1480589312	15	4241
2026-01-12 11:44:10.18	317.96	18.08	-27.3	-28.6	15.3	0.00e+00	0	42	0	1483735040	15	4212
2026-01-12 11:44:11.18	318.12	17.99	-27.3	-28.6	15.4	0.00e+00	0	42	0	1486880768	15	4202
2026-01-12 11:44:12.18	318.27	17.90	-27.3	-28.7	15.3	0.00e+00	0	42	0	1490026496	15	4238
2026-01-12 11:44:13.18	318.42	17.81	-27.2	-28.5	15.5	0.00e+00	0	42	0	1493172224	15	4164
2026-01-12 11:44:14.19	318.57	17.72	-27.2	-28.4	15.5	0.00e+00	0	42	0	1496317952	15	4146
2026-01-12 11:44:15.20	318.73	17.63	-27.3	-28.6	15.4	0.00e+00	0	42	0	1499463680	15	4204
2026-01-12 11:44:16.20	318.88	17.54	-27.2	-28.4	15.5	0.00e+00	0	42	0	1502609408	15	4149
2026-01-12 11:44:17.21	319.03	17.45	-27.2	-28.5	15.5	0.00e+00	0	42	0	1505755136	15	4163
2026-01-12 11:44:18.21	319.18	17.36	-27.3	-28.6	15.4	0.00e+00	0	42	0	1508900864	15	4193
2026-01-12 11:44:19.22	319.33	17.27	-27.2	-28.4	15.5	0.00e+00	0	42	0	1512046592	15	4154
2026-01-12 11:44:20.23	319.47	17.18	-27.1	-28.2	15.6	0.00e+00	0	42	0	1515192320	15	4099
2026-01-12 11:44:21.23	319.62	17.09	-27.2	-28.4	15.5	7.00e-07	0	42	0	1518338048	15	4140
2026-01-12 11:44:22.24	319.77	17.01	-27.2	-28.4	15.5	0.00e+00	0	42	0	1521483776	15	4153
2026-01-12 11:44:23.25	319.91	16.92	-27.2	-28.5	15.4	0.00e+00	0	42	0	1524629504	15	4174
2026-01-12 11:44:24.25	320.06	16.83	-27.3	-28.6	15.3	0.00e+00	0	42	0	1527775232	15	4209
2026-01-12 11:44:25.25	320.20	16.74	-27.4	-28.9	15.2	0.00e+00	0	42	0	1530920960	15	4275
2026-01-12 11:44:26.25	320.34	16.65	-27.4	-29.0	15.1	0.00e+00	0	42	0	1534066688	15	4318
2026-01-12 11:44:27.26	320.48	16.56	-27.5	-29.1	15.1	0.00e+00	0	42	0	1537212416	15	4338
2026-01-12 11:44:28.26	320.62	16.48	-27.4	-28.9	15.1	0.00e+00	0	42	0	1540358144	15	4288
2026-01-12 11:44:29.26	320.76	16.39	-27.4	-28.9	15.2	0.00e+00	0	42	0	1543503872	15	4295
2026-01-12 11:44:30.26	320.90	16.30	-27.3	-28.8	15.2	0.00e+00	0	43	0	1546649600	15	4245
2026-01-12 11:44:31.27	321.04	16.21	-27.3	-28.7	15.3	0.00e+00	0	42	0	1549795328	15	4235
2026-01-12 11:44:32.27	321.18	16.13	-27.3	-28.6	15.3	0.00e+00	0	42	0	1552941056	15	4207
2026-01-12 11:44:33.27	321.31	16.04	-27.3	-28.6	15.3	0.00e+00	0	42	0	1556086784	15	4215
2026-01-12 11:44:34.28	321.45	15.95	-27.2	-28.5	15.3	0.00e+00	0	42	0	1559232512	15	4189
2026-01-12 11:44:35.29	321.59	15.86	-27.3	-28.6	15.3	0.00e+00	0	42	0	1562378240	15	4207
2026-01-12 11:44:36.29	321.72	15.78	-27.2	-28.5	15.4	0.00e+00	0	42	0	1565523968	15	4180
2026-01-12 11:44:37.30	321.85	15.69	-27.2	-28.5	15.3	0.00e+00	0	42	0	1568669696	15	4183
2026-01-12 11:44:38.30	321.99	15.60	-27.2	-28.5	15.3	0.00e+00	0	42	0	1571815424	15	4179
2026-01-12 11:44:39.30	322.12	15.52	-27.3	-28.7	15.2	0.00e+00	0	42	0	1574961152	15	4236
2026-01-12 11:44:40.31	322.25	15.43	-27.3	-28.7	15.2	0.00e+00	0	42	0	1578106880	15	4232
2026-01-12 11:44:41.31	322.38	15.35	-27.5	-29.2	15.0	0.00e+00	0	42	0	1581252608	15	4360
2026-01-12 11:44:42.32	322.51	15.26	-27.7	-29.6	14.7	0.00e+00	0	42	0	1584398336	15	4475
2026-01-12 11:44:43.32	322.64	15.17	-27.7	-29.7	14.7	0.00e+00	0	42	0	1587544064	15	4513
2026-01-12 11:44:44.34	322.77	15.09	-27.9	-30.2	14.4	0.00e+00	0	43	0	1590689792	15	4663
2026-01-12 11:44:45.34	322.90	15.00	-27.8	-29.8	14.5	1.50e-06	0	42	0	1593835520	15	4552
2026-01-12 11:44:46.35	323.03	14.92	-27.7	-29.8	14.6	0.00e+00	0	43	0	1596981248	15	4538
2026-01-12 11:44:47.36	323.16	14.83	-27.7	-29.7	14.6	7.00e-07	0	43	0	1600126976	15	4531
2026-01-12 11:44:48.36	323.28	14.75	-27.8	-29.9	14.5	1.50e-06	0	42	0	1603272704	15	4587
2026-01-12 11:44:49.37	323.41	14.66	-27.9	-30.1	14.4	0.00e+00	0	42	0	1606418432	15	4653
2026-01-12 11:44:50.37	323.53	14.58	-27.8	-29.8	14.6	0.00e+00	0	42	0	1609564160	15	4549
2026-01-12 11:44:51.38	323.66	14.49	-27.8	-29.8	14.6	1.50e-06	0	42	0	1612709888	15	4559
2026-01-12 11:44:52.39	323.78	14.41	-27.9	-30.1	14.4	0.00e+00	0	42	0	1615855616	15	4650
2026-01-12 11:44:53.39	323.90	14.33	-27.8	-29.8	14.5	0.00e+00	0	43	0	1619001344	15	4556
2026-01-12 11:44:54.40	324.02	14.24	-27.9	-30.1	14.4	7.00e-07	0	42	0	1622147072	15	4634
2026-01-12 11:44:55.41	324.15	14.16	-27.9	-30.0	14.4	3.00e-06	0	42	0	1625292800	15	4616
2026-01-12 11:44:56.41	324.27	14.08	-27.9	-30.1	14.4	2.20e-06	0	43	0	1628438528	15	4643
2026-01-12 11:44:57.41	324.39	13.99	-28.1	-30.0	14.3	1.50e-06	0	42	0	1631584256	16	4495
2026-01-12 11:44:58.42	324.51	13.91	-28.0	-29.8	14.4	7.00e-07	0	43	0	1634729984	16	4433
2026-01-12 11:44:59.43	324.62	13.83	-27.9	-29.6	14.5	0.00e+00	0	42	0	1637875712	16	4375
2026-01-12 11:45:00.43	324.74	13.74	-27.9	-29.6	14.5	7.00e-07	0	42	0	1641021440	16	4370
2026-01-12 11:45:01.44	324.86	13.66	-27.9	-29.6	14.5	7.00e-07	0	42	0	1644167168	16	4378
2026-01-12 11:45:02.45	324.98	13.58	-27.9	-29.7	14.5	0.00e+00	0	42	0	1647312896	16	4394
2026-01-12 11:45:03.45	325.09	13.50	-27.9	-29.6	14.5	0.00e+00	0	42	0	1650458624	16	4377
2026-01-12 11:45:04.46	325.21	13.41	-28.1	-29.9	14.3	1.50e-06	0	42	0	1653604352	16	4473
2026-01-12 11:45:05.46	325.32	13.33	-28.1	-30.1	14.1	2.20e-06	0	42	0	1656750080	16	4535
2026-01-12 11:45:06.47	325.44	13.25	-28.1	-30.0	14.3	1.50e-06	0	42	0	1659895808	16	4495
2026-01-12 11:45:07.47	325.55	13.17	-28.1	-30.0	14.2	0.00e+00	0	43	0	1663041536	16	4502
2026-01-12 11:45:08.48	325.67	13.09	-28.3	-30.5	13.9	1.50e-06	0	43	0	1666187264	16	4639
2026-01-12 11:45:09.48	325.78	13.01	-28.2	-30.4	14.0	3.80e-06	0	43	0	1669332992	16	4614
2026-01-12 11:45:10.49	325.89	12.93	-28.3	-30.5	13.9	6.10e-06	0	42	0	1672478720	16	4657
2026-01-12 11:45:11.50	326.00	12.84	-28.3	-30.6	13.9	4.50e-06	0	42	0	1675624448	16	4681
2026-01-12 11:45:12.50	326.11	12.76	-28.3	-30.5	13.9	2.20e-06	0	42	0	1678770176	16	4643
2026-01-12 11:45:13.50	326.22	12.68	-28.4	-30.8	13.8	5.30e-06	0	42	0	1681915904	16	4731
2026-01-12 11:45:14.51	326.33	12.60	-28.4	-30.4	13.7	1.06e-05	0	43	0	1685061632	17	4505
2026-01-12 11:45:15.51	326.44	12.52	-28.4	-30.4	13.7	8.30e-06	0	43	0	1688207360	17	4507
2026-01-12 11:45:16.52	326.55	12.44	-28.4	-30.3	13.7	1.14e-05	0	42	0	1691353088	17	4483
2026-01-12 11:45:17.53	326.66	12.36	-28.3	-30.1	13.9	4.50e-06	0	42	0	1694498816	17	4414
2026-01-12 11:45:18.54	326.77	12.28	-28.5	-30.4	13.7	9.90e-06	0	43	0	1697644544	17	4512
2026-01-12 11:45:19.54	326.87	12.20	-28.5	-30.6	13.6	6.10e-06	0	43	0	1699741696	17	4557
2026-01-12 11:45:20.55	326.98	12.12	-28.5	-30.5	13.6	9.10e-06	0	42	0	1703936000	17	4530
2026-01-12 11:45:21.56	327.09	12.05	-28.4	-30.3	13.7	9.90e-06	0	43	0	1707081728	17	4462
2026-01-12 11:45:22.57	327.19	11.97	-28.3	-30.0	13.9	4.50e-06	0	43	0	1710227456	17	4380
2026-01-12 11:45:23.57	327.30	11.89	-28.2	-29.9	13.9	2.20e-06	0	42	0	1713373184	17	4358
2026-01-12 11:45:24.57	327.40	11.81	-28.2	-29.9	13.9	7.00e-07	0	42	0	1716518912	17	4348
2026-01-12 11:45:25.59	327.50	11.73	-28.3	-30.0	13.8	8.30e-06	0	43	0	1719664640	17	4399
2026-01-12 11:45:26.59	327.61	11.65	-28.5	-30.4	13.6	6.80e-06	0	43	0	1722810368	17	4517
2026-01-12 11:45:27.59	327.71	11.57	-28.4	-30.4	13.6	7.60e-06	0	43	0	1724907520	17	4513
2026-01-12 11:45:28.60	327.81	11.50	-28.5	-30.5	13.5	1.29e-05	0	43	0	1728053248	17	4553
2026-01-12 11:45:29.61	327.91	11.42	-28.5	-30.6	13.5	8.30e-06	0	42	0	1732247552	17	4584
2026-01-12 11:45:30.61	328.01	11.34	-28.6	-30.7	13.4	1.37e-05	0	43	0	1735393280	17	4601
2026-01-12 11:45:31.62	328.11	11.26	-28.5	-30.4	13.6	8.30e-06	0	43	0	1738539008	17	4523
2026-01-12 11:45:32.63	328.22	11.19	-28.4	-30.2	13.7	6.80e-06	0	43	0	1741684736	17	4451
2026-01-12 11:45:33.63	328.31	11.11	-28.4	-30.3	13.7	4.50e-06	0	43	0	1744830464	17	4486
2026-01-12 11:45:34.64	328.41	11.03	-28.4	-30.4	13.6	9.90e-06	0	43	0	1746927616	17	4506
2026-01-12 11:45:35.64	328.51	10.96	-28.3	-30.1	13.7	1.44e-05	0	43	0	1750073344	17	4424
2026-01-12 11:45:36.65	328.61	10.88	-28.3	-30.1	13.7	2.20e-06	0	43	0	1753219072	17	4434
2026-01-12 11:45:37.65	328.71	10.80	-28.3	-30.0	13.8	3.00e-06	0	42	0	1756364800	17	4402
2026-01-12 11:45:38.66	328.80	10.73	-28.3	-30.1	13.8	3.00e-06	0	43	0	1760559104	17	4423
2026-01-12 11:45:39.65	328.90	10.65	-28.3	-30.1	13.7	8.30e-06	0	43	0	1763704832	17	4413
2026-01-12 11:45:40.66	329.00	10.58	-28.3	-30.2	13.7	4.50e-06	0	43	0	1766850560	17	4444
2026-01-12 11:45:41.67	329.09	10.50	-28.4	-30.2	13.6	6.10e-06	0	43	0	1769996288	17	4468
2026-01-12 11:45:42.68	329.19	10.42	-28.4	-30.3	13.6	8.30e-06	0	42	0	1772093440	17	4490
2026-01-12 11:45:43.69	329.28	10.35	-28.5	-30.5	13.5	8.30e-06	0	43	0	1775239168	17	4553
2026-01-12 11:45:44.69	329.38	10.27	-28.5	-30.6	13.4	8.30e-06	0	43	0	1778384896	17	4577
2026-01-12 11:45:45.70	329.47	10.20	-28.6	-30.8	13.3	2.05e-05	0	43	0	1781530624	17	4638
2026-01-12 11:45:46.71	329.57	10.12	-28.6	-30.9	13.2	1.29e-05	0	43	0	1785724928	17	4667
2026-01-12 11:45:47.71	329.66	10.05	-28.7	-31.1	13.1	3.05e-05	0	43	0	1788870656	17	4742
2026-01-12 11:45:48.72	329.75	9.97	-28.7	-31.0	13.1	3.58e-05	0	43	0	1792016384	17	4719
2026-01-12 11:45:49.73	329.84	9.90	-28.7	-31.1	13.1	2.28e-05	0	42	0	1794113536	17	4752
2026-01-12 11:45:50.74	329.94	9.82	-28.9	-31.5	12.8	5.95e-05	0	43	0	1797259264	17	4870
2026-01-12 11:45:51.75	330.03	9.75	-29.0	-31.8	12.7	6.25e-05	0	43	0	1800404992	17	4960
2026-01-12 11:45:52.75	330.12	9.68	-28.8	-30.9	12.9	7.47e-05	0	43	0	1803550720	18	4552
2026-01-12 11:45:53.75	330.21	9.60	-28.8	-30.8	12.9	3.35e-05	0	43	0	1806696448	18	4539
2026-01-12 11:45:54.76	330.30	9.53	-29.1	-31.5	12.5	9.91e-05	0	43	0	1810890752	18	4761
2026-01-12 11:45:55.77	330.39	9.46	-29.0	-31.3	12.6	1.49e-04	0	43	0	1814036480	18	4709
2026-01-12 11:45:56.78	330.48	9.38	-28.7	-30.6	13.0	4.65e-05	0	43	0	1817182208	18	4483
2026-01-12 11:45:57.78	330.56	9.31	-28.7	-30.6	13.0	4.19e-05	0	43	0	1819279360	18	4481
2026-01-12 11:45:58.78	330.65	9.24	-28.8	-30.8	12.9	4.57e-05	0	43	0	1822425088	18	4551
2026-01-12 11:45:59.79	330.74	9.16	-28.8	-30.8	12.9	4.42e-05	0	43	0	1825570816	18	4534
2026-01-12 11:46:00.79	330.83	9.09	-28.7	-30.5	13.1	3.73e-05	0	43	0	1828716544	18	4460
2026-01-12 11:46:01.79	330.91	9.02	-28.8	-30.9	12.9	4.80e-05	0	43	0	1831862272	18	4557
2026-01-12 11:46:02.79	331.00	8.95	-28.8	-30.8	12.9	4.88e-05	0	42	0	1835008000	18	4550
2026-01-12 11:46:03.80	331.09	8.88	-28.8	-30.8	12.9	3.81e-05	0	43	0	1838153728	18	4539
2026-01-12 11:46:04.81	331.17	8.80	-28.8	-30.9	12.8	5.26e-05	0	43	0	1841299456	18	4585
2026-01-12 11:46:05.82	331.26	8.73	-28.9	-31.0	12.7	6.56e-05	0	43	0	1844445184	18	4620
2026-01-12 11:46:06.82	331.34	8.66	-29.0	-31.3	12.5	9.53e-05	0	43	0	1847590912	18	4718
2026-01-12 11:46:07.82	331.43	8.59	-28.9	-31.0	12.7	1.12e-04	0	43	0	1850736640	18	4617
2026-01-12 11:46:08.83	331.51	8.52	-28.9	-31.1	12.7	7.32e-05	0	43	0	1853882368	18	4637
2026-01-12 11:46:09.83	331.59	8.45	-28.8	-30.9	12.8	6.63e-05	0	43	0	1857028096	18	4574
2026-01-12 11:46:10.83	331.68	8.38	-29.0	-31.4	12.5	1.33e-04	0	43	0	1860173824	18	4741
2026-01-12 11:46:11.84	331.76	8.30	-29.0	-31.4	12.4	1.22e-04	0	43	0	1863319552	18	4752
2026-01-12 11:46:12.85	331.84	8.23	-28.9	-31.1	12.7	7.47e-05	0	43	0	1866465280	18	4639
2026-01-12 11:46:13.85	331.92	8.16	-28.8	-31.0	12.7	6.94e-05	0	43	0	1869611008	18	4606
2026-01-12 11:46:14.86	332.01	8.09	-29.0	-31.4	12.4	1.36e-04	0	43	0	1872756736	18	4751
2026-01-12 11:46:15.86	332.09	8.02	-28.9	-31.0	12.7	8.69e-05	0	43	0	1875902464	18	4627
2026-01-12 11:46:16.87	332.17	7.95	-28.9	-31.2	12.5	7.40e-05	0	43	0	1879048192	18	4689
2026-01-12 11:46:17.87	332.25	7.88	-28.7	-30.6	12.9	1.14e-04	0	43	0	1882193920	18	4481
2026-01-12 11:46:18.88	332.33	7.81	-28.7	-30.6	12.9	4.11e-05	0	43	0	1885339648	18	4478
2026-01-12 11:46:19.89	332.41	7.74	-28.7	-30.6	12.9	3.43e-05	0	43	0	1888485376	18	4496
2026-01-12 11:46:20.89	332.49	7.67	-28.7	-30.7	12.8	5.56e-05	0	43	0	1891631104	18	4529
2026-01-12 11:46:21.90	332.57	7.60	-28.8	-30.8	12.7	7.93e-05	0	43	0	1894776832	18	4568
2026-01-12 11:46:22.90	332.65	7.53	-28.7	-30.6	12.9	5.26e-05	0	43	0	1897922560	18	4493
2026-01-12 11:46:23.91	332.73	7.46	-28.8	-31.0	12.6	1.03e-04	0	43	0	1901068288	18	4630
2026-01-12 11:46:24.91	332.81	7.40	-28.8	-31.0	12.6	7.55e-05	0	43	0	1904214016	18	4605
2026-01-12 11:46:25.91	332.88	7.33	-29.0	-31.3	12.4	1.40e-04	0	43	0	1907359744	18	4713
2026-01-12 11:46:26.92	332.96	7.26	-28.8	-31.0	12.6	1.04e-04	0	43	0	1910505472	18	4617
2026-01-12 11:46:27.92	333.04	7.19	-28.8	-31.0	12.6	9.23e-05	0	43	0	1913651200	18	4621
2026-01-12 11:46:28.93	333.11	7.12	-29.0	-31.4	12.3	1.46e-04	0	43	0	1916796928	18	4768
2026-01-12 11:46:29.94	333.19	7.05	-33.1	-44.5	3.8	1.49e+00	0	43	104	1918894080	26	13376
2026-01-12 11:46:30.94	333.27	6.99	-33.5	-45.8	3.8	1.49e+00	0	43	104	1918894080	26	14861
2026-01-12 11:46:31.94	333.34	6.92	-33.7	-45.7	3.8	1.49e+00	0	43	104	1918894080	27	14352

#Closed at: 2026-01-12 11:46:32
#Recorded file [1918 MB]: D:/data/31010_260112_143615.dat