passes_logs/2026/01/12/R2M6_AANII_01/R2M6_AANII_01__20260112_132117_AQUA_rec.log

#Pass ID: 20260112_132117_AQUA
#Satellite: AQUA
#Configuration: AQUA
#almurnet v.1.7.20240730
#Start time: 2026-01-12 13:21:16

#Version: 2.2.20231116
#Station: R2M6_AANII_01
#Location: 30.233357 lon 59.946436 lat
#TLE: 1 27424U 02022A   26011.93923927  .00001110  00000+0  23211-3 0  9993
#TLE: 2 27424  98.4078 338.3153 0002029  81.9924 314.0623 14.61816932260445

#Time	Az	El	Level	Level2	SNR	BER	BlckErr	Temp	State	Recorded	gain1	gain2
2026-01-12 13:21:16.56	205.77	6.94	-34.1	-52.8	3.8	7.48e-01	0	42	0	0	30	30920
2026-01-12 13:21:17.57	205.87	7.01	-33.9	-52.9	3.8	7.44e-01	0	42	104	0	29	32179
2026-01-12 13:21:18.58	205.97	7.08	-33.8	-52.7	3.8	7.47e-01	0	42	104	0	29	31903
2026-01-12 13:21:19.59	206.06	7.16	-33.8	-52.6	3.8	7.43e-01	0	42	104	0	29	31568
2026-01-12 13:21:20.59	206.16	7.23	-33.6	-52.3	3.8	7.47e-01	0	42	104	0	29	31125
2026-01-12 13:21:21.60	206.26	7.30	-33.4	-51.9	3.8	7.47e-01	0	42	104	0	29	30169
2026-01-12 13:21:22.60	206.36	7.37	-33.1	-48.5	4.0	7.44e-01	0	42	104	0	28	21239
2026-01-12 13:21:23.60	206.46	7.44	-33.0	-50.2	3.8	7.43e-01	0	42	104	0	28	26131
2026-01-12 13:21:24.60	206.56	7.51	-33.0	-49.9	3.8	7.40e-01	0	42	104	0	28	25245
2026-01-12 13:21:25.61	206.66	7.58	-33.0	-49.9	3.8	7.43e-01	0	42	104	0	28	25277
2026-01-12 13:21:26.61	206.76	7.66	-33.0	-50.0	3.9	7.46e-01	0	42	104	0	28	25396
2026-01-12 13:21:27.61	206.86	7.73	-33.0	-50.4	3.8	7.44e-01	0	42	104	0	28	26738
2026-01-12 13:21:28.62	206.96	7.80	-33.0	-51.0	3.8	7.47e-01	0	42	104	0	28	28589
2026-01-12 13:21:29.61	207.06	7.87	-33.0	-49.7	3.8	7.42e-01	0	42	104	0	28	24681
2026-01-12 13:21:30.61	207.16	7.94	-32.9	-47.1	4.4	7.23e-01	0	42	104	0	28	18422
2026-01-12 13:21:31.62	207.27	8.02	-32.8	-45.0	4.3	7.25e-01	0	42	104	0	27	14601
2026-01-12 13:21:32.63	207.37	8.09	-32.5	-40.8	9.5	6.28e-01	0	42	0	0	27	9425
2026-01-12 13:21:33.62	207.47	8.16	-32.1	-39.1	11.5	6.15e-01	0	42	0	1572864	26	8064
2026-01-12 13:21:34.63	207.58	8.24	-31.6	-37.3	13.3	6.09e-01	0	42	0	3670016	25	6907
2026-01-12 13:21:35.62	207.68	8.31	-31.3	-36.6	14.3	6.08e-01	0	42	0	5242880	24	6607
2026-01-12 13:21:36.63	207.79	8.38	-31.0	-35.2	15.3	6.08e-01	0	42	0	7340032	24	5869
2026-01-12 13:21:37.63	207.89	8.45	-30.6	-34.6	16.2	6.09e-01	0	42	0	8912896	23	5666
2026-01-12 13:21:38.64	208.00	8.53	-30.5	-34.1	16.5	6.06e-01	0	42	0	11010048	23	5428
2026-01-12 13:21:39.63	208.11	8.60	-30.3	-34.0	17.0	6.07e-01	0	42	0	13107200	22	5501
2026-01-12 13:21:40.64	208.22	8.68	-30.4	-34.3	16.7	6.04e-01	0	42	0	14680064	22	5623
2026-01-12 13:21:41.64	208.33	8.75	-30.7	-35.1	16.2	6.06e-01	0	42	0	16777216	22	6005
2026-01-12 13:21:42.65	208.43	8.83	-31.0	-36.4	15.3	6.06e-01	0	42	0	18350080	22	6668
2026-01-12 13:21:43.66	208.55	8.90	-31.2	-36.5	14.8	6.07e-01	0	42	0	20447232	23	6625
2026-01-12 13:21:44.66	208.66	8.98	-31.1	-36.0	15.1	6.08e-01	0	42	0	22544384	23	6366
2026-01-12 13:21:45.66	208.77	9.05	-31.0	-35.9	15.3	6.06e-01	0	42	0	24117248	23	6286
2026-01-12 13:21:46.67	208.88	9.13	-31.0	-35.8	15.3	6.09e-01	0	42	0	26214400	23	6216
2026-01-12 13:21:47.68	208.99	9.20	-30.8	-35.2	15.8	6.06e-01	0	42	0	27787264	23	5929
2026-01-12 13:21:48.69	209.10	9.28	-30.7	-34.6	16.2	6.07e-01	0	42	0	29884416	23	5679
2026-01-12 13:21:49.69	209.22	9.35	-30.4	-33.8	16.8	6.08e-01	0	42	0	31457280	23	5325
2026-01-12 13:21:50.69	209.33	9.43	-30.3	-33.9	17.0	6.06e-01	0	42	0	33554432	22	5477
2026-01-12 13:21:51.69	209.45	9.50	-30.3	-33.8	17.1	6.05e-01	0	42	0	35651584	22	5414
2026-01-12 13:21:52.69	209.56	9.58	-30.3	-33.8	17.1	6.08e-01	0	42	0	37224448	22	5410
2026-01-12 13:21:53.69	209.68	9.66	-29.8	-32.9	18.1	6.08e-01	0	42	0	39321600	21	5132
2026-01-12 13:21:54.70	209.79	9.73	-29.8	-33.0	18.1	6.08e-01	0	42	0	40894464	21	5181
2026-01-12 13:21:55.70	209.91	9.81	-29.7	-32.7	18.2	6.07e-01	0	42	0	42991616	21	5079
2026-01-12 13:21:56.70	210.03	9.89	-30.0	-33.4	17.8	6.07e-01	0	42	0	45088768	21	5340
2026-01-12 13:21:57.71	210.15	9.96	-29.9	-33.2	17.9	6.06e-01	0	42	0	46661632	21	5259
2026-01-12 13:21:58.71	210.27	10.04	-29.7	-32.6	18.3	6.07e-01	0	42	0	48758784	21	5020
2026-01-12 13:21:59.72	210.39	10.12	-29.6	-32.4	18.5	6.07e-01	0	42	0	50331648	21	4946
2026-01-12 13:22:00.72	210.51	10.19	-29.7	-32.6	18.3	6.08e-01	0	42	0	52428800	21	5050
2026-01-12 13:22:01.72	210.63	10.27	-29.6	-32.5	18.4	6.06e-01	0	42	0	54525952	21	4989
2026-01-12 13:22:02.73	210.75	10.35	-29.7	-32.5	18.4	6.06e-01	0	42	0	56098816	21	5013
2026-01-12 13:22:03.74	210.87	10.43	-29.7	-32.5	18.4	6.06e-01	0	42	0	58195968	21	5013
2026-01-12 13:22:04.74	210.99	10.51	-29.6	-32.3	18.6	6.06e-01	0	42	0	59768832	21	4921
2026-01-12 13:22:05.75	211.12	10.58	-29.5	-32.2	18.6	6.07e-01	0	42	0	61865984	21	4884
2026-01-12 13:22:06.76	211.24	10.66	-29.4	-31.9	18.8	6.06e-01	0	42	0	63963136	21	4769
2026-01-12 13:22:07.76	211.37	10.74	-29.5	-32.0	18.8	6.07e-01	0	42	0	65536000	21	4803
2026-01-12 13:22:08.77	211.50	10.82	-29.5	-32.0	18.7	6.09e-01	0	42	0	67633152	21	4806
2026-01-12 13:22:09.77	211.62	10.90	-29.5	-32.0	18.7	6.05e-01	0	42	0	69206016	21	4816
2026-01-12 13:22:10.78	211.75	10.98	-29.4	-31.9	18.9	6.06e-01	0	42	0	71303168	21	4763
2026-01-12 13:22:11.78	211.88	11.06	-29.4	-31.8	18.9	6.08e-01	0	42	0	73400320	21	4752
2026-01-12 13:22:12.79	212.01	11.14	-29.5	-32.0	18.8	6.07e-01	0	42	0	74973184	21	4800
2026-01-12 13:22:13.80	212.14	11.22	-29.4	-31.9	18.9	6.07e-01	0	42	0	77070336	21	4768
2026-01-12 13:22:14.80	212.27	11.30	-29.6	-32.3	18.6	6.07e-01	0	42	0	78643200	21	4906
2026-01-12 13:22:15.81	212.40	11.38	-29.4	-31.9	18.9	6.06e-01	0	42	0	80740352	21	4766
2026-01-12 13:22:16.81	212.53	11.46	-29.5	-32.0	18.8	6.07e-01	0	42	0	82837504	21	4805
2026-01-12 13:22:17.82	212.66	11.54	-29.4	-31.8	19.0	6.07e-01	0	42	0	84410368	21	4734
2026-01-12 13:22:18.82	212.80	11.62	-29.4	-31.7	19.0	6.07e-01	0	42	0	86507520	21	4722
2026-01-12 13:22:19.83	212.93	11.70	-29.5	-31.9	18.8	6.07e-01	0	42	0	88080384	21	4793
2026-01-12 13:22:20.84	213.07	11.78	-29.3	-32.0	19.1	6.07e-01	0	42	0	90177536	20	4927
2026-01-12 13:22:21.84	213.20	11.86	-29.4	-32.1	19.0	6.08e-01	0	42	0	91750400	20	4959
2026-01-12 13:22:22.85	213.34	11.94	-29.4	-32.3	19.0	6.06e-01	0	42	0	93847552	20	5019
2026-01-12 13:22:23.85	213.48	12.02	-29.4	-32.2	19.0	6.07e-01	0	42	0	95944704	20	4988
2026-01-12 13:22:24.86	213.62	12.11	-29.3	-32.0	19.2	6.05e-01	0	42	0	97517568	20	4901
2026-01-12 13:22:25.86	213.75	12.19	-29.5	-32.4	18.9	6.07e-01	0	42	0	99614720	20	5055
2026-01-12 13:22:26.87	213.89	12.27	-29.3	-32.1	19.1	6.08e-01	0	42	0	101711872	20	4932
2026-01-12 13:22:27.87	214.03	12.35	-29.4	-32.3	19.0	6.07e-01	0	42	0	103284736	20	5021
2026-01-12 13:22:28.88	214.18	12.43	-29.5	-32.5	18.9	6.08e-01	0	42	0	105381888	20	5078
2026-01-12 13:22:29.89	214.32	12.52	-29.4	-32.2	19.1	6.09e-01	0	42	0	106954752	20	4969
2026-01-12 13:22:30.89	214.46	12.60	-29.3	-32.0	19.2	6.05e-01	0	42	0	109051904	20	4906
2026-01-12 13:22:31.89	214.60	12.68	-29.4	-32.2	19.1	6.06e-01	0	42	0	110624768	20	4959
2026-01-12 13:22:32.90	214.75	12.76	-29.3	-32.0	19.2	6.04e-01	0	42	0	112721920	20	4885
2026-01-12 13:22:33.90	214.89	12.85	-29.3	-31.8	19.3	6.08e-01	0	42	0	114819072	20	4836
2026-01-12 13:22:34.90	215.04	12.93	-29.3	-31.9	19.3	6.07e-01	0	42	0	116391936	20	4871
2026-01-12 13:22:35.90	215.19	13.01	-29.3	-31.9	19.2	6.06e-01	0	42	0	118489088	20	4864
2026-01-12 13:22:36.91	215.34	13.10	-29.4	-32.1	19.1	6.06e-01	0	42	0	120061952	20	4941
2026-01-12 13:22:37.91	215.48	13.18	-29.3	-32.0	19.2	6.09e-01	0	42	0	122159104	20	4882
2026-01-12 13:22:38.92	215.63	13.26	-29.3	-32.0	19.2	6.08e-01	0	42	0	124256256	20	4881
2026-01-12 13:22:39.91	215.78	13.35	-29.5	-32.6	18.9	6.07e-01	0	42	0	125829120	20	5097
2026-01-12 13:22:40.92	215.94	13.43	-29.4	-32.2	19.1	6.04e-01	0	42	0	127926272	20	4963
2026-01-12 13:22:41.92	216.09	13.51	-29.3	-31.9	19.3	6.07e-01	0	42	0	129499136	20	4865
2026-01-12 13:22:42.93	216.24	13.60	-29.3	-31.8	19.4	6.08e-01	0	42	0	131596288	20	4819
2026-01-12 13:22:43.94	216.40	13.68	-29.3	-31.9	19.3	6.05e-01	0	42	0	133169152	20	4863
2026-01-12 13:22:44.94	216.55	13.77	-29.3	-31.9	19.3	6.07e-01	0	42	0	135266304	20	4845
2026-01-12 13:22:45.95	216.71	13.85	-29.3	-31.8	19.4	6.04e-01	0	42	0	137363456	20	4836
2026-01-12 13:22:46.96	216.87	13.94	-29.2	-31.5	19.5	6.07e-01	0	42	0	138936320	20	4739
2026-01-12 13:22:47.97	217.03	14.02	-29.2	-31.5	19.6	6.06e-01	0	42	0	141033472	20	4734
2026-01-12 13:22:48.98	217.19	14.11	-29.3	-32.0	19.3	6.04e-01	0	42	0	143130624	20	4889
2026-01-12 13:22:49.98	217.34	14.19	-29.3	-31.8	19.4	6.07e-01	0	42	0	144703488	20	4835
2026-01-12 13:22:50.99	217.51	14.28	-29.4	-32.2	19.2	6.07e-01	0	42	0	146800640	20	4975
2026-01-12 13:22:51.99	217.67	14.37	-29.6	-32.7	18.9	6.06e-01	0	42	0	148373504	20	5135
2026-01-12 13:22:53.00	217.83	14.45	-29.3	-31.9	19.4	6.08e-01	0	42	0	150470656	20	4854
2026-01-12 13:22:54.01	218.00	14.54	-29.3	-31.9	19.4	6.07e-01	0	42	0	152567808	20	4856
2026-01-12 13:22:55.01	218.16	14.62	-29.5	-32.4	19.1	6.07e-01	0	42	0	154140672	20	5036
2026-01-12 13:22:56.02	218.33	14.71	-29.3	-32.0	19.3	6.06e-01	0	42	0	156237824	20	4872
2026-01-12 13:22:57.02	218.49	14.80	-29.3	-31.8	19.5	6.06e-01	0	42	0	157810688	20	4811
2026-01-12 13:22:58.03	218.66	14.88	-29.3	-31.8	19.5	6.06e-01	0	42	0	159907840	20	4815
2026-01-12 13:22:59.04	218.83	14.97	-29.2	-31.7	19.5	6.06e-01	0	43	0	161480704	20	4782
2026-01-12 13:23:00.04	219.00	15.06	-29.7	-33.0	18.7	6.06e-01	0	42	0	163577856	20	5254
2026-01-12 13:23:01.05	219.17	15.14	-29.5	-32.3	19.2	6.07e-01	0	42	0	165675008	20	4990
2026-01-12 13:23:02.05	219.34	15.23	-29.2	-31.7	19.5	6.06e-01	0	42	0	167247872	20	4788
2026-01-12 13:23:03.06	219.52	15.32	-29.1	-31.3	19.8	6.06e-01	0	43	0	169345024	20	4662
2026-01-12 13:23:04.07	219.69	15.40	-29.1	-31.4	19.7	6.06e-01	0	43	0	171442176	20	4679
2026-01-12 13:23:05.07	219.87	15.49	-29.1	-31.5	19.7	6.05e-01	0	42	0	173015040	20	4699
2026-01-12 13:23:06.08	220.04	15.58	-29.1	-31.4	19.8	6.07e-01	0	42	0	175112192	20	4668
2026-01-12 13:23:07.09	220.22	15.67	-29.2	-31.6	19.6	6.08e-01	0	42	0	176685056	20	4751
2026-01-12 13:23:08.10	220.40	15.75	-29.4	-32.0	19.4	6.06e-01	0	42	0	178782208	20	4886
2026-01-12 13:23:09.10	220.58	15.84	-29.3	-31.9	19.5	6.07e-01	0	42	0	180355072	20	4847
2026-01-12 13:23:10.11	220.76	15.93	-29.2	-31.5	19.7	6.07e-01	0	42	0	182452224	20	4707
2026-01-12 13:23:11.12	220.94	16.02	-29.2	-31.6	19.6	6.08e-01	0	43	0	184549376	20	4753
2026-01-12 13:23:12.12	221.12	16.10	-29.2	-31.6	19.6	6.07e-01	0	42	0	186122240	20	4751
2026-01-12 13:23:13.13	221.31	16.19	-29.2	-31.6	19.6	6.07e-01	0	42	0	188219392	20	4748
2026-01-12 13:23:14.13	221.49	16.28	-29.3	-31.7	19.6	6.06e-01	0	42	0	189792256	20	4778
2026-01-12 13:23:15.14	221.68	16.37	-29.4	-32.2	19.3	6.08e-01	0	43	0	191889408	20	4942
2026-01-12 13:23:16.15	221.87	16.46	-29.4	-32.0	19.4	6.05e-01	0	42	0	193986560	20	4882
2026-01-12 13:23:17.16	222.06	16.55	-29.4	-32.1	19.3	6.07e-01	0	43	0	195559424	20	4922
2026-01-12 13:23:18.16	222.25	16.63	-29.3	-31.9	19.4	6.04e-01	0	43	0	197656576	20	4850
2026-01-12 13:23:19.17	222.44	16.72	-29.4	-32.1	19.4	6.08e-01	0	42	0	199753728	20	4918
2026-01-12 13:23:20.18	222.63	16.81	-29.3	-31.9	19.5	6.09e-01	0	42	0	201326592	20	4833
2026-01-12 13:23:21.18	222.82	16.90	-29.5	-32.3	19.2	6.06e-01	0	42	0	203423744	20	4994
2026-01-12 13:23:22.19	223.02	16.99	-29.3	-31.8	19.5	6.06e-01	0	42	0	204996608	20	4807
2026-01-12 13:23:23.19	223.21	17.08	-29.0	-31.1	19.9	6.05e-01	0	43	0	207093760	20	4589
2026-01-12 13:23:24.19	223.41	17.16	-28.9	-30.9	20.1	6.06e-01	0	43	0	208666624	20	4506
2026-01-12 13:23:25.20	223.61	17.25	-29.0	-31.0	20.0	6.06e-01	0	42	0	210763776	20	4554
2026-01-12 13:23:26.19	223.80	17.34	-29.1	-31.2	19.9	6.06e-01	0	43	0	212860928	20	4606
2026-01-12 13:23:27.20	224.00	17.43	-29.0	-31.0	20.0	6.06e-01	0	42	0	214433792	20	4537
2026-01-12 13:23:28.21	224.21	17.52	-29.0	-31.1	20.0	6.07e-01	0	43	0	216530944	20	4571
2026-01-12 13:23:29.21	224.41	17.61	-29.1	-31.3	19.9	6.04e-01	0	42	0	218103808	20	4642
2026-01-12 13:23:30.21	224.61	17.70	-29.1	-31.3	19.9	6.06e-01	0	42	0	220200960	20	4630
2026-01-12 13:23:31.22	224.82	17.79	-29.2	-31.6	19.8	6.09e-01	0	42	0	222298112	20	4730
2026-01-12 13:23:32.23	225.02	17.87	-29.2	-31.5	19.8	6.06e-01	0	42	0	223870976	20	4688
2026-01-12 13:23:33.23	225.23	17.96	-29.1	-31.3	19.9	6.07e-01	0	43	0	225968128	20	4632
2026-01-12 13:23:34.23	225.44	18.05	-29.2	-31.5	19.8	6.06e-01	0	42	0	227540992	20	4713
2026-01-12 13:23:35.24	225.65	18.14	-29.1	-31.4	19.9	6.06e-01	0	42	0	229638144	20	4659
2026-01-12 13:23:36.25	225.86	18.23	-29.3	-31.7	19.7	6.09e-01	0	42	0	231735296	20	4764
2026-01-12 13:23:37.25	226.07	18.32	-29.5	-32.2	19.3	6.05e-01	0	42	0	233308160	20	4951
2026-01-12 13:23:38.25	226.29	18.41	-29.4	-32.0	19.5	6.07e-01	0	42	0	235405312	20	4854
2026-01-12 13:23:39.24	226.50	18.49	-29.4	-32.1	19.5	6.08e-01	0	43	0	236978176	20	4889
2026-01-12 13:23:40.25	226.72	18.58	-29.4	-32.1	19.4	6.07e-01	0	43	0	239075328	20	4897
2026-01-12 13:23:41.25	226.93	18.67	-29.2	-31.4	19.8	6.06e-01	0	42	0	240648192	20	4676
2026-01-12 13:23:42.26	227.15	18.76	-29.0	-31.1	20.0	6.05e-01	0	43	0	242745344	20	4563
2026-01-12 13:23:43.27	227.37	18.85	-29.0	-31.2	20.0	6.06e-01	0	42	0	244842496	20	4587
2026-01-12 13:23:44.27	227.60	18.94	-29.0	-31.1	20.0	6.07e-01	0	42	0	246415360	20	4579
2026-01-12 13:23:45.28	227.82	19.03	-29.1	-31.2	20.0	6.04e-01	0	42	0	248512512	20	4592
2026-01-12 13:23:46.29	228.04	19.12	-29.0	-31.1	20.1	6.05e-01	0	42	0	250085376	20	4569
2026-01-12 13:23:47.29	228.27	19.20	-29.1	-31.3	19.9	6.07e-01	0	42	0	252182528	20	4638
2026-01-12 13:23:48.30	228.50	19.29	-29.0	-30.9	20.2	6.07e-01	0	42	0	254279680	20	4510
2026-01-12 13:23:49.31	228.73	19.38	-29.0	-31.0	20.2	6.08e-01	0	42	0	255852544	20	4534
2026-01-12 13:23:50.31	228.96	19.47	-29.1	-31.2	20.0	6.06e-01	0	42	0	257949696	20	4590
2026-01-12 13:23:51.32	229.19	19.56	-29.1	-31.2	20.0	6.07e-01	0	42	0	260046848	20	4605
2026-01-12 13:23:52.32	229.42	19.65	-29.1	-31.2	20.0	6.06e-01	0	42	0	261619712	20	4606
2026-01-12 13:23:53.33	229.66	19.73	-29.0	-31.0	20.1	6.07e-01	0	42	0	263716864	20	4550
2026-01-12 13:23:54.34	229.89	19.82	-29.0	-31.1	20.1	6.08e-01	0	42	0	265289728	20	4568
2026-01-12 13:23:55.35	230.13	19.91	-29.1	-31.2	20.0	6.06e-01	0	42	0	267386880	20	4603
2026-01-12 13:23:56.35	230.37	20.00	-29.0	-31.1	20.1	6.07e-01	0	42	0	269484032	20	4571
2026-01-12 13:23:57.36	230.61	20.08	-29.0	-30.9	20.2	6.09e-01	0	42	0	271056896	20	4515
2026-01-12 13:23:58.36	230.85	20.17	-29.0	-31.0	20.2	6.04e-01	0	42	0	273154048	20	4547
2026-01-12 13:23:59.37	231.09	20.26	-29.2	-31.4	19.9	6.08e-01	0	42	0	274726912	20	4673
2026-01-12 13:24:00.37	231.33	20.35	-29.2	-31.4	19.9	6.08e-01	0	42	0	276824064	20	4663
2026-01-12 13:24:01.38	231.58	20.43	-29.1	-31.3	20.0	6.05e-01	0	42	0	278396928	20	4638
2026-01-12 13:24:02.39	231.83	20.52	-29.1	-31.3	20.0	6.08e-01	0	42	0	280494080	20	4620
2026-01-12 13:24:03.40	232.08	20.61	-29.2	-31.5	19.9	6.08e-01	0	42	0	282591232	20	4686
2026-01-12 13:24:04.40	232.33	20.69	-29.2	-31.4	20.0	6.07e-01	0	42	0	284164096	20	4660
2026-01-12 13:24:05.41	232.58	20.78	-29.1	-31.3	20.0	6.07e-01	0	42	0	286261248	20	4633
2026-01-12 13:24:06.41	232.83	20.86	-29.2	-31.6	19.8	6.06e-01	0	42	0	288358400	20	4708
2026-01-12 13:24:07.42	233.08	20.95	-29.3	-31.7	19.8	6.08e-01	0	42	0	289931264	20	4751
2026-01-12 13:24:08.42	233.34	21.03	-29.3	-31.7	19.8	6.05e-01	0	42	0	292028416	20	4752
2026-01-12 13:24:09.43	233.60	21.12	-29.2	-31.5	20.0	6.05e-01	0	42	0	293601280	20	4670
2026-01-12 13:24:10.43	233.85	21.20	-29.2	-31.4	19.9	6.07e-01	0	43	0	295698432	20	4659
2026-01-12 13:24:11.44	234.11	21.29	-29.2	-31.5	19.9	6.09e-01	0	43	0	297271296	20	4690
2026-01-12 13:24:12.45	234.38	21.37	-29.2	-31.4	20.0	6.05e-01	0	42	0	299368448	20	4658
2026-01-12 13:24:13.45	234.64	21.46	-29.3	-31.7	19.8	6.06e-01	0	43	0	301465600	20	4752
2026-01-12 13:24:14.46	234.90	21.54	-29.4	-31.9	19.7	6.06e-01	0	42	0	303038464	20	4815
2026-01-12 13:24:15.47	235.17	21.63	-29.3	-31.6	19.9	6.07e-01	0	42	0	305135616	20	4709
2026-01-12 13:24:16.47	235.44	21.71	-29.2	-31.4	20.0	6.08e-01	0	43	0	306708480	20	4640
2026-01-12 13:24:17.48	235.71	21.79	-29.3	-31.7	19.8	6.05e-01	0	42	0	308805632	20	4755
2026-01-12 13:24:18.49	235.98	21.87	-29.3	-31.8	19.8	6.08e-01	0	42	0	310902784	20	4768
2026-01-12 13:24:19.49	236.25	21.96	-29.3	-31.6	19.9	6.07e-01	0	42	0	312475648	20	4696
2026-01-12 13:24:20.50	236.52	22.04	-29.3	-31.7	19.9	6.06e-01	0	42	0	314572800	20	4743
2026-01-12 13:24:21.51	236.80	22.12	-29.4	-32.0	19.7	6.07e-01	0	43	0	316669952	20	4846
2026-01-12 13:24:22.51	237.07	22.20	-29.2	-31.5	19.9	6.07e-01	0	42	0	318242816	20	4685
2026-01-12 13:24:23.51	237.35	22.28	-29.2	-31.5	19.9	6.07e-01	0	42	0	320339968	20	4682
2026-01-12 13:24:24.52	237.63	22.36	-29.3	-31.6	19.9	6.07e-01	0	42	0	321912832	20	4707
2026-01-12 13:24:25.52	237.91	22.44	-29.4	-31.8	19.8	6.07e-01	0	43	0	324009984	20	4785
2026-01-12 13:24:26.52	238.19	22.52	-29.4	-31.9	19.7	6.07e-01	0	43	0	325582848	20	4813
2026-01-12 13:24:27.53	238.47	22.60	-29.4	-32.0	19.6	6.05e-01	0	43	0	327680000	20	4854
2026-01-12 13:24:28.54	238.76	22.68	-29.5	-32.3	19.5	6.05e-01	0	42	0	329777152	20	4940
2026-01-12 13:24:29.55	239.05	22.76	-29.5	-32.2	19.5	6.07e-01	0	43	0	331350016	20	4920
2026-01-12 13:24:30.56	239.34	22.84	-29.5	-32.2	19.5	6.06e-01	0	42	0	333447168	20	4923
2026-01-12 13:24:31.56	239.62	22.91	-29.5	-32.2	19.6	6.05e-01	0	42	0	335020032	20	4902
2026-01-12 13:24:32.57	239.92	22.99	-29.5	-32.2	19.6	6.06e-01	0	42	0	337117184	20	4920
2026-01-12 13:24:33.58	240.21	23.07	-29.5	-32.2	19.6	6.06e-01	0	42	0	339214336	20	4910
2026-01-12 13:24:34.59	240.50	23.14	-29.7	-32.7	19.3	6.07e-01	0	43	0	340787200	20	5085
2026-01-12 13:24:35.59	240.80	23.22	-29.7	-32.8	19.2	6.05e-01	0	42	0	342884352	20	5112
2026-01-12 13:24:36.60	241.10	23.29	-29.6	-32.4	19.4	6.06e-01	0	42	0	344457216	20	4984
2026-01-12 13:24:37.60	241.39	23.37	-29.5	-32.2	19.6	6.08e-01	0	42	0	346554368	20	4898
2026-01-12 13:24:38.61	241.69	23.44	-29.3	-31.6	19.9	6.08e-01	0	42	0	348651520	20	4715
2026-01-12 13:24:39.62	242.00	23.52	-29.3	-31.7	19.9	6.05e-01	0	42	0	350224384	20	4746
2026-01-12 13:24:40.63	242.30	23.59	-29.4	-31.9	19.8	6.08e-01	0	42	0	352321536	20	4788
2026-01-12 13:24:41.63	242.60	23.66	-29.7	-32.6	19.3	6.08e-01	0	42	0	353894400	20	5058
2026-01-12 13:24:42.64	242.91	23.73	-29.5	-32.3	19.5	6.06e-01	0	43	0	355991552	20	4928
2026-01-12 13:24:43.65	243.22	23.80	-29.4	-31.9	19.8	6.07e-01	0	42	0	358088704	20	4790
2026-01-12 13:24:44.66	243.53	23.88	-29.4	-32.0	19.7	6.08e-01	0	42	0	359661568	20	4829
2026-01-12 13:24:45.66	243.83	23.95	-29.4	-31.8	19.8	6.06e-01	0	42	0	361758720	20	4779
2026-01-12 13:24:46.67	244.15	24.01	-29.3	-31.7	19.9	6.05e-01	0	43	0	363331584	20	4720
2026-01-12 13:24:47.68	244.46	24.08	-29.5	-32.0	19.7	6.07e-01	0	42	0	365428736	20	4850
2026-01-12 13:24:48.69	244.78	24.15	-29.6	-32.6	19.4	6.07e-01	0	43	0	367525888	20	5030
2026-01-12 13:24:49.70	245.09	24.22	-29.5	-32.0	19.7	6.07e-01	0	43	0	369098752	20	4847
2026-01-12 13:24:50.70	245.41	24.28	-29.4	-32.0	19.8	6.07e-01	0	42	0	371195904	20	4829
2026-01-12 13:24:51.70	245.72	24.35	-29.5	-32.2	19.6	6.05e-01	0	43	0	373293056	20	4904
2026-01-12 13:24:52.71	246.04	24.42	-29.3	-31.7	19.9	6.08e-01	0	43	0	374865920	20	4747
2026-01-12 13:24:53.71	246.36	24.48	-29.4	-32.0	19.7	6.05e-01	0	43	0	376963072	20	4833
2026-01-12 13:24:54.72	246.69	24.54	-29.5	-32.1	19.7	6.04e-01	0	42	0	378535936	20	4871
2026-01-12 13:24:55.73	247.01	24.61	-29.4	-31.8	19.9	6.08e-01	0	42	0	380633088	20	4759
2026-01-12 13:24:56.74	247.34	24.67	-29.4	-31.9	19.8	6.05e-01	0	43	0	382205952	20	4817
2026-01-12 13:24:57.74	247.66	24.73	-29.5	-32.1	19.7	6.06e-01	0	43	0	384303104	20	4855
2026-01-12 13:24:58.75	247.99	24.79	-29.5	-32.2	19.6	6.07e-01	0	43	0	386400256	20	4905
2026-01-12 13:24:59.76	248.32	24.85	-29.6	-32.3	19.6	6.06e-01	0	43	0	387973120	20	4930
2026-01-12 13:25:00.76	248.65	24.91	-29.7	-32.6	19.4	6.07e-01	0	42	0	390070272	20	5039
2026-01-12 13:25:01.77	248.98	24.97	-29.4	-31.9	19.8	6.08e-01	0	43	0	391643136	20	4784
2026-01-12 13:25:02.77	249.31	25.02	-29.5	-32.1	19.7	6.06e-01	0	43	0	393740288	20	4856
2026-01-12 13:25:03.78	249.64	25.08	-29.7	-32.6	19.4	6.07e-01	0	42	0	395837440	20	5060
2026-01-12 13:25:04.79	249.98	25.14	-29.6	-32.4	19.5	6.05e-01	0	43	0	397410304	20	4974
2026-01-12 13:25:05.79	250.31	25.19	-29.7	-32.7	19.4	6.05e-01	0	43	0	399507456	20	5067
2026-01-12 13:25:06.80	250.65	25.25	-29.7	-32.8	19.3	6.05e-01	0	43	0	401080320	20	5112
2026-01-12 13:25:07.81	250.99	25.30	-29.8	-32.8	19.3	6.06e-01	0	43	0	403177472	20	5127
2026-01-12 13:25:08.81	251.33	25.35	-29.6	-32.5	19.4	6.06e-01	0	43	0	405274624	20	5017
2026-01-12 13:25:09.82	251.67	25.40	-29.5	-32.1	19.7	6.08e-01	0	43	0	406847488	20	4875
2026-01-12 13:25:10.82	252.01	25.45	-29.5	-32.1	19.7	6.08e-01	0	43	0	408944640	20	4871
2026-01-12 13:25:11.83	252.36	25.50	-29.6	-32.3	19.6	6.05e-01	0	43	0	410517504	20	4949
2026-01-12 13:25:12.84	252.70	25.55	-29.5	-32.3	19.6	6.07e-01	0	42	0	412614656	20	4936
2026-01-12 13:25:13.85	253.05	25.60	-29.5	-32.2	19.6	6.08e-01	0	42	0	414711808	20	4908
2026-01-12 13:25:14.85	253.39	25.64	-29.3	-31.7	20.0	6.07e-01	0	42	0	416284672	20	4721
2026-01-12 13:25:15.86	253.74	25.69	-29.5	-32.1	19.8	6.05e-01	0	43	0	418381824	20	4852
2026-01-12 13:25:16.87	254.09	25.73	-29.6	-32.3	19.6	6.07e-01	0	43	0	419954688	20	4928
2026-01-12 13:25:17.87	254.44	25.78	-29.4	-31.9	19.8	6.07e-01	0	43	0	422051840	20	4794
2026-01-12 13:25:18.88	254.79	25.82	-29.5	-32.2	19.6	6.06e-01	0	43	0	424148992	20	4917
2026-01-12 13:25:19.88	255.14	25.86	-29.5	-32.1	19.7	6.05e-01	0	43	0	425721856	20	4852
2026-01-12 13:25:20.89	255.49	25.90	-29.5	-32.2	19.7	6.05e-01	0	43	0	427819008	20	4889
2026-01-12 13:25:21.89	255.84	25.94	-29.5	-32.1	19.7	6.08e-01	0	43	0	429391872	20	4862
2026-01-12 13:25:22.89	256.19	25.98	-29.4	-31.8	19.9	6.07e-01	0	43	0	431489024	20	4756
2026-01-12 13:25:23.89	256.54	26.02	-29.4	-32.0	19.8	6.06e-01	0	43	0	433586176	20	4817
2026-01-12 13:25:24.90	256.90	26.05	-29.4	-31.8	19.9	6.07e-01	0	43	0	435159040	20	4775
2026-01-12 13:25:25.91	257.26	26.09	-29.4	-32.0	19.8	6.04e-01	0	43	0	437256192	20	4843
2026-01-12 13:25:26.91	257.61	26.12	-29.4	-32.0	19.8	6.07e-01	0	43	0	438829056	20	4836
2026-01-12 13:25:27.92	257.97	26.15	-29.5	-32.1	19.7	6.09e-01	0	43	0	440926208	20	4851
2026-01-12 13:25:28.92	258.33	26.19	-29.5	-32.2	19.6	6.07e-01	0	43	0	443023360	20	4903
2026-01-12 13:25:29.93	258.69	26.22	-29.4	-31.9	19.8	6.07e-01	0	43	0	444596224	20	4793
2026-01-12 13:25:30.93	259.04	26.25	-29.4	-31.8	19.8	6.07e-01	0	43	0	446693376	20	4777
2026-01-12 13:25:31.94	259.41	26.28	-29.3	-31.7	20.0	6.08e-01	0	43	0	448266240	20	4736
2026-01-12 13:25:32.95	259.77	26.30	-29.5	-32.0	19.8	6.07e-01	0	43	0	450363392	20	4844
2026-01-12 13:25:33.96	260.13	26.33	-29.4	-31.8	19.8	6.05e-01	0	43	0	452460544	20	4772
2026-01-12 13:25:34.96	260.49	26.35	-29.7	-32.8	19.3	6.06e-01	0	43	0	454033408	20	5100
2026-01-12 13:25:35.97	260.86	26.38	-29.5	-32.3	19.6	6.06e-01	0	43	0	456130560	20	4933
2026-01-12 13:25:36.97	261.22	26.40	-29.5	-32.1	19.7	6.08e-01	0	43	0	457703424	20	4870
2026-01-12 13:25:37.98	261.58	26.42	-29.4	-31.7	20.0	6.07e-01	0	42	0	459800576	20	4743
2026-01-12 13:25:38.98	261.94	26.44	-29.6	-32.4	19.6	6.07e-01	0	43	0	461897728	20	4953
2026-01-12 13:25:39.99	262.31	26.46	-29.5	-32.1	19.7	6.06e-01	0	42	0	463470592	20	4860
2026-01-12 13:25:40.99	262.67	26.48	-29.4	-31.8	19.9	6.07e-01	0	43	0	465567744	20	4758
2026-01-12 13:25:42.00	263.04	26.50	-29.5	-32.0	19.8	6.05e-01	0	43	0	467140608	20	4836
2026-01-12 13:25:43.01	263.41	26.51	-29.4	-32.0	19.8	6.08e-01	0	42	0	469237760	20	4821
2026-01-12 13:25:44.02	263.78	26.53	-29.5	-32.0	19.8	6.07e-01	0	43	0	471334912	20	4834
2026-01-12 13:25:45.02	264.14	26.54	-29.6	-32.5	19.5	6.08e-01	0	43	0	472907776	20	4996
2026-01-12 13:25:46.03	264.51	26.55	-29.4	-31.9	19.8	6.05e-01	0	43	0	475004928	20	4805
2026-01-12 13:25:47.03	264.87	26.56	-29.4	-31.9	19.9	6.06e-01	0	43	0	476577792	20	4787
2026-01-12 13:25:48.04	265.24	26.57	-29.5	-32.1	19.8	6.06e-01	0	43	0	478674944	20	4855
2026-01-12 13:25:49.05	265.61	26.58	-29.5	-32.1	19.8	6.07e-01	0	43	0	480772096	20	4876
2026-01-12 13:25:50.06	265.98	26.59	-29.5	-32.2	19.7	6.07e-01	0	43	0	482344960	20	4909
2026-01-12 13:25:51.06	266.35	26.60	-29.8	-32.8	19.3	6.07e-01	0	43	0	484442112	20	5120
2026-01-12 13:25:52.07	266.72	26.60	-29.5	-32.1	19.7	6.06e-01	0	43	0	486014976	20	4863
2026-01-12 13:25:53.07	267.08	26.61	-29.4	-31.9	19.9	6.08e-01	0	43	0	488112128	20	4780
2026-01-12 13:25:54.08	267.45	26.61	-29.5	-32.0	19.8	6.07e-01	0	43	0	490209280	20	4842
2026-01-12 13:25:55.08	267.82	26.61	-29.5	-32.2	19.6	6.05e-01	0	43	0	491782144	20	4913
2026-01-12 13:25:56.08	268.18	26.61	-29.4	-31.9	19.8	6.08e-01	0	43	0	493879296	20	4800
2026-01-12 13:25:57.09	268.55	26.61	-29.5	-32.3	19.6	6.08e-01	0	43	0	495452160	20	4921
2026-01-12 13:25:58.10	268.92	26.61	-29.4	-31.9	19.9	6.08e-01	0	43	0	497549312	20	4780
2026-01-12 13:25:59.10	269.29	26.60	-29.3	-31.5	20.0	6.07e-01	0	43	0	499646464	20	4675
2026-01-12 13:26:00.11	269.66	26.60	-29.4	-31.8	20.0	6.06e-01	0	43	0	501219328	20	4754
2026-01-12 13:26:01.11	270.03	26.59	-29.4	-31.8	19.9	6.06e-01	0	43	0	503316480	20	4774
2026-01-12 13:26:02.11	270.39	26.59	-29.3	-31.6	20.0	6.07e-01	0	43	0	504889344	20	4696
2026-01-12 13:26:03.12	270.76	26.58	-29.3	-31.7	19.9	6.06e-01	0	43	0	506986496	20	4744
2026-01-12 13:26:04.12	271.12	26.57	-29.2	-31.3	20.2	6.07e-01	0	43	0	508559360	20	4608
2026-01-12 13:26:05.12	271.49	26.56	-29.3	-31.7	20.0	6.07e-01	0	43	0	510656512	20	4717
2026-01-12 13:26:06.13	271.86	26.55	-29.4	-31.8	19.9	6.03e-01	0	43	0	512753664	20	4755
2026-01-12 13:26:07.13	272.22	26.53	-29.5	-32.2	19.7	6.08e-01	0	43	0	514326528	20	4892
2026-01-12 13:26:08.14	272.59	26.52	-29.2	-31.4	20.1	6.06e-01	0	43	0	516423680	20	4622
2026-01-12 13:26:09.14	272.95	26.50	-29.3	-31.5	20.1	6.07e-01	0	42	0	517996544	20	4668
2026-01-12 13:26:10.15	273.32	26.49	-29.3	-31.6	20.0	6.08e-01	0	43	0	520093696	20	4703
2026-01-12 13:26:11.15	273.68	26.47	-29.2	-31.3	20.2	6.06e-01	0	43	0	521666560	20	4603
2026-01-12 13:26:12.16	274.05	26.45	-29.4	-31.8	19.9	6.08e-01	0	43	0	523763712	20	4750
2026-01-12 13:26:13.16	274.41	26.43	-29.3	-31.5	20.0	6.05e-01	0	43	0	525860864	20	4674
2026-01-12 13:26:14.17	274.78	26.41	-29.2	-31.4	20.1	6.06e-01	0	43	0	527433728	20	4636
2026-01-12 13:26:15.17	275.14	26.39	-29.4	-31.8	19.9	6.08e-01	0	43	0	529530880	20	4764
2026-01-12 13:26:16.18	275.50	26.36	-29.3	-31.6	20.0	6.06e-01	0	43	0	531628032	20	4691
2026-01-12 13:26:17.19	275.86	26.34	-29.4	-31.8	19.9	6.07e-01	0	42	0	533200896	20	4752
2026-01-12 13:26:18.19	276.22	26.31	-29.6	-32.4	19.5	6.07e-01	0	43	0	535298048	20	4981
2026-01-12 13:26:19.21	276.59	26.29	-29.4	-31.8	19.9	6.05e-01	0	43	0	536870912	20	4760
2026-01-12 13:26:20.21	276.95	26.26	-29.4	-31.9	19.8	6.05e-01	0	43	0	538968064	20	4810
2026-01-12 13:26:21.21	277.30	26.23	-29.6	-32.3	19.6	6.06e-01	0	43	0	541065216	20	4939
2026-01-12 13:26:22.21	277.66	26.20	-29.5	-32.1	19.7	6.07e-01	0	43	0	542638080	20	4859
2026-01-12 13:26:23.22	278.02	26.17	-29.4	-31.8	19.9	6.07e-01	0	43	0	544735232	20	4767
2026-01-12 13:26:24.22	278.38	26.13	-29.5	-32.1	19.7	6.09e-01	0	43	0	546308096	20	4851
2026-01-12 13:26:25.23	278.73	26.10	-29.5	-32.2	19.7	6.07e-01	0	43	0	548405248	20	4892
2026-01-12 13:26:26.23	279.09	26.07	-29.7	-32.8	19.3	6.06e-01	0	42	0	549978112	20	5099
2026-01-12 13:26:27.24	279.44	26.03	-29.4	-31.9	19.8	6.06e-01	0	43	0	552075264	20	4786
2026-01-12 13:26:28.24	279.79	25.99	-29.4	-31.9	19.9	6.09e-01	0	43	0	554172416	20	4788
2026-01-12 13:26:29.24	280.15	25.96	-29.3	-31.6	20.0	6.07e-01	0	43	0	555745280	20	4713
2026-01-12 13:26:30.24	280.50	25.92	-29.3	-31.6	20.0	6.07e-01	0	43	0	557842432	20	4691
2026-01-12 13:26:31.25	280.85	25.88	-29.3	-31.7	19.9	6.07e-01	0	43	0	559415296	20	4741
2026-01-12 13:26:32.25	281.20	25.84	-29.3	-31.8	19.9	6.07e-01	0	43	0	561512448	20	4747
2026-01-12 13:26:33.26	281.55	25.79	-29.4	-32.0	19.8	6.08e-01	0	43	0	563609600	20	4823
2026-01-12 13:26:34.26	281.89	25.75	-29.4	-31.8	19.9	6.06e-01	0	43	0	565182464	20	4765
2026-01-12 13:26:35.27	282.24	25.71	-29.4	-32.0	19.8	6.06e-01	0	42	0	567279616	20	4815
2026-01-12 13:26:36.27	282.59	25.66	-29.5	-32.0	19.7	6.06e-01	0	43	0	568852480	20	4844
2026-01-12 13:26:37.28	282.93	25.62	-29.3	-31.6	20.0	6.06e-01	0	42	0	570949632	20	4706
2026-01-12 13:26:38.29	283.28	25.57	-29.3	-31.7	19.9	6.07e-01	0	43	0	573046784	20	4745
2026-01-12 13:26:39.30	283.63	25.52	-29.4	-32.0	19.8	6.07e-01	0	42	0	574619648	20	4819
2026-01-12 13:26:40.30	283.97	25.47	-29.4	-32.0	19.8	6.07e-01	0	42	0	576716800	20	4820
2026-01-12 13:26:41.30	284.30	25.42	-29.5	-32.1	19.7	6.06e-01	0	43	0	578289664	20	4853
2026-01-12 13:26:42.31	284.65	25.37	-29.3	-31.6	20.0	6.08e-01	0	43	0	580386816	20	4680
2026-01-12 13:26:43.32	284.99	25.32	-29.3	-31.6	20.0	6.06e-01	0	43	0	582483968	20	4700
2026-01-12 13:26:44.32	285.32	25.27	-29.3	-31.7	19.9	6.06e-01	0	42	0	584056832	20	4728
2026-01-12 13:26:45.33	285.66	25.22	-29.2	-31.4	20.1	6.07e-01	0	42	0	586153984	20	4636
2026-01-12 13:26:46.33	285.99	25.16	-29.4	-31.9	19.8	6.06e-01	0	43	0	587726848	20	4806
2026-01-12 13:26:47.34	286.33	25.11	-29.6	-32.3	19.6	6.07e-01	0	42	0	589824000	20	4947
2026-01-12 13:26:48.35	286.66	25.05	-29.5	-32.2	19.6	6.06e-01	0	43	0	591921152	20	4893
2026-01-12 13:26:49.36	287.00	24.99	-29.6	-32.5	19.5	6.07e-01	0	43	0	593494016	20	4995
2026-01-12 13:26:50.36	287.32	24.94	-29.6	-32.5	19.4	6.05e-01	0	42	0	595591168	20	5018
2026-01-12 13:26:51.37	287.66	24.88	-29.7	-32.6	19.4	6.08e-01	0	43	0	597164032	20	5056
2026-01-12 13:26:52.37	287.98	24.82	-29.7	-32.7	19.4	6.06e-01	0	43	0	599261184	20	5067
2026-01-12 13:26:53.38	288.31	24.76	-29.8	-32.9	19.2	6.06e-01	0	42	0	601358336	20	5160
2026-01-12 13:26:54.38	288.63	24.70	-29.9	-33.3	19.0	6.06e-01	0	42	0	602931200	20	5299
2026-01-12 13:26:55.39	288.96	24.64	-29.7	-32.7	19.3	6.07e-01	0	43	0	605028352	20	5077
2026-01-12 13:26:56.39	289.28	24.57	-29.5	-32.1	19.7	6.05e-01	0	43	0	606601216	20	4851
2026-01-12 13:26:57.40	289.60	24.51	-29.4	-32.0	19.8	6.06e-01	0	43	0	608698368	20	4826
2026-01-12 13:26:58.40	289.92	24.45	-29.4	-31.9	19.8	6.07e-01	0	43	0	610271232	20	4804
2026-01-12 13:26:59.41	290.24	24.38	-29.4	-31.8	19.8	6.07e-01	0	43	0	612368384	20	4773
2026-01-12 13:27:00.41	290.56	24.32	-29.3	-31.6	20.0	6.06e-01	0	43	0	614465536	20	4706
2026-01-12 13:27:01.42	290.87	24.25	-29.3	-31.5	20.0	6.07e-01	0	43	0	616038400	20	4672
2026-01-12 13:27:02.42	291.19	24.19	-29.4	-31.8	19.8	6.08e-01	0	43	0	618135552	20	4773
2026-01-12 13:27:03.43	291.50	24.12	-29.4	-31.9	19.8	6.06e-01	0	42	0	620232704	20	4784
2026-01-12 13:27:04.44	291.81	24.05	-29.4	-31.8	19.9	6.06e-01	0	43	0	621805568	20	4765
2026-01-12 13:27:05.44	292.12	23.98	-29.4	-31.8	19.9	6.04e-01	0	43	0	623902720	20	4753
2026-01-12 13:27:06.45	292.43	23.91	-29.4	-31.8	19.8	6.05e-01	0	43	0	625475584	20	4777
2026-01-12 13:27:07.46	292.74	23.84	-29.4	-31.8	19.8	6.05e-01	0	43	0	627572736	20	4772
2026-01-12 13:27:08.46	293.05	23.77	-29.4	-31.8	19.8	6.04e-01	0	43	0	629669888	20	4774
2026-01-12 13:27:09.46	293.35	23.70	-29.3	-31.5	20.0	6.07e-01	0	43	0	631242752	20	4675
2026-01-12 13:27:10.47	293.65	23.63	-29.3	-31.7	19.9	6.05e-01	0	43	0	633339904	20	4735
2026-01-12 13:27:11.47	293.95	23.56	-29.3	-31.7	19.9	6.04e-01	0	42	0	634912768	20	4746
2026-01-12 13:27:12.48	294.26	23.49	-29.4	-31.8	19.9	6.06e-01	0	43	0	637009920	20	4772
2026-01-12 13:27:13.48	294.55	23.41	-29.4	-31.9	19.8	6.09e-01	0	43	0	638582784	20	4786
2026-01-12 13:27:14.49	294.85	23.34	-29.4	-31.9	19.8	6.07e-01	0	43	0	640679936	20	4786
2026-01-12 13:27:15.50	295.15	23.26	-29.4	-31.8	19.9	6.05e-01	0	43	0	642777088	20	4753
2026-01-12 13:27:16.50	295.44	23.19	-29.4	-31.9	19.8	6.08e-01	0	43	0	644349952	20	4789
2026-01-12 13:27:17.51	295.74	23.11	-29.4	-31.8	19.8	6.05e-01	0	43	0	646447104	20	4770
2026-01-12 13:27:18.51	296.03	23.04	-29.4	-31.8	19.9	6.04e-01	0	43	0	648544256	20	4754
2026-01-12 13:27:19.52	296.32	22.96	-29.4	-31.8	19.8	6.07e-01	0	43	0	650117120	20	4777
2026-01-12 13:27:20.53	296.61	22.89	-29.5	-32.2	19.6	6.07e-01	0	43	0	652214272	20	4894
2026-01-12 13:27:21.53	296.90	22.81	-29.5	-32.3	19.5	6.06e-01	0	43	0	653787136	20	4940
2026-01-12 13:27:22.54	297.18	22.73	-29.6	-32.4	19.5	6.07e-01	0	43	0	655884288	20	4970
2026-01-12 13:27:23.54	297.47	22.65	-29.5	-32.2	19.6	6.07e-01	0	43	0	657457152	20	4905
2026-01-12 13:27:24.55	297.75	22.57	-29.4	-32.0	19.8	6.07e-01	0	43	0	659554304	20	4821
2026-01-12 13:27:25.56	298.03	22.50	-29.4	-31.9	19.8	6.07e-01	0	43	0	661651456	20	4799
2026-01-12 13:27:26.56	298.31	22.42	-29.4	-32.0	19.8	6.04e-01	0	43	0	663224320	20	4825
2026-01-12 13:27:27.57	298.59	22.34	-29.4	-31.9	19.8	6.06e-01	0	43	0	665321472	20	4791
2026-01-12 13:27:28.57	298.87	22.26	-29.3	-31.6	20.0	6.08e-01	0	43	0	666894336	20	4704
2026-01-12 13:27:29.58	299.14	22.18	-29.3	-31.6	20.0	6.08e-01	0	43	0	668991488	20	4684
2026-01-12 13:27:30.58	299.42	22.10	-29.4	-31.9	19.8	6.06e-01	0	43	0	671088640	20	4787
2026-01-12 13:27:31.59	299.69	22.01	-29.4	-31.9	19.8	6.05e-01	0	43	0	672661504	20	4799
2026-01-12 13:27:32.59	299.96	21.93	-29.3	-31.7	19.9	6.06e-01	0	42	0	674758656	20	4736
2026-01-12 13:27:33.60	300.23	21.85	-29.3	-31.6	19.9	6.06e-01	0	43	0	676331520	20	4716
2026-01-12 13:27:34.61	300.50	21.77	-29.2	-31.4	20.1	6.05e-01	0	43	0	678428672	20	4636
2026-01-12 13:27:35.61	300.76	21.69	-29.2	-31.5	20.0	6.07e-01	0	43	0	680525824	20	4662
2026-01-12 13:27:36.61	301.03	21.60	-29.3	-31.6	19.9	6.06e-01	0	42	0	682098688	20	4697
2026-01-12 13:27:37.62	301.29	21.52	-29.4	-31.9	19.8	6.06e-01	0	43	0	684195840	20	4808
2026-01-12 13:27:38.63	301.56	21.44	-29.3	-31.8	19.8	6.07e-01	0	42	0	685768704	20	4772
2026-01-12 13:27:39.63	301.82	21.35	-29.3	-31.7	19.8	6.07e-01	0	43	0	687865856	20	4751
2026-01-12 13:27:40.63	302.07	21.27	-29.2	-31.4	20.0	6.05e-01	0	43	0	689963008	20	4653
2026-01-12 13:27:41.63	302.33	21.19	-29.2	-31.4	20.0	6.08e-01	0	43	0	691535872	20	4637
2026-01-12 13:27:42.64	302.59	21.10	-29.2	-31.4	20.0	6.05e-01	0	43	0	693633024	20	4651
2026-01-12 13:27:43.64	302.84	21.02	-29.3	-31.6	19.9	6.04e-01	0	42	0	695205888	20	4717
2026-01-12 13:27:44.65	303.10	20.93	-29.3	-31.7	19.8	6.08e-01	0	42	0	697303040	20	4756
2026-01-12 13:27:45.65	303.35	20.85	-29.4	-31.9	19.7	6.07e-01	0	42	0	698875904	20	4801
2026-01-12 13:27:46.66	303.60	20.76	-29.3	-31.8	19.8	6.05e-01	0	43	0	700973056	20	4766
2026-01-12 13:27:47.66	303.85	20.68	-29.4	-31.9	19.7	6.07e-01	0	43	0	703070208	20	4800
2026-01-12 13:27:48.67	304.10	20.59	-29.3	-31.8	19.8	6.06e-01	0	43	0	704643072	20	4765
2026-01-12 13:27:49.67	304.34	20.51	-29.4	-31.9	19.7	6.07e-01	0	43	0	706740224	20	4814
2026-01-12 13:27:50.68	304.59	20.42	-29.3	-31.8	19.8	6.08e-01	0	42	0	708837376	20	4758
2026-01-12 13:27:51.69	304.83	20.33	-29.2	-31.5	19.9	6.08e-01	0	43	0	710410240	20	4678
2026-01-12 13:27:52.69	305.07	20.25	-29.2	-31.4	20.0	6.06e-01	0	42	0	712507392	20	4640
2026-01-12 13:27:53.69	305.31	20.16	-29.3	-31.8	19.8	6.06e-01	0	43	0	714080256	20	4776
2026-01-12 13:27:54.70	305.55	20.07	-29.3	-31.8	19.8	6.07e-01	0	43	0	716177408	20	4767
2026-01-12 13:27:55.70	305.79	19.99	-29.4	-32.0	19.6	6.07e-01	0	42	0	718274560	20	4858
2026-01-12 13:27:56.70	306.03	19.90	-29.4	-31.9	19.7	6.07e-01	0	43	0	719847424	20	4813
2026-01-12 13:27:57.71	306.26	19.81	-29.3	-31.7	19.8	6.06e-01	0	42	0	721944576	20	4732
2026-01-12 13:27:58.71	306.49	19.73	-29.2	-31.5	19.9	6.07e-01	0	42	0	723517440	20	4685
2026-01-12 13:27:59.71	306.73	19.64	-29.3	-31.7	19.8	6.07e-01	0	43	0	725614592	20	4752
2026-01-12 13:28:00.72	306.96	19.55	-29.3	-31.6	19.9	6.06e-01	0	42	0	727187456	20	4698
2026-01-12 13:28:01.72	307.19	19.47	-29.3	-31.6	19.9	6.09e-01	0	42	0	729284608	20	4695
2026-01-12 13:28:02.73	307.42	19.38	-29.3	-31.7	19.8	6.07e-01	0	43	0	731381760	20	4730
2026-01-12 13:28:03.73	307.64	19.29	-29.2	-31.5	19.9	6.05e-01	0	43	0	732954624	20	4673
2026-01-12 13:28:04.74	307.87	19.20	-29.2	-31.3	20.0	6.05e-01	0	42	0	735051776	20	4622
2026-01-12 13:28:05.75	308.09	19.11	-29.2	-31.5	19.9	6.09e-01	0	43	0	736624640	20	4673
2026-01-12 13:28:06.76	308.32	19.03	-29.2	-31.4	20.0	6.03e-01	0	43	0	738721792	20	4655
2026-01-12 13:28:07.76	308.54	18.94	-29.2	-31.4	20.0	6.08e-01	0	42	0	740818944	20	4643
2026-01-12 13:28:08.77	308.76	18.85	-29.2	-31.4	20.0	6.07e-01	0	42	0	742391808	20	4660
2026-01-12 13:28:09.78	308.98	18.76	-29.4	-31.8	19.7	6.05e-01	0	42	0	744488960	20	4788
2026-01-12 13:28:10.79	309.20	18.67	-29.3	-31.6	19.8	6.05e-01	0	43	0	746061824	20	4724
2026-01-12 13:28:11.79	309.41	18.59	-29.2	-31.4	19.9	6.06e-01	0	42	0	748158976	20	4657
2026-01-12 13:28:12.80	309.63	18.50	-29.2	-31.4	20.0	6.07e-01	0	42	0	750256128	20	4654
2026-01-12 13:28:13.80	309.84	18.41	-29.2	-31.3	20.0	6.06e-01	0	42	0	751828992	20	4633
2026-01-12 13:28:14.81	310.05	18.32	-29.1	-31.3	20.0	6.09e-01	0	43	0	753926144	20	4615
2026-01-12 13:28:15.81	310.26	18.23	-29.2	-31.4	20.0	6.09e-01	0	42	0	755499008	20	4650
2026-01-12 13:28:16.82	310.48	18.14	-29.1	-31.2	20.1	6.08e-01	0	42	0	757596160	20	4597
2026-01-12 13:28:17.83	310.69	18.06	-29.1	-31.2	20.0	6.07e-01	0	43	0	759693312	20	4595
2026-01-12 13:28:18.84	310.89	17.97	-29.1	-31.1	20.1	6.05e-01	0	43	0	761266176	20	4559
2026-01-12 13:28:19.84	311.10	17.88	-29.1	-31.3	20.0	6.08e-01	0	42	0	763363328	20	4612
2026-01-12 13:28:20.85	311.30	17.79	-29.1	-31.1	20.1	6.08e-01	0	42	0	764936192	20	4554
2026-01-12 13:28:21.85	311.51	17.70	-29.1	-31.3	20.0	6.06e-01	0	43	0	767033344	20	4627
2026-01-12 13:28:22.86	311.71	17.62	-29.1	-31.3	20.0	6.03e-01	0	42	0	769130496	20	4616
2026-01-12 13:28:23.87	311.91	17.53	-29.2	-31.4	19.9	6.04e-01	0	42	0	770703360	20	4664
2026-01-12 13:28:24.88	312.11	17.44	-29.1	-31.3	20.0	6.05e-01	0	42	0	772800512	20	4607
2026-01-12 13:28:25.88	312.31	17.35	-29.2	-31.4	19.9	6.02e-01	0	43	0	774373376	20	4651
2026-01-12 13:28:26.89	312.51	17.26	-29.1	-31.1	20.0	6.05e-01	0	42	0	776470528	20	4564
2026-01-12 13:28:27.90	312.71	17.17	-29.0	-31.1	20.1	6.05e-01	0	42	0	778567680	20	4561
2026-01-12 13:28:28.90	312.90	17.09	-29.1	-31.2	20.0	6.04e-01	0	42	0	780140544	20	4602
2026-01-12 13:28:29.91	313.10	17.00	-29.0	-31.1	20.0	6.03e-01	0	42	0	782237696	20	4571
2026-01-12 13:28:30.91	313.29	16.91	-29.1	-31.2	20.0	6.03e-01	0	42	0	783810560	20	4579
2026-01-12 13:28:31.92	313.48	16.82	-29.1	-31.2	20.0	6.03e-01	0	43	0	785907712	20	4610
2026-01-12 13:28:32.92	313.67	16.74	-29.1	-31.2	19.9	6.03e-01	0	42	0	788004864	20	4598
2026-01-12 13:28:33.93	313.86	16.65	-29.2	-31.5	19.8	6.03e-01	0	42	0	789577728	20	4679
2026-01-12 13:28:34.94	314.05	16.56	-29.1	-31.3	19.9	6.05e-01	0	42	0	791674880	20	4624
2026-01-12 13:28:35.94	314.24	16.47	-29.0	-31.1	20.0	6.02e-01	0	43	0	793247744	20	4567
2026-01-12 13:28:36.95	314.42	16.39	-29.2	-31.5	19.8	6.02e-01	0	42	0	795344896	20	4699
2026-01-12 13:28:37.95	314.61	16.30	-29.2	-31.5	19.8	6.04e-01	0	43	0	796917760	20	4678
2026-01-12 13:28:38.96	314.79	16.21	-29.2	-31.6	19.7	6.04e-01	0	43	0	799014912	20	4735
2026-01-12 13:28:39.96	314.97	16.12	-29.2	-31.4	19.8	6.01e-01	0	42	0	801112064	20	4677
2026-01-12 13:28:40.96	315.15	16.04	-29.2	-31.6	19.7	6.03e-01	0	43	0	802684928	20	4724
2026-01-12 13:28:41.96	315.33	15.95	-29.2	-31.5	19.7	6.02e-01	0	43	0	804782080	20	4707
2026-01-12 13:28:42.97	315.51	15.86	-29.3	-31.7	19.7	6.04e-01	0	42	0	806879232	20	4752
2026-01-12 13:28:43.97	315.69	15.78	-29.2	-31.6	19.7	6.05e-01	0	42	0	808452096	20	4745
2026-01-12 13:28:44.98	315.87	15.69	-29.3	-31.9	19.5	6.01e-01	0	42	0	810549248	20	4839
2026-01-12 13:28:45.99	316.05	15.60	-29.4	-32.0	19.5	6.03e-01	0	42	0	812122112	20	4852
2026-01-12 13:28:46.99	316.22	15.52	-29.2	-31.6	19.7	6.02e-01	0	42	0	814219264	20	4724
2026-01-12 13:28:48.00	316.40	15.43	-29.1	-31.4	19.8	6.04e-01	0	42	0	815792128	20	4668
2026-01-12 13:28:49.01	316.57	15.34	-29.2	-31.7	19.6	6.05e-01	0	42	0	817889280	20	4759
2026-01-12 13:28:50.02	316.74	15.26	-29.1	-31.3	19.8	6.02e-01	0	42	0	819986432	20	4635
2026-01-12 13:28:51.02	316.91	15.17	-29.1	-31.3	19.8	6.04e-01	0	42	0	821559296	20	4638
2026-01-12 13:28:52.03	317.08	15.09	-29.2	-31.5	19.7	6.05e-01	0	42	0	823656448	20	4703
2026-01-12 13:28:53.04	317.25	15.00	-29.0	-31.1	19.9	6.01e-01	0	42	0	825229312	20	4553
2026-01-12 13:28:54.04	317.42	14.91	-29.0	-31.1	19.9	6.04e-01	0	42	0	827326464	20	4567
2026-01-12 13:28:55.05	317.59	14.83	-29.2	-31.4	19.7	6.05e-01	0	42	0	829423616	20	4682
2026-01-12 13:28:56.05	317.75	14.74	-29.1	-31.2	19.9	6.04e-01	0	42	0	830996480	20	4593
2026-01-12 13:28:57.06	317.92	14.66	-29.2	-31.5	19.7	6.03e-01	0	42	0	833093632	20	4708
2026-01-12 13:28:58.07	318.08	14.57	-29.1	-31.4	19.8	6.05e-01	0	42	0	835190784	20	4658
2026-01-12 13:28:59.07	318.25	14.49	-29.1	-31.3	19.8	6.01e-01	0	43	0	836763648	20	4645
2026-01-12 13:29:00.08	318.41	14.40	-29.1	-31.3	19.8	6.02e-01	0	42	0	838860800	20	4651
2026-01-12 13:29:01.08	318.57	14.32	-29.2	-31.6	19.6	6.03e-01	0	43	0	840433664	20	4731
2026-01-12 13:29:02.09	318.73	14.23	-29.1	-31.3	19.8	6.04e-01	0	42	0	842530816	20	4636
2026-01-12 13:29:03.10	318.89	14.15	-29.2	-31.5	19.6	6.04e-01	0	42	0	844103680	20	4698
2026-01-12 13:29:04.10	319.05	14.06	-29.2	-31.6	19.6	6.01e-01	0	42	0	846200832	20	4727
2026-01-12 13:29:05.11	319.20	13.98	-29.2	-31.7	19.5	6.03e-01	0	42	0	848297984	20	4764
2026-01-12 13:29:06.12	319.36	13.89	-29.2	-31.6	19.6	6.03e-01	0	42	0	849870848	20	4740
2026-01-12 13:29:07.12	319.52	13.81	-29.3	-31.9	19.4	6.03e-01	0	42	0	851968000	20	4848
2026-01-12 13:29:08.13	319.67	13.73	-29.1	-31.4	19.7	6.04e-01	0	42	0	853540864	20	4680
2026-01-12 13:29:09.14	319.83	13.64	-29.2	-31.5	19.6	6.05e-01	0	42	0	855638016	20	4717
2026-01-12 13:29:10.15	319.98	13.56	-29.2	-31.5	19.6	6.05e-01	0	42	0	857735168	20	4713
2026-01-12 13:29:11.15	320.13	13.48	-29.3	-31.8	19.4	6.03e-01	0	42	0	859308032	20	4814
2026-01-12 13:29:12.16	320.28	13.39	-29.5	-32.5	19.0	6.04e-01	0	42	0	861405184	20	5043
2026-01-12 13:29:13.17	320.43	13.31	-29.4	-32.1	19.2	6.03e-01	0	42	0	863502336	20	4927
2026-01-12 13:29:14.18	320.58	13.23	-29.5	-32.4	19.0	6.03e-01	0	42	0	865075200	20	5032
2026-01-12 13:29:15.18	320.73	13.14	-29.5	-32.3	19.1	6.02e-01	0	42	0	867172352	20	5005
2026-01-12 13:29:16.19	320.88	13.06	-29.5	-32.3	19.1	6.06e-01	0	42	0	868745216	20	5002
2026-01-12 13:29:17.19	321.02	12.98	-29.6	-32.6	18.9	6.03e-01	0	42	0	870842368	20	5081
2026-01-12 13:29:18.20	321.17	12.89	-29.5	-32.4	19.0	6.02e-01	0	43	0	872415232	20	5026
2026-01-12 13:29:19.21	321.32	12.81	-29.5	-32.4	19.0	6.02e-01	0	42	0	874512384	20	5032
2026-01-12 13:29:20.21	321.46	12.73	-29.5	-32.4	19.0	6.01e-01	0	42	0	876609536	20	5029
2026-01-12 13:29:21.22	321.60	12.65	-29.6	-32.7	18.8	6.01e-01	0	42	0	878182400	20	5142
2026-01-12 13:29:22.23	321.75	12.57	-29.6	-32.6	18.9	6.04e-01	0	42	0	880279552	20	5116
2026-01-12 13:29:23.24	321.89	12.48	-29.8	-33.2	18.5	6.05e-01	0	42	0	881852416	20	5315
2026-01-12 13:29:24.24	322.03	12.40	-29.6	-32.5	18.9	6.04e-01	0	43	0	883949568	20	5074
2026-01-12 13:29:25.25	322.17	12.32	-29.4	-32.2	19.1	6.03e-01	0	42	0	886046720	20	4954
2026-01-12 13:29:26.26	322.31	12.24	-29.3	-31.9	19.3	6.03e-01	0	42	0	887619584	20	4858
2026-01-12 13:29:27.26	322.45	12.16	-29.4	-32.0	19.2	6.02e-01	0	42	0	889716736	20	4901
2026-01-12 13:29:28.27	322.59	12.08	-29.4	-32.2	19.1	6.04e-01	0	43	0	891813888	20	4967
2026-01-12 13:29:29.27	322.72	12.00	-29.4	-32.1	19.2	6.01e-01	0	42	0	893386752	20	4909
2026-01-12 13:29:30.28	322.86	11.92	-29.4	-32.0	19.2	6.05e-01	0	42	0	895483904	20	4900
2026-01-12 13:29:31.29	322.99	11.84	-29.4	-32.3	19.0	6.03e-01	0	42	0	897056768	20	4977
2026-01-12 13:29:32.29	323.13	11.76	-29.4	-32.2	19.1	6.02e-01	0	42	0	899153920	20	4945
2026-01-12 13:29:33.30	323.26	11.68	-29.3	-32.0	19.2	6.04e-01	0	42	0	900726784	20	4884
2026-01-12 13:29:34.31	323.40	11.60	-29.5	-32.4	18.9	6.03e-01	0	42	0	902823936	20	5039
2026-01-12 13:29:35.32	323.53	11.52	-29.5	-32.4	18.9	6.02e-01	0	42	0	904921088	20	5034
2026-01-12 13:29:36.33	323.66	11.44	-29.5	-32.4	19.0	6.05e-01	0	42	0	906493952	20	5012
2026-01-12 13:29:37.33	323.79	11.36	-29.6	-32.6	18.9	6.02e-01	0	42	0	908591104	20	5104
2026-01-12 13:29:38.34	323.92	11.28	-29.6	-32.6	18.8	6.03e-01	0	42	0	910163968	20	5125
2026-01-12 13:29:39.34	324.05	11.20	-29.6	-32.8	18.8	6.03e-01	0	42	0	912261120	20	5175
2026-01-12 13:29:40.35	324.18	11.12	-29.8	-33.1	18.6	6.06e-01	0	42	0	914358272	20	5288
2026-01-12 13:29:41.35	324.31	11.04	-29.7	-32.9	18.7	6.02e-01	0	42	0	915931136	20	5224
2026-01-12 13:29:42.36	324.43	10.96	-29.7	-33.1	18.5	6.01e-01	0	42	0	918028288	20	5297
2026-01-12 13:29:43.36	324.56	10.89	-29.8	-33.1	18.5	6.03e-01	0	42	0	920125440	20	5302
2026-01-12 13:29:44.36	324.69	10.81	-29.7	-32.9	18.6	6.03e-01	0	42	0	921698304	20	5220
2026-01-12 13:29:45.37	324.81	10.73	-29.5	-32.5	18.8	6.02e-01	0	42	0	923795456	20	5084
2026-01-12 13:29:46.38	324.94	10.65	-29.7	-33.0	18.6	6.03e-01	0	42	0	925368320	20	5241
2026-01-12 13:29:47.39	325.06	10.57	-29.8	-33.3	18.4	6.05e-01	0	42	0	927465472	20	5376
2026-01-12 13:29:48.39	325.18	10.50	-29.8	-33.3	18.5	6.03e-01	0	42	0	929038336	20	5365
2026-01-12 13:29:49.40	325.31	10.42	-29.8	-33.3	18.4	6.03e-01	0	42	0	931135488	20	5371
2026-01-12 13:29:50.40	325.43	10.34	-29.8	-33.3	18.4	6.05e-01	0	42	0	933232640	20	5377
2026-01-12 13:29:51.41	325.55	10.26	-29.9	-33.4	18.3	6.01e-01	0	42	0	934805504	20	5421
2026-01-12 13:29:52.41	325.67	10.19	-29.6	-32.8	18.6	6.03e-01	0	42	0	936902656	20	5202
2026-01-12 13:29:53.42	325.79	10.11	-29.8	-33.4	18.4	6.02e-01	0	42	0	938475520	20	5405
2026-01-12 13:29:54.42	325.91	10.03	-29.8	-33.1	18.5	6.04e-01	0	42	0	940572672	20	5308
2026-01-12 13:29:55.42	326.02	9.96	-29.7	-32.9	18.6	6.01e-01	0	42	0	942669824	20	5237
2026-01-12 13:29:56.42	326.14	9.88	-29.8	-33.2	18.4	6.05e-01	0	42	0	944242688	20	5327
2026-01-12 13:29:57.43	326.26	9.81	-29.7	-33.0	18.5	6.03e-01	0	42	0	946339840	20	5271
2026-01-12 13:29:58.43	326.37	9.73	-29.6	-32.7	18.7	6.02e-01	0	42	0	947912704	20	5144
2026-01-12 13:29:59.44	326.49	9.66	-29.7	-33.0	18.5	6.02e-01	0	42	0	950009856	20	5285
2026-01-12 13:30:00.44	326.61	9.58	-29.7	-33.0	18.5	6.01e-01	0	42	0	952107008	20	5256
2026-01-12 13:30:01.45	326.72	9.50	-29.7	-33.1	18.4	6.00e-01	0	42	0	953679872	20	5298
2026-01-12 13:30:02.45	326.83	9.43	-29.8	-33.4	18.2	6.06e-01	0	42	0	955777024	20	5427
2026-01-12 13:30:03.46	326.95	9.35	-29.6	-32.9	18.5	6.04e-01	0	42	0	957349888	20	5221
2026-01-12 13:30:04.47	327.06	9.28	-29.8	-33.3	18.3	6.02e-01	0	42	0	959447040	20	5372
2026-01-12 13:30:05.47	327.17	9.20	-29.7	-33.2	18.3	6.03e-01	0	42	0	961544192	20	5346
2026-01-12 13:30:06.48	327.28	9.13	-29.7	-33.0	18.4	6.03e-01	0	42	0	963117056	20	5271
2026-01-12 13:30:07.48	327.39	9.06	-29.8	-33.3	18.2	6.05e-01	0	43	0	965214208	20	5389
2026-01-12 13:30:08.49	327.51	8.98	-29.8	-33.3	18.2	6.02e-01	0	42	0	966787072	20	5385
2026-01-12 13:30:09.48	327.61	8.91	-29.8	-33.5	18.0	6.02e-01	0	42	0	968884224	20	5479
2026-01-12 13:30:10.49	327.72	8.83	-29.9	-33.7	18.0	6.05e-01	0	42	0	970457088	20	5542
2026-01-12 13:30:11.50	327.83	8.76	-29.9	-33.6	18.0	6.04e-01	0	42	0	972554240	20	5512
2026-01-12 13:30:12.50	327.94	8.69	-29.9	-33.7	17.9	6.02e-01	0	42	0	974651392	20	5556
2026-01-12 13:30:13.50	328.05	8.61	-30.0	-33.9	17.8	6.05e-01	0	42	0	976224256	20	5663
2026-01-12 13:30:14.51	328.15	8.54	-30.0	-34.0	17.7	6.02e-01	0	42	0	978321408	20	5704
2026-01-12 13:30:15.52	328.26	8.47	-30.0	-34.0	17.7	6.05e-01	0	42	0	980418560	20	5695
2026-01-12 13:30:16.53	328.37	8.39	-30.1	-33.8	17.5	6.06e-01	0	42	0	981991424	21	5528
2026-01-12 13:30:17.54	328.47	8.32	-30.3	-34.5	17.0	6.05e-01	0	42	0	984088576	21	5806
2026-01-12 13:30:18.54	328.58	8.25	-30.3	-34.3	17.1	6.03e-01	0	43	0	985661440	21	5729
2026-01-12 13:30:19.55	328.68	8.18	-30.1	-33.9	17.3	6.01e-01	0	42	0	987758592	21	5568
2026-01-12 13:30:20.56	328.79	8.10	-30.0	-33.6	17.6	6.03e-01	0	42	0	989855744	21	5431
2026-01-12 13:30:21.56	328.89	8.03	-30.1	-33.8	17.4	6.05e-01	0	42	0	991428608	21	5498
2026-01-12 13:30:22.57	328.99	7.96	-30.0	-33.6	17.6	6.01e-01	0	42	0	993525760	21	5429
2026-01-12 13:30:23.58	329.10	7.89	-30.0	-33.5	17.6	6.05e-01	0	42	0	995098624	21	5389
2026-01-12 13:30:24.59	329.20	7.81	-29.9	-33.4	17.7	6.03e-01	0	42	0	997195776	21	5342
2026-01-12 13:30:25.59	329.30	7.74	-30.0	-33.6	17.6	6.04e-01	0	42	0	998768640	21	5431
2026-01-12 13:30:26.60	329.40	7.67	-30.0	-33.7	17.5	6.01e-01	0	42	0	1000865792	21	5486
2026-01-12 13:30:27.60	329.50	7.60	-30.0	-33.5	17.5	6.01e-01	0	42	0	1002962944	21	5417
2026-01-12 13:30:28.60	329.60	7.53	-30.0	-33.6	17.4	6.03e-01	0	42	0	1004535808	21	5469
2026-01-12 13:30:29.61	329.70	7.46	-30.0	-33.6	17.4	6.02e-01	0	42	0	1006632960	21	5483
2026-01-12 13:30:30.61	329.80	7.39	-30.0	-33.7	17.5	6.03e-01	0	42	0	1008730112	21	5479
2026-01-12 13:30:31.62	329.89	7.32	-30.2	-34.3	17.0	6.05e-01	0	42	0	1010302976	21	5747
2026-01-12 13:30:32.63	329.99	7.25	-30.3	-34.4	16.9	6.03e-01	0	42	0	1012400128	21	5791
2026-01-12 13:30:33.63	330.09	7.18	-30.2	-34.2	17.1	6.06e-01	0	42	0	1013972992	21	5723
2026-01-12 13:30:34.64	330.19	7.11	-30.4	-34.8	16.7	6.06e-01	0	42	0	1016070144	21	5970
2026-01-12 13:30:35.65	330.28	7.04	-30.3	-48.3	3.8	7.43e-01	0	42	104	1017643008	23	28608
2026-01-12 13:30:36.65	330.38	6.97	-33.5	-53.0	3.8	7.45e-01	0	42	104	1017643008	27	33951
2026-01-12 13:30:37.66	330.47	6.90	-33.6	-52.8	3.8	7.48e-01	0	42	104	1017643008	28	32689
2026-01-12 13:30:38.67	330.57	6.83	-33.8	-53.1	3.8	7.46e-01	0	42	104	1017643008	28	33311

#Closed at: 2026-01-12 13:30:38
#Recorded file [1017 MB]: D:/data/31010_260112_162132.dat