passes_logs/2026/01/12/R2M6_AANII_01/R2M6_AANII_01__20260112_031107_FENGYUN_3D_rec.log

#Pass ID: 20260112_031107_FENGYUN 3D
#Satellite: FENGYUN 3D
#Configuration: FENGYUN 3D
#almurnet v.1.7.20240730
#Start time: 2026-01-12 03:11:09

#Version: 2.2.20231116
#Station: R2M6_AANII_01
#Location: 30.233357 lon 59.946436 lat
#TLE: 1 43010U 17072A   26011.26828046  .00000354  00000+0  18908-3 0  9991
#TLE: 2 43010  98.9936 343.0270 0002205 114.1788 245.9618 14.19695184422722

#Time	Az	El	Level	Level2	SNR	BER	BlckErr	Temp	State	Recorded	gain1	gain2
2026-01-12 03:11:09.32	15.03	7.16	-30.4	-34.4	5.0	8.03e-01	0	39	0	0	21	5682
2026-01-12 03:11:10.32	14.99	7.23	-30.3	-33.9	5.1	7.98e-01	0	39	104	0	21	5462
2026-01-12 03:11:11.33	14.95	7.31	-30.3	-33.8	8.4	4.78e-02	0	39	0	0	21	5409
2026-01-12 03:11:12.34	14.92	7.38	-30.1	-33.4	8.7	3.04e-02	0	39	0	5242880	21	5214
2026-01-12 03:11:13.35	14.88	7.46	-30.1	-33.4	8.7	3.09e-02	0	39	0	11534336	21	5213
2026-01-12 03:11:14.35	14.84	7.54	-30.2	-33.5	8.6	3.07e-02	0	39	0	16777216	21	5284
2026-01-12 03:11:15.36	14.80	7.61	-29.7	-32.6	9.6	1.52e-02	0	39	0	22020096	20	5015
2026-01-12 03:11:16.36	14.76	7.69	-29.2	-31.7	10.6	3.12e-03	0	39	0	28311552	19	4792
2026-01-12 03:11:17.37	14.72	7.77	-28.8	-30.5	11.4	1.46e-03	0	39	0	33554432	19	4415
2026-01-12 03:11:18.38	14.69	7.85	-28.4	-30.0	12.0	3.12e-04	0	40	0	39845888	18	4355
2026-01-12 03:11:19.38	14.65	7.92	-28.0	-29.6	12.6	8.81e-05	0	40	0	45088768	17	4316
2026-01-12 03:11:20.38	14.61	8.00	-27.7	-29.4	13.0	1.94e-05	0	40	0	50331648	16	4360
2026-01-12 03:11:21.39	14.57	8.08	-27.3	-28.5	13.6	8.00e-06	0	40	0	56623104	16	4116
2026-01-12 03:11:22.40	14.53	8.16	-26.9	-28.1	14.0	0.00e+00	0	40	0	61865984	15	4122
2026-01-12 03:11:23.40	14.49	8.24	-26.9	-28.0	14.0	2.20e-06	0	40	0	67108864	15	4105
2026-01-12 03:11:24.41	14.45	8.32	-26.8	-27.8	14.2	1.10e-06	0	40	0	73400320	15	4033
2026-01-12 03:11:25.41	14.41	8.40	-26.8	-28.3	14.2	0.00e+00	0	40	0	78643200	14	4271
2026-01-12 03:11:26.42	14.37	8.48	-26.9	-28.4	14.1	0.00e+00	0	40	0	84934656	14	4320
2026-01-12 03:11:27.42	14.33	8.55	-26.9	-28.5	14.0	1.10e-06	0	40	0	90177536	14	4335
2026-01-12 03:11:28.43	14.29	8.64	-26.6	-27.9	14.4	0.00e+00	0	40	0	96468992	14	4167
2026-01-12 03:11:29.43	14.24	8.71	-26.4	-27.5	14.7	0.00e+00	0	40	0	101711872	14	4051
2026-01-12 03:11:30.44	14.20	8.80	-26.5	-27.7	14.6	0.00e+00	0	40	0	106954752	14	4108
2026-01-12 03:11:31.44	14.16	8.88	-26.6	-27.7	14.6	0.00e+00	0	40	0	113246208	14	4117
2026-01-12 03:11:32.45	14.12	8.96	-26.4	-27.4	14.7	0.00e+00	0	40	0	118489088	14	4047
2026-01-12 03:11:33.45	14.08	9.04	-26.4	-27.5	14.7	0.00e+00	0	40	0	123731968	14	4053
2026-01-12 03:11:34.46	14.03	9.12	-26.4	-27.5	14.7	0.00e+00	0	40	0	130023424	14	4052
2026-01-12 03:11:35.47	13.99	9.20	-26.4	-27.3	14.8	0.00e+00	0	40	0	135266304	14	4003
2026-01-12 03:11:36.47	13.95	9.28	-26.3	-27.6	14.9	0.00e+00	0	40	0	141557760	13	4188
2026-01-12 03:11:37.48	13.90	9.37	-26.3	-27.7	14.9	0.00e+00	0	40	0	146800640	13	4224
2026-01-12 03:11:38.49	13.86	9.45	-26.3	-27.6	14.9	0.00e+00	0	40	0	152043520	13	4187
2026-01-12 03:11:39.49	13.82	9.53	-26.3	-27.8	14.8	0.00e+00	0	40	0	158334976	13	4237
2026-01-12 03:11:40.49	13.77	9.61	-26.4	-27.8	14.8	0.00e+00	0	40	0	163577856	13	4261
2026-01-12 03:11:41.49	13.73	9.70	-26.4	-27.9	14.8	0.00e+00	0	40	0	169869312	13	4261
2026-01-12 03:11:42.50	13.68	9.78	-26.4	-28.0	14.7	0.00e+00	0	40	0	175112192	13	4288
2026-01-12 03:11:43.51	13.64	9.86	-26.4	-27.8	14.9	0.00e+00	0	40	0	180355072	13	4236
2026-01-12 03:11:44.51	13.59	9.95	-26.2	-27.5	15.0	0.00e+00	0	40	0	186646528	13	4152
2026-01-12 03:11:45.52	13.55	10.03	-26.3	-27.6	15.0	0.00e+00	0	40	0	191889408	13	4199
2026-01-12 03:11:46.53	13.50	10.12	-26.4	-27.9	14.8	0.00e+00	0	40	0	198180864	13	4263
2026-01-12 03:11:47.54	13.46	10.20	-26.4	-27.9	14.8	0.00e+00	0	40	0	203423744	13	4280
2026-01-12 03:11:48.54	13.41	10.29	-26.3	-27.7	14.9	0.00e+00	0	40	0	208666624	13	4221
2026-01-12 03:11:49.55	13.36	10.37	-26.2	-27.4	15.1	0.00e+00	0	41	0	214958080	13	4146
2026-01-12 03:11:50.56	13.31	10.46	-26.2	-27.3	15.1	0.00e+00	0	41	0	220200960	13	4116
2026-01-12 03:11:51.57	13.27	10.54	-26.3	-27.7	14.9	0.00e+00	0	40	0	226492416	13	4207
2026-01-12 03:11:52.58	13.22	10.63	-26.2	-27.5	15.1	0.00e+00	0	41	0	231735296	13	4171
2026-01-12 03:11:53.59	13.17	10.72	-26.3	-27.7	14.9	0.00e+00	0	40	0	236978176	13	4224
2026-01-12 03:11:54.60	13.12	10.80	-26.3	-27.7	15.0	0.00e+00	0	41	0	243269632	13	4207
2026-01-12 03:11:55.61	13.07	10.89	-26.3	-27.5	15.0	0.00e+00	0	40	0	248512512	13	4175
2026-01-12 03:11:56.61	13.02	10.98	-26.3	-27.6	15.0	0.00e+00	0	41	0	254803968	13	4186
2026-01-12 03:11:57.62	12.98	11.07	-26.2	-27.5	15.1	0.00e+00	0	40	0	260046848	13	4166
2026-01-12 03:11:58.62	12.93	11.15	-26.3	-27.6	15.0	0.00e+00	0	41	0	266338304	13	4192
2026-01-12 03:11:59.63	12.88	11.24	-26.3	-27.6	15.0	0.00e+00	0	41	0	271581184	13	4188
2026-01-12 03:12:00.64	12.83	11.33	-26.3	-27.7	15.0	0.00e+00	0	41	0	276824064	13	4207
2026-01-12 03:12:01.65	12.77	11.42	-26.2	-27.5	15.1	0.00e+00	0	41	0	283115520	13	4158
2026-01-12 03:12:02.65	12.72	11.51	-26.2	-27.4	15.2	0.00e+00	0	41	0	288358400	13	4126
2026-01-12 03:12:03.66	12.67	11.60	-26.1	-27.3	15.2	0.00e+00	0	40	0	293601280	13	4099
2026-01-12 03:12:04.66	12.62	11.69	-26.1	-27.2	15.3	0.00e+00	0	40	0	299892736	13	4078
2026-01-12 03:12:05.66	12.57	11.78	-26.1	-27.2	15.3	0.00e+00	0	41	0	305135616	13	4081
2026-01-12 03:12:06.67	12.52	11.87	-26.1	-27.1	15.3	0.00e+00	0	41	0	311427072	13	4058
2026-01-12 03:12:07.67	12.47	11.96	-26.0	-27.0	15.4	0.00e+00	0	41	0	316669952	13	4020
2026-01-12 03:12:08.68	12.41	12.05	-26.0	-27.0	15.4	0.00e+00	0	41	0	321912832	13	4018
2026-01-12 03:12:09.67	12.36	12.14	-26.1	-27.2	15.3	0.00e+00	0	41	0	328204288	13	4079
2026-01-12 03:12:10.68	12.31	12.23	-26.0	-26.8	15.5	0.00e+00	0	41	0	333447168	13	3986
2026-01-12 03:12:11.68	12.25	12.32	-25.9	-26.7	15.6	0.00e+00	0	41	0	339738624	13	3959
2026-01-12 03:12:12.69	12.20	12.41	-25.8	-26.6	15.7	0.00e+00	0	41	0	344981504	13	3932
2026-01-12 03:12:13.70	12.14	12.51	-25.9	-26.8	15.5	0.00e+00	0	41	0	350224384	13	3988
2026-01-12 03:12:14.70	12.09	12.60	-26.0	-27.0	15.5	0.00e+00	0	41	0	356515840	13	4015
2026-01-12 03:12:15.71	12.03	12.69	-25.9	-26.8	15.6	0.00e+00	0	41	0	361758720	13	3968
2026-01-12 03:12:16.71	11.98	12.78	-25.9	-26.7	15.6	0.00e+00	0	41	0	367001600	13	3963
2026-01-12 03:12:17.71	11.92	12.88	-26.1	-27.1	15.4	0.00e+00	0	41	0	373293056	13	4061
2026-01-12 03:12:18.72	11.86	12.97	-26.2	-27.3	15.3	0.00e+00	0	41	0	378535936	13	4090
2026-01-12 03:12:19.72	11.81	13.07	-26.1	-27.1	15.4	0.00e+00	0	41	0	384827392	13	4061
2026-01-12 03:12:20.73	11.75	13.16	-26.4	-27.7	15.1	0.00e+00	0	41	0	390070272	13	4219
2026-01-12 03:12:21.73	11.69	13.26	-26.4	-27.9	15.0	0.00e+00	0	41	0	395313152	13	4262
2026-01-12 03:12:22.73	11.63	13.35	-26.4	-27.9	15.0	0.00e+00	0	41	0	401604608	13	4256
2026-01-12 03:12:23.74	11.57	13.45	-26.4	-27.8	15.0	0.00e+00	0	41	0	406847488	13	4250
2026-01-12 03:12:24.74	11.52	13.54	-26.3	-27.7	15.1	0.00e+00	0	41	0	413138944	13	4206
2026-01-12 03:12:25.75	11.46	13.64	-26.6	-28.2	14.8	0.00e+00	0	41	0	418381824	13	4353
2026-01-12 03:12:26.75	11.40	13.74	-26.4	-27.8	15.0	0.00e+00	0	41	0	423624704	13	4225
2026-01-12 03:12:27.76	11.34	13.83	-26.6	-28.3	14.8	0.00e+00	0	41	0	429916160	13	4382
2026-01-12 03:12:28.76	11.28	13.93	-26.5	-28.1	14.9	0.00e+00	0	41	0	435159040	13	4324
2026-01-12 03:12:29.76	11.22	14.03	-26.1	-27.2	15.4	0.00e+00	0	41	0	441450496	13	4082
2026-01-12 03:12:30.77	11.15	14.13	-25.8	-26.6	15.7	0.00e+00	0	41	0	446693376	13	3926
2026-01-12 03:12:31.78	11.09	14.23	-25.6	-26.6	16.0	0.00e+00	0	41	0	451936256	12	4030
2026-01-12 03:12:32.79	11.03	14.33	-25.7	-26.7	15.9	0.00e+00	0	41	0	458227712	12	4054
2026-01-12 03:12:33.80	10.97	14.42	-25.9	-27.1	15.7	0.00e+00	0	41	0	463470592	12	4168
2026-01-12 03:12:34.81	10.90	14.53	-25.7	-26.9	15.9	0.00e+00	0	41	0	468713472	12	4094
2026-01-12 03:12:35.82	10.84	14.63	-25.6	-26.6	16.0	0.00e+00	0	41	0	475004928	12	4025
2026-01-12 03:12:36.82	10.77	14.73	-25.6	-26.6	16.0	0.00e+00	0	41	0	480247808	12	4037
2026-01-12 03:12:37.82	10.71	14.83	-25.8	-27.0	15.8	0.00e+00	0	41	0	486539264	12	4132
2026-01-12 03:12:38.83	10.64	14.93	-26.0	-27.5	15.6	0.00e+00	0	41	0	491782144	12	4255
2026-01-12 03:12:39.84	10.58	15.03	-26.0	-27.3	15.7	0.00e+00	0	41	0	498073600	12	4216
2026-01-12 03:12:40.85	10.51	15.13	-26.2	-27.8	15.4	0.00e+00	0	41	0	503316480	12	4344
2026-01-12 03:12:41.85	10.45	15.23	-25.9	-27.2	15.7	0.00e+00	0	41	0	508559360	12	4184
2026-01-12 03:12:42.86	10.38	15.34	-25.6	-26.5	16.1	0.00e+00	0	41	0	514850816	12	4007
2026-01-12 03:12:43.87	10.31	15.44	-25.4	-26.2	16.3	0.00e+00	0	41	0	520093696	12	3919
2026-01-12 03:12:44.88	10.24	15.54	-25.3	-26.4	16.5	0.00e+00	0	41	0	526385152	11	4083
2026-01-12 03:12:45.89	10.17	15.65	-25.4	-26.5	16.5	0.00e+00	0	41	0	531628032	11	4118
2026-01-12 03:12:46.89	10.11	15.75	-25.3	-26.3	16.6	0.00e+00	0	41	0	536870912	11	4046
2026-01-12 03:12:47.90	10.04	15.86	-25.1	-26.0	16.8	0.00e+00	0	41	0	543162368	11	3986
2026-01-12 03:12:48.91	9.96	15.96	-25.1	-25.9	16.8	0.00e+00	0	41	0	548405248	11	3948
2026-01-12 03:12:49.91	9.89	16.07	-25.2	-26.1	16.7	0.00e+00	0	41	0	554696704	11	4004
2026-01-12 03:12:50.92	9.82	16.18	-24.9	-25.5	17.0	0.00e+00	0	41	0	559939584	11	3859
2026-01-12 03:12:51.93	9.75	16.28	-24.9	-25.4	17.1	0.00e+00	0	41	0	565182464	11	3830
2026-01-12 03:12:52.93	9.68	16.39	-24.9	-25.5	17.1	0.00e+00	0	41	0	571473920	11	3848
2026-01-12 03:12:53.94	9.61	16.50	-24.8	-25.3	17.2	0.00e+00	0	41	0	576716800	11	3818
2026-01-12 03:12:54.95	9.53	16.60	-24.8	-25.8	17.2	0.00e+00	0	41	0	583008256	10	4035
2026-01-12 03:12:55.95	9.46	16.71	-24.8	-25.8	17.2	0.00e+00	0	41	0	588251136	10	4031
2026-01-12 03:12:56.95	9.39	16.82	-24.8	-25.7	17.2	0.00e+00	0	41	0	593494016	10	4021
2026-01-12 03:12:57.96	9.31	16.93	-24.8	-25.7	17.2	0.00e+00	0	41	0	599785472	10	4018
2026-01-12 03:12:58.97	9.23	17.04	-25.1	-26.4	16.9	0.00e+00	0	41	0	605028352	10	4174
2026-01-12 03:12:59.98	9.16	17.15	-24.9	-26.0	17.1	0.00e+00	0	41	0	611319808	10	4088
2026-01-12 03:13:00.96	9.08	17.26	-24.9	-26.0	17.1	0.00e+00	0	41	0	616562688	10	4083
2026-01-12 03:13:01.97	9.01	17.37	-25.0	-26.3	16.9	0.00e+00	0	41	0	621805568	10	4158
2026-01-12 03:13:02.97	8.93	17.48	-24.9	-26.0	17.1	0.00e+00	0	41	0	628097024	10	4080
2026-01-12 03:13:03.98	8.85	17.59	-24.8	-25.7	17.2	0.00e+00	0	41	0	633339904	10	4020
2026-01-12 03:13:04.99	8.77	17.70	-24.8	-25.7	17.3	0.00e+00	0	41	0	638582784	10	3999
2026-01-12 03:13:05.99	8.69	17.82	-24.7	-25.6	17.3	0.00e+00	0	41	0	644874240	10	3976
2026-01-12 03:13:07.00	8.61	17.93	-24.8	-25.8	17.2	0.00e+00	0	41	0	650117120	10	4030
2026-01-12 03:13:08.01	8.53	18.04	-24.8	-25.7	17.2	0.00e+00	0	41	0	656408576	10	4023
2026-01-12 03:13:09.01	8.45	18.16	-24.9	-26.1	17.1	0.00e+00	0	41	0	661651456	10	4108
2026-01-12 03:13:10.02	8.36	18.27	-24.7	-25.6	17.4	0.00e+00	0	41	0	667942912	10	3975
2026-01-12 03:13:11.02	8.28	18.39	-24.6	-25.3	17.5	0.00e+00	0	41	0	673185792	10	3915
2026-01-12 03:13:12.03	8.20	18.50	-24.5	-25.2	17.6	0.00e+00	0	41	0	678428672	10	3888
2026-01-12 03:13:13.04	8.11	18.62	-24.5	-25.1	17.6	0.00e+00	0	41	0	684720128	10	3868
2026-01-12 03:13:14.04	8.03	18.73	-24.5	-25.1	17.6	0.00e+00	0	41	0	689963008	10	3875
2026-01-12 03:13:15.05	7.94	18.85	-24.7	-25.5	17.4	0.00e+00	0	41	0	695205888	10	3961
2026-01-12 03:13:16.06	7.86	18.97	-24.7	-25.6	17.3	0.00e+00	0	41	0	701497344	10	3988
2026-01-12 03:13:17.06	7.77	19.09	-24.5	-25.2	17.6	0.00e+00	0	41	0	706740224	10	3886
2026-01-12 03:13:18.07	7.68	19.20	-24.5	-25.1	17.6	0.00e+00	0	41	0	713031680	10	3868
2026-01-12 03:13:19.08	7.59	19.32	-24.7	-25.5	17.4	0.00e+00	0	41	0	718274560	10	3954
2026-01-12 03:13:20.09	7.50	19.44	-24.3	-24.7	17.9	0.00e+00	0	41	0	723517440	10	3768
2026-01-12 03:13:21.09	7.41	19.56	-24.4	-24.8	17.8	0.00e+00	0	41	0	729808896	10	3803
2026-01-12 03:13:22.10	7.32	19.68	-24.5	-25.1	17.6	0.00e+00	0	41	0	735051776	10	3863
2026-01-12 03:13:23.11	7.23	19.81	-24.2	-25.1	17.9	0.00e+00	0	41	0	741343232	9	3962
2026-01-12 03:13:24.11	7.14	19.93	-24.4	-25.4	17.7	0.00e+00	0	41	0	746586112	9	4035
2026-01-12 03:13:25.12	7.05	20.05	-24.1	-24.8	18.1	0.00e+00	0	41	0	752877568	9	3898
2026-01-12 03:13:26.13	6.95	20.17	-24.1	-24.7	18.1	0.00e+00	0	41	0	758120448	9	3870
2026-01-12 03:13:27.14	6.86	20.29	-24.0	-24.7	18.1	0.00e+00	0	41	0	763363328	9	3866
2026-01-12 03:13:28.15	6.76	20.42	-24.1	-24.7	18.1	0.00e+00	0	41	0	769654784	9	3869
2026-01-12 03:13:29.15	6.67	20.54	-24.3	-25.3	17.8	0.00e+00	0	41	0	774897664	9	4012
2026-01-12 03:13:30.16	6.57	20.67	-24.0	-24.5	18.2	0.00e+00	0	41	0	781189120	9	3825
2026-01-12 03:13:31.17	6.47	20.79	-23.9	-24.3	18.3	0.00e+00	0	41	0	786432000	9	3786
2026-01-12 03:13:32.18	6.37	20.92	-23.9	-24.3	18.4	0.00e+00	0	41	0	791674880	9	3771
2026-01-12 03:13:33.18	6.27	21.04	-23.9	-24.4	18.3	0.00e+00	0	41	0	797966336	9	3801
2026-01-12 03:13:34.19	6.17	21.17	-23.8	-24.2	18.4	0.00e+00	0	41	0	803209216	9	3755
2026-01-12 03:13:35.20	6.07	21.30	-23.8	-24.1	18.4	0.00e+00	0	41	0	808452096	9	3743
2026-01-12 03:13:36.21	5.97	21.43	-23.9	-24.4	18.3	0.00e+00	0	41	0	814743552	9	3790
2026-01-12 03:13:37.22	5.86	21.55	-23.8	-24.5	18.5	0.00e+00	0	41	0	819986432	8	3945
2026-01-12 03:13:38.22	5.76	21.68	-23.8	-24.6	18.5	0.00e+00	0	41	0	826277888	8	3965
2026-01-12 03:13:39.23	5.66	21.81	-23.8	-24.6	18.5	0.00e+00	0	41	0	831520768	8	3947
2026-01-12 03:13:40.24	5.55	21.94	-23.8	-24.6	18.5	0.00e+00	0	41	0	837812224	8	3951
2026-01-12 03:13:41.24	5.45	22.07	-23.9	-24.8	18.4	0.00e+00	0	41	0	843055104	8	3993
2026-01-12 03:13:42.25	5.34	22.20	-23.8	-24.6	18.5	0.00e+00	0	41	0	848297984	8	3959
2026-01-12 03:13:43.25	5.23	22.34	-23.7	-24.5	18.5	0.00e+00	0	41	0	854589440	8	3927
2026-01-12 03:13:44.26	5.12	22.47	-23.8	-24.5	18.5	0.00e+00	0	41	0	859832320	8	3942
2026-01-12 03:13:45.27	5.01	22.60	-23.7	-24.5	18.5	0.00e+00	0	41	0	866123776	8	3934
2026-01-12 03:13:46.28	4.90	22.74	-23.8	-24.6	18.5	0.00e+00	0	41	0	871366656	8	3956
2026-01-12 03:13:47.29	4.78	22.87	-23.8	-24.6	18.5	0.00e+00	0	41	0	876609536	8	3943
2026-01-12 03:13:48.30	4.67	23.00	-23.8	-24.6	18.5	0.00e+00	0	41	0	882900992	8	3948
2026-01-12 03:13:49.30	4.56	23.14	-23.7	-24.4	18.6	0.00e+00	0	41	0	888143872	8	3907
2026-01-12 03:13:50.31	4.44	23.28	-23.7	-24.4	18.6	0.00e+00	0	41	0	894435328	8	3909
2026-01-12 03:13:51.32	4.33	23.41	-23.7	-24.5	18.5	0.00e+00	0	41	0	899678208	8	3933
2026-01-12 03:13:52.32	4.21	23.55	-23.7	-24.4	18.6	0.00e+00	0	41	0	904921088	8	3912
2026-01-12 03:13:53.32	4.09	23.68	-23.7	-24.5	18.6	0.00e+00	0	41	0	911212544	8	3920
2026-01-12 03:13:54.33	3.97	23.82	-23.6	-24.1	18.8	0.00e+00	0	41	0	916455424	8	3844
2026-01-12 03:13:55.33	3.85	23.96	-23.5	-24.1	18.8	0.00e+00	0	41	0	922746880	8	3829
2026-01-12 03:13:56.34	3.73	24.10	-23.5	-23.9	18.9	0.00e+00	0	41	0	927989760	8	3798
2026-01-12 03:13:57.35	3.61	24.24	-23.4	-23.8	18.9	0.00e+00	0	41	0	933232640	8	3775
2026-01-12 03:13:58.36	3.48	24.38	-23.4	-23.7	19.0	0.00e+00	0	42	0	939524096	8	3750
2026-01-12 03:13:59.36	3.36	24.52	-23.1	-23.7	19.2	0.00e+00	0	41	0	944766976	7	3842
2026-01-12 03:14:00.37	3.23	24.66	-23.1	-23.6	19.3	0.00e+00	0	42	0	951058432	7	3822
2026-01-12 03:14:01.37	3.10	24.81	-23.1	-23.7	19.2	0.00e+00	0	41	0	956301312	7	3856
2026-01-12 03:14:02.38	2.97	24.95	-23.1	-23.7	19.2	0.00e+00	0	41	0	961544192	7	3859
2026-01-12 03:14:03.39	2.84	25.09	-23.3	-24.0	19.1	0.00e+00	0	41	0	967835648	7	3916
2026-01-12 03:14:04.39	2.71	25.24	-23.5	-24.5	18.8	0.00e+00	0	41	0	973078528	7	4036
2026-01-12 03:14:05.38	2.58	25.38	-23.6	-24.6	18.8	0.00e+00	0	41	0	978321408	7	4072
2026-01-12 03:14:06.39	2.45	25.52	-23.5	-24.4	18.9	0.00e+00	0	41	0	984612864	7	4014
2026-01-12 03:14:07.40	2.31	25.67	-23.4	-24.3	18.9	0.00e+00	0	41	0	989855744	7	3994
2026-01-12 03:14:08.41	2.18	25.82	-23.5	-24.5	18.8	0.00e+00	0	41	0	996147200	7	4050
2026-01-12 03:14:09.41	2.04	25.96	-23.5	-24.4	18.9	0.00e+00	0	41	0	1001390080	7	4017
2026-01-12 03:14:10.41	1.90	26.11	-23.5	-24.6	18.8	0.00e+00	0	41	0	1007681536	7	4066
2026-01-12 03:14:11.42	1.76	26.26	-23.5	-24.6	18.8	0.00e+00	0	41	0	1012924416	7	4056
2026-01-12 03:14:12.42	1.62	26.41	-23.3	-24.0	19.1	0.00e+00	0	41	0	1018167296	7	3927
2026-01-12 03:14:13.43	1.48	26.56	-23.2	-23.8	19.2	0.00e+00	0	41	0	1024458752	7	3882
2026-01-12 03:14:14.43	1.34	26.71	-23.2	-23.8	19.2	0.00e+00	0	41	0	1029701632	7	3875
2026-01-12 03:14:15.43	1.19	26.86	-23.2	-23.9	19.2	0.00e+00	0	41	0	1034944512	7	3883
2026-01-12 03:14:16.43	1.04	27.01	-23.1	-23.7	19.3	0.00e+00	0	41	0	1041235968	7	3846
2026-01-12 03:14:17.44	0.90	27.16	-23.0	-23.5	19.4	0.00e+00	0	41	0	1046478848	7	3808
2026-01-12 03:14:18.44	0.75	27.31	-23.1	-23.7	19.3	0.00e+00	0	41	0	1051721728	7	3837
2026-01-12 03:14:19.45	0.59	27.47	-23.2	-23.8	19.2	0.00e+00	0	41	0	1058013184	7	3877
2026-01-12 03:14:20.46	0.44	27.62	-23.2	-23.9	19.2	0.00e+00	0	41	0	1063256064	7	3907
2026-01-12 03:14:21.46	0.29	27.78	-23.3	-24.0	19.2	0.00e+00	0	41	0	1069547520	7	3920
2026-01-12 03:14:22.47	0.13	27.93	-23.3	-24.0	19.1	0.00e+00	0	41	0	1074790400	7	3926
2026-01-12 03:14:23.48	359.97	28.09	-23.2	-23.9	19.2	0.00e+00	0	41	0	1081081856	7	3902
2026-01-12 03:14:24.48	359.82	28.25	-23.1	-23.6	19.4	2.20e-06	0	41	0	1086324736	7	3830
2026-01-12 03:14:25.49	359.65	28.40	-23.2	-23.8	19.3	0.00e+00	0	42	0	1091567616	7	3867
2026-01-12 03:14:26.50	359.49	28.56	-23.1	-23.7	19.3	0.00e+00	0	41	0	1097859072	7	3858
2026-01-12 03:14:27.50	359.33	28.72	-23.0	-23.4	19.5	0.00e+00	0	41	0	1103101952	7	3770
2026-01-12 03:14:28.51	359.16	28.88	-23.0	-23.4	19.5	0.00e+00	0	41	0	1108344832	7	3775
2026-01-12 03:14:29.51	359.00	29.04	-23.1	-23.6	19.4	0.00e+00	0	42	0	1114636288	7	3825
2026-01-12 03:14:30.51	358.83	29.20	-23.1	-23.7	19.3	0.00e+00	0	42	0	1119879168	7	3843
2026-01-12 03:14:31.52	358.66	29.36	-23.2	-23.8	19.3	0.00e+00	0	42	0	1126170624	7	3878
2026-01-12 03:14:32.53	358.48	29.52	-23.2	-23.9	19.3	0.00e+00	0	41	0	1131413504	7	3882
2026-01-12 03:14:33.54	358.31	29.69	-23.1	-23.7	19.4	0.00e+00	0	41	0	1136656384	7	3839
2026-01-12 03:14:34.55	358.13	29.85	-23.0	-23.5	19.4	0.00e+00	0	41	0	1142947840	7	3808
2026-01-12 03:14:35.56	357.95	30.01	-23.0	-23.4	19.5	0.00e+00	0	42	0	1148190720	7	3778
2026-01-12 03:14:36.56	357.77	30.18	-23.0	-23.5	19.5	0.00e+00	0	42	0	1154482176	7	3793
2026-01-12 03:14:37.57	357.59	30.34	-23.1	-23.7	19.4	0.00e+00	0	42	0	1159725056	7	3844
2026-01-12 03:14:38.57	357.41	30.51	-23.2	-23.8	19.3	0.00e+00	0	41	0	1166016512	7	3868
2026-01-12 03:14:39.58	357.22	30.67	-23.1	-23.7	19.4	0.00e+00	0	42	0	1171259392	7	3843
2026-01-12 03:14:40.59	357.04	30.84	-23.1	-23.6	19.4	0.00e+00	0	42	0	1176502272	7	3833
2026-01-12 03:14:41.60	356.85	31.01	-23.0	-23.5	19.5	0.00e+00	0	42	0	1182793728	7	3803
2026-01-12 03:14:42.60	356.66	31.18	-23.0	-23.5	19.4	0.00e+00	0	42	0	1188036608	7	3813
2026-01-12 03:14:43.60	356.46	31.35	-22.9	-23.3	19.6	0.00e+00	0	42	0	1193279488	7	3753
2026-01-12 03:14:44.61	356.27	31.52	-22.8	-23.0	19.7	0.00e+00	0	42	0	1199570944	7	3689
2026-01-12 03:14:45.62	356.07	31.69	-22.8	-23.5	19.7	0.00e+00	0	42	0	1204813824	6	3906
2026-01-12 03:14:46.63	355.87	31.86	-22.7	-23.3	19.8	0.00e+00	0	41	0	1211105280	6	3851
2026-01-12 03:14:47.63	355.67	32.03	-22.5	-22.9	20.0	0.00e+00	0	42	0	1216348160	6	3768
2026-01-12 03:14:48.64	355.46	32.20	-22.5	-22.9	20.0	0.00e+00	0	41	0	1221591040	6	3773
2026-01-12 03:14:49.65	355.26	32.37	-22.6	-23.1	19.9	0.00e+00	0	41	0	1227882496	6	3822
2026-01-12 03:14:50.65	355.05	32.54	-22.8	-23.4	19.8	0.00e+00	0	41	0	1233125376	6	3891
2026-01-12 03:14:51.66	354.84	32.72	-22.8	-23.4	19.8	0.00e+00	0	42	0	1239416832	6	3893
2026-01-12 03:14:52.66	354.63	32.89	-22.9	-23.7	19.6	0.00e+00	0	41	0	1244659712	6	3961
2026-01-12 03:14:53.67	354.41	33.07	-22.9	-23.6	19.7	0.00e+00	0	42	0	1250951168	6	3940
2026-01-12 03:14:54.68	354.19	33.24	-23.0	-23.9	19.5	0.00e+00	0	41	0	1256194048	6	4007
2026-01-12 03:14:55.68	353.97	33.42	-23.0	-24.0	19.5	0.00e+00	0	42	0	1261436928	6	4017
2026-01-12 03:14:56.68	353.75	33.59	-22.9	-23.8	19.6	0.00e+00	0	42	0	1267728384	6	3981
2026-01-12 03:14:57.68	353.53	33.77	-23.0	-24.0	19.5	0.00e+00	0	42	0	1272971264	6	4018
2026-01-12 03:14:58.68	353.30	33.94	-22.9	-23.7	19.7	0.00e+00	0	41	0	1278214144	6	3955
2026-01-12 03:14:59.69	353.07	34.12	-23.1	-24.1	19.4	0.00e+00	0	42	0	1284505600	6	4055
2026-01-12 03:15:00.70	352.84	34.30	-23.1	-24.1	19.5	0.00e+00	0	41	0	1289748480	6	4045
2026-01-12 03:15:01.70	352.60	34.48	-23.0	-23.9	19.6	0.00e+00	0	41	0	1294991360	6	4005
2026-01-12 03:15:02.71	352.36	34.66	-22.9	-23.7	19.7	0.00e+00	0	41	0	1301282816	6	3947
2026-01-12 03:15:03.72	352.12	34.84	-22.8	-23.5	19.7	0.00e+00	0	41	0	1306525696	6	3918
2026-01-12 03:15:04.72	351.88	35.01	-23.0	-23.8	19.6	0.00e+00	0	41	0	1312817152	6	3989
2026-01-12 03:15:05.73	351.63	35.20	-22.8	-23.5	19.8	0.00e+00	0	42	0	1318060032	6	3911
2026-01-12 03:15:06.74	351.38	35.38	-22.7	-23.3	19.9	0.00e+00	0	41	0	1324351488	6	3860
2026-01-12 03:15:07.74	351.13	35.56	-22.7	-23.4	19.8	0.00e+00	0	42	0	1329594368	6	3890
2026-01-12 03:15:08.75	350.88	35.74	-22.7	-23.3	19.9	0.00e+00	0	42	0	1334837248	6	3869
2026-01-12 03:15:09.75	350.62	35.92	-22.7	-23.3	19.9	0.00e+00	0	41	0	1341128704	6	3857
2026-01-12 03:15:10.76	350.36	36.10	-22.6	-23.1	20.0	0.00e+00	0	41	0	1346371584	6	3818
2026-01-12 03:15:11.76	350.10	36.28	-22.6	-23.1	20.0	0.00e+00	0	42	0	1352663040	6	3816
2026-01-12 03:15:12.77	349.83	36.47	-22.8	-23.6	19.7	0.00e+00	0	41	0	1357905920	6	3926
2026-01-12 03:15:13.78	349.56	36.65	-22.9	-23.8	19.7	0.00e+00	0	41	0	1363148800	6	3978
2026-01-12 03:15:14.79	349.29	36.84	-22.9	-23.7	19.7	0.00e+00	0	41	0	1369440256	6	3956
2026-01-12 03:15:15.79	349.02	37.02	-22.8	-23.5	19.8	0.00e+00	0	42	0	1374683136	6	3912
2026-01-12 03:15:16.79	348.74	37.20	-22.8	-23.6	19.8	0.00e+00	0	42	0	1379926016	6	3931
2026-01-12 03:15:17.80	348.46	37.39	-22.7	-23.4	19.9	0.00e+00	0	41	0	1386217472	6	3875
2026-01-12 03:15:18.81	348.17	37.57	-22.7	-23.3	19.9	0.00e+00	0	42	0	1391460352	6	3865
2026-01-12 03:15:19.82	347.88	37.76	-22.7	-23.3	19.9	0.00e+00	0	41	0	1397751808	6	3863
2026-01-12 03:15:20.83	347.59	37.94	-23.0	-23.9	19.6	0.00e+00	0	41	0	1402994688	6	4007
2026-01-12 03:15:21.83	347.29	38.13	-23.0	-23.9	19.6	0.00e+00	0	41	0	1409286144	6	3996
2026-01-12 03:15:22.84	346.99	38.31	-23.3	-24.5	19.3	0.00e+00	0	41	0	1414529024	6	4144
2026-01-12 03:15:23.85	346.69	38.50	-23.1	-24.1	19.5	0.00e+00	0	41	0	1419771904	6	4054
2026-01-12 03:15:24.85	346.39	38.68	-22.8	-23.6	19.8	0.00e+00	0	41	0	1426063360	6	3924
2026-01-12 03:15:25.86	346.08	38.87	-22.7	-23.3	19.9	0.00e+00	0	42	0	1431306240	6	3861
2026-01-12 03:15:26.87	345.76	39.06	-22.8	-23.5	19.8	0.00e+00	0	42	0	1437597696	6	3916
2026-01-12 03:15:27.87	345.45	39.24	-22.8	-23.5	19.8	0.00e+00	0	41	0	1442840576	6	3907
2026-01-12 03:15:28.88	345.13	39.43	-22.7	-23.3	19.9	0.00e+00	0	42	0	1448083456	6	3858
2026-01-12 03:15:29.88	344.81	39.61	-22.7	-23.4	19.9	0.00e+00	0	41	0	1454374912	6	3874
2026-01-12 03:15:30.89	344.48	39.80	-22.9	-23.8	19.7	0.00e+00	0	42	0	1459617792	6	3970
2026-01-12 03:15:31.90	344.15	39.98	-22.7	-23.4	19.9	0.00e+00	0	42	0	1464860672	6	3881
2026-01-12 03:15:32.90	343.81	40.17	-22.6	-23.0	20.1	0.00e+00	0	41	0	1471152128	6	3796
2026-01-12 03:15:33.91	343.47	40.35	-22.6	-23.1	20.0	0.00e+00	0	42	0	1476395008	6	3811
2026-01-12 03:15:34.93	343.13	40.54	-22.8	-23.6	19.8	0.00e+00	0	41	0	1482686464	6	3919
2026-01-12 03:15:35.93	342.78	40.73	-23.1	-24.1	19.5	0.00e+00	0	42	0	1487929344	6	4037
2026-01-12 03:15:36.94	342.43	40.91	-22.9	-23.7	19.7	0.00e+00	0	42	0	1494220800	6	3956
2026-01-12 03:15:37.94	342.08	41.09	-22.8	-23.5	19.8	0.00e+00	0	42	0	1499463680	6	3910
2026-01-12 03:15:38.95	341.72	41.28	-22.7	-23.3	19.9	0.00e+00	0	42	0	1504706560	6	3851
2026-01-12 03:15:39.96	341.35	41.46	-22.7	-23.4	19.9	0.00e+00	0	41	0	1510998016	6	3878
2026-01-12 03:15:40.96	340.99	41.64	-22.6	-23.2	20.0	0.00e+00	0	41	0	1516240896	6	3825
2026-01-12 03:15:41.97	340.61	41.83	-22.9	-23.8	19.7	0.00e+00	0	42	0	1522532352	6	3966
2026-01-12 03:15:42.97	340.24	42.01	-22.7	-23.2	20.0	0.00e+00	0	41	0	1527775232	6	3842
2026-01-12 03:15:43.98	339.86	42.19	-22.6	-23.0	20.1	0.00e+00	0	42	0	1533018112	6	3796
2026-01-12 03:15:44.99	339.47	42.37	-22.7	-23.3	20.0	0.00e+00	0	42	0	1539309568	6	3851
2026-01-12 03:15:46.00	339.08	42.55	-22.7	-23.3	19.9	0.00e+00	0	42	0	1544552448	6	3863
2026-01-12 03:15:47.00	338.69	42.73	-22.7	-23.3	19.9	0.00e+00	0	42	0	1550843904	6	3863
2026-01-12 03:15:48.01	338.29	42.91	-22.5	-22.9	20.2	0.00e+00	0	41	0	1556086784	6	3755
2026-01-12 03:15:49.02	337.89	43.09	-22.5	-22.8	20.2	0.00e+00	0	41	0	1561329664	6	3739
2026-01-12 03:15:50.02	337.48	43.27	-22.4	-22.6	20.3	0.00e+00	0	42	0	1567621120	6	3700
2026-01-12 03:15:51.03	337.07	43.45	-22.4	-22.8	20.2	0.00e+00	0	42	0	1572864000	6	3736
2026-01-12 03:15:52.03	336.66	43.62	-22.5	-22.9	20.1	0.00e+00	0	42	0	1579155456	6	3757
2026-01-12 03:15:53.04	336.23	43.80	-22.6	-23.2	20.0	0.00e+00	0	42	0	1584398336	6	3835
2026-01-12 03:15:54.05	335.81	43.97	-22.7	-23.3	20.0	0.00e+00	0	41	0	1589641216	6	3856
2026-01-12 03:15:55.05	335.38	44.14	-22.6	-23.0	20.0	0.00e+00	0	41	0	1595932672	6	3801
2026-01-12 03:15:56.06	334.94	44.32	-22.5	-23.0	20.1	0.00e+00	0	42	0	1601175552	6	3779
2026-01-12 03:15:57.06	334.51	44.49	-22.7	-23.3	20.0	0.00e+00	0	42	0	1607467008	6	3853
2026-01-12 03:15:58.06	334.07	44.66	-22.7	-23.4	19.9	0.00e+00	0	42	0	1612709888	6	3881
2026-01-12 03:15:59.07	333.62	44.83	-23.1	-24.1	19.6	0.00e+00	0	42	0	1617952768	6	4042
2026-01-12 03:16:00.08	333.16	44.99	-22.8	-23.5	19.8	0.00e+00	0	42	0	1624244224	6	3911
2026-01-12 03:16:01.08	332.70	45.16	-22.7	-23.3	20.0	0.00e+00	0	42	0	1629487104	6	3849
2026-01-12 03:16:02.09	332.24	45.32	-22.7	-23.4	19.9	0.00e+00	0	42	0	1635778560	6	3868
2026-01-12 03:16:03.10	331.77	45.49	-22.4	-22.7	20.3	0.00e+00	0	42	0	1641021440	6	3728
2026-01-12 03:16:04.11	331.29	45.65	-22.4	-22.8	20.2	0.00e+00	0	42	0	1646264320	6	3731
2026-01-12 03:16:05.11	330.82	45.81	-22.7	-23.3	19.9	0.00e+00	0	42	0	1652555776	6	3861
2026-01-12 03:16:06.11	330.34	45.97	-22.8	-23.5	19.8	0.00e+00	0	42	0	1657798656	6	3910
2026-01-12 03:16:07.12	329.85	46.12	-22.9	-23.7	19.7	0.00e+00	0	42	0	1664090112	6	3960
2026-01-12 03:16:08.13	329.35	46.28	-22.7	-23.3	19.9	0.00e+00	0	42	0	1669332992	6	3857
2026-01-12 03:16:09.13	328.86	46.43	-22.8	-23.4	19.9	0.00e+00	0	41	0	1674575872	6	3878
2026-01-12 03:16:10.14	328.36	46.58	-22.9	-23.8	19.7	0.00e+00	0	42	0	1680867328	6	3968
2026-01-12 03:16:11.15	327.85	46.73	-23.0	-24.0	19.6	0.00e+00	0	42	0	1686110208	6	4013
2026-01-12 03:16:12.16	327.33	46.88	-23.0	-24.0	19.6	0.00e+00	0	42	0	1691353088	6	4034
2026-01-12 03:16:13.17	326.81	47.03	-22.9	-23.7	19.8	0.00e+00	0	41	0	1697644544	6	3951
2026-01-12 03:16:14.18	326.29	47.17	-22.9	-23.8	19.7	0.00e+00	0	42	0	1702887424	6	3964
2026-01-12 03:16:15.18	325.76	47.31	-23.0	-23.8	19.7	0.00e+00	0	41	0	1709178880	6	3975
2026-01-12 03:16:16.19	325.23	47.45	-23.0	-24.0	19.6	0.00e+00	0	42	0	1714421760	6	4012
2026-01-12 03:16:17.20	324.69	47.59	-23.1	-24.0	19.6	0.00e+00	0	42	0	1720713216	6	4033
2026-01-12 03:16:18.21	324.15	47.73	-23.1	-24.2	19.5	0.00e+00	0	42	0	1725956096	6	4079
2026-01-12 03:16:19.21	323.61	47.86	-23.2	-24.4	19.4	0.00e+00	0	42	0	1732247552	6	4126
2026-01-12 03:16:20.22	323.05	47.99	-23.2	-24.2	19.5	0.00e+00	0	42	0	1737490432	6	4078
2026-01-12 03:16:21.23	322.50	48.12	-23.4	-24.8	19.2	0.00e+00	0	42	0	1742733312	6	4207
2026-01-12 03:16:22.23	321.94	48.24	-23.6	-24.6	19.1	0.00e+00	0	42	0	1749024768	7	4064
2026-01-12 03:16:23.24	321.37	48.36	-23.6	-24.7	19.0	0.00e+00	0	41	0	1754267648	7	4092
2026-01-12 03:16:24.25	320.80	48.48	-23.2	-23.9	19.5	0.00e+00	0	41	0	1759510528	7	3880
2026-01-12 03:16:25.25	320.23	48.60	-23.1	-23.6	19.6	0.00e+00	0	42	0	1765801984	7	3828
2026-01-12 03:16:26.26	319.65	48.71	-23.1	-23.7	19.5	0.00e+00	0	42	0	1771044864	7	3850
2026-01-12 03:16:27.27	319.07	48.82	-23.1	-23.6	19.6	0.00e+00	0	41	0	1777336320	7	3815
2026-01-12 03:16:28.28	318.48	48.93	-23.0	-23.4	19.6	0.00e+00	0	42	0	1782579200	7	3785
2026-01-12 03:16:29.29	317.89	49.04	-23.0	-23.4	19.7	0.00e+00	0	42	0	1787822080	7	3764
2026-01-12 03:16:30.29	317.30	49.14	-23.0	-23.3	19.7	0.00e+00	0	42	0	1794113536	7	3758
2026-01-12 03:16:31.30	316.70	49.24	-23.1	-23.6	19.6	1.10e-06	0	42	0	1799356416	7	3828
2026-01-12 03:16:32.30	316.10	49.33	-23.3	-24.0	19.4	0.00e+00	0	42	0	1805647872	7	3906
2026-01-12 03:16:33.31	315.49	49.42	-23.5	-24.4	19.2	0.00e+00	0	41	0	1810890752	7	4019
2026-01-12 03:16:34.31	314.89	49.51	-23.4	-24.3	19.3	1.10e-06	0	42	0	1816133632	7	3974
2026-01-12 03:16:35.32	314.27	49.60	-23.2	-23.9	19.4	0.00e+00	0	41	0	1822425088	7	3886
2026-01-12 03:16:36.33	313.65	49.68	-23.4	-24.2	19.3	0.00e+00	0	42	0	1827667968	7	3971
2026-01-12 03:16:37.34	313.03	49.76	-23.3	-24.1	19.4	2.20e-06	0	42	0	1833959424	7	3923
2026-01-12 03:16:38.35	312.41	49.84	-23.0	-23.3	19.8	0.00e+00	0	42	0	1839202304	7	3759
2026-01-12 03:16:39.36	311.78	49.91	-23.0	-23.5	19.6	0.00e+00	0	42	0	1844445184	7	3795
2026-01-12 03:16:40.36	311.15	49.98	-23.0	-23.5	19.7	1.10e-06	0	42	0	1850736640	7	3790
2026-01-12 03:16:41.36	310.53	50.04	-23.0	-23.5	19.7	0.00e+00	0	42	0	1855979520	7	3784
2026-01-12 03:16:42.37	309.89	50.10	-23.0	-23.3	19.8	0.00e+00	0	42	0	1862270976	7	3754
2026-01-12 03:16:43.37	309.26	50.16	-23.0	-23.5	19.7	0.00e+00	0	42	0	1867513856	7	3785
2026-01-12 03:16:44.38	308.62	50.21	-23.3	-24.0	19.4	0.00e+00	0	42	0	1872756736	7	3910
2026-01-12 03:16:45.39	307.97	50.26	-23.4	-24.2	19.3	0.00e+00	0	42	0	1879048192	7	3966
2026-01-12 03:16:46.39	307.33	50.31	-23.0	-23.4	19.7	0.00e+00	0	42	0	1884291072	7	3772
2026-01-12 03:16:47.40	306.68	50.35	-23.1	-23.6	19.6	0.00e+00	0	42	0	1890582528	7	3804
2026-01-12 03:16:48.40	306.04	50.39	-23.4	-24.2	19.3	0.00e+00	0	42	0	1895825408	7	3967
2026-01-12 03:16:49.41	305.39	50.43	-23.5	-24.4	19.2	0.00e+00	0	42	0	1902116864	7	4012
2026-01-12 03:16:50.42	304.74	50.46	-23.3	-24.0	19.4	0.00e+00	0	42	0	1907359744	7	3906
2026-01-12 03:16:51.43	304.08	50.49	-23.4	-24.2	19.3	0.00e+00	0	42	0	1912602624	7	3960
2026-01-12 03:16:52.43	303.44	50.51	-23.6	-24.7	19.0	0.00e+00	0	42	0	1918894080	7	4077
2026-01-12 03:16:53.43	302.79	50.53	-23.8	-25.0	18.9	0.00e+00	0	42	0	1924136960	7	4162
2026-01-12 03:16:54.44	302.13	50.54	-23.6	-24.8	19.0	0.00e+00	0	42	0	1929379840	7	4105
2026-01-12 03:16:55.45	301.47	50.55	-23.2	-23.7	19.5	0.00e+00	0	42	0	1935671296	7	3851
2026-01-12 03:16:56.45	300.82	50.56	-22.9	-23.2	19.8	0.00e+00	0	42	0	1940914176	7	3734
2026-01-12 03:16:57.46	300.16	50.57	-23.0	-23.4	19.7	0.00e+00	0	42	0	1946157056	7	3770
2026-01-12 03:16:58.46	299.51	50.56	-23.1	-23.6	19.6	0.00e+00	0	42	0	1952448512	7	3820
2026-01-12 03:16:59.47	298.85	50.56	-23.0	-23.5	19.7	0.00e+00	0	42	0	1957691392	7	3796
2026-01-12 03:17:00.47	298.20	50.55	-23.1	-23.7	19.6	0.00e+00	0	42	0	1963982848	7	3834
2026-01-12 03:17:01.48	297.55	50.54	-23.4	-24.3	19.2	0.00e+00	0	42	0	1969225728	7	3983
2026-01-12 03:17:02.48	296.90	50.52	-23.5	-24.4	19.2	0.00e+00	0	42	0	1975517184	7	4015
2026-01-12 03:17:03.49	296.24	50.50	-23.4	-24.2	19.3	0.00e+00	0	42	0	1980760064	7	3960
2026-01-12 03:17:04.49	295.59	50.48	-23.5	-24.4	19.2	0.00e+00	0	42	0	1986002944	7	4011
2026-01-12 03:17:05.50	294.94	50.45	-23.4	-24.3	19.2	0.00e+00	0	42	0	1992294400	7	3993
2026-01-12 03:17:06.51	294.29	50.42	-23.3	-24.0	19.4	0.00e+00	0	42	0	1997537280	7	3910
2026-01-12 03:17:07.51	293.64	50.38	-23.2	-23.9	19.4	0.00e+00	0	41	0	2003828736	7	3887
2026-01-12 03:17:08.52	292.99	50.34	-23.2	-23.8	19.5	0.00e+00	0	42	0	2009071616	7	3853
2026-01-12 03:17:09.53	292.34	50.30	-23.2	-23.8	19.5	0.00e+00	0	42	0	2014314496	7	3868
2026-01-12 03:17:10.54	291.70	50.25	-23.4	-24.2	19.3	0.00e+00	0	42	0	2020605952	7	3959
2026-01-12 03:17:11.54	291.06	50.20	-23.5	-24.5	19.1	0.00e+00	0	42	0	2025848832	7	4032
2026-01-12 03:17:12.55	290.42	50.15	-23.3	-24.1	19.3	0.00e+00	0	42	0	2031091712	7	3947
2026-01-12 03:17:13.55	289.79	50.09	-23.2	-23.8	19.5	0.00e+00	0	42	0	2037383168	7	3864
2026-01-12 03:17:14.56	289.15	50.02	-23.2	-23.8	19.5	0.00e+00	0	41	0	2042626048	7	3861
2026-01-12 03:17:15.55	288.53	49.96	-23.3	-24.1	19.3	0.00e+00	0	42	0	2048917504	7	3937
2026-01-12 03:17:16.56	287.90	49.89	-23.4	-24.2	19.3	0.00e+00	0	42	0	2054160384	7	3954
2026-01-12 03:17:17.57	287.27	49.82	-23.4	-24.3	19.2	0.00e+00	0	42	0	2060451840	7	3996
2026-01-12 03:17:18.57	286.65	49.74	-23.3	-24.0	19.4	0.00e+00	0	42	0	2065694720	7	3921
2026-01-12 03:17:19.57	286.04	49.66	-23.0	-23.4	19.7	0.00e+00	0	42	0	2070937600	7	3776
2026-01-12 03:17:20.57	285.43	49.58	-22.8	-23.1	19.9	0.00e+00	0	42	0	2077229056	7	3698
2026-01-12 03:17:21.57	284.82	49.49	-22.9	-23.3	19.8	0.00e+00	0	42	0	2082471936	7	3744
2026-01-12 03:17:22.57	284.21	49.40	-23.0	-23.4	19.7	0.00e+00	0	42	0	2087714816	7	3779
2026-01-12 03:17:23.58	283.60	49.31	-23.2	-23.8	19.5	0.00e+00	0	42	0	2094006272	7	3868
2026-01-12 03:17:24.59	283.00	49.21	-23.1	-23.6	19.6	0.00e+00	0	42	0	2099249152	7	3830
2026-01-12 03:17:25.59	282.41	49.11	-23.1	-23.5	19.6	0.00e+00	0	42	0	2104492032	7	3799
2026-01-12 03:17:26.60	281.81	49.01	-23.2	-23.8	19.4	0.00e+00	0	42	0	2110783488	7	3870
2026-01-12 03:17:27.61	281.22	48.90	-23.4	-24.3	19.2	0.00e+00	0	42	0	2116026368	7	3992
2026-01-12 03:17:28.62	280.63	48.79	-23.3	-24.0	19.3	0.00e+00	0	42	0	2122317824	7	3916
2026-01-12 03:17:29.62	280.05	48.68	-23.0	-23.5	19.6	0.00e+00	0	42	0	2127560704	7	3797
2026-01-12 03:17:30.63	279.47	48.57	-23.1	-23.6	19.6	1.10e-06	0	42	0	2133852160	7	3812
2026-01-12 03:17:31.64	278.90	48.45	-23.1	-23.6	19.5	0.00e+00	0	42	0	2139095040	7	3826
2026-01-12 03:17:32.65	278.33	48.33	-22.9	-23.2	19.7	0.00e+00	0	42	0	2144337920	7	3736
2026-01-12 03:17:33.66	277.76	48.21	-22.7	-23.4	19.9	0.00e+00	0	42	0	2150629376	6	3872
2026-01-12 03:17:34.66	277.20	48.08	-22.7	-23.4	19.9	0.00e+00	0	42	0	2155872256	6	3873
2026-01-12 03:17:35.67	276.65	47.95	-22.7	-23.3	20.0	0.00e+00	0	42	0	2162163712	6	3867
2026-01-12 03:17:36.68	276.09	47.82	-22.9	-23.7	19.8	0.00e+00	0	42	0	2167406592	6	3948
2026-01-12 03:17:37.69	275.55	47.69	-22.9	-23.7	19.8	0.00e+00	0	42	0	2172649472	6	3944
2026-01-12 03:17:38.69	275.01	47.55	-22.8	-23.6	19.8	0.00e+00	0	42	0	2178940928	6	3932
2026-01-12 03:17:39.70	274.47	47.41	-22.8	-23.5	19.9	2.20e-06	0	42	0	2184183808	6	3894
2026-01-12 03:17:40.71	273.94	47.27	-22.9	-23.6	19.8	0.00e+00	0	42	0	2189426688	6	3933
2026-01-12 03:17:41.71	273.41	47.13	-22.8	-23.6	19.8	0.00e+00	0	42	0	2195718144	6	3917
2026-01-12 03:17:42.72	272.89	46.99	-22.9	-23.7	19.8	3.40e-06	0	42	0	2200961024	6	3947
2026-01-12 03:17:43.73	272.37	46.84	-23.0	-24.0	19.6	0.00e+00	0	42	0	2207252480	6	4017
2026-01-12 03:17:44.74	271.86	46.69	-22.9	-23.7	19.7	0.00e+00	0	42	0	2212495360	6	3962
2026-01-12 03:17:45.75	271.35	46.54	-22.8	-23.5	19.8	0.00e+00	0	42	0	2218786816	6	3908
2026-01-12 03:17:46.75	270.85	46.39	-22.8	-23.4	19.9	0.00e+00	0	42	0	2224029696	6	3881
2026-01-12 03:17:47.76	270.35	46.23	-22.6	-23.1	20.0	0.00e+00	0	42	0	2230321152	6	3821
2026-01-12 03:17:48.76	269.86	46.08	-22.4	-22.6	20.3	1.10e-06	0	42	0	2235564032	6	3700
2026-01-12 03:17:49.77	269.37	45.92	-22.3	-22.4	20.3	0.00e+00	0	42	0	2240806912	6	3670
2026-01-12 03:17:50.78	268.88	45.76	-22.2	-22.8	20.4	0.00e+00	0	42	0	2247098368	5	3846
2026-01-12 03:17:51.79	268.40	45.60	-22.2	-22.8	20.4	1.10e-06	0	42	0	2252341248	5	3841
2026-01-12 03:17:52.79	267.93	45.44	-22.2	-22.8	20.4	0.00e+00	0	42	0	2257584128	5	3857
2026-01-12 03:17:53.80	267.46	45.27	-22.2	-22.7	20.4	0.00e+00	0	42	0	2263875584	5	3819
2026-01-12 03:17:54.81	267.00	45.11	-22.2	-22.7	20.4	0.00e+00	0	42	0	2269118464	5	3838
2026-01-12 03:17:55.80	266.55	44.94	-22.4	-23.1	20.2	0.00e+00	0	42	0	2274361344	5	3926
2026-01-12 03:17:56.81	266.09	44.77	-22.1	-22.6	20.5	0.00e+00	0	42	0	2280652800	5	3811
2026-01-12 03:17:57.82	265.64	44.60	-22.0	-22.5	20.6	0.00e+00	0	42	0	2285895680	5	3775
2026-01-12 03:17:58.82	265.20	44.43	-22.2	-22.7	20.4	0.00e+00	0	42	0	2292187136	5	3817
2026-01-12 03:17:59.83	264.76	44.26	-22.3	-22.9	20.3	0.00e+00	0	42	0	2297430016	5	3871
2026-01-12 03:18:00.83	264.33	44.09	-22.3	-22.9	20.3	0.00e+00	0	42	0	2303721472	5	3874
2026-01-12 03:18:01.84	263.90	43.91	-22.5	-23.4	20.1	0.00e+00	0	42	0	2308964352	5	3979
2026-01-12 03:18:02.85	263.47	43.74	-22.4	-23.2	20.2	0.00e+00	0	42	0	2314207232	5	3941
2026-01-12 03:18:03.85	263.05	43.56	-22.3	-22.9	20.3	0.00e+00	0	42	0	2320498688	5	3887
2026-01-12 03:18:04.86	262.63	43.39	-22.3	-23.0	20.3	0.00e+00	0	42	0	2325741568	5	3893
2026-01-12 03:18:05.87	262.22	43.21	-22.2	-22.7	20.4	0.00e+00	0	42	0	2332033024	5	3830
2026-01-12 03:18:06.88	261.81	43.03	-22.0	-22.5	20.5	0.00e+00	0	42	0	2337275904	5	3772
2026-01-12 03:18:07.88	261.41	42.85	-22.1	-22.6	20.4	0.00e+00	0	42	0	2342518784	5	3805
2026-01-12 03:18:08.89	261.01	42.67	-21.9	-22.0	20.7	0.00e+00	0	42	0	2348810240	5	3676
2026-01-12 03:18:09.90	260.62	42.49	-21.9	-22.1	20.7	0.00e+00	0	42	0	2354053120	5	3696
2026-01-12 03:18:10.91	260.23	42.31	-21.9	-22.1	20.7	0.00e+00	0	42	0	2359296000	5	3699
2026-01-12 03:18:11.91	259.85	42.13	-22.0	-22.4	20.6	0.00e+00	0	41	0	2365587456	5	3757
2026-01-12 03:18:12.92	259.47	41.94	-22.2	-22.8	20.3	0.00e+00	0	42	0	2370830336	5	3854
2026-01-12 03:18:13.93	259.09	41.76	-22.3	-23.0	20.2	0.00e+00	0	42	0	2377121792	5	3895
2026-01-12 03:18:14.94	258.72	41.57	-22.5	-23.3	20.1	0.00e+00	0	42	0	2382364672	5	3971
2026-01-12 03:18:15.94	258.35	41.39	-22.8	-24.0	19.7	0.00e+00	0	42	0	2388656128	5	4142
2026-01-12 03:18:16.95	257.99	41.21	-22.8	-24.0	19.7	0.00e+00	0	42	0	2393899008	5	4129
2026-01-12 03:18:17.96	257.63	41.02	-22.9	-24.1	19.6	0.00e+00	0	42	0	2399141888	5	4173
2026-01-12 03:18:18.97	257.27	40.84	-22.5	-23.5	20.0	0.00e+00	0	42	0	2405433344	5	4008
2026-01-12 03:18:19.98	256.92	40.65	-22.4	-23.1	20.2	0.00e+00	0	42	0	2410676224	5	3915
2026-01-12 03:18:20.98	256.57	40.47	-22.4	-23.2	20.1	0.00e+00	0	42	0	2416967680	5	3932
2026-01-12 03:18:21.99	256.23	40.28	-22.3	-23.0	20.2	0.00e+00	0	42	0	2422210560	5	3896
2026-01-12 03:18:22.99	255.89	40.09	-22.6	-23.5	19.9	0.00e+00	0	42	0	2427453440	5	4025
2026-01-12 03:18:24.00	255.56	39.91	-22.5	-23.4	20.0	0.00e+00	0	42	0	2433744896	5	3995
2026-01-12 03:18:25.00	255.23	39.72	-22.4	-23.2	20.1	0.00e+00	0	42	0	2438987776	5	3953
2026-01-12 03:18:26.01	254.90	39.54	-22.4	-23.1	20.1	0.00e+00	0	42	0	2444230656	5	3930
2026-01-12 03:18:27.02	254.57	39.35	-22.4	-23.3	20.1	8.00e-06	0	42	0	2450522112	5	3962
2026-01-12 03:18:28.02	254.26	39.16	-22.2	-22.8	20.3	0.00e+00	0	42	0	2455764992	5	3859
2026-01-12 03:18:29.02	253.94	38.98	-22.3	-22.9	20.2	0.00e+00	0	42	0	2462056448	5	3884
2026-01-12 03:18:30.03	253.63	38.79	-22.7	-23.8	19.8	0.00e+00	0	42	0	2467299328	5	4096
2026-01-12 03:18:31.04	253.32	38.60	-22.5	-23.4	20.0	0.00e+00	0	42	0	2473590784	5	3992
2026-01-12 03:18:32.05	253.01	38.42	-22.2	-22.7	20.3	0.00e+00	0	42	0	2478833664	5	3841
2026-01-12 03:18:33.06	252.71	38.23	-22.0	-22.5	20.5	0.00e+00	0	42	0	2484076544	5	3774
2026-01-12 03:18:34.06	252.41	38.05	-22.0	-22.4	20.5	0.00e+00	0	42	0	2490368000	5	3757
2026-01-12 03:18:35.07	252.11	37.86	-22.3	-22.9	20.2	0.00e+00	0	42	0	2495610880	5	3885
2026-01-12 03:18:36.08	251.82	37.67	-22.0	-22.3	20.5	1.10e-06	0	42	0	2501902336	5	3738
2026-01-12 03:18:37.09	251.53	37.49	-21.9	-22.2	20.6	0.00e+00	0	42	0	2507145216	5	3722
2026-01-12 03:18:38.10	251.25	37.30	-22.1	-22.5	20.4	0.00e+00	0	42	0	2512388096	5	3784
2026-01-12 03:18:39.10	250.97	37.12	-22.0	-22.3	20.5	3.40e-06	0	42	0	2518679552	5	3745
2026-01-12 03:18:40.11	250.69	36.93	-22.0	-22.3	20.5	0.00e+00	0	42	0	2523922432	5	3744
2026-01-12 03:18:41.12	250.41	36.75	-22.1	-22.6	20.4	0.00e+00	0	42	0	2530213888	5	3805
2026-01-12 03:18:42.12	250.14	36.56	-22.1	-22.6	20.4	0.00e+00	0	42	0	2535456768	5	3816
2026-01-12 03:18:43.13	249.87	36.38	-22.1	-22.7	20.4	0.00e+00	0	42	0	2540699648	5	3823
2026-01-12 03:18:44.14	249.60	36.19	-22.3	-23.0	20.2	0.00e+00	0	42	0	2546991104	5	3898
2026-01-12 03:18:45.13	249.34	36.01	-22.2	-22.7	20.3	3.40e-06	0	42	0	2552233984	5	3841
2026-01-12 03:18:46.15	249.08	35.83	-22.1	-22.6	20.4	0.00e+00	0	42	0	2558525440	5	3800
2026-01-12 03:18:47.16	248.82	35.64	-22.1	-22.6	20.4	0.00e+00	0	42	0	2563768320	5	3799
2026-01-12 03:18:48.17	248.57	35.46	-22.2	-22.7	20.3	1.10e-06	0	42	0	2570059776	5	3824
2026-01-12 03:18:49.18	248.31	35.28	-21.9	-22.1	20.6	0.00e+00	0	42	0	2575302656	5	3685
2026-01-12 03:18:50.19	248.06	35.10	-21.9	-22.2	20.6	0.00e+00	0	42	0	2580545536	5	3709
2026-01-12 03:18:51.19	247.82	34.92	-22.1	-22.5	20.4	2.20e-06	0	42	0	2586836992	5	3778
2026-01-12 03:18:52.19	247.58	34.74	-22.0	-22.3	20.5	0.00e+00	0	42	0	2592079872	5	3750
2026-01-12 03:18:53.20	247.33	34.56	-22.1	-22.5	20.4	0.00e+00	0	42	0	2597322752	5	3787
2026-01-12 03:18:54.21	247.10	34.38	-22.1	-22.6	20.4	0.00e+00	0	42	0	2603614208	5	3806
2026-01-12 03:18:55.22	246.86	34.20	-22.2	-22.8	20.3	0.00e+00	0	42	0	2608857088	5	3847
2026-01-12 03:18:56.22	246.63	34.02	-22.4	-23.2	20.1	0.00e+00	0	42	0	2615148544	5	3946
2026-01-12 03:18:57.23	246.40	33.84	-22.4	-23.2	20.0	0.00e+00	0	42	0	2620391424	5	3955
2026-01-12 03:18:58.23	246.17	33.66	-22.7	-23.8	19.8	0.00e+00	0	42	0	2625634304	5	4088
2026-01-12 03:18:59.24	245.95	33.49	-22.5	-23.4	20.0	0.00e+00	0	42	0	2631925760	5	3991
2026-01-12 03:19:00.25	245.72	33.31	-22.4	-23.1	20.1	0.00e+00	0	42	0	2637168640	5	3935
2026-01-12 03:19:01.25	245.50	33.13	-22.3	-22.9	20.2	0.00e+00	0	42	0	2643460096	5	3878
2026-01-12 03:19:02.25	245.29	32.96	-22.2	-22.8	20.3	0.00e+00	0	42	0	2648702976	5	3855
2026-01-12 03:19:03.26	245.07	32.78	-22.2	-22.8	20.2	0.00e+00	0	42	0	2654994432	5	3859
2026-01-12 03:19:04.27	244.86	32.61	-22.4	-23.1	20.1	0.00e+00	0	42	0	2660237312	5	3918
2026-01-12 03:19:05.27	244.65	32.44	-22.4	-23.3	20.0	0.00e+00	0	41	0	2665480192	5	3963
2026-01-12 03:19:06.28	244.44	32.26	-22.6	-23.7	19.8	0.00e+00	0	42	0	2671771648	5	4065
2026-01-12 03:19:07.29	244.23	32.09	-22.7	-23.7	19.8	0.00e+00	0	42	0	2677014528	5	4079
2026-01-12 03:19:08.29	244.03	31.92	-22.8	-24.0	19.7	0.00e+00	0	42	0	2682257408	5	4136
2026-01-12 03:19:09.30	243.82	31.75	-22.9	-24.3	19.5	0.00e+00	0	42	0	2688548864	5	4222
2026-01-12 03:19:10.31	243.62	31.57	-23.0	-24.4	19.5	0.00e+00	0	42	0	2693791744	5	4235
2026-01-12 03:19:11.31	243.43	31.40	-23.0	-24.4	19.4	0.00e+00	0	42	0	2700083200	5	4254
2026-01-12 03:19:12.32	243.23	31.23	-23.2	-24.3	19.3	0.00e+00	0	42	0	2705326080	6	4094
2026-01-12 03:19:13.33	243.04	31.06	-23.3	-24.6	19.1	0.00e+00	0	42	0	2710568960	6	4163
2026-01-12 03:19:14.33	242.85	30.90	-23.0	-23.9	19.5	0.00e+00	0	42	0	2716860416	6	3999
2026-01-12 03:19:15.33	242.66	30.73	-22.8	-23.6	19.6	0.00e+00	0	42	0	2722103296	6	3927
2026-01-12 03:19:16.34	242.47	30.56	-22.7	-23.4	19.7	0.00e+00	0	42	0	2728394752	6	3883
2026-01-12 03:19:17.34	242.28	30.40	-22.7	-23.3	19.7	0.00e+00	0	42	0	2733637632	6	3866
2026-01-12 03:19:18.35	242.10	30.23	-22.7	-23.3	19.8	0.00e+00	0	42	0	2738880512	6	3853
2026-01-12 03:19:19.35	241.92	30.06	-22.9	-23.7	19.6	0.00e+00	0	42	0	2745171968	6	3947
2026-01-12 03:19:20.36	241.74	29.90	-22.8	-23.4	19.7	0.00e+00	0	42	0	2750414848	6	3897
2026-01-12 03:19:21.37	241.56	29.73	-22.8	-23.5	19.6	0.00e+00	0	42	0	2756706304	6	3922
2026-01-12 03:19:22.37	241.39	29.57	-23.0	-24.0	19.4	0.00e+00	0	41	0	2761949184	6	4039
2026-01-12 03:19:23.38	241.21	29.41	-22.8	-23.6	19.6	0.00e+00	0	42	0	2767192064	6	3938
2026-01-12 03:19:24.39	241.04	29.25	-22.8	-23.5	19.6	0.00e+00	0	42	0	2773483520	6	3913
2026-01-12 03:19:25.40	240.87	29.08	-22.8	-23.5	19.7	0.00e+00	0	42	0	2778726400	6	3898
2026-01-12 03:19:26.40	240.70	28.92	-22.6	-23.2	19.8	0.00e+00	0	42	0	2783969280	6	3825
2026-01-12 03:19:27.41	240.53	28.76	-22.8	-23.5	19.7	0.00e+00	0	42	0	2790260736	6	3895
2026-01-12 03:19:28.42	240.36	28.60	-23.1	-24.1	19.4	0.00e+00	0	42	0	2795503616	6	4045
2026-01-12 03:19:29.43	240.20	28.44	-23.0	-23.9	19.4	0.00e+00	0	42	0	2801795072	6	4015
2026-01-12 03:19:30.44	240.03	28.28	-23.1	-24.2	19.3	0.00e+00	0	42	0	2807037952	6	4073
2026-01-12 03:19:31.45	239.87	28.12	-23.1	-24.2	19.2	0.00e+00	0	42	0	2813329408	6	4087
2026-01-12 03:19:32.45	239.71	27.97	-23.2	-24.4	19.2	0.00e+00	0	42	0	2818572288	6	4121
2026-01-12 03:19:33.45	239.56	27.81	-23.1	-24.2	19.3	0.00e+00	0	42	0	2823815168	6	4070
2026-01-12 03:19:34.46	239.40	27.66	-23.2	-24.3	19.2	0.00e+00	0	42	0	2830106624	6	4090
2026-01-12 03:19:35.45	239.25	27.50	-23.3	-24.6	19.1	0.00e+00	0	42	0	2835349504	6	4171
2026-01-12 03:19:36.45	239.10	27.35	-23.4	-24.7	19.0	0.00e+00	0	42	0	2840592384	6	4198
2026-01-12 03:19:37.46	238.94	27.19	-23.2	-24.3	19.2	0.00e+00	0	42	0	2846883840	6	4104
2026-01-12 03:19:38.46	238.80	27.04	-23.1	-24.1	19.3	0.00e+00	0	42	0	2852126720	6	4060
2026-01-12 03:19:39.46	238.65	26.89	-23.0	-24.0	19.4	0.00e+00	0	42	0	2858418176	6	4016
2026-01-12 03:19:40.47	238.50	26.74	-23.0	-24.0	19.3	0.00e+00	0	42	0	2863661056	6	4038
2026-01-12 03:19:41.47	238.35	26.59	-23.0	-23.9	19.4	0.00e+00	0	42	0	2868903936	6	4011
2026-01-12 03:19:42.48	238.21	26.44	-22.9	-23.8	19.4	0.00e+00	0	42	0	2875195392	6	3974
2026-01-12 03:19:43.49	238.07	26.29	-23.0	-24.1	19.3	0.00e+00	0	42	0	2880438272	6	4043
2026-01-12 03:19:44.49	237.93	26.14	-23.1	-24.2	19.2	0.00e+00	0	42	0	2886729728	6	4073
2026-01-12 03:19:45.50	237.78	25.99	-22.9	-23.7	19.5	0.00e+00	0	42	0	2891972608	6	3957
2026-01-12 03:19:46.51	237.65	25.84	-22.8	-23.6	19.6	0.00e+00	0	42	0	2897215488	6	3925
2026-01-12 03:19:47.51	237.51	25.69	-23.1	-24.1	19.2	0.00e+00	0	42	0	2903506944	6	4066
2026-01-12 03:19:48.52	237.37	25.54	-23.2	-24.4	19.1	0.00e+00	0	42	0	2908749824	6	4120
2026-01-12 03:19:49.53	237.24	25.40	-23.1	-24.1	19.3	0.00e+00	0	42	0	2915041280	6	4045
2026-01-12 03:19:50.53	237.10	25.25	-23.1	-24.1	19.3	2.20e-06	0	42	0	2920284160	6	4048
2026-01-12 03:19:51.54	236.97	25.11	-23.0	-23.9	19.4	0.00e+00	0	42	0	2925527040	6	3994
2026-01-12 03:19:52.55	236.84	24.96	-23.1	-24.2	19.2	0.00e+00	0	42	0	2931818496	6	4077
2026-01-12 03:19:53.55	236.71	24.82	-23.1	-24.2	19.2	0.00e+00	0	42	0	2937061376	6	4080
2026-01-12 03:19:54.55	236.58	24.68	-23.2	-24.4	19.1	0.00e+00	0	42	0	2942304256	6	4128
2026-01-12 03:19:55.56	236.45	24.53	-23.3	-24.5	19.1	0.00e+00	0	42	0	2948595712	6	4153
2026-01-12 03:19:56.57	236.32	24.39	-23.1	-24.1	19.2	3.40e-06	0	42	0	2953838592	6	4058
2026-01-12 03:19:57.57	236.20	24.25	-23.0	-24.0	19.3	0.00e+00	0	42	0	2960130048	6	4020
2026-01-12 03:19:58.57	236.08	24.11	-23.0	-24.0	19.3	0.00e+00	0	42	0	2965372928	6	4026
2026-01-12 03:19:59.57	235.95	23.97	-23.0	-24.1	19.3	0.00e+00	0	42	0	2971664384	6	4049
2026-01-12 03:20:00.58	235.83	23.83	-23.0	-24.1	19.3	0.00e+00	0	42	0	2976907264	6	4044
2026-01-12 03:20:01.58	235.71	23.69	-23.1	-24.1	19.2	0.00e+00	0	42	0	2982150144	6	4048
2026-01-12 03:20:02.59	235.59	23.55	-23.0	-24.0	19.3	0.00e+00	0	42	0	2988441600	6	4024
2026-01-12 03:20:03.59	235.47	23.42	-23.0	-24.0	19.3	0.00e+00	0	42	0	2993684480	6	4021
2026-01-12 03:20:04.60	235.35	23.28	-23.0	-23.9	19.3	0.00e+00	0	42	0	2998927360	6	4009
2026-01-12 03:20:05.61	235.24	23.14	-23.1	-24.1	19.2	0.00e+00	0	42	0	3005218816	6	4048
2026-01-12 03:20:06.61	235.12	23.01	-23.1	-24.1	19.2	0.00e+00	0	42	0	3010461696	6	4056
2026-01-12 03:20:07.62	235.01	22.87	-23.2	-24.3	19.1	0.00e+00	0	42	0	3016753152	6	4096
2026-01-12 03:20:08.63	234.89	22.74	-23.2	-24.4	19.1	1.10e-06	0	42	0	3021996032	6	4134
2026-01-12 03:20:09.63	234.78	22.60	-23.3	-24.5	19.0	0.00e+00	0	42	0	3027238912	6	4153
2026-01-12 03:20:10.64	234.67	22.47	-23.3	-24.6	19.0	0.00e+00	0	42	0	3033530368	6	4170
2026-01-12 03:20:11.65	234.56	22.33	-23.3	-24.6	19.0	0.00e+00	0	42	0	3038773248	6	4166
2026-01-12 03:20:12.65	234.45	22.20	-23.4	-24.8	18.8	0.00e+00	0	42	0	3045064704	6	4236
2026-01-12 03:20:13.66	234.34	22.07	-23.4	-24.4	18.8	0.00e+00	0	42	0	3050307584	7	4018
2026-01-12 03:20:14.67	234.23	21.94	-23.3	-24.1	18.9	0.00e+00	0	42	0	3056599040	7	3956
2026-01-12 03:20:15.68	234.12	21.81	-23.3	-24.1	18.9	0.00e+00	0	42	0	3061841920	7	3952
2026-01-12 03:20:16.68	234.02	21.68	-23.3	-24.1	18.9	0.00e+00	0	42	0	3067084800	7	3943
2026-01-12 03:20:17.69	233.91	21.55	-23.3	-24.1	18.9	0.00e+00	0	42	0	3073376256	7	3934
2026-01-12 03:20:18.70	233.81	21.42	-23.4	-24.3	18.8	0.00e+00	0	42	0	3078619136	7	3981
2026-01-12 03:20:19.70	233.71	21.29	-23.3	-24.1	18.9	0.00e+00	0	42	0	3083862016	7	3951
2026-01-12 03:20:20.71	233.60	21.16	-23.2	-24.0	19.0	0.00e+00	0	42	0	3090153472	7	3917
2026-01-12 03:20:21.71	233.50	21.03	-23.3	-24.1	18.9	0.00e+00	0	42	0	3095396352	7	3938
2026-01-12 03:20:22.72	233.40	20.91	-23.3	-24.0	18.9	0.00e+00	0	42	0	3101687808	7	3919
2026-01-12 03:20:23.73	233.30	20.78	-23.3	-24.0	18.9	0.00e+00	0	42	0	3106930688	7	3930
2026-01-12 03:20:24.73	233.20	20.66	-23.3	-24.0	18.9	0.00e+00	0	42	0	3112173568	7	3925
2026-01-12 03:20:25.74	233.10	20.53	-23.3	-24.2	18.8	0.00e+00	0	42	0	3118465024	7	3965
2026-01-12 03:20:26.74	233.01	20.41	-23.4	-24.2	18.8	0.00e+00	0	42	0	3123707904	7	3982
2026-01-12 03:20:27.75	232.91	20.28	-23.4	-24.4	18.7	0.00e+00	0	42	0	3129999360	7	4019
2026-01-12 03:20:28.75	232.82	20.16	-23.5	-24.5	18.7	0.00e+00	0	42	0	3135242240	7	4032
2026-01-12 03:20:29.76	232.72	20.03	-23.6	-24.6	18.6	0.00e+00	0	42	0	3141533696	7	4079
2026-01-12 03:20:30.77	232.63	19.91	-23.6	-24.8	18.5	0.00e+00	0	42	0	3146776576	7	4125
2026-01-12 03:20:31.78	232.53	19.79	-23.7	-24.9	18.4	0.00e+00	0	42	0	3152019456	7	4133
2026-01-12 03:20:32.78	232.44	19.67	-23.8	-25.2	18.3	0.00e+00	0	42	0	3158310912	7	4213
2026-01-12 03:20:33.79	232.35	19.55	-23.8	-25.1	18.3	0.00e+00	0	42	0	3163553792	7	4193
2026-01-12 03:20:34.80	232.26	19.42	-23.9	-25.3	18.2	0.00e+00	0	42	0	3168796672	7	4244
2026-01-12 03:20:35.80	232.17	19.31	-23.9	-25.3	18.2	0.00e+00	0	42	0	3175088128	7	4259
2026-01-12 03:20:36.81	232.08	19.19	-23.9	-25.5	18.1	0.00e+00	0	42	0	3180331008	7	4289
2026-01-12 03:20:37.81	231.99	19.07	-24.1	-25.2	18.0	0.00e+00	0	42	0	3186622464	8	4118
2026-01-12 03:20:38.82	231.90	18.95	-24.3	-25.8	17.7	0.00e+00	0	42	0	3191865344	8	4261
2026-01-12 03:20:39.83	231.81	18.83	-24.3	-25.7	17.8	0.00e+00	0	42	0	3197108224	8	4236
2026-01-12 03:20:40.84	231.72	18.71	-24.5	-26.1	17.5	0.00e+00	0	42	0	3203399680	8	4352
2026-01-12 03:20:41.85	231.64	18.59	-24.3	-25.3	17.7	0.00e+00	0	42	0	3208642560	9	4037
2026-01-12 03:20:42.85	231.55	18.48	-24.3	-25.3	17.7	0.00e+00	0	42	0	3214934016	9	4031
2026-01-12 03:20:43.86	231.47	18.36	-24.4	-25.4	17.6	0.00e+00	0	42	0	3220176896	9	4061
2026-01-12 03:20:44.86	231.38	18.25	-24.4	-25.6	17.6	0.00e+00	0	42	0	3226468352	9	4093
2026-01-12 03:20:45.88	231.30	18.13	-24.4	-25.4	17.6	0.00e+00	0	42	0	3231711232	9	4062
2026-01-12 03:20:46.88	231.22	18.02	-24.3	-25.3	17.7	0.00e+00	0	42	0	3236954112	9	4028
2026-01-12 03:20:47.89	231.13	17.90	-24.4	-25.4	17.6	0.00e+00	0	42	0	3243245568	9	4057
2026-01-12 03:20:48.90	231.05	17.79	-24.3	-25.3	17.7	0.00e+00	0	42	0	3248488448	9	4016
2026-01-12 03:20:49.90	230.97	17.67	-24.2	-25.1	17.8	0.00e+00	0	42	0	3253731328	9	3975
2026-01-12 03:20:50.91	230.89	17.56	-24.2	-24.9	17.8	0.00e+00	0	42	0	3260022784	9	3932
2026-01-12 03:20:51.91	230.81	17.45	-24.3	-25.2	17.7	0.00e+00	0	42	0	3265265664	9	3992
2026-01-12 03:20:52.93	230.73	17.34	-24.2	-25.1	17.8	0.00e+00	0	42	0	3271557120	9	3968
2026-01-12 03:20:53.93	230.65	17.22	-24.3	-25.1	17.7	0.00e+00	0	42	0	3276800000	9	3974
2026-01-12 03:20:54.94	230.58	17.11	-24.4	-25.4	17.6	0.00e+00	0	42	0	3282042880	9	4037
2026-01-12 03:20:55.95	230.50	17.00	-24.3	-25.2	17.7	0.00e+00	0	42	0	3288334336	9	4006
2026-01-12 03:20:56.95	230.42	16.89	-24.3	-25.3	17.6	0.00e+00	0	42	0	3293577216	9	4025
2026-01-12 03:20:57.96	230.34	16.78	-24.4	-25.4	17.5	0.00e+00	0	42	0	3299868672	9	4056
2026-01-12 03:20:58.97	230.27	16.67	-24.4	-25.5	17.5	0.00e+00	0	42	0	3305111552	9	4082
2026-01-12 03:20:59.97	230.19	16.56	-24.5	-25.6	17.5	0.00e+00	0	42	0	3311403008	9	4091
2026-01-12 03:21:00.98	230.12	16.46	-24.5	-25.7	17.4	0.00e+00	0	42	0	3316645888	9	4117
2026-01-12 03:21:01.99	230.05	16.35	-24.5	-25.7	17.4	0.00e+00	0	42	0	3321888768	9	4112
2026-01-12 03:21:02.99	229.97	16.24	-24.6	-26.0	17.3	0.00e+00	0	42	0	3328180224	9	4189
2026-01-12 03:21:04.00	229.90	16.13	-24.6	-25.8	17.3	0.00e+00	0	42	0	3333423104	9	4147
2026-01-12 03:21:05.01	229.83	16.03	-24.5	-25.8	17.4	0.00e+00	0	42	0	3338665984	9	4135
2026-01-12 03:21:06.01	229.76	15.92	-24.5	-25.7	17.4	0.00e+00	0	42	0	3344957440	9	4124
2026-01-12 03:21:07.01	229.68	15.81	-24.7	-26.0	17.2	0.00e+00	0	42	0	3350200320	9	4199
2026-01-12 03:21:08.02	229.61	15.71	-24.6	-25.8	17.3	0.00e+00	0	42	0	3356491776	9	4152
2026-01-12 03:21:09.02	229.54	15.60	-24.6	-25.9	17.3	0.00e+00	0	42	0	3361734656	9	4172
2026-01-12 03:21:10.03	229.47	15.50	-24.9	-26.5	16.9	0.00e+00	0	42	0	3366977536	9	4338
2026-01-12 03:21:11.04	229.40	15.39	-24.8	-26.2	17.1	0.00e+00	0	42	0	3373268992	9	4251
2026-01-12 03:21:12.05	229.34	15.29	-24.7	-26.1	17.1	0.00e+00	0	42	0	3378511872	9	4222
2026-01-12 03:21:13.06	229.27	15.19	-24.8	-26.3	17.0	0.00e+00	0	42	0	3384803328	9	4283
2026-01-12 03:21:14.06	229.20	15.08	-24.8	-26.4	17.0	0.00e+00	0	42	0	3390046208	9	4303
2026-01-12 03:21:15.07	229.13	14.98	-25.0	-26.7	16.8	0.00e+00	0	42	0	3396337664	9	4377
2026-01-12 03:21:16.08	229.07	14.88	-25.0	-26.2	16.8	0.00e+00	0	42	0	3401580544	10	4147
2026-01-12 03:21:17.09	229.00	14.78	-25.0	-26.3	16.7	0.00e+00	0	42	0	3406823424	10	4162
2026-01-12 03:21:18.09	228.93	14.68	-25.1	-26.5	16.6	0.00e+00	0	42	0	3413114880	10	4220
2026-01-12 03:21:19.09	228.87	14.57	-25.1	-26.5	16.6	0.00e+00	0	42	0	3418357760	10	4232
2026-01-12 03:21:20.10	228.80	14.47	-25.2	-26.7	16.5	0.00e+00	0	42	0	3423600640	10	4288
2026-01-12 03:21:21.11	228.74	14.37	-25.3	-26.9	16.4	0.00e+00	0	42	0	3429892096	10	4342
2026-01-12 03:21:22.12	228.67	14.27	-25.4	-27.1	16.3	0.00e+00	0	42	0	3435134976	10	4386
2026-01-12 03:21:23.12	228.61	14.17	-25.4	-27.1	16.3	0.00e+00	0	42	0	3441426432	10	4403
2026-01-12 03:21:24.13	228.55	14.07	-25.4	-27.1	16.3	0.00e+00	0	42	0	3446669312	10	4390
2026-01-12 03:21:25.13	228.49	13.98	-25.6	-27.0	16.0	0.00e+00	0	42	0	3451912192	11	4259
2026-01-12 03:21:26.14	228.42	13.88	-25.9	-27.7	15.7	0.00e+00	0	42	0	3458203648	11	4434
2026-01-12 03:21:27.15	228.36	13.78	-25.6	-27.2	16.0	0.00e+00	0	42	0	3463446528	11	4293
2026-01-12 03:21:28.16	228.30	13.68	-25.7	-27.2	15.9	0.00e+00	0	42	0	3469737984	11	4301
2026-01-12 03:21:29.16	228.24	13.58	-25.7	-27.4	15.8	0.00e+00	0	42	0	3474980864	11	4345
2026-01-12 03:21:30.16	228.18	13.49	-25.6	-27.2	15.9	0.00e+00	0	42	0	3481272320	11	4290
2026-01-12 03:21:31.17	228.12	13.39	-25.7	-27.2	15.9	0.00e+00	0	42	0	3486515200	11	4300
2026-01-12 03:21:32.17	228.06	13.29	-25.6	-27.2	15.9	0.00e+00	0	42	0	3491758080	11	4287
2026-01-12 03:21:33.18	228.00	13.20	-25.8	-27.5	15.7	0.00e+00	0	42	0	3498049536	11	4374
2026-01-12 03:21:34.19	227.94	13.10	-25.9	-27.3	15.5	0.00e+00	0	42	0	3503292416	12	4211
2026-01-12 03:21:35.20	227.88	13.01	-25.7	-26.8	15.7	0.00e+00	0	42	0	3508535296	12	4098
2026-01-12 03:21:36.20	227.82	12.91	-25.5	-26.3	16.0	0.00e+00	0	42	0	3514826752	12	3950
2026-01-12 03:21:37.21	227.77	12.82	-25.4	-26.2	16.1	0.00e+00	0	42	0	3520069632	12	3925
2026-01-12 03:21:38.21	227.71	12.72	-25.5	-26.4	15.9	0.00e+00	0	42	0	3525312512	12	3992
2026-01-12 03:21:39.22	227.65	12.63	-25.4	-26.2	16.1	0.00e+00	0	42	0	3531603968	12	3936
2026-01-12 03:21:40.22	227.60	12.54	-25.6	-26.6	15.8	0.00e+00	0	42	0	3536846848	12	4027
2026-01-12 03:21:41.23	227.54	12.44	-25.4	-26.2	16.1	0.00e+00	0	42	0	3543138304	12	3920
2026-01-12 03:21:42.24	227.48	12.35	-25.4	-26.0	16.2	0.00e+00	0	42	0	3548381184	12	3891
2026-01-12 03:21:43.24	227.43	12.26	-25.3	-26.0	16.2	0.00e+00	0	42	0	3554672640	12	3880
2026-01-12 03:21:44.25	227.37	12.16	-25.3	-26.5	16.2	0.00e+00	0	42	0	3559915520	11	4103
2026-01-12 03:21:45.25	227.32	12.07	-25.5	-26.9	16.0	0.00e+00	0	42	0	3565158400	11	4208
2026-01-12 03:21:46.26	227.26	11.98	-25.4	-26.7	16.1	0.00e+00	0	42	0	3571449856	11	4156
2026-01-12 03:21:47.26	227.21	11.89	-25.5	-26.9	16.0	0.00e+00	0	42	0	3576692736	11	4225
2026-01-12 03:21:48.27	227.16	11.80	-25.7	-27.2	15.8	0.00e+00	0	42	0	3582984192	11	4298
2026-01-12 03:21:49.28	227.10	11.71	-25.6	-27.0	15.9	0.00e+00	0	42	0	3588227072	11	4232
2026-01-12 03:21:50.28	227.05	11.62	-25.5	-26.8	16.0	0.00e+00	0	42	0	3593469952	11	4200
2026-01-12 03:21:51.29	227.00	11.53	-25.5	-27.0	15.9	0.00e+00	0	42	0	3599761408	11	4237
2026-01-12 03:21:52.29	226.95	11.44	-25.6	-27.0	15.9	0.00e+00	0	42	0	3605004288	11	4249
2026-01-12 03:21:53.29	226.89	11.35	-25.7	-27.4	15.7	0.00e+00	0	42	0	3610247168	11	4345
2026-01-12 03:21:54.30	226.84	11.26	-25.7	-27.2	15.8	0.00e+00	0	42	0	3616538624	11	4292
2026-01-12 03:21:55.30	226.79	11.17	-25.8	-27.5	15.6	0.00e+00	0	42	0	3621781504	11	4383
2026-01-12 03:21:56.31	226.74	11.08	-25.7	-27.3	15.7	0.00e+00	0	42	0	3628072960	11	4330
2026-01-12 03:21:57.32	226.69	10.99	-25.7	-27.3	15.7	0.00e+00	0	42	0	3633315840	11	4317
2026-01-12 03:21:58.33	226.64	10.90	-25.8	-27.5	15.6	0.00e+00	0	42	0	3639607296	11	4370
2026-01-12 03:21:59.34	226.59	10.82	-25.9	-27.7	15.5	0.00e+00	0	42	0	3644850176	11	4429
2026-01-12 03:22:00.35	226.54	10.73	-25.8	-27.1	15.4	0.00e+00	0	42	0	3650093056	12	4181
2026-01-12 03:22:01.36	226.49	10.64	-25.7	-26.9	15.6	0.00e+00	0	42	0	3656384512	12	4106
2026-01-12 03:22:02.37	226.44	10.55	-25.7	-26.8	15.6	0.00e+00	0	42	0	3661627392	12	4097
2026-01-12 03:22:03.37	226.39	10.47	-25.9	-27.2	15.4	0.00e+00	0	42	0	3667918848	12	4197
2026-01-12 03:22:04.38	226.34	10.38	-25.9	-27.3	15.3	0.00e+00	0	42	0	3673161728	12	4227
2026-01-12 03:22:05.39	226.29	10.30	-26.1	-27.6	15.1	0.00e+00	0	42	0	3678404608	12	4321
2026-01-12 03:22:06.40	226.25	10.21	-25.9	-27.3	15.3	0.00e+00	0	42	0	3684696064	12	4214
2026-01-12 03:22:07.41	226.20	10.12	-25.9	-27.2	15.3	0.00e+00	0	42	0	3689938944	12	4210
2026-01-12 03:22:08.41	226.15	10.04	-25.8	-27.2	15.4	0.00e+00	0	42	0	3695181824	12	4193
2026-01-12 03:22:09.42	226.10	9.95	-25.9	-27.3	15.3	0.00e+00	0	42	0	3701473280	12	4226
2026-01-12 03:22:10.43	226.06	9.87	-25.9	-27.3	15.3	0.00e+00	0	42	0	3706716160	12	4234
2026-01-12 03:22:11.43	226.01	9.78	-26.0	-27.5	15.2	1.10e-06	0	42	0	3713007616	12	4282
2026-01-12 03:22:12.44	225.97	9.70	-26.0	-27.4	15.2	0.00e+00	0	42	0	3718250496	12	4256
2026-01-12 03:22:13.45	225.92	9.62	-25.9	-27.4	15.2	0.00e+00	0	42	0	3724541952	12	4246
2026-01-12 03:22:14.45	225.87	9.53	-26.0	-27.6	15.1	0.00e+00	0	42	0	3729784832	12	4299
2026-01-12 03:22:15.45	225.83	9.45	-26.1	-27.8	15.0	0.00e+00	0	42	0	3735027712	12	4348
2026-01-12 03:22:16.46	225.78	9.37	-26.0	-27.5	15.1	0.00e+00	0	42	0	3741319168	12	4263
2026-01-12 03:22:17.46	225.74	9.28	-26.1	-27.6	15.1	0.00e+00	0	42	0	3746562048	12	4318
2026-01-12 03:22:18.47	225.69	9.20	-26.0	-27.5	15.1	0.00e+00	0	42	0	3752853504	12	4292
2026-01-12 03:22:19.48	225.65	9.12	-26.0	-27.5	15.1	0.00e+00	0	42	0	3758096384	12	4281
2026-01-12 03:22:20.49	225.61	9.04	-26.1	-27.7	15.0	0.00e+00	0	42	0	3763339264	12	4334
2026-01-12 03:22:21.49	225.56	8.96	-26.0	-27.6	15.0	0.00e+00	0	42	0	3769630720	12	4317
2026-01-12 03:22:22.50	225.52	8.87	-26.1	-27.7	15.0	0.00e+00	0	42	0	3774873600	12	4342
2026-01-12 03:22:23.51	225.48	8.79	-26.1	-27.8	14.9	0.00e+00	0	42	0	3780116480	12	4366
2026-01-12 03:22:24.51	225.43	8.71	-26.1	-27.7	14.9	0.00e+00	0	42	0	3786407936	12	4344
2026-01-12 03:22:25.51	225.39	8.63	-26.1	-27.7	14.9	0.00e+00	0	42	0	3791650816	12	4349
2026-01-12 03:22:26.51	225.35	8.55	-26.2	-27.9	14.8	0.00e+00	0	42	0	3797942272	12	4393
2026-01-12 03:22:27.52	225.31	8.47	-26.2	-27.9	14.8	0.00e+00	0	42	0	3803185152	12	4398
2026-01-12 03:22:28.53	225.26	8.39	-26.2	-28.0	14.8	0.00e+00	0	42	0	3809476608	12	4412
2026-01-12 03:22:29.54	225.22	8.31	-26.2	-28.0	14.7	0.00e+00	0	42	0	3814719488	12	4425
2026-01-12 03:22:30.54	225.18	8.23	-26.3	-28.1	14.7	0.00e+00	0	42	0	3819962368	12	4460
2026-01-12 03:22:31.55	225.14	8.15	-26.2	-28.0	14.7	0.00e+00	0	42	0	3826253824	12	4433
2026-01-12 03:22:32.55	225.10	8.07	-26.3	-28.2	14.6	0.00e+00	0	42	0	3831496704	12	4495
2026-01-12 03:22:33.56	225.06	7.99	-26.3	-28.1	14.6	0.00e+00	0	42	0	3836739584	12	4472
2026-01-12 03:22:34.56	225.02	7.92	-26.3	-28.1	14.6	0.00e+00	0	42	0	3843031040	12	4470
2026-01-12 03:22:35.57	224.98	7.84	-26.4	-28.4	14.5	0.00e+00	0	42	0	3848273920	12	4545
2026-01-12 03:22:36.58	224.94	7.76	-26.4	-28.6	14.3	1.10e-06	0	42	0	3854565376	12	4597
2026-01-12 03:22:37.59	224.90	7.68	-26.4	-28.5	14.4	2.20e-06	0	42	0	3859808256	12	4575
2026-01-12 03:22:38.59	224.86	7.60	-26.6	-28.4	14.1	0.00e+00	0	42	0	3865051136	13	4432
2026-01-12 03:22:39.60	224.82	7.53	-26.9	-29.1	13.7	3.40e-06	0	42	0	3871342592	13	4644
2026-01-12 03:22:40.60	224.78	7.45	-26.9	-28.5	13.8	3.40e-06	0	42	0	3876585472	14	4344
