passes_logs/2026/01/12/R2M6_AANII_01/R2M6_AANII_01__20260112_034451_AQUA_rec.log

#Pass ID: 20260112_034451_AQUA
#Satellite: AQUA
#Configuration: AQUA
#almurnet v.1.7.20240730
#Start time: 2026-01-12 03:44:52

#Version: 2.2.20231116
#Station: R2M6_AANII_01
#Location: 30.233357 lon 59.946436 lat
#TLE: 1 27424U 02022A   26011.34052177  .00001139  00000+0  23789-3 0  9999
#TLE: 2 27424  98.4078 337.7066 0002035  82.6124  44.5301 14.61815662260355

#Time	Az	El	Level	Level2	SNR	BER	BlckErr	Temp	State	Recorded	gain1	gain2
2026-01-12 03:44:52.40	5.94	7.06	-32.4	-48.4	3.8	7.44e-01	0	39	0	0	26	22879
2026-01-12 03:44:53.41	5.83	7.13	-32.1	-47.1	3.8	7.46e-01	0	39	104	0	26	20341
2026-01-12 03:44:54.42	5.72	7.19	-32.1	-47.1	3.8	7.42e-01	0	39	104	0	26	20386
2026-01-12 03:44:55.42	5.62	7.26	-32.0	-46.9	3.8	7.43e-01	0	39	104	0	26	19935
2026-01-12 03:44:56.44	5.51	7.33	-32.1	-47.4	3.8	7.45e-01	0	39	104	0	26	20750
2026-01-12 03:44:57.44	5.40	7.40	-32.2	-47.8	3.8	7.42e-01	0	39	104	0	26	21491
2026-01-12 03:44:58.45	5.29	7.46	-32.2	-47.8	3.8	7.44e-01	0	39	104	0	26	21544
2026-01-12 03:44:59.45	5.18	7.53	-32.0	-46.7	3.8	7.45e-01	0	39	104	0	26	19533
2026-01-12 03:45:00.46	5.07	7.60	-31.8	-46.5	3.8	7.47e-01	0	39	104	0	25	19525
2026-01-12 03:45:01.47	4.96	7.67	-31.5	-45.4	3.8	7.45e-01	0	39	104	0	25	17777
2026-01-12 03:45:02.47	4.85	7.73	-31.1	-44.6	3.8	7.45e-01	0	40	104	0	24	16869
2026-01-12 03:45:03.48	4.73	7.80	-30.9	-43.8	3.8	7.44e-01	0	39	104	0	24	15834
2026-01-12 03:45:04.49	4.62	7.87	-31.0	-44.0	3.8	7.46e-01	0	39	104	0	24	16075
2026-01-12 03:45:05.49	4.51	7.94	-31.3	-45.2	3.8	7.43e-01	0	39	104	0	24	17728
2026-01-12 03:45:06.50	4.39	8.01	-31.2	-44.6	3.8	7.44e-01	0	40	104	0	24	16898
2026-01-12 03:45:07.51	4.28	8.08	-31.1	-44.5	3.8	7.41e-01	0	40	104	0	24	16784
2026-01-12 03:45:08.51	4.16	8.15	-30.8	-44.0	3.8	7.47e-01	0	40	104	0	23	16418
2026-01-12 03:45:09.52	4.05	8.21	-30.6	-43.4	3.8	7.43e-01	0	40	104	0	23	15724
2026-01-12 03:45:10.52	3.93	8.28	-30.6	-43.4	3.8	7.44e-01	0	40	104	0	23	15711
2026-01-12 03:45:11.53	3.81	8.35	-30.7	-43.6	3.8	7.42e-01	0	40	104	0	23	15892
2026-01-12 03:45:12.54	3.69	8.42	-30.9	-44.4	3.8	7.45e-01	0	40	104	0	23	16963
2026-01-12 03:45:13.55	3.57	8.49	-31.2	-45.4	3.8	7.45e-01	0	40	104	0	23	18272
2026-01-12 03:45:14.55	3.46	8.56	-31.5	-46.1	3.8	7.45e-01	0	40	104	0	23	19425
2026-01-12 03:45:15.56	3.34	8.63	-31.8	-46.9	3.8	7.48e-01	0	40	104	0	24	20471
2026-01-12 03:45:16.56	3.22	8.70	-32.1	-47.8	3.8	7.45e-01	0	40	104	0	24	21954
2026-01-12 03:45:17.56	3.10	8.77	-32.1	-47.6	3.8	7.47e-01	0	40	104	0	25	21447
2026-01-12 03:45:18.57	2.97	8.84	-32.2	-47.8	3.8	7.44e-01	0	40	104	0	25	21763
2026-01-12 03:45:19.58	2.85	8.91	-32.2	-48.1	3.8	7.46e-01	0	40	104	0	25	22430
2026-01-12 03:45:20.58	2.73	8.98	-32.3	-48.4	3.8	7.43e-01	0	40	104	0	25	22982
2026-01-12 03:45:21.59	2.60	9.05	-32.4	-48.7	3.8	7.41e-01	0	40	104	0	25	23494
2026-01-12 03:45:22.60	2.48	9.12	-32.5	-49.1	3.8	7.44e-01	0	40	104	0	25	24321
2026-01-12 03:45:23.60	2.36	9.19	-32.6	-49.6	3.8	7.43e-01	0	40	104	0	25	25670
2026-01-12 03:45:24.61	2.23	9.26	-32.7	-49.8	3.8	7.45e-01	0	40	104	0	26	25737
2026-01-12 03:45:25.61	2.10	9.33	-32.8	-50.3	3.8	7.45e-01	0	40	104	0	26	26890
2026-01-12 03:45:26.62	1.98	9.40	-32.9	-50.9	3.8	7.43e-01	0	40	104	0	26	28564
2026-01-12 03:45:27.63	1.85	9.47	-33.0	-51.3	3.8	7.44e-01	0	40	104	0	26	29553
2026-01-12 03:45:28.63	1.72	9.54	-33.0	-51.2	3.8	7.40e-01	0	40	104	0	26	29434
2026-01-12 03:45:29.64	1.59	9.61	-32.9	-50.8	3.8	7.42e-01	0	40	104	0	26	28168
2026-01-12 03:45:30.64	1.46	9.68	-32.9	-50.8	3.8	7.44e-01	0	40	104	0	26	28223
2026-01-12 03:45:31.65	1.33	9.75	-32.9	-50.7	3.8	7.48e-01	0	40	104	0	26	27959
2026-01-12 03:45:32.65	1.20	9.82	-32.9	-50.4	3.8	7.46e-01	0	40	104	0	26	27053
2026-01-12 03:45:33.66	1.07	9.89	-32.8	-49.9	3.8	7.42e-01	0	40	104	0	26	25936
2026-01-12 03:45:34.67	0.93	9.96	-32.8	-49.7	3.8	7.44e-01	0	40	104	0	26	25250
2026-01-12 03:45:35.68	0.80	10.04	-32.7	-49.5	3.8	7.45e-01	0	40	104	0	26	24765
2026-01-12 03:45:36.69	0.67	10.11	-32.6	-49.1	3.8	7.43e-01	0	40	104	0	26	23937
2026-01-12 03:45:37.70	0.53	10.18	-32.5	-48.4	3.8	7.48e-01	0	40	104	0	26	22391
2026-01-12 03:45:38.70	0.40	10.25	-32.3	-47.4	3.8	7.47e-01	0	40	104	0	26	20538
2026-01-12 03:45:39.71	0.26	10.32	-32.1	-46.5	3.8	7.39e-01	0	40	104	0	26	19031
2026-01-12 03:45:40.71	0.12	10.39	-31.8	-46.0	3.8	7.43e-01	0	40	104	0	25	18446
2026-01-12 03:45:41.72	359.98	10.46	-31.4	-44.8	3.8	7.48e-01	0	40	104	0	25	16809
2026-01-12 03:45:42.73	359.85	10.54	-31.3	-44.8	3.8	7.45e-01	0	40	104	0	24	16976
2026-01-12 03:45:43.73	359.71	10.61	-31.4	-45.0	3.8	7.44e-01	0	40	104	0	24	17289
2026-01-12 03:45:44.74	359.57	10.68	-31.4	-45.0	3.8	7.47e-01	0	40	104	0	24	17353
2026-01-12 03:45:45.74	359.43	10.75	-31.5	-45.5	3.8	7.45e-01	0	41	104	0	24	18050
2026-01-12 03:45:46.75	359.28	10.82	-31.6	-45.9	3.8	7.44e-01	0	40	104	0	24	18515
2026-01-12 03:45:47.75	359.14	10.90	-31.8	-46.6	3.8	7.44e-01	0	40	104	0	24	19636
2026-01-12 03:45:48.76	359.00	10.97	-31.7	-46.1	3.8	7.43e-01	0	40	104	0	24	18930
2026-01-12 03:45:49.77	358.85	11.04	-31.4	-45.1	3.8	7.47e-01	0	40	104	0	24	17380
2026-01-12 03:45:50.78	358.71	11.11	-31.2	-44.3	3.8	7.45e-01	0	40	104	0	24	16290
2026-01-12 03:45:51.79	358.56	11.19	-31.0	-43.8	3.8	7.45e-01	0	41	104	0	24	15762
2026-01-12 03:45:52.80	358.42	11.26	-30.8	-43.8	3.8	7.44e-01	0	40	104	0	23	16097
2026-01-12 03:45:53.80	358.27	11.33	-31.0	-44.4	3.8	7.47e-01	0	40	104	0	23	16774
2026-01-12 03:45:54.80	358.12	11.40	-31.3	-45.2	3.8	7.41e-01	0	40	104	0	23	17842
2026-01-12 03:45:55.80	357.98	11.48	-31.7	-46.0	3.8	7.46e-01	0	40	104	0	24	18654
2026-01-12 03:45:56.81	357.83	11.55	-31.5	-45.4	3.8	7.42e-01	0	40	104	0	24	17802
2026-01-12 03:45:57.82	357.67	11.62	-31.2	-44.6	3.8	7.44e-01	0	41	104	0	24	16747
2026-01-12 03:45:58.83	357.52	11.70	-31.1	-44.1	3.8	7.42e-01	0	41	104	0	24	16141
2026-01-12 03:45:59.84	357.37	11.77	-30.9	-43.6	3.8	7.43e-01	0	41	104	0	24	15454
2026-01-12 03:46:00.84	357.22	11.84	-31.0	-43.8	3.8	7.44e-01	0	41	104	0	24	15711
2026-01-12 03:46:01.85	357.06	11.91	-31.2	-44.5	3.8	7.45e-01	0	41	104	0	24	16578
2026-01-12 03:46:02.86	356.91	11.99	-31.6	-45.7	3.8	7.43e-01	0	41	104	0	24	18306
2026-01-12 03:46:03.87	356.75	12.06	-31.8	-46.5	3.8	7.45e-01	0	41	104	0	24	19550
2026-01-12 03:46:04.88	356.60	12.13	-32.2	-47.2	3.8	7.44e-01	0	41	104	0	25	20379
2026-01-12 03:46:05.88	356.44	12.21	-32.4	-48.0	3.8	7.46e-01	0	41	104	0	25	21902
2026-01-12 03:46:06.89	356.28	12.28	-32.5	-48.8	3.8	7.45e-01	0	41	104	0	25	23484
2026-01-12 03:46:07.90	356.12	12.35	-32.5	-48.8	3.8	7.47e-01	0	41	104	0	25	23518
2026-01-12 03:46:08.90	355.96	12.43	-32.5	-48.9	3.8	7.43e-01	0	40	104	0	25	23649
2026-01-12 03:46:09.91	355.80	12.50	-32.6	-49.1	3.8	7.48e-01	0	41	104	0	25	24015
2026-01-12 03:46:10.92	355.64	12.57	-32.6	-48.8	3.8	7.44e-01	0	41	104	0	26	23122
2026-01-12 03:46:11.92	355.48	12.65	-32.7	-49.1	3.8	7.43e-01	0	41	104	0	26	23799
2026-01-12 03:46:12.93	355.31	12.72	-32.8	-49.6	3.8	7.45e-01	0	41	104	0	26	24728
2026-01-12 03:46:13.94	355.15	12.80	-32.9	-50.2	3.8	7.44e-01	0	41	104	0	26	26172
2026-01-12 03:46:14.95	354.98	12.87	-33.0	-50.7	3.8	7.44e-01	0	41	104	0	26	27534
2026-01-12 03:46:15.95	354.82	12.94	-33.1	-50.7	3.8	7.47e-01	0	41	104	0	27	27355
2026-01-12 03:46:16.96	354.65	13.02	-33.1	-50.4	3.8	7.47e-01	0	41	104	0	27	26485
2026-01-12 03:46:17.97	354.48	13.09	-33.0	-49.9	3.8	7.46e-01	0	41	104	0	27	25317
2026-01-12 03:46:18.98	354.31	13.16	-32.9	-49.3	3.8	7.45e-01	0	41	104	0	27	23820
2026-01-12 03:46:19.98	354.15	13.24	-32.7	-48.6	3.8	7.43e-01	0	41	104	0	27	22320
2026-01-12 03:46:20.99	353.97	13.31	-32.8	-48.9	3.8	7.46e-01	0	41	104	0	27	23024
2026-01-12 03:46:22.00	353.80	13.38	-32.7	-48.4	3.8	7.46e-01	0	41	104	0	27	21916
2026-01-12 03:46:23.01	353.63	13.46	-32.6	-47.8	3.8	7.44e-01	0	41	104	0	27	20784
2026-01-12 03:46:24.01	353.46	13.53	-32.5	-47.3	3.8	7.47e-01	0	41	104	0	27	19889
2026-01-12 03:46:25.02	353.28	13.61	-32.4	-47.1	3.8	7.46e-01	0	41	104	0	27	19539
2026-01-12 03:46:26.03	353.11	13.68	-32.4	-47.5	3.8	7.46e-01	0	41	104	0	26	20483
2026-01-12 03:46:27.04	352.93	13.75	-32.2	-46.7	3.8	7.46e-01	0	41	104	0	26	19123
2026-01-12 03:46:28.04	352.75	13.83	-31.9	-45.6	3.8	7.47e-01	0	41	104	0	26	17467
2026-01-12 03:46:29.05	352.57	13.90	-31.6	-45.1	3.8	7.45e-01	0	41	104	0	25	17087
2026-01-12 03:46:30.06	352.39	13.97	-31.2	-44.2	3.8	7.47e-01	0	41	104	0	24	16204
2026-01-12 03:46:31.07	352.21	14.05	-30.7	-43.5	3.8	7.43e-01	0	41	104	0	23	15601
2026-01-12 03:46:32.07	352.03	14.12	-30.4	-42.5	3.8	7.46e-01	0	41	104	0	23	14531
2026-01-12 03:46:33.08	351.85	14.20	-30.4	-42.6	3.8	7.43e-01	0	41	104	0	23	14561
2026-01-12 03:46:34.09	351.67	14.27	-30.5	-42.7	3.8	7.44e-01	0	41	104	0	23	14678
2026-01-12 03:46:35.10	351.48	14.34	-30.5	-42.8	3.8	7.44e-01	0	41	104	0	23	14749
2026-01-12 03:46:36.11	351.30	14.42	-30.7	-43.3	3.8	7.43e-01	0	41	104	0	23	15370
2026-01-12 03:46:37.12	351.11	14.49	-31.4	-45.5	3.8	7.44e-01	0	41	104	0	23	18119
2026-01-12 03:46:38.13	350.92	14.56	-31.7	-45.7	3.8	7.45e-01	0	41	104	0	24	18186
2026-01-12 03:46:39.13	350.74	14.64	-31.6	-45.4	3.8	7.42e-01	0	41	104	0	24	17759
2026-01-12 03:46:40.13	350.55	14.71	-31.5	-45.0	3.8	7.40e-01	0	41	104	0	24	17148
2026-01-12 03:46:41.14	350.36	14.78	-31.6	-45.3	3.8	7.45e-01	0	41	104	0	24	17504
2026-01-12 03:46:42.14	350.17	14.86	-31.7	-45.9	3.8	7.46e-01	0	41	104	0	24	18353
2026-01-12 03:46:43.15	349.97	14.93	-32.0	-46.8	3.8	7.47e-01	0	41	104	0	24	19755
2026-01-12 03:46:44.16	349.78	15.00	-32.2	-47.0	3.8	7.46e-01	0	41	104	0	25	19848
2026-01-12 03:46:45.16	349.59	15.07	-32.4	-47.8	3.8	7.46e-01	0	41	104	0	25	21178
2026-01-12 03:46:46.17	349.39	15.15	-32.6	-48.3	3.8	7.43e-01	0	41	104	0	26	21897
2026-01-12 03:46:47.18	349.20	15.22	-32.4	-47.4	3.8	7.45e-01	0	41	104	0	26	20179
2026-01-12 03:46:48.18	349.00	15.29	-32.3	-46.8	3.8	7.45e-01	0	41	104	0	26	19111
2026-01-12 03:46:49.19	348.80	15.37	-32.0	-45.7	3.8	7.45e-01	0	41	104	0	26	17455
2026-01-12 03:46:50.19	348.60	15.44	-31.7	-45.4	3.8	7.46e-01	0	41	104	0	25	17398
2026-01-12 03:46:51.20	348.40	15.51	-31.7	-37.1	5.1	7.09e-01	0	41	104	0	25	6704
2026-01-12 03:46:52.20	348.20	15.58	-32.1	-37.9	13.7	6.06e-01	0	41	104	0	25	7066
2026-01-12 03:46:53.21	348.00	15.65	-32.3	-38.7	13.0	6.05e-01	0	41	0	1048576	25	7598
2026-01-12 03:46:54.21	347.80	15.73	-32.0	-37.5	14.0	6.05e-01	0	41	0	3145728	25	6799
2026-01-12 03:46:55.22	347.59	15.80	-31.5	-35.7	15.4	6.05e-01	0	41	0	4718592	25	5835
2026-01-12 03:46:56.22	347.39	15.87	-31.1	-34.7	16.5	6.03e-01	0	41	0	6815744	24	5482
2026-01-12 03:46:57.23	347.18	15.94	-30.6	-33.8	17.4	6.03e-01	0	41	0	8388608	23	5215
2026-01-12 03:46:58.24	346.97	16.01	-30.3	-33.6	17.9	6.03e-01	0	41	0	10485760	22	5212
2026-01-12 03:46:59.24	346.76	16.08	-30.0	-32.7	18.5	6.02e-01	0	41	0	12058624	22	4886
2026-01-12 03:47:00.24	346.55	16.16	-29.8	-32.7	18.7	6.03e-01	0	41	0	14155776	21	4978
2026-01-12 03:47:01.25	346.34	16.23	-29.8	-32.6	18.9	6.02e-01	0	41	0	16252928	21	4943
2026-01-12 03:47:02.26	346.13	16.30	-29.8	-32.5	18.8	6.02e-01	0	41	0	17825792	21	4929
2026-01-12 03:47:03.27	345.91	16.37	-29.7	-32.4	19.0	6.04e-01	0	41	0	19922944	21	4871
2026-01-12 03:47:04.27	345.70	16.44	-29.7	-32.2	19.1	6.05e-01	0	41	0	22020096	21	4816
2026-01-12 03:47:05.28	345.49	16.51	-29.5	-31.8	19.3	6.02e-01	0	41	0	23592960	21	4700
2026-01-12 03:47:06.29	345.27	16.58	-29.6	-32.1	19.2	6.03e-01	0	41	0	25690112	21	4769
2026-01-12 03:47:07.29	345.05	16.65	-29.7	-32.2	19.1	6.04e-01	0	41	0	27262976	21	4802
2026-01-12 03:47:08.30	344.83	16.72	-29.7	-32.2	19.1	6.04e-01	0	41	0	29360128	21	4804
2026-01-12 03:47:09.31	344.61	16.79	-29.5	-31.8	19.3	6.04e-01	0	41	0	31457280	21	4668
2026-01-12 03:47:10.32	344.39	16.86	-29.5	-31.7	19.4	6.02e-01	0	41	0	33030144	21	4648
2026-01-12 03:47:11.32	344.17	16.93	-29.5	-31.8	19.3	6.02e-01	0	41	0	35127296	21	4679
2026-01-12 03:47:12.32	343.95	17.00	-29.5	-31.8	19.3	6.03e-01	0	41	0	36700160	21	4690
2026-01-12 03:47:13.33	343.72	17.07	-29.4	-31.6	19.5	6.03e-01	0	41	0	38797312	21	4602
2026-01-12 03:47:14.34	343.50	17.14	-29.4	-31.6	19.5	6.03e-01	0	41	0	40370176	21	4603
2026-01-12 03:47:15.34	343.27	17.20	-29.5	-31.7	19.4	6.03e-01	0	41	0	42467328	21	4640
2026-01-12 03:47:16.35	343.04	17.27	-29.5	-31.7	19.4	6.03e-01	0	41	0	44564480	21	4660
2026-01-12 03:47:17.35	342.82	17.34	-29.5	-31.7	19.4	6.02e-01	0	41	0	46137344	21	4657
2026-01-12 03:47:18.36	342.59	17.41	-29.5	-31.9	19.3	6.02e-01	0	41	0	48234496	21	4698
2026-01-12 03:47:19.37	342.35	17.48	-29.6	-32.1	19.2	6.03e-01	0	41	0	50331648	21	4768
2026-01-12 03:47:20.38	342.12	17.54	-29.5	-31.8	19.4	6.03e-01	0	41	0	51904512	21	4678
2026-01-12 03:47:21.38	341.89	17.61	-29.5	-31.7	19.4	6.01e-01	0	41	0	54001664	21	4661
2026-01-12 03:47:22.39	341.65	17.68	-29.5	-31.7	19.4	6.02e-01	0	41	0	55574528	21	4648
2026-01-12 03:47:23.39	341.42	17.74	-29.4	-31.5	19.6	6.01e-01	0	41	0	57671680	21	4569
2026-01-12 03:47:24.40	341.18	17.81	-29.5	-31.6	19.5	6.03e-01	0	41	0	59768832	21	4619
2026-01-12 03:47:25.41	340.94	17.88	-29.5	-31.8	19.4	6.02e-01	0	41	0	61341696	21	4674
2026-01-12 03:47:26.42	340.71	17.94	-29.6	-32.0	19.3	6.03e-01	0	41	0	63438848	21	4730
2026-01-12 03:47:27.42	340.47	18.01	-29.6	-32.0	19.2	6.03e-01	0	41	0	65011712	21	4752
2026-01-12 03:47:28.43	340.23	18.07	-29.5	-31.7	19.4	6.06e-01	0	41	0	67108864	21	4657
2026-01-12 03:47:29.44	339.98	18.14	-29.5	-31.7	19.5	6.04e-01	0	41	0	69206016	21	4637
2026-01-12 03:47:30.45	339.74	18.20	-29.5	-31.7	19.5	6.03e-01	0	41	0	70778880	21	4640
2026-01-12 03:47:31.45	339.50	18.27	-29.5	-31.6	19.5	6.04e-01	0	41	0	72876032	21	4624
2026-01-12 03:47:32.46	339.25	18.33	-29.6	-31.9	19.3	6.02e-01	0	41	0	74448896	21	4721
2026-01-12 03:47:33.47	339.00	18.39	-29.6	-31.9	19.3	6.04e-01	0	41	0	76546048	21	4703
2026-01-12 03:47:34.47	338.76	18.46	-29.5	-31.8	19.4	6.03e-01	0	41	0	78643200	21	4662
2026-01-12 03:47:35.48	338.51	18.52	-29.6	-31.9	19.4	6.04e-01	0	41	0	80216064	21	4709
2026-01-12 03:47:36.48	338.26	18.58	-29.7	-32.2	19.2	6.04e-01	0	41	0	82313216	21	4800
2026-01-12 03:47:37.49	338.01	18.64	-29.6	-32.0	19.3	6.04e-01	0	41	0	83886080	21	4751
2026-01-12 03:47:38.50	337.75	18.71	-29.7	-32.1	19.3	6.03e-01	0	41	0	85983232	21	4774
2026-01-12 03:47:39.50	337.50	18.77	-29.6	-31.9	19.4	6.04e-01	0	41	0	88080384	21	4697
2026-01-12 03:47:40.50	337.25	18.83	-29.5	-31.8	19.5	6.02e-01	0	41	0	89653248	21	4659
2026-01-12 03:47:41.51	336.99	18.89	-29.5	-31.8	19.5	6.02e-01	0	41	0	91750400	21	4665
2026-01-12 03:47:42.52	336.74	18.95	-29.6	-32.1	19.3	6.01e-01	0	41	0	93323264	21	4757
2026-01-12 03:47:43.53	336.48	19.01	-29.6	-32.1	19.2	6.04e-01	0	41	0	95420416	21	4767
2026-01-12 03:47:44.53	336.22	19.07	-29.8	-32.4	19.1	6.04e-01	0	41	0	96993280	21	4872
2026-01-12 03:47:45.53	335.96	19.13	-29.8	-32.5	19.0	6.04e-01	0	41	0	99090432	21	4928
2026-01-12 03:47:46.54	335.70	19.18	-29.6	-32.1	19.3	6.05e-01	0	41	0	101187584	21	4764
2026-01-12 03:47:47.54	335.44	19.24	-29.6	-31.9	19.4	6.03e-01	0	41	0	102760448	21	4688
2026-01-12 03:47:48.55	335.18	19.30	-29.7	-32.2	19.3	6.03e-01	0	41	0	104857600	21	4789
2026-01-12 03:47:49.56	334.91	19.36	-29.7	-32.2	19.2	6.03e-01	0	41	0	106954752	21	4810
2026-01-12 03:47:50.57	334.65	19.41	-29.7	-32.2	19.2	6.04e-01	0	41	0	108527616	21	4823
2026-01-12 03:47:51.57	334.38	19.47	-29.7	-32.4	19.0	6.02e-01	0	41	0	110624768	21	4864
2026-01-12 03:47:52.58	334.12	19.53	-29.8	-32.4	19.0	6.03e-01	0	41	0	112197632	21	4863
2026-01-12 03:47:53.58	333.85	19.58	-29.7	-32.7	19.1	6.04e-01	0	41	0	114294784	20	5106
2026-01-12 03:47:54.59	333.58	19.63	-29.7	-32.6	19.2	6.02e-01	0	41	0	115867648	20	5074
2026-01-12 03:47:55.59	333.31	19.69	-29.8	-33.1	19.0	6.05e-01	0	41	0	117964800	20	5228
2026-01-12 03:47:56.60	333.04	19.74	-30.0	-33.5	18.7	6.03e-01	0	41	0	120061952	20	5406
2026-01-12 03:47:57.60	332.77	19.79	-30.0	-33.1	18.6	6.03e-01	0	41	0	121634816	21	5137
2026-01-12 03:47:58.61	332.49	19.85	-29.9	-32.8	18.8	6.03e-01	0	41	0	123731968	21	5022
2026-01-12 03:47:59.62	332.22	19.90	-29.9	-32.8	18.8	6.04e-01	0	41	0	125304832	21	5028
2026-01-12 03:48:00.63	331.94	19.95	-30.0	-32.9	18.8	5.99e-01	0	41	0	127401984	21	5068
2026-01-12 03:48:01.63	331.67	20.00	-29.9	-32.8	18.8	6.03e-01	0	41	0	129499136	21	5005
2026-01-12 03:48:02.64	331.39	20.05	-30.0	-32.9	18.7	6.04e-01	0	41	0	131072000	21	5067
2026-01-12 03:48:03.64	331.12	20.10	-29.9	-32.8	18.8	6.02e-01	0	41	0	133169152	21	5021
2026-01-12 03:48:04.65	330.84	20.15	-29.8	-32.4	19.1	6.02e-01	0	41	0	135266304	21	4875
2026-01-12 03:48:05.66	330.55	20.20	-29.6	-32.0	19.3	6.02e-01	0	41	0	136839168	21	4742
2026-01-12 03:48:06.66	330.28	20.25	-29.7	-32.1	19.3	6.03e-01	0	41	0	138936320	21	4764
2026-01-12 03:48:07.67	329.99	20.30	-29.7	-32.3	19.2	6.02e-01	0	41	0	140509184	21	4825
2026-01-12 03:48:08.67	329.71	20.34	-29.7	-32.1	19.3	6.02e-01	0	41	0	142606336	21	4769
2026-01-12 03:48:09.68	329.43	20.39	-29.6	-32.0	19.3	6.05e-01	0	41	0	144179200	21	4745
2026-01-12 03:48:10.68	329.14	20.43	-29.6	-32.0	19.3	6.03e-01	0	41	0	146276352	21	4740
2026-01-12 03:48:11.68	328.86	20.48	-29.7	-32.2	19.2	6.04e-01	0	41	0	148373504	21	4801
2026-01-12 03:48:12.69	328.57	20.52	-29.8	-32.5	19.1	6.01e-01	0	41	0	149946368	21	4902
2026-01-12 03:48:13.70	328.29	20.57	-29.8	-32.4	19.1	6.01e-01	0	41	0	152043520	21	4873
2026-01-12 03:48:14.70	328.00	20.61	-29.8	-32.6	19.0	6.02e-01	0	41	0	153616384	21	4946
2026-01-12 03:48:15.71	327.71	20.65	-29.9	-32.7	19.0	6.03e-01	0	41	0	155713536	21	4971
2026-01-12 03:48:16.71	327.42	20.69	-29.9	-32.7	18.9	6.02e-01	0	41	0	157810688	21	4968
2026-01-12 03:48:17.72	327.13	20.74	-29.9	-32.6	19.0	6.06e-01	0	41	0	159383552	21	4947
2026-01-12 03:48:18.72	326.84	20.78	-29.9	-32.8	18.9	6.00e-01	0	41	0	161480704	21	5005
2026-01-12 03:48:19.73	326.55	20.82	-29.8	-32.3	19.1	6.02e-01	0	41	0	163053568	21	4850
2026-01-12 03:48:20.74	326.25	20.85	-29.8	-32.6	18.9	6.04e-01	0	41	0	165150720	21	4942
2026-01-12 03:48:21.74	325.96	20.89	-29.8	-32.4	19.1	6.01e-01	0	41	0	167247872	21	4867
2026-01-12 03:48:22.75	325.67	20.93	-29.8	-32.6	19.0	6.03e-01	0	41	0	168820736	21	4941
2026-01-12 03:48:23.76	325.37	20.97	-30.0	-33.0	18.8	6.04e-01	0	41	0	170917888	21	5077
2026-01-12 03:48:24.76	325.07	21.00	-29.8	-32.4	19.1	6.04e-01	0	41	0	172490752	21	4866
2026-01-12 03:48:25.77	324.78	21.04	-29.7	-32.1	19.3	6.04e-01	0	41	0	174587904	21	4773
2026-01-12 03:48:26.77	324.48	21.07	-29.7	-32.3	19.2	6.03e-01	0	41	0	176685056	21	4839
2026-01-12 03:48:27.78	324.18	21.11	-29.7	-32.2	19.2	6.03e-01	0	41	0	178257920	21	4790
2026-01-12 03:48:28.79	323.88	21.14	-29.7	-32.2	19.2	6.03e-01	0	41	0	180355072	21	4823
2026-01-12 03:48:29.80	323.58	21.17	-29.8	-32.5	19.1	6.01e-01	0	41	0	181927936	21	4899
2026-01-12 03:48:30.81	323.28	21.21	-29.7	-32.3	19.1	6.02e-01	0	41	0	184025088	21	4850
2026-01-12 03:48:31.81	322.98	21.24	-29.7	-32.1	19.3	6.03e-01	0	41	0	186122240	21	4785
2026-01-12 03:48:32.82	322.68	21.27	-29.8	-32.5	19.1	6.04e-01	0	41	0	187695104	21	4900
2026-01-12 03:48:33.83	322.37	21.30	-29.8	-32.4	19.1	6.05e-01	0	41	0	189792256	21	4869
2026-01-12 03:48:34.84	322.07	21.33	-29.7	-32.2	19.2	6.03e-01	0	41	0	191365120	21	4805
2026-01-12 03:48:35.84	321.77	21.35	-29.8	-32.3	19.1	6.03e-01	0	41	0	193462272	21	4851
2026-01-12 03:48:36.85	321.46	21.38	-29.7	-32.3	19.2	6.03e-01	0	41	0	195559424	21	4827
2026-01-12 03:48:37.85	321.16	21.41	-29.9	-32.7	18.9	6.03e-01	0	41	0	197132288	21	4979
2026-01-12 03:48:38.86	320.86	21.43	-29.8	-32.4	19.1	6.02e-01	0	41	0	199229440	21	4888
2026-01-12 03:48:39.87	320.55	21.46	-29.7	-32.3	19.2	6.01e-01	0	41	0	200802304	21	4834
2026-01-12 03:48:40.88	320.24	21.48	-29.8	-32.5	19.1	6.02e-01	0	41	0	202899456	21	4916
2026-01-12 03:48:41.88	319.94	21.50	-29.8	-32.4	19.1	6.04e-01	0	41	0	204996608	21	4858
2026-01-12 03:48:42.88	319.63	21.53	-30.0	-32.9	18.8	6.04e-01	0	41	0	206569472	21	5057
2026-01-12 03:48:43.89	319.32	21.55	-29.8	-32.4	19.0	6.01e-01	0	41	0	208666624	21	4880
2026-01-12 03:48:44.89	319.02	21.57	-29.8	-32.4	19.1	6.04e-01	0	42	0	210239488	21	4876
2026-01-12 03:48:45.90	318.71	21.59	-29.7	-32.2	19.2	6.03e-01	0	41	0	212336640	21	4809
2026-01-12 03:48:46.90	318.40	21.61	-29.8	-32.6	19.0	6.01e-01	0	41	0	214433792	21	4939
2026-01-12 03:48:47.91	318.09	21.63	-29.7	-32.3	19.2	6.03e-01	0	41	0	216006656	21	4823
2026-01-12 03:48:48.91	317.78	21.64	-29.8	-32.5	19.0	6.02e-01	0	41	0	218103808	21	4914
2026-01-12 03:48:49.92	317.47	21.66	-29.8	-32.4	19.1	6.04e-01	0	41	0	219676672	21	4880
2026-01-12 03:48:50.92	317.16	21.68	-29.7	-32.3	19.2	6.02e-01	0	41	0	221773824	21	4819
2026-01-12 03:48:51.93	316.85	21.69	-30.0	-33.1	18.7	6.03e-01	0	41	0	223870976	21	5115
2026-01-12 03:48:52.93	316.54	21.70	-29.7	-32.3	19.2	6.01e-01	0	41	0	225443840	21	4827
2026-01-12 03:48:53.94	316.23	21.72	-29.7	-32.2	19.2	6.02e-01	0	41	0	227540992	21	4819
2026-01-12 03:48:54.94	315.92	21.73	-30.0	-33.0	18.8	6.01e-01	0	41	0	229113856	21	5087
2026-01-12 03:48:55.95	315.61	21.74	-29.9	-32.6	19.0	6.03e-01	0	41	0	231211008	21	4956
2026-01-12 03:48:56.96	315.29	21.75	-30.2	-33.7	18.4	6.02e-01	0	41	0	233308160	21	5337
2026-01-12 03:48:57.96	314.98	21.76	-29.8	-32.5	19.1	6.03e-01	0	41	0	234881024	21	4893
2026-01-12 03:48:58.97	314.67	21.77	-29.8	-32.4	19.1	6.01e-01	0	41	0	236978176	21	4874
2026-01-12 03:48:59.97	314.36	21.78	-30.1	-33.3	18.6	6.01e-01	0	42	0	238551040	21	5184
2026-01-12 03:49:00.98	314.04	21.79	-29.9	-32.6	19.0	6.05e-01	0	41	0	240648192	21	4934
2026-01-12 03:49:01.98	313.73	21.79	-30.1	-33.4	18.5	6.03e-01	0	41	0	242221056	21	5220
2026-01-12 03:49:03.00	313.42	21.80	-29.9	-32.6	19.1	6.02e-01	0	41	0	244318208	21	4939
2026-01-12 03:49:04.00	313.10	21.80	-30.3	-33.8	18.3	6.04e-01	0	41	0	246415360	21	5373
2026-01-12 03:49:05.01	312.79	21.81	-30.2	-33.5	18.4	6.04e-01	0	41	0	247988224	21	5276
2026-01-12 03:49:06.02	312.48	21.81	-30.0	-33.0	18.8	6.04e-01	0	41	0	250085376	21	5094
2026-01-12 03:49:07.02	312.16	21.81	-29.7	-32.3	19.1	6.02e-01	0	41	0	252182528	21	4834
2026-01-12 03:49:08.03	311.85	21.81	-30.1	-33.3	18.5	6.03e-01	0	41	0	253755392	21	5211
2026-01-12 03:49:09.04	311.53	21.81	-29.6	-31.8	19.5	6.05e-01	0	41	0	255852544	21	4676
2026-01-12 03:49:10.05	311.22	21.81	-29.8	-32.5	19.0	6.03e-01	0	41	0	257425408	21	4892
2026-01-12 03:49:11.05	310.91	21.81	-30.0	-33.1	18.7	6.03e-01	0	42	0	259522560	21	5125
2026-01-12 03:49:12.05	310.60	21.81	-29.7	-32.2	19.3	6.03e-01	0	41	0	261619712	21	4806
2026-01-12 03:49:13.06	310.28	21.80	-30.0	-32.9	18.7	6.01e-01	0	42	0	263192576	21	5059
2026-01-12 03:49:14.07	309.97	21.80	-30.0	-32.9	18.8	6.05e-01	0	41	0	265289728	21	5063
2026-01-12 03:49:15.08	309.65	21.79	-29.7	-32.1	19.3	6.03e-01	0	41	0	266862592	21	4763
2026-01-12 03:49:16.08	309.34	21.79	-29.8	-32.4	19.1	6.01e-01	0	41	0	268959744	21	4887
2026-01-12 03:49:17.09	309.03	21.78	-30.0	-32.9	18.8	6.01e-01	0	41	0	270532608	21	5057
2026-01-12 03:49:18.10	308.71	21.77	-30.1	-33.3	18.5	6.05e-01	0	41	0	272629760	21	5179
2026-01-12 03:49:19.10	308.40	21.76	-29.9	-32.7	19.0	6.04e-01	0	41	0	274726912	21	4959
2026-01-12 03:49:20.11	308.09	21.75	-29.4	-31.5	19.7	6.03e-01	0	41	0	276299776	21	4570
2026-01-12 03:49:21.12	307.78	21.74	-30.0	-33.1	18.6	6.03e-01	0	41	0	278396928	21	5143
2026-01-12 03:49:22.12	307.47	21.73	-29.7	-32.2	19.3	6.04e-01	0	41	0	280494080	21	4782
2026-01-12 03:49:23.12	307.16	21.72	-29.7	-32.1	19.2	6.02e-01	0	41	0	282066944	21	4779
2026-01-12 03:49:24.13	306.84	21.71	-29.6	-32.0	19.3	6.01e-01	0	42	0	284164096	21	4744
2026-01-12 03:49:25.13	306.53	21.69	-30.0	-32.9	18.7	6.03e-01	0	42	0	285736960	21	5071
2026-01-12 03:49:26.14	306.22	21.68	-29.9	-32.9	18.9	6.01e-01	0	42	0	287834112	21	5054
2026-01-12 03:49:27.14	305.91	21.66	-29.3	-31.6	19.9	6.03e-01	0	41	0	289931264	20	4700
2026-01-12 03:49:28.15	305.60	21.65	-30.0	-33.6	18.6	6.01e-01	0	41	0	291504128	20	5424
2026-01-12 03:49:29.16	305.29	21.63	-29.7	-32.7	19.3	6.02e-01	0	41	0	293601280	20	5070
2026-01-12 03:49:30.16	304.98	21.61	-30.1	-33.7	18.7	6.04e-01	0	42	0	295174144	20	5456
2026-01-12 03:49:31.16	304.67	21.59	-29.4	-31.3	19.7	6.03e-01	0	41	0	297271296	21	4503
2026-01-12 03:49:32.17	304.36	21.57	-30.2	-33.6	18.2	6.03e-01	0	42	0	298844160	21	5345
2026-01-12 03:49:33.18	304.06	21.55	-29.6	-31.9	19.5	6.02e-01	0	41	0	300941312	21	4689
2026-01-12 03:49:34.18	303.75	21.53	-30.4	-34.1	17.9	6.03e-01	0	41	0	303038464	21	5540
2026-01-12 03:49:35.19	303.44	21.51	-29.5	-32.2	19.7	6.03e-01	0	41	0	304611328	20	4892
2026-01-12 03:49:36.20	303.13	21.49	-29.6	-32.0	19.2	6.02e-01	0	42	0	306708480	21	4738
2026-01-12 03:49:37.20	302.83	21.46	-30.1	-33.8	18.6	6.03e-01	0	41	0	308805632	20	5504
2026-01-12 03:49:38.21	302.52	21.44	-29.8	-32.5	18.9	6.02e-01	0	41	0	310378496	21	4896
2026-01-12 03:49:39.21	302.22	21.41	-29.5	-32.2	19.6	6.01e-01	0	42	0	312475648	20	4906
2026-01-12 03:49:40.21	301.91	21.39	-29.9	-32.8	18.6	6.02e-01	0	41	0	314048512	21	5008
2026-01-12 03:49:41.22	301.61	21.36	-29.9	-33.3	18.9	6.04e-01	0	41	0	316145664	20	5320
2026-01-12 03:49:42.22	301.31	21.33	-29.5	-31.6	19.3	6.02e-01	0	41	0	317718528	21	4607
2026-01-12 03:49:43.22	301.00	21.30	-30.1	-33.7	18.6	6.02e-01	0	41	0	319815680	20	5494
2026-01-12 03:49:44.23	300.70	21.27	-29.5	-31.5	19.6	6.02e-01	0	41	0	321912832	21	4575
2026-01-12 03:49:45.24	300.40	21.24	-29.8	-33.1	19.0	6.03e-01	0	42	0	323485696	20	5237
2026-01-12 03:49:46.25	300.09	21.21	-29.7	-32.8	19.1	6.03e-01	0	41	0	325582848	20	5119
2026-01-12 03:49:47.26	299.79	21.18	-29.6	-32.5	19.4	6.03e-01	0	41	0	327155712	20	5010
2026-01-12 03:49:48.26	299.49	21.15	-30.0	-32.4	18.5	6.03e-01	0	41	0	329252864	22	4775
2026-01-12 03:49:49.27	299.19	21.12	-29.6	-32.5	19.4	6.01e-01	0	41	0	331350016	20	5008
2026-01-12 03:49:50.28	298.89	21.08	-29.6	-32.1	19.1	6.03e-01	0	41	0	332922880	21	4755
2026-01-12 03:49:51.28	298.60	21.05	-29.7	-32.6	19.3	6.02e-01	0	41	0	335020032	20	5061
2026-01-12 03:49:52.29	298.30	21.01	-29.6	-32.5	19.3	6.03e-01	0	41	0	336592896	20	5017
2026-01-12 03:49:53.29	298.00	20.98	-29.6	-32.4	19.4	6.03e-01	0	42	0	338690048	20	4996
2026-01-12 03:49:54.30	297.71	20.94	-29.9	-33.2	18.8	6.03e-01	0	41	0	340787200	20	5292
2026-01-12 03:49:55.30	297.41	20.90	-29.3	-31.7	19.8	6.03e-01	0	41	0	342360064	20	4746
2026-01-12 03:49:56.30	297.12	20.86	-30.1	-33.3	18.4	6.03e-01	0	41	0	344457216	21	5236
2026-01-12 03:49:57.31	296.82	20.82	-29.3	-31.7	19.8	6.05e-01	0	41	0	346030080	20	4727
2026-01-12 03:49:58.32	296.53	20.78	-29.6	-32.5	19.2	6.04e-01	0	41	0	348127232	20	5026
2026-01-12 03:49:59.33	296.24	20.74	-29.6	-32.6	19.3	6.05e-01	0	42	0	350224384	20	5048
2026-01-12 03:50:00.33	295.95	20.70	-29.5	-32.1	19.5	6.03e-01	0	41	0	351797248	20	4893
2026-01-12 03:50:01.34	295.66	20.66	-29.9	-33.3	18.8	6.01e-01	0	41	0	353894400	20	5337
2026-01-12 03:50:02.34	295.37	20.62	-29.4	-31.9	19.7	6.02e-01	0	41	0	355467264	20	4806
2026-01-12 03:50:03.35	295.08	20.58	-30.0	-33.7	18.5	6.04e-01	0	41	0	357564416	20	5506
2026-01-12 03:50:04.36	294.79	20.53	-29.3	-31.7	19.7	6.02e-01	0	41	0	359661568	20	4752
2026-01-12 03:50:05.36	294.50	20.49	-29.7	-32.9	19.0	6.03e-01	0	41	0	361234432	20	5172
2026-01-12 03:50:06.37	294.22	20.44	-29.6	-32.5	19.3	6.02e-01	0	41	0	363331584	20	5008
2026-01-12 03:50:07.38	293.93	20.40	-29.6	-32.4	19.3	6.03e-01	0	41	0	364904448	20	4996
2026-01-12 03:50:08.39	293.64	20.35	-29.8	-32.9	19.0	6.04e-01	0	42	0	367001600	20	5189
2026-01-12 03:50:09.40	293.36	20.30	-29.5	-32.3	19.4	6.03e-01	0	41	0	369098752	20	4939
2026-01-12 03:50:10.41	293.08	20.26	-29.6	-32.5	19.2	6.03e-01	0	41	0	370671616	20	5036
2026-01-12 03:50:11.41	292.80	20.21	-29.6	-32.4	19.3	6.03e-01	0	41	0	372768768	20	4999
2026-01-12 03:50:12.41	292.52	20.16	-29.7	-32.7	19.0	6.03e-01	0	42	0	374341632	20	5101
2026-01-12 03:50:13.42	292.24	20.11	-29.9	-33.3	18.7	6.04e-01	0	41	0	376438784	20	5334
2026-01-12 03:50:14.43	291.96	20.06	-29.6	-32.4	19.3	6.01e-01	0	41	0	378535936	20	4985
2026-01-12 03:50:15.44	291.68	20.01	-29.8	-33.0	18.9	6.03e-01	0	41	0	380108800	20	5230
2026-01-12 03:50:16.44	291.40	19.96	-29.7	-32.9	18.9	6.02e-01	0	41	0	382205952	20	5166
2026-01-12 03:50:17.44	291.13	19.91	-29.5	-32.2	19.4	6.01e-01	0	41	0	383778816	20	4932
2026-01-12 03:50:18.45	290.85	19.86	-30.2	-33.7	18.1	6.03e-01	0	41	0	385875968	21	5396
2026-01-12 03:50:19.46	290.58	19.80	-29.3	-31.6	19.8	6.03e-01	0	42	0	387973120	20	4719
2026-01-12 03:50:20.47	290.30	19.75	-29.6	-32.6	19.1	6.04e-01	0	42	0	389545984	20	5089
2026-01-12 03:50:21.47	290.03	19.70	-29.2	-31.5	19.7	6.03e-01	0	41	0	391643136	20	4694
2026-01-12 03:50:22.48	289.76	19.64	-29.7	-32.7	19.1	6.03e-01	0	42	0	393216000	20	5120
2026-01-12 03:50:23.48	289.49	19.59	-29.5	-32.3	19.3	6.01e-01	0	41	0	395313152	20	4945
2026-01-12 03:50:24.49	289.22	19.53	-29.3	-31.8	19.7	6.04e-01	0	41	0	396886016	20	4784
2026-01-12 03:50:25.50	288.95	19.48	-29.8	-33.1	18.8	6.05e-01	0	41	0	398983168	20	5273
2026-01-12 03:50:26.50	288.69	19.42	-29.1	-31.3	20.0	6.03e-01	0	42	0	401080320	20	4607
2026-01-12 03:50:27.50	288.42	19.37	-29.9	-33.4	18.7	6.02e-01	0	41	0	402653184	20	5373
2026-01-12 03:50:28.51	288.16	19.31	-29.5	-32.2	19.2	6.05e-01	0	42	0	404750336	20	4935
2026-01-12 03:50:29.52	287.89	19.25	-29.2	-31.4	19.9	6.03e-01	0	41	0	406847488	20	4638
2026-01-12 03:50:30.52	287.63	19.19	-29.8	-33.2	18.7	6.03e-01	0	42	0	408420352	20	5306
2026-01-12 03:50:31.52	287.37	19.14	-29.1	-31.3	19.9	6.00e-01	0	41	0	410517504	20	4608
2026-01-12 03:50:32.54	287.11	19.08	-29.9	-33.3	18.7	6.05e-01	0	41	0	412090368	20	5344
2026-01-12 03:50:33.54	286.85	19.02	-29.8	-32.6	18.7	6.01e-01	0	42	0	414187520	21	4983
2026-01-12 03:50:34.55	286.59	18.96	-29.0	-31.0	20.1	6.04e-01	0	41	0	416284672	20	4504
2026-01-12 03:50:35.56	286.33	18.90	-29.7	-32.8	19.0	6.02e-01	0	42	0	417857536	20	5143
2026-01-12 03:50:36.56	286.08	18.84	-29.4	-32.1	19.4	6.05e-01	0	41	0	419954688	20	4880
2026-01-12 03:50:37.56	285.82	18.78	-29.2	-31.5	19.8	6.01e-01	0	41	0	421527552	20	4700
2026-01-12 03:50:38.57	285.57	18.71	-29.7	-32.8	19.0	6.04e-01	0	41	0	423624704	20	5163
2026-01-12 03:50:39.58	285.31	18.65	-29.2	-31.6	19.7	6.02e-01	0	41	0	425197568	20	4706
2026-01-12 03:50:40.58	285.06	18.59	-29.4	-32.1	19.4	6.04e-01	0	41	0	427294720	20	4885
2026-01-12 03:50:41.59	284.81	18.53	-29.8	-33.0	18.8	6.05e-01	0	42	0	429391872	20	5238
2026-01-12 03:50:42.60	284.56	18.46	-29.5	-32.1	19.4	6.05e-01	0	41	0	430964736	20	4900
2026-01-12 03:50:43.60	284.31	18.40	-29.9	-33.4	18.6	6.01e-01	0	42	0	433061888	20	5363
2026-01-12 03:50:44.60	284.07	18.34	-30.2	-33.7	18.0	6.03e-01	0	41	0	435159040	21	5401
2026-01-12 03:50:45.61	283.82	18.27	-29.9	-32.9	18.6	6.04e-01	0	42	0	436731904	21	5073
2026-01-12 03:50:46.62	283.57	18.21	-30.0	-33.1	18.5	6.02e-01	0	41	0	438829056	21	5159
2026-01-12 03:50:47.63	283.33	18.14	-30.1	-33.4	18.2	6.01e-01	0	41	0	440401920	21	5292
2026-01-12 03:50:48.63	283.09	18.08	-29.7	-32.2	18.9	6.02e-01	0	42	0	442499072	21	4845
2026-01-12 03:50:49.64	282.84	18.01	-29.4	-32.1	19.4	6.04e-01	0	41	0	444596224	20	4882
2026-01-12 03:50:50.65	282.60	17.95	-30.0	-33.8	18.3	6.03e-01	0	41	0	446169088	20	5551
2026-01-12 03:50:51.66	282.36	17.88	-29.8	-32.6	18.6	6.05e-01	0	41	0	448266240	21	4971
2026-01-12 03:50:52.66	282.12	17.82	-29.4	-31.9	19.4	6.03e-01	0	42	0	449839104	20	4841
2026-01-12 03:50:53.67	281.89	17.75	-29.4	-31.9	19.4	6.01e-01	0	41	0	451936256	20	4854
2026-01-12 03:50:54.68	281.65	17.68	-29.5	-32.3	19.3	6.02e-01	0	41	0	453509120	20	4976
2026-01-12 03:50:55.69	281.41	17.62	-29.3	-31.7	19.5	6.02e-01	0	41	0	455606272	20	4786
2026-01-12 03:50:56.68	281.18	17.55	-29.2	-31.5	19.7	6.03e-01	0	41	0	457703424	20	4703
2026-01-12 03:50:57.69	280.95	17.48	-29.1	-31.4	19.8	6.03e-01	0	41	0	459276288	20	4663
2026-01-12 03:50:58.69	280.72	17.41	-29.3	-31.7	19.7	6.02e-01	0	41	0	461373440	20	4761
2026-01-12 03:50:59.70	280.49	17.35	-29.3	-31.7	19.7	6.03e-01	0	41	0	463470592	20	4753
2026-01-12 03:51:00.70	280.26	17.28	-29.4	-32.0	19.4	6.01e-01	0	42	0	465043456	20	4864
2026-01-12 03:51:01.71	280.03	17.21	-29.3	-31.9	19.4	6.04e-01	0	41	0	467140608	20	4831
2026-01-12 03:51:02.72	279.80	17.14	-29.2	-31.5	19.6	6.01e-01	0	42	0	468713472	20	4685
2026-01-12 03:51:03.73	279.57	17.07	-29.3	-31.9	19.4	6.03e-01	0	41	0	470810624	20	4826
2026-01-12 03:51:04.73	279.35	17.00	-29.5	-32.3	19.2	6.01e-01	0	41	0	472383488	20	4974
2026-01-12 03:51:05.74	279.12	16.93	-29.4	-32.2	19.2	6.02e-01	0	41	0	474480640	20	4945
2026-01-12 03:51:06.74	278.90	16.86	-29.3	-31.7	19.5	6.02e-01	0	41	0	476577792	20	4774
2026-01-12 03:51:07.75	278.68	16.79	-29.1	-31.3	19.8	6.03e-01	0	42	0	478150656	20	4645
2026-01-12 03:51:08.76	278.46	16.72	-29.3	-31.9	19.4	6.02e-01	0	42	0	480247808	20	4846
2026-01-12 03:51:09.76	278.24	16.65	-29.5	-32.5	19.1	6.04e-01	0	41	0	481820672	20	5047
2026-01-12 03:51:10.77	278.02	16.58	-29.6	-32.7	18.9	6.01e-01	0	42	0	483917824	20	5134
2026-01-12 03:51:11.78	277.80	16.51	-29.7	-32.8	18.9	6.02e-01	0	42	0	486014976	20	5156
2026-01-12 03:51:12.78	277.58	16.44	-29.6	-32.5	19.0	6.03e-01	0	41	0	487587840	20	5053
2026-01-12 03:51:13.78	277.37	16.37	-29.3	-31.9	19.4	6.03e-01	0	41	0	489684992	20	4860
2026-01-12 03:51:14.79	277.15	16.30	-29.4	-32.1	19.3	6.02e-01	0	42	0	491782144	20	4922
2026-01-12 03:51:15.80	276.94	16.23	-29.5	-32.5	19.0	6.02e-01	0	42	0	493355008	20	5060
2026-01-12 03:51:16.80	276.73	16.16	-29.4	-32.1	19.2	6.04e-01	0	41	0	495452160	20	4920
2026-01-12 03:51:17.80	276.52	16.09	-29.3	-31.9	19.3	6.03e-01	0	41	0	497025024	20	4852
2026-01-12 03:51:18.81	276.31	16.01	-29.5	-32.2	19.2	6.02e-01	0	42	0	499122176	20	4956
2026-01-12 03:51:19.81	276.10	15.94	-29.4	-32.1	19.2	6.02e-01	0	41	0	500695040	20	4928
2026-01-12 03:51:20.82	275.89	15.87	-29.5	-32.3	19.1	6.02e-01	0	41	0	502792192	20	5004
2026-01-12 03:51:21.82	275.69	15.80	-29.5	-32.4	19.1	6.02e-01	0	42	0	504889344	20	5015
2026-01-12 03:51:22.83	275.48	15.73	-29.7	-32.8	18.8	6.04e-01	0	41	0	506462208	20	5187
2026-01-12 03:51:23.83	275.28	15.66	-29.5	-32.3	19.1	6.03e-01	0	41	0	508559360	20	4976
2026-01-12 03:51:24.83	275.07	15.58	-29.3	-31.8	19.4	6.04e-01	0	42	0	510132224	20	4810
2026-01-12 03:51:25.84	274.87	15.51	-29.3	-31.8	19.4	6.03e-01	0	42	0	512229376	20	4823
2026-01-12 03:51:26.84	274.67	15.44	-29.3	-31.9	19.3	6.04e-01	0	41	0	514326528	20	4870
2026-01-12 03:51:27.85	274.47	15.37	-29.3	-31.8	19.4	6.04e-01	0	41	0	515899392	20	4807
2026-01-12 03:51:28.86	274.27	15.29	-29.4	-32.0	19.3	6.02e-01	0	41	0	517996544	20	4879
2026-01-12 03:51:29.86	274.07	15.22	-29.2	-31.7	19.5	6.03e-01	0	41	0	519569408	20	4777
2026-01-12 03:51:30.87	273.87	15.15	-29.2	-31.6	19.5	6.03e-01	0	41	0	521666560	20	4742
2026-01-12 03:51:31.88	273.68	15.07	-29.3	-31.9	19.4	6.02e-01	0	42	0	523763712	20	4835
2026-01-12 03:51:32.89	273.48	15.00	-29.3	-31.7	19.5	6.04e-01	0	42	0	525336576	20	4791
2026-01-12 03:51:33.90	273.28	14.93	-29.2	-31.7	19.5	6.03e-01	0	41	0	527433728	20	4780
2026-01-12 03:51:34.91	273.09	14.85	-29.3	-31.8	19.4	6.02e-01	0	41	0	529006592	20	4809
2026-01-12 03:51:35.91	272.90	14.78	-29.8	-33.1	18.7	6.04e-01	0	41	0	531103744	20	5294
2026-01-12 03:51:36.92	272.71	14.71	-29.7	-33.1	18.6	6.03e-01	0	42	0	533200896	20	5275
2026-01-12 03:51:37.93	272.52	14.63	-29.9	-33.5	18.4	6.03e-01	0	41	0	534773760	20	5456
2026-01-12 03:51:38.93	272.33	14.56	-29.7	-32.8	18.8	6.03e-01	0	42	0	536870912	20	5186
2026-01-12 03:51:39.94	272.14	14.49	-29.6	-32.7	18.8	5.99e-01	0	41	0	538443776	20	5153
2026-01-12 03:51:40.94	271.95	14.41	-29.8	-33.1	18.6	6.05e-01	0	42	0	540540928	20	5300
2026-01-12 03:51:41.95	271.77	14.34	-29.6	-32.8	18.8	6.03e-01	0	41	0	542638080	20	5158
2026-01-12 03:51:42.95	271.58	14.26	-29.4	-32.2	19.1	6.03e-01	0	42	0	544210944	20	4951
2026-01-12 03:51:43.96	271.40	14.19	-29.4	-32.1	19.2	6.04e-01	0	42	0	546308096	20	4907
2026-01-12 03:51:44.97	271.21	14.12	-29.4	-32.3	19.0	6.01e-01	0	41	0	547880960	20	4982
2026-01-12 03:51:45.98	271.03	14.04	-29.4	-32.1	19.1	6.02e-01	0	41	0	549978112	20	4932
2026-01-12 03:51:46.98	270.85	13.97	-29.3	-32.0	19.3	6.02e-01	0	42	0	552075264	20	4873
2026-01-12 03:51:47.99	270.67	13.89	-29.4	-32.1	19.1	6.03e-01	0	41	0	553648128	20	4921
2026-01-12 03:51:49.00	270.49	13.82	-29.5	-32.3	19.0	6.03e-01	0	41	0	555745280	20	5008
2026-01-12 03:51:50.00	270.31	13.75	-29.4	-32.1	19.2	6.04e-01	0	41	0	557318144	20	4912
2026-01-12 03:51:51.01	270.13	13.67	-29.2	-31.6	19.4	6.03e-01	0	41	0	559415296	20	4754
2026-01-12 03:51:52.01	269.96	13.60	-29.2	-31.5	19.5	6.02e-01	0	41	0	561512448	20	4735
2026-01-12 03:51:53.02	269.78	13.53	-29.2	-31.8	19.4	6.03e-01	0	42	0	563085312	20	4811
2026-01-12 03:51:54.02	269.61	13.45	-29.3	-32.0	19.2	6.02e-01	0	41	0	565182464	20	4897
2026-01-12 03:51:55.03	269.43	13.38	-29.4	-32.2	19.1	6.03e-01	0	42	0	566755328	20	4963
2026-01-12 03:51:56.03	269.26	13.30	-29.5	-32.4	18.9	6.02e-01	0	41	0	568852480	20	5057
2026-01-12 03:51:57.04	269.09	13.23	-29.7	-32.9	18.6	6.03e-01	0	41	0	570425344	20	5222
2026-01-12 03:51:58.05	268.92	13.16	-29.4	-32.1	19.0	6.03e-01	0	41	0	572522496	20	4940
2026-01-12 03:51:59.05	268.75	13.08	-29.3	-32.0	19.2	6.03e-01	0	41	0	574619648	20	4893
2026-01-12 03:52:00.06	268.58	13.01	-29.5	-32.3	18.9	6.04e-01	0	42	0	576192512	20	5020
2026-01-12 03:52:01.07	268.41	12.93	-29.3	-32.0	19.2	6.04e-01	0	41	0	578289664	20	4888
2026-01-12 03:52:02.08	268.24	12.86	-29.3	-32.0	19.2	6.04e-01	0	41	0	580386816	20	4891
2026-01-12 03:52:03.08	268.08	12.79	-29.5	-32.6	18.8	6.03e-01	0	41	0	581959680	20	5123
2026-01-12 03:52:04.08	267.91	12.71	-29.5	-32.4	19.0	6.03e-01	0	42	0	584056832	20	5039
2026-01-12 03:52:05.09	267.75	12.64	-29.5	-32.5	18.8	6.02e-01	0	41	0	585629696	20	5092
2026-01-12 03:52:06.09	267.59	12.57	-29.4	-32.2	19.0	6.02e-01	0	41	0	587726848	20	4987
2026-01-12 03:52:07.10	267.42	12.49	-29.4	-32.2	19.0	6.02e-01	0	41	0	589824000	20	4986
2026-01-12 03:52:08.11	267.26	12.42	-29.4	-32.1	19.1	6.01e-01	0	42	0	591396864	20	4921
2026-01-12 03:52:09.12	267.10	12.34	-29.3	-32.0	19.1	6.02e-01	0	42	0	593494016	20	4892
2026-01-12 03:52:10.12	266.94	12.27	-29.4	-32.1	19.0	6.02e-01	0	42	0	595066880	20	4933
2026-01-12 03:52:11.13	266.78	12.20	-29.5	-32.5	18.8	6.05e-01	0	42	0	597164032	20	5086
2026-01-12 03:52:12.13	266.62	12.12	-29.5	-32.5	18.8	6.02e-01	0	41	0	598736896	20	5088
2026-01-12 03:52:13.14	266.47	12.05	-29.5	-32.5	18.8	6.03e-01	0	42	0	600834048	20	5074
2026-01-12 03:52:14.15	266.31	11.98	-29.5	-32.5	18.8	6.03e-01	0	42	0	602931200	20	5101
2026-01-12 03:52:15.16	266.15	11.90	-29.6	-32.8	18.5	6.04e-01	0	41	0	604504064	20	5205
2026-01-12 03:52:16.16	266.00	11.83	-29.6	-32.7	18.6	6.03e-01	0	41	0	606601216	20	5150
2026-01-12 03:52:17.17	265.84	11.76	-29.6	-32.7	18.6	6.02e-01	0	41	0	608698368	20	5151
2026-01-12 03:52:18.17	265.69	11.68	-29.8	-33.2	18.2	6.04e-01	0	41	0	610271232	20	5368
2026-01-12 03:52:19.18	265.54	11.61	-29.6	-32.9	18.4	6.05e-01	0	41	0	612368384	20	5243
2026-01-12 03:52:20.18	265.39	11.54	-29.7	-33.2	18.3	6.05e-01	0	42	0	613941248	20	5348
2026-01-12 03:52:21.19	265.24	11.46	-30.0	-33.9	17.8	6.03e-01	0	42	0	616038400	20	5667
2026-01-12 03:52:22.20	265.09	11.39	-29.8	-33.3	18.2	6.04e-01	0	41	0	618135552	20	5411
2026-01-12 03:52:23.20	264.94	11.32	-29.8	-33.5	18.1	6.02e-01	0	41	0	619708416	20	5481
2026-01-12 03:52:24.21	264.79	11.25	-29.9	-33.6	18.1	6.04e-01	0	41	0	621805568	20	5513
2026-01-12 03:52:25.21	264.64	11.17	-29.8	-33.5	18.1	6.02e-01	0	42	0	623378432	20	5482
2026-01-12 03:52:26.22	264.50	11.10	-29.9	-33.6	18.0	6.03e-01	0	42	0	625475584	20	5528
2026-01-12 03:52:27.23	264.35	11.03	-30.0	-33.9	17.7	6.03e-01	0	42	0	627048448	20	5665
2026-01-12 03:52:28.23	264.20	10.95	-29.8	-33.5	18.0	6.05e-01	0	42	0	629145600	20	5512
2026-01-12 03:52:29.24	264.06	10.88	-29.6	-32.9	18.4	6.03e-01	0	41	0	631242752	20	5253
2026-01-12 03:52:30.25	263.92	10.81	-29.7	-33.0	18.4	6.03e-01	0	42	0	632815616	20	5293
2026-01-12 03:52:31.26	263.77	10.74	-29.7	-33.1	18.3	6.03e-01	0	41	0	634912768	20	5327
2026-01-12 03:52:32.27	263.63	10.66	-29.7	-33.2	18.2	6.06e-01	0	42	0	637009920	20	5370
2026-01-12 03:52:33.28	263.49	10.59	-29.8	-33.4	18.1	6.02e-01	0	41	0	638582784	20	5446
2026-01-12 03:52:34.28	263.35	10.52	-29.9	-33.8	17.8	6.04e-01	0	42	0	640679936	20	5619
2026-01-12 03:52:35.29	263.21	10.45	-29.7	-33.2	18.2	6.03e-01	0	42	0	642252800	20	5362
2026-01-12 03:52:36.30	263.07	10.38	-29.7	-33.2	18.1	6.01e-01	0	41	0	644349952	20	5378
2026-01-12 03:52:37.31	262.93	10.30	-29.6	-32.8	18.4	6.03e-01	0	41	0	646447104	20	5232
2026-01-12 03:52:38.31	262.79	10.23	-29.7	-33.2	18.1	6.01e-01	0	41	0	648019968	20	5371
2026-01-12 03:52:39.32	262.66	10.16	-29.8	-33.6	17.9	6.03e-01	0	42	0	650117120	20	5521
2026-01-12 03:52:40.32	262.52	10.09	-29.7	-33.2	18.2	6.04e-01	0	42	0	651689984	20	5373
2026-01-12 03:52:41.33	262.38	10.02	-29.7	-33.1	18.2	6.01e-01	0	41	0	653787136	20	5359
2026-01-12 03:52:42.34	262.25	9.94	-30.1	-33.7	17.4	6.04e-01	0	41	0	655360000	21	5499
2026-01-12 03:52:43.34	262.12	9.87	-29.7	-32.8	18.1	6.03e-01	0	41	0	657457152	21	5132
2026-01-12 03:52:44.35	261.98	9.80	-29.8	-33.0	18.0	6.03e-01	0	42	0	659554304	21	5186
2026-01-12 03:52:45.35	261.85	9.73	-29.8	-33.0	17.9	6.04e-01	0	41	0	661127168	21	5189
2026-01-12 03:52:46.36	261.72	9.66	-29.8	-33.0	17.9	6.03e-01	0	42	0	663224320	21	5195
2026-01-12 03:52:47.36	261.59	9.59	-30.1	-34.0	17.3	6.00e-01	0	41	0	665321472	21	5620
2026-01-12 03:52:48.37	261.46	9.52	-30.3	-34.3	17.0	6.03e-01	0	41	0	666894336	21	5759
2026-01-12 03:52:49.38	261.33	9.45	-30.0	-33.7	17.5	6.04e-01	0	42	0	668991488	21	5477
2026-01-12 03:52:50.39	261.20	9.38	-30.2	-34.2	17.1	6.01e-01	0	42	0	670564352	21	5693
2026-01-12 03:52:51.40	261.07	9.30	-30.1	-33.9	17.4	6.03e-01	0	41	0	672661504	21	5553
2026-01-12 03:52:52.40	260.94	9.23	-30.1	-33.8	17.3	6.04e-01	0	42	0	674758656	21	5544
2026-01-12 03:52:53.41	260.82	9.16	-30.1	-33.9	17.4	6.03e-01	0	41	0	676331520	21	5559
2026-01-12 03:52:54.42	260.69	9.09	-30.1	-33.7	17.4	6.03e-01	0	41	0	678428672	21	5505
2026-01-12 03:52:55.42	260.56	9.02	-29.9	-33.4	17.6	6.02e-01	0	42	0	680001536	21	5367
2026-01-12 03:52:56.43	260.44	8.95	-29.8	-33.2	17.7	6.02e-01	0	41	0	682098688	21	5270
2026-01-12 03:52:57.44	260.31	8.88	-29.9	-33.3	17.7	6.02e-01	0	42	0	683671552	21	5341
2026-01-12 03:52:58.44	260.19	8.81	-29.8	-33.0	17.9	6.03e-01	0	41	0	685768704	21	5222
2026-01-12 03:52:59.45	260.07	8.74	-29.8	-33.0	17.8	6.02e-01	0	42	0	687865856	21	5221
2026-01-12 03:53:00.45	259.95	8.67	-29.8	-32.9	17.9	6.04e-01	0	42	0	689438720	21	5174
2026-01-12 03:53:01.46	259.83	8.60	-30.0	-33.5	17.5	6.04e-01	0	42	0	691535872	21	5412
2026-01-12 03:53:02.46	259.71	8.53	-29.8	-33.1	17.7	6.03e-01	0	42	0	693633024	21	5251
2026-01-12 03:53:03.47	259.58	8.46	-29.7	-32.7	18.0	6.05e-01	0	41	0	695205888	21	5086
2026-01-12 03:53:04.48	259.46	8.39	-29.6	-32.4	18.1	6.03e-01	0	42	0	697303040	21	5001
2026-01-12 03:53:05.48	259.35	8.33	-29.7	-32.8	17.9	6.02e-01	0	41	0	698875904	21	5142
2026-01-12 03:53:06.49	259.23	8.26	-29.7	-32.9	17.9	6.02e-01	0	42	0	700973056	21	5161
2026-01-12 03:53:07.49	259.11	8.19	-29.6	-32.5	18.1	6.03e-01	0	42	0	703070208	21	5043
2026-01-12 03:53:08.50	258.99	8.12	-29.7	-32.9	17.9	6.01e-01	0	41	0	704643072	21	5167
2026-01-12 03:53:09.50	258.88	8.05	-29.8	-33.1	17.6	6.04e-01	0	41	0	706740224	21	5281
2026-01-12 03:53:10.51	258.76	7.98	-29.9	-33.4	17.5	6.05e-01	0	42	0	708313088	21	5374
2026-01-12 03:53:11.51	258.65	7.91	-29.9	-33.3	17.6	6.05e-01	0	41	0	710410240	21	5332
2026-01-12 03:53:12.52	258.53	7.84	-29.8	-33.3	17.6	6.04e-01	0	41	0	711983104	21	5331
2026-01-12 03:53:13.53	258.42	7.77	-29.8	-33.2	17.6	6.03e-01	0	42	0	714080256	21	5312
2026-01-12 03:53:14.53	258.30	7.71	-29.8	-33.1	17.7	6.04e-01	0	42	0	716177408	21	5257
2026-01-12 03:53:15.54	258.19	7.64	-29.8	-33.2	17.6	6.00e-01	0	41	0	717750272	21	5301
2026-01-12 03:53:16.55	258.08	7.57	-29.8	-33.3	17.5	6.04e-01	0	42	0	719847424	21	5330
2026-01-12 03:53:17.56	257.96	7.50	-29.9	-33.4	17.5	6.02e-01	0	42	0	721944576	21	5394
2026-01-12 03:53:18.56	257.85	7.43	-29.9	-33.3	17.5	6.00e-01	0	41	0	723517440	21	5365
2026-01-12 03:53:19.57	257.74	7.37	-29.9	-33.5	17.3	6.03e-01	0	41	0	725614592	21	5448
2026-01-12 03:53:20.57	257.63	7.30	-29.9	-33.4	17.4	6.03e-01	0	41	0	727187456	21	5389
2026-01-12 03:53:21.58	257.52	7.23	-29.8	-33.2	17.5	6.03e-01	0	41	0	729284608	21	5334
2026-01-12 03:53:22.59	257.41	7.16	-30.0	-33.9	17.1	6.03e-01	0	41	0	731381760	21	5615
2026-01-12 03:53:23.60	257.31	7.10	-29.8	-33.3	17.5	6.01e-01	0	41	0	732954624	21	5350
2026-01-12 03:53:24.60	257.20	7.03	-32.9	-50.7	4.0	7.42e-01	0	41	104	734527488	26	28029
2026-01-12 03:53:25.61	257.09	6.96	-33.3	-52.7	3.8	7.42e-01	0	41	104	734527488	27	33433

#Closed at: 2026-01-12 03:53:26
#Recorded file [734 MB]: D:/data/31010_260112_064652.dat