passes_logs/2026/01/12/R2M6_AANII_01/R2M6_AANII_01__20260112_130400_FENGYUN_3D_rec.log

#Pass ID: 20260112_130400_FENGYUN 3D
#Satellite: FENGYUN 3D
#Configuration: FENGYUN 3D
#almurnet v.1.7.20240730
#Start time: 2026-01-12 13:03:59

#Version: 2.2.20231116
#Station: R2M6_AANII_01
#Location: 30.233357 lon 59.946436 lat
#TLE: 1 43010U 17072A   26011.97305084  .00000235  00000+0  13268-3 0  9993
#TLE: 2 43010  98.9935 343.7425 0002238 114.1623 245.9787 14.19695178422825

#Time	Az	El	Level	Level2	SNR	BER	BlckErr	Temp	State	Recorded	gain1	gain2
2026-01-12 13:03:59.75	182.34	6.96	-27.3	-29.5	5.8	7.68e-01	0	39	0	0	14	4686
2026-01-12 13:04:00.75	182.39	7.03	-29.3	-32.7	5.4	7.85e-01	0	39	104	0	18	5319
2026-01-12 13:04:01.76	182.43	7.11	-29.6	-32.8	9.5	1.09e-02	0	39	0	0	19	5248
2026-01-12 13:04:02.76	182.48	7.18	-29.2	-31.7	10.3	6.17e-03	0	39	0	5242880	19	4833
2026-01-12 13:04:03.77	182.52	7.26	-29.3	-32.2	10.0	4.06e-03	0	39	0	11534336	19	5017
2026-01-12 13:04:04.77	182.57	7.33	-29.3	-32.0	10.1	5.93e-03	0	40	0	16777216	19	4937
2026-01-12 13:04:05.78	182.62	7.41	-28.7	-31.0	11.2	2.03e-03	0	39	0	22020096	18	4690
2026-01-12 13:04:06.79	182.66	7.49	-28.3	-30.0	11.8	3.41e-04	0	40	0	28311552	18	4362
2026-01-12 13:04:07.79	182.71	7.56	-28.0	-29.9	12.2	1.65e-04	0	40	0	33554432	17	4433
2026-01-12 13:04:08.80	182.76	7.64	-27.5	-29.1	13.0	2.97e-05	0	40	0	38797312	16	4303
2026-01-12 13:04:09.81	182.80	7.72	-27.1	-28.6	13.4	1.60e-05	0	40	0	45088768	15	4279
2026-01-12 13:04:10.82	182.85	7.80	-26.9	-28.0	13.8	2.17e-05	0	40	0	50331648	15	4131
2026-01-12 13:04:11.82	182.90	7.87	-26.6	-28.0	14.1	1.10e-06	0	40	0	56623104	14	4213
2026-01-12 13:04:12.83	182.95	7.95	-26.6	-27.9	14.2	1.10e-06	0	40	0	61865984	14	4186
2026-01-12 13:04:13.84	183.00	8.03	-26.5	-27.7	14.3	0.00e+00	0	40	0	67108864	14	4137
2026-01-12 13:04:14.84	183.04	8.11	-26.6	-27.9	14.1	1.10e-06	0	40	0	73400320	14	4206
2026-01-12 13:04:15.84	183.09	8.18	-26.6	-27.9	14.2	0.00e+00	0	40	0	78643200	14	4180
2026-01-12 13:04:16.85	183.14	8.26	-26.4	-27.4	14.4	0.00e+00	0	40	0	84934656	14	4070
2026-01-12 13:04:17.86	183.19	8.34	-26.3	-27.4	14.5	0.00e+00	0	40	0	90177536	14	4046
2026-01-12 13:04:18.86	183.24	8.42	-26.3	-27.4	14.5	1.10e-06	0	40	0	96468992	14	4046
2026-01-12 13:04:19.87	183.29	8.50	-26.4	-27.9	14.4	9.10e-06	0	40	0	101711872	13	4307
2026-01-12 13:04:20.88	183.34	8.58	-26.0	-27.1	14.9	0.00e+00	0	40	0	106954752	13	4073
2026-01-12 13:04:21.89	183.39	8.66	-26.1	-27.3	14.8	1.10e-06	0	40	0	113246208	13	4122
2026-01-12 13:04:22.89	183.44	8.74	-26.0	-27.1	14.9	3.40e-06	0	40	0	118489088	13	4089
2026-01-12 13:04:23.90	183.49	8.82	-26.1	-27.2	14.9	0.00e+00	0	40	0	123731968	13	4110
2026-01-12 13:04:24.91	183.54	8.90	-26.3	-27.8	14.5	0.00e+00	0	40	0	130023424	13	4263
2026-01-12 13:04:25.92	183.59	8.98	-26.3	-27.7	14.6	1.10e-06	0	40	0	135266304	13	4253
2026-01-12 13:04:26.92	183.65	9.06	-26.4	-27.9	14.5	1.10e-06	0	40	0	141557760	13	4294
2026-01-12 13:04:27.93	183.70	9.14	-26.3	-27.6	14.6	0.00e+00	0	40	0	146800640	13	4224
2026-01-12 13:04:28.93	183.75	9.22	-26.2	-27.5	14.7	1.02e-05	0	40	0	152043520	13	4198
2026-01-12 13:04:29.94	183.80	9.30	-26.3	-27.8	14.6	0.00e+00	0	40	0	158334976	13	4267
2026-01-12 13:04:30.94	183.85	9.39	-26.3	-27.8	14.6	0.00e+00	0	40	0	163577856	13	4252
2026-01-12 13:04:31.95	183.91	9.47	-26.5	-28.2	14.4	1.02e-05	0	40	0	169869312	13	4367
2026-01-12 13:04:32.95	183.96	9.55	-26.3	-27.8	14.6	0.00e+00	0	40	0	175112192	13	4272
2026-01-12 13:04:33.96	184.01	9.63	-26.6	-28.4	14.2	1.10e-06	0	40	0	181403648	13	4447
2026-01-12 13:04:34.96	184.07	9.71	-26.2	-27.6	14.7	0.00e+00	0	41	0	186646528	13	4213
2026-01-12 13:04:35.97	184.12	9.80	-26.3	-27.7	14.6	0.00e+00	0	40	0	191889408	13	4248
2026-01-12 13:04:36.98	184.18	9.88	-26.3	-27.7	14.6	0.00e+00	0	41	0	198180864	13	4241
2026-01-12 13:04:37.98	184.23	9.96	-26.5	-28.3	14.3	1.10e-06	0	40	0	203423744	13	4405
2026-01-12 13:04:38.99	184.29	10.05	-26.3	-27.8	14.6	0.00e+00	0	41	0	208666624	13	4257
2026-01-12 13:04:40.00	184.34	10.13	-26.2	-27.6	14.7	0.00e+00	0	41	0	214958080	13	4216
2026-01-12 13:04:41.01	184.40	10.22	-26.3	-27.6	14.7	1.60e-05	0	41	0	220200960	13	4226
2026-01-12 13:04:42.01	184.45	10.30	-26.2	-27.6	14.8	0.00e+00	0	41	0	226492416	13	4208
2026-01-12 13:04:43.02	184.51	10.39	-26.3	-27.8	14.7	1.10e-06	0	40	0	231735296	13	4267
2026-01-12 13:04:44.03	184.57	10.47	-26.3	-27.7	14.7	0.00e+00	0	41	0	236978176	13	4240
2026-01-12 13:04:45.04	184.62	10.56	-26.3	-27.7	14.7	0.00e+00	0	41	0	243269632	13	4248
2026-01-12 13:04:46.04	184.68	10.64	-26.1	-27.4	14.9	0.00e+00	0	41	0	248512512	13	4153
2026-01-12 13:04:47.05	184.74	10.73	-26.0	-27.1	15.0	0.00e+00	0	40	0	254803968	13	4072
2026-01-12 13:04:48.06	184.80	10.82	-25.9	-26.9	15.2	0.00e+00	0	41	0	260046848	13	4030
2026-01-12 13:04:49.06	184.85	10.90	-25.7	-26.9	15.4	0.00e+00	0	41	0	266338304	12	4147
2026-01-12 13:04:50.07	184.91	10.99	-25.8	-27.2	15.3	0.00e+00	0	41	0	271581184	12	4220
2026-01-12 13:04:51.08	184.97	11.08	-25.8	-27.2	15.3	0.00e+00	0	41	0	276824064	12	4211
2026-01-12 13:04:52.08	185.03	11.16	-25.9	-27.4	15.2	0.00e+00	0	41	0	283115520	12	4254
2026-01-12 13:04:53.09	185.09	11.25	-25.8	-27.1	15.3	0.00e+00	0	41	0	288358400	12	4198
2026-01-12 13:04:54.10	185.15	11.34	-25.8	-27.0	15.4	0.00e+00	0	41	0	293601280	12	4168
2026-01-12 13:04:55.11	185.21	11.43	-25.9	-27.3	15.2	0.00e+00	0	41	0	299892736	12	4243
2026-01-12 13:04:56.11	185.27	11.52	-25.6	-26.7	15.6	0.00e+00	0	41	0	305135616	12	4077
2026-01-12 13:04:57.12	185.33	11.61	-25.7	-27.0	15.4	0.00e+00	0	41	0	311427072	12	4156
2026-01-12 13:04:58.12	185.39	11.70	-25.7	-26.9	15.5	0.00e+00	0	41	0	316669952	12	4134
2026-01-12 13:04:59.13	185.45	11.79	-25.8	-27.1	15.4	0.00e+00	0	41	0	321912832	12	4184
2026-01-12 13:05:00.14	185.51	11.88	-25.5	-26.5	15.7	0.00e+00	0	41	0	328204288	12	4029
2026-01-12 13:05:01.14	185.58	11.96	-25.5	-26.5	15.7	0.00e+00	0	41	0	333447168	12	4031
2026-01-12 13:05:02.15	185.64	12.06	-25.6	-26.6	15.7	0.00e+00	0	41	0	339738624	12	4053
2026-01-12 13:05:03.16	185.70	12.15	-25.7	-27.0	15.5	0.00e+00	0	41	0	344981504	12	4143
2026-01-12 13:05:04.17	185.77	12.24	-25.5	-26.5	15.8	0.00e+00	0	41	0	351272960	12	4012
2026-01-12 13:05:05.17	185.83	12.33	-25.4	-26.3	15.8	0.00e+00	0	41	0	356515840	12	3974
2026-01-12 13:05:06.18	185.89	12.42	-25.5	-26.4	15.8	0.00e+00	0	41	0	361758720	12	3997
2026-01-12 13:05:07.18	185.96	12.51	-25.4	-26.3	15.9	0.00e+00	0	41	0	368050176	12	3965
2026-01-12 13:05:08.19	186.02	12.60	-25.5	-26.5	15.8	0.00e+00	0	41	0	373293056	12	4025
2026-01-12 13:05:09.20	186.09	12.70	-25.4	-26.3	15.9	0.00e+00	0	41	0	378535936	12	3975
2026-01-12 13:05:10.21	186.15	12.79	-25.4	-26.3	15.9	0.00e+00	0	41	0	384827392	12	3974
2026-01-12 13:05:11.21	186.22	12.88	-25.6	-26.6	15.8	0.00e+00	0	41	0	390070272	12	4047
2026-01-12 13:05:12.22	186.28	12.98	-25.5	-26.5	15.8	0.00e+00	0	41	0	396361728	12	4010
2026-01-12 13:05:13.22	186.35	13.07	-25.5	-26.5	15.8	0.00e+00	0	41	0	401604608	12	4032
2026-01-12 13:05:14.23	186.42	13.17	-25.7	-26.8	15.6	0.00e+00	0	41	0	406847488	12	4094
2026-01-12 13:05:15.24	186.49	13.26	-25.7	-26.8	15.6	0.00e+00	0	41	0	413138944	12	4101
2026-01-12 13:05:16.24	186.55	13.35	-25.6	-26.7	15.7	0.00e+00	0	41	0	418381824	12	4080
2026-01-12 13:05:17.25	186.62	13.45	-25.7	-27.0	15.6	0.00e+00	0	41	0	424673280	12	4142
2026-01-12 13:05:18.26	186.69	13.55	-25.8	-27.2	15.4	0.00e+00	0	41	0	429916160	12	4201
2026-01-12 13:05:19.27	186.76	13.64	-25.7	-26.8	15.6	4.50e-06	0	41	0	436207616	12	4106
2026-01-12 13:05:20.27	186.83	13.74	-25.7	-26.9	15.6	0.00e+00	0	41	0	441450496	12	4115
2026-01-12 13:05:21.28	186.90	13.83	-25.5	-26.4	15.9	0.00e+00	0	41	0	446693376	12	4006
2026-01-12 13:05:22.29	186.97	13.93	-25.4	-26.2	16.0	0.00e+00	0	41	0	452984832	12	3945
2026-01-12 13:05:23.30	187.04	14.03	-25.4	-26.2	16.0	0.00e+00	0	41	0	458227712	12	3942
2026-01-12 13:05:24.31	187.11	14.13	-25.3	-26.1	16.1	0.00e+00	0	41	0	464519168	12	3915
2026-01-12 13:05:25.32	187.19	14.23	-25.3	-26.4	16.2	0.00e+00	0	41	0	469762048	11	4110
2026-01-12 13:05:26.32	187.26	14.32	-25.2	-26.3	16.3	0.00e+00	0	41	0	475004928	11	4082
2026-01-12 13:05:27.33	187.33	14.42	-25.1	-26.0	16.4	0.00e+00	0	41	0	481296384	11	4007
2026-01-12 13:05:28.33	187.40	14.52	-25.1	-26.1	16.4	5.70e-06	0	41	0	486539264	11	4018
2026-01-12 13:05:29.33	187.48	14.62	-25.2	-26.2	16.4	0.00e+00	0	41	0	491782144	11	4052
2026-01-12 13:05:30.34	187.55	14.72	-25.1	-25.9	16.4	0.00e+00	0	41	0	498073600	11	3989
2026-01-12 13:05:31.35	187.63	14.82	-25.2	-26.2	16.4	4.50e-06	0	41	0	503316480	11	4040
2026-01-12 13:05:32.35	187.70	14.92	-25.1	-26.1	16.4	0.00e+00	0	41	0	509607936	11	4028
2026-01-12 13:05:33.35	187.78	15.02	-25.0	-25.9	16.6	0.00e+00	0	42	0	514850816	11	3967
2026-01-12 13:05:34.36	187.85	15.12	-25.0	-25.9	16.6	0.00e+00	0	41	0	521142272	11	3973
2026-01-12 13:05:35.36	187.93	15.22	-24.9	-25.6	16.7	0.00e+00	0	41	0	526385152	11	3908
2026-01-12 13:05:36.37	188.01	15.33	-25.0	-25.7	16.7	0.00e+00	0	41	0	531628032	11	3931
2026-01-12 13:05:37.37	188.08	15.43	-24.9	-25.5	16.8	2.20e-06	0	42	0	537919488	11	3883
2026-01-12 13:05:38.38	188.16	15.53	-24.8	-25.4	16.8	0.00e+00	0	41	0	543162368	11	3863
2026-01-12 13:05:39.38	188.24	15.63	-24.9	-25.6	16.8	0.00e+00	0	41	0	548405248	11	3893
2026-01-12 13:05:40.39	188.32	15.74	-24.8	-25.4	16.8	2.20e-06	0	41	0	554696704	11	3863
2026-01-12 13:05:41.39	188.40	15.84	-24.7	-25.7	16.9	0.00e+00	0	41	0	559939584	10	4038
2026-01-12 13:05:42.39	188.48	15.95	-24.8	-25.8	16.9	0.00e+00	0	41	0	565182464	10	4064
2026-01-12 13:05:43.40	188.56	16.05	-24.8	-25.9	16.9	9.10e-06	0	41	0	571473920	10	4072
2026-01-12 13:05:44.41	188.64	16.16	-24.8	-26.0	16.8	0.00e+00	0	41	0	576716800	10	4101
2026-01-12 13:05:45.41	188.72	16.26	-24.8	-25.9	16.8	0.00e+00	0	41	0	583008256	10	4083
2026-01-12 13:05:46.42	188.80	16.37	-24.7	-25.7	16.9	0.00e+00	0	41	0	588251136	10	4043
2026-01-12 13:05:47.43	188.89	16.47	-24.7	-25.7	17.0	0.00e+00	0	41	0	594542592	10	4040
2026-01-12 13:05:48.43	188.97	16.58	-24.7	-25.7	17.0	0.00e+00	0	42	0	599785472	10	4020
2026-01-12 13:05:49.44	189.05	16.69	-24.5	-25.3	17.2	0.00e+00	0	41	0	605028352	10	3926
2026-01-12 13:05:50.45	189.14	16.80	-24.5	-25.1	17.3	0.00e+00	0	41	0	611319808	10	3895
2026-01-12 13:05:51.45	189.22	16.90	-24.4	-24.9	17.4	0.00e+00	0	41	0	616562688	10	3845
2026-01-12 13:05:52.46	189.31	17.01	-24.5	-25.2	17.2	0.00e+00	0	41	0	622854144	10	3916
2026-01-12 13:05:53.46	189.40	17.12	-24.4	-25.0	17.3	0.00e+00	0	41	0	628097024	10	3865
2026-01-12 13:05:54.47	189.48	17.23	-24.1	-25.0	17.6	0.00e+00	0	41	0	633339904	9	3953
2026-01-12 13:05:55.48	189.57	17.34	-24.1	-24.8	17.7	0.00e+00	0	42	0	639631360	9	3926
2026-01-12 13:05:56.49	189.66	17.45	-23.9	-24.4	17.9	0.00e+00	0	41	0	644874240	9	3822
2026-01-12 13:05:57.50	189.75	17.56	-23.9	-24.4	17.9	0.00e+00	0	42	0	650117120	9	3821
2026-01-12 13:05:58.50	189.84	17.67	-23.9	-24.4	17.9	0.00e+00	0	41	0	656408576	9	3825
2026-01-12 13:05:59.50	189.93	17.78	-23.9	-24.4	17.9	0.00e+00	0	41	0	661651456	9	3824
2026-01-12 13:06:00.50	190.02	17.90	-23.9	-24.4	17.9	0.00e+00	0	41	0	667942912	9	3824
2026-01-12 13:06:01.51	190.11	18.01	-23.9	-24.5	17.9	0.00e+00	0	41	0	673185792	9	3843
2026-01-12 13:06:02.52	190.20	18.12	-24.1	-24.8	17.7	0.00e+00	0	41	0	679477248	9	3917
2026-01-12 13:06:03.52	190.29	18.23	-24.0	-24.6	17.8	0.00e+00	0	42	0	684720128	9	3875
2026-01-12 13:06:04.53	190.39	18.35	-24.1	-24.9	17.7	0.00e+00	0	41	0	689963008	9	3952
2026-01-12 13:06:05.53	190.48	18.46	-24.1	-25.0	17.7	0.00e+00	0	41	0	696254464	9	3954
2026-01-12 13:06:06.54	190.57	18.58	-24.2	-25.1	17.6	0.00e+00	0	41	0	701497344	9	3983
2026-01-12 13:06:07.55	190.67	18.69	-24.1	-24.9	17.7	0.00e+00	0	42	0	706740224	9	3939
2026-01-12 13:06:08.56	190.77	18.81	-24.2	-25.2	17.6	0.00e+00	0	42	0	713031680	9	4007
2026-01-12 13:06:09.57	190.86	18.93	-24.2	-25.0	17.6	0.00e+00	0	42	0	718274560	9	3970
2026-01-12 13:06:10.58	190.96	19.04	-24.2	-25.0	17.6	0.00e+00	0	42	0	724566016	9	3976
2026-01-12 13:06:11.58	191.06	19.16	-24.2	-25.1	17.6	0.00e+00	0	42	0	729808896	9	3982
2026-01-12 13:06:12.59	191.16	19.28	-24.0	-24.6	17.9	0.00e+00	0	41	0	735051776	9	3864
2026-01-12 13:06:13.60	191.26	19.40	-24.1	-24.9	17.8	0.00e+00	0	41	0	741343232	9	3930
2026-01-12 13:06:14.61	191.36	19.51	-24.0	-24.7	17.8	0.00e+00	0	42	0	746586112	9	3886
2026-01-12 13:06:15.61	191.46	19.63	-24.1	-24.8	17.8	0.00e+00	0	41	0	752877568	9	3927
2026-01-12 13:06:16.61	191.56	19.75	-24.1	-24.8	17.8	0.00e+00	0	41	0	758120448	9	3910
2026-01-12 13:06:17.62	191.66	19.87	-24.0	-24.7	17.9	0.00e+00	0	41	0	764411904	9	3885
2026-01-12 13:06:18.62	191.77	19.99	-24.1	-24.9	17.8	0.00e+00	0	41	0	769654784	9	3933
2026-01-12 13:06:19.63	191.87	20.11	-24.0	-24.7	17.8	0.00e+00	0	41	0	774897664	9	3889
2026-01-12 13:06:20.64	191.98	20.23	-23.8	-24.3	18.1	0.00e+00	0	42	0	781189120	9	3789
2026-01-12 13:06:21.65	192.08	20.36	-23.7	-24.5	18.2	0.00e+00	0	42	0	786432000	8	3953
2026-01-12 13:06:22.65	192.19	20.48	-23.6	-24.4	18.3	0.00e+00	0	42	0	791674880	8	3926
2026-01-12 13:06:23.66	192.30	20.60	-23.7	-24.5	18.2	0.00e+00	0	41	0	797966336	8	3943
2026-01-12 13:06:24.67	192.41	20.73	-23.6	-24.4	18.3	0.00e+00	0	42	0	803209216	8	3919
2026-01-12 13:06:25.67	192.51	20.85	-23.5	-24.1	18.4	0.00e+00	0	41	0	809500672	8	3847
2026-01-12 13:06:26.67	192.62	20.97	-23.5	-24.1	18.4	0.00e+00	0	42	0	814743552	8	3863
2026-01-12 13:06:27.68	192.74	21.10	-23.5	-24.0	18.5	2.20e-06	0	42	0	819986432	8	3835
2026-01-12 13:06:28.69	192.85	21.22	-23.5	-24.0	18.5	0.00e+00	0	41	0	826277888	8	3841
2026-01-12 13:06:29.70	192.96	21.35	-23.5	-24.2	18.4	0.00e+00	0	42	0	831520768	8	3879
2026-01-12 13:06:30.70	193.07	21.48	-23.6	-24.3	18.4	3.40e-06	0	42	0	837812224	8	3890
2026-01-12 13:06:31.71	193.19	21.60	-23.6	-24.4	18.3	0.00e+00	0	42	0	843055104	8	3915
2026-01-12 13:06:32.72	193.30	21.73	-23.7	-24.5	18.2	0.00e+00	0	42	0	849346560	8	3957
2026-01-12 13:06:33.72	193.42	21.86	-23.6	-24.3	18.4	0.00e+00	0	42	0	854589440	8	3896
2026-01-12 13:06:34.72	193.54	21.99	-23.6	-24.3	18.4	0.00e+00	0	42	0	859832320	8	3896
2026-01-12 13:06:35.73	193.65	22.12	-23.6	-24.3	18.4	0.00e+00	0	42	0	866123776	8	3902
2026-01-12 13:06:36.74	193.77	22.25	-23.7	-24.5	18.2	0.00e+00	0	42	0	871366656	8	3959
2026-01-12 13:06:37.74	193.89	22.38	-23.6	-24.3	18.3	0.00e+00	0	42	0	876609536	8	3907
2026-01-12 13:06:38.75	194.01	22.51	-23.4	-23.8	18.6	0.00e+00	0	42	0	882900992	8	3796
2026-01-12 13:06:39.76	194.14	22.64	-23.2	-24.0	18.7	1.10e-06	0	42	0	888143872	7	3943
2026-01-12 13:06:40.77	194.26	22.77	-23.2	-24.0	18.7	0.00e+00	0	42	0	894435328	7	3935
2026-01-12 13:06:41.77	194.38	22.90	-23.3	-24.2	18.7	0.00e+00	0	42	0	899678208	7	3984
2026-01-12 13:06:42.78	194.51	23.04	-23.4	-24.4	18.6	0.00e+00	0	42	0	904921088	7	4031
2026-01-12 13:06:43.79	194.64	23.17	-23.3	-24.2	18.6	0.00e+00	0	42	0	911212544	7	3988
2026-01-12 13:06:44.79	194.76	23.31	-23.3	-24.1	18.7	0.00e+00	0	41	0	916455424	7	3957
2026-01-12 13:06:45.81	194.89	23.44	-23.4	-24.4	18.6	0.00e+00	0	42	0	922746880	7	4045
2026-01-12 13:06:46.81	195.02	23.58	-23.3	-24.2	18.7	0.00e+00	0	41	0	927989760	7	3991
2026-01-12 13:06:47.81	195.15	23.71	-23.2	-23.8	18.9	0.00e+00	0	42	0	934281216	7	3899
2026-01-12 13:06:48.81	195.28	23.85	-23.2	-23.9	18.8	0.00e+00	0	42	0	939524096	7	3912
2026-01-12 13:06:49.81	195.41	23.98	-23.1	-23.6	19.0	0.00e+00	0	42	0	944766976	7	3845
2026-01-12 13:06:50.82	195.55	24.12	-23.3	-24.1	18.7	0.00e+00	0	42	0	951058432	7	3965
2026-01-12 13:06:51.82	195.68	24.26	-23.2	-23.9	18.8	0.00e+00	0	42	0	956301312	7	3914
2026-01-12 13:06:52.83	195.82	24.40	-23.0	-23.6	19.0	0.00e+00	0	42	0	961544192	7	3833
2026-01-12 13:06:53.84	195.95	24.54	-22.9	-23.4	19.1	0.00e+00	0	42	0	967835648	7	3797
2026-01-12 13:06:54.85	196.09	24.68	-23.1	-23.8	18.9	0.00e+00	0	42	0	973078528	7	3892
2026-01-12 13:06:55.85	196.23	24.82	-22.9	-23.4	19.1	0.00e+00	0	42	0	979369984	7	3789
2026-01-12 13:06:56.86	196.37	24.96	-23.0	-23.5	19.1	0.00e+00	0	42	0	984612864	7	3818
2026-01-12 13:06:57.87	196.52	25.10	-23.1	-23.8	18.9	0.00e+00	0	42	0	989855744	7	3883
2026-01-12 13:06:58.87	196.66	25.24	-23.2	-23.9	18.8	0.00e+00	0	42	0	996147200	7	3920
2026-01-12 13:06:59.87	196.80	25.38	-23.1	-23.7	18.9	0.00e+00	0	41	0	1001390080	7	3878
2026-01-12 13:07:00.88	196.95	25.53	-23.1	-23.8	18.9	0.00e+00	0	42	0	1007681536	7	3891
2026-01-12 13:07:01.88	197.09	25.67	-23.0	-23.6	19.0	0.00e+00	0	42	0	1012924416	7	3849
2026-01-12 13:07:02.88	197.24	25.81	-23.1	-23.7	19.0	0.00e+00	0	42	0	1018167296	7	3864
2026-01-12 13:07:03.88	197.39	25.96	-23.0	-23.6	19.0	0.00e+00	0	42	0	1024458752	7	3844
2026-01-12 13:07:04.89	197.54	26.10	-23.2	-24.0	18.8	0.00e+00	0	42	0	1029701632	7	3935
2026-01-12 13:07:05.90	197.70	26.25	-23.0	-23.6	19.0	0.00e+00	0	42	0	1034944512	7	3844
2026-01-12 13:07:06.91	197.85	26.40	-22.8	-23.1	19.3	0.00e+00	0	42	0	1041235968	7	3729
2026-01-12 13:07:07.91	198.00	26.54	-22.8	-23.5	19.3	0.00e+00	0	42	0	1046478848	6	3935
2026-01-12 13:07:08.92	198.16	26.69	-22.8	-23.6	19.3	0.00e+00	0	42	0	1052770304	6	3950
2026-01-12 13:07:09.93	198.32	26.84	-22.7	-23.5	19.3	0.00e+00	0	42	0	1058013184	6	3929
2026-01-12 13:07:10.94	198.48	26.99	-22.8	-23.6	19.3	0.00e+00	0	42	0	1063256064	6	3949
2026-01-12 13:07:11.94	198.64	27.14	-22.7	-23.3	19.4	0.00e+00	0	42	0	1069547520	6	3889
2026-01-12 13:07:12.94	198.80	27.29	-22.7	-23.4	19.4	0.00e+00	0	42	0	1074790400	6	3908
2026-01-12 13:07:13.95	198.96	27.44	-22.7	-23.3	19.4	0.00e+00	0	42	0	1081081856	6	3873
2026-01-12 13:07:14.95	199.13	27.59	-22.7	-23.4	19.4	0.00e+00	0	42	0	1086324736	6	3901
2026-01-12 13:07:15.96	199.30	27.74	-22.9	-23.8	19.2	0.00e+00	0	42	0	1092616192	6	3988
2026-01-12 13:07:16.97	199.47	27.90	-22.9	-23.9	19.2	0.00e+00	0	41	0	1097859072	6	4013
2026-01-12 13:07:17.98	199.64	28.05	-23.0	-24.0	19.1	0.00e+00	0	42	0	1103101952	6	4053
2026-01-12 13:07:18.99	199.81	28.21	-22.8	-23.7	19.3	0.00e+00	0	42	0	1109393408	6	3972
2026-01-12 13:07:19.99	199.98	28.36	-22.8	-23.6	19.3	0.00e+00	0	42	0	1114636288	6	3961
2026-01-12 13:07:20.99	200.15	28.51	-22.9	-23.9	19.2	0.00e+00	0	42	0	1119879168	6	4024
2026-01-12 13:07:22.00	200.33	28.67	-23.0	-24.0	19.1	0.00e+00	0	42	0	1126170624	6	4036
2026-01-12 13:07:23.01	200.51	28.83	-23.1	-24.2	19.0	0.00e+00	0	42	0	1131413504	6	4099
2026-01-12 13:07:24.02	200.69	28.98	-22.9	-23.8	19.2	0.00e+00	0	42	0	1137704960	6	3992
2026-01-12 13:07:25.03	200.87	29.14	-22.8	-23.7	19.3	0.00e+00	0	42	0	1142947840	6	3971
2026-01-12 13:07:26.03	201.06	29.30	-22.9	-23.8	19.2	0.00e+00	0	42	0	1148190720	6	3992
2026-01-12 13:07:27.03	201.24	29.46	-23.1	-24.2	19.0	0.00e+00	0	42	0	1154482176	6	4090
2026-01-12 13:07:28.04	201.43	29.62	-22.9	-23.8	19.2	0.00e+00	0	42	0	1159725056	6	3993
2026-01-12 13:07:29.04	201.61	29.78	-22.8	-23.6	19.3	0.00e+00	0	42	0	1166016512	6	3958
2026-01-12 13:07:30.04	201.80	29.93	-22.8	-23.7	19.3	0.00e+00	0	42	0	1171259392	6	3972
2026-01-12 13:07:31.05	202.00	30.10	-23.0	-24.0	19.1	0.00e+00	0	42	0	1176502272	6	4052
2026-01-12 13:07:32.06	202.19	30.26	-22.7	-23.4	19.4	0.00e+00	0	42	0	1182793728	6	3902
2026-01-12 13:07:33.07	202.39	30.42	-22.6	-23.1	19.6	0.00e+00	0	42	0	1188036608	6	3830
2026-01-12 13:07:34.07	202.59	30.58	-22.6	-23.1	19.6	0.00e+00	0	42	0	1194328064	6	3833
2026-01-12 13:07:35.07	202.79	30.74	-22.8	-23.6	19.4	0.00e+00	0	42	0	1199570944	6	3942
2026-01-12 13:07:36.08	202.99	30.91	-22.6	-23.2	19.5	0.00e+00	0	42	0	1204813824	6	3865
2026-01-12 13:07:37.08	203.19	31.07	-22.8	-23.6	19.3	0.00e+00	0	42	0	1211105280	6	3960
2026-01-12 13:07:38.09	203.40	31.24	-22.7	-23.4	19.4	0.00e+00	0	42	0	1216348160	6	3909
2026-01-12 13:07:39.09	203.60	31.40	-22.7	-23.3	19.5	3.40e-06	0	42	0	1221591040	6	3889
2026-01-12 13:07:40.10	203.82	31.57	-22.7	-23.3	19.5	0.00e+00	0	42	0	1227882496	6	3887
2026-01-12 13:07:41.11	204.03	31.73	-22.6	-23.2	19.5	0.00e+00	0	42	0	1233125376	6	3868
2026-01-12 13:07:42.11	204.24	31.90	-22.7	-23.4	19.5	5.70e-06	0	42	0	1239416832	6	3905
2026-01-12 13:07:43.13	204.46	32.07	-22.8	-23.5	19.4	0.00e+00	0	42	0	1244659712	6	3931
2026-01-12 13:07:44.13	204.68	32.24	-22.6	-23.3	19.5	0.00e+00	0	42	0	1250951168	6	3875
2026-01-12 13:07:45.14	204.90	32.40	-22.6	-23.3	19.5	0.00e+00	0	42	0	1256194048	6	3874
2026-01-12 13:07:46.15	205.13	32.57	-22.6	-23.2	19.6	0.00e+00	0	42	0	1261436928	6	3845
2026-01-12 13:07:47.16	205.35	32.74	-22.6	-23.2	19.6	0.00e+00	0	42	0	1267728384	6	3850
2026-01-12 13:07:48.16	205.58	32.91	-22.6	-23.1	19.6	3.40e-06	0	42	0	1272971264	6	3829
2026-01-12 13:07:49.17	205.81	33.08	-22.7	-23.3	19.5	0.00e+00	0	42	0	1279262720	6	3883
2026-01-12 13:07:50.18	206.04	33.25	-22.8	-23.6	19.4	0.00e+00	0	42	0	1284505600	6	3956
2026-01-12 13:07:51.18	206.28	33.42	-22.8	-23.6	19.4	4.50e-06	0	42	0	1289748480	6	3939
2026-01-12 13:07:52.18	206.51	33.59	-22.8	-23.5	19.4	0.00e+00	0	42	0	1296039936	6	3932
2026-01-12 13:07:53.18	206.75	33.76	-22.8	-23.6	19.4	0.00e+00	0	42	0	1301282816	6	3943
2026-01-12 13:07:54.19	206.99	33.94	-22.8	-23.6	19.4	0.00e+00	0	42	0	1306525696	6	3954
2026-01-12 13:07:55.20	207.24	34.11	-22.9	-23.7	19.4	0.00e+00	0	42	0	1312817152	6	3974
2026-01-12 13:07:56.21	207.49	34.28	-22.5	-23.0	19.7	0.00e+00	0	42	0	1318060032	6	3797
2026-01-12 13:07:57.22	207.74	34.46	-22.5	-23.0	19.7	0.00e+00	0	42	0	1324351488	6	3802
2026-01-12 13:07:58.22	207.99	34.63	-22.6	-23.2	19.6	0.00e+00	0	42	0	1329594368	6	3851
2026-01-12 13:07:59.23	208.25	34.81	-22.4	-22.8	19.8	0.00e+00	0	42	0	1335885824	6	3759
2026-01-12 13:08:00.23	208.50	34.98	-22.5	-22.9	19.7	0.00e+00	0	42	0	1341128704	6	3793
2026-01-12 13:08:01.24	208.77	35.16	-22.7	-23.4	19.5	0.00e+00	0	42	0	1346371584	6	3904
2026-01-12 13:08:02.25	209.03	35.33	-22.8	-23.6	19.4	0.00e+00	0	42	0	1352663040	6	3948
2026-01-12 13:08:03.26	209.30	35.51	-23.1	-24.2	19.1	0.00e+00	0	42	0	1357905920	6	4092
2026-01-12 13:08:04.26	209.57	35.68	-22.6	-23.3	19.5	0.00e+00	0	42	0	1364197376	6	3876
2026-01-12 13:08:05.27	209.84	35.86	-22.4	-22.8	19.8	0.00e+00	0	42	0	1369440256	6	3769
2026-01-12 13:08:06.28	210.12	36.04	-22.3	-23.0	19.9	0.00e+00	0	42	0	1374683136	5	3905
2026-01-12 13:08:07.29	210.40	36.21	-22.3	-23.0	19.9	0.00e+00	0	42	0	1380974592	5	3906
2026-01-12 13:08:08.29	210.67	36.39	-22.3	-23.1	19.9	0.00e+00	0	42	0	1386217472	5	3938
2026-01-12 13:08:09.29	210.96	36.56	-22.2	-22.9	20.0	0.00e+00	0	42	0	1391460352	5	3889
2026-01-12 13:08:10.31	211.25	36.74	-22.2	-22.9	20.0	0.00e+00	0	42	0	1397751808	5	3880
2026-01-12 13:08:11.31	211.54	36.92	-22.4	-23.2	19.9	0.00e+00	0	42	0	1402994688	5	3963
2026-01-12 13:08:12.32	211.83	37.10	-22.5	-23.5	19.8	0.00e+00	0	42	0	1409286144	5	4025
2026-01-12 13:08:13.33	212.13	37.28	-22.2	-22.9	20.0	0.00e+00	0	42	0	1414529024	5	3887
2026-01-12 13:08:14.34	212.43	37.45	-22.2	-22.8	20.3	0.00e+00	0	42	0	1420820480	5	3843
2026-01-12 13:08:15.34	212.73	37.63	-22.0	-22.5	20.4	0.00e+00	0	42	0	1426063360	5	3776
2026-01-12 13:08:16.35	213.04	37.81	-22.1	-22.5	20.4	0.00e+00	0	42	0	1431306240	5	3776
2026-01-12 13:08:17.36	213.35	37.99	-22.0	-22.4	20.5	0.00e+00	0	42	0	1437597696	5	3759
2026-01-12 13:08:18.37	213.66	38.17	-22.0	-22.4	20.5	0.00e+00	0	42	0	1442840576	5	3747
2026-01-12 13:08:19.37	213.98	38.34	-22.1	-22.5	20.4	0.00e+00	0	42	0	1449132032	5	3776
2026-01-12 13:08:20.37	214.29	38.52	-22.0	-22.3	20.5	0.00e+00	0	42	0	1454374912	5	3743
2026-01-12 13:08:21.38	214.62	38.70	-22.1	-22.6	20.4	0.00e+00	0	42	0	1459617792	5	3795
2026-01-12 13:08:22.39	214.95	38.88	-22.3	-22.9	20.2	0.00e+00	0	42	0	1465909248	5	3886
2026-01-12 13:08:23.40	215.28	39.05	-22.3	-23.0	20.2	0.00e+00	0	42	0	1471152128	5	3904
2026-01-12 13:08:24.40	215.61	39.23	-22.3	-22.9	20.2	0.00e+00	0	42	0	1477443584	5	3878
2026-01-12 13:08:25.41	215.95	39.41	-22.0	-22.4	20.5	0.00e+00	0	42	0	1482686464	5	3765
2026-01-12 13:08:26.42	216.29	39.59	-22.0	-22.4	20.5	0.00e+00	0	42	0	1487929344	5	3749
2026-01-12 13:08:27.42	216.63	39.76	-22.2	-22.7	20.3	0.00e+00	0	42	0	1494220800	5	3823
2026-01-12 13:08:28.42	216.98	39.94	-22.3	-23.0	20.2	0.00e+00	0	42	0	1499463680	5	3889
2026-01-12 13:08:29.43	217.33	40.11	-22.4	-23.3	20.0	0.00e+00	0	42	0	1505755136	5	3963
2026-01-12 13:08:30.43	217.68	40.29	-22.5	-23.4	20.0	0.00e+00	0	42	0	1510998016	5	3997
2026-01-12 13:08:31.44	218.04	40.46	-22.7	-23.8	19.8	0.00e+00	0	42	0	1516240896	5	4097
2026-01-12 13:08:32.44	218.41	40.64	-22.4	-23.2	20.1	0.00e+00	0	42	0	1522532352	5	3955
2026-01-12 13:08:33.45	218.77	40.81	-22.2	-22.8	20.3	0.00e+00	0	42	0	1527775232	5	3854
2026-01-12 13:08:34.46	219.15	40.99	-22.1	-22.6	20.4	0.00e+00	0	42	0	1534066688	5	3809
2026-01-12 13:08:35.47	219.52	41.16	-22.4	-23.1	20.2	0.00e+00	0	42	0	1539309568	5	3910
2026-01-12 13:08:36.48	219.90	41.34	-22.6	-23.6	19.9	0.00e+00	0	42	0	1544552448	5	4033
2026-01-12 13:08:37.48	220.28	41.51	-22.7	-23.7	19.8	0.00e+00	0	42	0	1550843904	5	4074
2026-01-12 13:08:38.49	220.67	41.68	-22.8	-23.9	19.8	0.00e+00	0	42	0	1556086784	5	4123
2026-01-12 13:08:39.50	221.07	41.85	-22.5	-23.4	20.0	0.00e+00	0	42	0	1561329664	5	4001
2026-01-12 13:08:40.50	221.46	42.02	-22.3	-23.1	20.2	0.00e+00	0	42	0	1567621120	5	3921
2026-01-12 13:08:41.51	221.86	42.19	-22.4	-23.1	20.2	0.00e+00	0	42	0	1572864000	5	3930
2026-01-12 13:08:42.52	222.27	42.36	-22.4	-23.1	20.1	0.00e+00	0	42	0	1579155456	5	3923
2026-01-12 13:08:43.53	222.68	42.53	-22.3	-23.0	20.2	0.00e+00	0	42	0	1584398336	5	3902
2026-01-12 13:08:44.53	223.08	42.70	-22.5	-23.4	20.0	0.00e+00	0	42	0	1590689792	5	3993
2026-01-12 13:08:45.54	223.50	42.87	-22.6	-23.7	19.9	0.00e+00	0	42	0	1595932672	5	4054
2026-01-12 13:08:46.55	223.93	43.03	-22.6	-23.5	19.9	0.00e+00	0	42	0	1601175552	5	4025
2026-01-12 13:08:47.55	224.35	43.20	-22.3	-23.1	20.2	0.00e+00	0	42	0	1607467008	5	3912
2026-01-12 13:08:48.56	224.78	43.36	-22.2	-22.8	20.3	0.00e+00	0	42	0	1612709888	5	3852
2026-01-12 13:08:49.57	225.21	43.52	-22.4	-23.1	20.2	0.00e+00	0	42	0	1619001344	5	3921
2026-01-12 13:08:50.57	225.65	43.69	-22.4	-23.3	20.1	0.00e+00	0	42	0	1624244224	5	3962
2026-01-12 13:08:51.58	226.09	43.85	-22.5	-23.3	20.1	0.00e+00	0	42	0	1629487104	5	3980
2026-01-12 13:08:52.59	226.54	44.01	-22.4	-23.2	20.1	0.00e+00	0	42	0	1635778560	5	3944
2026-01-12 13:08:53.60	226.99	44.16	-22.4	-23.2	20.2	0.00e+00	0	42	0	1641021440	5	3943
2026-01-12 13:08:54.60	227.45	44.32	-22.4	-23.1	20.2	0.00e+00	0	42	0	1646264320	5	3926
2026-01-12 13:08:55.61	227.91	44.48	-22.5	-23.5	20.0	0.00e+00	0	42	0	1652555776	5	4010
2026-01-12 13:08:56.62	228.38	44.63	-22.6	-23.7	19.9	0.00e+00	0	42	0	1657798656	5	4065
2026-01-12 13:08:57.62	228.84	44.78	-22.7	-23.9	19.8	0.00e+00	0	42	0	1664090112	5	4115
2026-01-12 13:08:58.63	229.32	44.93	-22.7	-23.8	19.9	0.00e+00	0	42	0	1669332992	5	4092
2026-01-12 13:08:59.64	229.80	45.08	-22.6	-23.6	20.0	0.00e+00	0	42	0	1675624448	5	4033
2026-01-12 13:09:00.64	230.28	45.23	-22.6	-23.7	19.9	0.00e+00	0	42	0	1680867328	5	4059
2026-01-12 13:09:01.65	230.76	45.38	-22.6	-23.6	19.9	0.00e+00	0	42	0	1686110208	5	4051
2026-01-12 13:09:02.66	231.26	45.52	-22.8	-24.0	19.8	0.00e+00	0	42	0	1692401664	5	4130
2026-01-12 13:09:03.67	231.75	45.66	-22.9	-24.1	19.7	0.00e+00	0	42	0	1697644544	5	4178
2026-01-12 13:09:04.67	232.25	45.80	-22.8	-24.1	19.7	0.00e+00	0	42	0	1703936000	5	4163
2026-01-12 13:09:05.68	232.76	45.94	-22.7	-23.8	19.9	0.00e+00	0	42	0	1709178880	5	4095
2026-01-12 13:09:06.68	233.26	46.08	-22.9	-24.2	19.7	0.00e+00	0	42	0	1714421760	5	4195
2026-01-12 13:09:07.69	233.78	46.21	-23.0	-23.9	19.6	0.00e+00	0	42	0	1720713216	6	3991
2026-01-12 13:09:08.70	234.30	46.35	-22.7	-23.4	19.8	0.00e+00	0	42	0	1725956096	6	3889
2026-01-12 13:09:09.70	234.82	46.48	-22.6	-23.1	20.0	0.00e+00	0	42	0	1732247552	6	3807
2026-01-12 13:09:10.71	235.34	46.61	-22.5	-22.9	20.1	0.00e+00	0	42	0	1737490432	6	3773
2026-01-12 13:09:11.71	235.87	46.73	-22.7	-23.3	19.9	0.00e+00	0	42	0	1743781888	6	3860
2026-01-12 13:09:12.72	236.41	46.86	-22.9	-23.7	19.7	0.00e+00	0	42	0	1749024768	6	3951
2026-01-12 13:09:13.73	236.95	46.98	-23.2	-24.3	19.4	0.00e+00	0	42	0	1754267648	6	4103
2026-01-12 13:09:14.73	237.49	47.10	-23.0	-24.0	19.6	0.00e+00	0	42	0	1760559104	6	4014
2026-01-12 13:09:15.72	238.03	47.21	-23.0	-23.9	19.6	0.00e+00	0	42	0	1765801984	6	4001
2026-01-12 13:09:16.72	238.57	47.32	-23.1	-24.1	19.5	0.00e+00	0	42	0	1771044864	6	4048
2026-01-12 13:09:17.73	239.13	47.44	-22.8	-23.6	19.8	0.00e+00	0	42	0	1777336320	6	3919
2026-01-12 13:09:18.73	239.68	47.55	-22.8	-23.5	19.8	0.00e+00	0	42	0	1782579200	6	3897
2026-01-12 13:09:19.74	240.25	47.65	-23.4	-24.7	19.2	0.00e+00	0	42	0	1787822080	6	4189
2026-01-12 13:09:20.74	240.81	47.76	-23.1	-23.7	19.5	0.00e+00	0	42	0	1794113536	7	3834
2026-01-12 13:09:21.76	241.39	47.86	-22.7	-23.2	19.9	0.00e+00	0	42	0	1799356416	6	3839
2026-01-12 13:09:22.77	241.96	47.96	-22.5	-22.9	20.1	0.00e+00	0	42	0	1805647872	6	3754
2026-01-12 13:09:23.77	242.54	48.05	-22.5	-22.8	20.1	0.00e+00	0	42	0	1810890752	6	3754
2026-01-12 13:09:24.78	243.12	48.14	-22.5	-22.8	20.2	0.00e+00	0	42	0	1817182208	6	3742
2026-01-12 13:09:25.78	243.70	48.23	-22.5	-22.8	20.1	0.00e+00	0	42	0	1822425088	6	3753
2026-01-12 13:09:26.78	244.28	48.32	-22.5	-22.9	20.1	0.00e+00	0	42	0	1827667968	6	3775
2026-01-12 13:09:27.79	244.88	48.40	-22.7	-23.3	19.9	0.00e+00	0	42	0	1833959424	6	3868
2026-01-12 13:09:28.80	245.47	48.48	-22.7	-23.3	19.9	0.00e+00	0	42	0	1839202304	6	3864
2026-01-12 13:09:29.80	246.07	48.56	-22.7	-23.3	19.9	0.00e+00	0	42	0	1845493760	6	3862
2026-01-12 13:09:30.81	246.67	48.64	-23.0	-23.8	19.6	0.00e+00	0	42	0	1850736640	6	3983
2026-01-12 13:09:31.81	247.27	48.71	-22.9	-23.8	19.7	0.00e+00	0	42	0	1855979520	6	3977
2026-01-12 13:09:32.82	247.87	48.77	-23.0	-24.0	19.6	0.00e+00	0	42	0	1862270976	6	4020
2026-01-12 13:09:33.83	248.48	48.84	-23.0	-24.0	19.6	0.00e+00	0	42	0	1867513856	6	4023
2026-01-12 13:09:34.84	249.09	48.90	-22.7	-23.3	19.9	0.00e+00	0	42	0	1872756736	6	3858
2026-01-12 13:09:35.84	249.70	48.96	-22.8	-23.5	19.8	0.00e+00	0	42	0	1879048192	6	3905
2026-01-12 13:09:36.85	250.32	49.01	-23.0	-23.9	19.6	0.00e+00	0	42	0	1884291072	6	3993
2026-01-12 13:09:37.86	250.94	49.06	-23.2	-24.4	19.4	0.00e+00	0	42	0	1890582528	6	4117
2026-01-12 13:09:38.87	251.56	49.11	-22.8	-23.5	19.8	0.00e+00	0	42	0	1895825408	6	3894
2026-01-12 13:09:39.88	252.18	49.16	-22.5	-22.8	20.2	0.00e+00	0	42	0	1902116864	6	3741
2026-01-12 13:09:40.89	252.81	49.20	-22.5	-22.9	20.1	0.00e+00	0	42	0	1907359744	6	3768
2026-01-12 13:09:41.89	253.43	49.23	-22.8	-23.5	19.8	0.00e+00	0	42	0	1912602624	6	3906
2026-01-12 13:09:42.90	254.05	49.27	-22.9	-23.8	19.7	0.00e+00	0	42	0	1918894080	6	3988
2026-01-12 13:09:43.91	254.68	49.30	-22.9	-23.7	19.8	0.00e+00	0	42	0	1924136960	6	3945
2026-01-12 13:09:44.91	255.31	49.32	-22.9	-23.7	19.7	0.00e+00	0	42	0	1930428416	6	3940
2026-01-12 13:09:45.92	255.94	49.35	-23.3	-24.5	19.3	0.00e+00	0	42	0	1935671296	6	4140
2026-01-12 13:09:46.93	256.57	49.37	-23.0	-24.0	19.6	4.50e-06	0	42	0	1940914176	6	4032
2026-01-12 13:09:47.94	257.20	49.38	-22.8	-23.6	19.8	0.00e+00	0	42	0	1947205632	6	3929
2026-01-12 13:09:48.94	257.83	49.39	-22.6	-23.2	20.0	0.00e+00	0	42	0	1952448512	6	3836
2026-01-12 13:09:49.95	258.46	49.40	-22.6	-23.1	20.0	0.00e+00	0	42	0	1957691392	6	3820
2026-01-12 13:09:50.95	259.09	49.41	-22.8	-23.5	19.8	0.00e+00	0	42	0	1963982848	6	3908
2026-01-12 13:09:51.95	259.71	49.41	-22.8	-23.4	19.9	0.00e+00	0	42	0	1969225728	6	3882
2026-01-12 13:09:52.96	260.35	49.41	-23.4	-24.9	19.2	0.00e+00	0	42	0	1975517184	6	4243
2026-01-12 13:09:53.97	260.98	49.40	-23.3	-24.6	19.3	0.00e+00	0	42	0	1980760064	6	4177
2026-01-12 13:09:54.98	261.61	49.39	-23.0	-24.0	19.6	0.00e+00	0	42	0	1987051520	6	4028
2026-01-12 13:09:55.99	262.25	49.38	-23.1	-24.2	19.5	0.00e+00	0	42	0	1992294400	6	4065
2026-01-12 13:09:57.00	262.88	49.36	-23.1	-24.1	19.6	0.00e+00	0	42	0	1997537280	6	4043
2026-01-12 13:09:58.01	263.51	49.34	-22.9	-23.8	19.7	0.00e+00	0	42	0	2003828736	6	3977
2026-01-12 13:09:59.01	264.13	49.31	-22.9	-23.8	19.7	1.10e-06	0	42	0	2009071616	6	3967
2026-01-12 13:10:00.02	264.76	49.29	-23.0	-24.0	19.6	0.00e+00	0	42	0	2015363072	6	4031
2026-01-12 13:10:01.02	265.38	49.25	-23.3	-24.6	19.3	0.00e+00	0	42	0	2020605952	6	4176
2026-01-12 13:10:02.03	266.01	49.22	-23.0	-23.9	19.7	1.10e-06	0	42	0	2025848832	6	4000
2026-01-12 13:10:03.03	266.63	49.18	-22.8	-23.5	19.8	0.00e+00	0	42	0	2032140288	6	3913
2026-01-12 13:10:04.04	267.25	49.14	-22.8	-23.6	19.8	0.00e+00	0	42	0	2037383168	6	3934
2026-01-12 13:10:05.04	267.87	49.09	-22.9	-23.6	19.8	3.40e-06	0	42	0	2042626048	6	3935
2026-01-12 13:10:06.05	268.49	49.04	-23.0	-24.0	19.6	0.00e+00	0	42	0	2048917504	6	4014
2026-01-12 13:10:07.05	269.10	48.99	-23.0	-23.9	19.6	0.00e+00	0	42	0	2054160384	6	4002
2026-01-12 13:10:08.05	269.71	48.94	-23.1	-24.1	19.5	2.20e-06	0	42	0	2060451840	6	4042
2026-01-12 13:10:09.06	270.32	48.88	-22.7	-23.3	19.9	0.00e+00	0	42	0	2065694720	6	3852
2026-01-12 13:10:10.08	270.94	48.81	-22.6	-23.1	20.0	0.00e+00	0	42	0	2071986176	6	3808
2026-01-12 13:10:11.08	271.54	48.75	-22.9	-23.7	19.7	0.00e+00	0	42	0	2077229056	6	3960
2026-01-12 13:10:12.08	272.14	48.68	-23.1	-24.2	19.5	0.00e+00	0	42	0	2082471936	6	4066
2026-01-12 13:10:13.09	272.74	48.61	-22.9	-23.8	19.7	0.00e+00	0	42	0	2088763392	6	3971
2026-01-12 13:10:14.10	273.34	48.53	-22.6	-23.1	20.1	0.00e+00	0	42	0	2094006272	6	3804
2026-01-12 13:10:15.10	273.93	48.45	-22.5	-23.0	20.1	0.00e+00	0	42	0	2100297728	6	3780
2026-01-12 13:10:16.11	274.53	48.37	-22.6	-23.1	20.0	0.00e+00	0	42	0	2105540608	6	3811
2026-01-12 13:10:17.12	275.12	48.29	-22.5	-22.8	20.2	0.00e+00	0	42	0	2110783488	6	3736
2026-01-12 13:10:18.12	275.70	48.20	-22.4	-22.8	20.2	0.00e+00	0	42	0	2117074944	6	3736
2026-01-12 13:10:19.13	276.28	48.11	-22.6	-23.1	20.0	0.00e+00	0	42	0	2122317824	6	3817
2026-01-12 13:10:20.14	276.86	48.01	-22.6	-23.2	20.0	0.00e+00	0	42	0	2127560704	6	3827
2026-01-12 13:10:21.14	277.43	47.92	-22.6	-23.0	20.1	0.00e+00	0	42	0	2133852160	6	3783
2026-01-12 13:10:22.15	278.01	47.82	-22.6	-23.2	20.0	0.00e+00	0	42	0	2139095040	6	3823
2026-01-12 13:10:23.15	278.57	47.72	-22.9	-23.7	19.8	0.00e+00	0	42	0	2145386496	6	3956
2026-01-12 13:10:24.16	279.14	47.61	-23.1	-24.2	19.5	0.00e+00	0	42	0	2150629376	6	4069
2026-01-12 13:10:25.17	279.70	47.50	-22.8	-23.6	19.8	0.00e+00	0	42	0	2156920832	6	3923
2026-01-12 13:10:26.18	280.26	47.39	-22.6	-23.2	20.0	0.00e+00	0	42	0	2162163712	6	3829
2026-01-12 13:10:27.18	280.80	47.28	-22.7	-23.2	20.0	0.00e+00	0	42	0	2167406592	6	3839
2026-01-12 13:10:28.19	281.35	47.17	-22.7	-23.3	20.0	0.00e+00	0	42	0	2173698048	6	3850
2026-01-12 13:10:29.20	281.90	47.05	-22.7	-23.4	19.9	0.00e+00	0	42	0	2178940928	6	3880
2026-01-12 13:10:30.21	282.44	46.93	-22.6	-23.1	20.0	0.00e+00	0	42	0	2185232384	6	3821
2026-01-12 13:10:31.21	282.98	46.81	-22.5	-22.9	20.1	0.00e+00	0	42	0	2190475264	6	3777
2026-01-12 13:10:32.22	283.51	46.68	-22.5	-22.8	20.2	0.00e+00	0	42	0	2195718144	6	3746
2026-01-12 13:10:33.22	284.03	46.56	-22.5	-22.9	20.1	0.00e+00	0	42	0	2202009600	6	3770
2026-01-12 13:10:34.23	284.56	46.43	-22.4	-22.7	20.2	0.00e+00	0	42	0	2207252480	6	3727
2026-01-12 13:10:35.22	285.07	46.30	-22.7	-23.2	20.0	0.00e+00	0	42	0	2212495360	6	3842
2026-01-12 13:10:36.23	285.59	46.16	-22.9	-23.8	19.7	0.00e+00	0	42	0	2218786816	6	3982
2026-01-12 13:10:37.24	286.10	46.03	-23.0	-23.9	19.6	0.00e+00	0	42	0	2224029696	6	4012
2026-01-12 13:10:38.25	286.61	45.89	-22.7	-23.4	19.9	0.00e+00	0	42	0	2230321152	6	3887
2026-01-12 13:10:39.25	287.10	45.75	-22.7	-23.2	20.0	0.00e+00	0	42	0	2235564032	6	3841
2026-01-12 13:10:40.26	287.60	45.61	-22.8	-23.5	19.8	0.00e+00	0	42	0	2241855488	6	3900
2026-01-12 13:10:41.26	288.09	45.47	-22.9	-23.7	19.7	0.00e+00	0	42	0	2247098368	6	3956
2026-01-12 13:10:42.27	288.58	45.32	-23.1	-24.1	19.6	0.00e+00	0	42	0	2252341248	6	4049
2026-01-12 13:10:43.28	289.07	45.18	-23.0	-23.9	19.6	0.00e+00	0	42	0	2258632704	6	3999
2026-01-12 13:10:44.29	289.55	45.03	-23.0	-23.9	19.7	0.00e+00	0	42	0	2263875584	6	3986
2026-01-12 13:10:45.29	290.02	44.88	-22.9	-23.7	19.8	0.00e+00	0	42	0	2269118464	6	3947
2026-01-12 13:10:46.30	290.49	44.73	-22.8	-23.5	19.8	0.00e+00	0	42	0	2275409920	6	3911
2026-01-12 13:10:47.31	290.96	44.58	-22.7	-23.2	20.0	0.00e+00	0	42	0	2280652800	6	3830
2026-01-12 13:10:48.32	291.43	44.42	-22.8	-23.4	19.9	0.00e+00	0	42	0	2286944256	6	3879
2026-01-12 13:10:49.32	291.88	44.27	-22.9	-23.7	19.7	0.00e+00	0	42	0	2292187136	6	3961
2026-01-12 13:10:50.32	292.33	44.11	-23.1	-24.2	19.5	0.00e+00	0	42	0	2297430016	6	4073
2026-01-12 13:10:51.33	292.78	43.95	-23.3	-24.5	19.3	0.00e+00	0	42	0	2303721472	6	4161
2026-01-12 13:10:52.34	293.23	43.79	-22.9	-23.8	19.6	0.00e+00	0	42	0	2308964352	6	3990
2026-01-12 13:10:53.34	293.66	43.63	-22.7	-23.2	20.0	0.00e+00	0	42	0	2315255808	6	3843
2026-01-12 13:10:54.35	294.10	43.47	-22.6	-23.1	20.0	0.00e+00	0	42	0	2320498688	6	3819
2026-01-12 13:10:55.36	294.53	43.31	-22.7	-23.2	20.0	0.00e+00	0	42	0	2326790144	6	3835
2026-01-12 13:10:56.36	294.96	43.15	-22.7	-23.2	20.0	0.00e+00	0	42	0	2332033024	6	3845
2026-01-12 13:10:57.37	295.38	42.98	-22.8	-23.6	19.8	0.00e+00	0	42	0	2337275904	6	3929
2026-01-12 13:10:58.38	295.80	42.82	-22.8	-23.6	19.7	0.00e+00	0	42	0	2343567360	6	3938
2026-01-12 13:10:59.38	296.21	42.65	-22.8	-23.4	19.8	0.00e+00	0	42	0	2348810240	6	3888
2026-01-12 13:11:00.39	296.62	42.48	-22.7	-23.2	20.0	0.00e+00	0	42	0	2354053120	6	3841
2026-01-12 13:11:01.40	297.03	42.31	-22.6	-23.0	20.0	0.00e+00	0	42	0	2360344576	6	3793
2026-01-12 13:11:02.40	297.43	42.15	-22.5	-22.8	20.2	0.00e+00	0	42	0	2365587456	6	3751
2026-01-12 13:11:03.41	297.83	41.98	-22.6	-23.1	20.0	0.00e+00	0	42	0	2371878912	6	3810
2026-01-12 13:11:04.42	298.22	41.80	-22.7	-23.4	19.8	0.00e+00	0	42	0	2377121792	6	3896
2026-01-12 13:11:05.42	298.61	41.63	-22.8	-23.5	19.8	0.00e+00	0	42	0	2382364672	6	3923
2026-01-12 13:11:06.43	298.99	41.46	-22.6	-23.0	20.0	0.00e+00	0	42	0	2388656128	6	3798
2026-01-12 13:11:07.43	299.37	41.29	-22.5	-22.8	20.2	0.00e+00	0	42	0	2393899008	6	3738
2026-01-12 13:11:08.43	299.75	41.12	-22.6	-23.0	20.0	0.00e+00	0	42	0	2400190464	6	3790
2026-01-12 13:11:09.43	300.12	40.95	-22.6	-23.1	20.0	0.00e+00	0	42	0	2405433344	6	3800
2026-01-12 13:11:10.44	300.49	40.77	-22.5	-23.0	20.1	0.00e+00	0	42	0	2410676224	6	3779
2026-01-12 13:11:11.45	300.85	40.60	-22.5	-22.9	20.1	0.00e+00	0	42	0	2416967680	6	3762
2026-01-12 13:11:12.46	301.22	40.42	-22.4	-22.6	20.3	0.00e+00	0	42	0	2422210560	6	3693
2026-01-12 13:11:13.47	301.57	40.25	-22.4	-22.7	20.2	0.00e+00	0	42	0	2428502016	6	3717
2026-01-12 13:11:14.47	301.93	40.07	-22.5	-23.0	20.1	0.00e+00	0	42	0	2433744896	6	3788
2026-01-12 13:11:15.47	302.27	39.90	-22.5	-22.8	20.1	0.00e+00	0	42	0	2438987776	6	3757
2026-01-12 13:11:16.48	302.62	39.72	-22.4	-22.6	20.2	0.00e+00	0	42	0	2445279232	6	3709
2026-01-12 13:11:17.49	302.96	39.55	-22.2	-22.8	20.3	0.00e+00	0	42	0	2450522112	5	3860
2026-01-12 13:11:18.49	303.30	39.37	-22.2	-22.8	20.4	0.00e+00	0	42	0	2455764992	5	3841
2026-01-12 13:11:19.50	303.64	39.19	-22.3	-23.0	20.3	0.00e+00	0	42	0	2462056448	5	3897
2026-01-12 13:11:20.51	303.97	39.02	-22.3	-23.1	20.2	0.00e+00	0	42	0	2467299328	5	3913
2026-01-12 13:11:21.51	304.30	38.84	-22.2	-22.8	20.4	0.00e+00	0	42	0	2473590784	5	3846
2026-01-12 13:11:22.52	304.62	38.66	-22.2	-22.7	20.4	0.00e+00	0	42	0	2478833664	5	3823
2026-01-12 13:11:23.53	304.94	38.49	-22.2	-22.7	20.4	0.00e+00	0	42	0	2485125120	5	3840
2026-01-12 13:11:24.54	305.26	38.31	-22.3	-23.0	20.3	0.00e+00	0	42	0	2490368000	5	3889
2026-01-12 13:11:25.54	305.57	38.13	-22.3	-22.9	20.3	0.00e+00	0	42	0	2495610880	5	3887
2026-01-12 13:11:26.55	305.89	37.96	-22.1	-22.6	20.4	0.00e+00	0	42	0	2501902336	5	3811
2026-01-12 13:11:27.55	306.19	37.78	-22.1	-22.6	20.4	0.00e+00	0	42	0	2507145216	5	3805
2026-01-12 13:11:28.56	306.50	37.60	-22.2	-22.7	20.4	0.00e+00	0	42	0	2513436672	5	3829
2026-01-12 13:11:29.57	306.80	37.43	-22.3	-22.9	20.3	0.00e+00	0	42	0	2518679552	5	3886
2026-01-12 13:11:30.58	307.10	37.25	-22.4	-23.1	20.2	0.00e+00	0	42	0	2523922432	5	3928
2026-01-12 13:11:31.59	307.39	37.07	-22.4	-23.3	20.1	0.00e+00	0	42	0	2530213888	5	3964
2026-01-12 13:11:32.60	307.69	36.89	-22.4	-23.3	20.1	0.00e+00	0	42	0	2535456768	5	3970
2026-01-12 13:11:33.60	307.97	36.72	-22.4	-23.2	20.1	0.00e+00	0	42	0	2541748224	5	3944
2026-01-12 13:11:34.61	308.26	36.54	-22.5	-23.4	20.0	0.00e+00	0	42	0	2546991104	5	3999
2026-01-12 13:11:35.62	308.54	36.37	-22.4	-23.3	20.1	0.00e+00	0	42	0	2552233984	5	3962
2026-01-12 13:11:36.62	308.82	36.19	-22.3	-22.9	20.3	0.00e+00	0	42	0	2558525440	5	3885
2026-01-12 13:11:37.63	309.10	36.01	-22.3	-22.9	20.3	0.00e+00	0	42	0	2563768320	5	3873
2026-01-12 13:11:38.63	309.37	35.84	-22.3	-23.0	20.2	0.00e+00	0	42	0	2570059776	5	3896
2026-01-12 13:11:39.64	309.64	35.66	-22.4	-23.2	20.1	0.00e+00	0	42	0	2575302656	5	3946
2026-01-12 13:11:40.65	309.91	35.49	-22.5	-23.4	20.0	0.00e+00	0	42	0	2580545536	5	4000
2026-01-12 13:11:41.65	310.17	35.32	-22.6	-23.6	19.9	0.00e+00	0	42	0	2586836992	5	4046
2026-01-12 13:11:42.66	310.44	35.14	-22.6	-23.5	19.9	0.00e+00	0	42	0	2592079872	5	4026
2026-01-12 13:11:43.67	310.70	34.97	-22.5	-23.4	20.0	0.00e+00	0	42	0	2598371328	5	3982
2026-01-12 13:11:44.67	310.95	34.79	-22.5	-23.4	20.0	0.00e+00	0	42	0	2603614208	5	4000
2026-01-12 13:11:45.68	311.21	34.62	-22.5	-23.3	20.1	0.00e+00	0	42	0	2608857088	5	3979
2026-01-12 13:11:46.69	311.46	34.45	-22.5	-23.4	20.0	0.00e+00	0	42	0	2615148544	5	3987
2026-01-12 13:11:47.69	311.71	34.28	-22.5	-23.5	20.0	0.00e+00	0	42	0	2620391424	5	4014
2026-01-12 13:11:48.70	311.95	34.10	-22.6	-23.6	19.9	0.00e+00	0	42	0	2625634304	5	4039
2026-01-12 13:11:49.70	312.20	33.93	-22.5	-23.5	19.9	0.00e+00	0	42	0	2631925760	5	4017
2026-01-12 13:11:50.71	312.44	33.76	-22.5	-23.4	20.0	0.00e+00	0	42	0	2637168640	5	3984
2026-01-12 13:11:51.72	312.68	33.59	-22.6	-23.6	19.9	0.00e+00	0	42	0	2643460096	5	4036
2026-01-12 13:11:52.73	312.92	33.42	-22.5	-23.5	20.0	0.00e+00	0	42	0	2648702976	5	4004
2026-01-12 13:11:53.73	313.15	33.25	-22.5	-23.4	20.0	0.00e+00	0	42	0	2654994432	5	3989
2026-01-12 13:11:54.74	313.38	33.08	-22.6	-23.5	20.0	0.00e+00	0	42	0	2660237312	5	4019
2026-01-12 13:11:55.75	313.61	32.91	-22.6	-23.6	19.9	0.00e+00	0	42	0	2665480192	5	4035
2026-01-12 13:11:56.76	313.84	32.74	-22.7	-23.8	19.8	0.00e+00	0	42	0	2671771648	5	4089
2026-01-12 13:11:57.76	314.06	32.57	-22.7	-23.8	19.8	0.00e+00	0	42	0	2677014528	5	4099
2026-01-12 13:11:58.77	314.28	32.41	-22.8	-24.0	19.7	0.00e+00	0	42	0	2683305984	5	4138
2026-01-12 13:11:59.78	314.50	32.24	-22.8	-24.0	19.7	0.00e+00	0	42	0	2688548864	5	4132
2026-01-12 13:12:00.77	314.72	32.07	-22.7	-23.9	19.7	0.00e+00	0	42	0	2693791744	5	4108
2026-01-12 13:12:01.78	314.94	31.91	-22.7	-23.9	19.7	0.00e+00	0	42	0	2700083200	5	4108
2026-01-12 13:12:02.79	315.15	31.74	-23.0	-24.4	19.5	0.00e+00	0	42	0	2705326080	5	4245
2026-01-12 13:12:03.79	315.36	31.58	-22.8	-23.5	19.7	0.00e+00	0	42	0	2710568960	6	3905
2026-01-12 13:12:04.80	315.57	31.41	-22.7	-23.3	19.8	0.00e+00	0	42	0	2716860416	6	3849
2026-01-12 13:12:05.80	315.78	31.25	-22.7	-23.3	19.8	0.00e+00	0	42	0	2722103296	6	3864
2026-01-12 13:12:06.81	315.98	31.08	-22.7	-23.4	19.7	0.00e+00	0	42	0	2728394752	6	3879
2026-01-12 13:12:07.82	316.19	30.92	-22.7	-23.4	19.7	0.00e+00	0	42	0	2733637632	6	3898
2026-01-12 13:12:08.83	316.39	30.76	-22.7	-23.3	19.8	0.00e+00	0	42	0	2739929088	6	3870
2026-01-12 13:12:09.83	316.59	30.60	-22.7	-23.3	19.8	0.00e+00	0	42	0	2745171968	6	3872
2026-01-12 13:12:10.83	316.78	30.44	-22.6	-23.1	19.9	0.00e+00	0	42	0	2750414848	6	3814
2026-01-12 13:12:11.84	316.98	30.27	-22.6	-23.1	19.9	0.00e+00	0	42	0	2756706304	6	3805
2026-01-12 13:12:12.84	317.17	30.12	-22.5	-23.0	19.9	0.00e+00	0	42	0	2761949184	6	3790
2026-01-12 13:12:13.85	317.36	29.96	-22.7	-23.3	19.8	0.00e+00	0	42	0	2768240640	6	3858
2026-01-12 13:12:14.85	317.55	29.80	-22.6	-23.1	19.8	0.00e+00	0	42	0	2773483520	6	3824
2026-01-12 13:12:15.85	317.74	29.64	-22.8	-23.6	19.6	0.00e+00	0	42	0	2778726400	6	3930
2026-01-12 13:12:16.86	317.93	29.48	-22.8	-23.5	19.6	0.00e+00	0	42	0	2785017856	6	3909
2026-01-12 13:12:17.87	318.11	29.32	-22.8	-23.5	19.6	0.00e+00	0	42	0	2790260736	6	3917
2026-01-12 13:12:18.87	318.29	29.17	-22.9	-23.7	19.5	0.00e+00	0	42	0	2795503616	6	3955
2026-01-12 13:12:19.88	318.47	29.01	-23.0	-24.0	19.4	0.00e+00	0	42	0	2801795072	6	4030
2026-01-12 13:12:20.88	318.65	28.86	-23.0	-24.0	19.4	0.00e+00	0	42	0	2807037952	6	4042
2026-01-12 13:12:21.88	318.83	28.70	-23.1	-24.1	19.3	0.00e+00	0	42	0	2813329408	6	4068
2026-01-12 13:12:22.89	319.00	28.55	-23.0	-24.0	19.4	0.00e+00	0	42	0	2818572288	6	4036
2026-01-12 13:12:23.90	319.18	28.39	-23.0	-23.9	19.4	0.00e+00	0	42	0	2823815168	6	4007
2026-01-12 13:12:24.90	319.35	28.24	-23.0	-24.0	19.4	0.00e+00	0	42	0	2830106624	6	4031
2026-01-12 13:12:25.91	319.52	28.09	-22.8	-23.6	19.6	0.00e+00	0	42	0	2835349504	6	3929
2026-01-12 13:12:26.91	319.69	27.93	-22.9	-23.6	19.5	0.00e+00	0	42	0	2841640960	6	3940
2026-01-12 13:12:27.92	319.86	27.78	-23.1	-24.2	19.3	0.00e+00	0	42	0	2846883840	6	4075
2026-01-12 13:12:28.92	320.02	27.63	-23.0	-24.0	19.4	0.00e+00	0	42	0	2852126720	6	4027
2026-01-12 13:12:29.93	320.19	27.48	-22.8	-23.4	19.6	0.00e+00	0	42	0	2858418176	6	3887
2026-01-12 13:12:30.93	320.35	27.33	-22.7	-23.2	19.7	0.00e+00	0	42	0	2863661056	6	3841
2026-01-12 13:12:31.94	320.51	27.18	-22.7	-23.3	19.7	0.00e+00	0	42	0	2868903936	6	3870
2026-01-12 13:12:32.95	320.68	27.03	-22.7	-23.3	19.7	0.00e+00	0	42	0	2875195392	6	3856
2026-01-12 13:12:33.95	320.83	26.88	-22.6	-23.2	19.8	0.00e+00	0	42	0	2880438272	6	3838
2026-01-12 13:12:34.96	320.99	26.74	-22.7	-23.3	19.7	0.00e+00	0	42	0	2886729728	6	3870
2026-01-12 13:12:35.97	321.15	26.59	-22.8	-23.5	19.6	0.00e+00	0	42	0	2891972608	6	3905
2026-01-12 13:12:36.97	321.30	26.44	-22.8	-23.6	19.5	0.00e+00	0	42	0	2898264064	6	3935
2026-01-12 13:12:37.98	321.46	26.30	-22.9	-23.7	19.5	0.00e+00	0	42	0	2903506944	6	3955
2026-01-12 13:12:38.99	321.61	26.15	-22.9	-23.8	19.5	0.00e+00	0	42	0	2908749824	6	3981
2026-01-12 13:12:40.00	321.76	26.01	-23.1	-24.2	19.2	0.00e+00	0	42	0	2915041280	6	4072
2026-01-12 13:12:41.00	321.91	25.86	-23.0	-24.0	19.3	0.00e+00	0	42	0	2920284160	6	4032
2026-01-12 13:12:42.01	322.06	25.72	-23.0	-24.0	19.3	0.00e+00	0	42	0	2926575616	6	4032
2026-01-12 13:12:43.02	322.20	25.58	-23.0	-24.0	19.3	0.00e+00	0	42	0	2931818496	6	4037
2026-01-12 13:12:44.02	322.35	25.43	-23.1	-24.2	19.2	0.00e+00	0	42	0	2937061376	6	4078
2026-01-12 13:12:45.02	322.49	25.29	-23.0	-23.9	19.3	0.00e+00	0	42	0	2943352832	6	4003
2026-01-12 13:12:46.02	322.63	25.15	-23.0	-24.0	19.3	0.00e+00	0	42	0	2948595712	6	4037
2026-01-12 13:12:47.03	322.78	25.01	-22.9	-23.7	19.5	0.00e+00	0	42	0	2953838592	6	3958
2026-01-12 13:12:48.03	322.92	24.87	-22.8	-23.6	19.5	0.00e+00	0	42	0	2960130048	6	3926
2026-01-12 13:12:49.04	323.06	24.73	-23.0	-24.0	19.3	0.00e+00	0	42	0	2965372928	6	4012
2026-01-12 13:12:50.05	323.19	24.59	-23.0	-23.9	19.3	0.00e+00	0	42	0	2971664384	6	3994
2026-01-12 13:12:51.05	323.33	24.46	-23.1	-24.2	19.2	0.00e+00	0	42	0	2976907264	6	4067
2026-01-12 13:12:52.06	323.47	24.32	-23.1	-24.1	19.2	0.00e+00	0	42	0	2983198720	6	4054
2026-01-12 13:12:53.07	323.60	24.18	-23.3	-24.5	19.0	0.00e+00	0	42	0	2988441600	6	4157
2026-01-12 13:12:54.08	323.74	24.04	-23.3	-24.5	19.0	0.00e+00	0	42	0	2993684480	6	4150
2026-01-12 13:12:55.08	323.87	23.91	-23.5	-24.9	18.8	0.00e+00	0	42	0	2999975936	6	4249
2026-01-12 13:12:56.10	324.00	23.77	-23.4	-24.8	18.9	0.00e+00	0	42	0	3005218816	6	4228
2026-01-12 13:12:57.10	324.13	23.64	-23.7	-24.9	18.6	0.00e+00	0	42	0	3011510272	7	4131
2026-01-12 13:12:58.11	324.26	23.50	-23.9	-25.4	18.3	0.00e+00	0	42	0	3016753152	7	4273
2026-01-12 13:12:59.11	324.39	23.37	-24.1	-25.3	18.1	0.00e+00	0	42	0	3021996032	8	4134
2026-01-12 13:13:00.12	324.51	23.23	-24.0	-25.1	18.2	0.00e+00	0	42	0	3028287488	8	4089
2026-01-12 13:13:01.12	324.64	23.10	-24.0	-25.1	18.2	0.00e+00	0	42	0	3033530368	8	4089
2026-01-12 13:13:02.13	324.76	22.97	-24.1	-25.4	18.1	0.00e+00	0	42	0	3038773248	8	4148
2026-01-12 13:13:03.13	324.89	22.84	-24.4	-26.0	17.8	0.00e+00	0	42	0	3045064704	8	4310
2026-01-12 13:13:04.14	325.01	22.71	-24.3	-25.7	17.9	0.00e+00	0	42	0	3050307584	8	4229
2026-01-12 13:13:05.15	325.13	22.58	-24.8	-26.2	17.3	0.00e+00	0	42	0	3056599040	9	4249
2026-01-12 13:13:06.15	325.25	22.45	-25.1	-26.5	17.0	0.00e+00	0	42	0	3061841920	10	4201
2026-01-12 13:13:07.16	325.37	22.32	-24.7	-25.5	17.5	0.00e+00	0	42	0	3068133376	10	3967
2026-01-12 13:13:08.17	325.49	22.19	-24.2	-25.0	18.0	0.00e+00	0	42	0	3073376256	9	3945
2026-01-12 13:13:09.17	325.61	22.06	-24.1	-24.8	18.1	0.00e+00	0	42	0	3078619136	9	3903
2026-01-12 13:13:10.18	325.73	21.93	-23.9	-24.3	18.4	0.00e+00	0	42	0	3084910592	9	3772
2026-01-12 13:13:11.19	325.84	21.80	-23.9	-24.3	18.4	0.00e+00	0	42	0	3090153472	9	3778
2026-01-12 13:13:12.20	325.96	21.68	-23.9	-24.3	18.4	0.00e+00	0	42	0	3095396352	9	3779
2026-01-12 13:13:13.21	326.08	21.55	-23.9	-24.2	18.4	1.10e-06	0	42	0	3101687808	9	3767
2026-01-12 13:13:14.21	326.19	21.43	-23.8	-24.1	18.5	0.00e+00	0	42	0	3106930688	9	3726
2026-01-12 13:13:15.21	326.30	21.30	-23.8	-24.6	18.4	0.00e+00	0	42	0	3113222144	8	3959
2026-01-12 13:13:16.22	326.41	21.18	-23.8	-24.6	18.4	0.00e+00	0	42	0	3118465024	8	3953
2026-01-12 13:13:17.22	326.52	21.05	-23.8	-24.7	18.4	0.00e+00	0	42	0	3123707904	8	3973
2026-01-12 13:13:18.23	326.63	20.93	-23.9	-24.8	18.3	0.00e+00	0	42	0	3129999360	8	4003
2026-01-12 13:13:19.24	326.74	20.80	-23.8	-24.6	18.4	0.00e+00	0	42	0	3135242240	8	3956
2026-01-12 13:13:20.25	326.85	20.68	-23.8	-24.7	18.4	0.00e+00	0	42	0	3141533696	8	3980
2026-01-12 13:13:21.25	326.96	20.56	-23.9	-24.9	18.3	0.00e+00	0	42	0	3146776576	8	4016
2026-01-12 13:13:22.26	327.07	20.44	-24.0	-25.1	18.1	0.00e+00	0	42	0	3153068032	8	4083
2026-01-12 13:13:23.26	327.17	20.32	-24.0	-25.0	18.2	0.00e+00	0	42	0	3158310912	8	4038
2026-01-12 13:13:24.27	327.28	20.20	-23.9	-24.9	18.2	0.00e+00	0	42	0	3163553792	8	4032
2026-01-12 13:13:25.28	327.38	20.08	-24.0	-25.1	18.2	0.00e+00	0	42	0	3169845248	8	4065
2026-01-12 13:13:26.28	327.48	19.96	-24.0	-25.0	18.2	0.00e+00	0	42	0	3175088128	8	4064
2026-01-12 13:13:27.29	327.59	19.84	-24.1	-25.2	18.1	0.00e+00	0	42	0	3180331008	8	4098
2026-01-12 13:13:28.30	327.69	19.72	-24.1	-25.3	18.1	0.00e+00	0	42	0	3186622464	8	4124
2026-01-12 13:13:29.30	327.79	19.60	-24.2	-25.5	17.9	0.00e+00	0	42	0	3191865344	8	4168
2026-01-12 13:13:30.32	327.89	19.48	-24.3	-25.7	17.8	0.00e+00	0	42	0	3198156800	8	4219
2026-01-12 13:13:31.32	327.99	19.36	-24.3	-25.7	17.8	0.00e+00	0	42	0	3203399680	8	4236
2026-01-12 13:13:32.33	328.09	19.25	-24.3	-25.8	17.7	0.00e+00	0	42	0	3208642560	8	4258
2026-01-12 13:13:33.34	328.19	19.13	-24.4	-25.9	17.7	0.00e+00	0	42	0	3214934016	8	4282
2026-01-12 13:13:34.34	328.29	19.02	-24.5	-26.1	17.6	0.00e+00	0	42	0	3220176896	8	4345
2026-01-12 13:13:35.35	328.38	18.90	-24.4	-26.0	17.6	0.00e+00	0	42	0	3226468352	8	4315
2026-01-12 13:13:36.36	328.48	18.78	-24.6	-25.8	17.5	0.00e+00	0	42	0	3231711232	9	4148
2026-01-12 13:13:37.36	328.58	18.67	-24.7	-26.2	17.2	0.00e+00	0	42	0	3238002688	9	4248
2026-01-12 13:13:38.37	328.67	18.56	-24.9	-26.6	17.0	0.00e+00	0	42	0	3243245568	9	4356
2026-01-12 13:13:39.37	328.76	18.44	-24.8	-26.2	17.2	0.00e+00	0	42	0	3248488448	9	4258
2026-01-12 13:13:40.38	328.86	18.33	-24.7	-26.2	17.3	0.00e+00	0	42	0	3254779904	9	4247
2026-01-12 13:13:41.39	328.95	18.22	-24.7	-26.1	17.3	0.00e+00	0	42	0	3260022784	9	4220
2026-01-12 13:13:42.40	329.04	18.10	-24.8	-26.2	17.2	0.00e+00	0	42	0	3265265664	9	4251
2026-01-12 13:13:43.40	329.13	17.99	-24.7	-26.0	17.3	0.00e+00	0	42	0	3271557120	9	4203
2026-01-12 13:13:44.41	329.23	17.88	-24.8	-26.4	17.2	0.00e+00	0	42	0	3276800000	9	4291
2026-01-12 13:13:45.41	329.32	17.77	-24.9	-26.4	17.1	0.00e+00	0	42	0	3283091456	9	4297
2026-01-12 13:13:46.42	329.41	17.66	-25.1	-26.5	16.9	0.00e+00	0	42	0	3288334336	10	4205
2026-01-12 13:13:47.43	329.50	17.55	-25.2	-26.5	16.8	0.00e+00	0	42	0	3293577216	10	4215
2026-01-12 13:13:48.44	329.58	17.44	-24.8	-25.8	17.2	0.00e+00	0	42	0	3299868672	10	4042
2026-01-12 13:13:49.45	329.67	17.33	-24.8	-25.7	17.3	0.00e+00	0	42	0	3305111552	10	4008
2026-01-12 13:13:50.46	329.76	17.22	-24.8	-25.8	17.2	0.00e+00	0	42	0	3311403008	10	4038
2026-01-12 13:13:51.46	329.85	17.11	-24.9	-25.9	17.2	0.00e+00	0	42	0	3316645888	10	4056
2026-01-12 13:13:52.47	329.93	17.01	-24.8	-25.7	17.2	0.00e+00	0	42	0	3322937344	10	4016
2026-01-12 13:13:53.48	330.02	16.90	-24.8	-25.8	17.2	0.00e+00	0	42	0	3328180224	10	4034
2026-01-12 13:13:54.48	330.10	16.79	-24.9	-25.9	17.1	0.00e+00	0	42	0	3333423104	10	4059
2026-01-12 13:13:55.49	330.19	16.68	-24.9	-26.1	17.0	0.00e+00	0	42	0	3339714560	10	4107
2026-01-12 13:13:56.49	330.27	16.58	-25.0	-26.2	17.0	0.00e+00	0	42	0	3344957440	10	4130
2026-01-12 13:13:57.50	330.35	16.47	-25.0	-26.3	16.9	0.00e+00	0	42	0	3350200320	10	4151
2026-01-12 13:13:58.51	330.44	16.37	-25.1	-26.3	16.9	0.00e+00	0	42	0	3356491776	10	4173
2026-01-12 13:13:59.52	330.52	16.26	-25.2	-26.6	16.7	0.00e+00	0	42	0	3361734656	10	4249
2026-01-12 13:14:00.52	330.60	16.16	-25.1	-26.5	16.7	0.00e+00	0	42	0	3368026112	10	4213
2026-01-12 13:14:01.52	330.68	16.05	-25.2	-26.6	16.7	0.00e+00	0	42	0	3373268992	10	4253
2026-01-12 13:14:02.53	330.76	15.95	-25.2	-26.6	16.7	0.00e+00	0	42	0	3378511872	10	4239
2026-01-12 13:14:03.54	330.84	15.85	-25.2	-26.7	16.6	0.00e+00	0	42	0	3384803328	10	4263
2026-01-12 13:14:04.54	330.92	15.74	-25.2	-26.6	16.7	0.00e+00	0	42	0	3390046208	10	4253
2026-01-12 13:14:05.55	331.00	15.64	-25.2	-26.7	16.6	0.00e+00	0	42	0	3396337664	10	4267
2026-01-12 13:14:06.56	331.08	15.54	-25.1	-26.5	16.7	0.00e+00	0	42	0	3401580544	10	4230
2026-01-12 13:14:07.56	331.16	15.44	-25.2	-26.6	16.7	0.00e+00	0	42	0	3407872000	10	4245
2026-01-12 13:14:08.57	331.23	15.33	-25.2	-26.6	16.6	0.00e+00	0	42	0	3413114880	10	4253
2026-01-12 13:14:09.58	331.31	15.23	-25.3	-26.9	16.5	0.00e+00	0	42	0	3418357760	10	4319
2026-01-12 13:14:10.59	331.39	15.13	-25.2	-26.7	16.6	0.00e+00	0	42	0	3424649216	10	4258
2026-01-12 13:14:11.59	331.46	15.03	-25.4	-27.1	16.4	0.00e+00	0	42	0	3429892096	10	4362
2026-01-12 13:14:12.60	331.54	14.93	-25.4	-27.0	16.4	0.00e+00	0	42	0	3435134976	10	4358
2026-01-12 13:14:13.61	331.61	14.83	-25.3	-27.0	16.4	0.00e+00	0	42	0	3441426432	10	4346
2026-01-12 13:14:14.61	331.69	14.73	-25.4	-27.1	16.3	0.00e+00	0	42	0	3446669312	10	4389
2026-01-12 13:14:15.61	331.76	14.64	-25.4	-27.1	16.4	0.00e+00	0	42	0	3452960768	10	4386
2026-01-12 13:14:16.62	331.84	14.54	-25.4	-27.0	16.4	0.00e+00	0	42	0	3458203648	10	4360
2026-01-12 13:14:17.62	331.91	14.44	-25.4	-27.1	16.3	0.00e+00	0	42	0	3463446528	10	4376
2026-01-12 13:14:18.63	331.98	14.34	-25.5	-26.8	16.2	0.00e+00	0	42	0	3469737984	11	4187
2026-01-12 13:14:19.64	332.05	14.24	-25.5	-26.9	16.2	0.00e+00	0	42	0	3474980864	11	4209
2026-01-12 13:14:20.65	332.13	14.15	-25.5	-26.9	16.2	0.00e+00	0	42	0	3481272320	11	4219
2026-01-12 13:14:21.65	332.20	14.05	-25.6	-27.0	16.1	0.00e+00	0	42	0	3486515200	11	4226
2026-01-12 13:14:22.66	332.27	13.95	-25.6	-27.0	16.1	0.00e+00	0	42	0	3492806656	11	4245
2026-01-12 13:14:23.67	332.34	13.86	-25.6	-27.0	16.1	0.00e+00	0	42	0	3498049536	11	4249
2026-01-12 13:14:24.67	332.41	13.76	-25.6	-27.0	16.1	0.00e+00	0	42	0	3503292416	11	4229
2026-01-12 13:14:25.69	332.48	13.66	-25.6	-27.0	16.1	0.00e+00	0	42	0	3509583872	11	4249
2026-01-12 13:14:26.69	332.55	13.57	-25.6	-27.1	16.0	0.00e+00	0	42	0	3514826752	11	4266
2026-01-12 13:14:27.69	332.62	13.48	-25.6	-27.1	16.0	0.00e+00	0	42	0	3520069632	11	4261
2026-01-12 13:14:28.69	332.69	13.38	-25.7	-27.2	16.0	0.00e+00	0	42	0	3526361088	11	4282
2026-01-12 13:14:29.70	332.75	13.29	-25.6	-27.1	16.0	0.00e+00	0	42	0	3531603968	11	4270
2026-01-12 13:14:30.70	332.82	13.19	-25.6	-27.1	16.0	0.00e+00	0	42	0	3536846848	11	4263
2026-01-12 13:14:31.71	332.89	13.10	-25.6	-27.0	16.1	0.00e+00	0	42	0	3543138304	11	4241
2026-01-12 13:14:32.71	332.95	13.01	-25.6	-27.1	16.0	0.00e+00	0	42	0	3548381184	11	4279
2026-01-12 13:14:33.72	333.02	12.92	-25.7	-27.2	15.9	0.00e+00	0	42	0	3554672640	11	4279
2026-01-12 13:14:34.73	333.09	12.82	-25.6	-27.1	16.0	1.10e-06	0	42	0	3559915520	11	4255
2026-01-12 13:14:35.74	333.15	12.73	-25.7	-27.1	16.0	0.00e+00	0	42	0	3566206976	11	4271
2026-01-12 13:14:36.74	333.22	12.64	-25.7	-27.2	15.9	0.00e+00	0	42	0	3571449856	11	4300
2026-01-12 13:14:37.75	333.28	12.55	-25.8	-27.4	15.8	0.00e+00	0	42	0	3576692736	11	4352
2026-01-12 13:14:38.75	333.35	12.46	-25.9	-27.6	15.7	0.00e+00	0	42	0	3582984192	11	4410
2026-01-12 13:14:39.76	333.41	12.37	-25.8	-27.6	15.7	0.00e+00	0	42	0	3588227072	11	4391
2026-01-12 13:14:40.77	333.48	12.27	-26.0	-27.9	15.5	0.00e+00	0	42	0	3594518528	11	4499
2026-01-12 13:14:41.76	333.54	12.19	-25.9	-27.3	15.5	0.00e+00	0	42	0	3599761408	12	4225
2026-01-12 13:14:42.77	333.60	12.10	-25.8	-27.1	15.6	0.00e+00	0	42	0	3605004288	12	4151
2026-01-12 13:14:43.78	333.66	12.01	-25.9	-27.2	15.5	0.00e+00	0	42	0	3611295744	12	4188
2026-01-12 13:14:44.79	333.73	11.92	-25.9	-27.2	15.5	0.00e+00	0	42	0	3616538624	12	4200
2026-01-12 13:14:45.79	333.79	11.83	-26.0	-27.4	15.4	0.00e+00	0	42	0	3621781504	12	4237
2026-01-12 13:14:46.80	333.85	11.74	-25.9	-27.3	15.4	0.00e+00	0	42	0	3628072960	12	4224
2026-01-12 13:14:47.81	333.91	11.65	-25.9	-27.4	15.4	0.00e+00	0	42	0	3633315840	12	4237
2026-01-12 13:14:48.82	333.97	11.56	-26.1	-27.6	15.3	0.00e+00	0	42	0	3639607296	12	4301
2026-01-12 13:14:49.82	334.03	11.47	-26.1	-27.7	15.3	4.50e-06	0	42	0	3644850176	12	4319
2026-01-12 13:14:50.83	334.09	11.39	-26.1	-27.8	15.2	6.80e-06	0	42	0	3651141632	12	4355
2026-01-12 13:14:51.84	334.16	11.30	-26.3	-28.1	15.0	0.00e+00	0	42	0	3656384512	12	4444
2026-01-12 13:14:52.84	334.21	11.21	-26.2	-27.9	15.1	1.10e-06	0	42	0	3661627392	12	4385
2026-01-12 13:14:53.85	334.27	11.13	-26.2	-27.9	15.1	0.00e+00	0	42	0	3667918848	12	4397
2026-01-12 13:14:54.86	334.33	11.04	-26.2	-27.9	15.1	4.50e-06	0	42	0	3673161728	12	4393
2026-01-12 13:14:55.87	334.39	10.95	-26.3	-28.2	14.9	6.80e-06	0	42	0	3679453184	12	4462
2026-01-12 13:14:56.88	334.45	10.87	-26.2	-27.9	15.1	1.10e-06	0	42	0	3684696064	12	4394
2026-01-12 13:14:57.88	334.51	10.78	-26.3	-28.2	14.9	0.00e+00	0	42	0	3689938944	12	4462
2026-01-12 13:14:58.89	334.57	10.70	-26.2	-28.0	15.0	0.00e+00	0	42	0	3696230400	12	4408
2026-01-12 13:14:59.90	334.62	10.61	-26.2	-27.9	15.1	0.00e+00	0	42	0	3701473280	12	4383
2026-01-12 13:15:00.89	334.68	10.53	-26.2	-27.9	15.1	0.00e+00	0	42	0	3706716160	12	4390
2026-01-12 13:15:01.89	334.74	10.44	-26.1	-27.8	15.1	0.00e+00	0	42	0	3713007616	12	4357
2026-01-12 13:15:02.90	334.79	10.36	-26.3	-28.1	15.0	0.00e+00	0	42	0	3718250496	12	4444
2026-01-12 13:15:03.91	334.85	10.27	-26.2	-28.0	15.0	1.10e-06	0	42	0	3724541952	12	4411
2026-01-12 13:15:04.91	334.91	10.19	-26.2	-27.9	15.0	0.00e+00	0	42	0	3729784832	12	4387
2026-01-12 13:15:05.92	334.96	10.11	-26.3	-28.2	14.8	0.00e+00	0	42	0	3736076288	12	4480
2026-01-12 13:15:06.92	335.02	10.02	-26.2	-27.8	15.1	1.10e-06	0	42	0	3741319168	12	4365
2026-01-12 13:15:07.92	335.07	9.94	-26.2	-27.9	15.0	0.00e+00	0	42	0	3746562048	12	4399
2026-01-12 13:15:08.93	335.13	9.86	-26.2	-27.9	15.0	0.00e+00	0	42	0	3752853504	12	4384
2026-01-12 13:15:09.94	335.18	9.78	-26.2	-27.9	15.0	0.00e+00	0	42	0	3758096384	12	4396
2026-01-12 13:15:10.95	335.24	9.69	-26.2	-28.0	14.9	0.00e+00	0	42	0	3763339264	12	4422
2026-01-12 13:15:11.96	335.29	9.61	-26.3	-28.1	14.9	0.00e+00	0	42	0	3769630720	12	4433
2026-01-12 13:15:12.96	335.34	9.53	-26.2	-27.9	15.0	0.00e+00	0	42	0	3774873600	12	4376
2026-01-12 13:15:13.97	335.40	9.45	-26.2	-27.9	15.0	0.00e+00	0	42	0	3781165056	12	4379
2026-01-12 13:15:14.98	335.45	9.37	-26.3	-28.2	14.8	0.00e+00	0	42	0	3786407936	12	4464
2026-01-12 13:15:15.98	335.50	9.29	-26.1	-27.8	15.1	0.00e+00	0	42	0	3791650816	12	4348
2026-01-12 13:15:16.99	335.56	9.21	-26.3	-28.2	14.8	0.00e+00	0	42	0	3797942272	12	4465
2026-01-12 13:15:17.99	335.61	9.13	-26.3	-28.2	14.8	0.00e+00	0	42	0	3803185152	12	4461
2026-01-12 13:15:19.00	335.66	9.05	-26.3	-28.2	14.8	0.00e+00	0	42	0	3809476608	12	4488
2026-01-12 13:15:20.01	335.71	8.97	-26.3	-28.2	14.7	0.00e+00	0	42	0	3814719488	12	4487
2026-01-12 13:15:21.01	335.76	8.89	-26.5	-28.1	14.6	0.00e+00	0	42	0	3821010944	13	4323
2026-01-12 13:15:22.02	335.81	8.81	-26.6	-28.3	14.4	0.00e+00	0	42	0	3826253824	13	4383
2026-01-12 13:15:23.03	335.87	8.73	-26.4	-27.9	14.7	0.00e+00	0	42	0	3831496704	13	4264
2026-01-12 13:15:24.04	335.92	8.65	-26.4	-28.0	14.6	0.00e+00	0	42	0	3837788160	13	4292
2026-01-12 13:15:25.04	335.97	8.57	-26.6	-28.3	14.4	0.00e+00	0	42	0	3843031040	13	4391
2026-01-12 13:15:26.05	336.02	8.49	-26.5	-28.0	14.5	1.10e-06	0	42	0	3848273920	13	4322
2026-01-12 13:15:27.06	336.07	8.41	-26.7	-28.5	14.3	0.00e+00	0	42	0	3854565376	13	4458
2026-01-12 13:15:28.06	336.12	8.33	-26.5	-28.1	14.5	0.00e+00	0	42	0	3859808256	13	4333
