passes_logs/2026/01/12/R2M6_AANII_01/R2M6_AANII_01__20260112_100720_AQUA_rec.log

#Pass ID: 20260112_100720_AQUA
#Satellite: AQUA
#Configuration: AQUA
#almurnet v.1.7.20240730
#Start time: 2026-01-12 10:07:20

#Version: 2.2.20231116
#Station: R2M6_AANII_01
#Location: 30.233357 lon 59.946436 lat
#TLE: 1 27424U 02022A   26011.34052177  .00001139  00000+0  23789-3 0  9999
#TLE: 2 27424  98.4078 337.7066 0002035  82.6124  44.5301 14.61815662260355

#Time	Az	El	Level	Level2	SNR	BER	BlckErr	Temp	State	Recorded	gain1	gain2
2026-01-12 10:07:20.46	95.56	7.02	-31.1	-49.9	3.8	7.43e-01	0	42	0	0	24	31344
2026-01-12 10:07:21.44	95.44	7.08	-31.1	-49.8	3.8	7.45e-01	0	42	104	0	24	31257
2026-01-12 10:07:22.45	95.32	7.14	-31.1	-49.8	3.8	7.44e-01	0	42	104	0	24	31259
2026-01-12 10:07:23.44	95.20	7.21	-31.1	-49.9	3.8	7.47e-01	0	42	104	0	24	31318
2026-01-12 10:07:24.45	95.08	7.27	-31.2	-50.1	3.8	7.43e-01	0	42	104	0	24	31707
2026-01-12 10:07:25.45	94.96	7.33	-31.3	-50.2	3.8	7.42e-01	0	42	104	0	24	31925
2026-01-12 10:07:26.46	94.84	7.40	-31.4	-50.4	3.8	7.41e-01	0	42	104	0	24	32227
2026-01-12 10:07:27.46	94.71	7.46	-31.4	-50.5	3.8	7.48e-01	0	42	104	0	24	32354
2026-01-12 10:07:28.47	94.59	7.52	-31.4	-50.5	3.8	7.50e-01	0	42	104	0	24	32343
2026-01-12 10:07:29.46	94.47	7.59	-31.4	-50.4	3.8	7.42e-01	0	42	104	0	24	32277
2026-01-12 10:07:30.47	94.34	7.65	-31.4	-50.4	3.8	7.46e-01	0	42	104	0	24	32114
2026-01-12 10:07:31.48	94.22	7.72	-31.4	-50.3	3.8	7.46e-01	0	42	104	0	24	31738
2026-01-12 10:07:32.48	94.09	7.78	-31.5	-50.0	3.8	7.44e-01	0	42	104	0	24	30174
2026-01-12 10:07:33.48	93.97	7.84	-31.6	-49.1	3.8	7.42e-01	0	42	104	0	24	26992
2026-01-12 10:07:34.49	93.84	7.91	-31.8	-47.4	4.3	7.28e-01	0	42	104	0	24	21504
2026-01-12 10:07:35.49	93.71	7.97	-32.0	-46.2	4.1	7.36e-01	0	42	104	0	24	18501
2026-01-12 10:07:36.49	93.59	8.03	-32.1	-43.9	6.9	6.63e-01	0	42	0	0	24	14100
2026-01-12 10:07:37.49	93.46	8.10	-32.1	-41.9	8.7	6.35e-01	0	42	0	1572864	25	11065
2026-01-12 10:07:38.49	93.33	8.16	-32.1	-40.9	10.0	6.27e-01	0	42	0	3670016	25	9821
2026-01-12 10:07:39.49	93.20	8.23	-32.3	-40.9	10.3	6.22e-01	0	42	0	5242880	25	9784
2026-01-12 10:07:40.49	93.07	8.29	-32.4	-41.3	9.8	6.27e-01	0	42	0	7340032	25	10105
2026-01-12 10:07:41.49	92.94	8.35	-32.3	-40.5	10.8	6.18e-01	0	42	0	9437184	25	9305
2026-01-12 10:07:42.49	92.81	8.42	-32.4	-41.0	10.4	6.19e-01	0	42	0	11010048	25	9707
2026-01-12 10:07:43.50	92.67	8.48	-32.3	-40.3	11.0	6.17e-01	0	42	0	13107200	25	9071
2026-01-12 10:07:44.49	92.54	8.55	-32.3	-40.7	10.6	6.20e-01	0	42	0	14680064	25	9405
2026-01-12 10:07:45.49	92.41	8.61	-32.4	-40.6	10.9	6.18e-01	0	42	0	16777216	25	9261
2026-01-12 10:07:46.48	92.28	8.68	-32.4	-40.5	11.0	6.19e-01	0	42	0	18350080	25	9198
2026-01-12 10:07:47.48	92.14	8.74	-32.3	-40.2	11.3	6.15e-01	0	42	0	20447232	25	8915
2026-01-12 10:07:48.48	92.01	8.80	-32.1	-38.7	12.6	6.11e-01	0	42	0	22544384	25	7738
2026-01-12 10:07:49.49	91.87	8.87	-31.8	-37.6	13.5	6.08e-01	0	42	0	24117248	25	6995
2026-01-12 10:07:50.49	91.74	8.93	-31.3	-35.9	15.2	6.07e-01	0	42	0	26214400	24	6151
2026-01-12 10:07:51.49	91.60	9.00	-31.2	-35.5	15.5	6.07e-01	0	42	0	27787264	24	5951
2026-01-12 10:07:52.49	91.46	9.06	-31.0	-34.9	16.1	6.06e-01	0	42	0	29884416	24	5626
2026-01-12 10:07:53.49	91.32	9.13	-30.8	-34.7	16.5	6.07e-01	0	42	0	31457280	23	5642
2026-01-12 10:07:54.49	91.18	9.19	-30.5	-33.7	17.2	6.07e-01	0	42	0	33554432	23	5216
2026-01-12 10:07:55.49	91.04	9.26	-30.3	-33.8	17.5	6.06e-01	0	42	0	35651584	22	5347
2026-01-12 10:07:56.50	90.90	9.32	-30.2	-33.4	17.8	6.06e-01	0	42	0	37224448	22	5181
2026-01-12 10:07:57.50	90.76	9.39	-30.2	-33.3	17.8	6.07e-01	0	42	0	39321600	22	5172
2026-01-12 10:07:58.49	90.62	9.45	-30.4	-33.9	17.5	6.07e-01	0	42	0	40894464	22	5389
2026-01-12 10:07:59.49	90.48	9.52	-30.4	-33.8	17.5	6.06e-01	0	42	0	42991616	22	5348
2026-01-12 10:08:00.48	90.34	9.58	-30.3	-33.6	17.7	6.08e-01	0	42	0	45088768	22	5253
2026-01-12 10:08:01.48	90.19	9.64	-30.3	-33.5	17.8	6.06e-01	0	42	0	46661632	22	5211
2026-01-12 10:08:02.49	90.05	9.71	-30.3	-33.5	17.8	6.05e-01	0	42	0	48758784	22	5227
2026-01-12 10:08:03.48	89.90	9.77	-30.3	-33.7	17.7	6.07e-01	0	42	0	50331648	22	5297
2026-01-12 10:08:04.48	89.76	9.84	-30.3	-33.5	17.8	6.08e-01	0	42	0	52428800	22	5240
2026-01-12 10:08:05.48	89.61	9.90	-30.2	-33.4	17.9	6.06e-01	0	42	0	54001664	22	5168
2026-01-12 10:08:06.48	89.46	9.97	-30.1	-33.1	18.1	6.05e-01	0	42	0	56098816	22	5052
2026-01-12 10:08:07.47	89.31	10.03	-30.1	-33.1	18.2	6.07e-01	0	42	0	58195968	22	5052
2026-01-12 10:08:08.47	89.17	10.10	-30.1	-33.0	18.2	6.06e-01	0	42	0	59768832	22	5029
2026-01-12 10:08:09.48	89.01	10.16	-30.1	-32.8	18.4	6.07e-01	0	42	0	61865984	22	4945
2026-01-12 10:08:10.49	88.86	10.23	-30.2	-33.2	18.1	6.09e-01	0	42	0	63438848	22	5090
2026-01-12 10:08:11.49	88.71	10.29	-30.2	-33.1	18.2	6.08e-01	0	42	0	65536000	22	5043
2026-01-12 10:08:12.49	88.56	10.36	-30.2	-33.3	18.1	6.05e-01	0	42	0	67108864	22	5116
2026-01-12 10:08:13.49	88.41	10.42	-30.1	-32.8	18.4	6.07e-01	0	42	0	69206016	22	4945
2026-01-12 10:08:14.48	88.26	10.49	-30.2	-33.0	18.3	6.06e-01	0	42	0	71303168	22	5018
2026-01-12 10:08:15.49	88.10	10.55	-30.1	-32.8	18.4	6.07e-01	0	42	0	72876032	22	4921
2026-01-12 10:08:16.49	87.94	10.62	-30.1	-32.8	18.5	6.06e-01	0	42	0	74973184	22	4927
2026-01-12 10:08:17.49	87.79	10.68	-30.0	-32.7	18.5	6.06e-01	0	42	0	76546048	22	4909
2026-01-12 10:08:18.49	87.63	10.75	-29.9	-32.4	18.8	6.08e-01	0	42	0	78643200	22	4779
2026-01-12 10:08:19.50	87.47	10.82	-30.0	-32.5	18.6	6.05e-01	0	42	0	80216064	22	4835
2026-01-12 10:08:20.50	87.32	10.88	-30.0	-32.6	18.6	6.08e-01	0	42	0	82313216	22	4862
2026-01-12 10:08:21.50	87.16	10.95	-30.0	-32.6	18.6	6.07e-01	0	42	0	84410368	22	4854
2026-01-12 10:08:22.50	87.00	11.01	-30.0	-32.5	18.6	6.06e-01	0	42	0	85983232	22	4843
2026-01-12 10:08:23.50	86.84	11.08	-30.0	-32.7	18.5	6.08e-01	0	42	0	88080384	22	4912
2026-01-12 10:08:24.50	86.68	11.14	-30.0	-32.7	18.6	6.07e-01	0	42	0	89653248	22	4883
2026-01-12 10:08:25.50	86.52	11.21	-30.0	-32.5	18.6	6.08e-01	0	42	0	91750400	22	4840
2026-01-12 10:08:26.50	86.35	11.27	-30.1	-32.7	18.5	6.08e-01	0	42	0	93323264	22	4910
2026-01-12 10:08:27.50	86.19	11.34	-30.0	-32.7	18.5	6.05e-01	0	42	0	95420416	22	4892
2026-01-12 10:08:28.49	86.03	11.40	-30.0	-32.5	18.7	6.05e-01	0	42	0	97517568	22	4822
2026-01-12 10:08:29.50	85.86	11.47	-30.0	-32.6	18.7	6.06e-01	0	42	0	99090432	22	4833
2026-01-12 10:08:30.50	85.69	11.53	-30.1	-32.8	18.6	6.08e-01	0	42	0	101187584	22	4930
2026-01-12 10:08:31.50	85.53	11.59	-30.1	-32.9	18.4	6.07e-01	0	42	0	102760448	22	4964
2026-01-12 10:08:32.51	85.36	11.66	-30.1	-32.9	18.5	6.06e-01	0	42	0	104857600	22	4960
2026-01-12 10:08:33.51	85.19	11.73	-30.3	-33.3	18.2	6.07e-01	0	42	0	106954752	22	5123
2026-01-12 10:08:34.51	85.02	11.79	-30.3	-33.4	18.2	6.06e-01	0	42	0	108527616	22	5149
2026-01-12 10:08:35.51	84.85	11.85	-30.2	-33.0	18.4	6.06e-01	0	42	0	110624768	22	4990
2026-01-12 10:08:36.51	84.68	11.92	-30.2	-33.0	18.4	6.07e-01	0	42	0	112197632	22	5004
2026-01-12 10:08:37.50	84.51	11.98	-30.2	-33.0	18.4	6.07e-01	0	42	0	114294784	22	4994
2026-01-12 10:08:38.50	84.34	12.05	-30.0	-32.6	18.7	6.05e-01	0	42	0	115867648	22	4855
2026-01-12 10:08:39.51	84.17	12.11	-30.0	-32.7	18.6	6.07e-01	0	42	0	117964800	22	4866
2026-01-12 10:08:40.51	83.99	12.18	-30.1	-32.9	18.6	6.07e-01	0	42	0	120061952	22	4937
2026-01-12 10:08:41.51	83.82	12.24	-30.1	-32.8	18.6	6.06e-01	0	42	0	121634816	22	4925
2026-01-12 10:08:42.51	83.64	12.31	-30.1	-32.9	18.6	6.05e-01	0	42	0	123731968	22	4933
2026-01-12 10:08:43.51	83.46	12.37	-30.1	-32.8	18.6	6.04e-01	0	42	0	125304832	22	4916
2026-01-12 10:08:44.52	83.29	12.43	-30.0	-32.6	18.7	6.05e-01	0	42	0	127401984	22	4853
2026-01-12 10:08:45.52	83.11	12.50	-30.0	-32.6	18.7	6.07e-01	0	42	0	129499136	22	4862
2026-01-12 10:08:46.52	82.93	12.56	-30.0	-32.6	18.8	6.06e-01	0	42	0	131072000	22	4838
2026-01-12 10:08:47.52	82.75	12.63	-30.0	-32.6	18.8	6.05e-01	0	42	0	133169152	22	4854
2026-01-12 10:08:48.52	82.57	12.69	-30.0	-32.6	18.8	6.07e-01	0	42	0	134742016	22	4828
2026-01-12 10:08:49.52	82.39	12.75	-30.0	-32.4	18.9	6.05e-01	0	42	0	136839168	22	4785
2026-01-12 10:08:50.52	82.21	12.82	-29.9	-32.3	18.9	6.05e-01	0	42	0	138936320	22	4753
2026-01-12 10:08:51.52	82.02	12.88	-30.0	-32.4	18.9	6.05e-01	0	42	0	140509184	22	4779
2026-01-12 10:08:52.52	81.84	12.95	-29.9	-32.4	18.9	6.06e-01	0	42	0	142606336	22	4757
2026-01-12 10:08:53.51	81.66	13.01	-30.0	-32.6	18.7	6.08e-01	0	42	0	144179200	22	4847
2026-01-12 10:08:54.52	81.47	13.07	-30.0	-32.6	18.8	6.07e-01	0	42	0	146276352	22	4821
2026-01-12 10:08:55.52	81.28	13.14	-30.0	-32.5	18.9	6.06e-01	0	42	0	147849216	22	4810
2026-01-12 10:08:56.51	81.10	13.20	-30.1	-32.8	18.7	6.06e-01	0	42	0	149946368	22	4902
2026-01-12 10:08:57.50	80.91	13.26	-30.1	-32.9	18.6	6.08e-01	0	42	0	151519232	22	4937
2026-01-12 10:08:58.51	80.72	13.32	-30.0	-32.6	18.8	6.05e-01	0	42	0	153616384	22	4825
2026-01-12 10:08:59.51	80.53	13.39	-30.0	-32.5	18.9	6.07e-01	0	42	0	155713536	22	4794
2026-01-12 10:09:00.52	80.34	13.45	-29.9	-32.4	18.9	6.06e-01	0	42	0	157286400	22	4757
2026-01-12 10:09:01.51	80.15	13.51	-29.9	-32.2	19.1	6.07e-01	0	42	0	159383552	22	4690
2026-01-12 10:09:02.52	79.95	13.58	-29.9	-32.3	19.0	6.04e-01	0	42	0	160956416	22	4721
2026-01-12 10:09:03.51	79.76	13.64	-30.0	-32.5	18.9	6.06e-01	0	42	0	163053568	22	4788
2026-01-12 10:09:04.51	79.57	13.70	-30.1	-32.8	18.7	6.06e-01	0	42	0	165150720	22	4894
2026-01-12 10:09:05.52	79.37	13.76	-30.1	-32.7	18.8	6.07e-01	0	42	0	166723584	22	4851
2026-01-12 10:09:06.52	79.17	13.82	-30.1	-32.7	18.8	6.05e-01	0	42	0	168820736	22	4855
2026-01-12 10:09:07.52	78.97	13.89	-30.1	-32.7	18.8	6.05e-01	0	42	0	170393600	22	4865
2026-01-12 10:09:08.52	78.78	13.95	-30.1	-32.6	18.9	6.05e-01	0	42	0	172490752	22	4822
2026-01-12 10:09:09.52	78.58	14.01	-30.0	-32.5	19.0	6.08e-01	0	42	0	174063616	22	4774
2026-01-12 10:09:10.52	78.38	14.07	-30.0	-32.4	19.0	6.06e-01	0	42	0	176160768	22	4743
2026-01-12 10:09:11.52	78.18	14.13	-30.0	-32.4	19.0	6.07e-01	0	42	0	178257920	22	4747
2026-01-12 10:09:12.52	77.98	14.19	-30.1	-32.8	18.8	6.06e-01	0	42	0	179830784	22	4876
2026-01-12 10:09:13.52	77.77	14.25	-30.1	-32.7	18.9	6.06e-01	0	42	0	181927936	22	4840
2026-01-12 10:09:14.51	77.57	14.31	-30.0	-32.5	19.0	6.06e-01	0	42	0	183500800	22	4786
2026-01-12 10:09:15.51	77.37	14.37	-30.1	-32.6	19.0	6.07e-01	0	42	0	185597952	22	4808
2026-01-12 10:09:16.51	77.16	14.43	-30.1	-32.7	18.8	6.06e-01	0	42	0	187170816	22	4859
2026-01-12 10:09:17.51	76.96	14.49	-30.1	-32.8	18.8	6.05e-01	0	42	0	189267968	22	4882
2026-01-12 10:09:18.51	76.75	14.55	-30.1	-32.6	18.9	6.04e-01	0	42	0	190840832	22	4820
2026-01-12 10:09:19.51	76.54	14.61	-30.2	-33.0	18.7	6.07e-01	0	42	0	192937984	22	4947
2026-01-12 10:09:20.52	76.33	14.67	-30.4	-33.5	18.4	6.06e-01	0	42	0	195035136	22	5141
2026-01-12 10:09:21.52	76.12	14.73	-30.5	-33.7	18.3	6.06e-01	0	42	0	196608000	22	5207
2026-01-12 10:09:22.53	75.91	14.79	-30.3	-33.4	18.5	6.05e-01	0	42	0	198705152	22	5092
2026-01-12 10:09:23.54	75.70	14.85	-30.4	-33.4	18.4	6.04e-01	0	42	0	200802304	22	5098
2026-01-12 10:09:24.54	75.48	14.91	-30.4	-33.5	18.4	6.07e-01	0	42	0	202375168	22	5129
2026-01-12 10:09:25.54	75.27	14.97	-30.4	-33.6	18.4	6.06e-01	0	42	0	204472320	22	5160
2026-01-12 10:09:26.55	75.05	15.03	-30.5	-33.7	18.3	6.07e-01	0	42	0	206045184	22	5228
2026-01-12 10:09:27.56	74.84	15.09	-30.4	-33.5	18.4	6.07e-01	0	42	0	208142336	22	5148
2026-01-12 10:09:28.56	74.62	15.14	-30.2	-32.9	18.7	6.06e-01	0	42	0	209715200	22	4935
2026-01-12 10:09:29.56	74.40	15.20	-30.1	-32.8	18.9	6.09e-01	0	42	0	211812352	22	4872
2026-01-12 10:09:30.56	74.19	15.26	-30.1	-32.7	18.9	6.08e-01	0	42	0	213909504	22	4864
2026-01-12 10:09:31.56	73.97	15.32	-30.2	-32.9	18.8	6.05e-01	0	42	0	215482368	22	4912
2026-01-12 10:09:32.57	73.75	15.37	-30.1	-32.7	18.9	6.08e-01	0	42	0	217579520	22	4860
2026-01-12 10:09:33.58	73.52	15.43	-30.1	-32.5	19.0	6.07e-01	0	42	0	219152384	22	4790
2026-01-12 10:09:34.59	73.30	15.49	-30.1	-32.6	19.0	6.05e-01	0	42	0	221249536	22	4824
2026-01-12 10:09:35.59	73.08	15.54	-30.1	-32.6	19.0	6.07e-01	0	42	0	223346688	22	4797
2026-01-12 10:09:36.60	72.85	15.60	-30.0	-32.4	19.1	6.07e-01	0	42	0	224919552	22	4757
2026-01-12 10:09:37.60	72.63	15.66	-30.0	-32.4	19.1	6.05e-01	0	42	0	227016704	22	4755
2026-01-12 10:09:38.61	72.40	15.71	-30.2	-32.9	18.9	6.08e-01	0	42	0	228589568	22	4905
2026-01-12 10:09:39.61	72.18	15.77	-30.3	-33.2	18.7	6.07e-01	0	42	0	230686720	22	5004
2026-01-12 10:09:40.61	71.95	15.82	-30.4	-33.3	18.6	6.06e-01	0	42	0	232259584	22	5064
2026-01-12 10:09:41.61	71.72	15.88	-30.4	-33.4	18.5	6.08e-01	0	42	0	234356736	22	5079
2026-01-12 10:09:42.62	71.49	15.93	-30.3	-33.3	18.6	6.04e-01	0	42	0	236453888	22	5046
2026-01-12 10:09:43.63	71.26	15.98	-30.3	-33.1	18.7	6.07e-01	0	42	0	238026752	22	4996
2026-01-12 10:09:44.63	71.03	16.04	-30.4	-33.5	18.4	6.08e-01	0	42	0	240123904	22	5148
2026-01-12 10:09:45.64	70.80	16.09	-30.4	-33.6	18.4	6.07e-01	0	42	0	242221056	22	5160
2026-01-12 10:09:46.65	70.56	16.14	-30.5	-33.8	18.3	6.06e-01	0	42	0	243793920	22	5253
2026-01-12 10:09:47.65	70.33	16.20	-30.6	-33.9	18.3	6.05e-01	0	42	0	245891072	22	5268
2026-01-12 10:09:48.65	70.10	16.25	-30.5	-33.7	18.4	6.06e-01	0	42	0	247463936	22	5197
2026-01-12 10:09:49.66	69.86	16.30	-30.4	-33.5	18.5	6.06e-01	0	42	0	249561088	22	5118
2026-01-12 10:09:50.66	69.62	16.35	-30.3	-33.3	18.6	6.06e-01	0	42	0	251658240	22	5055
2026-01-12 10:09:51.66	69.39	16.40	-30.7	-43.5	3.8	7.44e-01	0	42	104	252706816	22	15680
2026-01-12 10:09:52.66	69.15	16.45	-31.0	-44.2	3.8	7.44e-01	0	42	104	252706816	22	16510
2026-01-12 10:09:53.67	68.91	16.50	-31.4	-44.9	3.8	7.46e-01	0	42	104	252706816	23	17036
2026-01-12 10:09:54.68	68.67	16.56	-31.8	-45.7	3.8	7.46e-01	0	42	104	252706816	24	17757
2026-01-12 10:09:55.68	68.43	16.60	-32.2	-46.3	3.8	7.48e-01	0	42	104	252706816	25	18311
2026-01-12 10:09:56.68	68.19	16.65	-32.5	-47.4	3.8	7.43e-01	0	42	104	252706816	25	20128
2026-01-12 10:09:57.69	67.94	16.70	-32.6	-47.8	3.8	7.46e-01	0	42	104	252706816	25	20782
2026-01-12 10:09:58.69	67.70	16.75	-32.7	-47.5	3.8	7.44e-01	0	42	104	252706816	26	19934
2026-01-12 10:09:59.70	67.46	16.80	-32.7	-47.8	3.8	7.45e-01	0	42	104	252706816	26	20454
2026-01-12 10:10:00.71	67.21	16.85	-32.9	-48.4	3.8	7.49e-01	0	42	104	252706816	26	21379
2026-01-12 10:10:01.72	66.96	16.90	-33.0	-48.8	3.8	7.45e-01	0	42	104	252706816	26	22167
2026-01-12 10:10:02.73	66.71	16.94	-33.1	-48.8	3.8	7.45e-01	0	42	104	252706816	27	21925
2026-01-12 10:10:03.72	66.47	16.99	-33.3	-49.7	3.8	7.46e-01	0	42	104	252706816	27	23640
2026-01-12 10:10:04.73	66.22	17.04	-33.4	-50.2	3.8	7.46e-01	0	42	104	252706816	27	24698
2026-01-12 10:10:05.73	65.97	17.08	-33.5	-50.3	3.8	7.48e-01	0	42	104	252706816	27	24900
2026-01-12 10:10:06.73	65.72	17.13	-33.5	-50.4	3.8	7.43e-01	0	42	104	252706816	27	25358
2026-01-12 10:10:07.74	65.47	17.17	-33.5	-50.4	3.8	7.42e-01	0	42	104	252706816	27	25267
2026-01-12 10:10:08.75	65.22	17.22	-33.5	-50.3	3.8	7.46e-01	0	42	104	252706816	27	25071
2026-01-12 10:10:09.76	64.97	17.26	-33.5	-50.3	3.8	7.45e-01	0	42	104	252706816	27	25081
2026-01-12 10:10:10.76	64.71	17.30	-33.5	-50.5	3.8	7.48e-01	0	42	104	252706816	27	25472
2026-01-12 10:10:11.76	64.46	17.35	-33.5	-50.4	3.8	7.42e-01	0	42	104	252706816	27	25248
2026-01-12 10:10:12.77	64.21	17.39	-33.5	-50.3	3.8	7.44e-01	0	42	104	252706816	27	25048
2026-01-12 10:10:13.77	63.95	17.43	-33.4	-50.2	3.8	7.46e-01	0	42	104	252706816	27	24865
2026-01-12 10:10:14.78	63.69	17.47	-33.4	-50.1	3.8	7.44e-01	0	42	104	252706816	27	24523
2026-01-12 10:10:15.79	63.44	17.51	-33.4	-50.0	3.8	7.44e-01	0	42	104	252706816	27	24443
2026-01-12 10:10:16.79	63.18	17.55	-33.3	-49.7	3.8	7.45e-01	0	42	104	252706816	27	23793
2026-01-12 10:10:17.80	62.92	17.59	-33.2	-49.4	3.8	7.44e-01	0	42	104	252706816	27	23027
2026-01-12 10:10:18.80	62.66	17.63	-33.1	-48.7	3.8	7.44e-01	0	42	104	252706816	27	21683
2026-01-12 10:10:19.80	62.40	17.67	-32.9	-47.8	3.8	7.47e-01	0	42	104	252706816	27	20067
2026-01-12 10:10:20.81	62.14	17.71	-32.6	-46.7	3.8	7.42e-01	0	42	104	252706816	27	18296
2026-01-12 10:10:21.81	61.88	17.75	-32.4	-46.3	3.8	7.42e-01	0	42	104	252706816	26	17856
2026-01-12 10:10:22.82	61.62	17.79	-32.2	-45.8	3.8	7.46e-01	0	42	104	252706816	26	17172
2026-01-12 10:10:23.82	61.36	17.82	-32.1	-45.3	3.8	7.43e-01	0	42	104	252706816	26	16582
2026-01-12 10:10:24.83	61.09	17.86	-32.0	-45.2	3.8	7.41e-01	0	42	104	252706816	26	16496
2026-01-12 10:10:25.84	60.83	17.90	-32.0	-45.0	3.8	7.48e-01	0	42	104	252706816	26	16178
2026-01-12 10:10:26.84	60.56	17.93	-31.9	-44.9	3.8	7.44e-01	0	42	104	252706816	26	16075
2026-01-12 10:10:27.84	60.30	17.97	-32.0	-45.1	3.8	7.46e-01	0	42	104	252706816	26	16299
2026-01-12 10:10:28.85	60.03	18.00	-32.1	-45.5	3.8	7.45e-01	0	42	104	252706816	26	16811
2026-01-12 10:10:29.86	59.76	18.04	-31.9	-44.7	3.8	7.43e-01	0	42	104	252706816	26	15839
2026-01-12 10:10:30.86	59.50	18.07	-31.5	-44.1	3.8	7.45e-01	0	42	104	252706816	25	15414
2026-01-12 10:10:31.87	59.23	18.10	-31.1	-43.5	3.8	7.43e-01	0	42	104	252706816	24	15014
2026-01-12 10:10:32.88	58.96	18.13	-30.9	-42.8	3.8	7.44e-01	0	42	104	252706816	24	14276
2026-01-12 10:10:33.88	58.69	18.16	-30.7	-43.0	3.8	7.44e-01	0	42	104	252706816	23	14759
2026-01-12 10:10:34.89	58.42	18.20	-30.8	-43.2	3.8	7.43e-01	0	42	104	252706816	23	14993
2026-01-12 10:10:35.90	58.15	18.23	-30.8	-43.3	3.8	7.47e-01	0	42	104	252706816	23	15055
2026-01-12 10:10:36.90	57.88	18.26	-30.8	-43.2	3.8	7.42e-01	0	42	104	252706816	23	14987
2026-01-12 10:10:37.91	57.61	18.29	-30.7	-42.9	3.8	7.46e-01	0	42	104	252706816	23	14620
2026-01-12 10:10:38.92	57.33	18.31	-30.7	-43.0	3.8	7.41e-01	0	42	104	252706816	23	14798
2026-01-12 10:10:39.93	57.06	18.34	-30.9	-43.3	3.8	7.46e-01	0	42	104	252706816	23	15128
2026-01-12 10:10:40.94	56.79	18.37	-31.0	-43.6	3.8	7.45e-01	0	42	104	252706816	23	15462
2026-01-12 10:10:41.95	56.51	18.40	-31.3	-44.4	3.8	7.47e-01	0	42	104	252706816	23	16267
2026-01-12 10:10:42.95	56.24	18.42	-31.6	-44.9	3.8	7.47e-01	0	42	104	252706816	24	16662
2026-01-12 10:10:43.96	55.96	18.45	-31.9	-45.9	3.8	7.46e-01	0	42	104	252706816	24	17984
2026-01-12 10:10:44.96	55.69	18.47	-32.1	-45.9	3.8	7.44e-01	0	42	104	252706816	25	17717
2026-01-12 10:10:45.97	55.41	18.50	-32.5	-47.2	3.8	7.46e-01	0	42	104	252706816	25	19718
2026-01-12 10:10:46.98	55.14	18.52	-32.7	-47.6	3.8	7.49e-01	0	42	104	252706816	26	20040
2026-01-12 10:10:47.99	54.86	18.54	-32.9	-48.2	3.8	7.45e-01	0	42	104	252706816	26	20989
2026-01-12 10:10:48.99	54.58	18.57	-33.0	-48.8	3.8	7.42e-01	0	42	104	252706816	26	22207
2026-01-12 10:10:49.99	54.31	18.59	-33.2	-49.1	3.8	7.45e-01	0	42	104	252706816	27	22381
2026-01-12 10:10:51.00	54.03	18.61	-33.4	-50.0	3.8	7.44e-01	0	42	104	252706816	27	24319
2026-01-12 10:10:52.01	53.75	18.63	-33.4	-50.1	3.8	7.45e-01	0	42	104	252706816	27	24683
2026-01-12 10:10:53.01	53.47	18.65	-33.5	-50.7	3.8	7.46e-01	0	42	104	252706816	27	25966
2026-01-12 10:10:54.02	53.19	18.67	-33.4	-50.0	3.8	7.48e-01	0	42	104	252706816	27	24304
2026-01-12 10:10:55.03	52.91	18.69	-33.4	-50.3	3.8	7.44e-01	0	42	104	252706816	27	25143
2026-01-12 10:10:56.03	52.63	18.70	-33.5	-50.3	3.8	7.47e-01	0	42	104	252706816	27	25068
2026-01-12 10:10:57.04	52.35	18.72	-33.5	-50.4	3.8	7.44e-01	0	42	104	252706816	27	25419
2026-01-12 10:10:58.04	52.07	18.74	-33.5	-50.4	3.8	7.43e-01	0	42	104	252706816	27	25305
2026-01-12 10:10:59.05	51.79	18.75	-33.5	-50.4	3.8	7.46e-01	0	42	104	252706816	27	25304
2026-01-12 10:11:00.05	51.51	18.77	-33.5	-50.5	3.8	7.43e-01	0	42	104	252706816	27	25384
2026-01-12 10:11:01.06	51.23	18.78	-33.5	-50.4	3.8	7.41e-01	0	42	104	252706816	27	25141
2026-01-12 10:11:02.06	50.95	18.80	-33.5	-50.2	3.8	7.44e-01	0	42	104	252706816	27	24843
2026-01-12 10:11:03.07	50.67	18.81	-33.4	-50.1	3.8	7.48e-01	0	42	104	252706816	27	24697
2026-01-12 10:11:04.08	50.38	18.82	-33.4	-50.1	3.8	7.43e-01	0	42	104	252706816	27	24659
2026-01-12 10:11:05.09	50.10	18.84	-33.5	-50.5	3.8	7.48e-01	0	42	104	252706816	27	25371
2026-01-12 10:11:06.10	49.82	18.85	-33.4	-50.2	3.8	7.43e-01	0	42	104	252706816	27	24805
2026-01-12 10:11:07.10	49.54	18.86	-33.3	-49.4	3.8	7.43e-01	0	42	104	252706816	27	23090
2026-01-12 10:11:08.10	49.25	18.87	-33.1	-48.8	3.8	7.44e-01	0	42	104	252706816	27	21945
2026-01-12 10:11:09.12	48.97	18.88	-32.9	-47.9	3.8	7.48e-01	0	42	104	252706816	27	20307
2026-01-12 10:11:10.12	48.69	18.88	-32.6	-46.9	3.8	7.48e-01	0	42	104	252706816	27	18563
2026-01-12 10:11:11.13	48.40	18.89	-32.3	-46.3	3.8	7.44e-01	0	42	104	252706816	26	18007
2026-01-12 10:11:12.13	48.12	18.90	-32.0	-45.2	3.8	7.47e-01	0	42	104	252706816	26	16482
2026-01-12 10:11:13.14	47.84	18.90	-31.9	-44.9	3.8	7.45e-01	0	42	104	252706816	26	16032
2026-01-12 10:11:14.14	47.55	18.91	-31.8	-45.1	3.8	7.45e-01	0	42	104	252706816	25	16563
2026-01-12 10:11:15.15	47.27	18.92	-31.8	-45.0	3.8	7.49e-01	0	42	104	252706816	25	16433
2026-01-12 10:11:16.15	46.99	18.92	-31.9	-45.3	3.8	7.44e-01	0	42	104	252706816	25	16829
2026-01-12 10:11:17.16	46.70	18.92	-32.0	-45.6	3.8	7.44e-01	0	42	104	252706816	25	17379
2026-01-12 10:11:18.16	46.42	18.93	-31.9	-45.4	3.8	7.45e-01	0	42	104	252706816	25	17136
2026-01-12 10:11:19.17	46.13	18.93	-31.8	-45.1	3.8	7.47e-01	0	42	104	252706816	25	16644
2026-01-12 10:11:20.18	45.85	18.93	-31.4	-43.9	3.8	7.42e-01	0	42	104	252706816	25	15085
2026-01-12 10:11:21.19	45.56	18.93	-31.1	-43.4	3.8	7.41e-01	0	42	104	252706816	24	14883
2026-01-12 10:11:22.19	45.28	18.93	-30.8	-43.1	3.8	7.46e-01	0	42	104	252706816	23	14837
2026-01-12 10:11:23.20	44.99	18.93	-30.5	-42.4	3.8	7.47e-01	0	42	104	252706816	23	14154
2026-01-12 10:11:24.20	44.71	18.93	-30.4	-42.2	3.8	7.45e-01	0	42	104	252706816	23	13963
2026-01-12 10:11:25.21	44.43	18.93	-30.6	-42.6	3.8	7.44e-01	0	42	104	252706816	23	14343
2026-01-12 10:11:26.22	44.14	18.92	-30.6	-42.7	3.8	7.44e-01	0	42	104	252706816	23	14461
2026-01-12 10:11:27.23	43.86	18.92	-30.8	-43.1	3.8	7.44e-01	0	42	104	252706816	23	14840
2026-01-12 10:11:28.23	43.57	18.91	-30.9	-43.5	3.8	7.44e-01	0	42	104	252706816	23	15358
2026-01-12 10:11:29.24	43.29	18.91	-31.2	-44.2	3.8	7.44e-01	0	42	104	252706816	23	16193
2026-01-12 10:11:30.25	43.01	18.90	-31.4	-45.0	3.8	7.43e-01	0	42	104	252706816	23	17193
2026-01-12 10:11:31.25	42.72	18.90	-31.7	-45.2	3.8	7.44e-01	0	42	104	252706816	24	17086
2026-01-12 10:11:32.26	42.44	18.89	-32.2	-46.4	3.8	7.48e-01	0	42	104	252706816	25	18386
2026-01-12 10:11:33.26	42.16	18.88	-32.1	-46.0	3.8	7.43e-01	0	42	104	252706816	25	17821
2026-01-12 10:11:34.26	41.88	18.87	-32.2	-46.5	3.8	7.44e-01	0	42	104	252706816	25	18730
2026-01-12 10:11:35.27	41.59	18.87	-32.6	-47.7	3.8	7.45e-01	0	42	104	252706816	25	20585
2026-01-12 10:11:36.28	41.31	18.86	-32.7	-47.8	3.8	7.46e-01	0	42	104	252706816	26	20451
2026-01-12 10:11:37.28	41.03	18.85	-32.9	-48.7	3.8	7.44e-01	0	42	104	252706816	26	22065
2026-01-12 10:11:38.28	40.75	18.83	-33.1	-49.3	3.8	7.44e-01	0	42	104	252706816	26	23303
2026-01-12 10:11:39.28	40.47	18.82	-33.4	-50.4	3.8	7.46e-01	0	42	104	252706816	27	25421
2026-01-12 10:11:40.29	40.18	18.81	-33.4	-50.3	3.8	7.44e-01	0	42	104	252706816	27	25127
2026-01-12 10:11:41.30	39.90	18.80	-33.5	-51.0	3.8	7.47e-01	0	42	104	252706816	27	27081
2026-01-12 10:11:42.31	39.62	18.78	-33.3	-50.0	3.8	7.47e-01	0	42	104	252706816	27	24644
2026-01-12 10:11:43.31	39.34	18.77	-33.1	-49.2	3.8	7.48e-01	0	42	104	252706816	27	22889
2026-01-12 10:11:44.32	39.06	18.75	-33.3	-49.8	3.8	7.49e-01	0	42	104	252706816	27	24289
2026-01-12 10:11:45.32	38.78	18.74	-33.3	-50.2	3.8	7.45e-01	0	42	104	252706816	27	24989
2026-01-12 10:11:46.33	38.50	18.72	-33.3	-49.8	3.8	7.42e-01	0	42	104	252706816	27	24172
2026-01-12 10:11:47.33	38.22	18.70	-33.4	-50.1	3.8	7.46e-01	0	42	104	252706816	27	24725
2026-01-12 10:11:48.34	37.94	18.69	-33.4	-50.2	3.8	7.44e-01	0	42	104	252706816	27	24929
2026-01-12 10:11:49.34	37.66	18.67	-33.4	-50.1	3.8	7.45e-01	0	42	104	252706816	27	24864
2026-01-12 10:11:50.35	37.38	18.65	-33.3	-50.0	3.8	7.45e-01	0	42	104	252706816	27	24514
2026-01-12 10:11:51.36	37.10	18.63	-33.3	-50.0	3.8	7.41e-01	0	42	104	252706816	27	24419
2026-01-12 10:11:52.37	36.82	18.61	-33.3	-50.0	3.8	7.46e-01	0	42	104	252706816	27	24488
2026-01-12 10:11:53.38	36.55	18.59	-33.3	-50.0	3.8	7.44e-01	0	42	104	252706816	27	24677
2026-01-12 10:11:54.39	36.27	18.56	-33.3	-49.7	3.8	7.45e-01	0	42	104	252706816	27	23803
2026-01-12 10:11:55.39	35.99	18.54	-33.2	-49.7	3.8	7.45e-01	0	42	104	252706816	27	23831
2026-01-12 10:11:56.40	35.71	18.52	-33.2	-49.5	3.8	7.46e-01	0	42	104	252706816	27	23475
2026-01-12 10:11:57.40	35.44	18.50	-33.0	-48.6	3.8	7.42e-01	0	42	104	252706816	27	21731
2026-01-12 10:11:58.40	35.17	18.47	-32.9	-48.2	3.8	7.47e-01	0	42	104	252706816	27	20981
2026-01-12 10:11:59.40	34.89	18.45	-32.7	-47.3	3.8	7.45e-01	0	42	104	252706816	27	19369
2026-01-12 10:12:00.41	34.62	18.42	-32.2	-46.0	3.8	7.44e-01	0	42	104	252706816	26	17529
2026-01-12 10:12:01.42	34.34	18.40	-32.0	-45.2	3.8	7.42e-01	0	42	104	252706816	26	16488
2026-01-12 10:12:02.43	34.07	18.37	-31.6	-44.4	3.8	7.47e-01	0	42	104	252706816	25	15773
2026-01-12 10:12:03.43	33.80	18.34	-31.6	-44.4	3.8	7.45e-01	0	42	104	252706816	25	15806
2026-01-12 10:12:04.44	33.53	18.31	-31.6	-44.4	3.8	7.45e-01	0	42	104	252706816	25	15792
2026-01-12 10:12:05.44	33.26	18.28	-31.6	-44.6	3.8	7.47e-01	0	42	104	252706816	25	16071
2026-01-12 10:12:06.45	32.98	18.26	-31.5	-44.4	3.8	7.45e-01	0	42	104	252706816	25	15738
2026-01-12 10:12:07.46	32.71	18.23	-31.7	-44.8	3.8	7.44e-01	0	42	104	252706816	25	16279
2026-01-12 10:12:08.47	32.44	18.20	-31.7	-44.8	3.8	7.45e-01	0	42	104	252706816	25	16312
2026-01-12 10:12:09.47	32.17	18.16	-31.5	-44.3	3.8	7.44e-01	0	42	104	252706816	25	15719
2026-01-12 10:12:10.48	31.90	18.13	-31.2	-43.9	3.8	7.42e-01	0	42	104	252706816	24	15486
2026-01-12 10:12:11.48	31.64	18.10	-30.9	-42.8	3.8	7.45e-01	0	42	104	252706816	24	14270
2026-01-12 10:12:12.49	31.37	18.07	-30.7	-42.9	3.8	7.47e-01	0	42	104	252706816	23	14723
2026-01-12 10:12:13.50	31.10	18.03	-30.6	-42.7	3.8	7.46e-01	0	42	104	252706816	23	14607
2026-01-12 10:12:14.50	30.84	18.00	-30.5	-42.4	3.8	7.44e-01	0	42	104	252706816	23	14258
2026-01-12 10:12:15.51	30.57	17.97	-30.5	-42.4	3.8	7.42e-01	0	42	104	252706816	23	14163
2026-01-12 10:12:16.51	30.31	17.93	-30.4	-42.3	3.8	7.46e-01	0	42	104	252706816	23	14043
2026-01-12 10:12:17.52	30.04	17.90	-31.2	-44.2	3.8	7.44e-01	0	42	104	252706816	23	16230
2026-01-12 10:12:18.53	29.78	17.86	-31.8	-45.8	3.8	7.43e-01	0	42	104	252706816	24	17886
2026-01-12 10:12:19.53	29.51	17.82	-31.8	-45.9	3.8	7.45e-01	0	42	104	252706816	24	18051
2026-01-12 10:12:20.54	29.25	17.79	-32.2	-46.4	3.8	7.47e-01	0	42	104	252706816	25	18499
2026-01-12 10:12:21.55	28.99	17.75	-32.4	-47.2	3.8	7.45e-01	0	42	104	252706816	25	19828
2026-01-12 10:12:22.55	28.73	17.71	-32.6	-47.5	3.8	7.44e-01	0	42	104	252706816	26	19955
2026-01-12 10:12:23.56	28.47	17.67	-32.8	-48.1	3.8	7.46e-01	0	42	104	252706816	26	21034
2026-01-12 10:12:24.57	28.21	17.63	-32.9	-48.7	3.8	7.44e-01	0	42	104	252706816	26	22130
2026-01-12 10:12:25.58	27.95	17.59	-33.1	-49.4	3.8	7.45e-01	0	42	104	252706816	26	23559
2026-01-12 10:12:26.58	27.69	17.55	-33.2	-49.6	3.8	7.46e-01	0	42	104	252706816	27	23729
2026-01-12 10:12:27.58	27.44	17.51	-33.3	-50.0	3.8	7.44e-01	0	42	104	252706816	27	24642
2026-01-12 10:12:28.59	27.18	17.47	-33.4	-50.5	3.8	7.48e-01	0	42	104	252706816	27	25699
2026-01-12 10:12:29.60	26.92	17.43	-33.2	-49.7	3.8	7.46e-01	0	42	104	252706816	27	24100
2026-01-12 10:12:30.61	26.67	17.39	-33.2	-49.3	3.8	7.43e-01	0	42	104	252706816	27	23066
2026-01-12 10:12:31.61	26.41	17.35	-33.0	-48.8	3.8	7.47e-01	0	42	104	252706816	27	22082
2026-01-12 10:12:32.62	26.16	17.30	-32.9	-48.3	3.8	7.41e-01	0	42	104	252706816	27	21107
2026-01-12 10:12:33.63	25.91	17.26	-32.8	-47.9	3.8	7.42e-01	0	42	104	252706816	27	20422
2026-01-12 10:12:34.64	25.65	17.21	-32.8	-48.0	3.8	7.45e-01	0	42	104	252706816	27	20612
2026-01-12 10:12:35.64	25.40	17.17	-33.1	-48.8	3.8	7.44e-01	0	42	104	252706816	27	22145
2026-01-12 10:12:36.65	25.15	17.13	-33.1	-49.1	3.8	7.45e-01	0	42	104	252706816	27	22626
2026-01-12 10:12:37.65	24.90	17.08	-33.2	-49.7	3.8	7.47e-01	0	42	104	252706816	27	23971
2026-01-12 10:12:38.66	24.65	17.03	-33.3	-50.0	3.8	7.44e-01	0	42	104	252706816	27	24620
2026-01-12 10:12:39.66	24.41	16.99	-33.3	-49.9	3.8	7.46e-01	0	42	104	252706816	27	24566
2026-01-12 10:12:40.67	24.16	16.94	-33.2	-49.9	3.8	7.44e-01	0	42	104	252706816	27	24431
2026-01-12 10:12:41.67	23.92	16.90	-33.2	-49.7	3.8	7.45e-01	0	42	104	252706816	27	24165
2026-01-12 10:12:42.68	23.67	16.85	-33.2	-49.7	3.8	7.45e-01	0	42	104	252706816	27	24030
2026-01-12 10:12:43.68	23.43	16.80	-33.2	-49.5	3.8	7.45e-01	0	42	104	252706816	27	23609
2026-01-12 10:12:44.69	23.18	16.75	-33.1	-49.5	3.8	7.44e-01	0	42	104	252706816	27	23624
2026-01-12 10:12:45.69	22.94	16.70	-33.1	-49.6	3.8	7.46e-01	0	42	104	252706816	27	23804
2026-01-12 10:12:46.70	22.70	16.65	-33.0	-49.0	3.8	7.45e-01	0	42	104	252706816	27	22637
2026-01-12 10:12:47.70	22.46	16.61	-32.8	-47.8	3.8	7.43e-01	0	42	104	252706816	27	20403
2026-01-12 10:12:48.70	22.22	16.56	-32.5	-46.7	3.8	7.43e-01	0	42	104	252706816	27	18447
2026-01-12 10:12:49.71	21.98	16.51	-32.2	-46.0	3.8	7.45e-01	0	42	104	252706816	26	17665
2026-01-12 10:12:50.71	21.74	16.46	-31.8	-45.5	3.8	7.45e-01	0	42	104	252706816	25	17323
2026-01-12 10:12:51.72	21.50	16.40	-31.4	-44.0	3.8	7.45e-01	0	42	104	252706816	25	15454
2026-01-12 10:12:52.72	21.27	16.35	-31.2	-44.1	3.8	7.44e-01	0	42	104	252706816	24	15805
2026-01-12 10:12:53.73	21.03	16.30	-31.2	-44.0	3.8	7.47e-01	0	42	104	252706816	24	15672
2026-01-12 10:12:54.74	20.79	16.25	-31.3	-44.1	3.8	7.43e-01	0	42	104	252706816	24	15759
2026-01-12 10:12:55.74	20.56	16.20	-31.4	-44.4	3.8	7.41e-01	0	42	104	252706816	24	16181
2026-01-12 10:12:56.74	20.33	16.15	-31.6	-45.1	3.8	7.43e-01	0	42	104	252706816	24	17034
2026-01-12 10:12:57.74	20.10	16.09	-31.6	-45.2	3.8	7.44e-01	0	42	104	252706816	24	17211
2026-01-12 10:12:58.75	19.87	16.04	-31.8	-45.8	3.8	7.45e-01	0	42	104	252706816	24	18022
2026-01-12 10:12:59.76	19.63	15.99	-31.6	-45.2	3.8	7.43e-01	0	42	104	252706816	24	17322
2026-01-12 10:13:00.76	19.41	15.93	-31.5	-44.8	3.8	7.42e-01	0	42	104	252706816	24	16782
2026-01-12 10:13:01.77	19.18	15.88	-31.1	-43.6	3.8	7.44e-01	0	42	104	252706816	24	15203
2026-01-12 10:13:02.77	18.95	15.82	-30.9	-43.1	3.8	7.45e-01	0	42	104	252706816	24	14726
2026-01-12 10:13:03.77	18.72	15.77	-30.8	-43.4	3.8	7.45e-01	0	42	104	252706816	23	15356
2026-01-12 10:13:04.78	18.50	15.71	-30.9	-43.6	3.8	7.48e-01	0	42	104	252706816	23	15521
2026-01-12 10:13:05.78	18.27	15.66	-31.0	-43.9	3.8	7.41e-01	0	42	104	252706816	23	15898
2026-01-12 10:13:06.79	18.05	15.60	-31.3	-44.9	3.8	7.44e-01	0	42	104	252706816	23	17189
2026-01-12 10:13:07.78	17.83	15.55	-32.1	-46.5	3.9	7.44e-01	0	42	104	252706816	25	18793
2026-01-12 10:13:08.79	17.60	15.49	-32.3	-47.2	3.9	7.43e-01	0	42	104	252706816	25	20018
2026-01-12 10:13:09.79	17.38	15.44	-33.0	-49.6	3.8	7.46e-01	0	42	104	252706816	26	24104
2026-01-12 10:13:10.80	17.16	15.38	-33.0	-49.1	3.8	7.46e-01	0	42	104	252706816	26	23215
2026-01-12 10:13:11.80	16.94	15.32	-33.3	-50.2	3.8	7.44e-01	0	42	104	252706816	27	25442
2026-01-12 10:13:12.80	16.73	15.27	-33.3	-50.5	3.8	7.45e-01	0	42	104	252706816	27	25958
2026-01-12 10:13:13.81	16.51	15.21	-33.2	-49.8	3.8	7.46e-01	0	42	104	252706816	27	24394
2026-01-12 10:13:14.81	16.29	15.15	-33.3	-50.3	3.8	7.42e-01	0	42	104	252706816	27	25588
2026-01-12 10:13:15.82	16.07	15.09	-33.2	-50.1	3.8	7.45e-01	0	42	104	252706816	27	25228
2026-01-12 10:13:16.82	15.86	15.03	-33.2	-49.8	3.8	7.49e-01	0	42	104	252706816	27	24457
2026-01-12 10:13:17.83	15.65	14.98	-33.1	-49.7	3.8	7.44e-01	0	42	104	252706816	27	24203
2026-01-12 10:13:18.83	15.43	14.92	-33.0	-49.3	3.8	7.42e-01	0	42	104	252706816	27	23448
2026-01-12 10:13:19.83	15.22	14.86	-32.9	-48.7	3.8	7.43e-01	0	42	104	252706816	27	22158
2026-01-12 10:13:20.83	15.01	14.80	-32.9	-48.4	3.8	7.43e-01	0	42	104	252706816	27	21650
2026-01-12 10:13:21.84	14.80	14.74	-32.7	-47.8	3.8	7.44e-01	0	42	104	252706816	27	20506
2026-01-12 10:13:22.85	14.59	14.68	-32.6	-47.3	3.8	7.43e-01	0	42	104	252706816	27	19596
2026-01-12 10:13:23.85	14.38	14.62	-32.5	-46.9	3.8	7.44e-01	0	42	104	252706816	27	19009
2026-01-12 10:13:24.86	14.17	14.56	-32.5	-47.1	3.8	7.41e-01	0	42	104	252706816	27	19237
2026-01-12 10:13:25.87	13.96	14.50	-32.7	-47.9	3.8	7.47e-01	0	42	104	252706816	27	20690
2026-01-12 10:13:26.87	13.76	14.44	-32.9	-48.8	3.8	7.44e-01	0	42	104	252706816	27	22296
2026-01-12 10:13:27.88	13.55	14.38	-33.0	-49.4	3.8	7.48e-01	0	42	104	252706816	27	23736
2026-01-12 10:13:28.89	13.35	14.32	-33.1	-49.9	3.8	7.47e-01	0	42	104	252706816	27	24889
2026-01-12 10:13:29.89	13.15	14.26	-33.1	-49.6	3.8	7.44e-01	0	42	104	252706816	27	24234
2026-01-12 10:13:30.90	12.94	14.20	-33.0	-49.4	3.8	7.43e-01	0	42	104	252706816	27	23867
2026-01-12 10:13:31.91	12.74	14.14	-33.0	-49.5	3.8	7.45e-01	0	42	104	252706816	27	23979
2026-01-12 10:13:32.91	12.54	14.08	-33.0	-49.2	3.8	7.46e-01	0	42	104	252706816	27	23290
2026-01-12 10:13:33.92	12.34	14.01	-33.0	-49.3	3.8	7.42e-01	0	42	104	252706816	27	23570
2026-01-12 10:13:34.93	12.14	13.95	-33.0	-49.2	3.8	7.48e-01	0	42	104	252706816	27	23374
2026-01-12 10:13:35.93	11.94	13.89	-33.0	-49.2	3.8	7.44e-01	0	42	104	252706816	27	23388
2026-01-12 10:13:36.93	11.75	13.83	-32.8	-48.4	3.8	7.44e-01	0	42	104	252706816	27	21603
2026-01-12 10:13:37.94	11.55	13.77	-32.6	-47.6	3.8	7.42e-01	0	42	104	252706816	27	20183
2026-01-12 10:13:38.95	11.35	13.70	-32.3	-46.9	3.8	7.44e-01	0	42	104	252706816	26	19230
2026-01-12 10:13:39.96	11.16	13.64	-32.0	-45.7	3.8	7.45e-01	0	42	104	252706816	26	17403
2026-01-12 10:13:40.97	10.96	13.58	-31.6	-44.8	3.8	7.44e-01	0	42	104	252706816	25	16539
2026-01-12 10:13:41.97	10.77	13.52	-31.2	-44.1	3.8	7.46e-01	0	42	104	252706816	24	15859
2026-01-12 10:13:42.98	10.58	13.45	-31.3	-44.5	3.8	7.45e-01	0	42	104	252706816	24	16505
2026-01-12 10:13:43.99	10.39	13.39	-31.4	-44.7	3.8	7.43e-01	0	42	104	252706816	24	16779
2026-01-12 10:13:44.99	10.20	13.33	-31.6	-45.4	3.8	7.47e-01	0	42	104	252706816	24	17602
2026-01-12 10:13:45.99	10.01	13.27	-31.8	-46.0	3.8	7.40e-01	0	42	104	252706816	24	18531
2026-01-12 10:13:47.01	9.82	13.20	-32.0	-46.8	3.8	7.46e-01	0	42	104	252706816	24	19791
2026-01-12 10:13:48.01	9.64	13.14	-32.2	-47.2	3.8	7.47e-01	0	42	104	252706816	25	20208
2026-01-12 10:13:49.01	9.45	13.08	-32.4	-47.9	3.8	7.42e-01	0	42	104	252706816	25	21415
2026-01-12 10:13:50.00	9.27	13.01	-32.3	-47.2	3.8	7.45e-01	0	42	104	252706816	25	20026
2026-01-12 10:13:51.01	9.08	12.95	-32.1	-46.6	3.8	7.47e-01	0	42	104	252706816	25	19050
2026-01-12 10:13:52.02	8.90	12.89	-31.9	-45.8	3.8	7.45e-01	0	42	104	252706816	25	17831
2026-01-12 10:13:53.02	8.71	12.82	-31.8	-45.5	3.8	7.47e-01	0	42	104	252706816	25	17379
2026-01-12 10:13:54.03	8.53	12.76	-31.7	-45.4	3.8	7.45e-01	0	42	104	252706816	25	17338
2026-01-12 10:13:55.04	8.35	12.69	-31.8	-45.5	3.8	7.43e-01	0	42	104	252706816	25	17529
2026-01-12 10:13:56.04	8.17	12.63	-32.1	-46.8	3.8	7.45e-01	0	42	104	252706816	25	19412
2026-01-12 10:13:57.04	7.99	12.57	-32.4	-47.8	3.8	7.45e-01	0	42	104	252706816	25	21207
2026-01-12 10:13:58.05	7.81	12.50	-32.7	-48.5	3.8	7.47e-01	0	42	104	252706816	26	22107
2026-01-12 10:13:59.05	7.64	12.44	-33.0	-49.8	3.8	7.44e-01	0	42	104	252706816	26	25007
2026-01-12 10:14:00.06	7.46	12.37	-32.8	-48.7	3.8	7.45e-01	0	42	104	252706816	26	22642
2026-01-12 10:14:01.07	7.28	12.31	-32.5	-47.7	3.8	7.44e-01	0	42	104	252706816	26	20652
2026-01-12 10:14:02.07	7.11	12.24	-32.6	-47.9	3.8	7.44e-01	0	42	104	252706816	26	21142
2026-01-12 10:14:03.08	6.93	12.18	-32.6	-48.2	3.8	7.46e-01	0	42	104	252706816	26	21559
2026-01-12 10:14:04.09	6.76	12.11	-32.7	-48.5	3.8	7.45e-01	0	42	104	252706816	26	22121
2026-01-12 10:14:05.09	6.59	12.05	-32.7	-48.8	3.8	7.45e-01	0	42	104	252706816	26	22759
2026-01-12 10:14:06.10	6.41	11.99	-32.8	-49.2	3.8	7.45e-01	0	42	104	252706816	26	23606
2026-01-12 10:14:07.11	6.24	11.92	-32.9	-49.4	3.8	7.43e-01	0	42	104	252706816	26	24247
2026-01-12 10:14:08.11	6.07	11.86	-32.8	-49.1	3.8	7.47e-01	0	42	104	252706816	26	23535
2026-01-12 10:14:09.12	5.90	11.79	-32.7	-48.7	3.8	7.45e-01	0	42	104	252706816	26	22699
2026-01-12 10:14:10.13	5.73	11.73	-32.6	-48.3	3.8	7.44e-01	0	42	104	252706816	26	21819
2026-01-12 10:14:11.14	5.56	11.66	-32.5	-47.8	3.8	7.46e-01	0	42	104	252706816	26	20980
2026-01-12 10:14:12.14	5.40	11.60	-32.4	-47.2	3.8	7.47e-01	0	42	104	252706816	26	19983
2026-01-12 10:14:13.15	5.23	11.53	-32.2	-46.5	3.8	7.46e-01	0	42	104	252706816	26	18762
2026-01-12 10:14:14.15	5.07	11.47	-32.1	-46.3	3.8	7.44e-01	0	42	104	252706816	26	18411
2026-01-12 10:14:15.16	4.90	11.40	-32.5	-47.6	3.8	7.46e-01	0	42	104	252706816	26	20490
2026-01-12 10:14:16.17	4.74	11.34	-32.7	-48.6	3.8	7.48e-01	0	42	104	252706816	26	22621
2026-01-12 10:14:17.17	4.57	11.27	-32.8	-49.3	3.8	7.45e-01	0	42	104	252706816	26	23938
2026-01-12 10:14:18.17	4.41	11.21	-33.0	-50.2	3.8	7.47e-01	0	42	104	252706816	26	26130
2026-01-12 10:14:19.18	4.25	11.14	-33.1	-50.5	3.8	7.48e-01	0	42	104	252706816	26	26900
2026-01-12 10:14:20.19	4.09	11.08	-33.0	-50.2	3.8	7.46e-01	0	42	104	252706816	26	26230
2026-01-12 10:14:21.20	3.93	11.01	-32.9	-50.0	3.8	7.47e-01	0	42	104	252706816	26	25616
2026-01-12 10:14:22.21	3.77	10.95	-32.9	-49.8	3.8	7.43e-01	0	42	104	252706816	26	25233
2026-01-12 10:14:23.21	3.61	10.88	-32.9	-49.9	3.8	7.43e-01	0	42	104	252706816	26	25512
2026-01-12 10:14:24.22	3.45	10.81	-32.9	-50.0	3.8	7.44e-01	0	42	104	252706816	26	25687
2026-01-12 10:14:25.22	3.30	10.75	-32.9	-50.1	3.8	7.46e-01	0	42	104	252706816	26	25994
2026-01-12 10:14:26.23	3.14	10.68	-32.9	-50.1	3.8	7.44e-01	0	42	104	252706816	26	25860
2026-01-12 10:14:27.23	2.99	10.62	-32.8	-49.4	3.8	7.42e-01	0	42	104	252706816	26	24379
2026-01-12 10:14:28.24	2.83	10.55	-32.6	-48.4	3.8	7.45e-01	0	42	104	252706816	26	22213
2026-01-12 10:14:29.25	2.68	10.49	-32.4	-47.7	3.8	7.44e-01	0	42	104	252706816	26	20939
2026-01-12 10:14:30.24	2.53	10.42	-32.2	-46.5	3.8	7.44e-01	0	42	104	252706816	26	18719
2026-01-12 10:14:31.25	2.37	10.36	-31.8	-45.9	3.8	7.42e-01	0	42	104	252706816	25	18205
2026-01-12 10:14:32.25	2.22	10.29	-31.6	-45.1	3.8	7.44e-01	0	42	104	252706816	25	16973
2026-01-12 10:14:33.26	2.07	10.23	-31.9	-46.0	3.8	7.43e-01	0	42	104	252706816	25	18381
2026-01-12 10:14:34.27	1.92	10.16	-32.0	-46.6	3.8	7.43e-01	0	42	104	252706816	25	19188
2026-01-12 10:14:35.27	1.77	10.10	-32.3	-47.7	3.8	7.48e-01	0	42	104	252706816	25	21158
2026-01-12 10:14:36.28	1.62	10.03	-32.4	-48.0	3.8	7.46e-01	0	42	104	252706816	25	21615
2026-01-12 10:14:37.28	1.48	9.97	-32.6	-48.8	3.8	7.48e-01	0	42	104	252706816	25	23426
2026-01-12 10:14:38.29	1.33	9.90	-32.7	-48.8	3.8	7.47e-01	0	42	104	252706816	26	22940
2026-01-12 10:14:39.30	1.18	9.84	-32.8	-49.2	3.8	7.45e-01	0	42	104	252706816	26	23785
2026-01-12 10:14:40.31	1.04	9.77	-32.7	-49.2	3.8	7.44e-01	0	42	104	252706816	26	23827
2026-01-12 10:14:41.32	0.89	9.71	-32.7	-48.8	3.8	7.45e-01	0	42	104	252706816	26	22922
2026-01-12 10:14:42.32	0.75	9.64	-32.8	-49.5	3.8	7.45e-01	0	42	104	252706816	26	24493
2026-01-12 10:14:43.33	0.60	9.58	-32.7	-48.8	3.8	7.44e-01	0	42	104	252706816	26	22858
2026-01-12 10:14:44.33	0.46	9.51	-32.6	-48.4	3.8	7.44e-01	0	42	104	252706816	26	22313
2026-01-12 10:14:45.34	0.32	9.45	-32.7	-48.6	3.8	7.49e-01	0	42	104	252706816	26	22547
2026-01-12 10:14:46.35	0.18	9.38	-33.0	-50.4	3.8	7.46e-01	0	42	104	252706816	26	26686
2026-01-12 10:14:47.36	0.04	9.32	-32.9	-50.2	3.8	7.45e-01	0	42	104	252706816	26	26178
2026-01-12 10:14:48.36	359.90	9.25	-32.7	-48.9	3.8	7.46e-01	0	42	104	252706816	26	23260
2026-01-12 10:14:49.37	359.76	9.19	-32.5	-48.4	3.8	7.44e-01	0	42	104	252706816	26	22503
2026-01-12 10:14:50.38	359.62	9.12	-32.3	-46.9	3.8	7.43e-01	0	42	104	252706816	26	19435
2026-01-12 10:14:51.39	359.48	9.06	-32.2	-46.9	3.8	7.45e-01	0	42	104	252706816	26	19716
2026-01-12 10:14:52.39	359.34	8.99	-32.2	-46.9	3.8	7.41e-01	0	42	104	252706816	26	19404
2026-01-12 10:14:53.40	359.21	8.93	-32.3	-47.3	3.8	7.44e-01	0	42	104	252706816	26	20084
2026-01-12 10:14:54.40	359.07	8.87	-32.5	-48.1	3.8	7.48e-01	0	42	104	252706816	26	21868
2026-01-12 10:14:55.41	358.93	8.80	-32.5	-48.0	3.8	7.45e-01	0	42	104	252706816	26	21441
2026-01-12 10:14:56.42	358.80	8.74	-32.8	-49.6	3.8	7.46e-01	0	42	104	252706816	26	25131
2026-01-12 10:14:57.41	358.67	8.67	-32.7	-49.1	3.8	7.45e-01	0	42	104	252706816	26	23883
2026-01-12 10:14:58.42	358.53	8.61	-32.6	-48.9	3.8	7.44e-01	0	42	104	252706816	26	23402
2026-01-12 10:14:59.42	358.40	8.54	-32.5	-48.5	3.8	7.44e-01	0	42	104	252706816	26	22663
2026-01-12 10:15:00.41	358.27	8.48	-32.4	-47.5	3.8	7.47e-01	0	42	104	252706816	26	20472
2026-01-12 10:15:01.41	358.14	8.42	-32.3	-47.9	3.8	7.45e-01	0	42	104	252706816	26	21528
2026-01-12 10:15:02.42	358.01	8.35	-32.3	-47.0	3.8	7.44e-01	0	42	104	252706816	26	19573
2026-01-12 10:15:03.43	357.88	8.29	-32.1	-46.7	3.8	7.46e-01	0	42	104	252706816	26	19226
2026-01-12 10:15:04.43	357.75	8.22	-32.1	-46.8	3.8	7.42e-01	0	42	104	252706816	26	19447
2026-01-12 10:15:05.44	357.62	8.16	-32.3	-47.2	3.8	7.44e-01	0	42	104	252706816	26	20032
2026-01-12 10:15:06.45	357.49	8.09	-32.6	-49.0	3.8	7.46e-01	0	42	104	252706816	26	23905
2026-01-12 10:15:07.45	357.37	8.03	-32.7	-49.4	3.8	7.46e-01	0	42	104	252706816	26	24628
2026-01-12 10:15:08.46	357.24	7.97	-32.8	-50.2	3.8	7.46e-01	0	42	104	252706816	26	26753
2026-01-12 10:15:09.47	357.11	7.90	-32.8	-50.4	3.8	7.46e-01	0	42	104	252706816	26	27290
2026-01-12 10:15:10.48	356.99	7.84	-32.7	-49.7	3.8	7.43e-01	0	42	104	252706816	26	25308
2026-01-12 10:15:11.48	356.86	7.78	-32.8	-50.1	3.8	7.47e-01	0	42	104	252706816	26	26538
2026-01-12 10:15:12.49	356.74	7.71	-32.8	-50.0	3.8	7.46e-01	0	42	104	252706816	26	26165
2026-01-12 10:15:13.50	356.61	7.65	-32.8	-50.1	3.8	7.44e-01	0	42	104	252706816	26	26371
2026-01-12 10:15:14.50	356.49	7.58	-32.8	-50.4	3.8	7.47e-01	0	42	104	252706816	26	27287
2026-01-12 10:15:15.50	356.37	7.52	-32.8	-50.2	3.8	7.43e-01	0	42	104	252706816	26	26634
2026-01-12 10:15:16.51	356.25	7.46	-32.7	-50.0	3.8	7.43e-01	0	42	104	252706816	26	26302
2026-01-12 10:15:17.52	356.12	7.39	-32.7	-49.8	3.8	7.45e-01	0	42	104	252706816	26	25793
2026-01-12 10:15:18.52	356.00	7.33	-32.6	-48.8	3.8	7.46e-01	0	42	104	252706816	26	23297
2026-01-12 10:15:19.53	355.88	7.27	-32.5	-48.9	3.8	7.49e-01	0	42	104	252706816	26	23850
2026-01-12 10:15:20.54	355.76	7.20	-32.3	-47.9	3.8	7.41e-01	0	42	104	252706816	26	21743
2026-01-12 10:15:21.55	355.64	7.14	-32.3	-47.4	3.8	7.47e-01	0	42	104	252706816	26	20471
2026-01-12 10:15:22.55	355.53	7.08	-33.3	-52.5	3.8	7.44e-01	0	42	104	252706816	27	32798
2026-01-12 10:15:23.56	355.41	7.01	-33.6	-53.2	3.8	7.47e-01	0	42	104	252706816	27	34343

#Closed at: 2026-01-12 10:15:24
#Recorded file [252 MB]: D:/data/31010_260112_130736.dat