passes_logs/2026/01/12/R2M6_AANII_01/R2M6_AANII_01__20260112_023233_NOAA_20_JPSS-1_rec.log

#Pass ID: 20260112_023233_NOAA 20 (JPSS-1)
#Satellite: NOAA 20 (JPSS-1)
#Configuration: NOAA 20
#almurnet v.1.7.20240730
#Start time: 2026-01-12 02:32:33

#Version: 2.2.20231116
#Station: R2M6_AANII_01
#Location: 30.233357 lon 59.946436 lat
#TLE: 1 43013U 17073A   26011.31235446  .00000090  00000+0  63634-4 0  9991
#TLE: 2 43013  98.7632 312.2907 0001646  44.6084 315.5224 14.19535308422217

#Time	Az	El	Level	Level2	SNR	BER	BlckErr	Temp	State	Recorded	gain1	gain2
2026-01-12 02:32:33.06	9.52	7.00	-32.3	-41.7	4.0	1.46e+00	0	39	0	0	26	10542
2026-01-12 02:32:34.06	9.42	7.06	-32.1	-40.3	4.3	1.38e+00	0	39	104	0	25	9226
2026-01-12 02:32:35.07	9.32	7.12	-32.1	-40.3	5.3	5.40e-01	0	39	0	0	25	9207
2026-01-12 02:32:36.07	9.21	7.18	-32.1	-39.9	5.5	5.31e-01	0	39	0	1048576	25	8894
2026-01-12 02:32:37.08	9.11	7.24	-32.1	-40.1	5.4	5.26e-01	0	39	0	3145728	25	9044
2026-01-12 02:32:38.08	9.01	7.30	-32.1	-39.8	5.6	5.22e-01	0	39	0	5242880	25	8801
2026-01-12 02:32:39.09	8.90	7.36	-32.1	-40.2	5.4	4.53e-01	0	39	0	7340032	25	9082
2026-01-12 02:32:40.10	8.80	7.43	-32.1	-40.0	5.5	4.84e-01	0	39	0	9437184	25	8893
2026-01-12 02:32:41.10	8.69	7.49	-31.9	-38.8	6.2	3.45e-01	0	39	0	10485760	25	7972
2026-01-12 02:32:42.11	8.59	7.55	-31.7	-38.1	7.2	1.82e-01	0	39	0	12582912	24	7457
2026-01-12 02:32:43.11	8.48	7.61	-31.5	-37.1	8.0	7.51e-02	0	39	0	14680064	24	6841
2026-01-12 02:32:44.12	8.38	7.67	-31.4	-36.4	8.5	5.39e-02	0	40	0	16777216	24	6434
2026-01-12 02:32:45.13	8.27	7.73	-31.2	-36.0	9.2	3.29e-02	0	39	0	18874368	23	6281
2026-01-12 02:32:46.14	8.16	7.79	-31.2	-35.9	9.3	1.91e-02	0	39	0	19922944	23	6221
2026-01-12 02:32:47.15	8.05	7.85	-31.1	-35.5	9.7	1.36e-02	0	40	0	22020096	23	6010
2026-01-12 02:32:48.16	7.94	7.91	-31.0	-35.2	9.9	1.00e-02	0	40	0	24117248	23	5857
2026-01-12 02:32:49.17	7.84	7.97	-31.0	-35.2	9.9	9.15e-03	0	40	0	26214400	23	5872
2026-01-12 02:32:50.17	7.73	8.03	-31.0	-35.4	9.8	9.82e-03	0	40	0	28311552	23	5951
2026-01-12 02:32:51.17	7.62	8.09	-31.0	-35.2	9.9	9.53e-03	0	40	0	29360128	23	5860
2026-01-12 02:32:52.18	7.51	8.16	-31.0	-35.3	9.9	8.45e-03	0	40	0	31457280	23	5886
2026-01-12 02:32:53.18	7.40	8.22	-31.0	-35.4	9.8	8.77e-03	0	40	0	33554432	23	5954
2026-01-12 02:32:54.19	7.29	8.28	-31.1	-35.5	9.7	1.17e-02	0	40	0	35651584	23	5989
2026-01-12 02:32:55.19	7.18	8.34	-31.0	-35.2	10.0	8.74e-03	0	40	0	37748736	23	5824
2026-01-12 02:32:56.20	7.06	8.40	-31.0	-35.2	10.0	7.93e-03	0	40	0	38797312	23	5847
2026-01-12 02:32:57.21	6.95	8.46	-31.0	-35.2	10.1	8.32e-03	0	40	0	40894464	23	5810
2026-01-12 02:32:58.22	6.84	8.52	-31.0	-35.3	9.9	9.39e-03	0	40	0	42991616	23	5899
2026-01-12 02:32:59.22	6.72	8.59	-31.2	-36.0	9.4	1.62e-02	0	40	0	45088768	23	6253
2026-01-12 02:33:00.23	6.61	8.65	-31.2	-35.7	9.7	1.40e-02	0	40	0	47185920	23	6080
2026-01-12 02:33:01.24	6.49	8.71	-31.2	-36.1	9.4	1.40e-02	0	40	0	48234496	23	6282
2026-01-12 02:33:02.24	6.38	8.77	-31.3	-36.2	9.2	2.23e-02	0	40	0	50331648	23	6345
2026-01-12 02:33:03.24	6.26	8.83	-31.2	-35.7	9.6	1.57e-02	0	40	0	52428800	23	6095
2026-01-12 02:33:04.25	6.15	8.89	-31.0	-35.3	10.0	9.80e-03	0	40	0	54525952	23	5869
2026-01-12 02:33:05.26	6.03	8.96	-30.9	-34.8	10.4	6.37e-03	0	40	0	56623104	23	5624
2026-01-12 02:33:06.27	5.91	9.02	-30.9	-34.7	10.5	3.93e-03	0	40	0	57671680	23	5585
2026-01-12 02:33:07.27	5.80	9.08	-30.9	-34.8	10.4	4.58e-03	0	40	0	59768832	23	5617
2026-01-12 02:33:08.28	5.68	9.14	-30.9	-34.8	10.4	4.04e-03	0	40	0	61865984	23	5617
2026-01-12 02:33:09.29	5.56	9.20	-30.8	-34.3	10.7	2.97e-03	0	40	0	63963136	23	5425
2026-01-12 02:33:10.29	5.44	9.26	-30.8	-34.4	10.7	3.17e-03	0	40	0	66060288	23	5445
2026-01-12 02:33:11.30	5.32	9.33	-30.8	-34.5	10.6	3.13e-03	0	40	0	67108864	23	5509
2026-01-12 02:33:12.30	5.20	9.39	-30.9	-34.7	10.5	3.69e-03	0	40	0	69206016	23	5596
2026-01-12 02:33:13.31	5.08	9.45	-31.0	-35.0	10.3	5.97e-03	0	40	0	71303168	23	5714
2026-01-12 02:33:14.32	4.96	9.51	-30.9	-34.9	10.4	4.45e-03	0	40	0	73400320	23	5658
2026-01-12 02:33:15.32	4.84	9.57	-31.0	-34.9	10.3	5.20e-03	0	40	0	75497472	23	5683
2026-01-12 02:33:16.33	4.71	9.64	-31.0	-34.9	10.4	4.57e-03	0	40	0	76546048	23	5676
2026-01-12 02:33:17.34	4.59	9.70	-31.0	-35.1	10.2	5.15e-03	0	40	0	78643200	23	5761
2026-01-12 02:33:18.34	4.47	9.76	-31.1	-35.3	10.1	6.44e-03	0	40	0	80740352	23	5834
2026-01-12 02:33:19.34	4.35	9.82	-31.0	-34.9	10.4	5.63e-03	0	40	0	82837504	23	5671
2026-01-12 02:33:20.34	4.22	9.88	-31.0	-35.0	10.4	4.00e-03	0	40	0	84934656	23	5689
2026-01-12 02:33:21.35	4.10	9.95	-31.0	-35.1	10.3	5.36e-03	0	40	0	85983232	23	5761
2026-01-12 02:33:22.35	3.97	10.01	-31.0	-34.8	10.5	5.39e-03	0	40	0	88080384	23	5622
2026-01-12 02:33:23.36	3.85	10.07	-30.8	-34.4	10.8	2.66e-03	0	40	0	90177536	23	5414
2026-01-12 02:33:24.36	3.72	10.13	-30.8	-34.3	10.9	2.33e-03	0	40	0	92274688	23	5379
2026-01-12 02:33:25.38	3.59	10.20	-30.8	-34.4	10.8	2.23e-03	0	40	0	94371840	23	5409
2026-01-12 02:33:26.38	3.46	10.26	-30.8	-34.3	10.9	2.21e-03	0	40	0	95420416	23	5370
2026-01-12 02:33:27.38	3.34	10.32	-30.8	-34.4	10.8	2.33e-03	0	40	0	97517568	23	5441
2026-01-12 02:33:28.39	3.21	10.38	-30.8	-34.7	11.0	2.26e-03	0	41	0	99614720	22	5644
2026-01-12 02:33:29.39	3.08	10.44	-30.7	-34.3	11.3	1.31e-03	0	41	0	101711872	22	5479
2026-01-12 02:33:30.40	2.95	10.51	-30.7	-34.4	11.2	1.40e-03	0	40	0	102760448	22	5509
2026-01-12 02:33:31.41	2.82	10.57	-30.6	-34.3	11.3	1.13e-03	0	41	0	104857600	22	5476
2026-01-12 02:33:32.42	2.68	10.63	-30.7	-34.4	11.2	1.24e-03	0	40	0	106954752	22	5516
2026-01-12 02:33:33.42	2.55	10.69	-30.7	-34.4	11.2	1.45e-03	0	41	0	109051904	22	5519
2026-01-12 02:33:34.42	2.42	10.76	-30.6	-34.2	11.4	9.83e-04	0	40	0	111149056	22	5415
2026-01-12 02:33:35.43	2.29	10.82	-30.5	-33.9	11.6	8.62e-04	0	41	0	113246208	22	5290
2026-01-12 02:33:36.44	2.16	10.88	-30.5	-33.7	11.7	5.82e-04	0	41	0	114294784	22	5237
2026-01-12 02:33:37.44	2.02	10.94	-30.5	-33.8	11.7	5.34e-04	0	41	0	116391936	22	5269
2026-01-12 02:33:38.45	1.89	11.01	-30.5	-33.9	11.6	6.93e-04	0	40	0	118489088	22	5304
2026-01-12 02:33:39.46	1.75	11.07	-30.5	-33.8	11.6	6.25e-04	0	41	0	120586240	22	5275
2026-01-12 02:33:40.47	1.61	11.13	-30.6	-34.0	11.6	6.91e-04	0	41	0	122683392	22	5324
2026-01-12 02:33:41.48	1.48	11.19	-30.6	-34.1	11.5	7.99e-04	0	41	0	123731968	22	5363
2026-01-12 02:33:42.49	1.34	11.26	-30.7	-34.2	11.4	9.89e-04	0	41	0	125829120	22	5441
2026-01-12 02:33:43.49	1.20	11.32	-30.6	-34.1	11.5	7.50e-04	0	40	0	127926272	22	5386
2026-01-12 02:33:44.50	1.06	11.38	-30.6	-34.2	11.4	1.07e-03	0	41	0	130023424	22	5435
2026-01-12 02:33:45.50	0.93	11.44	-30.5	-33.8	11.7	8.15e-04	0	41	0	131072000	22	5248
2026-01-12 02:33:46.50	0.79	11.51	-30.5	-33.7	11.8	5.05e-04	0	41	0	133169152	22	5224
2026-01-12 02:33:47.50	0.65	11.57	-30.5	-33.8	11.7	5.85e-04	0	41	0	135266304	22	5240
2026-01-12 02:33:48.51	0.51	11.63	-30.5	-33.7	11.8	5.43e-04	0	41	0	137363456	22	5221
2026-01-12 02:33:49.51	0.37	11.69	-30.4	-33.4	12.0	3.33e-04	0	41	0	139460608	22	5091
2026-01-12 02:33:50.51	0.23	11.75	-30.4	-33.5	11.9	3.75e-04	0	41	0	141557760	22	5138
2026-01-12 02:33:51.51	0.08	11.82	-30.4	-33.5	12.0	3.36e-04	0	41	0	142606336	22	5123
2026-01-12 02:33:52.52	359.94	11.88	-30.5	-33.7	11.8	4.15e-04	0	41	0	144703488	22	5230
2026-01-12 02:33:53.52	359.80	11.94	-30.5	-33.6	11.9	3.93e-04	0	41	0	146800640	22	5176
2026-01-12 02:33:54.53	359.65	12.00	-30.5	-33.8	11.8	4.71e-04	0	41	0	148897792	22	5247
2026-01-12 02:33:55.54	359.51	12.07	-30.4	-33.5	12.0	5.19e-04	0	41	0	149946368	22	5115
2026-01-12 02:33:56.54	359.36	12.13	-30.4	-33.4	12.1	3.30e-04	0	41	0	152043520	22	5098
2026-01-12 02:33:57.55	359.22	12.19	-30.5	-33.6	12.0	2.86e-04	0	41	0	154140672	22	5142
2026-01-12 02:33:58.55	359.07	12.25	-30.5	-33.6	11.9	3.68e-04	0	41	0	156237824	22	5158
2026-01-12 02:33:59.56	358.92	12.31	-30.4	-33.5	12.0	2.45e-04	0	41	0	158334976	22	5114
2026-01-12 02:34:00.56	358.78	12.38	-30.5	-33.7	11.9	3.86e-04	0	41	0	159383552	22	5181
2026-01-12 02:34:01.56	358.63	12.44	-30.6	-33.9	11.8	3.94e-04	0	41	0	161480704	22	5272
2026-01-12 02:34:02.57	358.48	12.50	-30.5	-33.8	11.8	5.11e-04	0	41	0	163577856	22	5252
2026-01-12 02:34:03.58	358.33	12.56	-30.4	-33.4	12.1	3.05e-04	0	41	0	165675008	22	5082
2026-01-12 02:34:04.59	358.18	12.62	-30.4	-33.5	12.0	3.22e-04	0	41	0	167772160	22	5134
2026-01-12 02:34:05.60	358.02	12.69	-30.5	-33.8	11.8	3.03e-04	0	41	0	168820736	22	5245
2026-01-12 02:34:06.60	357.87	12.75	-30.6	-33.9	11.7	4.84e-04	0	41	0	170917888	22	5282
2026-01-12 02:34:07.60	357.72	12.81	-30.5	-33.8	11.9	4.37e-04	0	41	0	173015040	22	5234
2026-01-12 02:34:08.61	357.57	12.87	-30.6	-33.9	11.7	5.13e-04	0	41	0	175112192	22	5286
2026-01-12 02:34:09.62	357.41	12.93	-30.6	-34.1	11.6	5.88e-04	0	41	0	177209344	22	5357
2026-01-12 02:34:10.62	357.26	13.00	-30.7	-34.1	11.6	6.40e-04	0	41	0	178257920	22	5379
2026-01-12 02:34:11.63	357.10	13.06	-30.7	-34.4	11.4	9.18e-04	0	41	0	180355072	22	5479
2026-01-12 02:34:12.63	356.95	13.12	-30.6	-34.0	11.7	5.92e-04	0	41	0	182452224	22	5308
2026-01-12 02:34:13.64	356.79	13.18	-30.6	-33.9	11.7	5.17e-04	0	41	0	184549376	22	5291
2026-01-12 02:34:14.64	356.63	13.24	-30.6	-33.8	11.8	5.08e-04	0	41	0	186646528	22	5247
2026-01-12 02:34:15.65	356.48	13.30	-30.6	-33.8	11.9	4.71e-04	0	41	0	187695104	22	5230
2026-01-12 02:34:16.66	356.32	13.36	-30.6	-34.0	11.7	5.32e-04	0	41	0	189792256	22	5306
2026-01-12 02:34:17.67	356.16	13.43	-30.7	-34.2	11.6	7.42e-04	0	41	0	191889408	22	5375
2026-01-12 02:34:18.68	356.00	13.49	-30.7	-34.1	11.7	5.79e-04	0	41	0	193986560	22	5369
2026-01-12 02:34:19.68	355.84	13.55	-30.8	-34.5	11.4	7.94e-04	0	41	0	196083712	22	5515
2026-01-12 02:34:20.69	355.67	13.61	-30.8	-34.6	11.3	1.18e-03	0	41	0	197132288	22	5570
2026-01-12 02:34:21.69	355.51	13.67	-30.8	-34.6	11.3	1.05e-03	0	41	0	199229440	22	5579
2026-01-12 02:34:22.69	355.35	13.73	-30.8	-34.5	11.3	1.13e-03	0	41	0	201326592	22	5538
2026-01-12 02:34:23.70	355.19	13.79	-30.9	-35.0	11.0	1.49e-03	0	41	0	203423744	22	5758
2026-01-12 02:34:24.71	355.02	13.85	-30.9	-34.9	11.1	2.07e-03	0	41	0	205520896	22	5693
2026-01-12 02:34:25.72	354.86	13.91	-30.8	-34.7	11.2	1.33e-03	0	41	0	206569472	22	5613
2026-01-12 02:34:26.72	354.69	13.97	-30.9	-34.8	11.2	1.26e-03	0	41	0	208666624	22	5642
2026-01-12 02:34:27.72	354.53	14.03	-30.9	-34.8	11.2	1.15e-03	0	41	0	210763776	22	5649
2026-01-12 02:34:28.73	354.36	14.10	-30.9	-34.9	11.1	1.49e-03	0	41	0	212860928	22	5711
2026-01-12 02:34:29.74	354.19	14.16	-30.9	-35.0	11.1	1.71e-03	0	41	0	214958080	22	5741
2026-01-12 02:34:30.74	354.03	14.22	-30.9	-35.0	11.0	1.81e-03	0	41	0	216006656	22	5748
2026-01-12 02:34:31.74	353.86	14.28	-31.0	-35.1	11.0	1.79e-03	0	41	0	218103808	22	5786
2026-01-12 02:34:32.75	353.69	14.34	-31.1	-35.5	10.7	2.28e-03	0	41	0	220200960	22	5975
2026-01-12 02:34:33.75	353.52	14.40	-31.1	-35.4	10.8	3.93e-03	0	41	0	222298112	22	5936
2026-01-12 02:34:34.76	353.35	14.46	-31.0	-35.2	10.9	1.77e-03	0	41	0	224395264	22	5836
2026-01-12 02:34:35.76	353.18	14.51	-31.1	-35.6	10.7	2.54e-03	0	41	0	225443840	22	6004
2026-01-12 02:34:36.77	353.00	14.57	-31.1	-35.4	10.8	3.12e-03	0	41	0	227540992	22	5941
2026-01-12 02:34:37.77	352.83	14.63	-31.1	-35.6	10.6	2.87e-03	0	41	0	229638144	22	6045
2026-01-12 02:34:38.78	352.66	14.69	-31.1	-35.6	10.7	3.64e-03	0	41	0	231735296	22	6011
2026-01-12 02:34:39.79	352.48	14.75	-31.0	-35.3	11.0	2.25e-03	0	41	0	233832448	22	5857
2026-01-12 02:34:40.79	352.31	14.81	-31.1	-35.6	10.7	2.40e-03	0	41	0	234881024	22	6014
2026-01-12 02:34:41.80	352.13	14.87	-31.1	-35.3	10.9	2.49e-03	0	41	0	236978176	22	5872
2026-01-12 02:34:42.81	351.95	14.93	-30.9	-34.7	11.3	1.29e-03	0	41	0	239075328	22	5613
2026-01-12 02:34:43.81	351.78	14.99	-30.9	-34.8	11.3	1.45e-03	0	41	0	241172480	22	5622
2026-01-12 02:34:44.82	351.60	15.05	-30.9	-34.7	11.4	9.06e-04	0	41	0	243269632	22	5609
2026-01-12 02:34:45.83	351.42	15.11	-31.0	-35.1	11.1	1.36e-03	0	41	0	244318208	22	5785
2026-01-12 02:34:46.83	351.24	15.16	-30.8	-34.6	11.5	1.18e-03	0	41	0	246415360	22	5532
2026-01-12 02:34:47.84	351.06	15.22	-30.6	-33.9	11.9	7.35e-04	0	41	0	248512512	22	5256
2026-01-12 02:34:48.85	350.88	15.28	-30.6	-33.8	12.0	3.55e-04	0	41	0	250609664	22	5216
2026-01-12 02:34:49.85	350.70	15.34	-30.6	-33.7	12.1	2.69e-04	0	41	0	252706816	22	5170
2026-01-12 02:34:50.86	350.51	15.40	-30.5	-33.6	12.1	2.06e-04	0	41	0	253755392	22	5151
2026-01-12 02:34:51.86	350.33	15.45	-30.5	-33.6	12.2	1.71e-04	0	41	0	255852544	22	5111
2026-01-12 02:34:52.87	350.15	15.51	-30.5	-33.7	12.1	2.75e-04	0	41	0	257949696	22	5170
2026-01-12 02:34:53.88	349.96	15.57	-30.5	-33.5	12.3	2.60e-04	0	41	0	260046848	22	5089
2026-01-12 02:34:54.88	349.78	15.62	-30.4	-33.3	12.4	1.14e-04	0	41	0	262144000	22	5006
2026-01-12 02:34:55.89	349.59	15.68	-30.4	-33.3	12.4	1.13e-04	0	41	0	263192576	22	5004
2026-01-12 02:34:56.90	349.40	15.74	-30.4	-33.2	12.5	1.14e-04	0	41	0	265289728	22	4958
2026-01-12 02:34:57.90	349.22	15.79	-30.4	-33.2	12.4	1.43e-04	0	41	0	267386880	22	4993
2026-01-12 02:34:58.90	349.03	15.85	-30.4	-33.3	12.5	1.35e-04	0	41	0	269484032	22	4997
2026-01-12 02:34:59.91	348.84	15.91	-30.3	-33.0	12.6	1.06e-04	0	41	0	271581184	22	4902
2026-01-12 02:35:00.91	348.65	15.96	-30.4	-33.2	12.5	1.25e-04	0	41	0	272629760	22	4989
2026-01-12 02:35:01.92	348.46	16.02	-30.1	-32.9	13.0	1.19e-04	0	41	0	274726912	21	4952
2026-01-12 02:35:02.92	348.27	16.07	-29.9	-32.4	13.3	2.13e-05	0	41	0	276824064	21	4798
2026-01-12 02:35:03.92	348.08	16.13	-29.9	-32.2	13.4	1.60e-05	0	41	0	278921216	21	4718
2026-01-12 02:35:04.93	347.89	16.18	-29.8	-32.1	13.5	7.60e-06	0	41	0	281018368	21	4697
2026-01-12 02:35:05.94	347.69	16.24	-29.8	-32.1	13.5	9.10e-06	0	41	0	282066944	21	4676
2026-01-12 02:35:06.95	347.50	16.29	-30.0	-32.5	13.3	1.22e-05	0	41	0	284164096	21	4822
2026-01-12 02:35:07.96	347.30	16.35	-29.8	-32.5	13.6	1.75e-05	0	41	0	286261248	20	4914
2026-01-12 02:35:08.96	347.11	16.40	-29.6	-32.0	13.9	5.30e-06	0	41	0	288358400	20	4761
2026-01-12 02:35:09.97	346.91	16.46	-29.7	-32.2	13.8	6.80e-06	0	41	0	290455552	20	4811
2026-01-12 02:35:10.97	346.72	16.51	-29.5	-31.8	14.0	1.50e-06	0	41	0	291504128	20	4677
2026-01-12 02:35:11.98	346.52	16.57	-29.5	-31.8	14.1	7.00e-07	0	41	0	293601280	20	4668
2026-01-12 02:35:12.98	346.32	16.62	-29.5	-31.8	14.0	2.20e-06	0	41	0	295698432	20	4669
2026-01-12 02:35:13.99	346.12	16.67	-29.5	-31.8	14.1	1.50e-06	0	41	0	297795584	20	4686
2026-01-12 02:35:15.00	345.92	16.72	-29.7	-32.2	13.8	1.50e-06	0	41	0	299892736	20	4829
2026-01-12 02:35:16.01	345.72	16.78	-29.6	-32.0	14.0	2.20e-06	0	41	0	300941312	20	4726
2026-01-12 02:35:17.01	345.52	16.83	-29.5	-31.7	14.1	2.20e-06	0	41	0	303038464	20	4630
2026-01-12 02:35:18.02	345.32	16.88	-29.4	-31.5	14.2	1.50e-06	0	41	0	305135616	20	4574
2026-01-12 02:35:19.02	345.12	16.93	-29.5	-31.8	14.1	3.00e-06	0	41	0	307232768	20	4673
2026-01-12 02:35:20.03	344.91	16.99	-29.5	-31.7	14.1	1.50e-06	0	42	0	309329920	20	4645
2026-01-12 02:35:21.04	344.71	17.04	-29.6	-31.9	14.0	1.50e-06	0	41	0	310378496	20	4715
2026-01-12 02:35:22.04	344.51	17.09	-29.5	-31.7	14.1	7.00e-07	0	42	0	312475648	20	4646
2026-01-12 02:35:23.05	344.30	17.14	-29.5	-31.7	14.1	1.50e-06	0	41	0	314572800	20	4643
2026-01-12 02:35:24.06	344.09	17.19	-29.7	-32.1	13.9	2.20e-06	0	41	0	316669952	20	4781
2026-01-12 02:35:25.06	343.89	17.24	-29.5	-31.8	14.1	3.00e-06	0	41	0	318767104	20	4664
2026-01-12 02:35:26.07	343.68	17.29	-29.4	-31.6	14.2	7.00e-07	0	41	0	319815680	20	4594
2026-01-12 02:35:27.07	343.47	17.34	-29.4	-31.6	14.2	2.20e-06	0	41	0	321912832	20	4600
2026-01-12 02:35:28.08	343.26	17.39	-29.4	-31.6	14.2	1.50e-06	0	41	0	324009984	20	4602
2026-01-12 02:35:29.09	343.05	17.44	-29.6	-31.9	14.0	2.20e-06	0	42	0	326107136	20	4691
2026-01-12 02:35:30.09	342.84	17.49	-29.6	-31.9	14.1	7.00e-07	0	41	0	328204288	20	4697
2026-01-12 02:35:31.10	342.63	17.54	-29.7	-32.2	13.8	3.80e-06	0	41	0	329252864	20	4812
2026-01-12 02:35:32.10	342.42	17.58	-29.7	-32.3	13.8	6.80e-06	0	41	0	331350016	20	4839
2026-01-12 02:35:33.10	342.21	17.63	-29.7	-32.4	13.7	9.90e-06	0	42	0	333447168	20	4877
2026-01-12 02:35:34.11	342.00	17.68	-29.7	-32.4	13.7	6.10e-06	0	41	0	335544320	20	4867
2026-01-12 02:35:35.11	341.79	17.73	-29.8	-32.4	13.7	1.50e-06	0	42	0	337641472	20	4891
2026-01-12 02:35:36.12	341.57	17.77	-29.9	-32.7	13.5	1.22e-05	0	41	0	338690048	20	4974
2026-01-12 02:35:37.13	341.36	17.82	-29.8	-32.5	13.6	9.90e-06	0	41	0	340787200	20	4907
2026-01-12 02:35:38.14	341.14	17.87	-30.0	-33.0	13.4	7.60e-06	0	41	0	342884352	20	5091
2026-01-12 02:35:39.14	340.92	17.91	-29.8	-32.6	13.6	1.06e-05	0	41	0	344981504	20	4951
2026-01-12 02:35:40.14	340.71	17.96	-29.8	-32.5	13.7	7.60e-06	0	41	0	346030080	20	4912
2026-01-12 02:35:41.15	340.49	18.00	-29.8	-32.5	13.7	7.60e-06	0	41	0	348127232	20	4913
2026-01-12 02:35:42.15	340.27	18.05	-29.7	-32.1	13.9	5.30e-06	0	41	0	350224384	20	4783
2026-01-12 02:35:43.15	340.06	18.09	-29.6	-32.1	13.9	6.80e-06	0	41	0	352321536	20	4751
2026-01-12 02:35:44.16	339.83	18.14	-29.6	-31.9	14.0	2.20e-06	0	41	0	354418688	20	4700
2026-01-12 02:35:45.17	339.61	18.18	-29.4	-31.5	14.3	2.20e-06	0	41	0	356515840	20	4576
2026-01-12 02:35:46.18	339.39	18.23	-29.3	-31.2	14.5	1.50e-06	0	41	0	357564416	20	4477
2026-01-12 02:35:47.17	339.17	18.27	-29.4	-31.3	14.4	0.00e+00	0	41	0	359661568	20	4517
2026-01-12 02:35:48.18	338.95	18.31	-29.4	-31.4	14.4	0.00e+00	0	41	0	361758720	20	4525
2026-01-12 02:35:49.19	338.73	18.35	-29.4	-31.4	14.4	7.00e-07	0	41	0	363855872	20	4525
2026-01-12 02:35:50.20	338.50	18.40	-29.3	-31.1	14.5	7.00e-07	0	41	0	364904448	20	4449
2026-01-12 02:35:51.20	338.28	18.44	-29.3	-31.7	14.6	7.00e-07	0	41	0	367001600	19	4721
2026-01-12 02:35:52.21	338.05	18.48	-29.2	-31.4	14.7	0.00e+00	0	41	0	369098752	19	4648
2026-01-12 02:35:53.22	337.83	18.52	-29.2	-31.3	14.8	4.50e-06	0	41	0	371195904	19	4610
2026-01-12 02:35:54.22	337.60	18.56	-29.2	-31.5	14.7	0.00e+00	0	41	0	373293056	19	4649
2026-01-12 02:35:55.23	337.38	18.60	-29.1	-31.1	15.0	0.00e+00	0	42	0	374341632	19	4531
2026-01-12 02:35:56.23	337.15	18.64	-29.2	-31.3	14.9	0.00e+00	0	41	0	376438784	19	4588
2026-01-12 02:35:57.24	336.92	18.68	-29.1	-31.2	14.9	7.00e-07	0	42	0	378535936	19	4559
2026-01-12 02:35:58.24	336.70	18.72	-29.1	-31.1	15.0	0.00e+00	0	41	0	380633088	19	4519
2026-01-12 02:35:59.25	336.47	18.76	-29.0	-30.9	15.1	0.00e+00	0	41	0	382730240	19	4476
2026-01-12 02:36:00.26	336.24	18.80	-29.0	-30.9	15.0	7.00e-07	0	41	0	383778816	19	4477
2026-01-12 02:36:01.26	336.01	18.83	-29.0	-30.8	15.1	0.00e+00	0	41	0	385875968	19	4440
2026-01-12 02:36:02.27	335.78	18.87	-28.9	-30.6	15.2	0.00e+00	0	41	0	387973120	19	4370
2026-01-12 02:36:03.27	335.55	18.91	-28.9	-30.6	15.3	0.00e+00	0	42	0	390070272	19	4370
2026-01-12 02:36:04.28	335.31	18.94	-28.8	-30.5	15.3	0.00e+00	0	42	0	392167424	19	4346
2026-01-12 02:36:05.28	335.08	18.98	-28.8	-30.8	15.5	0.00e+00	0	42	0	393216000	18	4539
2026-01-12 02:36:06.29	334.85	19.02	-28.8	-31.0	15.3	0.00e+00	0	41	0	395313152	18	4597
2026-01-12 02:36:07.29	334.62	19.05	-28.7	-30.7	15.5	0.00e+00	0	41	0	397410304	18	4509
2026-01-12 02:36:08.30	334.38	19.08	-28.8	-30.8	15.4	7.00e-07	0	41	0	399507456	18	4555
2026-01-12 02:36:09.30	334.15	19.12	-28.8	-30.9	15.3	0.00e+00	0	41	0	401604608	18	4585
2026-01-12 02:36:10.31	333.91	19.15	-28.7	-30.6	15.6	0.00e+00	0	41	0	402653184	18	4490
2026-01-12 02:36:11.32	333.68	19.19	-28.7	-30.6	15.5	0.00e+00	0	42	0	404750336	18	4497
2026-01-12 02:36:12.33	333.44	19.22	-28.7	-30.7	15.5	0.00e+00	0	42	0	406847488	18	4513
2026-01-12 02:36:13.34	333.20	19.25	-28.8	-30.9	15.4	0.00e+00	0	42	0	408944640	18	4581
2026-01-12 02:36:14.34	332.97	19.28	-28.9	-31.2	15.2	0.00e+00	0	41	0	411041792	18	4676
2026-01-12 02:36:15.35	332.73	19.31	-28.8	-31.0	15.3	0.00e+00	0	42	0	412090368	18	4601
2026-01-12 02:36:16.35	332.49	19.35	-28.9	-31.2	15.2	0.00e+00	0	42	0	414187520	18	4660
2026-01-12 02:36:17.35	332.25	19.38	-29.0	-31.3	15.1	0.00e+00	0	41	0	416284672	18	4700
2026-01-12 02:36:18.36	332.01	19.41	-29.0	-31.4	15.1	0.00e+00	0	41	0	418381824	18	4740
2026-01-12 02:36:19.37	331.77	19.44	-29.1	-31.6	14.9	0.00e+00	0	42	0	420478976	18	4804
2026-01-12 02:36:20.37	331.53	19.46	-29.1	-31.5	15.0	0.00e+00	0	42	0	421527552	18	4771
2026-01-12 02:36:21.38	331.29	19.49	-29.1	-31.6	15.0	0.00e+00	0	42	0	423624704	18	4809
2026-01-12 02:36:22.38	331.05	19.52	-29.1	-31.5	15.0	0.00e+00	0	42	0	425721856	18	4782
2026-01-12 02:36:23.39	330.81	19.55	-29.1	-31.7	14.8	0.00e+00	0	41	0	427819008	18	4857
2026-01-12 02:36:24.40	330.57	19.58	-29.2	-31.8	14.8	0.00e+00	0	41	0	429916160	18	4873
2026-01-12 02:36:25.40	330.33	19.60	-29.2	-32.0	14.7	0.00e+00	0	42	0	430964736	18	4925
2026-01-12 02:36:26.41	330.08	19.63	-29.3	-32.2	14.6	0.00e+00	0	42	0	433061888	18	5014
2026-01-12 02:36:27.42	329.84	19.65	-29.3	-32.2	14.6	7.00e-07	0	42	0	435159040	18	5001
2026-01-12 02:36:28.42	329.60	19.68	-29.5	-32.2	14.2	0.00e+00	0	42	0	437256192	19	4897
2026-01-12 02:36:29.43	329.35	19.70	-29.6	-32.3	14.2	1.50e-06	0	41	0	439353344	19	4951
2026-01-12 02:36:30.44	329.11	19.73	-29.7	-32.6	14.0	2.20e-06	0	42	0	440401920	19	5034
2026-01-12 02:36:31.44	328.86	19.75	-29.6	-32.5	14.1	1.50e-06	0	42	0	442499072	19	5005
2026-01-12 02:36:32.45	328.62	19.77	-29.8	-33.1	13.7	3.80e-06	0	42	0	444596224	19	5224
2026-01-12 02:36:33.45	328.37	19.80	-29.9	-33.3	13.6	1.50e-06	0	42	0	446693376	19	5287
2026-01-12 02:36:34.46	328.13	19.82	-30.1	-33.2	13.2	1.60e-05	0	41	0	448790528	20	5170
2026-01-12 02:36:35.46	327.88	19.84	-30.1	-33.3	13.1	3.20e-05	0	42	0	449839104	20	5227
2026-01-12 02:36:36.48	327.63	19.86	-29.9	-32.9	13.5	2.13e-05	0	42	0	451936256	20	5038
2026-01-12 02:36:37.48	327.39	19.88	-29.9	-32.6	13.6	5.30e-06	0	42	0	454033408	20	4957
2026-01-12 02:36:38.49	327.14	19.90	-29.8	-32.4	13.7	4.50e-06	0	42	0	456130560	20	4878
2026-01-12 02:36:39.49	326.89	19.92	-29.7	-32.3	13.8	3.80e-06	0	42	0	458227712	20	4845
2026-01-12 02:36:40.49	326.65	19.94	-29.8	-32.4	13.7	3.00e-06	0	41	0	459276288	20	4890
2026-01-12 02:36:41.50	326.40	19.95	-29.9	-32.7	13.6	1.14e-05	0	42	0	461373440	20	4978
2026-01-12 02:36:42.51	326.15	19.97	-29.7	-32.3	13.8	3.80e-06	0	42	0	463470592	20	4851
2026-01-12 02:36:43.52	325.90	19.99	-29.8	-32.4	13.8	7.60e-06	0	42	0	465567744	20	4863
2026-01-12 02:36:44.52	325.65	20.01	-29.8	-32.4	13.8	4.50e-06	0	42	0	467664896	20	4859
2026-01-12 02:36:45.52	325.40	20.02	-29.8	-32.4	13.8	3.80e-06	0	42	0	468713472	20	4862
2026-01-12 02:36:46.53	325.15	20.04	-29.9	-32.6	13.6	6.10e-06	0	41	0	470810624	20	4952
2026-01-12 02:36:47.54	324.90	20.05	-29.8	-32.5	13.7	7.60e-06	0	42	0	472907776	20	4900
2026-01-12 02:36:48.54	324.65	20.07	-29.9	-32.9	13.5	6.10e-06	0	42	0	475004928	20	5041
2026-01-12 02:36:49.55	324.40	20.08	-30.0	-33.0	13.4	1.60e-05	0	42	0	477102080	20	5108
2026-01-12 02:36:50.56	324.15	20.09	-30.1	-33.3	13.2	1.67e-05	0	42	0	478150656	20	5192
2026-01-12 02:36:51.56	323.90	20.10	-30.2	-33.5	13.1	3.12e-05	0	41	0	480247808	20	5265
2026-01-12 02:36:52.57	323.65	20.12	-30.2	-33.7	12.9	3.12e-05	0	42	0	482344960	20	5348
2026-01-12 02:36:53.57	323.40	20.13	-30.3	-34.0	12.7	6.86e-05	0	42	0	484442112	20	5478
2026-01-12 02:36:54.58	323.15	20.14	-30.3	-33.9	12.8	7.93e-05	0	42	0	486539264	20	5432
2026-01-12 02:36:55.59	322.90	20.15	-30.2	-33.6	13.0	4.73e-05	0	41	0	487587840	20	5306
2026-01-12 02:36:56.60	322.65	20.16	-30.2	-33.6	13.0	3.50e-05	0	42	0	489684992	20	5316
2026-01-12 02:36:57.60	322.39	20.17	-30.1	-33.4	13.2	3.28e-05	0	42	0	491782144	20	5230
2026-01-12 02:36:58.61	322.14	20.18	-30.1	-33.3	13.2	2.13e-05	0	41	0	493879296	20	5184
2026-01-12 02:36:59.62	321.89	20.18	-30.3	-33.9	12.8	3.81e-05	0	42	0	495976448	20	5423
2026-01-12 02:37:00.62	321.64	20.19	-30.3	-33.9	12.8	8.39e-05	0	41	0	497025024	20	5432
2026-01-12 02:37:01.62	321.39	20.20	-30.3	-33.9	12.8	6.40e-05	0	42	0	499122176	20	5454
2026-01-12 02:37:02.63	321.13	20.20	-30.4	-34.2	12.6	8.92e-05	0	42	0	501219328	20	5548
2026-01-12 02:37:03.63	320.88	20.21	-30.4	-34.1	12.6	1.14e-04	0	41	0	503316480	20	5537
2026-01-12 02:37:04.64	320.63	20.21	-30.3	-33.8	12.8	8.39e-05	0	42	0	505413632	20	5406
2026-01-12 02:37:05.64	320.38	20.22	-30.3	-33.8	12.9	4.80e-05	0	41	0	506462208	20	5380
2026-01-12 02:37:06.65	320.13	20.22	-30.3	-33.8	12.8	4.95e-05	0	41	0	508559360	20	5401
2026-01-12 02:37:07.65	319.87	20.22	-30.3	-33.7	12.9	6.17e-05	0	42	0	510656512	20	5373
2026-01-12 02:37:08.66	319.62	20.23	-30.2	-33.4	13.1	2.74e-05	0	42	0	512753664	20	5257
2026-01-12 02:37:09.67	319.37	20.23	-30.2	-33.5	13.1	2.51e-05	0	42	0	514850816	20	5271
2026-01-12 02:37:10.68	319.11	20.23	-30.1	-33.3	13.2	3.20e-05	0	42	0	515899392	20	5201
2026-01-12 02:37:11.69	318.86	20.23	-30.0	-33.1	13.3	1.44e-05	0	41	0	517996544	20	5122
2026-01-12 02:37:12.70	318.61	20.23	-30.0	-33.1	13.3	1.44e-05	0	42	0	520093696	20	5146
2026-01-12 02:37:13.70	318.35	20.23	-29.9	-32.9	13.4	1.37e-05	0	42	0	522190848	20	5043
2026-01-12 02:37:14.70	318.10	20.23	-30.0	-33.0	13.3	1.52e-05	0	42	0	524288000	20	5095
2026-01-12 02:37:15.70	317.85	20.23	-30.0	-33.1	13.3	2.44e-05	0	42	0	525336576	20	5122
2026-01-12 02:37:16.70	317.60	20.23	-30.0	-33.0	13.4	1.44e-05	0	41	0	527433728	20	5090
2026-01-12 02:37:17.72	317.34	20.22	-30.1	-33.4	13.2	2.28e-05	0	41	0	529530880	20	5229
2026-01-12 02:37:18.72	317.09	20.22	-30.2	-33.5	13.1	3.20e-05	0	42	0	531628032	20	5273
2026-01-12 02:37:19.72	316.84	20.22	-30.2	-33.7	12.9	4.42e-05	0	42	0	533725184	20	5374
2026-01-12 02:37:20.73	316.59	20.21	-30.3	-33.9	12.8	5.87e-05	0	41	0	534773760	20	5438
2026-01-12 02:37:21.74	316.33	20.21	-30.4	-34.0	12.7	7.70e-05	0	41	0	536870912	20	5502
2026-01-12 02:37:22.74	316.08	20.20	-30.3	-33.8	13.0	7.09e-05	0	42	0	538968064	20	5375
2026-01-12 02:37:23.74	315.83	20.19	-30.0	-33.0	13.4	2.21e-05	0	42	0	541065216	20	5097
2026-01-12 02:37:24.75	315.58	20.19	-29.9	-32.6	13.7	3.00e-06	0	42	0	543162368	20	4961
2026-01-12 02:37:25.76	315.33	20.18	-29.9	-32.8	13.5	9.90e-06	0	42	0	544210944	20	5001
2026-01-12 02:37:26.77	315.07	20.17	-29.7	-32.2	13.9	3.80e-06	0	42	0	546308096	20	4787
2026-01-12 02:37:27.77	314.82	20.16	-29.7	-32.3	13.8	1.50e-06	0	42	0	548405248	20	4832
2026-01-12 02:37:28.77	314.57	20.16	-29.6	-31.9	14.1	4.50e-06	0	42	0	550502400	20	4699
2026-01-12 02:37:29.78	314.32	20.15	-29.5	-31.7	14.2	0.00e+00	0	42	0	552599552	20	4629
2026-01-12 02:37:30.79	314.07	20.14	-29.4	-31.5	14.4	1.50e-06	0	41	0	553648128	20	4560
2026-01-12 02:37:31.79	313.82	20.12	-29.4	-31.4	14.4	0.00e+00	0	42	0	555745280	20	4547
2026-01-12 02:37:32.80	313.57	20.11	-29.5	-31.6	14.3	0.00e+00	0	42	0	557842432	20	4598
2026-01-12 02:37:33.81	313.31	20.10	-29.4	-31.5	14.4	2.20e-06	0	42	0	559939584	20	4557
2026-01-12 02:37:34.81	313.06	20.09	-29.3	-31.3	14.5	7.00e-07	0	42	0	562036736	20	4491
2026-01-12 02:37:35.82	312.81	20.08	-29.4	-31.4	14.4	0.00e+00	0	42	0	563085312	20	4527
2026-01-12 02:37:36.82	312.56	20.06	-29.3	-31.3	14.5	7.00e-07	0	42	0	565182464	20	4501
2026-01-12 02:37:37.83	312.31	20.05	-29.4	-31.4	14.4	0.00e+00	0	42	0	567279616	20	4532
2026-01-12 02:37:38.84	312.06	20.03	-29.3	-31.2	14.5	7.00e-07	0	42	0	569376768	20	4479
2026-01-12 02:37:39.84	311.81	20.02	-29.3	-31.7	14.5	0.00e+00	0	41	0	571473920	19	4738
2026-01-12 02:37:40.85	311.56	20.00	-29.3	-31.7	14.6	0.00e+00	0	41	0	572522496	19	4728
2026-01-12 02:37:41.86	311.31	19.98	-29.2	-31.3	14.8	1.50e-06	0	42	0	574619648	19	4612
2026-01-12 02:37:42.86	311.07	19.97	-29.2	-31.4	14.7	0.00e+00	0	41	0	576716800	19	4621
2026-01-12 02:37:43.87	310.82	19.95	-29.0	-31.0	15.0	0.00e+00	0	41	0	578813952	19	4504
2026-01-12 02:37:44.88	310.57	19.93	-29.0	-30.8	15.1	0.00e+00	0	42	0	580911104	19	4428
2026-01-12 02:37:45.88	310.32	19.91	-28.9	-30.7	15.1	0.00e+00	0	42	0	581959680	19	4410
2026-01-12 02:37:46.89	310.07	19.89	-28.8	-30.4	15.4	0.00e+00	0	42	0	584056832	19	4312
2026-01-12 02:37:47.90	309.83	19.87	-28.9	-30.6	15.2	0.00e+00	0	41	0	586153984	19	4377
2026-01-12 02:37:48.91	309.58	19.85	-28.9	-30.6	15.2	0.00e+00	0	41	0	588251136	19	4371
2026-01-12 02:37:49.90	309.33	19.83	-28.9	-30.7	15.2	0.00e+00	0	42	0	590348288	19	4414
2026-01-12 02:37:50.91	309.09	19.81	-28.9	-30.6	15.2	0.00e+00	0	42	0	591396864	19	4388
2026-01-12 02:37:51.91	308.84	19.79	-28.9	-30.6	15.2	0.00e+00	0	42	0	593494016	19	4395
2026-01-12 02:37:52.91	308.60	19.77	-29.0	-30.9	15.1	0.00e+00	0	41	0	595591168	19	4464
2026-01-12 02:37:53.92	308.35	19.74	-28.9	-30.7	15.2	0.00e+00	0	42	0	597688320	19	4404
2026-01-12 02:37:54.93	308.11	19.72	-28.8	-30.5	15.3	7.00e-07	0	42	0	599785472	19	4353
2026-01-12 02:37:55.94	307.86	19.70	-28.8	-30.4	15.3	0.00e+00	0	41	0	600834048	19	4319
2026-01-12 02:37:56.94	307.62	19.67	-28.9	-30.5	15.3	0.00e+00	0	42	0	602931200	19	4355
2026-01-12 02:37:57.95	307.37	19.65	-28.8	-30.8	15.4	0.00e+00	0	41	0	605028352	18	4532
2026-01-12 02:37:58.95	307.13	19.62	-28.7	-30.7	15.5	0.00e+00	0	42	0	607125504	18	4507
2026-01-12 02:37:59.95	306.89	19.59	-28.7	-30.6	15.6	0.00e+00	0	41	0	608174080	18	4471
2026-01-12 02:38:00.96	306.65	19.57	-28.7	-30.5	15.6	0.00e+00	0	42	0	610271232	18	4470
2026-01-12 02:38:01.97	306.40	19.54	-28.7	-30.5	15.6	0.00e+00	0	42	0	612368384	18	4468
2026-01-12 02:38:02.97	306.16	19.51	-28.8	-30.9	15.3	0.00e+00	0	42	0	614465536	18	4586
2026-01-12 02:38:03.98	305.92	19.48	-28.7	-30.7	15.4	0.00e+00	0	42	0	616562688	18	4530
2026-01-12 02:38:04.99	305.68	19.46	-28.9	-31.1	15.2	0.00e+00	0	42	0	618659840	18	4639
2026-01-12 02:38:05.99	305.44	19.43	-28.8	-30.9	15.3	0.00e+00	0	42	0	619708416	18	4576
2026-01-12 02:38:07.00	305.20	19.40	-28.8	-30.9	15.3	0.00e+00	0	42	0	621805568	18	4595
2026-01-12 02:38:08.01	304.96	19.37	-28.9	-31.2	15.1	0.00e+00	0	42	0	623902720	18	4691
2026-01-12 02:38:09.01	304.72	19.34	-28.9	-31.1	15.2	0.00e+00	0	42	0	625999872	18	4658
2026-01-12 02:38:10.01	304.49	19.31	-28.9	-31.2	15.1	0.00e+00	0	42	0	627048448	18	4691
2026-01-12 02:38:11.02	304.25	19.27	-29.0	-31.5	15.0	0.00e+00	0	42	0	629145600	18	4775
2026-01-12 02:38:12.02	304.01	19.24	-29.1	-31.6	14.9	0.00e+00	0	42	0	631242752	18	4804
2026-01-12 02:38:13.03	303.77	19.21	-29.1	-31.6	14.9	7.00e-07	0	42	0	633339904	18	4822
2026-01-12 02:38:14.04	303.54	19.18	-29.2	-31.9	14.7	7.00e-07	0	42	0	635437056	18	4920
2026-01-12 02:38:15.04	303.30	19.14	-29.2	-31.9	14.7	7.00e-07	0	42	0	636485632	18	4913
2026-01-12 02:38:16.04	303.07	19.11	-29.2	-31.9	14.7	0.00e+00	0	42	0	638582784	18	4905
2026-01-12 02:38:17.05	302.83	19.07	-29.3	-32.2	14.5	0.00e+00	0	42	0	640679936	18	5022
2026-01-12 02:38:18.05	302.60	19.04	-29.2	-32.0	14.6	7.00e-07	0	42	0	642777088	18	4940
2026-01-12 02:38:19.06	302.36	19.00	-29.4	-32.3	14.4	0.00e+00	0	42	0	644874240	18	5053
2026-01-12 02:38:20.06	302.13	18.97	-29.4	-32.3	14.4	0.00e+00	0	42	0	645922816	18	5064
2026-01-12 02:38:21.06	301.90	18.93	-29.5	-32.2	14.2	1.50e-06	0	42	0	648019968	19	4907
2026-01-12 02:38:22.07	301.67	18.90	-29.5	-32.2	14.2	3.00e-06	0	42	0	650117120	19	4902
2026-01-12 02:38:23.08	301.44	18.86	-29.5	-32.1	14.3	0.00e+00	0	42	0	652214272	19	4874
2026-01-12 02:38:24.09	301.20	18.82	-29.5	-32.2	14.2	0.00e+00	0	41	0	654311424	19	4900
2026-01-12 02:38:25.10	300.97	18.78	-29.5	-32.2	14.2	2.20e-06	0	42	0	655360000	19	4911
2026-01-12 02:38:26.10	300.74	18.75	-29.6	-32.4	14.1	0.00e+00	0	42	0	657457152	19	4970
2026-01-12 02:38:27.11	300.51	18.71	-29.7	-32.7	13.9	5.30e-06	0	42	0	659554304	19	5095
2026-01-12 02:38:28.11	300.29	18.67	-29.6	-32.5	14.0	3.00e-06	0	42	0	661651456	19	5011
2026-01-12 02:38:29.12	300.06	18.63	-29.6	-32.4	14.1	3.00e-06	0	42	0	663748608	19	4970
2026-01-12 02:38:30.13	299.83	18.59	-29.5	-32.2	14.1	2.20e-06	0	42	0	664797184	19	4925
2026-01-12 02:38:31.13	299.60	18.55	-29.6	-32.4	14.0	2.20e-06	0	42	0	666894336	19	4975
2026-01-12 02:38:32.13	299.38	18.51	-29.7	-32.8	13.8	3.80e-06	0	41	0	668991488	19	5121
2026-01-12 02:38:33.14	299.15	18.47	-29.7	-32.7	13.8	3.80e-06	0	42	0	671088640	19	5096
2026-01-12 02:38:34.14	298.93	18.43	-29.9	-33.1	13.6	3.80e-06	0	42	0	673185792	19	5259
2026-01-12 02:38:35.14	298.71	18.38	-29.8	-32.9	13.7	4.50e-06	0	42	0	674234368	19	5182
2026-01-12 02:38:36.15	298.48	18.34	-29.9	-33.2	13.5	7.60e-06	0	42	0	676331520	19	5297
2026-01-12 02:38:37.16	298.26	18.30	-29.9	-33.2	13.5	1.06e-05	0	42	0	678428672	19	5262
2026-01-12 02:38:38.17	298.03	18.26	-29.9	-33.4	13.4	1.22e-05	0	42	0	680525824	19	5347
2026-01-12 02:38:39.17	297.81	18.21	-30.0	-33.1	13.1	2.74e-05	0	42	0	682622976	20	5158
2026-01-12 02:38:40.18	297.59	18.17	-30.1	-33.3	13.0	3.20e-05	0	42	0	683671552	20	5223
2026-01-12 02:38:41.19	297.37	18.12	-30.1	-33.5	12.8	5.64e-05	0	42	0	685768704	20	5326
2026-01-12 02:38:42.20	297.15	18.08	-29.8	-32.7	13.4	1.90e-05	0	42	0	687865856	20	5001
2026-01-12 02:38:43.20	296.93	18.03	-29.6	-32.1	13.8	1.29e-05	0	42	0	689963008	20	4803
2026-01-12 02:38:44.21	296.71	17.99	-29.7	-32.3	13.6	3.80e-06	0	42	0	692060160	20	4874
2026-01-12 02:38:45.21	296.50	17.94	-29.8	-32.7	13.4	1.60e-05	0	42	0	693108736	20	4986
2026-01-12 02:38:46.22	296.28	17.90	-29.9	-32.9	13.2	1.75e-05	0	42	0	695205888	20	5080
2026-01-12 02:38:47.22	296.06	17.85	-30.1	-33.5	12.8	3.81e-05	0	42	0	697303040	20	5312
2026-01-12 02:38:48.23	295.85	17.81	-30.1	-33.3	13.0	5.18e-05	0	42	0	699400192	20	5249
2026-01-12 02:38:49.24	295.63	17.76	-30.2	-33.6	12.8	8.08e-05	0	42	0	701497344	20	5326
2026-01-12 02:38:50.24	295.42	17.71	-30.0	-33.0	13.2	2.59e-05	0	42	0	702545920	20	5093
2026-01-12 02:38:51.25	295.20	17.66	-29.7	-32.3	13.7	8.30e-06	0	42	0	704643072	20	4856
2026-01-12 02:38:52.26	294.99	17.62	-29.5	-31.9	13.9	1.50e-06	0	42	0	706740224	20	4698
2026-01-12 02:38:53.26	294.78	17.57	-29.5	-31.7	14.0	1.50e-06	0	42	0	708837376	20	4665
2026-01-12 02:38:54.27	294.56	17.52	-29.5	-31.9	14.0	6.80e-06	0	42	0	710934528	20	4702
2026-01-12 02:38:55.28	294.35	17.47	-29.6	-31.9	13.9	1.50e-06	0	42	0	711983104	20	4734
2026-01-12 02:38:56.28	294.14	17.42	-29.7	-32.2	13.7	7.60e-06	0	42	0	714080256	20	4833
2026-01-12 02:38:57.29	293.93	17.37	-29.7	-32.3	13.6	6.80e-06	0	42	0	716177408	20	4871
2026-01-12 02:38:58.29	293.72	17.32	-29.8	-32.6	13.4	1.67e-05	0	42	0	718274560	20	4967
2026-01-12 02:38:59.30	293.51	17.27	-29.9	-32.8	13.4	1.14e-05	0	42	0	720371712	20	5041
2026-01-12 02:39:00.31	293.31	17.22	-30.0	-33.3	13.0	2.89e-05	0	42	0	721420288	20	5214
2026-01-12 02:39:01.32	293.10	17.17	-30.0	-33.2	13.0	3.81e-05	0	42	0	723517440	20	5208
2026-01-12 02:39:02.32	292.89	17.12	-30.1	-33.3	13.0	3.35e-05	0	42	0	725614592	20	5233
2026-01-12 02:39:03.33	292.69	17.07	-30.0	-33.2	13.0	4.73e-05	0	42	0	727711744	20	5208
2026-01-12 02:39:04.34	292.48	17.02	-30.0	-33.3	13.0	2.59e-05	0	42	0	729808896	20	5219
2026-01-12 02:39:05.35	292.27	16.97	-30.0	-33.0	13.2	2.51e-05	0	42	0	730857472	20	5122
2026-01-12 02:39:06.35	292.07	16.91	-29.9	-32.9	13.2	2.05e-05	0	42	0	732954624	20	5097
2026-01-12 02:39:07.35	291.87	16.86	-30.0	-33.3	12.9	2.44e-05	0	42	0	735051776	20	5231
2026-01-12 02:39:08.36	291.67	16.81	-30.0	-33.1	13.0	4.11e-05	0	42	0	737148928	20	5170
2026-01-12 02:39:09.37	291.47	16.76	-30.0	-33.1	13.0	3.35e-05	0	42	0	739246080	20	5178
2026-01-12 02:39:10.37	291.27	16.70	-30.1	-33.4	12.9	3.81e-05	0	42	0	740294656	20	5264
2026-01-12 02:39:11.38	291.07	16.65	-30.2	-33.7	12.7	7.47e-05	0	42	0	742391808	20	5392
2026-01-12 02:39:12.39	290.87	16.60	-30.0	-33.2	13.0	6.25e-05	0	42	0	744488960	20	5200
2026-01-12 02:39:13.39	290.67	16.54	-30.3	-34.0	12.5	8.69e-05	0	42	0	746586112	20	5524
2026-01-12 02:39:14.40	290.47	16.49	-30.3	-34.2	12.3	1.71e-04	0	42	0	748683264	20	5608
2026-01-12 02:39:15.40	290.27	16.44	-30.2	-33.9	12.5	1.14e-04	0	42	0	749731840	20	5459
2026-01-12 02:39:16.41	290.08	16.38	-30.2	-33.7	12.7	8.08e-05	0	42	0	751828992	20	5382
2026-01-12 02:39:17.42	289.88	16.33	-30.2	-33.6	12.7	7.55e-05	0	42	0	753926144	20	5363
2026-01-12 02:39:18.42	289.69	16.27	-30.1	-33.5	12.7	8.77e-05	0	42	0	756023296	20	5337
2026-01-12 02:39:19.43	289.49	16.22	-30.2	-33.9	12.5	7.78e-05	0	42	0	758120448	20	5464
2026-01-12 02:39:20.43	289.30	16.16	-30.1	-33.6	12.7	1.02e-04	0	41	0	759169024	20	5335
2026-01-12 02:39:21.44	289.10	16.11	-30.0	-33.3	12.9	5.11e-05	0	42	0	761266176	20	5235
2026-01-12 02:39:22.45	288.91	16.05	-30.0	-33.3	12.9	4.50e-05	0	42	0	763363328	20	5223
2026-01-12 02:39:23.46	288.72	16.00	-30.0	-33.3	12.9	3.50e-05	0	42	0	765460480	20	5238
2026-01-12 02:39:24.46	288.53	15.94	-30.3	-34.0	12.4	5.87e-05	0	42	0	767557632	20	5530
2026-01-12 02:39:25.47	288.34	15.88	-30.3	-33.9	12.5	1.30e-04	0	42	0	768606208	20	5500
2026-01-12 02:39:26.48	288.15	15.83	-30.3	-34.0	12.4	1.20e-04	0	42	0	770703360	20	5515
2026-01-12 02:39:27.48	287.96	15.77	-30.3	-34.2	12.3	1.24e-04	0	42	0	772800512	20	5598
2026-01-12 02:39:28.49	287.77	15.71	-30.4	-34.4	12.1	2.99e-04	0	42	0	774897664	20	5691
2026-01-12 02:39:29.49	287.59	15.66	-30.2	-33.6	12.6	1.11e-04	0	42	0	776994816	20	5373
2026-01-12 02:39:30.50	287.40	15.60	-30.0	-33.1	13.0	6.33e-05	0	42	0	778043392	20	5167
2026-01-12 02:39:31.50	287.22	15.54	-29.9	-32.9	13.1	3.28e-05	0	42	0	780140544	20	5094
2026-01-12 02:39:32.51	287.03	15.49	-29.8	-32.8	13.2	1.98e-05	0	41	0	782237696	20	5047
2026-01-12 02:39:33.52	286.84	15.43	-29.8	-32.7	13.3	2.67e-05	0	41	0	784334848	20	5005
2026-01-12 02:39:34.52	286.66	15.37	-29.8	-32.6	13.3	1.75e-05	0	42	0	786432000	20	4990
2026-01-12 02:39:35.53	286.48	15.31	-29.9	-32.8	13.2	1.83e-05	0	42	0	787480576	20	5059
2026-01-12 02:39:36.53	286.30	15.25	-30.0	-33.1	13.0	4.04e-05	0	42	0	789577728	20	5175
2026-01-12 02:39:37.54	286.12	15.20	-30.2	-33.8	12.6	7.55e-05	0	42	0	791674880	20	5432
2026-01-12 02:39:38.55	285.93	15.14	-30.3	-34.1	12.3	1.57e-04	0	42	0	793772032	20	5585
2026-01-12 02:39:39.56	285.75	15.08	-30.4	-34.4	12.1	2.91e-04	0	42	0	795869184	20	5713
2026-01-12 02:39:40.56	285.58	15.02	-30.5	-34.2	11.9	3.00e-04	0	42	0	796917760	21	5504
2026-01-12 02:39:41.57	285.40	14.96	-30.6	-34.6	11.6	6.14e-04	0	42	0	799014912	21	5704
2026-01-12 02:39:42.58	285.22	14.90	-30.6	-34.6	11.6	8.75e-04	0	42	0	801112064	21	5670
2026-01-12 02:39:43.58	285.04	14.84	-30.4	-34.0	12.0	4.07e-04	0	42	0	803209216	21	5419
2026-01-12 02:39:44.59	284.86	14.78	-30.3	-33.6	12.2	2.46e-04	0	42	0	805306368	21	5283
2026-01-12 02:39:45.60	284.69	14.72	-30.3	-33.6	12.3	1.85e-04	0	42	0	806354944	21	5248
2026-01-12 02:39:46.61	284.51	14.66	-30.3	-33.7	12.2	2.33e-04	0	42	0	808452096	21	5317
2026-01-12 02:39:47.61	284.34	14.61	-30.4	-34.0	12.0	2.82e-04	0	42	0	810549248	21	5435
2026-01-12 02:39:48.62	284.16	14.55	-30.4	-34.1	11.9	3.61e-04	0	42	0	812646400	21	5460
2026-01-12 02:39:49.62	283.99	14.49	-30.5	-34.2	11.8	3.95e-04	0	42	0	814743552	21	5517
2026-01-12 02:39:50.62	283.82	14.43	-30.5	-34.1	11.9	4.97e-04	0	42	0	815792128	21	5485
2026-01-12 02:39:51.63	283.65	14.37	-30.4	-34.0	12.0	4.02e-04	0	42	0	817889280	21	5419
2026-01-12 02:39:52.64	283.48	14.31	-30.4	-33.8	12.0	3.35e-04	0	42	0	819986432	21	5373
2026-01-12 02:39:53.64	283.31	14.25	-30.3	-33.6	12.2	2.63e-04	0	42	0	822083584	21	5299
2026-01-12 02:39:54.64	283.14	14.19	-30.3	-33.7	12.1	2.24e-04	0	42	0	824180736	21	5327
2026-01-12 02:39:55.65	282.97	14.13	-30.2	-33.5	12.3	2.30e-04	0	42	0	825229312	21	5237
2026-01-12 02:39:56.64	282.81	14.07	-30.2	-33.5	12.3	1.49e-04	0	42	0	827326464	21	5232
2026-01-12 02:39:57.65	282.64	14.01	-30.3	-33.7	12.2	1.82e-04	0	42	0	829423616	21	5305
2026-01-12 02:39:58.66	282.47	13.94	-30.5	-34.2	11.8	3.75e-04	0	42	0	831520768	21	5524
2026-01-12 02:39:59.67	282.30	13.88	-30.5	-34.2	11.7	6.03e-04	0	42	0	833617920	21	5550
2026-01-12 02:40:00.67	282.14	13.82	-30.6	-34.5	11.5	5.26e-04	0	42	0	834666496	21	5680
2026-01-12 02:40:01.67	281.98	13.76	-30.6	-34.7	11.4	1.04e-03	0	42	0	836763648	21	5744
2026-01-12 02:40:02.68	281.81	13.70	-30.7	-34.8	11.3	9.20e-04	0	42	0	838860800	21	5801
2026-01-12 02:40:03.68	281.65	13.64	-30.6	-34.7	11.3	1.26e-03	0	42	0	840957952	21	5776
2026-01-12 02:40:04.69	281.49	13.58	-30.5	-34.3	11.7	8.47e-04	0	42	0	843055104	21	5587
2026-01-12 02:40:05.69	281.33	13.52	-30.5	-34.2	11.8	4.66e-04	0	42	0	844103680	21	5516
2026-01-12 02:40:06.70	281.16	13.46	-30.4	-34.0	11.9	4.71e-04	0	42	0	846200832	21	5457
2026-01-12 02:40:07.70	281.00	13.40	-30.3	-33.7	12.1	2.92e-04	0	42	0	848297984	21	5315
2026-01-12 02:40:08.71	280.84	13.33	-30.2	-33.5	12.2	2.02e-04	0	42	0	850395136	21	5250
2026-01-12 02:40:09.72	280.68	13.27	-30.4	-34.0	11.9	3.11e-04	0	42	0	852492288	21	5428
2026-01-12 02:40:10.73	280.53	13.21	-30.5	-34.3	11.7	5.92e-04	0	42	0	853540864	21	5571
2026-01-12 02:40:11.73	280.37	13.15	-30.7	-34.9	11.2	9.52e-04	0	42	0	855638016	21	5829
2026-01-12 02:40:12.74	280.21	13.09	-30.6	-34.6	11.4	1.20e-03	0	42	0	857735168	21	5705
2026-01-12 02:40:13.74	280.05	13.03	-30.4	-34.1	11.7	9.46e-04	0	42	0	859832320	21	5507
2026-01-12 02:40:14.75	279.90	12.96	-30.3	-33.7	12.1	3.93e-04	0	42	0	861929472	21	5328
2026-01-12 02:40:15.76	279.74	12.90	-30.2	-33.5	12.2	2.38e-04	0	42	0	862978048	21	5253
2026-01-12 02:40:16.77	279.59	12.84	-30.1	-33.2	12.4	1.41e-04	0	42	0	865075200	21	5115
2026-01-12 02:40:17.77	279.43	12.78	-30.0	-32.8	12.7	1.11e-04	0	42	0	867172352	21	4979
2026-01-12 02:40:18.78	279.28	12.71	-30.0	-32.9	12.6	8.69e-05	0	42	0	869269504	21	5018
2026-01-12 02:40:19.78	279.13	12.65	-30.0	-32.8	12.6	8.62e-05	0	42	0	871366656	21	4992
2026-01-12 02:40:20.78	278.98	12.59	-29.9	-32.5	12.8	5.03e-05	0	42	0	872415232	21	4866
2026-01-12 02:40:21.79	278.83	12.53	-29.8	-32.4	12.9	5.18e-05	0	42	0	874512384	21	4842
2026-01-12 02:40:22.79	278.68	12.47	-29.8	-32.4	12.9	3.28e-05	0	42	0	876609536	21	4816
2026-01-12 02:40:23.80	278.53	12.40	-30.1	-33.0	12.6	7.47e-05	0	42	0	878706688	21	5051
2026-01-12 02:40:24.80	278.38	12.34	-29.8	-32.3	13.0	8.16e-05	0	42	0	879755264	21	4797
2026-01-12 02:40:25.81	278.23	12.28	-29.9	-32.4	12.9	4.88e-05	0	42	0	881852416	21	4848
2026-01-12 02:40:26.82	278.08	12.22	-29.8	-32.4	13.0	4.95e-05	0	42	0	883949568	21	4822
2026-01-12 02:40:27.82	277.93	12.16	-29.8	-32.9	12.9	3.20e-05	0	42	0	886046720	20	5111
2026-01-12 02:40:28.83	277.79	12.09	-29.8	-32.8	13.0	3.43e-05	0	42	0	888143872	20	5093
2026-01-12 02:40:29.83	277.64	12.03	-29.8	-32.7	13.0	3.81e-05	0	42	0	890241024	20	5050
2026-01-12 02:40:30.84	277.49	11.97	-29.7	-32.4	13.2	2.44e-05	0	42	0	891289600	20	4944
2026-01-12 02:40:31.85	277.35	11.91	-29.7	-32.4	13.2	1.75e-05	0	42	0	893386752	20	4937
2026-01-12 02:40:32.85	277.21	11.84	-29.8	-32.8	13.0	3.20e-05	0	42	0	895483904	20	5068
2026-01-12 02:40:33.86	277.06	11.78	-29.7	-32.5	13.1	3.58e-05	0	42	0	897581056	20	4984
2026-01-12 02:40:34.87	276.92	11.72	-29.8	-32.8	12.9	4.42e-05	0	42	0	899678208	20	5100
2026-01-12 02:40:35.88	276.78	11.66	-29.8	-32.9	12.9	4.04e-05	0	42	0	900726784	20	5115
2026-01-12 02:40:36.88	276.63	11.59	-29.8	-32.9	12.9	4.95e-05	0	42	0	902823936	20	5105
2026-01-12 02:40:37.89	276.49	11.53	-29.8	-32.7	13.0	3.20e-05	0	42	0	904921088	20	5058
2026-01-12 02:40:38.89	276.35	11.47	-29.8	-32.8	13.0	3.35e-05	0	42	0	907018240	20	5067
2026-01-12 02:40:39.89	276.21	11.41	-29.7	-32.6	13.0	4.27e-05	0	42	0	908066816	20	5008
2026-01-12 02:40:40.90	276.07	11.34	-29.7	-32.5	13.1	3.35e-05	0	42	0	910163968	20	4980
2026-01-12 02:40:41.90	275.94	11.28	-30.0	-33.4	12.5	9.15e-05	0	42	0	912261120	20	5339
2026-01-12 02:40:42.91	275.80	11.22	-29.9	-33.1	12.7	1.43e-04	0	42	0	914358272	20	5201
2026-01-12 02:40:43.92	275.66	11.16	-30.1	-33.6	12.3	1.01e-04	0	42	0	916455424	20	5412
2026-01-12 02:40:44.92	275.52	11.09	-30.0	-33.4	12.5	1.38e-04	0	42	0	918552576	20	5298
2026-01-12 02:40:45.93	275.39	11.03	-30.2	-34.0	12.2	1.46e-04	0	42	0	919601152	20	5553
2026-01-12 02:40:46.93	275.25	10.97	-30.0	-33.5	12.4	2.04e-04	0	42	0	921698304	20	5377
2026-01-12 02:40:47.93	275.12	10.91	-30.0	-33.3	12.6	1.26e-04	0	42	0	923795456	20	5285
2026-01-12 02:40:48.94	274.98	10.84	-29.9	-33.1	12.7	6.71e-05	0	42	0	925892608	20	5203
2026-01-12 02:40:49.95	274.85	10.78	-30.2	-34.0	12.2	7.40e-05	0	42	0	926941184	20	5558
2026-01-12 02:40:50.94	274.72	10.72	-30.1	-33.8	12.2	2.21e-04	0	42	0	929038336	20	5484
2026-01-12 02:40:51.95	274.58	10.66	-30.1	-33.7	12.3	1.88e-04	0	42	0	931135488	20	5441
2026-01-12 02:40:52.96	274.45	10.59	-30.2	-34.1	12.0	1.94e-04	0	42	0	933232640	20	5598
2026-01-12 02:40:53.96	274.32	10.53	-30.2	-34.0	12.1	1.07e-04	0	42	0	935329792	20	5558
2026-01-12 02:40:54.97	274.19	10.47	-30.2	-34.0	12.1	3.05e-04	0	42	0	936378368	20	5556
2026-01-12 02:40:55.98	274.06	10.41	-30.5	-34.8	11.5	5.72e-04	0	42	0	938475520	20	5946
2026-01-12 02:40:56.99	273.93	10.34	-30.3	-33.7	11.9	6.94e-04	0	42	0	940572672	21	5327
2026-01-12 02:40:57.99	273.80	10.28	-30.1	-33.1	12.3	2.99e-04	0	42	0	942669824	21	5107
2026-01-12 02:40:59.00	273.67	10.22	-29.9	-32.6	12.7	9.84e-05	0	42	0	944766976	21	4901
2026-01-12 02:41:00.01	273.54	10.16	-29.8	-32.7	12.9	7.55e-05	0	42	0	946864128	20	5059
2026-01-12 02:41:01.02	273.41	10.09	-29.7	-32.6	13.0	3.89e-05	0	42	0	947912704	20	5031
2026-01-12 02:41:02.02	273.28	10.03	-29.7	-32.7	12.9	5.49e-05	0	42	0	950009856	20	5049
2026-01-12 02:41:03.03	273.16	9.97	-29.9	-33.1	12.7	5.87e-05	0	42	0	952107008	20	5208
2026-01-12 02:41:04.03	273.03	9.91	-29.8	-32.8	12.8	6.86e-05	0	42	0	954204160	20	5101
2026-01-12 02:41:05.03	272.91	9.84	-29.8	-32.9	12.8	5.64e-05	0	42	0	955252736	20	5121
2026-01-12 02:41:06.04	272.78	9.78	-29.9	-33.3	12.5	8.69e-05	0	42	0	957349888	20	5284
2026-01-12 02:41:07.04	272.66	9.72	-29.8	-32.9	12.7	9.53e-05	0	42	0	959447040	20	5145
2026-01-12 02:41:08.04	272.53	9.66	-29.7	-32.7	12.9	5.41e-05	0	42	0	961544192	20	5060
2026-01-12 02:41:09.05	272.41	9.60	-29.8	-32.8	12.8	6.33e-05	0	42	0	963641344	20	5101
2026-01-12 02:41:10.06	272.29	9.53	-29.8	-32.8	12.7	4.80e-05	0	42	0	964689920	20	5125
2026-01-12 02:41:11.07	272.16	9.47	-29.7	-32.8	12.8	7.78e-05	0	42	0	966787072	20	5093
2026-01-12 02:41:12.08	272.04	9.41	-29.7	-32.7	12.8	5.64e-05	0	42	0	968884224	20	5071
2026-01-12 02:41:13.08	271.92	9.35	-29.6	-32.4	13.0	3.20e-05	0	42	0	970981376	20	4957
2026-01-12 02:41:14.08	271.80	9.28	-29.7	-32.5	13.0	4.34e-05	0	42	0	973078528	20	4988
2026-01-12 02:41:15.09	271.68	9.22	-29.6	-32.4	13.0	3.43e-05	0	42	0	974127104	20	4975
2026-01-12 02:41:16.09	271.56	9.16	-29.8	-32.8	12.8	5.34e-05	0	42	0	976224256	20	5103
2026-01-12 02:41:17.09	271.44	9.10	-29.6	-32.4	13.0	2.89e-05	0	42	0	978321408	20	4954
2026-01-12 02:41:18.10	271.32	9.04	-29.7	-32.6	12.8	3.05e-05	0	42	0	980418560	20	5023
2026-01-12 02:41:19.11	271.20	8.97	-29.7	-32.7	12.7	7.09e-05	0	42	0	982515712	20	5083
2026-01-12 02:41:20.11	271.09	8.91	-29.6	-32.4	12.9	4.65e-05	0	42	0	983564288	20	4975
2026-01-12 02:41:21.11	270.97	8.85	-29.6	-32.2	13.1	2.97e-05	0	42	0	985661440	20	4894
2026-01-12 02:41:22.12	270.85	8.79	-29.8	-32.8	12.7	6.33e-05	0	42	0	987758592	20	5129
2026-01-12 02:41:23.12	270.74	8.73	-29.7	-32.6	12.9	6.94e-05	0	42	0	989855744	20	5029
2026-01-12 02:41:24.13	270.62	8.67	-29.8	-32.9	12.6	6.86e-05	0	42	0	991952896	20	5161
2026-01-12 02:41:25.14	270.51	8.60	-29.9	-33.1	12.4	1.40e-04	0	42	0	993001472	20	5254
2026-01-12 02:41:26.13	270.39	8.54	-29.9	-33.2	12.4	1.31e-04	0	42	0	995098624	20	5268
2026-01-12 02:41:27.14	270.28	8.48	-29.9	-33.1	12.4	1.33e-04	0	42	0	997195776	20	5251
2026-01-12 02:41:28.14	270.17	8.42	-29.8	-33.1	12.4	1.30e-04	0	42	0	999292928	20	5237
2026-01-12 02:41:29.15	270.05	8.36	-30.0	-33.6	12.1	2.31e-04	0	42	0	1001390080	20	5440
2026-01-12 02:41:30.16	269.94	8.30	-30.0	-33.5	12.2	2.90e-04	0	42	0	1002438656	20	5382
2026-01-12 02:41:31.17	269.83	8.24	-29.9	-33.3	12.2	1.72e-04	0	42	0	1004535808	20	5343
2026-01-12 02:41:32.17	269.72	8.17	-30.0	-33.7	12.0	3.58e-04	0	42	0	1006632960	20	5477
2026-01-12 02:41:33.18	269.60	8.11	-30.0	-33.5	12.1	2.80e-04	0	42	0	1008730112	20	5415
2026-01-12 02:41:34.19	269.49	8.05	-30.0	-33.6	12.0	3.03e-04	0	42	0	1010827264	20	5468
2026-01-12 02:41:35.20	269.38	7.99	-30.0	-33.5	12.1	2.62e-04	0	42	0	1011875840	20	5406
2026-01-12 02:41:36.20	269.27	7.93	-30.1	-33.8	11.8	3.96e-04	0	42	0	1013972992	20	5550
2026-01-12 02:41:37.20	269.16	7.87	-30.1	-33.9	11.8	3.75e-04	0	42	0	1016070144	20	5580
2026-01-12 02:41:38.21	269.06	7.81	-30.3	-34.4	11.4	6.72e-04	0	42	0	1018167296	20	5822
2026-01-12 02:41:39.22	268.95	7.75	-30.1	-34.0	11.7	6.50e-04	0	42	0	1020264448	20	5636
2026-01-12 02:41:40.22	268.84	7.68	-30.2	-34.2	11.5	8.12e-04	0	42	0	1021313024	20	5742
2026-01-12 02:41:41.23	268.73	7.62	-30.4	-34.8	11.1	8.89e-04	0	42	0	1023410176	20	6021
2026-01-12 02:41:42.24	268.62	7.56	-30.3	-34.6	11.3	1.36e-03	0	42	0	1025507328	20	5912
2026-01-12 02:41:43.25	268.52	7.50	-30.3	-34.5	11.3	1.18e-03	0	42	0	1027604480	20	5880
2026-01-12 02:41:44.26	268.41	7.44	-30.3	-34.6	11.2	1.26e-03	0	42	0	1029701632	20	5908
2026-01-12 02:41:45.26	268.31	7.38	-30.3	-34.6	11.2	1.32e-03	0	42	0	1030750208	20	5909
2026-01-12 02:41:46.26	268.20	7.32	-30.3	-34.6	11.2	1.24e-03	0	42	0	1032847360	20	5916
2026-01-12 02:41:47.26	268.10	7.26	-30.3	-34.8	11.0	1.71e-03	0	42	0	1034944512	20	6013
2026-01-12 02:41:48.27	267.99	7.20	-30.3	-34.7	11.1	1.58e-03	0	42	0	1037041664	20	5983
2026-01-12 02:41:49.28	267.89	7.14	-30.3	-34.6	11.1	2.02e-03	0	42	0	1039138816	20	5942
2026-01-12 02:41:50.28	267.78	7.08	-31.3	-37.2	9.0	1.33e-03	0	42	0	1040187392	22	7116
2026-01-12 02:41:51.28	267.68	7.02	-32.9	-47.4	3.8	1.49e+00	0	42	104	1041235968	25	19026

#Closed at: 2026-01-12 02:41:52
#Recorded file [1041 MB]: D:/data/31010_260112_053234.dat