passes_logs/2026/01/12/R2M6_AANII_01/R2M6_AANII_01__20260112_084458_SUOMI_NPP_rec.log

#Pass ID: 20260112_084458_SUOMI NPP
#Satellite: SUOMI NPP
#Configuration: NPP
#almurnet v.1.7.20240730
#Start time: 2026-01-12 08:44:58

#Version: 2.2.20231116
#Station: R2M6_AANII_01
#Location: 30.233357 lon 59.946436 lat
#TLE: 1 37849U 11061A   26011.29776829  .00000112  00000+0  74065-4 0  9999
#TLE: 2 37849  98.7807 313.3784 0002522  70.0451 290.0996 14.19524507736187

#Time	Az	El	Level	Level2	SNR	BER	BlckErr	Temp	State	Recorded	gain1	gain2
2026-01-12 08:44:58.76	109.32	7.04	-31.8	-37.3	4.6	1.37e+00	0	39	0	0	24	6813
2026-01-12 08:44:59.76	109.24	7.11	-31.6	-36.4	4.8	1.32e+00	0	39	104	0	24	6242
2026-01-12 08:45:00.76	109.16	7.18	-31.7	-36.6	6.8	1.93e-01	0	39	0	0	24	6339
2026-01-12 08:45:01.77	109.08	7.25	-31.7	-36.9	6.6	2.16e-01	0	39	0	1048576	24	6535
2026-01-12 08:45:02.77	109.00	7.32	-31.8	-37.4	6.3	2.54e-01	0	39	0	3145728	24	6825
2026-01-12 08:45:03.78	108.92	7.39	-31.8	-37.5	6.2	2.83e-01	0	39	0	5242880	24	6909
2026-01-12 08:45:04.78	108.84	7.45	-31.9	-38.0	5.9	3.57e-01	0	39	0	7340032	24	7217
2026-01-12 08:45:05.79	108.75	7.52	-32.0	-38.4	5.6	3.94e-01	0	39	0	9437184	24	7532
2026-01-12 08:45:06.80	108.67	7.59	-31.9	-38.0	5.9	4.18e-01	0	39	0	10485760	24	7197
2026-01-12 08:45:07.81	108.59	7.66	-31.7	-36.3	7.1	2.27e-01	0	39	0	12582912	24	6171
2026-01-12 08:45:08.81	108.50	7.73	-31.4	-34.9	8.2	6.66e-02	0	40	0	14680064	24	5402
2026-01-12 08:45:09.82	108.42	7.80	-31.1	-34.3	9.1	3.32e-02	0	40	0	16777216	23	5177
2026-01-12 08:45:10.82	108.34	7.87	-30.9	-33.4	9.8	1.37e-02	0	40	0	18874368	23	4824
2026-01-12 08:45:11.83	108.25	7.94	-30.9	-33.5	9.8	9.73e-03	0	40	0	19922944	23	4842
2026-01-12 08:45:12.84	108.16	8.01	-31.0	-33.6	9.7	8.89e-03	0	40	0	22020096	23	4896
2026-01-12 08:45:13.84	108.08	8.08	-31.3	-34.9	8.8	1.81e-02	0	40	0	24117248	23	5441
2026-01-12 08:45:14.85	107.99	8.15	-31.4	-35.4	8.3	3.09e-02	0	40	0	26214400	23	5697
2026-01-12 08:45:15.86	107.91	8.22	-31.3	-34.8	8.8	3.00e-02	0	40	0	28311552	23	5416
2026-01-12 08:45:16.86	107.82	8.29	-31.4	-35.4	8.4	3.41e-02	0	40	0	29360128	23	5689
2026-01-12 08:45:17.87	107.73	8.36	-31.3	-35.0	8.7	4.31e-02	0	40	0	31457280	23	5488
2026-01-12 08:45:18.87	107.64	8.43	-31.0	-33.8	9.6	1.68e-02	0	40	0	33554432	23	4932
2026-01-12 08:45:19.88	107.56	8.50	-30.9	-33.5	10.0	8.74e-03	0	40	0	35651584	23	4814
2026-01-12 08:45:20.88	107.47	8.57	-30.9	-33.4	10.0	9.92e-03	0	40	0	37748736	23	4804
2026-01-12 08:45:21.89	107.38	8.64	-30.8	-33.0	10.3	5.63e-03	0	40	0	38797312	23	4641
2026-01-12 08:45:22.90	107.29	8.72	-31.1	-34.1	9.5	8.19e-03	0	40	0	40894464	23	5079
2026-01-12 08:45:23.90	107.20	8.79	-31.0	-33.8	9.7	1.61e-02	0	40	0	42991616	23	4965
2026-01-12 08:45:24.91	107.11	8.86	-31.0	-33.7	9.8	1.13e-02	0	40	0	45088768	23	4886
2026-01-12 08:45:25.91	107.02	8.93	-31.2	-34.4	9.3	1.89e-02	0	40	0	47185920	23	5192
2026-01-12 08:45:26.92	106.92	9.00	-31.0	-33.7	9.8	1.22e-02	0	40	0	48234496	23	4917
2026-01-12 08:45:27.92	106.83	9.07	-31.0	-33.6	10.0	7.07e-03	0	40	0	50331648	23	4867
2026-01-12 08:45:28.93	106.74	9.14	-30.8	-33.3	10.6	4.09e-03	0	40	0	52428800	22	4813
2026-01-12 08:45:29.93	106.65	9.22	-30.8	-33.3	10.6	2.67e-03	0	40	0	54525952	22	4796
2026-01-12 08:45:30.93	106.55	9.29	-30.7	-33.0	10.8	2.26e-03	0	40	0	56623104	22	4702
2026-01-12 08:45:31.93	106.46	9.36	-30.7	-32.9	10.9	2.14e-03	0	40	0	57671680	22	4669
2026-01-12 08:45:32.94	106.37	9.43	-30.8	-33.3	10.6	3.26e-03	0	40	0	59768832	22	4790
2026-01-12 08:45:33.94	106.27	9.50	-30.8	-33.4	10.6	4.38e-03	0	40	0	61865984	22	4842
2026-01-12 08:45:34.95	106.18	9.58	-30.8	-33.3	10.7	3.56e-03	0	40	0	63963136	22	4791
2026-01-12 08:45:35.95	106.08	9.65	-30.8	-33.2	10.7	2.65e-03	0	40	0	65011712	22	4775
2026-01-12 08:45:36.96	105.98	9.72	-30.7	-32.8	11.0	2.84e-03	0	40	0	67108864	22	4635
2026-01-12 08:45:37.97	105.89	9.80	-30.6	-32.6	11.2	1.57e-03	0	40	0	69206016	22	4533
2026-01-12 08:45:38.97	105.79	9.87	-30.7	-32.9	10.9	2.15e-03	0	40	0	71303168	22	4661
2026-01-12 08:45:39.97	105.69	9.94	-30.6	-32.8	11.0	1.98e-03	0	40	0	73400320	22	4624
2026-01-12 08:45:40.96	105.59	10.02	-30.6	-32.7	11.1	1.70e-03	0	40	0	74448896	22	4578
2026-01-12 08:45:41.96	105.50	10.09	-30.7	-33.0	10.9	2.37e-03	0	40	0	76546048	22	4677
2026-01-12 08:45:42.97	105.40	10.16	-30.6	-32.7	11.1	1.57e-03	0	41	0	78643200	22	4565
2026-01-12 08:45:43.98	105.30	10.24	-30.6	-32.8	11.0	1.62e-03	0	40	0	80740352	22	4602
2026-01-12 08:45:44.98	105.20	10.31	-30.7	-33.1	10.8	2.20e-03	0	40	0	82837504	22	4724
2026-01-12 08:45:45.98	105.10	10.38	-30.6	-32.7	11.1	1.71e-03	0	40	0	83886080	22	4577
2026-01-12 08:45:46.98	105.00	10.46	-30.7	-32.9	10.9	1.97e-03	0	41	0	85983232	22	4665
2026-01-12 08:45:47.98	104.89	10.53	-30.6	-32.7	11.2	1.77e-03	0	41	0	88080384	22	4556
2026-01-12 08:45:48.99	104.79	10.61	-30.7	-33.1	10.9	2.40e-03	0	41	0	90177536	22	4714
2026-01-12 08:45:50.00	104.69	10.68	-30.8	-33.3	10.7	3.15e-03	0	41	0	92274688	22	4813
2026-01-12 08:45:51.00	104.58	10.76	-30.7	-33.1	10.9	2.17e-03	0	41	0	93323264	22	4713
2026-01-12 08:45:52.01	104.48	10.83	-30.8	-33.2	10.8	2.19e-03	0	41	0	95420416	22	4759
2026-01-12 08:45:53.01	104.38	10.91	-30.7	-33.0	10.9	2.20e-03	0	41	0	97517568	22	4692
2026-01-12 08:45:54.02	104.27	10.98	-30.9	-33.5	10.6	2.87e-03	0	41	0	99614720	22	4859
2026-01-12 08:45:55.02	104.17	11.06	-30.6	-32.8	11.0	2.08e-03	0	41	0	101711872	22	4601
2026-01-12 08:45:56.02	104.06	11.13	-30.5	-32.3	11.4	9.64e-04	0	41	0	102760448	22	4434
2026-01-12 08:45:57.03	103.95	11.21	-30.4	-32.1	11.6	9.02e-04	0	41	0	104857600	22	4356
2026-01-12 08:45:58.03	103.85	11.28	-30.6	-32.5	11.3	9.69e-04	0	41	0	106954752	22	4491
2026-01-12 08:45:59.04	103.74	11.36	-30.7	-32.9	11.1	1.47e-03	0	41	0	109051904	22	4622
2026-01-12 08:46:00.05	103.63	11.44	-30.8	-33.4	10.7	2.04e-03	0	41	0	111149056	22	4822
2026-01-12 08:46:01.06	103.52	11.51	-30.7	-32.8	11.2	2.14e-03	0	41	0	112197632	22	4589
2026-01-12 08:46:02.06	103.41	11.59	-30.5	-32.4	11.4	1.11e-03	0	41	0	114294784	22	4447
2026-01-12 08:46:03.06	103.30	11.67	-30.5	-32.2	11.5	7.39e-04	0	41	0	116391936	22	4403
2026-01-12 08:46:04.07	103.19	11.74	-30.5	-32.3	11.5	8.67e-04	0	41	0	118489088	22	4429
2026-01-12 08:46:05.07	103.08	11.82	-30.5	-32.3	11.5	8.37e-04	0	41	0	120586240	22	4408
2026-01-12 08:46:06.07	102.97	11.90	-30.5	-32.2	11.6	6.26e-04	0	41	0	121634816	22	4383
2026-01-12 08:46:07.07	102.85	11.97	-30.5	-32.4	11.5	8.86e-04	0	41	0	123731968	22	4444
2026-01-12 08:46:08.08	102.74	12.05	-30.6	-32.7	11.2	1.15e-03	0	41	0	125829120	22	4561
2026-01-12 08:46:09.08	102.63	12.13	-30.6	-32.5	11.3	1.20e-03	0	41	0	127926272	22	4501
2026-01-12 08:46:10.08	102.51	12.20	-30.6	-32.4	11.4	9.56e-04	0	41	0	130023424	22	4467
2026-01-12 08:46:11.08	102.40	12.28	-30.6	-32.6	11.3	1.11e-03	0	41	0	131072000	22	4536
2026-01-12 08:46:12.08	102.28	12.36	-30.4	-31.9	11.8	5.00e-04	0	41	0	133169152	22	4285
2026-01-12 08:46:13.09	102.17	12.44	-30.3	-31.6	12.1	3.36e-04	0	41	0	135266304	22	4186
2026-01-12 08:46:14.10	102.05	12.52	-30.5	-32.1	11.7	3.43e-04	0	41	0	137363456	22	4350
2026-01-12 08:46:15.10	101.93	12.59	-30.5	-32.2	11.7	5.95e-04	0	41	0	138412032	22	4375
2026-01-12 08:46:16.11	101.81	12.67	-30.7	-32.7	11.3	7.86e-04	0	41	0	140509184	22	4553
2026-01-12 08:46:17.11	101.69	12.75	-30.7	-32.9	11.1	1.45e-03	0	41	0	142606336	22	4615
2026-01-12 08:46:18.11	101.57	12.83	-30.8	-33.0	11.2	1.41e-03	0	41	0	144703488	22	4641
2026-01-12 08:46:19.11	101.45	12.91	-30.7	-33.0	11.1	1.47e-03	0	41	0	146800640	22	4643
2026-01-12 08:46:20.12	101.33	12.98	-30.5	-32.2	11.7	8.75e-04	0	41	0	147849216	22	4363
2026-01-12 08:46:21.12	101.21	13.06	-30.6	-32.3	11.6	8.93e-04	0	41	0	149946368	22	4424
2026-01-12 08:46:22.13	101.09	13.14	-30.6	-32.6	11.4	8.28e-04	0	41	0	152043520	22	4507
2026-01-12 08:46:23.14	100.97	13.22	-30.7	-32.9	11.2	1.41e-03	0	41	0	154140672	22	4622
2026-01-12 08:46:24.14	100.84	13.30	-30.7	-32.8	11.2	1.28e-03	0	41	0	156237824	22	4600
2026-01-12 08:46:25.14	100.72	13.38	-30.7	-32.9	11.2	1.54e-03	0	41	0	157286400	22	4630
2026-01-12 08:46:26.14	100.60	13.46	-30.6	-32.5	11.5	1.00e-03	0	41	0	159383552	22	4487
2026-01-12 08:46:27.14	100.47	13.54	-30.6	-32.6	11.4	8.76e-04	0	41	0	161480704	22	4504
2026-01-12 08:46:28.15	100.34	13.62	-30.5	-32.3	11.6	6.39e-04	0	41	0	163577856	22	4408
2026-01-12 08:46:29.15	100.22	13.70	-30.4	-32.0	11.9	4.38e-04	0	41	0	165675008	22	4292
2026-01-12 08:46:30.16	100.09	13.78	-30.4	-31.9	11.9	4.62e-04	0	41	0	166723584	22	4264
2026-01-12 08:46:31.16	99.96	13.86	-30.3	-31.6	12.1	2.49e-04	0	41	0	168820736	22	4167
2026-01-12 08:46:32.17	99.83	13.94	-30.2	-31.7	12.4	1.98e-04	0	41	0	170917888	21	4294
2026-01-12 08:46:33.17	99.70	14.02	-30.1	-31.4	12.6	1.27e-04	0	41	0	173015040	21	4199
2026-01-12 08:46:34.17	99.57	14.10	-29.9	-31.0	12.8	9.84e-05	0	41	0	175112192	21	4074
2026-01-12 08:46:35.17	99.44	14.18	-30.1	-31.6	12.5	1.09e-04	0	41	0	176160768	21	4253
2026-01-12 08:46:36.18	99.31	14.26	-30.1	-31.4	12.6	6.94e-05	0	41	0	178257920	21	4193
2026-01-12 08:46:37.18	99.18	14.34	-29.9	-30.8	13.1	4.80e-05	0	41	0	180355072	21	4008
2026-01-12 08:46:38.19	99.04	14.42	-30.0	-31.2	12.7	5.18e-05	0	41	0	182452224	21	4139
2026-01-12 08:46:39.19	98.91	14.50	-29.9	-30.9	13.0	2.97e-05	0	41	0	184549376	21	4028
2026-01-12 08:46:40.20	98.78	14.58	-29.7	-30.9	13.3	2.21e-05	0	41	0	185597952	20	4107
2026-01-12 08:46:41.20	98.64	14.66	-29.8	-31.0	13.2	1.90e-05	0	41	0	187695104	20	4162
2026-01-12 08:46:42.20	98.50	14.75	-29.8	-31.0	13.2	3.35e-05	0	41	0	189792256	20	4159
2026-01-12 08:46:43.20	98.37	14.83	-29.9	-31.2	13.1	2.74e-05	0	41	0	191889408	20	4217
2026-01-12 08:46:44.21	98.23	14.91	-29.9	-31.4	13.0	3.89e-05	0	41	0	193986560	20	4267
2026-01-12 08:46:45.22	98.09	14.99	-29.9	-31.2	13.1	2.89e-05	0	41	0	195035136	20	4219
2026-01-12 08:46:46.22	97.95	15.07	-29.9	-31.4	13.0	3.35e-05	0	41	0	197132288	20	4270
2026-01-12 08:46:47.23	97.81	15.15	-30.0	-31.6	12.9	3.73e-05	0	41	0	199229440	20	4321
2026-01-12 08:46:48.23	97.67	15.24	-30.0	-31.5	13.0	3.20e-05	0	41	0	201326592	20	4293
2026-01-12 08:46:49.23	97.53	15.32	-30.1	-31.9	12.7	8.23e-05	0	41	0	203423744	20	4446
2026-01-12 08:46:50.24	97.39	15.40	-29.9	-31.4	13.0	4.73e-05	0	41	0	204472320	20	4280
2026-01-12 08:46:51.24	97.24	15.48	-29.8	-31.0	13.3	2.13e-05	0	41	0	206569472	20	4159
2026-01-12 08:46:52.24	97.10	15.56	-29.7	-30.7	13.5	1.60e-05	0	41	0	208666624	20	4063
2026-01-12 08:46:53.25	96.95	15.65	-29.7	-30.6	13.5	8.30e-06	0	41	0	210763776	20	4033
2026-01-12 08:46:54.25	96.81	15.73	-29.7	-30.9	13.4	9.90e-06	0	41	0	211812352	20	4103
2026-01-12 08:46:55.26	96.66	15.81	-29.8	-31.1	13.3	1.37e-05	0	41	0	213909504	20	4165
2026-01-12 08:46:56.27	96.51	15.89	-29.8	-31.1	13.3	2.89e-05	0	41	0	216006656	20	4172
2026-01-12 08:46:57.27	96.37	15.98	-29.9	-31.3	13.1	3.81e-05	0	41	0	218103808	20	4254
2026-01-12 08:46:58.27	96.22	16.06	-29.7	-30.7	13.5	2.13e-05	0	41	0	220200960	20	4051
2026-01-12 08:46:59.27	96.07	16.14	-29.6	-30.5	13.7	8.30e-06	0	41	0	221249536	20	4001
2026-01-12 08:47:00.28	95.92	16.23	-29.7	-30.7	13.5	7.60e-06	0	41	0	223346688	20	4053
2026-01-12 08:47:01.29	95.76	16.31	-29.7	-30.7	13.5	1.22e-05	0	41	0	225443840	20	4062
2026-01-12 08:47:02.29	95.61	16.39	-29.8	-31.2	13.1	1.75e-05	0	41	0	227540992	20	4235
2026-01-12 08:47:03.30	95.46	16.48	-29.8	-31.2	13.1	2.74e-05	0	41	0	229638144	20	4244
2026-01-12 08:47:04.30	95.31	16.56	-29.9	-31.6	12.8	3.20e-05	0	41	0	230686720	20	4366
2026-01-12 08:47:05.31	95.15	16.64	-29.9	-31.7	12.8	7.70e-05	0	41	0	232783872	20	4405
2026-01-12 08:47:06.31	94.99	16.73	-29.7	-30.9	13.3	2.74e-05	0	41	0	234881024	20	4154
2026-01-12 08:47:07.32	94.84	16.81	-29.7	-30.9	13.3	1.29e-05	0	41	0	236978176	20	4145
2026-01-12 08:47:08.33	94.68	16.89	-29.8	-31.3	13.0	2.67e-05	0	41	0	239075328	20	4289
2026-01-12 08:47:09.32	94.52	16.98	-30.0	-31.8	12.7	5.11e-05	0	41	0	240123904	20	4443
2026-01-12 08:47:10.33	94.36	17.06	-30.0	-31.8	12.8	7.01e-05	0	41	0	242221056	20	4431
2026-01-12 08:47:11.33	94.20	17.14	-30.0	-31.8	12.7	5.41e-05	0	41	0	244318208	20	4447
2026-01-12 08:47:12.33	94.04	17.23	-30.1	-32.0	12.6	6.17e-05	0	41	0	246415360	20	4515
2026-01-12 08:47:13.34	93.88	17.31	-30.2	-32.4	12.3	1.44e-04	0	41	0	248512512	20	4651
2026-01-12 08:47:14.35	93.72	17.40	-30.1	-32.2	12.5	1.43e-04	0	41	0	249561088	20	4565
2026-01-12 08:47:15.36	93.55	17.48	-30.3	-32.7	12.1	1.98e-04	0	41	0	251658240	20	4737
2026-01-12 08:47:16.36	93.39	17.56	-30.4	-33.0	11.9	3.26e-04	0	41	0	253755392	20	4880
2026-01-12 08:47:17.36	93.22	17.65	-30.4	-33.0	11.9	4.03e-04	0	41	0	255852544	20	4864
2026-01-12 08:47:18.37	93.05	17.73	-30.3	-32.7	12.2	3.20e-04	0	41	0	257949696	20	4728
2026-01-12 08:47:19.37	92.89	17.82	-30.3	-32.7	12.1	2.61e-04	0	41	0	258998272	20	4753
2026-01-12 08:47:20.38	92.72	17.90	-30.3	-32.6	12.2	2.78e-04	0	41	0	261095424	20	4718
2026-01-12 08:47:21.38	92.55	17.98	-30.4	-32.9	12.1	2.10e-04	0	42	0	263192576	20	4807
2026-01-12 08:47:22.38	92.38	18.07	-30.4	-32.3	12.1	2.99e-04	0	41	0	265289728	21	4509
2026-01-12 08:47:23.38	92.21	18.15	-30.5	-32.7	11.9	5.43e-04	0	41	0	267386880	21	4662
2026-01-12 08:47:24.39	92.03	18.24	-30.4	-32.4	12.0	5.26e-04	0	41	0	268435456	21	4534
2026-01-12 08:47:25.39	91.86	18.32	-30.3	-32.2	12.2	2.10e-04	0	42	0	270532608	21	4452
2026-01-12 08:47:26.40	91.69	18.40	-30.5	-32.8	11.8	3.55e-04	0	41	0	272629760	21	4671
2026-01-12 08:47:27.40	91.51	18.49	-30.5	-32.8	11.8	4.38e-04	0	41	0	274726912	21	4681
2026-01-12 08:47:28.41	91.33	18.57	-30.5	-32.8	11.9	4.42e-04	0	41	0	276824064	21	4663
2026-01-12 08:47:29.42	91.16	18.66	-30.5	-32.8	11.8	5.45e-04	0	42	0	277872640	21	4671
2026-01-12 08:47:30.43	90.98	18.74	-30.3	-32.0	12.3	3.39e-04	0	42	0	279969792	21	4409
2026-01-12 08:47:31.43	90.80	18.83	-30.2	-31.8	12.6	1.46e-04	0	41	0	282066944	21	4347
2026-01-12 08:47:32.44	90.62	18.91	-30.2	-31.7	12.6	1.36e-04	0	42	0	284164096	21	4297
2026-01-12 08:47:33.45	90.43	19.00	-30.1	-31.6	12.6	7.55e-05	0	42	0	286261248	21	4254
2026-01-12 08:47:34.45	90.25	19.08	-30.3	-32.1	12.3	9.99e-05	0	41	0	287309824	21	4421
2026-01-12 08:47:35.46	90.07	19.16	-30.3	-32.0	12.4	1.91e-04	0	41	0	289406976	21	4411
2026-01-12 08:47:36.46	89.88	19.25	-30.2	-31.9	12.4	1.43e-04	0	41	0	291504128	21	4360
2026-01-12 08:47:37.47	89.70	19.33	-30.1	-31.5	12.7	7.78e-05	0	41	0	293601280	21	4245
2026-01-12 08:47:38.47	89.51	19.42	-30.3	-32.1	12.3	1.01e-04	0	41	0	295698432	21	4445
2026-01-12 08:47:39.47	89.33	19.50	-30.5	-32.7	12.0	4.02e-04	0	41	0	296747008	21	4625
2026-01-12 08:47:40.48	89.14	19.59	-30.5	-32.8	11.9	4.11e-04	0	41	0	298844160	21	4659
2026-01-12 08:47:41.48	88.95	19.67	-30.6	-33.0	11.7	5.31e-04	0	41	0	300941312	21	4754
2026-01-12 08:47:42.48	88.76	19.75	-30.6	-32.9	11.8	5.72e-04	0	41	0	303038464	21	4706
2026-01-12 08:47:43.49	88.56	19.84	-30.3	-32.1	12.5	1.56e-04	0	42	0	305135616	21	4408
2026-01-12 08:47:44.50	88.37	19.92	-30.3	-31.9	12.5	1.65e-04	0	41	0	306184192	21	4367
2026-01-12 08:47:45.50	88.18	20.00	-30.3	-32.0	12.5	6.40e-05	0	41	0	308281344	21	4367
2026-01-12 08:47:46.51	87.98	20.09	-30.2	-31.8	12.6	6.79e-05	0	42	0	310378496	21	4327
2026-01-12 08:47:47.52	87.78	20.17	-30.1	-31.3	12.9	5.72e-05	0	41	0	312475648	21	4167
2026-01-12 08:47:48.53	87.59	20.26	-30.1	-31.5	12.8	6.86e-05	0	41	0	314572800	21	4221
2026-01-12 08:47:49.53	87.39	20.34	-30.1	-31.5	12.8	3.96e-05	0	41	0	315621376	21	4232
2026-01-12 08:47:50.53	87.19	20.42	-30.1	-31.4	12.9	4.65e-05	0	41	0	317718528	21	4190
2026-01-12 08:47:51.53	86.99	20.51	-30.2	-31.6	12.8	3.05e-05	0	41	0	319815680	21	4258
2026-01-12 08:47:52.54	86.79	20.59	-30.3	-31.9	12.6	1.01e-04	0	41	0	321912832	21	4339
2026-01-12 08:47:53.54	86.59	20.67	-30.1	-31.6	12.8	7.17e-05	0	41	0	322961408	21	4239
2026-01-12 08:47:54.55	86.38	20.76	-30.3	-32.0	12.5	9.84e-05	0	42	0	325058560	21	4392
2026-01-12 08:47:55.56	86.18	20.84	-30.3	-32.0	12.5	1.88e-04	0	42	0	327155712	21	4366
2026-01-12 08:47:56.56	85.97	20.92	-30.3	-32.1	12.4	1.47e-04	0	42	0	329252864	21	4417
2026-01-12 08:47:57.57	85.76	21.01	-30.2	-31.7	12.7	1.40e-04	0	42	0	331350016	21	4268
2026-01-12 08:47:58.57	85.56	21.09	-30.0	-31.2	13.0	4.57e-05	0	41	0	333447168	21	4124
2026-01-12 08:47:59.57	85.35	21.17	-29.9	-30.9	13.4	2.44e-05	0	41	0	334495744	21	4039
2026-01-12 08:48:00.57	85.14	21.25	-30.0	-31.1	13.1	1.83e-05	0	42	0	336592896	21	4092
2026-01-12 08:48:01.57	84.93	21.33	-29.8	-30.7	13.4	2.59e-05	0	42	0	338690048	21	3978
2026-01-12 08:48:02.58	84.71	21.42	-29.4	-30.0	14.1	9.90e-06	0	42	0	340787200	20	3865
2026-01-12 08:48:03.58	84.50	21.50	-29.4	-29.9	14.2	7.00e-07	0	41	0	341835776	20	3851
2026-01-12 08:48:04.59	84.28	21.58	-29.3	-30.4	14.3	7.00e-07	0	41	0	343932928	19	4053
2026-01-12 08:48:05.60	84.07	21.66	-29.3	-30.3	14.3	7.00e-07	0	41	0	346030080	19	4046
2026-01-12 08:48:06.60	83.85	21.74	-29.5	-30.7	14.0	7.00e-07	0	42	0	348127232	19	4172
2026-01-12 08:48:07.61	83.63	21.82	-29.5	-31.0	13.8	3.80e-06	0	41	0	350224384	19	4245
2026-01-12 08:48:08.62	83.41	21.91	-29.6	-31.2	13.8	6.10e-06	0	41	0	351272960	19	4295
2026-01-12 08:48:09.62	83.19	21.99	-29.6	-31.1	13.8	7.00e-07	0	42	0	353370112	19	4280
2026-01-12 08:48:10.63	82.97	22.07	-29.7	-31.3	13.7	6.10e-06	0	42	0	355467264	19	4336
2026-01-12 08:48:11.63	82.75	22.15	-29.7	-31.3	13.7	1.44e-05	0	42	0	357564416	19	4325
2026-01-12 08:48:12.64	82.52	22.23	-29.5	-30.9	13.9	5.30e-06	0	42	0	359661568	19	4203
2026-01-12 08:48:13.64	82.30	22.31	-29.4	-30.4	14.3	1.50e-06	0	42	0	360710144	19	4066
2026-01-12 08:48:14.65	82.07	22.39	-29.0	-29.6	14.8	0.00e+00	0	42	0	362807296	19	3837
2026-01-12 08:48:15.65	81.84	22.47	-29.1	-29.8	14.7	0.00e+00	0	41	0	364904448	19	3870
2026-01-12 08:48:16.66	81.61	22.55	-29.0	-29.4	14.9	0.00e+00	0	42	0	367001600	19	3790
2026-01-12 08:48:17.66	81.38	22.62	-28.8	-29.4	15.2	0.00e+00	0	41	0	369098752	18	3864
2026-01-12 08:48:18.66	81.15	22.70	-28.8	-29.5	15.2	0.00e+00	0	42	0	370147328	18	3895
2026-01-12 08:48:19.67	80.92	22.78	-29.0	-29.9	15.0	0.00e+00	0	41	0	372244480	18	3996
2026-01-12 08:48:20.67	80.69	22.86	-29.2	-30.6	14.6	7.00e-07	0	41	0	374341632	18	4188
2026-01-12 08:48:21.68	80.45	22.94	-29.3	-30.6	14.6	0.00e+00	0	41	0	376438784	18	4208
2026-01-12 08:48:22.69	80.21	23.02	-29.2	-30.5	14.6	0.00e+00	0	41	0	378535936	18	4179
2026-01-12 08:48:23.69	79.98	23.09	-29.0	-29.9	14.9	7.00e-07	0	41	0	379584512	18	4009
2026-01-12 08:48:24.70	79.74	23.17	-29.0	-29.9	15.0	0.00e+00	0	42	0	381681664	18	3989
2026-01-12 08:48:25.70	79.50	23.25	-28.9	-29.7	15.1	7.00e-07	0	42	0	383778816	18	3946
2026-01-12 08:48:26.70	79.26	23.32	-29.0	-30.0	14.9	0.00e+00	0	42	0	385875968	18	4016
2026-01-12 08:48:27.71	79.02	23.40	-28.8	-29.5	15.2	0.00e+00	0	41	0	387973120	18	3887
2026-01-12 08:48:28.71	78.77	23.47	-28.6	-28.9	15.5	0.00e+00	0	42	0	389021696	18	3737
2026-01-12 08:48:29.72	78.53	23.55	-28.7	-29.2	15.4	0.00e+00	0	42	0	391118848	18	3804
2026-01-12 08:48:30.72	78.28	23.62	-28.8	-29.3	15.3	0.00e+00	0	41	0	393216000	18	3849
2026-01-12 08:48:31.72	78.04	23.70	-28.9	-29.7	15.1	0.00e+00	0	42	0	395313152	18	3947
2026-01-12 08:48:32.73	77.79	23.77	-28.9	-29.8	15.0	7.00e-07	0	42	0	397410304	18	3962
2026-01-12 08:48:33.72	77.54	23.85	-29.1	-30.2	14.8	0.00e+00	0	41	0	398458880	18	4079
2026-01-12 08:48:34.72	77.30	23.92	-28.9	-29.7	15.1	0.00e+00	0	41	0	400556032	18	3950
2026-01-12 08:48:35.73	77.04	23.99	-28.8	-29.4	15.3	0.00e+00	0	42	0	402653184	18	3860
2026-01-12 08:48:36.73	76.79	24.07	-28.7	-29.1	15.5	0.00e+00	0	41	0	404750336	18	3781
2026-01-12 08:48:37.73	76.54	24.14	-28.7	-29.1	15.5	0.00e+00	0	42	0	406847488	18	3784
2026-01-12 08:48:38.73	76.29	24.21	-28.8	-29.3	15.4	0.00e+00	0	41	0	407896064	18	3838
2026-01-12 08:48:39.74	76.03	24.28	-28.8	-29.5	15.3	0.00e+00	0	41	0	409993216	18	3881
2026-01-12 08:48:40.74	75.77	24.35	-29.2	-30.3	14.8	2.20e-06	0	41	0	412090368	18	4113
2026-01-12 08:48:41.75	75.51	24.42	-29.3	-30.6	14.6	0.00e+00	0	42	0	414187520	18	4189
2026-01-12 08:48:42.76	75.25	24.49	-29.2	-30.3	14.7	0.00e+00	0	41	0	416284672	18	4117
2026-01-12 08:48:43.76	74.99	24.56	-29.5	-31.1	14.3	1.50e-06	0	42	0	417333248	18	4340
2026-01-12 08:48:44.77	74.73	24.63	-29.5	-30.7	14.3	7.00e-07	0	42	0	419430400	19	4127
2026-01-12 08:48:45.77	74.47	24.70	-29.6	-31.0	14.1	0.00e+00	0	42	0	421527552	19	4217
2026-01-12 08:48:46.78	74.20	24.77	-29.5	-30.5	14.4	2.20e-06	0	42	0	423624704	19	4064
2026-01-12 08:48:47.79	73.94	24.84	-29.4	-30.4	14.4	1.50e-06	0	42	0	425721856	19	4036
2026-01-12 08:48:48.79	73.67	24.91	-29.5	-30.5	14.4	0.00e+00	0	42	0	426770432	19	4079
2026-01-12 08:48:49.80	73.40	24.97	-29.4	-30.4	14.4	0.00e+00	0	41	0	428867584	19	4049
2026-01-12 08:48:50.81	73.13	25.04	-29.4	-30.5	14.4	7.00e-07	0	42	0	430964736	19	4065
2026-01-12 08:48:51.82	72.86	25.11	-29.4	-30.5	14.4	0.00e+00	0	42	0	433061888	19	4062
2026-01-12 08:48:52.82	72.59	25.17	-29.4	-30.4	14.4	3.00e-06	0	42	0	435159040	19	4022
2026-01-12 08:48:53.82	72.32	25.24	-29.6	-30.9	14.2	7.00e-07	0	42	0	436207616	19	4183
2026-01-12 08:48:54.82	72.05	25.30	-29.5	-30.8	14.2	2.20e-06	0	42	0	438304768	19	4139
2026-01-12 08:48:55.83	71.77	25.36	-29.2	-29.9	14.8	3.80e-06	0	42	0	440401920	19	3890
2026-01-12 08:48:56.83	71.50	25.43	-29.0	-29.3	15.1	0.00e+00	0	41	0	442499072	19	3741
2026-01-12 08:48:57.84	71.22	25.49	-28.9	-29.2	15.2	0.00e+00	0	42	0	443547648	19	3693
2026-01-12 08:48:58.84	70.94	25.55	-28.7	-29.2	15.5	3.00e-06	0	41	0	445644800	18	3792
2026-01-12 08:48:59.85	70.66	25.61	-28.5	-28.7	15.8	0.00e+00	0	42	0	447741952	18	3655
2026-01-12 08:49:00.86	70.38	25.67	-28.7	-29.0	15.6	0.00e+00	0	41	0	449839104	18	3745
2026-01-12 08:49:01.87	70.10	25.73	-28.6	-28.8	15.7	7.00e-07	0	42	0	451936256	18	3693
2026-01-12 08:49:02.87	69.82	25.79	-28.8	-29.3	15.5	0.00e+00	0	42	0	454033408	18	3820
2026-01-12 08:49:03.88	69.53	25.85	-28.6	-28.9	15.7	0.00e+00	0	42	0	455081984	18	3727
2026-01-12 08:49:04.88	69.25	25.91	-28.7	-29.1	15.6	0.00e+00	0	42	0	457179136	18	3762
2026-01-12 08:49:05.88	68.97	25.97	-29.0	-29.7	15.2	0.00e+00	0	42	0	459276288	18	3934
2026-01-12 08:49:06.89	68.68	26.02	-29.1	-30.0	15.0	0.00e+00	0	42	0	461373440	18	4017
2026-01-12 08:49:07.89	68.39	26.08	-29.2	-30.3	14.8	0.00e+00	0	42	0	462422016	18	4098
2026-01-12 08:49:08.89	68.11	26.13	-29.2	-30.3	14.9	0.00e+00	0	41	0	464519168	18	4086
2026-01-12 08:49:09.90	67.82	26.19	-29.3	-30.6	14.7	7.00e-07	0	42	0	466616320	18	4177
2026-01-12 08:49:10.91	67.53	26.24	-29.3	-30.7	14.6	0.00e+00	0	42	0	468713472	18	4216
2026-01-12 08:49:11.92	67.23	26.30	-29.3	-30.7	14.6	7.00e-07	0	42	0	470810624	18	4231
2026-01-12 08:49:12.92	66.94	26.35	-29.2	-30.3	14.8	0.00e+00	0	42	0	471859200	18	4106
2026-01-12 08:49:13.92	66.65	26.40	-29.3	-30.5	14.8	0.00e+00	0	42	0	473956352	18	4150
2026-01-12 08:49:14.93	66.35	26.45	-29.3	-30.6	14.7	1.50e-06	0	42	0	476053504	18	4180
2026-01-12 08:49:15.93	66.06	26.50	-29.4	-30.9	14.5	0.00e+00	0	42	0	478150656	18	4288
2026-01-12 08:49:16.94	65.76	26.55	-29.5	-30.8	14.3	1.50e-06	0	42	0	480247808	19	4140
2026-01-12 08:49:17.94	65.47	26.60	-29.6	-30.8	14.3	1.50e-06	0	42	0	481296384	19	4159
2026-01-12 08:49:18.94	65.17	26.65	-29.8	-31.4	13.8	4.50e-06	0	42	0	483393536	19	4343
2026-01-12 08:49:19.95	64.87	26.70	-30.0	-31.9	13.6	5.30e-06	0	42	0	485490688	19	4486
2026-01-12 08:49:20.95	64.57	26.74	-29.9	-31.1	13.7	8.30e-06	0	42	0	487587840	20	4160
2026-01-12 08:49:21.95	64.27	26.79	-30.0	-31.6	13.4	7.60e-06	0	42	0	489684992	20	4299
2026-01-12 08:49:22.96	63.97	26.84	-30.0	-31.3	13.5	9.10e-06	0	42	0	490733568	20	4213
2026-01-12 08:49:23.96	63.67	26.88	-30.2	-32.0	13.2	1.98e-05	0	42	0	492830720	20	4419
2026-01-12 08:49:24.97	63.37	26.92	-30.1	-31.6	13.4	2.97e-05	0	42	0	494927872	20	4310
2026-01-12 08:49:25.97	63.06	26.97	-30.0	-31.4	13.5	1.83e-05	0	42	0	497025024	20	4241
2026-01-12 08:49:26.97	62.76	27.01	-29.7	-30.8	13.9	4.50e-06	0	42	0	499122176	20	4048
2026-01-12 08:49:27.98	62.45	27.05	-29.8	-31.0	13.8	3.00e-06	0	42	0	500170752	20	4118
2026-01-12 08:49:28.98	62.15	27.09	-30.2	-32.0	13.1	2.20e-06	0	42	0	502267904	20	4442
2026-01-12 08:49:29.99	61.84	27.13	-30.3	-32.3	12.9	3.20e-05	0	42	0	504365056	20	4534
2026-01-12 08:49:31.00	61.53	27.17	-30.6	-32.5	12.4	1.27e-04	0	42	0	506462208	21	4522
2026-01-12 08:49:32.00	61.22	27.20	-30.8	-33.1	12.1	2.68e-04	0	42	0	508559360	21	4720
2026-01-12 08:49:33.01	60.91	27.24	-30.7	-33.1	12.1	1.62e-04	0	42	0	509607936	21	4715
2026-01-12 08:49:34.01	60.61	27.28	-30.9	-33.7	11.7	3.62e-04	0	42	0	511705088	21	4932
2026-01-12 08:49:35.01	60.30	27.31	-30.9	-33.2	11.6	1.02e-03	0	42	0	513802240	22	4659
2026-01-12 08:49:36.02	59.98	27.35	-31.2	-33.9	11.1	1.10e-03	0	42	0	515899392	22	4926
2026-01-12 08:49:37.02	59.67	27.38	-30.9	-33.1	11.6	8.60e-04	0	42	0	517996544	22	4649
2026-01-12 08:49:38.03	59.36	27.41	-30.9	-32.9	11.8	5.35e-04	0	42	0	519045120	22	4562
2026-01-12 08:49:39.04	59.05	27.44	-31.0	-33.3	11.6	6.38e-04	0	42	0	521142272	22	4691
2026-01-12 08:49:40.05	58.73	27.47	-30.9	-33.1	11.7	5.09e-04	0	42	0	523239424	22	4622
2026-01-12 08:49:41.05	58.42	27.50	-30.8	-32.7	11.9	4.25e-04	0	41	0	525336576	22	4490
2026-01-12 08:49:42.05	58.10	27.53	-30.4	-31.8	12.6	1.68e-04	0	41	0	527433728	22	4204
2026-01-12 08:49:43.06	57.79	27.56	-30.5	-31.9	12.5	1.01e-04	0	41	0	528482304	22	4237
2026-01-12 08:49:44.06	57.47	27.59	-30.6	-32.3	12.2	1.88e-04	0	42	0	530579456	22	4383
2026-01-12 08:49:45.06	57.16	27.61	-30.7	-32.6	12.0	3.13e-04	0	42	0	532676608	22	4478
2026-01-12 08:49:46.06	56.84	27.64	-30.5	-32.0	12.4	1.92e-04	0	42	0	534773760	22	4280
2026-01-12 08:49:47.06	56.53	27.66	-30.2	-31.7	12.9	6.94e-05	0	42	0	536870912	21	4268
2026-01-12 08:49:48.07	56.21	27.68	-30.0	-31.2	13.2	3.28e-05	0	41	0	537919488	21	4125
2026-01-12 08:49:49.07	55.89	27.71	-30.1	-31.4	13.1	2.97e-05	0	41	0	540016640	21	4188
2026-01-12 08:49:50.08	55.57	27.73	-30.0	-31.2	13.3	1.75e-05	0	42	0	542113792	21	4113
2026-01-12 08:49:51.08	55.25	27.75	-30.2	-31.6	13.0	2.44e-05	0	42	0	544210944	21	4233
2026-01-12 08:49:52.09	54.93	27.77	-30.2	-31.6	12.9	2.28e-05	0	42	0	545259520	21	4243
2026-01-12 08:49:53.09	54.61	27.78	-30.3	-32.0	12.7	3.66e-05	0	42	0	547356672	21	4372
2026-01-12 08:49:54.09	54.29	27.80	-30.8	-33.5	11.7	3.27e-04	0	42	0	549453824	21	4899
2026-01-12 08:49:55.10	53.97	27.82	-30.8	-33.4	11.7	8.79e-04	0	42	0	551550976	21	4860
2026-01-12 08:49:56.10	53.65	27.83	-31.0	-33.6	11.3	1.01e-03	0	42	0	553648128	22	4831
2026-01-12 08:49:57.11	53.33	27.85	-30.8	-32.9	11.8	4.58e-04	0	42	0	555745280	22	4572
2026-01-12 08:49:58.11	53.01	27.86	-30.7	-32.7	11.9	2.90e-04	0	42	0	556793856	22	4504
2026-01-12 08:49:59.11	52.69	27.87	-30.7	-32.5	12.0	2.36e-04	0	42	0	558891008	22	4429
2026-01-12 08:50:00.11	52.37	27.88	-30.6	-32.0	12.4	2.38e-04	0	42	0	560988160	22	4273
2026-01-12 08:50:01.12	52.04	27.89	-30.0	-30.9	13.4	3.50e-05	0	42	0	563085312	21	4010
2026-01-12 08:50:02.12	51.72	27.90	-29.4	-29.9	14.4	7.00e-07	0	41	0	564133888	20	3828
2026-01-12 08:50:03.13	51.40	27.91	-29.4	-29.9	14.4	2.20e-06	0	42	0	566231040	20	3824
2026-01-12 08:50:04.13	51.08	27.92	-29.7	-30.7	14.0	2.20e-06	0	42	0	568328192	20	4034
2026-01-12 08:50:05.14	50.75	27.92	-29.9	-31.1	13.7	3.80e-06	0	42	0	570425344	20	4150
2026-01-12 08:50:06.15	50.43	27.93	-30.1	-31.9	13.2	6.80e-06	0	42	0	572522496	20	4395
2026-01-12 08:50:07.15	50.11	27.93	-29.9	-31.2	13.6	9.10e-06	0	41	0	573571072	20	4191
2026-01-12 08:50:08.16	49.78	27.94	-29.9	-31.3	13.5	1.22e-05	0	42	0	575668224	20	4215
2026-01-12 08:50:09.17	49.46	27.94	-30.2	-32.2	13.0	2.05e-05	0	42	0	577765376	20	4497
2026-01-12 08:50:10.17	49.14	27.94	-30.3	-32.3	12.9	3.66e-05	0	42	0	579862528	20	4529
2026-01-12 08:50:11.18	48.81	27.94	-30.2	-32.2	13.0	4.65e-05	0	42	0	581959680	20	4498
2026-01-12 08:50:12.19	48.49	27.94	-30.0	-31.5	13.4	1.83e-05	0	42	0	583008256	20	4285
2026-01-12 08:50:13.19	48.17	27.94	-29.9	-31.2	13.7	8.30e-06	0	42	0	585105408	20	4180
2026-01-12 08:50:14.19	47.84	27.93	-29.9	-31.2	13.7	9.10e-06	0	42	0	587202560	20	4191
2026-01-12 08:50:15.19	47.52	27.93	-29.9	-31.1	13.7	5.30e-06	0	42	0	589299712	20	4157
2026-01-12 08:50:16.20	47.20	27.93	-30.0	-31.5	13.5	1.06e-05	0	42	0	591396864	20	4275
2026-01-12 08:50:17.21	46.87	27.92	-30.3	-32.3	12.9	3.50e-05	0	42	0	592445440	20	4543
2026-01-12 08:50:18.21	46.55	27.91	-30.2	-32.0	13.1	3.35e-05	0	42	0	594542592	20	4444
2026-01-12 08:50:19.21	46.23	27.91	-30.4	-32.5	12.7	4.04e-05	0	42	0	596639744	20	4617
2026-01-12 08:50:20.22	45.91	27.90	-30.5	-32.5	12.4	1.25e-04	0	42	0	598736896	21	4522
2026-01-12 08:50:21.22	45.59	27.89	-30.3	-32.0	12.9	7.09e-05	0	42	0	600834048	21	4336
2026-01-12 08:50:22.23	45.26	27.88	-30.4	-32.1	12.7	1.25e-04	0	42	0	601882624	21	4365
2026-01-12 08:50:23.23	44.94	27.86	-30.3	-31.8	12.8	6.25e-05	0	42	0	603979776	21	4300
2026-01-12 08:50:24.23	44.62	27.85	-30.1	-31.3	13.2	5.18e-05	0	42	0	606076928	21	4127
2026-01-12 08:50:25.24	44.30	27.84	-29.7	-30.6	14.0	6.80e-06	0	42	0	608174080	20	4000
2026-01-12 08:50:26.25	43.98	27.82	-29.8	-30.8	13.9	2.20e-06	0	42	0	610271232	20	4065
2026-01-12 08:50:27.26	43.66	27.81	-29.8	-30.9	13.8	2.20e-06	0	41	0	611319808	20	4093
2026-01-12 08:50:28.26	43.34	27.79	-29.7	-30.8	13.9	5.30e-06	0	42	0	613416960	20	4048
2026-01-12 08:50:29.27	43.02	27.77	-30.0	-31.4	13.5	1.44e-05	0	42	0	615514112	20	4251
2026-01-12 08:50:30.27	42.70	27.75	-30.0	-31.5	13.5	9.90e-06	0	42	0	617611264	20	4265
2026-01-12 08:50:31.28	42.38	27.73	-30.1	-31.8	13.2	3.28e-05	0	42	0	619708416	20	4369
2026-01-12 08:50:32.28	42.06	27.71	-30.1	-31.7	13.2	2.97e-05	0	42	0	620756992	20	4323
2026-01-12 08:50:33.29	41.74	27.69	-29.7	-30.5	14.0	1.14e-05	0	42	0	622854144	20	3982
2026-01-12 08:50:34.28	41.43	27.67	-29.7	-30.7	13.9	1.50e-06	0	42	0	624951296	20	4027
2026-01-12 08:50:35.29	41.11	27.64	-29.6	-30.5	14.1	1.50e-06	0	42	0	627048448	20	3958
2026-01-12 08:50:36.29	40.79	27.62	-29.8	-30.8	13.8	2.20e-06	0	42	0	629145600	20	4052
2026-01-12 08:50:37.30	40.48	27.59	-29.6	-30.3	14.1	4.50e-06	0	42	0	630194176	20	3902
2026-01-12 08:50:38.30	40.16	27.57	-29.4	-29.9	14.4	1.50e-06	0	42	0	632291328	20	3808
2026-01-12 08:50:39.30	39.85	27.54	-29.4	-29.9	14.4	0.00e+00	0	42	0	634388480	20	3794
2026-01-12 08:50:40.31	39.53	27.51	-29.5	-30.6	14.3	1.50e-06	0	41	0	636485632	19	4077
2026-01-12 08:50:41.31	39.22	27.48	-29.7	-31.1	14.0	2.20e-06	0	41	0	638582784	19	4244
2026-01-12 08:50:42.32	38.91	27.45	-29.5	-30.7	14.3	1.50e-06	0	42	0	639631360	19	4098
2026-01-12 08:50:43.31	38.60	27.42	-29.3	-30.1	14.7	7.00e-07	0	42	0	641728512	19	3930
2026-01-12 08:50:44.32	38.28	27.39	-29.5	-30.4	14.4	7.00e-07	0	42	0	643825664	19	4036
2026-01-12 08:50:45.33	37.97	27.35	-29.8	-31.3	13.9	5.30e-06	0	42	0	645922816	19	4277
2026-01-12 08:50:46.33	37.66	27.32	-30.0	-31.5	13.4	1.29e-05	0	42	0	646971392	20	4257
2026-01-12 08:50:47.34	37.35	27.29	-30.0	-31.4	13.5	2.36e-05	0	42	0	649068544	20	4235
2026-01-12 08:50:48.34	37.04	27.25	-29.7	-30.6	14.0	4.50e-06	0	42	0	651165696	20	3997
2026-01-12 08:50:49.35	36.73	27.21	-29.6	-30.3	14.2	1.50e-06	0	42	0	653262848	20	3915
2026-01-12 08:50:50.35	36.42	27.18	-29.3	-30.1	14.6	7.00e-07	0	42	0	655360000	19	3949
2026-01-12 08:50:51.37	36.11	27.14	-29.3	-30.0	14.8	7.00e-07	0	42	0	657457152	19	3902
2026-01-12 08:50:52.37	35.81	27.10	-29.2	-29.7	14.9	0.00e+00	0	42	0	658505728	19	3834
2026-01-12 08:50:53.38	35.50	27.06	-29.2	-29.8	14.9	0.00e+00	0	42	0	660602880	19	3852
2026-01-12 08:50:54.39	35.19	27.02	-29.3	-30.1	14.7	0.00e+00	0	42	0	662700032	19	3925
2026-01-12 08:50:55.39	34.89	26.98	-29.3	-30.1	14.7	0.00e+00	0	42	0	664797184	19	3928
2026-01-12 08:50:56.40	34.59	26.93	-29.5	-30.5	14.5	7.00e-07	0	42	0	665845760	19	4035
2026-01-12 08:50:57.41	34.28	26.89	-29.3	-30.0	14.7	0.00e+00	0	42	0	667942912	19	3900
2026-01-12 08:50:58.40	33.98	26.85	-29.2	-29.9	14.8	7.00e-07	0	42	0	670040064	19	3870
2026-01-12 08:50:59.41	33.68	26.80	-29.5	-30.6	14.4	7.00e-07	0	42	0	672137216	19	4070
2026-01-12 08:51:00.41	33.38	26.76	-29.6	-30.8	14.2	1.50e-06	0	42	0	674234368	19	4147
2026-01-12 08:51:01.42	33.08	26.71	-29.6	-30.8	14.2	0.00e+00	0	42	0	675282944	19	4156
2026-01-12 08:51:02.43	32.78	26.66	-29.7	-31.2	13.9	3.80e-06	0	42	0	677380096	19	4253
2026-01-12 08:51:03.44	32.48	26.61	-29.8	-31.4	13.9	2.20e-06	0	42	0	679477248	19	4318
2026-01-12 08:51:04.44	32.19	26.57	-30.0	-31.5	13.4	5.30e-06	0	42	0	681574400	20	4260
2026-01-12 08:51:05.45	31.89	26.52	-30.3	-32.2	12.9	1.75e-05	0	42	0	683671552	20	4497
2026-01-12 08:51:06.46	31.60	26.47	-30.4	-32.2	12.5	9.91e-05	0	42	0	685768704	21	4430
2026-01-12 08:51:07.47	31.30	26.41	-30.3	-32.0	12.7	8.08e-05	0	42	0	686817280	21	4342
2026-01-12 08:51:08.48	31.01	26.36	-30.3	-31.8	12.8	6.48e-05	0	42	0	688914432	21	4296
2026-01-12 08:51:09.48	30.72	26.31	-30.4	-32.0	12.7	5.56e-05	0	42	0	691011584	21	4354
2026-01-12 08:51:10.49	30.42	26.26	-30.4	-32.0	12.6	1.16e-04	0	42	0	693108736	21	4367
2026-01-12 08:51:11.50	30.13	26.20	-30.4	-32.3	12.5	1.27e-04	0	42	0	694157312	21	4448
2026-01-12 08:51:12.50	29.85	26.15	-30.5	-32.5	12.3	8.31e-05	0	42	0	696254464	21	4509
2026-01-12 08:51:13.51	29.56	26.09	-30.7	-33.1	11.9	2.26e-04	0	42	0	698351616	21	4721
2026-01-12 08:51:14.51	29.27	26.04	-30.9	-33.5	11.7	5.60e-04	0	42	0	700448768	21	4892
2026-01-12 08:51:15.51	28.99	25.98	-30.9	-33.2	11.4	1.16e-03	0	42	0	702545920	22	4685
2026-01-12 08:51:16.51	28.70	25.92	-30.6	-32.1	12.2	4.55e-04	0	42	0	703594496	22	4293
2026-01-12 08:51:17.51	28.42	25.87	-30.5	-31.8	12.4	1.99e-04	0	42	0	705691648	22	4203
2026-01-12 08:51:18.52	28.14	25.81	-30.3	-31.8	12.7	6.48e-05	0	42	0	707788800	21	4304
2026-01-12 08:51:19.53	27.86	25.75	-30.3	-31.8	12.9	6.48e-05	0	42	0	709885952	21	4297
2026-01-12 08:51:20.53	27.58	25.69	-30.0	-30.9	13.3	2.05e-05	0	42	0	711983104	21	4028
2026-01-12 08:51:21.54	27.30	25.63	-29.9	-30.9	13.3	1.60e-05	0	42	0	713031680	21	4017
2026-01-12 08:51:22.55	27.02	25.57	-30.1	-31.2	13.1	2.51e-05	0	42	0	715128832	21	4106
2026-01-12 08:51:23.55	26.74	25.50	-30.3	-31.8	12.7	6.63e-05	0	42	0	717225984	21	4292
2026-01-12 08:51:24.56	26.46	25.44	-30.1	-31.4	12.9	4.11e-05	0	42	0	719323136	21	4178
2026-01-12 08:51:25.57	26.19	25.38	-29.9	-30.9	13.2	3.05e-05	0	42	0	721420288	21	4035
2026-01-12 08:51:26.57	25.91	25.32	-29.5	-30.3	13.9	6.80e-06	0	42	0	722468864	20	3939
2026-01-12 08:51:27.58	25.64	25.25	-29.4	-30.4	14.3	0.00e+00	0	42	0	724566016	19	4041
2026-01-12 08:51:28.58	25.37	25.19	-29.1	-29.6	14.7	7.00e-07	0	42	0	726663168	19	3828
2026-01-12 08:51:29.58	25.10	25.12	-29.1	-29.7	14.7	0.00e+00	0	42	0	728760320	19	3863
2026-01-12 08:51:30.59	24.83	25.06	-29.4	-30.4	14.3	0.00e+00	0	42	0	730857472	19	4063
2026-01-12 08:51:31.60	24.56	24.99	-29.8	-31.6	13.5	3.00e-06	0	42	0	731906048	19	4422
2026-01-12 08:51:32.60	24.29	24.92	-30.0	-31.8	13.1	2.28e-05	0	42	0	734003200	20	4386
2026-01-12 08:51:33.61	24.03	24.86	-30.1	-32.0	12.9	4.50e-05	0	42	0	736100352	20	4476
2026-01-12 08:51:34.61	23.76	24.79	-30.3	-32.5	12.5	1.23e-04	0	42	0	738197504	20	4638
2026-01-12 08:51:35.61	23.50	24.72	-30.5	-32.6	12.1	1.40e-04	0	42	0	740294656	21	4584
2026-01-12 08:51:36.61	23.24	24.65	-30.5	-32.7	12.1	3.75e-04	0	42	0	741343232	21	4613
2026-01-12 08:51:37.61	22.98	24.59	-30.4	-32.2	12.3	1.76e-04	0	42	0	743440384	21	4467
2026-01-12 08:51:38.61	22.72	24.52	-30.5	-32.5	12.1	1.88e-04	0	42	0	745537536	21	4568
2026-01-12 08:51:39.62	22.46	24.45	-30.2	-31.7	12.7	1.55e-04	0	42	0	747634688	21	4280
2026-01-12 08:51:40.62	22.20	24.38	-30.1	-31.5	12.9	5.11e-05	0	42	0	749731840	21	4221
2026-01-12 08:51:41.63	21.95	24.30	-30.1	-31.4	12.9	3.12e-05	0	42	0	750780416	21	4198
2026-01-12 08:51:42.62	21.70	24.23	-30.1	-31.5	12.9	6.48e-05	0	42	0	752877568	21	4197
2026-01-12 08:51:43.63	21.44	24.16	-30.1	-31.3	13.0	5.64e-05	0	42	0	754974720	21	4142
2026-01-12 08:51:44.64	21.19	24.09	-30.2	-31.6	12.7	4.88e-05	0	42	0	757071872	21	4261
2026-01-12 08:51:45.64	20.93	24.02	-30.1	-31.5	12.8	5.72e-05	0	42	0	759169024	21	4225
2026-01-12 08:51:46.65	20.68	23.94	-30.5	-32.5	12.2	1.15e-04	0	42	0	760217600	21	4544
2026-01-12 08:51:47.66	20.43	23.87	-30.3	-31.8	12.6	1.07e-04	0	42	0	762314752	21	4316
2026-01-12 08:51:48.66	20.18	23.80	-30.0	-31.2	13.0	5.03e-05	0	42	0	764411904	21	4130
2026-01-12 08:51:49.66	19.94	23.72	-29.8	-30.7	13.4	2.28e-05	0	42	0	766509056	21	3964
2026-01-12 08:51:50.67	19.69	23.65	-29.7	-30.8	13.7	6.80e-06	0	42	0	768606208	20	4077
2026-01-12 08:51:51.67	19.45	23.57	-29.3	-29.8	14.3	5.30e-06	0	42	0	769654784	20	3786
2026-01-12 08:51:52.68	19.20	23.50	-29.3	-30.3	14.4	1.50e-06	0	42	0	771751936	19	4007
2026-01-12 08:51:53.67	18.96	23.42	-29.3	-30.2	14.4	1.50e-06	0	42	0	773849088	19	3987
2026-01-12 08:51:54.67	18.72	23.35	-29.3	-30.2	14.4	7.00e-07	0	42	0	775946240	19	3993
2026-01-12 08:51:55.68	18.48	23.27	-29.6	-30.9	14.0	1.50e-06	0	42	0	776994816	19	4198
2026-01-12 08:51:56.68	18.24	23.20	-29.5	-30.7	14.1	3.80e-06	0	42	0	779091968	19	4121
2026-01-12 08:51:57.69	18.01	23.12	-29.3	-30.1	14.4	7.00e-07	0	42	0	781189120	19	3978
2026-01-12 08:51:58.69	17.77	23.04	-29.0	-29.4	14.9	7.00e-07	0	42	0	783286272	19	3762
2026-01-12 08:51:59.70	17.53	22.97	-28.9	-29.1	15.0	0.00e+00	0	42	0	785383424	19	3692
2026-01-12 08:52:00.70	17.30	22.89	-28.9	-29.2	15.0	0.00e+00	0	42	0	786432000	19	3720
2026-01-12 08:52:01.70	17.07	22.81	-28.8	-29.0	15.1	7.00e-07	0	41	0	788529152	19	3680
2026-01-12 08:52:02.71	16.84	22.73	-28.6	-29.0	15.4	0.00e+00	0	42	0	790626304	18	3766
2026-01-12 08:52:03.72	16.60	22.65	-28.7	-29.1	15.3	0.00e+00	0	42	0	792723456	18	3784
2026-01-12 08:52:04.72	16.38	22.58	-28.5	-28.7	15.6	0.00e+00	0	41	0	794820608	18	3686
2026-01-12 08:52:05.73	16.15	22.50	-28.4	-28.3	15.8	0.00e+00	0	42	0	795869184	18	3584
2026-01-12 08:52:06.73	15.92	22.42	-28.3	-28.6	15.9	0.00e+00	0	42	0	797966336	17	3747
2026-01-12 08:52:07.73	15.70	22.34	-28.2	-28.4	16.0	0.00e+00	0	42	0	800063488	17	3686
2026-01-12 08:52:08.73	15.47	22.26	-28.3	-28.8	15.8	0.00e+00	0	42	0	802160640	17	3792
2026-01-12 08:52:09.73	15.25	22.18	-28.6	-29.6	15.3	0.00e+00	0	42	0	804257792	17	4008
2026-01-12 08:52:10.75	15.02	22.10	-28.9	-30.2	14.9	0.00e+00	0	42	0	805306368	17	4179
2026-01-12 08:52:11.75	14.80	22.02	-29.1	-30.1	14.7	0.00e+00	0	42	0	807403520	18	4061
2026-01-12 08:52:12.75	14.58	21.94	-29.2	-30.5	14.5	0.00e+00	0	42	0	809500672	18	4166
2026-01-12 08:52:13.75	14.37	21.86	-29.3	-30.8	14.2	2.20e-06	0	42	0	811597824	18	4270
2026-01-12 08:52:14.76	14.15	21.78	-29.6	-31.0	13.8	2.20e-06	0	42	0	813694976	19	4229
2026-01-12 08:52:15.76	13.93	21.70	-29.5	-30.8	14.0	6.80e-06	0	42	0	814743552	19	4153
2026-01-12 08:52:16.76	13.72	21.62	-29.4	-30.4	14.2	3.80e-06	0	42	0	816840704	19	4047
2026-01-12 08:52:17.77	13.50	21.53	-29.3	-30.2	14.4	0.00e+00	0	42	0	818937856	19	3991
2026-01-12 08:52:18.77	13.29	21.45	-29.2	-29.9	14.5	0.00e+00	0	41	0	821035008	19	3916
2026-01-12 08:52:19.77	13.08	21.37	-29.4	-30.4	14.2	0.00e+00	0	42	0	823132160	19	4063
2026-01-12 08:52:20.78	12.87	21.29	-29.4	-30.4	14.2	3.80e-06	0	42	0	824180736	19	4059
2026-01-12 08:52:21.78	12.66	21.21	-29.3	-30.3	14.2	7.00e-07	0	42	0	826277888	19	4022
2026-01-12 08:52:22.79	12.45	21.13	-29.4	-30.5	14.1	0.00e+00	0	42	0	828375040	19	4086
2026-01-12 08:52:23.79	12.24	21.04	-29.3	-30.2	14.3	7.00e-07	0	42	0	830472192	19	3996
2026-01-12 08:52:24.79	12.04	20.96	-28.8	-29.0	15.0	0.00e+00	0	41	0	832569344	19	3669
2026-01-12 08:52:25.80	11.83	20.88	-28.5	-28.7	15.5	0.00e+00	0	42	0	833617920	18	3672
2026-01-12 08:52:26.80	11.63	20.80	-28.1	-28.2	16.1	0.00e+00	0	41	0	835715072	17	3643
2026-01-12 08:52:27.81	11.42	20.71	-28.5	-29.1	15.6	0.00e+00	0	42	0	837812224	17	3867
2026-01-12 08:52:28.82	11.22	20.63	-28.4	-29.0	15.6	0.00e+00	0	42	0	839909376	17	3831
2026-01-12 08:52:29.82	11.02	20.55	-28.1	-28.3	16.0	0.00e+00	0	42	0	842006528	17	3678
2026-01-12 08:52:30.83	10.82	20.46	-28.4	-28.8	15.7	0.00e+00	0	42	0	843055104	17	3800
2026-01-12 08:52:31.83	10.62	20.38	-28.5	-29.2	15.5	0.00e+00	0	42	0	845152256	17	3898
2026-01-12 08:52:32.84	10.42	20.30	-28.5	-29.3	15.4	0.00e+00	0	42	0	847249408	17	3921
2026-01-12 08:52:33.85	10.22	20.21	-28.6	-29.3	15.4	0.00e+00	0	42	0	849346560	17	3936
2026-01-12 08:52:34.85	10.03	20.13	-28.7	-29.7	15.2	0.00e+00	0	42	0	850395136	17	4042
2026-01-12 08:52:35.85	9.84	20.05	-29.1	-30.2	14.6	0.00e+00	0	42	0	852492288	18	4083
2026-01-12 08:52:36.86	9.64	19.96	-28.7	-29.3	15.2	0.00e+00	0	42	0	854589440	18	3837
2026-01-12 08:52:37.87	9.45	19.88	-28.8	-29.4	15.1	0.00e+00	0	42	0	856686592	18	3858
2026-01-12 08:52:38.88	9.26	19.80	-28.6	-29.0	15.3	0.00e+00	0	42	0	858783744	18	3755
2026-01-12 08:52:39.88	9.07	19.71	-28.6	-28.8	15.4	0.00e+00	0	42	0	860880896	18	3717
2026-01-12 08:52:40.89	8.88	19.63	-28.7	-29.1	15.3	0.00e+00	0	42	0	861929472	18	3772
2026-01-12 08:52:41.90	8.69	19.54	-28.6	-28.9	15.4	0.00e+00	0	42	0	864026624	18	3735
2026-01-12 08:52:42.91	8.50	19.46	-28.8	-29.5	15.1	0.00e+00	0	42	0	866123776	18	3882
2026-01-12 08:52:43.91	8.32	19.38	-28.7	-29.3	15.2	0.00e+00	0	42	0	868220928	18	3835
2026-01-12 08:52:44.92	8.13	19.29	-28.8	-29.5	15.0	0.00e+00	0	42	0	870318080	18	3890
2026-01-12 08:52:45.93	7.95	19.21	-29.0	-30.0	14.7	7.00e-07	0	42	0	871366656	18	4034
2026-01-12 08:52:46.93	7.76	19.12	-28.9	-29.6	15.0	0.00e+00	0	42	0	873463808	18	3906
2026-01-12 08:52:47.94	7.58	19.04	-29.0	-30.0	14.7	0.00e+00	0	42	0	875560960	18	4023
2026-01-12 08:52:48.95	7.40	18.96	-29.0	-29.8	14.8	0.00e+00	0	42	0	877658112	18	3973
2026-01-12 08:52:49.95	7.22	18.87	-28.8	-29.4	15.1	0.00e+00	0	42	0	878706688	18	3869
2026-01-12 08:52:50.95	7.04	18.79	-28.7	-29.1	15.3	0.00e+00	0	42	0	880803840	18	3772
2026-01-12 08:52:51.96	6.86	18.70	-28.7	-29.2	15.2	0.00e+00	0	42	0	882900992	18	3800
2026-01-12 08:52:52.97	6.69	18.62	-28.4	-28.4	15.7	0.00e+00	0	42	0	884998144	18	3613
2026-01-12 08:52:53.97	6.51	18.54	-28.3	-28.7	15.8	0.00e+00	0	42	0	887095296	17	3766
2026-01-12 08:52:54.98	6.34	18.45	-28.4	-28.9	15.6	0.00e+00	0	42	0	889192448	17	3823
2026-01-12 08:52:55.99	6.16	18.37	-28.5	-29.2	15.4	0.00e+00	0	42	0	890241024	17	3911
2026-01-12 08:52:57.00	5.99	18.28	-28.7	-29.7	15.1	0.00e+00	0	42	0	892338176	17	4051
2026-01-12 08:52:57.99	5.82	18.20	-29.1	-30.2	14.6	0.00e+00	0	42	0	894435328	18	4082
2026-01-12 08:52:59.00	5.65	18.12	-29.4	-31.0	14.1	7.00e-07	0	42	0	896532480	18	4318
2026-01-12 08:53:00.01	5.48	18.03	-29.6	-31.0	13.7	3.80e-06	0	42	0	898629632	19	4230
2026-01-12 08:53:01.02	5.31	17.95	-29.8	-31.5	13.4	1.67e-05	0	42	0	899678208	19	4395
2026-01-12 08:53:02.02	5.14	17.86	-29.7	-31.2	13.6	9.10e-06	0	42	0	901775360	19	4297
2026-01-12 08:53:03.03	4.97	17.78	-29.6	-31.0	13.7	1.14e-05	0	42	0	903872512	19	4244
2026-01-12 08:53:04.03	4.81	17.70	-29.6	-31.0	13.7	5.30e-06	0	42	0	905969664	19	4236
2026-01-12 08:53:05.03	4.64	17.61	-29.5	-30.7	13.9	4.50e-06	0	42	0	907018240	19	4153
2026-01-12 08:53:06.04	4.48	17.53	-29.3	-30.3	14.2	2.20e-06	0	41	0	909115392	19	4029
2026-01-12 08:53:07.04	4.31	17.45	-29.1	-29.8	14.5	7.00e-07	0	42	0	911212544	19	3889
2026-01-12 08:53:08.05	4.15	17.36	-29.3	-30.2	14.2	1.50e-06	0	42	0	913309696	19	3994
2026-01-12 08:53:09.05	3.99	17.28	-29.2	-29.9	14.4	1.50e-06	0	42	0	915406848	19	3909
2026-01-12 08:53:10.06	3.83	17.19	-29.1	-29.6	14.6	0.00e+00	0	42	0	917504000	19	3839
2026-01-12 08:53:11.06	3.67	17.11	-29.2	-30.0	14.4	1.50e-06	0	42	0	918552576	19	3933
2026-01-12 08:53:12.06	3.51	17.03	-29.5	-30.6	14.0	7.00e-07	0	42	0	920649728	19	4116
2026-01-12 08:53:13.07	3.35	16.94	-29.3	-30.2	14.2	1.50e-06	0	42	0	922746880	19	4007
2026-01-12 08:53:14.07	3.20	16.86	-29.5	-30.9	13.8	3.00e-06	0	42	0	924844032	19	4195
2026-01-12 08:53:15.08	3.04	16.78	-29.8	-31.6	13.3	1.37e-05	0	42	0	925892608	19	4416
2026-01-12 08:53:16.09	2.88	16.69	-29.9	-31.5	13.0	2.44e-05	0	42	0	927989760	20	4301
2026-01-12 08:53:17.08	2.73	16.61	-30.1	-31.9	12.7	4.27e-05	0	42	0	930086912	20	4451
2026-01-12 08:53:18.09	2.58	16.53	-30.1	-32.0	12.6	9.15e-05	0	42	0	932184064	20	4475
2026-01-12 08:53:19.09	2.43	16.45	-30.0	-31.5	12.9	4.95e-05	0	42	0	934281216	20	4324
2026-01-12 08:53:20.09	2.28	16.36	-29.6	-30.7	13.5	2.59e-05	0	42	0	935329792	20	4064
2026-01-12 08:53:21.10	2.12	16.28	-29.6	-30.6	13.5	1.67e-05	0	42	0	937426944	20	4031
2026-01-12 08:53:22.10	1.97	16.20	-29.6	-30.6	13.6	6.80e-06	0	41	0	939524096	20	4023
2026-01-12 08:53:23.10	1.83	16.12	-29.7	-30.9	13.4	3.00e-06	0	42	0	941621248	20	4128
2026-01-12 08:53:24.11	1.68	16.03	-29.5	-30.3	13.7	1.14e-05	0	42	0	943718400	20	3949
2026-01-12 08:53:25.12	1.53	15.95	-29.5	-30.2	13.8	5.30e-06	0	42	0	944766976	20	3919
2026-01-12 08:53:26.12	1.38	15.87	-29.7	-30.9	13.4	1.37e-05	0	42	0	946864128	20	4119
2026-01-12 08:53:27.13	1.24	15.79	-29.9	-31.4	13.0	1.52e-05	0	42	0	948961280	20	4271
2026-01-12 08:53:28.13	1.09	15.70	-30.2	-32.2	12.5	9.46e-05	0	42	0	951058432	20	4542
2026-01-12 08:53:29.14	0.95	15.62	-30.0	-31.9	12.7	7.32e-05	0	42	0	953155584	20	4431
2026-01-12 08:53:30.15	0.80	15.54	-30.0	-31.7	12.8	8.01e-05	0	42	0	954204160	20	4378
2026-01-12 08:53:31.15	0.66	15.46	-30.3	-32.6	12.2	1.59e-04	0	42	0	956301312	20	4677
2026-01-12 08:53:32.15	0.52	15.38	-30.3	-32.5	12.2	1.72e-04	0	42	0	958398464	20	4666
2026-01-12 08:53:33.16	0.38	15.29	-30.3	-32.5	12.3	1.45e-04	0	42	0	960495616	20	4642
2026-01-12 08:53:34.17	0.24	15.21	-30.3	-32.4	12.3	1.37e-04	0	42	0	962592768	20	4619
2026-01-12 08:53:35.16	0.10	15.13	-30.1	-32.0	12.6	7.55e-05	0	42	0	963641344	20	4489
2026-01-12 08:53:36.16	359.96	15.05	-29.4	-30.0	13.8	2.13e-05	0	42	0	965738496	20	3880
2026-01-12 08:53:37.17	359.82	14.97	-29.3	-29.9	13.8	4.50e-06	0	42	0	967835648	20	3855
2026-01-12 08:53:38.17	359.69	14.89	-29.3	-30.3	14.0	7.00e-07	0	42	0	969932800	19	4040
2026-01-12 08:53:39.17	359.55	14.81	-29.3	-30.3	14.0	7.00e-07	0	42	0	972029952	19	4034
2026-01-12 08:53:40.18	359.41	14.73	-29.4	-30.5	13.9	6.80e-06	0	42	0	973078528	19	4104
2026-01-12 08:53:41.18	359.28	14.65	-29.4	-30.5	13.9	5.30e-06	0	42	0	975175680	19	4089
2026-01-12 08:53:42.19	359.15	14.56	-29.2	-30.1	14.1	1.50e-06	0	42	0	977272832	19	3993
2026-01-12 08:53:43.20	359.01	14.48	-29.3	-30.2	14.0	1.50e-06	0	42	0	979369984	19	4020
2026-01-12 08:53:44.20	358.88	14.40	-29.6	-31.0	13.5	6.10e-06	0	42	0	980418560	19	4260
2026-01-12 08:53:45.21	358.75	14.32	-29.5	-30.7	13.7	7.60e-06	0	42	0	982515712	19	4167
2026-01-12 08:53:46.22	358.62	14.24	-29.7	-31.3	13.4	9.90e-06	0	42	0	984612864	19	4350
2026-01-12 08:53:47.22	358.49	14.16	-29.7	-31.3	13.3	1.60e-05	0	42	0	986710016	19	4351
2026-01-12 08:53:48.23	358.36	14.08	-29.8	-31.6	13.1	3.28e-05	0	42	0	988807168	19	4446
2026-01-12 08:53:49.23	358.23	14.00	-29.8	-31.6	13.2	1.98e-05	0	42	0	990904320	19	4426
2026-01-12 08:53:50.23	358.10	13.92	-29.8	-31.5	13.2	2.36e-05	0	42	0	991952896	19	4424
2026-01-12 08:53:51.23	357.97	13.84	-29.8	-31.6	13.1	3.12e-05	0	42	0	994050048	19	4445
2026-01-12 08:53:52.23	357.85	13.76	-29.7	-31.3	13.3	1.90e-05	0	42	0	996147200	19	4337
2026-01-12 08:53:53.24	357.72	13.68	-29.8	-31.5	13.2	2.05e-05	0	42	0	998244352	19	4419
2026-01-12 08:53:54.25	357.59	13.60	-29.4	-30.7	13.6	1.60e-05	0	42	0	999292928	19	4158
2026-01-12 08:53:55.25	357.47	13.52	-29.5	-30.8	13.6	6.10e-06	0	42	0	1001390080	19	4186
2026-01-12 08:53:56.25	357.35	13.45	-29.6	-31.1	13.5	1.14e-05	0	42	0	1003487232	19	4271
2026-01-12 08:53:57.26	357.22	13.37	-29.6	-31.1	13.5	1.75e-05	0	42	0	1005584384	19	4278
2026-01-12 08:53:58.27	357.10	13.29	-29.8	-31.6	13.2	1.60e-05	0	42	0	1007681536	19	4427
2026-01-12 08:53:59.27	356.98	13.21	-29.9	-32.0	12.8	4.04e-05	0	42	0	1008730112	19	4574
2026-01-12 08:54:00.28	356.85	13.13	-30.1	-32.1	12.4	1.07e-04	0	42	0	1010827264	20	4532
2026-01-12 08:54:01.29	356.73	13.05	-30.1	-32.2	12.3	1.35e-04	0	42	0	1012924416	20	4574
2026-01-12 08:54:02.29	356.61	12.97	-30.4	-33.0	11.7	3.60e-04	0	42	0	1015021568	20	4870
2026-01-12 08:54:03.30	356.49	12.89	-30.4	-32.6	11.6	9.19e-04	0	42	0	1017118720	21	4638
2026-01-12 08:54:04.29	356.38	12.82	-30.5	-32.9	11.4	8.40e-04	0	42	0	1018167296	21	4724
2026-01-12 08:54:05.29	356.26	12.74	-30.6	-33.0	11.3	1.10e-03	0	42	0	1020264448	21	4789
2026-01-12 08:54:06.30	356.14	12.66	-30.5	-32.7	11.5	8.37e-04	0	42	0	1022361600	21	4679
2026-01-12 08:54:07.31	356.02	12.58	-30.5	-32.7	11.5	7.41e-04	0	42	0	1024458752	21	4674
2026-01-12 08:54:08.32	355.91	12.50	-30.5	-32.9	11.4	1.32e-03	0	42	0	1026555904	21	4730
2026-01-12 08:54:09.32	355.79	12.43	-30.2	-31.9	12.1	3.20e-04	0	42	0	1027604480	21	4387
2026-01-12 08:54:10.33	355.68	12.35	-29.6	-30.8	13.1	9.84e-05	0	42	0	1029701632	20	4129
2026-01-12 08:54:11.34	355.56	12.27	-29.5	-30.4	13.4	1.37e-05	0	42	0	1031798784	20	4005
2026-01-12 08:54:12.34	355.45	12.19	-29.4	-30.2	13.5	6.80e-06	0	42	0	1033895936	20	3936
2026-01-12 08:54:13.35	355.33	12.12	-29.3	-29.9	13.7	5.30e-06	0	42	0	1035993088	20	3866
2026-01-12 08:54:14.35	355.22	12.04	-29.4	-30.2	13.4	8.30e-06	0	42	0	1037041664	20	3959
2026-01-12 08:54:15.35	355.11	11.96	-29.5	-30.4	13.3	1.90e-05	0	42	0	1039138816	20	4014
2026-01-12 08:54:16.36	355.00	11.89	-29.7	-30.9	13.0	1.75e-05	0	42	0	1041235968	20	4159
2026-01-12 08:54:17.37	354.89	11.81	-29.8	-31.3	12.8	5.26e-05	0	42	0	1043333120	20	4273
2026-01-12 08:54:18.38	354.78	11.73	-30.0	-32.0	12.2	1.39e-04	0	42	0	1045430272	20	4513
2026-01-12 08:54:19.38	354.67	11.66	-30.2	-32.4	12.0	3.13e-04	0	42	0	1046478848	20	4654
2026-01-12 08:54:20.39	354.56	11.58	-30.4	-33.0	11.5	4.37e-04	0	42	0	1048576000	20	4887
2026-01-12 08:54:21.40	354.45	11.50	-30.6	-33.3	11.0	1.16e-03	0	42	0	1050673152	21	4909
2026-01-12 08:54:22.40	354.34	11.43	-30.8	-33.8	10.6	2.77e-03	0	42	0	1052770304	21	5093
2026-01-12 08:54:23.41	354.24	11.35	-30.8	-34.0	10.4	3.71e-03	0	42	0	1054867456	21	5198
2026-01-12 08:54:24.41	354.13	11.28	-30.9	-34.4	10.2	4.79e-03	0	42	0	1055916032	21	5343
2026-01-12 08:54:25.42	354.02	11.20	-30.9	-34.2	10.3	5.70e-03	0	42	0	1058013184	21	5263
2026-01-12 08:54:26.43	353.92	11.13	-30.8	-34.0	10.4	5.44e-03	0	42	0	1060110336	21	5203
2026-01-12 08:54:27.43	353.81	11.05	-30.9	-34.4	10.2	4.57e-03	0	42	0	1062207488	21	5338
2026-01-12 08:54:28.43	353.71	10.98	-30.9	-34.2	10.3	5.23e-03	0	42	0	1064304640	21	5266
2026-01-12 08:54:29.44	353.60	10.90	-30.6	-33.4	10.9	3.65e-03	0	42	0	1065353216	21	4940
2026-01-12 08:54:30.44	353.50	10.83	-30.7	-33.6	10.7	2.99e-03	0	42	0	1067450368	21	5040
2026-01-12 08:54:31.44	353.40	10.75	-30.7	-33.6	10.8	2.47e-03	0	42	0	1069547520	21	5010
2026-01-12 08:54:32.45	353.30	10.68	-30.7	-33.6	10.7	3.41e-03	0	42	0	1071644672	21	5016
2026-01-12 08:54:33.46	353.19	10.60	-30.6	-33.2	11.0	2.28e-03	0	42	0	1073741824	21	4870
2026-01-12 08:54:34.46	353.09	10.53	-30.7	-33.5	10.7	2.18e-03	0	42	0	1074790400	21	5009
2026-01-12 08:54:35.47	352.99	10.45	-30.7	-33.6	10.7	3.37e-03	0	42	0	1076887552	21	5032
2026-01-12 08:54:36.47	352.89	10.38	-30.6	-33.4	10.9	2.37e-03	0	42	0	1078984704	21	4937
2026-01-12 08:54:37.47	352.79	10.31	-30.7	-33.7	10.6	2.52e-03	0	42	0	1081081856	21	5088
2026-01-12 08:54:38.48	352.69	10.23	-30.8	-33.8	10.5	3.32e-03	0	42	0	1083179008	21	5124
2026-01-12 08:54:39.48	352.60	10.16	-30.8	-34.0	10.3	4.41e-03	0	42	0	1084227584	21	5205
2026-01-12 08:54:40.49	352.50	10.09	-30.9	-34.2	10.2	5.34e-03	0	42	0	1086324736	21	5271
2026-01-12 08:54:41.49	352.40	10.01	-30.9	-34.4	10.1	6.02e-03	0	42	0	1088421888	21	5359
2026-01-12 08:54:42.49	352.30	9.94	-31.0	-34.5	9.9	7.07e-03	0	42	0	1090519040	21	5442
2026-01-12 08:54:43.49	352.21	9.87	-31.0	-34.3	9.8	8.01e-03	0	42	0	1092616192	22	5227
2026-01-12 08:54:44.50	352.11	9.80	-31.1	-34.5	9.6	1.46e-02	0	42	0	1093664768	22	5312
2026-01-12 08:54:45.51	352.02	9.72	-31.0	-34.3	9.7	1.18e-02	0	42	0	1095761920	22	5254
2026-01-12 08:54:46.51	351.92	9.65	-31.0	-34.4	9.7	1.11e-02	0	42	0	1097859072	22	5265
2026-01-12 08:54:47.51	351.83	9.58	-31.0	-34.3	9.6	1.16e-02	0	42	0	1099956224	22	5271
2026-01-12 08:54:48.52	351.73	9.51	-31.0	-34.1	9.9	9.88e-03	0	42	0	1102053376	22	5165
2026-01-12 08:54:49.52	351.64	9.43	-30.9	-33.9	10.0	9.23e-03	0	42	0	1103101952	22	5089
2026-01-12 08:54:50.52	351.55	9.36	-30.9	-33.7	10.1	8.03e-03	0	42	0	1105199104	22	5013
2026-01-12 08:54:51.52	351.46	9.29	-30.9	-33.7	10.1	6.86e-03	0	42	0	1107296256	22	5001
2026-01-12 08:54:52.53	351.36	9.22	-30.9	-33.9	10.0	6.88e-03	0	42	0	1109393408	22	5099
2026-01-12 08:54:53.53	351.27	9.15	-31.0	-34.0	9.9	8.45e-03	0	42	0	1111490560	22	5132
2026-01-12 08:54:54.54	351.18	9.07	-30.7	-33.0	10.7	6.01e-03	0	42	0	1112539136	22	4721
2026-01-12 08:54:55.54	351.09	9.00	-30.7	-33.1	10.7	2.94e-03	0	42	0	1114636288	22	4760
2026-01-12 08:54:56.55	351.00	8.93	-30.3	-31.8	11.5	1.54e-03	0	42	0	1116733440	22	4304
2026-01-12 08:54:57.55	350.91	8.86	-30.2	-32.2	11.6	7.65e-04	0	42	0	1118830592	21	4504
2026-01-12 08:54:58.56	350.82	8.79	-30.3	-32.3	11.5	7.19e-04	0	42	0	1120927744	21	4553
2026-01-12 08:54:59.57	350.73	8.72	-30.3	-32.5	11.3	1.68e-03	0	42	0	1121976320	21	4613
2026-01-12 08:55:00.57	350.64	8.65	-30.3	-32.5	11.3	7.73e-04	0	42	0	1124073472	21	4608
2026-01-12 08:55:01.58	350.55	8.58	-30.3	-32.3	11.4	1.23e-03	0	42	0	1126170624	21	4570
2026-01-12 08:55:02.59	350.47	8.51	-30.4	-32.7	11.1	1.49e-03	0	42	0	1128267776	21	4709
2026-01-12 08:55:03.60	350.38	8.44	-30.4	-32.7	11.1	2.22e-03	0	42	0	1129316352	21	4686
2026-01-12 08:55:04.61	350.29	8.37	-30.4	-32.7	11.2	1.76e-03	0	42	0	1131413504	21	4695
2026-01-12 08:55:05.62	350.21	8.29	-30.3	-32.6	11.2	1.28e-03	0	42	0	1133510656	21	4654
2026-01-12 08:55:06.63	350.12	8.22	-30.4	-32.9	11.0	1.24e-03	0	42	0	1135607808	21	4785
2026-01-12 08:55:07.64	350.03	8.15	-30.5	-33.2	10.8	2.36e-03	0	42	0	1137704960	21	4918
2026-01-12 08:55:08.64	349.95	8.08	-30.7	-33.7	10.4	4.89e-03	0	42	0	1139802112	21	5100
2026-01-12 08:55:09.65	349.86	8.02	-30.6	-33.5	10.5	4.48e-03	0	42	0	1140850688	21	5031
2026-01-12 08:55:10.65	349.78	7.95	-30.8	-34.2	10.0	4.41e-03	0	42	0	1142947840	21	5312
2026-01-12 08:55:11.66	349.70	7.88	-30.6	-33.5	10.4	4.93e-03	0	42	0	1145044992	21	5044
2026-01-12 08:55:12.66	349.61	7.81	-30.7	-34.0	10.2	4.83e-03	0	42	0	1147142144	21	5226
2026-01-12 08:55:13.66	349.53	7.74	-30.9	-34.7	9.5	9.19e-03	0	42	0	1149239296	21	5563
2026-01-12 08:55:14.66	349.45	7.67	-30.9	-34.5	9.7	1.12e-02	0	42	0	1150287872	21	5460
2026-01-12 08:55:15.67	349.37	7.60	-30.9	-34.5	9.7	1.07e-02	0	42	0	1152385024	21	5489
2026-01-12 08:55:16.67	349.29	7.53	-30.9	-34.1	9.6	1.48e-02	0	42	0	1154482176	22	5189
2026-01-12 08:55:17.67	349.20	7.46	-30.8	-33.6	10.0	1.22e-02	0	42	0	1156579328	22	5003
2026-01-12 08:55:18.68	349.12	7.40	-30.8	-33.9	9.8	1.10e-02	0	42	0	1157627904	22	5117
2026-01-12 08:55:19.68	349.04	7.33	-30.9	-34.0	9.7	1.07e-02	0	42	0	1159725056	22	5139
2026-01-12 08:55:20.69	348.96	7.26	-30.8	-33.8	9.8	1.13e-02	0	42	0	1161822208	22	5102
2026-01-12 08:55:21.69	348.88	7.19	-30.8	-33.8	9.8	1.15e-02	0	42	0	1163919360	22	5082
2026-01-12 08:55:22.70	348.80	7.12	-30.8	-33.9	9.6	9.63e-03	0	42	0	1166016512	22	5147
2026-01-12 08:55:23.70	348.73	7.06	-32.8	-44.9	3.8	1.39e-01	0	42	104	1167065088	25	14526
2026-01-12 08:55:24.70	348.65	6.99	-33.1	-45.3	3.8	1.49e+00	0	42	104	1167065088	26	14620
2026-01-12 08:55:25.71	348.57	6.92	-33.3	-45.9	3.8	1.49e+00	0	42	104	1167065088	26	15308
2026-01-12 08:55:26.71	348.49	6.85	-33.5	-45.8	3.8	1.49e+00	0	42	104	1167065088	27	14767

#Closed at: 2026-01-12 08:55:27
#Recorded file [1167 MB]: D:/data/31010_260112_114500.dat