passes_logs/2026/01/12/R2M6_AANII_01/R2M6_AANII_01__20260112_002952_AQUA_rec.log

#Pass ID: 20260112_002952_AQUA
#Satellite: AQUA
#Configuration: AQUA
#almurnet v.1.7.20240730
#Start time: 2026-01-12 00:29:53

#Version: 2.2.20231116
#Station: R2M6_AANII_01
#Location: 30.233357 lon 59.946436 lat
#TLE: 1 27424U 02022A   26011.34052177  .00001139  00000+0  23789-3 0  9999
#TLE: 2 27424  98.4078 337.7066 0002035  82.6124  44.5301 14.61815662260355

#Time	Az	El	Level	Level2	SNR	BER	BlckErr	Temp	State	Recorded	gain1	gain2
2026-01-12 00:29:53.52	32.59	7.06	-31.3	-38.3	5.1	7.11e-01	0	39	0	0	23	8089
2026-01-12 00:29:54.51	32.70	7.13	-32.0	-41.2	4.8	7.12e-01	0	39	104	0	24	10377
2026-01-12 00:29:55.52	32.81	7.19	-32.0	-40.1	11.3	6.12e-01	0	39	0	0	24	9182
2026-01-12 00:29:56.52	32.92	7.26	-32.0	-40.2	11.2	6.09e-01	0	39	0	1572864	24	9286
2026-01-12 00:29:57.53	33.04	7.32	-31.9	-39.7	11.7	6.10e-01	0	39	0	3670016	24	8781
2026-01-12 00:29:58.54	33.15	7.39	-31.8	-38.8	12.4	6.06e-01	0	40	0	5242880	24	8127
2026-01-12 00:29:59.54	33.27	7.45	-30.6	-37.2	13.1	6.04e-01	0	39	0	7340032	23	7686
2026-01-12 00:30:00.54	33.38	7.52	-31.4	-37.7	13.8	6.02e-01	0	39	0	9437184	23	7399
2026-01-12 00:30:01.54	33.49	7.59	-31.2	-37.0	14.3	6.01e-01	0	39	0	11010048	23	7004
2026-01-12 00:30:02.55	33.61	7.65	-31.1	-36.8	14.7	6.02e-01	0	40	0	13107200	22	6971
2026-01-12 00:30:03.55	33.73	7.72	-30.9	-36.1	15.3	6.02e-01	0	40	0	14680064	22	6545
2026-01-12 00:30:04.56	33.84	7.79	-30.9	-36.0	15.5	5.99e-01	0	40	0	16777216	22	6479
2026-01-12 00:30:05.57	33.96	7.85	-30.9	-35.9	15.6	6.04e-01	0	40	0	18874368	22	6421
2026-01-12 00:30:06.57	34.08	7.92	-31.0	-36.4	15.3	6.02e-01	0	40	0	20447232	22	6692
2026-01-12 00:30:07.58	34.20	7.99	-31.1	-36.1	15.0	6.02e-01	0	40	0	22544384	23	6435
2026-01-12 00:30:08.58	34.32	8.05	-30.8	-35.7	15.8	6.00e-01	0	40	0	24117248	22	6323
2026-01-12 00:30:09.59	34.44	8.12	-30.6	-34.9	16.3	6.00e-01	0	40	0	26214400	22	5944
2026-01-12 00:30:10.60	34.56	8.19	-30.3	-34.5	17.0	6.01e-01	0	40	0	28311552	21	5849
2026-01-12 00:30:11.60	34.68	8.25	-30.0	-33.7	17.5	6.02e-01	0	40	0	29884416	21	5514
2026-01-12 00:30:12.61	34.80	8.32	-29.9	-33.4	17.7	6.00e-01	0	40	0	31981568	21	5376
2026-01-12 00:30:13.61	34.92	8.39	-29.9	-34.0	17.7	6.02e-01	0	40	0	33554432	20	5709
2026-01-12 00:30:14.62	35.04	8.46	-29.9	-33.8	17.9	6.01e-01	0	40	0	35651584	20	5624
2026-01-12 00:30:15.62	35.17	8.52	-29.9	-33.7	17.9	6.01e-01	0	40	0	37748736	20	5593
2026-01-12 00:30:16.63	35.29	8.59	-29.9	-33.8	17.8	6.01e-01	0	40	0	39321600	20	5630
2026-01-12 00:30:17.63	35.41	8.66	-30.0	-34.0	17.7	6.00e-01	0	40	0	41418752	20	5710
2026-01-12 00:30:18.64	35.54	8.73	-30.0	-33.9	17.8	6.00e-01	0	40	0	42991616	20	5687
2026-01-12 00:30:19.65	35.67	8.80	-30.0	-33.9	17.8	6.03e-01	0	40	0	45088768	20	5668
2026-01-12 00:30:20.66	35.79	8.86	-30.1	-34.3	17.6	6.03e-01	0	40	0	46661632	20	5824
2026-01-12 00:30:21.66	35.92	8.93	-30.1	-33.8	17.5	6.02e-01	0	40	0	48758784	21	5529
2026-01-12 00:30:22.67	36.05	9.00	-30.1	-33.9	17.5	6.01e-01	0	40	0	50855936	21	5559
2026-01-12 00:30:23.68	36.17	9.07	-30.1	-33.9	17.5	6.01e-01	0	40	0	52428800	21	5541
2026-01-12 00:30:24.68	36.30	9.14	-30.3	-34.3	17.2	6.01e-01	0	40	0	54525952	21	5711
2026-01-12 00:30:25.69	36.43	9.21	-30.2	-34.0	17.4	6.00e-01	0	40	0	56623104	21	5597
2026-01-12 00:30:26.70	36.56	9.27	-30.1	-33.7	17.6	6.01e-01	0	40	0	58195968	21	5471
2026-01-12 00:30:27.71	36.69	9.34	-30.0	-33.6	17.8	6.03e-01	0	40	0	60293120	21	5397
2026-01-12 00:30:28.71	36.82	9.41	-30.1	-33.7	17.7	6.02e-01	0	40	0	61865984	21	5454
2026-01-12 00:30:29.72	36.96	9.48	-30.0	-33.4	17.9	6.00e-01	0	40	0	63963136	21	5327
2026-01-12 00:30:30.73	37.09	9.55	-30.1	-33.7	17.7	6.00e-01	0	40	0	66060288	21	5449
2026-01-12 00:30:31.73	37.22	9.62	-30.0	-33.4	18.0	6.03e-01	0	40	0	67633152	21	5309
2026-01-12 00:30:32.74	37.36	9.69	-29.8	-33.0	18.3	6.02e-01	0	40	0	69730304	21	5155
2026-01-12 00:30:33.74	37.49	9.76	-29.8	-32.8	18.3	5.99e-01	0	40	0	71303168	21	5109
2026-01-12 00:30:34.75	37.63	9.83	-29.9	-33.1	18.2	6.01e-01	0	40	0	73400320	21	5190
2026-01-12 00:30:35.76	37.76	9.90	-29.8	-33.3	18.3	5.99e-01	0	40	0	74973184	20	5411
2026-01-12 00:30:36.76	37.90	9.97	-29.8	-33.2	18.4	6.00e-01	0	40	0	77070336	20	5369
2026-01-12 00:30:37.76	38.04	10.04	-29.8	-33.3	18.3	6.01e-01	0	40	0	79167488	20	5423
2026-01-12 00:30:38.77	38.17	10.11	-29.7	-33.1	18.3	6.00e-01	0	40	0	80740352	20	5345
2026-01-12 00:30:39.78	38.31	10.18	-29.8	-33.4	18.3	6.02e-01	0	40	0	82837504	20	5453
2026-01-12 00:30:40.79	38.45	10.25	-29.8	-33.4	18.1	6.03e-01	0	40	0	84934656	20	5458
2026-01-12 00:30:41.79	38.59	10.32	-29.8	-33.3	18.0	6.00e-01	0	40	0	86507520	20	5401
2026-01-12 00:30:42.80	38.73	10.39	-29.8	-33.4	18.3	6.02e-01	0	41	0	88604672	20	5434
2026-01-12 00:30:43.80	38.87	10.46	-29.7	-33.1	18.3	5.99e-01	0	40	0	90177536	20	5322
2026-01-12 00:30:44.81	39.02	10.53	-29.7	-33.2	18.4	6.02e-01	0	40	0	92274688	20	5359
2026-01-12 00:30:45.82	39.16	10.60	-29.7	-33.1	18.5	6.01e-01	0	40	0	94371840	20	5333
2026-01-12 00:30:46.82	39.30	10.67	-29.6	-32.7	18.7	6.00e-01	0	40	0	95944704	20	5168
2026-01-12 00:30:47.83	39.45	10.74	-29.6	-32.8	18.7	6.00e-01	0	41	0	98041856	20	5204
2026-01-12 00:30:48.84	39.59	10.81	-29.7	-33.0	18.6	6.03e-01	0	40	0	99614720	20	5270
2026-01-12 00:30:49.57	39.70	10.86	-29.7	-33.0	18.5	6.02e-01	0	40	0	101711872	20	5269
2026-01-12 00:30:50.86	39.89	10.95	-29.7	-33.0	18.6	6.00e-01	0	41	0	104333312	20	5289
2026-01-12 00:30:51.57	39.99	11.00	-29.8	-33.3	18.4	6.00e-01	0	41	0	105381888	20	5374
2026-01-12 00:30:52.87	40.18	11.09	-29.6	-32.8	18.7	6.03e-01	0	41	0	108003328	20	5210
2026-01-12 00:30:53.59	40.29	11.14	-29.6	-32.8	18.7	6.04e-01	0	41	0	109051904	20	5212
2026-01-12 00:30:54.88	40.48	11.23	-29.6	-32.8	18.7	6.03e-01	0	41	0	111673344	20	5202
2026-01-12 00:30:55.60	40.59	11.28	-29.5	-32.6	18.9	6.02e-01	0	41	0	113246208	20	5136
2026-01-12 00:30:56.89	40.78	11.38	-29.6	-32.9	18.7	6.02e-01	0	41	0	115343360	20	5222
2026-01-12 00:30:57.62	40.89	11.43	-29.7	-32.9	18.7	6.02e-01	0	40	0	116916224	20	5237
2026-01-12 00:30:58.91	41.09	11.52	-29.7	-32.9	18.8	6.02e-01	0	41	0	119013376	20	5219
2026-01-12 00:30:59.63	41.20	11.57	-29.8	-33.3	18.5	6.01e-01	0	41	0	120586240	20	5362
2026-01-12 00:31:00.92	41.39	11.66	-29.6	-32.6	19.0	6.02e-01	0	41	0	122683392	20	5102
2026-01-12 00:31:01.64	41.51	11.71	-29.5	-32.4	19.1	6.02e-01	0	41	0	124256256	20	5024
2026-01-12 00:31:02.93	41.71	11.80	-29.5	-32.5	19.0	6.03e-01	0	41	0	126877696	20	5060
2026-01-12 00:31:03.64	41.82	11.85	-29.5	-32.4	19.1	6.01e-01	0	41	0	127926272	20	5028
2026-01-12 00:31:04.94	42.02	11.95	-29.5	-32.4	19.1	6.02e-01	0	41	0	130547712	20	5027
2026-01-12 00:31:05.65	42.13	12.00	-29.6	-32.6	19.0	6.02e-01	0	41	0	131596288	20	5101
2026-01-12 00:31:06.95	42.34	12.09	-29.4	-32.0	19.4	6.01e-01	0	41	0	134217728	20	4895
2026-01-12 00:31:07.67	42.45	12.14	-29.4	-32.2	19.2	5.99e-01	0	41	0	135790592	20	4954
2026-01-12 00:31:08.97	42.66	12.23	-29.4	-32.3	19.2	6.02e-01	0	41	0	137887744	20	4980
2026-01-12 00:31:09.69	42.77	12.28	-29.5	-32.4	19.1	6.00e-01	0	41	0	139460608	20	5034
2026-01-12 00:31:10.98	42.98	12.38	-29.4	-32.3	19.1	6.02e-01	0	41	0	141557760	20	4993
2026-01-12 00:31:11.70	43.10	12.43	-29.4	-32.3	19.2	6.03e-01	0	41	0	143130624	20	4977
2026-01-12 00:31:12.99	43.31	12.52	-29.4	-32.2	19.3	6.01e-01	0	41	0	145752064	20	4945
2026-01-12 00:31:13.71	43.42	12.57	-29.4	-32.7	19.3	5.99e-01	0	41	0	146800640	19	5231
2026-01-12 00:31:15.00	43.64	12.66	-29.4	-32.6	19.4	6.02e-01	0	41	0	149422080	19	5189
2026-01-12 00:31:15.72	43.76	12.72	-29.5	-32.8	19.3	5.99e-01	0	41	0	150470656	19	5267
2026-01-12 00:31:17.02	43.97	12.81	-29.5	-32.8	19.3	6.02e-01	0	41	0	153092096	19	5253
2026-01-12 00:31:17.74	44.09	12.86	-29.5	-32.9	19.2	6.01e-01	0	41	0	154664960	19	5309
2026-01-12 00:31:19.03	44.31	12.95	-29.4	-32.7	19.3	6.02e-01	0	41	0	156762112	19	5238
2026-01-12 00:31:19.75	44.43	13.00	-29.4	-32.6	19.4	6.02e-01	0	41	0	158334976	19	5216
2026-01-12 00:31:21.04	44.65	13.10	-29.4	-32.7	19.3	6.02e-01	0	41	0	160432128	19	5260
2026-01-12 00:31:21.76	44.77	13.15	-29.5	-32.8	19.2	6.01e-01	0	41	0	162004992	19	5294
2026-01-12 00:31:23.05	44.99	13.24	-29.4	-32.6	19.2	6.00e-01	0	41	0	164626432	19	5228
2026-01-12 00:31:23.77	45.12	13.29	-29.4	-32.7	19.1	6.02e-01	0	41	0	165675008	19	5243
2026-01-12 00:31:25.07	45.34	13.39	-29.4	-32.6	19.1	6.02e-01	0	41	0	168296448	19	5227
2026-01-12 00:31:25.79	45.47	13.44	-29.3	-32.5	19.2	6.00e-01	0	41	0	169345024	19	5181
2026-01-12 00:31:27.08	45.69	13.53	-29.3	-32.5	19.2	6.02e-01	0	41	0	171966464	19	5171
2026-01-12 00:31:27.80	45.82	13.58	-29.4	-32.5	19.2	6.00e-01	0	41	0	173539328	19	5186
2026-01-12 00:31:29.10	46.05	13.68	-29.3	-32.5	19.2	6.01e-01	0	41	0	175636480	19	5164
2026-01-12 00:31:29.82	46.18	13.73	-29.4	-32.6	19.0	6.01e-01	0	41	0	177209344	19	5212
2026-01-12 00:31:31.11	46.41	13.82	-29.3	-32.4	19.2	6.02e-01	0	41	0	179306496	19	5157
2026-01-12 00:31:31.83	46.54	13.87	-29.3	-32.3	19.3	6.02e-01	0	41	0	180879360	19	5116
2026-01-12 00:31:33.13	46.77	13.97	-29.4	-32.6	19.2	6.02e-01	0	41	0	183500800	19	5205
2026-01-12 00:31:33.84	46.90	14.02	-29.3	-32.4	19.3	6.04e-01	0	41	0	184549376	19	5147
2026-01-12 00:31:35.13	47.13	14.11	-29.4	-32.6	19.5	6.02e-01	0	41	0	187170816	19	5191
2026-01-12 00:31:35.85	47.27	14.16	-29.4	-32.6	19.4	6.03e-01	0	41	0	188219392	19	5183
2026-01-12 00:31:37.14	47.50	14.25	-29.0	-32.3	17.5	6.01e-01	0	41	0	190840832	19	5255
2026-01-12 00:31:37.86	47.64	14.31	-28.5	-31.7	16.3	6.03e-01	0	41	0	192413696	19	5225
2026-01-12 00:31:39.16	47.88	14.40	-28.1	-31.8	15.1	6.04e-01	0	41	0	194510848	18	5527
2026-01-12 00:31:39.88	48.01	14.45	-28.4	-31.9	16.2	6.01e-01	0	41	0	196083712	18	5431
2026-01-12 00:31:41.17	48.25	14.54	-29.2	-32.3	18.8	6.02e-01	0	41	0	198180864	19	5125
2026-01-12 00:31:41.89	48.39	14.59	-29.3	-32.5	19.1	6.03e-01	0	41	0	199753728	19	5182
2026-01-12 00:31:43.18	48.63	14.69	-29.1	-33.2	17.3	6.01e-01	0	41	0	202375168	18	5760
2026-01-12 00:31:43.89	48.77	14.74	-29.0	-32.8	16.6	6.02e-01	0	41	0	203423744	19	5543
2026-01-12 00:31:45.18	49.02	14.83	-28.9	-32.4	16.8	6.00e-01	0	41	0	206045184	19	5381
2026-01-12 00:31:45.90	49.16	14.88	-29.0	-32.3	17.3	6.03e-01	0	41	0	207093760	19	5276
2026-01-12 00:31:47.19	49.41	14.97	-29.1	-32.3	18.0	6.00e-01	0	41	0	209715200	19	5208
2026-01-12 00:31:47.91	49.55	15.02	-29.2	-32.4	18.4	5.98e-01	0	41	0	211288064	19	5196
2026-01-12 00:31:49.20	49.80	15.12	-29.5	-32.9	18.6	6.00e-01	0	41	0	213385216	19	5320
2026-01-12 00:31:49.92	49.94	15.17	-29.6	-32.7	18.5	6.01e-01	0	41	0	214958080	20	5151
2026-01-12 00:31:51.22	50.20	15.26	-29.3	-32.1	18.6	6.00e-01	0	41	0	217055232	20	4972
2026-01-12 00:31:51.93	50.34	15.31	-29.1	-31.6	18.8	6.00e-01	0	41	0	218628096	20	4812
2026-01-12 00:31:53.23	50.60	15.40	-29.2	-32.2	19.4	5.99e-01	0	41	0	221249536	19	5051
2026-01-12 00:31:53.95	50.74	15.45	-29.3	-32.4	19.5	6.01e-01	0	41	0	222298112	19	5115
2026-01-12 00:31:55.24	51.00	15.54	-29.3	-32.2	19.7	6.03e-01	0	41	0	224919552	19	5038
2026-01-12 00:31:55.96	51.15	15.60	-29.4	-32.4	19.6	6.00e-01	0	41	0	225968128	19	5088
2026-01-12 00:31:57.25	51.41	15.69	-29.2	-31.9	19.9	6.01e-01	0	41	0	228589568	19	4932
2026-01-12 00:31:57.97	51.56	15.74	-29.3	-32.1	19.9	6.02e-01	0	41	0	229638144	19	4978
2026-01-12 00:31:59.27	51.82	15.83	-29.3	-32.2	19.8	6.02e-01	0	41	0	232259584	19	5040
2026-01-12 00:31:59.98	51.97	15.88	-29.4	-32.5	19.6	6.00e-01	0	41	0	233832448	19	5148
2026-01-12 00:32:01.27	52.24	15.97	-29.4	-32.6	19.5	6.00e-01	0	41	0	235929600	19	5165
2026-01-12 00:32:01.99	52.39	16.02	-29.5	-32.7	18.4	6.00e-01	0	41	0	237502464	19	5197
2026-01-12 00:32:03.29	52.66	16.11	-29.7	-32.8	19.1	6.02e-01	0	41	0	239599616	20	5132
2026-01-12 00:32:04.00	52.81	16.16	-29.7	-32.7	17.8	5.99e-01	0	41	0	241172480	20	5119
2026-01-12 00:32:05.29	53.08	16.25	-29.5	-32.6	19.6	6.04e-01	0	41	0	243793920	19	5187
2026-01-12 00:32:06.01	53.23	16.30	-29.4	-32.5	19.7	6.01e-01	0	41	0	244842496	19	5142
2026-01-12 00:32:07.30	53.51	16.39	-29.4	-32.6	19.6	6.02e-01	0	41	0	247463936	19	5156
2026-01-12 00:32:08.02	53.66	16.44	-29.4	-32.3	19.8	6.01e-01	0	41	0	248512512	19	5069
2026-01-12 00:32:09.31	53.94	16.53	-29.4	-32.1	19.5	5.99e-01	0	41	0	251133952	20	4883
2026-01-12 00:32:10.04	54.10	16.58	-29.5	-32.8	19.5	6.00e-01	0	41	0	252706816	19	5225
2026-01-12 00:32:11.33	54.38	16.67	-29.5	-32.6	19.5	6.00e-01	0	41	0	254803968	19	5171
2026-01-12 00:32:12.04	54.54	16.72	-29.2	-32.0	19.9	6.03e-01	0	41	0	256376832	19	4952
2026-01-12 00:32:13.34	54.82	16.81	-29.4	-32.4	19.7	6.03e-01	0	41	0	258473984	19	5089
2026-01-12 00:32:14.05	54.98	16.85	-29.6	-32.9	19.5	6.01e-01	0	41	0	260046848	19	5261
2026-01-12 00:32:15.35	55.27	16.94	-29.7	-32.9	19.1	6.02e-01	0	41	0	262668288	20	5165
2026-01-12 00:32:16.07	55.43	16.99	-29.7	-32.9	19.1	5.99e-01	0	41	0	263716864	20	5162
2026-01-12 00:32:17.36	55.72	17.08	-29.3	-32.3	19.9	5.98e-01	0	41	0	266338304	19	5038
2026-01-12 00:32:18.08	55.88	17.13	-29.2	-31.9	20.0	6.02e-01	0	41	0	267386880	19	4912
2026-01-12 00:32:19.37	56.17	17.22	-29.2	-31.9	20.1	6.01e-01	0	41	0	270008320	19	4903
2026-01-12 00:32:20.09	56.34	17.26	-29.3	-32.2	19.9	6.00e-01	0	41	0	271581184	19	5027
2026-01-12 00:32:21.39	56.63	17.35	-29.4	-32.4	19.8	6.01e-01	0	41	0	273678336	19	5072
2026-01-12 00:32:22.11	56.80	17.40	-29.4	-32.3	19.8	6.02e-01	0	41	0	275251200	19	5068
2026-01-12 00:32:23.40	57.10	17.48	-29.2	-31.9	20.2	6.00e-01	0	41	0	277872640	19	4898
2026-01-12 00:32:24.12	57.26	17.53	-29.1	-31.7	20.1	6.03e-01	0	42	0	278921216	19	4859
2026-01-12 00:32:25.41	57.56	17.62	-29.3	-32.3	19.8	6.00e-01	0	41	0	281542656	19	5046
2026-01-12 00:32:26.13	57.73	17.67	-29.3	-32.2	19.8	6.02e-01	0	41	0	282591232	19	5010
2026-01-12 00:32:27.43	58.04	17.75	-29.4	-32.4	19.8	6.00e-01	0	41	0	285212672	19	5099
2026-01-12 00:32:28.15	58.21	17.80	-29.5	-32.5	19.7	6.04e-01	0	41	0	286261248	19	5141
2026-01-12 00:32:29.43	58.51	17.88	-29.4	-32.5	19.7	6.02e-01	0	41	0	288882688	19	5128
2026-01-12 00:32:30.15	58.68	17.93	-29.5	-32.6	19.7	6.00e-01	0	41	0	290455552	19	5160
2026-01-12 00:32:31.44	58.99	18.01	-29.5	-32.6	19.7	6.03e-01	0	41	0	292552704	19	5150
2026-01-12 00:32:32.16	59.16	18.06	-29.5	-32.7	19.7	6.01e-01	0	41	0	294125568	19	5206
2026-01-12 00:32:33.46	59.47	18.14	-29.5	-32.6	19.7	6.00e-01	0	41	0	296222720	19	5142
2026-01-12 00:32:34.17	59.65	18.19	-29.4	-32.5	19.8	6.02e-01	0	41	0	297795584	19	5127
2026-01-12 00:32:35.46	59.96	18.27	-29.3	-32.2	19.9	5.99e-01	0	41	0	300417024	19	5011
2026-01-12 00:32:36.19	60.14	18.31	-29.3	-32.2	19.9	6.03e-01	0	41	0	301465600	19	5019
2026-01-12 00:32:37.48	60.46	18.39	-29.4	-32.5	19.8	6.05e-01	0	41	0	304087040	19	5119
2026-01-12 00:32:38.19	60.63	18.44	-29.4	-32.4	19.8	6.00e-01	0	41	0	305135616	19	5090
2026-01-12 00:32:39.49	60.95	18.52	-29.3	-32.1	20.0	6.00e-01	0	41	0	307757056	19	4983
2026-01-12 00:32:40.21	61.13	18.56	-29.3	-32.2	20.0	5.99e-01	0	41	0	309329920	19	4997
2026-01-12 00:32:41.50	61.45	18.64	-29.3	-32.1	20.0	6.02e-01	0	41	0	311427072	19	4990
2026-01-12 00:32:42.22	61.63	18.69	-29.3	-32.2	20.0	6.00e-01	0	41	0	312999936	19	5009
2026-01-12 00:32:43.52	61.96	18.77	-29.2	-31.9	20.1	6.00e-01	0	41	0	315097088	19	4911
2026-01-12 00:32:44.23	62.14	18.81	-29.2	-32.0	20.1	5.98e-01	0	41	0	316669952	19	4926
2026-01-12 00:32:45.52	62.47	18.89	-29.3	-32.1	20.0	6.01e-01	0	42	0	319291392	19	4961
2026-01-12 00:32:46.25	62.65	18.93	-29.2	-32.0	20.1	6.02e-01	0	41	0	320339968	19	4945
2026-01-12 00:32:47.54	62.98	19.01	-29.2	-32.0	20.0	6.01e-01	0	42	0	322961408	19	4937
2026-01-12 00:32:48.25	63.17	19.05	-29.3	-32.1	20.0	6.02e-01	0	41	0	324009984	19	4961
2026-01-12 00:32:49.55	63.50	19.12	-29.4	-32.3	19.9	6.02e-01	0	41	0	326631424	19	5054
2026-01-12 00:32:50.28	63.69	19.17	-29.4	-32.4	19.9	5.98e-01	0	41	0	328204288	19	5066
2026-01-12 00:32:51.57	64.03	19.24	-29.3	-32.2	19.9	6.00e-01	0	42	0	330301440	19	5027
2026-01-12 00:32:52.29	64.22	19.28	-29.4	-32.5	19.8	6.01e-01	0	41	0	331874304	19	5122
2026-01-12 00:32:53.59	64.56	19.36	-29.5	-32.2	19.6	6.04e-01	0	41	0	333971456	20	4925
2026-01-12 00:32:54.31	64.75	19.40	-29.4	-32.0	19.7	6.00e-01	0	41	0	335544320	20	4826
2026-01-12 00:32:55.60	65.09	19.47	-29.4	-32.4	19.9	5.98e-01	0	42	0	338165760	19	5074
2026-01-12 00:32:56.32	65.28	19.51	-29.4	-32.3	19.9	6.02e-01	0	41	0	339214336	19	5061
2026-01-12 00:32:57.61	65.62	19.58	-29.4	-32.3	19.8	6.01e-01	0	41	0	341835776	19	5053
2026-01-12 00:32:58.33	65.81	19.62	-29.4	-32.3	19.9	6.02e-01	0	41	0	342884352	19	5036
2026-01-12 00:32:59.63	66.16	19.69	-29.4	-32.4	19.9	6.01e-01	0	41	0	345505792	19	5067
2026-01-12 00:33:00.36	66.36	19.73	-29.4	-32.5	19.8	5.99e-01	0	41	0	347078656	19	5113
2026-01-12 00:33:01.65	66.71	19.80	-29.4	-32.4	19.2	6.02e-01	0	41	0	349175808	19	5071
2026-01-12 00:33:02.37	66.90	19.84	-29.4	-32.3	19.9	6.01e-01	0	41	0	350748672	19	5057
2026-01-12 00:33:03.66	67.25	19.90	-29.4	-32.5	19.8	6.00e-01	0	41	0	352845824	19	5117
2026-01-12 00:33:04.39	67.45	19.94	-29.6	-32.4	19.6	6.01e-01	0	42	0	354418688	20	4976
2026-01-12 00:33:05.69	67.81	20.01	-29.7	-32.7	19.3	6.01e-01	0	41	0	357040128	20	5105
2026-01-12 00:33:06.41	68.01	20.04	-29.5	-32.2	19.6	6.04e-01	0	42	0	358088704	20	4914
2026-01-12 00:33:07.71	68.37	20.11	-29.5	-32.6	19.7	6.01e-01	0	41	0	360710144	19	5168
2026-01-12 00:33:08.42	68.56	20.15	-29.6	-32.9	19.6	6.02e-01	0	42	0	361758720	19	5255
2026-01-12 00:33:09.72	68.92	20.21	-29.7	-32.6	19.4	6.00e-01	0	41	0	364380160	20	5052
2026-01-12 00:33:10.43	69.12	20.24	-29.9	-33.2	19.0	5.99e-01	0	41	0	365953024	20	5280
2026-01-12 00:33:11.73	69.49	20.31	-29.7	-32.7	19.3	6.03e-01	0	42	0	368050176	20	5104
2026-01-12 00:33:12.45	69.69	20.34	-29.5	-32.2	19.6	6.01e-01	0	42	0	369623040	20	4919
2026-01-12 00:33:13.74	70.05	20.40	-29.5	-32.7	19.7	6.00e-01	0	41	0	372244480	19	5181
2026-01-12 00:33:14.46	70.25	20.43	-29.8	-32.9	19.3	6.01e-01	0	42	0	373293056	20	5148
2026-01-12 00:33:15.76	70.62	20.49	-29.5	-32.2	19.5	6.01e-01	0	41	0	375914496	20	4925
2026-01-12 00:33:16.48	70.83	20.53	-29.5	-32.2	19.6	5.99e-01	0	41	0	376963072	20	4909
2026-01-12 00:33:17.77	71.20	20.58	-29.4	-31.9	19.8	6.00e-01	0	41	0	379584512	20	4813
2026-01-12 00:33:18.49	71.40	20.62	-29.4	-32.0	19.6	6.01e-01	0	41	0	381157376	20	4849
2026-01-12 00:33:19.78	71.77	20.67	-29.4	-31.8	19.9	6.01e-01	0	41	0	383254528	20	4769
2026-01-12 00:33:20.50	71.98	20.70	-29.4	-31.9	19.9	6.03e-01	0	41	0	384827392	20	4801
2026-01-12 00:33:21.80	72.35	20.76	-29.5	-32.1	19.8	6.01e-01	0	42	0	386924544	20	4856
2026-01-12 00:33:22.52	72.56	20.79	-29.4	-31.8	19.9	6.00e-01	0	41	0	388497408	20	4762
2026-01-12 00:33:23.81	72.94	20.84	-29.6	-32.4	19.5	6.02e-01	0	42	0	391118848	20	4985
2026-01-12 00:33:24.53	73.15	20.87	-29.5	-32.2	19.6	6.01e-01	0	42	0	392167424	20	4920
2026-01-12 00:33:25.82	73.52	20.92	-29.4	-31.9	19.8	6.01e-01	0	41	0	394788864	20	4806
2026-01-12 00:33:26.53	73.73	20.95	-29.4	-31.8	19.8	6.01e-01	0	41	0	395837440	20	4774
2026-01-12 00:33:27.82	74.11	21.00	-29.4	-31.8	19.9	6.01e-01	0	41	0	398458880	20	4774
2026-01-12 00:33:28.54	74.32	21.03	-29.5	-32.1	19.7	6.00e-01	0	41	0	399507456	20	4884
2026-01-12 00:33:29.82	74.70	21.07	-29.5	-32.2	19.6	6.03e-01	0	41	0	402128896	20	4915
2026-01-12 00:33:30.54	74.91	21.10	-29.4	-31.9	19.8	6.01e-01	0	41	0	403701760	20	4811
2026-01-12 00:33:31.83	75.29	21.15	-29.5	-32.3	19.6	6.00e-01	0	41	0	405798912	20	4926
2026-01-12 00:33:32.55	75.51	21.17	-29.5	-32.3	19.6	6.02e-01	0	42	0	407371776	20	4921
2026-01-12 00:33:33.85	75.89	21.21	-29.7	-32.7	19.3	6.02e-01	0	41	0	409468928	20	5095
2026-01-12 00:33:34.56	76.11	21.24	-29.7	-32.7	19.3	6.00e-01	0	42	0	411041792	20	5089
2026-01-12 00:33:35.86	76.49	21.28	-29.5	-32.2	19.6	6.01e-01	0	41	0	413663232	20	4906
2026-01-12 00:33:36.58	76.71	21.30	-29.5	-32.2	19.6	6.02e-01	0	41	0	414711808	20	4911
2026-01-12 00:33:37.87	77.10	21.35	-29.4	-32.0	19.8	5.99e-01	0	42	0	417333248	20	4820
2026-01-12 00:33:38.59	77.31	21.37	-29.6	-32.5	19.5	6.01e-01	0	42	0	418381824	20	5019
2026-01-12 00:33:39.88	77.70	21.41	-29.5	-32.1	19.8	6.00e-01	0	41	0	421003264	20	4854
2026-01-12 00:33:40.60	77.92	21.43	-29.5	-32.0	19.8	6.02e-01	0	41	0	422576128	20	4849
2026-01-12 00:33:41.89	78.31	21.46	-29.6	-32.4	19.5	5.99e-01	0	41	0	424673280	20	4961
2026-01-12 00:33:42.61	78.53	21.48	-29.5	-32.2	19.6	6.01e-01	0	41	0	426246144	20	4899
2026-01-12 00:33:43.91	78.93	21.52	-29.5	-32.1	19.7	6.03e-01	0	41	0	428343296	20	4854
2026-01-12 00:33:44.63	79.15	21.54	-29.6	-32.3	19.6	6.01e-01	0	42	0	429916160	20	4935
2026-01-12 00:33:45.92	79.54	21.57	-29.5	-32.3	19.6	6.02e-01	0	41	0	432537600	20	4937
2026-01-12 00:33:46.64	79.76	21.59	-29.6	-32.4	19.5	6.02e-01	0	42	0	433586176	20	4988
2026-01-12 00:33:47.93	80.15	21.62	-29.5	-32.2	19.7	6.03e-01	0	41	0	436207616	20	4898
2026-01-12 00:33:48.65	80.37	21.64	-29.7	-32.6	19.4	6.00e-01	0	41	0	437256192	20	5036
2026-01-12 00:33:49.94	80.77	21.67	-29.5	-32.2	19.6	6.00e-01	0	41	0	439877632	20	4912
2026-01-12 00:33:50.66	80.99	21.68	-29.6	-32.5	19.5	6.00e-01	0	42	0	441450496	20	4992
2026-01-12 00:33:51.96	81.39	21.71	-29.5	-32.6	19.8	5.99e-01	0	42	0	443547648	19	5135
2026-01-12 00:33:52.68	81.62	21.72	-29.4	-32.4	19.9	5.99e-01	0	41	0	445120512	19	5089
2026-01-12 00:33:53.97	82.01	21.75	-29.5	-32.7	19.7	6.02e-01	0	42	0	447217664	19	5193
2026-01-12 00:33:54.69	82.24	21.76	-29.5	-32.7	19.7	6.02e-01	0	42	0	448790528	19	5197
2026-01-12 00:33:55.98	82.64	21.78	-29.5	-32.1	19.7	6.01e-01	0	42	0	450887680	20	4882
2026-01-12 00:33:56.70	82.86	21.80	-29.6	-32.4	19.5	6.02e-01	0	42	0	452460544	20	4983
2026-01-12 00:33:57.99	83.26	21.82	-29.5	-32.2	19.7	6.00e-01	0	41	0	455081984	20	4899
2026-01-12 00:33:58.71	83.48	21.83	-29.9	-33.1	19.0	6.01e-01	0	41	0	456130560	20	5226
2026-01-12 00:34:00.01	83.89	21.85	-29.5	-32.1	19.6	6.01e-01	0	41	0	458752000	20	4886
2026-01-12 00:34:00.73	84.11	21.86	-29.4	-31.9	19.7	6.01e-01	0	42	0	459800576	20	4808
2026-01-12 00:34:02.02	84.51	21.87	-29.6	-32.8	19.7	6.03e-01	0	42	0	462422016	19	5219
2026-01-12 00:34:02.74	84.74	21.88	-29.6	-32.4	19.5	6.01e-01	0	42	0	463994880	20	4979
2026-01-12 00:34:04.04	85.14	21.90	-29.7	-32.7	19.3	6.02e-01	0	42	0	466092032	20	5091
2026-01-12 00:34:04.75	85.37	21.90	-29.6	-32.5	19.5	6.01e-01	0	42	0	467664896	20	5002
2026-01-12 00:34:06.04	85.77	21.91	-29.9	-32.6	19.0	6.03e-01	0	42	0	470286336	21	4943
2026-01-12 00:34:06.76	85.99	21.92	-29.8	-32.3	19.3	6.00e-01	0	42	0	471334912	21	4835
2026-01-12 00:34:08.05	86.40	21.93	-29.6	-32.0	19.4	6.02e-01	0	42	0	473956352	21	4716
2026-01-12 00:34:08.78	86.63	21.94	-29.6	-31.8	19.5	6.01e-01	0	41	0	475004928	21	4667
2026-01-12 00:34:10.07	87.03	21.94	-29.6	-31.9	19.5	6.01e-01	0	42	0	477626368	21	4705
2026-01-12 00:34:10.78	87.25	21.95	-29.7	-32.6	19.5	6.03e-01	0	42	0	478674944	20	5029
2026-01-12 00:34:12.07	87.66	21.95	-29.7	-32.8	19.3	6.02e-01	0	42	0	481296384	20	5118
2026-01-12 00:34:12.79	87.88	21.96	-29.8	-33.0	19.1	6.02e-01	0	42	0	482869248	20	5212
2026-01-12 00:34:14.09	88.29	21.96	-29.7	-32.6	19.4	6.03e-01	0	42	0	484966400	20	5050
2026-01-12 00:34:14.81	88.52	21.96	-29.6	-32.5	19.6	6.01e-01	0	42	0	486539264	20	4993
2026-01-12 00:34:16.10	88.92	21.96	-29.7	-32.7	19.3	6.01e-01	0	42	0	489160704	20	5083
2026-01-12 00:34:16.82	89.15	21.96	-29.8	-33.1	19.1	6.01e-01	0	41	0	490209280	20	5215
2026-01-12 00:34:18.11	89.55	21.96	-29.9	-33.3	19.0	6.02e-01	0	41	0	492830720	20	5316
2026-01-12 00:34:18.83	89.78	21.96	-29.9	-32.8	19.0	6.00e-01	0	41	0	493879296	21	5021
2026-01-12 00:34:20.12	90.18	21.96	-29.5	-32.1	19.7	5.98e-01	0	41	0	496500736	20	4885
2026-01-12 00:34:20.84	90.41	21.96	-29.5	-32.3	19.6	6.00e-01	0	41	0	497549312	20	4936
2026-01-12 00:34:22.12	90.81	21.95	-29.7	-32.7	19.2	6.02e-01	0	41	0	500170752	20	5102
2026-01-12 00:34:22.84	91.04	21.95	-30.0	-33.5	18.8	6.01e-01	0	41	0	501743616	20	5380
2026-01-12 00:34:24.14	91.44	21.94	-29.8	-33.0	18.8	6.02e-01	0	42	0	503840768	20	5193
2026-01-12 00:34:24.86	91.67	21.93	-29.8	-32.9	19.1	6.00e-01	0	42	0	505413632	20	5170
2026-01-12 00:34:26.15	92.07	21.93	-29.6	-32.5	19.5	6.03e-01	0	42	0	507510784	20	5001
2026-01-12 00:34:26.87	92.30	21.92	-29.6	-32.5	19.5	6.01e-01	0	42	0	509083648	20	5009
2026-01-12 00:34:28.16	92.70	21.91	-29.5	-32.2	19.7	6.05e-01	0	41	0	511705088	20	4919
2026-01-12 00:34:28.88	92.93	21.90	-29.5	-32.1	19.7	6.02e-01	0	41	0	512753664	20	4857
2026-01-12 00:34:30.17	93.33	21.89	-29.5	-32.2	19.7	5.99e-01	0	42	0	515375104	20	4914
2026-01-12 00:34:30.90	93.56	21.88	-29.4	-32.0	19.8	6.05e-01	0	41	0	516423680	20	4833
2026-01-12 00:34:32.19	93.96	21.86	-29.4	-31.8	19.8	6.01e-01	0	42	0	519045120	20	4778
2026-01-12 00:34:32.91	94.19	21.85	-29.6	-32.4	19.5	5.99e-01	0	42	0	520617984	20	4977
2026-01-12 00:34:34.21	94.59	21.83	-29.4	-31.8	19.8	6.04e-01	0	41	0	522715136	20	4776
2026-01-12 00:34:34.93	94.81	21.82	-29.3	-31.8	19.9	6.00e-01	0	41	0	524288000	20	4760
2026-01-12 00:34:36.22	95.22	21.80	-29.6	-32.4	19.6	6.00e-01	0	42	0	526385152	20	4975
2026-01-12 00:34:36.94	95.44	21.79	-29.6	-32.5	19.4	6.00e-01	0	42	0	527958016	20	5020
2026-01-12 00:34:38.23	95.84	21.77	-29.8	-33.1	19.1	6.01e-01	0	42	0	530579456	20	5229
2026-01-12 00:34:38.95	96.06	21.76	-30.0	-33.6	18.8	6.02e-01	0	42	0	531628032	20	5415
2026-01-12 00:34:40.24	96.46	21.73	-29.6	-32.4	19.5	5.99e-01	0	42	0	534249472	20	4962
2026-01-12 00:34:40.96	96.68	21.72	-29.6	-32.4	19.5	6.02e-01	0	42	0	535298048	20	4965
2026-01-12 00:34:42.25	97.08	21.69	-29.6	-32.5	19.5	6.00e-01	0	41	0	537919488	20	5001
2026-01-12 00:34:42.97	97.31	21.68	-29.8	-33.0	19.1	6.01e-01	0	42	0	539492352	20	5201
2026-01-12 00:34:44.26	97.70	21.65	-30.0	-33.4	18.9	6.00e-01	0	41	0	541589504	20	5352
2026-01-12 00:34:44.98	97.92	21.63	-29.7	-32.8	19.2	6.00e-01	0	41	0	543162368	20	5127
2026-01-12 00:34:46.28	98.32	21.60	-29.5	-32.2	19.6	6.02e-01	0	42	0	545259520	20	4908
2026-01-12 00:34:47.00	98.54	21.58	-29.6	-32.3	19.6	6.02e-01	0	42	0	546832384	20	4957
2026-01-12 00:34:48.29	98.94	21.55	-29.6	-32.5	19.4	6.01e-01	0	42	0	549453824	20	5009
2026-01-12 00:34:49.01	99.16	21.53	-29.5	-32.2	19.6	6.01e-01	0	41	0	550502400	20	4924
2026-01-12 00:34:50.30	99.55	21.50	-29.4	-32.0	19.7	6.00e-01	0	42	0	553123840	20	4841
2026-01-12 00:34:51.02	99.77	21.48	-29.5	-32.1	19.8	6.03e-01	0	42	0	554172416	20	4862
2026-01-12 00:34:52.31	100.16	21.44	-29.5	-32.3	19.5	6.01e-01	0	42	0	556793856	20	4945
2026-01-12 00:34:53.02	100.38	21.42	-29.5	-32.3	19.6	6.01e-01	0	42	0	558366720	20	4937
2026-01-12 00:34:54.32	100.77	21.38	-29.6	-32.4	19.5	6.01e-01	0	42	0	560463872	20	4978
2026-01-12 00:34:55.04	100.99	21.36	-29.7	-32.8	19.3	6.01e-01	0	42	0	562036736	20	5116
2026-01-12 00:34:56.34	101.38	21.32	-29.7	-32.9	19.2	6.02e-01	0	42	0	564133888	20	5147
2026-01-12 00:34:57.06	101.60	21.30	-29.8	-32.9	19.1	5.99e-01	0	42	0	565706752	20	5155
2026-01-12 00:34:58.35	101.98	21.26	-29.7	-32.7	19.3	6.02e-01	0	42	0	568328192	20	5082
2026-01-12 00:34:59.07	102.20	21.23	-30.1	-33.3	18.6	5.99e-01	0	42	0	569376768	21	5194
2026-01-12 00:35:00.36	102.59	21.19	-29.7	-32.3	19.2	6.03e-01	0	42	0	571998208	21	4837
2026-01-12 00:35:01.08	102.80	21.16	-29.8	-32.5	19.1	6.00e-01	0	42	0	573046784	21	4911
2026-01-12 00:35:02.38	103.19	21.12	-29.7	-32.2	19.3	6.01e-01	0	41	0	575668224	21	4791
2026-01-12 00:35:03.09	103.40	21.09	-29.7	-32.2	19.3	6.00e-01	0	42	0	577241088	21	4799
2026-01-12 00:35:04.38	103.78	21.04	-29.8	-32.9	19.2	6.02e-01	0	42	0	579338240	20	5160
2026-01-12 00:35:05.10	103.99	21.02	-29.8	-33.0	19.1	6.00e-01	0	42	0	580911104	20	5217
2026-01-12 00:35:06.39	104.37	20.97	-29.9	-33.2	18.9	6.00e-01	0	42	0	583008256	20	5265
2026-01-12 00:35:07.11	104.58	20.94	-29.7	-32.6	19.3	6.01e-01	0	42	0	584581120	20	5050
2026-01-12 00:35:08.40	104.96	20.89	-29.4	-32.0	19.7	6.02e-01	0	42	0	587202560	20	4856
2026-01-12 00:35:09.12	105.17	20.86	-29.4	-32.0	19.7	6.02e-01	0	42	0	588251136	20	4826
2026-01-12 00:35:10.41	105.55	20.81	-29.4	-32.4	19.8	6.00e-01	0	42	0	590872576	19	5100
2026-01-12 00:35:11.13	105.76	20.78	-29.5	-32.5	19.8	6.02e-01	0	42	0	591921152	19	5132
2026-01-12 00:35:12.42	106.13	20.72	-29.4	-32.3	19.9	6.00e-01	0	42	0	594542592	19	5055
2026-01-12 00:35:13.14	106.34	20.69	-29.4	-32.4	19.8	6.01e-01	0	42	0	595591168	19	5100
2026-01-12 00:35:14.43	106.71	20.64	-29.5	-32.8	19.6	6.02e-01	0	41	0	598212608	19	5221
2026-01-12 00:35:15.15	106.92	20.60	-29.5	-32.7	19.6	6.02e-01	0	42	0	599785472	19	5192
2026-01-12 00:35:16.43	107.28	20.55	-29.4	-32.3	19.8	6.02e-01	0	42	0	601882624	19	5048
2026-01-12 00:35:17.15	107.49	20.51	-29.3	-32.1	20.0	6.03e-01	0	42	0	603455488	19	4993
2026-01-12 00:35:18.45	107.86	20.46	-29.4	-32.3	19.8	6.00e-01	0	41	0	606076928	19	5058
2026-01-12 00:35:19.17	108.06	20.42	-29.5	-32.6	19.7	6.02e-01	0	42	0	607125504	19	5157
2026-01-12 00:35:20.46	108.43	20.36	-29.4	-31.9	19.7	6.02e-01	0	42	0	609746944	20	4826
2026-01-12 00:35:21.18	108.63	20.33	-29.4	-32.0	19.6	6.01e-01	0	42	0	610795520	20	4857
2026-01-12 00:35:22.47	109.00	20.26	-29.5	-32.3	19.5	6.00e-01	0	42	0	613416960	20	4954
2026-01-12 00:35:23.19	109.20	20.23	-29.6	-32.4	19.4	6.02e-01	0	41	0	614465536	20	4994
2026-01-12 00:35:24.49	109.56	20.17	-29.5	-32.1	19.5	6.03e-01	0	42	0	617086976	20	4890
2026-01-12 00:35:25.21	109.76	20.13	-29.5	-32.2	19.5	6.01e-01	0	42	0	618659840	20	4926
2026-01-12 00:35:26.51	110.12	20.06	-29.4	-31.9	19.7	6.01e-01	0	42	0	620756992	20	4826
2026-01-12 00:35:27.23	110.32	20.03	-29.3	-32.2	19.9	6.01e-01	0	42	0	622329856	19	5034
2026-01-12 00:35:28.52	110.68	19.96	-29.4	-32.3	19.9	6.00e-01	0	41	0	624427008	19	5060
2026-01-12 00:35:29.25	110.88	19.92	-29.4	-32.4	19.8	6.00e-01	0	42	0	625999872	19	5073
2026-01-12 00:35:30.55	111.23	19.86	-29.3	-32.1	20.0	6.03e-01	0	42	0	628621312	19	4987
2026-01-12 00:35:31.27	111.43	19.82	-29.2	-32.1	20.0	6.01e-01	0	42	0	629669888	19	4975
2026-01-12 00:35:32.56	111.78	19.75	-29.3	-32.3	19.8	6.03e-01	0	42	0	632291328	19	5047
2026-01-12 00:35:33.28	111.97	19.71	-29.5	-32.6	19.6	6.01e-01	0	42	0	633339904	19	5191
2026-01-12 00:35:34.57	112.32	19.64	-29.4	-32.4	19.7	6.02e-01	0	41	0	635961344	19	5108
2026-01-12 00:35:35.29	112.52	19.60	-29.4	-32.4	19.8	6.01e-01	0	42	0	637534208	19	5090
2026-01-12 00:35:36.58	112.86	19.53	-29.4	-32.4	19.8	6.02e-01	0	41	0	639631360	19	5095
2026-01-12 00:35:37.29	113.05	19.49	-29.4	-32.4	19.8	6.02e-01	0	42	0	641204224	19	5104
2026-01-12 00:35:38.58	113.39	19.42	-29.5	-32.7	19.6	6.00e-01	0	42	0	643301376	19	5221
2026-01-12 00:35:39.30	113.58	19.38	-29.4	-32.6	19.6	6.01e-01	0	42	0	644874240	19	5180
2026-01-12 00:35:40.59	113.92	19.30	-29.5	-32.7	19.6	6.01e-01	0	41	0	647495680	19	5226
2026-01-12 00:35:41.31	114.11	19.26	-29.5	-32.8	19.5	5.99e-01	0	42	0	648544256	19	5259
2026-01-12 00:35:42.61	114.45	19.19	-29.6	-32.6	19.2	5.97e-01	0	42	0	651165696	20	5093
2026-01-12 00:35:43.32	114.64	19.15	-29.6	-32.6	19.2	6.04e-01	0	42	0	652214272	20	5065
2026-01-12 00:35:44.61	114.97	19.07	-29.6	-32.4	19.3	6.01e-01	0	42	0	654835712	20	5012
2026-01-12 00:35:45.33	115.16	19.03	-29.6	-32.5	19.2	5.98e-01	0	42	0	656408576	20	5050
2026-01-12 00:35:46.62	115.49	18.95	-29.3	-31.8	19.7	6.00e-01	0	42	0	658505728	20	4801
2026-01-12 00:35:47.34	115.68	18.91	-29.2	-31.5	19.9	6.02e-01	0	42	0	660078592	20	4687
2026-01-12 00:35:48.63	116.01	18.83	-29.4	-32.5	19.7	6.01e-01	0	42	0	662175744	19	5142
2026-01-12 00:35:49.36	116.19	18.79	-29.4	-32.6	19.6	6.01e-01	0	42	0	663748608	19	5178
2026-01-12 00:35:50.65	116.52	18.71	-29.5	-32.9	19.4	6.02e-01	0	42	0	666370048	19	5295
2026-01-12 00:35:51.37	116.70	18.66	-29.6	-33.0	19.3	5.99e-01	0	42	0	667418624	19	5327
2026-01-12 00:35:52.66	117.03	18.58	-29.5	-32.3	19.3	6.04e-01	0	42	0	670040064	20	4999
2026-01-12 00:35:53.38	117.21	18.54	-29.5	-32.4	19.2	5.99e-01	0	42	0	671088640	20	5019
2026-01-12 00:35:54.67	117.53	18.46	-29.5	-32.3	19.3	6.03e-01	0	42	0	673710080	20	4965
2026-01-12 00:35:55.39	117.71	18.41	-29.5	-32.3	19.4	6.01e-01	0	42	0	675282944	20	4961
2026-01-12 00:35:56.68	118.02	18.33	-29.5	-32.2	19.4	6.03e-01	0	42	0	677380096	20	4949
2026-01-12 00:35:57.40	118.20	18.29	-29.5	-32.2	19.5	6.04e-01	0	42	0	678952960	20	4942
2026-01-12 00:35:58.70	118.52	18.20	-29.4	-32.1	19.5	6.00e-01	0	42	0	681050112	20	4891
2026-01-12 00:35:59.42	118.70	18.16	-29.6	-32.5	19.2	6.03e-01	0	41	0	682622976	20	5056
2026-01-12 00:36:00.71	119.01	18.07	-29.4	-32.1	19.5	6.01e-01	0	42	0	685244416	20	4915
2026-01-12 00:36:01.43	119.18	18.03	-29.4	-32.1	19.5	6.00e-01	0	42	0	686292992	20	4889
2026-01-12 00:36:02.72	119.49	17.94	-29.5	-32.3	19.4	6.01e-01	0	42	0	688914432	20	4968
2026-01-12 00:36:03.44	119.67	17.90	-29.7	-32.8	19.0	6.01e-01	0	42	0	689963008	20	5175
2026-01-12 00:36:04.73	119.97	17.81	-29.6	-32.7	19.1	6.00e-01	0	42	0	692584448	20	5119
2026-01-12 00:36:05.45	120.14	17.77	-29.6	-32.7	19.1	6.01e-01	0	42	0	694157312	20	5104
2026-01-12 00:36:06.73	120.45	17.68	-29.6	-32.7	19.1	6.01e-01	0	42	0	696254464	20	5137
2026-01-12 00:36:07.46	120.62	17.63	-29.6	-32.7	19.1	6.01e-01	0	42	0	697827328	20	5121
2026-01-12 00:36:08.75	120.92	17.55	-29.4	-32.2	19.4	6.00e-01	0	42	0	699924480	20	4921
2026-01-12 00:36:09.47	121.09	17.50	-29.3	-31.9	19.6	6.01e-01	0	42	0	701497344	20	4836
2026-01-12 00:36:10.76	121.39	17.41	-29.6	-32.6	19.2	6.00e-01	0	42	0	704118784	20	5087
2026-01-12 00:36:11.48	121.55	17.36	-29.6	-32.5	19.3	6.00e-01	0	42	0	705167360	20	5044
2026-01-12 00:36:12.78	121.85	17.28	-29.8	-33.0	18.9	6.02e-01	0	42	0	707788800	20	5235
2026-01-12 00:36:13.49	122.02	17.23	-29.5	-32.4	19.3	6.02e-01	0	42	0	708837376	20	5014
2026-01-12 00:36:14.78	122.31	17.14	-29.3	-31.8	19.6	5.99e-01	0	42	0	711458816	20	4802
2026-01-12 00:36:15.50	122.47	17.09	-29.2	-31.6	19.8	6.01e-01	0	42	0	713031680	20	4739
2026-01-12 00:36:16.80	122.77	17.00	-29.3	-31.8	19.6	6.00e-01	0	42	0	715128832	20	4812
2026-01-12 00:36:17.51	122.93	16.95	-29.3	-31.7	19.6	6.01e-01	0	42	0	716701696	20	4783
2026-01-12 00:36:18.81	123.22	16.87	-29.1	-31.4	19.8	6.00e-01	0	42	0	718798848	20	4675
2026-01-12 00:36:19.53	123.38	16.82	-29.1	-31.4	19.8	5.99e-01	0	42	0	720371712	20	4666
2026-01-12 00:36:20.82	123.66	16.73	-29.1	-31.3	19.9	6.00e-01	0	42	0	722993152	20	4656
2026-01-12 00:36:21.54	123.82	16.68	-29.2	-32.1	19.9	6.02e-01	0	42	0	724041728	19	5001
2026-01-12 00:36:22.83	124.10	16.59	-29.3	-32.3	19.7	6.01e-01	0	42	0	726663168	19	5099
2026-01-12 00:36:23.56	124.26	16.54	-29.3	-32.2	19.7	6.00e-01	0	42	0	727711744	19	5054
2026-01-12 00:36:24.86	124.55	16.45	-29.3	-32.3	19.7	5.99e-01	0	42	0	730333184	19	5079
2026-01-12 00:36:25.59	124.70	16.40	-29.4	-32.4	19.7	6.03e-01	0	42	0	731906048	19	5110
2026-01-12 00:36:26.88	124.98	16.31	-29.4	-32.6	19.5	6.01e-01	0	42	0	734003200	19	5174
2026-01-12 00:36:27.60	125.14	16.26	-29.5	-32.7	19.4	6.03e-01	0	42	0	735576064	19	5223
2026-01-12 00:36:28.90	125.41	16.16	-29.2	-32.1	19.8	6.01e-01	0	42	0	737673216	19	5007
2026-01-12 00:36:29.62	125.57	16.11	-29.3	-32.2	19.8	6.01e-01	0	42	0	739246080	19	5033
2026-01-12 00:36:30.91	125.84	16.02	-29.2	-32.1	19.7	6.05e-01	0	42	0	741867520	19	5021
2026-01-12 00:36:31.63	125.99	15.97	-29.2	-32.2	19.7	6.01e-01	0	42	0	742916096	19	5043
2026-01-12 00:36:32.93	126.26	15.88	-29.5	-32.9	19.2	6.01e-01	0	42	0	745537536	19	5335
2026-01-12 00:36:33.65	126.41	15.83	-29.4	-32.6	19.4	6.01e-01	0	42	0	746586112	19	5219
2026-01-12 00:36:34.94	126.68	15.74	-29.5	-32.5	19.1	6.03e-01	0	42	0	749207552	20	5088
2026-01-12 00:36:35.66	126.82	15.69	-29.4	-32.2	19.3	6.04e-01	0	42	0	750780416	20	4945
2026-01-12 00:36:36.95	127.09	15.59	-29.2	-31.6	19.7	6.02e-01	0	42	0	752877568	20	4750
2026-01-12 00:36:37.67	127.24	15.54	-29.2	-31.6	19.7	6.00e-01	0	42	0	754450432	20	4738
2026-01-12 00:36:38.96	127.50	15.45	-29.2	-31.8	19.6	6.02e-01	0	42	0	756547584	20	4823
2026-01-12 00:36:39.67	127.64	15.40	-29.2	-31.7	19.6	6.01e-01	0	42	0	758120448	20	4791
2026-01-12 00:36:40.97	127.90	15.31	-29.3	-32.4	19.5	5.99e-01	0	42	0	760741888	19	5147
2026-01-12 00:36:41.69	128.05	15.26	-29.3	-32.6	19.4	6.00e-01	0	42	0	761790464	19	5229
2026-01-12 00:36:42.99	128.30	15.16	-29.2	-32.2	19.6	6.00e-01	0	42	0	764411904	19	5078
2026-01-12 00:36:43.71	128.45	15.11	-29.2	-32.1	19.6	6.01e-01	0	42	0	765460480	19	5068
2026-01-12 00:36:45.00	128.70	15.02	-29.2	-32.3	19.5	6.03e-01	0	42	0	768081920	19	5113
2026-01-12 00:36:45.72	128.84	14.97	-29.3	-32.6	19.4	5.99e-01	0	42	0	769654784	19	5206
2026-01-12 00:36:47.01	129.09	14.87	-29.4	-32.7	19.3	6.03e-01	0	42	0	771751936	19	5253
2026-01-12 00:36:47.73	129.23	14.82	-29.3	-32.4	19.4	6.03e-01	0	42	0	773324800	19	5150
2026-01-12 00:36:49.02	129.48	14.73	-29.2	-32.2	19.6	6.00e-01	0	42	0	775421952	19	5050
2026-01-12 00:36:49.75	129.62	14.68	-29.3	-32.4	19.5	6.00e-01	0	42	0	776994816	19	5114
2026-01-12 00:36:51.04	129.87	14.58	-29.4	-32.6	19.4	6.00e-01	0	42	0	779616256	19	5190
2026-01-12 00:36:51.75	130.00	14.53	-29.3	-32.5	19.4	6.03e-01	0	42	0	780664832	19	5153
2026-01-12 00:36:53.05	130.25	14.44	-29.3	-32.5	19.2	6.03e-01	0	42	0	783286272	19	5179
2026-01-12 00:36:53.77	130.38	14.39	-29.4	-32.5	19.3	6.02e-01	0	42	0	784334848	19	5202
2026-01-12 00:36:55.06	130.62	14.29	-29.5	-32.8	19.2	6.01e-01	0	42	0	786956288	19	5314
2026-01-12 00:36:55.79	130.76	14.24	-29.6	-33.1	18.9	6.03e-01	0	42	0	788529152	19	5427
2026-01-12 00:36:57.08	131.00	14.15	-29.4	-32.8	18.1	5.99e-01	0	42	0	790626304	19	5275
2026-01-12 00:36:57.80	131.13	14.09	-29.4	-32.7	19.2	6.01e-01	0	42	0	792199168	19	5251
2026-01-12 00:36:59.09	131.37	14.00	-29.4	-32.7	19.2	6.01e-01	0	42	0	794296320	19	5244
2026-01-12 00:36:59.81	131.50	13.95	-29.5	-32.9	19.0	6.00e-01	0	42	0	795869184	19	5316
2026-01-12 00:37:01.10	131.73	13.85	-29.4	-32.8	19.1	6.00e-01	0	42	0	798490624	19	5315
2026-01-12 00:37:01.82	131.86	13.80	-29.5	-32.9	19.0	6.01e-01	0	42	0	799539200	19	5377
2026-01-12 00:37:03.11	132.09	13.71	-29.5	-33.2	18.8	6.02e-01	0	41	0	802160640	19	5507
2026-01-12 00:37:03.83	132.22	13.66	-29.4	-32.9	18.9	6.03e-01	0	42	0	803209216	19	5363
2026-01-12 00:37:05.12	132.45	13.56	-29.3	-32.5	19.2	5.99e-01	0	42	0	805830656	19	5231
2026-01-12 00:37:05.84	132.58	13.51	-29.3	-32.5	19.2	6.02e-01	0	42	0	806879232	19	5210
2026-01-12 00:37:07.13	132.81	13.42	-29.5	-32.8	19.1	5.99e-01	0	42	0	809500672	19	5318
2026-01-12 00:37:07.84	132.93	13.37	-29.6	-33.1	18.9	6.01e-01	0	42	0	811073536	19	5411
2026-01-12 00:37:09.14	133.16	13.27	-29.5	-32.9	19.0	6.00e-01	0	42	0	813170688	19	5341
2026-01-12 00:37:09.86	133.28	13.22	-29.6	-32.7	18.8	6.01e-01	0	42	0	814743552	20	5140
2026-01-12 00:37:11.16	133.51	13.13	-29.6	-32.7	18.7	5.99e-01	0	42	0	817364992	20	5181
2026-01-12 00:37:11.88	133.63	13.07	-29.6	-33.0	18.5	6.00e-01	0	42	0	818413568	20	5281
2026-01-12 00:37:13.16	133.85	12.98	-29.4	-32.5	18.8	6.00e-01	0	42	0	821035008	20	5117
2026-01-12 00:37:13.89	133.97	12.93	-29.6	-32.9	18.6	6.02e-01	0	42	0	822083584	20	5258
2026-01-12 00:37:15.17	134.19	12.84	-29.5	-32.7	18.6	6.02e-01	0	41	0	824705024	20	5193
2026-01-12 00:37:15.89	134.31	12.78	-29.5	-32.7	18.6	6.01e-01	0	42	0	826277888	20	5198
2026-01-12 00:37:17.19	134.53	12.69	-29.5	-32.7	18.6	6.01e-01	0	42	0	828375040	20	5194
2026-01-12 00:37:17.91	134.65	12.64	-29.5	-32.7	18.2	6.03e-01	0	42	0	829947904	20	5199
2026-01-12 00:37:19.20	134.86	12.54	-29.5	-32.6	18.7	6.02e-01	0	42	0	832045056	20	5129
2026-01-12 00:37:19.92	134.98	12.49	-29.5	-32.6	18.5	6.01e-01	0	42	0	833617920	20	5150
2026-01-12 00:37:21.22	135.19	12.40	-29.6	-32.8	18.6	6.01e-01	0	42	0	836239360	20	5214
2026-01-12 00:37:21.93	135.31	12.35	-29.4	-32.5	18.8	6.01e-01	0	42	0	837287936	20	5098
2026-01-12 00:37:23.23	135.52	12.25	-29.4	-32.3	18.9	6.02e-01	0	42	0	839909376	20	5042
2026-01-12 00:37:23.95	135.63	12.20	-29.4	-32.3	18.9	6.01e-01	0	42	0	840957952	20	5046
2026-01-12 00:37:25.24	135.84	12.11	-29.4	-32.4	18.8	6.02e-01	0	42	0	843579392	20	5077
2026-01-12 00:37:25.96	135.95	12.06	-29.5	-33.0	18.7	6.03e-01	0	42	0	845152256	19	5433
2026-01-12 00:37:27.25	136.16	11.96	-29.4	-33.0	18.8	6.00e-01	0	42	0	847249408	19	5451
2026-01-12 00:37:27.97	136.27	11.91	-29.4	-33.1	18.7	6.01e-01	0	42	0	848822272	19	5467
2026-01-12 00:37:29.26	136.48	11.82	-29.4	-33.0	18.7	5.99e-01	0	42	0	850919424	19	5446
2026-01-12 00:37:29.98	136.59	11.77	-29.5	-33.2	18.6	6.02e-01	0	42	0	852492288	19	5542
2026-01-12 00:37:31.27	136.79	11.68	-29.5	-32.9	18.4	6.02e-01	0	42	0	854589440	20	5322
2026-01-12 00:37:31.99	136.90	11.62	-29.5	-33.4	18.4	5.98e-01	0	42	0	856162304	19	5636
2026-01-12 00:37:33.28	137.10	11.53	-29.5	-33.2	18.6	6.01e-01	0	42	0	858783744	19	5535
2026-01-12 00:37:34.00	137.21	11.48	-29.5	-33.4	18.5	6.00e-01	0	42	0	859832320	19	5592
2026-01-12 00:37:35.30	137.41	11.39	-29.6	-33.2	18.2	6.00e-01	0	41	0	862453760	20	5409
2026-01-12 00:37:36.02	137.52	11.34	-29.8	-33.5	18.0	6.04e-01	0	42	0	863502336	20	5538
2026-01-12 00:37:37.31	137.71	11.24	-29.6	-33.0	18.2	6.00e-01	0	42	0	866123776	20	5330
2026-01-12 00:37:38.03	137.82	11.19	-29.6	-33.0	18.3	6.03e-01	0	42	0	867696640	20	5297
2026-01-12 00:37:39.32	138.01	11.10	-29.6	-33.1	18.2	6.01e-01	0	42	0	869793792	20	5350
2026-01-12 00:37:40.04	138.12	11.05	-29.5	-32.8	18.4	6.00e-01	0	42	0	871366656	20	5250
2026-01-12 00:37:41.33	138.31	10.96	-29.8	-33.4	18.0	6.01e-01	0	42	0	873463808	20	5505
2026-01-12 00:37:42.05	138.41	10.91	-29.6	-33.1	18.3	6.02e-01	0	42	0	875036672	20	5368
2026-01-12 00:37:43.34	138.60	10.82	-29.5	-32.7	18.4	6.02e-01	0	42	0	877658112	20	5230
2026-01-12 00:37:44.06	138.71	10.76	-29.5	-32.8	18.4	6.03e-01	0	42	0	878706688	20	5259
2026-01-12 00:37:45.35	138.90	10.67	-29.6	-33.1	18.2	5.99e-01	0	42	0	881328128	20	5359
2026-01-12 00:37:46.07	139.00	10.62	-29.6	-32.9	18.3	6.01e-01	0	42	0	882376704	20	5280
2026-01-12 00:37:47.36	139.18	10.53	-29.7	-33.3	18.0	6.03e-01	0	42	0	884998144	20	5455
2026-01-12 00:37:48.08	139.29	10.48	-29.7	-33.3	18.1	5.98e-01	0	42	0	886571008	20	5460
2026-01-12 00:37:49.37	139.47	10.39	-29.7	-33.3	18.1	6.02e-01	0	42	0	888668160	20	5458
2026-01-12 00:37:50.09	139.57	10.34	-29.7	-33.3	18.0	6.01e-01	0	42	0	890241024	20	5455
2026-01-12 00:37:51.38	139.75	10.25	-29.6	-33.1	18.1	6.01e-01	0	42	0	892338176	20	5383
2026-01-12 00:37:52.09	139.85	10.20	-29.6	-33.0	18.2	6.00e-01	0	42	0	893911040	20	5344
2026-01-12 00:37:53.38	140.03	10.11	-29.6	-33.1	18.1	5.99e-01	0	42	0	896008192	20	5403
2026-01-12 00:37:54.09	140.13	10.06	-29.7	-33.4	17.9	6.02e-01	0	42	0	897581056	20	5509
2026-01-12 00:37:55.39	140.31	9.97	-29.6	-33.1	18.0	6.01e-01	0	42	0	900202496	20	5422
2026-01-12 00:37:56.11	140.41	9.92	-29.6	-33.1	18.0	6.00e-01	0	42	0	901251072	20	5392
2026-01-12 00:37:57.40	140.58	9.83	-29.5	-32.9	18.2	6.00e-01	0	42	0	903872512	20	5315
2026-01-12 00:37:58.12	140.68	9.78	-29.6	-33.1	18.0	6.03e-01	0	42	0	904921088	20	5382
2026-01-12 00:37:59.42	140.86	9.69	-29.6	-33.2	18.0	6.01e-01	0	42	0	907542528	20	5440
2026-01-12 00:38:00.13	140.95	9.64	-29.7	-33.4	17.8	6.01e-01	0	42	0	909115392	20	5511
2026-01-12 00:38:01.43	141.12	9.55	-29.8	-33.7	17.6	6.02e-01	0	42	0	911212544	20	5624
2026-01-12 00:38:02.15	141.22	9.50	-29.7	-33.5	17.7	6.03e-01	0	42	0	912785408	20	5575
2026-01-12 00:38:03.44	141.39	9.41	-29.9	-33.9	17.4	6.01e-01	0	42	0	914882560	20	5735
2026-01-12 00:38:04.15	141.48	9.36	-29.9	-34.1	17.3	6.02e-01	0	42	0	916455424	20	5802
2026-01-12 00:38:05.44	141.65	9.27	-29.8	-33.8	17.4	6.01e-01	0	42	0	919076864	20	5708
2026-01-12 00:38:06.16	141.75	9.22	-29.8	-33.9	17.4	5.99e-01	0	42	0	920125440	20	5724
2026-01-12 00:38:07.45	141.91	9.13	-29.9	-34.0	17.3	6.01e-01	0	42	0	922746880	20	5783
2026-01-12 00:38:08.17	142.01	9.08	-29.9	-34.1	17.2	6.02e-01	0	42	0	923795456	20	5823
2026-01-12 00:38:09.46	142.17	8.99	-29.9	-34.1	17.1	6.02e-01	0	42	0	926416896	20	5854
2026-01-12 00:38:10.18	142.26	8.94	-29.8	-33.9	17.3	6.02e-01	0	41	0	927989760	20	5753
2026-01-12 00:38:11.47	142.43	8.85	-29.8	-33.9	17.2	6.02e-01	0	42	0	930086912	20	5749
2026-01-12 00:38:12.19	142.52	8.80	-29.9	-34.0	17.2	6.03e-01	0	42	0	931659776	20	5823
2026-01-12 00:38:13.48	142.68	8.72	-29.9	-34.0	17.1	6.02e-01	0	42	0	933756928	20	5831
2026-01-12 00:38:14.20	142.77	8.67	-29.8	-33.8	17.3	5.99e-01	0	42	0	935329792	20	5704
2026-01-12 00:38:15.49	142.93	8.58	-29.9	-34.1	17.1	6.00e-01	0	42	0	937951232	20	5866
2026-01-12 00:38:16.21	143.02	8.53	-29.8	-33.9	17.2	6.02e-01	0	42	0	938999808	20	5770
2026-01-12 00:38:17.50	143.18	8.44	-29.8	-33.9	16.4	6.03e-01	0	42	0	941621248	20	5787
2026-01-12 00:38:18.22	143.27	8.39	-29.7	-33.8	17.2	6.04e-01	0	42	0	942669824	20	5753
2026-01-12 00:38:19.50	143.43	8.31	-29.7	-33.7	16.2	6.05e-01	0	42	0	945291264	20	5729
2026-01-12 00:38:20.22	143.51	8.26	-29.8	-34.1	17.0	6.01e-01	0	42	0	946864128	20	5885
2026-01-12 00:38:21.51	143.67	8.17	-29.8	-34.0	17.0	6.03e-01	0	42	0	948961280	20	5839
2026-01-12 00:38:22.23	143.76	8.12	-29.8	-34.0	17.0	5.99e-01	0	42	0	950534144	20	5868
2026-01-12 00:38:23.52	143.91	8.04	-29.8	-34.3	16.4	6.03e-01	0	42	0	952631296	20	5996
2026-01-12 00:38:24.24	144.00	7.99	-29.9	-34.4	16.6	6.01e-01	0	42	0	954204160	20	6074
2026-01-12 00:38:25.53	144.15	7.90	-29.9	-34.6	16.5	5.99e-01	0	42	0	956301312	20	6143
2026-01-12 00:38:26.25	144.23	7.85	-29.9	-34.5	16.5	5.99e-01	0	42	0	957874176	20	6137
2026-01-12 00:38:27.55	144.39	7.77	-29.9	-34.5	16.5	5.99e-01	0	42	0	960495616	20	6132
2026-01-12 00:38:28.26	144.47	7.72	-29.9	-34.5	16.6	6.03e-01	0	42	0	961544192	20	6118
2026-01-12 00:38:29.55	144.62	7.63	-30.0	-34.9	16.3	6.04e-01	0	42	0	964165632	20	6331
2026-01-12 00:38:30.27	144.70	7.58	-30.0	-34.7	16.4	6.01e-01	0	42	0	965214208	20	6225
2026-01-12 00:38:31.57	144.85	7.50	-30.3	-35.2	15.8	6.05e-01	0	42	0	967835648	21	6342
2026-01-12 00:38:32.29	144.94	7.45	-30.4	-35.4	15.6	6.02e-01	0	42	0	969408512	21	6455
2026-01-12 00:38:33.58	145.08	7.36	-30.2	-34.9	15.9	6.01e-01	0	42	0	971505664	21	6177
2026-01-12 00:38:34.30	145.17	7.32	-30.4	-35.4	15.6	6.00e-01	0	42	0	973078528	21	6407
2026-01-12 00:38:35.60	145.31	7.23	-30.3	-35.1	15.8	6.01e-01	0	42	0	975699968	21	6272
2026-01-12 00:38:36.32	145.39	7.18	-30.3	-35.1	15.8	6.02e-01	0	42	0	976748544	21	6282
2026-01-12 00:38:37.61	145.54	7.10	-30.4	-35.7	15.3	6.03e-01	0	42	0	979369984	21	6632
2026-01-12 00:38:38.32	145.62	7.05	-32.5	-49.1	4.2	7.43e-01	0	41	104	980418560	25	24405

#Closed at: 2026-01-12 00:38:39
#Recorded file [980 MB]: D:/data/31010_260112_032955.dat