passes_logs/2026/01/12/R2M6_AANII_01/R2M6_AANII_01__20260112_020659_AQUA_rec.log

#Pass ID: 20260112_020659_AQUA
#Satellite: AQUA
#Configuration: AQUA
#almurnet v.1.7.20240730
#Start time: 2026-01-12 02:07:00

#Version: 2.2.20231116
#Station: R2M6_AANII_01
#Location: 30.233357 lon 59.946436 lat
#TLE: 1 27424U 02022A   26011.34052177  .00001139  00000+0  23789-3 0  9999
#TLE: 2 27424  98.4078 337.7066 0002035  82.6124  44.5301 14.61815662260355

#Time	Az	El	Level	Level2	SNR	BER	BlckErr	Temp	State	Recorded	gain1	gain2
2026-01-12 02:07:00.07	16.71	7.08	-31.6	-38.6	5.0	7.10e-01	0	39	0	0	24	8082
2026-01-12 02:07:01.06	16.71	7.16	-32.1	-40.7	4.8	7.13e-01	0	39	104	0	25	9690
2026-01-12 02:07:02.07	16.70	7.25	-31.9	-39.5	12.2	6.13e-01	0	39	104	0	25	8625
2026-01-12 02:07:03.08	16.70	7.33	-32.0	-40.3	4.9	7.12e-01	0	39	104	0	25	9343
2026-01-12 02:07:04.09	16.69	7.41	-31.7	-38.0	12.7	6.05e-01	0	39	0	0	25	7359
2026-01-12 02:07:05.10	16.69	7.50	-31.7	-37.5	13.2	6.06e-01	0	39	0	2097152	25	7041
2026-01-12 02:07:06.10	16.69	7.58	-31.4	-36.5	14.1	6.03e-01	0	39	0	3670016	25	6422
2026-01-12 02:07:07.11	16.68	7.66	-31.2	-36.0	14.8	6.02e-01	0	39	0	5767168	24	6251
2026-01-12 02:07:08.11	16.68	7.75	-31.1	-35.6	15.1	6.01e-01	0	39	0	7340032	24	6041
2026-01-12 02:07:09.12	16.67	7.83	-30.9	-35.0	15.5	6.04e-01	0	39	0	9437184	24	5774
2026-01-12 02:07:10.13	16.67	7.92	-30.8	-35.1	15.9	6.05e-01	0	39	0	11534336	23	5911
2026-01-12 02:07:11.14	16.67	8.00	-31.0	-35.5	15.6	6.02e-01	0	39	0	13107200	23	6103
2026-01-12 02:07:12.14	16.66	8.09	-30.8	-35.1	15.9	6.04e-01	0	39	0	15204352	23	5867
2026-01-12 02:07:13.14	16.66	8.17	-30.6	-34.3	16.4	6.05e-01	0	39	0	16777216	23	5534
2026-01-12 02:07:14.15	16.65	8.26	-30.4	-33.6	16.9	6.02e-01	0	40	0	18874368	23	5235
2026-01-12 02:07:15.16	16.65	8.35	-30.1	-33.4	17.5	6.03e-01	0	39	0	20971520	22	5235
2026-01-12 02:07:16.16	16.64	8.43	-30.1	-33.4	17.5	6.02e-01	0	40	0	22544384	22	5219
2026-01-12 02:07:17.17	16.64	8.52	-30.0	-33.1	17.7	6.03e-01	0	40	0	24641536	22	5101
2026-01-12 02:07:18.18	16.63	8.61	-30.0	-33.0	17.7	6.02e-01	0	40	0	26214400	22	5089
2026-01-12 02:07:19.18	16.63	8.70	-29.9	-32.7	18.0	6.02e-01	0	40	0	28311552	22	4969
2026-01-12 02:07:20.18	16.62	8.78	-30.0	-33.0	17.8	6.01e-01	0	40	0	30408704	22	5057
2026-01-12 02:07:21.19	16.62	8.87	-30.0	-32.9	17.9	6.02e-01	0	40	0	31981568	22	5027
2026-01-12 02:07:22.20	16.61	8.96	-30.1	-33.3	17.7	6.03e-01	0	40	0	34078720	22	5166
2026-01-12 02:07:23.20	16.61	9.05	-30.1	-33.3	17.6	6.04e-01	0	40	0	35651584	22	5176
2026-01-12 02:07:24.21	16.60	9.14	-30.0	-32.8	18.0	6.03e-01	0	40	0	37748736	22	4980
2026-01-12 02:07:25.22	16.60	9.23	-29.9	-32.6	18.1	6.05e-01	0	40	0	39845888	22	4901
2026-01-12 02:07:26.22	16.59	9.32	-30.0	-32.7	18.0	6.03e-01	0	40	0	41418752	22	4956
2026-01-12 02:07:27.22	16.59	9.41	-29.9	-33.1	18.1	6.04e-01	0	40	0	43515904	21	5209
2026-01-12 02:07:28.23	16.58	9.50	-29.9	-33.0	18.2	6.05e-01	0	40	0	45088768	21	5166
2026-01-12 02:07:29.24	16.58	9.59	-30.0	-33.2	18.1	6.01e-01	0	40	0	47185920	21	5246
2026-01-12 02:07:30.24	16.57	9.69	-29.9	-33.0	18.2	6.02e-01	0	40	0	49283072	21	5176
2026-01-12 02:07:31.25	16.57	9.78	-29.9	-33.1	18.2	6.03e-01	0	40	0	50855936	21	5185
2026-01-12 02:07:32.26	16.56	9.87	-29.7	-32.7	18.4	6.04e-01	0	40	0	52953088	21	5029
2026-01-12 02:07:33.26	16.55	9.96	-29.8	-32.8	18.3	6.05e-01	0	40	0	54525952	21	5092
2026-01-12 02:07:34.26	16.55	10.06	-29.8	-32.9	18.3	6.03e-01	0	40	0	56623104	21	5127
2026-01-12 02:07:35.27	16.54	10.15	-29.8	-32.9	18.3	6.03e-01	0	40	0	58720256	21	5111
2026-01-12 02:07:36.28	16.54	10.25	-29.9	-33.0	18.2	6.05e-01	0	40	0	60293120	21	5166
2026-01-12 02:07:37.28	16.53	10.34	-29.8	-32.9	18.3	6.02e-01	0	40	0	62390272	21	5132
2026-01-12 02:07:38.28	16.52	10.43	-29.9	-32.9	18.3	6.02e-01	0	40	0	63963136	21	5131
2026-01-12 02:07:39.29	16.52	10.53	-29.8	-32.8	18.4	6.02e-01	0	40	0	66060288	21	5086
2026-01-12 02:07:40.29	16.51	10.62	-29.8	-32.8	18.4	6.02e-01	0	40	0	67633152	21	5077
2026-01-12 02:07:41.30	16.51	10.72	-29.9	-33.1	18.1	6.04e-01	0	40	0	69730304	21	5211
2026-01-12 02:07:42.30	16.50	10.82	-29.8	-32.7	18.5	6.05e-01	0	40	0	71827456	21	5023
2026-01-12 02:07:43.31	16.49	10.91	-29.8	-32.8	18.4	6.04e-01	0	40	0	73400320	21	5086
2026-01-12 02:07:44.32	16.49	11.01	-29.8	-32.7	18.5	6.04e-01	0	40	0	75497472	21	5033
2026-01-12 02:07:45.33	16.48	11.11	-29.8	-32.7	18.5	6.02e-01	0	40	0	77594624	21	5047
2026-01-12 02:07:46.33	16.47	11.21	-29.9	-33.0	18.3	6.02e-01	0	40	0	79167488	21	5143
2026-01-12 02:07:47.34	16.47	11.31	-29.8	-32.8	18.4	6.05e-01	0	41	0	81264640	21	5089
2026-01-12 02:07:48.34	16.46	11.41	-29.9	-33.0	18.3	6.05e-01	0	40	0	82837504	21	5151
2026-01-12 02:07:49.34	16.45	11.51	-29.9	-33.0	18.3	6.01e-01	0	40	0	84934656	21	5156
2026-01-12 02:07:50.35	16.45	11.61	-29.8	-32.8	18.5	6.03e-01	0	40	0	86507520	21	5066
2026-01-12 02:07:51.36	16.44	11.71	-29.8	-32.7	18.5	6.02e-01	0	40	0	88604672	21	5035
2026-01-12 02:07:52.37	16.43	11.81	-29.8	-32.7	18.5	6.04e-01	0	40	0	90701824	21	5053
2026-01-12 02:07:53.38	16.42	11.91	-29.9	-33.1	18.3	6.02e-01	0	40	0	92274688	21	5182
2026-01-12 02:07:54.38	16.42	12.01	-29.9	-33.0	18.3	6.01e-01	0	40	0	94371840	21	5143
2026-01-12 02:07:55.39	16.41	12.11	-29.9	-33.0	18.4	6.03e-01	0	40	0	96468992	21	5158
2026-01-12 02:07:56.39	16.40	12.22	-29.9	-32.9	18.4	6.06e-01	0	41	0	98041856	21	5120
2026-01-12 02:07:57.40	16.39	12.32	-29.9	-33.1	18.3	6.02e-01	0	40	0	100139008	21	5186
2026-01-12 02:07:58.40	16.39	12.42	-30.0	-33.3	18.2	6.01e-01	0	40	0	101711872	21	5252
2026-01-12 02:07:59.40	16.38	12.53	-30.1	-33.7	17.9	6.01e-01	0	41	0	103809024	21	5414
2026-01-12 02:08:00.41	16.37	12.63	-30.1	-33.6	18.0	6.02e-01	0	41	0	105381888	21	5393
2026-01-12 02:08:01.42	16.36	12.74	-30.4	-34.3	17.5	6.00e-01	0	41	0	107479040	21	5689
2026-01-12 02:08:02.42	16.36	12.84	-30.5	-34.6	17.4	6.01e-01	0	40	0	109576192	21	5800
2026-01-12 02:08:03.43	16.35	12.95	-30.2	-33.7	18.0	6.05e-01	0	41	0	111149056	21	5411
2026-01-12 02:08:04.43	16.34	13.06	-30.1	-33.6	18.0	6.02e-01	0	41	0	113246208	21	5389
2026-01-12 02:08:05.44	16.33	13.17	-30.1	-33.6	18.1	6.04e-01	0	41	0	114819072	21	5372
2026-01-12 02:08:06.45	16.32	13.27	-30.2	-33.8	18.0	6.02e-01	0	41	0	116916224	21	5434
2026-01-12 02:08:07.45	16.31	13.38	-30.4	-34.3	17.6	6.02e-01	0	41	0	119013376	21	5638
2026-01-12 02:08:08.46	16.31	13.49	-30.2	-33.7	18.0	6.04e-01	0	41	0	120586240	21	5396
2026-01-12 02:08:09.47	16.30	13.60	-29.8	-32.7	18.6	6.05e-01	0	41	0	122683392	21	5038
2026-01-12 02:08:10.48	16.29	13.71	-29.6	-32.2	19.0	6.06e-01	0	41	0	124780544	21	4840
2026-01-12 02:08:11.48	16.28	13.82	-29.5	-31.8	19.2	6.02e-01	0	41	0	126353408	21	4707
2026-01-12 02:08:12.49	16.27	13.93	-29.4	-31.7	19.3	6.02e-01	0	41	0	128450560	21	4660
2026-01-12 02:08:13.50	16.26	14.05	-29.4	-31.6	19.4	6.03e-01	0	41	0	130023424	21	4639
2026-01-12 02:08:14.50	16.25	14.16	-29.4	-31.6	19.3	6.02e-01	0	41	0	132120576	21	4648
2026-01-12 02:08:15.51	16.24	14.27	-29.5	-31.7	19.3	6.03e-01	0	41	0	133693440	21	4677
2026-01-12 02:08:16.51	16.23	14.38	-29.5	-31.8	19.2	6.04e-01	0	41	0	135790592	21	4703
2026-01-12 02:08:17.52	16.22	14.50	-29.4	-32.0	19.5	6.04e-01	0	41	0	137887744	20	4855
2026-01-12 02:08:18.52	16.21	14.61	-29.3	-31.9	19.5	6.02e-01	0	41	0	139460608	20	4843
2026-01-12 02:08:19.53	16.20	14.73	-29.3	-31.9	19.5	6.04e-01	0	41	0	141557760	20	4827
2026-01-12 02:08:20.54	16.19	14.85	-29.3	-31.8	19.6	6.04e-01	0	41	0	143130624	20	4812
2026-01-12 02:08:21.54	16.18	14.96	-29.3	-31.9	19.5	6.01e-01	0	41	0	145227776	20	4821
2026-01-12 02:08:22.54	16.17	15.08	-29.3	-31.8	19.6	6.02e-01	0	41	0	147324928	20	4817
2026-01-12 02:08:23.55	16.16	15.20	-29.4	-31.9	19.6	6.03e-01	0	41	0	148897792	20	4838
2026-01-12 02:08:24.56	16.15	15.32	-29.3	-31.8	19.7	6.02e-01	0	41	0	150994944	20	4785
2026-01-12 02:08:25.56	16.14	15.43	-29.2	-31.6	19.7	6.04e-01	0	41	0	152567808	20	4726
2026-01-12 02:08:26.56	16.13	15.55	-29.3	-31.6	19.7	6.05e-01	0	41	0	154664960	20	4743
2026-01-12 02:08:27.57	16.12	15.67	-29.2	-31.5	19.8	6.03e-01	0	41	0	156762112	20	4689
2026-01-12 02:08:28.57	16.11	15.80	-29.2	-31.4	19.9	6.01e-01	0	41	0	158334976	20	4666
2026-01-12 02:08:29.58	16.10	15.92	-29.2	-31.6	19.7	6.03e-01	0	41	0	160432128	20	4733
2026-01-12 02:08:30.58	16.09	16.04	-29.2	-31.5	19.8	6.03e-01	0	41	0	162004992	20	4696
2026-01-12 02:08:31.58	16.08	16.16	-29.1	-31.2	20.0	6.05e-01	0	41	0	164102144	20	4588
2026-01-12 02:08:32.59	16.07	16.29	-29.0	-31.1	20.0	6.03e-01	0	41	0	166199296	20	4566
2026-01-12 02:08:33.59	16.05	16.41	-29.1	-31.3	19.9	6.03e-01	0	41	0	167772160	20	4616
2026-01-12 02:08:34.59	16.04	16.53	-29.1	-31.3	19.9	6.03e-01	0	41	0	169869312	20	4627
2026-01-12 02:08:35.60	16.03	16.66	-29.0	-31.1	20.1	6.04e-01	0	41	0	171442176	20	4558
2026-01-12 02:08:36.60	16.02	16.79	-29.0	-31.0	20.1	6.02e-01	0	41	0	173539328	20	4537
2026-01-12 02:08:37.61	16.01	16.91	-29.1	-31.2	20.0	6.04e-01	0	41	0	175112192	20	4602
2026-01-12 02:08:38.61	15.99	17.04	-29.1	-31.3	20.0	6.02e-01	0	41	0	177209344	20	4631
2026-01-12 02:08:39.62	15.98	17.17	-29.1	-31.3	20.0	6.04e-01	0	41	0	179306496	20	4623
2026-01-12 02:08:40.63	15.97	17.30	-29.2	-31.4	19.9	6.03e-01	0	41	0	180879360	20	4649
2026-01-12 02:08:41.63	15.96	17.43	-29.1	-31.3	19.9	6.06e-01	0	41	0	182976512	20	4628
2026-01-12 02:08:42.64	15.94	17.56	-29.2	-31.5	19.8	6.01e-01	0	41	0	184549376	20	4690
2026-01-12 02:08:43.64	15.93	17.69	-29.2	-31.5	19.8	6.04e-01	0	41	0	186646528	20	4679
2026-01-12 02:08:44.65	15.92	17.83	-29.3	-31.6	19.8	6.01e-01	0	41	0	188743680	20	4723
2026-01-12 02:08:45.65	15.90	17.96	-29.3	-31.7	19.8	6.02e-01	0	41	0	190316544	20	4748
2026-01-12 02:08:46.66	15.89	18.09	-29.2	-31.6	19.8	6.03e-01	0	41	0	192413696	20	4702
2026-01-12 02:08:47.67	15.88	18.23	-29.4	-32.0	19.6	6.03e-01	0	41	0	193986560	20	4851
2026-01-12 02:08:48.67	15.86	18.37	-29.5	-32.2	19.5	6.02e-01	0	41	0	196083712	20	4909
2026-01-12 02:08:49.68	15.85	18.50	-29.5	-32.1	19.5	6.04e-01	0	41	0	198180864	20	4893
2026-01-12 02:08:50.69	15.83	18.64	-29.5	-32.2	19.5	6.04e-01	0	41	0	199753728	20	4922
2026-01-12 02:08:51.69	15.82	18.78	-29.5	-32.1	19.5	6.03e-01	0	41	0	201850880	20	4893
2026-01-12 02:08:52.69	15.81	18.92	-29.5	-32.3	19.4	6.02e-01	0	41	0	203423744	20	4962
2026-01-12 02:08:53.70	15.79	19.06	-29.6	-32.4	19.4	6.02e-01	0	41	0	205520896	20	4989
2026-01-12 02:08:54.71	15.78	19.20	-29.6	-32.6	19.3	6.01e-01	0	41	0	207618048	20	5049
2026-01-12 02:08:55.71	15.76	19.34	-29.6	-32.4	19.4	6.02e-01	0	41	0	209190912	20	4983
2026-01-12 02:08:56.72	15.75	19.48	-29.3	-31.8	19.8	6.01e-01	0	41	0	211288064	20	4785
2026-01-12 02:08:57.73	15.73	19.63	-29.3	-31.6	19.9	6.03e-01	0	41	0	212860928	20	4711
2026-01-12 02:08:58.74	15.71	19.77	-29.3	-31.7	19.9	6.03e-01	0	41	0	214958080	20	4731
2026-01-12 02:08:59.74	15.70	19.92	-29.3	-31.6	19.9	6.04e-01	0	41	0	217055232	20	4712
2026-01-12 02:09:00.75	15.68	20.07	-29.3	-31.7	19.9	6.03e-01	0	41	0	218628096	20	4728
2026-01-12 02:09:01.75	15.67	20.21	-29.3	-31.7	19.9	6.03e-01	0	41	0	220725248	20	4745
2026-01-12 02:09:02.76	15.65	20.36	-29.4	-31.8	19.8	6.01e-01	0	41	0	222298112	20	4779
2026-01-12 02:09:03.76	15.63	20.51	-29.5	-32.3	19.5	6.03e-01	0	41	0	224395264	20	4942
2026-01-12 02:09:04.77	15.62	20.66	-29.6	-32.4	19.4	6.03e-01	0	41	0	226492416	20	4995
2026-01-12 02:09:05.78	15.60	20.81	-29.6	-32.4	19.5	6.01e-01	0	41	0	228065280	20	4976
2026-01-12 02:09:06.78	15.58	20.96	-29.7	-32.7	19.3	6.03e-01	0	41	0	230162432	20	5099
2026-01-12 02:09:07.79	15.56	21.12	-29.7	-32.8	19.3	6.02e-01	0	41	0	231735296	20	5125
2026-01-12 02:09:08.79	15.55	21.27	-29.8	-32.9	19.3	6.03e-01	0	41	0	233832448	20	5136
2026-01-12 02:09:09.80	15.53	21.43	-29.9	-33.2	18.9	6.04e-01	0	41	0	235929600	20	5272
2026-01-12 02:09:10.81	15.51	21.59	-29.9	-33.1	19.1	6.02e-01	0	41	0	237502464	20	5235
2026-01-12 02:09:11.82	15.49	21.74	-29.8	-32.9	19.2	6.04e-01	0	41	0	239599616	20	5165
2026-01-12 02:09:12.83	15.47	21.90	-29.9	-33.1	19.1	6.02e-01	0	41	0	241172480	20	5234
2026-01-12 02:09:13.83	15.45	22.06	-29.9	-33.1	19.1	6.03e-01	0	41	0	243269632	20	5242
2026-01-12 02:09:14.84	15.43	22.22	-29.9	-33.3	19.0	6.03e-01	0	41	0	245366784	20	5312
2026-01-12 02:09:15.84	15.41	22.38	-29.9	-33.2	19.0	6.01e-01	0	41	0	246939648	20	5256
2026-01-12 02:09:16.85	15.39	22.55	-29.9	-33.2	19.0	6.03e-01	0	41	0	249036800	20	5271
2026-01-12 02:09:17.85	15.37	22.71	-30.2	-33.5	18.6	6.01e-01	0	41	0	250609664	21	5272
2026-01-12 02:09:18.85	15.35	22.88	-30.2	-33.4	18.6	6.02e-01	0	41	0	252706816	21	5232
2026-01-12 02:09:19.86	15.33	23.04	-30.2	-33.6	18.5	6.03e-01	0	41	0	254803968	21	5291
2026-01-12 02:09:20.86	15.31	23.21	-30.3	-33.9	18.3	6.03e-01	0	41	0	256376832	21	5403
2026-01-12 02:09:21.87	15.29	23.38	-30.3	-33.9	18.3	6.00e-01	0	41	0	258473984	21	5401
2026-01-12 02:09:22.87	15.27	23.55	-30.3	-33.7	18.4	6.03e-01	0	41	0	260046848	21	5326
2026-01-12 02:09:23.88	15.25	23.72	-30.4	-33.9	18.3	6.02e-01	0	41	0	262144000	21	5409
2026-01-12 02:09:24.89	15.23	23.89	-30.6	-34.2	17.8	6.01e-01	0	41	0	264241152	22	5406
2026-01-12 02:09:25.90	15.20	24.07	-30.4	-33.6	18.2	6.04e-01	0	41	0	265814016	22	5200
2026-01-12 02:09:26.90	15.18	24.24	-30.7	-34.5	17.7	6.02e-01	0	41	0	267911168	22	5537
2026-01-12 02:09:27.91	15.16	24.42	-30.7	-34.5	17.6	6.02e-01	0	41	0	269484032	22	5543
2026-01-12 02:09:28.92	15.14	24.60	-30.8	-34.7	17.5	6.02e-01	0	41	0	271581184	22	5631
2026-01-12 02:09:29.92	15.11	24.77	-30.7	-34.4	17.7	6.05e-01	0	41	0	273678336	22	5495
2026-01-12 02:09:30.92	15.09	24.95	-30.6	-33.9	18.0	6.05e-01	0	41	0	275251200	22	5320
2026-01-12 02:09:31.93	15.06	25.14	-30.1	-32.8	18.8	6.02e-01	0	41	0	277348352	22	4874
2026-01-12 02:09:32.93	15.04	25.32	-29.7	-32.1	19.5	6.03e-01	0	41	0	278921216	21	4766
2026-01-12 02:09:33.94	15.01	25.50	-29.6	-31.8	19.7	6.05e-01	0	41	0	281018368	21	4657
2026-01-12 02:09:34.94	14.99	25.69	-29.4	-31.4	19.9	6.04e-01	0	41	0	283115520	21	4521
2026-01-12 02:09:35.95	14.96	25.88	-29.4	-31.8	20.0	6.04e-01	0	41	0	284688384	20	4748
2026-01-12 02:09:36.96	14.94	26.07	-29.4	-31.8	20.0	6.02e-01	0	41	0	286785536	20	4762
2026-01-12 02:09:37.96	14.91	26.25	-29.6	-32.3	19.7	6.01e-01	0	41	0	288358400	20	4920
2026-01-12 02:09:38.96	14.88	26.44	-29.4	-31.9	19.9	6.03e-01	0	41	0	290455552	20	4785
2026-01-12 02:09:39.97	14.86	26.64	-29.3	-31.6	20.1	6.02e-01	0	41	0	292552704	20	4680
2026-01-12 02:09:40.97	14.83	26.83	-29.3	-31.5	20.2	6.02e-01	0	41	0	294125568	20	4644
2026-01-12 02:09:41.98	14.80	27.03	-29.3	-31.6	20.2	6.03e-01	0	41	0	296222720	20	4680
2026-01-12 02:09:42.98	14.77	27.22	-29.2	-31.4	20.3	6.02e-01	0	41	0	297795584	20	4610
2026-01-12 02:09:43.99	14.75	27.42	-29.2	-31.4	20.3	6.04e-01	0	41	0	299892736	20	4615
2026-01-12 02:09:44.99	14.72	27.62	-29.4	-31.7	20.1	6.06e-01	0	41	0	301465600	20	4723
2026-01-12 02:09:46.00	14.69	27.83	-29.3	-31.5	20.2	6.03e-01	0	41	0	303562752	20	4663
2026-01-12 02:09:47.00	14.66	28.03	-29.3	-31.5	20.2	6.03e-01	0	41	0	305659904	20	4638
2026-01-12 02:09:48.01	14.63	28.24	-29.3	-31.6	20.2	6.03e-01	0	41	0	307232768	20	4681
2026-01-12 02:09:49.02	14.60	28.44	-29.1	-31.1	20.4	6.04e-01	0	41	0	309329920	20	4540
2026-01-12 02:09:50.02	14.56	28.65	-29.1	-30.9	20.5	6.02e-01	0	41	0	311427072	20	4476
2026-01-12 02:09:51.03	14.53	28.86	-29.0	-30.9	20.5	6.02e-01	0	41	0	312999936	20	4456
2026-01-12 02:09:52.04	14.50	29.07	-29.1	-31.1	20.4	6.03e-01	0	41	0	315097088	20	4540
2026-01-12 02:09:53.05	14.47	29.29	-29.1	-31.1	20.4	6.03e-01	0	41	0	316669952	20	4531
2026-01-12 02:09:54.05	14.43	29.50	-29.3	-31.6	20.2	6.02e-01	0	41	0	318767104	20	4689
2026-01-12 02:09:55.06	14.40	29.72	-29.2	-31.4	20.3	6.01e-01	0	41	0	320339968	20	4615
2026-01-12 02:09:56.06	14.36	29.94	-29.3	-31.6	20.2	6.03e-01	0	41	0	322437120	20	4687
2026-01-12 02:09:57.06	14.33	30.16	-29.5	-32.1	19.9	6.03e-01	0	41	0	324534272	20	4855
2026-01-12 02:09:58.07	14.29	30.38	-29.3	-31.5	20.2	6.03e-01	0	41	0	326107136	20	4658
2026-01-12 02:09:59.08	14.26	30.61	-29.1	-31.1	20.5	6.03e-01	0	41	0	328204288	20	4513
2026-01-12 02:10:00.08	14.22	30.83	-29.0	-30.8	20.7	6.02e-01	0	41	0	329777152	20	4439
2026-01-12 02:10:01.09	14.18	31.06	-29.0	-30.8	20.7	6.03e-01	0	41	0	331874304	20	4428
2026-01-12 02:10:02.10	14.15	31.29	-28.9	-30.6	20.8	6.03e-01	0	41	0	333971456	20	4377
2026-01-12 02:10:03.10	14.11	31.52	-28.9	-30.6	20.8	6.04e-01	0	41	0	335544320	20	4381
2026-01-12 02:10:04.10	14.07	31.76	-29.1	-30.9	20.7	6.02e-01	0	41	0	337641472	20	4471
2026-01-12 02:10:05.11	14.03	31.99	-29.2	-31.4	20.4	6.03e-01	0	41	0	339214336	20	4599
2026-01-12 02:10:06.11	13.99	32.23	-29.2	-31.4	20.4	6.03e-01	0	41	0	341311488	20	4613
2026-01-12 02:10:07.12	13.95	32.47	-29.2	-31.3	20.4	6.02e-01	0	41	0	343408640	20	4577
2026-01-12 02:10:08.13	13.91	32.72	-29.2	-31.3	20.5	6.03e-01	0	41	0	344981504	20	4572
2026-01-12 02:10:09.13	13.86	32.96	-29.0	-30.9	20.6	6.03e-01	0	41	0	347078656	20	4460
2026-01-12 02:10:10.14	13.82	33.21	-28.9	-30.5	20.8	6.04e-01	0	41	0	348651520	20	4348
2026-01-12 02:10:11.14	13.78	33.45	-29.1	-31.0	20.5	6.02e-01	0	41	0	350748672	20	4496
2026-01-12 02:10:12.15	13.73	33.71	-29.1	-31.0	20.6	6.01e-01	0	41	0	352845824	20	4502
2026-01-12 02:10:13.16	13.69	33.96	-29.3	-31.5	20.3	6.04e-01	0	41	0	354418688	20	4644
2026-01-12 02:10:14.15	13.64	34.21	-29.3	-31.6	20.3	6.01e-01	0	41	0	356515840	20	4686
2026-01-12 02:10:15.16	13.59	34.47	-29.5	-32.0	20.1	6.02e-01	0	41	0	358088704	20	4805
2026-01-12 02:10:16.16	13.54	34.73	-29.5	-32.1	20.0	6.04e-01	0	41	0	360185856	20	4826
2026-01-12 02:10:17.17	13.50	34.99	-29.7	-32.4	19.8	6.02e-01	0	41	0	362283008	20	4949
2026-01-12 02:10:18.18	13.45	35.26	-29.8	-32.8	19.6	6.04e-01	0	41	0	363855872	20	5082
2026-01-12 02:10:19.18	13.40	35.52	-29.9	-33.1	19.4	6.01e-01	0	41	0	365953024	20	5206
2026-01-12 02:10:20.19	13.34	35.79	-29.9	-33.2	19.4	6.05e-01	0	41	0	367525888	20	5211
2026-01-12 02:10:21.20	13.29	36.06	-30.0	-33.2	19.3	6.03e-01	0	41	0	369623040	20	5244
2026-01-12 02:10:22.21	13.24	36.34	-30.1	-33.5	19.2	6.02e-01	0	41	0	371720192	20	5327
2026-01-12 02:10:23.21	13.18	36.61	-30.3	-33.5	18.8	6.05e-01	0	41	0	373293056	21	5229
2026-01-12 02:10:24.22	13.13	36.89	-30.6	-33.9	18.2	6.05e-01	0	41	0	375390208	22	5282
2026-01-12 02:10:25.23	13.07	37.17	-30.4	-33.4	18.6	6.02e-01	0	41	0	376963072	22	5087
2026-01-12 02:10:26.24	13.01	37.46	-30.4	-33.3	18.7	6.05e-01	0	41	0	379060224	22	5018
2026-01-12 02:10:27.24	12.95	37.74	-30.4	-33.3	18.7	6.03e-01	0	41	0	381157376	22	5044
2026-01-12 02:10:28.25	12.89	38.03	-30.6	-33.8	18.4	6.02e-01	0	41	0	382730240	22	5238
2026-01-12 02:10:29.25	12.83	38.32	-30.6	-33.9	18.4	6.05e-01	0	41	0	384827392	22	5251
2026-01-12 02:10:30.26	12.77	38.62	-30.6	-33.9	18.3	6.04e-01	0	41	0	386400256	22	5263
2026-01-12 02:10:31.26	12.71	38.92	-30.6	-33.8	18.4	6.03e-01	0	41	0	388497408	22	5215
2026-01-12 02:10:32.27	12.64	39.22	-30.6	-33.9	18.3	6.01e-01	0	41	0	390594560	22	5263
2026-01-12 02:10:33.27	12.58	39.52	-30.5	-33.7	18.5	6.01e-01	0	41	0	392167424	22	5164
2026-01-12 02:10:34.28	12.51	39.82	-30.4	-33.3	18.7	6.03e-01	0	41	0	394264576	22	5036
2026-01-12 02:10:35.29	12.44	40.13	-30.4	-33.3	18.7	6.04e-01	0	41	0	395837440	22	5022
2026-01-12 02:10:36.30	12.37	40.44	-30.4	-33.5	18.6	6.05e-01	0	42	0	397934592	22	5096
2026-01-12 02:10:37.30	12.30	40.76	-30.4	-33.4	18.6	6.02e-01	0	41	0	400031744	22	5064
2026-01-12 02:10:38.31	12.23	41.07	-30.6	-33.8	18.4	6.01e-01	0	41	0	401604608	22	5213
2026-01-12 02:10:39.32	12.15	41.39	-30.5	-33.5	18.6	6.03e-01	0	41	0	403701760	22	5118
2026-01-12 02:10:40.33	12.07	41.72	-30.5	-33.8	18.4	6.04e-01	0	42	0	405274624	22	5209
2026-01-12 02:10:41.33	12.00	42.04	-30.6	-34.0	18.2	6.01e-01	0	41	0	407371776	22	5314
2026-01-12 02:10:42.34	11.92	42.37	-30.5	-33.5	18.5	6.03e-01	0	41	0	409468928	22	5120
2026-01-12 02:10:43.34	11.84	42.70	-30.4	-33.3	18.7	6.03e-01	0	41	0	411041792	22	5019
2026-01-12 02:10:44.35	11.75	43.04	-30.4	-33.4	18.7	6.05e-01	0	41	0	413138944	22	5071
2026-01-12 02:10:45.36	11.67	43.37	-30.7	-34.1	18.2	6.02e-01	0	41	0	414711808	22	5339
2026-01-12 02:10:46.37	11.58	43.72	-30.5	-33.6	18.5	6.04e-01	0	41	0	416808960	22	5147
2026-01-12 02:10:47.37	11.49	44.06	-30.5	-33.6	18.6	6.04e-01	0	41	0	418906112	22	5143
2026-01-12 02:10:48.38	11.40	44.41	-30.6	-34.0	18.3	6.04e-01	0	41	0	420478976	22	5305
2026-01-12 02:10:49.39	11.31	44.76	-30.0	-32.2	19.4	6.03e-01	0	41	0	422576128	22	4661
2026-01-12 02:10:50.40	11.21	45.11	-29.6	-31.7	20.0	6.03e-01	0	41	0	424148992	21	4590
2026-01-12 02:10:51.40	11.11	45.47	-29.5	-31.5	20.1	6.02e-01	0	42	0	426246144	21	4532
2026-01-12 02:10:52.41	11.01	45.83	-29.5	-31.6	20.1	6.01e-01	0	42	0	428343296	21	4569
2026-01-12 02:10:53.42	10.91	46.19	-29.9	-32.4	19.6	6.04e-01	0	41	0	429916160	21	4829
2026-01-12 02:10:54.42	10.80	46.56	-29.7	-32.0	19.7	6.02e-01	0	41	0	432013312	21	4692
2026-01-12 02:10:55.42	10.70	46.92	-29.5	-31.6	20.0	6.01e-01	0	42	0	433586176	21	4551
2026-01-12 02:10:56.43	10.59	47.30	-29.7	-32.0	19.8	6.04e-01	0	41	0	435683328	21	4683
2026-01-12 02:10:57.43	10.47	47.67	-29.6	-31.7	20.0	6.05e-01	0	41	0	437780480	21	4607
2026-01-12 02:10:58.44	10.36	48.05	-29.6	-31.7	20.0	6.03e-01	0	42	0	439353344	21	4592
2026-01-12 02:10:59.44	10.24	48.43	-29.7	-32.0	19.9	6.05e-01	0	41	0	441450496	21	4689
2026-01-12 02:11:00.44	10.12	48.82	-29.4	-31.2	20.3	6.02e-01	0	41	0	443023360	21	4448
2026-01-12 02:11:01.45	9.99	49.21	-29.5	-32.1	20.1	6.02e-01	0	41	0	445120512	20	4814
2026-01-12 02:11:02.46	9.86	49.60	-29.7	-32.4	19.9	6.04e-01	0	41	0	446693376	20	4928
2026-01-12 02:11:03.46	9.73	50.00	-29.3	-31.6	20.3	6.02e-01	0	42	0	448790528	20	4656
2026-01-12 02:11:04.47	9.59	50.40	-29.4	-31.6	20.4	6.04e-01	0	41	0	450887680	20	4664
2026-01-12 02:11:05.48	9.45	50.80	-29.3	-31.5	20.5	6.04e-01	0	41	0	452460544	20	4622
2026-01-12 02:11:06.48	9.31	51.21	-29.2	-31.3	20.5	6.03e-01	0	41	0	454557696	20	4581
2026-01-12 02:11:07.49	9.16	51.62	-29.2	-31.3	20.6	6.03e-01	0	42	0	456654848	20	4561
2026-01-12 02:11:08.50	9.01	52.04	-29.1	-31.1	20.7	6.02e-01	0	41	0	458227712	20	4501
2026-01-12 02:11:09.50	8.85	52.45	-29.2	-31.3	20.5	6.03e-01	0	41	0	460324864	20	4585
2026-01-12 02:11:10.50	8.69	52.87	-29.2	-31.3	20.6	6.02e-01	0	41	0	461897728	20	4559
2026-01-12 02:11:11.51	8.53	53.30	-29.2	-31.1	20.6	6.02e-01	0	41	0	463994880	20	4520
2026-01-12 02:11:12.52	8.35	53.73	-29.2	-31.2	20.7	6.03e-01	0	41	0	465567744	20	4550
2026-01-12 02:11:13.52	8.18	54.16	-28.8	-30.8	21.2	6.03e-01	0	41	0	467664896	19	4516
2026-01-12 02:11:14.53	8.00	54.59	-29.0	-31.1	21.1	6.00e-01	0	41	0	469762048	19	4604
2026-01-12 02:11:15.53	7.81	55.03	-29.2	-31.8	20.6	6.01e-01	0	41	0	471334912	19	4834
2026-01-12 02:11:16.53	7.62	55.47	-29.4	-32.2	20.3	6.03e-01	0	42	0	473432064	19	4978
2026-01-12 02:11:17.54	7.41	55.92	-29.3	-32.0	20.5	6.04e-01	0	42	0	475004928	19	4914
2026-01-12 02:11:18.54	7.21	56.36	-29.2	-31.7	20.7	6.03e-01	0	42	0	477102080	19	4786
2026-01-12 02:11:19.55	6.99	56.82	-29.4	-32.1	20.5	6.04e-01	0	42	0	479199232	19	4945
2026-01-12 02:11:20.55	6.77	57.27	-29.6	-32.3	20.0	6.03e-01	0	41	0	480772096	20	4905
2026-01-12 02:11:21.56	6.54	57.73	-29.6	-32.3	20.0	6.05e-01	0	42	0	482869248	20	4894
2026-01-12 02:11:22.57	6.30	58.20	-30.0	-33.1	19.4	6.04e-01	0	41	0	484966400	20	5198
2026-01-12 02:11:23.58	6.06	58.67	-29.8	-32.8	19.7	6.01e-01	0	41	0	486539264	20	5078
2026-01-12 02:11:24.58	5.80	59.13	-30.1	-33.0	19.3	6.01e-01	0	42	0	488636416	21	5027
2026-01-12 02:11:25.58	5.54	59.60	-30.0	-32.6	19.5	6.02e-01	0	41	0	490209280	21	4908
2026-01-12 02:11:26.59	5.27	60.08	-30.1	-33.0	19.2	6.03e-01	0	42	0	492306432	21	5034
2026-01-12 02:11:27.60	4.98	60.56	-30.0	-32.7	19.5	6.03e-01	0	42	0	493879296	21	4926
2026-01-12 02:11:28.60	4.68	61.04	-30.3	-33.6	18.9	6.04e-01	0	41	0	495976448	21	5263
2026-01-12 02:11:29.61	4.37	61.53	-30.2	-33.3	19.1	6.04e-01	0	41	0	498073600	21	5141
2026-01-12 02:11:30.61	4.06	62.01	-30.4	-33.8	18.8	6.03e-01	0	41	0	499646464	21	5339
2026-01-12 02:11:31.62	3.72	62.51	-30.3	-33.6	18.9	6.00e-01	0	42	0	501743616	21	5261
2026-01-12 02:11:32.62	3.37	63.00	-30.7	-34.1	18.3	6.04e-01	0	41	0	503316480	22	5327
2026-01-12 02:11:33.63	3.01	63.50	-30.9	-34.7	17.9	6.03e-01	0	42	0	505413632	22	5553
2026-01-12 02:11:34.64	2.63	64.00	-30.7	-34.1	18.3	6.02e-01	0	41	0	507510784	22	5313
2026-01-12 02:11:35.65	2.23	64.50	-30.9	-34.6	18.0	5.99e-01	0	41	0	509083648	22	5538
2026-01-12 02:11:36.66	1.81	65.01	-31.2	-35.1	17.4	6.04e-01	0	42	0	511180800	23	5625
2026-01-12 02:11:37.66	1.38	65.51	-31.3	-35.5	17.1	6.02e-01	0	42	0	512753664	23	5811
2026-01-12 02:11:38.67	0.93	66.02	-31.4	-35.6	17.0	6.02e-01	0	41	0	514850816	23	5850
2026-01-12 02:11:39.67	0.45	66.53	-31.7	-36.0	16.4	6.03e-01	0	42	0	516947968	24	5937
2026-01-12 02:11:40.66	359.96	67.03	-31.9	-36.8	15.9	6.04e-01	0	41	0	518520832	24	6297
2026-01-12 02:11:41.67	359.43	67.55	-31.9	-36.8	15.9	6.04e-01	0	41	0	520617984	24	6327
2026-01-12 02:11:42.67	358.89	68.06	-32.1	-37.3	15.5	6.02e-01	0	41	0	522190848	24	6562
2026-01-12 02:11:43.68	358.30	68.58	-32.3	-37.5	15.1	6.05e-01	0	42	0	524288000	25	6572
2026-01-12 02:11:44.69	357.69	69.10	-32.4	-37.9	14.8	6.05e-01	0	42	0	526385152	25	6772
2026-01-12 02:11:45.70	357.04	69.62	-32.1	-37.0	15.3	6.03e-01	0	41	0	527958016	25	6314
2026-01-12 02:11:46.70	356.36	70.13	-32.3	-37.5	15.1	6.04e-01	0	41	0	530055168	25	6578
2026-01-12 02:11:47.70	355.64	70.65	-32.3	-37.4	15.1	6.02e-01	0	41	0	531628032	25	6535
2026-01-12 02:11:48.72	354.86	71.17	-32.1	-36.9	15.5	6.04e-01	0	41	0	533725184	25	6247
2026-01-12 02:11:49.72	354.06	71.68	-32.1	-36.7	15.7	6.04e-01	0	42	0	535822336	25	6146
2026-01-12 02:11:50.71	353.21	72.19	-32.4	-37.9	14.8	6.03e-01	0	41	0	537395200	25	6783
2026-01-12 02:11:51.72	352.29	72.71	-32.0	-36.6	15.7	6.03e-01	0	41	0	539492352	25	6104
2026-01-12 02:11:52.72	351.32	73.22	-32.3	-37.6	15.0	6.06e-01	0	42	0	541065216	25	6615
2026-01-12 02:11:53.73	350.28	73.73	-32.6	-38.3	14.1	6.04e-01	0	42	0	543162368	26	6900
2026-01-12 02:11:54.73	349.17	74.23	-32.4	-37.4	14.8	6.02e-01	0	41	0	544735232	26	6411
2026-01-12 02:11:55.74	347.98	74.74	-32.7	-38.7	13.8	6.02e-01	0	41	0	546832384	26	7158
2026-01-12 02:11:56.75	346.70	75.24	-32.8	-39.0	13.5	6.05e-01	0	41	0	548929536	26	7317
2026-01-12 02:11:57.76	345.33	75.73	-32.7	-38.8	13.7	6.05e-01	0	41	0	550502400	26	7188
2026-01-12 02:11:58.76	343.88	76.21	-32.7	-38.7	13.9	6.02e-01	0	42	0	552599552	26	7150
2026-01-12 02:11:59.77	342.30	76.69	-32.6	-38.3	14.0	6.00e-01	0	41	0	554172416	26	6924
2026-01-12 02:12:00.77	340.61	77.16	-32.4	-37.4	14.7	6.04e-01	0	42	0	556269568	26	6407
2026-01-12 02:12:01.78	338.78	77.62	-32.4	-37.3	14.8	6.04e-01	0	41	0	558366720	26	6376
2026-01-12 02:12:02.78	336.82	78.06	-32.2	-36.7	15.2	6.03e-01	0	41	0	559939584	26	6065
2026-01-12 02:12:03.79	334.69	78.50	-32.5	-37.9	14.5	6.02e-01	0	41	0	562036736	26	6663
2026-01-12 02:12:04.80	332.39	78.92	-32.2	-36.6	15.4	6.04e-01	0	42	0	563609600	26	6000
2026-01-12 02:12:05.80	329.93	79.32	-31.8	-35.7	16.4	6.03e-01	0	41	0	565706752	25	5647
2026-01-12 02:12:06.81	327.26	79.70	-31.5	-35.0	16.9	6.03e-01	0	41	0	567803904	25	5363
2026-01-12 02:12:07.81	324.41	80.05	-30.8	-33.8	18.2	6.04e-01	0	42	0	569376768	23	5077
2026-01-12 02:12:08.82	321.33	80.38	-30.9	-34.1	18.1	6.02e-01	0	42	0	571473920	23	5208
2026-01-12 02:12:09.82	318.07	80.68	-30.9	-33.9	18.1	6.04e-01	0	42	0	573046784	23	5135
2026-01-12 02:12:10.83	314.56	80.96	-31.4	-35.5	17.3	6.03e-01	0	42	0	575143936	23	5780
2026-01-12 02:12:11.83	310.88	81.19	-31.3	-35.1	17.4	6.04e-01	0	42	0	577241088	23	5630
2026-01-12 02:12:12.84	306.97	81.39	-31.2	-35.0	17.5	6.03e-01	0	42	0	578813952	23	5566
2026-01-12 02:12:13.85	302.90	81.55	-30.8	-33.7	18.4	6.02e-01	0	42	0	580911104	23	5034
2026-01-12 02:12:14.86	298.69	81.66	-31.4	-35.4	17.4	6.02e-01	0	42	0	582483968	23	5759
2026-01-12 02:12:15.86	294.43	81.73	-30.7	-33.4	18.6	6.05e-01	0	42	0	584581120	23	4911
2026-01-12 02:12:16.86	290.13	81.75	-31.5	-35.8	17.1	6.02e-01	0	42	0	586678272	23	5929
2026-01-12 02:12:17.87	285.78	81.72	-31.0	-33.9	17.9	6.04e-01	0	42	0	588251136	24	5001
2026-01-12 02:12:18.88	281.49	81.65	-30.6	-33.1	18.9	6.01e-01	0	41	0	590348288	23	4814
2026-01-12 02:12:19.89	277.29	81.54	-30.8	-33.7	18.4	6.02e-01	0	42	0	591921152	23	5040
2026-01-12 02:12:20.89	273.26	81.38	-30.4	-32.8	19.0	6.03e-01	0	42	0	594018304	23	4701
2026-01-12 02:12:21.90	269.37	81.18	-31.0	-34.4	17.9	6.01e-01	0	42	0	596115456	23	5314
2026-01-12 02:12:22.90	265.70	80.94	-30.9	-34.0	18.2	6.05e-01	0	42	0	597688320	23	5149
2026-01-12 02:12:23.91	262.20	80.67	-31.2	-35.0	17.5	6.00e-01	0	42	0	599785472	23	5555
2026-01-12 02:12:24.91	258.95	80.36	-30.5	-33.0	18.8	6.01e-01	0	42	0	601358336	23	4782
2026-01-12 02:12:25.92	255.88	80.03	-30.7	-33.5	18.5	6.05e-01	0	41	0	603455488	23	4967
2026-01-12 02:12:26.93	253.02	79.67	-30.7	-33.5	18.4	6.03e-01	0	42	0	605552640	23	4991
2026-01-12 02:12:27.93	250.38	79.29	-30.5	-33.5	18.7	6.02e-01	0	42	0	607125504	22	5081
2026-01-12 02:12:28.94	247.92	78.89	-30.6	-33.7	18.6	6.04e-01	0	42	0	609222656	22	5161
2026-01-12 02:12:29.95	245.63	78.47	-30.9	-34.6	18.1	6.04e-01	0	42	0	610795520	22	5516
2026-01-12 02:12:30.95	243.53	78.03	-31.3	-35.3	17.3	6.03e-01	0	42	0	612892672	23	5713
2026-01-12 02:12:31.96	241.56	77.58	-31.3	-35.4	17.2	6.03e-01	0	41	0	614989824	23	5754
2026-01-12 02:12:32.96	239.75	77.13	-31.8	-36.3	16.2	6.04e-01	0	41	0	616562688	24	6066
2026-01-12 02:12:33.97	238.06	76.65	-31.8	-36.3	16.2	6.05e-01	0	42	0	618659840	24	6059
2026-01-12 02:12:34.97	236.50	76.18	-32.3	-37.5	14.9	6.03e-01	0	41	0	620232704	25	6597
2026-01-12 02:12:35.98	235.04	75.69	-32.1	-36.8	15.5	6.03e-01	0	42	0	622329856	25	6181
2026-01-12 02:12:36.99	233.67	75.19	-32.5	-38.5	14.3	6.06e-01	0	42	0	624427008	25	7153
2026-01-12 02:12:37.99	232.41	74.70	-32.4	-37.3	14.6	6.03e-01	0	42	0	625999872	26	6389
2026-01-12 02:12:39.00	231.23	74.19	-31.8	-36.0	16.1	6.05e-01	0	42	0	628097024	25	5808
2026-01-12 02:12:40.01	230.12	73.68	-31.6	-35.3	16.6	6.01e-01	0	41	0	629669888	25	5479
2026-01-12 02:12:41.01	229.09	73.18	-31.6	-35.3	16.6	6.02e-01	0	42	0	631767040	25	5504
2026-01-12 02:12:42.02	228.11	72.66	-31.7	-35.6	16.4	6.04e-01	0	42	0	633339904	25	5636
2026-01-12 02:12:43.02	227.20	72.15	-31.7	-35.7	16.2	6.03e-01	0	42	0	635437056	25	5699
2026-01-12 02:12:44.02	226.35	71.63	-31.9	-36.3	15.8	6.00e-01	0	42	0	637534208	25	5978
2026-01-12 02:12:45.03	225.54	71.11	-32.2	-37.2	15.3	6.00e-01	0	41	0	639107072	25	6412
2026-01-12 02:12:46.03	224.78	70.60	-32.3	-37.6	14.8	6.04e-01	0	42	0	641204224	25	6650
2026-01-12 02:12:47.04	224.06	70.08	-32.1	-37.1	15.3	6.04e-01	0	41	0	643301376	25	6350
2026-01-12 02:12:48.05	223.38	69.56	-32.5	-38.6	14.1	6.05e-01	0	42	0	644874240	25	7273
2026-01-12 02:12:49.05	222.74	69.04	-32.4	-37.5	14.6	6.05e-01	0	42	0	646971392	26	6480
2026-01-12 02:12:50.05	222.13	68.53	-32.7	-38.8	13.4	6.04e-01	0	42	0	648544256	26	7274
2026-01-12 02:12:51.06	221.55	68.01	-32.7	-38.7	13.6	6.05e-01	0	42	0	650641408	26	7234
2026-01-12 02:12:52.06	221.00	67.49	-32.5	-37.9	14.3	6.03e-01	0	42	0	652214272	26	6722
2026-01-12 02:12:53.07	220.47	66.98	-32.4	-37.6	14.4	6.03e-01	0	42	0	654311424	26	6559
2026-01-12 02:12:54.07	219.98	66.47	-31.8	-36.1	15.9	6.03e-01	0	42	0	656408576	25	5858
2026-01-12 02:12:55.08	219.50	65.95	-31.8	-36.1	16.0	6.02e-01	0	42	0	657981440	25	5883
2026-01-12 02:12:56.08	219.05	65.45	-32.4	-38.4	14.3	6.03e-01	0	42	0	660078592	25	7117
2026-01-12 02:12:57.08	218.62	64.94	-32.0	-36.9	15.3	6.02e-01	0	42	0	661651456	25	6290
2026-01-12 02:12:58.09	218.21	64.44	-31.6	-35.4	16.4	6.04e-01	0	41	0	663748608	25	5548
2026-01-12 02:12:59.09	217.81	63.94	-31.8	-36.1	15.9	6.04e-01	0	42	0	665845760	25	5912
2026-01-12 02:13:00.09	217.44	63.44	-31.6	-35.3	16.5	6.01e-01	0	42	0	667418624	25	5515
2026-01-12 02:13:01.09	217.08	62.95	-31.4	-34.9	16.7	6.03e-01	0	42	0	669515776	25	5355
2026-01-12 02:13:02.10	216.73	62.45	-31.3	-34.8	17.2	6.04e-01	0	42	0	671088640	24	5408
2026-01-12 02:13:03.10	216.40	61.96	-31.1	-34.3	17.5	6.05e-01	0	42	0	673185792	24	5198
2026-01-12 02:13:04.11	216.07	61.47	-31.7	-36.1	16.3	6.02e-01	0	42	0	675282944	24	5980
2026-01-12 02:13:05.12	215.77	60.98	-31.4	-35.3	16.8	6.02e-01	0	41	0	676855808	24	5630
2026-01-12 02:13:06.12	215.47	60.50	-31.6	-35.9	16.4	6.04e-01	0	42	0	678952960	24	5894
2026-01-12 02:13:07.13	215.19	60.02	-31.5	-35.6	16.7	6.02e-01	0	42	0	680525824	24	5749
2026-01-12 02:13:08.14	214.91	59.54	-31.8	-36.4	16.0	6.05e-01	0	42	0	682622976	24	6157
2026-01-12 02:13:09.14	214.65	59.07	-31.5	-35.6	16.6	6.03e-01	0	42	0	684720128	24	5773
2026-01-12 02:13:10.15	214.39	58.59	-31.1	-34.4	17.3	6.04e-01	0	42	0	686292992	24	5268
2026-01-12 02:13:11.15	214.15	58.13	-30.7	-33.7	18.1	6.03e-01	0	42	0	688390144	23	5086
2026-01-12 02:13:12.15	213.91	57.67	-30.3	-33.2	18.8	6.02e-01	0	41	0	689963008	22	5002
2026-01-12 02:13:13.16	213.68	57.21	-29.7	-32.0	19.8	6.02e-01	0	42	0	692060160	21	4693
2026-01-12 02:13:14.17	213.46	56.75	-29.6	-31.6	20.0	6.04e-01	0	41	0	694157312	21	4580
2026-01-12 02:13:15.18	213.24	56.29	-29.5	-31.6	20.1	6.02e-01	0	42	0	695730176	21	4566
2026-01-12 02:13:16.18	213.04	55.84	-29.4	-31.4	20.1	6.05e-01	0	42	0	697827328	21	4506
2026-01-12 02:13:17.18	212.84	55.40	-29.1	-31.1	20.5	6.03e-01	0	42	0	699400192	20	4518
2026-01-12 02:13:18.19	212.64	54.95	-28.8	-30.8	21.1	6.01e-01	0	42	0	701497344	19	4523
2026-01-12 02:13:19.20	212.46	54.51	-28.5	-29.9	21.6	6.02e-01	0	42	0	703594496	19	4273
2026-01-12 02:13:20.20	212.27	54.08	-28.3	-30.1	21.8	6.00e-01	0	42	0	705167360	18	4423
2026-01-12 02:13:21.21	212.10	53.64	-28.4	-30.3	21.7	6.03e-01	0	42	0	707264512	18	4474
2026-01-12 02:13:22.22	211.93	53.21	-28.7	-31.1	21.1	6.02e-01	0	41	0	708837376	18	4736
2026-01-12 02:13:23.22	211.76	52.79	-28.7	-31.0	21.3	6.02e-01	0	42	0	710934528	18	4690
2026-01-12 02:13:24.23	211.60	52.37	-28.6	-30.9	21.3	6.04e-01	0	42	0	713031680	18	4661
2026-01-12 02:13:25.24	211.44	51.95	-28.7	-31.0	21.2	6.02e-01	0	42	0	714604544	18	4719
2026-01-12 02:13:26.24	211.29	51.53	-28.6	-30.9	21.4	6.02e-01	0	42	0	716701696	18	4654
2026-01-12 02:13:27.25	211.14	51.12	-28.7	-31.0	21.3	6.04e-01	0	42	0	718274560	18	4689
2026-01-12 02:13:28.25	211.00	50.71	-29.0	-31.9	20.7	6.02e-01	0	42	0	720371712	18	4997
2026-01-12 02:13:29.26	210.86	50.31	-29.5	-32.6	20.0	6.03e-01	0	41	0	721944576	19	5128
2026-01-12 02:13:30.27	210.72	49.90	-29.4	-32.3	20.2	6.02e-01	0	42	0	724041728	19	5030
2026-01-12 02:13:31.28	210.59	49.51	-29.4	-32.2	20.2	6.04e-01	0	41	0	726138880	19	4987
2026-01-12 02:13:32.28	210.46	49.11	-29.3	-32.1	20.3	6.04e-01	0	42	0	727711744	19	4952
2026-01-12 02:13:33.29	210.33	48.72	-29.1	-31.4	20.7	6.02e-01	0	42	0	729808896	19	4729
2026-01-12 02:13:34.29	210.21	48.34	-29.0	-31.2	20.8	6.06e-01	0	42	0	731906048	19	4640
2026-01-12 02:13:35.29	210.09	47.95	-29.2	-31.9	20.4	6.02e-01	0	41	0	733478912	19	4869
2026-01-12 02:13:36.29	209.98	47.58	-29.4	-32.3	20.2	6.03e-01	0	42	0	735576064	19	5009
2026-01-12 02:13:37.30	209.87	47.20	-29.5	-32.1	19.9	6.03e-01	0	42	0	737148928	20	4863
2026-01-12 02:13:38.30	209.76	46.83	-29.2	-31.3	20.4	6.04e-01	0	41	0	739246080	20	4589
2026-01-12 02:13:39.30	209.65	46.46	-29.2	-31.2	20.4	6.03e-01	0	42	0	740818944	20	4572
2026-01-12 02:13:40.31	209.54	46.09	-29.2	-31.3	20.4	6.03e-01	0	42	0	742916096	20	4608
2026-01-12 02:13:41.31	209.44	45.73	-29.1	-31.1	20.5	6.03e-01	0	41	0	745013248	20	4521
2026-01-12 02:13:42.31	209.34	45.37	-29.1	-31.1	20.5	6.03e-01	0	41	0	746586112	20	4535
2026-01-12 02:13:43.32	209.24	45.01	-29.1	-31.0	20.6	6.00e-01	0	41	0	748683264	20	4482
2026-01-12 02:13:44.32	209.15	44.66	-29.2	-31.2	20.4	6.04e-01	0	42	0	750256128	20	4550
2026-01-12 02:13:45.32	209.05	44.31	-29.1	-31.2	20.4	6.03e-01	0	42	0	752353280	20	4541
2026-01-12 02:13:46.32	208.96	43.96	-29.2	-31.4	20.3	6.02e-01	0	41	0	754450432	20	4637
2026-01-12 02:13:47.33	208.87	43.62	-29.3	-31.6	20.2	6.02e-01	0	42	0	756023296	20	4686
2026-01-12 02:13:48.34	208.79	43.27	-29.4	-31.8	20.1	6.02e-01	0	41	0	758120448	20	4765
2026-01-12 02:13:49.35	208.70	42.93	-29.4	-31.9	20.0	6.04e-01	0	41	0	759693312	20	4800
2026-01-12 02:13:50.35	208.62	42.60	-29.5	-32.0	19.9	6.01e-01	0	42	0	761790464	20	4829
2026-01-12 02:13:51.36	208.54	42.27	-29.4	-31.9	20.1	6.02e-01	0	42	0	763363328	20	4785
2026-01-12 02:13:52.37	208.46	41.94	-29.5	-32.2	19.9	6.03e-01	0	41	0	765460480	20	4880
2026-01-12 02:13:53.37	208.38	41.61	-29.7	-32.6	19.6	6.00e-01	0	41	0	767557632	20	5026
2026-01-12 02:13:54.38	208.30	41.29	-29.8	-32.8	19.4	6.04e-01	0	42	0	769130496	20	5095
2026-01-12 02:13:55.39	208.23	40.97	-29.9	-33.2	19.2	6.02e-01	0	41	0	771227648	20	5236
2026-01-12 02:13:56.39	208.15	40.65	-29.9	-33.1	19.3	6.01e-01	0	41	0	773324800	20	5201
2026-01-12 02:13:57.40	208.08	40.34	-29.9	-33.0	19.3	6.04e-01	0	42	0	774897664	20	5177
2026-01-12 02:13:58.41	208.01	40.02	-29.8	-33.0	19.4	6.02e-01	0	42	0	776994816	20	5157
2026-01-12 02:13:59.42	207.94	39.71	-30.1	-33.6	19.0	6.02e-01	0	42	0	778567680	20	5401
2026-01-12 02:14:00.42	207.87	39.41	-30.3	-33.6	18.7	6.01e-01	0	42	0	780664832	21	5296
2026-01-12 02:14:01.43	207.81	39.10	-30.3	-33.9	18.5	6.04e-01	0	42	0	782761984	21	5393
2026-01-12 02:14:02.44	207.74	38.80	-30.3	-33.7	18.6	6.02e-01	0	42	0	784334848	21	5327
2026-01-12 02:14:03.44	207.68	38.51	-30.4	-34.0	18.4	6.05e-01	0	41	0	786432000	21	5442
2026-01-12 02:14:04.45	207.62	38.21	-30.3	-33.8	18.4	6.03e-01	0	41	0	788004864	21	5382
2026-01-12 02:14:05.45	207.56	37.92	-30.2	-33.3	18.8	6.02e-01	0	41	0	790102016	21	5189
2026-01-12 02:14:06.46	207.49	37.63	-30.1	-33.2	18.8	6.05e-01	0	42	0	791674880	21	5151
2026-01-12 02:14:07.46	207.44	37.34	-30.1	-33.3	18.8	6.02e-01	0	41	0	793772032	21	5177
2026-01-12 02:14:08.47	207.38	37.06	-30.0	-33.1	19.0	6.02e-01	0	42	0	795869184	21	5101
2026-01-12 02:14:09.48	207.32	36.77	-30.0	-32.9	19.1	6.03e-01	0	41	0	797442048	21	5024
2026-01-12 02:14:10.48	207.27	36.50	-30.0	-32.8	19.1	6.03e-01	0	42	0	799539200	21	5014
2026-01-12 02:14:11.49	207.21	36.22	-29.9	-32.7	19.2	6.02e-01	0	42	0	801636352	21	4967
2026-01-12 02:14:12.49	207.16	35.95	-29.9	-32.7	19.2	6.02e-01	0	41	0	803209216	21	4964
2026-01-12 02:14:13.50	207.10	35.67	-29.9	-32.7	19.2	6.01e-01	0	42	0	805306368	21	4958
2026-01-12 02:14:14.50	207.05	35.40	-30.0	-32.8	19.1	6.02e-01	0	42	0	806879232	21	5006
2026-01-12 02:14:15.51	207.00	35.14	-30.0	-32.9	19.0	6.00e-01	0	42	0	808976384	21	5046
2026-01-12 02:14:16.51	206.95	34.87	-29.9	-32.7	19.2	6.03e-01	0	42	0	810549248	21	4978
2026-01-12 02:14:17.51	206.90	34.61	-29.6	-31.9	19.6	6.03e-01	0	42	0	812646400	21	4694
2026-01-12 02:14:18.52	206.85	34.35	-29.4	-31.4	19.9	6.03e-01	0	42	0	814743552	21	4530
2026-01-12 02:14:19.52	206.81	34.09	-29.3	-31.6	20.0	6.02e-01	0	41	0	816316416	20	4702
2026-01-12 02:14:20.52	206.76	33.84	-29.4	-31.8	20.0	6.04e-01	0	42	0	818413568	20	4751
2026-01-12 02:14:21.53	206.71	33.58	-29.4	-31.9	19.9	6.03e-01	0	42	0	819986432	20	4778
2026-01-12 02:14:22.54	206.67	33.33	-29.2	-31.4	20.3	6.04e-01	0	42	0	822083584	20	4627
2026-01-12 02:14:23.54	206.63	33.08	-29.3	-31.5	20.1	6.04e-01	0	42	0	824180736	20	4677
2026-01-12 02:14:24.55	206.58	32.84	-29.0	-30.9	20.5	6.02e-01	0	42	0	825753600	20	4481
2026-01-12 02:14:25.55	206.54	32.59	-29.0	-31.0	20.5	6.04e-01	0	42	0	827850752	20	4499
2026-01-12 02:14:26.56	206.50	32.35	-29.0	-31.0	20.4	6.02e-01	0	42	0	829423616	20	4507
2026-01-12 02:14:27.57	206.45	32.11	-29.1	-31.0	20.4	6.03e-01	0	42	0	831520768	20	4518
2026-01-12 02:14:28.58	206.41	31.87	-29.1	-31.1	20.4	6.02e-01	0	42	0	833617920	20	4538
2026-01-12 02:14:29.58	206.37	31.63	-28.9	-30.6	20.7	6.03e-01	0	42	0	835190784	20	4389
2026-01-12 02:14:30.59	206.33	31.40	-28.9	-31.2	20.7	6.03e-01	0	42	0	837287936	19	4663
2026-01-12 02:14:31.60	206.30	31.16	-28.8	-31.0	20.8	6.01e-01	0	42	0	838860800	19	4604
2026-01-12 02:14:32.60	206.26	30.93	-28.8	-30.8	20.9	6.02e-01	0	42	0	840957952	19	4563
2026-01-12 02:14:33.61	206.22	30.70	-28.8	-30.9	20.8	6.03e-01	0	42	0	843055104	19	4593
2026-01-12 02:14:34.61	206.18	30.48	-28.7	-30.7	20.9	6.04e-01	0	42	0	844627968	19	4514
2026-01-12 02:14:35.61	206.15	30.25	-28.6	-30.5	21.0	6.01e-01	0	41	0	846725120	19	4453
2026-01-12 02:14:36.61	206.11	30.03	-28.6	-30.4	21.0	6.04e-01	0	42	0	848297984	19	4426
2026-01-12 02:14:37.61	206.08	29.81	-28.6	-30.5	21.0	6.03e-01	0	42	0	850395136	19	4457
2026-01-12 02:14:38.61	206.04	29.59	-28.6	-30.3	21.1	6.03e-01	0	42	0	851968000	19	4405
2026-01-12 02:14:39.62	206.01	29.37	-28.5	-30.1	21.2	6.03e-01	0	42	0	854065152	19	4342
2026-01-12 02:14:40.62	205.97	29.16	-28.5	-30.2	21.2	6.02e-01	0	42	0	856162304	19	4368
2026-01-12 02:14:41.63	205.94	28.94	-28.6	-30.3	21.1	6.02e-01	0	41	0	857735168	19	4410
2026-01-12 02:14:42.63	205.91	28.73	-28.6	-30.5	21.1	6.05e-01	0	42	0	859832320	19	4454
2026-01-12 02:14:43.64	205.87	28.52	-28.7	-30.7	20.9	6.03e-01	0	41	0	861929472	19	4525
2026-01-12 02:14:44.65	205.84	28.31	-28.7	-30.7	20.9	6.03e-01	0	42	0	863502336	19	4531
2026-01-12 02:14:45.65	205.81	28.10	-28.8	-30.9	20.8	6.03e-01	0	42	0	865599488	19	4585
2026-01-12 02:14:46.66	205.78	27.90	-28.9	-31.1	20.7	6.02e-01	0	41	0	867172352	19	4640
2026-01-12 02:14:47.66	205.75	27.69	-28.9	-31.2	20.6	6.03e-01	0	42	0	869269504	19	4678
2026-01-12 02:14:48.67	205.72	27.49	-29.0	-31.4	20.5	6.02e-01	0	42	0	871366656	19	4734
2026-01-12 02:14:49.67	205.69	27.29	-29.1	-31.7	20.3	6.02e-01	0	42	0	872939520	19	4856
2026-01-12 02:14:50.68	205.66	27.09	-29.2	-31.8	20.2	6.03e-01	0	42	0	875036672	19	4896
2026-01-12 02:14:51.69	205.63	26.89	-29.2	-32.0	20.1	6.03e-01	0	41	0	876609536	19	4951
2026-01-12 02:14:52.69	205.60	26.70	-29.2	-31.9	20.2	6.04e-01	0	42	0	878706688	19	4922
2026-01-12 02:14:53.70	205.58	26.50	-29.2	-31.9	20.2	6.04e-01	0	42	0	880279552	19	4930
2026-01-12 02:14:54.71	205.55	26.31	-29.3	-32.1	20.1	6.03e-01	0	42	0	882376704	19	4978
2026-01-12 02:14:55.71	205.52	26.11	-29.4	-32.4	19.9	6.05e-01	0	42	0	884473856	19	5080
2026-01-12 02:14:56.71	205.49	25.93	-29.3	-32.3	19.9	6.03e-01	0	42	0	886046720	19	5054
2026-01-12 02:14:57.72	205.47	25.74	-29.2	-32.0	20.1	6.05e-01	0	42	0	888143872	19	4937
2026-01-12 02:14:58.72	205.44	25.55	-29.3	-32.1	20.0	6.02e-01	0	42	0	890241024	19	4981
2026-01-12 02:14:59.73	205.42	25.36	-29.2	-32.0	20.0	6.02e-01	0	41	0	891813888	19	4965
2026-01-12 02:15:00.72	205.39	25.18	-29.3	-32.1	20.0	6.04e-01	0	42	0	893911040	19	4981
2026-01-12 02:15:01.73	205.37	25.00	-29.3	-32.3	19.9	6.03e-01	0	42	0	895483904	19	5045
2026-01-12 02:15:02.74	205.34	24.81	-29.3	-32.2	19.9	6.02e-01	0	42	0	897581056	19	5031
2026-01-12 02:15:03.74	205.32	24.63	-29.4	-32.4	19.8	6.03e-01	0	42	0	899153920	19	5086
2026-01-12 02:15:04.75	205.29	24.45	-29.4	-32.5	19.8	6.02e-01	0	42	0	901251072	19	5122
2026-01-12 02:15:05.76	205.27	24.27	-29.4	-32.5	19.7	6.02e-01	0	42	0	903348224	19	5141
2026-01-12 02:15:06.76	205.25	24.10	-29.5	-32.6	19.7	6.03e-01	0	41	0	904921088	19	5176
2026-01-12 02:15:07.76	205.22	23.92	-29.5	-32.8	19.6	6.02e-01	0	41	0	907018240	19	5231
2026-01-12 02:15:08.77	205.20	23.75	-29.5	-32.7	19.7	6.01e-01	0	42	0	908591104	19	5186
2026-01-12 02:15:09.78	205.18	23.58	-29.6	-32.9	19.5	6.04e-01	0	41	0	910688256	19	5283
2026-01-12 02:15:10.78	205.16	23.41	-29.5	-32.1	19.6	6.04e-01	0	41	0	912785408	20	4896
2026-01-12 02:15:11.79	205.13	23.23	-29.4	-32.0	19.7	6.03e-01	0	42	0	914358272	20	4864
2026-01-12 02:15:12.80	205.11	23.06	-29.5	-32.1	19.6	6.04e-01	0	42	0	916455424	20	4899
2026-01-12 02:15:13.80	205.09	22.90	-29.5	-32.3	19.5	6.03e-01	0	42	0	918028288	20	4940
2026-01-12 02:15:14.81	205.07	22.73	-29.5	-32.3	19.5	6.02e-01	0	41	0	920125440	20	4941
2026-01-12 02:15:15.81	205.05	22.56	-29.7	-32.7	19.3	6.04e-01	0	41	0	921698304	20	5089
2026-01-12 02:15:16.82	205.03	22.40	-29.6	-32.5	19.4	6.04e-01	0	42	0	923795456	20	5026
2026-01-12 02:15:17.82	205.01	22.24	-29.5	-32.3	19.5	6.03e-01	0	42	0	925892608	20	4937
2026-01-12 02:15:18.83	204.99	22.07	-29.4	-32.1	19.6	6.02e-01	0	42	0	927465472	20	4871
2026-01-12 02:15:19.84	204.97	21.91	-29.4	-32.0	19.7	6.01e-01	0	41	0	929562624	20	4852
2026-01-12 02:15:20.84	204.95	21.75	-29.4	-32.0	19.7	6.01e-01	0	41	0	931659776	20	4845
2026-01-12 02:15:21.85	204.93	21.59	-29.4	-32.0	19.6	6.01e-01	0	42	0	933232640	20	4862
2026-01-12 02:15:22.85	204.91	21.44	-29.6	-32.4	19.4	6.02e-01	0	42	0	935329792	20	5001
2026-01-12 02:15:23.86	204.89	21.28	-29.5	-32.2	19.5	6.01e-01	0	42	0	936902656	20	4906
2026-01-12 02:15:24.87	204.87	21.12	-29.4	-31.9	19.7	6.03e-01	0	42	0	938999808	20	4830
2026-01-12 02:15:25.87	204.85	20.97	-29.4	-32.0	19.6	6.04e-01	0	41	0	941096960	20	4860
2026-01-12 02:15:26.88	204.84	20.81	-29.3	-31.8	19.7	6.04e-01	0	41	0	942669824	20	4797
2026-01-12 02:15:27.89	204.82	20.66	-29.3	-31.8	19.7	6.03e-01	0	42	0	944766976	20	4775
2026-01-12 02:15:28.90	204.80	20.51	-29.4	-32.0	19.6	6.02e-01	0	42	0	946339840	20	4842
2026-01-12 02:15:29.91	204.78	20.36	-29.4	-31.9	19.6	6.02e-01	0	41	0	948436992	20	4812
2026-01-12 02:15:30.92	204.77	20.21	-29.5	-32.1	19.5	6.04e-01	0	42	0	950534144	20	4900
2026-01-12 02:15:31.92	204.75	20.06	-29.4	-31.9	19.6	6.03e-01	0	42	0	952107008	20	4833
2026-01-12 02:15:32.93	204.73	19.91	-29.3	-31.7	19.7	6.04e-01	0	42	0	954204160	20	4763
2026-01-12 02:15:33.93	204.72	19.76	-29.3	-31.7	19.7	6.04e-01	0	42	0	955777024	20	4757
2026-01-12 02:15:34.94	204.70	19.62	-29.3	-31.8	19.7	6.05e-01	0	41	0	957874176	20	4786
2026-01-12 02:15:35.95	204.68	19.47	-29.4	-31.9	19.6	6.00e-01	0	41	0	959971328	20	4827
2026-01-12 02:15:36.95	204.67	19.33	-29.4	-32.1	19.4	6.00e-01	0	42	0	961544192	20	4906
2026-01-12 02:15:37.96	204.65	19.18	-29.3	-31.9	19.5	6.03e-01	0	42	0	963641344	20	4834
2026-01-12 02:15:38.97	204.63	19.04	-29.3	-31.8	19.6	6.04e-01	0	41	0	965214208	20	4798
2026-01-12 02:15:39.98	204.62	18.90	-29.4	-32.0	19.5	6.05e-01	0	42	0	967311360	20	4873
2026-01-12 02:15:40.98	204.60	18.76	-29.3	-31.9	19.6	6.04e-01	0	42	0	969408512	20	4826
2026-01-12 02:15:41.98	204.59	18.62	-29.4	-31.9	19.5	6.01e-01	0	42	0	970981376	20	4845
2026-01-12 02:15:42.99	204.57	18.48	-29.4	-32.1	19.4	6.01e-01	0	42	0	973078528	20	4899
2026-01-12 02:15:43.99	204.56	18.35	-29.3	-31.8	19.6	6.04e-01	0	42	0	974651392	20	4817
2026-01-12 02:15:45.00	204.54	18.21	-29.3	-31.7	19.7	6.02e-01	0	42	0	976748544	20	4778
2026-01-12 02:15:46.00	204.53	18.07	-29.3	-31.7	19.7	6.04e-01	0	42	0	978321408	20	4761
2026-01-12 02:15:47.01	204.52	17.94	-29.3	-31.7	19.7	6.04e-01	0	42	0	980418560	20	4770
2026-01-12 02:15:48.02	204.50	17.80	-29.3	-31.9	19.5	6.03e-01	0	42	0	982515712	20	4836
2026-01-12 02:15:49.02	204.49	17.67	-29.5	-32.2	19.4	6.03e-01	0	41	0	984088576	20	4939
2026-01-12 02:15:50.03	204.47	17.53	-29.6	-32.5	19.2	6.02e-01	0	42	0	986185728	20	5055
2026-01-12 02:15:51.04	204.46	17.40	-29.5	-32.4	19.3	6.04e-01	0	42	0	988282880	20	5001
2026-01-12 02:15:52.05	204.45	17.27	-29.6	-32.5	19.1	6.04e-01	0	42	0	989855744	20	5048
2026-01-12 02:15:53.05	204.43	17.14	-29.5	-32.4	19.2	6.02e-01	0	42	0	991952896	20	5006
2026-01-12 02:15:54.05	204.42	17.01	-29.5	-32.4	19.2	6.01e-01	0	42	0	993525760	20	5009
2026-01-12 02:15:55.05	204.41	16.88	-29.5	-32.2	19.3	6.03e-01	0	42	0	995622912	20	4957
2026-01-12 02:15:56.06	204.39	16.75	-29.6	-32.6	19.1	6.02e-01	0	42	0	997195776	20	5078
2026-01-12 02:15:57.07	204.38	16.63	-29.6	-32.6	19.1	6.04e-01	0	42	0	999292928	20	5077
2026-01-12 02:15:58.07	204.37	16.50	-29.7	-32.9	18.8	6.03e-01	0	42	0	1001390080	20	5214
2026-01-12 02:15:59.08	204.36	16.37	-29.5	-32.5	19.1	6.03e-01	0	42	0	1002962944	20	5047
2026-01-12 02:16:00.08	204.34	16.25	-29.4	-32.2	19.3	6.03e-01	0	42	0	1005060096	20	4942
2026-01-12 02:16:01.09	204.33	16.12	-29.4	-32.0	19.4	6.04e-01	0	42	0	1006632960	20	4893
2026-01-12 02:16:02.09	204.32	16.00	-29.4	-32.2	19.3	6.04e-01	0	42	0	1008730112	20	4968
2026-01-12 02:16:03.10	204.31	15.87	-29.5	-32.4	19.1	6.02e-01	0	42	0	1010827264	20	5010
2026-01-12 02:16:04.11	204.30	15.75	-29.5	-32.3	19.3	6.02e-01	0	42	0	1012400128	20	4969
2026-01-12 02:16:05.12	204.28	15.63	-29.5	-32.5	19.1	6.04e-01	0	42	0	1014497280	20	5057
2026-01-12 02:16:06.13	204.27	15.51	-29.4	-32.2	19.2	6.02e-01	0	42	0	1016594432	20	4949
2026-01-12 02:16:07.13	204.26	15.39	-29.5	-32.3	19.2	6.04e-01	0	42	0	1018167296	20	4978
2026-01-12 02:16:08.14	204.25	15.27	-29.5	-32.4	19.1	6.02e-01	0	42	0	1020264448	20	5013
2026-01-12 02:16:09.15	204.24	15.15	-29.5	-32.3	19.1	6.04e-01	0	42	0	1021837312	20	4996
2026-01-12 02:16:10.15	204.23	15.03	-29.5	-32.5	19.0	6.04e-01	0	42	0	1023934464	20	5051
2026-01-12 02:16:11.16	204.22	14.91	-29.4	-32.2	19.2	6.02e-01	0	42	0	1025507328	20	4969
2026-01-12 02:16:12.16	204.21	14.79	-29.3	-31.9	19.4	6.02e-01	0	42	0	1027604480	20	4860
2026-01-12 02:16:13.17	204.20	14.68	-29.3	-31.9	19.4	6.02e-01	0	42	0	1029701632	20	4861
2026-01-12 02:16:14.18	204.18	14.56	-29.5	-32.3	19.1	6.03e-01	0	42	0	1031274496	20	5001
2026-01-12 02:16:15.19	204.17	14.44	-29.4	-32.1	19.2	6.03e-01	0	42	0	1033371648	20	4923
2026-01-12 02:16:16.19	204.16	14.33	-29.3	-32.0	19.3	6.03e-01	0	42	0	1034944512	20	4872
2026-01-12 02:16:17.19	204.15	14.22	-29.3	-32.0	19.3	6.03e-01	0	42	0	1037041664	20	4890
2026-01-12 02:16:18.20	204.14	14.10	-29.3	-32.0	19.3	6.03e-01	0	42	0	1039138816	20	4880
2026-01-12 02:16:19.20	204.13	13.99	-29.4	-32.2	19.1	6.03e-01	0	42	0	1040711680	20	4968
2026-01-12 02:16:20.21	204.12	13.88	-29.4	-32.2	19.2	6.04e-01	0	42	0	1042808832	20	4947
2026-01-12 02:16:21.22	204.11	13.76	-29.5	-32.4	19.0	6.05e-01	0	42	0	1044905984	20	5020
2026-01-12 02:16:22.23	204.10	13.65	-29.5	-32.5	19.0	6.02e-01	0	42	0	1046478848	20	5056
2026-01-12 02:16:23.23	204.09	13.54	-29.5	-32.5	18.9	6.02e-01	0	41	0	1048576000	20	5074
2026-01-12 02:16:24.24	204.08	13.43	-29.5	-32.3	19.0	6.05e-01	0	42	0	1050148864	20	5012
2026-01-12 02:16:25.25	204.08	13.32	-29.6	-32.6	18.9	6.02e-01	0	42	0	1052246016	20	5113
2026-01-12 02:16:26.26	204.07	13.21	-29.7	-33.0	18.6	6.03e-01	0	42	0	1053818880	20	5276
2026-01-12 02:16:27.26	204.06	13.10	-29.7	-32.9	18.6	6.02e-01	0	42	0	1055916032	20	5238
2026-01-12 02:16:28.26	204.05	12.99	-29.7	-33.1	18.5	6.03e-01	0	42	0	1058013184	20	5310
2026-01-12 02:16:29.27	204.04	12.89	-29.5	-32.5	18.9	6.04e-01	0	42	0	1059586048	20	5088
2026-01-12 02:16:30.28	204.03	12.78	-29.6	-32.7	18.7	6.08e-01	0	41	0	1061683200	20	5164
2026-01-12 02:16:31.28	204.02	12.67	-29.6	-32.7	18.7	6.02e-01	0	42	0	1063780352	20	5163
2026-01-12 02:16:32.29	204.01	12.57	-29.5	-32.4	18.9	6.05e-01	0	42	0	1065353216	20	5045
2026-01-12 02:16:33.29	204.00	12.46	-29.5	-32.5	18.8	6.02e-01	0	42	0	1067450368	20	5064
2026-01-12 02:16:34.30	203.99	12.36	-29.4	-32.3	19.0	6.04e-01	0	41	0	1069023232	20	5011
2026-01-12 02:16:35.31	203.99	12.25	-29.4	-32.4	18.9	6.04e-01	0	42	0	1071120384	20	5032
2026-01-12 02:16:36.32	203.98	12.15	-29.5	-32.4	18.9	6.04e-01	0	42	0	1073217536	20	5050
2026-01-12 02:16:37.32	203.97	12.04	-29.6	-32.7	18.6	6.05e-01	0	42	0	1074790400	20	5158
2026-01-12 02:16:38.33	203.96	11.94	-29.6	-32.8	18.6	6.05e-01	0	42	0	1076887552	20	5213
2026-01-12 02:16:39.34	203.95	11.84	-29.7	-33.0	18.5	6.03e-01	0	42	0	1078460416	20	5261
2026-01-12 02:16:40.35	203.95	11.73	-29.6	-32.8	18.5	6.04e-01	0	41	0	1080557568	20	5217
2026-01-12 02:16:41.35	203.94	11.63	-29.7	-33.0	18.4	6.02e-01	0	42	0	1082130432	20	5263
2026-01-12 02:16:42.36	203.93	11.53	-29.5	-32.6	18.6	6.04e-01	0	42	0	1084227584	20	5126
2026-01-12 02:16:43.36	203.92	11.43	-29.5	-32.6	18.7	6.02e-01	0	42	0	1086324736	20	5128
2026-01-12 02:16:44.37	203.91	11.33	-29.6	-32.7	18.6	6.01e-01	0	42	0	1087897600	20	5167
2026-01-12 02:16:45.37	203.91	11.23	-29.5	-32.5	18.7	6.04e-01	0	41	0	1089994752	20	5089
2026-01-12 02:16:46.38	203.90	11.13	-29.4	-32.3	18.8	6.03e-01	0	42	0	1091567616	20	5014
2026-01-12 02:16:47.39	203.89	11.03	-29.6	-32.9	18.4	6.04e-01	0	42	0	1093664768	20	5254
2026-01-12 02:16:48.39	203.88	10.93	-29.7	-33.0	18.4	6.04e-01	0	42	0	1095761920	20	5301
2026-01-12 02:16:49.40	203.88	10.83	-29.7	-33.1	18.3	6.03e-01	0	42	0	1097334784	20	5334
2026-01-12 02:16:50.41	203.87	10.74	-29.6	-32.9	18.4	6.03e-01	0	42	0	1099431936	20	5231
2026-01-12 02:16:51.41	203.86	10.64	-29.6	-32.8	18.5	6.01e-01	0	42	0	1101004800	20	5192
2026-01-12 02:16:52.42	203.85	10.54	-29.6	-32.8	18.5	6.01e-01	0	42	0	1103101952	20	5195
2026-01-12 02:16:53.43	203.85	10.45	-29.6	-32.9	18.5	6.02e-01	0	42	0	1105199104	20	5227
2026-01-12 02:16:54.44	203.84	10.35	-29.7	-33.0	18.3	6.02e-01	0	42	0	1106771968	20	5296
2026-01-12 02:16:55.44	203.83	10.25	-29.5	-32.5	18.6	6.03e-01	0	41	0	1108869120	20	5107
2026-01-12 02:16:56.45	203.83	10.16	-29.4	-32.4	18.7	6.02e-01	0	42	0	1110441984	20	5054
2026-01-12 02:16:57.45	203.82	10.07	-29.4	-32.4	18.7	6.03e-01	0	42	0	1112539136	20	5055
2026-01-12 02:16:58.45	203.81	9.97	-29.5	-32.6	18.5	6.04e-01	0	42	0	1114636288	20	5149
2026-01-12 02:16:59.45	203.81	9.88	-29.5	-32.7	18.5	6.02e-01	0	42	0	1116209152	20	5172
2026-01-12 02:17:00.46	203.80	9.78	-29.5	-32.7	18.5	6.03e-01	0	42	0	1118306304	20	5189
2026-01-12 02:17:01.46	203.79	9.69	-29.6	-32.9	18.3	6.05e-01	0	42	0	1119879168	20	5265
2026-01-12 02:17:02.47	203.79	9.60	-29.7	-33.2	18.2	6.03e-01	0	41	0	1121976320	20	5365
2026-01-12 02:17:03.48	203.78	9.51	-29.9	-33.7	17.9	6.03e-01	0	42	0	1124073472	20	5588
2026-01-12 02:17:04.48	203.77	9.41	-29.9	-33.6	17.9	6.02e-01	0	41	0	1125646336	20	5527
2026-01-12 02:17:05.49	203.77	9.32	-29.7	-33.2	18.2	6.01e-01	0	42	0	1127743488	20	5360
2026-01-12 02:17:06.49	203.76	9.23	-29.7	-33.1	18.2	6.00e-01	0	42	0	1129316352	20	5329
2026-01-12 02:17:07.50	203.76	9.14	-29.6	-33.0	18.3	6.01e-01	0	41	0	1131413504	20	5301
2026-01-12 02:17:08.50	203.75	9.05	-29.8	-33.4	18.0	6.03e-01	0	42	0	1133510656	20	5447
2026-01-12 02:17:09.51	203.74	8.96	-29.6	-32.9	18.4	6.03e-01	0	42	0	1135083520	20	5260
2026-01-12 02:17:10.51	203.74	8.87	-29.6	-32.9	18.4	6.05e-01	0	42	0	1137180672	20	5252
2026-01-12 02:17:11.52	203.73	8.78	-29.5	-32.8	18.4	6.04e-01	0	42	0	1138753536	20	5207
2026-01-12 02:17:12.52	203.73	8.69	-29.6	-33.0	18.2	6.03e-01	0	42	0	1140850688	20	5308
2026-01-12 02:17:13.53	203.72	8.60	-29.6	-33.0	18.3	6.02e-01	0	42	0	1142947840	20	5302
2026-01-12 02:17:14.54	203.71	8.51	-29.7	-33.2	18.1	6.02e-01	0	42	0	1144520704	20	5383
2026-01-12 02:17:15.55	203.71	8.43	-29.7	-33.3	18.0	6.02e-01	0	42	0	1146617856	20	5451
2026-01-12 02:17:16.55	203.70	8.34	-29.7	-33.2	18.0	6.01e-01	0	41	0	1148190720	20	5382
2026-01-12 02:17:17.56	203.70	8.25	-29.7	-33.1	18.2	6.03e-01	0	41	0	1150287872	20	5360
2026-01-12 02:17:18.56	203.69	8.17	-29.8	-33.4	17.9	6.05e-01	0	42	0	1151860736	20	5487
2026-01-12 02:17:19.57	203.69	8.08	-29.8	-33.5	17.9	6.03e-01	0	42	0	1153957888	20	5531
2026-01-12 02:17:20.57	203.68	7.99	-29.8	-33.5	17.8	6.03e-01	0	42	0	1156055040	20	5531
2026-01-12 02:17:21.58	203.68	7.91	-30.0	-34.0	17.5	6.03e-01	0	42	0	1157627904	20	5747
2026-01-12 02:17:22.58	203.67	7.82	-29.9	-34.0	17.5	6.02e-01	0	42	0	1159725056	20	5732
2026-01-12 02:17:23.59	203.67	7.74	-29.8	-33.6	17.7	6.03e-01	0	42	0	1161822208	20	5573
2026-01-12 02:17:24.60	203.66	7.65	-29.9	-33.8	17.6	6.03e-01	0	41	0	1163395072	20	5646
2026-01-12 02:17:25.60	203.66	7.57	-29.7	-33.4	17.8	6.02e-01	0	42	0	1165492224	20	5506
2026-01-12 02:17:26.60	203.65	7.48	-29.9	-33.9	17.5	5.99e-01	0	42	0	1167065088	20	5682
2026-01-12 02:17:27.61	203.64	7.40	-29.9	-33.9	17.5	6.04e-01	0	42	0	1169162240	20	5714
2026-01-12 02:17:28.62	203.64	7.31	-29.9	-33.9	17.5	6.05e-01	0	42	0	1170735104	20	5723
2026-01-12 02:17:29.62	203.64	7.23	-30.0	-34.2	17.3	6.03e-01	0	42	0	1172832256	20	5858
2026-01-12 02:17:30.62	203.63	7.15	-30.1	-33.9	17.1	6.03e-01	0	42	0	1174929408	21	5603
2026-01-12 02:17:31.63	203.63	7.06	-33.0	-51.9	3.9	7.49e-01	0	42	104	1176502272	26	31632
2026-01-12 02:17:32.63	203.62	6.98	-33.3	-52.7	3.8	7.43e-01	0	42	104	1176502272	27	33565
2026-01-12 02:17:33.63	203.62	6.90	-33.6	-52.7	3.8	7.46e-01	0	42	104	1176502272	28	32516

#Closed at: 2026-01-12 02:17:34
#Recorded file [1176 MB]: D:/data/31010_260112_050703.dat