passes_logs/2026/01/12/R2M6_AANII_01/R2M6_AANII_01__20260112_014201_NOAA_21_JPSS-2_rec.log

#Pass ID: 20260112_014201_NOAA 21 (JPSS-2)
#Satellite: NOAA 21 (JPSS-2)
#Configuration: NOAA 21
#almurnet v.1.7.20240730
#Start time: 2026-01-12 01:42:31

#Version: 2.2.20231116
#Station: R2M6_AANII_01
#Location: 30.233357 lon 59.946436 lat
#TLE: 1 54234U 22150A   26011.27699114  .00000090  00000+0  63771-4 0  9993
#TLE: 2 54234  98.7494 312.2218 0000765 314.9553  45.1561 14.19534106164285

#Time	Az	El	Level	Level2	SNR	BER	BlckErr	Temp	State	Recorded	gain1	gain2
2026-01-12 01:42:31.10	10.17	9.14	-33.0	-44.6	3.8	8.46e-01	0	42	0	0	25	13636
2026-01-12 01:42:32.10	10.10	9.22	-33.6	-45.6	3.8	1.49e+00	0	42	104	0	27	14308
2026-01-12 01:42:33.10	10.02	9.29	-33.7	-45.6	3.8	1.49e+00	0	42	104	0	27	14331
2026-01-12 01:42:34.11	9.94	9.37	-33.7	-45.8	3.8	1.49e+00	0	42	104	0	27	14444
2026-01-12 01:42:35.11	9.86	9.44	-33.7	-45.9	3.8	1.49e+00	0	42	104	0	27	14532
2026-01-12 01:42:36.12	9.78	9.52	-33.8	-45.9	3.8	1.49e+00	0	42	104	0	27	14509
2026-01-12 01:42:37.13	9.70	9.60	-33.8	-45.9	3.8	1.49e+00	0	42	104	0	27	14551
2026-01-12 01:42:38.13	9.63	9.67	-33.8	-46.0	3.8	1.49e+00	0	42	104	0	27	14569
2026-01-12 01:42:39.14	9.55	9.75	-33.8	-46.0	3.8	1.49e+00	0	42	104	0	27	14630
2026-01-12 01:42:40.14	9.47	9.83	-33.9	-46.1	3.8	1.49e+00	0	42	104	0	27	14721
2026-01-12 01:42:41.15	9.38	9.90	-33.9	-46.2	3.8	1.49e+00	0	42	104	0	27	14767
2026-01-12 01:42:42.16	9.30	9.98	-33.9	-46.2	3.8	1.49e+00	0	42	104	0	27	14757
2026-01-12 01:42:43.16	9.22	10.06	-33.9	-46.2	3.8	1.49e+00	0	42	104	0	27	14764
2026-01-12 01:42:44.17	9.14	10.14	-33.9	-46.2	3.8	1.49e+00	0	42	104	0	27	14761
2026-01-12 01:42:45.18	9.06	10.21	-33.9	-46.1	3.8	1.49e+00	0	42	104	0	27	14716
2026-01-12 01:42:46.19	8.97	10.29	-33.9	-46.2	3.8	1.49e+00	0	42	104	0	27	14738
2026-01-12 01:42:47.20	8.89	10.37	-33.9	-46.1	3.8	1.49e+00	0	42	104	0	27	14745
2026-01-12 01:42:48.20	8.80	10.45	-33.9	-46.2	3.8	1.49e+00	0	42	104	0	27	14759
2026-01-12 01:42:49.21	8.72	10.53	-33.9	-46.1	3.8	1.49e+00	0	42	104	0	27	14713
2026-01-12 01:42:50.22	8.63	10.61	-33.9	-46.2	3.8	1.49e+00	0	42	104	0	27	14759
2026-01-12 01:42:51.22	8.55	10.69	-33.9	-46.1	3.8	1.49e+00	0	42	104	0	27	14710
2026-01-12 01:42:52.23	8.46	10.77	-33.9	-46.1	3.8	1.49e+00	0	42	104	0	27	14728
2026-01-12 01:42:53.24	8.38	10.85	-33.9	-46.2	3.8	1.49e+00	0	42	104	0	27	14769
2026-01-12 01:42:54.24	8.29	10.92	-33.9	-46.2	3.8	1.49e+00	0	42	104	0	27	14752
2026-01-12 01:42:55.25	8.20	11.00	-33.9	-46.1	3.8	1.49e+00	0	42	104	0	27	14741
2026-01-12 01:42:56.26	8.11	11.09	-33.9	-46.2	3.8	1.49e+00	0	42	104	0	27	14737
2026-01-12 01:42:57.26	8.03	11.16	-33.9	-46.2	3.8	1.49e+00	0	42	104	0	27	14786
2026-01-12 01:42:58.27	7.94	11.25	-33.9	-46.2	3.8	1.49e+00	0	42	104	0	27	14760
2026-01-12 01:42:59.27	7.85	11.33	-33.9	-46.1	3.8	1.49e+00	0	42	104	0	27	14712
2026-01-12 01:43:00.28	7.76	11.41	-33.9	-46.2	3.8	1.49e+00	0	42	104	0	27	14767
2026-01-12 01:43:01.28	7.67	11.49	-33.9	-46.1	3.8	1.49e+00	0	42	104	0	27	14722
2026-01-12 01:43:02.28	7.58	11.57	-33.9	-46.1	3.8	1.49e+00	0	42	104	0	27	14739
2026-01-12 01:43:03.28	7.49	11.65	-33.9	-46.1	3.8	1.49e+00	0	42	104	0	27	14706
2026-01-12 01:43:04.29	7.39	11.73	-33.9	-46.1	3.8	1.49e+00	0	42	104	0	27	14735
2026-01-12 01:43:05.29	7.30	11.81	-33.9	-46.2	3.8	1.49e+00	0	42	104	0	27	14736
2026-01-12 01:43:06.30	7.21	11.89	-33.9	-46.2	3.8	1.49e+00	0	42	104	0	27	14777
2026-01-12 01:43:07.30	7.11	11.98	-33.9	-46.2	3.8	1.49e+00	0	42	104	0	27	14755
2026-01-12 01:43:08.30	7.02	12.06	-33.9	-46.2	3.8	1.49e+00	0	42	104	0	27	14767
2026-01-12 01:43:09.30	6.93	12.14	-33.9	-46.1	3.8	1.49e+00	0	42	104	0	27	14666
2026-01-12 01:43:10.31	6.83	12.22	-33.9	-46.1	3.8	1.49e+00	0	42	104	0	27	14709
2026-01-12 01:43:11.31	6.74	12.30	-33.9	-46.1	3.8	1.49e+00	0	42	104	0	27	14643
2026-01-12 01:43:12.32	6.64	12.39	-33.9	-46.1	3.8	1.49e+00	0	42	104	0	27	14744
2026-01-12 01:43:13.33	6.54	12.47	-33.9	-46.1	3.8	1.49e+00	0	42	104	0	27	14710
2026-01-12 01:43:14.33	6.44	12.55	-33.9	-46.1	3.8	1.49e+00	0	42	104	0	27	14716
2026-01-12 01:43:15.34	6.35	12.64	-33.9	-46.1	3.8	1.49e+00	0	42	104	0	27	14713
2026-01-12 01:43:16.34	6.25	12.72	-33.9	-46.1	3.8	1.49e+00	0	42	104	0	27	14706
2026-01-12 01:43:17.35	6.15	12.81	-33.9	-46.1	3.8	1.49e+00	0	42	104	0	27	14731
2026-01-12 01:43:18.36	6.05	12.89	-33.9	-46.1	3.8	1.49e+00	0	42	104	0	27	14662
2026-01-12 01:43:19.36	5.95	12.98	-33.9	-46.1	3.8	1.49e+00	0	42	104	0	27	14702
2026-01-12 01:43:20.37	5.85	13.06	-33.9	-46.1	3.8	1.49e+00	0	42	104	0	27	14697
2026-01-12 01:43:21.37	5.75	13.14	-33.9	-46.1	3.8	1.49e+00	0	42	104	0	27	14685
2026-01-12 01:43:22.38	5.64	13.23	-33.9	-46.1	3.8	1.49e+00	0	42	104	0	27	14682
2026-01-12 01:43:23.38	5.54	13.32	-33.9	-46.1	3.8	1.49e+00	0	42	104	0	27	14708
2026-01-12 01:43:24.39	5.44	13.40	-33.9	-46.1	3.8	1.49e+00	0	42	104	0	27	14690
2026-01-12 01:43:25.39	5.33	13.49	-33.9	-46.1	3.8	1.49e+00	0	42	104	0	27	14685
2026-01-12 01:43:26.40	5.23	13.57	-33.9	-46.1	3.8	1.49e+00	0	42	104	0	27	14681
2026-01-12 01:43:27.41	5.12	13.66	-33.9	-46.1	3.8	1.49e+00	0	42	104	0	27	14690
2026-01-12 01:43:28.41	5.02	13.74	-33.9	-46.1	3.8	1.49e+00	0	42	104	0	27	14713
2026-01-12 01:43:29.42	4.91	13.83	-33.9	-46.1	3.8	1.49e+00	0	42	104	0	27	14707
2026-01-12 01:43:30.43	4.80	13.92	-33.9	-46.1	3.8	1.49e+00	0	42	104	0	27	14701
2026-01-12 01:43:31.43	4.69	14.01	-33.9	-46.1	3.8	1.49e+00	0	42	104	0	27	14665
2026-01-12 01:43:32.44	4.59	14.09	-33.9	-46.1	3.8	1.49e+00	0	42	104	0	27	14664
2026-01-12 01:43:33.45	4.48	14.18	-33.9	-46.1	3.8	1.49e+00	0	42	104	0	27	14656
2026-01-12 01:43:34.46	4.37	14.27	-33.9	-46.1	3.8	1.49e+00	0	42	104	0	27	14693
2026-01-12 01:43:35.46	4.26	14.36	-33.9	-46.1	3.8	1.49e+00	0	42	104	0	27	14732
2026-01-12 01:43:36.46	4.14	14.44	-33.9	-46.1	3.8	1.49e+00	0	42	104	0	27	14749
2026-01-12 01:43:37.47	4.03	14.53	-33.9	-46.1	3.8	1.49e+00	0	42	104	0	27	14653
2026-01-12 01:43:38.48	3.92	14.62	-33.9	-46.1	3.8	1.49e+00	0	42	104	0	27	14728
2026-01-12 01:43:39.48	3.81	14.71	-33.9	-46.1	3.8	1.49e+00	0	42	104	0	27	14682
2026-01-12 01:43:40.49	3.69	14.80	-33.9	-46.1	3.8	1.49e+00	0	42	104	0	27	14668
2026-01-12 01:43:41.49	3.58	14.89	-33.9	-46.1	3.8	1.49e+00	0	42	104	0	27	14688
2026-01-12 01:43:42.50	3.46	14.98	-33.9	-46.1	3.8	1.49e+00	0	42	104	0	27	14699
2026-01-12 01:43:43.50	3.35	15.07	-33.9	-46.1	3.8	1.49e+00	0	42	104	0	27	14679
2026-01-12 01:43:44.51	3.23	15.16	-33.9	-46.1	3.8	1.49e+00	0	42	104	0	27	14664
2026-01-12 01:43:45.51	3.11	15.24	-33.9	-46.1	3.8	1.49e+00	0	42	104	0	27	14700
2026-01-12 01:43:46.52	2.99	15.33	-32.8	-44.9	3.8	1.49e+00	0	42	104	0	27	14378
2026-01-12 01:43:47.53	2.87	15.43	-33.9	-46.0	3.9	1.49e+00	0	42	104	0	27	14536
2026-01-12 01:43:48.53	2.75	15.52	-33.9	-46.1	3.8	1.49e+00	0	42	104	0	27	14654
2026-01-12 01:43:49.54	2.63	15.61	-33.9	-46.1	3.8	1.49e+00	0	42	104	0	27	14640
2026-01-12 01:43:50.55	2.51	15.70	-33.9	-46.1	3.8	1.49e+00	0	42	104	0	27	14684
2026-01-12 01:43:51.56	2.39	15.79	-33.9	-46.1	3.8	1.49e+00	0	42	104	0	27	14679
2026-01-12 01:43:52.56	2.27	15.88	-33.9	-46.1	3.8	1.49e+00	0	42	104	0	27	14686
2026-01-12 01:43:53.57	2.14	15.97	-33.9	-46.1	3.8	1.49e+00	0	42	104	0	27	14684
2026-01-12 01:43:54.58	2.02	16.06	-33.9	-46.1	3.8	1.49e+00	0	42	104	0	27	14711
2026-01-12 01:43:55.59	1.89	16.16	-33.9	-46.1	3.8	1.49e+00	0	42	104	0	27	14746
2026-01-12 01:43:56.59	1.77	16.25	-33.9	-46.1	3.8	1.49e+00	0	42	104	0	27	14705
2026-01-12 01:43:57.59	1.64	16.34	-33.9	-46.1	3.8	1.49e+00	0	42	104	0	27	14675
2026-01-12 01:43:58.60	1.51	16.43	-33.9	-46.1	3.8	1.49e+00	0	42	104	0	27	14728
2026-01-12 01:43:59.61	1.38	16.53	-33.9	-46.1	3.8	1.49e+00	0	42	104	0	27	14699
2026-01-12 01:44:00.62	1.25	16.62	-33.9	-46.1	3.8	1.49e+00	0	42	104	0	27	14686
2026-01-12 01:44:01.61	1.12	16.71	-33.9	-46.1	3.8	1.49e+00	0	42	104	0	27	14677
2026-01-12 01:44:02.62	0.99	16.80	-33.9	-46.1	3.8	1.49e+00	0	42	104	0	27	14731
2026-01-12 01:44:03.63	0.86	16.90	-33.9	-46.1	3.8	1.49e+00	0	42	104	0	27	14702
2026-01-12 01:44:04.63	0.73	16.99	-33.9	-46.1	3.8	1.49e+00	0	42	104	0	27	14694
2026-01-12 01:44:05.64	0.59	17.09	-33.9	-46.1	3.8	1.49e+00	0	42	104	0	27	14659
2026-01-12 01:44:06.64	0.46	17.18	-33.9	-46.1	3.8	1.49e+00	0	42	104	0	27	14672
2026-01-12 01:44:07.65	0.33	17.27	-33.9	-46.1	3.8	1.49e+00	0	42	104	0	27	14681
2026-01-12 01:44:08.66	0.19	17.37	-33.9	-46.1	3.8	1.49e+00	0	42	104	0	27	14707
2026-01-12 01:44:09.66	0.05	17.46	-33.9	-46.1	3.8	1.49e+00	0	42	104	0	27	14693
2026-01-12 01:44:10.67	359.91	17.56	-33.9	-46.1	3.8	1.49e+00	0	41	104	0	27	14743
2026-01-12 01:44:11.68	359.77	17.65	-33.9	-46.1	3.8	1.49e+00	0	42	104	0	27	14733
2026-01-12 01:44:12.68	359.64	17.75	-33.9	-46.1	3.8	1.49e+00	0	42	104	0	27	14722
2026-01-12 01:44:13.69	359.50	17.84	-33.9	-46.1	3.8	1.49e+00	0	42	104	0	27	14685
2026-01-12 01:44:14.70	359.35	17.94	-33.9	-46.1	3.8	1.49e+00	0	42	104	0	27	14680
2026-01-12 01:44:15.70	359.21	18.04	-33.9	-46.1	3.8	1.49e+00	0	42	104	0	27	14723
2026-01-12 01:44:16.71	359.07	18.13	-33.9	-46.1	3.8	1.49e+00	0	42	104	0	27	14701
2026-01-12 01:44:17.71	358.92	18.23	-33.9	-46.1	3.8	1.49e+00	0	42	104	0	27	14685
2026-01-12 01:44:18.71	358.78	18.32	-33.9	-46.1	3.8	1.49e+00	0	42	104	0	27	14650
2026-01-12 01:44:19.72	358.63	18.42	-33.9	-46.1	3.8	1.49e+00	0	42	104	0	27	14690
2026-01-12 01:44:20.72	358.49	18.52	-33.9	-46.1	3.8	1.49e+00	0	42	104	0	27	14694
2026-01-12 01:44:21.72	358.34	18.61	-33.9	-46.1	3.8	1.49e+00	0	42	104	0	27	14694
2026-01-12 01:44:22.74	358.19	18.71	-33.9	-46.1	3.8	1.49e+00	0	42	104	0	27	14718
2026-01-12 01:44:23.74	358.04	18.81	-33.9	-46.1	3.8	1.49e+00	0	42	104	0	27	14681
2026-01-12 01:44:24.75	357.89	18.91	-33.9	-46.1	3.8	1.49e+00	0	42	104	0	27	14719
2026-01-12 01:44:25.75	357.74	19.00	-33.9	-46.1	3.8	1.49e+00	0	42	104	0	27	14660
2026-01-12 01:44:26.75	357.59	19.10	-33.9	-46.1	3.8	1.49e+00	0	42	104	0	27	14674
2026-01-12 01:44:27.76	357.43	19.20	-33.9	-46.1	3.8	1.49e+00	0	42	104	0	27	14687
2026-01-12 01:44:28.77	357.28	19.30	-33.9	-46.1	3.8	1.49e+00	0	42	104	0	27	14646
2026-01-12 01:44:29.77	357.12	19.40	-33.9	-46.1	3.8	1.49e+00	0	42	104	0	27	14685
2026-01-12 01:44:30.78	356.96	19.50	-33.9	-46.1	3.8	1.49e+00	0	41	104	0	27	14680
2026-01-12 01:44:31.78	356.81	19.59	-33.9	-46.0	3.8	1.49e+00	0	41	104	0	27	14634
2026-01-12 01:44:32.79	356.65	19.69	-33.9	-46.1	3.8	1.49e+00	0	42	104	0	27	14676
2026-01-12 01:44:33.79	356.49	19.79	-33.9	-46.1	3.8	1.49e+00	0	42	104	0	27	14670
2026-01-12 01:44:34.80	356.32	19.89	-33.9	-46.1	3.8	1.49e+00	0	42	104	0	27	14675
2026-01-12 01:44:35.81	356.16	19.99	-33.9	-46.1	3.8	1.49e+00	0	41	104	0	27	14673
2026-01-12 01:44:36.82	356.00	20.09	-33.9	-46.1	3.8	1.49e+00	0	42	104	0	27	14677
2026-01-12 01:44:37.82	355.83	20.19	-33.9	-46.1	3.8	1.49e+00	0	41	104	0	27	14698
2026-01-12 01:44:38.82	355.67	20.29	-33.9	-46.1	3.8	1.49e+00	0	41	104	0	27	14671
2026-01-12 01:44:39.83	355.50	20.39	-33.9	-46.1	3.8	1.49e+00	0	42	104	0	27	14722
2026-01-12 01:44:40.84	355.33	20.49	-33.9	-46.1	3.8	1.49e+00	0	42	104	0	27	14669
2026-01-12 01:44:41.84	355.17	20.59	-33.9	-46.1	3.8	1.49e+00	0	41	104	0	27	14692
2026-01-12 01:44:42.85	355.00	20.69	-33.9	-46.1	3.8	1.49e+00	0	42	104	0	27	14687
2026-01-12 01:44:43.86	354.82	20.79	-33.9	-46.1	3.8	1.49e+00	0	42	104	0	27	14674
2026-01-12 01:44:44.87	354.65	20.89	-33.9	-46.0	3.8	1.49e+00	0	42	104	0	27	14642
2026-01-12 01:44:45.88	354.48	20.99	-33.9	-46.1	3.8	1.49e+00	0	42	104	0	27	14669
2026-01-12 01:44:46.89	354.30	21.09	-33.9	-46.1	3.8	1.49e+00	0	42	104	0	27	14697
2026-01-12 01:44:47.89	354.13	21.19	-33.9	-46.1	3.8	1.49e+00	0	42	104	0	27	14672
2026-01-12 01:44:48.90	353.95	21.30	-33.9	-46.1	3.8	1.49e+00	0	42	104	0	27	14715
2026-01-12 01:44:49.90	353.77	21.40	-33.9	-46.1	3.8	1.49e+00	0	42	104	0	27	14670
2026-01-12 01:44:50.91	353.59	21.50	-33.9	-46.1	3.8	1.49e+00	0	42	104	0	27	14718
2026-01-12 01:44:51.91	353.41	21.60	-33.9	-46.1	3.8	1.49e+00	0	42	104	0	27	14686
2026-01-12 01:44:52.92	353.23	21.70	-33.9	-46.1	3.8	1.49e+00	0	42	104	0	27	14660
2026-01-12 01:44:53.93	353.05	21.80	-33.9	-46.1	3.8	1.49e+00	0	42	104	0	27	14708
2026-01-12 01:44:54.94	352.86	21.90	-33.9	-46.1	3.8	1.49e+00	0	42	104	0	27	14656
2026-01-12 01:44:55.95	352.68	22.01	-33.9	-46.1	3.8	1.49e+00	0	42	104	0	27	14678
2026-01-12 01:44:56.95	352.49	22.11	-33.9	-46.1	3.8	1.49e+00	0	42	104	0	27	14726
2026-01-12 01:44:57.96	352.30	22.21	-33.9	-46.1	3.8	1.49e+00	0	42	104	0	27	14735
2026-01-12 01:44:58.97	352.11	22.31	-33.9	-46.0	3.8	1.49e+00	0	42	104	0	27	14643
2026-01-12 01:44:59.98	351.92	22.42	-33.9	-46.0	3.8	1.49e+00	0	42	104	0	27	14641
2026-01-12 01:45:00.98	351.73	22.52	-33.9	-46.1	3.8	1.49e+00	0	42	104	0	27	14664
2026-01-12 01:45:01.98	351.54	22.62	-33.9	-46.1	3.8	1.49e+00	0	42	104	0	27	14709
2026-01-12 01:45:02.99	351.34	22.72	-33.9	-46.1	3.8	1.49e+00	0	42	104	0	27	14679
2026-01-12 01:45:04.00	351.15	22.82	-33.9	-46.1	3.8	1.49e+00	0	42	104	0	27	14676
2026-01-12 01:45:05.00	350.95	22.93	-33.8	-46.0	3.8	1.49e+00	0	42	104	0	27	14589
2026-01-12 01:45:06.01	350.75	23.03	-33.9	-46.0	3.8	1.49e+00	0	42	104	0	27	14634
2026-01-12 01:45:07.02	350.55	23.13	-33.9	-46.1	3.8	1.49e+00	0	42	104	0	27	14671
2026-01-12 01:45:08.02	350.35	23.23	-33.9	-46.1	3.8	1.49e+00	0	42	104	0	27	14682
2026-01-12 01:45:09.03	350.15	23.34	-33.9	-46.0	3.8	1.49e+00	0	42	104	0	27	14627
2026-01-12 01:45:10.03	349.95	23.44	-32.7	-44.7	3.8	1.49e+00	0	42	104	0	27	14414
2026-01-12 01:45:11.04	349.74	23.54	-33.9	-46.1	3.8	1.49e+00	0	42	104	0	27	14649
2026-01-12 01:45:12.04	349.54	23.64	-33.9	-46.0	3.8	1.49e+00	0	42	104	0	27	14643
2026-01-12 01:45:13.04	349.33	23.74	-33.9	-46.1	3.8	1.49e+00	0	42	104	0	27	14678
2026-01-12 01:45:14.05	349.12	23.85	-33.9	-46.1	3.8	1.49e+00	0	42	104	0	27	14671
2026-01-12 01:45:15.05	348.91	23.95	-33.9	-46.1	3.8	1.49e+00	0	42	104	0	27	14650
2026-01-12 01:45:16.05	348.70	24.05	-33.9	-46.0	3.8	1.49e+00	0	42	104	0	27	14638
2026-01-12 01:45:17.06	348.49	24.15	-33.9	-46.1	3.8	1.49e+00	0	42	104	0	27	14657
2026-01-12 01:45:18.06	348.27	24.26	-33.8	-46.0	3.8	1.49e+00	0	42	104	0	27	14649
2026-01-12 01:45:19.07	348.06	24.36	-33.9	-46.0	3.8	1.49e+00	0	42	104	0	27	14649
2026-01-12 01:45:20.08	347.84	24.46	-33.9	-46.0	3.8	1.49e+00	0	42	104	0	27	14616
2026-01-12 01:45:21.09	347.62	24.56	-33.8	-46.0	3.8	1.49e+00	0	42	104	0	27	14658
2026-01-12 01:45:22.09	347.40	24.66	-33.9	-46.0	3.8	1.49e+00	0	42	104	0	27	14620
2026-01-12 01:45:23.10	347.18	24.77	-33.9	-46.1	3.8	1.49e+00	0	42	104	0	27	14667
2026-01-12 01:45:24.11	346.95	24.87	-33.9	-46.1	3.8	1.49e+00	0	42	104	0	27	14665
2026-01-12 01:45:25.12	346.73	24.97	-33.9	-46.0	3.8	1.49e+00	0	42	104	0	27	14641
2026-01-12 01:45:26.13	346.50	25.07	-33.9	-46.1	3.8	1.49e+00	0	42	104	0	27	14674
2026-01-12 01:45:27.13	346.27	25.18	-33.9	-46.1	3.8	1.49e+00	0	42	104	0	27	14684
2026-01-12 01:45:28.14	346.04	25.28	-33.9	-46.1	3.8	1.49e+00	0	42	104	0	27	14723
2026-01-12 01:45:29.14	345.81	25.38	-33.9	-46.1	3.8	1.49e+00	0	42	104	0	27	14697
2026-01-12 01:45:30.15	345.58	25.48	-33.9	-46.1	3.8	1.49e+00	0	42	104	0	27	14720
2026-01-12 01:45:31.16	345.35	25.58	-33.9	-46.1	3.8	1.49e+00	0	42	104	0	27	14662
2026-01-12 01:45:32.17	345.11	25.68	-33.9	-46.1	3.8	1.49e+00	0	42	104	0	27	14708
2026-01-12 01:45:33.18	344.87	25.78	-33.9	-46.1	3.8	1.49e+00	0	42	104	0	27	14718
2026-01-12 01:45:34.18	344.63	25.88	-33.9	-46.1	3.8	1.49e+00	0	42	104	0	27	14645
2026-01-12 01:45:35.19	344.39	25.99	-33.9	-46.1	3.8	1.49e+00	0	42	104	0	27	14687
2026-01-12 01:45:36.19	344.15	26.09	-33.9	-46.1	3.8	1.49e+00	0	42	104	0	27	14711
2026-01-12 01:45:37.19	343.91	26.18	-33.9	-46.1	3.8	1.49e+00	0	42	104	0	27	14719
2026-01-12 01:45:38.19	343.67	26.28	-33.9	-46.1	3.8	1.49e+00	0	42	104	0	27	14678
2026-01-12 01:45:39.20	343.42	26.38	-33.9	-46.1	3.8	1.49e+00	0	42	104	0	27	14680
2026-01-12 01:45:40.21	343.17	26.48	-33.9	-46.1	3.8	1.49e+00	0	42	104	0	27	14656
2026-01-12 01:45:41.22	342.92	26.58	-33.9	-46.1	3.8	1.49e+00	0	42	104	0	27	14695
2026-01-12 01:45:42.22	342.67	26.68	-33.9	-46.1	3.8	1.49e+00	0	42	104	0	27	14726
2026-01-12 01:45:43.23	342.42	26.78	-33.9	-46.1	3.8	1.49e+00	0	42	104	0	27	14708
2026-01-12 01:45:44.24	342.17	26.88	-33.9	-46.1	3.8	1.49e+00	0	42	104	0	27	14680
2026-01-12 01:45:45.24	341.91	26.98	-33.9	-46.1	3.8	1.49e+00	0	42	104	0	27	14647
2026-01-12 01:45:46.25	341.65	27.08	-33.9	-46.1	3.8	1.49e+00	0	42	104	0	27	14697
2026-01-12 01:45:47.26	341.39	27.18	-33.9	-46.1	3.8	1.49e+00	0	42	104	0	27	14706
2026-01-12 01:45:48.26	341.14	27.27	-33.9	-46.0	3.8	1.49e+00	0	42	104	0	27	14641
2026-01-12 01:45:49.27	340.87	27.37	-33.9	-46.1	3.8	1.49e+00	0	42	104	0	27	14680
2026-01-12 01:45:50.27	340.61	27.47	-33.9	-46.1	3.8	1.49e+00	0	42	104	0	27	14693
2026-01-12 01:45:51.28	340.34	27.56	-33.9	-46.1	3.8	1.49e+00	0	42	104	0	27	14720
2026-01-12 01:45:52.29	340.08	27.66	-33.9	-46.0	3.8	1.49e+00	0	42	104	0	27	14632
2026-01-12 01:45:53.30	339.81	27.76	-33.9	-46.1	3.8	1.49e+00	0	42	104	0	27	14659
2026-01-12 01:45:54.31	339.54	27.85	-33.9	-46.1	3.8	1.49e+00	0	42	104	0	27	14668
2026-01-12 01:45:55.31	339.27	27.95	-33.9	-46.1	3.8	1.49e+00	0	42	104	0	27	14657
2026-01-12 01:45:56.32	338.99	28.04	-33.9	-46.1	3.8	1.49e+00	0	42	104	0	27	14685
2026-01-12 01:45:57.32	338.72	28.13	-33.9	-46.1	3.8	1.49e+00	0	42	104	0	27	14678
2026-01-12 01:45:58.33	338.44	28.23	-33.9	-46.1	3.8	1.49e+00	0	42	104	0	27	14656
2026-01-12 01:45:59.34	338.16	28.32	-33.9	-46.1	3.8	1.49e+00	0	42	104	0	27	14692
2026-01-12 01:46:00.35	337.88	28.42	-33.9	-46.1	3.8	1.49e+00	0	42	104	0	27	14692
2026-01-12 01:46:01.36	337.60	28.51	-33.9	-46.1	3.8	1.49e+00	0	42	104	0	27	14694
2026-01-12 01:46:02.37	337.31	28.60	-33.9	-46.1	3.8	1.49e+00	0	42	104	0	27	14681
2026-01-12 01:46:03.37	337.03	28.69	-33.9	-46.1	3.8	1.49e+00	0	42	104	0	27	14652
2026-01-12 01:46:04.37	336.74	28.78	-33.8	-46.1	3.8	1.49e+00	0	42	104	0	27	14668
2026-01-12 01:46:05.38	336.45	28.87	-33.9	-46.1	3.8	1.49e+00	0	42	104	0	27	14679
2026-01-12 01:46:06.38	336.17	28.96	-33.9	-46.1	3.8	1.49e+00	0	42	104	0	27	14668
2026-01-12 01:46:07.38	335.88	29.05	-33.9	-46.1	3.8	1.49e+00	0	42	104	0	27	14672
2026-01-12 01:46:08.39	335.58	29.14	-33.9	-46.1	3.8	1.49e+00	0	42	104	0	27	14737
2026-01-12 01:46:09.40	335.29	29.23	-33.9	-46.1	3.8	1.49e+00	0	42	104	0	27	14721
2026-01-12 01:46:10.40	334.99	29.32	-33.9	-46.1	3.8	1.49e+00	0	42	104	0	27	14672
2026-01-12 01:46:11.41	334.69	29.40	-33.9	-46.1	3.8	1.49e+00	0	42	104	0	27	14691
2026-01-12 01:46:12.42	334.39	29.49	-33.9	-46.1	3.8	1.49e+00	0	42	104	0	27	14660
2026-01-12 01:46:13.43	334.09	29.58	-33.9	-46.1	3.8	1.49e+00	0	42	104	0	27	14676
2026-01-12 01:46:14.44	333.79	29.66	-33.9	-46.1	3.8	1.49e+00	0	42	104	0	27	14684
2026-01-12 01:46:15.45	333.48	29.75	-33.9	-46.1	3.8	1.49e+00	0	42	104	0	27	14695
2026-01-12 01:46:16.45	333.18	29.83	-33.9	-46.1	3.8	1.49e+00	0	42	104	0	27	14673
2026-01-12 01:46:17.46	332.87	29.92	-33.9	-46.1	3.8	1.49e+00	0	42	104	0	27	14687
2026-01-12 01:46:18.46	332.56	30.00	-33.9	-46.1	3.8	1.49e+00	0	42	104	0	27	14677
2026-01-12 01:46:19.47	332.25	30.08	-33.9	-46.1	3.8	1.49e+00	0	42	104	0	27	14683
2026-01-12 01:46:20.47	331.94	30.16	-33.9	-46.1	3.8	1.49e+00	0	42	104	0	27	14693
2026-01-12 01:46:21.48	331.62	30.24	-33.9	-46.1	3.8	1.49e+00	0	42	104	0	27	14672
2026-01-12 01:46:22.49	331.30	30.32	-33.9	-46.1	3.8	1.49e+00	0	42	104	0	27	14660
2026-01-12 01:46:23.49	330.99	30.40	-33.9	-46.1	3.8	1.49e+00	0	42	104	0	27	14647
2026-01-12 01:46:24.50	330.67	30.48	-33.9	-46.1	3.8	1.49e+00	0	42	104	0	27	14647
2026-01-12 01:46:25.50	330.35	30.55	-33.9	-46.1	3.8	1.49e+00	0	42	104	0	27	14698
2026-01-12 01:46:26.51	330.03	30.63	-33.9	-46.1	3.8	1.49e+00	0	42	104	0	27	14681
2026-01-12 01:46:27.52	329.70	30.71	-33.9	-46.1	3.8	1.49e+00	0	42	104	0	27	14717
2026-01-12 01:46:28.52	329.38	30.78	-33.9	-46.1	3.8	1.49e+00	0	42	104	0	27	14746
2026-01-12 01:46:29.53	329.05	30.86	-33.9	-46.1	3.8	1.49e+00	0	42	104	0	27	14692
2026-01-12 01:46:30.53	328.73	30.93	-33.9	-46.1	3.8	1.49e+00	0	42	104	0	27	14677
2026-01-12 01:46:31.53	328.40	31.00	-33.9	-46.1	3.8	1.49e+00	0	42	104	0	27	14656
2026-01-12 01:46:32.53	328.07	31.07	-33.9	-46.1	3.8	1.49e+00	0	42	104	0	27	14666
2026-01-12 01:46:33.54	327.74	31.14	-32.8	-44.8	3.8	1.49e+00	0	42	104	0	27	14357
2026-01-12 01:46:34.55	327.40	31.21	-33.9	-46.1	3.9	1.49e+00	0	42	104	0	27	14668
2026-01-12 01:46:35.56	327.06	31.28	-33.9	-46.1	3.8	1.49e+00	0	42	104	0	27	14664
2026-01-12 01:46:36.56	326.73	31.35	-33.9	-46.1	3.8	1.49e+00	0	42	104	0	27	14682
2026-01-12 01:46:37.57	326.39	31.42	-33.9	-46.1	3.8	1.49e+00	0	42	104	0	27	14644
2026-01-12 01:46:38.57	326.05	31.48	-33.9	-46.1	3.8	1.49e+00	0	42	104	0	27	14650
2026-01-12 01:46:39.58	325.71	31.55	-33.9	-46.0	3.8	1.49e+00	0	42	104	0	27	14636
2026-01-12 01:46:40.58	325.37	31.61	-33.9	-46.1	3.8	1.49e+00	0	42	104	0	27	14681
2026-01-12 01:46:41.58	325.03	31.67	-33.9	-46.0	3.8	1.49e+00	0	42	104	0	27	14622
2026-01-12 01:46:42.58	324.68	31.73	-33.9	-46.0	3.8	1.49e+00	0	42	104	0	27	14641
2026-01-12 01:46:43.58	324.34	31.79	-33.9	-46.0	3.8	1.49e+00	0	42	104	0	27	14643
2026-01-12 01:46:44.59	323.99	31.85	-33.9	-46.1	3.8	1.49e+00	0	42	104	0	27	14664
2026-01-12 01:46:45.60	323.64	31.91	-33.9	-46.1	3.8	1.49e+00	0	42	104	0	27	14673
2026-01-12 01:46:46.60	323.29	31.97	-33.9	-46.1	3.8	1.49e+00	0	42	104	0	27	14667
2026-01-12 01:46:47.61	322.94	32.02	-33.9	-46.1	3.8	1.49e+00	0	42	104	0	27	14663
2026-01-12 01:46:48.61	322.59	32.08	-33.9	-46.1	3.8	1.49e+00	0	42	104	0	27	14695
2026-01-12 01:46:49.63	322.23	32.13	-33.9	-46.1	3.8	1.49e+00	0	42	104	0	27	14683
2026-01-12 01:46:50.62	321.88	32.19	-33.9	-46.1	3.8	1.49e+00	0	42	104	0	27	14671
2026-01-12 01:46:51.63	321.52	32.24	-33.9	-46.1	3.8	1.49e+00	0	42	104	0	27	14657
2026-01-12 01:46:52.63	321.17	32.29	-33.8	-46.0	3.8	1.49e+00	0	42	104	0	27	14653
2026-01-12 01:46:53.64	320.81	32.34	-33.9	-46.0	3.8	1.49e+00	0	42	104	0	27	14600
2026-01-12 01:46:54.65	320.45	32.39	-33.9	-46.1	3.8	1.49e+00	0	42	104	0	27	14668
2026-01-12 01:46:55.66	320.09	32.43	-33.9	-46.1	3.8	1.49e+00	0	42	104	0	27	14686
2026-01-12 01:46:56.67	319.72	32.48	-33.8	-46.0	3.8	1.49e+00	0	42	104	0	27	14651
2026-01-12 01:46:57.66	319.37	32.52	-33.9	-46.1	3.8	1.49e+00	0	42	104	0	27	14644
2026-01-12 01:46:58.67	319.00	32.57	-33.8	-46.0	3.8	1.49e+00	0	42	104	0	27	14657
2026-01-12 01:46:59.67	318.64	32.61	-33.8	-46.0	3.8	1.49e+00	0	42	104	0	27	14609
2026-01-12 01:47:00.68	318.27	32.65	-33.9	-46.1	3.8	1.49e+00	0	42	104	0	27	14661
2026-01-12 01:47:01.69	317.90	32.69	-33.9	-46.1	3.8	1.49e+00	0	42	104	0	27	14663
2026-01-12 01:47:02.70	317.54	32.73	-33.9	-46.0	3.8	1.49e+00	0	42	104	0	27	14604
2026-01-12 01:47:03.71	317.17	32.76	-33.8	-46.0	3.8	1.49e+00	0	42	104	0	27	14660
2026-01-12 01:47:04.71	316.80	32.80	-33.8	-46.0	3.8	1.49e+00	0	42	104	0	27	14643
2026-01-12 01:47:05.72	316.43	32.83	-33.9	-46.1	3.8	1.49e+00	0	42	104	0	27	14642
2026-01-12 01:47:06.72	316.06	32.87	-33.9	-46.1	3.8	1.49e+00	0	42	104	0	27	14661
2026-01-12 01:47:07.73	315.69	32.90	-33.9	-46.1	3.8	1.49e+00	0	42	104	0	27	14726
2026-01-12 01:47:08.74	315.31	32.93	-33.9	-46.1	3.8	1.49e+00	0	42	104	0	27	14685
2026-01-12 01:47:09.74	314.94	32.96	-33.9	-46.1	3.8	1.49e+00	0	42	104	0	27	14698
2026-01-12 01:47:10.75	314.57	32.98	-33.8	-46.0	3.8	1.49e+00	0	42	104	0	27	14620
2026-01-12 01:47:11.76	314.19	33.01	-33.8	-46.0	3.8	1.49e+00	0	42	104	0	27	14647
2026-01-12 01:47:12.76	313.82	33.04	-33.9	-46.0	3.8	1.49e+00	0	42	104	0	27	14654
2026-01-12 01:47:13.76	313.45	33.06	-33.9	-46.0	3.8	1.49e+00	0	42	104	0	27	14630
2026-01-12 01:47:14.77	313.07	33.08	-33.9	-46.0	3.8	1.49e+00	0	42	104	0	27	14643
2026-01-12 01:47:15.78	312.69	33.10	-33.9	-46.0	3.8	1.49e+00	0	42	104	0	27	14660
2026-01-12 01:47:16.79	312.31	33.12	-33.8	-46.0	3.8	1.49e+00	0	42	104	0	27	14657
2026-01-12 01:47:17.79	311.94	33.14	-33.9	-46.1	3.8	1.49e+00	0	42	104	0	27	14689
2026-01-12 01:47:18.80	311.56	33.16	-33.8	-46.0	3.8	1.49e+00	0	42	104	0	27	14638
2026-01-12 01:47:19.80	311.18	33.17	-33.9	-46.0	3.8	1.49e+00	0	42	104	0	27	14617
2026-01-12 01:47:20.81	310.80	33.19	-33.8	-46.0	3.8	1.49e+00	0	42	104	0	27	14631
2026-01-12 01:47:21.81	310.43	33.20	-33.8	-46.0	3.8	1.49e+00	0	42	104	0	27	14630
2026-01-12 01:47:22.82	310.05	33.21	-33.8	-46.0	3.8	1.49e+00	0	42	104	0	27	14623
2026-01-12 01:47:23.83	309.67	33.22	-33.9	-46.0	3.8	1.49e+00	0	42	104	0	27	14636
2026-01-12 01:47:24.83	309.29	33.23	-33.8	-46.0	3.8	1.49e+00	0	42	104	0	27	14651
2026-01-12 01:47:25.84	308.91	33.23	-33.8	-46.0	3.8	1.49e+00	0	42	104	0	27	14656
2026-01-12 01:47:26.85	308.53	33.24	-33.8	-46.0	3.8	1.49e+00	0	42	104	0	27	14644
2026-01-12 01:47:27.85	308.15	33.24	-33.8	-46.0	3.8	1.49e+00	0	42	104	0	27	14655
2026-01-12 01:47:28.86	307.77	33.24	-33.9	-46.0	3.8	1.49e+00	0	42	104	0	27	14634
2026-01-12 01:47:29.86	307.39	33.24	-33.8	-46.0	3.8	1.49e+00	0	42	104	0	27	14652
2026-01-12 01:47:30.87	307.01	33.24	-33.8	-46.0	3.8	1.49e+00	0	42	104	0	27	14626
2026-01-12 01:47:31.88	306.63	33.24	-33.8	-46.0	3.8	1.49e+00	0	42	104	0	27	14645
2026-01-12 01:47:32.89	306.24	33.24	-33.9	-46.1	3.8	1.49e+00	0	42	104	0	27	14665
2026-01-12 01:47:33.89	305.87	33.23	-33.9	-46.1	3.8	1.49e+00	0	42	104	0	27	14695
2026-01-12 01:47:34.90	305.49	33.23	-33.9	-46.0	3.8	1.49e+00	0	42	104	0	27	14640
2026-01-12 01:47:35.91	305.10	33.22	-33.8	-46.0	3.8	1.49e+00	0	42	104	0	27	14611
2026-01-12 01:47:36.91	304.73	33.21	-33.8	-46.0	3.8	1.49e+00	0	42	104	0	27	14626
2026-01-12 01:47:37.92	304.35	33.20	-33.8	-46.0	3.8	1.49e+00	0	42	104	0	27	14653
2026-01-12 01:47:38.93	303.97	33.19	-33.9	-46.0	3.8	1.49e+00	0	42	104	0	27	14654
2026-01-12 01:47:39.93	303.59	33.18	-33.9	-46.1	3.8	1.49e+00	0	42	104	0	27	14661
2026-01-12 01:47:40.93	303.21	33.16	-33.9	-46.1	3.8	1.49e+00	0	42	104	0	27	14701
2026-01-12 01:47:41.94	302.83	33.14	-33.9	-46.0	3.8	1.49e+00	0	42	104	0	27	14642
2026-01-12 01:47:42.95	302.46	33.13	-33.8	-46.0	3.8	1.49e+00	0	42	104	0	27	14663
2026-01-12 01:47:43.96	302.08	33.11	-33.9	-46.0	3.8	1.49e+00	0	42	104	0	27	14631
2026-01-12 01:47:44.97	301.70	33.09	-33.9	-46.0	3.8	1.49e+00	0	42	104	0	27	14652
2026-01-12 01:47:45.97	301.33	33.07	-33.9	-46.0	3.8	1.49e+00	0	42	104	0	27	14622
2026-01-12 01:47:46.98	300.95	33.04	-33.9	-46.1	3.8	1.49e+00	0	42	104	0	27	14671
2026-01-12 01:47:47.98	300.57	33.02	-33.8	-46.0	3.8	1.49e+00	0	42	104	0	27	14634
2026-01-12 01:47:48.98	300.20	32.99	-33.9	-46.0	3.8	1.49e+00	0	42	104	0	27	14631
2026-01-12 01:47:49.99	299.83	32.96	-33.8	-46.1	3.8	1.49e+00	0	42	104	0	27	14703
2026-01-12 01:47:50.99	299.46	32.94	-33.9	-46.1	3.8	1.49e+00	0	42	104	0	27	14700
2026-01-12 01:47:52.00	299.08	32.91	-33.9	-46.0	3.8	1.49e+00	0	42	104	0	27	14616
2026-01-12 01:47:53.00	298.71	32.88	-33.9	-46.0	3.8	1.49e+00	0	42	104	0	27	14635
2026-01-12 01:47:54.00	298.34	32.84	-33.9	-46.1	3.8	1.49e+00	0	42	104	0	27	14688
2026-01-12 01:47:55.00	297.97	32.81	-33.9	-46.1	3.8	1.49e+00	0	42	104	0	27	14652
2026-01-12 01:47:56.01	297.60	32.77	-33.8	-46.0	3.8	1.49e+00	0	42	104	0	27	14644
2026-01-12 01:47:57.02	297.23	32.74	-33.1	-45.1	3.8	1.49e+00	0	42	104	0	27	14375
2026-01-12 01:47:58.02	296.87	32.70	-33.6	-45.7	3.8	1.49e+00	0	42	104	0	27	14521
2026-01-12 01:47:59.02	296.50	32.66	-33.9	-46.1	3.8	1.49e+00	0	42	104	0	27	14686
2026-01-12 01:48:00.03	296.13	32.62	-33.9	-46.0	3.8	1.49e+00	0	42	104	0	27	14641
2026-01-12 01:48:01.04	295.77	32.58	-33.9	-46.1	3.8	1.49e+00	0	42	104	0	27	14715
2026-01-12 01:48:02.04	295.41	32.54	-33.9	-46.0	3.8	1.49e+00	0	42	104	0	27	14633
2026-01-12 01:48:03.05	295.04	32.49	-33.9	-46.1	3.8	1.49e+00	0	42	104	0	27	14725
2026-01-12 01:48:04.06	294.68	32.45	-33.8	-46.0	3.8	1.49e+00	0	42	104	0	27	14649
2026-01-12 01:48:05.06	294.32	32.40	-33.9	-46.0	3.8	1.49e+00	0	42	104	0	27	14649
2026-01-12 01:48:06.07	293.96	32.35	-33.9	-46.0	3.8	1.49e+00	0	42	104	0	27	14633
2026-01-12 01:48:07.08	293.60	32.30	-33.9	-46.1	3.8	1.49e+00	0	42	104	0	27	14649
2026-01-12 01:48:08.08	293.24	32.25	-33.9	-46.1	3.8	1.49e+00	0	42	104	0	27	14671
2026-01-12 01:48:09.09	292.88	32.20	-33.9	-46.0	3.8	1.49e+00	0	42	104	0	27	14623
2026-01-12 01:48:10.09	292.53	32.15	-33.8	-46.0	3.8	1.49e+00	0	42	104	0	27	14669
2026-01-12 01:48:11.09	292.17	32.09	-33.9	-46.1	3.8	1.49e+00	0	42	104	0	27	14670
2026-01-12 01:48:12.10	291.82	32.04	-33.9	-46.1	3.8	1.49e+00	0	42	104	0	27	14694
2026-01-12 01:48:13.11	291.47	31.98	-33.9	-46.1	3.8	1.49e+00	0	42	104	0	27	14679
2026-01-12 01:48:14.11	291.12	31.93	-33.9	-46.1	3.8	1.49e+00	0	42	104	0	27	14685
2026-01-12 01:48:15.12	290.76	31.87	-33.9	-46.0	3.8	1.49e+00	0	42	104	0	27	14649
2026-01-12 01:48:16.13	290.41	31.81	-33.9	-46.0	3.8	1.49e+00	0	42	104	0	27	14632
2026-01-12 01:48:17.13	290.07	31.75	-33.9	-46.1	3.8	1.49e+00	0	42	104	0	27	14671
2026-01-12 01:48:18.14	289.72	31.69	-33.9	-46.1	3.8	1.49e+00	0	42	104	0	27	14674
2026-01-12 01:48:19.15	289.38	31.62	-33.8	-46.0	3.8	1.49e+00	0	42	104	0	27	14616
2026-01-12 01:48:20.16	289.03	31.56	-33.9	-46.1	3.8	1.49e+00	0	42	104	0	27	14698
2026-01-12 01:48:21.17	288.69	31.50	-33.9	-46.1	3.8	1.49e+00	0	42	104	0	27	14687
2026-01-12 01:48:22.17	288.35	31.43	-33.9	-46.1	3.8	1.49e+00	0	42	104	0	27	14704
2026-01-12 01:48:23.17	288.01	31.36	-33.9	-46.1	3.8	1.49e+00	0	42	104	0	27	14719
2026-01-12 01:48:24.18	287.67	31.30	-33.9	-46.1	3.8	1.49e+00	0	42	104	0	27	14671
2026-01-12 01:48:25.19	287.33	31.23	-33.9	-46.1	3.8	1.49e+00	0	42	104	0	27	14730
2026-01-12 01:48:26.19	287.00	31.16	-33.9	-46.1	3.8	1.49e+00	0	42	104	0	27	14680
2026-01-12 01:48:27.20	286.67	31.09	-33.9	-46.1	3.8	1.49e+00	0	42	104	0	27	14712
2026-01-12 01:48:28.21	286.33	31.02	-33.9	-46.0	3.8	1.49e+00	0	42	104	0	27	14614
2026-01-12 01:48:29.21	286.00	30.94	-33.9	-46.1	3.8	1.49e+00	0	42	104	0	27	14675
2026-01-12 01:48:30.22	285.67	30.87	-33.9	-46.1	3.8	1.49e+00	0	42	104	0	27	14683
2026-01-12 01:48:31.23	285.35	30.80	-33.9	-46.1	3.8	1.49e+00	0	42	104	0	27	14685
2026-01-12 01:48:32.23	285.02	30.72	-33.9	-46.1	3.8	1.49e+00	0	42	104	0	27	14719
2026-01-12 01:48:33.24	284.69	30.65	-33.9	-46.1	3.8	1.49e+00	0	42	104	0	27	14666
2026-01-12 01:48:34.25	284.37	30.57	-33.9	-46.1	3.8	1.49e+00	0	42	104	0	27	14663
2026-01-12 01:48:35.25	284.05	30.49	-33.9	-46.1	3.8	1.49e+00	0	42	104	0	27	14684
2026-01-12 01:48:36.26	283.73	30.41	-33.9	-46.1	3.8	1.49e+00	0	42	104	0	27	14680
2026-01-12 01:48:37.26	283.41	30.34	-33.9	-46.0	3.8	1.49e+00	0	42	104	0	27	14658
2026-01-12 01:48:38.27	283.09	30.26	-33.9	-46.0	3.8	1.49e+00	0	42	104	0	27	14604
2026-01-12 01:48:39.28	282.78	30.17	-33.9	-46.0	3.8	1.49e+00	0	42	104	0	27	14649
2026-01-12 01:48:40.28	282.47	30.09	-33.9	-46.1	3.8	1.49e+00	0	42	104	0	27	14663
2026-01-12 01:48:41.29	282.15	30.01	-33.9	-46.1	3.8	1.49e+00	0	42	104	0	27	14666
2026-01-12 01:48:42.30	281.84	29.93	-33.9	-46.1	3.8	1.49e+00	0	42	104	0	27	14690
2026-01-12 01:48:43.31	281.53	29.85	-33.9	-46.1	3.8	1.49e+00	0	42	104	0	27	14664
2026-01-12 01:48:44.31	281.23	29.76	-33.9	-46.1	3.8	1.49e+00	0	42	104	0	27	14697
2026-01-12 01:48:45.32	280.92	29.68	-33.9	-46.0	3.8	1.49e+00	0	42	104	0	27	14626
2026-01-12 01:48:46.33	280.61	29.59	-33.9	-46.1	3.8	1.49e+00	0	42	104	0	27	14646
2026-01-12 01:48:47.33	280.31	29.51	-33.9	-46.0	3.8	1.49e+00	0	42	104	0	27	14646
2026-01-12 01:48:48.34	280.01	29.42	-33.9	-46.1	3.8	1.49e+00	0	42	104	0	27	14684
2026-01-12 01:48:49.35	279.71	29.33	-33.9	-46.0	3.8	1.49e+00	0	42	104	0	27	14657
2026-01-12 01:48:50.35	279.41	29.24	-33.9	-46.0	3.8	1.49e+00	0	42	104	0	27	14649
2026-01-12 01:48:51.36	279.12	29.15	-33.9	-46.1	3.8	1.49e+00	0	42	104	0	27	14692
2026-01-12 01:48:52.37	278.82	29.07	-33.9	-46.1	3.8	1.49e+00	0	42	104	0	27	14668
2026-01-12 01:48:53.37	278.53	28.98	-33.9	-46.1	3.8	1.49e+00	0	42	104	0	27	14667
2026-01-12 01:48:54.38	278.24	28.89	-33.8	-46.0	3.8	1.49e+00	0	42	104	0	27	14641
2026-01-12 01:48:55.38	277.95	28.80	-33.9	-46.1	3.8	1.49e+00	0	42	104	0	27	14726
2026-01-12 01:48:56.39	277.66	28.70	-33.9	-46.1	3.8	1.49e+00	0	42	104	0	27	14698
2026-01-12 01:48:57.40	277.37	28.61	-33.9	-46.1	3.8	1.49e+00	0	42	104	0	27	14654
2026-01-12 01:48:58.41	277.09	28.52	-33.9	-46.1	3.8	1.49e+00	0	42	104	0	27	14685
2026-01-12 01:48:59.41	276.81	28.43	-33.9	-46.1	3.8	1.49e+00	0	42	104	0	27	14675
2026-01-12 01:49:00.42	276.52	28.33	-33.9	-46.1	3.8	1.49e+00	0	42	104	0	27	14747
2026-01-12 01:49:01.43	276.24	28.24	-33.9	-46.1	3.8	1.49e+00	0	42	104	0	27	14669
2026-01-12 01:49:02.44	275.96	28.15	-33.9	-46.1	3.8	1.49e+00	0	42	104	0	27	14686
2026-01-12 01:49:03.44	275.69	28.05	-33.9	-46.1	3.8	1.49e+00	0	42	104	0	27	14642
2026-01-12 01:49:04.45	275.41	27.96	-33.9	-46.0	3.8	1.49e+00	0	42	104	0	27	14634
2026-01-12 01:49:05.46	275.14	27.86	-33.9	-46.0	3.8	1.49e+00	0	42	104	0	27	14634
2026-01-12 01:49:06.47	274.87	27.76	-33.9	-46.0	3.8	1.49e+00	0	42	104	0	27	14636
2026-01-12 01:49:07.47	274.60	27.67	-33.9	-46.1	3.8	1.49e+00	0	42	104	0	27	14685
2026-01-12 01:49:08.48	274.33	27.57	-33.8	-46.1	3.8	1.49e+00	0	42	104	0	27	14685
2026-01-12 01:49:09.49	274.06	27.47	-33.9	-46.1	3.8	1.49e+00	0	42	104	0	27	14705
2026-01-12 01:49:10.50	273.80	27.38	-33.9	-46.0	3.8	1.49e+00	0	42	104	0	27	14624
2026-01-12 01:49:11.50	273.53	27.28	-33.9	-46.1	3.8	1.49e+00	0	42	104	0	27	14733
2026-01-12 01:49:12.50	273.27	27.18	-33.9	-46.1	3.8	1.49e+00	0	42	104	0	27	14685
2026-01-12 01:49:13.51	273.01	27.08	-33.9	-46.0	3.8	1.49e+00	0	42	104	0	27	14630
2026-01-12 01:49:14.52	272.75	26.99	-33.9	-46.1	3.8	1.49e+00	0	42	104	0	27	14669
2026-01-12 01:49:15.52	272.50	26.89	-33.8	-46.0	3.8	1.49e+00	0	42	104	0	27	14633
2026-01-12 01:49:16.52	272.24	26.79	-33.9	-46.0	3.8	1.49e+00	0	42	104	0	27	14655
2026-01-12 01:49:17.53	271.99	26.69	-33.9	-46.1	3.8	1.49e+00	0	42	104	0	27	14651
2026-01-12 01:49:18.53	271.74	26.59	-33.9	-46.0	3.8	1.49e+00	0	42	104	0	27	14659
2026-01-12 01:49:19.54	271.49	26.49	-33.9	-46.1	3.8	1.49e+00	0	42	104	0	27	14701
2026-01-12 01:49:20.54	271.24	26.39	-33.8	-45.9	3.8	1.49e+00	0	42	104	0	27	14443
2026-01-12 01:49:21.55	270.99	26.29	-33.9	-46.1	3.8	1.49e+00	0	42	104	0	27	14670
2026-01-12 01:49:22.56	270.74	26.19	-33.9	-46.0	3.8	1.49e+00	0	42	104	0	27	14650
2026-01-12 01:49:23.57	270.50	26.09	-33.8	-46.0	3.8	1.49e+00	0	42	104	0	27	14605
2026-01-12 01:49:24.57	270.26	25.99	-33.9	-46.1	3.8	1.49e+00	0	42	104	0	27	14682
2026-01-12 01:49:25.58	270.02	25.89	-33.8	-46.0	3.8	1.49e+00	0	42	104	0	27	14654
2026-01-12 01:49:26.59	269.78	25.79	-33.9	-46.0	3.8	1.49e+00	0	42	104	0	27	14628
2026-01-12 01:49:27.59	269.54	25.69	-33.9	-46.0	3.8	1.49e+00	0	42	104	0	27	14601
2026-01-12 01:49:28.60	269.30	25.58	-33.9	-46.1	3.8	1.49e+00	0	42	104	0	27	14684
2026-01-12 01:49:29.61	269.07	25.48	-33.9	-46.1	3.8	1.49e+00	0	42	104	0	27	14680
2026-01-12 01:49:30.61	268.83	25.38	-33.9	-46.1	3.8	1.49e+00	0	42	104	0	27	14694
2026-01-12 01:49:31.62	268.60	25.28	-33.9	-46.1	3.8	1.49e+00	0	42	104	0	27	14707
2026-01-12 01:49:32.63	268.37	25.18	-33.9	-46.1	3.8	1.49e+00	0	42	104	0	27	14667
2026-01-12 01:49:33.63	268.14	25.07	-33.9	-46.1	3.8	1.49e+00	0	42	104	0	27	14667
2026-01-12 01:49:34.64	267.91	24.97	-33.9	-46.1	3.8	1.49e+00	0	42	104	0	27	14706
2026-01-12 01:49:35.65	267.69	24.87	-33.9	-46.1	3.8	1.49e+00	0	42	104	0	27	14689
2026-01-12 01:49:36.66	267.46	24.77	-33.9	-46.1	3.8	1.49e+00	0	42	104	0	27	14657
2026-01-12 01:49:37.66	267.24	24.66	-33.9	-46.1	3.8	1.49e+00	0	42	104	0	27	14670
2026-01-12 01:49:38.67	267.02	24.56	-33.9	-46.1	3.8	1.49e+00	0	42	104	0	27	14698
2026-01-12 01:49:39.67	266.80	24.46	-33.9	-46.1	3.8	1.49e+00	0	42	104	0	27	14692
2026-01-12 01:49:40.68	266.58	24.36	-33.9	-46.1	3.8	1.49e+00	0	42	104	0	27	14684
2026-01-12 01:49:41.69	266.36	24.25	-33.9	-46.1	3.8	1.49e+00	0	42	104	0	27	14677
2026-01-12 01:49:42.70	266.14	24.15	-33.9	-46.1	3.8	1.49e+00	0	42	104	0	27	14656
2026-01-12 01:49:43.70	265.93	24.05	-33.9	-46.1	3.8	1.49e+00	0	42	104	0	27	14659
2026-01-12 01:49:44.71	265.72	23.94	-33.9	-46.1	3.8	1.49e+00	0	42	104	0	27	14663
2026-01-12 01:49:45.72	265.50	23.84	-33.9	-46.1	3.8	1.49e+00	0	42	104	0	27	14692
2026-01-12 01:49:46.72	265.29	23.74	-33.9	-46.1	3.8	1.49e+00	0	42	104	0	27	14699
2026-01-12 01:49:47.73	265.08	23.64	-33.9	-46.1	3.8	1.49e+00	0	42	104	0	27	14691
2026-01-12 01:49:48.74	264.88	23.53	-33.9	-46.1	3.8	1.49e+00	0	42	104	0	27	14736
2026-01-12 01:49:49.74	264.67	23.43	-33.9	-46.1	3.8	1.49e+00	0	42	104	0	27	14681
2026-01-12 01:49:50.75	264.47	23.33	-33.9	-46.1	3.8	1.49e+00	0	42	104	0	27	14721
2026-01-12 01:49:51.76	264.26	23.22	-33.9	-46.1	3.8	1.49e+00	0	42	104	0	27	14728
2026-01-12 01:49:52.76	264.06	23.12	-33.9	-46.1	3.8	1.49e+00	0	42	104	0	27	14696
2026-01-12 01:49:53.77	263.86	23.02	-33.9	-46.1	3.8	1.49e+00	0	42	104	0	27	14687
2026-01-12 01:49:54.77	263.66	22.92	-33.9	-46.1	3.8	1.49e+00	0	42	104	0	27	14697
2026-01-12 01:49:55.78	263.46	22.81	-33.9	-46.1	3.8	1.49e+00	0	42	104	0	27	14680
2026-01-12 01:49:56.79	263.26	22.71	-33.9	-46.1	3.8	1.49e+00	0	42	104	0	27	14655
2026-01-12 01:49:57.80	263.07	22.61	-33.9	-46.1	3.8	1.49e+00	0	42	104	0	27	14689
2026-01-12 01:49:58.81	262.87	22.50	-33.9	-46.1	3.8	1.49e+00	0	42	104	0	27	14681
2026-01-12 01:49:59.80	262.68	22.40	-33.9	-46.1	3.8	1.49e+00	0	42	104	0	27	14668
2026-01-12 01:50:00.81	262.49	22.30	-33.9	-46.1	3.8	1.49e+00	0	42	104	0	27	14658
2026-01-12 01:50:01.82	262.30	22.20	-33.9	-46.0	3.8	1.49e+00	0	42	104	0	27	14642
2026-01-12 01:50:02.82	262.11	22.10	-33.8	-46.0	3.8	1.49e+00	0	42	104	0	27	14647
2026-01-12 01:50:03.83	261.92	21.99	-33.9	-46.1	3.8	1.49e+00	0	42	104	0	27	14679
2026-01-12 01:50:04.84	261.74	21.89	-33.9	-46.1	3.8	1.49e+00	0	42	104	0	27	14665
2026-01-12 01:50:05.85	261.55	21.79	-33.9	-46.1	3.8	1.49e+00	0	42	104	0	27	14656
2026-01-12 01:50:06.86	261.36	21.69	-33.9	-46.1	3.8	1.49e+00	0	42	104	0	27	14667
2026-01-12 01:50:07.86	261.18	21.58	-33.9	-46.1	3.8	1.49e+00	0	42	104	0	27	14655
2026-01-12 01:50:08.86	261.00	21.48	-33.9	-46.0	3.8	1.49e+00	0	42	104	0	27	14654
2026-01-12 01:50:09.87	260.82	21.38	-33.9	-46.1	3.8	1.49e+00	0	42	104	0	27	14678
2026-01-12 01:50:10.88	260.64	21.28	-33.9	-46.0	3.8	1.49e+00	0	42	104	0	27	14638
2026-01-12 01:50:11.88	260.46	21.18	-33.9	-46.1	3.8	1.49e+00	0	42	104	0	27	14683
2026-01-12 01:50:12.89	260.29	21.08	-33.9	-46.0	3.8	1.49e+00	0	42	104	0	27	14621
2026-01-12 01:50:13.90	260.11	20.97	-33.9	-46.1	3.8	1.49e+00	0	42	104	0	27	14661
2026-01-12 01:50:14.91	259.93	20.87	-33.9	-46.1	3.8	1.49e+00	0	42	104	0	27	14647
2026-01-12 01:50:15.91	259.76	20.77	-33.9	-46.1	3.8	1.49e+00	0	42	104	0	27	14661
2026-01-12 01:50:16.91	259.59	20.67	-33.9	-46.1	3.8	1.49e+00	0	42	104	0	27	14703
2026-01-12 01:50:17.92	259.42	20.57	-33.9	-46.1	3.8	1.49e+00	0	42	104	0	27	14700
2026-01-12 01:50:18.93	259.25	20.47	-33.9	-46.1	3.8	1.49e+00	0	42	104	0	27	14649
2026-01-12 01:50:19.93	259.08	20.37	-33.9	-46.1	3.8	1.49e+00	0	42	104	0	27	14662
2026-01-12 01:50:20.94	258.91	20.27	-33.9	-46.1	3.8	1.49e+00	0	42	104	0	27	14641
2026-01-12 01:50:21.94	258.75	20.17	-33.9	-46.1	3.8	1.49e+00	0	42	104	0	27	14697
2026-01-12 01:50:22.94	258.58	20.07	-33.9	-46.1	3.8	1.49e+00	0	42	104	0	27	14669
2026-01-12 01:50:23.95	258.42	19.97	-33.9	-46.0	3.8	1.49e+00	0	42	104	0	27	14637
2026-01-12 01:50:24.96	258.25	19.87	-33.9	-46.1	3.8	1.49e+00	0	42	104	0	27	14675
2026-01-12 01:50:25.97	258.09	19.77	-33.9	-46.1	3.8	1.49e+00	0	42	104	0	27	14652
2026-01-12 01:50:26.97	257.93	19.67	-33.9	-46.0	3.8	1.49e+00	0	42	104	0	27	14599
2026-01-12 01:50:27.98	257.77	19.57	-33.9	-46.1	3.8	1.49e+00	0	42	104	0	27	14670
2026-01-12 01:50:28.99	257.61	19.47	-33.9	-46.1	3.8	1.49e+00	0	42	104	0	27	14679
2026-01-12 01:50:29.99	257.45	19.37	-33.8	-46.1	3.8	1.49e+00	0	42	104	0	27	14670
2026-01-12 01:50:31.00	257.29	19.27	-33.9	-46.1	3.8	1.49e+00	0	42	104	0	27	14672
2026-01-12 01:50:32.01	257.14	19.17	-33.8	-46.0	3.8	1.49e+00	0	42	104	0	27	14635
2026-01-12 01:50:33.01	256.98	19.08	-33.8	-46.0	3.8	1.49e+00	0	42	104	0	27	14599
2026-01-12 01:50:34.02	256.83	18.98	-33.9	-46.0	3.8	1.49e+00	0	42	104	0	27	14639
2026-01-12 01:50:35.03	256.67	18.88	-33.9	-46.1	3.8	1.49e+00	0	42	104	0	27	14691
2026-01-12 01:50:36.03	256.52	18.78	-33.9	-46.0	3.8	1.49e+00	0	42	104	0	27	14638
2026-01-12 01:50:37.04	256.37	18.68	-33.8	-46.0	3.8	1.49e+00	0	42	104	0	27	14637
2026-01-12 01:50:38.04	256.22	18.59	-33.9	-46.1	3.8	1.49e+00	0	42	104	0	27	14683
2026-01-12 01:50:39.05	256.07	18.49	-33.9	-46.1	3.8	1.49e+00	0	42	104	0	27	14713
2026-01-12 01:50:40.06	255.92	18.39	-33.9	-46.1	3.8	1.49e+00	0	42	104	0	27	14689
2026-01-12 01:50:41.06	255.78	18.29	-33.9	-46.0	3.8	1.49e+00	0	42	104	0	27	14639
2026-01-12 01:50:42.07	255.63	18.20	-33.9	-46.1	3.8	1.49e+00	0	42	104	0	27	14663
2026-01-12 01:50:43.07	255.49	18.10	-33.9	-46.1	3.8	1.49e+00	0	42	104	0	27	14672
2026-01-12 01:50:44.07	255.34	18.01	-33.8	-46.0	3.8	1.49e+00	0	42	104	0	27	14608
2026-01-12 01:50:45.07	255.20	17.91	-33.9	-46.0	3.8	1.49e+00	0	42	104	0	27	14646
2026-01-12 01:50:46.08	255.06	17.81	-33.9	-46.0	3.8	1.49e+00	0	42	104	0	27	14630
2026-01-12 01:50:47.09	254.92	17.72	-33.8	-46.1	3.8	1.49e+00	0	42	104	0	27	14675
2026-01-12 01:50:48.10	254.77	17.62	-33.9	-46.1	3.8	1.49e+00	0	42	104	0	27	14655
2026-01-12 01:50:49.11	254.63	17.52	-33.8	-46.1	3.8	1.49e+00	0	42	104	0	27	14711
2026-01-12 01:50:50.11	254.50	17.43	-33.9	-46.1	3.8	1.49e+00	0	42	104	0	27	14660
2026-01-12 01:50:51.12	254.36	17.33	-33.9	-46.1	3.8	1.49e+00	0	42	104	0	27	14682
2026-01-12 01:50:52.13	254.22	17.24	-33.9	-46.0	3.8	1.49e+00	0	42	104	0	27	14646
2026-01-12 01:50:53.14	254.08	17.14	-33.9	-46.0	3.8	1.49e+00	0	42	104	0	27	14634
2026-01-12 01:50:54.14	253.95	17.05	-33.9	-46.1	3.8	1.49e+00	0	42	104	0	27	14658
2026-01-12 01:50:55.15	253.81	16.96	-33.8	-46.0	3.8	1.49e+00	0	42	104	0	27	14651
2026-01-12 01:50:56.15	253.68	16.86	-33.8	-46.0	3.8	1.49e+00	0	42	104	0	27	14650
2026-01-12 01:50:57.16	253.55	16.77	-33.9	-46.0	3.8	1.49e+00	0	42	104	0	27	14599
2026-01-12 01:50:58.16	253.42	16.67	-33.9	-46.1	3.8	1.49e+00	0	42	104	0	27	14659
2026-01-12 01:50:59.17	253.28	16.58	-33.8	-46.0	3.8	1.49e+00	0	42	104	0	27	14660
2026-01-12 01:51:00.17	253.15	16.49	-33.9	-46.0	3.8	1.49e+00	0	42	104	0	27	14646
2026-01-12 01:51:01.18	253.02	16.39	-33.8	-46.0	3.8	1.49e+00	0	42	104	0	27	14625
2026-01-12 01:51:02.19	252.89	16.30	-33.8	-46.0	3.8	1.49e+00	0	42	104	0	27	14613
2026-01-12 01:51:03.19	252.77	16.21	-33.9	-46.1	3.8	1.49e+00	0	42	104	0	27	14668
2026-01-12 01:51:04.20	252.64	16.12	-33.9	-46.1	3.8	1.49e+00	0	42	104	0	27	14674
2026-01-12 01:51:05.20	252.51	16.02	-33.9	-46.0	3.8	1.49e+00	0	42	104	0	27	14626
2026-01-12 01:51:06.21	252.39	15.93	-33.9	-46.1	3.8	1.49e+00	0	42	104	0	27	14695
2026-01-12 01:51:07.22	252.26	15.84	-33.9	-46.1	3.8	1.49e+00	0	42	104	0	27	14673
2026-01-12 01:51:08.23	252.14	15.75	-33.9	-46.1	3.8	1.49e+00	0	42	104	0	27	14643
2026-01-12 01:51:09.24	252.02	15.65	-33.9	-46.0	3.8	1.49e+00	0	42	104	0	27	14653
2026-01-12 01:51:10.25	251.89	15.56	-33.8	-46.1	3.8	1.49e+00	0	42	104	0	27	14676
2026-01-12 01:51:11.25	251.77	15.47	-33.9	-46.1	3.8	1.49e+00	0	42	104	0	27	14668
2026-01-12 01:51:12.26	251.65	15.38	-33.9	-46.1	3.8	1.49e+00	0	42	104	0	27	14666
2026-01-12 01:51:13.27	251.53	15.29	-33.9	-46.1	3.8	1.49e+00	0	42	104	0	27	14665
2026-01-12 01:51:14.28	251.41	15.20	-33.9	-46.1	3.8	1.49e+00	0	42	104	0	27	14666
2026-01-12 01:51:15.28	251.29	15.11	-33.9	-46.1	3.8	1.49e+00	0	42	104	0	27	14699
2026-01-12 01:51:16.29	251.17	15.02	-33.9	-46.1	3.8	1.49e+00	0	42	104	0	27	14702
2026-01-12 01:51:17.29	251.06	14.93	-33.9	-46.1	3.8	1.49e+00	0	42	104	0	27	14698
2026-01-12 01:51:18.30	250.94	14.84	-33.9	-46.1	3.8	1.49e+00	0	42	104	0	27	14672
2026-01-12 01:51:19.31	250.82	14.75	-33.9	-46.1	3.8	1.49e+00	0	42	104	0	27	14693
2026-01-12 01:51:20.32	250.71	14.66	-33.9	-46.1	3.8	1.49e+00	0	42	104	0	27	14683
2026-01-12 01:51:21.32	250.59	14.57	-33.9	-46.1	3.8	1.49e+00	0	42	104	0	27	14720
2026-01-12 01:51:22.33	250.48	14.48	-33.9	-46.1	3.8	1.49e+00	0	42	104	0	27	14667
2026-01-12 01:51:23.34	250.37	14.39	-33.9	-46.1	3.8	1.49e+00	0	42	104	0	27	14701
2026-01-12 01:51:24.35	250.25	14.31	-33.9	-46.1	3.8	1.49e+00	0	42	104	0	27	14679
2026-01-12 01:51:25.35	250.14	14.22	-33.9	-46.1	3.8	1.49e+00	0	42	104	0	27	14671
2026-01-12 01:51:26.36	250.03	14.13	-33.9	-46.1	3.8	1.49e+00	0	42	104	0	27	14694
2026-01-12 01:51:27.37	249.92	14.04	-33.9	-46.1	3.8	1.49e+00	0	42	104	0	27	14699
2026-01-12 01:51:28.38	249.81	13.95	-33.9	-46.1	3.8	1.49e+00	0	42	104	0	27	14722
2026-01-12 01:51:29.38	249.70	13.87	-33.9	-46.1	3.8	1.49e+00	0	42	104	0	27	14643
2026-01-12 01:51:30.39	249.59	13.78	-33.9	-46.1	3.8	1.49e+00	0	42	104	0	27	14681
2026-01-12 01:51:31.39	249.49	13.69	-33.9	-46.1	3.8	1.49e+00	0	42	104	0	27	14660
2026-01-12 01:51:32.40	249.38	13.61	-33.9	-46.1	3.8	1.49e+00	0	42	104	0	27	14692
2026-01-12 01:51:33.41	249.27	13.52	-33.9	-46.1	3.8	1.49e+00	0	42	104	0	27	14689
2026-01-12 01:51:34.42	249.17	13.43	-33.9	-46.1	3.8	1.49e+00	0	42	104	0	27	14664
2026-01-12 01:51:35.43	249.06	13.35	-33.9	-46.0	3.8	1.49e+00	0	42	104	0	27	14642
2026-01-12 01:51:36.44	248.96	13.26	-33.9	-46.1	3.8	1.49e+00	0	42	104	0	27	14629
2026-01-12 01:51:37.44	248.85	13.17	-33.9	-46.1	3.8	1.49e+00	0	42	104	0	27	14641
2026-01-12 01:51:38.45	248.75	13.09	-33.9	-46.1	3.8	1.49e+00	0	42	104	0	27	14665
2026-01-12 01:51:39.46	248.65	13.00	-33.9	-46.1	3.8	1.49e+00	0	42	104	0	27	14636
2026-01-12 01:51:40.46	248.54	12.92	-33.9	-46.1	3.8	1.49e+00	0	42	104	0	27	14634
2026-01-12 01:51:41.47	248.44	12.83	-33.9	-46.1	3.8	1.49e+00	0	42	104	0	27	14660
2026-01-12 01:51:42.48	248.34	12.75	-33.9	-46.1	3.8	1.49e+00	0	42	104	0	27	14693
2026-01-12 01:51:43.49	248.24	12.66	-33.9	-46.0	3.8	1.49e+00	0	42	104	0	27	14614
2026-01-12 01:51:44.50	248.14	12.58	-33.9	-46.1	3.8	1.49e+00	0	42	104	0	27	14695
2026-01-12 01:51:45.50	248.04	12.50	-33.9	-46.1	3.8	1.49e+00	0	42	104	0	27	14644
2026-01-12 01:51:46.51	247.94	12.41	-33.9	-46.1	3.8	1.49e+00	0	42	104	0	27	14665
2026-01-12 01:51:47.52	247.84	12.33	-33.9	-46.1	3.8	1.49e+00	0	42	104	0	27	14667
2026-01-12 01:51:48.52	247.75	12.24	-33.9	-46.1	3.8	1.49e+00	0	42	104	0	27	14740
2026-01-12 01:51:49.53	247.65	12.16	-33.9	-46.1	3.8	1.49e+00	0	42	104	0	27	14739
2026-01-12 01:51:50.54	247.55	12.08	-33.9	-46.1	3.8	1.49e+00	0	42	104	0	27	14706
2026-01-12 01:51:51.55	247.46	11.99	-33.9	-46.1	3.8	1.49e+00	0	42	104	0	27	14682
2026-01-12 01:51:52.55	247.36	11.91	-33.9	-46.1	3.8	1.49e+00	0	42	104	0	27	14725
2026-01-12 01:51:53.55	247.27	11.83	-33.9	-46.0	3.8	1.49e+00	0	42	104	0	27	14639
2026-01-12 01:51:54.55	247.18	11.75	-33.9	-46.0	3.8	1.49e+00	0	42	104	0	27	14629
2026-01-12 01:51:55.56	247.08	11.67	-33.9	-46.1	3.8	1.49e+00	0	42	104	0	27	14652
2026-01-12 01:51:56.57	246.99	11.58	-33.9	-46.0	3.8	1.49e+00	0	42	104	0	27	14659
2026-01-12 01:51:57.57	246.90	11.50	-33.9	-46.1	3.8	1.49e+00	0	42	104	0	27	14666
2026-01-12 01:51:58.58	246.80	11.42	-33.9	-46.1	3.8	1.49e+00	0	42	104	0	27	14660
2026-01-12 01:51:59.59	246.71	11.34	-33.9	-46.1	3.8	1.49e+00	0	42	104	0	27	14672
2026-01-12 01:52:00.59	246.62	11.26	-33.9	-46.1	3.8	1.49e+00	0	42	104	0	27	14672
2026-01-12 01:52:01.60	246.53	11.18	-33.8	-46.0	3.9	1.49e+00	0	42	104	0	27	14605
2026-01-12 01:52:02.61	246.44	11.10	-33.9	-46.1	3.8	1.49e+00	0	42	104	0	27	14677
2026-01-12 01:52:03.61	246.35	11.02	-33.9	-46.0	3.8	1.49e+00	0	42	104	0	27	14642
2026-01-12 01:52:04.62	246.26	10.94	-33.8	-46.1	3.8	1.49e+00	0	42	104	0	27	14678
2026-01-12 01:52:05.62	246.17	10.86	-33.8	-46.0	3.8	1.49e+00	0	42	104	0	27	14668
2026-01-12 01:52:06.62	246.09	10.78	-33.8	-46.0	3.8	1.49e+00	0	42	104	0	27	14615
2026-01-12 01:52:07.62	246.00	10.70	-33.9	-46.1	3.8	1.49e+00	0	42	104	0	27	14659
2026-01-12 01:52:08.63	245.91	10.62	-33.8	-46.0	3.8	1.49e+00	0	42	104	0	27	14655
2026-01-12 01:52:09.64	245.83	10.54	-33.9	-46.1	3.8	1.49e+00	0	42	104	0	27	14690
2026-01-12 01:52:10.65	245.74	10.46	-33.8	-46.0	3.8	1.49e+00	0	42	104	0	27	14659
2026-01-12 01:52:11.65	245.65	10.38	-33.8	-46.1	3.8	1.49e+00	0	42	104	0	27	14669
2026-01-12 01:52:12.66	245.57	10.30	-33.9	-46.0	3.8	1.49e+00	0	42	104	0	27	14655
2026-01-12 01:52:13.66	245.49	10.22	-33.9	-46.1	3.8	1.49e+00	0	42	104	0	27	14685
2026-01-12 01:52:14.66	245.40	10.15	-33.9	-46.1	3.8	1.49e+00	0	42	104	0	27	14710
2026-01-12 01:52:15.67	245.32	10.07	-33.9	-46.0	3.8	1.49e+00	0	42	104	0	27	14614
2026-01-12 01:52:16.67	245.24	9.99	-33.9	-46.0	3.8	1.49e+00	0	42	104	0	27	14644
2026-01-12 01:52:17.68	245.15	9.91	-33.9	-46.1	3.8	1.49e+00	0	42	104	0	27	14689
2026-01-12 01:52:18.69	245.07	9.83	-33.9	-46.1	3.8	1.49e+00	0	42	104	0	27	14677
2026-01-12 01:52:19.69	244.99	9.76	-33.9	-46.1	3.8	1.49e+00	0	42	104	0	27	14665
2026-01-12 01:52:20.69	244.91	9.68	-33.9	-46.0	3.8	1.49e+00	0	42	104	0	27	14631
2026-01-12 01:52:21.71	244.83	9.60	-33.8	-46.0	3.8	1.49e+00	0	42	104	0	27	14622
2026-01-12 01:52:22.72	244.74	9.53	-33.9	-46.1	3.8	1.49e+00	0	42	104	0	27	14676
2026-01-12 01:52:23.72	244.67	9.45	-33.9	-46.0	3.8	1.49e+00	0	42	104	0	27	14619
2026-01-12 01:52:24.73	244.59	9.37	-33.8	-46.0	3.8	1.49e+00	0	42	104	0	27	14608
2026-01-12 01:52:25.73	244.51	9.30	-33.9	-46.0	3.8	1.49e+00	0	42	104	0	27	14633
2026-01-12 01:52:26.74	244.43	9.22	-33.9	-46.1	3.8	1.49e+00	0	42	104	0	27	14706
2026-01-12 01:52:27.75	244.35	9.14	-33.9	-46.0	3.8	1.49e+00	0	42	104	0	27	14647
2026-01-12 01:52:28.75	244.27	9.07	-33.9	-46.0	3.8	1.49e+00	0	42	104	0	27	14647
2026-01-12 01:52:29.76	244.19	8.99	-33.9	-46.1	3.8	1.49e+00	0	42	104	0	27	14686
2026-01-12 01:52:30.77	244.12	8.92	-33.8	-46.0	3.8	1.49e+00	0	42	104	0	27	14661
2026-01-12 01:52:31.77	244.04	8.84	-33.9	-46.0	3.8	1.49e+00	0	42	104	0	27	14629
2026-01-12 01:52:32.78	243.96	8.77	-33.9	-46.1	3.8	1.49e+00	0	42	104	0	27	14679
2026-01-12 01:52:33.78	243.89	8.69	-33.9	-46.1	3.8	1.49e+00	0	42	104	0	27	14670
2026-01-12 01:52:34.79	243.81	8.62	-33.8	-46.0	3.8	1.49e+00	0	42	104	0	27	14641
2026-01-12 01:52:35.79	243.74	8.54	-33.9	-46.1	3.8	1.49e+00	0	42	104	0	27	14662
2026-01-12 01:52:36.80	243.66	8.47	-33.9	-46.0	3.8	1.49e+00	0	42	104	0	27	14602
2026-01-12 01:52:37.81	243.59	8.39	-33.9	-46.1	3.8	1.49e+00	0	42	104	0	27	14701
2026-01-12 01:52:38.81	243.51	8.32	-33.9	-46.0	3.8	1.49e+00	0	42	104	0	27	14656
2026-01-12 01:52:39.82	243.44	8.25	-33.9	-46.0	3.8	1.49e+00	0	42	104	0	27	14631
2026-01-12 01:52:40.83	243.37	8.17	-33.9	-46.1	3.8	1.49e+00	0	42	104	0	27	14710
2026-01-12 01:52:41.84	243.29	8.10	-33.9	-46.0	3.8	1.49e+00	0	42	104	0	27	14628
2026-01-12 01:52:42.84	243.22	8.02	-33.9	-46.1	3.8	1.49e+00	0	42	104	0	27	14691
2026-01-12 01:52:43.85	243.15	7.95	-33.9	-46.1	3.8	1.49e+00	0	42	104	0	27	14661
2026-01-12 01:52:44.85	243.08	7.88	-33.9	-46.1	3.8	1.49e+00	0	42	104	0	27	14654
2026-01-12 01:52:45.86	243.01	7.81	-33.9	-46.1	3.8	1.49e+00	0	42	104	0	27	14660
2026-01-12 01:52:46.86	242.94	7.73	-33.9	-46.1	3.8	1.49e+00	0	42	104	0	27	14691
2026-01-12 01:52:47.87	242.87	7.66	-33.9	-46.1	3.8	1.49e+00	0	42	104	0	27	14671
2026-01-12 01:52:48.87	242.80	7.59	-33.9	-46.1	3.8	1.49e+00	0	42	104	0	27	14711
2026-01-12 01:52:49.88	242.73	7.52	-33.9	-46.1	3.8	1.49e+00	0	42	104	0	27	14667
2026-01-12 01:52:50.89	242.66	7.44	-33.9	-46.1	3.8	1.49e+00	0	42	104	0	27	14668
2026-01-12 01:52:51.90	242.59	7.37	-33.9	-46.1	3.8	1.49e+00	0	42	104	0	27	14687
2026-01-12 01:52:52.91	242.52	7.30	-33.9	-46.1	3.8	1.49e+00	0	42	104	0	27	14683
2026-01-12 01:52:53.92	242.45	7.23	-33.9	-46.1	3.8	1.49e+00	0	42	104	0	27	14673
2026-01-12 01:52:54.92	242.38	7.16	-33.9	-46.1	3.8	1.49e+00	0	42	104	0	27	14686
2026-01-12 01:52:55.93	242.31	7.09	-33.8	-46.1	3.8	1.49e+00	0	42	104	0	27	14688
2026-01-12 01:52:56.93	242.25	7.01	-33.8	-46.0	3.8	1.49e+00	0	42	104	0	27	14655

#Closed at: 2026-01-12 01:52:57
#Recorded file [0 MB]: D:/data/31010_260112_044231.dat