passes_logs/2026/01/12/R2M6_AANII_01/R2M6_AANII_01__20260112_163137_FENGYUN_3E_rec.log

#Pass ID: 20260112_163137_FENGYUN 3E
#Satellite: FENGYUN 3E
#Configuration: FENGYUN 3E
#almurnet v.1.7.20240730
#Start time: 2026-01-12 16:31:37

#Version: 2.2.20231116
#Station: R2M6_AANII_01
#Location: 30.233357 lon 59.946436 lat
#TLE: 1 49008U 21062A   26011.97558190  .00000066  00000+0  51928-4 0  9996
#TLE: 2 49008  98.7491  17.1395 0001916 144.4283 215.7021 14.19885193234411

#Time	Az	El	Level	Level2	SNR	BER	BlckErr	Temp	State	Recorded	gain1	gain2
2026-01-12 16:31:37.52	224.70	6.98	-28.3	-29.8	5.5	7.44e-01	0	40	0	0	17	4263
2026-01-12 16:31:38.52	224.81	7.04	-29.2	-31.6	5.3	7.60e-01	0	40	104	0	18	4754
2026-01-12 16:31:39.53	224.93	7.09	-28.9	-30.9	9.8	1.21e-02	0	40	0	0	18	4489
2026-01-12 16:31:40.54	225.04	7.15	-29.0	-30.9	9.7	1.09e-02	0	40	0	7340032	18	4508
2026-01-12 16:31:41.54	225.15	7.21	-29.0	-31.0	9.7	1.39e-02	0	40	0	14680064	18	4526
2026-01-12 16:31:42.55	225.27	7.27	-28.6	-29.9	10.5	4.42e-03	0	40	0	22020096	18	4178
2026-01-12 16:31:43.55	225.38	7.32	-28.4	-29.4	10.8	3.60e-03	0	40	0	28311552	18	4037
2026-01-12 16:31:44.56	225.49	7.38	-28.0	-29.0	11.3	1.43e-03	0	40	0	36700160	17	4036
2026-01-12 16:31:45.57	225.61	7.44	-27.9	-29.2	11.5	8.26e-04	0	40	0	44040192	16	4179
2026-01-12 16:31:46.57	225.72	7.49	-27.9	-29.3	11.5	8.70e-04	0	40	0	50331648	16	4202
2026-01-12 16:31:47.58	225.84	7.55	-28.1	-29.8	11.2	1.30e-03	0	40	0	57671680	16	4348
2026-01-12 16:31:48.58	225.96	7.61	-28.1	-29.8	11.2	1.82e-03	0	40	0	65011712	16	4342
2026-01-12 16:31:49.60	226.08	7.67	-27.6	-28.4	12.1	4.27e-04	0	40	0	72351744	16	3959
2026-01-12 16:31:50.60	226.19	7.72	-26.9	-27.3	12.8	1.19e-04	0	40	0	79691776	15	3786
2026-01-12 16:31:51.61	226.31	7.78	-26.5	-26.9	13.4	3.20e-05	0	40	0	87031808	14	3772
2026-01-12 16:31:52.62	226.43	7.84	-26.3	-26.9	13.7	1.25e-05	0	40	0	94371840	13	3872
2026-01-12 16:31:53.63	226.55	7.89	-26.2	-26.8	13.7	5.70e-06	0	40	0	101711872	13	3845
2026-01-12 16:31:54.64	226.67	7.95	-26.3	-26.9	13.7	3.40e-06	0	40	0	109051904	13	3867
2026-01-12 16:31:55.65	226.79	8.01	-26.1	-26.5	13.9	3.40e-06	0	40	0	116391936	13	3775
2026-01-12 16:31:56.65	226.91	8.07	-26.2	-26.8	13.8	2.20e-06	0	40	0	123731968	13	3835
2026-01-12 16:31:57.66	227.03	8.12	-26.3	-27.0	13.7	6.80e-06	0	41	0	130023424	13	3893
2026-01-12 16:31:58.67	227.15	8.18	-26.2	-26.7	13.8	8.00e-06	0	40	0	138412032	13	3816
2026-01-12 16:31:59.68	227.27	8.24	-26.2	-26.8	13.8	8.00e-06	0	40	0	145752064	13	3836
2026-01-12 16:32:00.68	227.39	8.30	-26.2	-26.7	13.8	8.00e-06	0	41	0	152043520	13	3830
2026-01-12 16:32:01.69	227.51	8.35	-26.3	-27.0	13.7	9.10e-06	0	40	0	159383552	13	3896
2026-01-12 16:32:02.69	227.64	8.41	-26.1	-26.5	13.9	1.10e-06	0	40	0	166723584	13	3787
2026-01-12 16:32:03.70	227.76	8.47	-26.1	-26.6	13.9	5.70e-06	0	41	0	174063616	13	3784
2026-01-12 16:32:04.70	227.88	8.53	-26.2	-26.7	13.8	3.40e-06	0	41	0	181403648	13	3815
2026-01-12 16:32:05.71	228.01	8.58	-26.1	-26.4	14.0	2.20e-06	0	40	0	188743680	13	3754
2026-01-12 16:32:06.72	228.13	8.64	-26.0	-26.3	14.1	2.20e-06	0	41	0	196083712	13	3736
2026-01-12 16:32:07.72	228.26	8.70	-26.1	-26.5	13.9	3.40e-06	0	41	0	203423744	13	3783
2026-01-12 16:32:08.73	228.38	8.76	-26.2	-26.7	13.9	6.80e-06	0	41	0	210763776	13	3814
2026-01-12 16:32:09.73	228.51	8.81	-26.1	-26.6	13.9	3.40e-06	0	41	0	218103808	13	3800
2026-01-12 16:32:10.74	228.64	8.87	-26.1	-26.5	14.0	2.20e-06	0	41	0	225443840	13	3774
2026-01-12 16:32:11.74	228.76	8.93	-26.1	-26.4	14.0	4.50e-06	0	41	0	232783872	13	3747
2026-01-12 16:32:12.75	228.89	8.99	-26.1	-26.5	14.0	3.40e-06	0	41	0	239075328	13	3770
2026-01-12 16:32:13.75	229.02	9.04	-26.1	-26.5	14.1	2.20e-06	0	41	0	246415360	13	3756
2026-01-12 16:32:14.76	229.15	9.10	-26.0	-26.3	14.1	2.20e-06	0	41	0	254803968	13	3719
2026-01-12 16:32:15.77	229.28	9.16	-26.1	-26.6	14.0	1.10e-06	0	41	0	261095424	13	3785
2026-01-12 16:32:16.77	229.41	9.22	-25.9	-26.1	14.2	1.10e-06	0	41	0	268435456	13	3675
2026-01-12 16:32:17.78	229.54	9.28	-25.8	-26.2	14.5	2.20e-06	0	41	0	275775488	12	3792
2026-01-12 16:32:18.79	229.67	9.33	-25.9	-26.6	14.2	0.00e+00	0	41	0	283115520	12	3892
2026-01-12 16:32:19.79	229.80	9.39	-25.8	-26.2	14.5	0.00e+00	0	41	0	290455552	12	3799
2026-01-12 16:32:20.79	229.93	9.45	-25.7	-26.2	14.5	0.00e+00	0	41	0	297795584	12	3793
2026-01-12 16:32:21.80	230.06	9.51	-25.8	-26.3	14.4	0.00e+00	0	41	0	305135616	12	3827
2026-01-12 16:32:22.80	230.19	9.56	-25.9	-26.4	14.4	0.00e+00	0	41	0	312475648	12	3856
2026-01-12 16:32:23.81	230.33	9.62	-26.0	-26.7	14.2	0.00e+00	0	41	0	318767104	12	3915
2026-01-12 16:32:24.81	230.46	9.68	-26.0	-26.7	14.2	0.00e+00	0	41	0	327155712	12	3927
2026-01-12 16:32:25.82	230.59	9.74	-25.8	-26.3	14.4	4.50e-06	0	41	0	334495744	12	3823
2026-01-12 16:32:26.82	230.73	9.79	-26.0	-26.7	14.2	1.10e-06	0	41	0	340787200	12	3925
2026-01-12 16:32:27.83	230.86	9.85	-26.1	-26.9	14.1	1.10e-06	0	41	0	348127232	12	3976
2026-01-12 16:32:28.83	231.00	9.91	-25.9	-26.5	14.4	0.00e+00	0	41	0	355467264	12	3861
2026-01-12 16:32:29.84	231.13	9.97	-26.0	-26.7	14.3	2.20e-06	0	41	0	362807296	12	3909
2026-01-12 16:32:30.85	231.27	10.03	-25.9	-26.6	14.3	1.10e-06	0	41	0	370147328	12	3894
2026-01-12 16:32:31.85	231.41	10.08	-25.9	-26.6	14.3	1.10e-06	0	41	0	377487360	12	3885
2026-01-12 16:32:32.85	231.54	10.14	-25.9	-26.4	14.4	2.20e-06	0	41	0	384827392	12	3844
2026-01-12 16:32:33.86	231.68	10.20	-26.2	-27.3	13.9	2.20e-06	0	41	0	392167424	12	4064
2026-01-12 16:32:34.87	231.82	10.26	-26.0	-26.8	14.2	0.00e+00	0	41	0	399507456	12	3945
2026-01-12 16:32:35.89	231.96	10.31	-25.9	-26.6	14.3	3.40e-06	0	41	0	406847488	12	3896
2026-01-12 16:32:36.89	232.10	10.37	-26.1	-26.9	14.2	3.40e-06	0	41	0	414187520	12	3956
2026-01-12 16:32:37.90	232.24	10.43	-26.0	-26.8	14.2	1.10e-06	0	41	0	421527552	12	3945
2026-01-12 16:32:38.90	232.38	10.49	-26.1	-26.9	14.1	2.20e-06	0	41	0	427819008	12	3969
2026-01-12 16:32:39.91	232.52	10.54	-25.9	-26.6	14.3	1.10e-06	0	41	0	435159040	12	3895
2026-01-12 16:32:40.91	232.67	10.60	-25.9	-26.5	14.4	0.00e+00	0	41	0	443547648	12	3879
2026-01-12 16:32:41.91	232.81	10.66	-26.0	-26.7	14.3	2.20e-06	0	41	0	449839104	12	3902
2026-01-12 16:32:42.92	232.95	10.72	-26.0	-26.7	14.3	1.10e-06	0	42	0	457179136	12	3928
2026-01-12 16:32:43.93	233.09	10.77	-25.9	-26.5	14.4	0.00e+00	0	41	0	464519168	12	3866
2026-01-12 16:32:44.94	233.24	10.83	-25.8	-26.3	14.5	0.00e+00	0	41	0	471859200	12	3821
2026-01-12 16:32:45.94	233.38	10.89	-25.8	-26.4	14.5	2.20e-06	0	41	0	479199232	12	3827
2026-01-12 16:32:46.95	233.53	10.95	-26.0	-26.7	14.3	0.00e+00	0	41	0	486539264	12	3921
2026-01-12 16:32:47.95	233.67	11.00	-25.8	-26.3	14.5	1.10e-06	0	41	0	493879296	12	3818
2026-01-12 16:32:48.96	233.82	11.06	-26.0	-26.8	14.3	1.10e-06	0	41	0	501219328	12	3919
2026-01-12 16:32:49.96	233.97	11.12	-25.7	-26.1	14.7	2.20e-06	0	42	0	508559360	12	3764
2026-01-12 16:32:50.96	234.11	11.18	-25.6	-25.8	14.9	0.00e+00	0	41	0	515899392	12	3687
2026-01-12 16:32:51.97	234.26	11.23	-25.6	-25.9	14.8	0.00e+00	0	42	0	523239424	12	3719
2026-01-12 16:32:52.98	234.41	11.29	-25.7	-26.0	14.7	0.00e+00	0	42	0	530579456	12	3739
2026-01-12 16:32:53.98	234.56	11.35	-25.6	-26.0	14.8	0.00e+00	0	41	0	536870912	12	3734
2026-01-12 16:32:54.98	234.71	11.40	-25.5	-25.7	14.9	0.00e+00	0	41	0	544210944	12	3668
2026-01-12 16:32:55.99	234.86	11.46	-25.5	-26.1	15.1	0.00e+00	0	41	0	551550976	11	3867
2026-01-12 16:32:56.99	235.01	11.52	-25.5	-26.1	15.1	0.00e+00	0	42	0	558891008	11	3862
2026-01-12 16:32:57.99	235.16	11.57	-25.5	-26.1	15.0	0.00e+00	0	42	0	566231040	11	3861
2026-01-12 16:32:59.00	235.31	11.63	-25.3	-25.7	15.3	0.00e+00	0	41	0	573571072	11	3763
2026-01-12 16:33:00.01	235.46	11.69	-25.4	-26.0	15.1	0.00e+00	0	42	0	580911104	11	3826
2026-01-12 16:33:01.01	235.62	11.75	-25.3	-25.8	15.3	0.00e+00	0	41	0	588251136	11	3777
2026-01-12 16:33:02.02	235.77	11.80	-25.4	-25.8	15.2	0.00e+00	0	41	0	595591168	11	3791
2026-01-12 16:33:03.02	235.92	11.86	-25.3	-25.7	15.2	0.00e+00	0	42	0	602931200	11	3771
2026-01-12 16:33:04.02	236.08	11.92	-25.3	-25.6	15.4	0.00e+00	0	42	0	610271232	11	3729
2026-01-12 16:33:05.03	236.23	11.97	-25.3	-25.6	15.3	0.00e+00	0	41	0	616562688	11	3743
2026-01-12 16:33:06.04	236.39	12.03	-25.4	-25.8	15.2	0.00e+00	0	42	0	623902720	11	3789
2026-01-12 16:33:07.04	236.55	12.09	-25.3	-25.7	15.3	0.00e+00	0	42	0	631242752	11	3752
2026-01-12 16:33:08.05	236.70	12.14	-25.3	-25.7	15.3	0.00e+00	0	42	0	638582784	11	3758
2026-01-12 16:33:09.06	236.86	12.20	-25.5	-26.0	15.1	0.00e+00	0	42	0	645922816	11	3845
2026-01-12 16:33:10.07	237.02	12.26	-25.4	-25.8	15.3	0.00e+00	0	42	0	653262848	11	3785
2026-01-12 16:33:11.06	237.18	12.31	-25.2	-25.4	15.5	0.00e+00	0	41	0	660602880	11	3690
2026-01-12 16:33:12.07	237.34	12.37	-25.3	-25.6	15.4	0.00e+00	0	41	0	667942912	11	3733
2026-01-12 16:33:13.07	237.50	12.42	-25.2	-25.4	15.5	0.00e+00	0	42	0	675282944	11	3689
2026-01-12 16:33:14.08	237.66	12.48	-25.1	-25.3	15.5	0.00e+00	0	42	0	682622976	11	3677
2026-01-12 16:33:15.08	237.82	12.53	-25.2	-25.5	15.4	0.00e+00	0	42	0	689963008	11	3714
2026-01-12 16:33:16.09	237.98	12.59	-25.2	-25.5	15.5	0.00e+00	0	42	0	697303040	11	3706
2026-01-12 16:33:17.10	238.14	12.65	-25.3	-25.8	15.3	0.00e+00	0	42	0	703594496	11	3782
2026-01-12 16:33:18.11	238.31	12.70	-25.3	-25.6	15.4	0.00e+00	0	42	0	711983104	11	3739
2026-01-12 16:33:19.12	238.47	12.76	-25.1	-25.1	15.7	0.00e+00	0	42	0	719323136	11	3634
2026-01-12 16:33:20.12	238.63	12.81	-25.1	-25.1	15.7	0.00e+00	0	42	0	725614592	11	3628
2026-01-12 16:33:21.13	238.80	12.87	-25.0	-24.9	15.7	0.00e+00	0	42	0	732954624	11	3591
2026-01-12 16:33:22.14	238.97	12.93	-24.9	-25.2	15.9	0.00e+00	0	42	0	740294656	10	3752
2026-01-12 16:33:23.15	239.13	12.98	-24.9	-25.4	15.8	0.00e+00	0	42	0	747634688	10	3790
2026-01-12 16:33:24.15	239.30	13.04	-25.0	-25.5	15.7	0.00e+00	0	42	0	754974720	10	3822
2026-01-12 16:33:25.16	239.47	13.09	-25.1	-25.7	15.6	0.00e+00	0	42	0	762314752	10	3871
2026-01-12 16:33:26.17	239.63	13.15	-25.2	-26.0	15.4	0.00e+00	0	42	0	769654784	10	3945
2026-01-12 16:33:27.17	239.80	13.20	-25.0	-25.4	15.8	0.00e+00	0	42	0	776994816	10	3789
2026-01-12 16:33:28.18	239.97	13.26	-24.9	-25.3	15.9	0.00e+00	0	42	0	784334848	10	3772
2026-01-12 16:33:29.18	240.14	13.31	-24.9	-25.2	15.9	0.00e+00	0	42	0	791674880	10	3754
2026-01-12 16:33:30.19	240.31	13.37	-24.9	-25.3	15.9	0.00e+00	0	42	0	799014912	10	3760
2026-01-12 16:33:31.20	240.48	13.42	-24.9	-25.3	15.8	0.00e+00	0	42	0	805306368	10	3777
2026-01-12 16:33:32.21	240.65	13.47	-24.9	-25.2	15.9	0.00e+00	0	42	0	812646400	10	3740
2026-01-12 16:33:33.21	240.83	13.53	-24.9	-25.3	15.9	0.00e+00	0	42	0	821035008	10	3772
2026-01-12 16:33:34.22	241.00	13.58	-24.9	-25.3	15.9	0.00e+00	0	42	0	827326464	10	3771
2026-01-12 16:33:35.22	241.17	13.64	-24.9	-25.4	15.8	0.00e+00	0	42	0	834666496	10	3786
2026-01-12 16:33:36.23	241.35	13.69	-24.9	-25.4	15.8	0.00e+00	0	42	0	842006528	10	3784
2026-01-12 16:33:37.23	241.52	13.74	-25.0	-25.5	15.8	1.10e-06	0	42	0	849346560	10	3814
2026-01-12 16:33:38.24	241.69	13.80	-24.9	-25.3	15.9	0.00e+00	0	42	0	856686592	10	3780
2026-01-12 16:33:39.24	241.87	13.85	-25.0	-25.5	15.8	0.00e+00	0	42	0	864026624	10	3816
2026-01-12 16:33:40.25	242.05	13.91	-24.9	-25.3	15.9	0.00e+00	0	42	0	871366656	10	3765
2026-01-12 16:33:41.25	242.22	13.96	-24.9	-25.2	16.0	0.00e+00	0	42	0	878706688	10	3744
2026-01-12 16:33:42.25	242.40	14.01	-24.9	-25.3	15.9	0.00e+00	0	42	0	886046720	10	3774
2026-01-12 16:33:43.26	242.58	14.06	-25.0	-25.5	15.8	0.00e+00	0	42	0	892338176	10	3815
2026-01-12 16:33:44.26	242.76	14.12	-24.9	-25.2	16.0	0.00e+00	0	42	0	900726784	10	3743
2026-01-12 16:33:45.27	242.94	14.17	-24.9	-25.3	15.9	0.00e+00	0	42	0	908066816	10	3766
2026-01-12 16:33:46.28	243.12	14.22	-24.9	-25.4	15.9	0.00e+00	0	42	0	914358272	10	3790
2026-01-12 16:33:47.28	243.30	14.27	-24.9	-25.3	15.9	0.00e+00	0	42	0	921698304	10	3775
2026-01-12 16:33:48.29	243.48	14.33	-24.9	-25.3	15.9	0.00e+00	0	42	0	929038336	10	3773
2026-01-12 16:33:49.29	243.66	14.38	-25.0	-25.4	15.8	0.00e+00	0	42	0	936378368	10	3801
2026-01-12 16:33:50.30	243.84	14.43	-24.9	-25.2	16.0	0.00e+00	0	42	0	943718400	10	3745
2026-01-12 16:33:51.30	244.02	14.48	-24.8	-25.1	16.1	0.00e+00	0	42	0	951058432	10	3712
2026-01-12 16:33:52.30	244.21	14.53	-24.9	-25.2	16.0	0.00e+00	0	42	0	958398464	10	3740
2026-01-12 16:33:53.31	244.39	14.59	-24.9	-25.3	16.0	0.00e+00	0	42	0	965738496	10	3754
2026-01-12 16:33:54.31	244.58	14.64	-24.8	-25.2	16.0	0.00e+00	0	42	0	973078528	10	3737
2026-01-12 16:33:55.32	244.76	14.69	-24.9	-25.4	15.9	0.00e+00	0	42	0	980418560	10	3777
2026-01-12 16:33:56.33	244.95	14.74	-24.9	-25.3	16.0	0.00e+00	0	42	0	987758592	10	3760
2026-01-12 16:33:57.33	245.13	14.79	-24.9	-25.2	16.0	0.00e+00	0	42	0	995098624	10	3749
2026-01-12 16:33:58.34	245.32	14.84	-24.9	-25.4	15.9	0.00e+00	0	42	0	1001390080	10	3779
2026-01-12 16:33:59.35	245.51	14.89	-24.9	-25.3	16.0	0.00e+00	0	42	0	1008730112	10	3769
2026-01-12 16:34:00.36	245.70	14.94	-24.8	-25.1	16.0	0.00e+00	0	42	0	1016070144	10	3725
2026-01-12 16:34:01.36	245.89	14.99	-24.8	-25.0	16.1	0.00e+00	0	42	0	1023410176	10	3700
2026-01-12 16:34:02.37	246.08	15.04	-24.9	-25.2	16.0	0.00e+00	0	42	0	1030750208	10	3749
2026-01-12 16:34:03.38	246.27	15.09	-24.8	-25.1	16.1	0.00e+00	0	42	0	1038090240	10	3708
2026-01-12 16:34:04.38	246.46	15.14	-24.7	-24.9	16.2	0.00e+00	0	42	0	1045430272	10	3673
2026-01-12 16:34:05.39	246.65	15.19	-24.9	-25.3	16.0	0.00e+00	0	42	0	1052770304	10	3754
2026-01-12 16:34:06.40	246.85	15.24	-24.7	-24.9	16.2	0.00e+00	0	42	0	1060110336	10	3673
2026-01-12 16:34:07.41	247.04	15.29	-24.8	-25.0	16.1	0.00e+00	0	42	0	1067450368	10	3696
2026-01-12 16:34:08.41	247.23	15.34	-24.7	-25.0	16.2	0.00e+00	0	42	0	1074790400	10	3686
2026-01-12 16:34:09.42	247.43	15.39	-24.8	-25.0	16.2	0.00e+00	0	42	0	1082130432	10	3694
2026-01-12 16:34:10.43	247.62	15.43	-24.9	-25.2	16.0	0.00e+00	0	42	0	1089470464	10	3747
2026-01-12 16:34:11.43	247.82	15.48	-24.9	-25.3	16.0	0.00e+00	0	42	0	1096810496	10	3776
2026-01-12 16:34:12.44	248.02	15.53	-24.7	-24.8	16.3	0.00e+00	0	42	0	1103101952	10	3659
2026-01-12 16:34:13.44	248.21	15.58	-24.6	-24.7	16.3	0.00e+00	0	42	0	1110441984	10	3630
2026-01-12 16:34:14.45	248.41	15.62	-24.5	-24.4	16.5	0.00e+00	0	42	0	1117782016	10	3569
2026-01-12 16:34:15.46	248.61	15.67	-24.6	-24.6	16.4	0.00e+00	0	42	0	1125122048	10	3608
2026-01-12 16:34:16.46	248.80	15.72	-24.6	-24.7	16.4	0.00e+00	0	42	0	1132462080	10	3625
2026-01-12 16:34:17.46	249.00	15.77	-24.7	-24.8	16.3	0.00e+00	0	42	0	1139802112	10	3647
2026-01-12 16:34:18.47	249.20	15.81	-24.7	-24.7	16.3	0.00e+00	0	42	0	1147142144	10	3639
2026-01-12 16:34:19.48	249.40	15.86	-24.7	-24.8	16.3	0.00e+00	0	42	0	1154482176	10	3651
2026-01-12 16:34:20.48	249.60	15.90	-24.5	-24.4	16.5	0.00e+00	0	42	0	1161822208	10	3562
2026-01-12 16:34:21.49	249.81	15.95	-24.5	-24.3	16.6	0.00e+00	0	42	0	1169162240	10	3549
2026-01-12 16:34:22.50	250.01	16.00	-24.4	-24.2	16.6	0.00e+00	0	42	0	1176502272	10	3512
2026-01-12 16:34:23.50	250.21	16.04	-24.4	-24.7	16.6	0.00e+00	0	42	0	1183842304	9	3715
2026-01-12 16:34:24.51	250.41	16.09	-24.4	-24.7	16.6	0.00e+00	0	42	0	1191182336	9	3720
2026-01-12 16:34:25.51	250.62	16.13	-24.3	-24.6	16.7	0.00e+00	0	42	0	1198522368	9	3700
2026-01-12 16:34:26.52	250.82	16.17	-24.3	-24.6	16.7	0.00e+00	0	42	0	1205862400	9	3700
2026-01-12 16:34:27.51	251.02	16.22	-24.4	-24.7	16.6	0.00e+00	0	42	0	1212153856	9	3719
2026-01-12 16:34:28.52	251.23	16.26	-24.4	-24.7	16.6	0.00e+00	0	42	0	1219493888	9	3720
2026-01-12 16:34:29.53	251.44	16.31	-24.4	-24.7	16.6	1.10e-06	0	42	0	1226833920	9	3731
2026-01-12 16:34:30.53	251.64	16.35	-24.5	-24.9	16.5	0.00e+00	0	42	0	1234173952	9	3782
2026-01-12 16:34:31.54	251.85	16.39	-24.5	-24.9	16.5	0.00e+00	0	42	0	1241513984	9	3766
2026-01-12 16:34:32.55	252.06	16.44	-24.3	-24.5	16.7	0.00e+00	0	42	0	1248854016	9	3691
2026-01-12 16:34:33.55	252.27	16.48	-24.4	-24.7	16.6	0.00e+00	0	42	0	1256194048	9	3717
2026-01-12 16:34:34.56	252.48	16.52	-24.4	-24.8	16.6	0.00e+00	0	42	0	1263534080	9	3741
2026-01-12 16:34:35.57	252.69	16.56	-24.4	-24.6	16.7	0.00e+00	0	42	0	1270874112	9	3708
2026-01-12 16:34:36.58	252.90	16.60	-24.4	-24.8	16.5	0.00e+00	0	42	0	1278214144	9	3750
2026-01-12 16:34:37.58	253.11	16.65	-24.3	-24.6	16.7	0.00e+00	0	42	0	1285554176	9	3697
2026-01-12 16:34:38.59	253.32	16.69	-24.3	-24.6	16.7	1.10e-06	0	42	0	1291845632	9	3695
2026-01-12 16:34:39.60	253.53	16.73	-24.5	-24.9	16.5	0.00e+00	0	42	0	1299185664	9	3762
2026-01-12 16:34:40.61	253.75	16.77	-24.4	-24.8	16.6	0.00e+00	0	42	0	1306525696	9	3744
2026-01-12 16:34:41.61	253.96	16.81	-24.4	-24.8	16.6	3.40e-06	0	42	0	1313865728	9	3739
2026-01-12 16:34:42.62	254.17	16.85	-24.5	-25.0	16.5	0.00e+00	0	42	0	1321205760	9	3793
2026-01-12 16:34:43.63	254.39	16.89	-24.4	-24.7	16.6	0.00e+00	0	42	0	1328545792	9	3732
2026-01-12 16:34:44.64	254.60	16.93	-24.3	-24.5	16.7	5.70e-06	0	42	0	1335885824	9	3688
2026-01-12 16:34:45.64	254.82	16.97	-24.3	-24.6	16.7	0.00e+00	0	42	0	1343225856	9	3698
2026-01-12 16:34:46.64	255.03	17.00	-24.3	-24.5	16.7	0.00e+00	0	42	0	1350565888	9	3687
2026-01-12 16:34:47.65	255.25	17.04	-24.4	-24.7	16.7	2.20e-06	0	42	0	1357905920	9	3718
2026-01-12 16:34:48.66	255.47	17.08	-24.4	-24.7	16.6	0.00e+00	0	42	0	1365245952	9	3724
2026-01-12 16:34:49.66	255.68	17.12	-24.5	-25.0	16.5	0.00e+00	0	42	0	1372585984	9	3794
2026-01-12 16:34:50.66	255.90	17.15	-24.4	-24.8	16.6	0.00e+00	0	42	0	1379926016	9	3749
2026-01-12 16:34:51.68	256.12	17.19	-24.3	-24.5	16.7	0.00e+00	0	42	0	1387266048	9	3683
2026-01-12 16:34:52.68	256.34	17.23	-24.3	-24.4	16.8	0.00e+00	0	42	0	1394606080	9	3655
2026-01-12 16:34:53.69	256.56	17.26	-24.2	-24.3	16.8	0.00e+00	0	42	0	1400897536	9	3643
2026-01-12 16:34:54.70	256.78	17.30	-24.4	-24.6	16.7	0.00e+00	0	42	0	1408237568	9	3707
2026-01-12 16:34:55.70	257.00	17.34	-24.4	-24.7	16.7	0.00e+00	0	42	0	1415577600	9	3722
2026-01-12 16:34:56.71	257.22	17.37	-24.4	-24.8	16.6	0.00e+00	0	42	0	1422917632	9	3737
2026-01-12 16:34:57.71	257.44	17.41	-24.6	-25.0	16.5	0.00e+00	0	42	0	1430257664	9	3796
2026-01-12 16:34:58.72	257.66	17.44	-24.5	-24.9	16.5	0.00e+00	0	42	0	1437597696	9	3768
2026-01-12 16:34:59.73	257.89	17.47	-24.5	-24.8	16.6	0.00e+00	0	42	0	1444937728	9	3756
2026-01-12 16:35:00.73	258.11	17.51	-24.5	-25.0	16.5	0.00e+00	0	42	0	1452277760	9	3796
2026-01-12 16:35:01.74	258.33	17.54	-24.5	-24.9	16.6	0.00e+00	0	42	0	1459617792	9	3775
2026-01-12 16:35:02.74	258.56	17.57	-24.6	-25.2	16.4	0.00e+00	0	42	0	1466957824	9	3830
2026-01-12 16:35:03.75	258.78	17.61	-24.6	-25.0	16.5	0.00e+00	0	42	0	1474297856	9	3795
2026-01-12 16:35:04.75	259.00	17.64	-24.3	-24.4	16.8	0.00e+00	0	42	0	1481637888	9	3648
2026-01-12 16:35:05.76	259.23	17.67	-24.1	-24.0	17.0	0.00e+00	0	42	0	1487929344	9	3571
2026-01-12 16:35:06.76	259.45	17.70	-24.1	-24.1	17.0	0.00e+00	0	42	0	1496317952	9	3583
2026-01-12 16:35:07.76	259.68	17.73	-24.1	-24.0	17.0	0.00e+00	0	42	0	1503657984	9	3575
2026-01-12 16:35:08.77	259.91	17.76	-24.1	-24.0	17.0	0.00e+00	0	42	0	1509949440	9	3569
2026-01-12 16:35:09.78	260.13	17.79	-24.1	-24.0	17.0	0.00e+00	0	42	0	1517289472	9	3576
2026-01-12 16:35:10.79	260.36	17.82	-24.2	-24.2	16.9	0.00e+00	0	42	0	1524629504	9	3622
2026-01-12 16:35:11.79	260.59	17.85	-24.2	-24.2	17.0	1.10e-06	0	42	0	1531969536	9	3609
2026-01-12 16:35:12.80	260.82	17.88	-24.1	-24.1	17.0	0.00e+00	0	42	0	1539309568	9	3600
2026-01-12 16:35:13.80	261.05	17.91	-24.4	-24.6	16.7	0.00e+00	0	42	0	1546649600	9	3712
2026-01-12 16:35:14.81	261.28	17.94	-24.3	-24.4	16.8	0.00e+00	0	42	0	1553989632	9	3649
2026-01-12 16:35:15.82	261.51	17.97	-24.0	-23.9	17.1	0.00e+00	0	42	0	1561329664	9	3538
2026-01-12 16:35:16.82	261.73	17.99	-24.0	-23.8	17.2	0.00e+00	0	42	0	1568669696	9	3523
2026-01-12 16:35:17.83	261.97	18.02	-24.1	-24.0	17.1	0.00e+00	0	42	0	1576009728	9	3569
2026-01-12 16:35:18.84	262.20	18.05	-24.0	-23.7	17.2	0.00e+00	0	42	0	1583349760	9	3511
2026-01-12 16:35:19.85	262.43	18.07	-24.0	-23.9	17.1	0.00e+00	0	42	0	1589641216	9	3538
2026-01-12 16:35:20.85	262.66	18.10	-24.0	-23.9	17.1	0.00e+00	0	42	0	1596981248	9	3560
2026-01-12 16:35:21.86	262.89	18.12	-24.1	-24.0	17.0	0.00e+00	0	42	0	1605369856	9	3580
2026-01-12 16:35:22.87	263.13	18.15	-24.2	-24.2	17.0	0.00e+00	0	42	0	1611661312	9	3604
2026-01-12 16:35:23.87	263.36	18.17	-24.2	-24.4	16.9	0.00e+00	0	42	0	1619001344	9	3652
2026-01-12 16:35:24.88	263.59	18.20	-24.1	-24.2	17.0	0.00e+00	0	42	0	1626341376	9	3607
2026-01-12 16:35:25.89	263.83	18.22	-24.1	-24.1	17.0	0.00e+00	0	42	0	1633681408	9	3581
2026-01-12 16:35:26.90	264.06	18.24	-24.2	-24.3	16.9	0.00e+00	0	42	0	1641021440	9	3634
2026-01-12 16:35:27.90	264.29	18.27	-24.2	-24.2	16.9	0.00e+00	0	42	0	1648361472	9	3612
2026-01-12 16:35:28.91	264.53	18.29	-24.2	-24.2	16.9	0.00e+00	0	42	0	1655701504	9	3623
2026-01-12 16:35:29.92	264.76	18.31	-24.3	-24.4	16.8	0.00e+00	0	42	0	1663041536	9	3666
2026-01-12 16:35:30.92	265.00	18.33	-24.4	-24.7	16.7	0.00e+00	0	42	0	1670381568	9	3730
2026-01-12 16:35:31.93	265.23	18.35	-24.5	-24.9	16.6	4.50e-06	0	42	0	1677721600	9	3773
2026-01-12 16:35:32.94	265.47	18.37	-24.5	-24.9	16.6	0.00e+00	0	42	0	1685061632	9	3770
2026-01-12 16:35:33.94	265.70	18.39	-24.5	-25.0	16.5	0.00e+00	0	42	0	1692401664	9	3786
2026-01-12 16:35:34.95	265.94	18.41	-24.5	-25.0	16.5	1.10e-06	0	42	0	1698693120	9	3800
2026-01-12 16:35:35.95	266.18	18.43	-24.4	-24.7	16.7	0.00e+00	0	42	0	1706033152	9	3733
2026-01-12 16:35:36.95	266.41	18.45	-24.4	-24.6	16.7	0.00e+00	0	42	0	1713373184	9	3713
2026-01-12 16:35:37.96	266.65	18.47	-24.3	-24.5	16.8	4.50e-06	0	42	0	1720713216	9	3672
2026-01-12 16:35:38.96	266.89	18.49	-24.5	-24.9	16.6	0.00e+00	0	42	0	1728053248	9	3771
2026-01-12 16:35:39.97	267.12	18.50	-24.3	-24.4	16.8	0.00e+00	0	42	0	1735393280	9	3667
2026-01-12 16:35:40.97	267.36	18.52	-24.3	-24.4	16.8	3.40e-06	0	42	0	1742733312	9	3666
2026-01-12 16:35:41.98	267.60	18.54	-24.4	-24.6	16.7	0.00e+00	0	42	0	1750073344	9	3694
2026-01-12 16:35:42.99	267.84	18.55	-24.3	-24.4	16.8	0.00e+00	0	42	0	1757413376	9	3661
2026-01-12 16:35:44.00	268.08	18.57	-24.4	-24.6	16.7	1.10e-06	0	42	0	1764753408	9	3707
2026-01-12 16:35:45.01	268.32	18.58	-24.4	-24.7	16.7	0.00e+00	0	42	0	1772093440	9	3729
2026-01-12 16:35:46.01	268.56	18.60	-24.6	-25.0	16.5	0.00e+00	0	42	0	1779433472	9	3804
2026-01-12 16:35:47.02	268.80	18.61	-24.4	-24.6	16.7	0.00e+00	0	42	0	1786773504	9	3710
2026-01-12 16:35:48.02	269.03	18.62	-24.3	-24.5	16.8	0.00e+00	0	42	0	1794113536	9	3677
2026-01-12 16:35:49.03	269.27	18.64	-24.1	-24.1	17.0	0.00e+00	0	42	0	1800404992	9	3587
2026-01-12 16:35:50.04	269.52	18.65	-24.2	-24.2	17.0	0.00e+00	0	42	0	1807745024	9	3607
2026-01-12 16:35:51.05	269.76	18.66	-24.1	-24.0	17.1	0.00e+00	0	42	0	1815085056	9	3565
2026-01-12 16:35:52.06	270.00	18.67	-24.3	-24.4	16.8	0.00e+00	0	42	0	1822425088	9	3662
2026-01-12 16:35:53.06	270.24	18.68	-24.2	-24.2	17.0	0.00e+00	0	42	0	1829765120	9	3605
2026-01-12 16:35:54.07	270.48	18.70	-24.3	-24.6	16.7	0.00e+00	0	42	0	1837105152	9	3693
2026-01-12 16:35:55.08	270.72	18.71	-24.1	-24.0	17.1	0.00e+00	0	42	0	1844445184	9	3565
2026-01-12 16:35:56.08	270.96	18.71	-24.0	-23.8	17.1	0.00e+00	0	42	0	1851785216	9	3532
2026-01-12 16:35:57.08	271.20	18.72	-24.0	-23.9	17.1	0.00e+00	0	42	0	1859125248	9	3549
2026-01-12 16:35:58.09	271.44	18.73	-24.0	-23.8	17.2	0.00e+00	0	42	0	1866465280	9	3523
2026-01-12 16:35:59.10	271.68	18.74	-24.0	-23.7	17.2	0.00e+00	0	42	0	1873805312	9	3505
2026-01-12 16:36:00.11	271.93	18.75	-24.0	-23.9	17.1	0.00e+00	0	42	0	1881145344	9	3536
2026-01-12 16:36:01.11	272.17	18.75	-24.0	-23.9	17.1	0.00e+00	0	42	0	1888485376	9	3542
2026-01-12 16:36:02.11	272.41	18.76	-24.1	-24.0	17.0	0.00e+00	0	42	0	1895825408	9	3573
2026-01-12 16:36:03.12	272.65	18.77	-24.1	-24.0	17.0	0.00e+00	0	42	0	1903165440	9	3574
2026-01-12 16:36:04.12	272.89	18.77	-24.2	-24.2	16.9	0.00e+00	0	42	0	1909456896	9	3614
2026-01-12 16:36:05.13	273.13	18.78	-24.0	-23.9	17.1	0.00e+00	0	42	0	1916796928	9	3551
2026-01-12 16:36:06.13	273.37	18.78	-24.0	-23.9	17.1	0.00e+00	0	42	0	1924136960	9	3543
2026-01-12 16:36:07.14	273.61	18.79	-24.1	-24.0	17.1	0.00e+00	0	42	0	1931476992	9	3568
2026-01-12 16:36:08.14	273.85	18.79	-24.0	-23.8	17.1	0.00e+00	0	42	0	1938817024	9	3532
2026-01-12 16:36:09.15	274.10	18.79	-24.0	-23.9	17.1	0.00e+00	0	42	0	1946157056	9	3544
2026-01-12 16:36:10.16	274.34	18.80	-24.0	-23.8	17.2	0.00e+00	0	42	0	1953497088	9	3522
2026-01-12 16:36:11.17	274.58	18.80	-24.1	-24.1	17.0	0.00e+00	0	42	0	1960837120	9	3585
2026-01-12 16:36:12.17	274.82	18.80	-24.0	-23.8	17.1	0.00e+00	0	42	0	1968177152	9	3534
2026-01-12 16:36:13.18	275.07	18.80	-24.0	-23.9	17.1	0.00e+00	0	42	0	1975517184	9	3553
2026-01-12 16:36:14.19	275.31	18.80	-24.0	-23.8	17.2	0.00e+00	0	42	0	1982857216	9	3528
2026-01-12 16:36:15.19	275.55	18.80	-24.0	-23.8	17.2	0.00e+00	0	42	0	1990197248	9	3525
2026-01-12 16:36:16.19	275.79	18.80	-24.0	-23.9	17.1	0.00e+00	0	42	0	1996488704	9	3539
2026-01-12 16:36:17.20	276.04	18.80	-23.8	-24.0	17.3	0.00e+00	0	42	0	2003828736	8	3660
2026-01-12 16:36:18.20	276.28	18.80	-23.8	-24.0	17.3	0.00e+00	0	42	0	2011168768	8	3653
2026-01-12 16:36:19.21	276.52	18.80	-23.8	-23.8	17.4	0.00e+00	0	42	0	2018508800	8	3630
2026-01-12 16:36:20.21	276.76	18.80	-23.7	-23.7	17.4	0.00e+00	0	42	0	2025848832	8	3585
2026-01-12 16:36:21.22	277.00	18.79	-23.9	-24.1	17.2	0.00e+00	0	42	0	2033188864	8	3683
2026-01-12 16:36:22.23	277.25	18.79	-23.9	-24.0	17.3	0.00e+00	0	42	0	2040528896	8	3672
2026-01-12 16:36:23.23	277.49	18.79	-24.0	-24.2	17.2	0.00e+00	0	42	0	2047868928	8	3720
2026-01-12 16:36:24.23	277.73	18.78	-24.2	-24.7	16.9	0.00e+00	0	42	0	2055208960	8	3832
2026-01-12 16:36:25.24	277.97	18.78	-24.1	-24.5	17.0	0.00e+00	0	42	0	2062548992	8	3784
2026-01-12 16:36:26.24	278.21	18.77	-24.1	-24.5	17.0	0.00e+00	0	42	0	2069889024	8	3781
2026-01-12 16:36:27.24	278.45	18.76	-24.3	-24.9	16.8	0.00e+00	0	42	0	2076180480	8	3879
2026-01-12 16:36:28.24	278.69	18.76	-24.3	-24.9	16.8	0.00e+00	0	42	0	2083520512	8	3876
2026-01-12 16:36:29.25	278.93	18.75	-24.5	-25.3	16.6	0.00e+00	0	42	0	2090860544	8	3980
2026-01-12 16:36:30.26	279.17	18.74	-24.4	-25.3	16.7	0.00e+00	0	42	0	2098200576	8	3965
2026-01-12 16:36:31.27	279.42	18.74	-24.5	-25.4	16.5	0.00e+00	0	42	0	2105540608	8	4005
2026-01-12 16:36:32.27	279.65	18.73	-24.4	-25.2	16.7	0.00e+00	0	42	0	2112880640	8	3935
2026-01-12 16:36:33.28	279.90	18.72	-24.3	-25.0	16.8	0.00e+00	0	42	0	2120220672	8	3896
2026-01-12 16:36:34.29	280.14	18.71	-24.3	-25.0	16.8	0.00e+00	0	42	0	2127560704	8	3902
2026-01-12 16:36:35.29	280.38	18.70	-24.3	-25.0	16.8	0.00e+00	0	42	0	2134900736	8	3898
2026-01-12 16:36:36.30	280.62	18.69	-24.2	-24.8	16.9	0.00e+00	0	42	0	2142240768	8	3853
2026-01-12 16:36:37.31	280.86	18.68	-24.4	-25.1	16.7	0.00e+00	0	42	0	2149580800	8	3933
2026-01-12 16:36:38.31	281.10	18.67	-24.1	-24.5	17.1	0.00e+00	0	42	0	2156920832	8	3781
2026-01-12 16:36:39.32	281.34	18.66	-24.0	-24.4	17.1	0.00e+00	0	42	0	2164260864	8	3767
2026-01-12 16:36:40.32	281.58	18.64	-24.1	-24.5	17.0	0.00e+00	0	42	0	2171600896	8	3785
2026-01-12 16:36:41.33	281.82	18.63	-24.1	-24.6	17.0	0.00e+00	0	42	0	2178940928	8	3799
2026-01-12 16:36:42.33	282.06	18.62	-24.2	-24.8	16.9	0.00e+00	0	42	0	2185232384	8	3845
2026-01-12 16:36:43.34	282.30	18.61	-24.2	-24.8	16.9	0.00e+00	0	42	0	2192572416	8	3849
2026-01-12 16:36:44.35	282.54	18.59	-24.3	-24.9	16.8	0.00e+00	0	42	0	2199912448	8	3877
2026-01-12 16:36:45.36	282.78	18.58	-24.1	-24.6	17.0	0.00e+00	0	42	0	2207252480	8	3815
2026-01-12 16:36:46.36	283.01	18.56	-24.1	-24.5	17.0	0.00e+00	0	42	0	2214592512	8	3791
2026-01-12 16:36:47.37	283.25	18.55	-24.2	-24.7	16.9	0.00e+00	0	42	0	2221932544	8	3831
2026-01-12 16:36:48.37	283.49	18.53	-24.2	-24.7	16.9	0.00e+00	0	42	0	2229272576	8	3829
2026-01-12 16:36:49.38	283.73	18.51	-24.1	-24.5	17.1	0.00e+00	0	42	0	2236612608	8	3779
2026-01-12 16:36:50.39	283.96	18.50	-24.2	-24.7	16.9	0.00e+00	0	42	0	2243952640	8	3830
2026-01-12 16:36:51.39	284.20	18.48	-24.3	-24.9	16.8	0.00e+00	0	42	0	2251292672	8	3879
2026-01-12 16:36:52.40	284.44	18.46	-24.1	-24.5	17.1	0.00e+00	0	42	0	2258632704	8	3777
2026-01-12 16:36:53.40	284.67	18.44	-24.0	-24.4	17.1	0.00e+00	0	42	0	2264924160	8	3758
2026-01-12 16:36:54.40	284.91	18.42	-24.1	-24.5	17.1	0.00e+00	0	42	0	2272264192	8	3783
2026-01-12 16:36:55.41	285.14	18.41	-24.1	-24.5	17.1	0.00e+00	0	42	0	2280652800	8	3768
2026-01-12 16:36:56.42	285.38	18.39	-24.0	-24.4	17.1	0.00e+00	0	42	0	2286944256	8	3761
2026-01-12 16:36:57.43	285.62	18.37	-24.1	-24.5	17.0	0.00e+00	0	42	0	2294284288	8	3780
2026-01-12 16:36:58.43	285.85	18.34	-24.2	-24.8	16.9	0.00e+00	0	42	0	2301624320	8	3852
2026-01-12 16:36:59.44	286.09	18.32	-24.3	-24.9	16.8	0.00e+00	0	42	0	2308964352	8	3867
2026-01-12 16:37:00.45	286.32	18.30	-24.4	-25.1	16.7	0.00e+00	0	42	0	2316304384	8	3926
2026-01-12 16:37:01.45	286.56	18.28	-24.3	-25.0	16.8	0.00e+00	0	42	0	2323644416	8	3903
2026-01-12 16:37:02.46	286.79	18.26	-24.6	-25.6	16.5	0.00e+00	0	42	0	2330984448	8	4055
2026-01-12 16:37:03.47	287.02	18.24	-24.9	-25.7	16.2	0.00e+00	0	42	0	2338324480	9	3954
2026-01-12 16:37:04.47	287.26	18.21	-24.8	-25.6	16.2	0.00e+00	0	42	0	2345664512	9	3931
2026-01-12 16:37:05.48	287.49	18.19	-24.4	-24.7	16.7	0.00e+00	0	42	0	2353004544	9	3733
2026-01-12 16:37:06.49	287.72	18.16	-24.2	-24.2	16.9	0.00e+00	0	42	0	2360344576	9	3619
2026-01-12 16:37:07.50	287.96	18.14	-24.1	-24.0	17.0	0.00e+00	0	43	0	2367684608	9	3563
2026-01-12 16:37:08.51	288.19	18.11	-24.2	-24.2	16.9	0.00e+00	0	42	0	2373976064	9	3616
2026-01-12 16:37:09.51	288.42	18.09	-24.2	-24.3	16.9	0.00e+00	0	42	0	2382364672	9	3629
2026-01-12 16:37:10.52	288.65	18.06	-24.3	-24.5	16.8	0.00e+00	0	42	0	2389704704	9	3676
2026-01-12 16:37:11.52	288.88	18.04	-24.4	-24.6	16.7	0.00e+00	0	42	0	2395996160	9	3701
2026-01-12 16:37:12.53	289.11	18.01	-24.3	-24.4	16.8	0.00e+00	0	42	0	2403336192	9	3653
2026-01-12 16:37:13.52	289.34	17.98	-24.3	-24.4	16.8	0.00e+00	0	42	0	2410676224	9	3659
2026-01-12 16:37:14.53	289.57	17.96	-24.3	-24.5	16.8	0.00e+00	0	42	0	2418016256	9	3667
2026-01-12 16:37:15.54	289.80	17.93	-24.3	-24.5	16.8	0.00e+00	0	42	0	2425356288	9	3676
2026-01-12 16:37:16.55	290.02	17.90	-24.2	-24.2	16.9	0.00e+00	0	42	0	2432696320	9	3616
2026-01-12 16:37:17.55	290.25	17.87	-24.3	-24.4	16.8	0.00e+00	0	42	0	2440036352	9	3666
2026-01-12 16:37:18.56	290.48	17.84	-24.4	-24.7	16.6	0.00e+00	0	42	0	2447376384	9	3737
2026-01-12 16:37:19.56	290.71	17.81	-24.4	-24.6	16.6	0.00e+00	0	42	0	2454716416	9	3711
2026-01-12 16:37:20.57	290.93	17.78	-24.4	-24.7	16.7	0.00e+00	0	42	0	2462056448	9	3715
2026-01-12 16:37:21.57	291.16	17.75	-24.3	-24.5	16.8	0.00e+00	0	42	0	2469396480	9	3674
2026-01-12 16:37:22.58	291.38	17.72	-24.3	-24.4	16.8	0.00e+00	0	42	0	2476736512	9	3657
2026-01-12 16:37:23.59	291.61	17.69	-24.4	-24.7	16.6	0.00e+00	0	42	0	2483027968	9	3733
2026-01-12 16:37:24.60	291.84	17.66	-24.4	-24.7	16.6	0.00e+00	0	42	0	2490368000	9	3725
2026-01-12 16:37:25.60	292.06	17.63	-24.3	-24.5	16.8	0.00e+00	0	42	0	2497708032	9	3678
2026-01-12 16:37:26.61	292.28	17.60	-24.3	-24.6	16.7	0.00e+00	0	42	0	2505048064	9	3695
2026-01-12 16:37:27.62	292.51	17.56	-24.3	-24.6	16.7	0.00e+00	0	42	0	2512388096	9	3698
2026-01-12 16:37:28.63	292.73	17.53	-24.4	-24.8	16.6	1.10e-06	0	42	0	2519728128	9	3742
2026-01-12 16:37:29.63	292.95	17.50	-24.5	-24.9	16.5	0.00e+00	0	42	0	2527068160	9	3773
2026-01-12 16:37:30.64	293.18	17.46	-24.6	-25.0	16.4	0.00e+00	0	42	0	2534408192	9	3805
2026-01-12 16:37:31.65	293.40	17.43	-24.5	-25.0	16.5	0.00e+00	0	42	0	2541748224	9	3793
2026-01-12 16:37:32.65	293.62	17.39	-24.4	-24.8	16.6	0.00e+00	0	42	0	2549088256	9	3740
2026-01-12 16:37:33.65	293.84	17.36	-24.5	-24.8	16.6	0.00e+00	0	42	0	2556428288	9	3750
2026-01-12 16:37:34.65	294.06	17.33	-24.4	-24.8	16.5	0.00e+00	0	42	0	2562719744	9	3738
2026-01-12 16:37:35.66	294.28	17.29	-24.4	-24.6	16.7	0.00e+00	0	42	0	2571108352	9	3709
2026-01-12 16:37:36.67	294.50	17.25	-24.4	-24.8	16.6	0.00e+00	0	42	0	2578448384	9	3737
2026-01-12 16:37:37.68	294.72	17.22	-24.4	-24.7	16.6	0.00e+00	0	42	0	2584739840	9	3727
2026-01-12 16:37:38.69	294.94	17.18	-24.4	-24.8	16.6	0.00e+00	0	42	0	2592079872	9	3745
2026-01-12 16:37:39.69	295.15	17.14	-24.4	-24.7	16.7	0.00e+00	0	42	0	2599419904	9	3717
2026-01-12 16:37:40.69	295.37	17.11	-24.3	-24.5	16.8	0.00e+00	0	42	0	2606759936	9	3670
2026-01-12 16:37:41.70	295.58	17.07	-24.4	-24.6	16.7	0.00e+00	0	42	0	2614099968	9	3702
2026-01-12 16:37:42.70	295.80	17.03	-24.3	-24.5	16.7	0.00e+00	0	42	0	2621440000	9	3687
2026-01-12 16:37:43.71	296.02	16.99	-24.3	-24.5	16.7	0.00e+00	0	42	0	2628780032	9	3691
2026-01-12 16:37:44.71	296.23	16.96	-24.3	-24.5	16.7	0.00e+00	0	42	0	2636120064	9	3677
2026-01-12 16:37:45.72	296.44	16.92	-24.4	-24.8	16.6	0.00e+00	0	42	0	2643460096	9	3754
2026-01-12 16:37:46.73	296.66	16.88	-24.5	-24.8	16.6	0.00e+00	0	42	0	2650800128	9	3760
2026-01-12 16:37:47.73	296.87	16.84	-24.4	-24.7	16.6	1.10e-06	0	42	0	2658140160	9	3734
2026-01-12 16:37:48.74	297.08	16.80	-24.6	-25.0	16.4	1.10e-06	0	42	0	2665480192	9	3803
2026-01-12 16:37:49.75	297.30	16.76	-24.4	-24.8	16.6	0.00e+00	0	42	0	2671771648	9	3738
2026-01-12 16:37:50.75	297.51	16.72	-24.3	-24.4	16.8	0.00e+00	0	42	0	2679111680	9	3665
2026-01-12 16:37:51.75	297.72	16.68	-24.4	-24.6	16.7	0.00e+00	0	42	0	2686451712	9	3699
2026-01-12 16:37:52.76	297.93	16.64	-24.3	-24.5	16.8	0.00e+00	0	42	0	2693791744	9	3670
2026-01-12 16:37:53.77	298.14	16.60	-24.5	-24.8	16.6	0.00e+00	0	42	0	2701131776	9	3750
2026-01-12 16:37:54.77	298.35	16.55	-24.4	-24.7	16.6	0.00e+00	0	42	0	2708471808	9	3727
2026-01-12 16:37:55.79	298.56	16.51	-24.4	-24.7	16.6	0.00e+00	0	43	0	2715811840	9	3720
2026-01-12 16:37:56.79	298.77	16.47	-24.5	-25.0	16.4	0.00e+00	0	43	0	2723151872	9	3792
2026-01-12 16:37:57.79	298.97	16.43	-24.5	-24.9	16.5	0.00e+00	0	42	0	2730491904	9	3772
2026-01-12 16:37:58.80	299.18	16.38	-24.6	-25.2	16.4	0.00e+00	0	42	0	2737831936	9	3837
2026-01-12 16:37:59.80	299.38	16.34	-24.6	-25.2	16.3	0.00e+00	0	42	0	2745171968	9	3839
2026-01-12 16:38:00.80	299.59	16.30	-24.7	-25.3	16.3	0.00e+00	0	42	0	2751463424	9	3860
2026-01-12 16:38:01.81	299.79	16.26	-24.7	-25.4	16.2	0.00e+00	0	42	0	2759852032	9	3881
2026-01-12 16:38:02.82	300.00	16.21	-24.8	-25.5	16.2	0.00e+00	0	42	0	2767192064	9	3903
2026-01-12 16:38:03.83	300.21	16.17	-24.8	-25.5	16.2	0.00e+00	0	42	0	2773483520	9	3913
2026-01-12 16:38:04.83	300.41	16.12	-24.9	-25.7	16.0	0.00e+00	0	42	0	2780823552	9	3964
2026-01-12 16:38:05.84	300.61	16.08	-24.8	-25.6	16.1	0.00e+00	0	42	0	2788163584	9	3940
2026-01-12 16:38:06.85	300.81	16.03	-24.9	-25.7	16.0	0.00e+00	0	42	0	2795503616	9	3970
2026-01-12 16:38:07.85	301.01	15.99	-24.8	-25.5	16.2	0.00e+00	0	42	0	2802843648	9	3911
2026-01-12 16:38:08.86	301.22	15.94	-24.7	-25.4	16.2	0.00e+00	0	42	0	2810183680	9	3882
2026-01-12 16:38:09.87	301.42	15.90	-24.8	-25.6	16.1	0.00e+00	0	42	0	2817523712	9	3940
2026-01-12 16:38:10.87	301.62	15.85	-24.7	-25.4	16.2	0.00e+00	0	42	0	2824863744	9	3878
2026-01-12 16:38:11.88	301.82	15.81	-24.6	-25.2	16.3	0.00e+00	0	42	0	2832203776	9	3835
2026-01-12 16:38:12.88	302.01	15.76	-24.7	-25.3	16.3	0.00e+00	0	42	0	2839543808	9	3857
2026-01-12 16:38:13.89	302.21	15.71	-24.7	-25.4	16.2	0.00e+00	0	42	0	2846883840	9	3879
2026-01-12 16:38:14.90	302.41	15.67	-24.7	-25.4	16.2	0.00e+00	0	42	0	2854223872	9	3887
2026-01-12 16:38:15.91	302.61	15.62	-24.7	-25.4	16.2	0.00e+00	0	42	0	2860515328	9	3890
2026-01-12 16:38:16.91	302.80	15.57	-24.8	-25.6	16.1	0.00e+00	0	42	0	2868903936	9	3929
2026-01-12 16:38:17.92	303.00	15.53	-24.8	-25.5	16.1	0.00e+00	0	42	0	2876243968	9	3920
2026-01-12 16:38:18.93	303.20	15.48	-24.8	-25.6	16.1	0.00e+00	0	42	0	2882535424	9	3942
2026-01-12 16:38:19.93	303.39	15.43	-24.8	-25.6	16.1	0.00e+00	0	42	0	2889875456	9	3929
2026-01-12 16:38:20.94	303.58	15.38	-24.8	-25.6	16.1	0.00e+00	0	42	0	2897215488	9	3927
2026-01-12 16:38:21.95	303.78	15.33	-24.8	-25.5	16.2	0.00e+00	0	42	0	2904555520	9	3913
2026-01-12 16:38:22.95	303.97	15.29	-24.8	-25.5	16.1	0.00e+00	0	42	0	2911895552	9	3917
2026-01-12 16:38:23.96	304.16	15.24	-24.9	-25.8	16.0	0.00e+00	0	42	0	2919235584	9	3993
2026-01-12 16:38:24.96	304.35	15.19	-24.8	-25.6	16.0	0.00e+00	0	42	0	2926575616	9	3947
2026-01-12 16:38:25.96	304.54	15.14	-24.9	-25.8	16.0	0.00e+00	0	42	0	2933915648	9	3990
2026-01-12 16:38:26.96	304.73	15.09	-25.0	-26.0	15.9	0.00e+00	0	42	0	2941255680	9	4039
2026-01-12 16:38:27.97	304.92	15.04	-24.9	-25.9	15.9	0.00e+00	0	42	0	2948595712	9	4006
2026-01-12 16:38:28.98	305.11	14.99	-25.0	-25.9	15.9	0.00e+00	0	42	0	2955935744	9	4019
2026-01-12 16:38:29.98	305.30	14.94	-24.9	-25.8	16.0	0.00e+00	0	42	0	2962227200	9	3987
2026-01-12 16:38:30.99	305.49	14.89	-25.0	-26.0	15.8	0.00e+00	0	42	0	2969567232	9	4036
2026-01-12 16:38:31.99	305.67	14.84	-25.0	-26.0	15.9	0.00e+00	0	42	0	2976907264	9	4030
2026-01-12 16:38:33.00	305.86	14.79	-25.0	-26.1	15.8	0.00e+00	0	42	0	2984247296	9	4051
2026-01-12 16:38:34.00	306.05	14.74	-25.0	-25.9	15.9	0.00e+00	0	42	0	2991587328	9	4006
2026-01-12 16:38:35.01	306.23	14.69	-25.1	-25.8	15.7	0.00e+00	0	42	0	2998927360	10	3877
2026-01-12 16:38:36.02	306.42	14.64	-25.4	-26.5	15.3	0.00e+00	0	42	0	3006267392	10	4046
2026-01-12 16:38:37.03	306.60	14.59	-25.1	-25.7	15.7	0.00e+00	0	42	0	3013607424	10	3869
2026-01-12 16:38:38.04	306.79	14.54	-24.9	-25.2	16.0	0.00e+00	0	42	0	3020947456	10	3736
2026-01-12 16:38:39.04	306.97	14.49	-24.7	-24.9	16.2	0.00e+00	0	42	0	3028287488	10	3664
2026-01-12 16:38:40.05	307.15	14.43	-24.7	-24.9	16.2	0.00e+00	0	42	0	3035627520	10	3661
2026-01-12 16:38:41.06	307.33	14.38	-24.8	-25.0	16.1	0.00e+00	0	42	0	3042967552	10	3696
2026-01-12 16:38:42.06	307.51	14.33	-24.8	-25.1	16.1	0.00e+00	0	42	0	3050307584	10	3713
2026-01-12 16:38:43.07	307.69	14.28	-24.9	-25.3	16.0	0.00e+00	0	42	0	3057647616	10	3771
2026-01-12 16:38:44.08	307.87	14.23	-25.0	-25.4	15.9	0.00e+00	0	42	0	3064987648	10	3792
2026-01-12 16:38:45.08	308.05	14.17	-25.1	-25.7	15.7	0.00e+00	0	42	0	3071279104	10	3860
2026-01-12 16:38:46.09	308.23	14.12	-25.1	-25.8	15.7	0.00e+00	0	42	0	3078619136	10	3880
2026-01-12 16:38:47.10	308.41	14.07	-25.3	-26.1	15.5	0.00e+00	0	42	0	3085959168	10	3956
2026-01-12 16:38:48.10	308.59	14.02	-25.2	-26.0	15.6	0.00e+00	0	42	0	3093299200	10	3934
2026-01-12 16:38:49.11	308.76	13.96	-25.3	-26.2	15.5	0.00e+00	0	42	0	3100639232	10	3971
2026-01-12 16:38:50.11	308.94	13.91	-25.4	-26.3	15.4	0.00e+00	0	42	0	3107979264	10	4004
2026-01-12 16:38:51.12	309.12	13.86	-25.3	-26.1	15.5	0.00e+00	0	42	0	3115319296	10	3966
2026-01-12 16:38:52.13	309.29	13.80	-25.3	-26.2	15.5	0.00e+00	0	42	0	3122659328	10	3974
2026-01-12 16:38:53.14	309.47	13.75	-25.3	-26.2	15.5	0.00e+00	0	42	0	3129999360	10	3972
2026-01-12 16:38:54.14	309.64	13.70	-25.3	-26.1	15.5	0.00e+00	0	42	0	3137339392	10	3950
2026-01-12 16:38:55.15	309.81	13.64	-25.3	-26.2	15.4	0.00e+00	0	42	0	3144679424	10	3987
2026-01-12 16:38:56.16	309.98	13.59	-25.4	-26.3	15.4	0.00e+00	0	42	0	3152019456	10	3999
2026-01-12 16:38:57.16	310.16	13.54	-25.4	-26.5	15.3	0.00e+00	0	43	0	3159359488	10	4053
2026-01-12 16:38:58.17	310.33	13.48	-25.5	-26.6	15.2	0.00e+00	0	43	0	3166699520	10	4092
2026-01-12 16:38:59.18	310.50	13.43	-25.4	-26.4	15.3	0.00e+00	0	43	0	3174039552	10	4043
2026-01-12 16:39:00.18	310.67	13.37	-25.4	-26.3	15.4	0.00e+00	0	42	0	3180331008	10	4007
2026-01-12 16:39:01.20	310.84	13.32	-25.5	-26.5	15.3	0.00e+00	0	42	0	3187671040	10	4063
2026-01-12 16:39:02.20	311.01	13.27	-25.5	-26.6	15.2	0.00e+00	0	42	0	3195011072	10	4097
2026-01-12 16:39:03.20	311.17	13.21	-25.7	-26.5	15.0	0.00e+00	0	42	0	3202351104	11	3944
2026-01-12 16:39:04.21	311.34	13.16	-25.8	-26.7	14.9	0.00e+00	0	42	0	3209691136	11	3996
2026-01-12 16:39:05.22	311.51	13.10	-25.6	-26.2	15.1	0.00e+00	0	42	0	3217031168	11	3891
2026-01-12 16:39:06.23	311.68	13.05	-25.4	-26.0	15.3	0.00e+00	0	42	0	3224371200	11	3821
2026-01-12 16:39:07.23	311.84	12.99	-25.4	-26.0	15.3	0.00e+00	0	42	0	3231711232	11	3821
2026-01-12 16:39:08.24	312.01	12.94	-25.5	-26.0	15.2	0.00e+00	0	42	0	3239051264	11	3832
2026-01-12 16:39:09.24	312.17	12.88	-25.6	-26.2	15.1	0.00e+00	0	42	0	3246391296	11	3887
2026-01-12 16:39:10.25	312.34	12.83	-25.5	-26.1	15.2	0.00e+00	0	42	0	3253731328	11	3858
2026-01-12 16:39:11.25	312.50	12.77	-25.5	-26.0	15.3	0.00e+00	0	42	0	3260022784	11	3828
2026-01-12 16:39:12.25	312.66	12.72	-25.5	-26.1	15.2	0.00e+00	0	42	0	3267362816	11	3857
2026-01-12 16:39:13.25	312.82	12.66	-25.6	-26.3	15.1	0.00e+00	0	42	0	3274702848	11	3901
2026-01-12 16:39:14.25	312.98	12.61	-25.7	-26.4	15.0	2.20e-06	0	42	0	3282042880	11	3937
2026-01-12 16:39:15.26	313.14	12.55	-25.7	-26.5	15.0	2.20e-06	0	42	0	3289382912	11	3961
2026-01-12 16:39:16.27	313.30	12.50	-25.8	-26.7	14.8	1.10e-06	0	42	0	3296722944	11	4009
2026-01-12 16:39:17.27	313.46	12.44	-25.8	-26.7	14.9	1.10e-06	0	42	0	3304062976	11	3999
2026-01-12 16:39:18.28	313.62	12.39	-25.7	-26.6	14.9	0.00e+00	0	42	0	3311403008	11	3986
2026-01-12 16:39:19.29	313.78	12.33	-25.8	-26.7	14.8	0.00e+00	0	42	0	3318743040	11	4007
2026-01-12 16:39:20.30	313.94	12.27	-25.8	-26.7	14.8	0.00e+00	0	42	0	3326083072	11	4010
2026-01-12 16:39:21.31	314.10	12.22	-25.8	-26.8	14.8	1.10e-06	0	42	0	3333423104	11	4029
2026-01-12 16:39:22.31	314.26	12.16	-25.7	-26.6	14.9	0.00e+00	0	43	0	3340763136	11	3971
2026-01-12 16:39:23.32	314.41	12.11	-25.8	-26.7	14.9	0.00e+00	0	42	0	3348103168	11	4004
2026-01-12 16:39:24.33	314.57	12.05	-25.7	-26.5	14.9	0.00e+00	0	42	0	3355443200	11	3953
2026-01-12 16:39:25.33	314.72	11.99	-25.6	-26.3	15.1	0.00e+00	0	42	0	3362783232	11	3899
2026-01-12 16:39:26.34	314.88	11.94	-25.5	-26.1	15.2	0.00e+00	0	42	0	3369074688	11	3860
2026-01-12 16:39:27.35	315.03	11.88	-25.5	-26.0	15.2	0.00e+00	0	43	0	3376414720	11	3836
2026-01-12 16:39:28.36	315.19	11.82	-25.4	-25.8	15.3	0.00e+00	0	43	0	3383754752	11	3784
2026-01-12 16:39:29.37	315.34	11.77	-25.3	-25.6	15.4	0.00e+00	0	42	0	3391094784	11	3740
2026-01-12 16:39:30.37	315.49	11.71	-25.2	-25.5	15.4	0.00e+00	0	42	0	3398434816	11	3716
2026-01-12 16:39:31.38	315.64	11.66	-25.3	-25.6	15.4	0.00e+00	0	42	0	3405774848	11	3735
2026-01-12 16:39:32.38	315.79	11.60	-25.4	-25.9	15.3	0.00e+00	0	42	0	3413114880	11	3811
2026-01-12 16:39:33.39	315.95	11.54	-25.5	-26.1	15.2	0.00e+00	0	42	0	3420454912	11	3847
2026-01-12 16:39:34.39	316.09	11.49	-25.5	-26.1	15.2	0.00e+00	0	42	0	3427794944	11	3857
2026-01-12 16:39:35.39	316.24	11.43	-25.6	-26.2	15.1	0.00e+00	0	42	0	3435134976	11	3878
2026-01-12 16:39:36.40	316.39	11.37	-25.7	-26.4	14.9	0.00e+00	0	43	0	3442475008	11	3940
2026-01-12 16:39:37.40	316.54	11.32	-25.8	-26.7	14.8	1.10e-06	0	42	0	3448766464	11	4001
2026-01-12 16:39:38.41	316.69	11.26	-25.8	-26.8	14.7	0.00e+00	0	43	0	3457155072	11	4040
2026-01-12 16:39:39.41	316.84	11.20	-26.0	-27.1	14.5	0.00e+00	0	42	0	3464495104	11	4121
2026-01-12 16:39:40.42	316.98	11.15	-26.1	-26.9	14.3	0.00e+00	0	42	0	3470786560	12	3959
2026-01-12 16:39:41.42	317.13	11.09	-26.3	-27.4	14.0	1.10e-06	0	43	0	3478126592	12	4081
2026-01-12 16:39:42.43	317.27	11.03	-26.4	-27.5	14.0	5.70e-06	0	42	0	3485466624	12	4116
2026-01-12 16:39:43.43	317.42	10.98	-26.2	-27.1	14.2	0.00e+00	0	42	0	3492806656	12	4020
2026-01-12 16:39:44.44	317.56	10.92	-26.1	-27.0	14.3	0.00e+00	0	42	0	3500146688	12	3994
2026-01-12 16:39:45.44	317.71	10.86	-26.1	-26.9	14.3	1.10e-06	0	42	0	3507486720	12	3955
2026-01-12 16:39:46.45	317.85	10.81	-26.1	-26.9	14.3	2.20e-06	0	42	0	3514826752	12	3963
2026-01-12 16:39:47.46	317.99	10.75	-26.1	-26.9	14.3	1.10e-06	0	42	0	3522166784	12	3954
2026-01-12 16:39:48.47	318.14	10.69	-26.0	-26.6	14.4	1.10e-06	0	42	0	3529506816	12	3890
2026-01-12 16:39:49.47	318.28	10.63	-26.0	-26.8	14.3	1.10e-06	0	42	0	3536846848	12	3931
2026-01-12 16:39:50.48	318.42	10.58	-26.0	-26.7	14.4	0.00e+00	0	42	0	3544186880	12	3902
2026-01-12 16:39:51.49	318.56	10.52	-25.8	-26.2	14.6	0.00e+00	0	43	0	3551526912	12	3797
2026-01-12 16:39:52.50	318.70	10.46	-25.8	-26.4	14.6	0.00e+00	0	42	0	3557818368	12	3832
2026-01-12 16:39:53.50	318.84	10.41	-25.7	-26.1	14.7	0.00e+00	0	42	0	3565158400	12	3774
2026-01-12 16:39:54.51	318.98	10.35	-25.8	-26.2	14.6	0.00e+00	0	43	0	3572498432	12	3786
2026-01-12 16:39:55.51	319.12	10.29	-25.7	-26.1	14.7	1.10e-06	0	43	0	3579838464	12	3771
2026-01-12 16:39:56.52	319.26	10.23	-25.8	-26.2	14.6	0.00e+00	0	42	0	3587178496	12	3794
2026-01-12 16:39:57.53	319.40	10.18	-25.9	-26.6	14.5	1.10e-06	0	42	0	3594518528	12	3879
2026-01-12 16:39:58.54	319.53	10.12	-25.9	-26.5	14.4	0.00e+00	0	43	0	3601858560	12	3869
2026-01-12 16:39:59.54	319.67	10.06	-25.8	-26.2	14.6	0.00e+00	0	43	0	3609198592	12	3789
2026-01-12 16:40:00.55	319.81	10.01	-25.8	-26.3	14.6	1.10e-06	0	42	0	3616538624	12	3822
2026-01-12 16:40:01.56	319.94	9.95	-25.9	-26.6	14.4	1.10e-06	0	42	0	3623878656	12	3886
2026-01-12 16:40:02.57	320.08	9.89	-25.9	-26.6	14.4	1.10e-06	0	43	0	3631218688	12	3882
2026-01-12 16:40:03.57	320.21	9.83	-26.1	-26.9	14.2	2.20e-06	0	42	0	3638558720	12	3954
2026-01-12 16:40:04.57	320.34	9.78	-26.1	-27.0	14.1	3.40e-06	0	42	0	3645898752	12	3996
2026-01-12 16:40:05.58	320.48	9.72	-26.2	-27.1	14.1	1.10e-06	0	42	0	3653238784	12	4023
2026-01-12 16:40:06.58	320.61	9.66	-26.3	-27.3	14.0	4.50e-06	0	42	0	3660578816	12	4069
2026-01-12 16:40:07.59	320.74	9.61	-26.3	-27.4	13.9	5.70e-06	0	42	0	3666870272	12	4101
2026-01-12 16:40:08.60	320.88	9.55	-26.4	-27.5	13.9	1.10e-06	0	43	0	3674210304	12	4129
2026-01-12 16:40:09.60	321.01	9.49	-26.4	-27.6	13.8	6.80e-06	0	42	0	3681550336	12	4156
2026-01-12 16:40:10.61	321.14	9.43	-26.4	-27.7	13.8	9.10e-06	0	42	0	3688890368	12	4170
2026-01-12 16:40:11.61	321.27	9.38	-26.4	-27.7	13.8	3.40e-06	0	42	0	3696230400	12	4174
2026-01-12 16:40:12.62	321.40	9.32	-26.5	-27.9	13.7	1.25e-05	0	42	0	3703570432	12	4214
2026-01-12 16:40:13.63	321.53	9.26	-26.6	-28.1	13.5	8.00e-06	0	42	0	3710910464	12	4272
2026-01-12 16:40:14.63	321.66	9.21	-26.6	-27.7	13.5	1.48e-05	0	43	0	3718250496	13	4056
2026-01-12 16:40:15.64	321.79	9.15	-26.8	-28.0	13.3	2.05e-05	0	42	0	3725590528	13	4138
2026-01-12 16:40:16.64	321.91	9.09	-26.7	-27.9	13.3	2.28e-05	0	42	0	3732930560	13	4119
2026-01-12 16:40:17.65	322.04	9.03	-26.5	-27.5	13.6	1.02e-05	0	42	0	3740270592	13	4007
2026-01-12 16:40:18.66	322.17	8.98	-26.4	-27.2	13.8	5.70e-06	0	43	0	3746562048	13	3927
2026-01-12 16:40:19.66	322.30	8.92	-26.4	-27.1	13.8	5.70e-06	0	43	0	3754950656	13	3900
2026-01-12 16:40:20.66	322.42	8.86	-26.4	-27.1	13.8	8.00e-06	0	42	0	3762290688	13	3917
2026-01-12 16:40:21.67	322.55	8.81	-26.4	-27.3	13.7	3.40e-06	0	42	0	3768582144	13	3956
2026-01-12 16:40:22.68	322.67	8.75	-26.4	-27.1	13.7	3.40e-06	0	43	0	3775922176	13	3923
2026-01-12 16:40:23.69	322.80	8.69	-26.3	-26.9	13.9	3.40e-06	0	43	0	3783262208	13	3878
2026-01-12 16:40:24.70	322.92	8.63	-26.3	-27.0	13.9	3.40e-06	0	42	0	3790602240	13	3876
2026-01-12 16:40:25.71	323.05	8.58	-26.3	-26.9	13.8	6.80e-06	0	42	0	3797942272	13	3866
2026-01-12 16:40:26.71	323.17	8.52	-26.3	-27.0	13.8	3.40e-06	0	43	0	3805282304	13	3902
2026-01-12 16:40:27.72	323.29	8.46	-26.4	-27.2	13.7	4.50e-06	0	42	0	3812622336	13	3943
2026-01-12 16:40:28.73	323.42	8.41	-26.4	-27.1	13.7	2.20e-06	0	42	0	3819962368	13	3923
2026-01-12 16:40:29.73	323.54	8.35	-26.4	-27.2	13.7	9.10e-06	0	43	0	3827302400	13	3944
2026-01-12 16:40:30.73	323.66	8.29	-26.4	-27.2	13.7	1.02e-05	0	43	0	3834642432	13	3945
2026-01-12 16:40:31.74	323.78	8.24	-26.5	-27.3	13.6	1.14e-05	0	43	0	3841982464	13	3970
2026-01-12 16:40:32.75	323.90	8.18	-26.4	-27.1	13.7	1.60e-05	0	43	0	3849322496	13	3923
2026-01-12 16:40:33.76	324.02	8.12	-26.5	-27.4	13.5	8.00e-06	0	43	0	3855613952	13	3982
2026-01-12 16:40:34.76	324.14	8.07	-26.5	-27.3	13.6	1.60e-05	0	43	0	3862953984	13	3961
2026-01-12 16:40:35.77	324.26	8.01	-26.5	-27.3	13.6	8.00e-06	0	42	0	3871342592	13	3975
2026-01-12 16:40:36.77	324.38	7.95	-26.5	-27.4	13.5	1.14e-05	0	42	0	3877634048	13	4002
2026-01-12 16:40:37.78	324.50	7.90	-26.7	-27.9	13.2	2.28e-05	0	43	0	3884974080	13	4121
2026-01-12 16:40:38.79	324.62	7.84	-26.6	-27.6	13.4	1.71e-05	0	43	0	3892314112	13	4046
2026-01-12 16:40:39.79	324.73	7.78	-26.5	-27.5	13.5	1.37e-05	0	43	0	3899654144	13	4005
2026-01-12 16:40:40.80	324.85	7.73	-26.6	-27.5	13.4	1.14e-05	0	42	0	3906994176	13	4029
2026-01-12 16:40:41.81	324.97	7.67	-26.6	-27.7	13.3	2.51e-05	0	42	0	3914334208	13	4079
2026-01-12 16:40:42.81	325.08	7.61	-26.6	-27.6	13.4	1.37e-05	0	43	0	3921674240	13	4040
2026-01-12 16:40:43.81	325.20	7.56	-26.6	-27.7	13.3	1.60e-05	0	42	0	3929014272	13	4070
2026-01-12 16:40:44.82	325.31	7.50	-26.6	-27.5	13.4	1.83e-05	0	42	0	3936354304	13	4025
2026-01-12 16:40:45.82	325.43	7.44	-26.6	-27.7	13.3	1.83e-05	0	43	0	3943694336	13	4066
2026-01-12 16:40:46.83	325.54	7.39	-26.6	-27.6	13.3	1.25e-05	0	42	0	3951034368	13	4056
2026-01-12 16:40:47.85	325.66	7.33	-26.6	-27.6	13.3	1.60e-05	0	43	0	3957325824	13	4060
2026-01-12 16:40:48.85	325.77	7.27	-26.6	-27.7	13.3	1.60e-05	0	42	0	3964665856	13	4067
2026-01-12 16:40:49.85	325.88	7.22	-26.7	-27.9	13.2	4.92e-05	0	43	0	3972005888	13	4126
2026-01-12 16:40:50.86	326.00	7.16	-26.8	-28.2	13.0	3.66e-05	0	43	0	3979345920	13	4201
2026-01-12 16:40:51.87	326.11	7.10	-27.2	-28.6	12.5	9.04e-05	0	42	0	3986685952	14	4202
2026-01-12 16:40:52.88	326.22	7.05	-32.7	-41.4	3.8	8.46e-01	0	43	104	3990880256	25	9798
2026-01-12 16:40:53.88	326.33	6.99	-33.1	-43.0	3.8	8.46e-01	0	43	104	3990880256	25	11316
2026-01-12 16:40:54.89	326.45	6.94	-33.3	-43.1	3.8	8.46e-01	0	43	104	3990880256	26	11045
2026-01-12 16:40:55.89	326.56	6.88	-33.5	-43.3	3.8	8.46e-01	0	43	104	3990880256	26	11163

#Closed at: 2026-01-12 16:40:56
#Recorded file [3990 MB]: D:/data/31010_260112_193139.dat