passes_logs/2026/01/12/R2M6_AANII_01/R2M6_AANII_01__20260112_104441_NOAA_20_JPSS-1_rec.log

#Pass ID: 20260112_104441_NOAA 20 (JPSS-1)
#Satellite: NOAA 20 (JPSS-1)
#Configuration: NOAA 20
#almurnet v.1.7.20240730
#Start time: 2026-01-12 10:44:42

#Version: 2.2.20231116
#Station: R2M6_AANII_01
#Location: 30.233357 lon 59.946436 lat
#TLE: 1 43013U 17073A   26011.31235446  .00000090  00000+0  63634-4 0  9991
#TLE: 2 43013  98.7632 312.2907 0001646  44.6084 315.5224 14.19535308422217

#Time	Az	El	Level	Level2	SNR	BER	BlckErr	Temp	State	Recorded	gain1	gain2
2026-01-12 10:44:42.54	173.46	7.05	-30.6	-35.3	5.4	1.21e+00	0	39	0	0	21	6231
2026-01-12 10:44:43.53	173.48	7.12	-31.0	-35.8	5.2	1.25e+00	0	39	104	0	23	6299
2026-01-12 10:44:44.54	173.51	7.20	-31.0	-35.9	8.9	2.23e-02	0	40	0	0	23	6325
2026-01-12 10:44:45.55	173.54	7.28	-31.0	-35.9	8.9	3.68e-02	0	40	0	1048576	23	6321
2026-01-12 10:44:46.55	173.57	7.36	-30.8	-34.9	9.7	1.46e-02	0	39	0	3145728	23	5811
2026-01-12 10:44:47.56	173.60	7.43	-30.5	-34.5	10.4	7.48e-03	0	40	0	5242880	22	5693
2026-01-12 10:44:48.57	173.63	7.51	-30.3	-33.8	11.0	3.13e-03	0	40	0	7340032	22	5351
2026-01-12 10:44:49.57	173.66	7.59	-30.0	-33.4	11.7	8.57e-04	0	40	0	9437184	21	5284
2026-01-12 10:44:50.58	173.69	7.67	-29.9	-33.0	11.9	4.55e-04	0	40	0	10485760	21	5154
2026-01-12 10:44:51.58	173.72	7.75	-29.8	-32.6	12.2	2.53e-04	0	40	0	12582912	21	4973
2026-01-12 10:44:52.59	173.75	7.83	-29.7	-32.9	12.4	1.43e-04	0	40	0	14680064	20	5175
2026-01-12 10:44:53.59	173.78	7.91	-29.7	-32.9	12.4	1.66e-04	0	40	0	16777216	20	5197
2026-01-12 10:44:54.59	173.81	7.99	-29.7	-32.8	12.5	1.50e-04	0	40	0	18874368	20	5124
2026-01-12 10:44:55.60	173.84	8.07	-29.8	-33.1	12.3	1.38e-04	0	40	0	19922944	20	5248
2026-01-12 10:44:56.60	173.87	8.15	-29.7	-32.6	12.7	1.19e-04	0	40	0	22020096	20	5061
2026-01-12 10:44:57.59	173.90	8.23	-29.6	-32.6	12.7	1.04e-04	0	40	0	24117248	20	5053
2026-01-12 10:44:58.60	173.93	8.31	-29.6	-32.4	12.8	7.24e-05	0	40	0	26214400	20	4999
2026-01-12 10:44:59.60	173.96	8.39	-29.6	-32.4	12.9	5.41e-05	0	40	0	28311552	20	4965
2026-01-12 10:45:00.60	174.00	8.47	-29.6	-32.4	12.9	6.17e-05	0	40	0	29360128	20	4971
2026-01-12 10:45:01.60	174.03	8.55	-29.6	-32.4	12.8	4.19e-05	0	40	0	31457280	20	4975
2026-01-12 10:45:02.61	174.06	8.63	-29.6	-32.5	12.8	6.40e-05	0	40	0	33554432	20	5032
2026-01-12 10:45:03.62	174.09	8.71	-29.7	-32.6	12.7	9.07e-05	0	40	0	35651584	20	5044
2026-01-12 10:45:04.62	174.12	8.79	-29.5	-32.3	12.9	6.63e-05	0	40	0	36700160	20	4929
2026-01-12 10:45:05.63	174.15	8.88	-29.7	-32.9	12.5	9.91e-05	0	40	0	38797312	20	5155
2026-01-12 10:45:06.64	174.19	8.96	-29.6	-32.6	12.8	1.19e-04	0	40	0	40894464	20	5033
2026-01-12 10:45:07.64	174.22	9.04	-29.6	-32.4	12.9	3.96e-05	0	40	0	42991616	20	4961
2026-01-12 10:45:08.65	174.25	9.13	-29.6	-32.3	12.9	3.73e-05	0	40	0	45088768	20	4945
2026-01-12 10:45:09.65	174.28	9.21	-29.6	-32.5	12.8	4.88e-05	0	40	0	46137344	20	4997
2026-01-12 10:45:10.66	174.32	9.29	-29.6	-32.3	12.9	5.26e-05	0	40	0	48234496	20	4947
2026-01-12 10:45:11.66	174.35	9.38	-29.5	-32.2	13.1	3.96e-05	0	40	0	50331648	20	4903
2026-01-12 10:45:12.66	174.38	9.46	-29.6	-32.4	13.0	3.58e-05	0	40	0	52428800	20	4959
2026-01-12 10:45:13.67	174.42	9.55	-29.6	-32.2	13.0	4.65e-05	0	40	0	54525952	20	4910
2026-01-12 10:45:14.67	174.45	9.63	-29.5	-32.0	13.2	2.89e-05	0	40	0	55574528	20	4829
2026-01-12 10:45:15.67	174.48	9.72	-29.4	-31.9	13.3	2.28e-05	0	40	0	57671680	20	4778
2026-01-12 10:45:16.68	174.52	9.80	-29.5	-32.0	13.2	1.83e-05	0	40	0	59768832	20	4833
2026-01-12 10:45:17.68	174.55	9.89	-29.5	-32.0	13.2	2.05e-05	0	40	0	61865984	20	4820
2026-01-12 10:45:18.68	174.59	9.97	-29.5	-32.1	13.1	2.74e-05	0	41	0	63963136	20	4862
2026-01-12 10:45:19.69	174.62	10.06	-29.5	-32.0	13.2	1.90e-05	0	40	0	65011712	20	4835
2026-01-12 10:45:20.69	174.65	10.15	-29.6	-32.4	13.0	3.66e-05	0	40	0	67108864	20	4969
2026-01-12 10:45:21.69	174.69	10.23	-29.5	-32.0	13.2	4.27e-05	0	40	0	69206016	20	4830
2026-01-12 10:45:22.69	174.72	10.32	-29.4	-31.9	13.3	1.90e-05	0	40	0	71303168	20	4789
2026-01-12 10:45:23.70	174.76	10.41	-29.4	-31.9	13.3	7.60e-06	0	41	0	73400320	20	4774
2026-01-12 10:45:24.70	174.79	10.49	-29.5	-32.0	13.3	1.98e-05	0	41	0	74448896	20	4807
2026-01-12 10:45:25.71	174.83	10.58	-29.5	-32.0	13.3	1.75e-05	0	41	0	76546048	20	4822
2026-01-12 10:45:26.72	174.87	10.67	-29.6	-32.4	13.0	2.28e-05	0	41	0	78643200	20	4956
2026-01-12 10:45:27.72	174.90	10.76	-29.5	-32.1	13.2	4.88e-05	0	41	0	80740352	20	4847
2026-01-12 10:45:28.72	174.94	10.85	-29.4	-31.9	13.3	1.44e-05	0	41	0	82837504	20	4788
2026-01-12 10:45:29.73	174.97	10.94	-29.3	-31.6	13.6	1.22e-05	0	41	0	83886080	20	4669
2026-01-12 10:45:30.74	175.01	11.03	-29.4	-31.8	13.5	6.80e-06	0	41	0	85983232	20	4726
2026-01-12 10:45:31.75	175.05	11.12	-29.4	-31.8	13.4	8.30e-06	0	41	0	88080384	20	4759
2026-01-12 10:45:32.74	175.09	11.21	-29.5	-32.1	13.3	1.14e-05	0	41	0	90177536	20	4853
2026-01-12 10:45:33.75	175.12	11.30	-29.5	-32.1	13.3	3.35e-05	0	41	0	92274688	20	4863
2026-01-12 10:45:34.76	175.16	11.39	-29.6	-32.2	13.2	1.44e-05	0	41	0	93323264	20	4884
2026-01-12 10:45:35.76	175.20	11.48	-29.6	-32.2	13.2	2.59e-05	0	41	0	95420416	20	4888
2026-01-12 10:45:36.77	175.24	11.57	-29.6	-32.4	13.1	2.67e-05	0	41	0	97517568	20	4943
2026-01-12 10:45:37.77	175.27	11.66	-29.7	-32.6	13.0	4.34e-05	0	41	0	99614720	20	5009
2026-01-12 10:45:38.78	175.31	11.76	-29.8	-32.8	12.9	3.96e-05	0	41	0	101711872	20	5083
2026-01-12 10:45:39.78	175.35	11.85	-29.7	-32.5	13.1	5.41e-05	0	41	0	102760448	20	4982
2026-01-12 10:45:40.79	175.39	11.94	-29.6	-32.3	13.2	3.05e-05	0	41	0	104857600	20	4919
2026-01-12 10:45:41.79	175.43	12.04	-29.5	-32.1	13.4	1.37e-05	0	41	0	106954752	20	4820
2026-01-12 10:45:42.79	175.47	12.13	-29.6	-32.2	13.3	1.75e-05	0	41	0	109051904	20	4868
2026-01-12 10:45:43.79	175.51	12.22	-29.5	-31.9	13.5	1.67e-05	0	41	0	111149056	20	4774
2026-01-12 10:45:44.79	175.55	12.32	-29.3	-31.4	13.8	9.10e-06	0	41	0	112197632	20	4598
2026-01-12 10:45:45.80	175.59	12.41	-29.3	-31.8	14.0	1.50e-06	0	41	0	114294784	19	4826
2026-01-12 10:45:46.81	175.63	12.51	-29.3	-31.8	14.0	7.00e-07	0	41	0	116391936	19	4812
2026-01-12 10:45:47.82	175.67	12.60	-29.2	-31.8	14.0	1.50e-06	0	41	0	118489088	19	4805
2026-01-12 10:45:48.82	175.71	12.70	-29.2	-31.6	14.1	7.00e-07	0	41	0	119537664	19	4747
2026-01-12 10:45:49.82	175.75	12.79	-29.2	-31.7	14.0	2.20e-06	0	41	0	121634816	19	4776
2026-01-12 10:45:50.83	175.79	12.89	-29.2	-31.6	14.1	7.00e-07	0	41	0	123731968	19	4764
2026-01-12 10:45:51.83	175.83	12.99	-29.3	-31.7	14.0	2.20e-06	0	41	0	125829120	19	4797
2026-01-12 10:45:52.84	175.87	13.09	-29.2	-31.6	14.1	1.50e-06	0	41	0	127926272	19	4751
2026-01-12 10:45:53.85	175.91	13.18	-29.3	-31.8	14.0	9.10e-06	0	41	0	130023424	19	4815
2026-01-12 10:45:54.85	175.96	13.28	-29.3	-31.9	14.0	7.00e-07	0	41	0	131072000	19	4859
2026-01-12 10:45:55.85	176.00	13.38	-29.3	-32.0	13.9	7.00e-07	0	41	0	133169152	19	4876
2026-01-12 10:45:56.86	176.04	13.48	-29.3	-31.9	14.0	1.06e-05	0	41	0	135266304	19	4838
2026-01-12 10:45:57.86	176.08	13.58	-29.3	-31.9	14.0	5.30e-06	0	41	0	137363456	19	4836
2026-01-12 10:45:58.87	176.13	13.68	-29.3	-32.0	13.9	0.00e+00	0	41	0	138412032	19	4878
2026-01-12 10:45:59.87	176.17	13.78	-29.4	-32.1	13.9	1.60e-05	0	41	0	140509184	19	4918
2026-01-12 10:46:00.87	176.21	13.88	-29.4	-32.1	13.9	3.80e-06	0	41	0	142606336	19	4913
2026-01-12 10:46:01.87	176.26	13.98	-29.3	-32.0	13.9	3.80e-06	0	41	0	144703488	19	4870
2026-01-12 10:46:02.87	176.30	14.08	-29.4	-32.1	13.8	1.98e-05	0	41	0	146800640	19	4936
2026-01-12 10:46:03.87	176.35	14.18	-29.5	-32.5	13.6	9.10e-06	0	41	0	147849216	19	5056
2026-01-12 10:46:04.88	176.39	14.28	-29.6	-32.6	13.6	5.30e-06	0	41	0	149946368	19	5081
2026-01-12 10:46:05.88	176.44	14.38	-29.6	-32.6	13.6	9.90e-06	0	41	0	152043520	19	5086
2026-01-12 10:46:06.89	176.48	14.49	-29.7	-32.9	13.4	1.60e-05	0	41	0	154140672	19	5201
2026-01-12 10:46:07.89	176.53	14.59	-29.6	-32.7	13.5	1.83e-05	0	41	0	156237824	19	5133
2026-01-12 10:46:08.89	176.57	14.69	-29.7	-33.0	13.4	1.90e-05	0	41	0	157286400	19	5245
2026-01-12 10:46:09.90	176.62	14.80	-29.7	-32.8	13.5	1.60e-05	0	41	0	159383552	19	5166
2026-01-12 10:46:10.90	176.67	14.90	-29.6	-32.6	13.6	6.10e-06	0	41	0	161480704	19	5104
2026-01-12 10:46:11.91	176.71	15.01	-29.6	-32.6	13.6	2.13e-05	0	41	0	163577856	19	5090
2026-01-12 10:46:12.91	176.76	15.11	-29.6	-32.6	13.6	8.30e-06	0	41	0	165675008	19	5077
2026-01-12 10:46:13.91	176.81	15.22	-29.6	-32.6	13.6	5.30e-06	0	41	0	166723584	19	5113
2026-01-12 10:46:14.91	176.85	15.32	-29.6	-32.6	13.6	1.83e-05	0	41	0	168820736	19	5088
2026-01-12 10:46:15.92	176.90	15.43	-29.6	-32.6	13.6	6.80e-06	0	42	0	170917888	19	5082
2026-01-12 10:46:16.92	176.95	15.54	-29.6	-32.6	13.7	6.80e-06	0	41	0	173015040	19	5070
2026-01-12 10:46:17.92	177.00	15.65	-29.7	-32.9	13.4	1.44e-05	0	41	0	175112192	19	5196
2026-01-12 10:46:18.93	177.05	15.75	-29.6	-32.7	13.6	1.22e-05	0	41	0	176160768	19	5140
2026-01-12 10:46:19.94	177.10	15.86	-29.7	-32.9	13.5	6.80e-06	0	41	0	178257920	19	5196
2026-01-12 10:46:20.94	177.15	15.97	-29.9	-33.5	13.1	2.28e-05	0	41	0	180355072	19	5426
2026-01-12 10:46:21.95	177.20	16.08	-29.9	-33.4	13.1	2.36e-05	0	41	0	182452224	19	5400
2026-01-12 10:46:22.96	177.25	16.19	-30.0	-33.3	12.8	4.50e-05	0	41	0	184549376	20	5283
2026-01-12 10:46:23.96	177.30	16.30	-30.1	-33.6	12.6	8.23e-05	0	41	0	185597952	20	5381
2026-01-12 10:46:24.96	177.35	16.41	-30.1	-33.6	12.6	1.07e-04	0	41	0	187695104	20	5384
2026-01-12 10:46:25.97	177.40	16.52	-30.1	-33.7	12.5	9.99e-05	0	41	0	189792256	20	5408
2026-01-12 10:46:26.98	177.45	16.64	-30.2	-33.8	12.4	1.24e-04	0	41	0	191889408	20	5477
2026-01-12 10:46:27.98	177.51	16.75	-30.2	-34.0	12.3	1.68e-04	0	42	0	192937984	20	5569
2026-01-12 10:46:28.99	177.56	16.86	-30.2	-33.9	12.4	2.36e-04	0	41	0	195035136	20	5531
2026-01-12 10:46:29.99	177.61	16.98	-30.5	-34.7	11.8	3.25e-04	0	41	0	197132288	20	5859
2026-01-12 10:46:30.99	177.67	17.09	-30.3	-34.1	12.3	2.62e-04	0	41	0	199229440	20	5603
2026-01-12 10:46:32.00	177.72	17.20	-30.1	-33.5	12.7	1.23e-04	0	42	0	201326592	20	5364
2026-01-12 10:46:33.00	177.77	17.32	-29.9	-33.1	12.9	5.11e-05	0	41	0	203423744	20	5182
2026-01-12 10:46:34.00	177.83	17.43	-29.9	-32.9	13.1	3.81e-05	0	41	0	204472320	20	5124
2026-01-12 10:46:35.01	177.88	17.55	-29.9	-32.9	13.1	2.59e-05	0	41	0	206569472	20	5104
2026-01-12 10:46:36.01	177.94	17.67	-29.8	-32.8	13.2	3.20e-05	0	41	0	208666624	20	5081
2026-01-12 10:46:37.02	177.99	17.78	-29.8	-32.6	13.3	2.97e-05	0	41	0	210763776	20	5008
2026-01-12 10:46:38.03	178.05	17.90	-29.8	-32.8	13.2	2.36e-05	0	42	0	211812352	20	5086
2026-01-12 10:46:39.03	178.11	18.02	-29.9	-33.1	13.0	2.59e-05	0	41	0	213909504	20	5202
2026-01-12 10:46:40.04	178.16	18.14	-29.8	-32.8	13.2	3.58e-05	0	42	0	216006656	20	5065
2026-01-12 10:46:41.04	178.22	18.26	-29.7	-32.6	13.3	2.05e-05	0	41	0	218103808	20	4990
2026-01-12 10:46:42.04	178.28	18.38	-29.8	-32.7	13.3	1.44e-05	0	42	0	220200960	20	5048
2026-01-12 10:46:43.04	178.34	18.50	-29.7	-32.5	13.4	1.06e-05	0	41	0	221249536	20	4957
2026-01-12 10:46:44.05	178.39	18.62	-29.7	-32.6	13.3	1.37e-05	0	42	0	223346688	20	5006
2026-01-12 10:46:45.05	178.45	18.74	-29.7	-32.6	13.4	2.44e-05	0	42	0	225443840	20	4996
2026-01-12 10:46:46.06	178.51	18.86	-29.8	-32.7	13.3	1.14e-05	0	42	0	227540992	20	5041
2026-01-12 10:46:47.06	178.57	18.99	-29.7	-32.6	13.4	9.90e-06	0	42	0	229638144	20	5003
2026-01-12 10:46:48.06	178.63	19.11	-29.8	-32.7	13.4	1.37e-05	0	41	0	230686720	20	5018
2026-01-12 10:46:49.06	178.69	19.23	-29.9	-33.0	13.1	2.21e-05	0	41	0	232783872	20	5144
2026-01-12 10:46:50.07	178.76	19.36	-30.0	-33.3	12.9	4.42e-05	0	42	0	234881024	20	5267
2026-01-12 10:46:51.07	178.82	19.48	-29.8	-32.9	13.2	2.36e-05	0	42	0	236978176	20	5095
2026-01-12 10:46:52.08	178.88	19.61	-29.9	-32.9	13.2	2.36e-05	0	42	0	239075328	20	5100
2026-01-12 10:46:53.09	178.94	19.73	-29.9	-33.0	13.1	2.67e-05	0	41	0	240123904	20	5140
2026-01-12 10:46:54.09	179.01	19.86	-30.0	-33.2	13.0	3.12e-05	0	42	0	242221056	20	5218
2026-01-12 10:46:55.10	179.07	19.99	-29.9	-33.0	13.2	2.82e-05	0	41	0	244318208	20	5132
2026-01-12 10:46:56.10	179.13	20.12	-30.1	-33.4	12.9	3.35e-05	0	42	0	246415360	20	5297
2026-01-12 10:46:57.11	179.20	20.25	-29.9	-32.8	13.3	1.83e-05	0	41	0	248512512	20	5067
2026-01-12 10:46:58.12	179.26	20.38	-29.8	-32.6	13.5	1.52e-05	0	42	0	249561088	20	4974
2026-01-12 10:46:59.13	179.33	20.51	-29.8	-32.5	13.5	7.60e-06	0	42	0	251658240	20	4944
2026-01-12 10:47:00.13	179.40	20.64	-29.8	-32.6	13.5	8.30e-06	0	42	0	253755392	20	4961
2026-01-12 10:47:01.14	179.46	20.77	-29.9	-32.7	13.4	1.29e-05	0	42	0	255852544	20	5021
2026-01-12 10:47:02.14	179.53	20.90	-29.9	-33.0	13.2	2.13e-05	0	41	0	257949696	20	5108
2026-01-12 10:47:03.15	179.60	21.03	-29.8	-32.6	13.5	9.90e-06	0	41	0	258998272	20	4977
2026-01-12 10:47:04.15	179.67	21.17	-29.8	-32.5	13.5	6.10e-06	0	42	0	261095424	20	4950
2026-01-12 10:47:05.15	179.74	21.30	-29.8	-32.5	13.6	9.10e-06	0	42	0	263192576	20	4914
2026-01-12 10:47:06.16	179.81	21.44	-29.8	-32.6	13.5	9.10e-06	0	42	0	265289728	20	4968
2026-01-12 10:47:07.17	179.88	21.57	-29.8	-32.6	13.5	1.14e-05	0	41	0	267386880	20	4968
2026-01-12 10:47:08.17	179.95	21.71	-29.8	-32.7	13.5	1.90e-05	0	42	0	268435456	20	4984
2026-01-12 10:47:09.17	180.02	21.84	-29.9	-32.8	13.3	1.83e-05	0	42	0	270532608	20	5054
2026-01-12 10:47:10.18	180.09	21.98	-29.7	-32.4	13.6	9.90e-06	0	42	0	272629760	20	4885
2026-01-12 10:47:11.19	180.16	22.12	-29.7	-32.2	13.8	6.10e-06	0	42	0	274726912	20	4831
2026-01-12 10:47:12.19	180.24	22.26	-29.6	-32.1	13.8	3.00e-06	0	42	0	276824064	20	4792
2026-01-12 10:47:13.19	180.31	22.40	-29.7	-32.1	13.8	4.50e-06	0	42	0	277872640	20	4795
2026-01-12 10:47:14.20	180.39	22.54	-29.7	-32.2	13.8	5.30e-06	0	42	0	279969792	20	4827
2026-01-12 10:47:15.20	180.46	22.68	-29.6	-32.0	13.9	3.80e-06	0	42	0	282066944	20	4749
2026-01-12 10:47:16.20	180.54	22.82	-29.6	-32.0	13.9	4.50e-06	0	42	0	284164096	20	4759
2026-01-12 10:47:17.21	180.61	22.96	-29.6	-31.9	14.0	5.30e-06	0	42	0	286261248	20	4726
2026-01-12 10:47:18.20	180.69	23.10	-29.6	-31.9	14.0	7.00e-07	0	41	0	287309824	20	4726
2026-01-12 10:47:19.21	180.77	23.25	-29.6	-32.0	13.9	1.50e-06	0	42	0	289406976	20	4733
2026-01-12 10:47:20.21	180.85	23.39	-29.5	-31.7	14.2	9.10e-06	0	42	0	291504128	20	4624
2026-01-12 10:47:21.21	180.92	23.54	-29.5	-31.8	14.1	1.50e-06	0	42	0	293601280	20	4660
2026-01-12 10:47:22.21	181.00	23.68	-29.5	-31.7	14.1	1.50e-06	0	42	0	294649856	20	4648
2026-01-12 10:47:23.22	181.08	23.83	-29.5	-31.7	14.2	5.30e-06	0	42	0	296747008	20	4638
2026-01-12 10:47:24.22	181.17	23.98	-29.5	-31.6	14.2	1.50e-06	0	42	0	298844160	20	4615
2026-01-12 10:47:25.23	181.25	24.13	-29.5	-31.8	14.1	3.00e-06	0	42	0	300941312	20	4678
2026-01-12 10:47:26.24	181.33	24.28	-29.4	-31.6	14.2	3.80e-06	0	42	0	303038464	20	4598
2026-01-12 10:47:27.24	181.41	24.43	-29.4	-31.5	14.3	2.20e-06	0	42	0	305135616	20	4584
2026-01-12 10:47:28.25	181.50	24.58	-29.4	-31.6	14.3	1.50e-06	0	42	0	306184192	20	4588
2026-01-12 10:47:29.25	181.58	24.73	-29.4	-31.4	14.4	5.30e-06	0	42	0	308281344	20	4535
2026-01-12 10:47:30.25	181.67	24.88	-29.4	-31.4	14.4	7.00e-07	0	42	0	310378496	20	4554
2026-01-12 10:47:31.25	181.76	25.03	-29.3	-31.2	14.5	0.00e+00	0	42	0	312475648	20	4464
2026-01-12 10:47:32.26	181.84	25.19	-29.3	-31.6	14.6	6.10e-06	0	42	0	313524224	19	4705
2026-01-12 10:47:33.26	181.93	25.34	-29.3	-31.7	14.6	0.00e+00	0	42	0	315621376	19	4736
2026-01-12 10:47:34.27	182.02	25.50	-29.3	-31.5	14.7	0.00e+00	0	42	0	317718528	19	4667
2026-01-12 10:47:35.28	182.11	25.66	-29.3	-31.6	14.7	1.50e-06	0	42	0	319815680	19	4699
2026-01-12 10:47:36.28	182.20	25.81	-29.4	-31.8	14.6	2.20e-06	0	42	0	321912832	19	4759
2026-01-12 10:47:37.28	182.29	25.97	-29.2	-31.4	14.8	0.00e+00	0	42	0	322961408	19	4641
2026-01-12 10:47:38.29	182.39	26.13	-29.3	-31.6	14.7	0.00e+00	0	42	0	325058560	19	4680
2026-01-12 10:47:39.29	182.48	26.29	-29.3	-31.6	14.7	7.00e-07	0	42	0	327155712	19	4685
2026-01-12 10:47:40.29	182.57	26.45	-29.3	-31.6	14.7	0.00e+00	0	41	0	329252864	19	4691
2026-01-12 10:47:41.29	182.67	26.61	-29.3	-31.6	14.7	0.00e+00	0	42	0	331350016	19	4695
2026-01-12 10:47:42.30	182.77	26.78	-29.3	-31.6	14.7	0.00e+00	0	42	0	332398592	19	4680
2026-01-12 10:47:43.30	182.86	26.94	-29.3	-31.7	14.7	7.00e-07	0	42	0	334495744	19	4717
2026-01-12 10:47:44.31	182.96	27.11	-29.3	-31.5	14.8	0.00e+00	0	42	0	336592896	19	4674
2026-01-12 10:47:45.31	183.06	27.27	-29.3	-31.5	14.8	7.00e-07	0	42	0	338690048	19	4664
2026-01-12 10:47:46.32	183.16	27.44	-29.3	-31.6	14.7	0.00e+00	0	42	0	340787200	19	4709
2026-01-12 10:47:47.33	183.26	27.61	-29.4	-31.9	14.6	7.00e-07	0	42	0	341835776	19	4781
2026-01-12 10:47:48.34	183.37	27.78	-29.2	-31.4	14.8	0.00e+00	0	42	0	343932928	19	4636
2026-01-12 10:47:49.34	183.47	27.95	-29.3	-31.5	14.8	0.00e+00	0	42	0	346030080	19	4653
2026-01-12 10:47:50.34	183.57	28.11	-29.4	-31.8	14.6	0.00e+00	0	42	0	348127232	19	4751
2026-01-12 10:47:51.35	183.68	28.29	-29.3	-31.6	14.7	0.00e+00	0	42	0	350224384	19	4698
2026-01-12 10:47:52.36	183.79	28.46	-29.4	-31.8	14.6	0.00e+00	0	42	0	351272960	19	4758
2026-01-12 10:47:53.36	183.89	28.63	-29.5	-32.0	14.5	0.00e+00	0	42	0	353370112	19	4820
2026-01-12 10:47:54.37	184.00	28.81	-29.6	-32.4	14.3	2.20e-06	0	42	0	355467264	19	4958
2026-01-12 10:47:55.38	184.11	28.98	-29.7	-32.6	14.1	2.20e-06	0	42	0	357564416	19	5024
2026-01-12 10:47:56.39	184.22	29.16	-29.8	-33.0	13.9	3.00e-06	0	42	0	359661568	19	5171
2026-01-12 10:47:57.39	184.34	29.34	-30.0	-33.3	13.7	2.20e-06	0	42	0	360710144	19	5305
2026-01-12 10:47:58.38	184.45	29.51	-30.0	-32.9	13.5	8.30e-06	0	42	0	362807296	20	5042
2026-01-12 10:47:59.39	184.56	29.69	-30.0	-33.1	13.4	9.10e-06	0	42	0	364904448	20	5104
2026-01-12 10:48:00.40	184.68	29.87	-30.0	-33.1	13.4	1.29e-05	0	42	0	367001600	20	5109
2026-01-12 10:48:01.40	184.80	30.05	-30.1	-33.1	13.4	1.06e-05	0	42	0	369098752	20	5133
2026-01-12 10:48:02.40	184.91	30.24	-30.0	-33.1	13.4	2.21e-05	0	42	0	370147328	20	5109
2026-01-12 10:48:03.40	185.03	30.42	-30.0	-33.0	13.5	8.30e-06	0	42	0	372244480	20	5088
2026-01-12 10:48:04.41	185.16	30.60	-30.1	-33.4	13.3	2.05e-05	0	42	0	374341632	20	5211
2026-01-12 10:48:05.42	185.28	30.79	-30.2	-33.4	13.2	2.51e-05	0	42	0	376438784	20	5222
2026-01-12 10:48:06.42	185.40	30.98	-30.3	-33.8	13.0	2.97e-05	0	42	0	378535936	20	5393
2026-01-12 10:48:07.43	185.53	31.16	-30.4	-34.0	12.8	5.72e-05	0	42	0	379584512	20	5481
2026-01-12 10:48:08.44	185.65	31.35	-30.4	-34.2	12.7	5.87e-05	0	42	0	381681664	20	5526
2026-01-12 10:48:09.44	185.78	31.54	-30.6	-34.2	12.4	1.14e-04	0	42	0	383778816	21	5421
2026-01-12 10:48:10.44	185.91	31.73	-30.8	-34.7	12.0	3.07e-04	0	42	0	385875968	21	5640
2026-01-12 10:48:11.44	186.04	31.92	-30.8	-34.8	12.0	3.18e-04	0	42	0	387973120	21	5680
2026-01-12 10:48:12.45	186.17	32.12	-30.8	-34.9	11.9	3.57e-04	0	42	0	389021696	21	5737
2026-01-12 10:48:13.45	186.31	32.31	-30.8	-34.9	11.9	3.37e-04	0	42	0	391118848	21	5717
2026-01-12 10:48:14.46	186.44	32.51	-30.9	-34.9	11.9	4.82e-04	0	42	0	393216000	21	5742
2026-01-12 10:48:15.46	186.58	32.70	-30.8	-34.7	12.0	3.04e-04	0	42	0	395313152	21	5663
2026-01-12 10:48:16.47	186.72	32.90	-30.8	-34.7	12.1	2.69e-04	0	42	0	397410304	21	5651
2026-01-12 10:48:17.48	186.86	33.10	-30.8	-34.8	12.0	3.32e-04	0	42	0	398458880	21	5693
2026-01-12 10:48:18.48	187.00	33.30	-30.9	-35.1	11.8	3.84e-04	0	42	0	400556032	21	5811
2026-01-12 10:48:19.49	187.15	33.50	-30.9	-34.6	11.8	6.68e-04	0	42	0	402653184	22	5498
2026-01-12 10:48:20.50	187.29	33.70	-30.9	-34.5	11.9	3.71e-04	0	42	0	404750336	22	5458
2026-01-12 10:48:21.50	187.44	33.90	-30.8	-34.2	12.1	3.00e-04	0	42	0	406847488	22	5325
2026-01-12 10:48:22.51	187.59	34.11	-30.9	-34.5	11.9	2.58e-04	0	42	0	407896064	22	5433
2026-01-12 10:48:23.52	187.74	34.32	-30.9	-34.5	11.9	4.35e-04	0	42	0	409993216	22	5434
2026-01-12 10:48:24.53	187.90	34.52	-30.9	-34.4	12.0	3.62e-04	0	42	0	412090368	22	5384
2026-01-12 10:48:25.53	188.05	34.73	-31.0	-34.7	11.8	3.36e-04	0	42	0	414187520	22	5512
2026-01-12 10:48:26.53	188.21	34.94	-31.0	-34.7	11.7	4.62e-04	0	42	0	416284672	22	5544
2026-01-12 10:48:27.54	188.37	35.15	-31.1	-35.0	11.6	5.08e-04	0	42	0	417333248	22	5680
2026-01-12 10:48:28.55	188.53	35.36	-31.2	-35.4	11.3	7.67e-04	0	42	0	419430400	22	5839
2026-01-12 10:48:29.56	188.69	35.57	-31.1	-35.1	11.5	1.08e-03	0	42	0	421527552	22	5707
2026-01-12 10:48:30.56	188.86	35.79	-31.1	-35.1	11.5	9.06e-04	0	42	0	423624704	22	5703
2026-01-12 10:48:31.57	189.02	36.00	-31.0	-34.7	11.8	5.84e-04	0	42	0	425721856	22	5537
2026-01-12 10:48:32.58	189.19	36.22	-31.0	-34.8	11.8	5.09e-04	0	42	0	426770432	22	5558
2026-01-12 10:48:33.58	189.36	36.43	-30.9	-34.5	12.0	4.51e-04	0	42	0	428867584	22	5456
2026-01-12 10:48:34.59	189.54	36.65	-30.9	-34.6	11.9	3.35e-04	0	42	0	430964736	22	5488
2026-01-12 10:48:35.60	189.72	36.87	-31.0	-34.7	11.8	4.00e-04	0	42	0	433061888	22	5546
2026-01-12 10:48:36.60	189.89	37.09	-31.1	-35.2	11.4	7.31e-04	0	42	0	435159040	22	5757
2026-01-12 10:48:37.60	190.07	37.31	-31.1	-35.1	11.5	7.93e-04	0	42	0	436207616	22	5687
2026-01-12 10:48:38.61	190.26	37.54	-31.2	-35.4	11.3	8.85e-04	0	42	0	438304768	22	5831
2026-01-12 10:48:39.62	190.44	37.76	-31.3	-35.6	11.2	1.24e-03	0	42	0	440401920	22	5955
2026-01-12 10:48:40.62	190.63	37.99	-31.3	-35.7	11.1	1.69e-03	0	42	0	442499072	22	5985
2026-01-12 10:48:41.63	190.82	38.21	-31.3	-35.8	11.0	1.62e-03	0	42	0	443547648	22	6024
2026-01-12 10:48:42.63	191.02	38.44	-31.3	-35.8	11.1	1.97e-03	0	42	0	445644800	22	6037
2026-01-12 10:48:43.64	191.21	38.67	-31.5	-36.3	10.7	2.45e-03	0	42	0	447741952	22	6261
2026-01-12 10:48:44.64	191.41	38.90	-31.5	-36.0	10.6	3.28e-03	0	42	0	449839104	23	5990
2026-01-12 10:48:45.65	191.61	39.13	-31.4	-35.4	11.0	3.03e-03	0	42	0	451936256	23	5714
2026-01-12 10:48:46.65	191.82	39.36	-31.4	-35.5	10.9	1.90e-03	0	42	0	454033408	23	5763
2026-01-12 10:48:47.66	192.02	39.60	-31.4	-35.5	11.0	1.83e-03	0	42	0	455081984	23	5746
2026-01-12 10:48:48.66	192.23	39.83	-31.3	-35.1	11.3	1.92e-03	0	42	0	457179136	23	5591
2026-01-12 10:48:49.67	192.45	40.07	-31.2	-34.7	11.5	9.17e-04	0	42	0	459276288	23	5413
2026-01-12 10:48:50.67	192.66	40.30	-31.1	-34.5	11.6	6.86e-04	0	42	0	461373440	23	5331
2026-01-12 10:48:51.68	192.88	40.54	-31.1	-34.4	11.7	4.92e-04	0	42	0	462422016	23	5298
2026-01-12 10:48:52.69	193.11	40.78	-31.2	-34.7	11.5	7.66e-04	0	42	0	464519168	23	5419
2026-01-12 10:48:53.69	193.33	41.02	-31.0	-34.2	11.8	5.38e-04	0	42	0	466616320	23	5221
2026-01-12 10:48:54.70	193.56	41.26	-30.7	-33.8	12.5	1.59e-04	0	42	0	468713472	22	5151
2026-01-12 10:48:55.70	193.79	41.50	-30.5	-33.2	12.9	7.62e-05	0	42	0	470810624	22	4907
2026-01-12 10:48:56.71	194.03	41.75	-30.4	-33.0	13.1	3.35e-05	0	42	0	471859200	22	4856
2026-01-12 10:48:57.72	194.27	41.99	-30.3	-33.1	13.3	1.52e-05	0	42	0	473956352	21	4973
2026-01-12 10:48:58.73	194.51	42.24	-30.1	-32.6	13.5	1.83e-05	0	42	0	476053504	21	4820
2026-01-12 10:48:59.73	194.76	42.49	-30.3	-33.0	13.4	6.80e-06	0	42	0	478150656	21	4959
2026-01-12 10:49:00.74	195.01	42.74	-30.2	-32.8	13.5	9.10e-06	0	42	0	480247808	21	4890
2026-01-12 10:49:01.74	195.26	42.98	-30.0	-32.5	13.7	6.10e-06	0	42	0	482344960	21	4757
2026-01-12 10:49:02.74	195.52	43.23	-30.0	-32.4	13.8	7.00e-07	0	42	0	483393536	21	4717
2026-01-12 10:49:03.75	195.78	43.48	-30.1	-32.5	13.7	5.30e-06	0	42	0	485490688	21	4766
2026-01-12 10:49:04.75	196.05	43.73	-30.3	-33.1	13.4	1.06e-05	0	42	0	487587840	21	4963
2026-01-12 10:49:05.75	196.32	43.99	-30.6	-33.9	12.8	4.04e-05	0	42	0	489684992	21	5295
2026-01-12 10:49:06.76	196.59	44.24	-30.5	-33.7	12.9	8.46e-05	0	42	0	490733568	21	5208
2026-01-12 10:49:07.76	196.87	44.49	-30.4	-33.4	13.1	4.27e-05	0	42	0	492830720	21	5079
2026-01-12 10:49:08.77	197.16	44.75	-30.4	-33.3	13.2	3.05e-05	0	42	0	494927872	21	5061
2026-01-12 10:49:09.78	197.45	45.01	-30.3	-33.3	13.2	1.90e-05	0	42	0	497025024	21	5045
2026-01-12 10:49:10.79	197.74	45.27	-30.3	-33.1	13.3	2.59e-05	0	42	0	499122176	21	4981
2026-01-12 10:49:11.79	198.04	45.52	-30.3	-33.3	13.3	2.13e-05	0	42	0	500170752	21	5035
2026-01-12 10:49:12.80	198.34	45.78	-30.6	-33.8	12.9	3.05e-05	0	42	0	502267904	21	5251
2026-01-12 10:49:13.80	198.64	46.04	-31.0	-35.1	12.1	2.25e-04	0	42	0	504365056	21	5768
2026-01-12 10:49:14.80	198.96	46.30	-31.1	-34.9	11.9	4.87e-04	0	42	0	506462208	22	5565
2026-01-12 10:49:15.80	199.27	46.56	-31.0	-34.7	12.0	3.23e-04	0	42	0	508559360	22	5491
2026-01-12 10:49:16.81	199.59	46.83	-31.1	-35.1	11.7	5.56e-04	0	42	0	509607936	22	5665
2026-01-12 10:49:17.81	199.92	47.09	-31.1	-35.0	11.8	5.07e-04	0	42	0	511705088	22	5626
2026-01-12 10:49:18.81	200.25	47.35	-31.0	-34.6	12.1	4.97e-04	0	42	0	513802240	22	5440
2026-01-12 10:49:19.81	200.59	47.61	-30.6	-33.6	12.8	1.80e-04	0	42	0	515899392	22	5044
2026-01-12 10:49:20.81	200.93	47.87	-30.5	-33.1	13.1	3.05e-05	0	42	0	517996544	22	4881
2026-01-12 10:49:21.82	201.29	48.14	-30.5	-33.0	13.2	3.28e-05	0	42	0	519045120	22	4848
2026-01-12 10:49:22.82	201.64	48.40	-30.4	-32.8	13.4	2.59e-05	0	42	0	521142272	22	4771
2026-01-12 10:49:23.83	202.00	48.67	-30.5	-33.3	13.0	2.28e-05	0	42	0	523239424	22	4926
2026-01-12 10:49:24.84	202.37	48.94	-30.8	-34.0	12.5	1.23e-04	0	42	0	525336576	22	5196
2026-01-12 10:49:25.85	202.75	49.21	-30.8	-33.9	12.6	1.27e-04	0	42	0	527433728	22	5173
2026-01-12 10:49:26.85	203.13	49.47	-30.5	-33.1	13.1	8.54e-05	0	42	0	528482304	22	4867
2026-01-12 10:49:27.86	203.52	49.74	-30.1	-32.6	13.8	1.14e-05	0	42	0	530579456	21	4781
2026-01-12 10:49:28.86	203.91	50.01	-30.0	-32.4	13.9	3.00e-06	0	42	0	532676608	21	4725
2026-01-12 10:49:29.86	204.31	50.27	-30.2	-32.9	13.6	6.80e-06	0	42	0	534773760	21	4893
2026-01-12 10:49:30.86	204.72	50.54	-29.8	-31.8	14.2	6.10e-06	0	42	0	536870912	21	4509
2026-01-12 10:49:31.87	205.14	50.81	-29.9	-32.5	14.2	2.20e-06	0	42	0	537919488	20	4848
2026-01-12 10:49:32.87	205.56	51.07	-29.6	-31.7	14.6	3.00e-06	0	42	0	540016640	20	4585
2026-01-12 10:49:33.88	205.99	51.34	-29.3	-31.5	15.2	0.00e+00	0	42	0	542113792	19	4631
2026-01-12 10:49:34.89	206.44	51.61	-29.0	-30.7	15.7	0.00e+00	0	42	0	544210944	19	4377
2026-01-12 10:49:35.90	206.88	51.88	-28.8	-30.3	15.9	0.00e+00	0	42	0	546308096	19	4251
2026-01-12 10:49:36.91	207.34	52.15	-29.0	-30.7	15.7	0.00e+00	0	42	0	547356672	19	4361
2026-01-12 10:49:37.91	207.80	52.41	-28.8	-30.2	15.9	0.00e+00	0	42	0	549453824	19	4232
2026-01-12 10:49:38.92	208.28	52.68	-28.6	-30.1	16.3	0.00e+00	0	42	0	551550976	18	4314
2026-01-12 10:49:39.93	208.76	52.95	-29.0	-31.1	15.7	0.00e+00	0	42	0	553648128	18	4618
2026-01-12 10:49:40.93	209.24	53.21	-28.7	-30.5	16.1	0.00e+00	0	42	0	555745280	18	4422
2026-01-12 10:49:41.93	209.74	53.47	-28.5	-29.9	16.4	0.00e+00	0	42	0	556793856	18	4237
2026-01-12 10:49:42.93	210.24	53.73	-28.4	-29.7	16.6	0.00e+00	0	42	0	558891008	18	4179
2026-01-12 10:49:43.93	210.76	53.99	-28.4	-29.8	16.5	0.00e+00	0	42	0	560988160	18	4220
2026-01-12 10:49:44.94	211.28	54.26	-28.6	-30.2	16.3	0.00e+00	0	42	0	563085312	18	4331
2026-01-12 10:49:45.95	211.82	54.52	-29.0	-31.2	15.7	0.00e+00	0	42	0	565182464	18	4636
2026-01-12 10:49:46.96	212.37	54.78	-29.0	-31.3	15.7	0.00e+00	0	42	0	566231040	18	4664
2026-01-12 10:49:47.96	212.92	55.03	-29.7	-32.5	14.6	0.00e+00	0	42	0	568328192	19	4960
2026-01-12 10:49:48.97	213.48	55.29	-29.5	-32.0	14.9	0.00e+00	0	42	0	570425344	19	4778
2026-01-12 10:49:49.97	214.06	55.54	-29.8	-32.7	14.5	0.00e+00	0	42	0	572522496	19	5026
2026-01-12 10:49:50.97	214.64	55.80	-29.5	-31.8	15.0	0.00e+00	0	42	0	573571072	19	4724
2026-01-12 10:49:51.98	215.24	56.05	-29.5	-31.9	15.0	0.00e+00	0	42	0	575668224	19	4744
2026-01-12 10:49:52.98	215.84	56.30	-29.7	-32.5	14.6	0.00e+00	0	42	0	577765376	19	4938
2026-01-12 10:49:53.98	216.45	56.54	-30.1	-33.0	13.9	1.50e-06	0	42	0	579862528	20	5017
2026-01-12 10:49:54.99	217.08	56.79	-30.4	-33.8	13.4	1.44e-05	0	42	0	581959680	20	5346
2026-01-12 10:49:55.99	217.72	57.03	-30.3	-33.6	13.5	1.06e-05	0	42	0	584056832	20	5269
2026-01-12 10:49:57.00	218.37	57.27	-30.3	-33.4	13.6	5.30e-06	0	42	0	585105408	20	5194
2026-01-12 10:49:58.01	219.03	57.51	-30.3	-33.6	13.6	9.10e-06	0	42	0	587202560	20	5247
2026-01-12 10:49:59.00	219.70	57.74	-30.5	-33.6	13.3	9.90e-06	0	42	0	589299712	21	5159
2026-01-12 10:50:00.00	220.38	57.97	-30.5	-33.6	13.2	2.89e-05	0	42	0	591396864	21	5125
2026-01-12 10:50:01.01	221.08	58.21	-30.5	-33.7	13.1	2.44e-05	0	42	0	592445440	21	5182
2026-01-12 10:50:02.01	221.78	58.43	-30.5	-33.7	13.2	9.90e-06	0	42	0	594542592	21	5161
2026-01-12 10:50:03.02	222.51	58.66	-30.8	-34.5	12.6	4.42e-05	0	42	0	596639744	21	5495
2026-01-12 10:50:04.02	223.23	58.87	-30.3	-33.1	13.5	1.90e-05	0	42	0	598736896	21	4952
2026-01-12 10:50:05.03	223.98	59.09	-29.9	-31.9	14.3	3.00e-06	0	42	0	600834048	21	4532
2026-01-12 10:50:06.03	224.73	59.30	-29.5	-31.3	15.0	7.00e-07	0	42	0	601882624	20	4468
2026-01-12 10:50:07.04	225.51	59.51	-29.3	-31.0	15.2	0.00e+00	0	42	0	603979776	20	4358
2026-01-12 10:50:08.03	226.28	59.71	-29.2	-31.0	15.6	0.00e+00	0	42	0	606076928	19	4468
2026-01-12 10:50:09.04	227.07	59.92	-28.6	-30.2	16.3	0.00e+00	0	42	0	608174080	18	4330
2026-01-12 10:50:10.04	227.87	60.11	-28.5	-30.0	16.4	0.00e+00	0	42	0	610271232	18	4274
2026-01-12 10:50:11.05	228.69	60.30	-28.9	-31.0	15.9	7.00e-07	0	42	0	611319808	18	4572
2026-01-12 10:50:12.05	229.52	60.49	-28.9	-31.0	15.9	0.00e+00	0	42	0	613416960	18	4555
2026-01-12 10:50:13.06	230.37	60.67	-28.8	-30.7	16.0	0.00e+00	0	42	0	615514112	18	4485
2026-01-12 10:50:14.05	231.21	60.85	-29.0	-31.1	15.8	0.00e+00	0	42	0	617611264	18	4582
2026-01-12 10:50:15.06	232.08	61.02	-29.1	-31.3	15.7	0.00e+00	0	42	0	619708416	18	4672
2026-01-12 10:50:16.07	232.96	61.19	-29.5	-32.3	15.1	0.00e+00	0	42	0	620756992	18	5000
2026-01-12 10:50:17.07	233.84	61.35	-29.1	-31.4	15.6	0.00e+00	0	42	0	622854144	18	4696
2026-01-12 10:50:18.08	234.74	61.51	-28.8	-30.6	16.1	0.00e+00	0	42	0	624951296	18	4454
2026-01-12 10:50:19.08	235.65	61.66	-28.8	-30.6	16.1	0.00e+00	0	42	0	627048448	18	4446
2026-01-12 10:50:20.09	236.58	61.80	-28.9	-30.8	15.9	0.00e+00	0	42	0	629145600	18	4520
2026-01-12 10:50:21.09	237.50	61.94	-29.1	-31.4	15.7	0.00e+00	0	42	0	630194176	18	4683
2026-01-12 10:50:22.09	238.44	62.07	-29.3	-31.8	15.4	0.00e+00	0	42	0	632291328	18	4824
2026-01-12 10:50:23.10	239.40	62.20	-28.9	-30.9	15.9	0.00e+00	0	42	0	634388480	18	4529
2026-01-12 10:50:24.10	240.36	62.32	-28.7	-30.4	16.2	0.00e+00	0	42	0	636485632	18	4389
2026-01-12 10:50:25.11	241.33	62.43	-28.9	-30.9	16.0	0.00e+00	0	42	0	638582784	18	4520
2026-01-12 10:50:26.11	242.31	62.53	-28.8	-30.7	16.1	0.00e+00	0	42	0	639631360	18	4478
2026-01-12 10:50:27.11	243.29	62.63	-29.3	-31.9	15.4	0.00e+00	0	42	0	641728512	18	4845
2026-01-12 10:50:28.12	244.29	62.72	-29.4	-31.8	15.1	0.00e+00	0	42	0	643825664	19	4699
2026-01-12 10:50:29.12	245.29	62.81	-29.6	-32.2	14.8	0.00e+00	0	42	0	645922816	19	4835
2026-01-12 10:50:30.13	246.30	62.89	-28.9	-30.5	15.9	0.00e+00	0	42	0	646971392	19	4305
2026-01-12 10:50:31.13	247.31	62.96	-28.8	-30.6	16.2	0.00e+00	0	42	0	649068544	18	4430
2026-01-12 10:50:32.13	248.33	63.02	-29.2	-31.7	15.5	0.00e+00	0	42	0	651165696	18	4772
2026-01-12 10:50:33.14	249.36	63.07	-29.6	-32.2	14.8	0.00e+00	0	42	0	653262848	19	4848
2026-01-12 10:50:34.14	250.39	63.12	-29.2	-31.3	15.5	0.00e+00	0	42	0	655360000	19	4538
2026-01-12 10:50:35.14	251.42	63.16	-28.9	-30.4	15.9	0.00e+00	0	42	0	657457152	19	4289
2026-01-12 10:50:36.15	252.46	63.19	-28.7	-30.3	16.3	0.00e+00	0	42	0	658505728	18	4347
2026-01-12 10:50:37.15	253.49	63.22	-29.0	-31.3	15.8	0.00e+00	0	42	0	660602880	18	4645
2026-01-12 10:50:38.16	254.54	63.23	-29.1	-31.4	15.6	0.00e+00	0	42	0	662700032	18	4693
2026-01-12 10:50:39.17	255.59	63.24	-29.0	-31.1	15.8	7.00e-07	0	42	0	664797184	18	4599
2026-01-12 10:50:40.17	256.63	63.25	-28.3	-29.9	16.8	0.00e+00	0	42	0	665845760	17	4351
2026-01-12 10:50:41.18	257.67	63.24	-27.9	-29.1	17.3	0.00e+00	0	42	0	667942912	17	4109
2026-01-12 10:50:42.18	258.71	63.22	-28.1	-29.6	17.0	1.50e-06	0	42	0	670040064	17	4244
2026-01-12 10:50:43.19	259.76	63.20	-28.0	-29.4	17.1	0.00e+00	0	42	0	672137216	17	4193
2026-01-12 10:50:44.20	260.80	63.17	-27.9	-29.1	17.2	0.00e+00	0	42	0	674234368	17	4112
2026-01-12 10:50:45.20	261.83	63.14	-28.0	-29.3	17.1	1.50e-06	0	42	0	675282944	17	4176
2026-01-12 10:50:46.21	262.87	63.09	-27.9	-29.0	17.3	0.00e+00	0	42	0	677380096	17	4092
2026-01-12 10:50:47.21	263.89	63.04	-28.2	-29.8	16.9	0.00e+00	0	42	0	679477248	17	4306
2026-01-12 10:50:48.22	264.92	62.98	-28.5	-30.3	16.5	1.50e-06	0	42	0	681574400	17	4473
2026-01-12 10:50:49.22	265.93	62.91	-28.2	-29.8	16.9	0.00e+00	0	42	0	683671552	17	4319
2026-01-12 10:50:50.23	266.95	62.84	-28.2	-29.6	16.9	0.00e+00	0	42	0	684720128	17	4267
2026-01-12 10:50:51.23	267.95	62.75	-28.2	-29.6	16.9	0.00e+00	0	42	0	686817280	17	4270
2026-01-12 10:50:52.23	268.94	62.66	-28.1	-29.5	17.0	0.00e+00	0	42	0	688914432	17	4219
2026-01-12 10:50:53.24	269.93	62.57	-28.0	-29.3	17.1	0.00e+00	0	42	0	691011584	17	4188
2026-01-12 10:50:54.24	270.91	62.47	-28.1	-29.6	17.0	0.00e+00	0	42	0	693108736	17	4247
2026-01-12 10:50:55.25	271.89	62.35	-28.4	-30.2	16.7	0.00e+00	0	42	0	694157312	17	4422
2026-01-12 10:50:56.25	272.85	62.24	-28.4	-30.3	16.6	0.00e+00	0	42	0	696254464	17	4460
2026-01-12 10:50:57.26	273.81	62.11	-28.8	-31.2	16.1	3.00e-06	0	42	0	698351616	17	4735
2026-01-12 10:50:58.27	274.75	61.98	-28.6	-30.7	16.3	0.00e+00	0	42	0	700448768	17	4595
2026-01-12 10:50:59.27	275.68	61.85	-28.7	-31.0	16.2	0.00e+00	0	42	0	702545920	17	4662
2026-01-12 10:51:00.28	276.61	61.71	-29.2	-31.5	15.5	0.00e+00	0	42	0	703594496	18	4734
2026-01-12 10:51:01.27	277.51	61.56	-29.6	-32.1	14.9	0.00e+00	0	42	0	705691648	19	4827
2026-01-12 10:51:02.28	278.42	61.41	-29.7	-32.5	14.7	0.00e+00	0	42	0	707788800	19	4940
2026-01-12 10:51:03.29	279.32	61.25	-29.3	-31.4	15.3	0.00e+00	0	42	0	709885952	19	4575
2026-01-12 10:51:04.30	280.20	61.08	-29.2	-31.2	15.5	0.00e+00	0	42	0	711983104	19	4518
2026-01-12 10:51:05.31	281.07	60.91	-29.5	-32.0	15.0	7.00e-07	0	42	0	713031680	19	4775
2026-01-12 10:51:06.31	281.92	60.73	-29.8	-32.6	14.6	0.00e+00	0	42	0	715128832	19	4971
2026-01-12 10:51:07.32	282.77	60.55	-30.0	-32.9	14.0	1.50e-06	0	42	0	717225984	20	4988
2026-01-12 10:51:08.33	283.61	60.37	-30.0	-32.7	14.1	4.50e-06	0	42	0	719323136	20	4924
2026-01-12 10:51:09.33	284.42	60.18	-29.6	-31.7	14.8	0.00e+00	0	42	0	721420288	20	4577
2026-01-12 10:51:10.33	285.23	59.98	-29.6	-31.9	14.7	0.00e+00	0	42	0	722468864	20	4650
2026-01-12 10:51:11.34	286.03	59.78	-29.9	-32.6	14.2	1.50e-06	0	42	0	724566016	20	4903
2026-01-12 10:51:12.36	286.82	59.58	-30.0	-32.7	14.1	6.80e-06	0	42	0	726663168	20	4939
2026-01-12 10:51:13.36	287.59	59.37	-30.1	-33.0	13.9	3.80e-06	0	42	0	728760320	20	5028
2026-01-12 10:51:14.36	288.34	59.16	-30.6	-33.9	13.1	3.28e-05	0	42	0	730857472	21	5243
2026-01-12 10:51:15.37	289.09	58.95	-30.7	-34.1	13.0	3.81e-05	0	42	0	731906048	21	5323
2026-01-12 10:51:16.37	289.82	58.73	-30.5	-33.8	13.0	7.32e-05	0	42	0	734003200	21	5215
2026-01-12 10:51:17.37	290.54	58.51	-30.1	-32.5	13.8	1.98e-05	0	42	0	736100352	21	4781
2026-01-12 10:51:18.37	291.25	58.29	-29.7	-32.1	14.5	7.00e-07	0	42	0	738197504	20	4713
2026-01-12 10:51:19.38	291.95	58.06	-29.5	-31.3	15.0	0.00e+00	0	42	0	740294656	20	4445
2026-01-12 10:51:20.39	292.64	57.82	-29.9	-32.5	14.3	0.00e+00	0	42	0	741343232	20	4842
2026-01-12 10:51:21.39	293.31	57.59	-30.2	-33.3	13.8	3.80e-06	0	42	0	743440384	20	5136
2026-01-12 10:51:22.40	293.98	57.35	-29.9	-32.6	14.2	3.80e-06	0	42	0	745537536	20	4862
2026-01-12 10:51:23.41	294.64	57.11	-29.6	-31.7	14.8	0.00e+00	0	42	0	747634688	20	4571
2026-01-12 10:51:24.41	295.27	56.87	-29.7	-31.8	14.7	7.00e-07	0	42	0	749731840	20	4621
2026-01-12 10:51:25.41	295.90	56.63	-29.6	-31.6	14.9	7.00e-07	0	42	0	750780416	20	4539
2026-01-12 10:51:26.42	296.52	56.38	-29.2	-31.1	15.5	0.00e+00	0	42	0	752877568	19	4487
2026-01-12 10:51:27.43	297.13	56.14	-29.1	-30.9	15.7	0.00e+00	0	42	0	754974720	19	4415
2026-01-12 10:51:28.43	297.73	55.89	-28.9	-30.4	15.9	0.00e+00	0	42	0	757071872	19	4270
2026-01-12 10:51:29.43	298.31	55.64	-28.4	-29.6	16.7	0.00e+00	0	42	0	759169024	18	4159
2026-01-12 10:51:30.43	298.88	55.39	-28.1	-29.5	17.0	0.00e+00	0	42	0	760217600	17	4223
2026-01-12 10:51:31.44	299.45	55.13	-28.1	-29.5	17.0	0.00e+00	0	42	0	762314752	17	4227
2026-01-12 10:51:32.44	300.01	54.87	-27.8	-29.2	17.4	0.00e+00	0	42	0	764411904	16	4266
2026-01-12 10:51:33.45	300.56	54.62	-27.4	-28.5	17.9	0.00e+00	0	42	0	766509056	16	4066
2026-01-12 10:51:34.45	301.09	54.36	-27.8	-29.3	17.4	0.00e+00	0	42	0	768606208	16	4297
2026-01-12 10:51:35.46	301.62	54.10	-27.9	-29.6	17.2	0.00e+00	0	42	0	769654784	16	4367
2026-01-12 10:51:36.46	302.13	53.84	-27.3	-28.3	17.9	0.00e+00	0	42	0	771751936	16	4010
2026-01-12 10:51:37.47	302.64	53.58	-26.7	-27.9	18.5	0.00e+00	0	42	0	773849088	14	4131
2026-01-12 10:51:38.48	303.15	53.31	-26.7	-28.0	18.5	0.00e+00	0	42	0	775946240	14	4144
2026-01-12 10:51:39.48	303.63	53.05	-27.2	-29.1	17.9	0.00e+00	0	42	0	778043392	14	4464
2026-01-12 10:51:40.49	304.12	52.78	-27.7	-29.6	17.3	0.00e+00	0	42	0	779091968	15	4499
2026-01-12 10:51:41.50	304.59	52.52	-27.6	-29.3	17.5	0.00e+00	0	42	0	781189120	15	4406
2026-01-12 10:51:42.50	305.06	52.25	-27.3	-28.7	17.8	0.00e+00	0	42	0	783286272	15	4233
2026-01-12 10:51:43.50	305.51	51.99	-27.3	-28.7	17.9	0.00e+00	0	42	0	785383424	15	4229
2026-01-12 10:51:44.50	305.96	51.73	-27.4	-29.0	17.6	0.00e+00	0	42	0	787480576	15	4328
2026-01-12 10:51:45.50	306.39	51.46	-27.8	-29.9	17.2	0.00e+00	0	42	0	788529152	15	4577
2026-01-12 10:51:46.51	306.83	51.19	-28.6	-30.8	16.3	0.00e+00	0	42	0	790626304	17	4603
2026-01-12 10:51:47.51	307.25	50.93	-29.3	-32.0	15.3	0.00e+00	0	42	0	792723456	18	4876
2026-01-12 10:51:48.51	307.67	50.66	-29.1	-31.5	15.6	0.00e+00	0	42	0	794820608	18	4704
2026-01-12 10:51:49.51	308.08	50.40	-28.9	-31.0	15.8	0.00e+00	0	42	0	795869184	18	4566
2026-01-12 10:51:50.52	308.48	50.13	-29.4	-32.2	15.1	2.20e-06	0	42	0	797966336	18	4943
2026-01-12 10:51:51.52	308.88	49.87	-30.3	-33.6	13.6	2.20e-06	0	42	0	800063488	20	5248
2026-01-12 10:51:52.52	309.27	49.60	-31.4	-35.7	11.5	2.37e-04	0	42	0	802160640	22	5923
2026-01-12 10:51:53.53	309.65	49.33	-31.7	-36.1	10.8	2.21e-03	0	42	0	804257792	23	6006
2026-01-12 10:51:54.52	310.02	49.07	-31.4	-35.4	11.3	2.38e-03	0	42	0	805306368	23	5645
2026-01-12 10:51:55.53	310.39	48.81	-31.3	-34.9	11.7	5.71e-04	0	42	0	807403520	23	5448
2026-01-12 10:51:56.53	310.76	48.54	-31.6	-35.7	11.1	1.22e-03	0	42	0	809500672	23	5820
2026-01-12 10:51:57.54	311.12	48.28	-31.6	-35.8	11.0	2.23e-03	0	42	0	811597824	23	5869
2026-01-12 10:51:58.53	311.46	48.02	-31.7	-36.2	10.7	2.16e-03	0	42	0	813694976	23	6056
2026-01-12 10:51:59.54	311.81	47.75	-32.1	-36.9	9.8	5.77e-03	0	42	0	814743552	24	6304
2026-01-12 10:52:00.53	312.15	47.49	-32.6	-38.5	8.2	2.14e-02	0	42	0	816840704	25	7141
2026-01-12 10:52:01.54	312.48	47.23	-32.7	-38.9	7.8	9.67e-02	0	42	0	818937856	25	7425
2026-01-12 10:52:02.55	312.81	46.97	-32.0	-36.3	9.8	2.27e-02	0	42	0	821035008	25	5912
2026-01-12 10:52:03.56	313.14	46.70	-31.5	-35.1	11.2	2.57e-03	0	42	0	823132160	24	5408
2026-01-12 10:52:04.56	313.46	46.45	-31.8	-36.1	10.5	1.70e-03	0	42	0	824180736	24	5865
2026-01-12 10:52:05.57	313.77	46.18	-32.3	-37.9	9.1	1.58e-02	0	42	0	826277888	24	6885
2026-01-12 10:52:06.58	314.08	45.92	-32.5	-38.2	8.4	4.85e-02	0	42	0	828375040	25	6973
2026-01-12 10:52:07.58	314.38	45.67	-31.9	-36.0	10.1	2.50e-02	0	42	0	830472192	25	5741
2026-01-12 10:52:08.59	314.68	45.41	-31.3	-34.7	11.8	1.01e-03	0	42	0	832569344	23	5375
2026-01-12 10:52:09.59	314.98	45.15	-31.2	-34.5	11.9	2.94e-04	0	42	0	833617920	23	5264
2026-01-12 10:52:10.60	315.27	44.90	-31.6	-36.0	10.9	8.22e-04	0	42	0	835715072	23	5960
2026-01-12 10:52:11.60	315.55	44.64	-32.0	-36.8	9.9	8.46e-03	0	42	0	837812224	24	6245
2026-01-12 10:52:12.60	315.83	44.39	-31.7	-35.9	10.5	6.66e-03	0	42	0	839909376	24	5812
2026-01-12 10:52:13.60	316.10	44.14	-31.2	-34.6	11.7	1.67e-03	0	42	0	842006528	23	5338
2026-01-12 10:52:14.61	316.38	43.89	-30.8	-33.5	12.6	1.99e-04	0	42	0	843055104	23	4892
2026-01-12 10:52:15.62	316.64	43.63	-30.7	-33.7	12.8	5.87e-05	0	42	0	845152256	22	5065
2026-01-12 10:52:16.62	316.91	43.39	-30.9	-34.3	12.4	8.77e-05	0	42	0	847249408	22	5316
2026-01-12 10:52:17.63	317.17	43.13	-30.9	-34.1	12.6	2.58e-04	0	42	0	849346560	22	5215
2026-01-12 10:52:18.64	317.42	42.89	-30.6	-33.3	13.1	4.19e-05	0	42	0	851443712	22	4909
2026-01-12 10:52:19.64	317.67	42.64	-30.5	-33.2	13.1	2.51e-05	0	42	0	852492288	22	4897
2026-01-12 10:52:20.65	317.92	42.39	-30.5	-33.1	13.2	1.98e-05	0	42	0	854589440	22	4856
2026-01-12 10:52:21.65	318.17	42.15	-30.3	-32.6	13.5	7.60e-06	0	42	0	856686592	22	4687
2026-01-12 10:52:22.66	318.41	41.90	-29.9	-31.9	14.3	3.80e-06	0	42	0	858783744	21	4539
2026-01-12 10:52:23.66	318.64	41.66	-29.4	-31.2	15.0	0.00e+00	0	42	0	860880896	20	4421
2026-01-12 10:52:24.66	318.88	41.42	-29.5	-31.5	14.8	0.00e+00	0	42	0	861929472	20	4530
2026-01-12 10:52:25.66	319.10	41.18	-29.8	-32.1	14.5	1.50e-06	0	42	0	864026624	20	4705
2026-01-12 10:52:26.67	319.33	40.94	-30.6	-33.8	13.0	4.50e-06	0	42	0	866123776	21	5243
2026-01-12 10:52:27.67	319.56	40.71	-31.3	-35.4	11.6	2.73e-04	0	42	0	868220928	22	5807
2026-01-12 10:52:28.67	319.77	40.47	-31.3	-35.6	11.5	1.21e-03	0	42	0	869269504	22	5887
2026-01-12 10:52:29.67	319.99	40.23	-30.7	-33.8	12.7	2.81e-04	0	42	0	871366656	22	5119
2026-01-12 10:52:30.68	320.21	40.00	-29.8	-31.7	14.3	1.06e-05	0	42	0	873463808	21	4493
2026-01-12 10:52:31.68	320.42	39.77	-29.3	-31.4	15.3	0.00e+00	0	42	0	875560960	19	4589
2026-01-12 10:52:32.69	320.63	39.53	-29.3	-31.3	15.3	0.00e+00	0	42	0	877658112	19	4549
2026-01-12 10:52:33.68	320.83	39.30	-29.5	-31.9	15.0	0.00e+00	0	42	0	878706688	19	4758
2026-01-12 10:52:34.69	321.03	39.07	-30.1	-33.0	13.9	7.00e-07	0	42	0	880803840	20	5028
2026-01-12 10:52:35.69	321.23	38.84	-30.6	-33.9	12.9	2.74e-05	0	42	0	882900992	21	5285
2026-01-12 10:52:36.70	321.43	38.61	-31.2	-35.0	11.9	1.18e-04	0	42	0	884998144	22	5625
2026-01-12 10:52:37.70	321.62	38.39	-31.3	-35.3	11.6	8.97e-04	0	42	0	887095296	22	5770
2026-01-12 10:52:38.70	321.81	38.16	-30.9	-34.2	12.4	2.66e-04	0	42	0	888143872	22	5287
2026-01-12 10:52:39.70	322.00	37.94	-30.2	-32.8	13.7	2.13e-05	0	42	0	890241024	21	4855
2026-01-12 10:52:40.72	322.19	37.71	-29.5	-31.4	14.8	1.50e-06	0	42	0	892338176	20	4492
2026-01-12 10:52:41.72	322.37	37.49	-29.0	-30.7	15.7	7.00e-07	0	42	0	894435328	19	4359
2026-01-12 10:52:42.73	322.55	37.27	-28.8	-30.3	15.9	0.00e+00	0	42	0	896532480	19	4242
2026-01-12 10:52:43.73	322.73	37.05	-28.9	-30.4	15.9	0.00e+00	0	42	0	897581056	19	4267
2026-01-12 10:52:44.73	322.91	36.84	-29.4	-31.6	15.1	0.00e+00	0	42	0	899678208	19	4665
2026-01-12 10:52:45.74	323.08	36.62	-30.0	-33.1	14.2	0.00e+00	0	42	0	901775360	19	5186
2026-01-12 10:52:46.74	323.26	36.40	-30.4	-33.8	13.4	3.80e-06	0	42	0	903872512	20	5320
2026-01-12 10:52:47.74	323.43	36.19	-30.8	-34.5	12.6	5.03e-05	0	42	0	905969664	21	5515
2026-01-12 10:52:48.75	323.59	35.97	-30.9	-34.9	12.2	1.89e-04	0	42	0	907018240	21	5686
2026-01-12 10:52:49.75	323.76	35.76	-30.8	-34.5	12.5	1.51e-04	0	42	0	909115392	21	5509
2026-01-12 10:52:50.76	323.92	35.55	-30.6	-34.0	12.9	8.08e-05	0	42	0	911212544	21	5300
2026-01-12 10:52:51.77	324.09	35.34	-30.5	-33.6	13.1	4.50e-05	0	42	0	913309696	21	5152
2026-01-12 10:52:52.77	324.25	35.13	-30.4	-33.4	13.3	2.28e-05	0	42	0	915406848	21	5087
2026-01-12 10:52:53.77	324.40	34.92	-30.7	-34.2	12.7	2.59e-05	0	42	0	916455424	21	5392
2026-01-12 10:52:54.78	324.56	34.71	-30.6	-33.9	12.9	9.15e-05	0	42	0	918552576	21	5265
2026-01-12 10:52:55.78	324.71	34.51	-30.9	-34.7	12.4	7.70e-05	0	42	0	920649728	21	5572
2026-01-12 10:52:56.79	324.87	34.30	-31.1	-34.7	12.0	2.29e-04	0	42	0	922746880	22	5492
2026-01-12 10:52:57.79	325.01	34.10	-31.4	-35.7	11.4	4.52e-04	0	42	0	924844032	22	5919
2026-01-12 10:52:58.80	325.16	33.90	-31.4	-35.3	11.3	1.33e-03	0	42	0	925892608	23	5653
2026-01-12 10:52:59.80	325.31	33.70	-31.4	-35.2	11.3	1.08e-03	0	42	0	927989760	23	5591
2026-01-12 10:53:00.80	325.45	33.50	-31.5	-35.8	10.9	1.25e-03	0	42	0	930086912	23	5850
2026-01-12 10:53:01.81	325.60	33.30	-31.7	-36.2	10.7	2.57e-03	0	42	0	932184064	23	6041
2026-01-12 10:53:02.81	325.74	33.10	-31.5	-35.8	10.9	2.97e-03	0	42	0	934281216	23	5851
2026-01-12 10:53:03.81	325.88	32.90	-31.4	-35.4	11.2	1.84e-03	0	42	0	935329792	23	5693
2026-01-12 10:53:04.83	326.02	32.70	-31.2	-34.8	11.6	9.79e-04	0	42	0	937426944	23	5414
2026-01-12 10:53:05.83	326.15	32.51	-31.2	-34.8	11.7	5.31e-04	0	42	0	939524096	23	5405
2026-01-12 10:53:06.83	326.29	32.32	-31.3	-35.1	11.4	8.51e-04	0	42	0	941621248	23	5537
2026-01-12 10:53:07.84	326.42	32.12	-31.2	-34.5	11.8	7.21e-04	0	42	0	943718400	23	5299
2026-01-12 10:53:08.84	326.55	31.93	-31.1	-34.4	11.9	3.81e-04	0	42	0	944766976	23	5274
2026-01-12 10:53:09.85	326.68	31.74	-31.2	-34.6	11.8	4.29e-04	0	42	0	946864128	23	5344
2026-01-12 10:53:10.86	326.81	31.55	-31.1	-34.3	12.0	3.94e-04	0	42	0	948961280	23	5211
2026-01-12 10:53:11.86	326.94	31.37	-30.8	-33.6	12.5	2.08e-04	0	42	0	951058432	23	4950
2026-01-12 10:53:12.86	327.07	31.18	-30.8	-33.5	12.6	1.54e-04	0	42	0	953155584	23	4909
2026-01-12 10:53:13.87	327.19	30.99	-30.8	-33.4	12.6	1.17e-04	0	42	0	954204160	23	4867
2026-01-12 10:53:14.87	327.31	30.81	-30.8	-33.9	12.7	8.62e-05	0	42	0	956301312	22	5159
2026-01-12 10:53:15.87	327.44	30.63	-30.8	-34.0	12.5	7.78e-05	0	42	0	958398464	22	5206
2026-01-12 10:53:16.88	327.56	30.44	-30.9	-34.3	12.4	1.09e-04	0	42	0	960495616	22	5306
2026-01-12 10:53:17.89	327.68	30.26	-31.1	-34.8	11.9	1.74e-04	0	42	0	962592768	22	5509
2026-01-12 10:53:18.89	327.79	30.08	-31.1	-34.9	11.9	3.73e-04	0	42	0	963641344	22	5582
2026-01-12 10:53:19.90	327.91	29.90	-31.2	-35.1	11.8	4.26e-04	0	42	0	965738496	22	5651
2026-01-12 10:53:20.90	328.03	29.72	-31.4	-35.7	11.3	7.27e-04	0	42	0	967835648	22	5949
2026-01-12 10:53:21.91	328.14	29.54	-31.4	-35.8	11.3	1.24e-03	0	42	0	969932800	22	5965
2026-01-12 10:53:22.92	328.26	29.36	-31.4	-35.8	11.3	1.11e-03	0	42	0	970981376	22	5973
2026-01-12 10:53:23.92	328.37	29.19	-31.3	-35.6	11.4	1.17e-03	0	42	0	973078528	22	5899
2026-01-12 10:53:24.92	328.48	29.01	-31.3	-35.5	11.5	7.64e-04	0	42	0	975175680	22	5857
2026-01-12 10:53:25.92	328.59	28.84	-31.1	-34.9	11.9	4.80e-04	0	42	0	977272832	22	5566
2026-01-12 10:53:26.93	328.70	28.67	-31.0	-34.7	12.1	3.46e-04	0	42	0	979369984	22	5480
2026-01-12 10:53:27.93	328.80	28.50	-31.1	-34.8	12.0	3.03e-04	0	42	0	980418560	22	5525
2026-01-12 10:53:28.94	328.91	28.32	-30.9	-34.3	12.3	1.80e-04	0	42	0	982515712	22	5312
2026-01-12 10:53:29.94	329.01	28.16	-30.9	-34.2	12.4	1.82e-04	0	42	0	984612864	22	5274
2026-01-12 10:53:30.95	329.12	27.99	-30.9	-34.2	12.4	1.81e-04	0	42	0	986710016	22	5282
2026-01-12 10:53:31.95	329.22	27.82	-30.8	-34.1	12.5	1.35e-04	0	42	0	988807168	22	5233
2026-01-12 10:53:32.95	329.32	27.65	-30.8	-34.1	12.5	1.20e-04	0	42	0	989855744	22	5225
2026-01-12 10:53:33.96	329.42	27.48	-30.7	-33.8	12.6	1.29e-04	0	42	0	991952896	22	5137
2026-01-12 10:53:34.97	329.53	27.32	-30.8	-34.0	12.5	1.04e-04	0	42	0	994050048	22	5211
2026-01-12 10:53:35.98	329.62	27.15	-30.7	-33.8	12.6	9.30e-05	0	42	0	996147200	22	5131
2026-01-12 10:53:36.98	329.72	26.99	-30.6	-33.6	12.8	6.71e-05	0	42	0	998244352	22	5041
2026-01-12 10:53:37.98	329.82	26.83	-30.6	-33.5	12.9	5.64e-05	0	42	0	999292928	22	4998
2026-01-12 10:53:38.98	329.91	26.67	-30.5	-33.2	13.0	4.27e-05	0	42	0	1001390080	22	4914
2026-01-12 10:53:39.98	330.01	26.51	-30.5	-33.1	13.1	2.44e-05	0	42	0	1003487232	22	4861
2026-01-12 10:53:40.99	330.10	26.35	-30.4	-33.0	13.2	2.59e-05	0	42	0	1005584384	22	4831
2026-01-12 10:53:41.99	330.20	26.19	-30.6	-33.3	12.9	1.44e-05	0	42	0	1007681536	22	4954
2026-01-12 10:53:42.99	330.29	26.03	-30.5	-33.2	13.1	3.20e-05	0	42	0	1008730112	22	4893
2026-01-12 10:53:44.00	330.38	25.87	-30.4	-32.9	13.2	2.89e-05	0	42	0	1010827264	22	4807
2026-01-12 10:53:45.00	330.47	25.72	-30.4	-32.8	13.3	2.59e-05	0	42	0	1012924416	22	4761
2026-01-12 10:53:46.01	330.56	25.56	-30.4	-32.7	13.3	1.60e-05	0	42	0	1015021568	22	4740
2026-01-12 10:53:47.01	330.65	25.41	-30.5	-33.2	13.1	3.05e-05	0	42	0	1017118720	22	4918
2026-01-12 10:53:48.02	330.74	25.25	-30.1	-32.8	13.4	8.09e-04	0	42	0	1018167296	21	4903
2026-01-12 10:53:49.03	330.83	25.10	-30.2	-33.0	13.3	1.18e-03	0	42	0	1020264448	21	4990
2026-01-12 10:53:50.03	330.91	24.95	-30.4	-33.6	12.8	4.28e-03	0	42	0	1022361600	21	5225
2026-01-12 10:53:51.04	331.00	24.79	-30.0	-32.7	13.4	6.12e-03	0	42	0	1024458752	21	4867
2026-01-12 10:53:52.04	331.09	24.64	-29.8	-32.1	13.8	4.33e-03	0	42	0	1026555904	21	4668
2026-01-12 10:53:53.05	331.17	24.49	-29.7	-32.2	14.0	7.38e-03	0	42	0	1027604480	20	4823
2026-01-12 10:53:54.05	331.25	24.34	-29.8	-32.5	13.8	6.50e-03	0	42	0	1029701632	20	4936
2026-01-12 10:53:55.06	331.34	24.20	-29.7	-32.4	13.8	6.05e-03	0	42	0	1031798784	20	4887
2026-01-12 10:53:56.07	331.42	24.05	-30.0	-33.0	13.4	7.39e-03	0	42	0	1033895936	20	5131
2026-01-12 10:53:57.07	331.50	23.90	-29.8	-32.7	13.6	7.70e-03	0	42	0	1035993088	20	5024
2026-01-12 10:53:58.06	331.58	23.76	-29.7	-32.4	13.8	7.76e-03	0	42	0	1037041664	20	4911
2026-01-12 10:53:59.07	331.66	23.61	-29.7	-32.3	13.9	7.74e-03	0	42	0	1039138816	20	4863
2026-01-12 10:54:00.07	331.74	23.47	-29.9	-32.7	14.0	3.00e-06	0	42	0	1041235968	20	4940
2026-01-12 10:54:01.07	331.82	23.32	-30.1	-33.1	13.7	4.50e-06	0	42	0	1043333120	20	5087
2026-01-12 10:54:02.08	331.90	23.18	-30.2	-33.5	13.4	8.30e-06	0	42	0	1044381696	20	5236
2026-01-12 10:54:03.08	331.97	23.04	-30.1	-33.2	13.6	1.37e-05	0	42	0	1046478848	20	5120
2026-01-12 10:54:04.08	332.05	22.90	-30.1	-33.1	13.7	6.80e-06	0	42	0	1048576000	20	5083
2026-01-12 10:54:05.08	332.12	22.76	-30.1	-33.2	13.6	9.10e-06	0	42	0	1050673152	20	5130
2026-01-12 10:54:06.09	332.20	22.62	-30.0	-32.8	13.8	4.50e-06	0	42	0	1052770304	20	4997
2026-01-12 10:54:07.10	332.28	22.48	-29.9	-32.6	13.9	2.20e-06	0	42	0	1054867456	20	4919
2026-01-12 10:54:08.10	332.35	22.34	-29.8	-32.5	13.7	2.18e-03	0	42	0	1055916032	20	4915
2026-01-12 10:54:09.11	332.42	22.20	-29.9	-32.7	13.6	4.69e-03	0	42	0	1058013184	20	4972
2026-01-12 10:54:10.12	332.50	22.06	-30.0	-32.8	13.5	4.17e-03	0	42	0	1060110336	20	5015
2026-01-12 10:54:11.12	332.57	21.93	-29.6	-32.0	14.1	1.04e-03	0	42	0	1062207488	20	4728
2026-01-12 10:54:12.13	332.64	21.79	-29.5	-31.5	14.4	2.88e-03	0	42	0	1063256064	20	4568
2026-01-12 10:54:13.14	332.71	21.66	-29.3	-31.1	14.6	1.74e-03	0	42	0	1065353216	20	4430
2026-01-12 10:54:14.15	332.78	21.52	-29.3	-31.7	14.6	7.87e-04	0	42	0	1067450368	19	4729
2026-01-12 10:54:15.15	332.85	21.39	-29.3	-31.5	14.7	2.45e-03	0	42	0	1069547520	19	4657
2026-01-12 10:54:16.16	332.92	21.25	-29.3	-31.5	14.7	1.01e-03	0	42	0	1071644672	19	4649
2026-01-12 10:54:17.16	332.99	21.12	-29.3	-31.6	14.7	1.34e-03	0	42	0	1072693248	19	4683
2026-01-12 10:54:18.16	333.06	20.99	-29.2	-31.4	14.8	1.00e-03	0	42	0	1074790400	19	4605
2026-01-12 10:54:19.16	333.12	20.86	-29.3	-31.7	14.5	8.93e-04	0	42	0	1076887552	19	4739
2026-01-12 10:54:20.17	333.19	20.73	-29.1	-31.1	14.8	2.24e-03	0	42	0	1078984704	19	4548
2026-01-12 10:54:21.17	333.26	20.60	-28.9	-30.6	15.1	9.33e-04	0	42	0	1081081856	19	4386
2026-01-12 10:54:22.18	333.33	20.47	-28.9	-30.5	15.2	3.25e-03	0	42	0	1082130432	19	4355
2026-01-12 10:54:23.18	333.39	20.34	-28.9	-30.5	15.1	1.87e-03	0	42	0	1084227584	19	4358
2026-01-12 10:54:24.18	333.46	20.21	-28.9	-30.6	15.2	1.18e-03	0	42	0	1086324736	19	4376
2026-01-12 10:54:25.18	333.52	20.09	-29.0	-30.9	15.0	1.06e-03	0	42	0	1088421888	19	4478
2026-01-12 10:54:26.18	333.58	19.96	-28.9	-30.6	15.2	8.64e-04	0	42	0	1090519040	19	4387
2026-01-12 10:54:27.19	333.65	19.83	-29.0	-30.8	15.1	1.11e-03	0	42	0	1091567616	19	4437
2026-01-12 10:54:28.19	333.71	19.71	-29.0	-30.9	14.9	1.14e-03	0	42	0	1093664768	19	4485
2026-01-12 10:54:29.19	333.77	19.59	-29.0	-30.9	15.1	4.74e-04	0	42	0	1095761920	19	4469
2026-01-12 10:54:30.20	333.83	19.46	-29.2	-31.2	15.1	0.00e+00	0	42	0	1097859072	19	4559
2026-01-12 10:54:31.20	333.90	19.34	-29.1	-31.1	15.2	0.00e+00	0	42	0	1099956224	19	4521
2026-01-12 10:54:32.20	333.96	19.22	-29.2	-31.3	15.0	0.00e+00	0	42	0	1101004800	19	4596
2026-01-12 10:54:33.21	334.02	19.09	-29.2	-31.3	15.0	0.00e+00	0	42	0	1103101952	19	4579
2026-01-12 10:54:34.21	334.08	18.97	-29.2	-31.4	15.0	0.00e+00	0	42	0	1105199104	19	4613
2026-01-12 10:54:35.22	334.14	18.85	-29.4	-31.8	14.7	0.00e+00	0	42	0	1107296256	19	4732
2026-01-12 10:54:36.22	334.20	18.73	-29.3	-31.5	14.9	7.00e-07	0	42	0	1109393408	19	4645
2026-01-12 10:54:37.23	334.26	18.61	-29.1	-31.2	15.1	0.00e+00	0	42	0	1110441984	19	4544
2026-01-12 10:54:38.24	334.32	18.49	-29.2	-31.3	14.9	0.00e+00	0	42	0	1112539136	19	4598
2026-01-12 10:54:39.24	334.37	18.37	-29.1	-31.1	15.1	0.00e+00	0	42	0	1114636288	19	4535
2026-01-12 10:54:40.25	334.43	18.25	-29.2	-31.4	14.9	0.00e+00	0	42	0	1116733440	19	4626
2026-01-12 10:54:41.26	334.49	18.13	-29.3	-31.5	14.8	0.00e+00	0	42	0	1118830592	19	4651
2026-01-12 10:54:42.26	334.55	18.01	-29.2	-31.2	15.0	0.00e+00	0	42	0	1119879168	19	4554
2026-01-12 10:54:43.27	334.60	17.90	-29.1	-31.1	15.1	0.00e+00	0	42	0	1121976320	19	4534
2026-01-12 10:54:44.27	334.66	17.78	-29.2	-31.4	14.9	0.00e+00	0	42	0	1124073472	19	4628
2026-01-12 10:54:45.28	334.71	17.66	-29.2	-31.4	14.9	0.00e+00	0	42	0	1126170624	19	4620
2026-01-12 10:54:46.28	334.77	17.55	-29.2	-31.3	15.0	0.00e+00	0	42	0	1128267776	19	4576
2026-01-12 10:54:47.28	334.82	17.43	-29.3	-31.5	14.8	0.00e+00	0	42	0	1129316352	19	4658
2026-01-12 10:54:48.29	334.88	17.32	-29.4	-31.8	14.6	0.00e+00	0	42	0	1131413504	19	4769
2026-01-12 10:54:49.29	334.93	17.21	-29.3	-31.6	14.7	0.00e+00	0	42	0	1133510656	19	4683
2026-01-12 10:54:50.30	334.99	17.09	-29.3	-31.5	14.8	0.00e+00	0	42	0	1135607808	19	4663
2026-01-12 10:54:51.29	335.04	16.98	-29.3	-31.6	14.7	0.00e+00	0	42	0	1137704960	19	4691
2026-01-12 10:54:52.30	335.09	16.87	-29.4	-31.8	14.6	7.00e-07	0	42	0	1138753536	19	4770
2026-01-12 10:54:53.31	335.15	16.76	-29.4	-31.9	14.5	0.00e+00	0	42	0	1140850688	19	4802
2026-01-12 10:54:54.31	335.20	16.65	-29.4	-31.8	14.6	7.00e-07	0	42	0	1142947840	19	4750
2026-01-12 10:54:55.32	335.25	16.53	-29.4	-31.8	14.6	0.00e+00	0	42	0	1145044992	19	4769
2026-01-12 10:54:56.32	335.30	16.42	-29.5	-32.1	14.4	1.50e-06	0	42	0	1146093568	19	4852
2026-01-12 10:54:57.33	335.35	16.31	-29.5	-32.2	14.3	2.20e-06	0	42	0	1148190720	19	4900
2026-01-12 10:54:58.33	335.40	16.21	-29.6	-32.5	14.2	0.00e+00	0	42	0	1150287872	19	4991
2026-01-12 10:54:59.33	335.45	16.10	-29.6	-32.5	14.1	0.00e+00	0	42	0	1152385024	19	5010
2026-01-12 10:55:00.34	335.50	15.99	-29.7	-32.7	14.0	4.50e-06	0	42	0	1154482176	19	5084
2026-01-12 10:55:01.34	335.55	15.88	-29.7	-32.8	13.9	4.50e-06	0	42	0	1156579328	19	5111
2026-01-12 10:55:02.34	335.60	15.77	-29.8	-33.0	13.8	3.80e-06	0	42	0	1157627904	19	5177
2026-01-12 10:55:03.34	335.65	15.67	-29.8	-33.0	13.7	9.10e-06	0	42	0	1159725056	19	5204
2026-01-12 10:55:04.35	335.70	15.56	-29.9	-33.1	13.7	6.80e-06	0	42	0	1161822208	19	5234
2026-01-12 10:55:05.35	335.75	15.45	-29.9	-33.3	13.6	8.30e-06	0	42	0	1163919360	19	5312
2026-01-12 10:55:06.36	335.80	15.35	-29.8	-32.9	13.7	7.60e-06	0	42	0	1164967936	19	5175
2026-01-12 10:55:07.36	335.85	15.24	-29.7	-32.7	13.8	1.75e-05	0	42	0	1167065088	19	5107
2026-01-12 10:55:08.37	335.90	15.14	-29.7	-32.9	13.8	7.00e-07	0	42	0	1169162240	19	5150
2026-01-12 10:55:09.38	335.94	15.03	-29.8	-32.9	13.7	1.29e-05	0	42	0	1171259392	19	5170
2026-01-12 10:55:10.38	335.99	14.93	-29.7	-32.9	13.8	1.50e-06	0	42	0	1173356544	19	5149
2026-01-12 10:55:11.39	336.04	14.82	-29.8	-32.9	13.8	5.30e-06	0	42	0	1174405120	19	5146
2026-01-12 10:55:12.39	336.08	14.72	-29.8	-32.9	13.8	3.00e-06	0	42	0	1176502272	19	5155
2026-01-12 10:55:13.39	336.13	14.62	-29.8	-32.9	13.8	3.80e-06	0	42	0	1178599424	19	5147
2026-01-12 10:55:14.39	336.17	14.52	-29.8	-33.0	13.7	5.30e-06	0	42	0	1180696576	19	5189
2026-01-12 10:55:15.40	336.22	14.42	-29.8	-32.9	13.8	6.10e-06	0	42	0	1182793728	19	5156
2026-01-12 10:55:16.40	336.27	14.31	-29.9	-33.1	13.6	6.10e-06	0	42	0	1183842304	19	5259
2026-01-12 10:55:17.40	336.31	14.21	-29.8	-33.1	13.6	6.10e-06	0	42	0	1185939456	19	5241
2026-01-12 10:55:18.41	336.36	14.11	-29.8	-32.9	13.7	3.00e-06	0	42	0	1188036608	19	5176
2026-01-12 10:55:19.40	336.40	14.01	-29.8	-33.1	13.6	9.90e-06	0	42	0	1190133760	19	5253
2026-01-12 10:55:20.41	336.44	13.91	-29.7	-32.8	13.8	3.00e-06	0	42	0	1192230912	19	5132
2026-01-12 10:55:21.41	336.49	13.82	-29.7	-32.6	13.9	2.20e-06	0	42	0	1193279488	19	5067
2026-01-12 10:55:22.42	336.53	13.72	-29.7	-32.7	13.8	4.50e-06	0	42	0	1195376640	19	5106
2026-01-12 10:55:23.43	336.58	13.62	-29.7	-32.7	13.9	3.00e-06	0	42	0	1197473792	19	5080
2026-01-12 10:55:24.43	336.62	13.52	-29.7	-32.8	13.8	4.50e-06	0	42	0	1199570944	19	5122
2026-01-12 10:55:25.44	336.66	13.42	-29.7	-32.8	13.8	6.80e-06	0	42	0	1201668096	19	5123
2026-01-12 10:55:26.45	336.71	13.32	-29.7	-32.8	13.7	4.50e-06	0	42	0	1202716672	19	5133
2026-01-12 10:55:27.45	336.75	13.23	-29.7	-32.8	13.7	3.80e-06	0	42	0	1204813824	19	5144
2026-01-12 10:55:28.46	336.79	13.13	-29.7	-32.8	13.8	9.10e-06	0	42	0	1206910976	19	5114
2026-01-12 10:55:29.46	336.83	13.03	-29.7	-32.8	13.7	9.10e-06	0	42	0	1209008128	19	5138
2026-01-12 10:55:30.46	336.87	12.94	-29.9	-33.2	13.4	1.22e-05	0	42	0	1211105280	19	5286
2026-01-12 10:55:31.47	336.92	12.84	-29.9	-33.2	13.4	1.75e-05	0	42	0	1212153856	19	5278
2026-01-12 10:55:32.47	336.96	12.75	-29.9	-33.2	13.4	1.29e-05	0	42	0	1214251008	19	5283
2026-01-12 10:55:33.48	337.00	12.65	-29.9	-32.8	13.3	2.97e-05	0	42	0	1216348160	20	5044
2026-01-12 10:55:34.49	337.04	12.56	-29.8	-32.6	13.4	1.14e-05	0	42	0	1218445312	20	4972
2026-01-12 10:55:35.50	337.08	12.46	-29.9	-32.8	13.3	1.75e-05	0	42	0	1220542464	20	5043
2026-01-12 10:55:36.50	337.12	12.37	-29.9	-32.8	13.3	1.75e-05	0	42	0	1221591040	20	5047
2026-01-12 10:55:37.51	337.16	12.27	-29.9	-32.8	13.3	1.98e-05	0	42	0	1223688192	20	5057
2026-01-12 10:55:38.51	337.20	12.18	-30.0	-33.1	13.0	2.74e-05	0	42	0	1225785344	20	5163
2026-01-12 10:55:39.51	337.24	12.09	-30.0	-33.1	13.1	2.51e-05	0	42	0	1227882496	20	5138
2026-01-12 10:55:40.51	337.28	12.00	-30.1	-33.4	12.9	5.03e-05	0	42	0	1229979648	20	5277
2026-01-12 10:55:41.52	337.32	11.90	-30.1	-33.5	12.8	7.17e-05	0	42	0	1231028224	20	5310
2026-01-12 10:55:42.52	337.36	11.81	-30.0	-33.2	13.0	5.18e-05	0	42	0	1233125376	20	5195
2026-01-12 10:55:43.53	337.40	11.72	-30.1	-33.3	12.9	4.27e-05	0	42	0	1235222528	20	5243
2026-01-12 10:55:44.54	337.43	11.63	-30.1	-33.5	12.8	6.56e-05	0	42	0	1237319680	20	5300
2026-01-12 10:55:45.54	337.47	11.54	-30.3	-34.0	12.4	1.06e-04	0	42	0	1239416832	20	5509
2026-01-12 10:55:46.55	337.51	11.45	-30.4	-34.3	12.2	2.42e-04	0	42	0	1240465408	20	5634
2026-01-12 10:55:47.55	337.55	11.36	-30.3	-34.2	12.3	1.50e-04	0	42	0	1242562560	20	5606
2026-01-12 10:55:48.55	337.59	11.27	-30.4	-34.5	12.0	3.02e-04	0	42	0	1244659712	20	5731
2026-01-12 10:55:49.56	337.62	11.18	-30.4	-34.4	12.0	2.60e-04	0	42	0	1246756864	20	5720
2026-01-12 10:55:50.57	337.66	11.09	-30.5	-34.1	11.9	4.11e-04	0	42	0	1248854016	21	5482
2026-01-12 10:55:51.57	337.70	11.00	-30.4	-33.9	12.1	3.10e-04	0	42	0	1249902592	21	5370
2026-01-12 10:55:52.58	337.74	10.91	-30.4	-34.0	12.0	2.56e-04	0	42	0	1251999744	21	5418
2026-01-12 10:55:53.58	337.77	10.82	-30.5	-34.1	12.0	2.84e-04	0	42	0	1254096896	21	5466
2026-01-12 10:55:54.60	337.81	10.73	-30.4	-34.1	12.0	4.45e-04	0	42	0	1256194048	21	5457
2026-01-12 10:55:55.60	337.85	10.65	-30.5	-34.1	11.9	3.34e-04	0	42	0	1258291200	21	5473
2026-01-12 10:55:56.60	337.88	10.56	-30.6	-34.4	11.8	5.11e-04	0	42	0	1259339776	21	5587
2026-01-12 10:55:57.60	337.92	10.47	-30.5	-34.2	11.8	5.19e-04	0	42	0	1261436928	21	5530
2026-01-12 10:55:58.61	337.95	10.39	-30.4	-33.9	12.1	3.11e-04	0	42	0	1263534080	21	5394
2026-01-12 10:55:59.62	337.99	10.30	-30.4	-34.0	12.0	3.10e-04	0	42	0	1265631232	21	5419
2026-01-12 10:56:00.62	338.02	10.21	-30.5	-34.2	11.9	3.66e-04	0	42	0	1266679808	21	5499
2026-01-12 10:56:01.62	338.06	10.13	-30.5	-34.3	11.8	5.45e-04	0	42	0	1268776960	21	5567
2026-01-12 10:56:02.62	338.09	10.04	-30.5	-34.3	11.8	4.09e-04	0	42	0	1270874112	21	5559
2026-01-12 10:56:03.62	338.13	9.96	-30.5	-34.3	11.7	5.71e-04	0	42	0	1272971264	21	5580
2026-01-12 10:56:04.63	338.16	9.87	-30.5	-34.2	11.8	5.42e-04	0	42	0	1275068416	21	5540
2026-01-12 10:56:05.64	338.20	9.79	-30.5	-34.3	11.8	5.42e-04	0	42	0	1277165568	21	5551
2026-01-12 10:56:06.65	338.23	9.70	-30.5	-34.4	11.7	5.93e-04	0	42	0	1278214144	21	5591
2026-01-12 10:56:07.65	338.27	9.62	-30.5	-34.3	11.7	6.40e-04	0	42	0	1280311296	21	5582
2026-01-12 10:56:08.65	338.30	9.54	-30.4	-34.1	11.9	4.03e-04	0	42	0	1282408448	21	5475
