passes_logs/2026/01/12/R2M6_AANII_01/R2M6_AANII_01__20260112_000130_NOAA_21_JPSS-2_rec.log

#Pass ID: 20260112_000130_NOAA 21 (JPSS-2)
#Satellite: NOAA 21 (JPSS-2)
#Configuration: NOAA 21
#almurnet v.1.7.20240730
#Start time: 2026-01-12 00:01:30

#Version: 2.2.20231116
#Station: R2M6_AANII_01
#Location: 30.233357 lon 59.946436 lat
#TLE: 1 54234U 22150A   26011.27699114  .00000090  00000+0  63771-4 0  9993
#TLE: 2 54234  98.7494 312.2218 0000765 314.9553  45.1561 14.19534106164285

#Time	Az	El	Level	Level2	SNR	BER	BlckErr	Temp	State	Recorded	gain1	gain2
2026-01-12 00:01:30.07	19.80	6.95	-30.8	-36.9	4.4	1.42e+00	0	39	0	0	21	7243
2026-01-12 00:01:31.08	19.82	7.02	-31.0	-37.1	4.4	1.43e+00	0	39	104	0	22	7263
2026-01-12 00:01:32.09	19.84	7.10	-30.9	-36.5	6.9	1.85e-01	0	39	0	0	21	6854
2026-01-12 00:01:33.09	19.86	7.18	-30.8	-36.0	7.2	1.38e-01	0	39	0	3145728	21	6592
2026-01-12 00:01:34.10	19.89	7.26	-31.0	-36.5	6.6	2.06e-01	0	39	0	6291456	22	6732
2026-01-12 00:01:35.11	19.91	7.33	-30.9	-36.3	7.0	1.70e-01	0	39	0	9437184	21	6721
2026-01-12 00:01:36.12	19.93	7.41	-30.7	-35.8	7.4	1.25e-01	0	39	0	12582912	21	6432
2026-01-12 00:01:37.13	19.95	7.49	-30.8	-36.0	7.3	1.35e-01	0	39	0	15728640	21	6537
2026-01-12 00:01:38.13	19.97	7.57	-30.6	-35.4	7.7	8.76e-02	0	39	0	18874368	21	6231
2026-01-12 00:01:39.13	19.99	7.64	-30.4	-34.6	8.2	7.05e-02	0	39	0	22020096	21	5812
2026-01-12 00:01:40.14	20.02	7.72	-29.9	-33.3	9.4	2.13e-02	0	40	0	25165824	20	5374
2026-01-12 00:01:41.15	20.04	7.80	-29.5	-32.6	10.5	5.43e-03	0	40	0	28311552	19	5164
2026-01-12 00:01:42.16	20.06	7.88	-29.2	-32.4	10.9	4.29e-03	0	40	0	31457280	18	5188
2026-01-12 00:01:43.17	20.08	7.96	-28.9	-31.7	11.4	5.44e-03	0	40	0	34603008	18	4933
2026-01-12 00:01:44.18	20.11	8.04	-28.6	-31.3	11.9	4.77e-03	0	40	0	37748736	17	4907
2026-01-12 00:01:45.19	20.13	8.12	-28.2	-30.9	12.6	7.38e-04	0	40	0	40894464	16	4861
2026-01-12 00:01:46.19	20.15	8.20	-28.0	-30.2	13.0	4.19e-05	0	39	0	44040192	16	4633
2026-01-12 00:01:47.20	20.17	8.28	-28.0	-30.7	12.8	3.96e-05	0	40	0	47185920	15	4948
2026-01-12 00:01:48.21	20.20	8.36	-27.9	-30.6	12.8	4.88e-05	0	40	0	50331648	15	4899
2026-01-12 00:01:49.22	20.22	8.44	-28.2	-30.7	12.7	4.11e-03	0	40	0	53477376	16	4804
2026-01-12 00:01:50.23	20.24	8.53	-28.1	-30.6	12.8	7.04e-04	0	40	0	56623104	16	4773
2026-01-12 00:01:51.23	20.27	8.61	-28.0	-30.3	13.0	4.19e-05	0	40	0	59768832	16	4661
2026-01-12 00:01:52.24	20.29	8.69	-27.9	-30.6	12.9	5.56e-05	0	40	0	62914560	15	4901
2026-01-12 00:01:53.24	20.31	8.77	-27.9	-30.6	12.9	5.18e-05	0	40	0	66060288	15	4907
2026-01-12 00:01:54.25	20.34	8.85	-27.9	-30.5	13.0	4.65e-05	0	40	0	69206016	15	4861
2026-01-12 00:01:55.26	20.36	8.93	-28.2	-30.6	12.8	3.66e-05	0	40	0	72351744	16	4779
2026-01-12 00:01:56.26	20.38	9.02	-28.2	-30.8	12.7	6.86e-05	0	40	0	75497472	16	4831
2026-01-12 00:01:57.27	20.41	9.10	-28.2	-30.7	12.7	7.32e-05	0	40	0	78643200	16	4794
2026-01-12 00:01:58.27	20.43	9.18	-28.2	-30.8	12.7	8.85e-05	0	40	0	81788928	16	4832
2026-01-12 00:01:59.28	20.46	9.27	-28.5	-30.9	12.3	2.01e-04	0	40	0	84934656	17	4760
2026-01-12 00:02:00.29	20.48	9.35	-28.3	-30.9	12.6	1.09e-04	0	40	0	88080384	16	4878
2026-01-12 00:02:01.29	20.50	9.43	-28.6	-31.2	12.1	2.31e-04	0	40	0	91226112	17	4854
2026-01-12 00:02:02.30	20.53	9.52	-28.5	-31.0	12.3	2.11e-04	0	40	0	94371840	17	4801
2026-01-12 00:02:03.31	20.55	9.60	-28.5	-31.0	12.3	1.75e-04	0	40	0	97517568	17	4781
2026-01-12 00:02:04.31	20.58	9.69	-28.6	-31.1	12.2	1.85e-04	0	40	0	100663296	17	4839
2026-01-12 00:02:05.32	20.60	9.77	-28.5	-30.9	12.3	2.53e-04	0	40	0	103809024	17	4761
2026-01-12 00:02:06.33	20.63	9.86	-28.4	-31.3	12.4	1.34e-04	0	40	0	106954752	16	4993
2026-01-12 00:02:07.34	20.65	9.95	-28.3	-30.9	12.7	6.71e-05	0	40	0	110100480	16	4858
2026-01-12 00:02:08.35	20.68	10.03	-28.4	-31.1	12.5	1.24e-04	0	40	0	113246208	16	4938
2026-01-12 00:02:09.36	20.70	10.12	-28.2	-30.7	12.8	5.56e-05	0	40	0	116391936	16	4804
2026-01-12 00:02:10.36	20.73	10.21	-28.0	-30.3	13.1	5.72e-05	0	40	0	119537664	16	4652
2026-01-12 00:02:11.37	20.75	10.29	-27.7	-29.9	13.4	1.98e-05	0	41	0	122683392	15	4677
2026-01-12 00:02:12.38	20.78	10.38	-27.5	-29.6	13.6	1.06e-05	0	40	0	125829120	15	4571
2026-01-12 00:02:13.38	20.80	10.47	-27.4	-29.3	13.8	4.50e-06	0	40	0	128974848	15	4477
2026-01-12 00:02:14.38	20.83	10.55	-27.3	-29.5	13.9	3.00e-06	0	40	0	132120576	14	4657
2026-01-12 00:02:15.39	20.86	10.64	-27.3	-29.6	13.9	5.30e-06	0	40	0	135266304	14	4692
2026-01-12 00:02:16.39	20.88	10.73	-27.3	-29.4	14.0	2.20e-06	0	41	0	138412032	14	4633
2026-01-12 00:02:17.39	20.91	10.82	-27.2	-29.2	14.1	7.00e-07	0	40	0	141557760	14	4565
2026-01-12 00:02:18.40	20.93	10.91	-27.2	-29.2	14.2	1.50e-06	0	40	0	144703488	14	4556
2026-01-12 00:02:19.40	20.96	11.00	-27.2	-29.4	14.1	3.00e-06	0	40	0	147849216	14	4600
2026-01-12 00:02:20.41	20.99	11.09	-27.1	-29.1	14.3	0.00e+00	0	40	0	150994944	14	4515
2026-01-12 00:02:21.42	21.01	11.18	-27.1	-29.1	14.3	7.00e-07	0	40	0	154140672	14	4506
2026-01-12 00:02:22.43	21.04	11.27	-27.1	-29.1	14.2	1.50e-06	0	40	0	157286400	14	4535
2026-01-12 00:02:23.43	21.07	11.36	-27.3	-29.5	14.0	0.00e+00	0	40	0	160432128	14	4646
2026-01-12 00:02:24.44	21.10	11.45	-27.3	-29.6	14.0	4.50e-06	0	40	0	163577856	14	4674
2026-01-12 00:02:25.44	21.12	11.54	-27.2	-29.2	14.2	0.00e+00	0	41	0	166723584	14	4550
2026-01-12 00:02:26.45	21.15	11.63	-27.1	-29.0	14.3	7.00e-07	0	41	0	169869312	14	4486
2026-01-12 00:02:27.46	21.18	11.73	-27.2	-29.2	14.2	0.00e+00	0	41	0	173015040	14	4551
2026-01-12 00:02:28.47	21.21	11.82	-27.2	-29.2	14.2	3.00e-06	0	41	0	176160768	14	4548
2026-01-12 00:02:29.47	21.23	11.91	-27.2	-29.3	14.1	3.00e-06	0	40	0	179306496	14	4592
2026-01-12 00:02:30.48	21.26	12.01	-27.0	-28.9	13.3	1.50e-06	0	41	0	182452224	14	4448
2026-01-12 00:02:31.48	21.29	12.10	-27.5	-29.9	12.6	3.80e-06	0	41	0	185597952	14	4783
2026-01-12 00:02:32.49	21.32	12.19	-27.3	-29.4	14.1	3.80e-06	0	41	0	188743680	14	4618
2026-01-12 00:02:33.49	21.35	12.29	-27.6	-29.7	13.6	7.00e-07	0	41	0	191889408	15	4578
2026-01-12 00:02:34.50	21.38	12.38	-27.8	-30.1	13.4	1.44e-05	0	41	0	195035136	15	4732
2026-01-12 00:02:35.50	21.40	12.48	-27.6	-29.8	13.6	7.60e-06	0	41	0	198180864	15	4610
2026-01-12 00:02:36.50	21.43	12.57	-27.7	-29.9	13.6	1.06e-05	0	41	0	201326592	15	4651
2026-01-12 00:02:37.51	21.46	12.67	-27.5	-29.9	13.8	3.54e-03	0	41	0	204472320	14	4776
2026-01-12 00:02:38.52	21.49	12.76	-28.2	-30.5	12.7	3.43e-05	0	41	0	207618048	16	4728
2026-01-12 00:02:39.53	21.52	12.86	-27.8	-30.2	13.4	1.83e-05	0	41	0	210763776	15	4730
2026-01-12 00:02:40.54	21.55	12.96	-27.9	-30.3	13.3	9.90e-06	0	41	0	213909504	15	4790
2026-01-12 00:02:41.54	21.58	13.05	-27.4	-29.3	13.9	3.80e-06	0	41	0	217055232	15	4464
2026-01-12 00:02:42.55	21.61	13.15	-27.4	-29.8	13.9	4.05e-03	0	41	0	220200960	14	4735
2026-01-12 00:02:43.56	21.64	13.25	-27.4	-29.8	13.9	3.97e-03	0	41	0	223346688	14	4721
2026-01-12 00:02:44.56	21.67	13.35	-27.3	-29.4	14.2	6.40e-04	0	41	0	226492416	14	4606
2026-01-12 00:02:45.56	21.70	13.45	-27.1	-28.9	14.5	0.00e+00	0	41	0	229638144	14	4455
2026-01-12 00:02:46.57	21.73	13.55	-26.8	-28.7	14.9	0.00e+00	0	41	0	232783872	13	4517
2026-01-12 00:02:47.58	21.76	13.65	-26.8	-28.8	14.8	0.00e+00	0	41	0	235929600	13	4556
2026-01-12 00:02:48.59	21.79	13.75	-26.8	-28.7	14.9	3.53e-03	0	41	0	239075328	13	4508
2026-01-12 00:02:49.60	21.83	13.85	-26.7	-28.5	15.0	4.49e-03	0	41	0	242221056	13	4453
2026-01-12 00:02:50.60	21.86	13.95	-26.7	-28.6	15.0	4.67e-04	0	41	0	245366784	13	4483
2026-01-12 00:02:51.61	21.89	14.05	-26.8	-28.9	14.8	0.00e+00	0	41	0	248512512	13	4575
2026-01-12 00:02:52.62	21.92	14.15	-26.7	-28.6	15.0	3.77e-03	0	41	0	251658240	13	4469
2026-01-12 00:02:53.63	21.95	14.25	-26.9	-29.0	14.7	4.48e-04	0	41	0	254803968	13	4602
2026-01-12 00:02:54.63	21.98	14.36	-26.8	-28.9	14.8	3.85e-03	0	41	0	257949696	13	4551
2026-01-12 00:02:55.63	22.02	14.46	-26.8	-28.8	14.9	3.77e-03	0	41	0	261095424	13	4541
2026-01-12 00:02:56.64	22.05	14.56	-26.9	-29.0	14.8	3.46e-04	0	41	0	264241152	13	4584
2026-01-12 00:02:57.65	22.08	14.67	-26.8	-28.8	14.9	3.44e-03	0	41	0	267386880	13	4536
2026-01-12 00:02:58.65	22.11	14.77	-26.7	-28.7	15.0	3.91e-03	0	41	0	270532608	13	4490
2026-01-12 00:02:59.66	22.15	14.87	-26.7	-28.6	15.0	2.39e-04	0	41	0	273678336	13	4483
2026-01-12 00:03:00.66	22.18	14.98	-26.7	-28.5	15.1	3.15e-03	0	41	0	276824064	13	4458
2026-01-12 00:03:01.67	22.21	15.08	-26.6	-28.4	15.1	2.36e-04	0	41	0	279969792	13	4427
2026-01-12 00:03:02.67	22.25	15.19	-26.8	-28.7	15.0	2.28e-04	0	41	0	283115520	13	4510
2026-01-12 00:03:03.68	22.28	15.30	-26.8	-28.8	14.9	0.00e+00	0	41	0	286261248	13	4521
2026-01-12 00:03:04.69	22.32	15.40	-26.7	-28.6	15.1	3.03e-03	0	41	0	289406976	13	4466
2026-01-12 00:03:05.69	22.35	15.51	-26.7	-28.5	15.1	2.50e-04	0	41	0	292552704	13	4440
2026-01-12 00:03:06.70	22.39	15.62	-26.8	-28.8	14.9	0.00e+00	0	41	0	295698432	13	4523
2026-01-12 00:03:07.71	22.42	15.73	-26.8	-28.8	14.9	2.13e-04	0	41	0	298844160	13	4529
2026-01-12 00:03:08.71	22.45	15.84	-26.9	-28.9	14.9	0.00e+00	0	41	0	301989888	13	4560
2026-01-12 00:03:09.72	22.49	15.95	-26.9	-29.0	14.9	7.00e-07	0	41	0	305135616	13	4581
2026-01-12 00:03:10.73	22.53	16.06	-26.9	-29.1	14.8	2.78e-03	0	41	0	308281344	13	4614
2026-01-12 00:03:11.73	22.56	16.17	-26.9	-29.1	14.8	2.35e-04	0	41	0	311427072	13	4618
2026-01-12 00:03:12.74	22.60	16.28	-27.0	-28.8	14.7	0.00e+00	0	41	0	314572800	14	4408
2026-01-12 00:03:13.74	22.63	16.39	-27.0	-28.7	14.8	0.00e+00	0	41	0	317718528	14	4371
2026-01-12 00:03:14.74	22.67	16.50	-27.0	-28.6	14.8	0.00e+00	0	41	0	320864256	14	4366
2026-01-12 00:03:15.75	22.71	16.61	-27.0	-29.2	14.7	7.00e-07	0	41	0	324009984	13	4644
2026-01-12 00:03:16.76	22.74	16.72	-27.0	-28.7	14.8	3.03e-04	0	41	0	327155712	14	4374
2026-01-12 00:03:17.76	22.78	16.84	-26.8	-28.8	14.9	0.00e+00	0	41	0	329252864	13	4537
2026-01-12 00:03:18.76	22.82	16.95	-26.9	-28.9	14.9	7.00e-07	0	41	0	332398592	13	4563
2026-01-12 00:03:19.76	22.85	17.06	-26.9	-28.9	14.9	0.00e+00	0	41	0	335544320	13	4547
2026-01-12 00:03:20.77	22.89	17.18	-26.8	-28.8	15.0	0.00e+00	0	41	0	339738624	13	4526
2026-01-12 00:03:21.77	22.93	17.29	-26.8	-28.3	15.0	0.00e+00	0	41	0	342884352	14	4275
2026-01-12 00:03:22.77	22.97	17.41	-26.6	-28.4	15.2	0.00e+00	0	41	0	346030080	13	4408
2026-01-12 00:03:23.78	23.01	17.53	-26.7	-28.4	15.2	0.00e+00	0	41	0	349175808	13	4415
2026-01-12 00:03:24.79	23.05	17.64	-26.7	-28.6	15.1	0.00e+00	0	41	0	352321536	13	4456
2026-01-12 00:03:25.79	23.09	17.76	-26.6	-28.4	15.3	7.00e-07	0	41	0	354418688	13	4401
2026-01-12 00:03:26.80	23.13	17.88	-26.7	-28.6	15.1	0.00e+00	0	41	0	357564416	13	4461
2026-01-12 00:03:27.81	23.16	18.00	-26.7	-28.5	15.2	0.00e+00	0	41	0	360710144	13	4424
2026-01-12 00:03:28.81	23.20	18.12	-26.6	-28.3	15.3	0.00e+00	0	41	0	363855872	13	4390
2026-01-12 00:03:29.81	23.24	18.24	-26.7	-28.4	15.2	0.00e+00	0	41	0	367001600	13	4413
2026-01-12 00:03:30.82	23.29	18.36	-26.8	-28.7	15.1	0.00e+00	0	41	0	371195904	13	4492
2026-01-12 00:03:31.83	23.33	18.48	-26.7	-28.5	15.2	7.00e-07	0	41	0	374341632	13	4437
2026-01-12 00:03:32.84	23.37	18.60	-26.9	-28.9	14.9	0.00e+00	0	41	0	376438784	13	4562
2026-01-12 00:03:33.85	23.41	18.72	-27.0	-29.2	14.8	0.00e+00	0	41	0	379584512	13	4633
2026-01-12 00:03:34.85	23.45	18.85	-26.9	-29.1	14.9	0.00e+00	0	41	0	382730240	13	4609
2026-01-12 00:03:35.85	23.49	18.97	-26.9	-29.1	14.9	0.00e+00	0	41	0	385875968	13	4609
2026-01-12 00:03:36.85	23.53	19.09	-26.8	-28.9	15.0	7.00e-07	0	41	0	389021696	13	4541
2026-01-12 00:03:37.86	23.58	19.22	-26.7	-28.5	15.2	0.00e+00	0	41	0	392167424	13	4436
2026-01-12 00:03:38.86	23.62	19.34	-26.7	-28.6	15.2	0.00e+00	0	41	0	395313152	13	4452
2026-01-12 00:03:39.87	23.66	19.47	-26.6	-28.3	15.3	7.00e-07	0	41	0	399507456	13	4377
2026-01-12 00:03:40.88	23.71	19.59	-26.7	-28.5	15.2	0.00e+00	0	41	0	401604608	13	4430
2026-01-12 00:03:41.88	23.75	19.72	-26.6	-28.3	15.3	0.00e+00	0	41	0	404750336	13	4370
2026-01-12 00:03:42.90	23.80	19.85	-26.4	-27.9	15.6	0.00e+00	0	41	0	407896064	13	4264
2026-01-12 00:03:43.90	23.84	19.98	-26.4	-28.3	15.6	0.00e+00	0	41	0	411041792	12	4496
2026-01-12 00:03:44.91	23.89	20.11	-26.5	-28.0	15.5	0.00e+00	0	41	0	414187520	13	4296
2026-01-12 00:03:45.91	23.93	20.24	-26.8	-28.8	15.1	0.00e+00	0	41	0	417333248	13	4520
2026-01-12 00:03:46.91	23.98	20.37	-26.7	-28.1	15.2	0.00e+00	0	41	0	420478976	14	4199
2026-01-12 00:03:47.92	24.02	20.50	-26.8	-28.2	15.2	0.00e+00	0	41	0	424673280	14	4238
2026-01-12 00:03:48.93	24.07	20.63	-26.8	-28.3	15.1	0.00e+00	0	41	0	426770432	14	4259
2026-01-12 00:03:49.93	24.12	20.76	-26.6	-28.3	15.4	0.00e+00	0	41	0	429916160	13	4372
2026-01-12 00:03:50.94	24.16	20.89	-26.8	-28.7	15.2	0.00e+00	0	41	0	433061888	13	4482
2026-01-12 00:03:51.95	24.21	21.03	-26.6	-28.3	15.4	0.00e+00	0	41	0	436207616	13	4379
2026-01-12 00:03:52.95	24.26	21.16	-26.5	-28.1	15.5	0.00e+00	0	41	0	439353344	13	4308
2026-01-12 00:03:53.96	24.31	21.30	-26.4	-27.9	14.8	0.00e+00	0	42	0	442499072	13	4264
2026-01-12 00:03:54.96	24.35	21.43	-27.0	-28.7	14.0	0.00e+00	0	41	0	445644800	13	4356
2026-01-12 00:03:55.96	24.40	21.57	-26.8	-28.7	15.2	0.00e+00	0	41	0	448790528	13	4481
2026-01-12 00:03:56.97	24.45	21.71	-26.6	-28.3	15.3	0.00e+00	0	42	0	451936256	13	4380
2026-01-12 00:03:57.97	24.50	21.84	-26.4	-27.9	15.6	2.79e-03	0	41	0	455081984	13	4259
2026-01-12 00:03:58.98	24.55	21.98	-26.2	-27.4	15.9	0.00e+00	0	41	0	458227712	13	4116
2026-01-12 00:03:59.97	24.60	22.12	-26.1	-27.6	16.1	0.00e+00	0	41	0	461373440	12	4281
2026-01-12 00:04:00.99	24.65	22.26	-26.1	-27.6	16.1	0.00e+00	0	41	0	464519168	12	4285
2026-01-12 00:04:01.99	24.71	22.40	-26.2	-27.9	15.9	0.00e+00	0	42	0	467664896	12	4374
2026-01-12 00:04:03.00	24.76	22.55	-26.3	-28.2	15.8	1.65e-03	0	41	0	470810624	12	4451
2026-01-12 00:04:04.00	24.81	22.69	-26.5	-28.1	15.5	1.87e-03	0	41	0	473956352	13	4308
2026-01-12 00:04:05.01	24.86	22.83	-26.6	-28.1	15.5	0.00e+00	0	41	0	477102080	13	4325
2026-01-12 00:04:06.02	24.92	22.98	-27.0	-28.8	14.9	0.00e+00	0	41	0	480247808	14	4390
2026-01-12 00:04:07.02	24.97	23.12	-26.8	-28.2	15.3	6.80e-06	0	41	0	483393536	14	4231
2026-01-12 00:04:08.03	25.02	23.27	-26.5	-27.6	15.6	1.50e-06	0	41	0	486539264	14	4079
2026-01-12 00:04:09.04	25.08	23.41	-26.8	-28.7	15.2	1.90e-03	0	42	0	489684992	13	4483
2026-01-12 00:04:10.05	25.13	23.56	-26.6	-28.4	15.4	1.71e-03	0	41	0	492830720	13	4387
2026-01-12 00:04:11.05	25.19	23.71	-26.5	-28.0	15.6	0.00e+00	0	41	0	495976448	13	4301
2026-01-12 00:04:12.06	25.25	23.86	-26.5	-28.1	15.6	2.01e-03	0	41	0	499122176	13	4320
2026-01-12 00:04:13.07	25.30	24.01	-26.5	-28.0	15.6	2.31e-03	0	41	0	502267904	13	4287
2026-01-12 00:04:14.07	25.36	24.16	-26.1	-27.1	16.1	0.00e+00	0	41	0	505413632	13	4051
2026-01-12 00:04:15.08	25.42	24.31	-25.7	-26.8	16.6	2.70e-03	0	41	0	508559360	12	4065
2026-01-12 00:04:16.09	25.48	24.46	-25.6	-27.1	16.8	2.95e-03	0	41	0	511705088	11	4262
2026-01-12 00:04:17.09	25.53	24.62	-25.8	-27.3	16.6	5.95e-05	0	41	0	514850816	11	4321
2026-01-12 00:04:18.09	25.59	24.77	-25.7	-27.2	16.7	3.06e-03	0	41	0	517996544	11	4287
2026-01-12 00:04:19.09	25.65	24.92	-25.8	-27.5	16.6	3.19e-03	0	41	0	521142272	11	4353
2026-01-12 00:04:20.10	25.71	25.08	-25.8	-27.5	16.6	5.95e-05	0	41	0	524288000	11	4376
2026-01-12 00:04:21.11	25.77	25.24	-25.9	-27.7	16.5	3.09e-03	0	41	0	527433728	11	4433
2026-01-12 00:04:22.11	25.83	25.39	-25.9	-27.7	16.4	5.79e-05	0	41	0	530579456	11	4435
2026-01-12 00:04:23.11	25.90	25.55	-26.0	-27.9	16.4	0.00e+00	0	41	0	533725184	11	4473
2026-01-12 00:04:24.12	25.96	25.71	-26.0	-27.3	16.4	3.13e-03	0	41	0	536870912	12	4215
2026-01-12 00:04:25.12	26.02	25.87	-26.1	-27.6	16.2	3.10e-03	0	41	0	540016640	12	4289
2026-01-12 00:04:26.13	26.09	26.03	-26.2	-27.8	16.1	9.10e-06	0	41	0	543162368	12	4338
2026-01-12 00:04:27.14	26.15	26.20	-26.3	-28.2	15.9	0.00e+00	0	41	0	546308096	12	4441
2026-01-12 00:04:28.15	26.21	26.36	-26.3	-28.1	15.9	9.10e-06	0	41	0	549453824	12	4423
2026-01-12 00:04:29.16	26.28	26.53	-26.4	-28.4	15.8	0.00e+00	0	41	0	552599552	12	4498
2026-01-12 00:04:30.16	26.35	26.69	-26.6	-28.3	15.5	3.00e-03	0	41	0	555745280	13	4374
2026-01-12 00:04:31.16	26.41	26.85	-26.8	-28.8	15.3	2.20e-06	0	42	0	558891008	13	4516
2026-01-12 00:04:32.17	26.48	27.02	-26.7	-28.6	15.4	0.00e+00	0	41	0	562036736	13	4441
2026-01-12 00:04:33.18	26.55	27.19	-26.8	-28.7	15.3	0.00e+00	0	41	0	565182464	13	4487
2026-01-12 00:04:34.19	26.62	27.36	-26.8	-28.8	15.3	0.00e+00	0	42	0	568328192	13	4507
2026-01-12 00:04:35.20	26.69	27.53	-27.0	-29.1	15.1	0.00e+00	0	42	0	571473920	13	4598
2026-01-12 00:04:36.20	26.76	27.70	-27.0	-28.7	15.1	0.00e+00	0	41	0	574619648	14	4364
2026-01-12 00:04:37.20	26.83	27.87	-27.2	-29.0	14.9	0.00e+00	0	42	0	577765376	14	4460
2026-01-12 00:04:38.21	26.90	28.05	-27.2	-29.1	14.9	7.00e-07	0	42	0	580911104	14	4473
2026-01-12 00:04:39.21	26.97	28.22	-27.5	-29.8	14.5	7.00e-07	0	41	0	584056832	14	4688
2026-01-12 00:04:40.21	27.05	28.40	-27.4	-29.1	14.6	0.00e+00	0	41	0	587202560	15	4365
2026-01-12 00:04:41.22	27.12	28.57	-27.3	-28.8	14.8	0.00e+00	0	41	0	590348288	15	4285
2026-01-12 00:04:42.23	27.19	28.75	-27.2	-29.2	14.8	0.00e+00	0	41	0	593494016	14	4499
2026-01-12 00:04:43.23	27.27	28.93	-27.3	-29.3	14.7	0.00e+00	0	42	0	596639744	14	4546
2026-01-12 00:04:44.24	27.35	29.11	-27.3	-29.2	14.8	0.00e+00	0	42	0	599785472	14	4525
2026-01-12 00:04:45.24	27.42	29.29	-27.3	-29.4	14.7	0.00e+00	0	41	0	602931200	14	4562
2026-01-12 00:04:46.25	27.50	29.47	-27.3	-29.4	14.7	7.00e-07	0	42	0	606076928	14	4555
2026-01-12 00:04:47.26	27.58	29.66	-27.4	-29.6	14.6	7.00e-07	0	42	0	609222656	14	4627
2026-01-12 00:04:48.26	27.66	29.84	-27.2	-29.0	14.9	0.00e+00	0	42	0	612368384	14	4462
2026-01-12 00:04:49.27	27.74	30.03	-27.0	-28.6	15.2	0.00e+00	0	41	0	615514112	14	4349
2026-01-12 00:04:50.28	27.82	30.21	-26.9	-28.5	15.2	0.00e+00	0	41	0	618659840	14	4311
2026-01-12 00:04:51.28	27.90	30.40	-26.9	-28.4	15.3	0.00e+00	0	41	0	621805568	14	4293
2026-01-12 00:04:52.29	27.99	30.59	-27.1	-28.8	15.1	0.00e+00	0	42	0	624951296	14	4403
2026-01-12 00:04:53.30	28.07	30.78	-26.7	-28.0	15.5	0.00e+00	0	42	0	628097024	14	4185
2026-01-12 00:04:54.31	28.16	30.97	-26.8	-28.1	15.5	0.00e+00	0	41	0	631242752	14	4188
2026-01-12 00:04:55.32	28.24	31.17	-27.1	-28.8	15.1	0.00e+00	0	42	0	634388480	14	4391
2026-01-12 00:04:56.32	28.33	31.36	-26.8	-28.2	15.5	0.00e+00	0	41	0	637534208	14	4217
2026-01-12 00:04:57.33	28.42	31.55	-26.6	-28.2	15.7	0.00e+00	0	42	0	640679936	13	4328
2026-01-12 00:04:58.34	28.51	31.75	-26.7	-28.4	15.6	0.00e+00	0	41	0	643825664	13	4382
2026-01-12 00:04:59.34	28.60	31.95	-27.1	-28.9	15.1	0.00e+00	0	42	0	646971392	14	4429
2026-01-12 00:05:00.35	28.69	32.15	-27.3	-29.3	14.8	0.00e+00	0	41	0	650117120	14	4528
2026-01-12 00:05:01.35	28.78	32.35	-27.1	-28.9	15.0	0.00e+00	0	41	0	653262848	14	4433
2026-01-12 00:05:02.36	28.87	32.55	-27.2	-29.0	15.0	0.00e+00	0	42	0	656408576	14	4453
2026-01-12 00:05:03.36	28.97	32.75	-27.3	-29.2	14.9	7.00e-07	0	42	0	659554304	14	4509
2026-01-12 00:05:04.36	29.06	32.95	-27.7	-29.7	14.3	2.20e-06	0	41	0	662700032	15	4531
2026-01-12 00:05:05.37	29.16	33.16	-27.5	-29.2	14.6	0.00e+00	0	42	0	665845760	15	4403
2026-01-12 00:05:06.38	29.26	33.36	-27.6	-29.6	14.4	0.00e+00	0	42	0	668991488	15	4509
2026-01-12 00:05:07.38	29.36	33.57	-27.4	-29.1	14.7	0.00e+00	0	41	0	672137216	15	4368
2026-01-12 00:05:08.39	29.46	33.78	-27.9	-30.1	14.1	0.00e+00	0	42	0	675282944	15	4670
2026-01-12 00:05:09.40	29.56	33.99	-27.4	-29.1	14.7	0.00e+00	0	42	0	678428672	15	4353
2026-01-12 00:05:10.40	29.66	34.20	-27.5	-29.3	14.6	1.50e-06	0	41	0	681574400	15	4426
2026-01-12 00:05:11.41	29.77	34.42	-27.3	-28.9	14.8	0.00e+00	0	42	0	684720128	15	4306
2026-01-12 00:05:12.42	29.87	34.63	-27.8	-30.0	14.2	7.00e-07	0	42	0	687865856	15	4634
2026-01-12 00:05:13.43	29.98	34.85	-27.9	-30.3	14.1	7.00e-07	0	41	0	691011584	15	4714
2026-01-12 00:05:14.43	30.09	35.07	-28.3	-30.6	13.8	6.10e-06	0	42	0	694157312	16	4677
2026-01-12 00:05:15.43	30.20	35.28	-27.8	-29.5	14.4	7.00e-07	0	42	0	697303040	16	4363
2026-01-12 00:05:16.43	30.31	35.50	-28.0	-29.9	14.2	1.50e-06	0	41	0	700448768	16	4472
2026-01-12 00:05:17.44	30.42	35.72	-28.2	-30.4	13.9	3.80e-06	0	42	0	703594496	16	4635
2026-01-12 00:05:18.45	30.53	35.95	-28.1	-30.2	14.0	2.20e-06	0	42	0	706740224	16	4552
2026-01-12 00:05:19.46	30.65	36.17	-28.5	-31.0	13.5	4.50e-06	0	41	0	709885952	16	4814
2026-01-12 00:05:20.46	30.77	36.40	-28.8	-31.1	13.1	2.74e-05	0	42	0	713031680	17	4743
2026-01-12 00:05:21.47	30.88	36.63	-28.4	-30.4	13.6	1.29e-05	0	42	0	716177408	17	4499
2026-01-12 00:05:22.47	31.00	36.85	-28.3	-30.0	13.8	5.30e-06	0	42	0	719323136	17	4388
2026-01-12 00:05:23.48	31.13	37.09	-28.1	-29.6	14.1	8.30e-06	0	41	0	722468864	17	4268
2026-01-12 00:05:24.49	31.25	37.32	-27.9	-29.2	14.3	3.58e-05	0	41	0	725614592	17	4174
2026-01-12 00:05:25.49	31.37	37.55	-28.0	-29.3	14.2	3.80e-06	0	41	0	728760320	17	4204
2026-01-12 00:05:26.50	31.50	37.79	-28.0	-29.3	14.3	7.00e-07	0	41	0	731906048	17	4204
2026-01-12 00:05:27.51	31.63	38.02	-28.1	-29.5	14.1	1.50e-06	0	42	0	735051776	17	4253
2026-01-12 00:05:28.52	31.76	38.26	-27.8	-28.8	14.5	0.00e+00	0	42	0	738197504	17	4057
2026-01-12 00:05:29.52	31.89	38.50	-27.7	-29.1	14.7	6.17e-05	0	42	0	741343232	16	4232
2026-01-12 00:05:30.53	32.03	38.74	-27.7	-29.2	14.6	3.89e-05	0	42	0	744488960	16	4272
2026-01-12 00:05:31.53	32.17	38.98	-27.7	-29.1	14.7	0.00e+00	0	42	0	747634688	16	4224
2026-01-12 00:05:32.54	32.30	39.23	-27.7	-29.1	14.7	1.90e-05	0	42	0	750780416	16	4238
2026-01-12 00:05:33.54	32.44	39.47	-27.8	-29.4	14.5	7.00e-07	0	42	0	753926144	16	4333
2026-01-12 00:05:34.55	32.59	39.72	-27.8	-29.5	14.4	1.50e-06	0	42	0	757071872	16	4348
2026-01-12 00:05:35.56	32.73	39.97	-27.9	-29.7	14.3	3.58e-05	0	42	0	760217600	16	4418
2026-01-12 00:05:36.56	32.88	40.22	-28.0	-30.0	14.2	3.05e-05	0	42	0	763363328	16	4489
2026-01-12 00:05:37.57	33.03	40.47	-28.0	-30.3	13.9	1.50e-06	0	42	0	766509056	16	4664
2026-01-12 00:05:38.57	33.18	40.72	-28.4	-30.7	13.8	2.28e-05	0	42	0	769654784	16	4722
2026-01-12 00:05:39.58	33.33	40.98	-28.7	-31.1	13.2	2.97e-05	0	42	0	772800512	17	4723
2026-01-12 00:05:40.59	33.49	41.24	-28.8	-31.3	13.1	2.13e-05	0	42	0	775946240	17	4817
2026-01-12 00:05:41.60	33.65	41.50	-29.1	-31.5	12.7	1.41e-04	0	41	0	779091968	18	4744
2026-01-12 00:05:42.60	33.81	41.76	-29.2	-31.7	12.6	2.32e-04	0	41	0	782237696	18	4829
2026-01-12 00:05:43.60	33.97	42.02	-29.2	-31.8	12.6	1.85e-04	0	42	0	785383424	18	4838
2026-01-12 00:05:44.61	34.14	42.28	-29.1	-31.6	12.7	2.87e-04	0	42	0	788529152	18	4792
2026-01-12 00:05:45.63	34.31	42.55	-29.1	-31.5	12.7	3.33e-04	0	41	0	791674880	18	4768
2026-01-12 00:05:46.63	34.48	42.81	-29.0	-31.2	12.9	4.65e-05	0	41	0	794820608	18	4664
2026-01-12 00:05:47.64	34.65	43.08	-29.1	-31.6	12.7	7.78e-05	0	42	0	797966336	18	4778
2026-01-12 00:05:48.64	34.83	43.35	-29.2	-31.7	12.6	1.99e-04	0	41	0	801112064	18	4831
2026-01-12 00:05:49.65	35.01	43.62	-29.3	-32.1	12.4	3.26e-04	0	42	0	804257792	18	4943
2026-01-12 00:05:50.66	35.19	43.90	-29.4	-32.3	12.3	7.99e-04	0	42	0	807403520	18	5009
2026-01-12 00:05:51.67	35.38	44.17	-29.6	-32.3	11.9	9.91e-04	0	42	0	810549248	19	4920
2026-01-12 00:05:52.68	35.57	44.45	-29.8	-32.7	11.7	8.79e-04	0	42	0	813694976	19	5062
2026-01-12 00:05:53.68	35.76	44.73	-29.5	-31.9	12.2	2.73e-04	0	42	0	816840704	19	4772
2026-01-12 00:05:54.69	35.96	45.01	-29.2	-31.3	12.6	2.97e-04	0	42	0	819986432	19	4582
2026-01-12 00:05:55.70	36.16	45.29	-29.3	-31.4	12.5	1.20e-04	0	42	0	823132160	19	4590
2026-01-12 00:05:56.71	36.36	45.57	-29.3	-31.9	12.5	1.63e-04	0	42	0	826277888	18	4889
2026-01-12 00:05:57.72	36.57	45.86	-29.2	-31.7	12.6	8.77e-05	0	42	0	829423616	18	4818
2026-01-12 00:05:58.73	36.78	46.15	-29.2	-31.6	12.6	1.04e-04	0	42	0	832569344	18	4787
2026-01-12 00:05:59.73	37.00	46.43	-29.1	-31.5	12.7	7.78e-05	0	42	0	835715072	18	4736
2026-01-12 00:06:00.74	37.21	46.72	-28.9	-30.9	13.2	4.65e-05	0	42	0	838860800	18	4548
2026-01-12 00:06:01.74	37.44	47.01	-28.5	-30.0	13.7	9.10e-06	0	42	0	842006528	18	4265
2026-01-12 00:06:02.75	37.66	47.31	-28.3	-30.0	14.0	3.80e-06	0	42	0	845152256	17	4372
2026-01-12 00:06:03.75	37.89	47.60	-28.3	-30.6	14.0	1.50e-06	0	42	0	848297984	16	4658
2026-01-12 00:06:04.76	38.13	47.89	-28.4	-30.8	13.8	2.20e-06	0	42	0	851443712	16	4744
2026-01-12 00:06:05.76	38.36	48.19	-28.2	-30.4	14.0	3.00e-06	0	42	0	854589440	16	4599
2026-01-12 00:06:06.77	38.61	48.49	-28.1	-30.1	14.2	2.20e-06	0	42	0	857735168	16	4518
2026-01-12 00:06:07.77	38.86	48.79	-28.0	-29.8	14.4	1.50e-06	0	42	0	860880896	16	4436
2026-01-12 00:06:08.77	39.11	49.09	-27.9	-30.0	14.4	7.00e-07	0	42	0	864026624	15	4616
2026-01-12 00:06:09.78	39.37	49.39	-27.8	-29.9	14.5	7.00e-07	0	42	0	867172352	15	4587
2026-01-12 00:06:10.79	39.63	49.70	-28.1	-30.0	14.3	1.50e-06	0	42	0	870318080	16	4497
2026-01-12 00:06:11.79	39.90	50.00	-28.3	-30.6	13.9	2.20e-06	0	42	0	873463808	16	4676
2026-01-12 00:06:12.80	40.17	50.31	-28.3	-30.6	14.0	7.00e-07	0	42	0	876609536	16	4670
2026-01-12 00:06:13.80	40.45	50.62	-28.4	-30.8	13.8	4.50e-06	0	42	0	879755264	16	4744
2026-01-12 00:06:14.81	40.74	50.93	-28.8	-31.1	13.3	1.14e-05	0	42	0	882900992	17	4737
2026-01-12 00:06:15.81	41.03	51.24	-29.0	-31.3	13.0	4.34e-05	0	42	0	886046720	18	4664
2026-01-12 00:06:16.82	41.32	51.55	-28.8	-30.8	13.3	2.13e-05	0	42	0	889192448	18	4513
2026-01-12 00:06:17.83	41.63	51.87	-28.9	-31.4	13.2	1.44e-05	0	42	0	892338176	17	4819
2026-01-12 00:06:18.83	41.94	52.18	-28.7	-30.9	13.6	9.90e-06	0	42	0	895483904	17	4665
2026-01-12 00:06:19.84	42.25	52.50	-28.4	-30.4	13.9	7.60e-06	0	42	0	898629632	17	4489
2026-01-12 00:06:20.85	42.58	52.82	-28.4	-30.2	14.0	3.00e-06	0	42	0	901775360	17	4440
2026-01-12 00:06:21.86	42.91	53.14	-28.4	-30.7	14.0	2.20e-06	0	42	0	904921088	16	4709
2026-01-12 00:06:22.86	43.25	53.46	-28.2	-30.2	14.2	2.20e-06	0	42	0	908066816	16	4558
2026-01-12 00:06:23.87	43.59	53.78	-28.2	-30.3	14.2	2.20e-06	0	42	0	911212544	16	4579
2026-01-12 00:06:24.88	43.95	54.10	-28.3	-30.6	14.0	1.50e-06	0	42	0	914358272	16	4678
2026-01-12 00:06:25.89	44.31	54.43	-28.3	-30.6	14.0	3.80e-06	0	42	0	917504000	16	4668
2026-01-12 00:06:26.89	44.67	54.75	-28.0	-29.9	14.4	0.00e+00	0	42	0	920649728	16	4473
2026-01-12 00:06:27.90	45.05	55.07	-27.8	-29.4	14.7	7.00e-07	0	42	0	923795456	16	4333
2026-01-12 00:06:28.91	45.44	55.40	-27.7	-29.1	14.9	0.00e+00	0	42	0	926941184	16	4224
2026-01-12 00:06:29.91	45.83	55.72	-27.5	-29.2	15.0	7.00e-07	0	42	0	930086912	15	4392
2026-01-12 00:06:30.92	46.24	56.05	-27.2	-28.6	15.3	0.00e+00	0	42	0	933232640	15	4197
2026-01-12 00:06:31.92	46.65	56.38	-27.4	-28.9	15.2	0.00e+00	0	42	0	936378368	15	4284
2026-01-12 00:06:32.93	47.07	56.71	-26.4	-28.3	14.9	7.00e-07	0	41	0	939524096	14	4487
2026-01-12 00:06:33.93	47.50	57.03	-27.0	-28.6	15.6	0.00e+00	0	42	0	942669824	14	4317
2026-01-12 00:06:34.94	47.95	57.36	-27.1	-28.9	14.5	0.00e+00	0	42	0	945815552	14	4392
2026-01-12 00:06:35.94	48.40	57.69	-27.0	-28.6	15.1	0.00e+00	0	42	0	948961280	14	4323
2026-01-12 00:06:36.95	48.87	58.02	-27.1	-28.8	15.5	0.00e+00	0	42	0	952107008	14	4369
2026-01-12 00:06:37.96	49.35	58.35	-26.8	-28.6	15.8	0.00e+00	0	42	0	955252736	13	4419
2026-01-12 00:06:38.97	49.84	58.68	-26.6	-28.2	16.1	0.00e+00	0	42	0	958398464	13	4319
2026-01-12 00:06:39.97	50.33	59.01	-26.6	-28.1	16.2	0.00e+00	0	42	0	961544192	13	4270
2026-01-12 00:06:40.98	50.85	59.34	-26.6	-28.1	16.1	2.17e-03	0	42	0	964689920	13	4284
2026-01-12 00:06:41.99	51.38	59.67	-26.4	-27.7	16.4	0.00e+00	0	42	0	967835648	13	4180
2026-01-12 00:06:43.00	51.92	60.00	-26.2	-27.3	16.5	0.00e+00	0	42	0	970981376	13	4073
2026-01-12 00:06:44.01	52.48	60.32	-26.2	-27.8	16.5	2.15e-03	0	42	0	974127104	12	4301
2026-01-12 00:06:45.01	53.04	60.65	-26.0	-27.3	16.8	2.63e-03	0	42	0	977272832	12	4188
2026-01-12 00:06:46.02	53.63	60.98	-25.7	-26.5	17.2	0.00e+00	0	42	0	980418560	12	3980
2026-01-12 00:06:47.02	54.22	61.30	-25.7	-27.0	17.2	9.34e-04	0	42	0	983564288	11	4214
2026-01-12 00:06:48.03	54.84	61.62	-25.7	-27.2	17.2	0.00e+00	0	42	0	986710016	11	4254
2026-01-12 00:06:49.03	55.46	61.94	-25.8	-27.4	17.1	0.00e+00	0	41	0	989855744	11	4321
2026-01-12 00:06:50.03	56.11	62.26	-25.7	-27.0	17.3	9.98e-04	0	42	0	993001472	11	4222
2026-01-12 00:06:51.04	56.77	62.58	-25.5	-26.7	17.5	6.19e-04	0	42	0	996147200	11	4121
2026-01-12 00:06:52.04	57.45	62.90	-25.5	-26.8	17.5	0.00e+00	0	42	0	999292928	11	4142
2026-01-12 00:06:53.05	58.15	63.22	-26.0	-27.2	16.9	0.00e+00	0	42	0	1002438656	12	4154
2026-01-12 00:06:54.05	58.86	63.53	-26.1	-27.5	16.8	1.30e-04	0	42	0	1005584384	12	4224
2026-01-12 00:06:55.05	59.60	63.84	-25.9	-27.1	17.0	0.00e+00	0	42	0	1008730112	12	4120
2026-01-12 00:06:56.05	60.35	64.14	-26.1	-27.4	16.9	1.34e-04	0	42	0	1011875840	12	4201
2026-01-12 00:06:57.06	61.13	64.45	-26.1	-27.4	16.8	2.41e-04	0	42	0	1015021568	12	4204
2026-01-12 00:06:58.07	61.93	64.75	-26.0	-27.2	16.9	0.00e+00	0	42	0	1018167296	12	4159
2026-01-12 00:06:59.08	62.75	65.05	-25.9	-27.1	17.0	0.00e+00	0	42	0	1021313024	12	4137
2026-01-12 00:07:00.09	63.60	65.35	-26.2	-27.8	16.7	1.17e-04	0	42	0	1024458752	12	4300
2026-01-12 00:07:01.10	64.47	65.65	-26.1	-27.6	16.7	0.00e+00	0	42	0	1027604480	12	4254
2026-01-12 00:07:02.10	65.35	65.93	-26.7	-28.4	16.0	1.18e-03	0	42	0	1030750208	13	4373
2026-01-12 00:07:03.11	66.26	66.22	-26.4	-28.0	16.3	2.26e-03	0	42	0	1033895936	13	4302
2026-01-12 00:07:04.12	67.20	66.50	-26.1	-27.0	16.8	0.00e+00	0	42	0	1037041664	13	3998
2026-01-12 00:07:05.12	68.15	66.77	-25.9	-27.2	17.0	0.00e+00	0	42	0	1040187392	12	4150
2026-01-12 00:07:06.13	69.14	67.04	-26.0	-27.7	17.1	3.04e-03	0	42	0	1043333120	11	4396
2026-01-12 00:07:07.13	70.14	67.30	-26.1	-27.6	16.8	0.00e+00	0	42	0	1046478848	12	4255
2026-01-12 00:07:08.14	71.18	67.56	-26.4	-28.1	16.5	7.93e-05	0	42	0	1049624576	12	4400
2026-01-12 00:07:09.15	72.25	67.81	-25.6	-26.5	17.4	0.00e+00	0	42	0	1052770304	12	3958
2026-01-12 00:07:10.16	73.34	68.06	-25.3	-26.2	17.9	0.00e+00	0	42	0	1055916032	11	4006
2026-01-12 00:07:11.16	74.44	68.30	-25.2	-26.5	17.9	0.00e+00	0	42	0	1059061760	10	4191
2026-01-12 00:07:12.17	75.59	68.53	-25.3	-26.7	17.8	7.78e-05	0	42	0	1062207488	10	4251
2026-01-12 00:07:13.18	76.76	68.76	-25.1	-26.4	18.0	0.00e+00	0	42	0	1065353216	10	4151
2026-01-12 00:07:14.18	77.94	68.97	-25.2	-26.5	18.0	0.00e+00	0	42	0	1068498944	10	4183
2026-01-12 00:07:15.18	79.15	69.18	-25.4	-26.9	17.8	2.26e-04	0	42	0	1071644672	10	4285
2026-01-12 00:07:16.18	80.39	69.38	-25.7	-27.2	17.4	2.40e-04	0	42	0	1074790400	11	4269
2026-01-12 00:07:17.18	81.65	69.57	-25.8	-27.4	17.3	0.00e+00	0	42	0	1077936128	11	4313
2026-01-12 00:07:18.19	82.95	69.75	-25.8	-27.3	17.3	0.00e+00	0	42	0	1081081856	11	4291
2026-01-12 00:07:19.19	84.26	69.92	-25.9	-27.6	17.1	0.00e+00	0	42	0	1084227584	11	4368
2026-01-12 00:07:20.20	85.61	70.09	-25.7	-27.1	17.5	0.00e+00	0	42	0	1087373312	11	4229
2026-01-12 00:07:21.21	86.98	70.24	-25.0	-25.6	18.1	2.17e-04	0	42	0	1090519040	11	3865
2026-01-12 00:07:22.22	88.38	70.39	-24.7	-25.5	18.5	8.54e-05	0	42	0	1093664768	10	3934
2026-01-12 00:07:23.23	89.79	70.52	-24.8	-26.1	18.3	0.00e+00	0	42	0	1096810496	9	4203
2026-01-12 00:07:24.24	91.22	70.64	-25.0	-26.1	18.2	0.00e+00	0	42	0	1099956224	10	4090
2026-01-12 00:07:25.24	92.66	70.75	-25.0	-26.1	18.2	0.00e+00	0	42	0	1103101952	10	4089
2026-01-12 00:07:26.25	94.13	70.85	-25.0	-26.0	18.2	0.00e+00	0	42	0	1106247680	10	4064
2026-01-12 00:07:27.26	95.62	70.93	-25.3	-26.8	17.7	0.00e+00	0	42	0	1109393408	10	4268
2026-01-12 00:07:28.27	97.12	71.01	-25.7	-27.1	17.4	0.00e+00	0	42	0	1112539136	11	4231
2026-01-12 00:07:29.28	98.63	71.07	-25.6	-26.9	17.5	0.00e+00	0	42	0	1115684864	11	4168
2026-01-12 00:07:30.28	100.13	71.12	-25.2	-26.0	17.9	0.00e+00	0	42	0	1118830592	11	3954
2026-01-12 00:07:31.29	101.66	71.16	-25.4	-26.4	17.7	0.00e+00	0	42	0	1121976320	11	4047
2026-01-12 00:07:32.30	103.19	71.19	-25.6	-26.9	17.5	0.00e+00	0	42	0	1125122048	11	4181
2026-01-12 00:07:33.31	104.73	71.20	-25.3	-26.3	17.8	7.60e-06	0	42	0	1128267776	11	4034
2026-01-12 00:07:34.31	106.25	71.20	-25.1	-25.8	18.1	0.00e+00	0	42	0	1131413504	11	3895
2026-01-12 00:07:35.31	107.77	71.19	-25.1	-26.4	18.0	0.00e+00	0	42	0	1134559232	10	4158
2026-01-12 00:07:36.32	109.30	71.16	-25.3	-26.9	17.8	0.00e+00	0	42	0	1137704960	10	4287
2026-01-12 00:07:37.33	110.83	71.13	-25.8	-27.3	17.3	3.58e-04	0	42	0	1140850688	11	4304
2026-01-12 00:07:38.33	112.34	71.08	-25.9	-27.5	17.2	0.00e+00	0	42	0	1143996416	11	4339
2026-01-12 00:07:39.33	113.83	71.01	-25.7	-27.2	17.4	0.00e+00	0	42	0	1147142144	11	4262
2026-01-12 00:07:40.34	115.33	70.94	-25.5	-26.8	17.6	0.00e+00	0	42	0	1150287872	11	4146
2026-01-12 00:07:41.35	116.82	70.85	-25.8	-27.4	17.2	0.00e+00	0	42	0	1153433600	11	4301
2026-01-12 00:07:42.36	118.29	70.76	-25.4	-26.5	17.7	0.00e+00	0	42	0	1156579328	11	4088
2026-01-12 00:07:43.36	119.73	70.65	-25.7	-27.0	17.3	0.00e+00	0	42	0	1159725056	11	4214
2026-01-12 00:07:44.37	121.17	70.53	-26.3	-28.0	16.6	0.00e+00	0	42	0	1162870784	12	4360
2026-01-12 00:07:45.37	122.57	70.40	-26.1	-27.6	16.8	0.00e+00	0	42	0	1166016512	12	4257
2026-01-12 00:07:46.38	123.97	70.25	-26.2	-27.7	16.7	0.00e+00	0	42	0	1169162240	12	4294
2026-01-12 00:07:47.39	125.34	70.10	-26.5	-28.0	16.3	0.00e+00	0	42	0	1172307968	13	4259
2026-01-12 00:07:48.40	126.69	69.94	-26.4	-27.7	16.5	0.00e+00	0	42	0	1175453696	13	4167
2026-01-12 00:07:49.41	128.02	69.76	-26.6	-28.0	16.3	0.00e+00	0	42	0	1178599424	13	4265
2026-01-12 00:07:50.42	129.32	69.58	-26.5	-27.9	16.3	0.00e+00	0	42	0	1181745152	13	4226
2026-01-12 00:07:51.43	130.60	69.39	-25.8	-26.9	17.1	0.00e+00	0	42	0	1184890880	12	4081
2026-01-12 00:07:52.44	131.85	69.19	-25.7	-26.7	17.3	0.00e+00	0	42	0	1188036608	12	4016
2026-01-12 00:07:53.45	133.08	68.98	-25.2	-26.0	18.0	0.00e+00	0	42	0	1191182336	11	3949
2026-01-12 00:07:54.45	134.26	68.76	-25.4	-26.5	17.8	0.00e+00	0	42	0	1194328064	11	4073
2026-01-12 00:07:55.46	135.44	68.54	-25.7	-27.1	16.7	5.03e-04	0	42	0	1197473792	11	4238
2026-01-12 00:07:56.46	136.57	68.31	-26.1	-27.4	16.1	0.00e+00	0	42	0	1200619520	12	4215
2026-01-12 00:07:57.47	137.69	68.07	-25.7	-26.5	17.4	0.00e+00	0	42	0	1203765248	12	3979
2026-01-12 00:07:58.48	138.78	67.82	-25.2	-26.5	18.0	0.00e+00	0	42	0	1206910976	10	4178
2026-01-12 00:07:59.48	139.84	67.57	-24.9	-25.9	18.3	0.00e+00	0	42	0	1210056704	10	4032
2026-01-12 00:08:00.48	140.87	67.31	-24.9	-25.8	18.3	0.00e+00	0	42	0	1213202432	10	4004
2026-01-12 00:08:01.49	141.89	67.05	-25.7	-27.1	17.4	3.31e-03	0	42	0	1216348160	11	4240
2026-01-12 00:08:02.50	142.88	66.78	-26.0	-27.3	16.9	0.00e+00	0	42	0	1219493888	12	4192
2026-01-12 00:08:03.51	143.84	66.50	-25.9	-27.0	17.0	0.00e+00	0	42	0	1222639616	12	4108
2026-01-12 00:08:04.51	144.77	66.22	-25.1	-26.4	18.0	0.00e+00	0	42	0	1225785344	10	4151
2026-01-12 00:08:05.52	145.69	65.94	-24.6	-25.7	18.6	3.53e-03	0	42	0	1228931072	9	4096
2026-01-12 00:08:06.52	146.57	65.65	-24.9	-26.3	18.3	0.00e+00	0	42	0	1232076800	9	4249
2026-01-12 00:08:07.53	147.44	65.36	-25.6	-26.9	17.5	3.01e-03	0	42	0	1235222528	11	4176
2026-01-12 00:08:08.53	148.28	65.06	-26.4	-28.1	16.5	0.00e+00	0	42	0	1238368256	12	4404
2026-01-12 00:08:09.54	149.10	64.76	-26.4	-27.7	16.4	0.00e+00	0	42	0	1241513984	13	4197
2026-01-12 00:08:10.55	149.91	64.46	-25.4	-26.5	17.6	1.62e-03	0	42	0	1244659712	11	4088
2026-01-12 00:08:11.56	150.69	64.15	-24.9	-25.3	18.3	5.32e-04	0	42	0	1247805440	11	3787
2026-01-12 00:08:12.56	151.44	63.84	-25.2	-26.0	17.9	0.00e+00	0	42	0	1250951168	11	3959
2026-01-12 00:08:13.57	152.19	63.53	-25.8	-27.3	17.2	3.31e-04	0	42	0	1254096896	11	4278
2026-01-12 00:08:14.57	152.90	63.22	-26.8	-28.6	15.9	0.00e+00	0	42	0	1257242624	13	4428
2026-01-12 00:08:15.57	153.60	62.90	-27.6	-29.3	15.0	0.00e+00	0	42	0	1260388352	15	4410
2026-01-12 00:08:16.58	154.28	62.58	-27.7	-29.7	14.8	1.75e-04	0	42	0	1263534080	15	4512
2026-01-12 00:08:17.58	154.94	62.27	-27.0	-28.0	15.7	2.12e-04	0	42	0	1266679808	15	4055
2026-01-12 00:08:18.59	155.59	61.94	-26.3	-27.0	16.7	0.00e+00	0	42	0	1269825536	14	3884
2026-01-12 00:08:19.60	156.23	61.62	-26.3	-27.4	16.6	0.00e+00	0	42	0	1272971264	13	4083
2026-01-12 00:08:20.60	156.84	61.29	-26.9	-28.9	15.8	1.22e-05	0	42	0	1276116992	13	4495
2026-01-12 00:08:21.61	157.44	60.97	-27.9	-30.1	14.6	0.00e+00	0	42	0	1279262720	15	4624
2026-01-12 00:08:22.61	158.02	60.64	-28.7	-31.0	13.7	2.67e-04	0	42	0	1282408448	17	4672
2026-01-12 00:08:23.62	158.59	60.31	-27.9	-29.0	14.8	5.02e-04	0	41	0	1285554176	17	4096
2026-01-12 00:08:24.62	159.14	59.99	-26.6	-27.7	16.1	0.00e+00	0	42	0	1288699904	14	4061
2026-01-12 00:08:25.63	159.69	59.66	-25.6	-26.4	17.4	0.00e+00	0	42	0	1291845632	12	3939
2026-01-12 00:08:26.62	160.21	59.33	-25.8	-27.4	17.2	0.00e+00	0	42	0	1294991360	11	4307
2026-01-12 00:08:27.63	160.72	59.00	-26.4	-28.2	16.4	0.00e+00	0	42	0	1298137088	12	4407
2026-01-12 00:08:28.64	161.23	58.67	-27.3	-29.3	15.3	1.60e-03	0	42	0	1301282816	14	4514
2026-01-12 00:08:29.64	161.72	58.34	-28.4	-30.7	14.1	7.00e-07	0	42	0	1304428544	16	4690
2026-01-12 00:08:30.64	162.19	58.01	-28.3	-30.5	14.2	1.50e-06	0	42	0	1307574272	16	4640
2026-01-12 00:08:31.64	162.65	57.69	-27.5	-29.2	14.9	0.00e+00	0	42	0	1310720000	15	4367
2026-01-12 00:08:32.65	163.11	57.36	-27.1	-28.8	15.4	2.57e-03	0	42	0	1313865728	14	4359
2026-01-12 00:08:33.66	163.56	57.02	-26.9	-28.2	15.8	0.00e+00	0	42	0	1317011456	14	4206
2026-01-12 00:08:34.66	163.99	56.70	-26.3	-27.4	16.5	0.00e+00	0	42	0	1320157184	13	4098
2026-01-12 00:08:35.66	164.41	56.37	-26.2	-27.8	16.6	0.00e+00	0	42	0	1323302912	12	4316
2026-01-12 00:08:36.67	164.83	56.04	-27.3	-29.3	15.2	0.00e+00	0	42	0	1326448640	14	4493
2026-01-12 00:08:37.68	165.23	55.71	-28.8	-31.3	13.3	7.60e-06	0	42	0	1329594368	17	4775
2026-01-12 00:08:38.69	165.63	55.38	-29.1	-31.5	12.9	6.71e-05	0	42	0	1332740096	18	4749
2026-01-12 00:08:39.69	166.01	55.06	-28.6	-30.2	13.7	1.83e-05	0	42	0	1335885824	18	4338
2026-01-12 00:08:40.70	166.39	54.73	-28.0	-29.4	14.4	7.00e-07	0	42	0	1339031552	17	4194
2026-01-12 00:08:41.70	166.76	54.41	-27.7	-29.1	14.9	0.00e+00	0	42	0	1342177280	16	4212
2026-01-12 00:08:42.71	167.12	54.08	-27.6	-28.8	15.2	0.00e+00	0	42	0	1345323008	16	4149
2026-01-12 00:08:43.72	167.48	53.76	-27.7	-29.1	15.0	7.00e-07	0	42	0	1348468736	16	4225
2026-01-12 00:08:44.72	167.82	53.44	-27.8	-29.3	14.9	0.00e+00	0	42	0	1351614464	16	4269
2026-01-12 00:08:45.73	168.16	53.11	-28.4	-30.7	14.0	1.50e-06	0	42	0	1354760192	16	4701
2026-01-12 00:08:46.73	168.49	52.80	-29.0	-31.6	13.1	2.44e-05	0	42	0	1357905920	17	4878
2026-01-12 00:08:47.74	168.82	52.48	-29.3	-31.9	12.7	5.26e-05	0	42	0	1361051648	18	4847
2026-01-12 00:08:48.75	169.13	52.16	-29.3	-31.8	12.8	9.15e-05	0	42	0	1364197376	18	4821
2026-01-12 00:08:49.75	169.44	51.84	-28.9	-30.8	13.2	2.74e-05	0	42	0	1367343104	18	4509
2026-01-12 00:08:50.76	169.75	51.53	-28.5	-29.9	13.8	1.37e-05	0	42	0	1370488832	18	4253
2026-01-12 00:08:51.77	170.05	51.21	-28.0	-29.2	14.6	1.50e-06	0	42	0	1373634560	17	4130
2026-01-12 00:08:52.78	170.34	50.90	-27.7	-29.1	14.9	0.00e+00	0	42	0	1376780288	16	4225
2026-01-12 00:08:53.78	170.62	50.59	-27.6	-28.9	15.0	0.00e+00	0	42	0	1379926016	16	4162
2026-01-12 00:08:54.79	170.90	50.28	-27.9	-29.4	14.7	0.00e+00	0	42	0	1383071744	16	4295
2026-01-12 00:08:55.80	171.18	49.97	-28.5	-30.5	13.9	3.00e-06	0	42	0	1386217472	17	4516
2026-01-12 00:08:56.81	171.45	49.66	-29.2	-31.6	12.9	3.58e-05	0	42	0	1389363200	18	4755
2026-01-12 00:08:57.81	171.71	49.35	-29.3	-32.0	12.7	6.94e-05	0	42	0	1392508928	18	4894
2026-01-12 00:08:58.81	171.97	49.05	-29.4	-32.2	12.6	1.12e-04	0	42	0	1395654656	18	4956
2026-01-12 00:08:59.82	172.22	48.75	-29.6	-32.1	12.3	1.81e-04	0	42	0	1398800384	19	4834
2026-01-12 00:09:00.83	172.47	48.44	-29.4	-31.7	12.5	1.27e-04	0	42	0	1401946112	19	4686
2026-01-12 00:09:01.83	172.72	48.15	-29.2	-31.1	12.9	6.40e-05	0	42	0	1405091840	19	4498
2026-01-12 00:09:02.84	172.96	47.85	-29.1	-30.8	13.0	3.81e-05	0	42	0	1408237568	19	4388
2026-01-12 00:09:03.85	173.19	47.55	-29.2	-31.0	12.9	5.26e-05	0	42	0	1411383296	19	4459
2026-01-12 00:09:04.85	173.42	47.26	-29.1	-30.8	13.1	1.83e-05	0	42	0	1414529024	19	4392
2026-01-12 00:09:05.86	173.65	46.96	-29.1	-30.8	13.1	3.20e-05	0	42	0	1417674752	19	4390
2026-01-12 00:09:06.87	173.87	46.67	-29.2	-31.1	12.8	5.03e-05	0	42	0	1420820480	19	4494
2026-01-12 00:09:07.88	174.09	46.38	-29.1	-31.0	12.8	3.81e-05	0	42	0	1423966208	19	4461
2026-01-12 00:09:08.89	174.31	46.09	-29.4	-31.6	12.5	1.33e-04	0	42	0	1427111936	19	4657
2026-01-12 00:09:09.90	174.52	45.80	-29.4	-31.7	12.5	1.03e-04	0	42	0	1430257664	19	4670
2026-01-12 00:09:10.90	174.72	45.51	-29.2	-31.1	12.9	6.94e-05	0	42	0	1433403392	19	4494
2026-01-12 00:09:11.91	174.93	45.23	-28.8	-30.7	13.4	2.28e-05	0	42	0	1436549120	18	4473
2026-01-12 00:09:12.91	175.12	44.95	-28.7	-30.4	13.6	7.60e-06	0	42	0	1439694848	18	4379
2026-01-12 00:09:13.93	175.32	44.66	-29.3	-32.0	12.6	3.81e-05	0	42	0	1442840576	18	4880
2026-01-12 00:09:14.93	175.51	44.39	-29.9	-32.9	11.8	4.33e-04	0	42	0	1445986304	19	5100
2026-01-12 00:09:15.94	175.71	44.11	-29.8	-32.3	11.7	8.03e-04	0	42	0	1449132032	20	4799
2026-01-12 00:09:16.94	175.89	43.83	-29.6	-31.7	12.1	3.52e-04	0	42	0	1452277760	20	4571
2026-01-12 00:09:17.95	176.07	43.56	-29.2	-31.0	12.8	9.38e-05	0	42	0	1455423488	19	4468
2026-01-12 00:09:18.96	176.26	43.28	-28.8	-30.6	13.5	1.52e-05	0	42	0	1458569216	18	4428
2026-01-12 00:09:19.96	176.43	43.01	-28.8	-30.7	13.4	1.60e-05	0	42	0	1461714944	18	4479
2026-01-12 00:09:20.97	176.61	42.74	-29.0	-31.1	13.2	2.44e-05	0	42	0	1464860672	18	4596
2026-01-12 00:09:21.97	176.78	42.48	-29.5	-32.4	12.4	1.70e-04	0	42	0	1468006400	18	5032
2026-01-12 00:09:22.98	176.95	42.21	-29.5	-31.8	12.3	1.83e-04	0	42	0	1471152128	19	4736
2026-01-12 00:09:23.99	177.11	41.95	-29.1	-31.0	12.9	7.01e-05	0	42	0	1474297856	19	4462
2026-01-12 00:09:24.99	177.28	41.68	-29.1	-31.0	12.9	4.80e-05	0	42	0	1477443584	19	4460
2026-01-12 00:09:26.00	177.44	41.42	-29.2	-31.2	12.7	1.15e-04	0	42	0	1480589312	19	4542
2026-01-12 00:09:27.01	177.60	41.16	-28.9	-30.3	13.3	3.58e-05	0	42	0	1483735040	19	4261
2026-01-12 00:09:28.02	177.75	40.90	-28.6	-30.3	13.6	2.97e-05	0	42	0	1486880768	18	4350
2026-01-12 00:09:29.02	177.91	40.65	-28.7	-30.5	13.5	1.28e-04	0	42	0	1490026496	18	4402
2026-01-12 00:09:30.03	178.06	40.39	-28.8	-30.8	13.3	1.44e-05	0	42	0	1493172224	18	4516
2026-01-12 00:09:31.03	178.21	40.14	-29.2	-31.7	12.8	3.66e-04	0	42	0	1496317952	18	4785
2026-01-12 00:09:32.04	178.35	39.89	-29.4	-32.3	12.4	6.21e-04	0	42	0	1499463680	18	5007
2026-01-12 00:09:33.04	178.50	39.64	-29.7	-32.4	12.1	2.52e-04	0	42	0	1502609408	19	4913
2026-01-12 00:09:34.04	178.64	39.39	-29.5	-32.1	12.2	1.15e-03	0	42	0	1505755136	19	4815
2026-01-12 00:09:35.05	178.78	39.15	-29.0	-31.3	13.0	1.46e-04	0	42	0	1508900864	18	4661
2026-01-12 00:09:36.05	178.92	38.90	-28.8	-30.7	13.4	2.21e-05	0	42	0	1512046592	18	4480
2026-01-12 00:09:37.06	179.05	38.66	-28.6	-30.8	13.6	2.13e-03	0	42	0	1515192320	17	4609
2026-01-12 00:09:38.07	179.19	38.41	-28.6	-30.6	13.7	2.26e-03	0	42	0	1518338048	17	4567
2026-01-12 00:09:39.08	179.32	38.17	-28.6	-30.6	13.7	6.10e-06	0	42	0	1521483776	17	4563
2026-01-12 00:09:40.09	179.45	37.93	-28.7	-31.1	13.4	9.10e-06	0	42	0	1524629504	17	4701
2026-01-12 00:09:41.09	179.58	37.70	-28.4	-30.2	13.9	4.50e-06	0	42	0	1527775232	17	4439
2026-01-12 00:09:42.10	179.71	37.46	-28.1	-29.6	14.2	1.50e-06	0	42	0	1530920960	17	4254
2026-01-12 00:09:43.10	179.83	37.23	-27.9	-29.5	14.5	2.32e-03	0	42	0	1534066688	16	4333
2026-01-12 00:09:44.11	179.96	36.99	-27.6	-29.5	14.7	2.31e-03	0	42	0	1537212416	15	4451
2026-01-12 00:09:45.12	180.08	36.76	-27.6	-29.5	14.7	0.00e+00	0	42	0	1540358144	15	4454
2026-01-12 00:09:46.13	180.20	36.53	-27.6	-29.5	14.7	1.50e-06	0	42	0	1543503872	15	4448
2026-01-12 00:09:47.13	180.32	36.30	-27.8	-29.8	14.5	7.00e-07	0	42	0	1546649600	15	4557
2026-01-12 00:09:48.13	180.43	36.08	-27.8	-30.0	14.4	7.00e-07	0	42	0	1549795328	15	4610
2026-01-12 00:09:49.14	180.55	35.85	-27.9	-30.0	14.4	2.49e-03	0	42	0	1552941056	15	4628
2026-01-12 00:09:50.14	180.66	35.63	-28.0	-30.3	14.3	2.20e-06	0	42	0	1556086784	15	4700
2026-01-12 00:09:51.15	180.77	35.40	-27.7	-29.7	14.6	0.00e+00	0	42	0	1559232512	15	4529
2026-01-12 00:09:52.15	180.88	35.18	-27.8	-29.8	14.5	7.00e-07	0	42	0	1562378240	15	4558
2026-01-12 00:09:53.17	180.99	34.96	-28.2	-30.2	14.1	2.79e-03	0	42	0	1565523968	16	4564
2026-01-12 00:09:54.17	181.10	34.74	-28.2	-30.3	14.1	0.00e+00	0	42	0	1568669696	16	4577
2026-01-12 00:09:55.18	181.21	34.53	-28.5	-30.9	13.8	7.60e-06	0	42	0	1571815424	16	4777
2026-01-12 00:09:56.18	181.31	34.31	-28.5	-30.5	13.7	3.80e-06	0	42	0	1574961152	17	4528
2026-01-12 00:09:57.19	181.42	34.10	-28.5	-30.6	13.6	7.60e-06	0	42	0	1578106880	17	4566
2026-01-12 00:09:58.20	181.52	33.88	-28.7	-31.0	13.3	1.06e-05	0	42	0	1581252608	17	4711
2026-01-12 00:09:59.21	181.62	33.67	-29.0	-31.7	12.9	3.15e-04	0	42	0	1584398336	17	4932
2026-01-12 00:10:00.21	181.72	33.46	-28.8	-30.9	13.2	3.28e-05	0	42	0	1587544064	18	4550
2026-01-12 00:10:01.22	181.82	33.25	-28.5	-30.5	13.7	1.52e-05	0	42	0	1590689792	17	4539
2026-01-12 00:10:02.23	181.92	33.05	-28.4	-30.7	13.8	3.80e-06	0	42	0	1593835520	16	4721
2026-01-12 00:10:03.23	182.01	32.84	-28.3	-30.5	14.0	2.84e-04	0	42	0	1596981248	16	4640
2026-01-12 00:10:04.24	182.11	32.64	-27.8	-29.3	14.7	1.50e-06	0	42	0	1600126976	16	4291
2026-01-12 00:10:05.25	182.20	32.43	-27.8	-29.9	14.4	3.05e-04	0	42	0	1603272704	15	4593
2026-01-12 00:10:06.25	182.30	32.23	-27.4	-29.1	14.9	0.00e+00	0	42	0	1606418432	15	4349
2026-01-12 00:10:07.25	182.39	32.03	-27.3	-29.3	15.1	0.00e+00	0	42	0	1609564160	14	4521
2026-01-12 00:10:08.25	182.48	31.83	-27.4	-29.5	14.9	2.82e-04	0	42	0	1612709888	14	4575
2026-01-12 00:10:09.26	182.57	31.63	-27.2	-29.1	15.2	2.79e-04	0	42	0	1615855616	14	4450
2026-01-12 00:10:10.27	182.66	31.44	-27.0	-28.6	15.4	7.00e-07	0	42	0	1619001344	14	4324
2026-01-12 00:10:11.27	182.75	31.24	-27.0	-28.5	15.5	3.14e-04	0	42	0	1622147072	14	4286
2026-01-12 00:10:12.28	182.83	31.05	-27.0	-28.6	15.5	3.91e-04	0	42	0	1625292800	14	4315
2026-01-12 00:10:13.29	182.92	30.85	-26.9	-28.4	15.6	0.00e+00	0	42	0	1628438528	14	4255
2026-01-12 00:10:14.30	183.00	30.66	-26.9	-28.3	15.6	3.33e-04	0	42	0	1631584256	14	4225
2026-01-12 00:10:15.30	183.09	30.47	-26.9	-28.3	15.6	3.78e-04	0	42	0	1634729984	14	4231
2026-01-12 00:10:16.31	183.17	30.28	-27.0	-29.0	15.4	2.20e-06	0	42	0	1637875712	13	4547
2026-01-12 00:10:17.31	183.25	30.09	-26.6	-28.1	15.9	0.00e+00	0	42	0	1641021440	13	4302
2026-01-12 00:10:18.32	183.33	29.90	-26.3	-27.4	16.3	0.00e+00	0	42	0	1644167168	13	4098
2026-01-12 00:10:19.32	183.41	29.72	-26.2	-27.7	16.4	0.00e+00	0	42	0	1647312896	12	4303
2026-01-12 00:10:20.33	183.49	29.53	-26.3	-28.1	16.2	4.94e-04	0	41	0	1650458624	12	4392
2026-01-12 00:10:21.34	183.57	29.35	-26.5	-28.4	16.0	4.86e-04	0	42	0	1653604352	12	4488
2026-01-12 00:10:22.34	183.65	29.17	-26.5	-28.0	16.0	4.50e-06	0	42	0	1656750080	13	4272
2026-01-12 00:10:23.35	183.72	28.98	-26.6	-28.1	15.9	0.00e+00	0	42	0	1659895808	13	4284
2026-01-12 00:10:24.36	183.80	28.80	-26.8	-28.6	15.6	0.00e+00	0	42	0	1663041536	13	4428
2026-01-12 00:10:25.36	183.88	28.62	-26.7	-28.3	15.8	3.80e-06	0	42	0	1666187264	13	4361
2026-01-12 00:10:26.37	183.95	28.44	-26.7	-28.4	15.7	5.26e-04	0	42	0	1669332992	13	4375
2026-01-12 00:10:27.37	184.02	28.27	-26.6	-28.2	15.8	0.00e+00	0	42	0	1672478720	13	4324
2026-01-12 00:10:28.38	184.10	28.09	-26.7	-28.4	15.8	2.20e-06	0	42	0	1675624448	13	4369
2026-01-12 00:10:29.39	184.17	27.92	-26.8	-28.6	15.6	0.00e+00	0	42	0	1678770176	13	4445
2026-01-12 00:10:30.40	184.24	27.74	-26.6	-28.3	15.8	0.00e+00	0	42	0	1681915904	13	4349
2026-01-12 00:10:31.41	184.31	27.57	-26.6	-28.2	15.8	0.00e+00	0	42	0	1685061632	13	4335
2026-01-12 00:10:32.41	184.38	27.40	-26.5	-28.3	15.7	0.00e+00	0	42	0	1688207360	13	4398
2026-01-12 00:10:33.41	184.45	27.23	-26.0	-27.6	14.1	0.00e+00	0	42	0	1691353088	13	4329
2026-01-12 00:10:34.42	184.52	27.06	-26.6	-28.3	15.8	0.00e+00	0	42	0	1694498816	13	4341
2026-01-12 00:10:35.42	184.59	26.89	-26.8	-28.6	15.6	0.00e+00	0	42	0	1697644544	13	4442
2026-01-12 00:10:36.43	184.65	26.72	-26.6	-28.3	15.7	3.80e-03	0	42	0	1700790272	13	4343
2026-01-12 00:10:37.43	184.72	26.55	-26.6	-28.3	15.7	0.00e+00	0	42	0	1703936000	13	4357
2026-01-12 00:10:38.43	184.78	26.39	-26.6	-28.2	15.8	0.00e+00	0	42	0	1707081728	13	4341
2026-01-12 00:10:39.44	184.85	26.22	-26.7	-28.5	15.6	0.00e+00	0	42	0	1710227456	13	4423
2026-01-12 00:10:40.44	184.91	26.06	-26.9	-28.9	15.4	0.00e+00	0	42	0	1713373184	13	4540
2026-01-12 00:10:41.45	184.98	25.90	-26.8	-28.6	15.6	5.41e-05	0	42	0	1716518912	13	4445
2026-01-12 00:10:42.46	185.04	25.73	-26.9	-28.9	15.4	3.40e-03	0	42	0	1719664640	13	4529
2026-01-12 00:10:43.46	185.10	25.57	-27.1	-28.9	15.1	0.00e+00	0	42	0	1722810368	14	4414
2026-01-12 00:10:44.47	185.17	25.41	-26.8	-28.1	15.6	0.00e+00	0	42	0	1725956096	14	4184
2026-01-12 00:10:45.48	185.23	25.25	-26.8	-28.6	15.6	3.48e-03	0	42	0	1729101824	13	4436
2026-01-12 00:10:46.48	185.29	25.09	-26.8	-28.7	15.5	3.54e-03	0	42	0	1732247552	13	4466
2026-01-12 00:10:47.49	185.35	24.94	-26.7	-28.4	15.7	4.95e-05	0	42	0	1735393280	13	4373
2026-01-12 00:10:48.50	185.41	24.78	-26.7	-28.4	15.7	3.23e-03	0	42	0	1738539008	13	4384
2026-01-12 00:10:49.51	185.47	24.62	-26.8	-28.6	15.5	0.00e+00	0	42	0	1741684736	13	4440
2026-01-12 00:10:50.51	185.53	24.47	-26.7	-28.5	15.6	3.43e-05	0	42	0	1744830464	13	4411
2026-01-12 00:10:51.51	185.58	24.32	-26.8	-28.6	15.6	3.18e-03	0	42	0	1747976192	13	4448
2026-01-12 00:10:52.52	185.64	24.16	-27.0	-29.0	15.3	3.30e-03	0	42	0	1751121920	13	4569
2026-01-12 00:10:53.53	185.70	24.01	-27.2	-29.0	15.1	2.26e-04	0	42	0	1754267648	14	4442
2026-01-12 00:10:54.53	185.76	23.86	-27.3	-29.4	14.8	3.21e-03	0	42	0	1757413376	14	4568
2026-01-12 00:10:55.54	185.81	23.71	-27.1	-28.9	15.1	0.00e+00	0	42	0	1760559104	14	4416
2026-01-12 00:10:56.54	185.87	23.56	-26.9	-28.4	15.4	2.13e-04	0	42	0	1763704832	14	4272
2026-01-12 00:10:57.54	185.92	23.41	-26.8	-28.7	15.5	2.97e-03	0	42	0	1766850560	13	4485
2026-01-12 00:10:58.54	185.98	23.27	-26.8	-28.7	15.5	2.99e-03	0	42	0	1769996288	13	4482
2026-01-12 00:10:59.55	186.03	23.12	-26.8	-28.6	15.5	2.57e-04	0	42	0	1773142016	13	4443
2026-01-12 00:11:00.55	186.08	22.97	-26.7	-28.4	15.6	0.00e+00	0	42	0	1776287744	13	4395
2026-01-12 00:11:01.56	186.14	22.83	-26.7	-28.4	15.6	3.28e-03	0	42	0	1779433472	13	4389
2026-01-12 00:11:02.57	186.19	22.68	-26.8	-28.6	15.5	3.20e-04	0	42	0	1782579200	13	4459
2026-01-12 00:11:03.58	186.24	22.54	-26.6	-28.1	15.8	3.29e-03	0	42	0	1785724928	13	4308
2026-01-12 00:11:04.58	186.29	22.39	-26.4	-28.2	16.0	3.32e-03	0	42	0	1788870656	12	4455
2026-01-12 00:11:05.59	186.35	22.25	-26.3	-28.1	16.1	0.00e+00	0	42	0	1792016384	12	4409
2026-01-12 00:11:06.60	186.40	22.11	-26.2	-27.8	16.2	0.00e+00	0	42	0	1795162112	12	4341
2026-01-12 00:11:07.60	186.45	21.97	-26.2	-27.8	16.2	2.87e-03	0	42	0	1798307840	12	4343
2026-01-12 00:11:08.61	186.50	21.83	-26.1	-27.6	16.3	2.85e-04	0	42	0	1801453568	12	4282
2026-01-12 00:11:09.62	186.55	21.69	-26.1	-27.7	16.3	1.91e-03	0	42	0	1804599296	12	4308
2026-01-12 00:11:10.63	186.60	21.55	-26.2	-27.9	16.2	0.00e+00	0	42	0	1807745024	12	4362
2026-01-12 00:11:11.63	186.64	21.41	-26.3	-27.9	16.1	7.00e-07	0	42	0	1810890752	12	4365
2026-01-12 00:11:12.64	186.69	21.28	-26.4	-28.2	15.9	0.00e+00	0	42	0	1814036480	12	4454
2026-01-12 00:11:13.64	186.74	21.14	-26.5	-28.4	15.8	0.00e+00	0	42	0	1817182208	12	4508
2026-01-12 00:11:14.64	186.79	21.01	-26.4	-28.2	15.9	0.00e+00	0	42	0	1820327936	12	4455
2026-01-12 00:11:15.64	186.84	20.87	-26.5	-28.1	15.8	0.00e+00	0	42	0	1823473664	13	4298
2026-01-12 00:11:16.65	186.88	20.74	-26.6	-28.3	15.6	0.00e+00	0	42	0	1826619392	13	4380
2026-01-12 00:11:17.66	186.93	20.60	-26.0	-27.6	15.6	0.00e+00	0	42	0	1829765120	13	4355
2026-01-12 00:11:18.67	186.98	20.47	-26.5	-28.1	15.7	0.00e+00	0	42	0	1832910848	13	4304
2026-01-12 00:11:19.67	187.02	20.34	-26.5	-28.0	15.8	5.47e-04	0	42	0	1836056576	13	4282
2026-01-12 00:11:20.68	187.07	20.21	-26.5	-28.0	15.8	0.00e+00	0	42	0	1839202304	13	4280
2026-01-12 00:11:21.68	187.11	20.08	-26.5	-28.0	15.8	0.00e+00	0	42	0	1842348032	13	4273
2026-01-12 00:11:22.69	187.16	19.94	-26.6	-28.2	15.7	0.00e+00	0	42	0	1845493760	13	4323
2026-01-12 00:11:23.70	187.20	19.81	-26.7	-28.5	15.5	0.00e+00	0	42	0	1848639488	13	4408
2026-01-12 00:11:24.70	187.24	19.69	-26.5	-28.0	15.7	3.00e-06	0	42	0	1851785216	13	4291
2026-01-12 00:11:25.71	187.29	19.56	-26.5	-28.4	15.8	4.54e-04	0	42	0	1854930944	12	4515
2026-01-12 00:11:26.72	187.33	19.43	-26.7	-28.5	15.5	4.94e-04	0	42	0	1858076672	13	4423
2026-01-12 00:11:27.73	187.38	19.30	-26.8	-28.7	15.4	2.20e-06	0	42	0	1861222400	13	4468
2026-01-12 00:11:28.74	187.42	19.18	-26.8	-28.6	15.4	0.00e+00	0	42	0	1864368128	13	4452
2026-01-12 00:11:29.74	187.46	19.05	-26.9	-29.0	15.2	4.45e-04	0	42	0	1867513856	13	4567
2026-01-12 00:11:30.75	187.50	18.93	-26.9	-29.0	15.2	3.80e-06	0	42	0	1870659584	13	4566
2026-01-12 00:11:31.76	187.54	18.80	-27.1	-28.9	14.9	3.81e-04	0	42	0	1873805312	14	4436
2026-01-12 00:11:32.77	187.59	18.68	-27.2	-29.2	14.8	0.00e+00	0	42	0	1876951040	14	4511
2026-01-12 00:11:33.77	187.63	18.55	-27.3	-29.3	14.7	6.10e-06	0	42	0	1880096768	14	4559
2026-01-12 00:11:34.78	187.67	18.43	-27.5	-29.8	14.5	3.65e-04	0	42	0	1883242496	14	4693
2026-01-12 00:11:35.78	187.71	18.31	-27.3	-28.9	14.6	3.93e-04	0	42	0	1886388224	15	4325
2026-01-12 00:11:36.79	187.75	18.19	-27.4	-29.1	14.5	0.00e+00	0	42	0	1889533952	15	4374
2026-01-12 00:11:37.80	187.79	18.07	-27.5	-29.2	14.5	3.53e-04	0	42	0	1892679680	15	4419
2026-01-12 00:11:38.81	187.83	17.95	-27.5	-29.2	14.5	7.00e-07	0	42	0	1895825408	15	4423
2026-01-12 00:11:39.82	187.87	17.83	-27.4	-29.1	14.5	0.00e+00	0	42	0	1898971136	15	4381
2026-01-12 00:11:40.83	187.91	17.71	-27.5	-29.3	14.4	3.79e-04	0	42	0	1902116864	15	4441
2026-01-12 00:11:41.84	187.95	17.59	-27.4	-29.2	14.5	3.85e-04	0	42	0	1905262592	15	4395
2026-01-12 00:11:42.85	187.98	17.47	-27.5	-29.4	14.3	3.00e-06	0	42	0	1908408320	15	4466
2026-01-12 00:11:43.85	188.02	17.35	-27.6	-29.5	14.3	0.00e+00	0	42	0	1911554048	15	4484
2026-01-12 00:11:44.86	188.06	17.23	-27.6	-29.6	14.2	2.20e-06	0	42	0	1914699776	15	4538
2026-01-12 00:11:45.86	188.10	17.12	-27.6	-29.5	14.3	7.00e-07	0	42	0	1917845504	15	4502
2026-01-12 00:11:46.87	188.14	17.00	-27.5	-29.4	14.4	4.21e-04	0	42	0	1920991232	15	4451
2026-01-12 00:11:47.88	188.17	16.89	-27.4	-29.2	14.4	4.42e-04	0	42	0	1924136960	15	4403
2026-01-12 00:11:48.89	188.21	16.77	-27.5	-29.3	14.4	0.00e+00	0	42	0	1927282688	15	4422
2026-01-12 00:11:49.90	188.25	16.66	-27.5	-29.3	14.4	1.50e-06	0	42	0	1930428416	15	4430
2026-01-12 00:11:50.90	188.28	16.54	-27.5	-29.8	14.4	7.00e-07	0	42	0	1933574144	14	4702
2026-01-12 00:11:51.91	188.32	16.43	-27.5	-29.4	14.3	7.00e-07	0	42	0	1936719872	15	4454
2026-01-12 00:11:52.92	188.36	16.32	-27.5	-29.3	14.3	3.69e-04	0	42	0	1939865600	15	4448
2026-01-12 00:11:53.92	188.39	16.21	-27.5	-29.3	14.4	7.00e-07	0	42	0	1943011328	15	4442
2026-01-12 00:11:54.93	188.43	16.09	-27.5	-29.3	14.4	0.00e+00	0	42	0	1946157056	15	4447
2026-01-12 00:11:55.93	188.46	15.98	-27.5	-29.4	14.3	0.00e+00	0	42	0	1949302784	15	4451
2026-01-12 00:11:56.94	188.50	15.87	-27.5	-29.4	14.3	1.94e-04	0	42	0	1952448512	15	4464
2026-01-12 00:11:57.95	188.53	15.76	-27.5	-29.4	14.3	1.91e-04	0	42	0	1955594240	15	4477
2026-01-12 00:11:58.95	188.57	15.65	-27.5	-29.3	14.3	7.00e-07	0	42	0	1958739968	15	4440
2026-01-12 00:11:59.96	188.60	15.54	-27.5	-29.4	14.3	7.00e-07	0	42	0	1961885696	15	4466
2026-01-12 00:12:00.96	188.63	15.44	-27.5	-29.5	14.2	3.80e-06	0	42	0	1965031424	15	4482
2026-01-12 00:12:01.98	188.67	15.33	-27.5	-29.2	14.4	0.00e+00	0	42	0	1968177152	15	4415
2026-01-12 00:12:02.99	188.70	15.22	-27.7	-29.8	14.1	2.41e-04	0	42	0	1971322880	15	4581
2026-01-12 00:12:03.99	188.73	15.11	-27.6	-29.7	14.1	2.24e-04	0	42	0	1974468608	15	4548
2026-01-12 00:12:04.99	188.77	15.00	-27.8	-30.0	13.9	7.00e-07	0	42	0	1977614336	15	4642
2026-01-12 00:12:06.00	188.80	14.90	-27.7	-29.7	14.1	2.20e-06	0	42	0	1980760064	15	4563
2026-01-12 00:12:07.01	188.83	14.79	-27.6	-29.7	14.1	4.75e-04	0	42	0	1983905792	15	4545
2026-01-12 00:12:08.02	188.87	14.69	-27.6	-29.5	14.2	2.20e-06	0	42	0	1987051520	15	4511
2026-01-12 00:12:09.03	188.90	14.58	-27.7	-29.9	14.0	6.24e-04	0	42	0	1990197248	15	4609
2026-01-12 00:12:10.04	188.93	14.48	-27.6	-29.6	14.1	8.81e-04	0	42	0	1993342976	15	4528
2026-01-12 00:12:11.05	188.96	14.37	-27.7	-29.9	13.9	1.50e-06	0	42	0	1996488704	15	4611
2026-01-12 00:12:12.05	188.99	14.27	-27.8	-29.9	13.9	1.19e-03	0	42	0	1999634432	15	4635
2026-01-12 00:12:13.06	189.03	14.16	-27.8	-30.1	13.8	1.08e-03	0	42	0	2002780160	15	4688
2026-01-12 00:12:14.06	189.06	14.06	-27.8	-30.0	13.8	3.00e-06	0	42	0	2005925888	15	4652
2026-01-12 00:12:15.06	189.09	13.96	-27.5	-29.5	14.2	1.73e-03	0	42	0	2009071616	15	4481
2026-01-12 00:12:16.07	189.12	13.86	-27.4	-29.6	14.4	0.00e+00	0	42	0	2012217344	14	4645
2026-01-12 00:12:17.08	189.15	13.76	-27.5	-29.7	14.3	1.50e-06	0	42	0	2015363072	14	4687
2026-01-12 00:12:18.08	189.18	13.66	-27.7	-29.7	14.0	1.95e-03	0	42	0	2018508800	15	4572
2026-01-12 00:12:19.09	189.21	13.55	-27.5	-29.5	14.1	2.00e-03	0	42	0	2021654528	15	4486
2026-01-12 00:12:20.10	189.24	13.45	-27.5	-29.3	14.3	1.50e-06	0	42	0	2024800256	15	4432
2026-01-12 00:12:21.10	189.27	13.35	-27.5	-29.4	14.2	7.00e-07	0	42	0	2027945984	15	4481
2026-01-12 00:12:22.11	189.30	13.25	-27.5	-29.4	14.2	3.80e-06	0	42	0	2031091712	15	4470
2026-01-12 00:12:23.12	189.33	13.16	-27.5	-29.3	14.3	7.00e-07	0	42	0	2034237440	15	4429
2026-01-12 00:12:24.13	189.36	13.06	-27.6	-29.6	14.0	7.60e-06	0	42	0	2037383168	15	4532
2026-01-12 00:12:25.14	189.39	12.96	-27.6	-29.5	14.1	2.00e-03	0	42	0	2040528896	15	4516
2026-01-12 00:12:26.14	189.42	12.86	-27.7	-29.8	13.9	2.20e-06	0	42	0	2043674624	15	4593
2026-01-12 00:12:27.15	189.45	12.76	-27.6	-29.5	14.1	1.37e-05	0	42	0	2046820352	15	4513
2026-01-12 00:12:28.16	189.48	12.67	-27.6	-29.5	14.1	3.00e-06	0	42	0	2049966080	15	4503
2026-01-12 00:12:29.17	189.51	12.57	-27.5	-29.5	14.1	2.20e-06	0	42	0	2053111808	15	4497
2026-01-12 00:12:30.17	189.53	12.47	-27.8	-30.0	13.8	2.51e-05	0	42	0	2056257536	15	4661
2026-01-12 00:12:31.18	189.56	12.38	-27.6	-29.7	14.0	4.50e-06	0	42	0	2059403264	15	4555
2026-01-12 00:12:32.19	189.59	12.28	-27.5	-29.3	14.2	3.00e-06	0	42	0	2062548992	15	4430
2026-01-12 00:12:33.20	189.62	12.18	-27.5	-29.4	14.1	1.98e-05	0	42	0	2065694720	15	4465
2026-01-12 00:12:34.20	189.65	12.09	-27.3	-29.1	14.2	1.50e-06	0	42	0	2068840448	15	4417
2026-01-12 00:12:35.21	189.67	12.00	-27.6	-29.5	13.9	1.50e-06	0	42	0	2071986176	15	4507
2026-01-12 00:12:36.21	189.70	11.90	-27.5	-29.5	14.0	1.83e-05	0	42	0	2075131904	15	4495
2026-01-12 00:12:37.22	189.73	11.81	-27.5	-29.4	14.1	3.80e-06	0	42	0	2078277632	15	4482
2026-01-12 00:12:38.23	189.76	11.71	-27.8	-30.2	13.6	6.80e-06	0	42	0	2081423360	15	4717
2026-01-12 00:12:39.23	189.78	11.62	-27.6	-29.7	13.9	2.05e-05	0	42	0	2084569088	15	4552
2026-01-12 00:12:40.23	189.81	11.53	-27.5	-29.5	14.0	7.00e-07	0	42	0	2087714816	15	4503
2026-01-12 00:12:41.22	189.84	11.44	-27.5	-29.3	14.1	1.14e-04	0	42	0	2090860544	15	4447
2026-01-12 00:12:42.22	189.86	11.35	-27.5	-29.9	14.1	2.20e-06	0	42	0	2094006272	14	4729
2026-01-12 00:12:43.22	189.89	11.26	-27.5	-29.8	14.1	5.30e-06	0	42	0	2097152000	14	4720
2026-01-12 00:12:44.21	189.91	11.17	-27.6	-29.6	13.9	3.00e-06	0	42	0	2100297728	15	4554
2026-01-12 00:12:45.21	189.94	11.07	-27.8	-30.1	13.6	2.44e-05	0	42	0	2103443456	15	4698
2026-01-12 00:12:46.22	189.97	10.98	-27.7	-29.9	13.7	2.21e-05	0	42	0	2106589184	15	4641
2026-01-12 00:12:47.22	189.99	10.89	-27.6	-29.5	14.0	5.30e-06	0	42	0	2109734912	15	4527
2026-01-12 00:12:48.22	190.02	10.80	-27.7	-29.8	13.8	1.75e-05	0	42	0	2112880640	15	4593
2026-01-12 00:12:49.23	190.04	10.71	-27.6	-29.6	13.9	1.50e-06	0	42	0	2116026368	15	4556
2026-01-12 00:12:50.24	190.07	10.62	-27.6	-29.8	13.8	4.50e-06	0	42	0	2119172096	15	4593
2026-01-12 00:12:51.24	190.09	10.54	-27.9	-30.3	13.5	8.30e-06	0	42	0	2122317824	15	4766
2026-01-12 00:12:52.25	190.12	10.45	-28.0	-30.6	13.3	1.75e-05	0	42	0	2125463552	15	4856
2026-01-12 00:12:53.25	190.14	10.36	-28.0	-30.6	13.3	2.59e-05	0	42	0	2128609280	15	4847
2026-01-12 00:12:54.26	190.17	10.27	-28.3	-30.8	13.0	4.42e-05	0	42	0	2131755008	16	4795
2026-01-12 00:12:55.26	190.19	10.18	-28.2	-30.6	13.2	2.89e-05	0	42	0	2134900736	16	4728
2026-01-12 00:12:56.27	190.22	10.10	-28.2	-30.6	13.2	2.82e-05	0	42	0	2138046464	16	4728
2026-01-12 00:12:57.27	190.24	10.01	-28.2	-30.5	13.2	1.90e-05	0	42	0	2141192192	16	4700
2026-01-12 00:12:58.27	190.27	9.92	-28.2	-30.5	13.2	1.83e-05	0	42	0	2144337920	16	4691
