passes_logs/2026/01/12/R2M6_AANII_01/R2M6_AANII_01__20260112_223233_SUOMI_NPP_rec.log

#Pass ID: 20260112_223233_SUOMI NPP
#Satellite: SUOMI NPP
#Configuration: NPP
#almurnet v.1.7.20240730
#Start time: 2026-01-12 22:32:33

#Version: 2.2.20231116
#Station: R2M6_AANII_01
#Location: 30.233357 lon 59.946436 lat
#TLE: 1 37849U 11061A   26012.28456845  .00000093  00000+0  65163-4 0  9999
#TLE: 2 37849  98.7807 314.3566 0002508  68.3553 291.7890 14.19524725736322

#Time	Az	El	Level	Level2	SNR	BER	BlckErr	Temp	State	Recorded	gain1	gain2
2026-01-12 22:32:33.20	33.18	6.97	-31.5	-36.6	4.8	1.26e+00	0	39	0	0	23	6500
2026-01-12 22:32:34.20	33.29	7.02	-31.6	-37.4	4.7	1.29e+00	0	39	104	0	23	6998
2026-01-12 22:32:35.20	33.40	7.08	-31.6	-37.1	6.7	2.41e-01	0	39	0	0	23	6804
2026-01-12 22:32:36.20	33.51	7.14	-31.6	-37.0	6.9	1.56e-01	0	39	0	1048576	23	6675
2026-01-12 22:32:37.21	33.62	7.19	-31.6	-37.0	6.9	1.80e-01	0	39	0	3145728	23	6669
2026-01-12 22:32:38.22	33.73	7.25	-31.6	-36.7	7.0	1.62e-01	0	39	0	5242880	23	6513
2026-01-12 22:32:39.23	33.85	7.31	-31.7	-37.1	6.8	1.57e-01	0	40	0	7340032	23	6764
2026-01-12 22:32:40.23	33.96	7.37	-31.7	-37.4	6.6	2.27e-01	0	40	0	9437184	23	6945
2026-01-12 22:32:41.24	34.07	7.42	-31.6	-36.6	7.2	1.72e-01	0	40	0	10485760	23	6414
2026-01-12 22:32:42.25	34.18	7.48	-31.4	-35.6	8.0	1.09e-01	0	39	0	12582912	23	5832
2026-01-12 22:32:43.26	34.30	7.54	-31.3	-35.7	8.3	5.51e-02	0	40	0	14680064	22	5957
2026-01-12 22:32:44.26	34.41	7.60	-31.1	-34.8	9.1	3.17e-02	0	40	0	16777216	22	5505
2026-01-12 22:32:45.26	34.52	7.65	-30.8	-33.9	9.8	1.74e-02	0	40	0	18874368	22	5112
2026-01-12 22:32:46.27	34.64	7.71	-30.8	-33.8	9.8	8.82e-03	0	40	0	19922944	22	5074
2026-01-12 22:32:47.28	34.75	7.77	-30.6	-33.7	10.3	4.84e-03	0	40	0	22020096	21	5117
2026-01-12 22:32:48.28	34.87	7.83	-30.6	-33.7	10.3	4.94e-03	0	40	0	24117248	21	5138
2026-01-12 22:32:49.29	34.98	7.88	-30.6	-33.7	10.2	4.65e-03	0	40	0	26214400	21	5126
2026-01-12 22:32:50.29	35.10	7.94	-30.6	-33.4	10.3	3.57e-03	0	40	0	28311552	21	5013
2026-01-12 22:32:51.29	35.21	8.00	-30.3	-32.5	11.2	2.12e-03	0	40	0	29360128	21	4660
2026-01-12 22:32:52.29	35.33	8.06	-29.3	-31.7	11.5	1.01e-03	0	40	0	31457280	20	4743
2026-01-12 22:32:53.30	35.45	8.11	-30.0	-32.1	11.9	5.83e-04	0	40	0	33554432	20	4592
2026-01-12 22:32:54.30	35.57	8.17	-29.9	-32.0	12.0	3.82e-04	0	40	0	35651584	20	4548
2026-01-12 22:32:55.30	35.68	8.23	-30.0	-32.2	11.8	3.97e-04	0	40	0	37748736	20	4629
2026-01-12 22:32:56.31	35.80	8.29	-30.0	-32.2	11.8	3.94e-04	0	40	0	38797312	20	4635
2026-01-12 22:32:57.31	35.92	8.35	-30.0	-32.2	11.8	6.78e-04	0	40	0	40894464	20	4613
2026-01-12 22:32:58.32	36.04	8.40	-30.1	-32.3	11.8	3.97e-04	0	40	0	42991616	20	4641
2026-01-12 22:32:59.33	36.16	8.46	-30.1	-32.3	11.8	5.21e-04	0	40	0	45088768	20	4636
2026-01-12 22:33:00.33	36.28	8.52	-30.1	-32.3	11.8	4.14e-04	0	40	0	46137344	20	4657
2026-01-12 22:33:01.34	36.40	8.58	-30.1	-32.4	11.7	5.50e-04	0	40	0	48234496	20	4686
2026-01-12 22:33:02.34	36.52	8.64	-30.1	-32.4	11.7	6.39e-04	0	40	0	50331648	20	4687
2026-01-12 22:33:03.35	36.65	8.69	-30.2	-32.7	11.5	6.87e-04	0	40	0	52428800	20	4774
2026-01-12 22:33:04.35	36.77	8.75	-30.2	-32.6	11.6	7.76e-04	0	40	0	54525952	20	4766
2026-01-12 22:33:05.35	36.89	8.81	-30.3	-32.9	11.4	7.52e-04	0	40	0	56623104	20	4866
2026-01-12 22:33:06.36	37.02	8.87	-30.3	-32.9	11.4	8.06e-04	0	40	0	57671680	20	4849
2026-01-12 22:33:07.37	37.14	8.93	-30.3	-32.8	11.5	8.75e-04	0	40	0	59768832	20	4830
2026-01-12 22:33:08.38	37.26	8.98	-30.4	-33.3	11.2	1.25e-03	0	40	0	61865984	20	5017
2026-01-12 22:33:09.38	37.39	9.04	-30.2	-32.6	11.7	8.56e-04	0	40	0	63963136	20	4743
2026-01-12 22:33:10.38	37.51	9.10	-30.3	-33.0	11.4	9.56e-04	0	40	0	65011712	20	4888
2026-01-12 22:33:11.38	37.64	9.16	-30.3	-32.9	11.4	8.58e-04	0	40	0	67108864	20	4841
2026-01-12 22:33:12.39	37.77	9.22	-30.3	-33.0	11.4	8.55e-04	0	40	0	69206016	20	4906
2026-01-12 22:33:13.40	37.89	9.28	-30.3	-33.1	11.3	1.43e-03	0	40	0	71303168	20	4916
2026-01-12 22:33:14.41	38.02	9.33	-30.1	-32.4	11.8	7.54e-04	0	40	0	73400320	20	4665
2026-01-12 22:33:15.42	38.15	9.39	-30.0	-31.9	12.2	3.62e-04	0	41	0	74448896	20	4487
2026-01-12 22:33:16.42	38.28	9.45	-29.9	-31.7	12.4	2.62e-04	0	40	0	76546048	20	4428
2026-01-12 22:33:17.42	38.40	9.51	-29.9	-31.7	12.4	2.34e-04	0	40	0	78643200	20	4413
2026-01-12 22:33:18.43	38.53	9.57	-29.9	-31.8	12.3	2.10e-04	0	41	0	80740352	20	4437
2026-01-12 22:33:19.43	38.66	9.63	-29.9	-31.6	12.4	1.40e-04	0	41	0	82837504	20	4397
2026-01-12 22:33:20.43	38.79	9.68	-30.0	-31.9	12.3	1.34e-04	0	41	0	83886080	20	4469
2026-01-12 22:33:21.44	38.92	9.74	-29.9	-31.6	12.4	1.67e-04	0	41	0	85983232	20	4391
2026-01-12 22:33:22.44	39.05	9.80	-29.9	-31.8	12.3	1.64e-04	0	41	0	88080384	20	4445
2026-01-12 22:33:23.45	39.19	9.86	-29.9	-31.6	12.4	2.00e-04	0	41	0	90177536	20	4391
2026-01-12 22:33:24.45	39.32	9.92	-29.9	-31.7	12.4	1.36e-04	0	41	0	92274688	20	4419
2026-01-12 22:33:25.45	39.45	9.98	-29.9	-31.7	12.4	1.23e-04	0	41	0	93323264	20	4419
2026-01-12 22:33:26.46	39.58	10.03	-29.9	-31.6	12.4	1.69e-04	0	41	0	95420416	20	4382
2026-01-12 22:33:27.47	39.72	10.09	-30.0	-31.8	12.3	1.55e-04	0	41	0	97517568	20	4459
2026-01-12 22:33:28.48	39.85	10.15	-29.8	-31.4	12.6	1.54e-04	0	41	0	99614720	20	4330
2026-01-12 22:33:29.48	39.99	10.21	-29.9	-31.8	12.3	2.09e-04	0	41	0	101711872	20	4438
2026-01-12 22:33:30.49	40.12	10.27	-29.9	-31.5	12.5	9.53e-05	0	41	0	102760448	20	4356
2026-01-12 22:33:31.49	40.26	10.33	-29.9	-31.6	12.5	2.13e-04	0	41	0	104857600	20	4379
2026-01-12 22:33:32.50	40.40	10.39	-29.9	-31.8	12.4	2.79e-04	0	41	0	106954752	20	4435
2026-01-12 22:33:33.51	40.53	10.44	-29.9	-31.6	12.5	9.68e-05	0	41	0	109051904	20	4388
2026-01-12 22:33:34.51	40.67	10.50	-30.0	-31.8	12.3	1.58e-04	0	41	0	111149056	20	4455
2026-01-12 22:33:35.51	40.81	10.56	-29.9	-31.7	12.4	2.39e-04	0	41	0	112197632	20	4420
2026-01-12 22:33:36.51	40.94	10.62	-30.0	-31.8	12.4	1.25e-04	0	41	0	114294784	20	4456
2026-01-12 22:33:37.52	41.08	10.68	-30.0	-31.9	12.4	1.18e-04	0	41	0	116391936	20	4469
2026-01-12 22:33:38.52	41.22	10.74	-30.1	-32.2	12.1	2.30e-04	0	41	0	118489088	20	4590
2026-01-12 22:33:39.53	41.36	10.79	-30.2	-32.4	12.0	3.00e-04	0	41	0	120586240	20	4651
2026-01-12 22:33:40.54	41.50	10.85	-30.2	-32.4	12.0	3.77e-04	0	41	0	121634816	20	4641
2026-01-12 22:33:41.54	41.65	10.91	-30.2	-32.5	11.9	3.80e-04	0	41	0	123731968	20	4689
2026-01-12 22:33:42.54	41.79	10.97	-30.2	-32.6	11.8	4.44e-04	0	41	0	125829120	20	4726
2026-01-12 22:33:43.55	41.93	11.03	-30.2	-32.6	11.8	5.39e-04	0	41	0	127926272	20	4721
2026-01-12 22:33:44.55	42.07	11.09	-30.3	-32.6	11.8	6.36e-04	0	41	0	130023424	20	4739
2026-01-12 22:33:45.56	42.22	11.14	-30.2	-32.5	11.9	4.92e-04	0	41	0	131072000	20	4703
2026-01-12 22:33:46.57	42.36	11.20	-30.2	-32.3	12.0	3.75e-04	0	41	0	133169152	20	4625
2026-01-12 22:33:47.57	42.50	11.26	-30.1	-32.2	12.1	1.81e-04	0	41	0	135266304	20	4567
2026-01-12 22:33:48.57	42.65	11.32	-30.1	-32.1	12.2	2.99e-04	0	41	0	137363456	20	4547
2026-01-12 22:33:49.58	42.79	11.38	-30.0	-31.8	12.5	1.73e-04	0	41	0	139460608	20	4437
2026-01-12 22:33:50.58	42.94	11.43	-30.1	-32.0	12.4	1.29e-04	0	41	0	140509184	20	4492
2026-01-12 22:33:51.59	43.09	11.49	-30.1	-32.0	12.3	1.91e-04	0	41	0	142606336	20	4512
2026-01-12 22:33:52.60	43.23	11.55	-30.0	-31.7	12.6	1.09e-04	0	41	0	144703488	20	4400
2026-01-12 22:33:53.60	43.38	11.61	-30.0	-31.7	12.6	9.99e-05	0	41	0	146800640	20	4390
2026-01-12 22:33:54.61	43.53	11.67	-29.9	-31.5	12.7	7.24e-05	0	41	0	148897792	20	4317
2026-01-12 22:33:55.62	43.68	11.73	-30.0	-31.7	12.6	3.20e-04	0	41	0	149946368	20	4396
2026-01-12 22:33:56.63	43.83	11.78	-29.9	-31.5	12.7	8.54e-05	0	41	0	152043520	20	4330
2026-01-12 22:33:57.63	43.98	11.84	-30.0	-31.9	12.4	1.16e-04	0	41	0	154140672	20	4476
2026-01-12 22:33:58.64	44.13	11.90	-29.9	-31.6	12.6	1.46e-04	0	41	0	156237824	20	4373
2026-01-12 22:33:59.65	44.28	11.96	-29.9	-31.4	12.8	6.48e-05	0	41	0	158334976	20	4289
2026-01-12 22:34:00.65	44.43	12.02	-29.7	-31.1	13.1	4.57e-05	0	41	0	159383552	20	4188
2026-01-12 22:34:01.66	44.59	12.07	-29.7	-30.9	13.2	2.67e-05	0	41	0	161480704	20	4150
2026-01-12 22:34:02.66	44.74	12.13	-29.7	-30.9	13.1	1.98e-05	0	41	0	163577856	20	4153
2026-01-12 22:34:03.67	44.89	12.19	-29.6	-30.6	13.3	1.83e-05	0	41	0	165675008	20	4050
2026-01-12 22:34:04.68	45.05	12.25	-29.6	-31.1	13.5	1.52e-05	0	41	0	167772160	19	4269
2026-01-12 22:34:05.68	45.20	12.31	-29.6	-31.0	13.5	1.37e-05	0	41	0	168820736	19	4253
2026-01-12 22:34:06.69	45.36	12.36	-29.7	-31.5	13.2	2.13e-05	0	41	0	170917888	19	4407
2026-01-12 22:34:07.70	45.52	12.42	-29.8	-31.6	13.1	2.21e-05	0	41	0	173015040	19	4429
2026-01-12 22:34:08.70	45.67	12.48	-29.8	-31.5	13.1	3.96e-05	0	41	0	175112192	19	4420
2026-01-12 22:34:09.70	45.83	12.54	-30.0	-32.1	12.8	4.73e-05	0	41	0	177209344	19	4610
2026-01-12 22:34:10.71	45.99	12.59	-29.9	-31.5	12.8	5.34e-05	0	41	0	178257920	20	4331
2026-01-12 22:34:11.72	46.15	12.65	-30.0	-31.9	12.6	9.00e-05	0	41	0	180355072	20	4444
2026-01-12 22:34:12.73	46.31	12.71	-30.0	-31.8	12.6	1.08e-04	0	41	0	182452224	20	4408
2026-01-12 22:34:13.74	46.47	12.77	-30.0	-31.6	12.7	6.33e-05	0	41	0	184549376	20	4362
2026-01-12 22:34:14.75	46.63	12.82	-29.7	-30.8	13.3	3.89e-05	0	41	0	186646528	20	4111
2026-01-12 22:34:15.75	46.79	12.88	-29.7	-30.8	13.3	3.00e-06	0	41	0	187695104	20	4100
2026-01-12 22:34:16.76	46.95	12.94	-29.7	-30.9	13.2	2.21e-05	0	41	0	189792256	20	4119
2026-01-12 22:34:17.76	47.11	12.99	-29.7	-30.9	13.2	2.05e-05	0	41	0	191889408	20	4124
2026-01-12 22:34:18.77	47.27	13.05	-29.6	-30.6	13.4	1.90e-05	0	41	0	193986560	20	4041
2026-01-12 22:34:19.77	47.44	13.11	-29.5	-30.4	13.5	5.34e-05	0	41	0	196083712	20	3993
2026-01-12 22:34:20.78	47.60	13.17	-29.5	-30.4	13.6	6.10e-06	0	41	0	197132288	20	3983
2026-01-12 22:34:21.78	47.76	13.22	-29.5	-30.3	13.6	9.90e-06	0	41	0	199229440	20	3959
2026-01-12 22:34:22.78	47.93	13.28	-29.5	-30.4	13.5	5.30e-06	0	41	0	201326592	20	3994
2026-01-12 22:34:23.79	48.09	13.33	-29.5	-30.4	13.6	7.60e-06	0	41	0	203423744	20	3989
2026-01-12 22:34:24.80	48.26	13.39	-29.6	-30.6	13.4	8.30e-06	0	41	0	204472320	20	4041
2026-01-12 22:34:25.79	48.43	13.45	-29.6	-30.5	13.5	1.52e-05	0	41	0	206569472	20	4021
2026-01-12 22:34:26.80	48.59	13.50	-29.6	-30.7	13.4	9.90e-06	0	41	0	208666624	20	4072
2026-01-12 22:34:27.80	48.76	13.56	-29.7	-31.3	13.4	1.60e-05	0	41	0	210763776	19	4331
2026-01-12 22:34:28.81	48.93	13.62	-29.8	-31.6	13.3	9.10e-06	0	42	0	212860928	19	4421
2026-01-12 22:34:29.81	49.10	13.67	-29.8	-31.6	13.2	9.10e-06	0	41	0	214958080	19	4434
2026-01-12 22:34:30.82	49.27	13.73	-29.8	-31.6	13.2	3.80e-04	0	41	0	216006656	19	4435
2026-01-12 22:34:31.82	49.44	13.78	-29.8	-31.7	13.1	1.83e-05	0	42	0	218103808	19	4458
2026-01-12 22:34:32.82	49.61	13.84	-29.9	-31.8	13.1	2.82e-05	0	42	0	220200960	19	4489
2026-01-12 22:34:33.84	49.78	13.89	-29.9	-31.9	13.0	4.49e-04	0	41	0	222298112	19	4520
2026-01-12 22:34:34.84	49.96	13.95	-29.8	-31.2	13.1	3.96e-05	0	41	0	223346688	20	4214
2026-01-12 22:34:35.84	50.13	14.01	-29.8	-31.0	13.2	2.44e-05	0	42	0	225443840	20	4165
2026-01-12 22:34:36.85	50.30	14.06	-29.7	-31.4	13.3	3.23e-04	0	42	0	227540992	19	4367
2026-01-12 22:34:37.85	50.48	14.12	-29.6	-31.0	13.6	4.21e-04	0	42	0	229638144	19	4230
2026-01-12 22:34:38.86	50.65	14.17	-29.7	-31.2	13.5	7.60e-06	0	42	0	231735296	19	4294
2026-01-12 22:34:39.87	50.83	14.23	-29.7	-31.4	13.4	4.89e-04	0	41	0	232783872	19	4351
2026-01-12 22:34:40.88	51.01	14.28	-29.7	-31.3	13.4	5.09e-04	0	41	0	234881024	19	4327
2026-01-12 22:34:41.88	51.18	14.34	-29.8	-31.6	13.3	1.67e-05	0	41	0	236978176	19	4409
2026-01-12 22:34:42.89	51.36	14.39	-29.8	-31.7	13.2	2.21e-05	0	41	0	239075328	19	4457
2026-01-12 22:34:43.90	51.54	14.44	-29.9	-31.5	12.9	4.75e-04	0	41	0	241172480	20	4317
2026-01-12 22:34:44.90	51.72	14.50	-30.1	-31.9	12.7	7.24e-05	0	42	0	242221056	20	4440
2026-01-12 22:34:45.90	51.89	14.55	-30.1	-32.1	12.6	8.54e-05	0	42	0	244318208	20	4494
2026-01-12 22:34:46.91	52.08	14.61	-30.1	-31.8	12.7	1.22e-03	0	42	0	246415360	20	4408
2026-01-12 22:34:47.92	52.26	14.66	-30.1	-32.0	12.6	5.26e-05	0	42	0	248512512	20	4455
2026-01-12 22:34:48.92	52.44	14.71	-30.2	-32.2	12.5	1.35e-03	0	41	0	250609664	20	4549
2026-01-12 22:34:49.93	52.62	14.77	-30.2	-32.1	12.5	1.41e-03	0	42	0	251658240	20	4507
2026-01-12 22:34:50.93	52.80	14.82	-30.2	-32.3	12.4	9.00e-05	0	42	0	253755392	20	4566
2026-01-12 22:34:51.94	52.99	14.87	-30.3	-32.6	12.2	1.21e-03	0	42	0	255852544	20	4688
2026-01-12 22:34:52.94	53.17	14.93	-30.5	-33.0	11.9	2.31e-04	0	41	0	257949696	20	4806
2026-01-12 22:34:53.95	53.35	14.98	-30.5	-32.6	11.8	3.76e-04	0	42	0	260046848	21	4588
2026-01-12 22:34:54.95	53.54	15.03	-30.5	-32.7	11.8	7.29e-04	0	42	0	261095424	21	4607
2026-01-12 22:34:55.96	53.73	15.09	-30.7	-33.1	11.5	9.75e-04	0	41	0	263192576	21	4750
2026-01-12 22:34:56.97	53.91	15.14	-30.6	-32.8	11.7	5.94e-04	0	41	0	265289728	21	4652
2026-01-12 22:34:57.97	54.10	15.19	-30.6	-32.8	11.7	1.08e-03	0	42	0	267386880	21	4649
2026-01-12 22:34:58.97	54.29	15.24	-30.8	-33.5	11.3	1.43e-03	0	42	0	269484032	21	4911
2026-01-12 22:34:59.97	54.47	15.29	-30.6	-32.9	11.7	8.41e-04	0	42	0	270532608	21	4682
2026-01-12 22:35:00.97	54.66	15.35	-30.4	-32.3	12.1	9.35e-04	0	42	0	272629760	21	4468
2026-01-12 22:35:01.97	54.85	15.40	-30.2	-32.1	12.5	7.87e-04	0	42	0	274726912	20	4512
2026-01-12 22:35:02.98	55.04	15.45	-30.1	-31.9	12.7	1.07e-04	0	42	0	276824064	20	4420
2026-01-12 22:35:03.98	55.23	15.50	-30.2	-32.3	12.5	7.91e-04	0	42	0	278921216	20	4550
2026-01-12 22:35:04.99	55.42	15.55	-30.2	-32.3	12.5	8.41e-04	0	42	0	279969792	20	4555
2026-01-12 22:35:05.99	55.61	15.60	-30.1	-32.0	12.6	1.19e-04	0	42	0	282066944	20	4470
2026-01-12 22:35:07.00	55.81	15.65	-30.2	-32.2	12.5	1.04e-04	0	42	0	284164096	20	4535
2026-01-12 22:35:08.00	56.00	15.70	-30.4	-32.9	12.1	2.65e-04	0	42	0	286261248	20	4768
2026-01-12 22:35:09.01	56.20	15.75	-30.3	-32.4	12.4	2.94e-04	0	42	0	288358400	20	4597
2026-01-12 22:35:10.01	56.39	15.80	-30.6	-32.7	11.8	3.65e-04	0	42	0	289406976	21	4617
2026-01-12 22:35:11.02	56.59	15.85	-30.8	-33.4	11.3	7.06e-04	0	42	0	291504128	21	4871
2026-01-12 22:35:12.02	56.78	15.90	-30.6	-32.9	11.7	6.71e-04	0	42	0	293601280	21	4676
2026-01-12 22:35:13.03	56.98	15.95	-30.5	-32.5	11.9	1.59e-03	0	42	0	295698432	21	4548
2026-01-12 22:35:14.04	57.18	16.00	-30.3	-32.5	12.3	2.80e-04	0	42	0	297795584	20	4633
2026-01-12 22:35:15.04	57.37	16.05	-30.3	-32.4	12.4	1.34e-04	0	42	0	298844160	20	4592
2026-01-12 22:35:16.05	57.57	16.10	-30.3	-32.5	12.4	1.63e-03	0	42	0	300941312	20	4623
2026-01-12 22:35:17.05	57.77	16.15	-30.5	-32.6	11.9	2.78e-04	0	42	0	303038464	21	4570
2026-01-12 22:35:18.06	57.97	16.20	-30.4	-32.2	12.2	2.68e-04	0	42	0	305135616	21	4448
2026-01-12 22:35:19.06	58.17	16.24	-30.6	-32.7	11.8	8.95e-04	0	42	0	307232768	21	4621
2026-01-12 22:35:20.07	58.37	16.29	-30.7	-33.1	11.5	5.74e-04	0	42	0	308281344	21	4764
2026-01-12 22:35:21.07	58.57	16.34	-30.7	-33.0	11.7	6.84e-04	0	42	0	310378496	21	4727
2026-01-12 22:35:22.07	58.78	16.39	-30.8	-33.4	11.4	7.67e-04	0	42	0	312475648	21	4855
2026-01-12 22:35:23.08	58.98	16.43	-30.6	-32.9	11.8	4.99e-04	0	42	0	314572800	21	4669
2026-01-12 22:35:24.09	59.18	16.48	-30.7	-33.2	11.5	6.97e-04	0	42	0	316669952	21	4797
2026-01-12 22:35:25.10	59.39	16.53	-30.5	-32.6	12.0	5.26e-04	0	42	0	317718528	21	4577
2026-01-12 22:35:26.10	59.59	16.57	-30.3	-32.4	12.5	9.54e-04	0	42	0	319815680	20	4572
2026-01-12 22:35:27.11	59.80	16.62	-30.1	-32.0	12.7	7.55e-05	0	42	0	321912832	20	4437
2026-01-12 22:35:28.12	60.01	16.67	-30.3	-32.5	12.4	1.20e-04	0	42	0	324009984	20	4636
2026-01-12 22:35:29.12	60.21	16.71	-30.2	-32.2	12.6	1.43e-04	0	42	0	326107136	20	4512
2026-01-12 22:35:30.13	60.42	16.76	-30.3	-32.4	12.5	1.07e-04	0	42	0	327155712	20	4577
2026-01-12 22:35:31.13	60.63	16.80	-30.2	-32.0	12.7	1.20e-04	0	42	0	329252864	20	4450
2026-01-12 22:35:32.14	60.84	16.85	-30.1	-31.8	12.9	7.17e-05	0	42	0	331350016	20	4400
2026-01-12 22:35:33.15	61.05	16.89	-30.1	-31.9	12.8	5.03e-05	0	42	0	333447168	20	4410
2026-01-12 22:35:34.16	61.26	16.93	-30.1	-31.8	12.9	5.41e-05	0	42	0	335544320	20	4381
2026-01-12 22:35:35.16	61.47	16.98	-30.0	-31.5	13.0	2.97e-05	0	42	0	336592896	20	4284
2026-01-12 22:35:36.16	61.68	17.02	-30.2	-32.2	12.6	6.63e-05	0	42	0	338690048	20	4519
2026-01-12 22:35:37.17	61.89	17.07	-30.2	-32.2	12.7	8.01e-05	0	42	0	340787200	20	4512
2026-01-12 22:35:38.17	62.10	17.11	-30.4	-32.7	12.3	1.12e-04	0	42	0	342884352	20	4694
2026-01-12 22:35:39.18	62.31	17.15	-30.5	-32.9	12.2	1.65e-04	0	42	0	344981504	20	4752
2026-01-12 22:35:40.18	62.53	17.19	-30.3	-32.5	12.4	1.25e-04	0	42	0	346030080	20	4602
2026-01-12 22:35:41.19	62.74	17.24	-30.3	-32.3	12.5	1.03e-04	0	42	0	348127232	20	4561
2026-01-12 22:35:42.20	62.96	17.28	-30.3	-32.3	12.6	1.48e-04	0	42	0	350224384	20	4543
2026-01-12 22:35:43.20	63.17	17.32	-30.3	-32.3	12.6	1.01e-04	0	42	0	352321536	20	4540
2026-01-12 22:35:44.21	63.39	17.36	-30.3	-32.5	12.4	1.33e-04	0	42	0	354418688	20	4625
2026-01-12 22:35:45.21	63.60	17.40	-30.2	-32.0	12.8	6.25e-05	0	42	0	355467264	20	4448
2026-01-12 22:35:46.22	63.82	17.44	-30.2	-32.0	12.8	4.57e-05	0	42	0	357564416	20	4440
2026-01-12 22:35:47.21	64.03	17.48	-30.3	-32.4	12.6	6.33e-05	0	42	0	359661568	20	4586
2026-01-12 22:35:48.22	64.25	17.52	-30.4	-32.7	12.3	1.85e-04	0	42	0	361758720	20	4697
2026-01-12 22:35:49.22	64.47	17.56	-30.3	-32.3	12.6	1.01e-04	0	42	0	362807296	20	4558
2026-01-12 22:35:50.23	64.69	17.60	-30.1	-31.9	12.9	6.63e-05	0	42	0	364904448	20	4397
2026-01-12 22:35:51.24	64.91	17.64	-30.1	-31.7	13.0	2.97e-05	0	42	0	367001600	20	4345
2026-01-12 22:35:52.25	65.13	17.68	-30.1	-31.9	12.9	2.59e-05	0	42	0	369098752	20	4403
2026-01-12 22:35:53.25	65.35	17.72	-30.1	-31.8	13.0	4.65e-05	0	42	0	371195904	20	4367
2026-01-12 22:35:54.26	65.58	17.75	-30.0	-31.5	13.2	1.67e-05	0	42	0	373293056	20	4267
2026-01-12 22:35:55.26	65.80	17.79	-30.1	-31.9	12.9	3.50e-05	0	42	0	374341632	20	4405
2026-01-12 22:35:56.27	66.02	17.83	-29.8	-31.1	13.4	3.66e-05	0	42	0	376438784	20	4142
2026-01-12 22:35:57.28	66.24	17.86	-29.7	-31.2	13.7	4.36e-04	0	42	0	378535936	19	4274
2026-01-12 22:35:58.29	66.47	17.90	-29.5	-30.7	14.0	3.00e-06	0	42	0	380633088	19	4133
2026-01-12 22:35:59.29	66.69	17.94	-29.4	-30.4	14.3	1.50e-06	0	42	0	381681664	19	4026
2026-01-12 22:36:00.29	66.91	17.97	-29.4	-30.4	14.2	3.23e-04	0	42	0	383778816	19	4036
2026-01-12 22:36:01.30	67.14	18.01	-29.5	-30.7	14.1	2.77e-04	0	42	0	385875968	19	4122
2026-01-12 22:36:02.30	67.36	18.04	-29.4	-30.4	14.2	7.00e-07	0	42	0	387973120	19	4048
2026-01-12 22:36:03.30	67.59	18.08	-29.6	-30.9	14.0	2.97e-04	0	42	0	390070272	19	4186
2026-01-12 22:36:04.31	67.82	18.11	-29.8	-31.4	13.6	2.46e-04	0	42	0	391118848	19	4349
2026-01-12 22:36:05.31	68.04	18.14	-29.7	-31.2	13.8	5.30e-06	0	42	0	393216000	19	4259
2026-01-12 22:36:06.31	68.27	18.18	-29.8	-31.5	13.6	3.80e-06	0	42	0	395313152	19	4352
2026-01-12 22:36:07.32	68.50	18.21	-29.7	-31.1	13.8	5.79e-05	0	42	0	397410304	19	4253
2026-01-12 22:36:08.32	68.72	18.24	-29.5	-30.7	14.0	4.50e-06	0	42	0	399507456	19	4123
2026-01-12 22:36:09.33	68.95	18.28	-29.5	-30.6	14.2	3.80e-06	0	42	0	400556032	19	4095
2026-01-12 22:36:10.33	69.18	18.31	-29.4	-30.5	14.2	2.20e-06	0	42	0	402653184	19	4061
2026-01-12 22:36:11.34	69.41	18.34	-29.4	-30.4	14.3	1.50e-06	0	42	0	404750336	19	4026
2026-01-12 22:36:12.34	69.64	18.37	-29.4	-30.4	14.2	0.00e+00	0	42	0	406847488	19	4036
2026-01-12 22:36:13.35	69.88	18.40	-29.5	-30.6	14.1	2.23e-04	0	42	0	408944640	19	4093
2026-01-12 22:36:14.35	70.11	18.43	-29.2	-30.0	14.5	7.00e-07	0	42	0	409993216	19	3914
2026-01-12 22:36:15.35	70.34	18.46	-29.2	-29.9	14.6	0.00e+00	0	42	0	412090368	19	3886
2026-01-12 22:36:16.35	70.57	18.49	-29.3	-30.2	14.4	0.00e+00	0	42	0	414187520	19	3986
2026-01-12 22:36:17.36	70.80	18.52	-29.4	-30.4	14.2	1.50e-06	0	42	0	416284672	19	4040
2026-01-12 22:36:18.36	71.03	18.55	-29.4	-30.5	14.2	1.29e-05	0	42	0	418381824	19	4065
2026-01-12 22:36:19.37	71.27	18.58	-29.6	-30.8	14.0	4.19e-05	0	42	0	419430400	19	4161
2026-01-12 22:36:20.37	71.50	18.60	-29.6	-30.8	13.9	1.50e-06	0	42	0	421527552	19	4160
2026-01-12 22:36:21.38	71.74	18.63	-29.6	-30.8	14.0	4.88e-05	0	42	0	423624704	19	4147
2026-01-12 22:36:22.38	71.97	18.66	-29.5	-30.7	14.0	8.01e-05	0	42	0	425721856	19	4111
2026-01-12 22:36:23.39	72.21	18.68	-29.6	-30.9	13.9	3.80e-06	0	42	0	427819008	19	4168
2026-01-12 22:36:24.39	72.44	18.71	-29.5	-30.6	14.1	0.00e+00	0	42	0	428867584	19	4097
2026-01-12 22:36:25.39	72.67	18.73	-29.6	-30.9	13.9	4.50e-06	0	42	0	430964736	19	4194
2026-01-12 22:36:26.39	72.91	18.76	-30.0	-31.9	13.3	7.60e-06	0	42	0	433061888	19	4501
2026-01-12 22:36:27.40	73.15	18.78	-30.0	-31.5	13.2	3.35e-05	0	42	0	435159040	20	4271
2026-01-12 22:36:28.40	73.38	18.81	-30.0	-31.6	13.0	3.35e-05	0	42	0	437256192	20	4322
2026-01-12 22:36:29.41	73.62	18.83	-30.0	-31.4	13.2	3.89e-05	0	42	0	438304768	20	4259
2026-01-12 22:36:30.42	73.86	18.85	-29.8	-31.1	13.4	3.35e-05	0	42	0	440401920	20	4157
2026-01-12 22:36:31.42	74.10	18.88	-29.7	-30.7	13.7	1.29e-05	0	42	0	442499072	20	4047
2026-01-12 22:36:32.43	74.34	18.90	-29.7	-30.7	13.7	7.60e-06	0	42	0	444596224	20	4040
2026-01-12 22:36:33.44	74.58	18.92	-29.9	-31.2	13.4	1.98e-05	0	42	0	446693376	20	4176
2026-01-12 22:36:34.45	74.82	18.94	-30.0	-31.6	13.2	2.13e-05	0	42	0	447741952	20	4303
2026-01-12 22:36:35.45	75.06	18.96	-30.0	-31.5	13.2	2.59e-05	0	42	0	449839104	20	4276
2026-01-12 22:36:36.46	75.30	18.98	-29.9	-31.3	13.3	1.98e-05	0	42	0	451936256	20	4218
2026-01-12 22:36:37.46	75.54	19.00	-30.0	-31.5	13.2	2.28e-05	0	42	0	454033408	20	4270
2026-01-12 22:36:38.47	75.78	19.02	-30.1	-31.8	13.0	2.36e-05	0	42	0	456130560	20	4367
2026-01-12 22:36:39.47	76.02	19.04	-30.3	-32.3	12.6	5.49e-05	0	42	0	457179136	20	4548
2026-01-12 22:36:40.48	76.26	19.06	-30.3	-32.4	12.5	8.01e-05	0	42	0	459276288	20	4583
2026-01-12 22:36:41.49	76.50	19.08	-30.4	-32.7	12.4	1.25e-04	0	42	0	461373440	20	4682
2026-01-12 22:36:42.49	76.74	19.10	-30.5	-32.4	12.2	2.08e-04	0	42	0	463470592	21	4495
2026-01-12 22:36:43.50	76.98	19.11	-30.7	-32.9	11.9	3.95e-04	0	42	0	464519168	21	4672
2026-01-12 22:36:44.50	77.23	19.13	-30.6	-32.8	11.9	5.46e-04	0	42	0	466616320	21	4630
2026-01-12 22:36:45.51	77.47	19.15	-30.6	-32.8	12.0	2.68e-04	0	42	0	468713472	21	4615
2026-01-12 22:36:46.52	77.71	19.16	-30.6	-32.6	12.0	3.87e-04	0	42	0	470810624	21	4558
2026-01-12 22:36:47.52	77.95	19.18	-30.3	-31.8	12.7	9.61e-05	0	42	0	472907776	21	4283
2026-01-12 22:36:48.53	78.20	19.19	-30.1	-31.3	12.9	7.78e-05	0	42	0	475004928	21	4147
2026-01-12 22:36:49.53	78.44	19.21	-30.0	-31.1	13.0	3.12e-05	0	42	0	476053504	21	4060
2026-01-12 22:36:50.54	78.69	19.22	-30.1	-31.2	13.0	3.28e-05	0	42	0	478150656	21	4117
2026-01-12 22:36:51.54	78.93	19.23	-30.2	-31.5	12.8	3.89e-05	0	42	0	480247808	21	4208
2026-01-12 22:36:52.55	79.17	19.24	-30.1	-31.4	12.9	7.70e-05	0	42	0	482344960	21	4168
2026-01-12 22:36:53.56	79.42	19.26	-30.0	-31.0	13.2	2.21e-05	0	42	0	484442112	21	4027
2026-01-12 22:36:54.56	79.66	19.27	-29.9	-30.9	13.2	1.44e-05	0	42	0	485490688	21	3996
2026-01-12 22:36:55.57	79.91	19.28	-30.0	-30.9	13.3	3.05e-05	0	42	0	487587840	21	4012
2026-01-12 22:36:56.58	80.15	19.29	-30.0	-31.2	13.0	2.28e-05	0	42	0	489684992	21	4097
2026-01-12 22:36:57.59	80.40	19.30	-30.1	-31.3	12.9	5.18e-05	0	42	0	491782144	21	4140
2026-01-12 22:36:58.59	80.64	19.31	-30.1	-31.7	13.1	4.80e-05	0	42	0	492830720	20	4362
2026-01-12 22:36:59.59	80.89	19.32	-30.0	-31.6	13.1	4.57e-05	0	42	0	494927872	20	4313
2026-01-12 22:37:00.59	81.13	19.33	-29.9	-31.3	13.3	1.83e-05	0	42	0	497025024	20	4214
2026-01-12 22:37:01.60	81.38	19.33	-29.7	-30.6	13.7	7.60e-06	0	42	0	499122176	20	4020
2026-01-12 22:37:02.60	81.62	19.34	-29.7	-30.6	13.7	3.00e-06	0	42	0	501219328	20	4013
2026-01-12 22:37:03.61	81.87	19.35	-29.7	-31.2	13.7	1.22e-05	0	42	0	503316480	19	4282
2026-01-12 22:37:04.61	82.11	19.36	-29.9	-31.8	13.4	1.06e-05	0	42	0	504365056	19	4458
2026-01-12 22:37:05.61	82.36	19.36	-30.0	-31.6	13.1	1.98e-05	0	42	0	506462208	20	4310
2026-01-12 22:37:06.61	82.60	19.37	-30.1	-31.8	13.0	3.28e-05	0	42	0	508559360	20	4367
2026-01-12 22:37:07.62	82.85	19.37	-30.1	-31.8	13.0	4.80e-05	0	42	0	510656512	20	4372
2026-01-12 22:37:08.63	83.10	19.38	-30.1	-31.7	13.0	5.03e-05	0	42	0	511705088	20	4342
2026-01-12 22:37:09.63	83.34	19.38	-30.2	-32.1	12.8	5.72e-05	0	42	0	513802240	20	4483
2026-01-12 22:37:10.64	83.59	19.38	-30.2	-32.1	12.7	7.09e-05	0	42	0	515899392	20	4491
2026-01-12 22:37:11.65	83.84	19.39	-30.3	-32.4	12.6	6.94e-05	0	42	0	517996544	20	4591
2026-01-12 22:37:12.65	84.08	19.39	-30.3	-32.5	12.5	1.18e-04	0	42	0	520093696	20	4603
2026-01-12 22:37:13.65	84.33	19.39	-30.5	-32.8	12.2	1.85e-04	0	42	0	521142272	20	4733
2026-01-12 22:37:14.65	84.57	19.39	-30.3	-32.5	12.5	1.57e-04	0	42	0	523239424	20	4598
2026-01-12 22:37:15.66	84.82	19.39	-30.1	-31.9	12.9	6.10e-05	0	42	0	525336576	20	4414
2026-01-12 22:37:16.66	85.07	19.39	-30.1	-31.7	13.0	4.88e-05	0	42	0	527433728	20	4348
2026-01-12 22:37:17.67	85.32	19.39	-29.9	-31.4	13.3	2.59e-05	0	42	0	529530880	20	4234
2026-01-12 22:37:18.67	85.56	19.39	-29.9	-31.2	13.4	1.60e-05	0	42	0	530579456	20	4184
2026-01-12 22:37:19.68	85.81	19.39	-30.0	-31.6	13.1	2.13e-05	0	42	0	532676608	20	4302
2026-01-12 22:37:20.69	86.06	19.39	-30.2	-32.0	12.9	8.92e-05	0	42	0	534773760	20	4428
2026-01-12 22:37:21.69	86.30	19.39	-30.3	-32.2	12.7	5.34e-05	0	42	0	536870912	20	4524
2026-01-12 22:37:22.69	86.55	19.38	-30.3	-32.2	12.7	1.07e-04	0	42	0	538968064	20	4519
2026-01-12 22:37:23.70	86.79	19.38	-30.2	-32.1	12.7	1.30e-04	0	42	0	540016640	20	4484
2026-01-12 22:37:24.70	87.04	19.38	-30.2	-32.2	12.7	6.10e-05	0	42	0	542113792	20	4493
2026-01-12 22:37:25.71	87.29	19.37	-30.2	-32.0	12.8	5.34e-05	0	42	0	544210944	20	4428
2026-01-12 22:37:26.71	87.53	19.37	-30.3	-32.2	12.7	7.85e-05	0	42	0	546308096	20	4517
2026-01-12 22:37:27.73	87.78	19.36	-30.1	-31.8	13.0	8.39e-05	0	42	0	548405248	20	4372
2026-01-12 22:37:28.73	88.03	19.36	-30.0	-31.5	13.2	3.50e-05	0	42	0	549453824	20	4281
2026-01-12 22:37:29.73	88.27	19.35	-30.0	-31.4	13.2	3.35e-05	0	42	0	551550976	20	4252
2026-01-12 22:37:30.74	88.52	19.34	-30.1	-31.8	13.0	1.12e-04	0	42	0	553648128	20	4375
2026-01-12 22:37:31.74	88.76	19.33	-30.0	-31.6	13.1	2.51e-05	0	42	0	555745280	20	4324
2026-01-12 22:37:32.75	89.01	19.33	-30.0	-31.7	13.0	2.28e-05	0	42	0	557842432	20	4340
2026-01-12 22:37:33.76	89.26	19.32	-30.1	-31.8	12.9	1.50e-04	0	42	0	558891008	20	4387
2026-01-12 22:37:34.76	89.50	19.31	-30.2	-32.1	12.8	8.31e-05	0	42	0	560988160	20	4466
2026-01-12 22:37:35.77	89.75	19.30	-30.2	-32.1	12.8	1.05e-04	0	42	0	563085312	20	4486
2026-01-12 22:37:36.76	89.99	19.29	-30.2	-32.0	12.8	9.84e-05	0	42	0	565182464	20	4453
2026-01-12 22:37:37.77	90.24	19.28	-30.2	-32.0	12.8	5.26e-05	0	42	0	567279616	20	4438
2026-01-12 22:37:38.77	90.48	19.27	-30.0	-31.5	13.1	1.06e-04	0	42	0	568328192	20	4283
2026-01-12 22:37:39.78	90.72	19.26	-29.9	-31.2	13.3	2.59e-05	0	42	0	570425344	20	4198
2026-01-12 22:37:40.78	90.97	19.24	-29.9	-31.3	13.3	1.75e-05	0	42	0	572522496	20	4213
2026-01-12 22:37:41.79	91.21	19.23	-30.0	-31.7	13.0	3.12e-05	0	42	0	574619648	20	4337
2026-01-12 22:37:42.80	91.46	19.22	-29.9	-31.4	13.2	4.27e-05	0	42	0	576716800	20	4245
2026-01-12 22:37:43.81	91.70	19.20	-30.1	-31.8	13.0	3.81e-05	0	42	0	577765376	20	4370
2026-01-12 22:37:44.82	91.95	19.19	-30.3	-32.3	12.6	5.79e-05	0	42	0	579862528	20	4555
2026-01-12 22:37:45.82	92.19	19.18	-30.3	-32.2	12.6	9.76e-05	0	42	0	581959680	20	4530
2026-01-12 22:37:46.81	92.43	19.16	-30.4	-32.6	12.4	1.43e-04	0	42	0	584056832	20	4654
2026-01-12 22:37:47.82	92.67	19.14	-30.3	-32.3	12.6	9.68e-05	0	42	0	586153984	20	4554
2026-01-12 22:37:48.83	92.92	19.13	-30.1	-31.8	13.0	6.63e-05	0	42	0	587202560	20	4369
2026-01-12 22:37:49.84	93.16	19.11	-30.0	-31.6	13.0	4.65e-05	0	42	0	589299712	20	4331
2026-01-12 22:37:50.85	93.41	19.09	-30.0	-31.5	13.1	5.34e-05	0	42	0	591396864	20	4294
2026-01-12 22:37:51.86	93.65	19.08	-30.1	-31.8	13.0	4.65e-05	0	42	0	593494016	20	4377
2026-01-12 22:37:52.86	93.89	19.06	-30.3	-32.5	12.4	7.62e-05	0	42	0	595591168	20	4623
2026-01-12 22:37:53.86	94.13	19.04	-30.2	-32.2	12.7	1.11e-04	0	42	0	596639744	20	4525
2026-01-12 22:37:54.86	94.37	19.02	-30.1	-31.8	12.9	6.10e-05	0	42	0	598736896	20	4381
2026-01-12 22:37:55.86	94.61	19.00	-29.9	-31.2	13.3	3.05e-05	0	42	0	600834048	20	4181
2026-01-12 22:37:56.87	94.85	18.98	-29.8	-31.0	13.4	1.44e-05	0	42	0	602931200	20	4129
2026-01-12 22:37:57.88	95.09	18.96	-29.8	-31.1	13.3	1.52e-05	0	42	0	605028352	20	4171
2026-01-12 22:37:58.88	95.33	18.94	-29.9	-31.2	13.4	2.05e-05	0	42	0	606076928	20	4190
2026-01-12 22:37:59.88	95.57	18.92	-30.0	-31.7	13.0	2.82e-05	0	42	0	608174080	20	4356
2026-01-12 22:38:00.89	95.81	18.90	-30.2	-32.1	12.8	4.42e-05	0	42	0	610271232	20	4490
2026-01-12 22:38:01.89	96.05	18.88	-30.4	-32.6	12.4	1.24e-04	0	42	0	612368384	20	4658
2026-01-12 22:38:02.90	96.29	18.85	-30.5	-32.5	12.1	2.17e-04	0	42	0	613416960	21	4522
2026-01-12 22:38:03.90	96.52	18.83	-30.4	-32.1	12.3	2.30e-04	0	42	0	615514112	21	4403
2026-01-12 22:38:04.91	96.76	18.81	-30.1	-31.4	12.8	1.11e-04	0	42	0	617611264	21	4175
2026-01-12 22:38:05.92	97.00	18.78	-30.0	-31.0	13.1	5.41e-05	0	42	0	619708416	21	4041
2026-01-12 22:38:06.92	97.24	18.76	-29.7	-30.8	13.5	1.37e-05	0	42	0	621805568	20	4079
2026-01-12 22:38:07.93	97.48	18.73	-29.5	-30.1	14.0	6.80e-06	0	42	0	623902720	20	3887
2026-01-12 22:38:08.94	97.71	18.71	-29.5	-30.1	14.0	3.80e-06	0	42	0	624951296	20	3883
2026-01-12 22:38:09.95	97.95	18.68	-29.6	-30.6	13.7	1.29e-05	0	42	0	627048448	20	4027
2026-01-12 22:38:10.95	98.18	18.65	-29.8	-31.1	13.3	4.50e-06	0	42	0	629145600	20	4167
2026-01-12 22:38:11.95	98.42	18.63	-29.9	-31.4	13.2	1.90e-05	0	42	0	631242752	20	4259
2026-01-12 22:38:12.96	98.65	18.60	-29.9	-31.3	13.2	2.67e-05	0	42	0	633339904	20	4224
2026-01-12 22:38:13.95	98.88	18.57	-29.7	-30.7	13.6	1.60e-05	0	42	0	634388480	20	4046
2026-01-12 22:38:14.95	99.12	18.54	-29.4	-30.1	14.0	3.80e-06	0	42	0	636485632	20	3881
2026-01-12 22:38:15.96	99.35	18.51	-29.3	-29.7	14.2	1.44e-05	0	42	0	638582784	20	3781
2026-01-12 22:38:16.96	99.58	18.49	-29.5	-30.1	13.9	7.00e-07	0	42	0	640679936	20	3888
2026-01-12 22:38:17.97	99.82	18.46	-29.5	-30.3	13.9	6.80e-06	0	42	0	641728512	20	3936
2026-01-12 22:38:18.97	100.05	18.43	-29.7	-31.3	13.5	2.20e-06	0	42	0	643825664	19	4324
2026-01-12 22:38:19.97	100.28	18.40	-29.7	-31.4	13.5	1.37e-05	0	42	0	645922816	19	4333
2026-01-12 22:38:20.98	100.51	18.37	-29.6	-31.0	13.7	8.30e-06	0	42	0	648019968	19	4240
2026-01-12 22:38:21.99	100.74	18.33	-29.6	-31.0	13.7	8.30e-06	0	42	0	650117120	19	4235
2026-01-12 22:38:22.99	100.97	18.30	-29.5	-30.8	13.9	1.22e-05	0	42	0	651165696	19	4167
2026-01-12 22:38:24.00	101.20	18.27	-29.5	-30.7	14.0	3.80e-06	0	42	0	653262848	19	4148
2026-01-12 22:38:25.00	101.43	18.24	-29.6	-31.0	13.8	2.20e-06	0	42	0	655360000	19	4230
2026-01-12 22:38:26.01	101.66	18.21	-29.3	-30.2	14.3	3.80e-06	0	42	0	657457152	19	3997
2026-01-12 22:38:27.01	101.89	18.17	-29.3	-30.1	14.4	7.00e-07	0	42	0	659554304	19	3954
2026-01-12 22:38:28.01	102.12	18.14	-29.3	-30.2	14.3	0.00e+00	0	42	0	660602880	19	3998
2026-01-12 22:38:29.02	102.35	18.11	-29.4	-30.5	14.1	3.00e-06	0	42	0	662700032	19	4067
2026-01-12 22:38:30.03	102.57	18.07	-29.4	-30.4	14.2	1.50e-06	0	42	0	664797184	19	4053
2026-01-12 22:38:31.03	102.80	18.04	-29.5	-30.8	13.9	5.30e-06	0	42	0	666894336	19	4162
2026-01-12 22:38:32.04	103.03	18.00	-29.5	-30.8	13.9	3.80e-06	0	42	0	668991488	19	4166
2026-01-12 22:38:33.04	103.25	17.97	-29.5	-30.9	13.8	3.00e-06	0	42	0	670040064	19	4190
2026-01-12 22:38:34.05	103.48	17.93	-29.7	-31.2	13.6	6.10e-06	0	42	0	672137216	19	4296
2026-01-12 22:38:35.05	103.70	17.89	-29.7	-31.3	13.5	6.10e-06	0	42	0	674234368	19	4331
2026-01-12 22:38:36.05	103.92	17.86	-29.8	-31.5	13.4	1.06e-05	0	42	0	676331520	19	4373
2026-01-12 22:38:37.06	104.15	17.82	-29.9	-31.8	13.2	1.83e-05	0	42	0	678428672	19	4488
2026-01-12 22:38:38.06	104.37	17.78	-29.9	-31.4	13.1	2.59e-05	0	42	0	679477248	20	4281
2026-01-12 22:38:39.06	104.59	17.75	-30.0	-31.7	12.9	3.81e-05	0	42	0	681574400	20	4356
2026-01-12 22:38:40.07	104.81	17.71	-29.8	-30.9	13.4	3.05e-05	0	42	0	683671552	20	4122
2026-01-12 22:38:41.07	105.04	17.67	-29.6	-30.6	13.6	9.90e-06	0	42	0	685768704	20	4032
2026-01-12 22:38:42.08	105.26	17.63	-29.7	-31.3	13.6	3.00e-06	0	42	0	687865856	19	4305
2026-01-12 22:38:43.08	105.48	17.59	-29.9	-31.7	13.3	9.90e-06	0	42	0	688914432	19	4445
2026-01-12 22:38:44.09	105.70	17.55	-29.8	-31.5	13.3	1.44e-05	0	42	0	691011584	19	4385
2026-01-12 22:38:45.09	105.92	17.51	-29.7	-31.3	13.4	9.90e-06	0	42	0	693108736	19	4315
2026-01-12 22:38:46.10	106.13	17.47	-29.7	-31.2	13.6	1.29e-05	0	42	0	695205888	19	4297
2026-01-12 22:38:47.09	106.35	17.43	-29.8	-31.4	13.5	5.30e-06	0	42	0	697303040	19	4354
2026-01-12 22:38:48.10	106.57	17.39	-29.7	-31.2	13.6	4.50e-06	0	42	0	698351616	19	4272
2026-01-12 22:38:49.11	106.79	17.35	-29.7	-31.2	13.6	6.10e-06	0	42	0	700448768	19	4286
2026-01-12 22:38:50.11	107.00	17.31	-30.0	-31.5	13.0	9.90e-06	0	42	0	702545920	20	4301
2026-01-12 22:38:51.12	107.22	17.27	-30.3	-32.3	12.5	1.43e-04	0	42	0	704643072	20	4567
2026-01-12 22:38:52.13	107.43	17.22	-30.3	-32.4	12.4	1.08e-04	0	42	0	706740224	20	4588
2026-01-12 22:38:53.13	107.65	17.18	-30.4	-32.8	12.1	1.94e-04	0	42	0	707788800	20	4724
2026-01-12 22:38:54.13	107.86	17.14	-30.4	-32.7	12.2	2.33e-04	0	42	0	709885952	20	4696
2026-01-12 22:38:55.13	108.07	17.10	-30.1	-31.8	12.8	8.62e-05	0	42	0	711983104	20	4403
2026-01-12 22:38:56.14	108.29	17.05	-30.0	-31.6	13.0	5.56e-05	0	42	0	714080256	20	4322
2026-01-12 22:38:57.14	108.50	17.01	-30.2	-32.0	12.7	6.79e-05	0	42	0	715128832	20	4472
2026-01-12 22:38:58.15	108.71	16.97	-30.0	-31.5	13.0	6.94e-05	0	42	0	717225984	20	4302
2026-01-12 22:38:59.15	108.92	16.92	-30.1	-31.9	12.7	3.73e-05	0	42	0	719323136	20	4425
2026-01-12 22:39:00.15	109.13	16.88	-30.2	-32.3	12.5	9.38e-05	0	42	0	721420288	20	4545
2026-01-12 22:39:01.15	109.34	16.83	-30.0	-31.7	12.9	3.28e-05	0	42	0	723517440	20	4343
2026-01-12 22:39:02.16	109.55	16.79	-29.8	-31.1	13.3	3.50e-05	0	42	0	725614592	20	4177
2026-01-12 22:39:03.16	109.76	16.74	-29.7	-30.7	13.5	1.83e-05	0	42	0	726663168	20	4060
2026-01-12 22:39:04.16	109.96	16.70	-29.6	-30.5	13.7	7.60e-06	0	42	0	728760320	20	3983
2026-01-12 22:39:05.16	110.17	16.65	-29.8	-31.0	13.4	7.70e-05	0	42	0	730857472	20	4139
2026-01-12 22:39:06.17	110.38	16.61	-29.8	-31.4	13.4	1.52e-05	0	42	0	732954624	19	4345
2026-01-12 22:39:07.18	110.58	16.56	-29.8	-31.6	13.3	1.06e-05	0	42	0	734003200	19	4424
2026-01-12 22:39:08.18	110.79	16.51	-30.1	-31.9	12.7	7.27e-04	0	42	0	736100352	20	4438
2026-01-12 22:39:09.18	110.99	16.47	-30.2	-32.1	12.6	9.26e-04	0	42	0	738197504	20	4493
2026-01-12 22:39:10.19	111.20	16.42	-30.3	-32.6	12.3	1.45e-04	0	42	0	740294656	20	4670
2026-01-12 22:39:11.20	111.40	16.37	-30.5	-32.9	12.1	1.02e-03	0	42	0	742391808	20	4782
2026-01-12 22:39:12.20	111.60	16.32	-30.6	-33.0	11.6	1.13e-03	0	42	0	743440384	21	4710
2026-01-12 22:39:13.21	111.81	16.28	-30.6	-32.8	11.8	6.33e-04	0	42	0	745537536	21	4645
2026-01-12 22:39:14.22	112.01	16.23	-30.5	-32.7	11.8	1.14e-03	0	42	0	747634688	21	4619
2026-01-12 22:39:15.22	112.21	16.18	-30.4	-32.4	12.0	7.56e-04	0	42	0	749731840	21	4525
2026-01-12 22:39:16.23	112.41	16.13	-30.5	-32.5	11.9	3.01e-04	0	42	0	751828992	21	4544
2026-01-12 22:39:17.24	112.61	16.08	-30.5	-32.7	11.8	4.16e-04	0	42	0	752877568	21	4635
2026-01-12 22:39:18.24	112.81	16.03	-30.4	-32.3	12.1	3.10e-04	0	42	0	754974720	21	4464
2026-01-12 22:39:19.24	113.01	15.98	-30.4	-32.3	12.1	2.37e-04	0	42	0	757071872	21	4465
2026-01-12 22:39:20.25	113.21	15.93	-30.4	-32.4	12.0	3.09e-04	0	42	0	759169024	21	4508
2026-01-12 22:39:21.26	113.41	15.88	-30.0	-31.2	12.8	1.43e-04	0	42	0	761266176	21	4129
2026-01-12 22:39:22.27	113.60	15.83	-29.8	-30.7	13.1	4.88e-05	0	42	0	762314752	21	3985
2026-01-12 22:39:23.27	113.80	15.78	-29.8	-31.0	13.3	4.57e-05	0	42	0	764411904	20	4136
2026-01-12 22:39:24.27	113.99	15.73	-29.9	-31.3	13.1	2.05e-05	0	42	0	766509056	20	4235
2026-01-12 22:39:25.28	114.19	15.68	-29.9	-31.5	13.0	3.73e-05	0	42	0	768606208	20	4301
2026-01-12 22:39:26.28	114.38	15.63	-30.3	-32.5	12.2	4.42e-04	0	42	0	770703360	20	4635
2026-01-12 22:39:27.28	114.58	15.58	-30.5	-32.7	11.8	6.48e-04	0	42	0	771751936	21	4623
2026-01-12 22:39:28.29	114.77	15.53	-30.9	-33.8	10.9	1.28e-03	0	42	0	773849088	21	5058
2026-01-12 22:39:29.29	114.96	15.48	-31.1	-33.9	10.6	3.13e-03	0	42	0	775946240	22	4994
2026-01-12 22:39:30.30	115.15	15.43	-31.0	-33.8	10.6	4.09e-03	0	42	0	778043392	22	4964
2026-01-12 22:39:31.30	115.34	15.37	-31.0	-33.6	10.8	2.23e-03	0	42	0	780140544	22	4857
2026-01-12 22:39:32.31	115.53	15.32	-30.8	-32.9	11.2	1.99e-03	0	42	0	781189120	22	4618
2026-01-12 22:39:33.31	115.72	15.27	-30.7	-33.3	11.3	1.31e-03	0	42	0	783286272	21	4851
2026-01-12 22:39:34.32	115.91	15.22	-30.7	-33.2	11.3	1.57e-03	0	42	0	785383424	21	4831
2026-01-12 22:39:35.33	116.10	15.17	-30.5	-32.5	11.8	7.50e-04	0	42	0	787480576	21	4571
2026-01-12 22:39:36.34	116.29	15.11	-30.5	-32.7	11.7	5.61e-04	0	42	0	789577728	21	4632
2026-01-12 22:39:37.34	116.48	15.06	-30.4	-32.3	11.9	3.75e-04	0	42	0	790626304	21	4512
2026-01-12 22:39:38.35	116.66	15.01	-30.4	-32.2	12.0	3.34e-04	0	42	0	792723456	21	4471
2026-01-12 22:39:39.35	116.85	14.95	-30.4	-32.3	12.0	2.86e-04	0	42	0	794820608	21	4478
2026-01-12 22:39:40.36	117.04	14.90	-30.5	-32.6	11.7	2.64e-04	0	42	0	796917760	21	4608
2026-01-12 22:39:41.37	117.22	14.85	-30.3	-32.0	12.1	6.00e-04	0	42	0	799014912	21	4380
2026-01-12 22:39:42.38	117.41	14.79	-30.1	-31.5	12.5	1.46e-04	0	42	0	800063488	21	4226
2026-01-12 22:39:43.38	117.59	14.74	-30.0	-31.3	12.6	8.69e-05	0	42	0	802160640	21	4161
2026-01-12 22:39:44.39	117.77	14.68	-30.0	-31.3	12.6	2.46e-04	0	42	0	804257792	21	4162
2026-01-12 22:39:45.39	117.95	14.63	-30.3	-32.0	12.2	1.88e-04	0	42	0	806354944	21	4396
2026-01-12 22:39:46.40	118.13	14.58	-30.4	-32.3	11.9	3.85e-04	0	42	0	808452096	21	4511
2026-01-12 22:39:47.41	118.32	14.52	-30.4	-32.3	11.9	4.36e-04	0	42	0	809500672	21	4505
2026-01-12 22:39:48.41	118.50	14.47	-30.4	-32.5	11.8	4.87e-04	0	42	0	811597824	21	4550
2026-01-12 22:39:49.42	118.68	14.41	-30.3	-32.2	12.0	4.44e-04	0	42	0	813694976	21	4468
2026-01-12 22:39:50.42	118.85	14.36	-30.3	-32.0	12.1	3.35e-04	0	42	0	815792128	21	4405
2026-01-12 22:39:51.43	119.03	14.30	-30.3	-32.7	11.9	4.53e-04	0	42	0	817889280	20	4727
2026-01-12 22:39:52.43	119.21	14.25	-30.2	-32.3	12.2	2.10e-04	0	42	0	818937856	20	4597
2026-01-12 22:39:53.43	119.38	14.19	-30.1	-32.1	12.3	3.35e-04	0	42	0	821035008	20	4521
2026-01-12 22:39:54.44	119.56	14.14	-30.0	-31.9	12.5	1.56e-04	0	42	0	823132160	20	4470
2026-01-12 22:39:55.45	119.74	14.08	-30.0	-31.9	12.5	1.17e-04	0	42	0	825229312	20	4473
2026-01-12 22:39:56.45	119.91	14.03	-30.1	-32.1	12.4	1.41e-04	0	42	0	827326464	20	4531
2026-01-12 22:39:57.47	120.09	13.97	-30.1	-32.2	12.3	2.00e-04	0	42	0	828375040	20	4570
2026-01-12 22:39:58.47	120.26	13.91	-30.2	-32.4	12.1	2.23e-04	0	42	0	830472192	20	4638
2026-01-12 22:39:59.47	120.43	13.86	-30.2	-32.4	12.1	3.49e-04	0	42	0	832569344	20	4631
2026-01-12 22:40:00.48	120.61	13.80	-30.1	-32.1	12.3	2.11e-04	0	42	0	834666496	20	4516
2026-01-12 22:40:01.48	120.78	13.75	-30.1	-32.0	12.4	1.93e-04	0	42	0	836763648	20	4510
2026-01-12 22:40:02.49	120.95	13.69	-30.3	-32.5	12.1	2.00e-04	0	42	0	837812224	20	4681
2026-01-12 22:40:03.49	121.12	13.63	-30.3	-32.5	12.0	3.57e-04	0	42	0	839909376	20	4672
2026-01-12 22:40:04.50	121.29	13.58	-30.3	-32.5	12.0	2.29e-04	0	42	0	842006528	20	4681
2026-01-12 22:40:05.50	121.46	13.52	-30.2	-32.3	12.2	3.07e-04	0	42	0	844103680	20	4574
2026-01-12 22:40:06.50	121.63	13.46	-30.1	-32.1	12.3	2.35e-04	0	42	0	846200832	20	4521
2026-01-12 22:40:07.50	121.79	13.41	-30.1	-32.2	12.3	1.65e-04	0	42	0	847249408	20	4550
2026-01-12 22:40:08.50	121.96	13.35	-30.0	-31.7	12.6	1.83e-04	0	42	0	849346560	20	4391
2026-01-12 22:40:09.51	122.13	13.29	-29.8	-31.2	12.9	6.10e-05	0	42	0	851443712	20	4219
2026-01-12 22:40:10.51	122.29	13.24	-29.6	-30.8	13.1	6.25e-05	0	42	0	853540864	20	4121
2026-01-12 22:40:11.51	122.46	13.18	-29.5	-30.5	13.3	1.29e-05	0	42	0	855638016	20	4028
2026-01-12 22:40:12.52	122.62	13.12	-29.6	-30.6	13.3	8.30e-06	0	42	0	856686592	20	4048
2026-01-12 22:40:13.52	122.79	13.07	-29.6	-30.8	13.2	7.85e-05	0	42	0	858783744	20	4101
2026-01-12 22:40:14.53	122.95	13.01	-29.6	-30.6	13.3	2.36e-05	0	42	0	860880896	20	4065
2026-01-12 22:40:15.53	123.11	12.95	-29.7	-31.0	12.9	3.43e-05	0	42	0	862978048	20	4185
2026-01-12 22:40:16.53	123.28	12.89	-29.9	-31.7	12.5	1.44e-04	0	42	0	864026624	20	4409
2026-01-12 22:40:17.54	123.44	12.84	-30.0	-32.0	12.3	1.84e-04	0	42	0	866123776	20	4510
2026-01-12 22:40:18.54	123.60	12.78	-30.2	-32.4	12.0	2.25e-04	0	42	0	868220928	20	4663
2026-01-12 22:40:19.54	123.76	12.72	-30.3	-32.8	11.7	4.93e-04	0	42	0	870318080	20	4805
2026-01-12 22:40:20.55	123.92	12.66	-30.2	-32.4	12.0	3.36e-04	0	42	0	872415232	20	4645
2026-01-12 22:40:21.55	124.08	12.61	-30.2	-32.5	12.0	2.39e-04	0	42	0	873463808	20	4672
2026-01-12 22:40:22.56	124.24	12.55	-30.0	-31.7	12.5	2.27e-04	0	42	0	875560960	20	4418
2026-01-12 22:40:23.56	124.39	12.49	-29.8	-31.7	13.0	1.10e-04	0	42	0	877658112	19	4468
2026-01-12 22:40:24.57	124.55	12.43	-29.6	-31.3	13.2	3.20e-05	0	42	0	879755264	19	4333
2026-01-12 22:40:25.58	124.71	12.37	-29.5	-30.9	13.5	3.22e-04	0	42	0	881852416	19	4221
2026-01-12 22:40:26.58	124.87	12.32	-29.5	-30.9	13.4	1.14e-05	0	42	0	882900992	19	4235
2026-01-12 22:40:27.58	125.02	12.26	-29.6	-31.2	13.2	1.29e-05	0	42	0	884998144	19	4326
2026-01-12 22:40:28.59	125.18	12.20	-29.5	-31.0	13.3	4.34e-05	0	42	0	887095296	19	4254
2026-01-12 22:40:29.60	125.33	12.14	-29.7	-31.3	13.1	3.43e-05	0	42	0	889192448	19	4374
2026-01-12 22:40:30.61	125.49	12.08	-29.7	-31.5	13.0	3.43e-05	0	42	0	891289600	19	4433
2026-01-12 22:40:31.61	125.64	12.02	-29.8	-31.7	12.9	1.85e-04	0	42	0	892338176	19	4490
2026-01-12 22:40:32.62	125.79	11.97	-29.8	-31.8	12.8	4.43e-04	0	42	0	894435328	19	4535
2026-01-12 22:40:33.64	125.95	11.91	-29.7	-31.7	12.8	4.50e-05	0	42	0	896532480	19	4495
2026-01-12 22:40:34.64	126.10	11.85	-29.9	-32.0	12.6	1.21e-03	0	42	0	898629632	19	4601
2026-01-12 22:40:35.65	126.25	11.79	-29.9	-32.0	12.6	1.31e-03	0	42	0	900726784	19	4615
2026-01-12 22:40:36.66	126.40	11.73	-30.0	-31.8	12.4	9.53e-05	0	42	0	901775360	20	4453
2026-01-12 22:40:37.66	126.55	11.67	-30.1	-32.1	12.1	1.18e-03	0	42	0	903872512	20	4542
2026-01-12 22:40:38.66	126.70	11.61	-30.2	-32.4	11.9	8.04e-04	0	42	0	905969664	20	4662
2026-01-12 22:40:39.67	126.85	11.55	-30.4	-33.0	11.5	4.63e-04	0	42	0	908066816	20	4886
2026-01-12 22:40:40.68	127.00	11.50	-30.5	-33.3	11.3	1.05e-03	0	42	0	910163968	20	4975
2026-01-12 22:40:41.68	127.14	11.44	-30.5	-32.9	11.2	1.57e-03	0	42	0	911212544	21	4760
2026-01-12 22:40:42.69	127.29	11.38	-30.5	-33.0	11.1	1.49e-03	0	42	0	913309696	21	4776
2026-01-12 22:40:43.69	127.44	11.32	-30.4	-32.5	11.4	1.84e-03	0	42	0	915406848	21	4620
2026-01-12 22:40:44.70	127.58	11.26	-30.5	-32.9	11.1	1.47e-03	0	42	0	917504000	21	4772
2026-01-12 22:40:45.71	127.73	11.20	-30.4	-32.7	11.3	1.42e-03	0	42	0	919601152	21	4686
2026-01-12 22:40:46.72	127.88	11.14	-30.2	-32.1	11.7	8.44e-04	0	42	0	920649728	21	4468
2026-01-12 22:40:47.72	128.02	11.08	-30.1	-31.7	12.0	3.29e-04	0	42	0	922746880	21	4337
2026-01-12 22:40:48.73	128.16	11.02	-30.0	-31.5	12.1	3.10e-04	0	42	0	924844032	21	4266
2026-01-12 22:40:49.74	128.31	10.97	-30.2	-31.9	11.8	3.51e-04	0	42	0	926941184	21	4410
2026-01-12 22:40:50.75	128.45	10.91	-30.1	-31.7	12.0	5.12e-04	0	42	0	929038336	21	4342
2026-01-12 22:40:51.75	128.59	10.85	-30.2	-32.0	11.8	4.39e-04	0	42	0	930086912	21	4430
2026-01-12 22:40:52.75	128.73	10.79	-30.3	-32.4	11.5	5.66e-04	0	42	0	932184064	21	4563
2026-01-12 22:40:53.76	128.87	10.73	-30.3	-32.3	11.6	6.91e-04	0	42	0	934281216	21	4517
2026-01-12 22:40:54.77	129.02	10.67	-30.3	-32.4	11.5	7.09e-04	0	42	0	936378368	21	4566
2026-01-12 22:40:55.77	129.15	10.61	-30.2	-32.0	11.7	5.11e-04	0	42	0	938475520	21	4436
2026-01-12 22:40:56.78	129.29	10.55	-30.2	-31.9	11.8	5.54e-04	0	42	0	939524096	21	4402
2026-01-12 22:40:57.79	129.43	10.49	-30.1	-31.8	11.9	3.66e-04	0	42	0	941621248	21	4372
2026-01-12 22:40:58.79	129.57	10.43	-30.1	-31.8	11.9	4.30e-04	0	42	0	943718400	21	4369
2026-01-12 22:40:59.80	129.71	10.38	-30.0	-31.5	12.1	3.78e-04	0	42	0	945815552	21	4282
2026-01-12 22:41:00.80	129.85	10.32	-29.9	-31.3	12.2	2.04e-04	0	42	0	947912704	21	4201
2026-01-12 22:41:01.81	129.98	10.26	-29.9	-31.2	12.2	1.97e-04	0	42	0	948961280	21	4202
2026-01-12 22:41:02.81	130.12	10.20	-30.1	-31.8	11.8	2.17e-04	0	42	0	951058432	21	4376
2026-01-12 22:41:03.82	130.25	10.14	-30.1	-31.8	11.8	4.24e-04	0	42	0	953155584	21	4390
2026-01-12 22:41:04.82	130.39	10.08	-30.1	-31.8	11.8	5.19e-04	0	42	0	955252736	21	4385
2026-01-12 22:41:05.83	130.52	10.02	-30.1	-31.7	11.9	6.29e-04	0	42	0	957349888	21	4360
2026-01-12 22:41:06.84	130.66	9.96	-30.0	-31.6	11.9	5.54e-04	0	42	0	958398464	21	4325
2026-01-12 22:41:07.84	130.79	9.90	-30.0	-31.5	12.0	3.52e-04	0	42	0	960495616	21	4284
2026-01-12 22:41:08.85	130.92	9.84	-30.1	-31.7	11.9	4.11e-04	0	42	0	962592768	21	4348
2026-01-12 22:41:09.85	131.06	9.79	-29.9	-31.3	12.1	3.60e-04	0	42	0	964689920	21	4221
2026-01-12 22:41:10.86	131.19	9.73	-30.0	-31.4	12.1	3.16e-04	0	42	0	966787072	21	4269
2026-01-12 22:41:11.86	131.32	9.67	-30.0	-31.4	12.1	3.25e-04	0	42	0	967835648	21	4245
2026-01-12 22:41:12.87	131.45	9.61	-30.0	-31.4	12.0	3.75e-04	0	42	0	969932800	21	4265
2026-01-12 22:41:13.88	131.58	9.55	-30.0	-31.5	11.9	4.10e-04	0	42	0	972029952	21	4285
2026-01-12 22:41:14.88	131.71	9.49	-30.0	-31.6	11.9	2.72e-04	0	42	0	974127104	21	4320
2026-01-12 22:41:15.88	131.84	9.43	-30.1	-31.9	11.6	4.84e-04	0	42	0	976224256	21	4445
2026-01-12 22:41:16.89	131.97	9.37	-30.1	-31.9	11.6	6.77e-04	0	42	0	977272832	21	4435
2026-01-12 22:41:17.90	132.10	9.31	-30.3	-32.5	11.2	1.11e-03	0	42	0	979369984	21	4663
2026-01-12 22:41:18.90	132.23	9.25	-30.2	-32.3	11.4	1.32e-03	0	42	0	981467136	21	4570
2026-01-12 22:41:19.91	132.35	9.20	-30.3	-32.5	11.2	1.22e-03	0	42	0	983564288	21	4645
2026-01-12 22:41:20.92	132.48	9.14	-30.3	-32.6	11.1	1.55e-03	0	42	0	985661440	21	4695
2026-01-12 22:41:21.93	132.61	9.08	-30.2	-32.2	11.4	1.38e-03	0	42	0	986710016	21	4546
2026-01-12 22:41:22.93	132.73	9.02	-30.0	-31.8	11.7	6.18e-04	0	42	0	988807168	21	4391
2026-01-12 22:41:23.94	132.86	8.96	-29.8	-31.1	12.1	3.97e-04	0	42	0	990904320	21	4178
2026-01-12 22:41:24.94	132.98	8.90	-29.7	-31.3	12.3	1.74e-04	0	42	0	993001472	20	4316
2026-01-12 22:41:25.95	133.11	8.84	-29.6	-31.1	12.5	1.24e-04	0	42	0	995098624	20	4244
2026-01-12 22:41:26.95	133.23	8.78	-29.5	-30.7	12.7	8.69e-05	0	42	0	996147200	20	4126
2026-01-12 22:41:27.96	133.35	8.72	-29.6	-31.0	12.4	1.20e-04	0	42	0	998244352	20	4254
2026-01-12 22:41:28.97	133.48	8.67	-29.6	-31.0	12.4	1.50e-04	0	42	0	1000341504	20	4240
2026-01-12 22:41:29.97	133.60	8.61	-29.7	-31.3	12.2	1.52e-04	0	42	0	1002438656	20	4347
2026-01-12 22:41:30.98	133.72	8.55	-29.7	-31.4	12.0	3.97e-04	0	42	0	1004535808	20	4376
2026-01-12 22:41:31.98	133.84	8.49	-29.9	-31.9	11.7	3.91e-04	0	42	0	1005584384	20	4546
2026-01-12 22:41:32.99	133.97	8.43	-30.1	-32.7	11.2	9.03e-04	0	42	0	1007681536	20	4855
2026-01-12 22:41:33.98	134.08	8.37	-30.2	-33.0	11.0	1.72e-03	0	42	0	1009778688	20	4943
2026-01-12 22:41:34.99	134.20	8.32	-30.2	-33.0	11.0	2.40e-03	0	42	0	1011875840	20	4972
2026-01-12 22:41:35.99	134.32	8.26	-30.4	-33.7	10.5	3.23e-03	0	42	0	1013972992	20	5251
2026-01-12 22:41:37.00	134.44	8.20	-30.5	-33.6	10.1	5.64e-03	0	42	0	1015021568	21	5114
2026-01-12 22:41:38.00	134.56	8.14	-30.6	-33.9	9.9	8.28e-03	0	42	0	1017118720	21	5258
2026-01-12 22:41:39.00	134.68	8.08	-30.5	-33.8	9.9	8.71e-03	0	42	0	1019215872	21	5217
2026-01-12 22:41:40.01	134.80	8.02	-30.4	-33.3	10.2	7.19e-03	0	42	0	1021313024	21	5048
2026-01-12 22:41:41.01	134.91	7.97	-30.4	-33.9	10.2	6.06e-03	0	42	0	1023410176	20	5375
2026-01-12 22:41:42.02	135.03	7.91	-30.5	-34.1	10.0	6.70e-03	0	42	0	1024458752	20	5488
2026-01-12 22:41:43.02	135.15	7.85	-30.5	-33.8	9.9	7.12e-03	0	42	0	1026555904	21	5263
2026-01-12 22:41:44.03	135.26	7.79	-30.7	-34.5	9.4	1.05e-02	0	42	0	1028653056	21	5572
2026-01-12 22:41:45.04	135.38	7.73	-30.8	-34.8	9.1	1.90e-02	0	42	0	1030750208	21	5733
2026-01-12 22:41:46.04	135.49	7.67	-30.9	-35.1	8.8	2.59e-02	0	42	0	1031798784	21	5831
2026-01-12 22:41:47.05	135.61	7.62	-30.9	-35.3	8.7	2.96e-02	0	42	0	1033895936	21	5984
2026-01-12 22:41:48.05	135.72	7.56	-31.0	-34.9	8.7	3.70e-02	0	42	0	1035993088	22	5666
2026-01-12 22:41:49.06	135.84	7.50	-31.0	-34.9	8.6	3.69e-02	0	42	0	1038090240	22	5647
2026-01-12 22:41:50.07	135.95	7.44	-31.0	-34.9	8.7	3.79e-02	0	42	0	1040187392	22	5637
2026-01-12 22:41:51.07	136.06	7.38	-30.9	-34.7	8.8	3.53e-02	0	42	0	1042284544	22	5557
2026-01-12 22:41:52.07	136.18	7.33	-31.0	-35.5	8.5	3.12e-02	0	42	0	1043333120	21	6102
2026-01-12 22:41:53.08	136.29	7.27	-31.0	-35.6	8.4	4.59e-02	0	42	0	1045430272	21	6140
2026-01-12 22:41:54.08	136.40	7.21	-30.7	-34.6	9.1	3.37e-02	0	42	0	1047527424	21	5636
2026-01-12 22:41:55.10	136.51	7.15	-30.6	-34.5	9.1	2.26e-02	0	42	0	1049624576	21	5615
2026-01-12 22:41:56.10	136.62	7.09	-30.4	-33.6	9.9	1.72e-02	0	42	0	1050673152	21	5199
2026-01-12 22:41:57.10	136.73	7.04	-32.8	-45.3	3.8	1.25e+00	0	42	104	1051721728	25	15247
2026-01-12 22:41:58.11	136.84	6.98	-33.2	-45.7	3.8	1.49e+00	0	42	104	1051721728	26	15129

#Closed at: 2026-01-12 22:41:58
#Recorded file [1051 MB]: D:/data/31010_260113_013235.dat