passes_logs/2026/01/12/R2M6_AANII_01/R2M6_AANII_01__20260112_120557_SUOMI_NPP_rec.log

#Pass ID: 20260112_120557_SUOMI NPP
#Satellite: SUOMI NPP
#Configuration: NPP
#almurnet v.1.7.20240730
#Start time: 2026-01-12 12:05:58

#Version: 2.2.20231116
#Station: R2M6_AANII_01
#Location: 30.233357 lon 59.946436 lat
#TLE: 1 37849U 11061A   26011.29776829  .00000112  00000+0  74065-4 0  9999
#TLE: 2 37849  98.7807 313.3784 0002522  70.0451 290.0996 14.19524507736187

#Time	Az	El	Level	Level2	SNR	BER	BlckErr	Temp	State	Recorded	gain1	gain2
2026-01-12 12:05:58.50	216.61	7.09	-30.8	-34.2	5.3	1.18e+00	0	39	0	0	22	5290
2026-01-12 12:05:59.51	216.71	7.15	-31.3	-35.8	4.9	1.26e+00	0	39	104	0	23	6001
2026-01-12 12:06:00.50	216.81	7.21	-31.4	-35.8	7.7	8.20e-02	0	40	0	0	23	6003
2026-01-12 12:06:01.51	216.91	7.27	-31.4	-35.9	7.6	9.37e-02	0	40	0	1048576	23	6023
2026-01-12 12:06:02.51	217.02	7.33	-31.3	-35.3	8.1	7.49e-02	0	40	0	3145728	23	5737
2026-01-12 12:06:03.52	217.12	7.39	-31.2	-34.8	8.5	5.66e-02	0	40	0	5242880	23	5469
2026-01-12 12:06:04.52	217.22	7.46	-31.1	-34.3	8.9	3.18e-02	0	40	0	7340032	23	5211
2026-01-12 12:06:05.52	217.33	7.52	-30.9	-33.7	9.4	1.77e-02	0	40	0	9437184	23	4958
2026-01-12 12:06:06.53	217.43	7.58	-30.9	-33.7	9.4	1.95e-02	0	40	0	10485760	23	4975
2026-01-12 12:06:07.54	217.53	7.64	-31.1	-34.3	9.0	1.62e-02	0	40	0	12582912	23	5206
2026-01-12 12:06:08.55	217.64	7.71	-31.0	-34.1	9.2	2.96e-02	0	40	0	14680064	23	5126
2026-01-12 12:06:09.55	217.75	7.77	-30.7	-33.5	10.0	1.63e-02	0	40	0	16777216	22	4965
2026-01-12 12:06:10.55	217.85	7.83	-30.6	-32.9	10.4	6.55e-03	0	40	0	18874368	22	4720
2026-01-12 12:06:11.55	217.96	7.89	-30.4	-32.4	10.9	1.81e-03	0	40	0	19922944	22	4544
2026-01-12 12:06:12.56	218.06	7.96	-30.4	-32.4	10.9	1.99e-03	0	40	0	22020096	22	4521
2026-01-12 12:06:13.56	218.17	8.02	-30.4	-32.4	10.9	2.70e-03	0	40	0	24117248	22	4516
2026-01-12 12:06:14.56	218.28	8.08	-30.5	-32.8	10.6	2.71e-03	0	40	0	26214400	22	4652
2026-01-12 12:06:15.57	218.39	8.14	-30.7	-33.2	10.3	4.73e-03	0	40	0	28311552	22	4830
2026-01-12 12:06:16.57	218.49	8.21	-30.6	-33.0	10.4	3.77e-03	0	40	0	29360128	22	4758
2026-01-12 12:06:17.57	218.60	8.27	-30.6	-32.9	10.5	4.82e-03	0	40	0	31457280	22	4719
2026-01-12 12:06:18.58	218.71	8.33	-30.5	-32.6	10.7	2.40e-03	0	40	0	33554432	22	4606
2026-01-12 12:06:19.59	218.82	8.40	-30.3	-32.0	11.2	1.90e-03	0	40	0	35651584	22	4367
2026-01-12 12:06:20.59	218.93	8.46	-30.2	-32.2	11.4	6.88e-04	0	40	0	36700160	21	4540
2026-01-12 12:06:21.59	219.04	8.52	-30.3	-32.4	11.3	6.43e-04	0	40	0	38797312	21	4587
2026-01-12 12:06:22.60	219.15	8.59	-30.2	-32.0	11.6	8.32e-04	0	40	0	40894464	21	4442
2026-01-12 12:06:23.61	219.27	8.65	-30.3	-32.4	11.3	8.03e-04	0	40	0	42991616	21	4614
2026-01-12 12:06:24.62	219.38	8.71	-30.4	-32.7	11.2	1.54e-03	0	40	0	45088768	21	4695
2026-01-12 12:06:25.62	219.49	8.78	-30.1	-31.8	11.8	6.48e-04	0	40	0	46137344	21	4369
2026-01-12 12:06:26.63	219.60	8.84	-30.2	-31.9	11.7	5.08e-04	0	40	0	48234496	21	4427
2026-01-12 12:06:27.63	219.72	8.90	-30.2	-32.0	11.7	5.68e-04	0	40	0	50331648	21	4433
2026-01-12 12:06:28.64	219.83	8.97	-30.1	-31.9	11.8	5.59e-04	0	40	0	52428800	21	4411
2026-01-12 12:06:29.64	219.95	9.03	-30.2	-32.0	11.7	5.56e-04	0	40	0	54525952	21	4431
2026-01-12 12:06:30.64	220.06	9.09	-30.3	-32.3	11.4	6.25e-04	0	40	0	56623104	21	4561
2026-01-12 12:06:31.65	220.18	9.16	-30.2	-32.1	11.6	7.68e-04	0	40	0	57671680	21	4491
2026-01-12 12:06:32.66	220.29	9.22	-30.3	-32.3	11.5	6.77e-04	0	41	0	59768832	21	4559
2026-01-12 12:06:33.66	220.41	9.29	-30.3	-32.3	11.5	1.11e-03	0	40	0	61865984	21	4539
2026-01-12 12:06:34.66	220.53	9.35	-30.1	-31.8	11.9	6.23e-04	0	41	0	63963136	21	4371
2026-01-12 12:06:35.66	220.64	9.41	-30.2	-31.9	11.8	4.45e-04	0	40	0	65011712	21	4415
2026-01-12 12:06:36.67	220.76	9.48	-30.1	-31.8	11.8	4.93e-04	0	41	0	67108864	21	4376
2026-01-12 12:06:37.67	220.88	9.54	-30.2	-32.0	11.7	5.39e-04	0	41	0	69206016	21	4447
2026-01-12 12:06:38.68	221.00	9.61	-30.2	-31.9	11.8	4.13e-04	0	41	0	71303168	21	4417
2026-01-12 12:06:39.68	221.12	9.67	-30.2	-32.0	11.8	5.15e-04	0	40	0	73400320	21	4443
2026-01-12 12:06:40.68	221.24	9.74	-30.2	-32.0	11.7	4.45e-04	0	41	0	74448896	21	4447
2026-01-12 12:06:41.68	221.36	9.80	-30.1	-31.9	11.9	4.02e-04	0	41	0	76546048	21	4385
2026-01-12 12:06:42.69	221.48	9.87	-30.3	-32.4	11.4	6.91e-04	0	41	0	78643200	21	4592
2026-01-12 12:06:43.70	221.60	9.93	-30.3	-32.2	11.6	1.13e-03	0	41	0	80740352	21	4506
2026-01-12 12:06:44.71	221.72	10.00	-30.3	-32.4	11.5	6.01e-04	0	41	0	82837504	21	4568
2026-01-12 12:06:45.71	221.85	10.06	-30.3	-32.5	11.5	8.62e-04	0	41	0	83886080	21	4601
2026-01-12 12:06:46.72	221.97	10.13	-30.3	-32.3	11.6	7.16e-04	0	41	0	85983232	21	4541
2026-01-12 12:06:47.73	222.09	10.19	-30.4	-32.5	11.4	8.98e-04	0	41	0	88080384	21	4619
2026-01-12 12:06:48.73	222.22	10.26	-30.3	-32.4	11.5	7.77e-04	0	41	0	90177536	21	4582
2026-01-12 12:06:49.73	222.34	10.32	-30.3	-32.2	11.7	7.67e-04	0	41	0	92274688	21	4501
2026-01-12 12:06:50.73	222.47	10.38	-30.2	-31.8	11.9	4.87e-04	0	41	0	93323264	21	4374
2026-01-12 12:06:51.74	222.59	10.45	-30.1	-31.7	12.1	3.29e-04	0	41	0	95420416	21	4323
2026-01-12 12:06:52.75	222.72	10.52	-30.1	-31.6	12.2	2.54e-04	0	41	0	97517568	21	4272
2026-01-12 12:06:53.75	222.85	10.58	-29.8	-30.9	12.6	1.69e-04	0	41	0	99614720	21	4068
2026-01-12 12:06:54.76	222.97	10.65	-29.8	-30.9	12.6	1.03e-04	0	41	0	101711872	21	4071
2026-01-12 12:06:55.75	223.10	10.71	-29.8	-31.2	12.7	7.78e-05	0	41	0	102760448	20	4245
2026-01-12 12:06:56.76	223.23	10.78	-29.8	-31.4	12.7	5.64e-05	0	41	0	104857600	20	4307
2026-01-12 12:06:57.76	223.36	10.84	-29.7	-31.1	12.9	5.72e-05	0	41	0	106954752	20	4207
2026-01-12 12:06:58.77	223.49	10.91	-29.7	-31.0	12.9	5.34e-05	0	41	0	109051904	20	4198
2026-01-12 12:06:59.77	223.62	10.97	-29.8	-31.2	12.8	6.33e-05	0	41	0	111149056	20	4249
2026-01-12 12:07:00.78	223.75	11.04	-30.3	-32.6	11.8	1.69e-04	0	41	0	112197632	20	4732
2026-01-12 12:07:01.78	223.88	11.10	-30.2	-32.4	11.9	4.26e-04	0	41	0	114294784	20	4655
2026-01-12 12:07:02.79	224.01	11.17	-29.9	-31.6	12.5	1.62e-04	0	41	0	116391936	20	4378
2026-01-12 12:07:03.79	224.14	11.23	-29.9	-31.7	12.5	1.43e-04	0	41	0	118489088	20	4398
2026-01-12 12:07:04.79	224.28	11.30	-29.9	-31.4	12.7	8.69e-05	0	41	0	119537664	20	4309
2026-01-12 12:07:05.79	224.41	11.37	-29.9	-31.5	12.6	1.18e-04	0	41	0	121634816	20	4339
2026-01-12 12:07:06.79	224.54	11.43	-30.0	-31.7	12.4	1.14e-04	0	41	0	123731968	20	4422
2026-01-12 12:07:07.80	224.68	11.50	-29.9	-31.6	12.5	1.46e-04	0	41	0	125829120	20	4387
2026-01-12 12:07:08.80	224.81	11.56	-30.0	-31.8	12.3	1.23e-04	0	41	0	127926272	20	4455
2026-01-12 12:07:09.81	224.95	11.63	-30.2	-32.6	11.9	2.89e-04	0	41	0	130023424	20	4703
2026-01-12 12:07:10.82	225.09	11.70	-30.2	-32.4	11.9	6.59e-04	0	41	0	131072000	20	4647
2026-01-12 12:07:11.81	225.22	11.76	-30.0	-31.9	12.3	2.20e-04	0	41	0	133169152	20	4466
2026-01-12 12:07:12.82	225.36	11.83	-29.9	-31.6	12.5	1.09e-04	0	41	0	135266304	20	4380
2026-01-12 12:07:13.82	225.50	11.89	-29.9	-31.4	12.7	7.70e-05	0	41	0	137363456	20	4313
2026-01-12 12:07:14.83	225.64	11.96	-29.8	-31.2	12.9	5.11e-05	0	41	0	138412032	20	4242
2026-01-12 12:07:15.84	225.78	12.03	-30.0	-31.7	12.5	1.07e-04	0	41	0	140509184	20	4398
2026-01-12 12:07:16.85	225.92	12.09	-30.0	-31.9	12.3	1.08e-04	0	41	0	142606336	20	4480
2026-01-12 12:07:17.85	226.06	12.16	-29.9	-31.6	12.5	1.83e-04	0	41	0	144703488	20	4377
2026-01-12 12:07:18.86	226.20	12.22	-29.9	-31.6	12.6	6.10e-05	0	41	0	146800640	20	4374
2026-01-12 12:07:19.86	226.34	12.29	-29.8	-31.3	12.8	6.94e-05	0	41	0	147849216	20	4254
2026-01-12 12:07:20.87	226.48	12.36	-29.8	-31.3	12.8	6.79e-05	0	41	0	149946368	20	4272
2026-01-12 12:07:21.88	226.63	12.42	-30.0	-31.7	12.5	8.54e-05	0	41	0	152043520	20	4396
2026-01-12 12:07:22.88	226.77	12.49	-29.9	-31.6	12.6	6.71e-05	0	41	0	154140672	20	4361
2026-01-12 12:07:23.89	226.92	12.56	-29.9	-31.6	12.7	7.17e-05	0	41	0	156237824	20	4350
2026-01-12 12:07:24.90	227.06	12.62	-29.9	-31.4	12.8	5.87e-05	0	41	0	158334976	20	4294
2026-01-12 12:07:25.90	227.21	12.69	-30.0	-31.9	12.4	1.87e-04	0	41	0	159383552	20	4461
2026-01-12 12:07:26.91	227.36	12.75	-29.9	-31.4	12.7	1.18e-04	0	41	0	161480704	20	4316
2026-01-12 12:07:27.92	227.50	12.82	-29.8	-31.1	13.0	5.11e-05	0	41	0	163577856	20	4200
2026-01-12 12:07:28.93	227.65	12.89	-29.8	-31.1	13.0	3.50e-05	0	41	0	165675008	20	4206
2026-01-12 12:07:29.93	227.80	12.95	-29.6	-30.6	13.2	3.05e-05	0	41	0	166723584	20	4060
2026-01-12 12:07:30.94	227.95	13.02	-29.5	-30.5	13.4	1.98e-05	0	41	0	168820736	20	4029
2026-01-12 12:07:31.94	228.10	13.09	-29.6	-30.6	13.3	1.83e-05	0	41	0	170917888	20	4062
2026-01-12 12:07:32.94	228.25	13.15	-29.5	-30.3	13.5	1.22e-05	0	41	0	173015040	20	3971
2026-01-12 12:07:33.94	228.40	13.22	-29.3	-30.3	13.9	5.30e-06	0	41	0	175112192	19	4035
2026-01-12 12:07:34.95	228.55	13.29	-29.3	-30.3	13.9	3.80e-06	0	41	0	176160768	19	4047
2026-01-12 12:07:35.95	228.70	13.35	-29.3	-30.3	13.9	5.30e-06	0	41	0	178257920	19	4033
2026-01-12 12:07:36.96	228.85	13.42	-29.3	-30.2	14.0	6.10e-06	0	41	0	180355072	19	4022
2026-01-12 12:07:37.97	229.01	13.49	-29.3	-30.2	14.0	1.50e-06	0	41	0	182452224	19	4016
2026-01-12 12:07:38.97	229.16	13.55	-29.4	-30.6	13.8	1.50e-06	0	41	0	184549376	19	4129
2026-01-12 12:07:39.97	229.32	13.62	-29.5	-31.0	13.5	3.80e-06	0	41	0	185597952	19	4236
2026-01-12 12:07:40.98	229.47	13.68	-29.5	-30.9	13.5	4.50e-06	0	41	0	187695104	19	4220
2026-01-12 12:07:41.98	229.63	13.75	-29.4	-30.6	13.8	6.10e-06	0	41	0	189792256	19	4117
2026-01-12 12:07:42.99	229.79	13.82	-29.4	-30.5	13.8	3.00e-06	0	41	0	191889408	19	4092
2026-01-12 12:07:43.99	229.94	13.88	-29.6	-31.2	13.4	7.60e-06	0	42	0	193986560	19	4300
2026-01-12 12:07:44.99	230.10	13.95	-29.4	-30.6	13.8	9.90e-06	0	41	0	195035136	19	4118
2026-01-12 12:07:46.00	230.26	14.02	-29.5	-30.8	13.7	6.10e-06	0	41	0	197132288	19	4196
2026-01-12 12:07:47.00	230.42	14.08	-29.4	-30.5	13.9	8.30e-06	0	41	0	199229440	19	4092
2026-01-12 12:07:48.01	230.58	14.15	-29.5	-30.8	13.6	3.80e-06	0	41	0	201326592	19	4186
2026-01-12 12:07:49.01	230.74	14.21	-29.7	-31.3	13.4	1.52e-05	0	42	0	203423744	19	4324
2026-01-12 12:07:50.02	230.90	14.28	-29.7	-31.3	13.4	1.37e-05	0	41	0	204472320	19	4325
2026-01-12 12:07:51.02	231.06	14.35	-29.8	-31.7	13.1	1.60e-05	0	41	0	206569472	19	4456
2026-01-12 12:07:52.03	231.23	14.41	-30.0	-31.7	12.7	5.41e-05	0	41	0	208666624	20	4393
2026-01-12 12:07:53.04	231.39	14.48	-30.0	-31.6	12.8	8.01e-05	0	41	0	210763776	20	4332
2026-01-12 12:07:54.03	231.56	14.54	-29.9	-31.3	13.0	3.50e-05	0	41	0	212860928	20	4247
2026-01-12 12:07:55.04	231.72	14.61	-29.9	-31.5	12.9	3.20e-05	0	42	0	213909504	20	4310
2026-01-12 12:07:56.03	231.89	14.67	-29.9	-31.5	12.9	5.95e-05	0	42	0	216006656	20	4300
2026-01-12 12:07:57.03	232.05	14.74	-30.1	-31.9	12.6	5.87e-05	0	42	0	218103808	20	4433
2026-01-12 12:07:58.04	232.22	14.81	-29.9	-31.4	12.9	6.25e-05	0	41	0	220200960	20	4273
2026-01-12 12:07:59.04	232.39	14.87	-29.8	-31.0	13.2	3.58e-05	0	42	0	221249536	20	4153
2026-01-12 12:08:00.04	232.55	14.94	-29.6	-30.7	13.4	2.13e-05	0	42	0	223346688	20	4063
2026-01-12 12:08:01.05	232.73	15.00	-29.6	-30.7	13.4	1.29e-05	0	42	0	225443840	20	4062
2026-01-12 12:08:02.05	232.89	15.07	-29.6	-30.7	13.4	1.52e-05	0	41	0	227540992	20	4070
2026-01-12 12:08:03.07	233.07	15.14	-29.6	-30.7	13.4	7.60e-06	0	42	0	229638144	20	4061
2026-01-12 12:08:04.07	233.24	15.20	-29.6	-30.5	13.5	1.14e-05	0	42	0	231735296	20	4012
2026-01-12 12:08:05.07	233.41	15.27	-29.7	-30.8	13.3	2.13e-05	0	42	0	232783872	20	4106
2026-01-12 12:08:06.08	233.59	15.33	-29.6	-30.4	13.6	1.37e-05	0	42	0	234881024	20	3985
2026-01-12 12:08:07.09	233.76	15.40	-29.3	-29.8	14.0	1.50e-06	0	42	0	236978176	20	3816
2026-01-12 12:08:08.10	233.94	15.46	-29.2	-29.9	14.3	6.80e-06	0	42	0	239075328	19	3926
2026-01-12 12:08:09.11	234.11	15.53	-29.3	-30.2	14.1	1.50e-06	0	42	0	241172480	19	4002
2026-01-12 12:08:10.11	234.29	15.59	-29.3	-30.2	14.1	3.00e-06	0	41	0	242221056	19	4008
2026-01-12 12:08:11.11	234.46	15.66	-29.4	-30.4	14.0	5.30e-06	0	42	0	244318208	19	4051
2026-01-12 12:08:12.11	234.64	15.72	-29.4	-30.5	13.9	6.80e-06	0	42	0	246415360	19	4081
2026-01-12 12:08:13.12	234.82	15.79	-29.5	-30.6	13.9	3.00e-06	0	41	0	248512512	19	4103
2026-01-12 12:08:14.13	235.00	15.85	-29.2	-30.0	14.3	3.80e-06	0	42	0	249561088	19	3948
2026-01-12 12:08:15.14	235.18	15.92	-29.2	-29.9	14.3	0.00e+00	0	42	0	251658240	19	3916
2026-01-12 12:08:16.14	235.36	15.98	-29.3	-30.1	14.2	7.00e-07	0	42	0	253755392	19	3969
2026-01-12 12:08:17.15	235.54	16.05	-29.4	-30.6	13.9	6.10e-06	0	41	0	255852544	19	4099
2026-01-12 12:08:18.15	235.72	16.11	-29.5	-30.7	14.0	7.00e-07	0	42	0	257949696	19	4133
2026-01-12 12:08:19.15	235.91	16.17	-29.7	-31.3	13.5	9.90e-06	0	42	0	260046848	19	4330
2026-01-12 12:08:20.15	236.09	16.24	-29.7	-31.2	13.5	1.14e-05	0	42	0	261095424	19	4299
2026-01-12 12:08:21.16	236.27	16.30	-29.8	-31.6	13.3	9.10e-06	0	42	0	263192576	19	4422
2026-01-12 12:08:22.17	236.46	16.37	-29.8	-31.5	13.4	1.37e-05	0	42	0	265289728	19	4374
2026-01-12 12:08:23.17	236.65	16.43	-29.7	-31.3	13.5	6.80e-06	0	42	0	267386880	19	4327
2026-01-12 12:08:24.18	236.83	16.49	-29.7	-31.2	13.6	1.67e-05	0	42	0	268435456	19	4288
2026-01-12 12:08:25.18	237.02	16.56	-29.6	-30.9	13.8	6.10e-06	0	42	0	270532608	19	4195
2026-01-12 12:08:26.18	237.21	16.62	-29.6	-30.9	13.7	2.20e-06	0	42	0	272629760	19	4182
2026-01-12 12:08:27.19	237.40	16.68	-29.6	-31.0	13.7	6.80e-06	0	42	0	274726912	19	4234
2026-01-12 12:08:28.19	237.59	16.75	-29.6	-30.9	13.8	3.00e-06	0	42	0	276824064	19	4205
2026-01-12 12:08:29.19	237.78	16.81	-29.6	-31.0	13.7	3.80e-06	0	42	0	277872640	19	4237
2026-01-12 12:08:30.20	237.97	16.87	-29.6	-31.1	13.7	8.30e-06	0	42	0	279969792	19	4256
2026-01-12 12:08:31.20	238.16	16.94	-29.7	-31.2	13.6	8.30e-06	0	42	0	282066944	19	4297
2026-01-12 12:08:32.21	238.35	17.00	-29.6	-31.1	13.6	1.06e-05	0	42	0	284164096	19	4255
2026-01-12 12:08:33.22	238.55	17.06	-29.8	-31.5	13.4	9.90e-06	0	42	0	286261248	19	4387
2026-01-12 12:08:34.22	238.74	17.12	-29.7	-31.1	13.7	6.10e-06	0	42	0	287309824	19	4251
2026-01-12 12:08:35.23	238.94	17.19	-29.7	-31.2	13.6	4.50e-06	0	42	0	289406976	19	4290
2026-01-12 12:08:36.23	239.13	17.25	-29.6	-31.0	13.8	3.80e-06	0	42	0	291504128	19	4222
2026-01-12 12:08:37.23	239.33	17.31	-29.6	-30.9	13.8	7.60e-06	0	42	0	293601280	19	4189
2026-01-12 12:08:38.24	239.53	17.37	-29.6	-31.0	13.8	4.50e-06	0	42	0	295698432	19	4206
2026-01-12 12:08:39.25	239.73	17.43	-29.5	-30.7	13.9	3.00e-06	0	42	0	296747008	19	4143
2026-01-12 12:08:40.26	239.93	17.49	-29.6	-30.9	13.8	4.50e-06	0	42	0	298844160	19	4190
2026-01-12 12:08:41.26	240.13	17.56	-29.6	-31.0	13.8	5.30e-06	0	42	0	300941312	19	4222
2026-01-12 12:08:42.26	240.33	17.62	-29.6	-30.8	13.8	3.80e-06	0	42	0	303038464	19	4166
2026-01-12 12:08:43.27	240.53	17.68	-29.6	-30.9	13.8	3.80e-06	0	42	0	305135616	19	4199
2026-01-12 12:08:44.27	240.73	17.74	-29.8	-31.4	13.5	4.50e-06	0	42	0	306184192	19	4342
2026-01-12 12:08:45.28	240.94	17.80	-29.5	-30.7	14.0	5.30e-06	0	42	0	308281344	19	4124
2026-01-12 12:08:46.29	241.14	17.86	-29.4	-30.3	14.2	4.50e-06	0	42	0	310378496	19	4012
2026-01-12 12:08:47.29	241.34	17.92	-29.4	-30.5	14.1	3.00e-06	0	42	0	312475648	19	4071
2026-01-12 12:08:48.30	241.55	17.98	-29.6	-30.8	13.9	2.20e-06	0	42	0	314572800	19	4164
2026-01-12 12:08:49.30	241.76	18.04	-29.7	-31.1	13.7	8.30e-06	0	42	0	315621376	19	4260
2026-01-12 12:08:50.31	241.96	18.10	-29.7	-31.2	13.7	1.06e-05	0	42	0	317718528	19	4291
2026-01-12 12:08:51.31	242.17	18.16	-29.8	-31.6	13.5	5.30e-06	0	42	0	319815680	19	4399
2026-01-12 12:08:52.32	242.38	18.22	-29.7	-31.2	13.7	6.80e-06	0	42	0	321912832	19	4264
2026-01-12 12:08:53.32	242.59	18.27	-29.6	-31.0	13.8	6.10e-06	0	42	0	324009984	19	4207
2026-01-12 12:08:54.31	242.80	18.33	-29.5	-30.6	14.0	3.80e-06	0	42	0	325058560	19	4102
2026-01-12 12:08:55.32	243.01	18.39	-29.5	-30.6	14.1	2.20e-06	0	42	0	327155712	19	4086
2026-01-12 12:08:56.33	243.22	18.45	-29.4	-30.3	14.2	7.00e-07	0	42	0	329252864	19	4022
2026-01-12 12:08:57.33	243.43	18.51	-29.5	-30.7	14.0	3.00e-06	0	42	0	331350016	19	4111
2026-01-12 12:08:58.34	243.65	18.56	-29.7	-31.2	13.7	1.50e-06	0	42	0	333447168	19	4265
2026-01-12 12:08:59.34	243.86	18.62	-29.8	-31.3	13.6	9.90e-06	0	42	0	334495744	19	4317
2026-01-12 12:09:00.35	244.08	18.68	-29.8	-31.5	13.5	1.22e-05	0	42	0	336592896	19	4362
2026-01-12 12:09:01.36	244.29	18.73	-29.8	-31.6	13.4	1.29e-05	0	42	0	338690048	19	4389
2026-01-12 12:09:02.36	244.51	18.79	-29.9	-31.7	13.4	1.14e-05	0	42	0	340787200	19	4416
2026-01-12 12:09:03.37	244.73	18.85	-29.9	-31.7	13.3	2.44e-05	0	42	0	342884352	19	4450
2026-01-12 12:09:04.37	244.94	18.90	-29.9	-31.7	13.3	1.60e-05	0	42	0	343932928	19	4448
2026-01-12 12:09:05.37	245.16	18.96	-29.9	-31.2	13.3	1.67e-05	0	42	0	346030080	20	4201
2026-01-12 12:09:06.38	245.38	19.01	-30.1	-31.7	12.9	3.35e-05	0	42	0	348127232	20	4350
2026-01-12 12:09:07.39	245.60	19.07	-30.3	-32.3	12.5	7.70e-05	0	42	0	350224384	20	4558
2026-01-12 12:09:08.40	245.83	19.12	-30.4	-32.3	12.2	1.50e-04	0	42	0	352321536	21	4442
2026-01-12 12:09:09.40	246.05	19.18	-30.4	-32.3	12.2	1.97e-04	0	42	0	353370112	21	4463
2026-01-12 12:09:10.40	246.27	19.23	-30.4	-32.2	12.3	2.79e-04	0	42	0	355467264	21	4432
2026-01-12 12:09:11.41	246.49	19.29	-30.1	-31.3	12.9	9.30e-05	0	42	0	357564416	21	4130
2026-01-12 12:09:12.42	246.72	19.34	-29.9	-30.8	13.2	2.82e-05	0	42	0	359661568	21	3999
2026-01-12 12:09:13.43	246.95	19.39	-29.8	-30.5	13.5	2.21e-05	0	42	0	361758720	21	3886
2026-01-12 12:09:14.43	247.17	19.44	-30.0	-31.0	13.2	2.67e-05	0	42	0	362807296	21	4031
2026-01-12 12:09:15.43	247.40	19.50	-30.0	-31.1	13.1	3.81e-05	0	42	0	364904448	21	4058
2026-01-12 12:09:16.44	247.62	19.55	-30.2	-31.5	12.8	5.49e-05	0	42	0	367001600	21	4189
2026-01-12 12:09:17.44	247.85	19.60	-30.4	-32.1	12.4	1.01e-04	0	42	0	369098752	21	4391
2026-01-12 12:09:18.45	248.08	19.65	-30.4	-32.1	12.4	1.42e-04	0	42	0	371195904	21	4377
2026-01-12 12:09:19.46	248.31	19.70	-30.3	-32.0	12.6	1.09e-04	0	42	0	372244480	21	4336
2026-01-12 12:09:20.47	248.54	19.76	-30.4	-32.1	12.4	1.16e-04	0	42	0	374341632	21	4390
2026-01-12 12:09:21.46	248.77	19.81	-30.5	-32.4	12.3	1.56e-04	0	42	0	376438784	21	4484
2026-01-12 12:09:22.47	249.00	19.86	-30.6	-32.7	12.0	2.98e-04	0	42	0	378535936	21	4589
2026-01-12 12:09:23.48	249.24	19.91	-30.7	-33.1	11.7	5.52e-04	0	42	0	379584512	21	4712
2026-01-12 12:09:24.49	249.47	19.96	-30.8	-33.2	11.7	5.25e-04	0	42	0	381681664	21	4783
2026-01-12 12:09:25.49	249.71	20.00	-30.9	-33.5	11.5	7.02e-04	0	42	0	383778816	21	4870
2026-01-12 12:09:26.50	249.94	20.05	-30.8	-33.2	11.7	9.09e-04	0	42	0	385875968	21	4757
2026-01-12 12:09:27.50	250.18	20.10	-30.4	-32.2	12.3	3.25e-04	0	42	0	387973120	21	4421
2026-01-12 12:09:28.51	250.41	20.15	-30.4	-32.3	12.3	1.37e-04	0	42	0	390070272	21	4437
2026-01-12 12:09:29.51	250.65	20.20	-30.3	-31.8	12.7	9.91e-05	0	42	0	391118848	21	4281
2026-01-12 12:09:30.52	250.89	20.24	-30.2	-31.6	12.7	7.32e-05	0	42	0	393216000	21	4235
2026-01-12 12:09:31.52	251.12	20.29	-30.2	-31.5	12.8	6.71e-05	0	42	0	395313152	21	4192
2026-01-12 12:09:32.53	251.36	20.34	-30.2	-31.5	12.9	5.03e-05	0	42	0	397410304	21	4194
2026-01-12 12:09:33.53	251.60	20.38	-30.1	-31.4	13.0	3.73e-05	0	42	0	398458880	21	4158
2026-01-12 12:09:34.54	251.84	20.43	-30.3	-31.7	12.7	7.17e-05	0	42	0	400556032	21	4264
2026-01-12 12:09:35.54	252.08	20.47	-30.1	-31.3	13.0	4.42e-05	0	42	0	402653184	21	4130
2026-01-12 12:09:36.55	252.33	20.52	-30.3	-31.8	12.7	6.25e-05	0	42	0	404750336	21	4275
2026-01-12 12:09:37.54	252.57	20.56	-30.4	-32.1	12.4	1.25e-04	0	42	0	406847488	21	4395
2026-01-12 12:09:38.55	252.81	20.60	-30.5	-32.3	12.3	1.88e-04	0	42	0	407896064	21	4462
2026-01-12 12:09:39.56	253.06	20.65	-30.5	-32.5	12.2	2.12e-04	0	42	0	409993216	21	4517
2026-01-12 12:09:40.56	253.30	20.69	-30.3	-31.8	12.6	1.18e-04	0	42	0	412090368	21	4274
2026-01-12 12:09:41.57	253.55	20.73	-30.2	-31.4	13.0	5.64e-05	0	42	0	414187520	21	4156
2026-01-12 12:09:42.58	253.79	20.78	-30.2	-31.6	12.8	8.08e-05	0	42	0	416284672	21	4207
2026-01-12 12:09:43.58	254.04	20.82	-30.0	-30.9	13.3	4.95e-05	0	42	0	417333248	21	4011
2026-01-12 12:09:44.59	254.29	20.86	-29.9	-30.8	13.4	1.44e-05	0	42	0	419430400	21	3966
2026-01-12 12:09:45.60	254.53	20.90	-30.2	-31.4	12.9	3.28e-05	0	42	0	421527552	21	4165
2026-01-12 12:09:46.60	254.78	20.94	-30.3	-31.9	12.7	5.95e-05	0	42	0	423624704	21	4312
2026-01-12 12:09:47.61	255.03	20.98	-30.3	-31.8	12.7	7.70e-05	0	42	0	425721856	21	4273
2026-01-12 12:09:48.62	255.28	21.02	-30.2	-31.4	12.9	1.14e-04	0	42	0	426770432	21	4164
2026-01-12 12:09:49.62	255.53	21.06	-30.1	-31.1	13.1	2.74e-05	0	42	0	428867584	21	4063
2026-01-12 12:09:50.63	255.78	21.09	-29.9	-30.7	13.4	1.06e-05	0	42	0	430964736	21	3953
2026-01-12 12:09:51.63	256.03	21.13	-30.0	-30.9	13.3	2.21e-05	0	42	0	433061888	21	4004
2026-01-12 12:09:52.64	256.29	21.17	-30.3	-31.7	12.8	4.11e-05	0	42	0	435159040	21	4244
2026-01-12 12:09:53.65	256.54	21.21	-30.5	-32.3	12.4	1.34e-04	0	42	0	436207616	21	4432
2026-01-12 12:09:54.66	256.80	21.24	-30.5	-32.4	12.2	1.42e-04	0	42	0	438304768	21	4486
2026-01-12 12:09:55.66	257.05	21.28	-30.4	-31.9	12.6	1.53e-04	0	42	0	440401920	21	4324
2026-01-12 12:09:56.66	257.30	21.31	-29.8	-30.5	13.6	2.67e-05	0	42	0	442499072	21	3893
2026-01-12 12:09:57.67	257.56	21.35	-29.5	-30.1	14.1	6.80e-06	0	42	0	444596224	20	3860
2026-01-12 12:09:58.67	257.81	21.38	-29.4	-29.8	14.3	1.50e-06	0	42	0	445644800	20	3774
2026-01-12 12:09:59.67	258.07	21.42	-29.5	-30.0	14.2	1.50e-06	0	42	0	447741952	20	3831
2026-01-12 12:10:00.68	258.32	21.45	-29.5	-30.3	14.0	5.30e-06	0	42	0	449839104	20	3912
2026-01-12 12:10:01.68	258.58	21.48	-29.6	-30.5	13.9	5.30e-06	0	42	0	451936256	20	3981
2026-01-12 12:10:02.69	258.84	21.51	-29.7	-30.7	13.8	1.50e-06	0	42	0	454033408	20	4021
2026-01-12 12:10:03.69	259.09	21.54	-29.7	-30.7	13.8	5.30e-06	0	42	0	455081984	20	4047
2026-01-12 12:10:04.70	259.35	21.58	-29.8	-30.9	13.6	4.50e-06	0	42	0	457179136	20	4080
2026-01-12 12:10:05.70	259.61	21.61	-29.7	-30.6	13.8	3.80e-06	0	42	0	459276288	20	4012
2026-01-12 12:10:06.70	259.87	21.64	-30.0	-31.4	13.4	1.52e-05	0	42	0	461373440	20	4237
2026-01-12 12:10:07.70	260.13	21.66	-29.9	-31.1	13.5	1.90e-05	0	42	0	463470592	20	4138
2026-01-12 12:10:08.71	260.39	21.69	-29.7	-30.7	13.8	3.80e-06	0	42	0	464519168	20	4019
2026-01-12 12:10:09.72	260.65	21.72	-29.6	-30.4	14.0	7.60e-06	0	42	0	466616320	20	3957
2026-01-12 12:10:10.72	260.91	21.75	-29.5	-30.2	14.1	3.00e-06	0	42	0	468713472	20	3878
2026-01-12 12:10:11.73	261.18	21.78	-29.7	-30.6	13.8	7.00e-07	0	42	0	470810624	20	4005
2026-01-12 12:10:12.74	261.44	21.80	-29.6	-30.3	14.1	1.06e-05	0	42	0	472907776	20	3904
2026-01-12 12:10:13.74	261.70	21.83	-29.5	-30.1	14.2	2.20e-06	0	42	0	473956352	20	3848
2026-01-12 12:10:14.75	261.97	21.85	-29.5	-30.2	14.1	1.50e-06	0	42	0	476053504	20	3899
2026-01-12 12:10:15.75	262.23	21.88	-29.5	-30.1	14.1	1.06e-05	0	42	0	478150656	20	3873
2026-01-12 12:10:16.76	262.49	21.90	-29.5	-30.2	14.1	4.50e-06	0	42	0	480247808	20	3892
2026-01-12 12:10:17.76	262.76	21.93	-29.8	-30.8	13.7	2.20e-06	0	42	0	482344960	20	4061
2026-01-12 12:10:18.76	263.02	21.95	-29.8	-30.8	13.7	3.00e-06	0	42	0	483393536	20	4050
2026-01-12 12:10:19.77	263.29	21.97	-29.9	-31.1	13.5	9.90e-06	0	42	0	485490688	20	4146
2026-01-12 12:10:20.77	263.55	21.99	-30.0	-31.6	13.3	1.75e-05	0	42	0	487587840	20	4290
2026-01-12 12:10:21.78	263.82	22.01	-29.9	-31.2	13.4	1.67e-05	0	42	0	489684992	20	4180
2026-01-12 12:10:22.78	264.08	22.03	-29.7	-30.5	13.9	3.00e-06	0	42	0	491782144	20	3980
2026-01-12 12:10:23.79	264.35	22.05	-29.6	-30.4	14.0	2.20e-06	0	42	0	492830720	20	3930
2026-01-12 12:10:24.80	264.62	22.07	-29.6	-30.4	14.0	1.50e-06	0	42	0	494927872	20	3944
2026-01-12 12:10:25.80	264.88	22.09	-30.0	-31.5	13.3	8.30e-06	0	42	0	497025024	20	4277
2026-01-12 12:10:26.80	265.15	22.11	-30.1	-31.7	13.2	1.83e-05	0	42	0	499122176	20	4320
2026-01-12 12:10:27.80	265.42	22.13	-30.2	-32.1	12.9	2.82e-05	0	42	0	501219328	20	4453
2026-01-12 12:10:28.81	265.68	22.14	-30.2	-31.9	13.0	4.65e-05	0	42	0	502267904	20	4406
2026-01-12 12:10:29.81	265.95	22.16	-30.1	-31.8	13.1	2.82e-05	0	42	0	504365056	20	4363
2026-01-12 12:10:30.82	266.22	22.18	-30.0	-31.4	13.3	2.74e-05	0	42	0	506462208	20	4244
2026-01-12 12:10:31.82	266.49	22.19	-30.2	-31.9	13.0	2.67e-05	0	42	0	508559360	20	4392
2026-01-12 12:10:32.83	266.76	22.20	-30.1	-31.5	13.3	1.67e-05	0	42	0	510656512	20	4276
2026-01-12 12:10:33.84	267.03	22.22	-30.0	-31.5	13.3	1.90e-05	0	42	0	511705088	20	4248
2026-01-12 12:10:34.84	267.30	22.23	-30.3	-32.1	12.9	2.82e-05	0	42	0	513802240	20	4468
2026-01-12 12:10:35.85	267.57	22.24	-30.4	-32.6	12.5	1.03e-04	0	42	0	515899392	20	4634
2026-01-12 12:10:36.86	267.84	22.26	-30.3	-32.4	12.7	9.07e-05	0	42	0	517996544	20	4544
2026-01-12 12:10:37.86	268.11	22.27	-30.2	-32.0	12.9	7.32e-05	0	42	0	520093696	20	4433
2026-01-12 12:10:38.86	268.38	22.28	-30.2	-31.9	12.9	2.89e-05	0	42	0	521142272	20	4404
2026-01-12 12:10:39.87	268.65	22.29	-30.3	-32.2	12.8	4.04e-05	0	42	0	523239424	20	4480
2026-01-12 12:10:40.88	268.92	22.30	-30.2	-32.1	12.9	4.34e-05	0	42	0	525336576	20	4465
2026-01-12 12:10:41.88	269.19	22.30	-30.3	-32.2	12.8	4.73e-05	0	42	0	527433728	20	4498
2026-01-12 12:10:42.89	269.46	22.31	-30.5	-32.2	12.5	9.99e-05	0	42	0	529530880	21	4386
2026-01-12 12:10:43.90	269.73	22.32	-30.6	-32.5	12.3	1.64e-04	0	42	0	530579456	21	4507
2026-01-12 12:10:44.91	270.01	22.33	-30.3	-31.7	12.9	9.99e-05	0	42	0	532676608	21	4251
2026-01-12 12:10:45.91	270.28	22.33	-29.8	-30.4	13.7	7.60e-06	0	42	0	534773760	21	3865
2026-01-12 12:10:46.92	270.55	22.34	-29.7	-30.6	13.9	3.80e-06	0	42	0	536870912	20	3983
2026-01-12 12:10:47.92	270.82	22.34	-29.9	-31.1	13.5	5.30e-06	0	42	0	538968064	20	4139
2026-01-12 12:10:48.93	271.09	22.35	-29.9	-31.1	13.5	9.10e-06	0	42	0	540016640	20	4145
2026-01-12 12:10:49.94	271.36	22.35	-30.0	-31.5	13.3	1.14e-05	0	42	0	542113792	20	4262
2026-01-12 12:10:50.94	271.63	22.35	-29.8	-30.9	13.7	1.37e-05	0	42	0	544210944	20	4073
2026-01-12 12:10:51.95	271.91	22.35	-29.8	-30.9	13.7	1.06e-05	0	42	0	546308096	20	4072
2026-01-12 12:10:52.96	272.18	22.36	-30.0	-31.4	13.4	1.44e-05	0	42	0	548405248	20	4230
2026-01-12 12:10:53.96	272.45	22.36	-30.0	-31.4	13.3	1.37e-05	0	42	0	549453824	20	4243
2026-01-12 12:10:54.97	272.72	22.36	-30.5	-32.7	12.5	2.82e-05	0	42	0	551550976	20	4663
2026-01-12 12:10:55.97	272.99	22.36	-30.7	-33.0	12.0	1.82e-04	0	42	0	553648128	21	4693
2026-01-12 12:10:56.97	273.26	22.36	-30.8	-33.3	11.7	5.91e-04	0	42	0	555745280	21	4775
2026-01-12 12:10:57.97	273.53	22.35	-30.8	-33.1	11.9	7.39e-04	0	42	0	556793856	21	4707
2026-01-12 12:10:58.98	273.81	22.35	-30.6	-32.6	12.3	4.24e-04	0	42	0	558891008	21	4525
2026-01-12 12:10:59.99	274.08	22.35	-30.6	-32.5	12.3	1.91e-04	0	42	0	560988160	21	4498
2026-01-12 12:11:01.00	274.35	22.34	-30.5	-32.2	12.5	1.16e-04	0	42	0	563085312	21	4404
2026-01-12 12:11:02.00	274.62	22.34	-30.7	-32.8	12.1	1.37e-04	0	42	0	565182464	21	4593
2026-01-12 12:11:03.01	274.89	22.33	-30.4	-31.9	12.7	9.84e-05	0	42	0	567279616	21	4309
2026-01-12 12:11:04.02	275.17	22.33	-30.0	-30.8	13.5	3.05e-05	0	42	0	568328192	21	3967
2026-01-12 12:11:05.02	275.44	22.32	-29.7	-30.5	13.9	9.10e-06	0	42	0	570425344	20	3971
2026-01-12 12:11:06.02	275.71	22.32	-29.6	-30.3	14.1	1.50e-06	0	42	0	572522496	20	3916
2026-01-12 12:11:07.03	275.98	22.31	-29.7	-30.7	13.8	6.10e-06	0	42	0	574619648	20	4034
2026-01-12 12:11:08.03	276.25	22.30	-29.9	-31.1	13.6	5.30e-06	0	42	0	575668224	20	4131
2026-01-12 12:11:09.04	276.52	22.29	-29.9	-31.3	13.5	7.60e-06	0	42	0	577765376	20	4195
2026-01-12 12:11:10.04	276.79	22.28	-30.0	-31.4	13.4	9.90e-06	0	42	0	579862528	20	4227
2026-01-12 12:11:11.04	277.06	22.27	-29.9	-31.1	13.6	6.80e-06	0	42	0	581959680	20	4154
2026-01-12 12:11:12.04	277.32	22.26	-29.9	-31.0	13.6	1.75e-05	0	42	0	584056832	20	4120
2026-01-12 12:11:13.05	277.60	22.25	-29.8	-30.9	13.7	3.80e-06	0	42	0	585105408	20	4066
2026-01-12 12:11:14.05	277.86	22.24	-29.9	-31.3	13.5	1.29e-05	0	42	0	587202560	20	4189
2026-01-12 12:11:15.06	278.13	22.22	-29.7	-30.6	13.9	9.90e-06	0	42	0	589299712	20	3983
2026-01-12 12:11:16.06	278.40	22.21	-29.5	-30.0	14.2	2.20e-06	0	42	0	591396864	20	3824
2026-01-12 12:11:17.06	278.67	22.20	-29.3	-29.7	14.5	1.50e-06	0	42	0	593494016	20	3743
2026-01-12 12:11:18.06	278.94	22.18	-29.3	-30.1	14.6	7.00e-07	0	42	0	594542592	19	3928
2026-01-12 12:11:19.07	279.21	22.17	-29.2	-29.8	14.8	0.00e+00	0	42	0	596639744	19	3843
2026-01-12 12:11:20.07	279.47	22.15	-29.3	-30.0	14.6	0.00e+00	0	42	0	598736896	19	3916
2026-01-12 12:11:21.07	279.74	22.13	-29.3	-30.1	14.6	0.00e+00	0	42	0	600834048	19	3932
2026-01-12 12:11:22.07	280.01	22.12	-29.4	-30.3	14.5	0.00e+00	0	42	0	602931200	19	3989
2026-01-12 12:11:23.07	280.27	22.10	-29.4	-30.4	14.4	0.00e+00	0	42	0	603979776	19	4019
2026-01-12 12:11:24.08	280.54	22.08	-29.5	-30.6	14.3	1.50e-06	0	42	0	606076928	19	4071
2026-01-12 12:11:25.09	280.81	22.06	-29.5	-30.5	14.4	7.00e-07	0	42	0	608174080	19	4034
2026-01-12 12:11:26.10	281.07	22.04	-29.6	-30.7	14.2	0.00e+00	0	42	0	610271232	19	4116
2026-01-12 12:11:27.10	281.34	22.02	-29.5	-30.5	14.3	7.00e-07	0	42	0	612368384	19	4035
2026-01-12 12:11:28.11	281.61	22.00	-29.4	-30.4	14.4	2.20e-06	0	42	0	613416960	19	4011
2026-01-12 12:11:29.11	281.87	21.98	-29.4	-30.4	14.4	1.50e-06	0	42	0	615514112	19	4017
2026-01-12 12:11:30.12	282.14	21.96	-29.6	-30.8	14.2	2.20e-06	0	42	0	617611264	19	4125
2026-01-12 12:11:31.12	282.40	21.94	-29.5	-30.7	14.2	1.50e-06	0	42	0	619708416	19	4092
2026-01-12 12:11:32.13	282.66	21.91	-29.8	-31.3	13.8	3.80e-06	0	42	0	621805568	19	4289
2026-01-12 12:11:33.14	282.93	21.89	-29.7	-31.0	14.0	4.50e-06	0	42	0	622854144	19	4200
2026-01-12 12:11:34.14	283.19	21.86	-29.8	-31.2	13.8	4.50e-06	0	42	0	624951296	19	4264
2026-01-12 12:11:35.15	283.45	21.84	-29.7	-31.1	14.0	1.50e-06	0	42	0	627048448	19	4215
2026-01-12 12:11:36.16	283.72	21.81	-29.6	-30.9	14.1	0.00e+00	0	42	0	629145600	19	4153
2026-01-12 12:11:37.16	283.98	21.79	-29.8	-31.2	13.9	7.00e-07	0	42	0	631242752	19	4254
2026-01-12 12:11:38.17	284.24	21.76	-29.8	-31.3	13.9	1.50e-06	0	42	0	632291328	19	4292
2026-01-12 12:11:39.17	284.50	21.73	-30.0	-31.4	13.4	2.20e-06	0	42	0	634388480	20	4232
2026-01-12 12:11:40.18	284.76	21.71	-30.1	-31.7	13.2	2.44e-05	0	42	0	636485632	20	4338
2026-01-12 12:11:41.19	285.02	21.68	-30.1	-31.7	13.2	3.73e-05	0	42	0	638582784	20	4322
2026-01-12 12:11:42.19	285.28	21.65	-30.1	-31.6	13.2	3.43e-05	0	42	0	640679936	20	4300
2026-01-12 12:11:43.19	285.54	21.62	-30.0	-31.3	13.5	9.10e-06	0	42	0	641728512	20	4213
2026-01-12 12:11:44.20	285.80	21.59	-30.0	-31.3	13.4	1.44e-05	0	42	0	643825664	20	4202
2026-01-12 12:11:45.20	286.06	21.56	-30.2	-32.0	12.9	2.13e-05	0	42	0	645922816	20	4440
2026-01-12 12:11:46.21	286.32	21.53	-29.9	-31.1	13.6	9.10e-06	0	42	0	648019968	20	4142
2026-01-12 12:11:47.21	286.57	21.50	-30.2	-31.9	13.1	2.21e-05	0	42	0	650117120	20	4377
2026-01-12 12:11:48.22	286.83	21.46	-29.9	-31.0	13.6	1.22e-05	0	42	0	651165696	20	4116
2026-01-12 12:11:49.23	287.09	21.43	-30.0	-31.4	13.3	7.60e-06	0	42	0	653262848	20	4224
2026-01-12 12:11:50.24	287.34	21.40	-29.6	-30.4	14.0	6.80e-06	0	42	0	655360000	20	3931
2026-01-12 12:11:51.25	287.60	21.36	-29.5	-30.1	14.2	1.50e-06	0	42	0	657457152	20	3867
2026-01-12 12:11:52.25	287.85	21.33	-29.7	-30.5	13.9	3.00e-06	0	42	0	659554304	20	3979
2026-01-12 12:11:53.24	288.10	21.29	-29.7	-30.5	13.9	3.00e-06	0	42	0	660602880	20	3970
2026-01-12 12:11:54.25	288.36	21.26	-29.4	-29.8	14.3	1.50e-06	0	42	0	662700032	20	3769
2026-01-12 12:11:55.26	288.61	21.22	-29.3	-30.0	14.6	1.50e-06	0	42	0	664797184	19	3920
2026-01-12 12:11:56.26	288.86	21.19	-29.3	-30.1	14.6	7.00e-07	0	42	0	666894336	19	3931
2026-01-12 12:11:57.26	289.11	21.15	-29.3	-30.1	14.5	0.00e+00	0	42	0	668991488	19	3939
2026-01-12 12:11:58.26	289.36	21.11	-29.5	-30.7	14.2	7.00e-07	0	42	0	670040064	19	4108
2026-01-12 12:11:59.27	289.61	21.08	-29.5	-30.6	14.2	7.00e-07	0	42	0	672137216	19	4087
2026-01-12 12:12:00.27	289.86	21.04	-29.6	-30.8	14.1	1.50e-06	0	42	0	674234368	19	4126
2026-01-12 12:12:01.27	290.11	21.00	-29.3	-30.1	14.5	7.00e-07	0	42	0	676331520	19	3952
2026-01-12 12:12:02.27	290.36	20.96	-29.1	-29.6	14.8	0.00e+00	0	42	0	677380096	19	3799
2026-01-12 12:12:03.28	290.61	20.92	-29.2	-29.8	14.7	0.00e+00	0	42	0	679477248	19	3867
2026-01-12 12:12:04.28	290.85	20.88	-29.3	-30.1	14.5	2.20e-06	0	42	0	681574400	19	3953
2026-01-12 12:12:05.28	291.10	20.84	-29.5	-30.7	14.2	1.50e-06	0	42	0	683671552	19	4113
2026-01-12 12:12:06.29	291.34	20.80	-29.7	-31.0	14.0	7.00e-07	0	42	0	685768704	19	4203
2026-01-12 12:12:07.29	291.59	20.76	-29.8	-31.3	13.8	3.80e-06	0	42	0	686817280	19	4283
2026-01-12 12:12:08.30	291.83	20.72	-29.9	-31.5	13.7	6.80e-06	0	42	0	688914432	19	4359
2026-01-12 12:12:09.30	292.08	20.67	-29.6	-30.9	14.0	3.80e-06	0	42	0	691011584	19	4188
2026-01-12 12:12:10.30	292.32	20.63	-29.4	-30.4	14.3	1.50e-06	0	42	0	693108736	19	4026
2026-01-12 12:12:11.31	292.56	20.59	-29.5	-30.5	14.3	0.00e+00	0	42	0	695205888	19	4046
2026-01-12 12:12:12.31	292.80	20.54	-29.3	-30.2	14.5	0.00e+00	0	42	0	696254464	19	3968
2026-01-12 12:12:13.31	293.04	20.50	-29.2	-29.8	14.7	0.00e+00	0	42	0	698351616	19	3856
2026-01-12 12:12:14.31	293.28	20.45	-29.2	-29.8	14.7	7.00e-07	0	42	0	700448768	19	3869
2026-01-12 12:12:15.31	293.52	20.41	-29.2	-29.9	14.6	0.00e+00	0	42	0	702545920	19	3895
2026-01-12 12:12:16.31	293.76	20.37	-29.3	-30.2	14.5	0.00e+00	0	42	0	704643072	19	3963
2026-01-12 12:12:17.32	294.00	20.32	-29.1	-29.6	14.9	0.00e+00	0	42	0	705691648	19	3799
2026-01-12 12:12:18.32	294.24	20.27	-29.2	-29.8	14.7	0.00e+00	0	42	0	707788800	19	3855
2026-01-12 12:12:19.33	294.47	20.23	-29.2	-29.9	14.6	0.00e+00	0	42	0	709885952	19	3883
2026-01-12 12:12:20.33	294.71	20.18	-29.3	-30.2	14.4	7.00e-07	0	42	0	711983104	19	3969
2026-01-12 12:12:21.34	294.95	20.13	-29.3	-30.2	14.5	7.00e-07	0	42	0	714080256	19	3960
2026-01-12 12:12:22.34	295.18	20.08	-29.2	-29.8	14.7	7.00e-07	0	42	0	715128832	19	3874
2026-01-12 12:12:23.34	295.41	20.04	-29.3	-30.2	14.5	7.00e-07	0	42	0	717225984	19	3958
2026-01-12 12:12:24.34	295.65	19.99	-29.4	-30.4	14.3	1.50e-06	0	42	0	719323136	19	4024
2026-01-12 12:12:25.35	295.88	19.94	-29.4	-30.2	14.5	0.00e+00	0	42	0	721420288	19	3970
2026-01-12 12:12:26.35	296.11	19.89	-29.4	-30.4	14.4	7.00e-07	0	42	0	723517440	19	4015
2026-01-12 12:12:27.35	296.34	19.84	-29.7	-31.0	14.0	7.00e-07	0	42	0	724566016	19	4200
2026-01-12 12:12:28.35	296.57	19.79	-29.7	-31.1	13.8	5.30e-06	0	42	0	726663168	19	4240
2026-01-12 12:12:29.35	296.80	19.74	-29.8	-31.4	13.7	5.30e-06	0	42	0	728760320	19	4329
2026-01-12 12:12:30.36	297.03	19.69	-29.9	-31.2	13.5	1.44e-05	0	42	0	730857472	20	4170
2026-01-12 12:12:31.36	297.26	19.64	-29.9	-31.1	13.5	8.30e-06	0	42	0	731906048	20	4152
2026-01-12 12:12:32.37	297.48	19.59	-29.7	-30.8	13.7	7.60e-06	0	42	0	734003200	20	4045
2026-01-12 12:12:33.37	297.71	19.54	-29.7	-30.6	13.8	6.10e-06	0	42	0	736100352	20	4011
2026-01-12 12:12:34.38	297.94	19.48	-29.6	-30.4	13.9	1.50e-06	0	42	0	738197504	20	3957
2026-01-12 12:12:35.39	298.16	19.43	-29.3	-29.6	14.4	0.00e+00	0	42	0	740294656	20	3732
2026-01-12 12:12:36.40	298.39	19.38	-29.3	-30.1	14.5	7.00e-07	0	42	0	742391808	19	3953
2026-01-12 12:12:37.40	298.61	19.33	-29.3	-30.0	14.6	0.00e+00	0	42	0	743440384	19	3910
2026-01-12 12:12:38.41	298.84	19.27	-29.5	-30.5	14.2	0.00e+00	0	42	0	745537536	19	4061
2026-01-12 12:12:39.41	299.06	19.22	-29.4	-30.4	14.3	1.50e-06	0	42	0	747634688	19	4031
2026-01-12 12:12:40.41	299.28	19.17	-29.4	-30.4	14.3	0.00e+00	0	42	0	749731840	19	4013
2026-01-12 12:12:41.41	299.50	19.11	-29.7	-31.1	13.9	4.50e-06	0	42	0	750780416	19	4234
2026-01-12 12:12:42.42	299.72	19.06	-29.7	-31.2	13.8	7.00e-07	0	42	0	752877568	19	4258
2026-01-12 12:12:43.43	299.94	19.00	-30.0	-31.6	13.2	6.10e-06	0	42	0	754974720	20	4289
2026-01-12 12:12:44.44	300.16	18.95	-30.2	-31.9	13.0	3.66e-05	0	42	0	757071872	20	4403
2026-01-12 12:12:45.44	300.38	18.89	-30.4	-32.6	12.5	7.09e-05	0	42	0	759169024	20	4644
2026-01-12 12:12:46.45	300.59	18.84	-30.5	-32.3	12.4	1.69e-04	0	42	0	760217600	21	4444
2026-01-12 12:12:47.45	300.81	18.78	-30.5	-32.5	12.2	2.11e-04	0	42	0	762314752	21	4499
2026-01-12 12:12:48.45	301.02	18.72	-30.4	-32.1	12.5	1.60e-04	0	42	0	764411904	21	4367
2026-01-12 12:12:49.46	301.24	18.67	-30.2	-31.5	12.8	8.46e-05	0	42	0	766509056	21	4197
2026-01-12 12:12:50.47	301.45	18.61	-30.2	-31.4	12.9	4.95e-05	0	42	0	768606208	21	4163
2026-01-12 12:12:51.47	301.66	18.55	-30.1	-31.2	13.1	5.18e-05	0	42	0	769654784	21	4099
2026-01-12 12:12:52.47	301.88	18.50	-30.1	-31.2	13.0	2.51e-05	0	42	0	771751936	21	4112
2026-01-12 12:12:53.48	302.09	18.44	-30.2	-31.5	12.8	3.96e-05	0	42	0	773849088	21	4192
2026-01-12 12:12:54.48	302.30	18.38	-30.3	-31.8	12.7	7.17e-05	0	42	0	775946240	21	4271
2026-01-12 12:12:55.49	302.51	18.32	-30.3	-31.7	12.7	9.23e-05	0	42	0	778043392	21	4259
2026-01-12 12:12:56.49	302.72	18.27	-30.2	-31.7	12.7	8.62e-05	0	42	0	779091968	21	4239
2026-01-12 12:12:57.49	302.92	18.21	-30.0	-31.1	13.1	5.72e-05	0	42	0	781189120	21	4053
2026-01-12 12:12:58.50	303.13	18.15	-30.1	-31.4	12.9	4.27e-05	0	42	0	783286272	21	4144
2026-01-12 12:12:59.50	303.34	18.09	-30.1	-31.3	13.0	5.87e-05	0	42	0	785383424	21	4123
2026-01-12 12:13:00.51	303.55	18.03	-30.0	-31.1	13.1	1.98e-05	0	42	0	787480576	21	4063
2026-01-12 12:13:01.51	303.75	17.97	-30.1	-31.2	13.0	3.50e-05	0	42	0	788529152	21	4092
2026-01-12 12:13:02.52	303.95	17.91	-30.0	-31.1	13.1	4.42e-05	0	42	0	790626304	21	4054
2026-01-12 12:13:03.52	304.16	17.85	-30.0	-30.9	13.3	2.67e-05	0	42	0	792723456	21	4022
2026-01-12 12:13:04.52	304.36	17.79	-30.0	-31.1	13.1	4.65e-05	0	42	0	794820608	21	4066
2026-01-12 12:13:05.53	304.56	17.73	-30.4	-32.1	12.5	8.62e-05	0	42	0	796917760	21	4370
2026-01-12 12:13:06.54	304.76	17.67	-30.5	-32.5	12.2	1.78e-04	0	42	0	797966336	21	4520
2026-01-12 12:13:07.54	304.96	17.61	-30.7	-33.1	11.8	4.97e-04	0	42	0	800063488	21	4715
2026-01-12 12:13:08.55	305.16	17.55	-30.7	-33.1	11.7	4.36e-04	0	42	0	802160640	21	4719
2026-01-12 12:13:09.54	305.36	17.49	-30.8	-33.3	11.6	6.81e-04	0	42	0	804257792	21	4815
2026-01-12 12:13:10.55	305.56	17.43	-30.8	-33.2	11.6	9.07e-04	0	42	0	806354944	21	4782
2026-01-12 12:13:11.56	305.76	17.37	-30.9	-33.6	11.4	1.07e-03	0	42	0	807403520	21	4906
2026-01-12 12:13:12.57	305.96	17.31	-30.9	-33.7	11.3	1.17e-03	0	42	0	809500672	21	4950
2026-01-12 12:13:13.57	306.15	17.25	-30.9	-33.1	11.4	1.44e-03	0	42	0	811597824	22	4632
2026-01-12 12:13:14.57	306.34	17.19	-30.9	-33.2	11.4	1.03e-03	0	42	0	813694976	22	4667
2026-01-12 12:13:15.58	306.54	17.12	-31.0	-33.3	11.3	1.51e-03	0	42	0	815792128	22	4704
2026-01-12 12:13:16.58	306.73	17.06	-30.7	-32.4	11.9	7.29e-04	0	42	0	816840704	22	4384
2026-01-12 12:13:17.59	306.93	17.00	-30.6	-32.2	12.0	2.05e-04	0	42	0	818937856	22	4344
2026-01-12 12:13:18.60	307.12	16.94	-30.6	-32.2	12.0	2.91e-04	0	42	0	821035008	22	4345
2026-01-12 12:13:19.60	307.31	16.88	-30.7	-32.4	11.9	3.94e-04	0	42	0	823132160	22	4403
2026-01-12 12:13:20.61	307.50	16.81	-30.7	-32.5	11.8	5.40e-04	0	42	0	825229312	22	4430
2026-01-12 12:13:21.62	307.69	16.75	-30.7	-32.5	11.8	6.55e-04	0	42	0	826277888	22	4442
2026-01-12 12:13:22.62	307.88	16.69	-30.7	-32.6	11.8	4.68e-04	0	42	0	828375040	22	4463
2026-01-12 12:13:23.62	308.06	16.63	-30.7	-32.5	11.8	4.86e-04	0	42	0	830472192	22	4443
2026-01-12 12:13:24.63	308.25	16.56	-30.5	-31.8	12.2	2.08e-04	0	42	0	832569344	22	4216
2026-01-12 12:13:25.64	308.44	16.50	-30.4	-31.6	12.4	1.29e-04	0	42	0	833617920	22	4147
2026-01-12 12:13:26.64	308.63	16.44	-30.2	-31.6	12.7	1.62e-04	0	42	0	835715072	21	4232
2026-01-12 12:13:27.65	308.81	16.37	-30.1	-31.4	12.8	3.12e-05	0	42	0	837812224	21	4164
2026-01-12 12:13:28.66	309.00	16.31	-30.3	-31.7	12.6	5.34e-05	0	42	0	839909376	21	4269
2026-01-12 12:13:29.67	309.18	16.24	-30.2	-31.6	12.7	7.55e-05	0	42	0	842006528	21	4228
2026-01-12 12:13:30.67	309.36	16.18	-30.1	-31.3	12.9	6.40e-05	0	42	0	844103680	21	4133
2026-01-12 12:13:31.68	309.55	16.12	-30.1	-31.3	12.9	5.72e-05	0	42	0	845152256	21	4132
2026-01-12 12:13:32.68	309.73	16.05	-30.0	-31.1	13.0	5.11e-05	0	42	0	847249408	21	4087
2026-01-12 12:13:33.68	309.90	15.99	-30.1	-31.3	12.9	4.80e-05	0	42	0	849346560	21	4128
2026-01-12 12:13:34.69	310.09	15.93	-30.0	-31.2	12.9	3.20e-05	0	42	0	851443712	21	4097
2026-01-12 12:13:35.69	310.26	15.86	-30.1	-31.3	12.9	4.80e-05	0	42	0	852492288	21	4129
2026-01-12 12:13:36.69	310.44	15.80	-30.2	-31.7	12.6	5.18e-05	0	42	0	854589440	21	4254
2026-01-12 12:13:37.70	310.62	15.73	-30.3	-31.9	12.5	1.38e-04	0	42	0	856686592	21	4318
2026-01-12 12:13:38.70	310.79	15.67	-30.4	-32.2	12.3	1.46e-04	0	42	0	858783744	21	4419
2026-01-12 12:13:39.71	310.97	15.60	-30.5	-32.5	12.0	2.33e-04	0	42	0	860880896	21	4540
2026-01-12 12:13:40.72	311.15	15.54	-30.6	-32.8	11.8	4.40e-04	0	42	0	861929472	21	4634
2026-01-12 12:13:41.72	311.32	15.48	-30.6	-32.7	11.8	4.30e-04	0	42	0	864026624	21	4613
2026-01-12 12:13:42.73	311.50	15.41	-30.5	-32.6	11.9	3.12e-04	0	42	0	866123776	21	4582
2026-01-12 12:13:43.74	311.67	15.35	-30.5	-32.5	12.1	3.93e-04	0	42	0	868220928	21	4519
2026-01-12 12:13:44.74	311.84	15.28	-30.6	-32.7	11.9	4.13e-04	0	42	0	870318080	21	4602
2026-01-12 12:13:45.75	312.01	15.22	-30.5	-32.4	12.0	4.83e-04	0	42	0	872415232	21	4517
2026-01-12 12:13:46.75	312.18	15.15	-30.2	-31.7	12.6	1.72e-04	0	42	0	873463808	21	4255
2026-01-12 12:13:47.75	312.35	15.09	-30.3	-31.8	12.4	9.07e-05	0	42	0	875560960	21	4312
2026-01-12 12:13:48.76	312.52	15.02	-30.3	-31.9	12.5	1.58e-04	0	42	0	877658112	21	4320
2026-01-12 12:13:49.77	312.69	14.96	-30.3	-31.9	12.5	1.51e-04	0	42	0	879755264	21	4333
2026-01-12 12:13:50.77	312.86	14.89	-30.5	-32.4	12.0	2.14e-04	0	42	0	880803840	21	4515
2026-01-12 12:13:51.78	313.03	14.83	-30.6	-32.7	11.9	3.72e-04	0	42	0	882900992	21	4613
2026-01-12 12:13:52.79	313.19	14.76	-30.7	-33.0	11.6	5.66e-04	0	42	0	884998144	21	4736
2026-01-12 12:13:53.79	313.36	14.69	-30.6	-32.8	11.7	6.30e-04	0	42	0	887095296	21	4651
2026-01-12 12:13:54.80	313.53	14.63	-30.2	-31.7	12.4	2.68e-04	0	42	0	889192448	21	4281
2026-01-12 12:13:55.81	313.69	14.56	-30.0	-31.2	12.9	5.79e-05	0	42	0	890241024	21	4115
2026-01-12 12:13:56.81	313.85	14.50	-29.9	-30.9	13.1	4.04e-05	0	42	0	892338176	21	4009
2026-01-12 12:13:57.82	314.02	14.43	-29.8	-30.6	13.3	2.21e-05	0	42	0	894435328	21	3924
2026-01-12 12:13:58.82	314.18	14.37	-29.9	-30.9	13.1	2.44e-05	0	42	0	896532480	21	4018
2026-01-12 12:13:59.83	314.34	14.30	-30.0	-31.2	12.9	3.43e-05	0	42	0	898629632	21	4124
2026-01-12 12:14:00.83	314.50	14.24	-30.1	-31.4	12.7	5.95e-05	0	42	0	899678208	21	4173
2026-01-12 12:14:01.84	314.66	14.17	-30.3	-32.0	12.3	1.21e-04	0	42	0	901775360	21	4368
2026-01-12 12:14:02.84	314.82	14.10	-30.6	-32.8	11.8	2.07e-04	0	42	0	903872512	21	4637
2026-01-12 12:14:03.85	314.98	14.04	-30.6	-32.9	11.6	7.87e-04	0	42	0	905969664	21	4701
2026-01-12 12:14:04.85	315.14	13.97	-30.7	-33.0	11.5	7.04e-04	0	42	0	908066816	21	4728
2026-01-12 12:14:05.86	315.30	13.91	-30.6	-32.9	11.7	8.09e-04	0	42	0	909115392	21	4672
2026-01-12 12:14:06.87	315.45	13.84	-30.5	-32.6	11.9	6.64e-04	0	42	0	911212544	21	4590
2026-01-12 12:14:07.87	315.61	13.78	-30.2	-31.7	12.5	1.63e-04	0	42	0	913309696	21	4275
2026-01-12 12:14:08.88	315.77	13.71	-30.1	-31.3	12.7	1.16e-04	0	42	0	915406848	21	4166
2026-01-12 12:14:09.88	315.92	13.64	-29.9	-30.8	13.0	4.19e-05	0	42	0	917504000	21	4013
2026-01-12 12:14:10.89	316.07	13.58	-30.0	-31.1	12.8	5.26e-05	0	42	0	918552576	21	4106
2026-01-12 12:14:11.90	316.23	13.51	-29.8	-30.6	13.1	3.81e-05	0	42	0	920649728	21	3957
2026-01-12 12:14:12.90	316.38	13.45	-29.6	-30.6	13.6	9.90e-06	0	42	0	922746880	20	4011
2026-01-12 12:14:13.91	316.53	13.38	-29.6	-30.6	13.5	1.29e-05	0	42	0	924844032	20	4030
2026-01-12 12:14:14.91	316.68	13.32	-29.6	-30.6	13.5	8.30e-06	0	42	0	926941184	20	4023
2026-01-12 12:14:15.92	316.84	13.25	-29.5	-30.2	13.7	5.30e-06	0	42	0	927989760	20	3925
2026-01-12 12:14:16.92	316.98	13.18	-29.5	-30.3	13.7	6.10e-06	0	42	0	930086912	20	3947
2026-01-12 12:14:17.93	317.13	13.12	-29.4	-29.9	13.9	2.20e-06	0	42	0	932184064	20	3840
2026-01-12 12:14:18.92	317.28	13.05	-29.5	-30.2	13.7	3.80e-06	0	42	0	934281216	20	3926
2026-01-12 12:14:19.93	317.43	12.99	-29.4	-29.9	13.9	2.20e-06	0	42	0	936378368	20	3847
2026-01-12 12:14:20.93	317.58	12.92	-29.4	-29.9	13.9	7.00e-07	0	42	0	937426944	20	3847
2026-01-12 12:14:21.94	317.73	12.86	-29.6	-30.5	13.6	3.80e-06	0	42	0	939524096	20	3997
2026-01-12 12:14:22.95	317.87	12.79	-29.6	-30.6	13.5	1.44e-05	0	42	0	941621248	20	4019
2026-01-12 12:14:23.95	318.02	12.72	-29.8	-31.0	13.2	1.14e-05	0	42	0	943718400	20	4161
2026-01-12 12:14:24.96	318.16	12.66	-30.0	-31.6	12.9	3.43e-05	0	42	0	945815552	20	4321
2026-01-12 12:14:25.96	318.31	12.59	-30.1	-32.0	12.5	7.40e-05	0	42	0	946864128	20	4482
2026-01-12 12:14:26.97	318.45	12.53	-30.3	-32.5	12.2	1.75e-04	0	42	0	948961280	20	4656
2026-01-12 12:14:27.97	318.59	12.46	-30.3	-32.6	12.1	3.00e-04	0	42	0	951058432	20	4676
2026-01-12 12:14:28.98	318.74	12.40	-30.4	-32.8	12.0	2.82e-04	0	42	0	953155584	20	4758
2026-01-12 12:14:29.98	318.88	12.33	-30.4	-32.9	11.9	2.96e-04	0	42	0	955252736	20	4786
2026-01-12 12:14:30.99	319.02	12.26	-30.3	-32.7	12.1	2.31e-04	0	42	0	956301312	20	4698
2026-01-12 12:14:32.00	319.16	12.20	-30.3	-32.5	12.1	2.09e-04	0	42	0	958398464	20	4644
2026-01-12 12:14:32.99	319.30	12.13	-30.3	-32.4	12.2	2.09e-04	0	42	0	960495616	20	4624
2026-01-12 12:14:34.00	319.44	12.07	-30.3	-32.4	12.2	2.27e-04	0	42	0	962592768	20	4630
2026-01-12 12:14:35.01	319.58	12.00	-30.4	-32.7	12.0	2.62e-04	0	42	0	964689920	20	4718
2026-01-12 12:14:36.01	319.72	11.94	-30.3	-32.5	12.2	2.20e-04	0	42	0	965738496	20	4647
2026-01-12 12:14:37.02	319.86	11.87	-30.4	-32.8	11.9	3.56e-04	0	42	0	967835648	20	4765
2026-01-12 12:14:38.03	319.99	11.81	-30.4	-33.0	11.8	4.20e-04	0	42	0	969932800	20	4828
2026-01-12 12:14:39.03	320.13	11.74	-30.5	-32.7	11.7	4.17e-04	0	42	0	972029952	21	4621
2026-01-12 12:14:40.04	320.27	11.68	-30.7	-33.2	11.3	8.26e-04	0	42	0	974127104	21	4803
2026-01-12 12:14:41.04	320.40	11.61	-30.4	-32.4	11.8	6.15e-04	0	42	0	975175680	21	4535
2026-01-12 12:14:42.05	320.54	11.55	-30.2	-31.9	12.2	3.26e-04	0	42	0	977272832	21	4339
2026-01-12 12:14:43.06	320.67	11.48	-30.2	-31.6	12.4	1.60e-04	0	42	0	979369984	21	4263
2026-01-12 12:14:44.06	320.80	11.41	-30.0	-31.2	12.7	7.47e-05	0	42	0	981467136	21	4123
2026-01-12 12:14:45.07	320.94	11.35	-30.0	-31.2	12.7	8.16e-05	0	42	0	983564288	21	4123
2026-01-12 12:14:46.08	321.07	11.28	-29.8	-30.6	13.1	5.11e-05	0	42	0	984612864	21	3954
2026-01-12 12:14:47.09	321.20	11.22	-29.6	-30.7	13.3	2.13e-05	0	42	0	986710016	20	4072
2026-01-12 12:14:48.10	321.34	11.15	-29.7	-30.7	13.3	2.28e-05	0	42	0	988807168	20	4083
2026-01-12 12:14:49.10	321.47	11.09	-29.7	-30.8	13.2	2.89e-05	0	42	0	990904320	20	4086
2026-01-12 12:14:50.11	321.60	11.02	-29.8	-31.1	13.1	2.21e-05	0	42	0	993001472	20	4188
2026-01-12 12:14:51.11	321.73	10.96	-29.8	-31.2	13.0	2.89e-05	0	42	0	994050048	20	4221
2026-01-12 12:14:52.11	321.85	10.89	-29.9	-31.4	12.8	4.11e-05	0	42	0	996147200	20	4282
2026-01-12 12:14:53.11	321.98	10.83	-30.0	-31.9	12.5	5.49e-05	0	42	0	998244352	20	4443
2026-01-12 12:14:54.11	322.11	10.77	-29.9	-31.5	12.7	1.01e-04	0	42	0	1000341504	20	4332
2026-01-12 12:14:55.12	322.24	10.70	-30.0	-31.8	12.5	7.62e-05	0	42	0	1002438656	20	4415
2026-01-12 12:14:56.12	322.36	10.64	-30.0	-31.8	12.5	7.55e-05	0	42	0	1003487232	20	4420
2026-01-12 12:14:57.12	322.49	10.57	-29.9	-31.5	12.7	8.01e-05	0	42	0	1005584384	20	4331
2026-01-12 12:14:58.13	322.62	10.51	-30.0	-31.7	12.6	9.23e-05	0	42	0	1007681536	20	4389
2026-01-12 12:14:59.14	322.74	10.44	-30.0	-31.6	12.7	1.01e-04	0	43	0	1009778688	20	4363
2026-01-12 12:15:00.13	322.87	10.38	-30.2	-32.4	12.1	1.46e-04	0	42	0	1010827264	20	4613
2026-01-12 12:15:01.13	322.99	10.31	-30.1	-32.0	12.4	1.72e-04	0	42	0	1012924416	20	4479
2026-01-12 12:15:02.14	323.11	10.25	-30.1	-32.2	12.2	2.92e-04	0	42	0	1015021568	20	4555
2026-01-12 12:15:03.14	323.24	10.19	-30.2	-32.4	12.1	3.14e-04	0	42	0	1017118720	20	4637
2026-01-12 12:15:04.15	323.36	10.12	-30.4	-33.0	11.6	5.80e-04	0	42	0	1019215872	20	4855
2026-01-12 12:15:05.15	323.48	10.06	-30.4	-33.0	11.7	6.20e-04	0	42	0	1020264448	20	4841
2026-01-12 12:15:06.16	323.60	9.99	-30.6	-33.0	11.3	7.06e-04	0	42	0	1022361600	21	4760
2026-01-12 12:15:07.16	323.72	9.93	-30.6	-33.1	11.2	1.18e-03	0	42	0	1024458752	21	4811
2026-01-12 12:15:08.17	323.85	9.87	-30.6	-33.2	11.1	1.21e-03	0	42	0	1026555904	21	4840
2026-01-12 12:15:09.17	323.97	9.80	-30.7	-33.3	11.1	1.40e-03	0	42	0	1028653056	21	4861
2026-01-12 12:15:10.18	324.09	9.74	-30.7	-33.5	10.9	2.11e-03	0	42	0	1029701632	21	4938
2026-01-12 12:15:11.18	324.20	9.67	-30.4	-32.4	11.6	8.83e-04	0	42	0	1031798784	21	4564
2026-01-12 12:15:12.19	324.32	9.61	-30.2	-31.8	12.1	4.69e-04	0	42	0	1033895936	21	4347
2026-01-12 12:15:13.19	324.44	9.55	-30.0	-31.2	12.5	1.56e-04	0	42	0	1035993088	21	4149
2026-01-12 12:15:14.19	324.56	9.48	-29.8	-30.9	12.7	8.62e-05	0	42	0	1038090240	21	4041
2026-01-12 12:15:15.20	324.68	9.42	-29.8	-31.2	12.8	4.42e-05	0	42	0	1039138816	20	4225
2026-01-12 12:15:16.20	324.79	9.36	-29.7	-30.9	13.0	2.36e-05	0	42	0	1041235968	20	4137
2026-01-12 12:15:17.20	324.91	9.29	-29.7	-31.0	12.9	4.95e-05	0	42	0	1043333120	20	4186
2026-01-12 12:15:18.20	325.02	9.23	-29.9	-31.5	12.6	8.77e-05	0	42	0	1045430272	20	4324
2026-01-12 12:15:19.21	325.14	9.17	-29.7	-31.0	13.0	5.72e-05	0	42	0	1047527424	20	4167
2026-01-12 12:15:20.22	325.25	9.10	-29.8	-31.1	12.9	5.41e-05	0	42	0	1048576000	20	4215
2026-01-12 12:15:21.21	325.37	9.04	-29.9	-31.5	12.6	9.91e-05	0	42	0	1050673152	20	4337
2026-01-12 12:15:22.22	325.48	8.98	-30.0	-31.8	12.4	9.84e-05	0	42	0	1052770304	20	4421
2026-01-12 12:15:23.22	325.59	8.91	-30.1	-32.1	12.2	2.02e-04	0	42	0	1054867456	20	4536
2026-01-12 12:15:24.22	325.71	8.85	-30.2	-32.5	12.0	3.75e-04	0	42	0	1056964608	20	4662
2026-01-12 12:15:25.23	325.82	8.79	-30.3	-32.7	11.8	4.26e-04	0	42	0	1058013184	20	4759
2026-01-12 12:15:26.23	325.93	8.73	-30.5	-33.4	11.3	8.22e-04	0	42	0	1060110336	20	5004
2026-01-12 12:15:27.23	326.04	8.66	-30.5	-32.8	11.4	8.63e-04	0	42	0	1062207488	21	4687
2026-01-12 12:15:28.24	326.15	8.60	-30.5	-32.9	11.3	9.46e-04	0	42	0	1064304640	21	4716
2026-01-12 12:15:29.24	326.26	8.54	-30.6	-33.0	11.2	1.19e-03	0	42	0	1065353216	21	4775
2026-01-12 12:15:30.24	326.37	8.48	-30.6	-33.1	11.0	1.38e-03	0	42	0	1067450368	21	4814
2026-01-12 12:15:31.25	326.48	8.41	-30.6	-33.1	11.0	1.68e-03	0	42	0	1069547520	21	4831
2026-01-12 12:15:32.25	326.59	8.35	-30.7	-33.6	10.7	2.78e-03	0	42	0	1071644672	21	5001
2026-01-12 12:15:33.25	326.70	8.29	-30.8	-33.8	10.5	3.04e-03	0	42	0	1073741824	21	5105
2026-01-12 12:15:34.26	326.81	8.23	-30.8	-34.0	10.3	5.75e-03	0	42	0	1075838976	21	5200
2026-01-12 12:15:35.27	326.92	8.16	-30.9	-34.3	10.2	5.35e-03	0	42	0	1076887552	21	5297
2026-01-12 12:15:36.27	327.03	8.10	-31.0	-34.1	10.0	6.41e-03	0	42	0	1078984704	22	5114
2026-01-12 12:15:37.28	327.13	8.04	-31.1	-34.4	9.8	9.50e-03	0	42	0	1081081856	22	5264
2026-01-12 12:15:38.28	327.24	7.98	-31.2	-34.8	9.4	1.43e-02	0	42	0	1083179008	22	5440
2026-01-12 12:15:39.28	327.34	7.92	-31.2	-34.7	9.4	1.60e-02	0	42	0	1084227584	22	5422
2026-01-12 12:15:40.29	327.45	7.85	-31.1	-34.4	9.7	1.45e-02	0	42	0	1086324736	22	5265
2026-01-12 12:15:41.29	327.56	7.79	-31.2	-35.0	9.2	1.68e-02	0	42	0	1088421888	22	5539
2026-01-12 12:15:42.30	327.66	7.73	-31.1	-34.6	9.5	1.50e-02	0	42	0	1090519040	22	5363
2026-01-12 12:15:43.30	327.77	7.67	-31.1	-34.5	9.6	1.37e-02	0	42	0	1092616192	22	5313
2026-01-12 12:15:44.31	327.87	7.61	-31.1	-34.4	9.6	1.20e-02	0	42	0	1093664768	22	5299
2026-01-12 12:15:45.32	327.97	7.55	-31.1	-34.5	9.6	1.35e-02	0	42	0	1095761920	22	5320
2026-01-12 12:15:46.32	328.08	7.48	-30.8	-33.6	10.2	9.64e-03	0	42	0	1097859072	22	4929
2026-01-12 12:15:47.32	328.18	7.42	-30.8	-33.5	10.3	6.66e-03	0	42	0	1099956224	22	4919
2026-01-12 12:15:48.32	328.28	7.36	-30.8	-33.4	10.3	5.86e-03	0	42	0	1102053376	22	4858
2026-01-12 12:15:49.33	328.38	7.30	-31.0	-34.1	9.9	6.69e-03	0	42	0	1103101952	22	5137
2026-01-12 12:15:50.34	328.49	7.24	-30.9	-33.9	10.0	8.62e-03	0	43	0	1105199104	22	5066
2026-01-12 12:15:51.34	328.59	7.18	-31.0	-34.2	9.7	1.25e-02	0	42	0	1107296256	22	5220
2026-01-12 12:15:52.34	328.69	7.12	-30.9	-34.0	9.9	7.46e-03	0	42	0	1109393408	22	5138
2026-01-12 12:15:53.35	328.79	7.06	-32.0	-37.6	7.5	1.02e-02	0	42	0	1111490560	23	6923
2026-01-12 12:15:54.36	328.89	6.99	-33.2	-45.5	3.8	1.49e+00	0	42	104	1111490560	26	14926
2026-01-12 12:15:55.36	328.99	6.93	-33.4	-46.1	3.8	1.49e+00	0	42	104	1111490560	26	15431
2026-01-12 12:15:56.37	329.09	6.87	-33.6	-45.9	3.8	1.49e+00	0	42	104	1111490560	27	14856

#Closed at: 2026-01-12 12:15:56
#Recorded file [1111 MB]: D:/data/31010_260112_150600.dat