passes_logs/2026/01/12/R2M6_AANII_01/R2M6_AANII_01__20260112_122747_NOAA_20_JPSS-1_rec.log

#Pass ID: 20260112_122747_NOAA 20 (JPSS-1)
#Satellite: NOAA 20 (JPSS-1)
#Configuration: NOAA 20
#almurnet v.1.7.20240730
#Start time: 2026-01-12 12:27:47

#Version: 2.2.20231116
#Station: R2M6_AANII_01
#Location: 30.233357 lon 59.946436 lat
#TLE: 1 43013U 17073A   26011.31235446  .00000090  00000+0  63634-4 0  9991
#TLE: 2 43013  98.7632 312.2907 0001646  44.6084 315.5224 14.19535308422217

#Time	Az	El	Level	Level2	SNR	BER	BlckErr	Temp	State	Recorded	gain1	gain2
2026-01-12 12:27:47.71	233.38	7.00	-31.0	-35.5	5.3	1.13e+00	0	40	0	0	23	6045
2026-01-12 12:27:48.71	233.50	7.05	-31.4	-37.2	5.1	1.18e+00	0	40	104	0	23	7069
2026-01-12 12:27:49.71	233.63	7.10	-31.4	-37.1	8.1	6.52e-02	0	40	0	0	23	6974
2026-01-12 12:27:50.72	233.75	7.15	-31.4	-37.2	8.1	5.96e-02	0	40	0	1048576	23	7046
2026-01-12 12:27:51.73	233.88	7.20	-31.4	-37.2	8.1	7.33e-02	0	40	0	3145728	23	7043
2026-01-12 12:27:52.73	234.00	7.25	-31.4	-37.1	8.2	6.38e-02	0	39	0	5242880	23	6985
2026-01-12 12:27:53.74	234.13	7.30	-31.6	-38.0	7.5	9.29e-02	0	40	0	7340032	23	7523
2026-01-12 12:27:54.74	234.25	7.35	-31.5	-37.4	7.9	1.02e-01	0	40	0	9437184	23	7161
2026-01-12 12:27:55.75	234.38	7.41	-31.3	-36.8	8.5	4.34e-02	0	40	0	10485760	23	6779
2026-01-12 12:27:56.76	234.51	7.46	-31.4	-36.9	8.4	4.63e-02	0	40	0	12582912	23	6836
2026-01-12 12:27:57.76	234.63	7.51	-31.1	-35.7	9.4	1.99e-02	0	40	0	14680064	23	6119
2026-01-12 12:27:58.77	234.76	7.56	-31.2	-36.2	9.0	1.93e-02	0	40	0	16777216	23	6421
2026-01-12 12:27:59.78	234.89	7.61	-31.2	-36.1	9.1	2.82e-02	0	40	0	18874368	23	6349
2026-01-12 12:28:00.78	235.02	7.66	-31.2	-36.1	9.1	2.08e-02	0	40	0	19922944	23	6337
2026-01-12 12:28:01.79	235.15	7.71	-31.3	-36.7	8.6	3.28e-02	0	40	0	22020096	23	6673
2026-01-12 12:28:02.80	235.28	7.76	-31.2	-36.4	8.9	3.77e-02	0	40	0	24117248	23	6483
2026-01-12 12:28:03.80	235.41	7.81	-31.1	-35.6	9.5	1.66e-02	0	40	0	26214400	23	6084
2026-01-12 12:28:04.81	235.54	7.87	-30.8	-34.7	10.2	8.21e-03	0	40	0	28311552	23	5652
2026-01-12 12:28:05.82	235.67	7.92	-30.6	-34.6	10.7	4.09e-03	0	40	0	29360128	22	5676
2026-01-12 12:28:06.82	235.80	7.97	-30.5	-34.2	10.9	3.35e-03	0	40	0	31457280	22	5512
2026-01-12 12:28:07.83	235.93	8.02	-30.5	-34.1	11.1	1.73e-03	0	40	0	33554432	22	5429
2026-01-12 12:28:08.84	236.07	8.07	-30.4	-33.8	11.3	1.39e-03	0	40	0	35651584	22	5322
2026-01-12 12:28:09.85	236.20	8.12	-30.5	-33.9	11.2	1.48e-03	0	40	0	37748736	22	5381
2026-01-12 12:28:10.85	236.33	8.17	-30.4	-33.9	11.3	1.32e-03	0	40	0	38797312	22	5362
2026-01-12 12:28:11.86	236.46	8.22	-30.6	-34.3	10.9	1.63e-03	0	40	0	40894464	22	5547
2026-01-12 12:28:12.87	236.60	8.27	-30.5	-34.0	11.2	2.08e-03	0	40	0	42991616	22	5386
2026-01-12 12:28:13.87	236.73	8.32	-30.3	-33.4	11.6	7.40e-04	0	40	0	45088768	22	5139
2026-01-12 12:28:14.87	236.87	8.37	-30.1	-33.3	12.0	4.43e-04	0	40	0	47185920	21	5216
2026-01-12 12:28:15.87	237.00	8.42	-30.2	-33.7	11.7	3.64e-04	0	40	0	48234496	21	5382
2026-01-12 12:28:16.88	237.14	8.47	-30.1	-33.4	11.9	5.25e-04	0	40	0	50331648	21	5265
2026-01-12 12:28:17.88	237.27	8.53	-30.2	-33.6	11.8	4.06e-04	0	41	0	52428800	21	5331
2026-01-12 12:28:18.89	237.41	8.58	-30.3	-33.9	11.7	5.93e-04	0	41	0	54525952	21	5431
2026-01-12 12:28:19.89	237.55	8.63	-30.3	-34.0	11.6	7.00e-04	0	40	0	56623104	21	5488
2026-01-12 12:28:20.90	237.69	8.68	-30.3	-33.9	11.6	5.71e-04	0	41	0	57671680	21	5457
2026-01-12 12:28:21.91	237.82	8.73	-30.3	-34.1	11.5	8.03e-04	0	41	0	59768832	21	5513
2026-01-12 12:28:22.92	237.96	8.78	-30.6	-34.9	10.9	1.31e-03	0	41	0	61865984	21	5909
2026-01-12 12:28:23.92	238.10	8.83	-30.7	-35.2	10.7	2.76e-03	0	41	0	63963136	21	6051
2026-01-12 12:28:24.93	238.24	8.88	-30.6	-34.7	11.0	2.05e-03	0	41	0	66060288	21	5811
2026-01-12 12:28:25.93	238.38	8.93	-30.3	-34.0	11.6	1.10e-03	0	41	0	67108864	21	5468
2026-01-12 12:28:26.94	238.52	8.98	-30.2	-33.7	11.9	4.42e-04	0	41	0	69206016	21	5348
2026-01-12 12:28:27.94	238.66	9.03	-30.3	-34.0	11.7	7.61e-04	0	41	0	71303168	21	5462
2026-01-12 12:28:28.95	238.80	9.08	-30.3	-33.9	11.7	4.42e-04	0	41	0	73400320	21	5420
2026-01-12 12:28:29.95	238.94	9.13	-30.4	-34.1	11.5	6.26e-04	0	41	0	74448896	21	5541
2026-01-12 12:28:30.96	239.09	9.18	-30.5	-34.4	11.3	9.29e-04	0	41	0	76546048	21	5667
2026-01-12 12:28:31.96	239.23	9.23	-30.4	-34.0	11.7	8.63e-04	0	41	0	78643200	21	5485
2026-01-12 12:28:32.96	239.37	9.28	-30.1	-33.3	12.2	4.49e-04	0	41	0	80740352	21	5177
2026-01-12 12:28:33.97	239.52	9.33	-30.1	-33.2	12.3	1.47e-04	0	41	0	82837504	21	5146
2026-01-12 12:28:34.97	239.66	9.38	-30.0	-33.0	12.4	1.75e-04	0	41	0	84934656	21	5052
2026-01-12 12:28:35.98	239.80	9.43	-30.0	-32.8	12.5	1.29e-04	0	41	0	85983232	21	5005
2026-01-12 12:28:36.98	239.95	9.48	-29.9	-32.7	12.6	1.18e-04	0	41	0	88080384	21	4964
2026-01-12 12:28:37.99	240.09	9.53	-30.0	-32.8	12.6	1.03e-04	0	41	0	90177536	21	4989
2026-01-12 12:28:39.00	240.24	9.58	-29.9	-32.5	12.7	1.05e-04	0	41	0	92274688	21	4886
2026-01-12 12:28:40.01	240.39	9.63	-29.8	-32.5	12.8	6.33e-05	0	41	0	93323264	21	4878
2026-01-12 12:28:41.01	240.53	9.67	-29.9	-32.5	12.7	6.25e-05	0	41	0	95420416	21	4887
2026-01-12 12:28:42.01	240.68	9.72	-30.0	-32.9	12.5	9.30e-05	0	41	0	97517568	21	5021
2026-01-12 12:28:43.02	240.83	9.77	-29.8	-32.3	12.9	1.01e-04	0	41	0	99614720	21	4811
2026-01-12 12:28:44.03	240.98	9.82	-29.8	-32.4	12.8	6.86e-05	0	41	0	101711872	21	4839
2026-01-12 12:28:45.04	241.13	9.87	-29.9	-32.6	12.7	7.24e-05	0	41	0	102760448	21	4920
2026-01-12 12:28:46.04	241.28	9.92	-30.0	-32.9	12.4	9.23e-05	0	41	0	104857600	21	5046
2026-01-12 12:28:47.05	241.43	9.97	-29.8	-32.4	12.8	7.70e-05	0	41	0	106954752	21	4840
2026-01-12 12:28:48.06	241.58	10.02	-29.8	-32.7	12.9	4.57e-05	0	41	0	109051904	20	5065
2026-01-12 12:28:49.07	241.73	10.07	-29.8	-32.7	13.0	3.81e-05	0	41	0	111149056	20	5059
2026-01-12 12:28:50.07	241.88	10.12	-29.9	-33.1	12.7	4.95e-05	0	41	0	113246208	20	5213
2026-01-12 12:28:51.08	242.03	10.17	-29.7	-32.5	13.1	3.66e-05	0	41	0	114294784	20	4973
2026-01-12 12:28:52.09	242.19	10.21	-29.6	-32.3	13.3	2.36e-05	0	41	0	116391936	20	4902
2026-01-12 12:28:53.09	242.34	10.26	-29.6	-32.3	13.2	1.83e-05	0	41	0	118489088	20	4900
2026-01-12 12:28:54.10	242.49	10.31	-29.6	-32.3	13.3	1.67e-05	0	41	0	120586240	20	4905
2026-01-12 12:28:55.10	242.65	10.36	-29.7	-32.5	13.1	2.44e-05	0	41	0	121634816	20	4960
2026-01-12 12:28:56.11	242.80	10.41	-29.6	-32.1	13.4	2.05e-05	0	41	0	123731968	20	4840
2026-01-12 12:28:57.11	242.95	10.46	-29.7	-32.5	13.1	2.44e-05	0	41	0	125829120	20	4982
2026-01-12 12:28:58.12	243.11	10.50	-29.7	-32.4	13.2	2.28e-05	0	41	0	127926272	20	4937
2026-01-12 12:28:59.12	243.26	10.55	-29.6	-32.2	13.3	2.13e-05	0	41	0	130023424	20	4881
2026-01-12 12:29:00.13	243.42	10.60	-29.7	-32.5	13.2	1.75e-05	0	41	0	131072000	20	4952
2026-01-12 12:29:01.14	243.58	10.65	-29.6	-32.3	13.3	1.37e-05	0	41	0	133169152	20	4899
2026-01-12 12:29:02.14	243.74	10.69	-29.7	-32.4	13.3	2.05e-05	0	41	0	135266304	20	4928
2026-01-12 12:29:03.15	243.89	10.74	-29.6	-32.3	13.3	2.21e-05	0	41	0	137363456	20	4904
2026-01-12 12:29:04.16	244.05	10.79	-29.7	-32.4	13.3	2.05e-05	0	41	0	139460608	20	4927
2026-01-12 12:29:05.16	244.21	10.84	-29.6	-32.3	13.4	2.21e-05	0	41	0	141557760	20	4886
2026-01-12 12:29:06.17	244.37	10.88	-29.6	-32.3	13.3	1.75e-05	0	41	0	142606336	20	4895
2026-01-12 12:29:07.18	244.53	10.93	-29.8	-32.7	13.0	4.57e-05	0	41	0	144703488	20	5056
2026-01-12 12:29:08.18	244.69	10.98	-29.6	-32.2	13.4	2.21e-05	0	41	0	146800640	20	4847
2026-01-12 12:29:09.19	244.85	11.03	-29.5	-32.0	13.5	1.37e-05	0	41	0	148897792	20	4797
2026-01-12 12:29:10.19	245.01	11.07	-29.5	-32.0	13.6	6.10e-06	0	42	0	149946368	20	4781
2026-01-12 12:29:11.20	245.17	11.12	-29.7	-32.3	13.3	1.22e-05	0	41	0	152043520	20	4901
2026-01-12 12:29:12.20	245.34	11.17	-29.6	-32.2	13.4	6.80e-06	0	41	0	154140672	20	4857
2026-01-12 12:29:13.21	245.50	11.21	-29.7	-32.5	13.2	1.83e-05	0	41	0	156237824	20	4964
2026-01-12 12:29:14.21	245.66	11.26	-29.6	-32.2	13.4	1.06e-05	0	41	0	158334976	20	4861
2026-01-12 12:29:15.22	245.83	11.31	-29.7	-32.4	13.3	2.05e-05	0	41	0	159383552	20	4905
2026-01-12 12:29:16.22	245.99	11.35	-29.7	-32.4	13.3	2.13e-05	0	41	0	161480704	20	4909
2026-01-12 12:29:17.23	246.15	11.40	-29.6	-32.2	13.4	1.98e-05	0	41	0	163577856	20	4854
2026-01-12 12:29:18.24	246.32	11.44	-29.6	-32.2	13.4	1.22e-05	0	41	0	165675008	20	4850
2026-01-12 12:29:19.24	246.49	11.49	-29.6	-32.2	13.5	1.67e-05	0	42	0	167772160	20	4838
2026-01-12 12:29:20.24	246.65	11.53	-29.6	-32.0	13.5	6.80e-06	0	42	0	168820736	20	4790
2026-01-12 12:29:21.24	246.82	11.58	-29.6	-32.2	13.4	1.22e-05	0	41	0	170917888	20	4859
2026-01-12 12:29:22.25	246.98	11.62	-29.6	-32.1	13.5	1.06e-05	0	42	0	173015040	20	4816
2026-01-12 12:29:23.25	247.15	11.67	-29.6	-32.2	13.5	4.50e-06	0	41	0	175112192	20	4860
2026-01-12 12:29:24.25	247.32	11.71	-29.6	-32.2	13.5	1.06e-05	0	42	0	177209344	20	4855
2026-01-12 12:29:25.26	247.49	11.76	-29.7	-32.3	13.4	1.14e-05	0	41	0	178257920	20	4897
2026-01-12 12:29:26.27	247.66	11.80	-29.7	-32.3	13.4	1.37e-05	0	42	0	180355072	20	4904
2026-01-12 12:29:27.28	247.83	11.85	-29.7	-32.5	13.3	2.13e-05	0	42	0	182452224	20	4947
2026-01-12 12:29:28.28	248.00	11.89	-29.7	-32.4	13.3	1.90e-05	0	42	0	184549376	20	4934
2026-01-12 12:29:29.29	248.17	11.94	-29.7	-32.5	13.3	1.22e-05	0	42	0	186646528	20	4951
2026-01-12 12:29:30.29	248.34	11.98	-29.8	-32.6	13.2	2.13e-05	0	42	0	187695104	20	5004
2026-01-12 12:29:31.30	248.51	12.03	-29.7	-32.4	13.3	1.75e-05	0	42	0	189792256	20	4928
2026-01-12 12:29:32.31	248.68	12.07	-29.7	-32.5	13.3	1.52e-05	0	41	0	191889408	20	4946
2026-01-12 12:29:33.32	248.86	12.11	-29.8	-32.7	13.2	1.52e-05	0	42	0	193986560	20	5030
2026-01-12 12:29:34.32	249.03	12.16	-29.8	-32.8	13.1	2.59e-05	0	42	0	196083712	20	5052
2026-01-12 12:29:35.33	249.20	12.20	-29.8	-32.8	13.1	3.05e-05	0	42	0	197132288	20	5072
2026-01-12 12:29:36.34	249.38	12.25	-29.9	-32.8	13.1	2.36e-05	0	42	0	199229440	20	5081
2026-01-12 12:29:37.34	249.55	12.29	-29.9	-33.0	13.0	5.34e-05	0	42	0	201326592	20	5153
2026-01-12 12:29:38.35	249.73	12.33	-29.9	-33.1	12.9	4.95e-05	0	42	0	203423744	20	5161
2026-01-12 12:29:39.35	249.90	12.37	-30.0	-33.2	12.9	4.73e-05	0	42	0	205520896	20	5205
2026-01-12 12:29:40.35	250.08	12.42	-30.0	-33.1	12.9	4.95e-05	0	42	0	206569472	20	5177
2026-01-12 12:29:41.36	250.26	12.46	-29.9	-33.1	12.9	3.66e-05	0	42	0	208666624	20	5174
2026-01-12 12:29:42.36	250.43	12.50	-30.0	-33.4	12.7	5.64e-05	0	42	0	210763776	20	5290
2026-01-12 12:29:43.37	250.61	12.54	-30.1	-33.4	12.7	7.70e-05	0	42	0	212860928	20	5299
2026-01-12 12:29:44.38	250.79	12.59	-30.2	-33.7	12.6	7.24e-05	0	42	0	214958080	20	5413
2026-01-12 12:29:45.39	250.97	12.63	-30.2	-33.8	12.4	1.47e-04	0	42	0	216006656	20	5457
2026-01-12 12:29:46.39	251.15	12.67	-30.2	-33.8	12.5	1.27e-04	0	42	0	218103808	20	5449
2026-01-12 12:29:47.40	251.33	12.71	-30.2	-33.8	12.5	1.14e-04	0	42	0	220200960	20	5443
2026-01-12 12:29:48.41	251.51	12.75	-30.3	-34.0	12.3	1.62e-04	0	42	0	222298112	20	5552
2026-01-12 12:29:49.42	251.69	12.79	-30.4	-34.4	12.1	2.34e-04	0	42	0	224395264	20	5692
2026-01-12 12:29:50.42	251.87	12.83	-30.4	-34.5	12.0	2.91e-04	0	42	0	225443840	20	5744
2026-01-12 12:29:51.41	252.05	12.87	-30.5	-34.0	12.0	4.53e-04	0	42	0	227540992	21	5443
2026-01-12 12:29:52.42	252.23	12.91	-30.4	-34.0	12.0	3.52e-04	0	42	0	229638144	21	5409
2026-01-12 12:29:53.43	252.41	12.95	-30.4	-34.0	12.0	3.23e-04	0	42	0	231735296	21	5434
2026-01-12 12:29:54.44	252.60	12.99	-30.5	-34.1	11.9	3.91e-04	0	42	0	233832448	21	5463
2026-01-12 12:29:55.44	252.78	13.03	-30.4	-34.0	12.1	3.00e-04	0	42	0	234881024	21	5409
2026-01-12 12:29:56.45	252.96	13.07	-30.4	-34.0	12.0	2.91e-04	0	42	0	236978176	21	5440
2026-01-12 12:29:57.45	253.15	13.11	-30.5	-34.2	11.9	3.64e-04	0	42	0	239075328	21	5490
2026-01-12 12:29:58.45	253.33	13.15	-30.5	-34.2	11.9	4.54e-04	0	42	0	241172480	21	5499
2026-01-12 12:29:59.45	253.52	13.19	-30.5	-34.2	11.9	4.11e-04	0	42	0	243269632	21	5515
2026-01-12 12:30:00.46	253.70	13.23	-30.6	-34.5	11.7	4.58e-04	0	42	0	244318208	21	5620
2026-01-12 12:30:01.47	253.89	13.27	-30.7	-34.6	11.6	7.33e-04	0	42	0	246415360	21	5701
2026-01-12 12:30:02.47	254.08	13.31	-30.6	-34.6	11.6	5.71e-04	0	42	0	248512512	21	5682
2026-01-12 12:30:03.48	254.26	13.35	-30.7	-34.8	11.5	7.51e-04	0	42	0	250609664	21	5779
2026-01-12 12:30:04.49	254.45	13.38	-30.7	-34.8	11.5	7.31e-04	0	42	0	252706816	21	5756
2026-01-12 12:30:05.49	254.64	13.42	-30.7	-34.8	11.5	9.99e-04	0	42	0	253755392	21	5778
2026-01-12 12:30:06.50	254.83	13.46	-30.7	-34.8	11.5	7.39e-04	0	42	0	255852544	21	5761
2026-01-12 12:30:07.50	255.02	13.50	-30.7	-34.9	11.4	8.26e-04	0	42	0	257949696	21	5809
2026-01-12 12:30:08.51	255.21	13.53	-30.7	-34.8	11.5	1.08e-03	0	42	0	260046848	21	5781
2026-01-12 12:30:09.52	255.40	13.57	-30.7	-34.7	11.5	7.23e-04	0	42	0	262144000	21	5734
2026-01-12 12:30:10.53	255.59	13.61	-30.7	-34.6	11.6	5.70e-04	0	42	0	263192576	21	5696
2026-01-12 12:30:11.53	255.78	13.64	-30.7	-34.9	11.5	7.47e-04	0	42	0	265289728	21	5805
2026-01-12 12:30:12.53	255.97	13.68	-30.8	-35.1	11.3	1.09e-03	0	42	0	267386880	21	5910
2026-01-12 12:30:13.54	256.16	13.71	-30.8	-35.2	11.2	1.39e-03	0	42	0	269484032	21	5964
2026-01-12 12:30:14.54	256.35	13.75	-30.8	-35.2	11.2	1.17e-03	0	42	0	271581184	21	5952
2026-01-12 12:30:15.55	256.55	13.79	-31.0	-35.4	10.8	1.73e-03	0	42	0	272629760	22	5932
2026-01-12 12:30:16.56	256.74	13.82	-31.0	-35.3	10.8	3.14e-03	0	42	0	274726912	22	5899
2026-01-12 12:30:17.56	256.93	13.86	-31.0	-35.3	10.9	2.22e-03	0	42	0	276824064	22	5894
2026-01-12 12:30:18.57	257.13	13.89	-31.1	-35.6	10.6	2.59e-03	0	42	0	278921216	22	6006
2026-01-12 12:30:19.58	257.32	13.92	-31.1	-35.6	10.6	4.08e-03	0	42	0	281018368	22	6004
2026-01-12 12:30:20.59	257.52	13.96	-31.0	-35.2	10.8	2.53e-03	0	42	0	282066944	22	5854
2026-01-12 12:30:21.59	257.71	13.99	-30.9	-35.0	11.1	1.80e-03	0	42	0	284164096	22	5720
2026-01-12 12:30:22.60	257.91	14.03	-30.9	-34.8	11.2	1.50e-03	0	42	0	286261248	22	5665
2026-01-12 12:30:23.61	258.11	14.06	-30.9	-34.7	11.3	1.37e-03	0	42	0	288358400	22	5600
2026-01-12 12:30:24.62	258.30	14.09	-30.8	-34.6	11.4	1.11e-03	0	42	0	290455552	22	5548
2026-01-12 12:30:25.62	258.50	14.13	-30.8	-34.6	11.3	9.07e-04	0	42	0	291504128	22	5561
2026-01-12 12:30:26.62	258.70	14.16	-31.0	-35.1	11.0	1.26e-03	0	42	0	293601280	22	5775
2026-01-12 12:30:27.63	258.89	14.19	-30.9	-34.8	11.2	1.82e-03	0	42	0	295698432	22	5661
2026-01-12 12:30:28.63	259.09	14.22	-30.7	-34.2	11.7	8.60e-04	0	42	0	297795584	22	5378
2026-01-12 12:30:29.64	259.29	14.25	-30.6	-33.8	12.0	4.74e-04	0	42	0	299892736	22	5239
2026-01-12 12:30:30.65	259.49	14.29	-30.5	-33.6	12.1	2.88e-04	0	42	0	300941312	22	5145
2026-01-12 12:30:31.65	259.69	14.32	-30.5	-33.6	12.1	2.80e-04	0	42	0	303038464	22	5160
2026-01-12 12:30:32.66	259.89	14.35	-30.5	-33.6	12.1	2.78e-04	0	42	0	305135616	22	5138
2026-01-12 12:30:33.66	260.09	14.38	-30.5	-33.6	12.1	2.58e-04	0	42	0	307232768	22	5138
2026-01-12 12:30:34.67	260.29	14.41	-30.5	-33.5	12.1	2.49e-04	0	42	0	309329920	22	5116
2026-01-12 12:30:35.67	260.49	14.44	-30.5	-33.5	12.2	2.63e-04	0	42	0	310378496	22	5117
2026-01-12 12:30:36.68	260.69	14.47	-30.5	-33.6	12.1	2.94e-04	0	42	0	312475648	22	5147
2026-01-12 12:30:37.69	260.90	14.50	-30.7	-34.1	11.7	3.39e-04	0	42	0	314572800	22	5349
2026-01-12 12:30:38.69	261.10	14.53	-30.5	-33.7	12.0	5.51e-04	0	42	0	316669952	22	5170
2026-01-12 12:30:39.70	261.30	14.56	-30.4	-33.4	12.3	2.18e-04	0	42	0	317718528	22	5048
2026-01-12 12:30:40.71	261.50	14.58	-30.4	-33.2	12.4	1.49e-04	0	42	0	319815680	22	4998
2026-01-12 12:30:41.71	261.71	14.61	-30.4	-33.3	12.2	1.70e-04	0	42	0	321912832	22	5043
2026-01-12 12:30:42.72	261.91	14.64	-30.2	-33.3	12.6	1.43e-04	0	42	0	324009984	21	5127
2026-01-12 12:30:43.73	262.12	14.67	-30.0	-32.7	13.0	5.03e-05	0	42	0	326107136	21	4886
2026-01-12 12:30:44.74	262.32	14.69	-30.0	-32.7	13.1	3.58e-05	0	42	0	328204288	21	4889
2026-01-12 12:30:45.74	262.53	14.72	-30.0	-32.6	13.1	3.20e-05	0	42	0	329252864	21	4876
2026-01-12 12:30:46.74	262.73	14.75	-30.2	-33.3	12.6	3.96e-05	0	42	0	331350016	21	5138
2026-01-12 12:30:47.75	262.94	14.77	-30.2	-33.2	12.7	1.04e-04	0	42	0	333447168	21	5103
2026-01-12 12:30:48.76	263.14	14.80	-30.1	-32.9	12.9	7.09e-05	0	42	0	335544320	21	4962
2026-01-12 12:30:49.76	263.35	14.83	-29.9	-32.3	13.3	3.73e-05	0	42	0	336592896	21	4761
2026-01-12 12:30:50.77	263.56	14.85	-29.8	-32.1	13.4	1.67e-05	0	42	0	338690048	21	4685
2026-01-12 12:30:51.77	263.76	14.88	-29.8	-32.2	13.4	1.83e-05	0	42	0	340787200	21	4717
2026-01-12 12:30:52.77	263.97	14.90	-29.9	-32.3	13.3	1.75e-05	0	42	0	342884352	21	4755
2026-01-12 12:30:53.78	264.18	14.93	-29.9	-32.4	13.2	1.75e-05	0	42	0	344981504	21	4800
2026-01-12 12:30:54.79	264.38	14.95	-29.9	-32.3	13.3	2.59e-05	0	42	0	346030080	21	4757
2026-01-12 12:30:55.79	264.59	14.97	-29.8	-32.5	13.5	1.37e-05	0	42	0	348127232	20	4938
2026-01-12 12:30:56.80	264.80	15.00	-29.8	-32.5	13.5	1.06e-05	0	42	0	350224384	20	4943
2026-01-12 12:30:57.80	265.01	15.02	-29.9	-32.8	13.3	1.75e-05	0	42	0	352321536	20	5034
2026-01-12 12:30:58.81	265.22	15.04	-29.8	-32.6	13.4	2.51e-05	0	42	0	354418688	20	4963
2026-01-12 12:30:59.81	265.43	15.07	-29.8	-32.7	13.4	1.37e-05	0	42	0	356515840	20	4987
2026-01-12 12:31:00.81	265.64	15.09	-29.8	-32.7	13.4	1.67e-05	0	42	0	357564416	20	5015
2026-01-12 12:31:01.81	265.84	15.11	-29.9	-32.9	13.2	1.44e-05	0	42	0	359661568	20	5092
2026-01-12 12:31:02.82	266.06	15.13	-30.0	-33.1	13.1	2.74e-05	0	42	0	361758720	20	5154
2026-01-12 12:31:03.82	266.26	15.15	-30.1	-33.3	13.0	3.66e-05	0	42	0	363855872	20	5254
2026-01-12 12:31:04.83	266.48	15.17	-30.1	-33.5	12.8	6.25e-05	0	42	0	364904448	20	5294
2026-01-12 12:31:05.84	266.69	15.19	-30.3	-33.9	12.5	7.32e-05	0	42	0	367001600	20	5477
2026-01-12 12:31:06.83	266.90	15.21	-30.2	-33.8	12.7	1.30e-04	0	42	0	369098752	20	5423
2026-01-12 12:31:07.84	267.11	15.23	-30.2	-33.6	12.8	6.17e-05	0	42	0	371195904	20	5364
2026-01-12 12:31:08.84	267.32	15.25	-30.2	-33.6	12.8	5.26e-05	0	42	0	373293056	20	5349
2026-01-12 12:31:09.85	267.53	15.27	-30.2	-33.8	12.7	8.92e-05	0	42	0	374341632	20	5414
2026-01-12 12:31:10.85	267.74	15.29	-30.2	-33.7	12.7	8.62e-05	0	42	0	376438784	20	5402
2026-01-12 12:31:11.86	267.96	15.31	-30.3	-33.8	12.7	8.46e-05	0	42	0	378535936	20	5441
2026-01-12 12:31:12.86	268.17	15.33	-30.3	-34.0	12.5	9.91e-05	0	42	0	380633088	20	5521
2026-01-12 12:31:13.87	268.38	15.34	-30.2	-33.8	12.7	7.24e-05	0	42	0	382730240	20	5422
2026-01-12 12:31:14.88	268.60	15.36	-30.3	-33.9	12.6	7.62e-05	0	42	0	383778816	20	5463
2026-01-12 12:31:15.89	268.81	15.38	-30.3	-34.0	12.6	9.15e-05	0	42	0	385875968	20	5488
2026-01-12 12:31:16.90	269.03	15.39	-30.3	-33.9	12.6	8.01e-05	0	42	0	387973120	20	5474
2026-01-12 12:31:17.90	269.24	15.41	-30.3	-34.0	12.5	1.19e-04	0	42	0	390070272	20	5517
2026-01-12 12:31:18.91	269.46	15.43	-30.4	-34.2	12.4	1.14e-04	0	42	0	392167424	20	5584
2026-01-12 12:31:19.91	269.67	15.44	-30.3	-33.9	12.6	1.06e-04	0	42	0	393216000	20	5468
2026-01-12 12:31:20.92	269.89	15.46	-30.2	-33.8	12.7	6.79e-05	0	42	0	395313152	20	5420
2026-01-12 12:31:21.93	270.10	15.47	-30.3	-33.9	12.6	6.33e-05	0	42	0	397410304	20	5454
2026-01-12 12:31:22.94	270.32	15.49	-30.2	-33.6	12.8	6.79e-05	0	42	0	399507456	20	5322
2026-01-12 12:31:23.94	270.53	15.50	-30.1	-33.4	12.9	4.42e-05	0	42	0	401604608	20	5281
2026-01-12 12:31:24.94	270.75	15.51	-30.2	-33.7	12.7	5.11e-05	0	42	0	402653184	20	5398
2026-01-12 12:31:25.95	270.96	15.53	-30.3	-33.9	12.6	6.63e-05	0	42	0	404750336	20	5485
2026-01-12 12:31:26.95	271.18	15.54	-30.3	-34.1	12.6	8.23e-05	0	42	0	406847488	20	5528
2026-01-12 12:31:27.96	271.40	15.55	-30.4	-34.3	12.4	1.48e-04	0	42	0	408944640	20	5606
2026-01-12 12:31:28.96	271.61	15.56	-30.3	-34.1	12.5	1.59e-04	0	42	0	411041792	20	5533
2026-01-12 12:31:29.96	271.83	15.58	-30.3	-33.8	12.6	1.08e-04	0	42	0	412090368	20	5424
2026-01-12 12:31:30.97	272.04	15.59	-30.2	-33.7	12.8	5.95e-05	0	42	0	414187520	20	5380
2026-01-12 12:31:31.97	272.26	15.60	-30.1	-33.5	12.9	5.34e-05	0	42	0	416284672	20	5281
2026-01-12 12:31:32.98	272.48	15.61	-30.2	-33.7	12.7	5.34e-05	0	42	0	418381824	20	5390
2026-01-12 12:31:33.99	272.69	15.62	-30.1	-33.4	13.0	4.73e-05	0	42	0	420478976	20	5241
2026-01-12 12:31:34.99	272.91	15.63	-30.0	-33.1	13.2	3.20e-05	0	42	0	421527552	20	5130
2026-01-12 12:31:36.00	273.13	15.64	-30.0	-33.0	13.2	2.51e-05	0	42	0	423624704	20	5117
2026-01-12 12:31:37.00	273.35	15.65	-30.0	-33.2	13.1	3.05e-05	0	42	0	425721856	20	5191
2026-01-12 12:31:38.01	273.56	15.66	-30.1	-33.5	12.9	3.66e-05	0	42	0	427819008	20	5288
2026-01-12 12:31:39.01	273.78	15.66	-30.0	-33.1	13.2	3.35e-05	0	42	0	429916160	20	5145
2026-01-12 12:31:40.02	274.00	15.67	-30.1	-33.2	13.1	1.98e-05	0	42	0	430964736	20	5200
2026-01-12 12:31:41.02	274.22	15.68	-30.2	-33.6	12.9	4.19e-05	0	42	0	433061888	20	5330
2026-01-12 12:31:42.03	274.43	15.69	-30.1	-33.5	12.9	5.56e-05	0	42	0	435159040	20	5283
2026-01-12 12:31:43.04	274.65	15.69	-30.2	-33.5	12.9	3.96e-05	0	42	0	437256192	20	5322
2026-01-12 12:31:44.04	274.87	15.70	-30.2	-33.7	12.7	6.25e-05	0	42	0	439353344	20	5397
2026-01-12 12:31:45.05	275.09	15.71	-30.1	-33.4	12.9	4.73e-05	0	42	0	440401920	20	5273
2026-01-12 12:31:46.06	275.31	15.71	-30.1	-33.5	12.9	3.73e-05	0	42	0	442499072	20	5309
2026-01-12 12:31:47.06	275.53	15.72	-30.1	-33.5	12.9	4.80e-05	0	42	0	444596224	20	5299
2026-01-12 12:31:48.06	275.74	15.72	-30.2	-33.7	12.8	5.64e-05	0	42	0	446693376	20	5385
2026-01-12 12:31:49.07	275.96	15.72	-30.1	-33.4	12.9	5.18e-05	0	42	0	448790528	20	5273
2026-01-12 12:31:50.08	276.18	15.73	-30.1	-33.5	12.9	5.34e-05	0	42	0	449839104	20	5297
2026-01-12 12:31:51.08	276.40	15.73	-30.1	-33.5	12.9	4.73e-05	0	42	0	451936256	20	5302
2026-01-12 12:31:52.09	276.62	15.74	-30.0	-33.2	13.1	4.42e-05	0	42	0	454033408	20	5208
2026-01-12 12:31:53.10	276.84	15.74	-30.0	-33.2	13.1	2.74e-05	0	42	0	456130560	20	5192
2026-01-12 12:31:54.10	277.06	15.74	-30.0	-33.2	13.1	2.82e-05	0	42	0	458227712	20	5174
2026-01-12 12:31:55.11	277.28	15.74	-30.0	-33.2	13.1	2.74e-05	0	42	0	459276288	20	5199
2026-01-12 12:31:56.12	277.50	15.74	-30.2	-33.6	12.8	4.95e-05	0	42	0	461373440	20	5337
2026-01-12 12:31:57.12	277.71	15.75	-30.1	-33.3	13.0	3.58e-05	0	42	0	463470592	20	5219
2026-01-12 12:31:58.13	277.93	15.75	-30.1	-33.5	12.9	4.80e-05	0	42	0	465567744	20	5309
2026-01-12 12:31:59.14	278.15	15.75	-30.0	-33.1	13.1	2.51e-05	0	42	0	467664896	20	5170
2026-01-12 12:32:00.14	278.37	15.75	-29.9	-33.0	13.3	2.13e-05	0	42	0	468713472	20	5102
2026-01-12 12:32:01.15	278.59	15.75	-30.0	-33.2	13.1	2.89e-05	0	42	0	470810624	20	5180
2026-01-12 12:32:02.16	278.81	15.75	-30.0	-33.1	13.2	2.28e-05	0	42	0	472907776	20	5150
2026-01-12 12:32:03.16	279.03	15.74	-30.0	-33.2	13.1	1.90e-05	0	42	0	475004928	20	5179
2026-01-12 12:32:04.17	279.25	15.74	-30.2	-33.6	12.8	6.79e-05	0	42	0	477102080	20	5351
2026-01-12 12:32:05.17	279.47	15.74	-30.4	-34.3	12.4	1.20e-04	0	42	0	478150656	20	5614
2026-01-12 12:32:06.18	279.68	15.74	-30.3	-33.8	12.7	1.11e-04	0	42	0	480247808	20	5436
2026-01-12 12:32:07.19	279.90	15.74	-30.2	-33.6	12.8	6.17e-05	0	42	0	482344960	20	5340
2026-01-12 12:32:08.19	280.12	15.73	-30.1	-33.4	13.0	5.18e-05	0	42	0	484442112	20	5247
2026-01-12 12:32:09.20	280.34	15.73	-29.9	-32.8	13.3	2.67e-05	0	42	0	486539264	20	5052
2026-01-12 12:32:10.20	280.56	15.73	-29.9	-32.9	13.3	1.44e-05	0	42	0	487587840	20	5061
2026-01-12 12:32:11.21	280.78	15.72	-29.9	-32.7	13.4	1.60e-05	0	42	0	489684992	20	5014
2026-01-12 12:32:12.22	281.00	15.72	-30.0	-33.1	13.2	2.36e-05	0	42	0	491782144	20	5127
2026-01-12 12:32:13.22	281.21	15.71	-29.8	-32.5	13.5	1.52e-05	0	42	0	493879296	20	4937
2026-01-12 12:32:14.22	281.43	15.71	-29.7	-32.3	13.7	4.50e-06	0	42	0	495976448	20	4870
2026-01-12 12:32:15.23	281.65	15.70	-29.7	-32.4	13.7	6.80e-06	0	42	0	497025024	20	4882
2026-01-12 12:32:16.24	281.87	15.69	-29.8	-32.6	13.5	1.06e-05	0	42	0	499122176	20	4958
2026-01-12 12:32:17.24	282.09	15.69	-29.8	-32.6	13.5	6.10e-06	0	42	0	501219328	20	4963
2026-01-12 12:32:18.26	282.31	15.68	-29.8	-32.6	13.5	6.80e-06	0	42	0	503316480	20	4955
2026-01-12 12:32:19.26	282.52	15.67	-29.8	-32.6	13.4	6.10e-06	0	42	0	505413632	20	4979
2026-01-12 12:32:20.27	282.74	15.67	-29.9	-32.8	13.4	1.22e-05	0	42	0	506462208	20	5035
2026-01-12 12:32:21.27	282.96	15.66	-29.8	-32.5	13.5	8.30e-06	0	42	0	508559360	20	4919
2026-01-12 12:32:22.28	283.18	15.65	-29.9	-32.8	13.4	6.10e-06	0	42	0	510656512	20	5021
2026-01-12 12:32:23.29	283.39	15.64	-29.9	-32.9	13.3	1.60e-05	0	42	0	512753664	20	5059
2026-01-12 12:32:24.30	283.61	15.63	-29.8	-32.7	13.5	8.30e-06	0	42	0	514850816	20	4996
2026-01-12 12:32:25.30	283.83	15.62	-29.8	-32.7	13.4	1.60e-05	0	42	0	515899392	20	4995
2026-01-12 12:32:26.31	284.05	15.61	-29.9	-32.9	13.3	1.90e-05	0	42	0	517996544	20	5080
2026-01-12 12:32:27.31	284.26	15.60	-29.9	-32.9	13.3	1.67e-05	0	42	0	520093696	20	5069
2026-01-12 12:32:28.30	284.48	15.59	-29.9	-32.9	13.2	1.37e-05	0	42	0	522190848	20	5083
2026-01-12 12:32:29.30	284.69	15.58	-29.8	-32.6	13.5	1.44e-05	0	42	0	524288000	20	4958
2026-01-12 12:32:30.31	284.91	15.57	-29.8	-32.6	13.5	6.10e-06	0	42	0	525336576	20	4949
2026-01-12 12:32:31.32	285.12	15.56	-29.8	-32.5	13.5	1.44e-05	0	42	0	527433728	20	4939
2026-01-12 12:32:32.32	285.34	15.54	-29.8	-32.5	13.6	1.22e-05	0	42	0	529530880	20	4905
2026-01-12 12:32:33.33	285.56	15.53	-29.8	-32.4	13.7	4.50e-06	0	42	0	531628032	20	4890
2026-01-12 12:32:34.34	285.77	15.52	-29.8	-32.6	13.5	7.60e-06	0	42	0	533725184	20	4952
2026-01-12 12:32:35.35	285.99	15.50	-29.9	-32.7	13.4	1.06e-05	0	42	0	534773760	20	4989
2026-01-12 12:32:36.35	286.20	15.49	-29.9	-32.8	13.4	1.44e-05	0	42	0	536870912	20	5015
2026-01-12 12:32:37.36	286.42	15.48	-29.9	-32.9	13.3	1.52e-05	0	42	0	538968064	20	5073
2026-01-12 12:32:38.36	286.63	15.46	-29.9	-32.9	13.3	1.75e-05	0	42	0	541065216	20	5084
2026-01-12 12:32:39.37	286.85	15.45	-29.9	-32.8	13.4	1.44e-05	0	42	0	543162368	20	5039
2026-01-12 12:32:40.37	287.06	15.43	-29.9	-32.7	13.4	1.06e-05	0	42	0	544210944	20	4995
2026-01-12 12:32:41.38	287.27	15.42	-29.8	-32.7	13.4	1.37e-05	0	42	0	546308096	20	4978
2026-01-12 12:32:42.38	287.49	15.40	-29.9	-32.7	13.4	1.60e-05	0	42	0	548405248	20	5003
2026-01-12 12:32:43.38	287.70	15.38	-29.8	-32.6	13.5	1.90e-05	0	42	0	550502400	20	4967
2026-01-12 12:32:44.39	287.91	15.37	-29.9	-32.7	13.4	6.80e-06	0	42	0	551550976	20	4986
2026-01-12 12:32:45.39	288.13	15.35	-30.0	-33.1	13.2	2.51e-05	0	42	0	553648128	20	5150
2026-01-12 12:32:46.40	288.34	15.33	-29.9	-32.9	13.3	1.98e-05	0	42	0	555745280	20	5082
2026-01-12 12:32:47.41	288.55	15.31	-30.1	-33.3	13.1	3.50e-05	0	42	0	557842432	20	5221
2026-01-12 12:32:48.42	288.77	15.30	-30.0	-33.1	13.1	4.73e-05	0	42	0	559939584	20	5162
2026-01-12 12:32:49.42	288.98	15.28	-29.9	-32.8	13.4	1.75e-05	0	42	0	562036736	20	5044
2026-01-12 12:32:50.43	289.19	15.26	-29.8	-32.6	13.5	1.06e-05	0	42	0	563085312	20	4963
2026-01-12 12:32:51.43	289.40	15.24	-29.7	-32.4	13.6	1.06e-05	0	42	0	565182464	20	4875
2026-01-12 12:32:52.44	289.61	15.22	-29.7	-32.3	13.7	8.30e-06	0	42	0	567279616	20	4862
2026-01-12 12:32:53.45	289.82	15.20	-29.7	-32.4	13.6	3.80e-06	0	42	0	569376768	20	4883
2026-01-12 12:32:54.45	290.03	15.18	-29.8	-32.6	13.5	1.52e-05	0	42	0	571473920	20	4941
2026-01-12 12:32:55.46	290.25	15.16	-29.7	-32.2	13.8	6.80e-06	0	42	0	572522496	20	4813
2026-01-12 12:32:56.47	290.46	15.14	-29.7	-32.3	13.7	6.10e-06	0	42	0	574619648	20	4835
2026-01-12 12:32:57.47	290.67	15.12	-29.7	-32.3	13.7	1.22e-05	0	42	0	576716800	20	4864
2026-01-12 12:32:58.47	290.87	15.09	-29.8	-32.5	13.6	3.80e-06	0	42	0	578813952	20	4933
2026-01-12 12:32:59.48	291.08	15.07	-29.8	-32.6	13.5	1.60e-05	0	42	0	579862528	20	4948
2026-01-12 12:33:00.49	291.29	15.05	-29.8	-32.6	13.5	1.44e-05	0	42	0	581959680	20	4957
2026-01-12 12:33:01.50	291.50	15.03	-29.8	-32.5	13.6	9.10e-06	0	42	0	584056832	20	4909
2026-01-12 12:33:02.51	291.71	15.00	-29.8	-32.5	13.6	9.10e-06	0	42	0	586153984	20	4916
2026-01-12 12:33:03.52	291.92	14.98	-29.7	-32.4	13.6	9.90e-06	0	42	0	588251136	20	4883
2026-01-12 12:33:04.52	292.13	14.96	-29.5	-31.9	13.9	4.50e-06	0	42	0	590348288	20	4715
2026-01-12 12:33:05.52	292.33	14.93	-29.5	-31.8	13.9	5.30e-06	0	42	0	591396864	20	4696
2026-01-12 12:33:06.53	292.54	14.91	-29.5	-31.7	14.1	1.50e-06	0	42	0	593494016	20	4635
2026-01-12 12:33:07.54	292.75	14.89	-29.5	-31.7	14.1	3.00e-06	0	42	0	595591168	20	4636
2026-01-12 12:33:08.54	292.95	14.86	-29.3	-31.3	14.4	1.50e-06	0	42	0	597688320	20	4521
2026-01-12 12:33:09.55	293.16	14.83	-29.3	-31.3	14.3	7.00e-07	0	42	0	599785472	20	4504
2026-01-12 12:33:10.55	293.37	14.81	-29.3	-31.2	14.3	0.00e+00	0	42	0	600834048	20	4500
2026-01-12 12:33:11.56	293.57	14.78	-29.3	-31.7	14.4	7.00e-07	0	42	0	602931200	19	4758
2026-01-12 12:33:12.57	293.78	14.76	-29.4	-31.9	14.4	0.00e+00	0	42	0	605028352	19	4805
2026-01-12 12:33:13.58	293.98	14.73	-29.5	-32.2	14.1	7.00e-07	0	42	0	607125504	19	4915
2026-01-12 12:33:14.58	294.19	14.70	-29.6	-32.5	13.9	3.80e-06	0	42	0	608174080	19	5031
2026-01-12 12:33:15.59	294.39	14.68	-29.7	-32.6	13.9	4.50e-06	0	42	0	610271232	19	5062
2026-01-12 12:33:16.59	294.59	14.65	-29.7	-32.8	13.8	2.20e-06	0	42	0	612368384	19	5124
2026-01-12 12:33:17.60	294.80	14.62	-29.7	-32.7	13.8	4.50e-06	0	42	0	614465536	19	5100
2026-01-12 12:33:18.61	295.00	14.59	-29.7	-32.6	13.8	3.00e-06	0	42	0	616562688	19	5067
2026-01-12 12:33:19.62	295.20	14.57	-29.7	-32.7	13.8	7.00e-07	0	42	0	618659840	19	5103
2026-01-12 12:33:20.62	295.41	14.54	-29.6	-32.4	14.0	1.50e-06	0	42	0	619708416	19	4998
2026-01-12 12:33:21.63	295.61	14.51	-29.6	-32.4	14.0	3.00e-06	0	42	0	621805568	19	4974
2026-01-12 12:33:22.63	295.81	14.48	-29.5	-32.1	14.2	1.50e-06	0	42	0	623902720	19	4891
2026-01-12 12:33:23.64	296.01	14.45	-29.4	-31.9	14.3	7.00e-07	0	42	0	625999872	19	4794
2026-01-12 12:33:24.64	296.21	14.42	-29.4	-32.0	14.2	0.00e+00	0	42	0	627048448	19	4850
2026-01-12 12:33:25.65	296.41	14.39	-29.3	-31.8	14.3	7.00e-07	0	42	0	629145600	19	4777
2026-01-12 12:33:26.65	296.61	14.36	-29.3	-31.6	14.5	7.00e-07	0	42	0	631242752	19	4700
2026-01-12 12:33:27.66	296.81	14.33	-29.3	-31.8	14.4	1.50e-06	0	42	0	633339904	19	4781
2026-01-12 12:33:28.67	297.01	14.30	-29.4	-31.8	14.3	7.00e-07	0	42	0	635437056	19	4784
2026-01-12 12:33:29.67	297.21	14.27	-29.4	-31.8	14.3	0.00e+00	0	42	0	636485632	19	4796
2026-01-12 12:33:30.68	297.40	14.24	-29.6	-32.4	14.0	1.50e-06	0	42	0	638582784	19	5005
2026-01-12 12:33:31.69	297.60	14.20	-29.6	-32.5	13.9	7.60e-06	0	42	0	640679936	19	5007
2026-01-12 12:33:32.69	297.80	14.17	-29.4	-32.0	14.2	3.00e-06	0	42	0	642777088	19	4854
2026-01-12 12:33:33.70	298.00	14.14	-29.4	-32.0	14.2	7.00e-07	0	42	0	644874240	19	4851
2026-01-12 12:33:34.70	298.19	14.11	-29.5	-32.3	14.1	7.00e-07	0	42	0	646971392	19	4939
2026-01-12 12:33:35.70	298.39	14.07	-29.6	-32.5	13.9	2.20e-06	0	42	0	648019968	19	5040
2026-01-12 12:33:36.71	298.58	14.04	-29.6	-32.5	13.9	3.80e-06	0	42	0	650117120	19	5030
2026-01-12 12:33:37.72	298.78	14.01	-29.6	-32.5	13.9	5.30e-06	0	42	0	652214272	19	5026
2026-01-12 12:33:38.73	298.97	13.97	-29.6	-32.6	13.8	2.20e-06	0	42	0	654311424	19	5060
2026-01-12 12:33:39.74	299.17	13.94	-29.8	-33.0	13.6	4.50e-06	0	42	0	655360000	19	5205
2026-01-12 12:33:40.74	299.36	13.91	-29.6	-32.6	13.8	1.37e-05	0	42	0	657457152	19	5061
2026-01-12 12:33:41.74	299.55	13.87	-29.5	-32.3	14.0	3.80e-06	0	42	0	659554304	19	4956
2026-01-12 12:33:42.75	299.75	13.84	-29.7	-32.9	13.6	3.00e-06	0	42	0	661651456	19	5166
2026-01-12 12:33:43.75	299.94	13.80	-29.7	-32.7	13.7	8.30e-06	0	42	0	663748608	19	5116
2026-01-12 12:33:44.76	300.13	13.77	-29.6	-32.4	13.9	5.30e-06	0	42	0	664797184	19	5006
2026-01-12 12:33:45.76	300.32	13.73	-29.5	-32.2	14.1	4.50e-06	0	42	0	666894336	19	4918
2026-01-12 12:33:46.76	300.51	13.70	-29.4	-32.1	14.1	2.20e-06	0	42	0	668991488	19	4877
2026-01-12 12:33:47.76	300.70	13.66	-29.5	-32.3	14.0	7.00e-07	0	42	0	671088640	19	4959
2026-01-12 12:33:48.77	300.89	13.63	-29.5	-32.3	14.0	4.50e-06	0	42	0	673185792	19	4966
2026-01-12 12:33:49.78	301.08	13.59	-29.8	-33.0	13.6	3.00e-06	0	42	0	674234368	19	5207
2026-01-12 12:33:50.79	301.27	13.55	-29.7	-32.9	13.6	1.44e-05	0	42	0	676331520	19	5188
2026-01-12 12:33:51.80	301.46	13.52	-30.0	-33.5	13.2	1.14e-05	0	42	0	678428672	19	5429
2026-01-12 12:33:52.80	301.65	13.48	-29.9	-32.9	13.2	2.36e-05	0	42	0	680525824	20	5074
2026-01-12 12:33:53.81	301.84	13.44	-29.8	-32.6	13.4	2.97e-05	0	42	0	682622976	20	4979
2026-01-12 12:33:54.82	302.03	13.40	-29.8	-32.7	13.3	2.05e-05	0	42	0	683671552	20	5014
2026-01-12 12:33:55.82	302.21	13.37	-29.8	-32.6	13.4	1.60e-05	0	42	0	685768704	20	4971
2026-01-12 12:33:56.83	302.40	13.33	-29.8	-32.7	13.3	2.05e-05	0	42	0	687865856	20	5025
2026-01-12 12:33:57.83	302.59	13.29	-29.9	-32.9	13.2	1.98e-05	0	42	0	689963008	20	5085
2026-01-12 12:33:58.84	302.77	13.25	-29.9	-32.9	13.2	2.82e-05	0	42	0	692060160	20	5091
2026-01-12 12:33:59.85	302.96	13.21	-30.0	-33.2	13.0	3.35e-05	0	42	0	693108736	20	5210
2026-01-12 12:34:00.86	303.14	13.17	-30.0	-33.1	13.0	3.73e-05	0	42	0	695205888	20	5179
2026-01-12 12:34:01.87	303.33	13.14	-30.0	-33.1	13.0	3.50e-05	0	42	0	697303040	20	5174
2026-01-12 12:34:02.88	303.51	13.10	-30.0	-33.2	13.0	3.66e-05	0	42	0	699400192	20	5188
2026-01-12 12:34:03.88	303.70	13.06	-30.0	-33.1	13.0	3.05e-05	0	42	0	701497344	20	5144
2026-01-12 12:34:04.89	303.88	13.02	-30.0	-33.0	13.1	2.89e-05	0	42	0	702545920	20	5141
2026-01-12 12:34:05.90	304.06	12.98	-29.9	-33.0	13.1	2.44e-05	0	42	0	704643072	20	5133
2026-01-12 12:34:06.90	304.24	12.94	-30.0	-33.0	13.1	2.59e-05	0	42	0	706740224	20	5138
2026-01-12 12:34:07.91	304.43	12.90	-30.0	-33.3	12.9	3.12e-05	0	42	0	708837376	20	5241
2026-01-12 12:34:08.92	304.61	12.86	-30.0	-33.1	13.0	4.04e-05	0	42	0	710934528	20	5147
2026-01-12 12:34:09.92	304.79	12.82	-30.0	-33.3	12.9	4.65e-05	0	42	0	711983104	20	5248
2026-01-12 12:34:10.93	304.97	12.78	-30.0	-33.2	12.9	4.04e-05	0	42	0	714080256	20	5200
2026-01-12 12:34:11.93	305.14	12.74	-30.2	-33.7	12.6	6.48e-05	0	42	0	716177408	20	5382
2026-01-12 12:34:12.94	305.32	12.70	-30.2	-33.7	12.6	1.22e-04	0	42	0	718274560	20	5417
2026-01-12 12:34:13.95	305.50	12.65	-30.4	-34.4	12.2	2.04e-04	0	42	0	720371712	20	5693
2026-01-12 12:34:14.95	305.68	12.61	-30.5	-34.2	11.9	3.78e-04	0	42	0	721420288	21	5519
2026-01-12 12:34:15.95	305.86	12.57	-30.8	-35.1	11.3	6.51e-04	0	42	0	723517440	21	5890
2026-01-12 12:34:16.96	306.03	12.53	-30.8	-35.1	11.3	1.32e-03	0	42	0	725614592	21	5894
2026-01-12 12:34:17.96	306.21	12.49	-30.9	-35.6	10.9	1.86e-03	0	42	0	727711744	21	6148
2026-01-12 12:34:18.97	306.39	12.45	-30.9	-35.5	11.0	2.36e-03	0	42	0	729808896	21	6095
2026-01-12 12:34:19.97	306.56	12.40	-31.1	-35.5	10.6	2.88e-03	0	42	0	730857472	22	5994
2026-01-12 12:34:20.97	306.74	12.36	-31.3	-36.2	10.1	4.84e-03	0	42	0	732954624	22	6357
2026-01-12 12:34:21.98	306.91	12.32	-31.2	-35.8	10.3	5.95e-03	0	42	0	735051776	22	6163
2026-01-12 12:34:22.99	307.09	12.28	-31.2	-36.1	10.2	5.36e-03	0	42	0	737148928	22	6289
2026-01-12 12:34:24.00	307.26	12.23	-31.4	-36.5	9.8	8.66e-03	0	42	0	739246080	22	6531
2026-01-12 12:34:25.01	307.43	12.19	-31.3	-36.4	9.9	9.30e-03	0	42	0	740294656	22	6458
2026-01-12 12:34:26.02	307.61	12.15	-31.4	-36.7	9.7	9.48e-03	0	42	0	742391808	22	6613
2026-01-12 12:34:27.02	307.78	12.10	-31.4	-36.8	9.6	1.20e-02	0	42	0	744488960	22	6668
2026-01-12 12:34:28.02	307.95	12.06	-31.2	-36.0	10.2	8.47e-03	0	42	0	746586112	22	6248
2026-01-12 12:34:29.03	308.12	12.02	-31.1	-35.5	10.6	4.37e-03	0	42	0	748683264	22	5971
2026-01-12 12:34:30.03	308.29	11.97	-30.9	-34.8	11.1	1.79e-03	0	42	0	749731840	22	5669
2026-01-12 12:34:31.04	308.46	11.93	-30.8	-34.6	11.3	1.25e-03	0	42	0	751828992	22	5577
2026-01-12 12:34:32.04	308.63	11.88	-30.8	-34.7	11.2	1.25e-03	0	42	0	753926144	22	5616
2026-01-12 12:34:33.05	308.80	11.84	-30.7	-34.2	11.6	7.79e-04	0	42	0	756023296	22	5393
2026-01-12 12:34:34.05	308.97	11.80	-30.6	-34.0	11.7	6.16e-04	0	42	0	758120448	22	5334
2026-01-12 12:34:35.06	309.13	11.75	-30.7	-34.2	11.5	6.10e-04	0	42	0	759169024	22	5414
2026-01-12 12:34:36.06	309.30	11.71	-30.8	-34.7	11.2	9.47e-04	0	42	0	761266176	22	5613
2026-01-12 12:34:37.07	309.47	11.66	-30.9	-35.0	10.9	1.81e-03	0	42	0	763363328	22	5778
2026-01-12 12:34:38.07	309.63	11.62	-30.9	-35.0	10.9	1.99e-03	0	42	0	765460480	22	5772
2026-01-12 12:34:39.08	309.80	11.57	-31.0	-35.4	10.7	2.57e-03	0	42	0	767557632	22	5930
2026-01-12 12:34:40.08	309.97	11.53	-31.1	-35.5	10.5	3.32e-03	0	42	0	768606208	22	6011
2026-01-12 12:34:41.08	310.13	11.48	-31.2	-36.1	10.1	5.54e-03	0	42	0	770703360	22	6325
2026-01-12 12:34:42.09	310.30	11.44	-31.2	-36.0	10.2	6.75e-03	0	42	0	772800512	22	6267
2026-01-12 12:34:43.10	310.46	11.39	-31.4	-36.9	9.5	1.36e-02	0	42	0	774897664	22	6748
2026-01-12 12:34:44.10	310.62	11.35	-31.5	-37.0	9.4	1.32e-02	0	42	0	776994816	22	6773
2026-01-12 12:34:45.11	310.79	11.30	-31.5	-36.6	9.3	1.66e-02	0	42	0	778043392	23	6485
2026-01-12 12:34:46.10	310.95	11.25	-31.3	-35.9	9.8	1.43e-02	0	42	0	780140544	23	6110
2026-01-12 12:34:47.11	311.11	11.21	-31.2	-35.4	10.2	6.94e-03	0	42	0	782237696	23	5878
2026-01-12 12:34:48.11	311.27	11.16	-31.1	-35.1	10.5	4.44e-03	0	42	0	784334848	23	5688
2026-01-12 12:34:49.11	311.43	11.12	-31.0	-34.8	10.7	3.47e-03	0	42	0	786432000	23	5564
2026-01-12 12:34:50.11	311.59	11.07	-31.0	-34.8	10.7	2.96e-03	0	42	0	787480576	23	5557
2026-01-12 12:34:51.12	311.75	11.02	-30.9	-34.4	11.0	2.25e-03	0	42	0	789577728	23	5401
2026-01-12 12:34:52.12	311.91	10.98	-30.8	-34.2	11.2	1.67e-03	0	42	0	791674880	23	5289
2026-01-12 12:34:53.13	312.07	10.93	-30.8	-34.1	11.2	1.51e-03	0	42	0	793772032	23	5296
2026-01-12 12:34:54.14	312.23	10.88	-30.8	-34.1	11.2	1.46e-03	0	42	0	794820608	23	5259
2026-01-12 12:34:55.14	312.39	10.84	-30.8	-34.6	11.2	1.32e-03	0	42	0	796917760	22	5601
2026-01-12 12:34:56.15	312.54	10.79	-30.8	-34.7	11.2	1.55e-03	0	42	0	799014912	22	5619
2026-01-12 12:34:57.16	312.70	10.74	-30.7	-34.3	11.4	1.21e-03	0	42	0	801112064	22	5454
2026-01-12 12:34:58.16	312.86	10.70	-30.6	-34.0	11.5	8.29e-04	0	42	0	803209216	22	5352
2026-01-12 12:34:59.17	313.01	10.65	-30.6	-34.1	11.5	7.41e-04	0	42	0	805306368	22	5358
2026-01-12 12:35:00.18	313.17	10.60	-30.6	-34.1	11.5	8.15e-04	0	42	0	806354944	22	5372
2026-01-12 12:35:01.19	313.33	10.55	-30.7	-34.3	11.4	1.05e-03	0	42	0	808452096	22	5446
2026-01-12 12:35:02.19	313.48	10.51	-30.4	-33.6	11.9	6.18e-04	0	42	0	810549248	22	5160
2026-01-12 12:35:03.19	313.63	10.46	-30.3	-33.5	12.2	3.23e-04	0	42	0	812646400	21	5240
2026-01-12 12:35:04.20	313.79	10.41	-30.2	-33.3	12.3	1.52e-04	0	42	0	814743552	21	5173
2026-01-12 12:35:05.19	313.94	10.36	-30.3	-33.8	12.0	2.30e-04	0	42	0	815792128	21	5364
2026-01-12 12:35:06.20	314.09	10.32	-30.4	-34.1	11.8	3.58e-04	0	42	0	817889280	21	5476
2026-01-12 12:35:07.21	314.25	10.27	-30.4	-34.1	11.8	4.55e-04	0	42	0	819986432	21	5489
2026-01-12 12:35:08.21	314.40	10.22	-30.6	-34.5	11.5	7.22e-04	0	42	0	822083584	21	5678
2026-01-12 12:35:09.22	314.55	10.17	-30.6	-34.5	11.5	7.71e-04	0	42	0	823132160	21	5652
2026-01-12 12:35:10.23	314.70	10.12	-30.6	-34.7	11.3	1.09e-03	0	42	0	825229312	21	5776
2026-01-12 12:35:11.23	314.85	10.08	-30.6	-34.8	11.3	1.18e-03	0	42	0	827326464	21	5792
2026-01-12 12:35:12.23	315.00	10.03	-30.7	-35.1	11.1	1.42e-03	0	42	0	829423616	21	5927
2026-01-12 12:35:13.24	315.15	9.98	-30.7	-35.0	11.1	1.51e-03	0	42	0	831520768	21	5914
2026-01-12 12:35:14.24	315.30	9.93	-30.8	-35.2	11.0	2.33e-03	0	42	0	832569344	21	6013
2026-01-12 12:35:15.25	315.45	9.88	-30.7	-34.9	11.2	1.47e-03	0	42	0	834666496	21	5847
2026-01-12 12:35:16.25	315.59	9.83	-30.6	-34.7	11.4	1.15e-03	0	42	0	836763648	21	5745
2026-01-12 12:35:17.26	315.74	9.78	-30.6	-34.7	11.3	1.06e-03	0	42	0	838860800	21	5760
2026-01-12 12:35:18.26	315.89	9.74	-30.6	-34.7	11.3	1.13e-03	0	42	0	840957952	21	5776
2026-01-12 12:35:19.27	316.03	9.69	-30.6	-34.6	11.4	1.07e-03	0	42	0	842006528	21	5705
2026-01-12 12:35:20.28	316.18	9.64	-30.5	-34.4	11.5	9.01e-04	0	42	0	844103680	21	5617
2026-01-12 12:35:21.28	316.33	9.59	-30.3	-33.8	11.9	5.16e-04	0	42	0	846200832	21	5366
2026-01-12 12:35:22.29	316.47	9.54	-30.1	-33.2	12.4	2.37e-04	0	42	0	848297984	21	5123
2026-01-12 12:35:23.29	316.62	9.49	-30.1	-33.0	12.5	1.24e-04	0	42	0	850395136	21	5065
2026-01-12 12:35:24.30	316.76	9.44	-30.0	-32.8	12.6	9.76e-05	0	42	0	851443712	21	4981
2026-01-12 12:35:25.30	316.90	9.39	-30.0	-32.7	12.7	9.00e-05	0	42	0	853540864	21	4943
2026-01-12 12:35:26.31	317.05	9.34	-30.0	-32.9	12.5	1.04e-04	0	42	0	855638016	21	5027
2026-01-12 12:35:27.32	317.19	9.29	-29.9	-32.7	12.7	7.78e-05	0	42	0	857735168	21	4917
2026-01-12 12:35:28.32	317.33	9.24	-30.1	-33.0	12.5	7.47e-05	0	42	0	859832320	21	5044
2026-01-12 12:35:29.32	317.47	9.20	-30.1	-33.1	12.4	1.46e-04	0	42	0	860880896	21	5100
2026-01-12 12:35:30.33	317.61	9.15	-30.1	-33.2	12.3	1.71e-04	0	42	0	862978048	21	5133
2026-01-12 12:35:31.34	317.76	9.10	-30.3	-33.6	12.1	2.49e-04	0	42	0	865075200	21	5297
2026-01-12 12:35:32.35	317.90	9.05	-30.3	-33.7	12.0	4.44e-04	0	42	0	867172352	21	5315
2026-01-12 12:35:33.35	318.04	9.00	-30.2	-33.6	12.1	2.89e-04	0	42	0	869269504	21	5276
2026-01-12 12:35:34.35	318.18	8.95	-30.1	-33.2	12.3	2.14e-04	0	42	0	870318080	21	5150
2026-01-12 12:35:35.36	318.31	8.90	-30.1	-33.2	12.3	1.72e-04	0	42	0	872415232	21	5140
2026-01-12 12:35:36.36	318.45	8.85	-30.1	-33.1	12.3	1.62e-04	0	42	0	874512384	21	5113
2026-01-12 12:35:37.36	318.59	8.80	-30.1	-33.1	12.4	1.71e-04	0	42	0	876609536	21	5099
2026-01-12 12:35:38.37	318.73	8.75	-30.1	-33.2	12.3	1.69e-04	0	42	0	878706688	21	5150
2026-01-12 12:35:39.37	318.86	8.70	-30.1	-33.0	12.4	2.17e-04	0	42	0	879755264	21	5074
2026-01-12 12:35:40.38	319.00	8.65	-30.1	-33.2	12.3	1.46e-04	0	42	0	881852416	21	5124
2026-01-12 12:35:41.38	319.14	8.60	-30.1	-33.2	12.3	1.87e-04	0	42	0	883949568	21	5130
2026-01-12 12:35:42.39	319.27	8.55	-30.2	-33.5	12.1	2.19e-04	0	42	0	886046720	21	5262
2026-01-12 12:35:43.39	319.41	8.50	-30.3	-33.9	11.8	3.99e-04	0	42	0	888143872	21	5434
2026-01-12 12:35:44.40	319.54	8.45	-30.3	-33.8	11.8	3.87e-04	0	42	0	889192448	21	5388
2026-01-12 12:35:45.40	319.68	8.40	-30.3	-34.0	11.6	5.68e-04	0	42	0	891289600	21	5503
2026-01-12 12:35:46.41	319.81	8.35	-30.4	-34.2	11.6	6.50e-04	0	42	0	893386752	21	5541
2026-01-12 12:35:47.42	319.95	8.30	-30.3	-33.8	11.8	4.90e-04	0	42	0	895483904	21	5386
2026-01-12 12:35:48.43	320.08	8.25	-30.2	-33.6	12.0	3.89e-04	0	42	0	897581056	21	5305
2026-01-12 12:35:49.43	320.21	8.20	-30.2	-33.6	12.0	5.11e-04	0	42	0	898629632	21	5303
2026-01-12 12:35:50.44	320.35	8.15	-30.3	-33.7	11.9	4.20e-04	0	42	0	900726784	21	5340
2026-01-12 12:35:51.45	320.48	8.10	-30.3	-33.7	11.9	3.26e-04	0	42	0	902823936	21	5336
2026-01-12 12:35:52.46	320.61	8.05	-30.2	-33.6	11.9	4.54e-04	0	42	0	904921088	21	5311
2026-01-12 12:35:53.46	320.74	8.00	-30.3	-33.8	11.8	4.00e-04	0	42	0	907018240	21	5388
2026-01-12 12:35:54.47	320.87	7.95	-30.3	-33.8	11.8	6.61e-04	0	42	0	908066816	21	5397
2026-01-12 12:35:55.47	321.00	7.90	-30.3	-33.8	11.8	5.32e-04	0	42	0	910163968	21	5375
2026-01-12 12:35:56.48	321.13	7.85	-30.3	-33.7	11.9	3.94e-04	0	42	0	912261120	21	5357
2026-01-12 12:35:57.49	321.26	7.79	-30.3	-33.8	11.8	4.80e-04	0	42	0	914358272	21	5415
2026-01-12 12:35:58.49	321.39	7.74	-30.2	-33.7	11.9	4.85e-04	0	42	0	916455424	21	5335
2026-01-12 12:35:59.49	321.52	7.69	-30.2	-33.6	11.9	3.86e-04	0	42	0	917504000	21	5322
2026-01-12 12:36:00.50	321.65	7.64	-30.3	-33.8	11.8	5.84e-04	0	42	0	919601152	21	5396
2026-01-12 12:36:01.50	321.77	7.59	-30.2	-33.6	11.9	3.89e-04	0	42	0	921698304	21	5322
2026-01-12 12:36:02.51	321.90	7.54	-30.2	-33.6	11.9	4.52e-04	0	42	0	923795456	21	5299
2026-01-12 12:36:03.52	322.03	7.49	-30.1	-33.4	12.1	2.65e-04	0	42	0	925892608	21	5224
2026-01-12 12:36:04.53	322.15	7.44	-30.1	-33.3	12.1	3.02e-04	0	42	0	926941184	21	5198
2026-01-12 12:36:05.53	322.28	7.39	-30.1	-33.4	12.0	4.36e-04	0	42	0	929038336	21	5244
2026-01-12 12:36:06.54	322.41	7.34	-30.1	-33.4	12.0	2.99e-04	0	42	0	931135488	21	5230
2026-01-12 12:36:07.55	322.53	7.29	-30.2	-33.5	11.9	2.82e-04	0	42	0	933232640	21	5296
2026-01-12 12:36:08.55	322.65	7.24	-30.2	-33.6	11.9	3.35e-04	0	42	0	935329792	21	5316
2026-01-12 12:36:09.56	322.78	7.19	-30.2	-33.5	12.0	3.73e-04	0	42	0	936378368	21	5267
2026-01-12 12:36:10.57	322.90	7.14	-30.3	-33.8	11.7	5.94e-04	0	42	0	938475520	21	5422
2026-01-12 12:36:11.58	323.03	7.09	-30.4	-34.1	11.5	6.45e-04	0	42	0	940572672	21	5529
2026-01-12 12:36:12.58	323.15	7.04	-32.9	-46.8	3.8	1.31e-03	0	42	104	942669824	25	17676
2026-01-12 12:36:13.59	323.27	6.99	-33.3	-47.6	3.8	1.49e+00	0	42	104	942669824	26	18757
2026-01-12 12:36:14.59	323.39	6.94	-33.5	-47.6	3.8	1.49e+00	0	42	104	942669824	27	18214
2026-01-12 12:36:15.59	323.52	6.88	-33.7	-47.9	3.8	1.49e+00	0	42	104	942669824	27	18556

#Closed at: 2026-01-12 12:36:15
#Recorded file [942 MB]: D:/data/31010_260112_152749.dat