passes_logs/2026/01/12/R2M6_AANII_01/R2M6_AANII_01__20260112_225258_NOAA_20_JPSS-1_rec.log

#Pass ID: 20260112_225258_NOAA 20 (JPSS-1)
#Satellite: NOAA 20 (JPSS-1)
#Configuration: NOAA 20
#almurnet v.1.7.20240730
#Start time: 2026-01-12 22:52:57

#Version: 2.2.20231116
#Station: R2M6_AANII_01
#Location: 30.233357 lon 59.946436 lat
#TLE: 1 43013U 17073A   26012.29914746  .00000087  00000+0  62270-4 0  9997
#TLE: 2 43013  98.7632 313.2670 0001616  43.2193 316.9110 14.19535514422351

#Time	Az	El	Level	Level2	SNR	BER	BlckErr	Temp	State	Recorded	gain1	gain2
2026-01-12 22:52:57.99	28.39	6.97	-30.8	-35.8	5.4	1.16e+00	0	39	0	0	21	6391
2026-01-12 22:52:58.99	28.47	7.04	-31.6	-38.1	5.0	1.23e+00	0	39	104	0	23	7631
2026-01-12 22:53:00.00	28.56	7.10	-31.7	-38.7	7.0	1.45e-01	0	40	0	0	23	8031
2026-01-12 22:53:01.00	28.64	7.17	-31.5	-37.5	7.8	8.49e-02	0	39	0	1048576	23	7208
2026-01-12 22:53:02.01	28.73	7.24	-31.7	-38.4	7.4	9.74e-02	0	40	0	3145728	23	7765
2026-01-12 22:53:03.02	28.82	7.30	-31.5	-37.6	8.0	8.86e-02	0	40	0	5242880	23	7234
2026-01-12 22:53:04.03	28.91	7.37	-31.3	-37.2	8.6	5.77e-02	0	40	0	7340032	22	7080
2026-01-12 22:53:05.03	29.00	7.43	-31.2	-36.5	9.3	2.37e-02	0	40	0	9437184	22	6620
2026-01-12 22:53:06.04	29.08	7.50	-30.9	-36.1	10.0	1.17e-02	0	40	0	10485760	21	6513
2026-01-12 22:53:07.04	29.17	7.57	-30.6	-35.1	10.7	6.16e-03	0	40	0	12582912	21	6020
2026-01-12 22:53:08.04	29.26	7.63	-30.7	-35.2	10.7	3.36e-03	0	40	0	14680064	21	6049
2026-01-12 22:53:09.05	29.35	7.70	-30.7	-35.3	10.6	3.63e-03	0	40	0	16777216	21	6094
2026-01-12 22:53:10.06	29.44	7.77	-30.9	-36.1	10.0	5.38e-03	0	40	0	18874368	21	6505
2026-01-12 22:53:11.06	29.53	7.83	-30.7	-35.4	10.5	4.35e-03	0	40	0	19922944	21	6149
2026-01-12 22:53:12.07	29.62	7.90	-30.5	-34.7	11.0	2.31e-03	0	40	0	22020096	21	5837
2026-01-12 22:53:13.08	29.72	7.97	-30.4	-34.8	11.3	2.00e-03	0	40	0	24117248	20	5989
2026-01-12 22:53:14.08	29.81	8.03	-30.5	-35.0	11.2	1.20e-03	0	40	0	26214400	20	6073
2026-01-12 22:53:15.09	29.90	8.10	-30.6	-34.7	11.1	2.00e-03	0	40	0	28311552	21	5834
2026-01-12 22:53:16.10	29.99	8.17	-30.7	-35.2	10.7	1.87e-03	0	40	0	29360128	21	6029
2026-01-12 22:53:17.10	30.08	8.24	-30.8	-35.7	10.3	3.93e-03	0	40	0	31457280	21	6311
2026-01-12 22:53:18.10	30.18	8.30	-30.6	-34.9	11.0	3.45e-03	0	40	0	33554432	21	5904
2026-01-12 22:53:19.11	30.27	8.37	-30.6	-34.9	11.0	2.12e-03	0	40	0	35651584	21	5879
2026-01-12 22:53:20.12	30.37	8.44	-30.4	-34.3	11.4	1.16e-03	0	40	0	37748736	21	5602
2026-01-12 22:53:21.13	30.46	8.51	-30.4	-34.6	11.6	1.24e-03	0	40	0	38797312	20	5872
2026-01-12 22:53:22.13	30.56	8.58	-30.5	-34.9	11.4	1.24e-03	0	40	0	40894464	20	5995
2026-01-12 22:53:23.14	30.65	8.65	-30.4	-34.6	11.6	6.77e-04	0	40	0	42991616	20	5864
2026-01-12 22:53:24.15	30.75	8.71	-30.4	-34.6	11.6	1.19e-03	0	40	0	45088768	20	5866
2026-01-12 22:53:25.15	30.84	8.78	-30.4	-34.6	11.6	8.15e-04	0	40	0	47185920	20	5844
2026-01-12 22:53:26.16	30.94	8.85	-30.4	-34.6	11.7	7.14e-04	0	40	0	48234496	20	5835
2026-01-12 22:53:27.17	31.04	8.92	-30.4	-34.7	11.6	6.71e-04	0	40	0	50331648	20	5876
2026-01-12 22:53:28.17	31.14	8.99	-30.4	-34.7	11.6	1.02e-03	0	40	0	52428800	20	5894
2026-01-12 22:53:29.18	31.23	9.06	-30.5	-34.4	11.4	8.37e-04	0	40	0	54525952	21	5650
2026-01-12 22:53:30.18	31.33	9.13	-30.4	-34.0	11.7	9.26e-04	0	40	0	56623104	21	5467
2026-01-12 22:53:31.18	31.43	9.20	-30.4	-34.5	11.8	8.91e-04	0	40	0	57671680	20	5777
2026-01-12 22:53:32.18	31.53	9.27	-30.4	-34.6	11.7	5.01e-04	0	40	0	59768832	20	5857
2026-01-12 22:53:33.19	31.63	9.34	-30.4	-34.6	11.7	1.11e-03	0	40	0	61865984	20	5848
2026-01-12 22:53:34.20	31.73	9.41	-30.4	-34.5	11.8	8.70e-04	0	40	0	63963136	20	5796
2026-01-12 22:53:35.20	31.83	9.47	-30.4	-34.5	11.8	4.48e-04	0	40	0	66060288	20	5768
2026-01-12 22:53:36.21	31.93	9.54	-30.4	-34.6	11.7	1.00e-03	0	40	0	67108864	20	5840
2026-01-12 22:53:37.21	32.03	9.61	-30.2	-34.1	12.1	4.99e-04	0	41	0	69206016	20	5597
2026-01-12 22:53:38.22	32.14	9.68	-30.1	-33.7	12.3	1.90e-04	0	41	0	71303168	20	5434
2026-01-12 22:53:39.23	32.24	9.76	-30.0	-33.3	12.6	5.88e-04	0	40	0	73400320	20	5273
2026-01-12 22:53:40.24	32.34	9.83	-30.0	-33.5	12.5	4.89e-04	0	40	0	74448896	20	5347
2026-01-12 22:53:41.24	32.45	9.90	-30.1	-33.7	12.4	1.27e-04	0	40	0	76546048	20	5434
2026-01-12 22:53:42.24	32.55	9.97	-30.0	-33.4	12.5	5.22e-04	0	41	0	78643200	20	5319
2026-01-12 22:53:43.24	32.65	10.04	-30.0	-33.4	12.7	4.92e-04	0	41	0	80740352	20	5301
2026-01-12 22:53:44.25	32.76	10.11	-30.1	-33.5	12.6	9.53e-05	0	41	0	82837504	20	5344
2026-01-12 22:53:45.26	32.86	10.18	-30.2	-33.8	12.3	4.99e-04	0	41	0	84934656	20	5486
2026-01-12 22:53:46.26	32.97	10.25	-30.0	-33.4	12.6	4.24e-04	0	41	0	85983232	20	5298
2026-01-12 22:53:47.27	33.08	10.32	-30.2	-33.8	12.4	1.08e-04	0	41	0	88080384	20	5472
2026-01-12 22:53:48.27	33.18	10.39	-30.3	-34.1	12.1	5.20e-04	0	41	0	90177536	20	5601
2026-01-12 22:53:49.28	33.29	10.46	-30.1	-33.6	12.5	3.91e-04	0	41	0	92274688	20	5372
2026-01-12 22:53:50.29	33.40	10.54	-30.2	-33.8	12.4	1.07e-04	0	40	0	93323264	20	5478
2026-01-12 22:53:51.29	33.51	10.61	-30.2	-33.8	12.4	1.79e-04	0	41	0	95420416	20	5484
2026-01-12 22:53:52.30	33.62	10.68	-30.2	-33.8	12.4	3.90e-04	0	41	0	97517568	20	5461
2026-01-12 22:53:53.30	33.73	10.75	-30.2	-33.8	12.4	1.29e-04	0	41	0	99614720	20	5454
2026-01-12 22:53:54.31	33.84	10.82	-30.1	-33.7	12.5	1.24e-04	0	41	0	101711872	20	5426
2026-01-12 22:53:55.31	33.95	10.90	-30.3	-34.1	12.2	4.26e-04	0	41	0	102760448	20	5615
2026-01-12 22:53:56.32	34.06	10.97	-30.4	-34.4	11.9	3.42e-04	0	41	0	104857600	20	5745
2026-01-12 22:53:57.33	34.17	11.04	-30.2	-33.9	12.4	4.14e-04	0	41	0	106954752	20	5503
2026-01-12 22:53:58.34	34.28	11.11	-30.1	-33.6	12.6	1.10e-04	0	41	0	109051904	20	5359
2026-01-12 22:53:59.34	34.39	11.19	-30.1	-33.4	12.7	6.33e-05	0	41	0	111149056	20	5312
2026-01-12 22:54:00.35	34.51	11.26	-30.0	-33.3	12.8	2.54e-04	0	41	0	113246208	20	5268
2026-01-12 22:54:01.35	34.62	11.33	-30.0	-33.4	12.7	7.62e-05	0	41	0	114294784	20	5295
2026-01-12 22:54:02.36	34.74	11.41	-30.1	-33.6	12.6	6.48e-05	0	41	0	116391936	20	5391
2026-01-12 22:54:03.36	34.85	11.48	-30.2	-33.8	12.4	3.06e-04	0	41	0	118489088	20	5464
2026-01-12 22:54:04.37	34.97	11.55	-30.1	-33.6	12.6	9.38e-05	0	41	0	120586240	20	5373
2026-01-12 22:54:05.38	35.08	11.63	-30.0	-33.4	12.8	6.25e-05	0	41	0	121634816	20	5302
2026-01-12 22:54:06.38	35.20	11.70	-30.1	-33.4	12.7	2.17e-04	0	41	0	123731968	20	5311
2026-01-12 22:54:07.39	35.32	11.77	-30.0	-33.4	12.8	1.87e-04	0	41	0	125829120	20	5281
2026-01-12 22:54:08.40	35.43	11.85	-30.2	-33.7	12.6	8.23e-05	0	41	0	127926272	20	5424
2026-01-12 22:54:09.41	35.55	11.92	-30.1	-33.6	12.6	1.01e-04	0	41	0	130023424	20	5363
2026-01-12 22:54:10.41	35.67	11.99	-30.1	-33.5	12.7	2.33e-04	0	41	0	131072000	20	5353
2026-01-12 22:54:11.41	35.79	12.07	-30.0	-33.4	12.8	7.09e-05	0	41	0	133169152	20	5278
2026-01-12 22:54:12.42	35.91	12.14	-30.1	-33.6	12.7	6.33e-05	0	41	0	135266304	20	5359
2026-01-12 22:54:13.42	36.03	12.22	-30.1	-33.5	12.7	2.37e-04	0	41	0	137363456	20	5327
2026-01-12 22:54:14.42	36.15	12.29	-30.0	-33.1	13.0	4.88e-05	0	41	0	139460608	20	5176
2026-01-12 22:54:15.43	36.27	12.37	-29.9	-32.8	13.2	2.59e-05	0	41	0	140509184	20	5068
2026-01-12 22:54:16.43	36.39	12.44	-29.9	-32.9	13.2	2.36e-05	0	41	0	142606336	20	5103
2026-01-12 22:54:17.43	36.52	12.51	-29.9	-32.9	13.2	2.97e-05	0	41	0	144703488	20	5083
2026-01-12 22:54:18.44	36.64	12.59	-29.8	-32.7	13.4	1.22e-05	0	41	0	146800640	20	5009
2026-01-12 22:54:19.45	36.76	12.67	-29.8	-32.7	13.3	1.37e-05	0	41	0	148897792	20	5018
2026-01-12 22:54:20.45	36.89	12.74	-29.9	-32.8	13.3	2.13e-05	0	41	0	149946368	20	5057
2026-01-12 22:54:21.46	37.01	12.82	-29.9	-33.0	13.1	3.35e-05	0	41	0	152043520	20	5111
2026-01-12 22:54:22.47	37.14	12.89	-29.9	-32.8	13.3	2.89e-05	0	41	0	154140672	20	5053
2026-01-12 22:54:23.48	37.27	12.97	-29.8	-32.7	13.4	1.52e-05	0	41	0	156237824	20	5002
2026-01-12 22:54:24.48	37.39	13.04	-29.8	-32.5	13.5	1.83e-05	0	41	0	158334976	20	4937
2026-01-12 22:54:25.49	37.52	13.12	-29.8	-32.7	13.3	8.30e-06	0	41	0	159383552	20	5024
2026-01-12 22:54:26.49	37.65	13.19	-29.8	-32.6	13.4	1.29e-05	0	41	0	161480704	20	4975
2026-01-12 22:54:27.49	37.78	13.27	-29.7	-32.3	13.6	4.50e-06	0	41	0	163577856	20	4859
2026-01-12 22:54:28.50	37.91	13.35	-29.7	-32.3	13.6	4.50e-06	0	41	0	165675008	20	4863
2026-01-12 22:54:29.49	38.04	13.42	-29.7	-32.3	13.6	8.30e-06	0	41	0	167772160	20	4875
2026-01-12 22:54:30.50	38.17	13.50	-29.7	-32.4	13.5	9.10e-06	0	41	0	168820736	20	4912
2026-01-12 22:54:31.51	38.30	13.57	-29.8	-32.5	13.5	1.52e-05	0	41	0	170917888	20	4936
2026-01-12 22:54:32.52	38.43	13.65	-29.8	-32.7	13.4	7.70e-05	0	41	0	173015040	20	5001
2026-01-12 22:54:33.52	38.57	13.73	-29.9	-32.9	13.3	1.28e-04	0	41	0	175112192	20	5078
2026-01-12 22:54:34.53	38.70	13.80	-29.9	-32.9	13.3	1.67e-05	0	41	0	177209344	20	5086
2026-01-12 22:54:35.53	38.83	13.88	-30.0	-33.5	13.3	1.67e-05	0	41	0	178257920	19	5410
2026-01-12 22:54:36.54	38.97	13.96	-29.9	-33.2	13.5	2.58e-04	0	41	0	180355072	19	5297
2026-01-12 22:54:37.55	39.11	14.04	-29.9	-33.3	13.4	1.60e-05	0	41	0	182452224	19	5321
2026-01-12 22:54:38.55	39.24	14.11	-29.9	-33.4	13.4	1.14e-05	0	41	0	184549376	19	5365
2026-01-12 22:54:39.56	39.38	14.19	-29.8	-33.1	13.6	1.66e-04	0	41	0	186646528	19	5270
2026-01-12 22:54:40.56	39.52	14.27	-29.9	-33.2	13.5	6.80e-06	0	41	0	187695104	19	5284
2026-01-12 22:54:41.57	39.65	14.34	-29.9	-33.3	13.5	1.14e-05	0	41	0	189792256	19	5318
2026-01-12 22:54:42.58	39.79	14.42	-29.9	-33.2	13.5	1.06e-05	0	41	0	191889408	19	5293
2026-01-12 22:54:43.58	39.93	14.50	-29.9	-33.2	13.5	1.22e-05	0	41	0	193986560	19	5286
2026-01-12 22:54:44.59	40.07	14.58	-29.9	-33.4	13.4	1.14e-05	0	41	0	196083712	19	5360
2026-01-12 22:54:45.59	40.21	14.65	-29.9	-33.1	13.6	1.60e-05	0	41	0	197132288	19	5262
2026-01-12 22:54:46.60	40.36	14.73	-29.8	-32.9	13.7	4.50e-06	0	41	0	199229440	19	5184
2026-01-12 22:54:47.61	40.50	14.81	-29.8	-33.0	13.7	3.00e-06	0	41	0	201326592	19	5196
2026-01-12 22:54:48.61	40.64	14.89	-29.9	-33.4	13.4	8.30e-06	0	41	0	203423744	19	5361
2026-01-12 22:54:49.62	40.79	14.97	-29.9	-32.7	13.5	1.60e-05	0	41	0	205520896	20	4993
2026-01-12 22:54:50.63	40.93	15.05	-29.8	-32.6	13.5	1.29e-05	0	41	0	206569472	20	4971
2026-01-12 22:54:51.63	41.08	15.12	-29.8	-32.7	13.5	9.90e-06	0	41	0	208666624	20	4980
2026-01-12 22:54:52.64	41.23	15.20	-29.9	-32.8	13.4	6.10e-06	0	41	0	210763776	20	5037
2026-01-12 22:54:53.65	41.37	15.28	-30.0	-33.1	13.2	1.52e-05	0	41	0	212860928	20	5136
2026-01-12 22:54:54.66	41.52	15.36	-30.0	-33.1	13.3	1.52e-05	0	41	0	214958080	20	5132
2026-01-12 22:54:55.66	41.67	15.44	-30.1	-33.3	13.1	1.52e-05	0	41	0	216006656	20	5201
2026-01-12 22:54:56.67	41.82	15.52	-30.1	-33.2	13.2	3.28e-05	0	41	0	218103808	20	5194
2026-01-12 22:54:57.67	41.97	15.60	-29.8	-32.4	13.7	6.10e-06	0	41	0	220200960	20	4893
2026-01-12 22:54:58.68	42.12	15.68	-29.6	-32.0	14.0	4.50e-06	0	41	0	222298112	20	4752
2026-01-12 22:54:59.69	42.27	15.75	-29.5	-31.8	14.1	3.80e-06	0	41	0	224395264	20	4675
2026-01-12 22:55:00.70	42.43	15.83	-29.6	-31.9	14.0	2.20e-06	0	41	0	225443840	20	4709
2026-01-12 22:55:01.70	42.58	15.91	-29.5	-31.6	14.2	7.00e-07	0	41	0	227540992	20	4612
2026-01-12 22:55:02.70	42.73	15.99	-29.5	-31.6	14.2	0.00e+00	0	41	0	229638144	20	4606
2026-01-12 22:55:03.71	42.89	16.07	-29.4	-31.5	14.3	1.50e-06	0	42	0	231735296	20	4577
2026-01-12 22:55:04.71	43.04	16.15	-29.5	-31.7	14.0	0.00e+00	0	41	0	233832448	20	4621
2026-01-12 22:55:05.71	43.20	16.23	-29.5	-32.3	14.0	7.00e-07	0	42	0	234881024	19	4932
2026-01-12 22:55:06.72	43.35	16.31	-29.5	-32.2	14.3	1.50e-06	0	42	0	236978176	19	4922
2026-01-12 22:55:07.73	43.51	16.39	-29.5	-32.1	14.1	0.00e+00	0	41	0	239075328	19	4869
2026-01-12 22:55:08.73	43.67	16.47	-29.4	-32.0	14.4	0.00e+00	0	42	0	241172480	19	4832
2026-01-12 22:55:09.74	43.83	16.55	-29.4	-31.9	14.5	7.00e-07	0	42	0	243269632	19	4810
2026-01-12 22:55:10.74	43.99	16.63	-29.5	-32.2	14.3	5.87e-05	0	42	0	244318208	19	4897
2026-01-12 22:55:11.74	44.15	16.71	-29.4	-31.9	14.5	0.00e+00	0	42	0	246415360	19	4790
2026-01-12 22:55:12.75	44.31	16.79	-29.3	-31.7	14.6	0.00e+00	0	41	0	248512512	19	4734
2026-01-12 22:55:13.75	44.48	16.87	-29.4	-32.0	14.5	1.50e-06	0	42	0	250609664	19	4813
2026-01-12 22:55:14.76	44.64	16.95	-29.4	-31.8	14.5	0.00e+00	0	41	0	252706816	19	4757
2026-01-12 22:55:15.76	44.80	17.02	-29.5	-32.1	14.4	0.00e+00	0	42	0	253755392	19	4873
2026-01-12 22:55:16.76	44.97	17.10	-29.5	-32.0	14.4	0.00e+00	0	41	0	255852544	19	4841
2026-01-12 22:55:17.77	45.14	17.18	-29.6	-32.3	14.2	0.00e+00	0	42	0	257949696	19	4927
2026-01-12 22:55:18.78	45.30	17.27	-29.5	-32.2	14.4	2.20e-06	0	42	0	260046848	19	4885
2026-01-12 22:55:19.78	45.47	17.34	-29.4	-31.9	14.5	0.00e+00	0	42	0	261095424	19	4805
2026-01-12 22:55:20.79	45.64	17.43	-29.5	-32.1	14.4	3.20e-05	0	41	0	263192576	19	4849
2026-01-12 22:55:21.80	45.81	17.51	-29.6	-32.3	14.3	7.00e-07	0	41	0	265289728	19	4941
2026-01-12 22:55:22.80	45.98	17.59	-29.5	-32.2	14.3	0.00e+00	0	41	0	267386880	19	4904
2026-01-12 22:55:23.81	46.15	17.67	-29.7	-32.5	14.2	7.00e-07	0	41	0	269484032	19	5002
2026-01-12 22:55:24.81	46.32	17.75	-29.7	-32.5	14.2	2.20e-06	0	42	0	271581184	19	5005
2026-01-12 22:55:25.82	46.50	17.83	-29.8	-32.8	14.0	6.33e-05	0	41	0	272629760	19	5126
2026-01-12 22:55:26.82	46.67	17.91	-29.7	-32.7	14.0	7.00e-07	0	41	0	274726912	19	5071
2026-01-12 22:55:27.83	46.85	17.99	-29.9	-33.2	13.8	6.10e-06	0	42	0	276824064	19	5250
2026-01-12 22:55:28.84	47.02	18.07	-29.8	-32.9	13.9	4.27e-05	0	42	0	278921216	19	5146
2026-01-12 22:55:29.85	47.20	18.15	-29.8	-32.8	14.0	7.00e-07	0	42	0	281018368	19	5094
2026-01-12 22:55:30.85	47.38	18.23	-29.8	-32.8	14.0	7.00e-07	0	42	0	282066944	19	5102
2026-01-12 22:55:31.86	47.56	18.31	-29.9	-33.1	13.8	5.30e-06	0	41	0	284164096	19	5200
2026-01-12 22:55:32.86	47.74	18.39	-29.7	-32.5	14.2	6.10e-06	0	41	0	286261248	19	5013
2026-01-12 22:55:33.87	47.92	18.47	-29.5	-32.1	14.4	7.00e-07	0	41	0	288358400	19	4868
2026-01-12 22:55:34.88	48.10	18.55	-29.5	-32.0	14.5	2.20e-06	0	41	0	289406976	19	4836
2026-01-12 22:55:35.89	48.28	18.63	-29.4	-31.9	14.6	7.00e-07	0	41	0	291504128	19	4787
2026-01-12 22:55:36.89	48.47	18.71	-29.5	-32.1	14.5	7.00e-07	0	42	0	293601280	19	4844
2026-01-12 22:55:37.90	48.65	18.79	-29.6	-32.4	14.3	1.38e-04	0	41	0	295698432	19	4945
2026-01-12 22:55:38.90	48.84	18.87	-29.5	-32.0	14.5	8.85e-05	0	41	0	297795584	19	4819
2026-01-12 22:55:39.91	49.02	18.95	-29.4	-31.8	14.7	7.00e-07	0	42	0	299892736	19	4750
2026-01-12 22:55:40.92	49.21	19.03	-29.3	-31.7	14.8	4.50e-05	0	42	0	300941312	19	4701
2026-01-12 22:55:41.92	49.40	19.11	-29.3	-31.6	14.8	1.50e-06	0	41	0	303038464	19	4698
2026-01-12 22:55:42.93	49.59	19.19	-29.2	-31.4	14.9	0.00e+00	0	42	0	305135616	19	4616
2026-01-12 22:55:43.94	49.78	19.27	-29.2	-31.4	15.0	5.11e-05	0	42	0	307232768	19	4614
2026-01-12 22:55:44.94	49.97	19.35	-29.3	-31.4	14.9	1.12e-04	0	42	0	308281344	19	4630
2026-01-12 22:55:45.94	50.16	19.43	-29.1	-31.1	15.1	0.00e+00	0	41	0	310378496	19	4522
2026-01-12 22:55:46.95	50.36	19.51	-29.0	-30.7	15.4	9.76e-05	0	42	0	312475648	19	4401
2026-01-12 22:55:47.95	50.55	19.59	-28.8	-30.9	15.5	6.33e-05	0	42	0	314572800	18	4569
2026-01-12 22:55:48.96	50.74	19.67	-28.8	-30.8	15.6	0.00e+00	0	42	0	316669952	18	4548
2026-01-12 22:55:49.96	50.94	19.75	-28.7	-30.6	15.7	5.64e-05	0	42	0	317718528	18	4487
2026-01-12 22:55:50.97	51.14	19.83	-28.8	-30.7	15.7	0.00e+00	0	42	0	319815680	18	4500
2026-01-12 22:55:51.98	51.34	19.91	-28.6	-30.4	15.8	0.00e+00	0	42	0	321912832	18	4406
2026-01-12 22:55:52.99	51.54	19.99	-28.7	-30.7	15.7	6.48e-05	0	42	0	324009984	18	4489
2026-01-12 22:55:53.99	51.73	20.06	-28.7	-30.5	15.8	0.00e+00	0	41	0	326107136	18	4437
2026-01-12 22:55:55.00	51.94	20.14	-28.7	-30.6	15.7	0.00e+00	0	42	0	328204288	18	4479
2026-01-12 22:55:56.01	52.14	20.22	-28.6	-30.4	15.8	2.84e-04	0	42	0	329252864	18	4414
2026-01-12 22:55:57.01	52.34	20.30	-28.7	-31.1	15.7	4.07e-04	0	42	0	331350016	17	4735
2026-01-12 22:55:58.02	52.55	20.38	-28.6	-30.9	15.8	0.00e+00	0	42	0	333447168	17	4677
2026-01-12 22:55:59.02	52.75	20.46	-28.6	-30.8	15.9	1.22e-03	0	42	0	335544320	17	4656
2026-01-12 22:56:00.03	52.96	20.54	-28.7	-31.0	15.6	1.38e-03	0	42	0	336592896	17	4709
2026-01-12 22:56:01.03	53.16	20.62	-28.6	-30.8	15.9	0.00e+00	0	42	0	338690048	17	4646
2026-01-12 22:56:02.04	53.37	20.69	-28.6	-30.8	15.9	0.00e+00	0	42	0	340787200	17	4654
2026-01-12 22:56:03.04	53.58	20.77	-28.6	-30.8	15.9	2.39e-04	0	42	0	342884352	17	4654
2026-01-12 22:56:04.04	53.79	20.85	-28.7	-31.0	15.7	0.00e+00	0	41	0	344981504	17	4717
2026-01-12 22:56:05.05	54.00	20.93	-28.7	-31.0	15.8	0.00e+00	0	42	0	346030080	17	4710
2026-01-12 22:56:06.06	54.22	21.01	-28.8	-31.3	15.6	3.72e-04	0	42	0	348127232	17	4798
2026-01-12 22:56:07.06	54.43	21.08	-28.8	-31.2	15.7	0.00e+00	0	42	0	350224384	17	4766
2026-01-12 22:56:08.07	54.64	21.16	-28.8	-31.2	15.7	0.00e+00	0	42	0	352321536	17	4786
2026-01-12 22:56:09.08	54.86	21.24	-28.9	-31.6	15.5	0.00e+00	0	42	0	354418688	17	4904
2026-01-12 22:56:10.08	55.08	21.32	-28.9	-31.6	15.5	0.00e+00	0	42	0	355467264	17	4883
2026-01-12 22:56:11.09	55.29	21.39	-28.9	-31.5	15.5	0.00e+00	0	42	0	357564416	17	4868
2026-01-12 22:56:12.09	55.51	21.47	-29.1	-31.5	15.2	0.00e+00	0	42	0	359661568	18	4745
2026-01-12 22:56:13.09	55.73	21.55	-29.3	-32.0	15.0	0.00e+00	0	42	0	361758720	18	4908
2026-01-12 22:56:14.10	55.95	21.62	-29.1	-31.6	15.2	0.00e+00	0	42	0	363855872	18	4800
2026-01-12 22:56:15.11	56.18	21.70	-29.1	-31.4	15.3	0.00e+00	0	42	0	364904448	18	4720
2026-01-12 22:56:16.11	56.40	21.77	-29.1	-31.5	15.3	0.00e+00	0	42	0	367001600	18	4736
2026-01-12 22:56:17.12	56.62	21.85	-29.1	-31.6	15.2	3.20e-05	0	42	0	369098752	18	4782
2026-01-12 22:56:18.12	56.85	21.93	-29.1	-31.6	15.2	0.00e+00	0	42	0	371195904	18	4790
2026-01-12 22:56:19.13	57.07	22.00	-29.3	-32.1	14.9	0.00e+00	0	42	0	373293056	18	4958
2026-01-12 22:56:20.14	57.30	22.08	-29.2	-31.8	15.1	0.00e+00	0	42	0	374341632	18	4861
2026-01-12 22:56:21.15	57.53	22.15	-29.2	-31.7	15.2	0.00e+00	0	42	0	376438784	18	4805
2026-01-12 22:56:22.16	57.76	22.23	-29.2	-31.8	15.1	0.00e+00	0	42	0	378535936	18	4849
2026-01-12 22:56:23.16	57.99	22.30	-29.4	-32.2	14.9	0.00e+00	0	42	0	380633088	18	4986
2026-01-12 22:56:24.16	58.22	22.38	-29.4	-32.3	14.8	0.00e+00	0	42	0	382730240	18	5000
2026-01-12 22:56:25.17	58.45	22.45	-29.4	-31.9	14.8	0.00e+00	0	42	0	383778816	19	4767
2026-01-12 22:56:26.18	58.69	22.52	-29.5	-31.9	14.8	0.00e+00	0	42	0	385875968	19	4771
2026-01-12 22:56:27.18	58.92	22.60	-29.5	-32.1	14.6	0.00e+00	0	42	0	387973120	19	4839
2026-01-12 22:56:28.18	59.16	22.67	-29.6	-32.3	14.5	7.00e-07	0	42	0	390070272	19	4914
2026-01-12 22:56:29.19	59.40	22.74	-29.6	-32.2	14.6	0.00e+00	0	42	0	392167424	19	4854
2026-01-12 22:56:30.20	59.64	22.82	-29.5	-32.0	14.6	7.00e-07	0	42	0	393216000	19	4819
2026-01-12 22:56:31.20	59.87	22.89	-29.6	-32.4	14.4	0.00e+00	0	42	0	395313152	19	4925
2026-01-12 22:56:32.21	60.12	22.96	-29.4	-32.3	14.8	0.00e+00	0	42	0	397410304	18	5015
2026-01-12 22:56:33.21	60.36	23.03	-29.4	-32.2	14.9	7.00e-07	0	42	0	399507456	18	4964
2026-01-12 22:56:34.22	60.60	23.10	-29.4	-32.1	14.9	1.77e-04	0	42	0	401604608	18	4964
2026-01-12 22:56:35.22	60.84	23.17	-29.5	-32.4	14.7	7.00e-07	0	42	0	402653184	18	5053
2026-01-12 22:56:36.23	61.09	23.25	-29.5	-32.0	14.7	0.00e+00	0	42	0	404750336	19	4806
2026-01-12 22:56:37.23	61.33	23.32	-29.7	-32.5	14.4	0.00e+00	0	42	0	406847488	19	4973
2026-01-12 22:56:38.23	61.58	23.38	-29.8	-32.7	14.2	2.20e-06	0	42	0	408944640	19	5040
2026-01-12 22:56:39.24	61.83	23.45	-29.6	-32.3	14.5	0.00e+00	0	42	0	411041792	19	4918
2026-01-12 22:56:40.25	62.08	23.52	-29.5	-32.1	14.7	7.00e-07	0	42	0	412090368	19	4824
2026-01-12 22:56:41.25	62.33	23.59	-29.5	-32.1	14.6	5.60e-04	0	42	0	414187520	19	4832
2026-01-12 22:56:42.26	62.58	23.66	-29.5	-32.0	14.7	0.00e+00	0	42	0	416284672	19	4811
2026-01-12 22:56:43.27	62.83	23.73	-29.5	-32.4	14.8	0.00e+00	0	42	0	418381824	18	5050
2026-01-12 22:56:44.28	63.09	23.80	-29.6	-32.2	14.6	5.52e-04	0	42	0	420478976	19	4855
2026-01-12 22:56:45.28	63.34	23.87	-29.8	-32.7	14.2	0.00e+00	0	42	0	421527552	19	5053
2026-01-12 22:56:46.28	63.59	23.93	-29.9	-32.7	13.9	2.20e-06	0	42	0	423624704	20	4953
2026-01-12 22:56:47.29	63.85	24.00	-30.0	-32.8	13.8	2.74e-04	0	42	0	425721856	20	4969
2026-01-12 22:56:48.30	64.11	24.07	-30.1	-33.0	13.7	7.60e-06	0	42	0	427819008	20	5074
2026-01-12 22:56:49.30	64.37	24.13	-30.2	-33.5	13.4	9.90e-06	0	42	0	429916160	20	5249
2026-01-12 22:56:50.30	64.63	24.20	-30.3	-33.7	13.2	1.90e-05	0	42	0	430964736	20	5329
2026-01-12 22:56:51.31	64.89	24.26	-30.3	-33.8	13.2	3.35e-05	0	42	0	433061888	20	5343
2026-01-12 22:56:52.32	65.15	24.33	-30.2	-33.5	13.4	3.66e-05	0	42	0	435159040	20	5240
2026-01-12 22:56:53.32	65.41	24.39	-30.3	-33.6	13.3	2.13e-05	0	42	0	437256192	20	5285
2026-01-12 22:56:54.32	65.67	24.45	-30.3	-33.7	13.2	1.83e-05	0	42	0	439353344	20	5336
2026-01-12 22:56:55.33	65.94	24.52	-30.2	-33.3	13.5	6.63e-05	0	42	0	440401920	20	5168
2026-01-12 22:56:56.34	66.21	24.58	-30.1	-33.3	13.6	6.80e-06	0	42	0	442499072	20	5150
2026-01-12 22:56:57.35	66.48	24.64	-30.2	-33.5	13.5	1.67e-05	0	42	0	444596224	20	5223
2026-01-12 22:56:58.35	66.74	24.70	-30.4	-33.8	13.2	2.05e-05	0	42	0	446693376	20	5361
2026-01-12 22:56:59.36	67.01	24.76	-30.5	-34.2	12.9	1.90e-05	0	42	0	448790528	20	5511
2026-01-12 22:57:00.36	67.28	24.82	-30.7	-34.2	12.6	5.34e-05	0	42	0	449839104	21	5398
2026-01-12 22:57:01.36	67.55	24.88	-30.8	-34.6	12.3	3.39e-04	0	42	0	451936256	21	5588
2026-01-12 22:57:02.36	67.82	24.94	-30.9	-35.0	12.0	2.93e-04	0	42	0	454033408	21	5745
2026-01-12 22:57:03.37	68.10	25.00	-30.9	-34.5	12.0	3.60e-04	0	42	0	456130560	22	5435
2026-01-12 22:57:04.37	68.37	25.06	-30.8	-34.2	12.3	4.65e-04	0	42	0	458227712	22	5303
2026-01-12 22:57:05.37	68.64	25.12	-30.8	-34.5	12.4	5.56e-04	0	42	0	459276288	21	5517
2026-01-12 22:57:06.38	68.92	25.17	-30.7	-34.4	12.4	1.36e-04	0	42	0	461373440	21	5490
2026-01-12 22:57:07.38	69.20	25.23	-30.6	-33.9	12.8	8.16e-05	0	42	0	463470592	21	5281
2026-01-12 22:57:08.39	69.48	25.29	-30.5	-33.8	12.9	3.02e-04	0	42	0	465567744	21	5262
2026-01-12 22:57:09.40	69.76	25.34	-30.7	-34.2	12.6	7.47e-05	0	42	0	467664896	21	5409
2026-01-12 22:57:10.40	70.04	25.40	-30.9	-34.9	12.1	4.23e-04	0	42	0	468713472	21	5704
2026-01-12 22:57:11.41	70.32	25.45	-31.1	-35.1	11.6	8.57e-04	0	42	0	470810624	22	5668
2026-01-12 22:57:12.42	70.60	25.51	-31.3	-35.6	11.3	8.08e-04	0	42	0	472907776	22	5901
2026-01-12 22:57:13.42	70.88	25.56	-31.5	-35.6	10.9	2.53e-03	0	42	0	475004928	23	5818
2026-01-12 22:57:14.43	71.17	25.61	-31.5	-35.7	10.8	2.50e-03	0	42	0	477102080	23	5862
2026-01-12 22:57:15.44	71.46	25.66	-31.4	-35.6	11.0	2.20e-03	0	42	0	478150656	23	5784
2026-01-12 22:57:16.44	71.74	25.72	-31.3	-35.6	11.3	1.72e-03	0	42	0	480247808	22	5881
2026-01-12 22:57:17.45	72.03	25.77	-31.2	-35.2	11.6	8.54e-04	0	42	0	482344960	22	5713
2026-01-12 22:57:18.44	72.31	25.82	-31.0	-34.6	12.1	3.68e-04	0	42	0	484442112	22	5435
2026-01-12 22:57:19.44	72.60	25.86	-30.9	-34.3	12.3	4.78e-04	0	42	0	486539264	22	5322
2026-01-12 22:57:20.45	72.89	25.91	-30.9	-34.4	12.2	2.94e-04	0	42	0	487587840	22	5369
2026-01-12 22:57:21.45	73.18	25.96	-30.9	-34.4	12.2	3.30e-04	0	42	0	489684992	22	5363
2026-01-12 22:57:22.46	73.47	26.01	-30.9	-34.3	12.3	2.16e-04	0	42	0	491782144	22	5310
2026-01-12 22:57:23.46	73.76	26.06	-31.0	-34.6	12.1	2.35e-04	0	42	0	493879296	22	5442
2026-01-12 22:57:24.46	74.05	26.10	-31.1	-34.9	11.9	4.21e-04	0	42	0	494927872	22	5563
2026-01-12 22:57:25.47	74.35	26.15	-31.1	-35.0	11.8	3.97e-04	0	42	0	497025024	22	5622
2026-01-12 22:57:26.48	74.64	26.19	-31.1	-34.9	11.8	8.68e-04	0	42	0	499122176	22	5586
2026-01-12 22:57:27.48	74.94	26.23	-31.0	-34.6	12.1	4.11e-04	0	42	0	501219328	22	5467
2026-01-12 22:57:28.48	75.23	26.28	-31.0	-35.0	12.1	2.55e-04	0	42	0	503316480	21	5741
2026-01-12 22:57:29.49	75.53	26.32	-30.8	-34.6	12.3	5.30e-04	0	42	0	504365056	21	5581
2026-01-12 22:57:30.50	75.83	26.36	-30.8	-34.6	12.3	1.65e-04	0	42	0	506462208	21	5586
2026-01-12 22:57:31.50	76.13	26.40	-30.8	-34.7	12.3	1.61e-04	0	42	0	508559360	21	5586
2026-01-12 22:57:32.51	76.43	26.44	-30.8	-34.5	12.4	1.80e-04	0	42	0	510656512	21	5526
2026-01-12 22:57:33.52	76.73	26.48	-30.8	-34.5	12.5	1.29e-04	0	42	0	512753664	21	5509
2026-01-12 22:57:34.52	77.03	26.52	-30.9	-34.8	12.3	1.35e-04	0	42	0	513802240	21	5652
2026-01-12 22:57:35.53	77.33	26.56	-30.8	-34.7	12.3	2.45e-04	0	42	0	515899392	21	5592
2026-01-12 22:57:36.53	77.63	26.59	-30.7	-34.2	12.7	1.08e-04	0	42	0	517996544	21	5388
2026-01-12 22:57:37.54	77.93	26.63	-30.5	-33.7	12.9	4.50e-05	0	42	0	520093696	21	5213
2026-01-12 22:57:38.54	78.24	26.67	-30.4	-33.5	13.2	2.74e-05	0	42	0	522190848	21	5119
2026-01-12 22:57:39.55	78.54	26.70	-30.4	-33.3	13.2	2.67e-05	0	42	0	523239424	21	5064
2026-01-12 22:57:40.55	78.84	26.73	-30.5	-33.7	13.0	2.59e-05	0	42	0	525336576	21	5217
2026-01-12 22:57:41.56	79.15	26.77	-30.5	-33.8	12.9	5.56e-05	0	42	0	527433728	21	5244
2026-01-12 22:57:42.56	79.46	26.80	-30.5	-33.7	13.0	3.20e-05	0	42	0	529530880	21	5216
2026-01-12 22:57:43.56	79.76	26.83	-30.6	-34.0	12.8	4.11e-05	0	42	0	531628032	21	5335
2026-01-12 22:57:44.57	80.07	26.86	-30.7	-34.2	12.7	8.16e-05	0	42	0	532676608	21	5409
2026-01-12 22:57:45.57	80.37	26.89	-30.8	-34.5	12.4	1.14e-04	0	42	0	534773760	21	5531
2026-01-12 22:57:46.58	80.68	26.92	-30.8	-34.7	12.3	1.53e-04	0	42	0	536870912	21	5601
2026-01-12 22:57:47.59	80.99	26.95	-30.9	-34.8	12.3	1.72e-04	0	42	0	538968064	21	5659
2026-01-12 22:57:48.59	81.30	26.98	-31.1	-34.9	11.8	3.26e-04	0	42	0	541065216	22	5583
2026-01-12 22:57:49.59	81.61	27.00	-31.1	-35.0	11.7	6.62e-04	0	42	0	542113792	22	5635
2026-01-12 22:57:50.60	81.92	27.03	-31.0	-34.7	12.0	3.86e-04	0	42	0	544210944	22	5500
2026-01-12 22:57:51.60	82.23	27.05	-30.9	-34.5	12.1	3.28e-04	0	42	0	546308096	22	5414
2026-01-12 22:57:52.61	82.55	27.08	-30.9	-34.4	12.2	2.61e-04	0	42	0	548405248	22	5375
2026-01-12 22:57:53.61	82.86	27.10	-30.9	-34.4	12.1	2.10e-04	0	42	0	550502400	22	5388
2026-01-12 22:57:54.62	83.17	27.12	-30.9	-34.3	12.2	2.05e-04	0	42	0	551550976	22	5351
2026-01-12 22:57:55.63	83.48	27.14	-30.9	-34.5	12.1	2.04e-04	0	42	0	553648128	22	5414
2026-01-12 22:57:56.62	83.79	27.16	-30.9	-34.4	12.1	3.27e-04	0	42	0	555745280	22	5379
2026-01-12 22:57:57.62	84.10	27.18	-30.8	-34.0	12.4	1.86e-04	0	42	0	557842432	22	5217
2026-01-12 22:57:58.63	84.42	27.20	-30.8	-34.1	12.4	1.50e-04	0	42	0	559939584	22	5254
2026-01-12 22:57:59.63	84.73	27.22	-30.8	-34.0	12.5	1.43e-04	0	42	0	560988160	22	5218
2026-01-12 22:58:00.63	85.04	27.23	-30.7	-33.6	12.7	8.39e-05	0	42	0	563085312	22	5079
2026-01-12 22:58:01.64	85.36	27.25	-30.7	-33.6	12.7	5.41e-05	0	42	0	565182464	22	5079
2026-01-12 22:58:02.65	85.68	27.26	-30.7	-33.7	12.6	6.33e-05	0	42	0	567279616	22	5106
2026-01-12 22:58:03.65	85.99	27.28	-30.6	-33.4	12.8	1.17e-04	0	42	0	569376768	22	4988
2026-01-12 22:58:04.66	86.31	27.29	-30.4	-33.5	13.1	8.23e-05	0	42	0	570425344	21	5127
2026-01-12 22:58:05.66	86.62	27.30	-30.4	-33.5	13.1	3.05e-05	0	42	0	572522496	21	5142
2026-01-12 22:58:06.67	86.94	27.31	-30.5	-33.7	13.0	3.66e-05	0	42	0	574619648	21	5207
2026-01-12 22:58:07.68	87.26	27.32	-30.4	-33.5	13.1	2.97e-05	0	42	0	576716800	21	5137
2026-01-12 22:58:08.68	87.57	27.33	-30.4	-33.5	13.1	2.82e-05	0	42	0	578813952	21	5132
2026-01-12 22:58:09.69	87.89	27.34	-30.5	-33.8	12.9	3.05e-05	0	42	0	579862528	21	5233
2026-01-12 22:58:10.70	88.21	27.35	-30.3	-33.1	13.3	5.49e-05	0	42	0	581959680	21	4991
2026-01-12 22:58:11.70	88.53	27.36	-29.9	-32.2	13.9	2.20e-06	0	42	0	584056832	21	4655
2026-01-12 22:58:12.71	88.84	27.36	-29.7	-31.9	14.4	3.00e-06	0	42	0	586153984	20	4668
2026-01-12 22:58:13.71	89.16	27.37	-29.6	-31.7	14.6	0.00e+00	0	42	0	588251136	20	4611
2026-01-12 22:58:14.72	89.48	27.37	-29.7	-32.0	14.4	0.00e+00	0	42	0	589299712	20	4704
2026-01-12 22:58:15.72	89.79	27.37	-29.8	-32.4	14.1	3.00e-06	0	42	0	591396864	20	4849
2026-01-12 22:58:16.72	90.11	27.37	-30.0	-32.9	13.9	3.80e-06	0	42	0	593494016	20	4993
2026-01-12 22:58:17.73	90.43	27.38	-30.1	-33.2	13.6	3.00e-06	0	42	0	595591168	20	5103
2026-01-12 22:58:18.74	90.75	27.38	-30.2	-33.4	13.5	8.23e-05	0	42	0	596639744	20	5186
2026-01-12 22:58:19.74	91.06	27.37	-30.2	-33.4	13.5	1.06e-05	0	42	0	598736896	20	5188
2026-01-12 22:58:20.76	91.39	27.37	-30.2	-33.2	13.6	6.10e-06	0	42	0	600834048	20	5136
2026-01-12 22:58:21.76	91.70	27.37	-30.2	-33.4	13.5	2.53e-04	0	42	0	602931200	20	5187
2026-01-12 22:58:22.76	92.02	27.37	-30.2	-33.3	13.6	2.20e-04	0	42	0	605028352	20	5144
2026-01-12 22:58:23.76	92.33	27.36	-30.3	-33.7	13.3	1.37e-05	0	42	0	607125504	20	5316
2026-01-12 22:58:24.77	92.65	27.36	-30.3	-33.6	13.3	2.21e-04	0	42	0	608174080	20	5291
2026-01-12 22:58:25.77	92.97	27.35	-30.5	-33.7	13.0	2.09e-04	0	42	0	610271232	21	5198
2026-01-12 22:58:26.77	93.28	27.34	-30.6	-33.9	12.8	5.72e-05	0	42	0	612368384	21	5273
2026-01-12 22:58:27.78	93.60	27.33	-30.7	-34.3	12.5	5.49e-05	0	42	0	614465536	21	5440
2026-01-12 22:58:28.78	93.92	27.33	-30.9	-34.8	12.2	2.66e-04	0	42	0	615514112	21	5652
2026-01-12 22:58:29.79	94.24	27.32	-30.9	-34.7	12.2	2.33e-04	0	42	0	617611264	21	5637
2026-01-12 22:58:30.79	94.55	27.30	-30.9	-34.9	12.1	2.49e-04	0	42	0	619708416	21	5710
2026-01-12 22:58:31.80	94.87	27.29	-30.8	-34.6	12.4	1.72e-04	0	42	0	621805568	21	5563
2026-01-12 22:58:32.81	95.19	27.28	-30.7	-34.3	12.6	1.20e-04	0	42	0	623902720	21	5441
2026-01-12 22:58:33.82	95.50	27.27	-30.6	-33.9	12.8	1.02e-04	0	42	0	624951296	21	5293
2026-01-12 22:58:34.82	95.82	27.25	-30.5	-33.8	12.9	5.34e-05	0	42	0	627048448	21	5240
2026-01-12 22:58:35.83	96.13	27.24	-30.6	-34.0	12.7	5.11e-05	0	42	0	629145600	21	5330
2026-01-12 22:58:36.84	96.45	27.22	-30.5	-33.8	12.8	8.39e-05	0	42	0	631242752	21	5247
2026-01-12 22:58:37.84	96.76	27.20	-30.8	-34.7	12.3	6.40e-05	0	42	0	633339904	21	5608
2026-01-12 22:58:38.85	97.08	27.18	-30.8	-34.7	12.1	2.43e-04	0	42	0	635437056	21	5647
2026-01-12 22:58:39.86	97.39	27.16	-31.1	-35.0	11.7	4.00e-04	0	42	0	636485632	22	5646
2026-01-12 22:58:40.86	97.71	27.14	-31.0	-34.9	11.8	6.56e-04	0	42	0	638582784	22	5598
2026-01-12 22:58:41.86	98.02	27.12	-31.2	-35.3	11.4	6.52e-04	0	42	0	640679936	22	5785
2026-01-12 22:58:42.85	98.33	27.10	-31.1	-35.0	11.7	8.16e-04	0	42	0	642777088	22	5645
2026-01-12 22:58:43.85	98.64	27.08	-30.9	-34.6	12.0	5.03e-04	0	42	0	643825664	22	5484
2026-01-12 22:58:44.85	98.95	27.06	-30.7	-34.0	12.4	1.56e-04	0	42	0	645922816	22	5218
2026-01-12 22:58:45.86	99.26	27.03	-30.5	-33.3	12.8	9.30e-05	0	42	0	648019968	22	4968
2026-01-12 22:58:46.86	99.57	27.01	-30.4	-33.1	13.0	6.48e-05	0	42	0	650117120	22	4896
2026-01-12 22:58:47.87	99.88	26.98	-30.5	-33.3	12.9	3.20e-05	0	42	0	652214272	22	4953
2026-01-12 22:58:48.87	100.19	26.95	-30.5	-33.3	12.9	1.11e-04	0	42	0	653262848	22	4949
2026-01-12 22:58:49.88	100.50	26.92	-30.7	-33.7	12.6	1.14e-04	0	42	0	655360000	22	5124
2026-01-12 22:58:50.88	100.81	26.90	-30.9	-34.3	12.2	1.29e-04	0	42	0	657457152	22	5353
2026-01-12 22:58:51.89	101.12	26.87	-30.7	-33.8	12.6	1.73e-04	0	42	0	659554304	22	5137
2026-01-12 22:58:52.90	101.43	26.84	-30.5	-33.3	12.9	1.14e-04	0	42	0	661651456	22	4963
2026-01-12 22:58:53.90	101.73	26.80	-30.3	-32.8	13.1	3.89e-05	0	42	0	662700032	22	4795
2026-01-12 22:58:54.91	102.04	26.77	-30.1	-32.6	13.6	1.52e-05	0	42	0	664797184	21	4829
2026-01-12 22:58:55.92	102.35	26.74	-30.0	-32.5	13.7	9.10e-06	0	42	0	666894336	21	4778
2026-01-12 22:58:56.92	102.65	26.71	-30.1	-32.6	13.6	8.30e-06	0	42	0	668991488	21	4819
2026-01-12 22:58:57.93	102.96	26.67	-30.0	-32.5	13.7	6.10e-06	0	42	0	671088640	21	4772
2026-01-12 22:58:58.93	103.26	26.64	-30.1	-32.8	13.5	1.14e-05	0	42	0	672137216	21	4882
2026-01-12 22:58:59.94	103.56	26.60	-30.1	-32.7	13.6	6.10e-06	0	42	0	674234368	21	4841
2026-01-12 22:59:00.93	103.86	26.56	-30.1	-32.7	13.5	1.06e-05	0	42	0	676331520	21	4870
2026-01-12 22:59:01.94	104.17	26.52	-30.1	-32.7	13.5	1.14e-05	0	42	0	678428672	21	4870
2026-01-12 22:59:02.94	104.47	26.49	-30.2	-33.0	13.3	2.36e-05	0	42	0	680525824	21	4964
2026-01-12 22:59:03.94	104.77	26.45	-29.9	-32.0	14.0	7.60e-06	0	42	0	681574400	21	4623
2026-01-12 22:59:04.94	105.06	26.41	-29.7	-32.2	14.2	7.00e-07	0	42	0	683671552	20	4770
2026-01-12 22:59:05.95	105.36	26.37	-29.8	-32.3	14.1	1.50e-06	0	42	0	685768704	20	4808
2026-01-12 22:59:06.95	105.66	26.32	-29.7	-32.1	14.2	1.50e-06	0	42	0	687865856	20	4736
2026-01-12 22:59:07.95	105.96	26.28	-29.5	-31.6	14.5	7.00e-07	0	42	0	689963008	20	4588
2026-01-12 22:59:08.95	106.25	26.24	-29.5	-31.7	14.5	7.00e-07	0	42	0	691011584	20	4624
2026-01-12 22:59:09.96	106.55	26.20	-29.7	-32.1	14.3	2.20e-06	0	42	0	693108736	20	4742
2026-01-12 22:59:10.96	106.84	26.15	-29.9	-32.7	13.9	3.80e-06	0	42	0	695205888	20	4941
2026-01-12 22:59:11.97	107.14	26.11	-30.0	-32.8	13.7	6.10e-06	0	42	0	697303040	20	5011
2026-01-12 22:59:12.97	107.43	26.06	-30.2	-33.4	13.4	1.29e-05	0	42	0	698351616	20	5215
2026-01-12 22:59:13.98	107.73	26.01	-30.1	-33.1	13.5	1.83e-05	0	42	0	700448768	20	5124
2026-01-12 22:59:14.98	108.02	25.97	-30.2	-33.4	13.4	6.80e-06	0	42	0	702545920	20	5233
2026-01-12 22:59:15.99	108.31	25.92	-30.1	-33.3	13.4	1.83e-05	0	42	0	704643072	20	5196
2026-01-12 22:59:16.99	108.60	25.87	-30.4	-34.0	12.9	2.51e-05	0	42	0	706740224	20	5478
2026-01-12 22:59:18.00	108.89	25.82	-30.5	-33.8	12.7	8.23e-05	0	42	0	708837376	21	5261
2026-01-12 22:59:19.00	109.18	25.77	-30.8	-34.6	12.3	5.87e-05	0	42	0	709885952	21	5600
2026-01-12 22:59:20.01	109.46	25.72	-31.1	-35.1	11.5	4.49e-04	0	42	0	711983104	22	5733
2026-01-12 22:59:21.02	109.75	25.67	-31.1	-35.0	11.6	8.87e-04	0	42	0	714080256	22	5683
2026-01-12 22:59:22.03	110.04	25.62	-31.3	-35.6	11.1	8.26e-04	0	42	0	716177408	22	5968
2026-01-12 22:59:23.04	110.33	25.56	-31.2	-35.3	11.4	1.74e-03	0	42	0	717225984	22	5789
2026-01-12 22:59:24.04	110.61	25.51	-30.8	-34.2	12.2	6.90e-04	0	42	0	719323136	22	5302
2026-01-12 22:59:25.04	110.89	25.46	-30.7	-33.8	12.4	1.60e-04	0	42	0	721420288	22	5172
2026-01-12 22:59:26.05	111.17	25.40	-30.3	-32.9	13.0	4.80e-05	0	42	0	723517440	22	4820
2026-01-12 22:59:27.06	111.46	25.35	-30.2	-33.0	13.3	1.75e-05	0	42	0	725614592	21	4956
2026-01-12 22:59:28.06	111.73	25.29	-30.3	-33.2	13.1	3.05e-05	0	42	0	726663168	21	5053
2026-01-12 22:59:29.07	112.01	25.23	-30.2	-32.9	13.3	2.59e-05	0	42	0	728760320	21	4945
2026-01-12 22:59:30.07	112.29	25.18	-30.6	-34.1	12.5	5.03e-05	0	42	0	730857472	21	5404
2026-01-12 22:59:31.08	112.57	25.12	-30.3	-33.4	13.0	8.85e-05	0	42	0	732954624	21	5101
2026-01-12 22:59:32.08	112.84	25.06	-30.2	-32.8	13.3	2.05e-05	0	42	0	735051776	21	4908
2026-01-12 22:59:33.09	113.12	25.00	-30.0	-32.5	13.6	1.14e-05	0	42	0	737148928	21	4781
2026-01-12 22:59:34.10	113.40	24.94	-30.1	-32.6	13.5	7.60e-06	0	42	0	738197504	21	4822
2026-01-12 22:59:35.11	113.67	24.88	-30.3	-33.2	13.1	1.83e-05	0	42	0	740294656	21	5047
2026-01-12 22:59:36.11	113.94	24.82	-30.2	-33.1	13.1	3.28e-05	0	42	0	742391808	21	5028
2026-01-12 22:59:37.12	114.21	24.76	-30.2	-32.9	13.3	2.44e-05	0	42	0	744488960	21	4917
2026-01-12 22:59:38.12	114.48	24.70	-30.0	-32.3	13.7	6.10e-06	0	42	0	745537536	21	4739
2026-01-12 22:59:39.13	114.75	24.64	-29.8	-32.4	13.9	6.80e-06	0	42	0	747634688	20	4878
2026-01-12 22:59:40.14	115.02	24.58	-29.9	-32.7	13.7	8.30e-06	0	42	0	749731840	20	4964
2026-01-12 22:59:41.14	115.29	24.51	-30.0	-32.9	13.6	4.50e-06	0	42	0	751828992	20	5023
2026-01-12 22:59:42.15	115.56	24.45	-30.1	-33.3	13.3	2.55e-04	0	42	0	753926144	20	5180
2026-01-12 22:59:43.15	115.82	24.39	-30.1	-33.3	13.4	1.06e-05	0	42	0	754974720	20	5176
2026-01-12 22:59:44.15	116.08	24.32	-30.3	-33.8	13.0	2.44e-05	0	42	0	757071872	20	5393
2026-01-12 22:59:45.16	116.35	24.26	-30.1	-33.3	13.3	7.09e-05	0	42	0	759169024	20	5195
2026-01-12 22:59:46.16	116.61	24.19	-30.0	-33.1	13.4	1.05e-04	0	42	0	761266176	20	5129
2026-01-12 22:59:47.17	116.87	24.13	-30.1	-33.2	13.3	1.29e-05	0	42	0	763363328	20	5170
2026-01-12 22:59:48.17	117.13	24.06	-30.2	-33.7	13.0	7.24e-05	0	42	0	764411904	20	5345
2026-01-12 22:59:49.18	117.39	24.00	-30.2	-33.6	13.1	1.69e-04	0	42	0	766509056	20	5305
2026-01-12 22:59:50.18	117.64	23.93	-30.2	-33.5	13.2	2.44e-05	0	42	0	768606208	20	5262
2026-01-12 22:59:51.19	117.90	23.86	-30.2	-33.4	13.2	2.36e-05	0	42	0	770703360	20	5243
2026-01-12 22:59:52.19	118.16	23.79	-30.1	-33.3	13.3	6.56e-05	0	42	0	772800512	20	5210
2026-01-12 22:59:53.20	118.41	23.72	-30.2	-33.6	13.1	2.59e-05	0	42	0	773849088	20	5323
2026-01-12 22:59:54.21	118.67	23.66	-30.0	-32.8	13.6	1.29e-05	0	42	0	775946240	20	5014
2026-01-12 22:59:55.22	118.92	23.59	-30.1	-33.2	13.4	7.60e-06	0	42	0	778043392	20	5158
2026-01-12 22:59:56.22	119.17	23.52	-30.2	-33.6	13.1	3.66e-05	0	42	0	780140544	20	5309
2026-01-12 22:59:57.23	119.42	23.45	-30.2	-33.5	13.1	2.05e-05	0	42	0	782237696	20	5278
2026-01-12 22:59:58.24	119.67	23.38	-30.3	-33.8	12.9	6.25e-05	0	42	0	783286272	20	5394
2026-01-12 22:59:59.24	119.92	23.31	-30.0	-33.1	13.5	2.05e-05	0	42	0	785383424	20	5103
2026-01-12 23:00:00.23	120.16	23.24	-30.1	-33.1	13.5	1.06e-05	0	42	0	787480576	20	5120
2026-01-12 23:00:01.23	120.40	23.17	-30.3	-33.7	13.0	1.90e-05	0	42	0	789577728	20	5349
2026-01-12 23:00:02.23	120.65	23.10	-30.6	-34.1	12.4	1.32e-04	0	42	0	791674880	21	5426
2026-01-12 23:00:03.24	120.89	23.02	-30.5	-33.9	12.6	1.31e-04	0	42	0	792723456	21	5341
2026-01-12 23:00:04.25	121.14	22.95	-30.5	-34.1	12.4	2.20e-04	0	42	0	794820608	21	5393
2026-01-12 23:00:05.24	121.37	22.88	-30.2	-33.1	13.1	4.04e-05	0	42	0	796917760	21	5001
2026-01-12 23:00:06.24	121.61	22.81	-29.8	-32.0	13.8	7.93e-05	0	42	0	799014912	21	4612
2026-01-12 23:00:07.25	121.85	22.73	-29.6	-31.8	14.3	4.88e-05	0	42	0	801112064	20	4657
2026-01-12 23:00:08.25	122.09	22.66	-29.5	-31.6	14.4	7.00e-07	0	42	0	802160640	20	4580
2026-01-12 23:00:09.26	122.33	22.59	-29.7	-32.0	14.1	5.64e-05	0	42	0	804257792	20	4738
2026-01-12 23:00:10.26	122.56	22.51	-29.7	-32.2	14.0	6.40e-05	0	42	0	806354944	20	4810
2026-01-12 23:00:11.26	122.80	22.44	-29.8	-32.5	13.8	2.20e-06	0	42	0	808452096	20	4889
2026-01-12 23:00:12.27	123.03	22.37	-29.9	-32.7	13.6	3.89e-05	0	42	0	810549248	20	4987
2026-01-12 23:00:13.27	123.26	22.29	-29.6	-32.0	14.1	8.39e-05	0	42	0	811597824	20	4727
2026-01-12 23:00:14.27	123.49	22.22	-29.5	-31.7	14.3	1.50e-06	0	42	0	813694976	20	4631
2026-01-12 23:00:15.28	123.72	22.14	-29.6	-31.8	14.2	7.00e-07	0	42	0	815792128	20	4672
2026-01-12 23:00:16.29	123.95	22.07	-29.7	-32.1	14.0	4.88e-05	0	42	0	817889280	20	4773
2026-01-12 23:00:17.30	124.18	21.99	-30.0	-33.1	13.4	9.90e-06	0	42	0	819986432	20	5125
2026-01-12 23:00:18.30	124.41	21.91	-30.2	-33.7	12.9	3.66e-05	0	42	0	821035008	20	5374
2026-01-12 23:00:19.31	124.64	21.84	-30.5	-34.4	12.6	1.13e-04	0	42	0	823132160	20	5634
2026-01-12 23:00:20.31	124.86	21.76	-30.5	-34.3	12.5	9.68e-05	0	42	0	825229312	20	5609
2026-01-12 23:00:21.32	125.09	21.68	-30.4	-34.2	12.7	2.09e-04	0	42	0	827326464	20	5551
2026-01-12 23:00:22.33	125.31	21.61	-30.2	-33.4	13.1	4.27e-05	0	42	0	828375040	20	5255
2026-01-12 23:00:23.34	125.53	21.53	-30.1	-33.3	13.3	1.67e-05	0	42	0	830472192	20	5181
2026-01-12 23:00:24.34	125.75	21.45	-30.1	-33.4	13.1	4.27e-05	0	42	0	832569344	20	5234
2026-01-12 23:00:25.34	125.97	21.38	-30.1	-33.3	13.3	1.75e-05	0	42	0	834666496	20	5183
2026-01-12 23:00:26.35	126.19	21.30	-30.3	-34.0	12.8	3.89e-05	0	42	0	836763648	20	5477
2026-01-12 23:00:27.35	126.41	21.22	-30.5	-34.4	12.5	1.07e-04	0	42	0	838860800	20	5658
2026-01-12 23:00:28.36	126.62	21.14	-30.5	-33.8	12.5	1.17e-04	0	42	0	839909376	21	5312
2026-01-12 23:00:29.36	126.84	21.07	-30.3	-33.4	12.8	7.70e-05	0	42	0	842006528	21	5121
2026-01-12 23:00:30.37	127.05	20.99	-30.0	-32.5	13.4	3.35e-05	0	42	0	844103680	21	4808
2026-01-12 23:00:31.38	127.27	20.91	-29.8	-32.1	13.7	8.30e-06	0	42	0	846200832	21	4658
2026-01-12 23:00:32.38	127.48	20.83	-29.9	-32.3	13.6	3.80e-06	0	42	0	847249408	21	4722
2026-01-12 23:00:33.39	127.69	20.75	-30.1	-32.8	13.2	1.67e-05	0	42	0	849346560	21	4920
2026-01-12 23:00:34.40	127.90	20.67	-30.3	-33.3	12.9	2.97e-05	0	42	0	851443712	21	5099
2026-01-12 23:00:35.40	128.11	20.59	-30.5	-34.0	12.4	1.07e-04	0	42	0	853540864	21	5391
2026-01-12 23:00:36.41	128.32	20.51	-30.5	-34.0	12.4	1.65e-04	0	42	0	855638016	21	5376
2026-01-12 23:00:37.42	128.53	20.43	-30.4	-33.5	12.7	1.05e-04	0	42	0	856686592	21	5176
2026-01-12 23:00:38.42	128.73	20.36	-30.1	-32.9	13.1	3.20e-05	0	42	0	858783744	21	4935
2026-01-12 23:00:39.43	128.94	20.28	-30.0	-32.5	13.4	1.14e-05	0	42	0	860880896	21	4797
2026-01-12 23:00:40.43	129.14	20.20	-29.9	-32.8	13.5	9.10e-06	0	42	0	862978048	20	5027
2026-01-12 23:00:41.44	129.34	20.12	-30.0	-33.1	13.3	6.80e-06	0	42	0	865075200	20	5122
2026-01-12 23:00:42.45	129.55	20.04	-30.2	-33.7	12.9	4.88e-05	0	42	0	867172352	20	5381
2026-01-12 23:00:43.46	129.75	19.96	-30.5	-34.1	12.3	8.39e-05	0	42	0	868220928	21	5428
2026-01-12 23:00:44.46	129.95	19.88	-30.8	-34.9	11.7	4.31e-04	0	42	0	870318080	21	5763
2026-01-12 23:00:45.46	130.14	19.80	-30.8	-35.0	11.6	5.25e-04	0	42	0	872415232	21	5834
2026-01-12 23:00:46.47	130.34	19.72	-30.8	-34.8	11.8	8.60e-04	0	42	0	874512384	21	5725
2026-01-12 23:00:47.48	130.54	19.64	-30.3	-33.6	12.6	2.45e-04	0	42	0	875560960	21	5232
2026-01-12 23:00:48.48	130.74	19.56	-30.0	-32.6	13.2	2.05e-05	0	42	0	877658112	21	4858
2026-01-12 23:00:49.49	130.93	19.48	-29.9	-32.7	13.5	1.14e-05	0	42	0	879755264	20	5010
2026-01-12 23:00:50.50	131.13	19.40	-30.0	-33.0	13.3	1.29e-05	0	42	0	881852416	20	5115
2026-01-12 23:00:51.50	131.32	19.32	-30.2	-33.7	12.8	4.27e-05	0	42	0	883949568	20	5381
2026-01-12 23:00:52.51	131.51	19.23	-30.4	-34.2	12.5	8.54e-05	0	42	0	884998144	20	5600
2026-01-12 23:00:53.52	131.70	19.15	-29.7	-33.8	11.7	3.07e-04	0	42	0	887095296	21	5736
2026-01-12 23:00:54.52	131.89	19.07	-30.8	-35.1	11.2	9.12e-04	0	42	0	889192448	21	5886
2026-01-12 23:00:55.53	132.08	18.99	-30.8	-35.1	11.5	6.32e-04	0	42	0	891289600	21	5876
2026-01-12 23:00:56.54	132.27	18.91	-30.9	-35.2	11.2	9.31e-04	0	42	0	893386752	21	5942
2026-01-12 23:00:57.54	132.46	18.83	-30.7	-34.6	11.7	1.05e-03	0	42	0	895483904	21	5677
2026-01-12 23:00:58.55	132.64	18.75	-30.3	-33.5	12.6	1.35e-04	0	42	0	896532480	21	5215
2026-01-12 23:00:59.55	132.83	18.67	-30.1	-33.3	13.0	6.25e-05	0	42	0	898629632	20	5243
2026-01-12 23:01:00.55	133.01	18.59	-30.1	-33.5	12.9	2.51e-05	0	42	0	900726784	20	5319
2026-01-12 23:01:01.56	133.19	18.51	-30.2	-33.8	12.7	9.00e-05	0	42	0	902823936	20	5434
2026-01-12 23:01:02.56	133.37	18.43	-30.3	-34.0	12.5	7.62e-05	0	42	0	903872512	20	5529
2026-01-12 23:01:03.57	133.56	18.35	-30.4	-34.2	12.4	1.45e-04	0	42	0	905969664	20	5574
2026-01-12 23:01:04.58	133.74	18.27	-30.2	-33.6	12.8	1.11e-04	0	42	0	908066816	20	5352
2026-01-12 23:01:05.58	133.92	18.19	-30.1	-33.3	13.0	3.58e-05	0	42	0	910163968	20	5236
2026-01-12 23:01:06.58	134.09	18.11	-30.1	-33.4	13.0	3.73e-05	0	42	0	912261120	20	5257
2026-01-12 23:01:07.59	134.27	18.02	-30.0	-33.1	13.2	3.81e-05	0	42	0	913309696	20	5153
2026-01-12 23:01:08.59	134.45	17.94	-30.1	-33.3	13.0	3.54e-04	0	42	0	915406848	20	5222
2026-01-12 23:01:09.60	134.62	17.86	-30.1	-33.4	12.9	5.51e-04	0	42	0	917504000	20	5272
2026-01-12 23:01:10.60	134.80	17.78	-30.0	-33.1	13.1	2.59e-05	0	42	0	919601152	20	5162
2026-01-12 23:01:11.60	134.97	17.70	-30.0	-33.2	13.1	5.31e-04	0	42	0	921698304	20	5170
2026-01-12 23:01:12.61	135.15	17.62	-30.1	-33.4	12.9	4.23e-04	0	42	0	922746880	20	5251
2026-01-12 23:01:13.61	135.32	17.54	-30.0	-33.2	13.0	4.50e-05	0	42	0	924844032	20	5212
2026-01-12 23:01:14.61	135.49	17.46	-29.9	-32.9	13.2	2.82e-05	0	42	0	926941184	20	5083
2026-01-12 23:01:15.61	135.66	17.38	-29.9	-33.2	13.3	2.50e-04	0	42	0	929038336	19	5314
2026-01-12 23:01:16.62	135.83	17.30	-29.7	-32.9	13.6	1.44e-05	0	42	0	931135488	19	5190
2026-01-12 23:01:17.63	136.00	17.22	-29.6	-32.7	13.7	3.80e-06	0	42	0	932184064	19	5109
2026-01-12 23:01:18.63	136.16	17.14	-29.6	-32.6	13.8	1.95e-04	0	42	0	934281216	19	5064
2026-01-12 23:01:19.63	136.33	17.06	-29.5	-32.5	13.8	5.30e-06	0	42	0	936378368	19	5041
2026-01-12 23:01:20.64	136.50	16.98	-29.6	-32.8	13.6	7.24e-05	0	42	0	938475520	19	5178
2026-01-12 23:01:21.64	136.66	16.90	-29.7	-33.0	13.4	1.52e-05	0	42	0	940572672	19	5271
2026-01-12 23:01:22.64	136.82	16.82	-29.7	-33.0	13.4	1.14e-05	0	42	0	941621248	19	5253
2026-01-12 23:01:23.65	136.99	16.74	-29.8	-33.1	13.3	1.08e-04	0	42	0	943718400	19	5308
2026-01-12 23:01:24.66	137.15	16.65	-29.8	-33.1	13.3	2.28e-05	0	42	0	945815552	19	5296
2026-01-12 23:01:25.65	137.31	16.58	-29.7	-32.9	13.4	1.37e-05	0	42	0	947912704	19	5220
2026-01-12 23:01:26.66	137.47	16.50	-29.7	-32.9	13.4	5.26e-04	0	42	0	950009856	19	5206
2026-01-12 23:01:27.67	137.63	16.41	-29.6	-32.7	13.6	7.84e-04	0	42	0	951058432	19	5140
2026-01-12 23:01:28.66	137.79	16.34	-29.7	-33.0	13.4	1.29e-05	0	42	0	953155584	19	5264
2026-01-12 23:01:29.66	137.95	16.26	-29.7	-32.9	13.4	7.70e-04	0	42	0	955252736	19	5222
2026-01-12 23:01:30.67	138.10	16.18	-29.5	-32.3	13.8	4.47e-04	0	42	0	957349888	19	5008
2026-01-12 23:01:31.67	138.26	16.10	-29.4	-32.1	13.9	4.50e-06	0	42	0	959447040	19	4941
2026-01-12 23:01:32.68	138.42	16.02	-29.4	-32.2	13.9	8.39e-05	0	42	0	960495616	19	4946
2026-01-12 23:01:33.69	138.57	15.94	-29.4	-32.2	13.8	7.24e-05	0	42	0	962592768	19	4958
2026-01-12 23:01:34.69	138.73	15.86	-29.4	-32.3	13.8	3.00e-06	0	42	0	964689920	19	5009
2026-01-12 23:01:35.69	138.88	15.78	-29.5	-32.4	13.7	1.28e-04	0	42	0	966787072	19	5038
2026-01-12 23:01:36.70	139.03	15.70	-29.6	-32.7	13.5	3.38e-04	0	42	0	968884224	19	5147
2026-01-12 23:01:37.70	139.18	15.62	-29.6	-32.8	13.4	1.60e-05	0	42	0	969932800	19	5207
2026-01-12 23:01:38.70	139.33	15.54	-29.8	-33.3	13.0	2.44e-05	0	42	0	972029952	19	5397
2026-01-12 23:01:39.71	139.49	15.46	-29.9	-33.6	12.8	1.07e-03	0	42	0	974127104	19	5514
2026-01-12 23:01:40.71	139.63	15.38	-29.9	-33.7	12.8	5.79e-05	0	42	0	976224256	19	5560
2026-01-12 23:01:41.71	139.78	15.30	-30.0	-33.8	12.7	1.28e-03	0	42	0	977272832	19	5620
2026-01-12 23:01:42.71	139.93	15.22	-30.0	-33.5	12.5	1.10e-03	0	42	0	979369984	20	5371
2026-01-12 23:01:43.73	140.08	15.14	-30.0	-33.6	12.4	1.46e-04	0	42	0	981467136	20	5449
2026-01-12 23:01:44.72	140.22	15.06	-30.1	-34.0	12.0	8.14e-04	0	42	0	983564288	20	5633
2026-01-12 23:01:45.73	140.37	14.98	-30.1	-33.8	12.2	3.29e-04	0	42	0	985661440	20	5529
2026-01-12 23:01:46.73	140.52	14.91	-29.9	-33.5	12.4	1.65e-04	0	42	0	986710016	20	5395
2026-01-12 23:01:47.73	140.66	14.83	-29.9	-33.4	12.4	2.02e-04	0	42	0	988807168	20	5370
2026-01-12 23:01:48.74	140.80	14.75	-29.9	-33.3	12.4	1.35e-04	0	42	0	990904320	20	5320
2026-01-12 23:01:49.74	140.95	14.67	-29.9	-33.3	12.4	1.31e-04	0	42	0	993001472	20	5330
2026-01-12 23:01:50.75	141.09	14.59	-30.0	-33.7	12.2	5.78e-04	0	42	0	995098624	20	5494
2026-01-12 23:01:51.76	141.23	14.51	-30.0	-33.5	12.2	7.39e-04	0	42	0	996147200	20	5427
2026-01-12 23:01:52.76	141.37	14.43	-29.9	-33.3	12.4	1.43e-04	0	42	0	998244352	20	5337
2026-01-12 23:01:53.76	141.51	14.36	-29.9	-33.4	12.4	1.19e-03	0	42	0	1000341504	20	5376
2026-01-12 23:01:54.76	141.65	14.28	-29.8	-33.1	12.5	1.30e-03	0	42	0	1002438656	20	5231
2026-01-12 23:01:55.77	141.79	14.20	-29.8	-32.9	12.7	8.85e-05	0	42	0	1004535808	20	5147
2026-01-12 23:01:56.77	141.93	14.12	-29.8	-33.5	12.6	8.16e-05	0	42	0	1005584384	19	5495
2026-01-12 23:01:57.77	142.06	14.05	-29.9	-33.7	12.5	1.24e-03	0	42	0	1007681536	19	5576
2026-01-12 23:01:58.78	142.20	13.97	-29.9	-33.8	12.5	1.37e-04	0	42	0	1009778688	19	5619
2026-01-12 23:01:59.78	142.33	13.89	-30.0	-33.5	12.2	2.15e-04	0	42	0	1011875840	20	5419
2026-01-12 23:02:00.79	142.47	13.81	-30.1	-34.0	11.8	3.02e-04	0	42	0	1013972992	20	5638
2026-01-12 23:02:01.79	142.60	13.74	-30.1	-34.0	11.8	5.40e-04	0	42	0	1015021568	20	5642
2026-01-12 23:02:02.79	142.74	13.66	-30.2	-34.3	11.6	6.75e-04	0	42	0	1017118720	20	5778
2026-01-12 23:02:03.80	142.87	13.58	-30.2	-34.4	11.5	7.97e-04	0	42	0	1019215872	20	5831
2026-01-12 23:02:04.80	143.00	13.50	-30.3	-34.8	11.1	9.00e-04	0	42	0	1021313024	20	6057
2026-01-12 23:02:05.80	143.13	13.43	-30.2	-34.6	11.3	1.35e-03	0	42	0	1023410176	20	5952
2026-01-12 23:02:06.81	143.27	13.35	-30.3	-34.8	11.2	1.39e-03	0	42	0	1024458752	20	6047
2026-01-12 23:02:07.81	143.39	13.27	-30.3	-34.7	11.2	1.49e-03	0	42	0	1026555904	20	6017
2026-01-12 23:02:08.82	143.53	13.20	-30.3	-34.7	11.2	2.96e-03	0	42	0	1028653056	20	6009
2026-01-12 23:02:09.83	143.66	13.12	-30.4	-35.2	10.9	1.79e-03	0	42	0	1030750208	20	6239
2026-01-12 23:02:10.83	143.78	13.04	-30.3	-34.9	11.0	2.47e-03	0	42	0	1032847360	20	6113
2026-01-12 23:02:11.83	143.91	12.97	-30.2	-34.4	11.4	1.58e-03	0	42	0	1033895936	20	5881
2026-01-12 23:02:12.84	144.04	12.89	-30.2	-34.5	11.4	9.41e-04	0	42	0	1035993088	20	5897
2026-01-12 23:02:13.85	144.17	12.81	-30.1	-34.3	11.5	9.05e-04	0	42	0	1038090240	20	5821
2026-01-12 23:02:14.86	144.29	12.74	-30.2	-34.5	11.4	9.16e-04	0	42	0	1040187392	20	5871
2026-01-12 23:02:15.87	144.42	12.66	-30.3	-34.6	11.3	1.06e-03	0	42	0	1042284544	20	5962
2026-01-12 23:02:16.88	144.54	12.59	-30.3	-34.6	11.3	1.17e-03	0	42	0	1043333120	20	5950
2026-01-12 23:02:17.88	144.67	12.51	-30.3	-34.8	11.2	1.05e-03	0	42	0	1045430272	20	6037
2026-01-12 23:02:18.89	144.79	12.43	-30.3	-34.8	11.1	1.60e-03	0	42	0	1047527424	20	6046
2026-01-12 23:02:19.90	144.91	12.36	-30.3	-34.7	11.2	1.31e-03	0	42	0	1049624576	20	5998
2026-01-12 23:02:20.90	145.04	12.28	-30.5	-35.2	10.9	1.73e-03	0	42	0	1051721728	20	6233
2026-01-12 23:02:21.91	145.16	12.21	-30.4	-34.5	11.1	2.58e-03	0	42	0	1052770304	21	5772
2026-01-12 23:02:22.91	145.28	12.13	-30.4	-34.5	11.0	1.88e-03	0	42	0	1054867456	21	5797
2026-01-12 23:02:23.92	145.40	12.06	-30.5	-35.0	10.6	2.56e-03	0	42	0	1056964608	21	6042
2026-01-12 23:02:24.92	145.52	11.98	-30.4	-34.5	11.0	2.62e-03	0	42	0	1059061760	21	5791
2026-01-12 23:02:25.93	145.64	11.91	-30.3	-34.2	11.2	1.57e-03	0	42	0	1061158912	21	5679
2026-01-12 23:02:26.93	145.76	11.83	-30.2	-34.5	11.4	1.18e-03	0	42	0	1062207488	20	5894
2026-01-12 23:02:27.93	145.87	11.76	-30.2	-34.4	11.4	1.04e-03	0	42	0	1064304640	20	5844
2026-01-12 23:02:28.94	145.99	11.69	-30.2	-34.5	11.3	3.37e-03	0	42	0	1066401792	20	5917
2026-01-12 23:02:29.95	146.11	11.61	-30.1	-34.3	11.5	9.25e-04	0	42	0	1068498944	20	5810
2026-01-12 23:02:30.94	146.22	11.54	-30.2	-34.5	11.4	9.48e-04	0	42	0	1070596096	20	5896
2026-01-12 23:02:31.95	146.34	11.46	-30.3	-34.9	11.0	1.28e-03	0	42	0	1071644672	20	6105
2026-01-12 23:02:32.96	146.46	11.39	-30.1	-34.4	11.4	1.00e-03	0	42	0	1073741824	20	5871
2026-01-12 23:02:33.96	146.57	11.32	-30.1	-34.3	11.4	8.88e-04	0	42	0	1075838976	20	5856
2026-01-12 23:02:34.96	146.69	11.24	-30.2	-34.5	11.3	1.12e-03	0	42	0	1077936128	20	5949
2026-01-12 23:02:35.96	146.80	11.17	-30.1	-34.2	11.5	3.32e-03	0	42	0	1078984704	20	5790
2026-01-12 23:02:36.97	146.91	11.10	-30.2	-34.6	11.2	1.23e-03	0	42	0	1081081856	20	5986
2026-01-12 23:02:37.98	147.02	11.02	-30.1	-34.3	11.4	1.22e-03	0	42	0	1083179008	20	5870
2026-01-12 23:02:38.99	147.14	10.95	-30.1	-34.4	11.3	3.30e-03	0	42	0	1085276160	20	5924
2026-01-12 23:02:39.99	147.25	10.88	-30.2	-34.9	11.0	1.94e-03	0	42	0	1087373312	20	6142
2026-01-12 23:02:41.00	147.36	10.80	-30.1	-34.4	11.4	1.38e-03	0	42	0	1089470464	20	5874
2026-01-12 23:02:42.00	147.47	10.73	-30.0	-34.1	11.5	7.64e-04	0	42	0	1090519040	20	5760
2026-01-12 23:02:43.01	147.58	10.66	-29.9	-33.8	11.8	8.31e-04	0	42	0	1092616192	20	5595
2026-01-12 23:02:44.01	147.69	10.58	-30.0	-34.3	11.9	3.97e-04	0	42	0	1094713344	19	5914
2026-01-12 23:02:45.02	147.80	10.51	-30.0	-33.9	11.7	4.84e-04	0	42	0	1096810496	20	5660
2026-01-12 23:02:46.03	147.91	10.44	-29.8	-33.4	12.1	5.48e-04	0	42	0	1097859072	20	5412
2026-01-12 23:02:47.03	148.01	10.37	-30.0	-34.3	11.9	2.81e-03	0	42	0	1099956224	19	5897
2026-01-12 23:02:48.03	148.12	10.30	-29.9	-34.0	12.1	2.99e-04	0	42	0	1102053376	19	5766
2026-01-12 23:02:49.04	148.23	10.22	-29.9	-33.9	12.2	3.78e-04	0	42	0	1104150528	19	5696
2026-01-12 23:02:50.04	148.33	10.15	-29.9	-33.8	12.2	2.55e-03	0	42	0	1106247680	19	5688
2026-01-12 23:02:51.04	148.44	10.08	-29.9	-33.9	12.2	2.98e-03	0	42	0	1107296256	19	5715
2026-01-12 23:02:52.04	148.54	10.01	-29.9	-33.9	12.1	2.35e-04	0	42	0	1109393408	19	5724
2026-01-12 23:02:53.04	148.65	9.94	-29.9	-34.1	12.0	2.92e-03	0	42	0	1111490560	19	5805
2026-01-12 23:02:54.05	148.75	9.87	-29.9	-34.0	12.1	2.97e-03	0	42	0	1113587712	19	5763
2026-01-12 23:02:55.05	148.86	9.80	-30.0	-34.3	11.8	3.01e-04	0	42	0	1115684864	19	5916
2026-01-12 23:02:56.06	148.96	9.72	-30.0	-34.1	11.4	3.30e-03	0	42	0	1116733440	20	5783
2026-01-12 23:02:57.07	149.06	9.65	-29.9	-33.8	11.6	3.19e-03	0	42	0	1118830592	20	5646
2026-01-12 23:02:58.07	149.17	9.58	-30.0	-34.3	11.3	1.08e-03	0	42	0	1120927744	20	5858
2026-01-12 23:02:59.08	149.27	9.51	-30.2	-34.8	10.8	1.54e-03	0	42	0	1123024896	20	6147
2026-01-12 23:03:00.09	149.37	9.44	-30.1	-34.3	11.2	4.48e-03	0	42	0	1125122048	20	5875
2026-01-12 23:03:01.09	149.47	9.37	-30.1	-34.4	11.1	1.72e-03	0	42	0	1126170624	20	5929
2026-01-12 23:03:02.09	149.57	9.30	-30.1	-34.4	11.1	4.06e-03	0	42	0	1128267776	20	5927
2026-01-12 23:03:03.10	149.67	9.23	-30.2	-34.9	10.8	5.02e-03	0	42	0	1130364928	20	6158
2026-01-12 23:03:04.11	149.77	9.16	-30.2	-34.7	10.9	2.66e-03	0	42	0	1132462080	20	6055
2026-01-12 23:03:05.11	149.87	9.09	-30.3	-34.8	10.9	4.79e-03	0	42	0	1134559232	20	6079
2026-01-12 23:03:06.11	149.97	9.02	-30.5	-35.4	10.4	6.67e-03	0	42	0	1135607808	20	6397
2026-01-12 23:03:07.11	150.07	8.95	-30.5	-35.4	10.4	5.37e-03	0	42	0	1137704960	20	6395
2026-01-12 23:03:08.11	150.16	8.88	-30.3	-34.9	10.8	6.02e-03	0	42	0	1139802112	20	6132
2026-01-12 23:03:09.12	150.26	8.81	-30.4	-35.1	10.7	5.33e-03	0	42	0	1141899264	20	6220
2026-01-12 23:03:10.13	150.36	8.74	-30.4	-35.3	10.4	4.15e-03	0	42	0	1143996416	20	6355
2026-01-12 23:03:11.13	150.45	8.67	-30.2	-34.9	10.7	6.21e-03	0	42	0	1145044992	20	6147
2026-01-12 23:03:12.14	150.55	8.60	-30.2	-34.8	10.7	5.75e-03	0	42	0	1147142144	20	6168
2026-01-12 23:03:13.15	150.65	8.53	-30.2	-35.1	10.4	4.03e-03	0	42	0	1149239296	20	6338
2026-01-12 23:03:14.15	150.74	8.47	-30.1	-35.0	10.4	7.53e-03	0	42	0	1151336448	20	6334
2026-01-12 23:03:15.16	150.84	8.40	-29.8	-34.3	10.8	6.23e-03	0	42	0	1153433600	20	6072
2026-01-12 23:03:16.17	150.93	8.33	-29.6	-33.9	11.0	2.12e-03	0	42	0	1154482176	20	5918
2026-01-12 23:03:17.18	151.03	8.26	-29.5	-34.3	11.1	4.24e-03	0	42	0	1156579328	19	6238
2026-01-12 23:03:18.19	151.12	8.19	-29.6	-34.6	10.8	5.18e-03	0	42	0	1158676480	19	6422
2026-01-12 23:03:19.20	151.21	8.12	-29.6	-34.7	10.8	2.60e-03	0	42	0	1160773632	19	6460
2026-01-12 23:03:20.20	151.30	8.05	-29.6	-34.6	10.8	2.82e-03	0	42	0	1162870784	19	6402
2026-01-12 23:03:21.21	151.40	7.99	-29.6	-34.5	10.9	5.27e-03	0	42	0	1163919360	19	6342
2026-01-12 23:03:22.21	151.49	7.92	-29.7	-34.8	10.7	2.89e-03	0	42	0	1166016512	19	6461
2026-01-12 23:03:23.22	151.58	7.85	-29.8	-35.0	10.5	4.12e-03	0	42	0	1168113664	19	6586
2026-01-12 23:03:24.23	151.67	7.78	-29.8	-34.9	10.7	5.38e-03	0	42	0	1170210816	19	6475
2026-01-12 23:03:25.23	151.76	7.72	-30.0	-34.8	10.3	4.88e-03	0	42	0	1172307968	20	6298
2026-01-12 23:03:26.23	151.85	7.65	-29.9	-34.8	10.8	2.24e-03	0	42	0	1173356544	19	6339
2026-01-12 23:03:27.24	151.94	7.58	-29.9	-34.8	10.9	1.94e-03	0	42	0	1175453696	19	6358
2026-01-12 23:03:28.25	152.03	7.51	-29.9	-34.7	11.0	3.04e-03	0	42	0	1177550848	19	6277
2026-01-12 23:03:29.25	152.12	7.45	-29.9	-34.6	11.1	1.78e-03	0	42	0	1179648000	19	6204
2026-01-12 23:03:30.26	152.21	7.38	-30.0	-34.5	10.7	1.79e-03	0	42	0	1181745152	20	6030
2026-01-12 23:03:31.26	152.30	7.31	-30.0	-34.5	10.7	3.19e-03	0	42	0	1182793728	20	6048
2026-01-12 23:03:32.27	152.38	7.25	-29.9	-34.0	11.1	5.56e-03	0	42	0	1184890880	20	5790
2026-01-12 23:03:33.27	152.47	7.18	-30.0	-34.8	11.0	1.88e-03	0	42	0	1186988032	19	6253
2026-01-12 23:03:34.27	152.56	7.11	-31.1	-37.7	8.3	2.16e-03	0	42	0	1189085184	22	7728
2026-01-12 23:03:35.27	152.64	7.05	-32.3	-46.8	3.8	1.49e+00	0	42	104	1189085184	24	19254
2026-01-12 23:03:36.28	152.73	6.98	-33.3	-47.7	3.8	1.49e+00	0	42	104	1189085184	26	18857
2026-01-12 23:03:37.29	152.82	6.91	-33.6	-47.7	3.8	1.49e+00	0	42	104	1189085184	27	18352
2026-01-12 23:03:38.29	152.90	6.85	-33.7	-48.1	3.8	1.49e+00	0	42	104	1189085184	27	18795

#Closed at: 2026-01-12 23:03:38
#Recorded file [1189 MB]: D:/data/31010_260113_015259.dat