passes_logs/2026/01/12/R2M6_AANII_01/R2M6_AANII_01__20260112_090504_NOAA_20_JPSS-1_rec.log

#Pass ID: 20260112_090504_NOAA 20 (JPSS-1)
#Satellite: NOAA 20 (JPSS-1)
#Configuration: NOAA 20
#almurnet v.1.7.20240730
#Start time: 2026-01-12 09:05:05

#Version: 2.2.20231116
#Station: R2M6_AANII_01
#Location: 30.233357 lon 59.946436 lat
#TLE: 1 43013U 17073A   26011.31235446  .00000090  00000+0  63634-4 0  9991
#TLE: 2 43013  98.7632 312.2907 0001646  44.6084 315.5224 14.19535308422217

#Time	Az	El	Level	Level2	SNR	BER	BlckErr	Temp	State	Recorded	gain1	gain2
2026-01-12 09:05:05.77	121.98	7.07	-31.4	-37.5	4.9	1.29e+00	0	39	0	0	24	7209
2026-01-12 09:05:06.78	121.92	7.14	-31.4	-37.3	4.9	1.28e+00	0	39	104	0	24	7107
2026-01-12 09:05:07.78	121.86	7.22	-31.5	-37.3	7.4	1.22e-01	0	39	0	0	24	7078
2026-01-12 09:05:08.79	121.80	7.29	-31.5	-37.5	7.3	1.08e-01	0	40	0	1048576	24	7183
2026-01-12 09:05:09.79	121.73	7.36	-31.4	-37.1	7.6	1.10e-01	0	39	0	3145728	24	6919
2026-01-12 09:05:10.79	121.67	7.44	-31.4	-37.1	7.7	9.62e-02	0	39	0	5242880	24	6902
2026-01-12 09:05:11.80	121.61	7.51	-31.4	-37.2	7.6	8.02e-02	0	39	0	7340032	24	6957
2026-01-12 09:05:12.80	121.55	7.58	-31.5	-37.6	7.3	1.04e-01	0	40	0	9437184	24	7262
2026-01-12 09:05:13.81	121.48	7.66	-31.6	-37.8	7.1	1.77e-01	0	39	0	10485760	24	7375
2026-01-12 09:05:14.81	121.42	7.73	-31.6	-37.9	7.1	1.42e-01	0	40	0	12582912	24	7409
2026-01-12 09:05:15.81	121.36	7.80	-31.8	-39.2	6.2	2.48e-01	0	40	0	14680064	24	8429
2026-01-12 09:05:16.82	121.29	7.88	-31.7	-38.6	6.6	2.60e-01	0	40	0	16777216	24	7937
2026-01-12 09:05:17.83	121.23	7.95	-31.6	-37.8	7.2	1.67e-01	0	40	0	18874368	24	7385
2026-01-12 09:05:18.84	121.16	8.03	-31.4	-36.8	8.0	7.47e-02	0	40	0	19922944	24	6727
2026-01-12 09:05:19.84	121.10	8.10	-31.1	-36.1	8.9	4.33e-02	0	40	0	22020096	23	6392
2026-01-12 09:05:20.85	121.03	8.18	-30.9	-35.2	9.7	1.81e-02	0	40	0	24117248	23	5906
2026-01-12 09:05:21.85	120.97	8.25	-30.7	-35.0	10.3	1.12e-02	0	40	0	26214400	22	5888
2026-01-12 09:05:22.86	120.90	8.33	-30.6	-34.5	10.6	3.48e-03	0	40	0	28311552	22	5670
2026-01-12 09:05:23.87	120.83	8.41	-30.5	-34.1	11.0	2.50e-03	0	40	0	29360128	22	5474
2026-01-12 09:05:24.87	120.76	8.48	-30.5	-34.0	11.1	1.34e-03	0	40	0	31457280	22	5419
2026-01-12 09:05:25.88	120.70	8.56	-30.4	-34.0	11.1	1.46e-03	0	40	0	33554432	22	5405
2026-01-12 09:05:26.88	120.63	8.63	-30.6	-34.5	10.7	2.26e-03	0	40	0	35651584	22	5640
2026-01-12 09:05:27.89	120.56	8.71	-30.4	-33.9	11.1	2.42e-03	0	40	0	37748736	22	5387
2026-01-12 09:05:28.89	120.49	8.79	-30.4	-34.0	11.1	1.21e-03	0	40	0	38797312	22	5417
2026-01-12 09:05:29.90	120.42	8.86	-30.5	-34.2	11.0	1.80e-03	0	40	0	40894464	22	5485
2026-01-12 09:05:30.91	120.35	8.94	-30.5	-34.3	10.9	2.11e-03	0	40	0	42991616	22	5545
2026-01-12 09:05:31.91	120.29	9.02	-30.6	-34.4	10.9	2.12e-03	0	40	0	45088768	22	5578
2026-01-12 09:05:32.92	120.21	9.10	-30.6	-34.3	10.9	1.91e-03	0	40	0	47185920	22	5550
2026-01-12 09:05:33.93	120.14	9.17	-30.6	-34.4	10.9	2.55e-03	0	40	0	48234496	22	5586
2026-01-12 09:05:34.94	120.07	9.25	-30.5	-34.0	11.1	1.99e-03	0	40	0	50331648	22	5418
2026-01-12 09:05:35.94	120.00	9.33	-30.5	-34.0	11.2	1.30e-03	0	40	0	52428800	22	5403
2026-01-12 09:05:36.95	119.93	9.41	-30.5	-34.0	11.1	1.38e-03	0	40	0	54525952	22	5419
2026-01-12 09:05:37.95	119.86	9.49	-30.6	-34.5	10.9	1.56e-03	0	40	0	56623104	22	5595
2026-01-12 09:05:38.96	119.79	9.57	-30.5	-34.1	11.0	2.23e-03	0	40	0	57671680	22	5449
2026-01-12 09:05:39.96	119.71	9.64	-30.6	-34.3	10.9	1.47e-03	0	40	0	59768832	22	5549
2026-01-12 09:05:40.97	119.64	9.72	-30.8	-35.2	10.3	3.33e-03	0	40	0	61865984	22	5950
2026-01-12 09:05:41.96	119.57	9.80	-30.8	-35.0	10.4	4.50e-03	0	40	0	63963136	22	5874
2026-01-12 09:05:42.96	119.49	9.88	-30.9	-35.5	10.1	6.60e-03	0	40	0	65011712	22	6093
2026-01-12 09:05:43.97	119.42	9.96	-30.8	-35.3	10.3	7.49e-03	0	40	0	67108864	22	5982
2026-01-12 09:05:44.98	119.34	10.04	-30.9	-35.6	10.0	5.49e-03	0	40	0	69206016	22	6159
2026-01-12 09:05:45.98	119.27	10.12	-31.1	-36.3	9.5	1.26e-02	0	40	0	71303168	22	6505
2026-01-12 09:05:46.99	119.19	10.20	-30.9	-35.3	10.3	9.42e-03	0	40	0	73400320	22	5995
2026-01-12 09:05:48.00	119.12	10.28	-30.6	-34.5	10.9	4.56e-03	0	41	0	74448896	22	5600
2026-01-12 09:05:49.00	119.04	10.36	-30.5	-34.1	11.2	1.34e-03	0	40	0	76546048	22	5421
2026-01-12 09:05:50.01	118.96	10.44	-30.3	-33.4	11.7	7.40e-04	0	41	0	78643200	22	5131
2026-01-12 09:05:51.01	118.89	10.52	-30.4	-33.6	11.6	6.83e-04	0	41	0	80740352	22	5218
2026-01-12 09:05:52.02	118.81	10.61	-30.4	-33.7	11.5	7.03e-04	0	40	0	82837504	22	5254
2026-01-12 09:05:53.03	118.73	10.69	-30.4	-33.9	11.4	1.01e-03	0	41	0	84934656	22	5333
2026-01-12 09:05:54.04	118.65	10.77	-30.6	-34.2	11.2	9.96e-04	0	41	0	85983232	22	5474
2026-01-12 09:05:55.04	118.57	10.85	-30.6	-34.3	11.1	1.42e-03	0	41	0	88080384	22	5530
2026-01-12 09:05:56.04	118.49	10.93	-30.4	-33.6	11.6	8.73e-04	0	41	0	90177536	22	5208
2026-01-12 09:05:57.04	118.41	11.02	-30.2	-33.4	12.0	4.69e-04	0	41	0	92274688	21	5248
2026-01-12 09:05:58.04	118.33	11.10	-30.1	-33.1	12.3	2.27e-04	0	41	0	93323264	21	5125
2026-01-12 09:05:59.04	118.25	11.18	-30.1	-33.3	12.2	2.48e-04	0	41	0	95420416	21	5180
2026-01-12 09:06:00.05	118.17	11.26	-30.1	-33.2	12.2	2.23e-04	0	41	0	97517568	21	5155
2026-01-12 09:06:01.05	118.09	11.35	-30.2	-33.6	11.9	2.67e-04	0	41	0	99614720	21	5338
2026-01-12 09:06:02.05	118.00	11.43	-30.3	-33.7	11.9	3.49e-04	0	41	0	101711872	21	5367
2026-01-12 09:06:03.06	117.92	11.51	-30.3	-33.9	11.8	5.26e-04	0	41	0	102760448	21	5442
2026-01-12 09:06:04.07	117.84	11.60	-30.2	-33.6	12.0	4.40e-04	0	41	0	104857600	21	5299
2026-01-12 09:06:05.08	117.75	11.68	-30.2	-33.4	12.1	3.33e-04	0	41	0	106954752	21	5232
2026-01-12 09:06:06.09	117.67	11.77	-30.1	-33.2	12.3	2.04e-04	0	41	0	109051904	21	5148
2026-01-12 09:06:07.09	117.58	11.85	-30.1	-33.2	12.3	1.85e-04	0	41	0	111149056	21	5154
2026-01-12 09:06:08.10	117.50	11.94	-30.0	-32.9	12.5	1.87e-04	0	41	0	112197632	21	5025
2026-01-12 09:06:09.10	117.41	12.02	-29.9	-32.7	12.7	9.99e-05	0	41	0	114294784	21	4937
2026-01-12 09:06:10.11	117.32	12.11	-30.0	-32.8	12.6	8.85e-05	0	41	0	116391936	21	4988
2026-01-12 09:06:11.11	117.24	12.19	-30.2	-33.3	12.2	1.17e-04	0	41	0	118489088	21	5196
2026-01-12 09:06:12.11	117.15	12.28	-30.1	-33.1	12.5	1.14e-04	0	41	0	120586240	21	5089
2026-01-12 09:06:13.12	117.06	12.37	-30.1	-33.1	12.5	1.07e-04	0	41	0	121634816	21	5092
2026-01-12 09:06:14.12	116.97	12.45	-30.0	-32.8	12.7	1.06e-04	0	41	0	123731968	21	4970
2026-01-12 09:06:15.12	116.88	12.54	-30.0	-32.8	12.7	6.25e-05	0	41	0	125829120	21	4961
2026-01-12 09:06:16.13	116.79	12.62	-30.0	-32.7	12.8	6.94e-05	0	41	0	127926272	21	4936
2026-01-12 09:06:17.13	116.70	12.71	-30.0	-32.9	12.6	9.23e-05	0	41	0	130023424	21	5030
2026-01-12 09:06:18.13	116.61	12.80	-29.9	-32.6	12.9	7.01e-05	0	41	0	131072000	21	4897
2026-01-12 09:06:19.14	116.52	12.89	-30.0	-32.8	12.7	5.56e-05	0	41	0	133169152	21	4958
2026-01-12 09:06:20.14	116.43	12.97	-30.0	-33.0	12.6	6.56e-05	0	41	0	135266304	21	5047
2026-01-12 09:06:21.15	116.34	13.06	-30.1	-33.0	12.6	8.54e-05	0	41	0	137363456	21	5072
2026-01-12 09:06:22.15	116.25	13.15	-29.9	-32.7	12.8	8.46e-05	0	41	0	139460608	21	4944
2026-01-12 09:06:23.16	116.15	13.24	-29.9	-32.7	12.8	6.10e-05	0	41	0	140509184	21	4927
2026-01-12 09:06:24.16	116.06	13.33	-29.9	-32.4	12.9	4.27e-05	0	41	0	142606336	21	4831
2026-01-12 09:06:25.16	115.96	13.42	-30.0	-32.7	12.8	5.56e-05	0	41	0	144703488	21	4954
2026-01-12 09:06:26.16	115.87	13.50	-30.0	-32.8	12.7	5.56e-05	0	41	0	146800640	21	4985
2026-01-12 09:06:27.17	115.77	13.59	-30.0	-32.8	12.7	8.85e-05	0	41	0	148897792	21	4980
2026-01-12 09:06:28.17	115.68	13.68	-30.1	-33.2	12.5	8.39e-05	0	41	0	149946368	21	5120
2026-01-12 09:06:29.17	115.58	13.77	-30.2	-33.3	12.5	9.53e-05	0	41	0	152043520	21	5139
2026-01-12 09:06:30.18	115.48	13.86	-30.1	-33.1	12.6	1.15e-04	0	41	0	154140672	21	5073
2026-01-12 09:06:31.18	115.38	13.95	-30.2	-33.3	12.5	1.14e-04	0	41	0	156237824	21	5149
2026-01-12 09:06:32.19	115.28	14.05	-30.2	-33.3	12.5	1.56e-04	0	41	0	158334976	21	5132
2026-01-12 09:06:33.19	115.18	14.14	-30.1	-32.9	12.7	7.09e-05	0	41	0	159383552	21	5011
2026-01-12 09:06:34.20	115.08	14.23	-30.0	-32.8	12.8	6.71e-05	0	41	0	161480704	21	4977
2026-01-12 09:06:35.20	114.98	14.32	-30.0	-32.9	12.8	6.10e-05	0	41	0	163577856	21	4989
2026-01-12 09:06:36.20	114.88	14.41	-30.0	-32.6	13.0	4.73e-05	0	41	0	165675008	21	4899
2026-01-12 09:06:37.20	114.78	14.50	-30.1	-33.0	12.7	5.56e-05	0	41	0	166723584	21	5018
2026-01-12 09:06:38.21	114.68	14.59	-30.0	-32.8	12.8	6.25e-05	0	41	0	168820736	21	4967
2026-01-12 09:06:39.20	114.57	14.68	-29.9	-32.6	13.0	4.42e-05	0	41	0	170917888	21	4873
2026-01-12 09:06:40.21	114.47	14.78	-29.9	-32.3	13.2	2.21e-05	0	41	0	173015040	21	4787
2026-01-12 09:06:41.21	114.37	14.87	-29.8	-32.1	13.3	2.21e-05	0	41	0	175112192	21	4707
2026-01-12 09:06:42.21	114.26	14.96	-29.7	-32.5	13.5	1.52e-05	0	41	0	176160768	20	4938
2026-01-12 09:06:43.22	114.15	15.06	-29.7	-32.3	13.6	1.14e-05	0	41	0	178257920	20	4863
2026-01-12 09:06:44.21	114.05	15.15	-29.7	-32.3	13.6	1.06e-05	0	41	0	180355072	20	4877
2026-01-12 09:06:45.22	113.94	15.24	-29.8	-32.7	13.3	1.22e-05	0	41	0	182452224	20	5000
2026-01-12 09:06:46.23	113.83	15.34	-29.7	-32.5	13.5	6.10e-06	0	41	0	184549376	20	4935
2026-01-12 09:06:47.23	113.72	15.43	-29.8	-32.7	13.3	1.44e-05	0	41	0	185597952	20	5028
2026-01-12 09:06:48.24	113.61	15.53	-29.8	-32.6	13.4	1.75e-05	0	41	0	187695104	20	4983
2026-01-12 09:06:49.24	113.50	15.62	-29.9	-32.8	13.3	6.10e-06	0	41	0	189792256	20	5048
2026-01-12 09:06:50.25	113.39	15.72	-29.9	-32.9	13.2	2.36e-05	0	41	0	191889408	20	5093
2026-01-12 09:06:51.25	113.28	15.81	-29.8	-32.7	13.3	2.13e-05	0	41	0	193986560	20	5001
2026-01-12 09:06:52.26	113.17	15.91	-29.7	-32.4	13.5	1.52e-05	0	41	0	195035136	20	4915
2026-01-12 09:06:53.26	113.06	16.01	-29.8	-32.8	13.3	1.29e-05	0	41	0	197132288	20	5033
2026-01-12 09:06:54.26	112.94	16.10	-30.0	-33.1	13.1	3.73e-05	0	41	0	199229440	20	5156
2026-01-12 09:06:55.27	112.83	16.20	-29.9	-32.8	13.3	2.74e-05	0	41	0	201326592	20	5046
2026-01-12 09:06:56.27	112.71	16.30	-29.9	-32.8	13.4	1.75e-05	0	41	0	203423744	20	5038
2026-01-12 09:06:57.28	112.59	16.39	-30.0	-33.1	13.1	2.13e-05	0	41	0	204472320	20	5153
2026-01-12 09:06:58.28	112.48	16.49	-29.9	-32.8	13.3	2.44e-05	0	41	0	206569472	20	5066
2026-01-12 09:06:59.29	112.36	16.59	-30.0	-33.3	13.0	2.59e-05	0	41	0	208666624	20	5229
2026-01-12 09:07:00.30	112.24	16.69	-30.1	-33.5	12.8	7.09e-05	0	41	0	210763776	20	5323
2026-01-12 09:07:01.30	112.12	16.78	-30.0	-33.2	13.1	2.21e-05	0	41	0	212860928	20	5184
2026-01-12 09:07:02.31	112.00	16.88	-30.0	-33.1	13.2	3.05e-05	0	41	0	213909504	20	5138
2026-01-12 09:07:03.31	111.88	16.98	-30.1	-33.3	13.0	3.43e-05	0	41	0	216006656	20	5222
2026-01-12 09:07:04.32	111.76	17.08	-30.1	-33.3	13.0	5.41e-05	0	41	0	218103808	20	5243
2026-01-12 09:07:05.32	111.64	17.18	-30.1	-33.5	12.9	4.11e-05	0	41	0	220200960	20	5288
2026-01-12 09:07:06.32	111.51	17.28	-30.0	-33.2	13.1	3.73e-05	0	41	0	222298112	20	5192
2026-01-12 09:07:07.33	111.39	17.38	-30.1	-33.3	13.1	2.97e-05	0	41	0	223346688	20	5230
2026-01-12 09:07:08.33	111.26	17.48	-30.1	-33.3	13.0	3.50e-05	0	41	0	225443840	20	5222
2026-01-12 09:07:09.34	111.14	17.58	-30.0	-33.2	13.1	2.59e-05	0	41	0	227540992	20	5172
2026-01-12 09:07:10.34	111.01	17.68	-30.0	-33.1	13.2	3.50e-05	0	41	0	229638144	20	5135
2026-01-12 09:07:11.34	110.88	17.78	-30.1	-33.3	13.1	3.35e-05	0	41	0	231735296	20	5236
2026-01-12 09:07:12.35	110.75	17.88	-30.1	-33.5	12.9	3.89e-05	0	41	0	232783872	20	5300
2026-01-12 09:07:13.36	110.62	17.98	-30.1	-33.4	13.0	4.27e-05	0	41	0	234881024	20	5275
2026-01-12 09:07:14.36	110.49	18.09	-30.2	-33.6	12.9	4.88e-05	0	41	0	236978176	20	5323
2026-01-12 09:07:15.37	110.36	18.19	-30.2	-33.6	12.8	5.72e-05	0	41	0	239075328	20	5357
2026-01-12 09:07:16.38	110.23	18.29	-30.3	-33.9	12.7	6.02e-05	0	41	0	241172480	20	5447
2026-01-12 09:07:17.38	110.10	18.39	-30.3	-33.9	12.7	7.17e-05	0	41	0	242221056	20	5464
2026-01-12 09:07:18.39	109.96	18.50	-30.3	-34.1	12.6	1.07e-04	0	41	0	244318208	20	5533
2026-01-12 09:07:19.39	109.83	18.60	-30.3	-33.9	12.7	6.56e-05	0	41	0	246415360	20	5450
2026-01-12 09:07:20.40	109.69	18.70	-30.4	-34.2	12.5	6.86e-05	0	41	0	248512512	20	5576
2026-01-12 09:07:21.40	109.56	18.81	-30.4	-34.1	12.6	9.46e-05	0	41	0	249561088	20	5548
2026-01-12 09:07:22.40	109.42	18.91	-30.4	-34.1	12.6	1.02e-04	0	41	0	251658240	20	5536
2026-01-12 09:07:23.41	109.28	19.01	-30.5	-34.4	12.4	1.55e-04	0	41	0	253755392	20	5661
2026-01-12 09:07:24.42	109.14	19.12	-30.5	-34.0	12.3	1.81e-04	0	41	0	255852544	21	5387
2026-01-12 09:07:25.43	109.00	19.22	-30.4	-33.7	12.5	1.46e-04	0	41	0	257949696	21	5287
2026-01-12 09:07:26.43	108.86	19.33	-30.4	-33.6	12.6	1.16e-04	0	41	0	260046848	21	5232
2026-01-12 09:07:27.44	108.71	19.43	-30.4	-33.6	12.6	8.01e-05	0	41	0	261095424	21	5212
2026-01-12 09:07:28.44	108.57	19.54	-30.3	-33.5	12.7	8.08e-05	0	41	0	263192576	21	5186
2026-01-12 09:07:29.46	108.42	19.65	-30.2	-33.1	13.0	5.72e-05	0	41	0	265289728	21	5035
2026-01-12 09:07:30.46	108.28	19.75	-30.2	-33.1	12.9	3.28e-05	0	41	0	267386880	21	5047
2026-01-12 09:07:31.47	108.13	19.86	-30.3	-33.4	12.8	7.32e-05	0	42	0	269484032	21	5155
2026-01-12 09:07:32.47	107.99	19.96	-30.3	-33.6	12.6	7.17e-05	0	41	0	270532608	21	5213
2026-01-12 09:07:33.47	107.84	20.07	-30.4	-33.7	12.6	8.77e-05	0	41	0	272629760	21	5282
2026-01-12 09:07:34.48	107.69	20.18	-30.5	-33.9	12.4	2.00e-04	0	41	0	274726912	21	5334
2026-01-12 09:07:35.48	107.54	20.28	-30.2	-33.0	13.1	6.86e-05	0	41	0	276824064	21	4976
2026-01-12 09:07:36.49	107.38	20.39	-30.0	-32.5	13.4	1.67e-05	0	41	0	277872640	21	4809
2026-01-12 09:07:37.50	107.23	20.50	-29.9	-32.3	13.5	7.60e-06	0	41	0	279969792	21	4734
2026-01-12 09:07:38.50	107.08	20.61	-30.0	-32.5	13.5	1.29e-05	0	41	0	282066944	21	4790
2026-01-12 09:07:39.50	106.92	20.71	-29.9	-32.4	13.5	8.30e-06	0	42	0	284164096	21	4757
2026-01-12 09:07:40.50	106.77	20.82	-29.9	-32.3	13.6	1.44e-05	0	41	0	286261248	21	4729
2026-01-12 09:07:41.50	106.61	20.93	-30.0	-32.4	13.5	1.06e-05	0	42	0	287309824	21	4768
2026-01-12 09:07:42.50	106.45	21.04	-30.0	-32.4	13.6	1.60e-05	0	41	0	289406976	21	4748
2026-01-12 09:07:43.51	106.29	21.15	-29.9	-32.3	13.6	6.80e-06	0	41	0	291504128	21	4722
2026-01-12 09:07:44.51	106.13	21.26	-30.0	-32.5	13.4	3.00e-06	0	41	0	293601280	21	4790
2026-01-12 09:07:45.51	105.97	21.37	-29.9	-32.3	13.6	1.14e-05	0	42	0	295698432	21	4729
2026-01-12 09:07:46.52	105.81	21.48	-29.9	-32.1	13.7	1.44e-05	0	42	0	296747008	21	4670
2026-01-12 09:07:47.53	105.64	21.59	-29.8	-32.0	13.8	5.30e-06	0	42	0	298844160	21	4621
2026-01-12 09:07:48.54	105.48	21.70	-29.7	-32.2	14.0	5.30e-06	0	41	0	300941312	20	4805
2026-01-12 09:07:49.54	105.31	21.81	-29.8	-32.5	13.8	7.00e-07	0	41	0	303038464	20	4913
2026-01-12 09:07:50.55	105.14	21.92	-29.8	-32.4	13.8	5.30e-06	0	42	0	305135616	20	4868
2026-01-12 09:07:51.55	104.97	22.03	-29.8	-32.4	13.8	6.80e-06	0	41	0	306184192	20	4875
2026-01-12 09:07:52.55	104.80	22.14	-29.8	-32.5	13.8	4.50e-06	0	41	0	308281344	20	4894
2026-01-12 09:07:53.56	104.63	22.25	-29.9	-32.6	13.7	9.10e-06	0	42	0	310378496	20	4936
2026-01-12 09:07:54.56	104.46	22.36	-29.8	-32.4	13.8	1.29e-05	0	41	0	312475648	20	4881
2026-01-12 09:07:55.57	104.28	22.48	-29.8	-32.4	13.9	3.80e-06	0	41	0	314572800	20	4856
2026-01-12 09:07:56.57	104.11	22.59	-29.8	-32.6	13.8	4.50e-06	0	41	0	315621376	20	4931
2026-01-12 09:07:57.58	103.93	22.70	-29.9	-32.7	13.7	9.10e-06	0	41	0	317718528	20	4965
2026-01-12 09:07:58.59	103.75	22.81	-29.8	-32.6	13.8	7.00e-07	0	42	0	319815680	20	4917
2026-01-12 09:07:59.59	103.57	22.92	-30.0	-32.9	13.6	5.30e-06	0	41	0	321912832	20	5027
2026-01-12 09:08:00.60	103.39	23.04	-29.9	-32.8	13.6	1.37e-05	0	41	0	324009984	20	5021
2026-01-12 09:08:01.60	103.21	23.15	-29.9	-32.8	13.7	4.50e-06	0	41	0	325058560	20	5003
2026-01-12 09:08:02.61	103.03	23.26	-30.0	-33.1	13.5	1.44e-05	0	42	0	327155712	20	5101
2026-01-12 09:08:03.62	102.84	23.38	-30.2	-33.5	13.2	1.83e-05	0	42	0	329252864	20	5262
2026-01-12 09:08:04.62	102.66	23.49	-30.2	-33.6	13.1	3.58e-05	0	41	0	331350016	20	5293
2026-01-12 09:08:05.63	102.47	23.60	-30.3	-33.7	13.0	3.50e-05	0	41	0	333447168	20	5354
2026-01-12 09:08:06.64	102.28	23.72	-30.3	-33.9	12.9	4.73e-05	0	42	0	334495744	20	5420
2026-01-12 09:08:07.65	102.09	23.83	-30.3	-33.9	12.9	3.89e-05	0	41	0	336592896	20	5424
2026-01-12 09:08:08.65	101.90	23.95	-30.5	-33.9	12.6	6.48e-05	0	41	0	338690048	21	5332
2026-01-12 09:08:09.66	101.70	24.06	-30.7	-34.6	12.1	1.79e-04	0	42	0	340787200	21	5593
2026-01-12 09:08:10.66	101.51	24.17	-30.8	-34.7	12.1	3.20e-04	0	41	0	342884352	21	5637
2026-01-12 09:08:11.67	101.31	24.29	-30.8	-34.6	12.1	2.50e-04	0	42	0	343932928	21	5619
2026-01-12 09:08:12.67	101.12	24.40	-30.8	-34.9	11.9	3.22e-04	0	41	0	346030080	21	5724
2026-01-12 09:08:13.67	100.92	24.52	-30.8	-34.9	11.9	4.02e-04	0	42	0	348127232	21	5724
2026-01-12 09:08:14.67	100.72	24.63	-30.7	-34.5	12.2	2.96e-04	0	42	0	350224384	21	5578
2026-01-12 09:08:15.68	100.52	24.75	-30.7	-34.5	12.2	2.21e-04	0	41	0	352321536	21	5544
2026-01-12 09:08:16.69	100.32	24.86	-30.8	-34.7	12.1	2.41e-04	0	41	0	353370112	21	5637
2026-01-12 09:08:17.69	100.11	24.98	-30.8	-34.6	12.1	2.56e-04	0	42	0	355467264	21	5614
2026-01-12 09:08:18.69	99.91	25.09	-30.7	-34.3	12.3	1.98e-04	0	41	0	357564416	21	5486
2026-01-12 09:08:19.70	99.70	25.21	-30.6	-34.2	12.5	1.35e-04	0	42	0	359661568	21	5419
2026-01-12 09:08:20.71	99.49	25.32	-30.6	-34.2	12.4	1.11e-04	0	42	0	361758720	21	5448
2026-01-12 09:08:21.71	99.28	25.44	-30.6	-34.0	12.6	1.27e-04	0	41	0	362807296	21	5366
2026-01-12 09:08:22.71	99.07	25.55	-30.5	-33.9	12.6	8.92e-05	0	42	0	364904448	21	5330
2026-01-12 09:08:23.72	98.85	25.67	-30.5	-33.9	12.7	8.01e-05	0	41	0	367001600	21	5310
2026-01-12 09:08:24.72	98.64	25.79	-30.5	-33.8	12.7	8.46e-05	0	42	0	369098752	21	5286
2026-01-12 09:08:25.73	98.42	25.90	-30.7	-34.5	12.3	9.53e-05	0	41	0	371195904	21	5540
2026-01-12 09:08:26.73	98.20	26.02	-30.7	-34.3	12.3	1.93e-04	0	41	0	372244480	21	5489
2026-01-12 09:08:27.73	97.98	26.13	-30.8	-34.8	12.1	2.33e-04	0	42	0	374341632	21	5684
2026-01-12 09:08:28.74	97.76	26.25	-30.7	-34.4	12.3	2.28e-04	0	42	0	376438784	21	5527
2026-01-12 09:08:29.74	97.54	26.36	-30.6	-34.0	12.6	1.40e-04	0	42	0	378535936	21	5374
2026-01-12 09:08:30.75	97.31	26.48	-30.5	-33.9	12.7	8.54e-05	0	42	0	380633088	21	5329
2026-01-12 09:08:31.75	97.09	26.60	-30.6	-34.0	12.6	9.15e-05	0	41	0	381681664	21	5356
2026-01-12 09:08:32.76	96.86	26.71	-30.5	-33.8	12.7	8.54e-05	0	41	0	383778816	21	5279
2026-01-12 09:08:33.76	96.63	26.83	-30.5	-33.8	12.8	6.10e-05	0	42	0	385875968	21	5250
2026-01-12 09:08:34.77	96.40	26.94	-30.5	-33.7	12.9	6.17e-05	0	42	0	387973120	21	5203
2026-01-12 09:08:35.78	96.16	27.06	-30.5	-33.7	12.9	3.50e-05	0	42	0	390070272	21	5213
2026-01-12 09:08:36.79	95.92	27.18	-30.5	-33.7	12.8	4.95e-05	0	42	0	391118848	21	5217
2026-01-12 09:08:37.79	95.69	27.29	-30.3	-33.3	13.1	4.11e-05	0	42	0	393216000	21	5085
2026-01-12 09:08:38.80	95.45	27.41	-30.5	-33.7	12.8	4.80e-05	0	42	0	395313152	21	5222
2026-01-12 09:08:39.80	95.21	27.52	-30.6	-34.0	12.7	7.85e-05	0	42	0	397410304	21	5337
2026-01-12 09:08:40.81	94.97	27.64	-30.7	-34.3	12.4	1.14e-04	0	42	0	398458880	21	5485
2026-01-12 09:08:41.80	94.73	27.75	-30.7	-34.3	12.5	1.40e-04	0	42	0	400556032	21	5458
2026-01-12 09:08:42.81	94.48	27.87	-30.6	-34.1	12.6	9.76e-05	0	42	0	402653184	21	5380
2026-01-12 09:08:43.81	94.23	27.98	-30.6	-34.1	12.6	1.19e-04	0	42	0	404750336	21	5383
2026-01-12 09:08:44.82	93.98	28.10	-30.7	-34.3	12.5	1.08e-04	0	42	0	406847488	21	5474
2026-01-12 09:08:45.83	93.73	28.21	-30.6	-34.2	12.6	1.70e-04	0	42	0	408944640	21	5399
2026-01-12 09:08:46.83	93.48	28.33	-30.7	-34.3	12.5	1.01e-04	0	42	0	409993216	21	5442
2026-01-12 09:08:47.84	93.22	28.44	-30.7	-34.3	12.5	1.14e-04	0	42	0	412090368	21	5457
2026-01-12 09:08:48.84	92.97	28.56	-30.8	-34.6	12.3	1.37e-04	0	42	0	414187520	21	5567
2026-01-12 09:08:49.85	92.71	28.67	-30.7	-34.2	12.5	1.13e-04	0	42	0	416284672	21	5433
2026-01-12 09:08:50.86	92.45	28.79	-30.6	-33.9	12.8	6.17e-05	0	42	0	417333248	21	5304
2026-01-12 09:08:51.87	92.18	28.90	-30.7	-34.2	12.6	6.48e-05	0	42	0	419430400	21	5412
2026-01-12 09:08:52.87	91.92	29.02	-30.8	-34.5	12.4	1.17e-04	0	42	0	421527552	21	5533
2026-01-12 09:08:53.88	91.65	29.13	-31.0	-35.1	11.9	2.68e-04	0	42	0	423624704	21	5821
2026-01-12 09:08:54.88	91.39	29.24	-31.0	-34.7	11.9	3.87e-04	0	41	0	425721856	22	5503
2026-01-12 09:08:55.88	91.12	29.35	-30.9	-34.5	12.0	3.51e-04	0	41	0	426770432	22	5438
2026-01-12 09:08:56.88	90.85	29.47	-30.9	-34.4	12.2	2.20e-04	0	42	0	428867584	22	5374
2026-01-12 09:08:57.88	90.58	29.58	-31.0	-34.7	12.0	2.58e-04	0	42	0	430964736	22	5504
2026-01-12 09:08:58.89	90.30	29.69	-31.0	-34.7	12.0	3.57e-04	0	41	0	433061888	22	5486
2026-01-12 09:08:59.89	90.02	29.80	-31.1	-35.1	11.7	5.37e-04	0	41	0	435159040	22	5677
2026-01-12 09:09:00.90	89.74	29.91	-31.4	-36.0	11.0	1.40e-03	0	42	0	436207616	22	6091
2026-01-12 09:09:01.90	89.46	30.02	-31.6	-36.0	10.6	2.40e-03	0	42	0	438304768	23	5997
2026-01-12 09:09:02.90	89.18	30.14	-31.6	-36.1	10.6	3.30e-03	0	42	0	440401920	23	6040
2026-01-12 09:09:03.90	88.90	30.25	-31.7	-36.5	10.3	5.60e-03	0	42	0	442499072	23	6264
2026-01-12 09:09:04.91	88.61	30.36	-31.8	-36.6	10.1	7.22e-03	0	42	0	444596224	23	6313
2026-01-12 09:09:05.92	88.32	30.47	-31.9	-37.0	9.9	7.35e-03	0	42	0	445644800	23	6507
2026-01-12 09:09:06.92	88.03	30.57	-32.0	-37.4	9.7	1.14e-02	0	42	0	447741952	23	6704
2026-01-12 09:09:07.92	87.74	30.68	-32.1	-37.3	9.3	1.46e-02	0	42	0	449839104	24	6562
2026-01-12 09:09:08.93	87.44	30.79	-32.1	-37.5	9.2	2.05e-02	0	42	0	451936256	24	6688
2026-01-12 09:09:09.92	87.15	30.90	-32.1	-37.4	9.2	1.91e-02	0	42	0	454033408	24	6639
2026-01-12 09:09:10.93	86.85	31.01	-32.2	-37.8	8.9	2.10e-02	0	42	0	455081984	24	6858
2026-01-12 09:09:11.93	86.55	31.11	-32.1	-37.5	9.2	2.59e-02	0	42	0	457179136	24	6683
2026-01-12 09:09:12.94	86.24	31.22	-32.3	-38.0	8.7	2.30e-02	0	42	0	459276288	24	6978
2026-01-12 09:09:13.94	85.94	31.32	-32.2	-37.9	8.9	2.96e-02	0	42	0	461373440	24	6882
2026-01-12 09:09:14.95	85.63	31.43	-32.2	-37.7	8.9	2.44e-02	0	42	0	463470592	24	6769
2026-01-12 09:09:15.95	85.32	31.54	-32.2	-37.9	8.9	2.57e-02	0	42	0	464519168	24	6903
2026-01-12 09:09:16.96	85.01	31.64	-32.3	-38.2	8.6	3.54e-02	0	42	0	466616320	24	7117
2026-01-12 09:09:17.96	84.70	31.74	-32.3	-38.4	8.5	4.07e-02	0	42	0	468713472	24	7210
2026-01-12 09:09:18.96	84.39	31.85	-32.5	-38.9	8.1	5.44e-02	0	42	0	470810624	24	7565
2026-01-12 09:09:19.97	84.07	31.95	-32.5	-38.9	8.1	6.37e-02	0	42	0	472907776	24	7548
2026-01-12 09:09:20.98	83.75	32.05	-32.5	-38.4	8.1	6.05e-02	0	41	0	473956352	25	7120
2026-01-12 09:09:21.97	83.43	32.15	-32.6	-39.1	7.6	7.74e-02	0	42	0	476053504	25	7570
2026-01-12 09:09:22.98	83.11	32.25	-32.5	-38.8	7.8	9.90e-02	0	42	0	478150656	25	7394
2026-01-12 09:09:23.98	82.78	32.35	-32.5	-38.4	8.2	6.17e-02	0	42	0	480247808	25	7090
2026-01-12 09:09:24.98	82.46	32.45	-32.4	-37.9	8.5	5.08e-02	0	42	0	482344960	25	6811
2026-01-12 09:09:25.98	82.13	32.55	-32.2	-37.2	9.0	3.53e-02	0	42	0	483393536	25	6416
2026-01-12 09:09:26.98	81.80	32.64	-32.1	-37.0	9.2	2.13e-02	0	42	0	485490688	25	6273
2026-01-12 09:09:27.99	81.47	32.74	-32.2	-37.1	9.1	2.12e-02	0	42	0	487587840	25	6356
2026-01-12 09:09:28.99	81.13	32.84	-32.1	-36.7	9.5	1.78e-02	0	42	0	489684992	25	6129
2026-01-12 09:09:30.00	80.80	32.93	-32.1	-36.8	9.3	1.28e-02	0	42	0	490733568	25	6192
2026-01-12 09:09:31.00	80.46	33.03	-31.9	-36.1	9.8	1.30e-02	0	42	0	492830720	25	5858
2026-01-12 09:09:32.00	80.12	33.12	-31.9	-36.0	10.0	8.72e-03	0	42	0	494927872	25	5765
2026-01-12 09:09:33.00	79.78	33.21	-31.8	-35.9	10.0	8.19e-03	0	42	0	497025024	25	5734
2026-01-12 09:09:34.01	79.43	33.30	-31.8	-35.9	10.1	7.30e-03	0	42	0	499122176	25	5713
2026-01-12 09:09:35.01	79.09	33.39	-31.9	-36.2	9.9	7.56e-03	0	42	0	500170752	25	5867
2026-01-12 09:09:36.02	78.74	33.48	-31.8	-35.7	10.2	6.23e-03	0	42	0	502267904	25	5641
2026-01-12 09:09:37.03	78.38	33.57	-31.7	-35.9	10.5	4.15e-03	0	42	0	504365056	24	5829
2026-01-12 09:09:38.03	78.03	33.66	-31.7	-35.9	10.4	4.30e-03	0	42	0	506462208	24	5846
2026-01-12 09:09:39.03	77.68	33.75	-31.6	-35.5	10.8	2.95e-03	0	41	0	508559360	24	5650
2026-01-12 09:09:40.04	77.32	33.83	-31.4	-34.8	11.2	1.78e-03	0	42	0	509607936	24	5349
2026-01-12 09:09:41.05	76.96	33.92	-31.3	-34.6	11.4	8.98e-04	0	42	0	511705088	24	5263
2026-01-12 09:09:42.05	76.60	34.00	-31.5	-35.1	11.1	1.42e-03	0	42	0	513802240	24	5465
2026-01-12 09:09:43.05	76.24	34.08	-31.1	-34.4	11.9	8.96e-04	0	42	0	515899392	23	5254
2026-01-12 09:09:44.06	75.88	34.17	-31.1	-34.4	11.9	3.95e-04	0	42	0	517996544	23	5251
2026-01-12 09:09:45.06	75.52	34.25	-31.0	-34.0	12.2	2.23e-04	0	42	0	519045120	23	5090
2026-01-12 09:09:46.06	75.15	34.32	-30.9	-33.7	12.5	1.44e-04	0	42	0	521142272	23	4990
2026-01-12 09:09:47.07	74.78	34.40	-30.8	-33.9	12.7	8.46e-05	0	42	0	523239424	22	5139
2026-01-12 09:09:48.08	74.41	34.48	-30.9	-34.3	12.4	1.54e-04	0	42	0	525336576	22	5320
2026-01-12 09:09:49.08	74.04	34.56	-31.0	-34.5	12.3	1.65e-04	0	42	0	527433728	22	5407
2026-01-12 09:09:50.08	73.66	34.63	-30.8	-33.9	12.6	1.25e-04	0	42	0	528482304	22	5169
2026-01-12 09:09:51.09	73.29	34.70	-30.6	-33.3	13.0	3.96e-05	0	42	0	530579456	22	4939
2026-01-12 09:09:52.10	72.91	34.78	-30.6	-33.4	12.9	2.59e-05	0	42	0	532676608	22	4981
2026-01-12 09:09:53.10	72.53	34.85	-30.8	-34.0	12.6	4.95e-05	0	41	0	534773760	22	5182
2026-01-12 09:09:54.11	72.15	34.92	-30.8	-34.0	12.6	1.01e-04	0	42	0	536870912	22	5194
2026-01-12 09:09:55.11	71.77	34.99	-30.8	-34.0	12.5	1.26e-04	0	42	0	537919488	22	5215
2026-01-12 09:09:56.12	71.38	35.05	-30.8	-33.8	12.7	7.24e-05	0	42	0	540016640	22	5116
2026-01-12 09:09:57.12	71.00	35.12	-30.7	-33.7	12.8	5.79e-05	0	42	0	542113792	22	5080
2026-01-12 09:09:58.12	70.61	35.18	-30.6	-33.5	12.9	5.18e-05	0	42	0	544210944	22	5003
2026-01-12 09:09:59.12	70.22	35.25	-30.5	-33.0	13.3	2.44e-05	0	42	0	546308096	22	4805
2026-01-12 09:10:00.12	69.84	35.31	-30.5	-33.0	13.3	1.52e-05	0	42	0	547356672	22	4818
2026-01-12 09:10:01.13	69.44	35.37	-30.5	-33.2	13.1	2.51e-05	0	42	0	549453824	22	4881
2026-01-12 09:10:02.13	69.05	35.43	-30.4	-32.9	13.3	2.67e-05	0	42	0	551550976	22	4778
2026-01-12 09:10:03.14	68.65	35.48	-30.5	-33.0	13.3	1.83e-05	0	42	0	553648128	22	4828
2026-01-12 09:10:04.14	68.26	35.54	-30.6	-33.4	12.9	3.58e-05	0	42	0	555745280	22	4965
2026-01-12 09:10:05.14	67.87	35.59	-30.1	-32.5	13.8	1.52e-05	0	42	0	556793856	21	4764
2026-01-12 09:10:06.14	67.47	35.65	-29.7	-32.1	14.5	0.00e+00	0	42	0	558891008	20	4700
2026-01-12 09:10:07.15	67.07	35.70	-29.7	-31.9	14.6	7.00e-07	0	42	0	560988160	20	4666
2026-01-12 09:10:08.15	66.67	35.75	-30.0	-32.7	14.1	5.30e-06	0	42	0	563085312	20	4945
2026-01-12 09:10:09.16	66.26	35.80	-30.0	-32.6	14.1	5.30e-06	0	42	0	564133888	20	4906
2026-01-12 09:10:10.17	65.86	35.84	-29.8	-32.3	14.3	3.00e-06	0	42	0	566231040	20	4805
2026-01-12 09:10:11.17	65.46	35.89	-29.8	-32.3	14.4	4.50e-06	0	42	0	568328192	20	4788
2026-01-12 09:10:12.18	65.05	35.93	-29.9	-32.5	14.2	7.00e-07	0	42	0	570425344	20	4855
2026-01-12 09:10:13.18	64.64	35.97	-29.8	-32.2	14.4	7.00e-07	0	42	0	572522496	20	4759
2026-01-12 09:10:14.19	64.23	36.02	-29.7	-32.0	14.5	0.00e+00	0	42	0	573571072	20	4690
2026-01-12 09:10:15.20	63.82	36.05	-29.6	-31.8	14.6	0.00e+00	0	42	0	575668224	20	4635
2026-01-12 09:10:16.19	63.42	36.09	-29.7	-31.9	14.6	0.00e+00	0	42	0	577765376	20	4639
2026-01-12 09:10:17.20	63.01	36.13	-29.4	-31.3	15.0	2.20e-06	0	42	0	579862528	20	4470
2026-01-12 09:10:18.21	62.59	36.16	-29.7	-31.9	14.6	0.00e+00	0	42	0	581959680	20	4645
2026-01-12 09:10:19.22	62.18	36.19	-29.4	-31.1	15.0	0.00e+00	0	42	0	583008256	20	4394
2026-01-12 09:10:20.22	61.77	36.22	-29.4	-31.7	15.1	7.00e-07	0	42	0	585105408	19	4668
2026-01-12 09:10:21.23	61.35	36.25	-29.5	-31.9	15.0	0.00e+00	0	42	0	587202560	19	4740
2026-01-12 09:10:22.24	60.93	36.28	-29.7	-32.5	14.6	0.00e+00	0	42	0	589299712	19	4967
2026-01-12 09:10:23.24	60.52	36.31	-29.7	-32.3	14.7	2.20e-06	0	42	0	591396864	19	4893
2026-01-12 09:10:24.25	60.10	36.33	-29.7	-32.5	14.6	7.00e-07	0	42	0	592445440	19	4961
2026-01-12 09:10:25.26	59.68	36.35	-29.8	-32.7	14.4	7.00e-07	0	42	0	594542592	19	5026
2026-01-12 09:10:26.26	59.27	36.37	-29.9	-32.9	14.3	3.00e-06	0	42	0	596639744	19	5112
2026-01-12 09:10:27.27	58.85	36.39	-30.0	-32.8	14.1	7.00e-07	0	42	0	598736896	20	4961
2026-01-12 09:10:28.27	58.43	36.41	-30.2	-33.3	13.7	7.60e-06	0	42	0	600834048	20	5123
2026-01-12 09:10:29.27	58.02	36.43	-30.0	-32.6	14.1	1.50e-06	0	42	0	601882624	20	4897
2026-01-12 09:10:30.28	57.60	36.44	-29.9	-32.6	14.1	2.20e-06	0	42	0	603979776	20	4887
2026-01-12 09:10:31.29	57.18	36.45	-30.1	-33.1	13.8	4.50e-06	0	42	0	606076928	20	5084
2026-01-12 09:10:32.30	56.75	36.46	-30.1	-32.9	13.9	8.30e-06	0	41	0	608174080	20	5015
2026-01-12 09:10:33.30	56.34	36.47	-30.2	-33.2	13.7	3.00e-06	0	42	0	610271232	20	5102
2026-01-12 09:10:34.30	55.92	36.48	-30.2	-33.3	13.6	9.10e-06	0	42	0	611319808	20	5149
2026-01-12 09:10:35.31	55.50	36.48	-30.2	-33.3	13.7	6.80e-06	0	42	0	613416960	20	5125
2026-01-12 09:10:36.32	55.08	36.48	-30.2	-33.3	13.7	9.10e-06	0	42	0	615514112	20	5135
2026-01-12 09:10:37.32	54.66	36.49	-30.2	-33.4	13.6	3.80e-06	0	42	0	617611264	20	5180
2026-01-12 09:10:38.33	54.24	36.49	-30.4	-33.8	13.3	1.67e-05	0	42	0	619708416	20	5350
2026-01-12 09:10:39.34	53.81	36.48	-30.4	-33.9	13.3	5.30e-06	0	42	0	620756992	20	5360
2026-01-12 09:10:40.34	53.40	36.48	-30.5	-33.6	13.1	2.21e-05	0	42	0	622854144	21	5140
2026-01-12 09:10:41.35	52.97	36.47	-30.7	-34.3	12.7	5.64e-05	0	42	0	624951296	21	5423
2026-01-12 09:10:42.35	52.56	36.47	-30.8	-34.6	12.4	1.17e-04	0	42	0	627048448	21	5565
2026-01-12 09:10:43.35	52.14	36.46	-30.8	-34.6	12.5	1.15e-04	0	42	0	629145600	21	5559
2026-01-12 09:10:44.35	51.72	36.45	-30.9	-34.8	12.3	1.94e-04	0	42	0	630194176	21	5626
2026-01-12 09:10:45.36	51.30	36.43	-30.7	-34.1	12.8	8.92e-05	0	42	0	632291328	21	5354
2026-01-12 09:10:46.37	50.88	36.42	-30.5	-33.6	13.1	5.95e-05	0	42	0	634388480	21	5159
2026-01-12 09:10:47.37	50.46	36.40	-30.8	-34.4	12.6	5.87e-05	0	42	0	636485632	21	5469
2026-01-12 09:10:48.38	50.04	36.39	-30.9	-34.7	12.4	1.39e-04	0	42	0	638582784	21	5599
2026-01-12 09:10:49.39	49.63	36.37	-30.9	-34.8	12.3	1.69e-04	0	42	0	639631360	21	5638
2026-01-12 09:10:50.39	49.21	36.35	-31.0	-34.7	12.1	2.34e-04	0	42	0	641728512	22	5466
2026-01-12 09:10:51.39	48.80	36.32	-31.3	-35.5	11.6	5.25e-04	0	42	0	643825664	22	5816
2026-01-12 09:10:52.40	48.38	36.30	-31.6	-35.8	11.0	1.60e-03	0	42	0	645922816	23	5845
2026-01-12 09:10:53.40	47.97	36.27	-31.5	-35.6	11.1	1.90e-03	0	42	0	648019968	23	5792
2026-01-12 09:10:54.41	47.55	36.24	-31.3	-35.0	11.5	1.05e-03	0	42	0	649068544	23	5487
2026-01-12 09:10:55.42	47.14	36.21	-31.3	-34.8	11.6	7.99e-04	0	42	0	651165696	23	5420
2026-01-12 09:10:56.42	46.73	36.18	-31.1	-34.2	12.1	4.68e-04	0	42	0	653262848	23	5159
2026-01-12 09:10:57.43	46.31	36.15	-31.1	-34.2	12.1	3.20e-04	0	42	0	655360000	23	5177
2026-01-12 09:10:58.43	45.90	36.11	-31.1	-34.3	11.9	3.63e-04	0	42	0	657457152	23	5217
2026-01-12 09:10:59.44	45.49	36.08	-31.1	-34.3	12.0	3.70e-04	0	42	0	658505728	23	5204
2026-01-12 09:11:00.44	45.08	36.04	-31.2	-34.6	11.8	4.53e-04	0	42	0	660602880	23	5312
2026-01-12 09:11:01.45	44.67	36.00	-31.3	-34.9	11.5	6.67e-04	0	42	0	662700032	23	5477
2026-01-12 09:11:02.46	44.27	35.96	-31.3	-35.0	11.5	5.67e-04	0	42	0	664797184	23	5486
2026-01-12 09:11:03.47	43.86	35.92	-31.3	-35.0	11.5	9.41e-04	0	42	0	666894336	23	5512
2026-01-12 09:11:04.47	43.45	35.87	-31.3	-34.8	11.7	6.99e-04	0	42	0	667942912	23	5427
2026-01-12 09:11:05.48	43.05	35.83	-31.3	-35.0	11.5	8.54e-04	0	42	0	670040064	23	5504
2026-01-12 09:11:06.49	42.64	35.78	-31.3	-35.0	11.6	7.42e-04	0	42	0	672137216	23	5490
2026-01-12 09:11:07.49	42.25	35.73	-31.3	-34.9	11.6	8.73e-04	0	42	0	674234368	23	5464
2026-01-12 09:11:08.50	41.84	35.68	-31.4	-35.2	11.4	9.21e-04	0	42	0	676331520	23	5573
2026-01-12 09:11:09.51	41.44	35.63	-31.4	-35.5	11.2	1.28e-03	0	42	0	677380096	23	5723
2026-01-12 09:11:10.52	41.04	35.57	-31.4	-35.2	11.4	9.92e-04	0	42	0	679477248	23	5587
2026-01-12 09:11:11.52	40.65	35.52	-31.2	-34.7	11.8	7.01e-04	0	42	0	681574400	23	5364
2026-01-12 09:11:12.52	40.26	35.46	-31.0	-34.1	12.1	3.47e-04	0	42	0	683671552	23	5146
2026-01-12 09:11:13.52	39.87	35.40	-31.0	-34.2	12.1	2.36e-04	0	42	0	685768704	23	5157
2026-01-12 09:11:14.52	39.48	35.35	-30.8	-33.5	12.6	1.72e-04	0	42	0	686817280	23	4888
2026-01-12 09:11:15.51	39.09	35.29	-30.7	-33.6	12.9	6.40e-05	0	42	0	688914432	22	5036
2026-01-12 09:11:16.52	38.70	35.22	-30.7	-33.8	12.7	6.71e-05	0	42	0	691011584	22	5108
2026-01-12 09:11:17.53	38.31	35.16	-30.8	-33.8	12.7	1.01e-04	0	42	0	693108736	22	5119
2026-01-12 09:11:18.54	37.92	35.09	-30.6	-33.4	13.0	4.50e-05	0	42	0	695205888	22	4946
2026-01-12 09:11:19.55	37.54	35.03	-30.6	-33.4	13.0	3.81e-05	0	42	0	696254464	22	4974
2026-01-12 09:11:20.55	37.16	34.96	-30.7	-33.5	12.8	6.10e-05	0	42	0	698351616	22	5008
2026-01-12 09:11:21.56	36.77	34.89	-30.6	-33.3	13.1	5.34e-05	0	42	0	700448768	22	4922
2026-01-12 09:11:22.56	36.39	34.82	-30.4	-32.8	13.4	2.28e-05	0	42	0	702545920	22	4746
2026-01-12 09:11:23.56	36.02	34.75	-30.2	-32.7	13.8	5.30e-06	0	42	0	703594496	21	4810
2026-01-12 09:11:24.56	35.64	34.68	-30.0	-32.2	14.1	5.30e-06	0	42	0	705691648	21	4636
2026-01-12 09:11:25.55	35.28	34.61	-29.8	-31.8	14.3	0.00e+00	0	42	0	707788800	21	4528
2026-01-12 09:11:26.55	34.90	34.53	-29.8	-31.9	14.3	1.50e-06	0	42	0	709885952	21	4539
2026-01-12 09:11:27.56	34.53	34.46	-29.9	-32.1	14.1	7.00e-07	0	42	0	711983104	21	4616
2026-01-12 09:11:28.56	34.16	34.38	-30.2	-32.9	13.6	4.50e-06	0	42	0	713031680	21	4878
2026-01-12 09:11:29.57	33.80	34.30	-30.4	-33.3	13.4	1.52e-05	0	42	0	715128832	21	5038
2026-01-12 09:11:30.58	33.43	34.22	-30.5	-33.5	13.2	2.13e-05	0	42	0	717225984	21	5124
2026-01-12 09:11:31.58	33.07	34.14	-30.6	-33.8	13.0	2.82e-05	0	42	0	719323136	21	5238
2026-01-12 09:11:32.59	32.70	34.06	-30.5	-33.6	13.1	4.27e-05	0	42	0	721420288	21	5154
2026-01-12 09:11:33.59	32.34	33.97	-30.4	-33.4	13.3	2.13e-05	0	42	0	722468864	21	5070
2026-01-12 09:11:34.60	31.98	33.89	-30.4	-33.3	13.3	1.37e-05	0	42	0	724566016	21	5047
2026-01-12 09:11:35.60	31.63	33.81	-30.4	-33.4	13.3	1.29e-05	0	42	0	726663168	21	5080
2026-01-12 09:11:36.61	31.27	33.72	-30.6	-34.0	12.8	3.28e-05	0	42	0	728760320	21	5302
2026-01-12 09:11:37.61	30.92	33.63	-30.9	-35.0	12.2	1.73e-04	0	42	0	730857472	21	5723
2026-01-12 09:11:38.62	30.57	33.54	-31.2	-35.3	11.6	5.06e-04	0	42	0	731906048	22	5764
2026-01-12 09:11:39.62	30.22	33.46	-31.3	-35.5	11.4	9.24e-04	0	42	0	734003200	22	5846
2026-01-12 09:11:40.63	29.87	33.37	-31.3	-35.5	11.4	8.84e-04	0	42	0	736100352	22	5824
2026-01-12 09:11:41.64	29.53	33.27	-31.2	-35.1	11.7	6.46e-04	0	42	0	738197504	22	5675
2026-01-12 09:11:42.65	29.18	33.18	-31.2	-35.1	11.7	5.51e-04	0	42	0	740294656	22	5657
2026-01-12 09:11:43.66	28.84	33.09	-31.2	-35.3	11.6	5.90e-04	0	42	0	741343232	22	5761
2026-01-12 09:11:44.66	28.50	33.00	-31.2	-35.2	11.6	7.52e-04	0	42	0	743440384	22	5720
2026-01-12 09:11:45.67	28.16	32.90	-31.2	-35.3	11.6	5.95e-04	0	42	0	745537536	22	5737
2026-01-12 09:11:46.67	27.83	32.81	-31.3	-35.5	11.4	7.74e-04	0	42	0	747634688	22	5863
2026-01-12 09:11:47.68	27.49	32.71	-31.5	-36.1	11.0	1.61e-03	0	42	0	749731840	22	6153
2026-01-12 09:11:48.68	27.17	32.61	-31.5	-35.8	10.8	2.76e-03	0	42	0	750780416	23	5893
2026-01-12 09:11:49.69	26.83	32.52	-31.6	-36.1	10.6	2.61e-03	0	42	0	752877568	23	6013
2026-01-12 09:11:50.69	26.51	32.42	-31.7	-36.3	10.4	4.79e-03	0	42	0	754974720	23	6139
2026-01-12 09:11:51.70	26.18	32.32	-31.9	-37.1	9.9	4.80e-03	0	42	0	757071872	23	6537
2026-01-12 09:11:52.71	25.86	32.22	-31.8	-36.7	10.2	1.10e-02	0	42	0	759169024	23	6324
2026-01-12 09:11:53.72	25.54	32.12	-31.4	-35.4	11.0	4.63e-03	0	42	0	760217600	23	5715
2026-01-12 09:11:54.73	25.21	32.02	-31.3	-35.2	11.2	7.42e-04	0	42	0	762314752	23	5595
2026-01-12 09:11:55.74	24.90	31.91	-31.3	-34.9	11.6	5.19e-04	0	42	0	764411904	23	5462
2026-01-12 09:11:56.74	24.58	31.81	-31.1	-34.3	12.0	3.49e-04	0	42	0	766509056	23	5214
2026-01-12 09:11:57.74	24.27	31.71	-31.0	-34.1	12.0	3.11e-04	0	42	0	768606208	23	5124
2026-01-12 09:11:58.75	23.96	31.61	-31.0	-34.0	12.1	2.50e-04	0	42	0	769654784	23	5104
2026-01-12 09:11:59.75	23.65	31.50	-31.0	-34.0	12.1	3.16e-04	0	42	0	771751936	23	5120
2026-01-12 09:12:00.75	23.35	31.40	-31.0	-34.2	11.9	4.11e-04	0	42	0	773849088	23	5197
2026-01-12 09:12:01.75	23.04	31.29	-31.0	-34.3	11.9	3.79e-04	0	42	0	775946240	23	5214
2026-01-12 09:12:02.75	22.74	31.19	-31.1	-34.5	11.7	5.19e-04	0	42	0	778043392	23	5299
2026-01-12 09:12:03.76	22.44	31.08	-31.1	-34.6	11.7	4.77e-04	0	42	0	779091968	23	5345
2026-01-12 09:12:04.76	22.14	30.98	-31.2	-34.8	11.5	8.13e-04	0	42	0	781189120	23	5463
2026-01-12 09:12:05.77	21.84	30.87	-31.2	-34.9	11.4	8.94e-04	0	42	0	783286272	23	5495
2026-01-12 09:12:06.77	21.55	30.76	-31.2	-34.9	11.4	8.55e-04	0	42	0	785383424	23	5490
2026-01-12 09:12:07.78	21.25	30.65	-31.3	-35.1	11.3	1.40e-03	0	42	0	787480576	23	5584
2026-01-12 09:12:08.78	20.96	30.54	-31.2	-34.9	11.4	1.37e-03	0	42	0	788529152	23	5503
2026-01-12 09:12:09.79	20.67	30.43	-31.2	-34.9	11.4	9.38e-04	0	42	0	790626304	23	5506
2026-01-12 09:12:10.80	20.38	30.32	-31.4	-35.2	11.2	1.13e-03	0	42	0	792723456	23	5636
2026-01-12 09:12:11.81	20.10	30.21	-31.4	-35.4	11.1	1.36e-03	0	42	0	794820608	23	5715
2026-01-12 09:12:12.81	19.82	30.10	-31.4	-35.3	11.2	1.31e-03	0	42	0	796917760	23	5665
2026-01-12 09:12:13.81	19.54	29.99	-31.4	-35.5	11.0	1.80e-03	0	42	0	797966336	23	5760
2026-01-12 09:12:14.81	19.26	29.88	-31.4	-35.3	11.1	1.69e-03	0	42	0	800063488	23	5670
2026-01-12 09:12:15.82	18.98	29.77	-31.3	-35.0	11.4	1.26e-03	0	42	0	802160640	23	5518
2026-01-12 09:12:16.82	18.71	29.66	-31.3	-35.0	11.4	1.03e-03	0	42	0	804257792	23	5514
2026-01-12 09:12:17.82	18.43	29.55	-31.1	-34.5	11.7	7.32e-04	0	42	0	806354944	23	5309
2026-01-12 09:12:18.83	18.16	29.44	-31.1	-34.4	11.8	4.84e-04	0	42	0	807403520	23	5264
2026-01-12 09:12:19.83	17.89	29.33	-31.2	-34.8	11.4	6.18e-04	0	42	0	809500672	23	5448
2026-01-12 09:12:20.83	17.63	29.21	-31.0	-34.2	11.9	4.71e-04	0	42	0	811597824	23	5195
2026-01-12 09:12:21.84	17.36	29.10	-31.0	-34.3	11.8	4.18e-04	0	42	0	813694976	23	5216
2026-01-12 09:12:22.85	17.09	28.99	-31.1	-34.4	11.8	4.93e-04	0	42	0	815792128	23	5261
2026-01-12 09:12:23.85	16.83	28.87	-30.8	-33.5	12.4	4.03e-04	0	42	0	816840704	23	4916
2026-01-12 09:12:24.86	16.57	28.76	-30.7	-33.7	12.6	1.12e-04	0	42	0	818937856	22	5096
2026-01-12 09:12:25.87	16.31	28.65	-30.5	-33.4	12.8	8.31e-05	0	42	0	821035008	22	4976
2026-01-12 09:12:26.87	16.06	28.53	-30.8	-34.1	12.4	8.23e-05	0	42	0	823132160	22	5260
2026-01-12 09:12:27.88	15.80	28.42	-30.6	-33.6	12.6	1.02e-04	0	42	0	825229312	22	5080
2026-01-12 09:12:28.88	15.55	28.30	-30.4	-33.0	13.0	5.72e-05	0	42	0	826277888	22	4844
2026-01-12 09:12:29.89	15.30	28.19	-30.3	-32.8	13.1	2.74e-05	0	42	0	828375040	22	4767
2026-01-12 09:12:30.89	15.05	28.07	-30.3	-32.8	13.2	2.44e-05	0	42	0	830472192	22	4775
2026-01-12 09:12:31.90	14.80	27.96	-30.6	-33.4	12.7	4.27e-05	0	42	0	832569344	22	5011
2026-01-12 09:12:32.90	14.55	27.85	-30.8	-34.2	12.2	1.28e-04	0	42	0	834666496	22	5303
2026-01-12 09:12:33.91	14.31	27.73	-30.5	-33.4	12.7	1.96e-04	0	42	0	835715072	22	4992
2026-01-12 09:12:34.92	14.07	27.61	-30.4	-32.8	13.1	3.89e-05	0	42	0	837812224	22	4788
2026-01-12 09:12:35.93	13.82	27.50	-30.2	-33.0	13.3	2.59e-05	0	42	0	839909376	21	4943
2026-01-12 09:12:36.93	13.59	27.38	-30.2	-32.9	13.3	1.98e-05	0	42	0	842006528	21	4936
2026-01-12 09:12:37.93	13.35	27.27	-30.4	-33.5	13.0	4.34e-05	0	42	0	844103680	21	5121
2026-01-12 09:12:38.94	13.12	27.15	-30.2	-33.0	13.3	2.59e-05	0	42	0	845152256	21	4945
2026-01-12 09:12:39.94	12.88	27.04	-30.2	-32.8	13.4	1.37e-05	0	42	0	847249408	21	4893
2026-01-12 09:12:40.94	12.65	26.92	-30.2	-32.9	13.4	1.60e-05	0	41	0	849346560	21	4926
2026-01-12 09:12:41.95	12.42	26.81	-30.3	-33.3	13.1	2.28e-05	0	42	0	851443712	21	5059
2026-01-12 09:12:42.96	12.19	26.69	-30.2	-32.9	13.3	2.05e-05	0	42	0	852492288	21	4932
2026-01-12 09:12:43.96	11.97	26.58	-30.0	-32.3	13.7	1.06e-05	0	42	0	854589440	21	4731
2026-01-12 09:12:44.97	11.74	26.46	-30.0	-32.4	13.6	4.50e-06	0	42	0	856686592	21	4733
2026-01-12 09:12:45.98	11.52	26.35	-29.9	-32.0	13.9	6.10e-06	0	42	0	858783744	21	4615
2026-01-12 09:12:46.98	11.30	26.23	-30.2	-33.0	13.2	6.10e-06	0	42	0	860880896	21	4975
2026-01-12 09:12:47.99	11.07	26.11	-30.0	-32.4	13.6	6.10e-06	0	42	0	862978048	21	4748
2026-01-12 09:12:48.99	10.86	26.00	-29.7	-32.1	14.1	2.20e-06	0	42	0	864026624	20	4754
2026-01-12 09:12:50.00	10.64	25.88	-29.4	-31.4	14.6	0.00e+00	0	42	0	866123776	20	4520
2026-01-12 09:12:51.01	10.42	25.77	-29.3	-31.1	14.7	0.00e+00	0	42	0	868220928	20	4416
2026-01-12 09:12:52.02	10.21	25.65	-29.3	-31.4	14.9	0.00e+00	0	42	0	870318080	19	4619
2026-01-12 09:12:53.03	10.00	25.54	-29.3	-31.6	14.8	7.00e-07	0	42	0	872415232	19	4676
2026-01-12 09:12:54.02	9.79	25.42	-29.4	-31.8	14.7	0.00e+00	0	42	0	873463808	19	4760
2026-01-12 09:12:55.02	9.58	25.31	-29.3	-31.6	14.8	0.00e+00	0	42	0	875560960	19	4696
2026-01-12 09:12:56.02	9.37	25.20	-29.4	-31.9	14.6	0.00e+00	0	42	0	877658112	19	4797
2026-01-12 09:12:57.03	9.17	25.08	-29.5	-32.2	14.4	7.00e-07	0	42	0	879755264	19	4874
2026-01-12 09:12:58.03	8.96	24.97	-29.4	-31.9	14.6	0.00e+00	0	42	0	880803840	19	4772
2026-01-12 09:12:59.03	8.76	24.85	-29.4	-31.9	14.6	7.00e-07	0	42	0	882900992	19	4797
2026-01-12 09:13:00.04	8.56	24.74	-29.5	-32.2	14.4	0.00e+00	0	42	0	884998144	19	4882
2026-01-12 09:13:01.04	8.36	24.62	-29.5	-32.1	14.5	0.00e+00	0	42	0	887095296	19	4841
2026-01-12 09:13:02.04	8.16	24.51	-29.6	-32.4	14.3	1.50e-06	0	42	0	889192448	19	4955
2026-01-12 09:13:03.05	7.96	24.39	-29.6	-32.3	14.4	7.00e-07	0	42	0	890241024	19	4930
2026-01-12 09:13:04.04	7.77	24.28	-29.6	-32.4	14.3	2.20e-06	0	42	0	892338176	19	4958
2026-01-12 09:13:05.05	7.58	24.17	-29.8	-32.8	14.0	3.00e-06	0	42	0	894435328	19	5117
2026-01-12 09:13:06.06	7.38	24.05	-29.6	-32.4	14.3	0.00e+00	0	42	0	896532480	19	4970
2026-01-12 09:13:07.06	7.19	23.94	-29.6	-32.5	14.3	7.00e-07	0	42	0	898629632	19	4975
2026-01-12 09:13:08.07	7.00	23.83	-29.9	-33.0	13.9	1.50e-06	0	42	0	899678208	19	5185
2026-01-12 09:13:09.08	6.81	23.71	-29.6	-32.3	14.3	3.00e-06	0	42	0	901775360	19	4931
2026-01-12 09:13:10.08	6.63	23.60	-29.5	-32.1	14.5	7.00e-07	0	42	0	903872512	19	4847
2026-01-12 09:13:11.09	6.44	23.49	-29.3	-31.7	14.7	0.00e+00	0	42	0	905969664	19	4716
2026-01-12 09:13:12.10	6.25	23.37	-29.4	-32.0	14.5	0.00e+00	0	42	0	908066816	19	4807
2026-01-12 09:13:13.10	6.07	23.26	-29.4	-31.8	14.7	0.00e+00	0	42	0	909115392	19	4742
2026-01-12 09:13:14.11	5.89	23.15	-29.5	-32.0	14.4	0.00e+00	0	42	0	911212544	19	4835
2026-01-12 09:13:15.11	5.71	23.04	-29.8	-32.9	13.9	7.00e-07	0	42	0	913309696	19	5148
2026-01-12 09:13:16.12	5.53	22.92	-29.8	-32.8	13.9	3.00e-06	0	42	0	915406848	19	5108
2026-01-12 09:13:17.12	5.35	22.81	-29.9	-33.1	13.8	4.50e-06	0	42	0	917504000	19	5212
2026-01-12 09:13:18.12	5.18	22.70	-30.1	-33.2	13.3	1.44e-05	0	42	0	918552576	20	5163
2026-01-12 09:13:19.12	5.00	22.59	-30.2	-33.4	13.2	1.37e-05	0	42	0	920649728	20	5234
2026-01-12 09:13:20.13	4.83	22.48	-30.1	-33.3	13.2	1.90e-05	0	42	0	922746880	20	5203
2026-01-12 09:13:21.14	4.66	22.37	-30.3	-33.8	12.9	3.73e-05	0	42	0	924844032	20	5384
2026-01-12 09:13:22.14	4.48	22.26	-30.2	-33.6	13.0	2.74e-05	0	42	0	926941184	20	5306
2026-01-12 09:13:23.14	4.32	22.15	-30.1	-33.3	13.2	3.12e-05	0	42	0	927989760	20	5190
2026-01-12 09:13:24.15	4.15	22.04	-30.3	-33.9	12.8	3.81e-05	0	42	0	930086912	20	5430
2026-01-12 09:13:25.16	3.98	21.92	-30.5	-33.9	12.4	1.15e-04	0	42	0	932184064	21	5340
2026-01-12 09:13:26.16	3.81	21.81	-30.7	-34.5	12.1	2.06e-04	0	42	0	934281216	21	5584
2026-01-12 09:13:27.16	3.65	21.71	-31.1	-35.4	11.1	6.92e-04	0	42	0	936378368	22	5865
2026-01-12 09:13:28.17	3.48	21.60	-30.9	-34.5	11.7	8.32e-04	0	42	0	937426944	22	5486
2026-01-12 09:13:29.17	3.32	21.49	-30.8	-34.3	11.8	5.14e-04	0	42	0	939524096	22	5407
2026-01-12 09:13:30.18	3.16	21.38	-30.7	-34.1	12.0	3.99e-04	0	42	0	941621248	22	5303
2026-01-12 09:13:31.18	3.00	21.27	-30.6	-33.7	12.2	2.46e-04	0	42	0	943718400	22	5171
2026-01-12 09:13:32.19	2.84	21.16	-30.7	-34.0	12.0	2.59e-04	0	42	0	945815552	22	5281
2026-01-12 09:13:33.19	2.68	21.05	-30.7	-34.0	12.0	2.75e-04	0	42	0	946864128	22	5268
2026-01-12 09:13:34.20	2.52	20.94	-30.7	-34.1	11.9	3.36e-04	0	42	0	948961280	22	5315
2026-01-12 09:13:35.21	2.37	20.83	-30.5	-33.5	12.3	1.94e-04	0	42	0	951058432	22	5080
2026-01-12 09:13:36.21	2.21	20.73	-30.4	-33.2	12.6	1.20e-04	0	42	0	953155584	22	4959
2026-01-12 09:13:37.22	2.06	20.62	-30.3	-32.8	12.8	9.15e-05	0	42	0	955252736	22	4827
2026-01-12 09:13:38.22	1.90	20.51	-30.3	-33.3	12.8	7.40e-05	0	42	0	956301312	21	5094
2026-01-12 09:13:39.23	1.75	20.40	-30.3	-33.4	12.7	5.87e-05	0	42	0	958398464	21	5145
2026-01-12 09:13:40.23	1.60	20.30	-30.3	-33.4	12.8	5.72e-05	0	42	0	960495616	21	5135
2026-01-12 09:13:41.24	1.45	20.19	-30.4	-33.7	12.5	7.40e-05	0	42	0	962592768	21	5255
2026-01-12 09:13:42.24	1.30	20.09	-30.5	-33.9	12.4	1.69e-04	0	42	0	964689920	21	5355
2026-01-12 09:13:43.25	1.16	19.98	-30.4	-33.8	12.5	1.04e-04	0	42	0	965738496	21	5291
2026-01-12 09:13:44.25	1.01	19.87	-30.3	-33.6	12.6	1.09e-04	0	42	0	967835648	21	5212
2026-01-12 09:13:45.26	0.87	19.77	-30.5	-33.9	12.3	1.10e-04	0	42	0	969932800	21	5349
2026-01-12 09:13:46.26	0.72	19.66	-30.5	-34.1	12.2	1.77e-04	0	42	0	972029952	21	5422
2026-01-12 09:13:47.25	0.58	19.56	-30.5	-34.0	12.3	2.48e-04	0	42	0	973078528	21	5384
2026-01-12 09:13:48.25	0.44	19.45	-30.4	-33.8	12.4	1.61e-04	0	42	0	975175680	21	5303
2026-01-12 09:13:49.25	0.30	19.35	-30.4	-33.8	12.4	1.33e-04	0	42	0	977272832	21	5308
2026-01-12 09:13:50.26	0.16	19.25	-30.5	-33.9	12.4	1.52e-04	0	42	0	979369984	21	5337
2026-01-12 09:13:51.25	0.02	19.14	-30.3	-33.5	12.6	1.31e-04	0	42	0	981467136	21	5208
2026-01-12 09:13:52.26	359.88	19.04	-30.2	-33.3	12.8	7.47e-05	0	42	0	982515712	21	5100
2026-01-12 09:13:53.27	359.74	18.93	-30.2	-33.3	12.7	5.49e-05	0	42	0	984612864	21	5096
2026-01-12 09:13:54.27	359.61	18.83	-30.3	-33.5	12.6	6.40e-05	0	42	0	986710016	21	5200
2026-01-12 09:13:55.27	359.47	18.73	-30.3	-33.5	12.6	9.99e-05	0	42	0	988807168	21	5207
2026-01-12 09:13:56.28	359.34	18.63	-30.3	-33.5	12.6	1.06e-04	0	42	0	990904320	21	5198
2026-01-12 09:13:57.28	359.20	18.52	-30.4	-33.7	12.4	1.01e-04	0	42	0	991952896	21	5267
2026-01-12 09:13:58.29	359.07	18.42	-30.4	-33.6	12.4	1.20e-04	0	42	0	994050048	21	5252
2026-01-12 09:13:59.30	358.94	18.32	-30.4	-33.8	12.4	1.52e-04	0	42	0	996147200	21	5314
2026-01-12 09:14:00.30	358.81	18.22	-30.4	-33.8	12.3	1.95e-04	0	42	0	998244352	21	5331
2026-01-12 09:14:01.30	358.68	18.12	-30.3	-33.3	12.7	1.20e-04	0	42	0	1000341504	21	5134
2026-01-12 09:14:02.31	358.55	18.02	-30.2	-33.1	12.8	5.95e-05	0	42	0	1001390080	21	5059
2026-01-12 09:14:03.31	358.42	17.91	-30.1	-33.0	12.9	5.49e-05	0	42	0	1003487232	21	5008
2026-01-12 09:14:04.31	358.29	17.81	-30.2	-33.0	12.9	4.57e-05	0	42	0	1005584384	21	5022
2026-01-12 09:14:05.32	358.17	17.71	-30.1	-33.0	12.8	5.95e-05	0	42	0	1007681536	21	5004
2026-01-12 09:14:06.33	358.04	17.61	-30.1	-33.0	12.8	4.57e-05	0	42	0	1009778688	21	5025
2026-01-12 09:14:07.33	357.92	17.51	-30.1	-32.9	12.9	7.17e-05	0	42	0	1010827264	21	4985
2026-01-12 09:14:08.34	357.79	17.41	-30.0	-32.7	13.1	2.97e-05	0	42	0	1012924416	21	4908
2026-01-12 09:14:09.34	357.67	17.31	-30.0	-32.8	13.0	1.83e-05	0	42	0	1015021568	21	4921
2026-01-12 09:14:10.34	357.55	17.22	-30.1	-33.0	12.9	4.11e-05	0	42	0	1017118720	21	4991
2026-01-12 09:14:11.35	357.43	17.12	-30.1	-33.0	12.9	4.42e-05	0	42	0	1019215872	21	4999
2026-01-12 09:14:12.35	357.31	17.02	-30.2	-33.3	12.6	7.62e-05	0	42	0	1020264448	21	5111
2026-01-12 09:14:13.35	357.19	16.92	-30.3	-33.4	12.6	9.07e-05	0	42	0	1022361600	21	5155
2026-01-12 09:14:14.35	357.07	16.82	-30.3	-33.5	12.5	1.13e-04	0	42	0	1024458752	21	5193
2026-01-12 09:14:15.35	356.95	16.73	-30.2	-33.2	12.7	7.85e-05	0	42	0	1026555904	21	5094
2026-01-12 09:14:16.35	356.83	16.63	-30.2	-33.2	12.7	6.56e-05	0	42	0	1027604480	21	5103
2026-01-12 09:14:17.36	356.72	16.53	-30.3	-33.4	12.6	7.24e-05	0	42	0	1029701632	21	5174
2026-01-12 09:14:18.36	356.60	16.44	-30.1	-33.0	12.8	7.62e-05	0	42	0	1031798784	21	5029
2026-01-12 09:14:19.36	356.49	16.34	-30.2	-33.1	12.7	6.63e-05	0	42	0	1033895936	21	5066
2026-01-12 09:14:20.36	356.37	16.24	-30.1	-32.9	12.9	6.56e-05	0	42	0	1035993088	21	4988
2026-01-12 09:14:21.37	356.26	16.15	-30.2	-33.1	12.8	5.41e-05	0	42	0	1038090240	21	5062
2026-01-12 09:14:22.38	356.15	16.05	-30.2	-33.2	12.7	8.39e-05	0	42	0	1039138816	21	5094
2026-01-12 09:14:23.38	356.03	15.95	-30.1	-33.0	12.8	6.56e-05	0	42	0	1041235968	21	5011
2026-01-12 09:14:24.39	355.92	15.86	-30.1	-33.0	12.8	4.88e-05	0	42	0	1043333120	21	5000
2026-01-12 09:14:25.38	355.81	15.77	-30.1	-32.9	12.8	5.56e-05	0	42	0	1045430272	21	4988
2026-01-12 09:14:26.39	355.70	15.67	-30.1	-32.9	12.8	4.27e-05	0	42	0	1046478848	21	4994
2026-01-12 09:14:27.40	355.59	15.57	-30.1	-32.9	12.8	5.49e-05	0	42	0	1048576000	21	4998
2026-01-12 09:14:28.40	355.48	15.48	-30.1	-33.0	12.7	9.38e-05	0	42	0	1050673152	21	5037
2026-01-12 09:14:29.41	355.38	15.39	-30.0	-32.8	12.9	5.18e-05	0	42	0	1052770304	21	4936
2026-01-12 09:14:30.41	355.27	15.29	-29.8	-32.2	13.2	2.28e-05	0	42	0	1054867456	21	4748
2026-01-12 09:14:31.42	355.16	15.20	-29.9	-32.3	13.2	1.98e-05	0	42	0	1055916032	21	4769
2026-01-12 09:14:32.43	355.06	15.10	-30.0	-32.5	13.1	3.43e-05	0	42	0	1058013184	21	4847
2026-01-12 09:14:33.43	354.95	15.01	-29.9	-32.3	13.3	2.21e-05	0	42	0	1060110336	21	4751
2026-01-12 09:14:34.44	354.85	14.92	-29.9	-32.5	13.1	2.51e-05	0	42	0	1062207488	21	4831
2026-01-12 09:14:35.44	354.74	14.83	-29.9	-32.4	13.2	2.67e-05	0	42	0	1064304640	21	4811
2026-01-12 09:14:36.44	354.64	14.74	-29.9	-32.4	13.1	2.28e-05	0	42	0	1065353216	21	4816
2026-01-12 09:14:37.44	354.54	14.64	-29.9	-32.5	13.2	2.74e-05	0	42	0	1067450368	21	4825
2026-01-12 09:14:38.45	354.44	14.55	-30.0	-32.8	12.9	3.89e-05	0	42	0	1069547520	21	4953
2026-01-12 09:14:39.46	354.34	14.46	-30.2	-33.1	12.7	7.70e-05	0	42	0	1071644672	21	5073
2026-01-12 09:14:40.47	354.23	14.37	-30.2	-33.4	12.5	1.02e-04	0	42	0	1073741824	21	5165
2026-01-12 09:14:41.47	354.14	14.28	-30.3	-33.7	12.3	1.30e-04	0	42	0	1074790400	21	5282
2026-01-12 09:14:42.48	354.04	14.19	-30.5	-34.2	11.9	2.63e-04	0	42	0	1076887552	21	5514
2026-01-12 09:14:43.48	353.94	14.10	-30.6	-34.5	11.8	6.32e-04	0	42	0	1078984704	21	5614
2026-01-12 09:14:44.48	353.84	14.01	-30.6	-34.5	11.7	5.61e-04	0	42	0	1081081856	21	5649
2026-01-12 09:14:45.49	353.74	13.92	-30.5	-34.2	11.9	3.46e-04	0	42	0	1083179008	21	5519
2026-01-12 09:14:46.50	353.64	13.83	-30.6	-34.4	11.7	4.23e-04	0	42	0	1084227584	21	5613
2026-01-12 09:14:47.50	353.55	13.74	-30.6	-34.4	11.8	5.81e-04	0	42	0	1086324736	21	5587
2026-01-12 09:14:48.50	353.45	13.65	-30.4	-33.9	12.1	3.86e-04	0	42	0	1088421888	21	5389
2026-01-12 09:14:49.51	353.36	13.56	-30.3	-33.7	12.2	2.43e-04	0	42	0	1090519040	21	5313
2026-01-12 09:14:50.51	353.27	13.47	-30.3	-33.6	12.3	2.43e-04	0	42	0	1092616192	21	5257
2026-01-12 09:14:51.52	353.17	13.38	-30.3	-33.7	12.2	1.80e-04	0	42	0	1093664768	21	5315
2026-01-12 09:14:52.53	353.08	13.29	-30.4	-33.9	12.1	3.11e-04	0	42	0	1095761920	21	5377
2026-01-12 09:14:53.53	352.99	13.20	-30.4	-33.9	12.0	2.33e-04	0	42	0	1097859072	21	5401
2026-01-12 09:14:54.54	352.89	13.12	-30.3	-33.7	12.2	3.65e-04	0	42	0	1099956224	21	5306
2026-01-12 09:14:55.55	352.80	13.03	-30.3	-33.6	12.3	2.01e-04	0	42	0	1102053376	21	5249
2026-01-12 09:14:56.56	352.71	12.94	-30.4	-33.8	12.1	2.23e-04	0	42	0	1103101952	21	5333
2026-01-12 09:14:57.56	352.62	12.85	-30.4	-33.9	12.1	2.95e-04	0	42	0	1105199104	21	5383
2026-01-12 09:14:58.56	352.53	12.77	-30.4	-33.8	12.1	2.45e-04	0	42	0	1107296256	21	5362
2026-01-12 09:14:59.57	352.44	12.68	-30.4	-34.0	12.0	3.93e-04	0	42	0	1109393408	21	5433
2026-01-12 09:15:00.56	352.35	12.59	-30.4	-33.8	12.1	2.91e-04	0	42	0	1111490560	21	5363
2026-01-12 09:15:01.56	352.27	12.51	-30.4	-33.9	12.0	2.62e-04	0	42	0	1112539136	21	5405
2026-01-12 09:15:02.56	352.18	12.42	-30.5	-34.2	11.8	3.94e-04	0	42	0	1114636288	21	5512
2026-01-12 09:15:03.57	352.09	12.34	-30.5	-34.2	11.9	4.26e-04	0	42	0	1116733440	21	5517
2026-01-12 09:15:04.58	352.00	12.25	-30.5	-34.3	11.7	5.70e-04	0	42	0	1118830592	21	5574
2026-01-12 09:15:05.59	351.92	12.17	-30.6	-34.6	11.5	7.39e-04	0	42	0	1120927744	21	5717
2026-01-12 09:15:06.59	351.83	12.08	-30.6	-34.6	11.4	9.66e-04	0	42	0	1121976320	21	5713
2026-01-12 09:15:07.60	351.75	12.00	-30.6	-34.7	11.4	1.09e-03	0	42	0	1124073472	21	5759
2026-01-12 09:15:08.60	351.66	11.91	-30.7	-34.9	11.2	1.15e-03	0	42	0	1126170624	21	5841
2026-01-12 09:15:09.60	351.58	11.83	-30.7	-34.9	11.3	1.48e-03	0	42	0	1128267776	21	5833
2026-01-12 09:15:10.61	351.50	11.74	-30.8	-35.2	11.0	1.56e-03	0	42	0	1129316352	21	5985
2026-01-12 09:15:11.61	351.41	11.66	-30.8	-35.3	10.9	2.08e-03	0	42	0	1131413504	21	6019
2026-01-12 09:15:12.62	351.33	11.58	-30.8	-35.1	11.0	1.64e-03	0	42	0	1133510656	21	5950
2026-01-12 09:15:13.62	351.25	11.49	-30.8	-35.2	10.9	1.93e-03	0	42	0	1135607808	21	6011
2026-01-12 09:15:14.62	351.17	11.41	-30.7	-35.0	11.0	2.26e-03	0	42	0	1137704960	21	5923
2026-01-12 09:15:15.63	351.09	11.33	-30.7	-35.1	11.0	1.68e-03	0	42	0	1139802112	21	5937
2026-01-12 09:15:16.64	351.01	11.24	-30.7	-35.1	11.0	1.62e-03	0	42	0	1140850688	21	5950
2026-01-12 09:15:17.64	350.93	11.16	-30.7	-35.2	10.9	1.78e-03	0	42	0	1142947840	21	5995
2026-01-12 09:15:18.65	350.85	11.08	-30.7	-35.2	10.9	2.17e-03	0	42	0	1145044992	21	6018
2026-01-12 09:15:19.65	350.77	11.00	-30.9	-35.7	10.5	3.01e-03	0	42	0	1147142144	21	6243
2026-01-12 09:15:20.66	350.69	10.92	-30.9	-35.7	10.5	4.91e-03	0	42	0	1148190720	21	6268
2026-01-12 09:15:21.67	350.61	10.83	-30.8	-35.3	10.8	3.62e-03	0	42	0	1150287872	21	6087
2026-01-12 09:15:22.68	350.53	10.75	-30.7	-35.2	10.8	2.43e-03	0	42	0	1152385024	21	6038
2026-01-12 09:15:23.69	350.45	10.67	-30.8	-35.3	10.8	2.60e-03	0	42	0	1154482176	21	6089
2026-01-12 09:15:24.68	350.38	10.59	-30.8	-35.4	10.7	2.84e-03	0	42	0	1156579328	21	6106
2026-01-12 09:15:25.69	350.30	10.51	-30.9	-35.6	10.5	3.86e-03	0	42	0	1157627904	21	6227
2026-01-12 09:15:26.69	350.23	10.43	-31.1	-35.8	10.1	5.57e-03	0	42	0	1159725056	22	6213
2026-01-12 09:15:27.70	350.15	10.35	-31.1	-35.8	10.1	7.78e-03	0	42	0	1161822208	22	6211
2026-01-12 09:15:28.70	350.07	10.27	-31.0	-35.6	10.2	5.86e-03	0	42	0	1163919360	22	6099
2026-01-12 09:15:29.71	350.00	10.19	-31.0	-35.7	10.2	5.57e-03	0	42	0	1166016512	22	6124
2026-01-12 09:15:30.71	349.93	10.11	-31.0	-35.4	10.4	5.26e-03	0	42	0	1167065088	22	5986
2026-01-12 09:15:31.71	349.85	10.03	-30.9	-35.3	10.4	4.43e-03	0	42	0	1169162240	22	5958
2026-01-12 09:15:32.72	349.78	9.95	-31.0	-35.6	10.3	5.04e-03	0	42	0	1171259392	22	6081
2026-01-12 09:15:33.73	349.71	9.87	-30.9	-35.3	10.5	4.81e-03	0	42	0	1173356544	22	5954
2026-01-12 09:15:34.73	349.63	9.79	-30.9	-35.4	10.4	4.49e-03	0	42	0	1175453696	22	5986
2026-01-12 09:15:35.74	349.56	9.71	-30.9	-35.4	10.3	5.29e-03	0	42	0	1176502272	22	6016
2026-01-12 09:15:36.74	349.49	9.63	-30.9	-35.3	10.4	4.65e-03	0	42	0	1178599424	22	5984
2026-01-12 09:15:37.75	349.42	9.56	-31.0	-35.5	10.2	5.25e-03	0	42	0	1180696576	22	6075
2026-01-12 09:15:38.76	349.35	9.48	-30.9	-35.2	10.4	5.60e-03	0	42	0	1182793728	22	5948
2026-01-12 09:15:39.76	349.28	9.40	-30.9	-35.1	10.5	4.27e-03	0	42	0	1184890880	22	5896
2026-01-12 09:15:40.77	349.21	9.32	-30.9	-35.2	10.4	3.80e-03	0	42	0	1185939456	22	5928
2026-01-12 09:15:41.78	349.14	9.24	-30.9	-35.3	10.3	4.95e-03	0	42	0	1188036608	22	5980
2026-01-12 09:15:42.78	349.07	9.17	-31.0	-35.6	10.1	6.88e-03	0	42	0	1190133760	22	6143
2026-01-12 09:15:43.78	349.00	9.09	-31.0	-35.8	9.9	8.07e-03	0	42	0	1192230912	22	6225
2026-01-12 09:15:44.78	348.93	9.01	-31.0	-35.8	9.9	8.09e-03	0	42	0	1194328064	22	6229
2026-01-12 09:15:45.79	348.86	8.94	-31.0	-35.6	10.0	8.30e-03	0	42	0	1195376640	22	6149
2026-01-12 09:15:46.79	348.79	8.86	-30.9	-35.4	10.2	6.84e-03	0	42	0	1197473792	22	6060
2026-01-12 09:15:47.80	348.73	8.78	-31.1	-36.0	9.7	9.06e-03	0	42	0	1199570944	22	6336
2026-01-12 09:15:48.80	348.66	8.71	-31.0	-35.9	9.8	8.34e-03	0	42	0	1201668096	22	6288
2026-01-12 09:15:49.81	348.59	8.63	-31.1	-36.1	9.6	1.10e-02	0	42	0	1203765248	22	6414
2026-01-12 09:15:50.81	348.53	8.56	-31.0	-35.8	9.9	1.06e-02	0	42	0	1204813824	22	6242
2026-01-12 09:15:51.82	348.46	8.48	-31.0	-35.6	10.0	8.82e-03	0	42	0	1206910976	22	6160
2026-01-12 09:15:52.82	348.39	8.41	-30.9	-35.6	10.0	7.01e-03	0	42	0	1209008128	22	6150
2026-01-12 09:15:53.83	348.33	8.33	-31.0	-35.7	10.0	7.96e-03	0	42	0	1211105280	22	6177
2026-01-12 09:15:54.83	348.26	8.26	-31.0	-35.7	9.9	9.16e-03	0	42	0	1213202432	22	6212
2026-01-12 09:15:55.84	348.20	8.18	-31.0	-35.8	9.8	9.98e-03	0	42	0	1214251008	22	6280
2026-01-12 09:15:56.85	348.13	8.11	-31.0	-35.9	9.7	1.02e-02	0	42	0	1216348160	22	6285
2026-01-12 09:15:57.85	348.07	8.03	-31.0	-35.9	9.7	1.04e-02	0	42	0	1218445312	22	6320
2026-01-12 09:15:58.86	348.01	7.96	-31.1	-36.2	9.5	1.25e-02	0	42	0	1220542464	22	6492
2026-01-12 09:15:59.87	347.94	7.88	-31.1	-36.0	9.6	1.38e-02	0	42	0	1222639616	22	6384
2026-01-12 09:16:00.87	347.88	7.81	-31.1	-36.2	9.5	1.32e-02	0	42	0	1223688192	22	6461
2026-01-12 09:16:01.87	347.82	7.74	-31.2	-36.4	9.4	1.61e-02	0	42	0	1225785344	22	6542
2026-01-12 09:16:02.88	347.76	7.66	-31.1	-36.2	9.6	1.57e-02	0	42	0	1227882496	22	6467
2026-01-12 09:16:03.89	347.69	7.59	-31.2	-36.4	9.3	1.59e-02	0	42	0	1229979648	22	6592
2026-01-12 09:16:04.89	347.63	7.51	-31.1	-36.1	9.7	1.79e-02	0	42	0	1232076800	22	6397
2026-01-12 09:16:05.89	347.57	7.44	-31.1	-36.2	9.5	1.35e-02	0	42	0	1233125376	22	6460
2026-01-12 09:16:06.90	347.51	7.37	-31.1	-36.3	9.4	1.60e-02	0	42	0	1235222528	22	6518
2026-01-12 09:16:07.90	347.45	7.30	-31.1	-36.3	9.3	1.61e-02	0	42	0	1237319680	22	6555
2026-01-12 09:16:08.91	347.39	7.22	-31.1	-36.2	9.5	1.54e-02	0	42	0	1239416832	22	6463
2026-01-12 09:16:09.91	347.33	7.15	-31.1	-36.4	9.2	1.70e-02	0	42	0	1241513984	22	6617
2026-01-12 09:16:10.92	347.27	7.08	-31.1	-36.4	9.3	1.86e-02	0	42	0	1242562560	22	6587
2026-01-12 09:16:11.92	347.21	7.01	-32.8	-45.8	3.8	3.69e-01	0	42	104	1243611136	25	16142
2026-01-12 09:16:12.93	347.15	6.94	-33.2	-47.2	3.8	1.49e+00	0	42	104	1243611136	26	18170

#Closed at: 2026-01-12 09:16:13
#Recorded file [1243 MB]: D:/data/31010_260112_120507.dat