passes_logs/2026/01/12/R2M6_AANII_01/R2M6_AANII_01__20260112_112355_FENGYUN_3D_rec.log

#Pass ID: 20260112_112355_FENGYUN 3D
#Satellite: FENGYUN 3D
#Configuration: FENGYUN 3D
#almurnet v.1.7.20240730
#Start time: 2026-01-12 11:23:54

#Version: 2.2.20231116
#Station: R2M6_AANII_01
#Location: 30.233357 lon 59.946436 lat
#TLE: 1 43010U 17072A   26011.26828046  .00000354  00000+0  18908-3 0  9991
#TLE: 2 43010  98.9936 343.0270 0002205 114.1788 245.9618 14.19695184422722

#Time	Az	El	Level	Level2	SNR	BER	BlckErr	Temp	State	Recorded	gain1	gain2
2026-01-12 11:23:54.86	130.53	6.99	-29.7	-32.6	5.3	7.88e-01	0	39	0	0	20	5057
2026-01-12 11:23:55.86	130.48	7.06	-29.7	-32.8	5.3	7.89e-01	0	39	104	0	20	5152
2026-01-12 11:23:56.87	130.43	7.14	-29.8	-33.0	9.3	2.12e-02	0	39	0	0	20	5182
2026-01-12 11:23:57.87	130.39	7.21	-29.5	-32.2	9.9	1.40e-02	0	39	0	5242880	20	4888
2026-01-12 11:23:58.88	130.34	7.29	-29.7	-32.7	9.6	1.34e-02	0	40	0	11534336	20	5060
2026-01-12 11:23:59.89	130.29	7.36	-29.5	-32.0	10.0	1.23e-02	0	40	0	16777216	20	4830
2026-01-12 11:24:00.89	130.25	7.44	-29.5	-32.0	10.1	1.06e-02	0	40	0	22020096	20	4813
2026-01-12 11:24:01.90	130.20	7.52	-29.6	-32.3	9.9	1.17e-02	0	39	0	28311552	20	4924
2026-01-12 11:24:02.91	130.15	7.59	-29.9	-33.2	9.2	1.99e-02	0	40	0	33554432	20	5276
2026-01-12 11:24:03.91	130.10	7.67	-29.5	-32.0	10.1	1.24e-02	0	40	0	39845888	20	4804
2026-01-12 11:24:04.92	130.05	7.75	-29.1	-31.4	10.9	4.72e-03	0	40	0	45088768	19	4701
2026-01-12 11:24:05.93	130.00	7.82	-28.7	-30.9	11.5	1.20e-03	0	40	0	50331648	18	4653
2026-01-12 11:24:06.93	129.96	7.90	-28.4	-30.0	12.1	5.17e-04	0	40	0	56623104	18	4351
2026-01-12 11:24:07.93	129.91	7.98	-27.9	-29.3	12.8	8.81e-05	0	40	0	61865984	17	4254
2026-01-12 11:24:08.94	129.86	8.05	-27.6	-29.1	13.3	3.20e-05	0	40	0	67108864	16	4298
2026-01-12 11:24:09.94	129.81	8.13	-27.4	-28.7	13.6	1.14e-05	0	40	0	73400320	16	4183
2026-01-12 11:24:10.95	129.76	8.21	-27.0	-28.4	13.8	9.10e-06	0	40	0	78643200	15	4226
2026-01-12 11:24:11.95	129.71	8.29	-27.1	-28.5	13.8	6.80e-06	0	40	0	84934656	15	4229
2026-01-12 11:24:12.95	129.66	8.37	-27.0	-28.3	13.9	3.40e-06	0	40	0	90177536	15	4196
2026-01-12 11:24:13.96	129.61	8.44	-27.1	-28.6	13.7	5.70e-06	0	40	0	96468992	15	4271
2026-01-12 11:24:14.96	129.56	8.52	-27.0	-28.4	13.9	6.80e-06	0	40	0	101711872	15	4203
2026-01-12 11:24:15.97	129.50	8.60	-26.9	-28.0	14.1	1.10e-06	0	40	0	106954752	15	4109
2026-01-12 11:24:16.98	129.45	8.68	-27.0	-28.3	14.0	5.70e-06	0	40	0	113246208	15	4173
2026-01-12 11:24:17.98	129.40	8.76	-26.8	-28.0	14.1	3.40e-06	0	40	0	118489088	15	4097
2026-01-12 11:24:18.99	129.35	8.84	-26.9	-28.0	14.1	4.50e-06	0	40	0	123731968	15	4113
2026-01-12 11:24:20.00	129.30	8.92	-26.9	-28.0	14.1	1.10e-06	0	40	0	130023424	15	4112
2026-01-12 11:24:21.00	129.24	9.00	-26.9	-28.2	14.0	4.50e-06	0	40	0	135266304	15	4156
2026-01-12 11:24:22.01	129.19	9.08	-27.1	-28.6	13.8	9.10e-06	0	40	0	140509184	15	4268
2026-01-12 11:24:23.01	129.14	9.16	-27.0	-28.2	14.0	2.20e-06	0	40	0	146800640	15	4171
2026-01-12 11:24:24.01	129.08	9.24	-26.8	-27.9	14.2	2.20e-06	0	40	0	152043520	15	4068
2026-01-12 11:24:25.02	129.03	9.32	-26.8	-28.3	14.3	2.20e-06	0	40	0	158334976	14	4273
2026-01-12 11:24:26.03	128.97	9.41	-26.7	-28.2	14.3	5.70e-06	0	40	0	163577856	14	4260
2026-01-12 11:24:27.03	128.92	9.49	-26.8	-28.4	14.2	0.00e+00	0	40	0	169869312	14	4311
2026-01-12 11:24:28.04	128.86	9.57	-26.8	-28.2	14.3	3.40e-06	0	40	0	175112192	14	4269
2026-01-12 11:24:29.05	128.81	9.65	-26.7	-28.1	14.4	3.40e-06	0	40	0	180355072	14	4236
2026-01-12 11:24:30.05	128.75	9.73	-26.7	-28.1	14.4	1.10e-06	0	40	0	186646528	14	4238
2026-01-12 11:24:31.05	128.70	9.82	-26.9	-28.5	14.2	1.10e-06	0	40	0	191889408	14	4339
2026-01-12 11:24:32.05	128.64	9.90	-26.7	-28.2	14.4	2.20e-06	0	40	0	197132288	14	4244
2026-01-12 11:24:33.06	128.58	9.98	-26.7	-28.1	14.5	1.10e-06	0	40	0	203423744	14	4234
2026-01-12 11:24:34.07	128.53	10.07	-26.8	-28.3	14.4	1.10e-06	0	41	0	208666624	14	4278
2026-01-12 11:24:35.08	128.47	10.15	-26.9	-28.5	14.2	3.40e-06	0	40	0	214958080	14	4348
2026-01-12 11:24:36.08	128.41	10.23	-26.7	-28.1	14.5	3.40e-06	0	41	0	220200960	14	4238
2026-01-12 11:24:37.08	128.35	10.32	-26.6	-28.0	14.6	0.00e+00	0	41	0	225443840	14	4193
2026-01-12 11:24:38.08	128.29	10.40	-26.7	-28.0	14.5	2.20e-06	0	41	0	231735296	14	4206
2026-01-12 11:24:39.08	128.24	10.49	-26.6	-28.0	14.6	2.20e-06	0	41	0	236978176	14	4192
2026-01-12 11:24:40.09	128.18	10.57	-26.7	-28.0	14.5	2.20e-06	0	41	0	243269632	14	4211
2026-01-12 11:24:41.09	128.12	10.66	-26.7	-28.1	14.5	0.00e+00	0	41	0	248512512	14	4242
2026-01-12 11:24:42.10	128.06	10.74	-26.9	-28.6	14.2	3.40e-06	0	41	0	253755392	14	4382
2026-01-12 11:24:43.11	128.00	10.83	-26.8	-28.3	14.4	2.20e-06	0	41	0	260046848	14	4276
2026-01-12 11:24:44.11	127.94	10.91	-26.6	-27.8	14.7	1.10e-06	0	41	0	265289728	14	4160
2026-01-12 11:24:45.11	127.87	11.00	-26.6	-27.8	14.7	1.10e-06	0	41	0	271581184	14	4161
2026-01-12 11:24:46.12	127.81	11.09	-26.6	-27.9	14.7	6.80e-06	0	41	0	276824064	14	4181
2026-01-12 11:24:47.13	127.75	11.17	-26.6	-27.8	14.7	0.00e+00	0	41	0	282066944	14	4158
2026-01-12 11:24:48.13	127.69	11.26	-26.6	-27.9	14.7	0.00e+00	0	41	0	288358400	14	4188
2026-01-12 11:24:49.14	127.63	11.35	-26.8	-28.3	14.4	0.00e+00	0	41	0	293601280	14	4287
2026-01-12 11:24:50.14	127.56	11.43	-26.6	-27.8	14.7	1.10e-06	0	41	0	298844160	14	4152
2026-01-12 11:24:51.15	127.50	11.52	-26.4	-27.5	15.0	1.10e-06	0	41	0	305135616	14	4058
2026-01-12 11:24:52.15	127.44	11.61	-26.3	-27.2	15.1	0.00e+00	0	41	0	310378496	14	3985
2026-01-12 11:24:53.16	127.37	11.70	-26.3	-27.2	15.1	0.00e+00	0	41	0	316669952	14	3985
2026-01-12 11:24:54.17	127.31	11.79	-26.3	-27.6	15.2	0.00e+00	0	41	0	321912832	13	4205
2026-01-12 11:24:55.17	127.24	11.88	-26.3	-27.6	15.2	5.70e-06	0	41	0	328204288	13	4192
2026-01-12 11:24:56.18	127.18	11.97	-26.1	-27.2	15.4	0.00e+00	0	41	0	333447168	13	4094
2026-01-12 11:24:57.19	127.11	12.06	-26.1	-27.1	15.4	0.00e+00	0	41	0	338690048	13	4079
2026-01-12 11:24:58.19	127.05	12.15	-26.1	-27.3	15.3	5.70e-06	0	41	0	344981504	13	4109
2026-01-12 11:24:59.20	126.98	12.24	-26.2	-27.4	15.3	0.00e+00	0	41	0	350224384	13	4138
2026-01-12 11:25:00.21	126.91	12.33	-26.0	-27.0	15.5	0.00e+00	0	41	0	355467264	13	4029
2026-01-12 11:25:01.21	126.84	12.42	-26.0	-27.1	15.5	0.00e+00	0	41	0	361758720	13	4057
2026-01-12 11:25:02.21	126.78	12.51	-26.1	-27.2	15.4	0.00e+00	0	41	0	367001600	13	4093
2026-01-12 11:25:03.21	126.71	12.60	-25.9	-26.8	15.6	0.00e+00	0	41	0	373293056	13	3981
2026-01-12 11:25:04.22	126.64	12.69	-25.8	-26.6	15.7	0.00e+00	0	41	0	378535936	13	3946
2026-01-12 11:25:05.23	126.57	12.78	-25.8	-26.7	15.7	0.00e+00	0	41	0	383778816	13	3954
2026-01-12 11:25:06.24	126.50	12.88	-25.8	-26.5	15.8	0.00e+00	0	41	0	390070272	13	3924
2026-01-12 11:25:07.24	126.43	12.97	-25.8	-26.6	15.8	1.10e-06	0	41	0	395313152	13	3934
2026-01-12 11:25:08.25	126.36	13.06	-25.8	-26.6	15.8	0.00e+00	0	41	0	401604608	13	3932
2026-01-12 11:25:09.25	126.29	13.15	-25.7	-26.9	15.9	0.00e+00	0	41	0	406847488	12	4122
2026-01-12 11:25:10.26	126.22	13.25	-25.8	-27.0	15.9	0.00e+00	0	41	0	413138944	12	4133
2026-01-12 11:25:11.27	126.14	13.34	-25.7	-26.9	15.9	0.00e+00	0	41	0	418381824	12	4126
2026-01-12 11:25:12.28	126.07	13.44	-25.8	-27.0	15.9	0.00e+00	0	41	0	423624704	12	4150
2026-01-12 11:25:13.28	126.00	13.53	-25.7	-26.8	16.0	1.10e-06	0	41	0	429916160	12	4090
2026-01-12 11:25:14.28	125.92	13.63	-25.8	-27.0	15.9	0.00e+00	0	41	0	435159040	12	4150
2026-01-12 11:25:15.29	125.85	13.72	-25.8	-27.0	15.8	0.00e+00	0	41	0	440401920	12	4149
2026-01-12 11:25:16.30	125.78	13.82	-25.7	-26.7	16.0	0.00e+00	0	41	0	446693376	12	4078
2026-01-12 11:25:17.30	125.70	13.91	-25.6	-26.7	16.0	0.00e+00	0	41	0	451936256	12	4059
2026-01-12 11:25:18.30	125.63	14.01	-25.7	-26.8	16.0	0.00e+00	0	41	0	457179136	12	4076
2026-01-12 11:25:19.30	125.55	14.10	-25.8	-26.9	15.9	0.00e+00	0	41	0	463470592	12	4125
2026-01-12 11:25:20.31	125.47	14.20	-25.6	-26.6	16.2	0.00e+00	0	41	0	468713472	12	4030
2026-01-12 11:25:21.32	125.40	14.30	-25.7	-26.7	16.0	0.00e+00	0	41	0	475004928	12	4067
2026-01-12 11:25:22.33	125.32	14.40	-25.6	-26.7	16.1	0.00e+00	0	41	0	480247808	12	4053
2026-01-12 11:25:23.34	125.24	14.50	-25.6	-26.5	16.2	0.00e+00	0	41	0	486539264	12	4013
2026-01-12 11:25:24.34	125.16	14.59	-25.5	-26.3	16.2	0.00e+00	0	41	0	491782144	12	3973
2026-01-12 11:25:25.35	125.08	14.69	-25.5	-26.3	16.3	0.00e+00	0	41	0	497025024	12	3966
2026-01-12 11:25:26.35	125.00	14.79	-25.4	-26.1	16.4	0.00e+00	0	41	0	503316480	12	3921
2026-01-12 11:25:27.37	124.92	14.89	-25.3	-26.1	16.5	0.00e+00	0	41	0	508559360	12	3903
2026-01-12 11:25:28.37	124.84	14.99	-25.3	-26.0	16.5	0.00e+00	0	41	0	514850816	12	3878
2026-01-12 11:25:29.38	124.76	15.09	-25.3	-26.5	16.5	0.00e+00	0	41	0	520093696	11	4121
2026-01-12 11:25:30.38	124.68	15.19	-25.4	-26.6	16.5	0.00e+00	0	41	0	525336576	11	4142
2026-01-12 11:25:31.39	124.60	15.29	-25.4	-26.6	16.5	0.00e+00	0	41	0	531628032	11	4141
2026-01-12 11:25:32.39	124.51	15.39	-25.3	-26.5	16.6	0.00e+00	0	41	0	536870912	11	4120
2026-01-12 11:25:33.40	124.43	15.49	-25.3	-26.3	16.7	0.00e+00	0	41	0	542113792	11	4076
2026-01-12 11:25:34.40	124.35	15.59	-25.3	-26.4	16.6	0.00e+00	0	41	0	548405248	11	4094
2026-01-12 11:25:35.41	124.26	15.70	-25.2	-26.2	16.7	0.00e+00	0	41	0	553648128	11	4045
2026-01-12 11:25:36.41	124.18	15.80	-25.3	-26.4	16.7	0.00e+00	0	41	0	559939584	11	4080
2026-01-12 11:25:37.42	124.09	15.90	-25.2	-26.3	16.7	0.00e+00	0	41	0	565182464	11	4062
2026-01-12 11:25:38.42	124.00	16.00	-25.1	-26.0	16.9	0.00e+00	0	41	0	571473920	11	3993
2026-01-12 11:25:39.42	123.92	16.11	-25.0	-25.9	17.0	0.00e+00	0	41	0	576716800	11	3964
2026-01-12 11:25:40.43	123.83	16.21	-25.1	-26.1	16.9	0.00e+00	0	41	0	581959680	11	4004
2026-01-12 11:25:41.44	123.74	16.32	-25.1	-26.0	16.9	0.00e+00	0	41	0	588251136	11	3984
2026-01-12 11:25:42.44	123.65	16.42	-25.0	-25.7	17.0	0.00e+00	0	41	0	593494016	11	3922
2026-01-12 11:25:43.44	123.56	16.52	-25.1	-26.0	16.9	0.00e+00	0	41	0	598736896	11	3988
2026-01-12 11:25:44.45	123.47	16.63	-25.1	-26.1	16.8	0.00e+00	0	41	0	605028352	11	4014
2026-01-12 11:25:45.45	123.38	16.74	-24.9	-25.7	17.1	0.00e+00	0	41	0	610271232	11	3912
2026-01-12 11:25:46.46	123.29	16.84	-24.9	-25.6	17.1	0.00e+00	0	41	0	615514112	11	3898
2026-01-12 11:25:47.46	123.20	16.95	-25.0	-25.7	17.0	0.00e+00	0	41	0	621805568	11	3923
2026-01-12 11:25:48.47	123.10	17.06	-25.0	-25.8	17.0	0.00e+00	0	42	0	627048448	11	3950
2026-01-12 11:25:49.47	123.01	17.16	-25.2	-26.3	16.8	0.00e+00	0	41	0	633339904	11	4062
2026-01-12 11:25:50.48	122.91	17.27	-25.2	-26.3	16.8	0.00e+00	0	41	0	638582784	11	4062
2026-01-12 11:25:51.49	122.82	17.38	-25.1	-26.0	17.0	0.00e+00	0	41	0	644874240	11	3989
2026-01-12 11:25:52.49	122.72	17.49	-25.0	-25.8	17.0	0.00e+00	0	41	0	650117120	11	3949
2026-01-12 11:25:53.49	122.63	17.59	-25.1	-25.9	17.0	0.00e+00	0	41	0	655360000	11	3976
2026-01-12 11:25:54.50	122.53	17.70	-25.0	-25.9	17.0	0.00e+00	0	42	0	661651456	11	3954
2026-01-12 11:25:55.50	122.43	17.81	-25.1	-25.9	17.0	0.00e+00	0	41	0	666894336	11	3959
2026-01-12 11:25:56.51	122.33	17.92	-25.0	-25.8	17.1	0.00e+00	0	41	0	673185792	11	3943
2026-01-12 11:25:57.51	122.23	18.03	-24.8	-25.4	17.3	0.00e+00	0	41	0	678428672	11	3847
2026-01-12 11:25:58.52	122.13	18.15	-24.8	-25.7	17.4	0.00e+00	0	41	0	683671552	10	4021
2026-01-12 11:25:59.53	122.03	18.26	-24.7	-25.5	17.5	0.00e+00	0	41	0	689963008	10	3974
2026-01-12 11:26:00.54	121.93	18.37	-24.6	-25.5	17.5	0.00e+00	0	41	0	695205888	10	3958
2026-01-12 11:26:01.54	121.83	18.48	-24.7	-25.6	17.5	0.00e+00	0	41	0	700448768	10	3992
2026-01-12 11:26:02.55	121.72	18.59	-24.8	-25.9	17.3	0.00e+00	0	41	0	706740224	10	4060
2026-01-12 11:26:03.55	121.62	18.71	-24.7	-25.6	17.5	0.00e+00	0	41	0	711983104	10	4003
2026-01-12 11:26:04.56	121.51	18.82	-24.6	-25.4	17.6	0.00e+00	0	41	0	718274560	10	3944
2026-01-12 11:26:05.57	121.41	18.93	-24.6	-25.4	17.6	0.00e+00	0	42	0	723517440	10	3959
2026-01-12 11:26:06.57	121.30	19.05	-24.6	-25.5	17.6	0.00e+00	0	41	0	729808896	10	3968
2026-01-12 11:26:07.57	121.20	19.16	-24.7	-25.7	17.5	0.00e+00	0	41	0	735051776	10	4014
2026-01-12 11:26:08.58	121.09	19.28	-24.6	-25.4	17.6	0.00e+00	0	41	0	740294656	10	3947
2026-01-12 11:26:09.58	120.98	19.39	-24.6	-25.3	17.7	0.00e+00	0	41	0	746586112	10	3921
2026-01-12 11:26:10.59	120.87	19.51	-24.5	-25.3	17.7	0.00e+00	0	41	0	751828992	10	3910
2026-01-12 11:26:11.59	120.76	19.62	-24.5	-25.2	17.8	0.00e+00	0	42	0	757071872	10	3887
2026-01-12 11:26:12.60	120.65	19.74	-24.5	-25.2	17.7	0.00e+00	0	41	0	763363328	10	3904
2026-01-12 11:26:13.60	120.53	19.86	-24.6	-25.5	17.6	0.00e+00	0	42	0	768606208	10	3967
2026-01-12 11:26:14.60	120.42	19.97	-24.6	-25.4	17.6	0.00e+00	0	41	0	773849088	10	3958
2026-01-12 11:26:15.60	120.31	20.09	-24.6	-25.4	17.7	0.00e+00	0	42	0	780140544	10	3934
2026-01-12 11:26:16.60	120.19	20.21	-24.6	-25.3	17.7	0.00e+00	0	42	0	785383424	10	3915
2026-01-12 11:26:17.61	120.08	20.33	-24.4	-25.0	17.9	0.00e+00	0	41	0	791674880	10	3854
2026-01-12 11:26:18.61	119.96	20.45	-24.5	-25.3	17.7	0.00e+00	0	41	0	796917760	10	3913
2026-01-12 11:26:19.62	119.84	20.57	-24.5	-25.1	17.8	0.00e+00	0	42	0	803209216	10	3882
2026-01-12 11:26:20.63	119.72	20.69	-24.4	-24.9	17.9	0.00e+00	0	41	0	808452096	10	3822
2026-01-12 11:26:21.62	119.61	20.81	-24.4	-24.9	17.9	0.00e+00	0	41	0	813694976	10	3823
2026-01-12 11:26:22.63	119.48	20.93	-24.3	-24.8	18.0	0.00e+00	0	42	0	819986432	10	3788
2026-01-12 11:26:23.63	119.36	21.05	-24.2	-25.0	18.1	0.00e+00	0	41	0	825229312	9	3949
2026-01-12 11:26:24.64	119.24	21.17	-24.2	-25.1	18.1	0.00e+00	0	41	0	830472192	9	3973
2026-01-12 11:26:25.65	119.12	21.30	-24.2	-25.1	18.1	0.00e+00	0	42	0	836763648	9	3977
2026-01-12 11:26:26.65	118.99	21.42	-24.3	-25.2	18.0	0.00e+00	0	41	0	842006528	9	4011
2026-01-12 11:26:27.65	118.87	21.54	-24.3	-25.2	18.0	0.00e+00	0	42	0	847249408	9	4012
2026-01-12 11:26:28.66	118.74	21.67	-24.3	-25.3	18.0	0.00e+00	0	41	0	853540864	9	4038
2026-01-12 11:26:29.66	118.61	21.79	-24.5	-25.7	17.8	0.00e+00	0	42	0	858783744	9	4120
2026-01-12 11:26:30.66	118.49	21.91	-24.5	-25.7	17.7	0.00e+00	0	42	0	865075200	9	4128
2026-01-12 11:26:31.67	118.36	22.04	-24.5	-25.7	17.7	0.00e+00	0	42	0	870318080	9	4143
2026-01-12 11:26:32.67	118.22	22.16	-24.7	-26.1	17.6	0.00e+00	0	42	0	876609536	9	4227
2026-01-12 11:26:33.67	118.09	22.29	-24.6	-26.0	17.6	0.00e+00	0	41	0	881852416	9	4197
2026-01-12 11:26:34.67	117.96	22.42	-24.5	-25.6	17.8	0.00e+00	0	42	0	887095296	9	4104
2026-01-12 11:26:35.68	117.83	22.54	-24.4	-25.4	17.9	0.00e+00	0	42	0	893386752	9	4051
2026-01-12 11:26:36.68	117.69	22.67	-24.3	-25.3	18.0	0.00e+00	0	41	0	898629632	9	4024
2026-01-12 11:26:37.69	117.56	22.80	-24.5	-25.6	17.8	0.00e+00	0	42	0	903872512	9	4094
2026-01-12 11:26:38.70	117.42	22.93	-24.3	-25.2	18.1	0.00e+00	0	42	0	910163968	9	3989
2026-01-12 11:26:39.71	117.28	23.06	-24.2	-25.1	18.1	0.00e+00	0	42	0	915406848	9	3979
2026-01-12 11:26:40.71	117.14	23.19	-24.4	-25.4	18.0	0.00e+00	0	42	0	921698304	9	4057
2026-01-12 11:26:41.72	117.00	23.32	-24.3	-25.2	18.1	0.00e+00	0	42	0	926941184	9	4007
2026-01-12 11:26:42.72	116.86	23.44	-24.1	-24.8	18.3	0.00e+00	0	42	0	932184064	9	3902
2026-01-12 11:26:43.73	116.71	23.58	-24.0	-24.6	18.4	0.00e+00	0	42	0	938475520	9	3849
2026-01-12 11:26:44.73	116.57	23.71	-24.1	-24.8	18.3	0.00e+00	0	42	0	943718400	9	3913
2026-01-12 11:26:45.73	116.42	23.84	-24.1	-24.8	18.3	0.00e+00	0	41	0	950009856	9	3917
2026-01-12 11:26:46.74	116.27	23.97	-24.3	-25.3	18.1	0.00e+00	0	42	0	955252736	9	4031
2026-01-12 11:26:47.74	116.13	24.10	-24.3	-25.1	18.2	0.00e+00	0	42	0	960495616	9	3988
2026-01-12 11:26:48.75	115.98	24.24	-24.0	-24.7	18.4	0.00e+00	0	42	0	966787072	9	3874
2026-01-12 11:26:49.76	115.82	24.37	-23.9	-24.5	18.5	0.00e+00	0	42	0	972029952	9	3835
2026-01-12 11:26:50.76	115.67	24.50	-24.0	-24.6	18.4	0.00e+00	0	42	0	978321408	9	3857
2026-01-12 11:26:51.76	115.52	24.64	-23.9	-24.4	18.5	0.00e+00	0	42	0	983564288	9	3806
2026-01-12 11:26:52.77	115.36	24.77	-23.8	-24.2	18.6	0.00e+00	0	42	0	988807168	9	3772
2026-01-12 11:26:53.77	115.21	24.91	-24.0	-24.5	18.5	0.00e+00	0	42	0	995098624	9	3832
2026-01-12 11:26:54.78	115.05	25.04	-23.8	-24.1	18.7	0.00e+00	0	42	0	1000341504	9	3746
2026-01-12 11:26:55.78	114.89	25.18	-23.7	-24.5	18.8	0.00e+00	0	42	0	1005584384	8	3930
2026-01-12 11:26:56.79	114.73	25.32	-23.6	-24.3	18.8	0.00e+00	0	42	0	1011875840	8	3900
2026-01-12 11:26:57.80	114.57	25.45	-23.7	-24.5	18.8	0.00e+00	0	42	0	1017118720	8	3932
2026-01-12 11:26:58.81	114.40	25.59	-23.8	-24.6	18.7	0.00e+00	0	42	0	1023410176	8	3974
2026-01-12 11:26:59.81	114.24	25.73	-23.7	-24.5	18.8	0.00e+00	0	42	0	1028653056	8	3938
2026-01-12 11:27:00.82	114.07	25.87	-23.7	-24.5	18.8	0.00e+00	0	42	0	1034944512	8	3931
2026-01-12 11:27:01.82	113.91	26.01	-23.7	-24.5	18.8	0.00e+00	0	42	0	1040187392	8	3930
2026-01-12 11:27:02.82	113.74	26.15	-23.7	-24.5	18.8	0.00e+00	0	42	0	1045430272	8	3943
2026-01-12 11:27:03.83	113.57	26.29	-23.9	-24.8	18.6	0.00e+00	0	42	0	1051721728	8	4019
2026-01-12 11:27:04.83	113.40	26.43	-23.7	-24.6	18.7	0.00e+00	0	42	0	1056964608	8	3959
2026-01-12 11:27:05.84	113.22	26.57	-23.7	-24.4	18.8	0.00e+00	0	42	0	1062207488	8	3915
2026-01-12 11:27:06.85	113.05	26.71	-23.7	-24.4	18.8	0.00e+00	0	42	0	1068498944	8	3920
2026-01-12 11:27:07.85	112.87	26.85	-23.6	-24.2	18.9	0.00e+00	0	42	0	1073741824	8	3875
2026-01-12 11:27:08.86	112.69	26.99	-23.6	-24.3	18.9	1.10e-06	0	42	0	1080033280	8	3899
2026-01-12 11:27:09.87	112.51	27.13	-23.8	-24.7	18.7	0.00e+00	0	42	0	1085276160	8	3998
2026-01-12 11:27:10.87	112.33	27.28	-23.8	-24.6	18.8	0.00e+00	0	42	0	1090519040	8	3965
2026-01-12 11:27:11.88	112.14	27.42	-24.0	-25.1	18.5	0.00e+00	0	42	0	1096810496	8	4093
2026-01-12 11:27:12.89	111.96	27.57	-23.8	-24.6	18.7	0.00e+00	0	42	0	1102053376	8	3971
2026-01-12 11:27:13.89	111.77	27.71	-23.5	-24.0	19.0	0.00e+00	0	42	0	1108344832	8	3830
2026-01-12 11:27:14.90	111.58	27.85	-23.4	-23.8	19.2	3.40e-06	0	42	0	1113587712	8	3777
2026-01-12 11:27:15.90	111.39	28.00	-23.3	-23.7	19.2	0.00e+00	0	42	0	1118830592	8	3753
2026-01-12 11:27:16.90	111.20	28.14	-23.3	-23.6	19.3	0.00e+00	0	42	0	1125122048	8	3735
2026-01-12 11:27:17.91	111.01	28.29	-23.4	-23.9	19.1	0.00e+00	0	42	0	1130364928	8	3800
2026-01-12 11:27:18.91	110.81	28.43	-23.7	-24.6	18.8	0.00e+00	0	42	0	1136656384	8	3952
2026-01-12 11:27:19.92	110.61	28.58	-23.5	-24.1	19.1	0.00e+00	0	42	0	1141899264	8	3842
2026-01-12 11:27:20.92	110.42	28.73	-23.4	-23.9	19.1	2.20e-06	0	42	0	1147142144	8	3802
2026-01-12 11:27:21.93	110.21	28.88	-23.5	-24.1	19.0	0.00e+00	0	42	0	1153433600	8	3844
2026-01-12 11:27:22.93	110.01	29.02	-23.5	-24.0	19.1	0.00e+00	0	42	0	1158676480	8	3820
2026-01-12 11:27:23.94	109.81	29.17	-23.6	-24.2	19.0	2.20e-06	0	42	0	1163919360	8	3878
2026-01-12 11:27:24.95	109.60	29.32	-23.5	-24.0	19.1	0.00e+00	0	42	0	1170210816	8	3833
2026-01-12 11:27:25.96	109.39	29.47	-23.4	-23.8	19.2	0.00e+00	0	42	0	1175453696	8	3782
2026-01-12 11:27:26.95	109.18	29.62	-23.3	-23.7	19.3	0.00e+00	0	42	0	1181745152	8	3751
2026-01-12 11:27:27.95	108.97	29.77	-23.1	-23.7	19.5	0.00e+00	0	42	0	1186988032	7	3858
2026-01-12 11:27:28.96	108.75	29.92	-23.1	-23.6	19.5	0.00e+00	0	42	0	1193279488	7	3833
2026-01-12 11:27:29.96	108.54	30.06	-23.3	-24.0	19.3	0.00e+00	0	42	0	1198522368	7	3940
2026-01-12 11:27:30.97	108.32	30.22	-23.2	-23.9	19.4	0.00e+00	0	42	0	1203765248	7	3914
2026-01-12 11:27:31.97	108.10	30.37	-23.4	-24.3	19.2	0.00e+00	0	42	0	1210056704	7	4007
2026-01-12 11:27:32.98	107.88	30.52	-23.3	-24.1	19.3	0.00e+00	0	42	0	1215299584	7	3942
2026-01-12 11:27:33.98	107.65	30.67	-23.3	-24.1	19.3	0.00e+00	0	42	0	1220542464	7	3957
2026-01-12 11:27:34.99	107.42	30.82	-23.4	-24.4	19.2	0.00e+00	0	42	0	1226833920	7	4019
2026-01-12 11:27:35.99	107.20	30.97	-23.4	-24.3	19.2	0.00e+00	0	42	0	1232076800	7	3997
2026-01-12 11:27:37.00	106.96	31.12	-23.3	-24.1	19.3	0.00e+00	0	42	0	1238368256	7	3964
2026-01-12 11:27:38.01	106.73	31.28	-23.3	-24.2	19.3	0.00e+00	0	42	0	1243611136	7	3973
2026-01-12 11:27:39.02	106.49	31.43	-23.1	-23.7	19.5	0.00e+00	0	42	0	1248854016	7	3853
2026-01-12 11:27:40.02	106.25	31.58	-23.1	-23.7	19.5	0.00e+00	0	42	0	1255145472	7	3848
2026-01-12 11:27:41.03	106.01	31.74	-23.2	-23.8	19.5	0.00e+00	0	42	0	1260388352	7	3890
2026-01-12 11:27:42.03	105.77	31.89	-23.1	-23.6	19.6	0.00e+00	0	42	0	1266679808	7	3841
2026-01-12 11:27:43.04	105.53	32.04	-23.2	-24.0	19.4	0.00e+00	0	42	0	1271922688	7	3925
2026-01-12 11:27:44.04	105.28	32.20	-23.1	-23.6	19.6	0.00e+00	0	42	0	1277165568	7	3833
2026-01-12 11:27:45.05	105.03	32.35	-23.0	-23.5	19.7	0.00e+00	0	42	0	1283457024	7	3800
2026-01-12 11:27:46.05	104.78	32.50	-23.0	-23.4	19.7	0.00e+00	0	42	0	1288699904	7	3795
2026-01-12 11:27:47.06	104.52	32.66	-23.2	-24.0	19.4	0.00e+00	0	42	0	1293942784	7	3916
2026-01-12 11:27:48.06	104.27	32.81	-23.0	-23.6	19.6	0.00e+00	0	42	0	1300234240	7	3834
2026-01-12 11:27:49.06	104.01	32.97	-23.1	-23.8	19.5	0.00e+00	0	42	0	1305477120	7	3877
2026-01-12 11:27:50.06	103.75	33.12	-23.2	-23.9	19.4	0.00e+00	0	42	0	1311768576	7	3913
2026-01-12 11:27:51.07	103.48	33.28	-23.2	-24.0	19.4	0.00e+00	0	42	0	1317011456	7	3920
2026-01-12 11:27:52.07	103.22	33.43	-23.3	-24.0	19.4	0.00e+00	0	42	0	1323302912	7	3939
2026-01-12 11:27:53.08	102.95	33.59	-23.3	-24.2	19.3	0.00e+00	0	42	0	1328545792	7	3974
2026-01-12 11:27:54.09	102.67	33.74	-23.2	-24.0	19.4	0.00e+00	0	42	0	1333788672	7	3934
2026-01-12 11:27:55.09	102.40	33.90	-23.0	-23.4	19.7	0.00e+00	0	42	0	1340080128	7	3798
2026-01-12 11:27:56.09	102.12	34.05	-22.8	-23.1	19.8	0.00e+00	0	42	0	1345323008	7	3726
2026-01-12 11:27:57.10	101.84	34.20	-22.9	-23.3	19.7	0.00e+00	0	42	0	1350565888	7	3767
2026-01-12 11:27:58.11	101.56	34.36	-22.9	-23.2	19.8	0.00e+00	0	42	0	1356857344	7	3739
2026-01-12 11:27:59.12	101.27	34.52	-22.8	-23.1	19.8	0.00e+00	0	42	0	1362100224	7	3727
2026-01-12 11:28:00.12	100.98	34.67	-22.9	-23.2	19.8	0.00e+00	0	42	0	1368391680	7	3736
2026-01-12 11:28:01.12	100.69	34.82	-22.9	-23.3	19.7	0.00e+00	0	42	0	1373634560	7	3772
2026-01-12 11:28:02.12	100.40	34.98	-22.8	-23.1	19.9	0.00e+00	0	42	0	1378877440	7	3717
2026-01-12 11:28:03.13	100.10	35.13	-22.9	-23.3	19.8	0.00e+00	0	42	0	1385168896	7	3767
2026-01-12 11:28:04.14	99.80	35.29	-22.8	-23.1	19.9	0.00e+00	0	42	0	1390411776	7	3711
2026-01-12 11:28:05.15	99.50	35.44	-22.8	-23.5	19.9	1.10e-06	0	42	0	1396703232	6	3913
2026-01-12 11:28:06.15	99.20	35.60	-22.9	-23.8	19.7	0.00e+00	0	42	0	1401946112	6	3994
2026-01-12 11:28:07.16	98.89	35.75	-22.9	-23.7	19.8	0.00e+00	0	42	0	1408237568	6	3972
2026-01-12 11:28:08.16	98.58	35.90	-23.0	-24.1	19.6	0.00e+00	0	42	0	1413480448	6	4061
2026-01-12 11:28:09.17	98.26	36.06	-23.2	-24.4	19.4	0.00e+00	0	42	0	1418723328	6	4130
2026-01-12 11:28:10.17	97.95	36.21	-22.9	-23.8	19.8	0.00e+00	0	42	0	1425014784	6	3979
2026-01-12 11:28:11.17	97.63	36.36	-22.8	-23.6	19.9	0.00e+00	0	42	0	1430257664	6	3929
2026-01-12 11:28:12.17	97.31	36.51	-23.0	-23.9	19.7	0.00e+00	0	42	0	1435500544	6	4007
2026-01-12 11:28:13.18	96.98	36.67	-23.1	-24.1	19.6	0.00e+00	0	42	0	1441792000	6	4065
2026-01-12 11:28:14.18	96.65	36.82	-23.3	-24.7	19.3	0.00e+00	0	42	0	1447034880	6	4200
2026-01-12 11:28:15.18	96.32	36.97	-23.4	-24.8	19.2	0.00e+00	0	42	0	1452277760	6	4251
2026-01-12 11:28:16.19	95.98	37.12	-23.5	-25.0	19.1	0.00e+00	0	42	0	1458569216	6	4286
2026-01-12 11:28:17.19	95.65	37.27	-23.4	-24.8	19.2	0.00e+00	0	42	0	1463812096	6	4247
2026-01-12 11:28:18.19	95.31	37.42	-23.3	-24.6	19.3	0.00e+00	0	42	0	1470103552	6	4181
2026-01-12 11:28:19.19	94.96	37.57	-23.2	-24.4	19.4	0.00e+00	0	42	0	1475346432	6	4144
2026-01-12 11:28:20.20	94.61	37.72	-23.4	-24.8	19.3	0.00e+00	0	42	0	1480589312	6	4220
2026-01-12 11:28:21.21	94.26	37.87	-23.3	-24.7	19.3	0.00e+00	0	42	0	1486880768	6	4219
2026-01-12 11:28:22.22	93.90	38.02	-23.6	-24.7	19.0	0.00e+00	0	42	0	1492123648	7	4095
2026-01-12 11:28:23.22	93.55	38.16	-23.3	-24.0	19.4	0.00e+00	0	42	0	1498415104	7	3936
2026-01-12 11:28:24.23	93.19	38.31	-23.0	-23.6	19.6	0.00e+00	0	42	0	1503657984	7	3825
2026-01-12 11:28:25.24	92.82	38.46	-23.1	-23.6	19.6	0.00e+00	0	42	0	1508900864	7	3825
2026-01-12 11:28:26.23	92.46	38.60	-23.3	-24.0	19.4	0.00e+00	0	42	0	1515192320	7	3922
2026-01-12 11:28:27.23	92.09	38.74	-23.3	-24.1	19.4	0.00e+00	0	42	0	1520435200	7	3945
2026-01-12 11:28:28.24	91.71	38.89	-23.5	-24.6	19.2	0.00e+00	0	42	0	1525678080	7	4067
2026-01-12 11:28:29.24	91.34	39.03	-23.8	-25.2	18.9	0.00e+00	0	42	0	1531969536	7	4210
2026-01-12 11:28:30.23	90.96	39.17	-23.4	-24.3	19.3	0.00e+00	0	42	0	1537212416	7	4001
2026-01-12 11:28:31.23	90.58	39.31	-23.0	-23.4	19.7	0.00e+00	0	42	0	1543503872	7	3793
2026-01-12 11:28:32.23	90.20	39.45	-22.8	-23.6	19.9	0.00e+00	0	42	0	1548746752	6	3932
2026-01-12 11:28:33.24	89.80	39.59	-22.8	-23.6	19.9	0.00e+00	0	42	0	1553989632	6	3934
2026-01-12 11:28:34.24	89.41	39.73	-22.9	-23.7	19.8	0.00e+00	0	42	0	1560281088	6	3949
2026-01-12 11:28:35.25	89.01	39.87	-22.9	-23.8	19.8	0.00e+00	0	42	0	1565523968	6	3987
2026-01-12 11:28:36.26	88.61	40.00	-23.0	-23.9	19.7	0.00e+00	0	42	0	1570766848	6	4017
2026-01-12 11:28:37.25	88.21	40.14	-22.9	-23.8	19.7	0.00e+00	0	42	0	1577058304	6	3995
2026-01-12 11:28:38.26	87.80	40.27	-22.8	-23.6	19.9	0.00e+00	0	42	0	1582301184	6	3939
2026-01-12 11:28:39.26	87.39	40.41	-23.0	-23.9	19.7	0.00e+00	0	42	0	1588592640	6	4017
2026-01-12 11:28:40.26	86.98	40.54	-23.3	-24.6	19.4	0.00e+00	0	42	0	1593835520	6	4173
2026-01-12 11:28:41.27	86.56	40.67	-23.3	-24.6	19.4	0.00e+00	0	42	0	1599078400	6	4183
2026-01-12 11:28:42.26	86.15	40.80	-23.3	-24.6	19.4	0.00e+00	0	42	0	1605369856	6	4190
2026-01-12 11:28:43.27	85.72	40.92	-23.0	-24.0	19.7	0.00e+00	0	42	0	1610612736	6	4022
2026-01-12 11:28:44.28	85.29	41.05	-22.8	-23.6	19.9	0.00e+00	0	42	0	1616904192	6	3947
2026-01-12 11:28:45.29	84.86	41.18	-22.9	-23.8	19.8	0.00e+00	0	42	0	1622147072	6	3990
2026-01-12 11:28:46.29	84.43	41.30	-22.9	-23.9	19.8	0.00e+00	0	42	0	1627389952	6	3998
2026-01-12 11:28:47.30	83.99	41.42	-23.1	-24.2	19.6	0.00e+00	0	42	0	1633681408	6	4077
2026-01-12 11:28:48.30	83.55	41.54	-23.1	-24.3	19.6	0.00e+00	0	42	0	1638924288	6	4102
2026-01-12 11:28:49.30	83.10	41.66	-22.8	-23.6	19.9	0.00e+00	0	42	0	1644167168	6	3945
2026-01-12 11:28:50.31	82.65	41.78	-22.6	-23.1	20.2	0.00e+00	0	42	0	1650458624	6	3815
2026-01-12 11:28:51.32	82.20	41.90	-22.6	-23.0	20.2	0.00e+00	0	42	0	1655701504	6	3807
2026-01-12 11:28:52.33	81.75	42.01	-22.7	-23.4	20.0	0.00e+00	0	42	0	1661992960	6	3883
2026-01-12 11:28:53.33	81.29	42.12	-22.6	-23.1	20.2	0.00e+00	0	42	0	1667235840	6	3824
2026-01-12 11:28:54.33	80.83	42.24	-22.5	-23.0	20.2	0.00e+00	0	42	0	1672478720	6	3790
2026-01-12 11:28:55.34	80.37	42.34	-22.6	-23.2	20.1	0.00e+00	0	42	0	1678770176	6	3843
2026-01-12 11:28:56.35	79.90	42.45	-22.8	-23.7	19.9	0.00e+00	0	42	0	1684013056	6	3951
2026-01-12 11:28:57.35	79.43	42.56	-22.9	-23.7	19.8	0.00e+00	0	42	0	1690304512	6	3969
2026-01-12 11:28:58.36	78.95	42.66	-22.7	-23.4	20.0	0.00e+00	0	42	0	1695547392	6	3896
2026-01-12 11:28:59.37	78.48	42.76	-22.6	-23.1	20.1	0.00e+00	0	42	0	1701838848	6	3825
2026-01-12 11:29:00.38	77.99	42.86	-22.7	-23.3	20.0	0.00e+00	0	42	0	1707081728	6	3874
2026-01-12 11:29:01.38	77.51	42.96	-22.7	-23.4	20.0	0.00e+00	0	42	0	1712324608	6	3893
2026-01-12 11:29:02.37	77.04	43.06	-22.4	-22.8	20.3	0.00e+00	0	42	0	1718616064	6	3748
2026-01-12 11:29:03.38	76.55	43.15	-22.6	-23.0	20.2	0.00e+00	0	42	0	1723858944	6	3805
2026-01-12 11:29:04.39	76.05	43.24	-22.7	-23.4	20.0	0.00e+00	0	42	0	1729101824	6	3889
2026-01-12 11:29:05.40	75.56	43.33	-22.8	-23.5	20.0	0.00e+00	0	42	0	1735393280	6	3913
2026-01-12 11:29:06.40	75.06	43.42	-22.9	-23.7	19.8	0.00e+00	0	42	0	1740636160	6	3968
2026-01-12 11:29:07.41	74.56	43.50	-22.7	-23.3	20.0	0.00e+00	0	42	0	1746927616	6	3878
2026-01-12 11:29:08.41	74.06	43.59	-22.7	-23.4	20.0	0.00e+00	0	42	0	1752170496	6	3905
2026-01-12 11:29:09.42	73.56	43.67	-22.7	-23.4	20.0	0.00e+00	0	42	0	1757413376	6	3885
2026-01-12 11:29:10.43	73.05	43.75	-22.5	-23.0	20.2	0.00e+00	0	42	0	1763704832	6	3794
2026-01-12 11:29:11.43	72.54	43.82	-22.5	-22.9	20.2	0.00e+00	0	42	0	1768947712	6	3780
2026-01-12 11:29:12.44	72.03	43.89	-22.5	-22.9	20.2	0.00e+00	0	42	0	1775239168	6	3785
2026-01-12 11:29:13.44	71.52	43.96	-22.6	-23.2	20.1	0.00e+00	0	42	0	1780482048	6	3834
2026-01-12 11:29:14.45	71.00	44.03	-22.6	-23.1	20.1	0.00e+00	0	42	0	1785724928	6	3822
2026-01-12 11:29:15.46	70.48	44.10	-22.6	-23.1	20.1	0.00e+00	0	42	0	1792016384	6	3830
2026-01-12 11:29:16.46	69.96	44.16	-22.7	-23.2	20.1	2.20e-06	0	42	0	1797259264	6	3855
2026-01-12 11:29:17.46	69.44	44.22	-22.7	-23.3	20.0	0.00e+00	0	42	0	1803550720	6	3867
2026-01-12 11:29:18.46	68.92	44.28	-22.7	-23.3	20.0	0.00e+00	0	42	0	1808793600	6	3864
2026-01-12 11:29:19.47	68.39	44.34	-22.7	-23.4	20.0	0.00e+00	0	42	0	1814036480	6	3897
2026-01-12 11:29:20.47	67.87	44.39	-22.7	-23.3	20.0	0.00e+00	0	42	0	1820327936	6	3861
2026-01-12 11:29:21.48	67.33	44.44	-22.7	-23.3	20.0	0.00e+00	0	42	0	1825570816	6	3869
2026-01-12 11:29:22.48	66.81	44.49	-22.7	-23.4	20.2	3.40e-06	0	42	0	1830813696	6	3869
2026-01-12 11:29:23.49	66.27	44.53	-22.7	-23.2	20.3	0.00e+00	0	42	0	1837105152	6	3826
2026-01-12 11:29:24.50	65.73	44.57	-22.6	-23.0	20.3	0.00e+00	0	42	0	1842348032	6	3793
2026-01-12 11:29:25.50	65.20	44.61	-22.6	-23.1	20.3	0.00e+00	0	42	0	1848639488	6	3800
2026-01-12 11:29:26.50	64.67	44.65	-22.8	-23.4	20.2	0.00e+00	0	42	0	1853882368	6	3875
2026-01-12 11:29:27.52	64.12	44.68	-22.7	-23.3	20.2	0.00e+00	0	42	0	1860173824	6	3850
2026-01-12 11:29:28.52	63.58	44.72	-22.7	-23.3	20.2	5.70e-06	0	42	0	1865416704	6	3848
2026-01-12 11:29:29.53	63.04	44.74	-22.7	-23.4	20.2	0.00e+00	0	42	0	1870659584	6	3873
2026-01-12 11:29:30.53	62.50	44.77	-22.6	-23.0	20.4	0.00e+00	0	42	0	1876951040	6	3787
2026-01-12 11:29:31.54	61.96	44.79	-22.5	-22.8	20.5	0.00e+00	0	42	0	1882193920	6	3748
2026-01-12 11:29:32.54	61.42	44.81	-22.5	-22.9	20.4	0.00e+00	0	42	0	1887436800	6	3767
2026-01-12 11:29:33.55	60.87	44.83	-22.6	-23.0	20.4	0.00e+00	0	42	0	1893728256	6	3787
2026-01-12 11:29:34.55	60.33	44.84	-22.5	-22.8	20.5	0.00e+00	0	42	0	1898971136	6	3733
2026-01-12 11:29:35.56	59.79	44.85	-22.5	-23.0	20.4	0.00e+00	0	42	0	1905262592	6	3775
2026-01-12 11:29:36.56	59.24	44.86	-22.6	-23.1	20.3	0.00e+00	0	42	0	1910505472	6	3808
2026-01-12 11:29:37.57	58.70	44.87	-22.4	-22.6	20.6	0.00e+00	0	41	0	1915748352	6	3693
2026-01-12 11:29:38.58	58.15	44.87	-22.2	-22.7	20.8	0.00e+00	0	42	0	1922039808	5	3816
2026-01-12 11:29:39.58	57.61	44.87	-22.3	-22.9	20.6	0.00e+00	0	42	0	1927282688	5	3870
2026-01-12 11:29:40.59	57.06	44.87	-22.6	-23.6	20.3	0.00e+00	0	42	0	1933574144	5	4047
2026-01-12 11:29:41.59	56.52	44.86	-22.5	-23.4	20.4	0.00e+00	0	42	0	1938817024	5	4001
2026-01-12 11:29:42.60	55.97	44.85	-22.3	-22.9	20.6	0.00e+00	0	42	0	1944059904	5	3867
2026-01-12 11:29:43.60	55.43	44.84	-22.2	-22.7	20.7	0.00e+00	0	42	0	1950351360	5	3830
2026-01-12 11:29:44.61	54.88	44.83	-22.6	-23.6	20.3	0.00e+00	0	42	0	1955594240	5	4027
2026-01-12 11:29:45.61	54.34	44.81	-22.9	-24.2	20.0	0.00e+00	0	42	0	1961885696	5	4176
2026-01-12 11:29:46.62	53.80	44.79	-22.9	-24.3	20.0	0.00e+00	0	42	0	1967128576	5	4200
2026-01-12 11:29:47.63	53.26	44.76	-23.3	-24.5	19.6	0.00e+00	0	42	0	1972371456	6	4131
2026-01-12 11:29:48.64	52.71	44.74	-23.6	-24.6	19.3	0.00e+00	0	42	0	1978662912	7	4059
2026-01-12 11:29:49.64	52.18	44.71	-23.6	-24.6	19.3	0.00e+00	0	42	0	1983905792	7	4058
2026-01-12 11:29:50.64	51.64	44.68	-23.6	-24.6	19.3	0.00e+00	0	42	0	1989148672	7	4042
2026-01-12 11:29:51.65	51.10	44.64	-23.4	-24.3	19.5	0.00e+00	0	42	0	1995440128	7	3980
2026-01-12 11:29:52.65	50.57	44.61	-24.5	-25.6	18.9	0.00e+00	0	42	0	2000683008	8	4063
2026-01-12 11:29:53.66	50.03	44.57	-23.9	-24.7	19.0	0.00e+00	0	42	0	2006974464	8	3965
2026-01-12 11:29:54.67	49.49	44.52	-23.3	-23.5	19.7	0.00e+00	0	42	0	2012217344	8	3692
2026-01-12 11:29:55.67	48.96	44.48	-22.8	-23.1	20.1	0.00e+00	0	42	0	2018508800	7	3697
2026-01-12 11:29:56.67	48.44	44.43	-22.5	-22.9	20.4	0.00e+00	0	42	0	2023751680	6	3765
2026-01-12 11:29:57.67	47.91	44.38	-22.3	-22.5	20.6	0.00e+00	0	42	0	2028994560	6	3668
2026-01-12 11:29:58.68	47.38	44.32	-22.4	-22.6	20.6	0.00e+00	0	42	0	2035286016	6	3691
2026-01-12 11:29:59.69	46.85	44.27	-22.5	-22.8	20.5	0.00e+00	0	42	0	2040528896	6	3748
2026-01-12 11:30:00.69	46.33	44.21	-22.5	-22.9	20.4	0.00e+00	0	42	0	2045771776	6	3768
2026-01-12 11:30:01.69	45.81	44.15	-22.4	-22.7	20.5	0.00e+00	0	42	0	2052063232	6	3728
2026-01-12 11:30:02.69	45.30	44.09	-22.4	-22.7	20.5	0.00e+00	0	42	0	2057306112	6	3709
2026-01-12 11:30:03.70	44.78	44.02	-22.5	-22.9	20.4	0.00e+00	0	42	0	2062548992	6	3766
2026-01-12 11:30:04.70	44.27	43.95	-22.4	-22.7	20.5	0.00e+00	0	42	0	2068840448	6	3723
2026-01-12 11:30:05.71	43.75	43.88	-22.4	-22.6	20.6	0.00e+00	0	42	0	2074083328	6	3691
2026-01-12 11:30:06.71	43.24	43.81	-22.4	-22.8	20.5	0.00e+00	0	42	0	2080374784	6	3731
2026-01-12 11:30:07.71	42.74	43.73	-22.3	-22.5	20.6	0.00e+00	0	42	0	2085617664	6	3680
2026-01-12 11:30:08.71	42.23	43.65	-22.4	-22.6	20.6	0.00e+00	0	42	0	2091909120	6	3698
2026-01-12 11:30:09.72	41.73	43.57	-22.4	-22.6	20.6	0.00e+00	0	42	0	2097152000	6	3696
2026-01-12 11:30:10.73	41.23	43.49	-22.3	-22.5	20.6	0.00e+00	0	42	0	2102394880	6	3668
2026-01-12 11:30:11.73	40.73	43.40	-22.3	-22.5	20.6	0.00e+00	0	42	0	2108686336	6	3669
2026-01-12 11:30:12.74	40.23	43.32	-22.3	-22.5	20.6	0.00e+00	0	42	0	2113929216	6	3664
2026-01-12 11:30:13.75	39.74	43.23	-22.4	-22.7	20.5	0.00e+00	0	42	0	2119172096	6	3721
2026-01-12 11:30:14.75	39.25	43.13	-22.6	-23.2	20.3	0.00e+00	0	42	0	2125463552	6	3820
2026-01-12 11:30:15.76	38.76	43.04	-22.4	-22.7	20.5	0.00e+00	0	42	0	2130706432	6	3726
2026-01-12 11:30:16.76	38.28	42.94	-22.3	-22.4	20.6	0.00e+00	0	42	0	2136997888	6	3663
2026-01-12 11:30:17.76	37.80	42.85	-22.4	-22.6	20.5	0.00e+00	0	42	0	2142240768	6	3693
2026-01-12 11:30:18.77	37.32	42.75	-22.3	-22.5	20.6	0.00e+00	0	42	0	2147483648	6	3680
2026-01-12 11:30:19.78	36.85	42.64	-22.4	-22.6	20.5	0.00e+00	0	42	0	2153775104	6	3702
2026-01-12 11:30:20.78	36.38	42.54	-22.4	-22.7	20.5	0.00e+00	0	42	0	2159017984	6	3715
2026-01-12 11:30:21.79	35.91	42.43	-22.5	-22.8	20.5	0.00e+00	0	42	0	2165309440	6	3736
2026-01-12 11:30:22.79	35.44	42.33	-22.7	-23.3	20.2	0.00e+00	0	42	0	2170552320	6	3842
2026-01-12 11:30:23.79	34.98	42.22	-22.5	-23.0	20.4	0.00e+00	0	42	0	2175795200	6	3775
2026-01-12 11:30:24.80	34.52	42.11	-22.6	-23.0	20.3	0.00e+00	0	42	0	2182086656	6	3790
2026-01-12 11:30:25.80	34.07	41.99	-22.8	-23.5	20.1	0.00e+00	0	42	0	2187329536	6	3915
2026-01-12 11:30:26.81	33.61	41.88	-22.6	-23.0	20.3	0.00e+00	0	42	0	2193620992	6	3780
2026-01-12 11:30:27.81	33.17	41.76	-22.5	-22.8	20.4	0.00e+00	0	42	0	2198863872	6	3747
2026-01-12 11:30:28.81	32.72	41.65	-22.7	-23.3	20.2	0.00e+00	0	42	0	2204106752	6	3861
2026-01-12 11:30:29.81	32.28	41.53	-22.7	-23.2	20.2	0.00e+00	0	42	0	2210398208	6	3837
2026-01-12 11:30:30.82	31.84	41.41	-22.5	-23.0	20.3	0.00e+00	0	42	0	2215641088	6	3779
2026-01-12 11:30:31.82	31.41	41.28	-22.6	-23.1	20.3	0.00e+00	0	42	0	2220883968	6	3803
2026-01-12 11:30:32.83	30.97	41.16	-22.5	-22.8	20.4	0.00e+00	0	42	0	2227175424	6	3741
2026-01-12 11:30:33.83	30.54	41.04	-22.4	-22.7	20.5	0.00e+00	0	42	0	2232418304	6	3716
2026-01-12 11:30:34.84	30.12	40.91	-22.5	-22.9	20.4	0.00e+00	0	42	0	2238709760	6	3757
2026-01-12 11:30:35.85	29.69	40.78	-22.4	-22.6	20.5	0.00e+00	0	42	0	2243952640	6	3703
2026-01-12 11:30:36.85	29.27	40.65	-22.4	-22.6	20.5	0.00e+00	0	42	0	2249195520	6	3688
2026-01-12 11:30:37.85	28.86	40.52	-22.4	-22.7	20.4	0.00e+00	0	42	0	2255486976	6	3729
2026-01-12 11:30:38.86	28.45	40.39	-22.5	-23.0	20.3	0.00e+00	0	42	0	2260729856	6	3780
2026-01-12 11:30:39.87	28.03	40.26	-22.7	-23.3	20.1	0.00e+00	0	42	0	2267021312	6	3865
2026-01-12 11:30:40.87	27.63	40.12	-22.5	-22.9	20.4	0.00e+00	0	42	0	2272264192	6	3755
2026-01-12 11:30:41.88	27.23	39.99	-22.4	-22.7	20.5	0.00e+00	0	42	0	2277507072	6	3714
2026-01-12 11:30:42.89	26.82	39.85	-22.5	-22.9	20.3	0.00e+00	0	42	0	2283798528	6	3765
2026-01-12 11:30:43.89	26.43	39.71	-22.5	-22.9	20.4	0.00e+00	0	42	0	2289041408	6	3767
2026-01-12 11:30:44.89	26.04	39.58	-22.6	-23.0	20.3	0.00e+00	0	42	0	2294284288	6	3789
2026-01-12 11:30:45.90	25.65	39.44	-22.4	-22.6	20.5	0.00e+00	0	42	0	2300575744	6	3702
2026-01-12 11:30:46.90	25.27	39.30	-22.4	-22.7	20.4	0.00e+00	0	42	0	2305818624	6	3725
2026-01-12 11:30:47.91	24.88	39.15	-22.4	-22.6	20.5	0.00e+00	0	42	0	2312110080	6	3702
2026-01-12 11:30:48.92	24.50	39.01	-22.4	-22.6	20.5	0.00e+00	0	42	0	2317352960	6	3701
2026-01-12 11:30:49.92	24.13	38.87	-22.6	-23.2	20.2	0.00e+00	0	42	0	2323644416	6	3826
2026-01-12 11:30:50.92	23.76	38.73	-22.5	-22.9	20.3	0.00e+00	0	42	0	2328887296	6	3775
2026-01-12 11:30:51.93	23.39	38.58	-22.5	-22.9	20.3	0.00e+00	0	42	0	2334130176	6	3769
2026-01-12 11:30:52.93	23.02	38.44	-22.6	-23.2	20.2	0.00e+00	0	42	0	2340421632	6	3824
2026-01-12 11:30:53.94	22.66	38.29	-22.7	-23.4	20.1	0.00e+00	0	42	0	2345664512	6	3873
2026-01-12 11:30:54.94	22.30	38.15	-22.7	-23.2	20.2	0.00e+00	0	42	0	2350907392	6	3830
2026-01-12 11:30:55.95	21.94	38.00	-22.8	-23.5	20.0	0.00e+00	0	42	0	2357198848	6	3894
2026-01-12 11:30:56.95	21.59	37.85	-22.8	-23.4	20.1	0.00e+00	0	42	0	2362441728	6	3876
2026-01-12 11:30:57.95	21.24	37.70	-23.0	-23.8	19.9	0.00e+00	0	42	0	2367684608	6	3972
2026-01-12 11:30:58.95	20.90	37.56	-23.0	-23.9	19.8	0.00e+00	0	42	0	2373976064	6	3992
2026-01-12 11:30:59.96	20.55	37.41	-22.9	-23.7	19.9	0.00e+00	0	42	0	2379218944	6	3943
2026-01-12 11:31:00.95	20.22	37.26	-22.8	-23.4	20.1	0.00e+00	0	42	0	2385510400	6	3886
2026-01-12 11:31:01.96	19.88	37.11	-22.7	-23.3	20.1	0.00e+00	0	42	0	2390753280	6	3861
2026-01-12 11:31:02.96	19.55	36.96	-22.7	-23.2	20.1	0.00e+00	0	42	0	2397044736	6	3840
2026-01-12 11:31:03.97	19.22	36.81	-22.4	-22.6	20.4	0.00e+00	0	42	0	2402287616	6	3696
2026-01-12 11:31:04.97	18.89	36.66	-22.2	-22.8	20.6	0.00e+00	0	42	0	2407530496	5	3839
2026-01-12 11:31:05.97	18.57	36.50	-22.2	-22.8	20.6	0.00e+00	0	42	0	2413821952	5	3842
2026-01-12 11:31:06.98	18.25	36.35	-22.2	-22.7	20.6	0.00e+00	0	42	0	2419064832	5	3831
2026-01-12 11:31:07.98	17.93	36.20	-22.3	-22.9	20.5	0.00e+00	0	42	0	2424307712	5	3875
2026-01-12 11:31:08.99	17.61	36.05	-22.1	-22.6	20.7	0.00e+00	0	42	0	2430599168	5	3808
2026-01-12 11:31:09.99	17.30	35.89	-22.1	-22.5	20.7	0.00e+00	0	42	0	2435842048	5	3788
2026-01-12 11:31:11.00	16.99	35.74	-22.2	-22.8	20.6	0.00e+00	0	42	0	2442133504	5	3854
2026-01-12 11:31:12.00	16.68	35.59	-22.2	-22.8	20.6	0.00e+00	0	42	0	2447376384	5	3851
2026-01-12 11:31:13.01	16.38	35.43	-22.3	-23.1	20.4	0.00e+00	0	42	0	2452619264	5	3910
2026-01-12 11:31:14.01	16.08	35.28	-22.4	-23.1	20.4	0.00e+00	0	42	0	2458910720	5	3929
2026-01-12 11:31:15.01	15.78	35.13	-22.4	-23.1	20.4	0.00e+00	0	42	0	2464153600	5	3912
2026-01-12 11:31:16.01	15.49	34.97	-22.5	-23.4	20.2	0.00e+00	0	42	0	2470445056	5	3995
2026-01-12 11:31:17.02	15.20	34.82	-22.3	-22.9	20.5	0.00e+00	0	42	0	2475687936	5	3868
2026-01-12 11:31:18.02	14.91	34.67	-22.2	-22.7	20.6	0.00e+00	0	42	0	2480930816	5	3820
2026-01-12 11:31:19.02	14.62	34.51	-22.2	-22.8	20.6	0.00e+00	0	42	0	2487222272	5	3845
2026-01-12 11:31:20.03	14.34	34.36	-22.0	-22.4	20.7	0.00e+00	0	42	0	2492465152	5	3756
2026-01-12 11:31:21.04	14.05	34.20	-22.0	-22.4	20.7	0.00e+00	0	42	0	2497708032	5	3763
2026-01-12 11:31:22.05	13.77	34.05	-22.3	-23.1	20.4	0.00e+00	0	42	0	2503999488	5	3905
2026-01-12 11:31:23.06	13.50	33.89	-22.2	-22.7	20.6	0.00e+00	0	42	0	2509242368	5	3816
2026-01-12 11:31:24.06	13.22	33.74	-22.0	-22.4	20.7	0.00e+00	0	42	0	2515533824	5	3760
2026-01-12 11:31:25.06	12.96	33.58	-22.1	-22.5	20.6	0.00e+00	0	42	0	2520776704	5	3788
2026-01-12 11:31:26.07	12.69	33.43	-22.2	-22.7	20.6	0.00e+00	0	42	0	2526019584	5	3819
2026-01-12 11:31:27.07	12.42	33.28	-22.2	-22.7	20.6	0.00e+00	0	42	0	2532311040	5	3815
2026-01-12 11:31:28.07	12.16	33.12	-22.3	-22.9	20.5	0.00e+00	0	42	0	2537553920	5	3871
2026-01-12 11:31:29.08	11.90	32.97	-22.3	-23.0	20.4	0.00e+00	0	42	0	2543845376	5	3903
2026-01-12 11:31:30.08	11.64	32.82	-22.5	-23.4	20.2	0.00e+00	0	42	0	2549088256	5	3985
2026-01-12 11:31:31.08	11.39	32.66	-22.3	-23.0	20.4	0.00e+00	0	42	0	2554331136	5	3900
2026-01-12 11:31:32.09	11.13	32.51	-22.4	-23.3	20.3	0.00e+00	0	42	0	2560622592	5	3955
2026-01-12 11:31:33.10	10.88	32.35	-22.4	-23.2	20.3	0.00e+00	0	42	0	2565865472	5	3935
2026-01-12 11:31:34.10	10.63	32.20	-22.5	-23.4	20.2	0.00e+00	0	42	0	2572156928	5	4001
2026-01-12 11:31:35.11	10.39	32.05	-22.6	-23.6	20.1	0.00e+00	0	42	0	2577399808	5	4042
2026-01-12 11:31:36.11	10.14	31.90	-22.5	-23.4	20.2	0.00e+00	0	42	0	2582642688	5	3999
2026-01-12 11:31:37.11	9.90	31.74	-22.6	-23.7	20.1	0.00e+00	0	42	0	2588934144	5	4049
2026-01-12 11:31:38.11	9.67	31.59	-22.5	-23.5	20.2	0.00e+00	0	42	0	2594177024	5	4002
2026-01-12 11:31:39.12	9.43	31.44	-22.6	-23.5	20.1	0.00e+00	0	42	0	2600468480	5	4021
2026-01-12 11:31:40.12	9.19	31.29	-22.6	-23.6	20.1	0.00e+00	0	42	0	2605711360	5	4026
2026-01-12 11:31:41.13	8.96	31.14	-22.6	-23.7	20.0	0.00e+00	0	42	0	2610954240	5	4051
2026-01-12 11:31:42.14	8.73	30.98	-22.7	-23.7	20.0	0.00e+00	0	42	0	2617245696	5	4069
2026-01-12 11:31:43.14	8.50	30.83	-22.8	-24.1	19.8	0.00e+00	0	42	0	2622488576	5	4148
2026-01-12 11:31:44.15	8.28	30.68	-22.8	-24.1	19.9	0.00e+00	0	42	0	2627731456	5	4151
2026-01-12 11:31:45.15	8.05	30.53	-23.0	-24.0	19.7	0.00e+00	0	42	0	2634022912	6	4013
2026-01-12 11:31:46.16	7.83	30.38	-22.8	-23.6	19.9	0.00e+00	0	42	0	2639265792	6	3917
2026-01-12 11:31:47.16	7.61	30.23	-22.9	-23.7	19.8	0.00e+00	0	42	0	2645557248	6	3940
2026-01-12 11:31:48.17	7.39	30.08	-23.0	-24.0	19.6	0.00e+00	0	42	0	2650800128	6	4014
2026-01-12 11:31:49.17	7.18	29.93	-23.2	-24.4	19.4	0.00e+00	0	42	0	2656043008	6	4107
2026-01-12 11:31:50.18	6.97	29.78	-23.0	-24.0	19.6	0.00e+00	0	42	0	2662334464	6	4011
2026-01-12 11:31:51.18	6.75	29.63	-22.9	-23.7	19.7	0.00e+00	0	42	0	2667577344	6	3958
2026-01-12 11:31:52.18	6.55	29.49	-22.9	-23.6	19.8	0.00e+00	0	42	0	2673868800	6	3931
2026-01-12 11:31:53.18	6.34	29.34	-22.8	-23.6	19.8	0.00e+00	0	42	0	2679111680	6	3923
2026-01-12 11:31:54.19	6.13	29.19	-22.7	-23.4	19.9	0.00e+00	0	42	0	2684354560	6	3881
2026-01-12 11:31:55.19	5.93	29.04	-22.7	-23.4	19.9	0.00e+00	0	42	0	2690646016	6	3881
2026-01-12 11:31:56.19	5.73	28.90	-22.7	-23.3	19.9	0.00e+00	0	42	0	2695888896	6	3866
2026-01-12 11:31:57.19	5.53	28.75	-22.9	-23.7	19.7	0.00e+00	0	42	0	2701131776	6	3948
2026-01-12 11:31:58.20	5.33	28.60	-23.0	-23.8	19.7	0.00e+00	0	42	0	2707423232	6	3983
2026-01-12 11:31:59.21	5.13	28.46	-23.1	-24.1	19.6	0.00e+00	0	42	0	2712666112	6	4043
2026-01-12 11:32:00.21	4.94	28.31	-23.1	-24.1	19.5	0.00e+00	0	42	0	2718957568	6	4050
2026-01-12 11:32:01.21	4.75	28.17	-23.1	-24.2	19.5	0.00e+00	0	42	0	2724200448	6	4066
2026-01-12 11:32:02.22	4.56	28.02	-23.1	-24.2	19.4	0.00e+00	0	42	0	2729443328	6	4084
2026-01-12 11:32:03.22	4.37	27.88	-23.3	-24.5	19.3	0.00e+00	0	42	0	2735734784	6	4150
2026-01-12 11:32:04.22	4.18	27.74	-23.2	-24.3	19.4	0.00e+00	0	42	0	2740977664	6	4090
2026-01-12 11:32:05.23	4.00	27.59	-23.1	-24.2	19.5	0.00e+00	0	42	0	2747269120	6	4074
2026-01-12 11:32:06.24	3.81	27.45	-23.2	-24.3	19.4	0.00e+00	0	42	0	2752512000	6	4102
2026-01-12 11:32:07.24	3.63	27.31	-23.1	-24.1	19.5	0.00e+00	0	42	0	2757754880	6	4048
2026-01-12 11:32:08.25	3.45	27.16	-23.1	-24.1	19.5	0.00e+00	0	42	0	2764046336	6	4053
2026-01-12 11:32:09.25	3.27	27.02	-23.3	-24.5	19.3	0.00e+00	0	42	0	2769289216	6	4159
2026-01-12 11:32:10.26	3.09	26.88	-23.1	-24.1	19.5	0.00e+00	0	42	0	2775580672	6	4043
2026-01-12 11:32:11.27	2.92	26.74	-23.1	-24.1	19.5	0.00e+00	0	42	0	2780823552	6	4052
2026-01-12 11:32:12.27	2.74	26.60	-23.1	-24.2	19.4	0.00e+00	0	42	0	2786066432	6	4076
2026-01-12 11:32:13.28	2.57	26.46	-23.2	-24.3	19.4	0.00e+00	0	42	0	2792357888	6	4093
2026-01-12 11:32:14.28	2.40	26.32	-23.3	-24.5	19.3	0.00e+00	0	42	0	2797600768	6	4149
2026-01-12 11:32:15.29	2.23	26.18	-23.2	-24.3	19.4	0.00e+00	0	42	0	2802843648	6	4090
2026-01-12 11:32:16.29	2.06	26.04	-23.1	-24.2	19.4	0.00e+00	0	42	0	2809135104	6	4072
2026-01-12 11:32:17.30	1.89	25.90	-23.3	-24.5	19.3	0.00e+00	0	42	0	2814377984	6	4142
2026-01-12 11:32:18.30	1.73	25.77	-23.2	-24.4	19.3	0.00e+00	0	42	0	2820669440	6	4110
2026-01-12 11:32:19.32	1.56	25.63	-23.3	-24.6	19.2	0.00e+00	0	42	0	2825912320	6	4171
2026-01-12 11:32:20.32	1.40	25.49	-23.3	-24.6	19.2	0.00e+00	0	42	0	2832203776	6	4180
2026-01-12 11:32:21.32	1.24	25.35	-23.3	-24.6	19.2	0.00e+00	0	42	0	2837446656	6	4167
2026-01-12 11:32:22.32	1.08	25.22	-23.1	-24.1	19.5	0.00e+00	0	42	0	2842689536	6	4040
2026-01-12 11:32:23.33	0.92	25.08	-22.9	-23.8	19.6	0.00e+00	0	42	0	2848980992	6	3977
2026-01-12 11:32:24.34	0.77	24.95	-22.8	-23.6	19.7	0.00e+00	0	42	0	2854223872	6	3921
2026-01-12 11:32:25.34	0.61	24.81	-22.9	-23.7	19.7	0.00e+00	0	42	0	2859466752	6	3952
2026-01-12 11:32:26.35	0.46	24.68	-23.0	-23.9	19.5	0.00e+00	0	42	0	2865758208	6	3997
2026-01-12 11:32:27.36	0.30	24.54	-23.0	-24.0	19.5	0.00e+00	0	42	0	2871001088	6	4020
2026-01-12 11:32:28.36	0.15	24.41	-23.1	-24.1	19.5	0.00e+00	0	42	0	2877292544	6	4045
2026-01-12 11:32:29.36	0.00	24.28	-23.1	-24.1	19.5	0.00e+00	0	42	0	2882535424	6	4041
2026-01-12 11:32:30.37	359.85	24.14	-23.1	-24.1	19.4	0.00e+00	0	42	0	2887778304	6	4059
2026-01-12 11:32:31.38	359.71	24.01	-23.1	-24.2	19.4	0.00e+00	0	42	0	2894069760	6	4072
2026-01-12 11:32:32.38	359.56	23.88	-23.1	-24.2	19.4	0.00e+00	0	42	0	2899312640	6	4078
2026-01-12 11:32:33.38	359.42	23.75	-23.0	-24.0	19.5	0.00e+00	0	42	0	2905604096	6	4024
2026-01-12 11:32:34.39	359.27	23.62	-23.2	-24.3	19.3	0.00e+00	0	42	0	2910846976	6	4095
2026-01-12 11:32:35.39	359.13	23.49	-23.3	-24.6	19.2	0.00e+00	0	42	0	2916089856	6	4175
2026-01-12 11:32:36.40	358.99	23.36	-23.5	-24.4	19.0	0.00e+00	0	42	0	2922381312	7	4004
2026-01-12 11:32:37.42	358.85	23.23	-23.5	-24.5	19.0	0.00e+00	0	42	0	2927624192	7	4029
2026-01-12 11:32:38.42	358.71	23.10	-23.5	-24.6	18.9	0.00e+00	0	42	0	2933915648	7	4051
2026-01-12 11:32:39.43	358.57	22.97	-23.6	-24.8	18.8	0.00e+00	0	42	0	2939158528	7	4104
2026-01-12 11:32:40.43	358.43	22.85	-23.7	-25.0	18.7	0.00e+00	0	42	0	2944401408	7	4159
2026-01-12 11:32:41.44	358.30	22.72	-23.8	-25.1	18.6	0.00e+00	0	42	0	2950692864	7	4180
2026-01-12 11:32:42.44	358.16	22.59	-23.9	-25.3	18.5	0.00e+00	0	42	0	2955935744	7	4230
2026-01-12 11:32:43.44	358.03	22.47	-24.0	-25.1	18.4	0.00e+00	0	42	0	2961178624	8	4072
2026-01-12 11:32:44.45	357.90	22.34	-23.7	-24.4	18.8	0.00e+00	0	42	0	2967470080	8	3902
2026-01-12 11:32:45.46	357.77	22.21	-23.4	-23.8	19.1	0.00e+00	0	42	0	2972712960	8	3776
2026-01-12 11:32:46.46	357.64	22.09	-23.4	-23.8	19.1	0.00e+00	0	42	0	2979004416	8	3757
2026-01-12 11:32:47.47	357.51	21.96	-23.4	-23.8	19.1	0.00e+00	0	42	0	2984247296	8	3761
2026-01-12 11:32:48.48	357.38	21.84	-23.5	-23.9	19.0	0.00e+00	0	42	0	2990538752	8	3782
2026-01-12 11:32:49.49	357.25	21.71	-23.5	-24.0	19.0	0.00e+00	0	42	0	2995781632	8	3801
2026-01-12 11:32:50.49	357.13	21.59	-23.5	-24.1	18.9	0.00e+00	0	42	0	3001024512	8	3825
2026-01-12 11:32:51.50	357.00	21.47	-23.6	-24.2	18.8	0.00e+00	0	42	0	3007315968	8	3858
2026-01-12 11:32:52.50	356.88	21.35	-23.6	-24.3	18.8	0.00e+00	0	42	0	3012558848	8	3870
2026-01-12 11:32:53.51	356.76	21.22	-23.7	-24.3	18.8	0.00e+00	0	42	0	3018850304	8	3880
2026-01-12 11:32:54.52	356.63	21.10	-23.7	-24.5	18.7	0.00e+00	0	42	0	3024093184	8	3927
2026-01-12 11:32:55.52	356.51	20.98	-23.8	-24.5	18.7	0.00e+00	0	42	0	3029336064	8	3938
2026-01-12 11:32:56.53	356.39	20.86	-23.8	-24.6	18.6	0.00e+00	0	42	0	3035627520	8	3939
2026-01-12 11:32:57.54	356.27	20.74	-23.9	-24.8	18.5	0.00e+00	0	42	0	3040870400	8	4005
2026-01-12 11:32:58.54	356.16	20.62	-23.9	-24.9	18.4	0.00e+00	0	42	0	3046113280	8	4028
2026-01-12 11:32:59.55	356.04	20.50	-23.8	-24.7	18.6	0.00e+00	0	42	0	3052404736	8	3979
2026-01-12 11:33:00.56	355.92	20.38	-23.8	-24.5	18.7	0.00e+00	0	42	0	3057647616	8	3931
2026-01-12 11:33:01.56	355.81	20.26	-23.8	-24.6	18.6	0.00e+00	0	42	0	3063939072	8	3958
2026-01-12 11:33:02.56	355.69	20.15	-23.8	-24.6	18.6	0.00e+00	0	42	0	3069181952	8	3937
2026-01-12 11:33:03.57	355.58	20.03	-23.8	-24.7	18.6	0.00e+00	0	42	0	3075473408	8	3965
2026-01-12 11:33:04.58	355.47	19.91	-23.8	-24.6	18.6	0.00e+00	0	42	0	3080716288	8	3951
2026-01-12 11:33:05.58	355.36	19.79	-23.8	-24.7	18.6	0.00e+00	0	42	0	3085959168	8	3968
2026-01-12 11:33:06.58	355.25	19.68	-23.9	-24.8	18.5	0.00e+00	0	42	0	3092250624	8	3995
2026-01-12 11:33:07.59	355.14	19.56	-24.0	-25.0	18.3	0.00e+00	0	42	0	3097493504	8	4055
2026-01-12 11:33:08.59	355.03	19.45	-24.1	-25.2	18.2	0.00e+00	0	42	0	3102736384	8	4098
2026-01-12 11:33:09.60	354.92	19.33	-24.2	-25.4	18.2	0.00e+00	0	42	0	3109027840	8	4150
2026-01-12 11:33:10.61	354.81	19.22	-24.2	-25.5	18.1	0.00e+00	0	42	0	3114270720	8	4173
2026-01-12 11:33:11.61	354.71	19.10	-24.2	-25.4	18.1	0.00e+00	0	42	0	3120562176	8	4165
2026-01-12 11:33:12.62	354.60	18.99	-24.3	-25.6	18.0	0.00e+00	0	42	0	3125805056	8	4207
2026-01-12 11:33:13.62	354.50	18.88	-24.2	-25.6	18.1	0.00e+00	0	42	0	3131047936	8	4191
2026-01-12 11:33:14.63	354.39	18.76	-24.4	-25.9	17.9	0.00e+00	0	42	0	3137339392	8	4277
2026-01-12 11:33:15.63	354.29	18.65	-24.4	-26.0	17.8	0.00e+00	0	42	0	3142582272	8	4301
2026-01-12 11:33:16.63	354.19	18.54	-24.5	-25.6	17.7	0.00e+00	0	42	0	3148873728	9	4102
2026-01-12 11:33:17.64	354.09	18.43	-24.5	-25.6	17.8	0.00e+00	0	42	0	3154116608	9	4080
2026-01-12 11:33:18.65	353.98	18.32	-24.5	-25.5	17.8	0.00e+00	0	42	0	3159359488	9	4070
2026-01-12 11:33:19.66	353.88	18.20	-24.6	-25.8	17.6	0.00e+00	0	42	0	3165650944	9	4151
2026-01-12 11:33:20.66	353.79	18.09	-24.6	-25.9	17.6	0.00e+00	0	42	0	3170893824	9	4181
2026-01-12 11:33:21.67	353.69	17.98	-24.8	-26.3	17.4	0.00e+00	0	42	0	3177185280	9	4261
2026-01-12 11:33:22.67	353.59	17.87	-24.8	-26.3	17.4	0.00e+00	0	42	0	3182428160	9	4261
2026-01-12 11:33:23.68	353.49	17.77	-24.8	-26.4	17.4	0.00e+00	0	42	0	3187671040	9	4292
2026-01-12 11:33:24.69	353.39	17.66	-24.8	-26.3	17.4	0.00e+00	0	42	0	3193962496	9	4282
2026-01-12 11:33:25.69	353.30	17.55	-24.7	-26.1	17.5	0.00e+00	0	42	0	3199205376	9	4220
2026-01-12 11:33:26.70	353.20	17.44	-24.7	-26.0	17.5	0.00e+00	0	42	0	3205496832	9	4206
2026-01-12 11:33:27.71	353.11	17.33	-24.7	-26.1	17.5	0.00e+00	0	42	0	3210739712	9	4206
2026-01-12 11:33:28.70	353.02	17.23	-24.8	-26.2	17.4	0.00e+00	0	42	0	3215982592	9	4243
2026-01-12 11:33:29.71	352.92	17.12	-24.6	-25.9	17.5	0.00e+00	0	42	0	3222274048	9	4168
2026-01-12 11:33:30.72	352.83	17.01	-24.6	-25.7	17.6	0.00e+00	0	42	0	3227516928	9	4124
2026-01-12 11:33:31.72	352.74	16.91	-24.6	-25.8	17.6	0.00e+00	0	42	0	3233808384	9	4131
2026-01-12 11:33:32.72	352.65	16.80	-24.6	-25.8	17.6	0.00e+00	0	42	0	3239051264	9	4126
2026-01-12 11:33:33.72	352.56	16.70	-24.6	-25.8	17.6	0.00e+00	0	42	0	3244294144	9	4132
2026-01-12 11:33:34.73	352.47	16.59	-24.7	-25.9	17.5	0.00e+00	0	42	0	3250585600	9	4165
2026-01-12 11:33:35.73	352.38	16.49	-24.6	-25.9	17.6	0.00e+00	0	42	0	3255828480	9	4155
2026-01-12 11:33:36.74	352.29	16.38	-24.7	-26.0	17.5	0.00e+00	0	42	0	3261071360	9	4184
2026-01-12 11:33:37.74	352.21	16.28	-24.7	-26.0	17.5	0.00e+00	0	42	0	3267362816	9	4188
2026-01-12 11:33:38.75	352.12	16.17	-24.8	-26.3	17.3	0.00e+00	0	42	0	3272605696	9	4266
2026-01-12 11:33:39.76	352.03	16.07	-24.8	-26.3	17.3	0.00e+00	0	42	0	3278897152	9	4258
2026-01-12 11:33:40.76	351.95	15.97	-24.9	-26.5	17.2	0.00e+00	0	42	0	3284140032	9	4317
2026-01-12 11:33:41.77	351.86	15.87	-24.9	-26.4	17.3	0.00e+00	0	42	0	3289382912	9	4295
2026-01-12 11:33:42.77	351.78	15.76	-24.8	-26.3	17.3	0.00e+00	0	42	0	3295674368	9	4278
2026-01-12 11:33:43.78	351.69	15.66	-24.9	-26.5	17.2	0.00e+00	0	42	0	3300917248	9	4311
2026-01-12 11:33:44.79	351.61	15.56	-24.8	-26.2	17.4	0.00e+00	0	42	0	3307208704	9	4246
2026-01-12 11:33:45.79	351.53	15.46	-24.9	-26.4	17.3	0.00e+00	0	42	0	3312451584	9	4293
2026-01-12 11:33:46.80	351.44	15.36	-24.9	-26.5	17.2	0.00e+00	0	42	0	3318743040	9	4317
2026-01-12 11:33:47.81	351.36	15.26	-24.8	-26.3	17.3	0.00e+00	0	42	0	3323985920	9	4278
2026-01-12 11:33:48.81	351.28	15.16	-25.0	-26.2	17.0	0.00e+00	0	42	0	3329228800	10	4138
2026-01-12 11:33:49.81	351.20	15.06	-25.3	-26.8	16.7	0.00e+00	0	42	0	3335520256	10	4292
2026-01-12 11:33:50.81	351.12	14.96	-25.2	-26.5	16.9	0.00e+00	0	42	0	3340763136	10	4219
2026-01-12 11:33:51.82	351.04	14.86	-25.1	-26.4	16.9	0.00e+00	0	42	0	3346006016	10	4189
2026-01-12 11:33:52.83	350.96	14.76	-25.1	-26.5	16.9	0.00e+00	0	42	0	3352297472	10	4213
2026-01-12 11:33:53.83	350.89	14.67	-25.2	-26.6	16.8	0.00e+00	0	42	0	3357540352	10	4252
2026-01-12 11:33:54.83	350.81	14.57	-25.3	-26.8	16.7	0.00e+00	0	42	0	3362783232	10	4294
2026-01-12 11:33:55.84	350.73	14.47	-25.4	-27.0	16.6	0.00e+00	0	42	0	3369074688	10	4349
2026-01-12 11:33:56.84	350.65	14.37	-25.4	-27.2	16.5	0.00e+00	0	42	0	3374317568	10	4393
2026-01-12 11:33:57.84	350.58	14.28	-25.5	-26.8	16.4	0.00e+00	0	42	0	3380609024	11	4188
2026-01-12 11:33:58.85	350.50	14.18	-25.7	-27.3	16.1	0.00e+00	0	42	0	3385851904	11	4309
2026-01-12 11:33:59.86	350.43	14.08	-25.7	-27.2	16.2	0.00e+00	0	42	0	3392143360	11	4300
2026-01-12 11:34:00.87	350.35	13.99	-25.9	-27.7	15.9	0.00e+00	0	42	0	3397386240	11	4419
2026-01-12 11:34:01.87	350.28	13.89	-25.8	-27.5	16.0	0.00e+00	0	42	0	3402629120	11	4366
2026-01-12 11:34:02.87	350.21	13.80	-25.7	-27.2	16.1	0.00e+00	0	42	0	3408920576	11	4300
2026-01-12 11:34:03.88	350.13	13.70	-25.7	-27.3	16.1	0.00e+00	0	42	0	3414163456	11	4322
2026-01-12 11:34:04.88	350.06	13.61	-25.6	-27.1	16.2	0.00e+00	0	42	0	3419406336	11	4269
2026-01-12 11:34:05.88	349.99	13.52	-25.7	-27.2	16.2	0.00e+00	0	42	0	3425697792	11	4282
2026-01-12 11:34:06.89	349.92	13.42	-25.8	-27.4	16.0	0.00e+00	0	42	0	3430940672	11	4356
2026-01-12 11:34:07.90	349.85	13.33	-25.9	-27.8	15.8	0.00e+00	0	42	0	3436183552	11	4450
2026-01-12 11:34:08.91	349.77	13.23	-25.8	-27.6	15.9	0.00e+00	0	42	0	3442475008	11	4387
2026-01-12 11:34:09.91	349.70	13.14	-25.8	-27.5	16.0	0.00e+00	0	42	0	3447717888	11	4374
2026-01-12 11:34:10.92	349.63	13.05	-25.9	-27.7	15.8	0.00e+00	0	42	0	3454009344	11	4427
2026-01-12 11:34:11.93	349.56	12.96	-25.8	-27.5	15.9	0.00e+00	0	42	0	3459252224	11	4370
2026-01-12 11:34:12.93	349.50	12.86	-25.8	-27.4	16.0	0.00e+00	0	42	0	3465543680	11	4352
2026-01-12 11:34:13.94	349.43	12.77	-25.7	-27.1	16.1	0.00e+00	0	42	0	3470786560	11	4271
2026-01-12 11:34:14.95	349.36	12.68	-25.8	-27.5	15.9	0.00e+00	0	42	0	3476029440	11	4365
2026-01-12 11:34:15.95	349.29	12.59	-25.7	-27.2	16.1	0.00e+00	0	42	0	3482320896	11	4274
2026-01-12 11:34:16.96	349.22	12.50	-25.6	-27.0	16.2	0.00e+00	0	42	0	3487563776	11	4242
2026-01-12 11:34:17.97	349.16	12.41	-25.6	-26.9	16.2	0.00e+00	0	42	0	3493855232	11	4213
2026-01-12 11:34:18.98	349.09	12.32	-25.6	-27.0	16.2	0.00e+00	0	42	0	3499098112	11	4234
2026-01-12 11:34:19.98	349.03	12.23	-25.7	-27.3	16.0	0.00e+00	0	42	0	3504340992	11	4304
2026-01-12 11:34:20.99	348.96	12.14	-25.7	-27.3	16.0	0.00e+00	0	42	0	3510632448	11	4310
2026-01-12 11:34:22.00	348.90	12.05	-25.8	-27.4	15.9	0.00e+00	0	42	0	3515875328	11	4345
2026-01-12 11:34:23.01	348.83	11.96	-25.7	-27.1	16.1	0.00e+00	0	42	0	3522166784	11	4271
2026-01-12 11:34:24.01	348.77	11.87	-25.6	-27.1	16.2	0.00e+00	0	42	0	3527409664	11	4251
2026-01-12 11:34:25.02	348.70	11.78	-25.7	-27.2	16.1	0.00e+00	0	42	0	3532652544	11	4297
2026-01-12 11:34:26.02	348.64	11.69	-25.6	-27.1	16.1	0.00e+00	0	42	0	3538944000	11	4252
2026-01-12 11:34:27.03	348.58	11.61	-25.7	-27.3	16.0	0.00e+00	0	42	0	3544186880	11	4326
2026-01-12 11:34:28.03	348.51	11.52	-25.6	-27.1	16.1	0.00e+00	0	42	0	3550478336	11	4265
2026-01-12 11:34:29.03	348.45	11.43	-25.8	-27.3	16.0	0.00e+00	0	42	0	3555721216	11	4323
2026-01-12 11:34:30.04	348.39	11.34	-26.0	-27.9	15.7	0.00e+00	0	42	0	3560964096	11	4469
2026-01-12 11:34:31.04	348.33	11.26	-25.8	-27.4	15.9	0.00e+00	0	42	0	3567255552	11	4351
2026-01-12 11:34:32.05	348.27	11.17	-25.8	-27.4	15.9	0.00e+00	0	42	0	3572498432	11	4348
2026-01-12 11:34:33.06	348.21	11.08	-25.8	-27.6	15.8	0.00e+00	0	42	0	3578789888	11	4388
2026-01-12 11:34:34.06	348.15	11.00	-26.0	-27.8	15.7	0.00e+00	0	42	0	3584032768	11	4461
2026-01-12 11:34:35.07	348.09	10.91	-25.9	-27.8	15.7	0.00e+00	0	42	0	3589275648	11	4456
2026-01-12 11:34:36.07	348.03	10.83	-26.1	-27.6	15.4	0.00e+00	0	42	0	3595567104	12	4301
2026-01-12 11:34:37.07	347.97	10.74	-26.3	-28.1	15.1	0.00e+00	0	42	0	3600809984	12	4438
2026-01-12 11:34:38.08	347.91	10.66	-26.0	-27.5	15.5	0.00e+00	0	42	0	3606052864	12	4267
2026-01-12 11:34:39.09	347.85	10.57	-26.0	-27.4	15.5	0.00e+00	0	42	0	3612344320	12	4244
2026-01-12 11:34:40.09	347.80	10.49	-25.9	-27.2	15.6	0.00e+00	0	42	0	3617587200	12	4192
2026-01-12 11:34:41.10	347.74	10.40	-26.0	-27.4	15.5	0.00e+00	0	42	0	3623878656	12	4223
2026-01-12 11:34:42.11	347.68	10.32	-26.0	-27.4	15.5	1.10e-06	0	42	0	3629121536	12	4243
2026-01-12 11:34:43.12	347.62	10.24	-26.1	-27.6	15.4	1.10e-06	0	42	0	3635412992	12	4301
2026-01-12 11:34:44.12	347.57	10.15	-26.0	-27.5	15.4	0.00e+00	0	42	0	3640655872	12	4259
2026-01-12 11:34:45.12	347.51	10.07	-26.1	-27.6	15.4	0.00e+00	0	42	0	3645898752	12	4305
2026-01-12 11:34:46.13	347.45	9.99	-26.1	-27.6	15.4	0.00e+00	0	42	0	3652190208	12	4303
2026-01-12 11:34:47.13	347.40	9.90	-26.1	-27.7	15.3	0.00e+00	0	42	0	3657433088	12	4323
2026-01-12 11:34:48.14	347.34	9.82	-26.2	-27.9	15.2	0.00e+00	0	42	0	3662675968	12	4365
2026-01-12 11:34:49.15	347.29	9.74	-26.2	-27.9	15.2	0.00e+00	0	42	0	3668967424	12	4380
2026-01-12 11:34:50.15	347.23	9.66	-26.2	-28.0	15.1	0.00e+00	0	42	0	3674210304	12	4397
2026-01-12 11:34:51.16	347.18	9.58	-26.3	-28.2	15.0	0.00e+00	0	42	0	3680501760	12	4468
2026-01-12 11:34:52.16	347.13	9.49	-26.3	-28.2	15.0	0.00e+00	0	42	0	3685744640	12	4450
2026-01-12 11:34:53.16	347.07	9.41	-26.4	-28.3	14.9	0.00e+00	0	42	0	3690987520	12	4501
2026-01-12 11:34:54.16	347.02	9.33	-26.4	-28.3	14.9	0.00e+00	0	42	0	3697278976	12	4508
2026-01-12 11:34:55.17	346.97	9.25	-26.4	-28.4	14.9	0.00e+00	0	42	0	3702521856	12	4520
2026-01-12 11:34:56.18	346.91	9.17	-26.4	-28.3	14.9	0.00e+00	0	42	0	3708813312	12	4501
2026-01-12 11:34:57.18	346.86	9.09	-26.3	-28.2	14.9	0.00e+00	0	42	0	3714056192	12	4470
2026-01-12 11:34:58.19	346.81	9.01	-26.4	-28.5	14.8	0.00e+00	0	42	0	3719299072	12	4548
2026-01-12 11:34:59.19	346.76	8.93	-26.7	-28.6	14.4	1.10e-06	0	42	0	3725590528	13	4467
2026-01-12 11:35:00.20	346.71	8.85	-26.8	-28.8	14.3	3.40e-06	0	42	0	3730833408	13	4524
2026-01-12 11:35:01.21	346.66	8.77	-26.6	-28.4	14.5	1.10e-06	0	42	0	3737124864	13	4418
2026-01-12 11:35:02.21	346.60	8.69	-26.5	-28.0	14.7	5.70e-06	0	42	0	3742367744	13	4304
2026-01-12 11:35:03.22	346.55	8.61	-26.3	-27.7	14.9	1.10e-06	0	42	0	3747610624	13	4223
2026-01-12 11:35:04.22	346.50	8.54	-26.4	-27.9	14.8	2.20e-06	0	42	0	3753902080	13	4284
2026-01-12 11:35:05.23	346.45	8.46	-26.4	-28.0	14.7	0.00e+00	0	42	0	3759144960	13	4294
2026-01-12 11:35:06.24	346.40	8.38	-26.5	-28.1	14.7	0.00e+00	0	42	0	3764387840	13	4323
2026-01-12 11:35:07.25	346.35	8.30	-26.5	-28.1	14.6	1.10e-06	0	42	0	3770679296	13	4340
2026-01-12 11:35:08.25	346.31	8.22	-26.4	-27.9	14.7	0.00e+00	0	42	0	3775922176	13	4283
2026-01-12 11:35:09.26	346.26	8.15	-26.5	-28.2	14.6	0.00e+00	0	42	0	3782213632	13	4347
2026-01-12 11:35:10.26	346.21	8.07	-26.7	-28.5	14.4	3.40e-06	0	42	0	3787456512	13	4456
2026-01-12 11:35:11.26	346.16	7.99	-26.6	-28.3	14.5	0.00e+00	0	42	0	3793747968	13	4398
2026-01-12 11:35:12.27	346.11	7.92	-26.6	-28.4	14.5	1.10e-06	0	42	0	3798990848	13	4407
2026-01-12 11:35:13.28	346.06	7.84	-26.6	-28.3	14.5	1.10e-06	0	42	0	3804233728	13	4383
2026-01-12 11:35:14.28	346.02	7.76	-26.6	-28.2	14.5	1.10e-06	0	42	0	3810525184	13	4372
2026-01-12 11:35:15.28	345.97	7.69	-26.5	-28.2	14.6	0.00e+00	0	42	0	3815768064	13	4367
2026-01-12 11:35:16.29	345.92	7.61	-26.5	-28.2	14.6	1.10e-06	0	42	0	3821010944	13	4348
2026-01-12 11:35:17.29	345.88	7.53	-26.7	-28.6	14.3	2.20e-06	0	42	0	3827302400	13	4464
2026-01-12 11:35:18.30	345.83	7.46	-26.8	-28.7	14.2	3.40e-06	0	42	0	3832545280	13	4518
2026-01-12 11:35:19.30	345.79	7.38	-26.8	-28.7	14.2	2.20e-06	0	42	0	3838836736	13	4510
2026-01-12 11:35:20.31	345.74	7.31	-26.7	-28.5	14.3	2.20e-06	0	42	0	3844079616	13	4457
2026-01-12 11:35:21.32	345.69	7.23	-27.0	-29.2	13.9	2.20e-06	0	42	0	3849322496	13	4657
2026-01-12 11:35:22.32	345.65	7.16	-26.9	-28.5	14.0	3.40e-06	0	42	0	3855613952	14	4323
2026-01-12 11:35:23.33	345.60	7.08	-28.5	-31.3	12.1	3.40e-06	0	42	0	3860856832	16	4976
2026-01-12 11:35:24.33	345.56	7.01	-33.0	-43.9	3.8	8.41e-01	0	42	104	3861905408	26	12636
2026-01-12 11:35:25.34	345.51	6.93	-33.3	-44.6	3.8	8.45e-01	0	42	104	3861905408	26	13280

#Closed at: 2026-01-12 11:35:26
