passes_logs/2026/01/12/R2M6_AANII_01/R2M6_AANII_01__20260112_013049_FENGYUN_3D_rec.log

#Pass ID: 20260112_013049_FENGYUN 3D
#Satellite: FENGYUN 3D
#Configuration: FENGYUN 3D
#almurnet v.1.7.20240730
#Start time: 2026-01-12 01:30:49

#Version: 2.2.20231116
#Station: R2M6_AANII_01
#Location: 30.233357 lon 59.946436 lat
#TLE: 1 43010U 17072A   26011.26828046  .00000354  00000+0  18908-3 0  9991
#TLE: 2 43010  98.9936 343.0270 0002205 114.1788 245.9618 14.19695184422722

#Time	Az	El	Level	Level2	SNR	BER	BlckErr	Temp	State	Recorded	gain1	gain2
2026-01-12 01:30:49.93	24.24	7.04	-28.9	-32.0	5.5	7.81e-01	0	39	0	0	17	5187
2026-01-12 01:30:50.92	24.29	7.11	-30.1	-34.1	5.1	7.99e-01	0	39	104	0	20	5702
2026-01-12 01:30:51.92	24.35	7.19	-29.8	-33.1	8.8	3.27e-02	0	40	0	0	20	5288
2026-01-12 01:30:52.93	24.41	7.26	-30.0	-34.1	8.6	3.19e-02	0	40	0	5242880	19	5779
2026-01-12 01:30:53.93	24.46	7.33	-29.8	-33.4	9.0	2.37e-02	0	39	0	11534336	19	5497
2026-01-12 01:30:54.94	24.52	7.41	-29.5	-32.8	9.5	1.42e-02	0	40	0	16777216	19	5240
2026-01-12 01:30:55.95	24.57	7.48	-29.2	-32.0	10.1	7.84e-03	0	40	0	22020096	19	4916
2026-01-12 01:30:56.95	24.63	7.56	-29.1	-31.6	10.4	4.13e-03	0	40	0	28311552	19	4789
2026-01-12 01:30:57.96	24.69	7.63	-29.0	-31.9	10.5	2.69e-03	0	39	0	33554432	18	4983
2026-01-12 01:30:58.97	24.75	7.70	-29.2	-32.2	10.3	2.65e-03	0	40	0	38797312	18	5114
2026-01-12 01:30:59.97	24.80	7.78	-29.6	-32.9	9.5	7.41e-03	0	40	0	45088768	19	5285
2026-01-12 01:31:00.98	24.86	7.85	-29.3	-32.1	10.1	6.55e-03	0	40	0	50331648	19	4949
2026-01-12 01:31:01.98	24.92	7.93	-28.6	-30.6	11.4	9.93e-04	0	40	0	56623104	18	4559
2026-01-12 01:31:02.99	24.98	8.00	-28.1	-29.9	12.1	2.12e-04	0	40	0	61865984	17	4456
2026-01-12 01:31:03.99	25.04	8.08	-27.5	-29.1	12.9	5.49e-05	0	40	0	67108864	16	4298
2026-01-12 01:31:05.00	25.09	8.16	-27.1	-28.7	13.2	3.77e-05	0	40	0	73400320	15	4298
2026-01-12 01:31:06.01	25.15	8.23	-27.4	-29.3	12.9	1.25e-05	0	40	0	78643200	15	4495
2026-01-12 01:31:07.02	25.21	8.31	-27.6	-29.7	12.7	5.14e-05	0	40	0	84934656	15	4608
2026-01-12 01:31:08.02	25.27	8.38	-27.6	-29.8	12.6	3.66e-05	0	40	0	90177536	15	4637
2026-01-12 01:31:09.03	25.33	8.46	-27.2	-29.0	13.1	3.31e-05	0	40	0	96468992	15	4388
2026-01-12 01:31:10.04	25.39	8.54	-27.2	-29.2	13.3	9.10e-06	0	40	0	101711872	14	4577
2026-01-12 01:31:11.04	25.46	8.61	-27.2	-29.4	13.2	1.25e-05	0	40	0	106954752	14	4628
2026-01-12 01:31:12.05	25.52	8.69	-27.6	-29.8	12.6	4.92e-05	0	40	0	113246208	15	4653
2026-01-12 01:31:13.06	25.58	8.77	-27.2	-28.9	13.2	1.71e-05	0	40	0	118489088	15	4360
2026-01-12 01:31:14.06	25.64	8.85	-27.6	-29.9	12.6	3.43e-05	0	40	0	123731968	15	4663
2026-01-12 01:31:15.06	25.70	8.92	-27.4	-29.3	12.2	2.97e-05	0	40	0	130023424	15	4486
2026-01-12 01:31:16.06	25.76	9.00	-27.1	-29.1	12.5	1.14e-05	0	40	0	135266304	14	4518
2026-01-12 01:31:17.07	25.83	9.08	-26.8	-28.3	13.8	3.40e-06	0	40	0	140509184	14	4301
2026-01-12 01:31:18.08	25.89	9.16	-26.5	-27.6	14.2	0.00e+00	0	40	0	146800640	14	4120
2026-01-12 01:31:19.08	25.95	9.24	-26.3	-27.7	14.5	0.00e+00	0	40	0	152043520	13	4256
2026-01-12 01:31:20.09	26.01	9.32	-26.2	-27.4	14.6	1.10e-06	0	40	0	158334976	13	4168
2026-01-12 01:31:21.10	26.08	9.39	-26.2	-27.4	14.6	1.83e-04	0	40	0	163577856	13	4160
2026-01-12 01:31:22.11	26.14	9.47	-26.0	-27.0	14.9	0.00e+00	0	40	0	169869312	13	4060
2026-01-12 01:31:23.12	26.21	9.55	-25.7	-27.0	15.2	0.00e+00	0	41	0	175112192	12	4147
2026-01-12 01:31:24.12	26.27	9.63	-25.8	-27.1	15.1	0.00e+00	0	40	0	181403648	12	4172
2026-01-12 01:31:25.13	26.34	9.71	-25.8	-27.0	15.2	2.53e-04	0	41	0	186646528	12	4164
2026-01-12 01:31:26.14	26.40	9.79	-25.7	-27.0	15.2	0.00e+00	0	40	0	191889408	12	4149
2026-01-12 01:31:27.14	26.47	9.87	-25.7	-26.8	15.3	0.00e+00	0	40	0	198180864	12	4115
2026-01-12 01:31:28.14	26.53	9.95	-25.9	-27.2	15.1	2.15e-04	0	40	0	203423744	12	4213
2026-01-12 01:31:29.15	26.60	10.04	-25.8	-27.0	15.2	0.00e+00	0	40	0	208666624	12	4148
2026-01-12 01:31:30.16	26.67	10.12	-25.8	-27.1	15.1	2.36e-04	0	40	0	214958080	12	4190
2026-01-12 01:31:31.16	26.74	10.20	-25.8	-27.2	15.1	2.27e-04	0	40	0	220200960	12	4207
2026-01-12 01:31:32.17	26.80	10.28	-25.8	-27.2	15.1	0.00e+00	0	40	0	226492416	12	4201
2026-01-12 01:31:33.18	26.87	10.36	-25.7	-26.9	15.3	2.16e-04	0	41	0	231735296	12	4131
2026-01-12 01:31:34.19	26.94	10.44	-25.8	-27.0	15.2	2.24e-04	0	41	0	236978176	12	4159
2026-01-12 01:31:35.19	27.01	10.53	-25.9	-27.4	15.0	0.00e+00	0	41	0	243269632	12	4263
2026-01-12 01:31:36.20	27.08	10.61	-25.8	-27.1	15.2	1.67e-04	0	40	0	248512512	12	4168
2026-01-12 01:31:37.21	27.15	10.69	-25.6	-26.8	15.4	1.52e-04	0	41	0	254803968	12	4089
2026-01-12 01:31:38.21	27.22	10.78	-25.6	-26.7	15.5	0.00e+00	0	41	0	260046848	12	4077
2026-01-12 01:31:39.21	27.29	10.86	-25.6	-26.7	15.4	1.82e-04	0	41	0	265289728	12	4077
2026-01-12 01:31:40.22	27.36	10.94	-25.8	-27.1	15.2	1.89e-04	0	41	0	271581184	12	4185
2026-01-12 01:31:41.22	27.43	11.03	-25.6	-26.7	15.5	0.00e+00	0	41	0	276824064	12	4071
2026-01-12 01:31:42.22	27.50	11.11	-25.5	-26.5	15.6	1.82e-04	0	41	0	283115520	12	4018
2026-01-12 01:31:43.23	27.57	11.19	-25.4	-26.3	15.7	0.00e+00	0	41	0	288358400	12	3972
2026-01-12 01:31:44.24	27.64	11.28	-25.5	-26.5	15.6	0.00e+00	0	41	0	293601280	12	4011
2026-01-12 01:31:45.24	27.71	11.36	-25.6	-26.6	15.5	0.00e+00	0	41	0	299892736	12	4049
2026-01-12 01:31:46.25	27.79	11.45	-25.5	-26.3	15.7	2.28e-05	0	41	0	305135616	12	3979
2026-01-12 01:31:47.25	27.86	11.53	-25.5	-26.4	15.7	0.00e+00	0	41	0	310378496	12	3995
2026-01-12 01:31:48.26	27.93	11.62	-25.5	-26.4	15.7	0.00e+00	0	41	0	316669952	12	3987
2026-01-12 01:31:49.27	28.01	11.71	-25.5	-26.4	15.7	0.00e+00	0	41	0	321912832	12	3999
2026-01-12 01:31:50.27	28.08	11.79	-25.5	-26.4	15.6	0.00e+00	0	41	0	328204288	12	4008
2026-01-12 01:31:51.28	28.16	11.88	-25.5	-26.5	15.6	0.00e+00	0	41	0	333447168	12	4013
2026-01-12 01:31:52.29	28.23	11.97	-25.5	-26.3	15.7	0.00e+00	0	41	0	339738624	12	3979
2026-01-12 01:31:53.30	28.31	12.05	-25.4	-26.1	15.8	0.00e+00	0	41	0	344981504	12	3925
2026-01-12 01:31:54.30	28.38	12.14	-25.4	-26.1	15.8	0.00e+00	0	41	0	350224384	12	3922
2026-01-12 01:31:55.31	28.46	12.23	-25.4	-26.2	15.8	0.00e+00	0	41	0	356515840	12	3941
2026-01-12 01:31:56.32	28.54	12.32	-25.4	-26.3	15.8	0.00e+00	0	41	0	361758720	12	3956
2026-01-12 01:31:57.33	28.61	12.40	-25.3	-26.5	16.0	0.00e+00	0	41	0	368050176	11	4133
2026-01-12 01:31:58.33	28.69	12.49	-25.2	-26.3	16.1	0.00e+00	0	41	0	373293056	11	4082
2026-01-12 01:31:59.34	28.77	12.58	-25.3	-26.4	16.0	0.00e+00	0	41	0	378535936	11	4111
2026-01-12 01:32:00.35	28.85	12.67	-25.4	-26.7	15.9	0.00e+00	0	41	0	384827392	11	4163
2026-01-12 01:32:01.36	28.93	12.76	-25.4	-26.6	16.0	0.00e+00	0	41	0	390070272	11	4141
2026-01-12 01:32:02.37	29.01	12.85	-25.5	-26.8	15.8	0.00e+00	0	41	0	395313152	11	4211
2026-01-12 01:32:03.38	29.09	12.94	-25.3	-26.5	16.0	0.00e+00	0	41	0	401604608	11	4107
2026-01-12 01:32:04.38	29.17	13.03	-25.3	-27.0	16.0	0.00e+00	0	41	0	406847488	10	4358
2026-01-12 01:32:05.39	29.25	13.12	-25.3	-27.1	16.0	0.00e+00	0	41	0	413138944	10	4379
2026-01-12 01:32:06.39	29.33	13.21	-25.5	-27.3	15.9	0.00e+00	0	41	0	418381824	10	4451
2026-01-12 01:32:07.40	29.41	13.30	-25.4	-27.3	15.9	0.00e+00	0	41	0	424673280	10	4449
2026-01-12 01:32:08.40	29.49	13.39	-25.5	-27.0	15.8	0.00e+00	0	41	0	429916160	11	4253
2026-01-12 01:32:09.41	29.58	13.48	-25.7	-27.4	15.6	0.00e+00	0	41	0	435159040	11	4353
2026-01-12 01:32:10.42	29.66	13.58	-25.3	-26.5	16.1	0.00e+00	0	41	0	441450496	11	4111
2026-01-12 01:32:11.42	29.74	13.67	-25.2	-26.2	16.2	0.00e+00	0	41	0	446693376	11	4043
2026-01-12 01:32:12.43	29.83	13.76	-25.1	-26.5	16.3	0.00e+00	0	41	0	452984832	10	4230
2026-01-12 01:32:13.44	29.91	13.85	-25.1	-26.5	16.3	0.00e+00	0	41	0	458227712	10	4232
2026-01-12 01:32:14.44	30.00	13.95	-25.2	-26.7	16.3	0.00e+00	0	41	0	463470592	10	4274
2026-01-12 01:32:15.45	30.08	14.04	-25.2	-26.8	16.2	0.00e+00	0	41	0	469762048	10	4328
2026-01-12 01:32:16.45	30.17	14.13	-25.1	-26.5	16.3	0.00e+00	0	41	0	475004928	10	4230
2026-01-12 01:32:17.45	30.26	14.23	-25.2	-26.7	16.2	0.00e+00	0	41	0	480247808	10	4280
2026-01-12 01:32:18.46	30.34	14.32	-25.3	-26.9	16.1	0.00e+00	0	41	0	486539264	10	4338
2026-01-12 01:32:19.46	30.43	14.41	-25.4	-27.2	16.0	0.00e+00	0	41	0	491782144	10	4413
2026-01-12 01:32:20.47	30.52	14.51	-25.5	-27.3	15.9	0.00e+00	0	41	0	498073600	10	4449
2026-01-12 01:32:21.48	30.61	14.60	-25.6	-27.0	15.8	0.00e+00	0	41	0	503316480	11	4258
2026-01-12 01:32:22.49	30.70	14.70	-25.6	-27.1	15.8	0.00e+00	0	41	0	509607936	11	4270
2026-01-12 01:32:23.49	30.79	14.80	-25.7	-27.4	15.6	0.00e+00	0	41	0	514850816	11	4370
2026-01-12 01:32:24.50	30.88	14.89	-25.4	-26.7	16.0	0.00e+00	0	41	0	520093696	11	4171
2026-01-12 01:32:25.51	30.97	14.99	-25.3	-26.4	16.1	0.00e+00	0	41	0	526385152	11	4084
2026-01-12 01:32:26.52	31.06	15.09	-25.3	-26.5	16.1	0.00e+00	0	42	0	531628032	11	4125
2026-01-12 01:32:27.52	31.16	15.18	-25.3	-26.5	16.1	0.00e+00	0	41	0	537919488	11	4125
2026-01-12 01:32:28.53	31.25	15.28	-25.5	-26.9	15.9	0.00e+00	0	41	0	543162368	11	4236
2026-01-12 01:32:29.53	31.34	15.38	-25.5	-27.0	15.9	0.00e+00	0	41	0	548405248	11	4239
2026-01-12 01:32:30.54	31.44	15.48	-25.3	-26.4	16.2	0.00e+00	0	41	0	554696704	11	4095
2026-01-12 01:32:31.54	31.53	15.57	-25.0	-25.8	16.5	0.00e+00	0	41	0	559939584	11	3955
2026-01-12 01:32:32.55	31.63	15.67	-24.9	-25.5	16.7	0.00e+00	0	41	0	565182464	11	3867
2026-01-12 01:32:33.55	31.72	15.77	-24.8	-25.4	16.7	0.00e+00	0	42	0	571473920	11	3842
2026-01-12 01:32:34.56	31.82	15.87	-24.7	-25.6	16.9	0.00e+00	0	41	0	576716800	10	4001
2026-01-12 01:32:35.56	31.91	15.97	-24.7	-25.6	16.9	0.00e+00	0	41	0	583008256	10	3990
2026-01-12 01:32:36.57	32.01	16.07	-24.8	-26.4	16.7	0.00e+00	0	42	0	588251136	9	4306
2026-01-12 01:32:37.58	32.11	16.17	-24.7	-26.2	16.9	0.00e+00	0	42	0	594542592	9	4254
2026-01-12 01:32:38.58	32.21	16.27	-24.5	-25.7	17.1	0.00e+00	0	41	0	599785472	9	4124
2026-01-12 01:32:39.59	32.31	16.37	-24.4	-25.5	17.2	0.00e+00	0	41	0	605028352	9	4078
2026-01-12 01:32:40.60	32.41	16.47	-24.4	-25.4	17.2	0.00e+00	0	41	0	611319808	9	4067
2026-01-12 01:32:41.60	32.51	16.58	-24.5	-25.6	17.1	0.00e+00	0	41	0	616562688	9	4113
2026-01-12 01:32:42.61	32.61	16.68	-24.4	-25.5	17.2	0.00e+00	0	41	0	621805568	9	4079
2026-01-12 01:32:43.62	32.71	16.78	-24.3	-25.3	17.3	0.00e+00	0	41	0	628097024	9	4038
2026-01-12 01:32:44.63	32.82	16.88	-24.4	-25.5	17.2	2.29e-04	0	41	0	633339904	9	4076
2026-01-12 01:32:45.63	32.92	16.99	-24.4	-25.4	17.3	0.00e+00	0	41	0	639631360	9	4049
2026-01-12 01:32:46.63	33.02	17.09	-24.2	-25.0	17.5	0.00e+00	0	42	0	644874240	9	3949
2026-01-12 01:32:47.64	33.13	17.19	-24.0	-24.7	17.7	0.00e+00	0	41	0	650117120	9	3874
2026-01-12 01:32:48.65	33.23	17.30	-24.0	-24.7	17.7	0.00e+00	0	42	0	656408576	9	3878
2026-01-12 01:32:49.65	33.34	17.40	-23.9	-24.4	17.9	0.00e+00	0	41	0	661651456	9	3811
2026-01-12 01:32:50.65	33.45	17.51	-23.9	-24.5	17.8	0.00e+00	0	42	0	667942912	9	3826
2026-01-12 01:32:51.65	33.55	17.61	-23.8	-24.3	17.9	9.84e-05	0	41	0	673185792	9	3781
2026-01-12 01:32:52.66	33.66	17.72	-23.8	-24.7	18.0	2.37e-04	0	42	0	678428672	8	3984
2026-01-12 01:32:53.67	33.77	17.82	-23.8	-24.6	18.0	0.00e+00	0	41	0	684720128	8	3971
2026-01-12 01:32:54.67	33.88	17.93	-23.8	-24.6	18.0	3.50e-04	0	41	0	689963008	8	3963
2026-01-12 01:32:55.68	33.99	18.04	-23.8	-24.7	18.0	0.00e+00	0	41	0	696254464	8	3980
2026-01-12 01:32:56.69	34.10	18.14	-23.7	-25.0	18.0	4.27e-04	0	41	0	701497344	7	4186
2026-01-12 01:32:57.70	34.22	18.25	-23.8	-25.2	17.9	5.81e-04	0	41	0	706740224	7	4215
2026-01-12 01:32:58.70	34.33	18.36	-23.9	-25.5	17.8	0.00e+00	0	41	0	713031680	7	4295
2026-01-12 01:32:59.71	34.44	18.47	-23.9	-24.9	17.9	6.19e-04	0	41	0	718274560	8	4032
2026-01-12 01:33:00.71	34.56	18.58	-23.8	-24.8	17.9	6.64e-04	0	41	0	723517440	8	4016
2026-01-12 01:33:01.72	34.67	18.68	-23.9	-24.9	17.9	0.00e+00	0	42	0	729808896	8	4042
2026-01-12 01:33:02.73	34.79	18.79	-24.0	-25.2	17.7	0.00e+00	0	41	0	735051776	8	4114
2026-01-12 01:33:03.73	34.90	18.90	-24.1	-25.3	17.7	7.39e-04	0	42	0	741343232	8	4137
2026-01-12 01:33:04.74	35.02	19.01	-24.0	-25.2	17.7	0.00e+00	0	42	0	746586112	8	4107
2026-01-12 01:33:05.74	35.14	19.12	-24.1	-25.4	17.6	7.84e-04	0	42	0	752877568	8	4171
2026-01-12 01:33:06.74	35.26	19.23	-24.0	-25.2	17.7	7.08e-04	0	41	0	758120448	8	4119
2026-01-12 01:33:07.75	35.38	19.35	-23.9	-25.0	17.9	0.00e+00	0	41	0	763363328	8	4056
2026-01-12 01:33:08.75	35.50	19.46	-23.9	-25.4	17.9	4.39e-04	0	41	0	769654784	7	4271
2026-01-12 01:33:09.75	35.62	19.57	-23.7	-25.1	18.0	0.00e+00	0	42	0	774897664	7	4198
2026-01-12 01:33:10.76	35.74	19.68	-23.7	-25.1	18.1	0.00e+00	0	42	0	780140544	7	4191
2026-01-12 01:33:11.76	35.87	19.79	-23.7	-24.9	18.1	0.00e+00	0	42	0	786432000	7	4159
2026-01-12 01:33:12.76	35.99	19.91	-23.5	-24.6	18.3	9.38e-05	0	42	0	791674880	7	4089
2026-01-12 01:33:13.77	36.12	20.02	-23.5	-24.5	18.4	0.00e+00	0	42	0	797966336	7	4052
2026-01-12 01:33:14.78	36.24	20.13	-23.5	-24.6	18.3	0.00e+00	0	42	0	803209216	7	4076
2026-01-12 01:33:15.78	36.37	20.25	-23.4	-24.2	18.5	3.99e-04	0	42	0	808452096	7	3986
2026-01-12 01:33:16.79	36.50	20.36	-23.2	-24.0	18.6	0.00e+00	0	42	0	814743552	7	3918
2026-01-12 01:33:17.80	36.63	20.48	-23.3	-24.2	18.5	4.37e-04	0	42	0	819986432	7	3975
2026-01-12 01:33:18.81	36.76	20.59	-23.2	-23.9	18.7	0.00e+00	0	42	0	826277888	7	3910
2026-01-12 01:33:19.82	36.89	20.71	-23.1	-23.6	18.8	0.00e+00	0	41	0	831520768	7	3834
2026-01-12 01:33:20.82	37.02	20.83	-23.1	-24.1	18.8	0.00e+00	0	42	0	836763648	6	4073
2026-01-12 01:33:21.82	37.15	20.94	-23.1	-24.3	18.7	0.00e+00	0	42	0	843055104	6	4106
2026-01-12 01:33:22.83	37.29	21.06	-23.4	-24.8	18.5	0.00e+00	0	42	0	848297984	6	4234
2026-01-12 01:33:23.84	37.42	21.18	-23.3	-24.6	18.5	0.00e+00	0	42	0	854589440	6	4185
2026-01-12 01:33:24.85	37.56	21.30	-23.4	-24.8	18.5	0.00e+00	0	42	0	859832320	6	4229
2026-01-12 01:33:25.85	37.69	21.41	-23.5	-24.6	18.3	0.00e+00	0	42	0	865075200	7	4069
2026-01-12 01:33:26.85	37.83	21.53	-23.7	-25.1	18.1	0.00e+00	0	42	0	871366656	7	4189
2026-01-12 01:33:27.86	37.97	21.65	-23.7	-24.9	18.2	0.00e+00	0	41	0	876609536	7	4156
2026-01-12 01:33:28.87	38.11	21.77	-23.6	-24.7	18.3	0.00e+00	0	42	0	881852416	7	4101
2026-01-12 01:33:29.88	38.25	21.89	-23.5	-24.6	18.3	0.00e+00	0	42	0	888143872	7	4081
2026-01-12 01:33:30.88	38.39	22.01	-23.6	-24.9	18.2	0.00e+00	0	42	0	893386752	7	4138
2026-01-12 01:33:31.88	38.53	22.13	-23.7	-25.0	18.2	0.00e+00	0	42	0	899678208	7	4170
2026-01-12 01:33:32.89	38.68	22.25	-23.5	-24.5	18.4	0.00e+00	0	42	0	904921088	7	4051
2026-01-12 01:33:33.90	38.83	22.37	-23.5	-24.6	18.4	0.00e+00	0	42	0	911212544	7	4083
2026-01-12 01:33:34.91	38.97	22.50	-23.4	-24.3	18.5	0.00e+00	0	42	0	916455424	7	4005
2026-01-12 01:33:35.91	39.12	22.62	-23.3	-24.2	18.6	0.00e+00	0	42	0	921698304	7	3979
2026-01-12 01:33:36.92	39.27	22.74	-23.4	-24.3	18.5	0.00e+00	0	42	0	927989760	7	3995
2026-01-12 01:33:37.92	39.42	22.86	-23.5	-24.5	18.4	0.00e+00	0	42	0	933232640	7	4054
2026-01-12 01:33:38.94	39.57	22.99	-23.5	-24.6	18.4	0.00e+00	0	42	0	939524096	7	4065
2026-01-12 01:33:39.94	39.72	23.11	-23.4	-24.4	18.5	0.00e+00	0	41	0	944766976	7	4021
2026-01-12 01:33:40.94	39.87	23.24	-23.4	-24.3	18.6	0.00e+00	0	42	0	950009856	7	3994
2026-01-12 01:33:41.95	40.03	23.36	-23.8	-25.3	18.0	0.00e+00	0	42	0	956301312	7	4244
2026-01-12 01:33:42.95	40.18	23.49	-23.5	-24.5	18.5	0.00e+00	0	42	0	961544192	7	4044
2026-01-12 01:33:43.96	40.34	23.61	-23.2	-23.8	18.8	0.00e+00	0	42	0	966787072	7	3884
2026-01-12 01:33:44.96	40.50	23.74	-23.2	-23.8	18.8	0.00e+00	0	42	0	973078528	7	3890
2026-01-12 01:33:45.97	40.66	23.86	-23.1	-23.7	18.9	0.00e+00	0	42	0	978321408	7	3863
2026-01-12 01:33:46.98	40.82	23.99	-23.1	-23.8	18.8	0.00e+00	0	41	0	984612864	7	3870
2026-01-12 01:33:47.99	40.98	24.12	-23.4	-24.4	18.5	0.00e+00	0	42	0	989855744	7	4014
2026-01-12 01:33:49.00	41.14	24.25	-23.2	-23.8	18.8	0.00e+00	0	42	0	996147200	7	3882
2026-01-12 01:33:49.99	41.31	24.37	-22.9	-23.2	19.1	0.00e+00	0	42	0	1001390080	7	3744
2026-01-12 01:33:51.00	41.47	24.50	-22.8	-23.1	19.2	0.00e+00	0	42	0	1006632960	7	3708
2026-01-12 01:33:52.00	41.64	24.63	-22.9	-23.3	19.1	0.00e+00	0	42	0	1012924416	7	3754
2026-01-12 01:33:53.01	41.81	24.76	-23.0	-23.4	19.0	0.00e+00	0	42	0	1018167296	7	3785
2026-01-12 01:33:54.02	41.98	24.89	-23.0	-23.5	19.0	0.00e+00	0	42	0	1024458752	7	3819
2026-01-12 01:33:55.02	42.15	25.02	-23.0	-23.4	19.0	0.00e+00	0	42	0	1029701632	7	3794
2026-01-12 01:33:56.03	42.32	25.15	-23.0	-23.4	19.1	0.00e+00	0	42	0	1034944512	7	3783
2026-01-12 01:33:57.04	42.49	25.28	-22.7	-23.4	19.3	0.00e+00	0	42	0	1041235968	6	3883
2026-01-12 01:33:58.04	42.67	25.41	-22.7	-23.4	19.3	0.00e+00	0	42	0	1046478848	6	3878
2026-01-12 01:33:59.05	42.85	25.54	-22.7	-23.3	19.4	0.00e+00	0	42	0	1051721728	6	3857
2026-01-12 01:34:00.05	43.02	25.67	-22.7	-23.4	19.3	0.00e+00	0	42	0	1058013184	6	3889
2026-01-12 01:34:01.06	43.20	25.80	-22.6	-23.2	19.4	0.00e+00	0	42	0	1063256064	6	3848
2026-01-12 01:34:02.07	43.38	25.94	-22.7	-23.4	19.0	0.00e+00	0	42	0	1069547520	6	3905
2026-01-12 01:34:03.07	43.57	26.07	-22.6	-23.1	18.4	0.00e+00	0	42	0	1074790400	6	3830
2026-01-12 01:34:04.07	43.75	26.20	-22.5	-23.0	19.6	0.00e+00	0	42	0	1081081856	6	3792
2026-01-12 01:34:05.08	43.94	26.34	-22.6	-23.2	19.4	6.98e-05	0	42	0	1086324736	6	3842
2026-01-12 01:34:06.09	44.12	26.47	-22.5	-23.0	19.5	0.00e+00	0	42	0	1091567616	6	3797
2026-01-12 01:34:07.09	44.31	26.60	-22.8	-23.5	19.3	0.00e+00	0	42	0	1097859072	6	3914
2026-01-12 01:34:08.10	44.50	26.74	-22.7	-23.4	19.4	0.00e+00	0	42	0	1103101952	6	3882
2026-01-12 01:34:09.10	44.69	26.87	-22.9	-23.8	19.1	0.00e+00	0	42	0	1108344832	6	3980
2026-01-12 01:34:10.11	44.89	27.01	-22.7	-23.4	19.4	0.00e+00	0	42	0	1114636288	6	3884
2026-01-12 01:34:11.12	45.08	27.15	-22.5	-23.0	19.5	1.99e-04	0	42	0	1119879168	6	3792
2026-01-12 01:34:12.12	45.28	27.28	-22.5	-23.0	19.6	3.08e-04	0	42	0	1126170624	6	3791
2026-01-12 01:34:13.13	45.48	27.42	-22.5	-23.0	19.5	0.00e+00	0	42	0	1131413504	6	3800
2026-01-12 01:34:14.14	45.68	27.55	-22.4	-22.6	19.8	3.15e-04	0	42	0	1136656384	6	3718
2026-01-12 01:34:15.14	45.88	27.69	-22.3	-23.1	19.8	0.00e+00	0	42	0	1142947840	5	3923
2026-01-12 01:34:16.14	46.08	27.83	-22.4	-23.2	19.7	0.00e+00	0	42	0	1148190720	5	3960
2026-01-12 01:34:17.15	46.28	27.96	-22.3	-23.0	19.8	6.08e-04	0	42	0	1154482176	5	3896
2026-01-12 01:34:18.15	46.49	28.10	-22.3	-23.0	19.8	5.84e-04	0	42	0	1159725056	5	3896
2026-01-12 01:34:19.16	46.70	28.24	-22.4	-23.1	19.7	0.00e+00	0	42	0	1164967936	5	3936
2026-01-12 01:34:20.17	46.91	28.38	-22.3	-23.1	19.8	0.00e+00	0	42	0	1171259392	5	3933
2026-01-12 01:34:21.17	47.12	28.52	-22.3	-23.1	19.8	2.21e-04	0	42	0	1176502272	5	3929
2026-01-12 01:34:22.18	47.34	28.66	-22.4	-23.2	19.7	0.00e+00	0	42	0	1182793728	5	3951
2026-01-12 01:34:23.19	47.55	28.80	-22.4	-23.2	19.7	6.40e-05	0	42	0	1188036608	5	3953
2026-01-12 01:34:24.19	47.77	28.94	-22.4	-23.3	19.7	0.00e+00	0	42	0	1193279488	5	3974
2026-01-12 01:34:25.20	47.99	29.08	-22.3	-23.0	19.8	0.00e+00	0	42	0	1199570944	5	3907
2026-01-12 01:34:26.21	48.21	29.22	-22.3	-23.1	19.8	5.03e-05	0	42	0	1204813824	5	3918
2026-01-12 01:34:27.22	48.43	29.36	-22.4	-23.2	19.7	1.68e-04	0	42	0	1210056704	5	3954
2026-01-12 01:34:28.22	48.66	29.50	-22.2	-22.9	19.9	0.00e+00	0	42	0	1216348160	5	3875
2026-01-12 01:34:29.23	48.89	29.64	-22.6	-23.6	19.6	0.00e+00	0	42	0	1221591040	5	4036
2026-01-12 01:34:30.23	49.11	29.78	-22.3	-23.0	19.9	3.16e-04	0	42	0	1227882496	5	3902
2026-01-12 01:34:31.24	49.34	29.92	-22.2	-22.8	19.9	0.00e+00	0	42	0	1233125376	5	3865
2026-01-12 01:34:32.24	49.58	30.06	-22.2	-22.9	19.9	1.91e-04	0	42	0	1239416832	5	3869
2026-01-12 01:34:33.25	49.81	30.20	-22.1	-22.6	20.0	8.23e-05	0	42	0	1244659712	5	3809
2026-01-12 01:34:34.25	50.05	30.34	-22.1	-22.6	20.0	0.00e+00	0	42	0	1249902592	5	3814
2026-01-12 01:34:35.26	50.29	30.49	-22.2	-22.9	19.9	0.00e+00	0	42	0	1256194048	5	3873
2026-01-12 01:34:36.26	50.53	30.63	-22.3	-23.0	19.9	0.00e+00	0	42	0	1261436928	5	3906
2026-01-12 01:34:37.27	50.77	30.77	-22.6	-23.6	19.6	0.00e+00	0	42	0	1266679808	5	4036
2026-01-12 01:34:38.27	51.01	30.91	-22.4	-23.2	19.8	0.00e+00	0	42	0	1272971264	5	3962
2026-01-12 01:34:39.28	51.26	31.06	-22.3	-23.0	19.9	0.00e+00	0	42	0	1278214144	5	3893
2026-01-12 01:34:40.28	51.51	31.20	-22.3	-22.9	19.9	0.00e+00	0	42	0	1284505600	5	3893
2026-01-12 01:34:41.28	51.76	31.34	-22.4	-23.2	19.7	0.00e+00	0	42	0	1289748480	5	3954
2026-01-12 01:34:42.29	52.02	31.48	-22.3	-22.9	19.9	3.89e-05	0	42	0	1294991360	5	3881
2026-01-12 01:34:43.29	52.27	31.63	-22.3	-22.9	19.9	0.00e+00	0	42	0	1301282816	5	3886
2026-01-12 01:34:44.30	52.53	31.77	-22.3	-23.0	19.9	2.36e-04	0	42	0	1306525696	5	3893
2026-01-12 01:34:45.31	52.79	31.91	-22.3	-23.1	19.9	0.00e+00	0	42	0	1312817152	5	3920
2026-01-12 01:34:46.31	53.05	32.06	-22.2	-22.7	20.0	0.00e+00	0	42	0	1318060032	5	3840
2026-01-12 01:34:47.32	53.32	32.20	-22.1	-22.7	20.1	0.00e+00	0	42	0	1324351488	5	3831
2026-01-12 01:34:48.33	53.59	32.34	-22.1	-22.6	20.1	0.00e+00	0	42	0	1329594368	5	3808
2026-01-12 01:34:49.34	53.86	32.49	-22.1	-22.5	20.2	0.00e+00	0	42	0	1334837248	5	3783
2026-01-12 01:34:50.34	54.13	32.63	-22.0	-22.4	20.2	0.00e+00	0	42	0	1341128704	5	3767
2026-01-12 01:34:51.34	54.40	32.77	-22.0	-22.5	20.2	0.00e+00	0	42	0	1346371584	5	3778
2026-01-12 01:34:52.34	54.68	32.91	-22.0	-22.4	20.2	0.00e+00	0	42	0	1351614464	5	3770
2026-01-12 01:34:53.35	54.96	33.06	-22.1	-22.5	20.2	0.00e+00	0	42	0	1357905920	5	3790
2026-01-12 01:34:54.36	55.24	33.20	-22.1	-22.6	20.1	0.00e+00	0	42	0	1363148800	5	3815
2026-01-12 01:34:55.36	55.52	33.34	-22.2	-22.8	20.0	0.00e+00	0	42	0	1368391680	5	3855
2026-01-12 01:34:56.37	55.81	33.49	-22.3	-22.9	19.9	0.00e+00	0	42	0	1374683136	5	3887
2026-01-12 01:34:57.38	56.10	33.63	-22.3	-22.9	20.0	0.00e+00	0	42	0	1379926016	5	3884
2026-01-12 01:34:58.39	56.39	33.78	-22.1	-22.5	20.2	0.00e+00	0	42	0	1386217472	5	3790
2026-01-12 01:34:59.39	56.69	33.92	-22.0	-22.5	20.2	0.00e+00	0	42	0	1391460352	5	3780
2026-01-12 01:35:00.39	56.98	34.06	-22.0	-22.4	20.2	0.00e+00	0	42	0	1397751808	5	3767
2026-01-12 01:35:01.40	57.28	34.20	-21.9	-22.1	20.4	0.00e+00	0	42	0	1402994688	5	3691
2026-01-12 01:35:02.41	57.58	34.34	-21.9	-22.1	20.4	0.00e+00	0	42	0	1408237568	5	3702
2026-01-12 01:35:03.42	57.89	34.49	-22.1	-22.5	20.2	0.00e+00	0	42	0	1414529024	5	3786
2026-01-12 01:35:04.42	58.20	34.63	-22.2	-22.8	20.1	0.00e+00	0	42	0	1419771904	5	3850
2026-01-12 01:35:05.43	58.51	34.77	-22.3	-22.9	20.0	0.00e+00	0	42	0	1426063360	5	3891
2026-01-12 01:35:06.44	58.82	34.91	-22.1	-22.6	20.1	0.00e+00	0	42	0	1431306240	5	3826
2026-01-12 01:35:07.45	59.14	35.05	-22.2	-22.7	20.1	0.00e+00	0	42	0	1436549120	5	3842
2026-01-12 01:35:08.45	59.45	35.19	-22.1	-22.6	20.1	0.00e+00	0	42	0	1442840576	5	3812
2026-01-12 01:35:09.46	59.77	35.33	-22.0	-22.4	20.2	0.00e+00	0	42	0	1448083456	5	3762
2026-01-12 01:35:10.46	60.10	35.47	-21.9	-22.3	20.3	0.00e+00	0	42	0	1453326336	5	3739
2026-01-12 01:35:11.47	60.42	35.61	-21.9	-22.7	20.4	0.00e+00	0	42	0	1459617792	4	3932
2026-01-12 01:35:12.48	60.75	35.75	-22.0	-22.8	20.3	0.00e+00	0	42	0	1464860672	4	3971
2026-01-12 01:35:13.49	61.09	35.89	-22.0	-23.0	20.2	0.00e+00	0	42	0	1471152128	4	4004
2026-01-12 01:35:14.49	61.42	36.03	-22.0	-22.9	20.2	0.00e+00	0	42	0	1476395008	4	3997
2026-01-12 01:35:15.50	61.76	36.17	-22.0	-22.9	20.3	0.00e+00	0	42	0	1482686464	4	3982
2026-01-12 01:35:16.50	62.09	36.30	-22.1	-23.1	20.1	0.00e+00	0	42	0	1487929344	4	4040
2026-01-12 01:35:17.50	62.44	36.44	-22.2	-23.2	20.1	0.00e+00	0	42	0	1493172224	4	4062
2026-01-12 01:35:18.51	62.78	36.57	-22.0	-22.9	20.3	0.00e+00	0	42	0	1499463680	4	3979
2026-01-12 01:35:19.52	63.13	36.71	-22.2	-23.2	20.1	1.10e-06	0	42	0	1504706560	4	4060
2026-01-12 01:35:20.52	63.48	36.84	-22.0	-22.9	20.2	0.00e+00	0	42	0	1509949440	4	4000
2026-01-12 01:35:21.52	63.83	36.98	-21.9	-22.6	20.4	0.00e+00	0	42	0	1516240896	4	3923
2026-01-12 01:35:22.52	64.19	37.11	-22.0	-22.8	20.3	0.00e+00	0	42	0	1521483776	4	3958
2026-01-12 01:35:23.53	64.55	37.24	-21.9	-22.7	20.3	0.00e+00	0	42	0	1527775232	4	3951
2026-01-12 01:35:24.54	64.91	37.38	-22.0	-22.9	20.3	0.00e+00	0	42	0	1533018112	4	3987
2026-01-12 01:35:25.55	65.28	37.51	-22.2	-23.4	19.8	0.00e+00	0	42	0	1539309568	4	4095
2026-01-12 01:35:26.55	65.65	37.64	-22.5	-23.3	19.2	0.00e+00	0	42	0	1544552448	5	3987
2026-01-12 01:35:27.56	66.02	37.77	-22.2	-22.8	20.0	0.00e+00	0	42	0	1549795328	5	3856
2026-01-12 01:35:28.56	66.39	37.90	-21.9	-22.2	20.3	0.00e+00	0	42	0	1556086784	5	3718
2026-01-12 01:35:29.57	66.77	38.03	-21.9	-22.2	20.3	0.00e+00	0	42	0	1561329664	5	3727
2026-01-12 01:35:30.58	67.16	38.15	-22.1	-22.6	20.2	0.00e+00	0	42	0	1567621120	5	3801
2026-01-12 01:35:31.59	67.54	38.28	-22.0	-22.4	20.3	1.73e-04	0	42	0	1572864000	5	3759
2026-01-12 01:35:32.59	67.92	38.40	-21.8	-22.5	20.5	0.00e+00	0	42	0	1578106880	4	3886
2026-01-12 01:35:33.59	68.31	38.53	-21.7	-22.3	20.6	0.00e+00	0	42	0	1584398336	4	3857
2026-01-12 01:35:34.59	68.70	38.65	-21.9	-22.6	20.4	0.00e+00	0	42	0	1589641216	4	3913
2026-01-12 01:35:35.60	69.10	38.77	-22.0	-22.8	20.3	0.00e+00	0	42	0	1594884096	4	3976
2026-01-12 01:35:36.61	69.50	38.90	-22.0	-22.9	20.1	0.00e+00	0	42	0	1601175552	4	4001
2026-01-12 01:35:37.61	69.90	39.02	-22.0	-23.0	20.0	0.00e+00	0	42	0	1606418432	4	4040
2026-01-12 01:35:38.62	70.30	39.13	-22.0	-23.0	20.0	9.10e-06	0	42	0	1612709888	4	4037
2026-01-12 01:35:39.63	70.71	39.25	-21.8	-22.6	20.2	0.00e+00	0	42	0	1617952768	4	3932
2026-01-12 01:35:40.64	71.12	39.37	-21.8	-22.5	20.3	3.66e-05	0	42	0	1624244224	4	3919
2026-01-12 01:35:41.65	71.54	39.49	-22.1	-23.1	20.0	0.00e+00	0	42	0	1629487104	4	4064
2026-01-12 01:35:42.66	71.95	39.60	-22.2	-23.3	19.8	0.00e+00	0	42	0	1634729984	4	4109
2026-01-12 01:35:43.67	72.37	39.71	-22.3	-23.5	19.8	0.00e+00	0	42	0	1641021440	4	4164
2026-01-12 01:35:44.68	72.80	39.83	-22.1	-23.2	19.9	0.00e+00	0	42	0	1646264320	4	4078
2026-01-12 01:35:45.68	73.22	39.94	-21.9	-22.8	20.1	0.00e+00	0	42	0	1652555776	4	3970
2026-01-12 01:35:46.69	73.65	40.04	-21.8	-22.5	20.2	0.00e+00	0	42	0	1657798656	4	3909
2026-01-12 01:35:47.69	74.08	40.15	-21.7	-22.2	20.4	4.50e-06	0	42	0	1663041536	4	3848
2026-01-12 01:35:48.70	74.51	40.26	-21.8	-22.5	20.3	0.00e+00	0	42	0	1669332992	4	3913
2026-01-12 01:35:49.71	74.95	40.36	-21.7	-22.3	20.4	1.40e-04	0	42	0	1674575872	4	3869
2026-01-12 01:35:50.72	75.39	40.47	-21.8	-22.5	20.3	1.20e-04	0	42	0	1679818752	4	3908
2026-01-12 01:35:51.72	75.83	40.57	-22.0	-22.9	20.1	0.00e+00	0	42	0	1686110208	4	4003
2026-01-12 01:35:52.72	76.27	40.67	-22.0	-23.0	20.0	4.80e-05	0	42	0	1691353088	4	4038
2026-01-12 01:35:53.72	76.71	40.76	-22.1	-23.2	19.9	0.00e+00	0	42	0	1697644544	4	4078
2026-01-12 01:35:54.73	77.16	40.86	-22.1	-23.1	20.0	0.00e+00	0	42	0	1702887424	4	4057
2026-01-12 01:35:55.74	77.62	40.96	-22.0	-22.9	20.1	0.00e+00	0	42	0	1709178880	4	4003
2026-01-12 01:35:56.74	78.07	41.05	-22.0	-23.0	20.1	1.60e-04	0	42	0	1714421760	4	4014
2026-01-12 01:35:57.75	78.53	41.14	-21.9	-22.8	20.1	0.00e+00	0	42	0	1719664640	4	3988
2026-01-12 01:35:58.76	78.99	41.23	-21.9	-22.7	20.2	1.45e-04	0	42	0	1725956096	4	3946
2026-01-12 01:35:59.77	79.45	41.32	-21.9	-22.8	20.1	1.51e-04	0	42	0	1731198976	4	3982
2026-01-12 01:36:00.78	79.92	41.40	-22.0	-23.0	20.0	0.00e+00	0	42	0	1737490432	4	4027
2026-01-12 01:36:01.79	80.39	41.49	-22.1	-23.1	20.0	1.44e-04	0	42	0	1742733312	4	4046
2026-01-12 01:36:02.80	80.86	41.57	-22.2	-23.3	19.9	0.00e+00	0	42	0	1747976192	4	4098
2026-01-12 01:36:03.80	81.33	41.65	-22.0	-22.9	20.1	0.00e+00	0	42	0	1754267648	4	3995
2026-01-12 01:36:04.80	81.80	41.73	-21.8	-22.5	20.3	0.00e+00	0	42	0	1759510528	4	3897
2026-01-12 01:36:05.80	82.27	41.80	-21.8	-22.6	20.3	0.00e+00	0	42	0	1764753408	4	3925
2026-01-12 01:36:06.80	82.75	41.88	-21.9	-22.7	20.2	0.00e+00	0	42	0	1771044864	4	3953
2026-01-12 01:36:07.81	83.23	41.95	-21.8	-22.5	20.3	0.00e+00	0	42	0	1776287744	4	3907
2026-01-12 01:36:08.81	83.71	42.02	-21.8	-22.5	20.3	3.78e-04	0	42	0	1782579200	4	3909
2026-01-12 01:36:09.81	84.20	42.09	-22.0	-23.0	20.1	0.00e+00	0	42	0	1787822080	4	4030
2026-01-12 01:36:10.82	84.68	42.15	-22.4	-23.8	19.7	0.00e+00	0	42	0	1794113536	4	4224
2026-01-12 01:36:11.83	85.18	42.22	-22.5	-23.9	19.6	0.00e+00	0	42	0	1799356416	4	4259
2026-01-12 01:36:12.84	85.67	42.28	-22.7	-23.8	19.4	0.00e+00	0	42	0	1804599296	5	4118
2026-01-12 01:36:13.84	86.16	42.34	-22.9	-24.3	19.2	0.00e+00	0	42	0	1810890752	5	4227
2026-01-12 01:36:14.85	86.65	42.39	-22.6	-23.6	19.5	0.00e+00	0	42	0	1816133632	5	4070
2026-01-12 01:36:15.85	87.15	42.45	-22.3	-23.0	19.9	0.00e+00	0	42	0	1821376512	5	3926
2026-01-12 01:36:16.86	87.65	42.50	-22.2	-23.0	19.9	0.00e+00	0	42	0	1827667968	5	3907
2026-01-12 01:36:17.87	88.15	42.55	-22.3	-23.0	19.8	0.00e+00	0	42	0	1832910848	5	3928
2026-01-12 01:36:18.87	88.65	42.60	-22.2	-22.9	19.9	0.00e+00	0	42	0	1839202304	5	3894
2026-01-12 01:36:19.88	89.15	42.64	-22.5	-23.4	19.7	0.00e+00	0	42	0	1844445184	5	4013
2026-01-12 01:36:20.88	89.65	42.69	-22.2	-22.8	20.0	0.00e+00	0	42	0	1849688064	5	3864
2026-01-12 01:36:21.89	90.16	42.73	-22.0	-22.4	20.1	0.00e+00	0	42	0	1855979520	5	3782
2026-01-12 01:36:22.89	90.66	42.77	-21.9	-22.3	20.2	0.00e+00	0	42	0	1861222400	5	3756
2026-01-12 01:36:23.90	91.17	42.80	-22.1	-22.6	20.0	0.00e+00	0	42	0	1867513856	5	3834
2026-01-12 01:36:24.91	91.68	42.84	-22.0	-22.5	20.1	0.00e+00	0	42	0	1872756736	5	3811
2026-01-12 01:36:25.91	92.19	42.87	-22.2	-22.8	19.9	0.00e+00	0	42	0	1877999616	5	3875
2026-01-12 01:36:26.92	92.70	42.90	-22.1	-22.7	20.0	0.00e+00	0	42	0	1884291072	5	3852
2026-01-12 01:36:27.92	93.21	42.92	-22.1	-22.7	20.0	0.00e+00	0	42	0	1889533952	5	3851
2026-01-12 01:36:28.93	93.72	42.95	-22.3	-23.0	19.8	0.00e+00	0	42	0	1895825408	5	3923
2026-01-12 01:36:29.93	94.23	42.97	-22.2	-22.8	19.9	0.00e+00	0	42	0	1901068288	5	3882
2026-01-12 01:36:30.94	94.75	42.99	-22.2	-22.8	20.0	0.00e+00	0	42	0	1906311168	5	3873
2026-01-12 01:36:31.94	95.26	43.00	-22.2	-22.8	20.0	0.00e+00	0	42	0	1912602624	5	3867
2026-01-12 01:36:32.95	95.78	43.02	-22.1	-22.6	20.1	0.00e+00	0	42	0	1917845504	5	3827
2026-01-12 01:36:33.95	96.29	43.03	-22.2	-22.8	20.0	0.00e+00	0	42	0	1923088384	5	3863
2026-01-12 01:36:34.96	96.81	43.03	-22.1	-22.7	20.0	0.00e+00	0	42	0	1929379840	5	3848
2026-01-12 01:36:35.96	97.32	43.04	-22.3	-23.1	19.8	0.00e+00	0	42	0	1934622720	5	3949
2026-01-12 01:36:36.97	97.84	43.04	-22.2	-22.9	19.9	0.00e+00	0	42	0	1940914176	5	3905
2026-01-12 01:36:37.97	98.35	43.05	-22.1	-22.7	20.0	0.00e+00	0	42	0	1946157056	5	3859
2026-01-12 01:36:38.98	98.87	43.04	-22.2	-22.9	19.9	0.00e+00	0	42	0	1952448512	5	3898
2026-01-12 01:36:39.99	99.39	43.04	-22.1	-22.6	20.1	0.00e+00	0	42	0	1957691392	5	3823
2026-01-12 01:36:41.00	99.91	43.03	-22.2	-22.9	19.9	0.00e+00	0	42	0	1962934272	5	3892
2026-01-12 01:36:42.01	100.42	43.02	-22.2	-22.9	19.9	0.00e+00	0	42	0	1969225728	5	3886
2026-01-12 01:36:43.01	100.93	43.01	-22.5	-23.5	19.6	0.00e+00	0	42	0	1974468608	5	4027
2026-01-12 01:36:44.02	101.45	43.00	-22.3	-23.1	19.8	0.00e+00	0	42	0	1980760064	5	3944
2026-01-12 01:36:45.03	101.97	42.98	-22.2	-22.8	20.0	0.00e+00	0	42	0	1986002944	5	3863
2026-01-12 01:36:46.03	102.48	42.96	-22.2	-22.8	19.8	0.00e+00	0	42	0	1991245824	5	3876
2026-01-12 01:36:47.04	102.99	42.94	-22.2	-22.9	19.9	0.00e+00	0	42	0	1997537280	5	3883
2026-01-12 01:36:48.04	103.50	42.92	-22.2	-22.9	19.9	0.00e+00	0	42	0	2002780160	5	3898
2026-01-12 01:36:49.05	104.02	42.89	-22.3	-23.1	19.8	0.00e+00	0	42	0	2008023040	5	3929
2026-01-12 01:36:50.06	104.53	42.86	-22.2	-22.9	19.9	0.00e+00	0	42	0	2014314496	5	3890
2026-01-12 01:36:51.07	105.04	42.83	-22.2	-22.9	19.9	0.00e+00	0	42	0	2019557376	5	3899
2026-01-12 01:36:52.07	105.55	42.79	-22.2	-22.9	19.9	0.00e+00	0	42	0	2025848832	5	3892
2026-01-12 01:36:53.07	106.05	42.76	-22.3	-23.1	19.8	0.00e+00	0	42	0	2031091712	5	3946
2026-01-12 01:36:54.08	106.56	42.72	-22.3	-23.1	19.8	0.00e+00	0	42	0	2037383168	5	3953
2026-01-12 01:36:55.08	107.06	42.68	-22.5	-23.5	19.6	0.00e+00	0	42	0	2042626048	5	4035
2026-01-12 01:36:56.09	107.57	42.63	-22.5	-23.4	19.7	0.00e+00	0	42	0	2047868928	5	4017
2026-01-12 01:36:57.11	108.08	42.59	-22.5	-23.4	19.7	0.00e+00	0	42	0	2054160384	5	4022
2026-01-12 01:36:58.11	108.58	42.54	-22.5	-23.6	19.6	0.00e+00	0	42	0	2059403264	5	4054
2026-01-12 01:36:59.12	109.08	42.49	-22.9	-24.3	19.2	0.00e+00	0	42	0	2065694720	5	4243
2026-01-12 01:37:00.13	109.58	42.43	-22.6	-23.7	19.5	0.00e+00	0	42	0	2070937600	5	4078
2026-01-12 01:37:01.13	110.07	42.38	-22.6	-23.7	19.5	0.00e+00	0	42	0	2076180480	5	4096
2026-01-12 01:37:02.14	110.57	42.32	-22.6	-23.7	19.5	0.00e+00	0	42	0	2082471936	5	4090
2026-01-12 01:37:03.14	111.06	42.26	-22.6	-23.6	19.6	0.00e+00	0	42	0	2087714816	5	4067
2026-01-12 01:37:04.15	111.55	42.20	-22.9	-24.4	19.2	0.00e+00	0	42	0	2092957696	5	4258
2026-01-12 01:37:05.15	112.04	42.14	-22.7	-23.9	19.4	0.00e+00	0	42	0	2099249152	5	4132
2026-01-12 01:37:06.16	112.53	42.07	-22.5	-23.6	19.5	0.00e+00	0	42	0	2104492032	5	4064
2026-01-12 01:37:07.17	113.01	42.00	-22.5	-23.5	19.6	0.00e+00	0	42	0	2110783488	5	4044
2026-01-12 01:37:08.17	113.49	41.93	-22.4	-23.4	19.7	1.60e-05	0	42	0	2116026368	5	3997
2026-01-12 01:37:09.18	113.98	41.86	-22.2	-22.8	20.0	0.00e+00	0	42	0	2122317824	5	3866
2026-01-12 01:37:10.19	114.46	41.78	-22.0	-22.5	20.1	1.77e-04	0	42	0	2127560704	5	3809
2026-01-12 01:37:11.19	114.93	41.70	-22.0	-22.5	20.1	2.39e-04	0	42	0	2132803584	5	3799
2026-01-12 01:37:12.20	115.41	41.63	-22.0	-22.4	20.1	0.00e+00	0	42	0	2139095040	5	3787
2026-01-12 01:37:13.21	115.88	41.54	-22.2	-22.8	19.9	0.00e+00	0	42	0	2144337920	5	3873
2026-01-12 01:37:14.21	116.35	41.46	-22.2	-22.9	19.9	4.46e-05	0	42	0	2149580800	5	3885
2026-01-12 01:37:15.22	116.82	41.38	-22.3	-23.1	19.8	1.10e-06	0	42	0	2155872256	5	3949
2026-01-12 01:37:16.22	117.28	41.29	-22.4	-23.2	19.7	0.00e+00	0	42	0	2161115136	5	3965
2026-01-12 01:37:17.22	117.74	41.20	-22.3	-23.2	19.7	0.00e+00	0	42	0	2167406592	5	3957
2026-01-12 01:37:18.23	118.20	41.11	-22.3	-23.1	19.7	1.10e-06	0	42	0	2172649472	5	3951
2026-01-12 01:37:19.24	118.66	41.02	-22.2	-22.9	19.9	0.00e+00	0	42	0	2177892352	5	3885
2026-01-12 01:37:20.23	119.11	40.93	-22.3	-23.2	19.7	0.00e+00	0	42	0	2184183808	5	3967
2026-01-12 01:37:21.24	119.56	40.83	-22.6	-23.7	19.5	1.10e-06	0	42	0	2189426688	5	4092
2026-01-12 01:37:22.25	120.01	40.73	-22.4	-23.2	19.7	0.00e+00	0	42	0	2195718144	5	3979
2026-01-12 01:37:23.25	120.46	40.64	-22.5	-23.5	19.6	0.00e+00	0	42	0	2200961024	5	4040
2026-01-12 01:37:24.26	120.90	40.53	-22.6	-23.7	19.5	0.00e+00	0	42	0	2206203904	5	4091
2026-01-12 01:37:25.27	121.35	40.43	-22.3	-23.1	19.8	0.00e+00	0	42	0	2212495360	5	3943
2026-01-12 01:37:26.27	121.78	40.33	-22.1	-22.6	20.0	0.00e+00	0	42	0	2217738240	5	3829
2026-01-12 01:37:27.28	122.22	40.22	-22.0	-22.4	20.1	0.00e+00	0	42	0	2224029696	5	3776
2026-01-12 01:37:28.28	122.65	40.12	-22.1	-22.6	20.1	0.00e+00	0	42	0	2229272576	5	3819
2026-01-12 01:37:29.29	123.08	40.01	-22.2	-22.9	19.9	0.00e+00	0	42	0	2234515456	5	3890
2026-01-12 01:37:30.30	123.51	39.90	-22.1	-22.8	19.9	0.00e+00	0	42	0	2240806912	5	3868
2026-01-12 01:37:31.31	123.94	39.79	-21.9	-22.3	20.1	0.00e+00	0	42	0	2246049792	5	3761
2026-01-12 01:37:32.32	124.36	39.67	-21.9	-22.2	20.2	0.00e+00	0	42	0	2251292672	5	3741
2026-01-12 01:37:33.32	124.78	39.56	-22.1	-22.6	20.0	0.00e+00	0	42	0	2257584128	5	3818
2026-01-12 01:37:34.32	125.19	39.45	-22.1	-22.6	20.0	0.00e+00	0	42	0	2262827008	5	3836
2026-01-12 01:37:35.34	125.61	39.33	-22.3	-23.0	19.8	0.00e+00	0	42	0	2269118464	5	3917
2026-01-12 01:37:36.34	126.02	39.21	-22.0	-22.4	20.1	0.00e+00	0	42	0	2274361344	5	3783
2026-01-12 01:37:37.35	126.43	39.09	-21.9	-22.3	20.2	0.00e+00	0	42	0	2280652800	5	3752
2026-01-12 01:37:38.36	126.83	38.97	-22.0	-22.5	20.1	0.00e+00	0	42	0	2285895680	5	3807
2026-01-12 01:37:39.36	127.23	38.85	-22.1	-22.6	20.0	0.00e+00	0	42	0	2291138560	5	3820
2026-01-12 01:37:40.37	127.63	38.73	-22.1	-22.6	20.0	0.00e+00	0	42	0	2297430016	5	3834
2026-01-12 01:37:41.37	128.03	38.61	-21.8	-22.1	20.2	0.00e+00	0	42	0	2302672896	5	3711
2026-01-12 01:37:42.37	128.42	38.48	-21.8	-22.4	20.3	0.00e+00	0	42	0	2308964352	4	3877
2026-01-12 01:37:43.38	128.81	38.36	-21.7	-22.3	20.4	0.00e+00	0	42	0	2314207232	4	3862
2026-01-12 01:37:44.38	129.19	38.23	-21.7	-22.3	20.4	0.00e+00	0	42	0	2319450112	4	3870
2026-01-12 01:37:45.39	129.58	38.11	-21.8	-22.6	20.2	0.00e+00	0	42	0	2325741568	4	3947
2026-01-12 01:37:46.39	129.96	37.98	-22.0	-23.0	20.0	0.00e+00	0	42	0	2330984448	4	4037
2026-01-12 01:37:47.38	130.33	37.85	-22.0	-22.9	20.1	0.00e+00	0	42	0	2336227328	4	4019
2026-01-12 01:37:48.40	130.71	37.72	-22.0	-22.9	20.1	0.00e+00	0	42	0	2342518784	4	4015
2026-01-12 01:37:49.40	131.08	37.59	-22.0	-22.9	20.1	0.00e+00	0	42	0	2347761664	4	4016
2026-01-12 01:37:50.41	131.45	37.46	-22.0	-22.9	20.1	0.00e+00	0	42	0	2354053120	4	4015
2026-01-12 01:37:51.41	131.81	37.33	-22.1	-23.2	19.9	0.00e+00	0	42	0	2359296000	4	4090
2026-01-12 01:37:52.41	132.17	37.19	-22.2	-23.3	19.9	0.00e+00	0	42	0	2364538880	4	4110
2026-01-12 01:37:53.42	132.54	37.06	-22.1	-23.3	19.9	0.00e+00	0	42	0	2370830336	4	4103
2026-01-12 01:37:54.42	132.89	36.93	-22.1	-23.3	19.9	0.00e+00	0	42	0	2376073216	4	4094
2026-01-12 01:37:55.43	133.25	36.79	-22.0	-22.9	20.1	0.00e+00	0	42	0	2382364672	4	4021
2026-01-12 01:37:56.44	133.60	36.65	-22.0	-23.0	20.1	0.00e+00	0	42	0	2387607552	4	4021
2026-01-12 01:37:57.44	133.95	36.52	-22.1	-23.2	19.9	0.00e+00	0	42	0	2392850432	4	4078
2026-01-12 01:37:58.45	134.29	36.38	-22.1	-23.2	20.0	0.00e+00	0	42	0	2399141888	4	4072
2026-01-12 01:37:59.46	134.64	36.24	-22.0	-23.1	20.0	0.00e+00	0	42	0	2404384768	4	4046
2026-01-12 01:38:00.47	134.98	36.11	-22.1	-23.1	20.0	0.00e+00	0	42	0	2409627648	4	4050
2026-01-12 01:38:01.48	135.32	35.97	-22.0	-23.1	20.0	0.00e+00	0	42	0	2415919104	4	4052
2026-01-12 01:38:02.48	135.65	35.83	-22.0	-22.9	20.1	0.00e+00	0	42	0	2421161984	4	4012
2026-01-12 01:38:03.49	135.99	35.69	-22.0	-23.0	20.0	0.00e+00	0	42	0	2427453440	4	4041
2026-01-12 01:38:04.49	136.31	35.55	-22.0	-23.0	20.0	0.00e+00	0	42	0	2432696320	4	4028
2026-01-12 01:38:05.50	136.64	35.41	-22.1	-23.1	19.9	0.00e+00	0	42	0	2438987776	4	4064
2026-01-12 01:38:06.50	136.96	35.27	-22.2	-23.4	19.8	0.00e+00	0	42	0	2444230656	4	4122
2026-01-12 01:38:07.51	137.28	35.13	-22.3	-23.6	19.7	0.00e+00	0	42	0	2449473536	4	4174
2026-01-12 01:38:08.51	137.60	34.99	-22.3	-23.6	19.7	0.00e+00	0	42	0	2455764992	4	4193
2026-01-12 01:38:09.51	137.91	34.85	-22.4	-23.8	19.6	0.00e+00	0	42	0	2461007872	4	4240
2026-01-12 01:38:10.52	138.23	34.70	-22.4	-23.9	19.6	0.00e+00	0	42	0	2467299328	4	4250
2026-01-12 01:38:11.53	138.54	34.56	-22.3	-23.6	19.7	0.00e+00	0	42	0	2472542208	4	4180
2026-01-12 01:38:12.54	138.85	34.42	-22.4	-23.8	19.6	0.00e+00	0	42	0	2477785088	4	4234
2026-01-12 01:38:13.55	139.15	34.27	-22.5	-23.5	19.5	0.00e+00	0	42	0	2484076544	5	4028
2026-01-12 01:38:14.55	139.45	34.13	-22.2	-22.8	19.8	0.00e+00	0	42	0	2489319424	5	3873
2026-01-12 01:38:15.56	139.75	33.99	-22.1	-22.8	19.9	3.03e-04	0	42	0	2494562304	5	3864
2026-01-12 01:38:16.57	140.05	33.84	-22.2	-22.8	19.8	0.00e+00	0	42	0	2500853760	5	3885
2026-01-12 01:38:17.57	140.34	33.70	-22.2	-22.9	19.8	0.00e+00	0	42	0	2506096640	5	3909
2026-01-12 01:38:18.57	140.63	33.56	-22.2	-22.8	19.8	0.00e+00	0	42	0	2512388096	5	3879
2026-01-12 01:38:19.58	140.92	33.41	-22.1	-23.1	19.9	5.89e-04	0	42	0	2517630976	4	4066
2026-01-12 01:38:20.59	141.21	33.27	-22.0	-23.0	20.0	0.00e+00	0	42	0	2523922432	4	4031
2026-01-12 01:38:21.60	141.50	33.12	-22.1	-23.2	19.9	0.00e+00	0	42	0	2529165312	4	4073
2026-01-12 01:38:22.60	141.78	32.98	-22.1	-23.2	19.8	5.24e-04	0	42	0	2534408192	4	4087
2026-01-12 01:38:23.61	142.06	32.84	-22.3	-23.6	19.7	0.00e+00	0	42	0	2540699648	4	4182
2026-01-12 01:38:24.62	142.34	32.69	-22.3	-23.7	19.6	3.86e-04	0	42	0	2545942528	4	4208
2026-01-12 01:38:25.63	142.61	32.55	-22.4	-23.8	19.6	0.00e+00	0	42	0	2552233984	4	4229
2026-01-12 01:38:26.64	142.89	32.40	-22.4	-23.8	19.6	0.00e+00	0	42	0	2557476864	4	4229
2026-01-12 01:38:27.64	143.15	32.26	-22.5	-24.0	19.5	6.66e-04	0	42	0	2562719744	4	4274
2026-01-12 01:38:28.65	143.42	32.11	-22.7	-23.9	19.3	5.88e-04	0	42	0	2569011200	5	4147
2026-01-12 01:38:29.66	143.69	31.97	-22.5	-23.6	19.4	0.00e+00	0	42	0	2574254080	5	4061
2026-01-12 01:38:30.67	143.95	31.82	-22.4	-23.3	19.6	6.34e-04	0	42	0	2580545536	5	3985
2026-01-12 01:38:31.68	144.21	31.68	-22.6	-23.7	19.4	7.85e-04	0	42	0	2585788416	5	4087
2026-01-12 01:38:32.69	144.47	31.54	-22.6	-23.8	19.3	0.00e+00	0	42	0	2591031296	5	4117
2026-01-12 01:38:33.69	144.73	31.39	-22.6	-23.8	19.3	1.06e-03	0	42	0	2597322752	5	4112
2026-01-12 01:38:34.71	144.99	31.25	-22.8	-24.1	19.2	1.04e-03	0	42	0	2602565632	5	4198
2026-01-12 01:38:35.72	145.24	31.10	-22.7	-23.9	19.2	0.00e+00	0	42	0	2608857088	5	4156
2026-01-12 01:38:36.72	145.49	30.96	-22.8	-24.2	19.1	1.01e-03	0	42	0	2614099968	5	4209
2026-01-12 01:38:37.73	145.73	30.82	-22.7	-23.9	19.3	1.66e-04	0	42	0	2620391424	5	4131
2026-01-12 01:38:38.74	145.98	30.67	-22.6	-23.8	19.3	0.00e+00	0	42	0	2625634304	5	4113
2026-01-12 01:38:39.74	146.22	30.53	-22.6	-23.8	19.3	0.00e+00	0	42	0	2630877184	5	4107
2026-01-12 01:38:40.75	146.46	30.39	-22.7	-23.8	19.3	9.27e-04	0	42	0	2637168640	5	4119
2026-01-12 01:38:41.76	146.70	30.24	-22.8	-24.2	19.1	0.00e+00	0	42	0	2642411520	5	4220
2026-01-12 01:38:42.77	146.94	30.10	-22.8	-24.2	19.1	9.77e-04	0	42	0	2648702976	5	4216
2026-01-12 01:38:43.78	147.18	29.96	-22.8	-24.1	19.1	0.00e+00	0	42	0	2653945856	5	4179
2026-01-12 01:38:44.79	147.41	29.81	-22.7	-24.0	19.2	0.00e+00	0	42	0	2659188736	5	4179
2026-01-12 01:38:45.79	147.64	29.67	-22.7	-24.0	19.2	1.03e-03	0	42	0	2665480192	5	4174
2026-01-12 01:38:46.80	147.87	29.53	-22.8	-24.2	19.1	0.00e+00	0	42	0	2670723072	5	4229
2026-01-12 01:38:47.80	148.10	29.39	-22.6	-23.8	19.3	0.00e+00	0	42	0	2675965952	5	4119
2026-01-12 01:38:48.81	148.32	29.25	-22.5	-23.6	19.4	0.00e+00	0	42	0	2682257408	5	4064
2026-01-12 01:38:49.81	148.54	29.11	-22.5	-23.6	19.4	0.00e+00	0	42	0	2687500288	5	4059
2026-01-12 01:38:50.82	148.76	28.96	-22.3	-23.2	19.6	0.00e+00	0	42	0	2693791744	5	3963
2026-01-12 01:38:51.83	148.98	28.82	-22.3	-23.1	19.6	0.00e+00	0	42	0	2699034624	5	3934
2026-01-12 01:38:52.83	149.20	28.68	-22.4	-23.3	19.5	0.00e+00	0	42	0	2705326080	5	3994
2026-01-12 01:38:53.84	149.42	28.54	-22.3	-23.1	19.6	0.00e+00	0	42	0	2710568960	5	3950
2026-01-12 01:38:54.84	149.63	28.40	-22.3	-23.2	19.6	0.00e+00	0	42	0	2715811840	5	3960
2026-01-12 01:38:55.84	149.84	28.27	-22.5	-23.4	19.5	0.00e+00	0	42	0	2722103296	5	4019
2026-01-12 01:38:56.85	150.05	28.13	-22.5	-23.5	19.4	0.00e+00	0	42	0	2727346176	5	4050
2026-01-12 01:38:57.86	150.26	27.99	-22.6	-23.7	19.3	0.00e+00	0	42	0	2732589056	5	4093
2026-01-12 01:38:58.87	150.47	27.85	-22.6	-23.7	19.3	0.00e+00	0	42	0	2738880512	5	4081
2026-01-12 01:38:59.87	150.67	27.71	-22.6	-23.8	19.3	0.00e+00	0	42	0	2744123392	5	4107
2026-01-12 01:39:00.88	150.87	27.57	-22.6	-23.8	19.3	0.00e+00	0	42	0	2750414848	5	4120
2026-01-12 01:39:01.89	151.08	27.43	-22.9	-24.3	19.0	0.00e+00	0	42	0	2755657728	5	4254
2026-01-12 01:39:02.89	151.27	27.30	-22.8	-24.1	19.1	0.00e+00	0	42	0	2760900608	5	4192
2026-01-12 01:39:03.90	151.47	27.16	-22.7	-23.9	19.2	0.00e+00	0	42	0	2767192064	5	4138
2026-01-12 01:39:04.91	151.67	27.02	-22.7	-23.9	19.2	0.00e+00	0	42	0	2772434944	5	4147
2026-01-12 01:39:05.92	151.87	26.88	-22.8	-24.1	19.1	0.00e+00	0	42	0	2778726400	5	4186
2026-01-12 01:39:06.92	152.06	26.75	-22.8	-24.2	19.0	0.00e+00	0	42	0	2783969280	5	4222
2026-01-12 01:39:07.93	152.25	26.61	-22.9	-24.3	19.0	0.00e+00	0	42	0	2790260736	5	4245
2026-01-12 01:39:08.93	152.44	26.48	-23.1	-24.2	18.8	0.00e+00	0	42	0	2795503616	6	4115
2026-01-12 01:39:09.94	152.63	26.34	-23.3	-24.7	18.5	0.00e+00	0	42	0	2800746496	6	4240
2026-01-12 01:39:10.95	152.81	26.21	-23.1	-24.3	18.7	0.00e+00	0	42	0	2807037952	6	4127
2026-01-12 01:39:11.96	153.00	26.07	-22.9	-23.9	18.9	0.00e+00	0	42	0	2812280832	6	4025
2026-01-12 01:39:12.96	153.18	25.94	-22.8	-23.7	19.0	0.00e+00	0	42	0	2817523712	6	3990
2026-01-12 01:39:13.97	153.37	25.81	-22.9	-23.8	19.0	0.00e+00	0	42	0	2823815168	6	3993
2026-01-12 01:39:14.98	153.55	25.67	-22.8	-23.5	19.1	0.00e+00	0	42	0	2829058048	6	3940
2026-01-12 01:39:15.98	153.73	25.54	-22.8	-23.7	19.0	0.00e+00	0	42	0	2835349504	6	3978
2026-01-12 01:39:16.99	153.90	25.41	-22.7	-23.3	19.2	0.00e+00	0	42	0	2840592384	6	3886
2026-01-12 01:39:17.99	154.08	25.28	-22.7	-23.5	19.1	0.00e+00	0	42	0	2845835264	6	3922
2026-01-12 01:39:19.00	154.25	25.14	-22.8	-23.6	19.1	0.00e+00	0	42	0	2852126720	6	3951
2026-01-12 01:39:20.01	154.43	25.01	-22.9	-23.8	18.9	0.00e+00	0	42	0	2857369600	6	4009
2026-01-12 01:39:21.02	154.60	24.88	-23.1	-24.2	18.7	0.00e+00	0	42	0	2863661056	6	4113
2026-01-12 01:39:22.02	154.77	24.75	-23.3	-24.6	18.5	0.00e+00	0	42	0	2868903936	6	4218
2026-01-12 01:39:23.03	154.94	24.62	-23.2	-24.6	18.6	0.00e+00	0	42	0	2875195392	6	4207
2026-01-12 01:39:24.03	155.11	24.49	-23.3	-24.8	18.4	0.00e+00	0	42	0	2880438272	6	4264
2026-01-12 01:39:25.04	155.28	24.36	-23.2	-24.5	18.6	0.00e+00	0	42	0	2885681152	6	4197
2026-01-12 01:39:26.05	155.44	24.23	-23.2	-24.5	18.6	3.40e-06	0	42	0	2891972608	6	4184
2026-01-12 01:39:27.06	155.61	24.10	-23.3	-24.7	18.5	0.00e+00	0	42	0	2897215488	6	4236
2026-01-12 01:39:28.06	155.77	23.98	-23.1	-24.3	18.7	0.00e+00	0	42	0	2902458368	6	4133
2026-01-12 01:39:29.07	155.93	23.85	-23.2	-24.5	18.6	2.20e-06	0	42	0	2908749824	6	4176
2026-01-12 01:39:30.08	156.09	23.72	-23.2	-24.4	18.6	1.11e-03	0	42	0	2913992704	6	4160
2026-01-12 01:39:31.08	156.25	23.59	-23.0	-24.0	18.9	0.00e+00	0	42	0	2920284160	6	4039
2026-01-12 01:39:32.09	156.41	23.47	-22.9	-23.8	19.0	6.80e-06	0	42	0	2925527040	6	3992
2026-01-12 01:39:33.09	156.56	23.34	-23.0	-24.1	18.8	0.00e+00	0	42	0	2930769920	6	4066
2026-01-12 01:39:34.10	156.72	23.21	-23.1	-24.3	18.7	0.00e+00	0	42	0	2937061376	6	4120
2026-01-12 01:39:35.10	156.87	23.09	-23.2	-24.4	18.6	3.40e-06	0	42	0	2942304256	6	4149
2026-01-12 01:39:36.11	157.02	22.96	-23.4	-24.9	18.4	0.00e+00	0	42	0	2948595712	6	4284
2026-01-12 01:39:37.12	157.18	22.84	-23.4	-24.9	18.4	1.05e-03	0	42	0	2953838592	6	4268
2026-01-12 01:39:38.13	157.33	22.71	-23.5	-24.6	18.3	0.00e+00	0	42	0	2960130048	7	4082
2026-01-12 01:39:39.14	157.48	22.59	-23.4	-24.4	18.4	1.01e-03	0	42	0	2965372928	7	4030
2026-01-12 01:39:40.14	157.62	22.47	-23.4	-24.3	18.4	0.00e+00	0	42	0	2970615808	7	4015
2026-01-12 01:39:41.15	157.77	22.34	-23.4	-24.5	18.3	0.00e+00	0	42	0	2976907264	7	4058
2026-01-12 01:39:42.15	157.92	22.22	-23.4	-24.4	18.4	1.01e-03	0	42	0	2982150144	7	4048
2026-01-12 01:39:43.17	158.06	22.10	-23.5	-24.5	18.3	0.00e+00	0	42	0	2987393024	7	4077
2026-01-12 01:39:44.18	158.21	21.98	-23.5	-24.7	18.2	0.00e+00	0	42	0	2993684480	7	4124
2026-01-12 01:39:45.18	158.35	21.86	-23.6	-24.8	18.1	0.00e+00	0	42	0	2998927360	7	4144
2026-01-12 01:39:46.19	158.49	21.73	-23.7	-25.0	18.0	1.03e-03	0	42	0	3005218816	7	4196
2026-01-12 01:39:47.19	158.63	21.62	-23.8	-25.2	17.9	0.00e+00	0	42	0	3010461696	7	4264
2026-01-12 01:39:48.20	158.77	21.49	-23.9	-25.5	17.8	1.09e-03	0	42	0	3015704576	7	4342
2026-01-12 01:39:49.20	158.91	21.38	-24.0	-25.2	17.7	1.00e-03	0	42	0	3021996032	8	4149
2026-01-12 01:39:50.21	159.05	21.26	-24.0	-25.3	17.6	0.00e+00	0	42	0	3027238912	8	4157
2026-01-12 01:39:51.22	159.18	21.14	-24.1	-25.4	17.6	1.01e-03	0	42	0	3033530368	8	4186
2026-01-12 01:39:52.23	159.32	21.02	-24.0	-25.2	17.7	1.10e-03	0	42	0	3038773248	8	4146
2026-01-12 01:39:53.23	159.45	20.90	-24.0	-25.1	17.7	0.00e+00	0	42	0	3045064704	8	4111
2026-01-12 01:39:54.22	159.58	20.78	-23.9	-24.9	17.8	1.11e-03	0	42	0	3050307584	8	4061
2026-01-12 01:39:55.23	159.72	20.67	-24.1	-25.4	17.6	1.07e-03	0	42	0	3055550464	8	4169
2026-01-12 01:39:56.24	159.85	20.55	-24.1	-25.5	17.5	0.00e+00	0	42	0	3061841920	8	4191
2026-01-12 01:39:57.25	159.98	20.43	-24.3	-25.7	17.4	1.14e-03	0	42	0	3067084800	8	4262
2026-01-12 01:39:58.25	160.11	20.32	-24.3	-25.7	17.4	1.05e-03	0	42	0	3072327680	8	4259
2026-01-12 01:39:59.26	160.24	20.20	-24.5	-25.6	17.2	0.00e+00	0	42	0	3078619136	9	4127
2026-01-12 01:40:00.26	160.36	20.09	-24.2	-25.1	17.5	1.07e-03	0	42	0	3083862016	9	3986
2026-01-12 01:40:01.27	160.49	19.97	-24.0	-25.2	17.6	1.24e-03	0	42	0	3089104896	8	4131
2026-01-12 01:40:02.27	160.62	19.86	-23.9	-25.0	17.8	0.00e+00	0	42	0	3095396352	8	4065
2026-01-12 01:40:03.28	160.74	19.74	-24.2	-25.6	17.5	0.00e+00	0	42	0	3100639232	8	4226
2026-01-12 01:40:04.29	160.86	19.63	-24.3	-25.9	17.4	0.00e+00	0	42	0	3106930688	8	4296
2026-01-12 01:40:05.29	160.99	19.52	-24.3	-25.8	17.3	0.00e+00	0	42	0	3112173568	8	4288
2026-01-12 01:40:06.30	161.11	19.40	-24.3	-25.9	17.3	0.00e+00	0	42	0	3118465024	8	4299
2026-01-12 01:40:07.31	161.23	19.29	-24.5	-25.8	17.1	1.14e-03	0	42	0	3123707904	9	4160
2026-01-12 01:40:08.31	161.35	19.18	-24.7	-26.1	16.9	0.00e+00	0	42	0	3128950784	9	4254
2026-01-12 01:40:09.31	161.47	19.07	-24.6	-25.9	17.1	1.12e-03	0	42	0	3135242240	9	4194
2026-01-12 01:40:10.32	161.59	18.95	-24.7	-26.1	17.0	0.00e+00	0	42	0	3140485120	9	4245
2026-01-12 01:40:11.33	161.71	18.84	-24.4	-25.6	17.2	0.00e+00	0	42	0	3146776576	9	4109
2026-01-12 01:40:12.33	161.82	18.73	-24.4	-25.5	17.3	0.00e+00	0	42	0	3152019456	9	4092
2026-01-12 01:40:13.34	161.94	18.62	-24.4	-25.6	17.2	0.00e+00	0	42	0	3157262336	9	4114
2026-01-12 01:40:14.34	162.06	18.51	-24.5	-25.8	17.1	5.72e-05	0	42	0	3163553792	9	4171
2026-01-12 01:40:15.35	162.17	18.40	-25.1	-26.5	16.5	0.00e+00	0	42	0	3168796672	10	4250
2026-01-12 01:40:16.35	162.28	18.30	-25.2	-26.7	16.3	0.00e+00	0	42	0	3174039552	10	4305
2026-01-12 01:40:17.36	162.40	18.19	-25.0	-26.4	16.5	0.00e+00	0	42	0	3180331008	10	4220
2026-01-12 01:40:18.37	162.51	18.08	-24.8	-26.0	16.7	0.00e+00	0	42	0	3185573888	10	4120
2026-01-12 01:40:19.38	162.62	17.97	-24.9	-26.6	16.6	0.00e+00	0	42	0	3191865344	9	4390
2026-01-12 01:40:20.38	162.73	17.86	-25.0	-26.5	16.5	0.00e+00	0	42	0	3197108224	10	4235
2026-01-12 01:40:21.39	162.84	17.75	-25.1	-26.6	16.4	0.00e+00	0	42	0	3203399680	10	4284
2026-01-12 01:40:22.40	162.95	17.65	-25.2	-26.7	16.3	0.00e+00	0	42	0	3208642560	10	4305
2026-01-12 01:40:23.40	163.06	17.54	-24.9	-26.2	16.6	0.00e+00	0	42	0	3213885440	10	4165
2026-01-12 01:40:24.41	163.17	17.43	-24.9	-26.6	16.6	0.00e+00	0	42	0	3220176896	9	4404
2026-01-12 01:40:25.42	163.28	17.33	-25.0	-26.3	16.5	0.00e+00	0	42	0	3225419776	10	4201
2026-01-12 01:40:26.42	163.38	17.22	-24.8	-25.9	16.7	0.00e+00	0	42	0	3231711232	10	4089
2026-01-12 01:40:27.43	163.49	17.12	-24.7	-26.3	16.8	0.00e+00	0	42	0	3236954112	9	4311
2026-01-12 01:40:28.44	163.59	17.01	-24.8	-26.6	16.6	6.80e-06	0	42	0	3242196992	9	4391
2026-01-12 01:40:29.44	163.70	16.91	-24.8	-26.6	16.6	0.00e+00	0	42	0	3248488448	9	4394
2026-01-12 01:40:30.45	163.80	16.81	-24.9	-26.3	16.5	0.00e+00	0	42	0	3253731328	10	4186
2026-01-12 01:40:31.46	163.90	16.70	-24.8	-26.0	16.7	0.00e+00	0	42	0	3258974208	10	4109
2026-01-12 01:40:32.46	164.00	16.60	-24.8	-26.4	16.7	0.00e+00	0	42	0	3265265664	9	4335
2026-01-12 01:40:33.47	164.11	16.50	-24.8	-26.4	16.7	0.00e+00	0	42	0	3270508544	9	4323
2026-01-12 01:40:34.47	164.21	16.39	-24.9	-26.6	16.6	4.50e-06	0	42	0	3276800000	9	4382
2026-01-12 01:40:35.48	164.31	16.29	-24.9	-26.2	16.5	0.00e+00	0	42	0	3282042880	10	4176
2026-01-12 01:40:36.49	164.41	16.19	-24.9	-26.6	16.6	0.00e+00	0	42	0	3288334336	9	4373
2026-01-12 01:40:37.49	164.51	16.09	-24.9	-26.1	16.6	5.70e-06	0	42	0	3293577216	10	4148
2026-01-12 01:40:38.50	164.60	15.99	-25.0	-26.3	16.5	0.00e+00	0	42	0	3298820096	10	4195
2026-01-12 01:40:39.50	164.70	15.89	-24.7	-25.8	16.7	0.00e+00	0	42	0	3305111552	10	4057
2026-01-12 01:40:40.50	164.80	15.79	-24.8	-26.3	16.7	0.00e+00	0	42	0	3310354432	9	4321
2026-01-12 01:40:41.51	164.89	15.69	-24.9	-26.7	16.5	0.00e+00	0	42	0	3315597312	9	4421
2026-01-12 01:40:42.51	164.99	15.59	-25.1	-26.7	16.2	0.00e+00	0	42	0	3321888768	10	4289
2026-01-12 01:40:43.52	165.08	15.49	-25.3	-27.0	16.1	0.00e+00	0	42	0	3327131648	10	4375
2026-01-12 01:40:44.53	165.18	15.39	-25.1	-26.6	16.3	0.00e+00	0	42	0	3333423104	10	4288
2026-01-12 01:40:45.54	165.27	15.29	-25.1	-26.6	16.3	0.00e+00	0	42	0	3338665984	10	4279
2026-01-12 01:40:46.54	165.37	15.19	-25.1	-26.6	16.3	4.50e-06	0	42	0	3343908864	10	4281
2026-01-12 01:40:47.54	165.46	15.09	-25.2	-26.8	16.2	0.00e+00	0	42	0	3350200320	10	4337
2026-01-12 01:40:48.55	165.55	14.99	-25.2	-26.8	16.2	0.00e+00	0	42	0	3355443200	10	4323
2026-01-12 01:40:49.56	165.64	14.90	-25.3	-27.0	16.1	2.20e-06	0	42	0	3361734656	10	4395
2026-01-12 01:40:50.56	165.73	14.80	-25.3	-27.1	16.0	0.00e+00	0	42	0	3366977536	10	4404
2026-01-12 01:40:51.57	165.82	14.70	-25.3	-27.0	16.1	0.00e+00	0	42	0	3372220416	10	4382
2026-01-12 01:40:52.58	165.91	14.61	-25.5	-27.0	15.6	0.00e+00	0	42	0	3378511872	11	4259
2026-01-12 01:40:53.59	166.00	14.51	-25.5	-26.8	12.7	0.00e+00	0	42	0	3383754752	11	4222
2026-01-12 01:40:54.59	166.09	14.41	-25.4	-27.1	14.2	0.00e+00	0	42	0	3390046208	10	4410
2026-01-12 01:40:55.60	166.18	14.32	-25.4	-26.8	15.9	0.00e+00	0	42	0	3395289088	11	4213
2026-01-12 01:40:56.60	166.27	14.22	-25.4	-26.6	16.0	1.35e-03	0	42	0	3400531968	11	4170
2026-01-12 01:40:57.61	166.36	14.13	-25.4	-27.2	16.0	0.00e+00	0	42	0	3406823424	10	4427
2026-01-12 01:40:58.62	166.44	14.03	-25.4	-27.2	16.0	1.21e-04	0	42	0	3412066304	10	4425
2026-01-12 01:40:59.63	166.53	13.94	-25.4	-27.3	15.9	0.00e+00	0	42	0	3418357760	10	4462
2026-01-12 01:41:00.63	166.61	13.84	-25.6	-27.1	15.8	0.00e+00	0	42	0	3423600640	11	4290
2026-01-12 01:41:01.64	166.70	13.75	-25.9	-27.8	15.4	0.00e+00	0	42	0	3428843520	11	4496
2026-01-12 01:41:02.65	166.78	13.66	-25.8	-27.5	15.5	0.00e+00	0	42	0	3435134976	11	4420
2026-01-12 01:41:03.66	166.87	13.56	-25.6	-27.2	15.7	1.30e-03	0	42	0	3440377856	11	4327
2026-01-12 01:41:04.66	166.95	13.47	-25.5	-26.9	15.8	0.00e+00	0	42	0	3446669312	11	4253
2026-01-12 01:41:05.67	167.04	13.38	-25.6	-27.2	15.6	1.29e-03	0	42	0	3451912192	11	4330
2026-01-12 01:41:06.67	167.12	13.29	-25.6	-27.1	15.7	0.00e+00	0	42	0	3458203648	11	4300
2026-01-12 01:41:07.68	167.20	13.19	-25.7	-27.3	15.6	1.34e-04	0	42	0	3463446528	11	4363
2026-01-12 01:41:08.68	167.28	13.10	-25.6	-27.2	15.6	1.26e-03	0	42	0	3468689408	11	4331
2026-01-12 01:41:09.69	167.36	13.01	-25.5	-27.0	15.7	0.00e+00	0	42	0	3474980864	11	4269
2026-01-12 01:41:10.69	167.44	12.92	-25.6	-27.3	15.6	1.37e-04	0	42	0	3480223744	11	4345
2026-01-12 01:41:11.70	167.52	12.83	-25.6	-27.2	15.6	0.00e+00	0	42	0	3485466624	11	4341
2026-01-12 01:41:12.71	167.60	12.74	-25.7	-27.4	15.5	1.37e-03	0	42	0	3491758080	11	4375
2026-01-12 01:41:13.71	167.68	12.65	-25.7	-27.5	15.5	1.27e-04	0	42	0	3497000960	11	4408
2026-01-12 01:41:14.72	167.76	12.56	-25.7	-27.3	15.5	1.35e-03	0	42	0	3502243840	11	4368
2026-01-12 01:41:15.72	167.84	12.47	-25.8	-27.7	15.3	1.33e-03	0	42	0	3508535296	11	4473
2026-01-12 01:41:16.73	167.92	12.38	-25.8	-27.7	15.3	1.33e-04	0	42	0	3513778176	11	4467
2026-01-12 01:41:17.73	167.99	12.29	-25.6	-27.2	15.6	1.32e-03	0	42	0	3520069632	11	4341
2026-01-12 01:41:18.73	168.07	12.20	-25.7	-27.4	15.5	1.25e-03	0	42	0	3525312512	11	4386
2026-01-12 01:41:19.73	168.15	12.12	-25.7	-27.3	15.5	1.44e-04	0	42	0	3531603968	11	4368
2026-01-12 01:41:20.73	168.22	12.03	-25.8	-27.6	15.4	1.22e-03	0	42	0	3536846848	11	4440
2026-01-12 01:41:21.74	168.30	11.94	-25.8	-27.7	15.3	1.34e-03	0	42	0	3542089728	11	4474
2026-01-12 01:41:22.75	168.37	11.85	-25.8	-27.6	15.3	1.82e-04	0	42	0	3548381184	11	4435
2026-01-12 01:41:23.75	168.45	11.77	-25.8	-27.7	15.3	1.35e-03	0	42	0	3553624064	11	4474
2026-01-12 01:41:24.75	168.52	11.68	-25.8	-27.7	15.3	1.27e-03	0	42	0	3558866944	11	4471
2026-01-12 01:41:25.75	168.59	11.59	-25.9	-27.5	15.1	0.00e+00	0	42	0	3565158400	12	4295
2026-01-12 01:41:26.76	168.67	11.51	-26.0	-27.7	15.0	1.34e-03	0	42	0	3570401280	12	4347
2026-01-12 01:41:27.77	168.74	11.42	-25.9	-27.4	15.1	0.00e+00	0	42	0	3576692736	12	4278
2026-01-12 01:41:28.78	168.81	11.33	-25.9	-27.5	15.0	1.60e-04	0	42	0	3581935616	12	4310
2026-01-12 01:41:29.79	168.89	11.25	-26.1	-27.8	14.9	1.21e-03	0	42	0	3587178496	12	4380
2026-01-12 01:41:30.80	168.96	11.16	-26.0	-27.6	15.0	0.00e+00	0	42	0	3593469952	12	4338
2026-01-12 01:41:31.79	169.03	11.08	-26.1	-27.9	14.8	1.26e-04	0	42	0	3598712832	12	4429
2026-01-12 01:41:32.80	169.10	10.99	-26.1	-28.0	14.8	0.00e+00	0	42	0	3605004288	12	4437
2026-01-12 01:41:33.81	169.17	10.91	-26.3	-28.4	14.5	1.37e-03	0	42	0	3610247168	12	4557
2026-01-12 01:41:34.82	169.24	10.82	-26.2	-28.0	14.7	0.00e+00	0	42	0	3615490048	12	4458
2026-01-12 01:41:35.82	169.31	10.74	-26.0	-27.6	14.9	1.34e-03	0	42	0	3621781504	12	4344
2026-01-12 01:41:36.83	169.38	10.65	-26.0	-27.7	14.9	8.00e-06	0	42	0	3627024384	12	4356
2026-01-12 01:41:37.84	169.45	10.57	-26.0	-27.6	14.9	0.00e+00	0	42	0	3633315840	12	4335
2026-01-12 01:41:38.85	169.52	10.49	-26.1	-27.8	14.8	0.00e+00	0	42	0	3638558720	12	4390
2026-01-12 01:41:39.85	169.59	10.40	-26.0	-27.7	14.9	3.40e-06	0	42	0	3643801600	12	4356
2026-01-12 01:41:40.86	169.66	10.32	-26.0	-27.6	15.0	7.78e-05	0	42	0	3650093056	12	4319
2026-01-12 01:41:41.86	169.72	10.24	-26.0	-27.7	14.9	0.00e+00	0	42	0	3655335936	12	4372
2026-01-12 01:41:42.87	169.79	10.16	-26.0	-27.7	14.9	0.00e+00	0	42	0	3660578816	12	4351
2026-01-12 01:41:43.87	169.86	10.07	-26.2	-28.0	14.7	0.00e+00	0	42	0	3666870272	12	4443
2026-01-12 01:41:44.88	169.93	9.99	-26.1	-27.8	14.8	0.00e+00	0	42	0	3672113152	12	4386
2026-01-12 01:41:45.89	169.99	9.91	-26.0	-27.6	14.9	5.70e-06	0	42	0	3678404608	12	4344
2026-01-12 01:41:46.90	170.06	9.83	-26.1	-27.8	14.8	0.00e+00	0	42	0	3683647488	12	4387
2026-01-12 01:41:47.90	170.12	9.75	-26.1	-27.8	14.8	0.00e+00	0	42	0	3689938944	12	4392
2026-01-12 01:41:48.90	170.19	9.67	-26.2	-28.1	14.6	1.37e-05	0	42	0	3695181824	12	4485
2026-01-12 01:41:49.91	170.25	9.59	-26.1	-27.8	14.8	0.00e+00	0	42	0	3700424704	12	4395
2026-01-12 01:41:50.91	170.32	9.50	-26.1	-27.9	14.7	0.00e+00	0	42	0	3706716160	12	4430
2026-01-12 01:41:51.92	170.38	9.42	-26.1	-27.9	14.7	4.50e-06	0	42	0	3711959040	12	4407
2026-01-12 01:41:52.93	170.45	9.34	-26.1	-27.8	14.7	1.10e-06	0	42	0	3718250496	12	4395
2026-01-12 01:41:53.94	170.51	9.26	-26.2	-28.0	14.6	0.00e+00	0	42	0	3723493376	12	4454
2026-01-12 01:41:54.94	170.57	9.18	-26.2	-28.0	14.6	0.00e+00	0	42	0	3728736256	12	4448
2026-01-12 01:41:55.95	170.64	9.10	-26.2	-28.1	14.6	2.20e-06	0	42	0	3735027712	12	4463
2026-01-12 01:41:56.96	170.70	9.03	-26.1	-27.8	14.7	0.00e+00	0	42	0	3740270592	12	4395
2026-01-12 01:41:57.97	170.76	8.95	-26.1	-27.9	14.7	6.80e-06	0	42	0	3745513472	12	4409
2026-01-12 01:41:58.97	170.82	8.87	-26.1	-27.8	14.7	0.00e+00	0	42	0	3751804928	12	4385
2026-01-12 01:41:59.98	170.89	8.79	-26.2	-28.0	14.6	0.00e+00	0	42	0	3757047808	12	4452
2026-01-12 01:42:00.99	170.95	8.71	-26.3	-28.3	14.4	0.00e+00	0	42	0	3763339264	12	4536
2026-01-12 01:42:01.99	171.01	8.63	-26.3	-28.3	14.4	0.00e+00	0	42	0	3768582144	12	4518
2026-01-12 01:42:03.00	171.07	8.55	-26.5	-28.2	14.2	0.00e+00	0	42	0	3774873600	13	4391
2026-01-12 01:42:04.01	171.13	8.48	-26.8	-29.1	13.7	2.20e-06	0	42	0	3780116480	13	4652
2026-01-12 01:42:05.01	171.19	8.40	-26.5	-28.4	14.1	1.10e-06	0	42	0	3785359360	13	4438
2026-01-12 01:42:06.02	171.25	8.32	-26.6	-28.5	14.0	3.40e-06	0	42	0	3791650816	13	4492
2026-01-12 01:42:07.03	171.31	8.24	-26.4	-28.1	14.2	0.00e+00	0	42	0	3796893696	13	4354
2026-01-12 01:42:08.03	171.37	8.17	-26.7	-28.7	13.8	4.50e-06	0	42	0	3803185152	13	4546
2026-01-12 01:42:09.04	171.43	8.09	-26.6	-28.5	14.0	0.00e+00	0	42	0	3808428032	13	4473
2026-01-12 01:42:10.04	171.48	8.02	-26.8	-28.9	13.8	1.10e-06	0	42	0	3813670912	13	4603
2026-01-12 01:42:11.05	171.54	7.94	-26.7	-28.8	13.8	2.20e-06	0	42	0	3819962368	13	4583
2026-01-12 01:42:12.06	171.60	7.86	-26.8	-29.0	13.6	2.20e-06	0	42	0	3825205248	13	4644
2026-01-12 01:42:13.06	171.66	7.79	-27.3	-29.7	13.0	2.05e-05	0	42	0	3830448128	14	4748
2026-01-12 01:42:14.06	171.72	7.71	-26.8	-28.5	13.7	1.02e-05	0	42	0	3836739584	14	4373
2026-01-12 01:42:15.06	171.77	7.64	-26.8	-28.4	13.7	9.10e-06	0	42	0	3841982464	14	4335
2026-01-12 01:42:16.06	171.83	7.56	-26.7	-28.8	13.7	5.70e-06	0	42	0	3848273920	13	4587
2026-01-12 01:42:17.07	171.89	7.49	-26.8	-29.0	13.7	2.20e-06	0	42	0	3853516800	13	4616
2026-01-12 01:42:18.07	171.94	7.41	-26.2	-28.4	13.0	6.80e-06	0	42	0	3859808256	13	4642
2026-01-12 01:42:19.08	172.00	7.34	-26.7	-28.4	13.5	5.70e-06	0	42	0	3865051136	14	4330
2026-01-12 01:42:20.08	172.05	7.26	-27.2	-29.3	11.6	9.10e-06	0	42	0	3870294016	14	4624
2026-01-12 01:42:21.09	172.11	7.19	-27.1	-29.3	12.7	1.14e-05	0	42	0	3876585472	14	4601
2026-01-12 01:42:22.09	172.16	7.12	-27.6	-29.8	12.6	3.43e-05	0	42	0	3881828352	15	4650
