passes_logs/2026/01/12/R2M6_AANII_01/R2M6_AANII_01__20260112_144906_FENGYUN_3E_rec.log

#Pass ID: 20260112_144906_FENGYUN 3E
#Satellite: FENGYUN 3E
#Configuration: FENGYUN 3E
#almurnet v.1.7.20240730
#Start time: 2026-01-12 14:49:07

#Version: 2.2.20231116
#Station: R2M6_AANII_01
#Location: 30.233357 lon 59.946436 lat
#TLE: 1 49008U 21062A   26011.97558190  .00000066  00000+0  51928-4 0  9996
#TLE: 2 49008  98.7491  17.1395 0001916 144.4283 215.7021 14.19885193234411

#Time	Az	El	Level	Level2	SNR	BER	BlckErr	Temp	State	Recorded	gain1	gain2
2026-01-12 14:49:07.97	166.96	7.12	-29.3	-31.9	5.1	7.90e-01	0	40	0	0	19	4862
2026-01-12 14:49:08.98	166.98	7.20	-29.3	-31.8	5.2	7.89e-01	0	40	104	0	19	4840
2026-01-12 14:49:09.99	167.00	7.28	-29.1	-31.2	9.0	2.60e-02	0	40	0	0	19	4616
2026-01-12 14:49:11.00	167.01	7.36	-28.9	-31.4	9.1	1.89e-02	0	40	0	7340032	18	4799
2026-01-12 14:49:12.00	167.03	7.44	-28.9	-31.2	9.3	1.69e-02	0	40	0	14680064	18	4722
2026-01-12 14:49:13.00	167.05	7.51	-29.1	-31.7	9.0	2.48e-02	0	40	0	22020096	18	4889
2026-01-12 14:49:14.00	167.06	7.59	-28.9	-31.2	9.4	2.14e-02	0	40	0	28311552	18	4691
2026-01-12 14:49:15.00	167.08	7.67	-29.4	-32.6	8.5	3.47e-02	0	40	0	35651584	18	5189
2026-01-12 14:49:16.01	167.10	7.75	-29.1	-31.7	9.0	3.03e-02	0	40	0	42991616	18	4888
2026-01-12 14:49:17.01	167.12	7.83	-28.3	-30.4	10.1	1.03e-02	0	40	0	50331648	17	4557
2026-01-12 14:49:18.01	167.14	7.91	-27.7	-29.3	11.1	2.05e-03	0	40	0	57671680	16	4319
2026-01-12 14:49:19.02	167.15	7.99	-26.9	-28.1	11.9	6.43e-04	0	40	0	65011712	15	4132
2026-01-12 14:49:20.03	167.17	8.07	-26.5	-27.5	12.5	1.40e-04	0	40	0	72351744	14	4070
2026-01-12 14:49:21.03	167.19	8.15	-26.1	-27.3	12.9	6.52e-05	0	40	0	79691776	13	4111
2026-01-12 14:49:22.04	167.21	8.24	-26.5	-28.1	12.5	9.04e-05	0	40	0	87031808	13	4331
2026-01-12 14:49:23.05	167.23	8.32	-26.4	-28.0	12.6	1.26e-04	0	40	0	94371840	13	4298
2026-01-12 14:49:24.05	167.24	8.40	-26.4	-27.8	12.7	9.72e-05	0	40	0	101711872	13	4249
2026-01-12 14:49:25.06	167.26	8.48	-26.6	-28.4	12.3	1.46e-04	0	40	0	108003328	13	4407
2026-01-12 14:49:26.07	167.28	8.56	-26.5	-28.2	12.5	1.09e-04	0	40	0	116391936	13	4346
2026-01-12 14:49:27.07	167.30	8.65	-26.2	-27.4	13.0	9.15e-05	0	40	0	123731968	13	4137
2026-01-12 14:49:28.07	167.32	8.73	-26.2	-27.3	13.0	2.97e-05	0	40	0	130023424	13	4116
2026-01-12 14:49:29.08	167.34	8.81	-26.5	-28.2	12.5	8.23e-05	0	40	0	137363456	13	4350
2026-01-12 14:49:30.09	167.35	8.90	-26.2	-27.5	12.9	7.78e-05	0	40	0	144703488	13	4147
2026-01-12 14:49:31.10	167.37	8.98	-25.7	-26.8	13.6	2.17e-05	0	40	0	152043520	12	4072
2026-01-12 14:49:32.10	167.39	9.06	-25.5	-26.3	13.9	8.00e-06	0	40	0	159383552	12	3957
2026-01-12 14:49:33.11	167.41	9.15	-25.3	-26.5	14.1	2.20e-06	0	41	0	166723584	11	4111
2026-01-12 14:49:34.12	167.43	9.23	-25.4	-26.6	14.1	6.80e-06	0	40	0	174063616	11	4127
2026-01-12 14:49:35.12	167.45	9.32	-25.7	-27.4	13.6	3.40e-06	0	41	0	181403648	11	4347
2026-01-12 14:49:36.13	167.47	9.40	-25.3	-26.4	14.2	3.40e-06	0	41	0	188743680	11	4083
2026-01-12 14:49:37.12	167.49	9.49	-25.5	-26.9	13.9	1.14e-05	0	41	0	196083712	11	4217
2026-01-12 14:49:38.13	167.51	9.57	-25.7	-27.3	13.7	9.10e-06	0	41	0	203423744	11	4309
2026-01-12 14:49:39.13	167.53	9.66	-25.6	-27.1	13.8	6.80e-06	0	41	0	210763776	11	4249
2026-01-12 14:49:40.14	167.55	9.75	-26.0	-27.9	13.4	2.63e-05	0	41	0	217055232	11	4483
2026-01-12 14:49:41.14	167.57	9.83	-25.9	-27.6	13.5	1.71e-05	0	41	0	224395264	11	4389
2026-01-12 14:49:42.15	167.59	9.92	-26.1	-27.5	13.2	1.48e-05	0	41	0	231735296	12	4277
2026-01-12 14:49:43.16	167.61	10.01	-25.7	-26.7	13.7	8.00e-06	0	41	0	239075328	12	4060
2026-01-12 14:49:44.16	167.63	10.09	-25.4	-26.1	14.0	2.20e-06	0	41	0	246415360	12	3907
2026-01-12 14:49:45.17	167.65	10.18	-25.3	-26.3	14.3	2.20e-06	0	41	0	253755392	11	4033
2026-01-12 14:49:46.17	167.67	10.27	-25.5	-26.8	14.0	6.80e-06	0	41	0	261095424	11	4188
2026-01-12 14:49:47.17	167.69	10.36	-25.9	-27.6	13.6	6.80e-06	0	41	0	268435456	11	4382
2026-01-12 14:49:48.18	167.71	10.45	-25.9	-27.7	13.5	1.37e-05	0	41	0	275775488	11	4425
2026-01-12 14:49:49.18	167.73	10.53	-25.7	-27.3	13.8	1.37e-05	0	41	0	283115520	11	4305
2026-01-12 14:49:50.19	167.75	10.62	-25.8	-27.3	13.8	8.00e-06	0	41	0	290455552	11	4310
2026-01-12 14:49:51.19	167.77	10.71	-25.8	-27.4	13.7	5.70e-06	0	41	0	296747008	11	4335
2026-01-12 14:49:52.20	167.79	10.80	-25.6	-27.1	13.9	6.80e-06	0	41	0	304087040	11	4234
2026-01-12 14:49:53.20	167.81	10.89	-25.5	-26.8	14.1	3.40e-06	0	41	0	311427072	11	4171
2026-01-12 14:49:54.21	167.83	10.98	-25.5	-26.7	14.1	4.50e-06	0	41	0	318767104	11	4142
2026-01-12 14:49:55.22	167.86	11.08	-25.6	-27.0	14.0	4.50e-06	0	41	0	326107136	11	4216
2026-01-12 14:49:56.22	167.88	11.17	-25.6	-26.9	14.1	2.20e-06	0	41	0	333447168	11	4179
2026-01-12 14:49:57.23	167.90	11.26	-25.9	-27.6	13.7	4.50e-06	0	41	0	340787200	11	4383
2026-01-12 14:49:58.23	167.92	11.35	-26.0	-27.4	13.4	1.48e-05	0	41	0	348127232	12	4219
2026-01-12 14:49:59.24	167.94	11.44	-25.8	-27.0	13.7	1.14e-05	0	41	0	355467264	12	4099
2026-01-12 14:50:00.24	167.96	11.54	-25.5	-26.1	14.1	1.10e-06	0	41	0	362807296	12	3889
2026-01-12 14:50:01.25	167.99	11.63	-25.1	-25.9	14.6	2.20e-06	0	41	0	370147328	11	3942
2026-01-12 14:50:02.25	168.01	11.72	-24.9	-25.4	14.9	0.00e+00	0	41	0	377487360	11	3820
2026-01-12 14:50:03.26	168.03	11.82	-24.7	-25.4	15.2	0.00e+00	0	41	0	383778816	10	3925
2026-01-12 14:50:04.27	168.05	11.91	-24.8	-25.8	15.0	0.00e+00	0	41	0	392167424	10	4011
2026-01-12 14:50:05.27	168.08	12.00	-24.8	-25.8	14.9	0.00e+00	0	41	0	399507456	10	4019
2026-01-12 14:50:06.28	168.10	12.10	-24.6	-25.3	15.2	0.00e+00	0	41	0	405798912	10	3888
2026-01-12 14:50:07.28	168.12	12.19	-24.8	-25.6	15.1	0.00e+00	0	41	0	413138944	10	3969
2026-01-12 14:50:08.29	168.14	12.29	-24.9	-26.0	14.9	0.00e+00	0	41	0	420478976	10	4060
2026-01-12 14:50:09.30	168.17	12.39	-25.1	-26.5	14.6	0.00e+00	0	41	0	427819008	10	4186
2026-01-12 14:50:10.31	168.19	12.48	-24.9	-25.8	14.9	0.00e+00	0	41	0	435159040	10	4029
2026-01-12 14:50:11.32	168.21	12.58	-24.7	-25.5	15.1	0.00e+00	0	41	0	442499072	10	3955
2026-01-12 14:50:12.32	168.24	12.68	-24.7	-25.5	15.2	0.00e+00	0	41	0	449839104	10	3943
2026-01-12 14:50:13.33	168.26	12.78	-24.7	-25.4	15.2	0.00e+00	0	41	0	457179136	10	3932
2026-01-12 14:50:14.33	168.28	12.87	-24.4	-24.9	15.5	0.00e+00	0	41	0	464519168	10	3807
2026-01-12 14:50:15.34	168.31	12.97	-24.4	-25.3	15.5	0.00e+00	0	41	0	471859200	9	4005
2026-01-12 14:50:16.34	168.33	13.07	-24.3	-25.1	15.6	0.00e+00	0	41	0	479199232	9	3957
2026-01-12 14:50:17.34	168.36	13.17	-24.4	-25.4	15.5	0.00e+00	0	41	0	486539264	9	4015
2026-01-12 14:50:18.35	168.38	13.27	-24.6	-25.7	15.3	0.00e+00	0	41	0	492830720	9	4109
2026-01-12 14:50:19.35	168.40	13.37	-24.7	-25.9	15.2	0.00e+00	0	41	0	500170752	9	4136
2026-01-12 14:50:20.36	168.43	13.47	-24.3	-25.2	15.6	0.00e+00	0	41	0	507510784	9	3963
2026-01-12 14:50:21.37	168.45	13.57	-24.2	-24.8	15.8	0.00e+00	0	41	0	514850816	9	3861
2026-01-12 14:50:22.38	168.48	13.67	-24.1	-24.6	15.9	0.00e+00	0	41	0	522190848	9	3824
2026-01-12 14:50:23.38	168.50	13.77	-24.2	-24.8	15.8	0.00e+00	0	41	0	529530880	9	3876
2026-01-12 14:50:24.39	168.53	13.87	-24.1	-24.6	15.9	0.00e+00	0	41	0	536870912	9	3821
2026-01-12 14:50:25.40	168.55	13.98	-24.1	-24.6	15.9	0.00e+00	0	41	0	544210944	9	3832
2026-01-12 14:50:26.41	168.58	14.08	-24.1	-24.7	15.9	0.00e+00	0	41	0	551550976	9	3845
2026-01-12 14:50:27.42	168.61	14.18	-23.9	-24.3	16.1	0.00e+00	0	41	0	558891008	9	3734
2026-01-12 14:50:28.42	168.63	14.29	-24.1	-24.7	15.9	0.00e+00	0	41	0	566231040	9	3844
2026-01-12 14:50:29.43	168.66	14.39	-24.0	-24.4	16.1	0.00e+00	0	41	0	573571072	9	3766
2026-01-12 14:50:30.44	168.68	14.50	-23.9	-24.2	16.1	0.00e+00	0	41	0	580911104	9	3734
2026-01-12 14:50:31.44	168.71	14.60	-24.0	-24.4	16.0	0.00e+00	0	41	0	588251136	9	3780
2026-01-12 14:50:32.45	168.74	14.71	-24.0	-24.4	16.0	0.00e+00	0	42	0	594542592	9	3767
2026-01-12 14:50:33.46	168.76	14.81	-24.0	-25.0	16.0	0.00e+00	0	42	0	601882624	8	4011
2026-01-12 14:50:34.47	168.79	14.92	-23.8	-24.4	16.3	0.00e+00	0	41	0	610271232	8	3871
2026-01-12 14:50:35.48	168.82	15.03	-24.0	-24.9	16.1	0.00e+00	0	41	0	616562688	8	3989
2026-01-12 14:50:36.48	168.84	15.14	-23.9	-24.8	16.1	0.00e+00	0	41	0	623902720	8	3968
2026-01-12 14:50:37.49	168.87	15.24	-23.9	-24.8	16.2	0.00e+00	0	41	0	631242752	8	3961
2026-01-12 14:50:38.50	168.90	15.35	-24.0	-24.9	16.1	0.00e+00	0	42	0	638582784	8	3987
2026-01-12 14:50:39.50	168.93	15.46	-24.0	-24.9	16.0	0.00e+00	0	42	0	645922816	8	4002
2026-01-12 14:50:40.51	168.95	15.57	-23.9	-24.8	16.2	0.00e+00	0	42	0	653262848	8	3968
2026-01-12 14:50:41.52	168.98	15.68	-24.0	-24.9	16.1	0.00e+00	0	42	0	660602880	8	3983
2026-01-12 14:50:42.53	169.01	15.79	-23.9	-24.7	16.2	0.00e+00	0	42	0	667942912	8	3954
2026-01-12 14:50:43.54	169.04	15.90	-24.0	-24.9	16.1	0.00e+00	0	42	0	675282944	8	3989
2026-01-12 14:50:44.54	169.07	16.01	-23.8	-24.5	16.3	0.00e+00	0	41	0	682622976	8	3901
2026-01-12 14:50:45.55	169.10	16.13	-23.9	-24.7	16.2	0.00e+00	0	41	0	689963008	8	3933
2026-01-12 14:50:46.55	169.12	16.24	-23.8	-24.5	16.3	0.00e+00	0	42	0	697303040	8	3908
2026-01-12 14:50:47.56	169.15	16.35	-24.0	-24.8	16.1	0.00e+00	0	42	0	703594496	8	3982
2026-01-12 14:50:48.56	169.18	16.46	-23.8	-24.5	16.3	0.00e+00	0	42	0	710934528	8	3889
2026-01-12 14:50:49.56	169.21	16.58	-23.8	-24.5	16.3	0.00e+00	0	42	0	719323136	8	3892
2026-01-12 14:50:50.56	169.24	16.69	-23.7	-24.3	16.4	0.00e+00	0	42	0	725614592	8	3856
2026-01-12 14:50:51.57	169.27	16.80	-23.7	-24.3	16.4	4.50e-06	0	41	0	732954624	8	3854
2026-01-12 14:50:52.58	169.30	16.92	-23.6	-24.1	16.5	0.00e+00	0	42	0	740294656	8	3804
2026-01-12 14:50:53.58	169.33	17.04	-23.7	-24.2	16.5	0.00e+00	0	42	0	747634688	8	3813
2026-01-12 14:50:54.59	169.36	17.15	-23.9	-24.6	16.3	1.10e-06	0	42	0	754974720	8	3918
2026-01-12 14:50:55.60	169.39	17.27	-23.6	-24.0	16.5	0.00e+00	0	42	0	762314752	8	3785
2026-01-12 14:50:56.60	169.42	17.39	-23.5	-23.9	16.6	0.00e+00	0	42	0	769654784	8	3762
2026-01-12 14:50:57.61	169.45	17.51	-23.6	-24.0	16.6	0.00e+00	0	42	0	776994816	8	3790
2026-01-12 14:50:58.62	169.49	17.63	-23.4	-23.7	16.7	0.00e+00	0	42	0	784334848	8	3705
2026-01-12 14:50:59.62	169.52	17.74	-23.5	-24.3	16.7	0.00e+00	0	42	0	791674880	7	3956
2026-01-12 14:51:00.63	169.55	17.86	-23.6	-24.6	16.5	0.00e+00	0	42	0	799014912	7	4026
2026-01-12 14:51:01.63	169.58	17.98	-23.6	-24.5	16.6	0.00e+00	0	42	0	805306368	7	4009
2026-01-12 14:51:02.63	169.61	18.10	-23.4	-24.1	16.8	0.00e+00	0	42	0	812646400	7	3898
2026-01-12 14:51:03.63	169.65	18.23	-23.3	-23.9	16.8	0.00e+00	0	42	0	819986432	7	3871
2026-01-12 14:51:04.64	169.68	18.35	-23.5	-24.3	16.6	0.00e+00	0	42	0	827326464	7	3970
2026-01-12 14:51:05.64	169.71	18.47	-23.2	-23.7	17.0	0.00e+00	0	42	0	834666496	7	3811
2026-01-12 14:51:06.65	169.74	18.59	-23.3	-23.9	16.8	0.00e+00	0	42	0	842006528	7	3873
2026-01-12 14:51:07.65	169.78	18.72	-23.5	-24.3	16.6	0.00e+00	0	42	0	849346560	7	3970
2026-01-12 14:51:08.66	169.81	18.84	-23.3	-24.0	16.8	0.00e+00	0	42	0	856686592	7	3878
2026-01-12 14:51:09.67	169.85	18.97	-23.1	-23.6	17.0	0.00e+00	0	42	0	864026624	7	3790
2026-01-12 14:51:10.68	169.88	19.10	-23.1	-23.6	16.9	0.00e+00	0	42	0	871366656	7	3805
2026-01-12 14:51:11.69	169.91	19.22	-23.1	-23.6	16.9	0.00e+00	0	41	0	878706688	7	3805
2026-01-12 14:51:12.69	169.95	19.35	-23.2	-23.7	16.9	0.00e+00	0	42	0	886046720	7	3825
2026-01-12 14:51:13.70	169.98	19.48	-23.1	-23.6	17.0	0.00e+00	0	42	0	892338176	7	3807
2026-01-12 14:51:14.70	170.02	19.61	-23.1	-23.5	17.0	0.00e+00	0	42	0	899678208	7	3791
2026-01-12 14:51:15.71	170.05	19.74	-22.9	-23.2	17.1	0.00e+00	0	42	0	907018240	7	3717
2026-01-12 14:51:16.71	170.09	19.86	-22.9	-23.5	17.2	0.00e+00	0	42	0	914358272	6	3898
2026-01-12 14:51:17.72	170.13	20.00	-22.8	-23.4	17.3	0.00e+00	0	42	0	921698304	6	3868
2026-01-12 14:51:18.72	170.16	20.13	-22.9	-23.7	17.1	0.00e+00	0	42	0	929038336	6	3936
2026-01-12 14:51:19.73	170.20	20.26	-23.0	-24.0	17.0	0.00e+00	0	42	0	936378368	6	4010
2026-01-12 14:51:20.74	170.24	20.39	-22.8	-23.4	17.3	0.00e+00	0	42	0	943718400	6	3879
2026-01-12 14:51:21.74	170.27	20.52	-22.7	-23.2	17.4	0.00e+00	0	42	0	951058432	6	3822
2026-01-12 14:51:22.75	170.31	20.66	-22.9	-23.6	17.2	0.00e+00	0	42	0	958398464	6	3923
2026-01-12 14:51:23.76	170.35	20.79	-22.8	-23.4	17.3	0.00e+00	0	42	0	965738496	6	3873
2026-01-12 14:51:24.76	170.39	20.93	-22.6	-23.1	17.4	0.00e+00	0	42	0	973078528	6	3808
2026-01-12 14:51:25.76	170.42	21.06	-22.7	-23.2	17.4	0.00e+00	0	42	0	979369984	6	3834
2026-01-12 14:51:26.76	170.46	21.20	-22.6	-23.0	17.5	0.00e+00	0	42	0	987758592	6	3780
2026-01-12 14:51:27.76	170.50	21.34	-22.7	-23.4	17.3	0.00e+00	0	42	0	995098624	6	3882
2026-01-12 14:51:28.77	170.54	21.48	-22.7	-23.4	17.3	0.00e+00	0	42	0	1001390080	6	3875
2026-01-12 14:51:29.77	170.58	21.61	-22.7	-23.3	17.3	0.00e+00	0	42	0	1008730112	6	3856
2026-01-12 14:51:30.78	170.62	21.75	-22.8	-23.5	17.2	0.00e+00	0	42	0	1016070144	6	3914
2026-01-12 14:51:31.79	170.66	21.90	-22.8	-23.5	17.2	0.00e+00	0	42	0	1023410176	6	3923
2026-01-12 14:51:32.79	170.70	22.04	-22.7	-23.4	17.3	0.00e+00	0	42	0	1030750208	6	3886
2026-01-12 14:51:33.80	170.74	22.18	-22.8	-23.6	17.2	0.00e+00	0	42	0	1038090240	6	3948
2026-01-12 14:51:34.81	170.78	22.32	-22.8	-23.6	17.2	0.00e+00	0	42	0	1045430272	6	3946
2026-01-12 14:51:35.81	170.83	22.47	-23.0	-23.9	17.1	0.00e+00	0	42	0	1052770304	6	4015
2026-01-12 14:51:36.82	170.87	22.61	-22.9	-23.7	17.1	0.00e+00	0	42	0	1060110336	6	3970
2026-01-12 14:51:37.83	170.91	22.76	-22.6	-23.2	17.4	0.00e+00	0	42	0	1067450368	6	3843
2026-01-12 14:51:38.83	170.95	22.90	-22.5	-23.0	17.5	0.00e+00	0	42	0	1074790400	6	3800
2026-01-12 14:51:39.84	171.00	23.05	-22.5	-22.9	17.6	0.00e+00	0	42	0	1081081856	6	3763
2026-01-12 14:51:40.84	171.04	23.20	-22.8	-23.6	17.2	0.00e+00	0	42	0	1088421888	6	3955
2026-01-12 14:51:41.85	171.08	23.35	-22.5	-22.9	17.6	0.00e+00	0	42	0	1095761920	6	3785
2026-01-12 14:51:42.85	171.13	23.49	-22.5	-23.0	17.5	0.00e+00	0	42	0	1103101952	6	3804
2026-01-12 14:51:43.86	171.17	23.65	-22.6	-23.2	17.5	0.00e+00	0	42	0	1110441984	6	3833
2026-01-12 14:51:44.87	171.22	23.80	-22.7	-23.3	17.4	0.00e+00	0	42	0	1117782016	6	3868
2026-01-12 14:51:45.88	171.26	23.95	-22.7	-23.5	17.3	0.00e+00	0	42	0	1125122048	6	3910
2026-01-12 14:51:46.89	171.31	24.10	-22.8	-23.6	17.2	0.00e+00	0	42	0	1132462080	6	3943
2026-01-12 14:51:47.89	171.36	24.26	-22.7	-23.3	17.3	0.00e+00	0	42	0	1139802112	6	3878
2026-01-12 14:51:48.89	171.40	24.41	-22.5	-23.0	17.5	0.00e+00	0	42	0	1147142144	6	3815
2026-01-12 14:51:49.90	171.45	24.57	-22.4	-22.8	17.7	0.00e+00	0	42	0	1154482176	6	3747
2026-01-12 14:51:50.90	171.50	24.72	-22.5	-22.9	17.6	0.00e+00	0	42	0	1161822208	6	3791
2026-01-12 14:51:51.91	171.55	24.88	-22.6	-23.3	17.4	0.00e+00	0	42	0	1168113664	6	3865
2026-01-12 14:51:52.91	171.59	25.04	-22.5	-23.0	17.5	0.00e+00	0	42	0	1176502272	6	3807
2026-01-12 14:51:53.92	171.64	25.20	-22.6	-23.2	17.5	0.00e+00	0	42	0	1183842304	6	3845
2026-01-12 14:51:54.93	171.69	25.36	-22.8	-23.5	17.3	0.00e+00	0	42	0	1190133760	6	3913
2026-01-12 14:51:55.93	171.74	25.52	-23.1	-24.2	17.0	0.00e+00	0	42	0	1197473792	6	4083
2026-01-12 14:51:56.94	171.79	25.68	-22.9	-23.7	17.3	0.00e+00	0	42	0	1204813824	6	3950
2026-01-12 14:51:57.94	171.84	25.85	-22.7	-23.3	17.5	0.00e+00	0	42	0	1212153856	6	3863
2026-01-12 14:51:58.95	171.89	26.01	-22.9	-23.6	17.4	0.00e+00	0	42	0	1219493888	6	3927
2026-01-12 14:51:59.96	171.95	26.18	-22.8	-23.4	17.5	0.00e+00	0	42	0	1226833920	6	3882
2026-01-12 14:52:00.97	172.00	26.34	-22.7	-23.1	17.6	0.00e+00	0	42	0	1234173952	6	3806
2026-01-12 14:52:01.97	172.05	26.51	-22.5	-22.8	17.8	0.00e+00	0	42	0	1241513984	6	3732
2026-01-12 14:52:02.98	172.11	26.68	-22.3	-22.8	18.0	6.80e-06	0	42	0	1248854016	5	3836
2026-01-12 14:52:03.98	172.16	26.85	-22.5	-23.3	17.8	0.00e+00	0	42	0	1256194048	5	3950
2026-01-12 14:52:04.99	172.21	27.02	-22.4	-23.0	17.9	0.00e+00	0	42	0	1263534080	5	3873
2026-01-12 14:52:05.99	172.27	27.19	-22.4	-23.1	17.9	5.70e-06	0	42	0	1269825536	5	3886
2026-01-12 14:52:06.99	172.32	27.36	-22.1	-22.3	18.3	0.00e+00	0	42	0	1277165568	5	3704
2026-01-12 14:52:08.00	172.38	27.53	-21.9	-22.1	18.4	0.00e+00	0	42	0	1284505600	5	3665
2026-01-12 14:52:09.00	172.44	27.71	-21.9	-22.4	18.4	2.20e-06	0	42	0	1291845632	4	3836
2026-01-12 14:52:10.01	172.49	27.88	-21.9	-22.5	18.4	0.00e+00	0	42	0	1299185664	4	3847
2026-01-12 14:52:11.02	172.55	28.06	-21.9	-22.6	18.4	0.00e+00	0	42	0	1306525696	4	3878
2026-01-12 14:52:12.02	172.61	28.24	-22.1	-22.8	18.3	5.70e-06	0	42	0	1313865728	4	3928
2026-01-12 14:52:13.03	172.67	28.42	-21.8	-22.3	18.5	0.00e+00	0	42	0	1321205760	4	3811
2026-01-12 14:52:14.03	172.73	28.60	-21.8	-22.3	18.5	0.00e+00	0	42	0	1328545792	4	3810
2026-01-12 14:52:15.04	172.79	28.78	-21.8	-22.3	18.5	3.40e-06	0	42	0	1335885824	4	3799
2026-01-12 14:52:16.04	172.85	28.96	-22.0	-22.7	18.3	0.00e+00	0	42	0	1343225856	4	3903
2026-01-12 14:52:17.05	172.91	29.14	-21.8	-22.4	18.5	0.00e+00	0	42	0	1350565888	4	3825
2026-01-12 14:52:18.06	172.97	29.33	-21.8	-22.3	18.5	1.10e-06	0	42	0	1356857344	4	3803
2026-01-12 14:52:19.06	173.04	29.51	-21.9	-22.5	18.3	0.00e+00	0	42	0	1364197376	4	3863
2026-01-12 14:52:20.07	173.10	29.70	-21.8	-22.4	18.4	0.00e+00	0	42	0	1372585984	4	3850
2026-01-12 14:52:21.08	173.16	29.89	-22.0	-22.7	18.2	0.00e+00	0	42	0	1378877440	4	3909
2026-01-12 14:52:22.08	173.23	30.08	-21.9	-22.5	18.3	0.00e+00	0	42	0	1386217472	4	3871
2026-01-12 14:52:23.09	173.30	30.27	-22.0	-22.8	18.2	0.00e+00	0	42	0	1393557504	4	3948
2026-01-12 14:52:24.09	173.36	30.46	-21.8	-22.3	18.4	0.00e+00	0	42	0	1400897536	4	3841
2026-01-12 14:52:25.10	173.43	30.66	-21.6	-21.9	18.5	0.00e+00	0	42	0	1408237568	4	3746
2026-01-12 14:52:26.10	173.50	30.85	-21.6	-22.1	18.4	0.00e+00	0	42	0	1415577600	4	3788
2026-01-12 14:52:27.11	173.57	31.04	-21.7	-22.2	18.4	0.00e+00	0	42	0	1422917632	4	3815
2026-01-12 14:52:28.12	173.64	31.24	-21.7	-22.3	18.3	0.00e+00	0	42	0	1430257664	4	3860
2026-01-12 14:52:29.12	173.71	31.44	-21.9	-22.7	18.0	0.00e+00	0	42	0	1437597696	4	3958
2026-01-12 14:52:30.13	173.78	31.64	-22.1	-23.3	17.8	0.00e+00	0	42	0	1444937728	4	4097
2026-01-12 14:52:31.14	173.85	31.84	-22.2	-23.3	17.7	0.00e+00	0	42	0	1452277760	4	4123
2026-01-12 14:52:32.14	173.92	32.04	-22.0	-23.0	17.9	0.00e+00	0	42	0	1459617792	4	4046
2026-01-12 14:52:33.15	174.00	32.25	-22.0	-22.9	17.9	0.00e+00	0	42	0	1465909248	4	4010
2026-01-12 14:52:34.15	174.07	32.45	-22.9	-23.5	18.4	0.00e+00	0	42	0	1473249280	5	3866
2026-01-12 14:52:35.16	174.15	32.66	-22.9	-23.4	18.4	0.00e+00	0	42	0	1480589312	5	3844
2026-01-12 14:52:36.17	174.22	32.87	-23.0	-23.7	18.3	0.00e+00	0	42	0	1487929344	5	3913
2026-01-12 14:52:37.17	174.30	33.07	-22.9	-23.4	18.4	0.00e+00	0	42	0	1495269376	5	3849
2026-01-12 14:52:38.18	174.38	33.29	-22.8	-23.3	18.5	0.00e+00	0	42	0	1502609408	5	3821
2026-01-12 14:52:39.18	174.46	33.50	-22.8	-23.4	18.4	0.00e+00	0	42	0	1509949440	5	3835
2026-01-12 14:52:40.19	174.54	33.71	-22.9	-23.6	18.3	0.00e+00	0	42	0	1517289472	5	3884
2026-01-12 14:52:41.19	174.62	33.92	-22.8	-23.3	18.5	0.00e+00	0	42	0	1524629504	5	3824
2026-01-12 14:52:42.20	174.70	34.14	-22.9	-23.5	18.4	0.00e+00	0	42	0	1531969536	5	3861
2026-01-12 14:52:43.20	174.79	34.36	-22.7	-23.1	18.6	0.00e+00	0	42	0	1539309568	5	3773
2026-01-12 14:52:44.21	174.87	34.58	-22.7	-23.1	18.6	0.00e+00	0	42	0	1545601024	5	3786
2026-01-12 14:52:45.22	174.96	34.80	-22.6	-22.9	18.7	0.00e+00	0	42	0	1553989632	5	3729
2026-01-12 14:52:46.23	175.04	35.02	-22.7	-23.1	18.6	0.00e+00	0	42	0	1561329664	5	3780
2026-01-12 14:52:47.23	175.13	35.24	-22.5	-22.7	18.9	0.00e+00	0	42	0	1567621120	5	3676
2026-01-12 14:52:48.24	175.22	35.47	-22.4	-22.4	18.9	0.00e+00	0	42	0	1574961152	5	3624
2026-01-12 14:52:49.24	175.31	35.70	-22.3	-22.4	19.0	0.00e+00	0	42	0	1582301184	5	3613
2026-01-12 14:52:50.25	175.40	35.92	-22.3	-22.2	19.1	0.00e+00	0	42	0	1589641216	5	3577
2026-01-12 14:52:51.25	175.50	36.15	-22.4	-22.4	19.0	0.00e+00	0	42	0	1596981248	5	3615
2026-01-12 14:52:52.25	175.59	36.38	-22.3	-22.3	19.0	0.00e+00	0	42	0	1604321280	5	3596
2026-01-12 14:52:53.26	175.69	36.62	-22.5	-22.8	18.8	0.00e+00	0	42	0	1611661312	5	3694
2026-01-12 14:52:54.28	175.78	36.85	-22.9	-23.6	18.4	0.00e+00	0	42	0	1619001344	5	3880
2026-01-12 14:52:55.28	175.88	37.09	-22.8	-23.3	18.5	0.00e+00	0	42	0	1626341376	5	3814
2026-01-12 14:52:56.28	175.98	37.33	-23.0	-23.7	18.3	0.00e+00	0	42	0	1633681408	5	3916
2026-01-12 14:52:57.29	176.08	37.57	-23.0	-23.7	18.3	0.00e+00	0	42	0	1641021440	5	3912
2026-01-12 14:52:58.29	176.18	37.81	-23.3	-23.9	17.9	0.00e+00	0	42	0	1648361472	6	3863
2026-01-12 14:52:59.30	176.29	38.05	-23.6	-23.9	17.7	0.00e+00	0	42	0	1654652928	7	3751
2026-01-12 14:53:00.30	176.39	38.29	-23.2	-23.1	18.1	0.00e+00	0	42	0	1661992960	7	3575
2026-01-12 14:53:01.31	176.50	38.54	-23.0	-22.7	18.3	0.00e+00	0	42	0	1669332992	7	3497
2026-01-12 14:53:02.32	176.61	38.79	-23.0	-22.7	18.4	0.00e+00	0	42	0	1676673024	7	3482
2026-01-12 14:53:03.32	176.72	39.03	-23.1	-22.9	18.3	0.00e+00	0	42	0	1684013056	7	3523
2026-01-12 14:53:04.33	176.83	39.29	-23.2	-23.1	18.2	0.00e+00	0	42	0	1691353088	7	3565
2026-01-12 14:53:05.34	176.94	39.54	-23.3	-23.3	18.1	0.00e+00	0	42	0	1698693120	7	3606
2026-01-12 14:53:06.34	177.06	39.79	-23.2	-23.2	18.1	0.00e+00	0	42	0	1706033152	7	3588
2026-01-12 14:53:07.35	177.17	40.05	-23.3	-23.3	18.1	0.00e+00	0	42	0	1713373184	7	3603
2026-01-12 14:53:08.35	177.29	40.31	-23.0	-22.7	18.4	0.00e+00	0	42	0	1720713216	7	3471
2026-01-12 14:53:09.35	177.41	40.57	-22.8	-22.9	18.5	0.00e+00	0	42	0	1728053248	6	3628
2026-01-12 14:53:10.36	177.53	40.83	-22.8	-22.8	18.5	0.00e+00	0	42	0	1735393280	6	3610
2026-01-12 14:53:11.37	177.66	41.09	-22.7	-22.7	18.7	0.00e+00	0	42	0	1742733312	6	3571
2026-01-12 14:53:12.38	177.79	41.36	-22.7	-22.6	18.7	0.00e+00	0	42	0	1750073344	6	3556
2026-01-12 14:53:13.39	177.91	41.63	-22.7	-22.7	18.6	0.00e+00	0	42	0	1757413376	6	3574
2026-01-12 14:53:14.39	178.04	41.89	-22.8	-22.9	18.6	0.00e+00	0	42	0	1763704832	6	3623
2026-01-12 14:53:15.40	178.18	42.16	-22.7	-22.6	18.7	0.00e+00	0	42	0	1771044864	6	3553
2026-01-12 14:53:16.40	178.31	42.43	-23.0	-23.3	18.4	0.00e+00	0	42	0	1778384896	6	3717
2026-01-12 14:53:17.41	178.45	42.71	-23.1	-23.4	18.3	0.00e+00	0	42	0	1785724928	6	3738
2026-01-12 14:53:18.42	178.59	42.99	-23.0	-23.3	18.4	0.00e+00	0	42	0	1793064960	6	3714
2026-01-12 14:53:19.42	178.73	43.26	-23.0	-23.3	18.4	0.00e+00	0	42	0	1800404992	6	3702
2026-01-12 14:53:20.43	178.87	43.54	-22.8	-22.9	18.6	0.00e+00	0	42	0	1807745024	6	3627
2026-01-12 14:53:21.43	179.02	43.82	-23.2	-23.7	18.2	0.00e+00	0	42	0	1815085056	6	3806
2026-01-12 14:53:22.44	179.17	44.11	-23.1	-23.5	18.3	0.00e+00	0	42	0	1822425088	6	3757
2026-01-12 14:53:23.45	179.32	44.39	-23.2	-23.7	18.2	0.00e+00	0	42	0	1829765120	6	3802
2026-01-12 14:53:24.45	179.47	44.68	-23.2	-23.6	18.2	0.00e+00	0	42	0	1837105152	6	3779
2026-01-12 14:53:25.46	179.63	44.97	-23.0	-23.3	18.4	0.00e+00	0	42	0	1843396608	6	3715
2026-01-12 14:53:26.47	179.79	45.26	-22.8	-22.9	18.6	0.00e+00	0	42	0	1851785216	6	3616
2026-01-12 14:53:27.47	179.95	45.55	-23.2	-23.6	18.2	0.00e+00	0	42	0	1859125248	6	3774
2026-01-12 14:53:28.48	180.12	45.85	-23.3	-23.8	18.1	0.00e+00	0	42	0	1865416704	6	3820
2026-01-12 14:53:29.48	180.29	46.14	-23.2	-23.7	18.2	0.00e+00	0	42	0	1872756736	6	3809
2026-01-12 14:53:30.49	180.46	46.44	-23.3	-23.8	18.2	0.00e+00	0	42	0	1880096768	6	3816
2026-01-12 14:53:31.49	180.63	46.74	-23.6	-23.9	17.8	0.00e+00	0	42	0	1887436800	7	3743
2026-01-12 14:53:32.50	180.81	47.04	-23.8	-24.3	17.6	0.00e+00	0	42	0	1894776832	7	3843
2026-01-12 14:53:33.50	180.99	47.35	-23.9	-24.6	17.5	0.00e+00	0	42	0	1902116864	7	3901
2026-01-12 14:53:34.51	181.18	47.65	-23.8	-24.4	17.6	0.00e+00	0	42	0	1909456896	7	3851
2026-01-12 14:53:35.52	181.37	47.96	-23.8	-24.4	17.6	0.00e+00	0	42	0	1916796928	7	3868
2026-01-12 14:53:36.52	181.56	48.27	-24.0	-24.8	17.3	0.00e+00	0	42	0	1924136960	7	3959
2026-01-12 14:53:37.53	181.76	48.58	-24.3	-24.9	17.1	0.00e+00	0	42	0	1931476992	8	3864
2026-01-12 14:53:38.53	181.96	48.90	-24.3	-24.9	17.1	0.00e+00	0	42	0	1938817024	8	3867
2026-01-12 14:53:39.54	182.16	49.21	-24.2	-24.8	17.2	0.00e+00	0	42	0	1946157056	8	3838
2026-01-12 14:53:40.55	182.37	49.53	-24.1	-24.6	17.3	0.00e+00	0	42	0	1952448512	8	3807
2026-01-12 14:53:41.55	182.58	49.85	-24.3	-25.0	17.1	0.00e+00	0	42	0	1959788544	8	3886
2026-01-12 14:53:42.56	182.80	50.17	-24.4	-24.7	17.0	0.00e+00	0	42	0	1967128576	9	3726
2026-01-12 14:53:43.57	183.03	50.49	-24.1	-24.1	17.3	0.00e+00	0	42	0	1974468608	9	3577
2026-01-12 14:53:44.58	183.25	50.82	-24.1	-24.0	17.4	0.00e+00	0	42	0	1981808640	9	3559
2026-01-12 14:53:45.59	183.49	51.15	-24.2	-24.2	17.2	0.00e+00	0	42	0	1989148672	9	3607
2026-01-12 14:53:46.60	183.72	51.48	-24.1	-23.9	17.4	0.00e+00	0	42	0	1996488704	9	3553
2026-01-12 14:53:47.60	183.96	51.80	-23.8	-24.0	17.4	0.00e+00	0	42	0	2003828736	8	3650
2026-01-12 14:53:48.61	184.21	52.14	-24.0	-24.2	17.5	0.00e+00	0	42	0	2011168768	8	3713
2026-01-12 14:53:49.62	184.47	52.47	-24.1	-24.6	17.3	0.00e+00	0	42	0	2018508800	8	3806
2026-01-12 14:53:50.63	184.73	52.81	-24.2	-24.7	17.2	0.00e+00	0	42	0	2025848832	8	3824
2026-01-12 14:53:51.63	184.99	53.14	-24.1	-24.6	17.3	0.00e+00	0	42	0	2033188864	8	3800
2026-01-12 14:53:52.64	185.26	53.48	-23.3	-23.3	18.2	0.00e+00	0	42	0	2040528896	7	3594
2026-01-12 14:53:53.65	185.54	53.82	-23.8	-23.9	17.7	0.00e+00	0	42	0	2047868928	8	3636
2026-01-12 14:53:54.65	185.82	54.16	-24.0	-24.4	17.5	0.00e+00	0	42	0	2054160384	8	3737
2026-01-12 14:53:55.66	186.11	54.51	-24.2	-24.8	17.2	0.00e+00	0	42	0	2061500416	8	3832
2026-01-12 14:53:56.66	186.41	54.85	-24.3	-24.9	17.2	0.00e+00	0	42	0	2068840448	8	3854
2026-01-12 14:53:57.66	186.71	55.20	-24.0	-24.2	17.5	0.00e+00	0	42	0	2076180480	8	3710
2026-01-12 14:53:58.66	187.02	55.54	-24.2	-24.7	17.4	0.00e+00	0	42	0	2083520512	8	3810
2026-01-12 14:53:59.67	187.34	55.89	-24.5	-25.4	17.0	0.00e+00	0	42	0	2090860544	8	3973
2026-01-12 14:54:00.68	187.67	56.24	-24.3	-24.5	17.2	0.00e+00	0	42	0	2098200576	9	3662
2026-01-12 14:54:01.69	188.00	56.60	-24.1	-23.9	17.4	0.00e+00	0	42	0	2105540608	9	3548
2026-01-12 14:54:02.69	188.35	56.95	-24.1	-24.1	17.4	0.00e+00	0	42	0	2112880640	9	3577
2026-01-12 14:54:03.70	188.70	57.30	-24.5	-25.4	17.0	0.00e+00	0	42	0	2120220672	8	3985
2026-01-12 14:54:04.70	189.06	57.66	-24.1	-24.6	17.4	0.00e+00	0	42	0	2127560704	8	3790
2026-01-12 14:54:05.72	189.44	58.02	-24.2	-24.7	17.3	0.00e+00	0	42	0	2134900736	8	3823
2026-01-12 14:54:06.72	189.82	58.37	-24.3	-24.9	17.2	0.00e+00	0	42	0	2142240768	8	3871
2026-01-12 14:54:07.73	190.21	58.73	-24.4	-25.2	17.0	0.00e+00	0	42	0	2149580800	8	3949
2026-01-12 14:54:08.74	190.61	59.10	-24.6	-25.0	16.7	0.00e+00	0	42	0	2156920832	9	3783
2026-01-12 14:54:09.74	191.03	59.45	-24.0	-24.3	17.5	0.00e+00	0	42	0	2163212288	8	3738
2026-01-12 14:54:10.75	191.45	59.82	-23.9	-24.2	17.6	0.00e+00	0	42	0	2170552320	8	3703
2026-01-12 14:54:11.76	191.89	60.18	-24.1	-24.5	17.5	0.00e+00	0	42	0	2177892352	8	3773
2026-01-12 14:54:12.77	192.34	60.54	-24.0	-24.4	17.5	0.00e+00	0	42	0	2185232384	8	3753
2026-01-12 14:54:13.77	192.80	60.90	-24.0	-24.3	17.5	0.00e+00	0	42	0	2192572416	8	3735
2026-01-12 14:54:14.78	193.28	61.27	-23.6	-23.4	18.0	0.00e+00	0	42	0	2199912448	8	3533
2026-01-12 14:54:15.79	193.77	61.63	-23.8	-23.8	17.8	0.00e+00	0	42	0	2207252480	8	3627
2026-01-12 14:54:16.79	194.27	61.99	-23.7	-23.6	17.9	0.00e+00	0	42	0	2214592512	8	3578
2026-01-12 14:54:17.79	194.79	62.36	-23.3	-23.2	18.3	0.00e+00	0	42	0	2221932544	7	3592
2026-01-12 14:54:18.80	195.33	62.72	-23.6	-24.0	17.9	0.00e+00	0	42	0	2229272576	7	3777
2026-01-12 14:54:19.80	195.88	63.08	-23.2	-23.6	18.4	0.00e+00	0	42	0	2236612608	6	3787
2026-01-12 14:54:20.80	196.44	63.44	-23.3	-23.9	18.3	0.00e+00	0	42	0	2243952640	6	3854
2026-01-12 14:54:21.80	197.02	63.80	-23.5	-23.7	18.1	0.00e+00	0	42	0	2250244096	7	3700
2026-01-12 14:54:22.81	197.63	64.16	-23.5	-23.7	18.1	0.00e+00	0	42	0	2257584128	7	3705
2026-01-12 14:54:23.81	198.25	64.52	-23.2	-23.1	18.4	0.00e+00	0	42	0	2264924160	7	3571
2026-01-12 14:54:24.82	198.89	64.88	-22.8	-22.8	18.8	0.00e+00	0	42	0	2272264192	6	3591
2026-01-12 14:54:25.82	199.55	65.24	-22.9	-23.0	18.7	0.00e+00	0	42	0	2279604224	6	3643
2026-01-12 14:54:26.83	200.24	65.60	-22.8	-22.8	18.8	0.00e+00	0	42	0	2286944256	6	3594
2026-01-12 14:54:27.84	200.95	65.96	-22.8	-22.8	18.9	0.00e+00	0	42	0	2294284288	6	3591
2026-01-12 14:54:28.84	201.68	66.31	-22.6	-22.4	19.0	0.00e+00	0	42	0	2301624320	6	3523
2026-01-12 14:54:29.85	202.44	66.66	-22.5	-22.8	18.9	0.00e+00	0	42	0	2308964352	5	3699
2026-01-12 14:54:30.86	203.22	67.01	-22.4	-22.4	19.2	0.00e+00	0	42	0	2316304384	5	3613
2026-01-12 14:54:31.86	204.02	67.36	-22.5	-22.6	19.2	0.00e+00	0	42	0	2323644416	5	3661
2026-01-12 14:54:32.87	204.86	67.70	-22.5	-22.6	19.2	0.00e+00	0	42	0	2330984448	5	3645
2026-01-12 14:54:33.88	205.72	68.04	-22.8	-23.2	18.9	0.00e+00	0	42	0	2338324480	5	3794
2026-01-12 14:54:34.88	206.61	68.38	-22.8	-23.4	18.8	0.00e+00	0	42	0	2345664512	5	3841
2026-01-12 14:54:35.89	207.53	68.72	-22.8	-23.3	18.6	0.00e+00	0	42	0	2351955968	5	3798
2026-01-12 14:54:36.89	208.48	69.04	-22.9	-23.4	18.7	0.00e+00	0	42	0	2359296000	5	3844
2026-01-12 14:54:37.89	209.46	69.37	-22.6	-22.9	19.0	0.00e+00	0	42	0	2366636032	5	3710
2026-01-12 14:54:38.89	210.47	69.69	-22.6	-22.9	19.0	0.00e+00	0	42	0	2373976064	5	3727
2026-01-12 14:54:39.90	211.53	70.00	-22.8	-23.3	18.8	0.00e+00	0	42	0	2381316096	5	3811
2026-01-12 14:54:40.91	212.62	70.31	-22.8	-23.3	18.8	0.00e+00	0	42	0	2388656128	5	3815
2026-01-12 14:54:41.92	213.75	70.62	-23.0	-23.7	18.6	0.00e+00	0	42	0	2395996160	5	3906
2026-01-12 14:54:42.93	214.92	70.92	-23.0	-23.2	18.6	0.00e+00	0	42	0	2403336192	6	3673
2026-01-12 14:54:43.94	216.13	71.21	-23.2	-23.6	18.4	0.00e+00	0	42	0	2410676224	6	3783
2026-01-12 14:54:44.94	217.36	71.49	-22.9	-23.1	18.7	0.00e+00	0	42	0	2418016256	6	3654
2026-01-12 14:54:45.95	218.65	71.77	-23.0	-23.2	18.6	0.00e+00	0	42	0	2425356288	6	3689
2026-01-12 14:54:46.96	219.98	72.04	-22.9	-23.0	18.7	0.00e+00	0	42	0	2432696320	6	3639
2026-01-12 14:54:47.96	221.33	72.30	-22.9	-23.0	18.7	0.00e+00	0	42	0	2438987776	6	3640
2026-01-12 14:54:48.97	222.74	72.55	-23.0	-23.2	18.7	0.00e+00	0	42	0	2447376384	6	3690
2026-01-12 14:54:49.98	224.20	72.79	-23.2	-23.6	18.4	0.00e+00	0	42	0	2454716416	6	3768
2026-01-12 14:54:50.99	225.70	73.02	-22.6	-22.3	19.1	0.00e+00	0	42	0	2461007872	6	3499
2026-01-12 14:54:51.99	227.22	73.24	-22.5	-22.6	19.0	0.00e+00	0	42	0	2468347904	5	3664
2026-01-12 14:54:53.00	228.80	73.45	-22.6	-22.9	19.0	0.00e+00	0	42	0	2475687936	5	3717
2026-01-12 14:54:54.00	230.41	73.65	-22.7	-23.1	18.9	0.00e+00	0	42	0	2483027968	5	3757
2026-01-12 14:54:55.02	232.08	73.83	-22.4	-22.4	19.2	0.00e+00	0	42	0	2490368000	5	3616
2026-01-12 14:54:56.02	233.77	74.00	-22.1	-21.8	19.6	0.00e+00	0	42	0	2497708032	5	3478
2026-01-12 14:54:57.03	235.51	74.16	-22.0	-21.5	19.4	0.00e+00	0	42	0	2505048064	5	3419
2026-01-12 14:54:58.03	237.26	74.31	-22.4	-22.5	19.2	0.00e+00	0	42	0	2512388096	5	3631
2026-01-12 14:54:59.04	239.06	74.44	-22.5	-22.8	19.1	0.00e+00	0	42	0	2519728128	5	3689
2026-01-12 14:55:00.04	240.88	74.55	-22.2	-22.1	19.4	0.00e+00	0	42	0	2527068160	5	3544
2026-01-12 14:55:01.05	242.74	74.65	-22.2	-22.1	19.4	0.00e+00	0	42	0	2534408192	5	3549
2026-01-12 14:55:02.06	244.63	74.73	-22.5	-22.7	19.1	0.00e+00	0	42	0	2540699648	5	3666
2026-01-12 14:55:03.06	246.51	74.80	-22.3	-22.2	19.3	0.00e+00	0	42	0	2549088256	5	3575
2026-01-12 14:55:04.07	248.43	74.86	-22.4	-22.5	19.2	0.00e+00	0	42	0	2556428288	5	3629
2026-01-12 14:55:05.08	250.36	74.89	-22.5	-22.7	19.3	0.00e+00	0	42	0	2562719744	5	3677
2026-01-12 14:55:06.09	252.30	74.91	-22.6	-22.8	19.2	0.00e+00	0	42	0	2570059776	5	3694
2026-01-12 14:55:07.09	254.22	74.92	-22.7	-23.0	19.1	0.00e+00	0	42	0	2577399808	5	3737
2026-01-12 14:55:08.10	256.16	74.90	-23.1	-23.5	18.5	0.00e+00	0	42	0	2584739840	6	3737
2026-01-12 14:55:09.11	258.09	74.87	-22.9	-22.9	18.9	0.00e+00	0	42	0	2592079872	6	3605
2026-01-12 14:55:10.12	260.02	74.83	-22.7	-22.5	19.1	0.00e+00	0	42	0	2599419904	6	3530
2026-01-12 14:55:11.12	261.91	74.76	-22.7	-22.6	19.1	0.00e+00	0	42	0	2606759936	6	3559
2026-01-12 14:55:12.13	263.80	74.69	-22.9	-22.9	18.9	0.00e+00	0	42	0	2614099968	6	3624
2026-01-12 14:55:13.14	265.67	74.59	-22.9	-23.0	18.8	0.00e+00	0	42	0	2621440000	6	3648
2026-01-12 14:55:14.14	267.50	74.48	-23.3	-23.8	18.5	0.00e+00	0	42	0	2628780032	6	3807
2026-01-12 14:55:15.15	269.31	74.36	-23.4	-24.1	18.3	0.00e+00	0	42	0	2636120064	6	3874
2026-01-12 14:55:16.15	271.08	74.22	-24.0	-24.9	17.6	0.00e+00	0	42	0	2643460096	7	3957
2026-01-12 14:55:17.16	272.83	74.07	-24.3	-25.0	17.3	0.00e+00	0	42	0	2649751552	8	3891
2026-01-12 14:55:18.17	274.55	73.90	-23.7	-23.7	18.0	1.10e-06	0	42	0	2658140160	8	3581
2026-01-12 14:55:19.17	276.21	73.72	-23.3	-23.2	18.5	0.00e+00	0	42	0	2665480192	7	3587
2026-01-12 14:55:20.17	277.83	73.53	-23.1	-22.8	18.7	0.00e+00	0	42	0	2671771648	7	3501
2026-01-12 14:55:21.18	279.42	73.33	-23.2	-23.1	18.6	0.00e+00	0	42	0	2679111680	7	3556
2026-01-12 14:55:22.19	280.98	73.11	-23.5	-23.7	18.1	0.00e+00	0	42	0	2686451712	7	3679
2026-01-12 14:55:23.20	282.49	72.89	-23.4	-23.6	18.3	0.00e+00	0	42	0	2693791744	7	3665
2026-01-12 14:55:24.21	283.96	72.65	-23.7	-24.3	17.9	0.00e+00	0	42	0	2701131776	7	3817
2026-01-12 14:55:25.21	285.38	72.41	-23.3	-23.3	18.5	0.00e+00	0	42	0	2708471808	7	3594
2026-01-12 14:55:26.22	286.76	72.15	-23.3	-23.3	18.5	0.00e+00	0	42	0	2715811840	7	3603
2026-01-12 14:55:27.23	288.11	71.88	-23.3	-23.2	18.5	0.00e+00	0	42	0	2723151872	7	3595
2026-01-12 14:55:28.24	289.41	71.61	-23.1	-22.9	18.6	0.00e+00	0	42	0	2730491904	7	3517
2026-01-12 14:55:29.24	290.66	71.33	-23.2	-23.1	18.4	0.00e+00	0	42	0	2737831936	7	3564
2026-01-12 14:55:30.24	291.87	71.04	-23.5	-23.8	18.2	0.00e+00	0	42	0	2745171968	7	3702
2026-01-12 14:55:31.25	293.05	70.75	-23.4	-23.5	18.3	0.00e+00	0	42	0	2752512000	7	3655
2026-01-12 14:55:32.26	294.20	70.45	-23.1	-22.9	18.6	0.00e+00	0	42	0	2758803456	7	3514
2026-01-12 14:55:33.26	295.29	70.14	-23.0	-23.1	18.8	0.00e+00	0	42	0	2767192064	6	3662
2026-01-12 14:55:34.27	296.37	69.83	-23.1	-23.5	18.6	0.00e+00	0	42	0	2774532096	6	3741
2026-01-12 14:55:35.27	297.39	69.51	-23.4	-24.0	18.3	0.00e+00	0	42	0	2780823552	6	3875
2026-01-12 14:55:36.28	298.39	69.19	-23.3	-23.9	18.3	0.00e+00	0	42	0	2788163584	6	3851
2026-01-12 14:55:37.28	299.35	68.86	-23.1	-23.5	18.5	0.00e+00	0	42	0	2795503616	6	3745
2026-01-12 14:55:38.29	300.29	68.53	-23.0	-23.1	18.8	0.00e+00	0	42	0	2802843648	6	3660
2026-01-12 14:55:39.30	301.20	68.19	-23.3	-23.7	18.4	0.00e+00	0	42	0	2810183680	6	3803
2026-01-12 14:55:40.31	302.07	67.85	-23.4	-24.1	18.2	0.00e+00	0	42	0	2817523712	6	3885
2026-01-12 14:55:41.32	302.92	67.51	-23.1	-23.3	18.7	0.00e+00	0	42	0	2824863744	6	3704
2026-01-12 14:55:42.33	303.74	67.16	-22.8	-22.8	18.9	0.00e+00	0	42	0	2832203776	6	3600
2026-01-12 14:55:43.33	304.52	66.81	-22.9	-22.9	18.8	0.00e+00	0	42	0	2839543808	6	3630
2026-01-12 14:55:44.34	305.29	66.46	-22.8	-22.9	18.9	0.00e+00	0	42	0	2846883840	6	3611
2026-01-12 14:55:45.35	306.03	66.11	-23.0	-23.2	18.7	0.00e+00	0	42	0	2854223872	6	3674
2026-01-12 14:55:46.36	306.75	65.75	-23.1	-23.4	18.5	4.50e-06	0	42	0	2860515328	6	3727
2026-01-12 14:55:47.36	307.44	65.40	-22.9	-23.0	18.8	0.00e+00	0	42	0	2867855360	6	3635
2026-01-12 14:55:48.37	308.12	65.04	-22.8	-22.8	18.8	0.00e+00	0	42	0	2876243968	6	3597
2026-01-12 14:55:49.38	308.77	64.68	-22.8	-23.3	18.8	0.00e+00	0	42	0	2882535424	5	3811
2026-01-12 14:55:50.38	309.40	64.32	-23.0	-23.8	18.6	0.00e+00	0	42	0	2889875456	5	3917
2026-01-12 14:55:51.39	310.01	63.96	-23.0	-23.3	18.6	0.00e+00	0	42	0	2897215488	6	3695
2026-01-12 14:55:52.40	310.60	63.60	-23.1	-23.5	18.5	0.00e+00	0	42	0	2904555520	6	3737
2026-01-12 14:55:53.41	311.18	63.24	-23.1	-23.4	18.5	1.10e-06	0	42	0	2911895552	6	3715
2026-01-12 14:55:54.41	311.73	62.88	-22.9	-23.0	18.6	0.00e+00	0	42	0	2919235584	6	3644
2026-01-12 14:55:55.42	312.28	62.51	-23.0	-23.3	18.6	0.00e+00	0	42	0	2926575616	6	3695
2026-01-12 14:55:56.42	312.80	62.15	-23.2	-23.7	18.4	0.00e+00	0	42	0	2933915648	6	3791
2026-01-12 14:55:57.42	313.31	61.79	-23.4	-24.0	18.2	0.00e+00	0	42	0	2941255680	6	3871
2026-01-12 14:55:58.43	313.80	61.43	-23.6	-23.9	18.0	0.00e+00	0	42	0	2948595712	7	3734
2026-01-12 14:55:59.44	314.29	61.07	-23.9	-24.5	17.6	0.00e+00	0	42	0	2955935744	7	3876
2026-01-12 14:56:00.44	314.75	60.71	-24.1	-24.6	17.5	0.00e+00	0	42	0	2963275776	8	3783
2026-01-12 14:56:01.45	315.21	60.34	-24.4	-25.1	17.1	0.00e+00	0	42	0	2969567232	8	3906
2026-01-12 14:56:02.46	315.65	59.98	-24.4	-25.2	17.1	0.00e+00	0	42	0	2976907264	8	3946
2026-01-12 14:56:03.47	316.08	59.62	-24.3	-24.9	17.3	0.00e+00	0	42	0	2985295872	8	3869
2026-01-12 14:56:04.47	316.50	59.26	-24.3	-24.9	17.3	0.00e+00	0	42	0	2991587328	8	3853
2026-01-12 14:56:05.48	316.91	58.90	-24.4	-25.1	17.2	0.00e+00	0	42	0	2998927360	8	3902
2026-01-12 14:56:06.48	317.30	58.54	-24.3	-24.9	17.2	0.00e+00	0	42	0	3006267392	8	3859
2026-01-12 14:56:07.49	317.69	58.19	-24.3	-25.0	17.2	0.00e+00	0	42	0	3013607424	8	3880
2026-01-12 14:56:08.50	318.06	57.83	-24.4	-25.2	17.1	0.00e+00	0	43	0	3020947456	8	3939
2026-01-12 14:56:09.51	318.43	57.47	-24.4	-25.2	17.0	0.00e+00	0	42	0	3028287488	8	3939
2026-01-12 14:56:10.51	318.78	57.12	-24.7	-25.2	16.8	0.00e+00	0	42	0	3035627520	9	3834
2026-01-12 14:56:11.52	319.13	56.77	-24.9	-25.6	16.6	0.00e+00	0	42	0	3042967552	9	3927
2026-01-12 14:56:12.53	319.47	56.41	-24.8	-25.5	16.6	0.00e+00	0	42	0	3050307584	9	3914
2026-01-12 14:56:13.54	319.80	56.06	-24.4	-24.5	17.1	0.00e+00	0	42	0	3057647616	9	3674
2026-01-12 14:56:14.54	320.12	55.72	-24.3	-24.3	17.2	0.00e+00	0	42	0	3064987648	9	3636
2026-01-12 14:56:15.55	320.44	55.37	-24.4	-24.6	17.2	0.00e+00	0	42	0	3071279104	9	3687
2026-01-12 14:56:16.56	320.75	55.02	-24.4	-24.7	17.0	0.00e+00	0	42	0	3078619136	9	3725
2026-01-12 14:56:17.56	321.05	54.68	-24.4	-24.7	17.0	0.00e+00	0	42	0	3085959168	9	3726
2026-01-12 14:56:18.57	321.34	54.33	-24.5	-24.9	17.0	0.00e+00	0	42	0	3093299200	9	3751
2026-01-12 14:56:19.58	321.63	53.99	-24.1	-24.0	17.3	0.00e+00	0	42	0	3100639232	9	3558
2026-01-12 14:56:20.58	321.90	53.65	-23.7	-23.6	17.8	0.00e+00	0	42	0	3107979264	8	3581
2026-01-12 14:56:21.59	322.18	53.32	-23.5	-23.3	18.0	0.00e+00	0	42	0	3115319296	8	3511
2026-01-12 14:56:22.60	322.45	52.98	-23.6	-23.5	17.9	0.00e+00	0	42	0	3122659328	8	3542
2026-01-12 14:56:23.60	322.71	52.65	-23.9	-24.1	17.6	0.00e+00	0	42	0	3129999360	8	3684
2026-01-12 14:56:24.61	322.96	52.31	-23.9	-24.0	17.6	0.00e+00	0	42	0	3137339392	8	3665
2026-01-12 14:56:25.62	323.21	51.98	-23.9	-24.0	17.6	0.00e+00	0	42	0	3144679424	8	3653
2026-01-12 14:56:26.62	323.45	51.65	-23.8	-23.9	17.6	0.00e+00	0	42	0	3152019456	8	3643
2026-01-12 14:56:27.62	323.69	51.33	-23.8	-23.9	17.7	0.00e+00	0	42	0	3159359488	8	3628
2026-01-12 14:56:28.63	323.93	51.00	-23.8	-23.9	17.7	0.00e+00	0	42	0	3166699520	8	3625
2026-01-12 14:56:29.65	324.16	50.67	-24.0	-24.4	17.4	0.00e+00	0	42	0	3174039552	8	3751
2026-01-12 14:56:30.65	324.38	50.35	-24.2	-24.8	17.1	0.00e+00	0	42	0	3180331008	8	3834
2026-01-12 14:56:31.66	324.60	50.03	-24.1	-24.6	17.3	0.00e+00	0	42	0	3188719616	8	3786
2026-01-12 14:56:32.67	324.82	49.71	-24.0	-24.3	17.4	0.00e+00	0	42	0	3196059648	8	3726
2026-01-12 14:56:33.68	325.03	49.39	-24.1	-24.4	17.4	0.00e+00	0	42	0	3202351104	8	3748
2026-01-12 14:56:34.69	325.23	49.07	-24.2	-24.8	17.2	0.00e+00	0	42	0	3209691136	8	3829
2026-01-12 14:56:35.69	325.43	48.76	-24.2	-24.7	17.3	0.00e+00	0	42	0	3217031168	8	3822
2026-01-12 14:56:36.70	325.63	48.45	-23.9	-24.2	17.5	0.00e+00	0	42	0	3224371200	8	3697
2026-01-12 14:56:37.70	325.83	48.14	-24.0	-24.4	17.3	0.00e+00	0	42	0	3231711232	8	3748
2026-01-12 14:56:38.71	326.02	47.83	-24.2	-24.8	17.2	0.00e+00	0	42	0	3239051264	8	3837
2026-01-12 14:56:39.72	326.21	47.53	-24.2	-24.7	17.2	0.00e+00	0	42	0	3246391296	8	3824
2026-01-12 14:56:40.72	326.39	47.22	-24.3	-24.9	16.9	0.00e+00	0	42	0	3253731328	8	3873
2026-01-12 14:56:41.73	326.57	46.92	-24.2	-24.7	17.1	0.00e+00	0	42	0	3261071360	8	3813
2026-01-12 14:56:42.74	326.75	46.62	-24.2	-24.8	17.0	0.00e+00	0	42	0	3268411392	8	3838
2026-01-12 14:56:43.75	326.92	46.32	-23.9	-24.0	17.6	0.00e+00	0	42	0	3275751424	8	3665
2026-01-12 14:56:44.75	327.09	46.03	-23.3	-23.3	18.1	0.00e+00	0	42	0	3282042880	7	3604
2026-01-12 14:56:45.76	327.26	45.73	-23.0	-22.6	18.5	0.00e+00	0	42	0	3289382912	7	3456
2026-01-12 14:56:46.76	327.42	45.44	-22.9	-23.0	18.5	0.00e+00	0	42	0	3297771520	6	3650
2026-01-12 14:56:47.77	327.58	45.15	-23.1	-23.3	18.4	0.00e+00	0	42	0	3304062976	6	3716
2026-01-12 14:56:48.78	327.74	44.86	-23.0	-23.3	18.3	0.00e+00	0	42	0	3311403008	6	3704
2026-01-12 14:56:49.79	327.90	44.57	-23.2	-23.6	18.2	0.00e+00	0	42	0	3318743040	6	3784
2026-01-12 14:56:50.79	328.05	44.29	-23.2	-23.6	18.2	0.00e+00	0	42	0	3326083072	6	3788
2026-01-12 14:56:51.80	328.20	44.00	-23.1	-23.5	18.1	0.00e+00	0	42	0	3333423104	6	3765
2026-01-12 14:56:52.80	328.34	43.72	-23.2	-23.7	18.2	0.00e+00	0	42	0	3340763136	6	3804
2026-01-12 14:56:53.81	328.49	43.44	-23.0	-23.1	18.5	0.00e+00	0	42	0	3348103168	6	3674
2026-01-12 14:56:54.82	328.63	43.17	-23.0	-23.2	18.4	0.00e+00	0	42	0	3355443200	6	3681
2026-01-12 14:56:55.83	328.77	42.89	-22.7	-22.6	18.7	0.00e+00	0	42	0	3362783232	6	3565
2026-01-12 14:56:56.83	328.91	42.62	-22.6	-22.3	18.8	0.00e+00	0	42	0	3370123264	6	3497
2026-01-12 14:56:57.84	329.05	42.34	-22.5	-22.1	19.0	0.00e+00	0	42	0	3377463296	6	3455
2026-01-12 14:56:58.84	329.18	42.07	-22.6	-22.4	18.7	0.00e+00	0	42	0	3384803328	6	3520
2026-01-12 14:56:59.84	329.31	41.81	-22.6	-22.5	18.8	0.00e+00	0	42	0	3391094784	6	3534
2026-01-12 14:57:00.84	329.44	41.54	-23.0	-23.1	18.5	0.00e+00	0	42	0	3398434816	6	3668
2026-01-12 14:57:01.85	329.57	41.28	-22.9	-23.0	18.4	0.00e+00	0	42	0	3405774848	6	3648
2026-01-12 14:57:02.85	329.69	41.02	-22.9	-23.0	18.5	0.00e+00	0	42	0	3413114880	6	3649
2026-01-12 14:57:03.86	329.82	40.75	-23.1	-23.4	18.3	0.00e+00	0	42	0	3420454912	6	3730
2026-01-12 14:57:04.87	329.94	40.49	-23.0	-23.3	18.3	0.00e+00	0	42	0	3427794944	6	3697
2026-01-12 14:57:05.88	330.06	40.23	-23.0	-23.3	18.3	0.00e+00	0	42	0	3435134976	6	3712
2026-01-12 14:57:06.89	330.18	39.98	-22.9	-23.1	18.4	0.00e+00	0	42	0	3442475008	6	3667
2026-01-12 14:57:07.90	330.29	39.72	-23.0	-23.2	18.4	0.00e+00	0	42	0	3449815040	6	3678
2026-01-12 14:57:08.90	330.41	39.47	-23.1	-23.4	18.3	0.00e+00	0	42	0	3457155072	6	3723
2026-01-12 14:57:09.91	330.52	39.22	-22.9	-23.0	18.5	0.00e+00	0	42	0	3464495104	6	3639
2026-01-12 14:57:10.92	330.63	38.97	-22.8	-22.8	18.6	0.00e+00	0	42	0	3471835136	6	3598
2026-01-12 14:57:11.92	330.74	38.72	-22.8	-22.9	18.5	0.00e+00	0	42	0	3479175168	6	3617
2026-01-12 14:57:12.93	330.85	38.48	-22.7	-22.6	18.6	0.00e+00	0	42	0	3486515200	6	3565
2026-01-12 14:57:13.93	330.95	38.23	-22.8	-22.8	18.6	0.00e+00	0	42	0	3493855232	6	3598
2026-01-12 14:57:14.93	331.06	37.99	-22.9	-23.1	18.5	0.00e+00	0	42	0	3500146688	6	3661
2026-01-12 14:57:15.93	331.16	37.75	-22.7	-22.7	18.7	0.00e+00	0	42	0	3507486720	6	3570
2026-01-12 14:57:16.94	331.26	37.51	-22.6	-22.5	18.7	0.00e+00	0	42	0	3514826752	6	3538
2026-01-12 14:57:17.94	331.36	37.28	-22.7	-22.5	18.7	0.00e+00	0	42	0	3522166784	6	3544
2026-01-12 14:57:18.95	331.46	37.04	-22.5	-22.3	18.8	0.00e+00	0	42	0	3529506816	6	3496
2026-01-12 14:57:19.96	331.56	36.81	-22.5	-22.3	18.8	0.00e+00	0	42	0	3536846848	6	3492
2026-01-12 14:57:20.97	331.65	36.57	-22.7	-22.6	18.7	0.00e+00	0	42	0	3544186880	6	3552
2026-01-12 14:57:21.98	331.75	36.34	-22.5	-22.2	18.8	0.00e+00	0	42	0	3551526912	6	3465
2026-01-12 14:57:22.98	331.84	36.11	-22.4	-22.0	18.9	0.00e+00	0	42	0	3558866944	6	3442
2026-01-12 14:57:23.98	331.93	35.89	-22.4	-22.5	19.0	0.00e+00	0	42	0	3566206976	5	3638
2026-01-12 14:57:24.98	332.02	35.66	-22.4	-22.5	18.9	0.00e+00	0	42	0	3573547008	5	3636
2026-01-12 14:57:25.99	332.11	35.43	-22.6	-22.8	18.8	0.00e+00	0	42	0	3579838464	5	3714
2026-01-12 14:57:26.99	332.20	35.21	-22.5	-22.7	18.8	0.00e+00	0	42	0	3587178496	5	3686
2026-01-12 14:57:28.00	332.29	34.99	-22.7	-23.0	18.5	0.00e+00	0	42	0	3594518528	5	3749
2026-01-12 14:57:29.00	332.38	34.77	-22.6	-22.9	18.7	0.00e+00	0	42	0	3601858560	5	3725
2026-01-12 14:57:30.00	332.46	34.55	-22.7	-23.1	18.6	0.00e+00	0	42	0	3609198592	5	3769
2026-01-12 14:57:31.01	332.55	34.33	-22.6	-23.0	18.7	0.00e+00	0	42	0	3616538624	5	3743
2026-01-12 14:57:32.01	332.63	34.12	-22.6	-23.0	18.7	0.00e+00	0	42	0	3623878656	5	3738
2026-01-12 14:57:33.02	332.71	33.90	-22.7	-23.2	18.6	0.00e+00	0	42	0	3631218688	5	3791
2026-01-12 14:57:34.03	332.79	33.69	-22.5	-22.8	18.7	0.00e+00	0	42	0	3638558720	5	3703
2026-01-12 14:57:35.04	332.87	33.48	-22.5	-22.8	18.8	0.00e+00	0	42	0	3645898752	5	3700
2026-01-12 14:57:36.04	332.95	33.27	-22.7	-23.1	18.6	0.00e+00	0	42	0	3653238784	5	3771
2026-01-12 14:57:37.04	333.03	33.06	-22.4	-22.5	18.9	0.00e+00	0	42	0	3660578816	5	3640
2026-01-12 14:57:38.04	333.11	32.85	-22.3	-22.2	19.0	0.00e+00	0	42	0	3666870272	5	3575
2026-01-12 14:57:39.05	333.18	32.65	-22.2	-22.1	19.1	0.00e+00	0	42	0	3674210304	5	3539
2026-01-12 14:57:40.05	333.26	32.44	-22.2	-22.1	19.1	0.00e+00	0	42	0	3681550336	5	3546
2026-01-12 14:57:41.06	333.33	32.24	-22.2	-22.1	19.1	0.00e+00	0	42	0	3688890368	5	3548
2026-01-12 14:57:42.07	333.41	32.04	-22.2	-22.0	19.2	0.00e+00	0	42	0	3696230400	5	3525
2026-01-12 14:57:43.07	333.48	31.84	-22.3	-22.2	19.0	0.00e+00	0	42	0	3703570432	5	3578
2026-01-12 14:57:44.08	333.55	31.64	-22.2	-22.1	19.1	0.00e+00	0	42	0	3710910464	5	3551
2026-01-12 14:57:45.09	333.62	31.44	-22.3	-22.3	19.0	0.00e+00	0	42	0	3718250496	5	3592
2026-01-12 14:57:46.10	333.69	31.24	-22.3	-22.2	19.0	0.00e+00	0	42	0	3725590528	5	3571
2026-01-12 14:57:47.11	333.76	31.04	-22.4	-22.5	18.8	0.00e+00	0	42	0	3732930560	5	3641
2026-01-12 14:57:48.11	333.83	30.85	-22.5	-22.8	18.7	0.00e+00	0	42	0	3740270592	5	3695
2026-01-12 14:57:49.12	333.90	30.66	-22.5	-22.7	18.8	0.00e+00	0	42	0	3747610624	5	3681
2026-01-12 14:57:50.13	333.97	30.46	-22.5	-22.7	18.7	0.00e+00	0	42	0	3754950656	5	3686
2026-01-12 14:57:51.13	334.03	30.28	-22.5	-22.7	18.7	0.00e+00	0	42	0	3762290688	5	3681
2026-01-12 14:57:52.14	334.10	30.09	-22.6	-22.9	18.7	0.00e+00	0	42	0	3768582144	5	3718
2026-01-12 14:57:53.15	334.17	29.90	-22.7	-23.1	18.4	0.00e+00	0	42	0	3775922176	5	3770
2026-01-12 14:57:54.16	334.23	29.71	-22.7	-23.1	18.5	0.00e+00	0	42	0	3783262208	5	3781
2026-01-12 14:57:55.15	334.29	29.53	-22.8	-23.3	18.4	0.00e+00	0	42	0	3790602240	5	3807
2026-01-12 14:57:56.16	334.36	29.34	-22.9	-23.5	18.3	0.00e+00	0	42	0	3797942272	5	3862
2026-01-12 14:57:57.16	334.42	29.16	-22.7	-23.2	18.5	0.00e+00	0	42	0	3805282304	5	3788
2026-01-12 14:57:58.17	334.48	28.98	-22.7	-23.1	18.5	0.00e+00	0	42	0	3812622336	5	3764
2026-01-12 14:57:59.17	334.54	28.80	-22.7	-23.2	18.5	0.00e+00	0	42	0	3819962368	5	3793
2026-01-12 14:58:00.18	334.60	28.61	-22.7	-23.1	18.5	0.00e+00	0	42	0	3827302400	5	3779
2026-01-12 14:58:01.19	334.66	28.43	-23.0	-23.7	18.2	0.00e+00	0	42	0	3834642432	5	3913
2026-01-12 14:58:02.20	334.72	28.26	-22.8	-23.4	18.4	0.00e+00	0	43	0	3841982464	5	3841
2026-01-12 14:58:03.20	334.78	28.08	-22.7	-23.0	18.6	0.00e+00	0	42	0	3849322496	5	3752
2026-01-12 14:58:04.21	334.84	27.90	-22.6	-22.9	18.6	0.00e+00	0	42	0	3855613952	5	3734
2026-01-12 14:58:05.22	334.90	27.73	-22.7	-23.1	18.5	0.00e+00	0	42	0	3864002560	5	3776
2026-01-12 14:58:06.22	334.95	27.56	-22.7	-23.2	18.5	0.00e+00	0	42	0	3871342592	5	3794
2026-01-12 14:58:07.22	335.01	27.39	-22.8	-23.3	18.3	0.00e+00	0	42	0	3877634048	5	3823
2026-01-12 14:58:08.23	335.06	27.21	-22.8	-23.4	18.4	0.00e+00	0	42	0	3884974080	5	3845
2026-01-12 14:58:09.24	335.12	27.04	-22.9	-23.6	18.3	0.00e+00	0	42	0	3892314112	5	3889
2026-01-12 14:58:10.25	335.17	26.87	-22.9	-23.6	18.2	0.00e+00	0	42	0	3899654144	5	3888
2026-01-12 14:58:11.26	335.23	26.70	-23.0	-23.8	18.2	0.00e+00	0	42	0	3906994176	5	3924
2026-01-12 14:58:12.27	335.28	26.54	-23.0	-23.7	18.2	0.00e+00	0	42	0	3914334208	5	3914
2026-01-12 14:58:13.27	335.33	26.37	-23.0	-23.8	18.1	0.00e+00	0	42	0	3921674240	5	3940
2026-01-12 14:58:14.28	335.39	26.21	-23.0	-23.7	18.2	0.00e+00	0	42	0	3929014272	5	3919
2026-01-12 14:58:15.28	335.44	26.04	-23.0	-23.7	18.2	0.00e+00	0	42	0	3936354304	5	3915
2026-01-12 14:58:16.29	335.49	25.88	-23.1	-23.9	18.1	0.00e+00	0	42	0	3943694336	5	3954
2026-01-12 14:58:17.30	335.54	25.72	-23.1	-23.5	18.1	0.00e+00	0	42	0	3951034368	6	3756
2026-01-12 14:58:18.31	335.59	25.55	-23.0	-23.3	18.1	0.00e+00	0	43	0	3958374400	6	3725
2026-01-12 14:58:19.31	335.64	25.40	-23.1	-23.4	18.1	0.00e+00	0	42	0	3965714432	6	3730
2026-01-12 14:58:20.32	335.69	25.24	-23.1	-23.4	18.0	0.00e+00	0	42	0	3973054464	6	3726
2026-01-12 14:58:21.32	335.74	25.08	-23.0	-23.3	18.1	0.00e+00	0	42	0	3979345920	6	3716
2026-01-12 14:58:22.33	335.79	24.92	-23.0	-23.2	18.2	0.00e+00	0	42	0	3986685952	6	3701
2026-01-12 14:58:23.34	335.84	24.76	-23.0	-23.3	18.1	0.00e+00	0	42	0	3994025984	6	3712
2026-01-12 14:58:24.34	335.89	24.61	-23.0	-23.2	18.2	0.00e+00	0	42	0	4001366016	6	3689
2026-01-12 14:58:25.35	335.93	24.45	-23.0	-23.3	18.1	0.00e+00	0	42	0	4008706048	6	3720
2026-01-12 14:58:26.35	335.98	24.30	-23.1	-23.5	18.0	0.00e+00	0	43	0	4016046080	6	3754
2026-01-12 14:58:27.36	336.03	24.15	-23.0	-23.3	18.1	0.00e+00	0	42	0	4023386112	6	3717
2026-01-12 14:58:28.38	336.07	23.99	-23.0	-23.3	18.1	0.00e+00	0	42	0	4030726144	6	3706
2026-01-12 14:58:29.38	336.12	23.84	-23.0	-23.2	18.1	0.00e+00	0	43	0	4038066176	6	3699
2026-01-12 14:58:30.39	336.17	23.69	-23.0	-23.3	18.1	0.00e+00	0	42	0	4045406208	6	3722
2026-01-12 14:58:31.40	336.21	23.54	-23.1	-23.4	18.1	0.00e+00	0	42	0	4052746240	6	3726
2026-01-12 14:58:32.40	336.25	23.39	-23.2	-23.6	18.0	0.00e+00	0	42	0	4060086272	6	3779
2026-01-12 14:58:33.41	336.30	23.25	-23.0	-23.2	18.1	0.00e+00	0	42	0	4067426304	6	3688
2026-01-12 14:58:34.42	336.34	23.10	-22.9	-23.1	18.2	0.00e+00	0	42	0	4074766336	6	3677
2026-01-12 14:58:35.43	336.39	22.95	-23.0	-23.2	18.2	0.00e+00	0	42	0	4082106368	6	3688
2026-01-12 14:58:36.43	336.43	22.81	-23.0	-23.2	18.1	0.00e+00	0	42	0	4088397824	6	3702
2026-01-12 14:58:37.43	336.47	22.66	-23.1	-23.4	18.0	0.00e+00	0	42	0	4095737856	6	3745
2026-01-12 14:58:38.44	336.51	22.52	-23.1	-23.5	18.0	0.00e+00	0	42	0	4103077888	6	3757
2026-01-12 14:58:39.44	336.56	22.38	-22.9	-23.1	18.2	0.00e+00	0	42	0	4110417920	6	3679
2026-01-12 14:58:40.45	336.60	22.23	-22.8	-22.9	18.3	0.00e+00	0	42	0	4117757952	6	3623
2026-01-12 14:58:41.45	336.64	22.09	-22.9	-23.1	18.2	0.00e+00	0	42	0	4125097984	6	3668
2026-01-12 14:58:42.46	336.68	21.95	-23.0	-23.3	18.0	0.00e+00	0	42	0	4132438016	6	3715
2026-01-12 14:58:43.47	336.72	21.81	-22.9	-23.0	18.2	0.00e+00	0	42	0	4139778048	6	3642
2026-01-12 14:58:44.48	336.76	21.67	-23.0	-23.2	18.1	0.00e+00	0	42	0	4147118080	6	3690
2026-01-12 14:58:45.48	336.80	21.54	-23.0	-23.3	18.0	0.00e+00	0	42	0	4154458112	6	3707
2026-01-12 14:58:46.49	336.84	21.40	-23.0	-23.2	18.1	0.00e+00	0	42	0	4161798144	6	3693
2026-01-12 14:58:47.50	336.88	21.26	-23.2	-23.6	17.8	0.00e+00	0	42	0	4169138176	6	3794
2026-01-12 14:58:48.50	336.92	21.13	-23.2	-23.7	17.8	0.00e+00	0	42	0	4175429632	6	3814
2026-01-12 14:58:49.51	336.96	20.99	-23.1	-23.4	18.0	0.00e+00	0	42	0	4182769664	6	3738
2026-01-12 14:58:50.52	337.00	20.85	-23.1	-23.4	18.0	0.00e+00	0	42	0	4191158272	6	3724
2026-01-12 14:58:51.52	337.04	20.72	-23.1	-23.4	18.0	0.00e+00	0	42	0	4197449728	6	3740
2026-01-12 14:58:52.53	337.07	20.59	-23.1	-23.5	17.9	0.00e+00	0	42	0	4204789760	6	3761
2026-01-12 14:58:53.54	337.11	20.45	-23.2	-23.6	17.9	0.00e+00	0	42	0	4212129792	6	3777
2026-01-12 14:58:54.55	337.15	20.32	-23.2	-23.7	17.8	0.00e+00	0	43	0	4219469824	6	3806
2026-01-12 14:58:55.56	337.19	20.19	-23.3	-23.8	17.7	2.20e-06	0	42	0	4226809856	6	3834
2026-01-12 14:58:56.56	337.22	20.06	-23.3	-23.9	17.7	0.00e+00	0	42	0	4234149888	6	3856
2026-01-12 14:58:57.57	337.26	19.93	-23.3	-24.0	17.7	0.00e+00	0	42	0	4241489920	6	3865
2026-01-12 14:58:58.57	337.30	19.80	-23.4	-24.1	17.6	0.00e+00	0	42	0	4248829952	6	3891
2026-01-12 14:58:59.58	337.33	19.67	-23.5	-24.2	17.5	0.00e+00	0	42	0	4256169984	6	3922
2026-01-12 14:59:00.59	337.37	19.54	-23.5	-24.3	17.5	0.00e+00	0	42	0	4263510016	6	3953
2026-01-12 14:59:01.60	337.40	19.42	-23.6	-24.0	17.4	0.00e+00	0	42	0	4270850048	7	3765
2026-01-12 14:59:02.60	337.44	19.29	-23.7	-24.3	17.3	0.00e+00	0	42	0	4277141504	7	3833
2026-01-12 14:59:03.61	337.47	19.17	-23.7	-24.3	17.2	0.00e+00	0	42	0	4284481536	7	3839
2026-01-12 14:59:04.62	337.51	19.04	-23.8	-24.4	17.2	0.00e+00	0	43	0	4292870144	7	3860
2026-01-12 14:59:05.62	337.54	18.92	-23.8	-24.5	17.1	0.00e+00	0	42	0	4299161600	7	3885
2026-01-12 14:59:06.63	337.58	18.79	-23.9	-24.6	17.0	0.00e+00	0	42	0	4306501632	7	3923
2026-01-12 14:59:07.63	337.61	18.67	-24.0	-24.8	17.0	0.00e+00	0	42	0	4313841664	7	3949
2026-01-12 14:59:08.64	337.64	18.55	-24.0	-24.9	16.8	0.00e+00	0	42	0	4321181696	7	3970
2026-01-12 14:59:09.64	337.68	18.42	-24.0	-24.9	16.8	0.00e+00	0	42	0	4328521728	7	3987
2026-01-12 14:59:10.65	337.71	18.30	-24.1	-24.5	16.8	0.00e+00	0	42	0	4335861760	8	3792
2026-01-12 14:59:11.65	337.74	18.18	-24.1	-24.5	16.9	0.00e+00	0	42	0	4343201792	8	3782
2026-01-12 14:59:12.66	337.78	18.06	-24.1	-24.5	16.8	0.00e+00	0	42	0	4350541824	8	3792
2026-01-12 14:59:13.67	337.81	17.94	-24.0	-24.4	16.9	0.00e+00	0	43	0	4357881856	8	3773
2026-01-12 14:59:14.67	337.84	17.82	-24.1	-24.5	16.8	0.00e+00	0	42	0	4365221888	8	3793
2026-01-12 14:59:15.67	337.87	17.70	-24.2	-24.7	16.7	0.00e+00	0	42	0	4372561920	8	3837
2026-01-12 14:59:16.68	337.90	17.59	-24.1	-24.7	16.7	0.00e+00	0	42	0	4379901952	8	3821
2026-01-12 14:59:17.69	337.94	17.47	-24.2	-24.7	16.7	0.00e+00	0	42	0	4386193408	8	3824
2026-01-12 14:59:18.69	337.97	17.35	-24.2	-24.8	16.7	0.00e+00	0	42	0	4393533440	8	3856
2026-01-12 14:59:19.69	338.00	17.24	-24.2	-24.9	16.6	0.00e+00	0	42	0	4400873472	8	3875
2026-01-12 14:59:20.70	338.03	17.12	-24.3	-24.9	16.6	0.00e+00	0	42	0	4408213504	8	3880
2026-01-12 14:59:21.71	338.06	17.00	-24.1	-24.6	16.8	0.00e+00	0	42	0	4415553536	8	3815
2026-01-12 14:59:22.72	338.09	16.89	-24.2	-24.8	16.7	0.00e+00	0	42	0	4422893568	8	3850
2026-01-12 14:59:23.72	338.12	16.77	-24.2	-24.8	16.6	0.00e+00	0	42	0	4430233600	8	3854
2026-01-12 14:59:24.73	338.15	16.66	-24.2	-24.7	16.7	0.00e+00	0	43	0	4437573632	8	3839
2026-01-12 14:59:25.74	338.18	16.55	-24.2	-24.9	16.6	0.00e+00	0	43	0	4444913664	8	3867
2026-01-12 14:59:26.74	338.21	16.43	-24.2	-24.8	16.6	0.00e+00	0	42	0	4452253696	8	3868
2026-01-12 14:59:27.75	338.24	16.32	-24.3	-25.0	16.5	0.00e+00	0	42	0	4459593728	8	3895
2026-01-12 14:59:28.76	338.27	16.21	-24.3	-25.0	16.5	0.00e+00	0	42	0	4465885184	8	3893
2026-01-12 14:59:29.76	338.30	16.10	-24.4	-25.2	16.4	0.00e+00	0	42	0	4473225216	8	3951
2026-01-12 14:59:30.77	338.33	15.99	-24.3	-24.9	16.6	0.00e+00	0	43	0	4481613824	8	3895
2026-01-12 14:59:31.77	338.36	15.88	-24.4	-25.2	16.4	0.00e+00	0	42	0	4487905280	8	3945
2026-01-12 14:59:32.78	338.39	15.77	-24.4	-25.1	16.4	0.00e+00	0	42	0	4495245312	8	3937
2026-01-12 14:59:33.79	338.42	15.66	-24.3	-25.0	16.5	0.00e+00	0	43	0	4502585344	8	3903
2026-01-12 14:59:34.79	338.44	15.55	-24.3	-25.1	16.5	0.00e+00	0	43	0	4509925376	8	3918
2026-01-12 14:59:35.80	338.47	15.44	-24.3	-25.0	16.5	1.10e-06	0	42	0	4517265408	8	3916
2026-01-12 14:59:36.81	338.50	15.33	-24.3	-25.1	16.4	0.00e+00	0	43	0	4524605440	8	3935
2026-01-12 14:59:37.81	338.53	15.23	-24.4	-25.3	16.3	0.00e+00	0	42	0	4531945472	8	3966
2026-01-12 14:59:38.82	338.56	15.12	-24.4	-25.2	16.3	0.00e+00	0	42	0	4539285504	8	3957
2026-01-12 14:59:39.83	338.58	15.01	-24.5	-25.4	16.3	0.00e+00	0	43	0	4546625536	8	4001
2026-01-12 14:59:40.83	338.61	14.91	-24.5	-25.4	16.3	1.10e-06	0	42	0	4553965568	8	3994
2026-01-12 14:59:41.84	338.64	14.80	-24.5	-25.4	16.2	0.00e+00	0	42	0	4561305600	8	3998
2026-01-12 14:59:42.84	338.67	14.70	-24.7	-25.4	16.0	0.00e+00	0	42	0	4568645632	9	3889
2026-01-12 14:59:43.85	338.69	14.59	-25.0	-26.0	15.6	0.00e+00	0	42	0	4574937088	9	4044
2026-01-12 14:59:44.86	338.72	14.49	-25.1	-26.2	15.6	0.00e+00	0	42	0	4582277120	9	4092
2026-01-12 14:59:45.86	338.75	14.39	-25.1	-25.7	15.6	0.00e+00	0	42	0	4590665728	10	3873
2026-01-12 14:59:46.86	338.77	14.28	-25.2	-26.0	15.4	0.00e+00	0	42	0	4596957184	10	3946
2026-01-12 14:59:47.87	338.80	14.18	-25.3	-26.1	15.3	0.00e+00	0	42	0	4604297216	10	3971
2026-01-12 14:59:48.87	338.82	14.08	-25.3	-26.3	15.3	0.00e+00	0	42	0	4611637248	10	4009
2026-01-12 14:59:49.88	338.85	13.98	-25.3	-26.1	15.3	0.00e+00	0	42	0	4618977280	10	3964
2026-01-12 14:59:50.89	338.88	13.87	-25.6	-26.8	14.9	0.00e+00	0	42	0	4626317312	10	4145
2026-01-12 14:59:51.90	338.90	13.77	-25.3	-25.7	15.3	0.00e+00	0	42	0	4633657344	11	3752
2026-01-12 14:59:52.91	338.93	13.67	-25.0	-25.0	15.6	1.10e-06	0	42	0	4640997376	11	3611
2026-01-12 14:59:53.92	338.95	13.57	-24.8	-25.2	15.8	0.00e+00	0	42	0	4648337408	10	3738
2026-01-12 14:59:54.93	338.98	13.47	-24.9	-25.4	15.7	0.00e+00	0	42	0	4655677440	10	3789
2026-01-12 14:59:55.94	339.00	13.37	-24.9	-25.3	15.7	0.00e+00	0	42	0	4663017472	10	3780
2026-01-12 14:59:56.94	339.03	13.27	-25.0	-25.6	15.6	0.00e+00	0	42	0	4670357504	10	3843
2026-01-12 14:59:57.95	339.05	13.17	-25.0	-25.5	15.6	0.00e+00	0	42	0	4677697536	10	3823
2026-01-12 14:59:58.95	339.08	13.08	-25.0	-25.6	15.5	0.00e+00	0	42	0	4683988992	10	3843
2026-01-12 14:59:59.95	339.10	12.98	-25.3	-26.1	15.3	1.10e-06	0	43	0	4691329024	10	3963
2026-01-12 15:00:00.95	339.13	12.88	-25.2	-26.0	15.3	0.00e+00	0	42	0	4698669056	10	3946
2026-01-12 15:00:01.96	339.15	12.78	-25.3	-26.2	15.2	0.00e+00	0	42	0	4706009088	10	4005
2026-01-12 15:00:02.97	339.18	12.69	-25.4	-26.5	15.0	0.00e+00	0	42	0	4713349120	10	4071
2026-01-12 15:00:03.97	339.20	12.59	-25.4	-26.4	15.1	0.00e+00	0	43	0	4720689152	10	4046
2026-01-12 15:00:04.98	339.22	12.50	-25.6	-26.4	14.8	0.00e+00	0	42	0	4728029184	11	3931
2026-01-12 15:00:05.98	339.25	12.40	-25.6	-26.3	14.9	0.00e+00	0	42	0	4735369216	11	3912
2026-01-12 15:00:06.99	339.27	12.30	-25.5	-26.1	15.0	1.10e-06	0	42	0	4742709248	11	3859
2026-01-12 15:00:07.99	339.29	12.21	-25.6	-26.4	14.8	1.10e-06	0	42	0	4750049280	11	3938
2026-01-12 15:00:08.99	339.32	12.12	-25.6	-26.3	14.8	0.00e+00	0	42	0	4757389312	11	3905
2026-01-12 15:00:10.00	339.34	12.02	-25.8	-26.7	14.6	1.10e-06	0	42	0	4763680768	11	4019
2026-01-12 15:00:11.01	339.36	11.93	-25.7	-26.5	14.7	0.00e+00	0	42	0	4771020800	11	3954
2026-01-12 15:00:12.02	339.39	11.83	-25.5	-26.1	15.0	0.00e+00	0	43	0	4779409408	11	3853
2026-01-12 15:00:13.03	339.41	11.74	-25.4	-25.9	15.0	0.00e+00	0	42	0	4785700864	11	3826
2026-01-12 15:00:14.03	339.43	11.65	-25.2	-25.5	15.2	0.00e+00	0	42	0	4793040896	11	3732
2026-01-12 15:00:15.04	339.46	11.56	-25.2	-25.6	15.2	0.00e+00	0	42	0	4800380928	11	3734
2026-01-12 15:00:16.05	339.48	11.46	-25.4	-25.8	15.1	0.00e+00	0	42	0	4807720960	11	3803
2026-01-12 15:00:17.05	339.50	11.37	-25.4	-25.8	15.1	0.00e+00	0	42	0	4815060992	11	3794
2026-01-12 15:00:18.06	339.52	11.28	-25.4	-26.0	15.0	0.00e+00	0	42	0	4822401024	11	3829
2026-01-12 15:00:19.06	339.54	11.19	-25.4	-25.9	15.0	0.00e+00	0	42	0	4829741056	11	3825
2026-01-12 15:00:20.07	339.57	11.10	-25.3	-25.7	15.1	0.00e+00	0	42	0	4837081088	11	3770
2026-01-12 15:00:21.07	339.59	11.01	-25.4	-25.9	15.0	0.00e+00	0	42	0	4844421120	11	3818
2026-01-12 15:00:22.07	339.61	10.92	-25.4	-25.8	15.0	0.00e+00	0	42	0	4851761152	11	3792
2026-01-12 15:00:23.08	339.63	10.83	-25.6	-26.4	14.8	0.00e+00	0	42	0	4859101184	11	3932
2026-01-12 15:00:24.09	339.65	10.74	-25.5	-26.2	14.8	0.00e+00	0	42	0	4866441216	11	3883
2026-01-12 15:00:25.10	339.68	10.65	-25.4	-26.0	14.9	0.00e+00	0	42	0	4872732672	11	3836
2026-01-12 15:00:26.11	339.70	10.56	-25.7	-26.5	14.6	1.10e-06	0	43	0	4880072704	11	3977
2026-01-12 15:00:27.11	339.72	10.47	-25.6	-26.3	14.8	0.00e+00	0	43	0	4888461312	11	3908
2026-01-12 15:00:28.12	339.74	10.39	-25.5	-26.1	14.9	0.00e+00	0	43	0	4894752768	11	3857
2026-01-12 15:00:29.12	339.76	10.30	-25.6	-26.4	14.7	0.00e+00	0	43	0	4902092800	11	3936
2026-01-12 15:00:30.12	339.78	10.21	-25.5	-26.2	14.8	0.00e+00	0	42	0	4909432832	11	3878
2026-01-12 15:00:31.13	339.80	10.12	-25.6	-26.4	14.6	0.00e+00	0	42	0	4916772864	11	3949
2026-01-12 15:00:32.13	339.82	10.04	-25.5	-26.2	14.8	0.00e+00	0	42	0	4924112896	11	3899
2026-01-12 15:00:33.14	339.85	9.95	-25.8	-26.9	14.4	1.10e-06	0	42	0	4931452928	11	4067
2026-01-12 15:00:34.15	339.87	9.87	-25.7	-26.5	14.6	0.00e+00	0	42	0	4938792960	11	3965
2026-01-12 15:00:35.15	339.89	9.78	-25.6	-26.4	14.6	0.00e+00	0	42	0	4946132992	11	3950
2026-01-12 15:00:36.16	339.91	9.69	-25.7	-26.7	14.5	0.00e+00	0	42	0	4952424448	11	4003
