passes_logs/2026/01/12/R2M6_AANII_01/R2M6_AANII_01__20260112_114252_AQUA_rec.log

#Pass ID: 20260112_114252_AQUA
#Satellite: AQUA
#Configuration: AQUA
#almurnet v.1.7.20240730
#Start time: 2026-01-12 11:46:39

#Version: 2.2.20231116
#Station: R2M6_AANII_01
#Location: 30.233357 lon 59.946436 lat
#TLE: 1 27424U 02022A   26011.34052177  .00001139  00000+0  23789-3 0  9999
#TLE: 2 27424  98.4078 337.7066 0002035  82.6124  44.5301 14.61815662260355

#Time	Az	El	Level	Level2	SNR	BER	BlckErr	Temp	State	Recorded	gain1	gain2
2026-01-12 11:46:39.11	133.02	42.71	-33.8	-45.9	3.8	1.49e+00	0	42	0	0	27	14546
2026-01-12 11:46:40.11	132.78	43.02	-34.5	-53.6	3.8	7.45e-01	0	42	104	0	30	32315
2026-01-12 11:46:41.11	132.53	43.33	-34.5	-53.6	3.8	7.44e-01	0	42	104	0	30	32451
2026-01-12 11:46:42.11	132.27	43.65	-34.5	-53.7	3.8	7.45e-01	0	43	104	0	30	32517
2026-01-12 11:46:43.11	132.01	43.96	-34.5	-53.6	3.8	7.48e-01	0	42	104	0	30	32450
2026-01-12 11:46:44.11	131.75	44.28	-34.6	-53.6	3.8	7.45e-01	0	43	104	0	30	32405
2026-01-12 11:46:45.12	131.47	44.60	-34.6	-53.7	3.8	7.44e-01	0	42	104	0	30	32527
2026-01-12 11:46:46.12	131.20	44.92	-34.6	-53.7	3.8	7.44e-01	0	42	104	0	30	32412
2026-01-12 11:46:47.13	130.91	45.25	-34.5	-53.7	3.8	7.45e-01	0	42	104	0	30	32488
2026-01-12 11:46:48.13	130.62	45.58	-34.5	-53.6	3.8	7.46e-01	0	42	104	0	30	32454
2026-01-12 11:46:49.13	130.33	45.90	-34.5	-53.6	3.8	7.45e-01	0	43	104	0	30	32407
2026-01-12 11:46:50.14	130.02	46.24	-34.5	-53.6	3.8	7.44e-01	0	43	104	0	30	32405
2026-01-12 11:46:51.14	129.71	46.57	-34.5	-53.6	3.8	7.44e-01	0	43	104	0	30	32312
2026-01-12 11:46:52.14	129.40	46.90	-34.5	-53.6	3.8	7.45e-01	0	43	104	0	30	32419
2026-01-12 11:46:53.15	129.08	47.24	-34.5	-53.6	3.8	7.44e-01	0	43	104	0	30	32403
2026-01-12 11:46:54.15	128.75	47.58	-34.5	-53.6	3.8	7.44e-01	0	43	104	0	30	32389
2026-01-12 11:46:55.15	128.41	47.91	-34.6	-53.7	3.8	7.47e-01	0	43	104	0	30	32528
2026-01-12 11:46:56.15	128.07	48.25	-34.6	-53.7	3.8	7.48e-01	0	43	104	0	30	32494
2026-01-12 11:46:57.14	127.72	48.59	-34.6	-53.7	3.8	7.45e-01	0	43	104	0	30	32460
2026-01-12 11:46:58.14	127.36	48.94	-34.6	-53.6	3.8	7.44e-01	0	43	104	0	30	32402
2026-01-12 11:46:59.15	126.99	49.28	-34.7	-53.9	3.8	7.43e-01	0	43	104	0	30	32817
2026-01-12 11:47:00.14	126.62	49.63	-34.7	-53.9	3.8	7.47e-01	0	42	104	0	30	32944
2026-01-12 11:47:01.15	126.23	49.98	-34.7	-53.9	3.8	7.47e-01	0	43	104	0	30	32945
2026-01-12 11:47:02.15	125.83	50.33	-34.6	-53.9	3.8	7.44e-01	0	43	104	0	30	32919
2026-01-12 11:47:03.15	125.43	50.68	-34.6	-53.8	3.8	7.47e-01	0	43	104	0	30	32756
2026-01-12 11:47:04.15	125.01	51.03	-34.6	-53.8	3.8	7.45e-01	0	43	104	0	30	32722
2026-01-12 11:47:05.15	124.59	51.38	-34.6	-53.8	3.8	7.43e-01	0	42	104	0	30	32769
2026-01-12 11:47:06.15	124.16	51.73	-34.6	-53.8	3.8	7.49e-01	0	42	104	0	30	32747
2026-01-12 11:47:07.15	123.71	52.09	-34.6	-53.7	3.8	7.45e-01	0	43	104	0	30	32512
2026-01-12 11:47:08.14	123.26	52.44	-34.6	-53.6	3.8	7.42e-01	0	43	104	0	30	32109
2026-01-12 11:47:09.14	122.80	52.80	-34.6	-53.5	3.8	7.43e-01	0	43	104	0	30	31733
2026-01-12 11:47:10.14	122.32	53.16	-34.6	-53.6	3.8	7.45e-01	0	43	104	0	30	31970
2026-01-12 11:47:11.14	121.83	53.51	-34.6	-53.7	3.8	7.42e-01	0	42	104	0	30	32401
2026-01-12 11:47:12.14	121.33	53.87	-34.6	-53.8	3.8	7.49e-01	0	43	104	0	30	32592
2026-01-12 11:47:13.14	120.81	54.23	-34.6	-53.7	3.8	7.42e-01	0	42	104	0	30	32448
2026-01-12 11:47:14.13	120.29	54.58	-34.6	-53.6	3.8	7.45e-01	0	42	104	0	30	31877
2026-01-12 11:47:15.13	119.75	54.94	-34.6	-53.5	3.8	7.44e-01	0	43	104	0	30	31725
2026-01-12 11:47:16.13	119.19	55.30	-34.6	-53.5	3.8	7.46e-01	0	43	104	0	30	31664
2026-01-12 11:47:17.13	118.62	55.66	-34.6	-53.1	3.8	7.46e-01	0	42	104	0	30	30167
2026-01-12 11:47:18.14	118.03	56.02	-34.6	-52.9	3.8	7.44e-01	0	42	104	0	30	29483
2026-01-12 11:47:19.14	117.43	56.38	-34.6	-53.0	3.8	7.45e-01	0	43	104	0	30	29894
2026-01-12 11:47:20.15	116.81	56.74	-34.6	-53.5	3.8	7.48e-01	0	43	104	0	30	31569
2026-01-12 11:47:21.15	116.17	57.09	-34.6	-52.9	3.8	7.46e-01	0	43	104	0	30	29463
2026-01-12 11:47:22.15	115.52	57.45	-34.6	-52.6	3.8	7.45e-01	0	43	104	0	30	28539
2026-01-12 11:47:23.16	114.85	57.81	-34.6	-53.6	3.8	7.43e-01	0	43	104	0	30	32059
2026-01-12 11:47:24.15	114.17	58.15	-34.6	-53.7	3.8	7.47e-01	0	43	104	0	30	32558
2026-01-12 11:47:25.16	113.46	58.51	-34.6	-53.7	3.8	7.45e-01	0	43	104	0	30	32526
2026-01-12 11:47:26.16	112.74	58.86	-34.6	-53.5	3.8	7.48e-01	0	43	104	0	30	31730
2026-01-12 11:47:27.15	112.01	59.20	-34.6	-53.1	3.8	7.46e-01	0	42	104	0	30	30232
2026-01-12 11:47:28.15	111.24	59.54	-34.5	-48.7	4.6	7.20e-01	0	42	104	0	30	18547
2026-01-12 11:47:29.14	110.47	59.88	-34.4	-47.1	4.3	7.30e-01	0	43	104	0	30	15584
2026-01-12 11:47:30.15	109.66	60.22	-34.5	-49.2	4.6	7.26e-01	0	43	104	0	30	19502
2026-01-12 11:47:31.15	108.83	60.55	-34.3	-46.0	4.3	7.22e-01	0	42	104	0	30	13880
2026-01-12 11:47:32.14	108.00	60.88	-32.6	-36.8	15.3	6.08e-01	0	43	0	0	27	5865
2026-01-12 11:47:33.14	107.13	61.21	-32.0	-35.5	16.8	6.07e-01	0	43	0	1572864	26	5364
2026-01-12 11:47:34.14	106.24	61.53	-31.7	-35.0	17.3	6.04e-01	0	43	0	3670016	25	5277
2026-01-12 11:47:35.13	105.33	61.84	-32.0	-36.1	16.7	6.07e-01	0	43	0	5242880	25	5750
2026-01-12 11:47:36.14	104.38	62.16	-32.1	-36.4	16.4	6.06e-01	0	42	0	7340032	25	5900
2026-01-12 11:47:37.14	103.42	62.47	-32.1	-36.1	16.6	6.07e-01	0	43	0	8912896	25	5762
2026-01-12 11:47:38.15	102.42	62.77	-32.0	-35.9	16.8	6.07e-01	0	43	0	11010048	25	5651
2026-01-12 11:47:39.15	101.41	63.07	-32.6	-37.6	15.3	6.06e-01	0	42	0	13107200	26	6368
2026-01-12 11:47:40.15	100.37	63.35	-32.1	-35.7	16.6	6.06e-01	0	42	0	14680064	26	5450
2026-01-12 11:47:41.15	99.30	63.64	-32.0	-35.5	16.8	6.05e-01	0	42	0	16777216	26	5356
2026-01-12 11:47:42.15	98.21	63.91	-32.0	-36.0	16.8	6.03e-01	0	42	0	18350080	25	5703
2026-01-12 11:47:43.16	97.09	64.18	-31.6	-34.6	17.6	6.07e-01	0	42	0	20447232	25	5119
2026-01-12 11:47:44.16	95.94	64.44	-31.7	-35.2	17.3	6.07e-01	0	43	0	22544384	25	5334
2026-01-12 11:47:45.16	94.78	64.69	-31.9	-35.7	17.0	6.06e-01	0	42	0	24117248	25	5579
2026-01-12 11:47:46.16	93.58	64.94	-32.3	-37.0	16.0	6.06e-01	0	42	0	26214400	25	6176
2026-01-12 11:47:47.16	92.36	65.17	-31.9	-35.7	16.9	6.07e-01	0	42	0	27787264	25	5563
2026-01-12 11:47:48.17	91.10	65.40	-32.1	-36.2	16.6	6.07e-01	0	42	0	29884416	25	5805
2026-01-12 11:47:49.17	89.83	65.61	-32.3	-37.0	16.0	6.06e-01	0	43	0	31457280	25	6172
2026-01-12 11:47:50.17	88.54	65.81	-32.1	-36.2	16.6	6.05e-01	0	43	0	33554432	25	5767
2026-01-12 11:47:51.17	87.22	66.00	-32.5	-37.6	15.6	6.07e-01	0	43	0	35651584	25	6502
2026-01-12 11:47:52.17	85.88	66.18	-32.3	-37.0	16.0	6.08e-01	0	42	0	37224448	25	6179
2026-01-12 11:47:53.17	84.52	66.35	-32.2	-36.6	16.2	6.06e-01	0	43	0	39321600	25	5984
2026-01-12 11:47:54.16	83.15	66.51	-32.2	-36.6	16.3	6.08e-01	0	42	0	40894464	25	5960
2026-01-12 11:47:55.16	81.75	66.65	-32.4	-37.4	15.8	6.05e-01	0	42	0	42991616	25	6358
2026-01-12 11:47:56.17	80.31	66.79	-32.4	-37.2	15.9	6.07e-01	0	42	0	45088768	25	6278
2026-01-12 11:47:57.18	78.86	66.91	-32.1	-36.2	16.7	6.08e-01	0	42	0	46661632	25	5779
2026-01-12 11:47:58.18	77.40	67.01	-32.3	-36.5	16.0	6.05e-01	0	42	0	48758784	26	5796
2026-01-12 11:47:59.17	75.95	67.10	-32.3	-36.4	16.2	6.06e-01	0	42	0	50331648	26	5785
2026-01-12 11:48:00.18	74.45	67.18	-32.5	-37.0	15.7	6.09e-01	0	42	0	52428800	26	6063
2026-01-12 11:48:01.17	72.98	67.25	-32.6	-37.4	15.5	6.07e-01	0	43	0	54001664	26	6250
2026-01-12 11:48:02.17	71.48	67.30	-32.6	-37.4	15.5	6.08e-01	0	43	0	56098816	26	6258
2026-01-12 11:48:03.18	69.96	67.33	-32.7	-37.7	15.3	6.08e-01	0	42	0	58195968	26	6411
2026-01-12 11:48:04.18	68.45	67.35	-32.9	-38.6	14.6	6.08e-01	0	42	0	59768832	26	6916
2026-01-12 11:48:05.18	66.94	67.36	-32.6	-37.3	15.5	6.07e-01	0	42	0	61865984	26	6228
2026-01-12 11:48:06.19	65.42	67.35	-32.5	-37.2	15.6	6.04e-01	0	42	0	63438848	26	6133
2026-01-12 11:48:07.19	63.91	67.33	-32.9	-38.4	14.7	6.10e-01	0	43	0	65536000	26	6818
2026-01-12 11:48:08.19	62.40	67.29	-32.5	-37.0	15.7	6.06e-01	0	42	0	67108864	26	6028
2026-01-12 11:48:09.19	60.91	67.24	-32.6	-37.5	15.4	6.08e-01	0	43	0	69206016	26	6288
2026-01-12 11:48:10.19	59.42	67.18	-32.9	-38.4	14.7	6.06e-01	0	43	0	71303168	26	6795
2026-01-12 11:48:11.19	57.94	67.10	-32.5	-37.2	15.7	6.05e-01	0	42	0	72876032	26	6144
2026-01-12 11:48:12.19	56.47	67.01	-32.5	-37.0	15.7	6.06e-01	0	43	0	74973184	26	6050
2026-01-12 11:48:13.19	55.02	66.90	-32.7	-37.7	15.2	6.06e-01	0	43	0	76546048	26	6425
2026-01-12 11:48:14.20	53.57	66.78	-32.9	-38.6	14.5	6.07e-01	0	43	0	78643200	26	6906
2026-01-12 11:48:15.19	52.16	66.65	-32.9	-38.7	14.4	6.09e-01	0	43	0	80216064	26	6974
2026-01-12 11:48:16.20	50.75	66.50	-33.0	-38.7	14.4	6.08e-01	0	43	0	82313216	26	6997
2026-01-12 11:48:17.21	49.35	66.34	-33.1	-38.9	13.9	6.08e-01	0	43	0	84410368	27	6978
2026-01-12 11:48:18.22	47.98	66.17	-33.2	-39.3	13.6	6.09e-01	0	42	0	85983232	27	7244
2026-01-12 11:48:19.22	46.64	65.99	-33.1	-38.9	13.9	6.09e-01	0	43	0	88080384	27	6997
2026-01-12 11:48:20.23	45.31	65.80	-32.7	-37.2	15.2	6.08e-01	0	43	0	90177536	27	6073
2026-01-12 11:48:21.23	44.02	65.59	-33.0	-38.4	14.2	6.07e-01	0	43	0	91750400	27	6754
2026-01-12 11:48:22.23	42.75	65.38	-32.9	-38.2	14.3	6.06e-01	0	42	0	93847552	27	6627
2026-01-12 11:48:23.23	41.51	65.15	-32.5	-36.8	15.5	6.09e-01	0	43	0	95420416	27	5851
2026-01-12 11:48:24.23	40.29	64.92	-32.5	-37.1	15.5	6.08e-01	0	42	0	97517568	26	6147
2026-01-12 11:48:25.23	39.10	64.68	-32.7	-38.0	14.8	6.05e-01	0	42	0	99090432	26	6596
2026-01-12 11:48:26.22	37.95	64.43	-32.5	-37.2	15.6	6.07e-01	0	42	0	101187584	26	6167
2026-01-12 11:48:27.22	36.81	64.17	-32.6	-37.4	15.4	6.08e-01	0	42	0	103284736	26	6254
2026-01-12 11:48:28.22	35.70	63.90	-32.7	-37.8	15.0	6.05e-01	0	42	0	104857600	26	6492
2026-01-12 11:48:29.22	34.61	63.63	-32.5	-37.2	15.4	6.06e-01	0	42	0	106954752	26	6162
2026-01-12 11:48:30.22	33.55	63.35	-32.2	-36.2	16.2	6.05e-01	0	42	0	108527616	26	5687
2026-01-12 11:48:31.23	32.50	63.05	-32.2	-36.1	16.3	6.06e-01	0	42	0	110624768	26	5667
2026-01-12 11:48:32.23	31.49	62.76	-32.1	-35.8	16.5	6.05e-01	0	43	0	112197632	26	5489
2026-01-12 11:48:33.23	30.51	62.46	-31.8	-35.3	17.1	6.06e-01	0	42	0	114294784	25	5423
2026-01-12 11:48:34.22	29.55	62.15	-31.4	-34.6	18.0	6.07e-01	0	42	0	116391936	24	5206
2026-01-12 11:48:35.22	28.62	61.84	-31.5	-35.2	17.6	6.07e-01	0	42	0	117964800	24	5461
2026-01-12 11:48:36.22	27.70	61.52	-31.3	-34.4	18.0	6.07e-01	0	43	0	120061952	24	5150
2026-01-12 11:48:37.23	26.81	61.20	-30.9	-33.9	18.7	6.06e-01	0	42	0	121634816	23	5062
2026-01-12 11:48:38.23	25.94	60.87	-31.1	-34.5	18.3	6.04e-01	0	43	0	123731968	23	5305
2026-01-12 11:48:39.23	25.10	60.54	-31.1	-34.5	18.2	6.03e-01	0	43	0	125304832	23	5325
2026-01-12 11:48:40.24	24.27	60.21	-30.8	-33.5	18.9	6.06e-01	0	42	0	127401984	23	4929
2026-01-12 11:48:41.24	23.47	59.87	-30.9	-33.9	18.6	6.04e-01	0	43	0	129499136	23	5061
2026-01-12 11:48:42.24	22.69	59.53	-30.9	-34.0	18.6	6.08e-01	0	43	0	131072000	23	5096
2026-01-12 11:48:43.24	21.93	59.19	-31.3	-35.0	17.8	6.09e-01	0	43	0	133169152	23	5529
2026-01-12 11:48:44.24	21.19	58.84	-30.7	-33.4	18.8	6.06e-01	0	43	0	134742016	23	4897
2026-01-12 11:48:45.23	20.48	58.50	-30.2	-32.4	19.8	6.08e-01	0	43	0	136839168	22	4665
2026-01-12 11:48:46.24	19.77	58.15	-30.3	-32.8	19.6	6.05e-01	0	43	0	138936320	22	4805
2026-01-12 11:48:47.24	19.08	57.80	-30.3	-32.8	19.6	6.07e-01	0	42	0	140509184	22	4788
2026-01-12 11:48:48.24	18.42	57.44	-30.3	-32.7	19.6	6.06e-01	0	42	0	142606336	22	4761
2026-01-12 11:48:49.24	17.77	57.09	-29.7	-31.8	20.5	6.04e-01	0	43	0	144179200	21	4563
2026-01-12 11:48:50.25	17.14	56.73	-29.6	-31.6	20.5	6.06e-01	0	42	0	146276352	21	4526
2026-01-12 11:48:51.24	16.53	56.38	-29.9	-32.4	20.1	6.07e-01	0	42	0	147849216	21	4775
2026-01-12 11:48:52.24	15.93	56.02	-29.5	-31.4	20.5	6.07e-01	0	43	0	149946368	21	4452
2026-01-12 11:48:53.24	15.34	55.67	-29.5	-31.7	20.8	6.06e-01	0	42	0	152043520	20	4665
2026-01-12 11:48:54.23	14.78	55.31	-29.5	-31.8	20.6	6.08e-01	0	42	0	153616384	20	4693
2026-01-12 11:48:55.23	14.23	54.96	-29.1	-30.9	21.2	6.04e-01	0	42	0	155713536	20	4419
2026-01-12 11:48:56.24	13.68	54.59	-29.3	-31.2	21.0	6.06e-01	0	43	0	157286400	20	4519
2026-01-12 11:48:57.24	13.16	54.24	-29.2	-31.1	21.0	6.06e-01	0	42	0	159383552	20	4480
2026-01-12 11:48:58.24	12.64	53.88	-28.9	-30.9	21.5	6.09e-01	0	42	0	160956416	19	4504
2026-01-12 11:48:59.24	12.14	53.52	-28.9	-30.8	21.6	6.06e-01	0	42	0	163053568	19	4500
2026-01-12 11:49:00.23	11.66	53.17	-29.0	-31.0	21.5	6.07e-01	0	42	0	165150720	19	4537
2026-01-12 11:49:01.23	11.18	52.81	-28.9	-30.8	21.5	6.07e-01	0	43	0	166723584	19	4501
2026-01-12 11:49:02.24	10.71	52.46	-28.8	-30.7	21.6	6.06e-01	0	42	0	168820736	19	4450
2026-01-12 11:49:03.24	10.26	52.10	-28.9	-30.8	21.6	6.06e-01	0	42	0	170393600	19	4473
2026-01-12 11:49:04.25	9.81	51.74	-29.1	-31.4	21.2	6.06e-01	0	43	0	172490752	19	4686
2026-01-12 11:49:05.24	9.38	51.40	-29.2	-31.7	21.1	6.06e-01	0	43	0	174063616	19	4758
2026-01-12 11:49:06.23	8.96	51.05	-29.3	-31.8	21.0	6.07e-01	0	42	0	176160768	19	4813
2026-01-12 11:49:07.23	8.55	50.70	-29.0	-30.9	21.4	6.08e-01	0	42	0	178257920	19	4525
2026-01-12 11:49:08.22	8.15	50.35	-29.3	-31.8	21.0	6.08e-01	0	42	0	179830784	19	4819
2026-01-12 11:49:09.22	7.76	50.00	-29.1	-31.4	21.2	6.06e-01	0	42	0	181927936	19	4652
2026-01-12 11:49:10.22	7.38	49.66	-29.3	-31.9	21.0	6.07e-01	0	43	0	183500800	19	4828
2026-01-12 11:49:11.21	7.01	49.32	-29.5	-32.2	20.8	6.07e-01	0	42	0	185597952	19	4945
2026-01-12 11:49:12.21	6.64	48.97	-29.6	-32.2	20.4	6.06e-01	0	43	0	187170816	20	4814
2026-01-12 11:49:13.22	6.28	48.63	-29.5	-31.7	20.7	6.04e-01	0	42	0	189267968	20	4664
2026-01-12 11:49:14.22	5.93	48.29	-29.3	-31.4	20.9	6.05e-01	0	42	0	191365120	20	4560
2026-01-12 11:49:15.21	5.59	47.95	-29.3	-31.3	20.9	6.07e-01	0	42	0	192937984	20	4523
2026-01-12 11:49:16.21	5.25	47.61	-29.3	-31.4	20.9	6.06e-01	0	43	0	195035136	20	4574
2026-01-12 11:49:17.22	4.92	47.28	-29.7	-32.3	20.3	6.08e-01	0	42	0	196608000	20	4853
2026-01-12 11:49:18.21	4.60	46.95	-29.7	-32.4	20.3	6.06e-01	0	42	0	198705152	20	4903
2026-01-12 11:49:19.21	4.29	46.61	-29.6	-32.1	20.4	6.05e-01	0	42	0	200802304	20	4780
2026-01-12 11:49:20.21	3.98	46.28	-29.7	-32.3	20.3	6.06e-01	0	42	0	202375168	20	4852
2026-01-12 11:49:21.21	3.68	45.96	-29.8	-32.5	20.2	6.05e-01	0	42	0	204472320	20	4943
2026-01-12 11:49:22.21	3.39	45.63	-29.6	-32.0	20.5	6.06e-01	0	42	0	206045184	20	4749
2026-01-12 11:49:23.22	3.10	45.30	-29.7	-32.2	20.4	6.06e-01	0	42	0	208142336	20	4835
2026-01-12 11:49:24.22	2.81	44.98	-30.0	-33.0	19.9	6.06e-01	0	42	0	209715200	20	5098
2026-01-12 11:49:25.23	2.53	44.66	-29.9	-32.8	20.0	6.05e-01	0	42	0	211812352	20	5032
2026-01-12 11:49:26.23	2.26	44.34	-30.2	-33.1	19.5	6.06e-01	0	42	0	213909504	21	5031
2026-01-12 11:49:27.24	2.00	44.02	-29.9	-32.4	19.9	6.09e-01	0	42	0	215482368	21	4777
2026-01-12 11:49:28.24	1.74	43.70	-29.6	-31.5	20.5	6.08e-01	0	42	0	217579520	21	4493
2026-01-12 11:49:29.24	1.48	43.39	-29.5	-31.4	20.6	6.06e-01	0	42	0	219152384	21	4449
2026-01-12 11:49:30.25	1.23	43.08	-29.7	-31.9	20.3	6.05e-01	0	43	0	221249536	21	4626
2026-01-12 11:49:31.25	0.98	42.77	-29.8	-32.2	20.1	6.06e-01	0	42	0	222822400	21	4723
2026-01-12 11:49:32.26	0.74	42.46	-30.1	-32.8	19.7	6.06e-01	0	42	0	224919552	21	4915
2026-01-12 11:49:33.26	0.51	42.16	-30.0	-32.6	19.8	6.04e-01	0	42	0	227016704	21	4869
2026-01-12 11:49:34.26	0.28	41.86	-30.1	-32.9	19.6	6.08e-01	0	42	0	228589568	21	4965
2026-01-12 11:49:35.27	0.05	41.55	-30.0	-32.7	19.8	6.07e-01	0	42	0	230686720	21	4872
2026-01-12 11:49:36.28	359.82	41.25	-30.1	-32.9	19.6	6.07e-01	0	42	0	232259584	21	4947
2026-01-12 11:49:37.28	359.61	40.96	-30.1	-32.9	19.6	6.06e-01	0	42	0	234356736	21	4955
2026-01-12 11:49:38.29	359.39	40.66	-30.3	-33.3	19.3	6.08e-01	0	42	0	236453888	21	5115
2026-01-12 11:49:39.29	359.18	40.37	-30.6	-34.1	18.9	6.08e-01	0	42	0	238026752	21	5404
2026-01-12 11:49:40.29	358.98	40.08	-30.6	-33.7	18.8	6.07e-01	0	42	0	240123904	22	5120
2026-01-12 11:49:41.30	358.77	39.79	-30.4	-33.1	19.2	6.06e-01	0	42	0	241696768	22	4928
2026-01-12 11:49:42.30	358.57	39.51	-30.5	-33.3	19.1	6.05e-01	0	42	0	243793920	22	4972
2026-01-12 11:49:43.31	358.38	39.22	-30.7	-34.0	18.7	6.06e-01	0	42	0	245891072	22	5248
2026-01-12 11:49:44.30	358.19	38.94	-30.8	-34.3	18.5	6.07e-01	0	42	0	247463936	22	5364
2026-01-12 11:49:45.31	358.00	38.66	-30.9	-34.6	18.3	6.05e-01	0	42	0	249561088	22	5473
2026-01-12 11:49:46.32	357.81	38.38	-30.5	-33.5	18.9	6.06e-01	0	42	0	251133952	22	5055
2026-01-12 11:49:47.32	357.63	38.11	-30.5	-33.4	19.0	6.06e-01	0	42	0	253231104	22	5039
2026-01-12 11:49:48.32	357.45	37.84	-30.6	-33.7	18.8	6.06e-01	0	42	0	255328256	22	5151
2026-01-12 11:49:49.33	357.28	37.56	-30.7	-34.0	18.6	6.07e-01	0	42	0	256901120	22	5261
2026-01-12 11:49:50.34	357.10	37.29	-30.7	-34.1	18.5	6.07e-01	0	42	0	258998272	22	5290
2026-01-12 11:49:51.34	356.93	37.02	-30.6	-33.6	18.8	6.02e-01	0	42	0	260571136	22	5107
2026-01-12 11:49:52.35	356.76	36.76	-30.4	-33.1	19.1	6.01e-01	0	42	0	262668288	22	4929
2026-01-12 11:49:53.36	356.60	36.49	-30.4	-33.2	19.1	5.98e-01	0	42	0	264765440	22	4943
2026-01-12 11:49:54.35	356.44	36.23	-30.5	-33.4	18.9	6.01e-01	0	43	0	266338304	22	5049
2026-01-12 11:49:55.35	356.28	35.98	-30.3	-32.8	19.3	6.01e-01	0	42	0	268435456	22	4825
2026-01-12 11:49:56.36	356.13	35.72	-30.0	-32.2	19.7	5.99e-01	0	42	0	270008320	22	4613
2026-01-12 11:49:57.37	355.97	35.46	-29.9	-31.9	19.9	6.01e-01	0	42	0	272105472	22	4522
2026-01-12 11:49:58.38	355.82	35.20	-30.1	-32.4	19.5	5.99e-01	0	42	0	274202624	22	4674
2026-01-12 11:49:59.38	355.67	34.95	-30.1	-32.4	19.6	6.00e-01	0	42	0	275775488	22	4682
2026-01-12 11:50:00.39	355.52	34.70	-29.8	-32.2	19.9	6.01e-01	0	42	0	277872640	21	4724
2026-01-12 11:50:01.39	355.38	34.45	-29.6	-31.5	20.3	6.00e-01	0	42	0	279445504	21	4514
2026-01-12 11:50:02.40	355.24	34.21	-29.4	-31.1	20.6	6.02e-01	0	42	0	281542656	21	4395
2026-01-12 11:50:03.40	355.10	33.96	-29.4	-31.5	20.7	6.02e-01	0	43	0	283115520	20	4620
2026-01-12 11:50:04.40	354.96	33.72	-29.3	-31.5	20.6	6.02e-01	0	42	0	285212672	20	4605
2026-01-12 11:50:05.40	354.83	33.48	-29.3	-31.5	20.6	6.03e-01	0	42	0	287309824	20	4618
2026-01-12 11:50:06.40	354.70	33.24	-29.3	-31.4	20.7	6.02e-01	0	42	0	288882688	20	4585
2026-01-12 11:50:07.41	354.56	33.01	-29.3	-31.4	20.7	6.02e-01	0	42	0	290979840	20	4579
2026-01-12 11:50:08.42	354.43	32.77	-29.4	-31.7	20.5	6.01e-01	0	42	0	292552704	20	4685
2026-01-12 11:50:09.42	354.31	32.54	-29.4	-31.8	20.4	5.99e-01	0	42	0	294649856	20	4708
2026-01-12 11:50:10.42	354.18	32.31	-29.3	-31.5	20.6	6.00e-01	0	42	0	296747008	20	4627
2026-01-12 11:50:11.43	354.06	32.08	-29.3	-31.3	20.7	6.00e-01	0	42	0	298319872	20	4568
2026-01-12 11:50:12.43	353.94	31.85	-29.1	-31.0	20.9	6.02e-01	0	42	0	300417024	20	4468
2026-01-12 11:50:13.44	353.82	31.62	-29.1	-30.8	21.0	6.03e-01	0	43	0	301989888	20	4411
2026-01-12 11:50:14.44	353.70	31.40	-29.0	-30.6	21.1	6.01e-01	0	42	0	304087040	20	4354
2026-01-12 11:50:15.44	353.59	31.18	-28.9	-30.5	21.0	6.01e-01	0	42	0	306184192	20	4331
2026-01-12 11:50:16.44	353.47	30.95	-28.9	-30.5	21.1	6.03e-01	0	42	0	307757056	20	4312
2026-01-12 11:50:17.45	353.36	30.73	-29.0	-30.7	21.0	5.98e-01	0	42	0	309854208	20	4370
2026-01-12 11:50:18.45	353.25	30.52	-29.1	-30.8	20.9	6.01e-01	0	42	0	311427072	20	4420
2026-01-12 11:50:19.46	353.14	30.30	-29.0	-30.7	21.0	6.02e-01	0	42	0	313524224	20	4391
2026-01-12 11:50:20.46	353.03	30.09	-29.1	-30.9	21.0	6.00e-01	0	42	0	315621376	20	4425
2026-01-12 11:50:21.46	352.92	29.87	-29.1	-31.0	20.8	6.01e-01	0	42	0	317194240	20	4483
2026-01-12 11:50:22.47	352.82	29.66	-29.2	-31.2	20.7	6.00e-01	0	42	0	319291392	20	4532
2026-01-12 11:50:23.48	352.71	29.45	-29.2	-31.3	20.7	6.03e-01	0	42	0	320864256	20	4557
2026-01-12 11:50:24.49	352.61	29.24	-29.3	-31.3	20.6	6.02e-01	0	42	0	322961408	20	4577
2026-01-12 11:50:25.49	352.51	29.03	-29.4	-31.6	20.5	5.99e-01	0	42	0	324534272	20	4666
2026-01-12 11:50:26.49	352.41	28.83	-29.5	-31.9	20.3	6.00e-01	0	42	0	326631424	20	4740
2026-01-12 11:50:27.50	352.31	28.62	-29.3	-31.5	20.5	6.02e-01	0	42	0	328728576	20	4640
2026-01-12 11:50:28.50	352.22	28.42	-29.3	-31.4	20.6	6.02e-01	0	42	0	330301440	20	4602
2026-01-12 11:50:29.51	352.12	28.22	-29.3	-31.5	20.5	6.00e-01	0	42	0	332398592	20	4609
2026-01-12 11:50:30.52	352.03	28.02	-29.3	-31.5	20.5	5.98e-01	0	42	0	334495744	20	4611
2026-01-12 11:50:31.52	351.93	27.82	-29.4	-31.7	20.4	6.04e-01	0	42	0	336068608	20	4683
2026-01-12 11:50:32.53	351.84	27.63	-29.5	-32.0	20.2	6.01e-01	0	42	0	338165760	20	4791
2026-01-12 11:50:33.53	351.75	27.43	-29.5	-31.9	20.2	6.01e-01	0	42	0	339738624	20	4746
2026-01-12 11:50:34.54	351.66	27.24	-29.6	-32.1	20.1	6.03e-01	0	42	0	341835776	20	4814
2026-01-12 11:50:35.55	351.57	27.04	-29.6	-32.1	20.1	6.00e-01	0	42	0	343408640	20	4837
2026-01-12 11:50:36.54	351.49	26.86	-29.5	-32.1	20.1	6.03e-01	0	42	0	345505792	20	4820
2026-01-12 11:50:37.55	351.40	26.66	-29.6	-32.2	20.0	6.02e-01	0	42	0	347602944	20	4859
2026-01-12 11:50:38.55	351.32	26.48	-29.5	-32.1	20.2	6.00e-01	0	42	0	349175808	20	4806
2026-01-12 11:50:39.56	351.23	26.29	-29.4	-31.7	20.3	6.00e-01	0	42	0	351272960	20	4698
2026-01-12 11:50:40.56	351.15	26.11	-29.4	-31.8	20.3	6.02e-01	0	42	0	352845824	20	4716
2026-01-12 11:50:41.56	351.07	25.92	-29.5	-31.9	20.3	6.03e-01	0	42	0	354942976	20	4755
2026-01-12 11:50:42.57	350.99	25.74	-29.5	-31.9	20.3	6.02e-01	0	42	0	357040128	20	4746
2026-01-12 11:50:43.58	350.91	25.56	-29.5	-32.0	20.1	6.00e-01	0	42	0	358612992	20	4802
2026-01-12 11:50:44.58	350.83	25.38	-29.6	-32.2	20.1	6.02e-01	0	42	0	360710144	20	4858
2026-01-12 11:50:45.58	350.75	25.20	-29.7	-32.4	19.9	6.00e-01	0	42	0	362283008	20	4922
2026-01-12 11:50:46.58	350.68	25.02	-29.6	-32.3	19.9	6.02e-01	0	42	0	364380160	20	4907
2026-01-12 11:50:47.59	350.60	24.84	-29.5	-31.9	20.2	5.99e-01	0	42	0	365953024	20	4762
2026-01-12 11:50:48.59	350.53	24.67	-29.5	-31.9	20.2	6.02e-01	0	42	0	368050176	20	4753
2026-01-12 11:50:49.60	350.45	24.49	-29.5	-32.0	20.1	6.02e-01	0	42	0	370147328	20	4790
2026-01-12 11:50:50.60	350.38	24.32	-29.5	-32.0	20.1	6.01e-01	0	42	0	371720192	20	4799
2026-01-12 11:50:51.61	350.31	24.15	-29.6	-32.2	20.0	6.02e-01	0	42	0	373817344	20	4858
2026-01-12 11:50:52.61	350.23	23.98	-29.6	-32.3	19.9	6.01e-01	0	42	0	375914496	20	4900
2026-01-12 11:50:53.62	350.16	23.81	-29.7	-32.5	19.8	6.02e-01	0	42	0	377487360	20	4972
2026-01-12 11:50:54.62	350.09	23.64	-29.8	-32.7	19.7	5.99e-01	0	42	0	379584512	20	5031
2026-01-12 11:50:55.63	350.03	23.47	-29.8	-32.9	19.5	6.01e-01	0	42	0	381157376	20	5122
2026-01-12 11:50:56.63	349.96	23.31	-29.9	-33.0	19.4	6.01e-01	0	42	0	383254528	20	5169
2026-01-12 11:50:57.64	349.89	23.14	-29.9	-33.1	19.3	6.03e-01	0	42	0	384827392	20	5204
2026-01-12 11:50:58.65	349.82	22.98	-29.9	-33.0	19.4	6.02e-01	0	42	0	386924544	20	5169
2026-01-12 11:50:59.65	349.76	22.81	-29.9	-33.0	19.4	5.99e-01	0	42	0	389021696	20	5159
2026-01-12 11:51:00.66	349.69	22.65	-30.0	-33.3	19.2	6.00e-01	0	42	0	390594560	20	5260
2026-01-12 11:51:01.66	349.63	22.49	-29.9	-33.1	19.3	6.00e-01	0	42	0	392691712	20	5202
2026-01-12 11:51:02.67	349.57	22.33	-29.9	-33.1	19.4	6.00e-01	0	42	0	394264576	20	5188
2026-01-12 11:51:03.68	349.50	22.17	-29.9	-33.0	19.4	5.98e-01	0	42	0	396361728	20	5136
2026-01-12 11:51:04.68	349.44	22.02	-29.8	-32.7	19.6	6.03e-01	0	42	0	398458880	20	5034
2026-01-12 11:51:05.69	349.38	21.86	-29.8	-32.7	19.6	6.02e-01	0	42	0	400031744	20	5063
2026-01-12 11:51:06.69	349.32	21.70	-29.8	-32.8	19.6	6.01e-01	0	42	0	402128896	20	5079
2026-01-12 11:51:07.70	349.26	21.55	-29.9	-32.9	19.5	6.02e-01	0	42	0	403701760	20	5138
2026-01-12 11:51:08.70	349.20	21.40	-29.9	-33.0	19.4	6.01e-01	0	42	0	405798912	20	5145
2026-01-12 11:51:09.71	349.14	21.24	-30.1	-33.6	19.1	5.97e-01	0	42	0	407896064	20	5387
2026-01-12 11:51:10.71	349.08	21.09	-30.0	-32.9	19.1	6.00e-01	0	42	0	409468928	21	5018
2026-01-12 11:51:11.71	349.03	20.94	-29.9	-32.5	19.4	5.99e-01	0	42	0	411566080	21	4881
2026-01-12 11:51:12.72	348.97	20.79	-29.8	-32.4	19.5	5.99e-01	0	42	0	413138944	21	4828
2026-01-12 11:51:13.72	348.91	20.64	-29.9	-32.5	19.4	6.00e-01	0	42	0	415236096	21	4860
2026-01-12 11:51:14.72	348.86	20.50	-30.0	-32.9	19.2	6.04e-01	0	42	0	417333248	21	5031
2026-01-12 11:51:15.72	348.80	20.35	-30.0	-32.9	19.1	6.01e-01	0	42	0	418906112	21	5032
2026-01-12 11:51:16.72	348.75	20.20	-30.1	-33.1	19.0	6.02e-01	0	42	0	421003264	21	5093
2026-01-12 11:51:17.73	348.69	20.06	-30.1	-33.1	19.0	6.00e-01	0	42	0	422576128	21	5081
2026-01-12 11:51:18.73	348.64	19.92	-30.3	-33.6	18.7	5.99e-01	0	42	0	424673280	21	5263
2026-01-12 11:51:19.74	348.59	19.77	-30.2	-33.3	18.9	6.03e-01	0	42	0	426246144	21	5160
2026-01-12 11:51:20.74	348.54	19.63	-30.0	-32.9	19.1	6.01e-01	0	42	0	428343296	21	5037
2026-01-12 11:51:21.75	348.48	19.49	-30.0	-32.9	19.1	6.00e-01	0	42	0	430440448	21	5015
2026-01-12 11:51:22.76	348.43	19.35	-29.9	-32.7	19.2	6.02e-01	0	42	0	432013312	21	4958
2026-01-12 11:51:23.77	348.38	19.21	-30.1	-33.2	18.9	6.02e-01	0	42	0	434110464	21	5126
2026-01-12 11:51:24.77	348.33	19.07	-30.0	-32.8	19.1	6.03e-01	0	42	0	436207616	21	4980
2026-01-12 11:51:25.77	348.28	18.93	-29.8	-32.4	19.4	6.02e-01	0	42	0	437780480	21	4834
2026-01-12 11:51:26.78	348.23	18.79	-29.7	-32.0	19.6	6.00e-01	0	42	0	439877632	21	4716
2026-01-12 11:51:27.78	348.19	18.66	-29.7	-32.0	19.6	6.00e-01	0	42	0	441450496	21	4727
2026-01-12 11:51:28.79	348.14	18.52	-29.6	-31.9	19.7	5.99e-01	0	42	0	443547648	21	4681
2026-01-12 11:51:29.79	348.09	18.39	-29.6	-31.9	19.6	6.04e-01	0	42	0	445120512	21	4682
2026-01-12 11:51:30.80	348.04	18.25	-29.6	-31.9	19.6	6.01e-01	0	42	0	447217664	21	4672
2026-01-12 11:51:31.80	348.00	18.12	-29.5	-31.7	19.8	6.02e-01	0	42	0	449314816	21	4605
2026-01-12 11:51:32.81	347.95	17.98	-29.5	-31.7	19.7	6.00e-01	0	42	0	450887680	21	4605
2026-01-12 11:51:33.82	347.91	17.85	-29.5	-31.7	19.8	6.02e-01	0	42	0	452984832	21	4610
2026-01-12 11:51:34.83	347.86	17.72	-29.6	-31.7	19.7	6.02e-01	0	42	0	454557696	21	4626
2026-01-12 11:51:35.83	347.82	17.59	-29.7	-32.1	19.5	6.01e-01	0	42	0	456654848	21	4738
2026-01-12 11:51:36.83	347.77	17.46	-29.7	-32.1	19.4	6.01e-01	0	42	0	458752000	21	4762
2026-01-12 11:51:37.83	347.73	17.33	-29.6	-32.0	19.5	6.03e-01	0	42	0	460324864	21	4706
2026-01-12 11:51:38.84	347.68	17.20	-29.8	-32.3	19.3	6.00e-01	0	42	0	462422016	21	4823
2026-01-12 11:51:39.84	347.64	17.08	-29.7	-32.2	19.4	6.01e-01	0	42	0	463994880	21	4769
2026-01-12 11:51:40.85	347.60	16.95	-29.8	-32.3	19.4	5.99e-01	0	42	0	466092032	21	4802
2026-01-12 11:51:41.85	347.56	16.83	-29.8	-32.4	19.3	6.01e-01	0	42	0	468189184	21	4858
2026-01-12 11:51:42.86	347.52	16.70	-29.8	-32.4	19.3	6.00e-01	0	42	0	469762048	21	4859
2026-01-12 11:51:43.87	347.47	16.57	-29.8	-32.5	19.2	6.02e-01	0	42	0	471859200	21	4890
2026-01-12 11:51:44.87	347.43	16.45	-29.9	-32.6	19.1	5.98e-01	0	42	0	473432064	21	4919
2026-01-12 11:51:45.87	347.39	16.33	-29.9	-32.6	19.1	6.00e-01	0	42	0	475529216	21	4935
2026-01-12 11:51:46.88	347.35	16.21	-30.0	-32.9	18.9	6.01e-01	0	42	0	477626368	21	5042
2026-01-12 11:51:47.88	347.31	16.08	-30.0	-32.9	19.0	6.00e-01	0	42	0	479199232	21	5040
2026-01-12 11:51:48.89	347.27	15.96	-30.2	-33.4	18.7	6.00e-01	0	42	0	481296384	21	5214
2026-01-12 11:51:49.90	347.23	15.84	-30.0	-32.9	18.9	6.01e-01	0	42	0	482869248	21	5035
2026-01-12 11:51:50.90	347.20	15.72	-29.8	-32.4	19.2	6.02e-01	0	42	0	484966400	21	4872
2026-01-12 11:51:51.90	347.16	15.60	-29.6	-32.0	19.4	6.01e-01	0	42	0	487063552	21	4735
2026-01-12 11:51:52.92	347.12	15.48	-29.6	-31.8	19.6	6.03e-01	0	42	0	488636416	21	4675
2026-01-12 11:51:53.92	347.08	15.36	-29.7	-32.1	19.4	6.04e-01	0	42	0	490733568	21	4766
2026-01-12 11:51:54.92	347.04	15.25	-29.6	-32.1	19.4	6.03e-01	0	42	0	492306432	21	4747
2026-01-12 11:51:55.92	347.01	15.13	-29.6	-31.9	19.5	6.01e-01	0	42	0	494403584	21	4690
2026-01-12 11:51:56.93	346.97	15.01	-29.5	-31.8	19.6	6.00e-01	0	42	0	495976448	21	4666
2026-01-12 11:51:57.93	346.93	14.90	-29.6	-32.0	19.4	6.03e-01	0	42	0	498073600	21	4731
2026-01-12 11:51:58.93	346.90	14.79	-29.6	-31.9	19.5	6.00e-01	0	42	0	500170752	21	4694
2026-01-12 11:51:59.94	346.86	14.67	-29.5	-31.8	19.6	5.98e-01	0	42	0	501743616	21	4653
2026-01-12 11:52:00.94	346.83	14.56	-29.6	-31.9	19.5	5.99e-01	0	42	0	503840768	21	4692
2026-01-12 11:52:01.94	346.79	14.44	-29.6	-31.8	19.5	6.02e-01	0	42	0	505413632	21	4674
2026-01-12 11:52:02.95	346.76	14.33	-29.6	-31.9	19.5	6.01e-01	0	42	0	507510784	21	4686
2026-01-12 11:52:03.95	346.72	14.22	-29.7	-32.1	19.3	5.99e-01	0	42	0	509607936	21	4775
2026-01-12 11:52:04.95	346.69	14.11	-29.5	-31.8	19.4	6.03e-01	0	42	0	511180800	21	4680
2026-01-12 11:52:05.96	346.66	14.00	-29.6	-31.9	19.4	6.02e-01	0	42	0	513277952	21	4692
2026-01-12 11:52:06.97	346.62	13.89	-29.7	-32.3	19.2	6.02e-01	0	42	0	514850816	21	4829
2026-01-12 11:52:07.97	346.59	13.78	-29.6	-32.0	19.4	6.03e-01	0	42	0	516947968	21	4726
2026-01-12 11:52:08.97	346.56	13.67	-29.7	-32.1	19.3	6.03e-01	0	42	0	519045120	21	4783
2026-01-12 11:52:09.98	346.53	13.56	-29.7	-32.3	19.2	6.03e-01	0	42	0	520617984	21	4830
2026-01-12 11:52:10.98	346.49	13.45	-29.9	-32.8	18.9	6.02e-01	0	42	0	522715136	21	5015
2026-01-12 11:52:11.98	346.46	13.34	-29.8	-32.5	19.0	6.00e-01	0	42	0	524288000	21	4926
2026-01-12 11:52:12.99	346.43	13.23	-29.8	-32.4	19.1	6.01e-01	0	42	0	526385152	21	4867
2026-01-12 11:52:14.00	346.40	13.13	-29.7	-32.1	19.2	6.02e-01	0	42	0	527958016	21	4782
2026-01-12 11:52:15.00	346.37	13.02	-29.7	-32.2	19.2	6.01e-01	0	42	0	530055168	21	4804
2026-01-12 11:52:16.01	346.34	12.92	-29.7	-32.1	19.2	6.03e-01	0	42	0	532152320	21	4790
2026-01-12 11:52:17.01	346.31	12.81	-29.7	-32.2	19.1	6.01e-01	0	42	0	533725184	21	4823
2026-01-12 11:52:18.01	346.28	12.71	-29.7	-32.2	19.1	6.01e-01	0	42	0	535822336	21	4825
2026-01-12 11:52:19.02	346.25	12.60	-29.6	-32.1	19.2	5.99e-01	0	42	0	537919488	21	4770
2026-01-12 11:52:20.03	346.22	12.50	-29.6	-32.0	19.2	6.02e-01	0	42	0	539492352	21	4765
2026-01-12 11:52:21.04	346.19	12.39	-29.7	-32.2	19.1	6.02e-01	0	42	0	541589504	21	4821
2026-01-12 11:52:22.04	346.16	12.29	-29.7	-32.3	19.0	6.02e-01	0	42	0	543162368	21	4837
2026-01-12 11:52:23.05	346.13	12.19	-29.8	-32.5	18.9	6.01e-01	0	42	0	545259520	21	4943
2026-01-12 11:52:24.06	346.10	12.09	-29.7	-32.3	19.0	6.03e-01	0	42	0	547356672	21	4860
2026-01-12 11:52:25.06	346.07	11.98	-29.8	-32.6	18.9	6.01e-01	0	42	0	548929536	21	4951
2026-01-12 11:52:26.07	346.04	11.88	-29.9	-32.8	18.7	6.00e-01	0	42	0	551026688	21	5027
2026-01-12 11:52:27.07	346.01	11.78	-29.8	-32.6	18.8	6.02e-01	0	42	0	552599552	21	4964
2026-01-12 11:52:28.07	345.99	11.68	-29.8	-32.7	18.7	6.01e-01	0	42	0	554696704	21	4997
2026-01-12 11:52:29.08	345.96	11.58	-29.8	-32.6	18.8	6.01e-01	0	42	0	556269568	21	4958
2026-01-12 11:52:30.08	345.93	11.48	-29.9	-32.9	18.6	6.01e-01	0	42	0	558366720	21	5075
2026-01-12 11:52:31.08	345.90	11.39	-30.1	-33.5	18.1	6.03e-01	0	42	0	560463872	21	5320
2026-01-12 11:52:32.09	345.88	11.29	-29.9	-32.9	18.5	6.00e-01	0	42	0	562036736	21	5085
2026-01-12 11:52:33.10	345.85	11.19	-29.8	-32.6	18.8	6.00e-01	0	42	0	564133888	21	4965
2026-01-12 11:52:34.10	345.82	11.09	-29.8	-32.5	18.8	6.00e-01	0	42	0	565706752	21	4928
2026-01-12 11:52:35.11	345.80	10.99	-29.8	-32.7	18.7	6.02e-01	0	42	0	567803904	21	4994
2026-01-12 11:52:36.11	345.77	10.90	-29.8	-32.7	18.7	6.03e-01	0	42	0	569901056	21	5015
2026-01-12 11:52:37.12	345.75	10.80	-29.9	-32.8	18.7	6.01e-01	0	42	0	571473920	21	5041
2026-01-12 11:52:38.12	345.72	10.71	-29.9	-33.0	18.5	6.03e-01	0	42	0	573571072	21	5101
2026-01-12 11:52:39.13	345.69	10.61	-29.9	-32.9	18.5	6.01e-01	0	42	0	575143936	21	5099
2026-01-12 11:52:40.13	345.67	10.52	-30.0	-33.1	18.4	6.02e-01	0	42	0	577241088	21	5178
2026-01-12 11:52:41.14	345.64	10.42	-30.0	-33.3	18.3	6.02e-01	0	42	0	579338240	21	5233
2026-01-12 11:52:42.14	345.62	10.33	-30.0	-33.1	18.4	6.01e-01	0	42	0	580911104	21	5171
2026-01-12 11:52:43.15	345.59	10.23	-30.0	-33.1	18.4	6.03e-01	0	42	0	583008256	21	5175
2026-01-12 11:52:44.15	345.57	10.14	-30.1	-33.4	18.2	6.01e-01	0	42	0	584581120	21	5265
2026-01-12 11:52:45.15	345.55	10.05	-30.1	-33.4	18.2	5.99e-01	0	42	0	586678272	21	5287
2026-01-12 11:52:46.16	345.52	9.95	-30.1	-33.4	18.2	6.02e-01	0	42	0	588775424	21	5280
2026-01-12 11:52:47.17	345.50	9.86	-30.1	-33.6	18.1	6.00e-01	0	42	0	590348288	21	5352
2026-01-12 11:52:48.17	345.47	9.77	-30.1	-33.4	18.2	6.01e-01	0	42	0	592445440	21	5297
2026-01-12 11:52:49.18	345.45	9.68	-30.2	-33.8	17.9	5.99e-01	0	42	0	594018304	21	5425
2026-01-12 11:52:50.19	345.43	9.59	-30.4	-34.2	17.6	6.02e-01	0	42	0	596115456	21	5615
2026-01-12 11:52:51.19	345.41	9.50	-30.2	-33.9	17.9	6.00e-01	0	42	0	597688320	21	5468
2026-01-12 11:52:52.20	345.38	9.41	-30.2	-33.7	17.9	6.00e-01	0	42	0	599785472	21	5406
2026-01-12 11:52:53.20	345.36	9.32	-30.1	-33.6	18.0	6.00e-01	0	42	0	601882624	21	5361
2026-01-12 11:52:54.21	345.34	9.23	-30.1	-33.4	18.1	5.98e-01	0	42	0	603455488	21	5290
2026-01-12 11:52:55.22	345.31	9.14	-30.1	-33.5	18.0	6.01e-01	0	42	0	605552640	21	5317
2026-01-12 11:52:56.23	345.29	9.05	-30.1	-33.6	17.9	6.04e-01	0	42	0	607649792	21	5369
2026-01-12 11:52:57.24	345.27	8.96	-30.1	-33.5	18.0	5.99e-01	0	42	0	609222656	21	5316
2026-01-12 11:52:58.25	345.25	8.87	-30.0	-33.4	18.1	5.99e-01	0	42	0	611319808	21	5269
2026-01-12 11:52:59.25	345.23	8.78	-30.0	-33.2	18.2	6.01e-01	0	42	0	612892672	21	5206
2026-01-12 11:53:00.25	345.21	8.69	-30.0	-33.3	18.1	6.00e-01	0	42	0	614989824	21	5242
2026-01-12 11:53:01.26	345.18	8.61	-30.0	-33.4	18.1	6.01e-01	0	42	0	617086976	21	5280
2026-01-12 11:53:02.27	345.16	8.52	-30.1	-33.5	18.0	6.02e-01	0	42	0	618659840	21	5348
2026-01-12 11:53:03.27	345.14	8.43	-30.1	-33.5	18.0	6.04e-01	0	42	0	620756992	21	5318
2026-01-12 11:53:04.27	345.12	8.35	-30.2	-33.9	17.7	5.99e-01	0	42	0	622329856	21	5495
2026-01-12 11:53:05.28	345.10	8.26	-30.1	-33.6	17.9	6.00e-01	0	42	0	624427008	21	5364
2026-01-12 11:53:06.29	345.08	8.17	-30.3	-34.0	17.7	6.00e-01	0	42	0	625999872	21	5533
2026-01-12 11:53:07.30	345.06	8.09	-30.1	-33.5	18.0	6.02e-01	0	42	0	628097024	21	5341
2026-01-12 11:53:08.30	345.04	8.00	-30.2	-33.9	17.7	6.01e-01	0	42	0	630194176	21	5496
2026-01-12 11:53:09.31	345.02	7.92	-30.0	-33.3	18.0	6.02e-01	0	42	0	631767040	21	5274
2026-01-12 11:53:10.31	345.00	7.84	-30.0	-33.3	18.0	6.03e-01	0	42	0	633864192	21	5257
2026-01-12 11:53:11.32	344.98	7.75	-30.1	-33.5	17.9	6.01e-01	0	42	0	635961344	21	5356
2026-01-12 11:53:12.33	344.96	7.67	-30.2	-33.8	17.6	6.01e-01	0	42	0	637534208	21	5470
2026-01-12 11:53:13.33	344.94	7.58	-30.0	-33.4	17.9	6.02e-01	0	42	0	639631360	21	5329
2026-01-12 11:53:14.34	344.92	7.50	-30.0	-33.4	17.8	6.01e-01	0	42	0	641204224	21	5320
2026-01-12 11:53:15.34	344.90	7.42	-30.0	-33.5	17.8	5.99e-01	0	42	0	643301376	21	5343
2026-01-12 11:53:16.34	344.88	7.34	-30.1	-33.6	17.7	6.00e-01	0	42	0	644874240	21	5413
2026-01-12 11:53:17.34	344.86	7.25	-30.1	-33.8	17.6	6.02e-01	0	42	0	646971392	21	5481
2026-01-12 11:53:18.35	344.85	7.17	-30.1	-33.8	17.6	6.01e-01	0	42	0	649068544	21	5483
2026-01-12 11:53:19.35	344.83	7.09	-31.3	-36.5	15.9	6.02e-01	0	42	0	650641408	23	6538
2026-01-12 11:53:20.35	344.81	7.01	-33.5	-53.0	3.8	7.43e-01	0	42	104	652214272	27	33632
2026-01-12 11:53:21.36	344.79	6.93	-33.7	-53.0	3.8	7.44e-01	0	42	104	652214272	28	32913
2026-01-12 11:53:22.36	344.77	6.85	-33.9	-53.4	3.8	7.49e-01	0	42	104	652214272	28	33831

#Closed at: 2026-01-12 11:53:22
#Recorded file [652 MB]: D:/data/31010_260112_144732.dat