passes_logs/2026/01/12/R2M6_AANII_01/R2M6_AANII_01__20260112_045145_FENGYUN_3D_rec.log

#Pass ID: 20260112_045145_FENGYUN 3D
#Satellite: FENGYUN 3D
#Configuration: FENGYUN 3D
#almurnet v.1.7.20240730
#Start time: 2026-01-12 04:51:44

#Version: 2.2.20231116
#Station: R2M6_AANII_01
#Location: 30.233357 lon 59.946436 lat
#TLE: 1 43010U 17072A   26011.26828046  .00000354  00000+0  18908-3 0  9991
#TLE: 2 43010  98.9936 343.0270 0002205 114.1788 245.9618 14.19695184422722

#Time	Az	El	Level	Level2	SNR	BER	BlckErr	Temp	State	Recorded	gain1	gain2
2026-01-12 04:51:44.50	9.65	6.95	-30.8	-34.6	4.8	8.04e-01	0	39	0	0	23	5590
2026-01-12 04:51:45.50	9.54	7.01	-30.0	-33.1	5.2	7.80e-01	0	39	104	0	21	5128
2026-01-12 04:51:46.51	9.43	7.06	-30.0	-33.0	8.8	2.40e-02	0	39	0	0	21	5106
2026-01-12 04:51:47.52	9.32	7.12	-29.9	-32.6	9.1	1.95e-02	0	39	0	5242880	21	4930
2026-01-12 04:51:48.53	9.21	7.18	-29.9	-32.6	9.1	1.74e-02	0	39	0	10485760	21	4936
2026-01-12 04:51:49.53	9.10	7.24	-29.8	-32.5	9.2	1.76e-02	0	39	0	16777216	21	4879
2026-01-12 04:51:50.54	8.98	7.29	-29.6	-32.2	9.8	9.76e-03	0	39	0	22020096	20	4895
2026-01-12 04:51:51.54	8.87	7.35	-29.6	-32.3	9.7	9.48e-03	0	39	0	28311552	20	4921
2026-01-12 04:51:52.54	8.76	7.41	-29.6	-32.2	9.8	7.62e-03	0	39	0	33554432	20	4891
2026-01-12 04:51:53.55	8.65	7.46	-29.3	-31.9	10.4	4.39e-03	0	39	0	38797312	19	4848
2026-01-12 04:51:54.55	8.53	7.52	-28.9	-30.9	11.1	1.59e-03	0	39	0	45088768	19	4530
2026-01-12 04:51:55.56	8.42	7.58	-28.5	-30.3	11.9	3.11e-04	0	39	0	50331648	18	4420
2026-01-12 04:51:56.57	8.30	7.63	-27.8	-29.5	12.9	8.01e-05	0	39	0	56623104	16	4400
2026-01-12 04:51:57.58	8.19	7.69	-27.4	-28.7	13.4	9.10e-06	0	40	0	61865984	16	4182
2026-01-12 04:51:58.58	8.07	7.75	-26.8	-27.9	14.1	1.10e-06	0	39	0	67108864	15	4054
2026-01-12 04:51:59.59	7.95	7.81	-26.5	-27.7	14.5	0.00e+00	0	40	0	73400320	14	4120
2026-01-12 04:52:00.60	7.84	7.86	-26.5	-27.6	14.6	0.00e+00	0	40	0	78643200	14	4102
2026-01-12 04:52:01.61	7.72	7.92	-26.7	-28.2	14.2	0.00e+00	0	40	0	84934656	14	4241
2026-01-12 04:52:02.61	7.60	7.98	-26.9	-28.7	13.9	2.20e-06	0	40	0	90177536	14	4381
2026-01-12 04:52:03.61	7.48	8.03	-26.9	-28.5	14.0	3.40e-06	0	40	0	95420416	14	4347
2026-01-12 04:52:04.62	7.36	8.09	-26.8	-28.4	14.1	1.10e-06	0	40	0	101711872	14	4303
2026-01-12 04:52:05.63	7.24	8.15	-26.9	-28.5	14.0	2.20e-06	0	40	0	106954752	14	4347
2026-01-12 04:52:06.63	7.13	8.21	-26.9	-28.6	14.0	3.40e-06	0	40	0	113246208	14	4373
2026-01-12 04:52:07.64	7.00	8.26	-26.9	-28.6	14.0	0.00e+00	0	40	0	118489088	14	4366
2026-01-12 04:52:08.65	6.88	8.32	-27.1	-28.9	13.8	6.80e-06	0	40	0	123731968	14	4458
2026-01-12 04:52:09.65	6.76	8.38	-27.1	-28.9	13.8	0.00e+00	0	40	0	130023424	14	4456
2026-01-12 04:52:10.66	6.64	8.43	-26.8	-28.4	14.1	0.00e+00	0	40	0	135266304	14	4307
2026-01-12 04:52:11.67	6.52	8.49	-26.8	-28.3	14.2	0.00e+00	0	40	0	141557760	14	4269
2026-01-12 04:52:12.67	6.40	8.55	-26.8	-28.2	14.2	0.00e+00	0	40	0	146800640	14	4261
2026-01-12 04:52:13.68	6.27	8.61	-26.7	-28.0	14.4	0.00e+00	0	40	0	152043520	14	4207
2026-01-12 04:52:14.69	6.15	8.66	-26.6	-27.9	14.4	0.00e+00	0	40	0	158334976	14	4169
2026-01-12 04:52:15.69	6.03	8.72	-26.8	-28.4	14.2	0.00e+00	0	40	0	163577856	14	4301
2026-01-12 04:52:16.70	5.90	8.78	-26.8	-28.2	14.3	0.00e+00	0	40	0	169869312	14	4259
2026-01-12 04:52:17.70	5.78	8.83	-26.7	-28.1	14.3	0.00e+00	0	40	0	175112192	14	4224
2026-01-12 04:52:18.71	5.65	8.89	-26.7	-28.1	14.4	0.00e+00	0	40	0	181403648	14	4207
2026-01-12 04:52:19.72	5.52	8.95	-26.9	-28.5	14.1	1.10e-06	0	40	0	186646528	14	4344
2026-01-12 04:52:20.73	5.40	9.01	-26.9	-28.6	14.0	1.10e-06	0	40	0	191889408	14	4363
2026-01-12 04:52:21.73	5.27	9.06	-26.6	-27.9	14.5	1.10e-06	0	40	0	198180864	14	4175
2026-01-12 04:52:22.74	5.14	9.12	-26.6	-27.7	14.6	0.00e+00	0	40	0	203423744	14	4118
2026-01-12 04:52:23.74	5.01	9.18	-26.6	-27.9	14.5	1.10e-06	0	40	0	208666624	14	4162
2026-01-12 04:52:24.75	4.88	9.24	-26.5	-27.6	14.7	0.00e+00	0	40	0	214958080	14	4088
2026-01-12 04:52:25.76	4.75	9.29	-26.3	-27.3	14.9	0.00e+00	0	40	0	220200960	14	3996
2026-01-12 04:52:26.77	4.62	9.35	-26.3	-27.7	14.9	0.00e+00	0	40	0	226492416	13	4220
2026-01-12 04:52:27.78	4.49	9.41	-26.3	-27.7	14.9	0.00e+00	0	40	0	231735296	13	4218
2026-01-12 04:52:28.78	4.36	9.47	-26.3	-27.7	14.9	0.00e+00	0	40	0	236978176	13	4222
2026-01-12 04:52:29.79	4.23	9.52	-26.5	-28.1	14.7	0.00e+00	0	40	0	243269632	13	4314
2026-01-12 04:52:30.79	4.10	9.58	-26.5	-28.0	14.7	1.10e-06	0	40	0	248512512	13	4304
2026-01-12 04:52:31.81	3.97	9.64	-26.7	-28.6	14.4	0.00e+00	0	40	0	254803968	13	4457
2026-01-12 04:52:32.81	3.83	9.69	-26.7	-28.6	14.4	0.00e+00	0	41	0	260046848	13	4456
2026-01-12 04:52:33.82	3.70	9.75	-26.8	-28.7	14.4	1.10e-06	0	40	0	266338304	13	4489
2026-01-12 04:52:34.82	3.57	9.81	-26.6	-28.2	14.6	0.00e+00	0	41	0	271581184	13	4356
2026-01-12 04:52:35.83	3.43	9.87	-26.4	-27.9	14.8	0.00e+00	0	41	0	276824064	13	4263
2026-01-12 04:52:36.83	3.30	9.92	-26.5	-28.0	14.7	0.00e+00	0	40	0	283115520	13	4304
2026-01-12 04:52:37.84	3.16	9.98	-26.4	-27.8	14.9	0.00e+00	0	41	0	288358400	13	4239
2026-01-12 04:52:38.85	3.02	10.04	-26.7	-28.6	14.5	0.00e+00	0	40	0	294649856	13	4457
2026-01-12 04:52:39.85	2.89	10.09	-26.5	-28.1	14.7	0.00e+00	0	41	0	299892736	13	4321
2026-01-12 04:52:40.85	2.75	10.15	-26.3	-27.5	15.0	0.00e+00	0	40	0	305135616	13	4175
2026-01-12 04:52:41.86	2.61	10.21	-26.2	-27.4	15.2	0.00e+00	0	40	0	311427072	13	4126
2026-01-12 04:52:42.87	2.47	10.26	-26.2	-27.4	15.2	0.00e+00	0	41	0	316669952	13	4141
2026-01-12 04:52:43.87	2.34	10.32	-26.3	-27.7	15.1	0.00e+00	0	41	0	321912832	13	4207
2026-01-12 04:52:44.87	2.20	10.38	-26.4	-27.7	15.0	0.00e+00	0	41	0	328204288	13	4221
2026-01-12 04:52:45.88	2.06	10.43	-26.3	-27.5	15.2	0.00e+00	0	41	0	333447168	13	4153
2026-01-12 04:52:46.88	1.92	10.49	-26.2	-27.4	15.2	1.10e-06	0	40	0	339738624	13	4121
2026-01-12 04:52:47.88	1.78	10.55	-26.4	-27.9	15.0	0.00e+00	0	41	0	344981504	13	4258
2026-01-12 04:52:48.89	1.63	10.60	-26.4	-27.9	14.9	0.00e+00	0	41	0	350224384	13	4284
2026-01-12 04:52:49.90	1.49	10.66	-26.4	-27.7	15.0	0.00e+00	0	41	0	356515840	13	4227
2026-01-12 04:52:50.91	1.35	10.72	-26.3	-27.6	15.1	0.00e+00	0	41	0	361758720	13	4190
2026-01-12 04:52:51.92	1.20	10.77	-26.3	-27.7	15.0	0.00e+00	0	41	0	368050176	13	4203
2026-01-12 04:52:52.92	1.06	10.83	-26.5	-28.1	14.9	0.00e+00	0	41	0	373293056	13	4317
2026-01-12 04:52:53.93	0.91	10.89	-26.4	-27.9	15.0	0.00e+00	0	41	0	378535936	13	4270
2026-01-12 04:52:54.93	0.77	10.94	-26.2	-27.4	15.2	0.00e+00	0	41	0	384827392	13	4137
2026-01-12 04:52:55.94	0.62	11.00	-26.2	-27.4	15.2	0.00e+00	0	41	0	390070272	13	4136
2026-01-12 04:52:56.95	0.48	11.06	-26.4	-27.7	15.1	0.00e+00	0	41	0	395313152	13	4218
2026-01-12 04:52:57.96	0.33	11.11	-26.2	-27.3	15.3	0.00e+00	0	41	0	401604608	13	4113
2026-01-12 04:52:58.96	0.18	11.17	-26.4	-27.9	15.0	2.20e-06	0	41	0	406847488	13	4252
2026-01-12 04:52:59.97	0.03	11.22	-26.2	-27.3	15.3	0.00e+00	0	41	0	413138944	13	4090
2026-01-12 04:53:00.98	359.89	11.28	-26.1	-27.3	15.3	0.00e+00	0	41	0	418381824	13	4096
2026-01-12 04:53:01.98	359.74	11.34	-26.2	-27.4	15.2	0.00e+00	0	41	0	424673280	13	4140
2026-01-12 04:53:02.99	359.59	11.39	-26.1	-27.2	15.4	0.00e+00	0	41	0	429916160	13	4083
2026-01-12 04:53:04.00	359.44	11.45	-26.1	-27.1	15.5	0.00e+00	0	41	0	435159040	13	4049
2026-01-12 04:53:05.00	359.29	11.50	-26.1	-27.1	15.4	0.00e+00	0	41	0	441450496	13	4045
2026-01-12 04:53:06.01	359.13	11.56	-25.9	-26.8	15.6	0.00e+00	0	41	0	446693376	13	3980
2026-01-12 04:53:07.02	358.98	11.61	-25.8	-26.9	15.8	0.00e+00	0	41	0	452984832	12	4105
2026-01-12 04:53:08.03	358.83	11.67	-25.9	-27.1	15.6	0.00e+00	0	41	0	458227712	12	4164
2026-01-12 04:53:09.03	358.67	11.73	-25.7	-26.8	15.8	0.00e+00	0	41	0	463470592	12	4085
2026-01-12 04:53:10.04	358.52	11.78	-25.8	-27.0	15.8	0.00e+00	0	41	0	469762048	12	4133
2026-01-12 04:53:11.05	358.37	11.84	-25.8	-27.0	15.7	0.00e+00	0	41	0	475004928	12	4135
2026-01-12 04:53:12.06	358.21	11.89	-25.8	-27.0	15.8	0.00e+00	0	41	0	481296384	12	4123
2026-01-12 04:53:13.06	358.05	11.95	-26.0	-27.4	15.5	0.00e+00	0	41	0	486539264	12	4230
2026-01-12 04:53:14.07	357.90	12.00	-25.8	-27.0	15.8	1.10e-06	0	41	0	491782144	12	4124
2026-01-12 04:53:15.07	357.74	12.06	-26.0	-27.4	15.5	0.00e+00	0	41	0	498073600	12	4227
2026-01-12 04:53:16.08	357.58	12.11	-25.8	-27.1	15.7	0.00e+00	0	41	0	503316480	12	4153
2026-01-12 04:53:17.09	357.42	12.17	-25.8	-27.0	15.8	0.00e+00	0	41	0	509607936	12	4132
2026-01-12 04:53:18.09	357.27	12.22	-25.9	-27.2	15.7	0.00e+00	0	41	0	514850816	12	4178
2026-01-12 04:53:19.10	357.11	12.28	-26.0	-27.5	15.5	0.00e+00	0	41	0	521142272	12	4256
2026-01-12 04:53:20.11	356.95	12.33	-25.8	-27.0	15.8	0.00e+00	0	41	0	526385152	12	4139
2026-01-12 04:53:21.12	356.79	12.39	-25.8	-26.9	15.8	0.00e+00	0	41	0	531628032	12	4114
2026-01-12 04:53:22.13	356.62	12.44	-25.7	-26.8	15.9	0.00e+00	0	41	0	537919488	12	4085
2026-01-12 04:53:23.13	356.46	12.49	-25.9	-27.3	15.6	0.00e+00	0	41	0	543162368	12	4204
2026-01-12 04:53:24.14	356.30	12.55	-25.7	-26.7	15.9	0.00e+00	0	41	0	548405248	12	4062
2026-01-12 04:53:25.15	356.14	12.60	-25.6	-26.6	16.0	0.00e+00	0	41	0	554696704	12	4026
2026-01-12 04:53:26.15	355.97	12.66	-25.6	-26.6	15.9	0.00e+00	0	41	0	559939584	12	4034
2026-01-12 04:53:27.16	355.81	12.71	-25.8	-26.9	15.8	0.00e+00	0	41	0	566231040	12	4101
2026-01-12 04:53:28.17	355.64	12.76	-25.8	-27.0	15.7	0.00e+00	0	41	0	571473920	12	4140
2026-01-12 04:53:29.17	355.48	12.82	-25.8	-27.1	15.7	0.00e+00	0	41	0	576716800	12	4157
2026-01-12 04:53:30.18	355.31	12.87	-25.9	-27.3	15.6	0.00e+00	0	41	0	583008256	12	4205
2026-01-12 04:53:31.18	355.15	12.92	-26.0	-27.4	15.5	0.00e+00	0	41	0	588251136	12	4248
2026-01-12 04:53:32.19	354.98	12.98	-26.0	-27.4	15.5	0.00e+00	0	41	0	594542592	12	4251
2026-01-12 04:53:33.20	354.81	13.03	-26.1	-27.6	15.4	0.00e+00	0	41	0	599785472	12	4307
2026-01-12 04:53:34.21	354.64	13.08	-26.2	-27.9	15.2	0.00e+00	0	41	0	606076928	12	4391
2026-01-12 04:53:35.20	354.47	13.14	-26.0	-27.4	15.5	0.00e+00	0	41	0	611319808	12	4246
2026-01-12 04:53:36.21	354.30	13.19	-25.7	-26.8	15.9	0.00e+00	0	41	0	616562688	12	4074
2026-01-12 04:53:37.22	354.13	13.24	-25.8	-26.9	15.8	0.00e+00	0	41	0	622854144	12	4109
2026-01-12 04:53:38.22	353.96	13.29	-25.7	-26.7	15.9	0.00e+00	0	41	0	628097024	12	4059
2026-01-12 04:53:39.23	353.79	13.35	-25.6	-26.5	16.1	0.00e+00	0	41	0	633339904	12	3992
2026-01-12 04:53:40.24	353.62	13.40	-25.6	-26.5	16.1	0.00e+00	0	41	0	639631360	12	4004
2026-01-12 04:53:41.24	353.45	13.45	-25.3	-25.9	16.4	0.00e+00	0	41	0	644874240	12	3861
2026-01-12 04:53:42.25	353.27	13.50	-25.2	-26.2	16.6	0.00e+00	0	41	0	651165696	11	4030
2026-01-12 04:53:43.26	353.10	13.55	-25.2	-26.2	16.6	0.00e+00	0	41	0	656408576	11	4030
2026-01-12 04:53:44.26	352.92	13.61	-25.5	-26.7	16.3	0.00e+00	0	41	0	661651456	11	4168
2026-01-12 04:53:45.27	352.75	13.66	-25.4	-26.6	16.4	0.00e+00	0	41	0	667942912	11	4137
2026-01-12 04:53:46.28	352.57	13.71	-25.4	-26.6	16.3	0.00e+00	0	41	0	673185792	11	4141
2026-01-12 04:53:47.29	352.39	13.76	-25.3	-26.4	16.5	0.00e+00	0	41	0	679477248	11	4076
2026-01-12 04:53:48.29	352.22	13.81	-25.4	-26.5	16.4	0.00e+00	0	41	0	684720128	11	4106
2026-01-12 04:53:49.30	352.04	13.86	-25.3	-26.4	16.5	0.00e+00	0	41	0	691011584	11	4069
2026-01-12 04:53:50.29	351.86	13.91	-25.3	-26.4	16.4	0.00e+00	0	41	0	696254464	11	4096
2026-01-12 04:53:51.30	351.68	13.96	-25.3	-26.4	16.5	0.00e+00	0	41	0	701497344	11	4090
2026-01-12 04:53:52.31	351.50	14.01	-25.3	-26.4	16.5	0.00e+00	0	41	0	707788800	11	4080
2026-01-12 04:53:53.31	351.32	14.06	-25.2	-26.1	16.7	0.00e+00	0	41	0	713031680	11	4001
2026-01-12 04:53:54.32	351.14	14.11	-25.3	-26.3	16.6	0.00e+00	0	41	0	718274560	11	4044
2026-01-12 04:53:55.33	350.96	14.16	-25.2	-26.2	16.6	0.00e+00	0	41	0	724566016	11	4027
2026-01-12 04:53:56.33	350.78	14.21	-25.2	-26.1	16.6	0.00e+00	0	41	0	729808896	11	4016
2026-01-12 04:53:57.34	350.60	14.26	-25.3	-26.4	16.5	0.00e+00	0	41	0	735051776	11	4078
2026-01-12 04:53:58.34	350.41	14.31	-25.2	-26.0	16.7	0.00e+00	0	41	0	741343232	11	3987
2026-01-12 04:53:59.34	350.23	14.36	-25.2	-26.1	16.7	0.00e+00	0	41	0	746586112	11	4004
2026-01-12 04:54:00.35	350.05	14.41	-25.2	-26.2	16.6	0.00e+00	0	41	0	752877568	11	4019
2026-01-12 04:54:01.36	349.86	14.45	-25.3	-26.4	16.5	0.00e+00	0	41	0	758120448	11	4069
2026-01-12 04:54:02.37	349.67	14.50	-25.4	-26.5	16.4	0.00e+00	0	41	0	764411904	11	4111
2026-01-12 04:54:03.37	349.49	14.55	-25.4	-26.7	16.3	0.00e+00	0	41	0	769654784	11	4149
2026-01-12 04:54:04.38	349.30	14.60	-25.4	-26.6	16.4	0.00e+00	0	41	0	774897664	11	4128
2026-01-12 04:54:05.39	349.11	14.65	-25.3	-26.4	16.5	0.00e+00	0	41	0	781189120	11	4089
2026-01-12 04:54:06.39	348.92	14.69	-25.3	-26.5	16.4	0.00e+00	0	41	0	786432000	11	4103
2026-01-12 04:54:07.40	348.73	14.74	-25.2	-26.2	16.6	0.00e+00	0	41	0	792723456	11	4033
2026-01-12 04:54:08.41	348.54	14.79	-25.1	-26.0	16.7	0.00e+00	0	41	0	797966336	11	3984
2026-01-12 04:54:09.41	348.36	14.83	-25.1	-26.0	16.7	0.00e+00	0	41	0	803209216	11	3973
2026-01-12 04:54:10.41	348.17	14.88	-25.1	-25.9	16.8	0.00e+00	0	41	0	809500672	11	3963
2026-01-12 04:54:11.42	347.97	14.93	-25.1	-26.0	16.7	0.00e+00	0	41	0	814743552	11	3980
2026-01-12 04:54:12.41	347.78	14.97	-25.1	-25.9	16.8	0.00e+00	0	41	0	819986432	11	3943
2026-01-12 04:54:13.42	347.59	15.02	-25.2	-26.1	16.7	0.00e+00	0	41	0	826277888	11	3993
2026-01-12 04:54:14.42	347.40	15.06	-25.3	-26.5	16.5	0.00e+00	0	41	0	831520768	11	4099
2026-01-12 04:54:15.43	347.21	15.11	-25.4	-26.6	16.4	0.00e+00	0	41	0	837812224	11	4123
2026-01-12 04:54:16.44	347.01	15.15	-25.3	-26.4	16.5	0.00e+00	0	41	0	843055104	11	4081
2026-01-12 04:54:17.44	346.82	15.20	-25.3	-26.3	16.6	0.00e+00	0	41	0	848297984	11	4055
2026-01-12 04:54:18.45	346.62	15.24	-25.4	-26.6	16.4	0.00e+00	0	41	0	854589440	11	4137
2026-01-12 04:54:19.46	346.42	15.29	-25.3	-26.4	16.5	0.00e+00	0	41	0	859832320	11	4088
2026-01-12 04:54:20.46	346.23	15.33	-25.2	-26.3	16.6	1.10e-06	0	41	0	866123776	11	4044
2026-01-12 04:54:21.47	346.03	15.38	-25.1	-26.0	16.7	0.00e+00	0	41	0	871366656	11	3987
2026-01-12 04:54:22.47	345.83	15.42	-25.2	-26.1	16.7	0.00e+00	0	41	0	876609536	11	4005
2026-01-12 04:54:23.47	345.64	15.46	-25.2	-26.2	16.7	0.00e+00	0	41	0	882900992	11	4030
2026-01-12 04:54:24.48	345.44	15.51	-25.3	-26.2	16.7	0.00e+00	0	41	0	888143872	11	4033
2026-01-12 04:54:25.49	345.24	15.55	-25.2	-26.2	16.7	0.00e+00	0	41	0	893386752	11	4031
2026-01-12 04:54:26.49	345.04	15.59	-25.1	-25.8	16.9	0.00e+00	0	41	0	899678208	11	3934
2026-01-12 04:54:27.50	344.83	15.63	-25.0	-25.6	17.0	0.00e+00	0	41	0	904921088	11	3886
2026-01-12 04:54:28.50	344.63	15.67	-25.0	-25.7	16.9	0.00e+00	0	41	0	911212544	11	3905
2026-01-12 04:54:29.51	344.43	15.72	-25.0	-25.8	16.9	0.00e+00	0	42	0	916455424	11	3919
2026-01-12 04:54:30.51	344.23	15.76	-24.9	-25.4	17.1	0.00e+00	0	41	0	922746880	11	3841
2026-01-12 04:54:31.52	344.03	15.80	-24.8	-25.3	17.2	0.00e+00	0	41	0	927989760	11	3804
2026-01-12 04:54:32.53	343.82	15.84	-24.9	-25.5	17.1	0.00e+00	0	41	0	933232640	11	3862
2026-01-12 04:54:33.53	343.62	15.88	-24.8	-25.3	17.2	0.00e+00	0	41	0	939524096	11	3816
2026-01-12 04:54:34.54	343.41	15.92	-24.9	-25.4	17.1	0.00e+00	0	41	0	944766976	11	3841
2026-01-12 04:54:35.54	343.21	15.96	-24.9	-26.0	17.0	0.00e+00	0	41	0	950009856	10	4090
2026-01-12 04:54:36.54	343.01	16.00	-25.0	-26.3	16.9	0.00e+00	0	41	0	956301312	10	4153
2026-01-12 04:54:37.55	342.80	16.04	-24.9	-26.0	17.1	0.00e+00	0	41	0	961544192	10	4082
2026-01-12 04:54:38.56	342.59	16.08	-24.7	-25.6	17.3	0.00e+00	0	41	0	967835648	10	3994
2026-01-12 04:54:39.57	342.38	16.11	-24.6	-25.3	17.4	0.00e+00	0	41	0	973078528	10	3919
2026-01-12 04:54:40.57	342.18	16.15	-24.6	-25.3	17.4	0.00e+00	0	41	0	978321408	10	3914
2026-01-12 04:54:41.58	341.97	16.19	-24.6	-25.3	17.5	0.00e+00	0	41	0	984612864	10	3911
2026-01-12 04:54:42.59	341.76	16.23	-24.5	-25.1	17.5	0.00e+00	0	41	0	989855744	10	3859
2026-01-12 04:54:43.59	341.55	16.27	-24.4	-25.0	17.6	0.00e+00	0	41	0	996147200	10	3847
2026-01-12 04:54:44.60	341.34	16.30	-24.4	-24.9	17.6	0.00e+00	0	41	0	1001390080	10	3824
2026-01-12 04:54:45.61	341.12	16.34	-24.4	-24.9	17.7	0.00e+00	0	41	0	1007681536	10	3812
2026-01-12 04:54:46.61	340.91	16.38	-24.4	-25.0	17.6	0.00e+00	0	41	0	1012924416	10	3835
2026-01-12 04:54:47.62	340.70	16.41	-24.4	-25.0	17.6	0.00e+00	0	41	0	1018167296	10	3847
2026-01-12 04:54:48.63	340.49	16.45	-24.5	-25.2	17.5	0.00e+00	0	41	0	1024458752	10	3882
2026-01-12 04:54:49.63	340.28	16.48	-24.5	-25.2	17.5	0.00e+00	0	41	0	1029701632	10	3883
2026-01-12 04:54:50.64	340.06	16.52	-24.7	-25.7	17.2	0.00e+00	0	41	0	1034944512	10	4005
2026-01-12 04:54:51.64	339.85	16.55	-24.6	-25.3	17.4	0.00e+00	0	41	0	1041235968	10	3908
2026-01-12 04:54:52.65	339.64	16.59	-24.3	-24.7	17.7	0.00e+00	0	41	0	1046478848	10	3769
2026-01-12 04:54:53.65	339.42	16.62	-24.1	-24.8	17.9	0.00e+00	0	41	0	1052770304	9	3897
2026-01-12 04:54:54.65	339.21	16.65	-24.2	-24.9	17.9	0.00e+00	0	41	0	1058013184	9	3922
2026-01-12 04:54:55.65	338.99	16.68	-24.2	-25.0	17.8	0.00e+00	0	41	0	1063256064	9	3937
2026-01-12 04:54:56.66	338.78	16.72	-24.3	-25.3	17.7	0.00e+00	0	41	0	1069547520	9	4009
2026-01-12 04:54:57.67	338.56	16.75	-24.3	-25.3	17.7	0.00e+00	0	41	0	1074790400	9	4015
2026-01-12 04:54:58.67	338.34	16.78	-24.3	-25.2	17.8	0.00e+00	0	41	0	1081081856	9	3989
2026-01-12 04:54:59.67	338.13	16.81	-24.3	-25.2	17.7	0.00e+00	0	41	0	1086324736	9	4002
2026-01-12 04:55:00.67	337.91	16.84	-24.3	-25.1	17.8	0.00e+00	0	41	0	1091567616	9	3975
2026-01-12 04:55:01.68	337.69	16.87	-24.4	-25.3	17.7	0.00e+00	0	42	0	1097859072	9	4032
2026-01-12 04:55:02.69	337.47	16.91	-24.5	-25.5	17.6	0.00e+00	0	42	0	1103101952	9	4079
2026-01-12 04:55:03.69	337.25	16.94	-24.6	-25.9	17.4	0.00e+00	0	41	0	1108344832	9	4170
2026-01-12 04:55:04.70	337.03	16.96	-24.7	-26.1	17.3	0.00e+00	0	41	0	1114636288	9	4219
2026-01-12 04:55:05.71	336.81	16.99	-24.6	-25.9	17.4	0.00e+00	0	41	0	1119879168	9	4162
2026-01-12 04:55:06.72	336.59	17.02	-24.6	-25.9	17.4	0.00e+00	0	41	0	1126170624	9	4161
2026-01-12 04:55:07.72	336.37	17.05	-24.5	-25.6	17.5	0.00e+00	0	42	0	1131413504	9	4098
2026-01-12 04:55:08.73	336.15	17.08	-24.4	-25.4	17.6	0.00e+00	0	41	0	1136656384	9	4047
2026-01-12 04:55:09.73	335.93	17.11	-24.5	-25.7	17.5	0.00e+00	0	42	0	1142947840	9	4111
2026-01-12 04:55:10.74	335.70	17.13	-24.3	-25.3	17.7	0.00e+00	0	41	0	1148190720	9	4010
2026-01-12 04:55:11.74	335.48	17.16	-24.4	-25.3	17.7	0.00e+00	0	41	0	1154482176	9	4028
2026-01-12 04:55:12.75	335.26	17.19	-24.4	-25.4	17.6	0.00e+00	0	42	0	1159725056	9	4041
2026-01-12 04:55:13.76	335.03	17.21	-24.5	-25.6	17.5	0.00e+00	0	41	0	1166016512	9	4085
2026-01-12 04:55:14.77	334.81	17.24	-24.6	-25.8	17.4	0.00e+00	0	41	0	1171259392	9	4153
2026-01-12 04:55:15.77	334.59	17.26	-24.5	-25.7	17.5	0.00e+00	0	42	0	1176502272	9	4117
2026-01-12 04:55:16.77	334.36	17.29	-24.4	-25.5	17.6	0.00e+00	0	41	0	1182793728	9	4082
2026-01-12 04:55:17.78	334.14	17.31	-24.5	-25.7	17.4	0.00e+00	0	42	0	1188036608	9	4124
2026-01-12 04:55:18.78	333.91	17.34	-24.5	-25.6	17.6	0.00e+00	0	41	0	1193279488	9	4081
2026-01-12 04:55:19.79	333.69	17.36	-24.4	-25.4	17.7	0.00e+00	0	42	0	1199570944	9	4040
2026-01-12 04:55:20.80	333.46	17.38	-24.5	-25.7	17.5	0.00e+00	0	41	0	1204813824	9	4115
2026-01-12 04:55:21.80	333.23	17.40	-24.4	-25.3	17.7	0.00e+00	0	41	0	1211105280	9	4023
2026-01-12 04:55:22.81	333.00	17.43	-24.3	-25.3	17.7	0.00e+00	0	42	0	1216348160	9	4012
2026-01-12 04:55:23.82	332.78	17.45	-24.4	-25.4	17.7	0.00e+00	0	41	0	1221591040	9	4032
2026-01-12 04:55:24.83	332.55	17.47	-24.2	-25.1	17.8	0.00e+00	0	42	0	1227882496	9	3964
2026-01-12 04:55:25.83	332.32	17.49	-24.1	-24.8	18.0	0.00e+00	0	41	0	1233125376	9	3908
2026-01-12 04:55:26.84	332.09	17.51	-24.2	-24.9	17.9	0.00e+00	0	42	0	1239416832	9	3917
2026-01-12 04:55:27.85	331.86	17.53	-24.1	-24.9	17.9	0.00e+00	0	41	0	1244659712	9	3914
2026-01-12 04:55:28.85	331.64	17.55	-24.1	-24.9	17.9	0.00e+00	0	41	0	1250951168	9	3915
2026-01-12 04:55:29.86	331.41	17.57	-24.4	-25.5	17.5	0.00e+00	0	42	0	1256194048	9	4077
2026-01-12 04:55:30.86	331.18	17.59	-24.3	-25.3	17.7	0.00e+00	0	41	0	1261436928	9	4015
2026-01-12 04:55:31.87	330.95	17.60	-24.2	-25.1	17.8	0.00e+00	0	42	0	1267728384	9	3967
2026-01-12 04:55:32.88	330.72	17.62	-24.3	-25.2	17.7	0.00e+00	0	42	0	1272971264	9	3994
2026-01-12 04:55:33.89	330.49	17.64	-24.2	-25.1	17.8	0.00e+00	0	41	0	1278214144	9	3963
2026-01-12 04:55:34.90	330.25	17.66	-24.2	-25.0	17.8	0.00e+00	0	42	0	1284505600	9	3941
2026-01-12 04:55:35.91	330.02	17.67	-24.3	-25.1	17.8	0.00e+00	0	41	0	1289748480	9	3977
2026-01-12 04:55:36.92	329.79	17.69	-24.2	-25.0	17.8	0.00e+00	0	41	0	1296039936	9	3947
2026-01-12 04:55:37.92	329.56	17.70	-24.1	-24.8	17.9	0.00e+00	0	41	0	1301282816	9	3903
2026-01-12 04:55:38.93	329.33	17.72	-24.1	-24.8	17.9	0.00e+00	0	41	0	1306525696	9	3903
2026-01-12 04:55:39.94	329.10	17.73	-24.1	-24.8	17.9	0.00e+00	0	41	0	1312817152	9	3905
2026-01-12 04:55:40.94	328.86	17.75	-24.1	-24.9	17.9	0.00e+00	0	41	0	1318060032	9	3919
2026-01-12 04:55:41.95	328.63	17.76	-23.9	-24.4	18.1	0.00e+00	0	42	0	1324351488	9	3813
2026-01-12 04:55:42.96	328.40	17.77	-23.9	-24.2	18.2	0.00e+00	0	41	0	1329594368	9	3768
2026-01-12 04:55:43.97	328.16	17.78	-24.0	-24.6	18.1	0.00e+00	0	41	0	1335885824	9	3852
2026-01-12 04:55:44.97	327.93	17.80	-23.9	-24.4	18.1	0.00e+00	0	41	0	1341128704	9	3813
2026-01-12 04:55:45.98	327.70	17.81	-23.9	-24.4	18.2	0.00e+00	0	41	0	1346371584	9	3800
2026-01-12 04:55:46.98	327.47	17.82	-24.1	-24.7	18.0	0.00e+00	0	41	0	1352663040	9	3875
2026-01-12 04:55:47.98	327.24	17.83	-23.9	-24.4	18.2	0.00e+00	0	42	0	1357905920	9	3798
2026-01-12 04:55:49.00	327.00	17.84	-23.9	-24.3	18.2	0.00e+00	0	41	0	1363148800	9	3781
2026-01-12 04:55:50.00	326.77	17.85	-24.0	-24.5	18.1	0.00e+00	0	41	0	1369440256	9	3821
2026-01-12 04:55:51.01	326.53	17.86	-24.0	-24.5	18.1	0.00e+00	0	41	0	1374683136	9	3839
2026-01-12 04:55:52.01	326.30	17.86	-24.2	-24.9	17.9	0.00e+00	0	42	0	1380974592	9	3925
2026-01-12 04:55:53.02	326.07	17.87	-24.1	-24.8	18.0	0.00e+00	0	42	0	1386217472	9	3888
2026-01-12 04:55:54.02	325.83	17.88	-24.2	-24.9	17.9	0.00e+00	0	41	0	1391460352	9	3923
2026-01-12 04:55:55.03	325.60	17.89	-24.3	-25.1	17.8	0.00e+00	0	41	0	1397751808	9	3977
2026-01-12 04:55:56.03	325.36	17.89	-24.1	-24.7	18.0	0.00e+00	0	42	0	1402994688	9	3880
2026-01-12 04:55:57.04	325.13	17.90	-24.0	-24.6	18.0	0.00e+00	0	41	0	1409286144	9	3858
2026-01-12 04:55:58.04	324.90	17.91	-23.9	-24.4	18.1	0.00e+00	0	42	0	1414529024	9	3815
2026-01-12 04:55:59.05	324.66	17.91	-23.9	-24.4	18.2	0.00e+00	0	42	0	1419771904	9	3803
2026-01-12 04:56:00.05	324.43	17.91	-24.0	-24.7	18.0	0.00e+00	0	42	0	1426063360	9	3869
2026-01-12 04:56:01.05	324.19	17.92	-23.9	-24.4	18.2	0.00e+00	0	42	0	1431306240	9	3799
2026-01-12 04:56:02.06	323.96	17.92	-23.9	-24.3	18.2	0.00e+00	0	42	0	1437597696	9	3781
2026-01-12 04:56:03.07	323.72	17.93	-23.7	-24.5	18.4	0.00e+00	0	41	0	1442840576	8	3932
2026-01-12 04:56:04.07	323.49	17.93	-23.8	-24.6	18.3	0.00e+00	0	41	0	1448083456	8	3966
2026-01-12 04:56:05.08	323.25	17.93	-23.7	-24.5	18.4	0.00e+00	0	42	0	1454374912	8	3930
2026-01-12 04:56:06.09	323.02	17.93	-23.8	-24.6	18.3	0.00e+00	0	41	0	1459617792	8	3952
2026-01-12 04:56:07.10	322.78	17.93	-23.6	-24.2	18.5	0.00e+00	0	41	0	1465909248	8	3853
2026-01-12 04:56:08.11	322.55	17.93	-23.5	-24.0	18.6	0.00e+00	0	42	0	1471152128	8	3825
2026-01-12 04:56:09.12	322.31	17.93	-23.7	-24.4	18.4	0.00e+00	0	42	0	1476395008	8	3907
2026-01-12 04:56:10.12	322.08	17.93	-23.6	-24.3	18.5	0.00e+00	0	42	0	1482686464	8	3881
2026-01-12 04:56:11.13	321.84	17.93	-23.9	-24.8	18.2	0.00e+00	0	42	0	1487929344	8	4011
2026-01-12 04:56:12.14	321.60	17.93	-23.9	-24.8	18.2	0.00e+00	0	42	0	1494220800	8	3992
2026-01-12 04:56:13.15	321.37	17.93	-23.9	-24.9	18.1	0.00e+00	0	41	0	1499463680	8	4025
2026-01-12 04:56:14.16	321.13	17.93	-24.0	-25.0	18.1	0.00e+00	0	42	0	1505755136	8	4062
2026-01-12 04:56:15.17	320.90	17.92	-24.1	-25.2	18.0	0.00e+00	0	41	0	1510998016	8	4105
2026-01-12 04:56:16.17	320.66	17.92	-24.2	-25.5	17.8	0.00e+00	0	42	0	1516240896	8	4170
2026-01-12 04:56:17.18	320.43	17.92	-24.2	-25.5	17.8	0.00e+00	0	42	0	1522532352	8	4180
2026-01-12 04:56:18.19	320.19	17.91	-24.4	-25.9	17.6	0.00e+00	0	41	0	1527775232	8	4280
2026-01-12 04:56:19.19	319.96	17.91	-24.3	-25.6	17.8	0.00e+00	0	42	0	1533018112	8	4209
2026-01-12 04:56:20.20	319.72	17.90	-24.5	-26.1	17.5	0.00e+00	0	42	0	1539309568	8	4342
2026-01-12 04:56:21.21	319.49	17.89	-24.7	-26.0	17.3	0.00e+00	0	42	0	1544552448	9	4192
2026-01-12 04:56:22.21	319.25	17.89	-24.4	-25.4	17.6	0.00e+00	0	42	0	1550843904	9	4045
2026-01-12 04:56:23.22	319.02	17.88	-24.1	-24.9	17.9	0.00e+00	0	42	0	1556086784	9	3919
2026-01-12 04:56:24.23	318.78	17.87	-24.1	-24.8	17.9	0.00e+00	0	42	0	1561329664	9	3898
2026-01-12 04:56:25.23	318.55	17.87	-24.1	-24.8	17.9	0.00e+00	0	42	0	1567621120	9	3901
2026-01-12 04:56:26.24	318.32	17.86	-24.0	-24.6	18.0	0.00e+00	0	41	0	1572864000	9	3853
2026-01-12 04:56:27.24	318.08	17.85	-23.9	-24.4	18.1	0.00e+00	0	42	0	1579155456	9	3805
2026-01-12 04:56:28.25	317.85	17.84	-23.9	-24.3	18.2	0.00e+00	0	42	0	1584398336	9	3773
2026-01-12 04:56:29.25	317.62	17.83	-24.0	-24.7	18.0	0.00e+00	0	42	0	1590689792	9	3868
2026-01-12 04:56:30.26	317.38	17.82	-23.7	-24.4	18.4	0.00e+00	0	42	0	1595932672	8	3903
2026-01-12 04:56:31.26	317.15	17.81	-23.6	-24.3	18.4	0.00e+00	0	42	0	1601175552	8	3898
2026-01-12 04:56:32.27	316.92	17.80	-23.8	-24.7	18.2	0.00e+00	0	42	0	1607467008	8	3992
2026-01-12 04:56:33.28	316.68	17.79	-24.1	-25.2	18.0	0.00e+00	0	42	0	1612709888	8	4113
2026-01-12 04:56:34.29	316.45	17.77	-23.9	-24.8	18.2	0.00e+00	0	41	0	1617952768	8	4009
2026-01-12 04:56:35.30	316.21	17.76	-23.9	-24.9	18.2	0.00e+00	0	42	0	1624244224	8	4026
2026-01-12 04:56:36.31	315.98	17.75	-23.9	-24.9	18.2	0.00e+00	0	42	0	1629487104	8	4024
2026-01-12 04:56:37.31	315.75	17.73	-23.7	-24.4	18.4	0.00e+00	0	42	0	1635778560	8	3909
2026-01-12 04:56:38.32	315.52	17.72	-23.8	-24.5	18.3	0.00e+00	0	42	0	1641021440	8	3942
2026-01-12 04:56:39.33	315.29	17.70	-23.8	-24.7	18.2	0.00e+00	0	41	0	1646264320	8	3986
2026-01-12 04:56:40.34	315.05	17.69	-23.8	-24.6	18.3	0.00e+00	0	42	0	1652555776	8	3953
2026-01-12 04:56:41.35	314.82	17.67	-23.8	-24.6	18.3	0.00e+00	0	42	0	1657798656	8	3971
2026-01-12 04:56:42.36	314.59	17.66	-23.9	-24.8	18.2	0.00e+00	0	42	0	1664090112	8	4004
2026-01-12 04:56:43.37	314.36	17.64	-23.9	-24.9	18.1	0.00e+00	0	42	0	1669332992	8	4037
2026-01-12 04:56:44.37	314.13	17.62	-23.9	-24.9	18.1	0.00e+00	0	41	0	1675624448	8	4022
2026-01-12 04:56:45.38	313.90	17.61	-24.0	-25.1	18.0	0.00e+00	0	42	0	1680867328	8	4082
2026-01-12 04:56:46.38	313.67	17.59	-24.1	-25.3	17.9	0.00e+00	0	42	0	1686110208	8	4126
2026-01-12 04:56:47.39	313.44	17.57	-24.2	-25.4	17.8	0.00e+00	0	41	0	1692401664	8	4162
2026-01-12 04:56:48.39	313.21	17.55	-24.1	-25.3	17.9	0.00e+00	0	42	0	1697644544	8	4119
2026-01-12 04:56:49.40	312.98	17.53	-24.1	-25.3	17.9	0.00e+00	0	42	0	1703936000	8	4123
2026-01-12 04:56:50.41	312.75	17.51	-24.1	-25.3	17.9	0.00e+00	0	42	0	1709178880	8	4127
2026-01-12 04:56:51.42	312.52	17.49	-24.2	-25.5	17.8	0.00e+00	0	42	0	1714421760	8	4175
2026-01-12 04:56:52.43	312.29	17.47	-24.1	-25.3	17.9	0.00e+00	0	42	0	1720713216	8	4121
2026-01-12 04:56:53.44	312.06	17.45	-24.0	-25.0	18.1	0.00e+00	0	42	0	1725956096	8	4058
2026-01-12 04:56:54.45	311.83	17.43	-24.0	-25.0	18.1	0.00e+00	0	42	0	1731198976	8	4057
2026-01-12 04:56:55.45	311.61	17.41	-24.1	-25.3	17.9	0.00e+00	0	42	0	1737490432	8	4125
2026-01-12 04:56:56.46	311.38	17.38	-24.1	-25.3	17.9	0.00e+00	0	41	0	1742733312	8	4123
2026-01-12 04:56:57.47	311.15	17.36	-24.2	-25.4	17.8	0.00e+00	0	42	0	1749024768	8	4167
2026-01-12 04:56:58.48	310.93	17.34	-24.2	-25.4	17.8	0.00e+00	0	42	0	1754267648	8	4159
2026-01-12 04:56:59.49	310.70	17.31	-24.2	-25.5	17.8	0.00e+00	0	42	0	1760559104	8	4191
2026-01-12 04:57:00.49	310.47	17.29	-24.1	-25.4	17.8	0.00e+00	0	42	0	1765801984	8	4154
2026-01-12 04:57:01.49	310.25	17.27	-24.2	-25.4	17.8	0.00e+00	0	41	0	1771044864	8	4154
2026-01-12 04:57:02.50	310.03	17.24	-24.1	-25.4	17.8	0.00e+00	0	42	0	1777336320	8	4154
2026-01-12 04:57:03.51	309.80	17.21	-24.2	-25.5	17.8	0.00e+00	0	42	0	1782579200	8	4193
2026-01-12 04:57:04.51	309.58	17.19	-24.2	-25.5	17.8	0.00e+00	0	41	0	1788870656	8	4185
2026-01-12 04:57:05.52	309.35	17.16	-24.3	-25.7	17.7	0.00e+00	0	41	0	1794113536	8	4227
2026-01-12 04:57:06.53	309.13	17.14	-24.3	-25.7	17.6	0.00e+00	0	42	0	1799356416	8	4238
2026-01-12 04:57:07.53	308.91	17.11	-24.4	-25.9	17.6	0.00e+00	0	42	0	1805647872	8	4276
2026-01-12 04:57:08.54	308.68	17.08	-24.4	-25.5	17.5	1.10e-06	0	42	0	1810890752	9	4065
2026-01-12 04:57:09.54	308.46	17.05	-24.3	-25.1	17.7	0.00e+00	0	42	0	1816133632	9	3978
2026-01-12 04:57:10.55	308.24	17.02	-24.3	-25.3	17.6	0.00e+00	0	42	0	1822425088	9	4023
2026-01-12 04:57:11.56	308.02	17.00	-24.5	-25.6	17.4	0.00e+00	0	42	0	1827667968	9	4105
2026-01-12 04:57:12.57	307.80	16.97	-24.5	-25.7	17.4	0.00e+00	0	42	0	1833959424	9	4120
2026-01-12 04:57:13.57	307.58	16.94	-24.3	-25.2	17.6	0.00e+00	0	42	0	1839202304	9	4004
2026-01-12 04:57:14.58	307.36	16.91	-24.2	-25.0	17.8	0.00e+00	0	42	0	1845493760	9	3947
2026-01-12 04:57:15.59	307.14	16.88	-24.3	-25.2	17.7	0.00e+00	0	42	0	1850736640	9	3985
2026-01-12 04:57:16.58	306.92	16.85	-24.3	-25.2	17.7	0.00e+00	0	42	0	1855979520	9	3988
2026-01-12 04:57:17.59	306.70	16.81	-24.2	-24.9	17.8	0.00e+00	0	42	0	1862270976	9	3929
2026-01-12 04:57:18.60	306.48	16.78	-24.2	-25.0	17.7	0.00e+00	0	41	0	1867513856	9	3945
2026-01-12 04:57:19.61	306.26	16.75	-24.2	-25.0	17.8	0.00e+00	0	42	0	1873805312	9	3939
2026-01-12 04:57:20.60	306.05	16.72	-24.1	-24.9	17.8	0.00e+00	0	42	0	1879048192	9	3917
2026-01-12 04:57:21.61	305.83	16.69	-24.0	-24.7	17.9	0.00e+00	0	42	0	1884291072	9	3864
2026-01-12 04:57:22.62	305.62	16.65	-24.1	-24.7	17.9	0.00e+00	0	42	0	1890582528	9	3873
2026-01-12 04:57:23.63	305.40	16.62	-24.3	-25.1	17.7	0.00e+00	0	42	0	1895825408	9	3982
2026-01-12 04:57:24.63	305.19	16.59	-24.3	-25.3	17.6	0.00e+00	0	42	0	1901068288	9	4031
2026-01-12 04:57:25.64	304.97	16.55	-24.5	-25.6	17.4	0.00e+00	0	42	0	1907359744	9	4109
2026-01-12 04:57:26.63	304.76	16.52	-24.6	-25.9	17.3	0.00e+00	0	42	0	1912602624	9	4164
2026-01-12 04:57:27.64	304.54	16.48	-24.7	-26.2	17.1	0.00e+00	0	42	0	1918894080	9	4248
2026-01-12 04:57:28.64	304.33	16.45	-24.6	-25.9	17.3	0.00e+00	0	42	0	1924136960	9	4170
2026-01-12 04:57:29.65	304.12	16.41	-24.5	-25.7	17.3	0.00e+00	0	42	0	1930428416	9	4133
2026-01-12 04:57:30.65	303.91	16.38	-24.7	-26.1	17.1	0.00e+00	0	42	0	1935671296	9	4214
2026-01-12 04:57:31.66	303.69	16.34	-24.8	-26.2	17.0	0.00e+00	0	42	0	1940914176	9	4248
2026-01-12 04:57:32.66	303.48	16.30	-24.9	-26.5	16.9	0.00e+00	0	42	0	1947205632	9	4328
2026-01-12 04:57:33.67	303.27	16.27	-24.8	-26.3	17.0	0.00e+00	0	42	0	1952448512	9	4287
2026-01-12 04:57:34.68	303.06	16.23	-25.1	-26.6	16.6	0.00e+00	0	42	0	1957691392	10	4233
2026-01-12 04:57:35.69	302.85	16.19	-25.1	-25.9	16.7	0.00e+00	0	42	0	1963982848	11	3950
2026-01-12 04:57:36.69	302.64	16.15	-24.6	-25.4	17.3	0.00e+00	0	42	0	1969225728	10	3935
2026-01-12 04:57:37.70	302.43	16.12	-24.4	-24.8	17.5	0.00e+00	0	42	0	1975517184	10	3804
2026-01-12 04:57:38.71	302.23	16.08	-24.3	-24.8	17.5	0.00e+00	0	42	0	1980760064	10	3805
2026-01-12 04:57:39.71	302.02	16.04	-24.4	-25.0	17.5	0.00e+00	0	42	0	1986002944	10	3842
2026-01-12 04:57:40.72	301.81	16.00	-24.4	-25.0	17.5	0.00e+00	0	41	0	1992294400	10	3837
2026-01-12 04:57:41.72	301.61	15.96	-24.6	-25.4	17.3	0.00e+00	0	41	0	1997537280	10	3929
2026-01-12 04:57:42.73	301.40	15.92	-24.6	-25.4	17.3	0.00e+00	0	42	0	2003828736	10	3933
2026-01-12 04:57:43.74	301.19	15.88	-24.9	-26.0	16.9	0.00e+00	0	42	0	2009071616	10	4084
2026-01-12 04:57:44.74	300.99	15.84	-24.9	-25.9	16.9	0.00e+00	0	42	0	2014314496	10	4075
2026-01-12 04:57:45.75	300.78	15.80	-24.7	-25.7	17.1	0.00e+00	0	42	0	2020605952	10	4004
2026-01-12 04:57:46.75	300.58	15.76	-24.7	-25.6	17.1	0.00e+00	0	42	0	2025848832	10	3986
2026-01-12 04:57:47.76	300.38	15.72	-24.9	-26.0	16.9	0.00e+00	0	42	0	2032140288	10	4085
2026-01-12 04:57:48.77	300.17	15.67	-24.9	-26.1	16.9	0.00e+00	0	42	0	2037383168	10	4104
2026-01-12 04:57:49.78	299.97	15.63	-24.8	-25.9	17.0	0.00e+00	0	42	0	2042626048	10	4058
2026-01-12 04:57:50.78	299.77	15.59	-25.2	-26.6	16.6	0.00e+00	0	42	0	2048917504	10	4251
2026-01-12 04:57:51.79	299.57	15.55	-25.0	-26.3	16.8	0.00e+00	0	42	0	2054160384	10	4154
2026-01-12 04:57:52.80	299.37	15.50	-25.0	-26.1	16.8	0.00e+00	0	41	0	2060451840	10	4118
2026-01-12 04:57:53.81	299.17	15.46	-24.9	-26.0	16.9	0.00e+00	0	42	0	2065694720	10	4077
2026-01-12 04:57:54.82	298.97	15.42	-24.8	-25.8	17.0	0.00e+00	0	42	0	2070937600	10	4046
2026-01-12 04:57:55.82	298.77	15.37	-24.8	-25.8	17.0	0.00e+00	0	42	0	2077229056	10	4036
2026-01-12 04:57:56.83	298.57	15.33	-24.7	-25.5	17.2	0.00e+00	0	42	0	2082471936	10	3972
2026-01-12 04:57:57.83	298.38	15.29	-24.7	-25.7	17.1	0.00e+00	0	42	0	2088763392	10	4010
2026-01-12 04:57:58.84	298.18	15.24	-24.6	-25.5	17.2	0.00e+00	0	42	0	2094006272	10	3956
2026-01-12 04:57:59.85	297.98	15.20	-24.7	-25.5	17.2	0.00e+00	0	42	0	2100297728	10	3967
2026-01-12 04:58:00.85	297.79	15.15	-24.7	-25.6	17.1	0.00e+00	0	42	0	2105540608	10	3987
2026-01-12 04:58:01.85	297.59	15.11	-24.8	-25.8	17.0	0.00e+00	0	42	0	2110783488	10	4044
2026-01-12 04:58:02.86	297.40	15.06	-24.8	-25.8	17.0	0.00e+00	0	42	0	2117074944	10	4050
2026-01-12 04:58:03.86	297.21	15.02	-24.8	-25.7	17.0	0.00e+00	0	42	0	2122317824	10	4022
2026-01-12 04:58:04.87	297.01	14.97	-24.8	-25.9	16.9	0.00e+00	0	42	0	2127560704	10	4058
2026-01-12 04:58:05.88	296.82	14.92	-24.8	-25.9	16.9	0.00e+00	0	42	0	2133852160	10	4051
2026-01-12 04:58:06.88	296.63	14.88	-24.9	-25.9	16.9	0.00e+00	0	41	0	2139095040	10	4067
2026-01-12 04:58:07.89	296.44	14.83	-25.0	-26.2	16.7	0.00e+00	0	42	0	2144337920	10	4143
2026-01-12 04:58:08.89	296.25	14.79	-24.8	-25.8	17.0	0.00e+00	0	42	0	2150629376	10	4041
2026-01-12 04:58:09.90	296.05	14.74	-25.0	-26.3	16.7	0.00e+00	0	42	0	2155872256	10	4166
2026-01-12 04:58:10.91	295.86	14.69	-25.0	-26.3	16.7	0.00e+00	0	42	0	2162163712	10	4178
2026-01-12 04:58:11.91	295.68	14.64	-24.8	-25.9	16.9	0.00e+00	0	42	0	2167406592	10	4057
2026-01-12 04:58:12.92	295.49	14.60	-24.9	-25.9	16.9	0.00e+00	0	42	0	2173698048	10	4081
2026-01-12 04:58:13.93	295.30	14.55	-24.9	-26.0	16.8	0.00e+00	0	42	0	2178940928	10	4102
2026-01-12 04:58:14.94	295.11	14.50	-25.0	-26.3	16.7	0.00e+00	0	42	0	2184183808	10	4170
2026-01-12 04:58:15.94	294.93	14.45	-24.9	-26.0	16.8	0.00e+00	0	41	0	2190475264	10	4093
2026-01-12 04:58:16.94	294.74	14.40	-25.1	-26.3	16.7	0.00e+00	0	42	0	2195718144	10	4174
2026-01-12 04:58:17.95	294.55	14.35	-24.8	-25.8	16.9	0.00e+00	0	42	0	2202009600	10	4046
2026-01-12 04:58:18.95	294.37	14.30	-24.8	-25.7	17.0	0.00e+00	0	42	0	2207252480	10	4021
2026-01-12 04:58:19.96	294.19	14.26	-25.0	-26.2	16.7	0.00e+00	0	42	0	2212495360	10	4153
2026-01-12 04:58:20.96	294.00	14.21	-25.0	-26.2	16.8	0.00e+00	0	42	0	2218786816	10	4134
2026-01-12 04:58:21.96	293.82	14.16	-25.1	-26.4	16.6	0.00e+00	0	41	0	2224029696	10	4198
2026-01-12 04:58:22.97	293.64	14.11	-25.1	-26.5	16.5	0.00e+00	0	41	0	2230321152	10	4236
2026-01-12 04:58:23.98	293.46	14.06	-25.1	-26.5	16.5	0.00e+00	0	42	0	2235564032	10	4233
2026-01-12 04:58:24.99	293.28	14.01	-25.1	-26.4	16.6	0.00e+00	0	42	0	2240806912	10	4200
2026-01-12 04:58:25.99	293.10	13.96	-25.2	-26.6	16.5	0.00e+00	0	42	0	2247098368	10	4248
2026-01-12 04:58:27.00	292.92	13.91	-25.0	-26.3	16.6	0.00e+00	0	42	0	2252341248	10	4174
2026-01-12 04:58:28.01	292.74	13.86	-25.1	-26.4	16.6	0.00e+00	0	42	0	2258632704	10	4188
2026-01-12 04:58:29.01	292.56	13.80	-25.1	-26.4	16.6	0.00e+00	0	42	0	2263875584	10	4193
2026-01-12 04:58:30.02	292.38	13.75	-25.4	-27.1	16.2	0.00e+00	0	42	0	2269118464	10	4387
2026-01-12 04:58:31.03	292.20	13.70	-25.2	-26.8	16.4	0.00e+00	0	42	0	2275409920	10	4295
2026-01-12 04:58:32.03	292.03	13.65	-25.3	-26.8	16.3	0.00e+00	0	42	0	2280652800	10	4302
2026-01-12 04:58:33.04	291.85	13.60	-25.1	-26.4	16.5	0.00e+00	0	42	0	2285895680	10	4193
2026-01-12 04:58:34.04	291.68	13.55	-25.1	-26.5	16.5	0.00e+00	0	42	0	2292187136	10	4220
2026-01-12 04:58:35.05	291.50	13.50	-25.2	-26.8	16.4	0.00e+00	0	42	0	2297430016	10	4295
2026-01-12 04:58:36.06	291.32	13.44	-25.3	-26.8	16.3	0.00e+00	0	42	0	2303721472	10	4311
2026-01-12 04:58:37.07	291.15	13.39	-25.5	-27.3	16.1	0.00e+00	0	42	0	2308964352	10	4436
2026-01-12 04:58:38.08	290.98	13.34	-25.7	-27.3	15.7	0.00e+00	0	42	0	2314207232	11	4339
2026-01-12 04:58:39.09	290.80	13.29	-26.0	-27.4	15.4	0.00e+00	0	41	0	2320498688	12	4244
2026-01-12 04:58:40.09	290.63	13.23	-25.6	-26.5	15.9	0.00e+00	0	42	0	2325741568	12	4012
2026-01-12 04:58:41.09	290.46	13.18	-25.3	-26.0	16.1	0.00e+00	0	42	0	2332033024	12	3895
2026-01-12 04:58:42.10	290.29	13.13	-25.2	-26.1	16.4	0.00e+00	0	42	0	2337275904	11	4022
2026-01-12 04:58:43.11	290.12	13.08	-25.2	-26.2	16.4	0.00e+00	0	42	0	2343567360	11	4027
2026-01-12 04:58:44.12	289.95	13.02	-25.3	-26.4	16.2	0.00e+00	0	42	0	2348810240	11	4101
2026-01-12 04:58:45.12	289.78	12.97	-25.3	-26.4	16.2	0.00e+00	0	42	0	2354053120	11	4099
2026-01-12 04:58:46.14	289.61	12.92	-25.4	-26.6	16.1	0.00e+00	0	42	0	2360344576	11	4141
2026-01-12 04:58:47.14	289.45	12.86	-25.3	-26.5	16.2	0.00e+00	0	42	0	2365587456	11	4110
2026-01-12 04:58:48.15	289.28	12.81	-25.2	-26.2	16.3	0.00e+00	0	42	0	2370830336	11	4053
2026-01-12 04:58:49.15	289.11	12.76	-25.2	-26.2	16.3	0.00e+00	0	42	0	2377121792	11	4035
2026-01-12 04:58:50.15	288.95	12.70	-25.1	-26.0	16.4	0.00e+00	0	42	0	2382364672	11	3983
2026-01-12 04:58:51.16	288.78	12.65	-25.3	-26.3	16.2	0.00e+00	0	42	0	2388656128	11	4057
2026-01-12 04:58:52.17	288.62	12.59	-25.1	-26.0	16.5	0.00e+00	0	42	0	2393899008	11	3980
2026-01-12 04:58:53.17	288.46	12.54	-25.1	-26.0	16.4	0.00e+00	0	42	0	2400190464	11	3984
2026-01-12 04:58:54.18	288.29	12.49	-25.2	-26.2	16.3	0.00e+00	0	42	0	2405433344	11	4040
2026-01-12 04:58:55.18	288.13	12.43	-25.2	-26.3	16.3	0.00e+00	0	42	0	2410676224	11	4067
2026-01-12 04:58:56.19	287.97	12.38	-25.4	-26.7	16.0	0.00e+00	0	42	0	2416967680	11	4168
2026-01-12 04:58:57.19	287.81	12.32	-25.3	-26.5	16.1	0.00e+00	0	42	0	2422210560	11	4126
2026-01-12 04:58:58.21	287.65	12.27	-25.3	-26.4	16.2	0.00e+00	0	42	0	2428502016	11	4094
2026-01-12 04:58:59.21	287.49	12.21	-25.4	-26.7	16.0	0.00e+00	0	42	0	2433744896	11	4172
2026-01-12 04:59:00.22	287.33	12.16	-25.2	-26.1	16.4	0.00e+00	0	42	0	2438987776	11	4018
2026-01-12 04:59:01.23	287.17	12.10	-25.3	-26.4	16.2	0.00e+00	0	42	0	2445279232	11	4080
2026-01-12 04:59:02.24	287.01	12.05	-25.2	-26.3	16.2	0.00e+00	0	42	0	2450522112	11	4059
2026-01-12 04:59:03.24	286.85	11.99	-25.2	-26.3	16.2	0.00e+00	0	42	0	2455764992	11	4063
2026-01-12 04:59:04.25	286.69	11.94	-25.5	-26.8	16.0	0.00e+00	0	42	0	2462056448	11	4189
2026-01-12 04:59:05.26	286.54	11.88	-25.5	-27.0	15.8	0.00e+00	0	42	0	2467299328	11	4249
2026-01-12 04:59:06.27	286.38	11.83	-25.6	-27.1	15.8	0.00e+00	0	42	0	2473590784	11	4276
2026-01-12 04:59:07.28	286.22	11.77	-25.6	-27.0	15.8	0.00e+00	0	42	0	2478833664	11	4264
2026-01-12 04:59:08.28	286.07	11.71	-25.6	-27.0	15.8	0.00e+00	0	42	0	2485125120	11	4243
2026-01-12 04:59:09.29	285.92	11.66	-25.7	-27.3	15.7	0.00e+00	0	42	0	2490368000	11	4325
2026-01-12 04:59:10.29	285.76	11.60	-25.7	-27.2	15.7	0.00e+00	0	42	0	2495610880	11	4309
2026-01-12 04:59:11.29	285.61	11.55	-25.6	-27.2	15.7	0.00e+00	0	42	0	2501902336	11	4293
2026-01-12 04:59:12.30	285.46	11.49	-25.8	-27.5	15.5	0.00e+00	0	42	0	2507145216	11	4379
2026-01-12 04:59:13.31	285.31	11.44	-25.9	-27.3	15.3	0.00e+00	0	42	0	2513436672	12	4218
2026-01-12 04:59:14.32	285.15	11.38	-25.9	-27.2	15.3	0.00e+00	0	42	0	2518679552	12	4214
2026-01-12 04:59:15.33	285.00	11.32	-25.9	-27.2	15.3	0.00e+00	0	42	0	2523922432	12	4204
2026-01-12 04:59:16.33	284.85	11.27	-25.8	-27.1	15.4	0.00e+00	0	42	0	2530213888	12	4181
2026-01-12 04:59:17.34	284.70	11.21	-25.7	-26.9	15.5	0.00e+00	0	42	0	2535456768	12	4118
2026-01-12 04:59:18.35	284.55	11.15	-25.7	-26.9	15.4	0.00e+00	0	42	0	2540699648	12	4134
2026-01-12 04:59:19.36	284.40	11.10	-25.7	-26.9	15.5	0.00e+00	0	42	0	2546991104	12	4130
2026-01-12 04:59:20.36	284.26	11.04	-25.8	-27.1	15.4	0.00e+00	0	42	0	2552233984	12	4164
2026-01-12 04:59:21.37	284.11	10.99	-25.8	-27.0	15.4	0.00e+00	0	42	0	2558525440	12	4147
2026-01-12 04:59:22.38	283.96	10.93	-25.9	-27.2	15.3	0.00e+00	0	42	0	2563768320	12	4207
2026-01-12 04:59:23.39	283.82	10.87	-25.9	-27.2	15.3	0.00e+00	0	42	0	2570059776	12	4204
2026-01-12 04:59:24.39	283.67	10.82	-25.9	-27.2	15.3	0.00e+00	0	42	0	2575302656	12	4214
2026-01-12 04:59:25.39	283.53	10.76	-25.8	-27.1	15.4	0.00e+00	0	42	0	2580545536	12	4163
2026-01-12 04:59:26.39	283.38	10.70	-25.9	-27.2	15.3	0.00e+00	0	42	0	2586836992	12	4214
2026-01-12 04:59:27.39	283.24	10.65	-25.8	-27.1	15.3	0.00e+00	0	42	0	2592079872	12	4166
2026-01-12 04:59:28.40	283.10	10.59	-25.8	-27.0	15.4	0.00e+00	0	42	0	2598371328	12	4142
2026-01-12 04:59:29.41	282.96	10.53	-25.7	-26.8	15.5	1.10e-06	0	42	0	2603614208	12	4103
2026-01-12 04:59:30.42	282.81	10.48	-25.7	-26.8	15.4	0.00e+00	0	42	0	2608857088	12	4106
2026-01-12 04:59:31.42	282.67	10.42	-25.8	-27.0	15.3	0.00e+00	0	42	0	2615148544	12	4153
2026-01-12 04:59:32.43	282.53	10.36	-25.9	-27.2	15.2	0.00e+00	0	42	0	2620391424	12	4204
2026-01-12 04:59:33.44	282.39	10.30	-25.9	-27.4	15.2	0.00e+00	0	42	0	2625634304	12	4248
2026-01-12 04:59:34.44	282.25	10.25	-25.9	-27.4	15.1	0.00e+00	0	42	0	2631925760	12	4258
2026-01-12 04:59:35.45	282.11	10.19	-26.0	-27.5	15.0	1.10e-06	0	42	0	2637168640	12	4288
2026-01-12 04:59:36.46	281.97	10.13	-26.1	-27.7	14.9	0.00e+00	0	42	0	2643460096	12	4336
2026-01-12 04:59:37.46	281.83	10.08	-26.3	-28.2	14.6	0.00e+00	0	42	0	2648702976	12	4492
2026-01-12 04:59:38.47	281.70	10.02	-26.4	-28.4	14.6	0.00e+00	0	42	0	2654994432	12	4534
2026-01-12 04:59:39.47	281.56	9.96	-26.2	-28.1	14.7	0.00e+00	0	42	0	2660237312	12	4441
2026-01-12 04:59:40.48	281.42	9.91	-26.2	-28.1	14.7	0.00e+00	0	42	0	2665480192	12	4447
2026-01-12 04:59:41.49	281.29	9.85	-26.4	-28.3	14.6	0.00e+00	0	42	0	2671771648	12	4518
2026-01-12 04:59:42.49	281.15	9.79	-26.4	-28.5	14.5	1.10e-06	0	42	0	2677014528	12	4560
2026-01-12 04:59:43.49	281.02	9.73	-26.6	-28.4	14.2	0.00e+00	0	42	0	2682257408	13	4430
2026-01-12 04:59:44.50	280.88	9.68	-26.7	-28.6	14.1	3.40e-06	0	42	0	2688548864	13	4485
2026-01-12 04:59:45.51	280.75	9.62	-26.4	-28.0	14.4	2.20e-06	0	42	0	2693791744	13	4312
2026-01-12 04:59:46.52	280.62	9.56	-26.2	-27.4	14.8	0.00e+00	0	42	0	2700083200	13	4151
2026-01-12 04:59:47.52	280.48	9.51	-26.2	-27.4	14.8	1.10e-06	0	42	0	2705326080	13	4137
2026-01-12 04:59:48.53	280.35	9.45	-26.2	-27.6	14.7	0.00e+00	0	42	0	2710568960	13	4199
2026-01-12 04:59:49.53	280.22	9.39	-26.2	-27.4	14.8	0.00e+00	0	42	0	2716860416	13	4150
2026-01-12 04:59:50.54	280.09	9.33	-25.9	-26.9	15.1	0.00e+00	0	42	0	2722103296	13	4019
2026-01-12 04:59:51.55	279.96	9.28	-26.0	-27.0	15.0	0.00e+00	0	42	0	2728394752	13	4054
2026-01-12 04:59:52.55	279.83	9.22	-26.2	-27.4	14.7	0.00e+00	0	42	0	2733637632	13	4162
2026-01-12 04:59:53.56	279.70	9.16	-26.1	-27.3	14.8	0.00e+00	0	42	0	2739929088	13	4128
2026-01-12 04:59:54.57	279.57	9.10	-26.2	-27.4	14.8	0.00e+00	0	42	0	2745171968	13	4160
2026-01-12 04:59:55.58	279.44	9.05	-26.1	-27.3	14.8	0.00e+00	0	42	0	2750414848	13	4142
2026-01-12 04:59:56.58	279.31	8.99	-26.1	-27.2	14.9	0.00e+00	0	42	0	2756706304	13	4101
2026-01-12 04:59:57.59	279.18	8.93	-26.1	-27.2	14.8	0.00e+00	0	42	0	2761949184	13	4103
2026-01-12 04:59:58.60	279.06	8.87	-26.2	-27.6	14.6	0.00e+00	0	42	0	2768240640	13	4205
2026-01-12 04:59:59.61	278.93	8.82	-26.3	-27.6	14.6	1.10e-06	0	42	0	2773483520	13	4215
2026-01-12 05:00:00.62	278.80	8.76	-26.0	-27.1	14.9	0.00e+00	0	42	0	2778726400	13	4080
2026-01-12 05:00:01.62	278.68	8.70	-26.0	-27.1	14.9	2.20e-06	0	42	0	2785017856	13	4074
2026-01-12 05:00:02.62	278.55	8.64	-26.2	-27.5	14.7	0.00e+00	0	42	0	2790260736	13	4165
2026-01-12 05:00:03.63	278.43	8.59	-26.4	-28.0	14.4	0.00e+00	0	42	0	2795503616	13	4331
2026-01-12 05:00:04.64	278.30	8.53	-26.3	-27.8	14.5	0.00e+00	0	42	0	2801795072	13	4262
2026-01-12 05:00:05.64	278.18	8.47	-26.4	-27.9	14.4	0.00e+00	0	42	0	2807037952	13	4308
2026-01-12 05:00:06.65	278.06	8.41	-26.4	-28.0	14.4	0.00e+00	0	42	0	2813329408	13	4327
2026-01-12 05:00:07.65	277.94	8.36	-26.1	-27.4	14.8	0.00e+00	0	42	0	2818572288	13	4146
2026-01-12 05:00:08.66	277.81	8.30	-26.5	-28.1	14.3	0.00e+00	0	42	0	2824863744	13	4341
2026-01-12 05:00:09.67	277.69	8.24	-26.4	-28.0	14.4	0.00e+00	0	42	0	2830106624	13	4329
2026-01-12 05:00:10.68	277.57	8.18	-26.5	-28.1	14.3	1.10e-06	0	42	0	2835349504	13	4345
2026-01-12 05:00:11.68	277.45	8.13	-26.5	-28.2	14.2	3.40e-06	0	42	0	2841640960	13	4379
2026-01-12 05:00:12.69	277.33	8.07	-26.7	-28.6	14.0	3.40e-06	0	42	0	2846883840	13	4487
2026-01-12 05:00:13.70	277.21	8.01	-26.6	-28.5	14.0	0.00e+00	0	42	0	2853175296	13	4459
2026-01-12 05:00:14.71	277.09	7.95	-27.0	-29.3	13.6	3.40e-06	0	42	0	2858418176	13	4700
2026-01-12 05:00:15.72	276.97	7.90	-26.9	-28.7	13.7	4.50e-06	0	42	0	2863661056	14	4395
2026-01-12 05:00:16.73	276.85	7.84	-26.8	-28.4	13.8	0.00e+00	0	42	0	2869952512	14	4319
2026-01-12 05:00:17.73	276.74	7.78	-26.7	-28.1	14.0	3.40e-06	0	42	0	2875195392	14	4245
2026-01-12 05:00:18.74	276.62	7.73	-26.6	-28.0	14.1	2.20e-06	0	42	0	2880438272	14	4203
2026-01-12 05:00:19.74	276.50	7.67	-26.8	-28.3	13.9	1.10e-06	0	42	0	2886729728	14	4308
2026-01-12 05:00:20.75	276.39	7.61	-26.7	-28.3	13.9	0.00e+00	0	42	0	2891972608	14	4285
2026-01-12 05:00:21.76	276.27	7.55	-26.8	-28.4	13.8	3.40e-06	0	42	0	2898264064	14	4337
2026-01-12 05:00:22.76	276.15	7.50	-26.8	-28.5	13.8	1.10e-06	0	42	0	2903506944	14	4348
2026-01-12 05:00:23.77	276.04	7.44	-26.8	-28.4	13.8	1.10e-06	0	42	0	2909798400	14	4337
2026-01-12 05:00:24.78	275.92	7.38	-26.9	-28.7	13.6	6.80e-06	0	42	0	2915041280	14	4413
2026-01-12 05:00:25.79	275.81	7.32	-26.9	-28.6	13.7	3.40e-06	0	42	0	2920284160	14	4391
2026-01-12 05:00:26.79	275.70	7.27	-26.7	-28.1	14.0	2.20e-06	0	42	0	2926575616	14	4232
2026-01-12 05:00:27.79	275.58	7.21	-26.7	-28.2	13.9	3.40e-06	0	42	0	2931818496	14	4267
2026-01-12 05:00:28.80	275.47	7.15	-26.8	-28.4	13.8	3.40e-06	0	42	0	2938109952	14	4338
2026-01-12 05:00:29.81	275.36	7.10	-26.7	-28.0	14.0	1.10e-06	0	42	0	2943352832	14	4224
2026-01-12 05:00:30.81	275.25	7.04	-32.4	-42.3	3.8	8.46e-01	0	42	104	2946498560	25	11161
2026-01-12 05:00:31.82	275.14	6.98	-32.9	-44.3	3.8	8.47e-01	0	42	104	2946498560	25	13494
2026-01-12 05:00:32.82	275.03	6.93	-33.2	-44.5	3.8	8.46e-01	0	42	104	2946498560	26	13214

#Closed at: 2026-01-12 05:00:33
#Recorded file [2946 MB]: D:/data/31010_260112_075146.dat