passes_logs/2026/01/12/R2M6_AANII_01/R2M6_AANII_01__20260112_095421_NOAA_21_JPSS-2_rec.log

#Pass ID: 20260112_095421_NOAA 21 (JPSS-2)
#Satellite: NOAA 21 (JPSS-2)
#Configuration: NOAA 21
#almurnet v.1.7.20240730
#Start time: 2026-01-12 09:54:52

#Version: 2.2.20231116
#Station: R2M6_AANII_01
#Location: 30.233357 lon 59.946436 lat
#TLE: 1 54234U 22150A   26011.27699114  .00000090  00000+0  63771-4 0  9993
#TLE: 2 54234  98.7494 312.2218 0000765 314.9553  45.1561 14.19534106164285

#Time	Az	El	Level	Level2	SNR	BER	BlckErr	Temp	State	Recorded	gain1	gain2
2026-01-12 09:54:52.97	146.79	9.51	-33.4	-44.8	3.8	8.46e-01	0	42	0	0	26	13434
2026-01-12 09:54:53.96	146.77	9.59	-34.0	-45.3	3.8	1.49e+00	0	42	104	0	29	13229
2026-01-12 09:54:54.96	146.75	9.68	-34.0	-45.4	3.8	1.49e+00	0	42	104	0	29	13313
2026-01-12 09:54:55.97	146.72	9.76	-34.1	-45.5	3.8	1.49e+00	0	42	104	0	29	13374
2026-01-12 09:54:56.98	146.70	9.85	-34.1	-45.4	3.8	1.49e+00	0	42	104	0	29	13348
2026-01-12 09:54:57.97	146.68	9.93	-34.1	-45.5	3.8	1.49e+00	0	42	104	0	29	13399
2026-01-12 09:54:58.97	146.66	10.02	-34.1	-45.5	3.8	1.49e+00	0	42	104	0	29	13440
2026-01-12 09:54:59.97	146.64	10.11	-34.1	-45.6	3.8	1.49e+00	0	42	104	0	29	13447
2026-01-12 09:55:00.98	146.61	10.20	-34.1	-45.5	3.8	1.49e+00	0	42	104	0	29	13405
2026-01-12 09:55:01.99	146.59	10.28	-34.1	-45.5	3.8	1.49e+00	0	42	104	0	29	13447
2026-01-12 09:55:03.00	146.57	10.37	-34.1	-45.5	3.8	1.49e+00	0	42	104	0	29	13428
2026-01-12 09:55:04.00	146.54	10.46	-34.1	-45.5	3.8	1.49e+00	0	42	104	0	29	13455
2026-01-12 09:55:05.01	146.52	10.55	-34.1	-45.5	3.8	1.49e+00	0	42	104	0	29	13433
2026-01-12 09:55:06.02	146.49	10.64	-34.1	-45.5	3.8	1.49e+00	0	42	104	0	29	13396
2026-01-12 09:55:07.03	146.47	10.73	-34.1	-45.5	3.8	1.49e+00	0	42	104	0	29	13384
2026-01-12 09:55:08.04	146.45	10.82	-34.1	-45.5	3.8	1.49e+00	0	42	104	0	29	13379
2026-01-12 09:55:09.04	146.42	10.91	-34.1	-45.5	3.8	1.49e+00	0	42	104	0	29	13384
2026-01-12 09:55:10.05	146.40	11.00	-34.1	-45.4	3.8	1.49e+00	0	42	104	0	29	13369
2026-01-12 09:55:11.05	146.37	11.09	-34.1	-45.5	3.8	1.49e+00	0	42	104	0	29	13405
2026-01-12 09:55:12.06	146.35	11.18	-34.1	-45.5	3.8	1.49e+00	0	42	104	0	29	13401
2026-01-12 09:55:13.07	146.32	11.27	-34.1	-45.5	3.8	1.49e+00	0	42	104	0	29	13418
2026-01-12 09:55:14.08	146.30	11.37	-34.2	-45.6	3.8	1.49e+00	0	42	104	0	29	13518
2026-01-12 09:55:15.08	146.27	11.46	-34.2	-45.7	3.8	1.49e+00	0	42	104	0	29	13583
2026-01-12 09:55:16.09	146.25	11.55	-34.2	-45.8	3.8	1.49e+00	0	42	104	0	29	13644
2026-01-12 09:55:17.09	146.22	11.64	-34.2	-45.8	3.8	1.49e+00	0	42	104	0	29	13608
2026-01-12 09:55:18.10	146.20	11.74	-34.2	-45.8	3.8	1.49e+00	0	42	104	0	29	13674
2026-01-12 09:55:19.10	146.17	11.83	-34.2	-45.8	3.8	1.49e+00	0	42	104	0	29	13622
2026-01-12 09:55:20.11	146.14	11.92	-34.1	-45.6	3.8	1.49e+00	0	42	104	0	29	13520
2026-01-12 09:55:21.12	146.12	12.02	-34.0	-45.4	3.8	1.49e+00	0	42	104	0	29	13369
2026-01-12 09:55:22.12	146.09	12.11	-34.0	-45.3	3.8	1.49e+00	0	42	104	0	29	13253
2026-01-12 09:55:23.13	146.06	12.21	-33.9	-45.3	3.8	1.49e+00	0	42	104	0	29	13250
2026-01-12 09:55:24.14	146.04	12.30	-33.9	-45.2	3.8	1.49e+00	0	42	104	0	29	13170
2026-01-12 09:55:25.14	146.01	12.40	-33.9	-45.1	3.8	1.49e+00	0	42	104	0	29	13100
2026-01-12 09:55:26.15	145.98	12.50	-33.8	-45.0	3.8	1.49e+00	0	42	104	0	29	13018
2026-01-12 09:55:27.16	145.96	12.59	-33.7	-45.2	3.8	1.49e+00	0	42	104	0	28	13623
2026-01-12 09:55:28.16	145.93	12.69	-33.4	-44.8	3.8	1.49e+00	0	42	104	0	28	13316
2026-01-12 09:55:29.16	145.90	12.79	-33.3	-44.7	3.8	1.49e+00	0	42	104	0	27	13461
2026-01-12 09:55:30.17	145.87	12.88	-32.7	-41.8	3.9	1.49e+00	0	42	104	0	26	10198
2026-01-12 09:55:31.18	145.84	12.98	-32.6	-40.4	4.4	1.45e+00	0	42	104	0	26	8846
2026-01-12 09:55:32.18	145.82	13.08	-32.4	-39.8	4.0	1.47e+00	0	42	104	0	26	8425
2026-01-12 09:55:33.19	145.79	13.18	-32.1	-38.0	5.6	5.18e-01	0	42	104	0	25	7123
2026-01-12 09:55:34.19	145.76	13.28	-31.7	-36.8	6.7	2.35e-01	0	42	0	2097152	24	6457
2026-01-12 09:55:35.19	145.73	13.38	-31.2	-35.5	7.9	8.57e-02	0	41	0	5242880	23	5871
2026-01-12 09:55:36.20	145.70	13.48	-30.8	-34.0	9.0	3.69e-02	0	42	0	8388608	23	5203
2026-01-12 09:55:37.20	145.67	13.58	-30.3	-32.9	10.1	1.06e-02	0	42	0	11534336	22	4867
2026-01-12 09:55:38.20	145.64	13.68	-29.8	-32.1	11.0	2.59e-03	0	41	0	14680064	21	4672
2026-01-12 09:55:39.20	145.61	13.78	-29.3	-31.3	11.8	6.61e-04	0	42	0	17825792	20	4529
2026-01-12 09:55:40.21	145.58	13.88	-29.1	-31.3	12.2	2.35e-04	0	41	0	20971520	19	4603
2026-01-12 09:55:41.21	145.55	13.98	-28.8	-30.5	12.7	9.76e-05	0	42	0	24117248	19	4358
2026-01-12 09:55:42.22	145.52	14.09	-28.7	-30.7	12.9	5.56e-05	0	41	0	27262976	18	4512
2026-01-12 09:55:43.22	145.49	14.19	-28.8	-30.8	12.9	5.34e-05	0	42	0	30408704	18	4552
2026-01-12 09:55:44.23	145.46	14.29	-28.9	-31.0	12.7	6.33e-05	0	41	0	33554432	18	4629
2026-01-12 09:55:45.24	145.43	14.40	-29.1	-31.6	12.4	1.21e-04	0	41	0	36700160	18	4798
2026-01-12 09:55:46.24	145.39	14.50	-29.3	-32.2	12.0	2.98e-04	0	41	0	39845888	18	5035
2026-01-12 09:55:47.24	145.36	14.60	-29.6	-32.5	11.5	6.62e-04	0	41	0	42991616	19	5012
2026-01-12 09:55:48.24	145.33	14.71	-29.5	-32.3	11.6	9.44e-04	0	41	0	46137344	19	4950
2026-01-12 09:55:49.25	145.30	14.81	-29.3	-31.6	12.1	2.92e-04	0	42	0	49283072	19	4710
2026-01-12 09:55:50.24	145.27	14.92	-29.6	-32.4	11.6	8.85e-04	0	42	0	52428800	19	4976
2026-01-12 09:55:51.25	145.23	15.02	-29.2	-31.4	12.2	2.49e-04	0	42	0	55574528	19	4622
2026-01-12 09:55:52.25	145.20	15.13	-29.0	-30.9	12.5	1.04e-04	0	42	0	58720256	19	4466
2026-01-12 09:55:53.25	145.17	15.24	-28.8	-30.5	12.8	5.72e-05	0	41	0	61865984	19	4347
2026-01-12 09:55:54.26	145.13	15.35	-28.7	-30.7	13.0	4.04e-05	0	41	0	63963136	18	4501
2026-01-12 09:55:55.26	145.10	15.45	-28.8	-30.8	12.9	6.25e-05	0	41	0	67108864	18	4553
2026-01-12 09:55:56.26	145.07	15.56	-28.9	-31.0	12.8	4.34e-05	0	41	0	70254592	18	4610
2026-01-12 09:55:57.27	145.03	15.67	-29.1	-31.5	12.5	1.44e-04	0	41	0	74448896	18	4781
2026-01-12 09:55:58.28	145.00	15.78	-28.7	-30.6	13.1	4.11e-05	0	41	0	77594624	18	4485
2026-01-12 09:55:59.29	144.96	15.89	-28.3	-29.6	13.7	1.83e-05	0	42	0	80740352	18	4174
2026-01-12 09:56:00.30	144.93	16.00	-28.0	-29.4	14.1	7.00e-07	0	41	0	83886080	17	4216
2026-01-12 09:56:01.29	144.89	16.11	-27.8	-28.9	14.4	7.00e-07	0	41	0	87031808	17	4095
2026-01-12 09:56:02.30	144.85	16.22	-27.7	-29.2	14.6	1.50e-06	0	41	0	89128960	16	4265
2026-01-12 09:56:03.30	144.82	16.34	-27.8	-29.5	14.4	3.80e-06	0	41	0	92274688	16	4346
2026-01-12 09:56:04.31	144.78	16.45	-27.8	-29.5	14.3	3.00e-06	0	41	0	95420416	16	4368
2026-01-12 09:56:05.31	144.75	16.56	-27.8	-29.4	14.4	7.00e-07	0	41	0	98566144	16	4335
2026-01-12 09:56:06.32	144.71	16.68	-27.9	-29.5	14.3	1.50e-06	0	41	0	102760448	16	4371
2026-01-12 09:56:07.33	144.67	16.79	-27.8	-29.5	14.4	7.00e-07	0	41	0	105906176	16	4361
2026-01-12 09:56:08.33	144.63	16.90	-27.9	-29.6	14.3	0.00e+00	0	41	0	109051904	16	4401
2026-01-12 09:56:09.33	144.60	17.02	-28.0	-29.9	14.1	1.50e-06	0	41	0	111149056	16	4485
2026-01-12 09:56:10.34	144.56	17.13	-27.9	-29.6	14.4	0.00e+00	0	41	0	114294784	16	4388
2026-01-12 09:56:11.34	144.52	17.25	-27.8	-29.5	14.4	0.00e+00	0	41	0	117440512	16	4344
2026-01-12 09:56:12.35	144.48	17.37	-27.9	-29.6	14.4	0.00e+00	0	41	0	120586240	16	4376
2026-01-12 09:56:13.35	144.44	17.48	-27.9	-29.6	14.4	0.00e+00	0	41	0	123731968	16	4392
2026-01-12 09:56:14.36	144.40	17.60	-27.9	-29.7	14.4	7.00e-07	0	41	0	126877696	16	4411
2026-01-12 09:56:15.37	144.36	17.72	-27.9	-29.7	14.4	2.20e-06	0	41	0	130023424	16	4407
2026-01-12 09:56:16.36	144.32	17.84	-28.0	-29.9	14.2	7.00e-07	0	41	0	133169152	16	4479
2026-01-12 09:56:17.37	144.28	17.96	-28.1	-30.0	14.2	3.00e-06	0	41	0	136314880	16	4506
2026-01-12 09:56:18.37	144.24	18.08	-27.9	-29.5	14.5	1.50e-06	0	41	0	139460608	16	4364
2026-01-12 09:56:19.37	144.20	18.20	-27.7	-29.2	14.7	0.00e+00	0	41	0	142606336	16	4277
2026-01-12 09:56:20.38	144.16	18.32	-27.7	-29.1	14.8	0.00e+00	0	41	0	145752064	16	4244
2026-01-12 09:56:21.37	144.12	18.44	-27.7	-29.1	14.8	7.00e-07	0	41	0	148897792	16	4238
2026-01-12 09:56:22.38	144.07	18.56	-27.6	-29.0	14.9	0.00e+00	0	41	0	152043520	16	4212
2026-01-12 09:56:23.39	144.03	18.69	-27.6	-28.8	14.9	0.00e+00	0	41	0	155189248	16	4160
2026-01-12 09:56:24.38	143.99	18.81	-27.6	-28.9	14.9	7.00e-07	0	41	0	158334976	16	4193
2026-01-12 09:56:25.38	143.95	18.93	-27.7	-29.0	14.9	7.00e-07	0	41	0	161480704	16	4222
2026-01-12 09:56:26.38	143.90	19.06	-27.5	-28.8	15.0	0.00e+00	0	41	0	164626432	16	4143
2026-01-12 09:56:27.38	143.86	19.18	-27.5	-28.7	15.1	0.00e+00	0	42	0	167772160	16	4127
2026-01-12 09:56:28.38	143.81	19.31	-27.5	-28.8	15.0	0.00e+00	0	41	0	170917888	16	4142
2026-01-12 09:56:29.39	143.77	19.43	-27.5	-28.7	15.1	0.00e+00	0	41	0	174063616	16	4126
2026-01-12 09:56:30.39	143.72	19.56	-27.6	-28.9	15.0	0.00e+00	0	42	0	177209344	16	4167
2026-01-12 09:56:31.39	143.68	19.69	-27.6	-28.8	15.1	0.00e+00	0	42	0	180355072	16	4146
2026-01-12 09:56:32.40	143.63	19.82	-27.4	-28.5	15.3	0.00e+00	0	42	0	183500800	16	4055
2026-01-12 09:56:33.39	143.59	19.94	-27.4	-28.3	15.4	0.00e+00	0	42	0	186646528	16	4014
2026-01-12 09:56:34.39	143.54	20.07	-27.3	-28.2	15.4	0.00e+00	0	42	0	189792256	16	3980
2026-01-12 09:56:35.40	143.49	20.20	-27.3	-28.3	15.4	7.00e-07	0	42	0	192937984	16	3999
2026-01-12 09:56:36.41	143.44	20.34	-27.1	-28.3	15.5	0.00e+00	0	42	0	196083712	15	4133
2026-01-12 09:56:37.41	143.40	20.47	-27.0	-28.1	15.6	0.00e+00	0	42	0	199229440	15	4077
2026-01-12 09:56:38.40	143.35	20.60	-27.1	-28.2	15.6	0.00e+00	0	42	0	202375168	15	4091
2026-01-12 09:56:39.41	143.30	20.73	-27.0	-28.1	15.6	0.00e+00	0	42	0	205520896	15	4072
2026-01-12 09:56:40.42	143.25	20.86	-26.9	-27.8	15.8	0.00e+00	0	42	0	208666624	15	3979
2026-01-12 09:56:41.42	143.20	21.00	-26.8	-27.6	15.9	0.00e+00	0	42	0	211812352	15	3926
2026-01-12 09:56:42.42	143.15	21.13	-26.7	-27.8	16.0	0.00e+00	0	42	0	214958080	14	4102
2026-01-12 09:56:43.43	143.10	21.27	-26.6	-27.7	16.1	0.00e+00	0	42	0	218103808	14	4073
2026-01-12 09:56:44.44	143.05	21.41	-26.7	-27.8	16.1	0.00e+00	0	42	0	221249536	14	4098
2026-01-12 09:56:45.44	142.99	21.54	-26.7	-27.8	16.1	0.00e+00	0	42	0	224395264	14	4091
2026-01-12 09:56:46.45	142.94	21.68	-26.5	-27.3	16.3	0.00e+00	0	42	0	227540992	14	3973
2026-01-12 09:56:47.45	142.89	21.82	-26.4	-27.1	16.5	0.00e+00	0	42	0	230686720	14	3926
2026-01-12 09:56:48.46	142.83	21.96	-26.4	-27.1	16.5	0.00e+00	0	42	0	233832448	14	3915
2026-01-12 09:56:49.46	142.78	22.10	-26.3	-27.4	16.6	0.00e+00	0	42	0	236978176	13	4105
2026-01-12 09:56:50.47	142.73	22.24	-26.2	-27.3	16.6	0.00e+00	0	42	0	240123904	13	4064
2026-01-12 09:56:51.47	142.67	22.38	-26.2	-27.2	16.7	6.10e-06	0	42	0	243269632	13	4032
2026-01-12 09:56:52.48	142.62	22.53	-26.1	-27.1	16.8	0.00e+00	0	42	0	246415360	13	4008
2026-01-12 09:56:53.48	142.56	22.67	-26.2	-27.1	16.8	0.00e+00	0	42	0	249561088	13	4026
2026-01-12 09:56:54.48	142.50	22.81	-26.0	-26.8	16.9	3.00e-06	0	42	0	252706816	13	3951
2026-01-12 09:56:55.49	142.45	22.96	-26.0	-26.8	17.0	0.00e+00	0	42	0	255852544	13	3936
2026-01-12 09:56:56.49	142.39	23.10	-26.1	-27.1	16.8	0.00e+00	0	42	0	258998272	13	4019
2026-01-12 09:56:57.50	142.33	23.25	-26.3	-27.4	16.6	0.00e+00	0	42	0	262144000	13	4092
2026-01-12 09:56:58.51	142.27	23.40	-26.2	-27.3	16.7	0.00e+00	0	42	0	265289728	13	4068
2026-01-12 09:56:59.51	142.21	23.54	-26.2	-27.3	16.7	0.00e+00	0	42	0	268435456	13	4065
2026-01-12 09:57:00.52	142.15	23.69	-26.3	-27.4	16.6	6.80e-06	0	42	0	271581184	13	4099
2026-01-12 09:57:01.52	142.09	23.84	-26.3	-27.4	16.6	0.00e+00	0	42	0	274726912	13	4086
2026-01-12 09:57:02.52	142.03	23.99	-26.2	-27.2	16.7	0.00e+00	0	42	0	277872640	13	4044
2026-01-12 09:57:03.52	141.97	24.14	-26.2	-27.2	16.8	0.00e+00	0	42	0	281018368	13	4030
2026-01-12 09:57:04.53	141.91	24.30	-26.2	-27.3	16.7	0.00e+00	0	42	0	284164096	13	4057
2026-01-12 09:57:05.54	141.84	24.45	-26.3	-27.5	16.6	0.00e+00	0	42	0	287309824	13	4116
2026-01-12 09:57:06.54	141.78	24.60	-26.4	-27.7	16.5	8.30e-06	0	42	0	290455552	13	4166
2026-01-12 09:57:07.55	141.72	24.76	-26.2	-27.2	16.8	0.00e+00	0	42	0	293601280	13	4050
2026-01-12 09:57:08.56	141.65	24.91	-26.1	-27.0	16.9	0.00e+00	0	42	0	296747008	13	3998
2026-01-12 09:57:09.57	141.58	25.07	-26.2	-27.2	16.8	9.10e-06	0	42	0	299892736	13	4045
2026-01-12 09:57:10.57	141.52	25.23	-26.3	-27.4	16.7	0.00e+00	0	42	0	303038464	13	4093
2026-01-12 09:57:11.58	141.45	25.39	-26.3	-27.5	16.7	0.00e+00	0	42	0	306184192	13	4111
2026-01-12 09:57:12.58	141.38	25.55	-26.5	-27.8	16.5	0.00e+00	0	42	0	309329920	13	4201
2026-01-12 09:57:13.59	141.31	25.71	-26.5	-27.9	16.4	0.00e+00	0	42	0	312475648	13	4233
2026-01-12 09:57:14.59	141.25	25.87	-26.6	-28.1	16.3	0.00e+00	0	42	0	315621376	13	4286
2026-01-12 09:57:15.59	141.18	26.03	-26.8	-28.4	16.1	0.00e+00	0	42	0	318767104	13	4370
2026-01-12 09:57:16.60	141.10	26.19	-26.8	-28.6	16.0	0.00e+00	0	42	0	321912832	13	4425
2026-01-12 09:57:17.60	141.03	26.35	-26.9	-28.9	15.9	0.00e+00	0	42	0	325058560	13	4493
2026-01-12 09:57:18.60	140.96	26.52	-26.9	-28.8	16.0	0.00e+00	0	42	0	328204288	13	4480
2026-01-12 09:57:19.61	140.89	26.68	-27.1	-28.6	15.8	0.00e+00	0	42	0	331350016	14	4303
2026-01-12 09:57:20.62	140.81	26.85	-27.0	-28.5	15.9	0.00e+00	0	42	0	334495744	14	4260
2026-01-12 09:57:21.63	140.74	27.02	-27.1	-28.7	15.8	0.00e+00	0	42	0	337641472	14	4335
2026-01-12 09:57:22.63	140.66	27.19	-27.2	-28.9	15.7	0.00e+00	0	42	0	340787200	14	4389
2026-01-12 09:57:23.63	140.59	27.36	-27.3	-29.1	15.6	0.00e+00	0	42	0	343932928	14	4428
2026-01-12 09:57:24.64	140.51	27.53	-27.4	-29.4	15.4	0.00e+00	0	42	0	347078656	14	4529
2026-01-12 09:57:25.65	140.43	27.70	-27.4	-29.4	15.4	0.00e+00	0	42	0	350224384	14	4524
2026-01-12 09:57:26.65	140.35	27.87	-27.4	-29.3	15.5	0.00e+00	0	42	0	353370112	14	4506
2026-01-12 09:57:27.65	140.27	28.05	-27.4	-29.3	15.5	0.00e+00	0	42	0	356515840	14	4492
2026-01-12 09:57:28.65	140.19	28.22	-27.5	-29.5	15.4	0.00e+00	0	42	0	359661568	14	4561
2026-01-12 09:57:29.66	140.11	28.40	-27.5	-29.2	15.3	7.00e-07	0	42	0	362807296	15	4350
2026-01-12 09:57:30.66	140.03	28.57	-27.5	-29.1	15.3	0.00e+00	0	42	0	365953024	15	4329
2026-01-12 09:57:31.67	139.95	28.75	-27.6	-29.3	15.3	0.00e+00	0	42	0	369098752	15	4377
2026-01-12 09:57:32.67	139.86	28.93	-27.4	-28.9	15.5	0.00e+00	0	42	0	372244480	15	4258
2026-01-12 09:57:33.68	139.78	29.11	-27.4	-28.9	15.5	0.00e+00	0	42	0	375390208	15	4275
2026-01-12 09:57:34.68	139.69	29.29	-27.3	-28.6	15.7	0.00e+00	0	42	0	378535936	15	4180
2026-01-12 09:57:35.69	139.60	29.47	-27.4	-28.8	15.6	0.00e+00	0	42	0	381681664	15	4231
2026-01-12 09:57:36.69	139.51	29.65	-27.3	-28.5	15.7	0.00e+00	0	42	0	384827392	15	4163
2026-01-12 09:57:37.69	139.43	29.84	-27.3	-28.5	15.7	0.00e+00	0	42	0	387973120	15	4161
2026-01-12 09:57:38.69	139.34	30.02	-27.3	-28.6	15.7	0.00e+00	0	42	0	391118848	15	4192
2026-01-12 09:57:39.70	139.24	30.21	-27.3	-28.5	15.7	0.00e+00	0	42	0	394264576	15	4172
2026-01-12 09:57:40.71	139.15	30.40	-27.1	-28.3	15.8	0.00e+00	0	42	0	397410304	15	4095
2026-01-12 09:57:41.72	139.06	30.59	-27.2	-28.4	15.8	0.00e+00	0	42	0	400556032	15	4128
2026-01-12 09:57:42.72	138.96	30.78	-26.9	-27.8	16.1	0.00e+00	0	42	0	403701760	15	3978
2026-01-12 09:57:43.72	138.87	30.97	-26.9	-27.8	16.1	0.00e+00	0	42	0	406847488	15	3976
2026-01-12 09:57:44.73	138.77	31.16	-27.0	-28.0	16.0	0.00e+00	0	42	0	409993216	15	4016
2026-01-12 09:57:45.74	138.67	31.35	-27.0	-28.0	16.0	0.00e+00	0	42	0	413138944	15	4039
2026-01-12 09:57:46.74	138.57	31.55	-27.2	-28.4	15.8	0.00e+00	0	42	0	416284672	15	4129
2026-01-12 09:57:47.75	138.47	31.74	-27.2	-28.3	15.8	0.00e+00	0	42	0	419430400	15	4119
2026-01-12 09:57:48.75	138.37	31.94	-27.2	-28.4	15.8	0.00e+00	0	42	0	422576128	15	4131
2026-01-12 09:57:49.75	138.26	32.14	-27.3	-28.6	15.7	0.00e+00	0	42	0	425721856	15	4188
2026-01-12 09:57:50.76	138.16	32.34	-27.4	-28.9	15.6	0.00e+00	0	42	0	428867584	15	4263
2026-01-12 09:57:51.77	138.05	32.54	-27.4	-28.8	15.6	0.00e+00	0	42	0	432013312	15	4244
2026-01-12 09:57:52.77	137.95	32.74	-27.4	-28.7	15.7	0.00e+00	0	42	0	435159040	15	4226
2026-01-12 09:57:53.78	137.84	32.94	-27.4	-28.8	15.6	0.00e+00	0	42	0	438304768	15	4232
2026-01-12 09:57:54.79	137.73	33.15	-27.6	-29.3	15.4	0.00e+00	0	42	0	441450496	15	4384
2026-01-12 09:57:55.80	137.61	33.36	-27.4	-28.9	15.6	0.00e+00	0	42	0	444596224	15	4266
2026-01-12 09:57:56.81	137.50	33.56	-27.5	-29.0	15.5	0.00e+00	0	42	0	447741952	15	4301
2026-01-12 09:57:57.81	137.38	33.77	-27.4	-28.9	15.6	0.00e+00	0	42	0	450887680	15	4265
2026-01-12 09:57:58.82	137.27	33.98	-27.4	-28.8	15.7	0.00e+00	0	42	0	454033408	15	4231
2026-01-12 09:57:59.83	137.15	34.19	-27.6	-29.3	15.4	0.00e+00	0	42	0	457179136	15	4362
2026-01-12 09:58:00.83	137.03	34.40	-27.7	-29.6	15.3	0.00e+00	0	42	0	460324864	15	4448
2026-01-12 09:58:01.83	136.91	34.62	-28.2	-30.1	14.9	0.00e+00	0	42	0	463470592	16	4476
2026-01-12 09:58:02.83	136.79	34.83	-28.3	-30.3	14.7	7.60e-06	0	42	0	466616320	16	4557
2026-01-12 09:58:03.84	136.66	35.05	-28.4	-30.7	14.5	0.00e+00	0	42	0	469762048	16	4670
2026-01-12 09:58:04.84	136.54	35.26	-28.5	-30.3	14.4	0.00e+00	0	42	0	472907776	17	4437
2026-01-12 09:58:05.85	136.41	35.48	-28.4	-30.1	14.6	0.00e+00	0	42	0	476053504	17	4380
2026-01-12 09:58:06.86	136.28	35.70	-28.4	-30.1	14.5	0.00e+00	0	42	0	479199232	17	4381
2026-01-12 09:58:07.86	136.15	35.92	-28.5	-30.3	14.5	7.00e-07	0	42	0	482344960	17	4428
2026-01-12 09:58:08.86	136.02	36.15	-28.5	-30.4	14.4	2.20e-06	0	42	0	485490688	17	4464
2026-01-12 09:58:09.86	135.88	36.37	-28.8	-31.1	14.0	2.20e-06	0	42	0	488636416	17	4674
2026-01-12 09:58:10.87	135.75	36.59	-28.9	-31.2	14.0	1.50e-06	0	42	0	491782144	17	4704
2026-01-12 09:58:11.87	135.61	36.82	-28.9	-31.2	13.9	1.14e-05	0	42	0	494927872	17	4716
2026-01-12 09:58:12.88	135.47	37.05	-28.9	-31.3	13.9	5.30e-06	0	42	0	498073600	17	4732
2026-01-12 09:58:13.88	135.32	37.28	-28.9	-31.2	14.0	1.50e-06	0	42	0	501219328	17	4702
2026-01-12 09:58:14.89	135.18	37.51	-28.9	-31.2	13.9	1.37e-05	0	42	0	504365056	17	4704
2026-01-12 09:58:15.89	135.03	37.74	-28.9	-31.3	13.9	6.10e-06	0	42	0	507510784	17	4735
2026-01-12 09:58:16.90	134.88	37.98	-29.1	-31.3	13.6	9.10e-06	0	42	0	510656512	18	4612
2026-01-12 09:58:17.90	134.73	38.21	-29.0	-31.0	13.8	9.90e-06	0	42	0	513802240	18	4529
2026-01-12 09:58:18.91	134.58	38.45	-28.9	-30.9	13.9	2.20e-06	0	42	0	516947968	18	4486
2026-01-12 09:58:19.92	134.42	38.69	-28.9	-30.7	14.0	2.20e-06	0	42	0	520093696	18	4429
2026-01-12 09:58:20.92	134.26	38.92	-29.0	-30.9	13.9	6.10e-06	0	42	0	523239424	18	4491
2026-01-12 09:58:21.93	134.10	39.17	-28.9	-30.7	14.0	3.00e-06	0	42	0	526385152	18	4430
2026-01-12 09:58:22.94	133.94	39.41	-29.0	-31.1	13.8	2.20e-06	0	42	0	529530880	18	4555
2026-01-12 09:58:23.95	133.77	39.65	-28.8	-30.4	14.2	1.22e-05	0	42	0	532676608	18	4349
2026-01-12 09:58:24.95	133.61	39.90	-28.6	-30.1	14.4	7.00e-07	0	42	0	535822336	18	4266
2026-01-12 09:58:25.96	133.43	40.15	-28.6	-30.0	14.4	7.00e-07	0	42	0	538968064	18	4236
2026-01-12 09:58:26.95	133.26	40.39	-28.8	-30.4	14.2	7.00e-07	0	42	0	542113792	18	4336
2026-01-12 09:58:27.96	133.09	40.64	-28.6	-30.0	14.4	0.00e+00	0	42	0	545259520	18	4234
2026-01-12 09:58:28.96	132.91	40.89	-28.7	-30.4	14.2	0.00e+00	0	42	0	548405248	18	4336
2026-01-12 09:58:29.97	132.73	41.14	-29.0	-30.9	13.9	7.00e-07	0	42	0	551550976	18	4489
2026-01-12 09:58:30.97	132.54	41.40	-29.2	-31.4	13.5	7.60e-06	0	42	0	554696704	18	4671
2026-01-12 09:58:31.97	132.36	41.65	-29.4	-31.9	13.2	1.06e-05	0	42	0	557842432	18	4832
2026-01-12 09:58:32.97	132.17	41.90	-29.6	-31.9	13.0	2.51e-05	0	42	0	560988160	19	4707
2026-01-12 09:58:33.97	131.97	42.16	-29.6	-32.0	12.9	3.43e-05	0	42	0	563085312	19	4743
2026-01-12 09:58:34.96	131.78	42.42	-29.6	-31.9	13.0	4.04e-05	0	42	0	566231040	19	4712
2026-01-12 09:58:35.96	131.58	42.67	-29.5	-31.6	13.2	2.82e-05	0	42	0	569376768	19	4592
2026-01-12 09:58:36.97	131.38	42.94	-29.5	-31.6	13.2	1.67e-05	0	42	0	572522496	19	4606
2026-01-12 09:58:37.97	131.17	43.20	-29.7	-32.1	12.9	4.88e-05	0	42	0	576716800	19	4762
2026-01-12 09:58:38.97	130.96	43.46	-29.5	-31.7	13.1	2.59e-05	0	42	0	578813952	19	4642
2026-01-12 09:58:39.98	130.75	43.73	-29.6	-31.8	13.1	2.59e-05	0	42	0	581959680	19	4658
2026-01-12 09:58:40.99	130.53	44.00	-29.7	-32.2	12.9	4.34e-05	0	42	0	585105408	19	4784
2026-01-12 09:58:41.99	130.31	44.27	-29.9	-32.7	12.6	8.23e-05	0	42	0	588251136	19	4946
2026-01-12 09:58:43.00	130.08	44.54	-30.1	-32.6	12.2	1.94e-04	0	42	0	591396864	20	4833
2026-01-12 09:58:44.01	129.85	44.81	-30.0	-32.4	12.3	2.19e-04	0	42	0	594542592	20	4762
2026-01-12 09:58:45.02	129.62	45.09	-30.0	-32.5	12.3	1.73e-04	0	42	0	597688320	20	4774
2026-01-12 09:58:46.02	129.39	45.36	-30.0	-32.5	12.3	1.56e-04	0	42	0	601882624	20	4786
2026-01-12 09:58:47.03	129.14	45.64	-30.0	-32.5	12.3	1.43e-04	0	42	0	603979776	20	4784
2026-01-12 09:58:48.03	128.90	45.91	-30.0	-32.5	12.4	1.70e-04	0	42	0	607125504	20	4779
2026-01-12 09:58:49.03	128.65	46.19	-29.8	-31.8	12.7	1.17e-04	0	42	0	610271232	20	4570
2026-01-12 09:58:50.04	128.40	46.47	-29.6	-31.3	13.0	3.89e-05	0	42	0	613416960	20	4413
2026-01-12 09:58:51.04	128.14	46.75	-29.7	-31.6	12.9	4.57e-05	0	42	0	616562688	20	4482
2026-01-12 09:58:52.04	127.88	47.03	-29.9	-32.3	12.4	1.09e-04	0	42	0	619708416	20	4700
2026-01-12 09:58:53.05	127.61	47.31	-29.8	-31.9	12.7	6.63e-05	0	42	0	622854144	20	4571
2026-01-12 09:58:54.05	127.33	47.60	-29.8	-31.8	12.7	5.95e-05	0	42	0	625999872	20	4559
2026-01-12 09:58:55.05	127.06	47.88	-30.1	-32.6	12.2	1.69e-04	0	42	0	629145600	20	4804
2026-01-12 09:58:56.06	126.77	48.17	-29.7	-31.8	12.7	7.78e-05	0	42	0	632291328	20	4544
2026-01-12 09:58:57.06	126.48	48.46	-29.4	-31.0	13.2	3.43e-05	0	42	0	635437056	20	4326
2026-01-12 09:58:58.06	126.19	48.74	-29.4	-30.9	13.2	1.90e-05	0	42	0	638582784	20	4287
2026-01-12 09:58:59.07	125.89	49.03	-29.6	-31.3	13.0	3.73e-05	0	42	0	641728512	20	4418
2026-01-12 09:59:00.07	125.59	49.32	-29.7	-31.8	12.7	6.10e-05	0	42	0	644874240	20	4558
2026-01-12 09:59:01.07	125.28	49.61	-29.8	-31.9	12.7	7.70e-05	0	42	0	648019968	20	4582
2026-01-12 09:59:02.07	124.96	49.91	-29.5	-31.1	13.2	2.28e-05	0	42	0	651165696	20	4347
2026-01-12 09:59:03.07	124.64	50.20	-29.3	-31.2	13.5	1.60e-05	0	42	0	654311424	19	4466
2026-01-12 09:59:04.07	124.31	50.49	-29.4	-31.4	13.4	1.60e-05	0	42	0	657457152	19	4546
2026-01-12 09:59:05.08	123.97	50.79	-29.5	-31.6	13.3	1.06e-05	0	42	0	660602880	19	4610
2026-01-12 09:59:06.09	123.62	51.09	-29.6	-32.0	13.1	2.21e-05	0	42	0	663748608	19	4716
2026-01-12 09:59:07.09	123.27	51.38	-29.5	-31.6	13.3	1.29e-05	0	42	0	666894336	19	4596
2026-01-12 09:59:08.10	122.92	51.68	-29.5	-31.6	13.3	1.37e-05	0	42	0	670040064	19	4602
2026-01-12 09:59:09.11	122.55	51.98	-29.4	-31.3	13.5	1.29e-05	0	42	0	673185792	19	4504
2026-01-12 09:59:10.11	122.18	52.28	-29.3	-31.1	13.6	1.06e-05	0	42	0	676331520	19	4429
2026-01-12 09:59:11.11	121.80	52.58	-29.5	-31.5	13.3	1.14e-05	0	42	0	679477248	19	4560
2026-01-12 09:59:12.12	121.41	52.88	-29.1	-30.7	13.9	4.50e-06	0	42	0	682622976	19	4331
2026-01-12 09:59:13.11	121.02	53.17	-28.9	-30.2	14.1	3.00e-06	0	42	0	685768704	19	4185
2026-01-12 09:59:14.12	120.61	53.48	-28.9	-30.3	14.1	7.00e-07	0	42	0	688914432	19	4203
2026-01-12 09:59:15.13	120.20	53.78	-29.0	-30.5	14.0	3.00e-06	0	42	0	692060160	19	4278
2026-01-12 09:59:16.13	119.78	54.08	-28.8	-30.0	14.3	4.50e-06	0	42	0	695205888	19	4136
2026-01-12 09:59:17.13	119.35	54.38	-28.3	-29.3	14.9	0.00e+00	0	42	0	698351616	18	4038
2026-01-12 09:59:18.13	118.91	54.68	-28.0	-29.2	15.3	0.00e+00	0	42	0	701497344	17	4107
2026-01-12 09:59:19.13	118.47	54.98	-28.2	-29.6	15.1	0.00e+00	0	42	0	704643072	17	4207
2026-01-12 09:59:20.12	118.01	55.27	-27.8	-28.7	15.6	0.00e+00	0	42	0	707788800	17	3986
2026-01-12 09:59:21.12	117.55	55.57	-27.8	-29.2	15.6	0.00e+00	0	42	0	710934528	16	4209
2026-01-12 09:59:22.13	117.07	55.88	-28.1	-29.8	15.2	0.00e+00	0	42	0	714080256	16	4396
2026-01-12 09:59:23.12	116.58	56.17	-28.2	-30.0	15.1	7.00e-07	0	42	0	717225984	16	4451
2026-01-12 09:59:24.13	116.08	56.47	-27.9	-29.4	15.5	0.00e+00	0	42	0	720371712	16	4258
2026-01-12 09:59:25.13	115.57	56.77	-27.7	-28.9	15.8	0.00e+00	0	42	0	723517440	16	4141
2026-01-12 09:59:26.14	115.05	57.07	-27.6	-28.8	15.8	0.00e+00	0	42	0	726663168	16	4097
2026-01-12 09:59:27.14	114.52	57.37	-27.8	-29.2	15.6	0.00e+00	0	42	0	729808896	16	4197
2026-01-12 09:59:28.15	113.97	57.67	-27.8	-29.1	15.7	0.00e+00	0	42	0	732954624	16	4197
2026-01-12 09:59:29.15	113.42	57.96	-27.7	-28.9	15.8	0.00e+00	0	42	0	736100352	16	4141
2026-01-12 09:59:30.16	112.84	58.26	-27.8	-29.1	15.7	0.00e+00	0	42	0	739246080	16	4185
2026-01-12 09:59:31.16	112.26	58.55	-27.7	-29.0	15.7	0.00e+00	0	42	0	742391808	16	4171
2026-01-12 09:59:32.17	111.66	58.85	-27.0	-27.9	16.4	0.00e+00	0	42	0	745537536	15	3990
2026-01-12 09:59:33.17	111.06	59.14	-26.8	-27.9	16.7	0.00e+00	0	42	0	748683264	14	4087
2026-01-12 09:59:34.18	110.43	59.43	-27.0	-28.3	16.6	0.00e+00	0	42	0	751828992	14	4187
2026-01-12 09:59:35.19	109.79	59.72	-26.9	-28.1	16.6	0.00e+00	0	42	0	754974720	14	4154
2026-01-12 09:59:36.20	109.14	60.00	-27.0	-28.4	16.4	0.00e+00	0	42	0	758120448	14	4225
2026-01-12 09:59:37.20	108.47	60.28	-27.2	-28.8	16.2	0.00e+00	0	42	0	761266176	14	4328
2026-01-12 09:59:38.21	107.79	60.57	-26.6	-27.5	16.9	7.00e-07	0	42	0	764411904	14	3989
2026-01-12 09:59:39.21	107.10	60.84	-26.2	-27.1	17.4	0.00e+00	0	42	0	767557632	13	4005
2026-01-12 09:59:40.22	106.38	61.12	-26.1	-27.0	17.5	0.00e+00	0	42	0	770703360	13	3962
2026-01-12 09:59:41.22	105.66	61.39	-26.0	-26.7	17.6	0.00e+00	0	42	0	773849088	13	3893
2026-01-12 09:59:42.23	104.91	61.66	-26.3	-27.2	17.3	0.00e+00	0	42	0	776994816	13	4028
2026-01-12 09:59:43.23	104.15	61.93	-26.2	-27.1	17.4	0.00e+00	0	42	0	780140544	13	4005
2026-01-12 09:59:44.23	103.38	62.19	-26.3	-27.3	17.3	0.00e+00	0	42	0	783286272	13	4050
2026-01-12 09:59:45.23	102.59	62.45	-26.4	-27.6	17.1	0.00e+00	0	42	0	786432000	13	4132
2026-01-12 09:59:46.24	101.78	62.71	-26.3	-27.3	17.3	0.00e+00	0	42	0	789577728	13	4059
2026-01-12 09:59:47.24	100.95	62.96	-26.4	-27.5	17.2	0.00e+00	0	42	0	792723456	13	4100
2026-01-12 09:59:48.24	100.11	63.20	-26.2	-27.1	17.4	0.00e+00	0	42	0	795869184	13	3999
2026-01-12 09:59:49.24	99.26	63.45	-26.4	-27.5	17.2	0.00e+00	0	42	0	799014912	13	4108
2026-01-12 09:59:50.25	98.37	63.69	-26.9	-28.6	16.6	0.00e+00	0	42	0	802160640	13	4383
2026-01-12 09:59:51.25	97.48	63.92	-27.0	-28.8	16.5	0.00e+00	0	42	0	805306368	13	4453
2026-01-12 09:59:52.25	96.56	64.15	-27.0	-28.4	16.4	0.00e+00	0	42	0	808452096	14	4232
2026-01-12 09:59:53.25	95.63	64.37	-26.9	-28.1	16.6	0.00e+00	0	42	0	811597824	14	4133
2026-01-12 09:59:54.25	94.69	64.58	-26.4	-27.0	17.2	0.00e+00	0	42	0	814743552	14	3859
2026-01-12 09:59:55.25	93.72	64.79	-26.6	-27.4	17.0	0.00e+00	0	42	0	817889280	14	3979
2026-01-12 09:59:56.26	92.73	65.00	-26.8	-27.9	16.7	0.00e+00	0	42	0	821035008	14	4098
2026-01-12 09:59:57.27	91.71	65.20	-26.8	-27.9	16.8	0.00e+00	0	42	0	824180736	14	4080
2026-01-12 09:59:58.27	90.69	65.39	-26.6	-27.5	16.9	0.00e+00	0	42	0	827326464	14	3994
2026-01-12 09:59:59.27	89.66	65.58	-26.7	-27.6	16.8	0.00e+00	0	42	0	830472192	14	4023
2026-01-12 10:00:00.27	88.60	65.76	-26.6	-27.4	17.0	0.00e+00	0	42	0	833617920	14	3971
2026-01-12 10:00:01.28	87.52	65.93	-26.3	-26.9	17.2	0.00e+00	0	42	0	836763648	14	3847
2026-01-12 10:00:02.29	86.42	66.09	-26.4	-27.1	17.2	0.00e+00	0	42	0	839909376	14	3891
2026-01-12 10:00:03.29	85.32	66.25	-26.4	-27.2	17.2	0.00e+00	0	42	0	843055104	14	3910
2026-01-12 10:00:04.29	84.20	66.40	-26.2	-27.2	17.4	0.00e+00	0	42	0	846200832	13	4020
2026-01-12 10:00:05.29	83.06	66.54	-26.3	-27.4	17.2	0.00e+00	0	42	0	849346560	13	4073
2026-01-12 10:00:06.29	81.91	66.67	-26.3	-27.3	17.3	0.00e+00	0	42	0	852492288	13	4051
2026-01-12 10:00:07.28	80.76	66.79	-26.1	-26.8	17.6	0.00e+00	0	42	0	855638016	13	3934
2026-01-12 10:00:08.29	79.57	66.91	-26.0	-26.6	17.6	0.00e+00	0	42	0	858783744	13	3884
2026-01-12 10:00:09.29	78.38	67.01	-25.8	-26.3	17.8	0.00e+00	0	42	0	861929472	13	3800
2026-01-12 10:00:10.30	77.17	67.11	-26.1	-26.8	17.6	0.00e+00	0	42	0	865075200	13	3914
2026-01-12 10:00:11.30	75.96	67.20	-26.4	-27.5	17.2	0.00e+00	0	42	0	868220928	13	4091
2026-01-12 10:00:12.30	74.74	67.27	-26.5	-27.7	17.1	0.00e+00	0	42	0	871366656	13	4157
2026-01-12 10:00:13.31	73.49	67.34	-26.7	-28.1	16.9	0.00e+00	0	42	0	874512384	13	4257
2026-01-12 10:00:14.30	72.27	67.40	-26.1	-26.8	17.6	0.00e+00	0	42	0	877658112	13	3924
2026-01-12 10:00:15.29	71.04	67.45	-26.4	-27.5	17.2	0.00e+00	0	42	0	879755264	13	4094
2026-01-12 10:00:16.29	69.79	67.49	-27.1	-28.5	16.4	0.00e+00	0	42	0	882900992	14	4244
2026-01-12 10:00:17.29	68.54	67.52	-27.2	-28.8	16.2	0.00e+00	0	42	0	886046720	14	4328
2026-01-12 10:00:18.30	67.27	67.54	-27.0	-28.4	16.5	0.00e+00	0	42	0	889192448	14	4227
2026-01-12 10:00:19.30	66.01	67.55	-26.7	-27.6	16.9	0.00e+00	0	42	0	892338176	14	4010
2026-01-12 10:00:20.30	64.76	67.54	-26.9	-28.1	16.7	0.00e+00	0	42	0	895483904	14	4135
2026-01-12 10:00:21.30	63.50	67.53	-27.3	-29.1	16.1	0.00e+00	0	42	0	898629632	14	4417
2026-01-12 10:00:22.30	62.24	67.51	-27.5	-28.9	15.9	0.00e+00	0	42	0	901775360	15	4242
2026-01-12 10:00:23.31	60.98	67.48	-27.1	-28.1	16.4	0.00e+00	0	42	0	904921088	15	4033
2026-01-12 10:00:24.31	59.73	67.44	-26.6	-27.4	17.0	0.00e+00	0	42	0	908066816	14	3977
2026-01-12 10:00:25.31	58.49	67.39	-26.1	-26.8	17.5	0.00e+00	0	42	0	911212544	13	3931
2026-01-12 10:00:26.32	57.24	67.33	-26.2	-27.0	17.4	7.00e-07	0	42	0	914358272	13	3981
2026-01-12 10:00:27.32	56.02	67.26	-26.7	-28.1	16.8	0.00e+00	0	42	0	917504000	13	4250
2026-01-12 10:00:28.32	54.80	67.18	-26.6	-28.0	16.9	0.00e+00	0	42	0	920649728	13	4219
2026-01-12 10:00:29.33	53.58	67.09	-26.3	-27.4	17.2	0.00e+00	0	42	0	923795456	13	4077
2026-01-12 10:00:30.33	52.38	66.99	-26.0	-26.8	17.5	0.00e+00	0	42	0	926941184	13	3912
2026-01-12 10:00:31.32	51.20	66.89	-26.2	-27.1	17.4	0.00e+00	0	42	0	930086912	13	3990
2026-01-12 10:00:32.32	50.03	66.77	-26.5	-27.7	17.1	0.00e+00	0	42	0	933232640	13	4141
2026-01-12 10:00:33.32	48.87	66.65	-26.7	-28.2	16.8	0.00e+00	0	42	0	936378368	13	4285
2026-01-12 10:00:34.33	47.71	66.51	-26.7	-28.3	16.7	0.00e+00	0	42	0	939524096	13	4309
2026-01-12 10:00:35.34	46.57	66.37	-26.6	-28.0	16.9	0.00e+00	0	42	0	942669824	13	4225
2026-01-12 10:00:36.35	45.44	66.22	-26.4	-27.6	17.1	0.00e+00	0	42	0	945815552	13	4124
2026-01-12 10:00:37.35	44.34	66.06	-26.5	-27.8	17.0	0.00e+00	0	42	0	948961280	13	4188
2026-01-12 10:00:38.35	43.26	65.90	-26.4	-27.5	17.1	0.00e+00	0	42	0	952107008	13	4101
2026-01-12 10:00:39.36	42.18	65.73	-26.0	-26.7	17.6	0.00e+00	0	42	0	955252736	13	3895
2026-01-12 10:00:40.36	41.13	65.55	-25.8	-26.3	17.7	6.80e-06	0	42	0	958398464	13	3803
2026-01-12 10:00:41.37	40.08	65.36	-26.2	-27.2	17.1	0.00e+00	0	42	0	961544192	13	4012
2026-01-12 10:00:42.38	39.06	65.16	-26.7	-28.3	16.6	0.00e+00	0	42	0	964689920	13	4305
2026-01-12 10:00:43.38	38.06	64.96	-26.5	-27.8	16.9	0.00e+00	0	42	0	967835648	13	4180
2026-01-12 10:00:44.39	37.07	64.76	-26.4	-27.7	17.0	0.00e+00	0	42	0	970981376	13	4144
2026-01-12 10:00:45.40	36.10	64.54	-26.9	-28.6	16.5	0.00e+00	0	42	0	974127104	13	4398
2026-01-12 10:00:46.40	35.16	64.33	-27.6	-29.2	15.7	6.80e-06	0	42	0	977272832	15	4342
2026-01-12 10:00:47.41	34.22	64.10	-27.5	-29.0	15.7	0.00e+00	0	42	0	980418560	15	4289
2026-01-12 10:00:48.41	33.32	63.87	-26.8	-27.5	16.6	0.00e+00	0	42	0	983564288	15	3886
2026-01-12 10:00:49.41	32.43	63.64	-26.8	-28.0	16.6	7.60e-06	0	42	0	986710016	14	4119
2026-01-12 10:00:50.41	31.56	63.40	-27.1	-28.7	16.3	0.00e+00	0	42	0	989855744	14	4297
2026-01-12 10:00:51.41	30.70	63.16	-27.3	-29.0	16.1	0.00e+00	0	42	0	993001472	14	4387
2026-01-12 10:00:52.41	29.87	62.91	-27.5	-29.0	15.8	8.30e-06	0	42	0	996147200	15	4273
2026-01-12 10:00:53.41	29.05	62.66	-27.4	-28.7	15.9	0.00e+00	0	42	0	999292928	15	4195
2026-01-12 10:00:54.42	28.24	62.40	-27.1	-28.1	16.2	0.00e+00	0	42	0	1002438656	15	4036
2026-01-12 10:00:55.41	27.46	62.15	-26.6	-27.5	16.8	5.30e-06	0	42	0	1005584384	14	3997
2026-01-12 10:00:56.42	26.68	61.88	-26.5	-27.3	16.9	0.00e+00	0	42	0	1008730112	14	3937
2026-01-12 10:00:57.43	25.93	61.62	-26.7	-27.7	16.7	0.00e+00	0	42	0	1011875840	14	4036
2026-01-12 10:00:58.43	25.19	61.35	-27.3	-29.0	16.1	0.00e+00	0	42	0	1015021568	14	4378
2026-01-12 10:00:59.43	24.47	61.08	-27.8	-29.7	15.4	0.00e+00	0	42	0	1018167296	15	4471
2026-01-12 10:01:00.44	23.76	60.80	-27.7	-29.4	15.5	0.00e+00	0	42	0	1021313024	15	4408
2026-01-12 10:01:01.44	23.07	60.52	-27.0	-27.9	16.3	0.00e+00	0	42	0	1024458752	15	3991
2026-01-12 10:01:02.45	22.39	60.24	-26.2	-27.2	17.3	0.00e+00	0	42	0	1027604480	13	4010
2026-01-12 10:01:03.46	21.73	59.96	-25.8	-26.6	17.8	0.00e+00	0	42	0	1030750208	12	3984
2026-01-12 10:01:04.46	21.08	59.67	-26.3	-27.8	17.1	0.00e+00	0	42	0	1033895936	12	4288
2026-01-12 10:01:05.46	20.45	59.39	-27.3	-29.0	16.0	0.00e+00	0	42	0	1037041664	14	4399
2026-01-12 10:01:06.46	19.84	59.10	-28.3	-30.4	14.9	0.00e+00	0	42	0	1040187392	16	4562
2026-01-12 10:01:07.46	19.23	58.81	-27.9	-29.5	15.3	0.00e+00	0	42	0	1043333120	16	4299
2026-01-12 10:01:08.46	18.64	58.52	-27.4	-28.2	16.0	0.00e+00	0	42	0	1046478848	16	3956
2026-01-12 10:01:09.46	18.07	58.23	-27.0	-27.9	16.3	0.00e+00	0	42	0	1049624576	15	3991
2026-01-12 10:01:10.46	17.50	57.94	-27.2	-28.3	16.1	0.00e+00	0	42	0	1052770304	15	4085
2026-01-12 10:01:11.47	16.94	57.64	-27.7	-29.4	15.5	0.00e+00	0	42	0	1055916032	15	4386
2026-01-12 10:01:12.47	16.40	57.34	-28.5	-30.3	14.5	0.00e+00	0	42	0	1059061760	17	4403
2026-01-12 10:01:13.48	15.87	57.04	-28.9	-31.2	13.9	1.50e-06	0	42	0	1062207488	17	4677
2026-01-12 10:01:14.48	15.35	56.75	-29.4	-31.9	13.3	1.98e-05	0	42	0	1065353216	18	4801
2026-01-12 10:01:15.49	14.84	56.45	-29.4	-31.4	13.4	2.05e-05	0	42	0	1068498944	19	4524
2026-01-12 10:01:16.50	14.34	56.15	-28.2	-29.6	14.9	3.80e-06	0	42	0	1071644672	17	4210
2026-01-12 10:01:17.50	13.86	55.85	-26.7	-27.8	16.6	0.00e+00	0	42	0	1074790400	14	4062
2026-01-12 10:01:18.49	13.39	55.55	-26.3	-27.3	17.2	0.00e+00	0	42	0	1077936128	13	4033
2026-01-12 10:01:19.49	12.93	55.25	-27.1	-28.5	16.2	0.00e+00	0	42	0	1081081856	14	4247
2026-01-12 10:01:20.50	12.47	54.95	-27.8	-29.7	15.2	0.00e+00	0	42	0	1084227584	15	4463
2026-01-12 10:01:21.50	12.02	54.65	-28.8	-30.8	14.3	7.00e-07	0	42	0	1087373312	17	4579
2026-01-12 10:01:22.51	11.58	54.35	-29.3	-31.6	13.6	1.14e-05	0	42	0	1090519040	18	4696
2026-01-12 10:01:23.52	11.15	54.05	-29.2	-31.5	13.5	1.14e-05	0	42	0	1093664768	18	4665
2026-01-12 10:01:24.52	10.74	53.75	-29.2	-31.3	13.5	9.10e-06	0	42	0	1096810496	18	4628
2026-01-12 10:01:25.53	10.32	53.45	-28.7	-30.2	14.2	7.00e-07	0	42	0	1099956224	18	4293
2026-01-12 10:01:26.53	9.92	53.15	-28.1	-29.4	15.0	7.00e-07	0	42	0	1103101952	17	4166
2026-01-12 10:01:27.53	9.53	52.85	-28.0	-29.2	15.2	0.00e+00	0	42	0	1106247680	17	4110
2026-01-12 10:01:28.53	9.15	52.56	-28.1	-29.2	15.0	0.00e+00	0	42	0	1109393408	17	4125
2026-01-12 10:01:29.54	8.77	52.26	-28.6	-30.5	14.3	0.00e+00	0	42	0	1112539136	17	4473
2026-01-12 10:01:30.54	8.40	51.96	-29.4	-32.1	13.2	1.60e-05	0	42	0	1115684864	18	4866
2026-01-12 10:01:31.55	8.04	51.66	-29.7	-32.3	12.7	6.25e-05	0	42	0	1118830592	19	4831
2026-01-12 10:01:32.56	7.68	51.36	-29.5	-31.6	13.2	5.41e-05	0	42	0	1121976320	19	4602
2026-01-12 10:01:33.57	7.33	51.07	-28.9	-30.2	14.1	2.20e-06	0	42	0	1125122048	19	4171
2026-01-12 10:01:34.58	6.99	50.77	-28.4	-29.6	14.7	0.00e+00	0	42	0	1128267776	18	4113
2026-01-12 10:01:35.58	6.65	50.48	-28.0	-29.1	15.2	0.00e+00	0	42	0	1131413504	17	4072
2026-01-12 10:01:36.59	6.32	50.18	-27.9	-28.9	15.4	0.00e+00	0	42	0	1134559232	17	4019
2026-01-12 10:01:37.59	6.00	49.89	-28.0	-29.1	15.2	1.50e-06	0	42	0	1137704960	17	4067
2026-01-12 10:01:38.59	5.69	49.60	-27.9	-28.9	15.4	0.00e+00	0	42	0	1140850688	17	4014
2026-01-12 10:01:39.60	5.38	49.31	-28.3	-29.7	14.9	7.00e-07	0	42	0	1143996416	17	4237
2026-01-12 10:01:40.60	5.07	49.02	-29.2	-31.4	13.6	2.20e-06	0	42	0	1147142144	18	4645
2026-01-12 10:01:41.61	4.77	48.73	-29.9	-32.7	12.5	7.01e-05	0	42	0	1150287872	19	4977
2026-01-12 10:01:42.61	4.48	48.44	-29.8	-32.3	12.6	1.20e-04	0	42	0	1153433600	19	4837
2026-01-12 10:01:43.61	4.20	48.16	-29.3	-31.0	13.5	2.67e-05	0	42	0	1156579328	19	4421
2026-01-12 10:01:44.61	3.92	47.87	-29.0	-30.4	13.9	6.10e-06	0	42	0	1159725056	19	4226
2026-01-12 10:01:45.62	3.64	47.59	-29.5	-31.6	13.2	2.21e-05	0	42	0	1162870784	19	4599
2026-01-12 10:01:46.62	3.37	47.31	-29.8	-32.3	12.7	7.78e-05	0	42	0	1166016512	19	4838
2026-01-12 10:01:47.63	3.10	47.02	-29.8	-32.4	12.7	7.62e-05	0	42	0	1169162240	19	4859
2026-01-12 10:01:48.63	2.84	46.74	-29.8	-32.5	12.6	9.30e-05	0	42	0	1172307968	19	4896
2026-01-12 10:01:49.64	2.58	46.46	-29.7	-32.2	12.8	5.72e-05	0	42	0	1175453696	19	4776
2026-01-12 10:01:50.64	2.33	46.19	-29.7	-32.2	12.9	6.48e-05	0	42	0	1178599424	19	4778
2026-01-12 10:01:51.65	2.08	45.91	-29.8	-32.4	12.7	7.40e-05	0	42	0	1181745152	19	4877
2026-01-12 10:01:52.65	1.84	45.63	-30.0	-32.5	12.3	1.43e-04	0	42	0	1184890880	20	4788
2026-01-12 10:01:53.66	1.60	45.36	-30.7	-33.8	11.1	6.60e-04	0	42	0	1188036608	21	5154
2026-01-12 10:01:54.67	1.36	45.08	-30.9	-34.4	10.7	3.65e-03	0	42	0	1191182336	21	5394
2026-01-12 10:01:55.67	1.13	44.81	-31.0	-34.2	10.5	3.45e-03	0	42	0	1194328064	22	5190
2026-01-12 10:01:56.67	0.90	44.55	-31.0	-34.0	10.6	3.71e-03	0	42	0	1197473792	22	5121
2026-01-12 10:01:57.68	0.68	44.28	-31.1	-34.3	10.5	3.79e-03	0	42	0	1200619520	22	5197
2026-01-12 10:01:58.69	0.46	44.01	-30.5	-32.6	11.5	2.13e-03	0	42	0	1203765248	22	4617
2026-01-12 10:01:59.68	0.25	43.74	-30.0	-31.9	12.3	1.98e-04	0	42	0	1206910976	21	4475
2026-01-12 10:02:00.69	0.03	43.48	-30.1	-32.1	12.1	2.75e-04	0	42	0	1210056704	21	4554
2026-01-12 10:02:01.70	359.82	43.21	-30.3	-32.8	11.7	5.44e-04	0	42	0	1213202432	21	4768
2026-01-12 10:02:02.70	359.62	42.95	-30.7	-33.8	11.1	1.32e-03	0	42	0	1216348160	21	5143
2026-01-12 10:02:03.71	359.41	42.69	-30.8	-34.2	10.8	2.28e-03	0	42	0	1219493888	21	5291
2026-01-12 10:02:04.71	359.22	42.43	-31.1	-34.5	10.3	4.42e-03	0	42	0	1222639616	22	5310
2026-01-12 10:02:05.72	359.02	42.17	-31.7	-35.7	9.1	1.49e-02	0	42	0	1225785344	23	5716
2026-01-12 10:02:06.72	358.83	41.92	-31.5	-35.1	9.5	2.15e-02	0	42	0	1228931072	23	5439
2026-01-12 10:02:07.72	358.64	41.66	-30.9	-33.3	10.7	4.80e-03	0	42	0	1232076800	23	4764
2026-01-12 10:02:08.73	358.45	41.41	-30.3	-32.4	11.7	7.33e-04	0	42	0	1235222528	22	4544
2026-01-12 10:02:09.73	358.27	41.16	-29.7	-31.7	12.6	9.61e-05	0	42	0	1238368256	20	4522
2026-01-12 10:02:10.73	358.09	40.91	-29.3	-31.3	13.2	3.28e-05	0	42	0	1241513984	19	4495
2026-01-12 10:02:11.74	357.91	40.66	-28.9	-30.1	13.9	5.30e-06	0	42	0	1244659712	19	4166
2026-01-12 10:02:12.75	357.74	40.41	-28.4	-29.6	14.4	7.00e-07	0	42	0	1247805440	18	4127
2026-01-12 10:02:13.76	357.57	40.16	-28.2	-29.6	14.8	0.00e+00	0	42	0	1250951168	17	4223
2026-01-12 10:02:14.76	357.40	39.92	-28.0	-29.2	15.0	0.00e+00	0	42	0	1254096896	17	4107
2026-01-12 10:02:15.77	357.23	39.67	-28.1	-29.4	15.0	0.00e+00	0	42	0	1257242624	17	4164
2026-01-12 10:02:16.77	357.07	39.43	-28.1	-29.5	14.9	0.00e+00	0	42	0	1260388352	17	4190
2026-01-12 10:02:17.77	356.90	39.19	-28.6	-30.6	14.3	7.00e-07	0	42	0	1263534080	17	4513
2026-01-12 10:02:18.77	356.75	38.95	-28.9	-31.2	13.9	3.00e-06	0	42	0	1266679808	17	4690
2026-01-12 10:02:19.77	356.59	38.72	-29.2	-31.5	13.4	1.29e-05	0	42	0	1269825536	18	4685
2026-01-12 10:02:20.78	356.43	38.48	-29.4	-31.9	13.2	2.21e-05	0	42	0	1272971264	18	4810
2026-01-12 10:02:21.79	356.28	38.24	-29.4	-31.9	13.1	3.05e-05	0	42	0	1275068416	18	4824
2026-01-12 10:02:22.79	356.13	38.01	-29.4	-31.9	13.2	1.83e-05	0	42	0	1278214144	18	4812
2026-01-12 10:02:23.79	355.98	37.78	-29.3	-31.8	13.2	2.82e-05	0	42	0	1281359872	18	4781
2026-01-12 10:02:24.81	355.84	37.55	-29.3	-31.6	13.3	2.36e-05	0	42	0	1284505600	18	4721
2026-01-12 10:02:25.81	355.69	37.32	-29.2	-31.5	13.4	1.52e-05	0	42	0	1288699904	18	4668
2026-01-12 10:02:26.82	355.55	37.09	-29.4	-32.0	13.1	1.90e-05	0	43	0	1291845632	18	4855
2026-01-12 10:02:27.83	355.41	36.86	-29.0	-30.6	13.7	5.30e-06	0	42	0	1294991360	19	4291
2026-01-12 10:02:28.84	355.27	36.63	-28.7	-30.3	14.1	3.80e-06	0	42	0	1297088512	18	4332
2026-01-12 10:02:29.84	355.14	36.41	-28.7	-30.3	14.1	2.20e-06	0	42	0	1300234240	18	4312
2026-01-12 10:02:30.85	355.00	36.19	-28.8	-30.6	13.9	1.50e-06	0	42	0	1303379968	18	4427
2026-01-12 10:02:31.86	354.87	35.96	-28.7	-30.4	14.1	3.00e-06	0	42	0	1307574272	18	4343
2026-01-12 10:02:32.87	354.74	35.74	-28.6	-30.0	14.2	0.00e+00	0	42	0	1310720000	18	4245
2026-01-12 10:02:33.87	354.61	35.52	-28.6	-30.1	14.2	1.50e-06	0	42	0	1313865728	18	4278
2026-01-12 10:02:34.88	354.48	35.31	-28.4	-29.6	14.5	7.00e-07	0	42	0	1317011456	18	4126
2026-01-12 10:02:35.89	354.36	35.09	-28.0	-29.2	15.0	0.00e+00	0	42	0	1320157184	17	4130
2026-01-12 10:02:36.89	354.23	34.88	-27.9	-28.9	15.1	0.00e+00	0	42	0	1322254336	17	4052
2026-01-12 10:02:37.90	354.11	34.66	-27.7	-28.9	15.4	0.00e+00	0	42	0	1325400064	16	4150
2026-01-12 10:02:38.90	353.99	34.45	-27.7	-28.9	15.4	0.00e+00	0	42	0	1328545792	16	4150
2026-01-12 10:02:39.91	353.87	34.24	-27.9	-29.4	15.1	0.00e+00	0	42	0	1332740096	16	4274
2026-01-12 10:02:40.92	353.76	34.03	-27.9	-29.4	15.1	7.00e-07	0	42	0	1335885824	16	4289
2026-01-12 10:02:41.92	353.64	33.82	-28.1	-29.9	14.8	0.00e+00	0	42	0	1339031552	16	4420
2026-01-12 10:02:42.92	353.53	33.61	-28.3	-30.3	14.6	0.00e+00	0	42	0	1342177280	16	4548
2026-01-12 10:02:43.93	353.42	33.41	-28.2	-30.3	14.6	0.00e+00	0	42	0	1344274432	16	4540
2026-01-12 10:02:44.93	353.31	33.20	-28.3	-30.3	14.6	0.00e+00	0	42	0	1347420160	16	4554
2026-01-12 10:02:45.94	353.20	33.00	-28.2	-30.2	14.6	0.00e+00	0	42	0	1350565888	16	4535
2026-01-12 10:02:46.95	353.09	32.80	-28.3	-30.3	14.6	7.00e-07	0	42	0	1353711616	16	4556
2026-01-12 10:02:47.96	352.98	32.59	-28.4	-30.6	14.4	1.50e-06	0	43	0	1356857344	16	4647
2026-01-12 10:02:48.96	352.88	32.40	-28.1	-29.8	14.9	0.00e+00	0	42	0	1361051648	16	4397
2026-01-12 10:02:49.96	352.77	32.20	-27.9	-29.4	15.1	0.00e+00	0	42	0	1364197376	16	4292
2026-01-12 10:02:50.97	352.67	32.00	-28.1	-29.8	14.9	0.00e+00	0	42	0	1367343104	16	4394
2026-01-12 10:02:51.97	352.57	31.81	-28.0	-29.7	15.0	0.00e+00	0	42	0	1369440256	16	4376
2026-01-12 10:02:52.98	352.47	31.61	-28.1	-30.0	14.8	0.00e+00	0	43	0	1372585984	16	4464
2026-01-12 10:02:53.98	352.37	31.42	-28.3	-30.3	14.6	0.00e+00	0	42	0	1375731712	16	4545
2026-01-12 10:02:54.98	352.27	31.23	-27.8	-29.2	15.2	0.00e+00	0	43	0	1378877440	16	4235
2026-01-12 10:02:55.99	352.17	31.03	-27.6	-28.7	15.5	0.00e+00	0	42	0	1382023168	16	4094
2026-01-12 10:02:56.99	352.08	30.84	-27.5	-28.5	15.6	0.00e+00	0	42	0	1385168896	16	4061
2026-01-12 10:02:57.99	351.99	30.66	-27.6	-28.9	15.4	0.00e+00	0	42	0	1388314624	16	4144
2026-01-12 10:02:59.00	351.89	30.47	-27.8	-29.2	15.2	7.00e-07	0	42	0	1391460352	16	4251
2026-01-12 10:03:00.00	351.80	30.28	-27.8	-29.2	15.2	0.00e+00	0	42	0	1394606080	16	4244
2026-01-12 10:03:01.01	351.71	30.10	-28.0	-29.8	14.9	0.00e+00	0	42	0	1397751808	16	4407
2026-01-12 10:03:02.02	351.62	29.91	-28.0	-29.6	15.0	0.00e+00	0	42	0	1400897536	16	4353
2026-01-12 10:03:03.03	351.53	29.73	-27.8	-29.1	15.2	0.00e+00	0	42	0	1404043264	16	4220
2026-01-12 10:03:04.02	351.44	29.55	-27.7	-28.9	15.4	0.00e+00	0	43	0	1407188992	16	4151
2026-01-12 10:03:05.03	351.36	29.36	-27.6	-28.8	15.4	0.00e+00	0	43	0	1410334720	16	4132
2026-01-12 10:03:06.03	351.27	29.19	-27.5	-28.5	15.6	0.00e+00	0	42	0	1413480448	16	4040
2026-01-12 10:03:07.03	351.19	29.01	-27.4	-28.2	15.7	0.00e+00	0	42	0	1416626176	16	3973
2026-01-12 10:03:08.04	351.10	28.83	-27.3	-28.1	15.8	0.00e+00	0	42	0	1419771904	16	3936
2026-01-12 10:03:09.05	351.02	28.65	-27.3	-28.2	15.8	0.00e+00	0	43	0	1422917632	16	3960
2026-01-12 10:03:10.05	350.94	28.48	-26.8	-27.6	16.2	0.00e+00	0	43	0	1426063360	15	3923
2026-01-12 10:03:11.06	350.86	28.30	-26.8	-27.9	16.3	0.00e+00	0	42	0	1429209088	14	4109
2026-01-12 10:03:12.07	350.78	28.13	-26.7	-27.7	16.4	0.00e+00	0	42	0	1432354816	14	4054
2026-01-12 10:03:13.07	350.70	27.95	-26.6	-27.6	16.4	0.00e+00	0	42	0	1435500544	14	4034
2026-01-12 10:03:14.08	350.62	27.78	-26.7	-27.9	16.3	0.00e+00	0	43	0	1438646272	14	4093
2026-01-12 10:03:15.07	350.54	27.61	-27.0	-28.5	15.9	0.00e+00	0	42	0	1441792000	14	4253
2026-01-12 10:03:16.08	350.47	27.44	-26.6	-27.4	16.5	0.00e+00	0	42	0	1444937728	14	3986
2026-01-12 10:03:17.08	350.39	27.27	-26.4	-27.1	16.7	0.00e+00	0	43	0	1448083456	14	3893
2026-01-12 10:03:18.08	350.32	27.11	-26.4	-27.1	16.6	0.00e+00	0	42	0	1451229184	14	3915
2026-01-12 10:03:19.09	350.24	26.94	-26.4	-27.1	16.7	0.00e+00	0	42	0	1454374912	14	3894
2026-01-12 10:03:20.09	350.17	26.77	-26.4	-27.1	16.7	0.00e+00	0	42	0	1457520640	14	3900
2026-01-12 10:03:21.09	350.10	26.61	-26.4	-27.1	16.7	0.00e+00	0	42	0	1460666368	14	3904
2026-01-12 10:03:22.10	350.03	26.45	-26.6	-27.6	16.4	0.00e+00	0	42	0	1463812096	14	4031
2026-01-12 10:03:23.10	349.96	26.28	-27.0	-28.4	15.9	0.00e+00	0	42	0	1466957824	14	4250
2026-01-12 10:03:24.10	349.89	26.12	-26.8	-28.0	16.2	7.00e-07	0	42	0	1470103552	14	4126
2026-01-12 10:03:25.11	349.82	25.96	-26.6	-27.7	16.4	0.00e+00	0	43	0	1473249280	14	4058
2026-01-12 10:03:26.12	349.75	25.80	-26.6	-27.6	16.4	6.10e-06	0	43	0	1476395008	14	4026
2026-01-12 10:03:27.12	349.68	25.64	-26.6	-27.6	16.4	0.00e+00	0	42	0	1479540736	14	4046
2026-01-12 10:03:28.13	349.61	25.48	-26.7	-27.9	16.2	0.00e+00	0	43	0	1482686464	14	4115
2026-01-12 10:03:29.14	349.55	25.32	-26.8	-28.0	16.1	0.00e+00	0	42	0	1485832192	14	4138
2026-01-12 10:03:30.15	349.48	25.17	-26.8	-28.1	16.0	0.00e+00	0	42	0	1488977920	14	4180
2026-01-12 10:03:31.15	349.42	25.01	-26.9	-28.3	16.0	0.00e+00	0	42	0	1492123648	14	4219
2026-01-12 10:03:32.16	349.35	24.86	-27.0	-28.5	15.9	0.00e+00	0	42	0	1495269376	14	4271
2026-01-12 10:03:33.16	349.29	24.70	-27.1	-28.7	15.7	0.00e+00	0	43	0	1498415104	14	4323
2026-01-12 10:03:34.17	349.23	24.55	-27.1	-28.8	15.7	0.00e+00	0	43	0	1501560832	14	4357
2026-01-12 10:03:35.16	349.16	24.40	-27.2	-28.9	15.6	0.00e+00	0	43	0	1504706560	14	4378
2026-01-12 10:03:36.17	349.10	24.25	-27.2	-29.0	15.6	0.00e+00	0	42	0	1507852288	14	4423
2026-01-12 10:03:37.18	349.04	24.10	-27.3	-29.1	15.5	0.00e+00	0	43	0	1510998016	14	4436
2026-01-12 10:03:38.18	348.98	23.95	-27.4	-29.3	15.4	0.00e+00	0	42	0	1514143744	14	4495
2026-01-12 10:03:39.18	348.92	23.80	-27.4	-29.4	15.4	2.20e-06	0	42	0	1517289472	14	4538
2026-01-12 10:03:40.18	348.86	23.65	-27.6	-29.3	15.1	0.00e+00	0	42	0	1520435200	15	4393
2026-01-12 10:03:41.18	348.80	23.50	-27.8	-29.8	14.8	0.00e+00	0	42	0	1523580928	15	4530
2026-01-12 10:03:42.19	348.75	23.36	-27.7	-29.5	15.0	0.00e+00	0	42	0	1526726656	15	4446
2026-01-12 10:03:43.19	348.69	23.21	-28.1	-30.0	14.6	0.00e+00	0	42	0	1529872384	16	4488
2026-01-12 10:03:44.20	348.63	23.07	-28.0	-29.7	14.8	0.00e+00	0	43	0	1533018112	16	4401
2026-01-12 10:03:45.21	348.57	22.92	-27.9	-29.6	14.8	0.00e+00	0	42	0	1536163840	16	4365
2026-01-12 10:03:46.22	348.52	22.78	-27.9	-29.4	14.9	0.00e+00	0	42	0	1539309568	16	4312
2026-01-12 10:03:47.22	348.46	22.64	-28.0	-29.6	14.8	7.00e-07	0	43	0	1542455296	16	4372
2026-01-12 10:03:48.23	348.41	22.49	-27.7	-29.1	15.1	0.00e+00	0	42	0	1545601024	16	4234
2026-01-12 10:03:49.24	348.35	22.35	-27.5	-28.6	15.4	0.00e+00	0	42	0	1548746752	16	4083
2026-01-12 10:03:50.24	348.30	22.21	-27.4	-28.3	15.5	0.00e+00	0	42	0	1551892480	16	4002
2026-01-12 10:03:51.25	348.25	22.07	-27.4	-28.3	15.5	0.00e+00	0	42	0	1555038208	16	4010
2026-01-12 10:03:52.26	348.19	21.93	-27.4	-28.4	15.5	0.00e+00	0	42	0	1558183936	16	4036
2026-01-12 10:03:53.26	348.14	21.79	-27.1	-28.2	15.7	0.00e+00	0	42	0	1561329664	15	4089
2026-01-12 10:03:54.27	348.09	21.66	-27.0	-28.0	15.8	0.00e+00	0	42	0	1564475392	15	4048
2026-01-12 10:03:55.28	348.04	21.52	-27.1	-28.2	15.6	0.00e+00	0	42	0	1567621120	15	4095
2026-01-12 10:03:56.28	347.99	21.38	-27.1	-28.2	15.7	0.00e+00	0	43	0	1570766848	15	4084
2026-01-12 10:03:57.29	347.94	21.25	-27.0	-28.1	15.7	0.00e+00	0	43	0	1573912576	15	4071
2026-01-12 10:03:58.30	347.89	21.11	-27.1	-28.1	15.7	0.00e+00	0	42	0	1577058304	15	4078
2026-01-12 10:03:59.30	347.84	20.98	-27.2	-28.5	15.5	0.00e+00	0	42	0	1580204032	15	4165
2026-01-12 10:04:00.31	347.79	20.84	-27.0	-28.0	15.7	0.00e+00	0	43	0	1583349760	15	4041
2026-01-12 10:04:01.32	347.74	20.71	-26.9	-27.9	15.8	0.00e+00	0	42	0	1586495488	15	4016
2026-01-12 10:04:02.32	347.69	20.58	-27.0	-28.0	15.7	0.00e+00	0	43	0	1589641216	15	4043
2026-01-12 10:04:03.33	347.65	20.45	-27.1	-28.2	15.6	0.00e+00	0	42	0	1592786944	15	4094
2026-01-12 10:04:04.33	347.60	20.32	-26.9	-27.9	15.8	0.00e+00	0	42	0	1595932672	15	4011
2026-01-12 10:04:05.34	347.55	20.19	-27.0	-28.0	15.7	0.00e+00	0	42	0	1599078400	15	4045
2026-01-12 10:04:06.34	347.51	20.06	-26.8	-28.0	15.9	0.00e+00	0	42	0	1602224128	14	4154
2026-01-12 10:04:07.34	347.46	19.93	-26.7	-27.9	16.0	0.00e+00	0	42	0	1605369856	14	4112
2026-01-12 10:04:08.35	347.41	19.80	-26.7	-27.8	16.0	0.00e+00	0	42	0	1608515584	14	4107
2026-01-12 10:04:09.35	347.37	19.68	-26.7	-27.8	16.0	0.00e+00	0	42	0	1611661312	14	4098
2026-01-12 10:04:10.35	347.33	19.55	-26.6	-27.7	16.1	0.00e+00	0	42	0	1614807040	14	4074
2026-01-12 10:04:11.36	347.28	19.42	-26.7	-27.9	16.0	0.00e+00	0	42	0	1617952768	14	4129
2026-01-12 10:04:12.36	347.24	19.30	-26.7	-27.9	16.0	0.00e+00	0	43	0	1621098496	14	4124
2026-01-12 10:04:13.37	347.19	19.17	-26.7	-27.9	16.0	7.00e-07	0	42	0	1624244224	14	4122
2026-01-12 10:04:14.38	347.15	19.05	-26.7	-27.8	16.0	0.00e+00	0	42	0	1627389952	14	4095
2026-01-12 10:04:15.38	347.11	18.93	-26.7	-27.8	16.0	0.00e+00	0	42	0	1630535680	14	4107
2026-01-12 10:04:16.38	347.07	18.80	-26.6	-27.7	16.1	0.00e+00	0	42	0	1633681408	14	4069
2026-01-12 10:04:17.39	347.02	18.68	-26.7	-27.9	16.0	0.00e+00	0	42	0	1636827136	14	4116
2026-01-12 10:04:18.40	346.98	18.56	-26.8	-28.1	15.8	0.00e+00	0	42	0	1639972864	14	4184
2026-01-12 10:04:19.41	346.94	18.44	-26.8	-28.1	15.8	0.00e+00	0	42	0	1643118592	14	4165
2026-01-12 10:04:20.41	346.90	18.32	-26.9	-28.2	15.8	0.00e+00	0	42	0	1646264320	14	4201
2026-01-12 10:04:21.42	346.86	18.20	-26.8	-28.0	15.9	0.00e+00	0	42	0	1649410048	14	4148
2026-01-12 10:04:22.42	346.82	18.08	-26.7	-28.0	15.9	0.00e+00	0	42	0	1652555776	14	4139
2026-01-12 10:04:23.43	346.78	17.96	-26.9	-28.2	15.7	0.00e+00	0	42	0	1655701504	14	4211
2026-01-12 10:04:24.43	346.74	17.84	-26.9	-28.3	15.7	0.00e+00	0	42	0	1658847232	14	4220
2026-01-12 10:04:25.44	346.70	17.72	-26.9	-28.3	15.7	0.00e+00	0	42	0	1661992960	14	4221
2026-01-12 10:04:26.45	346.66	17.60	-26.9	-28.3	15.7	0.00e+00	0	43	0	1665138688	14	4244
2026-01-12 10:04:27.45	346.62	17.49	-27.0	-28.5	15.6	0.00e+00	0	42	0	1668284416	14	4280
2026-01-12 10:04:28.44	346.59	17.37	-27.0	-28.6	15.5	7.00e-07	0	42	0	1671430144	14	4320
2026-01-12 10:04:29.45	346.55	17.26	-27.1	-28.8	15.4	0.00e+00	0	42	0	1674575872	14	4367
2026-01-12 10:04:30.45	346.51	17.14	-27.1	-28.8	15.4	0.00e+00	0	42	0	1677721600	14	4372
2026-01-12 10:04:31.46	346.47	17.03	-27.2	-28.9	15.4	0.00e+00	0	42	0	1680867328	14	4389
2026-01-12 10:04:32.46	346.44	16.91	-27.3	-29.1	15.2	0.00e+00	0	42	0	1684013056	14	4456
2026-01-12 10:04:33.47	346.40	16.80	-27.2	-29.0	15.3	0.00e+00	0	42	0	1687158784	14	4425
2026-01-12 10:04:34.48	346.37	16.68	-27.2	-29.0	15.3	0.00e+00	0	42	0	1690304512	14	4427
2026-01-12 10:04:35.49	346.33	16.57	-27.2	-29.0	15.2	0.00e+00	0	43	0	1693450240	14	4441
2026-01-12 10:04:36.49	346.29	16.46	-27.2	-29.1	15.2	0.00e+00	0	42	0	1696595968	14	4449
2026-01-12 10:04:37.49	346.26	16.35	-27.4	-29.4	15.0	0.00e+00	0	42	0	1699741696	14	4547
2026-01-12 10:04:38.49	346.22	16.24	-27.3	-29.3	15.1	0.00e+00	0	42	0	1702887424	14	4514
2026-01-12 10:04:39.50	346.19	16.13	-27.4	-29.4	15.0	0.00e+00	0	42	0	1706033152	14	4546
2026-01-12 10:04:40.51	346.15	16.02	-27.4	-29.5	14.9	0.00e+00	0	43	0	1709178880	14	4579
2026-01-12 10:04:41.52	346.12	15.91	-27.5	-29.3	14.8	0.00e+00	0	42	0	1712324608	15	4397
2026-01-12 10:04:42.52	346.09	15.80	-27.6	-29.5	14.7	0.00e+00	0	42	0	1715470336	15	4460
2026-01-12 10:04:43.53	346.05	15.69	-27.6	-29.3	14.8	2.20e-06	0	42	0	1718616064	15	4417
2026-01-12 10:04:44.53	346.02	15.58	-27.5	-29.3	14.7	7.00e-07	0	42	0	1721761792	15	4415
2026-01-12 10:04:45.54	345.99	15.47	-27.6	-29.4	14.7	1.50e-06	0	42	0	1724907520	15	4447
2026-01-12 10:04:46.55	345.95	15.37	-27.6	-29.5	14.6	7.00e-07	0	42	0	1728053248	15	4461
2026-01-12 10:04:47.54	345.92	15.26	-27.8	-29.9	14.4	0.00e+00	0	42	0	1731198976	15	4573
2026-01-12 10:04:48.55	345.89	15.15	-27.8	-30.0	14.4	7.00e-07	0	42	0	1734344704	15	4606
2026-01-12 10:04:49.56	345.86	15.05	-27.6	-29.6	14.6	1.50e-06	0	42	0	1737490432	15	4485
2026-01-12 10:04:50.57	345.82	14.94	-27.6	-29.5	14.5	7.00e-07	0	42	0	1740636160	15	4485
2026-01-12 10:04:51.57	345.79	14.84	-27.7	-29.6	14.5	0.00e+00	0	42	0	1743781888	15	4491
2026-01-12 10:04:52.58	345.76	14.73	-27.7	-29.7	14.5	0.00e+00	0	42	0	1746927616	15	4521
2026-01-12 10:04:53.59	345.73	14.63	-27.7	-29.6	14.5	0.00e+00	0	42	0	1750073344	15	4504
2026-01-12 10:04:54.59	345.70	14.52	-27.8	-29.9	14.3	0.00e+00	0	42	0	1753219072	15	4596
2026-01-12 10:04:55.60	345.67	14.42	-28.1	-30.0	14.1	2.20e-06	0	42	0	1756364800	16	4514
2026-01-12 10:04:56.61	345.64	14.32	-28.1	-30.1	14.1	1.50e-06	0	42	0	1759510528	16	4517
2026-01-12 10:04:57.61	345.61	14.21	-28.1	-30.1	14.1	3.00e-06	0	42	0	1762656256	16	4514
2026-01-12 10:04:58.61	345.58	14.11	-28.0	-29.9	14.2	7.00e-07	0	42	0	1765801984	16	4475
2026-01-12 10:04:59.61	345.55	14.01	-28.1	-30.1	14.1	2.20e-06	0	42	0	1768947712	16	4544
2026-01-12 10:05:00.62	345.52	13.91	-28.2	-30.3	14.0	3.80e-06	0	42	0	1772093440	16	4589
2026-01-12 10:05:01.62	345.49	13.81	-28.2	-30.3	13.9	3.00e-06	0	42	0	1775239168	16	4598
2026-01-12 10:05:02.63	345.46	13.71	-28.2	-30.3	14.0	5.30e-06	0	42	0	1778384896	16	4580
2026-01-12 10:05:03.64	345.43	13.61	-28.2	-30.4	13.9	3.00e-06	0	42	0	1781530624	16	4626
2026-01-12 10:05:04.64	345.40	13.51	-28.3	-30.5	13.8	2.20e-06	0	42	0	1784676352	16	4661
2026-01-12 10:05:05.65	345.38	13.41	-28.2	-30.4	13.9	2.20e-06	0	42	0	1787822080	16	4628
2026-01-12 10:05:06.65	345.35	13.31	-28.2	-30.3	14.0	2.20e-06	0	42	0	1790967808	16	4581
2026-01-12 10:05:07.66	345.32	13.21	-28.2	-30.3	13.9	3.00e-06	0	42	0	1794113536	16	4606
2026-01-12 10:05:08.66	345.29	13.12	-28.2	-30.3	13.9	2.20e-06	0	42	0	1797259264	16	4590
2026-01-12 10:05:09.67	345.27	13.02	-28.1	-30.1	14.0	6.10e-06	0	42	0	1800404992	16	4551
2026-01-12 10:05:10.68	345.24	12.92	-28.1	-30.1	14.0	7.00e-07	0	42	0	1803550720	16	4535
2026-01-12 10:05:11.68	345.21	12.82	-28.1	-30.2	14.0	4.50e-06	0	42	0	1806696448	16	4566
2026-01-12 10:05:12.68	345.18	12.73	-28.1	-30.1	14.0	5.30e-06	0	42	0	1809842176	16	4553
2026-01-12 10:05:13.69	345.16	12.63	-28.1	-30.1	14.0	3.80e-06	0	42	0	1812987904	16	4542
2026-01-12 10:05:14.69	345.13	12.54	-28.1	-30.0	14.0	3.80e-06	0	42	0	1816133632	16	4515
2026-01-12 10:05:15.70	345.11	12.44	-28.2	-30.4	13.8	0.00e+00	0	42	0	1819279360	16	4618
2026-01-12 10:05:16.70	345.08	12.35	-28.1	-30.2	13.9	7.60e-06	0	42	0	1822425088	16	4584
2026-01-12 10:05:17.71	345.05	12.25	-28.0	-30.0	14.0	2.20e-06	0	42	0	1825570816	16	4494
2026-01-12 10:05:18.71	345.03	12.16	-28.0	-29.8	14.1	2.20e-06	0	42	0	1828716544	16	4445
2026-01-12 10:05:19.72	345.00	12.06	-27.9	-29.8	14.1	7.00e-07	0	42	0	1831862272	16	4436
2026-01-12 10:05:20.72	344.98	11.97	-27.9	-29.7	14.1	1.50e-06	0	42	0	1835008000	16	4429
2026-01-12 10:05:21.72	344.95	11.88	-27.9	-29.8	14.1	2.20e-06	0	42	0	1838153728	16	4442
2026-01-12 10:05:22.73	344.93	11.78	-28.1	-30.1	14.0	3.00e-06	0	42	0	1841299456	16	4527
2026-01-12 10:05:23.74	344.90	11.69	-28.0	-29.9	14.0	3.80e-06	0	42	0	1844445184	16	4478
2026-01-12 10:05:24.74	344.88	11.60	-28.0	-29.8	14.1	2.20e-06	0	42	0	1847590912	16	4461
2026-01-12 10:05:25.75	344.85	11.51	-28.0	-30.0	14.0	5.30e-06	0	42	0	1850736640	16	4522
2026-01-12 10:05:26.76	344.83	11.42	-28.0	-29.8	14.1	1.50e-06	0	42	0	1853882368	16	4458
2026-01-12 10:05:27.77	344.81	11.32	-28.1	-30.2	13.9	5.30e-06	0	42	0	1857028096	16	4568
2026-01-12 10:05:28.77	344.78	11.23	-28.0	-30.0	14.0	3.80e-06	0	42	0	1860173824	16	4496
2026-01-12 10:05:29.78	344.76	11.14	-28.0	-29.9	14.0	3.00e-06	0	42	0	1863319552	16	4489
2026-01-12 10:05:30.78	344.73	11.05	-28.1	-30.1	13.9	7.00e-07	0	42	0	1866465280	16	4540
2026-01-12 10:05:31.79	344.71	10.96	-27.9	-29.7	14.1	3.80e-06	0	42	0	1869611008	16	4433
2026-01-12 10:05:32.80	344.69	10.87	-28.1	-30.1	13.9	7.00e-07	0	42	0	1872756736	16	4534
2026-01-12 10:05:33.80	344.67	10.78	-28.0	-29.8	14.0	3.80e-06	0	42	0	1875902464	16	4461
2026-01-12 10:05:34.81	344.64	10.69	-28.0	-30.0	13.9	3.80e-06	0	42	0	1879048192	16	4516
2026-01-12 10:05:35.82	344.62	10.61	-28.0	-29.9	13.9	3.00e-06	0	42	0	1882193920	16	4501
2026-01-12 10:05:36.83	344.60	10.52	-28.1	-30.1	13.8	6.10e-06	0	42	0	1885339648	16	4555
2026-01-12 10:05:37.83	344.57	10.43	-28.2	-30.4	13.7	4.50e-06	0	42	0	1888485376	16	4633
2026-01-12 10:05:38.84	344.55	10.34	-28.2	-30.4	13.7	6.80e-06	0	42	0	1891631104	16	4636
2026-01-12 10:05:39.85	344.53	10.25	-28.3	-30.7	13.5	1.22e-05	0	42	0	1894776832	16	4749
2026-01-12 10:05:40.85	344.51	10.17	-28.3	-30.7	13.5	1.14e-05	0	42	0	1897922560	16	4723
2026-01-12 10:05:41.86	344.49	10.08	-28.3	-30.5	13.6	1.06e-05	0	42	0	1901068288	16	4681
2026-01-12 10:05:42.86	344.47	9.99	-28.2	-30.4	13.6	6.80e-06	0	42	0	1904214016	16	4648
2026-01-12 10:05:43.87	344.44	9.91	-28.3	-30.8	13.4	2.36e-05	0	42	0	1907359744	16	4764
2026-01-12 10:05:44.87	344.42	9.82	-28.2	-30.4	13.6	1.29e-05	0	42	0	1910505472	16	4651
2026-01-12 10:05:45.87	344.40	9.74	-28.2	-30.5	13.5	1.44e-05	0	42	0	1913651200	16	4682
2026-01-12 10:05:46.87	344.38	9.65	-28.3	-30.7	13.4	1.06e-05	0	43	0	1916796928	16	4737
2026-01-12 10:05:47.88	344.36	9.57	-28.2	-30.4	13.6	8.30e-06	0	42	0	1919942656	16	4649
2026-01-12 10:05:48.88	344.34	9.48	-28.2	-30.4	13.5	1.22e-05	0	42	0	1923088384	16	4655
2026-01-12 10:05:49.89	344.32	9.40	-28.3	-30.7	13.3	1.67e-05	0	42	0	1926234112	16	4757
2026-01-12 10:05:50.89	344.30	9.31	-28.3	-30.8	13.3	1.37e-05	0	42	0	1929379840	16	4777
2026-01-12 10:05:51.89	344.28	9.23	-28.3	-30.6	13.4	1.52e-05	0	42	0	1932525568	16	4720
2026-01-12 10:05:52.89	344.26	9.15	-28.3	-30.8	13.3	1.75e-05	0	42	0	1935671296	16	4772
2026-01-12 10:05:53.90	344.24	9.06	-28.6	-30.9	12.9	4.50e-05	0	42	0	1938817024	17	4693
2026-01-12 10:05:54.91	344.22	8.98	-28.6	-30.9	12.9	5.56e-05	0	42	0	1941962752	17	4707
2026-01-12 10:05:55.92	344.20	8.90	-28.6	-31.0	12.8	4.27e-05	0	42	0	1945108480	17	4753
2026-01-12 10:05:56.92	344.18	8.82	-28.8	-31.5	12.5	1.32e-04	0	42	0	1948254208	17	4892
2026-01-12 10:05:57.93	344.16	8.73	-28.7	-31.2	12.7	6.86e-05	0	42	0	1951399936	17	4803
2026-01-12 10:05:58.94	344.14	8.65	-28.6	-30.9	12.8	7.62e-05	0	42	0	1954545664	17	4721
2026-01-12 10:05:59.94	344.12	8.57	-28.7	-31.3	12.6	6.63e-05	0	42	0	1957691392	17	4834
2026-01-12 10:06:00.95	344.10	8.49	-28.7	-31.2	12.7	9.76e-05	0	42	0	1960837120	17	4807
2026-01-12 10:06:01.96	344.08	8.41	-28.6	-31.1	12.7	8.23e-05	0	42	0	1963982848	17	4775
2026-01-12 10:06:02.96	344.07	8.33	-28.6	-31.1	12.7	6.40e-05	0	42	0	1967128576	17	4767
2026-01-12 10:06:03.96	344.05	8.25	-28.6	-31.0	12.8	4.65e-05	0	42	0	1970274304	17	4735
2026-01-12 10:06:04.97	344.03	8.16	-28.9	-31.7	12.3	1.33e-04	0	42	0	1973420032	17	4968
2026-01-12 10:06:05.98	344.01	8.08	-28.8	-31.5	12.4	1.72e-04	0	42	0	1976565760	17	4901
2026-01-12 10:06:06.98	343.99	8.00	-28.6	-31.1	12.7	6.94e-05	0	42	0	1979711488	17	4770
2026-01-12 10:06:07.99	343.97	7.92	-28.6	-30.9	12.7	6.33e-05	0	42	0	1982857216	17	4707
2026-01-12 10:06:09.00	343.96	7.85	-28.9	-31.7	12.3	1.07e-04	0	42	0	1986002944	17	4974
2026-01-12 10:06:10.00	343.94	7.77	-28.7	-31.3	12.5	8.62e-05	0	42	0	1989148672	17	4840
2026-01-12 10:06:11.01	343.92	7.69	-28.5	-30.7	12.9	6.10e-05	0	42	0	1992294400	17	4649
2026-01-12 10:06:12.02	343.90	7.61	-28.7	-31.3	12.5	1.02e-04	0	42	0	1995440128	17	4831
2026-01-12 10:06:13.02	343.88	7.53	-28.8	-31.5	12.3	1.14e-04	0	42	0	1998585856	17	4928
2026-01-12 10:06:14.03	343.87	7.45	-28.7	-31.4	12.4	1.04e-04	0	42	0	2001731584	17	4880
2026-01-12 10:06:15.03	343.85	7.37	-28.7	-31.3	12.5	1.18e-04	0	42	0	2004877312	17	4868
2026-01-12 10:06:16.03	343.83	7.30	-29.0	-31.6	12.0	3.50e-04	0	42	0	2008023040	18	4825
2026-01-12 10:06:17.04	343.82	7.22	-29.0	-31.5	12.0	3.99e-04	0	42	0	2011168768	18	4824
2026-01-12 10:06:18.04	343.80	7.14	-29.1	-31.9	11.8	4.52e-04	0	42	0	2014314496	18	4947
2026-01-12 10:06:19.05	343.78	7.06	-32.9	-44.1	3.8	1.48e+00	0	42	104	2015363072	25	13084
2026-01-12 10:06:20.05	343.76	6.99	-33.3	-45.3	3.8	1.49e+00	0	42	104	2015363072	26	14311
2026-01-12 10:06:21.05	343.75	6.91	-33.5	-45.3	3.8	1.49e+00	0	42	104	2015363072	27	14086
