passes_logs/2026/01/12/R2M6_AANII_01/R2M6_AANII_01__20260112_102354_SUOMI_NPP_rec.log

#Pass ID: 20260112_102354_SUOMI NPP
#Satellite: SUOMI NPP
#Configuration: NPP
#almurnet v.1.7.20240730
#Start time: 2026-01-12 10:23:56

#Version: 2.2.20231116
#Station: R2M6_AANII_01
#Location: 30.233357 lon 59.946436 lat
#TLE: 1 37849U 11061A   26011.29776829  .00000112  00000+0  74065-4 0  9999
#TLE: 2 37849  98.7807 313.3784 0002522  70.0451 290.0996 14.19524507736187

#Time	Az	El	Level	Level2	SNR	BER	BlckErr	Temp	State	Recorded	gain1	gain2
2026-01-12 10:23:56.55	160.33	7.16	-31.5	-36.7	4.6	1.37e+00	0	39	0	0	24	6591
2026-01-12 10:23:57.56	160.33	7.23	-31.5	-36.6	4.7	1.37e+00	0	39	104	0	24	6501
2026-01-12 10:23:58.56	160.34	7.31	-31.4	-36.0	6.9	1.94e-01	0	39	0	0	24	6116
2026-01-12 10:23:59.57	160.34	7.39	-31.3	-35.7	7.2	1.55e-01	0	40	0	1048576	24	5970
2026-01-12 10:24:00.58	160.35	7.47	-31.3	-35.8	7.1	1.51e-01	0	40	0	3145728	24	6041
2026-01-12 10:24:01.58	160.35	7.55	-31.3	-36.0	6.9	1.94e-01	0	40	0	5242880	24	6133
2026-01-12 10:24:02.59	160.36	7.63	-31.2	-35.9	7.3	1.36e-01	0	40	0	7340032	23	6181
2026-01-12 10:24:03.59	160.36	7.71	-31.3	-36.3	7.0	1.45e-01	0	40	0	9437184	23	6415
2026-01-12 10:24:04.59	160.37	7.79	-31.3	-36.2	7.1	1.66e-01	0	40	0	10485760	23	6353
2026-01-12 10:24:05.60	160.37	7.87	-31.2	-35.8	7.5	1.21e-01	0	40	0	12582912	23	6129
2026-01-12 10:24:06.60	160.38	7.95	-31.1	-35.3	7.8	8.76e-02	0	40	0	14680064	23	5847
2026-01-12 10:24:07.61	160.38	8.03	-31.0	-34.9	8.2	6.75e-02	0	40	0	16777216	23	5609
2026-01-12 10:24:08.62	160.39	8.11	-30.9	-34.4	8.6	3.75e-02	0	40	0	18874368	23	5398
2026-01-12 10:24:09.63	160.40	8.20	-30.8	-34.1	8.8	3.26e-02	0	40	0	19922944	23	5258
2026-01-12 10:24:10.63	160.40	8.28	-30.8	-33.9	8.9	2.91e-02	0	40	0	22020096	23	5176
2026-01-12 10:24:11.64	160.41	8.36	-30.8	-34.2	8.8	2.90e-02	0	40	0	24117248	23	5276
2026-01-12 10:24:12.64	160.41	8.44	-30.8	-34.0	9.0	2.94e-02	0	40	0	26214400	23	5180
2026-01-12 10:24:13.65	160.42	8.52	-30.8	-34.5	9.0	2.24e-02	0	40	0	28311552	22	5497
2026-01-12 10:24:14.65	160.42	8.61	-30.9	-34.6	8.9	2.92e-02	0	40	0	29360128	22	5570
2026-01-12 10:24:15.65	160.43	8.69	-30.8	-34.4	9.0	3.44e-02	0	40	0	31457280	22	5452
2026-01-12 10:24:16.65	160.43	8.77	-30.8	-34.5	9.0	2.33e-02	0	40	0	33554432	22	5477
2026-01-12 10:24:17.65	160.44	8.86	-30.8	-34.4	9.1	2.84e-02	0	40	0	35651584	22	5452
2026-01-12 10:24:18.66	160.44	8.94	-30.6	-33.6	9.7	1.56e-02	0	40	0	37748736	22	5071
2026-01-12 10:24:19.66	160.45	9.02	-30.7	-33.9	9.5	1.24e-02	0	40	0	38797312	22	5219
2026-01-12 10:24:20.67	160.45	9.11	-30.7	-33.8	9.6	1.20e-02	0	40	0	40894464	22	5163
2026-01-12 10:24:21.67	160.46	9.19	-30.7	-33.9	9.6	1.16e-02	0	40	0	42991616	22	5219
2026-01-12 10:24:22.68	160.47	9.28	-30.9	-34.6	9.0	2.09e-02	0	41	0	45088768	22	5525
2026-01-12 10:24:23.68	160.47	9.36	-30.8	-34.1	9.3	2.21e-02	0	40	0	46137344	22	5302
2026-01-12 10:24:24.69	160.48	9.45	-30.8	-34.1	9.4	1.56e-02	0	40	0	48234496	22	5285
2026-01-12 10:24:25.69	160.48	9.54	-30.8	-34.2	9.3	1.59e-02	0	40	0	50331648	22	5328
2026-01-12 10:24:26.70	160.49	9.62	-30.7	-34.0	9.5	1.69e-02	0	41	0	52428800	22	5260
2026-01-12 10:24:27.71	160.49	9.71	-30.8	-34.2	9.3	1.52e-02	0	41	0	54525952	22	5336
2026-01-12 10:24:28.72	160.50	9.80	-30.8	-34.3	9.3	1.57e-02	0	41	0	56623104	22	5360
2026-01-12 10:24:29.72	160.50	9.88	-30.8	-34.4	9.2	1.52e-02	0	40	0	57671680	22	5415
2026-01-12 10:24:30.73	160.51	9.97	-30.8	-34.1	9.4	1.87e-02	0	40	0	59768832	22	5295
2026-01-12 10:24:31.73	160.52	10.06	-30.5	-33.4	10.0	1.22e-02	0	41	0	61865984	22	4976
2026-01-12 10:24:32.74	160.52	10.15	-30.5	-33.3	10.0	7.79e-03	0	41	0	63963136	22	4958
2026-01-12 10:24:33.74	160.53	10.24	-30.5	-33.1	10.2	6.60e-03	0	41	0	65011712	22	4877
2026-01-12 10:24:34.75	160.53	10.33	-30.5	-33.1	10.3	6.78e-03	0	41	0	67108864	22	4856
2026-01-12 10:24:35.76	160.54	10.42	-30.6	-33.5	10.0	7.85e-03	0	41	0	69206016	22	5036
2026-01-12 10:24:36.76	160.54	10.50	-30.5	-33.2	10.1	8.35e-03	0	41	0	71303168	22	4918
2026-01-12 10:24:37.77	160.55	10.59	-30.5	-33.2	10.2	4.75e-03	0	41	0	73400320	22	4897
2026-01-12 10:24:38.77	160.56	10.68	-30.5	-33.1	10.2	6.12e-03	0	41	0	74448896	22	4846
2026-01-12 10:24:39.77	160.56	10.77	-30.3	-32.5	10.7	3.78e-03	0	40	0	76546048	22	4633
2026-01-12 10:24:40.78	160.57	10.87	-30.3	-33.0	10.6	2.85e-03	0	41	0	78643200	21	4918
2026-01-12 10:24:41.78	160.57	10.96	-30.3	-33.0	10.6	2.92e-03	0	41	0	80740352	21	4911
2026-01-12 10:24:42.78	160.58	11.05	-30.3	-32.8	10.9	2.28e-03	0	41	0	82837504	21	4797
2026-01-12 10:24:43.79	160.58	11.14	-30.4	-33.2	10.6	2.98e-03	0	41	0	83886080	21	4954
2026-01-12 10:24:44.79	160.59	11.23	-30.4	-33.1	10.7	2.92e-03	0	41	0	85983232	21	4903
2026-01-12 10:24:45.80	160.60	11.32	-30.5	-33.6	10.4	2.91e-03	0	41	0	88080384	21	5090
2026-01-12 10:24:46.80	160.60	11.42	-30.6	-33.5	10.4	6.23e-03	0	41	0	90177536	21	5059
2026-01-12 10:24:47.81	160.61	11.51	-30.6	-33.5	10.5	4.86e-03	0	41	0	92274688	21	5023
2026-01-12 10:24:48.81	160.61	11.60	-30.8	-34.3	9.9	6.16e-03	0	41	0	93323264	21	5376
2026-01-12 10:24:49.82	160.62	11.70	-30.8	-34.2	9.9	9.46e-03	0	41	0	95420416	21	5330
2026-01-12 10:24:50.82	160.63	11.79	-30.8	-34.2	9.9	7.74e-03	0	41	0	97517568	21	5354
2026-01-12 10:24:51.82	160.63	11.89	-31.0	-34.6	9.4	1.20e-02	0	41	0	99614720	22	5405
2026-01-12 10:24:52.83	160.64	11.98	-30.9	-34.0	9.8	1.26e-02	0	41	0	101711872	22	5135
2026-01-12 10:24:53.83	160.64	12.08	-30.8	-33.9	9.8	7.12e-03	0	41	0	102760448	22	5097
2026-01-12 10:24:54.84	160.65	12.17	-30.8	-33.9	9.9	8.14e-03	0	41	0	104857600	22	5104
2026-01-12 10:24:55.84	160.66	12.27	-30.9	-34.1	9.8	9.48e-03	0	41	0	106954752	22	5182
2026-01-12 10:24:56.84	160.66	12.36	-30.9	-34.0	9.8	1.05e-02	0	41	0	109051904	22	5173
2026-01-12 10:24:57.85	160.67	12.46	-30.9	-33.9	9.8	8.55e-03	0	41	0	111149056	22	5126
2026-01-12 10:24:58.85	160.67	12.56	-31.0	-34.4	9.5	1.06e-02	0	41	0	112197632	22	5325
2026-01-12 10:24:59.86	160.68	12.66	-31.0	-34.3	9.6	1.45e-02	0	41	0	114294784	22	5296
2026-01-12 10:25:00.87	160.69	12.75	-31.0	-34.3	9.7	1.37e-02	0	41	0	116391936	22	5263
2026-01-12 10:25:01.87	160.69	12.85	-31.2	-35.0	9.1	1.48e-02	0	41	0	118489088	22	5594
2026-01-12 10:25:02.88	160.70	12.95	-31.2	-34.9	9.2	2.25e-02	0	41	0	120586240	22	5556
2026-01-12 10:25:03.88	160.71	13.05	-31.1	-34.7	9.3	1.82e-02	0	41	0	121634816	22	5451
2026-01-12 10:25:04.89	160.71	13.15	-31.3	-35.6	8.6	2.54e-02	0	41	0	123731968	22	5887
2026-01-12 10:25:05.89	160.72	13.25	-31.3	-35.4	8.8	3.73e-02	0	41	0	125829120	22	5762
2026-01-12 10:25:06.90	160.72	13.35	-31.2	-35.0	9.1	2.10e-02	0	41	0	127926272	22	5555
2026-01-12 10:25:07.90	160.73	13.45	-31.1	-34.7	9.4	1.76e-02	0	41	0	130023424	22	5460
2026-01-12 10:25:08.90	160.74	13.55	-31.1	-34.6	9.5	1.68e-02	0	41	0	131072000	22	5391
2026-01-12 10:25:09.90	160.74	13.65	-31.1	-34.8	9.3	1.72e-02	0	41	0	133169152	22	5488
2026-01-12 10:25:10.91	160.75	13.76	-31.2	-34.9	9.2	1.79e-02	0	41	0	135266304	22	5528
2026-01-12 10:25:11.92	160.76	13.86	-31.2	-35.1	9.1	1.89e-02	0	41	0	137363456	22	5616
2026-01-12 10:25:12.93	160.76	13.96	-31.2	-35.0	9.1	2.37e-02	0	41	0	139460608	22	5603
2026-01-12 10:25:13.93	160.77	14.07	-31.2	-35.0	9.1	2.13e-02	0	41	0	140509184	22	5608
2026-01-12 10:25:14.93	160.78	14.17	-31.4	-35.8	8.5	2.83e-02	0	41	0	142606336	22	6002
2026-01-12 10:25:15.93	160.78	14.27	-31.3	-35.4	8.8	3.82e-02	0	41	0	144703488	22	5803
2026-01-12 10:25:16.94	160.79	14.38	-31.1	-34.6	9.4	1.88e-02	0	41	0	146800640	22	5415
2026-01-12 10:25:17.94	160.80	14.48	-30.8	-33.6	10.2	8.16e-03	0	41	0	147849216	22	4952
2026-01-12 10:25:18.95	160.80	14.59	-30.6	-32.8	10.8	3.71e-03	0	41	0	149946368	22	4672
2026-01-12 10:25:19.96	160.81	14.70	-30.2	-32.2	11.6	8.25e-04	0	41	0	152043520	21	4541
2026-01-12 10:25:20.95	160.81	14.80	-29.9	-31.3	12.2	3.84e-04	0	41	0	154140672	21	4211
2026-01-12 10:25:21.96	160.82	14.91	-29.7	-31.3	12.6	1.81e-04	0	41	0	156237824	20	4311
2026-01-12 10:25:22.96	160.83	15.02	-29.6	-30.9	12.8	7.93e-05	0	41	0	158334976	20	4183
2026-01-12 10:25:23.96	160.83	15.12	-29.6	-30.9	12.9	5.79e-05	0	41	0	159383552	20	4176
2026-01-12 10:25:24.97	160.84	15.23	-29.7	-31.0	12.8	6.02e-05	0	41	0	161480704	20	4206
2026-01-12 10:25:25.98	160.85	15.34	-29.7	-31.1	12.8	5.87e-05	0	41	0	163577856	20	4238
2026-01-12 10:25:26.98	160.86	15.45	-29.7	-31.0	12.8	5.56e-05	0	41	0	165675008	20	4211
2026-01-12 10:25:27.98	160.86	15.56	-29.8	-31.5	12.5	8.39e-05	0	41	0	166723584	20	4349
2026-01-12 10:25:28.98	160.87	15.67	-29.7	-31.2	12.7	1.09e-04	0	41	0	168820736	20	4245
2026-01-12 10:25:29.99	160.88	15.78	-29.7	-31.0	12.9	6.10e-05	0	41	0	170917888	20	4183
2026-01-12 10:25:31.00	160.88	15.90	-29.7	-30.9	12.9	4.27e-05	0	41	0	173015040	20	4162
2026-01-12 10:25:32.00	160.89	16.01	-29.7	-31.1	12.9	3.58e-05	0	41	0	175112192	20	4209
2026-01-12 10:25:33.01	160.90	16.12	-29.9	-31.6	12.5	7.62e-05	0	41	0	176160768	20	4393
2026-01-12 10:25:34.02	160.90	16.23	-29.7	-30.9	13.0	6.17e-05	0	41	0	178257920	20	4157
2026-01-12 10:25:35.03	160.91	16.35	-29.7	-31.1	12.8	3.35e-05	0	41	0	180355072	20	4214
2026-01-12 10:25:36.03	160.92	16.46	-29.9	-31.7	12.5	5.95e-05	0	42	0	182452224	20	4419
2026-01-12 10:25:37.04	160.92	16.58	-29.7	-31.1	12.9	7.24e-05	0	41	0	184549376	20	4217
2026-01-12 10:25:38.04	160.93	16.69	-29.6	-30.8	13.1	4.27e-05	0	41	0	185597952	20	4121
2026-01-12 10:25:39.05	160.94	16.81	-29.5	-30.4	13.4	2.82e-05	0	42	0	187695104	20	3992
2026-01-12 10:25:40.05	160.95	16.92	-29.3	-30.0	13.6	6.10e-06	0	41	0	189792256	20	3894
2026-01-12 10:25:41.06	160.95	17.04	-29.4	-30.0	13.6	6.80e-06	0	41	0	191889408	20	3890
2026-01-12 10:25:42.07	160.96	17.16	-29.4	-30.0	13.6	1.06e-05	0	42	0	193986560	20	3898
2026-01-12 10:25:43.07	160.97	17.28	-29.3	-30.3	13.8	3.80e-06	0	41	0	195035136	19	4049
2026-01-12 10:25:44.07	160.98	17.39	-29.4	-30.7	13.6	3.00e-06	0	42	0	197132288	19	4164
2026-01-12 10:25:45.07	160.98	17.51	-29.2	-30.2	13.9	5.30e-06	0	42	0	199229440	19	4025
2026-01-12 10:25:46.08	160.99	17.63	-29.2	-30.2	14.0	7.00e-07	0	42	0	201326592	19	4025
2026-01-12 10:25:47.08	161.00	17.75	-29.3	-30.3	13.8	3.00e-06	0	41	0	203423744	19	4064
2026-01-12 10:25:48.08	161.00	17.87	-29.3	-30.3	13.9	3.00e-06	0	41	0	204472320	19	4056
2026-01-12 10:25:49.08	161.01	18.00	-29.2	-30.1	14.0	7.00e-07	0	42	0	206569472	19	3995
2026-01-12 10:25:50.09	161.02	18.12	-29.1	-29.9	14.1	7.00e-07	0	41	0	208666624	19	3942
2026-01-12 10:25:51.10	161.03	18.24	-29.1	-29.8	14.2	7.00e-07	0	41	0	210763776	19	3899
2026-01-12 10:25:52.09	161.03	18.36	-29.1	-29.8	14.2	0.00e+00	0	42	0	212860928	19	3907
2026-01-12 10:25:53.10	161.04	18.49	-29.0	-29.5	14.4	2.20e-06	0	42	0	213909504	19	3827
2026-01-12 10:25:54.11	161.05	18.61	-29.0	-29.5	14.5	7.00e-07	0	42	0	216006656	19	3824
2026-01-12 10:25:55.11	161.06	18.74	-28.9	-29.2	14.6	0.00e+00	0	42	0	218103808	19	3727
2026-01-12 10:25:56.12	161.07	18.86	-28.9	-29.3	14.6	1.50e-06	0	42	0	220200960	19	3754
2026-01-12 10:25:57.13	161.07	18.99	-29.0	-29.5	14.4	0.00e+00	0	42	0	222298112	19	3824
2026-01-12 10:25:58.12	161.08	19.12	-28.9	-29.3	14.6	0.00e+00	0	41	0	223346688	19	3752
2026-01-12 10:25:59.12	161.09	19.24	-28.9	-29.3	14.6	7.00e-07	0	42	0	225443840	19	3759
2026-01-12 10:26:00.13	161.10	19.37	-28.9	-29.4	14.6	0.00e+00	0	42	0	227540992	19	3771
2026-01-12 10:26:01.13	161.10	19.50	-29.0	-29.4	14.6	0.00e+00	0	42	0	229638144	19	3784
2026-01-12 10:26:02.13	161.11	19.63	-29.2	-29.9	14.3	1.50e-06	0	42	0	231735296	19	3917
2026-01-12 10:26:03.14	161.12	19.76	-29.0	-29.5	14.5	2.20e-06	0	42	0	232783872	19	3822
2026-01-12 10:26:04.14	161.13	19.89	-29.2	-29.9	14.3	0.00e+00	0	42	0	234881024	19	3909
2026-01-12 10:26:05.14	161.14	20.02	-29.2	-30.0	14.2	0.00e+00	0	42	0	236978176	19	3959
2026-01-12 10:26:06.15	161.14	20.16	-29.2	-30.0	14.2	7.00e-07	0	42	0	239075328	19	3940
2026-01-12 10:26:07.15	161.15	20.29	-29.1	-29.8	14.3	7.00e-07	0	42	0	240123904	19	3883
2026-01-12 10:26:08.16	161.16	20.43	-29.2	-30.1	14.1	3.00e-06	0	42	0	242221056	19	3968
2026-01-12 10:26:09.15	161.17	20.56	-29.1	-29.8	14.3	2.20e-06	0	42	0	244318208	19	3881
2026-01-12 10:26:10.16	161.18	20.69	-29.2	-29.9	14.4	7.00e-07	0	42	0	246415360	19	3903
2026-01-12 10:26:11.16	161.19	20.83	-29.1	-29.6	14.5	0.00e+00	0	42	0	248512512	19	3841
2026-01-12 10:26:12.17	161.19	20.97	-29.2	-30.0	14.2	4.50e-06	0	42	0	249561088	19	3933
2026-01-12 10:26:13.18	161.20	21.11	-29.4	-30.6	13.8	3.00e-06	0	42	0	251658240	19	4129
2026-01-12 10:26:14.18	161.21	21.24	-29.2	-29.9	14.3	1.50e-06	0	42	0	253755392	19	3917
2026-01-12 10:26:15.18	161.22	21.38	-29.2	-29.9	14.4	2.20e-06	0	42	0	255852544	19	3909
2026-01-12 10:26:16.18	161.23	21.52	-29.1	-29.8	14.3	0.00e+00	0	42	0	257949696	19	3895
2026-01-12 10:26:17.19	161.24	21.66	-29.3	-30.1	14.2	7.00e-07	0	42	0	258998272	19	3986
2026-01-12 10:26:18.19	161.25	21.80	-29.3	-30.2	14.2	3.00e-06	0	42	0	261095424	19	4014
2026-01-12 10:26:19.19	161.25	21.95	-29.3	-30.4	14.0	2.20e-06	0	42	0	263192576	19	4056
2026-01-12 10:26:20.20	161.26	22.09	-29.5	-30.7	13.8	2.20e-06	0	42	0	265289728	19	4147
2026-01-12 10:26:21.20	161.27	22.23	-29.5	-30.7	13.8	3.00e-06	0	42	0	267386880	19	4161
2026-01-12 10:26:22.21	161.28	22.38	-29.4	-30.5	14.0	1.50e-06	0	42	0	268435456	19	4080
2026-01-12 10:26:23.22	161.29	22.53	-29.5	-30.7	13.8	6.10e-06	0	42	0	270532608	19	4136
2026-01-12 10:26:24.22	161.30	22.67	-29.5	-30.7	13.8	7.60e-06	0	42	0	272629760	19	4154
2026-01-12 10:26:25.22	161.31	22.82	-29.6	-31.0	13.7	3.80e-06	0	42	0	274726912	19	4219
2026-01-12 10:26:26.23	161.32	22.97	-29.6	-31.0	13.6	5.30e-06	0	42	0	276824064	19	4238
2026-01-12 10:26:27.23	161.33	23.11	-29.5	-30.9	13.7	9.90e-06	0	42	0	277872640	19	4212
2026-01-12 10:26:28.24	161.33	23.27	-29.7	-31.4	13.5	8.30e-06	0	42	0	279969792	19	4337
2026-01-12 10:26:29.24	161.34	23.42	-29.9	-31.8	13.2	1.83e-05	0	42	0	282066944	19	4476
2026-01-12 10:26:30.24	161.35	23.57	-29.9	-31.9	13.1	3.50e-05	0	42	0	284164096	19	4519
2026-01-12 10:26:31.24	161.36	23.72	-29.9	-31.9	13.1	3.96e-05	0	42	0	286261248	19	4529
2026-01-12 10:26:32.24	161.37	23.87	-30.2	-32.1	12.6	5.79e-05	0	42	0	287309824	20	4509
2026-01-12 10:26:33.25	161.38	24.03	-30.3	-32.4	12.5	7.09e-05	0	42	0	289406976	20	4592
2026-01-12 10:26:34.25	161.39	24.18	-30.1	-31.8	12.8	1.39e-04	0	42	0	291504128	20	4408
2026-01-12 10:26:35.26	161.40	24.34	-30.1	-32.0	12.6	1.03e-04	0	42	0	293601280	20	4460
2026-01-12 10:26:36.26	161.41	24.49	-30.2	-32.1	12.6	8.31e-05	0	42	0	295698432	20	4489
2026-01-12 10:26:37.27	161.42	24.65	-30.2	-32.4	12.4	1.43e-04	0	42	0	296747008	20	4590
2026-01-12 10:26:38.28	161.43	24.81	-30.1	-32.0	12.6	8.92e-05	0	42	0	298844160	20	4482
2026-01-12 10:26:39.28	161.44	24.97	-29.9	-31.2	13.2	5.49e-05	0	42	0	300941312	20	4220
2026-01-12 10:26:40.29	161.45	25.13	-29.7	-30.9	13.5	1.29e-05	0	42	0	303038464	20	4107
2026-01-12 10:26:41.28	161.46	25.29	-29.7	-30.9	13.4	6.10e-06	0	42	0	305135616	20	4103
2026-01-12 10:26:42.29	161.47	25.46	-29.6	-30.5	13.7	6.80e-06	0	42	0	306184192	20	3991
2026-01-12 10:26:43.30	161.48	25.62	-29.6	-30.6	13.6	3.80e-06	0	42	0	308281344	20	4034
2026-01-12 10:26:44.30	161.49	25.79	-29.8	-31.0	13.3	1.22e-05	0	42	0	310378496	20	4151
2026-01-12 10:26:45.30	161.50	25.95	-29.6	-30.5	13.6	1.14e-05	0	42	0	312475648	20	4011
2026-01-12 10:26:46.30	161.51	26.12	-29.9	-31.3	13.1	1.37e-05	0	42	0	313524224	20	4254
2026-01-12 10:26:47.30	161.52	26.29	-29.9	-31.4	13.1	1.60e-05	0	42	0	315621376	20	4269
2026-01-12 10:26:48.30	161.53	26.45	-29.9	-31.3	13.2	9.90e-06	0	42	0	317718528	20	4238
2026-01-12 10:26:49.31	161.54	26.63	-30.0	-31.7	12.9	4.73e-05	0	42	0	319815680	20	4369
2026-01-12 10:26:50.31	161.55	26.80	-30.1	-31.8	12.8	6.56e-05	0	42	0	321912832	20	4409
2026-01-12 10:26:51.31	161.56	26.97	-30.3	-32.5	12.4	1.14e-04	0	42	0	322961408	20	4610
2026-01-12 10:26:52.32	161.57	27.14	-30.2	-32.3	12.5	7.32e-05	0	42	0	325058560	20	4547
2026-01-12 10:26:53.32	161.59	27.32	-29.9	-31.3	13.2	1.15e-04	0	42	0	327155712	20	4223
2026-01-12 10:26:54.32	161.60	27.49	-29.9	-31.3	13.2	4.11e-05	0	42	0	329252864	20	4228
2026-01-12 10:26:55.33	161.61	27.67	-29.9	-31.4	13.1	2.36e-05	0	42	0	331350016	20	4258
2026-01-12 10:26:56.34	161.62	27.85	-29.8	-31.0	13.4	1.37e-05	0	42	0	332398592	20	4136
2026-01-12 10:26:57.34	161.63	28.03	-29.9	-31.1	13.3	2.36e-05	0	42	0	334495744	20	4171
2026-01-12 10:26:58.35	161.64	28.21	-29.9	-31.4	13.2	2.67e-05	0	42	0	336592896	20	4243
2026-01-12 10:26:59.36	161.65	28.39	-30.1	-31.7	13.0	2.36e-05	0	42	0	338690048	20	4351
2026-01-12 10:27:00.36	161.66	28.57	-30.2	-32.1	12.7	3.96e-05	0	42	0	340787200	20	4494
2026-01-12 10:27:01.37	161.68	28.76	-30.1	-31.9	12.8	7.01e-05	0	42	0	341835776	20	4399
2026-01-12 10:27:02.37	161.69	28.94	-30.4	-32.3	12.3	2.62e-04	0	42	0	343932928	21	4446
2026-01-12 10:27:03.38	161.70	29.13	-30.4	-32.2	12.3	1.88e-04	0	42	0	346030080	21	4438
2026-01-12 10:27:04.38	161.71	29.31	-30.4	-32.2	12.4	1.24e-04	0	42	0	348127232	21	4437
2026-01-12 10:27:05.39	161.72	29.50	-30.3	-31.9	12.5	1.07e-04	0	42	0	350224384	21	4344
2026-01-12 10:27:06.39	161.74	29.69	-30.3	-31.9	12.5	1.37e-04	0	42	0	351272960	21	4335
2026-01-12 10:27:07.40	161.75	29.89	-30.4	-32.3	12.2	1.04e-04	0	42	0	353370112	21	4461
2026-01-12 10:27:08.41	161.76	30.08	-30.5	-32.3	12.3	7.62e-05	0	42	0	355467264	21	4460
2026-01-12 10:27:09.41	161.77	30.27	-30.4	-32.3	12.2	1.91e-04	0	42	0	357564416	21	4457
2026-01-12 10:27:10.42	161.79	30.47	-30.3	-32.0	12.5	1.27e-04	0	42	0	359661568	21	4348
2026-01-12 10:27:11.42	161.80	30.66	-30.4	-32.2	12.4	1.56e-04	0	42	0	360710144	21	4431
2026-01-12 10:27:12.42	161.81	30.86	-30.5	-32.5	12.2	6.46e-04	0	42	0	362807296	21	4524
2026-01-12 10:27:13.43	161.82	31.06	-30.7	-32.9	11.9	3.40e-04	0	42	0	364904448	21	4641
2026-01-12 10:27:14.44	161.84	31.26	-30.8	-33.2	11.7	8.11e-04	0	42	0	367001600	21	4769
2026-01-12 10:27:15.44	161.85	31.46	-30.9	-33.2	11.4	8.02e-04	0	42	0	369098752	22	4658
2026-01-12 10:27:16.44	161.86	31.67	-30.9	-33.2	11.4	1.09e-03	0	42	0	370147328	22	4655
2026-01-12 10:27:17.45	161.88	31.87	-30.9	-33.2	11.3	7.05e-04	0	42	0	372244480	22	4685
2026-01-12 10:27:18.46	161.89	32.08	-30.7	-32.5	11.9	2.37e-04	0	42	0	374341632	22	4436
2026-01-12 10:27:19.46	161.90	32.29	-30.5	-32.0	12.5	1.87e-04	0	42	0	376438784	22	4248
2026-01-12 10:27:20.46	161.92	32.50	-30.5	-31.7	12.4	4.03e-04	0	42	0	378535936	22	4174
2026-01-12 10:27:21.46	161.93	32.71	-30.6	-32.1	12.2	2.78e-04	0	42	0	379584512	22	4284
2026-01-12 10:27:22.46	161.95	32.92	-30.9	-33.2	11.4	3.85e-04	0	42	0	381681664	22	4664
2026-01-12 10:27:23.47	161.96	33.13	-31.0	-33.4	11.3	1.86e-03	0	42	0	383778816	22	4740
2026-01-12 10:27:24.47	161.97	33.35	-31.0	-33.4	11.3	8.29e-04	0	42	0	385875968	22	4755
2026-01-12 10:27:25.48	161.99	33.56	-30.9	-33.1	11.6	8.77e-04	0	42	0	387973120	22	4634
2026-01-12 10:27:26.49	162.00	33.78	-30.8	-32.8	11.9	4.78e-04	0	42	0	389021696	22	4511
2026-01-12 10:27:27.49	162.02	34.00	-30.8	-32.7	11.9	5.60e-04	0	42	0	391118848	22	4482
2026-01-12 10:27:28.49	162.03	34.22	-30.6	-32.2	12.2	3.11e-04	0	42	0	393216000	22	4302
2026-01-12 10:27:29.50	162.05	34.45	-30.8	-32.7	11.7	3.09e-04	0	42	0	395313152	22	4495
2026-01-12 10:27:30.50	162.06	34.67	-30.5	-31.9	12.3	4.43e-04	0	42	0	397410304	22	4217
2026-01-12 10:27:31.51	162.08	34.90	-30.3	-31.7	12.8	6.86e-05	0	42	0	398458880	21	4256
2026-01-12 10:27:32.51	162.10	35.12	-29.8	-30.5	13.5	1.83e-05	0	42	0	400556032	21	3890
2026-01-12 10:27:33.52	162.11	35.36	-29.7	-30.6	13.9	3.80e-06	0	42	0	402653184	20	4012
2026-01-12 10:27:34.53	162.13	35.59	-29.8	-30.9	13.7	7.60e-06	0	42	0	404750336	20	4077
2026-01-12 10:27:35.54	162.14	35.82	-29.7	-30.6	13.9	7.60e-06	0	42	0	406847488	20	4012
2026-01-12 10:27:36.54	162.16	36.06	-29.5	-30.1	14.2	1.50e-06	0	42	0	407896064	20	3860
2026-01-12 10:27:37.55	162.18	36.29	-29.4	-29.8	14.4	2.20e-06	0	42	0	409993216	20	3774
2026-01-12 10:27:38.55	162.19	36.53	-29.3	-30.0	14.6	7.00e-07	0	42	0	412090368	19	3904
2026-01-12 10:27:39.56	162.21	36.77	-29.2	-29.7	14.7	0.00e+00	0	42	0	414187520	19	3841
2026-01-12 10:27:40.57	162.23	37.01	-29.1	-29.7	14.8	0.00e+00	0	42	0	416284672	19	3827
2026-01-12 10:27:41.57	162.24	37.26	-29.0	-29.4	15.0	0.00e+00	0	42	0	417333248	19	3749
2026-01-12 10:27:42.58	162.26	37.50	-28.9	-29.2	15.1	0.00e+00	0	42	0	419430400	19	3695
2026-01-12 10:27:43.59	162.28	37.75	-28.9	-29.1	15.2	0.00e+00	0	42	0	421527552	19	3671
2026-01-12 10:27:44.59	162.30	38.00	-29.1	-29.7	14.8	0.00e+00	0	42	0	423624704	19	3825
2026-01-12 10:27:45.60	162.32	38.25	-29.0	-29.3	15.0	0.00e+00	0	42	0	425721856	19	3732
2026-01-12 10:27:46.60	162.33	38.50	-28.8	-29.3	15.4	0.00e+00	0	42	0	426770432	18	3806
2026-01-12 10:27:47.61	162.35	38.76	-28.8	-29.4	15.3	0.00e+00	0	42	0	428867584	18	3834
2026-01-12 10:27:48.61	162.37	39.01	-28.9	-29.5	15.2	0.00e+00	0	42	0	430964736	18	3862
2026-01-12 10:27:49.62	162.39	39.27	-29.1	-30.2	14.8	0.00e+00	0	42	0	433061888	18	4055
2026-01-12 10:27:50.61	162.41	39.53	-29.2	-30.4	14.7	7.00e-07	0	42	0	435159040	18	4110
2026-01-12 10:27:51.62	162.43	39.79	-29.5	-31.0	14.3	0.00e+00	0	42	0	436207616	18	4311
2026-01-12 10:27:52.62	162.45	40.06	-29.5	-30.6	14.2	5.30e-06	0	42	0	438304768	19	4092
2026-01-12 10:27:53.63	162.47	40.32	-29.4	-30.4	14.4	7.00e-07	0	42	0	440401920	19	4016
2026-01-12 10:27:54.64	162.49	40.59	-29.6	-30.9	14.0	7.00e-07	0	42	0	442499072	19	4188
2026-01-12 10:27:55.65	162.51	40.86	-29.5	-30.5	14.3	0.00e+00	0	42	0	443547648	19	4057
2026-01-12 10:27:56.65	162.53	41.14	-29.7	-31.1	13.9	1.50e-06	0	42	0	445644800	19	4226
2026-01-12 10:27:57.66	162.55	41.41	-29.7	-30.7	13.8	1.06e-05	0	42	0	447741952	20	4039
2026-01-12 10:27:58.66	162.58	41.69	-29.6	-30.3	14.1	3.00e-06	0	42	0	449839104	20	3933
2026-01-12 10:27:59.66	162.60	41.96	-29.5	-30.7	14.2	3.80e-06	0	42	0	451936256	19	4113
2026-01-12 10:28:00.67	162.62	42.25	-29.4	-30.3	14.4	1.50e-06	0	42	0	454033408	19	4013
2026-01-12 10:28:01.67	162.64	42.53	-29.5	-30.5	14.4	1.50e-06	0	42	0	455081984	19	4056
2026-01-12 10:28:02.67	162.67	42.81	-29.1	-29.5	14.9	0.00e+00	0	42	0	457179136	19	3773
2026-01-12 10:28:03.67	162.69	43.10	-29.3	-30.0	14.7	0.00e+00	0	42	0	459276288	19	3904
2026-01-12 10:28:04.68	162.71	43.39	-29.2	-29.7	14.8	0.00e+00	0	42	0	461373440	19	3844
2026-01-12 10:28:05.68	162.74	43.68	-29.1	-29.6	14.9	0.00e+00	0	42	0	462422016	19	3794
2026-01-12 10:28:06.69	162.76	43.97	-29.3	-30.0	14.7	7.00e-07	0	42	0	464519168	19	3903
2026-01-12 10:28:07.69	162.79	44.27	-29.2	-29.7	14.9	1.50e-06	0	42	0	466616320	19	3827
2026-01-12 10:28:08.69	162.81	44.56	-29.7	-31.0	14.0	7.00e-07	0	42	0	468713472	19	4190
2026-01-12 10:28:09.70	162.84	44.86	-29.8	-31.4	13.8	3.00e-06	0	42	0	470810624	19	4326
2026-01-12 10:28:10.70	162.86	45.17	-30.1	-31.8	13.2	6.10e-06	0	42	0	471859200	20	4373
2026-01-12 10:28:11.71	162.89	45.47	-30.5	-32.2	12.6	1.37e-04	0	42	0	473956352	21	4396
2026-01-12 10:28:12.71	162.92	45.78	-30.5	-32.5	12.3	1.53e-04	0	42	0	476053504	21	4501
2026-01-12 10:28:13.71	162.94	46.09	-30.6	-32.5	12.3	2.71e-04	0	42	0	478150656	21	4508
2026-01-12 10:28:14.71	162.97	46.40	-30.6	-32.6	12.3	1.90e-04	0	42	0	480247808	21	4515
2026-01-12 10:28:15.71	163.00	46.71	-30.7	-32.9	12.1	1.60e-04	0	42	0	481296384	21	4635
2026-01-12 10:28:16.72	163.03	47.03	-30.5	-32.3	12.6	2.51e-04	0	42	0	483393536	21	4436
2026-01-12 10:28:17.72	163.06	47.35	-30.6	-32.5	12.4	1.56e-04	0	42	0	485490688	21	4503
2026-01-12 10:28:18.73	163.09	47.67	-30.8	-33.1	12.0	2.84e-04	0	42	0	487587840	21	4688
2026-01-12 10:28:19.73	163.12	47.99	-31.0	-33.3	11.5	5.19e-04	0	42	0	489684992	22	4689
2026-01-12 10:28:20.74	163.15	48.32	-31.1	-33.5	11.4	8.58e-04	0	42	0	490733568	22	4759
2026-01-12 10:28:21.74	163.18	48.65	-30.9	-32.9	11.8	7.04e-04	0	42	0	492830720	22	4538
2026-01-12 10:28:22.74	163.21	48.98	-30.7	-32.4	12.1	3.45e-04	0	42	0	494927872	22	4374
2026-01-12 10:28:23.74	163.25	49.31	-30.6	-32.1	12.4	2.58e-04	0	42	0	497025024	22	4278
2026-01-12 10:28:24.75	163.28	49.65	-30.6	-32.1	12.4	1.59e-04	0	42	0	499122176	22	4279
2026-01-12 10:28:25.75	163.31	49.98	-30.4	-31.5	12.7	1.68e-04	0	42	0	500170752	22	4098
2026-01-12 10:28:26.76	163.35	50.33	-30.2	-31.6	13.0	9.15e-05	0	42	0	502267904	21	4192
2026-01-12 10:28:27.77	163.38	50.67	-30.0	-30.8	13.4	1.37e-05	0	42	0	504365056	21	3963
2026-01-12 10:28:28.77	163.42	51.02	-29.7	-30.4	14.1	3.00e-06	0	42	0	506462208	20	3942
2026-01-12 10:28:29.77	163.46	51.36	-29.5	-30.1	14.3	3.00e-06	0	42	0	508559360	20	3848
2026-01-12 10:28:30.78	163.50	51.72	-29.4	-29.9	14.4	7.00e-07	0	42	0	509607936	20	3796
2026-01-12 10:28:31.78	163.53	52.07	-29.6	-30.3	14.2	7.00e-07	0	42	0	511705088	20	3899
2026-01-12 10:28:32.79	163.57	52.43	-29.3	-29.6	14.7	1.50e-06	0	42	0	513802240	20	3714
2026-01-12 10:28:33.79	163.61	52.79	-29.4	-30.2	14.6	7.00e-07	0	42	0	515899392	19	3954
2026-01-12 10:28:34.80	163.66	53.15	-29.2	-29.7	15.0	0.00e+00	0	42	0	516947968	19	3817
2026-01-12 10:28:35.80	163.70	53.51	-29.4	-30.3	14.5	0.00e+00	0	42	0	519045120	19	3992
2026-01-12 10:28:36.80	163.74	53.88	-29.5	-30.5	14.5	7.00e-07	0	42	0	521142272	19	4052
2026-01-12 10:28:37.80	163.78	54.25	-29.9	-31.6	13.8	4.50e-06	0	42	0	523239424	19	4383
2026-01-12 10:28:38.81	163.83	54.62	-30.1	-31.5	13.4	7.60e-06	0	42	0	525336576	20	4263
2026-01-12 10:28:39.82	163.88	55.00	-29.7	-30.5	14.0	1.83e-05	0	42	0	527433728	20	3960
2026-01-12 10:28:40.82	163.92	55.37	-29.3	-30.1	14.7	1.50e-06	0	42	0	528482304	19	3923
2026-01-12 10:28:41.82	163.97	55.75	-28.7	-28.9	15.7	0.00e+00	0	42	0	530579456	18	3701
2026-01-12 10:28:42.83	164.02	56.14	-28.2	-28.2	16.3	0.00e+00	0	42	0	532676608	17	3626
2026-01-12 10:28:43.83	164.08	56.52	-27.8	-27.4	16.8	0.00e+00	0	42	0	534773760	17	3431
2026-01-12 10:28:44.84	164.13	56.91	-28.2	-28.8	16.4	0.00e+00	0	42	0	535822336	16	3858
2026-01-12 10:28:45.84	164.18	57.30	-28.2	-28.4	16.3	0.00e+00	0	42	0	537919488	17	3674
2026-01-12 10:28:46.85	164.24	57.70	-28.5	-29.1	15.9	0.00e+00	0	42	0	540016640	17	3859
2026-01-12 10:28:47.86	164.30	58.10	-28.8	-29.9	15.5	0.00e+00	0	42	0	542113792	17	4059
2026-01-12 10:28:48.86	164.35	58.49	-29.2	-30.3	14.9	0.00e+00	0	42	0	544210944	18	4064
2026-01-12 10:28:49.86	164.41	58.89	-29.4	-30.4	14.6	0.00e+00	0	42	0	545259520	19	4000
2026-01-12 10:28:50.87	164.48	59.30	-29.3	-30.0	14.8	0.00e+00	0	42	0	547356672	19	3898
2026-01-12 10:28:51.87	164.54	59.70	-29.0	-29.1	15.4	0.00e+00	0	42	0	549453824	19	3660
2026-01-12 10:28:52.87	164.61	60.11	-28.8	-29.2	15.5	0.00e+00	0	42	0	551550976	18	3769
2026-01-12 10:28:53.87	164.68	60.52	-29.0	-29.7	15.4	0.00e+00	0	42	0	553648128	18	3893
2026-01-12 10:28:54.88	164.75	60.94	-28.5	-28.6	16.0	0.00e+00	0	42	0	554696704	18	3629
2026-01-12 10:28:55.88	164.82	61.35	-28.1	-28.0	16.6	0.00e+00	0	42	0	556793856	17	3576
2026-01-12 10:28:56.89	164.89	61.78	-27.8	-27.8	17.0	0.00e+00	0	42	0	558891008	16	3613
2026-01-12 10:28:57.89	164.97	62.20	-27.3	-26.7	17.6	0.00e+00	0	42	0	560988160	16	3363
2026-01-12 10:28:58.90	165.05	62.62	-27.0	-26.5	17.8	0.00e+00	0	42	0	563085312	15	3409
2026-01-12 10:28:59.91	165.13	63.05	-27.7	-28.2	16.9	0.00e+00	0	42	0	564133888	15	3818
2026-01-12 10:29:00.91	165.22	63.48	-27.7	-28.1	16.9	0.00e+00	0	42	0	566231040	15	3780
2026-01-12 10:29:01.91	165.31	63.91	-28.4	-29.2	16.2	0.00e+00	0	42	0	568328192	16	3956
2026-01-12 10:29:02.92	165.40	64.35	-28.5	-29.1	16.0	0.00e+00	0	42	0	570425344	17	3843
2026-01-12 10:29:03.92	165.49	64.79	-28.6	-29.1	15.9	0.00e+00	0	42	0	572522496	17	3852
2026-01-12 10:29:04.92	165.59	65.23	-28.8	-29.6	15.7	0.00e+00	0	42	0	573571072	17	3978
2026-01-12 10:29:05.93	165.70	65.67	-29.3	-30.4	15.0	0.00e+00	0	42	0	575668224	18	4093
2026-01-12 10:29:06.93	165.80	66.11	-29.3	-30.4	15.0	0.00e+00	0	42	0	577765376	18	4079
2026-01-12 10:29:07.94	165.92	66.56	-29.7	-30.9	14.4	7.00e-07	0	42	0	579862528	19	4130
2026-01-12 10:29:08.94	166.03	67.01	-29.2	-29.8	15.0	0.00e+00	0	42	0	581959680	19	3829
2026-01-12 10:29:09.94	166.15	67.46	-28.7	-29.0	15.8	0.00e+00	0	42	0	583008256	18	3708
2026-01-12 10:29:10.94	166.28	67.92	-28.8	-29.3	15.6	0.00e+00	0	42	0	585105408	18	3789
2026-01-12 10:29:11.94	166.41	68.37	-30.1	-31.5	13.6	3.80e-06	0	42	0	587202560	20	4235
2026-01-12 10:29:12.95	166.55	68.83	-31.5	-34.6	10.8	2.40e-04	0	42	0	589299712	22	5149
2026-01-12 10:29:13.95	166.69	69.29	-31.9	-35.3	9.5	9.97e-03	0	42	0	590348288	24	5296
2026-01-12 10:29:14.95	166.84	69.75	-31.7	-34.4	10.2	9.14e-03	0	42	0	592445440	24	4899
2026-01-12 10:29:15.96	167.00	70.22	-31.4	-33.7	11.0	1.65e-03	0	42	0	594542592	23	4732
2026-01-12 10:29:16.96	167.16	70.69	-31.8	-35.3	10.1	2.41e-03	0	42	0	596639744	23	5341
2026-01-12 10:29:17.97	167.34	71.16	-31.3	-33.6	11.1	3.89e-03	0	42	0	598736896	23	4663
2026-01-12 10:29:18.97	167.52	71.63	-31.2	-33.1	11.5	1.41e-03	0	42	0	600834048	23	4486
2026-01-12 10:29:19.97	167.72	72.10	-31.0	-32.7	11.8	5.00e-04	0	42	0	601882624	23	4344
2026-01-12 10:29:20.98	167.92	72.58	-30.0	-30.8	13.7	6.63e-05	0	42	0	603979776	21	3939
2026-01-12 10:29:21.98	168.14	73.05	-29.5	-30.0	14.6	0.00e+00	0	42	0	606076928	20	3813
2026-01-12 10:29:22.99	168.37	73.53	-29.4	-30.1	14.9	0.00e+00	0	42	0	608174080	19	3904
2026-01-12 10:29:23.99	168.62	74.01	-29.6	-30.8	14.5	7.00e-07	0	42	0	609222656	19	4096
2026-01-12 10:29:25.00	168.88	74.50	-29.5	-30.5	14.6	1.50e-06	0	42	0	611319808	19	4017
2026-01-12 10:29:26.01	169.16	74.99	-29.8	-31.2	14.3	0.00e+00	0	42	0	613416960	19	4219
2026-01-12 10:29:27.02	169.46	75.47	-31.1	-33.3	11.9	6.86e-05	0	42	0	615514112	22	4630
2026-01-12 10:29:28.02	169.77	75.96	-31.2	-33.7	11.5	7.50e-04	0	42	0	617611264	22	4802
2026-01-12 10:29:29.02	170.11	76.44	-31.2	-33.7	11.5	7.39e-04	0	42	0	618659840	22	4786
2026-01-12 10:29:30.03	170.48	76.94	-30.9	-32.7	12.2	3.49e-04	0	42	0	620756992	22	4448
2026-01-12 10:29:31.04	170.88	77.43	-29.6	-30.3	14.4	6.80e-06	0	42	0	622854144	20	3869
2026-01-12 10:29:32.04	171.31	77.92	-29.6	-30.1	14.6	7.00e-07	0	42	0	624951296	20	3815
2026-01-12 10:29:33.04	171.77	78.41	-31.0	-33.0	12.1	3.20e-05	0	42	0	627048448	22	4532
2026-01-12 10:29:34.05	172.28	78.90	-31.3	-33.6	11.3	1.20e-03	0	42	0	628097024	23	4642
2026-01-12 10:29:35.05	172.84	79.39	-31.1	-32.9	11.8	7.00e-04	0	42	0	630194176	23	4412
2026-01-12 10:29:36.06	173.45	79.89	-31.4	-33.6	11.2	1.31e-03	0	42	0	632291328	23	4640
2026-01-12 10:29:37.06	174.12	80.38	-30.9	-32.2	12.2	1.40e-03	0	42	0	634388480	23	4163
2026-01-12 10:29:38.07	174.87	80.87	-30.8	-32.2	12.6	1.80e-04	0	42	0	636485632	22	4271
2026-01-12 10:29:39.07	175.71	81.36	-31.7	-34.8	10.6	9.84e-04	0	42	0	637534208	23	5104
2026-01-12 10:29:40.07	176.64	81.85	-32.4	-36.8	8.7	2.27e-02	0	42	0	639631360	24	5941
2026-01-12 10:29:41.08	177.70	82.35	-32.1	-35.7	9.5	3.41e-02	0	42	0	641728512	24	5412
2026-01-12 10:29:42.08	178.90	82.83	-32.2	-35.8	9.2	1.81e-02	0	42	0	643825664	24	5487
2026-01-12 10:29:43.08	180.27	83.31	-32.0	-35.3	9.6	1.98e-02	0	42	0	645922816	24	5251
2026-01-12 10:29:44.08	181.85	83.79	-30.8	-32.4	12.6	7.05e-04	0	42	0	646971392	22	4304
2026-01-12 10:29:45.09	183.72	84.27	-30.6	-32.4	12.9	1.98e-05	0	42	0	649068544	21	4413
2026-01-12 10:29:46.09	185.91	84.74	-31.6	-34.2	11.1	4.39e-04	0	42	0	651165696	23	4858
2026-01-12 10:29:47.10	188.55	85.21	-31.3	-33.3	11.6	8.81e-04	0	42	0	653262848	23	4536
2026-01-12 10:29:48.10	191.71	85.65	-31.2	-32.8	12.1	3.54e-04	0	42	0	655360000	23	4336
2026-01-12 10:29:49.11	195.63	86.09	-31.6	-34.0	11.3	4.10e-04	0	42	0	656408576	23	4766
2026-01-12 10:29:50.11	200.46	86.50	-31.7	-34.5	10.9	1.65e-03	0	42	0	658505728	23	4955
2026-01-12 10:29:51.12	206.58	86.88	-32.4	-36.3	9.4	7.27e-03	0	42	0	660602880	24	5641
2026-01-12 10:29:52.12	214.21	87.22	-33.0	-38.1	7.0	1.33e-01	0	42	0	662700032	26	6459
2026-01-12 10:29:53.14	223.92	87.50	-32.8	-37.2	7.6	1.36e-01	0	42	0	664797184	26	5945
2026-01-12 10:29:54.14	235.38	87.68	-32.2	-35.2	9.4	4.27e-02	0	42	0	665845760	25	5073
2026-01-12 10:29:55.14	248.24	87.77	-31.9	-34.4	10.6	5.30e-03	0	42	0	667942912	24	4845
2026-01-12 10:29:56.14	261.37	87.73	-32.3	-36.0	9.4	1.11e-02	0	42	0	670040064	24	5532
2026-01-12 10:29:57.15	273.60	87.58	-32.2	-35.1	9.5	2.34e-02	0	42	0	672137216	25	5040
2026-01-12 10:29:58.16	283.99	87.34	-30.6	-31.6	13.1	1.31e-03	0	42	0	674234368	22	4065
2026-01-12 10:29:59.16	292.34	87.02	-31.2	-33.5	12.0	5.18e-05	0	42	0	675282944	22	4663
2026-01-12 10:30:00.16	298.99	86.66	-32.3	-36.0	9.4	7.70e-03	0	42	0	677380096	24	5505
2026-01-12 10:30:01.16	304.28	86.26	-31.2	-33.1	11.7	7.50e-03	0	42	0	679477248	23	4455
2026-01-12 10:30:02.17	308.55	85.83	-30.8	-32.4	12.7	6.86e-05	0	42	0	681574400	22	4320
2026-01-12 10:30:03.17	311.98	85.39	-31.0	-32.8	12.4	1.38e-04	0	42	0	683671552	22	4450
2026-01-12 10:30:04.17	314.81	84.94	-30.8	-32.3	12.6	5.00e-04	0	42	0	684720128	22	4276
2026-01-12 10:30:05.17	317.16	84.47	-30.3	-31.4	13.4	2.59e-05	0	42	0	686817280	21	4113
2026-01-12 10:30:06.17	319.14	84.00	-30.7	-32.5	12.7	4.57e-05	0	42	0	688914432	21	4450
2026-01-12 10:30:07.18	320.85	83.52	-30.5	-32.2	13.0	6.10e-05	0	42	0	691011584	21	4337
2026-01-12 10:30:08.19	322.32	83.03	-30.5	-32.1	13.0	4.42e-05	0	42	0	692060160	21	4319
2026-01-12 10:30:09.19	323.58	82.55	-30.8	-33.0	12.5	1.72e-04	0	42	0	694157312	21	4604
2026-01-12 10:30:10.19	324.69	82.06	-30.8	-33.0	12.6	4.73e-05	0	42	0	696254464	21	4599
2026-01-12 10:30:11.20	325.68	81.57	-31.9	-35.4	10.0	1.69e-03	0	42	0	698351616	23	5354
2026-01-12 10:30:12.20	326.55	81.08	-30.6	-31.9	12.7	4.14e-03	0	42	0	700448768	22	4165
2026-01-12 10:30:13.21	327.33	80.58	-29.6	-30.2	14.5	2.20e-06	0	42	0	702545920	20	3834
2026-01-12 10:30:14.21	328.03	80.09	-29.5	-30.0	14.7	7.00e-07	0	42	0	703594496	20	3781
2026-01-12 10:30:15.22	328.67	79.60	-29.4	-30.0	15.0	0.00e+00	0	42	0	705691648	19	3883
2026-01-12 10:30:16.22	329.25	79.11	-30.7	-32.5	12.8	5.30e-06	0	42	0	707788800	21	4457
2026-01-12 10:30:17.22	329.77	78.62	-31.6	-34.5	10.6	2.98e-03	0	42	0	709885952	23	5015
2026-01-12 10:30:18.23	330.26	78.12	-30.3	-31.1	13.2	1.11e-03	0	42	0	710934528	22	3928
2026-01-12 10:30:19.22	330.69	77.64	-30.4	-31.9	13.3	2.20e-06	0	42	0	713031680	21	4249
2026-01-12 10:30:20.23	331.11	77.15	-31.6	-34.3	10.8	1.88e-03	0	42	0	715128832	23	4924
2026-01-12 10:30:21.24	331.49	76.66	-30.4	-31.2	13.3	5.42e-04	0	42	0	717225984	22	3956
2026-01-12 10:30:22.24	331.84	76.17	-29.2	-29.7	15.2	3.00e-06	0	42	0	719323136	19	3791
2026-01-12 10:30:23.25	332.17	75.68	-29.6	-30.5	14.7	0.00e+00	0	42	0	720371712	19	4035
2026-01-12 10:30:24.25	332.47	75.20	-30.3	-31.6	13.3	6.80e-06	0	42	0	722468864	21	4180
2026-01-12 10:30:25.26	332.76	74.71	-31.2	-33.5	11.6	6.63e-05	0	42	0	724566016	22	4722
2026-01-12 10:30:26.27	333.03	74.23	-31.5	-34.0	11.0	2.70e-03	0	42	0	726663168	23	4818
2026-01-12 10:30:27.27	333.28	73.75	-30.5	-31.6	13.1	2.25e-04	0	42	0	728760320	22	4064
2026-01-12 10:30:28.28	333.51	73.27	-30.0	-30.7	13.8	4.50e-06	0	42	0	729808896	21	3910
2026-01-12 10:30:29.28	333.74	72.79	-31.2	-33.8	11.6	3.04e-04	0	42	0	731906048	22	4808
2026-01-12 10:30:30.29	333.95	72.31	-31.8	-35.2	10.1	6.35e-03	0	42	0	734003200	23	5321
2026-01-12 10:30:31.29	334.15	71.84	-31.5	-33.9	11.0	5.48e-03	0	42	0	736100352	23	4790
2026-01-12 10:30:32.30	334.34	71.37	-31.0	-33.0	12.1	3.86e-04	0	42	0	738197504	22	4532
2026-01-12 10:30:33.30	334.51	70.90	-32.0	-35.5	9.6	2.71e-03	0	42	0	739246080	24	5388
2026-01-12 10:30:34.30	334.68	70.44	-31.8	-34.7	10.0	1.28e-02	0	42	0	741343232	24	5028
2026-01-12 10:30:35.31	334.85	69.97	-31.5	-33.7	10.7	3.31e-03	0	42	0	743440384	24	4637
2026-01-12 10:30:36.31	335.00	69.51	-31.1	-32.7	11.9	1.50e-03	0	42	0	745537536	23	4371
2026-01-12 10:30:37.31	335.15	69.05	-29.9	-30.6	13.9	1.52e-05	0	42	0	747634688	21	3877
2026-01-12 10:30:38.32	335.29	68.59	-30.5	-32.2	12.9	2.20e-06	0	42	0	748683264	21	4361
2026-01-12 10:30:39.33	335.42	68.13	-31.3	-33.9	11.5	7.35e-04	0	42	0	750780416	22	4866
2026-01-12 10:30:40.33	335.55	67.67	-30.6	-32.0	12.6	4.03e-04	0	42	0	752877568	22	4202
2026-01-12 10:30:41.34	335.67	67.22	-31.1	-33.3	11.8	2.38e-04	0	42	0	754974720	22	4664
2026-01-12 10:30:42.35	335.79	66.77	-31.9	-34.9	9.8	2.09e-03	0	42	0	757071872	24	5110
2026-01-12 10:30:43.35	335.90	66.32	-31.3	-32.9	11.2	3.09e-03	0	42	0	758120448	24	4334
2026-01-12 10:30:44.35	336.01	65.88	-30.3	-31.1	13.2	6.10e-05	0	42	0	760217600	22	3942
2026-01-12 10:30:45.36	336.12	65.43	-30.7	-32.7	12.6	6.33e-05	0	42	0	762314752	21	4546
2026-01-12 10:30:46.36	336.22	64.99	-30.2	-31.4	13.3	6.17e-05	0	42	0	764411904	21	4140
2026-01-12 10:30:47.37	336.31	64.55	-29.3	-29.5	14.8	2.20e-06	0	42	0	766509056	20	3671
2026-01-12 10:30:48.38	336.41	64.12	-29.3	-30.0	14.9	7.00e-07	0	42	0	767557632	19	3903
2026-01-12 10:30:49.37	336.50	63.69	-30.8	-33.0	12.3	3.96e-05	0	42	0	769654784	21	4633
2026-01-12 10:30:50.38	336.59	63.26	-30.4	-32.0	12.9	2.40e-04	0	42	0	771751936	21	4310
2026-01-12 10:30:51.38	336.67	62.83	-29.8	-30.3	14.0	1.60e-05	0	42	0	773849088	21	3809
2026-01-12 10:30:52.39	336.75	62.40	-29.5	-30.1	14.5	1.50e-06	0	42	0	775946240	20	3842
2026-01-12 10:30:53.39	336.83	61.98	-29.7	-30.4	14.2	7.00e-07	0	42	0	776994816	20	3929
2026-01-12 10:30:54.40	336.90	61.56	-29.5	-29.9	14.5	7.00e-07	0	42	0	779091968	20	3793
2026-01-12 10:30:55.40	336.98	61.15	-30.4	-32.4	13.0	3.80e-06	0	42	0	781189120	20	4538
2026-01-12 10:30:56.40	337.05	60.73	-31.2	-33.8	11.3	5.99e-04	0	42	0	783286272	22	4839
2026-01-12 10:30:57.40	337.12	60.32	-31.7	-35.0	10.1	8.06e-03	0	42	0	785383424	23	5239
2026-01-12 10:30:58.41	337.19	59.91	-30.3	-31.6	12.2	2.80e-03	0	42	0	786432000	22	4219
2026-01-12 10:30:59.41	337.25	59.51	-30.1	-31.1	13.5	2.67e-05	0	42	0	788529152	21	4043
2026-01-12 10:31:00.41	337.31	59.10	-30.3	-31.6	13.1	1.98e-05	0	42	0	790626304	21	4172
2026-01-12 10:31:01.42	337.38	58.70	-30.4	-31.9	12.9	6.63e-05	0	42	0	792723456	21	4284
2026-01-12 10:31:02.42	337.43	58.30	-29.7	-30.6	14.0	9.10e-06	0	42	0	793772032	20	3974
2026-01-12 10:31:03.43	337.49	57.91	-29.7	-30.6	14.1	0.00e+00	0	42	0	795869184	20	3993
2026-01-12 10:31:04.43	337.55	57.51	-30.5	-32.3	12.6	1.22e-05	0	42	0	797966336	21	4419
2026-01-12 10:31:05.43	337.60	57.12	-29.6	-30.3	14.2	4.27e-05	0	42	0	800063488	20	3898
2026-01-12 10:31:06.44	337.66	56.73	-28.0	-27.8	16.6	0.00e+00	0	42	0	802160640	17	3523
2026-01-12 10:31:07.44	337.71	56.35	-27.8	-27.9	16.9	0.00e+00	0	42	0	803209216	16	3624
2026-01-12 10:31:08.44	337.76	55.97	-29.4	-30.6	14.7	0.00e+00	0	42	0	805306368	18	4153
2026-01-12 10:31:09.44	337.81	55.59	-29.4	-29.9	14.5	7.00e-07	0	42	0	807403520	20	3783
2026-01-12 10:31:10.44	337.86	55.21	-28.9	-29.4	15.5	0.00e+00	0	42	0	809500672	18	3817
2026-01-12 10:31:11.45	337.91	54.84	-29.1	-30.1	15.1	0.00e+00	0	42	0	811597824	18	4003
2026-01-12 10:31:12.45	337.95	54.47	-30.2	-31.9	13.3	3.00e-06	0	42	0	812646400	20	4388
2026-01-12 10:31:13.45	338.00	54.10	-30.7	-32.9	12.1	1.04e-04	0	42	0	814743552	21	4617
2026-01-12 10:31:14.46	338.04	53.73	-30.5	-32.2	12.7	2.53e-04	0	42	0	816840704	21	4380
2026-01-12 10:31:15.46	338.08	53.37	-29.7	-30.5	14.1	2.05e-05	0	42	0	818937856	20	3947
2026-01-12 10:31:16.46	338.13	53.01	-29.7	-30.5	14.0	5.30e-06	0	42	0	821035008	20	3963
2026-01-12 10:31:17.46	338.17	52.65	-30.4	-32.6	12.7	3.12e-05	0	42	0	822083584	20	4596
2026-01-12 10:31:18.47	338.21	52.29	-30.5	-32.4	12.5	1.51e-04	0	42	0	824180736	21	4439
2026-01-12 10:31:19.47	338.25	51.94	-31.0	-33.3	11.5	7.63e-04	0	42	0	826277888	22	4685
2026-01-12 10:31:20.48	338.28	51.59	-31.3	-34.0	11.0	2.24e-03	0	42	0	828375040	22	4945
2026-01-12 10:31:21.49	338.32	51.23	-31.4	-34.5	10.6	2.55e-03	0	42	0	830472192	22	5138
2026-01-12 10:31:22.49	338.36	50.89	-31.2	-33.4	11.0	3.18e-03	0	42	0	831520768	23	4635
2026-01-12 10:31:23.50	338.40	50.54	-31.1	-33.1	11.4	1.44e-03	0	42	0	833617920	23	4510
2026-01-12 10:31:24.51	338.43	50.20	-30.9	-32.5	11.8	6.47e-04	0	42	0	835715072	23	4304
2026-01-12 10:31:25.51	338.47	49.86	-30.6	-32.0	12.4	4.55e-04	0	42	0	837812224	22	4225
2026-01-12 10:31:26.51	338.50	49.53	-30.7	-32.4	12.2	2.20e-04	0	42	0	839909376	22	4363
2026-01-12 10:31:27.52	338.53	49.19	-30.7	-32.5	12.3	2.00e-04	0	42	0	840957952	22	4389
2026-01-12 10:31:28.53	338.57	48.86	-31.2	-33.9	11.1	5.87e-04	0	42	0	843055104	22	4914
2026-01-12 10:31:29.54	338.60	48.53	-32.0	-35.8	9.0	6.76e-03	0	42	0	845152256	24	5590
2026-01-12 10:31:30.55	338.63	48.20	-32.5	-37.2	7.4	6.95e-02	0	42	0	847249408	25	6184
2026-01-12 10:31:31.55	338.66	47.88	-31.5	-34.0	10.2	4.83e-02	0	42	0	849346560	24	4800
2026-01-12 10:31:32.55	338.69	47.56	-30.2	-31.4	13.1	1.96e-03	0	42	0	850395136	21	4128
2026-01-12 10:31:33.56	338.72	47.24	-29.0	-29.3	15.1	0.00e+00	0	42	0	852492288	19	3721
2026-01-12 10:31:34.56	338.75	46.92	-29.4	-30.2	14.6	7.00e-07	0	42	0	854589440	19	3967
2026-01-12 10:31:35.56	338.78	46.61	-29.6	-30.9	14.3	1.50e-06	0	42	0	856686592	19	4155
2026-01-12 10:31:36.56	338.81	46.30	-30.2	-31.9	13.1	1.75e-05	0	42	0	858783744	20	4380
2026-01-12 10:31:37.57	338.84	45.99	-30.1	-31.2	13.1	4.27e-05	0	42	0	859832320	21	4095
2026-01-12 10:31:38.58	338.86	45.68	-30.3	-31.7	12.9	3.20e-05	0	42	0	861929472	21	4239
2026-01-12 10:31:39.58	338.89	45.38	-30.4	-32.1	12.7	7.24e-05	0	42	0	864026624	21	4353
2026-01-12 10:31:40.58	338.92	45.08	-30.5	-32.4	12.4	9.07e-05	0	42	0	866123776	21	4465
2026-01-12 10:31:41.58	338.94	44.78	-30.6	-32.6	12.2	3.46e-04	0	42	0	868220928	21	4539
2026-01-12 10:31:42.59	338.97	44.48	-30.1	-31.1	13.2	7.17e-05	0	42	0	869269504	21	4056
2026-01-12 10:31:43.60	338.99	44.18	-29.8	-31.0	13.7	4.50e-06	0	42	0	871366656	20	4102
2026-01-12 10:31:44.60	339.02	43.89	-29.4	-29.8	14.4	0.00e+00	0	42	0	873463808	20	3770
2026-01-12 10:31:45.61	339.04	43.60	-29.5	-30.1	14.3	2.20e-06	0	42	0	875560960	20	3841
2026-01-12 10:31:46.61	339.07	43.31	-29.5	-30.5	14.4	0.00e+00	0	42	0	877658112	19	4046
2026-01-12 10:31:47.62	339.09	43.02	-29.9	-31.6	13.7	1.50e-06	0	42	0	878706688	19	4359
2026-01-12 10:31:48.62	339.11	42.74	-30.4	-32.5	12.7	5.30e-06	0	42	0	880803840	20	4574
2026-01-12 10:31:49.63	339.14	42.45	-31.6	-34.7	10.1	3.42e-03	0	42	0	882900992	23	5140
2026-01-12 10:31:50.63	339.16	42.17	-31.8	-35.5	9.5	1.34e-02	0	42	0	884998144	23	5507
2026-01-12 10:31:51.64	339.18	41.89	-32.3	-37.1	7.8	2.31e-02	0	42	0	886046720	24	6256
2026-01-12 10:31:52.65	339.20	41.62	-32.0	-35.9	8.7	6.97e-02	0	42	0	888143872	24	5604
2026-01-12 10:31:53.65	339.23	41.34	-31.6	-34.2	10.0	1.26e-02	0	42	0	890241024	24	4866
2026-01-12 10:31:54.66	339.25	41.07	-31.2	-33.6	10.9	3.54e-03	0	42	0	892338176	23	4722
2026-01-12 10:31:55.66	339.27	40.80	-31.2	-33.3	11.1	1.08e-03	0	42	0	894435328	23	4619
2026-01-12 10:31:56.67	339.29	40.53	-31.4	-33.9	10.8	1.56e-03	0	42	0	896532480	23	4819
2026-01-12 10:31:57.67	339.31	40.27	-31.0	-32.6	11.6	9.40e-04	0	42	0	897581056	23	4360
2026-01-12 10:31:58.67	339.33	40.00	-31.0	-32.7	11.5	1.02e-03	0	42	0	899678208	23	4400
2026-01-12 10:31:59.68	339.35	39.74	-30.6	-32.0	12.4	1.85e-04	0	42	0	901775360	22	4243
2026-01-12 10:32:00.68	339.37	39.48	-30.7	-32.5	12.0	1.46e-04	0	42	0	903872512	22	4419
2026-01-12 10:32:01.69	339.39	39.22	-31.2	-33.9	11.0	5.06e-04	0	42	0	904921088	22	4935
2026-01-12 10:32:02.69	339.41	38.97	-32.0	-36.5	8.8	4.89e-03	0	42	0	907018240	23	6015
2026-01-12 10:32:03.70	339.43	38.71	-32.2	-36.7	8.0	5.83e-02	0	42	0	909115392	24	6048
2026-01-12 10:32:04.70	339.45	38.46	-32.4	-37.5	7.4	1.04e-01	0	42	0	911212544	24	6493
2026-01-12 10:32:05.70	339.47	38.21	-32.7	-38.9	6.0	2.28e-01	0	42	0	913309696	25	7329
2026-01-12 10:32:06.70	339.48	37.96	-32.4	-37.0	7.3	1.48e-01	0	42	0	914358272	25	6168
2026-01-12 10:32:07.71	339.50	37.71	-32.2	-36.3	8.0	7.26e-02	0	42	0	916455424	25	5771
2026-01-12 10:32:08.72	339.52	37.47	-31.9	-35.1	8.8	6.07e-02	0	42	0	918552576	25	5198
2026-01-12 10:32:09.73	339.54	37.22	-32.0	-35.6	8.5	3.68e-02	0	42	0	920649728	25	5434
2026-01-12 10:32:10.73	339.56	36.98	-32.0	-35.4	8.6	3.82e-02	0	42	0	922746880	25	5335
2026-01-12 10:32:11.74	339.57	36.74	-32.0	-35.3	8.8	3.02e-02	0	42	0	923795456	25	5294
2026-01-12 10:32:12.74	339.59	36.51	-31.9	-35.2	8.9	3.63e-02	0	42	0	925892608	25	5233
2026-01-12 10:32:13.74	339.61	36.27	-31.5	-34.1	10.1	9.63e-03	0	42	0	927989760	24	4817
2026-01-12 10:32:14.75	339.62	36.03	-31.5	-34.0	10.0	8.78e-03	0	42	0	930086912	24	4814
2026-01-12 10:32:15.75	339.64	35.80	-31.4	-33.6	10.5	6.30e-03	0	42	0	932184064	24	4624
2026-01-12 10:32:16.76	339.66	35.57	-31.5	-34.1	10.1	5.66e-03	0	42	0	933232640	24	4828
2026-01-12 10:32:17.77	339.67	35.34	-31.7	-34.6	9.7	9.05e-03	0	42	0	935329792	24	5036
2026-01-12 10:32:18.77	339.69	35.11	-31.9	-35.6	8.9	2.87e-02	0	42	0	937426944	24	5481
2026-01-12 10:32:19.78	339.71	34.89	-32.0	-36.0	8.6	3.75e-02	0	42	0	939524096	24	5674
2026-01-12 10:32:20.78	339.72	34.66	-32.4	-37.7	7.3	6.99e-02	0	42	0	941621248	24	6623
2026-01-12 10:32:21.79	339.74	34.44	-32.6	-38.2	6.4	2.31e-01	0	42	0	942669824	25	6870
2026-01-12 10:32:22.80	339.75	34.22	-32.7	-39.0	5.9	2.42e-01	0	42	0	944766976	25	7438
2026-01-12 10:32:23.80	339.77	34.00	-32.8	-39.7	5.5	3.63e-01	0	42	0	946864128	25	7966
2026-01-12 10:32:24.80	339.78	33.78	-32.7	-38.8	6.2	3.23e-01	0	42	0	948961280	25	7299
2026-01-12 10:32:25.81	339.80	33.56	-32.6	-38.4	6.4	2.67e-01	0	42	0	951058432	25	7010
2026-01-12 10:32:26.82	339.81	33.35	-32.8	-39.2	5.9	3.11e-01	0	42	0	952107008	25	7560
2026-01-12 10:32:27.82	339.83	33.13	-32.7	-39.1	5.9	3.09e-01	0	42	0	954204160	25	7449
2026-01-12 10:32:28.83	339.84	32.92	-32.6	-38.1	6.5	2.62e-01	0	42	0	956301312	25	6819
2026-01-12 10:32:29.83	339.86	32.71	-32.3	-36.8	7.6	1.23e-01	0	42	0	958398464	25	6009
2026-01-12 10:32:30.84	339.87	32.50	-32.0	-35.4	8.6	6.46e-02	0	42	0	960495616	25	5328
2026-01-12 10:32:31.84	339.89	32.29	-31.3	-33.5	10.5	1.73e-02	0	42	0	961544192	24	4611
2026-01-12 10:32:32.85	339.90	32.09	-31.1	-33.3	11.0	3.16e-03	0	42	0	963641344	23	4609
2026-01-12 10:32:33.86	339.91	31.88	-30.8	-32.7	11.7	6.54e-04	0	42	0	965738496	22	4485
2026-01-12 10:32:34.86	339.93	31.68	-30.2	-31.5	12.9	2.08e-04	0	42	0	967835648	21	4193
2026-01-12 10:32:35.87	339.94	31.47	-30.0	-30.9	13.3	6.40e-05	0	42	0	969932800	21	3995
2026-01-12 10:32:36.87	339.95	31.27	-30.1	-31.2	13.0	2.97e-05	0	42	0	970981376	21	4086
2026-01-12 10:32:37.87	339.97	31.08	-30.4	-32.1	12.5	6.40e-05	0	42	0	973078528	21	4381
2026-01-12 10:32:38.88	339.98	30.88	-30.5	-32.5	12.1	1.26e-04	0	42	0	975175680	21	4523
2026-01-12 10:32:39.88	339.99	30.68	-31.1	-33.6	11.0	1.14e-03	0	42	0	977272832	22	4830
2026-01-12 10:32:40.89	340.01	30.49	-31.3	-34.3	10.6	2.85e-03	0	42	0	979369984	22	5092
2026-01-12 10:32:41.90	340.02	30.29	-31.8	-35.6	9.2	1.01e-02	0	42	0	980418560	23	5585
2026-01-12 10:32:42.91	340.03	30.10	-32.1	-36.5	8.2	2.71e-02	0	42	0	982515712	24	5949
2026-01-12 10:32:43.92	340.05	29.90	-32.2	-36.8	7.8	5.68e-02	0	42	0	984612864	24	6137
2026-01-12 10:32:44.92	340.06	29.72	-32.1	-36.4	8.0	6.80e-02	0	42	0	986710016	24	5940
2026-01-12 10:32:45.93	340.07	29.53	-31.9	-35.8	8.6	5.32e-02	0	42	0	988807168	24	5603
2026-01-12 10:32:46.93	340.08	29.34	-31.8	-35.3	9.0	3.03e-02	0	42	0	989855744	24	5357
2026-01-12 10:32:47.93	340.10	29.15	-31.7	-34.9	9.3	1.53e-02	0	42	0	991952896	24	5217
2026-01-12 10:32:48.94	340.11	28.97	-31.7	-34.7	9.5	1.11e-02	0	42	0	994050048	24	5099
2026-01-12 10:32:49.95	340.12	28.78	-31.3	-33.9	10.4	5.80e-03	0	42	0	996147200	23	4864
2026-01-12 10:32:50.96	340.13	28.60	-31.1	-33.2	10.9	2.33e-03	0	42	0	998244352	23	4585
2026-01-12 10:32:51.96	340.14	28.42	-30.9	-32.5	11.5	1.48e-03	0	42	0	999292928	23	4351
2026-01-12 10:32:52.96	340.16	28.24	-30.9	-32.7	11.3	1.09e-03	0	42	0	1001390080	23	4425
2026-01-12 10:32:53.97	340.17	28.06	-31.0	-33.0	11.2	1.18e-03	0	42	0	1003487232	23	4508
2026-01-12 10:32:54.98	340.18	27.88	-30.6	-32.0	12.1	5.58e-04	0	42	0	1005584384	22	4272
2026-01-12 10:32:55.98	340.19	27.70	-30.4	-31.5	12.5	1.52e-04	0	42	0	1007681536	22	4116
2026-01-12 10:32:56.99	340.20	27.53	-30.0	-31.0	13.1	5.11e-05	0	42	0	1008730112	21	4050
2026-01-12 10:32:57.99	340.21	27.35	-29.8	-31.0	13.4	1.06e-05	0	42	0	1010827264	20	4140
2026-01-12 10:32:59.00	340.23	27.18	-29.7	-30.8	13.6	1.37e-05	0	42	0	1012924416	20	4068
2026-01-12 10:33:00.00	340.24	27.01	-29.8	-31.0	13.5	6.10e-06	0	42	0	1015021568	20	4123
2026-01-12 10:33:01.00	340.25	26.84	-29.9	-31.3	13.2	1.75e-05	0	42	0	1017118720	20	4217
2026-01-12 10:33:02.00	340.26	26.67	-29.7	-30.7	13.6	1.22e-05	0	42	0	1018167296	20	4040
2026-01-12 10:33:03.01	340.27	26.50	-29.7	-30.8	13.5	9.90e-06	0	42	0	1020264448	20	4077
2026-01-12 10:33:04.01	340.28	26.33	-29.4	-29.8	14.2	3.00e-06	0	42	0	1022361600	20	3797
2026-01-12 10:33:05.02	340.29	26.16	-29.3	-30.1	14.4	7.00e-07	0	42	0	1024458752	19	3961
2026-01-12 10:33:06.02	340.30	26.00	-29.1	-29.5	14.7	0.00e+00	0	42	0	1026555904	19	3807
2026-01-12 10:33:07.03	340.31	25.83	-29.2	-29.9	14.5	0.00e+00	0	42	0	1027604480	19	3912
2026-01-12 10:33:08.04	340.32	25.67	-29.4	-30.3	14.2	0.00e+00	0	42	0	1029701632	19	4024
2026-01-12 10:33:09.04	340.34	25.51	-28.9	-29.2	14.8	7.00e-07	0	42	0	1031798784	19	3725
2026-01-12 10:33:10.05	340.35	25.34	-28.9	-29.1	15.0	0.00e+00	0	42	0	1033895936	19	3702
2026-01-12 10:33:11.06	340.36	25.18	-29.0	-29.4	14.7	0.00e+00	0	42	0	1035993088	19	3779
2026-01-12 10:33:12.06	340.37	25.02	-29.1	-29.6	14.7	1.50e-06	0	42	0	1037041664	19	3822
2026-01-12 10:33:13.06	340.38	24.86	-29.3	-30.2	14.3	0.00e+00	0	42	0	1039138816	19	3980
2026-01-12 10:33:14.07	340.39	24.71	-29.5	-30.6	14.1	3.00e-06	0	42	0	1041235968	19	4105
2026-01-12 10:33:15.07	340.40	24.55	-29.5	-30.7	13.9	0.00e+00	0	42	0	1043333120	19	4140
2026-01-12 10:33:16.07	340.41	24.39	-29.5	-30.7	13.9	2.20e-06	0	42	0	1044381696	19	4144
2026-01-12 10:33:17.08	340.42	24.24	-29.6	-30.9	13.9	4.50e-06	0	42	0	1046478848	19	4184
2026-01-12 10:33:18.08	340.43	24.08	-29.4	-30.4	14.1	3.80e-06	0	42	0	1048576000	19	4053
2026-01-12 10:33:19.08	340.44	23.93	-29.3	-30.1	14.3	7.00e-07	0	42	0	1050673152	19	3957
2026-01-12 10:33:20.09	340.45	23.78	-29.1	-29.7	14.6	7.00e-07	0	42	0	1052770304	19	3848
2026-01-12 10:33:21.09	340.46	23.63	-29.1	-29.6	14.6	0.00e+00	0	42	0	1053818880	19	3814
2026-01-12 10:33:22.10	340.47	23.48	-29.0	-29.3	14.8	0.00e+00	0	42	0	1055916032	19	3741
2026-01-12 10:33:23.10	340.48	23.33	-28.8	-29.4	15.0	7.00e-07	0	42	0	1058013184	18	3867
2026-01-12 10:33:24.11	340.49	23.18	-28.7	-29.1	15.2	0.00e+00	0	42	0	1060110336	18	3783
2026-01-12 10:33:25.12	340.50	23.03	-28.5	-28.7	15.4	0.00e+00	0	42	0	1062207488	18	3686
2026-01-12 10:33:26.12	340.51	22.88	-28.5	-28.7	15.4	0.00e+00	0	42	0	1063256064	18	3675
2026-01-12 10:33:27.13	340.52	22.74	-28.5	-28.7	15.4	0.00e+00	0	42	0	1065353216	18	3675
2026-01-12 10:33:28.13	340.53	22.59	-28.6	-28.8	15.3	0.00e+00	0	42	0	1067450368	18	3712
2026-01-12 10:33:29.14	340.54	22.44	-28.6	-28.9	15.3	0.00e+00	0	42	0	1069547520	18	3727
2026-01-12 10:33:30.14	340.55	22.30	-28.8	-29.4	15.0	0.00e+00	0	42	0	1071644672	18	3864
2026-01-12 10:33:31.15	340.55	22.16	-28.6	-28.9	15.3	0.00e+00	0	42	0	1072693248	18	3727
2026-01-12 10:33:32.15	340.56	22.02	-28.7	-29.1	15.1	0.00e+00	0	42	0	1074790400	18	3786
2026-01-12 10:33:33.15	340.57	21.88	-28.8	-29.5	14.9	0.00e+00	0	42	0	1076887552	18	3882
2026-01-12 10:33:34.16	340.58	21.73	-28.7	-29.2	15.1	0.00e+00	0	42	0	1078984704	18	3820
2026-01-12 10:33:35.16	340.59	21.59	-28.9	-29.6	14.8	0.00e+00	0	42	0	1081081856	18	3919
2026-01-12 10:33:36.16	340.60	21.46	-29.0	-29.9	14.7	0.00e+00	0	42	0	1082130432	18	3988
2026-01-12 10:33:37.17	340.61	21.32	-29.1	-30.2	14.5	1.50e-06	0	42	0	1084227584	18	4095
2026-01-12 10:33:38.18	340.62	21.18	-29.0	-29.9	14.7	7.00e-07	0	42	0	1086324736	18	4003
2026-01-12 10:33:39.18	340.63	21.04	-29.0	-30.0	14.6	0.00e+00	0	42	0	1088421888	18	4034
2026-01-12 10:33:40.18	340.64	20.91	-29.0	-30.1	14.6	7.00e-07	0	42	0	1090519040	18	4049
2026-01-12 10:33:41.19	340.65	20.77	-29.2	-30.3	14.4	0.00e+00	0	42	0	1091567616	18	4123
2026-01-12 10:33:42.19	340.65	20.64	-29.4	-31.1	13.9	2.20e-06	0	42	0	1093664768	18	4348
2026-01-12 10:33:43.20	340.66	20.50	-29.3	-30.7	14.1	2.20e-06	0	42	0	1095761920	18	4235
2026-01-12 10:33:44.20	340.67	20.37	-29.3	-30.6	14.2	0.00e+00	0	42	0	1097859072	18	4218
2026-01-12 10:33:45.21	340.68	20.24	-29.4	-31.1	13.9	1.50e-06	0	42	0	1099956224	18	4350
2026-01-12 10:33:46.22	340.69	20.10	-29.5	-30.8	13.6	4.50e-06	0	42	0	1101004800	19	4178
2026-01-12 10:33:47.22	340.70	19.97	-29.4	-30.5	13.9	5.30e-06	0	42	0	1103101952	19	4074
2026-01-12 10:33:48.23	340.71	19.84	-29.4	-30.4	14.0	3.80e-06	0	42	0	1105199104	19	4054
2026-01-12 10:33:49.23	340.72	19.71	-29.4	-30.6	13.9	3.00e-06	0	42	0	1107296256	19	4113
2026-01-12 10:33:50.23	340.72	19.58	-29.3	-30.2	14.1	7.00e-07	0	42	0	1109393408	19	4013
2026-01-12 10:33:51.23	340.73	19.46	-29.2	-30.1	14.2	2.20e-06	0	42	0	1110441984	19	3960
2026-01-12 10:33:52.24	340.74	19.33	-29.2	-29.9	14.3	1.50e-06	0	42	0	1112539136	19	3922
2026-01-12 10:33:53.25	340.75	19.20	-29.2	-30.0	14.2	7.00e-07	0	42	0	1114636288	19	3942
2026-01-12 10:33:54.26	340.76	19.07	-29.2	-29.9	14.2	7.00e-07	0	42	0	1116733440	19	3911
2026-01-12 10:33:55.26	340.77	18.95	-29.0	-29.5	14.5	0.00e+00	0	42	0	1118830592	19	3802
2026-01-12 10:33:56.26	340.77	18.82	-29.0	-29.4	14.6	0.00e+00	0	42	0	1119879168	19	3776
2026-01-12 10:33:57.27	340.78	18.70	-28.9	-29.3	14.6	1.50e-06	0	42	0	1121976320	19	3748
2026-01-12 10:33:58.28	340.79	18.57	-28.9	-29.3	14.6	7.00e-07	0	42	0	1124073472	19	3752
2026-01-12 10:33:59.28	340.80	18.45	-28.9	-29.1	14.7	0.00e+00	0	42	0	1126170624	19	3710
2026-01-12 10:34:00.29	340.81	18.33	-28.9	-29.3	14.6	0.00e+00	0	42	0	1128267776	19	3758
2026-01-12 10:34:01.29	340.82	18.21	-28.9	-29.2	14.7	0.00e+00	0	42	0	1129316352	19	3732
2026-01-12 10:34:02.30	340.82	18.08	-29.1	-29.6	14.4	0.00e+00	0	42	0	1131413504	19	3848
2026-01-12 10:34:03.30	340.83	17.96	-29.2	-29.9	14.2	7.00e-07	0	42	0	1133510656	19	3915
2026-01-12 10:34:04.31	340.84	17.84	-29.1	-29.8	14.3	3.00e-06	0	42	0	1135607808	19	3883
2026-01-12 10:34:05.31	340.85	17.72	-29.2	-30.0	14.1	7.00e-07	0	42	0	1137704960	19	3960
2026-01-12 10:34:06.32	340.86	17.60	-29.3	-30.2	14.0	3.80e-06	0	42	0	1138753536	19	4006
2026-01-12 10:34:07.32	340.86	17.49	-29.2	-30.1	14.1	1.50e-06	0	42	0	1140850688	19	3979
2026-01-12 10:34:08.32	340.87	17.37	-29.1	-29.9	14.3	0.00e+00	0	42	0	1142947840	19	3909
2026-01-12 10:34:09.32	340.88	17.25	-29.1	-29.7	14.3	0.00e+00	0	42	0	1145044992	19	3876
2026-01-12 10:34:10.32	340.89	17.14	-29.4	-30.6	13.8	3.00e-06	0	42	0	1146093568	19	4115
2026-01-12 10:34:11.33	340.90	17.02	-29.4	-30.5	13.8	3.80e-06	0	42	0	1148190720	19	4101
2026-01-12 10:34:12.34	340.90	16.90	-29.3	-30.4	13.8	7.00e-07	0	42	0	1150287872	19	4065
2026-01-12 10:34:13.35	340.91	16.79	-29.5	-30.8	13.7	1.22e-05	0	42	0	1152385024	19	4176
2026-01-12 10:34:14.36	340.92	16.67	-29.4	-30.6	13.7	4.50e-06	0	42	0	1154482176	19	4124
2026-01-12 10:34:15.37	340.93	16.56	-29.4	-30.6	13.7	2.20e-06	0	42	0	1156579328	19	4131
2026-01-12 10:34:16.37	340.94	16.44	-29.7	-31.4	13.3	9.10e-06	0	42	0	1157627904	19	4365
2026-01-12 10:34:17.38	340.94	16.33	-29.5	-30.7	13.7	4.50e-06	0	42	0	1159725056	19	4161
2026-01-12 10:34:18.37	340.95	16.22	-29.4	-30.5	13.7	8.30e-06	0	42	0	1161822208	19	4105
2026-01-12 10:34:19.38	340.96	16.11	-29.4	-30.6	13.7	6.80e-06	0	42	0	1163919360	19	4134
2026-01-12 10:34:20.39	340.97	16.00	-29.5	-30.8	13.6	1.37e-05	0	42	0	1164967936	19	4193
2026-01-12 10:34:21.39	340.97	15.88	-29.4	-30.6	13.7	2.20e-06	0	42	0	1167065088	19	4136
2026-01-12 10:34:22.39	340.98	15.78	-29.5	-30.9	13.5	4.50e-06	0	42	0	1169162240	19	4218
2026-01-12 10:34:23.40	340.99	15.66	-29.6	-31.2	13.3	2.13e-05	0	42	0	1171259392	19	4317
2026-01-12 10:34:24.40	341.00	15.56	-29.7	-31.3	13.2	1.60e-05	0	42	0	1173356544	19	4334
2026-01-12 10:34:25.40	341.00	15.45	-29.5	-30.9	13.5	1.29e-05	0	42	0	1174405120	19	4215
2026-01-12 10:34:26.41	341.01	15.34	-29.4	-30.7	13.6	1.29e-05	0	42	0	1176502272	19	4157
2026-01-12 10:34:27.42	341.02	15.23	-29.6	-31.1	13.3	1.29e-05	0	42	0	1178599424	19	4287
2026-01-12 10:34:28.42	341.03	15.12	-29.5	-30.9	13.5	1.37e-05	0	42	0	1180696576	19	4233
2026-01-12 10:34:29.43	341.03	15.02	-29.7	-31.4	13.2	1.90e-05	0	42	0	1182793728	19	4368
2026-01-12 10:34:30.43	341.04	14.91	-29.8	-31.6	13.0	2.97e-05	0	42	0	1183842304	19	4445
2026-01-12 10:34:31.44	341.05	14.80	-29.8	-31.6	13.1	3.50e-05	0	42	0	1185939456	19	4442
2026-01-12 10:34:32.45	341.06	14.70	-29.7	-31.4	13.1	1.98e-05	0	42	0	1188036608	19	4371
2026-01-12 10:34:33.45	341.06	14.59	-29.8	-31.7	13.0	3.89e-05	0	42	0	1190133760	19	4479
2026-01-12 10:34:34.46	341.07	14.49	-29.7	-31.5	13.0	3.66e-05	0	42	0	1192230912	19	4423
2026-01-12 10:34:35.46	341.08	14.38	-29.8	-31.7	13.0	3.43e-05	0	42	0	1193279488	19	4473
2026-01-12 10:34:36.47	341.09	14.28	-29.8	-31.8	12.8	5.79e-05	0	42	0	1195376640	19	4521
2026-01-12 10:34:37.47	341.09	14.18	-29.8	-31.7	12.9	6.71e-05	0	42	0	1197473792	19	4493
2026-01-12 10:34:38.47	341.10	14.07	-29.9	-31.7	12.5	7.55e-05	0	42	0	1199570944	20	4396
2026-01-12 10:34:39.47	341.11	13.97	-29.9	-31.6	12.5	1.19e-04	0	42	0	1201668096	20	4362
2026-01-12 10:34:40.47	341.11	13.87	-30.0	-31.8	12.4	1.38e-04	0	42	0	1202716672	20	4434
2026-01-12 10:34:41.48	341.12	13.77	-30.1	-32.2	12.1	2.81e-04	0	42	0	1204813824	20	4581
2026-01-12 10:34:42.49	341.13	13.67	-30.1	-32.2	12.1	3.18e-04	0	42	0	1206910976	20	4576
2026-01-12 10:34:43.49	341.14	13.57	-30.2	-32.3	12.0	1.98e-04	0	42	0	1209008128	20	4624
2026-01-12 10:34:44.49	341.14	13.47	-30.3	-32.6	11.8	4.07e-04	0	42	0	1211105280	20	4718
2026-01-12 10:34:45.50	341.15	13.36	-30.2	-32.4	12.0	3.86e-04	0	42	0	1212153856	20	4651
2026-01-12 10:34:46.50	341.16	13.27	-30.1	-32.2	12.2	2.62e-04	0	42	0	1214251008	20	4559
2026-01-12 10:34:47.50	341.16	13.17	-30.2	-32.5	11.9	2.62e-04	0	42	0	1216348160	20	4676
2026-01-12 10:34:48.50	341.17	13.07	-30.1	-32.2	12.1	4.36e-04	0	42	0	1218445312	20	4576
2026-01-12 10:34:49.51	341.18	12.97	-30.0	-31.9	12.3	3.13e-04	0	42	0	1220542464	20	4474
2026-01-12 10:34:50.51	341.18	12.87	-30.0	-32.0	12.2	1.91e-04	0	42	0	1221591040	20	4518
2026-01-12 10:34:51.51	341.19	12.78	-30.2	-32.3	12.0	2.20e-04	0	42	0	1223688192	20	4621
2026-01-12 10:34:52.52	341.20	12.68	-30.2	-32.3	12.0	4.00e-04	0	42	0	1225785344	20	4610
2026-01-12 10:34:53.52	341.21	12.58	-29.9	-31.7	12.4	2.19e-04	0	42	0	1227882496	20	4402
2026-01-12 10:34:54.53	341.21	12.48	-29.8	-31.4	12.6	9.76e-05	0	42	0	1229979648	20	4319
2026-01-12 10:34:55.53	341.22	12.39	-29.7	-31.1	12.8	4.95e-05	0	42	0	1231028224	20	4224
2026-01-12 10:34:56.54	341.23	12.29	-29.5	-30.4	13.2	3.89e-05	0	42	0	1233125376	20	4020
2026-01-12 10:34:57.55	341.23	12.20	-29.5	-30.5	13.2	1.67e-05	0	42	0	1235222528	20	4042
2026-01-12 10:34:58.55	341.24	12.10	-29.5	-30.5	13.2	2.05e-05	0	42	0	1237319680	20	4032
2026-01-12 10:34:59.56	341.25	12.01	-29.4	-30.3	13.2	1.90e-05	0	42	0	1239416832	20	3990
2026-01-12 10:35:00.56	341.25	11.91	-29.4	-30.2	13.4	1.67e-05	0	42	0	1240465408	20	3955
2026-01-12 10:35:01.57	341.26	11.82	-29.4	-30.4	13.2	3.50e-05	0	42	0	1242562560	20	4001
2026-01-12 10:35:02.58	341.27	11.73	-29.5	-30.4	13.2	2.67e-05	0	42	0	1244659712	20	4020
2026-01-12 10:35:03.59	341.27	11.63	-29.5	-30.5	13.1	3.50e-05	0	42	0	1246756864	20	4041
2026-01-12 10:35:04.59	341.28	11.54	-29.5	-30.5	13.2	1.44e-05	0	42	0	1247805440	20	4033
2026-01-12 10:35:05.60	341.29	11.45	-29.5	-30.5	13.1	2.21e-05	0	42	0	1249902592	20	4042
2026-01-12 10:35:06.60	341.29	11.36	-29.5	-30.4	13.2	2.21e-05	0	42	0	1251999744	20	4009
2026-01-12 10:35:07.61	341.30	11.26	-29.6	-30.7	13.0	3.50e-05	0	42	0	1254096896	20	4105
2026-01-12 10:35:08.61	341.31	11.17	-29.6	-30.8	12.9	2.82e-05	0	42	0	1256194048	20	4138
2026-01-12 10:35:09.61	341.31	11.08	-29.5	-30.6	13.0	4.73e-05	0	42	0	1258291200	20	4085
2026-01-12 10:35:10.61	341.32	10.99	-29.4	-30.3	13.2	2.74e-05	0	42	0	1259339776	20	3982
2026-01-12 10:35:11.62	341.33	10.90	-29.5	-30.6	13.0	3.28e-05	0	42	0	1261436928	20	4078
2026-01-12 10:35:12.62	341.33	10.81	-29.5	-30.5	13.1	3.81e-05	0	42	0	1263534080	20	4051
2026-01-12 10:35:13.63	341.34	10.72	-29.5	-30.6	13.0	3.20e-05	0	42	0	1265631232	20	4081
2026-01-12 10:35:14.64	341.35	10.63	-29.7	-31.1	12.6	6.56e-05	0	42	0	1266679808	20	4240
2026-01-12 10:35:15.64	341.35	10.54	-29.7	-31.0	12.8	1.28e-04	0	42	0	1268776960	20	4204
2026-01-12 10:35:16.65	341.36	10.45	-29.6	-30.8	12.9	4.65e-05	0	42	0	1270874112	20	4129
2026-01-12 10:35:17.65	341.37	10.37	-29.6	-30.8	12.9	4.04e-05	0	42	0	1272971264	20	4136
2026-01-12 10:35:18.66	341.37	10.28	-29.5	-30.6	13.0	5.34e-05	0	42	0	1275068416	20	4073
2026-01-12 10:35:19.66	341.38	10.19	-29.6	-30.8	12.8	3.66e-05	0	42	0	1276116992	20	4151
2026-01-12 10:35:20.67	341.39	10.10	-29.6	-30.8	12.9	4.50e-05	0	42	0	1278214144	20	4128
2026-01-12 10:35:21.67	341.39	10.02	-29.7	-31.1	12.7	5.26e-05	0	42	0	1280311296	20	4220
2026-01-12 10:35:22.68	341.40	9.93	-29.6	-30.8	12.8	5.34e-05	0	42	0	1282408448	20	4151
2026-01-12 10:35:23.68	341.41	9.84	-29.6	-30.8	12.8	5.64e-05	0	42	0	1284505600	20	4152
