passes_logs/2026/01/12/R2M6_AANII_01/R2M6_AANII_01__20260112_045629_FENGYUN_3E_rec.log

#Pass ID: 20260112_045629_FENGYUN 3E
#Satellite: FENGYUN 3E
#Configuration: FENGYUN 3E
#almurnet v.1.7.20240730
#Start time: 2026-01-12 05:00:40

#Version: 2.2.20231116
#Station: R2M6_AANII_01
#Location: 30.233357 lon 59.946436 lat
#TLE: 1 49008U 21062A   26011.27090272  .00000463  00000+0  23869-3 0  9994
#TLE: 2 49008  98.7490  16.4432 0001856 145.0812 215.0487 14.19886022234312

#Time	Az	El	Level	Level2	SNR	BER	BlckErr	Temp	State	Recorded	gain1	gain2
2026-01-12 05:00:40.50	4.12	41.84	-33.4	-45.0	3.8	8.46e-01	0	42	0	0	26	13600
2026-01-12 05:00:41.51	3.96	42.10	-33.9	-43.1	3.8	8.47e-01	0	42	104	0	28	10409
2026-01-12 05:00:42.52	3.80	42.37	-33.9	-43.2	3.8	8.46e-01	0	42	104	0	28	10462
2026-01-12 05:00:43.52	3.63	42.63	-33.9	-43.2	3.8	8.46e-01	0	42	104	0	28	10433
2026-01-12 05:00:44.53	3.46	42.90	-33.9	-43.3	3.8	8.45e-01	0	42	104	0	28	10573
2026-01-12 05:00:45.54	3.28	43.17	-34.0	-43.3	3.8	8.47e-01	0	42	104	0	28	10519
2026-01-12 05:00:46.54	3.11	43.44	-33.9	-43.2	3.8	8.47e-01	0	42	104	0	28	10523
2026-01-12 05:00:47.55	2.93	43.72	-33.9	-43.2	3.8	8.46e-01	0	42	104	0	28	10504
2026-01-12 05:00:48.55	2.75	43.99	-33.9	-43.2	3.8	8.46e-01	0	42	104	0	28	10504
2026-01-12 05:00:49.53	2.57	44.26	-33.9	-43.2	3.8	8.46e-01	0	42	104	0	28	10474
2026-01-12 05:00:50.53	2.38	44.54	-33.9	-43.1	3.8	8.45e-01	0	42	104	0	28	10457
2026-01-12 05:00:51.53	2.19	44.82	-33.9	-43.1	3.8	8.47e-01	0	42	104	0	28	10433
2026-01-12 05:00:52.53	1.99	45.09	-33.9	-43.1	3.8	8.45e-01	0	42	104	0	28	10457
2026-01-12 05:00:53.55	1.79	45.38	-33.9	-43.1	3.8	8.45e-01	0	42	104	0	28	10473
2026-01-12 05:00:54.55	1.59	45.66	-33.9	-43.1	3.8	8.45e-01	0	42	104	0	28	10394
2026-01-12 05:00:55.56	1.38	45.95	-33.9	-43.1	3.8	8.47e-01	0	42	104	0	28	10409
2026-01-12 05:00:56.57	1.17	46.24	-33.9	-43.2	3.8	8.46e-01	0	42	104	0	28	10529
2026-01-12 05:00:57.57	0.96	46.53	-34.0	-43.3	3.8	8.45e-01	0	42	104	0	28	10552
2026-01-12 05:00:58.58	0.74	46.82	-33.9	-43.3	3.8	8.46e-01	0	42	104	0	28	10533
2026-01-12 05:00:59.59	0.51	47.11	-33.9	-43.3	3.8	8.46e-01	0	42	104	0	28	10526
2026-01-12 05:01:00.60	0.29	47.41	-33.9	-43.3	3.8	8.46e-01	0	42	104	0	28	10528
2026-01-12 05:01:01.60	0.06	47.70	-33.9	-43.2	3.8	8.47e-01	0	42	104	0	28	10470
2026-01-12 05:01:02.61	359.82	48.00	-33.9	-43.1	3.8	8.46e-01	0	42	104	0	28	10444
2026-01-12 05:01:03.62	359.58	48.30	-33.9	-43.1	3.8	8.47e-01	0	42	104	0	28	10432
2026-01-12 05:01:04.62	359.33	48.60	-33.8	-43.1	3.8	8.46e-01	0	42	104	0	28	10398
2026-01-12 05:01:05.64	359.08	48.91	-33.8	-43.0	3.8	8.47e-01	0	42	104	0	28	10355
2026-01-12 05:01:06.64	358.82	49.21	-33.9	-43.0	3.8	8.46e-01	0	42	104	0	28	10367
2026-01-12 05:01:07.65	358.56	49.51	-33.8	-43.1	3.8	8.47e-01	0	42	104	0	28	10415
2026-01-12 05:01:08.65	358.30	49.82	-33.9	-43.1	3.8	8.47e-01	0	42	104	0	28	10456
2026-01-12 05:01:09.66	358.03	50.13	-33.9	-43.1	3.8	8.46e-01	0	42	104	0	28	10419
2026-01-12 05:01:10.66	357.75	50.43	-33.9	-43.1	3.8	8.46e-01	0	42	104	0	28	10424
2026-01-12 05:01:11.66	357.47	50.74	-33.8	-43.0	3.8	8.44e-01	0	42	104	0	28	10296
2026-01-12 05:01:12.67	357.18	51.05	-33.8	-42.9	3.8	8.46e-01	0	42	104	0	28	10294
2026-01-12 05:01:13.67	356.89	51.37	-33.8	-43.0	3.8	8.46e-01	0	42	104	0	28	10292
2026-01-12 05:01:14.68	356.58	51.68	-33.8	-42.7	3.8	8.47e-01	0	42	104	0	28	10062
2026-01-12 05:01:15.68	356.28	51.99	-33.8	-42.3	3.8	8.45e-01	0	42	104	0	28	9674
2026-01-12 05:01:16.67	355.97	52.31	-33.7	-42.1	3.8	8.47e-01	0	42	104	0	28	9422
2026-01-12 05:01:17.68	355.64	52.62	-33.7	-41.9	3.8	8.46e-01	0	42	104	0	28	9248
2026-01-12 05:01:18.69	355.31	52.94	-33.7	-41.6	3.8	8.44e-01	0	42	104	0	28	8938
2026-01-12 05:01:19.69	354.98	53.26	-33.7	-41.5	3.8	8.45e-01	0	42	104	0	28	8906
2026-01-12 05:01:20.69	354.64	53.58	-33.7	-41.9	3.8	8.46e-01	0	42	104	0	28	9236
2026-01-12 05:01:21.71	354.28	53.91	-33.8	-42.3	3.8	8.47e-01	0	42	104	0	28	9559
2026-01-12 05:01:22.71	353.93	54.23	-33.6	-41.3	3.8	8.45e-01	0	42	104	0	28	8668
2026-01-12 05:01:23.72	353.56	54.55	-33.4	-40.1	4.0	8.45e-01	0	42	104	0	28	7711
2026-01-12 05:01:24.73	353.18	54.88	-33.4	-40.1	3.9	8.42e-01	0	42	104	0	27	7738
2026-01-12 05:01:25.74	352.79	55.20	-33.3	-39.3	4.3	8.40e-01	0	42	104	0	27	7163
2026-01-12 05:01:26.75	352.40	55.53	-33.3	-39.1	4.0	8.41e-01	0	42	104	0	27	7057
2026-01-12 05:01:27.76	351.99	55.86	-32.8	-37.2	5.2	7.72e-01	0	42	104	0	26	6012
2026-01-12 05:01:28.77	351.58	56.19	-32.4	-36.2	5.9	3.68e-01	0	42	0	3145728	25	5615
2026-01-12 05:01:29.77	351.16	56.51	-32.5	-36.9	5.6	4.59e-01	0	42	0	10485760	25	5957
2026-01-12 05:01:30.78	350.72	56.84	-33.3	-39.8	4.3	8.09e-01	0	42	0	11534336	26	7644
2026-01-12 05:01:31.79	350.28	57.17	-32.2	-35.8	6.1	7.12e-01	0	42	0	11534336	25	5419
2026-01-12 05:01:32.79	349.83	57.50	-28.2	-28.9	13.0	7.11e-04	0	42	0	18874368	17	3891
2026-01-12 05:01:33.80	349.36	57.83	-26.0	-26.0	15.6	0.00e+00	0	42	0	26214400	13	3615
2026-01-12 05:01:34.80	348.88	58.15	-26.0	-26.6	15.5	0.00e+00	0	42	0	33554432	12	3838
2026-01-12 05:01:35.81	348.39	58.48	-26.6	-27.3	14.9	0.00e+00	0	42	0	40894464	13	3918
2026-01-12 05:01:36.81	347.89	58.81	-26.0	-26.5	15.5	0.00e+00	0	42	0	48234496	12	3831
2026-01-12 05:01:37.82	347.38	59.14	-26.3	-27.2	15.2	0.00e+00	0	41	0	55574528	12	3988
2026-01-12 05:01:38.83	346.85	59.47	-26.1	-26.8	15.4	0.00e+00	0	41	0	62914560	12	3884
2026-01-12 05:01:39.83	346.31	59.79	-25.9	-26.3	15.7	0.00e+00	0	42	0	70254592	12	3774
2026-01-12 05:01:40.84	345.75	60.12	-25.4	-25.7	16.3	0.00e+00	0	42	0	77594624	11	3719
2026-01-12 05:01:41.85	345.18	60.45	-25.0	-25.4	16.7	0.00e+00	0	42	0	84934656	10	3764
2026-01-12 05:01:42.85	344.60	60.77	-25.1	-25.5	16.7	0.00e+00	0	42	0	92274688	10	3793
2026-01-12 05:01:43.86	344.00	61.09	-24.9	-25.1	16.9	0.00e+00	0	42	0	99614720	10	3702
2026-01-12 05:01:44.87	343.38	61.42	-24.4	-24.1	17.5	0.00e+00	0	42	0	106954752	10	3480
2026-01-12 05:01:45.87	342.75	61.73	-24.2	-24.2	17.6	0.00e+00	0	42	0	114294784	9	3610
2026-01-12 05:01:46.87	342.11	62.05	-23.4	-23.0	18.5	0.00e+00	0	42	0	120586240	8	3438
2026-01-12 05:01:47.87	341.45	62.37	-23.5	-23.6	18.4	0.00e+00	0	42	0	127926272	7	3679
2026-01-12 05:01:48.87	340.77	62.68	-23.4	-23.6	18.4	0.00e+00	0	42	0	135266304	7	3669
2026-01-12 05:01:49.88	340.07	62.99	-23.5	-23.7	18.4	0.00e+00	0	42	0	142606336	7	3693
2026-01-12 05:01:50.88	339.35	63.30	-23.5	-23.8	18.3	0.00e+00	0	42	0	149946368	7	3706
2026-01-12 05:01:51.89	338.61	63.61	-23.4	-23.6	18.3	0.00e+00	0	42	0	157286400	7	3666
2026-01-12 05:01:52.89	337.86	63.92	-24.0	-24.7	17.8	0.00e+00	0	42	0	164626432	7	3916
2026-01-12 05:01:53.90	337.07	64.22	-23.7	-24.1	18.2	0.00e+00	0	41	0	171966464	7	3771
2026-01-12 05:01:54.90	336.28	64.52	-23.5	-23.6	18.4	0.00e+00	0	42	0	179306496	7	3676
2026-01-12 05:01:55.91	335.46	64.82	-23.3	-23.3	18.5	0.00e+00	0	42	0	185597952	7	3604
2026-01-12 05:01:56.90	334.63	65.11	-23.0	-22.7	18.8	0.00e+00	0	42	0	192937984	7	3469
2026-01-12 05:01:57.91	333.76	65.40	-23.2	-23.5	18.7	0.00e+00	0	41	0	200278016	6	3747
2026-01-12 05:01:58.91	332.88	65.68	-22.9	-22.9	19.0	0.00e+00	0	41	0	207618048	6	3605
2026-01-12 05:01:59.92	331.96	65.96	-22.7	-22.6	19.2	0.00e+00	0	42	0	214958080	6	3553
2026-01-12 05:02:00.92	331.04	66.23	-22.7	-22.6	19.1	0.00e+00	0	41	0	222298112	6	3558
2026-01-12 05:02:01.92	330.08	66.50	-23.1	-23.3	18.8	0.00e+00	0	42	0	229638144	6	3709
2026-01-12 05:02:02.93	329.10	66.77	-22.9	-22.9	18.9	0.00e+00	0	41	0	236978176	6	3621
2026-01-12 05:02:03.93	328.10	67.03	-22.8	-22.8	19.0	0.00e+00	0	42	0	244318208	6	3587
2026-01-12 05:02:04.94	327.06	67.28	-22.6	-22.4	19.2	0.00e+00	0	42	0	251658240	6	3502
2026-01-12 05:02:05.95	326.00	67.53	-22.3	-22.3	19.5	0.00e+00	0	41	0	258998272	5	3579
2026-01-12 05:02:06.96	324.91	67.77	-22.5	-22.7	19.3	0.00e+00	0	41	0	265289728	5	3679
2026-01-12 05:02:07.96	323.81	68.01	-22.8	-23.2	19.0	0.00e+00	0	41	0	273678336	5	3771
2026-01-12 05:02:08.97	322.67	68.24	-23.3	-23.7	18.6	0.00e+00	0	41	0	281018368	6	3790
2026-01-12 05:02:09.98	321.51	68.46	-23.2	-23.5	18.7	0.00e+00	0	42	0	287309824	6	3749
2026-01-12 05:02:10.98	320.33	68.67	-22.8	-22.8	19.0	0.00e+00	0	41	0	294649856	6	3595
2026-01-12 05:02:11.99	319.11	68.87	-22.6	-22.3	19.3	0.00e+00	0	41	0	301989888	6	3480
2026-01-12 05:02:12.99	317.89	69.06	-22.7	-22.5	19.1	0.00e+00	0	41	0	309329920	6	3526
2026-01-12 05:02:13.99	316.63	69.25	-23.0	-23.1	18.9	0.00e+00	0	41	0	316669952	6	3656
2026-01-12 05:02:14.99	315.36	69.43	-23.5	-24.2	18.2	0.00e+00	0	41	0	324009984	6	3922
2026-01-12 05:02:15.99	314.06	69.59	-23.3	-23.3	18.6	0.00e+00	0	42	0	331350016	7	3600
2026-01-12 05:02:16.98	312.75	69.75	-22.7	-22.7	19.1	0.00e+00	0	41	0	338690048	6	3565
2026-01-12 05:02:17.97	311.42	69.89	-22.6	-22.3	19.2	0.00e+00	0	41	0	346030080	6	3499
2026-01-12 05:02:18.97	310.06	70.03	-22.5	-22.1	19.4	0.00e+00	0	42	0	352321536	6	3450
2026-01-12 05:02:19.96	308.69	70.16	-22.8	-22.8	18.9	0.00e+00	0	42	0	359661568	6	3601
2026-01-12 05:02:20.96	307.29	70.27	-23.1	-23.5	18.6	0.00e+00	0	41	0	367001600	6	3749
2026-01-12 05:02:21.96	305.87	70.38	-23.2	-23.6	18.6	0.00e+00	0	42	0	374341632	6	3764
2026-01-12 05:02:22.95	304.45	70.47	-23.0	-23.2	18.8	0.00e+00	0	41	0	381681664	6	3686
2026-01-12 05:02:23.95	303.00	70.55	-23.1	-23.3	18.7	0.00e+00	0	42	0	387973120	6	3705
2026-01-12 05:02:24.94	301.56	70.62	-22.8	-22.7	19.0	0.00e+00	0	42	0	395313152	6	3574
2026-01-12 05:02:25.94	300.09	70.68	-22.5	-22.1	19.2	0.00e+00	0	42	0	402653184	6	3451
2026-01-12 05:02:26.93	298.62	70.72	-22.7	-22.5	19.1	0.00e+00	0	42	0	409993216	6	3530
2026-01-12 05:02:27.93	297.14	70.76	-23.0	-23.3	18.7	0.00e+00	0	42	0	417333248	6	3702
2026-01-12 05:02:28.91	295.68	70.78	-23.3	-23.8	18.5	0.00e+00	0	42	0	424673280	6	3824
2026-01-12 05:02:29.91	294.19	70.79	-23.4	-23.6	18.3	0.00e+00	0	42	0	432013312	7	3677
2026-01-12 05:02:30.91	292.70	70.79	-23.2	-23.1	18.6	0.00e+00	0	42	0	438304768	7	3575
2026-01-12 05:02:31.90	291.22	70.77	-22.9	-22.9	18.9	0.00e+00	0	42	0	445644800	6	3619
2026-01-12 05:02:32.90	289.73	70.75	-23.4	-24.1	18.3	0.00e+00	0	42	0	452984832	6	3880
2026-01-12 05:02:33.90	288.25	70.71	-23.5	-23.7	18.2	0.00e+00	0	42	0	460324864	7	3698
2026-01-12 05:02:34.89	286.79	70.66	-23.9	-24.6	17.9	0.00e+00	0	42	0	467664896	7	3893
2026-01-12 05:02:35.89	285.32	70.59	-23.3	-23.4	18.4	0.00e+00	0	42	0	475004928	7	3622
2026-01-12 05:02:36.88	283.88	70.52	-22.9	-22.5	18.9	0.00e+00	0	42	0	482344960	7	3431
2026-01-12 05:02:37.88	282.44	70.43	-23.1	-23.5	18.6	0.00e+00	0	42	0	489684992	6	3741
2026-01-12 05:02:38.88	281.01	70.34	-23.4	-23.9	18.4	0.00e+00	0	42	0	495976448	6	3851
2026-01-12 05:02:39.88	279.60	70.23	-23.4	-24.1	18.3	0.00e+00	0	42	0	503316480	6	3885
2026-01-12 05:02:40.89	278.19	70.11	-23.2	-23.5	18.6	0.00e+00	0	42	0	510656512	6	3751
2026-01-12 05:02:41.89	276.82	69.98	-22.9	-22.9	18.9	0.00e+00	0	42	0	517996544	6	3622
2026-01-12 05:02:42.90	275.45	69.83	-23.1	-23.3	18.7	0.00e+00	0	42	0	525336576	6	3717
2026-01-12 05:02:43.90	274.11	69.68	-23.0	-23.3	18.7	0.00e+00	0	42	0	532676608	6	3699
2026-01-12 05:02:44.91	272.78	69.52	-22.9	-23.0	18.9	0.00e+00	0	42	0	540016640	6	3636
2026-01-12 05:02:45.92	271.48	69.35	-23.0	-23.2	18.8	2.20e-06	0	42	0	547356672	6	3679
2026-01-12 05:02:46.92	270.22	69.16	-22.9	-23.0	18.9	0.00e+00	0	42	0	554696704	6	3634
2026-01-12 05:02:47.93	268.96	68.97	-23.0	-23.1	18.8	0.00e+00	0	42	0	562036736	6	3665
2026-01-12 05:02:48.94	267.73	68.77	-22.6	-22.3	19.2	0.00e+00	0	42	0	569376768	6	3481
2026-01-12 05:02:49.94	266.54	68.57	-22.3	-22.3	19.4	0.00e+00	0	42	0	575668224	5	3580
2026-01-12 05:02:50.95	265.36	68.35	-22.6	-22.8	19.0	0.00e+00	0	42	0	583008256	5	3705
2026-01-12 05:02:51.96	264.21	68.13	-22.8	-23.3	18.9	0.00e+00	0	42	0	590348288	5	3807
2026-01-12 05:02:52.97	263.08	67.89	-23.1	-23.5	18.5	0.00e+00	0	42	0	597688320	6	3749
2026-01-12 05:02:53.97	261.99	67.66	-22.8	-22.8	18.9	0.00e+00	0	42	0	605028352	6	3594
2026-01-12 05:02:54.98	260.91	67.41	-22.5	-22.2	19.2	0.00e+00	0	42	0	612368384	6	3468
2026-01-12 05:02:55.99	259.86	67.16	-22.7	-22.6	19.0	0.00e+00	0	42	0	619708416	6	3554
2026-01-12 05:02:57.00	258.84	66.90	-22.7	-22.6	19.1	0.00e+00	0	42	0	627048448	6	3542
2026-01-12 05:02:58.00	257.85	66.64	-23.0	-23.3	18.6	0.00e+00	0	42	0	634388480	6	3708
2026-01-12 05:02:59.01	256.87	66.37	-22.9	-23.0	18.8	0.00e+00	0	42	0	641728512	6	3646
2026-01-12 05:03:00.02	255.92	66.09	-22.9	-22.9	18.8	0.00e+00	0	42	0	649068544	6	3623
2026-01-12 05:03:01.03	254.99	65.81	-23.0	-23.2	18.7	0.00e+00	0	42	0	656408576	6	3675
2026-01-12 05:03:02.03	254.10	65.53	-22.8	-22.7	19.0	0.00e+00	0	42	0	663748608	6	3577
2026-01-12 05:03:03.04	253.22	65.24	-22.6	-22.4	19.2	0.00e+00	0	42	0	671088640	6	3506
2026-01-12 05:03:04.04	252.37	64.95	-22.9	-22.9	18.9	0.00e+00	0	42	0	678428672	6	3621
2026-01-12 05:03:05.05	251.53	64.66	-23.1	-23.4	18.6	0.00e+00	0	42	0	684720128	6	3722
2026-01-12 05:03:06.06	250.72	64.36	-23.4	-24.0	18.3	0.00e+00	0	42	0	692060160	6	3871
2026-01-12 05:03:07.06	249.93	64.06	-23.2	-23.6	18.4	0.00e+00	0	42	0	700448768	6	3775
2026-01-12 05:03:08.07	249.16	63.75	-23.1	-23.4	18.7	0.00e+00	0	42	0	706740224	6	3723
2026-01-12 05:03:09.08	248.41	63.44	-23.3	-23.7	18.5	0.00e+00	0	42	0	714080256	6	3803
2026-01-12 05:03:10.08	247.68	63.13	-23.1	-23.4	18.6	0.00e+00	0	42	0	721420288	6	3731
2026-01-12 05:03:11.09	246.97	62.82	-23.0	-23.2	18.7	0.00e+00	0	42	0	728760320	6	3678
2026-01-12 05:03:12.10	246.27	62.50	-23.1	-23.4	18.4	0.00e+00	0	42	0	736100352	6	3735
2026-01-12 05:03:13.10	245.60	62.19	-23.2	-23.7	18.5	0.00e+00	0	42	0	743440384	6	3782
2026-01-12 05:03:14.11	244.94	61.87	-23.7	-24.1	17.9	0.00e+00	0	42	0	750780416	7	3790
2026-01-12 05:03:15.12	244.30	61.54	-23.8	-24.4	17.8	0.00e+00	0	42	0	758120448	7	3855
2026-01-12 05:03:16.12	243.68	61.22	-23.8	-24.3	17.9	0.00e+00	0	42	0	765460480	7	3824
2026-01-12 05:03:17.13	243.07	60.90	-23.5	-23.7	18.2	0.00e+00	0	42	0	772800512	7	3692
2026-01-12 05:03:18.14	242.48	60.57	-23.7	-24.1	17.9	0.00e+00	0	42	0	780140544	7	3784
2026-01-12 05:03:19.15	241.90	60.25	-24.0	-24.8	17.6	0.00e+00	0	42	0	786432000	7	3944
2026-01-12 05:03:20.15	241.34	59.92	-24.5	-25.3	17.1	0.00e+00	0	42	0	793772032	8	3964
2026-01-12 05:03:21.16	240.79	59.59	-24.6	-25.2	16.9	0.00e+00	0	42	0	801112064	9	3828
2026-01-12 05:03:22.17	240.25	59.26	-24.5	-25.0	17.0	0.00e+00	0	42	0	808452096	9	3776
2026-01-12 05:03:23.18	239.73	58.93	-24.5	-24.8	17.1	0.00e+00	0	42	0	815792128	9	3737
2026-01-12 05:03:24.18	239.23	58.61	-24.8	-25.4	16.8	0.00e+00	0	42	0	823132160	9	3866
2026-01-12 05:03:25.19	238.73	58.28	-24.6	-25.1	16.9	0.00e+00	0	42	0	830472192	9	3811
2026-01-12 05:03:26.19	238.25	57.95	-24.5	-24.9	17.0	0.00e+00	0	42	0	837812224	9	3759
2026-01-12 05:03:27.20	237.77	57.62	-24.6	-25.0	17.0	0.00e+00	0	42	0	845152256	9	3785
2026-01-12 05:03:28.20	237.32	57.29	-24.6	-25.1	16.9	0.00e+00	0	42	0	852492288	9	3799
2026-01-12 05:03:29.21	236.87	56.96	-24.5	-24.7	17.1	0.00e+00	0	42	0	859832320	9	3725
2026-01-12 05:03:30.22	236.43	56.63	-24.1	-24.0	17.5	0.00e+00	0	42	0	867172352	9	3546
2026-01-12 05:03:31.23	236.00	56.30	-23.9	-24.2	17.7	0.00e+00	0	42	0	874512384	8	3693
2026-01-12 05:03:32.23	235.58	55.97	-24.0	-24.3	17.6	0.00e+00	0	42	0	881852416	8	3729
2026-01-12 05:03:33.24	235.17	55.64	-24.3	-24.9	17.3	0.00e+00	0	42	0	889192448	8	3850
2026-01-12 05:03:34.24	234.77	55.32	-24.5	-25.3	17.1	0.00e+00	0	42	0	895483904	8	3945
2026-01-12 05:03:35.25	234.38	54.99	-24.1	-24.4	17.5	0.00e+00	0	42	0	902823936	8	3753
2026-01-12 05:03:36.26	234.00	54.67	-23.7	-23.5	17.9	0.00e+00	0	42	0	910163968	8	3553
2026-01-12 05:03:37.26	233.63	54.34	-23.8	-23.9	17.8	0.00e+00	0	42	0	917504000	8	3633
2026-01-12 05:03:38.27	233.27	54.02	-24.0	-24.4	17.5	0.00e+00	0	42	0	924844032	8	3737
2026-01-12 05:03:39.27	232.91	53.70	-24.2	-24.7	17.4	0.00e+00	0	42	0	932184064	8	3827
2026-01-12 05:03:40.28	232.56	53.37	-24.4	-25.1	17.2	0.00e+00	0	42	0	939524096	8	3910
2026-01-12 05:03:41.28	232.22	53.05	-24.5	-24.9	17.0	0.00e+00	0	42	0	946864128	9	3771
2026-01-12 05:03:42.28	231.89	52.73	-24.3	-24.5	17.2	0.00e+00	0	42	0	954204160	9	3677
2026-01-12 05:03:43.28	231.57	52.42	-24.2	-24.1	17.4	0.00e+00	0	42	0	961544192	9	3593
2026-01-12 05:03:44.29	231.25	52.10	-24.1	-24.0	17.5	0.00e+00	0	42	0	968884224	9	3550
2026-01-12 05:03:45.30	230.94	51.78	-24.2	-24.2	17.3	0.00e+00	0	42	0	976224256	9	3596
2026-01-12 05:03:46.30	230.63	51.47	-24.2	-24.3	17.3	0.00e+00	0	42	0	982515712	9	3625
2026-01-12 05:03:47.31	230.34	51.15	-24.6	-25.0	16.9	0.00e+00	0	42	0	990904320	9	3790
2026-01-12 05:03:48.32	230.04	50.83	-24.6	-25.2	16.8	0.00e+00	0	42	0	998244352	9	3826
2026-01-12 05:03:49.33	229.75	50.52	-24.5	-24.9	16.9	0.00e+00	0	42	0	1004535808	9	3775
2026-01-12 05:03:50.33	229.48	50.21	-24.1	-24.0	17.4	0.00e+00	0	42	0	1011875840	9	3568
2026-01-12 05:03:51.34	229.20	49.90	-23.8	-23.8	17.8	0.00e+00	0	42	0	1019215872	8	3608
2026-01-12 05:03:52.35	228.93	49.59	-23.6	-23.3	18.0	0.00e+00	0	42	0	1026555904	8	3509
2026-01-12 05:03:53.36	228.67	49.29	-23.6	-23.5	18.0	0.00e+00	0	42	0	1033895936	8	3552
2026-01-12 05:03:54.36	228.41	48.98	-23.8	-23.9	17.7	0.00e+00	0	42	0	1041235968	8	3639
2026-01-12 05:03:55.37	228.15	48.68	-24.1	-24.6	17.4	0.00e+00	0	42	0	1048576000	8	3798
2026-01-12 05:03:56.37	227.91	48.38	-24.0	-24.3	17.5	0.00e+00	0	42	0	1055916032	8	3734
2026-01-12 05:03:57.38	227.66	48.08	-24.0	-24.4	17.3	0.00e+00	0	42	0	1063256064	8	3758
2026-01-12 05:03:58.39	227.42	47.78	-23.9	-24.1	17.6	0.00e+00	0	42	0	1070596096	8	3690
2026-01-12 05:03:59.40	227.19	47.48	-24.0	-24.3	17.5	0.00e+00	0	42	0	1077936128	8	3721
2026-01-12 05:04:00.41	226.96	47.18	-23.7	-23.6	17.9	0.00e+00	0	42	0	1084227584	8	3569
2026-01-12 05:04:01.40	226.74	46.89	-23.7	-23.7	17.9	0.00e+00	0	42	0	1091567616	8	3586
2026-01-12 05:04:02.41	226.51	46.60	-23.7	-23.8	17.8	0.00e+00	0	42	0	1099956224	8	3607
2026-01-12 05:04:03.42	226.30	46.30	-23.6	-24.0	17.9	0.00e+00	0	42	0	1106247680	7	3758
2026-01-12 05:04:04.42	226.09	46.02	-23.7	-24.1	17.8	0.00e+00	0	42	0	1113587712	7	3782
2026-01-12 05:04:05.42	225.88	45.73	-23.8	-24.3	17.7	0.00e+00	0	42	0	1120927744	7	3836
2026-01-12 05:04:06.43	225.67	45.44	-23.8	-24.3	17.7	0.00e+00	0	42	0	1128267776	7	3824
2026-01-12 05:04:07.44	225.47	45.16	-23.6	-24.0	17.9	0.00e+00	0	42	0	1135607808	7	3764
2026-01-12 05:04:08.45	225.27	44.87	-23.4	-23.6	18.1	0.00e+00	0	42	0	1142947840	7	3668
2026-01-12 05:04:09.46	225.08	44.59	-23.3	-23.4	18.2	0.00e+00	0	42	0	1150287872	7	3619
2026-01-12 05:04:10.46	224.89	44.31	-23.1	-22.9	18.5	0.00e+00	0	42	0	1157627904	7	3528
2026-01-12 05:04:11.46	224.70	44.04	-23.2	-23.0	18.4	0.00e+00	0	42	0	1164967936	7	3549
2026-01-12 05:04:12.47	224.51	43.76	-23.2	-23.1	18.4	0.00e+00	0	42	0	1172307968	7	3555
2026-01-12 05:04:13.48	224.33	43.48	-23.2	-23.1	18.2	0.00e+00	0	42	0	1179648000	7	3566
2026-01-12 05:04:14.48	224.16	43.21	-23.5	-23.7	18.0	0.00e+00	0	42	0	1186988032	7	3702
2026-01-12 05:04:15.48	223.98	42.94	-23.7	-24.2	17.8	0.00e+00	0	42	0	1193279488	7	3817
2026-01-12 05:04:16.49	223.81	42.67	-23.8	-24.5	17.6	0.00e+00	0	42	0	1200619520	7	3875
2026-01-12 05:04:17.49	223.64	42.40	-24.0	-24.8	17.5	0.00e+00	0	42	0	1207959552	7	3950
2026-01-12 05:04:18.50	223.47	42.13	-23.9	-24.2	17.5	0.00e+00	0	42	0	1215299584	8	3704
2026-01-12 05:04:19.50	223.31	41.87	-23.7	-23.7	17.8	0.00e+00	0	42	0	1222639616	8	3598
2026-01-12 05:04:20.51	223.15	41.61	-23.7	-23.8	17.7	0.00e+00	0	42	0	1229979648	8	3608
2026-01-12 05:04:21.52	222.99	41.34	-23.7	-23.7	17.8	0.00e+00	0	42	0	1237319680	8	3594
2026-01-12 05:04:22.53	222.84	41.08	-23.9	-24.1	17.6	0.00e+00	0	42	0	1244659712	8	3688
2026-01-12 05:04:23.53	222.68	40.82	-23.9	-24.1	17.5	0.00e+00	0	42	0	1251999744	8	3695
2026-01-12 05:04:24.54	222.53	40.57	-23.5	-23.3	18.0	0.00e+00	0	42	0	1259339776	8	3516
2026-01-12 05:04:25.55	222.38	40.31	-23.3	-23.4	18.1	0.00e+00	0	42	0	1266679808	7	3623
2026-01-12 05:04:26.55	222.24	40.06	-23.5	-23.7	17.9	0.00e+00	0	42	0	1272971264	7	3705
2026-01-12 05:04:27.55	222.10	39.81	-23.4	-23.4	18.1	0.00e+00	0	42	0	1280311296	7	3638
2026-01-12 05:04:28.56	221.96	39.55	-23.1	-22.9	18.4	0.00e+00	0	42	0	1288699904	7	3515
2026-01-12 05:04:29.57	221.82	39.30	-23.2	-23.1	18.3	0.00e+00	0	42	0	1294991360	7	3569
2026-01-12 05:04:30.58	221.68	39.06	-23.0	-22.8	18.5	0.00e+00	0	42	0	1302331392	7	3498
2026-01-12 05:04:31.58	221.54	38.81	-23.1	-23.0	18.4	0.00e+00	0	42	0	1309671424	7	3535
2026-01-12 05:04:32.59	221.41	38.57	-23.1	-22.8	18.4	0.00e+00	0	42	0	1317011456	7	3507
2026-01-12 05:04:33.60	221.28	38.32	-23.1	-23.0	18.4	0.00e+00	0	42	0	1324351488	7	3533
2026-01-12 05:04:34.61	221.15	38.08	-23.0	-22.8	18.5	0.00e+00	0	42	0	1331691520	7	3499
2026-01-12 05:04:35.62	221.02	37.84	-23.0	-22.7	18.5	0.00e+00	0	42	0	1339031552	7	3476
2026-01-12 05:04:36.62	220.90	37.60	-23.0	-22.7	18.5	0.00e+00	0	42	0	1346371584	7	3487
2026-01-12 05:04:37.63	220.78	37.37	-23.1	-22.9	18.4	0.00e+00	0	42	0	1353711616	7	3517
2026-01-12 05:04:38.63	220.66	37.13	-22.9	-22.5	18.6	0.00e+00	0	42	0	1361051648	7	3445
2026-01-12 05:04:39.63	220.54	36.90	-22.9	-23.1	18.6	0.00e+00	0	42	0	1368391680	6	3662
2026-01-12 05:04:40.63	220.42	36.67	-22.8	-22.7	18.7	0.00e+00	0	42	0	1375731712	6	3586
2026-01-12 05:04:41.63	220.30	36.44	-22.6	-22.4	18.9	0.00e+00	0	42	0	1382023168	6	3513
2026-01-12 05:04:42.64	220.19	36.21	-22.4	-22.4	19.1	0.00e+00	0	42	0	1389363200	5	3610
2026-01-12 05:04:43.65	220.08	35.98	-22.5	-22.7	18.8	0.00e+00	0	42	0	1396703232	5	3675
2026-01-12 05:04:44.65	219.97	35.76	-22.4	-22.4	19.1	0.00e+00	0	42	0	1404043264	5	3616
2026-01-12 05:04:45.65	219.86	35.53	-22.2	-22.1	19.2	0.00e+00	0	42	0	1411383296	5	3554
2026-01-12 05:04:46.66	219.75	35.31	-22.2	-22.1	19.2	0.00e+00	0	42	0	1418723328	5	3559
2026-01-12 05:04:47.67	219.64	35.09	-22.3	-22.4	19.0	0.00e+00	0	42	0	1426063360	5	3611
2026-01-12 05:04:48.67	219.54	34.87	-22.7	-23.1	18.7	0.00e+00	0	42	0	1433403392	5	3782
2026-01-12 05:04:49.67	219.43	34.65	-22.6	-22.9	18.9	0.00e+00	0	42	0	1440743424	5	3726
2026-01-12 05:04:50.68	219.33	34.43	-22.6	-22.9	18.8	0.00e+00	0	42	0	1448083456	5	3733
2026-01-12 05:04:51.69	219.23	34.22	-22.7	-23.1	18.8	0.00e+00	0	42	0	1455423488	5	3761
2026-01-12 05:04:52.69	219.13	34.00	-22.7	-23.2	18.7	0.00e+00	0	42	0	1462763520	5	3788
2026-01-12 05:04:53.69	219.03	33.79	-23.0	-23.7	18.4	0.00e+00	0	42	0	1469054976	5	3909
2026-01-12 05:04:54.70	218.94	33.58	-23.1	-23.5	18.3	0.00e+00	0	42	0	1476395008	6	3751
2026-01-12 05:04:55.70	218.84	33.37	-22.9	-23.1	18.5	0.00e+00	0	42	0	1483735040	6	3658
2026-01-12 05:04:56.71	218.75	33.16	-22.9	-23.0	18.5	0.00e+00	0	42	0	1491075072	6	3650
2026-01-12 05:04:57.72	218.65	32.95	-22.9	-23.1	18.5	0.00e+00	0	42	0	1498415104	6	3660
2026-01-12 05:04:58.73	218.56	32.74	-23.1	-23.4	18.4	0.00e+00	0	42	0	1505755136	6	3732
2026-01-12 05:04:59.73	218.47	32.54	-23.2	-23.6	18.2	1.10e-06	0	42	0	1513095168	6	3775
2026-01-12 05:05:00.74	218.38	32.33	-22.9	-22.9	18.6	0.00e+00	0	42	0	1520435200	6	3629
2026-01-12 05:05:01.75	218.29	32.13	-22.6	-22.5	18.8	0.00e+00	0	42	0	1527775232	6	3529
2026-01-12 05:05:02.76	218.20	31.93	-22.6	-22.3	18.9	1.10e-06	0	42	0	1535115264	6	3500
2026-01-12 05:05:03.76	218.12	31.73	-22.7	-22.6	18.8	0.00e+00	0	42	0	1542455296	6	3553
2026-01-12 05:05:04.75	218.04	31.53	-22.6	-22.4	18.8	0.00e+00	0	42	0	1548746752	6	3521
2026-01-12 05:05:05.76	217.95	31.33	-22.7	-22.6	18.7	0.00e+00	0	42	0	1556086784	6	3558
2026-01-12 05:05:06.76	217.87	31.14	-22.6	-22.4	18.8	0.00e+00	0	42	0	1564475392	6	3523
2026-01-12 05:05:07.76	217.79	30.95	-22.8	-22.9	18.6	0.00e+00	0	42	0	1570766848	6	3619
2026-01-12 05:05:08.77	217.71	30.75	-22.8	-22.7	18.7	0.00e+00	0	42	0	1578106880	6	3578
2026-01-12 05:05:09.77	217.63	30.56	-22.5	-22.3	18.9	0.00e+00	0	42	0	1585446912	6	3484
2026-01-12 05:05:10.78	217.55	30.37	-22.5	-22.1	19.0	0.00e+00	0	42	0	1592786944	6	3450
2026-01-12 05:05:11.78	217.47	30.18	-22.6	-22.4	18.8	0.00e+00	0	42	0	1600126976	6	3522
2026-01-12 05:05:12.79	217.39	29.99	-22.6	-22.4	18.8	0.00e+00	0	42	0	1607467008	6	3506
2026-01-12 05:05:13.79	217.32	29.80	-22.7	-22.5	18.7	0.00e+00	0	42	0	1614807040	6	3539
2026-01-12 05:05:14.79	217.24	29.62	-22.6	-22.4	18.8	1.10e-06	0	42	0	1622147072	6	3521
2026-01-12 05:05:15.80	217.17	29.43	-22.6	-22.3	18.8	0.00e+00	0	42	0	1629487104	6	3503
2026-01-12 05:05:16.81	217.09	29.24	-22.7	-22.6	18.7	0.00e+00	0	42	0	1635778560	6	3558
2026-01-12 05:05:17.82	217.02	29.06	-22.6	-22.3	18.8	0.00e+00	0	42	0	1644167168	6	3499
2026-01-12 05:05:18.82	216.95	28.88	-22.6	-22.4	18.8	0.00e+00	0	42	0	1651507200	6	3521
2026-01-12 05:05:19.83	216.88	28.70	-22.7	-22.7	18.6	0.00e+00	0	42	0	1657798656	6	3573
2026-01-12 05:05:20.83	216.81	28.52	-23.3	-23.8	18.1	0.00e+00	0	42	0	1665138688	6	3813
2026-01-12 05:05:21.84	216.74	28.34	-22.8	-22.8	18.6	0.00e+00	0	42	0	1672478720	6	3593
2026-01-12 05:05:22.85	216.67	28.16	-22.6	-22.4	18.8	0.00e+00	0	42	0	1679818752	6	3516
2026-01-12 05:05:23.85	216.60	27.99	-22.6	-22.5	18.7	0.00e+00	0	42	0	1687158784	6	3530
2026-01-12 05:05:24.86	216.54	27.81	-22.9	-23.0	18.5	0.00e+00	0	42	0	1694498816	6	3639
2026-01-12 05:05:25.86	216.47	27.64	-22.8	-22.7	18.6	0.00e+00	0	42	0	1701838848	6	3583
2026-01-12 05:05:26.87	216.40	27.46	-23.0	-23.2	18.3	0.00e+00	0	42	0	1709178880	6	3694
2026-01-12 05:05:27.87	216.34	27.29	-22.9	-23.1	18.4	0.00e+00	0	42	0	1716518912	6	3662
2026-01-12 05:05:28.88	216.28	27.12	-22.9	-23.0	18.4	0.00e+00	0	42	0	1723858944	6	3652
2026-01-12 05:05:29.88	216.21	26.95	-23.0	-23.1	18.4	0.00e+00	0	42	0	1731198976	6	3679
2026-01-12 05:05:30.89	216.15	26.78	-23.0	-23.2	18.4	0.00e+00	0	42	0	1737490432	6	3686
2026-01-12 05:05:31.89	216.09	26.61	-23.0	-23.3	18.3	0.00e+00	0	42	0	1744830464	6	3714
2026-01-12 05:05:32.90	216.03	26.45	-23.2	-23.7	18.1	0.00e+00	0	42	0	1752170496	6	3790
2026-01-12 05:05:33.91	215.97	26.28	-23.3	-23.9	18.0	0.00e+00	0	42	0	1759510528	6	3840
2026-01-12 05:05:34.92	215.91	26.11	-23.3	-23.9	18.0	0.00e+00	0	42	0	1766850560	6	3842
2026-01-12 05:05:35.92	215.85	25.95	-23.3	-23.9	18.0	0.00e+00	0	42	0	1774190592	6	3846
2026-01-12 05:05:36.93	215.79	25.79	-23.3	-23.9	18.0	0.00e+00	0	42	0	1781530624	6	3841
2026-01-12 05:05:37.94	215.73	25.62	-23.5	-24.2	17.8	0.00e+00	0	42	0	1788870656	6	3915
2026-01-12 05:05:38.95	215.67	25.46	-23.1	-23.4	18.2	0.00e+00	0	42	0	1796210688	6	3731
2026-01-12 05:05:39.96	215.62	25.30	-23.4	-24.1	17.9	0.00e+00	0	42	0	1803550720	6	3898
2026-01-12 05:05:40.97	215.56	25.14	-23.1	-23.4	18.2	0.00e+00	0	42	0	1810890752	6	3722
2026-01-12 05:05:41.98	215.51	24.98	-22.9	-22.9	18.4	0.00e+00	0	42	0	1818230784	6	3631
2026-01-12 05:05:42.99	215.45	24.82	-22.8	-22.8	18.5	0.00e+00	0	42	0	1825570816	6	3593
2026-01-12 05:05:43.99	215.40	24.67	-22.9	-22.9	18.5	0.00e+00	0	42	0	1832910848	6	3625
2026-01-12 05:05:44.99	215.34	24.51	-22.8	-22.7	18.5	0.00e+00	0	42	0	1840250880	6	3586
2026-01-12 05:05:46.00	215.29	24.36	-22.8	-22.8	18.5	0.00e+00	0	42	0	1846542336	6	3609
2026-01-12 05:05:47.01	215.24	24.20	-22.9	-23.1	18.3	0.00e+00	0	42	0	1853882368	6	3667
2026-01-12 05:05:48.02	215.18	24.05	-22.9	-23.0	18.4	0.00e+00	0	42	0	1862270976	6	3641
2026-01-12 05:05:49.02	215.13	23.90	-22.8	-22.8	18.5	0.00e+00	0	42	0	1868562432	6	3605
2026-01-12 05:05:50.03	215.08	23.74	-22.8	-22.9	18.5	0.00e+00	0	42	0	1875902464	6	3623
2026-01-12 05:05:51.04	215.03	23.59	-22.8	-22.9	18.4	0.00e+00	0	42	0	1883242496	6	3620
2026-01-12 05:05:52.04	214.98	23.44	-22.9	-23.1	18.4	0.00e+00	0	42	0	1890582528	6	3662
2026-01-12 05:05:53.05	214.93	23.29	-22.9	-23.1	18.4	0.00e+00	0	42	0	1897922560	6	3663
2026-01-12 05:05:54.06	214.88	23.14	-22.9	-23.1	18.4	0.00e+00	0	42	0	1905262592	6	3659
2026-01-12 05:05:55.06	214.83	23.00	-22.9	-23.1	18.3	0.00e+00	0	42	0	1912602624	6	3662
2026-01-12 05:05:56.07	214.79	22.85	-23.0	-23.3	18.2	0.00e+00	0	42	0	1919942656	6	3713
2026-01-12 05:05:57.07	214.74	22.71	-23.0	-23.1	18.3	0.00e+00	0	42	0	1927282688	6	3678
2026-01-12 05:05:58.07	214.69	22.56	-23.0	-23.1	18.3	0.00e+00	0	42	0	1934622720	6	3677
2026-01-12 05:05:59.08	214.65	22.42	-23.0	-23.3	18.2	0.00e+00	0	42	0	1941962752	6	3715
2026-01-12 05:06:00.09	214.60	22.27	-23.0	-23.2	18.2	0.00e+00	0	42	0	1949302784	6	3700
2026-01-12 05:06:01.10	214.55	22.13	-23.1	-23.4	18.2	0.00e+00	0	42	0	1955594240	6	3728
2026-01-12 05:06:02.10	214.51	21.99	-23.3	-23.8	17.9	0.00e+00	0	42	0	1962934272	6	3832
2026-01-12 05:06:03.11	214.46	21.85	-23.1	-23.4	18.1	0.00e+00	0	42	0	1970274304	6	3740
2026-01-12 05:06:04.12	214.42	21.71	-23.0	-23.2	18.2	0.00e+00	0	42	0	1977614336	6	3686
2026-01-12 05:06:05.12	214.37	21.57	-23.0	-23.3	18.2	0.00e+00	0	42	0	1984954368	6	3714
2026-01-12 05:06:06.13	214.33	21.43	-23.1	-23.5	18.1	0.00e+00	0	42	0	1992294400	6	3751
2026-01-12 05:06:07.14	214.29	21.29	-23.1	-23.5	18.0	0.00e+00	0	42	0	1999634432	6	3756
2026-01-12 05:06:08.15	214.24	21.15	-23.2	-23.7	17.9	0.00e+00	0	42	0	2006974464	6	3812
2026-01-12 05:06:09.16	214.20	21.02	-23.2	-23.6	18.0	0.00e+00	0	42	0	2014314496	6	3791
2026-01-12 05:06:10.17	214.16	20.88	-23.3	-24.0	17.8	0.00e+00	0	42	0	2021654528	6	3869
2026-01-12 05:06:11.17	214.12	20.75	-23.3	-23.9	17.8	0.00e+00	0	42	0	2028994560	6	3853
2026-01-12 05:06:12.18	214.08	20.61	-23.5	-24.3	17.6	0.00e+00	0	42	0	2036334592	6	3943
2026-01-12 05:06:13.18	214.04	20.48	-23.4	-24.1	17.7	0.00e+00	0	42	0	2043674624	6	3901
2026-01-12 05:06:14.18	214.00	20.35	-23.4	-24.0	17.8	0.00e+00	0	42	0	2051014656	6	3886
2026-01-12 05:06:15.19	213.96	20.21	-23.4	-24.0	17.7	0.00e+00	0	42	0	2057306112	6	3883
2026-01-12 05:06:16.19	213.92	20.08	-23.5	-24.4	17.6	0.00e+00	0	42	0	2064646144	6	3970
2026-01-12 05:06:17.19	213.88	19.95	-23.5	-24.4	17.6	0.00e+00	0	42	0	2071986176	6	3959
2026-01-12 05:06:18.19	213.84	19.82	-23.7	-24.1	17.4	0.00e+00	0	42	0	2079326208	7	3801
2026-01-12 05:06:19.20	213.80	19.69	-23.9	-24.7	17.1	0.00e+00	0	42	0	2086666240	7	3943
2026-01-12 05:06:20.21	213.76	19.56	-24.2	-24.7	16.9	0.00e+00	0	42	0	2094006272	8	3832
2026-01-12 05:06:21.22	213.72	19.43	-24.4	-25.1	16.7	0.00e+00	0	42	0	2101346304	8	3937
2026-01-12 05:06:22.22	213.69	19.31	-24.6	-25.2	16.4	0.00e+00	0	42	0	2108686336	9	3836
2026-01-12 05:06:23.23	213.65	19.18	-24.4	-24.6	16.7	0.00e+00	0	42	0	2116026368	9	3712
2026-01-12 05:06:24.23	213.61	19.05	-24.2	-24.3	16.8	0.00e+00	0	42	0	2123366400	9	3641
2026-01-12 05:06:25.23	213.58	18.93	-24.2	-24.2	16.9	0.00e+00	0	42	0	2130706432	9	3620
2026-01-12 05:06:26.24	213.54	18.80	-24.2	-24.2	16.9	0.00e+00	0	42	0	2138046464	9	3617
2026-01-12 05:06:27.25	213.50	18.68	-24.2	-24.3	16.9	0.00e+00	0	42	0	2144337920	9	3626
2026-01-12 05:06:28.25	213.47	18.56	-24.2	-24.3	16.8	0.00e+00	0	42	0	2151677952	9	3637
2026-01-12 05:06:29.26	213.43	18.43	-24.1	-24.2	16.9	0.00e+00	0	42	0	2160066560	9	3611
2026-01-12 05:06:30.27	213.40	18.31	-24.3	-24.5	16.7	0.00e+00	0	42	0	2166358016	9	3678
2026-01-12 05:06:31.28	213.36	18.19	-24.5	-25.0	16.4	0.00e+00	0	42	0	2173698048	9	3794
2026-01-12 05:06:32.29	213.33	18.06	-24.3	-24.5	16.7	0.00e+00	0	42	0	2181038080	9	3694
2026-01-12 05:06:33.30	213.29	17.94	-24.2	-24.3	16.8	0.00e+00	0	42	0	2188378112	9	3648
2026-01-12 05:06:34.30	213.26	17.82	-24.2	-24.4	16.7	0.00e+00	0	42	0	2195718144	9	3661
2026-01-12 05:06:35.31	213.23	17.70	-24.2	-24.3	16.8	0.00e+00	0	42	0	2203058176	9	3634
2026-01-12 05:06:36.31	213.19	17.59	-24.2	-24.3	16.8	0.00e+00	0	42	0	2210398208	9	3636
2026-01-12 05:06:37.33	213.16	17.46	-24.1	-24.2	16.8	0.00e+00	0	42	0	2217738240	9	3608
2026-01-12 05:06:38.33	213.13	17.35	-24.3	-24.4	16.7	0.00e+00	0	42	0	2225078272	9	3669
2026-01-12 05:06:39.34	213.09	17.23	-24.4	-24.8	16.5	0.00e+00	0	42	0	2232418304	9	3743
2026-01-12 05:06:40.35	213.06	17.11	-24.6	-25.1	16.4	0.00e+00	0	42	0	2239758336	9	3821
2026-01-12 05:06:41.36	213.03	17.00	-24.5	-24.8	16.4	0.00e+00	0	42	0	2247098368	9	3764
2026-01-12 05:06:42.36	213.00	16.88	-24.4	-24.7	16.5	0.00e+00	0	42	0	2254438400	9	3731
2026-01-12 05:06:43.37	212.97	16.76	-24.5	-24.9	16.4	0.00e+00	0	42	0	2261778432	9	3774
2026-01-12 05:06:44.37	212.94	16.65	-24.5	-24.9	16.4	0.00e+00	0	42	0	2268069888	9	3770
2026-01-12 05:06:45.37	212.91	16.54	-24.5	-24.9	16.4	0.00e+00	0	42	0	2275409920	9	3776
2026-01-12 05:06:46.38	212.88	16.42	-24.6	-25.1	16.3	0.00e+00	0	42	0	2282749952	9	3832
2026-01-12 05:06:47.39	212.85	16.31	-24.4	-24.7	16.5	0.00e+00	0	43	0	2290089984	9	3725
2026-01-12 05:06:48.40	212.82	16.20	-24.2	-24.3	16.7	0.00e+00	0	42	0	2297430016	9	3638
2026-01-12 05:06:49.41	212.79	16.08	-24.2	-24.2	16.8	0.00e+00	0	42	0	2304770048	9	3615
2026-01-12 05:06:50.41	212.76	15.97	-24.3	-24.5	16.6	0.00e+00	0	42	0	2312110080	9	3680
2026-01-12 05:06:51.42	212.73	15.86	-24.3	-24.5	16.6	0.00e+00	0	42	0	2319450112	9	3678
2026-01-12 05:06:52.42	212.70	15.75	-24.3	-24.6	16.6	0.00e+00	0	42	0	2326790144	9	3707
2026-01-12 05:06:53.43	212.67	15.64	-24.3	-24.5	16.6	0.00e+00	0	42	0	2334130176	9	3685
2026-01-12 05:06:54.44	212.64	15.53	-24.3	-24.6	16.5	0.00e+00	0	42	0	2341470208	9	3708
2026-01-12 05:06:55.44	212.61	15.42	-24.4	-24.6	16.5	0.00e+00	0	42	0	2348810240	9	3715
2026-01-12 05:06:56.44	212.58	15.31	-24.4	-24.8	16.5	0.00e+00	0	42	0	2355101696	9	3741
2026-01-12 05:06:57.45	212.56	15.20	-24.5	-24.9	16.4	0.00e+00	0	43	0	2362441728	9	3776
2026-01-12 05:06:58.45	212.53	15.10	-24.5	-25.0	16.3	0.00e+00	0	42	0	2369781760	9	3790
2026-01-12 05:06:59.46	212.50	14.99	-24.5	-25.0	16.3	0.00e+00	0	42	0	2377121792	9	3792
2026-01-12 05:07:00.47	212.47	14.88	-24.7	-25.3	16.1	0.00e+00	0	42	0	2384461824	9	3866
2026-01-12 05:07:01.48	212.45	14.78	-24.9	-25.7	15.9	0.00e+00	0	42	0	2391801856	9	3971
2026-01-12 05:07:02.48	212.42	14.67	-25.0	-25.4	15.8	0.00e+00	0	42	0	2399141888	10	3800
2026-01-12 05:07:03.49	212.39	14.56	-24.8	-25.2	15.9	0.00e+00	0	42	0	2406481920	10	3741
2026-01-12 05:07:04.50	212.37	14.46	-24.8	-25.2	15.9	0.00e+00	0	42	0	2413821952	10	3744
2026-01-12 05:07:05.51	212.34	14.35	-24.9	-25.4	15.8	0.00e+00	0	42	0	2421161984	10	3788
2026-01-12 05:07:06.52	212.31	14.25	-24.9	-25.4	15.8	0.00e+00	0	42	0	2428502016	10	3790
2026-01-12 05:07:07.53	212.29	14.15	-24.8	-25.1	15.9	0.00e+00	0	42	0	2435842048	10	3726
2026-01-12 05:07:08.54	212.26	14.04	-25.1	-25.6	15.6	0.00e+00	0	42	0	2443182080	10	3846
2026-01-12 05:07:09.55	212.24	13.94	-25.0	-25.6	15.7	0.00e+00	0	42	0	2450522112	10	3836
2026-01-12 05:07:10.55	212.21	13.84	-25.0	-25.5	15.7	0.00e+00	0	42	0	2456813568	10	3811
2026-01-12 05:07:11.56	212.19	13.73	-25.0	-25.6	15.7	0.00e+00	0	42	0	2465202176	10	3837
2026-01-12 05:07:12.58	212.16	13.63	-25.1	-25.7	15.6	0.00e+00	0	42	0	2472542208	10	3877
2026-01-12 05:07:13.59	212.14	13.53	-25.0	-25.6	15.6	4.50e-06	0	42	0	2478833664	10	3851
2026-01-12 05:07:14.58	212.11	13.43	-25.1	-25.8	15.5	0.00e+00	0	42	0	2486173696	10	3897
2026-01-12 05:07:15.59	212.09	13.33	-25.1	-25.8	15.5	0.00e+00	0	42	0	2493513728	10	3890
2026-01-12 05:07:16.60	212.06	13.23	-25.2	-25.9	15.4	0.00e+00	0	42	0	2500853760	10	3917
2026-01-12 05:07:17.60	212.04	13.13	-25.3	-26.1	15.3	0.00e+00	0	43	0	2508193792	10	3978
2026-01-12 05:07:18.61	212.02	13.03	-25.2	-26.0	15.4	0.00e+00	0	42	0	2515533824	10	3948
2026-01-12 05:07:19.62	211.99	12.93	-25.3	-26.1	15.3	0.00e+00	0	42	0	2522873856	10	3961
2026-01-12 05:07:20.62	211.97	12.83	-25.4	-26.4	15.2	0.00e+00	0	42	0	2530213888	10	4032
2026-01-12 05:07:21.62	211.95	12.74	-25.5	-26.5	15.0	0.00e+00	0	43	0	2537553920	10	4077
2026-01-12 05:07:22.63	211.92	12.64	-25.3	-26.3	15.2	0.00e+00	0	42	0	2544893952	10	4008
2026-01-12 05:07:23.63	211.90	12.54	-25.5	-26.7	15.0	0.00e+00	0	42	0	2552233984	10	4106
2026-01-12 05:07:24.64	211.88	12.45	-25.5	-26.7	15.0	0.00e+00	0	42	0	2559574016	10	4119
2026-01-12 05:07:25.65	211.85	12.35	-25.6	-26.8	14.9	0.00e+00	0	42	0	2565865472	10	4153
2026-01-12 05:07:26.66	211.83	12.25	-25.8	-26.8	14.5	0.00e+00	0	42	0	2573205504	11	4044
2026-01-12 05:07:27.67	211.81	12.16	-25.8	-26.8	14.6	0.00e+00	0	42	0	2581594112	11	4041
2026-01-12 05:07:28.67	211.79	12.06	-25.7	-26.6	14.7	0.00e+00	0	42	0	2587885568	11	3990
2026-01-12 05:07:29.68	211.77	11.97	-25.6	-26.4	14.8	0.00e+00	0	42	0	2595225600	11	3949
2026-01-12 05:07:30.69	211.74	11.87	-25.7	-26.6	14.7	0.00e+00	0	42	0	2602565632	11	3976
2026-01-12 05:07:31.69	211.72	11.78	-25.6	-26.3	14.9	0.00e+00	0	42	0	2609905664	11	3907
2026-01-12 05:07:32.70	211.70	11.68	-25.5	-26.2	14.9	1.10e-06	0	43	0	2617245696	11	3881
2026-01-12 05:07:33.70	211.68	11.59	-25.5	-26.0	15.0	0.00e+00	0	42	0	2624585728	11	3847
2026-01-12 05:07:34.71	211.66	11.50	-25.5	-26.1	15.0	0.00e+00	0	42	0	2631925760	11	3865
2026-01-12 05:07:35.71	211.64	11.41	-25.6	-26.4	14.8	0.00e+00	0	43	0	2639265792	11	3934
2026-01-12 05:07:36.72	211.62	11.31	-25.5	-26.2	14.9	0.00e+00	0	42	0	2646605824	11	3896
2026-01-12 05:07:37.73	211.60	11.22	-25.7	-26.7	14.6	0.00e+00	0	43	0	2653945856	11	4009
2026-01-12 05:07:38.74	211.58	11.13	-25.5	-26.2	14.9	0.00e+00	0	42	0	2661285888	11	3890
2026-01-12 05:07:39.74	211.56	11.04	-25.6	-26.4	14.8	0.00e+00	0	43	0	2668625920	11	3930
2026-01-12 05:07:40.75	211.54	10.95	-25.6	-26.4	14.8	1.10e-06	0	42	0	2674917376	11	3935
2026-01-12 05:07:41.76	211.52	10.86	-25.6	-26.4	14.7	0.00e+00	0	42	0	2682257408	11	3945
2026-01-12 05:07:42.76	211.50	10.77	-25.9	-27.0	14.4	0.00e+00	0	43	0	2689597440	11	4084
2026-01-12 05:07:43.76	211.48	10.68	-25.8	-26.7	14.5	0.00e+00	0	42	0	2696937472	11	4025
2026-01-12 05:07:44.76	211.46	10.59	-25.8	-26.7	14.5	0.00e+00	0	42	0	2704277504	11	4025
2026-01-12 05:07:45.77	211.44	10.50	-25.8	-26.9	14.5	0.00e+00	0	43	0	2711617536	11	4065
2026-01-12 05:07:46.78	211.42	10.41	-25.9	-27.0	14.4	0.00e+00	0	42	0	2718957568	11	4107
2026-01-12 05:07:47.78	211.40	10.32	-25.8	-26.9	14.4	0.00e+00	0	43	0	2726297600	11	4065
2026-01-12 05:07:48.79	211.38	10.23	-25.8	-26.8	14.5	0.00e+00	0	42	0	2733637632	11	4051
2026-01-12 05:07:49.81	211.36	10.14	-26.0	-27.2	14.3	1.10e-06	0	42	0	2740977664	11	4140
2026-01-12 05:07:50.81	211.34	10.05	-26.1	-26.9	14.0	3.40e-06	0	42	0	2748317696	12	3972
2026-01-12 05:07:51.81	211.32	9.97	-26.4	-27.6	13.6	1.14e-05	0	42	0	2755657728	12	4157
2026-01-12 05:07:52.82	211.30	9.88	-26.2	-27.3	13.8	4.50e-06	0	42	0	2762997760	12	4080
2026-01-12 05:07:53.82	211.29	9.79	-25.9	-26.6	14.2	4.50e-06	0	43	0	2770337792	12	3887
2026-01-12 05:07:54.83	211.27	9.71	-25.8	-26.3	14.4	3.40e-06	0	43	0	2776629248	12	3829
2026-01-12 05:07:55.84	211.25	9.62	-25.8	-26.3	14.4	1.10e-06	0	42	0	2783969280	12	3816
2026-01-12 05:07:56.84	211.23	9.53	-25.8	-26.3	14.4	1.10e-06	0	42	0	2791309312	12	3819
2026-01-12 05:07:57.85	211.21	9.45	-25.8	-26.3	14.3	1.10e-06	0	42	0	2798649344	12	3829
2026-01-12 05:07:58.86	211.19	9.36	-25.9	-26.5	14.3	1.10e-06	0	43	0	2805989376	12	3861
2026-01-12 05:07:59.86	211.18	9.28	-25.9	-26.5	14.2	0.00e+00	0	43	0	2813329408	12	3882
2026-01-12 05:08:00.87	211.16	9.19	-25.9	-26.5	14.2	3.40e-06	0	42	0	2820669440	12	3867
2026-01-12 05:08:01.87	211.14	9.11	-26.0	-26.7	14.1	1.10e-06	0	42	0	2828009472	12	3921
2026-01-12 05:08:02.88	211.12	9.02	-25.9	-26.5	14.2	0.00e+00	0	42	0	2835349504	12	3880
2026-01-12 05:08:03.89	211.11	8.94	-26.2	-27.2	13.8	1.10e-06	0	42	0	2842689536	12	4051
2026-01-12 05:08:04.89	211.09	8.86	-26.1	-27.0	13.9	1.10e-06	0	43	0	2850029568	12	3988
2026-01-12 05:08:05.90	211.07	8.77	-26.0	-26.9	14.0	1.10e-06	0	43	0	2857369600	12	3976
2026-01-12 05:08:06.90	211.06	8.69	-26.2	-27.3	13.7	4.50e-06	0	42	0	2863661056	12	4067
2026-01-12 05:08:07.91	211.04	8.61	-26.2	-27.3	13.7	3.40e-06	0	43	0	2872049664	12	4084
2026-01-12 05:08:08.92	211.02	8.52	-26.1	-27.0	13.9	3.40e-06	0	42	0	2879389696	12	4008
2026-01-12 05:08:09.93	211.01	8.44	-26.3	-27.5	13.5	8.00e-06	0	42	0	2885681152	12	4145
2026-01-12 05:08:10.93	210.99	8.36	-26.2	-27.2	13.8	3.40e-06	0	43	0	2893021184	12	4051
2026-01-12 05:08:11.94	210.97	8.28	-26.3	-27.4	13.6	5.70e-06	0	43	0	2900361216	12	4100
2026-01-12 05:08:12.95	210.96	8.19	-26.3	-27.4	13.6	1.14e-05	0	43	0	2907701248	12	4116
2026-01-12 05:08:13.95	210.94	8.11	-26.2	-27.2	13.7	4.50e-06	0	43	0	2915041280	12	4059
2026-01-12 05:08:14.96	210.92	8.03	-26.6	-28.1	13.2	1.48e-05	0	42	0	2922381312	12	4298
2026-01-12 05:08:15.96	210.91	7.95	-26.5	-27.4	13.3	1.02e-05	0	42	0	2929721344	13	4003
2026-01-12 05:08:16.96	210.89	7.87	-26.2	-26.8	13.6	6.80e-06	0	43	0	2937061376	13	3862
2026-01-12 05:08:17.97	210.88	7.79	-26.2	-26.8	13.6	9.10e-06	0	42	0	2944401408	13	3851
2026-01-12 05:08:18.97	210.86	7.71	-26.3	-27.0	13.5	3.40e-06	0	42	0	2951741440	13	3897
2026-01-12 05:08:19.97	210.85	7.63	-26.4	-27.3	13.3	1.02e-05	0	43	0	2959081472	13	3980
2026-01-12 05:08:20.98	210.83	7.55	-26.5	-27.5	13.2	1.71e-05	0	42	0	2965372928	13	4031
2026-01-12 05:08:21.99	210.82	7.47	-26.6	-27.7	13.1	1.48e-05	0	43	0	2972712960	13	4076
2026-01-12 05:08:23.00	210.80	7.39	-26.8	-28.2	12.7	4.92e-05	0	42	0	2980052992	13	4219
2026-01-12 05:08:24.00	210.79	7.32	-26.6	-27.6	13.1	3.54e-05	0	42	0	2987393024	13	4062
2026-01-12 05:08:25.01	210.77	7.24	-26.7	-27.9	12.9	5.95e-05	0	42	0	2994733056	13	4144
2026-01-12 05:08:26.01	210.76	7.16	-26.8	-28.2	12.7	5.83e-05	0	43	0	3002073088	13	4216
2026-01-12 05:08:27.02	210.74	7.08	-26.7	-27.9	12.8	7.89e-05	0	43	0	3009413120	13	4150
2026-01-12 05:08:28.02	210.73	7.00	-32.5	-41.9	3.8	8.45e-01	0	43	104	3012558848	24	10619
2026-01-12 05:08:29.02	210.71	6.93	-33.0	-42.8	3.8	8.47e-01	0	42	104	3012558848	25	11195

#Closed at: 2026-01-12 05:08:30
#Recorded file [3012 MB]: D:/data/31010_260112_080128.dat