passes_logs/2026/01/12/R2M6_AANII_01/R2M6_AANII_01__20260112_081603_NOAA_21_JPSS-2_rec.log

#Pass ID: 20260112_081603_NOAA 21 (JPSS-2)
#Satellite: NOAA 21 (JPSS-2)
#Configuration: NOAA 21
#almurnet v.1.7.20240730
#Start time: 2026-01-12 08:16:05

#Version: 2.2.20231116
#Station: R2M6_AANII_01
#Location: 30.233357 lon 59.946436 lat
#TLE: 1 54234U 22150A   26011.27699114  .00000090  00000+0  63771-4 0  9993
#TLE: 2 54234  98.7494 312.2218 0000765 314.9553  45.1561 14.19534106164285

#Time	Az	El	Level	Level2	SNR	BER	BlckErr	Temp	State	Recorded	gain1	gain2
2026-01-12 08:16:05.54	96.46	7.10	-30.7	-42.2	3.8	1.49e+00	0	39	0	0	22	13597
2026-01-12 08:16:06.55	96.37	7.17	-30.5	-41.8	3.8	1.49e+00	0	39	104	0	22	13225
2026-01-12 08:16:07.55	96.27	7.23	-30.4	-41.6	3.8	1.49e+00	0	39	104	0	22	13079
2026-01-12 08:16:08.56	96.17	7.29	-30.4	-41.5	3.8	1.49e+00	0	39	104	0	22	13055
2026-01-12 08:16:09.55	96.07	7.35	-30.4	-41.6	3.8	1.49e+00	0	39	104	0	22	13056
2026-01-12 08:16:10.56	95.97	7.42	-30.4	-41.6	3.8	1.49e+00	0	39	104	0	22	13088
2026-01-12 08:16:11.57	95.87	7.48	-30.4	-41.6	3.8	1.49e+00	0	39	104	0	22	13079
2026-01-12 08:16:12.57	95.77	7.54	-30.4	-41.6	3.8	1.49e+00	0	39	104	0	22	13116
2026-01-12 08:16:13.57	95.67	7.60	-30.4	-41.7	3.8	1.49e+00	0	39	104	0	22	13169
2026-01-12 08:16:14.56	95.57	7.67	-30.5	-41.8	3.8	1.49e+00	0	39	104	0	22	13262
2026-01-12 08:16:15.57	95.47	7.73	-30.5	-41.8	3.8	1.49e+00	0	39	104	0	22	13253
2026-01-12 08:16:16.58	95.36	7.79	-30.6	-41.9	3.8	1.49e+00	0	39	104	0	22	13347
2026-01-12 08:16:17.58	95.26	7.86	-30.6	-42.1	3.8	1.49e+00	0	39	104	0	22	13474
2026-01-12 08:16:18.59	95.16	7.92	-30.7	-42.1	3.8	1.49e+00	0	40	104	0	22	13425
2026-01-12 08:16:19.59	95.05	7.98	-30.7	-42.2	3.8	1.49e+00	0	40	104	0	22	13458
2026-01-12 08:16:20.60	94.95	8.05	-30.7	-42.2	3.8	1.49e+00	0	39	104	0	22	13512
2026-01-12 08:16:21.60	94.84	8.11	-30.7	-42.2	3.8	1.49e+00	0	40	104	0	22	13523
2026-01-12 08:16:22.61	94.74	8.17	-30.8	-42.2	3.8	1.49e+00	0	40	104	0	22	13528
2026-01-12 08:16:23.62	94.63	8.24	-30.8	-42.3	3.8	1.49e+00	0	40	104	0	22	13577
2026-01-12 08:16:24.63	94.53	8.30	-30.8	-42.4	3.8	1.49e+00	0	40	104	0	22	13621
2026-01-12 08:16:25.63	94.42	8.37	-30.9	-42.4	3.8	1.49e+00	0	40	104	0	22	13625
2026-01-12 08:16:26.63	94.31	8.43	-30.9	-42.3	3.8	1.49e+00	0	40	104	0	22	13429
2026-01-12 08:16:27.64	94.20	8.49	-30.9	-42.1	3.8	1.49e+00	0	40	104	0	22	13011
2026-01-12 08:16:28.64	94.10	8.56	-30.9	-41.9	3.8	1.49e+00	0	40	104	0	22	12716
2026-01-12 08:16:29.64	93.99	8.62	-31.0	-41.9	3.8	1.49e+00	0	40	104	0	22	12700
2026-01-12 08:16:30.65	93.88	8.69	-31.1	-42.2	3.8	1.49e+00	0	40	104	0	22	12951
2026-01-12 08:16:31.66	93.77	8.75	-31.1	-42.3	3.8	1.49e+00	0	40	104	0	22	13045
2026-01-12 08:16:32.67	93.66	8.82	-31.1	-42.2	3.8	1.49e+00	0	40	104	0	22	12788
2026-01-12 08:16:33.67	93.55	8.88	-31.1	-41.5	3.8	1.49e+00	0	40	104	0	22	11901
2026-01-12 08:16:34.67	93.44	8.94	-31.0	-39.8	4.0	1.48e+00	0	40	104	0	22	9918
2026-01-12 08:16:35.68	93.33	9.01	-30.7	-38.4	4.1	9.94e-01	0	40	104	0	22	8644
2026-01-12 08:16:36.69	93.21	9.07	-30.8	-37.4	5.1	1.22e+00	0	40	104	0	22	7732
2026-01-12 08:16:37.70	93.10	9.14	-30.9	-38.9	4.1	7.51e-01	0	40	104	1048576	22	9050
2026-01-12 08:16:38.70	92.99	9.20	-31.2	-39.1	4.2	1.47e+00	0	40	104	1048576	22	8989
2026-01-12 08:16:39.71	92.87	9.27	-30.9	-36.7	6.0	4.62e-01	0	40	0	1048576	22	7011
2026-01-12 08:16:40.71	92.76	9.33	-30.5	-34.6	7.6	1.07e-01	0	40	0	3145728	22	5784
2026-01-12 08:16:41.72	92.64	9.40	-30.5	-34.6	7.8	7.30e-02	0	40	0	6291456	22	5757
2026-01-12 08:16:42.72	92.53	9.46	-31.0	-36.4	6.7	1.43e-01	0	40	0	9437184	22	6656
2026-01-12 08:16:43.71	92.42	9.53	-30.9	-35.6	7.3	1.61e-01	0	40	0	12582912	22	6181
2026-01-12 08:16:44.71	92.30	9.59	-30.7	-34.8	7.9	7.02e-02	0	40	0	15728640	22	5797
2026-01-12 08:16:45.71	92.18	9.66	-30.8	-35.1	7.8	7.81e-02	0	40	0	18874368	22	5909
2026-01-12 08:16:46.71	92.07	9.72	-30.8	-35.1	7.9	7.88e-02	0	40	0	22020096	22	5925
2026-01-12 08:16:47.71	91.95	9.79	-30.8	-35.0	8.0	6.33e-02	0	40	0	25165824	22	5847
2026-01-12 08:16:48.71	91.83	9.85	-30.8	-34.9	8.1	6.88e-02	0	40	0	28311552	22	5817
2026-01-12 08:16:49.72	91.71	9.92	-31.0	-35.7	7.6	8.30e-02	0	40	0	31457280	22	6167
2026-01-12 08:16:50.73	91.59	9.98	-30.9	-35.3	7.9	8.68e-02	0	40	0	34603008	22	5980
2026-01-12 08:16:51.72	91.47	10.05	-30.5	-33.8	9.0	3.03e-02	0	40	0	37748736	22	5287
2026-01-12 08:16:52.73	91.35	10.11	-30.0	-32.7	10.1	1.00e-02	0	40	0	40894464	21	4963
2026-01-12 08:16:53.72	91.23	10.18	-29.5	-32.0	11.0	2.92e-03	0	40	0	44040192	20	4800
2026-01-12 08:16:54.73	91.11	10.24	-29.1	-31.2	12.0	5.95e-04	0	40	0	47185920	19	4592
2026-01-12 08:16:55.73	90.99	10.31	-28.7	-30.8	12.5	1.32e-04	0	41	0	50331648	18	4583
2026-01-12 08:16:56.73	90.87	10.37	-28.4	-30.0	13.1	4.19e-05	0	40	0	53477376	18	4314
2026-01-12 08:16:57.73	90.75	10.44	-27.9	-29.4	13.7	9.10e-06	0	40	0	56623104	17	4241
2026-01-12 08:16:58.74	90.62	10.50	-27.9	-29.2	13.9	3.00e-06	0	40	0	59768832	17	4193
2026-01-12 08:16:59.74	90.50	10.57	-28.0	-29.4	13.7	4.50e-06	0	40	0	62914560	17	4259
2026-01-12 08:17:00.74	90.37	10.64	-28.1	-29.7	13.6	6.10e-06	0	41	0	66060288	17	4329
2026-01-12 08:17:01.75	90.25	10.70	-28.1	-29.7	13.6	7.60e-06	0	40	0	69206016	17	4351
2026-01-12 08:17:02.75	90.12	10.77	-28.0	-29.6	13.7	6.10e-06	0	41	0	72351744	17	4313
2026-01-12 08:17:03.75	89.99	10.83	-28.0	-29.6	13.6	6.10e-06	0	41	0	75497472	17	4319
2026-01-12 08:17:04.76	89.87	10.90	-28.1	-29.7	13.6	5.30e-06	0	40	0	78643200	17	4331
2026-01-12 08:17:05.76	89.74	10.96	-28.0	-29.6	13.7	4.50e-06	0	41	0	81788928	17	4299
2026-01-12 08:17:06.76	89.61	11.03	-28.2	-30.0	13.5	1.22e-05	0	40	0	84934656	17	4427
2026-01-12 08:17:07.77	89.48	11.10	-28.0	-29.6	13.7	5.30e-06	0	41	0	88080384	17	4306
2026-01-12 08:17:08.77	89.35	11.16	-27.8	-29.1	14.0	2.20e-06	0	41	0	91226112	17	4163
2026-01-12 08:17:09.77	89.22	11.23	-27.7	-29.3	14.2	7.00e-07	0	40	0	94371840	16	4313
2026-01-12 08:17:10.77	89.09	11.29	-27.7	-29.1	14.3	0.00e+00	0	41	0	96468992	16	4275
2026-01-12 08:17:11.78	88.96	11.36	-27.7	-29.3	14.2	7.00e-07	0	41	0	99614720	16	4318
2026-01-12 08:17:12.78	88.83	11.43	-27.9	-29.7	14.0	1.50e-06	0	41	0	102760448	16	4444
2026-01-12 08:17:13.79	88.70	11.49	-27.9	-29.7	14.1	3.00e-06	0	41	0	106954752	16	4425
2026-01-12 08:17:14.79	88.56	11.56	-27.8	-29.6	14.1	3.00e-06	0	41	0	110100480	16	4397
2026-01-12 08:17:15.80	88.43	11.63	-27.9	-29.7	14.0	2.20e-06	0	41	0	113246208	16	4442
2026-01-12 08:17:16.80	88.30	11.69	-27.8	-29.5	14.2	1.50e-06	0	41	0	116391936	16	4372
2026-01-12 08:17:17.81	88.16	11.76	-27.8	-29.6	14.1	3.80e-06	0	41	0	118489088	16	4399
2026-01-12 08:17:18.82	88.02	11.83	-27.9	-29.6	14.1	3.80e-06	0	41	0	121634816	16	4420
2026-01-12 08:17:19.82	87.89	11.89	-28.1	-30.2	13.8	4.50e-06	0	41	0	124780544	16	4598
2026-01-12 08:17:20.83	87.75	11.96	-27.9	-29.8	14.0	2.20e-06	0	40	0	127926272	16	4463
2026-01-12 08:17:21.83	87.61	12.02	-27.6	-29.0	14.5	7.00e-07	0	41	0	132120576	16	4226
2026-01-12 08:17:22.83	87.48	12.09	-27.3	-28.4	14.9	0.00e+00	0	41	0	135266304	16	4062
2026-01-12 08:17:23.83	87.34	12.16	-27.1	-28.3	15.0	0.00e+00	0	41	0	138412032	15	4157
2026-01-12 08:17:24.83	87.20	12.22	-27.1	-28.3	15.0	0.00e+00	0	41	0	141557760	15	4152
2026-01-12 08:17:25.84	87.06	12.29	-27.0	-28.2	15.1	0.00e+00	0	41	0	143654912	15	4128
2026-01-12 08:17:26.85	86.92	12.36	-27.2	-28.6	14.9	0.00e+00	0	41	0	146800640	15	4232
2026-01-12 08:17:27.85	86.78	12.42	-27.2	-28.5	14.9	0.00e+00	0	41	0	149946368	15	4190
2026-01-12 08:17:28.85	86.63	12.49	-27.1	-28.3	15.0	0.00e+00	0	41	0	153092096	15	4160
2026-01-12 08:17:29.86	86.49	12.56	-27.2	-28.6	14.9	7.00e-07	0	41	0	156237824	15	4242
2026-01-12 08:17:30.86	86.35	12.62	-27.2	-28.7	14.8	0.00e+00	0	41	0	159383552	15	4257
2026-01-12 08:17:31.87	86.20	12.69	-27.4	-29.1	14.6	1.50e-06	0	41	0	162529280	15	4362
2026-01-12 08:17:32.87	86.06	12.76	-27.5	-29.3	14.5	0.00e+00	0	41	0	165675008	15	4434
2026-01-12 08:17:33.87	85.91	12.82	-27.5	-29.2	14.5	0.00e+00	0	41	0	168820736	15	4404
2026-01-12 08:17:34.88	85.77	12.89	-27.4	-29.2	14.6	7.00e-07	0	41	0	171966464	15	4388
2026-01-12 08:17:35.88	85.62	12.96	-27.5	-29.4	14.4	0.00e+00	0	41	0	175112192	15	4466
2026-01-12 08:17:36.89	85.47	13.02	-27.5	-29.2	14.5	0.00e+00	0	41	0	178257920	15	4408
2026-01-12 08:17:37.89	85.33	13.09	-27.4	-29.1	14.7	2.20e-06	0	41	0	181403648	15	4362
2026-01-12 08:17:38.89	85.18	13.15	-27.4	-29.1	14.6	0.00e+00	0	41	0	184549376	15	4374
2026-01-12 08:17:39.89	85.03	13.22	-27.3	-28.9	14.7	7.00e-07	0	41	0	187695104	15	4326
2026-01-12 08:17:40.89	84.88	13.29	-27.4	-29.1	14.6	1.50e-06	0	41	0	190840832	15	4378
2026-01-12 08:17:41.90	84.73	13.35	-27.4	-29.0	14.7	0.00e+00	0	41	0	193986560	15	4345
2026-01-12 08:17:42.90	84.58	13.42	-27.4	-29.1	14.7	0.00e+00	0	41	0	197132288	15	4373
2026-01-12 08:17:43.91	84.43	13.49	-27.4	-29.1	14.6	3.00e-06	0	41	0	200278016	15	4377
2026-01-12 08:17:44.91	84.27	13.55	-27.4	-29.0	14.7	0.00e+00	0	41	0	203423744	15	4351
2026-01-12 08:17:45.91	84.12	13.62	-27.6	-29.5	14.4	2.20e-06	0	41	0	206569472	15	4481
2026-01-12 08:17:46.91	83.97	13.69	-27.4	-29.2	14.6	4.50e-06	0	41	0	209715200	15	4393
2026-01-12 08:17:47.92	83.81	13.75	-27.4	-29.1	14.7	0.00e+00	0	41	0	212860928	15	4380
2026-01-12 08:17:48.92	83.66	13.82	-27.5	-29.2	14.6	0.00e+00	0	41	0	216006656	15	4390
2026-01-12 08:17:49.93	83.50	13.88	-27.5	-29.2	14.6	0.00e+00	0	41	0	219152384	15	4385
2026-01-12 08:17:50.93	83.34	13.95	-27.4	-29.1	14.7	7.00e-07	0	41	0	222298112	15	4360
2026-01-12 08:17:51.93	83.19	14.02	-27.6	-29.5	14.4	0.00e+00	0	41	0	225443840	15	4491
2026-01-12 08:17:52.92	83.03	14.08	-27.5	-29.2	14.6	3.80e-06	0	41	0	228589568	15	4402
2026-01-12 08:17:53.92	82.87	14.15	-27.5	-29.2	14.6	1.50e-06	0	41	0	231735296	15	4379
2026-01-12 08:17:54.93	82.71	14.21	-27.5	-29.3	14.5	0.00e+00	0	41	0	234881024	15	4437
2026-01-12 08:17:55.94	82.55	14.28	-27.6	-29.5	14.4	7.00e-07	0	41	0	238026752	15	4492
2026-01-12 08:17:56.95	82.39	14.35	-27.5	-29.3	14.6	7.00e-07	0	41	0	241172480	15	4438
2026-01-12 08:17:57.95	82.23	14.41	-27.7	-29.7	14.4	7.00e-07	0	41	0	244318208	15	4536
2026-01-12 08:17:58.95	82.06	14.48	-27.4	-29.1	14.8	0.00e+00	0	41	0	247463936	15	4357
2026-01-12 08:17:59.95	81.90	14.54	-27.4	-29.0	14.8	7.00e-07	0	41	0	250609664	15	4342
2026-01-12 08:18:00.96	81.74	14.61	-27.4	-28.9	14.8	1.50e-06	0	41	0	253755392	15	4309
2026-01-12 08:18:01.97	81.57	14.68	-27.6	-29.5	14.5	1.50e-06	0	41	0	256901120	15	4469
2026-01-12 08:18:02.97	81.41	14.74	-27.4	-28.9	14.8	0.00e+00	0	41	0	260046848	15	4313
2026-01-12 08:18:03.98	81.24	14.81	-27.3	-28.7	15.0	0.00e+00	0	41	0	263192576	15	4235
2026-01-12 08:18:04.98	81.07	14.87	-27.3	-28.8	14.9	0.00e+00	0	41	0	266338304	15	4271
2026-01-12 08:18:05.99	80.90	14.94	-27.4	-29.0	14.8	0.00e+00	0	41	0	269484032	15	4342
2026-01-12 08:18:07.00	80.73	15.00	-27.5	-29.3	14.7	0.00e+00	0	41	0	272629760	15	4411
2026-01-12 08:18:08.00	80.56	15.07	-27.4	-29.0	14.8	0.00e+00	0	41	0	275775488	15	4328
2026-01-12 08:18:09.01	80.39	15.14	-27.3	-28.9	14.9	7.00e-07	0	41	0	278921216	15	4314
2026-01-12 08:18:10.01	80.22	15.20	-27.4	-29.0	14.8	0.00e+00	0	41	0	282066944	15	4332
2026-01-12 08:18:11.02	80.05	15.27	-27.2	-28.7	15.0	0.00e+00	0	41	0	285212672	15	4236
2026-01-12 08:18:12.03	79.88	15.33	-27.2	-28.6	15.0	0.00e+00	0	41	0	288358400	15	4231
2026-01-12 08:18:13.03	79.70	15.40	-27.3	-28.7	15.0	0.00e+00	0	41	0	291504128	15	4245
2026-01-12 08:18:14.03	79.53	15.46	-27.2	-28.6	15.1	0.00e+00	0	41	0	294649856	15	4216
2026-01-12 08:18:15.04	79.36	15.53	-27.3	-28.9	14.9	0.00e+00	0	41	0	297795584	15	4307
2026-01-12 08:18:16.05	79.18	15.59	-27.3	-28.7	15.0	0.00e+00	0	41	0	300941312	15	4256
2026-01-12 08:18:17.05	79.00	15.65	-27.4	-29.1	14.7	0.00e+00	0	41	0	304087040	15	4374
2026-01-12 08:18:18.06	78.83	15.72	-27.4	-29.1	14.7	0.00e+00	0	41	0	307232768	15	4372
2026-01-12 08:18:19.06	78.65	15.78	-27.5	-29.3	14.6	1.50e-06	0	41	0	310378496	15	4437
2026-01-12 08:18:20.07	78.47	15.85	-27.8	-30.0	14.3	1.50e-06	0	41	0	313524224	15	4634
2026-01-12 08:18:21.08	78.29	15.91	-27.8	-29.9	14.4	7.00e-07	0	41	0	316669952	15	4587
2026-01-12 08:18:22.09	78.11	15.98	-27.9	-30.2	14.2	0.00e+00	0	41	0	319815680	15	4692
2026-01-12 08:18:23.09	77.93	16.04	-27.8	-30.0	14.3	2.20e-06	0	41	0	322961408	15	4631
2026-01-12 08:18:24.10	77.75	16.10	-28.2	-30.3	14.0	1.50e-06	0	41	0	326107136	16	4576
2026-01-12 08:18:25.10	77.56	16.17	-28.4	-30.8	13.7	7.60e-06	0	41	0	329252864	16	4745
2026-01-12 08:18:26.11	77.38	16.23	-28.2	-30.4	13.9	3.80e-06	0	41	0	332398592	16	4629
2026-01-12 08:18:27.12	77.19	16.29	-28.5	-30.6	13.5	1.37e-05	0	41	0	335544320	17	4579
2026-01-12 08:18:28.13	77.01	16.36	-28.1	-29.7	14.1	4.50e-06	0	41	0	338690048	17	4304
2026-01-12 08:18:29.13	76.82	16.42	-28.0	-29.3	14.3	1.50e-06	0	41	0	341835776	17	4206
2026-01-12 08:18:30.13	76.64	16.48	-27.8	-28.9	14.5	0.00e+00	0	41	0	344981504	17	4090
2026-01-12 08:18:31.13	76.45	16.55	-27.8	-28.9	14.5	0.00e+00	0	41	0	348127232	17	4091
2026-01-12 08:18:32.13	76.27	16.61	-27.9	-29.2	14.4	1.50e-06	0	41	0	351272960	17	4161
2026-01-12 08:18:33.14	76.08	16.67	-27.8	-29.3	14.6	7.00e-07	0	41	0	354418688	16	4296
2026-01-12 08:18:34.14	75.89	16.73	-27.7	-29.1	14.7	0.00e+00	0	41	0	357564416	16	4248
2026-01-12 08:18:35.15	75.70	16.80	-27.8	-29.4	14.6	0.00e+00	0	41	0	360710144	16	4329
2026-01-12 08:18:36.16	75.50	16.86	-27.7	-29.1	14.7	0.00e+00	0	41	0	363855872	16	4248
2026-01-12 08:18:37.17	75.31	16.92	-27.5	-28.8	14.9	7.00e-07	0	41	0	367001600	16	4156
2026-01-12 08:18:38.17	75.12	16.98	-27.6	-28.8	14.9	0.00e+00	0	42	0	370147328	16	4160
2026-01-12 08:18:39.18	74.92	17.04	-27.6	-28.9	14.9	0.00e+00	0	41	0	373293056	16	4178
2026-01-12 08:18:40.19	74.73	17.10	-27.6	-29.0	14.8	0.00e+00	0	41	0	376438784	16	4209
2026-01-12 08:18:41.19	74.53	17.17	-27.6	-28.8	14.9	0.00e+00	0	41	0	379584512	16	4162
2026-01-12 08:18:42.20	74.34	17.23	-27.6	-28.9	14.9	7.00e-07	0	41	0	382730240	16	4175
2026-01-12 08:18:43.21	74.14	17.29	-27.7	-29.2	14.7	4.50e-06	0	41	0	385875968	16	4260
2026-01-12 08:18:44.21	73.94	17.35	-27.6	-29.0	14.8	1.50e-06	0	41	0	389021696	16	4198
2026-01-12 08:18:45.22	73.74	17.41	-27.6	-28.8	14.9	7.00e-07	0	41	0	392167424	16	4164
2026-01-12 08:18:46.22	73.55	17.47	-27.6	-28.9	14.9	0.00e+00	0	41	0	395313152	16	4170
2026-01-12 08:18:47.23	73.34	17.53	-27.5	-28.6	15.0	0.00e+00	0	41	0	398458880	16	4111
2026-01-12 08:18:48.24	73.14	17.59	-27.5	-28.8	14.9	0.00e+00	0	41	0	401604608	16	4142
2026-01-12 08:18:49.24	72.94	17.65	-27.8	-29.4	14.6	0.00e+00	0	41	0	404750336	16	4322
2026-01-12 08:18:50.23	72.74	17.71	-27.6	-28.9	14.9	7.00e-07	0	41	0	407896064	16	4177
2026-01-12 08:18:51.23	72.54	17.76	-27.5	-28.7	15.0	0.00e+00	0	41	0	411041792	16	4141
2026-01-12 08:18:52.24	72.34	17.82	-27.5	-28.6	15.1	3.80e-06	0	41	0	414187520	16	4099
2026-01-12 08:18:53.25	72.13	17.88	-27.5	-28.6	15.0	0.00e+00	0	41	0	417333248	16	4104
2026-01-12 08:18:54.25	71.93	17.94	-27.4	-28.5	15.1	0.00e+00	0	41	0	420478976	16	4063
2026-01-12 08:18:55.25	71.72	18.00	-27.4	-28.4	15.2	4.50e-06	0	41	0	423624704	16	4036
2026-01-12 08:18:56.25	71.51	18.06	-27.4	-28.4	15.2	7.00e-07	0	41	0	426770432	16	4035
2026-01-12 08:18:57.26	71.31	18.11	-27.1	-28.3	15.3	0.00e+00	0	41	0	429916160	15	4144
2026-01-12 08:18:58.27	71.10	18.17	-27.1	-28.3	15.3	0.00e+00	0	41	0	433061888	15	4141
2026-01-12 08:18:59.27	70.89	18.23	-27.1	-28.4	15.3	0.00e+00	0	41	0	436207616	15	4161
2026-01-12 08:19:00.27	70.68	18.28	-27.1	-28.3	15.4	0.00e+00	0	41	0	439353344	15	4124
2026-01-12 08:19:01.27	70.47	18.34	-27.0	-28.1	15.5	0.00e+00	0	41	0	442499072	15	4083
2026-01-12 08:19:02.27	70.26	18.40	-26.9	-27.9	15.5	0.00e+00	0	41	0	445644800	15	4028
2026-01-12 08:19:03.27	70.05	18.45	-27.0	-28.1	15.4	0.00e+00	0	41	0	448790528	15	4076
2026-01-12 08:19:04.28	69.83	18.51	-26.8	-28.0	15.8	1.50e-06	0	41	0	451936256	14	4160
2026-01-12 08:19:05.28	69.62	18.56	-26.6	-27.7	15.9	0.00e+00	0	41	0	455081984	14	4086
2026-01-12 08:19:06.28	69.40	18.62	-26.8	-28.0	15.8	1.50e-06	0	41	0	458227712	14	4160
2026-01-12 08:19:07.28	69.19	18.67	-26.8	-28.0	15.8	0.00e+00	0	41	0	461373440	14	4159
2026-01-12 08:19:08.29	68.97	18.73	-26.7	-28.0	15.8	0.00e+00	0	41	0	464519168	14	4150
2026-01-12 08:19:09.29	68.76	18.78	-26.7	-28.0	15.8	0.00e+00	0	41	0	467664896	14	4151
2026-01-12 08:19:10.29	68.54	18.83	-26.8	-28.2	15.7	0.00e+00	0	41	0	470810624	14	4202
2026-01-12 08:19:11.30	68.32	18.89	-26.7	-27.9	15.8	0.00e+00	0	41	0	473956352	14	4142
2026-01-12 08:19:12.31	68.10	18.94	-26.7	-27.9	15.9	0.00e+00	0	41	0	477102080	14	4119
2026-01-12 08:19:13.31	67.88	18.99	-26.7	-28.0	15.8	0.00e+00	0	41	0	480247808	14	4147
2026-01-12 08:19:14.31	67.66	19.05	-26.6	-27.8	15.9	0.00e+00	0	41	0	483393536	14	4095
2026-01-12 08:19:15.31	67.44	19.10	-26.6	-27.7	15.9	0.00e+00	0	41	0	486539264	14	4090
2026-01-12 08:19:16.31	67.22	19.15	-26.7	-27.8	15.9	0.00e+00	0	41	0	489684992	14	4113
2026-01-12 08:19:17.32	66.99	19.20	-26.8	-28.1	15.8	0.00e+00	0	41	0	492830720	14	4196
2026-01-12 08:19:18.32	66.77	19.25	-26.8	-28.1	15.8	0.00e+00	0	41	0	495976448	14	4177
2026-01-12 08:19:19.33	66.54	19.30	-26.9	-28.3	15.7	0.00e+00	0	41	0	499122176	14	4235
2026-01-12 08:19:20.33	66.32	19.35	-26.8	-28.1	15.8	0.00e+00	0	41	0	502267904	14	4179
2026-01-12 08:19:21.33	66.09	19.40	-26.8	-28.1	15.8	0.00e+00	0	41	0	505413632	14	4187
2026-01-12 08:19:22.34	65.86	19.45	-26.7	-27.9	15.9	0.00e+00	0	41	0	508559360	14	4142
2026-01-12 08:19:23.35	65.64	19.50	-26.8	-28.2	15.7	0.00e+00	0	41	0	511705088	14	4208
2026-01-12 08:19:24.35	65.41	19.55	-26.9	-28.3	15.7	0.00e+00	0	41	0	514850816	14	4229
2026-01-12 08:19:25.36	65.18	19.60	-26.7	-27.9	15.9	0.00e+00	0	41	0	517996544	14	4130
2026-01-12 08:19:26.36	64.95	19.65	-26.7	-27.8	15.9	0.00e+00	0	42	0	521142272	14	4112
2026-01-12 08:19:27.37	64.72	19.70	-26.7	-27.8	16.0	0.00e+00	0	41	0	524288000	14	4097
2026-01-12 08:19:28.37	64.49	19.74	-26.6	-27.7	16.0	0.00e+00	0	41	0	527433728	14	4072
2026-01-12 08:19:29.38	64.25	19.79	-26.5	-27.4	16.1	0.00e+00	0	41	0	530579456	14	4005
2026-01-12 08:19:30.38	64.02	19.84	-26.5	-27.4	16.2	0.00e+00	0	41	0	533725184	14	3996
2026-01-12 08:19:31.39	63.79	19.88	-26.5	-27.5	16.1	0.00e+00	0	41	0	536870912	14	4015
2026-01-12 08:19:32.40	63.55	19.93	-26.4	-27.2	16.2	0.00e+00	0	41	0	540016640	14	3954
2026-01-12 08:19:33.40	63.32	19.97	-26.4	-27.2	16.3	0.00e+00	0	41	0	543162368	14	3952
2026-01-12 08:19:34.40	63.08	20.02	-26.5	-27.5	16.1	0.00e+00	0	41	0	546308096	14	4020
2026-01-12 08:19:35.41	62.84	20.06	-26.7	-27.8	16.0	0.00e+00	0	41	0	549453824	14	4103
2026-01-12 08:19:36.42	62.61	20.11	-26.8	-28.1	15.8	0.00e+00	0	41	0	552599552	14	4170
2026-01-12 08:19:37.42	62.37	20.15	-26.7	-28.0	15.9	0.00e+00	0	42	0	555745280	14	4141
2026-01-12 08:19:38.42	62.13	20.19	-26.8	-28.1	15.9	0.00e+00	0	41	0	558891008	14	4168
2026-01-12 08:19:39.42	61.89	20.24	-26.7	-27.9	15.9	0.00e+00	0	41	0	562036736	14	4138
2026-01-12 08:19:40.43	61.65	20.28	-26.7	-27.9	15.9	0.00e+00	0	41	0	564133888	14	4139
2026-01-12 08:19:41.44	61.41	20.32	-26.8	-28.0	15.9	0.00e+00	0	41	0	568328192	14	4166
2026-01-12 08:19:42.44	61.17	20.36	-26.8	-28.1	15.8	0.00e+00	0	41	0	571473920	14	4189
2026-01-12 08:19:43.46	60.93	20.40	-26.9	-28.2	15.8	0.00e+00	0	41	0	574619648	14	4211
2026-01-12 08:19:44.47	60.68	20.44	-26.6	-27.6	16.1	0.00e+00	0	41	0	577765376	14	4048
2026-01-12 08:19:45.47	60.44	20.48	-26.4	-27.3	16.3	0.00e+00	0	41	0	580911104	14	3966
2026-01-12 08:19:46.47	60.20	20.52	-26.4	-27.3	16.3	0.00e+00	0	41	0	584056832	14	3966
2026-01-12 08:19:47.48	59.95	20.56	-26.4	-27.1	16.4	0.00e+00	0	41	0	586153984	14	3921
2026-01-12 08:19:48.49	59.71	20.60	-26.3	-27.1	16.4	0.00e+00	0	41	0	590348288	14	3913
2026-01-12 08:19:49.50	59.46	20.64	-26.4	-27.2	16.3	0.00e+00	0	41	0	593494016	14	3955
2026-01-12 08:19:50.50	59.21	20.68	-26.4	-27.3	16.3	0.00e+00	0	41	0	596639744	14	3964
2026-01-12 08:19:51.50	58.97	20.71	-26.4	-27.1	16.4	0.00e+00	0	41	0	599785472	14	3923
2026-01-12 08:19:52.50	58.72	20.75	-26.5	-27.3	16.3	0.00e+00	0	41	0	602931200	14	3974
2026-01-12 08:19:53.50	58.48	20.78	-26.4	-27.3	16.3	0.00e+00	0	42	0	606076928	14	3958
2026-01-12 08:19:54.50	58.23	20.82	-26.5	-27.3	16.2	0.00e+00	0	41	0	609222656	14	3984
2026-01-12 08:19:55.50	57.98	20.85	-26.5	-27.5	16.2	0.00e+00	0	42	0	611319808	14	4009
2026-01-12 08:19:56.50	57.73	20.89	-26.6	-27.5	16.2	0.00e+00	0	41	0	614465536	14	4033
2026-01-12 08:19:57.51	57.48	20.92	-26.6	-27.6	16.1	0.00e+00	0	41	0	617611264	14	4042
2026-01-12 08:19:58.51	57.23	20.96	-26.6	-27.7	16.0	0.00e+00	0	41	0	620756992	14	4079
2026-01-12 08:19:59.51	56.98	20.99	-26.7	-27.9	16.0	0.00e+00	0	42	0	623902720	14	4114
2026-01-12 08:20:00.52	56.73	21.02	-26.7	-28.0	15.9	0.00e+00	0	41	0	627048448	14	4143
2026-01-12 08:20:01.53	56.47	21.05	-26.8	-28.1	15.9	0.00e+00	0	42	0	630194176	14	4173
2026-01-12 08:20:02.53	56.22	21.08	-26.7	-28.0	15.9	0.00e+00	0	41	0	633339904	14	4135
2026-01-12 08:20:03.54	55.97	21.11	-26.8	-28.0	15.9	0.00e+00	0	41	0	636485632	14	4157
2026-01-12 08:20:04.54	55.72	21.14	-26.7	-27.9	15.9	0.00e+00	0	41	0	639631360	14	4141
2026-01-12 08:20:05.54	55.46	21.17	-26.6	-27.7	16.0	7.00e-07	0	41	0	642777088	14	4080
2026-01-12 08:20:06.54	55.21	21.20	-26.7	-27.8	16.0	0.00e+00	0	41	0	645922816	14	4082
2026-01-12 08:20:07.54	54.96	21.23	-26.7	-27.7	16.0	0.00e+00	0	42	0	649068544	14	4080
2026-01-12 08:20:08.54	54.70	21.26	-26.5	-27.5	16.2	0.00e+00	0	41	0	652214272	14	4008
2026-01-12 08:20:09.55	54.44	21.28	-26.6	-27.6	16.1	0.00e+00	0	41	0	655360000	14	4036
2026-01-12 08:20:10.56	54.19	21.31	-26.6	-27.5	16.2	0.00e+00	0	41	0	658505728	14	4028
2026-01-12 08:20:11.57	53.93	21.34	-26.5	-27.3	16.3	0.00e+00	0	41	0	661651456	14	3966
2026-01-12 08:20:12.58	53.67	21.36	-26.5	-27.3	16.3	0.00e+00	0	41	0	664797184	14	3978
2026-01-12 08:20:13.58	53.41	21.39	-26.6	-27.7	16.1	0.00e+00	0	42	0	667942912	14	4065
2026-01-12 08:20:14.59	53.15	21.41	-26.8	-28.1	15.8	0.00e+00	0	41	0	671088640	14	4187
2026-01-12 08:20:15.58	52.90	21.44	-26.9	-28.2	15.8	0.00e+00	0	41	0	674234368	14	4206
2026-01-12 08:20:16.59	52.64	21.46	-26.8	-28.0	15.9	0.00e+00	0	41	0	677380096	14	4156
2026-01-12 08:20:17.59	52.38	21.48	-26.9	-28.3	15.7	0.00e+00	0	41	0	680525824	14	4231
2026-01-12 08:20:18.60	52.12	21.50	-26.9	-28.3	15.7	0.00e+00	0	42	0	683671552	14	4236
2026-01-12 08:20:19.60	51.86	21.52	-26.8	-28.2	15.8	0.00e+00	0	41	0	686817280	14	4192
2026-01-12 08:20:20.60	51.60	21.54	-26.8	-28.1	15.8	0.00e+00	0	42	0	689963008	14	4181
2026-01-12 08:20:21.60	51.34	21.56	-27.0	-28.4	15.7	0.00e+00	0	41	0	693108736	14	4264
2026-01-12 08:20:22.61	51.08	21.58	-26.9	-28.3	15.7	0.00e+00	0	42	0	696254464	14	4237
2026-01-12 08:20:23.61	50.82	21.60	-26.7	-27.8	16.0	0.00e+00	0	41	0	699400192	14	4101
2026-01-12 08:20:24.62	50.55	21.62	-26.6	-27.6	16.1	0.00e+00	0	42	0	702545920	14	4038
2026-01-12 08:20:25.61	50.30	21.64	-26.5	-27.5	16.2	0.00e+00	0	42	0	705691648	14	4008
2026-01-12 08:20:26.62	50.03	21.65	-26.5	-27.4	16.3	0.00e+00	0	42	0	708837376	14	3991
2026-01-12 08:20:27.62	49.77	21.67	-26.5	-27.4	16.2	0.00e+00	0	41	0	711983104	14	3992
2026-01-12 08:20:28.63	49.51	21.69	-26.5	-27.4	16.3	0.00e+00	0	41	0	715128832	14	3987
2026-01-12 08:20:29.63	49.24	21.70	-26.7	-27.9	16.0	0.00e+00	0	41	0	718274560	14	4116
2026-01-12 08:20:30.63	48.98	21.72	-26.7	-27.8	16.0	0.00e+00	0	42	0	721420288	14	4100
2026-01-12 08:20:31.63	48.72	21.73	-26.5	-27.4	16.2	0.00e+00	0	41	0	724566016	14	3999
2026-01-12 08:20:32.64	48.45	21.74	-26.4	-27.2	16.4	0.00e+00	0	41	0	727711744	14	3945
2026-01-12 08:20:33.64	48.19	21.75	-26.5	-27.3	16.3	0.00e+00	0	41	0	730857472	14	3963
2026-01-12 08:20:34.64	47.93	21.77	-26.4	-27.1	16.4	0.00e+00	0	42	0	734003200	14	3913
2026-01-12 08:20:35.65	47.66	21.78	-26.4	-27.2	16.4	0.00e+00	0	41	0	737148928	14	3944
2026-01-12 08:20:36.65	47.40	21.79	-26.5	-27.3	16.3	0.00e+00	0	41	0	740294656	14	3979
2026-01-12 08:20:37.66	47.13	21.80	-26.6	-27.7	16.1	0.00e+00	0	41	0	743440384	14	4058
2026-01-12 08:20:38.66	46.87	21.81	-26.7	-27.8	16.0	0.00e+00	0	41	0	746586112	14	4092
2026-01-12 08:20:39.67	46.60	21.82	-26.7	-27.8	16.0	0.00e+00	0	41	0	749731840	14	4102
2026-01-12 08:20:40.68	46.34	21.82	-26.7	-27.9	16.0	0.00e+00	0	41	0	752877568	14	4126
2026-01-12 08:20:41.68	46.07	21.83	-26.8	-28.1	15.9	0.00e+00	0	41	0	756023296	14	4168
2026-01-12 08:20:42.68	45.81	21.84	-26.7	-27.9	16.0	0.00e+00	0	42	0	759169024	14	4132
2026-01-12 08:20:43.69	45.54	21.84	-26.5	-27.4	16.2	0.00e+00	0	42	0	762314752	14	4000
2026-01-12 08:20:44.69	45.28	21.85	-26.4	-27.3	16.3	0.00e+00	0	41	0	765460480	14	3958
2026-01-12 08:20:45.70	45.01	21.85	-26.5	-27.5	16.2	0.00e+00	0	41	0	768606208	14	4013
2026-01-12 08:20:46.69	44.75	21.86	-26.5	-27.4	16.2	0.00e+00	0	41	0	771751936	14	4000
2026-01-12 08:20:47.70	44.48	21.86	-26.4	-27.1	16.4	0.00e+00	0	41	0	774897664	14	3917
2026-01-12 08:20:48.70	44.22	21.86	-26.3	-27.4	16.5	0.00e+00	0	41	0	778043392	13	4091
2026-01-12 08:20:49.70	43.95	21.86	-26.3	-27.4	16.5	0.00e+00	0	42	0	781189120	13	4101
2026-01-12 08:20:50.70	43.69	21.87	-26.4	-27.7	16.3	0.00e+00	0	42	0	784334848	13	4175
2026-01-12 08:20:51.71	43.42	21.87	-26.5	-27.9	16.2	0.00e+00	0	42	0	787480576	13	4240
2026-01-12 08:20:52.71	43.15	21.87	-26.6	-28.1	16.1	0.00e+00	0	42	0	790626304	13	4289
2026-01-12 08:20:53.71	42.89	21.87	-26.6	-28.1	16.1	0.00e+00	0	41	0	793772032	13	4283
2026-01-12 08:20:54.72	42.62	21.87	-26.6	-28.1	16.1	0.00e+00	0	42	0	796917760	13	4296
2026-01-12 08:20:55.72	42.36	21.86	-26.6	-28.2	16.1	0.00e+00	0	42	0	800063488	13	4311
2026-01-12 08:20:56.72	42.09	21.86	-26.6	-28.2	16.1	0.00e+00	0	42	0	803209216	13	4309
2026-01-12 08:20:57.73	41.83	21.86	-26.7	-28.5	15.9	0.00e+00	0	41	0	806354944	13	4395
2026-01-12 08:20:58.72	41.56	21.85	-26.7	-28.4	16.0	0.00e+00	0	41	0	809500672	13	4360
2026-01-12 08:20:59.73	41.30	21.85	-26.7	-28.5	15.9	0.00e+00	0	41	0	812646400	13	4390
2026-01-12 08:21:00.73	41.03	21.84	-26.9	-28.7	15.7	0.00e+00	0	42	0	815792128	13	4468
2026-01-12 08:21:01.74	40.77	21.84	-26.9	-28.8	15.7	0.00e+00	0	41	0	818937856	13	4476
2026-01-12 08:21:02.74	40.50	21.83	-26.8	-28.7	15.8	0.00e+00	0	42	0	822083584	13	4450
2026-01-12 08:21:03.74	40.24	21.82	-26.9	-28.8	15.7	0.00e+00	0	41	0	825229312	13	4488
2026-01-12 08:21:04.74	39.97	21.82	-27.1	-28.7	15.5	0.00e+00	0	41	0	828375040	14	4347
2026-01-12 08:21:05.75	39.71	21.81	-27.4	-29.4	15.1	0.00e+00	0	41	0	831520768	14	4542
2026-01-12 08:21:06.75	39.44	21.80	-27.2	-29.0	15.3	7.00e-07	0	41	0	834666496	14	4426
2026-01-12 08:21:07.76	39.18	21.79	-26.9	-28.3	15.7	0.00e+00	0	41	0	837812224	14	4219
2026-01-12 08:21:08.76	38.91	21.78	-26.7	-27.8	16.0	0.00e+00	0	41	0	840957952	14	4111
2026-01-12 08:21:09.77	38.65	21.77	-26.6	-27.5	16.1	0.00e+00	0	41	0	844103680	14	4033
2026-01-12 08:21:10.77	38.39	21.76	-26.4	-27.2	16.3	0.00e+00	0	41	0	847249408	14	3951
2026-01-12 08:21:11.77	38.12	21.74	-26.4	-27.2	16.3	0.00e+00	0	41	0	850395136	14	3950
2026-01-12 08:21:12.77	37.86	21.73	-26.3	-27.1	16.4	0.00e+00	0	41	0	853540864	14	3913
2026-01-12 08:21:13.77	37.60	21.72	-26.4	-27.2	16.3	0.00e+00	0	42	0	856686592	14	3952
2026-01-12 08:21:14.77	37.34	21.70	-26.4	-27.2	16.3	0.00e+00	0	42	0	859832320	14	3953
2026-01-12 08:21:15.76	37.08	21.69	-26.4	-27.3	16.3	0.00e+00	0	42	0	862978048	14	3965
2026-01-12 08:21:16.76	36.82	21.67	-26.6	-27.7	16.1	0.00e+00	0	41	0	866123776	14	4070
2026-01-12 08:21:17.76	36.55	21.66	-26.7	-27.8	16.0	0.00e+00	0	41	0	869269504	14	4093
2026-01-12 08:21:18.77	36.29	21.64	-26.8	-28.1	15.8	0.00e+00	0	42	0	872415232	14	4184
2026-01-12 08:21:19.76	36.03	21.62	-26.7	-27.9	15.9	0.00e+00	0	41	0	875560960	14	4128
2026-01-12 08:21:20.75	35.78	21.60	-26.6	-27.7	16.1	0.00e+00	0	41	0	878706688	14	4075
2026-01-12 08:21:21.74	35.52	21.59	-26.7	-27.8	16.0	0.00e+00	0	42	0	881852416	14	4099
2026-01-12 08:21:22.74	35.26	21.57	-26.8	-28.0	15.9	0.00e+00	0	41	0	884998144	14	4157
2026-01-12 08:21:23.74	35.00	21.55	-26.7	-27.7	16.0	0.00e+00	0	42	0	887095296	14	4084
2026-01-12 08:21:24.74	34.74	21.53	-26.5	-27.5	16.1	0.00e+00	0	41	0	890241024	14	4026
2026-01-12 08:21:25.74	34.48	21.51	-26.5	-27.5	16.2	0.00e+00	0	41	0	893386752	14	4019
2026-01-12 08:21:26.74	34.22	21.48	-26.6	-27.6	16.1	0.00e+00	0	41	0	896532480	14	4053
2026-01-12 08:21:27.74	33.97	21.46	-26.7	-27.8	16.0	0.00e+00	0	41	0	899678208	14	4097
2026-01-12 08:21:28.74	33.71	21.44	-26.5	-27.5	16.1	0.00e+00	0	41	0	902823936	14	4028
2026-01-12 08:21:29.74	33.45	21.42	-26.4	-27.2	16.3	0.00e+00	0	41	0	905969664	14	3932
2026-01-12 08:21:30.75	33.19	21.39	-26.4	-27.3	16.3	0.00e+00	0	41	0	909115392	14	3967
2026-01-12 08:21:31.75	32.93	21.37	-26.4	-27.2	16.3	0.00e+00	0	41	0	912261120	14	3957
2026-01-12 08:21:32.75	32.68	21.34	-26.5	-27.5	16.1	0.00e+00	0	41	0	915406848	14	4020
2026-01-12 08:21:33.75	32.42	21.32	-26.6	-27.6	16.1	0.00e+00	0	41	0	918552576	14	4051
2026-01-12 08:21:34.76	32.17	21.29	-26.6	-27.7	16.0	0.00e+00	0	41	0	921698304	14	4072
2026-01-12 08:21:35.76	31.91	21.26	-26.6	-27.7	16.0	0.00e+00	0	41	0	924844032	14	4079
2026-01-12 08:21:36.76	31.66	21.24	-26.7	-27.8	16.0	0.00e+00	0	41	0	927989760	14	4101
2026-01-12 08:21:37.76	31.40	21.21	-26.9	-28.2	15.7	0.00e+00	0	41	0	931135488	14	4217
2026-01-12 08:21:38.76	31.15	21.18	-26.8	-28.2	15.7	0.00e+00	0	41	0	934281216	14	4208
2026-01-12 08:21:39.76	30.90	21.15	-26.9	-28.4	15.6	0.00e+00	0	41	0	937426944	14	4274
2026-01-12 08:21:40.76	30.65	21.12	-26.8	-28.2	15.8	0.00e+00	0	41	0	940572672	14	4198
2026-01-12 08:21:41.76	30.39	21.09	-26.8	-28.0	15.8	0.00e+00	0	41	0	943718400	14	4158
2026-01-12 08:21:42.77	30.14	21.06	-26.8	-28.0	15.8	0.00e+00	0	41	0	946864128	14	4163
2026-01-12 08:21:43.78	29.89	21.03	-26.8	-28.2	15.8	0.00e+00	0	41	0	950009856	14	4196
2026-01-12 08:21:44.78	29.64	21.00	-26.8	-28.2	15.8	0.00e+00	0	41	0	953155584	14	4197
2026-01-12 08:21:45.78	29.39	20.96	-26.9	-28.2	15.7	0.00e+00	0	41	0	956301312	14	4216
2026-01-12 08:21:46.78	29.14	20.93	-26.9	-28.2	15.7	0.00e+00	0	41	0	959447040	14	4216
2026-01-12 08:21:47.78	28.89	20.90	-26.8	-28.1	15.8	0.00e+00	0	41	0	962592768	14	4182
2026-01-12 08:21:48.79	28.64	20.86	-27.1	-28.8	15.5	7.00e-07	0	41	0	965738496	14	4359
2026-01-12 08:21:49.79	28.39	20.83	-27.2	-28.4	15.3	0.00e+00	0	41	0	968884224	15	4161
2026-01-12 08:21:50.78	28.15	20.79	-26.8	-27.7	15.8	0.00e+00	0	41	0	972029952	15	3962
2026-01-12 08:21:51.78	27.90	20.76	-26.7	-27.8	15.9	0.00e+00	0	41	0	975175680	14	4116
2026-01-12 08:21:52.79	27.65	20.72	-26.7	-28.0	15.9	0.00e+00	0	41	0	978321408	14	4145
2026-01-12 08:21:53.78	27.41	20.69	-26.8	-28.1	15.8	0.00e+00	0	41	0	981467136	14	4182
2026-01-12 08:21:54.79	27.16	20.65	-27.0	-28.6	15.5	0.00e+00	0	41	0	984612864	14	4330
2026-01-12 08:21:55.79	26.92	20.61	-26.8	-28.1	15.8	0.00e+00	0	41	0	987758592	14	4190
2026-01-12 08:21:56.79	26.68	20.57	-27.0	-28.6	15.5	0.00e+00	0	41	0	990904320	14	4326
2026-01-12 08:21:57.79	26.43	20.53	-26.8	-28.2	15.8	0.00e+00	0	41	0	994050048	14	4195
2026-01-12 08:21:58.79	26.19	20.49	-27.5	-29.1	14.9	0.00e+00	0	41	0	997195776	15	4347
2026-01-12 08:21:59.79	25.95	20.46	-27.4	-29.0	15.1	0.00e+00	0	41	0	1000341504	15	4328
2026-01-12 08:22:00.80	25.71	20.42	-27.4	-29.1	15.0	0.00e+00	0	41	0	1003487232	15	4336
2026-01-12 08:22:01.80	25.47	20.37	-27.0	-28.1	15.5	0.00e+00	0	41	0	1006632960	15	4061
2026-01-12 08:22:02.81	25.22	20.33	-26.9	-27.9	15.7	0.00e+00	0	41	0	1009778688	15	4019
2026-01-12 08:22:03.81	24.99	20.29	-26.7	-27.9	15.9	0.00e+00	0	41	0	1012924416	14	4119
2026-01-12 08:22:04.82	24.74	20.25	-27.0	-28.5	15.6	7.00e-07	0	41	0	1016070144	14	4286
2026-01-12 08:22:05.83	24.50	20.21	-26.6	-27.7	16.0	0.00e+00	0	41	0	1019215872	14	4078
2026-01-12 08:22:06.83	24.27	20.16	-26.6	-27.7	16.0	0.00e+00	0	41	0	1022361600	14	4062
2026-01-12 08:22:07.82	24.03	20.12	-26.5	-27.4	16.2	0.00e+00	0	41	0	1025507328	14	3994
2026-01-12 08:22:08.83	23.80	20.08	-26.5	-27.4	16.2	0.00e+00	0	41	0	1028653056	14	3998
2026-01-12 08:22:09.82	23.56	20.03	-26.7	-27.8	15.9	0.00e+00	0	41	0	1031798784	14	4102
2026-01-12 08:22:10.82	23.33	19.99	-26.7	-27.8	15.9	0.00e+00	0	41	0	1034944512	14	4105
2026-01-12 08:22:11.82	23.10	19.94	-26.8	-28.0	15.8	0.00e+00	0	41	0	1038090240	14	4158
2026-01-12 08:22:12.83	22.86	19.90	-26.6	-27.6	16.1	0.00e+00	0	41	0	1041235968	14	4044
2026-01-12 08:22:13.83	22.63	19.85	-26.5	-27.5	16.1	0.00e+00	0	41	0	1044381696	14	4010
2026-01-12 08:22:14.83	22.40	19.81	-26.7	-27.8	16.0	0.00e+00	0	41	0	1047527424	14	4101
2026-01-12 08:22:15.83	22.17	19.76	-26.7	-27.8	15.9	0.00e+00	0	41	0	1050673152	14	4102
2026-01-12 08:22:16.82	21.94	19.71	-26.9	-28.2	15.7	0.00e+00	0	41	0	1053818880	14	4221
2026-01-12 08:22:17.82	21.71	19.67	-26.9	-28.3	15.6	0.00e+00	0	41	0	1056964608	14	4241
2026-01-12 08:22:18.82	21.48	19.62	-27.0	-28.6	15.5	0.00e+00	0	41	0	1060110336	14	4314
2026-01-12 08:22:19.82	21.25	19.57	-27.2	-29.0	15.3	0.00e+00	0	41	0	1063256064	14	4422
2026-01-12 08:22:20.83	21.02	19.52	-27.2	-29.0	15.2	0.00e+00	0	41	0	1066401792	14	4427
2026-01-12 08:22:21.82	20.80	19.47	-27.3	-29.2	15.1	0.00e+00	0	41	0	1068498944	14	4483
2026-01-12 08:22:22.83	20.57	19.42	-27.1	-28.9	15.3	0.00e+00	0	41	0	1071644672	14	4398
2026-01-12 08:22:23.83	20.35	19.37	-26.8	-28.1	15.7	0.00e+00	0	41	0	1074790400	14	4181
2026-01-12 08:22:24.84	20.12	19.32	-26.6	-27.6	16.0	0.00e+00	0	41	0	1078984704	14	4041
2026-01-12 08:22:25.84	19.90	19.27	-26.4	-27.3	16.2	0.00e+00	0	41	0	1082130432	14	3977
2026-01-12 08:22:26.85	19.67	19.22	-26.7	-28.0	15.8	0.00e+00	0	41	0	1085276160	14	4150
2026-01-12 08:22:27.84	19.45	19.17	-26.8	-28.1	15.7	0.00e+00	0	41	0	1088421888	14	4176
2026-01-12 08:22:28.84	19.23	19.12	-26.8	-28.1	15.7	0.00e+00	0	41	0	1090519040	14	4173
2026-01-12 08:22:29.84	19.01	19.07	-26.8	-28.2	15.7	0.00e+00	0	41	0	1093664768	14	4206
2026-01-12 08:22:30.84	18.79	19.02	-27.1	-28.7	15.4	0.00e+00	0	41	0	1096810496	14	4347
2026-01-12 08:22:31.85	18.57	18.96	-27.1	-28.8	15.3	0.00e+00	0	41	0	1099956224	14	4383
2026-01-12 08:22:32.84	18.36	18.91	-27.3	-29.2	15.1	0.00e+00	0	41	0	1103101952	14	4485
2026-01-12 08:22:33.84	18.14	18.86	-27.3	-29.2	15.0	7.00e-07	0	41	0	1106247680	14	4510
2026-01-12 08:22:34.84	17.92	18.81	-27.1	-28.8	15.3	0.00e+00	0	41	0	1109393408	14	4373
2026-01-12 08:22:35.84	17.71	18.75	-27.0	-28.6	15.4	0.00e+00	0	41	0	1112539136	14	4317
2026-01-12 08:22:36.85	17.49	18.70	-27.0	-28.7	15.3	0.00e+00	0	41	0	1115684864	14	4340
2026-01-12 08:22:37.86	17.27	18.64	-27.2	-29.1	15.1	0.00e+00	0	41	0	1118830592	14	4462
2026-01-12 08:22:38.85	17.06	18.59	-27.1	-28.9	15.2	0.00e+00	0	41	0	1121976320	14	4406
2026-01-12 08:22:39.85	16.85	18.53	-27.0	-28.6	15.4	0.00e+00	0	41	0	1125122048	14	4319
2026-01-12 08:22:40.85	16.64	18.48	-26.9	-28.4	15.5	0.00e+00	0	41	0	1128267776	14	4256
2026-01-12 08:22:41.86	16.42	18.42	-26.9	-28.3	15.5	0.00e+00	0	41	0	1131413504	14	4256
2026-01-12 08:22:42.87	16.21	18.37	-26.8	-28.2	15.6	0.00e+00	0	41	0	1134559232	14	4207
2026-01-12 08:22:43.87	16.00	18.31	-26.7	-28.0	15.7	0.00e+00	0	41	0	1137704960	14	4162
2026-01-12 08:22:44.88	15.79	18.26	-26.8	-28.0	15.7	0.00e+00	0	41	0	1140850688	14	4171
2026-01-12 08:22:45.89	15.58	18.20	-27.0	-28.5	15.4	0.00e+00	0	41	0	1143996416	14	4305
2026-01-12 08:22:46.89	15.37	18.14	-26.7	-27.8	15.8	0.00e+00	0	42	0	1147142144	14	4111
2026-01-12 08:22:47.90	15.17	18.08	-26.6	-27.6	16.0	0.00e+00	0	41	0	1150287872	14	4062
2026-01-12 08:22:48.90	14.96	18.03	-26.4	-27.3	16.1	0.00e+00	0	41	0	1153433600	14	3965
2026-01-12 08:22:49.90	14.76	17.97	-26.6	-27.6	16.0	0.00e+00	0	41	0	1156579328	14	4041
2026-01-12 08:22:50.90	14.55	17.91	-26.7	-27.9	15.8	0.00e+00	0	41	0	1159725056	14	4140
2026-01-12 08:22:51.90	14.35	17.85	-26.9	-28.3	15.5	0.00e+00	0	41	0	1162870784	14	4247
2026-01-12 08:22:52.90	14.15	17.80	-26.8	-28.2	15.6	0.00e+00	0	41	0	1166016512	14	4205
2026-01-12 08:22:53.91	13.94	17.74	-26.8	-28.2	15.6	0.00e+00	0	41	0	1169162240	14	4208
2026-01-12 08:22:54.92	13.74	17.68	-26.8	-28.2	15.6	0.00e+00	0	42	0	1172307968	14	4213
2026-01-12 08:22:55.91	13.54	17.62	-27.1	-28.7	15.3	0.00e+00	0	41	0	1175453696	14	4358
2026-01-12 08:22:56.92	13.34	17.56	-26.8	-28.2	15.5	0.00e+00	0	41	0	1178599424	14	4221
2026-01-12 08:22:57.92	13.14	17.50	-26.8	-28.2	15.6	0.00e+00	0	41	0	1181745152	14	4224
2026-01-12 08:22:58.92	12.94	17.44	-27.0	-28.5	15.4	0.00e+00	0	41	0	1184890880	14	4289
2026-01-12 08:22:59.93	12.75	17.38	-27.1	-28.7	15.3	0.00e+00	0	41	0	1188036608	14	4353
2026-01-12 08:23:00.92	12.55	17.32	-27.2	-29.0	15.1	0.00e+00	0	41	0	1191182336	14	4450
2026-01-12 08:23:01.93	12.35	17.26	-27.3	-29.3	14.9	0.00e+00	0	41	0	1194328064	14	4528
2026-01-12 08:23:02.93	12.16	17.20	-27.9	-30.3	14.1	1.50e-06	0	41	0	1197473792	15	4706
2026-01-12 08:23:03.93	11.97	17.14	-28.0	-30.3	14.1	1.50e-06	0	41	0	1200619520	15	4733
2026-01-12 08:23:04.94	11.77	17.08	-28.2	-29.9	13.9	9.10e-06	0	41	0	1203765248	17	4356
2026-01-12 08:23:05.94	11.58	17.02	-28.3	-30.6	14.0	4.50e-06	0	41	0	1206910976	16	4673
2026-01-12 08:23:06.93	11.39	16.96	-28.1	-29.6	14.3	5.30e-06	0	41	0	1210056704	17	4265
2026-01-12 08:23:07.93	11.20	16.90	-28.2	-29.9	13.9	2.20e-06	0	42	0	1213202432	17	4367
2026-01-12 08:23:08.93	11.01	16.83	-28.4	-30.3	13.8	3.80e-06	0	42	0	1216348160	17	4477
2026-01-12 08:23:09.92	10.82	16.77	-28.0	-29.4	14.2	9.10e-06	0	41	0	1219493888	17	4222
2026-01-12 08:23:10.93	10.63	16.71	-28.7	-30.6	13.3	2.20e-06	0	41	0	1222639616	18	4473
2026-01-12 08:23:11.94	10.44	16.65	-28.5	-30.1	13.5	8.30e-06	0	41	0	1225785344	18	4331
2026-01-12 08:23:12.94	10.26	16.59	-28.3	-30.1	13.9	3.80e-06	0	41	0	1228931072	17	4419
2026-01-12 08:23:13.94	10.07	16.52	-28.1	-29.6	14.1	0.00e+00	0	41	0	1232076800	17	4277
2026-01-12 08:23:14.95	9.88	16.46	-27.7	-29.3	14.6	7.00e-07	0	41	0	1235222528	16	4293
2026-01-12 08:23:15.96	9.70	16.40	-27.6	-28.9	14.8	0.00e+00	0	41	0	1238368256	16	4178
2026-01-12 08:23:16.95	9.52	16.34	-27.7	-29.3	14.5	7.00e-07	0	41	0	1241513984	16	4291
2026-01-12 08:23:17.96	9.33	16.27	-28.0	-30.0	14.2	1.50e-06	0	41	0	1244659712	16	4492
2026-01-12 08:23:18.96	9.15	16.21	-27.5	-28.8	14.8	0.00e+00	0	41	0	1247805440	16	4156
2026-01-12 08:23:19.96	8.97	16.15	-27.5	-28.6	14.9	0.00e+00	0	41	0	1250951168	16	4104
2026-01-12 08:23:20.95	8.79	16.08	-27.3	-28.2	15.2	0.00e+00	0	41	0	1254096896	16	3999
2026-01-12 08:23:21.95	8.61	16.02	-27.1	-28.3	15.2	0.00e+00	0	41	0	1257242624	15	4139
2026-01-12 08:23:22.94	8.43	15.96	-27.2	-28.7	15.0	0.00e+00	0	41	0	1260388352	15	4234
2026-01-12 08:23:23.95	8.25	15.89	-27.2	-28.5	15.1	0.00e+00	0	41	0	1263534080	15	4184
2026-01-12 08:23:24.95	8.08	15.83	-27.2	-28.6	15.0	1.50e-06	0	41	0	1266679808	15	4220
2026-01-12 08:23:25.96	7.90	15.77	-27.2	-28.6	15.0	0.00e+00	0	41	0	1269825536	15	4228
2026-01-12 08:23:26.96	7.72	15.70	-27.3	-28.9	14.9	7.00e-07	0	41	0	1272971264	15	4294
2026-01-12 08:23:27.97	7.55	15.64	-27.2	-28.6	15.0	7.00e-07	0	41	0	1276116992	15	4232
2026-01-12 08:23:28.97	7.37	15.57	-27.1	-28.3	15.2	0.00e+00	0	41	0	1279262720	15	4128
2026-01-12 08:23:29.97	7.20	15.51	-27.2	-28.5	15.1	0.00e+00	0	41	0	1282408448	15	4192
2026-01-12 08:23:30.98	7.02	15.45	-27.1	-28.4	15.1	0.00e+00	0	42	0	1285554176	15	4179
2026-01-12 08:23:31.98	6.85	15.38	-27.2	-28.5	15.1	0.00e+00	0	41	0	1288699904	15	4182
2026-01-12 08:23:32.99	6.68	15.32	-27.3	-28.7	14.9	0.00e+00	0	41	0	1291845632	15	4258
2026-01-12 08:23:34.00	6.51	15.25	-27.1	-28.3	15.1	0.00e+00	0	41	0	1294991360	15	4153
2026-01-12 08:23:35.01	6.34	15.19	-27.2	-28.5	15.0	0.00e+00	0	41	0	1298137088	15	4182
2026-01-12 08:23:36.01	6.17	15.12	-27.1	-28.4	15.1	0.00e+00	0	41	0	1301282816	15	4176
2026-01-12 08:23:37.01	6.00	15.06	-27.1	-28.3	15.1	0.00e+00	0	41	0	1304428544	15	4151
2026-01-12 08:23:38.02	5.83	14.99	-27.2	-28.7	14.9	0.00e+00	0	41	0	1307574272	15	4239
2026-01-12 08:23:39.02	5.66	14.93	-27.3	-28.8	14.9	7.00e-07	0	42	0	1310720000	15	4268
2026-01-12 08:23:40.02	5.50	14.86	-27.4	-29.1	14.7	1.50e-06	0	41	0	1313865728	15	4354
2026-01-12 08:23:41.02	5.33	14.80	-27.5	-29.2	14.6	7.00e-07	0	42	0	1317011456	15	4386
2026-01-12 08:23:42.03	5.17	14.73	-27.5	-29.2	14.6	7.00e-07	0	42	0	1320157184	15	4397
2026-01-12 08:23:43.03	5.00	14.66	-27.4	-29.1	14.7	0.00e+00	0	42	0	1323302912	15	4355
2026-01-12 08:23:44.04	4.84	14.60	-27.5	-29.2	14.5	7.00e-07	0	42	0	1326448640	15	4407
2026-01-12 08:23:45.05	4.67	14.53	-27.3	-28.8	14.8	7.00e-07	0	42	0	1329594368	15	4295
2026-01-12 08:23:46.05	4.51	14.47	-27.3	-28.8	14.8	0.00e+00	0	42	0	1332740096	15	4293
2026-01-12 08:23:47.05	4.35	14.40	-27.4	-29.1	14.6	0.00e+00	0	41	0	1335885824	15	4356
2026-01-12 08:23:48.05	4.19	14.34	-27.2	-28.5	14.9	0.00e+00	0	41	0	1339031552	15	4204
2026-01-12 08:23:49.06	4.03	14.27	-27.0	-28.2	15.1	0.00e+00	0	42	0	1342177280	15	4110
2026-01-12 08:23:50.07	3.87	14.20	-27.1	-28.3	15.0	7.00e-07	0	41	0	1344274432	15	4155
2026-01-12 08:23:51.08	3.71	14.14	-27.0	-28.1	15.1	0.00e+00	0	42	0	1347420160	15	4102
2026-01-12 08:23:52.08	3.55	14.07	-27.0	-28.2	15.1	0.00e+00	0	42	0	1350565888	15	4114
2026-01-12 08:23:53.09	3.40	14.01	-27.1	-28.4	15.0	0.00e+00	0	42	0	1354760192	15	4176
2026-01-12 08:23:54.09	3.24	13.94	-27.1	-28.5	14.9	0.00e+00	0	42	0	1357905920	15	4187
2026-01-12 08:23:55.09	3.08	13.87	-27.1	-28.3	15.0	0.00e+00	0	42	0	1361051648	15	4143
2026-01-12 08:23:56.10	2.93	13.81	-27.0	-28.2	15.1	0.00e+00	0	42	0	1364197376	15	4108
2026-01-12 08:23:57.10	2.78	13.74	-27.1	-28.2	15.0	0.00e+00	0	42	0	1367343104	15	4126
2026-01-12 08:23:58.11	2.62	13.68	-27.2	-28.5	14.9	0.00e+00	0	42	0	1369440256	15	4204
2026-01-12 08:23:59.11	2.47	13.61	-27.1	-28.4	14.9	0.00e+00	0	42	0	1372585984	15	4182
2026-01-12 08:24:00.11	2.32	13.54	-27.2	-28.6	14.8	7.00e-07	0	42	0	1375731712	15	4232
2026-01-12 08:24:01.12	2.16	13.48	-27.3	-28.8	14.7	7.00e-07	0	42	0	1378877440	15	4287
2026-01-12 08:24:02.12	2.01	13.41	-27.3	-28.8	14.7	7.00e-07	0	42	0	1382023168	15	4276
2026-01-12 08:24:03.13	1.86	13.34	-27.3	-28.8	14.7	0.00e+00	0	42	0	1385168896	15	4275
2026-01-12 08:24:04.13	1.71	13.28	-27.3	-28.9	14.6	7.00e-07	0	42	0	1389363200	15	4321
2026-01-12 08:24:05.14	1.56	13.21	-27.3	-28.7	14.7	7.00e-07	0	42	0	1391460352	15	4261
2026-01-12 08:24:06.15	1.42	13.15	-27.4	-29.0	14.6	7.00e-07	0	42	0	1394606080	15	4355
2026-01-12 08:24:07.15	1.27	13.08	-27.5	-29.3	14.4	7.00e-07	0	42	0	1397751808	15	4433
2026-01-12 08:24:08.15	1.12	13.01	-27.7	-29.7	14.2	7.00e-07	0	42	0	1400897536	15	4547
2026-01-12 08:24:09.16	0.98	12.95	-27.4	-29.1	14.5	0.00e+00	0	42	0	1404043264	15	4368
2026-01-12 08:24:10.16	0.83	12.88	-27.3	-28.9	14.6	0.00e+00	0	42	0	1407188992	15	4316
2026-01-12 08:24:11.16	0.69	12.81	-27.4	-29.0	14.6	1.50e-06	0	42	0	1410334720	15	4344
2026-01-12 08:24:12.17	0.54	12.75	-27.4	-29.1	14.5	0.00e+00	0	42	0	1413480448	15	4390
2026-01-12 08:24:13.17	0.40	12.68	-27.6	-29.5	14.2	7.00e-07	0	42	0	1416626176	15	4503
2026-01-12 08:24:14.17	0.26	12.62	-27.6	-29.6	14.2	7.00e-07	0	42	0	1419771904	15	4509
2026-01-12 08:24:15.18	0.11	12.55	-27.7	-29.8	14.1	0.00e+00	0	42	0	1422917632	15	4593
2026-01-12 08:24:16.19	359.97	12.48	-27.8	-30.1	13.9	7.00e-07	0	42	0	1426063360	15	4668
2026-01-12 08:24:17.20	359.83	12.42	-28.0	-30.5	13.6	5.30e-06	0	42	0	1429209088	15	4809
2026-01-12 08:24:18.21	359.69	12.35	-28.2	-30.3	13.6	9.10e-06	0	42	0	1432354816	16	4633
2026-01-12 08:24:19.21	359.55	12.28	-28.3	-30.7	13.4	1.06e-05	0	42	0	1435500544	16	4758
2026-01-12 08:24:20.22	359.41	12.22	-28.2	-30.4	13.6	6.10e-06	0	42	0	1438646272	16	4638
2026-01-12 08:24:21.21	359.28	12.15	-28.1	-30.1	13.8	3.80e-06	0	42	0	1441792000	16	4557
2026-01-12 08:24:22.22	359.14	12.08	-28.0	-30.0	13.9	7.60e-06	0	42	0	1444937728	16	4513
2026-01-12 08:24:23.22	359.00	12.02	-28.0	-29.9	13.9	1.50e-06	0	42	0	1448083456	16	4493
2026-01-12 08:24:24.23	358.86	11.95	-27.9	-29.9	13.9	3.80e-06	0	42	0	1451229184	16	4483
2026-01-12 08:24:25.24	358.73	11.89	-27.9	-29.6	14.1	2.20e-06	0	42	0	1454374912	16	4409
2026-01-12 08:24:26.25	358.59	11.82	-27.9	-29.7	14.0	4.50e-06	0	42	0	1457520640	16	4447
2026-01-12 08:24:27.25	358.46	11.75	-27.9	-29.7	14.0	3.80e-06	0	42	0	1460666368	16	4423
2026-01-12 08:24:28.25	358.32	11.69	-27.9	-29.8	13.9	1.50e-06	0	42	0	1463812096	16	4476
2026-01-12 08:24:29.26	358.19	11.62	-28.1	-30.2	13.6	6.80e-06	0	42	0	1466957824	16	4606
2026-01-12 08:24:30.26	358.06	11.56	-28.1	-30.1	13.7	4.50e-06	0	42	0	1470103552	16	4559
2026-01-12 08:24:31.27	357.93	11.49	-28.2	-30.4	13.5	8.30e-06	0	42	0	1473249280	16	4670
2026-01-12 08:24:32.28	357.79	11.42	-28.2	-30.4	13.5	4.50e-06	0	42	0	1476395008	16	4652
2026-01-12 08:24:33.28	357.66	11.36	-28.2	-30.6	13.4	1.37e-05	0	42	0	1479540736	16	4707
2026-01-12 08:24:34.29	357.53	11.29	-28.2	-30.4	13.5	8.30e-06	0	42	0	1482686464	16	4650
2026-01-12 08:24:35.30	357.40	11.22	-28.2	-30.4	13.5	1.14e-05	0	42	0	1485832192	16	4661
2026-01-12 08:24:36.30	357.27	11.16	-28.2	-30.4	13.5	1.37e-05	0	42	0	1488977920	16	4656
2026-01-12 08:24:37.31	357.14	11.09	-28.2	-30.4	13.5	1.60e-05	0	42	0	1492123648	16	4655
2026-01-12 08:24:38.31	357.02	11.03	-28.0	-30.1	13.7	9.10e-06	0	42	0	1495269376	16	4560
2026-01-12 08:24:39.32	356.89	10.96	-28.0	-30.0	13.7	9.10e-06	0	42	0	1498415104	16	4532
2026-01-12 08:24:40.33	356.76	10.89	-27.9	-29.8	13.9	7.60e-06	0	42	0	1501560832	16	4466
2026-01-12 08:24:41.34	356.64	10.83	-28.0	-30.1	13.7	9.10e-06	0	42	0	1504706560	16	4564
2026-01-12 08:24:42.34	356.51	10.76	-27.9	-29.9	13.8	7.60e-06	0	42	0	1507852288	16	4491
2026-01-12 08:24:43.35	356.39	10.70	-27.9	-29.8	13.9	2.20e-06	0	42	0	1510998016	16	4455
2026-01-12 08:24:44.36	356.26	10.63	-28.0	-30.0	13.8	3.80e-06	0	42	0	1514143744	16	4518
2026-01-12 08:24:45.37	356.14	10.57	-28.0	-30.1	13.7	4.50e-06	0	42	0	1517289472	16	4548
2026-01-12 08:24:46.37	356.01	10.50	-28.1	-30.3	13.6	6.10e-06	0	42	0	1520435200	16	4626
2026-01-12 08:24:47.37	355.89	10.44	-28.2	-30.5	13.4	1.29e-05	0	42	0	1523580928	16	4688
2026-01-12 08:24:48.38	355.77	10.37	-28.3	-30.7	13.3	1.67e-05	0	42	0	1526726656	16	4761
2026-01-12 08:24:49.39	355.65	10.30	-28.3	-30.9	13.2	2.59e-05	0	42	0	1529872384	16	4809
2026-01-12 08:24:50.39	355.53	10.24	-28.3	-30.7	13.3	1.90e-05	0	42	0	1533018112	16	4761
2026-01-12 08:24:51.40	355.41	10.17	-28.4	-30.9	13.2	1.67e-05	0	42	0	1536163840	16	4818
2026-01-12 08:24:52.40	355.29	10.11	-28.3	-30.9	13.2	2.36e-05	0	42	0	1539309568	16	4806
2026-01-12 08:24:53.41	355.17	10.04	-28.2	-30.5	13.4	1.75e-05	0	42	0	1542455296	16	4705
2026-01-12 08:24:54.41	355.05	9.98	-28.2	-30.4	13.4	1.83e-05	0	42	0	1545601024	16	4671
2026-01-12 08:24:55.42	354.93	9.91	-28.3	-30.7	13.2	2.44e-05	0	42	0	1548746752	16	4772
2026-01-12 08:24:56.43	354.81	9.85	-28.2	-30.5	13.4	1.67e-05	0	42	0	1551892480	16	4681
2026-01-12 08:24:57.44	354.69	9.78	-28.3	-30.7	13.2	1.90e-05	0	42	0	1555038208	16	4746
2026-01-12 08:24:58.44	354.58	9.72	-28.3	-30.7	13.2	2.97e-05	0	42	0	1558183936	16	4749
2026-01-12 08:24:59.45	354.46	9.65	-28.3	-30.7	13.2	2.28e-05	0	42	0	1561329664	16	4762
2026-01-12 08:25:00.45	354.35	9.59	-28.2	-30.5	13.3	1.52e-05	0	42	0	1564475392	16	4697
2026-01-12 08:25:01.45	354.23	9.52	-28.3	-30.9	13.1	2.28e-05	0	42	0	1567621120	16	4812
2026-01-12 08:25:02.46	354.12	9.46	-28.4	-31.0	13.0	4.11e-05	0	42	0	1570766848	16	4854
2026-01-12 08:25:03.46	354.00	9.39	-28.2	-30.6	13.2	3.20e-05	0	42	0	1573912576	16	4746
2026-01-12 08:25:04.47	353.89	9.33	-28.4	-31.0	13.0	2.21e-05	0	42	0	1577058304	16	4852
2026-01-12 08:25:05.48	353.78	9.26	-28.5	-30.8	12.8	6.17e-05	0	42	0	1580204032	17	4696
2026-01-12 08:25:06.48	353.66	9.20	-28.7	-31.3	12.4	8.85e-05	0	42	0	1583349760	17	4866
2026-01-12 08:25:07.48	353.55	9.14	-28.9	-31.8	12.2	2.73e-04	0	42	0	1586495488	17	5034
2026-01-12 08:25:08.49	353.44	9.07	-28.7	-31.2	12.5	1.39e-04	0	42	0	1589641216	17	4828
2026-01-12 08:25:09.49	353.33	9.01	-28.6	-31.1	12.6	8.23e-05	0	42	0	1592786944	17	4784
2026-01-12 08:25:10.49	353.22	8.94	-28.8	-31.4	12.4	1.64e-04	0	42	0	1595932672	17	4898
2026-01-12 08:25:11.49	353.11	8.88	-28.7	-31.3	12.5	1.36e-04	0	42	0	1599078400	17	4850
2026-01-12 08:25:12.50	353.00	8.81	-28.8	-31.7	12.2	2.18e-04	0	42	0	1602224128	17	4986
2026-01-12 08:25:13.50	352.89	8.75	-28.8	-31.5	12.3	2.13e-04	0	42	0	1605369856	17	4914
2026-01-12 08:25:14.50	352.78	8.69	-28.7	-31.2	12.5	1.40e-04	0	42	0	1608515584	17	4836
2026-01-12 08:25:15.52	352.68	8.62	-28.5	-30.7	12.8	8.01e-05	0	42	0	1611661312	17	4667
2026-01-12 08:25:16.53	352.57	8.56	-28.4	-30.5	12.9	5.34e-05	0	42	0	1614807040	17	4590
2026-01-12 08:25:17.53	352.46	8.49	-28.4	-30.5	12.9	5.41e-05	0	42	0	1617952768	17	4606
2026-01-12 08:25:18.54	352.35	8.43	-28.4	-30.6	12.8	6.02e-05	0	42	0	1621098496	17	4619
2026-01-12 08:25:19.55	352.25	8.37	-28.4	-30.4	13.0	3.28e-05	0	42	0	1624244224	17	4580
2026-01-12 08:25:20.55	352.14	8.30	-28.4	-30.7	12.7	5.34e-05	0	42	0	1627389952	17	4665
2026-01-12 08:25:21.56	352.04	8.24	-28.5	-30.8	12.7	9.38e-05	0	42	0	1630535680	17	4694
2026-01-12 08:25:22.56	351.93	8.18	-28.3	-30.2	13.0	3.20e-05	0	42	0	1633681408	17	4512
2026-01-12 08:25:23.56	351.83	8.11	-28.2	-30.2	13.0	3.12e-05	0	42	0	1636827136	17	4510
2026-01-12 08:25:24.56	351.73	8.05	-28.3	-30.5	12.9	4.50e-05	0	42	0	1639972864	17	4596
2026-01-12 08:25:25.58	351.62	7.99	-28.4	-30.6	12.7	7.01e-05	0	42	0	1643118592	17	4658
2026-01-12 08:25:26.58	351.52	7.92	-28.3	-30.6	12.8	5.72e-05	0	42	0	1646264320	17	4642
2026-01-12 08:25:27.58	351.42	7.86	-28.5	-30.9	12.5	7.01e-05	0	42	0	1649410048	17	4763
2026-01-12 08:25:28.58	351.32	7.80	-28.6	-31.3	12.2	1.28e-04	0	42	0	1652555776	17	4913
2026-01-12 08:25:29.59	351.21	7.73	-28.7	-31.5	12.2	2.00e-04	0	42	0	1655701504	17	4960
2026-01-12 08:25:30.59	351.11	7.67	-28.8	-31.7	12.0	3.48e-04	0	42	0	1658847232	17	5028
2026-01-12 08:25:31.60	351.01	7.61	-28.9	-32.1	11.8	4.58e-04	0	42	0	1661992960	17	5171
2026-01-12 08:25:32.61	350.91	7.54	-28.9	-32.1	11.8	5.04e-04	0	42	0	1665138688	17	5172
2026-01-12 08:25:33.61	350.81	7.48	-28.8	-31.6	12.1	3.58e-04	0	42	0	1668284416	17	4992
2026-01-12 08:25:34.62	350.71	7.42	-29.1	-31.9	11.6	4.28e-04	0	42	0	1671430144	18	4993
2026-01-12 08:25:35.62	350.62	7.36	-29.1	-31.8	11.7	7.62e-04	0	42	0	1674575872	18	4959
2026-01-12 08:25:36.63	350.52	7.29	-28.8	-31.1	12.1	3.11e-04	0	42	0	1677721600	18	4711
2026-01-12 08:25:37.63	350.42	7.23	-28.7	-30.7	12.3	1.81e-04	0	42	0	1680867328	18	4579
2026-01-12 08:25:38.62	350.32	7.17	-28.7	-30.9	12.2	1.92e-04	0	42	0	1684013056	18	4643
2026-01-12 08:25:39.63	350.23	7.11	-28.5	-30.4	12.6	1.37e-04	0	42	0	1687158784	18	4453
2026-01-12 08:25:40.64	350.13	7.05	-32.1	-44.2	3.8	1.03e-02	0	42	104	1690304512	24	14485
2026-01-12 08:25:41.65	350.03	6.98	-33.0	-45.1	3.8	1.49e+00	0	42	104	1690304512	25	14520
2026-01-12 08:25:42.64	349.94	6.92	-33.3	-45.4	3.8	1.49e+00	0	42	104	1690304512	26	14555

#Closed at: 2026-01-12 08:25:42
#Recorded file [1690 MB]: D:/data/31010_260112_111639.dat