passes_logs/2026/01/12/R2M6_AANII_01/R2M6_AANII_01__20260112_005153_NOAA_20_JPSS-1_rec.log

#Pass ID: 20260112_005153_NOAA 20 (JPSS-1)
#Satellite: NOAA 20 (JPSS-1)
#Configuration: NOAA 20
#almurnet v.1.7.20240730
#Start time: 2026-01-12 00:51:52

#Version: 2.2.20231116
#Station: R2M6_AANII_01
#Location: 30.233357 lon 59.946436 lat
#TLE: 1 43013U 17073A   26011.31235446  .00000090  00000+0  63634-4 0  9991
#TLE: 2 43013  98.7632 312.2907 0001646  44.6084 315.5224 14.19535308422217

#Time	Az	El	Level	Level2	SNR	BER	BlckErr	Temp	State	Recorded	gain1	gain2
2026-01-12 00:51:52.71	15.64	6.95	-31.5	-38.2	5.0	1.30e+00	0	39	0	0	22	7849
2026-01-12 00:51:53.71	15.62	7.02	-31.9	-40.0	4.6	1.36e+00	0	39	104	0	23	9208
2026-01-12 00:51:54.72	15.59	7.10	-31.9	-39.9	6.1	3.20e-01	0	39	0	0	23	9082
2026-01-12 00:51:55.72	15.57	7.18	-31.8	-39.2	6.6	2.39e-01	0	39	0	1048576	23	8432
2026-01-12 00:51:56.73	15.54	7.25	-31.9	-39.7	6.3	2.37e-01	0	39	0	3145728	23	8854
2026-01-12 00:51:57.73	15.52	7.33	-31.8	-39.3	6.6	2.56e-01	0	39	0	5242880	23	8462
2026-01-12 00:51:58.74	15.50	7.41	-31.7	-38.5	7.2	1.85e-01	0	39	0	7340032	23	7885
2026-01-12 00:51:59.74	15.47	7.48	-31.5	-37.6	7.9	1.04e-01	0	39	0	9437184	23	7239
2026-01-12 00:52:00.75	15.45	7.56	-31.4	-37.5	8.4	6.54e-02	0	39	0	10485760	22	7252
2026-01-12 00:52:01.76	15.42	7.64	-31.4	-37.7	8.2	5.13e-02	0	40	0	12582912	22	7431
2026-01-12 00:52:02.76	15.39	7.72	-31.5	-37.8	7.8	7.72e-02	0	39	0	14680064	23	7381
2026-01-12 00:52:03.76	15.37	7.80	-31.5	-37.6	7.9	7.09e-02	0	39	0	16777216	23	7280
2026-01-12 00:52:04.77	15.34	7.88	-31.2	-36.4	8.9	5.48e-02	0	40	0	18874368	23	6541
2026-01-12 00:52:05.78	15.32	7.96	-31.0	-36.1	9.5	2.10e-02	0	40	0	19922944	22	6436
2026-01-12 00:52:06.79	15.29	8.04	-30.7	-35.6	10.3	1.15e-02	0	40	0	22020096	21	6280
2026-01-12 00:52:07.79	15.26	8.11	-30.6	-35.2	10.5	5.06e-03	0	40	0	24117248	21	6076
2026-01-12 00:52:08.80	15.24	8.20	-30.4	-35.0	11.1	2.90e-03	0	40	0	26214400	20	6117
2026-01-12 00:52:09.80	15.21	8.27	-30.5	-34.7	10.9	4.99e-03	0	40	0	28311552	21	5856
2026-01-12 00:52:10.81	15.18	8.36	-30.7	-35.2	10.6	2.96e-03	0	40	0	29360128	21	6070
2026-01-12 00:52:11.81	15.16	8.44	-30.6	-34.8	10.9	4.24e-03	0	40	0	31457280	21	5897
2026-01-12 00:52:12.83	15.13	8.52	-30.4	-34.8	11.3	4.57e-03	0	40	0	33554432	20	5974
2026-01-12 00:52:13.83	15.10	8.60	-30.5	-34.9	11.3	1.37e-03	0	40	0	35651584	20	6020
2026-01-12 00:52:14.84	15.08	8.68	-30.3	-34.6	11.5	4.99e-03	0	40	0	37748736	20	5877
2026-01-12 00:52:15.84	15.05	8.76	-30.2	-34.3	11.7	3.49e-03	0	40	0	38797312	20	5748
2026-01-12 00:52:16.84	15.02	8.84	-30.2	-34.2	11.8	8.22e-04	0	40	0	40894464	20	5696
2026-01-12 00:52:17.85	14.99	8.92	-30.2	-34.1	11.8	3.55e-03	0	40	0	42991616	20	5666
2026-01-12 00:52:18.85	14.96	9.01	-30.4	-34.7	11.5	3.71e-03	0	40	0	45088768	20	5903
2026-01-12 00:52:19.86	14.94	9.09	-30.3	-34.5	11.6	1.32e-03	0	40	0	47185920	20	5827
2026-01-12 00:52:20.87	14.91	9.17	-30.1	-33.8	12.1	3.82e-03	0	40	0	48234496	20	5503
2026-01-12 00:52:21.87	14.88	9.26	-29.9	-33.1	12.6	3.56e-03	0	40	0	50331648	20	5240
2026-01-12 00:52:22.87	14.85	9.34	-29.9	-33.6	12.7	4.48e-04	0	40	0	52428800	19	5529
2026-01-12 00:52:23.88	14.82	9.42	-29.9	-33.6	12.7	2.93e-03	0	40	0	54525952	19	5523
2026-01-12 00:52:24.89	14.79	9.51	-30.0	-33.8	12.6	3.21e-03	0	40	0	56623104	19	5590
2026-01-12 00:52:25.89	14.76	9.59	-29.9	-33.5	12.8	7.55e-05	0	40	0	57671680	19	5472
2026-01-12 00:52:26.90	14.73	9.68	-29.8	-33.4	12.8	2.83e-03	0	40	0	59768832	19	5448
2026-01-12 00:52:27.91	14.70	9.76	-29.8	-33.4	12.9	3.09e-03	0	40	0	61865984	19	5424
2026-01-12 00:52:28.91	14.67	9.85	-29.9	-33.6	12.7	4.58e-04	0	40	0	63963136	19	5512
2026-01-12 00:52:29.91	14.64	9.93	-29.8	-33.3	12.9	2.98e-03	0	40	0	66060288	19	5398
2026-01-12 00:52:30.92	14.61	10.02	-29.9	-33.5	12.8	2.97e-03	0	40	0	67108864	19	5480
2026-01-12 00:52:31.92	14.58	10.10	-29.9	-33.7	12.7	5.00e-04	0	40	0	69206016	19	5555
2026-01-12 00:52:32.92	14.55	10.19	-29.8	-33.4	12.9	6.63e-05	0	40	0	71303168	19	5420
2026-01-12 00:52:33.92	14.52	10.27	-29.7	-33.1	13.1	2.66e-03	0	40	0	73400320	19	5314
2026-01-12 00:52:34.93	14.49	10.36	-29.6	-32.8	13.3	5.01e-04	0	40	0	74448896	19	5193
2026-01-12 00:52:35.93	14.46	10.45	-29.6	-32.7	13.4	1.52e-05	0	40	0	76546048	19	5137
2026-01-12 00:52:36.94	14.42	10.54	-29.6	-32.7	13.4	1.22e-05	0	40	0	78643200	19	5145
2026-01-12 00:52:37.93	14.39	10.62	-29.6	-32.6	13.5	4.79e-04	0	40	0	80740352	19	5108
2026-01-12 00:52:38.94	14.36	10.71	-29.6	-32.7	13.4	2.88e-03	0	40	0	82837504	19	5134
2026-01-12 00:52:39.94	14.33	10.80	-29.5	-32.5	13.5	1.44e-05	0	40	0	83886080	19	5080
2026-01-12 00:52:40.95	14.30	10.89	-29.6	-32.7	13.4	4.30e-04	0	40	0	85983232	19	5138
2026-01-12 00:52:41.96	14.26	10.98	-29.6	-32.7	13.5	2.76e-03	0	40	0	88080384	19	5125
2026-01-12 00:52:42.96	14.23	11.06	-29.5	-32.5	13.6	8.30e-06	0	40	0	90177536	19	5049
2026-01-12 00:52:43.96	14.20	11.15	-29.5	-32.4	13.6	8.30e-06	0	40	0	92274688	19	5043
2026-01-12 00:52:44.97	14.16	11.24	-29.6	-32.6	13.5	2.47e-03	0	40	0	93323264	19	5098
2026-01-12 00:52:45.97	14.13	11.33	-29.5	-32.5	13.6	1.06e-05	0	40	0	95420416	19	5055
2026-01-12 00:52:46.98	14.10	11.42	-28.6	-31.6	13.5	9.90e-06	0	40	0	97517568	19	5087
2026-01-12 00:52:47.98	14.06	11.52	-29.6	-32.6	13.3	1.37e-05	0	40	0	99614720	19	5095
2026-01-12 00:52:48.99	14.03	11.61	-29.5	-32.3	13.8	4.50e-06	0	40	0	101711872	19	4976
2026-01-12 00:52:49.99	13.99	11.70	-29.5	-32.8	13.2	4.50e-06	0	41	0	102760448	18	5280
2026-01-12 00:52:51.00	13.96	11.79	-29.5	-32.5	13.3	5.30e-06	0	40	0	104857600	19	5055
2026-01-12 00:52:52.00	13.92	11.88	-29.5	-32.4	13.7	2.41e-03	0	41	0	106954752	19	5003
2026-01-12 00:52:53.01	13.89	11.97	-29.6	-32.7	13.5	1.14e-05	0	41	0	109051904	19	5119
2026-01-12 00:52:54.02	13.85	12.07	-29.5	-32.4	13.7	7.60e-06	0	40	0	111149056	19	5018
2026-01-12 00:52:55.02	13.82	12.16	-29.6	-32.7	13.5	4.50e-06	0	41	0	112197632	19	5135
2026-01-12 00:52:56.03	13.78	12.25	-29.7	-32.8	13.5	5.80e-04	0	41	0	114294784	19	5167
2026-01-12 00:52:57.04	13.74	12.35	-29.5	-32.3	13.9	7.60e-06	0	41	0	116391936	19	4963
2026-01-12 00:52:58.04	13.71	12.44	-29.4	-32.6	14.0	3.80e-06	0	41	0	118489088	18	5190
2026-01-12 00:52:59.05	13.67	12.54	-29.5	-32.7	13.9	4.62e-04	0	41	0	120586240	18	5245
2026-01-12 00:53:00.05	13.63	12.63	-29.5	-32.5	13.7	4.61e-04	0	41	0	121634816	19	5035
2026-01-12 00:53:01.06	13.59	12.73	-29.6	-32.6	13.6	4.50e-06	0	41	0	123731968	19	5082
2026-01-12 00:53:02.06	13.56	12.82	-29.7	-32.7	13.6	1.60e-05	0	41	0	125829120	19	5135
2026-01-12 00:53:03.06	13.52	12.92	-29.7	-32.9	13.5	4.60e-04	0	41	0	127926272	19	5198
2026-01-12 00:53:04.07	13.48	13.01	-29.6	-32.6	13.6	9.90e-06	0	41	0	130023424	19	5090
2026-01-12 00:53:05.08	13.44	13.11	-29.4	-32.5	14.1	2.20e-06	0	41	0	131072000	18	5153
2026-01-12 00:53:06.08	13.40	13.21	-29.4	-32.6	13.9	3.90e-04	0	41	0	133169152	18	5209
2026-01-12 00:53:07.09	13.36	13.31	-29.4	-32.6	14.0	3.80e-06	0	41	0	135266304	18	5177
2026-01-12 00:53:08.09	13.32	13.40	-29.2	-32.1	14.3	7.00e-07	0	41	0	137363456	18	5003
2026-01-12 00:53:09.09	13.28	13.50	-29.2	-32.1	14.4	3.81e-04	0	41	0	139460608	18	4997
2026-01-12 00:53:10.10	13.24	13.60	-29.1	-31.9	14.5	7.00e-07	0	41	0	140509184	18	4934
2026-01-12 00:53:11.11	13.20	13.70	-28.3	-31.2	14.3	2.20e-06	0	41	0	142606336	18	5014
2026-01-12 00:53:12.11	13.16	13.80	-29.1	-31.8	14.5	0.00e+00	0	41	0	144703488	18	4901
2026-01-12 00:53:13.12	13.12	13.90	-29.2	-31.9	14.5	2.20e-06	0	41	0	146800640	18	4950
2026-01-12 00:53:14.12	13.08	14.00	-29.2	-32.1	14.3	4.80e-04	0	41	0	148897792	18	5006
2026-01-12 00:53:15.13	13.04	14.10	-29.1	-31.9	14.5	7.00e-07	0	41	0	149946368	18	4923
2026-01-12 00:53:16.13	13.00	14.20	-29.2	-31.9	14.5	3.26e-04	0	41	0	152043520	18	4942
2026-01-12 00:53:17.13	12.96	14.30	-29.1	-31.8	14.6	3.76e-04	0	41	0	154140672	18	4898
2026-01-12 00:53:18.14	12.91	14.40	-29.1	-31.9	14.6	3.84e-04	0	41	0	156237824	18	4922
2026-01-12 00:53:19.14	12.87	14.51	-29.3	-32.2	14.3	3.62e-04	0	41	0	158334976	18	5038
2026-01-12 00:53:20.14	12.83	14.61	-29.2	-32.0	14.5	3.33e-04	0	41	0	159383552	18	4959
2026-01-12 00:53:21.15	12.78	14.71	-29.2	-32.0	14.5	3.60e-04	0	41	0	161480704	18	4962
2026-01-12 00:53:22.15	12.74	14.81	-29.2	-32.0	14.5	7.00e-07	0	41	0	163577856	18	4964
2026-01-12 00:53:23.16	12.70	14.92	-29.1	-31.8	14.7	3.16e-03	0	41	0	165675008	18	4878
2026-01-12 00:53:24.16	12.65	15.02	-29.2	-31.9	14.6	3.72e-04	0	41	0	166723584	18	4917
2026-01-12 00:53:25.16	12.61	15.13	-29.3	-32.2	14.4	0.00e+00	0	41	0	168820736	18	5020
2026-01-12 00:53:26.17	12.56	15.23	-29.1	-31.8	14.6	3.04e-03	0	41	0	170917888	18	4887
2026-01-12 00:53:27.17	12.52	15.34	-29.2	-32.0	14.6	2.87e-03	0	41	0	173015040	18	4943
2026-01-12 00:53:28.18	12.47	15.44	-29.1	-31.7	14.7	7.00e-07	0	41	0	175112192	18	4872
2026-01-12 00:53:29.18	12.43	15.55	-29.2	-32.0	14.5	2.42e-03	0	41	0	176160768	18	4972
2026-01-12 00:53:30.18	12.38	15.66	-29.2	-31.9	14.6	2.99e-03	0	41	0	178257920	18	4927
2026-01-12 00:53:31.19	12.33	15.76	-29.2	-32.0	14.5	7.00e-07	0	41	0	180355072	18	4961
2026-01-12 00:53:32.19	12.29	15.87	-29.3	-32.3	14.3	4.20e-04	0	41	0	182452224	18	5066
2026-01-12 00:53:33.19	12.24	15.98	-29.2	-32.0	14.5	2.97e-03	0	41	0	184549376	18	4956
2026-01-12 00:53:34.20	12.19	16.09	-29.1	-31.7	14.8	3.29e-04	0	41	0	185597952	18	4838
2026-01-12 00:53:35.20	12.14	16.20	-29.1	-31.6	14.8	3.30e-04	0	41	0	187695104	18	4832
2026-01-12 00:53:36.21	12.09	16.31	-29.0	-31.6	14.8	2.29e-03	0	41	0	189792256	18	4805
2026-01-12 00:53:37.21	12.04	16.42	-29.1	-31.7	14.7	2.92e-04	0	41	0	191889408	18	4862
2026-01-12 00:53:38.22	11.99	16.53	-29.0	-31.5	14.8	3.29e-04	0	41	0	193986560	18	4805
2026-01-12 00:53:39.23	11.94	16.64	-29.1	-31.7	14.8	2.52e-03	0	41	0	195035136	18	4858
2026-01-12 00:53:40.23	11.89	16.75	-29.2	-31.9	14.6	2.59e-04	0	41	0	197132288	18	4935
2026-01-12 00:53:41.24	11.84	16.86	-29.1	-31.6	14.8	2.87e-03	0	41	0	199229440	18	4825
2026-01-12 00:53:42.25	11.79	16.98	-29.0	-31.9	14.9	2.13e-04	0	41	0	201326592	17	5027
2026-01-12 00:53:43.26	11.74	17.09	-28.9	-31.8	15.0	2.55e-04	0	41	0	203423744	17	5000
2026-01-12 00:53:44.26	11.69	17.20	-28.9	-31.8	15.0	2.66e-03	0	41	0	204472320	17	4985
2026-01-12 00:53:45.26	11.64	17.32	-29.1	-31.6	14.8	2.43e-03	0	41	0	206569472	18	4838
2026-01-12 00:53:46.27	11.58	17.43	-29.1	-31.8	14.7	2.02e-04	0	41	0	208666624	18	4872
2026-01-12 00:53:47.27	11.53	17.55	-28.9	-31.3	15.0	2.25e-03	0	41	0	210763776	18	4718
2026-01-12 00:53:48.28	11.48	17.66	-28.9	-31.6	15.1	2.81e-03	0	41	0	212860928	17	4947
2026-01-12 00:53:49.29	11.42	17.78	-28.9	-31.8	15.0	2.20e-04	0	41	0	213909504	17	4982
2026-01-12 00:53:50.29	11.37	17.89	-28.9	-31.6	15.1	2.42e-03	0	41	0	216006656	17	4937
2026-01-12 00:53:51.30	11.31	18.01	-29.0	-31.8	15.0	2.46e-03	0	41	0	218103808	17	4999
2026-01-12 00:53:52.30	11.26	18.13	-29.0	-31.6	14.9	2.44e-04	0	41	0	220200960	18	4819
2026-01-12 00:53:53.31	11.20	18.25	-29.0	-31.8	15.0	2.45e-03	0	41	0	222298112	17	4991
2026-01-12 00:53:54.31	11.14	18.37	-29.2	-31.8	14.7	2.21e-03	0	41	0	223346688	18	4896
2026-01-12 00:53:55.32	11.09	18.49	-29.1	-31.7	14.8	1.81e-04	0	41	0	225443840	18	4852
2026-01-12 00:53:56.32	11.03	18.60	-29.0	-31.4	15.0	1.60e-05	0	41	0	227540992	18	4756
2026-01-12 00:53:57.32	10.97	18.72	-28.9	-31.8	15.1	2.53e-03	0	41	0	229638144	17	4985
2026-01-12 00:53:58.33	10.91	18.85	-29.1	-31.6	14.9	1.90e-04	0	41	0	231735296	18	4824
2026-01-12 00:53:59.33	10.86	18.97	-29.1	-31.7	14.8	7.00e-07	0	41	0	232783872	18	4850
2026-01-12 00:54:00.33	10.80	19.09	-28.9	-31.2	15.1	2.37e-03	0	41	0	234881024	18	4679
2026-01-12 00:54:01.34	10.74	19.21	-28.9	-31.3	15.1	1.86e-04	0	41	0	236978176	18	4697
2026-01-12 00:54:02.34	10.68	19.33	-29.0	-31.4	15.0	2.43e-03	0	41	0	239075328	18	4754
2026-01-12 00:54:03.35	10.62	19.46	-28.9	-31.6	15.2	0.00e+00	0	41	0	241172480	17	4930
2026-01-12 00:54:04.36	10.55	19.58	-29.5	-32.6	14.3	2.23e-04	0	41	0	242221056	18	5178
2026-01-12 00:54:05.36	10.49	19.71	-29.4	-32.0	14.3	2.29e-03	0	41	0	244318208	19	4835
2026-01-12 00:54:06.37	10.43	19.83	-29.3	-32.2	14.5	7.00e-07	0	41	0	246415360	18	5010
2026-01-12 00:54:07.38	10.37	19.96	-29.3	-32.2	14.5	7.00e-07	0	41	0	248512512	18	5000
2026-01-12 00:54:08.39	10.30	20.09	-29.0	-31.4	15.0	2.54e-03	0	41	0	250609664	18	4754
2026-01-12 00:54:09.39	10.24	20.22	-29.0	-31.9	15.0	5.30e-06	0	41	0	251658240	17	5021
2026-01-12 00:54:10.39	10.17	20.34	-29.1	-31.7	14.9	0.00e+00	0	41	0	253755392	18	4851
2026-01-12 00:54:11.40	10.11	20.47	-29.1	-31.6	14.9	2.37e-03	0	41	0	255852544	18	4814
2026-01-12 00:54:12.41	10.04	20.60	-29.1	-31.8	14.9	2.19e-03	0	41	0	257949696	18	4858
2026-01-12 00:54:13.41	9.98	20.73	-29.3	-32.1	14.7	0.00e+00	0	41	0	260046848	18	4967
2026-01-12 00:54:14.42	9.91	20.86	-29.3	-32.1	14.6	7.00e-07	0	41	0	261095424	18	4977
2026-01-12 00:54:15.42	9.84	20.99	-29.3	-32.1	14.7	2.46e-03	0	41	0	263192576	18	4972
2026-01-12 00:54:16.43	9.77	21.13	-29.2	-31.9	14.7	7.00e-07	0	41	0	265289728	18	4902
2026-01-12 00:54:17.44	9.70	21.26	-29.1	-31.6	15.0	1.50e-06	0	41	0	267386880	18	4793
2026-01-12 00:54:18.43	9.64	21.39	-29.0	-31.3	15.1	0.00e+00	0	41	0	269484032	18	4713
2026-01-12 00:54:19.44	9.57	21.52	-29.0	-31.3	15.2	2.11e-04	0	41	0	270532608	18	4708
2026-01-12 00:54:20.44	9.49	21.66	-29.0	-31.8	15.2	0.00e+00	0	41	0	272629760	17	4972
2026-01-12 00:54:21.44	9.42	21.79	-29.0	-31.7	15.2	0.00e+00	0	41	0	274726912	17	4967
2026-01-12 00:54:22.45	9.35	21.93	-29.1	-31.6	15.0	1.03e-04	0	41	0	276824064	18	4782
2026-01-12 00:54:23.46	9.28	22.07	-29.1	-31.6	15.0	3.29e-04	0	41	0	278921216	18	4813
2026-01-12 00:54:24.47	9.20	22.20	-28.9	-31.0	15.3	0.00e+00	0	41	0	279969792	18	4622
2026-01-12 00:54:25.48	9.13	22.34	-28.8	-31.3	15.4	0.00e+00	0	41	0	282066944	17	4817
2026-01-12 00:54:26.49	9.05	22.48	-28.8	-31.3	15.4	2.92e-04	0	41	0	284164096	17	4813
2026-01-12 00:54:27.50	8.98	22.62	-28.9	-31.6	15.3	0.00e+00	0	41	0	286261248	17	4900
2026-01-12 00:54:28.50	8.90	22.76	-28.9	-31.6	15.3	0.00e+00	0	41	0	288358400	17	4917
2026-01-12 00:54:29.51	8.83	22.90	-28.9	-31.6	15.3	1.88e-04	0	41	0	289406976	17	4909
2026-01-12 00:54:30.51	8.75	23.04	-29.1	-31.6	15.1	0.00e+00	0	41	0	291504128	18	4785
2026-01-12 00:54:31.52	8.67	23.18	-29.2	-31.8	14.9	7.00e-07	0	42	0	293601280	18	4854
2026-01-12 00:54:32.53	8.59	23.33	-29.0	-31.3	15.2	1.58e-04	0	41	0	295698432	18	4697
2026-01-12 00:54:33.54	8.51	23.47	-29.1	-31.5	15.1	0.00e+00	0	41	0	297795584	18	4760
2026-01-12 00:54:34.54	8.43	23.62	-29.2	-31.9	14.8	1.78e-04	0	41	0	298844160	18	4904
2026-01-12 00:54:35.55	8.35	23.76	-29.3	-32.1	14.8	7.00e-07	0	41	0	300941312	18	4962
2026-01-12 00:54:36.56	8.26	23.91	-29.3	-32.1	14.8	0.00e+00	0	41	0	303038464	18	4974
2026-01-12 00:54:37.56	8.18	24.05	-29.3	-32.1	14.7	1.62e-04	0	41	0	305135616	18	4976
2026-01-12 00:54:38.57	8.10	24.20	-29.3	-32.2	14.7	0.00e+00	0	41	0	307232768	18	5000
2026-01-12 00:54:39.58	8.01	24.35	-29.4	-32.4	14.6	0.00e+00	0	41	0	308281344	18	5082
2026-01-12 00:54:40.58	7.93	24.50	-29.4	-32.3	14.6	9.91e-05	0	41	0	310378496	18	5051
2026-01-12 00:54:41.58	7.84	24.65	-29.5	-32.1	14.5	2.20e-06	0	41	0	312475648	19	4855
2026-01-12 00:54:42.58	7.75	24.80	-29.6	-32.2	14.4	1.50e-06	0	41	0	314572800	19	4892
2026-01-12 00:54:43.58	7.67	24.95	-29.5	-32.0	14.5	3.00e-06	0	42	0	316669952	19	4832
2026-01-12 00:54:44.59	7.58	25.10	-29.5	-32.1	14.5	0.00e+00	0	41	0	317718528	19	4853
2026-01-12 00:54:45.59	7.49	25.25	-29.6	-32.2	14.4	7.00e-07	0	41	0	319815680	19	4895
2026-01-12 00:54:46.60	7.40	25.41	-29.7	-32.5	14.3	2.23e-03	0	41	0	321912832	19	4975
2026-01-12 00:54:47.61	7.30	25.56	-29.7	-32.5	14.3	1.98e-05	0	42	0	324009984	19	4978
2026-01-12 00:54:48.61	7.21	25.72	-29.7	-32.6	14.2	7.00e-07	0	41	0	325058560	19	5028
2026-01-12 00:54:49.61	7.12	25.87	-29.8	-32.8	14.0	2.07e-03	0	41	0	327155712	19	5102
2026-01-12 00:54:50.62	7.02	26.03	-29.9	-33.0	13.9	1.11e-04	0	41	0	329252864	19	5177
2026-01-12 00:54:51.63	6.93	26.19	-29.9	-33.2	13.8	2.20e-06	0	42	0	331350016	19	5232
2026-01-12 00:54:52.64	6.83	26.35	-29.9	-32.8	13.7	1.99e-03	0	41	0	333447168	20	4997
2026-01-12 00:54:53.64	6.73	26.51	-30.2	-33.4	13.3	2.06e-03	0	41	0	334495744	20	5218
2026-01-12 00:54:54.65	6.63	26.67	-30.2	-33.5	13.3	2.74e-05	0	41	0	336592896	20	5252
2026-01-12 00:54:55.65	6.53	26.83	-30.2	-33.4	13.3	8.08e-05	0	42	0	338690048	20	5205
2026-01-12 00:54:56.65	6.43	26.99	-30.2	-33.6	13.2	2.10e-03	0	41	0	340787200	20	5281
2026-01-12 00:54:57.65	6.33	27.15	-30.4	-33.9	13.0	2.67e-05	0	41	0	342884352	20	5411
2026-01-12 00:54:58.66	6.23	27.31	-30.5	-33.8	12.8	1.88e-04	0	42	0	343932928	21	5247
2026-01-12 00:54:59.66	6.13	27.48	-30.7	-34.3	12.4	2.51e-03	0	41	0	346030080	21	5454
2026-01-12 00:55:00.67	6.02	27.64	-30.8	-34.6	12.2	1.79e-04	0	41	0	348127232	21	5587
2026-01-12 00:55:01.67	5.91	27.81	-30.9	-34.9	12.0	4.68e-04	0	42	0	350224384	21	5721
2026-01-12 00:55:02.67	5.81	27.98	-30.8	-34.8	12.1	2.78e-03	0	42	0	352321536	21	5674
2026-01-12 00:55:03.68	5.70	28.14	-30.8	-34.6	12.3	2.55e-04	0	41	0	353370112	21	5588
2026-01-12 00:55:04.69	5.59	28.31	-30.8	-34.6	12.2	2.97e-03	0	42	0	355467264	21	5596
2026-01-12 00:55:05.69	5.48	28.48	-30.7	-34.4	12.4	4.97e-04	0	42	0	357564416	21	5496
2026-01-12 00:55:06.70	5.37	28.66	-30.8	-34.5	12.3	1.79e-04	0	42	0	359661568	21	5529
2026-01-12 00:55:07.71	5.25	28.83	-30.9	-34.9	12.0	2.52e-03	0	42	0	361758720	21	5736
2026-01-12 00:55:08.71	5.14	29.00	-31.0	-34.7	11.8	3.19e-03	0	42	0	362807296	22	5506
2026-01-12 00:55:09.72	5.02	29.17	-31.1	-34.9	11.6	5.36e-04	0	42	0	364904448	22	5625
2026-01-12 00:55:10.72	4.90	29.35	-31.1	-34.9	11.6	3.35e-03	0	41	0	367001600	22	5617
2026-01-12 00:55:11.73	4.78	29.52	-31.2	-35.3	11.4	3.53e-03	0	41	0	369098752	22	5798
2026-01-12 00:55:12.74	4.66	29.70	-31.2	-35.4	11.4	1.15e-03	0	41	0	371195904	22	5813
2026-01-12 00:55:13.75	4.54	29.88	-31.2	-35.4	11.4	3.56e-03	0	42	0	372244480	22	5833
2026-01-12 00:55:14.75	4.42	30.06	-31.3	-35.5	11.3	3.34e-03	0	41	0	374341632	22	5888
2026-01-12 00:55:15.76	4.30	30.24	-31.2	-35.3	11.4	1.35e-03	0	41	0	376438784	22	5776
2026-01-12 00:55:16.77	4.17	30.42	-31.1	-34.9	11.7	3.09e-03	0	42	0	378535936	22	5618
2026-01-12 00:55:17.77	4.04	30.60	-31.1	-35.1	11.5	3.38e-03	0	41	0	380633088	22	5704
2026-01-12 00:55:18.78	3.91	30.78	-31.0	-34.8	11.8	7.16e-04	0	41	0	381681664	22	5574
2026-01-12 00:55:19.78	3.78	30.97	-31.0	-34.9	11.8	3.11e-03	0	41	0	383778816	22	5580
2026-01-12 00:55:20.79	3.65	31.15	-31.1	-35.0	11.7	3.10e-03	0	42	0	385875968	22	5643
2026-01-12 00:55:21.80	3.52	31.34	-31.2	-35.2	11.5	7.24e-04	0	42	0	387973120	22	5752
2026-01-12 00:55:22.80	3.38	31.52	-31.2	-35.4	11.3	1.06e-03	0	41	0	390070272	22	5826
2026-01-12 00:55:23.81	3.25	31.71	-31.4	-35.8	11.1	3.93e-03	0	42	0	391118848	22	6020
2026-01-12 00:55:24.81	3.11	31.90	-31.4	-36.0	11.0	1.87e-03	0	41	0	393216000	22	6084
2026-01-12 00:55:25.82	2.97	32.09	-31.4	-35.9	11.0	1.78e-03	0	41	0	395313152	22	6067
2026-01-12 00:55:26.82	2.83	32.28	-31.4	-36.0	11.0	1.77e-03	0	42	0	397410304	22	6108
2026-01-12 00:55:27.83	2.69	32.47	-31.5	-35.9	10.7	2.37e-03	0	42	0	399507456	23	5944
2026-01-12 00:55:28.84	2.54	32.66	-31.6	-36.3	10.4	6.07e-03	0	42	0	400556032	23	6129
2026-01-12 00:55:29.85	2.39	32.86	-31.4	-35.5	10.9	2.63e-03	0	42	0	402653184	23	5782
2026-01-12 00:55:30.85	2.25	33.05	-31.3	-35.2	11.2	1.73e-03	0	41	0	404750336	23	5606
2026-01-12 00:55:31.86	2.10	33.25	-31.3	-35.7	11.2	3.86e-03	0	41	0	406847488	22	5928
2026-01-12 00:55:32.86	1.94	33.44	-31.4	-35.9	11.1	1.63e-03	0	42	0	408944640	22	6041
2026-01-12 00:55:33.87	1.79	33.64	-31.4	-36.0	11.0	1.93e-03	0	42	0	409993216	22	6101
2026-01-12 00:55:34.88	1.63	33.84	-31.7	-36.2	10.4	5.01e-03	0	42	0	412090368	23	6106
2026-01-12 00:55:35.88	1.48	34.04	-31.5	-35.9	10.7	3.42e-03	0	42	0	414187520	23	5921
2026-01-12 00:55:36.88	1.32	34.24	-31.4	-35.3	11.1	2.03e-03	0	42	0	416284672	23	5680
2026-01-12 00:55:37.89	1.15	34.44	-31.4	-35.8	11.2	1.68e-03	0	42	0	418381824	22	5996
2026-01-12 00:55:38.90	0.99	34.65	-31.4	-35.8	11.2	4.11e-03	0	41	0	419430400	22	5978
2026-01-12 00:55:39.90	0.83	34.85	-31.5	-35.7	10.9	2.28e-03	0	41	0	421527552	23	5833
2026-01-12 00:55:40.91	0.66	35.05	-31.5	-35.9	10.7	2.55e-03	0	42	0	423624704	23	5965
2026-01-12 00:55:41.91	0.49	35.26	-31.5	-35.8	10.8	5.53e-03	0	41	0	425721856	23	5871
2026-01-12 00:55:42.92	0.31	35.47	-31.4	-35.5	11.0	2.39e-03	0	42	0	427819008	23	5749
2026-01-12 00:55:43.93	0.14	35.68	-31.5	-36.1	11.0	2.01e-03	0	41	0	428867584	22	6130
2026-01-12 00:55:44.93	359.96	35.88	-31.4	-35.9	11.1	1.43e-03	0	42	0	430964736	22	6040
2026-01-12 00:55:45.94	359.78	36.10	-31.3	-35.5	11.3	1.12e-03	0	42	0	433061888	22	5882
2026-01-12 00:55:46.94	359.60	36.31	-31.3	-35.6	11.3	1.29e-03	0	42	0	435159040	22	5913
2026-01-12 00:55:47.95	359.42	36.52	-31.3	-35.5	11.4	1.10e-03	0	42	0	437256192	22	5841
2026-01-12 00:55:48.96	359.23	36.73	-31.1	-34.9	11.7	7.91e-04	0	42	0	438304768	22	5591
2026-01-12 00:55:49.97	359.04	36.95	-30.9	-34.4	12.1	4.87e-04	0	42	0	440401920	22	5391
2026-01-12 00:55:50.97	358.85	37.16	-31.0	-35.0	12.1	2.40e-04	0	42	0	442499072	21	5755
2026-01-12 00:55:51.98	358.65	37.38	-30.8	-34.4	12.5	1.91e-04	0	41	0	444596224	21	5484
2026-01-12 00:55:52.98	358.46	37.60	-30.6	-34.1	12.7	1.45e-04	0	42	0	446693376	21	5353
2026-01-12 00:55:53.98	358.26	37.81	-30.7	-34.3	12.6	7.85e-05	0	42	0	447741952	21	5421
2026-01-12 00:55:54.98	358.06	38.03	-30.8	-34.4	12.5	1.60e-04	0	41	0	449839104	21	5479
2026-01-12 00:55:55.98	357.85	38.25	-30.8	-34.6	12.3	1.79e-04	0	42	0	451936256	21	5577
2026-01-12 00:55:56.99	357.64	38.47	-30.9	-34.9	12.1	1.36e-04	0	42	0	454033408	21	5712
2026-01-12 00:55:58.00	357.43	38.70	-30.7	-34.2	12.6	2.24e-04	0	42	0	456130560	21	5399
2026-01-12 00:55:59.00	357.22	38.92	-30.6	-34.1	12.7	9.30e-05	0	42	0	457179136	21	5360
2026-01-12 00:56:00.01	357.00	39.15	-30.7	-34.3	12.6	8.23e-05	0	42	0	459276288	21	5421
2026-01-12 00:56:01.01	356.78	39.37	-30.7	-34.2	12.6	7.32e-05	0	41	0	461373440	21	5396
2026-01-12 00:56:02.02	356.56	39.60	-30.7	-34.3	12.5	9.07e-05	0	41	0	463470592	21	5458
2026-01-12 00:56:03.03	356.33	39.83	-30.8	-34.7	12.3	9.84e-05	0	42	0	465567744	21	5600
2026-01-12 00:56:04.03	356.10	40.05	-30.9	-34.9	12.2	1.84e-04	0	42	0	466616320	21	5672
2026-01-12 00:56:05.04	355.87	40.28	-30.8	-34.5	12.5	1.71e-04	0	42	0	468713472	21	5512
2026-01-12 00:56:06.03	355.64	40.51	-30.9	-34.8	12.2	3.76e-04	0	42	0	470810624	21	5644
2026-01-12 00:56:07.03	355.40	40.74	-31.0	-35.0	12.1	2.78e-04	0	42	0	472907776	21	5754
2026-01-12 00:56:08.04	355.15	40.97	-30.9	-35.0	12.1	2.30e-04	0	42	0	475004928	21	5718
2026-01-12 00:56:09.05	354.90	41.21	-31.0	-34.7	12.1	3.21e-04	0	42	0	476053504	22	5472
2026-01-12 00:56:10.05	354.66	41.44	-31.1	-34.8	11.9	2.38e-03	0	42	0	478150656	22	5541
2026-01-12 00:56:11.06	354.40	41.68	-31.0	-35.0	12.1	3.58e-04	0	42	0	480247808	21	5739
2026-01-12 00:56:12.06	354.14	41.91	-31.1	-34.8	11.9	3.54e-04	0	42	0	482344960	22	5540
2026-01-12 00:56:13.07	353.88	42.15	-31.2	-35.1	11.7	2.65e-03	0	42	0	484442112	22	5651
2026-01-12 00:56:14.07	353.62	42.39	-31.1	-34.8	12.0	3.68e-04	0	42	0	485490688	22	5512
2026-01-12 00:56:15.07	353.35	42.62	-31.0	-35.0	12.1	2.37e-04	0	42	0	487587840	21	5737
2026-01-12 00:56:16.08	353.07	42.86	-31.0	-35.0	12.1	2.52e-03	0	42	0	489684992	21	5736
2026-01-12 00:56:17.08	352.80	43.10	-30.8	-34.5	12.5	2.24e-03	0	42	0	491782144	21	5500
2026-01-12 00:56:18.09	352.51	43.34	-30.7	-34.2	12.7	1.06e-04	0	42	0	493879296	21	5399
2026-01-12 00:56:19.09	352.23	43.58	-30.7	-34.2	12.6	7.24e-05	0	42	0	494927872	21	5399
2026-01-12 00:56:20.10	351.94	43.83	-30.8	-34.4	12.6	2.27e-03	0	42	0	497025024	21	5468
2026-01-12 00:56:21.11	351.64	44.07	-30.6	-34.0	12.9	1.49e-04	0	42	0	499122176	21	5297
2026-01-12 00:56:22.11	351.34	44.31	-30.7	-34.2	12.7	4.73e-05	0	42	0	501219328	21	5384
2026-01-12 00:56:23.12	351.04	44.56	-30.9	-34.7	12.4	2.46e-03	0	42	0	503316480	21	5593
2026-01-12 00:56:24.13	350.72	44.80	-30.7	-34.1	12.8	1.07e-04	0	42	0	504365056	21	5365
2026-01-12 00:56:25.14	350.41	45.05	-30.6	-33.9	12.9	6.10e-05	0	42	0	506462208	21	5257
2026-01-12 00:56:26.14	350.09	45.29	-30.5	-33.7	13.1	2.16e-03	0	42	0	508559360	21	5211
2026-01-12 00:56:27.14	349.77	45.54	-30.4	-33.4	13.3	1.62e-04	0	42	0	510656512	21	5062
2026-01-12 00:56:28.15	349.44	45.79	-30.3	-33.7	13.4	2.09e-03	0	42	0	511705088	20	5282
2026-01-12 00:56:29.16	349.10	46.04	-30.6	-33.9	12.9	2.41e-03	0	42	0	513802240	21	5279
2026-01-12 00:56:30.17	348.76	46.28	-30.6	-34.0	12.9	1.55e-04	0	42	0	515899392	21	5301
2026-01-12 00:56:31.17	348.42	46.53	-30.6	-34.0	12.8	1.86e-03	0	42	0	517996544	21	5309
2026-01-12 00:56:32.18	348.06	46.78	-30.7	-34.1	12.8	9.78e-04	0	42	0	520093696	21	5345
2026-01-12 00:56:33.18	347.71	47.03	-30.7	-34.2	12.7	5.49e-05	0	42	0	522190848	21	5391
2026-01-12 00:56:34.19	347.34	47.28	-30.9	-34.7	12.3	1.09e-03	0	42	0	523239424	21	5597
2026-01-12 00:56:35.19	346.98	47.52	-30.9	-34.7	12.4	1.51e-03	0	42	0	525336576	21	5577
2026-01-12 00:56:36.20	346.60	47.77	-30.9	-34.7	12.4	1.30e-04	0	42	0	527433728	21	5590
2026-01-12 00:56:37.21	346.22	48.03	-30.8	-34.6	12.4	2.00e-03	0	42	0	529530880	21	5545
2026-01-12 00:56:38.22	345.83	48.28	-31.0	-34.6	12.2	2.49e-03	0	42	0	531628032	22	5424
2026-01-12 00:56:39.23	345.44	48.53	-30.8	-33.9	12.6	9.91e-05	0	42	0	532676608	22	5157
2026-01-12 00:56:40.23	345.04	48.77	-30.7	-34.3	12.6	2.44e-03	0	42	0	534773760	21	5419
2026-01-12 00:56:41.24	344.63	49.02	-30.5	-33.5	13.2	2.31e-03	0	42	0	536870912	21	5122
2026-01-12 00:56:42.25	344.21	49.27	-30.5	-33.6	13.2	2.05e-05	0	42	0	538968064	21	5135
2026-01-12 00:56:43.25	343.80	49.52	-30.6	-33.8	13.1	1.90e-05	0	42	0	540016640	21	5216
2026-01-12 00:56:44.25	343.37	49.77	-30.6	-34.0	13.0	2.17e-03	0	42	0	542113792	21	5295
2026-01-12 00:56:45.25	342.94	50.01	-30.6	-34.0	12.9	4.42e-05	0	42	0	544210944	21	5302
2026-01-12 00:56:46.25	342.50	50.26	-30.6	-33.8	13.0	3.20e-05	0	42	0	546308096	21	5211
2026-01-12 00:56:47.25	342.06	50.51	-30.4	-33.9	13.3	2.38e-03	0	41	0	548405248	20	5377
2026-01-12 00:56:48.26	341.60	50.75	-30.5	-33.8	13.1	2.97e-05	0	42	0	550502400	21	5209
2026-01-12 00:56:49.27	341.13	51.00	-30.6	-33.8	13.0	3.12e-05	0	42	0	551550976	21	5230
2026-01-12 00:56:50.27	340.67	51.24	-30.4	-33.4	13.3	3.89e-05	0	42	0	553648128	21	5060
2026-01-12 00:56:51.28	340.18	51.49	-29.8	-31.8	14.3	4.50e-06	0	42	0	555745280	21	4530
2026-01-12 00:56:52.28	339.70	51.73	-29.4	-31.7	15.1	1.31e-03	0	42	0	557842432	19	4697
2026-01-12 00:56:53.29	339.20	51.97	-29.0	-31.1	15.8	0.00e+00	0	42	0	558891008	18	4586
2026-01-12 00:56:54.29	338.70	52.21	-28.7	-30.4	16.2	0.00e+00	0	42	0	560988160	18	4372
2026-01-12 00:56:55.30	338.19	52.46	-28.6	-30.6	16.3	1.13e-03	0	42	0	563085312	17	4554
2026-01-12 00:56:56.30	337.67	52.69	-28.8	-31.3	15.9	0.00e+00	0	42	0	565182464	17	4771
2026-01-12 00:56:57.31	337.14	52.93	-29.1	-31.4	15.6	0.00e+00	0	42	0	567279616	18	4701
2026-01-12 00:56:58.31	336.61	53.17	-28.9	-31.0	15.8	6.58e-04	0	42	0	568328192	18	4583
2026-01-12 00:56:59.32	336.06	53.40	-28.8	-31.2	15.9	0.00e+00	0	42	0	570425344	17	4759
2026-01-12 00:57:00.33	335.50	53.64	-28.8	-31.2	16.0	0.00e+00	0	42	0	572522496	17	4747
2026-01-12 00:57:01.34	334.94	53.87	-28.9	-31.4	15.8	0.00e+00	0	42	0	574619648	17	4821
2026-01-12 00:57:02.34	334.37	54.10	-28.9	-31.0	15.8	1.17e-03	0	42	0	576716800	18	4578
2026-01-12 00:57:03.35	333.78	54.33	-28.8	-30.7	16.0	0.00e+00	0	42	0	577765376	18	4477
2026-01-12 00:57:04.36	333.19	54.55	-28.8	-31.1	16.0	0.00e+00	0	41	0	579862528	17	4700
2026-01-12 00:57:05.36	332.59	54.77	-28.7	-31.0	16.1	0.00e+00	0	42	0	581959680	17	4669
2026-01-12 00:57:06.37	331.98	55.00	-29.1	-31.3	15.7	0.00e+00	0	42	0	584056832	18	4666
2026-01-12 00:57:07.38	331.36	55.22	-29.4	-32.3	15.1	0.00e+00	0	42	0	586153984	18	4983
2026-01-12 00:57:08.39	330.72	55.43	-29.6	-32.2	14.9	0.00e+00	0	42	0	587202560	19	4838
2026-01-12 00:57:09.40	330.08	55.65	-29.8	-32.7	14.5	0.00e+00	0	42	0	589299712	19	5028
2026-01-12 00:57:10.40	329.44	55.86	-30.3	-33.6	13.5	6.10e-06	0	42	0	591396864	20	5249
2026-01-12 00:57:11.41	328.77	56.07	-30.5	-33.7	13.1	1.67e-05	0	42	0	593494016	21	5185
2026-01-12 00:57:12.42	328.10	56.27	-30.5	-33.7	13.1	2.59e-05	0	42	0	595591168	21	5183
2026-01-12 00:57:13.42	327.43	56.47	-30.7	-34.1	12.9	5.79e-05	0	42	0	596639744	21	5341
2026-01-12 00:57:14.43	326.73	56.67	-30.7	-34.3	12.7	5.79e-05	0	42	0	598736896	21	5421
2026-01-12 00:57:15.44	326.03	56.87	-31.0	-34.9	12.3	1.13e-04	0	42	0	600834048	21	5674
2026-01-12 00:57:16.44	325.33	57.06	-30.9	-34.8	12.4	1.17e-04	0	42	0	602931200	21	5648
2026-01-12 00:57:17.45	324.60	57.25	-31.2	-35.1	11.9	2.18e-04	0	42	0	605028352	22	5653
2026-01-12 00:57:18.45	323.88	57.43	-31.4	-35.9	11.3	9.88e-04	0	42	0	606076928	22	5998
2026-01-12 00:57:19.46	323.14	57.61	-31.6	-35.7	11.0	1.13e-03	0	42	0	608174080	23	5825
2026-01-12 00:57:20.46	322.39	57.79	-31.6	-35.9	11.0	2.45e-03	0	42	0	610271232	23	5879
2026-01-12 00:57:21.46	321.64	57.96	-31.5	-35.6	11.1	1.00e-03	0	41	0	612368384	23	5740
2026-01-12 00:57:22.47	320.87	58.13	-31.5	-35.9	11.3	1.89e-03	0	42	0	614465536	22	5995
2026-01-12 00:57:23.48	320.09	58.29	-31.1	-34.9	12.0	2.53e-04	0	42	0	615514112	22	5562
2026-01-12 00:57:24.48	319.30	58.45	-30.8	-34.4	12.7	1.11e-04	0	42	0	617611264	21	5438
2026-01-12 00:57:25.49	318.50	58.61	-30.7	-34.2	12.8	8.31e-05	0	42	0	619708416	21	5382
2026-01-12 00:57:26.49	317.70	58.75	-30.8	-34.4	12.6	7.55e-05	0	42	0	621805568	21	5474
2026-01-12 00:57:27.49	316.89	58.90	-31.0	-34.6	12.3	2.06e-04	0	42	0	623902720	22	5408
2026-01-12 00:57:28.50	316.06	59.04	-30.8	-34.5	12.6	1.75e-04	0	42	0	624951296	21	5476
2026-01-12 00:57:29.50	315.24	59.17	-30.4	-33.3	13.4	2.44e-05	0	42	0	627048448	21	5009
2026-01-12 00:57:30.50	314.40	59.30	-30.0	-32.8	14.1	3.00e-06	0	42	0	629145600	20	4950
2026-01-12 00:57:31.51	313.55	59.42	-30.1	-33.1	13.9	3.80e-06	0	42	0	631242752	20	5059
2026-01-12 00:57:32.51	312.70	59.54	-30.1	-33.0	14.0	4.50e-06	0	42	0	633339904	20	5023
2026-01-12 00:57:33.51	311.84	59.65	-30.0	-32.8	14.0	1.21e-03	0	42	0	634388480	20	4943
2026-01-12 00:57:34.52	310.96	59.76	-29.9	-32.9	14.3	6.48e-05	0	42	0	636485632	19	5092
2026-01-12 00:57:35.52	310.09	59.86	-29.8	-32.6	14.6	0.00e+00	0	42	0	638582784	19	4963
2026-01-12 00:57:36.53	309.20	59.96	-29.7	-32.4	14.7	4.03e-04	0	42	0	640679936	19	4903
2026-01-12 00:57:37.53	308.31	60.04	-29.7	-32.5	14.7	2.27e-04	0	42	0	642777088	19	4946
2026-01-12 00:57:38.54	307.41	60.13	-29.6	-32.2	14.9	0.00e+00	0	42	0	643825664	19	4852
2026-01-12 00:57:39.54	306.51	60.20	-29.3	-31.4	15.3	0.00e+00	0	42	0	645922816	19	4576
2026-01-12 00:57:40.55	305.60	60.27	-29.4	-31.6	15.2	1.50e-04	0	42	0	648019968	19	4655
2026-01-12 00:57:41.55	304.69	60.33	-29.4	-31.6	15.2	0.00e+00	0	42	0	650117120	19	4655
2026-01-12 00:57:42.56	303.76	60.39	-29.2	-31.6	15.5	1.15e-03	0	42	0	652214272	18	4742
2026-01-12 00:57:43.57	302.84	60.44	-29.2	-31.7	15.4	1.31e-03	0	42	0	653262848	18	4790
2026-01-12 00:57:44.58	301.91	60.49	-29.2	-31.7	15.4	0.00e+00	0	42	0	655360000	18	4783
2026-01-12 00:57:45.58	300.99	60.52	-29.1	-31.4	15.7	7.00e-07	0	42	0	657457152	18	4696
2026-01-12 00:57:46.59	300.05	60.55	-29.0	-31.2	15.8	1.08e-03	0	42	0	659554304	18	4614
2026-01-12 00:57:47.59	299.12	60.58	-29.4	-32.2	15.1	0.00e+00	0	42	0	661651456	18	4941
2026-01-12 00:57:48.60	298.18	60.59	-29.6	-32.1	14.9	1.11e-04	0	42	0	662700032	19	4821
2026-01-12 00:57:49.60	297.25	60.60	-29.5	-31.8	15.1	5.11e-04	0	42	0	664797184	19	4713
2026-01-12 00:57:50.61	296.31	60.61	-29.3	-31.5	15.3	0.00e+00	0	42	0	666894336	19	4602
2026-01-12 00:57:51.62	295.37	60.60	-29.1	-31.3	15.7	1.75e-03	0	42	0	668991488	18	4668
2026-01-12 00:57:52.63	294.44	60.59	-28.8	-31.2	16.0	1.83e-03	0	42	0	671088640	17	4747
2026-01-12 00:57:53.63	293.51	60.58	-28.9	-31.4	15.9	0.00e+00	0	42	0	672137216	17	4802
2026-01-12 00:57:54.64	292.57	60.55	-28.7	-30.8	16.2	1.74e-03	0	42	0	674234368	17	4627
2026-01-12 00:57:55.65	291.63	60.52	-28.1	-30.1	17.0	1.84e-03	0	41	0	676331520	16	4499
2026-01-12 00:57:56.65	290.71	60.48	-28.0	-29.7	17.1	0.00e+00	0	42	0	678428672	16	4399
2026-01-12 00:57:57.66	289.78	60.44	-27.7	-29.6	17.3	1.90e-03	0	42	0	680525824	15	4499
2026-01-12 00:57:58.66	288.86	60.39	-27.8	-29.8	17.2	1.78e-03	0	42	0	681574400	15	4563
2026-01-12 00:57:59.67	287.94	60.33	-27.7	-29.6	17.3	0.00e+00	0	42	0	683671552	15	4493
2026-01-12 00:58:00.67	287.03	60.27	-27.8	-29.8	17.2	1.98e-04	0	41	0	685768704	15	4557
2026-01-12 00:58:01.68	286.12	60.20	-27.8	-30.0	17.1	3.21e-04	0	42	0	687865856	15	4603
2026-01-12 00:58:02.68	285.22	60.12	-27.8	-30.0	17.1	0.00e+00	0	42	0	689963008	15	4610
2026-01-12 00:58:03.69	284.32	60.04	-27.7	-29.7	17.3	1.56e-03	0	42	0	691011584	15	4528
2026-01-12 00:58:04.70	283.42	59.95	-27.6	-29.4	17.5	1.95e-03	0	42	0	693108736	15	4421
2026-01-12 00:58:05.71	282.53	59.85	-27.8	-29.9	17.2	0.00e+00	0	42	0	695205888	15	4591
2026-01-12 00:58:06.71	281.66	59.75	-28.4	-30.7	16.6	0.00e+00	0	42	0	697303040	16	4688
2026-01-12 00:58:07.72	280.78	59.64	-28.6	-30.7	16.3	2.22e-03	0	42	0	699400192	17	4585
2026-01-12 00:58:08.73	279.92	59.53	-28.8	-31.3	15.9	0.00e+00	0	42	0	700448768	17	4765
2026-01-12 00:58:09.73	279.06	59.41	-28.9	-31.5	15.9	0.00e+00	0	42	0	702545920	17	4825
2026-01-12 00:58:10.74	278.21	59.29	-29.0	-31.3	15.7	2.16e-03	0	42	0	704643072	18	4659
2026-01-12 00:58:11.74	277.37	59.16	-29.5	-31.9	15.0	8.62e-05	0	42	0	706740224	19	4755
2026-01-12 00:58:12.75	276.54	59.02	-29.5	-31.8	15.1	0.00e+00	0	42	0	708837376	19	4712
2026-01-12 00:58:13.76	275.71	58.88	-29.3	-32.0	15.3	0.00e+00	0	42	0	709885952	18	4878
2026-01-12 00:58:14.77	274.89	58.74	-29.2	-31.6	15.3	0.00e+00	0	41	0	711983104	18	4764
2026-01-12 00:58:15.77	274.09	58.59	-29.2	-31.7	15.2	3.73e-05	0	42	0	714080256	18	4795
2026-01-12 00:58:16.78	273.29	58.43	-29.5	-31.8	15.0	0.00e+00	0	41	0	716177408	19	4726
2026-01-12 00:58:17.78	272.51	58.27	-29.9	-32.9	14.4	3.00e-06	0	42	0	718274560	19	5079
2026-01-12 00:58:18.78	271.74	58.11	-30.3	-33.5	13.6	2.36e-03	0	42	0	719323136	20	5199
2026-01-12 00:58:19.79	270.96	57.94	-30.2	-33.3	13.8	1.06e-05	0	41	0	721420288	20	5143
2026-01-12 00:58:20.80	270.20	57.77	-30.6	-33.8	13.1	1.83e-05	0	42	0	723517440	21	5223
2026-01-12 00:58:21.81	269.45	57.59	-30.5	-33.7	13.2	1.83e-03	0	42	0	725614592	21	5164
2026-01-12 00:58:22.81	268.72	57.41	-30.3	-33.5	13.7	1.50e-06	0	42	0	726663168	20	5189
2026-01-12 00:58:23.82	267.98	57.22	-30.7	-34.0	12.9	2.67e-05	0	42	0	728760320	21	5303
2026-01-12 00:58:24.83	267.26	57.03	-30.5	-33.5	13.2	5.18e-05	0	42	0	730857472	21	5094
2026-01-12 00:58:25.83	266.56	56.84	-30.3	-33.5	13.6	8.30e-06	0	42	0	732954624	20	5221
2026-01-12 00:58:26.84	265.86	56.64	-29.9	-32.5	14.2	3.80e-06	0	42	0	735051776	20	4861
2026-01-12 00:58:27.84	265.17	56.44	-29.9	-32.8	14.4	1.50e-06	0	42	0	737148928	19	5069
2026-01-12 00:58:28.85	264.49	56.24	-30.1	-32.9	14.0	2.22e-03	0	42	0	738197504	20	5007
2026-01-12 00:58:29.85	263.82	56.04	-29.9	-32.5	14.2	2.15e-04	0	42	0	740294656	20	4847
2026-01-12 00:58:30.85	263.17	55.83	-29.5	-31.9	14.9	1.50e-06	0	42	0	742391808	19	4767
2026-01-12 00:58:31.86	262.52	55.62	-29.1	-31.5	15.4	0.00e+00	0	42	0	744488960	18	4732
2026-01-12 00:58:32.87	261.87	55.40	-29.0	-31.1	15.7	1.05e-03	0	42	0	746586112	18	4612
2026-01-12 00:58:33.88	261.24	55.18	-29.2	-31.6	15.5	1.05e-03	0	42	0	747634688	18	4766
2026-01-12 00:58:34.88	260.63	54.96	-29.1	-31.3	15.6	0.00e+00	0	42	0	749731840	18	4662
2026-01-12 00:58:35.88	260.02	54.74	-28.8	-31.3	15.9	1.79e-04	0	42	0	751828992	17	4773
2026-01-12 00:58:36.89	259.42	54.52	-28.9	-31.4	15.8	0.00e+00	0	42	0	753926144	17	4809
2026-01-12 00:58:37.90	258.82	54.29	-29.1	-31.4	15.5	0.00e+00	0	42	0	754974720	18	4699
2026-01-12 00:58:38.91	258.24	54.06	-29.4	-32.0	15.1	2.20e-06	0	42	0	757071872	18	4909
2026-01-12 00:58:39.92	257.66	53.83	-29.2	-31.7	15.3	3.00e-06	0	42	0	759169024	18	4800
2026-01-12 00:58:40.92	257.10	53.60	-29.1	-31.4	15.6	0.00e+00	0	41	0	761266176	18	4687
2026-01-12 00:58:41.92	256.55	53.37	-29.0	-31.2	15.6	0.00e+00	0	42	0	763363328	18	4635
2026-01-12 00:58:42.93	256.00	53.13	-29.1	-31.5	15.4	0.00e+00	0	42	0	765460480	18	4746
2026-01-12 00:58:43.93	255.47	52.89	-29.4	-32.2	15.0	0.00e+00	0	42	0	766509056	18	4982
2026-01-12 00:58:44.94	254.94	52.66	-29.8	-32.7	13.4	0.00e+00	0	42	0	768606208	19	5047
2026-01-12 00:58:45.95	254.41	52.41	-29.9	-32.6	13.5	1.22e-03	0	42	0	770703360	20	4898
2026-01-12 00:58:46.94	253.91	52.18	-29.8	-32.3	14.3	0.00e+00	0	42	0	772800512	20	4786
2026-01-12 00:58:47.95	253.41	51.93	-30.0	-33.1	14.0	2.59e-05	0	42	0	773849088	19	5180
2026-01-12 00:58:48.95	252.91	51.69	-30.3	-33.6	13.4	1.34e-04	0	42	0	775946240	20	5245
2026-01-12 00:58:49.95	252.43	51.45	-30.3	-33.5	13.4	1.14e-05	0	42	0	778043392	20	5237
2026-01-12 00:58:50.95	251.95	51.21	-30.4	-33.8	13.3	1.72e-04	0	42	0	780140544	20	5344
2026-01-12 00:58:51.96	251.48	50.96	-30.4	-33.8	13.3	7.01e-05	0	42	0	782237696	20	5326
2026-01-12 00:58:52.96	251.02	50.71	-30.4	-34.0	13.1	1.90e-05	0	42	0	783286272	20	5425
2026-01-12 00:58:53.97	250.56	50.47	-30.8	-34.6	12.4	5.95e-05	0	42	0	785383424	21	5587
2026-01-12 00:58:54.98	250.11	50.22	-31.1	-34.8	11.9	1.87e-04	0	42	0	787480576	22	5554
2026-01-12 00:58:55.98	249.67	49.97	-31.4	-36.0	11.1	1.59e-03	0	42	0	789577728	22	6070
2026-01-12 00:58:56.99	249.24	49.72	-31.7	-36.4	10.4	5.97e-03	0	42	0	791674880	23	6179
2026-01-12 00:58:57.99	248.81	49.47	-31.5	-35.6	11.0	3.40e-03	0	42	0	792723456	23	5778
2026-01-12 00:58:59.00	248.39	49.22	-31.2	-35.1	11.8	9.92e-04	0	42	0	794820608	22	5640
2026-01-12 00:59:00.01	247.97	48.97	-30.9	-34.7	12.3	2.68e-03	0	42	0	796917760	21	5605
2026-01-12 00:59:01.01	247.57	48.72	-30.8	-34.7	12.3	1.73e-04	0	42	0	799014912	21	5588
2026-01-12 00:59:02.02	247.17	48.47	-31.0	-34.6	12.0	1.84e-04	0	42	0	801112064	22	5461
2026-01-12 00:59:03.03	246.77	48.22	-31.6	-36.0	10.7	4.82e-03	0	42	0	802160640	23	5985
2026-01-12 00:59:04.03	246.39	47.97	-31.8	-36.7	10.2	8.20e-03	0	42	0	804257792	23	6324
2026-01-12 00:59:05.04	246.01	47.72	-32.0	-37.3	9.8	9.79e-03	0	42	0	806354944	23	6691
2026-01-12 00:59:06.05	245.63	47.47	-31.9	-37.1	9.9	1.28e-02	0	41	0	808452096	23	6541
2026-01-12 00:59:07.05	245.26	47.22	-31.9	-37.0	10.0	1.03e-02	0	42	0	810549248	23	6472
2026-01-12 00:59:08.06	244.90	46.97	-31.7	-36.5	10.3	7.15e-03	0	42	0	811597824	23	6229
2026-01-12 00:59:09.07	244.54	46.72	-31.7	-36.4	10.4	4.88e-03	0	42	0	813694976	23	6189
2026-01-12 00:59:10.08	244.19	46.47	-31.6	-36.1	10.5	6.25e-03	0	41	0	815792128	23	6053
2026-01-12 00:59:11.08	243.84	46.22	-31.7	-36.4	10.2	4.12e-03	0	42	0	817889280	23	6206
2026-01-12 00:59:12.08	243.50	45.98	-31.6	-35.9	10.7	3.95e-03	0	42	0	819986432	23	5959
2026-01-12 00:59:13.08	243.17	45.73	-31.4	-35.9	11.1	4.28e-03	0	42	0	821035008	22	6037
2026-01-12 00:59:14.09	242.84	45.48	-31.6	-35.9	10.7	2.57e-03	0	42	0	823132160	23	5951
2026-01-12 00:59:15.10	242.51	45.23	-31.8	-36.6	10.1	7.33e-03	0	42	0	825229312	23	6317
2026-01-12 00:59:16.10	242.20	44.99	-31.5	-35.8	10.8	6.05e-03	0	42	0	827326464	23	5899
2026-01-12 00:59:17.09	241.89	44.75	-31.7	-36.4	10.3	4.70e-03	0	42	0	829423616	23	6177
2026-01-12 00:59:18.10	241.58	44.50	-31.4	-36.0	11.0	5.26e-03	0	42	0	830472192	22	6076
2026-01-12 00:59:19.11	241.27	44.25	-31.2	-35.2	11.5	3.29e-03	0	42	0	832569344	22	5734
2026-01-12 00:59:20.11	240.97	44.01	-31.3	-35.7	11.2	1.69e-03	0	42	0	834666496	22	5976
2026-01-12 00:59:21.12	240.67	43.77	-31.6	-36.1	10.5	7.68e-03	0	42	0	836763648	23	6045
2026-01-12 00:59:22.13	240.38	43.52	-31.1	-35.0	11.7	4.54e-03	0	42	0	838860800	22	5645
2026-01-12 00:59:23.14	240.09	43.28	-30.9	-34.3	12.2	4.39e-04	0	42	0	839909376	22	5315
2026-01-12 00:59:24.14	239.81	43.04	-30.8	-34.4	12.4	2.63e-03	0	42	0	842006528	21	5500
2026-01-12 00:59:25.15	239.53	42.80	-31.0	-34.8	11.9	2.45e-03	0	42	0	844103680	22	5533
2026-01-12 00:59:26.15	239.26	42.56	-31.1	-34.9	11.8	5.02e-04	0	42	0	846200832	22	5607
2026-01-12 00:59:27.15	238.99	42.32	-30.8	-34.7	12.3	2.50e-03	0	42	0	848297984	21	5606
2026-01-12 00:59:28.15	238.73	42.08	-31.0	-35.1	11.9	2.60e-03	0	42	0	849346560	21	5813
2026-01-12 00:59:29.16	238.46	41.85	-31.4	-36.1	10.8	2.16e-03	0	42	0	851443712	22	6157
2026-01-12 00:59:30.16	238.21	41.61	-32.0	-36.7	10.7	4.84e-03	0	42	0	853540864	23	6191
2026-01-12 00:59:31.17	237.95	41.37	-31.6	-36.3	10.3	8.50e-03	0	42	0	855638016	23	6158
2026-01-12 00:59:32.18	237.70	41.14	-31.7	-36.6	10.2	4.70e-03	0	42	0	857735168	23	6286
2026-01-12 00:59:33.18	237.45	40.90	-31.9	-37.4	9.4	1.13e-02	0	42	0	858783744	23	6774
2026-01-12 00:59:34.18	237.21	40.67	-31.9	-37.3	9.5	1.48e-02	0	42	0	860880896	23	6705
2026-01-12 00:59:35.19	236.97	40.44	-31.9	-37.4	9.6	1.23e-02	0	42	0	862978048	23	6739
2026-01-12 00:59:36.19	236.73	40.21	-32.0	-37.3	9.2	1.78e-02	0	42	0	865075200	24	6592
2026-01-12 00:59:37.20	236.50	39.98	-32.0	-37.2	9.3	2.51e-02	0	42	0	867172352	24	6510
2026-01-12 00:59:38.21	236.27	39.75	-32.2	-37.9	8.7	2.91e-02	0	42	0	868220928	24	6943
2026-01-12 00:59:39.21	236.04	39.52	-32.0	-37.2	9.2	2.27e-02	0	42	0	870318080	24	6564
2026-01-12 00:59:40.22	235.82	39.29	-32.0	-37.5	9.4	1.54e-02	0	42	0	872415232	23	6807
2026-01-12 00:59:41.23	235.60	39.07	-31.7	-36.4	10.1	8.88e-03	0	42	0	874512384	23	6210
2026-01-12 00:59:42.23	235.38	38.84	-31.6	-36.1	10.5	7.15e-03	0	42	0	876609536	23	6032
2026-01-12 00:59:43.24	235.17	38.62	-31.6	-36.0	10.6	3.46e-03	0	42	0	877658112	23	6019
2026-01-12 00:59:44.25	234.95	38.39	-31.9	-37.2	9.7	4.73e-03	0	42	0	879755264	23	6609
2026-01-12 00:59:45.25	234.75	38.17	-31.7	-36.4	10.2	1.02e-02	0	42	0	881852416	23	6219
2026-01-12 00:59:46.25	234.54	37.95	-31.4	-35.4	11.0	2.14e-03	0	42	0	883949568	23	5707
2026-01-12 00:59:47.26	234.34	37.73	-31.0	-34.2	11.8	6.90e-04	0	42	0	886046720	23	5216
2026-01-12 00:59:48.26	234.14	37.51	-30.8	-34.2	12.2	1.69e-03	0	42	0	887095296	22	5310
2026-01-12 00:59:49.27	233.94	37.29	-30.7	-34.5	12.4	1.66e-04	0	42	0	889192448	21	5516
2026-01-12 00:59:50.28	233.75	37.07	-30.7	-34.5	12.3	1.40e-04	0	42	0	891289600	21	5535
2026-01-12 00:59:51.28	233.56	36.86	-31.0	-34.8	11.7	3.63e-04	0	42	0	893386752	22	5584
2026-01-12 00:59:52.29	233.37	36.64	-31.1	-35.0	11.7	2.88e-03	0	42	0	895483904	22	5651
2026-01-12 00:59:53.30	233.18	36.43	-31.1	-35.1	11.5	7.51e-04	0	42	0	896532480	22	5715
2026-01-12 00:59:54.30	232.99	36.22	-31.1	-35.0	11.6	5.96e-04	0	42	0	898629632	22	5643
2026-01-12 00:59:55.31	232.81	36.00	-31.1	-35.2	11.4	7.35e-04	0	42	0	900726784	22	5737
2026-01-12 00:59:56.32	232.63	35.79	-31.0	-34.9	11.6	6.21e-04	0	42	0	902823936	22	5631
2026-01-12 00:59:57.32	232.45	35.58	-31.1	-35.1	11.5	6.83e-04	0	42	0	904921088	22	5714
2026-01-12 00:59:58.33	232.28	35.37	-31.2	-35.4	11.2	1.08e-03	0	42	0	905969664	22	5848
2026-01-12 00:59:59.34	232.10	35.16	-31.2	-35.4	11.3	1.18e-03	0	42	0	908066816	22	5837
2026-01-12 01:00:00.35	231.93	34.96	-31.2	-35.5	11.3	1.31e-03	0	42	0	910163968	22	5879
2026-01-12 01:00:01.35	231.77	34.75	-31.3	-35.7	11.1	1.34e-03	0	42	0	912261120	22	6009
2026-01-12 01:00:02.36	231.60	34.55	-31.3	-35.7	11.1	2.02e-03	0	42	0	914358272	22	5999
2026-01-12 01:00:03.35	231.44	34.35	-31.1	-35.2	11.4	1.28e-03	0	42	0	915406848	22	5780
2026-01-12 01:00:04.36	231.27	34.14	-31.2	-35.3	11.4	9.17e-04	0	42	0	917504000	22	5798
2026-01-12 01:00:05.37	231.11	33.94	-31.3	-35.7	11.1	1.47e-03	0	41	0	919601152	22	6001
2026-01-12 01:00:06.38	230.95	33.74	-31.4	-36.1	10.8	2.68e-03	0	42	0	921698304	22	6193
2026-01-12 01:00:07.38	230.80	33.54	-31.5	-36.0	10.5	4.08e-03	0	42	0	923795456	23	6029
2026-01-12 01:00:08.39	230.64	33.34	-31.6	-36.2	10.4	4.43e-03	0	42	0	924844032	23	6128
2026-01-12 01:00:09.39	230.49	33.15	-31.5	-36.1	10.4	4.14e-03	0	42	0	926941184	23	6077
2026-01-12 01:00:10.40	230.34	32.95	-31.5	-36.1	10.4	5.11e-03	0	42	0	929038336	23	6098
2026-01-12 01:00:11.41	230.19	32.75	-31.4	-35.7	10.7	3.43e-03	0	42	0	931135488	23	5877
2026-01-12 01:00:12.42	230.05	32.56	-31.4	-36.0	10.7	2.95e-03	0	42	0	933232640	22	6149
2026-01-12 01:00:13.42	229.90	32.37	-31.1	-35.0	11.5	1.27e-03	0	42	0	934281216	22	5688
2026-01-12 01:00:14.43	229.76	32.17	-30.8	-34.9	12.0	5.52e-04	0	42	0	936378368	21	5709
2026-01-12 01:00:15.43	229.62	31.98	-30.7	-34.3	12.3	2.19e-04	0	42	0	938475520	21	5477
2026-01-12 01:00:16.44	229.48	31.79	-30.6	-34.2	12.4	1.52e-04	0	42	0	940572672	21	5453
2026-01-12 01:00:17.44	229.34	31.61	-30.7	-34.4	12.3	2.23e-04	0	42	0	942669824	21	5494
2026-01-12 01:00:18.44	229.20	31.42	-30.7	-34.4	12.3	1.92e-04	0	42	0	943718400	21	5530
2026-01-12 01:00:19.46	229.07	31.23	-30.8	-34.8	12.0	3.14e-04	0	42	0	945815552	21	5704
2026-01-12 01:00:20.46	228.93	31.04	-30.9	-34.9	11.9	3.48e-04	0	42	0	947912704	21	5739
2026-01-12 01:00:21.47	228.80	30.86	-30.9	-35.0	11.9	4.62e-04	0	42	0	950009856	21	5777
2026-01-12 01:00:22.47	228.67	30.68	-30.8	-34.9	11.9	4.23e-04	0	42	0	952107008	21	5729
2026-01-12 01:00:23.48	228.54	30.49	-31.0	-35.3	11.6	3.04e-03	0	42	0	953155584	21	5936
2026-01-12 01:00:24.48	228.41	30.31	-31.1	-35.2	11.3	1.02e-03	0	42	0	955252736	22	5760
2026-01-12 01:00:25.49	228.29	30.13	-31.3	-35.7	11.0	1.66e-03	0	42	0	957349888	22	5983
2026-01-12 01:00:26.49	228.16	29.95	-31.2	-35.5	11.1	4.28e-03	0	42	0	959447040	22	5911
2026-01-12 01:00:27.49	228.04	29.77	-31.1	-35.3	11.2	1.98e-03	0	42	0	960495616	22	5835
2026-01-12 01:00:28.50	227.92	29.59	-31.3	-35.7	10.9	1.65e-03	0	42	0	962592768	22	6025
2026-01-12 01:00:29.50	227.80	29.42	-31.4	-36.0	10.7	5.43e-03	0	42	0	964689920	22	6179
2026-01-12 01:00:30.49	227.68	29.24	-31.4	-36.0	10.7	6.01e-03	0	42	0	966787072	22	6177
2026-01-12 01:00:31.50	227.56	29.07	-31.3	-36.0	10.7	4.03e-03	0	42	0	968884224	22	6173
2026-01-12 01:00:32.50	227.45	28.90	-31.1	-35.4	11.1	3.83e-03	0	42	0	969932800	22	5857
2026-01-12 01:00:33.51	227.33	28.72	-31.1	-35.2	11.3	3.51e-03	0	42	0	972029952	22	5771
2026-01-12 01:00:34.52	227.22	28.55	-31.2	-35.5	11.0	1.54e-03	0	42	0	974127104	22	5944
2026-01-12 01:00:35.52	227.11	28.38	-31.1	-35.2	11.3	3.67e-03	0	42	0	976224256	22	5768
2026-01-12 01:00:36.52	226.99	28.21	-30.8	-34.9	11.9	2.86e-03	0	42	0	978321408	21	5747
2026-01-12 01:00:37.53	226.88	28.04	-30.7	-34.6	12.1	3.56e-04	0	42	0	979369984	21	5604
2026-01-12 01:00:38.54	226.77	27.87	-30.5	-34.1	12.4	1.32e-03	0	42	0	981467136	21	5399
2026-01-12 01:00:39.55	226.67	27.70	-30.5	-34.4	12.5	2.50e-03	0	42	0	983564288	20	5650
2026-01-12 01:00:40.55	226.56	27.53	-30.5	-33.8	12.6	9.61e-05	0	42	0	985661440	21	5303
2026-01-12 01:00:41.55	226.45	27.37	-30.4	-34.0	12.7	2.19e-03	0	42	0	987758592	20	5499
2026-01-12 01:00:42.56	226.35	27.20	-30.4	-34.2	12.7	8.73e-04	0	42	0	988807168	20	5564
2026-01-12 01:00:43.56	226.25	27.04	-30.4	-34.0	12.7	1.05e-04	0	42	0	990904320	20	5496
2026-01-12 01:00:44.56	226.14	26.88	-30.3	-33.8	12.9	1.79e-03	0	42	0	993001472	20	5386
2026-01-12 01:00:45.57	226.04	26.71	-30.3	-33.8	12.9	3.96e-05	0	42	0	995098624	20	5398
2026-01-12 01:00:46.58	225.94	26.55	-30.3	-33.8	12.9	1.64e-04	0	42	0	997195776	20	5407
2026-01-12 01:00:47.59	225.84	26.39	-30.3	-33.9	12.8	1.58e-03	0	42	0	998244352	20	5462
2026-01-12 01:00:48.59	225.75	26.23	-30.4	-34.1	12.7	1.85e-03	0	42	0	1000341504	20	5527
2026-01-12 01:00:49.58	225.65	26.08	-30.4	-34.1	12.7	5.03e-04	0	42	0	1002438656	20	5510
2026-01-12 01:00:50.58	225.55	25.92	-30.3	-33.9	12.8	2.24e-03	0	42	0	1004535808	20	5460
2026-01-12 01:00:51.59	225.46	25.76	-30.2	-33.6	13.0	2.17e-03	0	42	0	1006632960	20	5336
2026-01-12 01:00:52.60	225.36	25.60	-30.2	-33.6	13.0	4.19e-05	0	42	0	1007681536	20	5317
2026-01-12 01:00:53.61	225.27	25.45	-30.2	-33.6	13.0	2.23e-03	0	42	0	1009778688	20	5325
2026-01-12 01:00:54.60	225.18	25.29	-30.2	-33.5	13.0	1.86e-03	0	42	0	1011875840	20	5302
2026-01-12 01:00:55.61	225.09	25.14	-30.2	-33.7	12.9	4.44e-04	0	42	0	1013972992	20	5373
2026-01-12 01:00:56.61	225.00	24.99	-30.2	-33.5	13.0	1.10e-03	0	42	0	1016070144	20	5295
2026-01-12 01:00:57.62	224.91	24.83	-30.2	-33.6	13.0	5.57e-04	0	42	0	1017118720	20	5342
2026-01-12 01:00:58.63	224.82	24.68	-30.2	-33.6	13.0	3.23e-04	0	42	0	1019215872	20	5327
2026-01-12 01:00:59.63	224.73	24.53	-30.2	-33.6	12.9	4.34e-05	0	42	0	1021313024	20	5340
2026-01-12 01:01:00.64	224.64	24.38	-30.3	-34.0	12.7	1.77e-03	0	42	0	1023410176	20	5491
2026-01-12 01:01:01.65	224.56	24.23	-30.3	-33.8	12.8	2.40e-04	0	42	0	1025507328	20	5418
2026-01-12 01:01:02.65	224.47	24.08	-30.2	-33.7	12.9	5.34e-05	0	42	0	1026555904	20	5390
2026-01-12 01:01:03.65	224.39	23.94	-30.3	-34.0	12.7	7.55e-05	0	42	0	1028653056	20	5488
2026-01-12 01:01:04.66	224.30	23.79	-30.3	-33.9	12.7	6.71e-05	0	42	0	1030750208	20	5472
2026-01-12 01:01:05.66	224.22	23.64	-30.3	-33.9	12.7	2.32e-03	0	42	0	1032847360	20	5457
2026-01-12 01:01:06.67	224.14	23.50	-30.4	-34.2	12.5	1.03e-04	0	42	0	1034944512	20	5583
2026-01-12 01:01:07.67	224.06	23.35	-30.4	-34.3	12.5	1.08e-04	0	42	0	1035993088	20	5619
2026-01-12 01:01:08.67	223.98	23.21	-30.4	-34.2	12.5	2.74e-03	0	42	0	1038090240	20	5582
2026-01-12 01:01:09.68	223.90	23.07	-30.5	-34.5	12.3	1.36e-04	0	42	0	1040187392	20	5706
2026-01-12 01:01:10.69	223.82	22.92	-30.3	-33.5	12.6	1.49e-04	0	42	0	1042284544	21	5185
2026-01-12 01:01:11.70	223.74	22.78	-30.1	-33.5	13.0	2.77e-03	0	42	0	1044381696	20	5299
2026-01-12 01:01:12.70	223.66	22.64	-30.2	-33.8	12.8	4.42e-05	0	42	0	1045430272	20	5406
2026-01-12 01:01:13.71	223.59	22.50	-30.0	-33.2	13.1	1.63e-04	0	42	0	1047527424	20	5203
2026-01-12 01:01:14.71	223.51	22.36	-29.9	-32.9	13.4	4.11e-04	0	42	0	1049624576	20	5057
2026-01-12 01:01:15.71	223.43	22.22	-29.9	-33.4	13.4	2.80e-03	0	42	0	1051721728	19	5357
2026-01-12 01:01:16.72	223.36	22.08	-30.0	-33.4	13.4	1.57e-04	0	42	0	1053818880	19	5373
2026-01-12 01:01:17.72	223.29	21.95	-30.0	-33.5	13.4	1.62e-04	0	42	0	1054867456	19	5395
2026-01-12 01:01:18.72	223.21	21.81	-30.1	-33.4	13.0	2.82e-03	0	42	0	1056964608	20	5275
2026-01-12 01:01:19.73	223.14	21.67	-30.1	-33.3	13.0	2.36e-04	0	42	0	1059061760	20	5240
2026-01-12 01:01:20.74	223.07	21.54	-30.0	-33.3	13.0	2.27e-04	0	42	0	1061158912	20	5212
2026-01-12 01:01:21.75	223.00	21.40	-30.1	-33.3	13.0	5.11e-05	0	42	0	1062207488	20	5227
2026-01-12 01:01:22.76	222.93	21.27	-30.0	-33.0	13.2	3.04e-04	0	42	0	1064304640	20	5117
2026-01-12 01:01:23.77	222.85	21.13	-29.9	-33.0	13.3	3.22e-04	0	42	0	1066401792	20	5100
2026-01-12 01:01:24.77	222.79	21.00	-30.0	-33.2	13.1	3.05e-05	0	42	0	1068498944	20	5176
2026-01-12 01:01:25.77	222.72	20.87	-30.0	-33.2	13.1	2.51e-05	0	42	0	1070596096	20	5182
2026-01-12 01:01:26.78	222.65	20.74	-30.1	-33.4	13.0	3.61e-04	0	42	0	1072693248	20	5254
2026-01-12 01:01:27.79	222.58	20.61	-30.2	-33.7	12.7	5.34e-05	0	42	0	1073741824	20	5407
2026-01-12 01:01:28.79	222.51	20.48	-30.2	-33.6	12.8	3.97e-04	0	42	0	1075838976	20	5353
2026-01-12 01:01:29.80	222.45	20.35	-30.0	-33.1	13.1	3.61e-04	0	42	0	1077936128	20	5165
2026-01-12 01:01:30.81	222.38	20.22	-29.9	-32.8	13.4	2.36e-05	0	42	0	1080033280	20	5032
2026-01-12 01:01:31.82	222.32	20.09	-29.9	-33.4	13.3	3.23e-04	0	42	0	1082130432	19	5386
2026-01-12 01:01:32.82	222.25	19.96	-29.9	-33.3	13.4	2.59e-04	0	42	0	1083179008	19	5316
2026-01-12 01:01:33.83	222.19	19.83	-29.9	-33.4	13.4	1.44e-05	0	42	0	1085276160	19	5357
2026-01-12 01:01:34.84	222.12	19.71	-29.8	-33.0	13.6	2.94e-04	0	42	0	1087373312	19	5206
2026-01-12 01:01:35.85	222.06	19.58	-29.7	-32.9	13.7	2.34e-04	0	42	0	1089470464	19	5166
2026-01-12 01:01:36.85	222.00	19.46	-29.6	-32.8	13.6	6.10e-06	0	42	0	1091567616	19	5238
2026-01-12 01:01:37.86	221.93	19.33	-29.7	-32.9	13.0	1.82e-04	0	42	0	1092616192	19	5178
2026-01-12 01:01:38.86	221.87	19.21	-29.7	-32.9	12.5	2.60e-04	0	42	0	1094713344	19	5172
2026-01-12 01:01:39.86	221.81	19.08	-29.7	-32.9	13.5	6.10e-06	0	42	0	1096810496	19	5180
2026-01-12 01:01:40.87	221.75	18.96	-29.8	-33.0	13.0	2.68e-04	0	42	0	1098907648	19	5210
2026-01-12 01:01:41.88	221.69	18.84	-29.9	-33.3	13.3	2.55e-04	0	42	0	1101004800	19	5347
2026-01-12 01:01:42.89	221.63	18.71	-29.9	-33.3	13.3	3.33e-04	0	42	0	1102053376	19	5340
2026-01-12 01:01:43.89	221.57	18.59	-30.0	-33.2	13.0	3.38e-04	0	42	0	1104150528	20	5212
2026-01-12 01:01:44.90	221.51	18.47	-30.2	-33.9	12.6	4.32e-04	0	42	0	1106247680	20	5479
2026-01-12 01:01:45.90	221.46	18.35	-30.4	-34.4	12.1	1.88e-04	0	42	0	1108344832	20	5724
2026-01-12 01:01:46.91	221.40	18.23	-30.2	-33.7	12.6	1.73e-04	0	42	0	1110441984	20	5404
2026-01-12 01:01:47.92	221.34	18.11	-30.1	-33.5	12.8	4.51e-04	0	42	0	1111490560	20	5306
2026-01-12 01:01:48.92	221.29	18.00	-30.0	-33.3	12.9	5.49e-05	0	42	0	1113587712	20	5263
2026-01-12 01:01:49.93	221.23	17.88	-30.1	-33.4	12.8	1.32e-03	0	42	0	1115684864	20	5304
2026-01-12 01:01:50.94	221.17	17.76	-30.1	-33.5	12.8	3.80e-04	0	42	0	1117782016	20	5310
2026-01-12 01:01:51.94	221.12	17.64	-30.1	-33.5	12.7	8.08e-05	0	42	0	1118830592	20	5329
2026-01-12 01:01:52.95	221.06	17.53	-30.2	-33.7	12.6	1.92e-03	0	42	0	1120927744	20	5424
2026-01-12 01:01:53.96	221.01	17.41	-30.3	-34.1	12.3	2.15e-03	0	42	0	1123024896	20	5560
2026-01-12 01:01:54.96	220.96	17.29	-30.1	-33.7	12.6	1.44e-04	0	42	0	1125122048	20	5394
2026-01-12 01:01:55.97	220.90	17.18	-30.0	-33.3	12.9	3.07e-04	0	42	0	1127219200	20	5239
2026-01-12 01:01:56.97	220.85	17.07	-29.9	-33.1	13.0	2.07e-03	0	42	0	1129316352	20	5158
2026-01-12 01:01:57.98	220.80	16.95	-30.0	-33.2	12.9	4.88e-05	0	42	0	1130364928	20	5202
2026-01-12 01:01:58.99	220.74	16.84	-30.0	-33.6	13.0	2.98e-04	0	41	0	1132462080	19	5466
2026-01-12 01:02:00.00	220.69	16.72	-29.9	-33.3	13.2	2.32e-03	0	42	0	1134559232	19	5369
2026-01-12 01:02:01.00	220.64	16.61	-29.9	-33.5	13.1	2.83e-04	0	42	0	1136656384	19	5437
2026-01-12 01:02:02.01	220.59	16.50	-29.9	-33.5	13.1	3.07e-04	0	42	0	1138753536	19	5454
2026-01-12 01:02:03.02	220.54	16.39	-30.0	-33.3	12.8	2.34e-03	0	42	0	1139802112	20	5270
2026-01-12 01:02:04.02	220.49	16.28	-30.2	-33.8	12.5	3.81e-04	0	42	0	1141899264	20	5460
2026-01-12 01:02:05.03	220.44	16.17	-30.0	-33.4	12.7	2.42e-03	0	42	0	1143996416	20	5304
2026-01-12 01:02:06.04	220.39	16.06	-30.1	-33.7	12.6	2.25e-03	0	42	0	1146093568	20	5415
2026-01-12 01:02:07.05	220.34	15.95	-30.1	-33.6	12.6	4.23e-04	0	42	0	1147142144	20	5369
2026-01-12 01:02:08.05	220.29	15.84	-30.2	-33.8	12.4	2.26e-03	0	42	0	1149239296	20	5479
2026-01-12 01:02:09.06	220.24	15.73	-30.2	-33.8	12.4	3.68e-04	0	42	0	1151336448	20	5471
2026-01-12 01:02:10.07	220.19	15.62	-30.2	-33.9	12.3	4.61e-04	0	42	0	1153433600	20	5521
2026-01-12 01:02:11.08	220.15	15.51	-30.2	-34.0	12.3	2.54e-03	0	42	0	1155530752	20	5531
2026-01-12 01:02:12.09	220.10	15.41	-30.1	-33.7	12.4	2.44e-03	0	42	0	1157627904	20	5442
2026-01-12 01:02:13.10	220.05	15.30	-30.2	-33.8	12.4	4.10e-04	0	42	0	1158676480	20	5462
2026-01-12 01:02:14.10	220.01	15.19	-30.2	-33.8	12.4	2.46e-03	0	42	0	1160773632	20	5469
2026-01-12 01:02:15.11	219.96	15.09	-30.3	-34.2	12.1	2.39e-03	0	42	0	1162870784	20	5650
2026-01-12 01:02:16.11	219.91	14.98	-30.2	-34.0	12.2	4.20e-04	0	42	0	1164967936	20	5564
2026-01-12 01:02:17.12	219.87	14.88	-30.2	-34.0	12.2	2.28e-03	0	42	0	1167065088	20	5577
2026-01-12 01:02:18.12	219.82	14.77	-30.4	-34.6	11.8	2.46e-03	0	42	0	1168113664	20	5824
2026-01-12 01:02:19.12	219.78	14.67	-30.4	-34.5	11.8	6.71e-04	0	42	0	1170210816	20	5776
2026-01-12 01:02:20.13	219.73	14.56	-30.4	-34.5	11.8	2.31e-03	0	42	0	1172307968	20	5779
2026-01-12 01:02:21.13	219.69	14.46	-30.4	-34.5	11.8	2.05e-03	0	42	0	1174405120	20	5787
2026-01-12 01:02:22.14	219.65	14.36	-30.6	-35.1	11.3	9.99e-04	0	42	0	1175453696	20	6032
2026-01-12 01:02:23.14	219.60	14.26	-30.8	-35.2	10.8	1.43e-03	0	42	0	1177550848	21	5995
2026-01-12 01:02:24.15	219.56	14.15	-30.6	-34.6	11.4	2.46e-03	0	42	0	1179648000	21	5733
2026-01-12 01:02:25.15	219.52	14.05	-30.6	-34.8	11.1	1.66e-03	0	42	0	1181745152	21	5823
2026-01-12 01:02:26.15	219.48	13.95	-30.5	-34.3	11.5	1.54e-03	0	42	0	1183842304	21	5603
2026-01-12 01:02:27.16	219.43	13.85	-30.4	-34.6	11.7	1.67e-03	0	42	0	1185939456	20	5842
2026-01-12 01:02:28.17	219.39	13.75	-30.3	-34.4	11.9	5.94e-04	0	42	0	1186988032	20	5736
2026-01-12 01:02:29.17	219.35	13.65	-30.4	-34.5	11.8	1.31e-03	0	42	0	1189085184	20	5769
2026-01-12 01:02:30.18	219.31	13.55	-30.6	-34.8	11.2	1.12e-03	0	42	0	1191182336	21	5830
2026-01-12 01:02:31.19	219.27	13.45	-30.6	-34.9	11.1	1.74e-03	0	42	0	1193279488	21	5872
2026-01-12 01:02:32.20	219.23	13.35	-30.6	-34.8	11.2	2.29e-03	0	42	0	1195376640	21	5843
2026-01-12 01:02:33.20	219.19	13.25	-30.5	-34.3	11.6	8.57e-04	0	42	0	1196425216	21	5576
2026-01-12 01:02:34.21	219.15	13.16	-30.4	-34.1	11.7	5.50e-04	0	42	0	1198522368	21	5506
2026-01-12 01:02:35.22	219.11	13.06	-30.4	-34.8	11.6	2.22e-03	0	42	0	1200619520	20	5919
2026-01-12 01:02:36.23	219.07	12.96	-30.5	-34.4	11.4	9.20e-04	0	42	0	1202716672	21	5649
2026-01-12 01:02:37.23	219.03	12.86	-30.7	-35.2	10.9	1.58e-03	0	42	0	1203765248	21	6020
2026-01-12 01:02:38.24	218.99	12.77	-30.6	-34.8	11.2	3.49e-03	0	42	0	1205862400	21	5837
2026-01-12 01:02:39.24	218.95	12.67	-30.7	-35.1	10.9	3.74e-03	0	42	0	1207959552	21	5997
2026-01-12 01:02:40.25	218.91	12.57	-30.7	-35.0	10.9	2.21e-03	0	42	0	1210056704	21	5944
2026-01-12 01:02:41.26	218.87	12.48	-30.4	-34.1	11.6	1.44e-03	0	42	0	1212153856	21	5531
2026-01-12 01:02:42.27	218.83	12.38	-30.3	-34.3	11.8	1.97e-03	0	42	0	1214251008	20	5727
2026-01-12 01:02:43.28	218.80	12.29	-30.3	-34.3	11.8	7.87e-04	0	42	0	1215299584	20	5698
2026-01-12 01:02:44.29	218.76	12.19	-30.3	-34.4	11.7	8.94e-04	0	42	0	1217396736	20	5770
2026-01-12 01:02:45.29	218.72	12.10	-30.3	-34.4	11.7	2.02e-03	0	42	0	1219493888	20	5781
2026-01-12 01:02:46.29	218.68	12.01	-30.4	-34.6	11.6	9.31e-04	0	42	0	1221591040	20	5851
2026-01-12 01:02:47.30	218.65	11.91	-30.4	-34.6	11.6	1.32e-03	0	42	0	1222639616	20	5855
2026-01-12 01:02:48.30	218.61	11.82	-30.3	-34.5	11.7	6.63e-04	0	42	0	1224736768	20	5807
2026-01-12 01:02:49.31	218.57	11.73	-30.4	-34.6	11.6	1.02e-03	0	42	0	1226833920	20	5838
2026-01-12 01:02:50.31	218.54	11.64	-30.4	-34.6	11.6	1.19e-03	0	42	0	1228931072	20	5845
2026-01-12 01:02:51.32	218.50	11.54	-30.3	-34.5	11.6	6.23e-04	0	42	0	1231028224	20	5819
2026-01-12 01:02:52.33	218.47	11.45	-30.4	-34.7	11.4	6.94e-04	0	42	0	1232076800	20	5920
2026-01-12 01:02:53.34	218.43	11.36	-30.4	-34.7	11.4	1.23e-03	0	42	0	1234173952	20	5940
2026-01-12 01:02:54.34	218.40	11.27	-30.3	-34.5	11.6	7.46e-04	0	42	0	1236271104	20	5802
2026-01-12 01:02:55.35	218.36	11.18	-30.3	-34.6	11.5	8.99e-04	0	42	0	1238368256	20	5843
2026-01-12 01:02:56.36	218.33	11.09	-30.3	-34.5	11.6	1.03e-03	0	42	0	1240465408	20	5827
2026-01-12 01:02:57.37	218.29	11.00	-30.4	-34.7	11.4	7.49e-04	0	42	0	1242562560	20	5930
2026-01-12 01:02:58.37	218.26	10.91	-30.3	-34.5	11.5	1.19e-03	0	42	0	1243611136	20	5845
2026-01-12 01:02:59.38	218.23	10.82	-30.4	-34.8	11.3	9.92e-04	0	42	0	1245708288	20	5943
2026-01-12 01:03:00.38	218.19	10.73	-30.4	-34.7	11.4	9.04e-04	0	42	0	1247805440	20	5927
2026-01-12 01:03:01.39	218.16	10.64	-30.4	-34.8	11.3	1.17e-03	0	42	0	1249902592	20	5967
2026-01-12 01:03:02.40	218.12	10.55	-30.4	-34.8	11.3	2.97e-03	0	42	0	1251999744	20	5987
2026-01-12 01:03:03.41	218.09	10.46	-30.5	-34.5	11.1	1.64e-03	0	42	0	1253048320	21	5746
2026-01-12 01:03:04.41	218.06	10.38	-30.5	-34.7	11.0	1.84e-03	0	42	0	1255145472	21	5825
2026-01-12 01:03:05.42	218.03	10.29	-30.6	-34.9	10.8	2.51e-03	0	42	0	1257242624	21	5936
2026-01-12 01:03:06.43	217.99	10.20	-30.6	-35.1	10.7	2.37e-03	0	42	0	1259339776	21	5993
2026-01-12 01:03:07.43	217.96	10.11	-30.6	-35.0	10.8	3.47e-03	0	42	0	1260388352	21	5960
2026-01-12 01:03:08.43	217.93	10.03	-30.5	-34.8	10.9	2.55e-03	0	42	0	1262485504	21	5874
2026-01-12 01:03:09.44	217.90	9.94	-30.6	-34.8	10.9	2.22e-03	0	42	0	1264582656	21	5887
2026-01-12 01:03:10.45	217.87	9.85	-30.6	-34.9	10.8	2.52e-03	0	42	0	1266679808	21	5910
2026-01-12 01:03:11.45	217.84	9.77	-30.6	-35.0	10.7	2.70e-03	0	42	0	1268776960	21	5968
2026-01-12 01:03:12.46	217.80	9.68	-30.6	-35.0	10.7	2.78e-03	0	42	0	1270874112	21	5954
2026-01-12 01:03:13.47	217.77	9.60	-30.6	-35.0	10.7	3.07e-03	0	42	0	1271922688	21	5978
2026-01-12 01:03:14.47	217.74	9.51	-30.6	-35.0	10.7	3.20e-03	0	42	0	1274019840	21	5992
2026-01-12 01:03:15.47	217.71	9.43	-30.7	-35.2	10.5	3.37e-03	0	42	0	1276116992	21	6086
2026-01-12 01:03:16.48	217.68	9.34	-30.7	-35.2	10.5	5.52e-03	0	42	0	1278214144	21	6092
2026-01-12 01:03:17.49	217.65	9.26	-30.7	-35.3	10.4	4.00e-03	0	42	0	1279262720	21	6104
2026-01-12 01:03:18.50	217.62	9.18	-30.7	-35.3	10.4	4.89e-03	0	42	0	1281359872	21	6123
2026-01-12 01:03:19.50	217.59	9.09	-30.7	-35.5	10.3	6.00e-03	0	42	0	1283457024	21	6209
2026-01-12 01:03:20.51	217.56	9.01	-30.7	-35.5	10.3	6.71e-03	0	42	0	1285554176	21	6231
2026-01-12 01:03:21.51	217.53	8.93	-30.7	-35.5	10.3	5.21e-03	0	42	0	1287651328	21	6219
2026-01-12 01:03:22.52	217.50	8.84	-30.8	-35.7	10.1	8.55e-03	0	42	0	1288699904	21	6326
2026-01-12 01:03:23.52	217.47	8.76	-30.8	-35.7	10.1	8.59e-03	0	42	0	1290797056	21	6347
