passes_logs/2026/01/12/R2M6_AANII_01/R2M6_AANII_01__20260112_234244_NOAA_21_JPSS-2_rec.log

#Pass ID: 20260112_234244_NOAA 21 (JPSS-2)
#Satellite: NOAA 21 (JPSS-2)
#Configuration: NOAA 21
#almurnet v.1.7.20240730
#Start time: 2026-01-12 23:42:44

#Version: 2.2.20231116
#Station: R2M6_AANII_01
#Location: 30.233357 lon 59.946436 lat
#TLE: 1 54234U 22150A   26012.26378519  .00000063  00000+0  50547-4 0  9993
#TLE: 2 54234  98.7495 313.1967 0000726 309.1075  51.0036 14.19534275164425

#Time	Az	El	Level	Level2	SNR	BER	BlckErr	Temp	State	Recorded	gain1	gain2
2026-01-12 23:42:44.39	21.74	7.01	-30.0	-34.7	4.7	1.39e+00	0	40	0	0	20	6151
2026-01-12 23:42:45.39	21.78	7.09	-30.8	-37.1	4.4	1.43e+00	0	39	104	0	21	7363
2026-01-12 23:42:46.40	21.82	7.16	-30.9	-36.0	6.9	2.09e-01	0	39	0	0	22	6435
2026-01-12 23:42:47.40	21.86	7.24	-30.8	-36.1	7.1	1.24e-01	0	39	0	3145728	21	6615
2026-01-12 23:42:48.41	21.90	7.31	-30.7	-35.9	7.3	1.33e-01	0	39	0	6291456	21	6483
2026-01-12 23:42:49.42	21.94	7.39	-30.6	-35.3	7.7	9.16e-02	0	39	0	9437184	21	6161
2026-01-12 23:42:50.42	21.97	7.47	-30.4	-35.1	8.2	5.62e-02	0	40	0	12582912	20	6193
2026-01-12 23:42:51.42	22.01	7.54	-30.3	-34.7	8.6	4.25e-02	0	39	0	15728640	20	5962
2026-01-12 23:42:52.43	22.05	7.62	-30.1	-34.0	9.1	2.23e-02	0	40	0	18874368	20	5634
2026-01-12 23:42:53.44	22.10	7.70	-30.0	-33.8	9.3	2.01e-02	0	40	0	22020096	20	5549
2026-01-12 23:42:54.45	22.14	7.77	-30.0	-33.7	9.3	1.77e-02	0	40	0	25165824	20	5515
2026-01-12 23:42:55.45	22.18	7.85	-30.0	-33.8	9.3	1.79e-02	0	40	0	28311552	20	5550
2026-01-12 23:42:56.46	22.22	7.93	-30.1	-34.0	9.1	2.03e-02	0	40	0	31457280	20	5654
2026-01-12 23:42:57.46	22.26	8.00	-30.2	-34.2	9.0	3.37e-02	0	40	0	34603008	20	5735
2026-01-12 23:42:58.46	22.30	8.08	-29.8	-33.1	9.8	1.20e-02	0	40	0	37748736	20	5268
2026-01-12 23:42:59.47	22.34	8.16	-29.4	-32.4	10.7	4.19e-03	0	40	0	40894464	19	5068
2026-01-12 23:43:00.47	22.38	8.24	-29.0	-31.7	11.5	1.10e-03	0	40	0	44040192	18	4924
2026-01-12 23:43:01.48	22.43	8.32	-28.6	-31.3	12.1	3.55e-04	0	40	0	47185920	17	4887
2026-01-12 23:43:02.48	22.47	8.40	-28.4	-30.7	12.4	1.93e-04	0	40	0	49283072	17	4701
2026-01-12 23:43:03.49	22.51	8.48	-28.1	-30.5	12.8	6.63e-05	0	40	0	52428800	16	4745
2026-01-12 23:43:04.50	22.55	8.55	-28.1	-30.4	13.0	3.35e-05	0	40	0	56623104	16	4691
2026-01-12 23:43:05.51	22.60	8.63	-28.0	-30.2	13.1	3.05e-05	0	40	0	59768832	16	4637
2026-01-12 23:43:06.51	22.64	8.71	-27.8	-30.3	13.1	2.89e-05	0	40	0	62914560	15	4788
2026-01-12 23:43:07.51	22.68	8.79	-27.8	-30.2	13.2	1.98e-05	0	40	0	66060288	15	4766
2026-01-12 23:43:08.52	22.72	8.87	-27.9	-30.4	13.1	2.51e-05	0	40	0	69206016	15	4823
2026-01-12 23:43:09.53	22.77	8.96	-27.8	-30.2	13.2	1.90e-05	0	40	0	71303168	15	4752
2026-01-12 23:43:10.54	22.81	9.04	-27.9	-30.5	13.0	3.58e-05	0	40	0	74448896	15	4855
2026-01-12 23:43:11.55	22.86	9.12	-27.8	-30.2	13.2	2.82e-05	0	40	0	78643200	15	4763
2026-01-12 23:43:12.55	22.90	9.20	-28.0	-30.6	13.0	3.35e-05	0	40	0	81788928	15	4902
2026-01-12 23:43:13.55	22.94	9.28	-28.1	-30.4	13.0	4.80e-05	0	40	0	84934656	16	4702
2026-01-12 23:43:14.55	22.99	9.36	-28.0	-30.2	13.1	2.89e-05	0	40	0	88080384	16	4630
2026-01-12 23:43:15.56	23.03	9.44	-27.9	-30.4	13.1	3.58e-05	0	40	0	91226112	15	4825
2026-01-12 23:43:16.57	23.08	9.53	-27.8	-30.1	13.3	1.75e-05	0	40	0	94371840	15	4736
2026-01-12 23:43:17.57	23.12	9.61	-27.7	-30.0	13.4	1.90e-05	0	40	0	96468992	15	4691
2026-01-12 23:43:18.57	23.17	9.69	-27.7	-30.0	13.4	1.37e-05	0	41	0	99614720	15	4686
2026-01-12 23:43:19.58	23.22	9.77	-27.7	-29.9	13.4	1.60e-05	0	40	0	102760448	15	4676
2026-01-12 23:43:20.58	23.26	9.86	-27.8	-30.3	13.2	1.52e-05	0	40	0	105906176	15	4772
2026-01-12 23:43:21.59	23.31	9.94	-27.8	-30.2	13.2	3.20e-05	0	41	0	109051904	15	4757
2026-01-12 23:43:22.60	23.36	10.03	-27.6	-29.8	13.5	1.75e-05	0	40	0	113246208	15	4636
2026-01-12 23:43:23.61	23.40	10.11	-27.7	-30.1	13.4	1.75e-05	0	40	0	116391936	15	4706
2026-01-12 23:43:24.61	23.45	10.19	-27.6	-29.7	13.6	8.30e-06	0	40	0	118489088	15	4602
2026-01-12 23:43:25.62	23.50	10.28	-27.6	-29.8	13.6	5.30e-06	0	41	0	121634816	15	4611
2026-01-12 23:43:26.62	23.54	10.36	-27.7	-30.0	13.4	1.22e-05	0	40	0	124780544	15	4684
2026-01-12 23:43:27.62	23.59	10.45	-27.7	-30.0	13.4	1.37e-05	0	41	0	127926272	15	4681
2026-01-12 23:43:28.63	23.64	10.53	-27.7	-29.9	13.5	9.90e-06	0	41	0	131072000	15	4669
2026-01-12 23:43:29.64	23.69	10.62	-26.8	-29.0	13.5	1.06e-05	0	41	0	134217728	15	4620
2026-01-12 23:43:30.65	23.74	10.71	-27.7	-29.9	13.5	6.10e-06	0	41	0	138412032	15	4659
2026-01-12 23:43:31.65	23.79	10.79	-27.6	-29.7	13.6	6.10e-06	0	41	0	141557760	15	4585
2026-01-12 23:43:32.66	23.83	10.88	-27.5	-29.4	13.8	5.45e-04	0	41	0	143654912	15	4512
2026-01-12 23:43:33.66	23.88	10.97	-27.4	-29.5	13.6	7.60e-06	0	41	0	146800640	15	4571
2026-01-12 23:43:34.66	23.93	11.05	-27.7	-30.0	13.5	7.60e-06	0	41	0	149946368	15	4687
2026-01-12 23:43:35.67	23.98	11.14	-27.6	-29.7	13.4	1.14e-05	0	41	0	153092096	15	4585
2026-01-12 23:43:36.67	24.03	11.23	-27.4	-29.2	13.9	2.20e-06	0	41	0	156237824	15	4446
2026-01-12 23:43:37.67	24.08	11.32	-27.1	-28.6	14.3	6.55e-04	0	41	0	159383552	15	4268
2026-01-12 23:43:38.68	24.13	11.40	-27.1	-29.1	14.4	1.43e-03	0	41	0	162529280	14	4507
2026-01-12 23:43:39.69	24.19	11.49	-27.2	-29.2	14.3	7.00e-07	0	41	0	165675008	14	4559
2026-01-12 23:43:40.69	24.24	11.58	-27.3	-29.4	14.2	1.50e-06	0	41	0	168820736	14	4599
2026-01-12 23:43:41.70	24.29	11.67	-27.3	-29.5	14.1	2.04e-03	0	41	0	171966464	14	4643
2026-01-12 23:43:42.71	24.34	11.76	-27.3	-29.5	14.1	7.00e-07	0	41	0	175112192	14	4639
2026-01-12 23:43:43.71	24.39	11.85	-27.2	-29.2	14.3	2.46e-03	0	41	0	178257920	14	4542
2026-01-12 23:43:44.72	24.44	11.94	-27.2	-29.1	14.4	3.11e-03	0	41	0	181403648	14	4520
2026-01-12 23:43:45.73	24.50	12.03	-27.1	-29.1	14.4	0.00e+00	0	41	0	184549376	14	4512
2026-01-12 23:43:46.74	24.55	12.13	-27.1	-29.0	14.4	2.33e-03	0	41	0	187695104	14	4483
2026-01-12 23:43:47.74	24.60	12.22	-27.3	-29.4	14.2	2.17e-03	0	41	0	190840832	14	4594
2026-01-12 23:43:48.75	24.66	12.31	-27.1	-29.1	14.4	4.45e-04	0	41	0	193986560	14	4514
2026-01-12 23:43:49.76	24.71	12.40	-27.1	-29.0	14.4	1.86e-03	0	41	0	197132288	14	4489
2026-01-12 23:43:50.77	24.77	12.49	-27.1	-29.0	14.5	2.46e-03	0	41	0	200278016	14	4474
2026-01-12 23:43:51.77	24.82	12.58	-27.2	-29.2	14.4	7.00e-07	0	41	0	203423744	14	4534
2026-01-12 23:43:52.78	24.88	12.68	-27.1	-29.0	14.5	1.63e-03	0	41	0	206569472	14	4469
2026-01-12 23:43:53.79	24.93	12.77	-27.1	-29.0	14.5	2.25e-03	0	41	0	209715200	14	4475
2026-01-12 23:43:54.79	24.99	12.87	-27.2	-29.3	14.3	4.16e-04	0	41	0	213909504	14	4570
2026-01-12 23:43:55.80	25.04	12.96	-27.2	-29.3	14.3	2.04e-03	0	41	0	216006656	14	4569
2026-01-12 23:43:56.81	25.10	13.05	-27.4	-29.6	14.1	4.69e-04	0	41	0	219152384	14	4675
2026-01-12 23:43:57.81	25.15	13.15	-27.3	-29.5	14.2	1.50e-06	0	41	0	222298112	14	4634
2026-01-12 23:43:58.82	25.21	13.24	-27.2	-29.3	14.3	1.50e-03	0	41	0	225443840	14	4558
2026-01-12 23:43:59.83	25.27	13.34	-27.1	-29.0	14.5	1.29e-03	0	41	0	228589568	14	4474
2026-01-12 23:44:00.83	25.33	13.43	-27.2	-29.1	14.4	5.20e-04	0	41	0	231735296	14	4516
2026-01-12 23:44:01.84	25.38	13.53	-27.1	-29.0	14.6	0.00e+00	0	41	0	234881024	14	4474
2026-01-12 23:44:02.85	25.44	13.63	-27.0	-28.7	14.7	7.00e-07	0	41	0	238026752	14	4392
2026-01-12 23:44:03.86	25.50	13.72	-27.0	-28.6	14.7	7.00e-07	0	41	0	241172480	14	4373
2026-01-12 23:44:04.87	25.56	13.82	-26.9	-28.5	14.8	3.78e-04	0	41	0	244318208	14	4336
2026-01-12 23:44:05.87	25.62	13.92	-27.0	-28.7	14.7	6.89e-04	0	41	0	247463936	14	4388
2026-01-12 23:44:06.88	25.68	14.02	-27.0	-28.6	14.7	6.91e-04	0	41	0	250609664	14	4367
2026-01-12 23:44:07.88	25.74	14.12	-26.9	-28.4	14.8	0.00e+00	0	41	0	253755392	14	4313
2026-01-12 23:44:08.89	25.80	14.21	-26.9	-29.0	14.8	0.00e+00	0	41	0	256901120	13	4577
2026-01-12 23:44:09.89	25.86	14.31	-26.8	-28.8	15.0	0.00e+00	0	41	0	261095424	13	4521
2026-01-12 23:44:10.90	25.92	14.41	-26.9	-29.0	14.9	0.00e+00	0	41	0	263192576	13	4573
2026-01-12 23:44:11.90	25.98	14.51	-26.8	-28.9	14.9	7.12e-04	0	41	0	266338304	13	4552
2026-01-12 23:44:12.90	26.04	14.61	-26.9	-29.1	14.8	0.00e+00	0	41	0	269484032	13	4607
2026-01-12 23:44:13.90	26.11	14.71	-26.9	-29.1	14.8	0.00e+00	0	41	0	272629760	13	4600
2026-01-12 23:44:14.91	26.17	14.81	-27.0	-28.8	14.7	7.00e-07	0	41	0	275775488	14	4427
2026-01-12 23:44:15.91	26.23	14.91	-27.2	-29.2	14.5	0.00e+00	0	41	0	278921216	14	4535
2026-01-12 23:44:16.92	26.30	15.02	-27.1	-29.0	14.6	7.00e-07	0	41	0	282066944	14	4482
2026-01-12 23:44:17.92	26.36	15.12	-27.1	-28.9	14.6	7.00e-07	0	41	0	285212672	14	4454
2026-01-12 23:44:18.93	26.42	15.22	-27.2	-29.2	14.5	1.50e-06	0	41	0	288358400	14	4527
2026-01-12 23:44:19.94	26.49	15.32	-27.2	-29.2	14.5	0.00e+00	0	41	0	291504128	14	4545
2026-01-12 23:44:20.95	26.55	15.43	-27.3	-29.3	14.4	0.00e+00	0	41	0	294649856	14	4577
2026-01-12 23:44:21.96	26.62	15.53	-27.4	-29.6	14.3	0.00e+00	0	41	0	297795584	14	4641
2026-01-12 23:44:22.97	26.69	15.64	-27.3	-29.3	14.4	0.00e+00	0	41	0	300941312	14	4569
2026-01-12 23:44:23.98	26.75	15.74	-27.2	-29.3	14.5	0.00e+00	0	41	0	304087040	14	4554
2026-01-12 23:44:24.98	26.82	15.85	-27.2	-29.2	14.5	7.00e-07	0	41	0	307232768	14	4526
2026-01-12 23:44:25.98	26.89	15.95	-27.2	-29.1	14.6	0.00e+00	0	41	0	310378496	14	4503
2026-01-12 23:44:26.98	26.95	16.06	-27.1	-29.0	14.6	7.00e-07	0	41	0	313524224	14	4483
2026-01-12 23:44:27.99	27.02	16.16	-27.3	-29.5	14.4	7.00e-07	0	41	0	316669952	14	4622
2026-01-12 23:44:28.99	27.09	16.27	-27.3	-29.4	14.4	0.00e+00	0	41	0	319815680	14	4586
2026-01-12 23:44:30.00	27.16	16.38	-27.2	-29.1	14.6	2.20e-06	0	41	0	322961408	14	4489
2026-01-12 23:44:31.01	27.23	16.48	-27.2	-29.2	14.6	1.50e-06	0	41	0	326107136	14	4516
2026-01-12 23:44:32.01	27.30	16.59	-27.2	-29.1	14.6	7.00e-07	0	41	0	329252864	14	4508
2026-01-12 23:44:33.03	27.37	16.70	-27.2	-29.2	14.6	0.00e+00	0	41	0	332398592	14	4522
2026-01-12 23:44:34.03	27.44	16.81	-27.2	-29.1	14.6	0.00e+00	0	41	0	335544320	14	4504
2026-01-12 23:44:35.03	27.51	16.92	-27.2	-29.2	14.6	7.00e-07	0	41	0	338690048	14	4533
2026-01-12 23:44:36.04	27.58	17.03	-27.2	-29.1	14.6	0.00e+00	0	41	0	341835776	14	4501
2026-01-12 23:44:37.05	27.66	17.14	-27.3	-29.3	14.5	7.00e-07	0	42	0	344981504	14	4561
2026-01-12 23:44:38.06	27.73	17.25	-27.4	-29.5	14.4	7.00e-07	0	41	0	348127232	14	4626
2026-01-12 23:44:39.06	27.80	17.36	-27.1	-29.0	14.7	0.00e+00	0	42	0	351272960	14	4469
2026-01-12 23:44:40.07	27.88	17.47	-27.0	-28.6	14.9	7.00e-07	0	41	0	354418688	14	4362
2026-01-12 23:44:41.08	27.95	17.58	-26.9	-28.4	15.0	0.00e+00	0	42	0	357564416	14	4307
2026-01-12 23:44:42.08	28.03	17.70	-26.9	-28.5	15.0	0.00e+00	0	41	0	360710144	14	4310
2026-01-12 23:44:43.09	28.10	17.81	-26.8	-28.7	15.1	0.00e+00	0	41	0	363855872	13	4492
2026-01-12 23:44:44.10	28.18	17.92	-26.9	-28.9	15.0	1.50e-06	0	41	0	367001600	13	4550
2026-01-12 23:44:45.11	28.26	18.04	-26.7	-28.6	15.2	0.00e+00	0	41	0	370147328	13	4450
2026-01-12 23:44:46.12	28.33	18.15	-26.8	-28.7	15.2	0.00e+00	0	42	0	373293056	13	4484
2026-01-12 23:44:47.12	28.41	18.27	-26.7	-28.4	15.3	0.00e+00	0	42	0	376438784	13	4404
2026-01-12 23:44:48.13	28.49	18.38	-26.8	-28.7	15.1	0.00e+00	0	41	0	379584512	13	4496
2026-01-12 23:44:49.14	28.57	18.50	-26.7	-28.6	15.3	0.00e+00	0	41	0	382730240	13	4455
2026-01-12 23:44:50.15	28.65	18.62	-26.8	-28.6	15.2	0.00e+00	0	41	0	385875968	13	4472
2026-01-12 23:44:51.16	28.73	18.74	-26.7	-28.4	15.3	0.00e+00	0	42	0	389021696	13	4409
2026-01-12 23:44:52.16	28.81	18.85	-26.7	-28.5	15.3	0.00e+00	0	41	0	392167424	13	4434
2026-01-12 23:44:53.17	28.89	18.97	-26.8	-28.7	15.2	1.48e-03	0	42	0	395313152	13	4484
2026-01-12 23:44:54.17	28.97	19.09	-26.6	-28.2	15.4	0.00e+00	0	41	0	398458880	13	4348
2026-01-12 23:44:55.17	29.05	19.21	-26.5	-28.4	15.6	0.00e+00	0	41	0	401604608	12	4523
2026-01-12 23:44:56.18	29.14	19.33	-26.5	-28.1	15.5	0.00e+00	0	41	0	404750336	13	4304
2026-01-12 23:44:57.19	29.22	19.45	-26.5	-27.9	15.6	0.00e+00	0	41	0	407896064	13	4272
2026-01-12 23:44:58.19	29.30	19.57	-26.4	-27.9	15.7	6.81e-04	0	41	0	411041792	13	4258
2026-01-12 23:44:59.19	29.39	19.69	-26.5	-28.0	15.3	6.77e-04	0	41	0	414187520	13	4288
2026-01-12 23:45:00.19	29.47	19.81	-26.4	-27.8	15.7	0.00e+00	0	41	0	417333248	13	4241
2026-01-12 23:45:01.20	29.56	19.93	-26.5	-28.4	15.7	0.00e+00	0	41	0	420478976	12	4526
2026-01-12 23:45:02.20	29.64	20.05	-26.5	-28.0	15.6	0.00e+00	0	41	0	423624704	13	4295
2026-01-12 23:45:03.21	29.73	20.18	-26.5	-28.1	15.6	0.00e+00	0	41	0	426770432	13	4306
2026-01-12 23:45:04.22	29.82	20.30	-26.5	-28.1	15.5	3.79e-04	0	42	0	429916160	13	4318
2026-01-12 23:45:05.22	29.91	20.43	-26.5	-28.0	15.6	7.27e-04	0	42	0	433061888	13	4300
2026-01-12 23:45:06.23	30.00	20.55	-26.6	-28.3	15.5	0.00e+00	0	42	0	436207616	13	4365
2026-01-12 23:45:07.23	30.09	20.68	-26.6	-28.4	15.4	1.98e-05	0	42	0	439353344	13	4389
2026-01-12 23:45:08.23	30.18	20.80	-26.4	-27.9	15.7	3.80e-06	0	42	0	442499072	13	4249
2026-01-12 23:45:09.24	30.27	20.93	-26.4	-27.8	15.8	0.00e+00	0	42	0	445644800	13	4225
2026-01-12 23:45:10.25	30.36	21.06	-26.4	-27.9	15.7	8.30e-06	0	41	0	448790528	13	4252
2026-01-12 23:45:11.25	30.46	21.18	-26.3	-28.1	15.9	3.92e-04	0	41	0	451936256	12	4431
2026-01-12 23:45:12.26	30.55	21.31	-26.3	-28.1	15.9	3.59e-04	0	42	0	455081984	12	4413
2026-01-12 23:45:13.26	30.64	21.44	-26.3	-28.1	15.9	8.69e-05	0	41	0	458227712	12	4427
2026-01-12 23:45:14.27	30.74	21.57	-26.4	-28.2	15.8	7.78e-05	0	42	0	461373440	12	4457
2026-01-12 23:45:15.28	30.84	21.70	-26.3	-28.0	15.9	2.87e-04	0	42	0	464519168	12	4404
2026-01-12 23:45:16.29	30.93	21.83	-26.2	-27.9	16.0	6.35e-04	0	42	0	467664896	12	4358
2026-01-12 23:45:17.29	31.03	21.96	-26.2	-27.9	16.0	2.59e-04	0	42	0	470810624	12	4376
2026-01-12 23:45:18.30	31.13	22.10	-26.2	-27.9	16.0	2.80e-04	0	42	0	473956352	12	4359
2026-01-12 23:45:19.31	31.23	22.23	-26.2	-27.9	16.0	1.09e-03	0	41	0	477102080	12	4356
2026-01-12 23:45:20.32	31.33	22.36	-26.2	-27.8	16.1	1.34e-03	0	42	0	480247808	12	4341
2026-01-12 23:45:21.32	31.43	22.50	-26.2	-27.9	16.0	2.68e-04	0	42	0	483393536	12	4368
2026-01-12 23:45:22.33	31.53	22.63	-26.0	-27.5	16.2	0.00e+00	0	42	0	486539264	12	4249
2026-01-12 23:45:23.34	31.63	22.77	-26.0	-27.4	16.3	2.62e-04	0	41	0	489684992	12	4233
2026-01-12 23:45:24.34	31.74	22.90	-26.0	-27.4	16.3	2.52e-04	0	42	0	492830720	12	4220
2026-01-12 23:45:25.35	31.84	23.04	-26.1	-27.5	16.2	0.00e+00	0	42	0	495976448	12	4259
2026-01-12 23:45:26.36	31.95	23.18	-26.0	-27.3	16.3	6.87e-04	0	41	0	499122176	12	4210
2026-01-12 23:45:27.36	32.05	23.31	-25.9	-27.1	16.4	1.81e-04	0	42	0	502267904	12	4160
2026-01-12 23:45:28.37	32.16	23.45	-26.0	-27.4	16.3	0.00e+00	0	42	0	505413632	12	4237
2026-01-12 23:45:29.37	32.27	23.59	-26.2	-27.8	16.1	1.82e-04	0	42	0	508559360	12	4351
2026-01-12 23:45:30.38	32.38	23.73	-26.3	-28.1	15.9	0.00e+00	0	42	0	511705088	12	4417
2026-01-12 23:45:31.39	32.49	23.87	-26.0	-27.5	16.3	0.00e+00	0	42	0	514850816	12	4247
2026-01-12 23:45:32.40	32.60	24.01	-25.8	-26.9	16.6	1.88e-04	0	42	0	517996544	12	4102
2026-01-12 23:45:33.40	32.71	24.15	-25.7	-26.7	16.6	2.20e-04	0	42	0	521142272	12	4058
2026-01-12 23:45:34.41	32.82	24.30	-25.8	-26.9	16.6	0.00e+00	0	41	0	524288000	12	4102
2026-01-12 23:45:35.42	32.93	24.44	-25.7	-26.7	16.7	0.00e+00	0	42	0	527433728	12	4042
2026-01-12 23:45:36.43	33.05	24.58	-25.5	-26.4	16.9	0.00e+00	0	42	0	530579456	12	3967
2026-01-12 23:45:37.43	33.16	24.73	-25.6	-26.5	16.8	0.00e+00	0	42	0	533725184	12	3994
2026-01-12 23:45:38.44	33.28	24.87	-25.6	-26.5	16.8	2.14e-04	0	42	0	536870912	12	3985
2026-01-12 23:45:39.45	33.40	25.02	-25.6	-26.6	16.8	0.00e+00	0	41	0	540016640	12	4015
2026-01-12 23:45:40.46	33.52	25.16	-25.7	-27.3	16.7	0.00e+00	0	41	0	543162368	11	4307
2026-01-12 23:45:41.47	33.64	25.31	-25.8	-27.4	16.7	0.00e+00	0	41	0	546308096	11	4341
2026-01-12 23:45:42.47	33.76	25.46	-25.8	-27.4	16.7	0.00e+00	0	41	0	549453824	11	4323
2026-01-12 23:45:43.48	33.88	25.61	-25.8	-27.5	16.6	0.00e+00	0	41	0	552599552	11	4376
2026-01-12 23:45:44.48	34.00	25.76	-25.8	-27.5	16.6	0.00e+00	0	42	0	555745280	11	4372
2026-01-12 23:45:45.49	34.13	25.91	-25.9	-27.7	16.6	0.00e+00	0	42	0	558891008	11	4413
2026-01-12 23:45:46.49	34.25	26.06	-25.9	-27.6	16.6	0.00e+00	0	42	0	562036736	11	4406
2026-01-12 23:45:47.50	34.38	26.21	-25.9	-27.7	16.5	0.00e+00	0	42	0	565182464	11	4430
2026-01-12 23:45:48.51	34.51	26.36	-25.9	-27.3	16.5	0.00e+00	0	42	0	568328192	12	4192
2026-01-12 23:45:49.52	34.64	26.51	-26.0	-27.3	16.4	0.00e+00	0	42	0	571473920	12	4204
2026-01-12 23:45:50.53	34.77	26.67	-26.1	-27.5	16.3	0.00e+00	0	42	0	574619648	12	4252
2026-01-12 23:45:51.54	34.90	26.82	-26.1	-27.6	16.3	0.00e+00	0	42	0	577765376	12	4269
2026-01-12 23:45:52.55	35.03	26.98	-26.1	-27.7	16.2	0.00e+00	0	42	0	580911104	12	4311
2026-01-12 23:45:53.56	35.17	27.13	-26.2	-27.9	16.1	0.00e+00	0	42	0	584056832	12	4370
2026-01-12 23:45:54.57	35.30	27.29	-26.3	-28.0	16.1	0.00e+00	0	42	0	587202560	12	4381
2026-01-12 23:45:55.58	35.44	27.45	-26.4	-28.2	16.0	0.00e+00	0	42	0	590348288	12	4433
2026-01-12 23:45:56.58	35.58	27.61	-26.5	-28.4	15.9	0.00e+00	0	42	0	593494016	12	4495
2026-01-12 23:45:57.59	35.72	27.77	-26.4	-28.3	16.0	0.00e+00	0	42	0	596639744	12	4469
2026-01-12 23:45:58.60	35.86	27.93	-26.5	-28.1	15.8	0.00e+00	0	42	0	599785472	13	4290
2026-01-12 23:45:59.60	36.00	28.08	-26.8	-28.6	15.5	0.00e+00	0	42	0	602931200	13	4455
2026-01-12 23:46:00.60	36.14	28.24	-26.8	-28.6	15.5	0.00e+00	0	42	0	606076928	13	4447
2026-01-12 23:46:01.61	36.28	28.41	-26.9	-29.0	15.3	0.00e+00	0	42	0	609222656	13	4552
2026-01-12 23:46:02.62	36.43	28.57	-27.2	-29.1	15.0	0.00e+00	0	42	0	612368384	14	4462
2026-01-12 23:46:03.62	36.58	28.73	-27.2	-29.2	14.9	0.00e+00	0	42	0	615514112	14	4489
2026-01-12 23:46:04.63	36.73	28.90	-27.3	-29.4	14.8	0.00e+00	0	42	0	618659840	14	4556
2026-01-12 23:46:05.64	36.88	29.06	-27.4	-29.5	14.7	0.00e+00	0	42	0	621805568	14	4600
2026-01-12 23:46:06.65	37.03	29.23	-27.4	-29.5	14.7	7.00e-07	0	42	0	624951296	14	4581
2026-01-12 23:46:07.64	37.18	29.39	-27.5	-29.2	14.6	0.00e+00	0	42	0	628097024	15	4393
2026-01-12 23:46:08.65	37.34	29.56	-27.7	-29.8	14.2	7.00e-07	0	42	0	631242752	15	4579
2026-01-12 23:46:09.65	37.49	29.73	-27.7	-29.7	14.3	1.65e-04	0	42	0	634388480	15	4523
2026-01-12 23:46:10.66	37.65	29.89	-27.4	-29.0	14.7	0.00e+00	0	42	0	637534208	15	4337
2026-01-12 23:46:11.66	37.81	30.06	-27.2	-28.5	15.1	0.00e+00	0	42	0	640679936	15	4186
2026-01-12 23:46:12.66	37.97	30.23	-27.1	-28.2	15.2	7.00e-07	0	42	0	643825664	15	4127
2026-01-12 23:46:13.67	38.13	30.40	-27.2	-28.6	15.0	0.00e+00	0	42	0	646971392	15	4217
2026-01-12 23:46:14.67	38.29	30.57	-27.2	-28.5	15.1	0.00e+00	0	42	0	650117120	15	4184
2026-01-12 23:46:15.67	38.46	30.74	-27.3	-28.8	14.9	0.00e+00	0	42	0	653262848	15	4295
2026-01-12 23:46:16.67	38.63	30.92	-27.2	-28.6	15.0	7.00e-07	0	42	0	656408576	15	4220
2026-01-12 23:46:17.68	38.80	31.09	-26.9	-27.8	15.4	0.00e+00	0	42	0	659554304	15	4018
2026-01-12 23:46:18.68	38.97	31.26	-26.8	-28.1	15.6	1.50e-06	0	42	0	662700032	14	4183
2026-01-12 23:46:19.69	39.14	31.44	-26.8	-28.1	15.6	5.56e-05	0	42	0	665845760	14	4193
2026-01-12 23:46:20.69	39.32	31.62	-26.7	-27.9	15.7	0.00e+00	0	42	0	668991488	14	4139
2026-01-12 23:46:21.70	39.49	31.79	-26.6	-27.7	15.8	0.00e+00	0	42	0	672137216	14	4094
2026-01-12 23:46:22.70	39.67	31.97	-26.7	-27.8	15.7	0.00e+00	0	42	0	675282944	14	4123
2026-01-12 23:46:23.70	39.85	32.15	-26.6	-27.7	15.8	0.00e+00	0	42	0	678428672	14	4092
2026-01-12 23:46:24.70	40.03	32.33	-26.4	-27.3	16.0	7.70e-05	0	42	0	681574400	14	3984
2026-01-12 23:46:25.71	40.22	32.51	-26.5	-27.4	16.0	1.84e-04	0	42	0	684720128	14	3992
2026-01-12 23:46:26.71	40.40	32.69	-26.4	-27.1	16.1	0.00e+00	0	42	0	687865856	14	3934
2026-01-12 23:46:27.71	40.59	32.87	-26.6	-27.6	15.9	0.00e+00	0	42	0	691011584	14	4053
2026-01-12 23:46:28.72	40.78	33.05	-26.7	-27.8	15.7	7.40e-05	0	42	0	694157312	14	4115
2026-01-12 23:46:29.72	40.98	33.23	-26.9	-28.3	15.5	0.00e+00	0	42	0	697303040	14	4251
2026-01-12 23:46:30.73	41.17	33.42	-27.1	-28.8	15.2	0.00e+00	0	42	0	700448768	14	4368
2026-01-12 23:46:31.73	41.37	33.60	-27.2	-29.1	15.1	0.00e+00	0	42	0	703594496	14	4457
2026-01-12 23:46:32.74	41.57	33.79	-27.3	-29.2	15.0	0.00e+00	0	42	0	706740224	14	4498
2026-01-12 23:46:33.75	41.77	33.97	-27.4	-29.5	14.8	0.00e+00	0	42	0	709885952	14	4587
2026-01-12 23:46:34.76	41.98	34.16	-27.4	-29.6	14.8	0.00e+00	0	42	0	713031680	14	4605
2026-01-12 23:46:35.76	42.18	34.35	-27.5	-29.2	14.7	0.00e+00	0	42	0	716177408	15	4380
2026-01-12 23:46:36.76	42.39	34.53	-27.6	-29.5	14.5	5.64e-05	0	42	0	719323136	15	4484
2026-01-12 23:46:37.77	42.60	34.72	-27.6	-29.5	14.5	8.92e-05	0	42	0	722468864	15	4480
2026-01-12 23:46:38.78	42.81	34.92	-27.7	-29.6	14.5	0.00e+00	0	42	0	725614592	15	4502
2026-01-12 23:46:39.78	43.03	35.10	-27.8	-29.8	14.3	1.18e-04	0	42	0	728760320	15	4574
2026-01-12 23:46:40.79	43.25	35.30	-27.9	-30.1	14.2	1.75e-04	0	42	0	731906048	15	4647
2026-01-12 23:46:41.80	43.47	35.49	-28.1	-30.2	14.0	2.20e-06	0	42	0	735051776	16	4559
2026-01-12 23:46:42.80	43.69	35.68	-28.3	-30.6	13.9	7.00e-07	0	42	0	738197504	16	4681
2026-01-12 23:46:43.81	43.92	35.88	-28.3	-30.6	13.8	3.00e-06	0	42	0	741343232	16	4687
2026-01-12 23:46:44.81	44.15	36.07	-28.6	-30.8	13.4	1.06e-05	0	42	0	744488960	17	4627
2026-01-12 23:46:45.82	44.38	36.26	-28.5	-30.5	13.6	5.23e-04	0	42	0	747634688	17	4538
2026-01-12 23:46:46.83	44.61	36.46	-28.3	-30.1	13.8	6.10e-04	0	42	0	750780416	17	4436
2026-01-12 23:46:47.83	44.85	36.65	-28.4	-30.4	13.7	6.10e-06	0	42	0	753926144	17	4504
2026-01-12 23:46:48.83	45.09	36.85	-28.3	-30.6	13.8	7.60e-06	0	42	0	757071872	16	4696
2026-01-12 23:46:49.84	45.33	37.05	-28.3	-30.5	13.9	6.10e-06	0	42	0	760217600	16	4663
2026-01-12 23:46:50.85	45.58	37.25	-28.5	-31.0	13.6	7.60e-06	0	42	0	763363328	16	4795
2026-01-12 23:46:51.86	45.83	37.45	-28.3	-30.1	13.8	3.00e-06	0	42	0	766509056	17	4421
2026-01-12 23:46:52.86	46.08	37.64	-28.2	-29.9	13.9	1.50e-06	0	42	0	769654784	17	4370
2026-01-12 23:46:53.87	46.33	37.85	-28.1	-29.5	14.2	2.20e-06	0	42	0	772800512	17	4251
2026-01-12 23:46:54.87	46.59	38.04	-28.1	-29.5	14.2	2.20e-06	0	42	0	775946240	17	4254
2026-01-12 23:46:55.88	46.85	38.25	-28.3	-30.2	13.8	2.20e-06	0	42	0	779091968	17	4441
2026-01-12 23:46:56.89	47.12	38.45	-28.5	-30.6	13.6	9.10e-06	0	42	0	782237696	17	4579
2026-01-12 23:46:57.89	47.38	38.65	-28.5	-30.6	13.6	1.06e-05	0	42	0	785383424	17	4579
2026-01-12 23:46:58.90	47.65	38.85	-28.7	-31.0	13.3	1.83e-05	0	42	0	788529152	17	4693
2026-01-12 23:46:59.91	47.93	39.06	-28.7	-31.1	13.2	2.13e-05	0	42	0	791674880	17	4744
2026-01-12 23:47:00.91	48.20	39.26	-28.6	-30.8	13.4	1.29e-05	0	42	0	794820608	17	4640
2026-01-12 23:47:01.92	48.49	39.46	-28.6	-30.7	13.5	6.80e-06	0	42	0	797966336	17	4608
2026-01-12 23:47:02.92	48.77	39.67	-28.7	-31.0	13.3	1.22e-05	0	42	0	801112064	17	4701
2026-01-12 23:47:03.93	49.06	39.87	-28.6	-30.7	13.5	1.22e-05	0	42	0	804257792	17	4610
2026-01-12 23:47:04.93	49.35	40.08	-28.8	-31.3	13.2	1.06e-05	0	42	0	807403520	17	4796
2026-01-12 23:47:05.93	49.64	40.28	-28.7	-31.0	13.4	1.29e-05	0	42	0	810549248	17	4689
2026-01-12 23:47:06.94	49.94	40.49	-28.5	-30.7	13.6	7.60e-06	0	42	0	813694976	17	4588
2026-01-12 23:47:07.95	50.24	40.70	-28.5	-30.6	13.6	9.90e-06	0	42	0	816840704	17	4572
2026-01-12 23:47:08.95	50.55	40.90	-28.5	-30.6	13.6	7.60e-06	0	42	0	819986432	17	4560
2026-01-12 23:47:09.95	50.86	41.11	-28.7	-30.9	13.4	1.06e-05	0	42	0	823132160	17	4662
2026-01-12 23:47:10.96	51.17	41.31	-28.7	-30.9	13.5	1.90e-05	0	42	0	826277888	17	4663
2026-01-12 23:47:11.97	51.49	41.52	-28.7	-31.0	13.4	9.10e-06	0	42	0	829423616	17	4698
2026-01-12 23:47:12.97	51.81	41.73	-28.8	-31.4	13.1	1.98e-05	0	42	0	832569344	17	4815
2026-01-12 23:47:13.98	52.14	41.94	-28.6	-30.7	13.6	3.80e-06	0	42	0	835715072	17	4588
2026-01-12 23:47:14.98	52.47	42.15	-28.5	-30.5	13.7	8.30e-06	0	42	0	838860800	17	4546
2026-01-12 23:47:15.98	52.80	42.35	-28.6	-30.7	13.6	5.30e-06	0	42	0	842006528	17	4585
2026-01-12 23:47:16.98	53.14	42.56	-28.8	-31.3	13.2	1.44e-05	0	42	0	845152256	17	4788
2026-01-12 23:47:17.99	53.48	42.77	-28.9	-31.5	13.1	2.21e-05	0	42	0	848297984	17	4861
2026-01-12 23:47:19.00	53.83	42.98	-28.8	-31.3	13.2	2.05e-05	0	42	0	851443712	17	4778
2026-01-12 23:47:20.01	54.19	43.19	-29.0	-31.6	13.1	4.27e-05	0	42	0	854589440	17	4888
2026-01-12 23:47:21.01	54.54	43.39	-29.0	-31.3	13.0	3.12e-05	0	42	0	857735168	18	4657
2026-01-12 23:47:22.02	54.90	43.60	-29.2	-31.6	12.7	6.94e-05	0	42	0	860880896	18	4784
2026-01-12 23:47:23.03	55.27	43.81	-29.1	-31.4	12.9	5.11e-05	0	42	0	864026624	18	4720
2026-01-12 23:47:24.04	55.64	44.02	-29.1	-31.4	12.9	5.11e-05	0	42	0	867172352	18	4693
2026-01-12 23:47:25.04	56.02	44.23	-29.0	-31.1	13.1	3.50e-05	0	42	0	870318080	18	4611
2026-01-12 23:47:26.04	56.39	44.43	-28.9	-30.9	13.2	2.36e-05	0	42	0	873463808	18	4556
2026-01-12 23:47:27.04	56.78	44.64	-29.0	-31.1	13.2	3.05e-05	0	42	0	876609536	18	4594
2026-01-12 23:47:28.05	57.17	44.85	-28.7	-30.5	13.4	1.06e-05	0	42	0	879755264	18	4406
2026-01-12 23:47:29.05	57.56	45.05	-28.7	-30.4	13.5	1.06e-05	0	42	0	882900992	18	4390
2026-01-12 23:47:30.05	57.96	45.26	-28.8	-30.8	13.2	2.21e-05	0	42	0	886046720	18	4519
2026-01-12 23:47:31.06	58.37	45.46	-28.9	-31.1	13.1	2.74e-05	0	42	0	889192448	18	4600
2026-01-12 23:47:32.07	58.78	45.67	-29.0	-31.3	13.0	3.73e-05	0	42	0	892338176	18	4674
2026-01-12 23:47:33.07	59.20	45.87	-29.2	-31.6	12.8	5.41e-05	0	42	0	895483904	18	4761
2026-01-12 23:47:34.08	59.62	46.08	-29.0	-31.1	13.1	3.50e-05	0	42	0	898629632	18	4603
2026-01-12 23:47:35.08	60.04	46.28	-28.9	-30.9	13.2	2.28e-05	0	42	0	901775360	18	4554
2026-01-12 23:47:36.09	60.48	46.48	-28.9	-31.1	13.2	2.44e-05	0	42	0	904921088	18	4593
2026-01-12 23:47:37.10	60.92	46.69	-28.9	-30.9	13.2	1.67e-05	0	42	0	908066816	18	4545
2026-01-12 23:47:38.10	61.36	46.89	-29.0	-31.2	13.1	2.74e-05	0	42	0	911212544	18	4634
2026-01-12 23:47:39.11	61.81	47.09	-29.0	-31.3	13.0	4.11e-05	0	42	0	914358272	18	4678
2026-01-12 23:47:40.12	62.27	47.29	-29.1	-31.5	12.9	6.48e-05	0	42	0	917504000	18	4733
2026-01-12 23:47:41.12	62.73	47.49	-29.0	-31.2	13.1	3.73e-05	0	42	0	920649728	18	4642
2026-01-12 23:47:42.13	63.20	47.68	-29.0	-31.3	13.0	3.05e-05	0	42	0	923795456	18	4682
2026-01-12 23:47:43.14	63.67	47.88	-28.8	-30.8	13.3	2.13e-05	0	42	0	926941184	18	4521
2026-01-12 23:47:44.14	64.15	48.07	-28.7	-30.5	13.5	1.06e-05	0	42	0	930086912	18	4407
2026-01-12 23:47:45.14	64.63	48.27	-28.6	-30.9	13.5	8.68e-04	0	42	0	933232640	17	4643
2026-01-12 23:47:46.15	65.12	48.46	-28.9	-31.5	13.2	5.75e-04	0	42	0	936378368	17	4852
2026-01-12 23:47:47.15	65.61	48.65	-28.6	-30.7	13.6	3.80e-06	0	42	0	939524096	17	4603
2026-01-12 23:47:48.16	66.12	48.84	-28.5	-30.5	13.8	4.50e-06	0	42	0	942669824	17	4528
2026-01-12 23:47:49.17	66.63	49.03	-28.9	-31.5	13.2	2.13e-05	0	42	0	945815552	17	4856
2026-01-12 23:47:50.18	67.15	49.21	-29.2	-31.6	12.9	4.95e-05	0	42	0	948961280	18	4767
2026-01-12 23:47:51.18	67.67	49.40	-29.3	-31.9	12.7	1.33e-04	0	42	0	952107008	18	4857
2026-01-12 23:47:52.19	68.20	49.58	-29.1	-31.4	13.0	4.65e-05	0	42	0	955252736	18	4698
2026-01-12 23:47:53.19	68.73	49.76	-28.6	-30.2	13.6	1.37e-05	0	42	0	958398464	18	4335
2026-01-12 23:47:54.20	69.27	49.94	-28.2	-29.7	14.2	7.00e-07	0	42	0	961544192	17	4288
2026-01-12 23:47:55.20	69.81	50.12	-28.1	-29.5	14.4	1.76e-04	0	42	0	964689920	17	4241
2026-01-12 23:47:56.21	70.37	50.29	-28.2	-29.8	14.2	2.20e-06	0	42	0	967835648	17	4320
2026-01-12 23:47:57.22	70.93	50.47	-28.0	-29.3	14.5	2.53e-04	0	42	0	970981376	17	4182
2026-01-12 23:47:58.23	71.50	50.64	-28.1	-29.5	14.3	1.29e-04	0	42	0	974127104	17	4242
2026-01-12 23:47:59.23	72.07	50.81	-28.0	-29.4	14.5	7.00e-07	0	42	0	977272832	17	4189
2026-01-12 23:48:00.24	72.65	50.97	-28.0	-29.4	14.5	1.02e-04	0	42	0	980418560	17	4199
2026-01-12 23:48:01.25	73.24	51.14	-28.2	-29.7	14.3	1.17e-04	0	42	0	983564288	17	4282
2026-01-12 23:48:02.25	73.82	51.30	-28.2	-29.8	14.3	7.00e-07	0	42	0	986710016	17	4304
2026-01-12 23:48:03.26	74.42	51.46	-28.1	-29.5	14.4	4.88e-05	0	42	0	989855744	17	4246
2026-01-12 23:48:04.26	75.03	51.61	-28.2	-29.8	14.2	7.00e-07	0	42	0	993001472	17	4326
2026-01-12 23:48:05.27	75.64	51.76	-28.4	-30.3	13.9	3.00e-06	0	42	0	996147200	17	4487
2026-01-12 23:48:06.28	76.26	51.91	-28.2	-29.7	14.3	4.50e-06	0	42	0	999292928	17	4306
2026-01-12 23:48:07.28	76.88	52.06	-28.1	-29.4	14.5	1.50e-06	0	42	0	1002438656	17	4214
2026-01-12 23:48:08.29	77.51	52.20	-28.0	-29.3	14.5	7.00e-07	0	42	0	1005584384	17	4165
2026-01-12 23:48:09.29	78.14	52.35	-28.3	-29.9	14.1	0.00e+00	0	42	0	1008730112	17	4358
2026-01-12 23:48:10.30	78.78	52.48	-28.3	-30.0	14.1	7.00e-07	0	42	0	1011875840	17	4372
2026-01-12 23:48:11.31	79.43	52.62	-28.2	-29.7	14.2	5.30e-06	0	42	0	1015021568	17	4306
2026-01-12 23:48:12.31	80.08	52.75	-27.9	-29.1	14.6	6.79e-05	0	42	0	1018167296	17	4124
2026-01-12 23:48:13.31	80.73	52.88	-27.8	-28.8	14.7	3.96e-05	0	42	0	1021313024	17	4054
2026-01-12 23:48:14.31	81.39	53.00	-28.1	-29.5	14.3	7.00e-07	0	42	0	1024458752	17	4233
2026-01-12 23:48:15.31	82.06	53.12	-28.5	-30.5	13.7	5.30e-06	0	42	0	1027604480	17	4525
2026-01-12 23:48:16.32	82.74	53.24	-28.6	-30.7	13.7	9.90e-06	0	42	0	1030750208	17	4589
2026-01-12 23:48:17.32	83.41	53.35	-28.0	-29.3	14.5	0.00e+00	0	42	0	1033895936	17	4178
2026-01-12 23:48:18.33	84.10	53.46	-27.6	-28.9	15.0	1.98e-05	0	42	0	1037041664	16	4157
2026-01-12 23:48:19.33	84.79	53.56	-27.7	-29.1	14.8	1.50e-06	0	42	0	1040187392	16	4230
2026-01-12 23:48:20.34	85.48	53.67	-27.9	-29.5	14.7	7.00e-07	0	42	0	1043333120	16	4355
2026-01-12 23:48:21.35	86.19	53.76	-27.5	-28.7	15.1	0.00e+00	0	42	0	1046478848	16	4111
2026-01-12 23:48:22.35	86.89	53.86	-27.0	-28.0	15.6	0.00e+00	0	42	0	1049624576	15	4039
2026-01-12 23:48:23.36	87.60	53.95	-27.2	-28.4	15.4	0.00e+00	0	42	0	1052770304	15	4158
2026-01-12 23:48:24.37	88.32	54.03	-27.4	-29.0	15.1	0.00e+00	0	42	0	1055916032	15	4330
2026-01-12 23:48:25.37	89.03	54.11	-27.5	-29.1	15.1	0.00e+00	0	42	0	1059061760	15	4343
2026-01-12 23:48:26.38	89.75	54.19	-27.4	-28.9	15.2	0.00e+00	0	42	0	1062207488	15	4286
2026-01-12 23:48:27.39	90.48	54.26	-27.5	-29.2	15.0	0.00e+00	0	42	0	1065353216	15	4381
2026-01-12 23:48:28.39	91.21	54.33	-27.5	-29.2	15.0	0.00e+00	0	42	0	1068498944	15	4382
2026-01-12 23:48:29.40	91.94	54.39	-27.6	-29.4	14.9	0.00e+00	0	42	0	1071644672	15	4427
2026-01-12 23:48:30.41	92.68	54.45	-27.4	-29.0	15.2	0.00e+00	0	42	0	1074790400	15	4305
2026-01-12 23:48:31.41	93.41	54.50	-27.1	-28.3	15.5	0.00e+00	0	42	0	1077936128	15	4128
2026-01-12 23:48:32.41	94.15	54.55	-27.0	-28.1	15.7	0.00e+00	0	42	0	1081081856	15	4063
2026-01-12 23:48:33.43	94.90	54.60	-27.1	-28.2	15.5	0.00e+00	0	42	0	1084227584	15	4104
2026-01-12 23:48:34.44	95.65	54.64	-27.2	-28.6	15.3	0.00e+00	0	42	0	1087373312	15	4192
2026-01-12 23:48:35.44	96.40	54.67	-27.1	-28.2	15.6	0.00e+00	0	42	0	1090519040	15	4088
2026-01-12 23:48:36.45	97.15	54.70	-27.1	-28.2	15.6	0.00e+00	0	42	0	1093664768	15	4087
2026-01-12 23:48:37.45	97.89	54.73	-27.3	-28.7	15.3	0.00e+00	0	42	0	1096810496	15	4243
2026-01-12 23:48:38.45	98.64	54.75	-27.5	-29.2	15.0	0.00e+00	0	42	0	1099956224	15	4374
2026-01-12 23:48:39.46	99.40	54.76	-27.5	-29.3	15.0	0.00e+00	0	42	0	1103101952	15	4398
2026-01-12 23:48:40.46	100.15	54.78	-27.3	-28.7	15.3	0.00e+00	0	42	0	1106247680	15	4225
2026-01-12 23:48:41.46	100.90	54.78	-27.3	-28.7	15.3	0.00e+00	0	42	0	1109393408	15	4239
2026-01-12 23:48:42.47	101.65	54.78	-27.7	-29.6	14.7	0.00e+00	0	42	0	1112539136	15	4478
2026-01-12 23:48:43.47	102.40	54.78	-28.1	-30.2	14.3	7.00e-07	0	42	0	1115684864	16	4552
2026-01-12 23:48:44.48	103.16	54.77	-27.9	-29.5	14.7	1.50e-06	0	42	0	1118830592	16	4357
2026-01-12 23:48:45.49	103.92	54.76	-27.5	-28.6	15.3	0.00e+00	0	42	0	1121976320	16	4081
2026-01-12 23:48:46.48	104.66	54.74	-27.4	-28.5	15.3	0.00e+00	0	42	0	1125122048	16	4060
2026-01-12 23:48:47.48	105.41	54.72	-27.5	-28.6	15.2	0.00e+00	0	42	0	1128267776	16	4102
2026-01-12 23:48:48.48	106.15	54.69	-27.1	-28.3	15.5	0.00e+00	0	42	0	1131413504	15	4127
2026-01-12 23:48:49.49	106.90	54.66	-27.2	-28.4	15.5	0.00e+00	0	42	0	1134559232	15	4155
2026-01-12 23:48:50.49	107.65	54.62	-27.3	-28.6	15.4	0.00e+00	0	42	0	1137704960	15	4211
2026-01-12 23:48:51.50	108.39	54.58	-27.3	-29.1	15.4	0.00e+00	0	42	0	1140850688	14	4449
2026-01-12 23:48:52.50	109.13	54.53	-27.2	-29.1	15.4	0.00e+00	0	42	0	1143996416	14	4441
2026-01-12 23:48:53.50	109.87	54.48	-26.9	-28.3	15.8	0.00e+00	0	42	0	1147142144	14	4229
2026-01-12 23:48:54.50	110.60	54.43	-26.8	-28.0	16.0	0.00e+00	0	42	0	1150287872	14	4138
2026-01-12 23:48:55.50	111.33	54.37	-26.9	-28.3	15.9	0.00e+00	0	42	0	1153433600	14	4223
2026-01-12 23:48:56.50	112.06	54.30	-27.1	-28.8	15.6	0.00e+00	0	42	0	1156579328	14	4371
2026-01-12 23:48:57.51	112.79	54.23	-27.0	-28.5	15.7	0.00e+00	0	42	0	1159725056	14	4292
2026-01-12 23:48:58.52	113.52	54.16	-27.1	-28.8	15.6	0.00e+00	0	42	0	1162870784	14	4361
2026-01-12 23:48:59.52	114.23	54.08	-27.2	-28.9	15.5	0.00e+00	0	42	0	1166016512	14	4396
2026-01-12 23:49:00.53	114.95	54.00	-27.4	-29.3	15.3	0.00e+00	0	42	0	1169162240	14	4520
2026-01-12 23:49:01.54	115.67	53.91	-27.3	-29.3	15.3	0.00e+00	0	42	0	1172307968	14	4513
2026-01-12 23:49:02.55	116.38	53.82	-27.4	-29.5	15.1	0.00e+00	0	42	0	1175453696	14	4589
2026-01-12 23:49:03.55	117.08	53.72	-27.5	-29.3	14.8	0.00e+00	0	42	0	1178599424	15	4389
2026-01-12 23:49:04.56	117.78	53.62	-27.3	-28.6	15.4	0.00e+00	0	42	0	1181745152	15	4203
2026-01-12 23:49:05.56	118.47	53.52	-27.2	-28.5	15.5	2.00e-04	0	42	0	1184890880	15	4169
2026-01-12 23:49:06.57	119.16	53.41	-27.2	-28.4	15.5	0.00e+00	0	42	0	1188036608	15	4137
2026-01-12 23:49:07.58	119.85	53.30	-26.9	-27.8	15.9	0.00e+00	0	42	0	1191182336	15	3979
2026-01-12 23:49:08.58	120.52	53.19	-26.7	-27.9	16.0	0.00e+00	0	42	0	1194328064	14	4118
2026-01-12 23:49:09.59	121.20	53.07	-26.7	-27.9	16.1	0.00e+00	0	42	0	1197473792	14	4116
2026-01-12 23:49:10.59	121.86	52.94	-26.8	-28.1	15.9	0.00e+00	0	42	0	1200619520	14	4182
2026-01-12 23:49:11.59	122.52	52.82	-27.1	-28.8	15.5	0.00e+00	0	42	0	1203765248	14	4354
2026-01-12 23:49:12.60	123.18	52.69	-27.4	-29.5	15.2	0.00e+00	0	42	0	1206910976	14	4561
2026-01-12 23:49:13.61	123.84	52.56	-27.6	-29.4	14.9	0.00e+00	0	42	0	1210056704	15	4443
2026-01-12 23:49:14.61	124.48	52.42	-27.8	-29.8	14.7	0.00e+00	0	42	0	1213202432	15	4529
2026-01-12 23:49:15.61	125.11	52.28	-27.9	-30.1	14.5	1.50e-06	0	42	0	1216348160	15	4647
2026-01-12 23:49:16.61	125.74	52.14	-28.5	-30.9	13.9	6.80e-06	0	42	0	1219493888	16	4769
2026-01-12 23:49:17.62	126.37	51.99	-28.3	-30.0	14.2	7.00e-07	0	42	0	1222639616	17	4363
2026-01-12 23:49:18.62	126.99	51.85	-28.1	-29.4	14.5	0.00e+00	0	42	0	1225785344	17	4212
2026-01-12 23:49:19.63	127.61	51.69	-28.3	-29.9	14.2	3.80e-06	0	42	0	1227882496	17	4351
2026-01-12 23:49:20.64	128.22	51.54	-28.5	-30.4	13.9	4.50e-06	0	42	0	1231028224	17	4506
2026-01-12 23:49:21.64	128.82	51.38	-28.3	-30.1	14.1	4.50e-06	0	42	0	1235222528	17	4399
2026-01-12 23:49:22.65	129.41	51.22	-28.2	-29.7	14.3	5.30e-06	0	42	0	1238368256	17	4298
2026-01-12 23:49:23.66	130.01	51.06	-28.2	-29.7	14.3	6.18e-04	0	42	0	1241513984	17	4276
2026-01-12 23:49:24.67	130.59	50.89	-28.2	-30.3	14.3	1.50e-06	0	42	0	1244659712	16	4568
2026-01-12 23:49:25.66	131.16	50.73	-28.4	-30.8	14.0	1.50e-06	0	42	0	1247805440	16	4736
2026-01-12 23:49:26.67	131.73	50.56	-28.4	-30.3	14.0	3.36e-04	0	42	0	1250951168	17	4463
2026-01-12 23:49:27.67	132.29	50.39	-28.5	-30.5	13.8	3.88e-04	0	42	0	1253048320	17	4546
2026-01-12 23:49:28.68	132.85	50.21	-29.0	-31.7	13.2	2.13e-05	0	42	0	1256194048	17	4926
2026-01-12 23:49:29.68	133.40	50.03	-29.0	-31.1	13.2	3.95e-04	0	42	0	1259339776	18	4623
2026-01-12 23:49:30.69	133.95	49.86	-28.7	-30.9	13.6	7.64e-04	0	42	0	1262485504	17	4664
2026-01-12 23:49:31.69	134.49	49.68	-28.5	-30.5	13.8	5.30e-06	0	42	0	1265631232	17	4542
2026-01-12 23:49:32.69	135.02	49.49	-28.6	-30.7	13.8	2.76e-04	0	42	0	1268776960	17	4577
2026-01-12 23:49:33.70	135.54	49.31	-28.7	-30.9	13.6	2.64e-04	0	42	0	1272971264	17	4654
2026-01-12 23:49:34.71	136.07	49.12	-28.7	-31.0	13.5	1.14e-05	0	42	0	1275068416	17	4674
2026-01-12 23:49:35.71	136.58	48.94	-28.9	-31.4	13.3	1.44e-05	0	42	0	1278214144	17	4823
2026-01-12 23:49:36.71	137.08	48.75	-29.2	-31.8	12.8	2.96e-03	0	42	0	1281359872	18	4826
2026-01-12 23:49:37.71	137.58	48.56	-29.1	-31.5	13.0	4.88e-05	0	42	0	1284505600	18	4742
2026-01-12 23:49:38.72	138.08	48.37	-28.9	-31.0	13.3	2.58e-03	0	42	0	1287651328	18	4561
2026-01-12 23:49:39.73	138.57	48.17	-28.9	-31.5	13.3	1.60e-05	0	42	0	1290797056	17	4833
2026-01-12 23:49:40.74	139.05	47.98	-28.9	-31.0	13.3	2.82e-05	0	42	0	1293942784	18	4565
2026-01-12 23:49:41.74	139.53	47.78	-29.0	-31.3	13.1	2.12e-03	0	42	0	1297088512	18	4652
2026-01-12 23:49:42.74	140.00	47.58	-29.0	-31.2	13.1	2.92e-03	0	42	0	1300234240	18	4622
2026-01-12 23:49:43.75	140.47	47.39	-29.2	-31.6	12.9	2.89e-05	0	42	0	1303379968	18	4759
2026-01-12 23:49:44.76	140.93	47.19	-29.2	-31.7	12.9	6.17e-05	0	42	0	1306525696	18	4820
2026-01-12 23:49:45.77	141.38	46.98	-29.2	-31.7	12.9	5.72e-05	0	42	0	1309671424	18	4796
2026-01-12 23:49:46.78	141.83	46.78	-29.3	-31.9	12.7	5.64e-05	0	42	0	1312817152	18	4878
2026-01-12 23:49:47.78	142.27	46.58	-29.0	-31.3	13.1	3.50e-05	0	42	0	1315962880	18	4670
2026-01-12 23:49:48.79	142.71	46.38	-28.8	-31.2	13.4	2.85e-03	0	42	0	1319108608	17	4747
2026-01-12 23:49:49.80	143.14	46.17	-28.8	-31.3	13.4	1.22e-05	0	42	0	1322254336	17	4772
2026-01-12 23:49:50.80	143.57	45.97	-28.8	-31.2	13.4	2.05e-05	0	42	0	1325400064	17	4761
2026-01-12 23:49:51.81	143.99	45.76	-28.6	-30.7	13.7	5.30e-06	0	42	0	1328545792	17	4579
2026-01-12 23:49:52.82	144.41	45.56	-28.8	-31.1	13.5	6.10e-06	0	42	0	1331691520	17	4712
2026-01-12 23:49:53.83	144.82	45.35	-28.8	-31.2	13.4	2.05e-05	0	42	0	1334837248	17	4746
2026-01-12 23:49:54.83	145.22	45.14	-29.2	-31.7	12.8	2.82e-05	0	42	0	1337982976	18	4811
2026-01-12 23:49:55.84	145.62	44.93	-29.3	-32.0	12.6	8.77e-05	0	42	0	1341128704	18	4893
2026-01-12 23:49:56.85	146.02	44.73	-29.5	-32.0	12.3	1.40e-04	0	42	0	1345323008	19	4785
2026-01-12 23:49:57.85	146.40	44.52	-29.7	-32.3	12.1	2.30e-04	0	42	0	1347420160	19	4897
2026-01-12 23:49:58.86	146.79	44.31	-29.8	-32.6	11.9	3.44e-04	0	42	0	1350565888	19	4981
2026-01-12 23:49:59.87	147.17	44.10	-29.7	-32.5	11.9	3.86e-04	0	42	0	1353711616	19	4957
2026-01-12 23:50:00.87	147.54	43.89	-29.7	-32.3	12.1	2.85e-04	0	42	0	1356857344	19	4882
2026-01-12 23:50:01.87	147.91	43.69	-29.6	-32.1	12.3	1.91e-04	0	42	0	1360003072	19	4799
2026-01-12 23:50:02.88	148.28	43.48	-29.7	-32.4	12.0	2.05e-04	0	42	0	1363148800	19	4925
2026-01-12 23:50:03.88	148.63	43.27	-29.5	-31.9	12.4	2.01e-04	0	42	0	1366294528	19	4759
2026-01-12 23:50:04.89	148.99	43.06	-30.1	-33.0	11.3	8.17e-04	0	42	0	1369440256	20	5050
2026-01-12 23:50:05.89	149.34	42.85	-30.1	-33.1	11.2	1.42e-03	0	42	0	1372585984	20	5075
2026-01-12 23:50:06.90	149.69	42.64	-29.9	-32.4	11.6	8.73e-04	0	42	0	1375731712	20	4839
2026-01-12 23:50:07.91	150.03	42.43	-29.7	-32.0	11.8	5.05e-04	0	42	0	1378877440	20	4710
2026-01-12 23:50:08.91	150.37	42.22	-29.5	-31.4	12.3	2.85e-04	0	42	0	1382023168	20	4481
2026-01-12 23:50:09.91	150.70	42.01	-29.3	-31.0	12.5	1.28e-04	0	42	0	1385168896	20	4365
2026-01-12 23:50:10.91	151.03	41.80	-29.3	-31.4	12.6	8.54e-05	0	42	0	1388314624	19	4589
2026-01-12 23:50:11.91	151.35	41.60	-29.2	-31.3	12.8	6.33e-05	0	42	0	1391460352	19	4552
2026-01-12 23:50:12.92	151.67	41.39	-29.5	-31.9	12.4	1.15e-04	0	42	0	1394606080	19	4746
2026-01-12 23:50:13.93	151.99	41.18	-29.3	-31.4	12.6	1.23e-04	0	42	0	1397751808	19	4592
2026-01-12 23:50:14.94	152.30	40.97	-28.9	-31.0	13.1	4.19e-05	0	42	0	1400897536	18	4584
2026-01-12 23:50:15.94	152.61	40.76	-28.8	-30.8	13.4	1.83e-05	0	42	0	1404043264	18	4499
2026-01-12 23:50:16.95	152.92	40.55	-28.9	-30.9	13.3	1.67e-05	0	42	0	1407188992	18	4532
2026-01-12 23:50:17.95	153.22	40.35	-28.7	-30.6	13.5	1.14e-05	0	42	0	1410334720	18	4437
2026-01-12 23:50:18.96	153.52	40.14	-29.0	-31.1	13.2	1.67e-05	0	42	0	1413480448	18	4617
2026-01-12 23:50:19.97	153.81	39.93	-29.1	-31.4	13.0	3.96e-05	0	42	0	1416626176	18	4723
2026-01-12 23:50:20.97	154.10	39.73	-29.1	-31.5	12.9	4.42e-05	0	42	0	1419771904	18	4752
2026-01-12 23:50:21.98	154.39	39.52	-28.9	-31.0	13.2	3.89e-05	0	42	0	1422917632	18	4592
2026-01-12 23:50:22.99	154.67	39.31	-28.6	-30.3	13.6	8.30e-06	0	42	0	1426063360	18	4353
2026-01-12 23:50:23.99	154.95	39.11	-28.5	-29.9	13.9	3.00e-06	0	42	0	1429209088	18	4241
2026-01-12 23:50:24.99	155.22	38.91	-28.6	-30.3	13.6	1.50e-06	0	42	0	1432354816	18	4371
2026-01-12 23:50:26.00	155.50	38.70	-28.6	-30.2	13.6	3.00e-06	0	42	0	1435500544	18	4347
2026-01-12 23:50:27.00	155.77	38.50	-29.0	-31.1	13.1	2.28e-05	0	42	0	1438646272	18	4616
2026-01-12 23:50:28.01	156.03	38.30	-29.1	-31.4	13.0	3.28e-05	0	42	0	1441792000	18	4706
2026-01-12 23:50:29.01	156.29	38.10	-29.1	-31.4	13.0	6.10e-05	0	42	0	1444937728	18	4696
2026-01-12 23:50:30.02	156.55	37.89	-28.9	-31.0	13.2	2.36e-05	0	42	0	1448083456	18	4573
2026-01-12 23:50:31.03	156.81	37.69	-28.8	-30.6	13.5	8.30e-06	0	42	0	1451229184	18	4440
2026-01-12 23:50:32.03	157.06	37.49	-28.9	-31.1	13.2	1.52e-05	0	42	0	1454374912	18	4592
2026-01-12 23:50:33.04	157.32	37.29	-28.7	-30.5	13.5	8.30e-06	0	42	0	1457520640	18	4422
2026-01-12 23:50:34.05	157.56	37.09	-28.3	-29.5	14.0	3.80e-06	0	42	0	1460666368	18	4134
2026-01-12 23:50:35.05	157.81	36.89	-28.2	-30.2	14.2	1.50e-06	0	42	0	1463812096	16	4541
2026-01-12 23:50:36.06	158.05	36.69	-28.3	-30.6	14.0	2.20e-06	0	42	0	1466957824	16	4668
2026-01-12 23:50:37.06	158.29	36.50	-28.1	-30.1	14.3	1.50e-06	0	42	0	1470103552	16	4520
2026-01-12 23:50:38.07	158.52	36.30	-28.1	-30.1	14.3	0.00e+00	0	42	0	1473249280	16	4519
2026-01-12 23:50:39.08	158.76	36.10	-27.9	-30.2	14.3	1.50e-06	0	42	0	1476395008	15	4687
2026-01-12 23:50:40.09	158.99	35.91	-27.9	-30.1	14.4	7.00e-07	0	42	0	1479540736	15	4638
2026-01-12 23:50:41.09	159.22	35.71	-28.3	-30.5	14.0	1.91e-03	0	42	0	1482686464	16	4659
2026-01-12 23:50:42.09	159.44	35.52	-27.9	-29.6	14.6	2.63e-03	0	42	0	1485832192	16	4371
2026-01-12 23:50:43.10	159.66	35.33	-27.6	-28.9	15.0	0.00e+00	0	42	0	1488977920	16	4174
2026-01-12 23:50:44.11	159.89	35.13	-27.3	-29.2	15.2	0.00e+00	0	42	0	1492123648	14	4479
2026-01-12 23:50:45.11	160.10	34.94	-27.4	-29.5	15.0	0.00e+00	0	42	0	1495269376	14	4575
2026-01-12 23:50:46.12	160.32	34.75	-27.5	-29.2	14.9	0.00e+00	0	42	0	1498415104	15	4387
2026-01-12 23:50:47.13	160.53	34.56	-27.4	-29.5	15.0	2.98e-03	0	42	0	1501560832	14	4591
2026-01-12 23:50:48.13	160.74	34.37	-27.3	-29.2	15.2	2.85e-03	0	42	0	1504706560	14	4491
2026-01-12 23:50:49.14	160.95	34.18	-27.1	-28.7	15.4	0.00e+00	0	42	0	1507852288	14	4358
2026-01-12 23:50:50.15	161.15	33.99	-27.3	-29.2	15.1	3.19e-03	0	42	0	1510998016	14	4493
2026-01-12 23:50:51.15	161.36	33.81	-27.5	-29.2	14.9	3.37e-03	0	42	0	1514143744	15	4386
2026-01-12 23:50:52.16	161.56	33.62	-27.9	-30.1	14.4	0.00e+00	0	42	0	1517289472	15	4652
2026-01-12 23:50:53.17	161.76	33.43	-28.3	-30.5	14.0	3.96e-03	0	42	0	1520435200	16	4663
2026-01-12 23:50:54.18	161.95	33.24	-28.3	-30.5	14.0	3.71e-03	0	42	0	1523580928	16	4661
2026-01-12 23:50:55.18	162.15	33.06	-28.1	-30.1	14.2	2.20e-06	0	42	0	1526726656	16	4533
2026-01-12 23:50:56.19	162.34	32.88	-28.0	-29.8	14.3	3.69e-03	0	42	0	1529872384	16	4437
2026-01-12 23:50:57.20	162.53	32.69	-27.7	-29.7	14.5	3.39e-03	0	42	0	1533018112	15	4543
2026-01-12 23:50:58.20	162.72	32.51	-27.3	-28.9	15.0	0.00e+00	0	42	0	1536163840	15	4285
2026-01-12 23:50:59.20	162.90	32.33	-27.0	-28.6	15.4	3.45e-03	0	42	0	1539309568	14	4321
2026-01-12 23:51:00.21	163.09	32.15	-26.9	-28.3	15.6	3.54e-03	0	42	0	1542455296	14	4248
2026-01-12 23:51:01.22	163.27	31.97	-26.7	-28.0	15.8	0.00e+00	0	42	0	1545601024	14	4147
2026-01-12 23:51:02.23	163.45	31.79	-26.5	-28.0	16.0	0.00e+00	0	42	0	1548746752	13	4277
2026-01-12 23:51:03.24	163.63	31.61	-26.6	-28.1	16.0	2.91e-03	0	42	0	1551892480	13	4306
2026-01-12 23:51:04.24	163.80	31.43	-26.7	-28.5	15.8	0.00e+00	0	42	0	1555038208	13	4399
2026-01-12 23:51:05.25	163.98	31.26	-26.8	-28.7	15.6	1.27e-04	0	42	0	1558183936	13	4460
2026-01-12 23:51:06.26	164.15	31.08	-26.8	-28.7	15.6	0.00e+00	0	42	0	1561329664	13	4478
2026-01-12 23:51:07.26	164.32	30.91	-26.9	-28.9	15.5	0.00e+00	0	42	0	1564475392	13	4518
2026-01-12 23:51:08.26	164.49	30.73	-26.9	-29.0	15.5	0.00e+00	0	42	0	1567621120	13	4551
2026-01-12 23:51:09.27	164.66	30.56	-26.7	-28.4	15.3	2.82e-03	0	42	0	1570766848	14	4357
2026-01-12 23:51:10.28	164.82	30.39	-27.0	-28.6	15.2	0.00e+00	0	42	0	1573912576	14	4342
2026-01-12 23:51:11.28	164.99	30.21	-27.0	-28.6	15.4	0.00e+00	0	42	0	1577058304	14	4319
2026-01-12 23:51:12.29	165.15	30.04	-26.8	-28.6	15.6	0.00e+00	0	42	0	1580204032	13	4444
2026-01-12 23:51:13.30	165.31	29.87	-26.7	-28.5	15.7	0.00e+00	0	42	0	1583349760	13	4413
2026-01-12 23:51:14.30	165.47	29.70	-26.8	-28.8	15.6	0.00e+00	0	42	0	1586495488	13	4487
2026-01-12 23:51:15.31	165.63	29.53	-26.8	-28.7	15.6	0.00e+00	0	42	0	1589641216	13	4457
2026-01-12 23:51:16.32	165.78	29.36	-26.9	-28.8	15.5	0.00e+00	0	42	0	1592786944	13	4512
2026-01-12 23:51:17.32	165.93	29.20	-26.8	-28.6	15.6	0.00e+00	0	42	0	1595932672	13	4444
2026-01-12 23:51:18.33	166.09	29.03	-26.6	-28.3	15.8	0.00e+00	0	42	0	1599078400	13	4344
2026-01-12 23:51:19.34	166.24	28.86	-26.6	-28.3	15.8	1.74e-04	0	42	0	1602224128	13	4354
2026-01-12 23:51:20.35	166.39	28.70	-26.6	-28.2	15.8	0.00e+00	0	42	0	1605369856	13	4328
2026-01-12 23:51:21.35	166.54	28.53	-26.5	-27.9	16.0	2.07e-04	0	42	0	1608515584	13	4232
2026-01-12 23:51:22.35	166.68	28.37	-26.5	-27.9	16.0	0.00e+00	0	42	0	1611661312	13	4245
2026-01-12 23:51:23.35	166.82	28.21	-26.5	-28.0	15.9	0.00e+00	0	42	0	1614807040	13	4261
2026-01-12 23:51:24.36	166.97	28.05	-26.5	-27.9	16.0	1.01e-04	0	42	0	1617952768	13	4236
2026-01-12 23:51:25.37	167.11	27.89	-26.5	-28.0	15.9	8.77e-05	0	42	0	1621098496	13	4263
2026-01-12 23:51:26.38	167.25	27.72	-26.5	-28.0	15.9	0.00e+00	0	42	0	1624244224	13	4273
2026-01-12 23:51:27.38	167.39	27.57	-26.6	-28.1	15.9	0.00e+00	0	42	0	1627389952	13	4298
2026-01-12 23:51:28.39	167.53	27.41	-26.5	-28.0	15.9	0.00e+00	0	42	0	1630535680	13	4283
2026-01-12 23:51:29.40	167.67	27.25	-26.5	-28.0	15.9	0.00e+00	0	42	0	1633681408	13	4285
2026-01-12 23:51:30.41	167.80	27.09	-26.5	-28.1	15.9	1.40e-04	0	42	0	1636827136	13	4301
2026-01-12 23:51:31.42	167.94	26.93	-26.5	-27.9	15.9	9.61e-05	0	42	0	1639972864	13	4257
2026-01-12 23:51:32.42	168.07	26.78	-26.4	-28.3	16.0	0.00e+00	0	42	0	1643118592	12	4483
2026-01-12 23:51:33.42	168.20	26.62	-26.4	-28.2	16.1	1.79e-04	0	42	0	1646264320	12	4431
2026-01-12 23:51:34.43	168.33	26.47	-26.4	-28.2	16.1	1.92e-04	0	42	0	1649410048	12	4437
2026-01-12 23:51:35.44	168.46	26.31	-26.4	-28.2	16.1	0.00e+00	0	42	0	1652555776	12	4445
2026-01-12 23:51:36.45	168.59	26.16	-26.3	-28.1	16.1	1.98e-04	0	42	0	1655701504	12	4418
2026-01-12 23:51:37.46	168.72	26.01	-26.4	-28.3	16.0	1.69e-04	0	42	0	1658847232	12	4465
2026-01-12 23:51:38.46	168.84	25.86	-26.4	-28.2	16.1	0.00e+00	0	42	0	1661992960	12	4434
2026-01-12 23:51:39.46	168.97	25.71	-26.3	-28.0	16.2	0.00e+00	0	42	0	1665138688	12	4379
2026-01-12 23:51:40.47	169.09	25.55	-26.3	-28.1	16.1	1.10e-04	0	42	0	1668284416	12	4412
2026-01-12 23:51:41.48	169.21	25.40	-26.4	-28.2	16.1	0.00e+00	0	42	0	1671430144	12	4438
2026-01-12 23:51:42.49	169.33	25.26	-26.3	-28.1	16.1	1.36e-04	0	42	0	1674575872	12	4408
2026-01-12 23:51:43.49	169.45	25.11	-26.4	-28.2	16.1	0.00e+00	0	42	0	1677721600	12	4451
2026-01-12 23:51:44.50	169.57	24.96	-26.4	-28.2	16.1	0.00e+00	0	42	0	1680867328	12	4440
2026-01-12 23:51:45.50	169.69	24.81	-26.5	-28.4	15.9	0.00e+00	0	42	0	1684013056	12	4493
2026-01-12 23:51:46.51	169.81	24.67	-26.7	-28.4	15.7	0.00e+00	0	42	0	1687158784	13	4387
2026-01-12 23:51:47.51	169.92	24.52	-26.7	-28.4	15.7	0.00e+00	0	42	0	1690304512	13	4374
2026-01-12 23:51:48.52	170.04	24.38	-26.5	-28.1	15.8	0.00e+00	0	42	0	1693450240	13	4292
2026-01-12 23:51:49.53	170.15	24.23	-26.6	-28.1	15.8	0.00e+00	0	42	0	1696595968	13	4300
2026-01-12 23:51:50.53	170.26	24.09	-26.4	-27.8	16.0	0.00e+00	0	42	0	1699741696	13	4208
2026-01-12 23:51:51.53	170.37	23.95	-26.5	-28.5	15.9	0.00e+00	0	42	0	1702887424	12	4515
2026-01-12 23:51:52.54	170.48	23.81	-26.6	-28.2	15.7	2.28e-05	0	42	0	1706033152	13	4341
2026-01-12 23:51:53.55	170.59	23.67	-26.7	-28.4	15.6	0.00e+00	0	42	0	1709178880	13	4394
2026-01-12 23:51:54.56	170.70	23.52	-26.7	-28.6	15.6	0.00e+00	0	42	0	1712324608	13	4437
2026-01-12 23:51:55.57	170.81	23.38	-27.1	-28.9	15.1	0.00e+00	0	42	0	1715470336	14	4413
2026-01-12 23:51:56.58	170.92	23.24	-27.2	-29.0	15.0	0.00e+00	0	42	0	1718616064	14	4459
2026-01-12 23:51:57.58	171.03	23.11	-26.9	-28.5	15.3	1.17e-04	0	42	0	1721761792	14	4309
2026-01-12 23:51:58.59	171.13	22.97	-26.8	-28.6	15.5	0.00e+00	0	42	0	1724907520	13	4454
2026-01-12 23:51:59.60	171.24	22.83	-26.7	-28.6	15.6	0.00e+00	0	42	0	1728053248	13	4432
2026-01-12 23:52:00.60	171.34	22.69	-26.8	-28.6	15.5	0.00e+00	0	42	0	1731198976	13	4433
2026-01-12 23:52:01.61	171.44	22.56	-26.8	-28.7	15.5	0.00e+00	0	42	0	1734344704	13	4472
2026-01-12 23:52:02.61	171.54	22.42	-26.8	-28.7	15.5	2.47e-03	0	42	0	1737490432	13	4467
2026-01-12 23:52:03.62	171.64	22.29	-26.6	-28.2	15.7	1.30e-04	0	42	0	1740636160	13	4346
2026-01-12 23:52:04.62	171.74	22.15	-26.5	-27.9	15.9	2.48e-03	0	42	0	1743781888	13	4261
2026-01-12 23:52:05.63	171.84	22.02	-26.5	-28.4	15.9	0.00e+00	0	42	0	1746927616	12	4501
2026-01-12 23:52:06.63	171.94	21.89	-26.5	-28.5	15.9	0.00e+00	0	42	0	1750073344	12	4518
2026-01-12 23:52:07.63	172.04	21.76	-26.5	-28.1	15.8	2.26e-03	0	42	0	1753219072	13	4291
2026-01-12 23:52:08.63	172.13	21.62	-26.7	-28.5	15.5	2.40e-03	0	42	0	1756364800	13	4419
2026-01-12 23:52:09.64	172.23	21.49	-26.6	-28.3	15.7	3.04e-04	0	42	0	1759510528	13	4354
2026-01-12 23:52:10.65	172.33	21.36	-26.5	-27.9	15.8	2.22e-03	0	42	0	1762656256	13	4258
2026-01-12 23:52:11.65	172.42	21.23	-26.4	-27.8	15.9	2.11e-03	0	42	0	1765801984	13	4225
2026-01-12 23:52:12.65	172.51	21.10	-26.4	-28.2	16.0	2.39e-04	0	42	0	1768947712	12	4459
2026-01-12 23:52:13.66	172.61	20.98	-26.4	-28.3	15.9	1.85e-03	0	42	0	1772093440	12	4479
2026-01-12 23:52:14.66	172.70	20.85	-26.5	-28.4	15.8	1.45e-03	0	42	0	1775239168	12	4494
2026-01-12 23:52:15.66	172.79	20.72	-26.4	-28.3	15.9	2.15e-04	0	42	0	1778384896	12	4489
2026-01-12 23:52:16.66	172.88	20.59	-26.5	-28.5	15.8	0.00e+00	0	42	0	1781530624	12	4524
2026-01-12 23:52:17.67	172.97	20.47	-26.7	-28.4	15.6	1.51e-03	0	42	0	1784676352	13	4391
2026-01-12 23:52:18.68	173.06	20.34	-26.6	-28.3	15.6	2.37e-04	0	42	0	1787822080	13	4357
2026-01-12 23:52:19.68	173.15	20.22	-26.5	-28.0	15.8	1.74e-03	0	42	0	1790967808	13	4281
2026-01-12 23:52:20.69	173.24	20.09	-26.5	-28.5	15.8	1.74e-03	0	42	0	1794113536	12	4523
2026-01-12 23:52:21.70	173.32	19.97	-26.4	-28.3	15.9	0.00e+00	0	42	0	1797259264	12	4478
2026-01-12 23:52:22.70	173.41	19.84	-26.5	-28.4	15.8	0.00e+00	0	42	0	1800404992	12	4510
2026-01-12 23:52:23.71	173.50	19.72	-26.6	-28.2	15.6	1.58e-03	0	42	0	1803550720	13	4333
2026-01-12 23:52:24.71	173.58	19.60	-26.9	-28.8	15.3	1.75e-04	0	42	0	1806696448	13	4506
2026-01-12 23:52:25.72	173.67	19.48	-26.8	-28.7	15.4	1.54e-03	0	42	0	1809842176	13	4480
2026-01-12 23:52:26.72	173.75	19.36	-26.6	-28.2	15.6	1.75e-05	0	42	0	1812987904	13	4326
2026-01-12 23:52:27.72	173.83	19.23	-26.5	-27.9	15.8	0.00e+00	0	42	0	1816133632	13	4250
2026-01-12 23:52:28.73	173.91	19.11	-26.4	-28.3	15.9	1.63e-03	0	42	0	1819279360	12	4466
2026-01-12 23:52:29.74	174.00	18.99	-26.5	-28.5	15.8	1.50e-03	0	42	0	1822425088	12	4519
2026-01-12 23:52:30.75	174.08	18.87	-26.5	-28.0	15.7	0.00e+00	0	42	0	1825570816	13	4287
2026-01-12 23:52:31.76	174.16	18.75	-26.6	-28.3	15.5	0.00e+00	0	42	0	1828716544	13	4365
2026-01-12 23:52:32.76	174.24	18.64	-26.6	-28.2	15.6	1.06e-05	0	42	0	1831862272	13	4335
2026-01-12 23:52:33.77	174.32	18.52	-26.6	-28.2	15.6	0.00e+00	0	42	0	1835008000	13	4352
2026-01-12 23:52:34.77	174.40	18.40	-26.7	-28.4	15.5	0.00e+00	0	42	0	1838153728	13	4408
2026-01-12 23:52:35.78	174.48	18.28	-26.6	-28.3	15.5	1.60e-05	0	42	0	1841299456	13	4377
2026-01-12 23:52:36.78	174.56	18.17	-26.7	-28.5	15.5	0.00e+00	0	42	0	1844445184	13	4422
2026-01-12 23:52:37.78	174.63	18.05	-26.9	-28.9	15.2	0.00e+00	0	42	0	1847590912	13	4546
2026-01-12 23:52:38.78	174.71	17.94	-26.8	-28.7	15.3	7.00e-07	0	42	0	1850736640	13	4486
2026-01-12 23:52:39.78	174.78	17.83	-26.7	-28.6	15.4	7.00e-07	0	42	0	1853882368	13	4443
2026-01-12 23:52:40.78	174.86	17.71	-26.7	-28.6	15.4	0.00e+00	0	42	0	1857028096	13	4456
2026-01-12 23:52:41.79	174.94	17.60	-26.7	-28.6	15.4	0.00e+00	0	42	0	1860173824	13	4453
2026-01-12 23:52:42.79	175.01	17.48	-26.9	-29.0	15.1	0.00e+00	0	42	0	1863319552	13	4583
2026-01-12 23:52:43.80	175.08	17.37	-27.0	-29.1	15.1	0.00e+00	0	42	0	1866465280	13	4608
2026-01-12 23:52:44.81	175.16	17.26	-27.1	-28.8	14.9	0.00e+00	0	42	0	1869611008	14	4413
2026-01-12 23:52:45.81	175.23	17.15	-27.3	-29.4	14.7	7.00e-07	0	42	0	1872756736	14	4573
2026-01-12 23:52:46.82	175.30	17.04	-27.3	-29.3	14.7	0.00e+00	0	42	0	1875902464	14	4555
2026-01-12 23:52:47.81	175.37	16.93	-27.2	-29.1	14.8	0.00e+00	0	42	0	1879048192	14	4502
2026-01-12 23:52:48.82	175.45	16.82	-27.2	-29.1	14.8	0.00e+00	0	42	0	1882193920	14	4482
2026-01-12 23:52:49.83	175.52	16.70	-27.1	-29.0	14.8	0.00e+00	0	42	0	1885339648	14	4474
2026-01-12 23:52:50.84	175.59	16.59	-27.2	-29.2	14.7	3.52e-04	0	42	0	1888485376	14	4541
2026-01-12 23:52:51.85	175.66	16.48	-27.1	-29.0	14.8	3.12e-04	0	42	0	1891631104	14	4474
2026-01-12 23:52:52.85	175.73	16.38	-27.1	-28.9	14.9	0.00e+00	0	42	0	1894776832	14	4451
2026-01-12 23:52:53.86	175.80	16.27	-27.2	-29.1	14.8	0.00e+00	0	42	0	1897922560	14	4497
2026-01-12 23:52:54.87	175.87	16.16	-27.1	-29.0	14.8	7.00e-07	0	42	0	1901068288	14	4469
2026-01-12 23:52:55.87	175.93	16.05	-27.1	-29.0	14.8	0.00e+00	0	42	0	1904214016	14	4460
2026-01-12 23:52:56.88	176.00	15.95	-27.2	-29.2	14.7	2.90e-04	0	42	0	1907359744	14	4530
2026-01-12 23:52:57.88	176.07	15.84	-27.3	-29.3	14.6	2.94e-04	0	42	0	1910505472	14	4569
2026-01-12 23:52:58.89	176.14	15.73	-27.3	-29.3	14.6	0.00e+00	0	42	0	1913651200	14	4546
2026-01-12 23:52:59.89	176.20	15.63	-27.3	-29.3	14.6	0.00e+00	0	42	0	1916796928	14	4559
2026-01-12 23:53:00.90	176.27	15.52	-27.3	-29.5	14.5	2.84e-04	0	42	0	1919942656	14	4603
2026-01-12 23:53:01.91	176.33	15.42	-27.4	-29.7	14.4	0.00e+00	0	42	0	1923088384	14	4669
2026-01-12 23:53:02.91	176.40	15.31	-27.4	-29.6	14.5	2.63e-04	0	42	0	1926234112	14	4630
2026-01-12 23:53:03.92	176.46	15.21	-27.5	-29.3	14.3	2.67e-04	0	42	0	1929379840	15	4451
2026-01-12 23:53:04.92	176.53	15.11	-27.7	-29.9	14.0	3.80e-06	0	42	0	1932525568	15	4627
2026-01-12 23:53:05.93	176.59	15.00	-27.5	-29.4	14.3	2.59e-04	0	42	0	1935671296	15	4475
2026-01-12 23:53:06.94	176.66	14.90	-27.4	-29.1	14.4	2.28e-04	0	42	0	1938817024	15	4383
2026-01-12 23:53:07.95	176.72	14.80	-27.5	-29.4	14.3	0.00e+00	0	42	0	1941962752	15	4468
2026-01-12 23:53:08.96	176.78	14.69	-27.4	-29.2	14.3	2.65e-04	0	42	0	1945108480	15	4426
2026-01-12 23:53:09.97	176.84	14.59	-27.7	-29.8	14.0	2.66e-04	0	42	0	1948254208	15	4603
2026-01-12 23:53:10.98	176.91	14.49	-27.5	-29.4	14.2	1.50e-06	0	42	0	1951399936	15	4471
2026-01-12 23:53:11.98	176.97	14.39	-27.4	-29.7	14.4	3.11e-04	0	42	0	1954545664	14	4678
2026-01-12 23:53:12.99	177.03	14.29	-27.4	-29.7	14.3	3.75e-04	0	42	0	1957691392	14	4679
2026-01-12 23:53:14.00	177.09	14.19	-27.5	-29.4	14.2	7.00e-07	0	42	0	1960837120	15	4490
2026-01-12 23:53:15.01	177.15	14.09	-27.9	-30.3	13.7	4.03e-04	0	42	0	1963982848	15	4759
2026-01-12 23:53:16.01	177.21	13.99	-27.6	-29.7	14.1	2.20e-06	0	42	0	1967128576	15	4554
2026-01-12 23:53:17.02	177.27	13.89	-27.7	-29.8	14.0	2.40e-03	0	42	0	1970274304	15	4596
2026-01-12 23:53:18.02	177.33	13.79	-27.9	-30.4	13.6	2.59e-04	0	42	0	1973420032	15	4775
2026-01-12 23:53:19.03	177.39	13.69	-27.8	-30.1	13.8	4.99e-04	0	42	0	1976565760	15	4688
2026-01-12 23:53:20.03	177.45	13.60	-27.7	-30.0	13.9	6.10e-06	0	42	0	1979711488	15	4646
2026-01-12 23:53:21.03	177.50	13.50	-27.7	-29.8	14.0	7.00e-07	0	42	0	1982857216	15	4589
2026-01-12 23:53:22.04	177.56	13.40	-27.9	-30.3	13.7	1.87e-03	0	42	0	1986002944	15	4741
2026-01-12 23:53:23.05	177.62	13.31	-27.7	-29.9	13.8	1.38e-03	0	42	0	1989148672	15	4640
2026-01-12 23:53:24.06	177.68	13.21	-27.6	-29.6	14.0	9.90e-06	0	42	0	1992294400	15	4544
2026-01-12 23:53:25.06	177.73	13.11	-27.5	-29.4	14.2	2.20e-06	0	42	0	1995440128	15	4464
2026-01-12 23:53:26.07	177.79	13.02	-27.5	-29.5	14.1	2.13e-05	0	42	0	1998585856	15	4505
2026-01-12 23:53:27.08	177.85	12.92	-27.5	-29.5	14.1	3.00e-06	0	42	0	2001731584	15	4498
2026-01-12 23:53:28.08	177.90	12.83	-27.7	-29.8	14.0	7.60e-04	0	42	0	2004877312	15	4586
2026-01-12 23:53:29.09	177.96	12.73	-27.8	-30.2	13.7	8.52e-04	0	42	0	2008023040	15	4708
2026-01-12 23:53:30.10	178.01	12.64	-27.8	-30.1	13.8	6.80e-06	0	42	0	2011168768	15	4678
2026-01-12 23:53:31.11	178.07	12.54	-27.8	-30.1	13.7	6.10e-06	0	42	0	2014314496	15	4704
2026-01-12 23:53:32.11	178.12	12.45	-27.9	-30.2	13.6	3.75e-04	0	42	0	2017460224	15	4725
2026-01-12 23:53:33.11	178.17	12.36	-27.9	-30.3	13.6	1.06e-05	0	42	0	2020605952	15	4753
2026-01-12 23:53:34.12	178.23	12.27	-28.2	-30.6	13.3	3.48e-04	0	42	0	2023751680	16	4716
2026-01-12 23:53:35.13	178.28	12.17	-28.0	-30.0	13.6	3.55e-04	0	42	0	2026897408	16	4543
2026-01-12 23:53:36.14	178.33	12.08	-27.8	-29.6	13.9	5.30e-06	0	42	0	2030043136	16	4424
2026-01-12 23:53:37.14	178.39	11.99	-27.5	-29.5	14.1	1.45e-04	0	42	0	2033188864	15	4501
2026-01-12 23:53:38.15	178.44	11.90	-27.6	-29.6	14.0	1.65e-04	0	42	0	2036334592	15	4531
2026-01-12 23:53:39.15	178.49	11.81	-27.6	-29.6	14.0	2.20e-06	0	42	0	2039480320	15	4533
2026-01-12 23:53:40.16	178.54	11.71	-27.6	-29.6	14.0	1.65e-04	0	42	0	2042626048	15	4536
2026-01-12 23:53:41.17	178.59	11.62	-27.7	-29.9	13.8	6.10e-06	0	42	0	2045771776	15	4638
2026-01-12 23:53:42.17	178.65	11.53	-27.6	-29.7	13.9	4.50e-06	0	42	0	2048917504	15	4563
2026-01-12 23:53:43.18	178.70	11.44	-27.7	-29.9	13.8	1.68e-04	0	42	0	2052063232	15	4629
2026-01-12 23:53:44.18	178.75	11.35	-27.6	-29.6	13.9	1.91e-04	0	42	0	2055208960	15	4544
2026-01-12 23:53:45.19	178.80	11.27	-27.5	-29.5	14.0	1.50e-06	0	42	0	2058354688	15	4509
2026-01-12 23:53:46.20	178.85	11.18	-27.6	-29.6	13.9	1.50e-06	0	42	0	2061500416	15	4539
2026-01-12 23:53:47.20	178.90	11.09	-27.6	-29.7	13.9	5.30e-06	0	42	0	2064646144	15	4567
2026-01-12 23:53:48.20	178.95	11.00	-27.6	-29.8	13.8	4.50e-06	0	42	0	2067791872	15	4592
2026-01-12 23:53:49.21	179.00	10.91	-27.9	-30.3	13.5	1.98e-05	0	42	0	2070937600	15	4770
2026-01-12 23:53:50.22	179.05	10.82	-27.7	-29.8	13.8	3.00e-06	0	42	0	2074083328	15	4618
2026-01-12 23:53:51.23	179.09	10.74	-27.7	-29.9	13.7	4.50e-06	0	42	0	2077229056	15	4637
2026-01-12 23:53:52.24	179.14	10.65	-27.6	-29.6	13.9	5.30e-06	0	42	0	2080374784	15	4549
2026-01-12 23:53:53.25	179.19	10.56	-27.6	-29.7	13.8	6.10e-06	0	42	0	2083520512	15	4569
2026-01-12 23:53:54.26	179.24	10.47	-27.7	-29.9	13.7	9.10e-06	0	42	0	2086666240	15	4635
2026-01-12 23:53:55.26	179.29	10.39	-27.7	-30.0	13.6	4.50e-06	0	42	0	2089811968	15	4669
2026-01-12 23:53:56.27	179.33	10.30	-27.7	-30.0	13.6	7.60e-06	0	42	0	2092957696	15	4660
2026-01-12 23:53:57.28	179.38	10.21	-27.7	-29.9	13.7	6.80e-06	0	42	0	2096103424	15	4631
2026-01-12 23:53:58.28	179.43	10.13	-27.7	-29.9	13.7	5.30e-06	0	42	0	2099249152	15	4637
2026-01-12 23:53:59.29	179.47	10.04	-27.7	-29.9	13.6	6.80e-06	0	42	0	2102394880	15	4643
2026-01-12 23:54:00.29	179.52	9.96	-27.7	-29.9	13.6	9.90e-06	0	42	0	2105540608	15	4640
2026-01-12 23:54:01.30	179.57	9.87	-27.7	-30.0	13.6	6.10e-06	0	42	0	2108686336	15	4667
2026-01-12 23:54:02.31	179.61	9.79	-27.7	-30.0	13.5	1.44e-05	0	42	0	2111832064	15	4689
2026-01-12 23:54:03.31	179.66	9.71	-27.7	-29.8	13.7	1.14e-05	0	42	0	2114977792	15	4622
2026-01-12 23:54:04.32	179.70	9.62	-27.8	-30.1	13.5	1.06e-05	0	42	0	2118123520	15	4704
2026-01-12 23:54:05.33	179.75	9.54	-27.8	-30.1	13.5	1.22e-05	0	42	0	2121269248	15	4713
2026-01-12 23:54:06.33	179.79	9.46	-27.8	-30.1	13.5	7.60e-06	0	42	0	2124414976	15	4691
2026-01-12 23:54:07.34	179.84	9.37	-27.7	-29.9	13.6	9.10e-06	0	42	0	2127560704	15	4650
2026-01-12 23:54:08.35	179.88	9.29	-27.7	-29.9	13.6	6.49e-04	0	42	0	2130706432	15	4643
2026-01-12 23:54:09.35	179.93	9.21	-27.8	-30.1	13.5	6.80e-06	0	42	0	2133852160	15	4704
2026-01-12 23:54:10.36	179.97	9.12	-27.7	-29.9	13.6	6.10e-06	0	42	0	2136997888	15	4628
2026-01-12 23:54:11.36	180.01	9.04	-27.8	-30.2	13.4	1.60e-05	0	42	0	2140143616	15	4725
2026-01-12 23:54:12.37	180.06	8.96	-27.8	-30.3	13.4	2.05e-05	0	42	0	2143289344	15	4767
