passes_logs/2026/01/13/R3.2S_Murmansk/R3.2S_Murmansk__20260113_192452_KANOPUS-V_5_rec.log

#Pass ID: 20260113_192452_KANOPUS-V 5
#Satellite: KANOPUS-V 5
#Configuration: KANOPUS-V_8320
#almurnet v.1.7.20251203
#Start time: 2026-01-13 19:24:52

#Version: 2.2.20231116
#Station: R3.2S_Murmansk
#Location: 33.079688 lon 68.888172 lat
#TLE: 1 43876U 18111A   26013.20013897  .00002624  00000+0  11314-3 0  9998
#TLE: 2 43876  97.3684 281.7470 0001778  87.3461 272.7979 15.23429299391190

#Time	Az	El	Level	Level2	SNR	BER	BlckErr	Temp	State	Recorded	gain1	gain2
2026-01-13 19:24:52.96	28.66	2.03	-58.9	-68.7	3.8	7.47e-01	0	25	0	0	82	10836
2026-01-13 19:24:53.96	28.80	2.08	-59.0	-68.7	3.8	7.45e-01	0	25	104	0	82	10805
2026-01-13 19:24:54.97	28.94	2.12	-59.0	-68.7	3.8	7.44e-01	0	25	104	0	82	10845
2026-01-13 19:24:55.98	29.09	2.17	-59.0	-68.7	3.8	7.45e-01	0	25	104	0	82	10857
2026-01-13 19:24:56.99	29.24	2.21	-59.0	-68.7	3.8	7.46e-01	0	25	104	0	82	10859
2026-01-13 19:24:58.00	29.38	2.25	-59.0	-68.7	3.8	7.46e-01	0	25	104	0	82	10889
2026-01-13 19:24:59.01	29.53	2.30	-59.0	-68.7	3.8	7.46e-01	0	25	104	0	82	10857
2026-01-13 19:25:00.02	29.68	2.34	-59.0	-68.7	3.8	7.46e-01	0	25	104	0	82	10816
2026-01-13 19:25:01.02	29.83	2.39	-59.0	-68.7	3.8	7.46e-01	0	25	104	0	82	10845
2026-01-13 19:25:02.04	29.98	2.43	-59.0	-68.7	3.8	7.48e-01	0	25	104	0	82	10838
2026-01-13 19:25:03.05	30.13	2.48	-59.0	-68.7	3.8	7.47e-01	0	25	104	0	82	10849
2026-01-13 19:25:04.06	30.28	2.52	-59.0	-68.7	3.8	7.45e-01	0	25	104	0	82	10846
2026-01-13 19:25:05.07	30.43	2.56	-59.0	-68.7	3.8	7.45e-01	0	25	104	0	82	10819
2026-01-13 19:25:06.07	30.58	2.61	-59.0	-68.7	3.8	7.45e-01	0	25	104	0	82	10873
2026-01-13 19:25:07.08	30.73	2.65	-59.0	-68.7	3.8	7.45e-01	0	25	104	0	82	10894
2026-01-13 19:25:08.09	30.88	2.70	-59.0	-68.7	3.8	7.45e-01	0	25	104	0	82	10885
2026-01-13 19:25:09.10	31.04	2.74	-59.0	-68.7	3.8	7.46e-01	0	25	104	0	82	10853
2026-01-13 19:25:10.11	31.19	2.78	-59.0	-68.7	3.8	7.44e-01	0	25	104	0	82	10846
2026-01-13 19:25:11.12	31.35	2.83	-59.0	-68.7	3.8	7.44e-01	0	25	104	0	82	10883
2026-01-13 19:25:12.13	31.50	2.87	-59.0	-68.7	3.8	7.43e-01	0	26	104	0	82	10865
2026-01-13 19:25:13.14	31.66	2.92	-59.0	-68.7	3.8	7.45e-01	0	25	104	0	82	10884
2026-01-13 19:25:14.15	31.81	2.96	-59.0	-68.8	3.8	7.46e-01	0	25	104	0	82	10924
2026-01-13 19:25:15.16	31.97	3.00	-59.0	-68.7	3.8	7.46e-01	0	25	104	0	82	10893
2026-01-13 19:25:16.16	32.13	3.05	-59.0	-68.8	3.8	7.47e-01	0	25	104	0	82	10920
2026-01-13 19:25:17.17	32.28	3.09	-59.0	-68.7	3.8	7.44e-01	0	26	104	0	82	10900
2026-01-13 19:25:18.18	32.44	3.13	-59.0	-68.7	3.8	7.45e-01	0	26	104	0	82	10875
2026-01-13 19:25:19.19	32.60	3.18	-59.0	-68.8	3.8	7.46e-01	0	26	104	0	82	10925
2026-01-13 19:25:20.20	32.76	3.22	-59.0	-68.7	3.8	7.45e-01	0	26	104	0	82	10897
2026-01-13 19:25:21.20	32.92	3.26	-59.0	-68.7	3.8	7.46e-01	0	26	104	0	82	10889
2026-01-13 19:25:22.21	33.08	3.31	-59.0	-68.8	3.8	7.46e-01	0	26	104	0	82	10905
2026-01-13 19:25:23.22	33.24	3.35	-59.0	-68.8	3.8	7.44e-01	0	26	104	0	82	10966
2026-01-13 19:25:24.23	33.40	3.39	-59.0	-68.7	3.8	7.46e-01	0	26	104	0	82	10901
2026-01-13 19:25:25.24	33.57	3.44	-59.0	-68.7	3.8	7.45e-01	0	26	104	0	82	10895
2026-01-13 19:25:26.24	33.73	3.48	-59.0	-68.7	3.8	7.46e-01	0	26	104	0	82	10883
2026-01-13 19:25:27.26	33.89	3.52	-59.0	-68.7	3.8	7.45e-01	0	26	104	0	82	10864
2026-01-13 19:25:28.27	34.06	3.56	-59.0	-68.8	3.8	7.44e-01	0	26	104	0	82	10914
2026-01-13 19:25:29.28	34.22	3.61	-59.0	-68.8	3.8	7.45e-01	0	26	104	0	82	10953
2026-01-13 19:25:30.29	34.39	3.65	-59.0	-68.7	3.8	7.45e-01	0	26	104	0	82	10893
2026-01-13 19:25:31.29	34.55	3.69	-59.0	-68.8	3.8	7.47e-01	0	26	104	0	82	10927
2026-01-13 19:25:32.30	34.72	3.73	-59.0	-68.7	3.8	7.45e-01	0	26	104	0	82	10896
2026-01-13 19:25:33.31	34.89	3.78	-59.0	-68.8	3.8	7.45e-01	0	26	104	0	82	10949
2026-01-13 19:25:34.32	35.05	3.82	-59.0	-68.8	3.8	7.44e-01	0	26	104	0	82	10939
2026-01-13 19:25:35.33	35.22	3.86	-59.0	-68.8	3.8	7.46e-01	0	26	104	0	82	10943
2026-01-13 19:25:36.33	35.39	3.90	-59.0	-68.8	3.8	7.45e-01	0	26	104	0	82	10946
2026-01-13 19:25:37.35	35.56	3.95	-59.0	-68.8	3.8	7.46e-01	0	26	104	0	82	10933
2026-01-13 19:25:38.35	35.73	3.99	-59.0	-68.8	3.8	7.44e-01	0	26	104	0	82	10937
2026-01-13 19:25:39.36	35.90	4.03	-59.0	-68.8	3.8	7.45e-01	0	26	104	0	82	10918
2026-01-13 19:25:40.37	36.07	4.07	-59.0	-68.8	3.8	7.45e-01	0	26	104	0	82	10940
2026-01-13 19:25:41.38	36.25	4.11	-59.0	-68.8	3.8	7.46e-01	0	26	104	0	82	10943
2026-01-13 19:25:42.39	36.42	4.15	-59.0	-68.8	3.8	7.46e-01	0	26	104	0	82	10927
2026-01-13 19:25:43.40	36.59	4.20	-59.0	-68.8	3.8	7.45e-01	0	26	104	0	82	10943
2026-01-13 19:25:44.41	36.77	4.24	-59.0	-68.8	3.8	7.45e-01	0	26	104	0	82	10958
2026-01-13 19:25:45.42	36.94	4.28	-59.0	-68.8	3.8	7.47e-01	0	26	104	0	82	10946
2026-01-13 19:25:46.43	37.12	4.32	-59.0	-68.8	3.8	7.46e-01	0	26	104	0	82	10921
2026-01-13 19:25:47.44	37.29	4.36	-59.0	-68.8	3.8	7.46e-01	0	26	104	0	82	10924
2026-01-13 19:25:48.45	37.47	4.40	-59.0	-68.8	3.8	7.44e-01	0	26	104	0	82	10921
2026-01-13 19:25:49.46	37.65	4.44	-59.0	-68.8	3.8	7.44e-01	0	26	104	0	82	10916
2026-01-13 19:25:50.47	37.82	4.48	-59.1	-68.8	3.8	7.46e-01	0	26	104	0	82	10962
2026-01-13 19:25:51.47	38.00	4.53	-59.0	-68.8	3.8	7.45e-01	0	26	104	0	82	10955
2026-01-13 19:25:52.48	38.18	4.57	-59.0	-68.8	3.8	7.44e-01	0	26	104	0	82	10923
2026-01-13 19:25:53.49	38.36	4.61	-59.0	-68.8	3.8	7.45e-01	0	26	104	0	82	10956
2026-01-13 19:25:54.50	38.54	4.65	-59.0	-68.8	3.8	7.46e-01	0	26	104	0	82	10935
2026-01-13 19:25:55.51	38.72	4.69	-59.0	-68.8	3.8	7.45e-01	0	26	104	0	82	10957
2026-01-13 19:25:56.52	38.90	4.73	-59.1	-68.8	3.8	7.45e-01	0	26	104	0	82	10951
2026-01-13 19:25:57.53	39.08	4.77	-59.1	-68.8	3.8	7.46e-01	0	26	104	0	82	10981
2026-01-13 19:25:58.54	39.27	4.81	-59.1	-68.8	3.8	7.46e-01	0	26	104	0	82	11012
2026-01-13 19:25:59.55	39.45	4.85	-59.1	-68.8	3.8	7.45e-01	0	26	104	0	82	10938
2026-01-13 19:26:00.55	39.63	4.89	-59.1	-68.8	3.8	7.45e-01	0	26	104	0	82	10962
2026-01-13 19:26:01.55	39.81	4.93	-59.1	-68.8	3.8	7.44e-01	0	26	104	0	82	10956
2026-01-13 19:26:02.56	40.00	4.97	-59.1	-68.8	3.8	7.45e-01	0	26	104	0	82	10980
2026-01-13 19:26:03.57	40.19	5.00	-59.1	-68.8	3.8	7.45e-01	0	26	104	0	82	10942
2026-01-13 19:26:04.58	40.37	5.04	-59.2	-68.9	3.8	7.47e-01	0	26	104	0	82	11116
2026-01-13 19:26:05.59	40.56	5.08	-59.2	-68.9	3.8	7.46e-01	0	26	104	0	82	11085
2026-01-13 19:26:06.58	40.74	5.12	-59.1	-68.9	3.8	7.45e-01	0	26	104	0	82	11043
2026-01-13 19:26:07.58	40.93	5.16	-59.0	-68.7	3.8	7.45e-01	0	26	104	0	82	10829
2026-01-13 19:26:08.59	41.12	5.20	-59.2	-68.9	3.8	7.47e-01	0	27	104	0	82	11133
2026-01-13 19:26:09.59	41.31	5.24	-59.2	-69.0	3.8	7.46e-01	0	26	104	0	82	11177
2026-01-13 19:26:10.58	41.49	5.27	-59.1	-68.9	3.8	7.45e-01	0	27	104	0	82	11077
2026-01-13 19:26:11.58	41.68	5.31	-59.0	-68.8	3.8	7.47e-01	0	26	104	0	82	10958
2026-01-13 19:26:12.57	41.87	5.35	-59.2	-69.0	3.8	7.46e-01	0	26	104	0	82	11192
2026-01-13 19:26:13.58	42.06	5.39	-59.2	-69.0	3.8	7.46e-01	0	27	104	0	82	11199
2026-01-13 19:26:14.58	42.25	5.42	-59.2	-68.9	3.8	7.46e-01	0	26	104	0	82	11150
2026-01-13 19:26:15.59	42.44	5.46	-59.1	-68.8	3.8	7.46e-01	0	27	104	0	82	11013
2026-01-13 19:26:16.59	42.64	5.50	-59.3	-69.0	3.8	7.46e-01	0	26	104	0	82	11186
2026-01-13 19:26:17.59	42.83	5.54	-59.3	-69.0	3.8	7.45e-01	0	27	104	0	82	11226
2026-01-13 19:26:18.58	43.02	5.57	-59.2	-68.9	3.8	7.46e-01	0	26	104	0	82	11134
2026-01-13 19:26:19.59	43.22	5.61	-59.1	-68.8	3.8	7.46e-01	0	27	104	0	82	11019
2026-01-13 19:26:20.59	43.41	5.65	-59.3	-69.0	3.8	7.46e-01	0	26	104	0	82	11233
2026-01-13 19:26:21.60	43.61	5.68	-59.3	-69.0	3.8	7.44e-01	0	27	104	0	82	11278
2026-01-13 19:26:22.60	43.80	5.72	-59.2	-69.0	3.8	7.45e-01	0	27	104	0	82	11206
2026-01-13 19:26:23.61	44.00	5.76	-59.1	-68.9	3.8	7.46e-01	0	27	104	0	82	11032
2026-01-13 19:26:24.60	44.20	5.79	-59.3	-69.0	3.8	7.47e-01	0	27	104	0	82	11259
2026-01-13 19:26:25.60	44.39	5.83	-59.3	-69.0	3.8	7.47e-01	0	26	104	0	82	11275
2026-01-13 19:26:26.61	44.59	5.86	-59.2	-69.0	3.8	7.46e-01	0	27	104	0	82	11176
2026-01-13 19:26:27.61	44.79	5.90	-59.2	-68.9	3.8	7.45e-01	0	27	104	0	82	11057
2026-01-13 19:26:28.62	44.99	5.93	-59.3	-69.0	3.8	7.45e-01	0	27	104	0	82	11270
2026-01-13 19:26:29.62	45.19	5.97	-59.3	-69.0	3.8	7.46e-01	0	27	104	0	82	11275
2026-01-13 19:26:30.63	45.39	6.00	-59.3	-69.0	3.8	7.45e-01	0	27	104	0	82	11231
2026-01-13 19:26:31.64	45.60	6.04	-59.2	-68.9	3.8	7.45e-01	0	27	104	0	82	11135
2026-01-13 19:26:32.65	45.80	6.07	-59.3	-69.1	3.8	7.46e-01	0	27	104	0	82	11328
2026-01-13 19:26:33.66	46.00	6.11	-59.4	-69.1	3.8	7.46e-01	0	27	104	0	82	11337
2026-01-13 19:26:34.67	46.21	6.14	-59.3	-69.0	3.8	7.45e-01	0	27	104	0	82	11266
2026-01-13 19:26:35.68	46.41	6.17	-59.2	-69.0	3.8	7.46e-01	0	27	104	0	82	11161
2026-01-13 19:26:36.68	46.62	6.21	-59.4	-69.1	3.8	7.45e-01	0	27	104	0	82	11372
2026-01-13 19:26:37.69	46.83	6.24	-59.4	-69.1	3.8	7.45e-01	0	26	104	0	82	11308
2026-01-13 19:26:38.69	47.03	6.28	-59.3	-69.1	3.8	7.46e-01	0	27	104	0	82	11323
2026-01-13 19:26:39.70	47.24	6.31	-59.3	-69.0	3.8	7.45e-01	0	27	104	0	82	11199
2026-01-13 19:26:40.71	47.45	6.34	-59.4	-69.1	3.8	7.45e-01	0	27	104	0	82	11415
2026-01-13 19:26:41.72	47.66	6.37	-59.4	-69.1	3.8	7.45e-01	0	27	104	0	82	11401
2026-01-13 19:26:42.73	47.86	6.41	-59.4	-69.1	3.8	7.46e-01	0	27	104	0	82	11330
2026-01-13 19:26:43.73	48.07	6.44	-59.3	-69.0	3.8	7.45e-01	0	27	104	0	82	11272
2026-01-13 19:26:44.75	48.29	6.47	-59.4	-69.2	3.8	7.46e-01	0	27	104	0	82	11451
2026-01-13 19:26:45.75	48.49	6.50	-59.4	-69.1	3.8	7.45e-01	0	27	104	0	82	11399
2026-01-13 19:26:46.76	48.71	6.53	-59.4	-69.1	3.8	7.44e-01	0	27	104	0	82	11369
2026-01-13 19:26:47.77	48.92	6.57	-59.3	-69.0	3.8	7.45e-01	0	27	104	0	82	11258
2026-01-13 19:26:48.78	49.13	6.60	-59.5	-69.2	3.8	7.46e-01	0	27	104	0	82	11451
2026-01-13 19:26:49.79	49.34	6.63	-59.4	-69.1	3.8	7.46e-01	0	27	104	0	82	11385
2026-01-13 19:26:50.79	49.56	6.66	-59.4	-69.1	3.8	7.47e-01	0	27	104	0	82	11387
2026-01-13 19:26:51.80	49.77	6.69	-59.3	-69.0	3.8	7.46e-01	0	27	104	0	82	11284
2026-01-13 19:26:52.80	49.98	6.72	-59.5	-69.2	3.8	7.46e-01	0	27	104	0	82	11519
2026-01-13 19:26:53.81	50.20	6.75	-59.4	-69.2	3.8	7.45e-01	0	27	104	0	82	11454
2026-01-13 19:26:54.82	50.42	6.78	-59.4	-69.1	3.8	7.46e-01	0	27	104	0	82	11407
2026-01-13 19:26:55.82	50.63	6.81	-59.3	-69.1	3.8	7.45e-01	0	27	104	0	82	11369
2026-01-13 19:26:56.83	50.85	6.84	-59.5	-69.2	3.8	7.44e-01	0	27	104	0	82	11531
2026-01-13 19:26:57.84	51.07	6.87	-59.4	-69.2	3.8	7.47e-01	0	27	104	0	82	11443
2026-01-13 19:26:58.85	51.28	6.90	-59.4	-69.1	3.8	7.45e-01	0	27	104	0	82	11413
2026-01-13 19:26:59.85	51.50	6.92	-59.4	-69.1	3.8	7.45e-01	0	27	104	0	82	11336
2026-01-13 19:27:00.86	51.72	6.95	-59.5	-69.3	3.8	7.46e-01	0	27	104	0	82	11578
2026-01-13 19:27:01.86	51.94	6.98	-59.4	-69.2	3.8	7.46e-01	0	27	104	0	82	11458
2026-01-13 19:27:02.86	52.16	7.01	-59.4	-69.2	3.8	7.43e-01	0	27	104	0	82	11456
2026-01-13 19:27:03.87	52.38	7.03	-59.4	-69.1	3.8	7.45e-01	0	27	104	0	82	11397
2026-01-13 19:27:04.88	52.60	7.06	-59.5	-69.3	3.8	7.47e-01	0	27	104	0	82	11606
2026-01-13 19:27:05.88	52.82	7.09	-59.5	-69.2	3.8	7.46e-01	0	27	104	0	82	11471
2026-01-13 19:27:06.88	53.04	7.12	-59.4	-69.2	3.8	7.47e-01	0	27	104	0	82	11438
2026-01-13 19:27:07.89	53.26	7.14	-59.4	-69.1	3.8	7.45e-01	0	27	104	0	82	11373
2026-01-13 19:27:08.90	53.49	7.17	-59.5	-69.3	3.8	7.46e-01	0	27	104	0	82	11579
2026-01-13 19:27:09.91	53.71	7.19	-59.5	-69.2	3.8	7.45e-01	0	27	104	0	82	11506
2026-01-13 19:27:10.91	53.93	7.22	-59.5	-69.2	3.8	7.45e-01	0	27	104	0	82	11462
2026-01-13 19:27:11.91	54.15	7.24	-59.3	-69.1	3.8	7.45e-01	0	27	104	0	82	11288
2026-01-13 19:27:12.92	54.38	7.27	-59.5	-69.3	3.8	7.46e-01	0	27	104	0	82	11566
2026-01-13 19:27:13.92	54.60	7.29	-59.5	-69.2	3.8	7.45e-01	0	27	104	0	82	11498
2026-01-13 19:27:14.93	54.83	7.32	-59.4	-69.2	3.8	7.47e-01	0	27	104	0	82	11456
2026-01-13 19:27:15.94	55.06	7.34	-59.4	-69.2	3.8	7.46e-01	0	27	104	0	82	11421
2026-01-13 19:27:16.95	55.28	7.37	-59.6	-69.3	3.8	7.44e-01	0	27	104	0	82	11611
2026-01-13 19:27:17.96	55.51	7.39	-59.5	-69.2	3.8	7.46e-01	0	27	104	0	82	11518
2026-01-13 19:27:18.96	55.74	7.41	-59.5	-69.2	3.8	7.45e-01	0	27	104	0	82	11503
2026-01-13 19:27:19.98	55.97	7.44	-59.4	-69.1	3.8	7.46e-01	0	27	104	0	82	11412
2026-01-13 19:27:20.99	56.20	7.46	-59.6	-69.3	3.8	7.45e-01	0	27	104	0	82	11622
2026-01-13 19:27:21.99	56.43	7.48	-59.5	-69.2	3.8	7.46e-01	0	27	104	0	82	11509
2026-01-13 19:27:23.00	56.66	7.50	-59.5	-69.2	3.8	7.47e-01	0	27	104	0	82	11525
2026-01-13 19:27:24.01	56.89	7.52	-59.4	-69.2	3.8	7.45e-01	0	27	104	0	82	11457
2026-01-13 19:27:25.02	57.12	7.55	-59.6	-69.3	3.8	7.44e-01	0	27	104	0	82	11658
2026-01-13 19:27:26.03	57.35	7.57	-59.5	-69.2	3.8	7.46e-01	0	27	104	0	82	11543
2026-01-13 19:27:27.04	57.58	7.59	-59.5	-69.3	3.8	7.44e-01	0	27	104	0	82	11574
2026-01-13 19:27:28.05	57.81	7.61	-59.4	-69.2	3.8	7.46e-01	0	27	104	0	82	11443
2026-01-13 19:27:29.06	58.04	7.63	-59.6	-69.3	3.8	7.45e-01	0	27	104	0	82	11682
2026-01-13 19:27:30.06	58.27	7.65	-59.5	-69.2	3.8	7.47e-01	0	27	104	0	82	11529
2026-01-13 19:27:31.07	58.51	7.67	-59.5	-69.2	3.8	7.45e-01	0	27	104	0	82	11493
2026-01-13 19:27:32.08	58.74	7.69	-59.4	-69.2	3.8	7.47e-01	0	27	104	0	82	11468
2026-01-13 19:27:33.08	58.97	7.71	-59.6	-69.3	3.8	7.46e-01	0	27	104	0	82	11654
2026-01-13 19:27:34.10	59.21	7.72	-59.5	-69.3	3.8	7.46e-01	0	27	104	0	82	11564
2026-01-13 19:27:35.11	59.45	7.74	-59.5	-69.3	3.8	7.46e-01	0	27	104	0	82	11591
2026-01-13 19:27:36.11	59.68	7.76	-59.5	-69.2	3.8	7.44e-01	0	27	104	0	82	11514
2026-01-13 19:27:37.12	59.91	7.78	-59.6	-69.3	3.8	7.46e-01	0	27	104	0	82	11660
2026-01-13 19:27:38.13	60.15	7.79	-59.5	-69.2	3.8	7.45e-01	0	27	104	0	82	11535
2026-01-13 19:27:39.14	60.39	7.81	-59.5	-69.3	3.8	7.47e-01	0	27	104	0	82	11584
2026-01-13 19:27:40.15	60.62	7.83	-59.5	-69.2	3.8	7.44e-01	0	27	104	0	82	11486
2026-01-13 19:27:41.15	60.86	7.84	-59.6	-69.4	3.8	7.44e-01	0	27	104	0	82	11708
2026-01-13 19:27:42.16	61.09	7.86	-59.6	-69.3	3.8	7.45e-01	0	27	104	0	82	11594
2026-01-13 19:27:43.17	61.33	7.87	-59.5	-69.3	3.8	7.46e-01	0	27	104	0	82	11580
2026-01-13 19:27:44.18	61.57	7.89	-59.5	-69.2	3.8	7.44e-01	0	27	104	0	82	11492
2026-01-13 19:27:45.19	61.81	7.90	-59.6	-69.4	3.8	7.46e-01	0	27	104	0	82	11729
2026-01-13 19:27:46.19	62.04	7.92	-59.5	-69.3	3.8	7.45e-01	0	27	104	0	82	11605
2026-01-13 19:27:47.20	62.28	7.93	-59.5	-69.3	3.8	7.44e-01	0	27	104	0	82	11595
2026-01-13 19:27:48.20	62.52	7.95	-59.5	-69.2	3.8	7.46e-01	0	27	104	0	82	11524
2026-01-13 19:27:49.21	62.76	7.96	-59.6	-69.4	3.8	7.45e-01	0	27	104	0	82	11705
2026-01-13 19:27:50.22	63.00	7.97	-59.6	-69.3	3.8	7.45e-01	0	27	104	0	82	11602
2026-01-13 19:27:51.23	63.24	7.99	-59.5	-69.3	3.8	7.47e-01	0	27	104	0	82	11625
2026-01-13 19:27:52.24	63.48	8.00	-59.5	-69.3	3.8	7.47e-01	0	27	104	0	82	11573
2026-01-13 19:27:53.24	63.71	8.01	-59.6	-69.4	3.8	7.44e-01	0	27	104	0	82	11715
2026-01-13 19:27:54.25	63.96	8.02	-59.6	-69.3	3.8	7.45e-01	0	27	104	0	82	11601
2026-01-13 19:27:55.26	64.20	8.03	-59.6	-69.3	3.8	7.46e-01	0	27	104	0	82	11629
2026-01-13 19:27:56.27	64.44	8.04	-59.5	-69.3	3.8	7.46e-01	0	27	104	0	82	11591
2026-01-13 19:27:57.28	64.68	8.05	-56.2	-69.4	3.8	7.46e-01	0	27	104	0	77	15716
2026-01-13 19:27:58.29	64.92	8.06	-58.2	-69.3	3.8	7.45e-01	0	27	104	0	79	13859
2026-01-13 19:27:59.30	65.16	8.07	-57.8	-63.7	5.0	7.06e-01	0	27	0	2097152	78	7653
2026-01-13 19:28:00.30	65.40	8.08	-58.5	-65.6	3.9	7.42e-01	0	27	104	2097152	81	8000
2026-01-13 19:28:01.31	65.64	8.09	-54.8	-58.3	8.7	6.32e-01	0	27	0	10485760	73	5509
2026-01-13 19:28:02.31	65.88	8.10	-54.3	-57.8	9.2	6.27e-01	0	27	0	27262976	73	5184
2026-01-13 19:28:03.32	66.13	8.11	-54.3	-57.8	9.2	6.27e-01	0	27	0	41943040	73	5200
2026-01-13 19:28:04.33	66.37	8.12	-54.1	-57.6	9.3	6.26e-01	0	27	0	54525952	72	5387
2026-01-13 19:28:05.33	66.61	8.12	-54.3	-57.9	9.0	6.27e-01	0	27	0	71303168	72	5563
2026-01-13 19:28:06.34	66.85	8.13	-53.8	-57.2	9.6	6.23e-01	0	27	0	85983232	72	5157
2026-01-13 19:28:07.34	67.09	8.14	-53.2	-56.5	10.2	6.20e-01	0	27	0	100663296	71	4984
2026-01-13 19:28:08.35	67.33	8.14	-52.8	-55.9	10.5	6.17e-01	0	27	0	117440512	70	4965
2026-01-13 19:28:09.36	67.58	8.15	-52.3	-55.3	10.9	6.15e-01	0	27	0	132120576	69	4889
2026-01-13 19:28:10.37	67.82	8.15	-52.0	-55.0	11.1	6.14e-01	0	27	0	148897792	68	5001
2026-01-13 19:28:11.39	68.07	8.16	-51.9	-54.8	11.2	6.15e-01	0	27	0	163577856	68	4922
2026-01-13 19:28:12.40	68.31	8.16	-51.6	-54.6	11.4	6.13e-01	0	27	0	178257920	67	5078
2026-01-13 19:28:13.40	68.55	8.17	-51.7	-54.7	11.3	6.14e-01	0	27	0	195035136	67	5149
2026-01-13 19:28:14.41	68.80	8.17	-51.4	-54.4	11.6	6.13e-01	0	27	0	209715200	67	4943
2026-01-13 19:28:15.42	69.04	8.18	-51.2	-54.2	11.7	6.12e-01	0	27	0	226492416	67	4817
2026-01-13 19:28:16.43	69.28	8.18	-51.2	-54.1	11.7	6.12e-01	0	27	0	241172480	67	4800
2026-01-13 19:28:17.43	69.53	8.18	-51.2	-54.1	11.8	6.13e-01	0	27	0	255852544	67	4791
2026-01-13 19:28:18.44	69.77	8.19	-51.1	-54.0	11.7	6.13e-01	0	27	0	272629760	66	5015
2026-01-13 19:28:19.45	70.01	8.19	-51.3	-54.4	11.6	5.78e-01	0	27	0	287309824	66	5259
2026-01-13 19:28:20.46	70.26	8.19	-51.2	-54.4	11.6	5.77e-01	0	27	0	301989888	66	5228
2026-01-13 19:28:21.47	70.50	8.19	-51.3	-54.5	11.5	5.78e-01	0	27	0	318767104	66	5280
2026-01-13 19:28:22.47	70.74	8.19	-51.3	-54.5	11.5	5.77e-01	0	27	0	333447168	66	5298
2026-01-13 19:28:23.48	70.99	8.19	-51.4	-54.5	11.5	5.78e-01	0	27	0	350224384	66	5332
2026-01-13 19:28:24.49	71.23	8.19	-51.2	-54.3	11.6	5.76e-01	0	27	0	364904448	66	5202
2026-01-13 19:28:25.50	71.48	8.19	-51.2	-54.3	11.6	5.78e-01	0	27	0	379584512	66	5215
2026-01-13 19:28:26.51	71.72	8.19	-51.2	-54.3	11.6	5.78e-01	0	27	0	396361728	66	5201
2026-01-13 19:28:27.52	71.97	8.19	-51.1	-54.1	11.8	5.78e-01	0	27	0	411041792	66	5064
2026-01-13 19:28:28.53	72.21	8.19	-51.1	-54.2	11.7	5.77e-01	0	27	0	427819008	66	5106
2026-01-13 19:28:29.54	72.45	8.19	-51.2	-54.3	11.6	5.77e-01	0	27	0	442499072	66	5188
2026-01-13 19:28:30.55	72.70	8.19	-51.2	-54.3	11.6	5.77e-01	0	27	0	457179136	66	5178
2026-01-13 19:28:31.55	72.94	8.18	-51.1	-54.2	11.7	5.77e-01	0	27	0	473956352	66	5139
2026-01-13 19:28:32.56	73.18	8.18	-51.1	-54.2	11.7	5.77e-01	0	27	0	488636416	66	5108
2026-01-13 19:28:33.57	73.43	8.18	-51.1	-54.2	11.7	5.77e-01	0	27	0	505413632	66	5144
2026-01-13 19:28:34.58	73.67	8.17	-51.1	-54.3	11.6	5.78e-01	0	27	0	520093696	66	5198
2026-01-13 19:28:35.59	73.92	8.17	-51.3	-54.4	11.5	5.77e-01	0	27	0	534773760	66	5271
2026-01-13 19:28:36.59	74.16	8.17	-51.3	-54.5	11.5	5.77e-01	0	27	0	551550976	66	5316
2026-01-13 19:28:37.59	74.40	8.16	-51.5	-54.7	11.4	5.79e-01	0	27	0	566231040	66	5415
2026-01-13 19:28:38.61	74.65	8.16	-51.3	-54.5	11.5	5.78e-01	0	27	0	580911104	66	5306
2026-01-13 19:28:39.62	74.89	8.15	-51.3	-54.5	11.5	5.79e-01	0	27	0	597688320	66	5299
2026-01-13 19:28:40.63	75.13	8.14	-51.3	-54.5	11.5	5.78e-01	0	27	0	612368384	66	5285
2026-01-13 19:28:41.63	75.37	8.14	-51.3	-54.4	11.5	5.77e-01	0	27	0	629145600	66	5272
2026-01-13 19:28:42.64	75.62	8.13	-51.4	-54.6	11.5	5.77e-01	0	27	0	643825664	66	5347
2026-01-13 19:28:43.65	75.86	8.12	-51.2	-54.4	11.6	5.77e-01	0	27	0	658505728	66	5268
2026-01-13 19:28:44.66	76.10	8.12	-51.2	-54.3	11.6	5.78e-01	0	27	0	675282944	66	5217
2026-01-13 19:28:45.67	76.35	8.11	-51.2	-54.4	11.5	5.77e-01	0	27	0	689963008	66	5267
2026-01-13 19:28:46.68	76.59	8.10	-51.3	-54.5	11.5	5.76e-01	0	27	0	706740224	66	5305
2026-01-13 19:28:47.69	76.83	8.09	-51.2	-54.5	11.5	6.02e-01	0	27	0	721420288	66	5284
2026-01-13 19:28:48.70	77.07	8.08	-51.3	-54.5	11.4	6.05e-01	0	27	0	736100352	66	5335
2026-01-13 19:28:49.71	77.32	8.08	-51.4	-54.7	11.3	6.05e-01	0	27	0	752877568	66	5422
2026-01-13 19:28:50.71	77.56	8.07	-51.6	-54.8	11.2	6.06e-01	0	27	0	767557632	66	5513
2026-01-13 19:28:51.72	77.80	8.06	-51.4	-54.7	11.3	6.09e-01	0	27	0	784334848	66	5424
2026-01-13 19:28:52.73	78.04	8.05	-51.5	-54.7	11.3	6.06e-01	0	27	0	799014912	66	5421
2026-01-13 19:28:53.74	78.28	8.03	-51.5	-54.7	11.3	6.06e-01	0	27	0	813694976	66	5453
2026-01-13 19:28:54.75	78.52	8.02	-51.6	-54.7	11.3	6.06e-01	0	27	0	830472192	66	5450
2026-01-13 19:28:55.76	78.76	8.01	-51.5	-54.7	11.3	6.08e-01	0	27	0	845152256	66	5447
2026-01-13 19:28:56.77	79.00	8.00	-51.6	-54.8	11.2	6.04e-01	0	27	0	861929472	66	5499
2026-01-13 19:28:57.77	79.24	7.99	-51.5	-54.7	11.3	6.04e-01	0	27	0	876609536	66	5423
2026-01-13 19:28:58.79	79.48	7.98	-51.5	-54.7	11.3	6.02e-01	0	27	0	891289600	66	5455
2026-01-13 19:28:59.80	79.72	7.96	-51.5	-54.7	11.3	6.05e-01	0	27	0	908066816	66	5432
2026-01-13 19:29:00.80	79.96	7.95	-51.5	-54.7	11.3	6.05e-01	0	27	0	922746880	66	5406
2026-01-13 19:29:01.81	80.20	7.94	-51.5	-54.6	11.3	6.04e-01	0	27	0	939524096	66	5393
2026-01-13 19:29:02.82	80.44	7.92	-51.4	-54.6	11.4	6.04e-01	0	27	0	954204160	66	5353
2026-01-13 19:29:03.83	80.68	7.91	-51.4	-54.5	11.4	6.03e-01	0	27	0	968884224	66	5333
2026-01-13 19:29:04.84	80.92	7.89	-51.5	-54.7	11.3	6.04e-01	0	27	0	985661440	66	5417
2026-01-13 19:29:05.84	81.15	7.88	-51.5	-54.6	11.4	6.03e-01	0	27	0	1000341504	66	5369
2026-01-13 19:29:06.86	81.39	7.86	-51.5	-54.6	11.4	6.05e-01	0	27	0	1015021568	66	5344
2026-01-13 19:29:07.86	81.63	7.85	-51.6	-54.7	11.3	6.07e-01	0	27	0	1031798784	66	5447
2026-01-13 19:29:08.88	81.87	7.83	-51.6	-54.8	11.3	6.04e-01	0	27	0	1046478848	66	5466
2026-01-13 19:29:09.88	82.10	7.81	-51.6	-54.8	11.2	6.06e-01	0	27	0	1063256064	66	5469
2026-01-13 19:29:10.89	82.34	7.80	-51.6	-54.9	11.2	6.04e-01	0	27	0	1077936128	66	5531
2026-01-13 19:29:11.90	82.58	7.78	-51.6	-54.9	11.2	6.05e-01	0	27	0	1092616192	66	5534
2026-01-13 19:29:12.91	82.81	7.76	-51.6	-54.9	11.2	6.06e-01	0	27	0	1107296256	66	5559
2026-01-13 19:29:13.92	83.05	7.74	-51.5	-54.7	11.3	6.06e-01	0	27	0	1124073472	66	5426
2026-01-13 19:29:14.93	83.28	7.73	-51.5	-54.7	11.3	6.06e-01	0	27	0	1140850688	66	5437
2026-01-13 19:29:15.94	83.52	7.71	-51.5	-54.6	11.4	6.07e-01	0	27	0	1155530752	66	5366
2026-01-13 19:29:16.95	83.75	7.69	-51.6	-54.7	11.3	6.06e-01	0	27	0	1170210816	66	5414
2026-01-13 19:29:17.96	83.99	7.67	-51.6	-54.6	11.3	6.07e-01	0	27	0	1184890880	66	5401
2026-01-13 19:29:18.97	84.22	7.65	-51.5	-54.5	11.4	6.05e-01	0	27	0	1201668096	66	5340
2026-01-13 19:29:19.98	84.46	7.63	-51.6	-54.7	11.3	6.08e-01	0	27	0	1216348160	66	5420
2026-01-13 19:29:20.99	84.69	7.61	-51.6	-54.7	11.3	6.08e-01	0	27	0	1233125376	66	5435
2026-01-13 19:29:22.00	84.92	7.59	-51.6	-54.8	11.2	6.07e-01	0	27	0	1247805440	66	5466
2026-01-13 19:29:23.00	85.15	7.57	-51.6	-54.8	11.2	6.08e-01	0	27	0	1262485504	66	5482
2026-01-13 19:29:24.00	85.38	7.55	-51.7	-54.9	11.2	6.07e-01	0	27	0	1279262720	66	5534
2026-01-13 19:29:25.01	85.61	7.53	-51.7	-54.9	11.2	6.05e-01	0	27	0	1293942784	66	5532
2026-01-13 19:29:26.02	85.85	7.51	-51.6	-54.8	11.2	6.07e-01	0	27	0	1310720000	66	5478
2026-01-13 19:29:27.03	86.08	7.48	-51.7	-54.8	11.2	6.08e-01	0	27	0	1325400064	66	5513
2026-01-13 19:29:28.04	86.31	7.46	-51.7	-54.8	11.1	6.07e-01	0	27	0	1340080128	66	5528
2026-01-13 19:29:29.05	86.54	7.44	-51.7	-54.7	11.2	6.07e-01	0	27	0	1356857344	66	5459
2026-01-13 19:29:30.06	86.77	7.42	-51.7	-54.7	11.2	6.08e-01	0	27	0	1371537408	66	5428
2026-01-13 19:29:31.06	86.99	7.39	-51.6	-54.6	11.3	6.08e-01	0	27	0	1388314624	66	5386
2026-01-13 19:29:32.07	87.22	7.37	-51.7	-54.7	11.2	6.05e-01	0	27	0	1402994688	66	5461
2026-01-13 19:29:33.08	87.45	7.35	-51.7	-54.8	11.2	6.07e-01	0	27	0	1417674752	66	5475
2026-01-13 19:29:34.09	87.68	7.32	-51.8	-54.9	11.1	6.08e-01	0	27	0	1434451968	66	5533
2026-01-13 19:29:35.10	87.90	7.30	-51.7	-54.8	11.1	6.08e-01	0	27	0	1449132032	66	5510
2026-01-13 19:29:36.11	88.13	7.27	-51.8	-54.9	11.1	6.07e-01	0	27	0	1463812096	66	5588
2026-01-13 19:29:37.12	88.36	7.25	-51.8	-55.0	11.0	6.08e-01	0	27	0	1480589312	66	5632
2026-01-13 19:29:38.12	88.58	7.22	-51.8	-55.1	10.9	6.09e-01	0	27	0	1495269376	66	5701
2026-01-13 19:29:39.13	88.81	7.20	-52.0	-55.3	10.9	6.07e-01	0	27	0	1512046592	67	5479
2026-01-13 19:29:40.14	89.03	7.17	-51.9	-55.2	10.9	6.06e-01	0	27	0	1526726656	67	5449
2026-01-13 19:29:41.15	89.26	7.14	-52.0	-55.3	10.9	6.08e-01	0	27	0	1541406720	67	5488
2026-01-13 19:29:42.16	89.48	7.12	-52.0	-55.3	10.9	6.08e-01	0	27	0	1558183936	67	5471
2026-01-13 19:29:43.17	89.70	7.09	-52.0	-55.2	10.9	6.07e-01	0	27	0	1572864000	67	5464
2026-01-13 19:29:44.18	89.93	7.06	-51.9	-55.2	10.9	6.09e-01	0	27	0	1589641216	67	5437
2026-01-13 19:29:45.19	90.15	7.04	-51.8	-55.1	11.0	6.08e-01	0	27	0	1604321280	67	5375
2026-01-13 19:29:46.19	90.37	7.01	-52.0	-55.3	10.9	6.03e-01	0	27	0	1619001344	67	5500
2026-01-13 19:29:47.20	90.59	6.98	-52.0	-55.3	10.9	6.09e-01	0	27	0	1635778560	67	5488
2026-01-13 19:29:48.21	90.81	6.95	-52.0	-55.3	10.9	6.05e-01	0	27	0	1650458624	67	5509
2026-01-13 19:29:49.22	91.03	6.92	-51.9	-55.2	10.9	6.07e-01	0	27	0	1667235840	67	5446
2026-01-13 19:29:50.23	91.25	6.90	-52.0	-55.2	10.9	6.07e-01	0	27	0	1681915904	67	5441
2026-01-13 19:29:51.24	91.47	6.87	-51.8	-55.0	11.1	6.10e-01	0	27	0	1696595968	67	5319
2026-01-13 19:29:52.25	91.69	6.84	-51.8	-55.0	11.0	6.08e-01	0	27	0	1713373184	67	5320
2026-01-13 19:29:53.26	91.91	6.81	-51.8	-55.1	11.0	6.09e-01	0	27	0	1728053248	67	5356
2026-01-13 19:29:54.27	92.12	6.78	-51.8	-55.0	11.0	6.05e-01	0	27	0	1744830464	67	5326
2026-01-13 19:29:55.28	92.34	6.75	-51.8	-55.1	11.0	6.06e-01	0	27	0	1759510528	67	5380
2026-01-13 19:29:56.28	92.56	6.72	-51.9	-55.2	10.9	6.06e-01	0	27	0	1774190592	67	5408
2026-01-13 19:29:57.29	92.77	6.69	-51.8	-55.1	11.0	6.09e-01	0	27	0	1790967808	67	5363
2026-01-13 19:29:58.30	92.99	6.66	-51.9	-55.1	10.9	6.08e-01	0	27	0	1805647872	67	5400
2026-01-13 19:29:59.31	93.20	6.63	-51.8	-55.1	11.0	6.08e-01	0	27	0	1822425088	67	5363
2026-01-13 19:30:00.32	93.42	6.60	-51.9	-55.1	11.0	6.05e-01	0	27	0	1837105152	67	5398
2026-01-13 19:30:01.33	93.63	6.56	-51.8	-55.0	11.1	6.07e-01	0	27	0	1851785216	67	5313
2026-01-13 19:30:02.34	93.84	6.53	-51.7	-54.9	11.1	6.08e-01	0	27	0	1868562432	67	5275
2026-01-13 19:30:03.34	94.05	6.50	-51.8	-55.0	11.1	6.08e-01	0	27	0	1883242496	67	5300
2026-01-13 19:30:04.35	94.27	6.47	-51.8	-55.0	11.1	6.06e-01	0	27	0	1897922560	67	5292
2026-01-13 19:30:05.36	94.48	6.44	-51.7	-54.9	11.1	6.07e-01	0	27	0	1914699776	67	5227
2026-01-13 19:30:06.37	94.69	6.40	-51.7	-54.9	11.1	6.10e-01	0	27	0	1929379840	67	5255
2026-01-13 19:30:07.38	94.90	6.37	-51.7	-54.9	11.1	6.07e-01	0	27	0	1946157056	67	5238
2026-01-13 19:30:08.39	95.11	6.34	-51.7	-54.9	11.1	6.06e-01	0	27	0	1960837120	67	5279
2026-01-13 19:30:09.40	95.32	6.31	-51.7	-54.9	11.1	6.07e-01	0	27	0	1975517184	67	5257
2026-01-13 19:30:10.41	95.53	6.27	-51.8	-55.0	11.0	6.05e-01	0	27	0	1992294400	67	5297
2026-01-13 19:30:11.42	95.74	6.24	-51.9	-55.1	10.9	6.04e-01	0	27	0	2006974464	67	5364
2026-01-13 19:30:12.43	95.94	6.20	-51.9	-55.1	10.9	6.09e-01	0	27	0	2023751680	67	5364
2026-01-13 19:30:13.43	96.15	6.17	-52.1	-55.3	10.8	6.05e-01	0	27	0	2038431744	67	5473
2026-01-13 19:30:14.44	96.35	6.14	-52.1	-55.3	10.8	6.05e-01	0	27	0	2053111808	67	5490
2026-01-13 19:30:15.45	96.56	6.10	-52.1	-55.3	10.7	6.04e-01	0	27	0	2069889024	67	5501
2026-01-13 19:30:16.47	96.77	6.07	-52.0	-55.3	10.8	6.05e-01	0	27	0	2084569088	67	5482
2026-01-13 19:30:17.47	96.97	6.03	-52.1	-55.4	10.7	6.07e-01	0	27	0	2101346304	67	5565
2026-01-13 19:30:18.48	97.17	6.00	-52.1	-55.4	10.7	6.05e-01	0	27	0	2116026368	67	5552
2026-01-13 19:30:19.49	97.38	5.96	-52.2	-55.6	10.6	6.09e-01	0	27	0	2130706432	67	5663
2026-01-13 19:30:20.50	97.58	5.93	-52.3	-55.6	10.5	6.05e-01	0	27	0	2147483648	67	5707
2026-01-13 19:30:21.50	97.78	5.89	-52.2	-55.5	10.6	6.10e-01	0	27	0	2162163712	67	5637
2026-01-13 19:30:22.51	97.98	5.86	-52.2	-55.4	10.6	6.11e-01	0	27	0	2178940928	67	5579
2026-01-13 19:30:23.52	98.18	5.82	-52.3	-55.5	10.6	6.07e-01	0	27	0	2193620992	67	5642
2026-01-13 19:30:24.52	98.38	5.78	-52.4	-55.7	10.5	6.11e-01	0	27	0	2208301056	68	5411
2026-01-13 19:30:25.53	98.58	5.75	-52.4	-55.6	10.5	6.12e-01	0	27	0	2225078272	68	5378
2026-01-13 19:30:26.54	98.78	5.71	-52.4	-55.6	10.5	6.09e-01	0	27	0	2239758336	68	5396
2026-01-13 19:30:27.55	98.98	5.67	-52.4	-55.6	10.5	6.09e-01	0	27	0	2254438400	68	5372
2026-01-13 19:30:28.56	99.18	5.64	-52.5	-55.7	10.4	6.10e-01	0	27	0	2271215616	68	5463
2026-01-13 19:30:29.57	99.37	5.60	-52.6	-55.9	10.3	6.11e-01	0	27	0	2285895680	68	5553
2026-01-13 19:30:30.58	99.57	5.56	-52.5	-55.9	10.3	6.12e-01	0	27	0	2302672896	68	5560
2026-01-13 19:30:31.59	99.77	5.53	-52.5	-55.8	10.3	6.10e-01	0	27	0	2317352960	68	5516
2026-01-13 19:30:32.60	99.96	5.49	-52.5	-55.9	10.2	6.10e-01	0	27	0	2332033024	68	5583
2026-01-13 19:30:33.60	100.15	5.45	-52.5	-56.0	10.2	6.12e-01	0	27	0	2348810240	68	5600
2026-01-13 19:30:34.61	100.35	5.41	-52.6	-56.0	10.1	6.12e-01	0	27	0	2363490304	68	5646
2026-01-13 19:30:35.62	100.54	5.37	-52.5	-56.0	10.2	6.08e-01	0	27	0	2380267520	68	5656
2026-01-13 19:30:36.63	100.73	5.34	-52.5	-55.9	10.2	6.13e-01	0	27	0	2394947584	68	5587
2026-01-13 19:30:37.64	100.93	5.30	-52.5	-55.9	10.2	6.13e-01	0	27	0	2409627648	68	5588
2026-01-13 19:30:38.65	101.12	5.26	-52.6	-56.0	10.2	6.11e-01	0	27	0	2426404864	68	5614
2026-01-13 19:30:39.65	101.31	5.22	-52.6	-56.0	10.1	6.12e-01	0	27	0	2441084928	68	5641
2026-01-13 19:30:40.66	101.50	5.18	-52.4	-55.7	10.3	6.11e-01	0	27	0	2457862144	68	5454
2026-01-13 19:30:41.67	101.69	5.14	-52.3	-55.5	10.5	6.12e-01	0	27	0	2472542208	68	5320
2026-01-13 19:30:42.68	101.88	5.10	-52.5	-55.7	10.4	6.10e-01	0	27	0	2487222272	68	5418
2026-01-13 19:30:43.69	102.07	5.07	-52.5	-55.6	10.4	6.10e-01	0	27	0	2503999488	68	5393
2026-01-13 19:30:44.70	102.25	5.03	-52.5	-55.6	10.4	6.12e-01	0	27	0	2518679552	68	5396
2026-01-13 19:30:45.71	102.44	4.99	-57.6	-63.2	5.1	6.94e-01	0	27	0	2533359616	78	7267
2026-01-13 19:30:46.72	102.63	4.95	-59.7	-69.4	3.8	7.46e-01	0	27	104	2535456768	82	11693
2026-01-13 19:30:47.73	102.81	4.91	-60.0	-69.7	3.8	7.45e-01	0	27	104	2535456768	83	11451
2026-01-13 19:30:48.74	103.00	4.87	-60.1	-69.9	3.8	7.44e-01	0	27	104	2535456768	83	11779
2026-01-13 19:30:49.74	103.18	4.83	-60.3	-70.1	3.8	7.44e-01	0	27	104	2535456768	83	11959
2026-01-13 19:30:50.75	103.37	4.79	-60.6	-70.3	3.8	7.46e-01	0	27	104	2535456768	84	11665
2026-01-13 19:30:51.76	103.55	4.75	-60.7	-70.4	3.8	7.47e-01	0	27	104	2535456768	84	11774
2026-01-13 19:30:52.76	103.73	4.71	-60.8	-70.5	3.8	7.45e-01	0	27	104	2535456768	84	11924
2026-01-13 19:30:53.76	103.91	4.67	-60.9	-70.6	3.8	7.45e-01	0	27	104	2535456768	84	12069
2026-01-13 19:30:54.77	104.09	4.63	-60.9	-70.7	3.8	7.46e-01	0	27	104	2535456768	85	11446
2026-01-13 19:30:55.78	104.27	4.59	-61.0	-70.7	3.8	7.45e-01	0	27	104	2535456768	85	11505
2026-01-13 19:30:56.79	104.45	4.54	-61.0	-70.8	3.8	7.46e-01	0	27	104	2535456768	85	11559
2026-01-13 19:30:57.80	104.63	4.50	-61.0	-70.8	3.8	7.45e-01	0	27	104	2535456768	85	11552
2026-01-13 19:30:58.81	104.81	4.46	-61.1	-70.8	3.8	7.45e-01	0	27	104	2535456768	85	11647
2026-01-13 19:30:59.81	104.99	4.42	-61.1	-70.8	3.8	7.45e-01	0	27	104	2535456768	85	11654
2026-01-13 19:31:00.82	105.17	4.38	-61.1	-70.9	3.8	7.45e-01	0	27	104	2535456768	85	11685
2026-01-13 19:31:01.83	105.35	4.34	-61.2	-70.9	3.8	7.45e-01	0	27	104	2535456768	85	11775
2026-01-13 19:31:02.85	105.52	4.30	-61.2	-70.9	3.8	7.46e-01	0	27	104	2535456768	85	11789
2026-01-13 19:31:03.85	105.70	4.26	-61.2	-70.9	3.8	7.44e-01	0	27	104	2535456768	85	11803
2026-01-13 19:31:04.86	105.87	4.21	-61.2	-70.9	3.8	7.45e-01	0	27	104	2535456768	85	11781
2026-01-13 19:31:05.87	106.05	4.17	-61.2	-71.0	3.8	7.44e-01	0	27	104	2535456768	85	11831
2026-01-13 19:31:06.88	106.22	4.13	-61.2	-71.0	3.8	7.45e-01	0	27	104	2535456768	85	11826
2026-01-13 19:31:07.89	106.40	4.09	-61.2	-71.0	3.8	7.45e-01	0	27	104	2535456768	85	11840
2026-01-13 19:31:08.90	106.57	4.05	-61.2	-70.9	3.8	7.45e-01	0	27	104	2535456768	85	11816
2026-01-13 19:31:09.91	106.74	4.00	-61.3	-71.0	3.8	7.45e-01	0	27	104	2535456768	85	11884
2026-01-13 19:31:10.91	106.91	3.96	-61.3	-71.0	3.8	7.45e-01	0	27	104	2535456768	85	11920
2026-01-13 19:31:11.92	107.08	3.92	-61.3	-71.0	3.8	7.45e-01	0	27	104	2535456768	85	11940
2026-01-13 19:31:12.94	107.26	3.88	-61.3	-71.0	3.8	7.45e-01	0	27	104	2535456768	85	11922
2026-01-13 19:31:13.95	107.43	3.83	-61.3	-71.1	3.8	7.44e-01	0	27	104	2535456768	85	11988
2026-01-13 19:31:14.95	107.59	3.79	-61.3	-71.1	3.8	7.45e-01	0	27	104	2535456768	85	11969
2026-01-13 19:31:15.97	107.76	3.75	-61.3	-71.0	3.8	7.46e-01	0	27	104	2535456768	85	11886
2026-01-13 19:31:16.98	107.93	3.71	-61.2	-71.0	3.8	7.46e-01	0	27	104	2535456768	85	11872
2026-01-13 19:31:17.99	108.10	3.66	-61.2	-71.0	3.8	7.45e-01	0	27	104	2535456768	85	11838
2026-01-13 19:31:19.00	108.27	3.62	-61.2	-71.0	3.8	7.46e-01	0	27	104	2535456768	85	11830
2026-01-13 19:31:20.01	108.43	3.58	-61.2	-71.0	3.8	7.44e-01	0	27	104	2535456768	85	11884
2026-01-13 19:31:21.01	108.60	3.53	-61.2	-71.0	3.8	7.45e-01	0	27	104	2535456768	85	11830
2026-01-13 19:31:22.02	108.76	3.49	-61.2	-71.0	3.8	7.48e-01	0	27	104	2535456768	85	11854
2026-01-13 19:31:23.03	108.93	3.45	-61.2	-71.0	3.8	7.46e-01	0	27	104	2535456768	85	11853
2026-01-13 19:31:24.04	109.09	3.40	-61.2	-71.0	3.8	7.46e-01	0	27	104	2535456768	85	11827
2026-01-13 19:31:25.04	109.25	3.36	-61.2	-70.9	3.8	7.46e-01	0	27	104	2535456768	85	11788
2026-01-13 19:31:26.05	109.41	3.32	-61.2	-70.9	3.8	7.46e-01	0	27	104	2535456768	85	11739
2026-01-13 19:31:27.06	109.58	3.27	-61.2	-71.0	3.8	7.46e-01	0	27	104	2535456768	85	11839
2026-01-13 19:31:28.07	109.74	3.23	-61.2	-70.9	3.8	7.46e-01	0	27	104	2535456768	85	11781
2026-01-13 19:31:29.08	109.90	3.19	-61.2	-70.9	3.8	7.48e-01	0	27	104	2535456768	85	11781
2026-01-13 19:31:30.09	110.06	3.14	-61.2	-70.9	3.8	7.47e-01	0	27	104	2535456768	85	11805
2026-01-13 19:31:31.10	110.22	3.10	-61.2	-70.9	3.8	7.46e-01	0	27	104	2535456768	85	11776
2026-01-13 19:31:32.11	110.38	3.06	-61.2	-70.9	3.8	7.46e-01	0	27	104	2535456768	85	11781
2026-01-13 19:31:33.11	110.54	3.01	-61.1	-70.9	3.8	7.47e-01	0	27	104	2535456768	85	11729
2026-01-13 19:31:34.12	110.69	2.97	-61.1	-70.9	3.8	7.46e-01	0	27	104	2535456768	85	11744
2026-01-13 19:31:35.13	110.85	2.92	-61.1	-70.9	3.8	7.46e-01	0	27	104	2535456768	85	11695
2026-01-13 19:31:36.14	111.01	2.88	-61.1	-70.9	3.8	7.44e-01	0	27	104	2535456768	85	11730
2026-01-13 19:31:37.15	111.16	2.84	-61.1	-70.9	3.8	7.46e-01	0	27	104	2535456768	85	11747
2026-01-13 19:31:38.16	111.32	2.79	-61.1	-70.9	3.8	7.44e-01	0	27	104	2535456768	85	11724
2026-01-13 19:31:39.17	111.48	2.75	-61.1	-70.9	3.8	7.47e-01	0	27	104	2535456768	85	11746
2026-01-13 19:31:40.17	111.63	2.70	-61.1	-70.9	3.8	7.44e-01	0	27	104	2535456768	85	11740
2026-01-13 19:31:41.18	111.78	2.66	-61.1	-70.9	3.8	7.45e-01	0	27	104	2535456768	85	11727
2026-01-13 19:31:42.19	111.94	2.62	-61.1	-70.9	3.8	7.45e-01	0	27	104	2535456768	85	11751
2026-01-13 19:31:43.20	112.09	2.57	-61.1	-70.9	3.8	7.46e-01	0	27	104	2535456768	85	11706
2026-01-13 19:31:44.20	112.24	2.53	-61.1	-70.9	3.8	7.46e-01	0	27	104	2535456768	85	11745
2026-01-13 19:31:45.21	112.39	2.48	-61.1	-70.9	3.8	7.44e-01	0	27	104	2535456768	85	11739
2026-01-13 19:31:46.22	112.54	2.44	-61.1	-70.9	3.8	7.45e-01	0	27	104	2535456768	85	11692
2026-01-13 19:31:47.23	112.69	2.39	-61.1	-70.9	3.8	7.46e-01	0	27	104	2535456768	85	11758
2026-01-13 19:31:48.24	112.84	2.35	-61.1	-70.9	3.8	7.44e-01	0	28	104	2535456768	85	11741
2026-01-13 19:31:49.24	112.99	2.30	-61.1	-70.9	3.8	7.46e-01	0	27	104	2535456768	85	11728
2026-01-13 19:31:50.26	113.14	2.26	-61.1	-70.8	3.8	7.46e-01	0	27	104	2535456768	85	11681
2026-01-13 19:31:51.27	113.29	2.21	-61.1	-70.8	3.8	7.46e-01	0	27	104	2535456768	85	11681
2026-01-13 19:31:52.27	113.43	2.17	-61.1	-70.9	3.8	7.45e-01	0	27	104	2535456768	85	11702
2026-01-13 19:31:53.28	113.58	2.13	-61.1	-70.9	3.8	7.45e-01	0	28	104	2535456768	85	11712
2026-01-13 19:31:54.29	113.73	2.08	-61.1	-70.8	3.8	7.44e-01	0	27	104	2535456768	85	11680
2026-01-13 19:31:55.29	113.87	2.04	-61.1	-70.8	3.8	7.48e-01	0	27	104	2535456768	85	11660
2026-01-13 19:31:56.30	114.02	1.99	-61.1	-70.9	3.8	7.44e-01	0	27	104	2535456768	85	11721
2026-01-13 19:31:57.31	114.16	1.95	-61.1	-70.9	3.8	7.44e-01	0	27	104	2535456768	85	11724

#Closed at: 2026-01-13 19:31:57
#Recorded file [2535 MB]: D:/lorett/data/31004_260113_222452.dat