passes_logs/2026/01/13/R3.2S_Murmansk/R3.2S_Murmansk__20260113_082607_SUOMI_NPP_rec.log

#Pass ID: 20260113_082607_SUOMI NPP
#Satellite: SUOMI NPP
#Configuration: NPP
#almurnet v.1.7.20251203
#Start time: 2026-01-13 08:26:07

#Version: 2.2.20231116
#Station: R3.2S_Murmansk
#Location: 33.079688 lon 68.888172 lat
#TLE: 1 37849U 11061A   26012.91893989  .00000069  00000+0  53763-4 0  9999
#TLE: 2 37849  98.7807 314.9855 0002493  67.2726 292.8714 14.19524788736418

#Time	Az	El	Level	Level2	SNR	BER	BlckErr	Temp	State	Recorded	gain1	gain2
2026-01-13 08:26:07.21	124.52	1.96	-57.6	-73.6	3.8	1.49e+00	0	24	0	0	81	22689
2026-01-13 08:26:08.22	124.50	2.03	-57.6	-73.6	3.8	1.49e+00	0	24	104	0	80	23950
2026-01-13 08:26:09.24	124.47	2.09	-57.6	-73.6	3.8	1.49e+00	0	24	104	0	80	24012
2026-01-13 08:26:10.24	124.44	2.16	-57.6	-73.6	3.8	1.49e+00	0	24	104	0	80	23954
2026-01-13 08:26:11.26	124.42	2.22	-57.6	-73.6	3.8	1.49e+00	0	24	104	0	80	24032
2026-01-13 08:26:12.26	124.39	2.28	-57.6	-73.6	3.8	1.49e+00	0	24	104	0	80	23995
2026-01-13 08:26:13.27	124.36	2.35	-57.6	-73.6	3.8	1.49e+00	0	24	104	0	80	23994
2026-01-13 08:26:14.28	124.34	2.41	-57.6	-73.6	3.8	1.49e+00	0	24	104	0	80	24031
2026-01-13 08:26:15.29	124.31	2.48	-57.6	-73.6	3.8	1.49e+00	0	24	104	0	80	24001
2026-01-13 08:26:16.30	124.28	2.54	-57.6	-73.6	3.8	1.49e+00	0	24	104	0	80	24024
2026-01-13 08:26:17.31	124.26	2.61	-57.6	-73.6	3.8	1.49e+00	0	24	104	0	80	23959
2026-01-13 08:26:18.32	124.23	2.67	-57.6	-73.6	3.8	1.49e+00	0	24	104	0	80	23863
2026-01-13 08:26:19.33	124.20	2.74	-57.6	-73.5	3.8	1.49e+00	0	24	104	0	80	23850
2026-01-13 08:26:20.34	124.17	2.80	-57.6	-73.6	3.8	1.49e+00	0	24	104	0	80	23920
2026-01-13 08:26:21.35	124.15	2.87	-57.6	-73.6	3.8	1.49e+00	0	24	104	0	80	23976
2026-01-13 08:26:22.36	124.12	2.93	-57.6	-73.6	3.8	1.49e+00	0	24	104	0	80	23971
2026-01-13 08:26:23.37	124.09	3.00	-57.6	-73.6	3.8	1.49e+00	0	24	104	0	80	23981
2026-01-13 08:26:24.38	124.06	3.07	-57.6	-73.6	3.8	1.49e+00	0	24	104	0	80	23938
2026-01-13 08:26:25.39	124.03	3.13	-57.6	-73.6	3.8	1.49e+00	0	24	104	0	80	24019
2026-01-13 08:26:26.40	124.01	3.20	-57.6	-73.6	3.8	1.49e+00	0	24	104	0	80	23995
2026-01-13 08:26:27.41	123.98	3.26	-57.6	-73.6	3.8	1.49e+00	0	24	104	0	80	23937
2026-01-13 08:26:28.42	123.95	3.33	-57.6	-73.5	3.8	1.49e+00	0	24	104	0	80	23730
2026-01-13 08:26:29.43	123.92	3.40	-57.6	-73.4	3.8	1.49e+00	0	24	104	0	80	23581
2026-01-13 08:26:30.44	123.89	3.46	-57.6	-73.3	3.8	1.49e+00	0	24	104	0	80	23287
2026-01-13 08:26:31.45	123.86	3.53	-57.6	-73.2	3.8	1.49e+00	0	24	104	0	80	23044
2026-01-13 08:26:32.46	123.83	3.60	-57.6	-73.1	3.8	1.49e+00	0	24	104	0	80	22618
2026-01-13 08:26:33.47	123.80	3.67	-57.6	-73.0	3.8	1.49e+00	0	25	104	0	80	22344
2026-01-13 08:26:34.48	123.77	3.73	-57.6	-72.9	3.8	1.49e+00	0	24	104	0	80	22104
2026-01-13 08:26:35.48	123.74	3.80	-57.6	-72.7	3.8	1.49e+00	0	24	104	0	80	21567
2026-01-13 08:26:36.49	123.71	3.87	-57.6	-72.6	3.8	1.49e+00	0	25	104	0	80	21300
2026-01-13 08:26:37.50	123.68	3.94	-57.6	-72.5	3.8	1.49e+00	0	24	104	0	80	21045
2026-01-13 08:26:38.51	123.65	4.00	-57.6	-72.4	3.8	1.49e+00	0	25	104	0	80	20810
2026-01-13 08:26:39.52	123.62	4.07	-57.6	-72.1	3.8	1.49e+00	0	24	104	0	80	20221
2026-01-13 08:26:40.52	123.59	4.14	-57.5	-71.5	4.0	1.49e+00	0	25	104	0	80	18753
2026-01-13 08:26:41.53	123.56	4.21	-57.5	-70.1	4.2	1.48e+00	0	25	104	0	80	15984
2026-01-13 08:26:42.54	123.53	4.28	-57.4	-68.5	4.7	1.17e+00	0	25	0	1048576	80	13383
2026-01-13 08:26:43.55	123.50	4.35	-57.2	-66.8	5.6	6.68e-01	0	25	0	2097152	80	10977
2026-01-13 08:26:44.56	123.47	4.42	-56.9	-64.8	7.1	1.73e-01	0	25	0	4194304	80	8698
2026-01-13 08:26:45.57	123.44	4.49	-56.4	-62.8	8.8	4.16e-02	0	25	0	6291456	79	7305
2026-01-13 08:26:46.58	123.41	4.56	-55.9	-61.0	10.3	4.98e-03	0	25	0	8388608	78	6327
2026-01-13 08:26:47.59	123.38	4.62	-55.5	-60.0	11.1	3.05e-04	0	25	0	10485760	77	5956
2026-01-13 08:26:48.60	123.34	4.69	-54.7	-58.4	12.3	9.90e-06	0	25	0	11534336	76	5228
2026-01-13 08:26:49.60	123.31	4.76	-54.4	-57.8	12.6	7.00e-07	0	25	0	13631488	75	5199
2026-01-13 08:26:50.61	123.28	4.83	-53.9	-57.1	12.9	0.00e+00	0	25	0	15728640	74	5051
2026-01-13 08:26:51.62	123.25	4.90	-53.5	-56.6	13.0	1.44e-04	0	25	0	17825792	73	5084
2026-01-13 08:26:52.62	123.22	4.97	-53.4	-56.5	13.1	7.00e-07	0	25	0	19922944	73	4984
2026-01-13 08:26:53.63	123.18	5.05	-54.0	-57.3	12.8	6.81e-04	0	25	0	22020096	73	5492
2026-01-13 08:26:54.64	123.15	5.12	-53.7	-56.8	13.0	2.38e-03	0	25	0	23068672	73	5164
2026-01-13 08:26:55.65	123.12	5.19	-53.9	-57.1	12.8	5.58e-03	0	25	0	25165824	73	5379
2026-01-13 08:26:56.66	123.08	5.26	-55.2	-60.3	11.0	1.39e-02	0	25	0	27262976	76	6565
2026-01-13 08:26:57.67	123.05	5.33	-53.6	-56.7	13.0	1.18e-02	0	25	0	29360128	73	5136
2026-01-13 08:26:58.68	123.02	5.40	-53.3	-56.3	13.1	4.73e-03	0	25	0	31457280	73	4896
2026-01-13 08:26:59.68	122.98	5.47	-53.3	-56.3	13.2	5.03e-03	0	25	0	32505856	73	4895
2026-01-13 08:27:00.69	122.95	5.54	-53.0	-56.0	13.3	1.51e-02	0	25	0	34603008	72	5018
2026-01-13 08:27:01.70	122.92	5.62	-52.9	-56.0	13.3	1.45e-02	0	25	0	36700160	72	4995
2026-01-13 08:27:02.71	122.88	5.69	-53.1	-56.0	13.3	9.50e-03	0	25	0	38797312	72	5030
2026-01-13 08:27:03.72	122.85	5.76	-53.0	-55.7	13.5	1.31e-03	0	25	0	40894464	72	4836
2026-01-13 08:27:04.73	122.81	5.83	-53.3	-55.9	13.4	1.08e-02	0	25	0	41943040	72	4975
2026-01-13 08:27:05.74	122.78	5.91	-53.2	-55.9	13.4	5.36e-04	0	25	0	44040192	72	4962
2026-01-13 08:27:06.75	122.74	5.98	-53.2	-55.7	13.7	0.00e+00	0	25	0	46137344	72	4843
2026-01-13 08:27:07.76	122.71	6.05	-53.1	-55.6	13.8	0.00e+00	0	25	0	48234496	72	4799
2026-01-13 08:27:08.77	122.67	6.13	-53.2	-55.8	13.7	0.00e+00	0	25	0	50331648	72	4878
2026-01-13 08:27:09.78	122.64	6.20	-53.5	-56.1	13.5	0.00e+00	0	25	0	51380224	72	5060
2026-01-13 08:27:10.78	122.60	6.27	-53.5	-56.1	13.5	0.00e+00	0	25	0	53477376	72	5086
2026-01-13 08:27:11.79	122.57	6.35	-53.5	-56.1	13.5	0.00e+00	0	25	0	55574528	72	5079
2026-01-13 08:27:12.80	122.53	6.42	-53.4	-55.9	13.6	0.00e+00	0	25	0	57671680	72	4978
2026-01-13 08:27:13.80	122.49	6.50	-53.1	-55.6	13.8	0.00e+00	0	25	0	59768832	72	4777
2026-01-13 08:27:14.80	122.46	6.57	-53.1	-55.6	13.9	0.00e+00	0	25	0	60817408	72	4776
2026-01-13 08:27:15.81	122.42	6.64	-53.2	-55.7	13.8	0.00e+00	0	25	0	62914560	72	4858
2026-01-13 08:27:16.82	122.38	6.72	-53.2	-55.6	13.8	0.00e+00	0	25	0	65011712	72	4805
2026-01-13 08:27:17.83	122.35	6.80	-53.1	-55.5	13.9	0.00e+00	0	25	0	67108864	72	4737
2026-01-13 08:27:18.83	122.31	6.87	-53.1	-55.5	13.9	0.00e+00	0	25	0	69206016	72	4731
2026-01-13 08:27:19.84	122.27	6.95	-53.1	-55.4	14.0	0.00e+00	0	25	0	70254592	72	4687
2026-01-13 08:27:20.85	122.23	7.02	-53.1	-55.5	13.9	0.00e+00	0	25	0	72351744	72	4713
2026-01-13 08:27:21.85	122.20	7.10	-53.1	-55.5	13.9	0.00e+00	0	25	0	74448896	72	4752
2026-01-13 08:27:22.85	122.16	7.17	-53.2	-55.7	13.8	0.00e+00	0	25	0	76546048	72	4831
2026-01-13 08:27:23.86	122.12	7.25	-53.2	-55.6	13.9	0.00e+00	0	25	0	78643200	72	4771
2026-01-13 08:27:24.87	122.08	7.33	-53.2	-55.5	13.9	0.00e+00	0	25	0	79691776	72	4750
2026-01-13 08:27:25.88	122.04	7.40	-53.2	-55.6	13.9	0.00e+00	0	25	0	81788928	72	4800
2026-01-13 08:27:26.88	122.00	7.48	-53.0	-55.4	14.0	0.00e+00	0	25	0	83886080	72	4653
2026-01-13 08:27:27.89	121.97	7.56	-53.0	-55.3	14.0	0.00e+00	0	25	0	85983232	72	4639
2026-01-13 08:27:28.90	121.93	7.63	-53.3	-55.7	13.8	0.00e+00	0	25	0	88080384	72	4859
2026-01-13 08:27:29.91	121.89	7.71	-53.0	-55.3	14.0	0.00e+00	0	25	0	89128960	72	4636
2026-01-13 08:27:30.91	121.85	7.79	-53.0	-55.4	14.0	0.00e+00	0	25	0	91226112	72	4652
2026-01-13 08:27:31.92	121.81	7.87	-53.1	-55.4	14.0	0.00e+00	0	25	0	93323264	72	4705
2026-01-13 08:27:32.93	121.77	7.95	-53.0	-55.3	14.1	0.00e+00	0	25	0	95420416	72	4602
2026-01-13 08:27:33.94	121.72	8.03	-53.1	-55.4	14.0	0.00e+00	0	25	0	97517568	72	4657
2026-01-13 08:27:34.94	121.68	8.10	-53.1	-55.4	14.0	0.00e+00	0	25	0	98566144	72	4685
2026-01-13 08:27:35.95	121.64	8.18	-53.1	-55.4	14.0	0.00e+00	0	25	0	100663296	72	4662
2026-01-13 08:27:36.96	121.60	8.26	-52.9	-55.2	14.2	0.00e+00	0	25	0	102760448	72	4551
2026-01-13 08:27:37.96	121.56	8.34	-53.0	-55.3	14.1	0.00e+00	0	25	0	104857600	72	4601
2026-01-13 08:27:38.97	121.52	8.42	-52.9	-55.1	14.2	0.00e+00	0	25	0	106954752	72	4540
2026-01-13 08:27:39.98	121.48	8.50	-52.9	-55.1	14.2	0.00e+00	0	25	0	108003328	72	4531
2026-01-13 08:27:40.99	121.43	8.58	-52.9	-55.1	14.2	0.00e+00	0	25	0	110100480	72	4527
2026-01-13 08:27:42.00	121.39	8.66	-52.9	-55.1	14.2	0.00e+00	0	25	0	112197632	72	4545
2026-01-13 08:27:43.01	121.35	8.74	-52.9	-55.1	14.2	0.00e+00	0	25	0	114294784	72	4530
2026-01-13 08:27:44.01	121.31	8.82	-53.0	-55.2	14.2	0.00e+00	0	25	0	116391936	72	4563
2026-01-13 08:27:45.02	121.26	8.91	-52.9	-55.1	14.2	0.00e+00	0	25	0	117440512	72	4501
2026-01-13 08:27:46.03	121.22	8.99	-52.9	-55.1	14.2	0.00e+00	0	25	0	119537664	72	4535
2026-01-13 08:27:47.04	121.17	9.07	-52.8	-55.0	14.3	0.00e+00	0	25	0	121634816	72	4443
2026-01-13 08:27:48.05	121.13	9.15	-52.9	-55.1	14.2	0.00e+00	0	25	0	123731968	72	4514
2026-01-13 08:27:49.06	121.09	9.23	-52.9	-55.1	14.2	0.00e+00	0	25	0	125829120	72	4511
2026-01-13 08:27:50.07	121.04	9.32	-52.9	-55.1	14.2	0.00e+00	0	25	0	126877696	72	4497
2026-01-13 08:27:51.08	121.00	9.40	-52.7	-54.8	14.3	0.00e+00	0	25	0	128974848	71	4612
2026-01-13 08:27:52.08	120.95	9.48	-52.8	-55.0	14.1	0.00e+00	0	25	0	131072000	71	4715
2026-01-13 08:27:53.09	120.90	9.57	-52.7	-54.9	14.2	0.00e+00	0	25	0	133169152	71	4666
2026-01-13 08:27:54.10	120.86	9.65	-52.7	-54.8	14.2	0.00e+00	0	25	0	135266304	71	4634
2026-01-13 08:27:55.11	120.81	9.73	-52.8	-54.9	14.2	0.00e+00	0	25	0	136314880	71	4687
2026-01-13 08:27:56.11	120.77	9.82	-52.7	-54.8	14.3	0.00e+00	0	25	0	138412032	71	4610
2026-01-13 08:27:57.12	120.72	9.90	-52.8	-54.9	14.2	0.00e+00	0	25	0	140509184	71	4690
2026-01-13 08:27:58.13	120.67	9.99	-52.7	-54.8	14.2	0.00e+00	0	25	0	142606336	71	4639
2026-01-13 08:27:59.14	120.63	10.07	-52.7	-54.8	14.3	0.00e+00	0	25	0	144703488	71	4637
2026-01-13 08:28:00.15	120.58	10.16	-52.7	-54.8	14.3	0.00e+00	0	25	0	145752064	71	4616
2026-01-13 08:28:01.15	120.53	10.24	-52.7	-54.8	14.3	0.00e+00	0	25	0	147849216	71	4627
2026-01-13 08:28:02.16	120.48	10.33	-52.6	-54.7	14.3	0.00e+00	0	25	0	149946368	71	4569
2026-01-13 08:28:03.17	120.43	10.41	-52.6	-54.7	14.3	0.00e+00	0	25	0	152043520	71	4559
2026-01-13 08:28:04.18	120.39	10.50	-52.5	-54.5	14.4	0.00e+00	0	25	0	154140672	71	4466
2026-01-13 08:28:05.19	120.34	10.59	-52.5	-54.5	14.4	0.00e+00	0	25	0	155189248	71	4489
2026-01-13 08:28:06.20	120.29	10.67	-52.4	-54.4	14.5	0.00e+00	0	25	0	157286400	71	4396
2026-01-13 08:28:07.21	120.24	10.76	-52.4	-54.4	14.5	0.00e+00	0	25	0	159383552	71	4429
2026-01-13 08:28:08.21	120.19	10.85	-52.5	-54.5	14.5	0.00e+00	0	25	0	161480704	71	4445
2026-01-13 08:28:09.23	120.14	10.94	-52.5	-54.5	14.4	0.00e+00	0	25	0	163577856	71	4442
2026-01-13 08:28:10.23	120.09	11.02	-52.6	-54.6	14.4	0.00e+00	0	25	0	164626432	71	4514
2026-01-13 08:28:11.24	120.04	11.11	-52.6	-54.6	14.4	0.00e+00	0	25	0	166723584	71	4533
2026-01-13 08:28:12.25	119.98	11.20	-52.8	-54.9	14.3	0.00e+00	0	25	0	168820736	71	4656
2026-01-13 08:28:13.26	119.93	11.29	-52.8	-54.9	14.2	0.00e+00	0	25	0	170917888	71	4677
2026-01-13 08:28:14.27	119.88	11.38	-52.8	-55.0	14.2	0.00e+00	0	25	0	173015040	71	4715
2026-01-13 08:28:15.28	119.83	11.47	-52.7	-54.8	14.3	0.00e+00	0	25	0	175112192	71	4623
2026-01-13 08:28:16.29	119.77	11.56	-52.5	-54.6	14.4	0.00e+00	0	25	0	176160768	71	4504
2026-01-13 08:28:17.30	119.72	11.65	-52.6	-54.6	14.4	0.00e+00	0	25	0	178257920	71	4534
2026-01-13 08:28:18.31	119.67	11.74	-52.5	-54.5	14.4	0.00e+00	0	25	0	180355072	71	4492
2026-01-13 08:28:19.32	119.61	11.83	-52.3	-54.5	14.5	0.00e+00	0	25	0	182452224	71	4456
2026-01-13 08:28:20.33	119.56	11.92	-52.3	-54.5	14.5	0.00e+00	0	25	0	184549376	71	4484
2026-01-13 08:28:21.34	119.51	12.01	-52.1	-54.2	14.5	0.00e+00	0	25	0	185597952	70	4590
2026-01-13 08:28:22.34	119.45	12.10	-52.0	-54.1	14.5	0.00e+00	0	25	0	187695104	70	4516
2026-01-13 08:28:23.35	119.40	12.20	-52.0	-54.1	14.5	0.00e+00	0	26	0	189792256	70	4535
2026-01-13 08:28:24.36	119.34	12.29	-52.0	-54.2	14.5	0.00e+00	0	25	0	191889408	70	4552
2026-01-13 08:28:25.37	119.28	12.38	-52.1	-54.3	14.5	0.00e+00	0	25	0	193986560	70	4604
2026-01-13 08:28:26.38	119.23	12.47	-52.2	-54.4	14.4	0.00e+00	0	25	0	195035136	70	4704
2026-01-13 08:28:27.38	119.17	12.57	-52.2	-54.4	14.4	0.00e+00	0	26	0	197132288	70	4705
2026-01-13 08:28:28.39	119.12	12.66	-52.2	-54.4	14.4	0.00e+00	0	25	0	199229440	70	4702
2026-01-13 08:28:29.39	119.06	12.75	-52.2	-54.4	14.4	0.00e+00	0	25	0	201326592	70	4697
2026-01-13 08:28:30.40	119.00	12.85	-52.0	-54.2	14.5	0.00e+00	0	25	0	203423744	70	4568
2026-01-13 08:28:31.41	118.94	12.94	-52.1	-54.2	14.5	0.00e+00	0	25	0	204472320	70	4596
2026-01-13 08:28:32.41	118.88	13.04	-52.1	-54.3	14.4	0.00e+00	0	25	0	206569472	70	4644
2026-01-13 08:28:33.42	118.83	13.13	-52.1	-54.2	14.5	0.00e+00	0	25	0	208666624	70	4567
2026-01-13 08:28:34.43	118.77	13.23	-52.0	-54.1	14.5	0.00e+00	0	25	0	210763776	70	4503
2026-01-13 08:28:35.44	118.71	13.33	-52.0	-54.1	14.5	0.00e+00	0	25	0	212860928	70	4532
2026-01-13 08:28:36.45	118.65	13.42	-52.2	-54.4	14.5	0.00e+00	0	25	0	213909504	70	4656
2026-01-13 08:28:37.46	118.59	13.52	-52.1	-54.2	14.5	0.00e+00	0	25	0	216006656	70	4596
2026-01-13 08:28:38.47	118.52	13.62	-52.0	-54.1	14.5	0.00e+00	0	26	0	218103808	70	4533
2026-01-13 08:28:39.47	118.46	13.71	-52.2	-54.5	14.4	0.00e+00	0	25	0	220200960	70	4712
2026-01-13 08:28:40.48	118.40	13.81	-52.2	-54.5	14.4	0.00e+00	0	25	0	222298112	70	4712
2026-01-13 08:28:41.49	118.34	13.91	-52.2	-54.4	14.4	0.00e+00	0	25	0	223346688	70	4664
2026-01-13 08:28:42.49	118.28	14.01	-52.2	-54.4	14.4	0.00e+00	0	25	0	225443840	70	4699
2026-01-13 08:28:43.50	118.21	14.11	-52.2	-54.4	14.4	0.00e+00	0	26	0	227540992	70	4683
2026-01-13 08:28:44.52	118.15	14.21	-52.1	-54.2	14.5	0.00e+00	0	25	0	229638144	70	4590
2026-01-13 08:28:45.52	118.09	14.30	-52.1	-54.2	14.5	0.00e+00	0	25	0	231735296	70	4597
2026-01-13 08:28:46.53	118.02	14.40	-52.1	-54.2	14.5	0.00e+00	0	25	0	232783872	70	4577
2026-01-13 08:28:47.53	117.96	14.50	-51.9	-54.0	14.6	0.00e+00	0	25	0	234881024	70	4460
2026-01-13 08:28:48.54	117.89	14.60	-51.9	-54.0	14.6	0.00e+00	0	25	0	236978176	70	4464
2026-01-13 08:28:49.55	117.83	14.71	-52.1	-54.2	14.5	0.00e+00	0	25	0	239075328	70	4577
2026-01-13 08:28:50.56	117.76	14.81	-51.9	-54.1	14.6	0.00e+00	0	25	0	241172480	70	4502
2026-01-13 08:28:51.57	117.69	14.91	-52.1	-54.2	14.5	0.00e+00	0	25	0	242221056	70	4583
2026-01-13 08:28:52.58	117.62	15.01	-52.2	-54.4	14.4	0.00e+00	0	25	0	244318208	70	4655
2026-01-13 08:28:53.59	117.56	15.11	-52.3	-54.6	14.3	0.00e+00	0	26	0	246415360	70	4812
2026-01-13 08:28:54.60	117.49	15.22	-52.0	-54.2	14.5	0.00e+00	0	25	0	248512512	70	4559
2026-01-13 08:28:55.61	117.42	15.32	-52.2	-54.4	14.4	0.00e+00	0	26	0	250609664	70	4694
2026-01-13 08:28:56.61	117.35	15.42	-52.2	-54.4	14.4	0.00e+00	0	26	0	251658240	70	4677
2026-01-13 08:28:57.62	117.28	15.53	-52.1	-54.4	14.4	0.00e+00	0	26	0	253755392	70	4653
2026-01-13 08:28:58.63	117.21	15.63	-51.9	-54.0	14.6	0.00e+00	0	25	0	255852544	70	4488
2026-01-13 08:28:59.64	117.14	15.74	-52.0	-54.2	14.5	0.00e+00	0	25	0	257949696	70	4581
2026-01-13 08:29:00.64	117.07	15.84	-51.9	-54.0	14.6	0.00e+00	0	26	0	260046848	70	4452
2026-01-13 08:29:01.65	117.00	15.95	-51.9	-54.0	14.6	0.00e+00	0	25	0	261095424	70	4484
2026-01-13 08:29:02.66	116.92	16.06	-52.0	-54.2	14.6	0.00e+00	0	25	0	263192576	70	4546
2026-01-13 08:29:03.67	116.85	16.16	-52.0	-54.2	14.6	0.00e+00	0	26	0	265289728	70	4549
2026-01-13 08:29:04.68	116.78	16.27	-52.2	-54.4	14.4	0.00e+00	0	26	0	267386880	70	4698
2026-01-13 08:29:05.69	116.70	16.38	-52.4	-54.7	14.3	0.00e+00	0	26	0	269484032	70	4825
2026-01-13 08:29:06.69	116.63	16.48	-52.2	-54.4	14.4	0.00e+00	0	25	0	270532608	70	4694
2026-01-13 08:29:07.70	116.56	16.59	-52.4	-54.6	14.3	0.00e+00	0	25	0	272629760	70	4796
2026-01-13 08:29:08.71	116.48	16.70	-52.4	-54.6	14.3	0.00e+00	0	26	0	274726912	70	4784
2026-01-13 08:29:09.71	116.40	16.81	-52.3	-54.5	14.4	0.00e+00	0	25	0	276824064	70	4708
2026-01-13 08:29:10.72	116.33	16.92	-52.2	-54.4	14.4	0.00e+00	0	25	0	278921216	70	4652
2026-01-13 08:29:11.73	116.25	17.03	-52.0	-54.1	14.6	0.00e+00	0	26	0	279969792	70	4502
2026-01-13 08:29:12.74	116.17	17.14	-52.2	-54.3	14.5	0.00e+00	0	26	0	282066944	70	4645
2026-01-13 08:29:13.74	116.09	17.25	-52.3	-54.5	14.4	0.00e+00	0	26	0	284164096	70	4730
2026-01-13 08:29:14.75	116.01	17.36	-52.2	-54.3	14.5	0.00e+00	0	26	0	286261248	70	4605
2026-01-13 08:29:15.76	115.93	17.47	-52.1	-54.2	14.5	0.00e+00	0	26	0	288358400	70	4570
2026-01-13 08:29:16.77	115.85	17.59	-52.2	-54.2	14.5	0.00e+00	0	26	0	289406976	70	4597
2026-01-13 08:29:17.78	115.77	17.70	-52.3	-54.4	14.4	0.00e+00	0	26	0	291504128	70	4674
2026-01-13 08:29:18.79	115.69	17.81	-52.3	-54.4	14.4	0.00e+00	0	25	0	293601280	70	4672
2026-01-13 08:29:19.80	115.61	17.93	-52.0	-54.0	14.6	0.00e+00	0	26	0	295698432	70	4444
2026-01-13 08:29:20.81	115.52	18.04	-52.1	-54.2	14.5	0.00e+00	0	25	0	297795584	70	4575
2026-01-13 08:29:21.82	115.44	18.16	-52.0	-54.1	14.6	0.00e+00	0	26	0	299892736	70	4494
2026-01-13 08:29:22.83	115.36	18.27	-52.0	-54.0	14.6	0.00e+00	0	25	0	300941312	70	4493
2026-01-13 08:29:23.84	115.27	18.39	-52.1	-54.1	14.6	0.00e+00	0	26	0	303038464	70	4530
2026-01-13 08:29:24.85	115.19	18.50	-52.0	-54.0	14.6	0.00e+00	0	26	0	305135616	70	4443
2026-01-13 08:29:25.85	115.10	18.62	-52.0	-54.0	14.6	0.00e+00	0	26	0	307232768	70	4493
2026-01-13 08:29:26.86	115.01	18.74	-52.2	-54.2	14.5	0.00e+00	0	26	0	309329920	70	4597
2026-01-13 08:29:27.87	114.93	18.85	-52.1	-54.2	14.6	0.00e+00	0	25	0	310378496	70	4560
2026-01-13 08:29:28.88	114.84	18.97	-52.2	-54.4	14.4	0.00e+00	0	26	0	312475648	70	4671
2026-01-13 08:29:29.89	114.75	19.09	-52.2	-54.3	14.5	0.00e+00	0	25	0	314572800	70	4637
2026-01-13 08:29:30.89	114.66	19.21	-52.4	-54.6	14.3	0.00e+00	0	26	0	316669952	70	4804
2026-01-13 08:29:31.90	114.57	19.33	-52.1	-54.2	14.5	0.00e+00	0	26	0	317718528	70	4570
2026-01-13 08:29:32.91	114.48	19.45	-52.1	-54.3	14.5	0.00e+00	0	25	0	319815680	70	4603
2026-01-13 08:29:33.91	114.39	19.57	-52.2	-54.4	14.5	0.00e+00	0	25	0	321912832	70	4656
2026-01-13 08:29:34.93	114.29	19.69	-52.1	-54.2	14.6	0.00e+00	0	25	0	324009984	70	4577
2026-01-13 08:29:35.94	114.20	19.81	-52.0	-54.1	14.6	0.00e+00	0	26	0	326107136	70	4503
2026-01-13 08:29:36.94	114.10	19.93	-52.2	-54.4	14.4	0.00e+00	0	26	0	328204288	70	4678
2026-01-13 08:29:37.95	114.01	20.05	-52.4	-54.6	14.4	0.00e+00	0	25	0	329252864	70	4778
2026-01-13 08:29:38.96	113.91	20.18	-52.4	-54.7	14.3	0.00e+00	0	26	0	331350016	70	4822
2026-01-13 08:29:39.97	113.82	20.30	-52.5	-54.8	14.3	0.00e+00	0	25	0	333447168	70	4872
2026-01-13 08:29:40.98	113.72	20.43	-52.6	-54.9	14.2	0.00e+00	0	26	0	335544320	70	4936
2026-01-13 08:29:41.98	113.62	20.55	-52.9	-55.3	14.0	0.00e+00	0	26	0	337641472	70	5188
2026-01-13 08:29:42.99	113.52	20.67	-52.6	-54.9	14.2	0.00e+00	0	26	0	338690048	70	4957
2026-01-13 08:29:44.00	113.42	20.80	-52.4	-54.6	14.3	0.00e+00	0	26	0	340787200	70	4797
2026-01-13 08:29:45.01	113.32	20.93	-52.7	-55.0	14.1	0.00e+00	0	25	0	342884352	70	5031
2026-01-13 08:29:46.01	113.22	21.05	-52.7	-55.0	14.2	0.00e+00	0	26	0	344981504	70	5003
2026-01-13 08:29:47.02	113.12	21.18	-52.6	-55.0	14.2	0.00e+00	0	26	0	347078656	70	4995
2026-01-13 08:29:48.03	113.01	21.31	-52.7	-55.1	14.2	0.00e+00	0	26	0	348127232	70	5044
2026-01-13 08:29:49.04	112.91	21.44	-52.6	-54.8	14.3	0.00e+00	0	25	0	350224384	70	4915
2026-01-13 08:29:50.05	112.80	21.57	-52.8	-55.1	14.2	0.00e+00	0	26	0	352321536	71	4800
2026-01-13 08:29:51.06	112.70	21.69	-52.9	-55.2	14.2	0.00e+00	0	26	0	354418688	71	4841
2026-01-13 08:29:52.07	112.59	21.82	-52.9	-55.1	14.2	0.00e+00	0	26	0	356515840	71	4804
2026-01-13 08:29:53.07	112.48	21.95	-52.6	-54.8	14.4	0.00e+00	0	25	0	357564416	71	4608
2026-01-13 08:29:54.08	112.38	22.09	-52.2	-54.2	14.7	0.00e+00	0	26	0	359661568	71	4330
2026-01-13 08:29:55.09	112.27	22.22	-52.6	-54.7	14.3	0.00e+00	0	26	0	361758720	70	4827
2026-01-13 08:29:56.10	112.15	22.35	-52.6	-54.7	14.3	0.00e+00	0	26	0	363855872	70	4847
2026-01-13 08:29:57.10	112.04	22.48	-52.5	-54.5	14.4	0.00e+00	0	26	0	365953024	70	4756
2026-01-13 08:29:58.11	111.93	22.61	-52.7	-54.9	14.2	0.00e+00	0	26	0	367001600	70	4933
2026-01-13 08:29:59.12	111.82	22.75	-53.0	-55.3	14.2	0.00e+00	0	26	0	369098752	71	4878
2026-01-13 08:30:00.13	111.70	22.88	-53.0	-55.3	14.1	0.00e+00	0	26	0	371195904	71	4904
2026-01-13 08:30:01.14	111.59	23.02	-53.0	-55.3	14.1	0.00e+00	0	26	0	373293056	71	4910
2026-01-13 08:30:02.15	111.47	23.15	-53.0	-55.3	14.1	0.00e+00	0	26	0	375390208	71	4884
2026-01-13 08:30:03.16	111.35	23.29	-53.1	-55.5	14.1	0.00e+00	0	26	0	376438784	71	5012
2026-01-13 08:30:04.17	111.23	23.43	-53.2	-55.6	14.0	0.00e+00	0	26	0	378535936	71	5091
2026-01-13 08:30:05.18	111.11	23.57	-53.1	-55.6	14.0	0.00e+00	0	26	0	380633088	71	5050
2026-01-13 08:30:06.19	110.99	23.70	-53.4	-55.9	14.0	0.00e+00	0	26	0	382730240	72	4966
2026-01-13 08:30:07.20	110.87	23.84	-53.5	-56.1	13.8	0.00e+00	0	26	0	384827392	72	5091
2026-01-13 08:30:08.20	110.75	23.98	-53.5	-56.3	13.7	0.00e+00	0	25	0	385875968	72	5176
2026-01-13 08:30:09.21	110.62	24.12	-53.3	-55.9	13.9	0.00e+00	0	25	0	387973120	72	4948
2026-01-13 08:30:10.22	110.50	24.26	-53.2	-55.8	14.0	0.00e+00	0	26	0	390070272	72	4873
2026-01-13 08:30:11.23	110.37	24.40	-53.1	-55.5	14.2	0.00e+00	0	26	0	392167424	72	4753
2026-01-13 08:30:12.23	110.24	24.54	-52.9	-55.3	14.2	0.00e+00	0	26	0	394264576	72	4643
2026-01-13 08:30:13.24	110.11	24.69	-53.0	-55.5	14.2	0.00e+00	0	26	0	395313152	72	4750
2026-01-13 08:30:14.24	109.98	24.83	-53.2	-55.7	14.1	0.00e+00	0	26	0	397410304	72	4859
2026-01-13 08:30:15.25	109.85	24.97	-53.3	-56.0	13.9	0.00e+00	0	26	0	399507456	72	4985
2026-01-13 08:30:16.26	109.72	25.11	-53.5	-56.2	13.8	0.00e+00	0	26	0	401604608	72	5131
2026-01-13 08:30:17.27	109.59	25.26	-53.7	-56.6	13.6	0.00e+00	0	26	0	403701760	72	5385
2026-01-13 08:30:18.28	109.45	25.41	-53.4	-56.1	13.8	0.00e+00	0	26	0	404750336	72	5090
2026-01-13 08:30:19.29	109.31	25.55	-53.5	-56.3	13.8	0.00e+00	0	26	0	406847488	72	5177
2026-01-13 08:30:20.30	109.18	25.70	-53.4	-56.1	13.9	0.00e+00	0	26	0	408944640	72	5052
2026-01-13 08:30:21.31	109.04	25.85	-53.2	-55.7	14.1	0.00e+00	0	26	0	411041792	72	4830
2026-01-13 08:30:22.31	108.90	25.99	-53.0	-55.3	14.3	0.00e+00	0	26	0	413138944	72	4647
2026-01-13 08:30:23.32	108.76	26.14	-52.9	-55.1	14.4	0.00e+00	0	26	0	414187520	72	4540
2026-01-13 08:30:24.33	108.61	26.29	-52.7	-55.0	14.5	0.00e+00	0	26	0	416284672	72	4456
2026-01-13 08:30:25.34	108.47	26.44	-52.7	-55.0	14.5	0.00e+00	0	26	0	418381824	72	4449
2026-01-13 08:30:26.35	108.32	26.59	-52.5	-54.6	14.5	0.00e+00	0	26	0	420478976	71	4513
2026-01-13 08:30:27.35	108.18	26.74	-52.4	-54.6	14.5	0.00e+00	0	26	0	422576128	71	4516
2026-01-13 08:30:28.36	108.03	26.89	-52.4	-54.5	14.5	0.00e+00	0	26	0	424673280	71	4459
2026-01-13 08:30:29.37	107.88	27.04	-52.5	-54.6	14.4	0.00e+00	0	26	0	425721856	70	4789
2026-01-13 08:30:30.38	107.72	27.20	-52.3	-54.4	14.5	0.00e+00	0	25	0	427819008	70	4665
2026-01-13 08:30:31.39	107.57	27.35	-52.7	-55.0	14.2	0.00e+00	0	26	0	429916160	70	4984
2026-01-13 08:30:32.39	107.42	27.50	-52.7	-55.0	14.2	0.00e+00	0	26	0	432013312	70	5006
2026-01-13 08:30:33.40	107.26	27.66	-53.0	-55.4	14.1	0.00e+00	0	26	0	433061888	71	4944
2026-01-13 08:30:34.41	107.10	27.81	-52.7	-55.1	14.3	0.00e+00	0	26	0	435159040	71	4764
2026-01-13 08:30:35.42	106.94	27.97	-52.9	-55.4	14.1	0.00e+00	0	26	0	437256192	71	4931
2026-01-13 08:30:36.43	106.78	28.13	-52.7	-55.1	14.2	0.00e+00	0	26	0	439353344	71	4791
2026-01-13 08:30:37.43	106.62	28.28	-52.5	-54.8	14.3	0.00e+00	0	25	0	441450496	70	4905
2026-01-13 08:30:38.44	106.46	28.44	-52.4	-54.7	14.3	0.00e+00	0	26	0	442499072	70	4828
2026-01-13 08:30:39.45	106.29	28.60	-52.4	-54.7	14.3	0.00e+00	0	26	0	444596224	70	4860
2026-01-13 08:30:40.46	106.13	28.76	-52.6	-55.0	14.2	0.00e+00	0	26	0	446693376	70	4998
2026-01-13 08:30:41.47	105.96	28.92	-52.7	-55.2	14.1	0.00e+00	0	26	0	448790528	70	5102
2026-01-13 08:30:42.47	105.79	29.08	-52.6	-55.0	14.3	0.00e+00	0	26	0	450887680	71	4752
2026-01-13 08:30:43.48	105.61	29.24	-53.1	-55.6	14.0	0.00e+00	0	26	0	452984832	71	5100
2026-01-13 08:30:44.49	105.44	29.40	-53.0	-55.5	14.1	0.00e+00	0	26	0	454033408	71	5012
2026-01-13 08:30:45.49	105.26	29.56	-53.3	-55.9	13.9	0.00e+00	0	26	0	456130560	71	5231
2026-01-13 08:30:46.50	105.09	29.72	-53.1	-55.6	14.0	0.00e+00	0	26	0	458227712	71	5060
2026-01-13 08:30:47.51	104.91	29.89	-53.3	-55.8	14.0	0.00e+00	0	26	0	460324864	71	5207
2026-01-13 08:30:48.51	104.73	30.05	-53.3	-55.8	13.9	0.00e+00	0	26	0	462422016	71	5161
2026-01-13 08:30:49.52	104.54	30.21	-53.3	-55.8	13.9	0.00e+00	0	26	0	463470592	71	5166
2026-01-13 08:30:50.53	104.36	30.38	-53.3	-55.7	14.1	0.00e+00	0	26	0	465567744	72	4836
2026-01-13 08:30:51.54	104.17	30.54	-53.5	-56.0	13.9	0.00e+00	0	26	0	467664896	72	5038
2026-01-13 08:30:52.55	103.98	30.71	-53.6	-56.1	13.8	0.00e+00	0	26	0	469762048	72	5097
2026-01-13 08:30:53.56	103.79	30.88	-53.8	-56.6	13.6	0.00e+00	0	25	0	471859200	72	5350
2026-01-13 08:30:54.57	103.60	31.05	-53.7	-56.4	13.7	0.00e+00	0	26	0	472907776	72	5263
2026-01-13 08:30:55.58	103.40	31.21	-53.5	-56.1	13.9	0.00e+00	0	26	0	475004928	72	5050
2026-01-13 08:30:56.59	103.20	31.38	-53.6	-56.3	13.8	0.00e+00	0	26	0	477102080	72	5162
2026-01-13 08:30:57.59	103.00	31.55	-53.7	-56.4	13.7	0.00e+00	0	26	0	479199232	72	5262
2026-01-13 08:30:58.60	102.80	31.72	-53.3	-55.9	14.0	0.00e+00	0	26	0	481296384	72	4938
2026-01-13 08:30:59.61	102.60	31.89	-53.5	-56.0	14.0	0.00e+00	0	26	0	482344960	72	4998
2026-01-13 08:31:00.62	102.39	32.06	-53.6	-56.2	13.8	0.00e+00	0	26	0	484442112	72	5118
2026-01-13 08:31:01.63	102.18	32.24	-54.2	-57.0	13.5	0.00e+00	0	26	0	486539264	73	5313
2026-01-13 08:31:02.63	101.98	32.41	-54.4	-57.3	13.5	0.00e+00	0	26	0	488636416	74	5189
2026-01-13 08:31:03.64	101.76	32.58	-54.2	-57.1	13.6	0.00e+00	0	26	0	490733568	74	5056
2026-01-13 08:31:04.65	101.55	32.75	-54.7	-57.8	13.2	0.00e+00	0	26	0	491782144	74	5490
2026-01-13 08:31:05.66	101.33	32.93	-54.3	-57.2	13.5	0.00e+00	0	26	0	493879296	74	5121
2026-01-13 08:31:06.67	101.11	33.10	-53.8	-56.5	13.8	0.00e+00	0	26	0	495976448	73	5017
2026-01-13 08:31:07.67	100.89	33.27	-53.7	-56.5	13.8	0.00e+00	0	26	0	498073600	73	5003
2026-01-13 08:31:08.69	100.66	33.45	-53.5	-56.2	14.0	0.00e+00	0	26	0	500170752	73	4817
2026-01-13 08:31:09.69	100.44	33.63	-53.6	-56.3	13.9	0.00e+00	0	26	0	501219328	73	4899
2026-01-13 08:31:10.70	100.21	33.80	-53.7	-56.4	13.9	0.00e+00	0	26	0	503316480	73	4941
2026-01-13 08:31:11.71	99.98	33.98	-53.7	-56.4	13.9	0.00e+00	0	26	0	505413632	73	4927
2026-01-13 08:31:12.71	99.74	34.16	-54.2	-57.2	13.4	0.00e+00	0	26	0	507510784	73	5411
2026-01-13 08:31:13.72	99.51	34.33	-54.5	-57.6	13.2	0.00e+00	0	26	0	509607936	74	5390
2026-01-13 08:31:14.73	99.27	34.51	-54.4	-57.5	13.3	0.00e+00	0	26	0	510656512	74	5329
2026-01-13 08:31:15.74	99.02	34.69	-54.4	-57.5	13.4	0.00e+00	0	26	0	512753664	74	5303
2026-01-13 08:31:16.75	98.78	34.87	-54.2	-57.0	13.5	0.00e+00	0	26	0	514850816	74	5002
2026-01-13 08:31:17.75	98.53	35.05	-54.3	-57.1	13.6	0.00e+00	0	26	0	516947968	74	5098
2026-01-13 08:31:18.77	98.28	35.23	-53.9	-56.5	13.9	0.00e+00	0	26	0	519045120	74	4741
2026-01-13 08:31:19.77	98.03	35.41	-54.3	-57.3	13.5	0.00e+00	0	26	0	520093696	74	5186
2026-01-13 08:31:20.78	97.77	35.59	-54.1	-56.9	13.7	0.00e+00	0	25	0	522190848	74	4982
2026-01-13 08:31:21.79	97.51	35.77	-54.1	-57.0	13.6	0.00e+00	0	26	0	524288000	74	5022
2026-01-13 08:31:22.79	97.25	35.95	-54.1	-57.0	13.6	0.00e+00	0	26	0	526385152	74	5014
2026-01-13 08:31:23.80	96.99	36.13	-54.0	-56.9	13.7	0.00e+00	0	26	0	528482304	74	4938
2026-01-13 08:31:24.81	96.72	36.31	-53.8	-56.7	13.9	0.00e+00	0	26	0	529530880	74	4825
2026-01-13 08:31:25.82	96.45	36.50	-53.9	-56.8	13.8	0.00e+00	0	26	0	531628032	74	4905
2026-01-13 08:31:26.82	96.18	36.68	-54.4	-57.7	13.3	0.00e+00	0	26	0	533725184	74	5407
2026-01-13 08:31:27.83	95.90	36.86	-54.8	-58.4	12.7	0.00e+00	0	26	0	535822336	74	5918
2026-01-13 08:31:28.84	95.62	37.04	-54.4	-58.1	13.0	0.00e+00	0	26	0	537919488	74	5660
2026-01-13 08:31:29.85	95.33	37.23	-54.3	-57.8	13.2	0.00e+00	0	26	0	538968064	74	5478
2026-01-13 08:31:30.86	95.05	37.41	-53.9	-57.0	13.7	0.00e+00	0	26	0	541065216	74	4996
2026-01-13 08:31:31.87	94.76	37.59	-53.8	-56.9	13.6	0.00e+00	0	26	0	543162368	73	5228
2026-01-13 08:31:32.88	94.46	37.78	-53.5	-56.4	13.9	0.00e+00	0	26	0	545259520	73	4971
2026-01-13 08:31:33.88	94.17	37.96	-53.4	-56.2	14.0	0.00e+00	0	26	0	547356672	73	4826
2026-01-13 08:31:34.89	93.87	38.14	-53.3	-56.0	14.1	0.00e+00	0	26	0	548405248	73	4723
2026-01-13 08:31:35.90	93.56	38.33	-53.3	-56.1	14.0	0.00e+00	0	26	0	550502400	73	4805
2026-01-13 08:31:36.91	93.26	38.51	-53.4	-56.2	14.0	0.00e+00	0	26	0	552599552	73	4821
2026-01-13 08:31:37.92	92.94	38.70	-53.4	-56.1	14.0	0.00e+00	0	26	0	554696704	73	4814
2026-01-13 08:31:38.93	92.63	38.88	-53.5	-56.2	14.0	0.00e+00	0	26	0	556793856	73	4853
2026-01-13 08:31:39.94	92.31	39.07	-53.7	-56.6	13.7	0.00e+00	0	26	0	557842432	73	5062
2026-01-13 08:31:40.95	91.99	39.25	-53.6	-56.5	13.8	0.00e+00	0	26	0	559939584	73	5036
2026-01-13 08:31:41.96	91.66	39.43	-53.5	-56.3	13.9	0.00e+00	0	26	0	562036736	73	4922
2026-01-13 08:31:42.96	91.34	39.62	-53.4	-56.1	14.1	0.00e+00	0	26	0	564133888	73	4769
2026-01-13 08:31:43.97	91.01	39.80	-53.4	-56.0	14.1	0.00e+00	0	26	0	566231040	73	4723
2026-01-13 08:31:44.98	90.67	39.98	-53.1	-55.7	14.1	0.00e+00	0	26	0	567279616	72	4854
2026-01-13 08:31:45.99	90.33	40.17	-53.1	-55.7	14.1	0.00e+00	0	26	0	569376768	72	4840
2026-01-13 08:31:47.00	89.98	40.35	-53.6	-56.5	13.7	0.00e+00	0	26	0	571473920	72	5318
2026-01-13 08:31:48.01	89.64	40.53	-53.6	-56.6	13.6	0.00e+00	0	26	0	573571072	72	5368
2026-01-13 08:31:49.02	89.28	40.72	-53.7	-56.6	13.6	0.00e+00	0	26	0	575668224	72	5341
2026-01-13 08:31:50.03	88.93	40.90	-53.6	-56.3	13.7	0.00e+00	0	26	0	577765376	72	5196
2026-01-13 08:31:51.04	88.57	41.08	-53.7	-56.4	13.7	0.00e+00	0	26	0	578813952	72	5220
2026-01-13 08:31:52.05	88.20	41.26	-53.8	-56.6	13.7	0.00e+00	0	26	0	580911104	73	5055
2026-01-13 08:31:53.05	87.84	41.44	-54.5	-57.8	13.1	0.00e+00	0	26	0	583008256	74	5496
2026-01-13 08:31:54.06	87.46	41.63	-54.3	-57.6	13.2	0.00e+00	0	26	0	585105408	74	5348
2026-01-13 08:31:55.07	87.09	41.81	-54.4	-57.7	13.1	0.00e+00	0	26	0	587202560	74	5451
2026-01-13 08:31:56.08	86.70	41.99	-54.1	-57.3	13.4	0.00e+00	0	26	0	588251136	74	5164
2026-01-13 08:31:57.09	86.32	42.17	-54.2	-57.3	13.4	0.00e+00	0	26	0	590348288	74	5194
2026-01-13 08:31:58.09	85.93	42.34	-53.8	-56.7	13.7	0.00e+00	0	26	0	592445440	74	4826
2026-01-13 08:31:59.10	85.54	42.52	-53.0	-55.4	14.2	0.00e+00	0	26	0	594542592	72	4678
2026-01-13 08:32:00.11	85.14	42.70	-52.9	-55.3	14.2	0.00e+00	0	26	0	596639744	72	4647
2026-01-13 08:32:01.12	84.74	42.87	-53.3	-55.9	13.9	0.00e+00	0	26	0	597688320	72	4979
2026-01-13 08:32:02.13	84.33	43.05	-53.7	-56.7	13.5	0.00e+00	0	26	0	599785472	72	5462
2026-01-13 08:32:03.14	83.92	43.22	-54.0	-57.1	13.3	0.00e+00	0	26	0	601882624	73	5398
2026-01-13 08:32:04.15	83.50	43.40	-54.1	-57.1	13.4	0.00e+00	0	26	0	603979776	73	5377
2026-01-13 08:32:05.16	83.08	43.57	-54.0	-56.9	13.4	0.00e+00	0	26	0	606076928	73	5265
2026-01-13 08:32:06.17	82.65	43.74	-54.6	-58.2	12.8	0.00e+00	0	26	0	607125504	74	5774
2026-01-13 08:32:07.18	82.22	43.92	-54.9	-58.8	12.5	0.00e+00	0	26	0	609222656	74	6189
2026-01-13 08:32:08.18	81.79	44.08	-54.8	-58.5	12.8	0.00e+00	0	26	0	611319808	75	5628
2026-01-13 08:32:09.19	81.35	44.25	-54.2	-57.4	13.4	0.00e+00	0	26	0	613416960	74	5240
2026-01-13 08:32:10.20	80.91	44.42	-53.7	-56.5	13.8	0.00e+00	0	26	0	615514112	73	5035
2026-01-13 08:32:11.21	80.46	44.59	-53.2	-55.7	14.2	0.00e+00	0	26	0	616562688	73	4570
2026-01-13 08:32:12.22	80.00	44.75	-52.9	-55.3	14.3	0.00e+00	0	26	0	618659840	72	4620
2026-01-13 08:32:13.23	79.55	44.92	-52.8	-55.0	14.4	0.00e+00	0	26	0	620756992	72	4454
2026-01-13 08:32:14.23	79.09	45.08	-52.4	-54.5	14.5	0.00e+00	0	26	0	622854144	71	4469
2026-01-13 08:32:15.24	78.62	45.24	-52.4	-54.4	14.6	0.00e+00	0	26	0	624951296	71	4416
2026-01-13 08:32:16.25	78.15	45.40	-52.0	-54.0	14.7	0.00e+00	0	26	0	625999872	70	4442
2026-01-13 08:32:17.26	77.67	45.55	-52.6	-54.8	14.2	0.00e+00	0	26	0	628097024	70	4912
2026-01-13 08:32:18.27	77.19	45.71	-52.7	-55.1	14.1	0.00e+00	0	26	0	630194176	70	5047
2026-01-13 08:32:19.28	76.70	45.87	-53.1	-55.7	13.9	0.00e+00	0	26	0	632291328	71	5156
2026-01-13 08:32:20.29	76.21	46.02	-53.2	-55.9	13.8	0.00e+00	0	26	0	634388480	71	5238
2026-01-13 08:32:21.30	75.71	46.17	-53.3	-56.0	14.0	0.00e+00	0	26	0	635437056	72	5020
2026-01-13 08:32:22.31	75.21	46.32	-53.4	-56.1	14.0	0.00e+00	0	26	0	637534208	72	5044
2026-01-13 08:32:23.31	74.71	46.46	-53.4	-56.0	13.9	0.00e+00	0	26	0	639631360	72	4994
2026-01-13 08:32:24.32	74.20	46.61	-53.6	-56.3	13.8	0.00e+00	0	26	0	641728512	72	5195
2026-01-13 08:32:25.33	73.68	46.75	-54.0	-57.1	13.5	0.00e+00	0	26	0	643825664	73	5364
2026-01-13 08:32:26.34	73.16	46.89	-54.2	-57.5	13.3	0.00e+00	0	26	0	644874240	74	5294
2026-01-13 08:32:27.35	72.63	47.03	-54.2	-57.4	13.4	0.00e+00	0	26	0	646971392	74	5230
2026-01-13 08:32:28.35	72.11	47.17	-54.2	-57.3	13.5	0.00e+00	0	26	0	649068544	74	5191
2026-01-13 08:32:29.35	71.58	47.30	-53.8	-56.6	13.7	0.00e+00	0	26	0	651165696	73	5078
2026-01-13 08:32:30.36	71.04	47.43	-53.0	-55.4	14.2	0.00e+00	0	26	0	653262848	72	4665
2026-01-13 08:32:31.37	70.50	47.56	-52.6	-54.9	14.3	0.00e+00	0	26	0	654311424	71	4694
2026-01-13 08:32:32.38	69.95	47.69	-52.7	-55.0	14.3	0.00e+00	0	26	0	656408576	71	4742
2026-01-13 08:32:33.39	69.40	47.82	-52.9	-55.5	14.0	0.00e+00	0	26	0	658505728	71	4994
2026-01-13 08:32:34.40	68.84	47.94	-53.5	-56.4	13.7	0.00e+00	0	26	0	660602880	72	5220
2026-01-13 08:32:35.40	68.28	48.06	-53.5	-56.5	13.6	0.00e+00	0	26	0	662700032	72	5285
2026-01-13 08:32:36.41	67.72	48.17	-54.6	-58.3	12.9	0.00e+00	0	26	0	663748608	74	5841
2026-01-13 08:32:37.42	67.15	48.29	-55.0	-59.3	12.3	0.00e+00	0	26	0	665845760	75	6200
2026-01-13 08:32:38.43	66.57	48.40	-55.6	-60.8	11.4	6.10e-06	0	26	0	667942912	76	6933
2026-01-13 08:32:39.43	66.00	48.51	-55.3	-59.9	11.9	1.50e-06	0	26	0	670040064	76	6264
2026-01-13 08:32:40.44	65.42	48.61	-54.8	-59.0	12.5	0.00e+00	0	26	0	672137216	76	5637
2026-01-13 08:32:41.45	64.83	48.72	-54.5	-58.6	12.6	1.50e-06	0	26	0	673185792	75	5719
2026-01-13 08:32:42.46	64.24	48.81	-54.3	-58.4	12.7	0.00e+00	0	26	0	675282944	75	5558
2026-01-13 08:32:43.46	63.66	48.91	-53.1	-56.7	13.5	0.00e+00	0	26	0	677380096	73	5159
2026-01-13 08:32:44.47	63.06	49.00	-53.5	-56.6	13.6	0.00e+00	0	26	0	679477248	73	5063
2026-01-13 08:32:45.48	62.46	49.09	-53.8	-57.2	13.4	0.00e+00	0	26	0	681574400	73	5416
2026-01-13 08:32:46.49	61.85	49.18	-53.9	-57.4	13.1	0.00e+00	0	26	0	682622976	73	5582
2026-01-13 08:32:47.50	61.24	49.27	-53.9	-57.4	12.9	0.00e+00	0	26	0	684720128	73	5584
2026-01-13 08:32:48.51	60.63	49.35	-54.0	-57.7	13.0	0.00e+00	0	26	0	686817280	73	5736
2026-01-13 08:32:49.51	60.02	49.42	-53.6	-57.0	13.4	0.00e+00	0	26	0	688914432	73	5320
2026-01-13 08:32:50.52	59.41	49.50	-53.3	-56.5	13.7	0.00e+00	0	26	0	691011584	73	4987
2026-01-13 08:32:51.53	58.79	49.57	-53.3	-56.6	13.6	0.00e+00	0	26	0	692060160	73	5069
2026-01-13 08:32:52.54	58.16	49.63	-52.9	-55.8	14.0	0.00e+00	0	26	0	694157312	72	4899
2026-01-13 08:32:53.55	57.54	49.70	-52.4	-55.0	14.3	0.00e+00	0	26	0	696254464	71	4713
2026-01-13 08:32:54.56	56.91	49.75	-52.1	-54.4	14.4	0.00e+00	0	26	0	698351616	70	4691
2026-01-13 08:32:55.56	56.29	49.81	-51.8	-54.1	14.5	0.00e+00	0	26	0	700448768	70	4508
2026-01-13 08:32:56.57	55.65	49.86	-51.8	-54.1	14.6	0.00e+00	0	26	0	702545920	70	4497
2026-01-13 08:32:57.58	55.02	49.91	-52.1	-54.5	14.4	0.00e+00	0	26	0	703594496	70	4710
2026-01-13 08:32:58.58	54.39	49.96	-52.0	-54.4	14.4	0.00e+00	0	26	0	705691648	70	4660
2026-01-13 08:32:59.59	53.75	50.00	-51.7	-54.0	14.5	0.00e+00	0	26	0	707788800	69	4745
2026-01-13 08:33:00.57	53.13	50.03	-51.1	-53.2	14.8	0.00e+00	0	26	0	709885952	68	4564
2026-01-13 08:33:01.57	52.49	50.07	-50.7	-52.7	14.9	0.00e+00	0	26	0	710934528	68	4318
2026-01-13 08:33:02.58	51.85	50.10	-51.0	-53.1	14.6	0.00e+00	0	26	0	713031680	67	4773
2026-01-13 08:33:03.59	51.20	50.12	-51.8	-54.1	14.3	0.00e+00	0	26	0	715128832	68	5085
2026-01-13 08:33:04.60	50.56	50.14	-51.9	-54.3	14.3	0.00e+00	0	26	0	717225984	69	4922
2026-01-13 08:33:05.61	49.91	50.16	-52.0	-54.3	14.3	0.00e+00	0	26	0	719323136	69	4912
2026-01-13 08:33:06.62	49.27	50.18	-52.0	-54.5	14.2	0.00e+00	0	26	0	720371712	69	5015
2026-01-13 08:33:07.63	48.62	50.19	-52.7	-55.6	13.8	0.00e+00	0	26	0	722468864	70	5399
2026-01-13 08:33:08.64	47.97	50.19	-52.8	-55.9	13.6	0.00e+00	0	26	0	724566016	70	5567
2026-01-13 08:33:09.65	47.32	50.20	-52.4	-55.1	14.2	0.00e+00	0	26	0	726663168	71	4783
2026-01-13 08:33:10.66	46.67	50.20	-52.1	-54.6	14.3	0.00e+00	0	26	0	728760320	70	4792
2026-01-13 08:33:11.67	46.03	50.19	-52.5	-55.2	14.1	0.00e+00	0	26	0	730857472	70	5103
2026-01-13 08:33:12.68	45.38	50.18	-53.3	-56.4	13.5	0.00e+00	0	26	0	731906048	71	5587
2026-01-13 08:33:13.68	44.74	50.17	-52.9	-55.7	13.9	0.00e+00	0	26	0	734003200	71	5125
2026-01-13 08:33:14.69	44.09	50.15	-52.0	-54.2	14.5	0.00e+00	0	26	0	736100352	70	4589
2026-01-13 08:33:15.70	43.45	50.13	-51.4	-53.6	14.7	0.00e+00	0	26	0	738197504	69	4498
2026-01-13 08:33:16.71	42.80	50.11	-52.1	-54.5	14.3	0.00e+00	0	26	0	740294656	69	5007
2026-01-13 08:33:17.71	42.16	50.08	-52.0	-54.4	14.3	0.00e+00	0	26	0	741343232	69	4950
2026-01-13 08:33:18.73	41.52	50.05	-51.7	-53.9	14.5	0.00e+00	0	26	0	743440384	69	4687
2026-01-13 08:33:19.73	40.88	50.01	-51.3	-53.3	14.8	0.00e+00	0	26	0	745537536	69	4387
2026-01-13 08:33:20.74	40.24	49.97	-51.4	-53.5	14.7	0.00e+00	0	26	0	747634688	69	4479
2026-01-13 08:33:21.75	39.61	49.93	-51.8	-54.0	14.4	0.00e+00	0	26	0	748683264	69	4754
2026-01-13 08:33:22.76	38.97	49.88	-52.1	-54.6	14.2	0.00e+00	0	26	0	750780416	69	5054
2026-01-13 08:33:23.77	38.34	49.83	-52.3	-54.9	14.1	0.00e+00	0	26	0	752877568	69	5240
2026-01-13 08:33:24.78	37.71	49.78	-52.3	-54.9	14.2	0.00e+00	0	26	0	754974720	70	4951
2026-01-13 08:33:25.79	37.08	49.72	-52.3	-54.9	14.2	0.00e+00	0	26	0	757071872	70	4938
2026-01-13 08:33:26.80	36.45	49.66	-52.3	-54.8	14.2	0.00e+00	0	26	0	759169024	70	4926
2026-01-13 08:33:27.81	35.83	49.59	-52.4	-55.0	14.2	0.00e+00	0	26	0	760217600	70	4991
2026-01-13 08:33:28.82	35.21	49.52	-52.5	-55.1	14.1	0.00e+00	0	26	0	762314752	70	5052
2026-01-13 08:33:29.82	34.59	49.45	-52.6	-55.2	14.0	0.00e+00	0	26	0	764411904	70	5136
2026-01-13 08:33:30.83	33.98	49.38	-53.0	-55.8	13.9	0.00e+00	0	26	0	766509056	71	5177
2026-01-13 08:33:31.83	33.37	49.30	-52.9	-55.7	13.9	0.00e+00	0	26	0	768606208	71	5107
2026-01-13 08:33:32.84	32.76	49.22	-53.0	-55.7	13.9	0.00e+00	0	26	0	769654784	71	5145
2026-01-13 08:33:33.85	32.16	49.13	-53.3	-56.2	13.8	0.00e+00	0	26	0	771751936	71	5412
2026-01-13 08:33:34.86	31.56	49.04	-52.7	-55.2	14.2	0.00e+00	0	26	0	773849088	71	4867
2026-01-13 08:33:35.87	30.96	48.95	-52.8	-55.5	14.0	0.00e+00	0	26	0	775946240	71	5003
2026-01-13 08:33:36.87	30.37	48.85	-52.4	-54.7	14.5	0.00e+00	0	26	0	778043392	71	4568
2026-01-13 08:33:37.88	29.78	48.76	-53.2	-56.0	13.8	0.00e+00	0	26	0	779091968	71	5294
2026-01-13 08:33:38.89	29.19	48.65	-54.0	-57.3	13.4	0.00e+00	0	26	0	781189120	73	5481
2026-01-13 08:33:39.90	28.61	48.55	-54.1	-57.2	13.4	0.00e+00	0	26	0	783286272	73	5416
2026-01-13 08:33:40.91	28.03	48.44	-53.6	-56.3	13.8	0.00e+00	0	26	0	785383424	73	4890
2026-01-13 08:33:41.92	27.45	48.33	-53.1	-55.5	14.2	0.00e+00	0	26	0	787480576	72	4735
2026-01-13 08:33:42.93	26.88	48.22	-53.6	-56.3	13.7	0.00e+00	0	26	0	788529152	72	5215
2026-01-13 08:33:43.94	26.32	48.10	-54.3	-57.6	13.3	0.00e+00	0	26	0	790626304	74	5343
2026-01-13 08:33:44.95	25.75	47.99	-54.6	-58.1	12.9	0.00e+00	0	26	0	792723456	74	5664
2026-01-13 08:33:45.96	25.20	47.86	-54.0	-57.0	13.6	0.00e+00	0	26	0	794820608	74	5004
2026-01-13 08:33:46.97	24.64	47.74	-53.3	-56.0	14.0	0.00e+00	0	26	0	796917760	73	4718
2026-01-13 08:33:47.98	24.09	47.61	-53.9	-57.0	13.5	0.00e+00	0	26	0	797966336	73	5302
2026-01-13 08:33:48.99	23.55	47.49	-54.4	-57.8	13.2	0.00e+00	0	26	0	800063488	74	5467
2026-01-13 08:33:50.00	23.01	47.35	-53.9	-56.9	13.7	0.00e+00	0	26	0	802160640	74	4979
2026-01-13 08:33:51.01	22.47	47.22	-53.6	-56.3	13.8	0.00e+00	0	26	0	804257792	73	4926
2026-01-13 08:33:52.01	21.95	47.09	-53.5	-56.4	13.7	0.00e+00	0	26	0	806354944	72	5236
2026-01-13 08:33:53.02	21.42	46.95	-54.1	-57.3	13.3	0.00e+00	0	26	0	807403520	73	5525
2026-01-13 08:33:54.03	20.90	46.81	-54.4	-57.9	13.0	0.00e+00	0	26	0	809500672	73	5881
2026-01-13 08:33:55.04	20.38	46.67	-54.0	-57.3	13.4	0.00e+00	0	26	0	811597824	74	5162
2026-01-13 08:33:56.04	19.87	46.52	-53.1	-55.9	14.0	0.00e+00	0	26	0	813694976	72	4945
2026-01-13 08:33:57.06	19.36	46.38	-52.7	-55.1	14.2	0.00e+00	0	26	0	815792128	71	4804
2026-01-13 08:33:58.06	18.86	46.23	-53.0	-55.7	14.0	0.00e+00	0	26	0	816840704	71	5103
2026-01-13 08:33:59.08	18.36	46.08	-53.1	-55.7	14.0	0.00e+00	0	26	0	818937856	71	5120
2026-01-13 08:34:00.08	17.87	45.93	-53.3	-55.9	13.9	0.00e+00	0	26	0	821035008	71	5249
2026-01-13 08:34:01.09	17.39	45.77	-53.1	-55.6	14.0	0.00e+00	0	26	0	823132160	71	5045
2026-01-13 08:34:02.10	16.90	45.62	-53.7	-56.5	13.7	0.00e+00	0	26	0	825229312	72	5289
2026-01-13 08:34:03.11	16.42	45.46	-54.4	-57.7	13.2	0.00e+00	0	26	0	826277888	73	5751
2026-01-13 08:34:04.12	15.95	45.30	-54.9	-58.4	12.7	0.00e+00	0	26	0	828375040	75	5580
2026-01-13 08:34:05.12	15.49	45.14	-54.5	-57.7	13.3	0.00e+00	0	26	0	830472192	75	5115
2026-01-13 08:34:06.14	15.02	44.98	-53.8	-56.5	13.9	0.00e+00	0	26	0	832569344	74	4717
2026-01-13 08:34:07.15	14.56	44.82	-53.6	-56.3	13.9	0.00e+00	0	26	0	834666496	73	4903
2026-01-13 08:34:08.16	14.10	44.65	-54.3	-57.4	13.4	0.00e+00	0	26	0	835715072	74	5238
2026-01-13 08:34:09.17	13.65	44.49	-54.7	-57.9	13.2	0.00e+00	0	26	0	837812224	74	5580
2026-01-13 08:34:10.17	13.21	44.32	-54.1	-56.9	13.8	0.00e+00	0	26	0	839909376	74	4929
2026-01-13 08:34:11.18	12.77	44.15	-53.4	-55.8	14.2	0.00e+00	0	26	0	842006528	73	4626
2026-01-13 08:34:12.19	12.33	43.99	-52.8	-54.9	14.5	0.00e+00	0	26	0	844103680	72	4405
2026-01-13 08:34:13.20	11.90	43.82	-52.6	-54.6	14.4	0.00e+00	0	26	0	845152256	71	4533
2026-01-13 08:34:14.20	11.48	43.65	-52.0	-54.0	14.6	0.00e+00	0	26	0	847249408	70	4443
2026-01-13 08:34:15.21	11.06	43.47	-52.0	-54.0	14.6	0.00e+00	0	26	0	849346560	70	4469
2026-01-13 08:34:16.22	10.64	43.30	-52.4	-54.5	14.4	0.00e+00	0	26	0	851443712	70	4740
2026-01-13 08:34:17.23	10.23	43.13	-52.9	-55.2	14.1	0.00e+00	0	26	0	853540864	71	4867
2026-01-13 08:34:18.24	9.82	42.95	-52.7	-55.0	14.3	0.00e+00	0	26	0	855638016	71	4757
2026-01-13 08:34:19.25	9.41	42.77	-52.6	-54.9	14.3	0.00e+00	0	26	0	856686592	71	4688
2026-01-13 08:34:20.26	9.01	42.60	-52.4	-54.6	14.5	0.00e+00	0	26	0	858783744	71	4502
2026-01-13 08:34:21.27	8.62	42.42	-52.3	-54.5	14.5	0.00e+00	0	26	0	860880896	71	4463
2026-01-13 08:34:22.28	8.23	42.24	-52.8	-55.3	14.2	0.00e+00	0	26	0	862978048	71	4883
2026-01-13 08:34:23.29	7.84	42.06	-53.8	-56.7	13.6	0.00e+00	0	26	0	865075200	72	5410
2026-01-13 08:34:24.30	7.46	41.88	-54.8	-58.4	12.8	0.00e+00	0	26	0	866123776	74	5885
2026-01-13 08:34:25.31	7.08	41.70	-54.8	-58.6	12.6	0.00e+00	0	26	0	868220928	74	6036
2026-01-13 08:34:26.31	6.71	41.53	-54.7	-58.3	12.9	0.00e+00	0	26	0	870318080	75	5488
2026-01-13 08:34:27.31	6.35	41.35	-55.0	-58.8	12.6	0.00e+00	0	26	0	872415232	75	5797
2026-01-13 08:34:28.32	5.98	41.17	-55.0	-58.9	12.6	7.00e-07	0	26	0	874512384	75	5879
2026-01-13 08:34:29.33	5.62	40.98	-54.7	-58.0	13.1	0.00e+00	0	26	0	875560960	75	5322
2026-01-13 08:34:30.34	5.26	40.80	-54.2	-57.3	13.5	0.00e+00	0	26	0	877658112	74	5170
2026-01-13 08:34:31.35	4.91	40.62	-54.2	-57.1	13.6	0.00e+00	0	26	0	879755264	74	5090
2026-01-13 08:34:32.35	4.56	40.44	-53.9	-56.6	13.9	0.00e+00	0	26	0	881852416	74	4765
2026-01-13 08:34:33.36	4.22	40.26	-53.5	-56.1	14.0	0.00e+00	0	26	0	883949568	73	4783
2026-01-13 08:34:34.37	3.88	40.07	-53.6	-56.1	14.0	0.00e+00	0	26	0	884998144	73	4790
2026-01-13 08:34:35.38	3.54	39.89	-53.6	-56.2	13.9	0.00e+00	0	26	0	887095296	73	4854
2026-01-13 08:34:36.39	3.20	39.71	-54.1	-57.0	13.6	0.00e+00	0	26	0	889192448	73	5283
2026-01-13 08:34:37.40	2.87	39.52	-54.3	-57.4	13.3	0.00e+00	0	26	0	891289600	73	5557
2026-01-13 08:34:38.41	2.55	39.34	-54.0	-56.7	13.6	0.00e+00	0	26	0	893386752	73	5129
2026-01-13 08:34:39.42	2.23	39.16	-53.5	-56.0	14.0	0.00e+00	0	26	0	894435328	73	4742
2026-01-13 08:34:40.42	1.91	38.97	-53.6	-56.1	14.0	0.00e+00	0	26	0	896532480	73	4811
2026-01-13 08:34:41.43	1.59	38.79	-54.1	-57.1	13.5	0.00e+00	0	26	0	898629632	73	5344
2026-01-13 08:34:42.44	1.28	38.61	-55.1	-58.6	12.8	0.00e+00	0	26	0	900726784	75	5673
2026-01-13 08:34:43.45	0.97	38.42	-55.7	-59.8	12.2	0.00e+00	0	26	0	902823936	76	6158
2026-01-13 08:34:44.45	0.67	38.24	-56.2	-61.0	11.4	1.06e-05	0	26	0	903872512	77	6653
2026-01-13 08:34:45.46	0.37	38.06	-56.3	-61.4	11.0	6.79e-05	0	26	0	905969664	77	7016
2026-01-13 08:34:46.47	0.07	37.87	-56.3	-61.5	10.9	1.13e-04	0	26	0	908066816	77	7070
2026-01-13 08:34:47.48	359.78	37.69	-56.1	-60.7	11.5	3.43e-05	0	26	0	910163968	77	6467
2026-01-13 08:34:48.49	359.49	37.51	-56.3	-61.3	11.2	7.17e-05	0	26	0	912261120	78	6538
2026-01-13 08:34:49.50	359.20	37.32	-56.4	-61.5	11.1	5.03e-05	0	26	0	913309696	78	6708
2026-01-13 08:34:50.51	358.92	37.14	-55.9	-60.1	12.0	3.58e-05	0	26	0	915406848	78	5720
2026-01-13 08:34:51.52	358.64	36.96	-55.3	-58.9	12.9	7.00e-07	0	26	0	917504000	77	5219
2026-01-13 08:34:52.52	358.36	36.78	-54.7	-57.7	13.5	0.00e+00	0	26	0	919601152	76	4843
2026-01-13 08:34:53.53	358.08	36.59	-54.2	-56.9	13.7	0.00e+00	0	26	0	921698304	74	4953
2026-01-13 08:34:54.54	357.81	36.41	-53.7	-56.2	14.1	0.00e+00	0	26	0	922746880	74	4555
2026-01-13 08:34:55.55	357.54	36.23	-53.5	-55.8	14.0	0.00e+00	0	26	0	924844032	72	4923
2026-01-13 08:34:56.56	357.28	36.05	-52.9	-55.0	14.4	0.00e+00	0	26	0	926941184	72	4465
2026-01-13 08:34:57.57	357.02	35.87	-52.8	-54.9	14.5	0.00e+00	0	26	0	929038336	72	4401
2026-01-13 08:34:58.57	356.76	35.69	-53.0	-55.2	14.4	0.00e+00	0	26	0	931135488	72	4553
2026-01-13 08:34:59.58	356.50	35.51	-53.3	-55.5	14.2	0.00e+00	0	26	0	932184064	72	4752
2026-01-13 08:35:00.58	356.25	35.33	-53.4	-55.8	14.1	0.00e+00	0	26	0	934281216	72	4876
2026-01-13 08:35:01.59	356.00	35.15	-53.7	-56.2	13.9	0.00e+00	0	26	0	936378368	72	5128
2026-01-13 08:35:02.59	355.75	34.97	-54.5	-57.5	13.4	0.00e+00	0	26	0	938475520	74	5312
2026-01-13 08:35:03.60	355.51	34.79	-55.2	-58.7	12.8	0.00e+00	0	26	0	940572672	75	5756
2026-01-13 08:35:04.61	355.26	34.62	-56.0	-60.2	12.0	3.80e-06	0	26	0	941621248	77	6097
2026-01-13 08:35:05.62	355.02	34.44	-56.2	-60.5	11.7	1.14e-05	0	26	0	943718400	77	6338
2026-01-13 08:35:06.63	354.78	34.26	-56.3	-60.7	11.6	3.12e-05	0	26	0	945815552	78	6105
2026-01-13 08:35:07.63	354.55	34.08	-55.8	-59.5	12.5	7.00e-07	0	26	0	947912704	78	5319
2026-01-13 08:35:08.64	354.32	33.91	-55.4	-58.8	13.0	0.00e+00	0	26	0	950009856	77	5169
2026-01-13 08:35:09.65	354.09	33.73	-54.9	-57.9	13.4	0.00e+00	0	26	0	951058432	76	4946
2026-01-13 08:35:10.66	353.86	33.56	-54.9	-57.8	13.5	0.00e+00	0	26	0	953155584	76	4913
2026-01-13 08:35:11.67	353.64	33.38	-54.3	-56.8	13.9	0.00e+00	0	26	0	955252736	75	4641
2026-01-13 08:35:12.68	353.41	33.21	-54.2	-56.7	13.9	0.00e+00	0	26	0	957349888	75	4598
2026-01-13 08:35:13.69	353.19	33.03	-53.8	-56.1	14.2	0.00e+00	0	26	0	959447040	74	4508
2026-01-13 08:35:14.69	352.98	32.86	-53.9	-56.3	13.9	0.00e+00	0	26	0	960495616	73	4872
2026-01-13 08:35:15.70	352.76	32.69	-53.8	-56.2	14.0	0.00e+00	0	26	0	962592768	73	4845
2026-01-13 08:35:16.70	352.55	32.52	-54.3	-57.0	13.6	0.00e+00	0	26	0	964689920	73	5285
2026-01-13 08:35:17.71	352.34	32.34	-54.9	-57.9	13.2	0.00e+00	0	26	0	966787072	75	5242
2026-01-13 08:35:18.72	352.13	32.17	-55.4	-58.8	12.7	0.00e+00	0	26	0	968884224	75	5820
2026-01-13 08:35:19.72	351.93	32.00	-55.4	-58.7	12.9	0.00e+00	0	26	0	969932800	76	5419
2026-01-13 08:35:20.73	351.72	31.83	-54.7	-57.5	13.6	0.00e+00	0	26	0	972029952	76	4731
2026-01-13 08:35:21.74	351.52	31.66	-53.9	-56.4	14.0	0.00e+00	0	26	0	974127104	74	4657
2026-01-13 08:35:22.75	351.32	31.49	-53.2	-55.4	14.3	0.00e+00	0	26	0	976224256	72	4663
2026-01-13 08:35:23.75	351.12	31.33	-52.3	-54.1	14.7	0.00e+00	0	26	0	978321408	71	4266
2026-01-13 08:35:24.76	350.93	31.16	-52.3	-54.2	14.6	0.00e+00	0	26	0	980418560	70	4546
2026-01-13 08:35:25.77	350.73	30.99	-52.6	-54.5	14.4	0.00e+00	0	26	0	981467136	70	4750
2026-01-13 08:35:26.78	350.54	30.82	-53.3	-55.4	14.1	0.00e+00	0	26	0	983564288	71	4968
2026-01-13 08:35:27.79	350.35	30.66	-54.1	-56.5	13.8	0.00e+00	0	26	0	985661440	73	5035
2026-01-13 08:35:28.80	350.16	30.49	-54.5	-57.2	13.5	0.00e+00	0	26	0	987758592	74	5113
2026-01-13 08:35:29.81	349.98	30.33	-54.6	-57.3	13.4	0.00e+00	0	26	0	989855744	74	5198
2026-01-13 08:35:30.81	349.80	30.16	-54.4	-57.1	13.6	0.00e+00	0	26	0	990904320	74	5042
2026-01-13 08:35:31.82	349.61	30.00	-54.1	-56.6	13.9	0.00e+00	0	26	0	993001472	74	4773
2026-01-13 08:35:32.83	349.43	29.84	-53.8	-56.2	14.0	0.00e+00	0	26	0	995098624	73	4831
2026-01-13 08:35:33.84	349.26	29.67	-53.6	-56.0	14.1	0.00e+00	0	26	0	997195776	73	4721
2026-01-13 08:35:34.84	349.08	29.51	-53.3	-55.6	14.3	0.00e+00	0	26	0	998244352	73	4499
2026-01-13 08:35:35.85	348.91	29.35	-53.5	-55.8	13.9	0.00e+00	0	26	0	1000341504	72	4915
2026-01-13 08:35:36.86	348.73	29.19	-53.5	-55.9	13.9	0.00e+00	0	26	0	1002438656	72	4931
2026-01-13 08:35:37.87	348.56	29.03	-53.4	-55.7	14.0	0.00e+00	0	26	0	1004535808	72	4862
2026-01-13 08:35:38.87	348.39	28.87	-53.1	-55.3	14.2	0.00e+00	0	26	0	1006632960	72	4614
2026-01-13 08:35:39.88	348.23	28.71	-53.3	-55.5	14.1	0.00e+00	0	26	0	1008730112	72	4744
2026-01-13 08:35:40.89	348.06	28.55	-52.9	-55.0	14.4	0.00e+00	0	26	0	1009778688	72	4442
2026-01-13 08:35:41.90	347.90	28.40	-53.0	-55.1	14.3	0.00e+00	0	26	0	1011875840	72	4524
2026-01-13 08:35:42.91	347.73	28.24	-52.9	-55.0	14.4	0.00e+00	0	26	0	1013972992	72	4450
2026-01-13 08:35:43.92	347.57	28.08	-52.6	-54.7	14.4	0.00e+00	0	26	0	1016070144	71	4550
2026-01-13 08:35:44.93	347.41	27.93	-52.6	-54.6	14.5	0.00e+00	0	26	0	1018167296	71	4521
2026-01-13 08:35:45.93	347.26	27.77	-52.6	-54.7	14.4	0.00e+00	0	26	0	1019215872	71	4556
2026-01-13 08:35:46.94	347.10	27.62	-52.9	-55.0	14.3	0.00e+00	0	26	0	1021313024	71	4726
2026-01-13 08:35:47.95	346.94	27.47	-52.7	-54.7	14.4	0.00e+00	0	26	0	1023410176	71	4564
2026-01-13 08:35:48.96	346.79	27.31	-53.0	-55.1	14.2	0.00e+00	0	26	0	1025507328	71	4799
2026-01-13 08:35:49.97	346.64	27.16	-53.2	-55.5	14.1	0.00e+00	0	26	0	1027604480	71	4990
2026-01-13 08:35:50.98	346.49	27.01	-53.7	-56.2	13.8	0.00e+00	0	26	0	1028653056	72	5119
2026-01-13 08:35:51.99	346.34	26.86	-54.2	-56.9	13.6	0.00e+00	0	26	0	1030750208	73	5222
2026-01-13 08:35:53.00	346.19	26.70	-54.6	-57.5	13.3	0.00e+00	0	26	0	1032847360	74	5321
2026-01-13 08:35:54.01	346.05	26.55	-54.8	-57.8	13.1	0.00e+00	0	26	0	1034944512	74	5477
2026-01-13 08:35:55.02	345.90	26.40	-54.7	-57.7	13.2	0.00e+00	0	26	0	1037041664	74	5421
2026-01-13 08:35:56.03	345.76	26.26	-54.6	-57.4	13.4	0.00e+00	0	26	0	1038090240	74	5252
2026-01-13 08:35:57.04	345.62	26.11	-54.3	-57.0	13.6	0.00e+00	0	26	0	1040187392	74	5010
2026-01-13 08:35:58.05	345.48	25.96	-54.3	-56.9	13.7	0.00e+00	0	26	0	1042284544	74	4962
2026-01-13 08:35:59.06	345.34	25.81	-54.0	-56.5	13.9	0.00e+00	0	26	0	1044381696	74	4759
2026-01-13 08:36:00.07	345.20	25.67	-54.1	-56.7	13.8	0.00e+00	0	26	0	1046478848	74	4857
2026-01-13 08:36:01.07	345.06	25.52	-53.7	-56.1	14.1	0.00e+00	0	26	0	1047527424	74	4497
2026-01-13 08:36:02.08	344.93	25.38	-53.3	-55.5	14.3	0.00e+00	0	26	0	1049624576	73	4480
2026-01-13 08:36:03.10	344.79	25.23	-52.9	-55.0	14.4	0.00e+00	0	26	0	1051721728	72	4456
2026-01-13 08:36:04.11	344.66	25.09	-52.8	-54.9	14.4	0.00e+00	0	26	0	1053818880	72	4416
2026-01-13 08:36:05.12	344.53	24.94	-52.6	-54.6	14.4	0.00e+00	0	26	0	1055916032	71	4506
2026-01-13 08:36:06.12	344.40	24.80	-52.6	-54.7	14.4	0.00e+00	0	26	0	1056964608	71	4569
2026-01-13 08:36:07.13	344.27	24.66	-52.8	-54.9	14.3	0.00e+00	0	26	0	1059061760	71	4656
2026-01-13 08:36:08.14	344.14	24.52	-52.9	-55.1	14.2	0.00e+00	0	26	0	1061158912	71	4793
2026-01-13 08:36:09.15	344.01	24.38	-53.2	-55.5	14.0	0.00e+00	0	26	0	1063256064	71	4987
2026-01-13 08:36:10.16	343.89	24.24	-53.5	-56.0	13.9	0.00e+00	0	26	0	1065353216	72	4995
2026-01-13 08:36:11.16	343.77	24.10	-53.5	-55.9	13.9	0.00e+00	0	26	0	1066401792	72	4948
2026-01-13 08:36:12.17	343.64	23.96	-53.5	-55.9	14.0	0.00e+00	0	26	0	1068498944	72	4928
2026-01-13 08:36:13.18	343.52	23.82	-53.5	-55.8	13.9	0.00e+00	0	26	0	1070596096	72	4922
2026-01-13 08:36:14.18	343.40	23.68	-53.3	-55.6	14.1	0.00e+00	0	26	0	1072693248	72	4790
2026-01-13 08:36:15.20	343.28	23.54	-53.2	-55.4	14.1	0.00e+00	0	26	0	1074790400	72	4679
2026-01-13 08:36:16.20	343.16	23.41	-53.0	-55.1	14.3	0.00e+00	0	26	0	1075838976	72	4526
2026-01-13 08:36:17.21	343.04	23.27	-52.9	-55.0	14.4	0.00e+00	0	26	0	1077936128	72	4480
2026-01-13 08:36:18.22	342.93	23.14	-53.0	-55.1	14.4	0.00e+00	0	26	0	1080033280	72	4507
2026-01-13 08:36:19.23	342.81	23.00	-52.9	-55.0	14.4	0.00e+00	0	26	0	1082130432	72	4446
2026-01-13 08:36:20.24	342.70	22.87	-52.7	-54.7	14.5	0.00e+00	0	26	0	1084227584	72	4338
2026-01-13 08:36:21.25	342.58	22.73	-52.7	-54.7	14.4	0.00e+00	0	26	0	1085276160	71	4563
2026-01-13 08:36:22.26	342.47	22.60	-52.6	-54.6	14.4	0.00e+00	0	26	0	1087373312	71	4525
2026-01-13 08:36:23.26	342.36	22.47	-52.6	-54.6	14.5	0.00e+00	0	26	0	1089470464	71	4506
2026-01-13 08:36:24.27	342.25	22.34	-52.7	-54.7	14.4	0.00e+00	0	26	0	1091567616	71	4565
2026-01-13 08:36:25.28	342.14	22.20	-52.8	-54.8	14.4	0.00e+00	0	26	0	1093664768	71	4632
2026-01-13 08:36:26.29	342.03	22.07	-52.9	-54.9	14.3	0.00e+00	0	26	0	1094713344	71	4705
2026-01-13 08:36:27.30	341.92	21.94	-53.2	-55.4	14.1	0.00e+00	0	26	0	1096810496	71	4948
2026-01-13 08:36:28.30	341.81	21.81	-53.6	-55.9	13.9	0.00e+00	0	26	0	1098907648	72	4977
2026-01-13 08:36:29.30	341.71	21.69	-53.8	-56.2	13.8	0.00e+00	0	26	0	1101004800	72	5128
2026-01-13 08:36:30.32	341.60	21.55	-54.1	-56.7	13.7	0.00e+00	0	26	0	1103101952	73	5113
2026-01-13 08:36:31.32	341.50	21.43	-54.2	-56.8	13.5	0.00e+00	0	26	0	1105199104	73	5202
2026-01-13 08:36:32.33	341.40	21.30	-54.0	-56.5	13.7	0.00e+00	0	26	0	1106247680	73	5030
2026-01-13 08:36:33.34	341.29	21.17	-54.1	-56.6	13.7	0.00e+00	0	26	0	1108344832	73	5078
2026-01-13 08:36:34.35	341.19	21.05	-53.7	-56.1	13.9	0.00e+00	0	26	0	1110441984	73	4792
2026-01-13 08:36:35.36	341.09	20.92	-53.6	-55.9	14.1	0.00e+00	0	26	0	1112539136	73	4675
2026-01-13 08:36:36.36	340.99	20.80	-53.4	-55.6	14.2	0.00e+00	0	26	0	1114636288	73	4518
2026-01-13 08:36:37.37	340.89	20.67	-53.4	-55.6	14.2	0.00e+00	0	26	0	1115684864	73	4516
2026-01-13 08:36:38.38	340.80	20.55	-53.0	-55.1	14.3	0.00e+00	0	26	0	1117782016	72	4534
2026-01-13 08:36:39.39	340.70	20.42	-53.1	-55.2	14.2	0.00e+00	0	26	0	1119879168	72	4593
2026-01-13 08:36:40.39	340.60	20.30	-53.2	-55.3	14.2	0.00e+00	0	26	0	1121976320	72	4642
2026-01-13 08:36:41.40	340.51	20.18	-53.1	-55.3	14.2	0.00e+00	0	26	0	1123024896	72	4620
2026-01-13 08:36:42.41	340.41	20.05	-53.2	-55.5	14.1	0.00e+00	0	26	0	1125122048	72	4708
2026-01-13 08:36:43.41	340.32	19.93	-53.3	-55.5	14.1	0.00e+00	0	26	0	1127219200	72	4751
2026-01-13 08:36:44.42	340.22	19.81	-53.4	-55.8	13.9	0.00e+00	0	26	0	1129316352	72	4877
2026-01-13 08:36:45.43	340.13	19.69	-53.4	-55.7	13.9	0.00e+00	0	26	0	1131413504	72	4821
2026-01-13 08:36:46.44	340.04	19.57	-53.4	-55.8	13.9	0.00e+00	0	26	0	1133510656	72	4873
2026-01-13 08:36:47.45	339.95	19.45	-53.5	-55.9	13.8	0.00e+00	0	26	0	1134559232	72	4960
2026-01-13 08:36:48.45	339.86	19.33	-53.3	-55.6	14.1	0.00e+00	0	26	0	1136656384	72	4788
2026-01-13 08:36:49.46	339.77	19.21	-53.2	-55.5	14.1	0.00e+00	0	26	0	1138753536	72	4725
2026-01-13 08:36:50.47	339.68	19.09	-53.1	-55.3	14.2	0.00e+00	0	26	0	1140850688	72	4618
2026-01-13 08:36:51.48	339.59	18.98	-53.1	-55.3	14.2	0.00e+00	0	26	0	1142947840	72	4641
2026-01-13 08:36:52.49	339.50	18.86	-53.0	-55.1	14.3	0.00e+00	0	26	0	1143996416	72	4545
2026-01-13 08:36:53.50	339.42	18.74	-52.8	-54.9	14.4	0.00e+00	0	26	0	1146093568	72	4405
2026-01-13 08:36:54.51	339.33	18.62	-52.6	-54.6	14.5	0.00e+00	0	26	0	1148190720	71	4517
2026-01-13 08:36:55.51	339.25	18.51	-52.5	-54.5	14.4	0.00e+00	0	26	0	1150287872	71	4474
2026-01-13 08:36:56.52	339.16	18.39	-52.3	-54.3	14.6	0.00e+00	0	26	0	1152385024	71	4352
2026-01-13 08:36:57.53	339.08	18.28	-52.5	-54.4	14.5	0.00e+00	0	26	0	1153433600	71	4427
2026-01-13 08:36:58.54	338.99	18.16	-52.3	-54.3	14.6	0.00e+00	0	26	0	1155530752	71	4352
2026-01-13 08:36:59.55	338.91	18.05	-52.3	-54.2	14.7	0.00e+00	0	26	0	1157627904	71	4316
2026-01-13 08:37:00.56	338.83	17.94	-52.0	-53.8	14.6	0.00e+00	0	26	0	1159725056	70	4376
2026-01-13 08:37:01.56	338.75	17.82	-52.2	-54.1	14.5	0.00e+00	0	26	0	1161822208	70	4545
2026-01-13 08:37:02.57	338.67	17.71	-52.2	-54.1	14.5	0.00e+00	0	26	0	1162870784	70	4518
2026-01-13 08:37:03.58	338.59	17.60	-52.3	-54.3	14.4	0.00e+00	0	26	0	1164967936	70	4631
2026-01-13 08:37:04.59	338.51	17.49	-52.5	-54.5	14.4	0.00e+00	0	26	0	1167065088	70	4709
2026-01-13 08:37:05.60	338.43	17.38	-52.6	-54.6	14.3	0.00e+00	0	26	0	1169162240	70	4786
2026-01-13 08:37:06.61	338.35	17.26	-52.7	-54.7	14.2	0.00e+00	0	26	0	1171259392	70	4860
2026-01-13 08:37:07.62	338.27	17.15	-52.9	-55.1	14.2	0.00e+00	0	26	0	1172307968	71	4789
2026-01-13 08:37:08.63	338.19	17.04	-53.3	-55.6	13.9	0.00e+00	0	26	0	1174405120	71	5093
2026-01-13 08:37:09.64	338.12	16.93	-53.4	-55.8	13.8	0.00e+00	0	26	0	1176502272	71	5180
2026-01-13 08:37:10.65	338.04	16.82	-53.8	-56.3	13.7	0.00e+00	0	26	0	1178599424	72	5168
2026-01-13 08:37:11.65	337.97	16.72	-53.7	-56.2	13.9	0.00e+00	0	26	0	1180696576	73	4837
2026-01-13 08:37:12.67	337.89	16.61	-54.1	-56.7	13.6	0.00e+00	0	26	0	1181745152	73	5136
2026-01-13 08:37:13.67	337.82	16.50	-54.3	-57.1	13.3	0.00e+00	0	26	0	1183842304	73	5383
2026-01-13 08:37:14.68	337.74	16.39	-54.4	-57.2	13.4	0.00e+00	0	26	0	1185939456	74	5149
2026-01-13 08:37:15.69	337.67	16.29	-54.7	-57.7	13.1	0.00e+00	0	26	0	1188036608	74	5443
2026-01-13 08:37:16.69	337.60	16.18	-54.7	-57.8	13.0	0.00e+00	0	26	0	1190133760	74	5504
2026-01-13 08:37:17.70	337.53	16.07	-54.7	-57.7	13.1	0.00e+00	0	26	0	1191182336	74	5426
2026-01-13 08:37:18.71	337.45	15.97	-54.8	-57.9	13.0	0.00e+00	0	26	0	1193279488	74	5536
2026-01-13 08:37:19.71	337.38	15.86	-54.9	-58.1	12.9	0.00e+00	0	26	0	1195376640	75	5342
2026-01-13 08:37:20.72	337.31	15.76	-54.7	-57.7	13.2	0.00e+00	0	26	0	1197473792	75	5129
2026-01-13 08:37:21.73	337.24	15.65	-54.5	-57.4	13.3	0.00e+00	0	26	0	1199570944	75	4969
2026-01-13 08:37:22.74	337.17	15.55	-54.6	-57.5	13.3	0.00e+00	0	26	0	1200619520	75	5008
2026-01-13 08:37:23.75	337.10	15.45	-54.1	-56.7	13.6	0.00e+00	0	26	0	1202716672	74	4870
2026-01-13 08:37:24.76	337.04	15.34	-53.9	-56.5	13.8	0.00e+00	0	26	0	1204813824	74	4744
2026-01-13 08:37:25.77	336.97	15.24	-54.0	-56.6	13.7	0.00e+00	0	26	0	1206910976	74	4791
2026-01-13 08:37:26.78	336.90	15.14	-53.8	-56.4	13.8	0.00e+00	0	26	0	1209008128	74	4672
2026-01-13 08:37:27.78	336.83	15.03	-53.8	-56.3	13.9	0.00e+00	0	26	0	1210056704	74	4626
2026-01-13 08:37:28.79	336.77	14.93	-53.7	-56.1	13.8	0.00e+00	0	26	0	1212153856	73	4813
2026-01-13 08:37:29.80	336.70	14.83	-53.6	-56.1	13.9	0.00e+00	0	26	0	1214251008	73	4801
2026-01-13 08:37:30.81	336.63	14.73	-53.7	-56.1	13.8	0.00e+00	0	26	0	1216348160	73	4809
2026-01-13 08:37:31.82	336.57	14.63	-53.7	-56.2	13.8	0.00e+00	0	26	0	1218445312	73	4847
2026-01-13 08:37:32.83	336.50	14.53	-53.5	-55.9	13.9	0.00e+00	0	26	0	1219493888	73	4664
2026-01-13 08:37:33.84	336.44	14.43	-53.6	-56.1	13.8	7.00e-07	0	26	0	1221591040	73	4796
2026-01-13 08:37:34.85	336.38	14.33	-53.7	-56.3	13.8	0.00e+00	0	26	0	1223688192	73	4894
2026-01-13 08:37:35.86	336.31	14.23	-53.7	-56.3	13.7	0.00e+00	0	26	0	1225785344	73	4894
2026-01-13 08:37:36.87	336.25	14.13	-53.8	-56.4	13.7	0.00e+00	0	26	0	1227882496	73	4968
2026-01-13 08:37:37.88	336.19	14.03	-54.0	-56.7	13.6	0.00e+00	0	26	0	1229979648	73	5113
2026-01-13 08:37:38.88	336.13	13.94	-53.9	-56.5	13.7	0.00e+00	0	26	0	1231028224	73	4988
2026-01-13 08:37:39.89	336.06	13.84	-54.0	-56.7	13.5	0.00e+00	0	26	0	1233125376	73	5150
2026-01-13 08:37:40.90	336.00	13.74	-53.8	-56.4	13.7	0.00e+00	0	26	0	1235222528	73	4961
2026-01-13 08:37:41.90	335.94	13.64	-54.0	-56.7	13.5	0.00e+00	0	26	0	1237319680	73	5125
