passes_logs/2026/01/13/R3.2S_Murmansk/R3.2S_Murmansk__20260113_000840_SUOMI_NPP_rec.log

#Pass ID: 20260113_000840_SUOMI NPP
#Satellite: SUOMI NPP
#Configuration: NPP
#almurnet v.1.7.20251203
#Start time: 2026-01-13 00:08:41

#Version: 2.2.20231116
#Station: R3.2S_Murmansk
#Location: 33.079688 lon 68.888172 lat
#TLE: 1 37849U 11061A   26012.28456845  .00000093  00000+0  65163-4 0  9999
#TLE: 2 37849  98.7807 314.3566 0002508  68.3553 291.7890 14.19524725736322

#Time	Az	El	Level	Level2	SNR	BER	BlckErr	Temp	State	Recorded	gain1	gain2
2026-01-13 00:08:41.60	22.49	2.08	-57.1	-72.4	3.8	1.49e+00	0	20	0	0	80	20982
2026-01-13 00:08:42.59	22.51	2.15	-57.1	-72.5	3.8	1.49e+00	0	20	104	0	79	22323
2026-01-13 00:08:43.60	22.53	2.21	-57.1	-72.9	3.8	1.49e+00	0	20	104	0	79	23430
2026-01-13 00:08:44.59	22.55	2.27	-57.1	-72.8	3.8	1.49e+00	0	20	104	0	79	23066
2026-01-13 00:08:45.60	22.57	2.34	-57.1	-72.8	3.8	1.49e+00	0	20	104	0	79	23134
2026-01-13 00:08:46.60	22.59	2.40	-57.1	-72.8	3.8	1.49e+00	0	20	104	0	79	23272
2026-01-13 00:08:47.60	22.61	2.47	-57.1	-72.5	3.8	1.49e+00	0	20	104	0	79	22520
2026-01-13 00:08:48.60	22.63	2.53	-57.1	-72.5	3.8	1.49e+00	0	20	104	0	79	22291
2026-01-13 00:08:49.60	22.65	2.59	-57.1	-72.0	3.8	1.49e+00	0	20	104	0	79	21074
2026-01-13 00:08:50.60	22.67	2.66	-57.1	-71.5	3.8	1.49e+00	0	20	104	0	79	19995
2026-01-13 00:08:51.60	22.70	2.72	-57.0	-71.2	3.8	1.49e+00	0	20	104	0	79	19249
2026-01-13 00:08:52.61	22.72	2.79	-57.1	-71.1	3.8	1.49e+00	0	20	104	0	79	18976
2026-01-13 00:08:53.61	22.74	2.85	-57.0	-70.6	3.8	1.48e+00	0	20	104	0	79	18079
2026-01-13 00:08:54.61	22.76	2.92	-57.0	-70.7	3.9	1.49e+00	0	20	104	0	79	18263
2026-01-13 00:08:55.61	22.78	2.98	-57.0	-69.9	4.1	1.41e+00	0	20	0	0	79	16530
2026-01-13 00:08:56.61	22.80	3.05	-57.0	-69.6	4.2	1.39e+00	0	20	0	0	79	15976
2026-01-13 00:08:57.61	22.83	3.12	-56.9	-68.8	4.4	1.32e+00	53	20	0	0	79	14548
2026-01-13 00:08:58.62	22.85	3.18	-56.9	-68.7	4.5	1.02e+00	16	21	0	2097152	79	14452
2026-01-13 00:08:59.63	22.87	3.25	-56.9	-69.0	4.3	1.32e+00	55	20	0	3145728	79	14882
2026-01-13 00:09:00.64	22.89	3.31	-56.9	-67.7	4.9	9.67e-01	0	20	0	5242880	79	12867
2026-01-13 00:09:01.63	22.92	3.38	-56.7	-66.3	5.7	5.59e-01	0	20	0	6291456	79	10909
2026-01-13 00:09:02.62	22.94	3.45	-56.7	-66.3	5.7	3.73e-01	0	21	0	8388608	79	10997
2026-01-13 00:09:03.62	22.96	3.51	-56.5	-64.9	6.7	1.63e-01	0	20	0	10485760	79	9295
2026-01-13 00:09:04.63	22.98	3.58	-56.4	-63.9	7.6	1.08e-01	0	21	0	12582912	79	8284
2026-01-13 00:09:05.63	23.00	3.65	-56.2	-63.1	8.3	5.28e-02	0	20	0	14680064	79	7624
2026-01-13 00:09:06.62	23.03	3.71	-56.0	-62.5	8.7	2.53e-02	0	21	0	15728640	78	7536
2026-01-13 00:09:07.62	23.05	3.78	-55.6	-61.1	10.1	3.43e-03	0	21	0	17825792	77	6736
2026-01-13 00:09:08.61	23.07	3.85	-55.4	-60.4	10.6	1.67e-03	0	21	0	19922944	77	6255
2026-01-13 00:09:09.61	23.10	3.91	-54.9	-59.4	11.5	3.55e-04	0	21	0	22020096	76	5868
2026-01-13 00:09:10.62	23.12	3.98	-54.5	-58.5	12.1	4.57e-05	0	21	0	24117248	75	5652
2026-01-13 00:09:11.62	23.14	4.05	-54.6	-58.7	12.0	2.67e-05	0	21	0	25165824	75	5735
2026-01-13 00:09:12.63	23.16	4.12	-54.3	-58.1	12.5	1.29e-05	0	21	0	27262976	75	5344
2026-01-13 00:09:13.63	23.19	4.19	-54.2	-57.9	12.5	2.20e-06	0	21	0	29360128	74	5557
2026-01-13 00:09:14.63	23.21	4.25	-54.1	-57.8	12.6	3.80e-06	0	21	0	31457280	74	5479
2026-01-13 00:09:15.63	23.23	4.32	-54.2	-57.9	12.5	7.00e-07	0	21	0	33554432	74	5531
2026-01-13 00:09:16.63	23.26	4.39	-54.3	-58.1	12.3	7.00e-07	0	21	0	34603008	74	5712
2026-01-13 00:09:17.63	23.28	4.46	-54.4	-58.3	12.2	1.75e-05	0	21	0	36700160	74	5812
2026-01-13 00:09:18.63	23.31	4.53	-54.4	-58.4	12.0	2.36e-05	0	21	0	38797312	74	5914
2026-01-13 00:09:19.64	23.33	4.60	-54.7	-59.1	11.4	4.11e-05	0	21	0	40894464	74	6415
2026-01-13 00:09:20.64	23.35	4.67	-54.9	-59.4	11.3	2.51e-04	0	21	0	41943040	75	6229
2026-01-13 00:09:21.64	23.38	4.74	-55.3	-60.5	10.3	1.08e-03	0	21	0	44040192	75	7078
2026-01-13 00:09:22.65	23.40	4.81	-55.7	-61.5	9.7	2.16e-03	0	21	0	46137344	76	7468
2026-01-13 00:09:23.64	23.42	4.88	-55.8	-62.0	9.1	9.08e-03	0	21	0	48234496	76	7911
2026-01-13 00:09:24.64	23.45	4.95	-56.0	-62.8	8.5	1.84e-02	0	21	0	50331648	77	8180
2026-01-13 00:09:25.64	23.47	5.02	-56.2	-63.3	7.9	4.20e-02	0	21	0	51380224	77	8758
2026-01-13 00:09:26.64	23.50	5.09	-55.7	-61.3	9.8	6.40e-02	0	21	0	53477376	77	6887
2026-01-13 00:09:27.65	23.52	5.16	-56.2	-63.7	7.8	9.24e-04	0	21	0	55574528	77	9135
2026-01-13 00:09:28.64	23.55	5.23	-56.4	-63.9	7.6	1.50e-01	0	21	0	57671680	78	8843
2026-01-13 00:09:29.64	23.57	5.30	-56.0	-61.9	9.4	2.50e-01	0	21	0	59768832	78	7037
2026-01-13 00:09:30.64	23.60	5.37	-56.6	-65.4	6.5	3.90e-04	0	21	0	60817408	78	10501
2026-01-13 00:09:31.64	23.62	5.44	-56.1	-62.2	8.9	5.04e-01	0	21	0	62914560	78	7277
2026-01-13 00:09:32.64	23.65	5.51	-55.1	-59.4	11.6	2.01e-04	0	21	0	65011712	76	5857
2026-01-13 00:09:33.64	23.67	5.59	-55.3	-59.9	11.2	9.15e-05	0	21	0	66060288	76	6274
2026-01-13 00:09:34.65	23.70	5.66	-55.0	-59.1	11.9	8.46e-05	0	21	0	68157440	76	5709
2026-01-13 00:09:35.66	23.72	5.73	-54.4	-58.0	12.6	6.10e-06	0	21	0	70254592	75	5304
2026-01-13 00:09:36.65	23.75	5.80	-54.4	-58.0	12.7	2.20e-06	0	21	0	72351744	75	5328
2026-01-13 00:09:37.65	23.77	5.88	-54.3	-57.8	12.9	2.20e-06	0	21	0	74448896	75	5183
2026-01-13 00:09:38.66	23.80	5.95	-54.1	-57.5	13.0	0.00e+00	0	21	0	75497472	74	5292
2026-01-13 00:09:39.66	23.82	6.02	-54.1	-57.6	12.9	0.00e+00	0	21	0	77594624	74	5347
2026-01-13 00:09:40.66	23.85	6.09	-54.0	-57.3	13.1	0.00e+00	0	21	0	79691776	74	5210
2026-01-13 00:09:41.66	23.88	6.17	-53.9	-57.1	13.3	0.00e+00	0	21	0	81788928	74	5048
2026-01-13 00:09:42.66	23.90	6.24	-53.5	-56.4	13.7	0.00e+00	0	21	0	82837504	73	4945
2026-01-13 00:09:43.66	23.93	6.31	-53.6	-56.6	13.5	0.00e+00	0	21	0	84934656	73	5099
2026-01-13 00:09:44.66	23.95	6.39	-53.4	-56.3	13.8	0.00e+00	0	21	0	87031808	73	4882
2026-01-13 00:09:45.66	23.98	6.46	-53.3	-56.0	14.0	0.00e+00	0	21	0	89128960	73	4753
2026-01-13 00:09:46.66	24.01	6.54	-53.4	-56.2	13.8	0.00e+00	0	21	0	91226112	73	4836
2026-01-13 00:09:47.66	24.03	6.61	-53.3	-56.0	14.0	0.00e+00	0	21	0	92274688	73	4721
2026-01-13 00:09:48.66	24.06	6.69	-53.1	-55.7	14.0	0.00e+00	0	21	0	94371840	72	4846
2026-01-13 00:09:49.66	24.09	6.76	-53.1	-55.8	14.0	0.00e+00	0	21	0	96468992	72	4897
2026-01-13 00:09:50.67	24.11	6.84	-53.1	-55.7	14.1	0.00e+00	0	21	0	98566144	72	4831
2026-01-13 00:09:51.67	24.14	6.91	-53.0	-55.6	14.1	0.00e+00	0	21	0	100663296	72	4811
2026-01-13 00:09:52.67	24.17	6.99	-52.9	-55.5	14.2	0.00e+00	0	21	0	101711872	72	4738
2026-01-13 00:09:53.67	24.19	7.06	-53.2	-55.8	14.0	0.00e+00	0	21	0	103809024	72	4924
2026-01-13 00:09:54.67	24.22	7.14	-53.0	-55.5	14.2	0.00e+00	0	21	0	105906176	72	4746
2026-01-13 00:09:55.67	24.25	7.22	-52.9	-55.5	14.3	0.00e+00	0	21	0	108003328	72	4708
2026-01-13 00:09:56.67	24.28	7.29	-52.9	-55.4	14.3	0.00e+00	0	21	0	110100480	72	4662
2026-01-13 00:09:57.67	24.30	7.37	-52.9	-55.4	14.3	0.00e+00	0	21	0	111149056	72	4657
2026-01-13 00:09:58.68	24.33	7.45	-52.9	-55.4	14.3	0.00e+00	0	21	0	113246208	72	4670
2026-01-13 00:09:59.68	24.36	7.52	-53.0	-55.6	14.2	0.00e+00	0	21	0	115343360	72	4768
2026-01-13 00:10:00.68	24.39	7.60	-52.9	-55.5	14.3	0.00e+00	0	21	0	117440512	72	4715
2026-01-13 00:10:01.68	24.42	7.68	-52.8	-55.3	14.4	0.00e+00	0	21	0	118489088	72	4618
2026-01-13 00:10:02.68	24.45	7.76	-52.6	-55.0	14.4	0.00e+00	0	21	0	120586240	71	4735
2026-01-13 00:10:03.69	24.47	7.84	-52.6	-55.0	14.4	0.00e+00	0	21	0	122683392	71	4729
2026-01-13 00:10:04.69	24.50	7.91	-52.6	-55.0	14.4	0.00e+00	0	21	0	124780544	71	4741
2026-01-13 00:10:05.69	24.53	7.99	-52.6	-55.0	14.4	0.00e+00	0	21	0	126877696	71	4747
2026-01-13 00:10:06.69	24.56	8.07	-52.7	-55.1	14.3	0.00e+00	0	21	0	127926272	71	4790
2026-01-13 00:10:07.69	24.59	8.15	-52.7	-55.1	14.3	0.00e+00	0	21	0	130023424	71	4806
2026-01-13 00:10:08.69	24.62	8.23	-52.4	-54.6	14.7	0.00e+00	0	21	0	132120576	71	4531
2026-01-13 00:10:09.69	24.65	8.31	-52.5	-54.9	14.5	0.00e+00	0	21	0	134217728	71	4655
2026-01-13 00:10:10.69	24.68	8.39	-52.5	-54.8	14.6	0.00e+00	0	21	0	136314880	71	4602
2026-01-13 00:10:11.69	24.71	8.47	-52.5	-54.8	14.5	0.00e+00	0	21	0	137363456	71	4646
2026-01-13 00:10:12.69	24.74	8.55	-52.4	-54.7	14.6	0.00e+00	0	22	0	139460608	71	4562
2026-01-13 00:10:13.70	24.77	8.63	-52.4	-54.7	14.6	0.00e+00	0	22	0	141557760	71	4584
2026-01-13 00:10:14.70	24.80	8.71	-52.4	-54.7	14.7	0.00e+00	0	22	0	143654912	71	4559
2026-01-13 00:10:15.70	24.83	8.79	-52.3	-54.6	14.7	0.00e+00	0	21	0	145752064	71	4502
2026-01-13 00:10:16.70	24.86	8.87	-52.3	-54.5	14.8	0.00e+00	0	21	0	146800640	71	4447
2026-01-13 00:10:17.69	24.89	8.96	-52.3	-54.6	14.7	0.00e+00	0	21	0	148897792	71	4500
2026-01-13 00:10:18.69	24.92	9.04	-52.3	-54.4	14.9	0.00e+00	0	22	0	150994944	71	4429
2026-01-13 00:10:19.70	24.95	9.12	-52.3	-54.4	14.8	0.00e+00	0	21	0	153092096	71	4432
2026-01-13 00:10:20.70	24.98	9.20	-52.3	-54.6	14.8	0.00e+00	0	21	0	155189248	71	4494
2026-01-13 00:10:21.69	25.01	9.28	-52.1	-54.2	14.8	0.00e+00	0	22	0	156237824	70	4580
2026-01-13 00:10:22.70	25.04	9.37	-52.1	-54.3	14.7	0.00e+00	0	21	0	158334976	70	4623
2026-01-13 00:10:23.71	25.07	9.45	-52.1	-54.2	14.8	0.00e+00	0	22	0	160432128	70	4568
2026-01-13 00:10:24.71	25.10	9.54	-52.2	-54.4	14.7	0.00e+00	0	21	0	162529280	70	4660
2026-01-13 00:10:25.72	25.14	9.62	-52.1	-54.3	14.8	0.00e+00	0	21	0	163577856	70	4606
2026-01-13 00:10:26.72	25.17	9.70	-52.0	-54.0	14.9	0.00e+00	0	22	0	165675008	70	4493
2026-01-13 00:10:27.73	25.20	9.79	-52.0	-54.1	14.9	0.00e+00	0	21	0	167772160	70	4525
2026-01-13 00:10:28.73	25.23	9.87	-52.0	-54.1	14.8	0.00e+00	0	21	0	169869312	70	4538
2026-01-13 00:10:29.74	25.26	9.96	-52.0	-54.0	15.0	0.00e+00	0	21	0	171966464	70	4478
2026-01-13 00:10:30.73	25.30	10.04	-52.1	-54.1	14.9	0.00e+00	0	21	0	173015040	70	4539
2026-01-13 00:10:31.73	25.33	10.13	-52.0	-54.0	14.9	0.00e+00	0	22	0	175112192	70	4490
2026-01-13 00:10:32.74	25.36	10.22	-52.0	-54.0	14.9	0.00e+00	0	22	0	177209344	70	4485
2026-01-13 00:10:33.73	25.39	10.30	-51.9	-53.9	15.0	0.00e+00	0	21	0	179306496	70	4436
2026-01-13 00:10:34.73	25.43	10.39	-51.8	-53.9	15.1	0.00e+00	0	21	0	181403648	70	4396
2026-01-13 00:10:35.73	25.46	10.47	-51.9	-53.9	15.0	0.00e+00	0	22	0	182452224	70	4440
2026-01-13 00:10:36.73	25.49	10.56	-52.0	-54.0	14.9	0.00e+00	0	21	0	184549376	70	4491
2026-01-13 00:10:37.73	25.53	10.65	-51.9	-53.9	15.0	0.00e+00	0	21	0	186646528	70	4423
2026-01-13 00:10:38.74	25.56	10.74	-51.9	-53.9	15.1	0.00e+00	0	21	0	188743680	70	4399
2026-01-13 00:10:39.74	25.59	10.82	-51.9	-53.9	15.0	0.00e+00	0	21	0	189792256	70	4435
2026-01-13 00:10:40.75	25.63	10.91	-51.9	-54.0	15.0	0.00e+00	0	21	0	191889408	70	4449
2026-01-13 00:10:41.75	25.66	11.00	-51.8	-53.8	15.1	0.00e+00	0	21	0	193986560	70	4343
2026-01-13 00:10:42.75	25.70	11.09	-51.8	-53.8	15.1	0.00e+00	0	21	0	196083712	70	4355
2026-01-13 00:10:43.75	25.73	11.18	-51.8	-53.7	15.1	0.00e+00	0	22	0	198180864	70	4329
2026-01-13 00:10:44.75	25.77	11.27	-51.7	-53.7	15.2	0.00e+00	0	22	0	200278016	70	4316
2026-01-13 00:10:45.75	25.80	11.36	-51.8	-53.8	15.1	0.00e+00	0	22	0	201326592	70	4364
2026-01-13 00:10:46.74	25.84	11.45	-51.8	-53.7	15.1	0.00e+00	0	22	0	203423744	70	4338
2026-01-13 00:10:47.74	25.87	11.54	-51.7	-53.7	15.2	0.00e+00	0	22	0	205520896	70	4306
2026-01-13 00:10:48.74	25.91	11.63	-51.7	-53.7	15.0	0.00e+00	0	22	0	207618048	69	4569
2026-01-13 00:10:49.74	25.94	11.72	-51.6	-53.5	15.1	0.00e+00	0	21	0	208666624	69	4486
2026-01-13 00:10:50.74	25.98	11.81	-51.7	-53.7	15.0	0.00e+00	0	22	0	210763776	69	4561
2026-01-13 00:10:51.74	26.02	11.90	-51.6	-53.5	15.1	0.00e+00	0	21	0	212860928	69	4472
2026-01-13 00:10:52.75	26.05	12.00	-51.5	-53.4	15.2	0.00e+00	0	22	0	214958080	69	4439
2026-01-13 00:10:53.75	26.09	12.09	-51.5	-53.4	15.1	0.00e+00	0	22	0	217055232	69	4436
2026-01-13 00:10:54.75	26.13	12.18	-51.5	-53.4	15.1	0.00e+00	0	21	0	218103808	69	4440
2026-01-13 00:10:55.76	26.16	12.28	-51.6	-53.5	15.1	0.00e+00	0	22	0	220200960	69	4481
2026-01-13 00:10:56.75	26.20	12.37	-51.6	-53.5	15.1	0.00e+00	0	22	0	222298112	69	4459
2026-01-13 00:10:57.76	26.24	12.46	-51.4	-53.3	15.2	0.00e+00	0	21	0	224395264	69	4378
2026-01-13 00:10:58.76	26.27	12.56	-51.6	-53.5	15.1	0.00e+00	0	22	0	226492416	69	4479
2026-01-13 00:10:59.76	26.31	12.65	-51.5	-53.4	15.2	0.00e+00	0	21	0	227540992	69	4423
2026-01-13 00:11:00.76	26.35	12.75	-51.4	-53.3	15.2	0.00e+00	0	21	0	229638144	69	4342
2026-01-13 00:11:01.76	26.39	12.84	-51.5	-53.4	15.2	0.00e+00	0	21	0	231735296	69	4431
2026-01-13 00:11:02.76	26.43	12.94	-51.5	-53.4	15.1	0.00e+00	0	21	0	233832448	69	4426
2026-01-13 00:11:03.77	26.47	13.03	-51.4	-53.3	15.2	0.00e+00	0	22	0	235929600	69	4371
2026-01-13 00:11:04.76	26.50	13.13	-51.5	-53.4	15.1	0.00e+00	0	22	0	236978176	69	4434
2026-01-13 00:11:05.76	26.54	13.23	-51.5	-53.3	15.2	0.00e+00	0	22	0	239075328	69	4380
2026-01-13 00:11:06.76	26.58	13.32	-51.6	-53.5	15.1	0.00e+00	0	22	0	241172480	69	4463
2026-01-13 00:11:07.76	26.62	13.42	-51.6	-53.6	15.1	0.00e+00	0	21	0	243269632	69	4504
2026-01-13 00:11:08.76	26.66	13.52	-51.6	-53.5	15.1	0.00e+00	0	22	0	244318208	69	4464
2026-01-13 00:11:09.75	26.70	13.62	-51.7	-53.7	15.0	0.00e+00	0	21	0	246415360	69	4564
2026-01-13 00:11:10.76	26.74	13.71	-51.6	-53.5	15.1	0.00e+00	0	22	0	248512512	69	4488
2026-01-13 00:11:11.75	26.78	13.81	-51.6	-53.6	15.1	0.00e+00	0	22	0	250609664	69	4504
2026-01-13 00:11:12.76	26.82	13.91	-51.5	-53.4	15.2	0.00e+00	0	22	0	252706816	69	4396
2026-01-13 00:11:13.76	26.86	14.01	-51.4	-53.3	15.2	0.00e+00	0	22	0	253755392	69	4351
2026-01-13 00:11:14.76	26.90	14.11	-51.6	-53.5	15.1	0.00e+00	0	21	0	255852544	69	4480
2026-01-13 00:11:15.76	26.95	14.21	-51.6	-53.5	15.1	0.00e+00	0	22	0	257949696	69	4454
2026-01-13 00:11:16.76	26.99	14.31	-51.5	-53.4	15.2	0.00e+00	0	22	0	260046848	69	4416
2026-01-13 00:11:17.76	27.03	14.42	-51.5	-53.4	15.2	0.00e+00	0	22	0	262144000	69	4427
2026-01-13 00:11:18.76	27.07	14.52	-51.5	-53.3	15.2	0.00e+00	0	22	0	263192576	69	4391
2026-01-13 00:11:19.75	27.11	14.62	-51.5	-53.4	15.2	0.00e+00	0	22	0	265289728	69	4408
2026-01-13 00:11:20.75	27.16	14.72	-51.4	-53.2	15.3	0.00e+00	0	22	0	267386880	69	4323
2026-01-13 00:11:21.75	27.20	14.82	-51.6	-53.5	15.1	0.00e+00	0	22	0	269484032	69	4457
2026-01-13 00:11:22.75	27.24	14.93	-51.4	-53.3	15.3	0.00e+00	0	22	0	270532608	69	4358
2026-01-13 00:11:23.75	27.29	15.03	-51.6	-53.5	15.1	0.00e+00	0	22	0	272629760	69	4493
2026-01-13 00:11:24.75	27.33	15.14	-51.5	-53.4	15.2	0.00e+00	0	21	0	274726912	69	4404
2026-01-13 00:11:25.75	27.37	15.24	-51.5	-53.4	15.2	0.00e+00	0	22	0	276824064	69	4392
2026-01-13 00:11:26.75	27.42	15.35	-51.4	-53.2	15.3	0.00e+00	0	21	0	278921216	69	4336
2026-01-13 00:11:27.75	27.46	15.45	-51.4	-53.3	15.3	0.00e+00	0	22	0	279969792	69	4364
2026-01-13 00:11:28.75	27.51	15.56	-51.3	-53.1	15.3	0.00e+00	0	21	0	282066944	69	4291
2026-01-13 00:11:29.75	27.55	15.66	-51.5	-53.4	15.2	0.00e+00	0	22	0	284164096	69	4400
2026-01-13 00:11:30.76	27.60	15.77	-51.3	-53.1	15.3	0.00e+00	0	22	0	286261248	69	4273
2026-01-13 00:11:31.76	27.65	15.88	-51.5	-53.3	15.2	0.00e+00	0	22	0	288358400	69	4385
2026-01-13 00:11:32.76	27.69	15.99	-51.4	-53.3	15.3	0.00e+00	0	22	0	289406976	69	4344
2026-01-13 00:11:33.76	27.74	16.10	-51.4	-53.2	15.3	0.00e+00	0	22	0	291504128	69	4329
2026-01-13 00:11:34.76	27.78	16.21	-51.4	-53.2	15.3	0.00e+00	0	22	0	293601280	69	4327
2026-01-13 00:11:35.76	27.83	16.32	-51.5	-53.3	15.3	0.00e+00	0	22	0	295698432	69	4366
2026-01-13 00:11:36.75	27.88	16.42	-51.5	-53.4	15.2	0.00e+00	0	22	0	297795584	69	4421
2026-01-13 00:11:37.75	27.93	16.53	-51.5	-53.4	15.2	0.00e+00	0	22	0	298844160	69	4423
2026-01-13 00:11:38.75	27.97	16.65	-51.5	-53.4	15.2	0.00e+00	0	22	0	300941312	69	4414
2026-01-13 00:11:39.75	28.02	16.76	-51.6	-53.4	15.2	0.00e+00	0	22	0	303038464	69	4430
2026-01-13 00:11:40.75	28.07	16.87	-51.7	-53.6	15.1	0.00e+00	0	22	0	305135616	69	4505
2026-01-13 00:11:41.75	28.12	16.98	-51.6	-53.5	15.1	0.00e+00	0	22	0	306184192	69	4490
2026-01-13 00:11:42.76	28.17	17.09	-51.7	-53.6	15.1	0.00e+00	0	22	0	308281344	69	4507
2026-01-13 00:11:43.76	28.22	17.21	-51.7	-53.6	15.1	0.00e+00	0	22	0	310378496	69	4514
2026-01-13 00:11:44.75	28.27	17.32	-51.7	-53.6	15.1	0.00e+00	0	22	0	312475648	69	4507
2026-01-13 00:11:45.76	28.32	17.44	-51.5	-53.3	15.2	0.00e+00	0	22	0	314572800	69	4380
2026-01-13 00:11:46.76	28.37	17.55	-51.5	-53.3	15.2	0.00e+00	0	22	0	315621376	69	4384
2026-01-13 00:11:47.76	28.42	17.67	-51.6	-53.4	15.2	0.00e+00	0	22	0	317718528	69	4424
2026-01-13 00:11:48.76	28.47	17.78	-51.6	-53.4	15.2	0.00e+00	0	21	0	319815680	69	4434
2026-01-13 00:11:49.75	28.52	17.90	-51.5	-53.4	15.2	0.00e+00	0	21	0	321912832	69	4401
2026-01-13 00:11:50.75	28.58	18.01	-51.6	-53.4	15.2	0.00e+00	0	22	0	324009984	69	4429
2026-01-13 00:11:51.75	28.63	18.13	-51.6	-53.5	15.2	0.00e+00	0	21	0	325058560	69	4449
2026-01-13 00:11:52.75	28.68	18.25	-51.5	-53.4	15.2	0.00e+00	0	21	0	327155712	69	4412
2026-01-13 00:11:53.75	28.73	18.37	-51.6	-53.5	15.2	0.00e+00	0	22	0	329252864	69	4474
2026-01-13 00:11:54.75	28.79	18.49	-51.6	-53.5	15.2	0.00e+00	0	22	0	331350016	69	4455
2026-01-13 00:11:55.75	28.84	18.61	-51.6	-53.5	15.2	0.00e+00	0	22	0	332398592	69	4452
2026-01-13 00:11:56.75	28.90	18.73	-51.6	-53.4	15.2	0.00e+00	0	22	0	334495744	69	4433
2026-01-13 00:11:57.75	28.95	18.85	-51.7	-53.6	15.1	0.00e+00	0	22	0	336592896	69	4542
2026-01-13 00:11:58.75	29.01	18.97	-51.7	-53.6	15.1	0.00e+00	0	22	0	338690048	69	4539
2026-01-13 00:11:59.74	29.06	19.09	-51.9	-53.8	15.0	0.00e+00	0	22	0	340787200	69	4617
2026-01-13 00:12:00.74	29.12	19.21	-51.8	-53.7	15.1	0.00e+00	0	22	0	341835776	69	4555
2026-01-13 00:12:01.74	29.17	19.34	-52.0	-54.0	14.9	0.00e+00	0	22	0	343932928	69	4713
2026-01-13 00:12:02.74	29.23	19.46	-51.8	-53.7	15.0	0.00e+00	0	22	0	346030080	69	4575
2026-01-13 00:12:03.74	29.29	19.58	-52.0	-54.0	14.9	0.00e+00	0	22	0	348127232	69	4721
2026-01-13 00:12:04.74	29.34	19.71	-51.9	-53.8	14.9	0.00e+00	0	22	0	349175808	69	4642
2026-01-13 00:12:05.75	29.40	19.84	-52.1	-54.1	14.8	0.00e+00	0	22	0	351272960	69	4770
2026-01-13 00:12:06.75	29.46	19.96	-52.1	-54.1	14.8	0.00e+00	0	22	0	353370112	69	4768
2026-01-13 00:12:07.75	29.52	20.09	-51.9	-53.8	14.9	0.00e+00	0	22	0	355467264	69	4648
2026-01-13 00:12:08.75	29.58	20.22	-51.8	-53.7	15.0	0.00e+00	0	22	0	357564416	69	4553
2026-01-13 00:12:09.75	29.64	20.34	-51.7	-53.6	15.1	0.00e+00	0	22	0	358612992	69	4510
2026-01-13 00:12:10.75	29.70	20.47	-51.7	-53.5	15.1	0.00e+00	0	22	0	360710144	69	4492
2026-01-13 00:12:11.74	29.76	20.60	-51.9	-53.8	15.0	0.00e+00	0	22	0	362807296	69	4648
2026-01-13 00:12:12.73	29.82	20.73	-52.0	-54.0	14.9	0.00e+00	0	22	0	364904448	69	4732
2026-01-13 00:12:13.74	29.88	20.86	-52.1	-54.1	14.8	0.00e+00	0	22	0	367001600	69	4782
2026-01-13 00:12:14.73	29.94	20.99	-52.1	-54.2	14.8	0.00e+00	0	22	0	368050176	69	4817
2026-01-13 00:12:15.73	30.01	21.12	-52.2	-54.3	14.7	0.00e+00	0	22	0	370147328	69	4884
2026-01-13 00:12:16.72	30.07	21.25	-52.2	-54.2	14.7	0.00e+00	0	22	0	372244480	69	4868
2026-01-13 00:12:17.72	30.13	21.39	-52.2	-54.2	14.7	0.00e+00	0	22	0	374341632	69	4856
2026-01-13 00:12:18.72	30.20	21.52	-52.2	-54.2	14.7	0.00e+00	0	22	0	376438784	69	4852
2026-01-13 00:12:19.72	30.26	21.66	-52.1	-54.1	14.8	0.00e+00	0	22	0	377487360	69	4799
2026-01-13 00:12:20.71	30.33	21.79	-51.9	-53.9	14.9	0.00e+00	0	22	0	379584512	69	4653
2026-01-13 00:12:21.70	30.39	21.93	-51.8	-53.7	15.1	0.00e+00	0	22	0	381681664	69	4565
2026-01-13 00:12:22.70	30.46	22.06	-51.7	-53.7	15.1	0.00e+00	0	22	0	383778816	69	4557
2026-01-13 00:12:23.70	30.53	22.20	-51.7	-53.6	15.1	0.00e+00	0	22	0	384827392	69	4502
2026-01-13 00:12:24.70	30.59	22.34	-51.5	-53.4	15.2	0.00e+00	0	22	0	386924544	69	4411
2026-01-13 00:12:25.70	30.66	22.48	-51.3	-53.1	15.4	0.00e+00	0	22	0	389021696	69	4277
2026-01-13 00:12:26.69	30.73	22.61	-51.2	-52.9	15.5	0.00e+00	0	22	0	391118848	69	4192
2026-01-13 00:12:27.69	30.80	22.75	-51.3	-53.1	15.2	0.00e+00	0	22	0	393216000	68	4518
2026-01-13 00:12:28.68	30.87	22.89	-51.1	-52.8	15.4	0.00e+00	0	22	0	394264576	68	4365
2026-01-13 00:12:29.69	30.94	23.04	-50.9	-52.5	15.5	0.00e+00	0	22	0	396361728	68	4241
2026-01-13 00:12:30.68	31.01	23.18	-50.9	-52.6	15.5	0.00e+00	0	22	0	398458880	68	4257
2026-01-13 00:12:31.68	31.08	23.32	-50.8	-52.5	15.6	0.00e+00	0	22	0	400556032	68	4194
2026-01-13 00:12:32.69	31.15	23.47	-50.5	-52.1	15.6	0.00e+00	0	22	0	401604608	67	4265
2026-01-13 00:12:33.70	31.23	23.61	-50.3	-51.9	15.6	0.00e+00	0	22	0	403701760	67	4182
2026-01-13 00:12:34.70	31.30	23.76	-50.1	-51.7	15.6	0.00e+00	0	22	0	405798912	66	4293
2026-01-13 00:12:35.70	31.37	23.90	-50.1	-51.7	15.6	0.00e+00	0	22	0	407896064	66	4301
2026-01-13 00:12:36.70	31.45	24.05	-50.0	-51.5	15.6	0.00e+00	0	22	0	409993216	66	4235
2026-01-13 00:12:37.70	31.52	24.20	-50.1	-51.6	15.6	0.00e+00	0	22	0	411041792	66	4279
2026-01-13 00:12:38.70	31.60	24.35	-49.9	-51.4	15.7	0.00e+00	0	22	0	413138944	66	4173
2026-01-13 00:12:39.70	31.68	24.50	-49.9	-51.4	15.7	0.00e+00	0	22	0	415236096	66	4153
2026-01-13 00:12:40.70	31.75	24.65	-50.0	-51.5	15.7	0.00e+00	0	22	0	417333248	66	4211
2026-01-13 00:12:41.70	31.83	24.80	-50.0	-51.5	15.7	0.00e+00	0	22	0	419430400	66	4209
2026-01-13 00:12:42.70	31.91	24.95	-50.1	-51.7	15.6	0.00e+00	0	22	0	420478976	66	4303
2026-01-13 00:12:43.70	31.99	25.10	-50.1	-51.6	15.6	0.00e+00	0	22	0	422576128	66	4266
2026-01-13 00:12:44.71	32.07	25.26	-50.0	-51.6	15.6	0.00e+00	0	22	0	424673280	66	4247
2026-01-13 00:12:45.71	32.15	25.41	-50.1	-51.6	15.6	0.00e+00	0	22	0	426770432	66	4291
2026-01-13 00:12:46.71	32.24	25.57	-50.0	-51.6	15.6	0.00e+00	0	22	0	428867584	66	4256
2026-01-13 00:12:47.71	32.32	25.72	-50.0	-51.5	15.7	0.00e+00	0	22	0	429916160	66	4230
2026-01-13 00:12:48.71	32.40	25.88	-49.9	-51.5	15.7	0.00e+00	0	22	0	432013312	66	4197
2026-01-13 00:12:49.70	32.48	26.04	-50.0	-51.5	15.7	0.00e+00	0	22	0	434110464	66	4216
2026-01-13 00:12:50.70	32.57	26.20	-50.1	-51.7	15.6	0.00e+00	0	22	0	436207616	66	4293
2026-01-13 00:12:51.69	32.65	26.35	-50.2	-51.8	15.5	0.00e+00	0	22	0	437256192	66	4364
2026-01-13 00:12:52.68	32.74	26.51	-50.3	-51.9	15.4	0.00e+00	0	22	0	439353344	66	4414
2026-01-13 00:12:53.67	32.83	26.67	-50.1	-51.7	15.6	0.00e+00	0	22	0	441450496	66	4302
2026-01-13 00:12:54.67	32.91	26.84	-50.5	-52.1	15.4	0.00e+00	0	22	0	443547648	66	4519
2026-01-13 00:12:55.66	33.00	27.00	-50.5	-52.2	15.3	0.00e+00	0	22	0	445644800	66	4569
2026-01-13 00:12:56.65	33.09	27.16	-50.5	-52.1	15.4	0.00e+00	0	22	0	446693376	66	4544
2026-01-13 00:12:57.65	33.18	27.32	-50.4	-52.1	15.4	0.00e+00	0	22	0	448790528	66	4501
2026-01-13 00:12:58.65	33.27	27.49	-50.3	-51.9	15.4	0.00e+00	0	22	0	450887680	66	4441
2026-01-13 00:12:59.65	33.37	27.66	-50.4	-52.0	15.4	0.00e+00	0	22	0	452984832	66	4469
2026-01-13 00:13:00.64	33.46	27.82	-50.4	-52.0	15.4	0.00e+00	0	22	0	454033408	66	4468
2026-01-13 00:13:01.63	33.55	27.99	-50.3	-51.9	15.5	0.00e+00	0	22	0	456130560	66	4409
2026-01-13 00:13:02.62	33.65	28.16	-50.3	-51.9	15.5	0.00e+00	0	22	0	458227712	66	4393
2026-01-13 00:13:03.61	33.74	28.33	-50.3	-51.9	15.5	0.00e+00	0	22	0	460324864	66	4392
2026-01-13 00:13:04.61	33.84	28.50	-50.3	-51.9	15.5	0.00e+00	0	22	0	462422016	66	4416
2026-01-13 00:13:05.61	33.94	28.67	-50.3	-51.9	15.5	0.00e+00	0	22	0	463470592	66	4423
2026-01-13 00:13:06.59	34.04	28.84	-50.4	-52.0	15.4	0.00e+00	0	22	0	465567744	66	4476
2026-01-13 00:13:07.59	34.14	29.02	-50.4	-52.0	15.4	0.00e+00	0	22	0	467664896	66	4459
2026-01-13 00:13:08.59	34.24	29.19	-50.4	-52.0	15.4	0.00e+00	0	22	0	469762048	66	4457
2026-01-13 00:13:09.58	34.34	29.37	-50.7	-52.4	15.2	0.00e+00	0	22	0	470810624	66	4675
2026-01-13 00:13:10.58	34.44	29.54	-50.7	-52.4	15.2	0.00e+00	0	22	0	472907776	66	4667
2026-01-13 00:13:11.58	34.55	29.72	-50.7	-52.4	15.1	0.00e+00	0	22	0	475004928	66	4658
2026-01-13 00:13:12.58	34.65	29.90	-50.9	-52.6	15.2	0.00e+00	0	22	0	477102080	67	4524
2026-01-13 00:13:13.57	34.76	30.08	-51.2	-52.9	15.1	0.00e+00	0	22	0	479199232	67	4693
2026-01-13 00:13:14.56	34.87	30.26	-51.7	-53.5	15.0	0.00e+00	0	22	0	480247808	68	4730
2026-01-13 00:13:15.55	34.98	30.44	-51.8	-53.6	14.9	0.00e+00	0	22	0	482344960	68	4812
2026-01-13 00:13:16.56	35.09	30.63	-52.1	-54.0	14.9	0.00e+00	0	22	0	484442112	69	4734
2026-01-13 00:13:17.55	35.20	30.81	-52.1	-54.0	15.1	0.00e+00	0	22	0	486539264	70	4488
2026-01-13 00:13:18.55	35.31	31.00	-52.4	-54.4	14.8	0.00e+00	0	22	0	487587840	70	4690
2026-01-13 00:13:19.55	35.42	31.18	-52.5	-54.5	14.7	0.00e+00	0	22	0	489684992	70	4721
2026-01-13 00:13:20.54	35.54	31.37	-52.7	-54.8	14.7	0.00e+00	0	22	0	491782144	70	4884
2026-01-13 00:13:21.55	35.66	31.56	-52.7	-54.8	14.6	0.00e+00	0	22	0	493879296	70	4923
2026-01-13 00:13:22.54	35.77	31.75	-52.6	-54.7	14.7	0.00e+00	0	22	0	495976448	70	4846
2026-01-13 00:13:23.54	35.89	31.94	-53.0	-55.1	14.6	0.00e+00	0	22	0	497025024	71	4812
2026-01-13 00:13:24.53	36.01	32.13	-53.2	-55.5	14.4	0.00e+00	0	22	0	499122176	71	5001
2026-01-13 00:13:25.53	36.14	32.33	-53.2	-55.4	14.4	0.00e+00	0	22	0	501219328	71	4977
2026-01-13 00:13:26.54	36.26	32.52	-53.3	-55.6	14.5	0.00e+00	0	22	0	503316480	72	4771
2026-01-13 00:13:27.54	36.39	32.72	-53.4	-55.8	14.3	0.00e+00	0	22	0	505413632	72	4904
2026-01-13 00:13:28.53	36.51	32.91	-53.7	-56.3	14.0	0.00e+00	0	22	0	506462208	72	5189
2026-01-13 00:13:29.53	36.64	33.11	-53.7	-56.2	14.1	0.00e+00	0	22	0	508559360	72	5107
2026-01-13 00:13:30.53	36.77	33.31	-53.8	-56.3	14.2	0.00e+00	0	22	0	510656512	73	4898
2026-01-13 00:13:31.53	36.90	33.51	-54.2	-56.9	13.7	0.00e+00	0	22	0	512753664	73	5268
2026-01-13 00:13:32.53	37.03	33.71	-54.2	-56.9	13.7	0.00e+00	0	22	0	513802240	73	5256
2026-01-13 00:13:33.53	37.17	33.92	-54.4	-57.3	13.5	0.00e+00	0	22	0	515899392	73	5492
2026-01-13 00:13:34.53	37.30	34.12	-53.8	-56.4	14.1	0.00e+00	0	22	0	517996544	73	4946
2026-01-13 00:13:35.53	37.44	34.33	-53.7	-56.1	14.3	0.00e+00	0	22	0	520093696	73	4785
2026-01-13 00:13:36.53	37.58	34.53	-53.3	-55.5	14.7	0.00e+00	0	22	0	522190848	73	4492
2026-01-13 00:13:37.53	37.72	34.74	-53.2	-55.4	14.6	0.00e+00	0	22	0	523239424	72	4668
2026-01-13 00:13:38.53	37.86	34.95	-53.2	-55.4	14.6	0.00e+00	0	22	0	525336576	72	4676
2026-01-13 00:13:39.53	38.01	35.16	-52.9	-54.9	14.9	0.00e+00	0	22	0	527433728	72	4428
2026-01-13 00:13:40.52	38.15	35.37	-53.0	-55.1	14.8	0.00e+00	0	22	0	529530880	72	4543
2026-01-13 00:13:41.53	38.30	35.58	-52.5	-54.4	15.0	0.00e+00	0	22	0	531628032	71	4422
2026-01-13 00:13:42.52	38.45	35.80	-52.8	-54.9	14.7	0.00e+00	0	22	0	532676608	71	4682
2026-01-13 00:13:43.52	38.60	36.01	-52.8	-54.8	14.8	0.00e+00	0	22	0	534773760	71	4642
2026-01-13 00:13:44.51	38.75	36.22	-52.7	-54.8	14.8	0.00e+00	0	22	0	536870912	71	4644
2026-01-13 00:13:45.51	38.91	36.44	-53.0	-55.2	14.6	0.00e+00	0	22	0	538968064	71	4852
2026-01-13 00:13:46.50	39.07	36.66	-53.4	-55.8	14.3	0.00e+00	0	22	0	541065216	72	4880
2026-01-13 00:13:47.50	39.23	36.88	-53.7	-56.1	14.1	0.00e+00	0	22	0	542113792	72	5085
2026-01-13 00:13:48.50	39.39	37.10	-53.7	-56.3	14.0	0.00e+00	0	22	0	544210944	72	5161
2026-01-13 00:13:49.50	39.55	37.32	-54.1	-56.8	13.9	0.00e+00	0	22	0	546308096	73	5189
2026-01-13 00:13:50.50	39.72	37.55	-54.1	-56.7	14.1	0.00e+00	0	22	0	548405248	74	4836
2026-01-13 00:13:51.49	39.89	37.77	-54.3	-57.1	14.0	0.00e+00	0	22	0	549453824	74	5061
2026-01-13 00:13:52.49	40.06	37.99	-54.5	-57.3	13.6	0.00e+00	0	22	0	551550976	74	5217
2026-01-13 00:13:53.49	40.23	38.22	-53.9	-56.4	14.2	0.00e+00	0	22	0	553648128	74	4679
2026-01-13 00:13:54.49	40.41	38.45	-54.3	-57.0	13.9	0.00e+00	0	22	0	555745280	74	5031
2026-01-13 00:13:55.49	40.58	38.68	-54.5	-57.3	13.6	0.00e+00	0	22	0	557842432	74	5191
2026-01-13 00:13:56.49	40.76	38.91	-54.8	-57.9	13.3	0.00e+00	0	22	0	558891008	74	5584
2026-01-13 00:13:57.48	40.95	39.14	-55.0	-58.2	13.1	0.00e+00	0	22	0	560988160	75	5453
2026-01-13 00:13:58.49	41.13	39.38	-55.3	-58.9	12.7	0.00e+00	0	22	0	563085312	75	5890
2026-01-13 00:13:59.49	41.32	39.61	-55.1	-58.5	12.8	0.00e+00	0	22	0	565182464	75	5633
2026-01-13 00:14:00.49	41.51	39.85	-54.9	-58.1	13.2	7.00e-07	0	22	0	566231040	75	5362
2026-01-13 00:14:01.49	41.71	40.09	-54.5	-57.3	13.8	0.00e+00	0	22	0	568328192	75	4891
2026-01-13 00:14:02.47	41.90	40.32	-54.4	-57.2	13.9	0.00e+00	0	22	0	570425344	75	4837
2026-01-13 00:14:03.48	42.10	40.56	-54.0	-56.6	14.2	0.00e+00	0	22	0	572522496	74	4795
2026-01-13 00:14:04.47	42.30	40.80	-53.3	-55.5	14.8	0.00e+00	0	22	0	574619648	73	4458
2026-01-13 00:14:05.47	42.51	41.05	-53.4	-55.7	14.5	0.00e+00	0	22	0	575668224	72	4815
2026-01-13 00:14:06.47	42.71	41.29	-52.9	-55.1	14.8	0.00e+00	0	22	0	577765376	72	4498
2026-01-13 00:14:07.46	42.92	41.53	-53.0	-55.1	14.8	0.00e+00	0	22	0	579862528	72	4537
2026-01-13 00:14:08.45	43.14	41.78	-52.9	-55.1	14.8	0.00e+00	0	22	0	581959680	72	4504
2026-01-13 00:14:09.45	43.35	42.02	-53.3	-55.6	14.5	0.00e+00	0	22	0	584056832	72	4762
2026-01-13 00:14:10.45	43.58	42.27	-53.3	-55.6	14.4	0.00e+00	0	22	0	585105408	72	4782
2026-01-13 00:14:11.45	43.80	42.52	-53.3	-55.5	14.5	0.00e+00	0	22	0	587202560	72	4754
2026-01-13 00:14:12.44	44.03	42.77	-53.3	-55.6	14.4	0.00e+00	0	22	0	589299712	72	4801
2026-01-13 00:14:13.45	44.26	43.02	-53.0	-55.1	14.8	0.00e+00	0	22	0	591396864	72	4532
2026-01-13 00:14:14.45	44.49	43.28	-53.2	-55.4	14.6	0.00e+00	0	22	0	593494016	72	4705
2026-01-13 00:14:15.45	44.73	43.53	-53.2	-55.4	14.8	0.00e+00	0	22	0	594542592	72	4683
2026-01-13 00:14:16.44	44.97	43.79	-53.4	-55.6	14.4	0.00e+00	0	22	0	596639744	72	4806
2026-01-13 00:14:17.44	45.22	44.04	-53.3	-55.6	14.5	0.00e+00	0	22	0	598736896	72	4761
2026-01-13 00:14:18.44	45.47	44.30	-53.3	-55.5	14.5	0.00e+00	0	22	0	600834048	72	4739
2026-01-13 00:14:19.44	45.72	44.56	-53.7	-56.1	14.3	0.00e+00	0	22	0	601882624	73	4793
2026-01-13 00:14:20.42	45.98	44.82	-53.7	-56.2	14.3	0.00e+00	0	22	0	603979776	73	4820
2026-01-13 00:14:21.42	46.24	45.08	-53.5	-55.9	14.5	0.00e+00	0	22	0	606076928	73	4660
2026-01-13 00:14:22.43	46.51	45.34	-53.0	-55.1	14.8	0.00e+00	0	22	0	608174080	72	4536
2026-01-13 00:14:23.43	46.78	45.61	-53.1	-55.3	14.7	0.00e+00	0	22	0	610271232	72	4608
2026-01-13 00:14:24.43	47.06	45.87	-52.5	-54.5	15.0	0.00e+00	0	22	0	611319808	71	4461
2026-01-13 00:14:25.42	47.33	46.13	-52.9	-55.0	14.7	0.00e+00	0	22	0	613416960	71	4729
2026-01-13 00:14:26.42	47.62	46.40	-52.5	-54.4	15.0	0.00e+00	0	22	0	615514112	71	4436
2026-01-13 00:14:27.42	47.91	46.67	-52.1	-54.0	15.1	0.00e+00	0	22	0	617611264	70	4451
2026-01-13 00:14:28.42	48.20	46.94	-51.8	-53.6	15.4	0.00e+00	0	22	0	618659840	70	4250
2026-01-13 00:14:29.42	48.50	47.21	-51.3	-52.9	15.4	0.00e+00	0	22	0	620756992	68	4428
2026-01-13 00:14:30.41	48.80	47.47	-51.0	-52.6	15.6	0.00e+00	0	22	0	622854144	68	4247
2026-01-13 00:14:31.41	49.11	47.74	-50.8	-52.3	15.7	0.00e+00	0	22	0	624951296	68	4123
2026-01-13 00:14:32.41	49.43	48.02	-50.9	-52.5	15.6	0.00e+00	0	22	0	627048448	68	4196
2026-01-13 00:14:33.40	49.75	48.29	-51.4	-53.1	15.3	0.00e+00	0	22	0	628097024	68	4526
2026-01-13 00:14:34.40	50.07	48.56	-51.7	-53.5	15.0	0.00e+00	0	22	0	630194176	68	4732
2026-01-13 00:14:35.40	50.41	48.83	-51.9	-53.7	15.0	0.00e+00	0	22	0	632291328	68	4850
2026-01-13 00:14:36.40	50.75	49.11	-52.1	-54.0	14.9	0.00e+00	0	22	0	634388480	69	4726
2026-01-13 00:14:37.40	51.09	49.38	-51.7	-53.4	15.3	0.00e+00	0	22	0	636485632	69	4423
2026-01-13 00:14:38.40	51.44	49.66	-51.7	-53.4	15.3	0.00e+00	0	22	0	637534208	69	4422
2026-01-13 00:14:39.40	51.80	49.94	-50.9	-52.5	15.6	0.00e+00	0	22	0	639631360	68	4233
2026-01-13 00:14:40.41	52.16	50.22	-51.2	-52.9	15.4	0.00e+00	0	22	0	641728512	68	4402
2026-01-13 00:14:41.40	52.53	50.49	-51.1	-52.7	15.5	0.00e+00	0	22	0	643825664	68	4312
2026-01-13 00:14:42.41	52.91	50.77	-51.1	-52.8	15.4	0.00e+00	0	22	0	644874240	68	4351
2026-01-13 00:14:43.40	53.29	51.05	-51.3	-53.0	15.3	0.00e+00	0	22	0	646971392	68	4481
2026-01-13 00:14:44.40	53.68	51.33	-50.9	-52.5	15.6	0.00e+00	0	22	0	649068544	68	4218
2026-01-13 00:14:45.40	54.08	51.61	-50.0	-51.5	15.7	0.00e+00	0	22	0	651165696	66	4223
2026-01-13 00:14:46.40	54.49	51.89	-49.8	-51.2	15.8	0.00e+00	0	22	0	653262848	66	4087
2026-01-13 00:14:47.39	54.89	52.16	-49.9	-51.4	15.6	0.00e+00	0	22	0	654311424	66	4146
2026-01-13 00:14:48.39	55.32	52.44	-50.3	-51.8	15.5	0.00e+00	0	22	0	656408576	66	4369
2026-01-13 00:14:49.38	55.74	52.72	-50.1	-51.6	15.6	0.00e+00	0	22	0	658505728	66	4269
2026-01-13 00:14:50.38	56.18	53.00	-50.2	-51.8	15.6	0.00e+00	0	22	0	660602880	66	4352
2026-01-13 00:14:51.38	56.62	53.28	-50.2	-51.7	15.6	0.00e+00	0	22	0	662700032	66	4309
2026-01-13 00:14:52.38	57.08	53.56	-49.6	-51.1	15.8	0.00e+00	0	22	0	663748608	65	4253
2026-01-13 00:14:53.38	57.54	53.84	-49.2	-50.6	16.0	0.00e+00	0	22	0	665845760	65	4010
2026-01-13 00:14:54.37	58.01	54.12	-49.2	-50.5	15.8	0.00e+00	0	22	0	667942912	64	4237
2026-01-13 00:14:55.37	58.49	54.39	-49.9	-51.4	15.6	0.00e+00	0	22	0	670040064	65	4427
2026-01-13 00:14:56.37	58.98	54.67	-50.6	-52.2	15.3	0.00e+00	0	22	0	671088640	66	4587
2026-01-13 00:14:57.37	59.48	54.95	-50.7	-52.3	15.3	0.00e+00	0	22	0	673185792	66	4630
2026-01-13 00:14:58.36	59.98	55.22	-51.0	-52.6	15.3	0.00e+00	0	22	0	675282944	67	4525
2026-01-13 00:14:59.36	60.50	55.50	-50.7	-52.2	15.5	0.00e+00	0	22	0	677380096	67	4340
2026-01-13 00:15:00.36	61.03	55.77	-50.3	-51.8	15.6	0.00e+00	0	22	0	679477248	66	4349
2026-01-13 00:15:01.36	61.57	56.05	-49.6	-51.1	15.7	0.00e+00	0	22	0	680525824	65	4249
2026-01-13 00:15:02.36	62.12	56.32	-49.5	-50.9	15.8	0.00e+00	0	22	0	682622976	65	4159
2026-01-13 00:15:03.36	62.68	56.59	-49.5	-50.8	15.8	0.00e+00	0	22	0	684720128	65	4144
2026-01-13 00:15:04.36	63.25	56.86	-49.6	-51.0	15.8	0.00e+00	0	22	0	686817280	65	4205
2026-01-13 00:15:05.36	63.84	57.13	-49.6	-51.0	15.8	0.00e+00	0	22	0	688914432	65	4231
2026-01-13 00:15:06.36	64.43	57.40	-50.0	-51.4	15.5	0.00e+00	0	22	0	689963008	65	4437
2026-01-13 00:15:07.36	65.04	57.66	-50.6	-52.2	15.4	0.00e+00	0	22	0	692060160	66	4566
2026-01-13 00:15:08.36	65.66	57.93	-51.4	-53.2	15.0	0.00e+00	0	22	0	694157312	67	4834
2026-01-13 00:15:09.35	66.28	58.19	-52.4	-54.3	14.8	0.00e+00	0	22	0	696254464	69	4920
2026-01-13 00:15:10.35	66.92	58.45	-52.8	-54.9	14.8	0.00e+00	0	22	0	697303040	71	4686
2026-01-13 00:15:11.35	67.58	58.70	-52.7	-54.8	14.9	0.00e+00	0	22	0	699400192	71	4610
2026-01-13 00:15:12.34	68.24	58.96	-51.7	-53.5	15.4	0.00e+00	0	22	0	701497344	70	4202
2026-01-13 00:15:13.35	68.93	59.21	-51.0	-52.7	15.5	0.00e+00	0	22	0	703594496	68	4316
2026-01-13 00:15:14.35	69.62	59.46	-50.9	-52.6	15.6	0.00e+00	0	22	0	705691648	68	4247
2026-01-13 00:15:15.35	70.33	59.71	-51.5	-53.2	15.2	0.00e+00	0	22	0	706740224	68	4584
2026-01-13 00:15:16.35	71.05	59.95	-52.0	-53.9	15.0	0.00e+00	0	22	0	708837376	69	4687
2026-01-13 00:15:17.33	71.77	60.19	-52.2	-54.1	14.9	0.00e+00	0	22	0	710934528	69	4788
2026-01-13 00:15:18.33	72.52	60.42	-52.3	-54.2	15.1	0.00e+00	0	22	0	713031680	70	4592
2026-01-13 00:15:19.33	73.28	60.66	-51.8	-53.5	15.4	0.00e+00	0	22	0	715128832	70	4227
2026-01-13 00:15:20.33	74.06	60.89	-51.3	-52.9	15.4	0.00e+00	0	22	0	716177408	68	4416
2026-01-13 00:15:21.32	74.84	61.11	-51.3	-52.9	15.3	0.00e+00	0	22	0	718274560	68	4441
2026-01-13 00:15:22.32	75.64	61.34	-51.7	-53.5	15.0	0.00e+00	0	22	0	720371712	68	4753
2026-01-13 00:15:23.32	76.46	61.55	-51.6	-53.3	15.4	0.00e+00	0	22	0	722468864	69	4374
2026-01-13 00:15:24.32	77.29	61.77	-51.5	-53.2	15.4	0.00e+00	0	22	0	723517440	69	4301
2026-01-13 00:15:25.31	78.13	61.98	-51.3	-52.9	15.4	0.00e+00	0	22	0	725614592	68	4438
2026-01-13 00:15:26.31	78.99	62.18	-50.8	-52.4	15.6	0.00e+00	0	22	0	727711744	68	4162
2026-01-13 00:15:27.31	79.87	62.38	-50.2	-51.8	15.8	0.00e+00	0	22	0	729808896	67	4101
2026-01-13 00:15:28.31	80.76	62.58	-50.1	-51.6	15.6	0.00e+00	0	22	0	731906048	66	4273
2026-01-13 00:15:29.31	81.67	62.77	-49.6	-51.1	15.7	0.00e+00	0	22	0	732954624	65	4246
2026-01-13 00:15:30.30	82.57	62.95	-49.3	-50.6	15.9	0.00e+00	0	22	0	735051776	65	4048
2026-01-13 00:15:31.29	83.50	63.12	-49.4	-50.7	15.7	0.00e+00	0	22	0	737148928	64	4335
2026-01-13 00:15:32.29	84.44	63.30	-50.5	-52.1	15.3	0.00e+00	0	22	0	739246080	66	4526
2026-01-13 00:15:33.29	85.40	63.46	-50.3	-51.8	15.5	0.00e+00	0	22	0	740294656	66	4383
2026-01-13 00:15:34.29	86.38	63.62	-49.1	-50.5	15.9	0.00e+00	0	22	0	742391808	64	4199
2026-01-13 00:15:35.29	87.36	63.78	-49.3	-50.7	15.7	0.00e+00	0	22	0	744488960	64	4333
2026-01-13 00:15:36.29	88.36	63.92	-50.5	-52.1	15.4	0.00e+00	0	22	0	746586112	66	4538
2026-01-13 00:15:37.28	89.36	64.06	-51.5	-53.3	15.2	0.00e+00	0	22	0	748683264	68	4629
2026-01-13 00:15:38.29	90.40	64.20	-50.9	-52.4	15.6	0.00e+00	0	22	0	749731840	68	4191
2026-01-13 00:15:39.29	91.43	64.32	-50.4	-51.9	15.7	0.00e+00	0	22	0	751828992	67	4163
2026-01-13 00:15:40.29	92.48	64.44	-50.5	-52.0	15.7	0.00e+00	0	22	0	753926144	67	4232
2026-01-13 00:15:41.29	93.53	64.55	-50.5	-52.1	15.6	0.00e+00	0	22	0	756023296	67	4243
2026-01-13 00:15:42.29	94.60	64.66	-51.0	-52.6	15.3	0.00e+00	0	22	0	758120448	67	4535
2026-01-13 00:15:43.29	95.68	64.75	-51.8	-53.6	15.0	0.00e+00	0	22	0	759169024	68	4801
2026-01-13 00:15:44.29	96.76	64.84	-52.4	-54.4	14.9	0.00e+00	0	22	0	761266176	70	4700
2026-01-13 00:15:45.28	97.84	64.92	-52.9	-55.0	14.7	0.00e+00	0	22	0	763363328	71	4732
2026-01-13 00:15:46.27	98.93	64.99	-52.6	-54.6	14.9	0.00e+00	0	22	0	765460480	71	4520
2026-01-13 00:15:47.28	100.05	65.06	-52.0	-53.8	15.3	0.00e+00	0	22	0	767557632	70	4352
2026-01-13 00:15:48.29	101.17	65.12	-51.5	-53.2	15.4	0.00e+00	0	22	0	768606208	69	4308
2026-01-13 00:15:49.28	102.28	65.16	-51.1	-52.7	15.5	0.00e+00	0	22	0	770703360	68	4324
2026-01-13 00:15:50.27	103.39	65.20	-50.4	-51.9	15.7	0.00e+00	0	22	0	772800512	67	4179
2026-01-13 00:15:51.27	104.52	65.23	-50.1	-51.6	15.6	0.00e+00	0	22	0	774897664	66	4263
2026-01-13 00:15:52.27	105.64	65.25	-50.5	-52.0	15.5	0.00e+00	0	22	0	775946240	66	4481
2026-01-13 00:15:53.26	106.76	65.27	-51.3	-53.0	15.1	0.00e+00	0	22	0	778043392	67	4731
2026-01-13 00:15:54.27	107.91	65.27	-50.6	-52.2	15.5	0.00e+00	0	22	0	780140544	67	4298
2026-01-13 00:15:55.27	109.04	65.27	-50.1	-51.6	15.6	0.00e+00	0	22	0	782237696	66	4256
2026-01-13 00:15:56.27	110.17	65.26	-50.7	-52.3	15.3	0.00e+00	0	22	0	784334848	66	4606
2026-01-13 00:15:57.27	111.30	65.23	-52.0	-53.9	15.1	0.00e+00	0	22	0	785383424	69	4659
2026-01-13 00:15:58.26	112.41	65.21	-51.9	-53.8	15.0	0.00e+00	0	22	0	787480576	69	4629
2026-01-13 00:15:59.26	113.53	65.17	-51.3	-53.0	15.6	0.00e+00	0	22	0	789577728	69	4226
2026-01-13 00:16:00.26	114.65	65.12	-51.4	-53.1	15.4	0.00e+00	0	22	0	791674880	69	4271
2026-01-13 00:16:01.26	115.77	65.07	-50.7	-52.2	15.7	0.00e+00	0	22	0	792723456	68	4087
2026-01-13 00:16:02.26	116.88	65.00	-49.3	-50.6	16.0	0.00e+00	0	22	0	794820608	65	4048
2026-01-13 00:16:03.27	117.99	64.93	-49.0	-50.3	15.9	0.00e+00	0	22	0	796917760	64	4106
2026-01-13 00:16:04.26	119.07	64.85	-49.1	-50.5	15.8	0.00e+00	0	22	0	799014912	64	4194
2026-01-13 00:16:05.27	120.17	64.76	-49.5	-50.9	15.7	0.00e+00	0	22	0	801112064	64	4403
2026-01-13 00:16:06.27	121.25	64.67	-50.0	-51.4	15.5	0.00e+00	0	22	0	802160640	65	4440
2026-01-13 00:16:07.27	122.31	64.57	-50.3	-51.9	15.3	0.00e+00	0	22	0	804257792	65	4688
2026-01-13 00:16:08.26	123.36	64.46	-50.5	-52.1	15.5	0.00e+00	0	22	0	806354944	66	4501
2026-01-13 00:16:09.26	124.41	64.34	-50.6	-52.2	15.3	0.00e+00	0	22	0	808452096	66	4597
2026-01-13 00:16:10.24	125.42	64.21	-50.3	-51.8	15.5	0.00e+00	0	22	0	810549248	66	4383
2026-01-13 00:16:11.24	126.45	64.08	-50.3	-51.9	15.5	0.00e+00	0	22	0	811597824	66	4392
2026-01-13 00:16:12.23	127.45	63.94	-50.0	-51.4	15.7	0.00e+00	0	22	0	813694976	66	4178
2026-01-13 00:16:13.23	128.46	63.80	-49.5	-50.9	15.8	0.00e+00	0	22	0	815792128	65	4165
2026-01-13 00:16:14.22	129.43	63.65	-48.8	-50.1	16.0	0.00e+00	0	22	0	817889280	64	4019
2026-01-13 00:16:15.22	130.41	63.49	-49.0	-50.4	15.9	0.00e+00	0	22	0	818937856	64	4146
2026-01-13 00:16:16.22	131.37	63.32	-50.4	-52.0	15.3	0.00e+00	0	22	0	821035008	65	4716
2026-01-13 00:16:17.23	132.33	63.15	-51.1	-52.8	15.2	0.00e+00	0	22	0	823132160	67	4605
2026-01-13 00:16:18.22	133.26	62.97	-50.9	-52.5	15.4	0.00e+00	0	22	0	825229312	67	4487
2026-01-13 00:16:19.23	134.19	62.79	-50.3	-51.9	15.7	0.00e+00	0	22	0	827326464	67	4153
2026-01-13 00:16:20.22	135.08	62.60	-50.9	-52.5	15.4	0.00e+00	0	22	0	828375040	67	4481
2026-01-13 00:16:21.22	135.98	62.41	-50.7	-52.3	15.5	0.00e+00	0	22	0	830472192	67	4376
2026-01-13 00:16:22.21	136.85	62.21	-50.1	-51.6	15.6	0.00e+00	0	22	0	832569344	66	4258
2026-01-13 00:16:23.21	137.71	62.00	-49.7	-51.2	15.7	0.00e+00	0	22	0	834666496	65	4308
2026-01-13 00:16:24.21	138.56	61.79	-50.1	-51.6	15.5	0.00e+00	0	22	0	836763648	65	4534
2026-01-13 00:16:25.21	139.40	61.58	-49.6	-51.1	15.7	0.00e+00	0	22	0	837812224	65	4251
2026-01-13 00:16:26.21	140.22	61.36	-48.6	-49.9	15.9	0.00e+00	0	22	0	839909376	63	4186
2026-01-13 00:16:27.21	141.03	61.14	-48.7	-50.0	15.9	0.00e+00	0	22	0	842006528	63	4198
2026-01-13 00:16:28.21	141.82	60.91	-49.4	-50.8	15.7	0.00e+00	0	22	0	844103680	64	4373
2026-01-13 00:16:29.22	142.60	60.68	-49.7	-51.2	15.5	0.00e+00	0	22	0	845152256	64	4554
2026-01-13 00:16:30.23	143.38	60.44	-49.1	-50.5	15.8	0.00e+00	0	22	0	847249408	64	4200
2026-01-13 00:16:31.23	144.13	60.21	-48.3	-49.6	16.0	0.00e+00	0	22	0	849346560	63	4022
2026-01-13 00:16:32.23	144.86	59.97	-48.4	-49.6	16.0	0.00e+00	0	22	0	851443712	63	4049
2026-01-13 00:16:33.23	145.59	59.72	-48.6	-49.9	15.9	0.00e+00	0	22	0	853540864	63	4155
2026-01-13 00:16:34.23	146.29	59.47	-48.3	-49.6	16.1	0.00e+00	0	22	0	854589440	63	4013
2026-01-13 00:16:35.23	146.99	59.22	-48.9	-50.3	15.8	0.00e+00	0	22	0	856686592	63	4341
2026-01-13 00:16:36.22	147.67	58.97	-49.2	-50.6	15.6	0.00e+00	0	22	0	858783744	63	4499
2026-01-13 00:16:37.21	148.33	58.72	-48.8	-50.2	15.8	0.00e+00	0	22	0	860880896	63	4294
2026-01-13 00:16:38.21	148.99	58.46	-48.4	-49.7	16.0	0.00e+00	0	22	0	862978048	63	4070
2026-01-13 00:16:39.20	149.63	58.21	-49.0	-50.3	15.7	0.00e+00	0	22	0	864026624	63	4389
2026-01-13 00:16:40.21	150.27	57.94	-49.5	-51.0	15.6	0.00e+00	0	22	0	866123776	64	4449
2026-01-13 00:16:41.21	150.89	57.68	-49.2	-50.6	15.8	0.00e+00	0	22	0	868220928	64	4281
2026-01-13 00:16:42.20	151.49	57.41	-48.5	-49.8	15.9	0.00e+00	0	22	0	870318080	63	4125
2026-01-13 00:16:43.21	152.09	57.14	-48.7	-50.0	15.9	0.00e+00	0	22	0	871366656	63	4216
2026-01-13 00:16:44.22	152.68	56.87	-49.6	-51.0	15.6	0.00e+00	0	22	0	873463808	64	4488
2026-01-13 00:16:45.22	153.26	56.60	-49.4	-50.8	15.7	0.00e+00	0	22	0	875560960	64	4373
2026-01-13 00:16:46.22	153.82	56.33	-48.8	-50.2	16.0	0.00e+00	0	22	0	877658112	64	4056
2026-01-13 00:16:47.22	154.37	56.06	-49.2	-50.6	15.7	0.00e+00	0	22	0	879755264	64	4256
2026-01-13 00:16:48.23	154.92	55.78	-49.0	-50.4	15.8	0.00e+00	0	22	0	881852416	64	4168
2026-01-13 00:16:49.22	155.44	55.51	-48.7	-50.0	16.0	0.00e+00	0	22	0	882900992	64	3989
2026-01-13 00:16:50.23	155.97	55.23	-48.9	-50.2	15.8	0.00e+00	0	22	0	884998144	63	4325
2026-01-13 00:16:51.23	156.48	54.95	-49.3	-50.7	15.6	0.00e+00	0	22	0	887095296	63	4570
2026-01-13 00:16:52.23	156.98	54.67	-49.2	-50.6	15.7	0.00e+00	0	22	0	889192448	64	4268
2026-01-13 00:16:53.24	157.47	54.39	-49.8	-51.2	15.5	0.00e+00	0	22	0	890241024	64	4594
2026-01-13 00:16:54.23	157.95	54.11	-49.9	-51.4	15.6	0.00e+00	0	22	0	892338176	65	4403
2026-01-13 00:16:55.23	158.42	53.83	-49.9	-51.3	15.6	0.00e+00	0	22	0	894435328	65	4379
2026-01-13 00:16:56.23	158.89	53.55	-50.1	-51.6	15.5	0.00e+00	0	22	0	896532480	65	4528
2026-01-13 00:16:57.23	159.34	53.27	-51.6	-53.3	15.1	0.00e+00	0	22	0	898629632	68	4629
2026-01-13 00:16:58.23	159.79	52.99	-52.7	-54.8	14.7	0.00e+00	0	22	0	899678208	70	4906
2026-01-13 00:16:59.24	160.23	52.71	-52.4	-54.3	14.9	0.00e+00	0	22	0	901775360	70	4651
2026-01-13 00:17:00.24	160.66	52.43	-51.0	-52.6	15.5	0.00e+00	0	22	0	903872512	68	4289
2026-01-13 00:17:01.24	161.08	52.15	-50.6	-52.2	15.5	0.00e+00	0	22	0	905969664	67	4324
2026-01-13 00:17:02.24	161.50	51.87	-51.2	-52.9	15.1	0.00e+00	0	22	0	908066816	67	4695
2026-01-13 00:17:03.24	161.90	51.59	-52.1	-54.1	14.9	0.00e+00	0	22	0	909115392	69	4762
2026-01-13 00:17:04.24	162.30	51.31	-51.5	-53.2	15.4	0.00e+00	0	22	0	911212544	69	4340
2026-01-13 00:17:05.25	162.70	51.03	-51.5	-53.3	15.4	0.00e+00	0	22	0	913309696	69	4347
2026-01-13 00:17:06.25	163.08	50.75	-51.4	-53.0	15.5	0.00e+00	0	22	0	915406848	69	4230
2026-01-13 00:17:07.26	163.46	50.47	-51.6	-53.4	15.3	0.00e+00	0	22	0	916455424	69	4397
2026-01-13 00:17:08.26	163.83	50.19	-51.7	-53.4	15.3	0.00e+00	0	22	0	918552576	69	4440
2026-01-13 00:17:09.26	164.19	49.91	-52.0	-53.8	15.0	0.00e+00	0	22	0	920649728	69	4651
2026-01-13 00:17:10.26	164.55	49.63	-52.8	-55.0	14.6	0.00e+00	0	22	0	922746880	70	4984
2026-01-13 00:17:11.26	164.90	49.35	-53.1	-55.4	14.4	0.00e+00	0	22	0	924844032	71	4946
2026-01-13 00:17:12.26	165.25	49.08	-52.8	-54.9	14.8	0.00e+00	0	22	0	925892608	71	4654
2026-01-13 00:17:13.26	165.59	48.80	-51.9	-53.7	15.3	0.00e+00	0	22	0	927989760	70	4302
2026-01-13 00:17:14.26	165.92	48.53	-51.6	-53.3	15.2	0.00e+00	0	22	0	930086912	69	4386
2026-01-13 00:17:15.25	166.24	48.26	-51.8	-53.7	15.1	0.00e+00	0	22	0	932184064	69	4549
2026-01-13 00:17:16.25	166.56	47.98	-52.9	-55.0	14.5	0.00e+00	0	22	0	934281216	70	5031
2026-01-13 00:17:17.25	166.88	47.71	-52.5	-54.5	15.0	0.00e+00	0	22	0	935329792	71	4459
2026-01-13 00:17:18.24	167.19	47.44	-51.4	-53.1	15.4	0.00e+00	0	22	0	937426944	69	4271
2026-01-13 00:17:19.24	167.49	47.17	-50.3	-51.8	15.7	0.00e+00	0	22	0	939524096	67	4121
2026-01-13 00:17:20.24	167.79	46.90	-50.1	-51.5	15.7	0.00e+00	0	22	0	941621248	66	4230
2026-01-13 00:17:21.24	168.09	46.63	-50.6	-52.2	15.4	0.00e+00	0	22	0	943718400	66	4583
2026-01-13 00:17:22.24	168.38	46.36	-52.2	-54.1	14.9	0.00e+00	0	22	0	944766976	69	4802
2026-01-13 00:17:23.25	168.66	46.09	-53.1	-55.4	14.4	0.00e+00	0	22	0	946864128	71	4936
2026-01-13 00:17:24.24	168.94	45.83	-52.1	-54.0	15.1	0.00e+00	0	22	0	948961280	70	4449
2026-01-13 00:17:25.24	169.22	45.56	-50.1	-51.6	15.7	0.00e+00	0	22	0	951058432	66	4243
2026-01-13 00:17:26.23	169.49	45.30	-49.1	-50.4	15.8	0.00e+00	0	22	0	952107008	64	4180
2026-01-13 00:17:27.23	169.75	45.04	-49.0	-50.4	15.8	0.00e+00	0	22	0	954204160	64	4157
2026-01-13 00:17:28.23	170.02	44.77	-50.2	-51.7	15.3	0.00e+00	0	22	0	956301312	65	4572
2026-01-13 00:17:29.23	170.27	44.51	-52.3	-54.2	14.9	0.00e+00	0	22	0	958398464	69	4848
2026-01-13 00:17:30.23	170.53	44.25	-54.2	-56.9	13.9	0.00e+00	0	22	0	960495616	73	5266
2026-01-13 00:17:31.23	170.78	43.99	-56.0	-60.2	11.9	7.00e-07	0	22	0	961544192	77	6104
2026-01-13 00:17:32.23	171.02	43.74	-55.8	-59.7	12.1	1.49e-04	0	22	0	963641344	77	5768
2026-01-13 00:17:33.22	171.26	43.48	-54.3	-57.0	14.0	0.00e+00	0	22	0	965738496	75	4732
2026-01-13 00:17:34.22	171.50	43.23	-53.0	-55.1	14.8	0.00e+00	0	22	0	967835648	72	4523
2026-01-13 00:17:35.22	171.74	42.97	-51.6	-53.3	15.3	0.00e+00	0	22	0	968884224	69	4342
2026-01-13 00:17:36.22	171.97	42.72	-51.3	-53.0	15.3	0.00e+00	0	22	0	970981376	68	4458
2026-01-13 00:17:37.22	172.20	42.47	-52.1	-54.0	15.0	0.00e+00	0	22	0	973078528	69	4721
2026-01-13 00:17:38.22	172.42	42.22	-53.1	-55.2	14.6	0.00e+00	0	22	0	975175680	71	4867
2026-01-13 00:17:39.21	172.64	41.97	-53.4	-55.8	14.2	0.00e+00	0	22	0	977272832	71	5182
2026-01-13 00:17:40.22	172.86	41.72	-52.4	-54.4	15.0	0.00e+00	0	22	0	978321408	71	4396
2026-01-13 00:17:41.22	173.08	41.47	-50.4	-52.0	15.6	0.00e+00	0	22	0	980418560	67	4220
2026-01-13 00:17:42.22	173.29	41.23	-49.5	-50.9	15.8	0.00e+00	0	22	0	982515712	65	4170
2026-01-13 00:17:43.21	173.49	40.98	-49.4	-50.8	15.8	0.00e+00	0	22	0	984612864	65	4126
2026-01-13 00:17:44.21	173.70	40.74	-50.0	-51.5	15.5	0.00e+00	0	22	0	986710016	65	4442
2026-01-13 00:17:45.22	173.90	40.50	-50.9	-52.5	15.2	0.00e+00	0	22	0	987758592	66	4743
2026-01-13 00:17:46.23	174.10	40.25	-52.4	-54.4	14.8	0.00e+00	0	22	0	989855744	69	4927
2026-01-13 00:17:47.22	174.30	40.02	-53.5	-55.9	14.3	0.00e+00	0	22	0	991952896	72	4981
2026-01-13 00:17:48.22	174.49	39.78	-54.2	-57.1	13.6	0.00e+00	0	22	0	994050048	73	5353
2026-01-13 00:17:49.22	174.68	39.54	-54.2	-57.1	13.7	0.00e+00	0	22	0	995098624	74	5090
2026-01-13 00:17:50.22	174.87	39.31	-53.9	-56.5	14.2	0.00e+00	0	22	0	997195776	74	4727
2026-01-13 00:17:51.20	175.05	39.08	-52.8	-54.9	14.9	0.00e+00	0	22	0	999292928	72	4438
2026-01-13 00:17:52.20	175.24	38.84	-51.7	-53.5	15.4	0.00e+00	0	22	0	1001390080	70	4218
2026-01-13 00:17:53.19	175.41	38.61	-51.0	-52.7	15.5	0.00e+00	0	22	0	1003487232	68	4296
2026-01-13 00:17:54.19	175.59	38.38	-50.5	-52.0	15.6	0.00e+00	0	22	0	1004535808	67	4218
2026-01-13 00:17:55.19	175.77	38.15	-50.1	-51.6	15.6	0.00e+00	0	22	0	1006632960	66	4251
2026-01-13 00:17:56.19	175.94	37.93	-50.7	-52.3	15.3	0.00e+00	0	22	0	1008730112	66	4638
2026-01-13 00:17:57.18	176.11	37.70	-50.9	-52.5	15.3	0.00e+00	0	22	0	1010827264	67	4458
2026-01-13 00:17:58.18	176.28	37.48	-51.8	-53.6	15.0	0.00e+00	0	22	0	1012924416	68	4774
2026-01-13 00:17:59.18	176.44	37.25	-52.3	-54.3	14.8	0.00e+00	0	22	0	1013972992	69	4882
2026-01-13 00:18:00.18	176.61	37.03	-52.5	-54.6	14.7	0.00e+00	0	22	0	1016070144	70	4790
2026-01-13 00:18:01.18	176.77	36.81	-52.3	-54.3	14.9	0.00e+00	0	22	0	1018167296	70	4644
2026-01-13 00:18:02.17	176.93	36.59	-52.1	-54.0	15.1	0.00e+00	0	22	0	1020264448	70	4487
2026-01-13 00:18:03.16	177.09	36.37	-51.5	-53.2	15.4	0.00e+00	0	22	0	1021313024	69	4318
2026-01-13 00:18:04.16	177.24	36.15	-50.9	-52.5	15.6	0.00e+00	0	22	0	1023410176	68	4196
2026-01-13 00:18:05.16	177.39	35.94	-51.0	-52.7	15.4	0.00e+00	0	22	0	1025507328	68	4315
2026-01-13 00:18:06.15	177.54	35.72	-50.8	-52.3	15.6	0.00e+00	0	22	0	1027604480	68	4135
2026-01-13 00:18:07.15	177.69	35.51	-50.6	-52.1	15.5	0.00e+00	0	22	0	1029701632	67	4286
2026-01-13 00:18:08.15	177.84	35.29	-50.4	-51.9	15.6	0.00e+00	0	22	0	1030750208	67	4186
2026-01-13 00:18:09.15	177.99	35.08	-50.0	-51.5	15.7	0.00e+00	0	22	0	1032847360	66	4234
2026-01-13 00:18:10.14	178.13	34.87	-50.3	-51.9	15.5	0.00e+00	0	22	0	1034944512	66	4407
2026-01-13 00:18:11.14	178.27	34.66	-51.1	-52.9	15.2	0.00e+00	0	22	0	1037041664	67	4660
2026-01-13 00:18:12.14	178.41	34.46	-51.6	-53.5	15.0	0.00e+00	0	22	0	1039138816	68	4721
2026-01-13 00:18:13.14	178.55	34.25	-52.3	-54.4	14.7	0.00e+00	0	22	0	1040187392	69	4937
2026-01-13 00:18:14.14	178.69	34.04	-52.8	-55.0	14.7	0.00e+00	0	22	0	1042284544	71	4728
2026-01-13 00:18:15.14	178.83	33.84	-53.6	-56.0	14.2	0.00e+00	0	22	0	1044381696	72	5025
2026-01-13 00:18:16.14	178.96	33.64	-53.8	-56.4	14.0	0.00e+00	0	22	0	1046478848	72	5227
2026-01-13 00:18:17.14	179.09	33.43	-54.2	-57.0	13.7	0.00e+00	0	22	0	1047527424	73	5307
2026-01-13 00:18:18.13	179.22	33.23	-54.5	-57.4	13.5	0.00e+00	0	22	0	1049624576	74	5264
2026-01-13 00:18:19.13	179.35	33.03	-53.9	-56.5	14.2	0.00e+00	0	22	0	1051721728	74	4725
2026-01-13 00:18:20.13	179.48	32.83	-53.9	-56.5	14.2	0.00e+00	0	22	0	1053818880	74	4718
2026-01-13 00:18:21.12	179.61	32.64	-53.5	-55.8	14.4	0.00e+00	0	22	0	1055916032	73	4651
2026-01-13 00:18:22.12	179.73	32.44	-53.1	-55.2	14.7	0.00e+00	0	22	0	1056964608	72	4597
2026-01-13 00:18:23.11	179.85	32.25	-51.9	-53.7	15.2	0.00e+00	0	22	0	1059061760	70	4328
2026-01-13 00:18:24.12	179.98	32.05	-51.5	-53.2	15.3	0.00e+00	0	22	0	1061158912	69	4300
2026-01-13 00:18:25.11	180.09	31.86	-51.4	-53.1	15.4	0.00e+00	0	22	0	1063256064	69	4255
2026-01-13 00:18:26.12	180.22	31.67	-51.3	-53.0	15.5	0.00e+00	0	22	0	1064304640	69	4211
2026-01-13 00:18:27.11	180.33	31.48	-51.4	-53.0	15.4	0.00e+00	0	22	0	1066401792	69	4241
2026-01-13 00:18:28.11	180.45	31.29	-51.4	-53.1	15.4	0.00e+00	0	22	0	1068498944	69	4269
2026-01-13 00:18:29.11	180.56	31.10	-52.1	-54.0	14.9	0.00e+00	0	22	0	1070596096	69	4750
2026-01-13 00:18:30.11	180.68	30.91	-52.4	-54.3	14.9	0.00e+00	0	22	0	1072693248	70	4637
2026-01-13 00:18:31.11	180.79	30.73	-52.6	-54.7	14.7	0.00e+00	0	22	0	1073741824	70	4829
2026-01-13 00:18:32.11	180.90	30.54	-53.0	-55.2	14.5	0.00e+00	0	22	0	1075838976	71	4863
2026-01-13 00:18:33.10	181.01	30.36	-53.1	-55.5	14.4	0.00e+00	0	22	0	1077936128	71	4990
2026-01-13 00:18:34.11	181.12	30.17	-53.1	-55.4	14.4	0.00e+00	0	22	0	1080033280	71	4929
2026-01-13 00:18:35.11	181.23	29.99	-53.5	-56.0	14.2	0.00e+00	0	22	0	1082130432	72	4989
2026-01-13 00:18:36.11	181.34	29.81	-53.1	-55.4	14.5	0.00e+00	0	22	0	1083179008	72	4692
2026-01-13 00:18:37.11	181.44	29.63	-53.4	-55.8	14.3	0.00e+00	0	22	0	1085276160	72	4889
2026-01-13 00:18:38.11	181.55	29.45	-53.1	-55.4	14.6	0.00e+00	0	22	0	1087373312	72	4674
2026-01-13 00:18:39.11	181.65	29.27	-53.1	-55.3	14.6	0.00e+00	0	22	0	1089470464	72	4634
2026-01-13 00:18:40.11	181.75	29.09	-53.1	-55.3	14.6	0.00e+00	0	22	0	1091567616	72	4612
2026-01-13 00:18:41.11	181.85	28.92	-53.1	-55.3	14.6	0.00e+00	0	22	0	1092616192	72	4611
2026-01-13 00:18:42.10	181.95	28.75	-52.9	-55.0	14.8	0.00e+00	0	22	0	1094713344	72	4464
2026-01-13 00:18:43.10	182.05	28.57	-52.4	-54.5	15.0	0.00e+00	0	22	0	1096810496	71	4447
2026-01-13 00:18:44.11	182.15	28.40	-52.3	-54.3	15.1	0.00e+00	0	22	0	1098907648	71	4367
2026-01-13 00:18:45.09	182.24	28.23	-51.4	-53.1	15.4	0.00e+00	0	22	0	1099956224	69	4285
2026-01-13 00:18:46.09	182.34	28.06	-51.0	-52.6	15.5	0.00e+00	0	22	0	1102053376	68	4285
2026-01-13 00:18:47.10	182.44	27.88	-50.7	-52.3	15.6	0.00e+00	0	22	0	1104150528	68	4127
2026-01-13 00:18:48.10	182.53	27.72	-50.3	-51.8	15.7	0.00e+00	0	22	0	1106247680	67	4145
2026-01-13 00:18:49.11	182.63	27.55	-50.2	-51.7	15.5	0.00e+00	0	22	0	1108344832	66	4322
2026-01-13 00:18:50.11	182.72	27.38	-50.1	-51.6	15.6	0.00e+00	0	22	0	1109393408	66	4248
2026-01-13 00:18:51.11	182.81	27.21	-50.0	-51.5	15.7	0.00e+00	0	22	0	1111490560	66	4214
2026-01-13 00:18:52.11	182.90	27.05	-50.2	-51.8	15.5	0.00e+00	0	22	0	1113587712	66	4373
2026-01-13 00:18:53.11	182.99	26.88	-50.3	-51.9	15.4	0.00e+00	0	22	0	1115684864	66	4422
2026-01-13 00:18:54.12	183.08	26.72	-50.7	-52.4	15.2	0.00e+00	0	22	0	1117782016	66	4681
2026-01-13 00:18:55.11	183.17	26.56	-50.9	-52.7	15.3	0.00e+00	0	22	0	1118830592	67	4550
2026-01-13 00:18:56.11	183.25	26.39	-50.9	-52.6	15.3	0.00e+00	0	22	0	1120927744	67	4512
2026-01-13 00:18:57.12	183.34	26.23	-51.0	-52.8	15.2	0.00e+00	0	22	0	1123024896	67	4622
2026-01-13 00:18:58.12	183.42	26.07	-51.1	-52.8	15.1	0.00e+00	0	22	0	1125122048	67	4647
2026-01-13 00:18:59.12	183.51	25.91	-51.1	-52.9	15.1	0.00e+00	0	22	0	1126170624	67	4663
2026-01-13 00:19:00.12	183.59	25.76	-50.9	-52.6	15.3	0.00e+00	0	22	0	1128267776	67	4521
2026-01-13 00:19:01.12	183.68	25.60	-50.9	-52.6	15.2	0.00e+00	0	22	0	1130364928	67	4528
2026-01-13 00:19:02.12	183.76	25.44	-51.0	-52.8	15.1	0.00e+00	0	22	0	1132462080	67	4627
2026-01-13 00:19:03.12	183.84	25.29	-51.0	-52.7	15.1	0.00e+00	0	22	0	1134559232	67	4587
2026-01-13 00:19:04.12	183.92	25.13	-51.2	-53.0	15.0	0.00e+00	0	22	0	1135607808	67	4734
2026-01-13 00:19:05.12	184.00	24.98	-51.2	-53.0	15.0	0.00e+00	0	22	0	1137704960	67	4743
2026-01-13 00:19:06.11	184.08	24.83	-51.6	-53.4	14.9	0.00e+00	0	22	0	1139802112	68	4693
2026-01-13 00:19:07.11	184.16	24.67	-51.8	-53.7	14.7	0.00e+00	0	22	0	1141899264	68	4866
2026-01-13 00:19:08.10	184.23	24.52	-51.6	-53.5	15.0	0.00e+00	0	22	0	1143996416	68	4720
2026-01-13 00:19:09.10	184.31	24.37	-51.7	-53.6	14.9	0.00e+00	0	22	0	1145044992	68	4770
2026-01-13 00:19:10.10	184.39	24.22	-51.5	-53.4	15.0	0.00e+00	0	22	0	1147142144	68	4666
2026-01-13 00:19:11.10	184.46	24.07	-51.2	-52.9	15.2	0.00e+00	0	22	0	1149239296	68	4441
2026-01-13 00:19:12.10	184.54	23.93	-51.2	-52.9	15.2	0.00e+00	0	22	0	1151336448	68	4426
2026-01-13 00:19:13.10	184.61	23.78	-51.0	-52.7	15.4	0.00e+00	0	22	0	1153433600	68	4316
2026-01-13 00:19:14.10	184.69	23.63	-50.9	-52.7	15.4	0.00e+00	0	22	0	1154482176	68	4297
2026-01-13 00:19:15.10	184.76	23.49	-50.6	-52.3	15.4	0.00e+00	0	22	0	1156579328	67	4365
2026-01-13 00:19:16.10	184.83	23.34	-50.5	-52.2	15.4	0.00e+00	0	22	0	1158676480	67	4304
2026-01-13 00:19:17.10	184.90	23.20	-50.5	-52.2	15.5	0.00e+00	0	22	0	1160773632	67	4293
2026-01-13 00:19:18.09	184.97	23.06	-50.3	-52.0	15.6	0.00e+00	0	22	0	1161822208	67	4194
2026-01-13 00:19:19.09	185.04	22.91	-50.2	-51.8	15.7	0.00e+00	0	22	0	1163919360	67	4109
2026-01-13 00:19:20.09	185.11	22.77	-50.0	-51.5	15.6	0.00e+00	0	22	0	1166016512	66	4208
2026-01-13 00:19:21.10	185.18	22.63	-49.9	-51.5	15.7	0.00e+00	0	22	0	1168113664	66	4195
2026-01-13 00:19:22.09	185.25	22.49	-49.9	-51.4	15.7	0.00e+00	0	22	0	1170210816	66	4178
2026-01-13 00:19:23.09	185.32	22.35	-49.8	-51.3	15.7	0.00e+00	0	22	0	1171259392	66	4108
2026-01-13 00:19:24.09	185.39	22.21	-49.7	-51.2	15.8	0.00e+00	0	22	0	1173356544	66	4090
2026-01-13 00:19:25.10	185.45	22.07	-49.5	-51.0	15.7	0.00e+00	0	22	0	1175453696	65	4207
2026-01-13 00:19:26.10	185.52	21.93	-49.4	-50.9	15.8	0.00e+00	0	22	0	1177550848	65	4150
2026-01-13 00:19:27.10	185.59	21.80	-49.5	-50.9	15.7	0.00e+00	0	22	0	1179648000	65	4173
2026-01-13 00:19:28.10	185.65	21.66	-49.6	-51.1	15.6	0.00e+00	0	22	0	1180696576	65	4279
2026-01-13 00:19:29.10	185.72	21.52	-49.6	-51.1	15.6	0.00e+00	0	22	0	1182793728	65	4254
2026-01-13 00:19:30.10	185.78	21.39	-49.8	-51.3	15.5	0.00e+00	0	22	0	1184890880	65	4375
2026-01-13 00:19:31.10	185.85	21.26	-50.0	-51.5	15.4	0.00e+00	0	22	0	1186988032	65	4478
2026-01-13 00:19:32.10	185.91	21.12	-50.2	-51.8	15.3	0.00e+00	0	22	0	1188036608	65	4626
2026-01-13 00:19:33.10	185.97	20.99	-50.1	-51.7	15.3	0.00e+00	0	22	0	1190133760	65	4574
2026-01-13 00:19:34.10	186.03	20.86	-50.4	-52.0	15.2	0.00e+00	0	22	0	1192230912	65	4757
2026-01-13 00:19:35.10	186.10	20.73	-50.6	-52.3	15.2	0.00e+00	0	22	0	1194328064	66	4620
2026-01-13 00:19:36.10	186.16	20.60	-50.5	-52.1	15.3	0.00e+00	0	22	0	1196425216	66	4543
2026-01-13 00:19:37.10	186.22	20.46	-50.7	-52.4	15.2	0.00e+00	0	22	0	1197473792	66	4687
2026-01-13 00:19:38.10	186.28	20.34	-50.7	-52.4	15.1	0.00e+00	0	22	0	1199570944	66	4705
2026-01-13 00:19:39.10	186.34	20.21	-50.6	-52.3	15.2	0.00e+00	0	22	0	1201668096	66	4642
2026-01-13 00:19:40.10	186.40	20.08	-50.5	-52.2	15.2	0.00e+00	0	22	0	1203765248	66	4573
2026-01-13 00:19:41.09	186.46	19.95	-50.5	-52.2	15.3	0.00e+00	0	22	0	1205862400	66	4552
2026-01-13 00:19:42.10	186.51	19.82	-50.6	-52.2	15.2	0.00e+00	0	22	0	1206910976	66	4597
2026-01-13 00:19:43.09	186.57	19.70	-50.4	-52.1	15.3	0.00e+00	0	22	0	1209008128	66	4530
2026-01-13 00:19:44.09	186.63	19.57	-50.5	-52.2	15.3	0.00e+00	0	22	0	1211105280	66	4578
2026-01-13 00:19:45.10	186.69	19.45	-50.4	-52.1	15.3	0.00e+00	0	22	0	1213202432	66	4511
2026-01-13 00:19:46.09	186.74	19.32	-50.4	-52.1	15.3	0.00e+00	0	22	0	1215299584	66	4507
2026-01-13 00:19:47.10	186.80	19.20	-50.4	-52.0	15.3	0.00e+00	0	22	0	1216348160	66	4482
2026-01-13 00:19:48.10	186.86	19.07	-50.3	-51.9	15.4	0.00e+00	0	22	0	1218445312	66	4422
2026-01-13 00:19:49.09	186.91	18.95	-50.3	-52.0	15.4	0.00e+00	0	22	0	1220542464	66	4459
2026-01-13 00:19:50.09	186.97	18.83	-50.4	-52.1	15.3	0.00e+00	0	22	0	1222639616	66	4526
2026-01-13 00:19:51.09	187.02	18.71	-50.4	-52.1	15.3	0.00e+00	0	22	0	1223688192	66	4498
2026-01-13 00:19:52.09	187.07	18.59	-50.5	-52.1	15.3	0.00e+00	0	22	0	1225785344	66	4537
2026-01-13 00:19:53.09	187.13	18.47	-50.6	-52.3	15.2	0.00e+00	0	22	0	1227882496	66	4614
2026-01-13 00:19:54.09	187.18	18.35	-50.6	-52.3	15.2	0.00e+00	0	22	0	1229979648	66	4648
2026-01-13 00:19:55.10	187.24	18.23	-50.7	-52.5	15.1	0.00e+00	0	22	0	1232076800	66	4717
2026-01-13 00:19:56.10	187.29	18.11	-50.8	-52.5	15.1	0.00e+00	0	22	0	1233125376	66	4733
2026-01-13 00:19:57.10	187.34	17.99	-50.8	-52.5	15.1	0.00e+00	0	22	0	1235222528	66	4721
2026-01-13 00:19:58.10	187.39	17.87	-50.7	-52.4	15.1	0.00e+00	0	22	0	1237319680	66	4687
2026-01-13 00:19:59.10	187.44	17.76	-50.7	-52.4	15.1	0.00e+00	0	22	0	1239416832	66	4690
2026-01-13 00:20:00.10	187.49	17.64	-50.6	-52.3	15.2	0.00e+00	0	22	0	1241513984	66	4623
2026-01-13 00:20:01.10	187.55	17.52	-50.3	-52.0	15.3	0.00e+00	0	22	0	1242562560	66	4442
2026-01-13 00:20:02.09	187.60	17.41	-50.4	-52.0	15.3	0.00e+00	0	22	0	1244659712	66	4487
2026-01-13 00:20:03.09	187.65	17.29	-50.5	-52.1	15.3	0.00e+00	0	22	0	1246756864	66	4517
2026-01-13 00:20:04.09	187.70	17.18	-50.1	-51.7	15.5	0.00e+00	0	22	0	1248854016	66	4293
2026-01-13 00:20:05.10	187.75	17.06	-50.2	-51.7	15.5	0.00e+00	0	22	0	1249902592	66	4337
2026-01-13 00:20:06.10	187.79	16.95	-50.3	-51.9	15.4	0.00e+00	0	22	0	1251999744	66	4438
2026-01-13 00:20:07.10	187.84	16.84	-50.2	-51.7	15.5	0.00e+00	0	22	0	1254096896	66	4337
2026-01-13 00:20:08.10	187.89	16.73	-50.0	-51.6	15.5	0.00e+00	0	22	0	1256194048	66	4267
2026-01-13 00:20:09.10	187.94	16.61	-50.2	-51.8	15.5	0.00e+00	0	22	0	1258291200	66	4349
2026-01-13 00:20:10.10	187.99	16.50	-50.1	-51.7	15.5	0.00e+00	0	22	0	1259339776	66	4313
2026-01-13 00:20:11.10	188.03	16.39	-50.2	-51.8	15.4	0.00e+00	0	22	0	1261436928	66	4383
