passes_logs/2026/01/13/R3.2S_Murmansk/R3.2S_Murmansk__20260113_234950_SUOMI_NPP_rec.log

#Pass ID: 20260113_234950_SUOMI NPP
#Satellite: SUOMI NPP
#Configuration: NPP
#almurnet v.1.7.20251203
#Start time: 2026-01-13 23:49:53

#Version: 2.2.20231116
#Station: R3.2S_Murmansk
#Location: 33.079688 lon 68.888172 lat
#TLE: 1 37849U 11061A   26013.55331121  .00000059  00000+0  48721-4 0  9992
#TLE: 2 37849  98.7808 315.6144 0002478  66.1553 293.9883 14.19524925736509

#Time	Az	El	Level	Level2	SNR	BER	BlckErr	Temp	State	Recorded	gain1	gain2
2026-01-13 23:49:53.01	21.63	2.14	-58.1	-73.5	3.8	1.49e+00	0	25	0	0	82	21052
2026-01-13 23:49:54.00	21.66	2.20	-58.1	-73.2	3.8	1.49e+00	0	25	104	0	81	21598
2026-01-13 23:49:55.00	21.69	2.27	-58.1	-73.3	3.8	1.49e+00	0	25	104	0	81	21776
2026-01-13 23:49:56.00	21.72	2.33	-58.1	-73.2	3.8	1.49e+00	0	25	104	0	81	21746
2026-01-13 23:49:57.00	21.75	2.39	-58.1	-73.4	3.8	1.49e+00	0	25	104	0	81	22120
2026-01-13 23:49:58.00	21.78	2.46	-58.1	-73.4	3.8	1.49e+00	0	25	104	0	81	22134
2026-01-13 23:49:59.00	21.81	2.52	-58.1	-73.4	3.8	1.49e+00	0	25	104	0	81	22075
2026-01-13 23:50:00.00	21.84	2.58	-58.1	-73.3	3.8	1.49e+00	0	25	104	0	81	21825
2026-01-13 23:50:01.00	21.87	2.65	-58.1	-72.9	3.8	1.49e+00	0	25	104	0	81	20901
2026-01-13 23:50:02.00	21.90	2.71	-58.0	-72.6	3.8	1.49e+00	0	26	104	0	81	20083
2026-01-13 23:50:03.00	21.93	2.77	-58.0	-72.4	3.8	1.49e+00	0	25	104	0	81	19803
2026-01-13 23:50:04.00	21.96	2.84	-58.0	-71.5	3.8	1.49e+00	0	25	104	0	81	17806
2026-01-13 23:50:04.99	21.99	2.90	-58.0	-70.5	4.2	1.41e+00	0	25	0	0	81	15817
2026-01-13 23:50:05.99	22.03	2.97	-57.9	-70.3	4.3	1.38e+00	0	25	0	0	81	15549
2026-01-13 23:50:06.99	22.06	3.03	-57.9	-69.7	4.4	1.29e+00	21	25	0	0	81	14501
2026-01-13 23:50:07.99	22.09	3.10	-57.8	-69.2	4.6	9.49e-01	0	26	0	2097152	81	13691
2026-01-13 23:50:08.99	22.12	3.16	-57.8	-68.7	4.9	7.44e-01	0	26	0	4194304	81	12952
2026-01-13 23:50:10.01	22.15	3.23	-57.8	-68.5	4.9	8.47e-01	0	26	0	6291456	81	12643
2026-01-13 23:50:11.01	22.18	3.29	-57.8	-68.2	5.1	7.09e-01	0	26	0	8388608	81	12125
2026-01-13 23:50:12.02	22.22	3.36	-57.8	-68.0	5.2	5.71e-01	0	26	0	9437184	81	11948
2026-01-13 23:50:13.02	22.25	3.42	-57.7	-67.7	5.4	5.24e-01	0	26	0	11534336	81	11422
2026-01-13 23:50:14.02	22.28	3.49	-57.7	-67.0	5.8	3.61e-01	0	26	0	13631488	81	10640
2026-01-13 23:50:15.02	22.31	3.55	-57.5	-66.2	6.4	2.43e-01	0	26	0	15728640	81	9640
2026-01-13 23:50:16.02	22.34	3.62	-57.3	-65.0	7.3	1.34e-01	0	26	0	17825792	81	8411
2026-01-13 23:50:17.03	22.38	3.69	-57.3	-64.7	7.6	1.06e-01	0	26	0	18874368	81	8137
2026-01-13 23:50:18.03	22.41	3.75	-57.1	-63.8	8.3	5.03e-02	0	26	0	20971520	80	7728
2026-01-13 23:50:19.03	22.44	3.82	-56.6	-62.3	9.6	6.00e-03	0	26	0	23068672	79	6903
2026-01-13 23:50:20.04	22.48	3.89	-56.4	-61.6	10.2	1.66e-03	0	26	0	25165824	79	6371
2026-01-13 23:50:21.03	22.51	3.95	-56.2	-61.1	10.6	4.26e-04	0	26	0	26214400	78	6389
2026-01-13 23:50:22.03	22.54	4.02	-55.8	-60.0	11.4	1.04e-04	0	26	0	28311552	78	5646
2026-01-13 23:50:23.03	22.57	4.09	-55.5	-59.4	11.8	1.29e-05	0	26	0	30408704	77	5540
2026-01-13 23:50:24.03	22.61	4.15	-55.0	-58.5	12.3	1.50e-06	0	26	0	32505856	76	5310
2026-01-13 23:50:25.03	22.64	4.22	-54.9	-58.3	12.5	0.00e+00	0	26	0	34603008	76	5181
2026-01-13 23:50:26.03	22.68	4.29	-54.8	-58.1	12.6	0.00e+00	0	26	0	35651584	76	5092
2026-01-13 23:50:27.03	22.71	4.35	-54.6	-57.9	12.6	7.00e-07	0	26	0	37748736	75	5258
2026-01-13 23:50:28.04	22.74	4.42	-54.8	-58.2	12.4	0.00e+00	0	26	0	39845888	75	5437
2026-01-13 23:50:29.04	22.78	4.49	-54.7	-58.0	12.6	7.00e-07	0	26	0	41943040	75	5298
2026-01-13 23:50:30.05	22.81	4.56	-55.0	-58.6	12.2	0.00e+00	0	26	0	44040192	75	5674
2026-01-13 23:50:31.04	22.85	4.63	-55.3	-59.2	11.8	0.00e+00	0	26	0	45088768	75	6076
2026-01-13 23:50:32.04	22.88	4.70	-55.4	-59.4	11.6	9.10e-06	0	26	0	47185920	75	6241
2026-01-13 23:50:33.04	22.91	4.76	-55.9	-60.4	10.9	9.15e-05	0	26	0	49283072	76	6630
2026-01-13 23:50:34.05	22.95	4.83	-56.2	-61.1	10.5	3.74e-04	0	26	0	51380224	77	6770
2026-01-13 23:50:35.05	22.98	4.90	-56.7	-62.6	9.3	1.46e-03	0	26	0	52428800	78	7585
2026-01-13 23:50:36.04	23.02	4.97	-57.0	-63.6	8.5	1.08e-02	0	26	0	54525952	79	8007
2026-01-13 23:50:37.04	23.05	5.04	-57.1	-64.1	8.1	2.25e-02	0	26	0	56623104	79	8535
2026-01-13 23:50:38.05	23.09	5.11	-56.9	-62.9	9.1	2.27e-02	0	26	0	58720256	79	7420
2026-01-13 23:50:39.04	23.12	5.18	-57.7	-68.0	5.2	4.57e-01	0	26	0	60817408	80	12591
2026-01-13 23:50:40.04	23.16	5.25	-57.6	-65.5	7.0	2.69e-02	0	26	0	61865984	80	9468
2026-01-13 23:50:41.04	23.20	5.32	-55.7	-59.5	11.9	5.59e-03	0	26	0	63963136	78	5323
2026-01-13 23:50:42.03	23.23	5.39	-57.8	-68.5	5.0	3.08e-02	0	26	0	66060288	80	13349
2026-01-13 23:50:43.03	23.27	5.46	-55.7	-59.6	11.8	1.98e-03	0	26	0	68157440	78	5384
2026-01-13 23:50:44.02	23.30	5.53	-55.7	-59.5	11.8	3.80e-06	0	26	0	70254592	77	5648
2026-01-13 23:50:45.02	23.34	5.60	-55.4	-59.0	12.2	3.80e-06	0	26	0	71303168	77	5293
2026-01-13 23:50:46.02	23.38	5.67	-55.2	-58.6	12.5	0.00e+00	0	26	0	73400320	77	5099
2026-01-13 23:50:47.02	23.41	5.74	-55.1	-58.5	12.5	0.00e+00	0	26	0	75497472	76	5288
2026-01-13 23:50:48.02	23.45	5.81	-55.0	-58.2	12.7	0.00e+00	0	26	0	77594624	76	5128
2026-01-13 23:50:49.02	23.49	5.88	-55.0	-58.3	12.6	0.00e+00	0	26	0	79691776	76	5194
2026-01-13 23:50:50.03	23.52	5.95	-54.8	-58.0	12.8	0.00e+00	0	26	0	80740352	76	5000
2026-01-13 23:50:51.02	23.56	6.03	-54.8	-57.9	12.9	0.00e+00	0	26	0	82837504	76	4965
2026-01-13 23:50:52.02	23.60	6.10	-54.7	-57.7	13.0	0.00e+00	0	26	0	84934656	76	4859
2026-01-13 23:50:53.02	23.64	6.17	-54.5	-57.4	13.1	0.00e+00	0	26	0	87031808	75	4953
2026-01-13 23:50:54.02	23.67	6.24	-54.7	-57.8	12.8	0.00e+00	0	26	0	88080384	75	5191
2026-01-13 23:50:55.03	23.71	6.32	-54.6	-57.6	12.9	0.00e+00	0	26	0	90177536	75	5078
2026-01-13 23:50:56.03	23.75	6.39	-54.7	-57.7	12.9	0.00e+00	0	27	0	92274688	75	5155
2026-01-13 23:50:57.02	23.79	6.46	-54.5	-57.5	13.0	0.00e+00	0	26	0	94371840	75	5015
2026-01-13 23:50:58.02	23.83	6.53	-54.6	-57.5	13.0	0.00e+00	0	26	0	96468992	75	5020
2026-01-13 23:50:59.02	23.87	6.61	-54.5	-57.5	13.0	0.00e+00	0	26	0	97517568	75	5003
2026-01-13 23:51:00.02	23.90	6.68	-54.6	-57.5	13.0	0.00e+00	0	26	0	99614720	75	5022
2026-01-13 23:51:01.02	23.94	6.75	-54.4	-57.2	13.2	0.00e+00	0	26	0	101711872	75	4863
2026-01-13 23:51:02.02	23.98	6.83	-54.5	-57.5	13.1	0.00e+00	0	26	0	103809024	75	4990
2026-01-13 23:51:03.03	24.02	6.90	-54.4	-57.3	13.2	0.00e+00	0	26	0	105906176	75	4894
2026-01-13 23:51:04.03	24.06	6.98	-54.7	-57.7	13.0	0.00e+00	0	26	0	106954752	75	5103
2026-01-13 23:51:05.02	24.10	7.05	-54.4	-57.3	13.2	0.00e+00	0	26	0	109051904	75	4874
2026-01-13 23:51:06.03	24.14	7.13	-54.4	-57.2	13.2	0.00e+00	0	26	0	111149056	75	4863
2026-01-13 23:51:07.03	24.18	7.20	-54.5	-57.4	13.2	0.00e+00	0	26	0	113246208	75	4927
2026-01-13 23:51:08.04	24.22	7.28	-54.4	-57.2	13.2	0.00e+00	0	27	0	115343360	75	4870
2026-01-13 23:51:09.04	24.26	7.35	-54.5	-57.4	13.1	0.00e+00	0	27	0	116391936	75	4968
2026-01-13 23:51:10.04	24.30	7.43	-54.6	-57.6	13.0	0.00e+00	0	26	0	118489088	75	5042
2026-01-13 23:51:11.04	24.34	7.50	-54.5	-57.3	13.2	0.00e+00	0	27	0	120586240	75	4883
2026-01-13 23:51:12.05	24.38	7.58	-54.3	-57.1	13.3	0.00e+00	0	26	0	122683392	75	4772
2026-01-13 23:51:13.05	24.43	7.66	-54.2	-56.9	13.5	0.00e+00	0	27	0	123731968	75	4660
2026-01-13 23:51:14.05	24.47	7.73	-54.3	-56.9	13.4	0.00e+00	0	27	0	125829120	75	4690
2026-01-13 23:51:15.05	24.51	7.81	-54.3	-57.0	13.3	0.00e+00	0	27	0	127926272	74	5002
2026-01-13 23:51:16.05	24.55	7.89	-54.1	-56.7	13.5	0.00e+00	0	26	0	130023424	74	4852
2026-01-13 23:51:17.05	24.59	7.96	-54.2	-56.8	13.4	0.00e+00	0	26	0	132120576	74	4904
2026-01-13 23:51:18.06	24.63	8.04	-54.0	-56.5	13.6	0.00e+00	0	27	0	133169152	74	4725
2026-01-13 23:51:19.06	24.68	8.12	-53.9	-56.3	13.7	0.00e+00	0	26	0	135266304	74	4648
2026-01-13 23:51:20.06	24.72	8.20	-54.1	-56.7	13.5	0.00e+00	0	26	0	137363456	74	4825
2026-01-13 23:51:21.07	24.76	8.28	-53.9	-56.5	13.6	0.00e+00	0	26	0	139460608	74	4707
2026-01-13 23:51:22.07	24.81	8.35	-53.9	-56.4	13.6	0.00e+00	0	26	0	141557760	74	4693
2026-01-13 23:51:23.07	24.85	8.43	-54.0	-56.5	13.6	0.00e+00	0	27	0	142606336	74	4746
2026-01-13 23:51:24.07	24.89	8.51	-53.9	-56.3	13.7	0.00e+00	0	26	0	144703488	74	4640
2026-01-13 23:51:25.07	24.94	8.59	-53.7	-56.1	13.8	0.00e+00	0	27	0	146800640	74	4496
2026-01-13 23:51:26.07	24.98	8.67	-53.7	-56.1	13.7	0.00e+00	0	26	0	148897792	73	4768
2026-01-13 23:51:27.07	25.02	8.75	-53.7	-56.1	13.7	0.00e+00	0	27	0	150994944	73	4760
2026-01-13 23:51:28.07	25.07	8.83	-53.6	-55.9	13.8	0.00e+00	0	26	0	152043520	73	4677
2026-01-13 23:51:29.07	25.11	8.91	-53.6	-55.9	13.8	0.00e+00	0	26	0	154140672	73	4692
2026-01-13 23:51:30.07	25.16	8.99	-53.5	-55.8	13.8	0.00e+00	0	27	0	156237824	73	4638
2026-01-13 23:51:31.07	25.20	9.07	-53.4	-55.7	13.9	0.00e+00	0	27	0	158334976	73	4562
2026-01-13 23:51:32.08	25.25	9.15	-53.5	-55.7	13.9	0.00e+00	0	27	0	160432128	73	4585
2026-01-13 23:51:33.09	25.29	9.23	-53.4	-55.6	14.0	0.00e+00	0	27	0	161480704	73	4525
2026-01-13 23:51:34.09	25.34	9.31	-53.3	-55.5	14.0	0.00e+00	0	26	0	163577856	73	4452
2026-01-13 23:51:35.09	25.38	9.40	-53.4	-55.6	14.0	0.00e+00	0	27	0	165675008	73	4529
2026-01-13 23:51:36.09	25.43	9.48	-53.3	-55.4	14.1	0.00e+00	0	27	0	167772160	73	4435
2026-01-13 23:51:37.09	25.48	9.56	-53.4	-55.6	13.9	0.00e+00	0	27	0	168820736	73	4536
2026-01-13 23:51:38.09	25.52	9.64	-53.5	-55.8	13.9	0.00e+00	0	27	0	170917888	73	4601
2026-01-13 23:51:39.09	25.57	9.72	-53.5	-55.7	13.9	0.00e+00	0	27	0	173015040	73	4579
2026-01-13 23:51:40.09	25.62	9.81	-53.5	-55.7	13.9	0.00e+00	0	27	0	175112192	73	4579
2026-01-13 23:51:41.08	25.66	9.89	-53.3	-55.5	14.0	0.00e+00	0	27	0	177209344	73	4477
2026-01-13 23:51:42.09	25.71	9.97	-53.4	-55.6	14.0	0.00e+00	0	27	0	178257920	73	4512
2026-01-13 23:51:43.08	25.76	10.06	-53.3	-55.4	14.1	0.00e+00	0	27	0	180355072	73	4426
2026-01-13 23:51:44.08	25.80	10.14	-53.2	-55.4	14.1	0.00e+00	0	27	0	182452224	73	4403
2026-01-13 23:51:45.07	25.85	10.22	-53.2	-55.3	14.1	0.00e+00	0	26	0	184549376	73	4387
2026-01-13 23:51:46.07	25.90	10.31	-52.7	-55.0	14.2	0.00e+00	0	27	0	186646528	72	4475
2026-01-13 23:51:47.07	25.95	10.39	-53.2	-55.3	14.0	0.00e+00	0	27	0	187695104	72	4614
2026-01-13 23:51:48.07	26.00	10.48	-53.1	-55.2	14.1	0.00e+00	0	27	0	189792256	72	4583
2026-01-13 23:51:49.07	26.05	10.56	-53.1	-55.2	14.1	0.00e+00	0	27	0	191889408	72	4566
2026-01-13 23:51:50.06	26.10	10.65	-53.1	-55.3	14.1	0.00e+00	0	27	0	193986560	72	4606
2026-01-13 23:51:51.07	26.15	10.73	-53.1	-55.2	14.1	0.00e+00	0	27	0	195035136	72	4551
2026-01-13 23:51:52.07	26.20	10.82	-53.0	-55.1	14.1	0.00e+00	0	27	0	197132288	72	4522
2026-01-13 23:51:53.06	26.25	10.90	-53.1	-55.2	14.1	0.00e+00	0	27	0	199229440	72	4589
2026-01-13 23:51:54.06	26.30	10.99	-53.0	-55.1	14.1	0.00e+00	0	27	0	201326592	72	4525
2026-01-13 23:51:55.07	26.35	11.08	-53.1	-55.2	14.1	0.00e+00	0	27	0	203423744	72	4575
2026-01-13 23:51:56.07	26.40	11.16	-53.1	-55.3	14.1	0.00e+00	0	27	0	204472320	72	4603
2026-01-13 23:51:57.07	26.45	11.25	-53.1	-55.3	14.1	0.00e+00	0	27	0	206569472	72	4603
2026-01-13 23:51:58.07	26.50	11.34	-53.1	-55.2	14.1	0.00e+00	0	27	0	208666624	72	4555
2026-01-13 23:51:59.06	26.55	11.43	-53.1	-55.1	14.1	0.00e+00	0	27	0	210763776	72	4544
2026-01-13 23:52:00.06	26.61	11.52	-53.0	-55.1	14.2	0.00e+00	0	27	0	212860928	72	4496
2026-01-13 23:52:01.05	26.66	11.60	-53.1	-55.2	14.1	0.00e+00	0	27	0	213909504	72	4551
2026-01-13 23:52:02.06	26.71	11.69	-53.2	-55.4	14.0	0.00e+00	0	27	0	216006656	72	4662
2026-01-13 23:52:03.06	26.76	11.78	-53.2	-55.3	14.1	0.00e+00	0	27	0	218103808	72	4613
2026-01-13 23:52:04.06	26.82	11.87	-53.1	-55.2	14.1	0.00e+00	0	27	0	220200960	72	4584
2026-01-13 23:52:05.06	26.87	11.96	-53.1	-55.1	14.1	0.00e+00	0	27	0	222298112	72	4539
2026-01-13 23:52:06.06	26.92	12.05	-53.0	-55.0	14.2	0.00e+00	0	27	0	223346688	72	4467
2026-01-13 23:52:07.07	26.98	12.14	-53.1	-55.2	14.1	0.00e+00	0	27	0	225443840	72	4563
2026-01-13 23:52:08.06	27.03	12.23	-53.1	-55.2	14.1	0.00e+00	0	27	0	227540992	72	4549
2026-01-13 23:52:09.06	27.09	12.32	-53.1	-55.2	14.1	0.00e+00	0	27	0	229638144	72	4559
2026-01-13 23:52:10.06	27.14	12.42	-53.1	-55.1	14.2	0.00e+00	0	27	0	230686720	72	4540
2026-01-13 23:52:11.05	27.20	12.51	-53.1	-55.1	14.1	0.00e+00	0	27	0	232783872	72	4542
2026-01-13 23:52:12.05	27.25	12.60	-53.1	-55.2	14.1	0.00e+00	0	27	0	234881024	72	4572
2026-01-13 23:52:13.06	27.31	12.69	-53.1	-55.2	14.1	0.00e+00	0	27	0	236978176	72	4567
2026-01-13 23:52:14.05	27.37	12.78	-52.9	-54.9	14.3	0.00e+00	0	27	0	239075328	72	4429
2026-01-13 23:52:15.05	27.42	12.88	-52.9	-54.9	14.3	0.00e+00	0	27	0	240123904	72	4405
2026-01-13 23:52:16.05	27.48	12.97	-52.8	-54.8	14.3	0.00e+00	0	27	0	242221056	72	4366
2026-01-13 23:52:17.04	27.54	13.06	-52.9	-54.9	14.3	0.00e+00	0	27	0	244318208	72	4425
2026-01-13 23:52:18.04	27.59	13.16	-53.0	-55.1	14.2	0.00e+00	0	27	0	246415360	72	4505
2026-01-13 23:52:19.03	27.65	13.25	-52.9	-54.9	14.3	0.00e+00	0	27	0	247463936	72	4417
2026-01-13 23:52:20.02	27.71	13.34	-52.9	-54.9	14.3	0.00e+00	0	27	0	249561088	72	4416
2026-01-13 23:52:21.02	27.77	13.44	-52.7	-54.7	14.4	0.00e+00	0	27	0	251658240	72	4316
2026-01-13 23:52:22.01	27.83	13.53	-52.8	-54.8	14.3	0.00e+00	0	27	0	253755392	72	4368
2026-01-13 23:52:23.00	27.89	13.63	-52.7	-54.7	14.4	0.00e+00	0	27	0	255852544	72	4297
2026-01-13 23:52:24.00	27.94	13.72	-52.7	-54.7	14.4	0.00e+00	0	27	0	256901120	72	4295
2026-01-13 23:52:25.01	28.01	13.82	-52.7	-54.7	14.4	0.00e+00	0	27	0	258998272	72	4311
2026-01-13 23:52:26.01	28.07	13.92	-52.6	-54.5	14.3	0.00e+00	0	26	0	261095424	71	4484
2026-01-13 23:52:27.02	28.13	14.02	-52.6	-54.6	14.3	0.00e+00	0	27	0	263192576	71	4497
2026-01-13 23:52:28.02	28.19	14.11	-52.7	-54.7	14.3	0.00e+00	0	27	0	265289728	71	4560
2026-01-13 23:52:29.02	28.25	14.21	-52.5	-54.4	14.4	0.00e+00	0	27	0	266338304	71	4439
2026-01-13 23:52:30.02	28.31	14.31	-52.6	-54.5	14.3	0.00e+00	0	27	0	268435456	71	4465
2026-01-13 23:52:31.03	28.38	14.41	-52.7	-54.6	14.3	0.00e+00	0	27	0	270532608	71	4542
2026-01-13 23:52:32.02	28.44	14.51	-52.4	-54.3	14.4	0.00e+00	0	27	0	272629760	71	4377
2026-01-13 23:52:33.02	28.50	14.61	-52.6	-54.5	14.4	0.00e+00	0	27	0	274726912	71	4472
2026-01-13 23:52:34.02	28.56	14.71	-52.5	-54.4	14.4	0.00e+00	0	27	0	275775488	71	4419
2026-01-13 23:52:35.02	28.63	14.81	-52.5	-54.3	14.4	0.00e+00	0	27	0	277872640	71	4380
2026-01-13 23:52:36.02	28.69	14.91	-52.5	-54.4	14.4	0.00e+00	0	27	0	279969792	71	4392
2026-01-13 23:52:37.02	28.76	15.01	-52.5	-54.3	14.5	0.00e+00	0	27	0	282066944	71	4377
2026-01-13 23:52:38.02	28.82	15.11	-52.4	-54.2	14.5	0.00e+00	0	27	0	283115520	71	4336
2026-01-13 23:52:39.02	28.89	15.21	-52.4	-54.2	14.5	0.00e+00	0	27	0	285212672	71	4334
2026-01-13 23:52:40.02	28.95	15.32	-52.4	-54.2	14.5	0.00e+00	0	27	0	287309824	71	4312
2026-01-13 23:52:41.01	29.02	15.42	-52.2	-54.0	14.6	0.00e+00	0	27	0	289406976	71	4224
2026-01-13 23:52:42.01	29.09	15.52	-52.3	-54.1	14.6	0.00e+00	0	27	0	291504128	71	4247
2026-01-13 23:52:43.00	29.15	15.62	-52.2	-54.0	14.6	0.00e+00	0	27	0	292552704	71	4223
2026-01-13 23:52:44.00	29.22	15.73	-52.2	-53.9	14.5	0.00e+00	0	27	0	294649856	70	4429
2026-01-13 23:52:45.00	29.29	15.83	-52.1	-53.9	14.5	0.00e+00	0	27	0	296747008	70	4408
2026-01-13 23:52:46.00	29.36	15.93	-52.1	-53.9	14.5	0.00e+00	0	27	0	298844160	70	4409
2026-01-13 23:52:46.99	29.43	16.04	-51.9	-53.6	14.7	0.00e+00	0	27	0	299892736	70	4256
2026-01-13 23:52:47.99	29.50	16.14	-51.8	-53.5	14.7	0.00e+00	0	27	0	301989888	70	4241
2026-01-13 23:52:48.98	29.56	16.25	-51.9	-53.7	14.6	0.00e+00	0	27	0	304087040	70	4300
2026-01-13 23:52:49.98	29.64	16.35	-51.8	-53.5	14.7	0.00e+00	0	27	0	306184192	70	4203
2026-01-13 23:52:50.98	29.71	16.46	-51.8	-53.5	14.7	0.00e+00	0	27	0	308281344	70	4214
2026-01-13 23:52:51.98	29.78	16.57	-51.6	-53.3	14.6	0.00e+00	0	27	0	309329920	69	4368
2026-01-13 23:52:52.97	29.85	16.68	-51.8	-53.5	14.5	0.00e+00	0	27	0	311427072	69	4477
2026-01-13 23:52:53.97	29.92	16.78	-51.8	-53.5	14.6	0.00e+00	0	27	0	313524224	69	4472
2026-01-13 23:52:54.96	29.99	16.89	-51.8	-53.5	14.6	0.00e+00	0	27	0	315621376	69	4458
2026-01-13 23:52:55.96	30.07	17.00	-51.9	-53.6	14.5	0.00e+00	0	27	0	317718528	69	4530
2026-01-13 23:52:56.95	30.14	17.11	-51.9	-53.6	14.5	0.00e+00	0	27	0	318767104	69	4533
2026-01-13 23:52:57.95	30.21	17.22	-52.0	-53.7	14.5	0.00e+00	0	27	0	320864256	69	4572
2026-01-13 23:52:58.95	30.29	17.33	-52.1	-53.9	14.4	0.00e+00	0	27	0	322961408	69	4653
2026-01-13 23:52:59.95	30.36	17.44	-52.1	-53.9	14.4	0.00e+00	0	27	0	325058560	69	4671
2026-01-13 23:53:00.95	30.44	17.55	-52.1	-53.8	14.4	0.00e+00	0	27	0	326107136	69	4637
2026-01-13 23:53:01.95	30.52	17.66	-51.9	-53.7	14.5	0.00e+00	0	27	0	328204288	69	4563
2026-01-13 23:53:02.95	30.59	17.77	-52.0	-53.7	14.5	0.00e+00	0	27	0	330301440	69	4579
2026-01-13 23:53:03.95	30.67	17.89	-51.9	-53.6	14.5	0.00e+00	0	27	0	332398592	69	4532
2026-01-13 23:53:04.94	30.75	18.00	-52.1	-53.8	14.4	0.00e+00	0	27	0	334495744	69	4642
2026-01-13 23:53:05.94	30.83	18.11	-51.8	-53.6	14.5	0.00e+00	0	27	0	335544320	69	4502
2026-01-13 23:53:06.94	30.90	18.23	-51.8	-53.5	14.6	0.00e+00	0	27	0	337641472	69	4462
2026-01-13 23:53:07.94	30.98	18.34	-51.7	-53.5	14.6	0.00e+00	0	27	0	339738624	69	4442
2026-01-13 23:53:08.93	31.06	18.45	-51.6	-53.2	14.7	0.00e+00	0	27	0	341835776	69	4330
2026-01-13 23:53:09.93	31.14	18.57	-51.7	-53.4	14.6	0.00e+00	0	27	0	342884352	69	4419
2026-01-13 23:53:10.92	31.22	18.68	-51.6	-53.2	14.7	0.00e+00	0	27	0	344981504	69	4330
2026-01-13 23:53:11.93	31.31	18.80	-51.5	-53.1	14.7	0.00e+00	0	27	0	347078656	69	4291
2026-01-13 23:53:12.92	31.39	18.92	-51.6	-53.2	14.7	0.00e+00	0	27	0	349175808	69	4330
2026-01-13 23:53:13.92	31.47	19.03	-51.6	-53.3	14.7	0.00e+00	0	27	0	351272960	69	4360
2026-01-13 23:53:14.92	31.56	19.15	-51.7	-53.3	14.6	0.00e+00	0	27	0	352321536	69	4385
2026-01-13 23:53:15.92	31.64	19.27	-51.5	-53.1	14.7	0.00e+00	0	27	0	354418688	69	4257
2026-01-13 23:53:16.91	31.72	19.39	-51.7	-53.4	14.6	0.00e+00	0	27	0	356515840	69	4420
2026-01-13 23:53:17.92	31.81	19.51	-51.7	-53.4	14.6	0.00e+00	0	27	0	358612992	69	4420
2026-01-13 23:53:18.91	31.90	19.63	-51.6	-53.3	14.7	0.00e+00	0	27	0	360710144	69	4345
2026-01-13 23:53:19.91	31.98	19.75	-51.6	-53.3	14.6	0.00e+00	0	27	0	361758720	69	4368
2026-01-13 23:53:20.91	32.07	19.87	-51.6	-53.3	14.7	0.00e+00	0	27	0	363855872	69	4361
2026-01-13 23:53:21.91	32.16	19.99	-51.4	-53.1	14.7	0.00e+00	0	27	0	365953024	69	4251
2026-01-13 23:53:22.91	32.25	20.11	-51.8	-53.5	14.6	0.00e+00	0	27	0	368050176	69	4465
2026-01-13 23:53:23.91	32.34	20.24	-51.8	-53.5	14.6	0.00e+00	0	27	0	370147328	69	4492
2026-01-13 23:53:24.90	32.43	20.36	-51.8	-53.5	14.5	0.00e+00	0	27	0	371195904	69	4453
2026-01-13 23:53:25.90	32.52	20.48	-51.8	-53.5	14.5	0.00e+00	0	27	0	373293056	69	4474
2026-01-13 23:53:26.90	32.61	20.61	-51.8	-53.6	14.5	0.00e+00	0	27	0	375390208	69	4498
2026-01-13 23:53:27.91	32.70	20.73	-51.8	-53.5	14.6	0.00e+00	0	27	0	377487360	69	4474
2026-01-13 23:53:28.90	32.79	20.86	-51.7	-53.4	14.6	0.00e+00	0	27	0	378535936	69	4423
2026-01-13 23:53:29.90	32.89	20.98	-51.8	-53.5	14.6	0.00e+00	0	27	0	380633088	69	4449
2026-01-13 23:53:30.89	32.98	21.11	-51.7	-53.3	14.6	0.00e+00	0	27	0	382730240	69	4388
2026-01-13 23:53:31.90	33.08	21.23	-51.6	-53.2	14.6	0.00e+00	0	27	0	384827392	69	4338
2026-01-13 23:53:32.90	33.17	21.36	-51.6	-53.3	14.6	0.00e+00	0	27	0	386924544	69	4382
2026-01-13 23:53:33.90	33.27	21.49	-51.5	-53.2	14.7	0.00e+00	0	27	0	387973120	69	4301
2026-01-13 23:53:34.89	33.37	21.62	-51.5	-53.1	14.7	0.00e+00	0	27	0	390070272	69	4286
2026-01-13 23:53:35.89	33.46	21.75	-51.4	-53.0	14.8	0.00e+00	0	27	0	392167424	69	4206
2026-01-13 23:53:36.89	33.56	21.88	-51.0	-52.6	14.8	0.00e+00	0	27	0	394264576	68	4256
2026-01-13 23:53:37.89	33.66	22.01	-51.1	-52.7	14.8	0.00e+00	0	27	0	395313152	68	4295
2026-01-13 23:53:38.88	33.76	22.14	-51.0	-52.5	14.8	0.00e+00	0	27	0	397410304	68	4237
2026-01-13 23:53:39.88	33.86	22.27	-51.0	-52.6	14.8	0.00e+00	0	27	0	399507456	68	4256
2026-01-13 23:53:40.88	33.97	22.40	-51.1	-52.6	14.8	0.00e+00	0	27	0	401604608	68	4279
2026-01-13 23:53:41.87	34.07	22.53	-51.2	-52.7	14.7	0.00e+00	0	27	0	403701760	68	4337
2026-01-13 23:53:42.87	34.17	22.67	-51.1	-52.6	14.8	0.00e+00	0	27	0	404750336	68	4288
2026-01-13 23:53:43.86	34.28	22.80	-51.0	-52.6	14.8	0.00e+00	0	27	0	406847488	68	4245
2026-01-13 23:53:44.86	34.38	22.93	-51.1	-52.6	14.8	0.00e+00	0	27	0	408944640	68	4269
2026-01-13 23:53:45.86	34.49	23.07	-51.0	-52.6	14.8	0.00e+00	0	27	0	411041792	68	4251
2026-01-13 23:53:46.87	34.60	23.21	-51.1	-52.7	14.8	0.00e+00	0	27	0	413138944	68	4320
2026-01-13 23:53:47.87	34.71	23.34	-51.0	-52.5	14.8	0.00e+00	0	27	0	414187520	68	4230
2026-01-13 23:53:48.87	34.81	23.48	-51.2	-52.8	14.8	0.00e+00	0	27	0	416284672	68	4357
2026-01-13 23:53:49.86	34.92	23.62	-51.1	-52.7	14.8	0.00e+00	0	27	0	418381824	68	4309
2026-01-13 23:53:50.86	35.03	23.75	-51.1	-52.6	14.8	0.00e+00	0	27	0	420478976	68	4277
2026-01-13 23:53:51.85	35.15	23.89	-51.3	-53.0	14.7	0.00e+00	0	27	0	421527552	68	4445
2026-01-13 23:53:52.85	35.26	24.03	-51.2	-52.8	14.7	0.00e+00	0	27	0	423624704	68	4367
2026-01-13 23:53:53.84	35.37	24.17	-51.5	-53.1	14.6	0.00e+00	0	27	0	425721856	68	4536
2026-01-13 23:53:54.84	35.49	24.31	-51.6	-53.3	14.6	0.00e+00	0	27	0	427819008	68	4626
2026-01-13 23:53:55.84	35.60	24.45	-51.6	-53.3	14.6	0.00e+00	0	27	0	429916160	68	4614
2026-01-13 23:53:56.83	35.72	24.59	-51.8	-53.4	14.5	0.00e+00	0	27	0	430964736	68	4695
2026-01-13 23:53:57.83	35.84	24.74	-51.7	-53.4	14.5	0.00e+00	0	27	0	433061888	68	4665
2026-01-13 23:53:58.83	35.95	24.88	-51.8	-53.5	14.5	0.00e+00	0	27	0	435159040	69	4479
2026-01-13 23:53:59.82	36.07	25.02	-52.0	-53.8	14.4	0.00e+00	0	27	0	437256192	69	4620
2026-01-13 23:54:00.82	36.19	25.17	-52.1	-53.8	14.4	0.00e+00	0	27	0	439353344	69	4640
2026-01-13 23:54:01.82	36.32	25.31	-52.1	-53.9	14.4	0.00e+00	0	27	0	440401920	69	4666
2026-01-13 23:54:02.81	36.44	25.46	-52.2	-54.0	14.4	0.00e+00	0	27	0	442499072	69	4718
2026-01-13 23:54:03.82	36.56	25.61	-52.5	-54.3	14.4	0.00e+00	0	27	0	444596224	70	4613
2026-01-13 23:54:04.81	36.69	25.75	-52.2	-54.0	14.5	0.00e+00	0	27	0	446693376	70	4452
2026-01-13 23:54:05.81	36.81	25.90	-52.5	-54.3	14.3	0.00e+00	0	27	0	447741952	70	4644
2026-01-13 23:54:06.81	36.94	26.05	-52.5	-54.3	14.4	0.00e+00	0	27	0	449839104	70	4640
2026-01-13 23:54:07.82	37.07	26.20	-52.5	-54.3	14.4	0.00e+00	0	27	0	451936256	70	4631
2026-01-13 23:54:08.82	37.20	26.35	-52.3	-54.1	14.5	0.00e+00	0	27	0	454033408	70	4500
2026-01-13 23:54:09.81	37.33	26.50	-52.4	-54.1	14.5	0.00e+00	0	27	0	456130560	70	4543
2026-01-13 23:54:10.81	37.46	26.65	-52.4	-54.1	14.5	0.00e+00	0	27	0	457179136	70	4531
2026-01-13 23:54:11.80	37.60	26.81	-52.2	-54.0	14.5	0.00e+00	0	27	0	459276288	70	4461
2026-01-13 23:54:12.80	37.73	26.96	-52.4	-54.2	14.4	0.00e+00	0	27	0	461373440	70	4559
2026-01-13 23:54:13.80	37.87	27.11	-52.5	-54.4	14.4	0.00e+00	0	27	0	463470592	70	4657
2026-01-13 23:54:14.80	38.01	27.27	-52.7	-54.5	14.3	0.00e+00	0	27	0	464519168	70	4743
2026-01-13 23:54:15.79	38.14	27.42	-52.7	-54.5	14.3	0.00e+00	0	27	0	466616320	70	4748
2026-01-13 23:54:16.80	38.28	27.58	-52.7	-54.5	14.3	0.00e+00	0	27	0	468713472	70	4752
2026-01-13 23:54:17.79	38.42	27.73	-52.6	-54.4	14.3	0.00e+00	0	27	0	470810624	70	4686
2026-01-13 23:54:18.79	38.57	27.89	-52.5	-54.4	14.3	0.00e+00	0	27	0	472907776	70	4671
2026-01-13 23:54:19.79	38.71	28.05	-52.6	-54.4	14.3	0.00e+00	0	27	0	473956352	70	4686
2026-01-13 23:54:20.79	38.86	28.21	-52.8	-54.7	14.3	0.00e+00	0	27	0	476053504	70	4815
2026-01-13 23:54:21.78	39.00	28.37	-52.8	-54.7	14.2	0.00e+00	0	27	0	478150656	70	4836
2026-01-13 23:54:22.78	39.15	28.53	-52.8	-54.7	14.3	0.00e+00	0	27	0	480247808	71	4582
2026-01-13 23:54:23.78	39.30	28.69	-53.0	-55.0	14.2	0.00e+00	0	27	0	482344960	71	4739
2026-01-13 23:54:24.78	39.45	28.85	-53.6	-55.7	14.0	0.00e+00	0	27	0	483393536	72	4838
2026-01-13 23:54:25.77	39.60	29.01	-53.6	-55.7	14.0	0.00e+00	0	27	0	485490688	72	4853
2026-01-13 23:54:26.77	39.76	29.17	-53.9	-56.1	13.8	0.00e+00	0	27	0	487587840	72	5070
2026-01-13 23:54:27.77	39.91	29.34	-54.3	-56.6	13.7	0.00e+00	0	27	0	489684992	73	5083
2026-01-13 23:54:28.77	40.07	29.50	-54.1	-56.5	13.7	0.00e+00	0	27	0	490733568	73	4985
2026-01-13 23:54:29.77	40.23	29.67	-54.4	-56.8	13.6	0.00e+00	0	27	0	492830720	74	4878
2026-01-13 23:54:30.77	40.39	29.83	-54.3	-56.7	13.7	0.00e+00	0	27	0	494927872	74	4851
2026-01-13 23:54:31.77	40.55	30.00	-54.2	-56.6	13.8	0.00e+00	0	27	0	497025024	74	4761
2026-01-13 23:54:32.77	40.71	30.17	-54.4	-56.8	13.7	0.00e+00	0	27	0	499122176	74	4879
2026-01-13 23:54:33.77	40.88	30.34	-54.6	-57.1	13.6	0.00e+00	0	27	0	500170752	74	5058
2026-01-13 23:54:34.76	41.05	30.50	-54.6	-57.1	13.5	0.00e+00	0	27	0	502267904	74	5084
2026-01-13 23:54:35.76	41.21	30.67	-54.7	-57.2	13.5	0.00e+00	0	27	0	504365056	74	5152
2026-01-13 23:54:36.75	41.38	30.84	-54.6	-57.1	13.5	0.00e+00	0	27	0	506462208	74	5098
2026-01-13 23:54:37.74	41.55	31.01	-54.6	-57.1	13.5	0.00e+00	0	27	0	507510784	74	5080
2026-01-13 23:54:38.74	41.73	31.19	-54.8	-57.3	13.5	0.00e+00	0	27	0	509607936	74	5215
2026-01-13 23:54:39.73	41.90	31.36	-54.8	-57.4	13.5	0.00e+00	0	27	0	511705088	75	4929
2026-01-13 23:54:40.73	42.08	31.53	-54.7	-57.3	13.5	0.00e+00	0	27	0	513802240	75	4895
2026-01-13 23:54:41.73	42.26	31.70	-54.7	-57.2	13.5	0.00e+00	0	27	0	515899392	75	4847
2026-01-13 23:54:42.73	42.44	31.88	-54.6	-57.1	13.6	0.00e+00	0	27	0	516947968	75	4769
2026-01-13 23:54:43.72	42.62	32.05	-54.4	-56.9	13.7	0.00e+00	0	27	0	519045120	75	4657
2026-01-13 23:54:44.71	42.81	32.23	-54.5	-56.9	13.8	0.00e+00	0	27	0	521142272	75	4659
2026-01-13 23:54:45.71	42.99	32.41	-54.8	-57.3	13.5	0.00e+00	0	27	0	523239424	75	4909
2026-01-13 23:54:46.71	43.18	32.58	-54.6	-57.0	13.6	0.00e+00	0	27	0	525336576	75	4758
2026-01-13 23:54:47.70	43.37	32.76	-54.7	-57.3	13.6	0.00e+00	0	27	0	526385152	75	4873
2026-01-13 23:54:48.70	43.56	32.94	-54.8	-57.3	13.5	0.00e+00	0	27	0	528482304	75	4915
2026-01-13 23:54:49.69	43.76	33.12	-54.7	-57.2	13.5	0.00e+00	0	27	0	530579456	75	4862
2026-01-13 23:54:50.69	43.96	33.30	-54.2	-56.5	13.8	0.00e+00	0	27	0	532676608	74	4736
2026-01-13 23:54:51.69	44.15	33.48	-53.8	-55.9	14.1	0.00e+00	0	27	0	533725184	74	4428
2026-01-13 23:54:52.68	44.35	33.66	-53.4	-55.4	14.3	0.00e+00	0	27	0	535822336	73	4395
2026-01-13 23:54:53.68	44.56	33.84	-52.9	-54.8	14.4	0.00e+00	0	27	0	537919488	72	4354
2026-01-13 23:54:54.68	44.77	34.03	-53.1	-55.0	14.3	0.00e+00	0	27	0	540016640	72	4477
2026-01-13 23:54:55.67	44.97	34.21	-53.2	-55.2	14.2	0.00e+00	0	27	0	542113792	72	4559
2026-01-13 23:54:56.67	45.18	34.40	-53.3	-55.3	14.2	0.00e+00	0	27	0	543162368	72	4625
2026-01-13 23:54:57.66	45.39	34.58	-53.5	-55.6	14.1	0.00e+00	0	27	0	545259520	72	4762
2026-01-13 23:54:58.65	45.61	34.76	-53.8	-56.0	14.0	0.00e+00	0	27	0	547356672	73	4751
2026-01-13 23:54:59.65	45.83	34.95	-54.0	-56.2	13.9	0.00e+00	0	27	0	549453824	73	4869
2026-01-13 23:55:00.65	46.05	35.14	-54.2	-56.6	13.7	0.00e+00	0	27	0	550502400	73	5046
2026-01-13 23:55:01.64	46.27	35.33	-54.2	-56.5	13.8	0.00e+00	0	27	0	552599552	73	5007
2026-01-13 23:55:02.64	46.49	35.52	-53.8	-56.0	14.0	0.00e+00	0	27	0	554696704	73	4708
2026-01-13 23:55:03.65	46.72	35.71	-53.5	-55.5	14.2	0.00e+00	0	27	0	556793856	73	4483
2026-01-13 23:55:04.65	46.95	35.90	-53.5	-55.5	14.2	0.00e+00	0	27	0	558891008	73	4481
2026-01-13 23:55:05.65	47.19	36.09	-53.3	-55.3	14.4	0.00e+00	0	27	0	559939584	73	4351
2026-01-13 23:55:06.64	47.42	36.28	-53.0	-54.9	14.4	0.00e+00	0	27	0	562036736	72	4420
2026-01-13 23:55:07.63	47.66	36.47	-53.0	-54.8	14.3	0.00e+00	0	27	0	564133888	71	4646
2026-01-13 23:55:08.63	47.90	36.66	-52.7	-54.5	14.5	0.00e+00	0	27	0	566231040	71	4468
2026-01-13 23:55:09.63	48.14	36.86	-52.8	-54.6	14.4	0.00e+00	0	27	0	568328192	71	4515
2026-01-13 23:55:10.63	48.39	37.05	-52.6	-54.3	14.5	0.00e+00	0	27	0	569376768	71	4369
2026-01-13 23:55:11.61	48.64	37.24	-52.8	-54.6	14.4	0.00e+00	0	27	0	571473920	71	4535
2026-01-13 23:55:12.61	48.89	37.44	-52.4	-54.1	14.6	0.00e+00	0	27	0	573571072	71	4276
2026-01-13 23:55:13.60	49.14	37.63	-52.1	-53.7	14.7	0.00e+00	0	27	0	575668224	70	4331
2026-01-13 23:55:14.60	49.40	37.83	-52.0	-53.6	14.7	0.00e+00	0	27	0	576716800	70	4287
2026-01-13 23:55:15.60	49.66	38.02	-52.2	-53.8	14.6	0.00e+00	0	27	0	578813952	70	4387
2026-01-13 23:55:16.60	49.93	38.22	-52.0	-53.7	14.7	0.00e+00	0	27	0	580911104	70	4302
2026-01-13 23:55:17.59	50.19	38.41	-51.8	-53.4	14.8	0.00e+00	0	27	0	583008256	70	4191
2026-01-13 23:55:18.59	50.47	38.61	-51.9	-53.6	14.7	0.00e+00	0	27	0	585105408	70	4257
2026-01-13 23:55:19.59	50.74	38.81	-51.7	-53.4	14.8	0.00e+00	0	27	0	586153984	70	4148
2026-01-13 23:55:20.58	51.02	39.01	-51.4	-52.9	14.8	0.00e+00	0	27	0	588251136	69	4184
2026-01-13 23:55:21.58	51.30	39.21	-51.3	-52.9	14.9	0.00e+00	0	27	0	590348288	69	4166
2026-01-13 23:55:22.58	51.58	39.41	-51.0	-52.5	14.9	0.00e+00	0	27	0	592445440	68	4210
2026-01-13 23:55:23.57	51.87	39.61	-51.0	-52.5	14.9	0.00e+00	0	27	0	593494016	68	4195
2026-01-13 23:55:24.57	52.16	39.81	-51.0	-52.4	14.9	0.00e+00	0	27	0	595591168	68	4178
2026-01-13 23:55:25.57	52.46	40.01	-51.3	-52.8	14.8	0.00e+00	0	27	0	597688320	68	4385
2026-01-13 23:55:26.56	52.75	40.21	-51.5	-53.1	14.6	0.00e+00	0	27	0	599785472	68	4534
2026-01-13 23:55:27.56	53.06	40.41	-51.7	-53.4	14.7	0.00e+00	0	27	0	601882624	69	4399
2026-01-13 23:55:28.56	53.36	40.61	-52.0	-53.7	14.5	0.00e+00	0	27	0	602931200	69	4594
2026-01-13 23:55:29.56	53.67	40.81	-52.0	-53.6	14.5	0.00e+00	0	27	0	605028352	69	4536
2026-01-13 23:55:30.56	53.99	41.01	-52.1	-53.8	14.5	0.00e+00	0	27	0	607125504	69	4631
2026-01-13 23:55:31.56	54.31	41.22	-52.2	-54.0	14.4	0.00e+00	0	27	0	609222656	69	4713
2026-01-13 23:55:32.55	54.62	41.42	-52.5	-54.2	14.4	0.00e+00	0	27	0	610271232	70	4596
2026-01-13 23:55:33.55	54.95	41.62	-52.5	-54.3	14.4	0.00e+00	0	27	0	612368384	70	4631
2026-01-13 23:55:34.54	55.28	41.82	-52.3	-54.1	14.5	0.00e+00	0	27	0	614465536	70	4495
2026-01-13 23:55:35.54	55.61	42.02	-52.3	-54.0	14.5	0.00e+00	0	27	0	616562688	70	4466
2026-01-13 23:55:36.54	55.95	42.23	-52.3	-54.0	14.5	0.00e+00	0	27	0	618659840	70	4448
2026-01-13 23:55:37.53	56.29	42.43	-52.0	-53.7	14.7	0.00e+00	0	27	0	619708416	70	4294
2026-01-13 23:55:38.53	56.64	42.63	-52.1	-53.7	14.6	0.00e+00	0	27	0	621805568	70	4322
2026-01-13 23:55:39.53	56.99	42.83	-52.0	-53.7	14.7	0.00e+00	0	27	0	623902720	70	4311
2026-01-13 23:55:40.53	57.34	43.04	-52.5	-54.3	14.4	0.00e+00	0	27	0	625999872	70	4629
2026-01-13 23:55:41.53	57.70	43.24	-52.7	-54.6	14.3	0.00e+00	0	27	0	628097024	70	4770
2026-01-13 23:55:42.52	58.06	43.44	-53.6	-55.7	14.1	0.00e+00	0	27	0	629145600	72	4829
2026-01-13 23:55:43.51	58.43	43.64	-53.8	-55.9	14.1	0.00e+00	0	27	0	631242752	73	4692
2026-01-13 23:55:44.51	58.80	43.84	-53.8	-55.9	14.0	0.00e+00	0	27	0	633339904	73	4694
2026-01-13 23:55:45.51	59.18	44.04	-53.2	-55.2	14.4	0.00e+00	0	27	0	635437056	73	4297
2026-01-13 23:55:46.50	59.56	44.24	-52.8	-54.6	14.5	0.00e+00	0	27	0	636485632	72	4282
2026-01-13 23:55:47.50	59.95	44.45	-52.6	-54.3	14.5	0.00e+00	0	27	0	638582784	71	4377
2026-01-13 23:55:48.50	60.34	44.65	-52.4	-54.1	14.6	0.00e+00	0	27	0	640679936	71	4256
2026-01-13 23:55:49.49	60.74	44.84	-52.9	-54.7	14.4	0.00e+00	0	27	0	642777088	71	4559
2026-01-13 23:55:50.49	61.14	45.04	-53.2	-55.1	14.2	0.00e+00	0	27	0	644874240	71	4810
2026-01-13 23:55:51.49	61.55	45.24	-53.6	-55.6	14.0	0.00e+00	0	27	0	645922816	72	4804
2026-01-13 23:55:52.48	61.95	45.44	-54.3	-56.6	13.7	0.00e+00	0	27	0	648019968	73	5077
2026-01-13 23:55:53.49	62.38	45.64	-54.4	-56.8	13.8	0.00e+00	0	27	0	650117120	74	4873
2026-01-13 23:55:54.48	62.80	45.84	-54.3	-56.6	13.8	0.00e+00	0	27	0	652214272	74	4804
2026-01-13 23:55:55.48	63.22	46.03	-54.0	-56.2	14.0	0.00e+00	0	27	0	654311424	74	4551
2026-01-13 23:55:56.47	63.65	46.23	-53.7	-55.8	14.2	0.00e+00	0	27	0	655360000	74	4384
2026-01-13 23:55:57.48	64.10	46.42	-54.1	-56.3	14.0	0.00e+00	0	27	0	657457152	74	4616
2026-01-13 23:55:58.48	64.54	46.62	-54.4	-56.7	13.8	0.00e+00	0	27	0	659554304	74	4846
2026-01-13 23:55:59.47	64.99	46.81	-54.2	-56.5	13.8	0.00e+00	0	27	0	661651456	74	4740
2026-01-13 23:56:00.46	65.44	47.00	-54.0	-56.2	14.1	0.00e+00	0	27	0	662700032	74	4579
2026-01-13 23:56:01.47	65.90	47.19	-53.6	-55.7	14.2	0.00e+00	0	27	0	664797184	73	4546
2026-01-13 23:56:02.46	66.37	47.38	-53.5	-55.5	14.2	0.00e+00	0	27	0	666894336	73	4488
2026-01-13 23:56:03.46	66.84	47.57	-53.8	-55.9	14.1	0.00e+00	0	27	0	668991488	73	4684
2026-01-13 23:56:04.47	67.32	47.76	-53.8	-55.9	14.1	0.00e+00	0	27	0	671088640	73	4673
2026-01-13 23:56:05.47	67.80	47.95	-54.0	-56.2	13.9	0.00e+00	0	27	0	672137216	73	4818
2026-01-13 23:56:06.47	68.29	48.13	-53.9	-56.1	14.0	0.00e+00	0	27	0	674234368	73	4765
2026-01-13 23:56:07.47	68.79	48.31	-53.9	-56.0	14.0	0.00e+00	0	27	0	676331520	73	4707
2026-01-13 23:56:08.47	69.29	48.50	-53.1	-54.9	14.4	0.00e+00	0	27	0	678428672	72	4429
2026-01-13 23:56:09.48	69.80	48.68	-52.6	-54.3	14.5	0.00e+00	0	27	0	680525824	71	4373
2026-01-13 23:56:10.48	70.32	48.86	-52.4	-54.1	14.6	0.00e+00	0	27	0	681574400	71	4277
2026-01-13 23:56:11.47	70.83	49.03	-52.9	-54.8	14.3	0.00e+00	0	27	0	683671552	71	4630
2026-01-13 23:56:12.47	71.35	49.21	-53.2	-55.2	14.2	0.00e+00	0	27	0	685768704	71	4842
2026-01-13 23:56:13.47	71.88	49.38	-53.7	-55.8	14.0	0.00e+00	0	27	0	687865856	72	4892
2026-01-13 23:56:14.48	72.43	49.55	-53.7	-55.8	14.0	0.00e+00	0	27	0	688914432	72	4875
2026-01-13 23:56:15.48	72.97	49.72	-53.9	-56.0	13.9	0.00e+00	0	27	0	691011584	72	5021
2026-01-13 23:56:16.47	73.51	49.89	-53.8	-55.9	13.9	0.00e+00	0	27	0	693108736	72	4948
2026-01-13 23:56:17.47	74.07	50.05	-53.7	-55.8	14.0	0.00e+00	0	27	0	695205888	72	4898
2026-01-13 23:56:18.48	74.63	50.22	-53.3	-55.3	14.3	0.00e+00	0	27	0	697303040	73	4372
2026-01-13 23:56:19.47	75.19	50.38	-53.2	-55.1	14.3	0.00e+00	0	27	0	698351616	72	4535
2026-01-13 23:56:20.47	75.77	50.54	-53.2	-55.2	14.3	0.00e+00	0	27	0	700448768	72	4546
2026-01-13 23:56:21.47	76.35	50.69	-53.1	-55.0	14.4	0.00e+00	0	27	0	702545920	72	4449
2026-01-13 23:56:22.47	76.93	50.84	-53.3	-55.3	14.2	0.00e+00	0	27	0	704643072	72	4608
2026-01-13 23:56:23.47	77.52	51.00	-52.9	-54.8	14.5	0.00e+00	0	27	0	706740224	72	4342
2026-01-13 23:56:24.47	78.12	51.14	-53.5	-55.5	14.1	0.00e+00	0	27	0	707788800	72	4717
2026-01-13 23:56:25.46	78.71	51.29	-53.8	-55.9	14.0	0.00e+00	0	27	0	709885952	72	4934
2026-01-13 23:56:26.45	79.31	51.43	-53.5	-55.4	14.1	0.00e+00	0	27	0	711983104	72	4702
2026-01-13 23:56:27.46	79.93	51.57	-52.8	-54.7	14.5	0.00e+00	0	27	0	714080256	72	4293
2026-01-13 23:56:28.46	80.55	51.71	-53.0	-54.9	14.5	0.00e+00	0	27	0	716177408	72	4435
2026-01-13 23:56:29.45	81.17	51.84	-53.6	-55.7	14.1	0.00e+00	0	27	0	717225984	72	4834
2026-01-13 23:56:30.45	81.80	51.97	-53.7	-55.9	14.1	0.00e+00	0	27	0	719323136	73	4652
2026-01-13 23:56:31.45	82.44	52.10	-53.4	-55.3	14.3	0.00e+00	0	27	0	721420288	72	4623
2026-01-13 23:56:32.45	83.08	52.22	-53.3	-55.3	14.3	0.00e+00	0	27	0	723517440	72	4602
2026-01-13 23:56:33.45	83.72	52.34	-52.6	-54.3	14.5	0.00e+00	0	27	0	724566016	71	4381
2026-01-13 23:56:34.45	84.38	52.46	-51.9	-53.5	14.7	0.00e+00	0	27	0	726663168	70	4230
2026-01-13 23:56:35.45	85.03	52.57	-51.1	-52.5	14.8	0.00e+00	0	27	0	728760320	68	4234
2026-01-13 23:56:36.45	85.69	52.68	-51.6	-53.2	14.6	0.00e+00	0	27	0	730857472	68	4568
2026-01-13 23:56:37.44	86.35	52.79	-52.4	-54.1	14.4	0.00e+00	0	27	0	732954624	69	4808
2026-01-13 23:56:38.44	87.03	52.89	-52.4	-54.1	14.5	0.00e+00	0	27	0	734003200	70	4518
2026-01-13 23:56:39.44	87.70	52.99	-52.1	-53.8	14.7	0.00e+00	0	27	0	736100352	70	4342
2026-01-13 23:56:40.44	88.38	53.08	-52.8	-54.6	14.3	0.00e+00	0	27	0	738197504	70	4769
2026-01-13 23:56:41.44	89.07	53.17	-53.6	-55.6	14.1	0.00e+00	0	27	0	740294656	72	4776
2026-01-13 23:56:42.44	89.76	53.26	-54.0	-56.1	13.9	0.00e+00	0	27	0	741343232	73	4809
2026-01-13 23:56:43.44	90.45	53.35	-53.5	-55.5	14.3	0.00e+00	0	27	0	743440384	73	4442
2026-01-13 23:56:44.44	91.15	53.42	-53.1	-55.0	14.4	0.00e+00	0	27	0	745537536	72	4467
2026-01-13 23:56:45.43	91.84	53.50	-52.8	-54.6	14.4	0.00e+00	0	27	0	747634688	71	4536
2026-01-13 23:56:46.43	92.54	53.57	-53.6	-55.7	14.1	0.00e+00	0	27	0	749731840	72	4843
2026-01-13 23:56:47.42	93.24	53.64	-53.9	-56.1	14.0	0.00e+00	0	27	0	750780416	73	4782
2026-01-13 23:56:48.42	93.95	53.70	-53.5	-55.4	14.3	0.00e+00	0	27	0	752877568	73	4441
2026-01-13 23:56:49.42	94.67	53.76	-52.7	-54.5	14.6	0.00e+00	0	27	0	754974720	72	4209
2026-01-13 23:56:50.42	95.38	53.81	-53.1	-55.0	14.3	0.00e+00	0	27	0	757071872	71	4725
2026-01-13 23:56:51.42	96.10	53.86	-53.8	-55.9	14.0	0.00e+00	0	27	0	759169024	72	4929
2026-01-13 23:56:52.42	96.82	53.90	-53.9	-56.0	14.1	0.00e+00	0	27	0	760217600	73	4738
2026-01-13 23:56:53.42	97.55	53.94	-53.8	-55.9	14.1	0.00e+00	0	27	0	762314752	73	4696
2026-01-13 23:56:54.42	98.27	53.98	-54.5	-56.9	13.7	0.00e+00	0	27	0	764411904	74	4949
2026-01-13 23:56:55.42	99.00	54.01	-54.7	-57.2	13.6	0.00e+00	0	27	0	766509056	74	5124
2026-01-13 23:56:56.42	99.73	54.04	-54.2	-56.5	14.0	0.00e+00	0	27	0	767557632	75	4452
2026-01-13 23:56:57.41	100.45	54.06	-53.8	-55.8	14.2	0.00e+00	0	27	0	769654784	74	4377
2026-01-13 23:56:58.41	101.18	54.08	-53.6	-55.6	14.2	0.00e+00	0	27	0	771751936	73	4524
2026-01-13 23:56:59.41	101.91	54.09	-53.8	-56.0	14.1	0.00e+00	0	27	0	773849088	73	4712
2026-01-13 23:57:00.40	102.63	54.10	-53.3	-55.2	14.3	0.00e+00	0	27	0	775946240	73	4333
2026-01-13 23:57:01.40	103.37	54.10	-52.9	-54.6	14.5	0.00e+00	0	27	0	776994816	72	4289
2026-01-13 23:57:02.40	104.10	54.10	-52.6	-54.4	14.5	0.00e+00	0	27	0	779091968	71	4398
2026-01-13 23:57:03.40	104.83	54.10	-52.8	-54.6	14.5	0.00e+00	0	27	0	781189120	71	4503
2026-01-13 23:57:04.40	105.56	54.09	-52.8	-54.6	14.4	0.00e+00	0	27	0	783286272	71	4530
2026-01-13 23:57:05.39	106.29	54.07	-53.1	-55.0	14.3	0.00e+00	0	27	0	785383424	71	4738
2026-01-13 23:57:06.39	107.02	54.05	-53.2	-55.0	14.2	0.00e+00	0	27	0	786432000	71	4757
2026-01-13 23:57:07.39	107.75	54.03	-53.2	-55.1	14.2	0.00e+00	0	27	0	788529152	71	4803
2026-01-13 23:57:08.39	108.47	54.00	-53.2	-55.2	14.2	0.00e+00	0	27	0	790626304	71	4824
2026-01-13 23:57:09.39	109.20	53.97	-52.9	-54.7	14.4	0.00e+00	0	27	0	792723456	71	4586
2026-01-13 23:57:10.39	109.93	53.93	-52.2	-53.9	14.7	0.00e+00	0	27	0	793772032	71	4171
2026-01-13 23:57:11.39	110.65	53.89	-52.0	-53.6	14.7	0.00e+00	0	27	0	795869184	70	4289
2026-01-13 23:57:12.40	111.38	53.84	-52.1	-53.7	14.7	0.00e+00	0	27	0	797966336	70	4324
2026-01-13 23:57:13.39	112.09	53.79	-52.2	-53.9	14.6	0.00e+00	0	27	0	800063488	70	4418
2026-01-13 23:57:14.40	112.81	53.74	-52.7	-54.5	14.4	0.00e+00	0	27	0	802160640	70	4713
2026-01-13 23:57:15.39	113.51	53.68	-53.0	-54.9	14.3	0.00e+00	0	27	0	803209216	71	4698
2026-01-13 23:57:16.40	114.23	53.61	-53.0	-54.9	14.3	0.00e+00	0	27	0	805306368	71	4659
2026-01-13 23:57:17.39	114.93	53.55	-52.7	-54.5	14.4	0.00e+00	0	27	0	807403520	71	4473
2026-01-13 23:57:18.40	115.64	53.47	-53.0	-54.9	14.3	0.00e+00	0	27	0	809500672	71	4693
2026-01-13 23:57:19.39	116.33	53.40	-53.1	-55.0	14.2	0.00e+00	0	27	0	811597824	71	4749
2026-01-13 23:57:20.39	117.03	53.32	-53.0	-54.8	14.3	0.00e+00	0	27	0	812646400	71	4650
2026-01-13 23:57:21.39	117.72	53.23	-53.3	-55.3	14.2	0.00e+00	0	27	0	814743552	71	4910
2026-01-13 23:57:22.40	118.42	53.14	-53.2	-55.1	14.3	0.00e+00	0	27	0	816840704	72	4531
2026-01-13 23:57:23.40	119.10	53.05	-53.0	-54.9	14.4	0.00e+00	0	27	0	818937856	72	4395
2026-01-13 23:57:24.40	119.78	52.95	-52.3	-54.0	14.7	0.00e+00	0	27	0	819986432	71	4231
2026-01-13 23:57:25.39	120.45	52.85	-52.4	-54.1	14.6	0.00e+00	0	27	0	822083584	71	4275
2026-01-13 23:57:26.39	121.12	52.75	-52.9	-54.8	14.4	0.00e+00	0	27	0	824180736	71	4607
2026-01-13 23:57:27.39	121.78	52.64	-53.5	-55.5	14.1	0.00e+00	0	27	0	826277888	72	4715
2026-01-13 23:57:28.39	122.44	52.53	-53.2	-55.1	14.2	0.00e+00	0	27	0	828375040	72	4537
2026-01-13 23:57:29.39	123.10	52.41	-53.4	-55.4	14.2	0.00e+00	0	27	0	829423616	72	4656
2026-01-13 23:57:30.39	123.75	52.30	-53.3	-55.3	14.2	0.00e+00	0	27	0	831520768	72	4619
2026-01-13 23:57:31.39	124.40	52.17	-52.6	-54.4	14.6	0.00e+00	0	27	0	833617920	71	4401
2026-01-13 23:57:32.40	125.04	52.05	-52.7	-54.5	14.5	0.00e+00	0	27	0	835715072	71	4457
2026-01-13 23:57:33.40	125.68	51.92	-52.9	-54.7	14.4	0.00e+00	0	27	0	837812224	71	4591
2026-01-13 23:57:34.40	126.31	51.79	-53.4	-55.4	14.2	0.00e+00	0	27	0	838860800	72	4660
2026-01-13 23:57:35.40	126.93	51.65	-52.6	-54.4	14.5	0.00e+00	0	27	0	840957952	71	4434
2026-01-13 23:57:36.39	127.54	51.52	-51.6	-53.1	14.8	0.00e+00	0	27	0	843055104	69	4280
2026-01-13 23:57:37.39	128.15	51.37	-51.5	-53.1	14.8	0.00e+00	0	27	0	845152256	69	4250
2026-01-13 23:57:38.38	128.75	51.23	-52.0	-53.7	14.6	0.00e+00	0	27	0	847249408	69	4550
2026-01-13 23:57:39.38	129.35	51.09	-52.0	-53.7	14.5	0.00e+00	0	27	0	848297984	69	4596
2026-01-13 23:57:40.38	129.95	50.94	-51.4	-53.0	14.8	0.00e+00	0	27	0	850395136	69	4203
2026-01-13 23:57:41.38	130.54	50.78	-51.1	-52.6	14.8	0.00e+00	0	27	0	852492288	68	4261
2026-01-13 23:57:42.38	131.12	50.63	-51.5	-53.0	14.7	0.00e+00	0	27	0	854589440	68	4482
2026-01-13 23:57:43.37	131.69	50.47	-51.7	-53.3	14.6	0.00e+00	0	27	0	855638016	68	4613
2026-01-13 23:57:44.37	132.26	50.31	-52.4	-54.2	14.5	0.00e+00	0	27	0	857735168	70	4546
2026-01-13 23:57:45.37	132.83	50.15	-52.9	-54.7	14.2	0.00e+00	0	27	0	859832320	70	4854
2026-01-13 23:57:46.37	133.39	49.99	-52.5	-54.2	14.6	0.00e+00	0	27	0	861929472	71	4325
2026-01-13 23:57:47.37	133.94	49.82	-51.5	-53.1	14.8	0.00e+00	0	27	0	864026624	69	4256
2026-01-13 23:57:48.37	134.49	49.65	-51.5	-53.0	14.8	0.00e+00	0	27	0	865075200	69	4213
2026-01-13 23:57:49.37	135.03	49.48	-51.9	-53.6	14.6	0.00e+00	0	27	0	867172352	69	4505
2026-01-13 23:57:50.37	135.56	49.31	-52.8	-54.6	14.3	0.00e+00	0	27	0	869269504	70	4792
2026-01-13 23:57:51.36	136.09	49.14	-52.9	-54.8	14.3	0.00e+00	0	27	0	871366656	71	4621
2026-01-13 23:57:52.36	136.61	48.96	-53.0	-54.8	14.3	0.00e+00	0	27	0	873463808	71	4643
2026-01-13 23:57:53.35	137.12	48.79	-53.7	-55.8	14.0	0.00e+00	0	27	0	874512384	72	4898
2026-01-13 23:57:54.35	137.64	48.61	-54.3	-56.6	13.7	0.00e+00	0	27	0	876609536	74	4807
2026-01-13 23:57:55.36	138.15	48.42	-54.5	-56.9	13.6	0.00e+00	0	27	0	878706688	74	4983
2026-01-13 23:57:56.35	138.64	48.24	-55.0	-57.6	13.4	0.00e+00	0	27	0	880803840	75	5100
2026-01-13 23:57:57.35	139.14	48.06	-54.1	-56.4	13.9	0.00e+00	0	27	0	881852416	74	4652
2026-01-13 23:57:58.36	139.63	47.87	-53.0	-54.8	14.4	0.00e+00	0	27	0	883949568	72	4354
2026-01-13 23:57:59.35	140.11	47.68	-53.2	-55.1	14.3	0.00e+00	0	27	0	886046720	72	4502
2026-01-13 23:58:00.35	140.58	47.50	-53.7	-55.8	14.0	0.00e+00	0	27	0	888143872	72	4889
2026-01-13 23:58:01.34	141.05	47.31	-53.6	-55.7	14.1	0.00e+00	0	27	0	890241024	73	4558
2026-01-13 23:58:02.34	141.52	47.12	-53.3	-55.3	14.2	0.00e+00	0	27	0	891289600	72	4619
2026-01-13 23:58:03.33	141.97	46.93	-53.0	-54.8	14.4	0.00e+00	0	27	0	893386752	72	4387
2026-01-13 23:58:04.34	142.43	46.73	-53.5	-55.5	14.1	0.00e+00	0	27	0	895483904	72	4755
2026-01-13 23:58:05.33	142.87	46.54	-53.7	-55.8	14.0	0.00e+00	0	27	0	897581056	72	4884
2026-01-13 23:58:06.32	143.31	46.35	-54.6	-57.0	13.6	0.00e+00	0	27	0	898629632	74	5014
2026-01-13 23:58:07.33	143.76	46.15	-55.8	-58.8	12.8	0.00e+00	0	27	0	900726784	76	5516
2026-01-13 23:58:08.33	144.19	45.95	-56.8	-60.6	11.9	1.50e-06	0	27	0	902823936	78	5997
2026-01-13 23:58:09.33	144.62	45.75	-56.8	-60.6	12.0	6.80e-06	0	27	0	904921088	79	5675
2026-01-13 23:58:10.33	145.04	45.56	-55.5	-58.4	13.2	1.50e-06	0	27	0	907018240	77	4927
2026-01-13 23:58:11.33	145.45	45.36	-55.4	-58.0	13.4	0.00e+00	0	27	0	908066816	77	4740
2026-01-13 23:58:12.33	145.87	45.16	-55.2	-57.8	13.4	0.00e+00	0	27	0	910163968	76	4886
2026-01-13 23:58:13.33	146.27	44.96	-56.5	-60.1	12.3	0.00e+00	0	27	0	912261120	78	5659
2026-01-13 23:58:14.33	146.67	44.76	-57.6	-62.6	10.5	1.37e-04	0	27	0	914358272	80	6742
2026-01-13 23:58:15.34	147.07	44.55	-57.7	-62.7	10.4	1.02e-03	0	27	0	916455424	81	6445
2026-01-13 23:58:16.34	147.47	44.35	-56.3	-59.7	12.5	8.54e-05	0	27	0	917504000	79	5145
2026-01-13 23:58:17.34	147.85	44.15	-55.9	-59.0	12.9	0.00e+00	0	27	0	919601152	78	4989
2026-01-13 23:58:18.34	148.23	43.95	-55.1	-57.7	13.5	0.00e+00	0	27	0	921698304	76	4828
2026-01-13 23:58:19.34	148.61	43.74	-55.7	-58.5	13.0	0.00e+00	0	27	0	923795456	76	5338
2026-01-13 23:58:20.35	148.99	43.54	-56.7	-60.3	12.1	0.00e+00	0	27	0	925892608	78	5806
2026-01-13 23:58:21.35	149.36	43.34	-58.3	-64.6	8.9	1.26e-03	0	27	0	926941184	81	7999
2026-01-13 23:58:22.35	149.72	43.13	-58.9	-67.3	6.6	3.12e-01	0	27	0	929038336	83	9731
2026-01-13 23:58:23.35	150.08	42.93	-58.3	-64.4	9.0	8.68e-02	0	27	0	931135488	83	7033
2026-01-13 23:58:24.36	150.44	42.72	-57.8	-62.9	10.4	1.38e-03	0	27	0	933232640	82	6222
2026-01-13 23:58:25.35	150.78	42.52	-57.4	-61.8	11.1	9.61e-05	0	27	0	935329792	81	5823
2026-01-13 23:58:26.36	151.13	42.32	-57.3	-61.7	11.1	3.89e-05	0	27	0	936378368	80	6116
2026-01-13 23:58:27.36	151.47	42.11	-58.4	-64.9	8.8	3.42e-04	0	27	0	938475520	81	8281
2026-01-13 23:58:28.36	151.81	41.91	-58.9	-67.6	6.3	2.18e-01	0	27	0	940572672	83	10096
2026-01-13 23:58:29.36	152.14	41.71	-58.8	-66.9	6.8	2.94e-01	0	27	0	942669824	83	9374
2026-01-13 23:58:30.36	152.47	41.50	-58.7	-65.9	7.8	8.99e-02	0	27	0	943718400	83	8295
2026-01-13 23:58:31.36	152.80	41.30	-56.6	-60.1	12.2	2.01e-04	0	27	0	945815552	79	5370
2026-01-13 23:58:32.35	153.11	41.10	-54.3	-56.6	13.9	0.00e+00	0	27	0	947912704	75	4515
2026-01-13 23:58:33.35	153.43	40.89	-53.4	-55.3	14.3	0.00e+00	0	27	0	950009856	73	4367
2026-01-13 23:58:34.35	153.74	40.69	-53.9	-56.1	13.9	0.00e+00	0	27	0	952107008	73	4783
2026-01-13 23:58:35.35	154.05	40.49	-55.7	-58.6	12.9	0.00e+00	0	27	0	953155584	76	5386
2026-01-13 23:58:36.35	154.36	40.29	-56.5	-60.1	12.2	0.00e+00	0	27	0	955252736	78	5703
2026-01-13 23:58:37.35	154.66	40.08	-56.1	-59.3	12.7	7.00e-07	0	27	0	957349888	78	5161
2026-01-13 23:58:38.36	154.96	39.88	-55.3	-58.0	13.3	0.00e+00	0	27	0	959447040	77	4758
2026-01-13 23:58:39.35	155.25	39.68	-55.1	-57.7	13.4	0.00e+00	0	27	0	960495616	76	4863
2026-01-13 23:58:40.34	155.54	39.48	-55.2	-57.9	13.3	0.00e+00	0	27	0	962592768	76	4933
2026-01-13 23:58:41.34	155.83	39.28	-55.6	-58.5	12.9	0.00e+00	0	27	0	964689920	76	5317
2026-01-13 23:58:42.34	156.11	39.08	-55.6	-58.4	13.0	0.00e+00	0	27	0	966787072	76	5264
2026-01-13 23:58:43.35	156.39	38.88	-55.7	-58.7	12.9	0.00e+00	0	27	0	968884224	76	5433
2026-01-13 23:58:44.34	156.67	38.68	-55.9	-59.0	12.8	0.00e+00	0	27	0	969932800	77	5290
2026-01-13 23:58:45.34	156.94	38.48	-55.4	-58.1	13.3	0.00e+00	0	27	0	972029952	77	4808
2026-01-13 23:58:46.33	157.21	38.29	-54.4	-56.7	13.8	0.00e+00	0	27	0	974127104	75	4589
2026-01-13 23:58:47.33	157.48	38.09	-53.3	-55.2	14.3	0.00e+00	0	27	0	976224256	73	4330
2026-01-13 23:58:48.33	157.74	37.89	-52.8	-54.6	14.5	0.00e+00	0	27	0	978321408	72	4248
2026-01-13 23:58:49.32	158.00	37.69	-52.4	-54.1	14.6	0.00e+00	0	27	0	979369984	71	4277
2026-01-13 23:58:50.32	158.26	37.50	-52.8	-54.6	14.4	0.00e+00	0	27	0	981467136	71	4525
2026-01-13 23:58:51.32	158.51	37.30	-53.8	-55.9	13.9	0.00e+00	0	27	0	983564288	72	4965
2026-01-13 23:58:52.31	158.76	37.11	-54.5	-56.9	13.6	0.00e+00	0	27	0	985661440	74	4944
2026-01-13 23:58:53.31	159.01	36.91	-55.0	-57.6	13.4	0.00e+00	0	27	0	987758592	75	5090
2026-01-13 23:58:54.30	159.26	36.72	-54.4	-56.7	13.8	0.00e+00	0	27	0	988807168	75	4575
2026-01-13 23:58:55.30	159.50	36.53	-53.4	-55.3	14.3	0.00e+00	0	27	0	990904320	73	4391
2026-01-13 23:58:56.30	159.74	36.33	-52.4	-54.1	14.6	0.00e+00	0	27	0	993001472	71	4249
2026-01-13 23:58:57.30	159.98	36.14	-52.2	-53.9	14.7	0.00e+00	0	27	0	995098624	71	4163
2026-01-13 23:58:58.31	160.21	35.95	-52.4	-54.2	14.4	0.00e+00	0	27	0	996147200	70	4550
2026-01-13 23:58:59.30	160.44	35.76	-53.0	-55.0	14.2	0.00e+00	0	27	0	998244352	71	4717
2026-01-13 23:59:00.29	160.67	35.57	-53.9	-56.0	13.9	0.00e+00	0	27	0	1000341504	72	5027
2026-01-13 23:59:01.30	160.90	35.38	-54.4	-56.8	13.6	0.00e+00	0	27	0	1002438656	73	5160
2026-01-13 23:59:02.29	161.12	35.19	-54.4	-56.8	13.7	0.00e+00	0	27	0	1004535808	74	4874
2026-01-13 23:59:03.29	161.35	35.00	-54.0	-56.2	14.0	0.00e+00	0	27	0	1005584384	74	4548
2026-01-13 23:59:04.29	161.56	34.81	-53.2	-55.1	14.4	0.00e+00	0	27	0	1007681536	73	4259
2026-01-13 23:59:05.30	161.78	34.62	-52.7	-54.5	14.5	0.00e+00	0	27	0	1009778688	72	4226
2026-01-13 23:59:06.30	162.00	34.43	-52.7	-54.5	14.4	0.00e+00	0	27	0	1011875840	71	4458
2026-01-13 23:59:07.30	162.21	34.25	-52.5	-54.3	14.5	0.00e+00	0	27	0	1012924416	71	4341
2026-01-13 23:59:08.30	162.42	34.06	-52.9	-54.8	14.3	0.00e+00	0	27	0	1015021568	71	4610
2026-01-13 23:59:09.29	162.63	33.88	-53.6	-55.6	14.0	0.00e+00	0	27	0	1017118720	72	4810
2026-01-13 23:59:10.30	162.83	33.69	-54.3	-56.7	13.6	0.00e+00	0	27	0	1019215872	73	5101
2026-01-13 23:59:11.29	163.03	33.51	-54.8	-57.4	13.4	0.00e+00	0	27	0	1021313024	74	5248
2026-01-13 23:59:12.30	163.24	33.33	-55.6	-58.6	12.9	0.00e+00	0	27	0	1022361600	76	5391
2026-01-13 23:59:13.29	163.43	33.15	-55.3	-58.2	13.1	0.00e+00	0	27	0	1024458752	76	5110
2026-01-13 23:59:14.30	163.63	32.97	-54.3	-56.8	13.8	0.00e+00	0	27	0	1026555904	75	4606
2026-01-13 23:59:15.29	163.82	32.79	-53.7	-55.9	14.1	0.00e+00	0	27	0	1028653056	74	4421
2026-01-13 23:59:16.29	164.02	32.61	-53.1	-55.1	14.3	0.00e+00	0	27	0	1030750208	72	4504
2026-01-13 23:59:17.30	164.21	32.43	-53.2	-55.1	14.2	0.00e+00	0	27	0	1031798784	72	4544
2026-01-13 23:59:18.30	164.40	32.25	-53.0	-54.8	14.4	0.00e+00	0	27	0	1033895936	72	4377
2026-01-13 23:59:19.30	164.58	32.07	-53.6	-55.7	14.0	0.00e+00	0	27	0	1035993088	72	4862
2026-01-13 23:59:20.29	164.77	31.89	-54.1	-56.4	13.7	0.00e+00	0	27	0	1038090240	73	4956
2026-01-13 23:59:21.29	164.95	31.72	-55.0	-57.6	13.3	0.00e+00	0	27	0	1040187392	75	5072
2026-01-13 23:59:22.29	165.13	31.54	-54.9	-57.6	13.3	0.00e+00	0	27	0	1041235968	75	5057
2026-01-13 23:59:23.28	165.31	31.37	-54.7	-57.2	13.6	0.00e+00	0	27	0	1043333120	75	4815
2026-01-13 23:59:24.29	165.48	31.20	-54.7	-57.2	13.5	0.00e+00	0	27	0	1045430272	75	4844
2026-01-13 23:59:25.29	165.66	31.02	-54.1	-56.4	13.9	0.00e+00	0	27	0	1047527424	75	4427
2026-01-13 23:59:26.29	165.83	30.85	-53.8	-56.0	14.1	0.00e+00	0	27	0	1048576000	74	4462
2026-01-13 23:59:27.28	166.00	30.68	-53.7	-55.9	14.1	0.00e+00	0	27	0	1050673152	74	4398
2026-01-13 23:59:28.28	166.17	30.51	-53.3	-55.3	14.3	0.00e+00	0	27	0	1052770304	73	4358
2026-01-13 23:59:29.28	166.34	30.34	-53.8	-56.0	13.9	0.00e+00	0	27	0	1054867456	73	4757
2026-01-13 23:59:30.29	166.51	30.17	-53.9	-56.1	13.9	0.00e+00	0	27	0	1056964608	73	4805
2026-01-13 23:59:31.29	166.67	30.00	-54.4	-56.8	13.6	0.00e+00	0	27	0	1058013184	73	5212
2026-01-13 23:59:32.28	166.83	29.83	-55.1	-57.8	13.3	0.00e+00	0	27	0	1060110336	75	5162
2026-01-13 23:59:33.28	166.99	29.67	-55.3	-58.2	13.0	0.00e+00	0	27	0	1062207488	75	5435
2026-01-13 23:59:34.29	167.15	29.50	-54.8	-57.3	13.5	0.00e+00	0	27	0	1064304640	75	4890
2026-01-13 23:59:35.29	167.31	29.33	-53.9	-56.1	14.0	0.00e+00	0	27	0	1066401792	74	4524
2026-01-13 23:59:36.29	167.47	29.17	-53.7	-55.8	14.1	0.00e+00	0	27	0	1067450368	73	4624
2026-01-13 23:59:37.29	167.62	29.00	-53.0	-54.8	14.4	0.00e+00	0	27	0	1069547520	72	4379
2026-01-13 23:59:38.29	167.78	28.84	-52.6	-54.5	14.4	0.00e+00	0	27	0	1071644672	71	4443
2026-01-13 23:59:39.29	167.93	28.68	-52.7	-54.6	14.4	0.00e+00	0	27	0	1073741824	71	4508
2026-01-13 23:59:40.29	168.08	28.51	-52.6	-54.4	14.5	0.00e+00	0	27	0	1074790400	71	4412
2026-01-13 23:59:41.29	168.23	28.35	-52.8	-54.7	14.3	0.00e+00	0	27	0	1076887552	71	4574
2026-01-13 23:59:42.29	168.37	28.19	-52.5	-54.4	14.5	0.00e+00	0	27	0	1078984704	71	4402
2026-01-13 23:59:43.30	168.52	28.03	-52.4	-54.2	14.6	0.00e+00	0	27	0	1081081856	71	4305
2026-01-13 23:59:44.30	168.67	27.87	-52.7	-54.6	14.4	0.00e+00	0	27	0	1083179008	71	4515
2026-01-13 23:59:45.30	168.81	27.71	-52.1	-53.9	14.7	0.00e+00	0	27	0	1084227584	70	4420
2026-01-13 23:59:46.29	168.95	27.56	-52.3	-54.1	14.5	0.00e+00	0	27	0	1086324736	70	4494
2026-01-13 23:59:47.29	169.09	27.40	-52.5	-54.4	14.3	0.00e+00	0	27	0	1088421888	70	4672
2026-01-13 23:59:48.29	169.23	27.25	-52.4	-54.3	14.4	0.00e+00	0	27	0	1090519040	70	4614
2026-01-13 23:59:49.30	169.37	27.09	-52.8	-54.7	14.2	0.00e+00	0	27	0	1092616192	70	4865
2026-01-13 23:59:50.29	169.50	26.93	-52.7	-54.6	14.3	0.00e+00	0	27	0	1093664768	70	4765
2026-01-13 23:59:51.30	169.64	26.78	-53.0	-55.0	14.2	0.00e+00	0	27	0	1095761920	71	4726
2026-01-13 23:59:52.30	169.77	26.63	-53.3	-55.4	14.0	0.00e+00	0	27	0	1097859072	71	4952
2026-01-13 23:59:53.30	169.91	26.47	-53.1	-55.1	14.1	0.00e+00	0	27	0	1099956224	71	4796
2026-01-13 23:59:54.30	170.04	26.32	-53.1	-55.1	14.1	0.00e+00	0	27	0	1102053376	71	4799
2026-01-13 23:59:55.30	170.17	26.17	-53.3	-55.4	14.1	0.00e+00	0	27	0	1103101952	72	4701
2026-01-13 23:59:56.30	170.30	26.02	-53.4	-55.5	14.1	0.00e+00	0	27	0	1105199104	72	4715
2026-01-13 23:59:57.30	170.42	25.87	-53.6	-55.8	13.9	0.00e+00	0	27	0	1107296256	72	4893
2026-01-13 23:59:58.30	170.55	25.72	-53.7	-56.0	13.8	0.00e+00	0	27	0	1109393408	72	5006
2026-01-13 23:59:59.30	170.68	25.57	-54.1	-56.4	13.7	0.00e+00	0	27	0	1110441984	73	4974
2026-01-14 00:00:00.30	170.80	25.43	-54.3	-56.7	13.6	0.00e+00	0	27	0	1112539136	73	5113
2026-01-14 00:00:01.29	170.92	25.28	-54.4	-56.9	13.6	0.00e+00	0	27	0	1114636288	74	4936
2026-01-14 00:00:02.29	171.05	25.13	-54.2	-56.6	13.7	0.00e+00	0	27	0	1116733440	74	4769
2026-01-14 00:00:03.29	171.17	24.99	-54.1	-56.4	13.8	0.00e+00	0	27	0	1118830592	74	4698
2026-01-14 00:00:04.29	171.29	24.84	-53.9	-56.1	14.0	0.00e+00	0	27	0	1119879168	74	4522
2026-01-14 00:00:05.29	171.41	24.70	-53.5	-55.5	14.2	0.00e+00	0	27	0	1121976320	73	4454
2026-01-14 00:00:06.29	171.52	24.55	-53.2	-55.1	14.3	0.00e+00	0	27	0	1124073472	73	4276
2026-01-14 00:00:07.29	171.64	24.41	-53.0	-54.9	14.3	0.00e+00	0	27	0	1126170624	72	4431
2026-01-14 00:00:08.29	171.76	24.27	-52.5	-54.3	14.5	0.00e+00	0	27	0	1128267776	71	4353
2026-01-14 00:00:09.29	171.87	24.13	-52.8	-54.6	14.4	0.00e+00	0	27	0	1129316352	71	4523
2026-01-14 00:00:10.29	171.99	23.99	-52.6	-54.4	14.4	0.00e+00	0	27	0	1131413504	71	4430
2026-01-14 00:00:11.29	172.10	23.85	-52.6	-54.5	14.4	0.00e+00	0	27	0	1133510656	71	4449
2026-01-14 00:00:12.29	172.21	23.71	-53.0	-55.0	14.2	0.00e+00	0	27	0	1135607808	71	4711
2026-01-14 00:00:13.30	172.32	23.57	-53.1	-55.1	14.1	0.00e+00	0	27	0	1136656384	71	4809
2026-01-14 00:00:14.30	172.43	23.43	-53.5	-55.7	14.0	0.00e+00	0	27	0	1138753536	72	4821
2026-01-14 00:00:15.31	172.54	23.29	-53.8	-56.1	13.8	0.00e+00	0	27	0	1140850688	72	5051
2026-01-14 00:00:16.31	172.65	23.15	-53.7	-56.0	13.8	0.00e+00	0	27	0	1142947840	72	5008
2026-01-14 00:00:17.31	172.76	23.01	-53.9	-56.3	13.8	0.00e+00	0	27	0	1145044992	73	4903
2026-01-14 00:00:18.31	172.87	22.88	-53.5	-55.7	14.1	0.00e+00	0	27	0	1147142144	73	4559
2026-01-14 00:00:19.31	172.97	22.74	-53.1	-55.1	14.2	0.00e+00	0	27	0	1148190720	72	4537
2026-01-14 00:00:20.32	173.08	22.61	-52.8	-54.8	14.4	0.00e+00	0	27	0	1150287872	72	4354
2026-01-14 00:00:21.31	173.18	22.47	-52.4	-54.2	14.5	0.00e+00	0	27	0	1152385024	71	4306
2026-01-14 00:00:22.32	173.28	22.34	-52.3	-54.1	14.6	0.00e+00	0	27	0	1154482176	71	4262
2026-01-14 00:00:23.31	173.39	22.21	-52.1	-53.8	14.6	0.00e+00	0	27	0	1155530752	70	4381
2026-01-14 00:00:24.31	173.49	22.08	-51.8	-53.5	14.7	0.00e+00	0	27	0	1157627904	70	4221
2026-01-14 00:00:25.31	173.59	21.94	-51.9	-53.6	14.7	0.00e+00	0	27	0	1159725056	70	4268
2026-01-14 00:00:26.31	173.69	21.81	-52.0	-53.7	14.6	0.00e+00	0	27	0	1161822208	70	4307
2026-01-14 00:00:27.31	173.79	21.68	-52.1	-53.9	14.5	0.00e+00	0	27	0	1163919360	70	4405
2026-01-14 00:00:28.32	173.89	21.55	-52.3	-54.1	14.4	0.00e+00	0	27	0	1164967936	70	4534
2026-01-14 00:00:29.32	173.98	21.42	-52.6	-54.4	14.3	0.00e+00	0	27	0	1167065088	70	4686
2026-01-14 00:00:30.33	174.08	21.29	-52.8	-54.7	14.2	0.00e+00	0	27	0	1169162240	70	4846
2026-01-14 00:00:31.32	174.18	21.17	-52.9	-54.8	14.2	0.00e+00	0	27	0	1171259392	71	4628
2026-01-14 00:00:32.32	174.27	21.04	-53.1	-55.1	14.1	0.00e+00	0	27	0	1173356544	71	4778
2026-01-14 00:00:33.32	174.36	20.91	-53.0	-55.0	14.2	0.00e+00	0	27	0	1174405120	71	4737
2026-01-14 00:00:34.32	174.46	20.78	-52.8	-54.8	14.3	0.00e+00	0	27	0	1176502272	71	4632
2026-01-14 00:00:35.32	174.55	20.66	-52.7	-54.6	14.3	0.00e+00	0	27	0	1178599424	71	4523
2026-01-14 00:00:36.32	174.64	20.53	-52.6	-54.5	14.3	0.00e+00	0	27	0	1180696576	71	4475
2026-01-14 00:00:37.32	174.73	20.41	-52.7	-54.6	14.2	0.00e+00	0	27	0	1181745152	71	4515
2026-01-14 00:00:38.32	174.83	20.28	-52.5	-54.3	14.3	0.00e+00	0	27	0	1183842304	71	4384
2026-01-14 00:00:39.33	174.92	20.16	-52.1	-53.9	14.5	0.00e+00	0	27	0	1185939456	70	4401
2026-01-14 00:00:40.33	175.01	20.04	-52.1	-53.8	14.5	0.00e+00	0	27	0	1188036608	70	4372
2026-01-14 00:00:41.33	175.09	19.91	-51.9	-53.6	14.6	0.00e+00	0	27	0	1190133760	70	4277
2026-01-14 00:00:42.32	175.18	19.79	-51.6	-53.3	14.6	0.00e+00	0	27	0	1191182336	69	4356
2026-01-14 00:00:43.32	175.27	19.67	-51.5	-53.1	14.7	0.00e+00	0	27	0	1193279488	69	4268
2026-01-14 00:00:44.32	175.36	19.55	-51.4	-53.1	14.7	0.00e+00	0	27	0	1195376640	69	4250
2026-01-14 00:00:45.33	175.44	19.43	-51.4	-53.0	14.7	0.00e+00	0	27	0	1197473792	69	4232
2026-01-14 00:00:46.33	175.53	19.31	-51.4	-53.1	14.7	0.00e+00	0	27	0	1199570944	69	4245
2026-01-14 00:00:47.32	175.61	19.19	-51.5	-53.1	14.7	0.00e+00	0	27	0	1200619520	69	4277
2026-01-14 00:00:48.31	175.69	19.07	-51.6	-53.3	14.6	0.00e+00	0	27	0	1202716672	69	4362
2026-01-14 00:00:49.32	175.78	18.95	-51.6	-53.3	14.6	0.00e+00	0	27	0	1204813824	69	4363
2026-01-14 00:00:50.32	175.86	18.83	-51.6	-53.3	14.6	0.00e+00	0	27	0	1206910976	69	4379
2026-01-14 00:00:51.33	175.95	18.72	-51.8	-53.5	14.5	0.00e+00	0	27	0	1209008128	69	4461
2026-01-14 00:00:52.33	176.03	18.60	-52.0	-53.7	14.4	0.00e+00	0	27	0	1210056704	69	4597
2026-01-14 00:00:53.33	176.11	18.48	-52.3	-54.1	14.3	0.00e+00	0	27	0	1212153856	69	4790
2026-01-14 00:00:54.33	176.19	18.37	-52.5	-54.4	14.3	0.00e+00	0	27	0	1214251008	70	4652
2026-01-14 00:00:55.33	176.27	18.25	-52.7	-54.6	14.2	0.00e+00	0	27	0	1216348160	70	4789
2026-01-14 00:00:56.32	176.35	18.14	-53.0	-55.0	14.1	0.00e+00	0	27	0	1217396736	71	4740
2026-01-14 00:00:57.32	176.43	18.02	-53.0	-55.1	14.1	0.00e+00	0	27	0	1219493888	71	4779
2026-01-14 00:00:58.32	176.50	17.91	-53.2	-55.3	14.0	0.00e+00	0	27	0	1221591040	71	4898
2026-01-14 00:00:59.32	176.58	17.80	-53.3	-55.4	14.0	0.00e+00	0	27	0	1223688192	71	4944
2026-01-14 00:01:00.31	176.66	17.68	-53.4	-55.5	13.9	0.00e+00	0	27	0	1225785344	71	5038
2026-01-14 00:01:01.31	176.73	17.57	-53.5	-55.6	13.9	0.00e+00	0	27	0	1226833920	72	4814
2026-01-14 00:01:02.30	176.81	17.46	-53.4	-55.5	14.0	0.00e+00	0	27	0	1228931072	72	4735
2026-01-14 00:01:03.30	176.89	17.35	-53.4	-55.6	14.0	0.00e+00	0	27	0	1231028224	72	4782
2026-01-14 00:01:04.30	176.96	17.24	-53.4	-55.6	14.0	0.00e+00	0	27	0	1233125376	72	4766
2026-01-14 00:01:05.30	177.03	17.13	-53.3	-55.4	14.1	0.00e+00	0	27	0	1234173952	72	4674
2026-01-14 00:01:06.29	177.11	17.02	-53.3	-55.4	14.1	0.00e+00	0	27	0	1236271104	72	4681
2026-01-14 00:01:07.29	177.18	16.91	-53.2	-55.3	14.1	0.00e+00	0	27	0	1238368256	72	4644
2026-01-14 00:01:08.30	177.25	16.80	-53.1	-55.2	14.1	0.00e+00	0	27	0	1240465408	72	4588
2026-01-14 00:01:09.29	177.33	16.69	-53.1	-55.2	14.1	0.00e+00	0	27	0	1242562560	72	4576
2026-01-14 00:01:10.29	177.40	16.58	-52.9	-54.9	14.3	0.00e+00	0	27	0	1243611136	72	4401
2026-01-14 00:01:11.28	177.47	16.48	-52.8	-54.8	14.3	0.00e+00	0	27	0	1245708288	72	4347
2026-01-14 00:01:12.28	177.54	16.37	-52.7	-54.6	14.4	0.00e+00	0	27	0	1247805440	72	4272
2026-01-14 00:01:13.28	177.61	16.26	-52.7	-54.6	14.3	0.00e+00	0	27	0	1249902592	71	4523
2026-01-14 00:01:14.28	177.68	16.15	-52.7	-54.7	14.3	0.00e+00	0	27	0	1251999744	71	4565
2026-01-14 00:01:15.28	177.75	16.05	-52.5	-54.4	14.4	0.00e+00	0	27	0	1253048320	71	4415
2026-01-14 00:01:16.27	177.82	15.94	-52.5	-54.4	14.4	0.00e+00	0	27	0	1255145472	71	4435
2026-01-14 00:01:17.27	177.89	15.84	-52.5	-54.4	14.4	0.00e+00	0	27	0	1257242624	71	4402
2026-01-14 00:01:18.27	177.96	15.73	-52.4	-54.3	14.4	0.00e+00	0	27	0	1259339776	71	4366
2026-01-14 00:01:19.27	178.02	15.63	-52.3	-54.1	14.5	0.00e+00	0	27	0	1260388352	71	4290
2026-01-14 00:01:20.26	178.09	15.52	-52.2	-54.0	14.6	0.00e+00	0	27	0	1262485504	71	4231
2026-01-14 00:01:21.26	178.16	15.42	-52.3	-54.1	14.5	0.00e+00	0	27	0	1264582656	71	4246
