passes_logs/2026/01/13/R3.2S_Murmansk/R3.2S_Murmansk__20260113_140148_AQUA_rec.log

#Pass ID: 20260113_140148_AQUA
#Satellite: AQUA
#Configuration: AQUA
#almurnet v.1.7.20251203
#Start time: 2026-01-13 14:01:49

#Version: 2.2.20231116
#Station: R3.2S_Murmansk
#Location: 33.079688 lon 68.888172 lat
#TLE: 1 27424U 02022A   26013.18153243  .00000837  00000+0  17739-3 0  9991
#TLE: 2 27424  98.4079 339.5784 0002044  80.4993   9.3142 14.61818197260621

#Time	Az	El	Level	Level2	SNR	BER	BlckErr	Temp	State	Recorded	gain1	gain2
2026-01-13 14:01:49.63	226.67	2.07	-58.0	-77.3	3.8	7.47e-01	0	24	0	0	85	32087
2026-01-13 14:01:50.63	226.76	2.12	-57.8	-77.2	3.8	7.45e-01	0	24	104	0	83	35322
2026-01-13 14:01:51.64	226.86	2.17	-57.8	-77.2	3.8	7.43e-01	0	24	104	0	83	35404
2026-01-13 14:01:52.64	226.96	2.22	-57.8	-77.1	3.8	7.47e-01	0	24	104	0	83	35236
2026-01-13 14:01:53.64	227.06	2.27	-57.8	-77.1	3.8	7.44e-01	0	25	104	0	83	35058
2026-01-13 14:01:54.64	227.16	2.33	-57.8	-77.0	3.8	7.48e-01	0	25	104	0	83	34741
2026-01-13 14:01:55.64	227.25	2.38	-57.8	-77.0	3.8	7.46e-01	0	25	104	0	83	34510
2026-01-13 14:01:56.64	227.35	2.43	-57.8	-76.9	3.8	7.47e-01	0	25	104	0	83	34476
2026-01-13 14:01:57.64	227.45	2.48	-57.8	-77.0	3.8	7.48e-01	0	24	104	0	83	34681
2026-01-13 14:01:58.65	227.55	2.54	-57.8	-77.1	3.8	7.47e-01	0	25	104	0	83	34996
2026-01-13 14:01:59.65	227.65	2.59	-57.8	-77.2	3.8	7.47e-01	0	25	104	0	83	35330
2026-01-13 14:02:00.65	227.75	2.64	-57.8	-77.2	3.8	7.43e-01	0	25	104	0	83	35327
2026-01-13 14:02:01.64	227.85	2.69	-57.8	-77.1	3.8	7.47e-01	0	25	104	0	83	35023
2026-01-13 14:02:02.64	227.95	2.75	-57.8	-77.0	3.8	7.46e-01	0	25	104	0	83	34529
2026-01-13 14:02:03.63	228.06	2.80	-57.8	-77.0	3.8	7.47e-01	0	25	104	0	83	34489
2026-01-13 14:02:04.62	228.16	2.85	-57.8	-76.9	3.8	7.48e-01	0	25	104	0	83	34112
2026-01-13 14:02:05.62	228.26	2.90	-57.8	-76.9	3.8	7.44e-01	0	25	104	0	83	34313
2026-01-13 14:02:06.62	228.36	2.95	-57.8	-76.9	3.8	7.49e-01	0	25	104	0	83	34158
2026-01-13 14:02:07.62	228.46	3.01	-57.8	-76.8	3.8	7.47e-01	0	25	104	0	83	34060
2026-01-13 14:02:08.62	228.57	3.06	-57.8	-76.9	3.8	7.49e-01	0	25	104	0	83	34177
2026-01-13 14:02:09.62	228.67	3.11	-57.8	-77.0	3.8	7.49e-01	0	25	104	0	83	34536
2026-01-13 14:02:10.63	228.78	3.17	-57.8	-77.0	3.8	7.45e-01	0	25	104	0	83	34757
2026-01-13 14:02:11.63	228.88	3.22	-57.8	-77.1	3.8	7.44e-01	0	25	104	0	83	35177
2026-01-13 14:02:12.64	228.99	3.27	-57.8	-77.0	3.8	7.49e-01	0	25	104	0	83	34850
2026-01-13 14:02:13.63	229.09	3.33	-57.8	-77.0	3.8	7.47e-01	0	25	104	0	83	34506
2026-01-13 14:02:14.63	229.20	3.38	-57.8	-76.8	3.8	7.48e-01	0	25	104	0	83	33773
2026-01-13 14:02:15.63	229.30	3.43	-57.8	-76.8	3.8	7.46e-01	0	25	104	0	83	33846
2026-01-13 14:02:16.64	229.41	3.48	-57.8	-76.8	3.8	7.48e-01	0	25	104	0	83	33957
2026-01-13 14:02:17.65	229.52	3.54	-57.8	-76.9	3.8	7.44e-01	0	25	104	0	83	34242
2026-01-13 14:02:18.65	229.63	3.59	-57.9	-76.9	3.8	7.47e-01	0	25	104	0	83	34480
2026-01-13 14:02:19.65	229.73	3.64	-57.8	-77.0	3.8	7.44e-01	0	25	104	0	83	34536
2026-01-13 14:02:20.65	229.84	3.70	-57.8	-77.1	3.8	7.45e-01	0	25	104	0	83	35077
2026-01-13 14:02:21.65	229.95	3.75	-57.9	-77.2	3.8	7.46e-01	0	25	104	0	83	35364
2026-01-13 14:02:22.65	230.06	3.80	-57.8	-77.2	3.8	7.45e-01	0	25	104	0	83	35429
2026-01-13 14:02:23.65	230.17	3.86	-57.9	-77.1	3.8	7.50e-01	0	25	104	0	83	35015
2026-01-13 14:02:24.64	230.28	3.91	-57.9	-76.9	3.8	7.47e-01	0	25	104	0	83	34276
2026-01-13 14:02:25.64	230.39	3.96	-57.9	-76.7	3.8	7.50e-01	0	25	104	0	83	33592
2026-01-13 14:02:26.64	230.50	4.02	-57.8	-76.4	3.8	7.45e-01	0	25	104	0	83	32196
2026-01-13 14:02:27.64	230.61	4.07	-57.8	-76.0	3.8	7.45e-01	0	25	104	0	83	30792
2026-01-13 14:02:28.64	230.72	4.12	-57.8	-75.1	3.9	7.41e-01	0	25	104	0	83	27920
2026-01-13 14:02:29.63	230.83	4.18	-57.8	-74.9	3.9	7.47e-01	0	25	104	0	83	27176
2026-01-13 14:02:30.62	230.95	4.23	-57.8	-74.4	4.0	7.38e-01	0	25	104	0	83	25835
2026-01-13 14:02:31.61	231.06	4.28	-57.8	-75.3	3.8	7.43e-01	0	25	104	0	83	28499
2026-01-13 14:02:32.61	231.17	4.34	-57.8	-76.5	3.8	7.47e-01	0	26	104	0	83	32596
2026-01-13 14:02:33.60	231.28	4.39	-57.9	-76.7	3.8	7.47e-01	0	25	104	0	83	33608
2026-01-13 14:02:34.60	231.40	4.44	-57.8	-73.8	4.2	7.34e-01	0	25	104	0	83	23860
2026-01-13 14:02:35.60	231.51	4.50	-57.6	-70.2	5.7	6.88e-01	92	25	0	0	83	15889
2026-01-13 14:02:36.59	231.63	4.55	-57.4	-67.8	7.5	6.49e-01	85	25	0	1572864	83	12055
2026-01-13 14:02:37.59	231.74	4.61	-57.1	-65.6	9.4	6.24e-01	0	25	0	3670016	83	9325
2026-01-13 14:02:38.59	231.86	4.66	-56.9	-64.5	10.4	6.16e-01	0	26	0	5242880	83	8216
2026-01-13 14:02:39.59	231.97	4.71	-56.8	-63.8	10.9	6.14e-01	0	25	0	7340032	82	8043
2026-01-13 14:02:40.60	232.09	4.77	-56.4	-62.4	12.0	6.08e-01	0	26	0	9437184	82	6840
2026-01-13 14:02:41.60	232.21	4.82	-55.6	-60.4	13.1	6.06e-01	0	25	0	11010048	80	6084
2026-01-13 14:02:42.60	232.33	4.88	-54.8	-58.6	14.0	6.06e-01	0	26	0	13107200	78	5546
2026-01-13 14:02:43.60	232.45	4.93	-53.7	-56.8	14.6	6.07e-01	0	26	0	14680064	76	5048
2026-01-13 14:02:44.59	232.56	4.98	-52.9	-55.6	15.0	6.07e-01	0	26	0	16777216	75	4680
2026-01-13 14:02:45.59	232.68	5.04	-52.7	-55.4	15.0	6.06e-01	0	25	0	18350080	74	4816
2026-01-13 14:02:46.60	232.80	5.09	-55.0	-59.0	13.9	6.07e-01	0	25	0	20447232	77	6151
2026-01-13 14:02:47.59	232.92	5.14	-52.6	-55.1	15.1	6.06e-01	0	26	0	22544384	74	4653
2026-01-13 14:02:48.60	233.04	5.20	-54.5	-58.0	14.2	6.06e-01	0	25	0	24117248	77	5509
2026-01-13 14:02:49.60	233.17	5.25	-52.0	-54.4	15.1	6.07e-01	0	25	0	26214400	73	4552
2026-01-13 14:02:50.60	233.29	5.31	-52.4	-54.8	15.0	6.06e-01	0	25	0	27787264	73	4808
2026-01-13 14:02:51.60	233.41	5.36	-52.2	-54.5	15.1	6.08e-01	0	26	0	29884416	73	4647
2026-01-13 14:02:52.60	233.53	5.42	-52.1	-54.5	15.2	6.07e-01	0	25	0	31981568	73	4618
2026-01-13 14:02:53.60	233.65	5.47	-52.1	-54.5	15.2	6.06e-01	0	26	0	33554432	73	4607
2026-01-13 14:02:54.60	233.78	5.52	-52.1	-54.4	15.2	6.05e-01	0	25	0	35651584	73	4579
2026-01-13 14:02:55.61	233.90	5.58	-52.0	-54.3	15.2	6.08e-01	0	25	0	37224448	73	4543
2026-01-13 14:02:56.60	234.03	5.63	-52.0	-54.2	15.3	6.06e-01	0	26	0	39321600	73	4488
2026-01-13 14:02:57.60	234.15	5.69	-51.9	-54.1	15.3	6.05e-01	0	25	0	40894464	73	4422
2026-01-13 14:02:58.60	234.28	5.74	-51.9	-54.2	15.1	6.05e-01	0	26	0	42991616	72	4710
2026-01-13 14:02:59.60	234.40	5.80	-52.0	-54.3	15.1	6.07e-01	0	25	0	45088768	72	4770
2026-01-13 14:03:00.60	234.53	5.85	-51.9	-54.2	15.1	6.06e-01	0	25	0	46661632	72	4720
2026-01-13 14:03:01.60	234.66	5.91	-51.9	-54.2	15.1	6.05e-01	0	25	0	48758784	72	4745
2026-01-13 14:03:02.59	234.78	5.96	-51.9	-54.2	15.1	6.07e-01	0	26	0	50331648	72	4735
2026-01-13 14:03:03.59	234.91	6.01	-52.0	-54.3	15.1	6.05e-01	0	26	0	52428800	72	4774
2026-01-13 14:03:04.60	235.04	6.07	-51.9	-54.1	15.1	6.04e-01	0	26	0	54001664	72	4700
2026-01-13 14:03:05.60	235.17	6.12	-51.8	-54.0	15.2	6.07e-01	0	26	0	56098816	72	4640
2026-01-13 14:03:06.60	235.30	6.18	-51.7	-53.9	15.2	6.05e-01	0	26	0	58195968	72	4590
2026-01-13 14:03:07.60	235.43	6.23	-51.7	-53.8	15.3	6.05e-01	0	26	0	59768832	72	4526
2026-01-13 14:03:08.59	235.56	6.29	-51.6	-53.8	15.3	6.08e-01	0	26	0	61865984	72	4517
2026-01-13 14:03:09.59	235.69	6.34	-51.6	-53.8	15.3	6.08e-01	0	26	0	63438848	72	4514
2026-01-13 14:03:10.59	235.82	6.40	-51.6	-53.7	15.3	6.05e-01	0	26	0	65536000	72	4493
2026-01-13 14:03:11.59	235.95	6.45	-51.8	-54.0	15.2	6.05e-01	0	26	0	67108864	72	4609
2026-01-13 14:03:12.59	236.08	6.50	-51.8	-53.9	15.2	6.07e-01	0	26	0	69206016	72	4596
2026-01-13 14:03:13.58	236.21	6.56	-51.6	-53.8	15.3	6.07e-01	0	26	0	71303168	72	4505
2026-01-13 14:03:14.59	236.35	6.61	-51.6	-53.8	15.3	6.04e-01	0	26	0	72876032	72	4509
2026-01-13 14:03:15.58	236.48	6.67	-51.7	-53.9	15.2	6.06e-01	0	26	0	74973184	72	4561
2026-01-13 14:03:16.59	236.62	6.72	-51.7	-53.9	15.2	6.06e-01	0	26	0	76546048	72	4565
2026-01-13 14:03:17.59	236.75	6.78	-51.7	-53.9	15.2	6.06e-01	0	26	0	78643200	72	4582
2026-01-13 14:03:18.59	236.89	6.83	-51.6	-53.7	15.3	6.07e-01	0	26	0	80740352	72	4484
2026-01-13 14:03:19.60	237.03	6.89	-51.5	-53.7	15.3	6.05e-01	0	26	0	82313216	72	4444
2026-01-13 14:03:20.60	237.16	6.94	-51.6	-53.8	15.3	6.04e-01	0	26	0	84410368	72	4497
2026-01-13 14:03:21.60	237.30	7.00	-51.7	-53.8	15.3	6.07e-01	0	26	0	85983232	72	4525
2026-01-13 14:03:22.60	237.44	7.05	-51.7	-53.8	15.3	6.08e-01	0	26	0	88080384	72	4529
2026-01-13 14:03:23.60	237.58	7.11	-51.6	-53.7	15.3	6.05e-01	0	26	0	89653248	72	4449
2026-01-13 14:03:24.61	237.72	7.16	-51.5	-53.6	15.3	6.06e-01	0	26	0	91750400	72	4395
2026-01-13 14:03:25.61	237.86	7.21	-51.5	-53.6	15.3	6.07e-01	0	26	0	93847552	72	4415
2026-01-13 14:03:26.61	238.00	7.27	-51.6	-53.7	15.3	6.07e-01	0	26	0	95420416	72	4461
2026-01-13 14:03:27.60	238.13	7.32	-51.5	-53.7	15.3	6.06e-01	0	26	0	97517568	72	4450
2026-01-13 14:03:28.60	238.28	7.38	-51.6	-53.7	15.3	6.05e-01	0	26	0	99090432	72	4453
2026-01-13 14:03:29.59	238.42	7.43	-51.4	-53.5	15.4	6.06e-01	0	26	0	101187584	72	4363
2026-01-13 14:03:30.59	238.56	7.49	-51.5	-53.5	15.4	6.07e-01	0	26	0	102760448	72	4377
2026-01-13 14:03:31.58	238.70	7.54	-51.3	-53.3	15.3	6.07e-01	0	26	0	104857600	71	4504
2026-01-13 14:03:32.58	238.84	7.59	-51.2	-53.2	15.3	6.06e-01	0	26	0	106954752	71	4480
2026-01-13 14:03:33.58	238.99	7.65	-51.3	-53.4	15.3	6.06e-01	0	26	0	108527616	71	4561
2026-01-13 14:03:34.57	239.13	7.70	-51.4	-53.5	15.2	6.07e-01	0	26	0	110624768	71	4613
2026-01-13 14:03:35.57	239.27	7.76	-51.3	-53.4	15.3	6.07e-01	0	26	0	112197632	71	4568
2026-01-13 14:03:36.56	239.42	7.81	-51.4	-53.4	15.3	6.07e-01	0	26	0	114294784	71	4589
2026-01-13 14:03:37.56	239.56	7.87	-51.5	-53.5	15.2	6.06e-01	0	26	0	115867648	71	4640
2026-01-13 14:03:38.56	239.71	7.92	-51.4	-53.5	15.2	6.06e-01	0	26	0	117964800	71	4625
2026-01-13 14:03:39.55	239.86	7.97	-51.4	-53.5	15.2	6.05e-01	0	26	0	119537664	71	4630
2026-01-13 14:03:40.54	240.00	8.03	-51.5	-53.5	15.2	6.06e-01	0	26	0	121634816	71	4648
2026-01-13 14:03:41.54	240.15	8.08	-51.3	-53.3	15.3	6.06e-01	0	26	0	123731968	71	4530
2026-01-13 14:03:42.53	240.30	8.14	-51.3	-53.4	15.3	6.06e-01	0	26	0	125304832	71	4548
2026-01-13 14:03:43.53	240.45	8.19	-51.3	-53.3	15.3	6.07e-01	0	26	0	127401984	71	4538
2026-01-13 14:03:44.53	240.60	8.24	-51.2	-53.2	15.3	6.06e-01	0	26	0	128974848	71	4456
2026-01-13 14:03:45.53	240.75	8.30	-51.2	-53.2	15.3	6.07e-01	0	26	0	131072000	71	4472
2026-01-13 14:03:46.53	240.90	8.35	-51.1	-53.1	15.4	6.06e-01	0	26	0	132644864	71	4408
2026-01-13 14:03:47.53	241.05	8.41	-51.2	-53.2	15.3	6.05e-01	0	26	0	134742016	71	4442
2026-01-13 14:03:48.53	241.20	8.46	-51.1	-53.1	15.4	6.07e-01	0	26	0	136839168	71	4405
2026-01-13 14:03:49.54	241.36	8.52	-51.2	-53.2	15.4	6.05e-01	0	26	0	138412032	71	4446
2026-01-13 14:03:50.54	241.51	8.57	-51.2	-53.2	15.4	6.05e-01	0	26	0	140509184	71	4451
2026-01-13 14:03:51.54	241.67	8.62	-51.1	-53.1	15.4	6.07e-01	0	26	0	142082048	71	4406
2026-01-13 14:03:52.54	241.82	8.68	-51.1	-53.1	15.4	6.06e-01	0	26	0	144179200	71	4405
2026-01-13 14:03:53.54	241.98	8.73	-51.1	-53.1	15.4	6.06e-01	0	26	0	145752064	71	4402
2026-01-13 14:03:54.53	242.13	8.79	-51.1	-53.1	15.4	6.06e-01	0	26	0	147849216	71	4407
2026-01-13 14:03:55.54	242.29	8.84	-51.3	-53.3	15.3	6.05e-01	0	26	0	149946368	71	4501
2026-01-13 14:03:56.53	242.45	8.89	-51.4	-53.4	15.3	6.05e-01	0	26	0	151519232	71	4562
2026-01-13 14:03:57.53	242.60	8.95	-51.1	-53.1	15.4	6.07e-01	0	26	0	153616384	71	4396
2026-01-13 14:03:58.52	242.76	9.00	-51.0	-52.9	15.4	6.04e-01	0	26	0	155189248	71	4314
2026-01-13 14:03:59.53	242.92	9.05	-51.0	-52.9	15.4	6.07e-01	0	26	0	157286400	71	4328
2026-01-13 14:04:00.53	243.08	9.11	-51.0	-52.9	15.5	6.07e-01	0	26	0	159383552	71	4315
2026-01-13 14:04:01.53	243.24	9.16	-50.9	-52.9	15.4	6.09e-01	0	26	0	160956416	71	4296
2026-01-13 14:04:02.53	243.40	9.21	-51.0	-52.9	15.4	6.07e-01	0	26	0	163053568	71	4328
2026-01-13 14:04:03.53	243.56	9.27	-51.1	-53.1	15.4	6.08e-01	0	26	0	164626432	71	4404
2026-01-13 14:04:04.52	243.72	9.32	-51.0	-53.0	15.4	6.06e-01	0	26	0	166723584	71	4365
2026-01-13 14:04:05.53	243.89	9.38	-51.1	-53.0	15.4	6.08e-01	0	26	0	168296448	71	4365
2026-01-13 14:04:06.53	244.05	9.43	-51.1	-53.1	15.4	6.05e-01	0	26	0	170393600	71	4414
2026-01-13 14:04:07.52	244.21	9.48	-50.9	-52.8	15.5	6.08e-01	0	26	0	171966464	71	4289
2026-01-13 14:04:08.53	244.38	9.53	-50.9	-52.8	15.5	6.06e-01	0	26	0	174063616	71	4268
2026-01-13 14:04:09.52	244.54	9.59	-51.0	-52.9	15.4	6.07e-01	0	26	0	176160768	71	4316
2026-01-13 14:04:10.52	244.71	9.64	-51.0	-52.9	15.4	6.03e-01	0	26	0	177733632	71	4319
2026-01-13 14:04:11.53	244.88	9.69	-50.9	-52.8	15.5	6.06e-01	0	26	0	179830784	71	4268
2026-01-13 14:04:12.53	245.05	9.75	-50.9	-52.8	15.5	6.07e-01	0	26	0	181403648	71	4263
2026-01-13 14:04:13.54	245.22	9.80	-50.8	-52.7	15.4	6.06e-01	0	26	0	183500800	70	4467
2026-01-13 14:04:14.54	245.38	9.85	-50.8	-52.7	15.4	6.05e-01	0	26	0	185597952	70	4454
2026-01-13 14:04:15.54	245.55	9.90	-50.9	-52.8	15.3	6.07e-01	0	26	0	187170816	70	4501
2026-01-13 14:04:16.54	245.72	9.96	-50.7	-52.6	15.4	6.08e-01	0	26	0	189267968	70	4415
2026-01-13 14:04:17.54	245.89	10.01	-50.7	-52.6	15.4	6.04e-01	0	26	0	190840832	70	4396
2026-01-13 14:04:18.54	246.06	10.06	-50.8	-52.7	15.4	6.06e-01	0	26	0	192937984	70	4442
2026-01-13 14:04:19.54	246.24	10.11	-50.8	-52.7	15.3	6.07e-01	0	26	0	194510848	70	4488
2026-01-13 14:04:20.54	246.41	10.17	-50.8	-52.7	15.4	6.05e-01	0	26	0	196608000	70	4465
2026-01-13 14:04:21.53	246.58	10.22	-50.7	-52.6	15.4	6.07e-01	0	26	0	198705152	70	4407
2026-01-13 14:04:22.54	246.75	10.27	-50.8	-52.7	15.4	6.05e-01	0	26	0	200278016	70	4456
2026-01-13 14:04:23.53	246.93	10.32	-50.8	-52.7	15.4	6.07e-01	0	26	0	202375168	70	4456
2026-01-13 14:04:24.53	247.10	10.37	-50.8	-52.6	15.4	6.07e-01	0	26	0	203948032	70	4433
2026-01-13 14:04:25.52	247.28	10.42	-50.7	-52.5	15.4	6.09e-01	0	26	0	206045184	70	4365
2026-01-13 14:04:26.52	247.45	10.48	-50.7	-52.6	15.4	6.07e-01	0	26	0	207618048	70	4409
2026-01-13 14:04:27.52	247.63	10.53	-50.8	-52.6	15.4	6.04e-01	0	26	0	209715200	70	4433
2026-01-13 14:04:28.52	247.81	10.58	-50.8	-52.6	15.4	6.06e-01	0	26	0	211288064	70	4441
2026-01-13 14:04:29.52	247.98	10.63	-50.8	-52.7	15.4	6.05e-01	0	26	0	213385216	70	4450
2026-01-13 14:04:30.51	248.16	10.68	-50.6	-52.4	15.4	6.04e-01	0	26	0	215482368	70	4328
2026-01-13 14:04:31.52	248.34	10.73	-50.6	-52.5	15.4	6.06e-01	0	26	0	217055232	70	4362
2026-01-13 14:04:32.51	248.52	10.78	-50.6	-52.4	15.4	6.06e-01	0	26	0	219152384	70	4335
2026-01-13 14:04:33.51	248.70	10.83	-50.7	-52.5	15.4	6.05e-01	0	26	0	220725248	70	4388
2026-01-13 14:04:34.50	248.88	10.88	-50.7	-52.6	15.4	6.08e-01	0	26	0	222822400	70	4403
2026-01-13 14:04:35.49	249.06	10.93	-50.7	-52.6	15.4	6.06e-01	0	26	0	224919552	70	4422
2026-01-13 14:04:36.49	249.24	10.98	-50.6	-52.5	15.4	6.06e-01	0	26	0	226492416	70	4364
2026-01-13 14:04:37.49	249.43	11.03	-50.5	-52.4	15.5	6.08e-01	0	26	0	228589568	70	4300
2026-01-13 14:04:38.48	249.61	11.08	-50.5	-52.3	15.3	6.07e-01	0	26	0	230162432	70	4277
2026-01-13 14:04:39.47	249.79	11.13	-50.5	-52.3	15.5	6.08e-01	0	26	0	232259584	70	4283
2026-01-13 14:04:40.47	249.98	11.18	-50.5	-52.4	15.5	6.08e-01	0	26	0	233832448	70	4295
2026-01-13 14:04:41.47	250.16	11.23	-50.5	-52.3	15.5	6.04e-01	0	26	0	235929600	70	4260
2026-01-13 14:04:42.47	250.35	11.28	-50.5	-52.3	15.5	6.07e-01	0	26	0	237502464	70	4285
2026-01-13 14:04:43.46	250.53	11.33	-50.5	-52.3	15.5	6.05e-01	0	26	0	239599616	70	4244
2026-01-13 14:04:44.46	250.72	11.38	-50.5	-52.3	15.5	6.06e-01	0	26	0	241696768	70	4275
2026-01-13 14:04:45.46	250.91	11.43	-50.5	-52.4	15.5	6.06e-01	0	26	0	243269632	70	4303
2026-01-13 14:04:46.47	251.10	11.48	-50.4	-52.2	15.5	6.05e-01	0	26	0	245366784	70	4239
2026-01-13 14:04:47.47	251.29	11.53	-50.5	-52.4	15.5	6.07e-01	0	26	0	246939648	70	4297
2026-01-13 14:04:48.47	251.48	11.58	-50.5	-52.3	15.5	6.07e-01	0	26	0	249036800	70	4289
2026-01-13 14:04:49.46	251.67	11.63	-50.5	-52.3	15.5	6.07e-01	0	26	0	250609664	70	4259
2026-01-13 14:04:50.45	251.86	11.67	-50.5	-52.3	15.5	6.08e-01	0	26	0	252706816	70	4259
2026-01-13 14:04:51.46	252.06	11.72	-50.5	-52.3	15.5	6.05e-01	0	26	0	254803968	70	4248
2026-01-13 14:04:52.45	252.25	11.77	-50.4	-52.2	15.5	6.06e-01	0	26	0	256376832	70	4228
2026-01-13 14:04:53.45	252.44	11.82	-50.5	-52.3	15.5	6.06e-01	0	26	0	258473984	70	4243
2026-01-13 14:04:54.45	252.64	11.86	-50.6	-52.4	15.5	6.07e-01	0	26	0	260046848	70	4314
2026-01-13 14:04:55.45	252.83	11.91	-50.4	-52.2	15.5	6.07e-01	0	26	0	262144000	70	4207
2026-01-13 14:04:56.45	253.03	11.96	-50.4	-52.2	15.5	6.07e-01	0	26	0	263716864	70	4196
2026-01-13 14:04:57.45	253.22	12.01	-50.3	-52.1	15.4	6.07e-01	0	26	0	265814016	69	4422
2026-01-13 14:04:58.45	253.42	12.05	-50.4	-52.2	15.4	6.07e-01	0	26	0	267911168	69	4449
2026-01-13 14:04:59.44	253.62	12.10	-50.4	-52.2	15.4	6.06e-01	0	26	0	269484032	69	4475
2026-01-13 14:05:00.44	253.81	12.15	-50.3	-52.1	15.4	6.06e-01	0	26	0	271581184	69	4402
2026-01-13 14:05:01.43	254.01	12.19	-50.3	-52.0	15.4	6.06e-01	0	26	0	273154048	69	4378
2026-01-13 14:05:02.44	254.21	12.24	-50.3	-52.0	15.4	6.07e-01	0	26	0	275251200	69	4378
2026-01-13 14:05:03.44	254.41	12.28	-50.4	-52.2	15.4	6.06e-01	0	26	0	276824064	69	4461
2026-01-13 14:05:04.43	254.61	12.33	-50.4	-52.2	15.4	6.05e-01	0	26	0	278921216	69	4459
2026-01-13 14:05:05.43	254.81	12.38	-50.4	-52.2	15.4	6.07e-01	0	26	0	281018368	69	4473
2026-01-13 14:05:06.42	255.01	12.42	-50.4	-52.2	15.4	6.06e-01	0	26	0	282591232	69	4461
2026-01-13 14:05:07.42	255.22	12.46	-50.3	-52.1	15.4	6.05e-01	0	26	0	284688384	69	4425
2026-01-13 14:05:08.42	255.42	12.51	-50.3	-52.1	15.4	6.07e-01	0	26	0	286261248	69	4427
2026-01-13 14:05:09.42	255.63	12.55	-50.3	-52.1	15.4	6.04e-01	0	26	0	288358400	69	4405
2026-01-13 14:05:10.42	255.83	12.60	-50.3	-52.1	15.4	6.07e-01	0	26	0	289931264	69	4407
2026-01-13 14:05:11.42	256.04	12.64	-50.3	-52.1	15.4	6.07e-01	0	26	0	292028416	69	4412
2026-01-13 14:05:12.41	256.24	12.69	-50.3	-52.1	15.4	6.07e-01	0	26	0	293601280	69	4422
2026-01-13 14:05:13.41	256.45	12.73	-50.3	-52.0	15.4	6.07e-01	0	26	0	295698432	69	4379
2026-01-13 14:05:14.41	256.65	12.77	-50.2	-52.0	15.4	6.06e-01	0	26	0	297795584	69	4359
2026-01-13 14:05:15.41	256.86	12.82	-50.3	-52.0	15.4	6.07e-01	0	26	0	299368448	69	4388
2026-01-13 14:05:16.41	257.07	12.86	-50.3	-52.1	15.4	6.06e-01	0	26	0	301465600	69	4409
2026-01-13 14:05:17.42	257.28	12.90	-50.3	-52.1	15.4	6.06e-01	0	26	0	303038464	69	4424
2026-01-13 14:05:18.41	257.49	12.95	-50.2	-51.9	15.5	6.07e-01	0	26	0	305135616	69	4332
2026-01-13 14:05:19.41	257.70	12.99	-50.2	-51.9	15.4	6.07e-01	0	26	0	307232768	69	4321
2026-01-13 14:05:20.40	257.91	13.03	-50.2	-52.0	15.4	6.09e-01	0	26	0	308805632	69	4344
2026-01-13 14:05:21.40	258.12	13.07	-50.3	-52.0	15.4	6.06e-01	0	26	0	310902784	69	4385
2026-01-13 14:05:22.40	258.33	13.11	-50.2	-52.0	15.4	6.05e-01	0	26	0	312475648	69	4346
2026-01-13 14:05:23.40	258.55	13.15	-50.3	-52.1	15.4	6.07e-01	0	26	0	314572800	69	4393
2026-01-13 14:05:24.40	258.76	13.19	-50.2	-52.0	15.4	6.07e-01	0	26	0	316145664	69	4359
2026-01-13 14:05:25.39	258.97	13.23	-50.3	-52.0	15.4	6.04e-01	0	26	0	318242816	69	4377
2026-01-13 14:05:26.39	259.19	13.28	-50.3	-52.0	15.4	6.09e-01	0	26	0	320339968	69	4379
2026-01-13 14:05:27.39	259.40	13.32	-50.2	-52.0	15.4	6.05e-01	0	26	0	321912832	69	4363
2026-01-13 14:05:28.39	259.62	13.36	-50.3	-52.0	15.4	6.07e-01	0	26	0	324009984	69	4375
2026-01-13 14:05:29.38	259.83	13.39	-50.3	-52.0	15.4	6.05e-01	0	26	0	325582848	69	4391
2026-01-13 14:05:30.38	260.05	13.43	-50.3	-52.1	15.4	6.09e-01	0	26	0	327680000	69	4403
2026-01-13 14:05:31.38	260.27	13.47	-50.3	-52.1	15.4	6.06e-01	0	26	0	329252864	69	4411
2026-01-13 14:05:32.38	260.49	13.51	-50.3	-52.0	15.4	6.05e-01	0	26	0	331350016	69	4374
2026-01-13 14:05:33.37	260.70	13.55	-50.0	-51.7	15.5	6.08e-01	0	26	0	332922880	69	4235
2026-01-13 14:05:34.37	260.92	13.59	-50.0	-51.7	15.5	6.06e-01	0	26	0	335020032	69	4237
2026-01-13 14:05:35.37	261.14	13.63	-50.1	-51.8	15.5	6.06e-01	0	26	0	337117184	69	4287
2026-01-13 14:05:36.36	261.36	13.66	-50.2	-52.0	15.4	6.06e-01	0	26	0	338690048	69	4347
2026-01-13 14:05:37.36	261.58	13.70	-50.1	-51.9	15.5	6.06e-01	0	26	0	340787200	69	4306
2026-01-13 14:05:38.35	261.80	13.74	-50.2	-52.0	15.4	6.06e-01	0	26	0	342360064	69	4341
2026-01-13 14:05:39.35	262.03	13.77	-50.0	-51.8	15.5	6.07e-01	0	26	0	344457216	69	4248
2026-01-13 14:05:40.34	262.25	13.81	-50.1	-51.8	15.5	6.07e-01	0	26	0	346030080	69	4259
2026-01-13 14:05:41.33	262.47	13.84	-50.2	-51.9	15.5	6.04e-01	0	26	0	348127232	69	4332
2026-01-13 14:05:42.33	262.69	13.88	-50.1	-51.8	15.5	6.06e-01	0	26	0	350224384	69	4277
2026-01-13 14:05:43.33	262.92	13.92	-50.1	-51.8	15.5	6.06e-01	0	26	0	351797248	69	4281
2026-01-13 14:05:44.33	263.14	13.95	-50.1	-51.8	15.5	6.07e-01	0	26	0	353894400	69	4268
2026-01-13 14:05:45.32	263.37	13.98	-50.0	-51.8	15.5	6.06e-01	0	26	0	355467264	69	4243
2026-01-13 14:05:46.33	263.60	14.02	-50.1	-51.8	15.5	6.07e-01	0	26	0	357564416	69	4254
2026-01-13 14:05:47.32	263.82	14.05	-50.1	-51.9	15.5	6.04e-01	0	26	0	359137280	69	4310
2026-01-13 14:05:48.32	264.05	14.09	-50.1	-51.8	15.5	6.07e-01	0	26	0	361234432	69	4290
2026-01-13 14:05:49.31	264.27	14.12	-50.1	-51.8	15.5	6.07e-01	0	26	0	362807296	69	4265
2026-01-13 14:05:50.31	264.50	14.15	-50.1	-51.8	15.5	6.04e-01	0	26	0	364904448	69	4285
2026-01-13 14:05:51.31	264.73	14.18	-50.1	-51.9	15.5	6.07e-01	0	26	0	367001600	69	4293
2026-01-13 14:05:52.30	264.96	14.22	-50.1	-51.9	15.5	6.07e-01	0	26	0	368574464	69	4308
2026-01-13 14:05:53.30	265.19	14.25	-50.2	-51.9	15.4	6.06e-01	0	26	0	370671616	69	4339
2026-01-13 14:05:54.30	265.42	14.28	-50.1	-51.9	15.5	6.08e-01	0	26	0	372244480	69	4309
2026-01-13 14:05:55.30	265.65	14.31	-50.1	-51.8	15.5	6.05e-01	0	26	0	374341632	69	4260
2026-01-13 14:05:56.30	265.88	14.34	-50.1	-51.8	15.5	6.06e-01	0	26	0	375914496	69	4268
2026-01-13 14:05:57.30	266.11	14.37	-50.1	-51.9	15.5	6.06e-01	0	26	0	378011648	69	4304
2026-01-13 14:05:58.30	266.35	14.40	-50.2	-51.9	15.5	6.07e-01	0	26	0	380108800	69	4330
2026-01-13 14:05:59.31	266.58	14.43	-50.0	-51.8	15.5	6.07e-01	0	26	0	381681664	69	4248
2026-01-13 14:06:00.31	266.81	14.46	-50.0	-51.7	15.5	6.07e-01	0	26	0	383778816	69	4242
2026-01-13 14:06:01.31	267.05	14.49	-50.1	-51.8	15.5	6.04e-01	0	26	0	385351680	69	4261
2026-01-13 14:06:02.31	267.28	14.52	-50.2	-51.9	15.4	6.04e-01	0	26	0	387448832	69	4339
2026-01-13 14:06:03.30	267.52	14.55	-50.1	-51.9	15.5	6.07e-01	0	26	0	389545984	69	4303
2026-01-13 14:06:04.29	267.75	14.57	-50.3	-52.0	15.4	6.07e-01	0	26	0	391118848	69	4371
2026-01-13 14:06:05.30	267.99	14.60	-50.2	-51.9	15.5	6.07e-01	0	26	0	393216000	69	4324
2026-01-13 14:06:06.29	268.22	14.63	-50.1	-51.9	15.5	6.06e-01	0	26	0	394788864	69	4292
2026-01-13 14:06:07.29	268.46	14.65	-50.1	-51.8	15.5	6.08e-01	0	26	0	396886016	69	4280
2026-01-13 14:06:08.29	268.69	14.68	-50.1	-51.8	15.5	6.04e-01	0	26	0	398458880	69	4279
2026-01-13 14:06:09.29	268.93	14.71	-50.0	-51.8	15.5	6.06e-01	0	26	0	400556032	69	4243
2026-01-13 14:06:10.29	269.17	14.73	-50.0	-51.7	15.5	6.07e-01	0	26	0	402653184	69	4229
2026-01-13 14:06:11.28	269.41	14.76	-50.0	-51.8	15.5	6.10e-01	0	26	0	404226048	69	4245
2026-01-13 14:06:12.28	269.65	14.78	-50.0	-51.7	15.5	6.06e-01	0	26	0	406323200	69	4241
2026-01-13 14:06:13.28	269.88	14.80	-50.0	-51.7	15.5	6.08e-01	0	26	0	407896064	69	4218
2026-01-13 14:06:14.28	270.12	14.83	-50.0	-51.8	15.5	6.05e-01	0	26	0	409993216	69	4259
2026-01-13 14:06:15.28	270.36	14.85	-50.1	-51.8	15.5	6.07e-01	0	26	0	411566080	69	4284
2026-01-13 14:06:16.28	270.60	14.87	-50.0	-51.8	15.5	6.04e-01	0	26	0	413663232	69	4244
2026-01-13 14:06:17.28	270.85	14.90	-50.0	-51.7	15.5	6.04e-01	0	26	0	415760384	69	4228
2026-01-13 14:06:18.27	271.08	14.92	-50.1	-51.8	15.5	6.07e-01	0	26	0	417333248	69	4252
2026-01-13 14:06:19.27	271.33	14.94	-50.1	-51.8	15.5	6.07e-01	0	26	0	419430400	69	4283
2026-01-13 14:06:20.28	271.57	14.96	-50.1	-51.8	15.5	6.06e-01	0	26	0	421003264	69	4253
2026-01-13 14:06:21.27	271.81	14.98	-50.1	-51.9	15.5	6.05e-01	0	26	0	423100416	69	4301
2026-01-13 14:06:22.27	272.05	15.00	-50.1	-51.8	15.5	6.07e-01	0	26	0	424673280	69	4276
2026-01-13 14:06:23.27	272.29	15.02	-50.1	-51.8	15.5	6.06e-01	0	26	0	426770432	69	4260
2026-01-13 14:06:24.27	272.54	15.04	-50.2	-51.9	15.5	6.05e-01	0	26	0	428343296	69	4312
2026-01-13 14:06:25.26	272.78	15.06	-50.2	-51.9	15.4	6.07e-01	0	26	0	430440448	69	4326
2026-01-13 14:06:26.27	273.03	15.08	-50.1	-51.9	15.5	6.06e-01	0	26	0	432537600	69	4303
2026-01-13 14:06:27.26	273.27	15.10	-50.1	-51.9	15.5	6.07e-01	0	26	0	434110464	69	4294
2026-01-13 14:06:28.25	273.51	15.11	-50.1	-51.9	15.5	6.07e-01	0	26	0	436207616	69	4300
2026-01-13 14:06:29.24	273.75	15.13	-50.0	-51.7	15.5	6.08e-01	0	26	0	437780480	69	4239
2026-01-13 14:06:30.24	274.00	15.15	-50.0	-51.7	15.5	6.03e-01	0	26	0	439877632	69	4242
2026-01-13 14:06:31.24	274.24	15.16	-50.1	-51.9	15.5	6.07e-01	0	26	0	441450496	69	4293
2026-01-13 14:06:32.24	274.49	15.18	-50.2	-51.9	15.5	6.06e-01	0	26	0	443547648	69	4329
2026-01-13 14:06:33.24	274.73	15.19	-50.2	-51.9	15.4	6.05e-01	0	26	0	445644800	69	4335
2026-01-13 14:06:34.23	274.98	15.21	-50.1	-51.9	15.5	6.04e-01	0	26	0	447217664	69	4296
2026-01-13 14:06:35.23	275.22	15.22	-50.1	-51.8	15.5	6.05e-01	0	26	0	449314816	69	4256
2026-01-13 14:06:36.22	275.47	15.24	-50.2	-52.0	15.4	6.07e-01	0	26	0	450887680	69	4345
2026-01-13 14:06:37.22	275.71	15.25	-50.2	-51.9	15.5	6.07e-01	0	26	0	452984832	69	4317
2026-01-13 14:06:38.21	275.96	15.26	-50.2	-51.9	15.5	6.07e-01	0	26	0	454557696	69	4308
2026-01-13 14:06:39.21	276.20	15.27	-50.2	-51.9	15.4	6.08e-01	0	26	0	456654848	69	4326
2026-01-13 14:06:40.21	276.45	15.29	-50.2	-51.9	15.4	6.05e-01	0	26	0	458227712	69	4312
2026-01-13 14:06:41.20	276.70	15.30	-50.2	-51.9	15.4	6.05e-01	0	26	0	460324864	69	4339
2026-01-13 14:06:42.20	276.95	15.31	-50.2	-51.9	15.5	6.06e-01	0	26	0	462422016	69	4308
2026-01-13 14:06:43.20	277.19	15.32	-50.1	-51.8	15.5	6.07e-01	0	26	0	463994880	69	4282
2026-01-13 14:06:44.19	277.44	15.33	-50.1	-51.8	15.5	6.05e-01	0	26	0	466092032	69	4276
2026-01-13 14:06:45.18	277.68	15.34	-50.1	-51.8	15.5	6.07e-01	0	26	0	467664896	69	4277
2026-01-13 14:06:46.17	277.93	15.35	-50.2	-51.9	15.4	6.05e-01	0	26	0	469762048	69	4319
2026-01-13 14:06:47.16	278.18	15.36	-50.3	-52.0	15.4	6.07e-01	0	26	0	471334912	69	4372
2026-01-13 14:06:48.16	278.43	15.36	-50.3	-52.0	15.4	6.07e-01	0	26	0	473432064	69	4368
2026-01-13 14:06:49.16	278.67	15.37	-50.1	-51.9	15.5	6.06e-01	0	26	0	475004928	69	4295
2026-01-13 14:06:50.16	278.92	15.38	-50.3	-52.1	15.4	6.06e-01	0	26	0	477102080	69	4398
2026-01-13 14:06:51.17	279.17	15.39	-50.3	-52.1	15.4	6.06e-01	0	26	0	479199232	69	4396
2026-01-13 14:06:52.16	279.42	15.39	-50.1	-51.8	15.5	6.07e-01	0	26	0	480772096	69	4289
2026-01-13 14:06:53.17	279.67	15.40	-50.1	-51.8	15.5	6.06e-01	0	26	0	482869248	69	4287
2026-01-13 14:06:54.17	279.92	15.40	-50.2	-51.9	15.5	6.06e-01	0	26	0	484442112	69	4315
2026-01-13 14:06:55.17	280.17	15.41	-50.2	-51.9	15.4	6.06e-01	0	26	0	486539264	69	4332
2026-01-13 14:06:56.18	280.42	15.41	-50.2	-51.9	15.5	6.08e-01	0	26	0	488636416	69	4305
2026-01-13 14:06:57.18	280.67	15.42	-50.2	-51.9	15.4	6.06e-01	0	26	0	490209280	69	4325
2026-01-13 14:06:58.19	280.93	15.42	-50.2	-51.9	15.4	6.03e-01	0	26	0	492306432	69	4323
2026-01-13 14:06:59.19	281.18	15.42	-50.2	-51.9	15.4	6.02e-01	0	26	0	493879296	69	4313
2026-01-13 14:07:00.19	281.43	15.43	-50.3	-52.0	15.4	6.02e-01	0	26	0	495976448	69	4374
2026-01-13 14:07:01.19	281.68	15.43	-50.3	-52.0	15.4	6.02e-01	0	26	0	498073600	69	4370
2026-01-13 14:07:02.20	281.93	15.43	-50.2	-51.9	15.5	6.03e-01	0	26	0	499646464	69	4307
2026-01-13 14:07:03.20	282.18	15.43	-50.2	-52.0	15.4	6.04e-01	0	26	0	501743616	69	4350
2026-01-13 14:07:04.19	282.42	15.43	-50.2	-52.0	15.4	6.03e-01	0	26	0	503316480	69	4355
2026-01-13 14:07:05.19	282.67	15.43	-50.2	-51.9	15.4	6.03e-01	0	26	0	505413632	69	4340
2026-01-13 14:07:06.20	282.93	15.43	-50.1	-51.8	15.5	6.04e-01	0	26	0	506986496	69	4273
2026-01-13 14:07:07.20	283.18	15.43	-50.2	-51.9	15.4	6.04e-01	0	26	0	509083648	69	4307
2026-01-13 14:07:08.19	283.42	15.43	-50.3	-52.0	15.4	6.01e-01	0	26	0	511180800	69	4381
2026-01-13 14:07:09.19	283.67	15.43	-50.4	-52.2	15.4	6.02e-01	0	26	0	512753664	69	4454
2026-01-13 14:07:10.18	283.92	15.42	-50.4	-52.2	15.4	6.03e-01	0	26	0	514850816	69	4446
2026-01-13 14:07:11.18	284.17	15.42	-50.4	-52.2	15.4	6.02e-01	0	26	0	516423680	69	4451
2026-01-13 14:07:12.18	284.42	15.42	-50.3	-52.0	15.4	6.04e-01	0	26	0	518520832	69	4391
2026-01-13 14:07:13.18	284.67	15.41	-50.2	-51.9	15.4	6.02e-01	0	26	0	520093696	69	4317
2026-01-13 14:07:14.18	284.92	15.41	-50.3	-52.0	15.4	6.05e-01	0	26	0	522190848	69	4368
2026-01-13 14:07:15.18	285.17	15.40	-50.3	-52.1	15.4	6.02e-01	0	26	0	524288000	69	4400
2026-01-13 14:07:16.19	285.42	15.40	-50.5	-52.3	15.3	6.02e-01	0	26	0	525860864	69	4520
2026-01-13 14:07:17.19	285.67	15.39	-50.5	-52.3	15.3	6.03e-01	0	26	0	527958016	69	4529
2026-01-13 14:07:18.19	285.92	15.39	-50.4	-52.1	15.3	6.02e-01	0	26	0	529530880	69	4434
2026-01-13 14:07:19.19	286.17	15.38	-50.3	-52.1	15.4	6.02e-01	0	26	0	531628032	69	4396
2026-01-13 14:07:20.19	286.42	15.37	-50.2	-52.0	15.4	6.02e-01	0	26	0	533725184	69	4348
2026-01-13 14:07:21.18	286.66	15.36	-50.3	-52.0	15.4	6.02e-01	0	26	0	535298048	69	4386
2026-01-13 14:07:22.17	286.91	15.36	-50.4	-52.1	15.4	6.05e-01	0	26	0	537395200	69	4435
2026-01-13 14:07:23.17	287.16	15.35	-50.4	-52.1	15.4	6.02e-01	0	26	0	538968064	69	4426
2026-01-13 14:07:24.17	287.40	15.34	-50.4	-52.1	15.4	6.01e-01	0	26	0	541065216	69	4435
2026-01-13 14:07:25.17	287.65	15.33	-50.4	-52.2	15.4	6.02e-01	0	26	0	542638080	69	4442
2026-01-13 14:07:26.16	287.90	15.32	-50.4	-52.2	15.4	6.03e-01	0	26	0	544735232	69	4458
2026-01-13 14:07:27.16	288.15	15.31	-50.5	-52.2	15.3	6.04e-01	0	26	0	546308096	69	4483
2026-01-13 14:07:28.16	288.39	15.30	-50.5	-52.2	15.3	6.02e-01	0	26	0	548405248	69	4484
2026-01-13 14:07:29.15	288.64	15.28	-50.3	-52.0	15.4	6.01e-01	0	26	0	550502400	69	4375
2026-01-13 14:07:30.15	288.88	15.27	-50.4	-52.1	15.4	6.03e-01	0	26	0	552075264	69	4422
2026-01-13 14:07:31.16	289.13	15.26	-50.4	-52.2	15.4	6.05e-01	0	26	0	554172416	69	4456
2026-01-13 14:07:32.15	289.38	15.25	-50.5	-52.2	15.4	6.03e-01	0	26	0	555745280	69	4487
2026-01-13 14:07:33.16	289.63	15.23	-50.5	-52.3	15.3	6.01e-01	0	26	0	557842432	69	4513
2026-01-13 14:07:34.15	289.87	15.22	-50.3	-52.0	15.4	6.02e-01	0	26	0	559415296	69	4382
2026-01-13 14:07:35.14	290.11	15.20	-50.3	-52.0	15.4	6.02e-01	0	26	0	561512448	69	4371
2026-01-13 14:07:36.14	290.36	15.19	-50.3	-52.0	15.4	6.04e-01	0	26	0	563609600	69	4364
2026-01-13 14:07:37.14	290.61	15.17	-50.4	-52.1	15.4	6.02e-01	0	26	0	565182464	69	4415
2026-01-13 14:07:38.14	290.85	15.16	-50.4	-52.1	15.4	6.03e-01	0	26	0	567279616	69	4425
2026-01-13 14:07:39.14	291.10	15.14	-50.4	-52.2	15.4	6.01e-01	0	26	0	568852480	69	4443
2026-01-13 14:07:40.13	291.34	15.13	-50.3	-52.0	15.4	6.04e-01	0	26	0	570949632	69	4386
2026-01-13 14:07:41.12	291.58	15.11	-50.3	-52.0	15.4	6.03e-01	0	26	0	572522496	69	4378
2026-01-13 14:07:42.12	291.82	15.09	-50.4	-52.1	15.4	6.02e-01	0	26	0	574619648	69	4416
2026-01-13 14:07:43.12	292.07	15.07	-50.4	-52.1	15.4	6.02e-01	0	26	0	576192512	69	4426
2026-01-13 14:07:44.11	292.31	15.05	-50.4	-52.1	15.4	6.03e-01	0	26	0	578289664	69	4414
2026-01-13 14:07:45.11	292.55	15.04	-50.3	-52.1	15.4	6.03e-01	0	26	0	580386816	69	4397
2026-01-13 14:07:46.10	292.79	15.02	-50.3	-52.1	15.4	6.04e-01	0	26	0	581959680	69	4395
2026-01-13 14:07:47.10	293.03	15.00	-50.5	-52.2	15.4	6.04e-01	0	26	0	584056832	69	4476
2026-01-13 14:07:48.11	293.28	14.98	-50.4	-52.2	15.4	6.03e-01	0	26	0	585629696	69	4452
2026-01-13 14:07:49.11	293.52	14.96	-50.3	-52.0	15.4	6.04e-01	0	26	0	587726848	69	4360
2026-01-13 14:07:50.11	293.76	14.93	-50.3	-52.0	15.4	6.03e-01	0	26	0	589299712	69	4374
2026-01-13 14:07:51.11	294.00	14.91	-50.3	-52.0	15.4	6.04e-01	0	26	0	591396864	69	4378
2026-01-13 14:07:52.11	294.24	14.89	-50.4	-52.1	15.4	6.03e-01	0	26	0	593494016	69	4436
2026-01-13 14:07:53.12	294.48	14.87	-50.4	-52.1	15.4	6.01e-01	0	26	0	595066880	69	4435
2026-01-13 14:07:54.11	294.72	14.85	-50.4	-52.1	15.4	6.03e-01	0	26	0	597164032	69	4440
2026-01-13 14:07:55.11	294.96	14.82	-50.4	-52.1	15.4	6.03e-01	0	26	0	598736896	69	4436
2026-01-13 14:07:56.10	295.20	14.80	-50.3	-52.0	15.4	6.03e-01	0	26	0	600834048	69	4391
2026-01-13 14:07:57.11	295.44	14.78	-50.3	-52.0	15.4	6.04e-01	0	26	0	602406912	69	4351
2026-01-13 14:07:58.11	295.68	14.75	-50.3	-52.1	15.4	6.02e-01	0	26	0	604504064	69	4396
2026-01-13 14:07:59.11	295.91	14.73	-50.4	-52.1	15.4	6.04e-01	0	26	0	606601216	69	4405
2026-01-13 14:08:00.11	296.15	14.70	-50.4	-52.2	15.3	6.03e-01	0	26	0	608174080	69	4466
2026-01-13 14:08:01.11	296.39	14.67	-50.5	-52.3	15.3	6.01e-01	0	26	0	610271232	69	4496
2026-01-13 14:08:02.10	296.62	14.65	-50.4	-52.1	15.4	6.04e-01	0	26	0	611844096	69	4417
2026-01-13 14:08:03.09	296.86	14.62	-50.4	-52.1	15.4	6.04e-01	0	26	0	613941248	69	4418
2026-01-13 14:08:04.09	297.09	14.60	-50.4	-52.2	15.4	6.04e-01	0	26	0	616038400	69	4452
2026-01-13 14:08:05.09	297.33	14.57	-50.3	-52.1	15.4	6.03e-01	0	26	0	617611264	69	4403
2026-01-13 14:08:06.09	297.56	14.54	-50.4	-52.1	15.4	6.04e-01	0	26	0	619708416	69	4434
2026-01-13 14:08:07.08	297.79	14.51	-50.4	-52.1	15.4	6.04e-01	0	26	0	621281280	69	4432
2026-01-13 14:08:08.09	298.03	14.48	-50.3	-52.0	15.4	6.02e-01	0	26	0	623378432	69	4358
2026-01-13 14:08:09.09	298.26	14.46	-50.3	-52.0	15.4	6.02e-01	0	26	0	624951296	69	4389
2026-01-13 14:08:10.09	298.50	14.43	-50.3	-52.0	15.4	6.03e-01	0	26	0	627048448	69	4387
2026-01-13 14:08:11.09	298.73	14.40	-50.4	-52.1	15.4	6.03e-01	0	26	0	629145600	69	4435
2026-01-13 14:08:12.09	298.96	14.37	-50.5	-52.3	15.3	6.01e-01	0	26	0	630718464	69	4501
2026-01-13 14:08:13.08	299.19	14.34	-50.4	-52.1	15.4	6.05e-01	0	26	0	632815616	69	4410
2026-01-13 14:08:14.08	299.42	14.31	-50.4	-52.1	15.4	6.03e-01	0	26	0	634388480	69	4413
2026-01-13 14:08:15.08	299.65	14.27	-50.3	-52.1	15.4	6.04e-01	0	26	0	636485632	69	4409
2026-01-13 14:08:16.08	299.88	14.24	-50.4	-52.1	15.4	6.03e-01	0	26	0	638058496	69	4428
2026-01-13 14:08:17.07	300.11	14.21	-50.3	-52.1	15.4	6.03e-01	0	26	0	640155648	69	4406
2026-01-13 14:08:18.07	300.34	14.18	-50.4	-52.1	15.4	6.03e-01	0	26	0	641728512	69	4439
2026-01-13 14:08:19.06	300.56	14.15	-50.3	-52.1	15.4	6.03e-01	0	26	0	643825664	69	4405
2026-01-13 14:08:20.07	300.79	14.11	-50.3	-52.0	15.4	6.03e-01	0	26	0	645922816	69	4368
2026-01-13 14:08:21.06	301.02	14.08	-50.4	-52.1	15.4	6.02e-01	0	26	0	647495680	69	4414
2026-01-13 14:08:22.06	301.24	14.05	-50.4	-52.2	15.4	6.03e-01	0	26	0	649592832	69	4465
2026-01-13 14:08:23.05	301.47	14.01	-50.5	-52.2	15.3	6.02e-01	0	26	0	651165696	69	4489
2026-01-13 14:08:24.05	301.69	13.98	-50.4	-52.1	15.4	6.05e-01	0	26	0	653262848	69	4438
2026-01-13 14:08:25.05	301.92	13.95	-50.3	-52.1	15.4	6.04e-01	0	26	0	654835712	69	4410
2026-01-13 14:08:26.05	302.14	13.91	-50.4	-52.2	15.4	6.04e-01	0	26	0	656932864	69	4452
2026-01-13 14:08:27.05	302.37	13.88	-50.3	-52.0	15.4	6.04e-01	0	26	0	659030016	69	4382
2026-01-13 14:08:28.05	302.59	13.84	-50.3	-52.1	15.4	6.03e-01	0	26	0	660602880	69	4395
2026-01-13 14:08:29.04	302.81	13.80	-50.4	-52.1	15.4	6.02e-01	0	26	0	662700032	69	4429
2026-01-13 14:08:30.04	303.03	13.77	-50.4	-52.1	15.4	6.04e-01	0	26	0	664272896	69	4428
2026-01-13 14:08:31.04	303.25	13.73	-50.4	-52.1	15.4	6.02e-01	0	26	0	666370048	69	4433
2026-01-13 14:08:32.04	303.48	13.70	-50.4	-52.1	15.4	6.02e-01	0	26	0	667942912	69	4432
2026-01-13 14:08:33.04	303.70	13.66	-50.5	-52.3	15.3	6.03e-01	0	26	0	670040064	69	4505
2026-01-13 14:08:34.04	303.92	13.62	-50.5	-52.3	15.3	6.02e-01	0	26	0	672137216	69	4531
2026-01-13 14:08:35.03	304.13	13.58	-50.4	-52.2	15.3	6.03e-01	0	26	0	673710080	69	4467
2026-01-13 14:08:36.02	304.35	13.55	-50.4	-52.2	15.3	6.03e-01	0	26	0	675807232	69	4449
2026-01-13 14:08:37.02	304.57	13.51	-50.5	-52.2	15.3	6.04e-01	0	26	0	677380096	69	4493
2026-01-13 14:08:38.02	304.79	13.47	-50.4	-52.2	15.3	6.03e-01	0	26	0	679477248	69	4468
2026-01-13 14:08:39.02	305.00	13.43	-50.4	-52.2	15.3	6.02e-01	0	26	0	681050112	69	4465
2026-01-13 14:08:40.02	305.22	13.39	-50.5	-52.3	15.3	6.04e-01	0	26	0	683147264	69	4536
2026-01-13 14:08:41.01	305.43	13.35	-50.5	-52.2	15.3	6.01e-01	0	26	0	684720128	69	4490
2026-01-13 14:08:42.00	305.65	13.31	-50.5	-52.2	15.3	6.03e-01	0	26	0	686817280	69	4485
2026-01-13 14:08:43.01	305.86	13.27	-50.5	-52.2	15.3	6.04e-01	0	26	0	688914432	69	4487
2026-01-13 14:08:44.00	306.07	13.23	-50.4	-52.2	15.3	6.02e-01	0	26	0	690487296	69	4465
2026-01-13 14:08:44.99	306.29	13.19	-50.5	-52.2	15.3	6.03e-01	0	26	0	692584448	69	4488
2026-01-13 14:08:45.99	306.50	13.15	-50.3	-52.1	15.4	6.02e-01	0	26	0	694157312	69	4409
2026-01-13 14:08:46.98	306.71	13.11	-50.3	-52.0	15.4	6.05e-01	0	26	0	696254464	69	4355
2026-01-13 14:08:47.98	306.92	13.07	-50.3	-52.1	15.4	6.02e-01	0	26	0	698351616	69	4407
2026-01-13 14:08:48.98	307.13	13.03	-50.4	-52.2	15.4	6.03e-01	0	26	0	699924480	69	4453
2026-01-13 14:08:49.98	307.34	12.99	-50.5	-52.3	15.3	6.04e-01	0	26	0	702021632	69	4513
2026-01-13 14:08:50.98	307.55	12.94	-50.5	-52.2	15.3	6.03e-01	0	26	0	703594496	69	4485
2026-01-13 14:08:51.98	307.76	12.90	-50.4	-52.2	15.4	6.02e-01	0	26	0	705691648	69	4455
2026-01-13 14:08:52.98	307.97	12.86	-50.4	-52.1	15.4	6.04e-01	0	26	0	707264512	69	4434
2026-01-13 14:08:53.97	308.17	12.82	-50.4	-52.1	15.4	6.02e-01	0	26	0	709361664	69	4429
2026-01-13 14:08:54.96	308.38	12.77	-50.4	-52.2	15.3	6.03e-01	0	26	0	710934528	69	4463
2026-01-13 14:08:55.95	308.58	12.73	-50.4	-52.2	15.3	6.03e-01	0	26	0	713031680	69	4484
2026-01-13 14:08:56.95	308.79	12.69	-50.4	-52.2	15.3	6.03e-01	0	26	0	715128832	69	4449
2026-01-13 14:08:57.95	308.99	12.64	-50.5	-52.2	15.3	6.03e-01	0	26	0	716701696	69	4486
2026-01-13 14:08:58.95	309.20	12.60	-50.3	-52.1	15.3	6.04e-01	0	26	0	718798848	69	4402
2026-01-13 14:08:59.95	309.40	12.56	-50.4	-52.2	15.3	6.04e-01	0	26	0	720371712	69	4447
2026-01-13 14:09:00.95	309.61	12.51	-50.4	-52.2	15.4	6.03e-01	0	26	0	722468864	69	4447
2026-01-13 14:09:01.95	309.81	12.47	-50.4	-52.1	15.4	6.05e-01	0	26	0	724041728	69	4428
2026-01-13 14:09:02.96	310.01	12.42	-50.4	-52.2	15.3	6.02e-01	0	26	0	726138880	69	4475
2026-01-13 14:09:03.96	310.21	12.38	-50.4	-52.2	15.3	6.02e-01	0	26	0	728236032	69	4483
2026-01-13 14:09:04.95	310.41	12.33	-50.4	-52.2	15.4	6.02e-01	0	26	0	729808896	69	4452
2026-01-13 14:09:05.95	310.61	12.29	-50.4	-52.1	15.4	6.05e-01	0	26	0	731906048	69	4428
2026-01-13 14:09:06.95	310.81	12.24	-50.4	-52.2	15.4	6.04e-01	0	26	0	733478912	69	4442
2026-01-13 14:09:07.95	311.01	12.19	-50.4	-52.2	15.4	6.04e-01	0	26	0	735576064	69	4449
2026-01-13 14:09:08.95	311.21	12.15	-50.4	-52.2	15.3	6.02e-01	0	26	0	737148928	69	4464
2026-01-13 14:09:09.95	311.41	12.10	-50.4	-52.2	15.3	6.02e-01	0	26	0	739246080	69	4486
2026-01-13 14:09:10.94	311.60	12.06	-50.4	-52.2	15.3	6.03e-01	0	26	0	741343232	69	4457
2026-01-13 14:09:11.94	311.80	12.01	-50.5	-52.3	15.3	6.04e-01	0	26	0	742916096	69	4499
2026-01-13 14:09:12.94	311.99	11.96	-50.3	-52.1	15.3	6.02e-01	0	26	0	745013248	69	4418
2026-01-13 14:09:13.94	312.19	11.92	-50.3	-52.0	15.4	6.02e-01	0	26	0	746586112	69	4369
2026-01-13 14:09:14.94	312.38	11.87	-50.4	-52.1	15.4	6.04e-01	0	26	0	748683264	69	4436
2026-01-13 14:09:15.95	312.58	11.82	-50.4	-52.2	15.3	6.04e-01	0	26	0	750256128	69	4476
2026-01-13 14:09:16.94	312.77	11.77	-50.4	-52.2	15.3	6.02e-01	0	26	0	752353280	69	4488
2026-01-13 14:09:17.95	312.96	11.73	-50.4	-52.2	15.3	6.03e-01	0	26	0	754450432	69	4485
2026-01-13 14:09:18.95	313.15	11.68	-50.4	-52.2	15.3	6.02e-01	0	26	0	756023296	69	4479
2026-01-13 14:09:19.95	313.35	11.63	-50.4	-52.2	15.3	6.01e-01	0	26	0	758120448	69	4477
2026-01-13 14:09:20.94	313.53	11.58	-50.5	-52.3	15.3	6.03e-01	0	26	0	759693312	69	4495
2026-01-13 14:09:21.94	313.72	11.53	-50.4	-52.2	15.4	6.03e-01	0	26	0	761790464	69	4451
2026-01-13 14:09:22.94	313.91	11.49	-50.4	-52.2	15.3	6.03e-01	0	26	0	763887616	69	4466
2026-01-13 14:09:23.95	314.10	11.44	-50.5	-52.3	15.3	6.05e-01	0	26	0	765460480	69	4541
2026-01-13 14:09:24.95	314.29	11.39	-50.4	-52.2	15.3	6.02e-01	0	26	0	767557632	69	4477
2026-01-13 14:09:25.96	314.48	11.34	-50.4	-52.2	15.3	6.04e-01	0	26	0	769130496	69	4490
2026-01-13 14:09:26.96	314.67	11.29	-50.4	-52.2	15.3	6.04e-01	0	26	0	771227648	69	4462
2026-01-13 14:09:27.96	314.85	11.24	-50.4	-52.2	15.3	6.03e-01	0	26	0	772800512	69	4493
2026-01-13 14:09:28.96	315.04	11.19	-50.4	-52.2	15.3	6.04e-01	0	26	0	774897664	69	4479
2026-01-13 14:09:29.96	315.22	11.14	-50.5	-52.3	15.3	6.04e-01	0	26	0	776994816	69	4537
2026-01-13 14:09:30.95	315.40	11.09	-50.6	-52.4	15.3	6.03e-01	0	26	0	778567680	69	4574
2026-01-13 14:09:31.95	315.59	11.04	-50.5	-52.3	15.3	6.03e-01	0	26	0	780664832	69	4525
2026-01-13 14:09:32.95	315.77	10.99	-50.5	-52.3	15.3	6.02e-01	0	26	0	782237696	69	4536
2026-01-13 14:09:33.94	315.95	10.94	-50.5	-52.3	15.3	6.03e-01	0	26	0	784334848	69	4543
2026-01-13 14:09:34.95	316.13	10.89	-50.6	-52.4	15.3	6.03e-01	0	26	0	785907712	69	4589
2026-01-13 14:09:35.95	316.31	10.84	-50.6	-52.4	15.3	6.03e-01	0	26	0	788004864	69	4576
2026-01-13 14:09:36.94	316.49	10.79	-50.5	-52.4	15.3	6.03e-01	0	26	0	790102016	69	4556
2026-01-13 14:09:37.93	316.67	10.74	-50.6	-52.5	15.3	6.04e-01	0	26	0	791674880	69	4611
2026-01-13 14:09:38.92	316.84	10.69	-50.5	-52.3	15.3	6.04e-01	0	26	0	793772032	69	4528
2026-01-13 14:09:39.92	317.02	10.64	-50.5	-52.3	15.3	6.03e-01	0	26	0	795344896	69	4542
2026-01-13 14:09:40.92	317.20	10.59	-50.5	-52.4	15.3	6.04e-01	0	26	0	797442048	69	4550
2026-01-13 14:09:41.92	317.37	10.54	-50.6	-52.4	15.3	6.04e-01	0	26	0	799014912	69	4581
2026-01-13 14:09:42.92	317.55	10.49	-50.6	-52.5	15.2	6.03e-01	0	26	0	801112064	69	4616
2026-01-13 14:09:43.92	317.73	10.44	-50.6	-52.4	15.3	6.05e-01	0	26	0	802684928	69	4581
2026-01-13 14:09:44.91	317.90	10.39	-50.7	-52.5	15.2	6.01e-01	0	26	0	804782080	69	4640
2026-01-13 14:09:45.91	318.07	10.33	-50.7	-52.5	15.2	6.02e-01	0	26	0	806879232	69	4637
2026-01-13 14:09:46.90	318.24	10.28	-50.7	-52.5	15.2	6.02e-01	0	26	0	808452096	69	4645
2026-01-13 14:09:47.90	318.42	10.23	-50.6	-52.5	15.2	6.01e-01	0	26	0	810549248	69	4612
2026-01-13 14:09:48.89	318.59	10.18	-50.6	-52.4	15.3	6.03e-01	0	26	0	812122112	69	4592
2026-01-13 14:09:49.89	318.76	10.13	-50.6	-52.4	15.3	6.04e-01	0	26	0	814219264	69	4568
2026-01-13 14:09:50.89	318.93	10.08	-50.5	-52.3	15.3	6.03e-01	0	26	0	815792128	69	4528
2026-01-13 14:09:51.90	319.10	10.02	-50.5	-52.3	15.3	6.05e-01	0	26	0	817889280	69	4525
2026-01-13 14:09:52.90	319.27	9.97	-50.5	-52.3	15.3	6.02e-01	0	26	0	819986432	69	4542
2026-01-13 14:09:53.90	319.44	9.92	-50.6	-52.4	15.3	6.04e-01	0	26	0	821559296	69	4592
2026-01-13 14:09:54.90	319.61	9.87	-50.6	-52.4	15.3	6.05e-01	0	26	0	823656448	69	4594
2026-01-13 14:09:55.90	319.78	9.81	-50.7	-52.6	15.2	6.02e-01	0	26	0	825229312	69	4660
2026-01-13 14:09:56.90	319.94	9.76	-50.8	-52.6	15.2	6.04e-01	0	26	0	827326464	69	4700
2026-01-13 14:09:57.90	320.11	9.71	-50.8	-52.6	15.2	6.02e-01	0	26	0	829423616	69	4704
2026-01-13 14:09:58.90	320.28	9.66	-50.6	-52.5	15.3	6.04e-01	0	26	0	830996480	69	4614
2026-01-13 14:09:59.89	320.44	9.61	-50.7	-52.6	15.2	6.05e-01	0	26	0	833093632	69	4677
2026-01-13 14:10:00.89	320.60	9.55	-50.7	-52.5	15.2	6.03e-01	0	26	0	834666496	69	4648
2026-01-13 14:10:01.88	320.77	9.50	-50.8	-52.7	15.2	6.03e-01	0	26	0	836763648	69	4718
2026-01-13 14:10:02.88	320.93	9.45	-50.7	-52.6	15.2	6.03e-01	0	26	0	838336512	69	4697
2026-01-13 14:10:03.88	321.09	9.40	-50.8	-52.7	15.2	6.03e-01	0	26	0	840433664	69	4726
2026-01-13 14:10:04.89	321.26	9.34	-50.8	-52.7	15.2	6.05e-01	0	26	0	842530816	69	4728
2026-01-13 14:10:05.89	321.42	9.29	-50.8	-52.7	15.2	6.04e-01	0	27	0	844103680	69	4754
2026-01-13 14:10:06.88	321.58	9.24	-50.8	-52.7	15.2	6.03e-01	0	26	0	846200832	69	4712
2026-01-13 14:10:07.88	321.74	9.18	-50.7	-52.6	15.2	6.03e-01	0	26	0	847773696	69	4653
2026-01-13 14:10:08.88	321.90	9.13	-50.7	-52.6	15.2	6.05e-01	0	26	0	849870848	69	4697
2026-01-13 14:10:09.88	322.05	9.08	-50.7	-52.6	15.2	6.02e-01	0	26	0	851443712	69	4680
2026-01-13 14:10:10.87	322.21	9.02	-50.7	-52.6	15.2	6.03e-01	0	26	0	853540864	69	4678
2026-01-13 14:10:11.87	322.37	8.97	-50.8	-52.7	15.2	6.02e-01	0	26	0	855113728	69	4721
2026-01-13 14:10:12.86	322.52	8.92	-50.8	-52.7	15.2	6.05e-01	0	26	0	857210880	69	4752
2026-01-13 14:10:13.86	322.68	8.86	-50.8	-52.7	15.2	6.02e-01	0	26	0	859308032	69	4732
2026-01-13 14:10:14.86	322.84	8.81	-50.9	-52.8	15.2	6.04e-01	0	26	0	860880896	69	4812
2026-01-13 14:10:15.86	322.99	8.76	-50.8	-52.7	15.2	6.04e-01	0	26	0	862978048	69	4755
2026-01-13 14:10:16.85	323.15	8.70	-50.8	-52.7	15.2	6.03e-01	0	26	0	864550912	69	4744
2026-01-13 14:10:17.85	323.30	8.65	-50.9	-52.8	15.2	6.02e-01	0	26	0	866648064	69	4791
2026-01-13 14:10:18.84	323.45	8.60	-50.9	-52.9	15.1	6.01e-01	0	26	0	868220928	69	4828
2026-01-13 14:10:19.84	323.61	8.54	-50.9	-52.9	15.1	6.01e-01	0	26	0	870318080	69	4851
2026-01-13 14:10:20.84	323.76	8.49	-51.0	-52.9	15.1	6.03e-01	0	26	0	872415232	69	4870
2026-01-13 14:10:21.85	323.91	8.44	-50.9	-52.8	15.1	6.03e-01	0	26	0	873988096	69	4797
2026-01-13 14:10:22.86	324.06	8.38	-51.0	-52.9	15.1	6.03e-01	0	26	0	876085248	69	4851
2026-01-13 14:10:23.85	324.21	8.33	-50.9	-52.9	15.1	6.04e-01	0	26	0	877658112	69	4822
2026-01-13 14:10:24.86	324.36	8.27	-50.8	-52.8	15.1	6.02e-01	0	26	0	879755264	69	4774
2026-01-13 14:10:25.86	324.51	8.22	-50.9	-52.9	15.1	6.03e-01	0	26	0	881328128	69	4837
2026-01-13 14:10:26.86	324.66	8.17	-51.0	-52.9	15.1	6.02e-01	0	26	0	883425280	69	4859
2026-01-13 14:10:27.85	324.81	8.11	-50.9	-52.9	15.1	6.03e-01	0	26	0	885522432	69	4836
2026-01-13 14:10:28.85	324.96	8.06	-51.0	-52.9	15.1	6.02e-01	0	26	0	887095296	69	4863
2026-01-13 14:10:29.85	325.10	8.01	-50.8	-52.8	15.1	6.03e-01	0	26	0	889192448	69	4772
2026-01-13 14:10:30.85	325.25	7.95	-50.9	-52.8	15.1	6.02e-01	0	26	0	890765312	69	4804
2026-01-13 14:10:31.85	325.40	7.90	-51.0	-53.0	15.1	6.02e-01	0	26	0	892862464	69	4898
2026-01-13 14:10:32.85	325.54	7.84	-51.0	-53.0	15.1	6.02e-01	0	26	0	894435328	69	4919
2026-01-13 14:10:33.85	325.69	7.79	-51.0	-53.0	15.1	6.04e-01	0	27	0	896532480	69	4884
2026-01-13 14:10:34.84	325.83	7.74	-51.1	-53.1	15.1	6.03e-01	0	26	0	898629632	69	4944
2026-01-13 14:10:35.84	325.97	7.68	-51.2	-53.2	15.1	6.04e-01	0	26	0	900202496	70	4725
2026-01-13 14:10:36.84	326.12	7.63	-51.2	-53.3	15.1	6.05e-01	0	26	0	902299648	70	4777
2026-01-13 14:10:37.84	326.26	7.57	-51.3	-53.3	15.1	6.01e-01	0	26	0	903872512	70	4804
2026-01-13 14:10:38.84	326.40	7.52	-51.1	-53.1	15.2	6.04e-01	0	26	0	905969664	70	4684
2026-01-13 14:10:39.84	326.54	7.47	-51.2	-53.2	15.1	6.04e-01	0	26	0	908066816	70	4719
2026-01-13 14:10:40.84	326.68	7.41	-51.2	-53.3	15.1	6.03e-01	0	26	0	909639680	70	4775
2026-01-13 14:10:41.83	326.82	7.36	-51.3	-53.3	15.1	6.04e-01	0	26	0	911736832	70	4803
2026-01-13 14:10:42.83	326.96	7.30	-51.2	-53.3	15.1	6.03e-01	0	26	0	913309696	70	4773
2026-01-13 14:10:43.83	327.10	7.25	-51.2	-53.2	15.1	6.01e-01	0	26	0	915406848	70	4723
2026-01-13 14:10:44.84	327.24	7.20	-51.2	-53.2	15.1	6.02e-01	0	26	0	916979712	70	4754
2026-01-13 14:10:45.84	327.38	7.14	-51.1	-53.1	15.2	6.03e-01	0	26	0	919076864	70	4688
2026-01-13 14:10:46.84	327.52	7.09	-51.2	-53.2	15.1	6.03e-01	0	26	0	921174016	70	4725
2026-01-13 14:10:47.85	327.66	7.03	-51.2	-53.3	15.1	6.04e-01	0	26	0	922746880	70	4768
2026-01-13 14:10:48.84	327.79	6.98	-51.3	-53.4	15.1	6.03e-01	0	26	0	924844032	70	4841
2026-01-13 14:10:49.84	327.93	6.92	-51.3	-53.4	15.1	6.03e-01	0	26	0	926416896	70	4832
2026-01-13 14:10:50.83	328.06	6.87	-51.3	-53.4	15.1	6.04e-01	0	26	0	928514048	70	4859
2026-01-13 14:10:51.83	328.20	6.82	-51.4	-53.5	15.1	6.02e-01	0	26	0	930086912	70	4871
2026-01-13 14:10:52.84	328.33	6.76	-51.3	-53.4	15.1	6.04e-01	0	26	0	932184064	70	4854
2026-01-13 14:10:53.83	328.47	6.71	-51.4	-53.5	15.0	6.05e-01	0	26	0	934281216	70	4922
2026-01-13 14:10:54.84	328.60	6.65	-51.5	-53.7	15.0	6.03e-01	0	26	0	935854080	70	4987
2026-01-13 14:10:55.83	328.73	6.60	-51.6	-53.8	15.0	6.01e-01	0	26	0	937951232	70	5053
2026-01-13 14:10:56.83	328.87	6.55	-51.5	-53.6	15.1	6.03e-01	0	26	0	939524096	71	4683
2026-01-13 14:10:57.82	329.00	6.49	-51.5	-53.6	15.1	6.05e-01	0	26	0	941621248	71	4682
2026-01-13 14:10:58.83	329.13	6.44	-51.6	-53.8	15.1	6.04e-01	0	26	0	943194112	71	4761
2026-01-13 14:10:59.83	329.26	6.38	-51.5	-53.6	15.1	6.05e-01	0	26	0	945291264	71	4665
2026-01-13 14:11:00.84	329.39	6.33	-51.5	-53.6	15.1	6.03e-01	0	26	0	947388416	71	4693
2026-01-13 14:11:01.84	329.52	6.28	-51.4	-53.6	15.2	6.05e-01	0	26	0	948961280	71	4655
2026-01-13 14:11:02.84	329.65	6.22	-51.4	-53.5	15.2	6.03e-01	0	26	0	951058432	71	4631
2026-01-13 14:11:03.84	329.78	6.17	-51.4	-53.5	15.2	6.04e-01	0	26	0	952631296	71	4630
2026-01-13 14:11:04.83	329.91	6.11	-51.5	-53.7	15.1	6.01e-01	0	26	0	954728448	71	4720
2026-01-13 14:11:05.84	330.04	6.06	-51.4	-53.5	15.1	6.03e-01	0	26	0	956825600	71	4634
2026-01-13 14:11:06.84	330.16	6.00	-51.6	-53.8	15.1	6.01e-01	0	26	0	958398464	71	4794
2026-01-13 14:11:07.84	330.29	5.95	-51.7	-53.9	15.0	6.00e-01	0	26	0	960495616	71	4840
2026-01-13 14:11:08.84	330.42	5.90	-51.6	-53.8	15.0	6.04e-01	0	26	0	962068480	71	4805
2026-01-13 14:11:09.84	330.54	5.84	-51.6	-53.7	15.1	6.03e-01	0	26	0	964165632	71	4742
2026-01-13 14:11:10.84	330.67	5.79	-51.7	-53.9	15.0	6.04e-01	0	26	0	965738496	71	4821
2026-01-13 14:11:11.84	330.79	5.74	-51.6	-53.8	15.1	6.03e-01	0	27	0	967835648	71	4789
2026-01-13 14:11:12.84	330.92	5.68	-51.6	-53.8	15.1	6.02e-01	0	26	0	969932800	71	4772
2026-01-13 14:11:13.85	331.04	5.63	-51.6	-53.8	15.1	6.02e-01	0	26	0	971505664	71	4770
2026-01-13 14:11:14.85	331.17	5.57	-51.6	-53.8	15.1	6.02e-01	0	26	0	973602816	71	4769
2026-01-13 14:11:15.85	331.29	5.52	-51.6	-53.8	15.1	6.03e-01	0	26	0	975175680	71	4780
2026-01-13 14:11:16.85	331.41	5.47	-51.5	-53.7	15.1	6.03e-01	0	26	0	977272832	71	4726
2026-01-13 14:11:17.85	331.54	5.41	-51.4	-53.5	15.2	6.05e-01	0	26	0	978845696	71	4635
2026-01-13 14:11:18.85	331.66	5.36	-51.5	-53.7	15.1	6.04e-01	0	26	0	980942848	71	4747
2026-01-13 14:11:19.85	331.78	5.30	-51.6	-53.8	15.1	6.03e-01	0	26	0	983040000	71	4797
2026-01-13 14:11:20.85	331.90	5.25	-51.7	-53.9	15.0	6.01e-01	0	26	0	984612864	71	4839
2026-01-13 14:11:21.85	332.02	5.20	-51.7	-53.9	15.0	6.02e-01	0	26	0	986710016	71	4848
2026-01-13 14:11:22.85	332.14	5.14	-51.7	-54.0	15.0	6.02e-01	0	26	0	988282880	71	4891
2026-01-13 14:11:23.85	332.26	5.09	-51.6	-53.9	15.0	6.02e-01	0	26	0	990380032	71	4846
2026-01-13 14:11:24.85	332.38	5.04	-51.7	-53.9	15.0	6.04e-01	0	26	0	991952896	71	4849
2026-01-13 14:11:25.85	332.50	4.98	-56.8	-63.7	11.4	6.07e-01	0	26	0	994050048	81	8373
2026-01-13 14:11:26.85	332.61	4.93	-58.7	-77.9	3.9	7.50e-01	0	26	104	994574336	85	34395
2026-01-13 14:11:27.85	332.73	4.88	-59.0	-78.3	3.8	7.44e-01	0	26	104	994574336	85	35784
2026-01-13 14:11:28.86	332.85	4.82	-59.2	-78.8	3.8	7.44e-01	0	27	104	994574336	86	35728
2026-01-13 14:11:29.85	332.97	4.77	-59.3	-78.7	3.8	7.46e-01	0	26	104	994574336	86	35365
2026-01-13 14:11:30.85	333.08	4.71	-59.4	-78.8	3.8	7.48e-01	0	26	104	994574336	86	35887
2026-01-13 14:11:31.85	333.20	4.66	-59.5	-78.9	3.8	7.48e-01	0	26	104	994574336	86	36277
2026-01-13 14:11:32.84	333.31	4.61	-59.6	-79.0	3.8	7.46e-01	0	27	104	994574336	86	36761
2026-01-13 14:11:33.84	333.43	4.56	-59.7	-79.1	3.8	7.47e-01	0	26	104	994574336	87	35026
2026-01-13 14:11:34.83	333.54	4.50	-59.7	-79.1	3.8	7.49e-01	0	26	104	994574336	87	35144
2026-01-13 14:11:35.84	333.65	4.45	-59.8	-79.2	3.8	7.46e-01	0	26	104	994574336	87	35294
2026-01-13 14:11:36.84	333.77	4.40	-59.8	-79.2	3.8	7.44e-01	0	26	104	994574336	87	35449
2026-01-13 14:11:37.84	333.88	4.34	-59.8	-79.2	3.8	7.46e-01	0	26	104	994574336	87	35579
2026-01-13 14:11:38.84	333.99	4.29	-59.9	-79.3	3.8	7.45e-01	0	26	104	994574336	87	35738
2026-01-13 14:11:39.84	334.11	4.24	-59.9	-79.3	3.8	7.47e-01	0	26	104	994574336	87	35891
2026-01-13 14:11:40.84	334.22	4.18	-59.9	-79.3	3.8	7.48e-01	0	27	104	994574336	87	35815
2026-01-13 14:11:41.84	334.33	4.13	-59.9	-79.3	3.8	7.48e-01	0	26	104	994574336	87	35709
2026-01-13 14:11:42.84	334.44	4.08	-59.9	-79.3	3.8	7.44e-01	0	27	104	994574336	87	35746
2026-01-13 14:11:43.83	334.55	4.02	-59.9	-79.3	3.8	7.46e-01	0	26	104	994574336	87	35795
2026-01-13 14:11:44.84	334.66	3.97	-59.9	-79.3	3.8	7.47e-01	0	27	104	994574336	87	35713
2026-01-13 14:11:45.83	334.77	3.92	-59.8	-79.2	3.8	7.47e-01	0	26	104	994574336	87	35655
2026-01-13 14:11:46.83	334.88	3.87	-59.8	-79.2	3.8	7.46e-01	0	26	104	994574336	87	35607
2026-01-13 14:11:47.83	334.99	3.81	-59.8	-79.2	3.8	7.46e-01	0	26	104	994574336	87	35553
2026-01-13 14:11:48.82	335.10	3.76	-59.8	-79.1	3.8	7.45e-01	0	26	104	994574336	87	35251
2026-01-13 14:11:49.82	335.20	3.71	-59.7	-79.1	3.8	7.45e-01	0	26	104	994574336	87	35190
2026-01-13 14:11:50.82	335.31	3.65	-59.7	-79.1	3.8	7.45e-01	0	26	104	994574336	87	35178
2026-01-13 14:11:51.82	335.42	3.60	-59.7	-79.1	3.8	7.50e-01	0	27	104	994574336	87	35164
2026-01-13 14:11:52.82	335.53	3.55	-59.7	-79.1	3.8	7.46e-01	0	27	104	994574336	87	35065
2026-01-13 14:11:53.82	335.63	3.50	-59.7	-79.1	3.8	7.50e-01	0	26	104	994574336	87	35059
2026-01-13 14:11:54.82	335.74	3.44	-59.7	-79.1	3.8	7.48e-01	0	27	104	994574336	87	34960
2026-01-13 14:11:55.82	335.84	3.39	-59.7	-79.1	3.8	7.46e-01	0	27	104	994574336	87	34998
2026-01-13 14:11:56.81	335.95	3.34	-59.7	-79.1	3.8	7.47e-01	0	27	104	994574336	87	35014
2026-01-13 14:11:57.80	336.05	3.29	-59.7	-79.1	3.8	7.44e-01	0	26	104	994574336	87	34969
2026-01-13 14:11:58.79	336.16	3.24	-59.7	-79.0	3.8	7.45e-01	0	26	104	994574336	87	34813
2026-01-13 14:11:59.80	336.26	3.18	-59.6	-79.0	3.8	7.46e-01	0	26	104	994574336	87	34831
2026-01-13 14:12:00.80	336.36	3.13	-59.7	-79.1	3.8	7.43e-01	0	26	104	994574336	87	34905
2026-01-13 14:12:01.80	336.47	3.08	-59.6	-79.0	3.8	7.44e-01	0	26	104	994574336	87	34835
2026-01-13 14:12:02.80	336.57	3.03	-59.6	-79.0	3.8	7.46e-01	0	27	104	994574336	87	34728
2026-01-13 14:12:03.80	336.67	2.97	-59.6	-79.0	3.8	7.50e-01	0	26	104	994574336	87	34791
2026-01-13 14:12:04.80	336.78	2.92	-59.6	-79.0	3.8	7.43e-01	0	26	104	994574336	87	34801
2026-01-13 14:12:05.80	336.88	2.87	-59.6	-79.0	3.8	7.45e-01	0	26	104	994574336	87	34697
2026-01-13 14:12:06.80	336.98	2.82	-59.6	-79.0	3.8	7.42e-01	0	27	104	994574336	87	34627
2026-01-13 14:12:07.80	337.08	2.76	-59.6	-79.0	3.8	7.44e-01	0	26	104	994574336	87	34571
2026-01-13 14:12:08.80	337.18	2.71	-59.6	-79.0	3.8	7.43e-01	0	26	104	994574336	87	34575
2026-01-13 14:12:09.80	337.28	2.66	-59.6	-79.0	3.8	7.44e-01	0	27	104	994574336	87	34693
2026-01-13 14:12:10.80	337.38	2.61	-59.6	-79.0	3.8	7.46e-01	0	27	104	994574336	87	34675
2026-01-13 14:12:11.81	337.48	2.56	-59.6	-79.0	3.8	7.46e-01	0	26	104	994574336	87	34774
2026-01-13 14:12:12.81	337.58	2.50	-59.6	-79.0	3.8	7.46e-01	0	27	104	994574336	87	34586
2026-01-13 14:12:13.81	337.68	2.45	-59.6	-79.0	3.8	7.46e-01	0	27	104	994574336	87	34617
2026-01-13 14:12:14.81	337.78	2.40	-59.6	-79.0	3.8	7.46e-01	0	26	104	994574336	87	34661
2026-01-13 14:12:15.81	337.88	2.35	-59.6	-79.0	3.8	7.48e-01	0	27	104	994574336	87	34695
2026-01-13 14:12:16.81	337.97	2.30	-59.6	-79.0	3.8	7.45e-01	0	27	104	994574336	87	34736
2026-01-13 14:12:17.81	338.07	2.25	-59.6	-79.0	3.8	7.46e-01	0	27	104	994574336	87	34611
2026-01-13 14:12:18.81	338.17	2.19	-59.6	-79.0	3.8	7.44e-01	0	27	104	994574336	87	34626
2026-01-13 14:12:19.81	338.27	2.14	-59.6	-79.0	3.8	7.45e-01	0	27	104	994574336	87	34690
2026-01-13 14:12:20.81	338.36	2.09	-59.6	-79.0	3.8	7.47e-01	0	27	104	994574336	87	34557
2026-01-13 14:12:21.81	338.46	2.04	-59.6	-79.0	3.8	7.46e-01	0	27	104	994574336	87	34522
2026-01-13 14:12:22.81	338.55	1.99	-59.6	-79.0	3.8	7.48e-01	0	27	104	994574336	87	34645
2026-01-13 14:12:23.80	338.65	1.94	-59.6	-79.0	3.8	7.46e-01	0	26	104	994574336	87	34615

#Closed at: 2026-01-13 14:12:24
#Recorded file [994 MB]: D:/lorett/data/31004_260113_170149.dat