passes_logs/2026/01/13/R3.2S_Murmansk/R3.2S_Murmansk__20260113_205817_KANOPUS-V_5_rec.log

#Pass ID: 20260113_205817_KANOPUS-V 5
#Satellite: KANOPUS-V 5
#Configuration: KANOPUS-V_8320
#almurnet v.1.7.20251203
#Start time: 2026-01-13 20:58:17

#Version: 2.2.20231116
#Station: R3.2S_Murmansk
#Location: 33.079688 lon 68.888172 lat
#TLE: 1 43876U 18111A   26013.65992293  .00002361  00000+0  10210-3 0  9995
#TLE: 2 43876  97.3684 282.1984 0001772  87.0401 273.1039 15.23431305391261

#Time	Az	El	Level	Level2	SNR	BER	BlckErr	Temp	State	Recorded	gain1	gain2
2026-01-13 20:58:17.72	21.88	2.03	-59.0	-68.7	3.8	7.46e-01	0	26	0	0	82	10877
2026-01-13 20:58:18.70	21.95	2.09	-59.0	-68.7	3.8	7.47e-01	0	26	104	0	82	10843
2026-01-13 20:58:19.67	22.01	2.16	-59.0	-68.7	3.8	7.45e-01	0	26	104	0	82	10883
2026-01-13 20:58:20.65	22.08	2.22	-59.0	-68.7	3.8	7.46e-01	0	26	104	0	82	10840
2026-01-13 20:58:21.62	22.15	2.28	-59.0	-68.7	3.8	7.46e-01	0	26	104	0	82	10899
2026-01-13 20:58:22.60	22.22	2.35	-59.0	-68.7	3.8	7.46e-01	0	26	104	0	82	10872
2026-01-13 20:58:23.57	22.28	2.41	-59.0	-68.7	3.8	7.44e-01	0	26	104	0	82	10844
2026-01-13 20:58:24.54	22.35	2.48	-59.0	-68.7	3.8	7.46e-01	0	26	104	0	82	10856
2026-01-13 20:58:25.52	22.42	2.54	-59.0	-68.7	3.8	7.47e-01	0	26	104	0	82	10882
2026-01-13 20:58:26.49	22.49	2.61	-59.0	-68.7	3.8	7.46e-01	0	26	104	0	82	10882
2026-01-13 20:58:27.46	22.56	2.67	-59.0	-68.7	3.8	7.45e-01	0	26	104	0	82	10874
2026-01-13 20:58:28.44	22.63	2.74	-59.0	-68.7	3.8	7.46e-01	0	26	104	0	82	10899
2026-01-13 20:58:29.41	22.70	2.80	-59.0	-68.8	3.8	7.46e-01	0	26	104	0	82	10911
2026-01-13 20:58:30.37	22.77	2.86	-59.0	-68.7	3.8	7.45e-01	0	26	104	0	82	10900
2026-01-13 20:58:31.35	22.84	2.93	-59.0	-68.7	3.8	7.45e-01	0	26	104	0	82	10898
2026-01-13 20:58:32.33	22.91	3.00	-59.0	-68.7	3.8	7.46e-01	0	26	104	0	82	10887
2026-01-13 20:58:33.29	22.99	3.06	-59.0	-68.8	3.8	7.45e-01	0	26	104	0	82	10944
2026-01-13 20:58:34.26	23.06	3.13	-59.0	-68.8	3.8	7.47e-01	0	26	104	0	82	10924
2026-01-13 20:58:35.23	23.13	3.19	-59.0	-68.8	3.8	7.45e-01	0	26	104	0	82	10909
2026-01-13 20:58:36.20	23.20	3.26	-59.0	-68.8	3.8	7.46e-01	0	26	104	0	82	10912
2026-01-13 20:58:37.18	23.28	3.33	-59.0	-68.7	3.8	7.46e-01	0	26	104	0	82	10897
2026-01-13 20:58:38.15	23.35	3.39	-59.0	-68.8	3.8	7.46e-01	0	26	104	0	82	10904
2026-01-13 20:58:39.13	23.42	3.46	-59.0	-68.8	3.8	7.47e-01	0	26	104	0	82	10922
2026-01-13 20:58:40.11	23.50	3.53	-59.0	-68.8	3.8	7.45e-01	0	26	104	0	82	10913
2026-01-13 20:58:41.08	23.57	3.59	-59.0	-68.8	3.8	7.45e-01	0	26	104	0	82	10927
2026-01-13 20:58:42.05	23.65	3.66	-59.0	-68.8	3.8	7.47e-01	0	26	104	0	82	10918
2026-01-13 20:58:43.02	23.73	3.73	-59.0	-68.8	3.8	7.45e-01	0	26	104	0	82	10924
2026-01-13 20:58:44.00	23.80	3.80	-59.0	-68.7	3.8	7.46e-01	0	26	104	0	82	10903
2026-01-13 20:58:44.97	23.88	3.87	-59.0	-68.8	3.8	7.46e-01	0	26	104	0	82	10926
2026-01-13 20:58:45.94	23.96	3.93	-59.0	-68.8	3.8	7.46e-01	0	26	104	0	82	10909
2026-01-13 20:58:46.91	24.03	4.00	-59.0	-68.8	3.8	7.45e-01	0	26	104	0	82	10936
2026-01-13 20:58:47.88	24.11	4.07	-59.0	-68.8	3.8	7.46e-01	0	26	104	0	82	10914
2026-01-13 20:58:48.85	24.19	4.14	-59.0	-68.8	3.8	7.45e-01	0	26	104	0	82	10904
2026-01-13 20:58:49.83	24.27	4.21	-59.0	-68.8	3.8	7.48e-01	0	26	104	0	82	10986
2026-01-13 20:58:50.80	24.35	4.28	-59.0	-68.8	3.8	7.46e-01	0	27	104	0	82	10905
2026-01-13 20:58:51.77	24.43	4.35	-59.0	-68.8	3.8	7.45e-01	0	27	104	0	82	10932
2026-01-13 20:58:52.75	24.51	4.42	-59.0	-68.8	3.8	7.45e-01	0	26	104	0	82	10937
2026-01-13 20:58:53.73	24.59	4.49	-59.0	-68.8	3.8	7.46e-01	0	26	104	0	82	10956
2026-01-13 20:58:54.70	24.67	4.56	-59.0	-68.8	3.8	7.45e-01	0	27	104	0	82	10983
2026-01-13 20:58:55.67	24.75	4.63	-59.1	-68.8	3.8	7.45e-01	0	26	104	0	82	10953
2026-01-13 20:58:56.64	24.83	4.70	-59.1	-68.8	3.8	7.46e-01	0	27	104	0	82	10961
2026-01-13 20:58:57.61	24.92	4.77	-59.0	-68.8	3.8	7.45e-01	0	27	104	0	82	10951
2026-01-13 20:58:58.59	25.00	4.84	-59.1	-68.8	3.8	7.46e-01	0	27	104	0	82	10952
2026-01-13 20:58:59.56	25.08	4.91	-59.1	-68.8	3.8	7.46e-01	0	27	104	0	82	10993
2026-01-13 20:59:00.53	25.17	4.98	-59.1	-68.8	3.8	7.46e-01	0	27	104	0	82	10974
2026-01-13 20:59:01.50	25.25	5.05	-59.2	-69.0	3.8	7.46e-01	0	27	104	0	82	11188
2026-01-13 20:59:02.48	25.34	5.12	-59.3	-69.1	3.8	7.46e-01	0	27	104	0	82	11305
2026-01-13 20:59:03.46	25.42	5.20	-59.2	-68.9	3.8	7.45e-01	0	27	104	0	82	11120
2026-01-13 20:59:04.43	25.51	5.27	-59.0	-68.7	3.8	7.46e-01	0	27	104	0	82	10889
2026-01-13 20:59:05.40	25.60	5.34	-59.1	-68.8	3.8	7.46e-01	0	27	104	0	82	10933
2026-01-13 20:59:06.37	25.68	5.41	-59.3	-69.1	3.8	7.45e-01	0	27	104	0	82	11321
2026-01-13 20:59:07.34	25.77	5.48	-58.9	-68.7	3.8	7.48e-01	0	27	104	0	82	10866
2026-01-13 20:59:08.31	25.86	5.56	-58.8	-68.6	3.8	7.46e-01	0	27	104	0	82	10708
2026-01-13 20:59:09.28	25.95	5.63	-58.9	-68.7	3.8	7.43e-01	0	27	104	0	82	10779
2026-01-13 20:59:10.25	26.03	5.70	-59.2	-69.0	3.8	7.46e-01	0	27	104	0	82	11207
2026-01-13 20:59:11.22	26.12	5.78	-59.1	-68.8	3.8	7.45e-01	0	27	104	0	82	11026
2026-01-13 20:59:12.20	26.22	5.85	-59.5	-69.2	3.8	7.45e-01	0	27	104	0	82	11511
2026-01-13 20:59:13.18	26.31	5.93	-59.4	-69.1	3.8	7.45e-01	0	27	104	0	82	11395
2026-01-13 20:59:14.15	26.40	6.00	-59.3	-69.0	3.8	7.48e-01	0	27	104	0	82	11240
2026-01-13 20:59:15.12	26.49	6.08	-59.2	-68.9	3.8	7.47e-01	0	27	104	0	82	11121
2026-01-13 20:59:16.08	26.58	6.15	-59.5	-69.3	3.8	7.46e-01	0	27	104	0	82	11550
2026-01-13 20:59:17.05	26.67	6.22	-59.5	-69.2	3.8	7.46e-01	0	27	104	0	82	11512
2026-01-13 20:59:18.03	26.77	6.30	-59.3	-69.1	3.8	7.46e-01	0	27	104	0	82	11342
2026-01-13 20:59:19.00	26.86	6.38	-59.3	-69.0	3.8	7.46e-01	0	27	104	0	82	11258
2026-01-13 20:59:19.98	26.96	6.45	-59.5	-69.3	3.8	7.45e-01	0	27	104	0	82	11600
2026-01-13 20:59:20.95	27.05	6.53	-59.5	-69.3	3.8	7.44e-01	0	27	104	0	82	11597
2026-01-13 20:59:21.92	27.15	6.60	-59.4	-69.2	3.8	7.46e-01	0	27	104	0	82	11430
2026-01-13 20:59:22.89	27.25	6.68	-59.4	-69.1	3.8	7.44e-01	0	27	104	0	82	11355
2026-01-13 20:59:23.86	27.34	6.76	-59.6	-69.3	3.8	7.46e-01	0	27	104	0	82	11628
2026-01-13 20:59:24.84	27.44	6.83	-59.5	-69.3	3.8	7.45e-01	0	27	104	0	82	11596
2026-01-13 20:59:25.81	27.54	6.91	-59.5	-69.2	3.8	7.46e-01	0	27	104	0	82	11484
2026-01-13 20:59:26.79	27.64	6.99	-59.4	-69.2	3.8	7.45e-01	0	27	104	0	82	11501
2026-01-13 20:59:27.76	27.74	7.07	-59.6	-69.3	3.8	7.46e-01	0	27	104	0	82	11668
2026-01-13 20:59:28.73	27.84	7.15	-59.6	-69.4	3.8	7.46e-01	0	27	104	0	82	11690
2026-01-13 20:59:29.71	27.94	7.22	-59.5	-69.3	3.8	7.46e-01	0	27	104	0	82	11607
2026-01-13 20:59:30.67	28.04	7.30	-59.5	-69.3	3.8	7.45e-01	0	27	104	0	82	11557
2026-01-13 20:59:31.65	28.14	7.38	-59.6	-69.4	3.8	7.47e-01	0	27	104	0	82	11705
2026-01-13 20:59:32.62	28.25	7.46	-59.7	-69.4	3.8	7.45e-01	0	27	104	0	82	11775
2026-01-13 20:59:33.59	28.35	7.54	-59.6	-69.3	3.8	7.46e-01	0	27	104	0	82	11649
2026-01-13 20:59:34.56	28.46	7.62	-59.5	-69.3	3.8	7.47e-01	0	27	104	0	82	11635
2026-01-13 20:59:35.54	28.56	7.70	-59.6	-69.4	3.8	7.45e-01	0	27	104	0	82	11711
2026-01-13 20:59:36.52	28.67	7.78	-59.7	-69.4	3.8	7.47e-01	0	27	104	0	82	11787
2026-01-13 20:59:37.48	28.77	7.86	-59.6	-69.4	3.8	7.45e-01	0	27	104	0	82	11721
2026-01-13 20:59:38.46	28.88	7.94	-59.6	-69.3	3.8	7.46e-01	0	27	104	0	82	11660
2026-01-13 20:59:39.43	28.99	8.02	-59.6	-69.4	3.8	7.47e-01	0	27	104	0	82	11716
2026-01-13 20:59:40.41	29.10	8.10	-59.7	-69.5	3.8	7.44e-01	0	27	104	0	82	11906
2026-01-13 20:59:41.38	29.21	8.19	-59.7	-69.5	3.8	7.46e-01	0	27	104	0	82	11840
2026-01-13 20:59:42.34	29.32	8.27	-59.7	-69.4	3.8	7.47e-01	0	27	104	0	82	11733
2026-01-13 20:59:43.31	29.43	8.35	-59.6	-69.4	3.8	7.47e-01	0	27	104	0	82	11726
2026-01-13 20:59:44.28	29.54	8.43	-59.7	-69.5	3.8	7.46e-01	0	27	104	0	82	11885
2026-01-13 20:59:45.25	29.65	8.51	-59.7	-69.5	3.8	7.46e-01	0	27	104	0	82	11910
2026-01-13 20:59:46.22	29.76	8.60	-59.7	-69.4	3.8	7.45e-01	0	27	104	0	82	11763
2026-01-13 20:59:47.19	29.88	8.68	-59.6	-69.5	3.8	7.45e-01	0	27	104	0	82	11821
2026-01-13 20:59:48.16	29.99	8.76	-59.8	-69.5	3.8	7.46e-01	0	27	104	0	82	11952
2026-01-13 20:59:49.12	30.11	8.85	-59.8	-69.5	3.8	7.46e-01	0	27	104	0	82	11935
2026-01-13 20:59:50.10	30.22	8.93	-59.7	-69.5	3.8	7.45e-01	0	27	104	0	82	11866
2026-01-13 20:59:51.07	30.34	9.02	-59.7	-69.5	3.8	7.44e-01	0	27	104	0	82	11821
2026-01-13 20:59:52.04	30.46	9.10	-59.8	-69.6	3.8	7.45e-01	0	27	104	0	82	12048
2026-01-13 20:59:53.01	30.58	9.18	-59.8	-69.6	3.8	7.45e-01	0	27	104	0	82	11972
2026-01-13 20:59:53.98	30.69	9.27	-59.7	-69.5	3.8	7.45e-01	0	27	104	0	82	11886
2026-01-13 20:59:54.95	30.82	9.36	-59.7	-69.5	3.8	7.46e-01	0	27	104	0	82	11860
2026-01-13 20:59:55.93	30.94	9.44	-59.9	-69.6	3.8	7.47e-01	0	27	104	0	82	12008
2026-01-13 20:59:56.89	31.06	9.53	-59.8	-69.6	3.8	7.46e-01	0	27	104	0	82	12023
2026-01-13 20:59:57.86	31.18	9.61	-59.8	-69.6	3.8	7.45e-01	0	27	104	0	82	11962
2026-01-13 20:59:58.83	31.30	9.70	-59.8	-69.5	3.8	7.44e-01	0	27	104	0	82	11900
2026-01-13 20:59:59.81	31.43	9.79	-59.9	-69.6	3.8	7.44e-01	0	27	104	0	82	12001
2026-01-13 21:00:00.78	31.56	9.88	-59.9	-69.6	3.8	7.45e-01	0	27	104	0	82	12052
2026-01-13 21:00:01.75	31.68	9.96	-59.8	-69.6	3.8	7.47e-01	0	27	104	0	82	11971
2026-01-13 21:00:02.73	31.81	10.05	-59.8	-69.5	3.8	7.44e-01	0	27	104	0	82	11953
2026-01-13 21:00:03.70	31.94	10.14	-59.9	-69.6	3.8	7.46e-01	0	27	104	0	82	12084
2026-01-13 21:00:04.68	32.07	10.23	-59.9	-69.6	3.8	7.47e-01	0	27	104	0	82	12053
2026-01-13 21:00:05.64	32.20	10.32	-59.9	-69.6	3.8	7.46e-01	0	27	104	0	82	12049
2026-01-13 21:00:06.62	32.33	10.41	-59.8	-69.6	3.8	7.45e-01	0	27	104	0	82	12003
2026-01-13 21:00:07.59	32.46	10.50	-59.9	-69.7	3.8	7.46e-01	0	27	104	0	82	12107
2026-01-13 21:00:08.57	32.59	10.59	-59.9	-69.7	3.8	7.47e-01	0	27	104	0	83	11451
2026-01-13 21:00:09.54	32.73	10.68	-59.9	-69.7	3.8	7.46e-01	0	27	104	0	83	11435
2026-01-13 21:00:10.52	32.86	10.77	-59.9	-69.6	3.8	7.45e-01	0	27	104	0	83	11384
2026-01-13 21:00:11.48	33.00	10.86	-59.9	-69.6	3.8	7.44e-01	0	27	104	0	83	11374
2026-01-13 21:00:12.46	33.14	10.95	-60.0	-69.7	3.8	7.46e-01	0	27	104	0	83	11496
2026-01-13 21:00:13.43	33.27	11.04	-59.9	-69.7	3.8	7.45e-01	0	27	104	0	83	11447
2026-01-13 21:00:14.40	33.41	11.14	-59.9	-69.6	3.8	7.46e-01	0	27	104	0	83	11364
2026-01-13 21:00:15.38	33.56	11.23	-59.9	-69.6	3.8	7.47e-01	0	27	104	0	83	11409
2026-01-13 21:00:16.35	33.70	11.32	-60.0	-69.7	3.8	7.45e-01	0	27	104	0	83	11526
2026-01-13 21:00:17.31	33.84	11.41	-60.0	-69.7	3.8	7.47e-01	0	27	104	0	83	11505
2026-01-13 21:00:18.30	33.98	11.51	-59.9	-69.7	3.8	7.47e-01	0	27	104	0	83	11436
2026-01-13 21:00:19.26	34.12	11.60	-59.9	-69.7	3.8	7.47e-01	0	27	104	0	83	11440
2026-01-13 21:00:20.24	34.27	11.70	-60.0	-69.7	3.8	7.46e-01	0	27	104	0	83	11508
2026-01-13 21:00:21.20	34.42	11.79	-60.0	-69.7	3.8	7.45e-01	0	27	104	0	83	11541
2026-01-13 21:00:22.17	34.56	11.89	-60.0	-69.7	3.8	7.46e-01	0	27	104	0	83	11485
2026-01-13 21:00:23.15	34.71	11.98	-59.9	-69.7	3.8	7.45e-01	0	27	104	0	83	11478
2026-01-13 21:00:24.13	34.87	12.08	-60.0	-69.8	3.8	7.45e-01	0	27	104	0	83	11597
2026-01-13 21:00:25.10	35.02	12.17	-60.0	-69.8	3.8	7.46e-01	0	27	104	0	83	11604
2026-01-13 21:00:26.07	35.17	12.27	-60.0	-69.7	3.8	7.45e-01	0	27	104	0	83	11484
2026-01-13 21:00:27.04	35.32	12.37	-60.0	-69.7	3.8	7.44e-01	0	27	104	0	83	11539
2026-01-13 21:00:28.01	35.48	12.46	-60.1	-69.8	3.8	7.45e-01	0	27	104	0	83	11612
2026-01-13 21:00:28.99	35.63	12.56	-60.0	-69.8	3.8	7.44e-01	0	27	104	0	83	11595
2026-01-13 21:00:29.97	35.79	12.66	-60.0	-69.8	3.8	7.46e-01	0	27	104	0	83	11560
2026-01-13 21:00:30.94	35.95	12.76	-60.0	-69.7	3.8	7.44e-01	0	28	104	0	83	11472
2026-01-13 21:00:31.91	36.11	12.85	-60.1	-69.8	3.8	7.45e-01	0	28	104	0	83	11658
2026-01-13 21:00:32.88	36.27	12.95	-60.1	-69.8	3.8	7.47e-01	0	27	104	0	83	11610
2026-01-13 21:00:33.86	36.43	13.05	-60.0	-69.8	3.8	7.46e-01	0	27	104	0	83	11578
2026-01-13 21:00:34.83	36.60	13.15	-60.0	-69.8	3.8	7.46e-01	0	27	104	0	83	11584
2026-01-13 21:00:35.81	36.76	13.25	-60.1	-69.8	3.8	7.45e-01	0	27	104	0	83	11668
2026-01-13 21:00:36.78	36.93	13.35	-60.1	-69.9	3.8	7.45e-01	0	27	104	0	83	11689
2026-01-13 21:00:37.74	37.09	13.45	-60.0	-69.8	3.8	7.47e-01	0	28	104	0	83	11572
2026-01-13 21:00:38.72	37.26	13.55	-60.0	-69.7	3.8	7.46e-01	0	27	104	0	83	11544
2026-01-13 21:00:39.69	37.43	13.65	-60.1	-69.9	3.8	7.45e-01	0	27	104	0	83	11726
2026-01-13 21:00:40.66	37.60	13.76	-60.1	-69.8	3.8	7.47e-01	0	28	104	0	83	11682
2026-01-13 21:00:41.63	37.78	13.86	-60.1	-69.8	3.8	7.46e-01	0	27	104	0	83	11611
2026-01-13 21:00:42.59	37.95	13.96	-60.1	-69.8	3.8	7.45e-01	0	27	104	0	83	11621
2026-01-13 21:00:43.56	38.12	14.06	-60.1	-69.8	3.8	7.45e-01	0	27	104	0	83	11676
2026-01-13 21:00:44.53	38.30	14.16	-60.1	-69.8	3.8	7.44e-01	0	27	104	0	83	11672
2026-01-13 21:00:45.50	38.48	14.27	-60.1	-69.9	3.8	7.46e-01	0	27	104	0	83	11688
2026-01-13 21:00:46.47	38.66	14.37	-60.1	-69.8	3.8	7.46e-01	0	28	104	0	83	11680
2026-01-13 21:00:47.44	38.84	14.47	-60.1	-69.9	3.8	7.46e-01	0	27	104	0	83	11735
2026-01-13 21:00:48.41	39.02	14.58	-60.2	-69.9	3.8	7.48e-01	0	27	104	0	83	11749
2026-01-13 21:00:49.38	39.20	14.68	-60.1	-69.9	3.8	7.45e-01	0	27	104	0	83	11687
2026-01-13 21:00:50.36	39.39	14.79	-60.1	-69.9	3.8	7.44e-01	0	27	104	0	83	11703
2026-01-13 21:00:51.33	39.58	14.89	-60.1	-69.9	3.8	7.45e-01	0	27	104	0	83	11684
2026-01-13 21:00:52.30	39.77	15.00	-60.2	-69.9	3.8	7.46e-01	0	27	104	0	83	11810
2026-01-13 21:00:53.28	39.96	15.11	-60.2	-69.9	3.8	7.46e-01	0	27	104	0	83	11796
2026-01-13 21:00:54.25	40.15	15.21	-60.1	-69.9	3.8	7.45e-01	0	28	104	0	83	11726
2026-01-13 21:00:55.22	40.34	15.32	-60.1	-69.9	3.8	7.47e-01	0	27	104	0	83	11741
2026-01-13 21:00:56.20	40.54	15.43	-60.2	-70.0	3.8	7.46e-01	0	28	104	0	83	11843
2026-01-13 21:00:57.17	40.74	15.54	-60.2	-69.9	3.8	7.47e-01	0	27	104	0	83	11778
2026-01-13 21:00:58.15	40.94	15.64	-60.2	-69.9	3.8	7.46e-01	0	28	104	0	83	11769
2026-01-13 21:00:59.12	41.14	15.75	-59.5	-70.0	3.8	7.46e-01	0	27	104	0	83	11832
2026-01-13 21:01:00.09	41.34	15.86	-56.4	-70.0	3.8	7.46e-01	0	27	104	0	76	17830
2026-01-13 21:01:01.07	41.54	15.97	-51.1	-53.7	12.0	6.11e-01	0	27	0	0	65	5106
2026-01-13 21:01:02.04	41.75	16.08	-57.3	-61.7	6.6	6.61e-01	0	27	0	14680064	77	6469
2026-01-13 21:01:03.01	41.96	16.19	-51.3	-53.8	12.2	6.11e-01	0	27	0	29360128	67	4639
2026-01-13 21:01:03.99	42.17	16.30	-51.1	-53.6	12.2	6.10e-01	0	27	0	44040192	66	4804
2026-01-13 21:01:04.96	42.38	16.41	-50.0	-52.4	12.8	6.09e-01	0	27	0	58720256	64	4672
2026-01-13 21:01:05.93	42.59	16.52	-49.1	-51.4	13.2	6.09e-01	0	27	0	73400320	62	4680
2026-01-13 21:01:06.91	42.80	16.63	-48.5	-50.8	13.5	6.08e-01	0	27	0	88080384	61	4606
2026-01-13 21:01:07.88	43.02	16.74	-48.2	-50.4	13.6	6.07e-01	0	27	0	104857600	61	4436
2026-01-13 21:01:08.85	43.24	16.85	-48.1	-50.4	13.6	6.09e-01	0	27	0	119537664	60	4652
2026-01-13 21:01:09.82	43.46	16.97	-48.1	-50.3	13.6	6.09e-01	0	27	0	134217728	60	4634
2026-01-13 21:01:10.78	43.68	17.08	-48.0	-50.3	13.6	6.08e-01	0	27	0	148897792	60	4616
2026-01-13 21:01:11.75	43.90	17.19	-48.1	-50.3	13.6	6.08e-01	0	27	0	163577856	60	4651
2026-01-13 21:01:12.72	44.12	17.30	-48.0	-50.3	13.6	6.08e-01	0	27	0	178257920	60	4600
2026-01-13 21:01:13.68	44.35	17.41	-48.0	-50.3	13.6	6.08e-01	0	27	0	192937984	60	4614
2026-01-13 21:01:14.65	44.58	17.53	-48.0	-50.3	13.6	6.09e-01	0	27	0	207618048	60	4648
2026-01-13 21:01:15.62	44.81	17.64	-47.9	-50.2	13.7	6.08e-01	0	27	0	222298112	60	4572
2026-01-13 21:01:16.59	45.04	17.75	-47.8	-50.1	13.7	6.08e-01	0	27	0	236978176	60	4509
2026-01-13 21:01:17.55	45.27	17.87	-47.7	-50.0	13.8	6.08e-01	0	27	0	251658240	60	4462
2026-01-13 21:01:18.52	45.51	17.98	-47.8	-50.1	13.6	6.08e-01	0	28	0	268435456	59	4778
2026-01-13 21:01:19.49	45.75	18.09	-47.9	-50.2	13.5	6.09e-01	0	28	0	283115520	59	4853
2026-01-13 21:01:20.46	45.99	18.21	-47.9	-50.2	13.6	6.09e-01	0	28	0	297795584	59	4841
2026-01-13 21:01:21.42	46.23	18.32	-48.1	-50.6	13.4	5.89e-01	0	28	0	312475648	59	5091
2026-01-13 21:01:22.39	46.48	18.44	-48.1	-50.7	13.4	5.91e-01	0	27	0	327155712	59	5130
2026-01-13 21:01:23.35	46.72	18.55	-48.2	-50.7	13.4	5.90e-01	0	28	0	341835776	59	5154
2026-01-13 21:01:24.32	46.97	18.67	-48.1	-50.7	13.4	5.91e-01	0	28	0	356515840	59	5121
2026-01-13 21:01:25.29	47.22	18.78	-48.2	-50.7	13.4	5.90e-01	0	28	0	371195904	59	5151
2026-01-13 21:01:26.25	47.47	18.90	-48.1	-50.7	13.4	5.90e-01	0	27	0	385875968	59	5124
2026-01-13 21:01:27.22	47.73	19.01	-48.2	-50.7	13.4	5.89e-01	0	27	0	400556032	59	5149
2026-01-13 21:01:28.18	47.98	19.13	-47.9	-50.4	13.6	5.90e-01	0	28	0	415236096	59	4970
2026-01-13 21:01:29.15	48.24	19.25	-47.9	-50.4	13.6	5.90e-01	0	28	0	429916160	59	4936
2026-01-13 21:01:30.11	48.50	19.36	-48.0	-50.4	13.5	5.90e-01	0	28	0	446693376	59	4970
2026-01-13 21:01:31.08	48.77	19.48	-47.9	-50.3	13.6	5.91e-01	0	28	0	461373440	59	4916
2026-01-13 21:01:32.05	49.04	19.60	-47.8	-50.3	13.6	5.90e-01	0	28	0	473956352	59	4886
2026-01-13 21:01:33.01	49.30	19.71	-47.8	-50.4	13.6	5.91e-01	0	28	0	490733568	59	4939
2026-01-13 21:01:33.98	49.57	19.83	-47.9	-50.5	13.5	5.90e-01	0	28	0	505413632	59	5039
2026-01-13 21:01:34.95	49.85	19.95	-47.9	-50.6	13.5	5.91e-01	0	27	0	520093696	59	5055
2026-01-13 21:01:35.91	50.12	20.06	-48.0	-50.6	13.5	5.90e-01	0	27	0	534773760	59	5099
2026-01-13 21:01:36.88	50.40	20.18	-48.1	-50.8	13.4	5.91e-01	0	28	0	549453824	59	5168
2026-01-13 21:01:37.85	50.68	20.30	-47.9	-50.6	13.5	5.91e-01	0	28	0	564133888	59	5061
2026-01-13 21:01:38.81	50.96	20.42	-48.0	-50.6	13.5	5.90e-01	0	27	0	578813952	59	5079
2026-01-13 21:01:39.78	51.25	20.53	-47.9	-50.5	13.6	5.90e-01	0	27	0	593494016	59	5008
2026-01-13 21:01:40.74	51.54	20.65	-47.8	-50.4	13.6	5.90e-01	0	27	0	608174080	59	4941
2026-01-13 21:01:41.71	51.83	20.77	-47.8	-50.3	13.6	5.91e-01	0	27	0	622854144	59	4882
2026-01-13 21:01:42.67	52.12	20.89	-47.8	-50.2	13.7	5.90e-01	0	28	0	637534208	59	4836
2026-01-13 21:01:43.64	52.41	21.00	-47.8	-50.1	13.7	5.90e-01	0	28	0	652214272	59	4807
2026-01-13 21:01:44.60	52.71	21.12	-47.7	-50.1	13.7	5.89e-01	0	28	0	666894336	59	4779
2026-01-13 21:01:45.57	53.01	21.24	-47.5	-50.0	13.8	5.90e-01	0	28	0	683671552	59	4717
2026-01-13 21:01:46.54	53.31	21.36	-47.6	-50.0	13.8	5.89e-01	0	28	0	698351616	59	4754
2026-01-13 21:01:47.50	53.62	21.47	-47.6	-50.2	13.7	5.90e-01	0	28	0	713031680	59	4827
2026-01-13 21:01:48.47	53.93	21.59	-47.8	-50.4	13.6	5.90e-01	0	28	0	727711744	59	4949
2026-01-13 21:01:49.44	54.24	21.71	-47.9	-50.6	13.5	5.90e-01	0	28	0	742391808	59	5058
2026-01-13 21:01:50.41	54.55	21.83	-48.0	-50.7	13.5	5.91e-01	0	28	0	757071872	59	5105
2026-01-13 21:01:51.38	54.87	21.95	-48.0	-50.7	13.5	5.90e-01	0	28	0	771751936	59	5121
2026-01-13 21:01:52.35	55.19	22.06	-48.0	-50.6	13.5	5.98e-01	0	28	0	786432000	59	5070
2026-01-13 21:01:53.32	55.51	22.18	-47.6	-50.1	13.8	5.98e-01	0	28	0	801112064	59	4760
2026-01-13 21:01:54.30	55.84	22.30	-47.5	-49.9	13.8	5.94e-01	0	28	0	815792128	59	4678
2026-01-13 21:01:55.28	56.17	22.42	-47.6	-49.9	13.8	5.94e-01	0	28	0	832569344	59	4685
2026-01-13 21:01:56.25	56.50	22.54	-47.4	-49.7	13.9	5.95e-01	0	28	0	847249408	59	4584
2026-01-13 21:01:57.22	56.84	22.65	-47.5	-49.9	13.8	6.00e-01	0	27	0	861929472	59	4701
2026-01-13 21:01:58.19	57.17	22.77	-47.7	-50.1	13.7	5.99e-01	0	28	0	876609536	59	4814
2026-01-13 21:01:59.16	57.51	22.89	-47.7	-50.3	13.7	5.99e-01	0	28	0	891289600	59	4881
2026-01-13 21:02:00.14	57.86	23.00	-47.8	-50.5	13.6	5.99e-01	0	28	0	905969664	59	4988
2026-01-13 21:02:01.12	58.21	23.12	-47.9	-50.6	13.5	6.01e-01	0	28	0	922746880	59	5084
2026-01-13 21:02:02.09	58.56	23.23	-48.0	-50.8	13.5	6.00e-01	0	28	0	937426944	59	5173
2026-01-13 21:02:03.06	58.91	23.35	-48.0	-50.7	13.5	5.97e-01	0	28	0	952107008	59	5124
2026-01-13 21:02:04.03	59.26	23.46	-48.1	-50.7	13.4	5.97e-01	0	28	0	966787072	59	5159
2026-01-13 21:02:05.00	59.62	23.58	-48.1	-50.8	13.5	5.99e-01	0	28	0	981467136	59	5165
2026-01-13 21:02:05.97	59.98	23.69	-47.8	-50.3	13.6	5.96e-01	0	27	0	996147200	59	4906
2026-01-13 21:02:06.95	60.34	23.81	-47.8	-50.2	13.7	6.00e-01	0	28	0	1010827264	59	4834
2026-01-13 21:02:07.92	60.71	23.92	-47.8	-50.1	13.7	5.98e-01	0	28	0	1025507328	59	4808
2026-01-13 21:02:08.90	61.08	24.03	-47.7	-50.1	13.7	5.99e-01	0	28	0	1040187392	59	4767
2026-01-13 21:02:09.88	61.45	24.15	-47.8	-50.2	13.7	5.98e-01	0	27	0	1056964608	59	4858
2026-01-13 21:02:10.85	61.83	24.26	-47.9	-50.4	13.6	5.98e-01	0	28	0	1071644672	59	4958
2026-01-13 21:02:11.83	62.21	24.37	-47.8	-50.5	13.6	5.99e-01	0	28	0	1086324736	59	5012
2026-01-13 21:02:12.81	62.59	24.48	-47.9	-50.7	13.5	5.95e-01	0	28	0	1101004800	59	5130
2026-01-13 21:02:13.77	62.97	24.59	-47.9	-50.7	13.5	5.98e-01	0	28	0	1115684864	59	5131
2026-01-13 21:02:14.74	63.36	24.70	-47.9	-50.7	13.6	6.00e-01	0	28	0	1130364928	59	5117
2026-01-13 21:02:15.71	63.75	24.81	-47.7	-50.4	13.7	6.04e-01	0	28	0	1147142144	59	4948
2026-01-13 21:02:16.69	64.14	24.91	-47.7	-50.3	13.7	6.03e-01	0	28	0	1161822208	59	4910
2026-01-13 21:02:17.66	64.54	25.02	-47.7	-50.2	13.7	6.03e-01	0	28	0	1174405120	59	4845
2026-01-13 21:02:18.63	64.94	25.13	-47.6	-50.1	13.8	6.01e-01	0	28	0	1191182336	59	4761
2026-01-13 21:02:19.61	65.34	25.23	-47.4	-49.8	13.9	5.99e-01	0	28	0	1205862400	59	4640
2026-01-13 21:02:20.58	65.74	25.34	-47.5	-50.0	13.8	5.99e-01	0	28	0	1220542464	59	4755
2026-01-13 21:02:21.56	66.15	25.44	-47.6	-50.2	13.7	6.02e-01	0	28	0	1235222528	59	4830
2026-01-13 21:02:22.53	66.56	25.54	-47.8	-50.4	13.6	6.00e-01	0	28	0	1249902592	59	4968
2026-01-13 21:02:23.51	66.98	25.64	-48.0	-50.7	13.5	5.98e-01	0	28	0	1264582656	59	5143
2026-01-13 21:02:24.48	67.40	25.75	-48.1	-50.9	13.4	6.02e-01	0	28	0	1281359872	59	5251
2026-01-13 21:02:25.46	67.82	25.85	-48.2	-51.0	13.4	6.01e-01	0	28	0	1296039936	59	5297
2026-01-13 21:02:26.43	68.24	25.94	-48.2	-51.0	13.4	6.01e-01	0	28	0	1310720000	59	5339
2026-01-13 21:02:27.40	68.66	26.04	-48.2	-51.2	13.3	5.98e-01	0	28	0	1325400064	59	5415
2026-01-13 21:02:28.37	69.09	26.14	-48.3	-51.2	13.3	5.99e-01	0	28	0	1340080128	59	5452
2026-01-13 21:02:29.35	69.52	26.23	-48.2	-51.0	13.3	5.96e-01	0	28	0	1354760192	59	5309
2026-01-13 21:02:30.33	69.96	26.33	-48.3	-51.0	13.3	5.98e-01	0	28	0	1369440256	59	5306
2026-01-13 21:02:31.30	70.40	26.42	-48.0	-50.7	13.5	5.98e-01	0	28	0	1384120320	59	5121
2026-01-13 21:02:32.27	70.83	26.51	-48.1	-50.6	13.5	6.03e-01	0	28	0	1400897536	59	5073
2026-01-13 21:02:33.25	71.28	26.60	-47.9	-50.4	13.6	5.98e-01	0	28	0	1415577600	59	4983
2026-01-13 21:02:34.23	71.73	26.69	-47.9	-50.4	13.6	5.98e-01	0	28	0	1430257664	59	4972
2026-01-13 21:02:35.19	72.17	26.78	-48.0	-50.5	13.6	5.95e-01	0	28	0	1444937728	59	4989
2026-01-13 21:02:36.17	72.62	26.87	-48.0	-50.5	13.6	5.99e-01	0	28	0	1459617792	59	4986
2026-01-13 21:02:37.14	73.07	26.95	-48.0	-50.6	13.5	6.01e-01	0	28	0	1474297856	59	5081
2026-01-13 21:02:38.11	73.53	27.03	-48.1	-51.0	13.4	6.02e-01	0	28	0	1488977920	59	5284
2026-01-13 21:02:39.09	73.99	27.12	-48.2	-51.2	13.3	6.05e-01	0	28	0	1505755136	59	5415
2026-01-13 21:02:40.06	74.45	27.20	-48.2	-51.2	13.3	6.01e-01	0	28	0	1520435200	59	5455
2026-01-13 21:02:41.03	74.91	27.28	-48.2	-51.2	13.3	5.96e-01	0	28	0	1535115264	59	5439
2026-01-13 21:02:42.00	75.37	27.35	-48.3	-51.4	13.2	6.01e-01	0	28	0	1549795328	59	5543
2026-01-13 21:02:42.98	75.85	27.43	-48.3	-51.4	13.2	6.06e-01	0	28	0	1564475392	59	5532
2026-01-13 21:02:43.95	76.31	27.50	-48.2	-51.2	13.3	5.99e-01	0	28	0	1579155456	59	5406
2026-01-13 21:02:44.92	76.79	27.58	-48.2	-51.1	13.3	6.00e-01	0	28	0	1593835520	59	5355
2026-01-13 21:02:45.90	77.26	27.65	-48.3	-51.1	13.3	6.04e-01	0	28	0	1608515584	59	5343
2026-01-13 21:02:46.88	77.75	27.72	-48.1	-50.9	13.4	5.99e-01	0	28	0	1625292800	59	5241
2026-01-13 21:02:47.85	78.22	27.78	-48.1	-50.9	13.4	5.99e-01	0	28	0	1639972864	59	5235
2026-01-13 21:02:48.83	78.71	27.85	-48.0	-50.7	13.5	6.02e-01	0	28	0	1654652928	59	5147
2026-01-13 21:02:49.81	79.20	27.91	-48.1	-50.8	13.4	6.00e-01	0	28	0	1669332992	59	5180
2026-01-13 21:02:50.78	79.68	27.97	-48.1	-50.7	13.5	6.03e-01	0	28	0	1684013056	59	5137
2026-01-13 21:02:51.76	80.17	28.03	-48.1	-50.8	13.5	5.99e-01	0	28	0	1698693120	59	5196
2026-01-13 21:02:52.73	80.66	28.09	-48.1	-50.9	13.4	6.00e-01	0	28	0	1715470336	59	5250
2026-01-13 21:02:53.70	81.15	28.15	-48.3	-51.0	13.4	6.04e-01	0	28	0	1730150400	59	5282
2026-01-13 21:02:54.67	81.65	28.20	-48.3	-51.1	13.3	6.04e-01	0	27	0	1744830464	59	5359
2026-01-13 21:02:55.64	82.14	28.25	-48.4	-51.2	13.4	6.02e-01	0	28	0	1759510528	60	5135
2026-01-13 21:02:56.61	82.64	28.30	-48.4	-51.4	13.3	6.05e-01	0	28	0	1774190592	60	5258
2026-01-13 21:02:57.59	83.14	28.35	-48.3	-51.4	13.3	6.01e-01	0	28	0	1788870656	60	5222
2026-01-13 21:02:58.56	83.64	28.40	-48.3	-51.4	13.4	6.03e-01	0	28	0	1803550720	60	5225
2026-01-13 21:02:59.54	84.14	28.44	-48.4	-51.4	13.3	6.04e-01	0	28	0	1818230784	60	5236
2026-01-13 21:03:00.52	84.65	28.48	-48.6	-51.5	13.3	6.00e-01	0	28	0	1835008000	60	5289
2026-01-13 21:03:01.50	85.16	28.52	-48.4	-51.3	13.4	6.00e-01	0	28	0	1849688064	60	5187
2026-01-13 21:03:02.47	85.66	28.56	-48.4	-51.4	13.4	6.00e-01	0	28	0	1864368128	60	5219
2026-01-13 21:03:03.44	86.17	28.59	-48.5	-51.5	13.3	6.02e-01	0	28	0	1879048192	60	5290
2026-01-13 21:03:04.42	86.68	28.63	-48.5	-51.5	13.3	6.00e-01	0	28	0	1893728256	60	5281
2026-01-13 21:03:05.39	87.19	28.66	-48.3	-51.2	13.4	6.02e-01	0	28	0	1908408320	60	5140
2026-01-13 21:03:06.36	87.70	28.69	-48.3	-51.1	13.4	5.98e-01	0	28	0	1923088384	60	5096
2026-01-13 21:03:07.33	88.21	28.71	-48.1	-50.9	13.5	5.99e-01	0	28	0	1937768448	60	4970
2026-01-13 21:03:08.31	88.73	28.74	-48.1	-50.8	13.6	6.04e-01	0	28	0	1952448512	60	4915
2026-01-13 21:03:09.28	89.24	28.76	-48.0	-50.7	13.6	5.99e-01	0	28	0	1969225728	60	4860
2026-01-13 21:03:10.25	89.75	28.78	-48.1	-50.7	13.6	5.99e-01	0	28	0	1983905792	60	4866
2026-01-13 21:03:11.23	90.27	28.79	-47.9	-50.6	13.7	6.00e-01	0	28	0	1998585856	60	4790
2026-01-13 21:03:12.20	90.78	28.81	-47.8	-50.5	13.8	5.97e-01	0	28	0	2013265920	60	4723
2026-01-13 21:03:13.17	91.30	28.82	-47.9	-50.6	13.7	6.00e-01	0	28	0	2027945984	60	4785
2026-01-13 21:03:14.15	91.82	28.83	-47.8	-50.5	13.7	5.97e-01	0	28	0	2042626048	60	4731
2026-01-13 21:03:15.12	92.33	28.84	-47.9	-50.6	13.7	5.99e-01	0	28	0	2059403264	60	4771
2026-01-13 21:03:16.09	92.85	28.84	-47.8	-50.5	13.7	5.98e-01	0	28	0	2074083328	60	4738
2026-01-13 21:03:17.07	93.37	28.85	-47.9	-50.7	13.7	5.97e-01	0	28	0	2088763392	60	4850
2026-01-13 21:03:18.04	93.89	28.85	-47.9	-50.7	13.7	5.98e-01	0	28	0	2103443456	60	4845
2026-01-13 21:03:19.00	94.40	28.85	-48.0	-50.8	13.6	5.94e-01	0	28	0	2118123520	60	4893
2026-01-13 21:03:19.98	94.92	28.84	-47.9	-50.5	13.7	6.00e-01	0	28	0	2132803584	60	4757
2026-01-13 21:03:20.95	95.43	28.84	-47.7	-50.3	13.8	5.97e-01	0	28	0	2147483648	60	4645
2026-01-13 21:03:21.92	95.95	28.83	-47.8	-50.5	13.6	6.01e-01	0	28	0	2162163712	59	4988
2026-01-13 21:03:22.90	96.47	28.82	-47.9	-50.5	13.6	5.96e-01	0	28	0	2176843776	59	5021
2026-01-13 21:03:23.88	96.99	28.80	-47.9	-50.5	13.6	5.97e-01	0	28	0	2193620992	59	5023
2026-01-13 21:03:24.85	97.50	28.79	-47.9	-50.6	13.6	6.00e-01	0	28	0	2208301056	59	5076
2026-01-13 21:03:25.83	98.02	28.77	-48.0	-50.6	13.6	5.97e-01	0	28	0	2222981120	59	5071
2026-01-13 21:03:26.80	98.53	28.75	-48.0	-50.6	13.6	6.00e-01	0	28	0	2237661184	59	5063
2026-01-13 21:03:27.78	99.05	28.73	-47.9	-50.4	13.6	5.99e-01	0	28	0	2252341248	59	4972
2026-01-13 21:03:28.75	99.56	28.70	-48.0	-50.5	13.6	6.03e-01	0	28	0	2267021312	59	4997
2026-01-13 21:03:29.72	100.07	28.68	-48.0	-50.5	13.6	5.95e-01	0	28	0	2283798528	59	5021
2026-01-13 21:03:30.70	100.59	28.65	-47.9	-50.4	13.6	6.00e-01	0	28	0	2298478592	59	4980
2026-01-13 21:03:31.67	101.10	28.61	-47.7	-50.2	13.7	5.97e-01	0	28	0	2313158656	59	4849
2026-01-13 21:03:32.65	101.61	28.58	-47.7	-50.1	13.7	5.97e-01	0	28	0	2327838720	59	4801
2026-01-13 21:03:33.62	102.11	28.54	-47.7	-50.1	13.8	5.99e-01	0	28	0	2342518784	59	4770
2026-01-13 21:03:34.59	102.62	28.51	-47.6	-50.0	13.8	5.97e-01	0	28	0	2357198848	59	4741
2026-01-13 21:03:35.56	103.12	28.47	-47.6	-50.0	13.8	6.00e-01	0	28	0	2371878912	59	4720
2026-01-13 21:03:36.54	103.63	28.42	-47.7	-50.1	13.8	5.96e-01	0	28	0	2386558976	59	4789
2026-01-13 21:03:37.52	104.14	28.38	-47.7	-50.2	13.7	5.97e-01	0	28	0	2403336192	59	4825
2026-01-13 21:03:38.49	104.64	28.33	-47.9	-50.3	13.7	5.98e-01	0	28	0	2418016256	59	4922
2026-01-13 21:03:39.46	105.13	28.28	-47.8	-50.3	13.7	5.99e-01	0	28	0	2432696320	59	4874
2026-01-13 21:03:40.44	105.63	28.23	-47.7	-50.2	13.7	5.97e-01	0	28	0	2447376384	59	4838
2026-01-13 21:03:41.41	106.13	28.18	-47.8	-50.2	13.7	5.97e-01	0	28	0	2462056448	59	4861
2026-01-13 21:03:42.38	106.62	28.13	-47.8	-50.2	13.7	5.97e-01	0	28	0	2476736512	59	4848
2026-01-13 21:03:43.36	107.12	28.07	-47.9	-50.3	13.7	5.96e-01	0	28	0	2491416576	59	4902
2026-01-13 21:03:44.33	107.60	28.01	-47.8	-50.3	13.7	6.00e-01	0	28	0	2506096640	59	4906
2026-01-13 21:03:45.30	108.09	27.95	-47.7	-50.2	13.7	5.89e-01	0	28	0	2520776704	59	4847
2026-01-13 21:03:46.27	108.58	27.89	-47.9	-50.3	13.7	5.93e-01	0	28	0	2537553920	59	4881
2026-01-13 21:03:47.24	109.06	27.82	-47.8	-50.2	13.7	6.03e-01	0	28	0	2552233984	59	4822
2026-01-13 21:03:48.21	109.54	27.76	-47.8	-50.2	13.7	5.95e-01	0	28	0	2566914048	59	4865
2026-01-13 21:03:49.19	110.02	27.69	-47.8	-50.3	13.7	5.86e-01	0	28	0	2581594112	59	4876
2026-01-13 21:03:50.16	110.50	27.62	-47.7	-50.2	13.7	5.96e-01	0	28	0	2596274176	59	4829
2026-01-13 21:03:51.14	110.98	27.55	-47.6	-50.0	13.8	5.97e-01	0	28	0	2610954240	59	4731
2026-01-13 21:03:52.11	111.45	27.47	-47.7	-50.0	13.7	5.98e-01	0	28	0	2625634304	59	4752
2026-01-13 21:03:53.09	111.92	27.40	-47.7	-50.0	13.8	5.93e-01	0	28	0	2642411520	59	4707
2026-01-13 21:03:54.06	112.39	27.32	-47.7	-50.0	13.8	5.95e-01	0	28	0	2657091584	59	4741
2026-01-13 21:03:55.03	112.86	27.24	-47.6	-50.0	13.8	5.96e-01	0	28	0	2671771648	59	4724
2026-01-13 21:03:56.01	113.32	27.16	-47.5	-49.9	13.9	5.96e-01	0	28	0	2686451712	59	4680
2026-01-13 21:03:56.98	113.78	27.08	-47.5	-49.9	13.8	5.97e-01	0	28	0	2701131776	59	4700
2026-01-13 21:03:57.95	114.24	27.00	-47.6	-50.0	13.8	5.96e-01	0	28	0	2715811840	59	4732
2026-01-13 21:03:58.92	114.69	26.91	-47.6	-49.9	13.8	6.00e-01	0	28	0	2730491904	59	4692
2026-01-13 21:03:59.90	115.15	26.83	-47.6	-50.0	13.8	5.93e-01	0	28	0	2745171968	59	4737
2026-01-13 21:04:00.87	115.60	26.74	-47.8	-50.2	13.7	5.97e-01	0	28	0	2761949184	59	4831
2026-01-13 21:04:01.84	116.04	26.65	-47.8	-50.2	13.7	5.93e-01	0	28	0	2776629248	59	4827
2026-01-13 21:04:02.81	116.49	26.56	-47.5	-49.9	13.8	5.95e-01	0	28	0	2791309312	59	4689
2026-01-13 21:04:03.77	116.92	26.47	-47.5	-49.8	13.9	5.96e-01	0	28	0	2805989376	59	4631
2026-01-13 21:04:04.74	117.36	26.38	-47.4	-49.8	13.9	5.98e-01	0	28	0	2820669440	59	4600
2026-01-13 21:04:05.72	117.80	26.29	-47.3	-49.6	14.0	6.00e-01	0	28	0	2835349504	59	4501
2026-01-13 21:04:06.69	118.24	26.19	-47.2	-49.4	14.0	6.00e-01	0	28	0	2850029568	59	4415
2026-01-13 21:04:07.67	118.67	26.10	-47.3	-49.5	14.0	6.00e-01	0	28	0	2864709632	59	4466
2026-01-13 21:04:08.64	119.10	26.00	-47.2	-49.5	14.0	6.01e-01	0	28	0	2879389696	59	4466
2026-01-13 21:04:09.62	119.53	25.90	-47.1	-49.4	14.0	5.99e-01	0	28	0	2896166912	58	4675
2026-01-13 21:04:10.59	119.95	25.80	-47.1	-49.4	13.9	5.99e-01	0	28	0	2910846976	58	4701
2026-01-13 21:04:11.56	120.37	25.70	-47.1	-49.5	13.9	6.01e-01	0	28	0	2925527040	58	4723
2026-01-13 21:04:12.53	120.78	25.60	-47.0	-49.3	14.0	6.01e-01	0	28	0	2940207104	58	4607
2026-01-13 21:04:13.50	121.19	25.50	-47.0	-49.3	14.0	5.99e-01	0	28	0	2954887168	58	4622
2026-01-13 21:04:14.48	121.61	25.39	-47.1	-49.5	13.9	5.99e-01	0	28	0	2969567232	58	4715
2026-01-13 21:04:15.45	122.01	25.29	-47.3	-49.7	13.8	6.00e-01	0	28	0	2984247296	58	4840
2026-01-13 21:04:16.42	122.42	25.18	-47.3	-49.7	13.8	6.00e-01	0	28	0	3001024512	58	4863
2026-01-13 21:04:17.39	122.82	25.08	-47.4	-50.0	13.7	6.01e-01	0	28	0	3015704576	58	5010
2026-01-13 21:04:18.37	123.22	24.97	-47.4	-50.0	13.7	6.02e-01	0	28	0	3030384640	58	4988
2026-01-13 21:04:19.34	123.62	24.86	-47.3	-49.8	13.8	5.99e-01	0	28	0	3045064704	58	4900
2026-01-13 21:04:20.31	124.01	24.75	-47.5	-49.8	13.7	6.05e-01	0	28	0	3059744768	58	4904
2026-01-13 21:04:21.28	124.40	24.65	-47.5	-49.8	13.7	5.96e-01	0	28	0	3074424832	58	4889
2026-01-13 21:04:22.25	124.78	24.54	-47.2	-49.4	13.9	6.02e-01	0	28	0	3089104896	58	4694
2026-01-13 21:04:23.22	125.17	24.43	-47.1	-49.3	13.9	6.01e-01	0	28	0	3103784960	58	4643
2026-01-13 21:04:24.20	125.55	24.31	-47.2	-49.5	13.9	5.98e-01	0	28	0	3118465024	58	4714
2026-01-13 21:04:25.18	125.93	24.20	-47.2	-49.5	13.9	6.01e-01	0	28	0	3135242240	58	4729
2026-01-13 21:04:26.15	126.31	24.09	-47.1	-49.5	13.9	5.99e-01	0	28	0	3149922304	58	4722
2026-01-13 21:04:27.12	126.68	23.98	-47.2	-49.7	13.9	5.96e-01	0	28	0	3164602368	58	4816
2026-01-13 21:04:28.10	127.05	23.86	-47.3	-49.7	13.8	5.98e-01	0	28	0	3179282432	58	4839
2026-01-13 21:04:29.07	127.41	23.75	-47.2	-49.6	13.9	5.97e-01	0	28	0	3193962496	58	4795
2026-01-13 21:04:30.04	127.78	23.63	-47.3	-49.7	13.8	5.99e-01	0	28	0	3208642560	58	4822
2026-01-13 21:04:31.02	128.14	23.52	-47.3	-49.7	13.8	6.04e-01	0	28	0	3225419776	58	4854
2026-01-13 21:04:31.99	128.50	23.40	-47.3	-49.7	13.8	5.97e-01	0	28	0	3238002688	58	4858
2026-01-13 21:04:32.97	128.86	23.29	-47.2	-49.7	13.8	5.99e-01	0	28	0	3254779904	58	4834
2026-01-13 21:04:33.95	129.21	23.17	-47.2	-49.7	13.8	6.00e-01	0	28	0	3269459968	58	4846
2026-01-13 21:04:34.92	129.56	23.05	-47.1	-49.7	13.8	6.02e-01	0	28	0	3284140032	58	4831
2026-01-13 21:04:35.89	129.90	22.94	-47.2	-49.7	13.8	5.99e-01	0	28	0	3298820096	58	4850
2026-01-13 21:04:36.86	130.25	22.82	-47.1	-49.6	13.9	6.01e-01	0	28	0	3313500160	58	4785
2026-01-13 21:04:37.84	130.59	22.70	-47.1	-49.6	13.9	6.01e-01	0	28	0	3328180224	58	4764
2026-01-13 21:04:38.82	130.93	22.58	-47.2	-49.6	13.8	5.99e-01	0	28	0	3344957440	58	4795
2026-01-13 21:04:39.79	131.26	22.47	-47.2	-49.6	13.8	5.97e-01	0	28	0	3359637504	58	4785
2026-01-13 21:04:40.76	131.59	22.35	-47.3	-49.6	13.8	6.02e-01	0	28	0	3374317568	58	4813
2026-01-13 21:04:41.73	131.92	22.23	-47.3	-49.6	13.8	5.97e-01	0	28	0	3388997632	58	4804
2026-01-13 21:04:42.71	132.25	22.11	-47.3	-49.5	13.8	5.96e-01	0	28	0	3403677696	58	4732
2026-01-13 21:04:43.68	132.57	21.99	-47.3	-49.5	13.8	6.00e-01	0	28	0	3418357760	58	4740
2026-01-13 21:04:44.66	132.90	21.87	-47.3	-49.5	13.8	5.98e-01	0	28	0	3433037824	58	4744
2026-01-13 21:04:45.63	133.22	21.76	-47.2	-49.4	13.9	6.04e-01	0	28	0	3447717888	58	4684
2026-01-13 21:04:46.61	133.53	21.64	-47.1	-49.4	13.9	6.07e-01	0	28	0	3462397952	58	4665
2026-01-13 21:04:47.58	133.85	21.52	-47.2	-49.4	13.9	6.06e-01	0	28	0	3479175168	58	4685
2026-01-13 21:04:48.55	134.15	21.40	-47.2	-49.4	13.9	6.01e-01	0	28	0	3493855232	58	4676
2026-01-13 21:04:49.53	134.46	21.28	-47.3	-49.5	13.8	6.01e-01	0	28	0	3508535296	58	4728
2026-01-13 21:04:50.51	134.77	21.16	-47.3	-49.6	13.8	5.90e-01	0	28	0	3523215360	58	4800
2026-01-13 21:04:51.49	135.08	21.04	-47.4	-49.7	13.8	5.90e-01	0	28	0	3537895424	58	4850
2026-01-13 21:04:52.45	135.37	20.92	-47.4	-49.7	13.7	5.90e-01	0	28	0	3552575488	58	4849
2026-01-13 21:04:53.42	135.67	20.80	-47.5	-49.8	13.7	5.90e-01	0	28	0	3569352704	58	4918
2026-01-13 21:04:54.40	135.96	20.68	-47.5	-49.9	13.7	5.90e-01	0	28	0	3584032768	58	4942
2026-01-13 21:04:55.37	136.26	20.56	-47.5	-49.9	13.6	5.90e-01	0	28	0	3598712832	58	4973
2026-01-13 21:04:56.35	136.55	20.44	-47.5	-49.9	13.7	5.91e-01	0	28	0	3613392896	58	4935
2026-01-13 21:04:57.32	136.83	20.32	-47.5	-49.9	13.6	5.90e-01	0	28	0	3628072960	58	4967
2026-01-13 21:04:58.29	137.12	20.20	-47.5	-49.9	13.7	5.90e-01	0	28	0	3642753024	58	4944
2026-01-13 21:04:59.27	137.40	20.08	-47.5	-49.9	13.7	5.91e-01	0	28	0	3657433088	58	4933
2026-01-13 21:05:00.25	137.68	19.97	-47.3	-49.6	13.7	5.89e-01	0	28	0	3672113152	58	4811
2026-01-13 21:05:01.22	137.96	19.85	-47.3	-49.6	13.8	5.90e-01	0	28	0	3688890368	58	4778
2026-01-13 21:05:02.20	138.24	19.73	-47.4	-49.7	13.7	5.90e-01	0	28	0	3703570432	58	4857
2026-01-13 21:05:03.17	138.51	19.61	-47.5	-49.9	13.6	5.90e-01	0	28	0	3718250496	58	4937
2026-01-13 21:05:04.15	138.78	19.49	-47.6	-49.9	13.6	5.90e-01	0	28	0	3732930560	58	4960
2026-01-13 21:05:05.13	139.05	19.37	-47.6	-50.0	13.6	5.90e-01	0	28	0	3747610624	58	4999
2026-01-13 21:05:06.09	139.31	19.25	-47.8	-50.1	13.5	5.90e-01	0	28	0	3762290688	58	5066
2026-01-13 21:05:07.07	139.58	19.14	-47.8	-50.1	13.5	5.91e-01	0	28	0	3779067904	58	5076
2026-01-13 21:05:08.05	139.84	19.02	-47.8	-50.1	13.5	5.90e-01	0	28	0	3793747968	58	5083
2026-01-13 21:05:09.03	140.10	18.90	-47.8	-50.2	13.5	5.89e-01	0	28	0	3808428032	58	5123
2026-01-13 21:05:10.01	140.36	18.78	-47.9	-50.2	13.5	6.05e-01	0	28	0	3823108096	58	5132
2026-01-13 21:05:10.98	140.61	18.66	-47.8	-50.2	13.5	6.05e-01	0	28	0	3837788160	58	5129
2026-01-13 21:05:11.97	140.87	18.55	-47.8	-50.2	13.5	6.07e-01	0	28	0	3852468224	58	5128
2026-01-13 21:05:12.94	141.12	18.43	-47.8	-50.1	13.5	5.96e-01	0	28	0	3867148288	58	5081
2026-01-13 21:05:13.92	141.36	18.31	-47.8	-50.1	13.5	5.93e-01	0	28	0	3883925504	58	5093
2026-01-13 21:05:14.90	141.61	18.20	-47.8	-50.1	13.5	6.02e-01	0	28	0	3898605568	58	5098
2026-01-13 21:05:15.88	141.86	18.08	-47.9	-50.2	13.4	6.07e-01	0	28	0	3913285632	58	5149
2026-01-13 21:05:16.85	142.10	17.96	-47.9	-50.2	13.6	6.04e-01	0	28	0	3927965696	59	4831
2026-01-13 21:05:17.83	142.34	17.85	-47.8	-50.2	13.6	5.99e-01	0	28	0	3942645760	59	4819
2026-01-13 21:05:18.82	142.58	17.73	-48.0	-50.3	13.5	6.01e-01	0	28	0	3959422976	59	4874
2026-01-13 21:05:19.80	142.82	17.61	-48.0	-50.3	13.5	6.03e-01	0	28	0	3974103040	59	4898
2026-01-13 21:05:20.78	143.05	17.50	-48.0	-50.4	13.5	6.03e-01	0	28	0	3988783104	59	4934
2026-01-13 21:05:21.77	143.28	17.38	-48.0	-50.3	13.5	6.03e-01	0	28	0	4003463168	59	4910
2026-01-13 21:05:22.75	143.51	17.27	-48.0	-50.3	13.5	6.04e-01	0	28	0	4018143232	59	4892
2026-01-13 21:05:23.74	143.75	17.15	-48.1	-50.4	13.5	6.06e-01	0	28	0	4032823296	59	4943
2026-01-13 21:05:24.72	143.97	17.04	-48.1	-50.4	13.4	6.06e-01	0	28	0	4049600512	59	4974
2026-01-13 21:05:25.70	144.20	16.92	-48.1	-50.4	13.4	6.06e-01	0	28	0	4064280576	59	4972
2026-01-13 21:05:26.69	144.42	16.81	-48.2	-50.5	13.4	6.04e-01	0	28	0	4078960640	59	5015
2026-01-13 21:05:27.68	144.64	16.70	-48.3	-50.7	13.3	6.07e-01	0	28	0	4093640704	59	5125
2026-01-13 21:05:28.67	144.87	16.58	-48.3	-50.7	13.3	6.00e-01	0	28	0	4110417920	59	5124
2026-01-13 21:05:29.66	145.08	16.47	-48.4	-50.8	13.2	6.01e-01	0	28	0	4125097984	59	5204
2026-01-13 21:05:30.65	145.30	16.35	-48.3	-50.8	13.4	6.02e-01	0	28	0	4139778048	60	4874
2026-01-13 21:05:31.63	145.51	16.24	-48.3	-50.8	13.4	6.02e-01	0	28	0	4154458112	60	4885
2026-01-13 21:05:32.63	145.73	16.13	-48.4	-50.9	13.3	6.06e-01	0	28	0	4171235328	60	4933
2026-01-13 21:05:33.62	145.94	16.02	-48.4	-50.9	13.3	6.05e-01	0	28	0	4185915392	60	4962
2026-01-13 21:05:34.62	146.15	15.90	-48.4	-50.9	13.3	6.03e-01	0	28	0	4200595456	60	4954
2026-01-13 21:05:35.61	146.36	15.79	-48.4	-50.9	13.3	6.04e-01	0	28	0	4215275520	60	4931
2026-01-13 21:05:36.61	146.57	15.68	-48.5	-50.9	13.3	6.05e-01	0	28	0	4232052736	60	4965
2026-01-13 21:05:37.60	146.77	15.57	-48.5	-51.0	13.3	6.02e-01	0	28	0	4246732800	60	4984
2026-01-13 21:05:38.59	146.98	15.46	-48.6	-51.0	13.2	6.07e-01	0	28	0	4261412864	60	5029
2026-01-13 21:05:39.57	147.18	15.35	-48.6	-51.0	13.2	5.98e-01	0	28	0	4278190080	60	5009
2026-01-13 21:05:40.56	147.37	15.24	-48.6	-51.1	13.2	6.06e-01	0	28	0	4292870144	60	5043
2026-01-13 21:05:41.54	147.57	15.13	-48.7	-51.2	13.2	6.05e-01	0	28	0	4307550208	60	5101
2026-01-13 21:05:42.53	147.77	15.02	-48.7	-51.2	13.1	6.03e-01	0	28	0	4322230272	60	5108
2026-01-13 21:05:43.51	147.96	14.91	-48.5	-51.1	13.2	6.02e-01	0	28	0	4336910336	60	5050
2026-01-13 21:05:44.49	148.15	14.81	-48.6	-51.1	13.1	6.03e-01	0	28	0	4351590400	60	5094
2026-01-13 21:05:45.49	148.34	14.70	-48.6	-51.1	13.2	6.04e-01	0	28	0	4368367616	60	5068
2026-01-13 21:05:46.47	148.53	14.59	-48.6	-51.1	13.2	6.04e-01	0	28	0	4383047680	60	5057
2026-01-13 21:05:47.46	148.72	14.48	-48.7	-51.2	13.1	6.03e-01	0	28	0	4397727744	60	5116
2026-01-13 21:05:48.45	148.90	14.38	-48.6	-51.2	13.1	6.03e-01	0	28	0	4412407808	60	5111
2026-01-13 21:05:49.44	149.09	14.27	-48.8	-51.3	13.1	6.08e-01	0	28	0	4429185024	60	5191
2026-01-13 21:05:50.42	149.27	14.17	-48.8	-51.3	13.1	6.03e-01	0	28	0	4443865088	60	5199
2026-01-13 21:05:51.41	149.45	14.06	-48.9	-51.4	13.0	6.08e-01	0	28	0	4458545152	60	5233
2026-01-13 21:05:52.40	149.63	13.95	-49.0	-51.5	13.0	6.07e-01	0	28	0	4473225216	61	5013
2026-01-13 21:05:53.39	149.81	13.85	-49.1	-51.5	13.0	6.07e-01	0	28	0	4490002432	61	5035
2026-01-13 21:05:54.38	149.99	13.74	-49.3	-51.7	12.9	6.08e-01	0	28	0	4504682496	61	5155
2026-01-13 21:05:55.36	150.16	13.64	-49.3	-51.8	12.9	6.08e-01	0	28	0	4519362560	61	5165
2026-01-13 21:05:56.35	150.34	13.54	-49.3	-51.7	12.9	6.04e-01	0	28	0	4534042624	61	5152
2026-01-13 21:05:57.34	150.51	13.43	-49.4	-51.9	12.8	6.07e-01	0	28	0	4550819840	61	5247
2026-01-13 21:05:58.33	150.68	13.33	-49.6	-52.1	12.8	6.08e-01	0	28	0	4565499904	62	5055
2026-01-13 21:05:59.32	150.85	13.23	-49.6	-52.0	12.8	6.08e-01	0	28	0	4580179968	62	5034
2026-01-13 21:06:00.31	151.02	13.13	-49.5	-52.0	12.8	6.08e-01	0	28	0	4596957184	62	5016
2026-01-13 21:06:01.30	151.19	13.02	-49.5	-52.0	12.8	6.08e-01	0	28	0	4611637248	62	5038
2026-01-13 21:06:02.29	151.35	12.92	-49.6	-52.1	12.8	6.08e-01	0	28	0	4626317312	62	5078
2026-01-13 21:06:03.28	151.52	12.82	-49.6	-52.2	12.7	6.03e-01	0	28	0	4640997376	62	5128
2026-01-13 21:06:04.26	151.68	12.72	-49.5	-52.1	12.8	6.07e-01	0	28	0	4655677440	62	5064
2026-01-13 21:06:05.25	151.84	12.62	-49.6	-52.2	12.7	6.08e-01	0	28	0	4670357504	62	5121
2026-01-13 21:06:06.24	152.00	12.52	-49.7	-52.2	12.7	6.09e-01	0	28	0	4687134720	62	5130
2026-01-13 21:06:07.23	152.16	12.42	-49.6	-52.1	12.7	6.03e-01	0	28	0	4701814784	62	5096
2026-01-13 21:06:08.22	152.32	12.32	-49.6	-52.1	12.8	5.98e-01	0	28	0	4716494848	62	5076
2026-01-13 21:06:09.21	152.48	12.22	-49.6	-52.2	12.7	6.08e-01	0	28	0	4731174912	62	5114
2026-01-13 21:06:10.20	152.63	12.12	-49.7	-52.2	12.6	6.08e-01	0	28	0	4747952128	62	5155
2026-01-13 21:06:11.18	152.79	12.03	-49.6	-52.1	12.8	6.04e-01	0	28	0	4762632192	62	5072
2026-01-13 21:06:12.17	152.94	11.93	-49.7	-52.3	12.6	6.05e-01	0	28	0	4777312256	62	5173
2026-01-13 21:06:13.15	153.09	11.83	-49.7	-52.3	12.6	6.09e-01	0	28	0	4791992320	62	5163
2026-01-13 21:06:14.14	153.24	11.73	-49.8	-52.4	12.6	6.04e-01	0	28	0	4808769536	62	5221
2026-01-13 21:06:15.12	153.39	11.64	-49.8	-52.4	12.6	6.09e-01	0	28	0	4823449600	62	5231
2026-01-13 21:06:16.11	153.54	11.54	-50.0	-52.6	12.6	6.09e-01	0	28	0	4838129664	63	5049
2026-01-13 21:06:17.10	153.69	11.45	-50.0	-52.5	12.6	6.07e-01	0	28	0	4852809728	63	5016
2026-01-13 21:06:18.08	153.83	11.35	-50.0	-52.5	12.6	6.08e-01	0	28	0	4869586944	63	4996
2026-01-13 21:06:19.07	153.98	11.25	-50.0	-52.6	12.5	6.08e-01	0	28	0	4884267008	63	5045
2026-01-13 21:06:20.05	154.12	11.16	-50.2	-52.7	12.5	6.08e-01	0	28	0	4898947072	63	5102
2026-01-13 21:06:21.04	154.26	11.07	-50.1	-52.5	12.5	6.09e-01	0	28	0	4913627136	63	5039
2026-01-13 21:06:22.02	154.40	10.97	-50.2	-52.7	12.4	6.08e-01	0	28	0	4928307200	63	5133
2026-01-13 21:06:23.01	154.54	10.88	-50.2	-52.7	12.4	6.02e-01	0	28	0	4942987264	63	5141
2026-01-13 21:06:23.99	154.68	10.79	-50.3	-52.7	12.4	6.00e-01	0	28	0	4959764480	63	5150
2026-01-13 21:06:24.98	154.82	10.69	-50.3	-52.8	12.4	6.08e-01	0	28	0	4974444544	63	5160
2026-01-13 21:06:25.96	154.96	10.60	-50.4	-52.9	12.3	6.06e-01	0	28	0	4989124608	63	5223
2026-01-13 21:06:26.94	155.09	10.51	-50.3	-52.8	12.4	5.95e-01	0	28	0	5003804672	63	5194
2026-01-13 21:06:27.93	155.23	10.42	-50.3	-52.8	12.3	5.89e-01	0	28	0	5020581888	63	5218
2026-01-13 21:06:28.92	155.36	10.32	-50.3	-52.9	12.3	5.83e-01	0	28	0	5035261952	63	5240
2026-01-13 21:06:29.91	155.50	10.23	-50.4	-52.9	12.3	5.95e-01	0	28	0	5049942016	64	4981
2026-01-13 21:06:30.90	155.63	10.14	-50.5	-53.1	12.3	6.03e-01	0	28	0	5064622080	64	5045
2026-01-13 21:06:31.88	155.76	10.05	-50.4	-53.0	12.3	6.04e-01	0	28	0	5081399296	64	5001
2026-01-13 21:06:32.87	155.89	9.96	-50.4	-53.0	12.3	6.01e-01	0	28	0	5096079360	64	5007
2026-01-13 21:06:33.85	156.02	9.87	-50.5	-53.1	12.2	6.01e-01	0	28	0	5110759424	64	5073
2026-01-13 21:06:34.84	156.15	9.78	-50.5	-53.1	12.2	6.04e-01	0	28	0	5125439488	64	5096
2026-01-13 21:06:35.83	156.28	9.69	-50.5	-53.1	12.2	5.99e-01	0	28	0	5142216704	64	5084
2026-01-13 21:06:36.82	156.40	9.60	-50.5	-53.2	12.2	6.00e-01	0	28	0	5156896768	64	5111
2026-01-13 21:06:37.81	156.53	9.51	-50.6	-53.2	12.1	6.02e-01	0	28	0	5171576832	64	5158
2026-01-13 21:06:38.78	156.65	9.43	-50.6	-53.2	12.1	6.00e-01	0	28	0	5186256896	64	5153
2026-01-13 21:06:39.77	156.78	9.34	-50.6	-53.3	12.1	5.93e-01	0	28	0	5200936960	64	5171
2026-01-13 21:06:40.77	156.90	9.25	-50.6	-53.2	12.1	6.01e-01	0	28	0	5217714176	64	5156
2026-01-13 21:06:41.76	157.02	9.16	-50.8	-53.5	12.0	6.02e-01	0	28	0	5232394240	64	5306
2026-01-13 21:06:42.74	157.15	9.07	-50.8	-53.5	12.0	6.04e-01	0	28	0	5247074304	64	5290
2026-01-13 21:06:43.72	157.26	8.99	-50.8	-53.6	11.9	5.98e-01	0	28	0	5261754368	64	5348
2026-01-13 21:06:44.70	157.38	8.90	-50.8	-53.5	11.9	6.05e-01	0	28	0	5276434432	64	5325
2026-01-13 21:06:45.69	157.50	8.82	-51.1	-53.8	11.8	6.04e-01	0	28	0	5293211648	65	5180
2026-01-13 21:06:46.68	157.62	8.73	-51.1	-53.9	11.8	6.05e-01	0	28	0	5307891712	65	5221
2026-01-13 21:06:47.66	157.74	8.64	-51.1	-53.8	11.8	6.03e-01	0	28	0	5322571776	65	5200
2026-01-13 21:06:48.65	157.85	8.56	-51.2	-54.0	11.7	6.02e-01	0	28	0	5337251840	65	5288
2026-01-13 21:06:49.64	157.97	8.47	-51.2	-53.9	11.7	5.98e-01	0	28	0	5354029056	65	5278
2026-01-13 21:06:50.62	158.08	8.39	-51.2	-53.9	11.7	5.82e-01	0	28	0	5368709120	65	5277
2026-01-13 21:06:51.61	158.20	8.31	-51.3	-54.1	11.6	5.95e-01	0	28	0	5383389184	65	5349
2026-01-13 21:06:52.59	158.31	8.22	-51.3	-54.0	11.6	5.96e-01	0	28	0	5398069248	65	5322
2026-01-13 21:06:53.57	158.42	8.14	-51.5	-54.3	11.5	6.06e-01	0	28	0	5414846464	66	5176
2026-01-13 21:06:54.56	158.53	8.05	-51.5	-54.3	11.6	6.05e-01	0	28	0	5429526528	66	5162
2026-01-13 21:06:55.56	158.65	7.97	-51.5	-54.2	11.6	6.04e-01	0	28	0	5444206592	66	5159
2026-01-13 21:06:56.53	158.75	7.89	-51.7	-54.4	11.4	6.03e-01	0	28	0	5458886656	66	5259
2026-01-13 21:06:57.52	158.86	7.81	-51.7	-54.4	11.4	6.03e-01	0	28	0	5473566720	66	5270
2026-01-13 21:06:58.51	158.97	7.72	-51.7	-54.4	11.4	6.03e-01	0	28	0	5488246784	66	5270
2026-01-13 21:06:59.49	159.08	7.64	-51.7	-54.4	11.4	6.05e-01	0	28	0	5505024000	66	5267
2026-01-13 21:07:00.47	159.19	7.56	-51.7	-54.5	11.4	6.09e-01	0	28	0	5519704064	66	5303
2026-01-13 21:07:01.46	159.29	7.48	-51.7	-54.5	11.4	6.05e-01	0	28	0	5534384128	66	5294
2026-01-13 21:07:02.45	159.40	7.40	-51.7	-54.5	11.4	6.09e-01	0	28	0	5549064192	66	5312
2026-01-13 21:07:03.44	159.50	7.32	-51.8	-54.6	11.3	6.06e-01	0	28	0	5565841408	66	5377
2026-01-13 21:07:04.43	159.61	7.24	-51.8	-54.5	11.3	6.08e-01	0	28	0	5580521472	66	5320
2026-01-13 21:07:05.44	159.71	7.15	-51.8	-54.6	11.3	6.07e-01	0	28	0	5595201536	66	5348
2026-01-13 21:07:06.44	159.82	7.07	-51.9	-54.6	11.2	6.07e-01	0	28	0	5611978752	66	5399
2026-01-13 21:07:07.44	159.92	6.99	-51.9	-54.6	11.3	6.03e-01	0	28	0	5626658816	67	5100
2026-01-13 21:07:08.43	160.02	6.91	-51.9	-54.7	11.2	6.10e-01	0	28	0	5641338880	67	5140
2026-01-13 21:07:09.41	160.12	6.83	-51.9	-54.7	11.2	6.05e-01	0	28	0	5658116096	67	5148
2026-01-13 21:07:10.41	160.22	6.75	-52.0	-54.9	11.1	6.06e-01	0	28	0	5672796160	67	5242
2026-01-13 21:07:11.41	160.33	6.67	-52.0	-54.8	11.1	6.06e-01	0	28	0	5687476224	67	5196
2026-01-13 21:07:12.40	160.42	6.59	-52.0	-54.9	11.1	6.06e-01	0	28	0	5702156288	67	5233
2026-01-13 21:07:13.40	160.52	6.52	-52.2	-55.1	10.9	6.09e-01	0	28	0	5718933504	67	5368
2026-01-13 21:07:14.40	160.62	6.44	-52.2	-55.1	10.9	6.10e-01	0	28	0	5733613568	67	5377
2026-01-13 21:07:15.40	160.72	6.36	-52.1	-55.0	11.0	6.07e-01	0	28	0	5748293632	67	5290
2026-01-13 21:07:16.40	160.82	6.28	-52.1	-55.0	10.9	6.07e-01	0	28	0	5765070848	67	5333
2026-01-13 21:07:17.40	160.92	6.20	-52.2	-55.1	10.9	6.07e-01	0	28	0	5779750912	67	5375
2026-01-13 21:07:18.39	161.01	6.12	-52.2	-55.2	10.9	6.06e-01	0	28	0	5794430976	67	5416
2026-01-13 21:07:19.39	161.11	6.05	-52.4	-55.4	10.7	6.09e-01	0	28	0	5811208192	67	5540
2026-01-13 21:07:20.39	161.20	5.97	-52.2	-55.2	10.8	6.09e-01	0	28	0	5825888256	67	5421
2026-01-13 21:07:21.38	161.29	5.89	-52.2	-55.2	10.8	6.11e-01	0	28	0	5840568320	67	5413
2026-01-13 21:07:22.38	161.39	5.82	-52.4	-55.4	10.7	6.09e-01	0	28	0	5855248384	67	5531
2026-01-13 21:07:23.37	161.48	5.74	-52.3	-55.3	10.7	6.07e-01	0	28	0	5872025600	67	5474
2026-01-13 21:07:24.36	161.57	5.66	-52.5	-55.5	10.6	6.08e-01	0	28	0	5886705664	68	5304
2026-01-13 21:07:25.37	161.67	5.59	-52.2	-55.2	10.8	6.09e-01	0	28	0	5901385728	68	5123
2026-01-13 21:07:26.37	161.76	5.51	-52.3	-55.2	10.8	6.08e-01	0	28	0	5918162944	68	5123
2026-01-13 21:07:27.37	161.85	5.44	-52.5	-55.5	10.5	6.07e-01	0	28	0	5932843008	68	5321
2026-01-13 21:07:28.36	161.94	5.36	-52.5	-55.5	10.6	6.11e-01	0	28	0	5947523072	68	5308
2026-01-13 21:07:29.36	162.03	5.29	-52.4	-55.4	10.6	6.11e-01	0	28	0	5962203136	68	5234
2026-01-13 21:07:30.36	162.12	5.21	-52.6	-55.6	10.4	6.11e-01	0	28	0	5978980352	68	5380
2026-01-13 21:07:31.36	162.20	5.14	-52.8	-55.8	10.2	6.15e-01	0	28	0	5993660416	68	5508
2026-01-13 21:07:32.35	162.29	5.06	-52.6	-55.6	10.4	6.12e-01	0	28	0	6008340480	68	5364
2026-01-13 21:07:33.34	162.38	4.99	-52.9	-55.9	10.2	6.13e-01	0	28	0	6025117696	68	5579
2026-01-13 21:07:34.34	162.47	4.91	-59.7	-69.5	3.8	7.45e-01	0	28	104	6033506304	82	11823
2026-01-13 21:07:35.34	162.55	4.84	-60.1	-69.8	3.8	7.48e-01	0	28	104	6033506304	83	11677
2026-01-13 21:07:36.34	162.64	4.77	-60.3	-70.0	3.8	7.47e-01	0	28	104	6033506304	83	11912
2026-01-13 21:07:37.34	162.72	4.69	-60.6	-70.3	3.8	7.46e-01	0	28	104	6033506304	84	11654
2026-01-13 21:07:38.34	162.81	4.62	-60.7	-70.5	3.8	7.47e-01	0	28	104	6033506304	84	11894
2026-01-13 21:07:39.34	162.89	4.55	-60.9	-70.6	3.8	7.45e-01	0	28	104	6033506304	84	12027
2026-01-13 21:07:40.33	162.98	4.48	-61.0	-70.7	3.8	7.45e-01	0	28	104	6033506304	85	11509
2026-01-13 21:07:41.32	163.06	4.40	-61.0	-70.7	3.8	7.45e-01	0	28	104	6033506304	85	11546
2026-01-13 21:07:42.32	163.14	4.33	-61.1	-70.9	3.8	7.46e-01	0	28	104	6033506304	85	11697
2026-01-13 21:07:43.32	163.22	4.26	-61.2	-70.9	3.8	7.44e-01	0	28	104	6033506304	85	11815
2026-01-13 21:07:44.30	163.30	4.19	-61.2	-71.0	3.8	7.45e-01	0	28	104	6033506304	85	11819
2026-01-13 21:07:45.30	163.39	4.12	-61.3	-71.0	3.8	7.45e-01	0	28	104	6033506304	85	11903
2026-01-13 21:07:46.29	163.47	4.05	-61.3	-71.0	3.8	7.45e-01	0	28	104	6033506304	85	11946
2026-01-13 21:07:47.29	163.55	3.98	-61.4	-71.1	3.8	7.46e-01	0	28	104	6033506304	85	12065
2026-01-13 21:07:48.29	163.63	3.91	-61.4	-71.1	3.8	7.45e-01	0	28	104	6033506304	85	12051
2026-01-13 21:07:49.28	163.71	3.84	-61.4	-71.1	3.8	7.46e-01	0	28	104	6033506304	85	12089
2026-01-13 21:07:50.29	163.79	3.76	-61.9	-71.4	3.8	7.45e-01	0	28	104	6033506304	86	11748
2026-01-13 21:07:51.29	163.86	3.69	-61.5	-71.2	3.8	7.47e-01	0	28	104	6033506304	86	11509
2026-01-13 21:07:52.28	163.94	3.63	-61.5	-71.2	3.8	7.45e-01	0	28	104	6033506304	86	11507
2026-01-13 21:07:53.28	164.02	3.56	-61.5	-71.2	3.8	7.47e-01	0	28	104	6033506304	86	11494
2026-01-13 21:07:54.28	164.10	3.49	-61.5	-71.2	3.8	7.46e-01	0	28	104	6033506304	86	11485
2026-01-13 21:07:55.27	164.17	3.42	-61.5	-71.2	3.8	7.46e-01	0	28	104	6033506304	86	11498
2026-01-13 21:07:56.27	164.25	3.35	-61.4	-71.2	3.8	7.48e-01	0	28	104	6033506304	86	11446
2026-01-13 21:07:57.27	164.32	3.28	-61.4	-71.2	3.8	7.45e-01	0	28	104	6033506304	86	11488
2026-01-13 21:07:58.27	164.40	3.21	-61.4	-71.2	3.8	7.47e-01	0	28	104	6033506304	86	11440
2026-01-13 21:07:59.28	164.48	3.14	-61.4	-71.1	3.8	7.46e-01	0	28	104	6033506304	86	11392
2026-01-13 21:08:00.28	164.55	3.07	-61.4	-71.1	3.8	7.45e-01	0	28	104	6033506304	86	11417
2026-01-13 21:08:01.28	164.63	3.00	-61.4	-71.1	3.8	7.47e-01	0	28	104	6033506304	86	11383
2026-01-13 21:08:02.28	164.70	2.94	-61.4	-71.1	3.8	7.46e-01	0	28	104	6033506304	86	11408
2026-01-13 21:08:03.27	164.77	2.87	-61.4	-71.1	3.8	7.46e-01	0	28	104	6033506304	86	11397
2026-01-13 21:08:04.27	164.84	2.80	-61.4	-71.1	3.8	7.45e-01	0	28	104	6033506304	86	11386
2026-01-13 21:08:05.27	164.92	2.73	-61.4	-71.1	3.8	7.46e-01	0	28	104	6033506304	86	11386
2026-01-13 21:08:06.27	164.99	2.67	-61.4	-71.1	3.8	7.46e-01	0	28	104	6033506304	86	11348
2026-01-13 21:08:07.27	165.06	2.60	-61.4	-71.1	3.8	7.46e-01	0	28	104	6033506304	86	11351
2026-01-13 21:08:08.28	165.13	2.53	-61.4	-71.1	3.8	7.45e-01	0	28	104	6033506304	86	11395
2026-01-13 21:08:09.28	165.20	2.46	-61.4	-71.1	3.8	7.48e-01	0	28	104	6033506304	86	11404
2026-01-13 21:08:10.28	165.27	2.40	-61.3	-71.1	3.8	7.47e-01	0	28	104	6033506304	86	11356
2026-01-13 21:08:11.27	165.34	2.33	-61.4	-71.1	3.8	7.46e-01	0	28	104	6033506304	86	11364
2026-01-13 21:08:12.27	165.41	2.27	-61.4	-71.1	3.8	7.45e-01	0	28	104	6033506304	86	11340
2026-01-13 21:08:13.28	165.48	2.20	-61.4	-71.1	3.8	7.46e-01	0	28	104	6033506304	86	11352
2026-01-13 21:08:14.28	165.55	2.13	-61.3	-71.1	3.8	7.45e-01	0	28	104	6033506304	86	11329
2026-01-13 21:08:15.27	165.62	2.07	-61.3	-71.1	3.8	7.45e-01	0	28	104	6033506304	86	11339
2026-01-13 21:08:16.26	165.69	2.00	-61.3	-71.1	3.8	7.47e-01	0	28	104	6033506304	86	11305

#Closed at: 2026-01-13 21:08:16
#Recorded file [6033 MB]: D:/lorett/data/31004_260113_235817.dat