passes_logs/2026/01/13/R3.2S_Murmansk/R3.2S_Murmansk__20260113_081018_KANOPUS-V_5_rec.log

#Pass ID: 20260113_081018_KANOPUS-V 5
#Satellite: KANOPUS-V 5
#Configuration: KANOPUS-V_8320
#almurnet v.1.7.20251203
#Start time: 2026-01-13 08:10:20

#Version: 2.2.20231116
#Station: R3.2S_Murmansk
#Location: 33.079688 lon 68.888172 lat
#TLE: 1 43876U 18111A   26013.00308852  .00002656  00000+0  11448-3 0  9997
#TLE: 2 43876  97.3683 281.5536 0001778  87.2779 272.8662 15.23428134391165

#Time	Az	El	Level	Level2	SNR	BER	BlckErr	Temp	State	Recorded	gain1	gain2
2026-01-13 08:10:20.31	170.61	2.14	-59.1	-68.8	3.8	7.45e-01	0	24	0	0	82	10992
2026-01-13 08:10:21.31	170.64	2.21	-59.1	-68.9	3.8	7.45e-01	0	24	104	0	82	11043
2026-01-13 08:10:22.30	170.67	2.28	-59.1	-68.8	3.8	7.46e-01	0	24	104	0	82	11017
2026-01-13 08:10:23.29	170.69	2.35	-59.1	-68.8	3.8	7.45e-01	0	24	104	0	82	11008
2026-01-13 08:10:24.28	170.72	2.42	-59.1	-68.8	3.8	7.45e-01	0	24	104	0	82	11014
2026-01-13 08:10:25.28	170.75	2.49	-59.1	-68.8	3.8	7.47e-01	0	24	104	0	82	10976
2026-01-13 08:10:26.28	170.78	2.56	-59.1	-68.8	3.8	7.44e-01	0	24	104	0	82	10948
2026-01-13 08:10:27.28	170.81	2.64	-59.1	-68.8	3.8	7.46e-01	0	24	104	0	82	10914
2026-01-13 08:10:28.28	170.84	2.71	-59.1	-68.7	3.8	7.47e-01	0	24	104	0	82	10838
2026-01-13 08:10:29.28	170.87	2.78	-59.1	-68.7	3.8	7.45e-01	0	24	104	0	82	10876
2026-01-13 08:10:30.27	170.89	2.85	-59.1	-68.7	3.8	7.43e-01	0	24	104	0	82	10858
2026-01-13 08:10:31.27	170.92	2.92	-59.1	-68.7	3.8	7.45e-01	0	24	104	0	82	10811
2026-01-13 08:10:32.26	170.95	3.00	-59.1	-68.7	3.8	7.45e-01	0	25	104	0	82	10811
2026-01-13 08:10:33.25	170.98	3.07	-59.1	-68.6	3.8	7.45e-01	0	24	104	0	82	10714
2026-01-13 08:10:34.25	171.01	3.14	-59.1	-68.6	3.8	7.45e-01	0	24	104	0	82	10683
2026-01-13 08:10:35.25	171.04	3.21	-59.1	-68.6	3.8	7.47e-01	0	25	104	0	82	10712
2026-01-13 08:10:36.24	171.07	3.29	-59.1	-68.6	3.8	7.47e-01	0	24	104	0	82	10729
2026-01-13 08:10:37.24	171.10	3.36	-59.1	-68.6	3.8	7.46e-01	0	24	104	0	82	10749
2026-01-13 08:10:38.24	171.13	3.44	-59.2	-68.8	3.8	7.46e-01	0	25	104	0	82	10979
2026-01-13 08:10:39.24	171.16	3.51	-59.2	-68.9	3.8	7.45e-01	0	25	104	0	82	11083
2026-01-13 08:10:40.23	171.19	3.58	-59.2	-68.9	3.8	7.46e-01	0	25	104	0	82	11081
2026-01-13 08:10:41.23	171.22	3.66	-59.1	-68.6	3.8	7.46e-01	0	25	104	0	82	10735
2026-01-13 08:10:42.22	171.26	3.73	-59.0	-68.1	3.8	7.46e-01	0	25	104	0	82	10171
2026-01-13 08:10:43.21	171.29	3.81	-58.8	-67.3	3.8	7.44e-01	0	25	104	0	82	9189
2026-01-13 08:10:44.21	171.32	3.88	-58.6	-66.5	3.8	7.43e-01	0	25	104	0	81	8873
2026-01-13 08:10:45.21	171.35	3.96	-58.3	-65.5	3.9	7.41e-01	0	25	104	0	81	7976
2026-01-13 08:10:46.20	171.38	4.04	-58.0	-64.6	4.3	7.26e-01	0	25	0	6291456	80	7590
2026-01-13 08:10:47.19	171.41	4.11	-57.8	-63.8	4.7	7.09e-01	0	25	0	20971520	80	6942
2026-01-13 08:10:48.18	171.45	4.19	-57.4	-62.8	5.3	6.83e-01	0	25	0	37748736	79	6552
2026-01-13 08:10:49.18	171.48	4.27	-57.1	-62.2	5.7	6.67e-01	0	25	0	52428800	78	6454
2026-01-13 08:10:50.17	171.51	4.34	-56.7	-61.4	6.4	6.48e-01	0	25	0	67108864	78	5885
2026-01-13 08:10:51.18	171.54	4.42	-56.0	-60.1	7.3	6.04e-01	0	25	0	83886080	76	5716
2026-01-13 08:10:52.17	171.58	4.50	-55.3	-59.2	8.0	6.05e-01	0	25	0	98566144	75	5429
2026-01-13 08:10:53.17	171.61	4.58	-54.8	-58.4	8.6	6.02e-01	0	25	0	113246208	74	5263
2026-01-13 08:10:54.17	171.64	4.66	-54.1	-57.4	9.2	5.94e-01	0	25	0	130023424	72	5274
2026-01-13 08:10:55.16	171.68	4.73	-53.4	-56.5	10.0	5.87e-01	0	25	0	144703488	71	5032
2026-01-13 08:10:56.15	171.71	4.81	-53.0	-56.1	10.2	5.85e-01	0	25	0	159383552	70	5058
2026-01-13 08:10:57.13	171.74	4.89	-52.8	-55.7	10.5	5.84e-01	0	25	0	174063616	70	4867
2026-01-13 08:10:58.13	171.78	4.97	-52.5	-55.4	10.7	5.82e-01	0	25	0	190840832	69	4979
2026-01-13 08:10:59.13	171.81	5.05	-52.7	-55.7	10.5	5.84e-01	0	25	0	205520896	69	5118
2026-01-13 08:11:00.12	171.85	5.13	-56.6	-61.2	6.5	6.44e-01	0	25	0	220200960	77	6071
2026-01-13 08:11:01.11	171.88	5.21	-56.1	-60.6	6.7	6.37e-01	0	25	0	236978176	75	6385
2026-01-13 08:11:02.11	171.92	5.29	-54.5	-58.1	8.8	5.99e-01	0	25	0	251658240	72	5669
2026-01-13 08:11:03.11	171.95	5.37	-55.0	-58.6	8.4	6.03e-01	0	25	0	266338304	73	5716
2026-01-13 08:11:04.10	171.99	5.46	-55.0	-58.8	8.1	6.07e-01	0	25	0	281018368	73	5814
2026-01-13 08:11:05.09	172.02	5.54	-52.1	-55.0	11.0	5.82e-01	0	25	0	297795584	68	5002
2026-01-13 08:11:06.09	172.06	5.62	-52.1	-54.9	11.0	5.81e-01	0	25	0	312475648	68	4980
2026-01-13 08:11:07.09	172.10	5.70	-52.1	-55.0	11.0	5.82e-01	0	25	0	327155712	68	4988
2026-01-13 08:11:08.08	172.13	5.79	-52.2	-55.0	11.0	5.81e-01	0	25	0	343932928	68	5036
2026-01-13 08:11:09.07	172.17	5.87	-52.0	-54.9	11.1	5.82e-01	0	25	0	358612992	68	4935
2026-01-13 08:11:10.06	172.21	5.95	-52.0	-54.9	11.2	5.80e-01	0	25	0	373293056	68	4931
2026-01-13 08:11:11.04	172.24	6.03	-52.1	-54.9	11.1	5.81e-01	0	25	0	387973120	68	4968
2026-01-13 08:11:12.02	172.28	6.12	-52.0	-54.9	11.1	5.81e-01	0	25	0	402653184	68	4939
2026-01-13 08:11:13.02	172.32	6.20	-52.0	-54.8	11.2	5.81e-01	0	25	0	419430400	68	4905
2026-01-13 08:11:14.01	172.35	6.29	-52.0	-54.9	11.2	5.80e-01	0	25	0	434110464	68	4929
2026-01-13 08:11:15.01	172.39	6.37	-52.0	-54.8	11.3	5.80e-01	0	25	0	448790528	68	4880
2026-01-13 08:11:16.01	172.43	6.46	-52.0	-54.8	11.3	5.82e-01	0	25	0	465567744	68	4897
2026-01-13 08:11:17.00	172.47	6.54	-51.8	-54.6	11.4	5.81e-01	0	25	0	480247808	68	4777
2026-01-13 08:11:18.00	172.51	6.63	-51.7	-54.5	11.5	5.80e-01	0	25	0	494927872	68	4722
2026-01-13 08:11:19.00	172.55	6.72	-52.0	-54.8	11.2	5.80e-01	0	25	0	509607936	68	4899
2026-01-13 08:11:20.00	172.59	6.81	-51.9	-54.7	11.3	5.80e-01	0	25	0	526385152	68	4831
2026-01-13 08:11:20.99	172.63	6.89	-51.7	-54.5	11.6	5.79e-01	0	25	0	541065216	68	4706
2026-01-13 08:11:21.98	172.67	6.98	-51.8	-54.5	11.5	5.80e-01	0	25	0	555745280	68	4737
2026-01-13 08:11:22.98	172.71	7.07	-51.9	-54.7	11.4	5.80e-01	0	25	0	572522496	68	4822
2026-01-13 08:11:23.98	172.75	7.16	-51.6	-54.3	11.6	5.79e-01	0	25	0	587202560	67	4892
2026-01-13 08:11:24.98	172.79	7.25	-51.6	-54.3	11.5	5.80e-01	0	25	0	601882624	67	4925
2026-01-13 08:11:25.97	172.83	7.34	-51.7	-54.4	11.5	5.81e-01	0	25	0	618659840	67	4957
2026-01-13 08:11:26.96	172.87	7.43	-51.6	-54.4	11.6	5.80e-01	0	25	0	633339904	67	4931
2026-01-13 08:11:27.95	172.91	7.52	-51.5	-54.3	11.6	5.81e-01	0	25	0	648019968	67	4896
2026-01-13 08:11:28.95	172.96	7.61	-51.6	-54.3	11.6	5.79e-01	0	25	0	662700032	67	4893
2026-01-13 08:11:29.95	173.00	7.70	-51.6	-54.4	11.6	5.79e-01	0	25	0	679477248	67	4951
2026-01-13 08:11:30.95	173.04	7.79	-51.6	-54.3	11.7	5.78e-01	0	25	0	694157312	67	4897
2026-01-13 08:11:31.95	173.08	7.89	-51.5	-54.2	11.8	5.79e-01	0	25	0	708837376	67	4828
2026-01-13 08:11:32.95	173.13	7.98	-51.5	-54.2	11.8	5.79e-01	0	25	0	725614592	67	4830
2026-01-13 08:11:33.95	173.17	8.07	-51.4	-54.1	11.9	5.78e-01	0	25	0	740294656	67	4775
2026-01-13 08:11:34.94	173.21	8.17	-51.4	-54.1	11.9	5.78e-01	0	25	0	754974720	67	4782
2026-01-13 08:11:35.93	173.26	8.26	-51.3	-54.0	11.9	5.79e-01	0	25	0	769654784	67	4745
2026-01-13 08:11:36.92	173.30	8.36	-51.3	-54.0	11.9	5.79e-01	0	26	0	786432000	67	4729
2026-01-13 08:11:37.92	173.35	8.45	-51.4	-54.1	11.8	5.78e-01	0	26	0	801112064	67	4811
2026-01-13 08:11:38.92	173.39	8.55	-51.2	-53.9	12.0	5.78e-01	0	26	0	815792128	67	4653
2026-01-13 08:11:39.92	173.44	8.64	-51.2	-53.9	11.9	5.78e-01	0	25	0	832569344	66	4969
2026-01-13 08:11:40.91	173.48	8.74	-51.2	-53.9	11.9	5.79e-01	0	26	0	847249408	66	4957
2026-01-13 08:11:41.90	173.53	8.84	-51.3	-54.0	11.8	5.79e-01	0	25	0	861929472	66	5035
2026-01-13 08:11:42.89	173.58	8.93	-51.2	-53.9	11.9	5.79e-01	0	25	0	876609536	66	4940
2026-01-13 08:11:43.89	173.62	9.03	-51.1	-53.8	12.0	5.79e-01	0	25	0	893386752	66	4894
2026-01-13 08:11:44.88	173.67	9.13	-51.2	-53.8	12.0	5.78e-01	0	26	0	908066816	66	4918
2026-01-13 08:11:45.87	173.72	9.23	-51.0	-53.7	12.1	5.79e-01	0	26	0	922746880	66	4826
2026-01-13 08:11:46.86	173.77	9.33	-50.9	-53.6	12.2	5.79e-01	0	26	0	939524096	66	4796
2026-01-13 08:11:47.86	173.82	9.43	-51.0	-53.7	12.1	5.78e-01	0	26	0	954204160	66	4818
2026-01-13 08:11:48.85	173.86	9.53	-51.0	-53.7	12.1	5.78e-01	0	26	0	968884224	66	4829
2026-01-13 08:11:49.84	173.91	9.63	-50.9	-53.5	12.2	5.78e-01	0	26	0	983564288	66	4757
2026-01-13 08:11:50.83	173.96	9.73	-50.9	-53.5	12.3	5.78e-01	0	26	0	1000341504	66	4747
2026-01-13 08:11:51.82	174.01	9.83	-50.8	-53.4	12.3	5.78e-01	0	26	0	1015021568	66	4694
2026-01-13 08:11:52.82	174.06	9.93	-50.7	-53.4	12.4	5.79e-01	0	26	0	1029701632	66	4674
2026-01-13 08:11:53.82	174.11	10.04	-50.7	-53.4	12.4	5.78e-01	0	26	0	1046478848	66	4655
2026-01-13 08:11:54.81	174.16	10.14	-50.7	-53.3	12.4	5.77e-01	0	26	0	1061158912	66	4635
2026-01-13 08:11:55.80	174.22	10.25	-50.7	-53.3	12.4	5.77e-01	0	26	0	1075838976	66	4629
2026-01-13 08:11:56.80	174.27	10.35	-50.6	-53.1	12.4	5.78e-01	0	26	0	1090519040	65	4799
2026-01-13 08:11:57.79	174.32	10.46	-50.6	-53.2	12.3	5.78e-01	0	26	0	1107296256	65	4835
2026-01-13 08:11:58.78	174.37	10.56	-50.5	-53.1	12.4	5.78e-01	0	26	0	1121976320	65	4776
2026-01-13 08:11:59.78	174.43	10.67	-50.3	-52.8	12.6	5.77e-01	0	26	0	1136656384	65	4639
2026-01-13 08:12:00.77	174.48	10.78	-50.2	-52.7	12.7	5.77e-01	0	26	0	1151336448	65	4592
2026-01-13 08:12:01.77	174.53	10.89	-50.2	-52.7	12.7	5.78e-01	0	26	0	1168113664	65	4579
2026-01-13 08:12:02.76	174.59	10.99	-50.3	-52.8	12.7	5.77e-01	0	26	0	1182793728	65	4601
2026-01-13 08:12:03.75	174.64	11.10	-50.1	-52.6	12.7	5.76e-01	0	26	0	1197473792	64	4765
2026-01-13 08:12:04.74	174.70	11.21	-50.1	-52.5	12.8	5.78e-01	0	26	0	1212153856	64	4740
2026-01-13 08:12:05.74	174.76	11.32	-50.1	-52.5	12.8	5.78e-01	0	26	0	1228931072	64	4749
2026-01-13 08:12:06.73	174.81	11.43	-50.0	-52.4	12.8	5.77e-01	0	26	0	1243611136	64	4690
2026-01-13 08:12:07.72	174.87	11.54	-50.0	-52.4	12.8	5.77e-01	0	26	0	1258291200	64	4695
2026-01-13 08:12:08.71	174.93	11.66	-49.9	-52.3	12.9	5.77e-01	0	26	0	1275068416	64	4647
2026-01-13 08:12:09.71	174.98	11.77	-49.9	-52.3	12.9	5.96e-01	0	26	0	1289748480	64	4628
2026-01-13 08:12:10.71	175.04	11.88	-49.8	-52.2	12.9	6.00e-01	0	26	0	1304428544	64	4579
2026-01-13 08:12:11.70	175.10	12.00	-49.7	-52.1	13.0	6.01e-01	0	26	0	1319108608	64	4526
2026-01-13 08:12:12.70	175.16	12.11	-49.7	-52.1	12.9	5.99e-01	0	26	0	1335885824	63	4804
2026-01-13 08:12:13.70	175.22	12.23	-49.7	-52.1	13.0	5.94e-01	0	26	0	1350565888	63	4785
2026-01-13 08:12:14.69	175.28	12.35	-49.7	-52.1	13.0	5.99e-01	0	26	0	1365245952	63	4781
2026-01-13 08:12:15.69	175.34	12.46	-49.8	-52.2	12.9	6.02e-01	0	26	0	1382023168	63	4821
2026-01-13 08:12:16.68	175.41	12.58	-49.6	-52.0	13.0	5.98e-01	0	26	0	1396703232	63	4732
2026-01-13 08:12:17.68	175.47	12.70	-49.6	-52.0	13.0	5.98e-01	0	26	0	1411383296	63	4727
2026-01-13 08:12:18.68	175.53	12.82	-49.8	-52.2	12.9	5.95e-01	0	26	0	1428160512	63	4835
2026-01-13 08:12:19.67	175.60	12.94	-49.6	-52.0	13.0	5.96e-01	0	26	0	1442840576	63	4735
2026-01-13 08:12:20.67	175.66	13.06	-49.6	-52.1	13.0	6.00e-01	0	26	0	1457520640	63	4765
2026-01-13 08:12:21.66	175.72	13.19	-49.5	-51.9	13.1	6.00e-01	0	26	0	1474297856	63	4671
2026-01-13 08:12:22.65	175.79	13.31	-49.4	-51.9	13.1	6.00e-01	0	26	0	1488977920	63	4666
2026-01-13 08:12:23.65	175.86	13.43	-49.5	-51.9	13.1	6.00e-01	0	26	0	1503657984	63	4688
2026-01-13 08:12:24.65	175.92	13.56	-49.4	-51.9	13.2	5.97e-01	0	26	0	1518338048	63	4668
2026-01-13 08:12:25.64	175.99	13.68	-49.3	-51.7	13.2	5.94e-01	0	26	0	1535115264	63	4597
2026-01-13 08:12:26.63	176.06	13.81	-49.3	-51.7	13.2	5.96e-01	0	26	0	1549795328	63	4574
2026-01-13 08:12:27.63	176.13	13.93	-49.4	-51.8	13.2	5.98e-01	0	26	0	1564475392	63	4626
2026-01-13 08:12:28.62	176.19	14.06	-49.2	-51.7	13.3	5.97e-01	0	26	0	1579155456	63	4567
2026-01-13 08:12:29.61	176.26	14.19	-49.2	-51.7	13.3	5.91e-01	0	26	0	1595932672	63	4557
2026-01-13 08:12:30.60	176.33	14.32	-49.1	-51.5	13.3	5.94e-01	0	26	0	1610612736	62	4753
2026-01-13 08:12:31.59	176.41	14.45	-49.1	-51.5	13.2	5.96e-01	0	26	0	1625292800	62	4744
2026-01-13 08:12:32.59	176.48	14.58	-49.1	-51.6	13.2	5.97e-01	0	26	0	1639972864	62	4773
2026-01-13 08:12:33.58	176.55	14.71	-49.1	-51.5	13.3	5.94e-01	0	26	0	1656750080	62	4726
2026-01-13 08:12:34.57	176.62	14.84	-49.1	-51.5	13.3	5.99e-01	0	25	0	1671430144	62	4712
2026-01-13 08:12:35.56	176.70	14.97	-48.9	-51.3	13.4	5.94e-01	0	26	0	1686110208	62	4640
2026-01-13 08:12:36.55	176.77	15.11	-48.9	-51.3	13.4	5.96e-01	0	26	0	1700790272	62	4611
2026-01-13 08:12:37.54	176.85	15.24	-48.9	-51.3	13.4	5.96e-01	0	26	0	1717567488	62	4612
2026-01-13 08:12:38.53	176.92	15.38	-48.9	-51.3	13.4	6.00e-01	0	26	0	1732247552	62	4623
2026-01-13 08:12:39.53	177.00	15.52	-48.8	-51.2	13.5	5.99e-01	0	26	0	1746927616	62	4587
2026-01-13 08:12:40.52	177.08	15.66	-48.8	-51.2	13.5	5.95e-01	0	26	0	1763704832	62	4560
2026-01-13 08:12:41.51	177.16	15.79	-48.6	-51.0	13.5	6.00e-01	0	26	0	1778384896	61	4712
2026-01-13 08:12:42.50	177.24	15.93	-48.7	-51.1	13.4	5.96e-01	0	26	0	1793064960	61	4772
2026-01-13 08:12:43.49	177.32	16.08	-48.5	-50.9	13.5	5.95e-01	0	26	0	1807745024	61	4670
2026-01-13 08:12:44.48	177.40	16.22	-48.4	-50.7	13.6	5.93e-01	0	26	0	1824522240	61	4597
2026-01-13 08:12:45.48	177.48	16.36	-48.5	-50.8	13.6	5.92e-01	0	26	0	1839202304	61	4631
2026-01-13 08:12:46.48	177.56	16.51	-48.5	-50.8	13.6	5.96e-01	0	26	0	1853882368	61	4647
2026-01-13 08:12:47.48	177.65	16.65	-48.4	-50.8	13.6	5.98e-01	0	26	0	1870659584	61	4601
2026-01-13 08:12:48.47	177.73	16.80	-48.2	-50.5	13.8	5.93e-01	0	26	0	1885339648	61	4466
2026-01-13 08:12:49.47	177.82	16.95	-48.2	-50.5	13.6	5.91e-01	0	26	0	1900019712	60	4716
2026-01-13 08:12:50.46	177.90	17.10	-48.1	-50.4	13.7	5.96e-01	0	26	0	1916796928	60	4658
2026-01-13 08:12:51.45	177.99	17.25	-48.1	-50.4	13.7	5.98e-01	0	26	0	1929379840	60	4697
2026-01-13 08:12:52.45	178.08	17.40	-48.2	-50.5	13.6	5.98e-01	0	26	0	1946157056	60	4707
2026-01-13 08:12:53.44	178.17	17.55	-47.9	-50.1	13.8	6.00e-01	0	26	0	1960837120	60	4535
2026-01-13 08:12:54.43	178.26	17.70	-47.9	-50.1	13.8	6.01e-01	0	26	0	1975517184	60	4537
2026-01-13 08:12:55.43	178.35	17.86	-47.8	-50.0	13.9	5.99e-01	0	26	0	1992294400	60	4490
2026-01-13 08:12:56.42	178.45	18.01	-47.8	-50.1	13.9	6.00e-01	0	26	0	2006974464	60	4499
2026-01-13 08:12:57.42	178.54	18.17	-47.7	-50.0	13.9	6.01e-01	0	26	0	2021654528	60	4469
2026-01-13 08:12:58.41	178.63	18.33	-47.8	-50.1	13.9	6.01e-01	0	26	0	2038431744	60	4502
2026-01-13 08:12:59.40	178.73	18.49	-47.9	-50.2	13.8	6.01e-01	0	26	0	2053111808	60	4554
2026-01-13 08:13:00.40	178.83	18.65	-47.8	-50.0	13.9	6.01e-01	0	26	0	2067791872	60	4475
2026-01-13 08:13:01.40	178.93	18.81	-47.7	-50.0	13.9	6.00e-01	0	26	0	2082471936	60	4467
2026-01-13 08:13:02.39	179.03	18.98	-47.8	-50.0	13.9	6.01e-01	0	26	0	2099249152	60	4479
2026-01-13 08:13:03.39	179.13	19.14	-47.8	-50.0	13.9	6.02e-01	0	26	0	2113929216	60	4487
2026-01-13 08:13:04.39	179.23	19.31	-47.8	-50.0	13.9	6.04e-01	0	26	0	2128609280	60	4477
2026-01-13 08:13:05.38	179.33	19.48	-47.8	-50.0	13.9	6.02e-01	0	26	0	2145386496	60	4485
2026-01-13 08:13:06.37	179.44	19.64	-47.7	-49.9	14.0	6.01e-01	0	26	0	2160066560	60	4419
2026-01-13 08:13:07.37	179.54	19.81	-47.7	-49.9	13.8	6.02e-01	0	26	0	2174746624	59	4705
2026-01-13 08:13:08.36	179.65	19.99	-47.8	-50.0	13.8	6.02e-01	0	26	0	2191523840	59	4722
2026-01-13 08:13:09.36	179.76	20.16	-47.7	-49.9	13.8	6.05e-01	0	26	0	2206203904	59	4658
2026-01-13 08:13:10.36	179.87	20.33	-47.6	-49.8	13.9	6.04e-01	0	26	0	2220883968	59	4633
2026-01-13 08:13:11.35	179.98	20.51	-47.7	-49.9	13.9	6.04e-01	0	26	0	2235564032	59	4654
2026-01-13 08:13:12.35	180.09	20.69	-47.6	-49.8	13.9	6.02e-01	0	26	0	2252341248	59	4638
2026-01-13 08:13:13.34	180.21	20.87	-47.6	-49.8	13.9	6.02e-01	0	26	0	2267021312	59	4625
2026-01-13 08:13:14.34	180.32	21.05	-47.7	-49.8	13.9	6.03e-01	0	26	0	2281701376	59	4643
2026-01-13 08:13:15.33	180.44	21.23	-47.7	-49.8	13.9	6.04e-01	0	26	0	2298478592	59	4629
2026-01-13 08:13:16.31	180.56	21.41	-47.6	-49.7	13.9	6.03e-01	0	26	0	2313158656	59	4590
2026-01-13 08:13:17.30	180.68	21.59	-47.7	-49.8	13.9	6.04e-01	0	26	0	2327838720	59	4601
2026-01-13 08:13:18.30	180.80	21.78	-47.6	-49.7	13.9	6.05e-01	0	26	0	2342518784	59	4579
2026-01-13 08:13:19.29	180.92	21.97	-47.7	-49.7	13.9	6.04e-01	0	26	0	2357198848	59	4586
2026-01-13 08:13:20.29	181.05	22.16	-47.7	-49.7	13.9	6.03e-01	0	26	0	2373976064	59	4579
2026-01-13 08:13:21.29	181.17	22.35	-47.5	-49.5	14.0	6.02e-01	0	26	0	2388656128	59	4461
2026-01-13 08:13:22.29	181.30	22.55	-47.5	-49.4	14.0	6.01e-01	0	26	0	2403336192	59	4429
2026-01-13 08:13:23.29	181.43	22.74	-47.5	-49.4	14.1	6.00e-01	0	26	0	2420113408	59	4423
2026-01-13 08:13:24.28	181.56	22.94	-47.4	-49.4	14.1	6.01e-01	0	26	0	2434793472	59	4421
2026-01-13 08:13:25.27	181.70	23.14	-47.4	-49.4	14.1	6.02e-01	0	26	0	2449473536	59	4404
2026-01-13 08:13:26.26	181.83	23.34	-47.5	-49.4	14.0	6.03e-01	0	26	0	2466250752	59	4436
2026-01-13 08:13:27.26	181.97	23.54	-47.4	-49.4	14.0	5.99e-01	0	26	0	2480930816	59	4432
2026-01-13 08:13:28.25	182.11	23.74	-47.4	-49.4	14.1	6.03e-01	0	26	0	2495610880	59	4439
2026-01-13 08:13:29.24	182.25	23.95	-47.5	-49.5	14.0	6.04e-01	0	26	0	2510290944	59	4474
2026-01-13 08:13:30.23	182.39	24.15	-47.4	-49.5	14.1	5.99e-01	0	26	0	2527068160	59	4442
2026-01-13 08:13:31.23	182.54	24.36	-47.4	-49.5	14.1	5.98e-01	0	26	0	2541748224	59	4445
2026-01-13 08:13:32.22	182.69	24.57	-47.5	-49.6	14.0	5.99e-01	0	26	0	2556428288	59	4495
2026-01-13 08:13:33.21	182.83	24.79	-47.5	-49.6	14.0	6.00e-01	0	26	0	2573205504	59	4504
2026-01-13 08:13:34.20	182.99	25.00	-47.3	-49.4	14.1	5.97e-01	0	26	0	2587885568	59	4421
2026-01-13 08:13:35.20	183.14	25.22	-47.3	-49.4	14.1	6.00e-01	0	26	0	2602565632	59	4415
2026-01-13 08:13:36.18	183.30	25.43	-47.4	-49.4	14.1	6.00e-01	0	26	0	2617245696	59	4436
2026-01-13 08:13:37.18	183.46	25.66	-47.3	-49.4	14.1	5.99e-01	0	26	0	2634022912	59	4406
2026-01-13 08:13:38.18	183.62	25.88	-47.3	-49.3	14.1	6.00e-01	0	26	0	2648702976	59	4389
2026-01-13 08:13:39.17	183.78	26.11	-47.3	-49.3	14.1	5.97e-01	0	26	0	2663383040	59	4389
2026-01-13 08:13:40.15	183.94	26.33	-47.3	-49.3	14.1	5.99e-01	0	26	0	2678063104	59	4378
2026-01-13 08:13:41.15	184.11	26.56	-47.3	-49.3	14.1	6.05e-01	0	26	0	2692743168	59	4381
2026-01-13 08:13:42.14	184.29	26.79	-47.3	-49.3	14.1	6.02e-01	0	26	0	2709520384	59	4390
2026-01-13 08:13:43.13	184.46	27.02	-47.4	-49.4	14.1	6.00e-01	0	26	0	2724200448	59	4426
2026-01-13 08:13:44.13	184.64	27.26	-47.4	-49.4	14.1	5.76e-01	0	26	0	2738880512	59	4437
2026-01-13 08:13:45.13	184.82	27.50	-47.3	-49.4	14.1	5.76e-01	0	26	0	2755657728	59	4400
2026-01-13 08:13:46.13	185.00	27.74	-47.4	-49.5	14.1	5.76e-01	0	26	0	2770337792	59	4457
2026-01-13 08:13:47.12	185.19	27.98	-47.4	-49.4	14.1	5.77e-01	0	26	0	2785017856	59	4416
2026-01-13 08:13:48.12	185.38	28.23	-47.3	-49.3	14.2	5.77e-01	0	26	0	2801795072	59	4390
2026-01-13 08:13:49.11	185.57	28.48	-47.4	-49.5	14.1	5.76e-01	0	26	0	2816475136	59	4456
2026-01-13 08:13:50.11	185.76	28.73	-47.5	-49.6	14.0	5.76e-01	0	26	0	2831155200	59	4516
2026-01-13 08:13:51.11	185.96	28.98	-47.6	-49.7	14.0	5.76e-01	0	26	0	2847932416	59	4584
2026-01-13 08:13:52.11	186.17	29.24	-47.6	-49.8	14.0	5.76e-01	0	26	0	2862612480	59	4623
2026-01-13 08:13:53.10	186.37	29.49	-47.7	-49.9	13.9	5.76e-01	0	26	0	2877292544	59	4680
2026-01-13 08:13:54.09	186.58	29.75	-47.8	-49.9	13.8	5.76e-01	0	26	0	2891972608	59	4697
2026-01-13 08:13:55.08	186.79	30.01	-47.7	-49.8	13.9	5.76e-01	0	26	0	2908749824	59	4631
2026-01-13 08:13:56.07	187.00	30.27	-47.8	-49.8	13.9	5.75e-01	0	26	0	2923429888	59	4639
2026-01-13 08:13:57.06	187.22	30.54	-47.8	-49.8	13.9	5.76e-01	0	26	0	2938109952	59	4645
2026-01-13 08:13:58.06	187.45	30.81	-47.6	-49.6	14.0	5.76e-01	0	26	0	2952790016	59	4532
2026-01-13 08:13:59.06	187.68	31.08	-47.6	-49.6	14.0	5.76e-01	0	26	0	2969567232	59	4524
2026-01-13 08:14:00.06	187.91	31.36	-47.6	-49.6	14.0	5.75e-01	0	26	0	2984247296	59	4519
2026-01-13 08:14:01.06	188.15	31.64	-47.5	-49.5	14.1	5.76e-01	0	26	0	2998927360	59	4454
2026-01-13 08:14:02.05	188.39	31.91	-47.5	-49.6	14.0	5.75e-01	0	26	0	3015704576	59	4501
2026-01-13 08:14:03.05	188.63	32.20	-47.3	-49.3	14.1	5.76e-01	0	26	0	3030384640	59	4353
2026-01-13 08:14:04.04	188.88	32.48	-47.2	-49.2	14.2	6.02e-01	0	26	0	3045064704	59	4311
2026-01-13 08:14:05.04	189.14	32.77	-47.2	-49.2	14.2	5.98e-01	0	26	0	3061841920	59	4320
2026-01-13 08:14:06.03	189.39	33.06	-47.1	-49.2	14.1	5.97e-01	0	26	0	3076521984	58	4552
2026-01-13 08:14:07.03	189.66	33.35	-47.2	-49.3	14.1	5.99e-01	0	26	0	3091202048	58	4602
2026-01-13 08:14:08.02	189.93	33.65	-47.2	-49.4	14.1	5.98e-01	0	26	0	3107979264	58	4659
2026-01-13 08:14:09.01	190.20	33.94	-47.1	-49.3	14.1	5.99e-01	0	26	0	3122659328	58	4607
2026-01-13 08:14:10.00	190.48	34.24	-47.0	-49.2	14.1	5.97e-01	0	26	0	3137339392	58	4562
2026-01-13 08:14:11.00	190.76	34.55	-47.1	-49.3	14.1	5.98e-01	0	26	0	3152019456	58	4600
2026-01-13 08:14:11.99	191.05	34.85	-47.0	-49.3	14.2	5.99e-01	0	26	0	3166699520	58	4599
2026-01-13 08:14:12.99	191.35	35.16	-47.0	-49.3	14.1	5.97e-01	0	26	0	3183476736	58	4630
2026-01-13 08:14:13.99	191.66	35.48	-47.0	-49.4	14.1	5.99e-01	0	26	0	3198156800	58	4687
2026-01-13 08:14:14.99	191.97	35.79	-47.0	-49.5	14.1	5.98e-01	0	26	0	3212836864	58	4717
2026-01-13 08:14:15.98	192.28	36.11	-46.8	-49.3	14.2	5.97e-01	0	26	0	3229614080	58	4636
2026-01-13 08:14:16.98	192.60	36.43	-46.8	-49.3	14.3	5.97e-01	0	26	0	3244294144	58	4602
2026-01-13 08:14:17.97	192.93	36.75	-46.8	-49.3	14.3	5.97e-01	0	26	0	3258974208	58	4604
2026-01-13 08:14:18.96	193.26	37.07	-46.2	-48.7	14.4	5.98e-01	0	26	0	3275751424	57	4573
2026-01-13 08:14:19.96	193.60	37.40	-46.1	-48.6	14.3	5.99e-01	0	26	0	3290431488	56	4801
2026-01-13 08:14:20.95	193.95	37.73	-46.0	-48.6	14.4	5.98e-01	0	26	0	3305111552	56	4771
2026-01-13 08:14:21.95	194.31	38.07	-46.1	-48.7	14.3	5.96e-01	0	26	0	3319791616	56	4821
2026-01-13 08:14:22.95	194.68	38.40	-45.8	-48.3	14.5	5.95e-01	0	26	0	3336568832	56	4634
2026-01-13 08:14:23.94	195.05	38.74	-45.9	-48.3	14.4	5.98e-01	0	26	0	3351248896	56	4642
2026-01-13 08:14:24.93	195.43	39.08	-45.8	-48.2	14.5	5.98e-01	0	26	0	3365928960	56	4546
2026-01-13 08:14:25.93	195.82	39.43	-45.7	-48.2	14.5	5.96e-01	0	26	0	3382706176	56	4549
2026-01-13 08:14:26.93	196.22	39.77	-45.6	-48.2	14.5	5.93e-01	0	26	0	3397386240	55	4839
2026-01-13 08:14:27.92	196.62	40.12	-45.6	-48.2	14.5	5.95e-01	0	26	0	3412066304	55	4837
2026-01-13 08:14:28.91	197.03	40.47	-45.4	-48.0	14.5	5.95e-01	0	26	0	3428843520	55	4734
2026-01-13 08:14:29.91	197.46	40.82	-45.4	-47.8	14.6	5.97e-01	0	26	0	3443523584	55	4641
2026-01-13 08:14:30.90	197.89	41.18	-45.4	-47.8	14.6	5.95e-01	0	26	0	3458203648	55	4647
2026-01-13 08:14:31.88	198.33	41.53	-45.3	-47.8	14.6	5.95e-01	0	26	0	3472883712	55	4613
2026-01-13 08:14:32.88	198.79	41.89	-45.3	-47.8	14.6	5.96e-01	0	26	0	3489660928	55	4599
2026-01-13 08:14:33.87	199.25	42.25	-45.0	-47.4	14.6	5.95e-01	0	26	0	3504340992	54	4701
2026-01-13 08:14:34.86	199.72	42.61	-45.0	-47.4	14.6	5.96e-01	0	26	0	3519021056	54	4666
2026-01-13 08:14:35.85	200.21	42.98	-44.9	-47.3	14.7	5.97e-01	0	26	0	3533701120	54	4615
2026-01-13 08:14:36.85	200.71	43.35	-44.8	-47.2	14.7	5.96e-01	0	26	0	3548381184	54	4573
2026-01-13 08:14:37.85	201.22	43.72	-44.9	-47.5	14.7	6.00e-01	0	26	0	3565158400	54	4710
2026-01-13 08:14:38.84	201.75	44.09	-45.0	-47.7	14.6	5.96e-01	0	26	0	3579838464	54	4836
2026-01-13 08:14:39.85	202.29	44.46	-45.0	-47.7	14.6	5.96e-01	0	26	0	3594518528	54	4841
2026-01-13 08:14:40.84	202.84	44.84	-45.0	-47.6	14.6	5.94e-01	0	26	0	3611295744	54	4800
2026-01-13 08:14:41.83	203.40	45.21	-45.1	-47.7	14.6	5.96e-01	0	26	0	3625975808	54	4830
2026-01-13 08:14:42.82	203.97	45.58	-44.9	-47.5	14.6	5.96e-01	0	26	0	3640655872	54	4735
2026-01-13 08:14:43.81	204.56	45.96	-45.0	-47.6	14.6	5.95e-01	0	26	0	3655335936	54	4760
2026-01-13 08:14:44.81	205.16	46.33	-44.8	-47.4	14.7	5.97e-01	0	26	0	3672113152	54	4663
2026-01-13 08:14:45.80	205.78	46.71	-44.9	-47.4	14.7	5.96e-01	0	26	0	3686793216	54	4655
2026-01-13 08:14:46.80	206.42	47.09	-44.9	-47.4	14.6	5.98e-01	0	26	0	3701473280	54	4694
2026-01-13 08:14:47.79	207.07	47.46	-44.7	-47.3	14.8	5.95e-01	0	26	0	3718250496	54	4599
2026-01-13 08:14:48.78	207.73	47.84	-44.7	-47.2	14.8	6.00e-01	0	26	0	3732930560	54	4569
2026-01-13 08:14:49.78	208.42	48.22	-44.9	-47.4	14.7	6.00e-01	0	26	0	3747610624	54	4683
2026-01-13 08:14:50.77	209.12	48.59	-45.3	-47.9	14.5	5.99e-01	0	26	0	3764387840	54	4927
2026-01-13 08:14:51.76	209.83	48.97	-45.2	-47.7	14.5	5.94e-01	0	26	0	3779067904	54	4840
2026-01-13 08:14:52.77	210.58	49.34	-45.2	-47.6	14.5	5.97e-01	0	26	0	3793747968	54	4774
2026-01-13 08:14:53.76	211.33	49.71	-45.3	-47.8	14.5	5.97e-01	0	26	0	3810525184	54	4879
2026-01-13 08:14:54.76	212.11	50.09	-45.0	-47.4	14.6	5.98e-01	0	26	0	3825205248	54	4693
2026-01-13 08:14:55.75	212.90	50.45	-45.0	-47.5	14.6	5.98e-01	0	26	0	3839885312	54	4710
2026-01-13 08:14:56.74	213.71	50.82	-45.1	-47.6	14.5	5.97e-01	0	26	0	3854565376	54	4767
2026-01-13 08:14:57.74	214.55	51.18	-45.3	-47.7	14.5	5.97e-01	0	26	0	3871342592	54	4854
2026-01-13 08:14:58.73	215.40	51.54	-45.4	-48.1	14.3	6.00e-01	0	26	0	3886022656	54	5060
2026-01-13 08:14:59.72	216.28	51.89	-45.5	-48.2	14.3	5.97e-01	0	26	0	3900702720	54	5130
2026-01-13 08:15:00.72	217.18	52.25	-45.6	-48.2	14.3	5.99e-01	0	26	0	3915382784	54	5141
2026-01-13 08:15:01.71	218.09	52.59	-45.6	-48.4	14.3	6.01e-01	0	26	0	3932160000	54	5234
2026-01-13 08:15:02.71	219.04	52.94	-45.7	-48.4	14.2	5.94e-01	0	26	0	3946840064	54	5248
2026-01-13 08:15:03.70	220.00	53.27	-45.6	-48.2	14.3	6.01e-01	0	26	0	3961520128	54	5143
2026-01-13 08:15:04.69	220.98	53.60	-45.8	-48.4	14.2	6.01e-01	0	26	0	3976200192	54	5256
2026-01-13 08:15:05.69	222.00	53.93	-45.9	-48.7	14.3	6.00e-01	0	26	0	3992977408	55	5107
2026-01-13 08:15:06.68	223.02	54.25	-45.7	-48.4	14.4	5.96e-01	0	26	0	4007657472	55	4959
2026-01-13 08:15:07.67	224.07	54.56	-45.9	-48.7	14.3	6.00e-01	0	26	0	4022337536	55	5144
2026-01-13 08:15:08.66	225.15	54.86	-46.1	-49.0	14.1	6.01e-01	0	26	0	4039114752	55	5333
2026-01-13 08:15:09.66	226.26	55.16	-45.9	-48.6	14.3	5.74e-01	0	26	0	4053794816	55	5081
2026-01-13 08:15:10.69	227.42	55.45	-45.9	-48.6	14.3	5.76e-01	0	26	0	4068474880	55	5092
2026-01-13 08:15:11.68	228.56	55.73	-46.0	-48.7	14.3	5.76e-01	0	26	0	4083154944	55	5114
2026-01-13 08:15:12.67	229.73	56.00	-45.9	-48.8	14.3	5.76e-01	0	26	0	4099932160	55	5188
2026-01-13 08:15:13.67	230.93	56.26	-45.9	-48.6	14.3	5.75e-01	0	26	0	4114612224	55	5081
2026-01-13 08:15:14.66	232.14	56.50	-46.0	-48.7	14.2	5.76e-01	0	26	0	4129292288	55	5159
2026-01-13 08:15:15.66	233.39	56.74	-46.1	-49.1	14.1	5.75e-01	0	26	0	4146069504	55	5358
2026-01-13 08:15:16.66	234.65	56.96	-46.2	-49.2	14.1	5.75e-01	0	26	0	4160749568	55	5414
2026-01-13 08:15:17.67	235.95	57.18	-46.3	-49.4	13.9	5.76e-01	0	26	0	4175429632	55	5585
2026-01-13 08:15:18.66	237.25	57.38	-46.5	-49.5	14.0	5.76e-01	0	26	0	4192206848	56	5333
2026-01-13 08:15:19.67	238.59	57.57	-46.6	-49.6	14.0	5.75e-01	0	26	0	4206886912	56	5341
2026-01-13 08:15:20.66	239.92	57.74	-46.4	-49.3	14.1	5.76e-01	0	26	0	4221566976	56	5178
2026-01-13 08:15:21.66	241.28	57.90	-46.4	-49.3	14.1	5.76e-01	0	26	0	4238344192	56	5215
2026-01-13 08:15:22.66	242.65	58.04	-46.3	-49.2	14.2	5.76e-01	0	26	0	4253024256	56	5125
2026-01-13 08:15:23.65	244.03	58.17	-46.4	-49.2	14.1	5.75e-01	0	26	0	4267704320	56	5154
2026-01-13 08:15:24.65	245.43	58.28	-46.4	-49.2	14.1	5.76e-01	0	26	0	4284481536	56	5156
2026-01-13 08:15:25.65	246.85	58.38	-46.3	-49.1	14.2	5.76e-01	0	26	0	4299161600	56	5070
2026-01-13 08:15:26.64	248.25	58.46	-46.3	-49.1	14.2	5.77e-01	0	26	0	4313841664	56	5086
2026-01-13 08:15:27.63	249.67	58.53	-46.4	-49.1	14.1	5.76e-01	0	26	0	4328521728	56	5078
2026-01-13 08:15:28.63	251.11	58.58	-46.4	-49.1	14.1	5.77e-01	0	26	0	4343201792	56	5099
2026-01-13 08:15:29.63	252.55	58.61	-46.4	-49.2	14.2	6.04e-01	0	26	0	4359979008	56	5112
2026-01-13 08:15:30.63	254.00	58.63	-46.3	-49.0	14.2	6.06e-01	0	26	0	4374659072	56	5040
2026-01-13 08:15:31.62	255.43	58.63	-46.3	-49.0	14.3	6.02e-01	0	26	0	4389339136	56	5011
2026-01-13 08:15:32.62	256.87	58.62	-46.2	-49.0	14.3	6.04e-01	0	26	0	4406116352	56	4985
2026-01-13 08:15:33.62	258.32	58.58	-46.3	-49.1	14.2	6.01e-01	0	26	0	4420796416	56	5043
2026-01-13 08:15:34.61	259.74	58.54	-46.4	-49.0	14.2	6.02e-01	0	26	0	4435476480	56	5029
2026-01-13 08:15:35.61	261.17	58.47	-46.4	-49.0	14.2	6.02e-01	0	26	0	4452253696	56	5007
2026-01-13 08:15:36.60	262.58	58.39	-46.4	-49.0	14.2	6.04e-01	0	26	0	4466933760	56	5013
2026-01-13 08:15:37.60	264.00	58.30	-46.4	-48.9	14.2	6.01e-01	0	26	0	4481613824	56	4970
2026-01-13 08:15:38.60	265.40	58.18	-46.4	-49.0	14.1	6.01e-01	0	26	0	4498391040	56	4999
2026-01-13 08:15:39.60	266.79	58.06	-46.3	-48.9	14.3	6.04e-01	0	26	0	4513071104	56	4972
2026-01-13 08:15:40.60	268.17	57.92	-46.5	-49.2	14.1	6.03e-01	0	26	0	4527751168	56	5118
2026-01-13 08:15:41.60	269.53	57.76	-46.4	-49.0	14.2	6.04e-01	0	26	0	4544528384	56	5004
2026-01-13 08:15:42.59	270.86	57.59	-46.2	-48.5	14.4	6.03e-01	0	26	0	4559208448	56	4727
2026-01-13 08:15:43.59	272.19	57.41	-46.2	-48.6	14.3	6.01e-01	0	26	0	4573888512	56	4799
2026-01-13 08:15:44.59	273.49	57.21	-46.2	-48.7	14.3	6.03e-01	0	26	0	4590665728	56	4831
2026-01-13 08:15:45.58	274.77	57.00	-46.3	-48.9	14.3	6.03e-01	0	26	0	4605345792	56	4936
2026-01-13 08:15:46.58	276.04	56.78	-46.3	-48.8	14.2	6.01e-01	0	26	0	4620025856	56	4921
2026-01-13 08:15:47.58	277.29	56.54	-46.2	-48.7	14.3	6.04e-01	0	26	0	4634705920	56	4832
2026-01-13 08:15:48.56	278.49	56.30	-46.3	-48.7	14.3	6.03e-01	0	26	0	4651483136	56	4863
2026-01-13 08:15:49.56	279.69	56.04	-46.1	-48.7	14.3	6.03e-01	0	26	0	4666163200	56	4861
2026-01-13 08:15:50.55	280.86	55.78	-46.2	-48.8	14.3	6.01e-01	0	26	0	4680843264	56	4905
2026-01-13 08:15:51.54	282.01	55.51	-46.3	-48.7	14.2	6.02e-01	0	26	0	4695523328	56	4869
2026-01-13 08:15:52.53	283.13	55.22	-46.2	-48.6	14.4	6.04e-01	0	26	0	4712300544	56	4785
2026-01-13 08:15:53.53	284.24	54.93	-46.2	-48.6	14.4	6.00e-01	0	26	0	4726980608	56	4786
2026-01-13 08:15:54.53	285.33	54.62	-46.0	-48.4	14.4	6.01e-01	0	26	0	4741660672	56	4655
2026-01-13 08:15:55.53	286.39	54.31	-46.0	-48.3	14.5	6.04e-01	0	26	0	4756340736	56	4623
2026-01-13 08:15:56.52	287.42	54.00	-46.0	-48.3	14.4	6.05e-01	0	26	0	4773117952	56	4632
2026-01-13 08:15:57.52	288.44	53.67	-45.6	-47.9	14.5	6.03e-01	0	26	0	4787798016	55	4692
2026-01-13 08:15:58.51	289.42	53.34	-45.5	-47.9	14.6	6.04e-01	0	26	0	4802478080	55	4657
2026-01-13 08:15:59.50	290.39	53.01	-45.6	-48.1	14.5	6.01e-01	0	26	0	4819255296	55	4779
2026-01-13 08:16:00.50	291.34	52.67	-45.5	-48.0	14.6	6.03e-01	0	26	0	4833935360	55	4732
2026-01-13 08:16:01.49	292.25	52.32	-45.5	-47.9	14.6	6.02e-01	0	26	0	4848615424	55	4666
2026-01-13 08:16:02.49	293.16	51.97	-45.5	-47.8	14.6	6.02e-01	0	26	0	4865392640	55	4607
2026-01-13 08:16:03.48	294.03	51.62	-45.3	-47.7	14.7	6.03e-01	0	26	0	4880072704	55	4551
2026-01-13 08:16:04.48	294.90	51.26	-45.3	-47.7	14.7	6.05e-01	0	26	0	4894752768	55	4591
2026-01-13 08:16:05.49	295.75	50.89	-45.3	-47.8	14.7	6.03e-01	0	26	0	4911529984	55	4647
2026-01-13 08:16:06.48	296.56	50.53	-45.2	-47.7	14.7	6.04e-01	0	26	0	4926210048	55	4567
2026-01-13 08:16:07.48	297.36	50.16	-45.3	-47.6	14.7	6.04e-01	0	26	0	4940890112	55	4510
2026-01-13 08:16:08.48	298.14	49.79	-45.4	-47.7	14.6	6.02e-01	0	26	0	4955570176	55	4549
2026-01-13 08:16:09.47	298.89	49.42	-45.2	-47.5	14.7	6.07e-01	0	26	0	4972347392	55	4443
2026-01-13 08:16:10.47	299.64	49.05	-45.3	-47.6	14.7	6.04e-01	0	26	0	4987027456	55	4533
2026-01-13 08:16:11.46	300.35	48.68	-45.2	-47.5	14.7	6.05e-01	0	26	0	5001707520	55	4472
2026-01-13 08:16:12.45	301.05	48.30	-45.0	-47.4	14.6	6.04e-01	0	26	0	5018484736	54	4664
2026-01-13 08:16:13.45	301.74	47.93	-45.1	-47.4	14.6	6.03e-01	0	26	0	5033164800	54	4697
2026-01-13 08:16:14.44	302.41	47.55	-45.0	-47.2	14.7	6.03e-01	0	26	0	5047844864	54	4586
2026-01-13 08:16:15.43	303.06	47.18	-44.9	-47.2	14.7	6.05e-01	0	26	0	5062524928	54	4581
2026-01-13 08:16:16.43	303.70	46.80	-44.9	-47.3	14.7	6.04e-01	0	26	0	5079302144	54	4611
2026-01-13 08:16:17.42	304.32	46.43	-45.0	-47.5	14.6	6.04e-01	0	26	0	5093982208	54	4727
2026-01-13 08:16:18.41	304.92	46.05	-45.0	-47.6	14.7	6.02e-01	0	26	0	5108662272	54	4760
2026-01-13 08:16:19.40	305.51	45.68	-45.0	-47.5	14.7	6.04e-01	0	26	0	5125439488	54	4721
2026-01-13 08:16:20.39	306.08	45.31	-44.9	-47.3	14.7	6.01e-01	0	26	0	5140119552	54	4629
2026-01-13 08:16:21.39	306.65	44.93	-44.9	-47.3	14.7	5.99e-01	0	26	0	5154799616	54	4640
2026-01-13 08:16:22.39	307.21	44.56	-44.8	-47.1	14.7	6.07e-01	0	26	0	5171576832	54	4518
2026-01-13 08:16:23.38	307.74	44.19	-44.6	-47.0	14.7	6.01e-01	0	26	0	5186256896	53	4720
2026-01-13 08:16:24.38	308.27	43.82	-44.7	-47.1	14.6	6.04e-01	0	26	0	5200936960	53	4767
2026-01-13 08:16:25.38	308.78	43.45	-44.9	-47.3	14.6	6.02e-01	0	26	0	5215617024	53	4874
2026-01-13 08:16:26.38	309.29	43.08	-44.9	-47.4	14.5	6.01e-01	0	26	0	5230297088	53	4931
2026-01-13 08:16:27.37	309.77	42.72	-44.9	-47.3	14.5	6.00e-01	0	26	0	5247074304	53	4901
2026-01-13 08:16:28.36	310.25	42.36	-45.0	-47.4	14.5	6.01e-01	0	26	0	5261754368	53	4970
2026-01-13 08:16:29.36	310.72	41.99	-45.2	-47.6	14.4	6.02e-01	0	26	0	5276434432	53	5070
2026-01-13 08:16:30.35	311.17	41.64	-45.3	-47.7	14.3	6.01e-01	0	26	0	5293211648	53	5158
2026-01-13 08:16:31.35	311.62	41.28	-45.4	-47.8	14.2	6.01e-01	0	26	0	5307891712	53	5193
2026-01-13 08:16:32.34	312.05	40.93	-45.6	-48.0	14.3	5.98e-01	0	26	0	5322571776	54	4984
2026-01-13 08:16:33.33	312.47	40.58	-45.7	-48.1	14.3	6.01e-01	0	26	0	5337251840	54	5061
2026-01-13 08:16:34.33	312.89	40.22	-45.7	-48.1	14.3	6.03e-01	0	26	0	5354029056	54	5081
2026-01-13 08:16:35.32	313.30	39.88	-45.8	-48.1	14.2	6.02e-01	0	26	0	5368709120	54	5094
2026-01-13 08:16:36.32	313.70	39.53	-45.8	-48.2	14.2	6.03e-01	0	26	0	5383389184	54	5104
2026-01-13 08:16:37.32	314.09	39.19	-46.0	-48.4	14.3	6.05e-01	0	26	0	5400166400	55	4938
2026-01-13 08:16:38.31	314.47	38.85	-46.1	-48.5	14.2	6.01e-01	0	26	0	5414846464	55	5000
2026-01-13 08:16:39.30	314.84	38.51	-46.2	-48.7	14.1	6.04e-01	0	26	0	5429526528	55	5123
2026-01-13 08:16:40.30	315.21	38.18	-46.3	-48.8	14.1	6.04e-01	0	26	0	5446303744	55	5171
2026-01-13 08:16:41.29	315.56	37.85	-46.4	-48.9	14.0	6.04e-01	0	26	0	5460983808	55	5259
2026-01-13 08:16:42.29	315.91	37.51	-46.5	-48.9	14.2	6.03e-01	0	26	0	5475663872	56	4963
2026-01-13 08:16:43.28	316.25	37.19	-46.6	-48.9	14.1	6.05e-01	0	26	0	5490343936	56	4979
2026-01-13 08:16:44.27	316.59	36.87	-46.6	-48.9	14.1	6.04e-01	0	26	0	5507121152	56	4963
2026-01-13 08:16:45.27	316.92	36.54	-46.7	-48.9	14.1	6.04e-01	0	26	0	5521801216	56	4965
2026-01-13 08:16:46.26	317.24	36.22	-46.7	-49.0	14.0	6.03e-01	0	26	0	5536481280	56	4984
2026-01-13 08:16:47.26	317.56	35.91	-46.8	-49.1	14.0	6.04e-01	0	26	0	5553258496	56	5070
2026-01-13 08:16:48.25	317.86	35.59	-47.0	-49.3	14.0	6.07e-01	0	26	0	5567938560	57	4905
2026-01-13 08:16:49.24	318.17	35.28	-47.2	-49.6	13.9	6.05e-01	0	26	0	5582618624	57	5043
2026-01-13 08:16:50.23	318.46	34.98	-47.3	-49.7	13.9	6.00e-01	0	26	0	5597298688	57	5137
2026-01-13 08:16:51.22	318.75	34.67	-47.4	-49.9	13.8	6.03e-01	0	26	0	5611978752	57	5228
2026-01-13 08:16:52.23	319.04	34.37	-47.5	-50.0	13.9	6.06e-01	0	26	0	5628755968	58	5021
2026-01-13 08:16:53.23	319.32	34.06	-47.6	-50.0	13.8	6.04e-01	0	26	0	5643436032	58	5034
2026-01-13 08:16:54.22	319.60	33.77	-47.6	-49.9	13.8	6.03e-01	0	26	0	5658116096	58	4974
2026-01-13 08:16:55.22	319.87	33.47	-47.6	-49.9	13.8	6.03e-01	0	26	0	5674893312	58	4966
2026-01-13 08:16:56.22	320.13	33.18	-47.6	-49.9	13.8	6.04e-01	0	26	0	5689573376	58	4968
2026-01-13 08:16:57.22	320.39	32.89	-47.7	-50.0	13.8	6.03e-01	0	26	0	5704253440	58	4989
2026-01-13 08:16:58.23	320.65	32.60	-47.8	-50.1	13.7	6.03e-01	0	26	0	5721030656	58	5056
2026-01-13 08:16:59.22	320.90	32.31	-47.8	-50.2	13.7	6.02e-01	0	26	0	5735710720	58	5109
2026-01-13 08:17:00.22	321.15	32.03	-48.0	-50.3	13.8	6.04e-01	0	26	0	5750390784	59	4897
2026-01-13 08:17:01.21	321.39	31.75	-47.9	-50.2	13.8	6.07e-01	0	26	0	5767168000	59	4848
2026-01-13 08:17:02.21	321.63	31.48	-47.9	-50.2	13.8	5.98e-01	0	26	0	5781848064	59	4841
2026-01-13 08:17:03.21	321.86	31.20	-47.9	-50.2	13.8	6.03e-01	0	26	0	5796528128	59	4852
2026-01-13 08:17:04.20	322.09	30.93	-48.0	-50.2	13.8	6.03e-01	0	26	0	5813305344	59	4854
2026-01-13 08:17:05.19	322.31	30.66	-47.9	-50.1	13.9	6.04e-01	0	26	0	5827985408	59	4787
2026-01-13 08:17:06.17	322.53	30.40	-47.9	-50.2	13.8	6.01e-01	0	26	0	5842665472	59	4822
2026-01-13 08:17:07.17	322.74	30.14	-47.9	-50.1	13.8	6.04e-01	0	26	0	5857345536	59	4783
2026-01-13 08:17:08.17	322.96	29.87	-47.9	-50.1	13.8	6.04e-01	0	26	0	5874122752	59	4812
2026-01-13 08:17:09.16	323.17	29.62	-47.8	-50.1	13.8	6.03e-01	0	26	0	5888802816	59	4796
2026-01-13 08:17:10.16	323.37	29.36	-47.9	-50.2	13.8	6.04e-01	0	26	0	5903482880	59	4836
2026-01-13 08:17:11.15	323.58	29.11	-47.9	-50.2	13.8	6.01e-01	0	26	0	5920260096	59	4841
2026-01-13 08:17:12.15	323.78	28.85	-47.9	-50.2	13.8	6.06e-01	0	26	0	5934940160	59	4870
2026-01-13 08:17:13.15	323.97	28.60	-47.9	-50.2	13.8	6.03e-01	0	26	0	5949620224	59	4851
2026-01-13 08:17:14.15	324.17	28.36	-47.9	-50.2	13.8	6.06e-01	0	26	0	5966397440	59	4844
2026-01-13 08:17:15.14	324.35	28.11	-47.9	-50.3	13.8	6.04e-01	0	26	0	5981077504	59	4880
2026-01-13 08:17:16.13	324.54	27.87	-47.9	-50.2	13.8	6.02e-01	0	26	0	5995757568	59	4857
2026-01-13 08:17:17.12	324.72	27.63	-47.9	-50.2	13.8	6.04e-01	0	26	0	6010437632	59	4858
2026-01-13 08:17:18.12	324.90	27.39	-48.0	-50.3	13.7	6.05e-01	0	26	0	6025117696	59	4896
2026-01-13 08:17:19.11	325.08	27.16	-48.0	-50.3	13.7	6.06e-01	0	26	0	6041894912	59	4919
2026-01-13 08:17:20.11	325.26	26.92	-47.9	-50.2	13.8	6.02e-01	0	26	0	6056574976	59	4849
2026-01-13 08:17:21.10	325.43	26.69	-47.9	-50.2	13.8	6.04e-01	0	26	0	6071255040	59	4866
2026-01-13 08:17:22.10	325.60	26.46	-47.9	-50.2	13.8	6.04e-01	0	26	0	6088032256	59	4842
2026-01-13 08:17:23.10	325.76	26.24	-48.0	-50.2	13.8	6.03e-01	0	26	0	6102712320	59	4868
2026-01-13 08:17:24.10	325.93	26.01	-47.9	-50.2	13.8	6.03e-01	0	26	0	6117392384	59	4867
2026-01-13 08:17:25.10	326.09	25.79	-47.9	-50.2	13.8	6.04e-01	0	26	0	6134169600	59	4822
2026-01-13 08:17:26.09	326.25	25.57	-47.9	-50.1	13.8	6.03e-01	0	26	0	6148849664	59	4813
2026-01-13 08:17:27.07	326.41	25.35	-47.9	-50.2	13.8	6.00e-01	0	26	0	6163529728	59	4817
2026-01-13 08:17:28.07	326.56	25.13	-47.8	-50.0	13.9	6.04e-01	0	26	0	6178209792	59	4755
2026-01-13 08:17:29.06	326.71	24.92	-47.8	-50.0	13.9	6.00e-01	0	26	0	6194987008	59	4753
2026-01-13 08:17:30.07	326.86	24.70	-47.8	-50.0	13.9	6.01e-01	0	26	0	6209667072	59	4739
2026-01-13 08:17:31.06	327.01	24.49	-47.7	-50.0	13.9	5.99e-01	0	26	0	6224347136	59	4739
2026-01-13 08:17:32.06	327.16	24.28	-47.7	-50.0	13.9	6.00e-01	0	26	0	6241124352	59	4721
2026-01-13 08:17:33.06	327.30	24.08	-47.8	-50.1	13.8	5.96e-01	0	26	0	6255804416	59	4788
2026-01-13 08:17:34.04	327.44	23.87	-47.7	-50.0	13.9	5.89e-01	0	26	0	6270484480	59	4715
2026-01-13 08:17:35.04	327.58	23.67	-47.8	-50.1	13.8	6.03e-01	0	26	0	6287261696	59	4773
2026-01-13 08:17:36.03	327.72	23.47	-47.7	-50.0	13.9	5.75e-01	0	26	0	6301941760	59	4737
2026-01-13 08:17:37.03	327.86	23.27	-47.8	-50.1	13.8	5.75e-01	0	26	0	6316621824	59	4766
2026-01-13 08:17:38.02	327.99	23.07	-47.8	-50.1	13.8	5.77e-01	0	26	0	6331301888	59	4795
2026-01-13 08:17:39.02	328.12	22.87	-47.8	-50.1	13.8	5.76e-01	0	26	0	6348079104	59	4799
2026-01-13 08:17:40.02	328.25	22.68	-47.8	-50.1	13.8	5.75e-01	0	26	0	6362759168	59	4795
2026-01-13 08:17:41.02	328.38	22.48	-47.8	-50.2	13.8	5.76e-01	0	26	0	6377439232	59	4857
2026-01-13 08:17:42.02	328.51	22.29	-47.8	-50.3	13.8	5.76e-01	0	26	0	6394216448	59	4883
2026-01-13 08:17:43.02	328.64	22.10	-47.8	-50.2	13.8	5.76e-01	0	26	0	6408896512	59	4863
2026-01-13 08:17:44.02	328.76	21.91	-47.8	-50.3	13.8	5.76e-01	0	26	0	6423576576	59	4883
2026-01-13 08:17:45.02	328.88	21.72	-47.9	-50.3	13.7	5.76e-01	0	26	0	6438256640	59	4900
2026-01-13 08:17:46.02	329.01	21.54	-47.8	-50.3	13.8	5.77e-01	0	26	0	6455033856	59	4887
2026-01-13 08:17:47.01	329.12	21.36	-48.9	-50.1	13.5	5.77e-01	0	26	0	6469713920	60	4509
2026-01-13 08:17:48.01	329.24	21.17	-60.6	-70.3	3.8	7.44e-01	0	26	104	6482296832	84	11677
2026-01-13 08:17:49.00	329.36	20.99	-60.6	-70.3	3.8	7.46e-01	0	26	104	6482296832	84	11633
2026-01-13 08:17:50.00	329.47	20.82	-60.6	-70.3	3.8	7.46e-01	0	26	104	6482296832	84	11640
2026-01-13 08:17:50.99	329.58	20.64	-60.6	-70.3	3.8	7.45e-01	0	26	104	6482296832	84	11631
2026-01-13 08:17:51.99	329.70	20.46	-60.6	-70.3	3.8	7.45e-01	0	26	104	6482296832	84	11607
2026-01-13 08:17:52.98	329.81	20.29	-60.5	-70.3	3.8	7.44e-01	0	26	104	6482296832	84	11568
2026-01-13 08:17:53.97	329.91	20.12	-60.6	-70.3	3.8	7.46e-01	0	26	104	6482296832	84	11637
2026-01-13 08:17:54.97	330.02	19.95	-60.5	-70.3	3.8	7.46e-01	0	26	104	6482296832	84	11565
2026-01-13 08:17:55.97	330.13	19.77	-60.6	-70.3	3.8	7.47e-01	0	26	104	6482296832	84	11622
2026-01-13 08:17:56.96	330.23	19.61	-60.5	-70.2	3.8	7.46e-01	0	26	104	6482296832	84	11547
2026-01-13 08:17:57.95	330.34	19.44	-60.5	-70.3	3.8	7.46e-01	0	26	104	6482296832	84	11564
2026-01-13 08:17:58.95	330.44	19.27	-60.5	-70.2	3.8	7.46e-01	0	26	104	6482296832	84	11536
2026-01-13 08:17:59.94	330.54	19.11	-60.5	-70.3	3.8	7.47e-01	0	26	104	6482296832	84	11583
2026-01-13 08:18:00.93	330.64	18.95	-60.5	-70.3	3.8	7.47e-01	0	26	104	6482296832	84	11556
2026-01-13 08:18:01.92	330.74	18.79	-60.5	-70.2	3.8	7.45e-01	0	26	104	6482296832	84	11516
2026-01-13 08:18:02.90	330.83	18.63	-60.5	-70.2	3.8	7.46e-01	0	26	104	6482296832	84	11499
2026-01-13 08:18:03.89	330.93	18.47	-60.5	-70.2	3.8	7.44e-01	0	26	104	6482296832	84	11502
2026-01-13 08:18:04.88	331.02	18.31	-60.4	-70.2	3.8	7.47e-01	0	26	104	6482296832	84	11447
2026-01-13 08:18:05.87	331.12	18.16	-60.4	-70.1	3.8	7.45e-01	0	26	104	6482296832	84	11392
2026-01-13 08:18:06.86	331.21	18.00	-60.4	-70.1	3.8	7.44e-01	0	26	104	6482296832	84	11392
2026-01-13 08:18:07.86	331.30	17.85	-60.5	-70.1	3.8	7.45e-01	0	26	104	6482296832	84	11399
2026-01-13 08:18:08.85	331.39	17.69	-60.4	-70.1	3.8	7.45e-01	0	26	104	6482296832	84	11352
2026-01-13 08:18:09.83	331.48	17.54	-60.4	-70.2	3.8	7.45e-01	0	26	104	6482296832	84	11432
2026-01-13 08:18:10.82	331.57	17.39	-60.4	-70.1	3.8	7.46e-01	0	26	104	6482296832	84	11380
2026-01-13 08:18:11.82	331.66	17.24	-60.4	-70.1	3.8	7.46e-01	0	26	104	6482296832	84	11408
2026-01-13 08:18:12.81	331.75	17.09	-60.4	-70.1	3.8	7.46e-01	0	26	104	6482296832	84	11317
2026-01-13 08:18:13.80	331.83	16.95	-60.4	-70.1	3.8	7.46e-01	0	26	104	6482296832	84	11388
2026-01-13 08:18:14.80	331.92	16.80	-60.3	-70.0	3.8	7.45e-01	0	26	104	6482296832	84	11216
2026-01-13 08:18:15.79	332.00	16.66	-60.4	-70.1	3.8	7.46e-01	0	26	104	6482296832	84	11355
2026-01-13 08:18:16.79	332.09	16.51	-60.3	-70.0	3.8	7.46e-01	0	26	104	6482296832	84	11252
2026-01-13 08:18:17.78	332.17	16.37	-60.4	-70.1	3.8	7.45e-01	0	26	104	6482296832	84	11340
2026-01-13 08:18:18.77	332.25	16.23	-60.3	-70.1	3.8	7.46e-01	0	26	104	6482296832	84	11305
2026-01-13 08:18:19.77	332.33	16.08	-60.4	-70.1	3.8	7.44e-01	0	26	104	6482296832	84	11325
2026-01-13 08:18:20.76	332.41	15.94	-60.3	-70.0	3.8	7.45e-01	0	26	104	6482296832	84	11265
2026-01-13 08:18:21.76	332.49	15.80	-60.3	-70.0	3.8	7.47e-01	0	26	104	6482296832	84	11243
2026-01-13 08:18:22.75	332.57	15.67	-60.3	-70.0	3.8	7.45e-01	0	26	104	6482296832	84	11249
2026-01-13 08:18:23.76	332.65	15.53	-60.3	-70.0	3.8	7.46e-01	0	26	104	6482296832	84	11281
2026-01-13 08:18:24.76	332.73	15.39	-60.3	-70.0	3.8	7.46e-01	0	26	104	6482296832	84	11214
2026-01-13 08:18:25.77	332.80	15.25	-60.3	-70.0	3.8	7.45e-01	0	26	104	6482296832	84	11195
2026-01-13 08:18:26.78	332.88	15.12	-60.3	-70.0	3.8	7.46e-01	0	26	104	6482296832	84	11174
2026-01-13 08:18:27.78	332.95	14.98	-60.3	-70.0	3.8	7.45e-01	0	26	104	6482296832	84	11215
2026-01-13 08:18:28.79	333.03	14.85	-60.2	-69.9	3.8	7.46e-01	0	26	104	6482296832	84	11136
2026-01-13 08:18:29.80	333.10	14.71	-60.3	-70.0	3.8	7.45e-01	0	26	104	6482296832	84	11202
2026-01-13 08:18:30.81	333.18	14.58	-60.2	-69.9	3.8	7.44e-01	0	26	104	6482296832	84	11120
2026-01-13 08:18:31.82	333.25	14.45	-60.2	-70.0	3.8	7.46e-01	0	26	104	6482296832	84	11161
2026-01-13 08:18:32.83	333.32	14.32	-60.2	-69.9	3.8	7.47e-01	0	26	104	6482296832	84	11151
2026-01-13 08:18:33.83	333.39	14.19	-60.2	-70.0	3.8	7.45e-01	0	26	104	6482296832	84	11166
2026-01-13 08:18:34.84	333.46	14.06	-60.2	-69.9	3.8	7.47e-01	0	26	104	6482296832	84	11131
2026-01-13 08:18:35.85	333.53	13.93	-60.2	-69.9	3.8	7.46e-01	0	26	104	6482296832	84	11136
2026-01-13 08:18:36.86	333.60	13.80	-60.2	-69.9	3.8	7.45e-01	0	26	104	6482296832	84	11043
2026-01-13 08:18:37.86	333.67	13.68	-60.2	-69.9	3.8	7.46e-01	0	26	104	6482296832	84	11104
2026-01-13 08:18:38.87	333.74	13.55	-60.2	-69.9	3.8	7.46e-01	0	26	104	6482296832	84	11082
2026-01-13 08:18:39.88	333.80	13.43	-60.2	-69.9	3.8	7.48e-01	0	26	104	6482296832	84	11093
2026-01-13 08:18:40.89	333.87	13.30	-60.1	-69.9	3.8	7.45e-01	0	26	104	6482296832	84	11043
2026-01-13 08:18:41.90	333.94	13.18	-60.2	-69.9	3.8	7.45e-01	0	26	104	6482296832	84	11087
2026-01-13 08:18:42.90	334.00	13.06	-60.1	-69.9	3.8	7.46e-01	0	26	104	6482296832	84	11054
2026-01-13 08:18:43.91	334.07	12.94	-60.2	-69.9	3.8	7.45e-01	0	26	104	6482296832	84	11075
2026-01-13 08:18:44.92	334.13	12.82	-60.1	-69.8	3.8	7.46e-01	0	26	104	6482296832	84	10993
2026-01-13 08:18:45.93	334.19	12.70	-60.1	-69.8	3.8	7.45e-01	0	27	104	6482296832	84	11007
2026-01-13 08:18:46.94	334.26	12.58	-60.1	-69.8	3.8	7.45e-01	0	26	104	6482296832	84	10972
2026-01-13 08:18:47.95	334.32	12.46	-60.1	-69.9	3.8	7.47e-01	0	26	104	6482296832	84	11061
2026-01-13 08:18:48.96	334.38	12.34	-60.1	-69.8	3.8	7.45e-01	0	26	104	6482296832	84	10906
2026-01-13 08:18:49.97	334.44	12.22	-60.1	-69.8	3.8	7.47e-01	0	26	104	6482296832	84	10992
2026-01-13 08:18:50.98	334.50	12.11	-60.1	-69.8	3.8	7.45e-01	0	26	104	6482296832	84	10946
2026-01-13 08:18:51.98	334.56	11.99	-60.1	-69.8	3.8	7.45e-01	0	26	104	6482296832	84	10981
2026-01-13 08:18:52.99	334.62	11.88	-60.0	-69.8	3.8	7.47e-01	0	26	104	6482296832	84	10930
2026-01-13 08:18:54.00	334.68	11.76	-60.1	-69.8	3.8	7.46e-01	0	26	104	6482296832	84	10987
2026-01-13 08:18:55.01	334.74	11.65	-60.0	-69.8	3.8	7.47e-01	0	26	104	6482296832	84	10905
2026-01-13 08:18:56.01	334.80	11.54	-60.1	-69.8	3.8	7.46e-01	0	26	104	6482296832	84	11003
2026-01-13 08:18:57.02	334.86	11.42	-60.0	-69.7	3.8	7.43e-01	0	26	104	6482296832	84	10860
2026-01-13 08:18:58.03	334.91	11.31	-60.0	-69.7	3.8	7.45e-01	0	26	104	6482296832	84	10787
2026-01-13 08:18:59.04	334.97	11.20	-60.0	-69.6	3.8	7.45e-01	0	26	104	6482296832	84	10725
2026-01-13 08:19:00.04	335.03	11.09	-60.0	-69.7	3.8	7.45e-01	0	26	104	6482296832	84	10846
2026-01-13 08:19:01.05	335.08	10.98	-59.9	-69.6	3.8	7.45e-01	0	26	104	6482296832	84	10751
2026-01-13 08:19:02.06	335.14	10.87	-60.0	-69.7	3.8	7.45e-01	0	26	104	6482296832	84	10892
2026-01-13 08:19:03.07	335.19	10.76	-60.0	-69.7	3.8	7.47e-01	0	26	104	6482296832	84	10816
2026-01-13 08:19:04.08	335.25	10.66	-60.0	-69.7	3.8	7.47e-01	0	26	104	6482296832	84	10846
2026-01-13 08:19:05.09	335.30	10.55	-59.9	-69.6	3.8	7.45e-01	0	26	104	6482296832	84	10752
2026-01-13 08:19:06.09	335.35	10.44	-60.0	-69.7	3.8	7.46e-01	0	26	104	6482296832	84	10839
2026-01-13 08:19:07.10	335.41	10.34	-59.9	-69.7	3.8	7.45e-01	0	26	104	6482296832	84	10811
2026-01-13 08:19:08.11	335.46	10.23	-60.0	-69.7	3.8	7.47e-01	0	26	104	6482296832	84	10805
2026-01-13 08:19:09.12	335.51	10.13	-59.9	-69.6	3.8	7.46e-01	0	26	104	6482296832	84	10712
2026-01-13 08:19:10.13	335.56	10.02	-59.9	-69.6	3.8	7.45e-01	0	26	104	6482296832	84	10748
2026-01-13 08:19:11.14	335.61	9.92	-59.9	-69.6	3.8	7.45e-01	0	26	104	6482296832	84	10661
2026-01-13 08:19:12.14	335.66	9.82	-59.9	-69.7	3.8	7.45e-01	0	26	104	6482296832	84	10808
2026-01-13 08:19:13.15	335.71	9.71	-59.9	-69.6	3.8	7.46e-01	0	26	104	6482296832	84	10728
2026-01-13 08:19:14.16	335.76	9.61	-59.9	-69.6	3.8	7.46e-01	0	26	104	6482296832	84	10775
2026-01-13 08:19:15.17	335.81	9.51	-59.9	-69.6	3.8	7.46e-01	0	26	104	6482296832	84	10716
2026-01-13 08:19:16.18	335.86	9.41	-59.9	-69.6	3.8	7.44e-01	0	26	104	6482296832	84	10739
2026-01-13 08:19:17.19	335.91	9.31	-59.8	-69.5	3.8	7.47e-01	0	26	104	6482296832	84	10597
2026-01-13 08:19:18.20	335.96	9.21	-59.8	-69.6	3.8	7.46e-01	0	26	104	6482296832	84	10686
2026-01-13 08:19:19.21	336.01	9.11	-59.8	-69.5	3.8	7.46e-01	0	26	104	6482296832	84	10605
2026-01-13 08:19:20.22	336.06	9.01	-59.9	-69.5	3.8	7.46e-01	0	26	104	6482296832	84	10629
2026-01-13 08:19:21.22	336.10	8.91	-59.8	-69.5	3.8	7.45e-01	0	26	104	6482296832	84	10624
2026-01-13 08:19:22.23	336.15	8.82	-59.8	-69.5	3.8	7.43e-01	0	26	104	6482296832	84	10651
2026-01-13 08:19:23.24	336.20	8.72	-59.8	-69.5	3.8	7.46e-01	0	26	104	6482296832	84	10565
2026-01-13 08:19:24.25	336.25	8.62	-59.8	-69.5	3.8	7.46e-01	0	26	104	6482296832	84	10646
2026-01-13 08:19:25.26	336.29	8.52	-59.8	-69.5	3.8	7.45e-01	0	26	104	6482296832	84	10580
2026-01-13 08:19:26.27	336.34	8.43	-59.8	-69.5	3.8	7.45e-01	0	26	104	6482296832	84	10564
2026-01-13 08:19:27.28	336.38	8.33	-59.7	-69.5	3.8	7.44e-01	0	26	104	6482296832	84	10537
2026-01-13 08:19:28.29	336.43	8.24	-59.8	-69.5	3.8	7.46e-01	0	26	104	6482296832	84	10563
2026-01-13 08:19:29.30	336.47	8.14	-59.7	-69.4	3.8	7.46e-01	0	26	104	6482296832	84	10489
2026-01-13 08:19:30.31	336.52	8.05	-59.7	-69.4	3.8	7.46e-01	0	26	104	6482296832	84	10491
2026-01-13 08:19:31.31	336.56	7.96	-59.7	-69.4	3.8	7.47e-01	0	26	104	6482296832	84	10512
2026-01-13 08:19:32.32	336.60	7.86	-59.8	-69.5	3.8	7.46e-01	0	26	104	6482296832	84	10535
2026-01-13 08:19:33.33	336.65	7.77	-59.7	-69.4	3.8	7.45e-01	0	26	104	6482296832	84	10478
2026-01-13 08:19:34.34	336.69	7.68	-59.7	-69.4	3.8	7.45e-01	0	26	104	6482296832	84	10517
2026-01-13 08:19:35.35	336.73	7.59	-59.5	-69.3	3.8	7.45e-01	0	26	104	6482296832	83	10914
2026-01-13 08:19:36.35	336.78	7.50	-59.6	-69.3	3.8	7.46e-01	0	27	104	6482296832	83	10946
2026-01-13 08:19:37.36	336.82	7.41	-59.5	-69.2	3.8	7.45e-01	0	27	104	6482296832	83	10853
2026-01-13 08:19:38.37	336.86	7.31	-59.5	-69.2	3.8	7.45e-01	0	26	104	6482296832	83	10898
2026-01-13 08:19:39.37	336.90	7.23	-59.5	-69.2	3.8	7.46e-01	0	26	104	6482296832	83	10870
2026-01-13 08:19:40.38	336.94	7.14	-59.5	-69.2	3.8	7.44e-01	0	26	104	6482296832	83	10886
2026-01-13 08:19:41.39	336.98	7.05	-59.5	-69.2	3.8	7.45e-01	0	26	104	6482296832	83	10829
2026-01-13 08:19:42.40	337.02	6.96	-59.5	-69.2	3.8	7.47e-01	0	26	104	6482296832	83	10822
2026-01-13 08:19:43.41	337.07	6.87	-59.4	-69.2	3.8	7.45e-01	0	26	104	6482296832	83	10779
2026-01-13 08:19:44.42	337.11	6.78	-59.5	-69.2	3.8	7.45e-01	0	26	104	6482296832	83	10801
2026-01-13 08:19:45.43	337.15	6.69	-59.4	-69.1	3.8	7.45e-01	0	26	104	6482296832	83	10756
2026-01-13 08:19:46.43	337.19	6.61	-59.4	-69.1	3.8	7.45e-01	0	27	104	6482296832	83	10744
2026-01-13 08:19:47.44	337.22	6.52	-59.4	-69.1	3.8	7.47e-01	0	26	104	6482296832	83	10763
2026-01-13 08:19:48.44	337.26	6.43	-59.4	-69.1	3.8	7.46e-01	0	26	104	6482296832	83	10741
2026-01-13 08:19:49.45	337.30	6.35	-59.4	-69.0	3.8	7.46e-01	0	26	104	6482296832	83	10645
2026-01-13 08:19:50.46	337.34	6.26	-59.3	-69.1	3.8	7.45e-01	0	26	104	6482296832	83	10661
2026-01-13 08:19:51.47	337.38	6.18	-59.3	-69.1	3.8	7.46e-01	0	26	104	6482296832	83	10680
2026-01-13 08:19:52.47	337.42	6.09	-59.4	-69.1	3.8	7.44e-01	0	26	104	6482296832	83	10690
2026-01-13 08:19:53.48	337.46	6.01	-59.3	-69.0	3.8	7.47e-01	0	27	104	6482296832	83	10617
2026-01-13 08:19:54.49	337.49	5.92	-59.3	-69.0	3.8	7.47e-01	0	26	104	6482296832	83	10594
2026-01-13 08:19:55.49	337.53	5.84	-59.3	-69.0	3.8	7.45e-01	0	26	104	6482296832	83	10638
2026-01-13 08:19:56.50	337.57	5.76	-59.3	-69.0	3.8	7.45e-01	0	26	104	6482296832	83	10586
2026-01-13 08:19:57.51	337.60	5.67	-59.3	-69.0	3.8	7.46e-01	0	26	104	6482296832	83	10582
2026-01-13 08:19:58.51	337.64	5.59	-59.2	-68.9	3.8	7.46e-01	0	26	104	6482296832	83	10498
2026-01-13 08:19:59.52	337.68	5.51	-59.2	-68.9	3.8	7.47e-01	0	26	104	6482296832	82	11107
2026-01-13 08:20:00.52	337.71	5.43	-59.2	-68.9	3.8	7.44e-01	0	26	104	6482296832	82	11090
2026-01-13 08:20:01.53	337.75	5.35	-59.2	-68.9	3.8	7.46e-01	0	26	104	6482296832	82	11086
2026-01-13 08:20:02.54	337.79	5.26	-59.1	-68.8	3.8	7.47e-01	0	26	104	6482296832	82	11023
2026-01-13 08:20:03.55	337.82	5.18	-59.2	-68.9	3.8	7.46e-01	0	26	104	6482296832	82	11139
2026-01-13 08:20:04.56	337.86	5.10	-59.1	-68.8	3.8	7.45e-01	0	26	104	6482296832	82	11015
2026-01-13 08:20:05.57	337.89	5.02	-59.1	-68.8	3.8	7.46e-01	0	26	104	6482296832	82	10966
2026-01-13 08:20:06.58	337.93	4.94	-59.5	-69.3	3.8	7.47e-01	0	26	104	6482296832	82	11561
2026-01-13 08:20:07.59	337.96	4.86	-59.9	-69.6	3.8	7.45e-01	0	26	104	6482296832	82	12045
2026-01-13 08:20:08.59	338.00	4.78	-60.2	-69.9	3.8	7.44e-01	0	26	104	6482296832	83	11756
2026-01-13 08:20:09.60	338.03	4.70	-60.3	-70.1	3.8	7.44e-01	0	26	104	6482296832	83	12010
2026-01-13 08:20:10.61	338.06	4.62	-60.6	-70.4	3.8	7.47e-01	0	26	104	6482296832	84	11731
2026-01-13 08:20:11.62	338.10	4.55	-60.8	-70.5	3.8	7.45e-01	0	26	104	6482296832	84	11880
2026-01-13 08:20:12.63	338.13	4.47	-60.9	-70.6	3.8	7.46e-01	0	26	104	6482296832	84	11989
2026-01-13 08:20:13.64	338.17	4.39	-61.0	-70.7	3.8	7.46e-01	0	26	104	6482296832	85	11496
2026-01-13 08:20:14.65	338.20	4.31	-61.1	-70.8	3.8	7.47e-01	0	26	104	6482296832	85	11583
2026-01-13 08:20:15.66	338.23	4.23	-61.1	-70.9	3.8	7.46e-01	0	26	104	6482296832	85	11685
2026-01-13 08:20:16.67	338.27	4.16	-61.1	-70.9	3.8	7.46e-01	0	26	104	6482296832	85	11716
2026-01-13 08:20:17.68	338.30	4.08	-61.1	-70.9	3.8	7.46e-01	0	26	104	6482296832	85	11750
2026-01-13 08:20:18.69	338.33	4.00	-61.2	-70.9	3.8	7.44e-01	0	26	104	6482296832	85	11782
2026-01-13 08:20:19.70	338.36	3.93	-61.2	-70.9	3.8	7.45e-01	0	26	104	6482296832	85	11798
2026-01-13 08:20:20.71	338.40	3.85	-61.2	-70.9	3.8	7.43e-01	0	26	104	6482296832	85	11806
2026-01-13 08:20:21.71	338.43	3.78	-61.3	-71.0	3.8	7.45e-01	0	26	104	6482296832	85	11893
2026-01-13 08:20:22.71	338.46	3.70	-61.3	-71.0	3.8	7.48e-01	0	26	104	6482296832	85	11942
2026-01-13 08:20:23.72	338.49	3.63	-61.3	-71.0	3.8	7.45e-01	0	26	104	6482296832	85	11951
2026-01-13 08:20:24.73	338.52	3.55	-61.3	-71.1	3.8	7.46e-01	0	26	104	6482296832	85	11962
2026-01-13 08:20:25.74	338.55	3.48	-61.3	-71.1	3.8	7.46e-01	0	26	104	6482296832	85	11973
2026-01-13 08:20:26.75	338.58	3.40	-61.3	-71.0	3.8	7.45e-01	0	26	104	6482296832	85	11951
2026-01-13 08:20:27.76	338.62	3.33	-61.3	-71.1	3.8	7.45e-01	0	26	104	6482296832	85	11996
2026-01-13 08:20:28.77	338.65	3.25	-61.3	-71.0	3.8	7.44e-01	0	27	104	6482296832	85	11895
2026-01-13 08:20:29.78	338.68	3.18	-61.2	-71.0	3.8	7.45e-01	0	26	104	6482296832	85	11887
2026-01-13 08:20:30.79	338.71	3.11	-61.2	-71.0	3.8	7.45e-01	0	26	104	6482296832	85	11873
2026-01-13 08:20:31.80	338.74	3.03	-61.2	-71.0	3.8	7.46e-01	0	26	104	6482296832	85	11830
2026-01-13 08:20:32.80	338.77	2.96	-61.2	-70.9	3.8	7.46e-01	0	27	104	6482296832	85	11805
2026-01-13 08:20:33.81	338.80	2.89	-61.2	-70.9	3.8	7.45e-01	0	26	104	6482296832	85	11780
2026-01-13 08:20:34.82	338.83	2.82	-61.2	-71.0	3.8	7.45e-01	0	26	104	6482296832	85	11843
2026-01-13 08:20:35.83	338.86	2.74	-61.2	-70.9	3.8	7.46e-01	0	26	104	6482296832	85	11735
2026-01-13 08:20:36.84	338.89	2.67	-61.2	-70.9	3.8	7.45e-01	0	26	104	6482296832	85	11765
2026-01-13 08:20:37.85	338.92	2.60	-61.2	-70.9	3.8	7.46e-01	0	26	104	6482296832	85	11760
2026-01-13 08:20:38.85	338.94	2.53	-61.2	-70.9	3.8	7.46e-01	0	26	104	6482296832	85	11774
2026-01-13 08:20:39.86	338.97	2.46	-61.2	-70.9	3.8	7.45e-01	0	26	104	6482296832	85	11748
2026-01-13 08:20:40.87	339.00	2.39	-61.2	-70.9	3.8	7.45e-01	0	26	104	6482296832	85	11731
2026-01-13 08:20:41.88	339.03	2.32	-61.1	-70.9	3.8	7.46e-01	0	26	104	6482296832	85	11758
2026-01-13 08:20:42.89	339.06	2.25	-61.1	-70.9	3.8	7.46e-01	0	26	104	6482296832	85	11734
2026-01-13 08:20:43.90	339.09	2.18	-61.2	-70.9	3.8	7.47e-01	0	26	104	6482296832	85	11730
2026-01-13 08:20:44.91	339.12	2.11	-61.1	-70.9	3.8	7.47e-01	0	26	104	6482296832	85	11718
2026-01-13 08:20:45.92	339.15	2.04	-61.1	-70.9	3.8	7.45e-01	0	26	104	6482296832	85	11755
2026-01-13 08:20:46.93	339.17	1.97	-61.1	-70.9	3.8	7.46e-01	0	26	104	6482296832	85	11688
2026-01-13 08:20:47.94	339.20	1.90	-61.1	-70.9	3.8	7.45e-01	0	26	104	6482296832	85	11719
2026-01-13 08:20:48.94	339.23	1.83	-61.1	-70.9	3.8	7.46e-01	0	26	104	6482296832	85	11692

#Closed at: 2026-01-13 08:20:49
#Recorded file [6482 MB]: D:/lorett/data/31004_260113_111020.dat