passes_logs/2026/01/13/R3.2S_Murmansk/R3.2S_Murmansk__20260113_093626_NOAA_21_JPSS-2_rec.log

#Pass ID: 20260113_093626_NOAA 21 (JPSS-2)
#Satellite: NOAA 21 (JPSS-2)
#Configuration: NOAA-21
#almurnet v.1.7.20251203
#Start time: 2026-01-13 09:36:27

#Version: 2.2.20231116
#Station: R3.2S_Murmansk
#Location: 33.079688 lon 68.888172 lat
#TLE: 1 54234U 22150A   26013.10960858  .00000050  00000+0  44556-4 0  9999
#TLE: 2 54234  98.7496 314.0323 0000695 304.2210  55.8900 14.19534407164546

#Time	Az	El	Level	Level2	SNR	BER	BlckErr	Temp	State	Recorded	gain1	gain2
2026-01-13 09:36:27.26	153.71	2.04	-58.0	-71.8	3.8	1.49e+00	0	24	0	0	82	17341
2026-01-13 09:36:28.25	153.71	2.11	-58.0	-71.7	3.8	1.49e+00	0	24	104	0	81	18215
2026-01-13 09:36:29.24	153.72	2.17	-58.0	-71.6	3.8	1.49e+00	0	24	104	0	81	18045
2026-01-13 09:36:30.24	153.72	2.23	-58.0	-71.7	3.8	1.49e+00	0	24	104	0	81	18161
2026-01-13 09:36:31.23	153.73	2.30	-58.0	-71.6	3.8	1.49e+00	0	24	104	0	81	18001
2026-01-13 09:36:32.22	153.74	2.36	-58.0	-71.6	3.8	1.49e+00	0	24	104	0	81	17898
2026-01-13 09:36:33.22	153.74	2.43	-58.0	-71.5	3.8	1.49e+00	0	24	104	0	81	17862
2026-01-13 09:36:34.22	153.75	2.49	-58.0	-71.5	3.8	1.49e+00	0	24	104	0	81	17741
2026-01-13 09:36:35.22	153.75	2.56	-58.0	-71.4	3.8	1.49e+00	0	24	104	0	81	17602
2026-01-13 09:36:36.22	153.76	2.62	-58.0	-71.4	3.8	1.49e+00	0	24	104	0	81	17512
2026-01-13 09:36:37.20	153.76	2.69	-58.0	-71.3	3.8	1.49e+00	0	24	104	0	81	17360
2026-01-13 09:36:38.20	153.77	2.75	-58.0	-71.3	3.8	1.49e+00	0	24	104	0	81	17307
2026-01-13 09:36:39.21	153.77	2.82	-58.0	-71.2	3.8	1.49e+00	0	24	104	0	81	17220
2026-01-13 09:36:40.21	153.78	2.89	-58.0	-71.3	3.8	1.49e+00	0	24	104	0	81	17311
2026-01-13 09:36:41.20	153.78	2.95	-58.0	-71.4	3.8	1.49e+00	0	24	104	0	81	17663
2026-01-13 09:36:42.19	153.79	3.02	-58.0	-71.5	3.8	1.49e+00	0	25	104	0	81	17784
2026-01-13 09:36:43.19	153.79	3.09	-58.0	-71.7	3.8	1.49e+00	0	25	104	0	81	18185
2026-01-13 09:36:44.18	153.80	3.15	-58.0	-71.8	3.8	1.49e+00	0	25	104	0	81	18315
2026-01-13 09:36:45.17	153.80	3.22	-58.0	-71.6	3.8	1.49e+00	0	25	104	0	81	17923
2026-01-13 09:36:46.16	153.81	3.28	-57.9	-70.7	3.8	1.49e+00	0	25	104	0	81	16232
2026-01-13 09:36:47.15	153.81	3.35	-57.9	-69.9	3.8	1.49e+00	0	25	104	0	81	14713
2026-01-13 09:36:48.14	153.82	3.42	-57.8	-68.9	3.9	1.49e+00	0	25	104	0	81	13152
2026-01-13 09:36:49.14	153.82	3.49	-57.7	-67.5	4.4	1.42e+00	0	25	104	0	81	11179
2026-01-13 09:36:50.12	153.83	3.55	-57.6	-66.6	4.7	1.03e+00	2	25	104	0	81	10149
2026-01-13 09:36:51.11	153.83	3.62	-57.5	-66.2	4.9	1.28e+00	2	25	104	0	81	9664
2026-01-13 09:36:52.10	153.84	3.69	-57.5	-65.9	5.1	6.64e-01	0	25	0	2097152	81	9373
2026-01-13 09:36:53.10	153.85	3.75	-57.3	-65.1	5.6	4.59e-01	0	25	0	5242880	81	8490
2026-01-13 09:36:54.09	153.85	3.82	-57.2	-64.4	6.0	3.05e-01	0	25	0	8388608	81	7870
2026-01-13 09:36:55.08	153.86	3.89	-57.0	-63.4	6.7	2.03e-01	0	25	0	11534336	80	7431
2026-01-13 09:36:56.08	153.86	3.96	-56.9	-63.1	7.1	9.94e-02	0	25	0	14680064	80	7122
2026-01-13 09:36:57.08	153.87	4.03	-56.6	-62.2	7.8	6.53e-02	0	25	0	17825792	79	6805
2026-01-13 09:36:58.07	153.87	4.10	-56.2	-60.9	8.9	1.95e-02	0	25	0	20971520	79	5880
2026-01-13 09:36:59.07	153.88	4.17	-55.7	-59.9	9.8	4.77e-03	0	25	0	24117248	78	5546
2026-01-13 09:37:00.06	153.88	4.23	-54.9	-58.3	11.0	4.52e-04	0	25	0	27262976	76	5161
2026-01-13 09:37:01.05	153.89	4.30	-54.8	-58.1	11.2	1.47e-04	0	25	0	29360128	76	5055
2026-01-13 09:37:02.04	153.89	4.37	-54.3	-57.3	11.6	2.36e-05	0	25	0	32505856	75	4895
2026-01-13 09:37:03.03	153.90	4.44	-53.8	-56.4	12.3	2.20e-06	0	25	0	35651584	74	4670
2026-01-13 09:37:04.02	153.90	4.51	-53.1	-55.4	12.8	0.00e+00	0	25	0	38797312	72	4675
2026-01-13 09:37:05.01	153.91	4.58	-52.8	-55.0	13.0	0.00e+00	0	25	0	41943040	72	4479
2026-01-13 09:37:06.01	153.92	4.65	-52.6	-54.7	13.1	0.00e+00	0	25	0	45088768	71	4585
2026-01-13 09:37:06.99	153.92	4.72	-52.5	-54.6	13.2	0.00e+00	0	25	0	48234496	71	4509
2026-01-13 09:37:07.99	153.93	4.79	-52.3	-54.3	13.4	0.00e+00	0	25	0	51380224	71	4363
2026-01-13 09:37:08.99	153.93	4.86	-52.1	-54.0	13.4	0.00e+00	0	25	0	54525952	70	4492
2026-01-13 09:37:09.98	153.94	4.93	-52.3	-54.4	13.2	0.00e+00	0	25	0	57671680	70	4655
2026-01-13 09:37:10.97	153.94	5.00	-52.5	-54.7	13.0	0.00e+00	0	25	0	60817408	70	4830
2026-01-13 09:37:11.97	153.95	5.08	-53.9	-56.6	12.0	2.20e-06	0	25	0	63963136	72	5352
2026-01-13 09:37:12.97	153.95	5.15	-53.9	-56.6	12.0	7.00e-07	0	25	0	67108864	72	5355
2026-01-13 09:37:13.96	153.96	5.22	-56.5	-62.0	7.9	2.59e-05	0	25	0	70254592	78	7115
2026-01-13 09:37:14.96	153.96	5.29	-55.0	-58.3	11.0	1.82e-04	0	25	0	73400320	76	5195
2026-01-13 09:37:15.95	153.97	5.36	-53.4	-55.9	12.4	0.00e+00	0	25	0	76546048	71	5256
2026-01-13 09:37:16.95	153.98	5.44	-52.4	-54.4	13.3	0.00e+00	0	25	0	79691776	71	4427
2026-01-13 09:37:17.95	153.98	5.51	-52.2	-54.2	13.5	0.00e+00	0	25	0	82837504	71	4316
2026-01-13 09:37:18.95	153.99	5.58	-52.2	-54.1	13.4	0.00e+00	0	25	0	85983232	70	4523
2026-01-13 09:37:19.94	153.99	5.65	-51.8	-53.7	13.7	0.00e+00	0	25	0	89128960	70	4313
2026-01-13 09:37:20.93	154.00	5.73	-52.1	-54.0	13.5	0.00e+00	0	25	0	92274688	70	4468
2026-01-13 09:37:21.93	154.00	5.80	-52.1	-54.0	13.5	0.00e+00	0	25	0	95420416	70	4479
2026-01-13 09:37:22.92	154.01	5.87	-52.0	-53.8	13.6	0.00e+00	0	25	0	98566144	70	4384
2026-01-13 09:37:23.92	154.02	5.95	-51.9	-53.7	13.7	0.00e+00	0	25	0	101711872	70	4332
2026-01-13 09:37:24.91	154.02	6.02	-52.0	-54.0	13.6	0.00e+00	0	25	0	104857600	70	4446
2026-01-13 09:37:25.90	154.03	6.10	-52.0	-53.8	13.6	0.00e+00	0	25	0	108003328	70	4389
2026-01-13 09:37:26.90	154.03	6.17	-51.9	-53.7	13.7	0.00e+00	0	25	0	110100480	70	4305
2026-01-13 09:37:27.88	154.04	6.24	-52.0	-53.9	13.6	0.00e+00	0	25	0	113246208	70	4419
2026-01-13 09:37:28.86	154.04	6.32	-51.8	-53.7	13.8	0.00e+00	0	25	0	116391936	70	4295
2026-01-13 09:37:29.85	154.05	6.39	-51.9	-53.7	13.8	0.00e+00	0	25	0	119537664	70	4310
2026-01-13 09:37:30.84	154.05	6.47	-51.8	-53.6	13.8	0.00e+00	0	25	0	122683392	70	4246
2026-01-13 09:37:31.84	154.06	6.54	-51.7	-53.5	13.8	0.00e+00	0	25	0	125829120	70	4227
2026-01-13 09:37:32.84	154.07	6.62	-51.8	-53.7	13.8	0.00e+00	0	25	0	128974848	70	4297
2026-01-13 09:37:33.83	154.07	6.69	-51.7	-53.4	13.9	0.00e+00	0	25	0	132120576	70	4190
2026-01-13 09:37:34.81	154.08	6.77	-51.6	-53.3	13.8	0.00e+00	0	25	0	135266304	69	4384
2026-01-13 09:37:35.81	154.08	6.85	-51.6	-53.3	13.8	0.00e+00	0	25	0	138412032	69	4378
2026-01-13 09:37:36.80	154.09	6.92	-51.7	-53.4	13.8	0.00e+00	0	26	0	141557760	69	4438
2026-01-13 09:37:37.78	154.10	7.00	-51.5	-53.2	13.9	0.00e+00	0	25	0	144703488	69	4332
2026-01-13 09:37:38.78	154.10	7.08	-51.6	-53.3	13.8	0.00e+00	0	25	0	147849216	69	4389
2026-01-13 09:37:39.77	154.11	7.15	-51.6	-53.4	13.8	0.00e+00	0	25	0	150994944	69	4403
2026-01-13 09:37:40.75	154.11	7.23	-51.7	-53.4	13.8	0.00e+00	0	25	0	154140672	69	4424
2026-01-13 09:37:41.75	154.12	7.31	-51.5	-53.2	14.0	0.00e+00	0	26	0	157286400	69	4306
2026-01-13 09:37:42.75	154.12	7.39	-51.5	-53.2	14.0	0.00e+00	0	25	0	160432128	69	4312
2026-01-13 09:37:43.74	154.13	7.46	-51.5	-53.2	13.9	0.00e+00	0	25	0	163577856	69	4337
2026-01-13 09:37:44.73	154.14	7.54	-51.5	-53.2	14.0	0.00e+00	0	26	0	166723584	69	4299
2026-01-13 09:37:45.72	154.14	7.62	-51.5	-53.2	13.9	0.00e+00	0	25	0	169869312	69	4319
2026-01-13 09:37:46.71	154.15	7.70	-51.5	-53.2	14.0	0.00e+00	0	25	0	173015040	69	4295
2026-01-13 09:37:47.72	154.15	7.78	-51.4	-53.1	14.0	0.00e+00	0	26	0	176160768	69	4269
2026-01-13 09:37:48.71	154.16	7.86	-51.6	-53.3	13.9	0.00e+00	0	26	0	179306496	69	4354
2026-01-13 09:37:49.70	154.17	7.94	-51.4	-53.1	14.0	0.00e+00	0	26	0	181403648	69	4249
2026-01-13 09:37:50.69	154.17	8.02	-51.3	-53.0	14.1	0.00e+00	0	26	0	184549376	69	4206
2026-01-13 09:37:51.69	154.18	8.10	-51.3	-52.9	14.1	0.00e+00	0	25	0	187695104	69	4174
2026-01-13 09:37:52.68	154.18	8.18	-51.3	-53.0	14.1	0.00e+00	0	25	0	190840832	69	4197
2026-01-13 09:37:53.68	154.19	8.26	-51.4	-53.1	14.1	0.00e+00	0	25	0	193986560	69	4246
2026-01-13 09:37:54.67	154.20	8.34	-51.3	-53.0	14.1	0.00e+00	0	25	0	197132288	69	4200
2026-01-13 09:37:55.66	154.20	8.42	-51.3	-52.9	14.1	0.00e+00	0	26	0	200278016	69	4193
2026-01-13 09:37:56.66	154.21	8.50	-51.3	-52.9	14.2	0.00e+00	0	26	0	203423744	69	4166
2026-01-13 09:37:57.64	154.21	8.58	-51.2	-52.8	14.2	0.00e+00	0	26	0	206569472	69	4135
2026-01-13 09:37:58.63	154.22	8.66	-51.2	-52.8	14.0	0.00e+00	0	25	0	209715200	68	4390
2026-01-13 09:37:59.62	154.23	8.75	-51.2	-52.8	14.1	0.00e+00	0	25	0	212860928	68	4360
2026-01-13 09:38:00.62	154.23	8.83	-51.1	-52.7	14.1	0.00e+00	0	25	0	216006656	68	4300
2026-01-13 09:38:01.61	154.24	8.91	-51.1	-52.7	14.1	0.00e+00	0	25	0	219152384	68	4302
2026-01-13 09:38:02.60	154.25	8.99	-51.2	-52.8	14.1	0.00e+00	0	25	0	222298112	68	4356
2026-01-13 09:38:03.60	154.25	9.08	-51.1	-52.7	14.1	0.00e+00	0	26	0	225443840	68	4340
2026-01-13 09:38:04.59	154.26	9.16	-51.0	-52.6	14.2	0.00e+00	0	25	0	228589568	68	4268
2026-01-13 09:38:05.57	154.26	9.24	-51.1	-52.7	14.1	0.00e+00	0	26	0	231735296	68	4307
2026-01-13 09:38:06.56	154.27	9.33	-51.1	-52.7	14.1	0.00e+00	0	26	0	234881024	68	4315
2026-01-13 09:38:07.57	154.28	9.41	-51.2	-52.8	14.1	0.00e+00	0	26	0	238026752	68	4349
2026-01-13 09:38:08.56	154.28	9.50	-51.0	-52.5	14.2	0.00e+00	0	26	0	241172480	68	4236
2026-01-13 09:38:09.55	154.29	9.58	-50.9	-52.4	14.3	0.00e+00	0	25	0	244318208	68	4189
2026-01-13 09:38:10.54	154.30	9.67	-50.9	-52.4	14.3	0.00e+00	0	26	0	247463936	68	4165
2026-01-13 09:38:11.53	154.30	9.75	-50.8	-52.4	14.3	0.00e+00	0	26	0	249561088	68	4156
2026-01-13 09:38:12.52	154.31	9.84	-50.8	-52.4	14.3	0.00e+00	0	26	0	252706816	68	4158
2026-01-13 09:38:13.52	154.31	9.92	-50.8	-52.3	14.4	0.00e+00	0	26	0	255852544	68	4109
2026-01-13 09:38:14.51	154.32	10.01	-50.8	-52.3	14.3	0.00e+00	0	26	0	258998272	68	4118
2026-01-13 09:38:15.50	154.33	10.10	-50.8	-52.3	14.3	0.00e+00	0	26	0	262144000	68	4124
2026-01-13 09:38:16.49	154.33	10.18	-50.7	-52.3	14.4	0.00e+00	0	26	0	265289728	68	4101
2026-01-13 09:38:17.48	154.34	10.27	-50.5	-52.0	14.3	0.00e+00	0	26	0	268435456	67	4195
2026-01-13 09:38:18.48	154.35	10.36	-50.5	-52.0	14.3	0.00e+00	0	26	0	271581184	67	4229
2026-01-13 09:38:19.47	154.35	10.45	-50.5	-52.0	14.3	0.00e+00	0	26	0	274726912	67	4206
2026-01-13 09:38:20.46	154.36	10.53	-50.5	-52.0	14.3	0.00e+00	0	26	0	277872640	67	4197
2026-01-13 09:38:21.47	154.37	10.62	-50.4	-51.9	14.4	0.00e+00	0	26	0	281018368	67	4149
2026-01-13 09:38:22.47	154.37	10.71	-50.4	-51.8	14.4	0.00e+00	0	26	0	284164096	67	4144
2026-01-13 09:38:23.47	154.38	10.80	-50.4	-51.8	14.4	0.00e+00	0	26	0	287309824	67	4142
2026-01-13 09:38:24.46	154.39	10.89	-50.4	-51.9	14.4	0.00e+00	0	26	0	290455552	67	4149
2026-01-13 09:38:25.45	154.39	10.98	-50.5	-52.0	14.3	0.00e+00	0	26	0	293601280	67	4226
2026-01-13 09:38:26.44	154.40	11.07	-50.5	-52.0	14.4	0.00e+00	0	25	0	296747008	67	4216
2026-01-13 09:38:27.43	154.41	11.16	-50.3	-51.8	14.5	0.00e+00	0	26	0	299892736	67	4109
2026-01-13 09:38:28.42	154.41	11.25	-50.3	-51.7	14.5	0.00e+00	0	26	0	303038464	67	4094
2026-01-13 09:38:29.41	154.42	11.34	-50.4	-51.8	14.4	0.00e+00	0	26	0	306184192	67	4132
2026-01-13 09:38:30.41	154.43	11.44	-50.2	-51.6	14.5	0.00e+00	0	26	0	309329920	67	4041
2026-01-13 09:38:31.41	154.43	11.53	-50.2	-51.7	14.4	0.00e+00	0	26	0	312475648	66	4297
2026-01-13 09:38:32.39	154.44	11.62	-50.2	-51.7	14.4	0.00e+00	0	26	0	315621376	66	4297
2026-01-13 09:38:33.39	154.45	11.71	-50.2	-51.6	14.4	0.00e+00	0	26	0	318767104	66	4271
2026-01-13 09:38:34.39	154.45	11.81	-50.1	-51.6	14.4	0.00e+00	0	26	0	321912832	66	4252
2026-01-13 09:38:35.38	154.46	11.90	-50.1	-51.5	14.5	0.00e+00	0	25	0	325058560	66	4211
2026-01-13 09:38:36.37	154.47	11.99	-50.1	-51.5	14.5	0.00e+00	0	26	0	328204288	66	4204
2026-01-13 09:38:37.37	154.47	12.09	-50.1	-51.5	14.4	0.00e+00	0	26	0	331350016	66	4229
2026-01-13 09:38:38.36	154.48	12.18	-50.0	-51.4	14.5	0.00e+00	0	26	0	334495744	66	4163
2026-01-13 09:38:39.36	154.49	12.28	-50.0	-51.4	14.4	0.00e+00	0	26	0	336592896	66	4165
2026-01-13 09:38:40.35	154.49	12.37	-50.0	-51.4	14.5	0.00e+00	0	26	0	339738624	66	4148
2026-01-13 09:38:41.35	154.50	12.47	-50.1	-51.5	14.5	0.00e+00	0	26	0	342884352	66	4242
2026-01-13 09:38:42.34	154.51	12.56	-50.1	-51.5	14.5	0.00e+00	0	26	0	346030080	66	4198
2026-01-13 09:38:43.34	154.51	12.66	-50.0	-51.4	14.5	0.00e+00	0	26	0	349175808	66	4185
2026-01-13 09:38:44.34	154.52	12.76	-49.9	-51.3	14.6	0.00e+00	0	26	0	352321536	66	4118
2026-01-13 09:38:45.34	154.53	12.86	-49.9	-51.3	14.6	0.00e+00	0	26	0	355467264	66	4129
2026-01-13 09:38:46.33	154.53	12.95	-49.8	-51.2	14.7	0.00e+00	0	26	0	358612992	66	4057
2026-01-13 09:38:47.32	154.54	13.05	-49.9	-51.3	14.6	0.00e+00	0	26	0	361758720	66	4113
2026-01-13 09:38:48.32	154.55	13.15	-49.8	-51.1	14.6	0.00e+00	0	26	0	364904448	66	4042
2026-01-13 09:38:49.30	154.56	13.25	-49.8	-51.2	14.6	0.00e+00	0	26	0	368050176	66	4063
2026-01-13 09:38:50.30	154.56	13.35	-49.8	-51.2	14.7	0.00e+00	0	26	0	371195904	66	4052
2026-01-13 09:38:51.29	154.57	13.44	-49.7	-51.0	14.6	0.00e+00	0	26	0	374341632	65	4216
2026-01-13 09:38:52.29	154.58	13.55	-49.7	-51.1	14.5	0.00e+00	0	26	0	377487360	65	4251
2026-01-13 09:38:53.28	154.58	13.64	-49.7	-51.0	14.6	0.00e+00	0	26	0	380633088	65	4238
2026-01-13 09:38:54.27	154.59	13.75	-49.7	-51.1	14.5	0.00e+00	0	26	0	383778816	65	4263
2026-01-13 09:38:55.27	154.60	13.85	-49.8	-51.1	14.5	0.00e+00	0	26	0	386924544	65	4282
2026-01-13 09:38:56.25	154.61	13.95	-49.8	-51.1	14.5	0.00e+00	0	26	0	390070272	65	4272
2026-01-13 09:38:57.24	154.61	14.05	-49.6	-50.9	14.6	0.00e+00	0	26	0	393216000	65	4193
2026-01-13 09:38:58.24	154.62	14.15	-49.7	-51.0	14.6	0.00e+00	0	26	0	396361728	65	4239
2026-01-13 09:38:59.24	154.63	14.26	-49.6	-51.0	14.6	0.00e+00	0	26	0	399507456	65	4194
2026-01-13 09:39:00.24	154.64	14.36	-49.5	-50.8	14.6	0.00e+00	0	26	0	402653184	65	4137
2026-01-13 09:39:01.23	154.64	14.46	-49.5	-50.9	14.6	0.00e+00	0	26	0	405798912	65	4148
2026-01-13 09:39:02.21	154.65	14.56	-49.7	-51.0	14.6	0.00e+00	0	26	0	408944640	65	4217
2026-01-13 09:39:03.20	154.66	14.67	-49.6	-50.9	14.6	0.00e+00	0	26	0	412090368	65	4192
2026-01-13 09:39:04.20	154.67	14.77	-49.5	-50.8	14.7	0.00e+00	0	26	0	415236096	65	4108
2026-01-13 09:39:05.20	154.67	14.88	-49.5	-50.9	14.6	0.00e+00	0	26	0	417333248	65	4150
2026-01-13 09:39:06.19	154.68	14.99	-49.5	-50.8	14.7	0.00e+00	0	26	0	420478976	65	4127
2026-01-13 09:39:07.18	154.69	15.09	-49.5	-50.9	14.6	0.00e+00	0	26	0	423624704	65	4158
2026-01-13 09:39:08.18	154.70	15.20	-49.5	-50.8	14.7	0.00e+00	0	26	0	426770432	65	4133
2026-01-13 09:39:09.16	154.70	15.31	-49.6	-50.9	14.6	0.00e+00	0	26	0	429916160	65	4169
2026-01-13 09:39:10.15	154.71	15.41	-49.5	-50.8	14.7	0.00e+00	0	26	0	433061888	65	4106
2026-01-13 09:39:11.14	154.72	15.52	-49.5	-50.8	14.7	0.00e+00	0	26	0	436207616	65	4141
2026-01-13 09:39:12.14	154.73	15.63	-49.5	-50.8	14.7	0.00e+00	0	26	0	439353344	65	4115
2026-01-13 09:39:13.14	154.73	15.74	-49.4	-50.7	14.7	0.00e+00	0	26	0	442499072	65	4086
2026-01-13 09:39:14.13	154.74	15.85	-49.5	-50.8	14.7	0.00e+00	0	26	0	445644800	65	4139
2026-01-13 09:39:15.12	154.75	15.96	-49.5	-50.8	14.7	0.00e+00	0	26	0	448790528	65	4136
2026-01-13 09:39:16.12	154.76	16.07	-49.5	-50.8	14.7	0.00e+00	0	26	0	451936256	65	4106
2026-01-13 09:39:17.12	154.77	16.18	-49.5	-50.8	14.7	0.00e+00	0	26	0	455081984	65	4131
2026-01-13 09:39:18.12	154.77	16.30	-49.6	-50.9	14.6	0.00e+00	0	26	0	458227712	65	4172
2026-01-13 09:39:19.11	154.78	16.41	-49.5	-50.8	14.7	0.00e+00	0	26	0	461373440	65	4131
2026-01-13 09:39:20.10	154.79	16.52	-49.5	-50.8	14.7	0.00e+00	0	26	0	464519168	65	4139
2026-01-13 09:39:21.09	154.80	16.63	-49.5	-50.8	14.7	0.00e+00	0	26	0	467664896	65	4132
2026-01-13 09:39:22.08	154.81	16.75	-49.6	-50.9	14.6	0.00e+00	0	26	0	470810624	65	4174
2026-01-13 09:39:23.08	154.81	16.86	-49.6	-50.9	14.6	0.00e+00	0	26	0	473956352	65	4167
2026-01-13 09:39:24.08	154.82	16.98	-49.6	-50.9	14.6	0.00e+00	0	26	0	477102080	65	4185
2026-01-13 09:39:25.08	154.83	17.09	-49.6	-50.9	14.6	0.00e+00	0	26	0	480247808	65	4192
2026-01-13 09:39:26.06	154.84	17.21	-49.6	-50.9	14.6	0.00e+00	0	26	0	483393536	65	4167
2026-01-13 09:39:27.05	154.85	17.32	-49.6	-50.9	14.6	0.00e+00	0	26	0	486539264	65	4192
2026-01-13 09:39:28.05	154.85	17.44	-49.6	-51.0	14.6	0.00e+00	0	26	0	488636416	65	4204
2026-01-13 09:39:29.03	154.86	17.56	-49.8	-51.1	14.5	0.00e+00	0	26	0	491782144	65	4278
2026-01-13 09:39:30.03	154.87	17.68	-49.8	-51.1	14.6	0.00e+00	0	26	0	494927872	65	4259
2026-01-13 09:39:31.03	154.88	17.80	-49.7	-51.1	14.6	0.00e+00	0	26	0	498073600	65	4246
2026-01-13 09:39:32.02	154.89	17.91	-49.7	-51.1	14.6	0.00e+00	0	26	0	501219328	65	4259
2026-01-13 09:39:33.01	154.90	18.03	-49.8	-51.2	14.5	0.00e+00	0	26	0	504365056	65	4295
2026-01-13 09:39:34.01	154.90	18.16	-49.8	-51.1	14.6	0.00e+00	0	26	0	507510784	65	4267
2026-01-13 09:39:35.01	154.91	18.28	-49.8	-51.2	14.5	0.00e+00	0	26	0	510656512	65	4303
2026-01-13 09:39:36.00	154.92	18.40	-49.8	-51.1	14.6	0.00e+00	0	26	0	513802240	65	4274
2026-01-13 09:39:36.99	154.93	18.52	-49.8	-51.1	14.5	0.00e+00	0	26	0	516947968	65	4274
2026-01-13 09:39:37.98	154.94	18.64	-49.9	-51.2	14.5	0.00e+00	0	26	0	520093696	65	4338
2026-01-13 09:39:38.97	154.95	18.77	-49.8	-51.2	14.5	0.00e+00	0	26	0	523239424	65	4322
2026-01-13 09:39:39.96	154.96	18.89	-49.9	-51.3	14.5	0.00e+00	0	26	0	526385152	65	4351
2026-01-13 09:39:40.96	154.97	19.02	-49.9	-51.2	14.5	0.00e+00	0	26	0	529530880	65	4327
2026-01-13 09:39:41.95	154.97	19.14	-49.7	-51.1	14.6	0.00e+00	0	26	0	532676608	65	4256
2026-01-13 09:39:42.94	154.98	19.27	-49.8	-51.1	14.6	0.00e+00	0	26	0	535822336	65	4275
2026-01-13 09:39:43.94	154.99	19.39	-49.9	-51.2	14.5	0.00e+00	0	26	0	538968064	65	4317
2026-01-13 09:39:44.93	155.00	19.52	-49.8	-51.1	14.6	0.00e+00	0	26	0	542113792	65	4262
2026-01-13 09:39:45.93	155.01	19.65	-49.7	-51.0	14.6	0.00e+00	0	26	0	545259520	65	4218
2026-01-13 09:39:46.93	155.02	19.78	-49.7	-51.0	14.6	0.00e+00	0	26	0	548405248	65	4236
2026-01-13 09:39:47.92	155.03	19.91	-49.7	-51.0	14.6	0.00e+00	0	26	0	551550976	65	4211
2026-01-13 09:39:48.91	155.04	20.04	-49.5	-50.8	14.7	0.00e+00	0	26	0	554696704	65	4133
2026-01-13 09:39:49.90	155.05	20.17	-49.6	-50.9	14.7	0.00e+00	0	26	0	557842432	65	4173
2026-01-13 09:39:50.89	155.06	20.30	-49.5	-50.8	14.7	0.00e+00	0	26	0	560988160	65	4141
2026-01-13 09:39:51.89	155.06	20.43	-49.5	-50.8	14.7	0.00e+00	0	26	0	564133888	65	4121
2026-01-13 09:39:52.89	155.07	20.56	-49.5	-50.8	14.7	0.00e+00	0	26	0	567279616	65	4132
2026-01-13 09:39:53.89	155.08	20.70	-49.4	-50.7	14.7	0.00e+00	0	26	0	570425344	65	4070
2026-01-13 09:39:54.88	155.09	20.83	-49.1	-50.4	14.7	0.00e+00	0	26	0	573571072	64	4160
2026-01-13 09:39:55.87	155.10	20.97	-49.2	-50.5	14.7	0.00e+00	0	26	0	575668224	64	4201
2026-01-13 09:39:56.86	155.11	21.10	-49.2	-50.5	14.7	0.00e+00	0	26	0	578813952	64	4212
2026-01-13 09:39:57.86	155.12	21.24	-49.2	-50.5	14.7	0.00e+00	0	26	0	581959680	64	4199
2026-01-13 09:39:58.85	155.13	21.38	-49.2	-50.4	14.7	0.00e+00	0	26	0	585105408	64	4175
2026-01-13 09:39:59.85	155.14	21.52	-48.9	-50.1	14.8	0.00e+00	0	26	0	588251136	64	4050
2026-01-13 09:40:00.85	155.15	21.65	-48.9	-50.2	14.8	0.00e+00	0	26	0	591396864	64	4055
2026-01-13 09:40:01.84	155.16	21.79	-48.8	-50.0	14.9	0.00e+00	0	26	0	594542592	64	3993
2026-01-13 09:40:02.85	155.17	21.94	-48.7	-49.9	14.8	0.00e+00	0	26	0	597688320	63	4170
2026-01-13 09:40:03.84	155.18	22.08	-48.7	-49.9	14.8	0.00e+00	0	26	0	600834048	63	4166
2026-01-13 09:40:04.83	155.19	22.22	-48.6	-49.8	14.8	0.00e+00	0	26	0	603979776	63	4128
2026-01-13 09:40:05.83	155.20	22.36	-48.6	-49.8	14.8	0.00e+00	0	26	0	607125504	63	4120
2026-01-13 09:40:06.82	155.21	22.50	-48.5	-49.6	14.9	0.00e+00	0	26	0	610271232	63	4051
2026-01-13 09:40:07.82	155.22	22.65	-48.4	-49.6	14.9	0.00e+00	0	26	0	613416960	63	4034
2026-01-13 09:40:08.82	155.23	22.79	-48.5	-49.7	14.9	0.00e+00	0	26	0	616562688	63	4052
2026-01-13 09:40:09.81	155.24	22.94	-48.4	-49.6	14.9	0.00e+00	0	26	0	619708416	63	4021
2026-01-13 09:40:10.81	155.25	23.09	-48.4	-49.5	15.0	0.00e+00	0	26	0	622854144	63	3996
2026-01-13 09:40:11.81	155.26	23.24	-48.5	-49.7	14.9	0.00e+00	0	26	0	625999872	63	4053
2026-01-13 09:40:12.80	155.27	23.38	-48.3	-49.4	15.0	0.00e+00	0	26	0	629145600	63	3955
2026-01-13 09:40:13.79	155.28	23.53	-48.3	-49.5	15.0	0.00e+00	0	26	0	632291328	63	3962
2026-01-13 09:40:14.78	155.29	23.68	-48.2	-49.4	15.0	0.00e+00	0	26	0	635437056	63	3947
2026-01-13 09:40:15.77	155.30	23.83	-48.2	-49.4	15.0	0.00e+00	0	26	0	638582784	63	3936
2026-01-13 09:40:16.76	155.31	23.98	-48.2	-49.4	15.0	0.00e+00	0	26	0	641728512	63	3930
2026-01-13 09:40:17.76	155.33	24.14	-48.3	-49.5	15.0	0.00e+00	0	26	0	644874240	63	3962
2026-01-13 09:40:18.75	155.34	24.29	-48.3	-49.5	15.0	0.00e+00	0	26	0	648019968	63	3988
2026-01-13 09:40:19.74	155.35	24.44	-48.4	-49.6	14.9	0.00e+00	0	26	0	651165696	63	4038
2026-01-13 09:40:20.74	155.36	24.60	-48.4	-49.6	15.0	0.00e+00	0	26	0	654311424	63	4018
2026-01-13 09:40:21.73	155.37	24.76	-48.5	-49.7	14.9	0.00e+00	0	26	0	657457152	63	4052
2026-01-13 09:40:22.73	155.38	24.91	-48.4	-49.6	14.9	0.00e+00	0	26	0	660602880	63	4023
2026-01-13 09:40:23.72	155.39	25.07	-48.5	-49.7	14.9	0.00e+00	0	26	0	662700032	63	4058
2026-01-13 09:40:24.71	155.40	25.23	-48.5	-49.7	14.9	0.00e+00	0	26	0	665845760	63	4062
2026-01-13 09:40:25.70	155.41	25.39	-48.6	-49.8	14.9	0.00e+00	0	26	0	668991488	63	4122
2026-01-13 09:40:26.70	155.43	25.55	-48.6	-49.7	14.9	0.00e+00	0	26	0	672137216	63	4090
2026-01-13 09:40:27.70	155.44	25.71	-48.7	-49.9	14.8	0.00e+00	0	26	0	675282944	63	4165
2026-01-13 09:40:28.68	155.45	25.88	-48.7	-49.9	14.8	0.00e+00	0	26	0	678428672	63	4167
2026-01-13 09:40:29.68	155.46	26.04	-48.8	-50.0	14.8	0.00e+00	0	26	0	681574400	63	4221
2026-01-13 09:40:30.67	155.47	26.20	-48.9	-50.1	14.8	0.00e+00	0	26	0	684720128	63	4271
2026-01-13 09:40:31.66	155.48	26.37	-49.0	-50.2	14.7	0.00e+00	0	26	0	687865856	63	4306
2026-01-13 09:40:32.65	155.50	26.54	-49.1	-50.3	14.7	0.00e+00	0	26	0	691011584	63	4373
2026-01-13 09:40:33.64	155.51	26.70	-49.1	-50.4	14.6	0.00e+00	0	26	0	694157312	63	4403
2026-01-13 09:40:34.63	155.52	26.87	-49.3	-50.5	14.6	0.00e+00	0	26	0	697303040	63	4472
2026-01-13 09:40:35.62	155.53	27.04	-49.4	-50.7	14.7	0.00e+00	0	26	0	700448768	64	4297
2026-01-13 09:40:36.61	155.54	27.21	-49.3	-50.6	14.7	0.00e+00	0	26	0	703594496	64	4261
2026-01-13 09:40:37.61	155.56	27.39	-49.5	-50.7	14.6	0.00e+00	0	26	0	706740224	64	4340
2026-01-13 09:40:38.60	155.57	27.56	-49.5	-50.8	14.6	0.00e+00	0	26	0	709885952	64	4350
2026-01-13 09:40:39.60	155.58	27.73	-49.6	-50.9	14.6	0.00e+00	0	26	0	713031680	64	4392
2026-01-13 09:40:40.59	155.59	27.91	-49.6	-50.9	14.5	0.00e+00	0	26	0	716177408	64	4438
2026-01-13 09:40:41.58	155.61	28.09	-49.7	-51.0	14.5	0.00e+00	0	26	0	719323136	64	4471
2026-01-13 09:40:42.57	155.62	28.26	-49.8	-51.1	14.5	0.00e+00	0	26	0	722468864	64	4525
2026-01-13 09:40:43.57	155.63	28.44	-50.0	-51.3	14.5	0.00e+00	0	26	0	725614592	65	4377
2026-01-13 09:40:44.55	155.65	28.62	-49.9	-51.3	14.5	0.00e+00	0	26	0	728760320	65	4371
2026-01-13 09:40:45.54	155.66	28.80	-50.1	-51.4	14.4	0.00e+00	0	26	0	730857472	65	4439
2026-01-13 09:40:46.53	155.67	28.98	-50.0	-51.3	14.5	0.00e+00	0	26	0	734003200	65	4369
2026-01-13 09:40:47.53	155.69	29.17	-49.9	-51.2	14.6	0.00e+00	0	26	0	737148928	65	4315
2026-01-13 09:40:48.53	155.70	29.35	-49.9	-51.2	14.5	0.00e+00	0	26	0	740294656	65	4335
2026-01-13 09:40:49.52	155.71	29.54	-49.9	-51.2	14.6	0.00e+00	0	26	0	743440384	65	4315
2026-01-13 09:40:50.52	155.73	29.73	-49.8	-51.1	14.6	0.00e+00	0	26	0	746586112	65	4287
2026-01-13 09:40:51.51	155.74	29.92	-49.9	-51.2	14.5	0.00e+00	0	26	0	749731840	65	4340
2026-01-13 09:40:52.51	155.76	30.11	-49.7	-51.0	14.6	0.00e+00	0	26	0	752877568	65	4216
2026-01-13 09:40:53.50	155.77	30.30	-49.7	-51.0	14.6	0.00e+00	0	26	0	756023296	65	4216
2026-01-13 09:40:54.49	155.78	30.49	-49.7	-51.0	14.6	0.00e+00	0	26	0	759169024	65	4242
2026-01-13 09:40:55.48	155.80	30.68	-49.5	-50.8	14.7	0.00e+00	0	26	0	762314752	65	4109
2026-01-13 09:40:56.49	155.81	30.88	-49.3	-50.6	14.8	0.00e+00	0	26	0	765460480	65	4019
2026-01-13 09:40:57.48	155.83	31.08	-49.2	-50.4	14.9	0.00e+00	0	26	0	768606208	65	3955
2026-01-13 09:40:58.48	155.84	31.28	-49.1	-50.3	14.8	0.00e+00	0	26	0	771751936	64	4128
2026-01-13 09:40:59.47	155.86	31.47	-49.2	-50.4	14.7	0.00e+00	0	26	0	774897664	64	4188
2026-01-13 09:41:00.46	155.87	31.67	-49.1	-50.4	14.8	0.00e+00	0	26	0	778043392	64	4159
2026-01-13 09:41:01.45	155.89	31.87	-49.1	-50.4	14.8	0.00e+00	0	26	0	781189120	64	4148
2026-01-13 09:41:02.44	155.90	32.08	-49.1	-50.3	14.8	0.00e+00	0	26	0	784334848	64	4118
2026-01-13 09:41:03.43	155.92	32.28	-49.0	-50.2	14.8	0.00e+00	0	26	0	787480576	64	4077
2026-01-13 09:41:04.42	155.93	32.49	-48.9	-50.1	14.9	0.00e+00	0	26	0	790626304	64	4051
2026-01-13 09:41:05.42	155.95	32.69	-49.1	-50.3	14.8	0.00e+00	0	26	0	793772032	64	4115
2026-01-13 09:41:06.42	155.97	32.90	-49.2	-50.4	14.7	0.00e+00	0	26	0	796917760	64	4186
2026-01-13 09:41:07.41	155.98	33.11	-49.4	-50.7	14.6	0.00e+00	0	26	0	800063488	64	4319
2026-01-13 09:41:08.40	156.00	33.32	-49.5	-50.8	14.6	0.00e+00	0	26	0	803209216	64	4366
2026-01-13 09:41:09.38	156.01	33.53	-49.6	-50.8	14.6	0.00e+00	0	26	0	806354944	64	4383
2026-01-13 09:41:10.38	156.03	33.75	-49.8	-51.1	14.5	0.00e+00	0	26	0	809500672	64	4530
2026-01-13 09:41:11.37	156.05	33.97	-49.9	-51.2	14.5	0.00e+00	0	26	0	811597824	65	4339
2026-01-13 09:41:12.36	156.06	34.18	-50.1	-51.4	14.5	0.00e+00	0	26	0	814743552	65	4421
2026-01-13 09:41:13.37	156.08	34.41	-50.2	-51.5	14.4	0.00e+00	0	26	0	817889280	65	4481
2026-01-13 09:41:14.35	156.10	34.62	-50.3	-51.7	14.3	0.00e+00	0	26	0	821035008	65	4580
2026-01-13 09:41:15.36	156.12	34.85	-50.6	-52.0	14.3	0.00e+00	0	26	0	824180736	66	4482
2026-01-13 09:41:16.35	156.13	35.07	-50.6	-52.0	14.3	0.00e+00	0	26	0	827326464	66	4474
2026-01-13 09:41:17.34	156.15	35.30	-50.6	-52.0	14.3	0.00e+00	0	26	0	830472192	66	4486
2026-01-13 09:41:18.33	156.17	35.52	-50.8	-52.3	14.2	0.00e+00	0	26	0	833617920	66	4610
2026-01-13 09:41:19.32	156.19	35.75	-51.0	-52.4	14.3	0.00e+00	0	26	0	836763648	67	4428
2026-01-13 09:41:20.32	156.21	35.98	-51.0	-52.5	14.2	0.00e+00	0	26	0	839909376	67	4481
2026-01-13 09:41:21.32	156.23	36.22	-51.2	-52.7	14.1	0.00e+00	0	26	0	843055104	67	4592
2026-01-13 09:41:22.30	156.24	36.45	-51.4	-52.9	14.1	0.00e+00	0	26	0	846200832	67	4697
2026-01-13 09:41:23.30	156.26	36.68	-51.7	-53.3	14.0	0.00e+00	0	26	0	849346560	68	4641
2026-01-13 09:41:24.29	156.28	36.92	-51.9	-53.5	14.0	0.00e+00	0	26	0	852492288	69	4484
2026-01-13 09:41:25.28	156.30	37.16	-52.1	-53.7	13.9	0.00e+00	0	26	0	855638016	69	4570
2026-01-13 09:41:26.28	156.32	37.40	-52.0	-53.7	14.0	0.00e+00	0	26	0	858783744	69	4548
2026-01-13 09:41:27.28	156.34	37.64	-52.0	-53.7	13.9	0.00e+00	0	26	0	861929472	69	4567
2026-01-13 09:41:28.28	156.36	37.89	-52.0	-53.6	14.0	0.00e+00	0	26	0	865075200	69	4512
2026-01-13 09:41:29.28	156.38	38.14	-51.8	-53.3	14.1	0.00e+00	0	26	0	868220928	69	4378
2026-01-13 09:41:30.27	156.40	38.38	-51.7	-53.3	14.2	0.00e+00	0	26	0	871366656	69	4350
2026-01-13 09:41:31.26	156.43	38.63	-51.5	-53.0	14.3	0.00e+00	0	26	0	874512384	69	4235
2026-01-13 09:41:32.25	156.45	38.88	-51.5	-53.0	14.3	0.00e+00	0	26	0	877658112	69	4241
2026-01-13 09:41:33.25	156.47	39.14	-51.1	-52.5	14.4	0.00e+00	0	26	0	880803840	68	4215
2026-01-13 09:41:34.25	156.49	39.39	-51.1	-52.5	14.4	0.00e+00	0	26	0	883949568	68	4213
2026-01-13 09:41:35.25	156.51	39.65	-51.0	-52.5	14.4	0.00e+00	0	26	0	887095296	68	4208
2026-01-13 09:41:36.24	156.54	39.91	-50.9	-52.3	14.5	0.00e+00	0	26	0	890241024	68	4102
2026-01-13 09:41:37.23	156.56	40.17	-50.8	-52.1	14.6	0.00e+00	0	26	0	893386752	68	4047
2026-01-13 09:41:38.22	156.58	40.43	-50.8	-52.2	14.6	0.00e+00	0	26	0	896532480	68	4093
2026-01-13 09:41:39.22	156.60	40.70	-50.8	-52.2	14.5	0.00e+00	0	26	0	898629632	68	4089
2026-01-13 09:41:40.20	156.63	40.96	-50.9	-52.3	14.5	0.00e+00	0	26	0	901775360	68	4123
2026-01-13 09:41:41.20	156.65	41.23	-50.9	-52.3	14.5	0.00e+00	0	26	0	904921088	68	4141
2026-01-13 09:41:42.20	156.68	41.50	-51.0	-52.4	14.5	0.00e+00	0	26	0	908066816	68	4154
2026-01-13 09:41:43.19	156.70	41.77	-51.1	-52.6	14.3	0.00e+00	0	26	0	911212544	68	4260
2026-01-13 09:41:44.19	156.73	42.05	-51.2	-52.7	14.3	0.00e+00	0	26	0	914358272	68	4318
2026-01-13 09:41:45.20	156.75	42.33	-51.3	-52.8	14.3	0.00e+00	0	26	0	917504000	68	4369
2026-01-13 09:41:46.19	156.78	42.61	-51.7	-53.2	14.1	0.00e+00	0	26	0	920649728	68	4597
2026-01-13 09:41:47.18	156.80	42.89	-52.1	-53.7	13.9	0.00e+00	0	26	0	923795456	69	4574
2026-01-13 09:41:48.17	156.83	43.17	-52.4	-54.1	13.7	0.00e+00	0	26	0	926941184	69	4789
2026-01-13 09:41:49.17	156.86	43.46	-52.6	-54.3	13.7	0.00e+00	0	26	0	930086912	70	4637
2026-01-13 09:41:50.16	156.89	43.74	-52.8	-54.6	13.6	0.00e+00	0	26	0	933232640	70	4785
2026-01-13 09:41:51.16	156.91	44.03	-52.8	-54.6	13.6	0.00e+00	0	26	0	936378368	70	4782
2026-01-13 09:41:52.16	156.94	44.33	-52.7	-54.5	13.7	0.00e+00	0	26	0	939524096	70	4706
2026-01-13 09:41:53.15	156.97	44.62	-52.4	-54.1	13.8	0.00e+00	0	26	0	942669824	70	4530
2026-01-13 09:41:54.14	157.00	44.92	-52.1	-53.7	14.0	0.00e+00	0	26	0	945815552	70	4327
2026-01-13 09:41:55.13	157.03	45.21	-51.9	-53.4	14.2	0.00e+00	0	26	0	948961280	70	4192
2026-01-13 09:41:56.12	157.06	45.51	-52.0	-53.6	14.1	0.00e+00	0	26	0	952107008	70	4259
2026-01-13 09:41:57.11	157.09	45.81	-51.9	-53.5	14.2	0.00e+00	0	26	0	955252736	70	4211
2026-01-13 09:41:58.11	157.12	46.12	-51.9	-53.5	14.2	0.00e+00	0	26	0	958398464	70	4210
2026-01-13 09:41:59.10	157.15	46.43	-52.1	-53.7	14.0	0.00e+00	0	26	0	961544192	70	4314
2026-01-13 09:42:00.10	157.19	46.74	-52.1	-53.7	14.0	0.00e+00	0	26	0	964689920	70	4328
2026-01-13 09:42:01.07	157.22	47.04	-52.1	-53.8	14.0	0.00e+00	0	26	0	967835648	70	4352
2026-01-13 09:42:02.07	157.25	47.36	-52.1	-53.8	14.0	0.00e+00	0	26	0	970981376	70	4354
2026-01-13 09:42:03.06	157.29	47.67	-52.0	-53.6	14.1	0.00e+00	0	26	0	974127104	70	4261
2026-01-13 09:42:04.05	157.32	47.99	-51.7	-53.2	14.3	0.00e+00	0	26	0	977272832	70	4087
2026-01-13 09:42:05.05	157.36	48.31	-51.6	-53.1	14.2	0.00e+00	0	26	0	979369984	69	4276
2026-01-13 09:42:06.05	157.39	48.64	-51.6	-53.1	14.2	0.00e+00	0	26	0	982515712	69	4275
2026-01-13 09:42:07.04	157.43	48.96	-51.2	-52.7	14.5	0.00e+00	0	26	0	985661440	69	4070
2026-01-13 09:42:08.04	157.47	49.29	-50.9	-52.4	14.5	0.00e+00	0	26	0	988807168	68	4147
2026-01-13 09:42:09.03	157.51	49.62	-50.5	-51.9	14.5	0.00e+00	0	26	0	991952896	67	4149
2026-01-13 09:42:10.03	157.54	49.96	-50.4	-51.7	14.6	0.00e+00	0	26	0	995098624	67	4096
2026-01-13 09:42:11.03	157.58	50.29	-50.4	-51.7	14.6	0.00e+00	0	26	0	998244352	67	4073
2026-01-13 09:42:12.03	157.63	50.63	-50.1	-51.5	14.7	0.00e+00	0	26	0	1001390080	66	4203
2026-01-13 09:42:13.02	157.67	50.97	-50.3	-51.6	14.5	0.00e+00	0	26	0	1004535808	66	4284
2026-01-13 09:42:14.01	157.71	51.31	-50.2	-51.6	14.5	0.00e+00	0	26	0	1007681536	66	4251
2026-01-13 09:42:14.99	157.75	51.66	-50.3	-51.6	14.5	0.00e+00	0	26	0	1010827264	66	4269
2026-01-13 09:42:15.99	157.80	52.00	-50.4	-51.7	14.4	0.00e+00	0	26	0	1013972992	66	4318
2026-01-13 09:42:16.99	157.84	52.36	-50.4	-51.7	14.5	0.00e+00	0	26	0	1017118720	66	4306
2026-01-13 09:42:17.99	157.89	52.71	-50.1	-51.4	14.6	0.00e+00	0	26	0	1020264448	66	4154
2026-01-13 09:42:18.98	157.93	53.07	-50.1	-51.4	14.6	0.00e+00	0	26	0	1023410176	66	4169
2026-01-13 09:42:19.97	157.98	53.42	-50.1	-51.3	14.6	0.00e+00	0	26	0	1026555904	66	4142
2026-01-13 09:42:20.97	158.03	53.79	-50.2	-51.5	14.6	0.00e+00	0	26	0	1029701632	66	4224
2026-01-13 09:42:21.96	158.08	54.15	-50.1	-51.4	14.6	0.00e+00	0	26	0	1032847360	66	4175
2026-01-13 09:42:22.96	158.13	54.51	-50.2	-51.5	14.6	0.00e+00	0	26	0	1035993088	66	4230
2026-01-13 09:42:23.96	158.19	54.89	-50.3	-51.7	14.5	0.00e+00	0	26	0	1039138816	66	4294
2026-01-13 09:42:24.96	158.24	55.26	-50.0	-51.3	14.7	0.00e+00	0	26	0	1042284544	66	4124
2026-01-13 09:42:25.95	158.30	55.63	-49.7	-51.0	14.8	0.00e+00	0	26	0	1045430272	66	3973
2026-01-13 09:42:26.94	158.35	56.00	-49.6	-50.9	14.7	0.00e+00	0	26	0	1048576000	65	4153
2026-01-13 09:42:27.94	158.41	56.38	-49.5	-50.8	14.8	0.00e+00	0	26	0	1051721728	65	4107
2026-01-13 09:42:28.93	158.47	56.76	-49.7	-51.0	14.7	0.00e+00	0	26	0	1054867456	65	4202
2026-01-13 09:42:29.91	158.53	57.14	-49.8	-51.1	14.6	0.00e+00	0	26	0	1058013184	65	4282
2026-01-13 09:42:30.91	158.60	57.53	-49.7	-51.0	14.7	0.00e+00	0	26	0	1061158912	65	4213
2026-01-13 09:42:31.90	158.66	57.92	-49.6	-50.9	14.7	0.00e+00	0	26	0	1064304640	65	4161
2026-01-13 09:42:32.90	158.73	58.31	-49.5	-50.8	14.8	0.00e+00	0	26	0	1067450368	65	4100
2026-01-13 09:42:33.89	158.79	58.70	-49.4	-50.7	14.8	0.00e+00	0	26	0	1069547520	65	4060
2026-01-13 09:42:34.89	158.87	59.10	-49.3	-50.5	14.8	0.00e+00	0	26	0	1072693248	65	3999
2026-01-13 09:42:35.88	158.94	59.50	-49.3	-50.5	14.9	0.00e+00	0	26	0	1075838976	65	3978
2026-01-13 09:42:36.86	159.01	59.89	-49.1	-50.4	14.8	0.00e+00	0	26	0	1078984704	64	4160
2026-01-13 09:42:37.85	159.09	60.30	-49.1	-50.4	14.8	0.00e+00	0	26	0	1082130432	64	4158
2026-01-13 09:42:38.84	159.17	60.70	-48.8	-50.0	15.0	0.00e+00	0	26	0	1085276160	64	3972
2026-01-13 09:42:39.83	159.25	61.11	-48.7	-49.9	14.9	0.00e+00	0	26	0	1088421888	63	4165
2026-01-13 09:42:40.83	159.33	61.52	-48.7	-49.9	14.9	0.00e+00	0	26	0	1091567616	63	4160
2026-01-13 09:42:41.83	159.42	61.94	-48.8	-50.1	14.8	0.00e+00	0	26	0	1094713344	63	4243
2026-01-13 09:42:42.83	159.51	62.36	-48.7	-49.9	14.9	0.00e+00	0	26	0	1097859072	63	4173
2026-01-13 09:42:43.83	159.60	62.78	-48.5	-49.7	14.9	0.00e+00	0	26	0	1101004800	63	4065
2026-01-13 09:42:44.81	159.70	63.20	-48.3	-49.5	15.0	0.00e+00	0	26	0	1104150528	63	3968
2026-01-13 09:42:45.82	159.80	63.63	-48.4	-49.6	15.0	0.00e+00	0	26	0	1107296256	63	4012
2026-01-13 09:42:46.81	159.90	64.05	-48.6	-49.7	14.9	0.00e+00	0	26	0	1110441984	63	4092
2026-01-13 09:42:47.81	160.01	64.48	-48.6	-49.8	14.9	0.00e+00	0	26	0	1113587712	63	4132
2026-01-13 09:42:48.79	160.12	64.91	-48.5	-49.7	14.9	0.00e+00	0	26	0	1116733440	63	4054
2026-01-13 09:42:49.79	160.23	65.34	-48.4	-49.6	14.9	0.00e+00	0	26	0	1119879168	63	4033
2026-01-13 09:42:50.78	160.35	65.78	-48.0	-49.1	15.0	0.00e+00	0	26	0	1123024896	62	4030
2026-01-13 09:42:51.77	160.47	66.21	-48.0	-49.2	15.0	0.00e+00	0	26	0	1126170624	62	4058
2026-01-13 09:42:52.77	160.60	66.66	-48.2	-49.3	14.9	0.00e+00	0	26	0	1129316352	62	4141
2026-01-13 09:42:53.76	160.74	67.10	-48.4	-49.6	14.9	0.00e+00	0	26	0	1132462080	62	4248
2026-01-13 09:42:54.76	160.88	67.55	-48.2	-49.3	14.9	0.00e+00	0	26	0	1135607808	62	4140
2026-01-13 09:42:55.75	161.02	67.99	-48.2	-49.3	14.9	0.00e+00	0	26	0	1138753536	62	4131
2026-01-13 09:42:56.74	161.17	68.44	-48.1	-49.2	14.9	0.00e+00	0	26	0	1140850688	62	4088
2026-01-13 09:42:57.74	161.33	68.89	-48.1	-49.2	14.9	0.00e+00	0	26	0	1143996416	62	4096
2026-01-13 09:42:58.74	161.50	69.35	-48.2	-49.3	14.9	0.00e+00	0	26	0	1147142144	62	4140
2026-01-13 09:42:59.73	161.67	69.80	-48.1	-49.2	15.0	0.00e+00	0	26	0	1150287872	62	4080
2026-01-13 09:43:00.73	161.86	70.26	-48.3	-49.4	14.9	0.00e+00	0	26	0	1153433600	62	4187
2026-01-13 09:43:01.72	162.05	70.72	-48.1	-49.3	14.9	0.00e+00	0	26	0	1156579328	62	4110
2026-01-13 09:43:02.71	162.25	71.18	-48.1	-49.2	15.0	0.00e+00	0	26	0	1159725056	62	4074
2026-01-13 09:43:03.71	162.46	71.65	-48.1	-49.2	15.0	0.00e+00	0	26	0	1162870784	62	4070
2026-01-13 09:43:04.70	162.68	72.11	-47.8	-48.9	15.1	0.00e+00	0	26	0	1166016512	62	3926
2026-01-13 09:43:05.70	162.92	72.58	-47.9	-49.0	15.0	0.00e+00	0	26	0	1169162240	62	3974
2026-01-13 09:43:06.69	163.17	73.04	-48.0	-49.2	15.0	0.00e+00	0	26	0	1172307968	62	4059
2026-01-13 09:43:07.68	163.43	73.51	-47.9	-49.0	15.0	0.00e+00	0	26	0	1175453696	62	3998
2026-01-13 09:43:08.68	163.71	73.99	-47.7	-48.8	15.1	0.00e+00	0	26	0	1178599424	62	3899
2026-01-13 09:43:09.68	164.01	74.46	-47.8	-48.9	15.1	0.00e+00	0	26	0	1181745152	62	3946
2026-01-13 09:43:10.68	164.33	74.94	-47.7	-48.8	15.1	0.00e+00	0	26	0	1184890880	62	3894
2026-01-13 09:43:11.68	164.67	75.42	-47.7	-48.8	14.9	0.00e+00	0	26	0	1188036608	61	4141
2026-01-13 09:43:12.67	165.03	75.89	-47.7	-48.8	15.0	0.00e+00	0	26	0	1191182336	61	4139
2026-01-13 09:43:13.67	165.42	76.37	-47.8	-48.9	15.0	0.00e+00	0	26	0	1194328064	61	4179
2026-01-13 09:43:14.66	165.84	76.85	-47.9	-49.0	14.9	0.00e+00	0	26	0	1197473792	61	4217
2026-01-13 09:43:15.65	166.28	77.33	-47.9	-49.0	14.9	0.00e+00	0	26	0	1200619520	61	4238
2026-01-13 09:43:16.65	166.77	77.81	-48.2	-49.3	14.8	0.00e+00	0	26	0	1203765248	61	4374
2026-01-13 09:43:17.64	167.29	78.29	-48.6	-49.8	14.8	0.00e+00	0	26	0	1206910976	62	4364
2026-01-13 09:43:18.63	167.86	78.77	-49.0	-50.3	14.7	0.00e+00	0	26	0	1210056704	63	4355
2026-01-13 09:43:19.63	168.49	79.25	-49.0	-50.2	14.8	0.00e+00	0	26	0	1213202432	63	4330
2026-01-13 09:43:20.63	169.17	79.74	-48.8	-50.1	14.8	0.00e+00	0	26	0	1216348160	63	4245
2026-01-13 09:43:21.63	169.93	80.22	-48.6	-49.8	14.8	0.00e+00	0	26	0	1219493888	63	4133
2026-01-13 09:43:22.63	170.76	80.71	-48.6	-49.8	14.9	0.00e+00	0	26	0	1222639616	63	4137
2026-01-13 09:43:23.62	171.68	81.18	-48.9	-50.1	14.8	0.00e+00	0	26	0	1225785344	63	4264
2026-01-13 09:43:24.61	172.70	81.66	-49.1	-50.3	14.7	0.00e+00	0	26	0	1228931072	63	4391
2026-01-13 09:43:25.60	173.85	82.13	-49.2	-50.4	14.7	0.00e+00	0	26	0	1232076800	63	4421
2026-01-13 09:43:26.60	175.16	82.61	-48.8	-50.1	14.8	0.00e+00	0	26	0	1234173952	63	4244
2026-01-13 09:43:27.60	176.65	83.08	-49.1	-50.3	14.7	0.00e+00	0	26	0	1237319680	63	4360
2026-01-13 09:43:28.59	178.34	83.54	-49.0	-50.3	14.7	0.00e+00	0	26	0	1240465408	63	4355
2026-01-13 09:43:29.58	180.29	84.00	-49.2	-50.4	14.7	0.00e+00	0	26	0	1243611136	63	4440
2026-01-13 09:43:30.57	182.56	84.45	-48.9	-50.1	14.8	0.00e+00	0	26	0	1246756864	63	4285
2026-01-13 09:43:31.56	185.23	84.89	-48.5	-49.6	14.9	0.00e+00	0	26	0	1249902592	63	4050
2026-01-13 09:43:32.56	188.43	85.32	-48.4	-49.7	15.0	0.00e+00	0	26	0	1253048320	63	4052
2026-01-13 09:43:33.54	192.19	85.73	-48.7	-49.9	14.9	0.00e+00	0	26	0	1256194048	63	4167
2026-01-13 09:43:34.54	196.81	86.12	-48.7	-49.9	14.8	0.00e+00	0	26	0	1259339776	63	4184
2026-01-13 09:43:35.54	202.44	86.49	-48.6	-49.8	14.9	0.00e+00	0	26	0	1262485504	63	4138
2026-01-13 09:43:36.53	209.21	86.80	-48.8	-50.1	14.8	0.00e+00	0	26	0	1265631232	63	4244
2026-01-13 09:43:37.54	217.50	87.07	-49.1	-50.4	14.7	0.00e+00	0	26	0	1268776960	63	4409
2026-01-13 09:43:38.54	227.13	87.27	-49.3	-50.6	14.8	0.00e+00	0	26	0	1271922688	64	4259
2026-01-13 09:43:39.53	237.78	87.38	-48.9	-50.2	14.9	0.00e+00	0	26	0	1275068416	64	4053
2026-01-13 09:43:40.53	249.04	87.39	-48.9	-50.2	14.9	0.00e+00	0	26	0	1278214144	64	4052
2026-01-13 09:43:41.53	259.97	87.30	-49.0	-50.2	14.9	0.00e+00	0	26	0	1281359872	64	4068
2026-01-13 09:43:42.53	269.88	87.12	-48.9	-50.1	14.9	0.00e+00	0	26	0	1284505600	64	4026
2026-01-13 09:43:43.53	278.42	86.87	-48.7	-49.9	14.9	0.00e+00	0	26	0	1287651328	63	4150
2026-01-13 09:43:44.53	285.54	86.56	-48.5	-49.7	14.9	0.00e+00	0	26	0	1290797056	63	4085
2026-01-13 09:43:45.53	291.42	86.21	-48.5	-49.6	15.0	0.00e+00	0	26	0	1293942784	63	4021
2026-01-13 09:43:46.52	296.20	85.82	-48.4	-49.5	15.0	0.00e+00	0	26	0	1297088512	63	3990
2026-01-13 09:43:47.53	300.23	85.41	-48.4	-49.6	15.0	0.00e+00	0	26	0	1300234240	63	4019
2026-01-13 09:43:48.53	303.54	84.98	-48.5	-49.6	14.9	0.00e+00	0	26	0	1303379968	63	4046
2026-01-13 09:43:49.53	306.32	84.54	-48.4	-49.5	14.9	0.00e+00	0	26	0	1306525696	63	3967
2026-01-13 09:43:50.53	308.69	84.08	-48.1	-49.2	14.9	0.00e+00	0	26	0	1309671424	62	4082
2026-01-13 09:43:51.53	310.71	83.62	-48.4	-49.5	14.8	0.00e+00	0	26	0	1312817152	62	4217
2026-01-13 09:43:52.52	312.44	83.16	-48.6	-49.8	14.8	0.00e+00	0	26	0	1315962880	62	4364
2026-01-13 09:43:53.52	313.96	82.69	-49.1	-50.3	14.7	0.00e+00	0	26	0	1319108608	63	4352
2026-01-13 09:43:54.52	315.30	82.21	-49.1	-50.3	14.7	0.00e+00	0	26	0	1322254336	63	4367
2026-01-13 09:43:55.50	316.46	81.75	-48.9	-50.1	14.8	0.00e+00	0	26	0	1325400064	63	4252
2026-01-13 09:43:56.50	317.51	81.27	-48.6	-49.7	14.9	0.00e+00	0	26	0	1328545792	63	4092
2026-01-13 09:43:57.49	318.44	80.79	-48.5	-49.7	14.9	0.00e+00	0	26	0	1331691520	63	4052
2026-01-13 09:43:58.49	319.29	80.31	-48.5	-49.6	14.9	0.00e+00	0	26	0	1333788672	63	4031
2026-01-13 09:43:59.48	320.05	79.83	-48.4	-49.6	15.0	0.00e+00	0	26	0	1336934400	63	4010
2026-01-13 09:44:00.48	320.75	79.34	-48.6	-49.8	14.9	0.00e+00	0	26	0	1340080128	63	4128
2026-01-13 09:44:01.47	321.38	78.87	-48.5	-49.7	14.9	0.00e+00	0	26	0	1343225856	63	4056
2026-01-13 09:44:02.47	321.97	78.38	-48.1	-49.2	15.0	0.00e+00	0	26	0	1346371584	62	4090
2026-01-13 09:44:03.45	322.49	77.91	-48.1	-49.2	15.0	0.00e+00	0	26	0	1349517312	62	4071
2026-01-13 09:44:04.43	322.98	77.44	-48.2	-49.4	14.9	0.00e+00	0	26	0	1352663040	62	4156
2026-01-13 09:44:05.43	323.43	76.95	-48.2	-49.4	15.0	0.00e+00	0	26	0	1355808768	62	4148
2026-01-13 09:44:06.42	323.86	76.48	-48.2	-49.4	14.9	0.00e+00	0	26	0	1358954496	62	4154
2026-01-13 09:44:07.42	324.25	76.00	-48.4	-49.5	14.9	0.00e+00	0	26	0	1362100224	62	4241
2026-01-13 09:44:08.41	324.62	75.52	-48.6	-49.7	14.8	0.00e+00	0	26	0	1365245952	62	4337
2026-01-13 09:44:09.39	324.95	75.05	-48.3	-49.4	14.9	0.00e+00	0	26	0	1368391680	62	4180
2026-01-13 09:44:10.39	325.28	74.58	-48.6	-49.7	14.8	0.00e+00	0	26	0	1371537408	62	4333
2026-01-13 09:44:11.38	325.58	74.11	-48.6	-49.8	14.8	0.00e+00	0	26	0	1374683136	62	4350
2026-01-13 09:44:12.38	325.86	73.63	-49.1	-50.3	14.7	0.00e+00	0	26	0	1377828864	63	4383
2026-01-13 09:44:13.37	326.13	73.16	-48.9	-50.1	14.8	0.00e+00	0	26	0	1380974592	63	4266
2026-01-13 09:44:14.35	326.38	72.70	-48.7	-49.8	14.9	0.00e+00	0	26	0	1384120320	63	4134
2026-01-13 09:44:15.35	326.62	72.23	-48.4	-49.6	15.0	0.00e+00	0	26	0	1387266048	63	4007
2026-01-13 09:44:16.34	326.84	71.77	-48.3	-49.5	15.0	0.00e+00	0	26	0	1390411776	63	3981
2026-01-13 09:44:17.33	327.06	71.31	-48.3	-49.5	15.0	0.00e+00	0	26	0	1393557504	63	3972
2026-01-13 09:44:18.32	327.26	70.85	-48.0	-49.1	15.0	0.00e+00	0	26	0	1396703232	62	4013
2026-01-13 09:44:19.31	327.45	70.39	-48.3	-49.5	14.9	0.00e+00	0	26	0	1399848960	62	4212
2026-01-13 09:44:20.32	327.64	69.93	-49.0	-50.2	14.8	0.00e+00	0	26	0	1402994688	63	4295
2026-01-13 09:44:21.31	327.82	69.47	-49.2	-50.5	14.7	0.00e+00	0	26	0	1406140416	63	4457
2026-01-13 09:44:22.31	327.99	69.02	-49.0	-50.3	14.7	0.00e+00	0	26	0	1409286144	63	4346
2026-01-13 09:44:23.31	328.15	68.57	-48.7	-49.9	14.9	0.00e+00	0	26	0	1412431872	63	4147
2026-01-13 09:44:24.30	328.30	68.12	-48.2	-49.3	15.1	0.00e+00	0	26	0	1414529024	63	3912
2026-01-13 09:44:25.30	328.45	67.67	-48.0	-49.1	15.0	0.00e+00	0	26	0	1417674752	62	4025
2026-01-13 09:44:26.30	328.59	67.22	-48.3	-49.5	14.9	0.00e+00	0	26	0	1420820480	62	4206
2026-01-13 09:44:27.29	328.73	66.78	-49.2	-50.4	14.7	0.00e+00	0	26	0	1423966208	63	4413
2026-01-13 09:44:28.28	328.85	66.34	-49.4	-50.7	14.7	0.00e+00	0	26	0	1427111936	64	4321
2026-01-13 09:44:29.28	328.98	65.90	-48.4	-49.6	15.0	0.00e+00	0	26	0	1430257664	63	4006
2026-01-13 09:44:30.27	329.10	65.47	-47.9	-49.0	15.0	0.00e+00	0	26	0	1433403392	62	3976
2026-01-13 09:44:31.26	329.22	65.04	-47.6	-48.7	15.0	0.00e+00	0	26	0	1436549120	61	4094
2026-01-13 09:44:32.26	329.33	64.60	-47.4	-48.5	15.1	0.00e+00	0	26	0	1439694848	61	3968
2026-01-13 09:44:33.26	329.44	64.17	-47.6	-48.7	15.0	0.00e+00	0	26	0	1442840576	61	4091
2026-01-13 09:44:34.25	329.54	63.75	-48.2	-49.3	14.9	0.00e+00	0	26	0	1445986304	61	4358
2026-01-13 09:44:35.25	329.64	63.32	-48.8	-50.0	14.7	0.00e+00	0	26	0	1449132032	62	4478
2026-01-13 09:44:36.24	329.74	62.90	-49.4	-50.6	14.7	0.00e+00	0	26	0	1452277760	64	4275
2026-01-13 09:44:37.24	329.83	62.48	-49.6	-50.9	14.6	0.00e+00	0	26	0	1455423488	64	4420
2026-01-13 09:44:38.23	329.92	62.07	-49.6	-50.9	14.5	0.00e+00	0	26	0	1458569216	64	4408
2026-01-13 09:44:39.22	330.01	61.65	-49.1	-50.3	14.7	0.00e+00	0	26	0	1461714944	64	4114
2026-01-13 09:44:40.22	330.09	61.24	-48.9	-50.1	14.9	0.00e+00	0	26	0	1464860672	64	4009
2026-01-13 09:44:41.22	330.18	60.83	-49.0	-50.2	14.9	0.00e+00	0	26	0	1468006400	64	4092
2026-01-13 09:44:42.21	330.25	60.43	-49.3	-50.6	14.7	0.00e+00	0	26	0	1471152128	64	4263
2026-01-13 09:44:43.21	330.33	60.02	-50.0	-51.4	14.5	0.00e+00	0	26	0	1474297856	65	4392
2026-01-13 09:44:44.20	330.41	59.62	-49.5	-50.8	14.7	0.00e+00	0	26	0	1477443584	65	4117
2026-01-13 09:44:45.19	330.48	59.22	-49.2	-50.4	14.9	0.00e+00	0	26	0	1480589312	65	3946
2026-01-13 09:44:46.18	330.55	58.83	-49.4	-50.6	14.8	0.00e+00	0	26	0	1483735040	65	4018
2026-01-13 09:44:47.17	330.62	58.44	-49.5	-50.8	14.7	0.00e+00	0	26	0	1486880768	65	4104
2026-01-13 09:44:48.17	330.69	58.04	-49.2	-50.4	14.9	0.00e+00	0	26	0	1490026496	65	3955
2026-01-13 09:44:49.16	330.75	57.66	-48.8	-49.9	15.0	0.00e+00	0	26	0	1493172224	64	3946
2026-01-13 09:44:50.15	330.81	57.27	-48.6	-49.8	14.9	0.00e+00	0	26	0	1495269376	63	4121
2026-01-13 09:44:51.16	330.88	56.88	-49.1	-50.3	14.7	0.00e+00	0	26	0	1499463680	63	4389
2026-01-13 09:44:52.16	330.94	56.50	-49.6	-50.8	14.6	0.00e+00	0	26	0	1502609408	64	4385
2026-01-13 09:44:53.14	331.00	56.13	-50.2	-51.5	14.4	0.00e+00	0	26	0	1504706560	65	4492
2026-01-13 09:44:54.14	331.05	55.75	-50.6	-51.9	14.4	0.00e+00	0	26	0	1507852288	66	4437
2026-01-13 09:44:55.13	331.11	55.38	-50.8	-52.2	14.3	0.00e+00	0	26	0	1510998016	66	4588
2026-01-13 09:44:56.13	331.16	55.01	-50.5	-51.9	14.4	0.00e+00	0	26	0	1514143744	66	4399
2026-01-13 09:44:57.12	331.22	54.64	-50.5	-51.8	14.4	0.00e+00	0	26	0	1517289472	66	4391
2026-01-13 09:44:58.12	331.27	54.27	-50.6	-52.0	14.4	0.00e+00	0	26	0	1520435200	66	4445
2026-01-13 09:44:59.11	331.32	53.91	-50.2	-51.5	14.6	0.00e+00	0	26	0	1523580928	66	4219
2026-01-13 09:45:00.11	331.37	53.55	-49.9	-51.1	14.7	0.00e+00	0	26	0	1526726656	66	4050
2026-01-13 09:45:01.11	331.42	53.19	-49.7	-51.0	14.8	0.00e+00	0	26	0	1529872384	66	3973
2026-01-13 09:45:02.10	331.47	52.84	-49.7	-50.9	14.9	0.00e+00	0	26	0	1533018112	66	3948
2026-01-13 09:45:03.10	331.51	52.48	-49.8	-51.1	14.7	0.00e+00	0	26	0	1536163840	65	4266
2026-01-13 09:45:04.09	331.56	52.13	-50.3	-51.6	14.5	0.00e+00	0	26	0	1539309568	65	4530
2026-01-13 09:45:05.09	331.60	51.78	-50.8	-52.2	14.3	0.00e+00	0	26	0	1542455296	66	4574
2026-01-13 09:45:06.08	331.65	51.44	-51.6	-53.1	14.1	0.00e+00	0	26	0	1545601024	68	4540
2026-01-13 09:45:07.07	331.69	51.10	-51.8	-53.3	14.1	0.00e+00	0	26	0	1548746752	68	4634
2026-01-13 09:45:08.06	331.73	50.76	-51.6	-53.1	14.1	0.00e+00	0	26	0	1551892480	68	4522
2026-01-13 09:45:09.05	331.77	50.42	-51.6	-53.0	14.2	0.00e+00	0	26	0	1555038208	68	4477
2026-01-13 09:45:10.05	331.81	50.09	-51.3	-52.8	14.3	0.00e+00	0	26	0	1558183936	68	4341
2026-01-13 09:45:11.04	331.85	49.76	-51.1	-52.5	14.4	0.00e+00	0	26	0	1561329664	68	4211
2026-01-13 09:45:12.03	331.89	49.43	-51.2	-52.6	14.4	0.00e+00	0	26	0	1564475392	68	4270
2026-01-13 09:45:13.02	331.93	49.10	-51.5	-52.9	14.3	0.00e+00	0	26	0	1567621120	68	4418
2026-01-13 09:45:14.02	331.96	48.77	-51.4	-52.8	14.3	0.00e+00	0	26	0	1570766848	68	4381
2026-01-13 09:45:15.01	332.00	48.45	-51.3	-52.7	14.3	0.00e+00	0	26	0	1573912576	68	4330
2026-01-13 09:45:16.01	332.04	48.13	-51.4	-52.8	14.3	0.00e+00	0	26	0	1577058304	68	4389
2026-01-13 09:45:17.00	332.07	47.81	-51.5	-53.0	14.2	0.00e+00	0	26	0	1579155456	68	4452
2026-01-13 09:45:17.99	332.10	47.50	-51.8	-53.3	14.0	0.00e+00	0	26	0	1582301184	68	4618
2026-01-13 09:45:18.98	332.14	47.18	-51.9	-53.5	14.1	0.00e+00	0	26	0	1585446912	69	4459
2026-01-13 09:45:19.97	332.17	46.87	-51.9	-53.4	14.1	0.00e+00	0	26	0	1588592640	69	4413
2026-01-13 09:45:20.97	332.20	46.56	-52.0	-53.5	14.0	0.00e+00	0	26	0	1591738368	69	4479
2026-01-13 09:45:21.96	332.24	46.26	-52.1	-53.7	13.9	0.00e+00	0	26	0	1594884096	69	4580
2026-01-13 09:45:22.95	332.27	45.95	-52.2	-53.8	13.8	0.00e+00	0	26	0	1598029824	69	4605
2026-01-13 09:45:23.94	332.30	45.65	-52.2	-53.7	13.9	0.00e+00	0	26	0	1601175552	69	4595
2026-01-13 09:45:24.94	332.33	45.35	-52.6	-54.3	13.8	0.00e+00	0	26	0	1604321280	70	4599
2026-01-13 09:45:25.93	332.36	45.05	-52.7	-54.4	13.7	0.00e+00	0	26	0	1607467008	70	4702
2026-01-13 09:45:26.93	332.39	44.76	-52.8	-54.6	13.7	0.00e+00	0	26	0	1610612736	70	4783
2026-01-13 09:45:27.92	332.42	44.47	-53.0	-54.9	13.6	0.00e+00	0	26	0	1613758464	71	4659
2026-01-13 09:45:28.91	332.45	44.18	-53.0	-54.9	13.7	0.00e+00	0	26	0	1616904192	71	4653
2026-01-13 09:45:29.92	332.48	43.88	-52.7	-54.4	13.9	0.00e+00	0	26	0	1620049920	71	4410
2026-01-13 09:45:30.91	332.50	43.60	-52.6	-54.2	14.0	0.00e+00	0	26	0	1623195648	71	4329
2026-01-13 09:45:31.90	332.53	43.31	-52.5	-54.2	14.0	0.00e+00	0	26	0	1626341376	71	4298
2026-01-13 09:45:32.90	332.56	43.03	-51.8	-53.4	14.3	0.00e+00	0	26	0	1629487104	70	4147
2026-01-13 09:45:33.90	332.58	42.75	-51.8	-53.3	14.3	0.00e+00	0	26	0	1632632832	70	4105
2026-01-13 09:45:34.90	332.61	42.47	-51.9	-53.4	14.3	0.00e+00	0	26	0	1635778560	70	4159
2026-01-13 09:45:35.89	332.64	42.19	-51.9	-53.4	14.2	0.00e+00	0	26	0	1638924288	70	4159
2026-01-13 09:45:36.89	332.66	41.91	-51.8	-53.3	14.2	0.00e+00	0	26	0	1642070016	70	4141
2026-01-13 09:45:37.89	332.69	41.64	-51.9	-53.4	14.2	0.00e+00	0	26	0	1645215744	70	4151
2026-01-13 09:45:38.88	332.71	41.37	-52.0	-53.5	14.2	0.00e+00	0	26	0	1648361472	70	4233
2026-01-13 09:45:39.87	332.74	41.10	-51.9	-53.4	14.2	0.00e+00	0	26	0	1651507200	70	4167
2026-01-13 09:45:40.87	332.76	40.84	-52.1	-53.6	14.1	0.00e+00	0	26	0	1654652928	70	4291
2026-01-13 09:45:41.86	332.78	40.57	-52.1	-53.7	14.1	0.00e+00	0	26	0	1657798656	70	4308
2026-01-13 09:45:42.86	332.81	40.31	-52.0	-53.6	14.1	0.00e+00	0	26	0	1660944384	70	4262
2026-01-13 09:45:43.85	332.83	40.05	-52.0	-53.5	14.2	0.00e+00	0	26	0	1663041536	70	4242
2026-01-13 09:45:44.86	332.85	39.79	-51.9	-53.4	14.3	0.00e+00	0	26	0	1667235840	70	4154
2026-01-13 09:45:45.85	332.88	39.53	-52.0	-53.6	14.2	0.00e+00	0	26	0	1669332992	70	4247
2026-01-13 09:45:46.84	332.90	39.28	-52.0	-53.5	14.2	0.00e+00	0	26	0	1672478720	70	4238
2026-01-13 09:45:47.83	332.92	39.02	-51.7	-53.2	14.4	0.00e+00	0	26	0	1675624448	70	4065
2026-01-13 09:45:48.82	332.94	38.77	-51.5	-53.0	14.3	0.00e+00	0	26	0	1678770176	69	4210
2026-01-13 09:45:49.82	332.96	38.52	-51.5	-52.9	14.4	0.00e+00	0	26	0	1681915904	69	4182
2026-01-13 09:45:50.81	332.98	38.28	-51.0	-52.4	14.5	0.00e+00	0	26	0	1685061632	68	4167
2026-01-13 09:45:51.81	333.00	38.03	-50.9	-52.2	14.6	0.00e+00	0	26	0	1688207360	68	4077
2026-01-13 09:45:52.80	333.03	37.79	-50.9	-52.2	14.5	0.00e+00	0	26	0	1691353088	68	4076
2026-01-13 09:45:53.79	333.05	37.55	-50.9	-52.3	14.5	0.00e+00	0	26	0	1694498816	68	4118
2026-01-13 09:45:54.78	333.07	37.31	-50.4	-51.8	14.6	0.00e+00	0	26	0	1697644544	67	4102
2026-01-13 09:45:55.78	333.09	37.07	-50.3	-51.6	14.6	0.00e+00	0	26	0	1700790272	67	4036
2026-01-13 09:45:56.77	333.11	36.83	-50.4	-51.8	14.6	0.00e+00	0	26	0	1703936000	67	4106
2026-01-13 09:45:57.76	333.12	36.60	-50.5	-51.9	14.6	0.00e+00	0	26	0	1707081728	67	4146
2026-01-13 09:45:58.75	333.14	36.36	-50.6	-52.0	14.5	0.00e+00	0	26	0	1710227456	67	4212
2026-01-13 09:45:59.75	333.16	36.13	-50.7	-52.0	14.5	0.00e+00	0	26	0	1713373184	67	4241
2026-01-13 09:46:00.75	333.18	35.90	-50.8	-52.2	14.4	0.00e+00	0	26	0	1716518912	67	4310
2026-01-13 09:46:01.75	333.20	35.67	-50.9	-52.4	14.3	0.00e+00	0	26	0	1719664640	67	4395
2026-01-13 09:46:02.75	333.22	35.44	-51.0	-52.5	14.3	0.00e+00	0	26	0	1722810368	67	4446
2026-01-13 09:46:03.74	333.24	35.22	-51.0	-52.4	14.3	0.00e+00	0	26	0	1725956096	67	4434
2026-01-13 09:46:04.73	333.26	34.99	-51.1	-52.6	14.2	0.00e+00	0	26	0	1729101824	67	4522
2026-01-13 09:46:05.72	333.27	34.77	-51.2	-52.7	14.2	0.00e+00	0	26	0	1732247552	67	4573
2026-01-13 09:46:06.72	333.29	34.55	-51.2	-52.7	14.2	0.00e+00	0	26	0	1735393280	67	4585
2026-01-13 09:46:07.72	333.31	34.33	-51.3	-52.7	14.1	0.00e+00	0	26	0	1738539008	67	4597
2026-01-13 09:46:08.71	333.33	34.11	-51.2	-52.7	14.2	0.00e+00	0	26	0	1741684736	67	4578
2026-01-13 09:46:09.70	333.34	33.90	-51.1	-52.6	14.2	0.00e+00	0	26	0	1743781888	67	4505
2026-01-13 09:46:10.69	333.36	33.69	-51.0	-52.4	14.3	0.00e+00	0	26	0	1746927616	67	4432
2026-01-13 09:46:11.68	333.38	33.47	-50.7	-52.1	14.4	0.00e+00	0	26	0	1750073344	67	4267
2026-01-13 09:46:12.67	333.39	33.26	-50.6	-52.0	14.5	0.00e+00	0	26	0	1753219072	67	4195
2026-01-13 09:46:13.66	333.41	33.05	-50.3	-51.6	14.7	0.00e+00	0	26	0	1756364800	67	4035
2026-01-13 09:46:14.65	333.43	32.85	-50.3	-51.6	14.7	0.00e+00	0	26	0	1759510528	67	4038
2026-01-13 09:46:15.64	333.44	32.64	-50.1	-51.4	14.6	0.00e+00	0	26	0	1762656256	66	4181
2026-01-13 09:46:16.63	333.46	32.43	-50.0	-51.3	14.7	0.00e+00	0	26	0	1765801984	66	4110
2026-01-13 09:46:17.63	333.47	32.23	-49.9	-51.1	14.7	0.00e+00	0	26	0	1768947712	66	4041
2026-01-13 09:46:18.62	333.49	32.03	-49.8	-51.1	14.7	0.00e+00	0	26	0	1772093440	66	4035
2026-01-13 09:46:19.61	333.50	31.83	-49.9	-51.2	14.7	0.00e+00	0	26	0	1775239168	66	4058
2026-01-13 09:46:20.60	333.52	31.63	-49.9	-51.2	14.7	0.00e+00	0	26	0	1778384896	66	4064
2026-01-13 09:46:21.59	333.53	31.43	-49.8	-51.1	14.8	0.00e+00	0	26	0	1781530624	66	4029
2026-01-13 09:46:22.59	333.55	31.23	-49.9	-51.2	14.7	0.00e+00	0	26	0	1784676352	66	4070
2026-01-13 09:46:23.57	333.56	31.04	-49.9	-51.2	14.7	0.00e+00	0	26	0	1787822080	66	4061
2026-01-13 09:46:24.57	333.58	30.84	-50.0	-51.4	14.6	0.00e+00	0	26	0	1790967808	66	4151
2026-01-13 09:46:25.56	333.59	30.65	-50.0	-51.4	14.6	0.00e+00	0	26	0	1794113536	66	4151
2026-01-13 09:46:26.55	333.61	30.46	-50.0	-51.3	14.6	0.00e+00	0	26	0	1797259264	66	4142
2026-01-13 09:46:27.54	333.62	30.27	-50.0	-51.3	14.6	0.00e+00	0	26	0	1800404992	66	4144
2026-01-13 09:46:28.54	333.64	30.07	-50.0	-51.3	14.7	0.00e+00	0	26	0	1803550720	66	4124
2026-01-13 09:46:29.52	333.65	29.89	-50.0	-51.3	14.7	0.00e+00	0	26	0	1806696448	66	4125
2026-01-13 09:46:30.52	333.67	29.70	-49.9	-51.2	14.7	0.00e+00	0	26	0	1809842176	66	4063
2026-01-13 09:46:31.50	333.68	29.52	-49.9	-51.2	14.7	0.00e+00	0	26	0	1812987904	66	4061
2026-01-13 09:46:32.49	333.69	29.33	-49.9	-51.3	14.7	0.00e+00	0	26	0	1815085056	66	4107
2026-01-13 09:46:33.49	333.71	29.15	-49.9	-51.2	14.7	0.00e+00	0	26	0	1818230784	66	4053
2026-01-13 09:46:34.44	333.72	28.97	-50.0	-51.3	14.7	0.00e+00	0	26	0	1821376512	66	4126
2026-01-13 09:46:35.44	333.73	28.79	-50.0	-51.3	14.6	0.00e+00	0	26	0	1824522240	66	4122
2026-01-13 09:46:36.43	333.75	28.61	-50.0	-51.3	14.6	0.00e+00	0	26	0	1827667968	66	4136
2026-01-13 09:46:37.43	333.76	28.43	-50.0	-51.3	14.6	0.00e+00	0	26	0	1830813696	66	4141
2026-01-13 09:46:38.42	333.77	28.25	-50.0	-51.3	14.6	0.00e+00	0	26	0	1833959424	66	4127
2026-01-13 09:46:39.41	333.79	28.08	-49.9	-51.2	14.7	0.00e+00	0	26	0	1837105152	66	4082
2026-01-13 09:46:40.40	333.80	27.90	-49.7	-51.0	14.8	0.00e+00	0	26	0	1840250880	66	3981
2026-01-13 09:46:41.40	333.81	27.73	-49.6	-50.8	14.7	0.00e+00	0	26	0	1843396608	65	4127
2026-01-13 09:46:42.40	333.83	27.55	-49.4	-50.7	14.8	0.00e+00	0	26	0	1846542336	65	4066
2026-01-13 09:46:43.39	333.84	27.38	-49.4	-50.7	14.8	0.00e+00	0	26	0	1849688064	65	4069
2026-01-13 09:46:44.38	333.85	27.21	-49.3	-50.6	14.8	0.00e+00	0	26	0	1852833792	65	4009
2026-01-13 09:46:45.37	333.86	27.04	-49.3	-50.5	14.8	0.00e+00	0	26	0	1855979520	65	3989
2026-01-13 09:46:46.36	333.88	26.87	-49.0	-50.2	14.8	0.00e+00	0	26	0	1859125248	64	4064
2026-01-13 09:46:47.36	333.89	26.70	-48.9	-50.1	14.9	0.00e+00	0	26	0	1862270976	64	4017
2026-01-13 09:46:48.35	333.90	26.54	-48.8	-50.0	14.9	0.00e+00	0	26	0	1865416704	64	3987
2026-01-13 09:46:49.35	333.91	26.37	-48.8	-50.0	14.9	0.00e+00	0	26	0	1868562432	64	4002
2026-01-13 09:46:50.35	333.93	26.21	-48.9	-50.1	14.9	0.00e+00	0	26	0	1871708160	64	4020
2026-01-13 09:46:51.34	333.94	26.04	-48.8	-50.0	14.9	0.00e+00	0	26	0	1874853888	64	3961
2026-01-13 09:46:52.33	333.95	25.88	-48.8	-49.9	14.9	0.00e+00	0	26	0	1877999616	64	3955
2026-01-13 09:46:53.33	333.96	25.72	-48.8	-49.9	14.9	0.00e+00	0	26	0	1881145344	64	3950
2026-01-13 09:46:54.32	333.97	25.56	-48.7	-49.8	14.8	0.00e+00	0	26	0	1884291072	63	4144
2026-01-13 09:46:55.31	333.99	25.40	-48.6	-49.8	14.8	0.00e+00	0	26	0	1887436800	63	4129
2026-01-13 09:46:56.31	334.00	25.24	-48.7	-49.9	14.8	0.00e+00	0	26	0	1890582528	63	4179
2026-01-13 09:46:57.30	334.01	25.08	-48.7	-49.9	14.8	0.00e+00	0	26	0	1892679680	63	4179
2026-01-13 09:46:58.29	334.02	24.92	-48.7	-49.9	14.8	0.00e+00	0	26	0	1895825408	63	4176
2026-01-13 09:46:59.28	334.03	24.77	-48.9	-50.1	14.8	0.00e+00	0	26	0	1898971136	63	4244
2026-01-13 09:47:00.27	334.04	24.61	-48.8	-50.0	14.7	0.00e+00	0	26	0	1902116864	63	4233
2026-01-13 09:47:01.27	334.05	24.46	-48.8	-50.0	14.8	0.00e+00	0	26	0	1905262592	63	4224
2026-01-13 09:47:02.27	334.07	24.30	-48.9	-50.1	14.8	0.00e+00	0	26	0	1908408320	63	4252
2026-01-13 09:47:03.26	334.08	24.15	-48.8	-50.0	14.8	0.00e+00	0	26	0	1911554048	63	4226
2026-01-13 09:47:04.25	334.09	24.00	-48.8	-50.0	14.8	0.00e+00	0	26	0	1914699776	63	4201
2026-01-13 09:47:05.25	334.10	23.85	-48.8	-49.9	14.8	0.00e+00	0	26	0	1917845504	63	4185
2026-01-13 09:47:06.24	334.11	23.70	-48.8	-49.9	14.8	0.00e+00	0	26	0	1920991232	63	4179
2026-01-13 09:47:07.25	334.12	23.55	-48.7	-49.9	14.8	0.00e+00	0	26	0	1924136960	63	4157
2026-01-13 09:47:08.24	334.13	23.40	-48.8	-50.0	14.8	0.00e+00	0	26	0	1927282688	63	4205
2026-01-13 09:47:09.23	334.14	23.25	-48.8	-49.9	14.8	0.00e+00	0	26	0	1930428416	63	4185
2026-01-13 09:47:10.22	334.15	23.11	-48.6	-49.8	14.8	0.00e+00	0	26	0	1933574144	63	4115
2026-01-13 09:47:11.21	334.16	22.96	-48.6	-49.8	14.8	0.00e+00	0	26	0	1936719872	63	4128
2026-01-13 09:47:12.20	334.18	22.82	-48.7	-49.9	14.8	0.00e+00	0	26	0	1939865600	63	4181
2026-01-13 09:47:13.19	334.19	22.67	-48.8	-50.0	14.8	0.00e+00	0	26	0	1943011328	63	4210
2026-01-13 09:47:14.19	334.20	22.53	-49.0	-50.2	14.7	0.00e+00	0	26	0	1946157056	63	4298
2026-01-13 09:47:15.17	334.21	22.39	-48.9	-50.1	14.7	0.00e+00	0	26	0	1949302784	63	4259
2026-01-13 09:47:16.17	334.22	22.25	-49.0	-50.2	14.7	0.00e+00	0	26	0	1952448512	63	4299
2026-01-13 09:47:17.16	334.23	22.11	-49.0	-50.3	14.7	0.00e+00	0	26	0	1955594240	63	4343
2026-01-13 09:47:18.15	334.24	21.97	-49.2	-50.4	14.6	0.00e+00	0	26	0	1958739968	63	4412
2026-01-13 09:47:19.14	334.25	21.83	-49.1	-50.4	14.6	0.00e+00	0	26	0	1961885696	63	4412
2026-01-13 09:47:20.14	334.26	21.69	-49.1	-50.3	14.7	0.00e+00	0	26	0	1965031424	63	4358
2026-01-13 09:47:21.13	334.27	21.55	-49.1	-50.3	14.6	0.00e+00	0	26	0	1968177152	63	4390
2026-01-13 09:47:22.12	334.28	21.42	-49.1	-50.3	14.6	0.00e+00	0	26	0	1971322880	63	4373
2026-01-13 09:47:23.12	334.29	21.28	-49.1	-50.3	14.6	0.00e+00	0	26	0	1974468608	63	4362
2026-01-13 09:47:24.11	334.30	21.14	-49.2	-50.4	14.6	0.00e+00	0	26	0	1976565760	63	4419
2026-01-13 09:47:25.10	334.31	21.01	-49.2	-50.5	14.6	0.00e+00	0	26	0	1979711488	63	4452
2026-01-13 09:47:26.09	334.32	20.87	-49.1	-50.4	14.6	0.00e+00	0	26	0	1982857216	63	4395
2026-01-13 09:47:27.09	334.33	20.74	-49.2	-50.5	14.6	0.00e+00	0	26	0	1986002944	63	4445
2026-01-13 09:47:28.08	334.34	20.61	-49.2	-50.4	14.6	0.00e+00	0	26	0	1989148672	63	4437
2026-01-13 09:47:29.07	334.35	20.48	-49.2	-50.4	14.6	0.00e+00	0	26	0	1992294400	63	4423
2026-01-13 09:47:30.07	334.36	20.34	-49.2	-50.4	14.6	0.00e+00	0	26	0	1995440128	63	4429
2026-01-13 09:47:31.06	334.37	20.21	-49.2	-50.5	14.6	0.00e+00	0	26	0	1998585856	63	4446
2026-01-13 09:47:32.05	334.38	20.08	-49.2	-50.5	14.6	0.00e+00	0	26	0	2001731584	63	4457
2026-01-13 09:47:33.05	334.39	19.95	-49.3	-50.5	14.6	0.00e+00	0	26	0	2004877312	63	4487
2026-01-13 09:47:34.03	334.39	19.83	-49.2	-50.4	14.6	0.00e+00	0	26	0	2008023040	63	4423
2026-01-13 09:47:35.02	334.40	19.70	-49.2	-50.4	14.6	0.00e+00	0	26	0	2011168768	63	4439
2026-01-13 09:47:36.01	334.41	19.57	-49.3	-50.6	14.6	0.00e+00	0	26	0	2014314496	63	4501
2026-01-13 09:47:37.00	334.42	19.45	-49.1	-50.4	14.6	0.00e+00	0	26	0	2017460224	63	4413
2026-01-13 09:47:38.00	334.43	19.32	-49.2	-50.4	14.6	0.00e+00	0	26	0	2020605952	63	4422
2026-01-13 09:47:38.99	334.44	19.20	-49.2	-50.4	14.6	0.00e+00	0	26	0	2023751680	63	4429
2026-01-13 09:47:39.99	334.45	19.07	-49.1	-50.4	14.6	0.00e+00	0	26	0	2026897408	63	4392
2026-01-13 09:47:40.98	334.46	18.95	-49.2	-50.4	14.6	0.00e+00	0	26	0	2030043136	63	4427
2026-01-13 09:47:41.98	334.47	18.82	-49.1	-50.4	14.6	0.00e+00	0	26	0	2033188864	63	4409
2026-01-13 09:47:42.97	334.48	18.70	-49.2	-50.5	14.6	0.00e+00	0	26	0	2036334592	63	4447
2026-01-13 09:47:43.96	334.49	18.58	-49.3	-50.5	14.6	0.00e+00	0	26	0	2039480320	63	4481
2026-01-13 09:47:44.95	334.50	18.46	-49.3	-50.5	14.5	0.00e+00	0	26	0	2042626048	63	4490
