passes_logs/2026/01/13/R3.2S_Murmansk/R3.2S_Murmansk__20260113_050822_SUOMI_NPP_rec.log

#Pass ID: 20260113_050822_SUOMI NPP
#Satellite: SUOMI NPP
#Configuration: NPP
#almurnet v.1.7.20251203
#Start time: 2026-01-13 05:08:21

#Version: 2.2.20231116
#Station: R3.2S_Murmansk
#Location: 33.079688 lon 68.888172 lat
#TLE: 1 37849U 11061A   26012.28456845  .00000093  00000+0  65163-4 0  9999
#TLE: 2 37849  98.7807 314.3566 0002508  68.3553 291.7890 14.19524725736322

#Time	Az	El	Level	Level2	SNR	BER	BlckErr	Temp	State	Recorded	gain1	gain2
2026-01-13 05:08:21.70	60.75	1.98	-57.1	-73.0	3.8	1.49e+00	0	20	0	0	80	22419
2026-01-13 05:08:22.70	60.69	2.04	-57.0	-73.0	3.8	1.49e+00	0	20	104	0	79	23697
2026-01-13 05:08:23.70	60.62	2.10	-57.0	-73.0	3.8	1.49e+00	0	20	104	0	79	23665
2026-01-13 05:08:24.70	60.56	2.15	-57.0	-73.0	3.8	1.49e+00	0	20	104	0	79	23666
2026-01-13 05:08:25.69	60.50	2.21	-57.0	-73.0	3.8	1.49e+00	0	20	104	0	79	23630
2026-01-13 05:08:26.69	60.43	2.27	-57.0	-72.9	3.8	1.49e+00	0	20	104	0	79	23581
2026-01-13 05:08:27.69	60.37	2.32	-57.0	-73.0	3.8	1.49e+00	0	20	104	0	79	23613
2026-01-13 05:08:28.68	60.30	2.38	-57.0	-72.9	3.8	1.49e+00	0	20	104	0	79	23540
2026-01-13 05:08:29.68	60.24	2.44	-57.0	-72.9	3.8	1.49e+00	0	20	104	0	79	23556
2026-01-13 05:08:30.67	60.17	2.49	-57.0	-73.0	3.8	1.49e+00	0	20	104	0	79	23610
2026-01-13 05:08:31.66	60.11	2.55	-57.0	-73.0	3.8	1.49e+00	0	20	104	0	79	23593
2026-01-13 05:08:32.66	60.04	2.61	-57.0	-72.9	3.8	1.49e+00	0	20	104	0	79	23561
2026-01-13 05:08:33.66	59.97	2.67	-57.0	-73.0	3.8	1.49e+00	0	20	104	0	79	23626
2026-01-13 05:08:34.66	59.91	2.72	-57.0	-73.0	3.8	1.49e+00	0	20	104	0	79	23640
2026-01-13 05:08:35.65	59.84	2.78	-57.0	-73.0	3.8	1.49e+00	0	20	104	0	79	23644
2026-01-13 05:08:36.64	59.77	2.84	-57.0	-73.0	3.8	1.49e+00	0	20	104	0	79	23717
2026-01-13 05:08:37.64	59.70	2.89	-57.0	-73.0	3.8	1.49e+00	0	20	104	0	79	23755
2026-01-13 05:08:38.64	59.64	2.95	-57.0	-73.0	3.8	1.49e+00	0	20	104	0	79	23774
2026-01-13 05:08:39.64	59.57	3.01	-57.0	-73.0	3.8	1.49e+00	0	20	104	0	79	23700
2026-01-13 05:08:40.63	59.50	3.07	-57.0	-73.0	3.8	1.49e+00	0	20	104	0	79	23706
2026-01-13 05:08:41.63	59.43	3.13	-57.0	-73.0	3.8	1.49e+00	0	20	104	0	79	23695
2026-01-13 05:08:42.63	59.36	3.18	-57.0	-73.0	3.8	1.49e+00	0	21	104	0	79	23627
2026-01-13 05:08:43.63	59.29	3.24	-57.0	-72.9	3.8	1.49e+00	0	21	104	0	79	23560
2026-01-13 05:08:44.63	59.22	3.30	-57.0	-72.9	3.8	1.49e+00	0	21	104	0	79	23554
2026-01-13 05:08:45.62	59.15	3.36	-57.0	-73.0	3.8	1.49e+00	0	21	104	0	79	23652
2026-01-13 05:08:46.62	59.08	3.42	-57.0	-73.0	3.8	1.49e+00	0	21	104	0	79	23639
2026-01-13 05:08:47.62	59.01	3.48	-57.0	-73.0	3.8	1.49e+00	0	21	104	0	79	23642
2026-01-13 05:08:48.62	58.94	3.53	-57.0	-73.0	3.8	1.49e+00	0	21	104	0	79	23702
2026-01-13 05:08:49.63	58.87	3.59	-57.0	-73.0	3.8	1.49e+00	0	21	104	0	79	23644
2026-01-13 05:08:50.62	58.80	3.65	-57.0	-72.9	3.8	1.49e+00	0	21	104	0	79	23502
2026-01-13 05:08:51.63	58.73	3.71	-57.0	-72.9	3.8	1.49e+00	0	21	104	0	79	23409
2026-01-13 05:08:52.63	58.65	3.77	-57.0	-72.9	3.8	1.49e+00	0	21	104	0	79	23387
2026-01-13 05:08:53.64	58.58	3.83	-57.0	-72.9	3.8	1.49e+00	0	21	104	0	79	23406
2026-01-13 05:08:54.64	58.51	3.89	-57.0	-72.9	3.8	1.49e+00	0	21	104	0	79	23504
2026-01-13 05:08:55.65	58.43	3.95	-57.0	-73.0	3.8	1.49e+00	0	21	104	0	79	23699
2026-01-13 05:08:56.65	58.36	4.01	-57.0	-73.0	3.8	1.49e+00	0	21	104	0	79	23670
2026-01-13 05:08:57.65	58.29	4.07	-57.0	-72.9	3.8	1.49e+00	0	21	104	0	79	23460
2026-01-13 05:08:58.65	58.21	4.13	-57.0	-72.6	3.8	1.49e+00	0	21	104	0	79	22564
2026-01-13 05:08:59.65	58.14	4.19	-57.0	-72.2	3.8	1.49e+00	0	21	104	0	79	21587
2026-01-13 05:09:00.66	58.06	4.25	-57.0	-71.7	3.8	1.49e+00	0	21	104	0	79	20524
2026-01-13 05:09:01.66	57.99	4.31	-56.9	-70.6	3.8	1.49e+00	0	21	104	0	79	18084
2026-01-13 05:09:02.66	57.91	4.37	-56.9	-69.8	4.1	1.45e+00	0	21	0	0	79	16489
2026-01-13 05:09:03.66	57.84	4.43	-56.9	-69.4	4.2	1.43e+00	0	21	0	0	79	15665
2026-01-13 05:09:04.67	57.76	4.49	-56.8	-68.2	4.6	1.33e+00	0	21	0	1048576	79	13600
2026-01-13 05:09:05.67	57.68	4.55	-56.7	-67.7	4.9	7.32e-01	0	21	0	2097152	79	12823
2026-01-13 05:09:06.66	57.61	4.61	-56.7	-67.5	4.9	7.36e-01	0	21	0	4194304	79	12596
2026-01-13 05:09:07.66	57.53	4.67	-56.6	-66.3	5.6	5.69e-01	0	21	0	6291456	79	11029
2026-01-13 05:09:08.65	57.45	4.73	-56.5	-66.0	5.8	4.09e-01	0	21	0	8388608	79	10537
2026-01-13 05:09:09.65	57.38	4.79	-56.5	-66.1	5.8	3.45e-01	0	21	0	9437184	79	10703
2026-01-13 05:09:10.65	57.30	4.85	-56.5	-66.2	5.7	4.11e-01	0	21	0	11534336	79	10822
2026-01-13 05:09:11.65	57.22	4.91	-56.6	-66.5	5.5	4.39e-01	0	21	0	13631488	79	11259
2026-01-13 05:09:12.66	57.14	4.97	-56.6	-66.2	5.6	3.83e-01	0	21	0	15728640	79	10870
2026-01-13 05:09:13.65	57.06	5.03	-56.6	-66.4	5.6	4.11e-01	0	21	0	17825792	79	11040
2026-01-13 05:09:14.64	56.98	5.09	-56.2	-63.7	7.6	4.77e-01	0	21	0	18874368	79	8171
2026-01-13 05:09:15.64	56.90	5.15	-56.5	-65.1	6.5	1.08e-01	0	21	0	20971520	78	10160
2026-01-13 05:09:16.64	56.82	5.21	-56.8	-68.1	4.8	2.98e-01	0	21	0	23068672	78	14229
2026-01-13 05:09:17.65	56.74	5.28	-55.8	-62.1	8.9	1.30e+00	0	21	0	24117248	78	7138
2026-01-13 05:09:18.64	56.66	5.34	-56.8	-67.6	5.0	3.65e-04	0	21	0	26214400	78	13555
2026-01-13 05:09:19.64	56.58	5.40	-56.2	-63.3	7.9	1.40e+00	0	21	104	26214400	79	7749
2026-01-13 05:09:20.64	56.50	5.46	-55.1	-59.9	11.0	2.14e-04	0	21	0	27262976	76	6252
2026-01-13 05:09:21.63	56.42	5.52	-54.7	-59.1	11.8	1.72e-04	0	21	0	29360128	76	5676
2026-01-13 05:09:22.63	56.34	5.58	-54.4	-58.6	12.1	1.37e-05	0	21	0	31457280	75	5668
2026-01-13 05:09:23.63	56.26	5.64	-54.3	-58.2	12.4	1.52e-05	0	21	0	32505856	75	5437
2026-01-13 05:09:24.63	56.17	5.71	-54.1	-57.8	12.6	0.00e+00	0	21	0	34603008	74	5521
2026-01-13 05:09:25.62	56.09	5.77	-54.0	-57.8	12.7	1.50e-06	0	21	0	36700160	74	5497
2026-01-13 05:09:26.62	56.01	5.83	-53.8	-57.3	13.1	7.00e-07	0	21	0	38797312	74	5173
2026-01-13 05:09:27.63	55.92	5.89	-53.8	-57.3	13.0	7.00e-07	0	21	0	40894464	74	5217
2026-01-13 05:09:28.62	55.84	5.95	-53.9	-57.5	13.0	7.00e-07	0	21	0	41943040	74	5297
2026-01-13 05:09:29.61	55.75	6.01	-53.6	-57.0	13.2	7.00e-07	0	21	0	44040192	73	5336
2026-01-13 05:09:30.62	55.67	6.08	-53.4	-56.7	13.4	0.00e+00	0	21	0	46137344	73	5130
2026-01-13 05:09:31.61	55.58	6.14	-53.5	-56.8	13.4	7.00e-07	0	21	0	48234496	73	5183
2026-01-13 05:09:32.61	55.50	6.20	-53.4	-56.7	13.4	0.00e+00	0	21	0	49283072	73	5139
2026-01-13 05:09:33.61	55.41	6.26	-53.5	-56.9	13.3	0.00e+00	0	21	0	51380224	73	5248
2026-01-13 05:09:34.60	55.33	6.33	-53.5	-56.8	13.4	0.00e+00	0	21	0	53477376	73	5187
2026-01-13 05:09:35.60	55.24	6.39	-53.6	-57.0	13.2	0.00e+00	0	21	0	55574528	73	5314
2026-01-13 05:09:36.59	55.15	6.45	-53.6	-57.1	13.2	7.00e-07	0	21	0	57671680	73	5350
2026-01-13 05:09:37.59	55.06	6.51	-53.6	-57.0	13.1	0.00e+00	0	21	0	58720256	73	5324
2026-01-13 05:09:38.59	54.98	6.58	-53.7	-57.3	13.0	0.00e+00	0	21	0	60817408	73	5486
2026-01-13 05:09:39.59	54.89	6.64	-53.7	-57.3	13.0	7.00e-07	0	22	0	62914560	73	5472
2026-01-13 05:09:40.58	54.80	6.70	-53.7	-57.4	12.9	0.00e+00	0	21	0	65011712	73	5544
2026-01-13 05:09:41.58	54.71	6.77	-53.8	-57.5	12.9	0.00e+00	0	21	0	66060288	73	5614
2026-01-13 05:09:42.58	54.62	6.83	-53.7	-57.4	12.9	7.00e-07	0	22	0	68157440	73	5584
2026-01-13 05:09:43.58	54.53	6.89	-53.6	-57.2	13.0	0.00e+00	0	21	0	70254592	73	5464
2026-01-13 05:09:44.57	54.44	6.96	-53.5	-57.0	13.2	0.00e+00	0	21	0	72351744	73	5319
2026-01-13 05:09:45.57	54.35	7.02	-53.7	-57.4	12.9	0.00e+00	0	21	0	74448896	73	5561
2026-01-13 05:09:46.57	54.26	7.08	-53.6	-57.1	13.2	0.00e+00	0	21	0	75497472	73	5364
2026-01-13 05:09:47.57	54.17	7.15	-53.6	-57.1	13.1	0.00e+00	0	21	0	77594624	73	5402
2026-01-13 05:09:48.57	54.07	7.21	-53.5	-57.0	13.2	0.00e+00	0	21	0	79691776	73	5332
2026-01-13 05:09:49.57	53.98	7.27	-53.5	-57.0	13.2	0.00e+00	0	21	0	81788928	73	5337
2026-01-13 05:09:50.56	53.89	7.34	-53.5	-57.0	13.3	0.00e+00	0	21	0	83886080	73	5286
2026-01-13 05:09:51.56	53.80	7.40	-53.5	-56.9	13.3	0.00e+00	0	21	0	84934656	73	5276
2026-01-13 05:09:52.56	53.70	7.47	-53.4	-56.8	13.5	0.00e+00	0	21	0	87031808	73	5164
2026-01-13 05:09:53.55	53.61	7.53	-53.3	-56.6	13.6	0.00e+00	0	21	0	89128960	73	5075
2026-01-13 05:09:54.54	53.51	7.59	-53.3	-56.6	13.6	0.00e+00	0	21	0	91226112	73	5085
2026-01-13 05:09:55.54	53.42	7.66	-53.2	-56.4	13.7	0.00e+00	0	22	0	92274688	73	4953
2026-01-13 05:09:56.54	53.32	7.72	-53.0	-56.2	13.7	0.00e+00	0	22	0	94371840	72	5104
2026-01-13 05:09:57.55	53.23	7.79	-53.1	-56.3	13.7	0.00e+00	0	21	0	96468992	72	5166
2026-01-13 05:09:58.55	53.13	7.85	-53.0	-56.1	13.8	0.00e+00	0	21	0	98566144	72	5089
2026-01-13 05:09:59.55	53.03	7.92	-53.2	-56.4	13.7	0.00e+00	0	22	0	100663296	72	5243
2026-01-13 05:10:00.54	52.94	7.98	-53.0	-56.1	13.8	0.00e+00	0	22	0	101711872	72	5093
2026-01-13 05:10:01.54	52.84	8.05	-52.9	-55.9	14.0	0.00e+00	0	22	0	103809024	72	4951
2026-01-13 05:10:02.54	52.74	8.11	-52.9	-55.9	13.9	0.00e+00	0	22	0	105906176	72	4974
2026-01-13 05:10:03.54	52.64	8.18	-52.8	-55.8	14.1	0.00e+00	0	22	0	108003328	72	4884
2026-01-13 05:10:04.54	52.54	8.24	-53.0	-56.0	13.9	0.00e+00	0	21	0	110100480	72	5031
2026-01-13 05:10:05.54	52.44	8.31	-52.7	-55.6	14.2	0.00e+00	0	22	0	111149056	72	4785
2026-01-13 05:10:06.54	52.34	8.37	-52.9	-55.9	14.0	0.00e+00	0	22	0	113246208	72	4929
2026-01-13 05:10:07.54	52.24	8.44	-52.9	-55.9	14.1	0.00e+00	0	22	0	115343360	72	4942
2026-01-13 05:10:08.54	52.14	8.50	-52.8	-55.7	14.1	0.00e+00	0	22	0	117440512	72	4835
2026-01-13 05:10:09.54	52.04	8.57	-52.8	-55.7	14.2	0.00e+00	0	21	0	118489088	72	4817
2026-01-13 05:10:10.53	51.94	8.64	-52.8	-55.7	14.1	0.00e+00	0	22	0	120586240	72	4848
2026-01-13 05:10:11.53	51.84	8.70	-52.8	-55.6	14.2	0.00e+00	0	21	0	122683392	72	4814
2026-01-13 05:10:12.53	51.73	8.77	-52.8	-55.7	14.1	0.00e+00	0	22	0	124780544	72	4841
2026-01-13 05:10:13.53	51.63	8.83	-52.9	-55.8	14.1	0.00e+00	0	22	0	126877696	72	4897
2026-01-13 05:10:14.52	51.53	8.90	-53.0	-56.0	13.9	0.00e+00	0	22	0	127926272	72	4998
2026-01-13 05:10:15.52	51.42	8.97	-53.0	-55.9	14.0	0.00e+00	0	22	0	130023424	72	4980
2026-01-13 05:10:16.52	51.32	9.03	-52.9	-55.8	14.0	0.00e+00	0	22	0	132120576	72	4922
2026-01-13 05:10:17.52	51.21	9.10	-52.9	-55.8	14.0	0.00e+00	0	22	0	134217728	72	4923
2026-01-13 05:10:18.53	51.10	9.16	-53.0	-55.9	14.0	0.00e+00	0	21	0	136314880	72	4962
2026-01-13 05:10:19.53	51.00	9.23	-52.9	-55.8	14.1	0.00e+00	0	22	0	137363456	72	4904
2026-01-13 05:10:20.54	50.89	9.30	-53.0	-55.8	14.0	0.00e+00	0	22	0	139460608	72	4923
2026-01-13 05:10:21.53	50.78	9.36	-53.2	-56.2	13.8	0.00e+00	0	22	0	141557760	72	5148
2026-01-13 05:10:22.53	50.68	9.43	-53.1	-56.1	13.9	0.00e+00	0	22	0	143654912	72	5044
2026-01-13 05:10:23.53	50.57	9.50	-53.1	-56.1	14.0	0.00e+00	0	21	0	144703488	72	5075
2026-01-13 05:10:24.54	50.46	9.57	-53.1	-56.0	13.9	0.00e+00	0	22	0	146800640	72	5012
2026-01-13 05:10:25.54	50.35	9.63	-53.0	-55.9	14.0	0.00e+00	0	22	0	148897792	72	4929
2026-01-13 05:10:26.53	50.24	9.70	-53.1	-56.0	13.9	0.00e+00	0	22	0	150994944	72	5034
2026-01-13 05:10:27.53	50.13	9.77	-53.1	-56.1	13.8	0.00e+00	0	22	0	153092096	72	5071
2026-01-13 05:10:28.53	50.02	9.83	-53.2	-56.1	13.8	0.00e+00	0	22	0	154140672	72	5099
2026-01-13 05:10:29.53	49.91	9.90	-53.1	-56.1	13.9	0.00e+00	0	22	0	156237824	72	5055
2026-01-13 05:10:30.53	49.79	9.97	-53.1	-56.1	13.9	0.00e+00	0	22	0	158334976	72	5050
2026-01-13 05:10:31.53	49.68	10.04	-53.3	-56.4	13.8	0.00e+00	0	22	0	160432128	72	5246
2026-01-13 05:10:32.52	49.57	10.10	-53.2	-56.1	13.8	0.00e+00	0	22	0	162529280	72	5087
2026-01-13 05:10:33.52	49.45	10.17	-53.2	-56.2	13.8	0.00e+00	0	22	0	163577856	72	5158
2026-01-13 05:10:34.52	49.34	10.24	-53.1	-56.1	13.9	0.00e+00	0	22	0	165675008	72	5067
2026-01-13 05:10:35.51	49.23	10.30	-53.1	-56.1	13.9	0.00e+00	0	22	0	167772160	72	5057
2026-01-13 05:10:36.51	49.11	10.37	-53.1	-56.0	13.9	0.00e+00	0	22	0	169869312	72	5031
2026-01-13 05:10:37.51	49.00	10.44	-53.1	-56.1	13.9	0.00e+00	0	22	0	171966464	72	5053
2026-01-13 05:10:38.50	48.88	10.51	-53.0	-55.8	14.1	0.00e+00	0	22	0	173015040	72	4904
2026-01-13 05:10:39.50	48.76	10.58	-53.0	-55.9	14.0	0.00e+00	0	22	0	175112192	72	4950
2026-01-13 05:10:40.50	48.65	10.64	-53.0	-55.9	14.0	0.00e+00	0	22	0	177209344	72	4962
2026-01-13 05:10:41.49	48.53	10.71	-52.9	-55.8	14.1	0.00e+00	0	22	0	179306496	72	4888
2026-01-13 05:10:42.49	48.41	10.78	-53.0	-55.9	14.0	0.00e+00	0	22	0	180355072	72	4928
2026-01-13 05:10:43.49	48.29	10.85	-53.0	-55.8	14.1	0.00e+00	0	22	0	182452224	72	4919
2026-01-13 05:10:44.49	48.17	10.92	-52.9	-55.7	14.2	0.00e+00	0	22	0	184549376	72	4826
2026-01-13 05:10:45.48	48.05	10.98	-52.9	-55.8	14.1	0.00e+00	0	22	0	186646528	72	4897
2026-01-13 05:10:46.48	47.93	11.05	-52.9	-55.7	14.2	0.00e+00	0	22	0	188743680	72	4815
2026-01-13 05:10:47.48	47.81	11.12	-52.8	-55.5	14.3	0.00e+00	0	22	0	189792256	72	4753
2026-01-13 05:10:48.48	47.69	11.19	-52.9	-55.6	14.2	0.00e+00	0	22	0	191889408	72	4788
2026-01-13 05:10:49.48	47.56	11.26	-52.8	-55.5	14.3	0.00e+00	0	22	0	193986560	72	4733
2026-01-13 05:10:50.47	47.44	11.33	-52.8	-55.6	14.3	0.00e+00	0	22	0	196083712	72	4760
2026-01-13 05:10:51.47	47.32	11.40	-52.7	-55.4	14.4	0.00e+00	0	22	0	197132288	72	4654
2026-01-13 05:10:52.47	47.19	11.46	-52.7	-55.4	14.4	0.00e+00	0	22	0	199229440	72	4661
2026-01-13 05:10:53.47	47.07	11.53	-52.6	-55.3	14.3	0.00e+00	0	22	0	201326592	71	4923
2026-01-13 05:10:54.47	46.94	11.60	-52.7	-55.4	14.3	0.00e+00	0	22	0	203423744	71	4949
2026-01-13 05:10:55.48	46.82	11.67	-52.6	-55.2	14.4	0.00e+00	0	22	0	205520896	71	4837
2026-01-13 05:10:56.48	46.69	11.74	-52.6	-55.2	14.4	0.00e+00	0	22	0	206569472	71	4844
2026-01-13 05:10:57.48	46.56	11.81	-52.4	-54.9	14.5	0.00e+00	0	22	0	208666624	71	4705
2026-01-13 05:10:58.48	46.43	11.88	-52.5	-55.1	14.5	0.00e+00	0	22	0	210763776	71	4773
2026-01-13 05:10:59.49	46.30	11.95	-52.4	-55.0	14.6	0.00e+00	0	22	0	212860928	71	4718
2026-01-13 05:11:00.48	46.17	12.02	-52.4	-55.0	14.5	0.00e+00	0	22	0	214958080	71	4746
2026-01-13 05:11:01.48	46.04	12.09	-52.5	-55.1	14.4	0.00e+00	0	22	0	216006656	71	4794
2026-01-13 05:11:02.48	45.91	12.16	-52.4	-55.0	14.5	0.00e+00	0	22	0	218103808	71	4726
2026-01-13 05:11:03.48	45.78	12.23	-52.3	-54.8	14.7	0.00e+00	0	22	0	220200960	71	4599
2026-01-13 05:11:04.47	45.65	12.30	-52.3	-54.8	14.6	0.00e+00	0	22	0	222298112	71	4629
2026-01-13 05:11:05.47	45.52	12.36	-52.1	-54.5	14.7	0.00e+00	0	22	0	223346688	70	4723
2026-01-13 05:11:06.47	45.39	12.43	-52.2	-54.6	14.6	0.00e+00	0	22	0	225443840	70	4791
2026-01-13 05:11:07.45	45.26	12.50	-52.3	-54.8	14.5	0.00e+00	0	22	0	227540992	70	4903
2026-01-13 05:11:08.45	45.12	12.57	-52.3	-54.8	14.5	0.00e+00	0	22	0	229638144	70	4899
2026-01-13 05:11:09.45	44.99	12.64	-52.2	-54.7	14.5	0.00e+00	0	22	0	231735296	70	4867
2026-01-13 05:11:10.45	44.85	12.71	-52.2	-54.6	14.6	0.00e+00	0	22	0	232783872	70	4794
2026-01-13 05:11:11.44	44.71	12.78	-52.2	-54.7	14.5	0.00e+00	0	22	0	234881024	70	4832
2026-01-13 05:11:12.44	44.58	12.85	-52.2	-54.6	14.6	0.00e+00	0	22	0	236978176	70	4797
2026-01-13 05:11:13.44	44.44	12.92	-52.1	-54.6	14.6	0.00e+00	0	22	0	239075328	70	4774
2026-01-13 05:11:14.44	44.30	12.99	-52.2	-54.7	14.5	0.00e+00	0	22	0	240123904	70	4865
2026-01-13 05:11:15.44	44.16	13.06	-52.2	-54.7	14.5	0.00e+00	0	22	0	242221056	70	4857
2026-01-13 05:11:16.44	44.02	13.13	-52.3	-54.9	14.4	0.00e+00	0	22	0	244318208	70	4953
2026-01-13 05:11:17.44	43.88	13.20	-52.2	-54.8	14.5	0.00e+00	0	22	0	246415360	70	4882
2026-01-13 05:11:18.44	43.74	13.27	-52.2	-54.8	14.5	0.00e+00	0	22	0	248512512	70	4906
2026-01-13 05:11:19.44	43.60	13.34	-52.2	-54.7	14.5	0.00e+00	0	22	0	249561088	70	4869
2026-01-13 05:11:20.44	43.46	13.41	-52.2	-54.8	14.5	0.00e+00	0	22	0	251658240	70	4896
2026-01-13 05:11:21.44	43.31	13.48	-52.2	-54.8	14.5	0.00e+00	0	22	0	253755392	70	4881
2026-01-13 05:11:22.44	43.17	13.55	-52.3	-55.0	14.4	0.00e+00	0	22	0	255852544	70	4995
2026-01-13 05:11:23.44	43.02	13.62	-52.3	-54.9	14.4	0.00e+00	0	22	0	257949696	70	4977
2026-01-13 05:11:24.44	42.88	13.69	-52.3	-55.1	14.4	0.00e+00	0	22	0	258998272	70	5045
2026-01-13 05:11:25.44	42.73	13.76	-52.3	-55.1	14.3	0.00e+00	0	22	0	261095424	70	5053
2026-01-13 05:11:26.43	42.59	13.83	-52.3	-55.1	14.3	0.00e+00	0	22	0	263192576	70	5076
2026-01-13 05:11:27.43	42.44	13.90	-52.3	-55.0	14.4	0.00e+00	0	22	0	265289728	70	5018
2026-01-13 05:11:28.42	42.29	13.97	-52.3	-55.1	14.3	0.00e+00	0	22	0	267386880	70	5053
2026-01-13 05:11:29.42	42.15	14.04	-52.4	-55.2	14.3	0.00e+00	0	22	0	268435456	70	5132
2026-01-13 05:11:30.42	42.00	14.11	-52.4	-55.2	14.2	0.00e+00	0	22	0	270532608	70	5132
2026-01-13 05:11:31.42	41.85	14.18	-52.4	-55.2	14.3	0.00e+00	0	22	0	272629760	70	5123
2026-01-13 05:11:32.42	41.69	14.25	-52.3	-55.0	14.4	0.00e+00	0	22	0	274726912	70	4993
2026-01-13 05:11:33.41	41.54	14.32	-52.3	-55.0	14.4	0.00e+00	0	22	0	275775488	70	5028
2026-01-13 05:11:34.39	41.39	14.39	-52.3	-55.0	14.4	0.00e+00	0	22	0	277872640	70	4994
2026-01-13 05:11:35.38	41.24	14.46	-52.3	-54.9	14.4	0.00e+00	0	22	0	279969792	70	4979
2026-01-13 05:11:36.38	41.09	14.53	-52.2	-54.7	14.6	0.00e+00	0	22	0	282066944	70	4865
2026-01-13 05:11:37.37	40.94	14.60	-52.2	-54.8	14.5	0.00e+00	0	22	0	284164096	70	4878
2026-01-13 05:11:38.37	40.78	14.67	-52.2	-54.8	14.5	0.00e+00	0	22	0	285212672	70	4881
2026-01-13 05:11:39.37	40.62	14.74	-52.3	-54.9	14.4	0.00e+00	0	22	0	287309824	70	4929
2026-01-13 05:11:40.37	40.47	14.81	-52.5	-55.1	14.3	0.00e+00	0	22	0	289406976	70	5079
2026-01-13 05:11:41.36	40.31	14.88	-52.6	-55.3	14.1	0.00e+00	0	22	0	291504128	70	5200
2026-01-13 05:11:42.35	40.15	14.95	-52.7	-55.5	14.0	0.00e+00	0	22	0	292552704	70	5293
2026-01-13 05:11:43.35	40.00	15.02	-52.7	-55.5	14.0	0.00e+00	0	22	0	294649856	70	5312
2026-01-13 05:11:44.35	39.84	15.09	-52.8	-55.8	13.8	0.00e+00	0	22	0	296747008	70	5471
2026-01-13 05:11:45.35	39.68	15.16	-52.8	-55.7	13.8	0.00e+00	0	22	0	298844160	70	5419
2026-01-13 05:11:46.35	39.51	15.23	-52.8	-55.7	13.9	0.00e+00	0	22	0	300941312	71	5146
2026-01-13 05:11:47.35	39.35	15.30	-52.7	-55.6	14.1	0.00e+00	0	22	0	301989888	71	5072
2026-01-13 05:11:48.35	39.19	15.37	-52.8	-55.7	14.0	0.00e+00	0	22	0	304087040	71	5101
2026-01-13 05:11:49.34	39.03	15.44	-52.7	-55.5	14.1	0.00e+00	0	22	0	306184192	71	5026
2026-01-13 05:11:50.34	38.86	15.51	-52.7	-55.5	14.2	0.00e+00	0	22	0	308281344	71	4994
2026-01-13 05:11:51.34	38.70	15.58	-52.6	-55.4	14.2	0.00e+00	0	22	0	309329920	71	4964
2026-01-13 05:11:52.34	38.53	15.65	-52.6	-55.4	14.2	0.00e+00	0	22	0	311427072	71	4970
2026-01-13 05:11:53.34	38.36	15.72	-52.5	-55.2	14.3	0.00e+00	0	22	0	313524224	71	4850
2026-01-13 05:11:54.34	38.20	15.79	-52.5	-55.2	14.3	0.00e+00	0	22	0	315621376	71	4826
2026-01-13 05:11:55.34	38.03	15.86	-52.6	-55.3	14.3	0.00e+00	0	22	0	317718528	71	4912
2026-01-13 05:11:56.34	37.86	15.93	-52.6	-55.3	14.3	0.00e+00	0	22	0	318767104	71	4908
2026-01-13 05:11:57.34	37.69	16.00	-52.6	-55.3	14.2	0.00e+00	0	22	0	320864256	71	4893
2026-01-13 05:11:58.34	37.52	16.07	-52.6	-55.4	14.2	0.00e+00	0	22	0	322961408	71	4961
2026-01-13 05:11:59.34	37.35	16.14	-52.5	-55.2	14.3	0.00e+00	0	22	0	325058560	71	4819
2026-01-13 05:12:00.34	37.17	16.20	-52.4	-55.0	14.5	0.00e+00	0	22	0	327155712	71	4715
2026-01-13 05:12:01.35	37.00	16.27	-52.3	-54.9	14.6	0.00e+00	0	22	0	328204288	71	4666
2026-01-13 05:12:02.35	36.82	16.34	-52.2	-54.8	14.6	0.00e+00	0	22	0	330301440	71	4603
2026-01-13 05:12:03.35	36.65	16.41	-52.3	-54.9	14.6	0.00e+00	0	22	0	332398592	71	4663
2026-01-13 05:12:04.34	36.47	16.48	-52.4	-55.1	14.4	0.00e+00	0	22	0	334495744	71	4777
2026-01-13 05:12:05.34	36.30	16.55	-52.4	-55.1	14.4	0.00e+00	0	22	0	336592896	71	4763
2026-01-13 05:12:06.33	36.12	16.62	-52.3	-54.9	14.6	0.00e+00	0	22	0	337641472	71	4674
2026-01-13 05:12:07.33	35.94	16.69	-52.4	-55.0	14.5	0.00e+00	0	22	0	339738624	71	4728
2026-01-13 05:12:08.32	35.77	16.76	-52.4	-54.9	14.5	0.00e+00	0	22	0	341835776	71	4693
2026-01-13 05:12:09.33	35.58	16.82	-52.6	-55.4	14.3	0.00e+00	0	22	0	343932928	71	4938
2026-01-13 05:12:10.33	35.40	16.89	-52.6	-55.3	14.3	0.00e+00	0	22	0	344981504	71	4922
2026-01-13 05:12:11.33	35.22	16.96	-52.8	-55.7	14.0	0.00e+00	0	22	0	347078656	71	5145
2026-01-13 05:12:12.32	35.04	17.03	-52.8	-55.8	14.0	0.00e+00	0	22	0	349175808	71	5161
2026-01-13 05:12:13.32	34.86	17.10	-52.8	-55.7	14.0	0.00e+00	0	22	0	351272960	71	5157
2026-01-13 05:12:14.32	34.67	17.17	-52.6	-55.4	14.2	0.00e+00	0	22	0	353370112	71	4952
2026-01-13 05:12:15.32	34.49	17.23	-52.5	-55.2	14.3	0.00e+00	0	22	0	354418688	71	4864
2026-01-13 05:12:16.31	34.31	17.30	-52.4	-55.1	14.5	0.00e+00	0	22	0	356515840	71	4764
2026-01-13 05:12:17.32	34.12	17.37	-52.3	-54.8	14.6	0.00e+00	0	22	0	358612992	71	4640
2026-01-13 05:12:18.32	33.93	17.44	-52.1	-54.6	14.8	0.00e+00	0	22	0	360710144	70	4760
2026-01-13 05:12:19.32	33.74	17.50	-52.0	-54.5	14.7	0.00e+00	0	22	0	362807296	70	4709
2026-01-13 05:12:20.32	33.55	17.57	-51.9	-54.2	14.9	0.00e+00	0	22	0	363855872	70	4554
2026-01-13 05:12:21.32	33.36	17.64	-52.0	-54.4	14.7	0.00e+00	0	22	0	365953024	70	4690
2026-01-13 05:12:22.33	33.17	17.71	-51.8	-54.1	14.9	0.00e+00	0	22	0	368050176	70	4529
2026-01-13 05:12:23.33	32.98	17.77	-51.8	-54.1	14.9	0.00e+00	0	22	0	370147328	70	4523
2026-01-13 05:12:24.33	32.79	17.84	-51.9	-54.3	14.8	0.00e+00	0	22	0	371195904	70	4643
2026-01-13 05:12:25.32	32.59	17.91	-51.8	-54.2	14.9	0.00e+00	0	22	0	373293056	70	4550
2026-01-13 05:12:26.32	32.40	17.97	-51.9	-54.5	14.7	0.00e+00	0	22	0	375390208	70	4718
2026-01-13 05:12:27.32	32.20	18.04	-51.8	-54.2	14.8	0.00e+00	0	22	0	377487360	70	4584
2026-01-13 05:12:28.32	32.01	18.10	-51.7	-54.1	14.9	0.00e+00	0	22	0	379584512	70	4529
2026-01-13 05:12:29.31	31.81	18.17	-51.4	-53.8	14.9	0.00e+00	0	22	0	380633088	69	4638
2026-01-13 05:12:30.31	31.62	18.24	-51.3	-53.5	15.0	0.00e+00	0	22	0	382730240	69	4491
2026-01-13 05:12:31.31	31.42	18.30	-51.1	-53.3	15.0	0.00e+00	0	22	0	384827392	68	4650
2026-01-13 05:12:32.31	31.22	18.37	-51.1	-53.3	15.0	0.00e+00	0	22	0	386924544	68	4647
2026-01-13 05:12:33.32	31.01	18.43	-51.2	-53.5	14.9	0.00e+00	0	22	0	389021696	68	4719
2026-01-13 05:12:34.31	30.82	18.50	-51.2	-53.5	14.9	0.00e+00	0	22	0	390070272	68	4723
2026-01-13 05:12:35.31	30.61	18.56	-51.1	-53.3	15.0	0.00e+00	0	22	0	392167424	68	4645
2026-01-13 05:12:36.30	30.41	18.63	-51.3	-53.5	14.9	0.00e+00	0	22	0	394264576	68	4743
2026-01-13 05:12:37.30	30.21	18.69	-51.2	-53.3	15.0	0.00e+00	0	22	0	396361728	68	4648
2026-01-13 05:12:38.29	30.01	18.75	-51.1	-53.4	15.0	0.00e+00	0	22	0	397410304	68	4657
2026-01-13 05:12:39.28	29.80	18.82	-51.2	-53.4	15.0	0.00e+00	0	22	0	399507456	68	4678
2026-01-13 05:12:40.27	29.60	18.88	-51.2	-53.4	15.0	0.00e+00	0	22	0	401604608	68	4690
2026-01-13 05:12:41.27	29.39	18.94	-51.1	-53.3	15.0	0.00e+00	0	22	0	403701760	68	4607
2026-01-13 05:12:42.26	29.18	19.01	-51.1	-53.2	15.0	0.00e+00	0	22	0	405798912	68	4594
2026-01-13 05:12:43.25	28.98	19.07	-51.0	-53.0	15.2	0.00e+00	0	22	0	406847488	68	4482
2026-01-13 05:12:44.24	28.77	19.13	-50.9	-53.0	15.2	0.00e+00	0	22	0	408944640	68	4445
2026-01-13 05:12:45.25	28.56	19.19	-50.9	-53.0	15.2	0.00e+00	0	22	0	411041792	68	4472
2026-01-13 05:12:46.24	28.35	19.25	-50.8	-52.8	15.3	0.00e+00	0	22	0	413138944	68	4390
2026-01-13 05:12:47.24	28.13	19.32	-50.5	-52.5	15.3	0.00e+00	0	22	0	414187520	67	4468
2026-01-13 05:12:48.24	27.92	19.38	-50.5	-52.5	15.2	0.00e+00	0	22	0	416284672	67	4481
2026-01-13 05:12:49.24	27.71	19.44	-50.5	-52.5	15.2	0.00e+00	0	22	0	418381824	67	4482
2026-01-13 05:12:50.24	27.49	19.50	-50.4	-52.4	15.3	0.00e+00	0	22	0	420478976	67	4414
2026-01-13 05:12:51.23	27.28	19.56	-50.6	-52.6	15.3	0.00e+00	0	22	0	422576128	67	4503
2026-01-13 05:12:52.23	27.06	19.62	-50.8	-53.0	15.0	0.00e+00	0	22	0	423624704	67	4707
2026-01-13 05:12:53.22	26.84	19.68	-51.0	-53.1	14.9	0.00e+00	0	22	0	425721856	67	4800
2026-01-13 05:12:54.22	26.63	19.74	-50.9	-53.1	14.9	0.00e+00	0	22	0	427819008	67	4789
2026-01-13 05:12:55.22	26.41	19.80	-50.7	-52.9	15.1	0.00e+00	0	22	0	429916160	67	4655
2026-01-13 05:12:56.22	26.19	19.86	-50.6	-52.7	15.1	0.00e+00	0	22	0	432013312	67	4567
2026-01-13 05:12:57.22	25.97	19.92	-50.5	-52.5	15.3	0.00e+00	0	22	0	433061888	67	4491
2026-01-13 05:12:58.21	25.75	19.98	-50.5	-52.5	15.3	0.00e+00	0	22	0	435159040	67	4448
2026-01-13 05:12:59.21	25.52	20.04	-50.6	-52.6	15.2	0.00e+00	0	22	0	437256192	67	4527
2026-01-13 05:13:00.21	25.30	20.10	-50.5	-52.5	15.3	0.00e+00	0	22	0	439353344	67	4476
2026-01-13 05:13:01.22	25.07	20.15	-50.5	-52.5	15.3	0.00e+00	0	22	0	440401920	67	4449
2026-01-13 05:13:02.22	24.85	20.21	-50.4	-52.3	15.4	0.00e+00	0	22	0	442499072	67	4361
2026-01-13 05:13:03.21	24.62	20.27	-50.4	-52.3	15.4	0.00e+00	0	22	0	444596224	67	4367
2026-01-13 05:13:04.21	24.39	20.33	-50.5	-52.5	15.4	0.00e+00	0	22	0	446693376	67	4449
2026-01-13 05:13:05.22	24.16	20.38	-50.6	-52.6	15.2	0.00e+00	0	22	0	448790528	67	4533
2026-01-13 05:13:06.22	23.94	20.44	-50.5	-52.4	15.4	0.00e+00	0	22	0	449839104	67	4423
2026-01-13 05:13:07.22	23.71	20.49	-50.3	-52.2	15.5	0.00e+00	0	22	0	451936256	67	4316
2026-01-13 05:13:08.22	23.47	20.55	-50.2	-52.1	15.6	0.00e+00	0	22	0	454033408	67	4248
2026-01-13 05:13:09.22	23.24	20.61	-49.9	-51.7	15.6	0.00e+00	0	22	0	456130560	66	4318
2026-01-13 05:13:10.22	23.01	20.66	-50.1	-51.9	15.4	0.00e+00	0	22	0	458227712	66	4441
2026-01-13 05:13:11.21	22.78	20.71	-50.2	-52.1	15.4	0.00e+00	0	22	0	459276288	66	4505
2026-01-13 05:13:12.20	22.55	20.77	-50.1	-51.9	15.4	0.00e+00	0	22	0	461373440	66	4412
2026-01-13 05:13:13.21	22.31	20.82	-50.1	-51.9	15.4	0.00e+00	0	22	0	463470592	66	4421
2026-01-13 05:13:14.21	22.08	20.87	-50.0	-51.8	15.5	0.00e+00	0	22	0	465567744	66	4357
2026-01-13 05:13:15.21	21.84	20.93	-49.9	-51.6	15.6	0.00e+00	0	22	0	467664896	66	4285
2026-01-13 05:13:16.21	21.60	20.98	-50.0	-51.7	15.6	0.00e+00	0	22	0	468713472	66	4322
2026-01-13 05:13:17.21	21.36	21.03	-50.1	-51.9	15.4	0.00e+00	0	22	0	470810624	66	4417
2026-01-13 05:13:18.22	21.12	21.08	-50.1	-51.9	15.4	0.00e+00	0	22	0	472907776	66	4440
2026-01-13 05:13:19.22	20.88	21.13	-50.2	-52.0	15.4	0.00e+00	0	22	0	475004928	66	4477
2026-01-13 05:13:20.22	20.64	21.19	-50.2	-52.0	15.4	0.00e+00	0	22	0	476053504	66	4457
2026-01-13 05:13:21.22	20.40	21.24	-50.1	-51.9	15.4	0.00e+00	0	22	0	478150656	66	4423
2026-01-13 05:13:22.22	20.16	21.28	-50.2	-52.0	15.4	0.00e+00	0	22	0	480247808	66	4458
2026-01-13 05:13:23.23	19.91	21.33	-50.3	-52.1	15.3	0.00e+00	0	22	0	482344960	66	4512
2026-01-13 05:13:24.23	19.67	21.38	-50.4	-52.2	15.2	0.00e+00	0	22	0	484442112	66	4594
2026-01-13 05:13:25.23	19.43	21.43	-50.4	-52.2	15.2	0.00e+00	0	22	0	485490688	66	4591
2026-01-13 05:13:26.23	19.18	21.48	-50.3	-52.1	15.3	0.00e+00	0	22	0	487587840	66	4532
2026-01-13 05:13:27.23	18.93	21.53	-50.4	-52.2	15.3	0.00e+00	0	22	0	489684992	66	4560
2026-01-13 05:13:28.23	18.69	21.57	-50.2	-52.0	15.4	0.00e+00	0	22	0	491782144	66	4468
2026-01-13 05:13:29.23	18.44	21.62	-50.2	-52.0	15.4	0.00e+00	0	22	0	493879296	66	4462
2026-01-13 05:13:30.23	18.19	21.67	-50.2	-52.0	15.4	0.00e+00	0	22	0	494927872	66	4472
2026-01-13 05:13:31.22	17.95	21.71	-50.2	-52.0	15.4	0.00e+00	0	22	0	497025024	66	4445
2026-01-13 05:13:32.22	17.70	21.76	-50.3	-52.0	15.4	0.00e+00	0	22	0	499122176	66	4491
2026-01-13 05:13:33.21	17.45	21.80	-50.2	-52.0	15.4	0.00e+00	0	22	0	501219328	66	4462
2026-01-13 05:13:34.21	17.20	21.84	-50.0	-51.8	15.5	0.00e+00	0	22	0	502267904	66	4348
2026-01-13 05:13:35.22	16.94	21.89	-49.9	-51.6	15.6	0.00e+00	0	22	0	504365056	66	4286
2026-01-13 05:13:36.21	16.69	21.93	-49.9	-51.6	15.6	0.00e+00	0	22	0	506462208	66	4287
2026-01-13 05:13:37.20	16.44	21.97	-50.0	-51.7	15.6	0.00e+00	0	22	0	508559360	66	4328
2026-01-13 05:13:38.20	16.19	22.02	-50.1	-51.9	15.5	0.00e+00	0	22	0	510656512	66	4421
2026-01-13 05:13:39.20	15.93	22.06	-50.1	-51.8	15.5	0.00e+00	0	22	0	511705088	66	4384
2026-01-13 05:13:40.20	15.68	22.10	-50.2	-51.9	15.5	0.00e+00	0	22	0	513802240	66	4419
2026-01-13 05:13:41.20	15.42	22.14	-50.2	-51.9	15.4	0.00e+00	0	22	0	515899392	66	4440
2026-01-13 05:13:42.19	15.17	22.18	-50.0	-51.6	15.6	0.00e+00	0	22	0	517996544	66	4280
2026-01-13 05:13:43.19	14.91	22.22	-50.1	-51.8	15.5	0.00e+00	0	22	0	519045120	66	4376
2026-01-13 05:13:44.19	14.65	22.25	-50.2	-51.9	15.4	0.00e+00	0	22	0	521142272	66	4413
2026-01-13 05:13:45.19	14.39	22.29	-50.3	-52.1	15.4	0.00e+00	0	22	0	523239424	66	4496
2026-01-13 05:13:46.19	14.14	22.33	-50.4	-52.2	15.3	0.00e+00	0	22	0	525336576	66	4574
2026-01-13 05:13:47.19	13.88	22.37	-50.5	-52.4	15.2	0.00e+00	0	22	0	527433728	66	4656
2026-01-13 05:13:48.19	13.62	22.40	-50.4	-52.2	15.3	0.00e+00	0	22	0	528482304	66	4587
2026-01-13 05:13:49.20	13.35	22.44	-50.9	-52.8	15.0	0.00e+00	0	22	0	530579456	66	4889
2026-01-13 05:13:50.20	13.09	22.48	-51.2	-53.2	14.9	0.00e+00	0	22	0	532676608	67	4869
2026-01-13 05:13:51.20	12.83	22.51	-51.7	-53.8	14.8	0.00e+00	0	22	0	534773760	68	4901
2026-01-13 05:13:52.20	12.56	22.54	-51.9	-54.1	14.6	0.00e+00	0	22	0	536870912	68	5060
2026-01-13 05:13:53.20	12.30	22.58	-51.9	-54.2	14.7	0.00e+00	0	22	0	537919488	69	4831
2026-01-13 05:13:54.19	12.04	22.61	-51.8	-54.1	14.8	0.00e+00	0	22	0	540016640	69	4767
2026-01-13 05:13:55.19	11.78	22.64	-51.9	-54.2	14.7	0.00e+00	0	22	0	542113792	69	4849
2026-01-13 05:13:56.18	11.51	22.67	-52.0	-54.3	14.7	0.00e+00	0	22	0	544210944	69	4898
2026-01-13 05:13:57.17	11.25	22.70	-52.0	-54.4	14.6	0.00e+00	0	22	0	546308096	69	4930
2026-01-13 05:13:58.17	10.98	22.73	-52.0	-54.3	14.7	0.00e+00	0	22	0	547356672	69	4874
2026-01-13 05:13:59.17	10.72	22.76	-51.8	-54.0	14.8	0.00e+00	0	22	0	549453824	69	4757
2026-01-13 05:14:00.17	10.45	22.79	-51.6	-53.8	15.0	0.00e+00	0	22	0	551550976	69	4603
2026-01-13 05:14:01.17	10.18	22.82	-51.4	-53.5	15.2	0.00e+00	0	22	0	553648128	69	4476
2026-01-13 05:14:02.17	9.91	22.85	-51.3	-53.3	15.3	0.00e+00	0	22	0	554696704	69	4360
2026-01-13 05:14:03.16	9.65	22.88	-51.3	-53.4	15.0	0.00e+00	0	22	0	556793856	68	4658
2026-01-13 05:14:04.16	9.38	22.90	-51.4	-53.5	14.9	0.00e+00	0	22	0	558891008	68	4754
2026-01-13 05:14:05.17	9.11	22.93	-51.5	-53.6	14.9	0.00e+00	0	22	0	560988160	68	4799
2026-01-13 05:14:06.16	8.84	22.95	-51.5	-53.7	14.8	0.00e+00	0	22	0	563085312	68	4862
2026-01-13 05:14:07.16	8.57	22.98	-51.4	-53.5	14.9	0.00e+00	0	22	0	564133888	68	4732
2026-01-13 05:14:08.15	8.30	23.00	-51.4	-53.5	15.0	0.00e+00	0	22	0	566231040	68	4735
2026-01-13 05:14:09.15	8.03	23.02	-51.4	-53.5	14.9	0.00e+00	0	22	0	568328192	68	4747
2026-01-13 05:14:10.15	7.76	23.05	-51.4	-53.6	14.8	0.00e+00	0	22	0	570425344	68	4798
2026-01-13 05:14:11.15	7.49	23.07	-51.8	-54.2	14.5	0.00e+00	0	22	0	572522496	68	5144
2026-01-13 05:14:12.16	7.21	23.09	-52.0	-54.4	14.5	0.00e+00	0	22	0	573571072	69	4956
2026-01-13 05:14:13.16	6.94	23.11	-51.8	-54.1	14.7	0.00e+00	0	22	0	575668224	69	4811
2026-01-13 05:14:14.16	6.67	23.13	-51.6	-53.8	15.0	0.00e+00	0	22	0	577765376	69	4612
2026-01-13 05:14:15.16	6.39	23.15	-51.7	-53.9	14.9	0.00e+00	0	22	0	579862528	69	4668
2026-01-13 05:14:16.16	6.12	23.17	-51.8	-54.0	14.8	0.00e+00	0	22	0	580911104	69	4717
2026-01-13 05:14:17.16	5.84	23.18	-52.2	-54.6	14.4	0.00e+00	0	22	0	583008256	69	5081
2026-01-13 05:14:18.15	5.57	23.20	-52.6	-55.2	14.2	0.00e+00	0	22	0	585105408	70	5158
2026-01-13 05:14:19.15	5.30	23.22	-52.7	-55.3	14.1	0.00e+00	0	22	0	587202560	70	5201
2026-01-13 05:14:20.15	5.02	23.23	-52.5	-55.1	14.3	0.00e+00	0	22	0	589299712	70	5069
2026-01-13 05:14:21.14	4.75	23.25	-52.1	-54.5	14.7	0.00e+00	0	22	0	590348288	70	4756
2026-01-13 05:14:22.14	4.47	23.26	-51.8	-54.1	15.0	0.00e+00	0	22	0	592445440	70	4521
2026-01-13 05:14:23.14	4.20	23.28	-51.7	-54.0	15.1	0.00e+00	0	22	0	594542592	70	4466
2026-01-13 05:14:24.14	3.92	23.29	-52.1	-54.5	14.8	0.00e+00	0	22	0	596639744	70	4708
2026-01-13 05:14:25.14	3.65	23.30	-52.2	-54.7	14.6	0.00e+00	0	22	0	597688320	70	4834
2026-01-13 05:14:26.15	3.37	23.31	-52.5	-55.2	14.4	0.00e+00	0	22	0	599785472	70	5119
2026-01-13 05:14:27.15	3.09	23.32	-52.6	-55.4	14.2	0.00e+00	0	22	0	601882624	70	5237
2026-01-13 05:14:28.15	2.81	23.33	-52.6	-55.2	14.2	0.00e+00	0	22	0	603979776	70	5152
2026-01-13 05:14:29.15	2.54	23.34	-52.4	-55.1	14.3	0.00e+00	0	22	0	606076928	70	5066
2026-01-13 05:14:30.15	2.26	23.35	-52.7	-55.5	14.1	0.00e+00	0	22	0	607125504	70	5299
2026-01-13 05:14:31.14	1.99	23.36	-52.7	-55.5	14.1	0.00e+00	0	22	0	609222656	70	5300
2026-01-13 05:14:32.14	1.71	23.36	-52.6	-55.4	14.1	0.00e+00	0	22	0	611319808	70	5274
2026-01-13 05:14:33.13	1.43	23.37	-52.6	-55.4	14.2	0.00e+00	0	22	0	613416960	70	5248
2026-01-13 05:14:34.12	1.16	23.38	-52.4	-55.1	14.3	0.00e+00	0	22	0	615514112	70	5069
2026-01-13 05:14:35.13	0.88	23.38	-52.0	-54.4	14.7	0.00e+00	0	22	0	616562688	70	4702
2026-01-13 05:14:36.12	0.60	23.38	-51.5	-53.8	15.0	0.00e+00	0	22	0	618659840	69	4626
2026-01-13 05:14:37.11	0.33	23.39	-51.4	-53.6	15.0	0.00e+00	0	22	0	620756992	69	4497
2026-01-13 05:14:38.10	0.05	23.39	-51.2	-53.4	14.9	0.00e+00	0	22	0	622854144	68	4682
2026-01-13 05:14:39.10	359.78	23.39	-51.3	-53.6	14.9	0.00e+00	0	22	0	624951296	68	4779
2026-01-13 05:14:40.10	359.50	23.39	-51.6	-54.0	14.6	0.00e+00	0	22	0	625999872	68	5035
2026-01-13 05:14:41.10	359.22	23.39	-51.9	-54.4	14.4	0.00e+00	0	22	0	628097024	68	5245
2026-01-13 05:14:42.10	358.94	23.39	-52.0	-54.5	14.5	0.00e+00	0	22	0	630194176	69	5005
2026-01-13 05:14:43.09	358.67	23.39	-52.0	-54.5	14.5	0.00e+00	0	22	0	632291328	69	5014
2026-01-13 05:14:44.10	358.39	23.39	-51.7	-54.1	14.8	0.00e+00	0	22	0	633339904	69	4764
2026-01-13 05:14:45.10	358.11	23.39	-51.6	-53.9	14.9	0.00e+00	0	22	0	635437056	69	4699
2026-01-13 05:14:46.09	357.83	23.39	-51.3	-53.5	15.1	0.00e+00	0	22	0	637534208	69	4486
2026-01-13 05:14:47.09	357.55	23.38	-51.4	-53.6	15.1	0.00e+00	0	22	0	639631360	69	4511
2026-01-13 05:14:48.08	357.28	23.38	-51.3	-53.5	15.1	0.00e+00	0	22	0	641728512	69	4480
2026-01-13 05:14:49.08	357.00	23.37	-51.5	-53.8	14.9	0.00e+00	0	22	0	642777088	69	4637
2026-01-13 05:14:50.10	356.72	23.37	-51.6	-53.8	14.9	0.00e+00	0	22	0	644874240	69	4647
2026-01-13 05:14:51.09	356.44	23.36	-51.4	-53.6	15.0	0.00e+00	0	22	0	646971392	69	4543
2026-01-13 05:14:52.09	356.17	23.35	-51.3	-53.5	15.2	0.00e+00	0	22	0	649068544	69	4446
2026-01-13 05:14:53.09	355.89	23.34	-51.2	-53.3	15.0	0.00e+00	0	22	0	650117120	68	4637
2026-01-13 05:14:54.08	355.62	23.33	-50.9	-52.9	15.3	0.00e+00	0	22	0	652214272	68	4415
2026-01-13 05:14:55.08	355.34	23.32	-50.8	-52.7	15.4	0.00e+00	0	22	0	654311424	68	4323
2026-01-13 05:14:56.08	355.06	23.31	-50.4	-52.3	15.5	0.00e+00	0	22	0	656408576	67	4341
2026-01-13 05:14:57.07	354.79	23.30	-50.6	-52.4	15.3	0.00e+00	0	22	0	658505728	67	4438
2026-01-13 05:14:58.08	354.51	23.29	-50.7	-52.6	15.2	0.00e+00	0	22	0	659554304	67	4543
2026-01-13 05:14:59.08	354.23	23.28	-50.9	-52.9	15.1	0.00e+00	0	22	0	661651456	67	4680
2026-01-13 05:15:00.08	353.96	23.27	-51.2	-53.3	14.8	0.00e+00	0	22	0	663748608	67	4914
2026-01-13 05:15:01.07	353.68	23.25	-51.0	-53.0	15.0	0.00e+00	0	22	0	665845760	67	4710
2026-01-13 05:15:02.08	353.41	23.24	-50.9	-52.9	15.1	0.00e+00	0	22	0	667942912	67	4680
2026-01-13 05:15:03.07	353.13	23.22	-50.5	-52.3	15.4	0.00e+00	0	22	0	668991488	67	4376
2026-01-13 05:15:04.07	352.86	23.21	-50.3	-52.0	15.6	0.00e+00	0	22	0	671088640	67	4232
2026-01-13 05:15:05.07	352.59	23.19	-50.3	-52.0	15.4	0.00e+00	0	22	0	673185792	66	4457
2026-01-13 05:15:06.08	352.31	23.17	-50.2	-51.9	15.4	0.00e+00	0	22	0	675282944	66	4432
2026-01-13 05:15:07.07	352.04	23.15	-50.3	-52.1	15.3	0.00e+00	0	22	0	676331520	66	4521
2026-01-13 05:15:08.07	351.76	23.13	-50.5	-52.3	15.2	0.00e+00	0	22	0	678428672	66	4637
2026-01-13 05:15:09.07	351.49	23.11	-50.4	-52.2	15.2	0.00e+00	0	22	0	680525824	66	4581
2026-01-13 05:15:10.06	351.22	23.09	-50.3	-52.0	15.3	0.00e+00	0	22	0	682622976	66	4492
2026-01-13 05:15:11.06	350.95	23.07	-50.1	-51.8	15.5	0.00e+00	0	22	0	684720128	66	4345
2026-01-13 05:15:12.05	350.68	23.05	-50.0	-51.6	15.6	0.00e+00	0	22	0	685768704	66	4284
2026-01-13 05:15:13.05	350.41	23.03	-49.8	-51.5	15.7	0.00e+00	0	22	0	687865856	66	4209
2026-01-13 05:15:14.05	350.14	23.01	-49.8	-51.5	15.6	0.00e+00	0	22	0	689963008	66	4212
2026-01-13 05:15:15.04	349.87	22.98	-49.8	-51.4	15.7	0.00e+00	0	22	0	692060160	66	4168
2026-01-13 05:15:16.04	349.60	22.96	-49.9	-51.5	15.6	0.00e+00	0	22	0	694157312	66	4220
2026-01-13 05:15:17.03	349.33	22.94	-50.3	-52.0	15.4	0.00e+00	0	22	0	695205888	66	4472
2026-01-13 05:15:18.03	349.06	22.91	-50.2	-52.0	15.4	0.00e+00	0	22	0	697303040	66	4455
2026-01-13 05:15:19.03	348.79	22.88	-50.4	-52.2	15.3	0.00e+00	0	22	0	699400192	66	4551
2026-01-13 05:15:20.04	348.52	22.86	-50.6	-52.5	15.2	0.00e+00	0	22	0	701497344	66	4716
2026-01-13 05:15:21.04	348.25	22.83	-50.8	-52.7	15.0	0.00e+00	0	22	0	702545920	66	4820
2026-01-13 05:15:22.05	347.98	22.80	-50.9	-52.8	15.0	0.00e+00	0	22	0	704643072	66	4881
2026-01-13 05:15:23.05	347.71	22.77	-50.7	-52.6	15.1	0.00e+00	0	22	0	706740224	66	4792
2026-01-13 05:15:24.05	347.45	22.74	-50.6	-52.4	15.2	0.00e+00	0	22	0	708837376	66	4667
2026-01-13 05:15:25.05	347.18	22.71	-50.4	-52.1	15.3	0.00e+00	0	22	0	710934528	66	4545
2026-01-13 05:15:26.05	346.91	22.68	-50.3	-52.0	15.4	0.00e+00	0	22	0	711983104	66	4476
2026-01-13 05:15:27.05	346.65	22.65	-50.2	-51.9	15.4	0.00e+00	0	22	0	714080256	66	4431
2026-01-13 05:15:28.05	346.38	22.62	-50.1	-51.8	15.5	0.00e+00	0	22	0	716177408	66	4374
2026-01-13 05:15:29.05	346.12	22.59	-50.3	-52.1	15.3	0.00e+00	0	22	0	718274560	66	4506
2026-01-13 05:15:30.05	345.86	22.55	-50.6	-52.5	15.2	0.00e+00	0	22	0	720371712	66	4721
2026-01-13 05:15:31.05	345.59	22.52	-51.1	-53.1	14.9	0.00e+00	0	22	0	721420288	67	4782
2026-01-13 05:15:32.05	345.33	22.48	-51.0	-53.0	15.0	0.00e+00	0	22	0	723517440	67	4706
2026-01-13 05:15:33.04	345.07	22.45	-50.9	-52.8	15.1	0.00e+00	0	22	0	725614592	67	4645
2026-01-13 05:15:34.04	344.81	22.41	-50.9	-52.9	15.1	0.00e+00	0	22	0	727711744	67	4660
2026-01-13 05:15:35.03	344.55	22.38	-50.8	-52.6	15.2	0.00e+00	0	22	0	728760320	67	4540
2026-01-13 05:15:36.02	344.30	22.34	-50.6	-52.5	15.3	0.00e+00	0	22	0	730857472	67	4456
2026-01-13 05:15:37.01	344.04	22.30	-50.7	-52.6	15.3	0.00e+00	0	22	0	732954624	67	4510
2026-01-13 05:15:38.01	343.78	22.27	-50.7	-52.6	15.3	0.00e+00	0	22	0	735051776	67	4495
2026-01-13 05:15:39.02	343.52	22.23	-50.9	-52.9	15.1	0.00e+00	0	22	0	737148928	67	4676
2026-01-13 05:15:40.01	343.27	22.19	-50.9	-52.9	15.1	0.00e+00	0	22	0	738197504	67	4658
2026-01-13 05:15:41.01	343.01	22.15	-51.1	-53.1	15.0	0.00e+00	0	22	0	740294656	67	4772
2026-01-13 05:15:42.01	342.75	22.11	-51.0	-53.0	15.0	0.00e+00	0	22	0	742391808	67	4726
2026-01-13 05:15:43.01	342.50	22.07	-51.1	-53.1	15.0	0.00e+00	0	22	0	744488960	67	4760
2026-01-13 05:15:44.00	342.24	22.03	-51.6	-53.7	14.8	0.00e+00	0	22	0	745537536	68	4842
2026-01-13 05:15:45.00	341.99	21.99	-51.8	-54.0	14.6	0.00e+00	0	22	0	747634688	68	5027
2026-01-13 05:15:46.00	341.74	21.94	-52.1	-54.5	14.5	0.00e+00	0	22	0	749731840	69	5020
2026-01-13 05:15:46.99	341.49	21.90	-52.1	-54.5	14.5	0.00e+00	0	22	0	751828992	69	5037
2026-01-13 05:15:47.98	341.24	21.86	-52.3	-54.7	14.4	0.00e+00	0	22	0	753926144	69	5146
2026-01-13 05:15:48.98	340.99	21.81	-52.1	-54.5	14.5	0.00e+00	0	22	0	754974720	69	5028
2026-01-13 05:15:49.98	340.74	21.77	-51.9	-54.2	14.7	0.00e+00	0	22	0	757071872	69	4825
2026-01-13 05:15:50.98	340.49	21.73	-52.0	-54.3	14.6	0.00e+00	0	22	0	759169024	69	4912
2026-01-13 05:15:51.98	340.24	21.68	-51.8	-54.1	14.7	0.00e+00	0	22	0	761266176	69	4809
2026-01-13 05:15:52.98	339.99	21.63	-51.6	-53.8	14.9	0.00e+00	0	22	0	763363328	69	4651
2026-01-13 05:15:53.97	339.74	21.59	-51.6	-53.8	14.9	0.00e+00	0	22	0	764411904	69	4629
2026-01-13 05:15:54.98	339.49	21.54	-51.5	-53.7	15.0	0.00e+00	0	22	0	766509056	69	4584
2026-01-13 05:15:55.97	339.25	21.49	-51.5	-53.7	15.0	0.00e+00	0	22	0	768606208	69	4557
2026-01-13 05:15:56.98	339.00	21.45	-51.7	-53.9	14.9	0.00e+00	0	22	0	770703360	69	4683
2026-01-13 05:15:57.97	338.76	21.40	-51.7	-53.9	14.8	0.00e+00	0	22	0	772800512	69	4680
2026-01-13 05:15:58.97	338.52	21.35	-51.7	-53.9	14.9	0.00e+00	0	22	0	773849088	69	4701
2026-01-13 05:15:59.97	338.27	21.30	-51.5	-53.7	15.0	0.00e+00	0	22	0	775946240	69	4580
2026-01-13 05:16:00.96	338.03	21.25	-51.4	-53.5	15.1	0.00e+00	0	22	0	778043392	69	4464
2026-01-13 05:16:01.97	337.79	21.20	-51.3	-53.4	15.2	0.00e+00	0	22	0	780140544	69	4431
2026-01-13 05:16:02.96	337.55	21.15	-51.5	-53.6	15.0	0.00e+00	0	22	0	781189120	69	4544
2026-01-13 05:16:03.95	337.31	21.10	-51.5	-53.6	15.1	0.00e+00	0	22	0	783286272	69	4515
2026-01-13 05:16:04.95	337.07	21.05	-51.3	-53.4	15.2	0.00e+00	0	22	0	785383424	69	4421
2026-01-13 05:16:05.95	336.84	21.00	-51.4	-53.5	15.2	0.00e+00	0	22	0	787480576	69	4454
2026-01-13 05:16:06.95	336.60	20.95	-51.4	-53.6	15.1	0.00e+00	0	22	0	789577728	69	4519
2026-01-13 05:16:07.95	336.36	20.89	-51.5	-53.7	15.0	0.00e+00	0	22	0	790626304	69	4562
2026-01-13 05:16:08.94	336.13	20.84	-51.8	-54.0	14.8	0.00e+00	0	22	0	792723456	69	4751
2026-01-13 05:16:09.94	335.89	20.79	-51.9	-54.2	14.7	0.00e+00	0	22	0	794820608	69	4843
2026-01-13 05:16:10.94	335.66	20.73	-52.0	-54.5	14.5	0.00e+00	0	22	0	796917760	69	5004
2026-01-13 05:16:11.94	335.43	20.68	-52.2	-54.7	14.4	0.00e+00	0	22	0	797966336	69	5150
2026-01-13 05:16:12.93	335.20	20.62	-52.0	-54.4	14.6	0.00e+00	0	22	0	800063488	69	4942
2026-01-13 05:16:13.93	334.96	20.57	-52.0	-54.4	14.5	0.00e+00	0	22	0	802160640	69	4971
2026-01-13 05:16:14.93	334.73	20.51	-52.0	-54.4	14.6	0.00e+00	0	22	0	804257792	69	4955
2026-01-13 05:16:15.92	334.51	20.46	-51.8	-54.2	14.7	0.00e+00	0	22	0	806354944	69	4829
2026-01-13 05:16:16.92	334.28	20.40	-51.9	-54.3	14.6	0.00e+00	0	22	0	807403520	69	4911
2026-01-13 05:16:17.92	334.05	20.35	-51.9	-54.3	14.6	0.00e+00	0	22	0	809500672	69	4909
2026-01-13 05:16:18.92	333.82	20.29	-52.2	-54.7	14.4	0.00e+00	0	22	0	811597824	69	5150
2026-01-13 05:16:19.93	333.59	20.23	-52.6	-55.5	14.1	0.00e+00	0	22	0	813694976	70	5294
2026-01-13 05:16:20.93	333.37	20.18	-52.9	-56.0	13.9	0.00e+00	0	22	0	815792128	71	5314
2026-01-13 05:16:21.93	333.14	20.12	-53.1	-56.4	13.6	0.00e+00	0	22	0	816840704	71	5588
2026-01-13 05:16:22.93	332.92	20.06	-53.2	-56.5	13.5	0.00e+00	0	22	0	818937856	71	5626
2026-01-13 05:16:23.93	332.69	20.00	-52.9	-56.0	13.9	0.00e+00	0	22	0	821035008	71	5282
2026-01-13 05:16:24.93	332.47	19.94	-52.8	-55.7	14.0	0.00e+00	0	22	0	823132160	71	5152
2026-01-13 05:16:25.92	332.25	19.88	-52.6	-55.3	14.4	0.00e+00	0	22	0	824180736	71	4882
2026-01-13 05:16:26.92	332.03	19.82	-52.3	-54.8	14.7	0.00e+00	0	22	0	826277888	71	4635
2026-01-13 05:16:27.92	331.81	19.76	-52.0	-54.4	14.8	0.00e+00	0	22	0	828375040	70	4676
2026-01-13 05:16:28.92	331.59	19.70	-51.8	-54.1	14.9	0.00e+00	0	22	0	830472192	69	4811
2026-01-13 05:16:29.92	331.37	19.64	-51.6	-53.9	14.9	0.00e+00	0	22	0	832569344	69	4672
2026-01-13 05:16:30.92	331.16	19.58	-51.4	-53.6	15.0	0.00e+00	0	22	0	833617920	69	4527
2026-01-13 05:16:31.92	330.94	19.52	-51.3	-53.5	15.0	0.00e+00	0	22	0	835715072	69	4493
2026-01-13 05:16:32.92	330.73	19.46	-51.3	-53.4	15.1	0.00e+00	0	22	0	837812224	69	4433
2026-01-13 05:16:33.93	330.51	19.40	-51.3	-53.4	15.1	0.00e+00	0	22	0	839909376	69	4431
2026-01-13 05:16:34.93	330.30	19.34	-51.1	-53.1	15.2	0.00e+00	0	22	0	842006528	68	4532
2026-01-13 05:16:35.93	330.08	19.28	-51.1	-53.2	15.1	0.00e+00	0	22	0	843055104	68	4573
2026-01-13 05:16:36.93	329.87	19.21	-51.1	-53.1	15.1	0.00e+00	0	22	0	845152256	68	4541
2026-01-13 05:16:37.93	329.66	19.15	-51.1	-53.1	15.2	0.00e+00	0	22	0	847249408	68	4503
2026-01-13 05:16:38.93	329.45	19.09	-51.1	-53.1	15.2	0.00e+00	0	22	0	849346560	68	4510
2026-01-13 05:16:39.93	329.24	19.03	-51.1	-53.2	15.1	0.00e+00	0	22	0	851443712	68	4564
2026-01-13 05:16:40.92	329.03	18.96	-51.0	-53.0	15.2	0.00e+00	0	22	0	852492288	68	4451
2026-01-13 05:16:41.92	328.83	18.90	-50.7	-52.6	15.4	0.00e+00	0	22	0	854589440	68	4269
2026-01-13 05:16:42.91	328.62	18.84	-50.6	-52.5	15.2	0.00e+00	0	22	0	856686592	67	4478
2026-01-13 05:16:43.91	328.42	18.77	-50.8	-52.9	15.1	0.00e+00	0	22	0	858783744	67	4664
2026-01-13 05:16:44.91	328.21	18.71	-51.1	-53.2	14.8	0.00e+00	0	22	0	859832320	67	4868
2026-01-13 05:16:45.91	328.01	18.64	-51.3	-53.6	14.5	0.00e+00	0	22	0	861929472	67	5069
2026-01-13 05:16:46.90	327.81	18.58	-51.9	-54.3	14.4	0.00e+00	0	22	0	864026624	68	5192
2026-01-13 05:16:47.90	327.60	18.52	-52.2	-54.7	14.4	0.00e+00	0	22	0	866123776	69	5118
2026-01-13 05:16:48.89	327.40	18.45	-52.5	-55.3	14.2	0.00e+00	0	22	0	868220928	70	5166
2026-01-13 05:16:49.89	327.20	18.39	-52.8	-55.8	13.9	0.00e+00	0	22	0	869269504	70	5470
2026-01-13 05:16:50.89	327.00	18.32	-52.7	-55.6	13.9	0.00e+00	0	22	0	871366656	70	5362
2026-01-13 05:16:51.89	326.80	18.26	-52.5	-55.3	14.2	0.00e+00	0	22	0	873463808	70	5183
2026-01-13 05:16:52.89	326.61	18.19	-52.7	-55.6	14.0	0.00e+00	0	22	0	875560960	70	5398
2026-01-13 05:16:53.89	326.41	18.12	-52.3	-55.0	14.3	0.00e+00	0	22	0	876609536	70	4993
2026-01-13 05:16:54.89	326.21	18.06	-52.1	-54.7	14.5	0.00e+00	0	22	0	878706688	70	4832
2026-01-13 05:16:55.88	326.02	17.99	-51.8	-54.2	14.8	0.00e+00	0	22	0	880803840	70	4576
2026-01-13 05:16:56.89	325.82	17.93	-51.7	-54.0	15.0	0.00e+00	0	22	0	882900992	70	4485
2026-01-13 05:16:57.89	325.63	17.86	-51.6	-53.9	14.9	0.00e+00	0	22	0	884998144	69	4662
2026-01-13 05:16:58.88	325.44	17.79	-51.4	-53.7	15.0	0.00e+00	0	22	0	886046720	69	4553
2026-01-13 05:16:59.88	325.25	17.73	-51.3	-53.5	15.1	0.00e+00	0	22	0	888143872	69	4477
2026-01-13 05:17:00.87	325.06	17.66	-51.1	-53.2	15.1	0.00e+00	0	22	0	890241024	68	4595
2026-01-13 05:17:01.87	324.87	17.59	-50.9	-53.0	15.2	0.00e+00	0	22	0	892338176	68	4463
2026-01-13 05:17:02.87	324.68	17.53	-50.9	-53.0	15.2	0.00e+00	0	22	0	894435328	68	4446
2026-01-13 05:17:03.88	324.49	17.46	-51.0	-53.1	15.1	0.00e+00	0	22	0	895483904	68	4527
2026-01-13 05:17:04.87	324.30	17.39	-51.1	-53.2	15.1	0.00e+00	0	22	0	897581056	68	4587
2026-01-13 05:17:05.87	324.11	17.32	-51.3	-53.6	14.9	0.00e+00	0	22	0	899678208	68	4768
2026-01-13 05:17:06.87	323.93	17.26	-51.6	-54.0	14.6	0.00e+00	0	22	0	901775360	68	5000
2026-01-13 05:17:07.87	323.74	17.19	-51.7	-54.2	14.5	0.00e+00	0	22	0	902823936	68	5101
2026-01-13 05:17:08.87	323.56	17.12	-51.8	-54.3	14.5	0.00e+00	0	22	0	904921088	68	5171
2026-01-13 05:17:09.87	323.38	17.05	-51.7	-54.0	14.6	0.00e+00	0	22	0	907018240	68	5032
2026-01-13 05:17:10.87	323.19	16.98	-51.6	-53.9	14.6	0.00e+00	0	22	0	909115392	68	4978
2026-01-13 05:17:11.86	323.01	16.92	-51.5	-53.8	14.8	0.00e+00	0	22	0	911212544	68	4876
2026-01-13 05:17:12.87	322.83	16.85	-51.4	-53.6	14.8	0.00e+00	0	22	0	912261120	68	4806
2026-01-13 05:17:13.86	322.65	16.78	-51.5	-53.8	14.7	0.00e+00	0	22	0	914358272	68	4923
2026-01-13 05:17:14.85	322.47	16.71	-51.6	-54.0	14.7	0.00e+00	0	22	0	916455424	68	4991
2026-01-13 05:17:15.85	322.30	16.64	-51.8	-54.2	14.5	0.00e+00	0	22	0	918552576	68	5104
2026-01-13 05:17:16.84	322.12	16.57	-51.6	-54.0	14.6	0.00e+00	0	22	0	920649728	68	4997
2026-01-13 05:17:17.84	321.94	16.50	-51.5	-53.8	14.7	0.00e+00	0	22	0	921698304	68	4922
2026-01-13 05:17:18.84	321.77	16.44	-51.4	-53.6	14.8	0.00e+00	0	22	0	923795456	68	4811
2026-01-13 05:17:19.83	321.59	16.37	-51.4	-53.6	14.8	0.00e+00	0	22	0	925892608	68	4804
2026-01-13 05:17:20.83	321.42	16.30	-51.4	-53.6	14.9	0.00e+00	0	22	0	927989760	68	4767
2026-01-13 05:17:21.83	321.25	16.23	-51.4	-53.6	14.9	0.00e+00	0	22	0	929038336	68	4788
2026-01-13 05:17:22.83	321.07	16.16	-51.3	-53.4	14.9	0.00e+00	0	22	0	931135488	68	4689
2026-01-13 05:17:23.83	320.90	16.09	-51.2	-53.4	15.0	0.00e+00	0	22	0	933232640	68	4658
2026-01-13 05:17:24.82	320.73	16.02	-51.3	-53.4	15.0	0.00e+00	0	22	0	935329792	68	4660
2026-01-13 05:17:25.83	320.56	15.95	-50.9	-52.9	15.2	0.00e+00	0	22	0	937426944	68	4428
2026-01-13 05:17:26.83	320.39	15.88	-50.8	-52.7	15.4	0.00e+00	0	22	0	938475520	68	4314
2026-01-13 05:17:27.83	320.22	15.81	-50.8	-52.7	15.4	0.00e+00	0	22	0	940572672	68	4308
2026-01-13 05:17:28.83	320.05	15.74	-50.7	-52.6	15.4	0.00e+00	0	22	0	942669824	68	4287
2026-01-13 05:17:29.84	319.88	15.67	-50.9	-52.8	15.3	0.00e+00	0	22	0	944766976	68	4385
2026-01-13 05:17:30.83	319.72	15.60	-51.0	-53.0	15.2	0.00e+00	0	22	0	946864128	68	4462
2026-01-13 05:17:31.84	319.55	15.53	-50.9	-52.8	15.3	0.00e+00	0	22	0	947912704	68	4368
2026-01-13 05:17:32.85	319.39	15.46	-50.8	-52.7	15.3	0.00e+00	0	22	0	950009856	68	4323
2026-01-13 05:17:33.85	319.22	15.39	-50.3	-52.1	15.4	0.00e+00	0	22	0	952107008	67	4256
2026-01-13 05:17:34.85	319.06	15.32	-50.2	-52.0	15.6	0.00e+00	0	22	0	954204160	67	4197
2026-01-13 05:17:35.85	318.90	15.25	-50.1	-51.8	15.4	0.00e+00	0	22	0	955252736	66	4388
2026-01-13 05:17:36.85	318.74	15.18	-49.9	-51.6	15.6	0.00e+00	0	22	0	957349888	66	4275
2026-01-13 05:17:37.85	318.57	15.11	-50.0	-51.6	15.5	0.00e+00	0	22	0	959447040	66	4284
2026-01-13 05:17:38.84	318.42	15.04	-50.0	-51.7	15.5	0.00e+00	0	22	0	961544192	66	4325
2026-01-13 05:17:39.84	318.26	14.97	-50.2	-51.9	15.4	0.00e+00	0	22	0	963641344	66	4427
2026-01-13 05:17:40.83	318.10	14.90	-50.1	-51.9	15.4	0.00e+00	0	22	0	964689920	66	4402
2026-01-13 05:17:41.83	317.94	14.83	-50.2	-52.0	15.4	0.00e+00	0	22	0	966787072	66	4457
2026-01-13 05:17:42.83	317.78	14.76	-50.4	-52.2	15.3	0.00e+00	0	22	0	968884224	66	4553
2026-01-13 05:17:43.82	317.63	14.69	-50.3	-52.1	15.3	0.00e+00	0	22	0	970981376	66	4525
2026-01-13 05:17:44.82	317.47	14.62	-50.5	-52.4	15.1	0.00e+00	0	22	0	972029952	66	4676
2026-01-13 05:17:45.82	317.32	14.55	-50.6	-52.5	15.0	0.00e+00	0	22	0	974127104	66	4751
2026-01-13 05:17:46.81	317.17	14.48	-50.7	-52.7	15.0	0.00e+00	0	22	0	976224256	66	4815
2026-01-13 05:17:47.80	317.01	14.41	-50.7	-52.7	15.0	0.00e+00	0	22	0	978321408	66	4818
2026-01-13 05:17:48.80	316.86	14.34	-50.7	-52.6	15.0	0.00e+00	0	22	0	980418560	66	4774
2026-01-13 05:17:49.80	316.71	14.27	-50.7	-52.5	15.0	0.00e+00	0	22	0	981467136	66	4748
2026-01-13 05:17:50.79	316.56	14.20	-50.6	-52.5	15.1	0.00e+00	0	22	0	983564288	66	4724
2026-01-13 05:17:51.78	316.41	14.13	-50.5	-52.4	15.1	0.00e+00	0	22	0	985661440	66	4658
2026-01-13 05:17:52.78	316.26	14.06	-50.1	-51.9	15.4	0.00e+00	0	22	0	987758592	66	4408
2026-01-13 05:17:53.78	316.11	13.99	-50.1	-51.8	15.4	0.00e+00	0	22	0	989855744	66	4381
2026-01-13 05:17:54.78	315.96	13.92	-50.2	-52.0	15.4	0.00e+00	0	22	0	990904320	66	4444
2026-01-13 05:17:55.77	315.82	13.85	-50.3	-52.0	15.3	0.00e+00	0	22	0	993001472	66	4491
2026-01-13 05:17:56.77	315.67	13.78	-50.6	-52.4	15.1	0.00e+00	0	22	0	995098624	66	4689
2026-01-13 05:17:57.77	315.53	13.71	-50.7	-52.7	15.0	0.00e+00	0	22	0	997195776	66	4820
2026-01-13 05:17:58.77	315.38	13.64	-51.0	-52.9	15.0	0.00e+00	0	22	0	998244352	67	4701
2026-01-13 05:17:59.77	315.24	13.57	-51.1	-53.1	14.9	0.00e+00	0	22	0	1000341504	67	4780
2026-01-13 05:18:00.77	315.09	13.50	-51.2	-53.3	14.8	0.00e+00	0	22	0	1002438656	67	4874
2026-01-13 05:18:01.76	314.95	13.43	-51.3	-53.4	14.7	0.00e+00	0	22	0	1004535808	67	4949
2026-01-13 05:18:02.76	314.81	13.36	-51.2	-53.3	14.8	0.00e+00	0	22	0	1006632960	67	4902
2026-01-13 05:18:03.76	314.66	13.29	-51.3	-53.4	14.7	0.00e+00	0	22	0	1007681536	67	4935
2026-01-13 05:18:04.75	314.52	13.22	-51.1	-53.2	14.9	0.00e+00	0	22	0	1009778688	67	4822
2026-01-13 05:18:05.76	314.38	13.15	-51.2	-53.2	14.8	0.00e+00	0	22	0	1011875840	67	4863
2026-01-13 05:18:06.76	314.24	13.08	-51.0	-53.1	14.9	0.00e+00	0	22	0	1013972992	67	4775
2026-01-13 05:18:07.75	314.10	13.01	-51.2	-53.2	14.8	0.00e+00	0	22	0	1016070144	67	4865
2026-01-13 05:18:08.75	313.97	12.95	-51.0	-53.0	14.9	0.00e+00	0	22	0	1017118720	67	4720
2026-01-13 05:18:09.75	313.83	12.88	-50.8	-52.7	15.1	0.00e+00	0	22	0	1019215872	67	4589
2026-01-13 05:18:10.74	313.69	12.81	-50.6	-52.5	15.2	0.00e+00	0	22	0	1021313024	67	4453
2026-01-13 05:18:11.74	313.56	12.74	-50.5	-52.4	15.3	0.00e+00	0	22	0	1023410176	67	4415
2026-01-13 05:18:12.74	313.42	12.67	-50.5	-52.4	15.3	0.00e+00	0	22	0	1024458752	67	4397
2026-01-13 05:18:13.74	313.28	12.60	-50.3	-52.1	15.4	0.00e+00	0	22	0	1026555904	67	4256
2026-01-13 05:18:14.74	313.15	12.53	-50.5	-52.4	15.3	0.00e+00	0	22	0	1028653056	67	4393
2026-01-13 05:18:15.74	313.02	12.46	-50.5	-52.3	15.3	0.00e+00	0	22	0	1030750208	67	4365
2026-01-13 05:18:16.74	312.88	12.39	-50.8	-52.7	15.1	0.00e+00	0	22	0	1032847360	67	4593
2026-01-13 05:18:17.74	312.75	12.32	-51.2	-53.2	14.8	0.00e+00	0	22	0	1033895936	67	4863
2026-01-13 05:18:18.73	312.62	12.25	-51.4	-53.5	14.7	0.00e+00	0	22	0	1035993088	67	5011
2026-01-13 05:18:19.73	312.49	12.18	-51.8	-54.0	14.6	0.00e+00	0	22	0	1038090240	68	5009
2026-01-13 05:18:20.72	312.36	12.11	-52.0	-54.3	14.6	0.00e+00	0	22	0	1040187392	69	4912
2026-01-13 05:18:21.72	312.23	12.04	-52.3	-54.7	14.3	0.00e+00	0	22	0	1042284544	69	5146
2026-01-13 05:18:22.72	312.10	11.97	-52.2	-54.6	14.4	0.00e+00	0	22	0	1043333120	69	5073
2026-01-13 05:18:23.72	311.97	11.90	-52.2	-54.6	14.4	0.00e+00	0	22	0	1045430272	69	5070
2026-01-13 05:18:24.72	311.84	11.83	-51.9	-54.1	14.7	0.00e+00	0	22	0	1047527424	69	4797
2026-01-13 05:18:25.72	311.71	11.77	-51.8	-54.0	14.7	0.00e+00	0	22	0	1049624576	69	4710
2026-01-13 05:18:26.72	311.59	11.70	-51.7	-53.9	14.8	0.00e+00	0	22	0	1050673152	69	4685
2026-01-13 05:18:27.72	311.46	11.63	-51.6	-53.7	14.9	0.00e+00	0	22	0	1052770304	69	4549
2026-01-13 05:18:28.72	311.33	11.56	-51.4	-53.4	15.1	0.00e+00	0	22	0	1054867456	69	4414
2026-01-13 05:18:29.71	311.21	11.49	-51.4	-53.5	15.0	0.00e+00	0	22	0	1056964608	69	4458
2026-01-13 05:18:30.71	311.09	11.42	-51.5	-53.6	15.0	0.00e+00	0	22	0	1059061760	69	4505
2026-01-13 05:18:31.71	310.96	11.35	-51.5	-53.5	15.0	0.00e+00	0	22	0	1060110336	69	4480
2026-01-13 05:18:32.70	310.84	11.28	-51.7	-53.9	14.8	0.00e+00	0	22	0	1062207488	69	4667
2026-01-13 05:18:33.70	310.72	11.22	-51.7	-53.9	14.8	0.00e+00	0	22	0	1064304640	69	4662
2026-01-13 05:18:34.70	310.59	11.15	-51.6	-53.7	14.9	0.00e+00	0	22	0	1066401792	69	4549
2026-01-13 05:18:35.70	310.47	11.08	-51.8	-53.9	14.7	0.00e+00	0	22	0	1068498944	69	4687
2026-01-13 05:18:36.70	310.35	11.01	-51.7	-53.8	14.8	0.00e+00	0	22	0	1069547520	69	4638
2026-01-13 05:18:37.69	310.23	10.94	-51.6	-53.7	14.9	0.00e+00	0	22	0	1071644672	69	4580
2026-01-13 05:18:38.69	310.11	10.87	-51.6	-53.7	14.9	0.00e+00	0	22	0	1073741824	69	4577
2026-01-13 05:18:39.68	309.99	10.81	-51.7	-53.8	14.8	0.00e+00	0	22	0	1075838976	69	4641
2026-01-13 05:18:40.68	309.87	10.74	-51.7	-53.8	14.8	0.00e+00	0	22	0	1076887552	69	4651
2026-01-13 05:18:41.68	309.76	10.67	-51.8	-54.0	14.7	0.00e+00	0	22	0	1078984704	69	4723
2026-01-13 05:18:42.68	309.64	10.60	-52.0	-54.4	14.5	0.00e+00	0	22	0	1081081856	69	4930
2026-01-13 05:18:43.68	309.52	10.53	-52.0	-54.3	14.5	0.00e+00	0	22	0	1083179008	69	4888
2026-01-13 05:18:44.68	309.40	10.47	-52.1	-54.5	14.4	0.00e+00	0	22	0	1085276160	69	4995
2026-01-13 05:18:45.67	309.29	10.40	-52.1	-54.5	14.4	0.00e+00	0	22	0	1086324736	69	5024
2026-01-13 05:18:46.67	309.17	10.33	-52.1	-54.5	14.4	0.00e+00	0	22	0	1088421888	69	5033
2026-01-13 05:18:47.67	309.06	10.26	-52.1	-54.5	14.4	0.00e+00	0	22	0	1090519040	69	5024
2026-01-13 05:18:48.67	308.95	10.19	-52.2	-54.7	14.3	0.00e+00	0	22	0	1092616192	69	5101
2026-01-13 05:18:49.66	308.83	10.13	-52.2	-54.6	14.3	0.00e+00	0	22	0	1093664768	69	5078
2026-01-13 05:18:50.66	308.72	10.06	-52.0	-54.3	14.5	0.00e+00	0	22	0	1095761920	69	4899
2026-01-13 05:18:51.66	308.61	9.99	-52.2	-54.6	14.3	0.00e+00	0	22	0	1097859072	69	5072
2026-01-13 05:18:52.65	308.50	9.93	-52.2	-54.7	14.3	0.00e+00	0	22	0	1099956224	69	5107
2026-01-13 05:18:53.65	308.38	9.86	-52.3	-54.9	14.2	0.00e+00	0	22	0	1102053376	69	5235
2026-01-13 05:18:54.64	308.27	9.79	-52.5	-55.1	14.2	0.00e+00	0	22	0	1103101952	70	5065
2026-01-13 05:18:55.63	308.16	9.73	-52.6	-55.2	14.1	0.00e+00	0	22	0	1105199104	70	5149
2026-01-13 05:18:56.63	308.05	9.66	-52.7	-55.4	14.0	0.00e+00	0	22	0	1107296256	70	5224
2026-01-13 05:18:57.62	307.94	9.59	-52.7	-55.5	13.9	0.00e+00	0	22	0	1109393408	70	5296
2026-01-13 05:18:58.62	307.84	9.53	-53.0	-55.9	13.8	0.00e+00	0	22	0	1110441984	71	5245
2026-01-13 05:18:59.63	307.73	9.46	-53.1	-56.0	13.8	0.00e+00	0	22	0	1112539136	71	5287
2026-01-13 05:19:00.62	307.62	9.39	-52.9	-55.7	13.9	0.00e+00	0	22	0	1114636288	71	5152
2026-01-13 05:19:01.62	307.51	9.33	-52.7	-55.4	14.2	0.00e+00	0	22	0	1116733440	71	4929
2026-01-13 05:19:02.62	307.40	9.26	-52.7	-55.4	14.1	0.00e+00	0	22	0	1118830592	71	4948
2026-01-13 05:19:03.62	307.30	9.19	-52.8	-55.4	14.1	0.00e+00	0	22	0	1119879168	71	4975
2026-01-13 05:19:04.62	307.19	9.13	-52.4	-54.8	14.5	0.00e+00	0	22	0	1121976320	71	4641
2026-01-13 05:19:05.62	307.09	9.06	-52.3	-54.7	14.6	0.00e+00	0	22	0	1124073472	71	4568
2026-01-13 05:19:06.62	306.98	8.99	-52.3	-54.8	14.5	0.00e+00	0	22	0	1126170624	71	4602
2026-01-13 05:19:07.61	306.88	8.93	-52.1	-54.5	14.5	0.00e+00	0	22	0	1128267776	70	4716
2026-01-13 05:19:08.62	306.77	8.86	-52.0	-54.3	14.6	0.00e+00	0	22	0	1129316352	70	4619
2026-01-13 05:19:09.61	306.67	8.80	-52.0	-54.2	14.7	0.00e+00	0	22	0	1131413504	70	4567
2026-01-13 05:19:10.61	306.57	8.73	-52.1	-54.4	14.5	0.00e+00	0	22	0	1133510656	70	4671
2026-01-13 05:19:11.61	306.46	8.66	-52.0	-54.3	14.6	0.00e+00	0	22	0	1135607808	70	4625
2026-01-13 05:19:12.62	306.36	8.60	-52.1	-54.4	14.5	0.00e+00	0	22	0	1136656384	70	4705
2026-01-13 05:19:13.62	306.26	8.53	-52.2	-54.6	14.5	0.00e+00	0	22	0	1138753536	70	4777
2026-01-13 05:19:14.62	306.16	8.47	-52.3	-54.6	14.4	0.00e+00	0	22	0	1140850688	70	4813
2026-01-13 05:19:15.61	306.06	8.40	-52.4	-54.9	14.3	0.00e+00	0	22	0	1142947840	70	4951
2026-01-13 05:19:16.61	305.96	8.34	-52.5	-55.0	14.2	0.00e+00	0	22	0	1145044992	70	5006
2026-01-13 05:19:17.61	305.86	8.27	-52.7	-55.3	14.0	0.00e+00	0	22	0	1146093568	70	5164
2026-01-13 05:19:18.61	305.76	8.20	-52.5	-55.1	14.1	0.00e+00	0	22	0	1148190720	70	5058
2026-01-13 05:19:19.62	305.66	8.14	-52.7	-55.3	14.0	0.00e+00	0	22	0	1150287872	70	5191
2026-01-13 05:19:20.61	305.56	8.07	-52.7	-55.3	14.0	0.00e+00	0	22	0	1152385024	70	5162
2026-01-13 05:19:21.61	305.46	8.01	-52.5	-55.1	14.1	0.00e+00	0	22	0	1154482176	70	5054
2026-01-13 05:19:22.61	305.37	7.94	-52.5	-55.1	14.2	0.00e+00	0	22	0	1155530752	70	5042
2026-01-13 05:19:23.60	305.27	7.88	-52.4	-54.9	14.3	0.00e+00	0	22	0	1157627904	70	4927
2026-01-13 05:19:24.61	305.17	7.81	-52.5	-55.0	14.2	0.00e+00	0	22	0	1159725056	70	5027
2026-01-13 05:19:25.60	305.08	7.75	-52.3	-54.7	14.4	0.00e+00	0	22	0	1161822208	70	4827
2026-01-13 05:19:26.60	304.98	7.69	-52.3	-54.8	14.3	0.00e+00	0	22	0	1163919360	70	4896
2026-01-13 05:19:27.59	304.89	7.62	-52.3	-54.8	14.3	0.00e+00	0	22	0	1164967936	70	4893
2026-01-13 05:19:28.60	304.79	7.56	-52.4	-54.8	14.3	0.00e+00	0	22	0	1167065088	70	4901
2026-01-13 05:19:29.59	304.70	7.49	-52.3	-54.7	14.3	0.00e+00	0	22	0	1169162240	70	4865
2026-01-13 05:19:30.59	304.60	7.43	-52.3	-54.8	14.3	0.00e+00	0	22	0	1171259392	70	4902
2026-01-13 05:19:31.59	304.51	7.37	-52.4	-54.9	14.2	0.00e+00	0	22	0	1172307968	70	4943
2026-01-13 05:19:32.59	304.42	7.30	-52.5	-55.1	14.1	0.00e+00	0	22	0	1174405120	70	5080
2026-01-13 05:19:33.59	304.32	7.24	-52.5	-55.2	14.1	0.00e+00	0	22	0	1176502272	70	5105
2026-01-13 05:19:34.59	304.23	7.17	-52.6	-55.3	14.0	0.00e+00	0	22	0	1178599424	70	5197
2026-01-13 05:19:35.59	304.14	7.11	-52.7	-55.3	13.9	0.00e+00	0	22	0	1180696576	70	5215
2026-01-13 05:19:36.58	304.05	7.05	-52.6	-55.3	13.9	0.00e+00	0	22	0	1181745152	70	5208
2026-01-13 05:19:37.58	303.96	6.98	-52.9	-55.7	13.7	0.00e+00	0	22	0	1183842304	70	5441
2026-01-13 05:19:38.57	303.87	6.92	-52.9	-55.7	13.8	0.00e+00	0	22	0	1185939456	71	5132
2026-01-13 05:19:39.57	303.78	6.86	-53.0	-55.9	13.7	0.00e+00	0	22	0	1188036608	71	5230
2026-01-13 05:19:40.57	303.69	6.79	-53.1	-56.1	13.5	0.00e+00	0	22	0	1190133760	71	5388
2026-01-13 05:19:41.57	303.60	6.73	-53.2	-56.2	13.4	0.00e+00	0	22	0	1191182336	71	5464
2026-01-13 05:19:42.57	303.51	6.67	-53.3	-56.4	13.3	0.00e+00	0	22	0	1193279488	71	5561
2026-01-13 05:19:43.56	303.42	6.60	-53.4	-56.6	13.2	0.00e+00	0	22	0	1195376640	71	5660
2026-01-13 05:19:44.56	303.33	6.54	-53.5	-56.7	13.2	0.00e+00	0	22	0	1197473792	72	5430
2026-01-13 05:19:45.56	303.24	6.48	-53.6	-56.9	13.1	0.00e+00	0	22	0	1198522368	72	5566
2026-01-13 05:19:46.56	303.16	6.42	-53.7	-57.1	12.9	0.00e+00	0	22	0	1200619520	72	5693
2026-01-13 05:19:47.55	303.07	6.35	-53.8	-57.3	12.8	0.00e+00	0	22	0	1202716672	72	5792
2026-01-13 05:19:48.55	302.98	6.29	-53.8	-57.3	12.8	0.00e+00	0	22	0	1204813824	72	5833
2026-01-13 05:19:49.54	302.90	6.23	-53.9	-57.4	12.8	7.00e-07	0	22	0	1206910976	73	5555
2026-01-13 05:19:50.55	302.81	6.17	-53.9	-57.5	12.7	2.20e-06	0	22	0	1207959552	73	5635
2026-01-13 05:19:51.54	302.73	6.10	-54.0	-57.7	12.6	7.00e-07	0	22	0	1210056704	73	5760
2026-01-13 05:19:52.52	302.64	6.04	-54.0	-57.5	12.8	7.00e-07	0	22	0	1212153856	73	5653
