passes_logs/2026/01/13/R3.2S_Murmansk/R3.2S_Murmansk__20260113_055551_AQUA_rec.log

#Pass ID: 20260113_055551_AQUA
#Satellite: AQUA
#Configuration: AQUA
#almurnet v.1.7.20251203
#Start time: 2026-01-13 05:55:52

#Version: 2.2.20231116
#Station: R3.2S_Murmansk
#Location: 33.079688 lon 68.888172 lat
#TLE: 1 27424U 02022A   26012.29577270  .00001027  00000+0  21555-3 0  9995
#TLE: 2 27424  98.4078 338.6778 0002034  81.5885  29.6294 14.61817302260499

#Time	Az	El	Level	Level2	SNR	BER	BlckErr	Temp	State	Recorded	gain1	gain2
2026-01-13 05:55:52.71	45.79	2.06	-56.3	-75.6	3.8	7.48e-01	0	20	0	0	81	33030
2026-01-13 05:55:53.72	45.71	2.12	-56.3	-75.6	3.8	7.47e-01	0	20	104	0	80	34934
2026-01-13 05:55:54.72	45.64	2.18	-56.3	-75.6	3.8	7.46e-01	0	20	104	0	80	35074
2026-01-13 05:55:55.72	45.56	2.23	-56.3	-75.6	3.8	7.46e-01	0	20	104	0	80	35080
2026-01-13 05:55:56.72	45.48	2.29	-56.3	-75.6	3.8	7.45e-01	0	20	104	0	80	35097
2026-01-13 05:55:57.72	45.40	2.35	-56.3	-75.6	3.8	7.47e-01	0	20	104	0	80	35229
2026-01-13 05:55:58.73	45.32	2.41	-56.3	-75.6	3.8	7.48e-01	0	20	104	0	80	35067
2026-01-13 05:55:59.74	45.24	2.47	-56.3	-75.6	3.8	7.46e-01	0	20	104	0	80	35096
2026-01-13 05:56:00.74	45.16	2.52	-56.3	-75.6	3.8	7.46e-01	0	20	104	0	80	35088
2026-01-13 05:56:01.74	45.08	2.58	-56.3	-75.6	3.8	7.44e-01	0	20	104	0	80	34967
2026-01-13 05:56:02.75	45.00	2.64	-56.3	-75.6	3.8	7.46e-01	0	20	104	0	80	35020
2026-01-13 05:56:03.74	44.92	2.70	-56.3	-75.6	3.8	7.45e-01	0	20	104	0	80	35072
2026-01-13 05:56:04.74	44.84	2.76	-56.3	-75.6	3.8	7.49e-01	0	20	104	0	80	34951
2026-01-13 05:56:05.74	44.76	2.82	-56.3	-75.5	3.8	7.46e-01	0	20	104	0	80	34718
2026-01-13 05:56:06.74	44.67	2.87	-56.3	-75.5	3.8	7.47e-01	0	20	104	0	80	34494
2026-01-13 05:56:07.74	44.59	2.93	-56.3	-75.3	3.8	7.43e-01	0	20	104	0	80	34084
2026-01-13 05:56:08.74	44.51	2.99	-56.3	-75.3	3.8	7.46e-01	0	20	104	0	80	33827
2026-01-13 05:56:09.74	44.43	3.05	-56.3	-75.3	3.8	7.44e-01	0	21	104	0	80	33877
2026-01-13 05:56:10.74	44.34	3.11	-56.3	-75.2	3.8	7.45e-01	0	20	104	0	80	33491
2026-01-13 05:56:11.74	44.26	3.17	-56.3	-75.2	3.8	7.45e-01	0	20	104	0	80	33582
2026-01-13 05:56:12.74	44.17	3.23	-56.3	-75.2	3.8	7.46e-01	0	20	104	0	80	33625
2026-01-13 05:56:13.73	44.09	3.28	-56.3	-75.2	3.8	7.44e-01	0	21	104	0	80	33622
2026-01-13 05:56:14.73	44.01	3.34	-56.3	-75.6	3.8	7.46e-01	0	20	104	0	80	35079
2026-01-13 05:56:15.72	43.92	3.40	-56.3	-75.6	3.8	7.47e-01	0	20	104	0	80	35093
2026-01-13 05:56:16.72	43.83	3.46	-56.3	-75.6	3.8	7.50e-01	0	21	104	0	80	35160
2026-01-13 05:56:17.72	43.75	3.52	-56.3	-75.6	3.8	7.48e-01	0	20	104	0	80	35189
2026-01-13 05:56:18.71	43.66	3.58	-56.3	-75.6	3.8	7.49e-01	0	21	104	0	80	35079
2026-01-13 05:56:19.71	43.58	3.64	-56.3	-75.6	3.8	7.47e-01	0	21	104	0	80	35001
2026-01-13 05:56:20.71	43.49	3.70	-56.3	-75.6	3.8	7.46e-01	0	21	104	0	80	34983
2026-01-13 05:56:21.71	43.40	3.76	-56.3	-75.6	3.8	7.45e-01	0	21	104	0	80	34922
2026-01-13 05:56:22.72	43.31	3.82	-56.3	-75.6	3.8	7.44e-01	0	21	104	0	80	34998
2026-01-13 05:56:23.72	43.22	3.88	-56.3	-75.6	3.8	7.47e-01	0	21	104	0	80	35079
2026-01-13 05:56:24.73	43.13	3.94	-56.3	-75.6	3.8	7.47e-01	0	21	104	0	80	35135
2026-01-13 05:56:25.72	43.04	4.00	-56.3	-75.6	3.8	7.45e-01	0	21	104	0	80	35077
2026-01-13 05:56:26.73	42.95	4.06	-56.3	-75.6	3.8	7.47e-01	0	21	104	0	80	34947
2026-01-13 05:56:27.73	42.86	4.12	-56.3	-75.5	3.8	7.45e-01	0	21	104	0	80	34558
2026-01-13 05:56:28.73	42.77	4.18	-56.3	-75.5	3.8	7.48e-01	0	21	104	0	80	34626
2026-01-13 05:56:29.72	42.68	4.24	-56.3	-75.5	3.8	7.46e-01	0	21	104	0	80	34708
2026-01-13 05:56:30.73	42.59	4.30	-56.3	-75.5	3.8	7.42e-01	0	21	104	0	80	34842
2026-01-13 05:56:31.73	42.50	4.36	-56.3	-75.6	3.8	7.45e-01	0	21	104	0	80	35131
2026-01-13 05:56:32.72	42.41	4.42	-56.3	-75.6	3.8	7.46e-01	0	21	104	0	80	35080
2026-01-13 05:56:33.73	42.31	4.48	-56.3	-75.3	3.8	7.46e-01	0	21	104	0	80	34062
2026-01-13 05:56:34.73	42.22	4.54	-56.2	-74.9	3.8	7.46e-01	0	21	104	0	80	32237
2026-01-13 05:56:35.72	42.13	4.60	-56.1	-74.1	3.8	7.47e-01	0	21	104	0	80	29543
2026-01-13 05:56:36.73	42.03	4.66	-55.9	-73.2	3.8	7.42e-01	0	21	104	0	80	26548
2026-01-13 05:56:37.71	41.94	4.72	-55.8	-72.6	3.8	7.45e-01	0	21	104	0	80	24968
2026-01-13 05:56:38.71	41.84	4.79	-55.5	-71.4	3.8	7.44e-01	0	21	104	0	80	21668
2026-01-13 05:56:39.71	41.75	4.85	-55.4	-70.9	3.8	7.44e-01	0	21	104	0	80	20414
2026-01-13 05:56:40.71	41.65	4.91	-55.2	-70.3	3.8	7.44e-01	0	21	104	0	79	20126
2026-01-13 05:56:41.71	41.55	4.97	-55.0	-69.9	3.8	7.46e-01	0	21	104	0	79	19312
2026-01-13 05:56:42.70	41.46	5.03	-55.0	-69.8	3.8	7.47e-01	0	21	104	0	79	19075
2026-01-13 05:56:43.70	41.36	5.09	-54.8	-69.1	3.8	7.45e-01	0	21	104	0	78	18671
2026-01-13 05:56:44.70	41.26	5.15	-55.4	-70.7	3.8	7.50e-01	0	21	104	0	78	22520
2026-01-13 05:56:45.70	41.16	5.22	-55.0	-69.7	3.8	7.47e-01	0	21	104	0	78	20048
2026-01-13 05:56:46.69	41.07	5.28	-52.7	-65.3	3.9	7.46e-01	0	21	104	0	74	15158
2026-01-13 05:56:47.69	40.97	5.34	-55.7	-72.5	3.8	7.48e-01	0	21	104	0	79	26028
2026-01-13 05:56:48.69	40.87	5.40	-53.7	-66.8	3.8	7.45e-01	0	21	104	0	76	16010
2026-01-13 05:56:49.69	40.77	5.46	-51.8	-64.0	3.8	7.47e-01	0	21	104	0	72	14570
2026-01-13 05:56:50.69	40.67	5.52	-51.7	-63.8	3.8	7.48e-01	0	21	104	0	72	14297
2026-01-13 05:56:51.69	40.57	5.59	-55.0	-69.2	3.8	7.45e-01	0	21	104	0	77	19979
2026-01-13 05:56:52.68	40.46	5.65	-52.1	-64.4	3.8	7.47e-01	0	21	104	0	73	14403
2026-01-13 05:56:53.68	40.36	5.71	-55.7	-72.0	3.8	7.48e-01	0	21	104	0	79	24637
2026-01-13 05:56:54.68	40.26	5.77	-55.1	-69.6	3.8	7.45e-01	0	21	104	0	79	18614
2026-01-13 05:56:55.68	40.16	5.84	-51.8	-63.9	3.9	7.43e-01	0	21	104	0	72	14485
2026-01-13 05:56:56.68	40.05	5.90	-51.8	-64.0	3.8	7.46e-01	0	21	104	0	72	14648
2026-01-13 05:56:57.67	39.95	5.96	-51.6	-63.8	3.8	7.47e-01	0	21	104	0	72	14229
2026-01-13 05:56:58.67	39.85	6.02	-50.9	-62.7	3.8	7.41e-01	0	21	104	0	71	13358
2026-01-13 05:56:59.67	39.74	6.09	-51.3	-63.4	3.8	7.48e-01	0	21	104	0	70	15237
2026-01-13 05:57:00.66	39.64	6.15	-51.8	-64.0	3.8	7.45e-01	0	21	104	0	71	15569
2026-01-13 05:57:01.67	39.53	6.21	-55.8	-71.8	3.8	7.49e-01	0	21	104	0	79	24043
2026-01-13 05:57:02.67	39.42	6.28	-55.2	-69.6	3.8	7.43e-01	0	21	104	0	79	18639
2026-01-13 05:57:03.67	39.31	6.34	-51.5	-63.4	3.9	7.45e-01	0	21	104	0	72	13708
2026-01-13 05:57:04.67	39.21	6.40	-51.7	-63.9	3.8	7.43e-01	0	21	104	0	72	14378
2026-01-13 05:57:05.67	39.10	6.47	-51.6	-63.6	3.8	7.45e-01	0	21	104	0	72	14009
2026-01-13 05:57:06.66	38.99	6.53	-51.2	-63.2	3.8	7.43e-01	0	21	104	0	71	14075
2026-01-13 05:57:07.65	38.88	6.59	-51.5	-63.4	3.8	7.46e-01	0	21	104	0	71	14482
2026-01-13 05:57:08.65	38.77	6.66	-51.8	-63.9	3.8	7.45e-01	0	21	104	0	71	15362
2026-01-13 05:57:09.66	38.66	6.72	-55.5	-70.7	3.8	7.47e-01	0	21	104	0	78	22504
2026-01-13 05:57:10.67	38.55	6.78	-55.2	-69.6	3.8	7.44e-01	0	21	104	0	79	18674
2026-01-13 05:57:11.67	38.44	6.85	-51.4	-63.3	3.8	7.44e-01	0	21	104	0	72	13546
2026-01-13 05:57:12.67	38.32	6.91	-51.5	-63.5	3.8	7.46e-01	0	21	104	0	72	13818
2026-01-13 05:57:13.67	38.21	6.98	-51.5	-63.6	3.8	7.48e-01	0	21	104	0	72	13906
2026-01-13 05:57:14.67	38.10	7.04	-51.6	-63.7	3.8	7.44e-01	0	21	104	0	72	14066
2026-01-13 05:57:15.67	37.98	7.10	-51.6	-63.7	3.8	7.43e-01	0	21	104	0	72	14056
2026-01-13 05:57:16.66	37.87	7.17	-51.9	-64.1	3.8	7.49e-01	0	21	104	0	72	14758
2026-01-13 05:57:17.66	37.76	7.23	-55.8	-71.6	3.7	7.47e-01	0	21	104	0	79	23522
2026-01-13 05:57:18.65	37.64	7.30	-55.1	-69.4	3.9	7.44e-01	0	22	104	0	79	18178
2026-01-13 05:57:19.66	37.53	7.36	-51.5	-63.5	3.8	7.44e-01	0	21	104	0	72	13747
2026-01-13 05:57:20.66	37.41	7.43	-51.6	-63.7	3.8	7.46e-01	0	22	104	0	72	14100
2026-01-13 05:57:21.66	37.29	7.49	-51.4	-63.4	3.9	7.45e-01	0	21	104	0	72	13609
2026-01-13 05:57:22.66	37.17	7.55	-51.5	-63.5	3.8	7.44e-01	0	21	104	0	71	14697
2026-01-13 05:57:23.65	37.06	7.62	-50.7	-62.5	3.8	7.47e-01	0	21	104	0	70	13745
2026-01-13 05:57:24.66	36.94	7.68	-51.5	-63.5	3.8	7.46e-01	0	21	104	0	70	15466
2026-01-13 05:57:25.66	36.82	7.75	-55.6	-70.6	3.8	7.48e-01	0	21	104	0	78	22100
2026-01-13 05:57:26.66	36.70	7.81	-55.1	-69.3	3.8	7.43e-01	0	22	104	0	79	18087
2026-01-13 05:57:27.66	36.58	7.88	-51.3	-63.2	3.9	7.48e-01	0	22	104	0	71	14114
2026-01-13 05:57:28.66	36.45	7.94	-51.4	-63.4	3.8	7.46e-01	0	22	104	0	71	14519
2026-01-13 05:57:29.66	36.33	8.01	-51.3	-63.2	3.8	7.44e-01	0	21	104	0	71	14181
2026-01-13 05:57:30.67	36.21	8.08	-51.2	-63.2	3.8	7.45e-01	0	22	104	0	71	14088
2026-01-13 05:57:31.67	36.09	8.14	-51.1	-63.0	3.8	7.41e-01	0	21	104	0	71	13745
2026-01-13 05:57:32.67	35.96	8.21	-51.9	-64.0	3.8	7.45e-01	0	21	104	0	71	15426
2026-01-13 05:57:33.67	35.84	8.27	-55.9	-71.5	3.7	7.47e-01	0	22	104	0	79	23082
2026-01-13 05:57:34.66	35.71	8.34	-55.3	-69.7	3.8	7.45e-01	0	21	104	0	79	18842
2026-01-13 05:57:35.66	35.59	8.40	-51.1	-63.0	3.8	7.46e-01	0	21	104	0	71	13781
2026-01-13 05:57:36.66	35.46	8.47	-51.2	-63.1	3.8	7.46e-01	0	21	104	0	71	13892
2026-01-13 05:57:37.66	35.33	8.53	-51.1	-63.0	3.8	7.45e-01	0	21	104	0	71	13799
2026-01-13 05:57:38.66	35.21	8.60	-51.0	-62.9	3.8	7.48e-01	0	22	104	0	71	13577
2026-01-13 05:57:39.66	35.08	8.67	-50.7	-62.5	3.8	7.47e-01	0	21	104	0	70	13727
2026-01-13 05:57:40.67	34.95	8.73	-51.5	-63.5	3.8	7.45e-01	0	22	104	0	70	15527
2026-01-13 05:57:41.67	34.82	8.80	-55.9	-71.3	3.8	7.44e-01	0	22	104	0	79	22650
2026-01-13 05:57:42.67	34.69	8.86	-55.2	-69.4	3.8	7.48e-01	0	22	104	0	79	18136
2026-01-13 05:57:43.66	34.56	8.93	-50.9	-62.6	3.8	7.46e-01	0	22	104	0	71	13223
2026-01-13 05:57:44.67	34.43	9.00	-50.9	-62.7	3.9	7.45e-01	0	21	104	0	70	14103
2026-01-13 05:57:45.66	34.30	9.06	-50.7	-62.5	3.8	7.46e-01	0	22	104	0	70	13811
2026-01-13 05:57:46.66	34.16	9.13	-50.5	-62.2	3.9	7.45e-01	0	22	104	0	70	13378
2026-01-13 05:57:47.66	34.03	9.19	-50.2	-62.0	3.8	7.44e-01	0	22	104	0	69	13823
2026-01-13 05:57:48.65	33.90	9.26	-51.3	-63.5	3.8	7.47e-01	0	22	104	0	70	15406
2026-01-13 05:57:49.65	33.76	9.33	-53.2	-69.6	3.8	7.47e-01	0	21	104	0	74	24872
2026-01-13 05:57:50.65	33.63	9.39	-54.7	-69.1	3.9	7.49e-01	0	22	104	0	77	19681
2026-01-13 05:57:51.65	33.49	9.46	-50.9	-62.9	3.9	7.46e-01	0	22	104	0	71	13655
2026-01-13 05:57:52.64	33.35	9.53	-50.8	-62.7	3.8	7.43e-01	0	21	104	0	70	14159
2026-01-13 05:57:53.63	33.22	9.59	-50.9	-62.8	3.8	7.48e-01	0	22	104	0	70	14278
2026-01-13 05:57:54.62	33.08	9.66	-50.3	-62.0	3.9	7.45e-01	0	21	104	0	69	13853
2026-01-13 05:57:55.61	32.94	9.72	-50.0	-61.6	3.8	7.44e-01	0	22	104	0	69	13130
2026-01-13 05:57:56.61	32.80	9.79	-51.6	-63.4	3.8	7.45e-01	0	22	104	0	70	15373
2026-01-13 05:57:57.61	32.66	9.86	-55.1	-69.1	3.8	7.50e-01	0	22	104	0	77	19693
2026-01-13 05:57:58.60	32.52	9.92	-55.1	-68.9	3.9	7.44e-01	0	22	104	0	79	17146
2026-01-13 05:57:59.60	32.38	9.99	-51.2	-63.0	3.9	7.43e-01	0	22	104	0	71	13733
2026-01-13 05:58:00.60	32.24	10.06	-50.8	-62.5	3.9	7.44e-01	0	22	104	0	70	13856
2026-01-13 05:58:01.59	32.10	10.12	-50.5	-62.2	3.8	7.46e-01	0	21	104	0	70	13330
2026-01-13 05:58:02.59	31.95	10.19	-50.2	-61.7	3.8	7.44e-01	0	22	104	0	69	13401
2026-01-13 05:58:03.59	31.81	10.26	-50.2	-61.8	3.8	7.44e-01	0	21	104	0	69	13491
2026-01-13 05:58:04.58	31.67	10.32	-51.3	-63.1	3.8	7.43e-01	0	22	104	0	70	14836
2026-01-13 05:58:05.58	31.52	10.39	-55.0	-68.9	3.8	7.46e-01	0	21	104	0	77	19231
2026-01-13 05:58:06.58	31.37	10.46	-55.0	-68.8	3.9	7.44e-01	0	22	104	0	79	17000
2026-01-13 05:58:07.58	31.22	10.53	-51.0	-62.8	3.8	7.45e-01	0	21	104	0	71	13516
2026-01-13 05:58:08.58	31.08	10.59	-50.6	-62.3	3.8	7.43e-01	0	22	104	0	70	13557
2026-01-13 05:58:09.58	30.93	10.66	-50.5	-62.2	3.8	7.46e-01	0	21	104	0	70	13308
2026-01-13 05:58:10.58	30.78	10.73	-49.8	-61.2	3.8	7.44e-01	0	22	104	0	68	13388
2026-01-13 05:58:11.58	30.63	10.79	-49.4	-60.8	3.8	7.43e-01	0	22	104	0	68	12773
2026-01-13 05:58:12.58	30.47	10.86	-50.5	-62.2	3.8	7.46e-01	0	22	104	0	68	14882
2026-01-13 05:58:13.57	30.32	10.93	-55.0	-68.8	3.8	7.43e-01	0	22	104	0	77	19095
2026-01-13 05:58:14.57	30.17	11.00	-55.0	-68.7	3.9	7.44e-01	0	22	104	0	79	16847
2026-01-13 05:58:15.57	30.02	11.06	-51.4	-63.3	3.9	7.45e-01	0	22	104	0	72	13427
2026-01-13 05:58:16.58	29.86	11.13	-51.0	-62.8	3.8	7.42e-01	0	22	104	0	70	14263
2026-01-13 05:58:17.58	29.71	11.20	-51.0	-62.8	3.9	7.43e-01	0	22	104	0	70	14252
2026-01-13 05:58:18.58	29.55	11.27	-50.2	-61.8	3.8	7.46e-01	0	22	104	0	69	13555
2026-01-13 05:58:19.58	29.39	11.33	-49.5	-61.0	3.8	7.41e-01	0	22	104	0	68	13074
2026-01-13 05:58:20.57	29.24	11.40	-50.6	-62.3	3.8	7.45e-01	0	22	104	0	68	15103
2026-01-13 05:58:21.57	29.08	11.47	-54.9	-68.5	3.8	7.46e-01	0	22	104	0	77	18329
2026-01-13 05:58:22.57	28.92	11.53	-55.0	-68.7	3.9	7.45e-01	0	22	104	0	79	16822
2026-01-13 05:58:23.56	28.76	11.60	-51.1	-62.9	3.9	7.44e-01	0	22	104	0	71	13625
2026-01-13 05:58:24.56	28.60	11.67	-50.8	-62.5	3.8	7.43e-01	0	22	104	0	70	13759
2026-01-13 05:58:25.56	28.44	11.74	-50.7	-62.4	3.8	7.45e-01	0	21	104	0	70	13650
2026-01-13 05:58:26.56	28.28	11.80	-50.5	-62.2	3.8	7.46e-01	0	22	104	0	70	13281
2026-01-13 05:58:27.56	28.11	11.87	-50.9	-62.5	3.9	7.44e-01	0	22	104	0	70	13873
2026-01-13 05:58:28.56	27.95	11.94	-51.3	-63.1	3.8	7.46e-01	0	22	104	0	70	14800
2026-01-13 05:58:29.56	27.78	12.01	-54.5	-67.7	3.8	7.48e-01	0	22	104	0	76	17860
2026-01-13 05:58:30.55	27.62	12.07	-55.0	-68.6	3.8	7.47e-01	0	22	104	0	79	16595
2026-01-13 05:58:31.55	27.45	12.14	-51.5	-63.4	3.9	7.48e-01	0	22	104	0	72	13710
2026-01-13 05:58:32.55	27.29	12.21	-50.6	-62.3	3.9	7.46e-01	0	22	104	0	70	13429
2026-01-13 05:58:33.55	27.12	12.27	-50.6	-62.2	3.8	7.41e-01	0	22	104	0	70	13313
2026-01-13 05:58:34.55	26.95	12.34	-50.1	-61.6	3.8	7.45e-01	0	22	104	0	69	13187
2026-01-13 05:58:35.56	26.78	12.41	-50.0	-61.6	3.8	7.45e-01	0	22	104	0	68	13933
2026-01-13 05:58:36.56	26.61	12.48	-51.2	-63.2	3.8	7.47e-01	0	22	104	0	70	14905
2026-01-13 05:58:37.56	26.43	12.54	-54.6	-67.8	3.8	7.47e-01	0	22	104	0	76	17996
2026-01-13 05:58:38.55	26.26	12.61	-55.1	-68.7	3.9	7.46e-01	0	22	104	0	79	16887
2026-01-13 05:58:39.55	26.09	12.68	-51.5	-63.4	3.9	7.45e-01	0	22	104	0	72	13646
2026-01-13 05:58:40.55	25.92	12.74	-50.6	-62.2	3.8	7.42e-01	0	22	104	0	70	13293
2026-01-13 05:58:41.55	25.74	12.81	-50.7	-62.3	3.9	7.44e-01	0	22	104	0	70	13550
2026-01-13 05:58:42.54	25.57	12.88	-50.5	-62.1	3.8	7.48e-01	0	22	104	0	70	13253
2026-01-13 05:58:43.54	25.39	12.94	-49.8	-61.2	3.9	7.45e-01	0	22	104	0	68	13409
2026-01-13 05:58:44.53	25.21	13.01	-50.5	-62.1	3.8	7.45e-01	0	22	104	0	68	14860
2026-01-13 05:58:45.53	25.03	13.08	-54.5	-67.7	3.8	7.47e-01	0	22	104	0	76	17727
2026-01-13 05:58:46.53	24.86	13.14	-55.0	-68.7	3.8	7.46e-01	0	22	104	0	79	16730
2026-01-13 05:58:47.52	24.68	13.21	-51.6	-63.4	3.9	7.43e-01	0	22	104	0	72	13684
2026-01-13 05:58:48.52	24.50	13.28	-50.4	-62.0	3.9	7.45e-01	0	22	104	0	69	13844
2026-01-13 05:58:49.51	24.32	13.34	-50.1	-61.7	3.8	7.43e-01	0	22	104	0	69	13291
2026-01-13 05:58:50.51	24.13	13.41	-49.6	-61.1	3.8	7.44e-01	0	22	104	0	68	13201
2026-01-13 05:58:51.51	23.95	13.47	-49.1	-60.5	3.9	7.46e-01	0	22	104	0	67	13028
2026-01-13 05:58:52.50	23.77	13.54	-50.1	-61.6	3.8	7.45e-01	0	22	104	0	67	14823
2026-01-13 05:58:53.51	23.58	13.61	-53.8	-66.6	3.8	7.47e-01	0	22	104	0	75	16571
2026-01-13 05:58:54.52	23.39	13.67	-55.0	-68.6	3.9	7.48e-01	0	22	104	0	79	16551
2026-01-13 05:58:55.52	23.20	13.74	-51.4	-63.2	3.9	7.46e-01	0	22	104	0	72	13312
2026-01-13 05:58:56.52	23.01	13.81	-50.2	-61.7	3.9	7.46e-01	0	22	104	0	69	13392
2026-01-13 05:58:57.52	22.82	13.87	-50.1	-61.5	3.9	7.48e-01	0	22	104	0	69	13096
2026-01-13 05:58:58.52	22.63	13.94	-49.5	-61.0	3.8	7.45e-01	0	22	104	0	68	12987
2026-01-13 05:58:59.52	22.44	14.00	-49.2	-60.6	3.9	7.49e-01	0	22	104	0	67	13204
2026-01-13 05:59:00.52	22.25	14.07	-50.4	-62.1	3.8	7.51e-01	0	22	104	0	68	14757
2026-01-13 05:59:01.51	22.06	14.13	-54.4	-67.6	3.8	7.47e-01	0	22	104	0	76	17495
2026-01-13 05:59:02.51	21.87	14.20	-55.1	-68.7	3.8	7.45e-01	0	22	104	0	79	16835
2026-01-13 05:59:03.50	21.67	14.26	-52.1	-64.1	3.9	7.46e-01	0	22	104	0	73	13928
2026-01-13 05:59:04.50	21.48	14.33	-50.2	-61.7	3.8	7.47e-01	0	22	104	0	69	13363
2026-01-13 05:59:05.50	21.28	14.39	-50.3	-61.8	3.8	7.45e-01	0	22	104	0	69	13498
2026-01-13 05:59:06.49	21.08	14.46	-49.5	-61.0	3.9	7.45e-01	0	22	104	0	68	13002
2026-01-13 05:59:07.49	20.89	14.52	-49.1	-60.5	3.8	7.43e-01	0	22	104	0	67	13012
2026-01-13 05:59:08.49	20.69	14.59	-50.1	-61.6	3.9	7.44e-01	0	22	104	0	67	14839
2026-01-13 05:59:09.49	20.49	14.65	-53.8	-66.6	3.8	7.42e-01	0	22	104	0	75	16660
2026-01-13 05:59:10.49	20.28	14.71	-55.2	-68.9	3.9	7.45e-01	0	22	104	0	79	17172
2026-01-13 05:59:11.49	20.08	14.78	-52.3	-64.5	3.9	7.43e-01	0	22	104	0	74	13834
2026-01-13 05:59:12.48	19.88	14.84	-50.2	-61.7	3.8	7.45e-01	0	22	104	0	69	13383
2026-01-13 05:59:13.47	19.68	14.91	-50.2	-61.7	3.8	7.44e-01	0	22	104	0	69	13362
2026-01-13 05:59:14.47	19.47	14.97	-50.0	-61.6	3.8	7.44e-01	0	22	104	0	68	13938
2026-01-13 05:59:15.47	19.27	15.03	-49.5	-60.9	3.9	7.46e-01	0	22	104	0	68	12822
2026-01-13 05:59:16.46	19.06	15.09	-51.0	-62.6	3.8	7.45e-01	0	22	104	0	69	14754
2026-01-13 05:59:17.46	18.85	15.16	-53.9	-66.6	3.8	7.41e-01	0	22	104	0	76	15732
2026-01-13 05:59:18.46	18.65	15.22	-55.0	-68.5	3.9	7.45e-01	0	22	104	0	79	16444
2026-01-13 05:59:19.45	18.44	15.28	-53.3	-65.9	3.8	7.46e-01	0	22	104	0	74	16180
2026-01-13 05:59:20.45	18.23	15.35	-54.8	-68.3	3.9	7.42e-01	0	22	104	0	79	16000
2026-01-13 05:59:21.44	18.02	15.41	-51.8	-63.7	3.8	7.42e-01	0	22	104	0	72	14079
2026-01-13 05:59:22.44	17.80	15.47	-51.3	-63.0	3.8	7.47e-01	0	22	104	0	71	13797
2026-01-13 05:59:23.44	17.59	15.53	-50.9	-62.6	3.8	7.45e-01	0	22	104	0	70	13928
2026-01-13 05:59:24.44	17.38	15.59	-52.7	-65.0	3.8	7.45e-01	0	22	104	0	74	14545
2026-01-13 05:59:25.43	17.16	15.65	-53.4	-65.9	3.8	7.46e-01	0	22	104	0	74	16201
2026-01-13 05:59:26.43	16.95	15.71	-55.3	-68.7	3.9	7.46e-01	0	22	104	0	79	16855
2026-01-13 05:59:27.42	16.73	15.77	-53.1	-65.3	3.9	7.44e-01	0	22	104	0	75	14252
2026-01-13 05:59:28.41	16.51	15.84	-49.9	-61.4	3.8	7.45e-01	0	22	104	0	68	13662
2026-01-13 05:59:29.41	16.29	15.90	-49.7	-61.2	3.8	7.46e-01	0	22	104	0	68	13326
2026-01-13 05:59:30.41	16.07	15.96	-49.2	-60.6	3.9	7.44e-01	0	22	104	0	67	13167
2026-01-13 05:59:31.42	15.85	16.02	-49.1	-60.5	3.9	7.44e-01	0	22	104	0	67	12989
2026-01-13 05:59:32.42	15.63	16.08	-50.2	-62.0	3.9	7.46e-01	0	22	104	0	68	14636
2026-01-13 05:59:33.42	15.41	16.14	-53.4	-65.8	3.9	7.46e-01	0	22	104	0	74	16119
2026-01-13 05:59:34.42	15.18	16.20	-55.3	-68.9	3.9	7.44e-01	0	22	104	0	79	17252
2026-01-13 05:59:35.43	14.95	16.25	-53.1	-65.4	3.9	7.45e-01	0	22	104	0	75	14374
2026-01-13 05:59:36.42	14.73	16.31	-49.8	-61.3	3.9	7.45e-01	0	22	104	0	68	13418
2026-01-13 05:59:37.41	14.51	16.37	-49.9	-61.4	3.8	7.48e-01	0	22	104	0	68	13599
2026-01-13 05:59:38.41	14.28	16.43	-49.8	-61.3	3.8	7.46e-01	0	22	104	0	68	13517
2026-01-13 05:59:39.42	14.05	16.49	-49.3	-60.6	3.9	7.43e-01	0	21	104	0	67	13254
2026-01-13 05:59:40.42	13.82	16.54	-50.4	-62.0	3.8	7.43e-01	0	22	104	0	68	14645
2026-01-13 05:59:41.43	13.58	16.60	-53.8	-66.6	3.9	7.46e-01	0	22	104	0	75	16553
2026-01-13 05:59:42.43	13.35	16.66	-54.6	-67.7	3.9	7.47e-01	0	22	104	0	78	15873
2026-01-13 05:59:43.43	13.12	16.72	-52.8	-65.1	3.8	7.45e-01	0	22	104	0	73	15681
2026-01-13 05:59:44.43	12.88	16.77	-54.5	-67.6	3.9	7.48e-01	0	22	104	0	78	15659
2026-01-13 05:59:45.43	12.65	16.83	-50.4	-62.0	3.8	7.48e-01	0	22	104	0	69	13790
2026-01-13 05:59:46.43	12.41	16.88	-50.3	-61.8	3.9	7.44e-01	0	22	104	0	69	13475
2026-01-13 05:59:47.43	12.18	16.94	-50.1	-61.6	3.8	7.47e-01	0	22	104	0	68	13936
2026-01-13 05:59:48.42	11.94	16.99	-52.5	-64.7	3.9	7.44e-01	0	22	104	0	74	14105
2026-01-13 05:59:49.42	11.70	17.05	-53.5	-66.0	3.8	7.47e-01	0	22	104	0	74	16453
2026-01-13 05:59:50.41	11.47	17.10	-55.5	-69.7	3.9	7.49e-01	0	22	104	0	80	17764
2026-01-13 05:59:51.41	11.23	17.16	-54.1	-66.9	3.9	7.46e-01	0	22	104	0	77	15357
2026-01-13 05:59:52.41	10.99	17.21	-49.8	-61.2	3.8	7.47e-01	0	22	104	0	68	13398
2026-01-13 05:59:53.42	10.74	17.26	-49.6	-61.1	3.8	7.41e-01	0	22	104	0	68	13130
2026-01-13 05:59:54.41	10.50	17.32	-49.2	-60.6	3.8	7.46e-01	0	22	104	0	67	13170
2026-01-13 05:59:55.41	10.26	17.37	-49.1	-60.5	3.9	7.42e-01	0	22	104	0	67	12991
2026-01-13 05:59:56.42	10.01	17.42	-50.4	-61.9	3.8	7.45e-01	0	22	104	0	68	14506
2026-01-13 05:59:57.42	9.77	17.47	-53.5	-65.9	3.8	7.44e-01	0	22	104	0	74	16289
2026-01-13 05:59:58.43	9.52	17.52	-55.5	-69.5	3.9	7.43e-01	0	22	104	0	80	17428
2026-01-13 05:59:59.42	9.27	17.57	-53.5	-66.0	3.9	7.42e-01	0	22	104	0	76	14678
2026-01-13 06:00:00.43	9.02	17.63	-50.5	-62.1	3.8	7.44e-01	0	22	104	0	70	13252
2026-01-13 06:00:01.42	8.77	17.68	-50.6	-62.1	3.8	7.45e-01	0	22	104	0	70	13229
2026-01-13 06:00:02.42	8.52	17.72	-50.7	-62.2	3.9	7.47e-01	0	22	104	0	70	13312
2026-01-13 06:00:03.42	8.27	17.77	-49.9	-61.3	3.9	7.45e-01	0	22	104	0	69	12756
2026-01-13 06:00:04.41	8.02	17.82	-50.7	-62.5	3.8	7.50e-01	0	22	104	0	69	14620
2026-01-13 06:00:05.41	7.77	17.87	-53.6	-66.1	3.8	7.44e-01	0	22	104	0	75	15629
2026-01-13 06:00:06.40	7.52	17.92	-55.1	-68.7	3.9	7.47e-01	0	22	104	0	79	16829
2026-01-13 06:00:07.40	7.26	17.97	-52.1	-64.0	3.8	7.45e-01	0	22	104	0	71	15477
2026-01-13 06:00:08.40	7.01	18.01	-55.0	-68.5	3.9	7.47e-01	0	22	104	0	79	16407
2026-01-13 06:00:09.40	6.75	18.06	-50.9	-62.6	3.8	7.43e-01	0	22	104	0	70	13906
2026-01-13 06:00:10.41	6.49	18.11	-50.5	-62.1	3.9	7.42e-01	0	22	104	0	70	13174
2026-01-13 06:00:11.40	6.24	18.15	-50.0	-61.4	3.8	7.46e-01	0	22	104	0	69	12925
2026-01-13 06:00:12.40	5.98	18.20	-52.6	-64.8	3.8	7.46e-01	0	22	104	0	74	14333
2026-01-13 06:00:13.41	5.72	18.24	-53.1	-65.3	3.8	7.44e-01	0	22	104	0	73	16048
2026-01-13 06:00:14.41	5.46	18.28	-55.6	-69.7	3.9	7.51e-01	0	22	104	0	80	17820
2026-01-13 06:00:15.41	5.20	18.33	-54.5	-67.6	3.9	7.43e-01	0	22	104	0	78	15669
2026-01-13 06:00:16.41	4.93	18.37	-49.8	-61.2	3.9	7.47e-01	0	22	104	0	68	13402
2026-01-13 06:00:17.41	4.67	18.41	-49.8	-61.3	3.9	7.46e-01	0	22	104	0	68	13435
2026-01-13 06:00:18.40	4.41	18.45	-49.9	-61.4	3.8	7.44e-01	0	22	104	0	68	13573
2026-01-13 06:00:19.40	4.15	18.50	-49.4	-60.9	3.8	7.43e-01	0	22	104	0	68	12811
2026-01-13 06:00:20.40	3.88	18.54	-50.0	-61.5	3.8	7.48e-01	0	22	104	0	68	13769
2026-01-13 06:00:21.39	3.62	18.58	-53.5	-66.0	3.8	7.44e-01	0	22	104	0	74	16461
2026-01-13 06:00:22.40	3.35	18.62	-55.3	-69.1	3.9	7.45e-01	0	22	104	0	80	16633
2026-01-13 06:00:23.40	3.08	18.66	-52.3	-64.5	3.8	7.44e-01	0	22	104	0	72	15434
2026-01-13 06:00:24.40	2.82	18.70	-55.0	-68.3	3.9	7.43e-01	0	22	104	0	79	16127
2026-01-13 06:00:25.41	2.54	18.73	-50.9	-62.5	3.8	7.46e-01	0	22	104	0	70	13834
2026-01-13 06:00:26.41	2.27	18.77	-50.6	-62.2	3.9	7.47e-01	0	22	104	0	70	13289
2026-01-13 06:00:27.41	2.00	18.81	-50.2	-61.7	3.8	7.47e-01	0	22	104	0	69	13305
2026-01-13 06:00:28.40	1.74	18.85	-53.0	-65.3	3.9	7.42e-01	0	22	104	0	75	14342
2026-01-13 06:00:29.41	1.46	18.88	-53.3	-65.6	3.8	7.46e-01	0	22	104	0	74	15597
2026-01-13 06:00:30.40	1.19	18.92	-55.7	-69.8	3.9	7.45e-01	0	22	104	0	80	17892
2026-01-13 06:00:31.40	0.92	18.95	-54.6	-67.7	3.9	7.45e-01	0	22	104	0	78	15800
2026-01-13 06:00:32.40	0.65	18.99	-49.7	-61.2	3.9	7.47e-01	0	22	104	0	68	13329
2026-01-13 06:00:33.39	0.37	19.02	-49.7	-61.2	3.9	7.46e-01	0	22	104	0	68	13342
2026-01-13 06:00:34.39	0.10	19.05	-49.7	-61.1	3.9	7.43e-01	0	22	104	0	68	13162
2026-01-13 06:00:35.39	359.82	19.08	-49.4	-60.8	3.8	7.44e-01	0	22	104	0	68	12742
2026-01-13 06:00:36.39	359.55	19.12	-49.9	-61.3	3.9	7.46e-01	0	22	104	0	68	13502
2026-01-13 06:00:37.39	359.27	19.15	-53.6	-66.0	3.8	7.50e-01	0	22	104	0	74	16476
2026-01-13 06:00:38.38	359.00	19.18	-55.1	-68.6	3.9	7.45e-01	0	22	104	0	79	16556
2026-01-13 06:00:39.38	358.72	19.21	-51.8	-63.7	3.8	7.47e-01	0	22	104	0	71	14998
2026-01-13 06:00:40.37	358.44	19.24	-54.7	-67.8	3.9	7.44e-01	0	22	104	0	78	15951
2026-01-13 06:00:41.37	358.17	19.26	-50.1	-61.6	3.8	7.45e-01	0	22	104	0	69	13191
2026-01-13 06:00:42.37	357.89	19.29	-50.0	-61.5	3.9	7.45e-01	0	22	104	0	69	12981
2026-01-13 06:00:43.37	357.61	19.32	-50.0	-61.4	3.8	7.46e-01	0	22	104	0	68	13665
2026-01-13 06:00:44.37	357.33	19.35	-53.1	-65.4	3.8	7.48e-01	0	22	104	0	75	14449
2026-01-13 06:00:45.36	357.05	19.37	-53.4	-65.8	3.8	7.48e-01	0	22	104	0	74	15951
2026-01-13 06:00:46.36	356.77	19.40	-55.8	-69.9	3.9	7.44e-01	0	22	104	0	80	18257
2026-01-13 06:00:47.36	356.48	19.42	-54.9	-68.3	3.9	7.42e-01	0	22	104	0	79	16080
2026-01-13 06:00:48.36	356.20	19.45	-49.8	-61.3	3.8	7.43e-01	0	22	104	0	68	13430
2026-01-13 06:00:49.36	355.92	19.47	-49.7	-61.1	3.8	7.42e-01	0	22	104	0	68	13240
2026-01-13 06:00:50.34	355.64	19.49	-49.5	-60.9	3.8	7.42e-01	0	22	104	0	68	12825
2026-01-13 06:00:51.34	355.36	19.51	-49.6	-61.0	3.8	7.46e-01	0	22	104	0	68	13065
2026-01-13 06:00:52.33	355.07	19.53	-51.3	-63.1	3.8	7.46e-01	0	22	104	0	70	14755
2026-01-13 06:00:53.33	354.79	19.56	-53.1	-65.3	3.8	7.45e-01	0	22	104	0	73	15976
2026-01-13 06:00:54.33	354.50	19.58	-56.0	-70.6	3.9	7.42e-01	0	22	104	0	81	18583
2026-01-13 06:00:55.33	354.22	19.59	-55.4	-69.2	3.9	7.43e-01	0	22	104	0	80	16748
2026-01-13 06:00:56.33	353.93	19.61	-50.3	-61.9	3.8	7.47e-01	0	22	104	0	69	13591
2026-01-13 06:00:57.33	353.65	19.63	-50.4	-62.0	3.9	7.47e-01	0	22	104	0	69	13796
2026-01-13 06:00:58.32	353.36	19.65	-50.1	-61.6	3.9	7.46e-01	0	22	104	0	69	13258
2026-01-13 06:00:59.32	353.08	19.66	-49.6	-60.9	3.8	7.41e-01	0	22	104	0	68	12958
2026-01-13 06:01:00.32	352.79	19.68	-50.2	-61.7	3.8	7.44e-01	0	22	104	0	68	14052
2026-01-13 06:01:01.33	352.50	19.70	-53.4	-65.7	3.8	7.43e-01	0	22	104	0	74	15904
2026-01-13 06:01:02.32	352.21	19.71	-55.6	-69.6	3.9	7.48e-01	0	22	104	0	80	17665
2026-01-13 06:01:03.32	351.93	19.72	-51.1	-62.8	3.8	7.46e-01	0	22	104	0	69	15151
2026-01-13 06:01:04.32	351.64	19.74	-55.2	-68.7	3.8	7.45e-01	0	22	104	0	79	16728
2026-01-13 06:01:05.32	351.35	19.75	-50.2	-61.6	3.8	7.46e-01	0	22	104	0	69	13189
2026-01-13 06:01:06.31	351.06	19.76	-50.0	-61.4	3.9	7.44e-01	0	22	104	0	69	12908
2026-01-13 06:01:07.31	350.77	19.77	-50.2	-61.8	3.8	7.44e-01	0	22	104	0	68	14222
2026-01-13 06:01:08.32	350.48	19.78	-54.4	-67.3	3.9	7.43e-01	0	22	104	0	78	15192
2026-01-13 06:01:09.32	350.19	19.79	-53.3	-65.6	3.8	7.50e-01	0	22	104	0	75	14755
2026-01-13 06:01:10.31	349.90	19.80	-56.1	-70.8	3.9	7.41e-01	0	22	104	0	81	18961
2026-01-13 06:01:11.32	349.61	19.81	-55.6	-69.6	3.9	7.42e-01	0	22	104	0	80	17535
2026-01-13 06:01:12.32	349.32	19.81	-50.3	-61.8	3.8	7.44e-01	0	22	104	0	69	13431
2026-01-13 06:01:13.33	349.03	19.82	-50.3	-61.7	3.9	7.44e-01	0	22	104	0	69	13382
2026-01-13 06:01:14.33	348.74	19.82	-50.1	-61.5	3.8	7.51e-01	0	22	104	0	69	13086
2026-01-13 06:01:15.34	348.45	19.83	-49.7	-61.1	3.8	7.48e-01	0	22	104	0	68	13240
2026-01-13 06:01:16.34	348.16	19.83	-50.1	-61.6	3.8	7.45e-01	0	22	104	0	68	13967
2026-01-13 06:01:17.34	347.86	19.84	-53.4	-65.8	3.9	7.47e-01	0	22	104	0	74	15992
2026-01-13 06:01:18.34	347.57	19.84	-55.7	-69.7	3.9	7.47e-01	0	22	104	0	80	17744
2026-01-13 06:01:19.34	347.28	19.84	-50.9	-62.5	3.8	7.41e-01	0	22	104	0	69	14689
2026-01-13 06:01:20.34	346.99	19.84	-55.2	-68.7	3.8	7.44e-01	0	22	104	0	79	16701
2026-01-13 06:01:21.34	346.70	19.84	-49.8	-61.2	3.8	7.40e-01	0	22	104	0	68	13324
2026-01-13 06:01:22.34	346.41	19.84	-49.8	-61.3	3.8	7.45e-01	0	22	104	0	68	13452
2026-01-13 06:01:23.34	346.12	19.84	-50.0	-61.5	3.8	7.46e-01	0	22	104	0	68	13753
2026-01-13 06:01:24.33	345.83	19.84	-52.9	-65.2	3.8	7.46e-01	0	22	104	0	75	14070
2026-01-13 06:01:25.33	345.54	19.84	-53.4	-65.7	3.8	7.48e-01	0	22	104	0	74	15935
2026-01-13 06:01:26.32	345.25	19.83	-55.9	-70.4	3.9	7.46e-01	0	22	104	0	81	18151
2026-01-13 06:01:27.32	344.96	19.83	-55.3	-69.7	4.0	7.43e-01	0	22	104	0	80	17719
2026-01-13 06:01:28.33	344.67	19.82	-49.7	-61.1	3.9	7.45e-01	0	22	104	0	68	13172
2026-01-13 06:01:29.33	344.38	19.82	-49.6	-61.0	3.8	7.51e-01	0	22	104	0	68	12978
2026-01-13 06:01:30.33	344.09	19.81	-49.6	-61.0	3.8	7.44e-01	0	22	104	0	68	13034
2026-01-13 06:01:31.33	343.80	19.81	-49.6	-61.1	3.8	7.46e-01	0	22	104	0	68	13201
2026-01-13 06:01:32.33	343.51	19.80	-50.2	-61.7	3.8	7.45e-01	0	22	104	0	68	14144
2026-01-13 06:01:33.33	343.22	19.79	-53.3	-65.7	3.8	7.45e-01	0	22	104	0	74	15822
2026-01-13 06:01:34.33	342.93	19.78	-55.7	-69.6	3.9	7.48e-01	0	22	104	0	80	17649
2026-01-13 06:01:35.33	342.64	19.77	-50.8	-62.5	3.8	7.43e-01	0	22	104	0	69	14561
2026-01-13 06:01:36.33	342.35	19.76	-55.2	-68.7	3.8	7.45e-01	0	22	104	0	79	16765
2026-01-13 06:01:37.33	342.06	19.75	-49.9	-61.3	3.8	7.48e-01	0	22	104	0	69	12705
2026-01-13 06:01:38.33	341.77	19.74	-49.9	-61.3	3.8	7.46e-01	0	22	104	0	68	13551
2026-01-13 06:01:39.33	341.49	19.72	-50.4	-62.0	3.8	7.48e-01	0	22	104	0	68	14598
2026-01-13 06:01:40.33	341.20	19.71	-54.5	-67.5	3.9	7.44e-01	0	22	104	0	78	15437
2026-01-13 06:01:41.33	340.91	19.70	-53.5	-65.9	3.8	7.45e-01	0	22	104	0	75	15248
2026-01-13 06:01:42.33	340.62	19.68	-56.1	-70.7	3.9	7.44e-01	0	22	104	0	81	18898
2026-01-13 06:01:43.33	340.34	19.67	-55.7	-69.6	3.9	7.46e-01	0	22	104	0	80	17489
2026-01-13 06:01:44.33	340.05	19.65	-50.2	-61.8	3.8	7.45e-01	0	22	104	0	69	13493
2026-01-13 06:01:45.33	339.76	19.63	-50.2	-61.8	3.8	7.44e-01	0	22	104	0	69	13446
2026-01-13 06:01:46.33	339.48	19.61	-49.8	-61.2	3.9	7.47e-01	0	22	104	0	68	13270
2026-01-13 06:01:47.32	339.19	19.60	-49.7	-61.1	3.8	7.44e-01	0	22	104	0	68	13190
2026-01-13 06:01:48.32	338.91	19.58	-50.2	-61.7	3.8	7.46e-01	0	22	104	0	68	14051
2026-01-13 06:01:49.31	338.62	19.56	-53.1	-65.4	3.8	7.44e-01	0	22	104	0	73	16212
2026-01-13 06:01:50.30	338.34	19.54	-56.1	-70.6	3.9	7.42e-01	0	22	104	0	81	18670
2026-01-13 06:01:51.28	338.06	19.52	-50.3	-61.8	3.8	7.46e-01	0	22	104	0	68	14292
2026-01-13 06:01:52.28	337.78	19.49	-55.5	-69.3	3.9	7.45e-01	0	22	104	0	80	16927
2026-01-13 06:01:53.28	337.50	19.47	-49.8	-61.4	3.9	7.47e-01	0	22	104	0	68	13600
2026-01-13 06:01:54.28	337.21	19.45	-49.6	-60.9	3.8	7.43e-01	0	22	104	0	68	12953
2026-01-13 06:01:55.28	336.93	19.42	-49.8	-61.2	3.8	7.47e-01	0	22	104	0	68	13342
2026-01-13 06:01:56.28	336.65	19.40	-52.6	-64.7	3.8	7.45e-01	0	22	104	0	74	14179
2026-01-13 06:01:57.28	336.37	19.37	-53.1	-65.3	3.8	7.44e-01	0	22	104	0	73	15950
2026-01-13 06:01:58.27	336.09	19.35	-56.1	-70.6	3.9	7.45e-01	0	22	104	0	81	18636
2026-01-13 06:01:59.27	335.81	19.32	-50.3	-61.9	3.8	7.43e-01	0	22	104	0	68	14498
2026-01-13 06:02:00.27	335.53	19.29	-55.4	-68.9	3.9	7.44e-01	0	22	104	0	80	16287
2026-01-13 06:02:01.27	335.25	19.27	-49.8	-61.2	3.8	7.45e-01	0	22	104	0	68	13314
2026-01-13 06:02:02.27	334.97	19.24	-49.8	-61.3	3.8	7.43e-01	0	22	104	0	68	13431
2026-01-13 06:02:03.26	334.69	19.21	-50.4	-61.8	3.8	7.42e-01	0	22	104	0	68	14333
2026-01-13 06:02:04.26	334.41	19.18	-55.7	-69.7	3.9	7.47e-01	0	22	104	0	80	17818
2026-01-13 06:02:05.26	334.14	19.15	-53.4	-65.9	3.8	7.47e-01	0	22	104	0	75	15248
2026-01-13 06:02:06.26	333.86	19.12	-56.2	-71.0	3.9	7.44e-01	0	22	104	0	81	19443
2026-01-13 06:02:07.27	333.58	19.08	-56.2	-70.9	3.9	7.45e-01	0	22	104	0	81	19169
2026-01-13 06:02:08.27	333.31	19.05	-50.0	-61.4	3.8	7.47e-01	0	22	104	0	69	12959
2026-01-13 06:02:09.28	333.03	19.02	-50.1	-61.7	3.8	7.47e-01	0	22	104	0	69	13357
2026-01-13 06:02:10.28	332.75	18.99	-49.7	-61.1	3.8	7.42e-01	0	22	104	0	68	13186
2026-01-13 06:02:11.28	332.48	18.95	-49.8	-61.2	3.8	7.46e-01	0	22	104	0	68	13298
2026-01-13 06:02:12.28	332.21	18.92	-50.2	-61.9	3.8	7.46e-01	0	22	104	0	68	14424
2026-01-13 06:02:13.27	331.94	18.88	-53.0	-65.0	3.8	7.50e-01	0	22	104	0	73	15558
2026-01-13 06:02:14.27	331.67	18.85	-56.1	-70.5	3.8	7.44e-01	0	22	104	0	81	18455
2026-01-13 06:02:15.27	331.40	18.81	-50.3	-61.9	3.8	7.45e-01	0	22	104	0	68	14400
2026-01-13 06:02:16.26	331.13	18.77	-55.3	-68.9	3.9	7.45e-01	0	22	104	0	80	16297
2026-01-13 06:02:17.26	330.86	18.73	-49.8	-61.4	3.8	7.46e-01	0	22	104	0	68	13585
2026-01-13 06:02:18.27	330.59	18.70	-49.8	-61.4	3.8	7.45e-01	0	22	104	0	68	13617
2026-01-13 06:02:19.27	330.32	18.66	-49.9	-61.1	3.8	7.44e-01	0	22	104	0	68	13251
2026-01-13 06:02:20.27	330.05	18.62	-54.4	-67.6	3.8	7.40e-01	0	22	104	0	78	15698
2026-01-13 06:02:21.26	329.79	18.58	-53.4	-65.8	3.8	7.46e-01	0	22	104	0	75	15211
2026-01-13 06:02:22.27	329.52	18.54	-56.1	-70.3	3.9	7.44e-01	0	22	104	0	81	17989
2026-01-13 06:02:23.27	329.25	18.50	-56.5	-71.9	3.9	7.43e-01	0	22	104	0	82	20362
2026-01-13 06:02:24.26	328.99	18.46	-49.6	-61.2	3.8	7.45e-01	0	22	104	0	68	13326
2026-01-13 06:02:25.26	328.73	18.41	-49.5	-60.5	3.9	7.47e-01	0	22	104	0	68	12359
2026-01-13 06:02:26.26	328.47	18.37	-49.6	-61.5	3.8	7.48e-01	0	22	104	0	68	13804
2026-01-13 06:02:27.26	328.20	18.33	-49.5	-60.5	3.8	7.44e-01	0	22	104	0	68	12334
2026-01-13 06:02:28.26	327.94	18.28	-50.4	-61.9	3.9	7.48e-01	0	22	104	0	69	13722
2026-01-13 06:02:29.27	327.68	18.24	-53.0	-66.4	3.9	7.45e-01	0	22	104	0	73	18171
2026-01-13 06:02:30.27	327.42	18.20	-56.0	-69.8	3.9	7.43e-01	0	22	104	0	81	16944
2026-01-13 06:02:31.27	327.16	18.15	-50.0	-61.4	3.9	7.49e-01	0	22	104	0	68	13601
2026-01-13 06:02:32.27	326.90	18.10	-55.5	-69.9	3.8	7.44e-01	0	22	104	0	80	18228
2026-01-13 06:02:33.28	326.64	18.06	-50.0	-61.1	3.8	7.43e-01	0	22	104	0	69	12507
2026-01-13 06:02:34.29	326.38	18.01	-49.7	-61.3	3.8	7.45e-01	0	22	104	0	68	13488
2026-01-13 06:02:35.29	326.13	17.96	-49.5	-60.3	3.9	7.48e-01	0	22	104	0	68	11956
2026-01-13 06:02:36.29	325.87	17.92	-50.5	-62.5	3.9	7.45e-01	0	22	104	0	70	13739
2026-01-13 06:02:37.28	325.62	17.87	-53.0	-65.8	3.9	7.45e-01	0	22	104	0	73	17079
2026-01-13 06:02:38.27	325.37	17.82	-56.1	-70.0	3.9	7.43e-01	0	22	104	0	81	17468
2026-01-13 06:02:39.27	325.12	17.77	-50.1	-61.6	3.8	7.47e-01	0	22	104	0	68	14019
2026-01-13 06:02:40.27	324.87	17.72	-55.4	-69.2	3.9	7.42e-01	0	22	104	0	80	16711
2026-01-13 06:02:41.27	324.62	17.67	-49.9	-61.6	3.8	7.45e-01	0	22	104	0	68	14042
2026-01-13 06:02:42.27	324.37	17.62	-49.8	-61.2	3.8	7.47e-01	0	22	104	0	68	13340
2026-01-13 06:02:43.27	324.12	17.57	-49.6	-60.4	3.8	7.43e-01	0	22	104	0	68	12099
2026-01-13 06:02:44.27	323.87	17.52	-51.1	-63.4	3.8	7.47e-01	0	22	104	0	71	14410
2026-01-13 06:02:45.27	323.63	17.47	-52.9	-65.2	3.8	7.47e-01	0	22	104	0	73	15776
2026-01-13 06:02:46.26	323.38	17.42	-56.1	-70.6	3.8	7.43e-01	0	22	104	0	81	18692
2026-01-13 06:02:47.26	323.14	17.37	-50.1	-61.2	3.9	7.43e-01	0	22	104	0	68	13408
2026-01-13 06:02:48.26	322.89	17.32	-55.3	-60.3	5.0	7.06e-01	0	22	104	0	79	6403
2026-01-13 06:02:49.26	322.65	17.26	-49.2	-51.0	16.3	5.99e-01	0	22	0	1048576	67	4344
2026-01-13 06:02:50.26	322.41	17.21	-49.5	-51.2	16.2	6.02e-01	0	22	0	3145728	67	4482
2026-01-13 06:02:51.26	322.17	17.16	-49.7	-51.6	16.1	6.01e-01	0	22	0	4718592	67	4671
2026-01-13 06:02:52.25	321.93	17.10	-49.3	-51.1	16.3	6.03e-01	0	22	0	6815744	67	4409
2026-01-13 06:02:53.25	321.69	17.05	-49.5	-51.3	16.2	6.00e-01	0	22	0	8388608	67	4539
2026-01-13 06:02:54.25	321.45	16.99	-48.9	-50.6	16.5	6.00e-01	0	22	0	10485760	67	4172
2026-01-13 06:02:55.25	321.21	16.94	-49.3	-51.1	16.3	6.02e-01	0	22	0	12058624	67	4400
2026-01-13 06:02:56.25	320.98	16.88	-49.0	-50.7	16.5	6.02e-01	0	22	0	14155776	67	4215
2026-01-13 06:02:57.24	320.74	16.83	-49.3	-51.1	16.3	6.02e-01	0	22	0	15728640	67	4423
2026-01-13 06:02:58.24	320.51	16.77	-48.9	-50.6	16.5	6.02e-01	0	22	0	17825792	67	4170
2026-01-13 06:02:59.24	320.28	16.72	-49.0	-50.7	16.5	5.99e-01	0	22	0	19922944	67	4235
2026-01-13 06:03:00.24	320.04	16.66	-49.0	-50.7	16.5	6.02e-01	0	22	0	21495808	67	4203
2026-01-13 06:03:01.22	319.82	16.60	-49.4	-51.2	16.3	6.04e-01	0	22	0	23592960	67	4444
2026-01-13 06:03:02.22	319.58	16.55	-49.1	-50.8	16.4	6.02e-01	0	22	0	25165824	67	4255
2026-01-13 06:03:03.22	319.35	16.49	-49.1	-50.8	16.4	6.03e-01	0	22	0	27262976	67	4289
2026-01-13 06:03:04.21	319.13	16.43	-49.1	-50.8	16.2	6.00e-01	0	22	0	28835840	66	4514
2026-01-13 06:03:05.22	318.90	16.37	-48.9	-50.5	16.3	6.01e-01	0	22	0	30932992	66	4389
2026-01-13 06:03:06.21	318.67	16.31	-49.3	-51.1	16.1	6.03e-01	0	22	0	33030144	66	4665
2026-01-13 06:03:07.21	318.45	16.26	-49.0	-50.7	16.2	6.03e-01	0	22	0	34603008	66	4455
2026-01-13 06:03:08.20	318.22	16.20	-49.1	-50.8	16.2	6.02e-01	0	22	0	36700160	66	4533
2026-01-13 06:03:09.21	318.00	16.14	-49.0	-50.7	16.3	6.02e-01	0	22	0	38273024	66	4487
2026-01-13 06:03:10.20	317.77	16.08	-48.9	-50.6	16.3	6.03e-01	0	22	0	40370176	66	4410
2026-01-13 06:03:11.21	317.55	16.02	-49.2	-51.0	16.2	6.06e-01	0	22	0	41943040	66	4604
2026-01-13 06:03:12.20	317.33	15.96	-48.6	-50.2	16.5	6.02e-01	0	22	0	44040192	66	4199
2026-01-13 06:03:13.20	317.11	15.90	-49.4	-51.2	16.1	6.04e-01	0	22	0	45613056	66	4751
2026-01-13 06:03:14.20	316.89	15.84	-48.5	-50.0	16.5	6.02e-01	0	22	0	47710208	66	4133
2026-01-13 06:03:15.20	316.67	15.78	-49.7	-51.6	16.0	6.00e-01	0	22	0	49807360	67	4671
2026-01-13 06:03:16.19	316.46	15.72	-48.5	-50.1	16.5	6.02e-01	0	22	0	51380224	66	4186
2026-01-13 06:03:17.19	316.24	15.66	-49.6	-51.5	16.0	6.01e-01	0	22	0	53477376	66	4881
2026-01-13 06:03:18.19	316.02	15.59	-48.5	-50.1	16.5	6.01e-01	0	22	0	55050240	66	4179
2026-01-13 06:03:19.19	315.81	15.53	-49.3	-51.1	16.1	6.04e-01	0	22	0	57147392	66	4685
2026-01-13 06:03:20.19	315.59	15.47	-48.8	-50.4	16.4	6.01e-01	0	22	0	58720256	66	4331
2026-01-13 06:03:21.19	315.38	15.41	-49.4	-51.2	16.0	6.01e-01	0	22	0	60817408	66	4733
2026-01-13 06:03:22.18	315.17	15.35	-49.0	-50.7	16.3	6.01e-01	0	22	0	62914560	66	4466
2026-01-13 06:03:23.18	314.96	15.28	-49.5	-51.4	16.1	6.02e-01	0	22	0	64487424	67	4561
2026-01-13 06:03:24.18	314.75	15.22	-49.4	-51.1	16.3	6.01e-01	0	22	0	66584576	67	4430
2026-01-13 06:03:25.17	314.54	15.16	-49.6	-51.5	16.1	6.01e-01	0	22	0	68157440	67	4618
2026-01-13 06:03:26.17	314.33	15.10	-49.3	-51.0	16.3	6.01e-01	0	22	0	70254592	67	4371
2026-01-13 06:03:27.17	314.13	15.03	-49.8	-51.7	16.0	6.03e-01	0	22	0	72351744	67	4721
2026-01-13 06:03:28.17	313.92	14.97	-49.8	-51.6	16.1	6.00e-01	0	22	0	73924608	67	4690
2026-01-13 06:03:29.16	313.72	14.91	-49.9	-51.9	16.1	6.02e-01	0	22	0	75497472	68	4555
2026-01-13 06:03:30.16	313.51	14.84	-48.9	-50.6	16.5	6.02e-01	0	22	0	77594624	67	4165
2026-01-13 06:03:31.15	313.31	14.78	-49.4	-51.3	16.2	6.02e-01	0	22	0	79691776	67	4505
2026-01-13 06:03:32.14	313.11	14.72	-49.2	-50.9	16.4	5.99e-01	0	22	0	81264640	67	4334
2026-01-13 06:03:33.14	312.91	14.65	-49.8	-51.6	16.1	6.00e-01	0	22	0	83361792	67	4700
2026-01-13 06:03:34.14	312.71	14.59	-49.6	-51.4	16.2	6.03e-01	0	22	0	84934656	67	4580
2026-01-13 06:03:35.14	312.51	14.52	-49.6	-51.4	16.2	6.00e-01	0	22	0	87031808	67	4577
2026-01-13 06:03:36.14	312.31	14.46	-49.4	-51.2	16.2	6.02e-01	0	22	0	89128960	67	4481
2026-01-13 06:03:37.14	312.11	14.39	-49.3	-51.0	16.3	6.00e-01	0	22	0	90701824	67	4379
2026-01-13 06:03:38.13	311.92	14.33	-49.2	-50.9	16.4	6.00e-01	0	22	0	92798976	67	4324
2026-01-13 06:03:39.14	311.72	14.26	-49.2	-51.0	16.4	6.01e-01	0	22	0	94371840	67	4370
2026-01-13 06:03:40.14	311.52	14.20	-49.1	-50.8	16.4	5.99e-01	0	22	0	96468992	67	4282
2026-01-13 06:03:41.13	311.33	14.13	-49.1	-50.9	16.4	6.04e-01	0	22	0	98041856	67	4306
2026-01-13 06:03:42.13	311.14	14.07	-49.3	-51.0	16.3	6.01e-01	0	22	0	100139008	67	4376
2026-01-13 06:03:43.14	310.94	14.00	-49.1	-50.8	16.4	5.97e-01	0	22	0	102236160	67	4267
2026-01-13 06:03:44.14	310.75	13.94	-49.4	-51.2	16.2	6.02e-01	0	22	0	103809024	67	4455
2026-01-13 06:03:45.14	310.56	13.87	-49.2	-50.9	16.3	6.02e-01	0	22	0	105906176	67	4321
2026-01-13 06:03:46.13	310.37	13.80	-49.5	-51.3	16.2	6.02e-01	0	22	0	107479040	67	4519
2026-01-13 06:03:47.13	310.19	13.74	-49.3	-51.1	16.3	6.02e-01	0	22	0	109576192	67	4408
2026-01-13 06:03:48.13	310.00	13.67	-48.9	-50.6	16.5	6.02e-01	0	22	0	111149056	67	4181
2026-01-13 06:03:49.13	309.81	13.61	-49.4	-51.3	16.2	6.01e-01	0	22	0	113246208	67	4503
2026-01-13 06:03:50.13	309.63	13.54	-48.9	-50.6	16.5	6.01e-01	0	22	0	115343360	67	4178
2026-01-13 06:03:51.13	309.44	13.47	-49.1	-50.8	16.4	6.00e-01	0	22	0	116916224	67	4284
2026-01-13 06:03:52.12	309.26	13.41	-49.3	-51.1	16.3	5.98e-01	0	22	0	119013376	67	4419
2026-01-13 06:03:53.11	309.08	13.34	-49.3	-51.1	16.3	6.01e-01	0	22	0	120586240	67	4440
2026-01-13 06:03:54.11	308.89	13.28	-49.3	-51.0	16.3	6.03e-01	0	22	0	122683392	67	4389
2026-01-13 06:03:55.11	308.71	13.21	-49.4	-51.2	16.3	6.02e-01	0	22	0	124256256	67	4465
2026-01-13 06:03:56.11	308.53	13.14	-49.4	-51.2	16.2	5.98e-01	0	22	0	126353408	67	4465
2026-01-13 06:03:57.11	308.35	13.08	-49.5	-51.2	16.2	6.03e-01	0	22	0	127926272	67	4484
2026-01-13 06:03:58.11	308.17	13.01	-49.5	-51.3	16.2	6.03e-01	0	22	0	130023424	67	4505
2026-01-13 06:03:59.11	308.00	12.94	-49.2	-50.9	16.4	6.04e-01	0	22	0	132120576	67	4318
2026-01-13 06:04:00.10	307.82	12.88	-49.3	-51.1	16.3	6.02e-01	0	22	0	133693440	67	4392
2026-01-13 06:04:01.10	307.64	12.81	-49.4	-51.2	16.3	6.00e-01	0	22	0	135790592	67	4466
2026-01-13 06:04:02.10	307.47	12.74	-49.2	-50.9	16.3	6.03e-01	0	22	0	137363456	67	4335
2026-01-13 06:04:03.10	307.29	12.67	-49.3	-51.0	16.3	6.00e-01	0	22	0	139460608	67	4370
2026-01-13 06:04:04.09	307.12	12.61	-49.6	-51.4	16.2	5.99e-01	0	22	0	141033472	67	4580
2026-01-13 06:04:05.09	306.95	12.54	-49.4	-51.2	16.2	5.99e-01	0	22	0	143130624	67	4449
2026-01-13 06:04:06.09	306.78	12.47	-49.4	-51.1	16.2	6.02e-01	0	22	0	145227776	67	4441
2026-01-13 06:04:07.09	306.61	12.41	-49.8	-51.7	16.0	6.00e-01	0	22	0	146800640	67	4750
2026-01-13 06:04:08.09	306.44	12.34	-49.8	-51.7	16.0	6.00e-01	0	22	0	148897792	67	4738
2026-01-13 06:04:09.08	306.27	12.27	-49.6	-51.4	16.1	6.03e-01	0	22	0	150470656	67	4580
2026-01-13 06:04:10.08	306.10	12.21	-50.0	-51.9	15.9	6.05e-01	0	22	0	152567808	67	4843
2026-01-13 06:04:11.08	305.93	12.14	-50.3	-52.3	16.0	6.04e-01	0	22	0	154664960	68	4767
2026-01-13 06:04:12.09	305.76	12.07	-49.5	-51.3	16.4	6.00e-01	0	22	0	156237824	68	4254
2026-01-13 06:04:13.08	305.60	12.00	-49.6	-51.4	16.4	6.04e-01	0	22	0	158334976	68	4337
2026-01-13 06:04:14.08	305.43	11.94	-50.0	-51.9	16.1	6.02e-01	0	22	0	159907840	68	4571
2026-01-13 06:04:15.08	305.27	11.87	-49.6	-51.4	16.3	6.01e-01	0	22	0	162004992	68	4336
2026-01-13 06:04:16.08	305.11	11.80	-49.4	-51.1	16.5	5.99e-01	0	22	0	163577856	68	4182
2026-01-13 06:04:17.09	304.94	11.73	-49.4	-51.2	16.2	6.01e-01	0	22	0	165675008	67	4480
2026-01-13 06:04:18.09	304.78	11.67	-49.7	-51.6	16.1	6.00e-01	0	22	0	167772160	67	4669
2026-01-13 06:04:19.09	304.62	11.60	-49.3	-51.2	16.2	6.05e-01	0	22	0	169345024	67	4442
2026-01-13 06:04:20.09	304.46	11.53	-49.3	-51.1	16.3	6.04e-01	0	22	0	171442176	67	4409
2026-01-13 06:04:21.09	304.30	11.46	-49.7	-51.6	16.1	6.00e-01	0	22	0	173015040	67	4674
2026-01-13 06:04:22.09	304.14	11.40	-49.9	-51.8	16.0	6.04e-01	0	22	0	175112192	67	4808
2026-01-13 06:04:23.08	303.98	11.33	-49.3	-51.1	16.3	6.03e-01	0	22	0	176685056	67	4414
2026-01-13 06:04:24.08	303.83	11.26	-49.2	-50.9	16.3	6.01e-01	0	22	0	178782208	67	4334
2026-01-13 06:04:25.07	303.67	11.19	-49.6	-51.5	16.1	6.05e-01	0	22	0	180879360	67	4628
2026-01-13 06:04:26.06	303.52	11.13	-49.7	-51.6	16.1	6.00e-01	0	22	0	182452224	67	4689
2026-01-13 06:04:27.06	303.36	11.06	-49.5	-51.4	16.1	6.02e-01	0	22	0	184549376	67	4550
2026-01-13 06:04:28.06	303.21	10.99	-49.5	-51.3	16.2	6.03e-01	0	22	0	186122240	67	4531
2026-01-13 06:04:29.05	303.06	10.93	-49.8	-51.7	16.0	6.05e-01	0	22	0	188219392	67	4742
2026-01-13 06:04:30.06	302.90	10.86	-50.1	-52.1	15.9	6.02e-01	0	22	0	189792256	67	4971
2026-01-13 06:04:31.06	302.75	10.79	-49.7	-51.6	16.0	6.00e-01	0	22	0	191889408	67	4664
2026-01-13 06:04:32.06	302.60	10.72	-49.5	-51.3	16.2	6.01e-01	0	22	0	193462272	67	4494
2026-01-13 06:04:33.06	302.45	10.66	-49.7	-51.6	16.0	6.00e-01	0	22	0	195559424	67	4684
2026-01-13 06:04:34.06	302.30	10.59	-50.0	-52.0	15.9	6.03e-01	0	22	0	197656576	67	4908
2026-01-13 06:04:35.06	302.15	10.52	-49.8	-51.8	15.9	6.05e-01	0	22	0	199229440	67	4776
2026-01-13 06:04:36.05	302.01	10.46	-49.5	-51.3	16.2	6.00e-01	0	22	0	201326592	67	4519
2026-01-13 06:04:37.04	301.86	10.39	-49.5	-51.3	16.2	6.01e-01	0	22	0	202899456	67	4541
2026-01-13 06:04:38.05	301.71	10.32	-49.8	-51.8	16.0	6.02e-01	0	22	0	204996608	67	4767
2026-01-13 06:04:39.05	301.57	10.25	-50.2	-52.3	16.0	6.02e-01	0	22	0	206569472	68	4769
2026-01-13 06:04:40.05	301.42	10.19	-50.0	-51.9	16.1	6.03e-01	0	22	0	208666624	68	4582
2026-01-13 06:04:41.04	301.28	10.12	-49.7	-51.5	16.3	6.02e-01	0	22	0	210763776	68	4375
2026-01-13 06:04:42.04	301.14	10.05	-49.6	-51.5	16.3	6.04e-01	0	22	0	212336640	68	4345
2026-01-13 06:04:43.04	300.99	9.99	-50.0	-52.0	16.1	6.00e-01	0	22	0	214433792	68	4624
2026-01-13 06:04:44.05	300.85	9.92	-50.2	-52.3	16.0	6.02e-01	0	22	0	216006656	68	4789
2026-01-13 06:04:45.05	300.71	9.85	-49.8	-51.8	16.1	6.03e-01	0	22	0	218103808	68	4494
2026-01-13 06:04:46.05	300.57	9.78	-49.6	-51.4	16.3	6.01e-01	0	22	0	219676672	68	4339
2026-01-13 06:04:47.04	300.43	9.72	-49.7	-51.6	16.3	6.02e-01	0	22	0	221773824	68	4400
2026-01-13 06:04:48.04	300.29	9.65	-50.0	-51.9	16.1	6.01e-01	0	22	0	223870976	68	4581
2026-01-13 06:04:49.03	300.15	9.59	-50.3	-52.4	15.9	6.01e-01	0	22	0	225443840	68	4860
2026-01-13 06:04:50.03	300.02	9.52	-50.1	-52.2	16.0	6.01e-01	0	22	0	227540992	68	4719
2026-01-13 06:04:51.02	299.88	9.45	-49.8	-51.7	16.2	6.03e-01	0	22	0	229113856	68	4464
2026-01-13 06:04:52.02	299.74	9.39	-49.9	-51.7	16.1	6.02e-01	0	22	0	231211008	68	4491
2026-01-13 06:04:53.02	299.61	9.32	-49.9	-51.7	16.2	5.99e-01	0	22	0	233308160	68	4492
2026-01-13 06:04:54.01	299.47	9.25	-50.1	-52.1	16.0	6.04e-01	0	22	0	234881024	68	4659
2026-01-13 06:04:55.02	299.34	9.19	-50.3	-52.4	15.9	6.01e-01	0	22	0	236978176	68	4861
2026-01-13 06:04:56.01	299.21	9.12	-50.2	-52.3	15.9	6.03e-01	0	22	0	238551040	68	4762
2026-01-13 06:04:57.01	299.07	9.05	-50.0	-51.9	16.1	6.04e-01	0	22	0	240648192	68	4566
2026-01-13 06:04:58.01	298.94	8.99	-49.9	-51.8	16.2	6.04e-01	0	22	0	242221056	68	4505
2026-01-13 06:04:59.01	298.81	8.92	-49.7	-51.6	16.3	6.02e-01	0	22	0	244318208	68	4402
2026-01-13 06:05:00.01	298.68	8.86	-49.8	-51.7	16.2	6.02e-01	0	22	0	246415360	68	4476
2026-01-13 06:05:01.01	298.55	8.79	-50.1	-52.0	16.0	6.03e-01	0	22	0	247988224	68	4644
2026-01-13 06:05:02.00	298.42	8.72	-50.2	-52.3	15.9	6.04e-01	0	22	0	250085376	68	4773
2026-01-13 06:05:02.99	298.29	8.66	-50.2	-52.3	15.9	6.01e-01	0	22	0	251658240	68	4783
2026-01-13 06:05:03.99	298.16	8.59	-50.3	-52.4	15.9	6.03e-01	0	22	0	253755392	68	4828
2026-01-13 06:05:04.98	298.04	8.53	-50.2	-52.2	15.9	6.01e-01	0	22	0	255328256	68	4745
2026-01-13 06:05:05.97	297.91	8.46	-50.1	-52.1	16.0	6.00e-01	0	22	0	257425408	68	4656
2026-01-13 06:05:06.98	297.78	8.40	-50.1	-52.1	16.0	6.00e-01	0	22	0	258998272	68	4698
2026-01-13 06:05:07.97	297.66	8.33	-50.2	-52.2	16.0	6.01e-01	0	22	0	261095424	68	4721
2026-01-13 06:05:08.97	297.53	8.27	-50.3	-52.3	15.9	6.00e-01	0	22	0	263192576	68	4810
2026-01-13 06:05:09.97	297.41	8.20	-50.3	-52.4	15.9	6.03e-01	0	22	0	264765440	68	4822
2026-01-13 06:05:10.97	297.28	8.14	-50.3	-52.4	15.9	6.02e-01	0	22	0	266862592	68	4840
2026-01-13 06:05:11.97	297.16	8.07	-50.3	-52.4	15.9	6.00e-01	0	22	0	268435456	68	4835
2026-01-13 06:05:12.96	297.04	8.01	-50.1	-52.1	16.0	6.00e-01	0	22	0	270532608	68	4696
2026-01-13 06:05:13.96	296.92	7.94	-50.0	-52.0	16.1	6.01e-01	0	22	0	272105472	68	4620
2026-01-13 06:05:14.96	296.79	7.87	-50.1	-52.1	16.0	5.97e-01	0	22	0	274202624	68	4691
2026-01-13 06:05:15.96	296.67	7.81	-50.2	-52.2	16.0	6.00e-01	0	22	0	275775488	68	4745
2026-01-13 06:05:16.96	296.55	7.74	-50.3	-52.4	15.9	6.03e-01	0	22	0	277872640	68	4853
2026-01-13 06:05:17.96	296.43	7.68	-50.3	-52.4	15.9	6.01e-01	0	22	0	279969792	68	4854
2026-01-13 06:05:18.96	296.31	7.61	-50.4	-52.5	15.8	6.01e-01	0	22	0	281542656	68	4919
2026-01-13 06:05:19.96	296.20	7.55	-50.6	-52.7	15.7	6.00e-01	0	22	0	283639808	68	5024
2026-01-13 06:05:20.95	296.08	7.49	-50.4	-52.5	15.9	6.03e-01	0	22	0	285212672	68	4873
2026-01-13 06:05:21.95	295.96	7.42	-50.4	-52.5	15.8	6.02e-01	0	22	0	287309824	68	4877
2026-01-13 06:05:22.94	295.85	7.36	-50.2	-52.2	16.0	6.02e-01	0	22	0	288882688	68	4728
2026-01-13 06:05:23.94	295.73	7.29	-50.0	-52.0	16.0	6.05e-01	0	22	0	290979840	68	4633
2026-01-13 06:05:24.94	295.61	7.23	-50.0	-52.0	16.1	6.00e-01	0	22	0	293076992	68	4634
2026-01-13 06:05:25.94	295.50	7.16	-50.2	-52.2	16.0	6.01e-01	0	22	0	294649856	68	4735
2026-01-13 06:05:26.94	295.38	7.10	-50.3	-52.3	15.9	6.01e-01	0	22	0	296747008	68	4801
2026-01-13 06:05:27.93	295.27	7.04	-50.3	-52.4	15.9	6.02e-01	0	22	0	298319872	68	4831
2026-01-13 06:05:28.94	295.16	6.97	-50.5	-52.7	15.8	6.01e-01	0	22	0	300417024	68	4985
2026-01-13 06:05:29.93	295.04	6.91	-50.6	-52.8	15.7	6.03e-01	0	22	0	301989888	68	5047
2026-01-13 06:05:30.92	294.93	6.84	-50.3	-52.4	15.9	6.03e-01	0	22	0	304087040	68	4863
2026-01-13 06:05:31.92	294.82	6.78	-50.4	-52.5	15.9	6.00e-01	0	22	0	306184192	68	4880
2026-01-13 06:05:32.92	294.71	6.72	-50.4	-52.5	15.8	6.02e-01	0	22	0	307757056	68	4907
2026-01-13 06:05:33.93	294.60	6.65	-50.3	-52.3	15.9	6.03e-01	0	22	0	309854208	68	4799
2026-01-13 06:05:34.93	294.49	6.59	-50.3	-52.4	15.9	6.00e-01	0	22	0	311427072	68	4841
2026-01-13 06:05:35.93	294.38	6.52	-50.4	-52.5	15.8	5.99e-01	0	22	0	313524224	68	4872
2026-01-13 06:05:36.92	294.27	6.46	-50.4	-52.5	15.8	6.01e-01	0	22	0	315621376	68	4914
2026-01-13 06:05:37.92	294.16	6.40	-50.5	-52.6	15.8	6.03e-01	0	22	0	317194240	68	4979
2026-01-13 06:05:38.92	294.05	6.34	-50.7	-52.8	15.9	6.02e-01	0	22	0	319291392	69	4811
2026-01-13 06:05:39.92	293.95	6.27	-50.6	-52.7	15.9	5.99e-01	0	22	0	320864256	69	4740
2026-01-13 06:05:40.91	293.84	6.21	-50.5	-52.6	16.0	5.99e-01	0	22	0	322961408	69	4673
2026-01-13 06:05:41.91	293.73	6.15	-50.6	-52.7	15.9	6.01e-01	0	22	0	324534272	69	4749
2026-01-13 06:05:42.91	293.63	6.08	-50.7	-52.9	15.8	6.01e-01	0	22	0	326631424	69	4863
2026-01-13 06:05:43.91	293.52	6.02	-50.6	-52.8	15.9	6.04e-01	0	22	0	328728576	69	4794
2026-01-13 06:05:44.91	293.42	5.96	-50.6	-52.8	15.9	6.01e-01	0	22	0	330301440	69	4800
2026-01-13 06:05:45.92	293.31	5.89	-50.7	-53.0	15.8	6.01e-01	0	22	0	332398592	69	4873
2026-01-13 06:05:46.92	293.21	5.83	-50.9	-53.1	15.7	6.02e-01	0	22	0	333971456	69	4964
2026-01-13 06:05:47.93	293.10	5.77	-50.7	-52.9	15.8	5.98e-01	0	22	0	336068608	69	4869
2026-01-13 06:05:48.93	293.00	5.71	-50.7	-52.8	15.9	6.00e-01	0	22	0	337641472	69	4812
2026-01-13 06:05:49.93	292.90	5.64	-50.8	-53.1	15.7	6.01e-01	0	22	0	339738624	69	4932
2026-01-13 06:05:50.92	292.80	5.58	-50.9	-53.1	15.7	6.01e-01	0	22	0	341835776	69	4979
2026-01-13 06:05:51.92	292.70	5.52	-50.8	-53.0	15.8	5.99e-01	0	22	0	343408640	69	4896
2026-01-13 06:05:52.92	292.59	5.46	-50.7	-52.9	15.8	6.03e-01	0	22	0	345505792	69	4859
2026-01-13 06:05:53.92	292.49	5.39	-50.6	-52.8	15.9	6.01e-01	0	22	0	347078656	69	4805
2026-01-13 06:05:54.92	292.39	5.33	-50.8	-53.1	15.7	6.00e-01	0	22	0	349175808	69	4953
2026-01-13 06:05:55.92	292.29	5.27	-50.8	-53.0	15.8	5.99e-01	0	22	0	350748672	69	4912
2026-01-13 06:05:56.92	292.20	5.21	-50.9	-53.2	15.7	6.03e-01	0	22	0	352845824	69	5034
2026-01-13 06:05:57.92	292.10	5.15	-51.1	-53.5	15.8	6.02e-01	0	22	0	354942976	70	4874
2026-01-13 06:05:58.92	292.00	5.09	-51.1	-53.4	15.8	6.00e-01	0	22	0	356515840	70	4869
2026-01-13 06:05:59.92	291.90	5.02	-51.1	-53.5	15.8	6.02e-01	0	22	0	358612992	70	4900
2026-01-13 06:06:00.93	291.80	4.96	-56.9	-70.1	5.7	6.99e-01	90	22	0	360185856	81	17602
2026-01-13 06:06:01.92	291.71	4.90	-57.5	-76.3	3.8	7.44e-01	0	22	104	360185856	82	33744
2026-01-13 06:06:02.92	291.61	4.84	-57.7	-76.7	3.8	7.46e-01	0	22	104	360185856	83	33587
2026-01-13 06:06:03.91	291.52	4.78	-57.9	-77.1	3.8	7.47e-01	0	22	104	360185856	83	35257
2026-01-13 06:06:04.91	291.42	4.72	-58.0	-77.3	3.8	7.47e-01	0	22	104	360185856	83	35745
2026-01-13 06:06:05.91	291.33	4.66	-58.1	-77.4	3.8	7.50e-01	0	22	104	360185856	83	36304
2026-01-13 06:06:06.92	291.23	4.60	-58.4	-77.6	3.8	7.47e-01	0	22	104	360185856	84	35174
2026-01-13 06:06:07.91	291.14	4.53	-58.4	-77.8	3.8	7.46e-01	0	22	104	360185856	84	35702
2026-01-13 06:06:08.91	291.04	4.47	-58.5	-77.8	3.8	7.44e-01	0	22	104	360185856	84	35768
2026-01-13 06:06:09.90	290.95	4.41	-58.5	-77.8	3.8	7.47e-01	0	22	104	360185856	84	35892
2026-01-13 06:06:10.91	290.86	4.35	-58.6	-77.8	3.8	7.46e-01	0	22	104	360185856	84	35919
2026-01-13 06:06:11.91	290.77	4.29	-58.6	-77.9	3.8	7.45e-01	0	22	104	360185856	84	36174
2026-01-13 06:06:12.91	290.67	4.23	-58.7	-77.9	3.8	7.47e-01	0	22	104	360185856	85	34471
2026-01-13 06:06:13.92	290.58	4.17	-58.7	-78.0	3.8	7.45e-01	0	22	104	360185856	85	34617
2026-01-13 06:06:14.92	290.49	4.11	-58.7	-78.0	3.8	7.45e-01	0	22	104	360185856	85	34810
2026-01-13 06:06:15.91	290.40	4.05	-58.7	-78.0	3.8	7.48e-01	0	22	104	360185856	85	34848
2026-01-13 06:06:16.92	290.31	3.99	-58.8	-78.1	3.8	7.44e-01	0	22	104	360185856	85	35039
2026-01-13 06:06:17.92	290.22	3.93	-58.8	-78.1	3.8	7.46e-01	0	22	104	360185856	85	35138
2026-01-13 06:06:18.92	290.13	3.87	-58.8	-78.1	3.8	7.44e-01	0	22	104	360185856	85	35088
2026-01-13 06:06:19.92	290.04	3.81	-58.8	-78.1	3.8	7.44e-01	0	22	104	360185856	85	35165
2026-01-13 06:06:20.91	289.95	3.75	-58.8	-78.1	3.8	7.46e-01	0	22	104	360185856	85	35220
2026-01-13 06:06:21.92	289.87	3.69	-58.8	-78.1	3.8	7.46e-01	0	22	104	360185856	85	35270
2026-01-13 06:06:22.91	289.78	3.63	-58.8	-78.1	3.8	7.48e-01	0	22	104	360185856	85	35208
2026-01-13 06:06:23.91	289.69	3.57	-58.8	-78.1	3.8	7.47e-01	0	22	104	360185856	85	35213
2026-01-13 06:06:24.91	289.60	3.51	-58.8	-78.1	3.8	7.48e-01	0	22	104	360185856	85	35239
2026-01-13 06:06:25.91	289.52	3.45	-58.8	-78.2	3.8	7.45e-01	0	22	104	360185856	85	35284
2026-01-13 06:06:26.90	289.43	3.39	-58.8	-78.1	3.8	7.45e-01	0	22	104	360185856	85	35212
2026-01-13 06:06:27.90	289.35	3.34	-58.8	-78.1	3.8	7.43e-01	0	22	104	360185856	85	35095
2026-01-13 06:06:28.90	289.26	3.28	-58.8	-78.1	3.8	7.46e-01	0	22	104	360185856	85	35092
2026-01-13 06:06:29.90	289.18	3.22	-58.8	-78.1	3.8	7.48e-01	0	22	104	360185856	85	35133
2026-01-13 06:06:30.89	289.09	3.16	-58.7	-78.1	3.8	7.47e-01	0	22	104	360185856	85	34956
2026-01-13 06:06:31.89	289.01	3.10	-58.7	-78.0	3.8	7.44e-01	0	22	104	360185856	85	34813
2026-01-13 06:06:32.90	288.92	3.04	-58.7	-78.0	3.8	7.44e-01	0	22	104	360185856	85	34669
2026-01-13 06:06:33.89	288.84	2.98	-58.7	-78.0	3.8	7.48e-01	0	22	104	360185856	85	34622
2026-01-13 06:06:34.89	288.76	2.92	-58.7	-78.0	3.8	7.42e-01	0	22	104	360185856	85	34676
2026-01-13 06:06:35.89	288.68	2.87	-58.7	-78.0	3.8	7.48e-01	0	22	104	360185856	85	34675
2026-01-13 06:06:36.89	288.59	2.81	-58.6	-78.0	3.8	7.42e-01	0	22	104	360185856	85	34522
2026-01-13 06:06:37.88	288.51	2.75	-58.6	-78.0	3.8	7.45e-01	0	22	104	360185856	85	34515
2026-01-13 06:06:38.88	288.43	2.69	-58.6	-78.0	3.8	7.42e-01	0	22	104	360185856	85	34589
2026-01-13 06:06:39.87	288.35	2.63	-58.7	-78.0	3.8	7.47e-01	0	22	104	360185856	85	34602
2026-01-13 06:06:40.88	288.27	2.57	-58.6	-78.0	3.8	7.49e-01	0	22	104	360185856	85	34633
2026-01-13 06:06:41.88	288.19	2.52	-58.6	-78.0	3.8	7.47e-01	0	22	104	360185856	85	34547
2026-01-13 06:06:42.87	288.11	2.46	-58.6	-78.0	3.8	7.49e-01	0	22	104	360185856	85	34572
2026-01-13 06:06:43.88	288.03	2.40	-58.6	-78.0	3.8	7.49e-01	0	22	104	360185856	85	34523
2026-01-13 06:06:44.87	287.95	2.34	-58.6	-78.0	3.8	7.44e-01	0	22	104	360185856	85	34496
2026-01-13 06:06:45.87	287.87	2.29	-58.6	-77.9	3.8	7.49e-01	0	22	104	360185856	85	34410
2026-01-13 06:06:46.87	287.79	2.23	-58.6	-77.9	3.8	7.44e-01	0	22	104	360185856	85	34352
2026-01-13 06:06:47.86	287.72	2.17	-58.6	-77.9	3.8	7.49e-01	0	22	104	360185856	85	34283
2026-01-13 06:06:48.86	287.64	2.11	-58.6	-77.9	3.8	7.46e-01	0	22	104	360185856	85	34307
2026-01-13 06:06:49.86	287.56	2.06	-58.6	-77.9	3.8	7.44e-01	0	22	104	360185856	85	34333
2026-01-13 06:06:50.86	287.48	2.00	-58.6	-77.9	3.8	7.46e-01	0	22	104	360185856	85	34466

#Closed at: 2026-01-13 06:06:51
#Recorded file [360 MB]: D:/lorett/data/31004_260113_085552.dat