passes_logs/2026/01/13/R3.2S_Murmansk/R3.2S_Murmansk__20260113_032902_SUOMI_NPP_rec.log

#Pass ID: 20260113_032902_SUOMI NPP
#Satellite: SUOMI NPP
#Configuration: NPP
#almurnet v.1.7.20251203
#Start time: 2026-01-13 03:29:02

#Version: 2.2.20231116
#Station: R3.2S_Murmansk
#Location: 33.079688 lon 68.888172 lat
#TLE: 1 37849U 11061A   26012.28456845  .00000093  00000+0  65163-4 0  9999
#TLE: 2 37849  98.7807 314.3566 0002508  68.3553 291.7890 14.19524725736322

#Time	Az	El	Level	Level2	SNR	BER	BlckErr	Temp	State	Recorded	gain1	gain2
2026-01-13 03:29:02.55	41.20	2.01	-57.0	-72.9	3.8	1.49e+00	0	20	0	0	80	22207
2026-01-13 03:29:03.54	41.15	2.06	-56.9	-72.9	3.8	1.49e+00	0	20	104	0	78	24712
2026-01-13 03:29:04.53	41.10	2.12	-56.9	-72.9	3.8	1.49e+00	0	20	104	0	78	24765
2026-01-13 03:29:05.53	41.05	2.18	-56.9	-72.8	3.8	1.49e+00	0	20	104	0	78	24691
2026-01-13 03:29:06.53	40.99	2.24	-56.9	-72.9	3.8	1.49e+00	0	20	104	0	78	24766
2026-01-13 03:29:07.52	40.94	2.30	-56.9	-72.9	3.8	1.49e+00	0	20	104	0	78	24715
2026-01-13 03:29:08.53	40.89	2.36	-56.9	-72.9	3.8	1.49e+00	0	20	104	0	78	24827
2026-01-13 03:29:09.52	40.83	2.42	-56.9	-72.9	3.8	1.49e+00	0	20	104	0	78	24708
2026-01-13 03:29:10.52	40.78	2.48	-56.9	-72.9	3.8	1.49e+00	0	20	104	0	78	24722
2026-01-13 03:29:11.51	40.73	2.54	-56.9	-72.9	3.8	1.49e+00	0	20	104	0	78	24695
2026-01-13 03:29:12.51	40.67	2.60	-56.9	-72.9	3.8	1.49e+00	0	20	104	0	78	24759
2026-01-13 03:29:13.51	40.62	2.66	-56.9	-72.9	3.8	1.49e+00	0	20	104	0	78	24793
2026-01-13 03:29:14.51	40.56	2.72	-56.9	-72.9	3.8	1.49e+00	0	20	104	0	78	24750
2026-01-13 03:29:15.51	40.51	2.78	-56.9	-72.9	3.8	1.49e+00	0	20	104	0	78	24823
2026-01-13 03:29:16.51	40.45	2.84	-57.0	-72.9	3.8	1.49e+00	0	20	104	0	79	23534
2026-01-13 03:29:17.51	40.39	2.90	-57.0	-72.9	3.8	1.49e+00	0	20	104	0	79	23471
2026-01-13 03:29:18.51	40.34	2.96	-57.0	-72.9	3.8	1.49e+00	0	20	104	0	79	23494
2026-01-13 03:29:19.51	40.28	3.02	-57.0	-72.9	3.8	1.49e+00	0	20	104	0	79	23438
2026-01-13 03:29:20.51	40.23	3.08	-57.0	-72.9	3.8	1.49e+00	0	20	104	0	79	23387
2026-01-13 03:29:21.52	40.17	3.14	-57.0	-72.9	3.8	1.49e+00	0	20	104	0	79	23412
2026-01-13 03:29:22.52	40.11	3.20	-57.0	-72.9	3.8	1.49e+00	0	20	104	0	79	23490
2026-01-13 03:29:23.52	40.05	3.27	-57.0	-72.9	3.8	1.49e+00	0	21	104	0	79	23492
2026-01-13 03:29:24.53	40.00	3.33	-57.0	-72.9	3.8	1.49e+00	0	20	104	0	79	23542
2026-01-13 03:29:25.53	39.94	3.39	-57.0	-73.0	3.8	1.49e+00	0	20	104	0	79	23622
2026-01-13 03:29:26.54	39.88	3.45	-57.0	-72.9	3.8	1.49e+00	0	20	104	0	79	23555
2026-01-13 03:29:27.54	39.82	3.51	-57.0	-72.9	3.8	1.49e+00	0	20	104	0	79	23479
2026-01-13 03:29:28.55	39.76	3.57	-57.0	-72.9	3.8	1.49e+00	0	21	104	0	79	23359
2026-01-13 03:29:29.54	39.70	3.64	-57.0	-72.9	3.8	1.49e+00	0	20	104	0	79	23335
2026-01-13 03:29:30.54	39.64	3.70	-57.0	-72.9	3.8	1.49e+00	0	20	104	0	79	23320
2026-01-13 03:29:31.55	39.58	3.76	-57.0	-72.8	3.8	1.49e+00	0	21	104	0	79	23292
2026-01-13 03:29:32.55	39.52	3.82	-57.0	-72.9	3.8	1.49e+00	0	21	104	0	79	23381
2026-01-13 03:29:33.55	39.46	3.88	-57.0	-72.9	3.8	1.49e+00	0	21	104	0	79	23442
2026-01-13 03:29:34.55	39.40	3.95	-57.0	-72.9	3.8	1.49e+00	0	21	104	0	79	23570
2026-01-13 03:29:35.55	39.34	4.01	-57.0	-72.9	3.8	1.49e+00	0	20	104	0	79	23552
2026-01-13 03:29:36.55	39.28	4.07	-57.0	-72.9	3.8	1.49e+00	0	21	104	0	79	23404
2026-01-13 03:29:37.55	39.22	4.13	-57.0	-72.7	3.8	1.49e+00	0	21	104	0	79	22937
2026-01-13 03:29:38.54	39.16	4.20	-57.0	-72.4	3.8	1.49e+00	0	21	104	0	79	22159
2026-01-13 03:29:39.54	39.10	4.26	-56.9	-72.0	3.8	1.49e+00	0	21	104	0	79	21192
2026-01-13 03:29:40.55	39.04	4.32	-56.9	-71.6	3.8	1.49e+00	0	21	104	0	79	20089
2026-01-13 03:29:41.55	38.98	4.39	-56.9	-70.9	3.8	1.49e+00	0	21	104	0	79	18711
2026-01-13 03:29:42.55	38.91	4.45	-56.9	-70.3	3.9	1.49e+00	0	21	104	0	79	17478
2026-01-13 03:29:43.54	38.85	4.51	-56.8	-69.5	4.2	1.43e+00	0	21	0	0	79	15870
2026-01-13 03:29:44.54	38.79	4.58	-56.8	-69.0	4.3	1.39e+00	19	21	0	0	79	14944
2026-01-13 03:29:45.54	38.72	4.64	-56.7	-68.3	4.5	1.05e+00	3	21	0	1048576	79	13746
2026-01-13 03:29:46.54	38.66	4.70	-56.7	-68.1	4.6	8.91e-01	0	21	0	3145728	79	13541
2026-01-13 03:29:47.54	38.60	4.77	-56.7	-68.2	4.6	8.99e-01	0	21	0	5242880	79	13706
2026-01-13 03:29:48.54	38.53	4.83	-56.7	-67.6	4.8	8.60e-01	0	21	0	7340032	79	12791
2026-01-13 03:29:49.54	38.47	4.89	-56.7	-67.9	4.7	8.29e-01	0	21	0	8388608	79	13210
2026-01-13 03:29:50.54	38.40	4.96	-56.7	-67.5	4.9	7.42e-01	0	21	0	10485760	79	12570
2026-01-13 03:29:51.54	38.34	5.02	-56.7	-67.7	4.8	7.76e-01	0	21	0	12582912	79	12884
2026-01-13 03:29:52.54	38.27	5.09	-56.7	-66.8	5.4	7.65e-01	0	21	0	14680064	79	11570
2026-01-13 03:29:53.55	38.21	5.15	-56.8	-67.2	5.2	5.17e-01	0	21	0	16777216	79	12123
2026-01-13 03:29:54.55	38.14	5.22	-56.7	-67.9	4.8	6.44e-01	0	21	0	17825792	79	13148
2026-01-13 03:29:55.55	38.07	5.28	-56.4	-64.8	6.6	9.54e-01	0	21	104	18874368	79	9220
2026-01-13 03:29:56.55	38.01	5.35	-56.7	-68.1	4.8	8.48e-02	0	21	0	19922944	78	14333
2026-01-13 03:29:57.55	37.94	5.41	-56.5	-65.8	5.8	1.49e+00	0	21	104	19922944	78	10934
2026-01-13 03:29:58.54	37.87	5.48	-55.8	-61.8	9.6	1.84e-02	0	21	0	20971520	78	6943
2026-01-13 03:29:59.54	37.81	5.54	-55.8	-61.7	9.7	4.75e-03	0	21	0	23068672	78	6837
2026-01-13 03:30:00.54	37.74	5.61	-55.6	-61.2	10.1	2.69e-03	0	21	0	25165824	77	6871
2026-01-13 03:30:01.54	37.67	5.67	-55.6	-61.3	9.9	3.73e-03	0	21	0	26214400	77	6954
2026-01-13 03:30:02.54	37.60	5.74	-55.5	-60.8	10.4	2.21e-03	0	21	0	28311552	77	6569
2026-01-13 03:30:03.53	37.53	5.80	-55.0	-59.7	11.3	2.88e-04	0	21	0	30408704	76	6094
2026-01-13 03:30:04.52	37.47	5.87	-55.0	-59.6	11.4	1.75e-04	0	21	0	32505856	76	6034
2026-01-13 03:30:05.52	37.40	5.93	-55.1	-60.0	11.1	3.27e-04	0	21	0	34603008	76	6292
2026-01-13 03:30:06.51	37.33	6.00	-54.4	-58.5	12.2	1.29e-05	0	21	0	35651584	75	5654
2026-01-13 03:30:07.50	37.26	6.07	-54.2	-58.1	12.6	3.00e-06	0	21	0	37748736	75	5342
2026-01-13 03:30:08.51	37.19	6.13	-54.4	-58.5	12.2	3.80e-06	0	21	0	39845888	75	5643
2026-01-13 03:30:09.50	37.12	6.20	-54.6	-58.8	12.0	1.37e-05	0	21	0	41943040	75	5808
2026-01-13 03:30:10.51	37.04	6.27	-54.2	-58.0	12.6	2.20e-06	0	21	0	42991616	75	5340
2026-01-13 03:30:11.51	36.97	6.33	-54.0	-57.6	12.9	0.00e+00	0	21	0	45088768	74	5352
2026-01-13 03:30:12.50	36.90	6.40	-54.0	-57.6	12.9	0.00e+00	0	21	0	47185920	74	5361
2026-01-13 03:30:13.49	36.83	6.46	-53.5	-56.8	13.4	0.00e+00	0	21	0	49283072	73	5175
2026-01-13 03:30:14.48	36.76	6.53	-53.7	-57.2	13.1	0.00e+00	0	21	0	51380224	73	5422
2026-01-13 03:30:15.48	36.69	6.60	-53.5	-56.9	13.4	0.00e+00	0	21	0	52428800	73	5257
2026-01-13 03:30:16.48	36.61	6.67	-53.3	-56.5	13.6	0.00e+00	0	21	0	54525952	73	5007
2026-01-13 03:30:17.48	36.54	6.73	-53.4	-56.7	13.5	0.00e+00	0	21	0	56623104	73	5153
2026-01-13 03:30:18.47	36.47	6.80	-53.2	-56.4	13.7	0.00e+00	0	21	0	58720256	73	4966
2026-01-13 03:30:19.47	36.39	6.87	-53.3	-56.5	13.5	0.00e+00	0	21	0	59768832	72	5281
2026-01-13 03:30:20.47	36.32	6.94	-53.2	-56.4	13.6	0.00e+00	0	21	0	61865984	72	5235
2026-01-13 03:30:21.47	36.24	7.00	-53.2	-56.4	13.5	0.00e+00	0	21	0	63963136	72	5271
2026-01-13 03:30:22.46	36.17	7.07	-53.6	-57.0	13.1	0.00e+00	0	21	0	66060288	72	5613
2026-01-13 03:30:23.46	36.09	7.14	-53.6	-57.0	13.1	0.00e+00	0	21	0	68157440	72	5634
2026-01-13 03:30:24.46	36.01	7.21	-53.5	-56.9	13.2	0.00e+00	0	21	0	69206016	72	5565
2026-01-13 03:30:25.47	35.94	7.28	-53.3	-56.6	13.4	0.00e+00	0	21	0	71303168	72	5356
2026-01-13 03:30:26.47	35.86	7.35	-53.5	-56.9	13.2	0.00e+00	0	21	0	73400320	72	5553
2026-01-13 03:30:27.47	35.78	7.41	-53.3	-56.5	13.5	0.00e+00	0	21	0	75497472	72	5300
2026-01-13 03:30:28.48	35.70	7.48	-53.3	-56.6	13.4	0.00e+00	0	21	0	77594624	72	5363
2026-01-13 03:30:29.48	35.63	7.55	-53.2	-56.4	13.6	0.00e+00	0	21	0	78643200	72	5226
2026-01-13 03:30:30.47	35.55	7.62	-53.2	-56.3	13.6	0.00e+00	0	21	0	80740352	72	5204
2026-01-13 03:30:31.47	35.47	7.69	-53.4	-56.6	13.5	0.00e+00	0	21	0	82837504	72	5379
2026-01-13 03:30:32.47	35.39	7.76	-53.1	-56.1	13.7	0.00e+00	0	22	0	84934656	72	5072
2026-01-13 03:30:33.47	35.31	7.83	-53.3	-56.5	13.6	0.00e+00	0	21	0	87031808	72	5291
2026-01-13 03:30:34.47	35.23	7.90	-53.4	-56.6	13.4	0.00e+00	0	21	0	88080384	72	5402
2026-01-13 03:30:35.47	35.15	7.97	-53.1	-56.1	13.8	0.00e+00	0	21	0	90177536	72	5086
2026-01-13 03:30:36.47	35.07	8.04	-53.2	-56.3	13.7	0.00e+00	0	21	0	92274688	72	5199
2026-01-13 03:30:37.47	34.99	8.11	-53.0	-56.0	14.0	0.00e+00	0	21	0	94371840	72	5003
2026-01-13 03:30:38.46	34.91	8.18	-53.1	-56.1	13.8	0.00e+00	0	21	0	95420416	72	5095
2026-01-13 03:30:39.47	34.82	8.25	-53.1	-56.2	13.8	0.00e+00	0	21	0	97517568	72	5126
2026-01-13 03:30:40.46	34.74	8.32	-53.1	-56.0	13.9	0.00e+00	0	21	0	99614720	72	5028
2026-01-13 03:30:41.46	34.66	8.39	-53.0	-55.9	14.0	0.00e+00	0	22	0	101711872	72	4981
2026-01-13 03:30:42.46	34.58	8.46	-53.0	-55.9	13.9	0.00e+00	0	21	0	103809024	72	4982
2026-01-13 03:30:43.45	34.49	8.53	-52.8	-55.6	14.2	0.00e+00	0	21	0	104857600	72	4772
2026-01-13 03:30:44.45	34.41	8.60	-52.7	-55.5	14.3	0.00e+00	0	21	0	106954752	72	4731
2026-01-13 03:30:45.44	34.33	8.67	-52.8	-55.6	14.2	0.00e+00	0	21	0	109051904	72	4802
2026-01-13 03:30:46.45	34.24	8.75	-53.1	-56.0	13.9	0.00e+00	0	21	0	111149056	72	5038
2026-01-13 03:30:47.45	34.15	8.82	-52.8	-55.5	14.3	0.00e+00	0	21	0	113246208	72	4753
2026-01-13 03:30:48.45	34.07	8.89	-52.7	-55.4	14.3	0.00e+00	0	21	0	114294784	72	4701
2026-01-13 03:30:49.45	33.98	8.96	-52.6	-55.4	14.2	0.00e+00	0	21	0	116391936	71	4930
2026-01-13 03:30:50.45	33.89	9.03	-52.9	-55.9	13.9	0.00e+00	0	22	0	118489088	71	5224
2026-01-13 03:30:51.45	33.81	9.11	-52.7	-55.5	14.1	0.00e+00	0	21	0	120586240	71	5020
2026-01-13 03:30:52.44	33.72	9.18	-52.8	-55.6	14.1	0.00e+00	0	21	0	121634816	71	5064
2026-01-13 03:30:53.43	33.63	9.25	-52.9	-55.8	13.9	0.00e+00	0	22	0	123731968	71	5181
2026-01-13 03:30:54.43	33.54	9.32	-52.8	-55.6	14.1	0.00e+00	0	22	0	125829120	71	5052
2026-01-13 03:30:55.43	33.46	9.39	-52.6	-55.3	14.3	0.00e+00	0	21	0	127926272	71	4899
2026-01-13 03:30:56.43	33.37	9.47	-52.6	-55.3	14.3	0.00e+00	0	22	0	130023424	71	4911
2026-01-13 03:30:57.43	33.28	9.54	-52.7	-55.5	14.1	0.00e+00	0	21	0	131072000	71	5030
2026-01-13 03:30:58.43	33.19	9.61	-52.9	-55.8	13.9	0.00e+00	0	21	0	133169152	71	5217
2026-01-13 03:30:59.43	33.09	9.69	-52.8	-55.7	14.0	0.00e+00	0	21	0	135266304	71	5117
2026-01-13 03:31:00.43	33.00	9.76	-52.7	-55.6	14.1	0.00e+00	0	22	0	137363456	71	5051
2026-01-13 03:31:01.43	32.91	9.83	-52.7	-55.5	14.1	0.00e+00	0	22	0	138412032	71	5036
2026-01-13 03:31:02.44	32.82	9.91	-52.7	-55.4	14.2	0.00e+00	0	22	0	140509184	71	4977
2026-01-13 03:31:03.44	32.73	9.98	-52.8	-55.5	14.2	0.00e+00	0	21	0	142606336	71	5041
2026-01-13 03:31:04.44	32.63	10.06	-52.6	-55.3	14.3	0.00e+00	0	22	0	144703488	71	4901
2026-01-13 03:31:05.44	32.54	10.13	-52.6	-55.3	14.3	0.00e+00	0	21	0	146800640	71	4889
2026-01-13 03:31:06.43	32.44	10.20	-52.7	-55.4	14.2	0.00e+00	0	21	0	147849216	71	4954
2026-01-13 03:31:07.43	32.35	10.28	-52.5	-55.2	14.4	0.00e+00	0	22	0	149946368	71	4817
2026-01-13 03:31:08.44	32.25	10.35	-52.6	-55.3	14.3	0.00e+00	0	21	0	152043520	71	4922
2026-01-13 03:31:09.44	32.16	10.43	-52.8	-55.6	14.1	0.00e+00	0	22	0	154140672	71	5067
2026-01-13 03:31:10.43	32.06	10.50	-52.9	-55.7	14.1	0.00e+00	0	22	0	156237824	71	5101
2026-01-13 03:31:11.43	31.97	10.58	-52.7	-55.3	14.3	0.00e+00	0	21	0	157286400	71	4908
2026-01-13 03:31:12.43	31.87	10.65	-52.7	-55.4	14.2	0.00e+00	0	22	0	159383552	71	4973
2026-01-13 03:31:13.43	31.77	10.73	-52.8	-55.6	14.1	0.00e+00	0	22	0	161480704	71	5061
2026-01-13 03:31:14.43	31.67	10.80	-52.8	-55.6	14.1	0.00e+00	0	22	0	163577856	71	5056
2026-01-13 03:31:15.42	31.57	10.88	-52.7	-55.3	14.2	0.00e+00	0	22	0	165675008	71	4924
2026-01-13 03:31:16.42	31.47	10.95	-52.7	-55.3	14.3	0.00e+00	0	22	0	166723584	71	4887
2026-01-13 03:31:17.42	31.37	11.03	-52.7	-55.4	14.2	0.00e+00	0	21	0	168820736	71	4958
2026-01-13 03:31:18.41	31.27	11.11	-52.6	-55.2	14.3	0.00e+00	0	22	0	170917888	71	4858
2026-01-13 03:31:19.41	31.17	11.18	-52.5	-55.0	14.5	0.00e+00	0	22	0	173015040	71	4718
2026-01-13 03:31:20.41	31.07	11.26	-52.7	-55.3	14.3	0.00e+00	0	21	0	174063616	71	4884
2026-01-13 03:31:21.41	30.97	11.33	-52.8	-55.4	14.2	0.00e+00	0	21	0	176160768	71	4932
2026-01-13 03:31:22.40	30.87	11.41	-52.5	-55.0	14.5	0.00e+00	0	22	0	178257920	71	4754
2026-01-13 03:31:23.40	30.76	11.49	-52.6	-55.2	14.3	0.00e+00	0	22	0	180355072	71	4825
2026-01-13 03:31:24.41	30.66	11.56	-52.5	-54.9	14.5	0.00e+00	0	22	0	182452224	71	4705
2026-01-13 03:31:25.40	30.56	11.64	-52.6	-55.2	14.3	0.00e+00	0	22	0	183500800	71	4870
2026-01-13 03:31:26.40	30.45	11.72	-52.6	-55.1	14.4	0.00e+00	0	22	0	185597952	71	4803
2026-01-13 03:31:27.40	30.35	11.80	-52.6	-55.2	14.3	0.00e+00	0	22	0	187695104	71	4836
2026-01-13 03:31:28.40	30.24	11.87	-52.6	-55.2	14.4	0.00e+00	0	22	0	189792256	71	4817
2026-01-13 03:31:29.40	30.13	11.95	-52.6	-55.2	14.4	0.00e+00	0	22	0	191889408	71	4820
2026-01-13 03:31:30.39	30.03	12.03	-52.4	-54.9	14.5	0.00e+00	0	22	0	192937984	71	4686
2026-01-13 03:31:31.39	29.92	12.11	-52.6	-55.1	14.4	0.00e+00	0	22	0	195035136	71	4810
2026-01-13 03:31:32.39	29.81	12.18	-52.6	-55.2	14.3	0.00e+00	0	22	0	197132288	71	4865
2026-01-13 03:31:33.38	29.70	12.26	-52.7	-55.4	14.2	0.00e+00	0	22	0	199229440	71	4939
2026-01-13 03:31:34.38	29.59	12.34	-52.6	-55.3	14.3	0.00e+00	0	22	0	200278016	71	4876
2026-01-13 03:31:35.37	29.48	12.42	-52.7	-55.4	14.2	0.00e+00	0	22	0	202375168	71	4962
2026-01-13 03:31:36.37	29.37	12.50	-52.8	-55.5	14.1	0.00e+00	0	22	0	204472320	71	4993
2026-01-13 03:31:37.38	29.26	12.58	-52.8	-55.6	14.1	0.00e+00	0	22	0	206569472	71	5055
2026-01-13 03:31:38.38	29.15	12.65	-52.6	-55.2	14.3	0.00e+00	0	22	0	208666624	71	4860
2026-01-13 03:31:39.38	29.04	12.73	-52.8	-55.6	14.1	0.00e+00	0	22	0	209715200	71	5061
2026-01-13 03:31:40.38	28.92	12.81	-52.9	-55.7	14.0	0.00e+00	0	22	0	211812352	71	5116
2026-01-13 03:31:41.38	28.81	12.89	-52.8	-55.5	14.1	0.00e+00	0	22	0	213909504	71	5017
2026-01-13 03:31:42.39	28.69	12.97	-52.7	-55.4	14.2	0.00e+00	0	22	0	216006656	71	4957
2026-01-13 03:31:43.39	28.58	13.05	-52.7	-55.4	14.2	0.00e+00	0	22	0	217055232	71	4952
2026-01-13 03:31:44.39	28.46	13.13	-52.7	-55.4	14.2	0.00e+00	0	22	0	219152384	71	4934
2026-01-13 03:31:45.38	28.35	13.21	-52.8	-55.5	14.2	0.00e+00	0	22	0	221249536	71	5010
2026-01-13 03:31:46.38	28.23	13.29	-52.4	-54.9	14.5	0.00e+00	0	22	0	223346688	71	4691
2026-01-13 03:31:47.38	28.11	13.37	-52.6	-55.2	14.4	0.00e+00	0	22	0	225443840	71	4833
2026-01-13 03:31:48.38	27.99	13.45	-52.5	-55.1	14.4	0.00e+00	0	22	0	226492416	71	4762
2026-01-13 03:31:49.38	27.87	13.53	-52.6	-55.2	14.3	0.00e+00	0	21	0	228589568	71	4868
2026-01-13 03:31:50.37	27.75	13.61	-52.6	-55.2	14.4	0.00e+00	0	22	0	230686720	71	4845
2026-01-13 03:31:51.37	27.63	13.69	-52.5	-55.0	14.4	0.00e+00	0	22	0	232783872	71	4749
2026-01-13 03:31:52.37	27.51	13.77	-52.4	-54.9	14.6	0.00e+00	0	22	0	234881024	71	4661
2026-01-13 03:31:53.37	27.39	13.86	-52.3	-54.7	14.7	0.00e+00	0	22	0	235929600	71	4547
2026-01-13 03:31:54.37	27.27	13.94	-51.9	-54.1	14.9	0.00e+00	0	22	0	238026752	70	4539
2026-01-13 03:31:55.38	27.14	14.02	-52.2	-54.5	14.6	0.00e+00	0	22	0	240123904	70	4747
2026-01-13 03:31:56.38	27.02	14.10	-52.1	-54.4	14.7	0.00e+00	0	22	0	242221056	70	4694
2026-01-13 03:31:57.37	26.90	14.18	-52.1	-54.5	14.7	0.00e+00	0	22	0	244318208	70	4715
2026-01-13 03:31:58.37	26.77	14.26	-52.2	-54.6	14.6	0.00e+00	0	22	0	245366784	70	4788
2026-01-13 03:31:59.37	26.64	14.35	-52.3	-54.6	14.6	0.00e+00	0	22	0	247463936	70	4812
2026-01-13 03:32:00.35	26.52	14.43	-52.3	-54.7	14.5	0.00e+00	0	22	0	249561088	70	4841
2026-01-13 03:32:01.34	26.39	14.51	-52.5	-55.0	14.3	0.00e+00	0	22	0	251658240	70	5040
2026-01-13 03:32:02.34	26.27	14.59	-52.1	-54.4	14.7	0.00e+00	0	22	0	252706816	70	4699
2026-01-13 03:32:03.33	26.14	14.67	-52.4	-54.8	14.5	0.00e+00	0	22	0	254803968	70	4919
2026-01-13 03:32:04.33	26.01	14.75	-52.5	-55.0	14.4	0.00e+00	0	22	0	256901120	70	5006
2026-01-13 03:32:05.33	25.88	14.84	-52.4	-54.8	14.5	0.00e+00	0	22	0	258998272	70	4874
2026-01-13 03:32:06.32	25.75	14.92	-52.5	-55.0	14.4	0.00e+00	0	22	0	261095424	70	5019
2026-01-13 03:32:07.32	25.62	15.00	-52.7	-55.3	14.2	0.00e+00	0	22	0	262144000	70	5161
2026-01-13 03:32:08.31	25.49	15.08	-52.7	-55.4	14.1	0.00e+00	0	22	0	264241152	70	5222
2026-01-13 03:32:09.31	25.35	15.17	-52.8	-55.5	14.0	0.00e+00	0	22	0	266338304	70	5324
2026-01-13 03:32:10.31	25.22	15.25	-52.5	-55.0	14.3	0.00e+00	0	22	0	268435456	70	5003
2026-01-13 03:32:11.30	25.08	15.33	-52.9	-55.6	14.0	0.00e+00	0	22	0	269484032	70	5365
2026-01-13 03:32:12.29	24.95	15.42	-52.8	-55.5	14.0	0.00e+00	0	22	0	271581184	70	5314
2026-01-13 03:32:13.29	24.81	15.50	-53.0	-55.8	13.9	0.00e+00	0	22	0	273678336	71	5163
2026-01-13 03:32:14.29	24.68	15.58	-52.8	-55.5	14.2	0.00e+00	0	22	0	275775488	71	5024
2026-01-13 03:32:15.29	24.54	15.67	-52.9	-55.5	14.2	0.00e+00	0	22	0	277872640	71	5021
2026-01-13 03:32:16.28	24.40	15.75	-52.7	-55.3	14.3	0.00e+00	0	22	0	278921216	71	4911
2026-01-13 03:32:17.28	24.26	15.83	-52.6	-55.1	14.4	0.00e+00	0	22	0	281018368	71	4798
2026-01-13 03:32:18.28	24.12	15.92	-52.2	-54.6	14.8	0.00e+00	0	22	0	283115520	71	4502
2026-01-13 03:32:19.28	23.98	16.00	-52.5	-54.9	14.6	0.00e+00	0	22	0	285212672	71	4684
2026-01-13 03:32:20.28	23.84	16.09	-52.4	-54.8	14.6	0.00e+00	0	22	0	286261248	71	4649
2026-01-13 03:32:21.28	23.69	16.17	-52.2	-54.5	14.7	0.00e+00	0	22	0	288358400	70	4722
2026-01-13 03:32:22.28	23.55	16.26	-52.3	-54.8	14.5	0.00e+00	0	22	0	290455552	70	4873
2026-01-13 03:32:23.28	23.41	16.34	-52.4	-54.8	14.5	0.00e+00	0	22	0	292552704	70	4904
2026-01-13 03:32:24.28	23.26	16.43	-52.2	-54.5	14.6	0.00e+00	0	22	0	294649856	70	4759
2026-01-13 03:32:25.28	23.11	16.51	-52.3	-54.7	14.5	0.00e+00	0	22	0	295698432	70	4829
2026-01-13 03:32:26.28	22.97	16.60	-51.7	-53.9	15.1	0.00e+00	0	22	0	297795584	70	4396
2026-01-13 03:32:27.28	22.82	16.68	-51.7	-53.8	14.9	0.00e+00	0	22	0	299892736	69	4651
2026-01-13 03:32:28.28	22.67	16.77	-51.6	-53.8	14.9	0.00e+00	0	22	0	301989888	69	4639
2026-01-13 03:32:29.28	22.52	16.85	-51.5	-53.6	15.0	0.00e+00	0	22	0	304087040	69	4545
2026-01-13 03:32:30.28	22.37	16.94	-51.7	-53.9	14.9	0.00e+00	0	22	0	305135616	69	4658
2026-01-13 03:32:31.27	22.22	17.02	-51.7	-53.9	14.9	0.00e+00	0	22	0	307232768	69	4655
2026-01-13 03:32:32.28	22.07	17.11	-51.6	-53.8	15.0	0.00e+00	0	22	0	309329920	69	4602
2026-01-13 03:32:33.27	21.91	17.19	-51.6	-53.7	15.0	0.00e+00	0	22	0	311427072	69	4594
2026-01-13 03:32:34.27	21.76	17.28	-51.5	-53.5	15.1	0.00e+00	0	22	0	313524224	69	4472
2026-01-13 03:32:35.27	21.61	17.37	-51.6	-53.6	15.0	0.00e+00	0	22	0	314572800	69	4543
2026-01-13 03:32:36.27	21.45	17.45	-51.5	-53.6	15.1	0.00e+00	0	22	0	316669952	69	4499
2026-01-13 03:32:37.27	21.29	17.54	-51.6	-53.6	15.1	0.00e+00	0	22	0	318767104	69	4534
2026-01-13 03:32:38.27	21.14	17.62	-51.6	-53.7	15.0	0.00e+00	0	22	0	320864256	69	4589
2026-01-13 03:32:39.26	20.98	17.71	-51.6	-53.7	15.0	0.00e+00	0	22	0	321912832	69	4574
2026-01-13 03:32:40.26	20.82	17.80	-51.9	-54.1	14.8	0.00e+00	0	22	0	324009984	69	4772
2026-01-13 03:32:41.25	20.66	17.88	-52.0	-54.3	14.7	0.00e+00	0	22	0	326107136	69	4897
2026-01-13 03:32:42.25	20.50	17.97	-51.8	-54.0	14.9	0.00e+00	0	22	0	328204288	69	4708
2026-01-13 03:32:43.25	20.34	18.06	-51.9	-54.1	14.7	0.00e+00	0	22	0	330301440	69	4800
2026-01-13 03:32:44.25	20.17	18.14	-52.1	-54.4	14.6	0.00e+00	0	22	0	331350016	69	4946
2026-01-13 03:32:45.25	20.01	18.23	-52.1	-54.5	14.5	0.00e+00	0	22	0	333447168	69	4999
2026-01-13 03:32:46.25	19.84	18.32	-52.2	-54.6	14.5	0.00e+00	0	22	0	335544320	69	5047
2026-01-13 03:32:47.26	19.68	18.40	-52.1	-54.5	14.5	0.00e+00	0	22	0	337641472	69	5011
2026-01-13 03:32:48.25	19.51	18.49	-52.1	-54.6	14.5	0.00e+00	0	22	0	339738624	69	5047
2026-01-13 03:32:49.25	19.34	18.58	-52.2	-54.7	14.4	0.00e+00	0	22	0	340787200	69	5106
2026-01-13 03:32:50.25	19.17	18.66	-51.9	-54.3	14.6	0.00e+00	0	22	0	342884352	69	4886
2026-01-13 03:32:51.25	19.00	18.75	-51.8	-54.1	14.7	0.00e+00	0	22	0	344981504	69	4790
2026-01-13 03:32:52.24	18.83	18.84	-51.9	-54.2	14.7	0.00e+00	0	22	0	347078656	69	4846
2026-01-13 03:32:53.24	18.66	18.92	-51.8	-54.1	14.7	0.00e+00	0	22	0	348127232	69	4772
2026-01-13 03:32:54.24	18.49	19.01	-51.5	-53.7	15.0	0.00e+00	0	22	0	350224384	69	4571
2026-01-13 03:32:55.24	18.31	19.10	-51.5	-53.6	15.1	0.00e+00	0	22	0	352321536	69	4519
2026-01-13 03:32:56.24	18.14	19.18	-51.5	-53.6	15.1	0.00e+00	0	22	0	354418688	69	4501
2026-01-13 03:32:57.24	17.96	19.27	-51.4	-53.5	15.1	0.00e+00	0	22	0	356515840	69	4474
2026-01-13 03:32:58.24	17.79	19.36	-51.6	-53.7	14.9	0.00e+00	0	22	0	357564416	69	4595
2026-01-13 03:32:59.24	17.61	19.45	-51.6	-53.8	15.0	0.00e+00	0	22	0	359661568	69	4622
2026-01-13 03:33:00.25	17.43	19.53	-51.6	-53.8	14.9	0.00e+00	0	22	0	361758720	69	4637
2026-01-13 03:33:01.24	17.25	19.62	-51.9	-54.2	14.8	0.00e+00	0	22	0	363855872	69	4818
2026-01-13 03:33:02.25	17.07	19.71	-51.9	-54.3	14.7	0.00e+00	0	22	0	365953024	69	4877
2026-01-13 03:33:03.25	16.88	19.80	-52.0	-54.4	14.6	0.00e+00	0	22	0	367001600	69	4949
2026-01-13 03:33:04.24	16.70	19.88	-52.2	-54.6	14.5	0.00e+00	0	22	0	369098752	69	5071
2026-01-13 03:33:05.23	16.52	19.97	-52.3	-54.7	14.4	0.00e+00	0	22	0	371195904	69	5144
2026-01-13 03:33:06.23	16.33	20.06	-52.2	-54.5	14.5	0.00e+00	0	22	0	373293056	69	5018
2026-01-13 03:33:07.23	16.15	20.14	-52.5	-54.9	14.4	0.00e+00	0	22	0	374341632	70	4951
2026-01-13 03:33:08.22	15.96	20.23	-52.6	-55.1	14.3	0.00e+00	0	22	0	376438784	70	5092
2026-01-13 03:33:09.22	15.77	20.32	-52.7	-55.2	14.3	0.00e+00	0	22	0	378535936	70	5123
2026-01-13 03:33:10.22	15.58	20.40	-52.6	-55.1	14.3	0.00e+00	0	22	0	380633088	70	5094
2026-01-13 03:33:11.21	15.39	20.49	-52.4	-54.8	14.5	0.00e+00	0	22	0	382730240	70	4878
2026-01-13 03:33:12.21	15.20	20.58	-52.3	-54.6	14.7	0.00e+00	0	22	0	383778816	70	4765
2026-01-13 03:33:13.21	15.01	20.66	-52.2	-54.5	14.7	0.00e+00	0	22	0	385875968	70	4756
2026-01-13 03:33:14.20	14.82	20.75	-51.9	-54.1	14.9	0.00e+00	0	22	0	387973120	70	4532
2026-01-13 03:33:15.20	14.62	20.84	-52.3	-54.7	14.6	0.00e+00	0	22	0	390070272	70	4859
2026-01-13 03:33:16.20	14.42	20.92	-52.4	-54.8	14.6	0.00e+00	0	22	0	392167424	70	4883
2026-01-13 03:33:17.19	14.23	21.01	-52.5	-54.9	14.5	0.00e+00	0	22	0	393216000	70	4969
2026-01-13 03:33:18.19	14.03	21.10	-52.5	-55.0	14.4	0.00e+00	0	22	0	395313152	70	5013
2026-01-13 03:33:19.19	13.83	21.18	-52.4	-54.8	14.6	0.00e+00	0	22	0	397410304	70	4871
2026-01-13 03:33:20.19	13.63	21.27	-52.2	-54.5	14.7	0.00e+00	0	22	0	399507456	70	4751
2026-01-13 03:33:21.18	13.43	21.36	-52.3	-54.6	14.7	0.00e+00	0	22	0	400556032	70	4765
2026-01-13 03:33:22.18	13.23	21.44	-52.3	-54.6	14.7	0.00e+00	0	22	0	402653184	70	4775
2026-01-13 03:33:23.19	13.02	21.53	-52.3	-54.7	14.6	0.00e+00	0	22	0	404750336	70	4824
2026-01-13 03:33:24.19	12.81	21.62	-52.1	-54.4	14.8	0.00e+00	0	22	0	406847488	70	4656
2026-01-13 03:33:25.19	12.61	21.70	-52.0	-54.1	14.9	0.00e+00	0	22	0	408944640	70	4544
2026-01-13 03:33:26.20	12.40	21.79	-51.9	-54.0	15.1	0.00e+00	0	22	0	409993216	70	4445
2026-01-13 03:33:27.19	12.19	21.87	-51.8	-53.9	15.1	0.00e+00	0	22	0	412090368	70	4426
2026-01-13 03:33:28.19	11.98	21.96	-51.9	-54.0	15.0	0.00e+00	0	22	0	414187520	70	4457
2026-01-13 03:33:29.19	11.77	22.04	-51.8	-53.9	15.1	0.00e+00	0	22	0	416284672	70	4421
2026-01-13 03:33:30.19	11.55	22.13	-52.0	-54.2	14.9	0.00e+00	0	22	0	417333248	70	4551
2026-01-13 03:33:31.19	11.34	22.22	-52.2	-54.4	14.8	0.00e+00	0	22	0	419430400	70	4667
2026-01-13 03:33:32.19	11.13	22.30	-52.4	-54.7	14.6	0.00e+00	0	22	0	421527552	70	4817
2026-01-13 03:33:33.18	10.91	22.38	-52.3	-54.5	14.7	0.00e+00	0	22	0	423624704	70	4728
2026-01-13 03:33:34.18	10.69	22.47	-52.3	-54.5	14.7	0.00e+00	0	22	0	425721856	70	4749
2026-01-13 03:33:35.18	10.48	22.55	-52.3	-54.6	14.7	0.00e+00	0	22	0	426770432	70	4775
2026-01-13 03:33:36.18	10.26	22.64	-52.1	-54.3	14.9	0.00e+00	0	22	0	428867584	70	4602
2026-01-13 03:33:37.17	10.04	22.72	-52.2	-54.4	14.8	0.00e+00	0	22	0	430964736	70	4681
2026-01-13 03:33:38.17	9.81	22.81	-51.9	-54.1	15.0	0.00e+00	0	22	0	433061888	70	4495
2026-01-13 03:33:39.17	9.59	22.89	-51.8	-53.9	15.1	0.00e+00	0	22	0	435159040	70	4432
2026-01-13 03:33:40.16	9.37	22.97	-51.7	-53.8	15.2	0.00e+00	0	22	0	436207616	70	4355
2026-01-13 03:33:41.15	9.15	23.06	-51.5	-53.4	15.2	0.00e+00	0	22	0	438304768	69	4412
2026-01-13 03:33:42.15	8.92	23.14	-50.9	-52.7	15.4	0.00e+00	0	22	0	440401920	68	4330
2026-01-13 03:33:43.15	8.69	23.22	-50.3	-52.0	15.6	0.00e+00	0	22	0	442499072	67	4241
2026-01-13 03:33:44.14	8.46	23.30	-50.4	-52.1	15.5	0.00e+00	0	22	0	443547648	67	4269
2026-01-13 03:33:45.14	8.23	23.39	-50.4	-52.2	15.5	0.00e+00	0	22	0	445644800	67	4304
2026-01-13 03:33:46.14	8.00	23.47	-50.7	-52.6	15.3	0.00e+00	0	22	0	447741952	67	4509
2026-01-13 03:33:47.14	7.77	23.55	-51.0	-53.0	15.1	0.00e+00	0	22	0	449839104	67	4717
2026-01-13 03:33:48.13	7.53	23.63	-51.2	-53.3	14.9	0.00e+00	0	22	0	451936256	67	4913
2026-01-13 03:33:49.12	7.30	23.71	-51.2	-53.4	14.9	0.00e+00	0	22	0	452984832	67	4936
2026-01-13 03:33:50.13	7.06	23.80	-51.0	-52.9	15.0	0.00e+00	0	22	0	455081984	67	4696
2026-01-13 03:33:51.12	6.83	23.88	-50.8	-52.8	15.2	0.00e+00	0	22	0	457179136	67	4614
2026-01-13 03:33:52.12	6.59	23.96	-50.9	-52.9	15.1	0.00e+00	0	22	0	459276288	67	4695
2026-01-13 03:33:53.13	6.34	24.04	-51.2	-53.3	14.9	0.00e+00	0	22	0	461373440	67	4875
2026-01-13 03:33:54.13	6.10	24.12	-51.2	-53.3	14.9	0.00e+00	0	22	0	462422016	67	4906
2026-01-13 03:33:55.13	5.86	24.20	-51.0	-53.0	15.0	0.00e+00	0	22	0	464519168	67	4752
2026-01-13 03:33:56.13	5.61	24.28	-50.9	-53.0	15.1	0.00e+00	0	22	0	466616320	67	4710
2026-01-13 03:33:57.14	5.37	24.36	-50.6	-52.5	15.3	0.00e+00	0	22	0	468713472	67	4466
2026-01-13 03:33:58.13	5.12	24.44	-50.4	-52.3	15.5	0.00e+00	0	22	0	469762048	67	4342
2026-01-13 03:33:59.13	4.87	24.51	-50.5	-52.3	15.4	0.00e+00	0	22	0	471859200	67	4364
2026-01-13 03:34:00.13	4.62	24.59	-50.6	-52.4	15.4	0.00e+00	0	22	0	473956352	67	4422
2026-01-13 03:34:01.12	4.38	24.67	-51.1	-53.1	15.0	0.00e+00	0	22	0	476053504	67	4762
2026-01-13 03:34:02.12	4.12	24.75	-51.1	-53.1	15.0	0.00e+00	0	22	0	478150656	67	4812
2026-01-13 03:34:03.12	3.87	24.82	-51.0	-52.9	15.1	0.00e+00	0	22	0	479199232	67	4695
2026-01-13 03:34:04.11	3.62	24.90	-50.6	-52.5	15.3	0.00e+00	0	22	0	481296384	67	4448
2026-01-13 03:34:05.11	3.36	24.98	-50.5	-52.4	15.4	0.00e+00	0	22	0	483393536	67	4414
2026-01-13 03:34:06.10	3.11	25.05	-50.4	-52.2	15.5	0.00e+00	0	22	0	485490688	67	4323
2026-01-13 03:34:07.10	2.85	25.13	-50.5	-52.3	15.4	0.00e+00	0	22	0	487587840	67	4386
2026-01-13 03:34:08.09	2.59	25.20	-50.6	-52.5	15.3	0.00e+00	0	22	0	488636416	67	4483
2026-01-13 03:34:09.10	2.33	25.28	-50.6	-52.5	15.3	0.00e+00	0	22	0	490733568	67	4446
2026-01-13 03:34:10.10	2.07	25.35	-50.7	-52.5	15.3	0.00e+00	0	22	0	492830720	67	4489
2026-01-13 03:34:11.09	1.81	25.42	-50.4	-52.2	15.5	0.00e+00	0	22	0	494927872	67	4305
2026-01-13 03:34:12.09	1.54	25.50	-50.4	-52.2	15.5	0.00e+00	0	22	0	495976448	67	4299
2026-01-13 03:34:13.09	1.28	25.57	-50.2	-51.9	15.6	0.00e+00	0	22	0	498073600	67	4161
2026-01-13 03:34:14.09	1.01	25.64	-50.3	-52.1	15.3	0.00e+00	0	22	0	500170752	66	4517
2026-01-13 03:34:15.08	0.74	25.71	-50.7	-52.6	15.1	0.00e+00	0	22	0	502267904	66	4760
2026-01-13 03:34:16.09	0.47	25.79	-51.2	-53.2	15.0	0.00e+00	0	22	0	504365056	67	4817
2026-01-13 03:34:17.08	0.20	25.86	-51.7	-53.8	14.8	0.00e+00	0	22	0	505413632	68	4921
2026-01-13 03:34:18.08	359.93	25.93	-51.7	-53.9	14.8	0.00e+00	0	22	0	507510784	68	4931
2026-01-13 03:34:19.08	359.66	26.00	-51.8	-54.0	14.7	0.00e+00	0	22	0	509607936	68	4987
2026-01-13 03:34:20.08	359.39	26.06	-51.5	-53.5	15.0	0.00e+00	0	22	0	511705088	68	4754
2026-01-13 03:34:21.08	359.11	26.13	-51.6	-53.7	14.9	0.00e+00	0	22	0	512753664	68	4855
2026-01-13 03:34:22.07	358.84	26.20	-52.0	-54.2	14.8	0.00e+00	0	22	0	514850816	69	4817
2026-01-13 03:34:23.07	358.56	26.27	-52.0	-54.2	14.8	0.00e+00	0	22	0	516947968	69	4829
2026-01-13 03:34:24.07	358.28	26.34	-51.7	-53.7	15.0	0.00e+00	0	22	0	519045120	69	4584
2026-01-13 03:34:25.06	358.00	26.40	-51.5	-53.5	15.2	0.00e+00	0	22	0	521142272	69	4443
2026-01-13 03:34:26.06	357.72	26.47	-51.6	-53.7	15.1	0.00e+00	0	22	0	522190848	69	4566
2026-01-13 03:34:27.06	357.44	26.53	-51.5	-53.5	15.2	0.00e+00	0	22	0	524288000	69	4473
2026-01-13 03:34:28.07	357.15	26.60	-51.7	-53.9	14.9	0.00e+00	0	22	0	526385152	69	4666
2026-01-13 03:34:29.07	356.87	26.66	-51.9	-54.2	14.8	0.00e+00	0	22	0	528482304	69	4846
2026-01-13 03:34:30.07	356.58	26.72	-51.8	-54.0	14.9	0.00e+00	0	22	0	530579456	69	4722
2026-01-13 03:34:31.07	356.29	26.79	-51.5	-53.6	15.1	0.00e+00	0	22	0	531628032	69	4524
2026-01-13 03:34:32.07	356.01	26.85	-51.2	-53.2	15.2	0.00e+00	0	22	0	533725184	68	4571
2026-01-13 03:34:33.07	355.72	26.91	-50.9	-52.8	15.3	0.00e+00	0	22	0	535822336	68	4375
2026-01-13 03:34:34.07	355.43	26.97	-51.0	-52.8	15.3	0.00e+00	0	22	0	537919488	68	4388
2026-01-13 03:34:35.07	355.13	27.03	-51.3	-53.4	15.1	0.00e+00	0	22	0	540016640	68	4666
2026-01-13 03:34:36.07	354.84	27.09	-51.4	-53.4	15.1	0.00e+00	0	22	0	541065216	68	4682
2026-01-13 03:34:37.06	354.55	27.15	-51.5	-53.6	14.9	0.00e+00	0	22	0	543162368	68	4799
2026-01-13 03:34:38.05	354.26	27.21	-51.7	-53.8	14.8	0.00e+00	0	22	0	545259520	68	4908
2026-01-13 03:34:39.05	353.96	27.26	-51.5	-53.6	14.9	0.00e+00	0	22	0	547356672	68	4776
2026-01-13 03:34:40.04	353.67	27.32	-51.4	-53.5	15.0	0.00e+00	0	22	0	548405248	68	4715
2026-01-13 03:34:41.05	353.37	27.37	-51.4	-53.4	15.1	0.00e+00	0	22	0	550502400	68	4661
2026-01-13 03:34:42.04	353.07	27.43	-51.2	-53.2	15.2	0.00e+00	0	22	0	552599552	68	4555
2026-01-13 03:34:43.04	352.77	27.48	-51.3	-53.2	15.1	0.00e+00	0	22	0	554696704	68	4594
2026-01-13 03:34:44.04	352.47	27.54	-51.5	-53.6	14.9	0.00e+00	0	22	0	556793856	68	4768
2026-01-13 03:34:45.04	352.17	27.59	-51.4	-53.5	15.0	0.00e+00	0	22	0	557842432	68	4717
2026-01-13 03:34:46.04	351.86	27.64	-51.1	-53.0	15.2	0.00e+00	0	22	0	559939584	68	4491
2026-01-13 03:34:47.03	351.56	27.69	-50.9	-52.7	15.4	0.00e+00	0	22	0	562036736	68	4333
2026-01-13 03:34:48.03	351.26	27.74	-50.9	-52.8	15.4	0.00e+00	0	22	0	564133888	68	4348
2026-01-13 03:34:49.03	350.95	27.79	-51.0	-52.8	15.4	0.00e+00	0	22	0	565182464	68	4373
2026-01-13 03:34:50.03	350.65	27.84	-51.4	-53.4	15.1	0.00e+00	0	22	0	567279616	68	4668
2026-01-13 03:34:51.03	350.34	27.89	-51.7	-53.8	14.8	0.00e+00	0	22	0	569376768	68	4900
2026-01-13 03:34:52.03	350.03	27.93	-51.8	-54.1	14.7	0.00e+00	0	22	0	571473920	68	5057
2026-01-13 03:34:53.02	349.72	27.98	-51.5	-53.6	14.9	0.00e+00	0	22	0	573571072	68	4813
2026-01-13 03:34:54.02	349.41	28.02	-51.5	-53.7	14.9	0.00e+00	0	22	0	574619648	68	4818
2026-01-13 03:34:55.03	349.10	28.07	-51.4	-53.4	15.0	0.00e+00	0	22	0	576716800	68	4688
2026-01-13 03:34:56.02	348.79	28.11	-51.6	-53.8	14.8	0.00e+00	0	22	0	578813952	68	4893
2026-01-13 03:34:57.01	348.48	28.15	-51.8	-54.0	14.7	0.00e+00	0	22	0	580911104	68	5038
2026-01-13 03:34:58.02	348.16	28.20	-51.9	-54.1	14.8	0.00e+00	0	22	0	583008256	69	4801
2026-01-13 03:34:59.02	347.84	28.24	-51.7	-53.8	15.0	0.00e+00	0	22	0	584056832	69	4642
2026-01-13 03:35:00.02	347.53	28.28	-51.6	-53.6	15.1	0.00e+00	0	22	0	586153984	69	4542
2026-01-13 03:35:01.01	347.22	28.32	-51.7	-53.8	15.0	0.00e+00	0	22	0	588251136	69	4624
2026-01-13 03:35:02.01	346.90	28.35	-51.6	-53.7	15.0	0.00e+00	0	22	0	590348288	69	4563
2026-01-13 03:35:03.00	346.58	28.39	-52.2	-54.5	14.6	0.00e+00	0	22	0	591396864	69	4998
2026-01-13 03:35:04.00	346.26	28.43	-52.6	-55.0	14.5	0.00e+00	0	22	0	593494016	70	5018
2026-01-13 03:35:05.00	345.95	28.46	-52.8	-55.4	14.2	0.00e+00	0	22	0	595591168	70	5270
2026-01-13 03:35:06.00	345.63	28.50	-52.8	-55.3	14.2	0.00e+00	0	22	0	597688320	70	5217
2026-01-13 03:35:06.99	345.31	28.53	-52.7	-55.2	14.3	0.00e+00	0	22	0	599785472	70	5157
2026-01-13 03:35:07.99	344.99	28.56	-52.6	-55.0	14.4	0.00e+00	0	22	0	600834048	70	5021
2026-01-13 03:35:09.00	344.66	28.59	-52.5	-54.9	14.5	0.00e+00	0	22	0	602931200	70	4967
2026-01-13 03:35:09.99	344.34	28.62	-52.7	-55.2	14.3	0.00e+00	0	22	0	605028352	70	5128
2026-01-13 03:35:10.99	344.02	28.65	-52.9	-55.5	14.3	0.00e+00	0	22	0	607125504	71	5002
2026-01-13 03:35:11.98	343.70	28.68	-53.1	-55.8	14.1	0.00e+00	0	22	0	608174080	71	5176
2026-01-13 03:35:12.98	343.37	28.71	-53.0	-55.7	14.2	0.00e+00	0	22	0	610271232	71	5122
2026-01-13 03:35:13.98	343.05	28.73	-52.8	-55.3	14.4	0.00e+00	0	22	0	612368384	71	4907
2026-01-13 03:35:14.98	342.72	28.76	-52.5	-54.9	14.7	0.00e+00	0	22	0	614465536	71	4693
2026-01-13 03:35:15.98	342.40	28.78	-52.3	-54.6	14.9	0.00e+00	0	22	0	616562688	71	4539
2026-01-13 03:35:16.98	342.07	28.81	-52.2	-54.5	14.7	0.00e+00	0	22	0	617611264	70	4751
2026-01-13 03:35:17.98	341.74	28.83	-52.1	-54.4	14.8	0.00e+00	0	22	0	619708416	70	4670
2026-01-13 03:35:18.98	341.41	28.85	-52.3	-54.8	14.6	0.00e+00	0	22	0	621805568	70	4871
2026-01-13 03:35:19.98	341.09	28.87	-52.6	-55.1	14.4	0.00e+00	0	22	0	623902720	70	5084
2026-01-13 03:35:20.97	340.76	28.89	-52.6	-55.3	14.3	0.00e+00	0	22	0	625999872	70	5160
2026-01-13 03:35:21.97	340.43	28.91	-52.6	-55.2	14.3	0.00e+00	0	22	0	627048448	70	5127
2026-01-13 03:35:22.95	340.11	28.92	-52.7	-55.4	14.2	0.00e+00	0	22	0	629145600	70	5260
2026-01-13 03:35:23.94	339.78	28.94	-52.7	-55.4	14.2	0.00e+00	0	22	0	631242752	70	5220
2026-01-13 03:35:24.94	339.45	28.96	-52.6	-55.3	14.3	0.00e+00	0	22	0	633339904	70	5165
2026-01-13 03:35:25.93	339.13	28.97	-52.6	-55.2	14.2	0.00e+00	0	22	0	634388480	70	5156
2026-01-13 03:35:26.93	338.80	28.98	-52.6	-55.4	14.2	0.00e+00	0	22	0	636485632	70	5225
2026-01-13 03:35:27.93	338.47	28.99	-52.8	-55.7	14.0	0.00e+00	0	22	0	638582784	70	5441
2026-01-13 03:35:28.94	338.13	29.01	-53.0	-55.9	14.0	0.00e+00	0	22	0	640679936	71	5271
2026-01-13 03:35:29.93	337.80	29.01	-53.1	-56.2	13.8	0.00e+00	0	22	0	642777088	71	5437
2026-01-13 03:35:30.92	337.48	29.02	-53.1	-56.3	13.7	0.00e+00	0	22	0	643825664	71	5483
2026-01-13 03:35:31.93	337.14	29.03	-53.0	-55.9	14.0	0.00e+00	0	22	0	645922816	71	5268
2026-01-13 03:35:32.92	336.81	29.04	-52.9	-55.7	14.1	0.00e+00	0	22	0	648019968	71	5143
2026-01-13 03:35:33.92	336.48	29.04	-52.4	-54.9	14.6	0.00e+00	0	22	0	650117120	71	4695
2026-01-13 03:35:34.92	336.15	29.05	-52.2	-54.6	14.9	0.00e+00	0	22	0	652214272	71	4495
2026-01-13 03:35:35.92	335.82	29.05	-52.0	-54.2	14.9	0.00e+00	0	22	0	653262848	70	4566
2026-01-13 03:35:36.92	335.49	29.05	-52.0	-54.2	14.9	0.00e+00	0	22	0	655360000	70	4556
2026-01-13 03:35:37.92	335.15	29.05	-51.9	-54.1	15.0	0.00e+00	0	22	0	657457152	70	4519
2026-01-13 03:35:38.92	334.82	29.05	-51.8	-54.0	14.9	0.00e+00	0	22	0	659554304	69	4721
2026-01-13 03:35:39.92	334.49	29.05	-52.0	-54.4	14.6	0.00e+00	0	22	0	660602880	69	4954
2026-01-13 03:35:40.92	334.16	29.05	-52.2	-54.5	14.5	0.00e+00	0	22	0	662700032	69	5030
2026-01-13 03:35:41.92	333.83	29.05	-52.3	-54.7	14.5	0.00e+00	0	22	0	664797184	69	5123
2026-01-13 03:35:42.91	333.50	29.04	-52.6	-55.1	14.4	0.00e+00	0	22	0	666894336	70	5075
2026-01-13 03:35:43.91	333.17	29.04	-53.0	-55.6	14.3	0.00e+00	0	22	0	668991488	71	5079
2026-01-13 03:35:44.91	332.83	29.03	-53.2	-55.9	14.0	0.00e+00	0	22	0	670040064	71	5257
2026-01-13 03:35:45.90	332.51	29.03	-53.0	-55.6	14.3	0.00e+00	0	22	0	672137216	71	5048
2026-01-13 03:35:46.91	332.17	29.02	-52.8	-55.2	14.5	0.00e+00	0	22	0	674234368	71	4857
2026-01-13 03:35:47.90	331.84	29.01	-52.4	-54.6	14.9	0.00e+00	0	22	0	676331520	71	4516
2026-01-13 03:35:48.90	331.51	29.00	-52.2	-54.3	15.0	0.00e+00	0	22	0	678428672	71	4359
2026-01-13 03:35:49.90	331.18	28.99	-52.3	-54.5	14.8	0.00e+00	0	22	0	679477248	70	4717
2026-01-13 03:35:50.90	330.85	28.97	-52.6	-54.9	14.5	0.00e+00	0	22	0	681574400	70	4947
2026-01-13 03:35:51.90	330.52	28.96	-52.9	-55.3	14.4	0.00e+00	0	22	0	683671552	71	4921
2026-01-13 03:35:52.89	330.19	28.94	-53.1	-55.7	14.2	0.00e+00	0	22	0	685768704	71	5132
2026-01-13 03:35:53.89	329.86	28.93	-53.0	-55.6	14.3	0.00e+00	0	22	0	686817280	71	5053
2026-01-13 03:35:54.89	329.54	28.91	-53.0	-55.6	14.3	0.00e+00	0	22	0	688914432	71	5088
2026-01-13 03:35:55.90	329.20	28.89	-52.4	-54.8	14.8	0.00e+00	0	22	0	691011584	71	4623
2026-01-13 03:35:56.89	328.88	28.87	-52.0	-54.2	15.0	0.00e+00	0	22	0	693108736	70	4563
2026-01-13 03:35:57.89	328.55	28.85	-51.8	-53.9	15.2	0.00e+00	0	22	0	695205888	70	4394
2026-01-13 03:35:58.89	328.22	28.83	-51.7	-53.7	15.1	0.00e+00	0	22	0	696254464	69	4588
2026-01-13 03:35:59.88	327.90	28.81	-51.9	-54.0	14.9	0.00e+00	0	22	0	698351616	69	4736
2026-01-13 03:36:00.88	327.57	28.79	-52.0	-54.2	14.8	0.00e+00	0	22	0	700448768	69	4866
2026-01-13 03:36:01.88	327.25	28.76	-52.2	-54.4	14.6	0.00e+00	0	22	0	702545920	69	4971
2026-01-13 03:36:02.88	326.92	28.74	-52.1	-54.3	14.7	0.00e+00	0	22	0	704643072	69	4902
2026-01-13 03:36:03.88	326.59	28.71	-52.0	-54.2	14.8	0.00e+00	0	22	0	705691648	69	4825
2026-01-13 03:36:04.88	326.27	28.69	-51.9	-54.1	14.8	0.00e+00	0	22	0	707788800	69	4791
2026-01-13 03:36:05.88	325.94	28.66	-51.5	-53.6	15.2	0.00e+00	0	22	0	709885952	69	4515
2026-01-13 03:36:06.88	325.62	28.63	-51.1	-53.1	15.2	0.00e+00	0	22	0	711983104	68	4498
2026-01-13 03:36:07.88	325.30	28.60	-51.0	-52.9	15.3	0.00e+00	0	22	0	713031680	68	4411
2026-01-13 03:36:08.87	324.98	28.57	-50.9	-52.8	15.4	0.00e+00	0	22	0	715128832	68	4343
2026-01-13 03:36:09.87	324.66	28.53	-50.9	-52.8	15.4	0.00e+00	0	22	0	717225984	68	4348
2026-01-13 03:36:10.86	324.34	28.50	-51.1	-53.1	15.2	0.00e+00	0	22	0	719323136	68	4508
2026-01-13 03:36:11.86	324.02	28.47	-51.4	-53.4	15.0	0.00e+00	0	22	0	721420288	68	4684
2026-01-13 03:36:12.86	323.70	28.43	-51.5	-53.6	15.0	0.00e+00	0	22	0	722468864	68	4766
2026-01-13 03:36:13.85	323.38	28.40	-52.1	-54.4	14.7	0.00e+00	0	22	0	724566016	69	4935
2026-01-13 03:36:14.84	323.07	28.36	-52.3	-54.6	14.5	0.00e+00	0	22	0	726663168	69	5084
2026-01-13 03:36:15.83	322.75	28.32	-52.2	-54.5	14.5	0.00e+00	0	22	0	728760320	69	5035
2026-01-13 03:36:16.83	322.44	28.28	-52.0	-54.2	14.8	0.00e+00	0	22	0	729808896	69	4826
2026-01-13 03:36:17.83	322.12	28.25	-51.6	-53.7	15.1	0.00e+00	0	22	0	731906048	69	4550
2026-01-13 03:36:18.82	321.81	28.21	-51.9	-54.1	14.8	0.00e+00	0	22	0	734003200	69	4777
2026-01-13 03:36:19.82	321.49	28.16	-51.9	-54.0	14.9	0.00e+00	0	22	0	736100352	69	4743
2026-01-13 03:36:20.82	321.18	28.12	-52.2	-54.4	14.7	0.00e+00	0	22	0	738197504	69	4934
2026-01-13 03:36:21.82	320.87	28.08	-52.2	-54.4	14.6	0.00e+00	0	22	0	739246080	69	4970
2026-01-13 03:36:22.82	320.56	28.03	-52.3	-54.4	14.6	0.00e+00	0	22	0	741343232	69	4971
2026-01-13 03:36:23.82	320.24	27.99	-52.0	-54.0	14.8	0.00e+00	0	22	0	743440384	69	4759
2026-01-13 03:36:24.81	319.94	27.94	-51.7	-53.7	15.0	0.00e+00	0	22	0	745537536	69	4551
2026-01-13 03:36:25.81	319.63	27.90	-51.5	-53.3	15.3	0.00e+00	0	22	0	747634688	69	4367
2026-01-13 03:36:26.81	319.32	27.85	-51.6	-53.4	15.2	0.00e+00	0	22	0	748683264	69	4437
2026-01-13 03:36:27.82	319.01	27.80	-51.6	-53.5	15.2	0.00e+00	0	22	0	750780416	69	4466
2026-01-13 03:36:28.82	318.70	27.75	-51.9	-53.9	15.0	0.00e+00	0	22	0	752877568	69	4670
2026-01-13 03:36:29.82	318.40	27.70	-52.1	-54.2	14.7	0.00e+00	0	22	0	754974720	69	4848
2026-01-13 03:36:30.82	318.09	27.65	-51.8	-53.8	15.0	0.00e+00	0	22	0	756023296	69	4637
2026-01-13 03:36:31.82	317.79	27.60	-51.6	-53.5	15.2	0.00e+00	0	22	0	758120448	69	4445
2026-01-13 03:36:32.82	317.49	27.55	-51.5	-53.4	15.2	0.00e+00	0	22	0	760217600	69	4415
2026-01-13 03:36:33.82	317.18	27.49	-51.7	-53.7	15.1	0.00e+00	0	22	0	762314752	69	4581
2026-01-13 03:36:34.82	316.88	27.44	-52.2	-54.3	14.7	0.00e+00	0	22	0	764411904	69	4913
2026-01-13 03:36:35.81	316.59	27.38	-52.3	-54.6	14.6	0.00e+00	0	22	0	765460480	69	5054
2026-01-13 03:36:36.81	316.29	27.33	-52.8	-55.2	14.5	0.00e+00	0	22	0	767557632	70	5112
2026-01-13 03:36:37.81	315.99	27.27	-52.7	-55.1	14.4	0.00e+00	0	22	0	769654784	70	5055
2026-01-13 03:36:38.80	315.70	27.22	-52.9	-55.3	14.3	0.00e+00	0	22	0	771751936	70	5184
2026-01-13 03:36:39.80	315.40	27.16	-52.8	-55.2	14.5	0.00e+00	0	22	0	773849088	71	4834
2026-01-13 03:36:40.80	315.11	27.10	-52.8	-55.2	14.5	0.00e+00	0	22	0	774897664	71	4852
2026-01-13 03:36:41.80	314.82	27.04	-52.8	-55.2	14.6	0.00e+00	0	22	0	776994816	71	4828
2026-01-13 03:36:42.79	314.53	26.98	-53.0	-55.5	14.3	0.00e+00	0	22	0	779091968	71	5022
2026-01-13 03:36:43.79	314.24	26.92	-53.0	-55.6	14.3	0.00e+00	0	22	0	781189120	71	5071
2026-01-13 03:36:44.79	313.95	26.86	-53.1	-55.7	14.1	0.00e+00	0	22	0	782237696	71	5129
2026-01-13 03:36:45.79	313.66	26.80	-53.0	-55.6	14.2	0.00e+00	0	22	0	784334848	71	5074
2026-01-13 03:36:46.79	313.37	26.74	-53.0	-55.5	14.3	0.00e+00	0	22	0	786432000	71	5037
2026-01-13 03:36:47.79	313.08	26.67	-53.1	-55.7	14.2	0.00e+00	0	22	0	788529152	71	5146
2026-01-13 03:36:48.78	312.80	26.61	-53.4	-56.2	14.1	0.00e+00	0	22	0	790626304	72	5137
2026-01-13 03:36:49.78	312.52	26.55	-53.4	-56.2	14.0	0.00e+00	0	22	0	791674880	72	5132
2026-01-13 03:36:50.78	312.23	26.48	-53.5	-56.3	13.9	0.00e+00	0	22	0	793772032	72	5191
2026-01-13 03:36:51.78	311.95	26.41	-53.4	-56.2	14.0	0.00e+00	0	22	0	795869184	72	5126
2026-01-13 03:36:52.77	311.67	26.35	-53.3	-56.1	14.0	0.00e+00	0	22	0	797966336	72	5069
2026-01-13 03:36:53.77	311.39	26.28	-53.4	-56.3	13.9	0.00e+00	0	22	0	800063488	72	5215
2026-01-13 03:36:54.77	311.11	26.21	-53.1	-55.8	14.3	0.00e+00	0	22	0	801112064	72	4918
2026-01-13 03:36:55.77	310.84	26.15	-52.4	-54.8	14.8	0.00e+00	0	22	0	803209216	71	4601
2026-01-13 03:36:56.77	310.56	26.08	-52.1	-54.3	14.9	0.00e+00	0	22	0	805306368	70	4637
2026-01-13 03:36:57.77	310.29	26.01	-51.9	-54.1	15.0	0.00e+00	0	22	0	807403520	70	4516
2026-01-13 03:36:58.77	310.01	25.94	-51.8	-54.0	15.1	0.00e+00	0	22	0	808452096	70	4457
2026-01-13 03:36:59.78	309.74	25.87	-51.4	-53.5	15.2	0.00e+00	0	22	0	810549248	69	4466
2026-01-13 03:37:00.77	309.47	25.80	-51.2	-53.2	15.3	0.00e+00	0	22	0	812646400	69	4317
2026-01-13 03:37:01.78	309.20	25.73	-51.2	-53.2	15.4	0.00e+00	0	22	0	814743552	69	4305
2026-01-13 03:37:02.78	308.93	25.65	-50.9	-52.8	15.4	0.00e+00	0	22	0	816840704	68	4355
2026-01-13 03:37:03.78	308.66	25.58	-51.0	-52.9	15.3	0.00e+00	0	22	0	817889280	68	4439
2026-01-13 03:37:04.77	308.40	25.51	-51.5	-53.6	15.0	0.00e+00	0	22	0	819986432	68	4785
2026-01-13 03:37:05.78	308.13	25.44	-51.7	-53.9	14.8	0.00e+00	0	22	0	822083584	68	4941
2026-01-13 03:37:06.78	307.87	25.36	-51.9	-54.1	14.7	0.00e+00	0	22	0	824180736	68	5072
2026-01-13 03:37:07.78	307.60	25.29	-51.9	-54.1	14.6	0.00e+00	0	22	0	826277888	68	5077
2026-01-13 03:37:08.77	307.35	25.21	-52.0	-54.3	14.7	0.00e+00	0	22	0	827326464	69	4903
2026-01-13 03:37:09.77	307.09	25.14	-52.3	-54.7	14.4	0.00e+00	0	22	0	829423616	69	5143
2026-01-13 03:37:10.77	306.83	25.06	-52.3	-54.9	14.4	0.00e+00	0	22	0	831520768	69	5225
2026-01-13 03:37:11.77	306.57	24.99	-52.7	-55.4	14.2	0.00e+00	0	22	0	833617920	70	5270
2026-01-13 03:37:12.77	306.31	24.91	-52.8	-55.5	14.2	0.00e+00	0	22	0	834666496	70	5295
2026-01-13 03:37:13.76	306.06	24.84	-52.8	-55.6	14.1	0.00e+00	0	22	0	836763648	70	5386
2026-01-13 03:37:14.76	305.81	24.76	-52.6	-55.2	14.3	0.00e+00	0	22	0	838860800	70	5148
2026-01-13 03:37:15.76	305.55	24.68	-52.7	-55.4	14.2	0.00e+00	0	22	0	840957952	70	5225
2026-01-13 03:37:16.76	305.30	24.60	-52.8	-55.6	14.2	0.00e+00	0	22	0	843055104	70	5351
2026-01-13 03:37:17.75	305.06	24.53	-52.8	-55.6	14.1	0.00e+00	0	22	0	844103680	70	5369
2026-01-13 03:37:18.75	304.81	24.45	-52.9	-55.6	14.1	0.00e+00	0	22	0	846200832	70	5393
2026-01-13 03:37:19.74	304.56	24.37	-53.0	-55.8	14.1	0.00e+00	0	22	0	848297984	71	5188
2026-01-13 03:37:20.75	304.31	24.29	-52.8	-55.4	14.4	0.00e+00	0	22	0	850395136	71	4954
2026-01-13 03:37:21.74	304.07	24.21	-52.4	-54.8	14.8	0.00e+00	0	22	0	852492288	71	4603
2026-01-13 03:37:22.74	303.83	24.13	-52.2	-54.5	15.0	0.00e+00	0	22	0	853540864	71	4483
2026-01-13 03:37:23.74	303.58	24.05	-52.0	-54.1	15.0	0.00e+00	0	22	0	855638016	70	4543
2026-01-13 03:37:24.74	303.34	23.97	-51.8	-53.9	15.2	0.00e+00	0	22	0	857735168	70	4396
2026-01-13 03:37:25.74	303.10	23.89	-51.3	-53.3	15.3	0.00e+00	0	22	0	859832320	69	4376
2026-01-13 03:37:26.74	302.86	23.81	-51.6	-53.7	15.1	0.00e+00	0	22	0	860880896	69	4562
2026-01-13 03:37:27.74	302.63	23.73	-51.5	-53.5	15.1	0.00e+00	0	22	0	862978048	69	4485
2026-01-13 03:37:28.74	302.39	23.64	-51.3	-53.2	15.3	0.00e+00	0	22	0	865075200	69	4334
2026-01-13 03:37:29.74	302.16	23.56	-51.3	-53.3	15.3	0.00e+00	0	22	0	867172352	69	4361
2026-01-13 03:37:30.74	301.92	23.48	-51.2	-53.1	15.2	0.00e+00	0	22	0	869269504	68	4520
2026-01-13 03:37:31.74	301.69	23.40	-50.9	-52.8	15.4	0.00e+00	0	22	0	870318080	68	4376
2026-01-13 03:37:32.74	301.46	23.32	-50.8	-52.6	15.4	0.00e+00	0	22	0	872415232	68	4280
2026-01-13 03:37:33.74	301.23	23.23	-50.7	-52.5	15.5	0.00e+00	0	22	0	874512384	68	4214
2026-01-13 03:37:34.74	301.00	23.15	-50.9	-52.7	15.5	0.00e+00	0	22	0	876609536	68	4317
2026-01-13 03:37:35.75	300.77	23.06	-50.5	-52.3	15.4	0.00e+00	0	22	0	878706688	67	4363
2026-01-13 03:37:36.74	300.54	22.98	-50.5	-52.2	15.4	0.00e+00	0	22	0	879755264	67	4332
2026-01-13 03:37:37.74	300.32	22.90	-50.2	-51.9	15.6	0.00e+00	0	22	0	881852416	67	4176
2026-01-13 03:37:38.74	300.10	22.81	-49.9	-51.6	15.6	0.00e+00	0	22	0	883949568	66	4244
2026-01-13 03:37:39.74	299.87	22.73	-49.8	-51.5	15.7	0.00e+00	0	22	0	886046720	66	4196
2026-01-13 03:37:40.75	299.65	22.64	-49.8	-51.4	15.7	0.00e+00	0	22	0	888143872	66	4160
2026-01-13 03:37:41.75	299.43	22.56	-49.8	-51.4	15.7	0.00e+00	0	22	0	889192448	66	4182
2026-01-13 03:37:42.75	299.21	22.48	-50.0	-51.7	15.6	0.00e+00	0	22	0	891289600	66	4294
2026-01-13 03:37:43.74	298.99	22.39	-50.1	-51.9	15.5	0.00e+00	0	22	0	893386752	66	4427
2026-01-13 03:37:44.73	298.78	22.31	-50.4	-52.2	15.3	0.00e+00	0	22	0	895483904	66	4594
2026-01-13 03:37:45.74	298.56	22.22	-50.7	-52.7	15.1	0.00e+00	0	22	0	896532480	66	4834
2026-01-13 03:37:46.74	298.35	22.14	-51.0	-53.0	15.1	0.00e+00	0	22	0	898629632	67	4726
2026-01-13 03:37:47.74	298.13	22.05	-51.3	-53.5	14.8	0.00e+00	0	22	0	900726784	67	4991
2026-01-13 03:37:48.74	297.92	21.96	-51.6	-53.8	14.8	0.00e+00	0	22	0	902823936	68	4908
2026-01-13 03:37:49.73	297.71	21.88	-51.7	-53.9	14.8	0.00e+00	0	22	0	904921088	68	4955
2026-01-13 03:37:50.73	297.50	21.79	-51.6	-53.8	14.8	0.00e+00	0	22	0	905969664	68	4888
2026-01-13 03:37:51.74	297.29	21.71	-51.5	-53.5	15.0	0.00e+00	0	22	0	908066816	68	4758
2026-01-13 03:37:52.74	297.09	21.62	-51.3	-53.3	15.1	0.00e+00	0	22	0	910163968	68	4630
2026-01-13 03:37:53.75	296.88	21.53	-51.4	-53.4	15.0	0.00e+00	0	22	0	912261120	68	4676
2026-01-13 03:37:54.74	296.67	21.45	-51.2	-53.2	15.1	0.00e+00	0	22	0	914358272	68	4586
2026-01-13 03:37:55.74	296.47	21.36	-51.4	-53.4	15.1	0.00e+00	0	22	0	915406848	68	4689
2026-01-13 03:37:56.73	296.27	21.27	-51.3	-53.3	15.1	0.00e+00	0	22	0	917504000	68	4635
2026-01-13 03:37:57.73	296.07	21.19	-51.2	-53.2	15.2	0.00e+00	0	22	0	919601152	68	4556
2026-01-13 03:37:58.73	295.87	21.10	-50.7	-52.6	15.5	0.00e+00	0	22	0	921698304	68	4258
2026-01-13 03:37:59.73	295.67	21.01	-50.3	-52.0	15.6	0.00e+00	0	22	0	922746880	67	4212
2026-01-13 03:38:00.74	295.47	20.93	-49.9	-51.6	15.6	0.00e+00	0	22	0	924844032	66	4264
2026-01-13 03:38:01.74	295.27	20.84	-49.8	-51.4	15.7	0.00e+00	0	22	0	926941184	66	4183
2026-01-13 03:38:02.74	295.08	20.75	-49.5	-51.1	15.7	0.00e+00	0	22	0	929038336	65	4259
2026-01-13 03:38:03.73	294.88	20.67	-49.4	-50.9	15.7	0.00e+00	0	22	0	931135488	65	4191
2026-01-13 03:38:04.73	294.69	20.58	-49.5	-51.0	15.7	0.00e+00	0	22	0	932184064	65	4236
2026-01-13 03:38:05.73	294.50	20.49	-49.7	-51.3	15.6	0.00e+00	0	22	0	934281216	65	4358
2026-01-13 03:38:06.72	294.31	20.41	-49.8	-51.5	15.5	0.00e+00	0	22	0	936378368	65	4453
2026-01-13 03:38:07.72	294.12	20.32	-49.9	-51.6	15.4	0.00e+00	0	22	0	938475520	65	4521
2026-01-13 03:38:08.72	293.93	20.23	-50.0	-51.6	15.4	0.00e+00	0	22	0	940572672	65	4544
2026-01-13 03:38:09.72	293.74	20.14	-50.0	-51.7	15.3	0.00e+00	0	22	0	941621248	65	4580
2026-01-13 03:38:10.72	293.55	20.06	-50.2	-51.9	15.3	0.00e+00	0	22	0	943718400	65	4660
2026-01-13 03:38:11.71	293.37	19.97	-50.2	-52.0	15.2	0.00e+00	0	22	0	945815552	65	4721
2026-01-13 03:38:12.71	293.18	19.88	-50.1	-51.8	15.3	0.00e+00	0	22	0	947912704	65	4622
2026-01-13 03:38:13.71	293.00	19.80	-50.1	-51.8	15.3	0.00e+00	0	22	0	948961280	65	4634
2026-01-13 03:38:14.70	292.82	19.71	-50.2	-52.0	15.3	0.00e+00	0	22	0	951058432	65	4706
2026-01-13 03:38:15.71	292.64	19.62	-50.2	-51.9	15.3	0.00e+00	0	22	0	953155584	65	4674
2026-01-13 03:38:16.71	292.46	19.53	-50.3	-52.0	15.2	0.00e+00	0	22	0	955252736	65	4749
2026-01-13 03:38:17.70	292.28	19.45	-50.4	-52.1	15.2	0.00e+00	0	22	0	957349888	65	4799
2026-01-13 03:38:18.71	292.10	19.36	-50.5	-52.3	15.3	0.00e+00	0	22	0	958398464	66	4635
2026-01-13 03:38:19.70	291.92	19.27	-50.5	-52.3	15.3	0.00e+00	0	22	0	960495616	66	4626
2026-01-13 03:38:20.69	291.75	19.19	-50.6	-52.4	15.2	0.00e+00	0	22	0	962592768	66	4697
2026-01-13 03:38:21.69	291.57	19.10	-50.7	-52.6	15.1	0.00e+00	0	22	0	964689920	66	4763
2026-01-13 03:38:22.67	291.40	19.01	-50.7	-52.6	15.1	0.00e+00	0	22	0	965738496	66	4766
2026-01-13 03:38:23.68	291.22	18.93	-50.7	-52.5	15.2	0.00e+00	0	22	0	967835648	66	4742
2026-01-13 03:38:24.67	291.05	18.84	-50.6	-52.4	15.2	0.00e+00	0	22	0	969932800	66	4679
2026-01-13 03:38:25.67	290.88	18.75	-50.7	-52.4	15.2	0.00e+00	0	22	0	972029952	66	4689
2026-01-13 03:38:26.67	290.71	18.66	-50.3	-52.0	15.4	0.00e+00	0	22	0	974127104	66	4480
2026-01-13 03:38:27.67	290.54	18.58	-50.3	-52.0	15.4	0.00e+00	0	22	0	975175680	66	4457
2026-01-13 03:38:28.67	290.37	18.49	-50.2	-51.8	15.5	0.00e+00	0	22	0	977272832	66	4371
2026-01-13 03:38:29.66	290.21	18.40	-49.9	-51.4	15.7	0.00e+00	0	22	0	979369984	66	4193
2026-01-13 03:38:30.66	290.04	18.32	-50.1	-51.7	15.5	0.00e+00	0	22	0	981467136	66	4332
2026-01-13 03:38:31.66	289.88	18.23	-50.2	-51.8	15.5	0.00e+00	0	22	0	983564288	66	4383
2026-01-13 03:38:32.66	289.71	18.14	-50.4	-52.2	15.3	0.00e+00	0	22	0	984612864	66	4568
2026-01-13 03:38:33.66	289.55	18.06	-50.7	-52.5	15.1	0.00e+00	0	22	0	986710016	66	4748
2026-01-13 03:38:34.66	289.38	17.97	-51.1	-53.1	15.0	0.00e+00	0	22	0	988807168	67	4794
2026-01-13 03:38:35.65	289.22	17.88	-51.1	-53.1	15.0	0.00e+00	0	22	0	990904320	67	4773
2026-01-13 03:38:36.65	289.06	17.80	-51.3	-53.3	14.9	0.00e+00	0	22	0	993001472	67	4883
2026-01-13 03:38:37.64	288.90	17.71	-51.2	-53.2	14.9	0.00e+00	0	22	0	994050048	67	4828
2026-01-13 03:38:38.64	288.75	17.63	-51.1	-53.0	15.0	0.00e+00	0	22	0	996147200	67	4755
2026-01-13 03:38:39.64	288.59	17.54	-51.0	-52.8	15.1	0.00e+00	0	22	0	998244352	67	4634
2026-01-13 03:38:40.64	288.43	17.45	-50.9	-52.7	15.2	0.00e+00	0	22	0	1000341504	67	4579
2026-01-13 03:38:41.65	288.27	17.37	-50.9	-52.8	15.1	0.00e+00	0	22	0	1001390080	67	4612
2026-01-13 03:38:42.65	288.12	17.28	-50.7	-52.5	15.3	0.00e+00	0	22	0	1003487232	67	4443
2026-01-13 03:38:43.65	287.96	17.19	-50.8	-52.6	15.2	0.00e+00	0	22	0	1005584384	67	4533
2026-01-13 03:38:44.65	287.81	17.11	-50.9	-52.7	15.2	0.00e+00	0	22	0	1007681536	67	4583
2026-01-13 03:38:45.65	287.66	17.02	-51.0	-52.9	15.1	0.00e+00	0	22	0	1009778688	67	4682
2026-01-13 03:38:46.64	287.51	16.94	-51.2	-53.1	15.0	0.00e+00	0	22	0	1010827264	67	4770
2026-01-13 03:38:47.64	287.35	16.85	-51.2	-53.2	14.9	0.00e+00	0	22	0	1012924416	67	4840
2026-01-13 03:38:48.63	287.21	16.77	-51.6	-53.5	14.9	0.00e+00	0	22	0	1015021568	68	4749
2026-01-13 03:38:49.62	287.06	16.68	-51.6	-53.6	14.9	0.00e+00	0	22	0	1017118720	68	4808
2026-01-13 03:38:50.62	286.91	16.60	-52.0	-54.1	14.8	0.00e+00	0	22	0	1018167296	69	4797
2026-01-13 03:38:51.61	286.76	16.51	-52.0	-54.2	14.7	0.00e+00	0	22	0	1020264448	69	4821
2026-01-13 03:38:52.61	286.62	16.43	-52.1	-54.3	14.7	0.00e+00	0	22	0	1022361600	69	4902
2026-01-13 03:38:53.61	286.47	16.34	-52.3	-54.5	14.5	0.00e+00	0	22	0	1024458752	69	5019
2026-01-13 03:38:54.61	286.33	16.26	-52.3	-54.5	14.5	0.00e+00	0	22	0	1026555904	69	5015
2026-01-13 03:38:55.61	286.18	16.17	-52.1	-54.3	14.7	0.00e+00	0	22	0	1027604480	69	4874
2026-01-13 03:38:56.61	286.04	16.09	-51.8	-53.9	14.9	0.00e+00	0	22	0	1029701632	69	4695
2026-01-13 03:38:57.61	285.90	16.00	-51.9	-53.9	14.9	0.00e+00	0	22	0	1031798784	69	4691
2026-01-13 03:38:58.60	285.76	15.92	-51.4	-53.3	15.2	0.00e+00	0	22	0	1033895936	69	4382
2026-01-13 03:38:59.60	285.61	15.84	-51.5	-53.4	15.2	0.00e+00	0	22	0	1035993088	69	4439
2026-01-13 03:39:00.60	285.47	15.75	-51.4	-53.4	15.2	0.00e+00	0	22	0	1037041664	69	4399
2026-01-13 03:39:01.60	285.34	15.67	-51.5	-53.5	15.2	0.00e+00	0	22	0	1039138816	69	4452
2026-01-13 03:39:02.60	285.20	15.58	-51.6	-53.5	15.1	0.00e+00	0	22	0	1041235968	69	4488
2026-01-13 03:39:03.60	285.06	15.50	-51.8	-53.9	14.9	0.00e+00	0	22	0	1043333120	69	4677
2026-01-13 03:39:04.59	284.92	15.42	-52.0	-54.1	14.8	0.00e+00	0	22	0	1044381696	69	4788
2026-01-13 03:39:05.59	284.79	15.33	-52.0	-54.1	14.8	0.00e+00	0	22	0	1046478848	69	4811
2026-01-13 03:39:06.59	284.65	15.25	-52.2	-54.4	14.6	0.00e+00	0	22	0	1048576000	69	4965
2026-01-13 03:39:07.59	284.52	15.17	-52.0	-54.2	14.7	0.00e+00	0	22	0	1050673152	69	4828
2026-01-13 03:39:08.58	284.38	15.08	-51.9	-54.1	14.8	0.00e+00	0	22	0	1052770304	69	4770
2026-01-13 03:39:09.57	284.25	15.00	-51.7	-53.8	14.9	0.00e+00	0	22	0	1053818880	69	4618
2026-01-13 03:39:10.57	284.12	14.92	-51.6	-53.7	15.0	0.00e+00	0	22	0	1055916032	69	4547
2026-01-13 03:39:11.57	283.99	14.83	-51.5	-53.5	15.2	0.00e+00	0	22	0	1058013184	69	4457
2026-01-13 03:39:12.57	283.86	14.75	-51.6	-53.6	15.1	0.00e+00	0	22	0	1060110336	69	4499
2026-01-13 03:39:13.56	283.73	14.67	-51.4	-53.4	15.2	0.00e+00	0	22	0	1062207488	69	4412
2026-01-13 03:39:14.56	283.60	14.59	-51.2	-53.1	15.4	0.00e+00	0	22	0	1063256064	69	4270
2026-01-13 03:39:15.56	283.47	14.50	-51.3	-53.3	15.3	0.00e+00	0	22	0	1065353216	69	4364
2026-01-13 03:39:16.55	283.34	14.42	-51.3	-53.3	15.3	0.00e+00	0	22	0	1067450368	69	4342
2026-01-13 03:39:17.55	283.22	14.34	-51.3	-53.2	15.3	0.00e+00	0	22	0	1069547520	69	4328
2026-01-13 03:39:18.55	283.09	14.26	-51.4	-53.3	15.2	0.00e+00	0	22	0	1070596096	69	4370
2026-01-13 03:39:19.55	282.97	14.18	-51.5	-53.5	15.1	0.00e+00	0	22	0	1072693248	69	4454
2026-01-13 03:39:20.55	282.84	14.10	-51.6	-53.6	15.0	0.00e+00	0	22	0	1074790400	69	4524
2026-01-13 03:39:21.55	282.72	14.01	-51.6	-53.6	15.1	0.00e+00	0	22	0	1076887552	69	4505
2026-01-13 03:39:22.55	282.59	13.93	-51.8	-53.8	14.9	0.00e+00	0	22	0	1078984704	69	4649
2026-01-13 03:39:23.55	282.47	13.85	-51.8	-53.8	14.9	0.00e+00	0	22	0	1080033280	69	4636
2026-01-13 03:39:24.55	282.35	13.77	-51.9	-54.1	14.7	0.00e+00	0	22	0	1082130432	69	4773
2026-01-13 03:39:25.55	282.23	13.69	-52.0	-54.1	14.7	0.00e+00	0	22	0	1084227584	69	4814
2026-01-13 03:39:26.55	282.10	13.61	-52.2	-54.4	14.6	0.00e+00	0	22	0	1086324736	69	4959
2026-01-13 03:39:27.55	281.98	13.53	-52.1	-54.4	14.6	0.00e+00	0	22	0	1088421888	69	4937
2026-01-13 03:39:28.54	281.87	13.45	-52.2	-54.5	14.5	0.00e+00	0	22	0	1089470464	69	5007
2026-01-13 03:39:29.54	281.75	13.37	-52.2	-54.5	14.5	0.00e+00	0	22	0	1091567616	69	5002
2026-01-13 03:39:30.54	281.63	13.29	-52.0	-54.2	14.7	0.00e+00	0	22	0	1093664768	69	4865
2026-01-13 03:39:31.54	281.51	13.21	-52.0	-54.1	14.7	0.00e+00	0	22	0	1095761920	69	4799
2026-01-13 03:39:32.54	281.39	13.13	-51.9	-54.0	14.8	0.00e+00	0	22	0	1096810496	69	4718
2026-01-13 03:39:33.53	281.28	13.05	-51.9	-54.1	14.7	0.00e+00	0	22	0	1098907648	69	4779
2026-01-13 03:39:34.53	281.16	12.97	-51.9	-54.0	14.8	0.00e+00	0	22	0	1101004800	69	4734
2026-01-13 03:39:35.53	281.05	12.89	-52.0	-54.2	14.7	0.00e+00	0	22	0	1103101952	69	4829
2026-01-13 03:39:36.53	280.93	12.81	-52.2	-54.5	14.5	0.00e+00	0	22	0	1105199104	69	5005
2026-01-13 03:39:37.53	280.82	12.73	-52.4	-54.7	14.4	0.00e+00	0	22	0	1106247680	69	5113
2026-01-13 03:39:38.53	280.71	12.65	-52.6	-55.0	14.4	0.00e+00	0	22	0	1108344832	70	5015
2026-01-13 03:39:39.53	280.59	12.57	-52.8	-55.3	14.2	0.00e+00	0	22	0	1110441984	70	5185
2026-01-13 03:39:40.52	280.48	12.49	-53.0	-55.5	14.2	0.00e+00	0	22	0	1112539136	71	5033
2026-01-13 03:39:41.52	280.37	12.41	-53.2	-55.8	14.0	0.00e+00	0	22	0	1113587712	71	5209
2026-01-13 03:39:42.52	280.26	12.33	-53.1	-55.8	14.0	0.00e+00	0	22	0	1115684864	71	5178
2026-01-13 03:39:43.52	280.15	12.26	-53.1	-55.8	14.0	0.00e+00	0	22	0	1117782016	71	5204
2026-01-13 03:39:44.52	280.04	12.18	-52.9	-55.4	14.2	0.00e+00	0	22	0	1119879168	71	4976
2026-01-13 03:39:45.52	279.93	12.10	-52.7	-55.1	14.4	0.00e+00	0	22	0	1121976320	71	4808
2026-01-13 03:39:46.52	279.82	12.02	-52.4	-54.6	14.8	0.00e+00	0	22	0	1123024896	71	4531
2026-01-13 03:39:47.52	279.72	11.94	-52.1	-54.3	15.0	0.00e+00	0	22	0	1125122048	70	4603
2026-01-13 03:39:48.51	279.61	11.87	-51.9	-54.0	15.0	0.00e+00	0	22	0	1127219200	70	4481
2026-01-13 03:39:49.51	279.50	11.79	-51.8	-53.8	15.1	0.00e+00	0	22	0	1129316352	70	4388
2026-01-13 03:39:50.51	279.40	11.71	-51.8	-53.9	15.0	0.00e+00	0	22	0	1131413504	70	4397
2026-01-13 03:39:51.51	279.29	11.63	-51.7	-53.8	15.0	0.00e+00	0	22	0	1132462080	70	4342
2026-01-13 03:39:52.50	279.19	11.56	-51.6	-53.6	15.0	0.00e+00	0	22	0	1134559232	69	4539
2026-01-13 03:39:53.50	279.08	11.48	-51.7	-53.7	14.9	0.00e+00	0	22	0	1136656384	69	4595
2026-01-13 03:39:54.50	278.98	11.40	-51.8	-53.9	14.8	0.00e+00	0	22	0	1138753536	69	4656
2026-01-13 03:39:55.49	278.88	11.33	-52.0	-54.2	14.6	0.00e+00	0	22	0	1139802112	69	4852
2026-01-13 03:39:56.49	278.78	11.25	-52.1	-54.4	14.5	0.00e+00	0	22	0	1141899264	69	4957
2026-01-13 03:39:57.49	278.67	11.17	-52.6	-55.0	14.3	0.00e+00	0	22	0	1143996416	70	5025
2026-01-13 03:39:58.49	278.57	11.10	-52.7	-55.2	14.2	0.00e+00	0	22	0	1146093568	70	5153
2026-01-13 03:39:59.49	278.47	11.02	-52.9	-55.5	14.1	0.00e+00	0	22	0	1148190720	71	5030
2026-01-13 03:40:00.49	278.37	10.95	-53.2	-56.0	13.8	0.00e+00	0	22	0	1149239296	71	5332
2026-01-13 03:40:01.49	278.27	10.87	-53.4	-56.3	13.7	0.00e+00	0	22	0	1151336448	71	5469
2026-01-13 03:40:02.49	278.17	10.79	-53.4	-56.3	13.8	0.00e+00	0	22	0	1153433600	72	5212
2026-01-13 03:40:03.49	278.07	10.72	-53.6	-56.6	13.6	0.00e+00	0	22	0	1155530752	72	5343
2026-01-13 03:40:04.49	277.97	10.64	-53.8	-56.8	13.4	0.00e+00	0	22	0	1157627904	72	5522
2026-01-13 03:40:05.49	277.88	10.57	-53.6	-56.6	13.5	0.00e+00	0	22	0	1158676480	72	5401
2026-01-13 03:40:06.49	277.78	10.49	-53.6	-56.7	13.6	0.00e+00	0	22	0	1160773632	72	5403
2026-01-13 03:40:07.49	277.68	10.42	-53.7	-56.8	13.4	0.00e+00	0	22	0	1162870784	72	5514
2026-01-13 03:40:08.49	277.59	10.34	-53.6	-56.7	13.5	0.00e+00	0	22	0	1164967936	72	5403
2026-01-13 03:40:09.49	277.49	10.27	-53.6	-56.6	13.6	0.00e+00	0	22	0	1166016512	72	5341
2026-01-13 03:40:10.49	277.40	10.19	-53.7	-56.7	13.5	0.00e+00	0	22	0	1168113664	72	5441
2026-01-13 03:40:11.50	277.30	10.12	-53.4	-56.3	13.8	0.00e+00	0	22	0	1170210816	72	5190
2026-01-13 03:40:12.50	277.21	10.04	-53.4	-56.3	13.8	0.00e+00	0	22	0	1172307968	72	5163
2026-01-13 03:40:13.49	277.11	9.97	-53.4	-56.3	13.8	0.00e+00	0	22	0	1174405120	72	5193
2026-01-13 03:40:14.49	277.02	9.90	-53.3	-56.1	13.9	0.00e+00	0	22	0	1175453696	72	5070
2026-01-13 03:40:15.49	276.93	9.82	-53.2	-56.0	14.0	0.00e+00	0	22	0	1177550848	72	5003
2026-01-13 03:40:16.48	276.84	9.75	-53.4	-56.2	13.8	0.00e+00	0	22	0	1179648000	72	5140
2026-01-13 03:40:17.48	276.74	9.68	-53.3	-56.1	13.9	0.00e+00	0	22	0	1181745152	72	5082
2026-01-13 03:40:18.47	276.65	9.60	-53.4	-56.3	13.7	0.00e+00	0	22	0	1183842304	72	5176
2026-01-13 03:40:19.47	276.56	9.53	-53.4	-56.3	13.8	0.00e+00	0	22	0	1184890880	72	5171
2026-01-13 03:40:20.46	276.47	9.46	-53.5	-56.3	13.7	0.00e+00	0	22	0	1186988032	72	5216
2026-01-13 03:40:21.46	276.38	9.39	-53.5	-56.4	13.6	0.00e+00	0	22	0	1189085184	72	5277
2026-01-13 03:40:22.46	276.29	9.31	-53.7	-56.8	13.4	0.00e+00	0	22	0	1191182336	72	5501
2026-01-13 03:40:23.46	276.20	9.24	-53.8	-56.8	13.3	0.00e+00	0	22	0	1192230912	72	5521
2026-01-13 03:40:24.45	276.12	9.17	-53.6	-56.6	13.5	0.00e+00	0	22	0	1194328064	72	5400
2026-01-13 03:40:25.44	276.03	9.10	-53.8	-57.0	13.3	0.00e+00	0	22	0	1196425216	72	5602
2026-01-13 03:40:26.44	275.94	9.02	-54.0	-57.3	13.2	0.00e+00	0	22	0	1198522368	73	5483
2026-01-13 03:40:27.44	275.85	8.95	-53.9	-57.0	13.3	0.00e+00	0	22	0	1200619520	73	5331
2026-01-13 03:40:28.44	275.77	8.88	-53.9	-57.1	13.3	0.00e+00	0	22	0	1201668096	73	5400
2026-01-13 03:40:29.44	275.68	8.81	-53.8	-57.0	13.3	0.00e+00	0	22	0	1203765248	73	5314
2026-01-13 03:40:30.44	275.60	8.74	-53.7	-56.8	13.5	0.00e+00	0	22	0	1205862400	73	5203
2026-01-13 03:40:31.44	275.51	8.67	-53.6	-56.6	13.7	0.00e+00	0	22	0	1207959552	73	5047
2026-01-13 03:40:32.42	275.43	8.60	-53.5	-56.4	13.8	0.00e+00	0	22	0	1209008128	73	4931
