passes_logs/2026/01/13/R3.2S_Murmansk/R3.2S_Murmansk__20260113_011926_NOAA_21_JPSS-2_rec.log

#Pass ID: 20260113_011926_NOAA 21 (JPSS-2)
#Satellite: NOAA 21 (JPSS-2)
#Configuration: NOAA-21
#almurnet v.1.7.20251203
#Start time: 2026-01-13 01:19:27

#Version: 2.2.20231116
#Station: R3.2S_Murmansk
#Location: 33.079688 lon 68.888172 lat
#TLE: 1 54234U 22150A   26012.26378519  .00000063  00000+0  50547-4 0  9993
#TLE: 2 54234  98.7495 313.1967 0000726 309.1075  51.0036 14.19534275164425

#Time	Az	El	Level	Level2	SNR	BER	BlckErr	Temp	State	Recorded	gain1	gain2
2026-01-13 01:19:27.41	27.17	2.08	-56.7	-70.5	3.8	1.49e+00	0	20	0	0	80	16717
2026-01-13 01:19:28.43	27.15	2.15	-56.7	-70.4	3.8	1.49e+00	0	20	104	0	78	18646
2026-01-13 01:19:29.43	27.14	2.21	-56.7	-70.4	3.8	1.49e+00	0	20	104	0	78	18600
2026-01-13 01:19:30.42	27.13	2.27	-56.6	-70.4	3.8	1.49e+00	0	20	104	0	78	18559
2026-01-13 01:19:31.42	27.12	2.34	-56.6	-70.4	3.8	1.49e+00	0	20	104	0	78	18553
2026-01-13 01:19:32.42	27.10	2.40	-56.7	-70.4	3.8	1.49e+00	0	20	104	0	78	18535
2026-01-13 01:19:33.43	27.09	2.47	-56.7	-70.4	3.8	1.49e+00	0	20	104	0	78	18566
2026-01-13 01:19:34.44	27.08	2.53	-56.7	-70.3	3.8	1.49e+00	0	20	104	0	78	18469
2026-01-13 01:19:35.44	27.06	2.60	-56.7	-70.3	3.8	1.49e+00	0	20	104	0	78	18442
2026-01-13 01:19:36.45	27.05	2.66	-56.7	-70.3	3.8	1.49e+00	0	20	104	0	78	18338
2026-01-13 01:19:37.45	27.04	2.73	-56.7	-70.2	3.8	1.49e+00	0	20	104	0	78	18180
2026-01-13 01:19:38.46	27.02	2.79	-56.6	-70.1	3.8	1.49e+00	0	21	104	0	78	18030
2026-01-13 01:19:39.46	27.01	2.86	-56.6	-69.9	3.8	1.49e+00	0	21	104	0	78	17634
2026-01-13 01:19:40.46	26.99	2.93	-56.6	-70.0	3.8	1.49e+00	0	21	104	0	78	17688
2026-01-13 01:19:41.46	26.98	2.99	-56.6	-69.9	3.8	1.49e+00	0	20	104	0	78	17572
2026-01-13 01:19:42.47	26.97	3.06	-56.6	-69.7	3.8	1.49e+00	0	21	104	0	78	17242
2026-01-13 01:19:43.47	26.95	3.12	-56.6	-69.7	3.8	1.49e+00	0	21	104	0	78	17158
2026-01-13 01:19:44.48	26.94	3.19	-56.6	-69.5	3.8	1.49e+00	0	21	104	0	78	16824
2026-01-13 01:19:45.48	26.92	3.26	-56.6	-69.3	3.8	1.49e+00	0	21	104	0	78	16479
2026-01-13 01:19:46.48	26.91	3.32	-56.6	-69.6	3.8	1.49e+00	0	21	104	0	78	17015
2026-01-13 01:19:47.49	26.90	3.39	-56.6	-69.5	3.8	1.49e+00	0	21	104	0	78	16855
2026-01-13 01:19:48.49	26.88	3.46	-56.6	-69.7	3.8	1.49e+00	0	21	104	0	78	17234
2026-01-13 01:19:49.49	26.87	3.52	-56.7	-69.9	3.8	1.49e+00	0	20	104	0	78	17498
2026-01-13 01:19:50.49	26.85	3.59	-56.6	-69.6	3.8	1.49e+00	0	21	104	0	78	16981
2026-01-13 01:19:51.49	26.84	3.66	-56.6	-69.5	3.8	1.49e+00	0	21	104	0	78	16755
2026-01-13 01:19:52.50	26.82	3.73	-56.6	-68.5	3.9	1.49e+00	0	21	104	0	78	14989
2026-01-13 01:19:53.50	26.81	3.79	-56.5	-67.6	4.0	1.49e+00	0	21	104	0	78	13552
2026-01-13 01:19:54.51	26.79	3.86	-56.4	-66.7	4.2	1.46e+00	0	21	104	0	78	12230
2026-01-13 01:19:55.51	26.78	3.93	-56.3	-65.4	4.7	9.28e-01	2	21	104	0	78	10438
2026-01-13 01:19:56.52	26.76	4.00	-56.2	-64.5	5.2	6.01e-01	0	21	0	2097152	78	9392
2026-01-13 01:19:57.53	26.75	4.07	-56.0	-63.7	5.6	4.53e-01	0	21	0	5242880	78	8643
2026-01-13 01:19:58.53	26.73	4.14	-56.0	-63.3	5.9	3.58e-01	0	21	0	8388608	78	8271
2026-01-13 01:19:59.53	26.72	4.20	-55.9	-62.9	6.2	2.60e-01	0	21	0	11534336	78	7878
2026-01-13 01:20:00.53	26.70	4.27	-55.7	-62.3	6.7	1.57e-01	0	21	0	14680064	78	7305
2026-01-13 01:20:01.54	26.69	4.34	-55.6	-61.8	7.1	1.48e-01	0	21	0	17825792	77	7295
2026-01-13 01:20:02.54	26.67	4.41	-55.5	-61.5	7.3	1.11e-01	0	21	0	20971520	77	7073
2026-01-13 01:20:03.54	26.65	4.48	-55.5	-61.5	7.4	8.62e-02	0	21	0	24117248	77	7062
2026-01-13 01:20:04.54	26.64	4.55	-55.5	-61.6	7.2	9.28e-02	0	21	0	27262976	77	7165
2026-01-13 01:20:05.54	26.62	4.62	-55.6	-61.9	6.9	1.26e-01	0	21	0	30408704	77	7442
2026-01-13 01:20:06.54	26.61	4.69	-55.6	-61.9	6.9	1.36e-01	0	21	0	33554432	77	7448
2026-01-13 01:20:07.54	26.59	4.76	-55.7	-62.2	6.7	1.61e-01	0	21	0	36700160	77	7637
2026-01-13 01:20:08.55	26.57	4.83	-55.7	-62.2	6.7	1.42e-01	0	21	0	39845888	77	7671
2026-01-13 01:20:09.55	26.56	4.90	-55.8	-62.6	6.4	1.93e-01	0	21	0	42991616	77	8059
2026-01-13 01:20:10.56	26.54	4.97	-55.9	-63.2	5.9	2.84e-01	0	21	0	46137344	77	8637
2026-01-13 01:20:11.56	26.53	5.04	-56.2	-62.2	7.7	3.45e-01	0	21	0	49283072	77	7641
2026-01-13 01:20:12.56	26.51	5.11	-54.3	-57.6	11.0	1.49e+00	0	21	104	49283072	75	5067
2026-01-13 01:20:13.56	26.49	5.19	-56.3	-64.4	5.4	8.07e-02	0	21	0	51380224	77	9895
2026-01-13 01:20:14.57	26.48	5.26	-55.8	-61.2	8.0	1.47e+00	0	21	104	52428800	78	6434
2026-01-13 01:20:15.58	26.46	5.33	-55.9	-62.5	6.9	1.39e-03	0	21	0	54525952	76	8428
2026-01-13 01:20:16.58	26.44	5.40	-55.2	-59.6	9.3	1.21e+00	0	21	104	55574528	77	5720
2026-01-13 01:20:17.58	26.42	5.47	-53.6	-56.5	12.1	6.10e-06	0	21	0	57671680	73	5007
2026-01-13 01:20:18.58	26.41	5.55	-53.3	-56.0	12.6	6.10e-06	0	21	0	60817408	73	4714
2026-01-13 01:20:19.58	26.39	5.62	-53.2	-55.8	12.7	7.00e-07	0	21	0	63963136	73	4648
2026-01-13 01:20:20.59	26.37	5.69	-53.3	-56.0	12.6	7.00e-07	0	21	0	67108864	73	4722
2026-01-13 01:20:21.60	26.35	5.76	-52.7	-55.1	13.2	0.00e+00	0	21	0	70254592	72	4504
2026-01-13 01:20:22.60	26.34	5.84	-52.4	-54.6	13.4	0.00e+00	0	21	0	73400320	71	4515
2026-01-13 01:20:23.60	26.32	5.91	-51.7	-53.7	14.0	0.00e+00	0	21	0	76546048	70	4322
2026-01-13 01:20:24.60	26.30	5.98	-51.7	-53.7	14.0	0.00e+00	0	21	0	79691776	70	4324
2026-01-13 01:20:25.60	26.28	6.06	-51.8	-53.7	14.0	0.00e+00	0	21	0	82837504	70	4339
2026-01-13 01:20:26.61	26.26	6.13	-51.5	-53.4	14.0	0.00e+00	0	21	0	85983232	69	4420
2026-01-13 01:20:27.61	26.25	6.21	-51.3	-53.2	14.2	0.00e+00	0	21	0	89128960	69	4311
2026-01-13 01:20:28.62	26.23	6.28	-51.4	-53.2	14.2	0.00e+00	0	21	0	92274688	69	4319
2026-01-13 01:20:29.63	26.21	6.35	-51.4	-53.3	14.1	0.00e+00	0	21	0	95420416	69	4381
2026-01-13 01:20:30.63	26.19	6.43	-51.5	-53.3	14.2	0.00e+00	0	21	0	98566144	69	4383
2026-01-13 01:20:31.63	26.17	6.50	-51.4	-53.2	14.2	0.00e+00	0	21	0	101711872	69	4323
2026-01-13 01:20:32.63	26.15	6.58	-51.2	-53.1	14.4	0.00e+00	0	21	0	104857600	69	4243
2026-01-13 01:20:33.63	26.13	6.65	-51.4	-53.2	14.2	0.00e+00	0	21	0	108003328	69	4323
2026-01-13 01:20:34.63	26.12	6.73	-51.4	-53.2	14.3	0.00e+00	0	21	0	111149056	69	4300
2026-01-13 01:20:35.63	26.10	6.80	-51.4	-53.2	14.3	0.00e+00	0	21	0	114294784	69	4314
2026-01-13 01:20:36.63	26.08	6.88	-51.0	-52.8	14.4	0.00e+00	0	21	0	117440512	68	4356
2026-01-13 01:20:37.63	26.06	6.96	-51.0	-52.7	14.5	0.00e+00	0	21	0	120586240	68	4303
2026-01-13 01:20:38.63	26.04	7.03	-51.0	-52.8	14.4	0.00e+00	0	21	0	123731968	68	4345
2026-01-13 01:20:39.63	26.02	7.11	-50.9	-52.6	14.5	0.00e+00	0	21	0	126877696	68	4276
2026-01-13 01:20:40.64	26.00	7.19	-51.0	-52.8	14.4	0.00e+00	0	21	0	130023424	68	4348
2026-01-13 01:20:41.65	25.98	7.26	-50.9	-52.7	14.5	0.00e+00	0	21	0	133169152	68	4306
2026-01-13 01:20:42.65	25.96	7.34	-50.8	-52.5	14.6	0.00e+00	0	21	0	136314880	68	4229
2026-01-13 01:20:43.65	25.94	7.42	-50.9	-52.6	14.5	0.00e+00	0	21	0	139460608	68	4257
2026-01-13 01:20:44.66	25.92	7.50	-50.8	-52.5	14.6	0.00e+00	0	21	0	142606336	68	4198
2026-01-13 01:20:45.66	25.90	7.57	-50.6	-52.2	14.6	0.00e+00	0	21	0	145752064	67	4338
2026-01-13 01:20:46.66	25.88	7.65	-50.4	-52.0	14.7	0.00e+00	0	21	0	148897792	67	4239
2026-01-13 01:20:47.65	25.86	7.73	-50.5	-52.1	14.7	0.00e+00	0	21	0	152043520	67	4276
2026-01-13 01:20:48.65	25.84	7.81	-50.4	-52.0	14.7	0.00e+00	0	21	0	155189248	67	4218
2026-01-13 01:20:49.65	25.81	7.89	-50.4	-52.0	14.7	0.00e+00	0	21	0	158334976	67	4211
2026-01-13 01:20:50.66	25.79	7.97	-50.4	-52.0	14.7	0.00e+00	0	21	0	161480704	67	4222
2026-01-13 01:20:51.66	25.77	8.05	-50.4	-52.0	14.7	0.00e+00	0	21	0	163577856	67	4207
2026-01-13 01:20:52.65	25.75	8.13	-50.4	-52.0	14.7	0.00e+00	0	21	0	166723584	67	4197
2026-01-13 01:20:53.66	25.73	8.21	-50.1	-51.7	14.7	0.00e+00	0	22	0	169869312	66	4318
2026-01-13 01:20:54.66	25.71	8.29	-50.3	-51.9	14.6	0.00e+00	0	21	0	173015040	66	4400
2026-01-13 01:20:55.65	25.69	8.37	-50.1	-51.7	14.8	0.00e+00	0	21	0	176160768	66	4296
2026-01-13 01:20:56.65	25.66	8.45	-50.2	-51.8	14.7	0.00e+00	0	21	0	179306496	66	4346
2026-01-13 01:20:57.64	25.64	8.53	-50.2	-51.8	14.7	0.00e+00	0	21	0	182452224	66	4352
2026-01-13 01:20:58.64	25.62	8.61	-50.0	-51.6	14.9	0.00e+00	0	22	0	185597952	66	4251
2026-01-13 01:20:59.65	25.60	8.69	-50.0	-51.5	14.9	0.00e+00	0	21	0	188743680	66	4234
2026-01-13 01:21:00.65	25.58	8.77	-50.0	-51.5	14.9	0.00e+00	0	21	0	191889408	66	4224
2026-01-13 01:21:01.65	25.55	8.85	-50.1	-51.7	14.8	0.00e+00	0	21	0	195035136	66	4304
2026-01-13 01:21:02.65	25.53	8.93	-50.0	-51.5	14.9	0.00e+00	0	21	0	198180864	66	4206
2026-01-13 01:21:03.66	25.51	9.02	-50.0	-51.5	14.9	0.00e+00	0	22	0	201326592	66	4210
2026-01-13 01:21:04.65	25.48	9.10	-50.0	-51.5	14.9	0.00e+00	0	22	0	204472320	66	4208
2026-01-13 01:21:05.66	25.46	9.18	-49.9	-51.4	14.9	0.00e+00	0	21	0	207618048	66	4190
2026-01-13 01:21:06.66	25.44	9.27	-49.9	-51.4	15.0	0.00e+00	0	22	0	210763776	66	4172
2026-01-13 01:21:07.66	25.41	9.35	-50.0	-51.5	14.9	0.00e+00	0	22	0	213909504	66	4206
2026-01-13 01:21:08.66	25.39	9.43	-49.8	-51.2	15.1	0.00e+00	0	22	0	217055232	66	4084
2026-01-13 01:21:09.66	25.37	9.52	-49.8	-51.3	15.0	0.00e+00	0	22	0	220200960	66	4126
2026-01-13 01:21:10.66	25.34	9.60	-49.8	-51.3	15.0	0.00e+00	0	21	0	223346688	66	4131
2026-01-13 01:21:11.66	25.32	9.69	-49.8	-51.3	15.0	0.00e+00	0	22	0	226492416	66	4122
2026-01-13 01:21:12.66	25.29	9.77	-49.7	-51.2	15.1	0.00e+00	0	22	0	229638144	66	4069
2026-01-13 01:21:13.66	25.27	9.85	-49.9	-51.3	15.0	0.00e+00	0	21	0	232783872	66	4142
2026-01-13 01:21:14.65	25.24	9.94	-49.9	-51.4	15.0	0.00e+00	0	21	0	235929600	66	4152
2026-01-13 01:21:15.65	25.22	10.02	-49.8	-51.2	15.1	0.00e+00	0	22	0	239075328	66	4088
2026-01-13 01:21:16.65	25.19	10.11	-49.6	-51.1	15.0	0.00e+00	0	22	0	242221056	65	4248
2026-01-13 01:21:17.66	25.17	10.20	-49.7	-51.1	15.0	0.00e+00	0	21	0	245366784	65	4289
2026-01-13 01:21:18.66	25.14	10.28	-49.6	-51.1	15.0	0.00e+00	0	22	0	248512512	65	4263
2026-01-13 01:21:19.66	25.12	10.37	-49.7	-51.2	14.9	0.00e+00	0	21	0	251658240	65	4294
2026-01-13 01:21:20.66	25.09	10.46	-49.5	-51.0	15.1	0.00e+00	0	22	0	254803968	65	4198
2026-01-13 01:21:21.66	25.07	10.55	-49.5	-51.0	15.1	0.00e+00	0	22	0	257949696	65	4207
2026-01-13 01:21:22.67	25.04	10.63	-49.6	-51.0	15.0	0.00e+00	0	21	0	261095424	65	4229
2026-01-13 01:21:23.67	25.01	10.72	-49.5	-50.9	15.1	0.00e+00	0	21	0	264241152	65	4173
2026-01-13 01:21:24.66	24.99	10.81	-49.5	-50.9	15.1	0.00e+00	0	22	0	267386880	65	4189
2026-01-13 01:21:25.67	24.96	10.90	-49.5	-50.9	15.1	0.00e+00	0	21	0	270532608	65	4167
2026-01-13 01:21:26.67	24.93	10.99	-49.6	-51.0	15.0	0.00e+00	0	22	0	273678336	65	4235
2026-01-13 01:21:27.68	24.91	11.08	-49.5	-50.9	15.1	0.00e+00	0	22	0	276824064	65	4173
2026-01-13 01:21:28.68	24.88	11.17	-49.6	-51.1	15.0	0.00e+00	0	21	0	279969792	65	4271
2026-01-13 01:21:29.68	24.85	11.26	-49.5	-51.0	15.1	0.00e+00	0	22	0	283115520	65	4200
2026-01-13 01:21:30.68	24.82	11.35	-49.4	-50.8	15.2	0.00e+00	0	22	0	286261248	65	4101
2026-01-13 01:21:31.69	24.80	11.44	-49.5	-50.9	15.1	0.00e+00	0	22	0	289406976	65	4163
2026-01-13 01:21:32.69	24.77	11.53	-49.5	-50.9	15.1	0.00e+00	0	22	0	292552704	65	4173
2026-01-13 01:21:33.70	24.74	11.62	-49.5	-50.9	15.1	0.00e+00	0	22	0	295698432	65	4176
2026-01-13 01:21:34.70	24.71	11.71	-49.6	-51.1	15.0	0.00e+00	0	22	0	298844160	65	4251
2026-01-13 01:21:35.70	24.68	11.81	-49.4	-50.8	15.1	0.00e+00	0	21	0	301989888	65	4138
2026-01-13 01:21:36.70	24.65	11.90	-49.4	-50.8	15.2	0.00e+00	0	21	0	305135616	65	4100
2026-01-13 01:21:37.71	24.62	11.99	-49.4	-50.8	15.2	0.00e+00	0	22	0	308281344	65	4104
2026-01-13 01:21:38.70	24.59	12.08	-49.5	-50.9	15.1	0.00e+00	0	22	0	311427072	65	4155
2026-01-13 01:21:39.70	24.56	12.18	-49.4	-50.8	15.2	0.00e+00	0	22	0	314572800	65	4122
2026-01-13 01:21:40.70	24.54	12.27	-49.4	-50.8	15.2	0.00e+00	0	22	0	317718528	65	4129
2026-01-13 01:21:41.70	24.51	12.36	-49.4	-50.8	15.2	0.00e+00	0	22	0	320864256	65	4114
2026-01-13 01:21:42.70	24.48	12.46	-49.4	-50.8	15.2	0.00e+00	0	22	0	324009984	65	4137
2026-01-13 01:21:43.71	24.44	12.55	-49.4	-50.8	15.2	0.00e+00	0	22	0	327155712	65	4099
2026-01-13 01:21:44.72	24.41	12.65	-49.3	-50.7	15.2	0.00e+00	0	22	0	330301440	65	4089
2026-01-13 01:21:45.72	24.38	12.74	-49.3	-50.7	15.3	0.00e+00	0	22	0	333447168	65	4056
2026-01-13 01:21:46.72	24.35	12.84	-49.0	-50.4	15.2	0.00e+00	0	22	0	336592896	64	4163
2026-01-13 01:21:47.71	24.32	12.94	-49.2	-50.6	15.2	0.00e+00	0	22	0	339738624	64	4252
2026-01-13 01:21:48.71	24.29	13.03	-49.1	-50.4	15.2	0.00e+00	0	22	0	342884352	64	4180
2026-01-13 01:21:49.71	24.26	13.13	-49.1	-50.5	15.2	0.00e+00	0	22	0	344981504	64	4216
2026-01-13 01:21:50.72	24.23	13.23	-49.1	-50.5	15.2	0.00e+00	0	22	0	349175808	64	4200
2026-01-13 01:21:51.72	24.19	13.32	-49.1	-50.5	15.2	0.00e+00	0	22	0	352321536	64	4196
2026-01-13 01:21:52.72	24.16	13.42	-49.0	-50.3	15.3	0.00e+00	0	22	0	355467264	64	4120
2026-01-13 01:21:53.72	24.13	13.52	-49.1	-50.4	15.3	0.00e+00	0	22	0	358612992	64	4174
2026-01-13 01:21:54.73	24.10	13.62	-48.9	-50.3	15.4	0.00e+00	0	21	0	361758720	64	4103
2026-01-13 01:21:55.72	24.06	13.72	-49.0	-50.3	15.3	0.00e+00	0	22	0	364904448	64	4124
2026-01-13 01:21:56.73	24.03	13.82	-49.0	-50.3	15.3	0.00e+00	0	22	0	368050176	64	4115
2026-01-13 01:21:57.73	23.99	13.92	-49.0	-50.3	15.3	0.00e+00	0	22	0	370147328	64	4116
2026-01-13 01:21:58.73	23.96	14.02	-49.0	-50.3	15.3	0.00e+00	0	22	0	373293056	64	4109
2026-01-13 01:21:59.73	23.93	14.12	-48.9	-50.2	15.4	0.00e+00	0	22	0	376438784	64	4064
2026-01-13 01:22:00.73	23.89	14.22	-49.0	-50.3	15.3	0.00e+00	0	22	0	379584512	64	4111
2026-01-13 01:22:01.73	23.86	14.32	-48.9	-50.2	15.4	0.00e+00	0	22	0	382730240	64	4068
2026-01-13 01:22:02.73	23.82	14.43	-48.8	-50.1	15.4	0.00e+00	0	22	0	385875968	64	4041
2026-01-13 01:22:03.73	23.79	14.53	-48.9	-50.2	15.4	0.00e+00	0	22	0	389021696	64	4064
2026-01-13 01:22:04.74	23.75	14.63	-48.8	-50.1	15.4	0.00e+00	0	22	0	392167424	64	4022
2026-01-13 01:22:05.74	23.72	14.73	-48.9	-50.2	15.4	0.00e+00	0	22	0	395313152	64	4079
2026-01-13 01:22:06.74	23.68	14.84	-48.9	-50.2	15.3	0.00e+00	0	22	0	398458880	64	4092
2026-01-13 01:22:07.73	23.64	14.94	-48.9	-50.2	15.4	0.00e+00	0	22	0	401604608	64	4075
2026-01-13 01:22:08.74	23.61	15.05	-48.9	-50.2	15.4	0.00e+00	0	22	0	404750336	64	4087
2026-01-13 01:22:09.74	23.57	15.15	-48.8	-50.1	15.5	0.00e+00	0	22	0	407896064	64	4016
2026-01-13 01:22:10.75	23.53	15.26	-48.8	-50.1	15.4	0.00e+00	0	22	0	411041792	64	4031
2026-01-13 01:22:11.76	23.49	15.37	-48.9	-50.2	15.4	0.00e+00	0	22	0	414187520	64	4081
2026-01-13 01:22:12.76	23.46	15.47	-48.9	-50.2	15.4	0.00e+00	0	22	0	417333248	64	4065
2026-01-13 01:22:13.77	23.42	15.58	-48.9	-50.2	15.4	0.00e+00	0	22	0	420478976	64	4085
2026-01-13 01:22:14.78	23.38	15.69	-48.8	-50.1	15.4	0.00e+00	0	22	0	423624704	64	4046
2026-01-13 01:22:15.78	23.34	15.80	-48.9	-50.2	15.4	0.00e+00	0	22	0	426770432	64	4064
2026-01-13 01:22:16.78	23.30	15.90	-48.9	-50.2	15.4	0.00e+00	0	22	0	429916160	64	4082
2026-01-13 01:22:17.77	23.26	16.01	-48.9	-50.2	15.4	0.00e+00	0	22	0	433061888	64	4078
2026-01-13 01:22:18.77	23.22	16.12	-48.9	-50.2	15.4	0.00e+00	0	22	0	436207616	64	4057
2026-01-13 01:22:19.77	23.18	16.23	-48.9	-50.3	15.4	0.00e+00	0	22	0	439353344	64	4102
2026-01-13 01:22:20.78	23.14	16.34	-49.0	-50.4	15.3	0.00e+00	0	22	0	442499072	64	4148
2026-01-13 01:22:21.79	23.10	16.45	-49.0	-50.3	15.3	0.00e+00	0	22	0	445644800	64	4130
2026-01-13 01:22:22.79	23.06	16.56	-49.0	-50.4	15.3	0.00e+00	0	22	0	448790528	64	4164
2026-01-13 01:22:23.80	23.02	16.68	-48.9	-50.3	15.4	0.00e+00	0	22	0	451936256	64	4110
2026-01-13 01:22:24.80	22.98	16.79	-49.0	-50.3	15.3	0.00e+00	0	22	0	455081984	64	4134
2026-01-13 01:22:25.80	22.94	16.90	-48.9	-50.2	15.4	0.00e+00	0	22	0	458227712	64	4090
2026-01-13 01:22:26.80	22.89	17.01	-48.9	-50.2	15.4	0.00e+00	0	22	0	461373440	64	4095
2026-01-13 01:22:27.80	22.85	17.13	-49.0	-50.3	15.4	0.00e+00	0	22	0	464519168	64	4127
2026-01-13 01:22:28.81	22.81	17.24	-49.0	-50.3	15.3	0.00e+00	0	22	0	467664896	64	4141
2026-01-13 01:22:29.82	22.76	17.36	-49.0	-50.3	15.3	0.00e+00	0	22	0	470810624	64	4137
2026-01-13 01:22:30.82	22.72	17.47	-49.1	-50.4	15.3	0.00e+00	0	22	0	473956352	64	4170
2026-01-13 01:22:31.82	22.68	17.59	-49.1	-50.5	15.3	0.00e+00	0	22	0	477102080	64	4205
2026-01-13 01:22:32.83	22.63	17.71	-48.9	-50.3	15.4	0.00e+00	0	22	0	480247808	64	4112
2026-01-13 01:22:33.83	22.59	17.82	-49.0	-50.4	15.3	0.00e+00	0	22	0	483393536	64	4161
2026-01-13 01:22:34.84	22.54	17.94	-49.0	-50.3	15.4	0.00e+00	0	22	0	486539264	64	4120
2026-01-13 01:22:35.84	22.49	18.06	-48.9	-50.3	15.4	0.00e+00	0	22	0	489684992	64	4104
2026-01-13 01:22:36.84	22.45	18.18	-48.9	-50.2	15.4	0.00e+00	0	22	0	492830720	64	4090
2026-01-13 01:22:37.85	22.40	18.30	-48.9	-50.2	15.4	0.00e+00	0	22	0	495976448	64	4076
2026-01-13 01:22:38.85	22.36	18.42	-48.9	-50.2	15.4	0.00e+00	0	22	0	499122176	64	4087
2026-01-13 01:22:39.85	22.31	18.54	-49.0	-50.3	15.4	0.00e+00	0	22	0	502267904	64	4106
2026-01-13 01:22:40.85	22.26	18.66	-48.8	-50.1	15.5	0.00e+00	0	22	0	505413632	64	4029
2026-01-13 01:22:41.85	22.21	18.78	-48.8	-50.1	15.5	0.00e+00	0	22	0	508559360	64	4045
2026-01-13 01:22:42.85	22.16	18.90	-48.8	-50.1	15.5	0.00e+00	0	22	0	511705088	64	4027
2026-01-13 01:22:43.85	22.12	19.02	-48.8	-50.1	15.5	0.00e+00	0	22	0	514850816	64	4040
2026-01-13 01:22:44.85	22.07	19.14	-48.9	-50.1	15.5	0.00e+00	0	22	0	517996544	64	4051
2026-01-13 01:22:45.85	22.02	19.27	-48.8	-50.0	15.5	0.00e+00	0	22	0	521142272	64	3997
2026-01-13 01:22:46.85	21.97	19.39	-48.7	-49.9	15.4	0.00e+00	0	22	0	524288000	63	4189
2026-01-13 01:22:47.86	21.91	19.52	-48.7	-50.0	15.4	0.00e+00	0	22	0	527433728	63	4215
2026-01-13 01:22:48.86	21.86	19.64	-48.8	-50.1	15.3	0.00e+00	0	22	0	530579456	63	4249
2026-01-13 01:22:49.86	21.81	19.77	-48.7	-50.0	15.3	0.00e+00	0	22	0	533725184	63	4232
2026-01-13 01:22:50.86	21.76	19.89	-48.6	-49.9	15.4	0.00e+00	0	22	0	536870912	63	4169
2026-01-13 01:22:51.87	21.71	20.02	-48.7	-50.0	15.4	0.00e+00	0	22	0	540016640	63	4197
2026-01-13 01:22:52.87	21.65	20.15	-48.5	-49.8	15.5	0.00e+00	0	22	0	543162368	63	4116
2026-01-13 01:22:53.87	21.60	20.28	-48.5	-49.7	15.5	0.00e+00	0	22	0	546308096	63	4089
2026-01-13 01:22:54.87	21.55	20.41	-48.5	-49.8	15.5	0.00e+00	0	22	0	549453824	63	4099
2026-01-13 01:22:55.87	21.49	20.54	-48.5	-49.8	15.5	0.00e+00	0	22	0	552599552	63	4103
2026-01-13 01:22:56.88	21.44	20.67	-48.3	-49.6	15.6	0.00e+00	0	22	0	555745280	63	4019
2026-01-13 01:22:57.88	21.38	20.80	-48.4	-49.7	15.5	0.00e+00	0	22	0	558891008	63	4070
2026-01-13 01:22:58.89	21.33	20.93	-48.5	-49.8	15.5	0.00e+00	0	22	0	562036736	63	4117
2026-01-13 01:22:59.89	21.27	21.06	-48.4	-49.6	15.5	0.00e+00	0	22	0	565182464	63	4042
2026-01-13 01:23:00.88	21.21	21.20	-48.2	-49.4	15.7	0.00e+00	0	22	0	568328192	63	3940
2026-01-13 01:23:01.89	21.16	21.33	-48.2	-49.5	15.6	0.00e+00	0	22	0	571473920	63	3963
2026-01-13 01:23:02.89	21.10	21.46	-48.1	-49.3	15.6	0.00e+00	0	22	0	574619648	62	4115
2026-01-13 01:23:03.89	21.04	21.60	-48.1	-49.3	15.5	0.00e+00	0	22	0	577765376	62	4140
2026-01-13 01:23:04.89	20.98	21.73	-48.0	-49.2	15.6	0.00e+00	0	22	0	580911104	62	4068
2026-01-13 01:23:05.89	20.92	21.87	-48.0	-49.2	15.6	0.00e+00	0	22	0	584056832	62	4088
2026-01-13 01:23:06.89	20.86	22.01	-48.0	-49.2	15.6	0.00e+00	0	22	0	587202560	62	4067
2026-01-13 01:23:07.89	20.80	22.15	-48.0	-49.3	15.6	0.00e+00	0	22	0	590348288	62	4102
2026-01-13 01:23:08.89	20.74	22.28	-48.0	-49.2	15.6	0.00e+00	0	22	0	593494016	62	4068
2026-01-13 01:23:09.90	20.68	22.42	-48.0	-49.2	15.6	0.00e+00	0	22	0	596639744	62	4071
2026-01-13 01:23:10.90	20.61	22.56	-47.9	-49.1	15.7	0.00e+00	0	22	0	598736896	62	4010
2026-01-13 01:23:11.90	20.55	22.70	-47.9	-49.0	15.7	0.00e+00	0	22	0	601882624	62	4001
2026-01-13 01:23:12.90	20.49	22.85	-47.8	-49.0	15.7	0.00e+00	0	22	0	605028352	62	3964
2026-01-13 01:23:13.91	20.42	22.99	-47.7	-48.8	15.8	0.00e+00	0	22	0	608174080	62	3903
2026-01-13 01:23:14.91	20.36	23.13	-47.7	-48.8	15.6	0.00e+00	0	22	0	611319808	61	4142
2026-01-13 01:23:15.92	20.29	23.28	-47.6	-48.8	15.6	0.00e+00	0	22	0	615514112	61	4120
2026-01-13 01:23:16.93	20.22	23.42	-47.5	-48.6	15.7	0.00e+00	0	22	0	618659840	61	4048
2026-01-13 01:23:17.93	20.16	23.57	-47.5	-48.6	15.7	0.00e+00	0	22	0	620756992	61	4034
2026-01-13 01:23:18.94	20.09	23.71	-47.4	-48.6	15.7	0.00e+00	0	22	0	623902720	61	4024
2026-01-13 01:23:19.93	20.02	23.86	-47.5	-48.7	15.7	0.00e+00	0	22	0	627048448	61	4054
2026-01-13 01:23:20.93	19.95	24.01	-47.6	-48.8	15.7	0.00e+00	0	22	0	630194176	61	4104
2026-01-13 01:23:21.93	19.88	24.15	-47.5	-48.6	15.7	0.00e+00	0	22	0	633339904	61	4032
2026-01-13 01:23:22.93	19.81	24.30	-47.5	-48.7	15.7	0.00e+00	0	22	0	636485632	61	4060
2026-01-13 01:23:23.93	19.74	24.45	-47.7	-48.8	15.6	0.00e+00	0	22	0	639631360	61	4140
2026-01-13 01:23:24.93	19.67	24.60	-47.6	-48.7	15.7	0.00e+00	0	22	0	642777088	61	4094
2026-01-13 01:23:25.93	19.60	24.76	-47.7	-48.9	15.6	0.00e+00	0	22	0	645922816	61	4147
2026-01-13 01:23:26.93	19.53	24.91	-47.8	-49.0	15.6	0.00e+00	0	22	0	649068544	61	4202
2026-01-13 01:23:27.94	19.45	25.06	-47.8	-49.0	15.6	0.00e+00	0	22	0	652214272	61	4204
2026-01-13 01:23:28.95	19.38	25.22	-47.8	-49.0	15.6	0.00e+00	0	22	0	655360000	61	4201
2026-01-13 01:23:29.95	19.30	25.37	-47.9	-49.0	15.6	0.00e+00	0	22	0	658505728	61	4240
2026-01-13 01:23:30.95	19.22	25.53	-47.9	-49.1	15.5	0.00e+00	0	22	0	661651456	61	4284
2026-01-13 01:23:31.96	19.15	25.69	-47.9	-49.1	15.5	0.00e+00	0	22	0	664797184	61	4286
2026-01-13 01:23:32.96	19.07	25.84	-48.0	-49.2	15.5	0.00e+00	0	22	0	667942912	61	4302
2026-01-13 01:23:33.96	18.99	26.00	-48.1	-49.3	15.4	0.00e+00	0	22	0	671088640	61	4360
2026-01-13 01:23:34.96	18.91	26.16	-48.1	-49.3	15.4	0.00e+00	0	22	0	674234368	61	4388
2026-01-13 01:23:35.96	18.83	26.32	-48.2	-49.4	15.4	0.00e+00	0	22	0	677380096	61	4435
2026-01-13 01:23:36.96	18.75	26.48	-48.3	-49.5	15.4	0.00e+00	0	22	0	680525824	61	4474
2026-01-13 01:23:37.97	18.67	26.64	-48.5	-49.7	15.4	0.00e+00	0	22	0	683671552	62	4323
2026-01-13 01:23:38.97	18.58	26.81	-48.6	-49.8	15.3	0.00e+00	0	22	0	686817280	62	4366
2026-01-13 01:23:39.97	18.50	26.97	-48.7	-49.9	15.3	0.00e+00	0	22	0	689963008	62	4438
2026-01-13 01:23:40.97	18.42	27.13	-48.8	-50.0	15.2	0.00e+00	0	22	0	693108736	62	4490
2026-01-13 01:23:41.97	18.33	27.30	-48.9	-50.1	15.2	0.00e+00	0	22	0	696254464	62	4545
2026-01-13 01:23:42.98	18.24	27.47	-48.9	-50.2	15.2	0.00e+00	0	22	0	699400192	62	4559
2026-01-13 01:23:43.98	18.16	27.64	-49.0	-50.3	15.3	0.00e+00	0	22	0	702545920	63	4355
2026-01-13 01:23:44.99	18.07	27.80	-49.1	-50.4	15.2	0.00e+00	0	22	0	705691648	63	4414
2026-01-13 01:23:45.99	17.98	27.97	-49.2	-50.5	15.2	0.00e+00	0	22	0	708837376	63	4454
2026-01-13 01:23:46.99	17.89	28.14	-49.1	-50.4	15.2	0.00e+00	0	22	0	711983104	63	4428
2026-01-13 01:23:47.99	17.80	28.32	-49.1	-50.5	15.2	0.00e+00	0	22	0	715128832	63	4446
2026-01-13 01:23:48.99	17.70	28.49	-49.1	-50.4	15.2	0.00e+00	0	22	0	718274560	63	4434
2026-01-13 01:23:50.00	17.61	28.66	-49.1	-50.4	15.2	0.00e+00	0	22	0	721420288	63	4429
2026-01-13 01:23:50.99	17.52	28.83	-49.1	-50.4	15.2	0.00e+00	0	22	0	724566016	63	4423
2026-01-13 01:23:52.00	17.42	29.01	-49.1	-50.5	15.2	0.00e+00	0	22	0	727711744	63	4444
2026-01-13 01:23:53.00	17.32	29.19	-49.1	-50.3	15.2	0.00e+00	0	22	0	730857472	63	4390
2026-01-13 01:23:54.00	17.22	29.36	-48.9	-50.2	15.3	0.00e+00	0	22	0	734003200	63	4328
2026-01-13 01:23:55.00	17.13	29.54	-49.0	-50.3	15.3	0.00e+00	0	22	0	737148928	63	4350
2026-01-13 01:23:56.01	17.02	29.72	-49.0	-50.3	15.3	0.00e+00	0	22	0	740294656	63	4364
2026-01-13 01:23:57.01	16.92	29.90	-48.8	-50.1	15.3	0.00e+00	0	22	0	743440384	63	4261
2026-01-13 01:23:58.01	16.82	30.08	-48.8	-50.1	15.3	0.00e+00	0	22	0	746586112	63	4246
2026-01-13 01:23:59.01	16.72	30.27	-48.7	-50.0	15.4	0.00e+00	0	22	0	749731840	63	4194
2026-01-13 01:24:00.01	16.61	30.45	-48.7	-49.9	15.4	0.00e+00	0	22	0	752877568	63	4161
2026-01-13 01:24:01.01	16.51	30.63	-48.8	-50.0	15.4	0.00e+00	0	22	0	756023296	63	4222
2026-01-13 01:24:02.01	16.40	30.82	-48.5	-49.7	15.5	0.00e+00	0	22	0	759169024	63	4087
2026-01-13 01:24:03.02	16.29	31.01	-48.5	-49.7	15.5	0.00e+00	0	22	0	762314752	63	4081
2026-01-13 01:24:04.02	16.18	31.19	-48.4	-49.7	15.5	0.00e+00	0	22	0	765460480	63	4058
2026-01-13 01:24:05.01	16.07	31.38	-48.4	-49.6	15.5	0.00e+00	0	22	0	768606208	63	4041
2026-01-13 01:24:06.01	15.96	31.57	-48.4	-49.7	15.5	0.00e+00	0	22	0	771751936	63	4054
2026-01-13 01:24:07.01	15.84	31.76	-48.4	-49.6	15.5	0.00e+00	0	22	0	774897664	63	4042
2026-01-13 01:24:08.01	15.73	31.95	-48.5	-49.7	15.5	0.00e+00	0	22	0	778043392	63	4061
2026-01-13 01:24:09.02	15.61	32.15	-48.6	-49.9	15.4	0.00e+00	0	22	0	781189120	63	4150
2026-01-13 01:24:10.02	15.49	32.34	-48.8	-50.1	15.3	0.00e+00	0	22	0	784334848	63	4257
2026-01-13 01:24:11.02	15.37	32.54	-48.9	-50.2	15.3	0.00e+00	0	22	0	787480576	63	4330
2026-01-13 01:24:12.03	15.25	32.74	-49.0	-50.3	15.2	0.00e+00	0	22	0	790626304	63	4390
2026-01-13 01:24:13.02	15.13	32.93	-49.1	-50.4	15.2	0.00e+00	0	22	0	793772032	63	4433
2026-01-13 01:24:14.03	15.00	33.13	-49.1	-50.4	15.2	0.00e+00	0	22	0	796917760	63	4441
2026-01-13 01:24:15.03	14.88	33.33	-49.0	-50.3	15.3	0.00e+00	0	22	0	800063488	63	4368
2026-01-13 01:24:16.04	14.75	33.54	-49.1	-50.4	15.2	0.00e+00	0	22	0	803209216	63	4403
2026-01-13 01:24:17.04	14.62	33.74	-49.1	-50.4	15.3	0.00e+00	0	22	0	806354944	63	4401
2026-01-13 01:24:18.05	14.49	33.94	-49.1	-50.3	15.3	0.00e+00	0	22	0	809500672	63	4384
2026-01-13 01:24:19.05	14.35	34.15	-49.2	-50.5	15.2	0.00e+00	0	22	0	812646400	63	4467
2026-01-13 01:24:20.05	14.22	34.35	-49.3	-50.6	15.1	0.00e+00	0	22	0	815792128	63	4542
2026-01-13 01:24:21.05	14.08	34.56	-49.5	-50.9	15.1	0.00e+00	0	22	0	818937856	64	4407
2026-01-13 01:24:22.06	13.94	34.77	-49.8	-51.2	15.0	0.00e+00	0	22	0	822083584	64	4562
2026-01-13 01:24:23.06	13.81	34.98	-50.0	-51.4	15.0	0.00e+00	0	22	0	825229312	65	4419
2026-01-13 01:24:24.07	13.66	35.19	-50.2	-51.6	14.9	0.00e+00	0	22	0	828375040	65	4538
2026-01-13 01:24:25.07	13.52	35.40	-50.2	-51.7	14.8	0.00e+00	0	22	0	831520768	65	4573
2026-01-13 01:24:26.07	13.37	35.62	-50.4	-51.9	14.7	0.00e+00	0	22	0	834666496	65	4683
2026-01-13 01:24:27.07	13.23	35.83	-50.5	-52.0	14.8	0.00e+00	0	22	0	837812224	66	4450
2026-01-13 01:24:28.08	13.08	36.05	-50.6	-52.1	14.8	0.00e+00	0	22	0	840957952	66	4506
2026-01-13 01:24:29.08	12.92	36.26	-50.5	-51.9	14.8	0.00e+00	0	22	0	844103680	66	4436
2026-01-13 01:24:30.08	12.77	36.48	-50.5	-51.9	14.8	0.00e+00	0	22	0	847249408	66	4425
2026-01-13 01:24:31.08	12.62	36.70	-50.6	-52.1	14.8	0.00e+00	0	22	0	850395136	66	4504
2026-01-13 01:24:32.09	12.46	36.92	-50.5	-52.0	14.8	0.00e+00	0	22	0	852492288	66	4466
2026-01-13 01:24:33.09	12.30	37.15	-50.5	-52.0	14.8	0.00e+00	0	22	0	855638016	66	4480
2026-01-13 01:24:34.09	12.13	37.37	-50.6	-52.1	14.8	0.00e+00	0	22	0	858783744	66	4537
2026-01-13 01:24:35.09	11.97	37.59	-50.7	-52.2	14.7	0.00e+00	0	22	0	861929472	66	4564
2026-01-13 01:24:36.09	11.80	37.82	-50.6	-52.1	14.7	0.00e+00	0	22	0	865075200	66	4542
2026-01-13 01:24:37.09	11.63	38.04	-50.6	-52.1	14.8	0.00e+00	0	22	0	868220928	66	4541
2026-01-13 01:24:38.10	11.46	38.27	-50.7	-52.3	14.7	0.00e+00	0	22	0	871366656	66	4615
2026-01-13 01:24:39.10	11.29	38.50	-50.7	-52.2	14.7	0.00e+00	0	22	0	874512384	66	4573
2026-01-13 01:24:40.11	11.11	38.73	-50.7	-52.2	14.7	0.00e+00	0	22	0	877658112	66	4556
2026-01-13 01:24:41.12	10.93	38.97	-50.5	-52.0	14.8	0.00e+00	0	22	0	880803840	66	4477
2026-01-13 01:24:42.12	10.75	39.20	-50.6	-52.1	14.8	0.00e+00	0	22	0	883949568	66	4535
2026-01-13 01:24:43.12	10.56	39.43	-50.5	-52.0	14.8	0.00e+00	0	22	0	887095296	66	4468
2026-01-13 01:24:44.13	10.37	39.67	-50.5	-51.9	14.9	0.00e+00	0	22	0	890241024	66	4423
2026-01-13 01:24:45.14	10.18	39.91	-50.5	-51.9	14.9	0.00e+00	0	22	0	893386752	66	4437
2026-01-13 01:24:46.14	9.99	40.15	-50.5	-51.9	14.8	0.00e+00	0	22	0	896532480	66	4441
2026-01-13 01:24:47.14	9.79	40.39	-50.5	-52.0	14.8	0.00e+00	0	22	0	899678208	66	4456
2026-01-13 01:24:48.15	9.59	40.63	-50.7	-52.2	14.6	0.00e+00	0	22	0	902823936	66	4589
2026-01-13 01:24:49.15	9.39	40.87	-50.7	-52.2	14.6	0.00e+00	0	22	0	905969664	66	4598
2026-01-13 01:24:50.15	9.18	41.11	-51.1	-52.7	14.5	0.00e+00	0	22	0	909115392	67	4566
2026-01-13 01:24:51.15	8.98	41.36	-51.3	-53.0	14.4	0.00e+00	0	22	0	912261120	67	4745
2026-01-13 01:24:52.15	8.77	41.60	-51.3	-52.9	14.4	0.00e+00	0	22	0	915406848	67	4700
2026-01-13 01:24:53.15	8.55	41.85	-51.2	-52.9	14.5	0.00e+00	0	22	0	918552576	67	4668
2026-01-13 01:24:54.16	8.33	42.10	-51.0	-52.6	14.6	0.00e+00	0	22	0	921698304	67	4526
2026-01-13 01:24:55.15	8.11	42.34	-51.0	-52.5	14.7	0.00e+00	0	22	0	924844032	67	4462
2026-01-13 01:24:56.16	7.88	42.60	-50.8	-52.3	14.8	0.00e+00	0	22	0	927989760	67	4388
2026-01-13 01:24:57.16	7.66	42.85	-50.9	-52.4	14.8	0.00e+00	0	22	0	931135488	67	4426
2026-01-13 01:24:58.16	7.42	43.10	-50.9	-52.4	14.8	0.00e+00	0	22	0	934281216	67	4439
2026-01-13 01:24:59.17	7.19	43.35	-51.1	-52.6	14.6	0.00e+00	0	22	0	937426944	67	4543
2026-01-13 01:25:00.16	6.95	43.61	-51.4	-53.0	14.4	0.00e+00	0	22	0	940572672	67	4741
2026-01-13 01:25:01.17	6.70	43.86	-51.8	-53.5	14.3	0.00e+00	0	22	0	943718400	68	4757
2026-01-13 01:25:02.17	6.45	44.12	-52.1	-53.9	14.2	0.00e+00	0	22	0	946864128	69	4693
2026-01-13 01:25:03.17	6.20	44.38	-52.2	-54.0	14.2	0.00e+00	0	22	0	950009856	69	4720
2026-01-13 01:25:04.17	5.95	44.64	-52.1	-53.9	14.2	0.00e+00	0	22	0	953155584	69	4687
2026-01-13 01:25:05.17	5.69	44.90	-52.0	-53.8	14.3	0.00e+00	0	22	0	956301312	69	4605
2026-01-13 01:25:06.17	5.42	45.16	-51.7	-53.4	14.6	0.00e+00	0	22	0	959447040	69	4404
2026-01-13 01:25:07.17	5.15	45.42	-51.5	-53.1	14.7	0.00e+00	0	22	0	962592768	69	4291
2026-01-13 01:25:08.18	4.88	45.68	-51.5	-53.1	14.7	0.00e+00	0	22	0	965738496	69	4243
2026-01-13 01:25:09.18	4.60	45.95	-51.4	-53.0	14.8	0.00e+00	0	22	0	968884224	69	4204
2026-01-13 01:25:10.19	4.31	46.21	-51.0	-52.5	14.9	0.00e+00	0	22	0	972029952	68	4238
2026-01-13 01:25:11.19	4.03	46.48	-51.1	-52.6	14.8	0.00e+00	0	22	0	975175680	68	4277
2026-01-13 01:25:12.19	3.73	46.75	-51.2	-52.8	14.7	0.00e+00	0	22	0	978321408	68	4355
2026-01-13 01:25:13.19	3.43	47.01	-51.3	-52.8	14.7	0.00e+00	0	22	0	981467136	68	4374
2026-01-13 01:25:14.19	3.13	47.28	-51.3	-52.9	14.7	0.00e+00	0	22	0	984612864	68	4412
2026-01-13 01:25:15.20	2.82	47.55	-51.4	-53.0	14.6	0.00e+00	0	22	0	987758592	68	4474
2026-01-13 01:25:16.20	2.51	47.82	-51.2	-52.8	14.8	0.00e+00	0	22	0	990904320	68	4358
2026-01-13 01:25:17.21	2.18	48.10	-51.2	-52.7	14.8	0.00e+00	0	22	0	994050048	68	4323
2026-01-13 01:25:18.20	1.86	48.36	-51.1	-52.6	14.9	0.00e+00	0	22	0	997195776	68	4262
2026-01-13 01:25:19.20	1.53	48.64	-51.0	-52.5	15.0	0.00e+00	0	22	0	1000341504	68	4200
2026-01-13 01:25:20.21	1.19	48.91	-50.8	-52.3	15.0	0.00e+00	0	22	0	1003487232	68	4112
2026-01-13 01:25:21.21	0.85	49.18	-50.7	-52.1	15.2	0.00e+00	0	22	0	1006632960	68	4050
2026-01-13 01:25:22.22	0.49	49.46	-50.7	-52.1	15.2	0.00e+00	0	22	0	1009778688	68	4024
2026-01-13 01:25:23.22	0.14	49.73	-50.4	-51.9	15.1	0.00e+00	0	22	0	1012924416	67	4146
2026-01-13 01:25:24.23	359.77	50.01	-50.6	-52.0	15.0	0.00e+00	0	22	0	1016070144	67	4237
2026-01-13 01:25:25.23	359.40	50.29	-50.7	-52.2	14.9	0.00e+00	0	22	0	1019215872	67	4294
2026-01-13 01:25:26.23	359.03	50.56	-50.4	-51.9	15.1	0.00e+00	0	22	0	1022361600	67	4155
2026-01-13 01:25:27.24	358.64	50.84	-50.2	-51.6	15.3	0.00e+00	0	22	0	1025507328	67	4007
2026-01-13 01:25:28.24	358.25	51.12	-50.2	-51.5	15.1	0.00e+00	0	22	0	1028653056	66	4232
2026-01-13 01:25:29.25	357.85	51.39	-50.1	-51.4	15.2	0.00e+00	0	22	0	1031798784	66	4174
2026-01-13 01:25:30.25	357.44	51.67	-50.3	-51.7	15.0	0.00e+00	0	22	0	1034944512	66	4340
2026-01-13 01:25:31.25	357.03	51.95	-50.5	-52.0	14.9	0.00e+00	0	22	0	1038090240	66	4470
2026-01-13 01:25:32.26	356.60	52.22	-50.5	-52.0	14.9	0.00e+00	0	22	0	1041235968	66	4446
2026-01-13 01:25:33.26	356.18	52.50	-50.4	-51.8	15.0	0.00e+00	0	22	0	1044381696	66	4382
2026-01-13 01:25:34.26	355.74	52.78	-50.2	-51.6	15.1	0.00e+00	0	22	0	1047527424	66	4266
2026-01-13 01:25:35.26	355.29	53.05	-50.0	-51.4	15.2	0.00e+00	0	22	0	1050673152	66	4165
2026-01-13 01:25:36.26	354.84	53.33	-49.3	-50.6	15.5	0.00e+00	0	22	0	1053818880	65	4017
2026-01-13 01:25:37.26	354.38	53.60	-49.4	-50.7	15.4	0.00e+00	0	22	0	1056964608	65	4065
2026-01-13 01:25:38.26	353.91	53.88	-49.4	-50.7	15.4	0.00e+00	0	22	0	1060110336	65	4075
2026-01-13 01:25:39.26	353.43	54.15	-49.3	-50.5	15.5	0.00e+00	0	22	0	1063256064	65	4000
2026-01-13 01:25:40.26	352.94	54.43	-48.9	-50.1	15.6	0.00e+00	0	22	0	1066401792	64	4018
2026-01-13 01:25:41.26	352.44	54.70	-48.7	-49.9	15.5	0.00e+00	0	22	0	1069547520	63	4157
2026-01-13 01:25:42.26	351.93	54.97	-48.8	-50.0	15.5	0.00e+00	0	22	0	1072693248	63	4213
2026-01-13 01:25:43.26	351.41	55.24	-49.2	-50.5	15.2	0.00e+00	0	22	0	1075838976	63	4442
2026-01-13 01:25:44.27	350.87	55.51	-49.5	-50.8	15.2	0.00e+00	0	22	0	1078984704	64	4376
2026-01-13 01:25:45.27	350.34	55.78	-49.1	-50.4	15.4	0.00e+00	0	22	0	1082130432	64	4151
2026-01-13 01:25:46.28	349.78	56.05	-48.8	-50.0	15.6	0.00e+00	0	22	0	1085276160	64	3989
2026-01-13 01:25:47.28	349.22	56.32	-48.8	-50.0	15.6	0.00e+00	0	22	0	1088421888	64	3974
2026-01-13 01:25:48.29	348.64	56.59	-48.8	-50.0	15.6	0.00e+00	0	22	0	1091567616	64	3965
2026-01-13 01:25:49.29	348.06	56.85	-49.0	-50.3	15.4	0.00e+00	0	22	0	1094713344	64	4114
2026-01-13 01:25:50.29	347.47	57.11	-49.0	-50.2	15.5	0.00e+00	0	22	0	1097859072	64	4096
2026-01-13 01:25:51.29	346.86	57.37	-49.1	-50.4	15.4	0.00e+00	0	22	0	1101004800	64	4153
2026-01-13 01:25:52.29	346.24	57.63	-48.9	-50.2	15.5	0.00e+00	0	22	0	1104150528	64	4071
2026-01-13 01:25:53.30	345.61	57.89	-48.8	-50.0	15.6	0.00e+00	0	22	0	1106247680	64	3994
2026-01-13 01:25:54.30	344.97	58.14	-48.7	-49.9	15.5	0.00e+00	0	22	0	1109393408	63	4182
2026-01-13 01:25:55.30	344.31	58.39	-48.8	-50.0	15.5	0.00e+00	0	22	0	1112539136	63	4209
2026-01-13 01:25:56.31	343.64	58.64	-48.8	-50.1	15.5	0.00e+00	0	22	0	1115684864	63	4245
2026-01-13 01:25:57.31	342.96	58.89	-48.6	-49.8	15.5	0.00e+00	0	22	0	1118830592	63	4143
2026-01-13 01:25:58.31	342.27	59.13	-48.6	-49.8	15.6	0.00e+00	0	22	0	1121976320	63	4123
2026-01-13 01:25:59.32	341.56	59.37	-48.5	-49.7	15.6	0.00e+00	0	22	0	1126170624	63	4074
2026-01-13 01:26:00.32	340.84	59.61	-48.4	-49.6	15.6	0.00e+00	0	22	0	1128267776	63	4038
2026-01-13 01:26:01.33	340.10	59.85	-48.2	-49.4	15.7	0.00e+00	0	22	0	1131413504	63	3928
2026-01-13 01:26:02.33	339.36	60.08	-47.9	-49.1	15.7	0.00e+00	0	22	0	1134559232	62	4029
2026-01-13 01:26:03.33	338.60	60.30	-47.8	-48.9	15.8	0.00e+00	0	22	0	1137704960	62	3926
2026-01-13 01:26:04.32	337.83	60.52	-47.5	-48.6	15.8	0.00e+00	0	22	0	1140850688	61	4013
2026-01-13 01:26:05.32	337.05	60.74	-47.6	-48.7	15.7	0.00e+00	0	22	0	1143996416	61	4086
2026-01-13 01:26:06.32	336.25	60.96	-47.8	-49.0	15.6	0.00e+00	0	22	0	1147142144	61	4216
2026-01-13 01:26:07.32	335.44	61.17	-47.8	-48.9	15.7	0.00e+00	0	22	0	1150287872	61	4175
2026-01-13 01:26:08.33	334.60	61.38	-47.6	-48.7	15.7	0.00e+00	0	22	0	1153433600	61	4074
2026-01-13 01:26:09.32	333.77	61.57	-47.5	-48.6	15.7	0.00e+00	0	22	0	1156579328	61	4040
2026-01-13 01:26:10.32	332.92	61.77	-47.6	-48.8	15.7	0.00e+00	0	22	0	1159725056	61	4100
2026-01-13 01:26:11.33	332.04	61.96	-47.9	-49.1	15.6	0.00e+00	0	22	0	1162870784	61	4271
2026-01-13 01:26:12.33	331.16	62.15	-48.1	-49.2	15.6	0.00e+00	0	22	0	1166016512	61	4331
2026-01-13 01:26:13.33	330.27	62.33	-48.2	-49.4	15.5	0.00e+00	0	22	0	1169162240	61	4415
2026-01-13 01:26:14.34	329.35	62.51	-48.5	-49.7	15.5	0.00e+00	0	22	0	1172307968	62	4309
2026-01-13 01:26:15.34	328.43	62.68	-48.4	-49.6	15.5	0.00e+00	0	22	0	1175453696	62	4290
2026-01-13 01:26:16.35	327.49	62.84	-48.1	-49.3	15.7	0.00e+00	0	22	0	1178599424	62	4099
2026-01-13 01:26:17.36	326.54	63.00	-47.9	-49.1	15.7	0.00e+00	0	22	0	1181745152	62	4010
2026-01-13 01:26:18.37	325.57	63.15	-48.0	-49.2	15.7	0.00e+00	0	22	0	1184890880	62	4055
2026-01-13 01:26:19.37	324.60	63.30	-48.0	-49.2	15.7	0.00e+00	0	22	0	1188036608	62	4052
2026-01-13 01:26:20.37	323.61	63.44	-47.7	-48.9	15.8	0.00e+00	0	22	0	1191182336	62	3922
2026-01-13 01:26:21.38	322.61	63.57	-47.4	-48.5	15.8	0.00e+00	0	22	0	1194328064	61	3994
2026-01-13 01:26:22.38	321.61	63.69	-47.5	-48.6	15.8	0.00e+00	0	22	0	1197473792	61	4023
2026-01-13 01:26:23.38	320.59	63.81	-47.6	-48.7	15.8	0.00e+00	0	22	0	1200619520	61	4093
2026-01-13 01:26:24.38	319.56	63.92	-47.7	-48.8	15.7	0.00e+00	0	22	0	1203765248	61	4119
2026-01-13 01:26:25.38	318.53	64.02	-47.7	-48.8	15.7	0.00e+00	0	22	0	1206910976	61	4138
2026-01-13 01:26:26.38	317.49	64.12	-47.8	-48.9	15.7	0.00e+00	0	22	0	1210056704	61	4183
2026-01-13 01:26:27.38	316.44	64.20	-48.0	-49.2	15.6	0.00e+00	0	22	0	1213202432	61	4326
2026-01-13 01:26:28.39	315.36	64.28	-47.8	-49.0	15.7	0.00e+00	0	22	0	1216348160	61	4214
2026-01-13 01:26:29.40	314.29	64.36	-47.6	-48.7	15.8	0.00e+00	0	22	0	1219493888	61	4095
2026-01-13 01:26:30.39	313.23	64.42	-47.6	-48.8	15.8	0.00e+00	0	22	0	1222639616	61	4103
2026-01-13 01:26:31.39	312.15	64.47	-47.7	-48.8	15.7	0.00e+00	0	22	0	1225785344	61	4124
2026-01-13 01:26:32.39	311.06	64.52	-47.6	-48.8	15.7	0.00e+00	0	22	0	1228931072	61	4099
2026-01-13 01:26:33.39	309.98	64.56	-47.6	-48.7	15.7	0.00e+00	0	22	0	1232076800	61	4071
2026-01-13 01:26:34.40	308.87	64.59	-47.5	-48.6	15.8	0.00e+00	0	22	0	1235222528	61	4039
2026-01-13 01:26:35.40	307.78	64.61	-47.7	-48.8	15.7	0.00e+00	0	22	0	1238368256	61	4124
2026-01-13 01:26:36.41	306.67	64.63	-47.8	-49.0	15.6	0.00e+00	0	22	0	1241513984	61	4212
2026-01-13 01:26:37.41	305.58	64.63	-47.8	-48.9	15.7	0.00e+00	0	22	0	1244659712	61	4167
2026-01-13 01:26:38.41	304.48	64.63	-47.9	-49.1	15.6	0.00e+00	0	22	0	1247805440	61	4254
2026-01-13 01:26:39.41	303.39	64.62	-48.0	-49.2	15.6	0.00e+00	0	22	0	1250951168	61	4311
2026-01-13 01:26:40.41	302.29	64.60	-48.0	-49.2	15.6	0.00e+00	0	22	0	1254096896	61	4320
2026-01-13 01:26:41.42	301.19	64.57	-47.9	-49.0	15.7	0.00e+00	0	22	0	1257242624	61	4240
2026-01-13 01:26:42.42	300.10	64.53	-47.8	-48.9	15.7	0.00e+00	0	22	0	1260388352	61	4164
2026-01-13 01:26:43.42	299.02	64.49	-47.7	-48.8	15.7	0.00e+00	0	22	0	1263534080	61	4113
2026-01-13 01:26:44.42	297.94	64.44	-47.9	-49.1	15.6	0.00e+00	0	22	0	1266679808	61	4258
2026-01-13 01:26:45.42	296.86	64.38	-48.3	-49.5	15.5	0.00e+00	0	22	0	1269825536	61	4467
2026-01-13 01:26:46.43	295.78	64.31	-48.4	-49.6	15.5	0.00e+00	0	22	0	1272971264	62	4280
2026-01-13 01:26:47.43	294.72	64.23	-48.5	-49.7	15.5	0.00e+00	0	22	0	1276116992	62	4318
2026-01-13 01:26:48.43	293.66	64.15	-48.3	-49.5	15.6	0.00e+00	0	22	0	1279262720	62	4224
2026-01-13 01:26:49.43	292.62	64.05	-48.1	-49.3	15.7	0.00e+00	0	22	0	1282408448	62	4101
2026-01-13 01:26:50.44	291.57	63.95	-47.9	-49.1	15.7	0.00e+00	0	22	0	1285554176	62	4023
2026-01-13 01:26:51.45	290.53	63.84	-48.0	-49.2	15.7	0.00e+00	0	22	0	1288699904	62	4062
2026-01-13 01:26:52.45	289.51	63.73	-48.1	-49.3	15.6	0.00e+00	0	22	0	1291845632	62	4108
2026-01-13 01:26:53.45	288.50	63.61	-47.9	-49.0	15.8	0.00e+00	0	22	0	1294991360	62	4001
2026-01-13 01:26:54.44	287.51	63.48	-47.7	-48.8	15.9	0.00e+00	0	22	0	1298137088	62	3906
2026-01-13 01:26:55.44	286.53	63.34	-47.8	-48.9	15.7	0.00e+00	0	22	0	1301282816	61	4161
2026-01-13 01:26:56.44	285.55	63.20	-48.0	-49.2	15.6	0.00e+00	0	22	0	1304428544	61	4300
2026-01-13 01:26:57.44	284.59	63.05	-48.7	-49.9	15.4	0.00e+00	0	22	0	1307574272	62	4424
2026-01-13 01:26:58.45	283.63	62.90	-48.7	-49.9	15.4	0.00e+00	0	22	0	1310720000	62	4424
2026-01-13 01:26:59.45	282.69	62.74	-48.4	-49.6	15.5	0.00e+00	0	22	0	1313865728	62	4271
2026-01-13 01:27:00.45	281.76	62.57	-48.5	-49.7	15.5	0.00e+00	0	22	0	1317011456	62	4311
2026-01-13 01:27:01.46	280.84	62.39	-48.1	-49.2	15.7	0.00e+00	0	22	0	1320157184	62	4091
2026-01-13 01:27:02.46	279.94	62.21	-48.2	-49.4	15.7	0.00e+00	0	22	0	1323302912	62	4147
2026-01-13 01:27:03.46	279.06	62.03	-48.5	-49.7	15.5	0.00e+00	0	22	0	1326448640	62	4321
2026-01-13 01:27:04.47	278.17	61.84	-48.9	-50.1	15.4	0.00e+00	0	22	0	1329594368	62	4527
2026-01-13 01:27:05.47	277.32	61.64	-48.7	-49.9	15.5	0.00e+00	0	22	0	1332740096	63	4184
2026-01-13 01:27:06.47	276.47	61.44	-48.2	-49.3	15.6	0.00e+00	0	22	0	1335885824	62	4142
2026-01-13 01:27:07.48	275.63	61.24	-48.0	-49.1	15.8	0.00e+00	0	22	0	1339031552	62	4039
2026-01-13 01:27:08.47	274.82	61.03	-47.8	-48.9	15.8	0.00e+00	0	22	0	1342177280	62	3922
2026-01-13 01:27:09.47	274.02	60.82	-48.1	-49.3	15.7	0.00e+00	0	22	0	1345323008	62	4126
2026-01-13 01:27:10.47	273.23	60.60	-48.4	-49.6	15.6	0.00e+00	0	22	0	1348468736	62	4253
2026-01-13 01:27:11.47	272.45	60.38	-48.1	-49.3	15.7	0.00e+00	0	22	0	1351614464	62	4129
2026-01-13 01:27:12.47	271.69	60.15	-48.0	-49.2	15.7	0.00e+00	0	22	0	1354760192	62	4061
2026-01-13 01:27:13.48	270.93	59.92	-48.2	-49.3	15.6	0.00e+00	0	22	0	1356857344	62	4136
2026-01-13 01:27:14.48	270.19	59.69	-48.4	-49.6	15.5	0.00e+00	0	22	0	1360003072	62	4282
2026-01-13 01:27:15.49	269.46	59.45	-48.5	-49.7	15.5	0.00e+00	0	22	0	1363148800	62	4318
2026-01-13 01:27:16.49	268.75	59.21	-48.6	-49.8	15.4	0.00e+00	0	22	0	1366294528	62	4367
2026-01-13 01:27:17.49	268.06	58.97	-48.8	-50.0	15.3	0.00e+00	0	22	0	1369440256	62	4483
2026-01-13 01:27:18.49	267.37	58.72	-48.7	-49.9	15.5	0.00e+00	0	22	0	1372585984	63	4159
2026-01-13 01:27:19.50	266.69	58.47	-48.3	-49.4	15.7	0.00e+00	0	22	0	1375731712	63	3942
2026-01-13 01:27:20.50	266.04	58.22	-48.1	-49.2	15.6	0.00e+00	0	22	0	1378877440	62	4095
2026-01-13 01:27:21.50	265.39	57.97	-48.1	-49.2	15.6	0.00e+00	0	22	0	1382023168	62	4090
2026-01-13 01:27:22.50	264.76	57.71	-48.7	-49.9	15.4	0.00e+00	0	22	0	1385168896	62	4418
2026-01-13 01:27:23.50	264.13	57.45	-49.4	-50.7	15.2	0.00e+00	0	22	0	1388314624	64	4338
2026-01-13 01:27:24.51	263.52	57.19	-49.5	-50.8	15.2	0.00e+00	0	22	0	1391460352	64	4355
2026-01-13 01:27:25.51	262.92	56.93	-49.6	-50.9	15.2	0.00e+00	0	22	0	1394606080	64	4420
2026-01-13 01:27:26.51	262.33	56.67	-49.5	-50.8	15.2	0.00e+00	0	22	0	1397751808	64	4376
2026-01-13 01:27:27.51	261.75	56.40	-49.2	-50.5	15.3	0.00e+00	0	22	0	1400897536	64	4219
2026-01-13 01:27:28.52	261.18	56.13	-48.7	-49.9	15.5	0.00e+00	0	22	0	1404043264	63	4159
2026-01-13 01:27:29.52	260.63	55.86	-48.7	-49.9	15.5	0.00e+00	0	22	0	1407188992	63	4156
2026-01-13 01:27:30.52	260.09	55.60	-49.4	-50.7	15.2	0.00e+00	0	22	0	1410334720	63	4571
2026-01-13 01:27:31.53	259.55	55.32	-50.0	-51.4	15.1	0.00e+00	0	22	0	1413480448	65	4440
2026-01-13 01:27:32.53	259.02	55.05	-50.1	-51.6	15.0	0.00e+00	0	22	0	1416626176	65	4505
2026-01-13 01:27:33.53	258.51	54.78	-49.7	-51.1	15.2	0.00e+00	0	22	0	1419771904	65	4258
2026-01-13 01:27:34.52	258.01	54.51	-49.5	-50.8	15.4	0.00e+00	0	22	0	1422917632	65	4122
2026-01-13 01:27:35.53	257.51	54.23	-49.4	-50.7	15.5	0.00e+00	0	22	0	1426063360	65	4058
2026-01-13 01:27:36.53	257.03	53.96	-49.4	-50.7	15.5	0.00e+00	0	22	0	1429209088	65	4063
2026-01-13 01:27:37.52	256.56	53.69	-49.3	-50.6	15.5	0.00e+00	0	22	0	1432354816	65	4026
2026-01-13 01:27:38.52	256.09	53.41	-49.6	-51.0	15.3	0.00e+00	0	22	0	1435500544	65	4197
2026-01-13 01:27:39.52	255.64	53.13	-50.5	-52.0	14.8	0.00e+00	0	22	0	1438646272	66	4447
2026-01-13 01:27:40.53	255.18	52.86	-52.1	-53.8	14.3	0.00e+00	0	22	0	1441792000	69	4646
2026-01-13 01:27:41.53	254.74	52.58	-52.1	-53.9	14.1	0.00e+00	0	22	0	1444937728	69	4677
2026-01-13 01:27:42.54	254.31	52.30	-51.4	-52.9	14.7	0.00e+00	0	22	0	1448083456	69	4192
2026-01-13 01:27:43.53	253.89	52.03	-50.8	-52.3	15.0	0.00e+00	0	22	0	1451229184	68	4105
2026-01-13 01:27:44.54	253.47	51.75	-50.8	-52.2	15.1	0.00e+00	0	22	0	1454374912	68	4079
2026-01-13 01:27:45.54	253.06	51.47	-50.0	-51.3	15.2	0.00e+00	0	22	0	1457520640	66	4121
2026-01-13 01:27:46.54	252.66	51.19	-49.9	-51.2	15.3	0.00e+00	0	22	0	1460666368	66	4079
2026-01-13 01:27:47.54	252.26	50.92	-50.3	-51.8	15.0	0.00e+00	0	22	0	1463812096	66	4352
2026-01-13 01:27:48.54	251.88	50.64	-50.8	-52.3	14.7	0.00e+00	0	22	0	1466957824	66	4631
2026-01-13 01:27:49.54	251.50	50.36	-51.6	-53.3	14.5	0.00e+00	0	22	0	1470103552	68	4637
2026-01-13 01:27:50.54	251.13	50.09	-52.2	-54.0	14.2	0.00e+00	0	22	0	1473249280	69	4727
2026-01-13 01:27:51.56	250.75	49.81	-52.1	-53.9	14.2	0.00e+00	0	22	0	1476395008	69	4661
2026-01-13 01:27:52.56	250.39	49.53	-51.4	-53.0	14.6	0.00e+00	0	22	0	1479540736	69	4222
2026-01-13 01:27:53.55	250.05	49.26	-51.3	-52.8	14.8	0.00e+00	0	22	0	1482686464	69	4140
2026-01-13 01:27:54.56	249.70	48.98	-50.7	-52.1	15.2	0.00e+00	0	22	0	1485832192	68	4029
2026-01-13 01:27:55.56	249.36	48.71	-50.2	-51.6	15.2	0.00e+00	0	22	0	1488977920	67	4035
2026-01-13 01:27:56.56	249.02	48.44	-50.6	-52.1	14.9	0.00e+00	0	22	0	1492123648	67	4259
2026-01-13 01:27:57.57	248.69	48.16	-51.1	-52.7	14.6	0.00e+00	0	22	0	1495269376	67	4584
2026-01-13 01:27:58.57	248.37	47.89	-52.0	-53.7	14.4	0.00e+00	0	22	0	1498415104	69	4585
2026-01-13 01:27:59.57	248.05	47.62	-52.6	-54.5	14.0	0.00e+00	0	22	0	1501560832	70	4756
2026-01-13 01:28:00.57	247.74	47.35	-53.0	-55.1	13.8	0.00e+00	0	22	0	1504706560	71	4761
2026-01-13 01:28:01.57	247.44	47.08	-53.0	-55.0	13.8	0.00e+00	0	22	0	1507852288	71	4754
2026-01-13 01:28:02.58	247.13	46.81	-52.9	-54.9	13.9	0.00e+00	0	22	0	1510998016	71	4654
2026-01-13 01:28:03.58	246.84	46.54	-52.4	-54.2	14.3	0.00e+00	0	22	0	1514143744	71	4335
2026-01-13 01:28:04.58	246.55	46.28	-51.4	-53.0	14.8	0.00e+00	0	22	0	1517289472	69	4196
2026-01-13 01:28:05.58	246.26	46.01	-50.8	-52.2	15.1	0.00e+00	0	22	0	1520435200	68	4076
2026-01-13 01:28:06.59	245.98	45.74	-50.5	-51.9	15.1	0.00e+00	0	22	0	1523580928	67	4161
2026-01-13 01:28:07.59	245.70	45.48	-50.3	-51.6	15.2	0.00e+00	0	22	0	1526726656	67	4033
2026-01-13 01:28:08.59	245.43	45.22	-50.6	-52.1	15.0	0.00e+00	0	22	0	1529872384	67	4261
2026-01-13 01:28:09.59	245.17	44.96	-51.2	-52.8	14.6	0.00e+00	0	22	0	1533018112	67	4600
2026-01-13 01:28:10.59	244.90	44.70	-51.6	-53.2	14.5	0.00e+00	0	22	0	1536163840	68	4584
2026-01-13 01:28:11.58	244.65	44.44	-51.4	-52.9	14.6	0.00e+00	0	22	0	1539309568	68	4432
2026-01-13 01:28:12.58	244.40	44.18	-51.4	-52.9	14.6	0.00e+00	0	22	0	1542455296	68	4436
2026-01-13 01:28:13.59	244.14	43.92	-51.4	-52.9	14.6	0.00e+00	0	22	0	1545601024	68	4438
2026-01-13 01:28:14.58	243.90	43.67	-51.7	-53.3	14.4	0.00e+00	0	22	0	1548746752	68	4638
2026-01-13 01:28:15.58	243.66	43.41	-52.1	-53.8	14.3	0.00e+00	0	22	0	1551892480	69	4638
2026-01-13 01:28:16.58	243.42	43.16	-51.9	-53.6	14.4	0.00e+00	0	22	0	1555038208	69	4535
2026-01-13 01:28:17.58	243.19	42.90	-51.6	-53.2	14.6	0.00e+00	0	22	0	1558183936	69	4313
2026-01-13 01:28:18.58	242.96	42.65	-51.2	-52.7	15.0	0.00e+00	0	22	0	1561329664	69	4080
2026-01-13 01:28:19.58	242.73	42.40	-51.1	-52.6	14.8	0.00e+00	0	22	0	1563426816	68	4281
2026-01-13 01:28:20.58	242.51	42.15	-50.9	-52.4	15.0	0.00e+00	0	22	0	1566572544	68	4170
2026-01-13 01:28:21.58	242.29	41.90	-51.2	-52.7	14.7	0.00e+00	0	22	0	1569718272	68	4331
2026-01-13 01:28:22.59	242.07	41.65	-51.3	-52.9	14.6	0.00e+00	0	22	0	1572864000	68	4403
2026-01-13 01:28:23.58	241.86	41.41	-51.3	-52.9	14.6	0.00e+00	0	22	0	1576009728	68	4412
2026-01-13 01:28:24.58	241.65	41.17	-51.3	-52.9	14.6	0.00e+00	0	22	0	1579155456	68	4434
2026-01-13 01:28:25.58	241.44	40.92	-51.1	-52.6	14.8	0.00e+00	0	22	0	1582301184	68	4280
2026-01-13 01:28:26.58	241.24	40.68	-50.8	-52.2	15.0	0.00e+00	0	22	0	1585446912	68	4093
2026-01-13 01:28:27.58	241.04	40.44	-50.5	-51.9	15.0	0.00e+00	0	22	0	1588592640	67	4153
2026-01-13 01:28:28.58	240.84	40.20	-50.5	-52.0	15.0	0.00e+00	0	22	0	1591738368	67	4194
2026-01-13 01:28:29.58	240.65	39.96	-49.9	-51.2	15.2	0.00e+00	0	22	0	1594884096	66	4091
2026-01-13 01:28:30.58	240.45	39.72	-49.7	-51.0	15.4	0.00e+00	0	22	0	1598029824	66	4003
2026-01-13 01:28:31.58	240.27	39.49	-49.9	-51.2	15.3	0.00e+00	0	22	0	1601175552	66	4092
2026-01-13 01:28:32.58	240.08	39.25	-50.3	-51.7	15.0	0.00e+00	0	22	0	1604321280	66	4304
2026-01-13 01:28:33.57	239.90	39.02	-50.6	-52.1	14.8	0.00e+00	0	22	0	1607467008	66	4514
2026-01-13 01:28:34.57	239.72	38.79	-50.9	-52.4	14.6	0.00e+00	0	22	0	1610612736	66	4682
2026-01-13 01:28:35.58	239.54	38.55	-51.0	-52.5	14.7	0.00e+00	0	22	0	1613758464	67	4490
2026-01-13 01:28:36.58	239.36	38.32	-50.8	-52.4	14.8	0.00e+00	0	22	0	1616904192	67	4392
2026-01-13 01:28:37.57	239.19	38.10	-50.9	-52.4	14.7	0.00e+00	0	22	0	1620049920	67	4441
2026-01-13 01:28:38.56	239.02	37.87	-50.7	-52.1	14.9	0.00e+00	0	22	0	1623195648	67	4291
2026-01-13 01:28:39.57	238.85	37.64	-50.4	-51.9	15.1	0.00e+00	0	22	0	1626341376	67	4153
2026-01-13 01:28:40.57	238.69	37.42	-50.5	-52.0	15.0	0.00e+00	0	22	0	1629487104	67	4197
2026-01-13 01:28:41.56	238.52	37.20	-50.5	-52.0	15.1	0.00e+00	0	22	0	1632632832	67	4199
2026-01-13 01:28:42.57	238.36	36.97	-50.4	-51.9	15.0	0.00e+00	0	22	0	1635778560	67	4167
2026-01-13 01:28:43.56	238.20	36.75	-50.5	-51.9	15.0	0.00e+00	0	22	0	1638924288	67	4179
2026-01-13 01:28:44.57	238.05	36.53	-50.3	-51.8	15.1	0.00e+00	0	22	0	1642070016	67	4102
2026-01-13 01:28:45.57	237.89	36.31	-50.0	-51.4	15.1	0.00e+00	0	22	0	1645215744	66	4150
2026-01-13 01:28:46.56	237.74	36.10	-50.0	-51.4	15.1	0.00e+00	0	22	0	1648361472	66	4182
2026-01-13 01:28:47.57	237.59	35.88	-50.0	-51.4	15.2	0.00e+00	0	22	0	1651507200	66	4148
2026-01-13 01:28:48.57	237.44	35.66	-49.9	-51.2	15.2	0.00e+00	0	22	0	1654652928	66	4087
2026-01-13 01:28:49.57	237.29	35.45	-49.8	-51.1	15.3	0.00e+00	0	22	0	1657798656	66	4021
2026-01-13 01:28:50.57	237.15	35.23	-49.9	-51.3	15.2	0.00e+00	0	22	0	1660944384	66	4100
2026-01-13 01:28:51.56	237.01	35.03	-50.0	-51.3	15.2	0.00e+00	0	22	0	1664090112	66	4136
2026-01-13 01:28:52.56	236.87	34.81	-50.1	-51.5	15.1	0.00e+00	0	22	0	1667235840	66	4231
2026-01-13 01:28:53.55	236.73	34.61	-50.3	-51.8	15.0	0.00e+00	0	22	0	1670381568	66	4354
2026-01-13 01:28:54.54	236.59	34.40	-50.6	-52.1	14.8	0.00e+00	0	22	0	1673527296	66	4512
2026-01-13 01:28:55.54	236.46	34.19	-50.7	-52.2	14.7	0.00e+00	0	22	0	1676673024	66	4573
2026-01-13 01:28:56.54	236.32	33.99	-50.7	-52.2	14.7	0.00e+00	0	22	0	1679818752	66	4586
2026-01-13 01:28:57.54	236.19	33.78	-50.5	-52.0	14.8	0.00e+00	0	22	0	1682964480	66	4479
2026-01-13 01:28:58.54	236.06	33.58	-50.0	-51.4	15.1	0.00e+00	0	22	0	1686110208	66	4180
2026-01-13 01:28:59.54	235.93	33.38	-49.8	-51.1	15.3	0.00e+00	0	22	0	1689255936	66	4041
2026-01-13 01:29:00.55	235.80	33.18	-49.4	-50.7	15.4	0.00e+00	0	22	0	1692401664	65	4076
2026-01-13 01:29:01.55	235.68	32.98	-49.1	-50.4	15.4	0.00e+00	0	22	0	1695547392	64	4174
2026-01-13 01:29:02.55	235.55	32.78	-49.0	-50.3	15.4	0.00e+00	0	22	0	1697644544	64	4111
2026-01-13 01:29:03.55	235.43	32.58	-49.0	-50.3	15.4	0.00e+00	0	22	0	1700790272	64	4099
2026-01-13 01:29:04.55	235.31	32.38	-48.8	-50.0	15.6	0.00e+00	0	22	0	1703936000	64	3998
2026-01-13 01:29:05.55	235.19	32.19	-48.8	-50.0	15.6	0.00e+00	0	22	0	1707081728	64	4004
2026-01-13 01:29:06.55	235.07	31.99	-48.9	-50.2	15.5	0.00e+00	0	22	0	1710227456	64	4077
2026-01-13 01:29:07.54	234.96	31.80	-49.1	-50.4	15.4	0.00e+00	0	22	0	1713373184	64	4162
2026-01-13 01:29:08.54	234.84	31.61	-49.2	-50.5	15.3	0.00e+00	0	22	0	1716518912	64	4214
2026-01-13 01:29:09.54	234.73	31.42	-49.3	-50.6	15.3	0.00e+00	0	22	0	1719664640	64	4245
2026-01-13 01:29:10.54	234.62	31.23	-49.3	-50.6	15.2	0.00e+00	0	22	0	1722810368	64	4271
2026-01-13 01:29:11.54	234.51	31.04	-49.1	-50.4	15.4	0.00e+00	0	22	0	1725956096	64	4169
2026-01-13 01:29:12.54	234.40	30.85	-49.2	-50.4	15.3	0.00e+00	0	22	0	1729101824	64	4188
2026-01-13 01:29:13.54	234.29	30.67	-49.1	-50.4	15.4	0.00e+00	0	22	0	1732247552	64	4177
2026-01-13 01:29:14.53	234.18	30.48	-49.3	-50.6	15.3	0.00e+00	0	22	0	1735393280	64	4268
2026-01-13 01:29:15.53	234.08	30.30	-49.2	-50.6	15.3	0.00e+00	0	22	0	1738539008	64	4248
2026-01-13 01:29:16.52	233.97	30.12	-49.2	-50.5	15.3	0.00e+00	0	22	0	1741684736	64	4207
2026-01-13 01:29:17.52	233.87	29.94	-49.2	-50.5	15.3	0.00e+00	0	22	0	1744830464	64	4235
2026-01-13 01:29:18.52	233.77	29.76	-49.2	-50.5	15.3	0.00e+00	0	22	0	1747976192	64	4199
2026-01-13 01:29:19.52	233.67	29.58	-49.1	-50.4	15.3	0.00e+00	0	22	0	1751121920	64	4153
2026-01-13 01:29:20.50	233.57	29.40	-49.1	-50.4	15.3	0.00e+00	0	22	0	1754267648	64	4172
2026-01-13 01:29:21.50	233.47	29.22	-49.2	-50.5	15.2	0.00e+00	0	22	0	1757413376	64	4228
2026-01-13 01:29:22.50	233.37	29.04	-49.1	-50.4	15.3	0.00e+00	0	22	0	1760559104	64	4163
2026-01-13 01:29:23.50	233.27	28.87	-49.1	-50.5	15.3	0.00e+00	0	22	0	1763704832	64	4195
2026-01-13 01:29:24.50	233.18	28.69	-49.1	-50.4	15.3	0.00e+00	0	22	0	1766850560	64	4174
2026-01-13 01:29:25.50	233.08	28.52	-49.1	-50.4	15.3	0.00e+00	0	22	0	1769996288	64	4157
2026-01-13 01:29:26.50	232.99	28.35	-49.0	-50.3	15.4	0.00e+00	0	22	0	1773142016	64	4112
2026-01-13 01:29:27.50	232.90	28.17	-48.9	-50.1	15.5	0.00e+00	0	22	0	1776287744	64	4048
2026-01-13 01:29:28.50	232.81	28.00	-48.8	-50.1	15.5	0.00e+00	0	22	0	1779433472	64	4022
2026-01-13 01:29:29.50	232.72	27.83	-48.9	-50.2	15.5	0.00e+00	0	22	0	1782579200	64	4067
2026-01-13 01:29:30.50	232.63	27.66	-48.9	-50.2	15.4	0.00e+00	0	22	0	1785724928	64	4076
2026-01-13 01:29:31.49	232.54	27.50	-48.7	-49.9	15.6	0.00e+00	0	22	0	1788870656	64	3954
2026-01-13 01:29:32.49	232.45	27.33	-48.5	-49.7	15.5	0.00e+00	0	22	0	1792016384	63	4080
2026-01-13 01:29:33.48	232.37	27.17	-48.4	-49.6	15.6	0.00e+00	0	22	0	1795162112	63	4012
2026-01-13 01:29:34.48	232.28	27.00	-48.3	-49.6	15.6	0.00e+00	0	22	0	1798307840	63	4009
2026-01-13 01:29:35.48	232.20	26.84	-48.5	-49.7	15.6	0.00e+00	0	22	0	1801453568	63	4067
2026-01-13 01:29:36.47	232.11	26.67	-48.4	-49.6	15.6	0.00e+00	0	22	0	1804599296	63	4017
2026-01-13 01:29:37.46	232.03	26.51	-48.5	-49.8	15.5	0.00e+00	0	22	0	1807745024	63	4110
2026-01-13 01:29:38.46	231.95	26.35	-48.5	-49.7	15.6	0.00e+00	0	22	0	1809842176	63	4071
2026-01-13 01:29:39.46	231.87	26.19	-48.5	-49.7	15.5	0.00e+00	0	22	0	1812987904	63	4096
2026-01-13 01:29:40.46	231.79	26.03	-48.4	-49.6	15.6	0.00e+00	0	22	0	1816133632	63	4026
2026-01-13 01:29:41.46	231.71	25.87	-48.4	-49.6	15.6	0.00e+00	0	22	0	1819279360	63	4041
2026-01-13 01:29:42.46	231.63	25.71	-48.3	-49.6	15.6	0.00e+00	0	22	0	1822425088	63	4014
2026-01-13 01:29:43.46	231.55	25.56	-48.3	-49.5	15.6	0.00e+00	0	22	0	1825570816	63	3990
2026-01-13 01:29:44.45	231.48	25.40	-48.3	-49.5	15.6	0.00e+00	0	22	0	1828716544	63	3997
2026-01-13 01:29:45.44	231.40	25.25	-48.2	-49.5	15.7	0.00e+00	0	22	0	1831862272	63	3966
2026-01-13 01:29:46.44	231.32	25.09	-48.4	-49.6	15.6	0.00e+00	0	22	0	1835008000	63	4011
2026-01-13 01:29:47.45	231.25	24.94	-48.4	-49.6	15.6	0.00e+00	0	22	0	1838153728	63	4047
2026-01-13 01:29:48.44	231.18	24.78	-48.3	-49.5	15.7	0.00e+00	0	22	0	1841299456	63	3967
2026-01-13 01:29:49.45	231.10	24.63	-48.3	-49.5	15.6	0.00e+00	0	22	0	1844445184	63	4001
2026-01-13 01:29:50.45	231.03	24.48	-48.4	-49.6	15.6	0.00e+00	0	22	0	1847590912	63	4025
2026-01-13 01:29:51.45	230.96	24.33	-48.5	-49.7	15.5	0.00e+00	0	22	0	1850736640	63	4082
2026-01-13 01:29:52.45	230.89	24.18	-48.4	-49.6	15.6	0.00e+00	0	22	0	1853882368	63	4024
2026-01-13 01:29:53.44	230.82	24.03	-48.5	-49.7	15.5	0.00e+00	0	22	0	1857028096	63	4092
2026-01-13 01:29:54.44	230.75	23.88	-48.6	-49.9	15.4	0.00e+00	0	22	0	1860173824	63	4163
2026-01-13 01:29:55.44	230.68	23.73	-48.8	-50.1	15.4	0.00e+00	0	22	0	1863319552	63	4258
2026-01-13 01:29:56.44	230.61	23.59	-48.8	-50.1	15.3	0.00e+00	0	22	0	1866465280	63	4250
2026-01-13 01:29:57.44	230.54	23.44	-48.7	-50.0	15.4	0.00e+00	0	22	0	1869611008	63	4217
2026-01-13 01:29:58.43	230.48	23.30	-48.7	-50.0	15.4	0.00e+00	0	22	0	1872756736	63	4220
2026-01-13 01:29:59.43	230.41	23.15	-48.7	-50.0	15.4	0.00e+00	0	22	0	1875902464	63	4211
2026-01-13 01:30:00.43	230.34	23.01	-48.7	-50.0	15.4	0.00e+00	0	22	0	1879048192	63	4220
2026-01-13 01:30:01.43	230.28	22.87	-48.7	-50.0	15.4	0.00e+00	0	22	0	1882193920	63	4205
2026-01-13 01:30:02.43	230.21	22.73	-48.6	-49.9	15.4	0.00e+00	0	22	0	1885339648	63	4156
2026-01-13 01:30:03.43	230.15	22.58	-48.7	-49.9	15.4	0.00e+00	0	22	0	1888485376	63	4185
2026-01-13 01:30:04.43	230.09	22.44	-48.6	-49.9	15.4	0.00e+00	0	22	0	1891631104	63	4162
2026-01-13 01:30:05.42	230.02	22.30	-48.7	-50.0	15.3	0.00e+00	0	22	0	1894776832	63	4226
2026-01-13 01:30:06.42	229.96	22.17	-48.6	-49.8	15.5	0.00e+00	0	22	0	1897922560	63	4133
2026-01-13 01:30:07.42	229.90	22.03	-48.6	-49.8	15.4	0.00e+00	0	22	0	1901068288	63	4134
2026-01-13 01:30:08.42	229.84	21.89	-48.6	-49.8	15.4	0.00e+00	0	22	0	1904214016	63	4140
2026-01-13 01:30:09.41	229.78	21.75	-48.6	-49.8	15.4	0.00e+00	0	22	0	1907359744	63	4142
2026-01-13 01:30:10.41	229.72	21.62	-48.7	-50.0	15.4	0.00e+00	0	22	0	1910505472	63	4197
2026-01-13 01:30:11.41	229.66	21.48	-48.6	-49.9	15.4	0.00e+00	0	22	0	1913651200	63	4176
2026-01-13 01:30:12.41	229.60	21.35	-48.7	-49.9	15.4	0.00e+00	0	22	0	1916796928	63	4182
2026-01-13 01:30:13.41	229.54	21.21	-48.6	-49.8	15.4	0.00e+00	0	22	0	1919942656	63	4142
2026-01-13 01:30:14.41	229.49	21.08	-48.5	-49.8	15.5	0.00e+00	0	22	0	1923088384	63	4117
2026-01-13 01:30:15.41	229.43	20.95	-48.5	-49.8	15.5	0.00e+00	0	22	0	1926234112	63	4120
2026-01-13 01:30:16.41	229.37	20.81	-48.6	-49.8	15.4	0.00e+00	0	22	0	1929379840	63	4144
2026-01-13 01:30:17.41	229.32	20.68	-48.5	-49.8	15.5	0.00e+00	0	22	0	1932525568	63	4117
2026-01-13 01:30:18.41	229.26	20.55	-48.5	-49.8	15.5	0.00e+00	0	22	0	1935671296	63	4120
2026-01-13 01:30:19.41	229.21	20.42	-48.5	-49.8	15.5	0.00e+00	0	22	0	1938817024	63	4113
2026-01-13 01:30:20.41	229.15	20.29	-48.5	-49.7	15.5	0.00e+00	0	22	0	1941962752	63	4093
2026-01-13 01:30:21.41	229.10	20.16	-48.5	-49.8	15.5	0.00e+00	0	22	0	1944059904	63	4102
2026-01-13 01:30:22.40	229.04	20.03	-48.5	-49.8	15.5	0.00e+00	0	22	0	1947205632	63	4108
2026-01-13 01:30:23.41	228.99	19.91	-48.6	-49.8	15.4	0.00e+00	0	22	0	1950351360	63	4144
2026-01-13 01:30:24.40	228.94	19.78	-48.6	-49.8	15.4	0.00e+00	0	22	0	1953497088	63	4135
2026-01-13 01:30:25.40	228.89	19.65	-48.6	-49.9	15.4	0.00e+00	0	22	0	1956642816	63	4168
2026-01-13 01:30:26.40	228.83	19.53	-48.7	-50.0	15.3	0.00e+00	0	22	0	1959788544	63	4223
2026-01-13 01:30:27.41	228.78	19.40	-48.7	-50.0	15.4	0.00e+00	0	22	0	1962934272	63	4201
2026-01-13 01:30:28.41	228.73	19.28	-48.7	-50.0	15.3	0.00e+00	0	22	0	1966080000	63	4222
2026-01-13 01:30:29.41	228.68	19.15	-48.8	-50.1	15.3	0.00e+00	0	22	0	1969225728	63	4285
2026-01-13 01:30:30.41	228.63	19.03	-48.9	-50.2	15.3	0.00e+00	0	22	0	1972371456	63	4300
2026-01-13 01:30:31.42	228.58	18.90	-48.9	-50.2	15.2	0.00e+00	0	22	0	1975517184	63	4324
2026-01-13 01:30:32.42	228.53	18.78	-49.0	-50.3	15.2	0.00e+00	0	22	0	1978662912	63	4370
2026-01-13 01:30:33.41	228.48	18.66	-49.0	-50.3	15.2	0.00e+00	0	22	0	1981808640	63	4372
2026-01-13 01:30:34.40	228.44	18.54	-49.0	-50.4	15.2	0.00e+00	0	22	0	1984954368	63	4393
2026-01-13 01:30:35.40	228.39	18.42	-49.0	-50.3	15.2	0.00e+00	0	22	0	1988100096	63	4383
2026-01-13 01:30:36.40	228.34	18.30	-48.9	-50.2	15.3	0.00e+00	0	22	0	1991245824	63	4325
2026-01-13 01:30:37.40	228.29	18.18	-49.0	-50.4	15.2	0.00e+00	0	22	0	1994391552	63	4404
2026-01-13 01:30:38.39	228.25	18.06	-49.0	-50.3	15.2	0.00e+00	0	22	0	1997537280	63	4351
2026-01-13 01:30:39.39	228.20	17.94	-49.0	-50.3	15.2	0.00e+00	0	22	0	2000683008	63	4349
2026-01-13 01:30:40.39	228.15	17.83	-49.0	-50.3	15.2	0.00e+00	0	22	0	2003828736	63	4348
2026-01-13 01:30:41.38	228.11	17.71	-49.0	-50.3	15.2	0.00e+00	0	22	0	2006974464	63	4365
2026-01-13 01:30:42.38	228.06	17.59	-49.0	-50.4	15.2	0.00e+00	0	22	0	2010120192	63	4402
2026-01-13 01:30:43.38	228.02	17.48	-49.0	-50.3	15.2	0.00e+00	0	22	0	2013265920	63	4353
2026-01-13 01:30:44.37	227.97	17.36	-49.1	-50.4	15.2	0.00e+00	0	22	0	2016411648	63	4412
2026-01-13 01:30:45.37	227.93	17.25	-49.1	-50.4	15.2	0.00e+00	0	22	0	2019557376	63	4413
2026-01-13 01:30:46.37	227.89	17.13	-49.1	-50.5	15.1	0.00e+00	0	22	0	2022703104	63	4462
2026-01-13 01:30:47.37	227.84	17.02	-49.2	-50.5	15.1	0.00e+00	0	22	0	2025848832	63	4472
2026-01-13 01:30:48.37	227.80	16.91	-49.2	-50.5	15.1	0.00e+00	0	22	0	2028994560	63	4488
2026-01-13 01:30:49.37	227.76	16.79	-49.3	-50.7	15.0	0.00e+00	0	22	0	2032140288	63	4563
2026-01-13 01:30:50.37	227.71	16.68	-49.4	-50.8	15.0	0.00e+00	0	22	0	2035286016	63	4615
2026-01-13 01:30:51.37	227.67	16.57	-49.3	-50.7	15.1	0.00e+00	0	22	0	2038431744	64	4295
2026-01-13 01:30:52.37	227.63	16.46	-49.5	-50.9	15.0	0.00e+00	0	22	0	2041577472	64	4396
2026-01-13 01:30:53.37	227.59	16.34	-49.5	-50.9	15.0	0.00e+00	0	22	0	2044723200	64	4402
2026-01-13 01:30:54.36	227.55	16.23	-49.5	-50.9	15.0	0.00e+00	0	22	0	2047868928	64	4428
2026-01-13 01:30:55.36	227.51	16.12	-49.4	-50.8	15.1	0.00e+00	0	22	0	2051014656	64	4380
