passes_logs/2026/01/13/R3.2S_Murmansk/R3.2S_Murmansk__20260113_073205_AQUA_rec.log

#Pass ID: 20260113_073205_AQUA
#Satellite: AQUA
#Configuration: AQUA
#almurnet v.1.7.20251203
#Start time: 2026-01-13 07:32:05

#Version: 2.2.20231116
#Station: R3.2S_Murmansk
#Location: 33.079688 lon 68.888172 lat
#TLE: 1 27424U 02022A   26012.97247290  .00000860  00000+0  18212-3 0  9996
#TLE: 2 27424  98.4079 339.3658 0002038  80.7891 349.4888 14.61817856260594

#Time	Az	El	Level	Level2	SNR	BER	BlckErr	Temp	State	Recorded	gain1	gain2
2026-01-13 07:32:05.01	69.02	1.99	-57.1	-76.4	3.8	7.43e-01	0	23	0	0	83	32519
2026-01-13 07:32:06.02	68.94	2.05	-57.1	-76.4	3.8	7.48e-01	0	23	104	0	81	36412
2026-01-13 07:32:07.02	68.86	2.10	-57.1	-76.4	3.8	7.43e-01	0	23	104	0	81	36377
2026-01-13 07:32:08.03	68.78	2.16	-57.1	-76.4	3.8	7.48e-01	0	24	104	0	81	36397
2026-01-13 07:32:09.03	68.70	2.22	-57.1	-76.4	3.8	7.48e-01	0	24	104	0	81	36357
2026-01-13 07:32:10.04	68.62	2.28	-57.1	-76.4	3.8	7.44e-01	0	23	104	0	81	36350
2026-01-13 07:32:11.05	68.54	2.33	-57.1	-76.4	3.8	7.48e-01	0	23	104	0	81	36386
2026-01-13 07:32:12.05	68.46	2.39	-57.1	-76.4	3.8	7.46e-01	0	24	104	0	81	36390
2026-01-13 07:32:13.04	68.38	2.45	-57.1	-76.4	3.8	7.45e-01	0	23	104	0	81	36342
2026-01-13 07:32:14.04	68.30	2.51	-57.1	-76.4	3.8	7.44e-01	0	24	104	0	81	36502
2026-01-13 07:32:15.04	68.22	2.56	-57.1	-76.5	3.8	7.42e-01	0	23	104	0	81	36563
2026-01-13 07:32:16.05	68.13	2.62	-57.1	-76.4	3.8	7.50e-01	0	24	104	0	81	36474
2026-01-13 07:32:17.06	68.05	2.68	-57.1	-76.4	3.8	7.47e-01	0	23	104	0	81	36427
2026-01-13 07:32:18.06	67.97	2.74	-57.1	-76.4	3.8	7.42e-01	0	24	104	0	81	36205
2026-01-13 07:32:19.07	67.88	2.80	-57.1	-76.3	3.8	7.44e-01	0	24	104	0	81	35801
2026-01-13 07:32:20.07	67.80	2.85	-57.1	-76.1	3.8	7.44e-01	0	24	104	0	81	35015
2026-01-13 07:32:21.08	67.71	2.91	-57.1	-76.0	3.8	7.47e-01	0	24	104	0	81	34826
2026-01-13 07:32:22.08	67.63	2.97	-57.1	-76.0	3.8	7.45e-01	0	24	104	0	81	34836
2026-01-13 07:32:23.08	67.54	3.03	-57.1	-76.0	3.8	7.44e-01	0	24	104	0	81	34744
2026-01-13 07:32:24.09	67.46	3.09	-57.1	-76.1	3.8	7.48e-01	0	24	104	0	81	35081
2026-01-13 07:32:25.09	67.37	3.15	-57.2	-76.3	3.8	7.47e-01	0	24	104	0	82	33756
2026-01-13 07:32:26.10	67.28	3.21	-57.2	-76.3	3.8	7.46e-01	0	24	104	0	82	33848
2026-01-13 07:32:27.10	67.20	3.26	-57.2	-76.4	3.8	7.47e-01	0	24	104	0	82	34245
2026-01-13 07:32:28.11	67.11	3.32	-57.2	-76.5	3.8	7.47e-01	0	24	104	0	82	34563
2026-01-13 07:32:29.11	67.02	3.38	-57.2	-76.5	3.8	7.50e-01	0	24	104	0	82	34765
2026-01-13 07:32:30.12	66.93	3.44	-57.2	-76.5	3.8	7.47e-01	0	24	104	0	82	34753
2026-01-13 07:32:31.12	66.85	3.50	-57.2	-76.5	3.8	7.46e-01	0	24	104	0	82	34513
2026-01-13 07:32:32.11	66.76	3.56	-57.2	-76.3	3.8	7.47e-01	0	24	104	0	82	33745
2026-01-13 07:32:33.12	66.67	3.62	-57.2	-76.2	3.8	7.50e-01	0	24	104	0	82	33612
2026-01-13 07:32:34.11	66.58	3.68	-57.2	-76.2	3.8	7.49e-01	0	24	104	0	82	33456
2026-01-13 07:32:35.11	66.49	3.74	-57.2	-76.2	3.8	7.45e-01	0	24	104	0	82	33470
2026-01-13 07:32:36.11	66.40	3.80	-57.2	-76.4	3.8	7.47e-01	0	24	104	0	82	34091
2026-01-13 07:32:37.11	66.31	3.85	-57.2	-76.4	3.8	7.49e-01	0	24	104	0	82	34124
2026-01-13 07:32:38.12	66.22	3.91	-57.2	-76.2	3.8	7.48e-01	0	24	104	0	82	33339
2026-01-13 07:32:39.12	66.13	3.97	-57.2	-75.6	3.8	7.45e-01	0	24	104	0	82	31350
2026-01-13 07:32:40.11	66.04	4.03	-57.2	-75.5	3.8	7.46e-01	0	24	104	0	82	31057
2026-01-13 07:32:41.12	65.94	4.09	-57.2	-75.5	3.8	7.49e-01	0	24	104	0	82	30970
2026-01-13 07:32:42.12	65.85	4.15	-57.2	-76.0	3.8	7.40e-01	0	24	104	0	82	32591
2026-01-13 07:32:43.12	65.76	4.21	-57.2	-76.5	3.8	7.44e-01	0	24	104	0	82	34561
2026-01-13 07:32:44.12	65.66	4.27	-57.2	-76.4	3.8	7.46e-01	0	24	104	0	82	34151
2026-01-13 07:32:45.12	65.57	4.33	-57.2	-75.1	3.8	7.45e-01	0	24	104	0	82	29538
2026-01-13 07:32:46.13	65.48	4.39	-57.1	-72.8	4.2	7.44e-01	0	24	104	0	82	22739
2026-01-13 07:32:47.14	65.38	4.45	-57.0	-69.4	5.8	6.88e-01	92	24	0	0	82	15344
2026-01-13 07:32:48.14	65.28	4.52	-56.8	-67.5	7.3	6.54e-01	92	24	0	2097152	82	12253
2026-01-13 07:32:49.14	65.19	4.58	-56.6	-65.5	9.0	6.25e-01	0	24	0	4194304	82	9801
2026-01-13 07:32:50.14	65.09	4.64	-56.3	-63.9	10.3	6.13e-01	0	24	0	5767168	81	8618
2026-01-13 07:32:51.15	65.00	4.70	-55.9	-62.5	11.4	6.06e-01	0	24	0	7864320	81	7347
2026-01-13 07:32:52.15	64.90	4.76	-55.6	-61.5	12.1	6.04e-01	0	24	0	9437184	80	6940
2026-01-13 07:32:53.16	64.80	4.82	-55.4	-60.8	12.7	6.03e-01	0	24	0	11534336	80	6400
2026-01-13 07:32:54.16	64.70	4.88	-55.1	-60.2	13.0	6.03e-01	0	24	0	13631488	79	6278
2026-01-13 07:32:55.16	64.60	4.94	-55.1	-59.9	13.2	6.03e-01	0	24	0	15204352	79	6130
2026-01-13 07:32:56.16	64.50	5.00	-55.1	-60.1	13.0	6.04e-01	0	24	0	17301504	79	6250
2026-01-13 07:32:57.16	64.40	5.06	-55.3	-60.7	12.6	6.02e-01	0	24	0	18874368	79	6701
2026-01-13 07:32:58.17	64.30	5.12	-54.2	-58.0	14.1	6.02e-01	0	24	0	20971520	77	5481
2026-01-13 07:32:59.16	64.20	5.18	-52.2	-54.9	15.0	5.99e-01	0	25	0	22544384	72	5111
2026-01-13 07:33:00.16	64.10	5.25	-56.8	-68.9	5.6	6.88e-01	51	25	0	24641536	81	15314
2026-01-13 07:33:01.14	64.00	5.31	-53.7	-56.9	14.5	6.01e-01	0	24	0	26214400	76	5152
2026-01-13 07:33:02.14	63.90	5.37	-54.3	-58.1	13.9	6.01e-01	0	24	0	28311552	76	5907
2026-01-13 07:33:03.15	63.80	5.43	-51.9	-54.4	15.3	6.04e-01	0	25	0	29884416	73	4567
2026-01-13 07:33:04.14	63.70	5.49	-51.5	-53.8	15.4	6.03e-01	0	24	0	31981568	72	4531
2026-01-13 07:33:05.14	63.60	5.55	-51.1	-53.4	15.4	6.00e-01	0	25	0	33554432	71	4546
2026-01-13 07:33:06.14	63.49	5.61	-51.1	-53.2	15.5	5.99e-01	0	25	0	35651584	71	4476
2026-01-13 07:33:07.14	63.39	5.68	-50.9	-53.0	15.5	6.00e-01	0	25	0	37748736	71	4376
2026-01-13 07:33:08.14	63.28	5.74	-50.9	-53.1	15.5	6.01e-01	0	24	0	39321600	71	4407
2026-01-13 07:33:09.14	63.18	5.80	-51.0	-53.1	15.5	6.01e-01	0	24	0	41418752	71	4413
2026-01-13 07:33:10.15	63.07	5.86	-50.8	-52.8	15.4	6.01e-01	0	25	0	42991616	70	4543
2026-01-13 07:33:11.15	62.96	5.92	-50.8	-52.9	15.4	6.01e-01	0	25	0	45088768	70	4562
2026-01-13 07:33:12.15	62.86	5.99	-50.8	-52.9	15.4	6.01e-01	0	25	0	46661632	70	4570
2026-01-13 07:33:13.15	62.75	6.05	-50.9	-53.0	15.4	6.01e-01	0	25	0	48758784	70	4620
2026-01-13 07:33:14.15	62.64	6.11	-50.9	-53.0	15.4	6.00e-01	0	25	0	50855936	70	4616
2026-01-13 07:33:15.16	62.53	6.17	-51.0	-53.1	15.3	6.00e-01	0	24	0	52428800	70	4691
2026-01-13 07:33:16.16	62.43	6.24	-50.9	-53.0	15.4	6.01e-01	0	25	0	54525952	70	4606
2026-01-13 07:33:17.15	62.32	6.30	-50.6	-52.7	15.5	6.00e-01	0	25	0	56098816	70	4451
2026-01-13 07:33:18.15	62.21	6.36	-50.8	-52.8	15.5	6.01e-01	0	25	0	58195968	70	4531
2026-01-13 07:33:19.14	62.10	6.42	-50.7	-52.7	15.5	6.02e-01	0	25	0	59768832	70	4460
2026-01-13 07:33:20.15	61.99	6.49	-50.7	-52.7	15.5	6.01e-01	0	24	0	61865984	70	4480
2026-01-13 07:33:21.15	61.87	6.55	-50.7	-52.8	15.5	6.00e-01	0	25	0	63963136	70	4508
2026-01-13 07:33:22.16	61.76	6.61	-50.8	-52.8	15.5	6.02e-01	0	25	0	65536000	70	4539
2026-01-13 07:33:23.17	61.65	6.68	-50.7	-52.7	15.5	5.99e-01	0	25	0	67633152	70	4485
2026-01-13 07:33:24.18	61.53	6.74	-50.7	-52.8	15.5	5.99e-01	0	25	0	69730304	70	4514
2026-01-13 07:33:25.18	61.42	6.80	-50.8	-52.8	15.5	6.01e-01	0	25	0	71303168	70	4519
2026-01-13 07:33:26.18	61.31	6.87	-50.6	-52.6	15.6	5.99e-01	0	25	0	73400320	70	4400
2026-01-13 07:33:27.19	61.19	6.93	-50.5	-52.5	15.6	6.01e-01	0	25	0	74973184	70	4383
2026-01-13 07:33:28.19	61.07	6.99	-50.5	-52.5	15.6	6.00e-01	0	25	0	77070336	70	4386
2026-01-13 07:33:29.19	60.96	7.06	-50.7	-52.7	15.5	6.01e-01	0	25	0	78643200	70	4462
2026-01-13 07:33:30.20	60.84	7.12	-50.8	-52.8	15.5	6.00e-01	0	25	0	80740352	70	4518
2026-01-13 07:33:31.20	60.72	7.18	-50.8	-52.8	15.4	5.99e-01	0	25	0	82837504	70	4538
2026-01-13 07:33:32.20	60.61	7.25	-50.9	-52.9	15.4	6.01e-01	0	25	0	84410368	70	4576
2026-01-13 07:33:33.21	60.49	7.31	-50.7	-52.7	15.5	6.01e-01	0	25	0	86507520	70	4493
2026-01-13 07:33:34.21	60.37	7.38	-50.7	-52.7	15.5	5.99e-01	0	25	0	88080384	70	4451
2026-01-13 07:33:35.21	60.25	7.44	-50.6	-52.6	15.5	6.00e-01	0	25	0	90177536	70	4424
2026-01-13 07:33:36.21	60.13	7.50	-50.6	-52.6	15.5	6.02e-01	0	25	0	92274688	70	4435
2026-01-13 07:33:37.21	60.01	7.57	-50.7	-52.7	15.5	6.01e-01	0	25	0	93847552	70	4450
2026-01-13 07:33:38.21	59.89	7.63	-50.7	-52.8	15.5	5.98e-01	0	25	0	95944704	70	4499
2026-01-13 07:33:39.22	59.77	7.70	-50.7	-52.8	15.5	6.02e-01	0	25	0	97517568	70	4502
2026-01-13 07:33:40.22	59.64	7.76	-50.6	-52.6	15.5	6.01e-01	0	25	0	99614720	70	4420
2026-01-13 07:33:41.22	59.52	7.83	-50.6	-52.6	15.5	6.02e-01	0	25	0	101711872	70	4409
2026-01-13 07:33:42.23	59.40	7.89	-50.6	-52.6	15.5	6.01e-01	0	25	0	103284736	70	4424
2026-01-13 07:33:43.23	59.27	7.95	-50.6	-52.6	15.6	6.02e-01	0	25	0	105381888	70	4396
2026-01-13 07:33:44.23	59.15	8.02	-50.6	-52.6	15.5	6.01e-01	0	25	0	106954752	70	4403
2026-01-13 07:33:45.23	59.02	8.08	-50.6	-52.6	15.6	6.00e-01	0	25	0	109051904	70	4392
2026-01-13 07:33:46.24	58.89	8.15	-50.6	-52.6	15.5	6.02e-01	0	25	0	110624768	70	4417
2026-01-13 07:33:47.24	58.77	8.21	-50.4	-52.3	15.7	6.00e-01	0	25	0	112721920	70	4283
2026-01-13 07:33:48.25	58.64	8.28	-50.3	-52.2	15.5	6.01e-01	0	25	0	114819072	69	4467
2026-01-13 07:33:49.25	58.51	8.34	-50.3	-52.2	15.5	6.00e-01	0	25	0	116391936	69	4479
2026-01-13 07:33:50.26	58.38	8.41	-50.2	-52.1	15.5	6.00e-01	0	25	0	118489088	69	4415
2026-01-13 07:33:51.27	58.25	8.47	-50.3	-52.2	15.5	6.03e-01	0	25	0	120061952	69	4457
2026-01-13 07:33:52.27	58.12	8.54	-50.5	-62.1	3.8	7.46e-01	0	25	104	121634816	69	13990
2026-01-13 07:33:53.27	57.99	8.60	-50.6	-62.3	3.8	7.48e-01	0	25	104	121634816	69	14284
2026-01-13 07:33:54.27	57.86	8.67	-50.6	-62.1	4.0	7.41e-01	0	25	104	121634816	69	13973
2026-01-13 07:33:55.27	57.73	8.73	-51.4	-63.3	3.8	7.47e-01	0	25	104	121634816	71	14218
2026-01-13 07:33:56.28	57.60	8.80	-52.2	-64.5	3.8	7.46e-01	0	25	104	121634816	72	15563
2026-01-13 07:33:57.28	57.46	8.86	-56.7	-72.5	3.9	7.43e-01	0	25	104	121634816	82	21911
2026-01-13 07:33:58.28	57.33	8.93	-53.0	-65.2	3.9	7.40e-01	0	25	104	121634816	75	14100
2026-01-13 07:33:59.28	57.20	8.99	-53.0	-65.3	3.8	7.46e-01	0	25	104	121634816	74	15206
2026-01-13 07:34:00.28	57.06	9.06	-51.3	-63.0	4.0	7.44e-01	0	25	104	121634816	71	13781
2026-01-13 07:34:01.28	56.92	9.13	-51.0	-62.7	3.8	7.49e-01	0	25	104	121634816	71	13297
2026-01-13 07:34:02.28	56.79	9.19	-51.2	-62.9	3.9	7.42e-01	0	25	104	121634816	71	13571
2026-01-13 07:34:03.29	56.65	9.26	-52.7	-64.9	3.8	7.45e-01	0	25	104	121634816	73	15361
2026-01-13 07:34:04.30	56.51	9.32	-52.2	-63.9	3.9	7.46e-01	0	25	104	121634816	71	15349
2026-01-13 07:34:05.31	56.37	9.39	-56.7	-72.4	3.9	7.44e-01	0	25	104	121634816	82	21609
2026-01-13 07:34:06.30	56.23	9.45	-52.8	-64.5	3.8	7.44e-01	0	25	104	121634816	74	13810
2026-01-13 07:34:07.30	56.09	9.52	-52.6	-64.6	3.7	7.52e-01	0	25	104	121634816	73	14879
2026-01-13 07:34:08.30	55.95	9.58	-51.1	-62.7	3.8	7.47e-01	0	25	104	121634816	71	13374
2026-01-13 07:34:09.31	55.81	9.65	-50.9	-62.4	3.7	7.54e-01	0	25	104	121634816	71	12904
2026-01-13 07:34:10.31	55.67	9.72	-51.1	-62.6	3.8	7.45e-01	0	25	104	121634816	70	14032
2026-01-13 07:34:11.31	55.53	9.78	-52.5	-64.4	3.7	7.51e-01	0	25	104	121634816	73	14416
2026-01-13 07:34:12.31	55.38	9.85	-52.5	-64.4	3.7	7.44e-01	0	25	104	121634816	72	15351
2026-01-13 07:34:13.32	55.24	9.91	-56.4	-71.3	3.9	7.43e-01	0	25	104	121634816	82	19004
2026-01-13 07:34:14.32	55.09	9.98	-52.2	-63.9	3.8	7.47e-01	0	25	104	121634816	73	13687
2026-01-13 07:34:15.33	54.95	10.05	-52.3	-64.2	3.9	7.44e-01	0	25	104	121634816	73	14198
2026-01-13 07:34:16.34	54.80	10.11	-50.9	-62.5	3.8	7.47e-01	0	25	104	121634816	71	13054
2026-01-13 07:34:17.34	54.65	10.18	-50.5	-62.0	3.8	7.47e-01	0	25	104	121634816	70	13047
2026-01-13 07:34:18.35	54.50	10.25	-50.4	-62.0	3.8	7.43e-01	0	25	104	121634816	69	13727
2026-01-13 07:34:19.35	54.36	10.31	-51.6	-63.4	3.8	7.45e-01	0	25	104	121634816	72	13629
2026-01-13 07:34:20.36	54.20	10.38	-52.3	-64.4	3.8	7.47e-01	0	25	104	121634816	72	15265
2026-01-13 07:34:21.36	54.05	10.44	-55.9	-70.1	3.9	7.46e-01	0	25	104	121634816	81	17653
2026-01-13 07:34:22.36	53.90	10.51	-52.0	-63.9	3.8	7.48e-01	0	25	104	121634816	73	13612
2026-01-13 07:34:23.37	53.75	10.58	-52.1	-64.1	3.9	7.45e-01	0	25	104	121634816	73	13889
2026-01-13 07:34:24.37	53.60	10.64	-50.9	-62.6	3.8	7.44e-01	0	25	104	121634816	71	13154
2026-01-13 07:34:25.38	53.45	10.71	-50.5	-62.1	3.8	7.44e-01	0	25	104	121634816	70	13160
2026-01-13 07:34:26.38	53.29	10.77	-50.3	-61.9	3.8	7.50e-01	0	25	104	121634816	69	13584
2026-01-13 07:34:27.38	53.14	10.84	-51.3	-63.0	3.9	7.43e-01	0	25	104	121634816	71	13775
2026-01-13 07:34:28.38	52.98	10.91	-53.0	-65.1	3.8	7.46e-01	0	25	104	121634816	73	15641
2026-01-13 07:34:29.38	52.83	10.97	-55.9	-69.9	3.9	7.45e-01	0	25	104	121634816	81	17181
2026-01-13 07:34:30.39	52.67	11.04	-51.6	-63.4	3.9	7.45e-01	0	25	104	121634816	72	13682
2026-01-13 07:34:31.39	52.51	11.11	-52.0	-63.9	3.8	7.50e-01	0	25	104	121634816	72	14440
2026-01-13 07:34:32.39	52.35	11.17	-50.9	-62.5	3.8	7.46e-01	0	25	104	121634816	71	13083
2026-01-13 07:34:33.39	52.19	11.24	-50.5	-62.1	3.8	7.47e-01	0	25	104	121634816	70	13155
2026-01-13 07:34:34.39	52.03	11.30	-50.1	-61.6	3.8	7.47e-01	0	25	104	121634816	69	13137
2026-01-13 07:34:35.40	51.87	11.37	-50.5	-62.0	3.8	7.43e-01	0	25	104	121634816	69	13819
2026-01-13 07:34:36.39	51.71	11.44	-52.9	-65.0	3.8	7.47e-01	0	25	104	121634816	73	15440
2026-01-13 07:34:37.39	51.55	11.50	-55.7	-69.4	3.9	7.48e-01	0	25	104	121634816	80	17092
2026-01-13 07:34:38.40	51.39	11.57	-51.7	-63.4	3.8	7.39e-01	0	25	104	121634816	72	13601
2026-01-13 07:34:39.41	51.22	11.63	-52.0	-63.9	3.9	7.45e-01	0	25	104	121634816	72	14465
2026-01-13 07:34:40.41	51.06	11.70	-50.8	-62.4	3.8	7.46e-01	0	25	104	121634816	70	13662
2026-01-13 07:34:41.41	50.89	11.77	-50.4	-62.0	3.9	7.48e-01	0	25	104	121634816	70	12998
2026-01-13 07:34:42.40	50.73	11.83	-50.1	-61.6	3.8	7.49e-01	0	25	104	121634816	69	13149
2026-01-13 07:34:43.40	50.56	11.90	-50.4	-61.9	3.8	7.47e-01	0	25	104	121634816	69	13636
2026-01-13 07:34:44.41	50.39	11.96	-52.9	-65.0	3.8	7.45e-01	0	25	104	121634816	73	15453
2026-01-13 07:34:45.41	50.22	12.03	-55.8	-69.3	3.9	7.46e-01	0	25	104	121634816	80	16979
2026-01-13 07:34:46.41	50.05	12.09	-51.6	-63.3	3.8	7.47e-01	0	25	104	121634816	72	13528
2026-01-13 07:34:47.41	49.88	12.16	-51.5	-63.3	3.8	7.47e-01	0	25	104	121634816	72	13535
2026-01-13 07:34:48.41	49.71	12.23	-50.7	-62.2	3.8	7.45e-01	0	25	104	121634816	70	13400
2026-01-13 07:34:49.41	49.54	12.29	-50.5	-62.0	3.8	7.47e-01	0	25	104	121634816	70	13054
2026-01-13 07:34:50.41	49.36	12.36	-50.8	-62.3	3.8	7.43e-01	0	25	104	121634816	70	13549
2026-01-13 07:34:51.41	49.19	12.42	-51.2	-63.0	3.8	7.48e-01	0	25	104	121634816	71	13728
2026-01-13 07:34:52.42	49.01	12.49	-53.5	-65.7	3.8	7.46e-01	0	25	104	121634816	74	15908
2026-01-13 07:34:53.42	48.84	12.55	-55.4	-68.8	3.9	7.44e-01	0	25	104	121634816	80	15985
2026-01-13 07:34:54.43	48.66	12.62	-51.2	-62.8	3.9	7.45e-01	0	25	104	121634816	71	13493
2026-01-13 07:34:55.44	48.48	12.69	-51.6	-63.3	3.8	7.45e-01	0	25	104	121634816	72	13544
2026-01-13 07:34:56.43	48.31	12.75	-50.6	-62.2	3.8	7.49e-01	0	25	104	121634816	70	13340
2026-01-13 07:34:57.43	48.13	12.82	-50.4	-61.9	3.8	7.43e-01	0	25	104	121634816	70	12947
2026-01-13 07:34:58.44	47.95	12.88	-50.6	-62.1	3.8	7.48e-01	0	25	104	121634816	70	13233
2026-01-13 07:34:59.44	47.77	12.95	-51.2	-62.9	3.8	7.42e-01	0	25	104	121634816	71	13690
2026-01-13 07:35:00.45	47.58	13.01	-53.3	-65.7	3.8	7.47e-01	0	25	104	121634816	74	15865
2026-01-13 07:35:01.45	47.40	13.08	-55.2	-68.4	3.8	7.42e-01	0	25	104	121634816	79	16143
2026-01-13 07:35:02.45	47.22	13.14	-50.9	-62.6	3.9	7.48e-01	0	25	104	121634816	71	13113
2026-01-13 07:35:03.46	47.03	13.21	-51.3	-63.0	3.8	7.43e-01	0	25	104	121634816	71	13821
2026-01-13 07:35:04.46	46.85	13.27	-50.5	-62.0	3.8	7.45e-01	0	25	104	121634816	70	13085
2026-01-13 07:35:05.46	46.66	13.34	-50.4	-61.9	3.8	7.46e-01	0	25	104	121634816	70	12951
2026-01-13 07:35:06.45	46.48	13.40	-50.3	-61.8	3.8	7.46e-01	0	25	104	121634816	69	13434
2026-01-13 07:35:07.46	46.29	13.46	-50.7	-62.3	3.8	7.46e-01	0	25	104	121634816	70	13460
2026-01-13 07:35:08.47	46.10	13.53	-54.4	-67.1	3.8	7.49e-01	0	25	104	121634816	76	16657
2026-01-13 07:35:09.47	45.91	13.59	-54.9	-67.9	3.9	7.43e-01	0	25	104	121634816	79	15298
2026-01-13 07:35:10.47	45.72	13.66	-50.6	-62.2	3.8	7.46e-01	0	25	104	121634816	70	13303
2026-01-13 07:35:11.47	45.53	13.72	-51.0	-62.7	3.8	7.45e-01	0	25	104	121634816	71	13290
2026-01-13 07:35:12.47	45.33	13.78	-50.6	-62.2	3.8	7.50e-01	0	25	104	121634816	70	13293
2026-01-13 07:35:13.47	45.14	13.85	-50.6	-62.1	3.8	7.46e-01	0	25	104	121634816	70	13222
2026-01-13 07:35:14.48	44.95	13.91	-50.0	-61.4	3.8	7.49e-01	0	25	104	121634816	69	12824
2026-01-13 07:35:15.48	44.75	13.98	-50.3	-61.8	3.8	7.43e-01	0	25	104	121634816	69	13557
2026-01-13 07:35:16.48	44.56	14.04	-54.2	-66.6	3.8	7.42e-01	0	25	104	121634816	75	16543
2026-01-13 07:35:17.49	44.36	14.10	-54.9	-67.9	3.9	7.44e-01	0	25	104	121634816	79	15327
2026-01-13 07:35:18.49	44.16	14.17	-50.7	-62.2	3.8	7.43e-01	0	25	104	121634816	70	13399
2026-01-13 07:35:19.50	43.96	14.23	-51.0	-62.7	3.9	7.47e-01	0	25	104	121634816	71	13301
2026-01-13 07:35:20.50	43.76	14.29	-50.3	-61.8	3.8	7.49e-01	0	25	104	121634816	69	13473
2026-01-13 07:35:21.51	43.56	14.35	-50.0	-61.4	3.9	7.45e-01	0	25	104	121634816	69	12958
2026-01-13 07:35:22.51	43.36	14.42	-50.1	-61.5	3.8	7.47e-01	0	25	104	121634816	69	13051
2026-01-13 07:35:23.51	43.16	14.48	-50.6	-62.2	3.8	7.45e-01	0	25	104	121634816	69	14102
2026-01-13 07:35:24.52	42.95	14.54	-55.0	-67.9	3.8	7.44e-01	0	25	104	121634816	77	17190
2026-01-13 07:35:25.52	42.75	14.60	-54.4	-67.1	3.9	7.46e-01	0	25	104	121634816	78	14752
2026-01-13 07:35:26.53	42.54	14.67	-50.3	-61.6	3.8	7.44e-01	0	25	104	121634816	69	13118
2026-01-13 07:35:27.53	42.33	14.73	-50.8	-62.4	3.9	7.49e-01	0	25	104	121634816	70	13572
2026-01-13 07:35:28.54	42.13	14.79	-50.4	-62.0	3.8	7.42e-01	0	25	104	121634816	69	13732
2026-01-13 07:35:29.54	41.92	14.85	-50.3	-61.8	3.9	7.43e-01	0	25	104	121634816	69	13450
2026-01-13 07:35:30.55	41.71	14.91	-50.0	-61.4	3.8	7.46e-01	0	25	104	121634816	69	12877
2026-01-13 07:35:31.56	41.50	14.97	-50.5	-62.0	3.8	7.46e-01	0	25	104	121634816	69	13761
2026-01-13 07:35:32.56	41.29	15.03	-55.5	-68.8	3.8	7.45e-01	0	25	104	121634816	78	18042
2026-01-13 07:35:33.56	41.07	15.09	-54.4	-66.9	3.8	7.44e-01	0	25	104	121634816	78	14505
2026-01-13 07:35:34.57	40.86	15.15	-50.4	-61.9	3.8	7.47e-01	0	25	104	121634816	70	12910
2026-01-13 07:35:35.58	40.65	15.22	-51.0	-62.6	3.8	7.45e-01	0	25	104	121634816	71	13209
2026-01-13 07:35:36.58	40.43	15.27	-50.6	-62.1	3.8	7.46e-01	0	25	104	121634816	70	13168
2026-01-13 07:35:37.58	40.22	15.33	-50.1	-61.5	3.8	7.45e-01	0	25	104	121634816	69	13027
2026-01-13 07:35:38.58	40.00	15.39	-50.7	-62.2	3.8	7.45e-01	0	25	104	121634816	69	14086
2026-01-13 07:35:39.59	39.78	15.45	-50.8	-62.3	3.9	7.43e-01	0	25	104	121634816	70	13520
2026-01-13 07:35:40.59	39.56	15.51	-55.6	-68.9	3.8	7.45e-01	0	25	104	121634816	78	18181
2026-01-13 07:35:41.59	39.35	15.57	-54.3	-66.8	3.9	7.46e-01	0	25	104	121634816	77	15104
2026-01-13 07:35:42.60	39.12	15.63	-50.2	-61.6	3.8	7.46e-01	0	25	104	121634816	69	13188
2026-01-13 07:35:43.60	38.90	15.69	-50.5	-62.0	3.9	7.45e-01	0	25	104	121634816	70	13011
2026-01-13 07:35:44.60	38.68	15.74	-50.1	-61.5	3.8	7.46e-01	0	25	104	121634816	69	13100
2026-01-13 07:35:45.60	38.46	15.80	-50.0	-61.5	3.8	7.41e-01	0	25	104	121634816	69	12961
2026-01-13 07:35:46.60	38.24	15.86	-50.6	-62.1	3.8	7.46e-01	0	25	104	121634816	69	13941
2026-01-13 07:35:47.60	38.01	15.92	-50.9	-62.5	3.8	7.45e-01	0	25	104	121634816	70	13795
2026-01-13 07:35:48.60	37.79	15.97	-55.6	-68.9	3.8	7.46e-01	0	25	104	121634816	78	18177
2026-01-13 07:35:49.61	37.56	16.03	-54.3	-66.7	3.9	7.47e-01	0	25	104	121634816	77	15030
2026-01-13 07:35:50.61	37.33	16.09	-50.2	-61.6	3.8	7.46e-01	0	25	104	121634816	69	13231
2026-01-13 07:35:51.61	37.10	16.14	-50.6	-62.1	3.9	7.47e-01	0	25	104	121634816	70	13131
2026-01-13 07:35:52.60	36.88	16.20	-50.3	-61.8	3.9	7.45e-01	0	25	104	121634816	69	13551
2026-01-13 07:35:53.61	36.65	16.25	-50.0	-61.4	3.9	7.45e-01	0	25	104	121634816	69	12955
2026-01-13 07:35:54.61	36.42	16.31	-50.9	-62.4	3.8	7.46e-01	0	25	104	121634816	69	14432
2026-01-13 07:35:55.61	36.18	16.36	-51.0	-62.6	3.9	7.47e-01	0	25	104	121634816	71	13120
2026-01-13 07:35:56.60	35.95	16.42	-55.6	-68.8	3.8	7.49e-01	0	25	104	121634816	78	18038
2026-01-13 07:35:57.59	35.72	16.47	-54.6	-67.3	3.8	7.43e-01	0	25	104	121634816	78	15067
2026-01-13 07:35:58.61	35.49	16.52	-50.5	-62.1	3.8	7.47e-01	0	25	104	121634816	70	13205
2026-01-13 07:35:59.61	35.25	16.58	-50.8	-62.3	3.9	7.50e-01	0	25	104	121634816	70	13446
2026-01-13 07:36:00.61	35.01	16.63	-50.5	-62.0	3.9	7.42e-01	0	25	104	121634816	70	13034
2026-01-13 07:36:01.62	34.78	16.68	-50.5	-61.9	3.9	7.48e-01	0	25	104	121634816	70	12933
2026-01-13 07:36:02.62	34.54	16.73	-51.8	-63.5	3.8	7.46e-01	0	25	104	121634816	71	14615
2026-01-13 07:36:03.62	34.30	16.79	-51.2	-62.9	3.8	7.49e-01	0	25	104	121634816	71	13581
2026-01-13 07:36:04.62	34.06	16.84	-56.0	-69.7	3.8	7.47e-01	0	25	104	121634816	79	18796
2026-01-13 07:36:05.62	33.82	16.89	-54.6	-67.2	3.9	7.45e-01	0	25	104	121634816	78	14902
2026-01-13 07:36:06.62	33.58	16.94	-50.5	-61.9	3.9	7.47e-01	0	25	104	121634816	70	12935
2026-01-13 07:36:07.62	33.34	16.99	-50.8	-62.4	3.9	7.49e-01	0	25	104	121634816	70	13574
2026-01-13 07:36:08.61	33.10	17.04	-50.5	-62.0	3.9	7.44e-01	0	25	104	121634816	70	12991
2026-01-13 07:36:09.62	32.85	17.09	-50.1	-61.5	3.8	7.46e-01	0	25	104	121634816	69	13014
2026-01-13 07:36:10.62	32.61	17.14	-50.6	-62.0	3.9	7.45e-01	0	26	104	121634816	69	13884
2026-01-13 07:36:11.62	32.36	17.19	-50.9	-62.5	3.8	7.47e-01	0	25	104	121634816	70	13735
2026-01-13 07:36:12.62	32.11	17.23	-56.1	-69.7	3.8	7.51e-01	0	25	104	121634816	79	18887
2026-01-13 07:36:13.61	31.87	17.28	-54.6	-67.2	3.9	7.49e-01	0	25	104	121634816	78	14938
2026-01-13 07:36:14.62	31.62	17.33	-50.1	-61.5	3.8	7.45e-01	0	25	104	121634816	69	13086
2026-01-13 07:36:15.61	31.37	17.38	-50.4	-61.8	3.9	7.44e-01	0	25	104	121634816	70	12806
2026-01-13 07:36:16.60	31.13	17.42	-50.2	-61.6	3.8	7.46e-01	0	25	104	121634816	69	13183
2026-01-13 07:36:17.58	30.88	17.47	-50.0	-61.5	3.8	7.44e-01	0	25	104	121634816	69	12968
2026-01-13 07:36:18.58	30.63	17.51	-50.5	-62.0	3.8	7.50e-01	0	25	104	121634816	69	13828
2026-01-13 07:36:19.58	30.38	17.56	-51.0	-62.6	3.8	7.46e-01	0	25	104	121634816	70	13958
2026-01-13 07:36:20.58	30.12	17.60	-55.6	-68.8	3.8	7.46e-01	0	25	104	121634816	78	18092
2026-01-13 07:36:21.58	29.87	17.65	-54.7	-67.4	3.9	7.47e-01	0	25	104	121634816	78	15383
2026-01-13 07:36:22.58	29.62	17.69	-50.5	-62.1	3.8	7.43e-01	0	25	104	121634816	70	13119
2026-01-13 07:36:23.58	29.36	17.74	-50.8	-62.3	3.9	7.45e-01	0	25	104	121634816	70	13432
2026-01-13 07:36:24.57	29.11	17.78	-50.5	-62.0	3.9	7.46e-01	0	25	104	121634816	70	13070
2026-01-13 07:36:25.58	28.85	17.82	-50.1	-61.5	3.9	7.46e-01	0	25	104	121634816	69	13066
2026-01-13 07:36:26.57	28.59	17.86	-50.5	-62.0	3.9	7.41e-01	0	25	104	121634816	69	13758
2026-01-13 07:36:27.58	28.33	17.90	-51.0	-62.6	3.8	7.47e-01	0	25	104	121634816	70	13953
2026-01-13 07:36:28.58	28.07	17.95	-56.2	-69.3	3.8	7.48e-01	0	25	104	121634816	79	18057
2026-01-13 07:36:29.59	27.81	17.99	-54.8	-67.5	3.9	7.45e-01	0	25	104	121634816	78	15547
2026-01-13 07:36:30.59	27.55	18.03	-50.6	-62.1	3.9	7.46e-01	0	25	104	121634816	70	13202
2026-01-13 07:36:31.59	27.29	18.07	-50.7	-62.2	3.8	7.46e-01	0	25	104	121634816	70	13414
2026-01-13 07:36:32.58	27.03	18.10	-50.5	-62.0	3.9	7.43e-01	0	25	104	121634816	70	13053
2026-01-13 07:36:33.58	26.77	18.14	-50.4	-61.8	3.9	7.47e-01	0	25	104	121634816	70	12769
2026-01-13 07:36:34.58	26.50	18.18	-51.7	-63.7	3.9	7.45e-01	0	25	104	121634816	71	14913
2026-01-13 07:36:35.57	26.24	18.22	-51.4	-63.0	3.9	7.46e-01	0	25	104	121634816	72	13054
2026-01-13 07:36:36.57	25.98	18.25	-55.7	-69.3	3.8	7.46e-01	0	25	104	121634816	79	18009
2026-01-13 07:36:37.57	25.71	18.29	-54.8	-67.5	3.9	7.45e-01	0	25	104	121634816	78	15450
2026-01-13 07:36:38.57	25.45	18.33	-50.5	-62.0	3.8	7.45e-01	0	25	104	121634816	70	13070
2026-01-13 07:36:39.57	25.18	18.36	-50.7	-62.2	3.9	7.43e-01	0	25	104	121634816	70	13393
2026-01-13 07:36:40.57	24.91	18.40	-50.5	-62.0	3.9	7.44e-01	0	25	104	121634816	70	13073
2026-01-13 07:36:41.58	24.64	18.43	-50.6	-62.1	3.9	7.45e-01	0	25	104	121634816	70	13139
2026-01-13 07:36:42.58	24.37	18.46	-51.4	-63.0	3.8	7.48e-01	0	25	104	121634816	70	14591
2026-01-13 07:36:43.58	24.10	18.50	-51.5	-63.1	3.9	7.48e-01	0	26	104	121634816	72	13212
2026-01-13 07:36:44.58	23.83	18.53	-55.7	-69.3	3.8	7.48e-01	0	25	104	121634816	79	18062
2026-01-13 07:36:45.58	23.56	18.56	-54.8	-67.4	3.8	7.43e-01	0	25	104	121634816	78	15351
2026-01-13 07:36:46.59	23.29	18.59	-50.3	-61.6	3.9	7.44e-01	0	25	104	121634816	69	13201
2026-01-13 07:36:47.58	23.02	18.62	-50.4	-61.8	3.9	7.47e-01	0	25	104	121634816	70	12768
2026-01-13 07:36:48.58	22.75	18.65	-50.2	-61.6	3.9	7.47e-01	0	25	104	121634816	69	13143
2026-01-13 07:36:49.59	22.47	18.68	-50.2	-61.6	3.9	7.47e-01	0	25	104	121634816	69	13212
2026-01-13 07:36:50.59	22.20	18.71	-50.7	-62.3	3.9	7.44e-01	0	25	104	121634816	69	14306
2026-01-13 07:36:51.59	21.92	18.74	-51.3	-62.9	3.8	7.45e-01	0	25	104	121634816	70	14523
2026-01-13 07:36:52.59	21.65	18.77	-55.7	-69.2	3.8	7.47e-01	0	25	104	121634816	79	17870
2026-01-13 07:36:53.60	21.37	18.79	-55.0	-67.8	3.9	7.44e-01	0	25	104	121634816	79	15158
2026-01-13 07:36:54.60	21.10	18.82	-50.6	-62.1	3.9	7.47e-01	0	25	104	121634816	70	13130
2026-01-13 07:36:55.60	20.82	18.85	-50.7	-62.2	3.9	7.45e-01	0	25	104	121634816	70	13402
2026-01-13 07:36:56.60	20.54	18.87	-50.6	-62.1	3.8	7.42e-01	0	25	104	121634816	70	13119
2026-01-13 07:36:57.59	20.27	18.89	-50.3	-61.8	3.8	7.46e-01	0	25	104	121634816	69	13426
2026-01-13 07:36:58.57	20.00	18.92	-50.9	-62.4	3.8	7.47e-01	0	25	104	121634816	69	14520
2026-01-13 07:36:59.57	19.72	18.94	-51.4	-63.1	3.9	7.44e-01	0	25	104	121634816	71	13915
2026-01-13 07:37:00.58	19.44	18.96	-55.8	-69.3	3.8	7.48e-01	0	25	104	121634816	79	17913
2026-01-13 07:37:01.58	19.16	18.98	-55.0	-67.8	3.9	7.44e-01	0	26	104	121634816	79	15120
2026-01-13 07:37:02.58	18.88	19.01	-50.5	-61.9	3.8	7.45e-01	0	26	104	121634816	70	12937
2026-01-13 07:37:03.58	18.60	19.03	-50.3	-61.7	3.9	7.45e-01	0	25	104	121634816	69	13414
2026-01-13 07:37:04.58	18.32	19.05	-50.3	-61.7	3.8	7.46e-01	0	25	104	121634816	69	13372
2026-01-13 07:37:05.58	18.04	19.07	-50.3	-61.8	3.8	7.44e-01	0	26	104	121634816	69	13422
2026-01-13 07:37:06.58	17.76	19.08	-50.6	-62.1	3.9	7.46e-01	0	26	104	121634816	69	13991
2026-01-13 07:37:07.58	17.48	19.10	-51.0	-62.5	3.8	7.45e-01	0	26	104	121634816	69	14580
2026-01-13 07:37:08.56	17.20	19.12	-55.5	-68.6	3.9	7.44e-01	0	25	104	121634816	78	17497
2026-01-13 07:37:09.57	16.92	19.13	-55.1	-67.9	3.8	7.45e-01	0	25	104	121634816	79	15348
2026-01-13 07:37:10.57	16.64	19.15	-50.6	-62.1	3.9	7.47e-01	0	25	104	121634816	70	13137
2026-01-13 07:37:11.57	16.35	19.17	-50.7	-62.2	3.8	7.48e-01	0	26	104	121634816	70	13367
2026-01-13 07:37:12.57	16.07	19.18	-50.6	-62.1	3.9	7.46e-01	0	25	104	121634816	70	13238
2026-01-13 07:37:13.56	15.79	19.19	-50.5	-62.0	3.8	7.47e-01	0	25	104	121634816	70	13025
2026-01-13 07:37:14.56	15.51	19.21	-50.9	-62.3	3.8	7.47e-01	0	25	104	121634816	70	13548
2026-01-13 07:37:15.56	15.22	19.22	-51.5	-63.2	3.8	7.43e-01	0	25	104	121634816	71	14077
2026-01-13 07:37:16.55	14.94	19.23	-55.1	-68.0	3.8	7.46e-01	0	25	104	121634816	77	17283
2026-01-13 07:37:17.56	14.66	19.24	-55.2	-68.1	3.9	7.46e-01	0	25	104	121634816	79	15693
2026-01-13 07:37:18.56	14.37	19.25	-50.6	-62.0	3.9	7.45e-01	0	25	104	121634816	70	13103
2026-01-13 07:37:19.56	14.09	19.26	-50.7	-62.2	3.8	7.47e-01	0	25	104	121634816	70	13313
2026-01-13 07:37:20.56	13.80	19.27	-50.6	-62.1	3.9	7.45e-01	0	25	104	121634816	70	13138
2026-01-13 07:37:21.56	13.52	19.28	-50.6	-62.0	3.9	7.45e-01	0	25	104	121634816	70	13087
2026-01-13 07:37:22.55	13.24	19.28	-51.7	-63.6	3.8	7.47e-01	0	25	104	121634816	71	14737
2026-01-13 07:37:23.56	12.95	19.29	-51.8	-63.4	3.8	7.43e-01	0	26	104	121634816	72	13571
2026-01-13 07:37:24.56	12.66	19.30	-55.8	-69.2	3.8	7.46e-01	0	25	104	121634816	79	17863
2026-01-13 07:37:25.56	12.38	19.30	-55.2	-68.1	3.9	7.46e-01	0	26	104	121634816	79	15683
2026-01-13 07:37:26.57	12.09	19.31	-50.7	-62.2	3.9	7.42e-01	0	25	104	121634816	70	13338
2026-01-13 07:37:27.56	11.81	19.31	-50.9	-62.4	3.8	7.43e-01	0	25	104	121634816	70	13607
2026-01-13 07:37:28.56	11.52	19.31	-50.7	-62.3	3.9	7.48e-01	0	25	104	121634816	70	13436
2026-01-13 07:37:29.57	11.23	19.32	-50.5	-61.9	3.9	7.46e-01	0	25	104	121634816	70	12915
2026-01-13 07:37:30.56	10.95	19.32	-50.5	-61.9	3.8	7.46e-01	0	25	104	121634816	69	13683
2026-01-13 07:37:31.56	10.67	19.32	-51.3	-62.9	3.9	7.45e-01	0	25	104	121634816	70	14521
2026-01-13 07:37:32.56	10.38	19.32	-55.8	-69.3	3.8	7.49e-01	0	25	104	121634816	79	17922
2026-01-13 07:37:33.57	10.09	19.32	-55.3	-68.3	3.8	7.43e-01	0	25	104	121634816	79	16002
2026-01-13 07:37:34.57	9.81	19.32	-50.6	-62.1	3.9	7.45e-01	0	25	104	121634816	70	13235
2026-01-13 07:37:35.57	9.52	19.32	-50.6	-62.1	3.8	7.46e-01	0	25	104	121634816	70	13124
2026-01-13 07:37:36.57	9.24	19.31	-50.4	-61.8	3.8	7.43e-01	0	25	104	121634816	70	12751
2026-01-13 07:37:37.57	8.95	19.31	-50.3	-61.8	3.9	7.47e-01	0	25	104	121634816	69	13458
2026-01-13 07:37:38.57	8.67	19.31	-51.0	-62.5	3.9	7.50e-01	0	25	104	121634816	69	14678
2026-01-13 07:37:39.57	8.38	19.30	-51.6	-63.2	3.8	7.42e-01	0	25	104	121634816	71	14104
2026-01-13 07:37:40.56	8.10	19.30	-55.9	-69.3	3.8	7.47e-01	0	25	104	121634816	79	18061
2026-01-13 07:37:41.56	7.81	19.29	-55.4	-68.5	3.9	7.47e-01	0	25	104	121634816	79	16365
2026-01-13 07:37:42.56	7.53	19.28	-50.6	-62.1	3.9	7.44e-01	0	26	104	121634816	70	13173
2026-01-13 07:37:43.56	7.24	19.28	-50.6	-62.0	3.8	7.46e-01	0	26	104	121634816	70	13076
2026-01-13 07:37:44.56	6.96	19.27	-50.5	-62.0	3.9	7.47e-01	0	25	104	121634816	70	13035
2026-01-13 07:37:45.56	6.67	19.26	-50.5	-62.0	3.8	7.47e-01	0	26	104	121634816	70	13014
2026-01-13 07:37:46.56	6.39	19.25	-51.6	-63.2	3.8	7.45e-01	0	25	104	121634816	70	14991
2026-01-13 07:37:47.56	6.11	19.24	-51.9	-63.7	3.8	7.48e-01	0	26	104	121634816	72	14106
2026-01-13 07:37:48.55	5.83	19.23	-55.3	-68.4	3.8	7.46e-01	0	25	104	121634816	78	17115
2026-01-13 07:37:49.56	5.54	19.22	-55.3	-68.2	3.9	7.46e-01	0	25	104	121634816	79	15892
2026-01-13 07:37:50.56	5.26	19.20	-50.6	-62.0	3.9	7.45e-01	0	26	104	121634816	70	13084
2026-01-13 07:37:51.56	4.97	19.19	-50.7	-62.2	3.8	7.48e-01	0	25	104	121634816	70	13352
2026-01-13 07:37:52.55	4.69	19.18	-50.6	-62.1	3.8	7.45e-01	0	25	104	121634816	70	13208
2026-01-13 07:37:53.56	4.41	19.16	-50.5	-62.0	3.9	7.42e-01	0	26	104	121634816	70	13082
2026-01-13 07:37:54.56	4.12	19.15	-50.9	-62.4	3.8	7.50e-01	0	25	104	121634816	70	13690
2026-01-13 07:37:55.56	3.84	19.13	-51.7	-63.4	3.8	7.48e-01	0	25	104	121634816	71	14431
2026-01-13 07:37:56.56	3.56	19.12	-55.8	-69.2	3.8	7.46e-01	0	25	104	121634816	79	17794
2026-01-13 07:37:57.56	3.28	19.10	-55.5	-68.6	3.9	7.48e-01	0	25	104	121634816	80	15611
2026-01-13 07:37:58.56	3.00	19.08	-50.7	-62.2	3.9	7.46e-01	0	25	104	121634816	70	13306
2026-01-13 07:37:59.56	2.72	19.06	-50.7	-62.2	3.9	7.46e-01	0	26	104	121634816	70	13341
2026-01-13 07:38:00.56	2.44	19.04	-50.6	-62.0	3.8	7.45e-01	0	26	104	121634816	70	13070
2026-01-13 07:38:01.55	2.16	19.02	-50.3	-61.7	3.9	7.47e-01	0	25	104	121634816	69	13360
2026-01-13 07:38:02.55	1.88	19.00	-50.6	-62.1	3.8	7.47e-01	0	25	104	121634816	69	14020
2026-01-13 07:38:03.55	1.60	18.98	-51.4	-63.0	3.9	7.44e-01	0	25	104	121634816	70	14698
2026-01-13 07:38:04.55	1.32	18.96	-55.1	-67.9	3.8	7.46e-01	0	25	104	121634816	77	17159
2026-01-13 07:38:05.55	1.05	18.94	-55.4	-68.4	3.9	7.47e-01	0	25	104	121634816	80	15284
2026-01-13 07:38:06.55	0.77	18.91	-51.0	-62.5	3.9	7.46e-01	0	25	104	121634816	71	13080
2026-01-13 07:38:07.56	0.49	18.89	-50.6	-62.1	3.9	7.46e-01	0	25	104	121634816	70	13242
2026-01-13 07:38:08.56	0.21	18.87	-50.6	-62.2	3.8	7.44e-01	0	25	104	121634816	70	13273
2026-01-13 07:38:09.56	359.93	18.84	-50.4	-61.8	3.9	7.46e-01	0	25	104	121634816	70	12802
2026-01-13 07:38:10.56	359.66	18.82	-50.4	-61.8	3.8	7.49e-01	0	25	104	121634816	69	13486
2026-01-13 07:38:11.54	359.39	18.79	-51.3	-62.9	3.9	7.44e-01	0	25	104	121634816	70	14385
2026-01-13 07:38:12.54	359.11	18.76	-55.3	-68.5	3.8	7.46e-01	0	25	104	121634816	78	17287
2026-01-13 07:38:13.53	358.84	18.74	-55.4	-68.6	3.9	7.41e-01	0	25	104	121634816	80	15685
2026-01-13 07:38:14.52	358.57	18.71	-51.0	-62.7	3.9	7.47e-01	0	26	104	121634816	71	13359
2026-01-13 07:38:15.52	358.30	18.68	-50.5	-62.0	3.8	7.45e-01	0	26	104	121634816	70	12971
2026-01-13 07:38:16.51	358.03	18.65	-50.3	-61.6	3.9	7.43e-01	0	26	104	121634816	69	13202
2026-01-13 07:38:17.51	357.76	18.62	-50.2	-61.6	3.8	7.46e-01	0	26	104	121634816	69	13176
2026-01-13 07:38:18.51	357.48	18.59	-50.4	-61.8	3.9	7.44e-01	0	26	104	121634816	69	13518
2026-01-13 07:38:19.51	357.21	18.56	-51.1	-62.7	3.9	7.42e-01	0	26	104	121634816	69	15013
2026-01-13 07:38:20.50	356.95	18.53	-54.5	-67.0	3.8	7.48e-01	0	25	104	121634816	76	16370
2026-01-13 07:38:21.51	356.67	18.49	-55.5	-68.6	3.9	7.43e-01	0	25	104	121634816	80	15616
2026-01-13 07:38:22.51	356.40	18.46	-51.4	-63.0	3.9	7.47e-01	0	25	104	121634816	72	12993
2026-01-13 07:38:23.50	356.14	18.43	-50.5	-62.0	3.8	7.43e-01	0	25	104	121634816	70	12975
2026-01-13 07:38:24.51	355.87	18.39	-50.4	-61.8	3.8	7.48e-01	0	26	104	121634816	69	13520
2026-01-13 07:38:25.50	355.60	18.36	-50.4	-61.8	3.9	7.44e-01	0	26	104	121634816	69	13445
2026-01-13 07:38:26.49	355.34	18.32	-50.3	-61.7	3.9	7.44e-01	0	25	104	121634816	69	13354
2026-01-13 07:38:27.49	355.07	18.29	-51.5	-63.2	3.8	7.43e-01	0	25	104	121634816	70	14934
2026-01-13 07:38:28.49	354.81	18.25	-54.4	-67.0	3.8	7.48e-01	0	25	104	121634816	76	16485
2026-01-13 07:38:29.49	354.54	18.22	-55.5	-68.6	3.8	7.42e-01	0	25	104	121634816	80	15693
2026-01-13 07:38:30.49	354.28	18.18	-51.3	-63.0	3.9	7.48e-01	0	26	104	121634816	72	13016
2026-01-13 07:38:31.49	354.02	18.14	-50.3	-61.7	3.8	7.45e-01	0	26	104	121634816	69	13407
2026-01-13 07:38:32.48	353.76	18.10	-50.2	-61.5	3.9	7.49e-01	0	25	104	121634816	69	13065
2026-01-13 07:38:33.48	353.49	18.06	-50.3	-61.8	3.8	7.45e-01	0	25	104	121634816	69	13552
2026-01-13 07:38:34.47	353.24	18.02	-50.9	-62.5	3.8	7.47e-01	0	25	104	121634816	69	14548
2026-01-13 07:38:35.47	352.98	17.98	-51.7	-63.3	3.9	7.42e-01	0	26	104	121634816	71	14358
2026-01-13 07:38:36.47	352.72	17.94	-54.4	-67.0	3.8	7.48e-01	0	25	104	121634816	76	16377
2026-01-13 07:38:37.47	352.46	17.90	-55.4	-68.6	3.9	7.47e-01	0	25	104	121634816	80	15636
2026-01-13 07:38:38.46	352.20	17.86	-51.4	-63.0	3.9	7.43e-01	0	25	104	121634816	72	12976
2026-01-13 07:38:39.46	351.94	17.82	-50.4	-61.9	3.9	7.45e-01	0	26	104	121634816	69	13707
2026-01-13 07:38:40.46	351.69	17.78	-50.3	-61.7	3.9	7.45e-01	0	26	104	121634816	69	13322
2026-01-13 07:38:41.46	351.43	17.73	-50.3	-61.7	3.8	7.44e-01	0	26	104	121634816	69	13269
2026-01-13 07:38:42.46	351.18	17.69	-50.3	-61.9	3.9	7.44e-01	0	25	104	121634816	69	13603
2026-01-13 07:38:43.45	350.93	17.65	-50.8	-62.3	3.8	7.48e-01	0	26	104	121634816	69	14210
2026-01-13 07:38:44.45	350.67	17.60	-53.6	-65.6	3.8	7.44e-01	0	26	104	121634816	75	14869
2026-01-13 07:38:45.44	350.42	17.56	-53.8	-65.9	3.9	7.44e-01	0	25	104	121634816	76	14454
2026-01-13 07:38:46.43	350.17	17.51	-52.8	-64.7	3.8	7.47e-01	0	25	104	121634816	73	15049
2026-01-13 07:38:47.43	349.92	17.47	-54.6	-67.1	3.9	7.48e-01	0	25	104	121634816	78	14867
2026-01-13 07:38:48.43	349.67	17.42	-50.6	-62.5	3.8	7.46e-01	0	25	104	121634816	70	13768
2026-01-13 07:38:49.42	349.42	17.38	-50.6	-61.8	3.9	7.46e-01	0	25	104	121634816	70	12668
2026-01-13 07:38:50.43	349.17	17.33	-52.4	-64.3	3.8	7.47e-01	0	25	104	121634816	72	15223
2026-01-13 07:38:51.43	348.93	17.28	-54.0	-66.8	3.8	7.47e-01	0	26	104	121634816	77	15077
2026-01-13 07:38:52.43	348.68	17.23	-53.5	-65.3	3.8	7.45e-01	0	26	104	121634816	74	15076
2026-01-13 07:38:53.42	348.43	17.19	-55.8	-69.3	3.9	7.47e-01	0	26	104	121634816	80	16971
2026-01-13 07:38:54.42	348.19	17.14	-52.1	-63.9	3.9	7.43e-01	0	26	104	121634816	73	13663
2026-01-13 07:38:55.42	347.95	17.09	-50.7	-61.8	3.9	7.46e-01	0	26	104	121634816	70	12692
2026-01-13 07:38:56.41	347.70	17.04	-50.5	-62.4	3.9	7.44e-01	0	25	104	121634816	70	13620
2026-01-13 07:38:57.39	347.47	16.99	-50.5	-61.9	3.8	7.47e-01	0	25	104	121634816	70	12949
2026-01-13 07:38:58.39	347.22	16.94	-50.3	-61.4	3.8	7.47e-01	0	26	104	121634816	69	12939
2026-01-13 07:38:59.39	346.98	16.89	-51.3	-63.3	3.9	7.45e-01	0	25	104	121634816	70	15194
2026-01-13 07:39:00.38	346.75	16.84	-52.7	-64.7	3.8	7.49e-01	0	25	104	121634816	73	14982
2026-01-13 07:39:01.38	346.51	16.79	-55.8	-68.9	3.9	7.49e-01	0	25	104	121634816	80	16268
2026-01-13 07:39:02.37	346.27	16.74	-52.9	-65.3	3.8	7.45e-01	0	26	104	121634816	75	14222
2026-01-13 07:39:03.37	346.03	16.68	-50.5	-61.7	3.8	7.49e-01	0	26	104	121634816	69	13391
2026-01-13 07:39:04.38	345.79	16.63	-50.6	-62.1	3.8	7.44e-01	0	26	104	121634816	69	13886
2026-01-13 07:39:05.37	345.56	16.58	-50.7	-62.4	3.8	7.45e-01	0	25	104	121634816	69	14484
2026-01-13 07:39:06.36	345.33	16.53	-50.4	-61.6	3.8	7.38e-01	0	26	104	121634816	69	13190
2026-01-13 07:39:07.34	345.10	16.47	-50.4	-62.1	3.8	7.46e-01	0	25	104	121634816	69	13916
2026-01-13 07:39:08.34	344.87	16.42	-53.1	-65.0	3.9	7.44e-01	0	26	104	121634816	74	14587
2026-01-13 07:39:09.33	344.64	16.37	-54.7	-67.3	3.8	7.41e-01	0	25	104	121634816	78	15171
2026-01-13 07:39:10.33	344.41	16.31	-51.1	-62.7	3.8	7.50e-01	0	26	104	121634816	69	14920
2026-01-13 07:39:11.33	344.17	16.26	-55.6	-68.7	3.9	7.43e-01	0	26	104	121634816	80	15916
2026-01-13 07:39:12.32	343.95	16.20	-50.3	-62.0	3.9	7.47e-01	0	26	104	121634816	69	13792
2026-01-13 07:39:13.32	343.72	16.15	-50.3	-61.5	3.8	7.49e-01	0	26	104	121634816	69	13092
2026-01-13 07:39:14.32	343.49	16.09	-50.4	-61.8	3.8	7.46e-01	0	26	104	121634816	69	13420
2026-01-13 07:39:15.31	343.27	16.04	-52.8	-65.2	3.8	7.46e-01	0	25	104	121634816	75	14060
2026-01-13 07:39:16.31	343.04	15.98	-52.2	-63.6	3.8	7.48e-01	0	26	104	121634816	72	13921
2026-01-13 07:39:17.31	342.82	15.92	-56.3	-70.2	3.9	7.46e-01	0	26	104	121634816	81	17868
2026-01-13 07:39:18.30	342.59	15.87	-54.6	-67.2	3.9	7.45e-01	0	26	104	121634816	78	14913
2026-01-13 07:39:19.29	342.37	15.81	-50.4	-62.0	3.8	7.44e-01	0	26	104	121634816	69	13795
2026-01-13 07:39:20.28	342.15	15.75	-50.3	-61.6	3.8	7.44e-01	0	25	104	121634816	69	13214
2026-01-13 07:39:21.28	341.93	15.70	-50.3	-61.9	3.9	7.46e-01	0	25	104	121634816	69	13662
2026-01-13 07:39:22.28	341.71	15.64	-50.3	-61.9	3.8	7.47e-01	0	25	104	121634816	69	13643
2026-01-13 07:39:23.28	341.49	15.58	-50.0	-61.1	3.9	7.46e-01	0	25	104	121634816	69	12394
2026-01-13 07:39:24.27	341.28	15.52	-52.9	-65.1	3.9	7.45e-01	0	26	104	121634816	74	14778
2026-01-13 07:39:25.27	341.06	15.46	-55.2	-68.1	3.9	7.46e-01	0	25	104	121634816	79	15756
2026-01-13 07:39:26.27	340.84	15.40	-50.5	-61.7	3.9	7.47e-01	0	26	104	121634816	69	13263
2026-01-13 07:39:27.27	340.63	15.35	-56.4	-70.8	3.9	7.45e-01	0	25	104	121634816	82	18063
2026-01-13 07:39:28.26	340.41	15.29	-50.4	-61.7	3.8	7.47e-01	0	26	104	121634816	70	12570
2026-01-13 07:39:29.25	340.20	15.23	-50.3	-61.6	3.8	7.44e-01	0	26	104	121634816	69	13148
2026-01-13 07:39:30.25	339.99	15.17	-50.9	-62.7	3.8	7.46e-01	0	26	104	121634816	69	15025
2026-01-13 07:39:31.23	339.78	15.11	-55.5	-68.7	3.8	7.44e-01	0	26	104	121634816	79	16732
2026-01-13 07:39:32.23	339.57	15.05	-52.9	-64.8	3.9	7.46e-01	0	25	104	121634816	75	13508
2026-01-13 07:39:33.22	339.36	14.99	-55.7	-69.7	3.9	7.46e-01	0	26	104	121634816	80	17722
2026-01-13 07:39:34.23	339.15	14.93	-50.6	-61.3	3.9	7.45e-01	0	25	104	121634816	70	12068
2026-01-13 07:39:35.23	338.94	14.87	-56.4	-71.2	3.9	7.42e-01	0	26	104	121634816	81	19991
2026-01-13 07:39:36.23	338.73	14.81	-50.8	-61.9	3.9	7.45e-01	0	26	104	121634816	70	12930
2026-01-13 07:39:37.24	338.53	14.74	-50.6	-62.1	3.9	7.50e-01	0	25	104	121634816	70	13165
2026-01-13 07:39:38.23	338.32	14.68	-50.5	-62.6	3.8	7.45e-01	0	26	104	121634816	70	13920
2026-01-13 07:39:39.23	338.12	14.62	-54.7	-66.9	3.9	7.45e-01	0	26	104	121634816	78	14464
2026-01-13 07:39:40.22	337.92	14.56	-51.9	-64.2	3.8	7.46e-01	0	26	104	121634816	72	14964
2026-01-13 07:39:41.22	337.71	14.50	-56.6	-70.7	3.8	7.43e-01	0	26	104	121634816	82	17796
2026-01-13 07:39:42.21	337.51	14.44	-55.2	-68.4	3.8	7.46e-01	0	25	104	121634816	79	16242
2026-01-13 07:39:43.20	337.31	14.38	-50.6	-62.1	3.8	7.49e-01	0	25	104	121634816	70	13119
2026-01-13 07:39:44.19	337.12	14.31	-50.5	-61.7	3.9	7.46e-01	0	25	104	121634816	70	12598
2026-01-13 07:39:45.19	336.92	14.25	-50.6	-62.5	3.8	7.45e-01	0	26	104	121634816	70	13804
2026-01-13 07:39:46.18	336.72	14.19	-50.4	-61.5	3.8	7.45e-01	0	26	104	121634816	70	12268
2026-01-13 07:39:47.18	336.52	14.13	-50.8	-62.9	3.9	7.45e-01	0	26	104	121634816	70	14381
2026-01-13 07:39:48.17	336.33	14.06	-52.7	-64.4	3.8	7.46e-01	0	26	104	121634816	73	14506
2026-01-13 07:39:49.17	336.13	14.00	-55.8	-69.6	3.9	7.46e-01	0	25	104	121634816	80	17552
2026-01-13 07:39:50.17	335.94	13.94	-50.3	-61.5	3.9	7.45e-01	0	26	104	121634816	69	12998
2026-01-13 07:39:51.16	335.75	13.88	-56.9	-72.1	3.9	7.44e-01	0	26	104	121634816	82	20803
2026-01-13 07:39:52.15	335.55	13.81	-50.3	-61.5	3.9	7.43e-01	0	26	104	121634816	69	13014
2026-01-13 07:39:53.16	335.36	13.75	-50.5	-62.1	3.8	7.43e-01	0	26	104	121634816	69	13917
2026-01-13 07:39:54.16	335.17	13.69	-50.6	-62.3	3.9	7.46e-01	0	26	104	121634816	69	14307
2026-01-13 07:39:55.15	334.98	13.62	-57.0	-71.6	3.9	7.45e-01	0	26	104	121634816	82	19713
2026-01-13 07:39:56.15	334.79	13.56	-51.9	-64.2	3.9	7.46e-01	0	26	104	121634816	73	14151
2026-01-13 07:39:57.15	334.60	13.49	-56.9	-71.4	3.9	7.46e-01	0	26	104	121634816	82	19245
2026-01-13 07:39:58.14	334.42	13.43	-56.1	-70.6	3.9	7.42e-01	0	26	104	121634816	81	18540
2026-01-13 07:39:59.14	334.23	13.37	-50.6	-61.8	3.8	7.46e-01	0	26	104	121634816	70	12688
2026-01-13 07:40:00.13	334.05	13.30	-50.5	-62.0	3.8	7.44e-01	0	26	104	121634816	70	12990
2026-01-13 07:40:01.13	333.86	13.24	-50.4	-62.2	3.8	7.43e-01	0	26	104	121634816	70	13262
2026-01-13 07:40:02.12	333.68	13.17	-50.4	-61.4	3.8	7.45e-01	0	26	104	121634816	70	12174
2026-01-13 07:40:03.12	333.50	13.11	-50.9	-63.2	3.8	7.45e-01	0	26	104	121634816	70	14988
2026-01-13 07:40:04.12	333.31	13.04	-52.7	-64.4	3.8	7.44e-01	0	25	104	121634816	73	14412
2026-01-13 07:40:05.12	333.13	12.98	-56.2	-70.4	3.8	7.46e-01	0	26	104	121634816	80	19356
2026-01-13 07:40:06.11	332.95	12.92	-50.5	-62.1	3.8	7.44e-01	0	26	104	121634816	70	13193
2026-01-13 07:40:07.10	332.78	12.85	-56.9	-71.6	3.8	7.44e-01	0	26	104	121634816	81	20794
2026-01-13 07:40:08.09	332.60	12.79	-50.5	-62.3	3.8	7.47e-01	0	26	104	121634816	70	13497
2026-01-13 07:40:09.08	332.42	12.72	-50.8	-62.0	3.8	7.45e-01	0	26	104	121634816	70	12994
2026-01-13 07:40:10.07	332.25	12.66	-50.8	-62.5	3.8	7.49e-01	0	26	104	121634816	70	13801
2026-01-13 07:40:11.07	332.07	12.59	-56.2	-70.4	3.9	7.47e-01	0	26	104	121634816	80	19170
2026-01-13 07:40:12.06	331.90	12.53	-52.7	-64.7	3.8	7.47e-01	0	26	104	121634816	74	14092
2026-01-13 07:40:13.05	331.72	12.46	-56.4	-70.7	3.8	7.44e-01	0	26	104	121634816	80	19987
2026-01-13 07:40:14.05	331.55	12.40	-50.7	-62.2	3.8	7.48e-01	0	25	104	121634816	70	13309
2026-01-13 07:40:15.06	331.37	12.33	-57.0	-72.4	3.8	7.45e-01	0	26	104	121634816	81	22958
2026-01-13 07:40:16.06	331.20	12.27	-50.7	-62.2	3.8	7.44e-01	0	25	104	121634816	70	13325
2026-01-13 07:40:17.06	331.03	12.20	-50.5	-62.4	3.8	7.47e-01	0	25	104	121634816	70	13594
2026-01-13 07:40:18.06	330.86	12.14	-50.5	-61.8	3.9	7.44e-01	0	25	104	121634816	70	12727
2026-01-13 07:40:19.06	330.69	12.07	-54.6	-67.4	3.8	7.48e-01	0	25	104	121634816	77	16208
2026-01-13 07:40:20.05	330.52	12.00	-52.8	-65.0	3.8	7.46e-01	0	25	104	121634816	74	14555
2026-01-13 07:40:21.04	330.36	11.94	-56.4	-70.4	3.8	7.40e-01	0	26	104	121634816	80	19309
2026-01-13 07:40:22.03	330.19	11.87	-50.8	-62.6	3.8	7.48e-01	0	25	104	121634816	70	13905
2026-01-13 07:40:23.03	330.03	11.81	-56.9	-72.4	3.8	7.45e-01	0	26	104	121634816	81	22972
2026-01-13 07:40:24.03	329.86	11.74	-50.2	-52.8	5.0	7.06e-01	0	26	104	121634816	69	4762
2026-01-13 07:40:25.02	329.70	11.68	-50.7	-52.6	15.2	6.00e-01	0	25	0	122159104	69	4705
2026-01-13 07:40:26.01	329.53	11.61	-50.0	-51.8	15.6	6.00e-01	0	26	0	124256256	69	4260
2026-01-13 07:40:27.01	329.37	11.55	-50.3	-52.2	15.4	6.02e-01	0	26	0	125829120	69	4461
2026-01-13 07:40:28.00	329.21	11.48	-50.4	-52.3	15.4	5.99e-01	0	26	0	127926272	69	4529
2026-01-13 07:40:29.00	329.05	11.42	-50.3	-52.1	15.5	6.01e-01	0	26	0	129499136	69	4398
2026-01-13 07:40:29.99	328.89	11.35	-50.6	-52.5	15.3	6.00e-01	0	26	0	131596288	69	4616
2026-01-13 07:40:30.99	328.73	11.28	-50.1	-51.9	15.5	6.02e-01	0	26	0	133693440	69	4321
2026-01-13 07:40:31.99	328.57	11.22	-50.2	-52.0	15.5	6.02e-01	0	26	0	135266304	69	4371
2026-01-13 07:40:32.99	328.41	11.15	-50.6	-52.5	15.3	6.02e-01	0	25	0	137363456	69	4645
2026-01-13 07:40:33.98	328.26	11.09	-50.4	-52.2	15.4	6.01e-01	0	26	0	138936320	69	4471
2026-01-13 07:40:34.97	328.10	11.02	-50.6	-52.5	15.3	5.99e-01	0	26	0	141033472	69	4607
2026-01-13 07:40:35.96	327.95	10.96	-50.7	-52.7	15.3	6.01e-01	0	26	0	142606336	69	4742
2026-01-13 07:40:36.96	327.79	10.89	-50.1	-51.9	15.5	6.00e-01	0	26	0	144703488	69	4333
2026-01-13 07:40:37.96	327.64	10.83	-50.4	-52.3	15.4	6.03e-01	0	26	0	146800640	69	4494
2026-01-13 07:40:38.96	327.48	10.76	-50.5	-52.4	15.4	6.02e-01	0	25	0	148373504	69	4560
2026-01-13 07:40:39.95	327.33	10.69	-50.3	-52.1	15.5	6.01e-01	0	26	0	150470656	69	4431
2026-01-13 07:40:40.95	327.18	10.63	-50.7	-52.7	15.3	6.01e-01	0	26	0	152043520	69	4708
2026-01-13 07:40:41.94	327.03	10.56	-50.7	-52.7	15.2	6.01e-01	0	26	0	154140672	69	4730
2026-01-13 07:40:42.94	326.88	10.50	-50.2	-52.0	15.5	6.00e-01	0	25	0	155713536	69	4379
2026-01-13 07:40:43.93	326.73	10.43	-50.5	-52.4	15.4	6.00e-01	0	26	0	157810688	69	4551
2026-01-13 07:40:44.92	326.58	10.37	-50.6	-52.5	15.3	5.99e-01	0	26	0	159383552	69	4632
2026-01-13 07:40:45.92	326.43	10.30	-50.1	-51.9	15.5	5.98e-01	0	25	0	161480704	69	4323
2026-01-13 07:40:46.91	326.29	10.24	-50.5	-52.4	15.4	6.00e-01	0	25	0	163577856	69	4557
2026-01-13 07:40:47.90	326.14	10.17	-50.9	-52.9	15.2	6.02e-01	0	26	0	165150720	69	4852
2026-01-13 07:40:48.90	325.99	10.10	-50.7	-52.7	15.3	6.00e-01	0	25	0	167247872	69	4709
2026-01-13 07:40:49.90	325.85	10.04	-50.7	-52.7	15.3	6.02e-01	0	25	0	168820736	69	4719
2026-01-13 07:40:50.90	325.70	9.97	-51.1	-53.2	15.1	6.01e-01	0	26	0	170917888	69	4992
2026-01-13 07:40:51.89	325.56	9.91	-50.8	-52.7	15.2	6.00e-01	0	25	0	172490752	69	4741
2026-01-13 07:40:52.89	325.42	9.84	-50.4	-52.3	15.4	6.00e-01	0	26	0	174587904	69	4504
2026-01-13 07:40:53.88	325.27	9.78	-50.7	-52.7	15.3	6.03e-01	0	26	0	176160768	69	4736
2026-01-13 07:40:54.87	325.13	9.71	-50.6	-52.5	15.3	5.99e-01	0	25	0	178257920	69	4631
2026-01-13 07:40:55.87	324.99	9.65	-50.3	-52.2	15.4	6.01e-01	0	25	0	180355072	69	4462
2026-01-13 07:40:56.87	324.85	9.58	-50.7	-52.7	15.3	6.02e-01	0	25	0	181927936	69	4726
2026-01-13 07:40:57.87	324.71	9.52	-50.9	-53.0	15.2	6.00e-01	0	25	0	184025088	69	4884
2026-01-13 07:40:58.87	324.57	9.45	-50.5	-52.4	15.3	6.02e-01	0	26	0	185597952	69	4581
2026-01-13 07:40:59.87	324.43	9.39	-50.6	-52.6	15.3	5.98e-01	0	26	0	187695104	69	4668
2026-01-13 07:41:00.86	324.30	9.32	-51.2	-53.3	15.2	6.01e-01	0	26	0	189267968	70	4788
2026-01-13 07:41:01.86	324.16	9.26	-50.6	-52.5	15.4	5.99e-01	0	25	0	191365120	70	4376
2026-01-13 07:41:02.85	324.02	9.19	-50.5	-52.3	15.6	6.01e-01	0	26	0	192937984	70	4276
2026-01-13 07:41:03.85	323.89	9.13	-50.9	-52.8	15.4	6.01e-01	0	26	0	195035136	70	4540
2026-01-13 07:41:04.84	323.75	9.06	-51.3	-53.4	15.2	6.01e-01	0	26	0	197132288	70	4845
2026-01-13 07:41:05.83	323.62	9.00	-50.8	-52.8	15.3	6.01e-01	0	26	0	198705152	70	4510
2026-01-13 07:41:06.82	323.49	8.93	-50.7	-52.6	15.5	6.01e-01	0	25	0	200802304	70	4411
2026-01-13 07:41:07.82	323.35	8.87	-51.2	-53.3	15.2	6.00e-01	0	25	0	202375168	70	4776
2026-01-13 07:41:08.81	323.22	8.80	-51.3	-53.5	15.1	6.03e-01	0	25	0	204472320	70	4894
2026-01-13 07:41:09.81	323.09	8.74	-50.9	-52.9	15.3	5.99e-01	0	25	0	206045184	70	4584
2026-01-13 07:41:10.81	322.96	8.67	-50.9	-52.9	15.3	6.01e-01	0	25	0	208142336	70	4580
2026-01-13 07:41:11.80	322.83	8.61	-51.2	-53.3	15.2	6.02e-01	0	25	0	209715200	70	4776
2026-01-13 07:41:12.79	322.70	8.54	-51.4	-53.6	15.1	6.02e-01	0	25	0	211812352	70	4936
2026-01-13 07:41:13.78	322.57	8.48	-51.2	-53.2	15.2	5.98e-01	0	25	0	213909504	70	4747
2026-01-13 07:41:14.77	322.45	8.42	-51.2	-53.3	15.2	6.01e-01	0	25	0	215482368	70	4779
2026-01-13 07:41:15.77	322.32	8.35	-51.4	-53.5	15.1	6.01e-01	0	25	0	217579520	70	4906
2026-01-13 07:41:16.76	322.19	8.29	-51.6	-53.8	15.0	6.01e-01	0	26	0	219152384	70	5072
2026-01-13 07:41:17.76	322.06	8.22	-51.2	-53.3	15.2	6.02e-01	0	26	0	221249536	70	4772
2026-01-13 07:41:18.76	321.94	8.16	-50.8	-52.7	15.4	5.99e-01	0	25	0	222822400	70	4486
2026-01-13 07:41:19.75	321.81	8.09	-50.9	-52.9	15.4	6.02e-01	0	25	0	224919552	70	4575
2026-01-13 07:41:20.74	321.69	8.03	-51.2	-53.3	15.2	5.99e-01	0	25	0	226492416	70	4789
2026-01-13 07:41:21.74	321.57	7.97	-51.1	-53.2	15.2	6.02e-01	0	26	0	228589568	70	4740
2026-01-13 07:41:22.73	321.44	7.90	-50.9	-52.9	15.4	6.04e-01	0	25	0	230686720	70	4546
2026-01-13 07:41:23.73	321.32	7.84	-50.8	-52.7	15.4	6.00e-01	0	25	0	232259584	70	4489
2026-01-13 07:41:24.72	321.20	7.77	-50.9	-52.9	15.3	6.00e-01	0	25	0	234356736	70	4582
2026-01-13 07:41:25.72	321.08	7.71	-51.1	-53.2	15.2	5.98e-01	0	25	0	235929600	70	4758
2026-01-13 07:41:26.72	320.95	7.65	-51.1	-53.2	15.2	5.99e-01	0	25	0	238026752	70	4754
2026-01-13 07:41:27.72	320.83	7.58	-51.0	-53.1	15.3	6.02e-01	0	25	0	239599616	70	4674
2026-01-13 07:41:28.72	320.71	7.52	-51.1	-53.1	15.3	6.03e-01	0	25	0	241696768	70	4688
2026-01-13 07:41:29.72	320.59	7.45	-51.3	-53.5	15.1	6.03e-01	0	25	0	243793920	70	4906
2026-01-13 07:41:30.71	320.48	7.39	-51.2	-53.3	15.2	6.02e-01	0	25	0	245366784	70	4800
2026-01-13 07:41:31.70	320.36	7.33	-51.2	-53.3	15.2	5.99e-01	0	25	0	247463936	70	4787
2026-01-13 07:41:32.70	320.24	7.26	-50.9	-53.0	15.3	6.01e-01	0	25	0	249036800	70	4610
2026-01-13 07:41:33.70	320.12	7.20	-50.9	-53.0	15.3	6.00e-01	0	25	0	251133952	70	4602
2026-01-13 07:41:34.69	320.01	7.14	-51.0	-53.0	15.3	5.99e-01	0	25	0	252706816	70	4633
2026-01-13 07:41:35.68	319.89	7.08	-51.1	-53.3	15.2	6.01e-01	0	26	0	254803968	70	4760
2026-01-13 07:41:36.68	319.78	7.01	-51.1	-53.3	15.2	6.01e-01	0	25	0	256376832	70	4762
2026-01-13 07:41:37.67	319.66	6.95	-51.1	-53.2	15.2	6.02e-01	0	25	0	258473984	70	4712
2026-01-13 07:41:38.66	319.55	6.89	-51.1	-53.2	15.2	6.00e-01	0	25	0	260046848	70	4711
2026-01-13 07:41:39.64	319.44	6.82	-51.3	-53.5	15.1	6.02e-01	0	26	0	262144000	70	4877
2026-01-13 07:41:40.65	319.32	6.76	-51.4	-53.6	15.1	6.00e-01	0	25	0	264241152	70	4970
2026-01-13 07:41:41.64	319.21	6.70	-51.4	-53.7	15.1	6.00e-01	0	25	0	265814016	70	4987
2026-01-13 07:41:42.64	319.10	6.64	-51.4	-53.7	15.1	5.98e-01	0	25	0	267911168	70	4986
2026-01-13 07:41:43.63	318.99	6.57	-51.2	-53.4	15.2	5.99e-01	0	25	0	269484032	70	4823
2026-01-13 07:41:44.63	318.88	6.51	-51.2	-53.3	15.2	6.00e-01	0	25	0	271581184	70	4785
2026-01-13 07:41:45.62	318.77	6.45	-51.3	-53.4	15.2	6.02e-01	0	25	0	273154048	70	4854
2026-01-13 07:41:46.61	318.66	6.39	-51.3	-53.5	15.1	6.02e-01	0	26	0	275251200	70	4903
2026-01-13 07:41:47.61	318.55	6.32	-51.3	-53.4	15.1	6.02e-01	0	25	0	276824064	70	4856
2026-01-13 07:41:48.60	318.44	6.26	-51.3	-53.4	15.2	6.02e-01	0	25	0	278921216	70	4847
2026-01-13 07:41:49.60	318.33	6.20	-51.4	-53.6	15.1	6.00e-01	0	25	0	281018368	70	4963
2026-01-13 07:41:50.59	318.22	6.14	-51.2	-53.3	15.2	6.00e-01	0	25	0	282591232	70	4812
2026-01-13 07:41:51.58	318.12	6.08	-51.3	-53.4	15.2	6.01e-01	0	26	0	284688384	70	4859
2026-01-13 07:41:52.57	318.01	6.01	-51.2	-53.4	15.2	6.01e-01	0	25	0	286261248	70	4842
2026-01-13 07:41:53.56	317.91	5.95	-51.3	-53.5	15.1	6.01e-01	0	25	0	288358400	70	4879
2026-01-13 07:41:54.56	317.80	5.89	-51.3	-53.5	15.1	6.00e-01	0	25	0	289931264	70	4902
2026-01-13 07:41:55.56	317.69	5.83	-51.4	-53.6	15.1	5.98e-01	0	26	0	292028416	70	4953
2026-01-13 07:41:56.55	317.59	5.77	-51.4	-53.7	15.1	6.02e-01	0	26	0	293601280	70	4984
2026-01-13 07:41:57.54	317.49	5.71	-51.5	-53.7	15.0	6.02e-01	0	26	0	295698432	70	5025
2026-01-13 07:41:58.54	317.38	5.64	-51.5	-53.8	15.0	6.00e-01	0	25	0	297795584	70	5095
2026-01-13 07:41:59.53	317.28	5.58	-51.6	-53.9	15.0	6.03e-01	0	25	0	299368448	70	5120
2026-01-13 07:42:00.52	317.18	5.52	-51.7	-54.0	15.1	6.00e-01	0	26	0	301465600	71	4891
2026-01-13 07:42:01.52	317.08	5.46	-51.7	-54.0	15.1	6.00e-01	0	25	0	303038464	71	4897
2026-01-13 07:42:02.51	316.97	5.40	-51.5	-53.8	15.1	6.00e-01	0	25	0	305135616	71	4785
2026-01-13 07:42:03.50	316.87	5.34	-51.7	-54.0	15.1	5.98e-01	0	26	0	306708480	71	4921
2026-01-13 07:42:04.50	316.77	5.28	-51.5	-53.8	15.1	6.01e-01	0	25	0	308805632	71	4797
2026-01-13 07:42:05.50	316.67	5.22	-51.4	-53.7	15.2	6.01e-01	0	26	0	310378496	71	4706
2026-01-13 07:42:06.49	316.57	5.16	-51.5	-53.8	15.1	6.01e-01	0	25	0	312475648	71	4788
2026-01-13 07:42:07.49	316.47	5.10	-51.8	-54.2	15.0	5.99e-01	0	25	0	314572800	71	5012
2026-01-13 07:42:08.49	316.37	5.03	-51.8	-54.2	15.0	6.01e-01	0	25	0	316145664	71	5031
2026-01-13 07:42:09.49	316.27	4.97	-52.6	-55.4	14.8	6.03e-01	0	25	0	318242816	72	5410
2026-01-13 07:42:10.48	316.18	4.91	-57.9	-77.3	3.8	7.48e-01	0	25	104	319291392	83	35754
2026-01-13 07:42:11.48	316.08	4.85	-58.4	-77.5	3.8	7.48e-01	0	25	104	319291392	84	34692
2026-01-13 07:42:12.49	315.98	4.79	-58.6	-78.0	3.8	7.48e-01	0	26	104	319291392	84	36578
2026-01-13 07:42:13.49	315.88	4.73	-58.8	-78.2	3.8	7.46e-01	0	26	104	319291392	85	35372
2026-01-13 07:42:14.50	315.79	4.67	-59.0	-78.4	3.8	7.49e-01	0	25	104	319291392	85	36153
2026-01-13 07:42:15.51	315.69	4.61	-59.1	-78.5	3.8	7.45e-01	0	26	104	319291392	85	36538
2026-01-13 07:42:16.50	315.59	4.55	-59.3	-78.6	3.8	7.45e-01	0	26	104	319291392	86	35222
2026-01-13 07:42:17.51	315.50	4.49	-59.3	-78.7	3.8	7.43e-01	0	25	104	319291392	86	35468
2026-01-13 07:42:18.52	315.40	4.43	-59.4	-78.8	3.8	7.44e-01	0	26	104	319291392	86	35798
2026-01-13 07:42:19.53	315.31	4.37	-59.5	-78.8	3.8	7.47e-01	0	26	104	319291392	86	36048
2026-01-13 07:42:20.53	315.21	4.31	-59.5	-78.9	3.8	7.47e-01	0	26	104	319291392	86	36376
2026-01-13 07:42:21.53	315.12	4.25	-59.6	-79.0	3.8	7.47e-01	0	26	104	319291392	86	36598
2026-01-13 07:42:22.54	315.03	4.19	-59.6	-79.0	3.8	7.45e-01	0	26	104	319291392	87	34750
2026-01-13 07:42:23.54	314.93	4.13	-59.7	-79.0	3.8	7.50e-01	0	26	104	319291392	87	34872
2026-01-13 07:42:24.55	314.84	4.07	-59.7	-79.1	3.8	7.46e-01	0	26	104	319291392	87	35004
2026-01-13 07:42:25.55	314.75	4.01	-59.7	-79.1	3.8	7.48e-01	0	25	104	319291392	87	35016
2026-01-13 07:42:26.56	314.66	3.95	-59.7	-79.1	3.8	7.47e-01	0	26	104	319291392	87	35067
2026-01-13 07:42:27.57	314.56	3.89	-59.7	-79.1	3.8	7.45e-01	0	25	104	319291392	87	35084
2026-01-13 07:42:28.57	314.47	3.83	-59.7	-79.1	3.8	7.49e-01	0	26	104	319291392	87	35146
2026-01-13 07:42:29.58	314.38	3.77	-59.7	-79.1	3.8	7.45e-01	0	26	104	319291392	87	35162
2026-01-13 07:42:30.59	314.29	3.71	-59.7	-79.1	3.8	7.45e-01	0	26	104	319291392	87	35045
2026-01-13 07:42:31.59	314.20	3.65	-59.7	-79.1	3.8	7.45e-01	0	26	104	319291392	87	35116
2026-01-13 07:42:32.60	314.11	3.59	-59.7	-79.0	3.8	7.46e-01	0	26	104	319291392	87	34874
2026-01-13 07:42:33.60	314.03	3.53	-59.7	-79.0	3.8	7.47e-01	0	26	104	319291392	87	34828
2026-01-13 07:42:34.59	313.94	3.47	-59.6	-79.0	3.8	7.44e-01	0	26	104	319291392	87	34734
2026-01-13 07:42:35.58	313.85	3.41	-59.6	-79.0	3.8	7.45e-01	0	26	104	319291392	87	34767
2026-01-13 07:42:36.58	313.76	3.35	-59.6	-79.0	3.8	7.49e-01	0	26	104	319291392	87	34732
2026-01-13 07:42:37.57	313.68	3.30	-59.6	-79.0	3.8	7.45e-01	0	26	104	319291392	87	34638
2026-01-13 07:42:38.56	313.59	3.24	-59.6	-79.0	3.8	7.46e-01	0	26	104	319291392	87	34636
2026-01-13 07:42:39.55	313.51	3.18	-59.6	-79.0	3.8	7.44e-01	0	26	104	319291392	87	34622
2026-01-13 07:42:40.55	313.42	3.12	-59.6	-79.0	3.8	7.49e-01	0	26	104	319291392	87	34661
2026-01-13 07:42:41.55	313.34	3.06	-59.6	-79.0	3.8	7.49e-01	0	26	104	319291392	87	34507
2026-01-13 07:42:42.54	313.25	3.01	-59.6	-79.0	3.8	7.48e-01	0	26	104	319291392	87	34519
2026-01-13 07:42:43.53	313.17	2.95	-59.6	-78.9	3.8	7.46e-01	0	26	104	319291392	87	34441
2026-01-13 07:42:44.54	313.08	2.89	-59.6	-78.9	3.8	7.45e-01	0	26	104	319291392	87	34394
2026-01-13 07:42:45.53	313.00	2.83	-59.6	-78.9	3.8	7.48e-01	0	26	104	319291392	87	34478
2026-01-13 07:42:46.52	312.92	2.78	-59.6	-78.9	3.8	7.46e-01	0	26	104	319291392	87	34480
2026-01-13 07:42:47.52	312.84	2.72	-59.6	-78.9	3.8	7.48e-01	0	25	104	319291392	87	34454
2026-01-13 07:42:48.50	312.76	2.66	-59.5	-78.9	3.8	7.47e-01	0	26	104	319291392	87	34467
2026-01-13 07:42:49.50	312.67	2.60	-59.6	-78.9	3.8	7.43e-01	0	26	104	319291392	87	34430
2026-01-13 07:42:50.50	312.59	2.55	-59.6	-78.9	3.8	7.47e-01	0	26	104	319291392	87	34387
2026-01-13 07:42:51.49	312.51	2.49	-59.6	-78.9	3.8	7.45e-01	0	26	104	319291392	87	34343
2026-01-13 07:42:52.48	312.43	2.43	-59.5	-78.9	3.8	7.49e-01	0	26	104	319291392	87	34349
2026-01-13 07:42:53.48	312.35	2.37	-59.5	-78.9	3.8	7.45e-01	0	25	104	319291392	87	34317
2026-01-13 07:42:54.48	312.27	2.32	-59.5	-78.9	3.8	7.47e-01	0	25	104	319291392	87	34385
2026-01-13 07:42:55.48	312.19	2.26	-59.5	-78.9	3.8	7.49e-01	0	26	104	319291392	87	34323
2026-01-13 07:42:56.48	312.11	2.20	-59.5	-78.9	3.8	7.47e-01	0	25	104	319291392	87	34248
2026-01-13 07:42:57.48	312.03	2.15	-59.5	-78.9	3.8	7.45e-01	0	26	104	319291392	87	34150
2026-01-13 07:42:58.49	311.95	2.09	-59.5	-78.9	3.8	7.48e-01	0	26	104	319291392	87	34248
2026-01-13 07:42:59.49	311.87	2.03	-59.5	-78.9	3.8	7.47e-01	0	26	104	319291392	87	34273
2026-01-13 07:43:00.48	311.79	1.97	-59.5	-78.9	3.8	7.45e-01	0	26	104	319291392	87	34200
2026-01-13 07:43:01.48	311.72	1.92	-59.5	-78.9	3.8	7.47e-01	0	26	104	319291392	87	34262

#Closed at: 2026-01-13 07:43:02
#Recorded file [319 MB]: D:/lorett/data/31004_260113_103204.dat