passes_logs/2026/01/13/R3.2S_Murmansk/R3.2S_Murmansk__20260113_024828_FENGYUN_3D_rec.log

#Pass ID: 20260113_024828_FENGYUN 3D
#Satellite: FENGYUN 3D
#Configuration: FENGYUN 3D
#almurnet v.1.7.20251203
#Start time: 2026-01-13 02:48:29

#Version: 2.2.20231116
#Station: R3.2S_Murmansk
#Location: 33.079688 lon 68.888172 lat
#TLE: 1 43010U 17072A   26012.32543542  .00000598  00000+0  30457-3 0  9997
#TLE: 2 43010  98.9935 344.1005 0002233 112.6136 247.5276 14.19696644422876

#Time	Az	El	Level	Level2	SNR	BER	BlckErr	Temp	State	Recorded	gain1	gain2
2026-01-13 02:48:29.55	25.29	2.10	-58.7	-71.8	3.8	8.46e-01	0	20	0	0	82	17353
2026-01-13 02:48:30.54	25.29	2.16	-58.7	-71.8	3.8	8.45e-01	0	20	104	0	82	17365
2026-01-13 02:48:31.53	25.29	2.22	-58.7	-71.8	3.8	8.46e-01	0	20	104	0	82	17368
2026-01-13 02:48:32.53	25.30	2.29	-58.7	-71.8	3.8	8.45e-01	0	20	104	0	82	17362
2026-01-13 02:48:33.54	25.30	2.35	-58.7	-71.8	3.8	8.45e-01	0	20	104	0	82	17328
2026-01-13 02:48:34.53	25.30	2.42	-58.7	-71.8	3.8	8.46e-01	0	20	104	0	82	17369
2026-01-13 02:48:35.53	25.30	2.48	-58.7	-71.8	3.8	8.46e-01	0	21	104	0	82	17407
2026-01-13 02:48:36.54	25.31	2.55	-58.7	-71.8	3.8	8.46e-01	0	21	104	0	82	17394
2026-01-13 02:48:37.54	25.31	2.61	-58.7	-71.8	3.8	8.44e-01	0	21	104	0	82	17344
2026-01-13 02:48:38.53	25.31	2.68	-58.7	-71.8	3.8	8.47e-01	0	20	104	0	82	17417
2026-01-13 02:48:39.53	25.32	2.74	-58.7	-71.8	3.8	8.46e-01	0	21	104	0	82	17393
2026-01-13 02:48:40.53	25.32	2.81	-58.7	-71.8	3.8	8.46e-01	0	21	104	0	82	17360
2026-01-13 02:48:41.53	25.32	2.87	-58.8	-71.8	3.8	8.46e-01	0	21	104	0	82	17355
2026-01-13 02:48:42.53	25.33	2.94	-58.7	-71.8	3.8	8.44e-01	0	21	104	0	82	17373
2026-01-13 02:48:43.53	25.33	3.01	-58.8	-71.8	3.8	8.46e-01	0	21	104	0	82	17441
2026-01-13 02:48:44.53	25.33	3.07	-58.8	-71.8	3.8	8.46e-01	0	21	104	0	82	17394
2026-01-13 02:48:45.54	25.34	3.14	-58.7	-71.8	3.8	8.47e-01	0	21	104	0	82	17389
2026-01-13 02:48:46.55	25.34	3.21	-58.8	-71.8	3.8	8.45e-01	0	21	104	0	82	17410
2026-01-13 02:48:47.55	25.34	3.27	-58.7	-71.8	3.8	8.46e-01	0	21	104	0	82	17373
2026-01-13 02:48:48.55	25.34	3.34	-58.7	-71.8	3.8	8.46e-01	0	21	104	0	82	17415
2026-01-13 02:48:49.55	25.35	3.41	-58.8	-71.8	3.8	8.45e-01	0	21	104	0	82	17431
2026-01-13 02:48:50.55	25.35	3.47	-58.7	-71.8	3.8	8.44e-01	0	21	104	0	82	17367
2026-01-13 02:48:51.55	25.35	3.54	-58.7	-71.8	3.8	8.46e-01	0	21	104	0	82	17381
2026-01-13 02:48:52.56	25.36	3.61	-58.7	-71.8	3.8	8.46e-01	0	21	104	0	82	17299
2026-01-13 02:48:53.56	25.36	3.68	-58.7	-71.8	3.8	8.46e-01	0	21	104	0	82	17353
2026-01-13 02:48:54.56	25.36	3.75	-58.7	-71.8	3.8	8.46e-01	0	21	104	0	82	17380
2026-01-13 02:48:55.56	25.37	3.81	-58.7	-71.8	3.8	8.46e-01	0	21	104	0	82	17345
2026-01-13 02:48:56.55	25.37	3.88	-58.7	-71.8	3.8	8.47e-01	0	21	104	0	82	17354
2026-01-13 02:48:57.56	25.37	3.95	-58.7	-71.8	3.8	8.45e-01	0	21	104	0	82	17368
2026-01-13 02:48:58.55	25.37	4.02	-58.7	-71.8	3.8	8.45e-01	0	21	104	0	82	17407
2026-01-13 02:48:59.55	25.38	4.09	-58.8	-71.8	3.8	8.45e-01	0	21	104	0	82	17385
2026-01-13 02:49:00.54	25.38	4.15	-58.8	-71.8	3.8	8.46e-01	0	21	104	0	82	17441
2026-01-13 02:49:01.54	25.38	4.22	-58.8	-71.8	3.8	8.46e-01	0	21	104	0	82	17404
2026-01-13 02:49:02.54	25.39	4.29	-58.8	-71.9	3.8	8.46e-01	0	21	104	0	82	17485
2026-01-13 02:49:03.54	25.39	4.36	-58.7	-71.8	3.8	8.46e-01	0	21	104	0	82	17397
2026-01-13 02:49:04.54	25.39	4.43	-58.8	-71.8	3.8	8.44e-01	0	21	104	0	82	17388
2026-01-13 02:49:05.54	25.40	4.50	-58.8	-71.8	3.8	8.46e-01	0	21	104	0	82	17392
2026-01-13 02:49:06.54	25.40	4.57	-58.8	-71.8	3.8	8.45e-01	0	21	104	0	82	17416
2026-01-13 02:49:07.54	25.40	4.64	-58.8	-71.8	3.8	8.45e-01	0	21	104	0	82	17390
2026-01-13 02:49:08.53	25.40	4.71	-58.8	-71.8	3.8	8.45e-01	0	21	104	0	82	17429
2026-01-13 02:49:09.53	25.41	4.78	-58.8	-71.8	3.8	8.46e-01	0	21	104	0	82	17392
2026-01-13 02:49:10.53	25.41	4.85	-58.8	-71.8	3.8	8.45e-01	0	21	104	0	82	17412
2026-01-13 02:49:11.53	25.41	4.92	-58.8	-71.8	3.8	8.45e-01	0	21	104	0	82	17417
2026-01-13 02:49:12.52	25.42	4.99	-58.8	-71.8	3.8	8.46e-01	0	21	104	0	82	17350
2026-01-13 02:49:13.51	25.42	5.06	-58.8	-71.8	3.8	8.46e-01	0	21	104	0	82	17396
2026-01-13 02:49:14.51	25.42	5.14	-58.8	-71.8	3.8	8.46e-01	0	21	104	0	82	17416
2026-01-13 02:49:15.52	25.42	5.21	-58.8	-71.8	3.8	8.46e-01	0	21	104	0	82	17438
2026-01-13 02:49:16.51	25.43	5.28	-58.8	-71.8	3.8	8.46e-01	0	21	104	0	82	17440
2026-01-13 02:49:17.51	25.43	5.35	-58.8	-71.8	3.8	8.46e-01	0	21	104	0	82	17405
2026-01-13 02:49:18.50	25.43	5.42	-58.8	-71.8	3.8	8.44e-01	0	21	104	0	82	17410
2026-01-13 02:49:19.50	25.44	5.49	-58.8	-71.8	3.8	8.46e-01	0	21	104	0	82	17362
2026-01-13 02:49:20.50	25.44	5.57	-58.8	-71.8	3.8	8.45e-01	0	21	104	0	82	17410
2026-01-13 02:49:21.49	25.44	5.64	-58.7	-71.8	3.8	8.45e-01	0	22	104	0	82	17359
2026-01-13 02:49:22.49	25.44	5.71	-58.8	-71.8	3.8	8.45e-01	0	22	104	0	82	17383
2026-01-13 02:49:23.49	25.45	5.79	-58.7	-71.8	3.8	8.46e-01	0	22	104	0	82	17364
2026-01-13 02:49:24.49	25.45	5.86	-58.8	-71.8	3.8	8.46e-01	0	22	104	0	82	17382
2026-01-13 02:49:25.49	25.45	5.93	-58.7	-71.8	3.8	8.45e-01	0	22	104	0	82	17353
2026-01-13 02:49:26.49	25.46	6.01	-58.8	-71.8	3.8	8.47e-01	0	22	104	0	82	17379
2026-01-13 02:49:27.48	25.46	6.08	-58.8	-71.8	3.8	8.45e-01	0	22	104	0	82	17379
2026-01-13 02:49:28.48	25.46	6.15	-58.8	-71.8	3.8	8.46e-01	0	21	104	0	82	17427
2026-01-13 02:49:29.48	25.46	6.23	-58.8	-71.8	3.8	8.45e-01	0	22	104	0	82	17437
2026-01-13 02:49:30.48	25.47	6.30	-58.8	-71.8	3.8	8.47e-01	0	21	104	0	82	17387
2026-01-13 02:49:31.48	25.47	6.38	-58.7	-71.8	3.8	8.46e-01	0	22	104	0	82	17353
2026-01-13 02:49:32.48	25.47	6.45	-58.8	-71.8	3.8	8.45e-01	0	21	104	0	82	17356
2026-01-13 02:49:33.49	25.47	6.53	-58.8	-71.8	3.8	8.44e-01	0	22	104	0	82	17426
2026-01-13 02:49:34.49	25.48	6.61	-58.7	-71.8	3.8	8.46e-01	0	21	104	0	82	17374
2026-01-13 02:49:35.48	25.48	6.68	-58.8	-71.8	3.8	8.45e-01	0	22	104	0	82	17401
2026-01-13 02:49:36.48	25.48	6.76	-58.8	-71.8	3.8	8.46e-01	0	22	104	0	82	17419
2026-01-13 02:49:37.47	25.48	6.83	-58.8	-71.8	3.8	8.45e-01	0	22	104	0	82	17396
2026-01-13 02:49:38.47	25.49	6.91	-58.8	-71.8	3.8	8.46e-01	0	22	104	0	82	17410
2026-01-13 02:49:39.47	25.49	6.98	-58.7	-71.8	3.8	8.45e-01	0	22	104	0	82	17356
2026-01-13 02:49:40.48	25.49	7.06	-58.7	-71.8	3.8	8.46e-01	0	22	104	0	82	17413
2026-01-13 02:49:41.47	25.50	7.14	-58.8	-71.8	3.8	8.45e-01	0	22	104	0	82	17398
2026-01-13 02:49:42.47	25.50	7.22	-58.8	-71.8	3.8	8.46e-01	0	22	104	0	82	17416
2026-01-13 02:49:43.48	25.50	7.29	-58.8	-71.8	3.8	8.46e-01	0	22	104	0	82	17423
2026-01-13 02:49:44.48	25.50	7.37	-58.8	-71.8	3.8	8.46e-01	0	22	104	0	82	17393
2026-01-13 02:49:45.48	25.51	7.45	-58.8	-71.8	3.8	8.46e-01	0	22	104	0	82	17355
2026-01-13 02:49:46.48	25.51	7.53	-58.8	-71.8	3.8	8.46e-01	0	22	104	0	82	17389
2026-01-13 02:49:47.49	25.51	7.61	-58.8	-71.8	3.8	8.45e-01	0	22	104	0	82	17459
2026-01-13 02:49:48.49	25.51	7.69	-58.8	-71.8	3.8	8.45e-01	0	22	104	0	82	17409
2026-01-13 02:49:49.48	25.52	7.77	-58.8	-71.8	3.8	8.46e-01	0	22	104	0	82	17421
2026-01-13 02:49:50.49	25.52	7.85	-58.8	-71.8	3.8	8.45e-01	0	22	104	0	82	17449
2026-01-13 02:49:51.49	25.52	7.93	-58.8	-71.8	3.8	8.46e-01	0	22	104	0	82	17465
2026-01-13 02:49:52.50	25.52	8.01	-58.8	-71.8	3.8	8.45e-01	0	22	104	0	82	17446
2026-01-13 02:49:53.50	25.53	8.09	-58.8	-71.8	3.8	8.45e-01	0	22	104	0	82	17456
2026-01-13 02:49:54.50	25.53	8.17	-58.8	-71.8	3.8	8.45e-01	0	22	104	0	82	17436
2026-01-13 02:49:55.50	25.53	8.25	-58.8	-71.8	3.8	8.46e-01	0	22	104	0	82	17386
2026-01-13 02:49:56.49	25.53	8.33	-58.8	-71.8	3.8	8.47e-01	0	22	104	0	82	17448
2026-01-13 02:49:57.50	25.54	8.41	-58.8	-71.8	3.8	8.45e-01	0	22	104	0	82	17455
2026-01-13 02:49:58.50	25.54	8.49	-58.8	-71.8	3.8	8.47e-01	0	22	104	0	82	17388
2026-01-13 02:49:59.50	25.54	8.57	-58.8	-71.8	3.8	8.45e-01	0	22	104	0	82	17412
2026-01-13 02:50:00.50	25.54	8.65	-58.8	-71.8	3.8	8.46e-01	0	22	104	0	82	17375
2026-01-13 02:50:01.49	25.55	8.74	-58.8	-71.8	3.8	8.45e-01	0	22	104	0	82	17433
2026-01-13 02:50:02.49	25.55	8.82	-58.8	-71.8	3.8	8.45e-01	0	22	104	0	82	17414
2026-01-13 02:50:03.49	25.55	8.90	-58.8	-71.8	3.8	8.46e-01	0	22	104	0	82	17378
2026-01-13 02:50:04.49	25.55	8.98	-58.8	-71.8	3.8	8.45e-01	0	22	104	0	82	17412
2026-01-13 02:50:05.48	25.56	9.07	-58.8	-71.8	3.8	8.45e-01	0	22	104	0	82	17398
2026-01-13 02:50:06.47	25.56	9.15	-58.7	-71.8	3.8	8.45e-01	0	22	104	0	82	17369
2026-01-13 02:50:07.47	25.56	9.23	-58.8	-71.8	3.8	8.45e-01	0	22	104	0	82	17396
2026-01-13 02:50:08.47	25.56	9.32	-58.8	-71.8	3.8	8.46e-01	0	22	104	0	82	17460
2026-01-13 02:50:09.47	25.56	9.40	-58.8	-71.8	3.8	8.47e-01	0	22	104	0	82	17398
2026-01-13 02:50:10.47	25.57	9.49	-58.8	-71.8	3.8	8.45e-01	0	22	104	0	82	17405
2026-01-13 02:50:11.47	25.57	9.57	-58.8	-71.8	3.8	8.46e-01	0	22	104	0	82	17430
2026-01-13 02:50:12.47	25.57	9.66	-58.8	-71.8	3.8	8.45e-01	0	22	104	0	82	17423
2026-01-13 02:50:13.46	25.57	9.74	-58.8	-71.8	3.8	8.46e-01	0	22	104	0	82	17438
2026-01-13 02:50:14.46	25.58	9.83	-58.8	-71.8	3.8	8.46e-01	0	22	104	0	82	17428
2026-01-13 02:50:15.45	25.58	9.91	-58.8	-71.8	3.8	8.47e-01	0	22	104	0	82	17384
2026-01-13 02:50:16.45	25.58	10.00	-58.8	-71.8	3.8	8.45e-01	0	22	104	0	82	17361
2026-01-13 02:50:17.46	25.58	10.09	-58.8	-71.8	3.8	8.46e-01	0	22	104	0	82	17418
2026-01-13 02:50:18.46	25.59	10.17	-58.8	-71.8	3.8	8.45e-01	0	22	104	0	82	17408
2026-01-13 02:50:19.45	25.59	10.26	-58.8	-71.8	3.8	8.45e-01	0	22	104	0	82	17444
2026-01-13 02:50:20.46	25.59	10.35	-58.8	-71.8	3.8	8.46e-01	0	22	104	0	82	17391
2026-01-13 02:50:21.45	25.59	10.43	-58.8	-71.8	3.8	8.45e-01	0	22	104	0	82	17374
2026-01-13 02:50:22.46	25.59	10.52	-58.8	-71.8	3.8	8.45e-01	0	22	104	0	82	17442
2026-01-13 02:50:23.46	25.60	10.61	-58.8	-71.8	3.8	8.46e-01	0	22	104	0	82	17395
2026-01-13 02:50:24.46	25.60	10.70	-58.8	-71.8	3.8	8.45e-01	0	22	104	0	82	17439
2026-01-13 02:50:25.46	25.60	10.79	-58.8	-71.8	3.8	8.44e-01	0	22	104	0	82	17414
2026-01-13 02:50:26.46	25.60	10.88	-58.7	-71.8	3.8	8.46e-01	0	22	104	0	82	17407
2026-01-13 02:50:27.47	25.60	10.97	-58.8	-71.8	3.8	8.46e-01	0	22	104	0	82	17337
2026-01-13 02:50:28.46	25.61	11.06	-58.8	-71.8	3.8	8.46e-01	0	22	104	0	82	17424
2026-01-13 02:50:29.46	25.61	11.15	-58.8	-71.8	3.8	8.46e-01	0	22	104	0	82	17446
2026-01-13 02:50:30.46	25.61	11.24	-58.8	-71.8	3.8	8.46e-01	0	22	104	0	82	17388
2026-01-13 02:50:31.47	25.61	11.33	-58.8	-71.8	3.8	8.46e-01	0	22	104	0	82	17429
2026-01-13 02:50:32.48	25.61	11.43	-58.8	-71.8	3.8	8.45e-01	0	22	104	0	82	17420
2026-01-13 02:50:33.48	25.62	11.52	-58.8	-71.8	3.8	8.46e-01	0	22	104	0	82	17427
2026-01-13 02:50:34.49	25.62	11.61	-58.8	-71.8	3.8	8.45e-01	0	22	104	0	82	17422
2026-01-13 02:50:35.49	25.62	11.70	-58.8	-71.8	3.8	8.45e-01	0	22	104	0	82	17368
2026-01-13 02:50:36.49	25.62	11.80	-58.8	-71.8	3.8	8.46e-01	0	22	104	0	82	17402
2026-01-13 02:50:37.50	25.62	11.89	-58.7	-71.8	3.8	8.46e-01	0	22	104	0	82	17342
2026-01-13 02:50:38.49	25.63	11.98	-58.8	-71.8	3.8	8.47e-01	0	22	104	0	82	17337
2026-01-13 02:50:39.49	25.63	12.08	-58.8	-71.8	3.8	8.45e-01	0	22	104	0	82	17373
2026-01-13 02:50:40.49	25.63	12.17	-58.8	-71.8	3.8	8.47e-01	0	22	104	0	82	17402
2026-01-13 02:50:41.48	25.63	12.27	-58.8	-71.8	3.8	8.46e-01	0	22	104	0	82	17397
2026-01-13 02:50:42.48	25.63	12.36	-58.8	-71.8	3.8	8.46e-01	0	22	104	0	82	17426
2026-01-13 02:50:43.48	25.64	12.46	-58.8	-71.8	3.8	8.46e-01	0	22	104	0	82	17431
2026-01-13 02:50:44.49	25.64	12.55	-58.8	-71.8	3.8	8.46e-01	0	22	104	0	82	17418
2026-01-13 02:50:45.49	25.64	12.65	-58.8	-71.8	3.8	8.46e-01	0	22	104	0	82	17381
2026-01-13 02:50:46.49	25.64	12.75	-58.8	-71.8	3.8	8.45e-01	0	22	104	0	82	17427
2026-01-13 02:50:47.49	25.64	12.84	-58.8	-71.8	3.8	8.45e-01	0	22	104	0	82	17384
2026-01-13 02:50:48.49	25.65	12.94	-58.8	-71.8	3.8	8.47e-01	0	22	104	0	82	17430
2026-01-13 02:50:49.49	25.65	13.04	-58.8	-71.8	3.8	8.46e-01	0	22	104	0	82	17403
2026-01-13 02:50:50.50	25.65	13.14	-58.8	-71.8	3.8	8.45e-01	0	22	104	0	82	17409
2026-01-13 02:50:51.50	25.65	13.24	-58.8	-71.8	3.8	8.46e-01	0	22	104	0	82	17415
2026-01-13 02:50:52.50	25.65	13.34	-58.8	-71.8	3.8	8.45e-01	0	22	104	0	82	17414
2026-01-13 02:50:53.50	25.65	13.44	-58.8	-71.8	3.8	8.46e-01	0	22	104	0	82	17445
2026-01-13 02:50:54.50	25.66	13.54	-58.7	-71.8	3.8	8.45e-01	0	22	104	0	82	17378
2026-01-13 02:50:55.50	25.66	13.64	-58.7	-71.8	3.8	8.45e-01	0	22	104	0	82	17380
2026-01-13 02:50:56.51	25.66	13.74	-58.8	-71.8	3.8	8.45e-01	0	22	104	0	82	17366
2026-01-13 02:50:57.51	25.66	13.84	-58.8	-71.8	3.8	8.45e-01	0	22	104	0	82	17398
2026-01-13 02:50:58.51	25.66	13.94	-58.8	-71.8	3.8	8.46e-01	0	22	104	0	82	17384
2026-01-13 02:50:59.51	25.66	14.04	-58.8	-71.8	3.8	8.45e-01	0	22	104	0	82	17421
2026-01-13 02:51:00.51	25.67	14.15	-58.8	-71.8	3.8	8.45e-01	0	22	104	0	82	17452
2026-01-13 02:51:01.52	25.67	14.25	-58.8	-71.8	3.8	8.45e-01	0	22	104	0	82	17386
2026-01-13 02:51:02.52	25.67	14.35	-58.8	-71.8	3.8	8.46e-01	0	22	104	0	82	17422
2026-01-13 02:51:03.51	25.67	14.46	-58.7	-71.8	3.8	8.45e-01	0	22	104	0	82	17368
2026-01-13 02:51:04.51	25.67	14.56	-58.8	-71.8	3.8	8.45e-01	0	22	104	0	82	17402
2026-01-13 02:51:05.51	25.67	14.66	-58.8	-71.8	3.8	8.46e-01	0	22	104	0	82	17397
2026-01-13 02:51:06.50	25.67	14.77	-58.8	-71.8	3.8	8.45e-01	0	22	104	0	82	17376
2026-01-13 02:51:07.50	25.68	14.87	-58.8	-71.8	3.8	8.45e-01	0	22	104	0	82	17337
2026-01-13 02:51:08.50	25.68	14.98	-58.8	-71.8	3.8	8.46e-01	0	22	104	0	82	17368
2026-01-13 02:51:09.50	25.68	15.09	-58.8	-71.8	3.8	8.47e-01	0	22	104	0	82	17377
2026-01-13 02:51:10.50	25.68	15.19	-58.8	-71.8	3.8	8.46e-01	0	22	104	0	82	17427
2026-01-13 02:51:11.49	25.68	15.30	-58.8	-71.8	3.8	8.46e-01	0	22	104	0	82	17362
2026-01-13 02:51:12.49	25.68	15.41	-58.8	-71.8	3.8	8.45e-01	0	22	104	0	82	17423
2026-01-13 02:51:13.49	25.68	15.52	-58.8	-71.8	3.8	8.47e-01	0	22	104	0	82	17382
2026-01-13 02:51:14.49	25.69	15.62	-58.8	-71.8	3.8	8.45e-01	0	22	104	0	82	17379
2026-01-13 02:51:15.49	25.69	15.73	-58.8	-71.8	3.8	8.45e-01	0	22	104	0	82	17390
2026-01-13 02:51:16.49	25.69	15.84	-58.8	-71.8	3.8	8.45e-01	0	22	104	0	82	17414
2026-01-13 02:51:17.49	25.69	15.95	-58.7	-71.8	3.8	8.44e-01	0	22	104	0	82	17382
2026-01-13 02:51:18.50	25.69	16.07	-58.7	-71.8	3.8	8.45e-01	0	22	104	0	82	17390
2026-01-13 02:51:19.50	25.69	16.18	-58.8	-71.8	3.8	8.45e-01	0	22	104	0	82	17399
2026-01-13 02:51:20.50	25.69	16.29	-58.8	-71.8	3.8	8.45e-01	0	22	104	0	82	17449
2026-01-13 02:51:21.50	25.69	16.40	-58.8	-71.8	3.8	8.46e-01	0	22	104	0	82	17455
2026-01-13 02:51:22.50	25.70	16.51	-58.8	-71.8	3.8	8.44e-01	0	22	104	0	82	17448
2026-01-13 02:51:23.51	25.70	16.63	-58.8	-71.8	3.8	8.46e-01	0	22	104	0	82	17429
2026-01-13 02:51:24.51	25.70	16.74	-58.8	-71.8	3.8	8.45e-01	0	22	104	0	82	17393
2026-01-13 02:51:25.51	25.70	16.86	-58.7	-71.8	3.8	8.45e-01	0	22	104	0	82	17366
2026-01-13 02:51:26.51	25.70	16.97	-58.7	-71.8	3.8	8.46e-01	0	22	104	0	82	17372
2026-01-13 02:51:27.51	25.70	17.09	-58.7	-71.8	3.8	8.46e-01	0	22	104	0	82	17385
2026-01-13 02:51:28.51	25.70	17.20	-58.7	-71.8	3.8	8.46e-01	0	23	104	0	82	17331
2026-01-13 02:51:29.52	25.70	17.32	-58.8	-71.8	3.8	8.45e-01	0	22	104	0	82	17413
2026-01-13 02:51:30.52	25.70	17.44	-58.8	-71.8	3.8	8.45e-01	0	23	104	0	82	17391
2026-01-13 02:51:31.53	25.70	17.56	-58.8	-71.8	3.8	8.45e-01	0	22	104	0	82	17390
2026-01-13 02:51:32.52	25.70	17.68	-58.7	-71.8	3.8	8.45e-01	0	23	104	0	82	17365
2026-01-13 02:51:33.52	25.71	17.79	-58.7	-71.8	3.8	8.45e-01	0	22	104	0	82	17355
2026-01-13 02:51:34.52	25.71	17.91	-58.8	-71.8	3.8	8.46e-01	0	22	104	0	82	17359
2026-01-13 02:51:35.52	25.71	18.03	-58.8	-71.8	3.8	8.46e-01	0	22	104	0	82	17439
2026-01-13 02:51:36.53	25.71	18.16	-58.8	-71.8	3.8	8.45e-01	0	23	104	0	82	17420
2026-01-13 02:51:37.52	25.71	18.28	-58.8	-71.8	3.8	8.46e-01	0	23	104	0	82	17373
2026-01-13 02:51:38.52	25.71	18.40	-58.8	-71.8	3.8	8.45e-01	0	22	104	0	82	17404
2026-01-13 02:51:39.51	25.71	18.52	-58.8	-71.8	3.8	8.45e-01	0	22	104	0	82	17382
2026-01-13 02:51:40.52	25.71	18.64	-58.8	-71.8	3.8	8.45e-01	0	22	104	0	82	17417
2026-01-13 02:51:41.51	25.71	18.77	-58.7	-71.8	3.8	8.46e-01	0	22	104	0	82	17344
2026-01-13 02:51:42.51	25.71	18.89	-58.8	-71.8	3.8	8.46e-01	0	22	104	0	82	17374
2026-01-13 02:51:43.50	25.71	19.02	-58.8	-71.8	3.8	8.45e-01	0	22	104	0	82	17426
2026-01-13 02:51:44.50	25.71	19.14	-58.8	-71.8	3.8	8.46e-01	0	22	104	0	82	17336
2026-01-13 02:51:45.49	25.71	19.27	-58.8	-71.8	3.8	8.46e-01	0	22	104	0	82	17398
2026-01-13 02:51:46.50	25.71	19.39	-58.8	-71.8	3.8	8.44e-01	0	22	104	0	82	17433
2026-01-13 02:51:47.50	25.71	19.52	-58.8	-71.8	3.8	8.45e-01	0	22	104	0	82	17357
2026-01-13 02:51:48.50	25.71	19.65	-58.8	-71.8	3.8	8.47e-01	0	22	104	0	82	17353
2026-01-13 02:51:49.50	25.72	19.78	-58.7	-71.8	3.8	8.46e-01	0	22	104	0	82	17349
2026-01-13 02:51:50.51	25.72	19.91	-58.8	-71.8	3.8	8.46e-01	0	22	104	0	82	17342
2026-01-13 02:51:51.51	25.72	20.04	-58.8	-71.8	3.8	8.45e-01	0	22	104	0	82	17409
2026-01-13 02:51:52.52	25.72	20.17	-58.7	-71.8	3.8	8.46e-01	0	22	104	0	82	17386
2026-01-13 02:51:53.52	25.72	20.30	-58.7	-71.8	3.8	8.46e-01	0	22	104	0	82	17371
2026-01-13 02:51:54.52	25.72	20.44	-58.8	-71.8	3.8	8.46e-01	0	22	104	0	82	17393
2026-01-13 02:51:55.52	25.72	20.57	-58.8	-71.8	3.8	8.46e-01	0	22	104	0	82	17398
2026-01-13 02:51:56.52	25.72	20.70	-58.7	-71.8	3.8	8.46e-01	0	22	104	0	82	17411
2026-01-13 02:51:57.51	25.72	20.84	-58.7	-71.8	3.8	8.46e-01	0	22	104	0	82	17371
2026-01-13 02:51:58.52	25.72	20.97	-58.8	-71.8	3.8	8.46e-01	0	22	104	0	82	17394
2026-01-13 02:51:59.52	25.72	21.11	-58.7	-71.8	3.8	8.46e-01	0	22	104	0	82	17388
2026-01-13 02:52:00.52	25.72	21.25	-58.8	-71.8	3.8	8.46e-01	0	22	104	0	82	17362
2026-01-13 02:52:01.53	25.72	21.38	-58.8	-71.8	3.8	8.45e-01	0	22	104	0	82	17401
2026-01-13 02:52:02.53	25.72	21.52	-58.8	-71.8	3.8	8.45e-01	0	22	104	0	82	17407
2026-01-13 02:52:03.53	25.72	21.66	-58.8	-71.8	3.8	8.46e-01	0	22	104	0	82	17372
2026-01-13 02:52:04.53	25.72	21.80	-58.7	-71.8	3.8	8.46e-01	0	22	104	0	82	17383
2026-01-13 02:52:05.53	25.72	21.94	-58.8	-71.8	3.8	8.46e-01	0	22	104	0	82	17432
2026-01-13 02:52:06.53	25.72	22.08	-58.8	-71.8	3.8	8.45e-01	0	22	104	0	82	17452
2026-01-13 02:52:07.53	25.72	22.23	-58.8	-71.8	3.8	8.45e-01	0	22	104	0	82	17466
2026-01-13 02:52:08.52	25.72	22.37	-58.8	-71.8	3.8	8.47e-01	0	22	104	0	82	17473
2026-01-13 02:52:09.52	25.72	22.51	-58.8	-71.8	3.8	8.46e-01	0	22	104	0	82	17478
2026-01-13 02:52:10.52	25.71	22.65	-58.8	-71.8	3.8	8.46e-01	0	23	104	0	82	17467
2026-01-13 02:52:11.52	25.71	22.80	-58.8	-71.8	3.8	8.46e-01	0	23	104	0	82	17462
2026-01-13 02:52:12.52	25.71	22.95	-58.8	-71.8	3.8	8.45e-01	0	23	104	0	82	17407
2026-01-13 02:52:13.51	25.71	23.09	-58.8	-71.9	3.8	8.46e-01	0	22	104	0	82	17489
2026-01-13 02:52:14.51	25.71	23.24	-58.8	-71.8	3.8	8.45e-01	0	23	104	0	82	17456
2026-01-13 02:52:15.51	25.71	23.39	-58.8	-71.8	3.8	8.45e-01	0	22	104	0	82	17467
2026-01-13 02:52:16.51	25.71	23.54	-58.8	-71.9	3.8	8.45e-01	0	22	104	0	82	17523
2026-01-13 02:52:17.51	25.71	23.69	-58.8	-71.9	3.8	8.47e-01	0	22	104	0	82	17511
2026-01-13 02:52:18.51	25.71	23.84	-58.8	-71.8	3.8	8.46e-01	0	23	104	0	82	17451
2026-01-13 02:52:19.50	25.71	23.99	-58.8	-71.8	3.8	8.46e-01	0	22	104	0	82	17452
2026-01-13 02:52:20.50	25.71	24.14	-58.8	-71.8	3.8	8.46e-01	0	23	104	0	82	17432
2026-01-13 02:52:21.50	25.71	24.30	-58.8	-71.8	3.8	8.46e-01	0	22	104	0	82	17430
2026-01-13 02:52:22.50	25.71	24.45	-58.8	-71.8	3.8	8.46e-01	0	22	104	0	82	17449
2026-01-13 02:52:23.50	25.71	24.61	-58.8	-71.8	3.8	8.44e-01	0	23	104	0	82	17449
2026-01-13 02:52:24.50	25.70	24.76	-58.8	-71.8	3.8	8.44e-01	0	23	104	0	82	17385
2026-01-13 02:52:25.49	25.70	24.92	-58.8	-71.8	3.8	8.45e-01	0	22	104	0	82	17415
2026-01-13 02:52:26.49	25.70	25.08	-58.8	-71.8	3.8	8.46e-01	0	22	104	0	82	17432
2026-01-13 02:52:27.49	25.70	25.24	-58.8	-71.8	3.8	8.46e-01	0	22	104	0	82	17443
2026-01-13 02:52:28.49	25.70	25.40	-58.8	-71.8	3.8	8.46e-01	0	22	104	0	82	17438
2026-01-13 02:52:29.50	25.70	25.56	-58.8	-71.8	3.8	8.46e-01	0	23	104	0	82	17460
2026-01-13 02:52:30.50	25.70	25.73	-58.8	-71.8	3.8	8.45e-01	0	23	104	0	82	17446
2026-01-13 02:52:31.49	25.70	25.89	-58.8	-71.8	3.8	8.44e-01	0	22	104	0	82	17465
2026-01-13 02:52:32.49	25.69	26.05	-58.8	-71.9	3.8	8.46e-01	0	22	104	0	82	17492
2026-01-13 02:52:33.49	25.69	26.22	-58.8	-71.8	3.8	8.46e-01	0	22	104	0	82	17387
2026-01-13 02:52:34.50	25.69	26.39	-58.8	-71.8	3.8	8.45e-01	0	22	104	0	82	17436
2026-01-13 02:52:35.50	25.69	26.55	-58.8	-71.8	3.8	8.45e-01	0	23	104	0	82	17442
2026-01-13 02:52:36.50	25.69	26.72	-58.8	-71.8	3.8	8.45e-01	0	22	104	0	82	17443
2026-01-13 02:52:37.50	25.69	26.89	-58.8	-71.8	3.8	8.45e-01	0	22	104	0	82	17367
2026-01-13 02:52:38.50	25.68	27.06	-58.8	-71.8	3.8	8.45e-01	0	22	104	0	82	17417
2026-01-13 02:52:39.51	25.68	27.24	-58.8	-71.8	3.8	8.44e-01	0	22	104	0	82	17407
2026-01-13 02:52:40.51	25.68	27.41	-58.8	-71.8	3.8	8.47e-01	0	23	104	0	82	17389
2026-01-13 02:52:41.51	25.68	27.58	-58.8	-71.8	3.8	8.45e-01	0	22	104	0	82	17413
2026-01-13 02:52:42.51	25.67	27.76	-58.8	-71.8	3.8	8.45e-01	0	22	104	0	82	17388
2026-01-13 02:52:43.51	25.67	27.93	-58.8	-71.8	3.8	8.46e-01	0	23	104	0	82	17389
2026-01-13 02:52:44.51	25.67	28.11	-58.8	-71.8	3.8	8.46e-01	0	23	104	0	82	17438
2026-01-13 02:52:45.51	25.67	28.29	-58.8	-71.8	3.8	8.45e-01	0	23	104	0	82	17416
2026-01-13 02:52:46.51	25.67	28.47	-58.7	-71.8	3.8	8.44e-01	0	23	104	0	82	17362
2026-01-13 02:52:47.51	25.66	28.65	-58.8	-71.8	3.8	8.44e-01	0	23	104	0	82	17376
2026-01-13 02:52:48.51	25.66	28.83	-58.8	-71.8	3.8	8.45e-01	0	23	104	0	82	17377
2026-01-13 02:52:49.52	25.66	29.02	-58.8	-71.8	3.8	8.45e-01	0	23	104	0	82	17399
2026-01-13 02:52:50.52	25.66	29.20	-58.8	-71.8	3.8	8.45e-01	0	22	104	0	82	17434
2026-01-13 02:52:51.52	25.65	29.39	-58.8	-71.8	3.8	8.46e-01	0	22	104	0	82	17404
2026-01-13 02:52:52.52	25.65	29.58	-58.8	-71.8	3.8	8.45e-01	0	23	104	0	82	17386
2026-01-13 02:52:53.53	25.65	29.77	-58.8	-71.8	3.8	8.45e-01	0	23	104	0	82	17397
2026-01-13 02:52:54.53	25.64	29.96	-58.8	-71.8	3.8	8.46e-01	0	23	104	0	82	17430
2026-01-13 02:52:55.52	25.64	30.15	-58.8	-71.8	3.8	8.45e-01	0	23	104	0	82	17394
2026-01-13 02:52:56.53	25.64	30.34	-58.8	-71.8	3.8	8.46e-01	0	23	104	0	82	17360
2026-01-13 02:52:57.52	25.63	30.53	-58.8	-71.8	3.8	8.45e-01	0	23	104	0	82	17356
2026-01-13 02:52:58.53	25.63	30.73	-58.8	-71.8	3.8	8.46e-01	0	23	104	0	82	17347
2026-01-13 02:52:59.53	25.63	30.92	-58.8	-71.8	3.8	8.46e-01	0	23	104	0	82	17347
2026-01-13 02:53:00.53	25.62	31.12	-58.8	-71.8	3.8	8.46e-01	0	23	104	0	82	17331
2026-01-13 02:53:01.53	25.62	31.32	-58.8	-71.8	3.8	8.45e-01	0	22	104	0	82	17363
2026-01-13 02:53:02.53	25.62	31.52	-58.8	-71.8	3.8	8.46e-01	0	23	104	0	82	17423
2026-01-13 02:53:03.53	25.61	31.72	-58.8	-71.8	3.8	8.46e-01	0	23	104	0	82	17336
2026-01-13 02:53:04.52	25.61	31.92	-58.8	-71.8	3.8	8.45e-01	0	23	104	0	82	17373
2026-01-13 02:53:05.53	25.60	32.13	-58.8	-71.8	3.8	8.46e-01	0	23	104	0	82	17401
2026-01-13 02:53:06.53	25.60	32.33	-58.8	-71.8	3.8	8.46e-01	0	23	104	0	82	17404
2026-01-13 02:53:07.52	25.60	32.54	-58.8	-71.8	3.8	8.46e-01	0	22	104	0	82	17423
2026-01-13 02:53:08.53	25.59	32.75	-58.8	-71.8	3.8	8.45e-01	0	23	104	0	82	17375
2026-01-13 02:53:09.52	25.59	32.96	-58.8	-71.8	3.8	8.46e-01	0	23	104	0	82	17366
2026-01-13 02:53:10.52	25.58	33.17	-58.8	-71.8	3.8	8.45e-01	0	23	104	0	82	17390
2026-01-13 02:53:11.53	25.58	33.38	-58.8	-71.8	3.8	8.46e-01	0	23	104	0	82	17372
2026-01-13 02:53:12.53	25.57	33.60	-58.8	-71.8	3.8	8.47e-01	0	23	104	0	82	17357
2026-01-13 02:53:13.52	25.57	33.81	-58.8	-71.8	3.8	8.46e-01	0	23	104	0	82	17383
2026-01-13 02:53:14.52	25.56	34.03	-58.8	-71.8	3.8	8.46e-01	0	23	104	0	82	17370
2026-01-13 02:53:15.53	25.56	34.25	-58.8	-71.8	3.8	8.46e-01	0	23	104	0	82	17322
2026-01-13 02:53:16.52	25.55	34.47	-58.8	-71.7	3.8	8.45e-01	0	23	104	0	82	17214
2026-01-13 02:53:17.53	25.55	34.69	-58.8	-71.7	3.8	8.45e-01	0	23	104	0	82	17228
2026-01-13 02:53:18.52	25.54	34.91	-58.8	-71.7	3.8	8.46e-01	0	23	104	0	82	17232
2026-01-13 02:53:19.53	25.53	35.14	-58.8	-71.7	3.8	8.46e-01	0	23	104	0	82	17247
2026-01-13 02:53:20.52	25.53	35.37	-58.8	-71.7	3.8	8.46e-01	0	23	104	0	82	17246
2026-01-13 02:53:21.52	25.52	35.60	-58.8	-71.7	3.8	8.46e-01	0	23	104	0	82	17263
2026-01-13 02:53:22.53	25.52	35.83	-58.8	-71.7	3.8	8.45e-01	0	23	104	0	82	17242
2026-01-13 02:53:23.53	25.51	36.06	-58.8	-71.7	3.8	8.45e-01	0	23	104	0	82	17183
2026-01-13 02:53:24.52	25.50	36.29	-58.7	-71.7	3.8	8.46e-01	0	23	104	0	82	17202
2026-01-13 02:53:25.52	25.50	36.53	-58.7	-71.7	3.8	8.46e-01	0	23	104	0	82	17211
2026-01-13 02:53:26.52	25.49	36.76	-58.8	-71.8	3.8	8.45e-01	0	23	104	0	82	17325
2026-01-13 02:53:27.53	25.48	37.01	-58.8	-71.8	3.8	8.46e-01	0	23	104	0	82	17306
2026-01-13 02:53:28.53	25.48	37.25	-58.8	-71.8	3.8	8.45e-01	0	22	104	0	82	17386
2026-01-13 02:53:29.52	25.47	37.49	-58.8	-71.8	3.8	8.46e-01	0	23	104	0	82	17359
2026-01-13 02:53:30.52	25.46	37.73	-58.8	-71.8	3.8	8.46e-01	0	23	104	0	82	17291
2026-01-13 02:53:31.53	25.45	37.98	-58.8	-71.7	3.8	8.46e-01	0	23	104	0	82	17243
2026-01-13 02:53:32.53	25.45	38.23	-58.8	-71.7	3.8	8.47e-01	0	23	104	0	82	17195
2026-01-13 02:53:33.53	25.44	38.48	-58.8	-71.7	3.8	8.46e-01	0	23	104	0	82	17136
2026-01-13 02:53:34.53	25.43	38.73	-58.8	-71.7	3.8	8.46e-01	0	23	104	0	82	17246
2026-01-13 02:53:35.52	25.42	38.98	-58.8	-71.8	3.8	8.45e-01	0	23	104	0	82	17327
2026-01-13 02:53:36.52	25.41	39.23	-58.8	-71.8	3.8	8.46e-01	0	23	104	0	82	17331
2026-01-13 02:53:37.52	25.40	39.49	-58.8	-71.8	3.8	8.46e-01	0	23	104	0	82	17286
2026-01-13 02:53:38.52	25.40	39.75	-58.8	-71.7	3.8	8.46e-01	0	23	104	0	82	17231
2026-01-13 02:53:39.52	25.39	40.01	-58.8	-71.6	3.8	8.46e-01	0	23	104	0	82	17042
2026-01-13 02:53:40.52	25.38	40.27	-58.8	-71.6	3.8	8.45e-01	0	23	104	0	82	16984
2026-01-13 02:53:41.52	25.37	40.54	-58.8	-71.7	3.8	8.45e-01	0	23	104	0	82	17182
2026-01-13 02:53:42.52	25.36	40.80	-58.8	-71.8	3.8	8.46e-01	0	22	104	0	82	17324
2026-01-13 02:53:43.52	25.35	41.07	-58.8	-71.8	3.8	8.45e-01	0	23	104	0	82	17402
2026-01-13 02:53:44.52	25.34	41.34	-58.8	-71.8	3.8	8.46e-01	0	23	104	0	82	17357
2026-01-13 02:53:45.52	25.33	41.62	-58.8	-71.7	3.8	8.44e-01	0	22	104	0	82	17220
2026-01-13 02:53:46.53	25.32	41.89	-58.7	-71.6	3.8	8.46e-01	0	23	104	0	82	16928
2026-01-13 02:53:47.52	25.31	42.17	-58.7	-71.4	3.8	8.45e-01	0	23	104	0	82	16586
2026-01-13 02:53:48.52	25.29	42.45	-58.7	-71.3	3.8	8.45e-01	0	22	104	0	82	16317
2026-01-13 02:53:49.52	25.28	42.73	-58.7	-71.3	3.8	8.46e-01	0	23	104	0	82	16487
2026-01-13 02:53:50.51	25.27	43.01	-58.7	-71.6	3.8	8.46e-01	0	23	104	0	82	16904
2026-01-13 02:53:51.51	25.26	43.30	-58.8	-71.7	3.8	8.46e-01	0	23	104	0	82	17243
2026-01-13 02:53:52.51	25.25	43.58	-58.8	-71.8	3.8	8.45e-01	0	23	104	0	82	17391
2026-01-13 02:53:53.52	25.23	43.88	-58.8	-71.7	3.8	8.46e-01	0	23	104	0	82	17207
2026-01-13 02:53:54.52	25.22	44.17	-58.8	-71.5	3.8	8.46e-01	0	23	104	0	82	16741
2026-01-13 02:53:55.52	25.21	44.46	-58.7	-71.3	3.8	8.47e-01	0	23	104	0	82	16490
2026-01-13 02:53:56.53	25.19	44.76	-58.7	-71.4	3.8	8.46e-01	0	23	104	0	82	16522
2026-01-13 02:53:57.54	25.18	45.06	-58.7	-71.5	3.8	8.46e-01	0	23	104	0	82	16766
2026-01-13 02:53:58.54	25.16	45.36	-58.8	-71.7	3.8	8.46e-01	0	23	104	0	82	17135
2026-01-13 02:53:59.54	25.15	45.67	-58.8	-71.8	3.8	8.45e-01	0	22	104	0	82	17337
2026-01-13 02:54:00.54	25.14	45.97	-58.8	-71.8	3.8	8.46e-01	0	23	104	0	82	17463
2026-01-13 02:54:01.54	25.12	46.28	-58.8	-71.7	3.8	8.46e-01	0	23	104	0	82	17275
2026-01-13 02:54:02.54	25.10	46.59	-58.8	-71.7	3.8	8.46e-01	0	23	104	0	82	17127
2026-01-13 02:54:03.54	25.09	46.90	-58.7	-71.5	3.8	8.46e-01	0	23	104	0	82	16713
2026-01-13 02:54:04.53	25.07	47.22	-58.7	-71.4	3.8	8.46e-01	0	23	104	0	82	16692
2026-01-13 02:54:05.53	25.05	47.53	-58.8	-71.6	3.8	8.45e-01	0	23	104	0	82	17011
2026-01-13 02:54:06.53	25.04	47.85	-58.8	-71.7	3.8	8.45e-01	0	23	104	0	82	17214
2026-01-13 02:54:07.52	25.02	48.17	-58.8	-71.8	3.8	8.46e-01	0	23	104	0	82	17396
2026-01-13 02:54:08.51	25.00	48.49	-58.8	-71.7	3.8	8.46e-01	0	23	104	0	82	17262
2026-01-13 02:54:09.51	24.98	48.82	-58.8	-71.6	3.8	8.45e-01	0	23	104	0	82	16928
2026-01-13 02:54:10.52	24.96	49.15	-58.8	-71.6	3.8	8.45e-01	0	23	104	0	82	16894
2026-01-13 02:54:11.52	24.94	49.48	-58.8	-71.7	3.8	8.46e-01	0	23	104	0	82	17158
2026-01-13 02:54:12.52	24.92	49.82	-58.8	-71.7	3.8	8.44e-01	0	23	104	0	82	17253
2026-01-13 02:54:13.51	24.90	50.15	-58.8	-71.7	3.8	8.46e-01	0	23	104	0	82	17267
2026-01-13 02:54:14.51	24.88	50.49	-58.8	-71.8	3.8	8.46e-01	0	22	104	0	82	17427
2026-01-13 02:54:15.51	24.86	50.83	-58.8	-71.8	3.8	8.45e-01	0	23	104	0	82	17395
2026-01-13 02:54:16.51	24.84	51.18	-58.8	-71.8	3.8	8.45e-01	0	23	104	0	82	17293
2026-01-13 02:54:17.50	24.81	51.52	-58.7	-71.7	3.8	8.45e-01	0	23	104	0	82	17242
2026-01-13 02:54:18.50	24.79	51.87	-58.7	-71.7	3.8	8.45e-01	0	22	104	0	82	17226
2026-01-13 02:54:19.50	24.76	52.22	-58.8	-71.8	3.8	8.46e-01	0	23	104	0	82	17371
2026-01-13 02:54:20.50	24.74	52.58	-58.8	-71.8	3.8	8.45e-01	0	23	104	0	82	17348
2026-01-13 02:54:21.50	24.71	52.93	-58.8	-71.7	3.8	8.45e-01	0	22	104	0	82	17255
2026-01-13 02:54:22.50	24.69	53.29	-58.8	-71.8	3.8	8.45e-01	0	23	104	0	82	17380
2026-01-13 02:54:23.50	24.66	53.65	-58.8	-71.8	3.8	8.46e-01	0	23	104	0	82	17428
2026-01-13 02:54:24.50	24.63	54.02	-58.8	-71.8	3.8	8.47e-01	0	23	104	0	82	17315
2026-01-13 02:54:25.50	24.60	54.39	-58.8	-71.7	3.8	8.45e-01	0	23	104	0	82	17237
2026-01-13 02:54:26.50	24.57	54.76	-58.7	-71.5	3.8	8.46e-01	0	23	104	0	82	16784
2026-01-13 02:54:27.50	24.54	55.13	-58.8	-71.7	3.8	8.46e-01	0	23	104	0	82	17226
2026-01-13 02:54:28.50	24.51	55.51	-58.8	-71.8	3.8	8.45e-01	0	23	104	0	82	17392
2026-01-13 02:54:29.49	24.48	55.88	-58.8	-71.8	3.8	8.46e-01	0	23	104	0	82	17367
2026-01-13 02:54:30.49	24.44	56.26	-58.7	-71.8	3.8	8.45e-01	0	23	104	0	82	17294
2026-01-13 02:54:31.49	24.41	56.64	-58.7	-71.7	3.8	8.44e-01	0	23	104	0	82	17090
2026-01-13 02:54:32.49	24.37	57.03	-58.8	-71.8	3.8	8.45e-01	0	23	104	0	82	17322
2026-01-13 02:54:33.49	24.33	57.42	-58.7	-71.7	3.8	8.46e-01	0	23	104	0	82	17236
2026-01-13 02:54:34.49	24.30	57.81	-58.7	-71.6	3.8	8.46e-01	0	23	104	0	82	17055
2026-01-13 02:54:35.50	24.26	58.21	-58.7	-71.4	3.8	8.46e-01	0	22	104	0	82	16659
2026-01-13 02:54:36.50	24.22	58.60	-58.7	-70.7	3.8	8.46e-01	0	23	104	0	82	15271
2026-01-13 02:54:37.49	24.17	59.00	-58.6	-69.6	3.8	8.45e-01	0	23	104	0	82	13435
2026-01-13 02:54:38.49	24.13	59.40	-58.6	-69.2	4.0	8.41e-01	0	23	0	0	82	12886
2026-01-13 02:54:39.48	24.09	59.80	-58.6	-70.5	3.8	8.45e-01	0	22	104	0	82	14901
2026-01-13 02:54:40.48	24.04	60.21	-58.7	-71.4	3.8	8.45e-01	0	23	104	0	82	16516
2026-01-13 02:54:41.49	23.99	60.62	-58.7	-71.8	3.8	8.46e-01	0	23	104	0	82	17299
2026-01-13 02:54:42.49	23.94	61.03	-58.7	-71.6	3.8	8.46e-01	0	23	104	0	82	16959
2026-01-13 02:54:43.49	23.89	61.45	-58.7	-71.3	3.8	8.45e-01	0	23	104	0	82	16343
2026-01-13 02:54:44.48	23.83	61.86	-58.7	-71.6	3.8	8.46e-01	0	23	104	0	82	17008
2026-01-13 02:54:45.48	23.78	62.28	-58.7	-70.5	3.8	8.45e-01	0	23	104	0	82	15049
2026-01-13 02:54:46.47	23.72	62.70	-58.7	-70.7	3.8	8.46e-01	0	23	104	0	82	15360
2026-01-13 02:54:47.47	23.66	63.12	-58.7	-71.7	3.8	8.45e-01	0	23	104	0	82	17209
2026-01-13 02:54:48.47	23.60	63.55	-58.8	-71.8	3.8	8.46e-01	0	23	104	0	82	17336
2026-01-13 02:54:49.47	23.53	63.98	-58.7	-71.5	3.8	8.45e-01	0	23	104	0	82	16786
2026-01-13 02:54:50.47	23.47	64.41	-58.8	-71.8	3.8	8.44e-01	0	23	104	0	82	17334
2026-01-13 02:54:51.47	23.40	64.85	-58.8	-71.6	3.8	8.46e-01	0	23	104	0	82	16986
2026-01-13 02:54:52.47	23.32	65.29	-58.7	-71.4	3.8	8.46e-01	0	23	104	0	82	16607
2026-01-13 02:54:53.46	23.25	65.72	-58.7	-70.7	3.8	8.46e-01	0	23	104	0	82	15331
2026-01-13 02:54:54.47	23.17	66.17	-58.7	-71.6	3.8	8.45e-01	0	23	104	0	82	17070
2026-01-13 02:54:55.48	23.08	66.62	-58.8	-71.8	3.8	8.46e-01	0	23	104	0	82	17327
2026-01-13 02:54:56.48	23.00	67.07	-58.7	-71.8	3.8	8.46e-01	0	23	104	0	82	17325
2026-01-13 02:54:57.48	22.91	67.52	-58.7	-71.6	3.8	8.46e-01	0	23	104	0	82	16993
2026-01-13 02:54:58.48	22.81	67.97	-58.7	-71.3	3.8	8.45e-01	0	23	104	0	82	16357
2026-01-13 02:54:59.48	22.71	68.42	-58.7	-71.7	3.8	8.48e-01	0	23	104	0	82	17177
2026-01-13 02:55:00.48	22.61	68.88	-58.7	-71.5	3.8	8.46e-01	0	23	104	0	82	16887
2026-01-13 02:55:01.48	22.50	69.34	-58.7	-71.6	3.8	8.46e-01	0	23	104	0	82	16893
2026-01-13 02:55:02.48	22.38	69.80	-58.7	-71.7	3.8	8.46e-01	0	23	104	0	82	17185
2026-01-13 02:55:03.48	22.26	70.26	-58.7	-71.5	3.8	8.45e-01	0	23	104	0	82	16791
2026-01-13 02:55:04.48	22.14	70.73	-58.7	-71.6	3.8	8.45e-01	0	22	104	0	82	16917
2026-01-13 02:55:05.48	22.00	71.19	-58.7	-71.5	3.8	8.46e-01	0	23	104	0	82	16703
2026-01-13 02:55:06.48	21.86	71.66	-58.7	-71.4	3.8	8.45e-01	0	23	104	0	82	16682
2026-01-13 02:55:07.48	21.71	72.14	-58.7	-71.6	3.8	8.45e-01	0	23	104	0	82	16912
2026-01-13 02:55:08.48	21.55	72.61	-58.7	-71.7	3.8	8.46e-01	0	23	104	0	82	17161
2026-01-13 02:55:09.48	21.38	73.08	-58.8	-71.8	3.8	8.46e-01	0	23	104	0	82	17403
2026-01-13 02:55:10.48	21.20	73.56	-58.7	-71.8	3.8	8.46e-01	0	23	104	0	82	17333
2026-01-13 02:55:11.48	21.01	74.04	-58.7	-71.8	3.8	8.47e-01	0	23	104	0	82	17352
2026-01-13 02:55:12.49	20.81	74.53	-58.7	-71.8	3.8	8.46e-01	0	23	104	0	82	17339
2026-01-13 02:55:13.48	20.59	75.00	-58.7	-71.8	3.8	8.46e-01	0	23	104	0	82	17341
2026-01-13 02:55:14.48	20.36	75.49	-58.7	-71.8	3.8	8.46e-01	0	23	104	0	82	17321
2026-01-13 02:55:15.48	20.11	75.97	-58.7	-71.7	3.8	8.45e-01	0	23	104	0	82	17267
2026-01-13 02:55:16.48	19.84	76.46	-58.7	-71.5	3.8	8.46e-01	0	23	104	0	82	16774
2026-01-13 02:55:17.48	19.55	76.95	-58.7	-71.5	3.8	8.46e-01	0	23	104	0	82	16737
2026-01-13 02:55:18.47	19.24	77.43	-58.7	-71.4	3.8	8.46e-01	0	23	104	0	82	16660
2026-01-13 02:55:19.47	18.90	77.92	-58.7	-71.6	3.8	8.47e-01	0	23	104	0	82	16939
2026-01-13 02:55:20.47	18.54	78.41	-58.7	-71.6	3.8	8.47e-01	0	23	104	0	82	16937
2026-01-13 02:55:21.46	18.14	78.90	-58.7	-71.5	3.8	8.45e-01	0	23	104	0	82	16809
2026-01-13 02:55:22.46	17.70	79.39	-58.7	-71.5	3.8	8.46e-01	0	23	104	0	82	16795
2026-01-13 02:55:23.46	17.21	79.89	-58.7	-71.4	3.8	8.47e-01	0	23	104	0	82	16504
2026-01-13 02:55:24.46	16.68	80.38	-58.7	-71.3	3.8	8.46e-01	0	23	104	0	82	16315
2026-01-13 02:55:25.46	16.08	80.88	-58.7	-71.2	3.8	8.45e-01	0	23	104	0	82	16311
2026-01-13 02:55:26.46	15.42	81.37	-58.7	-71.4	3.8	8.45e-01	0	23	104	0	82	16688
2026-01-13 02:55:27.46	14.67	81.87	-58.7	-71.7	3.8	8.45e-01	0	23	104	0	82	17212
2026-01-13 02:55:28.45	13.83	82.35	-58.7	-71.8	3.8	8.47e-01	0	23	104	0	82	17300
2026-01-13 02:55:29.45	12.87	82.85	-58.7	-71.8	3.8	8.45e-01	0	23	104	0	82	17286
2026-01-13 02:55:30.45	11.76	83.34	-58.7	-71.6	3.8	8.46e-01	0	23	104	0	82	16960
2026-01-13 02:55:31.45	10.47	83.83	-58.7	-71.6	3.8	8.47e-01	0	23	104	0	82	16962
2026-01-13 02:55:32.45	8.97	84.32	-58.7	-71.6	3.8	8.46e-01	0	23	104	0	82	17070
2026-01-13 02:55:33.45	7.17	84.80	-58.7	-71.7	3.8	8.45e-01	0	23	104	0	82	17092
2026-01-13 02:55:34.45	5.01	85.28	-58.7	-71.7	3.8	8.45e-01	0	23	104	0	82	17249
2026-01-13 02:55:35.46	2.34	85.75	-58.7	-71.7	3.8	8.47e-01	0	23	104	0	82	17266
2026-01-13 02:55:36.46	359.04	86.21	-58.7	-71.7	3.8	8.46e-01	0	23	104	0	82	17278
2026-01-13 02:55:37.47	354.80	86.65	-58.7	-71.6	3.8	8.45e-01	0	23	104	0	82	17073
2026-01-13 02:55:38.47	349.35	87.07	-58.7	-71.6	3.8	8.46e-01	0	23	104	0	82	16907
2026-01-13 02:55:39.47	342.17	87.46	-58.7	-71.6	3.8	8.46e-01	0	23	104	0	82	17072
2026-01-13 02:55:40.46	332.73	87.79	-58.7	-71.7	3.8	8.46e-01	0	23	104	0	82	17094
2026-01-13 02:55:41.46	320.35	88.04	-58.7	-71.8	3.8	8.45e-01	0	23	104	0	82	17311
2026-01-13 02:55:42.46	305.26	88.18	-58.7	-71.7	3.8	8.45e-01	0	23	104	0	82	17279
2026-01-13 02:55:43.46	289.03	88.17	-58.7	-71.7	3.8	8.46e-01	0	23	104	0	82	17153
2026-01-13 02:55:44.46	274.04	88.03	-58.7	-71.6	3.8	8.45e-01	0	23	104	0	82	17054
2026-01-13 02:55:45.46	261.78	87.77	-58.7	-71.6	3.8	8.45e-01	0	23	104	0	82	16983
2026-01-13 02:55:46.46	252.38	87.44	-58.7	-71.6	3.8	8.45e-01	0	23	104	0	82	17068
2026-01-13 02:55:47.45	245.36	87.06	-58.7	-71.7	3.8	8.45e-01	0	23	104	0	82	17192
2026-01-13 02:55:48.45	239.98	86.64	-58.7	-71.7	3.8	8.46e-01	0	23	104	0	82	17202
2026-01-13 02:55:49.45	235.82	86.19	-58.7	-71.7	3.8	8.45e-01	0	23	104	0	82	17198
2026-01-13 02:55:50.45	232.54	85.73	-58.7	-71.6	3.8	8.46e-01	0	23	104	0	82	17078
2026-01-13 02:55:51.45	229.91	85.26	-58.7	-71.6	3.8	8.45e-01	0	23	104	0	82	17038
2026-01-13 02:55:52.45	227.77	84.79	-58.7	-71.6	3.8	8.46e-01	0	23	104	0	82	16991
2026-01-13 02:55:53.45	225.98	84.30	-58.7	-71.7	3.8	8.45e-01	0	23	104	0	82	17103
2026-01-13 02:55:54.45	224.48	83.82	-58.7	-71.7	3.8	8.46e-01	0	23	104	0	82	17149
2026-01-13 02:55:55.45	223.20	83.33	-58.7	-71.7	3.8	8.45e-01	0	23	104	0	82	17161
2026-01-13 02:55:56.45	222.09	82.83	-58.7	-71.7	3.8	8.46e-01	0	23	104	0	82	17231
2026-01-13 02:55:57.45	221.13	82.34	-58.7	-71.7	3.8	8.46e-01	0	23	104	0	82	17222
2026-01-13 02:55:58.45	220.29	81.85	-58.7	-71.7	3.8	8.47e-01	0	23	104	0	82	17200
2026-01-13 02:55:59.44	219.55	81.36	-58.7	-71.7	3.8	8.46e-01	0	23	104	0	82	17194
2026-01-13 02:56:00.45	218.88	80.86	-58.7	-71.7	3.8	8.45e-01	0	23	104	0	82	17164
2026-01-13 02:56:01.45	218.29	80.36	-58.7	-71.7	3.8	8.45e-01	0	23	104	0	82	17123
2026-01-13 02:56:02.45	217.75	79.87	-58.7	-71.7	3.8	8.46e-01	0	23	104	0	82	17186
2026-01-13 02:56:03.45	217.27	79.37	-58.7	-71.7	3.8	8.46e-01	0	23	104	0	82	17209
2026-01-13 02:56:04.45	216.83	78.88	-58.8	-71.7	3.8	8.45e-01	0	23	104	0	82	17224
2026-01-13 02:56:05.45	216.43	78.39	-58.7	-71.7	3.8	8.46e-01	0	23	104	0	82	17271
2026-01-13 02:56:06.45	216.06	77.89	-58.7	-71.7	3.8	8.46e-01	0	23	104	0	82	17191
2026-01-13 02:56:07.45	215.73	77.40	-58.7	-71.7	3.8	8.45e-01	0	23	104	0	82	17155
2026-01-13 02:56:08.45	215.42	76.91	-58.7	-71.7	3.8	8.44e-01	0	23	104	0	82	17213
2026-01-13 02:56:09.45	215.13	76.43	-58.7	-71.7	3.8	8.46e-01	0	23	104	0	82	17248
2026-01-13 02:56:10.44	214.86	75.94	-58.7	-71.8	3.8	8.45e-01	0	23	104	0	82	17304
2026-01-13 02:56:11.43	214.62	75.46	-58.7	-71.8	3.8	8.46e-01	0	23	104	0	82	17296
2026-01-13 02:56:12.43	214.39	74.98	-58.7	-71.7	3.8	8.46e-01	0	23	104	0	82	17238
2026-01-13 02:56:13.43	214.17	74.50	-58.7	-71.8	3.8	8.45e-01	0	23	104	0	82	17306
2026-01-13 02:56:14.43	213.97	74.01	-58.7	-71.8	3.8	8.46e-01	0	23	104	0	82	17295
2026-01-13 02:56:15.43	213.78	73.53	-58.7	-71.8	3.8	8.45e-01	0	23	104	0	82	17296
2026-01-13 02:56:16.42	213.60	73.06	-58.7	-71.7	3.8	8.47e-01	0	23	104	0	82	17245
2026-01-13 02:56:17.41	213.43	72.59	-58.7	-71.7	3.8	8.46e-01	0	23	104	0	82	17281
2026-01-13 02:56:18.41	213.27	72.12	-58.7	-71.7	3.8	8.46e-01	0	23	104	0	82	17279
2026-01-13 02:56:19.40	213.12	71.65	-58.7	-71.7	3.8	8.46e-01	0	23	104	0	82	17262
2026-01-13 02:56:20.40	212.98	71.18	-58.7	-71.8	3.8	8.46e-01	0	23	104	0	82	17302
2026-01-13 02:56:21.40	212.85	70.71	-58.7	-71.7	3.8	8.46e-01	0	23	104	0	82	17250
2026-01-13 02:56:22.40	212.72	70.24	-58.7	-71.7	3.8	8.46e-01	0	23	104	0	82	17272
2026-01-13 02:56:23.41	212.60	69.78	-58.7	-71.7	3.8	8.44e-01	0	23	104	0	82	17275
2026-01-13 02:56:24.40	212.48	69.32	-58.7	-71.8	3.8	8.45e-01	0	23	104	0	82	17299
2026-01-13 02:56:25.40	212.37	68.86	-58.7	-71.7	3.8	8.45e-01	0	23	104	0	82	17258
2026-01-13 02:56:26.40	212.27	68.40	-58.7	-71.8	3.8	8.46e-01	0	23	104	0	82	17347
2026-01-13 02:56:27.40	212.17	67.95	-58.7	-71.8	3.8	8.47e-01	0	23	104	0	82	17315
2026-01-13 02:56:28.39	212.08	67.50	-58.7	-71.8	3.8	8.45e-01	0	23	104	0	82	17311
2026-01-13 02:56:29.40	211.98	67.04	-58.7	-71.8	3.8	8.46e-01	0	23	104	0	82	17297
2026-01-13 02:56:30.40	211.90	66.60	-58.7	-71.8	3.8	8.45e-01	0	23	104	0	82	17303
2026-01-13 02:56:31.39	211.82	66.15	-58.7	-71.8	3.8	8.45e-01	0	23	104	0	82	17316
2026-01-13 02:56:32.39	211.74	65.71	-58.7	-71.8	3.8	8.45e-01	0	23	104	0	82	17313
2026-01-13 02:56:33.39	211.66	65.27	-58.7	-71.7	3.8	8.45e-01	0	23	104	0	82	17262
2026-01-13 02:56:34.39	211.59	64.83	-58.7	-71.8	3.8	8.47e-01	0	23	104	0	82	17320
2026-01-13 02:56:35.39	211.52	64.40	-58.8	-71.8	3.8	8.45e-01	0	23	104	0	82	17389
2026-01-13 02:56:36.39	211.45	63.96	-58.7	-71.8	3.8	8.45e-01	0	23	104	0	82	17402
2026-01-13 02:56:37.39	211.38	63.53	-58.8	-71.8	3.8	8.45e-01	0	23	104	0	82	17416
2026-01-13 02:56:38.40	211.32	63.10	-58.8	-71.8	3.8	8.46e-01	0	23	104	0	82	17356
2026-01-13 02:56:39.40	211.26	62.67	-58.7	-71.8	3.8	8.45e-01	0	23	104	0	82	17379
2026-01-13 02:56:40.41	211.20	62.24	-58.7	-71.8	3.8	8.45e-01	0	23	104	0	82	17324
2026-01-13 02:56:41.41	211.15	61.82	-58.7	-71.8	3.8	8.45e-01	0	23	104	0	82	17302
2026-01-13 02:56:42.41	211.09	61.41	-58.7	-71.8	3.8	8.44e-01	0	23	104	0	82	17358
2026-01-13 02:56:43.40	211.04	60.99	-58.7	-71.8	3.8	8.46e-01	0	23	104	0	82	17379
2026-01-13 02:56:44.40	210.99	60.58	-58.7	-71.8	3.8	8.46e-01	0	23	104	0	82	17344
2026-01-13 02:56:45.41	210.94	60.17	-58.7	-71.8	3.8	8.45e-01	0	23	104	0	82	17363
2026-01-13 02:56:46.41	210.89	59.76	-58.7	-71.8	3.8	8.45e-01	0	23	104	0	82	17391
2026-01-13 02:56:47.41	210.85	59.35	-58.7	-71.8	3.8	8.45e-01	0	23	104	0	82	17317
2026-01-13 02:56:48.41	210.81	58.95	-58.7	-71.8	3.8	8.46e-01	0	23	104	0	82	17302
2026-01-13 02:56:49.41	210.76	58.55	-58.7	-71.8	3.8	8.46e-01	0	23	104	0	82	17375
2026-01-13 02:56:50.40	210.72	58.16	-58.7	-71.8	3.8	8.47e-01	0	23	104	0	82	17349
2026-01-13 02:56:51.41	210.68	57.76	-58.7	-71.8	3.8	8.45e-01	0	23	104	0	82	17307
2026-01-13 02:56:52.41	210.64	57.37	-58.7	-71.8	3.8	8.46e-01	0	23	104	0	82	17343
2026-01-13 02:56:53.41	210.61	56.98	-58.7	-71.8	3.8	8.45e-01	0	23	104	0	82	17323
2026-01-13 02:56:54.41	210.57	56.59	-58.7	-71.8	3.8	8.46e-01	0	23	104	0	82	17331
2026-01-13 02:56:55.42	210.54	56.20	-58.7	-71.8	3.8	8.46e-01	0	23	104	0	82	17332
2026-01-13 02:56:56.42	210.50	55.82	-58.7	-71.8	3.8	8.46e-01	0	23	104	0	82	17319
2026-01-13 02:56:57.41	210.47	55.45	-58.7	-71.8	3.8	8.47e-01	0	23	104	0	82	17379
2026-01-13 02:56:58.41	210.44	55.07	-58.7	-71.8	3.8	8.45e-01	0	23	104	0	82	17307
2026-01-13 02:56:59.41	210.41	54.70	-58.7	-71.8	3.8	8.45e-01	0	23	104	0	82	17384
2026-01-13 02:57:00.41	210.38	54.33	-58.7	-71.8	3.8	8.46e-01	0	23	104	0	82	17391
2026-01-13 02:57:01.41	210.35	53.96	-58.7	-71.8	3.8	8.45e-01	0	23	104	0	82	17314
2026-01-13 02:57:02.41	210.32	53.59	-58.7	-71.8	3.8	8.45e-01	0	23	104	0	82	17339
2026-01-13 02:57:03.41	210.29	53.23	-58.7	-71.8	3.8	8.46e-01	0	23	104	0	82	17343
2026-01-13 02:57:04.41	210.26	52.87	-58.7	-71.8	3.8	8.46e-01	0	23	104	0	82	17360
2026-01-13 02:57:05.41	210.24	52.51	-58.7	-71.8	3.8	8.46e-01	0	23	104	0	82	17334
2026-01-13 02:57:06.42	210.21	52.15	-58.7	-71.8	3.8	8.46e-01	0	23	104	0	82	17322
2026-01-13 02:57:07.42	210.19	51.80	-58.7	-71.8	3.8	8.45e-01	0	23	104	0	82	17291
2026-01-13 02:57:08.42	210.16	51.45	-58.7	-71.8	3.8	8.45e-01	0	23	104	0	82	17330
2026-01-13 02:57:09.42	210.14	51.10	-58.7	-71.8	3.8	8.46e-01	0	23	104	0	82	17351
2026-01-13 02:57:10.42	210.12	50.76	-58.7	-71.8	3.8	8.45e-01	0	23	104	0	82	17373
2026-01-13 02:57:11.42	210.10	50.42	-58.7	-71.8	3.8	8.45e-01	0	23	104	0	82	17351
2026-01-13 02:57:12.42	210.07	50.08	-58.7	-71.8	3.8	8.46e-01	0	23	104	0	82	17327
2026-01-13 02:57:13.41	210.05	49.74	-58.7	-71.8	3.8	8.46e-01	0	23	104	0	82	17394
2026-01-13 02:57:14.40	210.03	49.41	-58.7	-71.8	3.8	8.45e-01	0	23	104	0	82	17421
2026-01-13 02:57:15.41	210.01	49.07	-58.7	-71.8	3.8	8.45e-01	0	23	104	0	82	17324
2026-01-13 02:57:16.40	209.99	48.75	-58.7	-71.8	3.8	8.44e-01	0	23	104	0	82	17348
2026-01-13 02:57:17.40	209.97	48.42	-58.7	-71.8	3.8	8.45e-01	0	23	104	0	82	17375
2026-01-13 02:57:18.40	209.96	48.10	-58.7	-71.8	3.8	8.46e-01	0	23	104	0	82	17382
2026-01-13 02:57:19.40	209.94	47.77	-58.7	-71.8	3.8	8.46e-01	0	23	104	0	82	17408
2026-01-13 02:57:20.41	209.92	47.45	-58.7	-71.8	3.8	8.46e-01	0	23	104	0	82	17302
2026-01-13 02:57:21.41	209.90	47.13	-58.7	-71.8	3.8	8.45e-01	0	23	104	0	82	17388
2026-01-13 02:57:22.42	209.89	46.81	-58.7	-71.8	3.8	8.45e-01	0	23	104	0	82	17400
2026-01-13 02:57:23.41	209.87	46.50	-58.7	-71.8	3.8	8.44e-01	0	23	104	0	82	17354
2026-01-13 02:57:24.41	209.85	46.19	-58.7	-71.8	3.8	8.46e-01	0	23	104	0	82	17336
2026-01-13 02:57:25.40	209.84	45.89	-58.7	-71.8	3.8	8.46e-01	0	23	104	0	82	17322
2026-01-13 02:57:26.40	209.82	45.58	-58.7	-71.8	3.8	8.46e-01	0	23	104	0	82	17368
2026-01-13 02:57:27.41	209.81	45.27	-58.7	-71.8	3.8	8.46e-01	0	23	104	0	82	17412
2026-01-13 02:57:28.41	209.79	44.97	-58.7	-71.8	3.8	8.45e-01	0	23	104	0	82	17363
2026-01-13 02:57:29.41	209.78	44.67	-58.7	-71.8	3.8	8.45e-01	0	23	104	0	82	17363
2026-01-13 02:57:30.41	209.77	44.37	-58.7	-71.8	3.8	8.46e-01	0	23	104	0	82	17333
2026-01-13 02:57:31.40	209.75	44.08	-58.7	-71.8	3.8	8.46e-01	0	23	104	0	82	17338
2026-01-13 02:57:32.40	209.74	43.79	-58.7	-71.8	3.8	8.45e-01	0	23	104	0	82	17379
2026-01-13 02:57:33.40	209.73	43.50	-58.7	-71.8	3.8	8.44e-01	0	23	104	0	82	17344
2026-01-13 02:57:34.40	209.71	43.21	-58.7	-71.8	3.8	8.46e-01	0	23	104	0	82	17338
2026-01-13 02:57:35.40	209.70	42.93	-58.7	-71.8	3.8	8.45e-01	0	23	104	0	82	17363
2026-01-13 02:57:36.39	209.69	42.64	-58.7	-71.8	3.8	8.45e-01	0	23	104	0	82	17383
2026-01-13 02:57:37.39	209.68	42.36	-58.7	-71.8	3.8	8.45e-01	0	23	104	0	82	17355
2026-01-13 02:57:38.38	209.67	42.09	-58.7	-71.8	3.8	8.46e-01	0	23	104	0	82	17359
2026-01-13 02:57:39.38	209.66	41.81	-58.7	-71.8	3.8	8.45e-01	0	23	104	0	82	17317
2026-01-13 02:57:40.39	209.64	41.53	-58.8	-71.8	3.8	8.47e-01	0	23	104	0	82	17388
2026-01-13 02:57:41.39	209.63	41.26	-58.8	-71.8	3.8	8.46e-01	0	23	104	0	82	17384
2026-01-13 02:57:42.39	209.62	40.98	-58.8	-71.8	3.8	8.46e-01	0	23	104	0	82	17354
2026-01-13 02:57:43.39	209.61	40.71	-58.7	-71.8	3.8	8.45e-01	0	22	104	0	82	17383
2026-01-13 02:57:44.39	209.60	40.45	-58.7	-71.8	3.8	8.46e-01	0	23	104	0	82	17376
2026-01-13 02:57:45.40	209.59	40.18	-58.7	-71.8	3.8	8.45e-01	0	23	104	0	82	17353
2026-01-13 02:57:46.39	209.58	39.92	-58.7	-71.8	3.8	8.45e-01	0	23	104	0	82	17380
2026-01-13 02:57:47.40	209.57	39.65	-58.7	-71.8	3.8	8.46e-01	0	23	104	0	82	17381
2026-01-13 02:57:48.40	209.57	39.39	-58.7	-71.7	3.8	8.46e-01	0	23	104	0	82	17278
2026-01-13 02:57:49.40	209.56	39.14	-58.7	-71.8	3.8	8.45e-01	0	23	104	0	82	17335
2026-01-13 02:57:50.40	209.55	38.88	-58.7	-71.8	3.8	8.46e-01	0	23	104	0	82	17387
2026-01-13 02:57:51.40	209.54	38.63	-58.7	-71.8	3.8	8.47e-01	0	23	104	0	82	17355
2026-01-13 02:57:52.40	209.53	38.38	-58.7	-71.8	3.8	8.46e-01	0	23	104	0	82	17364
2026-01-13 02:57:53.40	209.52	38.13	-58.7	-71.8	3.8	8.45e-01	0	23	104	0	82	17390
2026-01-13 02:57:54.41	209.51	37.87	-58.7	-71.8	3.8	8.46e-01	0	23	104	0	82	17354
2026-01-13 02:57:55.41	209.51	37.63	-58.7	-71.8	3.8	8.46e-01	0	23	104	0	82	17320
2026-01-13 02:57:56.41	209.50	37.38	-58.7	-71.8	3.8	8.46e-01	0	23	104	0	82	17299
2026-01-13 02:57:57.41	209.49	37.14	-58.7	-71.8	3.8	8.47e-01	0	23	104	0	82	17355
2026-01-13 02:57:58.41	209.48	36.90	-58.7	-71.8	3.8	8.45e-01	0	23	104	0	82	17410
2026-01-13 02:57:59.41	209.48	36.66	-58.8	-71.8	3.8	8.45e-01	0	23	104	0	82	17354
2026-01-13 02:58:00.41	209.47	36.42	-58.7	-71.8	3.8	8.46e-01	0	23	104	0	82	17354
2026-01-13 02:58:01.41	209.46	36.19	-58.7	-71.8	3.8	8.46e-01	0	23	104	0	82	17354
2026-01-13 02:58:02.40	209.46	35.96	-58.7	-71.8	3.8	8.46e-01	0	23	104	0	82	17362
2026-01-13 02:58:03.40	209.45	35.72	-58.7	-71.8	3.8	8.46e-01	0	23	104	0	82	17317
2026-01-13 02:58:04.40	209.44	35.49	-58.7	-71.8	3.8	8.44e-01	0	23	104	0	82	17356
2026-01-13 02:58:05.40	209.44	35.26	-58.7	-71.8	3.8	8.45e-01	0	23	104	0	82	17448
2026-01-13 02:58:06.41	209.43	35.03	-58.7	-71.8	3.8	8.45e-01	0	23	104	0	82	17446
2026-01-13 02:58:07.41	209.42	34.81	-58.7	-71.8	3.8	8.45e-01	0	23	104	0	82	17302
2026-01-13 02:58:08.41	209.42	34.58	-58.7	-71.8	3.8	8.46e-01	0	23	104	0	82	17336
2026-01-13 02:58:09.41	209.41	34.36	-58.7	-71.8	3.8	8.46e-01	0	23	104	0	82	17321
2026-01-13 02:58:10.40	209.41	34.14	-58.7	-71.8	3.8	8.46e-01	0	23	104	0	82	17366
2026-01-13 02:58:11.41	209.40	33.92	-58.7	-71.8	3.8	8.45e-01	0	23	104	0	82	17343
2026-01-13 02:58:12.41	209.40	33.70	-58.7	-71.8	3.8	8.45e-01	0	23	104	0	82	17295
2026-01-13 02:58:13.41	209.39	33.49	-58.7	-71.8	3.8	8.46e-01	0	23	104	0	82	17339
2026-01-13 02:58:14.41	209.39	33.27	-58.7	-71.8	3.8	8.46e-01	0	23	104	0	82	17413
2026-01-13 02:58:15.41	209.38	33.06	-58.7	-71.8	3.8	8.46e-01	0	23	104	0	82	17354
2026-01-13 02:58:16.40	209.38	32.85	-58.7	-71.8	3.8	8.45e-01	0	23	104	0	82	17354
2026-01-13 02:58:17.39	209.37	32.64	-58.7	-71.8	3.8	8.45e-01	0	23	104	0	82	17384
2026-01-13 02:58:18.39	209.37	32.43	-58.7	-71.8	3.8	8.45e-01	0	23	104	0	82	17373
2026-01-13 02:58:19.39	209.36	32.22	-58.7	-71.8	3.8	8.45e-01	0	23	104	0	82	17382
2026-01-13 02:58:20.39	209.36	32.02	-58.7	-71.8	3.8	8.47e-01	0	23	104	0	82	17375
2026-01-13 02:58:21.38	209.35	31.81	-58.7	-71.8	3.8	8.45e-01	0	23	104	0	82	17367
2026-01-13 02:58:22.38	209.35	31.61	-58.7	-71.8	3.8	8.45e-01	0	23	104	0	82	17371
2026-01-13 02:58:23.39	209.35	31.41	-58.7	-71.8	3.8	8.45e-01	0	23	104	0	82	17331
2026-01-13 02:58:24.39	209.34	31.21	-58.7	-71.8	3.8	8.45e-01	0	23	104	0	82	17364
2026-01-13 02:58:25.38	209.34	31.01	-58.7	-71.8	3.8	8.46e-01	0	23	104	0	82	17387
2026-01-13 02:58:26.39	209.33	30.81	-58.8	-71.8	3.8	8.46e-01	0	23	104	0	82	17359
2026-01-13 02:58:27.38	209.33	30.62	-58.8	-71.8	3.8	8.47e-01	0	23	104	0	82	17427
2026-01-13 02:58:28.38	209.33	30.42	-58.8	-71.8	3.8	8.46e-01	0	23	104	0	82	17396
2026-01-13 02:58:29.38	209.32	30.23	-58.7	-71.8	3.8	8.46e-01	0	23	104	0	82	17344
2026-01-13 02:58:30.38	209.32	30.03	-58.7	-71.8	3.8	8.45e-01	0	23	104	0	82	17380
2026-01-13 02:58:31.38	209.32	29.84	-58.7	-71.8	3.8	8.46e-01	0	23	104	0	82	17370
2026-01-13 02:58:32.38	209.31	29.65	-58.7	-71.8	3.8	8.47e-01	0	23	104	0	82	17365
2026-01-13 02:58:33.38	209.31	29.46	-58.8	-71.8	3.8	8.44e-01	0	23	104	0	82	17410
2026-01-13 02:58:34.38	209.31	29.28	-58.7	-71.8	3.8	8.46e-01	0	23	104	0	82	17333
2026-01-13 02:58:35.38	209.30	29.09	-58.7	-71.8	3.8	8.46e-01	0	23	104	0	82	17332
2026-01-13 02:58:36.38	209.30	28.91	-58.8	-71.8	3.8	8.46e-01	0	23	104	0	82	17349
2026-01-13 02:58:37.38	209.30	28.72	-58.8	-71.8	3.8	8.44e-01	0	23	104	0	82	17389
2026-01-13 02:58:38.39	209.29	28.54	-58.7	-71.8	3.8	8.46e-01	0	23	104	0	82	17404
2026-01-13 02:58:39.39	209.29	28.36	-58.7	-71.8	3.8	8.44e-01	0	23	104	0	82	17306
2026-01-13 02:58:40.38	209.29	28.18	-58.7	-71.8	3.8	8.46e-01	0	23	104	0	82	17349
2026-01-13 02:58:41.38	209.28	28.00	-58.7	-71.8	3.8	8.46e-01	0	23	104	0	82	17426
2026-01-13 02:58:42.39	209.28	27.82	-58.7	-71.8	3.8	8.45e-01	0	23	104	0	82	17371
2026-01-13 02:58:43.39	209.28	27.64	-58.7	-71.8	3.8	8.46e-01	0	23	104	0	82	17329
2026-01-13 02:58:44.39	209.28	27.47	-58.7	-71.8	3.8	8.45e-01	0	23	104	0	82	17342
2026-01-13 02:58:45.39	209.27	27.29	-58.7	-71.8	3.8	8.44e-01	0	23	104	0	82	17371
2026-01-13 02:58:46.39	209.27	27.12	-58.7	-71.8	3.8	8.45e-01	0	23	104	0	82	17366
2026-01-13 02:58:47.39	209.27	26.95	-58.7	-71.8	3.8	8.44e-01	0	23	104	0	82	17309
2026-01-13 02:58:48.39	209.27	26.78	-58.7	-71.8	3.8	8.45e-01	0	23	104	0	82	17333
2026-01-13 02:58:49.40	209.27	26.60	-58.7	-71.8	3.8	8.44e-01	0	23	104	0	82	17313
2026-01-13 02:58:50.40	209.26	26.44	-58.7	-71.8	3.8	8.46e-01	0	23	104	0	82	17325
2026-01-13 02:58:51.39	209.26	26.27	-58.7	-71.8	3.8	8.46e-01	0	23	104	0	82	17360
2026-01-13 02:58:52.39	209.26	26.10	-58.7	-71.8	3.8	8.46e-01	0	23	104	0	82	17309
2026-01-13 02:58:53.39	209.26	25.94	-58.7	-71.8	3.8	8.45e-01	0	23	104	0	82	17343
2026-01-13 02:58:54.39	209.26	25.77	-58.7	-71.8	3.8	8.46e-01	0	23	104	0	82	17348
2026-01-13 02:58:55.39	209.25	25.61	-58.7	-71.8	3.8	8.46e-01	0	23	104	0	82	17324
2026-01-13 02:58:56.39	209.25	25.44	-58.7	-71.8	3.8	8.45e-01	0	23	104	0	82	17364
2026-01-13 02:58:57.39	209.25	25.28	-58.7	-71.8	3.8	8.46e-01	0	23	104	0	82	17327
2026-01-13 02:58:58.39	209.25	25.12	-58.7	-71.8	3.8	8.44e-01	0	23	104	0	82	17316
2026-01-13 02:58:59.39	209.25	24.96	-58.7	-71.8	3.8	8.46e-01	0	23	104	0	82	17327
2026-01-13 02:59:00.39	209.25	24.80	-58.7	-71.8	3.8	8.44e-01	0	23	104	0	82	17316
2026-01-13 02:59:01.39	209.24	24.64	-58.7	-71.8	3.8	8.46e-01	0	23	104	0	82	17367
2026-01-13 02:59:02.39	209.24	24.49	-58.7	-71.8	3.8	8.45e-01	0	23	104	0	82	17315
2026-01-13 02:59:03.39	209.24	24.33	-58.7	-71.8	3.8	8.46e-01	0	23	104	0	82	17343
2026-01-13 02:59:04.39	209.24	24.18	-58.7	-71.8	3.8	8.44e-01	0	23	104	0	82	17333
2026-01-13 02:59:05.40	209.24	24.02	-58.7	-71.8	3.8	8.46e-01	0	23	104	0	82	17347
2026-01-13 02:59:06.40	209.24	23.87	-58.7	-71.8	3.9	8.46e-01	0	23	104	0	82	17320
2026-01-13 02:59:07.40	209.24	23.71	-58.7	-71.8	3.8	8.46e-01	0	23	104	0	82	17385
2026-01-13 02:59:08.40	209.24	23.56	-58.7	-71.8	3.8	8.45e-01	0	23	104	0	82	17341
2026-01-13 02:59:09.41	209.23	23.41	-58.7	-71.8	3.8	8.45e-01	0	23	104	0	82	17330
2026-01-13 02:59:10.40	209.23	23.26	-58.7	-71.8	3.8	8.45e-01	0	23	104	0	82	17322
2026-01-13 02:59:11.40	209.23	23.11	-58.7	-71.8	3.8	8.46e-01	0	23	104	0	82	17287
2026-01-13 02:59:12.40	209.23	22.97	-58.7	-71.8	3.8	8.45e-01	0	23	104	0	82	17288
2026-01-13 02:59:13.39	209.23	22.82	-58.7	-71.8	3.8	8.45e-01	0	23	104	0	82	17320
2026-01-13 02:59:14.40	209.23	22.67	-58.7	-71.8	3.8	8.46e-01	0	23	104	0	82	17296
2026-01-13 02:59:15.40	209.23	22.53	-58.7	-71.8	3.8	8.46e-01	0	23	104	0	82	17319
2026-01-13 02:59:16.39	209.23	22.38	-58.7	-71.8	3.8	8.46e-01	0	23	104	0	82	17289
2026-01-13 02:59:17.39	209.23	22.24	-58.7	-71.8	3.8	8.46e-01	0	23	104	0	82	17336
2026-01-13 02:59:18.39	209.23	22.10	-58.7	-71.8	3.8	8.45e-01	0	23	104	0	82	17339
2026-01-13 02:59:19.39	209.23	21.95	-58.7	-71.8	3.8	8.46e-01	0	23	104	0	82	17320
2026-01-13 02:59:20.39	209.22	21.81	-58.7	-71.8	3.8	8.46e-01	0	23	104	0	82	17309
2026-01-13 02:59:21.38	209.22	21.67	-58.7	-71.8	3.8	8.45e-01	0	23	104	0	82	17312
2026-01-13 02:59:22.39	209.22	21.53	-58.7	-71.8	3.8	8.47e-01	0	23	104	0	82	17333
2026-01-13 02:59:23.39	209.22	21.39	-58.7	-71.8	3.8	8.45e-01	0	23	104	0	82	17329
2026-01-13 02:59:24.39	209.22	21.25	-58.7	-71.7	3.8	8.46e-01	0	23	104	0	82	17278
2026-01-13 02:59:25.39	209.22	21.12	-58.7	-71.8	3.8	8.45e-01	0	23	104	0	82	17304
2026-01-13 02:59:26.38	209.22	20.98	-58.7	-71.8	3.8	8.46e-01	0	23	104	0	82	17296
2026-01-13 02:59:27.38	209.22	20.84	-58.7	-71.8	3.8	8.46e-01	0	23	104	0	82	17290
2026-01-13 02:59:28.38	209.22	20.71	-58.7	-71.8	3.8	8.45e-01	0	23	104	0	82	17331
2026-01-13 02:59:29.38	209.22	20.57	-58.7	-71.8	3.8	8.45e-01	0	23	104	0	82	17365
2026-01-13 02:59:30.39	209.22	20.44	-58.7	-71.8	3.8	8.46e-01	0	23	104	0	82	17323
2026-01-13 02:59:31.39	209.22	20.31	-58.7	-71.8	3.8	8.46e-01	0	23	104	0	82	17293
2026-01-13 02:59:32.39	209.22	20.17	-58.7	-71.8	3.8	8.45e-01	0	23	104	0	82	17327
2026-01-13 02:59:33.39	209.22	20.04	-58.7	-71.8	3.8	8.47e-01	0	23	104	0	82	17408
2026-01-13 02:59:34.39	209.22	19.91	-58.7	-71.8	3.8	8.46e-01	0	23	104	0	82	17316
2026-01-13 02:59:35.40	209.22	19.78	-58.7	-71.8	3.8	8.46e-01	0	23	104	0	82	17308
2026-01-13 02:59:36.41	209.22	19.65	-58.7	-71.7	3.8	8.45e-01	0	23	104	0	82	17260
2026-01-13 02:59:37.40	209.22	19.52	-58.7	-71.8	3.8	8.46e-01	0	23	104	0	82	17327
2026-01-13 02:59:38.40	209.22	19.39	-58.7	-71.8	3.8	8.47e-01	0	23	104	0	82	17320
2026-01-13 02:59:39.41	209.22	19.26	-58.7	-71.8	3.8	8.46e-01	0	23	104	0	82	17332
2026-01-13 02:59:40.41	209.22	19.13	-58.7	-71.7	3.8	8.46e-01	0	23	104	0	82	17277
2026-01-13 02:59:41.41	209.22	19.01	-58.7	-71.8	3.8	8.47e-01	0	23	104	0	82	17355
2026-01-13 02:59:42.41	209.22	18.88	-58.7	-71.8	3.8	8.46e-01	0	23	104	0	82	17302
2026-01-13 02:59:43.41	209.22	18.76	-58.7	-71.7	3.8	8.45e-01	0	23	104	0	82	17264
2026-01-13 02:59:44.41	209.22	18.63	-58.7	-71.8	3.8	8.46e-01	0	23	104	0	82	17311
2026-01-13 02:59:45.41	209.22	18.51	-58.7	-71.7	3.8	8.46e-01	0	23	104	0	82	17266
2026-01-13 02:59:46.41	209.22	18.38	-58.7	-71.8	3.8	8.45e-01	0	23	104	0	82	17303
2026-01-13 02:59:47.41	209.22	18.26	-58.7	-71.7	3.8	8.46e-01	0	23	104	0	82	17277
2026-01-13 02:59:48.40	209.22	18.14	-58.7	-71.8	3.8	8.45e-01	0	23	104	0	82	17288
2026-01-13 02:59:49.39	209.22	18.02	-58.7	-71.8	3.8	8.46e-01	0	23	104	0	82	17308
2026-01-13 02:59:50.40	209.22	17.90	-58.7	-71.8	3.8	8.46e-01	0	23	104	0	82	17313
2026-01-13 02:59:51.39	209.22	17.78	-58.7	-71.8	3.8	8.46e-01	0	23	104	0	82	17286
2026-01-13 02:59:52.40	209.22	17.66	-58.7	-71.7	3.8	8.45e-01	0	23	104	0	82	17259
2026-01-13 02:59:53.40	209.22	17.54	-58.7	-71.8	3.8	8.46e-01	0	23	104	0	82	17301
2026-01-13 02:59:54.39	209.22	17.42	-58.7	-71.8	3.8	8.46e-01	0	23	104	0	82	17330
2026-01-13 02:59:55.39	209.22	17.30	-58.7	-71.8	3.8	8.46e-01	0	23	104	0	82	17353
2026-01-13 02:59:56.39	209.22	17.19	-58.7	-71.8	3.8	8.46e-01	0	23	104	0	82	17296
2026-01-13 02:59:57.38	209.22	17.07	-58.7	-71.8	3.8	8.45e-01	0	23	104	0	82	17331
2026-01-13 02:59:58.38	209.22	16.95	-58.7	-71.8	3.8	8.44e-01	0	23	104	0	82	17295
2026-01-13 02:59:59.39	209.22	16.84	-58.7	-71.8	3.8	8.46e-01	0	23	104	0	82	17282
2026-01-13 03:00:00.38	209.23	16.72	-58.7	-71.8	3.8	8.46e-01	0	23	104	0	82	17316
2026-01-13 03:00:01.39	209.23	16.61	-58.7	-71.7	3.8	8.46e-01	0	23	104	0	82	17281
2026-01-13 03:00:02.39	209.23	16.49	-58.7	-71.8	3.8	8.46e-01	0	23	104	0	82	17312
2026-01-13 03:00:03.39	209.23	16.38	-58.7	-71.8	3.8	8.46e-01	0	23	104	0	82	17297
2026-01-13 03:00:04.39	209.23	16.27	-58.7	-71.8	3.8	8.46e-01	0	23	104	0	82	17305
2026-01-13 03:00:05.39	209.23	16.15	-58.7	-71.8	3.8	8.46e-01	0	23	104	0	82	17331
2026-01-13 03:00:06.39	209.23	16.04	-58.7	-71.8	3.8	8.45e-01	0	23	104	0	82	17293
2026-01-13 03:00:07.39	209.23	15.93	-58.7	-71.8	3.8	8.47e-01	0	23	104	0	82	17354
2026-01-13 03:00:08.39	209.23	15.82	-58.7	-71.8	3.8	8.46e-01	0	23	104	0	82	17331
2026-01-13 03:00:09.38	209.23	15.71	-58.7	-71.7	3.8	8.45e-01	0	23	104	0	82	17254
2026-01-13 03:00:10.39	209.23	15.60	-58.7	-71.7	3.8	8.46e-01	0	23	104	0	82	17250
2026-01-13 03:00:11.39	209.23	15.49	-58.7	-71.8	3.8	8.44e-01	0	23	104	0	82	17300
2026-01-13 03:00:12.38	209.23	15.38	-58.7	-71.8	3.8	8.44e-01	0	23	104	0	82	17288
2026-01-13 03:00:13.38	209.23	15.27	-58.7	-71.8	3.8	8.45e-01	0	23	104	0	82	17287
2026-01-13 03:00:14.39	209.23	15.16	-58.7	-71.7	3.8	8.46e-01	0	23	104	0	82	17266
2026-01-13 03:00:15.38	209.24	15.06	-58.7	-71.7	3.8	8.44e-01	0	23	104	0	82	17248
2026-01-13 03:00:16.38	209.24	14.95	-58.7	-71.8	3.8	8.46e-01	0	23	104	0	82	17292
2026-01-13 03:00:17.38	209.24	14.84	-58.7	-71.7	3.8	8.46e-01	0	23	104	0	82	17266
2026-01-13 03:00:18.38	209.24	14.74	-58.7	-71.8	3.8	8.45e-01	0	23	104	0	82	17328
2026-01-13 03:00:19.38	209.24	14.63	-58.7	-71.8	3.8	8.47e-01	0	23	104	0	82	17325
2026-01-13 03:00:20.38	209.24	14.53	-58.7	-71.8	3.8	8.46e-01	0	23	104	0	82	17294
2026-01-13 03:00:21.38	209.24	14.42	-58.7	-71.8	3.8	8.45e-01	0	23	104	0	82	17327
2026-01-13 03:00:22.38	209.24	14.32	-58.7	-71.8	3.8	8.47e-01	0	23	104	0	82	17286
2026-01-13 03:00:23.37	209.24	14.21	-58.7	-71.8	3.8	8.46e-01	0	23	104	0	82	17307
2026-01-13 03:00:24.36	209.24	14.11	-58.7	-71.8	3.8	8.46e-01	0	23	104	0	82	17310
2026-01-13 03:00:25.37	209.25	14.01	-58.7	-71.7	3.8	8.45e-01	0	23	104	0	82	17271
2026-01-13 03:00:26.37	209.25	13.90	-58.7	-71.7	3.8	8.46e-01	0	23	104	0	82	17259
2026-01-13 03:00:27.36	209.25	13.80	-58.7	-71.7	3.8	8.45e-01	0	23	104	0	82	17275
2026-01-13 03:00:28.36	209.25	13.70	-58.7	-71.7	3.8	8.45e-01	0	23	104	0	82	17238
2026-01-13 03:00:29.36	209.25	13.60	-58.7	-71.7	3.8	8.45e-01	0	23	104	0	82	17265
2026-01-13 03:00:30.36	209.25	13.50	-58.7	-71.7	3.8	8.45e-01	0	23	104	0	82	17268
2026-01-13 03:00:31.35	209.25	13.40	-58.7	-71.8	3.8	8.47e-01	0	23	104	0	82	17333
2026-01-13 03:00:32.34	209.25	13.30	-58.7	-71.8	3.8	8.45e-01	0	23	104	0	82	17287
2026-01-13 03:00:33.34	209.25	13.20	-58.7	-71.7	3.8	8.47e-01	0	23	104	0	82	17253
2026-01-13 03:00:34.34	209.26	13.10	-58.7	-71.8	3.8	8.46e-01	0	23	104	0	82	17294
2026-01-13 03:00:35.33	209.26	13.00	-58.7	-71.7	3.8	8.46e-01	0	23	104	0	82	17251
2026-01-13 03:00:36.33	209.26	12.91	-58.7	-71.8	3.8	8.44e-01	0	23	104	0	82	17320
2026-01-13 03:00:37.33	209.26	12.81	-58.7	-71.8	3.8	8.47e-01	0	23	104	0	82	17292
2026-01-13 03:00:38.34	209.26	12.71	-58.7	-71.8	3.8	8.46e-01	0	23	104	0	82	17283
2026-01-13 03:00:39.33	209.26	12.61	-58.7	-71.7	3.8	8.46e-01	0	23	104	0	82	17227
2026-01-13 03:00:40.33	209.26	12.52	-58.7	-71.8	3.8	8.45e-01	0	23	104	0	82	17309
2026-01-13 03:00:41.34	209.26	12.42	-58.7	-71.8	3.8	8.46e-01	0	23	104	0	82	17311
2026-01-13 03:00:42.33	209.27	12.32	-58.7	-71.8	3.8	8.47e-01	0	23	104	0	82	17308
2026-01-13 03:00:43.33	209.27	12.23	-58.7	-71.7	3.8	8.46e-01	0	23	104	0	82	17258
2026-01-13 03:00:44.33	209.27	12.13	-58.7	-71.8	3.8	8.46e-01	0	23	104	0	82	17312
2026-01-13 03:00:45.34	209.27	12.04	-58.7	-71.7	3.8	8.46e-01	0	23	104	0	82	17274
2026-01-13 03:00:46.34	209.27	11.94	-58.7	-71.7	3.8	8.46e-01	0	23	104	0	82	17263
2026-01-13 03:00:47.34	209.27	11.85	-58.7	-71.7	3.8	8.45e-01	0	23	104	0	82	17279
2026-01-13 03:00:48.33	209.27	11.75	-58.7	-71.8	3.8	8.45e-01	0	23	104	0	82	17309
2026-01-13 03:00:49.33	209.27	11.66	-58.7	-71.7	3.8	8.46e-01	0	23	104	0	82	17276
