passes_logs/2026/01/13/R3.2S_Murmansk/R3.2S_Murmansk__20260113_133201_SUOMI_NPP_rec.log

#Pass ID: 20260113_133201_SUOMI NPP
#Satellite: SUOMI NPP
#Configuration: NPP
#almurnet v.1.7.20251203
#Start time: 2026-01-13 13:32:03

#Version: 2.2.20231116
#Station: R3.2S_Murmansk
#Location: 33.079688 lon 68.888172 lat
#TLE: 1 37849U 11061A   26013.13039704  .00000061  00000+0  49955-4 0  9991
#TLE: 2 37849  98.7808 315.1951 0002492  66.9161 293.2277 14.19524814736449

#Time	Az	El	Level	Level2	SNR	BER	BlckErr	Temp	State	Recorded	gain1	gain2
2026-01-13 13:32:03.50	256.93	2.07	-58.3	-74.3	3.8	1.49e+00	0	24	0	0	83	21963
2026-01-13 13:32:04.50	257.04	2.11	-58.3	-74.3	3.8	1.49e+00	0	25	104	0	81	24505
2026-01-13 13:32:05.50	257.15	2.15	-58.3	-74.3	3.8	1.49e+00	0	25	104	0	81	24484
2026-01-13 13:32:06.49	257.26	2.19	-58.3	-74.3	3.8	1.49e+00	0	25	104	0	81	24514
2026-01-13 13:32:07.50	257.37	2.23	-58.3	-74.3	3.8	1.49e+00	0	25	104	0	81	24572
2026-01-13 13:32:08.49	257.48	2.26	-58.3	-74.3	3.8	1.49e+00	0	25	104	0	81	24515
2026-01-13 13:32:09.50	257.59	2.30	-58.3	-74.3	3.8	1.49e+00	0	25	104	0	81	24603
2026-01-13 13:32:10.50	257.70	2.34	-58.3	-74.3	3.8	1.49e+00	0	25	104	0	81	24575
2026-01-13 13:32:11.50	257.82	2.38	-58.3	-74.3	3.8	1.49e+00	0	25	104	0	81	24547
2026-01-13 13:32:12.50	257.93	2.42	-58.3	-74.3	3.8	1.49e+00	0	25	104	0	81	24573
2026-01-13 13:32:13.50	258.04	2.46	-58.3	-74.3	3.8	1.49e+00	0	25	104	0	81	24531
2026-01-13 13:32:14.50	258.15	2.49	-58.3	-74.3	3.8	1.49e+00	0	25	104	0	81	24615
2026-01-13 13:32:15.49	258.27	2.53	-58.3	-74.3	3.8	1.49e+00	0	25	104	0	81	24525
2026-01-13 13:32:16.49	258.38	2.57	-58.3	-74.3	3.8	1.49e+00	0	25	104	0	81	24583
2026-01-13 13:32:17.49	258.49	2.61	-58.3	-74.3	3.8	1.49e+00	0	25	104	0	81	24610
2026-01-13 13:32:18.49	258.61	2.65	-58.3	-74.3	3.8	1.49e+00	0	25	104	0	81	24592
2026-01-13 13:32:19.49	258.72	2.68	-58.3	-74.3	3.8	1.49e+00	0	25	104	0	81	24548
2026-01-13 13:32:20.49	258.84	2.72	-58.3	-74.3	3.8	1.49e+00	0	25	104	0	81	24600
2026-01-13 13:32:21.48	258.95	2.76	-58.3	-74.3	3.8	1.49e+00	0	25	104	0	81	24596
2026-01-13 13:32:22.48	259.07	2.80	-58.3	-74.3	3.8	1.49e+00	0	25	104	0	81	24583
2026-01-13 13:32:23.48	259.18	2.83	-58.3	-74.3	3.8	1.49e+00	0	25	104	0	81	24559
2026-01-13 13:32:24.48	259.30	2.87	-58.3	-74.3	3.8	1.49e+00	0	25	104	0	81	24537
2026-01-13 13:32:25.48	259.41	2.91	-58.3	-74.3	3.9	1.49e+00	0	25	104	0	81	24561
2026-01-13 13:32:26.48	259.53	2.95	-58.3	-74.3	3.8	1.49e+00	0	25	104	0	81	24635
2026-01-13 13:32:27.48	259.65	2.98	-58.3	-74.3	3.8	1.49e+00	0	25	104	0	81	24598
2026-01-13 13:32:28.48	259.76	3.02	-58.3	-74.3	3.8	1.49e+00	0	25	104	0	81	24622
2026-01-13 13:32:29.47	259.88	3.06	-58.3	-74.3	3.8	1.49e+00	0	25	104	0	81	24678
2026-01-13 13:32:30.47	260.00	3.10	-58.3	-74.3	3.8	1.49e+00	0	25	104	0	81	24604
2026-01-13 13:32:31.47	260.11	3.13	-58.3	-74.3	3.8	1.49e+00	0	25	104	0	81	24535
2026-01-13 13:32:32.47	260.23	3.17	-58.3	-74.3	3.8	1.49e+00	0	25	104	0	81	24598
2026-01-13 13:32:33.47	260.35	3.21	-58.3	-74.3	3.8	1.49e+00	0	25	104	0	81	24565
2026-01-13 13:32:34.47	260.47	3.25	-58.3	-74.3	3.8	1.49e+00	0	25	104	0	81	24625
2026-01-13 13:32:35.47	260.59	3.28	-58.3	-74.3	3.8	1.49e+00	0	25	104	0	81	24581
2026-01-13 13:32:36.47	260.71	3.32	-58.3	-74.3	3.8	1.49e+00	0	25	104	0	81	24606
2026-01-13 13:32:37.47	260.83	3.36	-58.3	-74.3	3.8	1.49e+00	0	25	104	0	81	24612
2026-01-13 13:32:38.47	260.95	3.40	-58.3	-74.3	3.8	1.49e+00	0	25	104	0	81	24554
2026-01-13 13:32:39.47	261.07	3.43	-58.3	-74.3	3.8	1.49e+00	0	25	104	0	81	24674
2026-01-13 13:32:40.48	261.19	3.47	-58.3	-74.3	3.8	1.49e+00	0	25	104	0	81	24630
2026-01-13 13:32:41.47	261.31	3.51	-58.3	-74.4	3.8	1.49e+00	0	25	104	0	81	24708
2026-01-13 13:32:42.47	261.43	3.54	-58.3	-74.3	3.8	1.49e+00	0	26	104	0	81	24514
2026-01-13 13:32:43.48	261.55	3.58	-58.3	-74.3	3.8	1.49e+00	0	25	104	0	81	24519
2026-01-13 13:32:44.47	261.67	3.62	-58.3	-74.3	3.8	1.49e+00	0	26	104	0	81	24437
2026-01-13 13:32:45.47	261.79	3.65	-58.3	-74.2	3.8	1.49e+00	0	26	104	0	81	24265
2026-01-13 13:32:46.46	261.91	3.69	-58.3	-74.3	3.8	1.49e+00	0	26	104	0	81	24558
2026-01-13 13:32:47.46	262.04	3.73	-58.3	-74.2	3.8	1.49e+00	0	26	104	0	81	24329
2026-01-13 13:32:48.45	262.16	3.76	-58.3	-74.3	3.8	1.49e+00	0	26	104	0	81	24443
2026-01-13 13:32:49.46	262.28	3.80	-58.3	-74.2	3.8	1.49e+00	0	26	104	0	81	24143
2026-01-13 13:32:50.45	262.40	3.84	-58.3	-74.3	3.8	1.49e+00	0	26	104	0	81	24468
2026-01-13 13:32:51.45	262.53	3.87	-58.3	-74.3	3.8	1.49e+00	0	26	104	0	81	24497
2026-01-13 13:32:52.45	262.65	3.91	-58.3	-74.3	3.8	1.49e+00	0	26	104	0	81	24583
2026-01-13 13:32:53.45	262.77	3.94	-58.3	-74.3	3.8	1.49e+00	0	26	104	0	81	24589
2026-01-13 13:32:54.45	262.90	3.98	-58.3	-74.3	3.8	1.49e+00	0	26	104	0	81	24595
2026-01-13 13:32:55.45	263.02	4.02	-58.3	-74.2	3.8	1.49e+00	0	26	104	0	81	24227
2026-01-13 13:32:56.45	263.15	4.05	-58.3	-74.2	3.8	1.49e+00	0	26	104	0	81	24339
2026-01-13 13:32:57.45	263.27	4.09	-58.3	-74.2	3.8	1.49e+00	0	26	104	0	81	24197
2026-01-13 13:32:58.45	263.40	4.12	-58.3	-74.3	3.8	1.49e+00	0	26	104	0	81	24521
2026-01-13 13:32:59.45	263.53	4.16	-58.3	-74.3	3.8	1.49e+00	0	26	104	0	81	24505
2026-01-13 13:33:00.46	263.65	4.20	-58.3	-74.3	3.8	1.49e+00	0	26	104	0	81	24450
2026-01-13 13:33:01.46	263.78	4.23	-58.3	-74.3	3.8	1.49e+00	0	26	104	0	81	24623
2026-01-13 13:33:02.47	263.91	4.27	-58.3	-74.3	3.8	1.49e+00	0	26	104	0	81	24560
2026-01-13 13:33:03.48	264.04	4.30	-58.3	-74.3	3.8	1.49e+00	0	26	104	0	81	24493
2026-01-13 13:33:04.48	264.16	4.34	-58.3	-74.3	3.8	1.49e+00	0	26	104	0	81	24544
2026-01-13 13:33:05.48	264.29	4.38	-58.3	-74.2	3.8	1.49e+00	0	26	104	0	81	24383
2026-01-13 13:33:06.48	264.42	4.41	-58.3	-74.1	3.8	1.49e+00	0	26	104	0	81	24065
2026-01-13 13:33:07.48	264.55	4.45	-58.3	-74.1	3.8	1.49e+00	0	26	104	0	81	24016
2026-01-13 13:33:08.48	264.68	4.48	-58.3	-73.9	3.8	1.49e+00	0	26	104	0	81	23318
2026-01-13 13:33:09.48	264.80	4.52	-58.3	-73.8	3.8	1.49e+00	0	26	104	0	81	23153
2026-01-13 13:33:10.49	264.93	4.55	-58.3	-73.7	3.8	1.49e+00	0	26	104	0	81	23027
2026-01-13 13:33:11.48	265.06	4.59	-58.3	-73.7	3.8	1.49e+00	0	26	104	0	81	22895
2026-01-13 13:33:12.48	265.19	4.62	-58.3	-73.9	3.8	1.49e+00	0	26	104	0	81	23455
2026-01-13 13:33:13.48	265.32	4.66	-58.3	-74.3	3.8	1.49e+00	0	26	104	0	81	24681
2026-01-13 13:33:14.48	265.45	4.69	-58.3	-73.9	3.8	1.49e+00	0	26	104	0	81	23326
2026-01-13 13:33:15.47	265.58	4.73	-58.3	-72.5	3.8	1.49e+00	0	26	104	0	81	20021
2026-01-13 13:33:16.48	265.71	4.76	-58.1	-70.3	4.3	1.48e+00	32	26	104	0	81	15414
2026-01-13 13:33:17.49	265.85	4.80	-58.0	-68.5	5.0	9.44e-01	0	26	0	1048576	81	12631
2026-01-13 13:33:18.48	265.98	4.83	-57.9	-67.5	5.6	4.56e-01	0	26	0	3145728	81	11196
2026-01-13 13:33:19.49	266.11	4.87	-57.8	-66.8	6.1	3.29e-01	0	26	0	5242880	81	10392
2026-01-13 13:33:20.49	266.24	4.90	-57.5	-65.0	7.5	1.84e-01	0	26	0	6291456	81	8373
2026-01-13 13:33:21.48	266.37	4.93	-56.9	-62.5	9.6	9.30e-03	0	26	0	8388608	80	6693
2026-01-13 13:33:22.48	266.51	4.97	-56.3	-60.9	10.9	6.09e-04	0	26	0	10485760	79	5912
2026-01-13 13:33:23.49	266.64	5.00	-55.8	-59.9	11.6	6.94e-05	0	26	0	12582912	78	5550
2026-01-13 13:33:24.49	266.77	5.04	-55.7	-59.6	11.8	6.80e-06	0	26	0	14680064	77	5695
2026-01-13 13:33:25.49	266.91	5.07	-56.1	-60.5	11.2	3.58e-05	0	26	0	15728640	77	6324
2026-01-13 13:33:26.50	267.04	5.10	-55.3	-58.8	12.3	3.40e-02	0	26	0	17825792	77	5170
2026-01-13 13:33:27.50	267.18	5.14	-56.6	-61.9	10.1	1.03e-02	0	26	0	19922944	79	6633
2026-01-13 13:33:28.50	267.31	5.17	-55.1	-58.5	12.3	1.04e-02	0	26	0	22020096	76	5289
2026-01-13 13:33:29.49	267.45	5.21	-54.5	-57.5	13.0	0.00e+00	0	26	0	24117248	75	5018
2026-01-13 13:33:30.49	267.58	5.24	-54.6	-57.7	12.9	0.00e+00	0	26	0	25165824	75	5141
2026-01-13 13:33:31.49	267.72	5.27	-54.7	-57.9	12.7	0.00e+00	0	26	0	27262976	75	5231
2026-01-13 13:33:32.50	267.85	5.31	-55.0	-58.5	12.3	7.00e-07	0	26	0	29360128	75	5632
2026-01-13 13:33:33.50	267.99	5.34	-55.3	-59.1	11.9	1.50e-06	0	26	0	31457280	75	6026
2026-01-13 13:33:34.50	268.12	5.37	-55.5	-59.5	11.7	5.30e-06	0	26	0	32505856	76	5956
2026-01-13 13:33:35.51	268.26	5.41	-55.8	-60.1	11.2	3.66e-05	0	26	0	34603008	76	6411
2026-01-13 13:33:36.50	268.40	5.44	-56.1	-60.8	10.7	1.37e-04	0	26	0	36700160	77	6515
2026-01-13 13:33:37.49	268.53	5.47	-56.2	-61.1	10.5	4.15e-04	0	26	0	38797312	77	6764
2026-01-13 13:33:38.50	268.67	5.50	-56.1	-60.9	10.6	4.11e-04	0	26	0	40894464	77	6645
2026-01-13 13:33:39.50	268.81	5.54	-56.2	-61.2	10.4	4.13e-04	0	26	0	41943040	77	6837
2026-01-13 13:33:40.49	268.95	5.57	-56.2	-61.3	10.3	7.96e-04	0	26	0	44040192	77	6917
2026-01-13 13:33:41.49	269.09	5.60	-56.2	-61.2	10.4	7.54e-04	0	26	0	46137344	77	6810
2026-01-13 13:33:42.49	269.22	5.63	-56.2	-61.2	10.3	6.17e-04	0	26	0	48234496	77	6842
2026-01-13 13:33:43.48	269.36	5.67	-56.0	-60.7	10.8	3.13e-04	0	26	0	50331648	77	6447
2026-01-13 13:33:44.47	269.50	5.70	-55.9	-60.4	11.0	1.34e-04	0	26	0	51380224	77	6240
2026-01-13 13:33:45.46	269.64	5.73	-55.8	-60.2	11.2	8.39e-05	0	26	0	53477376	77	6098
2026-01-13 13:33:46.45	269.78	5.76	-55.7	-59.9	11.4	4.34e-05	0	26	0	55574528	77	5900
2026-01-13 13:33:47.45	269.92	5.79	-55.6	-59.5	11.8	2.28e-05	0	26	0	57671680	77	5609
2026-01-13 13:33:48.46	270.06	5.83	-55.4	-59.1	12.1	9.90e-06	0	26	0	59768832	77	5374
2026-01-13 13:33:49.45	270.20	5.86	-55.2	-58.8	12.3	0.00e+00	0	26	0	60817408	77	5177
2026-01-13 13:33:50.45	270.34	5.89	-55.1	-58.6	12.4	0.00e+00	0	26	0	62914560	76	5351
2026-01-13 13:33:51.44	270.48	5.92	-54.9	-58.2	12.7	0.00e+00	0	26	0	65011712	76	5117
2026-01-13 13:33:52.44	270.62	5.95	-54.7	-57.8	12.9	0.00e+00	0	26	0	67108864	76	4911
2026-01-13 13:33:53.44	270.76	5.98	-54.9	-58.1	12.7	0.00e+00	0	26	0	68157440	76	5090
2026-01-13 13:33:54.43	270.90	6.01	-54.9	-58.0	12.8	0.00e+00	0	26	0	70254592	76	5041
2026-01-13 13:33:55.42	271.04	6.04	-55.1	-58.4	12.5	7.00e-07	0	26	0	72351744	76	5268
2026-01-13 13:33:56.42	271.19	6.08	-55.0	-58.2	12.6	7.00e-07	0	26	0	74448896	76	5158
2026-01-13 13:33:57.42	271.33	6.11	-54.9	-58.1	12.7	0.00e+00	0	26	0	76546048	76	5092
2026-01-13 13:33:58.41	271.47	6.14	-55.1	-58.4	12.6	0.00e+00	0	26	0	77594624	76	5234
2026-01-13 13:33:59.42	271.62	6.17	-55.2	-58.5	12.5	0.00e+00	0	26	0	79691776	76	5329
2026-01-13 13:34:00.42	271.76	6.20	-55.1	-58.4	12.6	0.00e+00	0	26	0	81788928	76	5268
2026-01-13 13:34:01.42	271.90	6.23	-54.9	-58.1	12.8	0.00e+00	0	26	0	83886080	76	5050
2026-01-13 13:34:02.41	272.05	6.26	-54.8	-57.8	13.0	0.00e+00	0	26	0	84934656	76	4880
2026-01-13 13:34:03.42	272.19	6.29	-54.7	-57.7	13.1	0.00e+00	0	26	0	87031808	76	4846
2026-01-13 13:34:04.42	272.34	6.32	-54.6	-57.6	13.0	0.00e+00	0	26	0	89128960	75	5066
2026-01-13 13:34:05.42	272.48	6.35	-54.7	-57.8	12.9	0.00e+00	0	26	0	91226112	75	5169
2026-01-13 13:34:06.42	272.63	6.38	-54.8	-57.9	12.9	0.00e+00	0	26	0	93323264	75	5235
2026-01-13 13:34:07.42	272.78	6.41	-54.8	-57.9	12.8	0.00e+00	0	26	0	94371840	75	5235
2026-01-13 13:34:08.42	272.92	6.44	-54.7	-57.8	12.9	0.00e+00	0	26	0	96468992	75	5199
2026-01-13 13:34:09.42	273.07	6.47	-54.7	-57.8	12.9	0.00e+00	0	26	0	98566144	75	5176
2026-01-13 13:34:10.41	273.21	6.50	-54.7	-57.7	13.0	0.00e+00	0	26	0	100663296	75	5142
2026-01-13 13:34:11.41	273.36	6.53	-54.9	-58.0	12.8	0.00e+00	0	26	0	102760448	75	5336
2026-01-13 13:34:12.40	273.51	6.55	-54.8	-57.8	12.9	0.00e+00	0	26	0	103809024	75	5216
2026-01-13 13:34:13.40	273.65	6.58	-54.8	-57.8	12.9	0.00e+00	0	26	0	105906176	75	5196
2026-01-13 13:34:14.39	273.80	6.61	-54.7	-57.7	12.9	0.00e+00	0	26	0	108003328	75	5143
2026-01-13 13:34:15.40	273.95	6.64	-54.7	-57.6	13.0	0.00e+00	0	26	0	110100480	75	5094
2026-01-13 13:34:16.40	274.10	6.67	-54.6	-57.5	13.1	0.00e+00	0	26	0	111149056	75	5002
2026-01-13 13:34:17.40	274.25	6.70	-54.5	-57.3	13.2	0.00e+00	0	26	0	113246208	75	4923
2026-01-13 13:34:18.40	274.40	6.73	-54.5	-57.3	13.2	0.00e+00	0	26	0	115343360	75	4911
2026-01-13 13:34:19.40	274.55	6.75	-54.4	-57.1	13.3	0.00e+00	0	26	0	117440512	75	4809
2026-01-13 13:34:20.41	274.70	6.78	-54.4	-57.3	13.3	0.00e+00	0	26	0	119537664	75	4872
2026-01-13 13:34:21.41	274.85	6.81	-54.4	-57.2	13.3	0.00e+00	0	26	0	120586240	75	4837
2026-01-13 13:34:22.41	275.00	6.84	-54.4	-57.3	13.2	0.00e+00	0	26	0	122683392	75	4890
2026-01-13 13:34:23.41	275.15	6.87	-54.5	-57.4	13.1	0.00e+00	0	26	0	124780544	75	4981
2026-01-13 13:34:24.41	275.30	6.89	-54.6	-57.6	13.1	0.00e+00	0	26	0	126877696	75	5055
2026-01-13 13:34:25.41	275.45	6.92	-54.6	-57.6	13.1	0.00e+00	0	26	0	128974848	75	5047
2026-01-13 13:34:26.41	275.60	6.95	-54.6	-57.5	13.1	0.00e+00	0	26	0	130023424	75	5005
2026-01-13 13:34:27.41	275.75	6.98	-54.7	-57.7	13.0	0.00e+00	0	26	0	132120576	75	5136
2026-01-13 13:34:28.41	275.90	7.00	-54.8	-57.9	12.8	0.00e+00	0	26	0	134217728	75	5245
2026-01-13 13:34:29.41	276.05	7.03	-55.0	-58.2	12.7	0.00e+00	0	27	0	136314880	75	5411
2026-01-13 13:34:30.40	276.20	7.06	-55.0	-58.3	12.6	0.00e+00	0	26	0	137363456	75	5475
2026-01-13 13:34:31.39	276.36	7.08	-54.9	-58.1	12.7	0.00e+00	0	26	0	139460608	75	5384
2026-01-13 13:34:32.39	276.51	7.11	-54.8	-57.9	12.9	0.00e+00	0	26	0	141557760	75	5236
2026-01-13 13:34:33.39	276.66	7.13	-54.6	-57.5	13.1	0.00e+00	0	26	0	143654912	75	5020
2026-01-13 13:34:34.39	276.82	7.16	-54.5	-57.4	13.2	0.00e+00	0	26	0	145752064	75	4950
2026-01-13 13:34:35.39	276.97	7.19	-54.4	-57.2	13.3	0.00e+00	0	26	0	146800640	75	4866
2026-01-13 13:34:36.38	277.12	7.21	-54.5	-57.3	13.3	0.00e+00	0	26	0	148897792	75	4894
2026-01-13 13:34:37.38	277.28	7.24	-54.5	-57.3	13.2	0.00e+00	0	26	0	150994944	75	4919
2026-01-13 13:34:38.37	277.43	7.26	-54.6	-57.6	13.1	0.00e+00	0	26	0	153092096	75	5050
2026-01-13 13:34:39.38	277.58	7.29	-54.7	-57.7	13.0	0.00e+00	0	26	0	155189248	75	5132
2026-01-13 13:34:40.37	277.74	7.31	-54.9	-58.0	12.8	0.00e+00	0	26	0	156237824	75	5290
2026-01-13 13:34:41.37	277.89	7.34	-54.9	-58.0	12.8	0.00e+00	0	26	0	158334976	75	5303
2026-01-13 13:34:42.37	278.05	7.36	-54.9	-58.1	12.7	0.00e+00	0	26	0	160432128	75	5348
2026-01-13 13:34:43.37	278.20	7.39	-55.0	-58.3	12.6	0.00e+00	0	26	0	162529280	75	5482
2026-01-13 13:34:44.36	278.36	7.41	-54.9	-58.0	12.8	0.00e+00	0	26	0	163577856	75	5318
2026-01-13 13:34:45.37	278.52	7.44	-55.0	-58.1	12.7	0.00e+00	0	26	0	165675008	75	5379
2026-01-13 13:34:46.37	278.67	7.46	-55.0	-58.1	12.7	0.00e+00	0	26	0	167772160	75	5374
2026-01-13 13:34:47.37	278.83	7.49	-54.9	-58.1	12.7	0.00e+00	0	26	0	169869312	75	5347
2026-01-13 13:34:48.36	278.98	7.51	-54.8	-57.9	12.9	0.00e+00	0	26	0	171966464	75	5228
2026-01-13 13:34:49.36	279.14	7.53	-55.0	-58.2	12.7	0.00e+00	0	26	0	173015040	75	5430
2026-01-13 13:34:50.35	279.30	7.56	-55.0	-58.2	12.6	0.00e+00	0	26	0	175112192	75	5460
2026-01-13 13:34:51.35	279.45	7.58	-55.2	-58.5	12.5	7.00e-07	0	26	0	177209344	75	5631
2026-01-13 13:34:52.34	279.61	7.60	-55.2	-58.4	12.5	0.00e+00	0	26	0	179306496	75	5589
2026-01-13 13:34:53.33	279.77	7.63	-55.1	-58.3	12.6	0.00e+00	0	26	0	180355072	75	5514
2026-01-13 13:34:54.32	279.92	7.65	-55.0	-58.2	12.7	0.00e+00	0	26	0	182452224	75	5412
2026-01-13 13:34:55.32	280.08	7.67	-54.8	-57.8	12.9	0.00e+00	0	26	0	184549376	75	5204
2026-01-13 13:34:56.31	280.24	7.69	-54.9	-57.9	12.8	0.00e+00	0	26	0	186646528	75	5279
2026-01-13 13:34:57.30	280.40	7.72	-54.8	-57.8	12.9	0.00e+00	0	26	0	188743680	75	5170
2026-01-13 13:34:58.31	280.56	7.74	-54.8	-57.8	13.0	0.00e+00	0	26	0	189792256	75	5161
2026-01-13 13:34:59.30	280.72	7.76	-54.7	-57.7	13.0	0.00e+00	0	26	0	191889408	75	5126
2026-01-13 13:35:00.29	280.87	7.78	-54.7	-57.6	13.1	0.00e+00	0	26	0	193986560	75	5056
2026-01-13 13:35:01.29	281.03	7.80	-54.8	-57.8	13.0	0.00e+00	0	26	0	196083712	75	5182
2026-01-13 13:35:02.28	281.19	7.83	-55.0	-58.1	12.7	0.00e+00	0	26	0	197132288	75	5380
2026-01-13 13:35:03.28	281.35	7.85	-55.0	-58.2	12.7	0.00e+00	0	26	0	199229440	75	5435
2026-01-13 13:35:04.28	281.51	7.87	-55.1	-58.3	12.6	0.00e+00	0	26	0	201326592	75	5511
2026-01-13 13:35:05.28	281.67	7.89	-55.4	-58.7	12.5	0.00e+00	0	26	0	203423744	76	5461
2026-01-13 13:35:06.27	281.83	7.91	-55.7	-59.3	12.1	7.00e-07	0	26	0	205520896	76	5810
2026-01-13 13:35:07.27	282.00	7.93	-55.8	-59.5	11.9	2.20e-06	0	26	0	206569472	76	5965
2026-01-13 13:35:08.27	282.16	7.95	-55.8	-59.5	12.0	7.00e-07	0	26	0	208666624	76	5933
2026-01-13 13:35:09.27	282.32	7.97	-55.8	-59.5	12.0	3.00e-06	0	26	0	210763776	76	5952
2026-01-13 13:35:10.26	282.48	7.99	-55.7	-59.2	12.2	2.20e-06	0	26	0	212860928	76	5766
2026-01-13 13:35:11.27	282.64	8.01	-55.5	-58.9	12.4	7.00e-07	0	26	0	214958080	76	5584
2026-01-13 13:35:12.27	282.80	8.03	-55.4	-58.7	12.5	0.00e+00	0	26	0	216006656	76	5416
2026-01-13 13:35:13.28	282.97	8.05	-55.3	-58.6	12.6	0.00e+00	0	26	0	218103808	76	5352
2026-01-13 13:35:14.28	283.13	8.07	-55.1	-58.2	12.8	0.00e+00	0	26	0	220200960	76	5158
2026-01-13 13:35:15.28	283.29	8.09	-55.0	-58.1	12.9	0.00e+00	0	26	0	222298112	76	5069
2026-01-13 13:35:16.29	283.46	8.11	-55.0	-58.0	13.0	0.00e+00	0	26	0	224395264	76	5039
2026-01-13 13:35:17.29	283.62	8.13	-55.1	-58.2	12.8	0.00e+00	0	26	0	225443840	76	5156
2026-01-13 13:35:18.29	283.79	8.15	-55.0	-58.0	13.0	0.00e+00	0	26	0	227540992	76	4997
2026-01-13 13:35:19.28	283.95	8.17	-55.0	-58.0	13.0	0.00e+00	0	26	0	229638144	76	4998
2026-01-13 13:35:20.28	284.11	8.19	-55.0	-58.0	13.0	0.00e+00	0	26	0	231735296	76	5024
2026-01-13 13:35:21.27	284.28	8.20	-54.9	-57.9	13.1	0.00e+00	0	26	0	232783872	76	4940
2026-01-13 13:35:22.27	284.44	8.22	-54.9	-57.7	13.2	0.00e+00	0	26	0	234881024	76	4858
2026-01-13 13:35:23.27	284.60	8.24	-55.0	-57.9	13.1	0.00e+00	0	26	0	236978176	76	4964
2026-01-13 13:35:24.27	284.77	8.26	-54.9	-57.7	13.2	0.00e+00	0	26	0	239075328	76	4856
2026-01-13 13:35:25.26	284.93	8.27	-54.8	-57.6	13.3	0.00e+00	0	26	0	241172480	76	4761
2026-01-13 13:35:26.26	285.10	8.29	-54.9	-57.7	13.2	0.00e+00	0	26	0	242221056	76	4854
2026-01-13 13:35:27.26	285.26	8.31	-55.1	-58.1	13.0	0.00e+00	0	26	0	244318208	76	5065
2026-01-13 13:35:28.25	285.43	8.33	-55.2	-58.3	12.8	7.00e-07	0	26	0	246415360	76	5183
2026-01-13 13:35:29.25	285.59	8.34	-55.3	-58.5	12.7	0.00e+00	0	26	0	248512512	76	5280
2026-01-13 13:35:30.25	285.76	8.36	-55.5	-58.8	12.5	7.00e-07	0	26	0	249561088	76	5492
2026-01-13 13:35:31.25	285.92	8.37	-55.5	-58.8	12.5	0.00e+00	0	26	0	251658240	76	5491
2026-01-13 13:35:32.24	286.09	8.39	-55.5	-58.8	12.5	0.00e+00	0	26	0	253755392	76	5501
2026-01-13 13:35:33.24	286.26	8.41	-55.5	-58.8	12.5	0.00e+00	0	26	0	255852544	76	5479
2026-01-13 13:35:34.23	286.42	8.42	-55.1	-58.1	12.9	0.00e+00	0	26	0	257949696	76	5100
2026-01-13 13:35:35.23	286.59	8.44	-54.9	-57.8	13.1	0.00e+00	0	26	0	258998272	76	4896
2026-01-13 13:35:36.23	286.75	8.45	-54.7	-57.5	13.3	0.00e+00	0	26	0	261095424	76	4740
2026-01-13 13:35:37.23	286.92	8.47	-54.6	-57.3	13.3	0.00e+00	0	26	0	263192576	75	4903
2026-01-13 13:35:38.23	287.09	8.48	-54.7	-57.5	13.2	0.00e+00	0	26	0	265289728	75	5009
2026-01-13 13:35:39.22	287.25	8.50	-54.7	-57.5	13.2	0.00e+00	0	26	0	267386880	75	5040
2026-01-13 13:35:40.22	287.42	8.51	-54.8	-57.7	13.1	0.00e+00	0	26	0	268435456	75	5106
2026-01-13 13:35:41.22	287.59	8.53	-54.8	-57.6	13.1	0.00e+00	0	26	0	270532608	75	5100
2026-01-13 13:35:42.22	287.76	8.54	-54.9	-57.8	13.0	0.00e+00	0	26	0	272629760	75	5193
2026-01-13 13:35:43.21	287.92	8.55	-54.8	-57.8	13.1	0.00e+00	0	26	0	274726912	75	5171
2026-01-13 13:35:44.21	288.09	8.57	-54.6	-57.4	13.3	0.00e+00	0	27	0	276824064	75	4962
2026-01-13 13:35:45.21	288.26	8.58	-54.5	-57.2	13.4	0.00e+00	0	26	0	277872640	75	4830
2026-01-13 13:35:46.20	288.43	8.60	-54.4	-57.1	13.5	0.00e+00	0	27	0	279969792	75	4764
2026-01-13 13:35:47.19	288.59	8.61	-54.4	-57.0	13.5	0.00e+00	0	26	0	282066944	75	4710
2026-01-13 13:35:48.18	288.76	8.62	-54.3	-56.9	13.6	0.00e+00	0	27	0	284164096	75	4687
2026-01-13 13:35:49.18	288.93	8.63	-54.4	-57.0	13.5	0.00e+00	0	26	0	285212672	75	4751
2026-01-13 13:35:50.17	289.10	8.65	-54.4	-57.0	13.5	0.00e+00	0	26	0	287309824	75	4726
2026-01-13 13:35:51.17	289.27	8.66	-54.5	-57.2	13.4	0.00e+00	0	26	0	289406976	75	4846
2026-01-13 13:35:52.16	289.44	8.67	-54.6	-57.4	13.3	0.00e+00	0	26	0	291504128	75	4939
2026-01-13 13:35:53.16	289.60	8.68	-54.5	-57.2	13.4	0.00e+00	0	26	0	293601280	75	4853
2026-01-13 13:35:54.14	289.77	8.69	-54.4	-57.0	13.5	0.00e+00	0	26	0	294649856	75	4747
2026-01-13 13:35:55.14	289.94	8.70	-54.4	-57.0	13.5	0.00e+00	0	26	0	296747008	75	4758
2026-01-13 13:35:56.13	290.11	8.72	-54.4	-57.0	13.6	0.00e+00	0	26	0	298844160	75	4715
2026-01-13 13:35:57.13	290.28	8.73	-54.4	-57.0	13.6	0.00e+00	0	26	0	300941312	75	4738
2026-01-13 13:35:58.12	290.45	8.74	-54.7	-57.5	13.3	0.00e+00	0	27	0	301989888	75	4987
2026-01-13 13:35:59.12	290.62	8.75	-54.9	-57.7	13.1	0.00e+00	0	26	0	304087040	75	5155
2026-01-13 13:36:00.12	290.79	8.76	-55.0	-58.1	12.9	0.00e+00	0	26	0	306184192	75	5347
2026-01-13 13:36:01.11	290.96	8.77	-55.2	-58.3	12.7	0.00e+00	0	26	0	308281344	75	5523
2026-01-13 13:36:02.12	291.13	8.78	-55.6	-59.0	12.5	0.00e+00	0	26	0	310378496	76	5596
2026-01-13 13:36:03.12	291.30	8.79	-55.8	-59.2	12.3	0.00e+00	0	26	0	311427072	76	5776
2026-01-13 13:36:04.12	291.47	8.80	-55.7	-59.2	12.3	0.00e+00	0	26	0	313524224	76	5743
2026-01-13 13:36:05.12	291.64	8.81	-55.7	-59.2	12.3	0.00e+00	0	26	0	315621376	76	5724
2026-01-13 13:36:06.12	291.81	8.82	-55.6	-58.9	12.5	0.00e+00	0	26	0	317718528	76	5590
2026-01-13 13:36:07.12	291.98	8.83	-55.4	-58.5	12.7	0.00e+00	0	26	0	318767104	76	5332
2026-01-13 13:36:08.12	292.15	8.83	-55.5	-58.7	12.6	0.00e+00	0	26	0	320864256	76	5450
2026-01-13 13:36:09.12	292.33	8.84	-55.4	-58.6	12.7	0.00e+00	0	26	0	322961408	76	5359
2026-01-13 13:36:10.12	292.50	8.85	-55.5	-58.7	12.6	0.00e+00	0	27	0	325058560	76	5428
2026-01-13 13:36:11.12	292.67	8.86	-55.5	-58.7	12.6	0.00e+00	0	26	0	327155712	76	5415
2026-01-13 13:36:12.11	292.84	8.87	-55.5	-58.8	12.6	0.00e+00	0	26	0	328204288	76	5479
2026-01-13 13:36:13.11	293.01	8.87	-55.6	-58.8	12.6	0.00e+00	0	26	0	330301440	76	5517
2026-01-13 13:36:14.11	293.18	8.88	-55.5	-58.7	12.6	0.00e+00	0	27	0	332398592	76	5458
2026-01-13 13:36:15.12	293.36	8.89	-55.6	-58.8	12.5	0.00e+00	0	27	0	334495744	76	5528
2026-01-13 13:36:16.12	293.53	8.90	-55.6	-58.8	12.5	7.00e-07	0	26	0	336592896	76	5514
2026-01-13 13:36:17.12	293.70	8.90	-55.6	-58.9	12.5	0.00e+00	0	26	0	337641472	76	5560
2026-01-13 13:36:18.12	293.87	8.91	-55.6	-58.9	12.5	7.00e-07	0	26	0	339738624	76	5580
2026-01-13 13:36:19.12	294.04	8.92	-55.8	-59.2	12.4	7.00e-07	0	27	0	341835776	76	5727
2026-01-13 13:36:20.12	294.22	8.92	-55.8	-59.3	12.3	1.50e-06	0	27	0	343932928	76	5815
2026-01-13 13:36:21.11	294.39	8.93	-56.0	-59.6	12.1	0.00e+00	0	26	0	344981504	77	5696
2026-01-13 13:36:22.11	294.56	8.93	-55.9	-59.5	12.2	7.00e-07	0	26	0	347078656	77	5599
2026-01-13 13:36:23.11	294.73	8.94	-55.9	-59.5	12.2	7.00e-07	0	26	0	349175808	77	5620
2026-01-13 13:36:24.10	294.90	8.94	-55.9	-59.4	12.2	1.50e-06	0	26	0	351272960	77	5587
2026-01-13 13:36:25.10	295.07	8.95	-55.8	-59.3	12.3	7.00e-07	0	27	0	353370112	77	5468
2026-01-13 13:36:26.09	295.24	8.95	-55.7	-59.1	12.5	0.00e+00	0	26	0	354418688	77	5355
2026-01-13 13:36:27.09	295.42	8.96	-55.7	-59.0	12.5	0.00e+00	0	27	0	356515840	77	5315
2026-01-13 13:36:28.10	295.59	8.96	-55.5	-58.7	12.8	0.00e+00	0	27	0	358612992	77	5110
2026-01-13 13:36:29.10	295.76	8.97	-55.5	-58.6	12.7	0.00e+00	0	27	0	360710144	77	5087
2026-01-13 13:36:30.10	295.94	8.97	-55.4	-58.5	12.8	0.00e+00	0	26	0	361758720	77	4999
2026-01-13 13:36:31.10	296.11	8.97	-55.4	-58.5	12.9	0.00e+00	0	26	0	363855872	77	5029
2026-01-13 13:36:32.11	296.28	8.98	-55.4	-58.6	12.8	0.00e+00	0	26	0	365953024	77	5079
2026-01-13 13:36:33.12	296.46	8.98	-55.4	-58.5	12.9	0.00e+00	0	26	0	368050176	77	5011
2026-01-13 13:36:34.12	296.63	8.98	-55.4	-58.5	12.9	0.00e+00	0	26	0	370147328	77	5008
2026-01-13 13:36:35.11	296.80	8.99	-55.4	-58.5	12.8	0.00e+00	0	27	0	372244480	77	5031
2026-01-13 13:36:36.11	296.98	8.99	-55.4	-58.5	12.9	0.00e+00	0	27	0	373293056	77	5009
2026-01-13 13:36:37.12	297.15	8.99	-55.4	-58.5	12.8	0.00e+00	0	27	0	375390208	77	5034
2026-01-13 13:36:38.12	297.32	8.99	-55.3	-58.3	13.0	0.00e+00	0	27	0	377487360	77	4919
2026-01-13 13:36:39.11	297.49	8.99	-55.2	-58.3	13.0	0.00e+00	0	27	0	379584512	77	4889
2026-01-13 13:36:40.12	297.67	9.00	-55.3	-58.3	13.0	0.00e+00	0	26	0	380633088	77	4901
2026-01-13 13:36:41.11	297.84	9.00	-55.1	-58.1	13.0	0.00e+00	0	27	0	382730240	76	5080
2026-01-13 13:36:42.11	298.01	9.00	-55.2	-58.2	12.9	0.00e+00	0	27	0	384827392	76	5157
2026-01-13 13:36:43.11	298.19	9.00	-55.3	-58.4	12.8	0.00e+00	0	27	0	386924544	76	5265
2026-01-13 13:36:44.11	298.36	9.00	-55.3	-58.5	12.8	0.00e+00	0	27	0	389021696	76	5283
2026-01-13 13:36:45.11	298.53	9.00	-55.3	-58.4	12.8	0.00e+00	0	26	0	390070272	76	5277
2026-01-13 13:36:46.10	298.70	9.00	-55.4	-58.6	12.7	0.00e+00	0	26	0	392167424	76	5349
2026-01-13 13:36:47.10	298.88	9.00	-55.3	-58.3	12.9	0.00e+00	0	26	0	394264576	76	5202
2026-01-13 13:36:48.10	299.05	9.00	-55.1	-58.1	13.0	0.00e+00	0	26	0	396361728	76	5053
2026-01-13 13:36:49.09	299.22	9.00	-55.0	-57.8	13.1	0.00e+00	0	26	0	397410304	76	4922
2026-01-13 13:36:50.09	299.39	9.00	-54.8	-57.6	13.3	0.00e+00	0	27	0	399507456	76	4798
2026-01-13 13:36:51.08	299.57	9.00	-54.7	-57.4	13.4	0.00e+00	0	26	0	401604608	76	4704
2026-01-13 13:36:52.07	299.74	9.00	-54.8	-57.5	13.4	0.00e+00	0	27	0	403701760	76	4754
2026-01-13 13:36:53.08	299.91	9.00	-54.7	-57.5	13.2	0.00e+00	0	26	0	405798912	75	4990
2026-01-13 13:36:54.07	300.08	8.99	-54.6	-57.3	13.4	0.00e+00	0	26	0	406847488	75	4891
2026-01-13 13:36:55.06	300.25	8.99	-54.6	-57.3	13.3	0.00e+00	0	26	0	408944640	75	4925
2026-01-13 13:36:56.06	300.43	8.99	-54.5	-57.2	13.4	0.00e+00	0	27	0	411041792	75	4820
2026-01-13 13:36:57.07	300.60	8.99	-54.5	-57.1	13.5	0.00e+00	0	26	0	413138944	75	4790
2026-01-13 13:36:58.07	300.77	8.99	-54.3	-56.9	13.6	0.00e+00	0	26	0	415236096	75	4664
2026-01-13 13:36:59.07	300.95	8.98	-54.2	-56.7	13.7	0.00e+00	0	26	0	416284672	75	4576
2026-01-13 13:37:00.07	301.12	8.98	-54.0	-56.4	13.7	0.00e+00	0	26	0	418381824	74	4702
2026-01-13 13:37:01.07	301.29	8.98	-54.0	-56.5	13.7	0.00e+00	0	26	0	420478976	74	4718
2026-01-13 13:37:02.08	301.47	8.97	-54.0	-56.5	13.7	0.00e+00	0	27	0	422576128	74	4707
2026-01-13 13:37:03.08	301.64	8.97	-54.1	-56.6	13.6	0.00e+00	0	27	0	423624704	74	4799
2026-01-13 13:37:04.07	301.81	8.97	-54.1	-56.6	13.6	0.00e+00	0	26	0	425721856	74	4788
2026-01-13 13:37:05.08	301.98	8.96	-54.3	-56.8	13.5	0.00e+00	0	26	0	427819008	74	4920
2026-01-13 13:37:06.08	302.16	8.96	-54.4	-57.0	13.4	0.00e+00	0	26	0	429916160	74	5002
2026-01-13 13:37:07.07	302.33	8.95	-54.5	-57.1	13.3	0.00e+00	0	27	0	432013312	74	5086
2026-01-13 13:37:08.07	302.50	8.95	-54.6	-57.4	13.2	0.00e+00	0	26	0	433061888	74	5250
2026-01-13 13:37:09.07	302.67	8.94	-54.4	-57.1	13.3	0.00e+00	0	27	0	435159040	74	5078
2026-01-13 13:37:10.07	302.84	8.94	-54.4	-57.1	13.4	0.00e+00	0	27	0	437256192	74	5051
2026-01-13 13:37:11.08	303.02	8.93	-54.2	-56.8	13.5	0.00e+00	0	27	0	439353344	74	4898
2026-01-13 13:37:12.08	303.19	8.93	-54.2	-56.7	13.6	0.00e+00	0	26	0	441450496	74	4869
2026-01-13 13:37:13.09	303.36	8.92	-54.2	-56.7	13.5	0.00e+00	0	27	0	442499072	74	4862
2026-01-13 13:37:14.08	303.54	8.92	-54.2	-56.8	13.5	0.00e+00	0	27	0	444596224	74	4892
2026-01-13 13:37:15.08	303.71	8.91	-54.4	-57.0	13.4	0.00e+00	0	27	0	446693376	74	5017
2026-01-13 13:37:16.08	303.88	8.90	-54.5	-57.2	13.3	0.00e+00	0	27	0	448790528	74	5102
2026-01-13 13:37:17.08	304.05	8.90	-54.6	-57.5	13.1	0.00e+00	0	27	0	450887680	74	5293
2026-01-13 13:37:18.08	304.22	8.89	-54.6	-57.4	13.2	0.00e+00	0	27	0	451936256	74	5262
2026-01-13 13:37:19.07	304.39	8.88	-54.4	-57.1	13.3	0.00e+00	0	26	0	454033408	74	5066
2026-01-13 13:37:20.06	304.56	8.88	-54.3	-56.9	13.5	0.00e+00	0	26	0	456130560	74	4955
2026-01-13 13:37:21.06	304.73	8.87	-54.2	-56.7	13.5	0.00e+00	0	27	0	458227712	74	4846
2026-01-13 13:37:22.06	304.91	8.86	-54.3	-56.9	13.5	0.00e+00	0	27	0	459276288	74	4936
2026-01-13 13:37:23.06	305.08	8.85	-54.0	-56.4	13.7	0.00e+00	0	27	0	461373440	74	4684
2026-01-13 13:37:24.06	305.25	8.84	-53.9	-56.3	13.8	0.00e+00	0	26	0	463470592	74	4635
2026-01-13 13:37:25.06	305.42	8.84	-54.0	-56.4	13.8	0.00e+00	0	27	0	465567744	74	4671
2026-01-13 13:37:26.07	305.59	8.83	-54.0	-56.5	13.7	0.00e+00	0	27	0	467664896	74	4736
2026-01-13 13:37:27.07	305.76	8.82	-54.1	-56.6	13.6	0.00e+00	0	27	0	468713472	74	4766
2026-01-13 13:37:28.08	305.93	8.81	-54.0	-56.5	13.6	0.00e+00	0	26	0	470810624	74	4743
2026-01-13 13:37:29.08	306.11	8.80	-54.1	-56.6	13.6	0.00e+00	0	26	0	472907776	74	4798
2026-01-13 13:37:30.08	306.28	8.79	-54.1	-56.6	13.6	0.00e+00	0	27	0	475004928	74	4789
2026-01-13 13:37:31.09	306.45	8.78	-53.9	-56.4	13.7	0.00e+00	0	27	0	477102080	74	4681
2026-01-13 13:37:32.09	306.62	8.77	-53.9	-56.3	13.7	0.00e+00	0	27	0	478150656	74	4640
2026-01-13 13:37:33.10	306.79	8.76	-53.6	-55.9	13.8	0.00e+00	0	27	0	480247808	73	4699
2026-01-13 13:37:34.10	306.96	8.75	-53.5	-55.7	14.0	0.00e+00	0	26	0	482344960	73	4578
2026-01-13 13:37:35.09	307.13	8.74	-53.4	-55.6	14.0	0.00e+00	0	27	0	484442112	73	4517
2026-01-13 13:37:36.10	307.30	8.73	-53.1	-55.2	14.1	0.00e+00	0	26	0	486539264	72	4582
2026-01-13 13:37:37.10	307.47	8.72	-53.1	-55.2	14.1	0.00e+00	0	27	0	487587840	72	4582
2026-01-13 13:37:38.10	307.64	8.71	-53.1	-55.2	14.1	0.00e+00	0	26	0	489684992	72	4555
2026-01-13 13:37:39.10	307.81	8.70	-53.2	-55.4	14.0	0.00e+00	0	26	0	491782144	72	4658
2026-01-13 13:37:40.11	307.98	8.68	-53.3	-55.5	14.0	0.00e+00	0	27	0	493879296	72	4742
2026-01-13 13:37:41.11	308.15	8.67	-53.4	-55.6	13.9	0.00e+00	0	27	0	495976448	72	4808
2026-01-13 13:37:42.11	308.32	8.66	-53.5	-55.8	13.8	0.00e+00	0	27	0	497025024	72	4903
2026-01-13 13:37:43.11	308.49	8.65	-53.6	-55.9	13.7	0.00e+00	0	27	0	499122176	72	4964
2026-01-13 13:37:44.12	308.66	8.63	-53.6	-56.0	13.7	0.00e+00	0	26	0	501219328	72	5009
2026-01-13 13:37:45.12	308.83	8.62	-53.6	-56.0	13.7	0.00e+00	0	26	0	503316480	72	5007
2026-01-13 13:37:46.11	308.99	8.61	-53.6	-55.9	13.7	0.00e+00	0	27	0	504365056	72	4943
2026-01-13 13:37:47.11	309.16	8.60	-53.6	-56.0	13.7	0.00e+00	0	26	0	506462208	72	5016
2026-01-13 13:37:48.11	309.33	8.58	-53.6	-55.9	13.7	0.00e+00	0	27	0	508559360	72	4947
2026-01-13 13:37:49.11	309.50	8.57	-53.7	-56.1	13.6	0.00e+00	0	27	0	510656512	72	5060
2026-01-13 13:37:50.11	309.67	8.56	-53.7	-56.0	13.7	0.00e+00	0	27	0	512753664	72	5038
2026-01-13 13:37:51.11	309.83	8.54	-53.7	-56.1	13.7	0.00e+00	0	27	0	513802240	72	5086
2026-01-13 13:37:52.11	310.00	8.53	-53.7	-56.2	13.6	0.00e+00	0	27	0	515899392	72	5110
2026-01-13 13:37:53.11	310.17	8.51	-53.7	-56.2	13.6	0.00e+00	0	27	0	517996544	72	5108
2026-01-13 13:37:54.11	310.34	8.50	-53.7	-56.1	13.7	0.00e+00	0	26	0	520093696	72	5058
2026-01-13 13:37:55.11	310.50	8.48	-53.6	-56.0	13.7	0.00e+00	0	27	0	522190848	72	5000
2026-01-13 13:37:56.10	310.67	8.47	-53.6	-56.0	13.7	0.00e+00	0	27	0	523239424	72	5002
2026-01-13 13:37:57.10	310.84	8.45	-53.6	-56.0	13.7	0.00e+00	0	26	0	525336576	72	5007
2026-01-13 13:37:58.10	311.00	8.44	-53.6	-55.9	13.7	0.00e+00	0	27	0	527433728	72	4958
2026-01-13 13:37:59.10	311.17	8.42	-53.5	-55.8	13.8	0.00e+00	0	27	0	529530880	72	4923
2026-01-13 13:38:00.09	311.33	8.41	-53.6	-56.0	13.7	0.00e+00	0	27	0	530579456	72	4986
2026-01-13 13:38:01.09	311.50	8.39	-53.5	-55.9	13.8	0.00e+00	0	26	0	532676608	72	4927
2026-01-13 13:38:02.09	311.67	8.38	-53.5	-55.8	13.8	0.00e+00	0	27	0	534773760	72	4892
2026-01-13 13:38:03.09	311.83	8.36	-53.4	-55.7	13.8	0.00e+00	0	26	0	536870912	72	4855
2026-01-13 13:38:04.08	312.00	8.34	-53.6	-56.0	13.7	0.00e+00	0	27	0	538968064	72	4993
2026-01-13 13:38:05.08	312.16	8.33	-53.7	-56.1	13.6	0.00e+00	0	26	0	540016640	72	5057
2026-01-13 13:38:06.08	312.33	8.31	-53.8	-56.2	13.6	0.00e+00	0	27	0	542113792	72	5143
2026-01-13 13:38:07.08	312.49	8.29	-53.9	-56.4	13.6	0.00e+00	0	27	0	544210944	73	4954
2026-01-13 13:38:08.08	312.66	8.28	-54.0	-56.5	13.6	0.00e+00	0	27	0	546308096	73	4993
2026-01-13 13:38:09.08	312.82	8.26	-54.2	-56.9	13.3	0.00e+00	0	26	0	548405248	73	5223
2026-01-13 13:38:10.08	312.98	8.24	-54.2	-56.9	13.3	0.00e+00	0	27	0	549453824	73	5231
2026-01-13 13:38:11.08	313.15	8.22	-54.2	-56.9	13.3	0.00e+00	0	27	0	551550976	73	5221
2026-01-13 13:38:12.08	313.31	8.21	-54.3	-56.9	13.3	0.00e+00	0	26	0	553648128	73	5265
2026-01-13 13:38:13.08	313.48	8.19	-54.3	-57.0	13.2	0.00e+00	0	26	0	555745280	73	5312
2026-01-13 13:38:14.08	313.64	8.17	-54.2	-56.9	13.3	0.00e+00	0	27	0	556793856	73	5225
2026-01-13 13:38:15.08	313.80	8.15	-54.2	-56.9	13.3	0.00e+00	0	27	0	558891008	73	5241
2026-01-13 13:38:16.07	313.97	8.13	-54.1	-56.7	13.4	0.00e+00	0	27	0	560988160	73	5108
2026-01-13 13:38:17.07	314.13	8.11	-54.0	-56.5	13.5	0.00e+00	0	27	0	563085312	73	5003
2026-01-13 13:38:18.08	314.29	8.09	-53.9	-56.4	13.6	0.00e+00	0	27	0	565182464	73	4956
2026-01-13 13:38:19.08	314.46	8.07	-53.9	-56.4	13.6	0.00e+00	0	27	0	566231040	73	4933
2026-01-13 13:38:20.08	314.62	8.05	-53.5	-55.8	13.9	0.00e+00	0	26	0	568328192	73	4616
2026-01-13 13:38:21.09	314.78	8.03	-53.2	-55.3	14.1	0.00e+00	0	27	0	570425344	73	4382
2026-01-13 13:38:22.09	314.94	8.01	-53.0	-55.1	14.1	0.00e+00	0	27	0	572522496	72	4529
2026-01-13 13:38:23.09	315.11	8.00	-52.8	-54.8	14.3	0.00e+00	0	26	0	574619648	72	4388
2026-01-13 13:38:24.10	315.27	7.97	-52.5	-54.5	14.3	0.00e+00	0	27	0	575668224	71	4459
2026-01-13 13:38:25.10	315.43	7.95	-52.5	-54.4	14.3	0.00e+00	0	26	0	577765376	71	4429
2026-01-13 13:38:26.10	315.59	7.93	-52.5	-54.5	14.3	0.00e+00	0	26	0	579862528	71	4464
2026-01-13 13:38:27.10	315.75	7.91	-52.7	-54.7	14.2	0.00e+00	0	26	0	581959680	71	4565
2026-01-13 13:38:28.10	315.91	7.89	-52.8	-54.9	14.1	0.00e+00	0	26	0	583008256	71	4659
2026-01-13 13:38:29.10	316.07	7.87	-52.9	-55.0	14.0	0.00e+00	0	27	0	585105408	71	4759
2026-01-13 13:38:30.10	316.23	7.85	-53.1	-55.2	13.9	0.00e+00	0	27	0	587202560	71	4860
2026-01-13 13:38:31.10	316.39	7.83	-53.1	-55.3	13.9	0.00e+00	0	26	0	589299712	71	4893
2026-01-13 13:38:32.10	316.55	7.81	-53.1	-55.3	13.9	0.00e+00	0	26	0	591396864	71	4892
2026-01-13 13:38:33.10	316.71	7.79	-53.0	-55.1	14.0	0.00e+00	0	26	0	592445440	71	4798
2026-01-13 13:38:34.10	316.87	7.76	-53.0	-55.1	14.0	0.00e+00	0	26	0	594542592	71	4788
2026-01-13 13:38:35.10	317.03	7.74	-52.9	-55.1	14.0	0.00e+00	0	27	0	596639744	71	4763
2026-01-13 13:38:36.10	317.19	7.72	-52.9	-55.0	14.0	0.00e+00	0	27	0	598736896	71	4755
2026-01-13 13:38:37.11	317.35	7.70	-52.9	-55.0	14.0	0.00e+00	0	27	0	600834048	71	4717
2026-01-13 13:38:38.10	317.51	7.67	-53.0	-55.1	14.0	0.00e+00	0	27	0	601882624	71	4813
2026-01-13 13:38:39.10	317.66	7.65	-53.0	-55.2	14.0	0.00e+00	0	26	0	603979776	71	4825
2026-01-13 13:38:40.10	317.82	7.63	-53.0	-55.1	14.0	0.00e+00	0	27	0	606076928	71	4786
2026-01-13 13:38:41.10	317.98	7.61	-53.1	-55.3	13.9	0.00e+00	0	26	0	608174080	71	4911
2026-01-13 13:38:42.10	318.14	7.58	-53.1	-55.3	13.9	0.00e+00	0	26	0	610271232	71	4916
2026-01-13 13:38:43.09	318.29	7.56	-53.1	-55.4	13.9	0.00e+00	0	27	0	611319808	71	4929
2026-01-13 13:38:44.09	318.45	7.54	-53.2	-55.4	13.9	0.00e+00	0	27	0	613416960	71	4945
2026-01-13 13:38:45.09	318.61	7.51	-53.3	-55.6	13.8	0.00e+00	0	26	0	615514112	71	5043
2026-01-13 13:38:46.08	318.76	7.49	-53.3	-55.7	13.7	0.00e+00	0	27	0	617611264	71	5104
2026-01-13 13:38:47.08	318.92	7.46	-53.3	-55.6	13.7	0.00e+00	0	27	0	618659840	71	5081
2026-01-13 13:38:48.08	319.07	7.44	-53.2	-55.5	13.8	0.00e+00	0	27	0	620756992	71	4994
2026-01-13 13:38:49.08	319.23	7.42	-53.1	-55.3	13.9	0.00e+00	0	27	0	622854144	71	4903
2026-01-13 13:38:50.06	319.38	7.39	-53.0	-55.1	14.0	0.00e+00	0	27	0	624951296	71	4814
2026-01-13 13:38:51.06	319.54	7.37	-52.9	-55.0	14.0	0.00e+00	0	27	0	627048448	71	4752
2026-01-13 13:38:52.05	319.69	7.34	-52.8	-55.0	14.0	0.00e+00	0	27	0	628097024	71	4723
2026-01-13 13:38:53.05	319.84	7.32	-52.7	-54.8	14.1	0.00e+00	0	27	0	630194176	71	4651
2026-01-13 13:38:54.05	320.00	7.29	-52.6	-54.6	14.2	0.00e+00	0	27	0	632291328	71	4516
2026-01-13 13:38:55.04	320.15	7.27	-52.6	-54.6	14.2	0.00e+00	0	27	0	634388480	71	4533
2026-01-13 13:38:56.04	320.31	7.24	-52.7	-54.7	14.2	0.00e+00	0	27	0	635437056	71	4569
2026-01-13 13:38:57.03	320.46	7.22	-52.8	-54.9	14.1	0.00e+00	0	27	0	637534208	71	4672
2026-01-13 13:38:58.03	320.61	7.19	-53.0	-55.2	13.9	0.00e+00	0	27	0	639631360	71	4825
2026-01-13 13:38:59.03	320.76	7.17	-53.1	-55.3	13.9	0.00e+00	0	27	0	641728512	71	4901
2026-01-13 13:39:00.03	320.92	7.14	-53.2	-55.5	13.8	0.00e+00	0	26	0	643825664	71	5025
2026-01-13 13:39:01.03	321.07	7.11	-53.3	-55.6	13.7	0.00e+00	0	27	0	644874240	71	5076
2026-01-13 13:39:02.02	321.22	7.09	-53.5	-55.9	13.8	0.00e+00	0	26	0	646971392	72	4936
2026-01-13 13:39:03.01	321.37	7.06	-53.5	-56.0	13.7	0.00e+00	0	27	0	649068544	72	4984
2026-01-13 13:39:04.00	321.52	7.04	-53.5	-55.9	13.7	0.00e+00	0	27	0	651165696	72	4951
2026-01-13 13:39:05.01	321.67	7.01	-53.5	-55.8	13.7	0.00e+00	0	27	0	653262848	72	4924
2026-01-13 13:39:06.02	321.83	6.98	-53.5	-55.8	13.7	0.00e+00	0	26	0	654311424	72	4926
2026-01-13 13:39:07.02	321.98	6.95	-53.4	-55.8	13.7	0.00e+00	0	27	0	656408576	72	4908
2026-01-13 13:39:08.02	322.13	6.93	-53.5	-55.8	13.7	0.00e+00	0	26	0	658505728	72	4923
2026-01-13 13:39:09.02	322.28	6.90	-53.5	-55.9	13.7	0.00e+00	0	27	0	660602880	72	4980
2026-01-13 13:39:10.02	322.43	6.87	-53.5	-55.9	13.6	0.00e+00	0	27	0	661651456	72	4982
2026-01-13 13:39:11.02	322.58	6.85	-53.7	-56.3	13.5	0.00e+00	0	26	0	663748608	72	5165
2026-01-13 13:39:12.02	322.73	6.82	-53.9	-56.5	13.4	0.00e+00	0	27	0	665845760	72	5308
2026-01-13 13:39:13.03	322.88	6.79	-54.0	-56.6	13.4	0.00e+00	0	26	0	667942912	73	5051
2026-01-13 13:39:14.03	323.03	6.76	-54.2	-56.9	13.2	0.00e+00	0	26	0	670040064	73	5227
2026-01-13 13:39:15.03	323.18	6.73	-54.3	-57.1	13.1	0.00e+00	0	27	0	671088640	73	5371
2026-01-13 13:39:16.03	323.33	6.71	-54.2	-57.0	13.1	0.00e+00	0	27	0	673185792	73	5306
2026-01-13 13:39:17.03	323.47	6.68	-54.4	-57.3	13.1	0.00e+00	0	27	0	675282944	74	5169
2026-01-13 13:39:18.04	323.62	6.65	-54.4	-57.3	13.1	0.00e+00	0	27	0	677380096	74	5173
2026-01-13 13:39:19.03	323.77	6.62	-54.4	-57.2	13.2	0.00e+00	0	26	0	679477248	74	5114
2026-01-13 13:39:20.03	323.92	6.59	-54.4	-57.3	13.1	0.00e+00	0	27	0	680525824	74	5181
2026-01-13 13:39:21.04	324.07	6.56	-54.3	-57.1	13.2	0.00e+00	0	27	0	682622976	74	5067
2026-01-13 13:39:22.03	324.21	6.53	-54.4	-57.2	13.1	0.00e+00	0	27	0	684720128	74	5134
2026-01-13 13:39:23.03	324.36	6.51	-54.5	-57.4	13.0	0.00e+00	0	26	0	686817280	74	5247
2026-01-13 13:39:24.03	324.50	6.48	-54.4	-57.3	13.1	0.00e+00	0	26	0	688914432	74	5179
2026-01-13 13:39:25.03	324.65	6.45	-54.5	-57.4	13.0	0.00e+00	0	26	0	689963008	74	5277
2026-01-13 13:39:26.03	324.79	6.42	-54.6	-57.7	12.8	0.00e+00	0	27	0	692060160	74	5416
2026-01-13 13:39:27.03	324.94	6.39	-54.6	-57.7	12.8	0.00e+00	0	27	0	694157312	74	5422
2026-01-13 13:39:28.03	325.09	6.36	-54.8	-58.0	12.7	0.00e+00	0	27	0	696254464	74	5595
2026-01-13 13:39:29.03	325.23	6.33	-54.8	-58.0	12.8	0.00e+00	0	27	0	697303040	75	5280
2026-01-13 13:39:30.03	325.37	6.30	-54.9	-58.1	12.6	0.00e+00	0	27	0	699400192	75	5398
2026-01-13 13:39:31.03	325.52	6.27	-54.8	-57.9	12.8	0.00e+00	0	27	0	701497344	75	5262
2026-01-13 13:39:32.03	325.66	6.24	-54.8	-58.0	12.7	0.00e+00	0	27	0	703594496	75	5309
2026-01-13 13:39:33.03	325.81	6.21	-54.7	-57.7	12.9	0.00e+00	0	26	0	705691648	75	5127
2026-01-13 13:39:34.03	325.95	6.18	-54.6	-57.6	13.0	0.00e+00	0	27	0	706740224	75	5056
2026-01-13 13:39:35.03	326.09	6.15	-54.5	-57.4	13.1	0.00e+00	0	26	0	708837376	75	4978
2026-01-13 13:39:36.03	326.24	6.12	-54.5	-57.4	13.1	0.00e+00	0	27	0	710934528	75	4978
2026-01-13 13:39:37.03	326.38	6.09	-54.6	-57.6	13.0	0.00e+00	0	27	0	713031680	75	5074
2026-01-13 13:39:38.04	326.52	6.06	-54.8	-58.0	12.7	0.00e+00	0	27	0	715128832	75	5301
2026-01-13 13:39:39.04	326.66	6.02	-54.8	-57.9	12.8	0.00e+00	0	26	0	716177408	75	5230
2026-01-13 13:39:40.03	326.80	5.99	-54.9	-58.2	12.5	0.00e+00	0	27	0	718274560	75	5443
2026-01-13 13:39:41.03	326.95	5.96	-55.1	-58.4	12.4	0.00e+00	0	27	0	720371712	75	5571
2026-01-13 13:39:42.04	327.09	5.93	-55.0	-58.4	12.5	0.00e+00	0	27	0	722468864	75	5538
2026-01-13 13:39:43.04	327.23	5.90	-55.0	-58.3	12.5	7.00e-07	0	27	0	724566016	75	5496
2026-01-13 13:39:44.04	327.37	5.87	-55.2	-58.6	12.3	0.00e+00	0	27	0	725614592	75	5701
2026-01-13 13:39:45.05	327.51	5.84	-55.0	-58.3	12.5	0.00e+00	0	27	0	727711744	75	5507
2026-01-13 13:39:46.04	327.65	5.81	-55.0	-58.4	12.4	0.00e+00	0	27	0	729808896	75	5547
2026-01-13 13:39:47.05	327.79	5.77	-55.1	-58.6	12.3	7.00e-07	0	27	0	731906048	75	5687
2026-01-13 13:39:48.05	327.93	5.74	-55.2	-58.7	12.2	7.00e-07	0	27	0	732954624	75	5725
2026-01-13 13:39:49.05	328.07	5.71	-55.2	-58.7	12.2	7.00e-07	0	27	0	735051776	75	5760
2026-01-13 13:39:50.05	328.21	5.68	-55.5	-59.2	12.0	3.80e-06	0	27	0	737148928	76	5768
2026-01-13 13:39:51.05	328.35	5.65	-55.7	-59.7	11.6	3.80e-06	0	26	0	739246080	76	6084
2026-01-13 13:39:52.05	328.48	5.61	-55.9	-60.1	11.4	1.98e-05	0	27	0	741343232	77	6031
2026-01-13 13:39:53.05	328.62	5.58	-56.1	-60.6	11.0	5.87e-05	0	27	0	742391808	77	6367
2026-01-13 13:39:54.05	328.76	5.55	-56.1	-60.4	11.2	7.24e-05	0	27	0	744488960	77	6263
2026-01-13 13:39:55.04	328.90	5.52	-56.2	-60.6	11.0	1.16e-04	0	27	0	746586112	77	6395
2026-01-13 13:39:56.03	329.03	5.48	-56.0	-60.2	11.3	4.27e-05	0	27	0	748683264	77	6119
2026-01-13 13:39:57.03	329.17	5.45	-55.9	-60.0	11.4	3.50e-05	0	27	0	750780416	77	5976
2026-01-13 13:39:58.02	329.30	5.42	-55.8	-59.9	11.6	2.89e-05	0	27	0	751828992	77	5872
2026-01-13 13:39:59.02	329.44	5.39	-55.8	-59.8	11.6	2.67e-05	0	27	0	753926144	77	5842
2026-01-13 13:40:00.02	329.57	5.35	-55.6	-59.4	11.9	1.14e-05	0	27	0	756023296	77	5539
2026-01-13 13:40:01.02	329.71	5.32	-55.5	-59.1	12.1	8.30e-06	0	27	0	758120448	77	5383
2026-01-13 13:40:02.02	329.84	5.29	-55.4	-58.9	12.3	2.20e-06	0	27	0	759169024	77	5278
2026-01-13 13:40:03.01	329.98	5.25	-55.5	-59.1	12.1	7.00e-07	0	27	0	761266176	77	5387
2026-01-13 13:40:04.01	330.11	5.22	-55.4	-59.0	12.2	7.00e-07	0	27	0	763363328	77	5300
2026-01-13 13:40:05.01	330.25	5.19	-55.4	-59.0	12.2	1.50e-06	0	27	0	765460480	77	5305
2026-01-13 13:40:06.00	330.38	5.15	-55.3	-58.8	12.3	0.00e+00	0	27	0	767557632	77	5181
2026-01-13 13:40:06.99	330.51	5.12	-55.4	-59.1	12.1	7.00e-07	0	27	0	768606208	77	5388
2026-01-13 13:40:08.00	330.65	5.09	-55.5	-59.2	12.1	2.20e-06	0	27	0	770703360	77	5404
2026-01-13 13:40:09.00	330.78	5.05	-55.6	-59.5	11.8	3.00e-06	0	27	0	772800512	77	5622
2026-01-13 13:40:10.01	330.91	5.02	-55.6	-59.5	11.9	6.10e-06	0	27	0	774897664	77	5609
2026-01-13 13:40:11.01	331.05	4.99	-58.5	-72.5	3.9	1.05e-01	1	27	0	775946240	82	18878
2026-01-13 13:40:12.00	331.18	4.95	-59.0	-75.0	3.8	1.49e+00	0	27	104	775946240	83	23725
2026-01-13 13:40:13.00	331.31	4.92	-59.2	-75.3	3.8	1.49e+00	0	27	104	775946240	83	24521
2026-01-13 13:40:14.00	331.44	4.88	-59.4	-75.5	3.8	1.49e+00	0	27	104	775946240	83	25032
2026-01-13 13:40:15.00	331.57	4.85	-59.8	-75.8	3.8	1.49e+00	0	27	104	775946240	84	24567
2026-01-13 13:40:16.00	331.70	4.82	-59.9	-75.9	3.8	1.49e+00	0	27	104	775946240	84	24899
2026-01-13 13:40:17.00	331.83	4.78	-60.0	-76.1	3.8	1.49e+00	0	27	104	775946240	85	23897
2026-01-13 13:40:18.00	331.97	4.75	-60.1	-76.1	3.8	1.49e+00	0	27	104	775946240	85	24067
2026-01-13 13:40:19.00	332.10	4.71	-60.1	-76.2	3.8	1.49e+00	0	27	104	775946240	85	24282
2026-01-13 13:40:20.00	332.23	4.68	-60.2	-76.3	3.8	1.49e+00	0	27	104	775946240	85	24491
2026-01-13 13:40:21.00	332.35	4.64	-60.2	-76.3	3.8	1.49e+00	0	27	104	775946240	85	24545
2026-01-13 13:40:22.00	332.48	4.61	-60.3	-76.3	3.8	1.49e+00	0	27	104	775946240	85	24644
2026-01-13 13:40:23.00	332.61	4.57	-60.3	-76.4	3.8	1.49e+00	0	27	104	775946240	85	24722
2026-01-13 13:40:23.99	332.74	4.54	-60.3	-76.4	3.8	1.49e+00	0	27	104	775946240	85	24810
2026-01-13 13:40:24.99	332.87	4.50	-60.3	-76.4	3.8	1.49e+00	0	27	104	775946240	85	24745
2026-01-13 13:40:25.98	333.00	4.47	-60.3	-76.4	3.8	1.49e+00	0	27	104	775946240	85	24818
2026-01-13 13:40:26.99	333.12	4.43	-60.3	-76.4	3.8	1.49e+00	0	27	104	775946240	85	24860
2026-01-13 13:40:27.98	333.25	4.40	-60.3	-76.4	3.8	1.49e+00	0	27	104	775946240	85	24812
2026-01-13 13:40:28.99	333.38	4.36	-60.3	-76.4	3.8	1.49e+00	0	27	104	775946240	85	24785
2026-01-13 13:40:29.99	333.51	4.33	-60.3	-76.4	3.8	1.49e+00	0	27	104	775946240	85	24779
2026-01-13 13:40:30.99	333.63	4.29	-60.3	-76.4	3.8	1.49e+00	0	27	104	775946240	85	24740
2026-01-13 13:40:32.00	333.76	4.26	-60.3	-76.4	3.8	1.49e+00	0	27	104	775946240	85	24811
2026-01-13 13:40:33.00	333.89	4.22	-60.2	-76.3	3.8	1.49e+00	0	27	104	775946240	85	24619
2026-01-13 13:40:34.00	334.01	4.19	-60.2	-76.3	3.8	1.49e+00	0	27	104	775946240	85	24528
2026-01-13 13:40:35.00	334.14	4.15	-60.2	-76.3	3.8	1.49e+00	0	27	104	775946240	85	24506
2026-01-13 13:40:35.99	334.26	4.12	-60.2	-76.3	3.8	1.49e+00	0	27	104	775946240	85	24521
2026-01-13 13:40:36.99	334.39	4.08	-60.2	-76.2	3.8	1.49e+00	0	27	104	775946240	85	24382
2026-01-13 13:40:37.99	334.51	4.04	-60.2	-76.2	3.8	1.49e+00	0	27	104	775946240	85	24401
2026-01-13 13:40:39.00	334.64	4.01	-60.2	-76.3	3.8	1.49e+00	0	27	104	775946240	85	24416
2026-01-13 13:40:40.00	334.76	3.97	-60.2	-76.3	3.8	1.49e+00	0	27	104	775946240	85	24411
2026-01-13 13:40:41.00	334.88	3.94	-60.1	-76.2	3.8	1.49e+00	0	27	104	775946240	85	24347
2026-01-13 13:40:42.00	335.01	3.90	-60.1	-76.2	3.8	1.49e+00	0	27	104	775946240	85	24273
2026-01-13 13:40:43.00	335.13	3.86	-60.1	-76.2	3.8	1.49e+00	0	27	104	775946240	85	24270
2026-01-13 13:40:44.00	335.25	3.83	-60.1	-76.2	3.8	1.49e+00	0	27	104	775946240	85	24271
2026-01-13 13:40:45.00	335.38	3.79	-60.1	-76.2	3.8	1.49e+00	0	27	104	775946240	85	24276
2026-01-13 13:40:46.00	335.50	3.76	-60.1	-76.2	3.8	1.49e+00	0	27	104	775946240	85	24175
2026-01-13 13:40:47.00	335.62	3.72	-60.1	-76.2	3.8	1.49e+00	0	27	104	775946240	85	24175
2026-01-13 13:40:48.01	335.74	3.68	-60.1	-76.2	3.8	1.49e+00	0	27	104	775946240	85	24153
2026-01-13 13:40:49.00	335.86	3.65	-60.1	-76.2	3.8	1.49e+00	0	27	104	775946240	85	24181
2026-01-13 13:40:50.00	335.99	3.61	-60.1	-76.2	3.8	1.49e+00	0	27	104	775946240	85	24198
2026-01-13 13:40:50.99	336.10	3.57	-60.1	-76.2	3.8	1.49e+00	0	27	104	775946240	85	24153
2026-01-13 13:40:51.99	336.23	3.54	-60.1	-76.2	3.8	1.49e+00	0	27	104	775946240	85	24240
2026-01-13 13:40:52.99	336.35	3.50	-60.1	-76.2	3.8	1.49e+00	0	27	104	775946240	85	24237
2026-01-13 13:40:53.99	336.47	3.46	-60.1	-76.1	3.8	1.49e+00	0	27	104	775946240	85	24104
2026-01-13 13:40:54.99	336.59	3.43	-60.1	-76.2	3.8	1.49e+00	0	27	104	775946240	85	24152
2026-01-13 13:40:55.98	336.70	3.39	-60.1	-76.2	3.8	1.49e+00	0	27	104	775946240	85	24163
2026-01-13 13:40:56.99	336.82	3.35	-60.1	-76.2	3.8	1.49e+00	0	27	104	775946240	85	24165
2026-01-13 13:40:57.98	336.94	3.32	-60.1	-76.2	3.8	1.49e+00	0	27	104	775946240	85	24145
2026-01-13 13:40:58.98	337.06	3.28	-60.1	-76.2	3.8	1.49e+00	0	27	104	775946240	85	24156
2026-01-13 13:40:59.98	337.18	3.24	-60.1	-76.1	3.8	1.49e+00	0	27	104	775946240	85	24122
2026-01-13 13:41:00.98	337.30	3.21	-60.1	-76.1	3.8	1.49e+00	0	27	104	775946240	85	24121
2026-01-13 13:41:01.98	337.41	3.17	-60.1	-76.1	3.8	1.49e+00	0	27	104	775946240	85	24078
2026-01-13 13:41:02.98	337.53	3.13	-60.1	-76.1	3.8	1.49e+00	0	27	104	775946240	85	24128
2026-01-13 13:41:03.98	337.65	3.09	-60.1	-76.1	3.8	1.49e+00	0	27	104	775946240	85	24101
2026-01-13 13:41:04.98	337.77	3.06	-60.0	-76.1	3.8	1.49e+00	0	27	104	775946240	85	24058
2026-01-13 13:41:05.98	337.88	3.02	-60.0	-76.1	3.8	1.49e+00	0	27	104	775946240	85	24004
2026-01-13 13:41:06.98	338.00	2.98	-60.0	-76.1	3.8	1.49e+00	0	27	104	775946240	85	24056
2026-01-13 13:41:07.98	338.11	2.95	-60.0	-76.1	3.8	1.49e+00	0	27	104	775946240	85	23941
2026-01-13 13:41:08.98	338.23	2.91	-60.0	-76.1	3.8	1.49e+00	0	27	104	775946240	85	23950
2026-01-13 13:41:09.98	338.35	2.87	-60.0	-76.1	3.8	1.49e+00	0	27	104	775946240	85	23985
2026-01-13 13:41:10.98	338.46	2.83	-60.0	-76.1	3.8	1.49e+00	0	27	104	775946240	85	24046
2026-01-13 13:41:11.97	338.57	2.80	-60.0	-76.1	3.8	1.49e+00	0	27	104	775946240	85	24039
2026-01-13 13:41:12.97	338.69	2.76	-60.0	-76.1	3.8	1.49e+00	0	27	104	775946240	85	24029
2026-01-13 13:41:13.98	338.80	2.72	-60.0	-76.1	3.8	1.49e+00	0	27	104	775946240	85	23955
2026-01-13 13:41:14.97	338.92	2.68	-60.0	-76.1	3.8	1.49e+00	0	27	104	775946240	85	23923
2026-01-13 13:41:15.97	339.03	2.65	-59.9	-76.1	3.8	1.49e+00	0	27	104	775946240	85	23859
2026-01-13 13:41:16.98	339.15	2.61	-59.9	-76.1	3.8	1.49e+00	0	27	104	775946240	85	23868
2026-01-13 13:41:17.98	339.26	2.57	-59.9	-76.0	3.8	1.49e+00	0	27	104	775946240	85	23723
2026-01-13 13:41:18.98	339.37	2.53	-59.9	-76.0	3.8	1.49e+00	0	27	104	775946240	85	23742
2026-01-13 13:41:19.98	339.48	2.49	-60.0	-76.0	3.8	1.49e+00	0	27	104	775946240	85	23774
2026-01-13 13:41:20.98	339.60	2.46	-60.0	-76.0	3.8	1.49e+00	0	27	104	775946240	85	23685
2026-01-13 13:41:21.98	339.71	2.42	-60.0	-76.0	3.8	1.49e+00	0	27	104	775946240	85	23808
2026-01-13 13:41:22.99	339.82	2.38	-60.0	-76.0	3.8	1.49e+00	0	27	104	775946240	85	23765
2026-01-13 13:41:23.99	339.93	2.34	-60.0	-76.1	3.8	1.49e+00	0	27	104	775946240	85	23860
2026-01-13 13:41:24.99	340.04	2.30	-60.0	-76.0	3.8	1.49e+00	0	27	104	775946240	85	23818
2026-01-13 13:41:25.99	340.16	2.27	-60.0	-76.0	3.8	1.49e+00	0	27	104	775946240	85	23838
2026-01-13 13:41:26.99	340.27	2.23	-60.0	-76.1	3.8	1.49e+00	0	27	104	775946240	85	24035
2026-01-13 13:41:27.99	340.38	2.19	-60.0	-76.1	3.8	1.49e+00	0	27	104	775946240	85	23943
2026-01-13 13:41:29.00	340.49	2.15	-60.0	-76.1	3.8	1.49e+00	0	27	104	775946240	85	23929
2026-01-13 13:41:30.00	340.60	2.11	-60.0	-76.1	3.8	1.49e+00	0	27	104	775946240	85	23887
2026-01-13 13:41:31.00	340.71	2.08	-60.0	-76.1	3.8	1.49e+00	0	27	104	775946240	85	23886
2026-01-13 13:41:32.00	340.82	2.04	-60.0	-76.1	3.8	1.49e+00	0	27	104	775946240	85	23886
2026-01-13 13:41:33.00	340.93	2.00	-60.0	-76.1	3.8	1.49e+00	0	27	104	775946240	85	23951
2026-01-13 13:41:34.00	341.04	1.96	-60.0	-76.1	3.8	1.49e+00	0	27	104	775946240	85	23990
2026-01-13 13:41:35.00	341.14	1.92	-60.0	-76.1	3.8	1.49e+00	0	27	104	775946240	85	23913

#Closed at: 2026-01-13 13:41:35
#Recorded file [775 MB]: D:/lorett/data/31004_260113_163203.dat