passes_logs/2026/01/13/R3.2S_Murmansk/R3.2S_Murmansk__20260113_042841_FENGYUN_3D_rec.log

#Pass ID: 20260113_042841_FENGYUN 3D
#Satellite: FENGYUN 3D
#Configuration: FENGYUN 3D
#almurnet v.1.7.20251203
#Start time: 2026-01-13 04:28:42

#Version: 2.2.20231116
#Station: R3.2S_Murmansk
#Location: 33.079688 lon 68.888172 lat
#TLE: 1 43010U 17072A   26012.32543542  .00000598  00000+0  30457-3 0  9997
#TLE: 2 43010  98.9935 344.1005 0002233 112.6136 247.5276 14.19696644422876

#Time	Az	El	Level	Level2	SNR	BER	BlckErr	Temp	State	Recorded	gain1	gain2
2026-01-13 04:28:42.90	33.87	2.08	-56.9	-69.9	3.8	8.46e-01	0	20	0	0	80	15582
2026-01-13 04:28:43.90	33.84	2.14	-56.8	-69.8	3.8	8.44e-01	0	20	104	0	78	17375
2026-01-13 04:28:44.89	33.80	2.20	-56.8	-69.8	3.8	8.47e-01	0	20	104	0	78	17333
2026-01-13 04:28:45.88	33.77	2.26	-56.8	-69.7	3.8	8.45e-01	0	20	104	0	78	17264
2026-01-13 04:28:46.88	33.73	2.33	-56.8	-69.7	3.8	8.45e-01	0	20	104	0	78	17254
2026-01-13 04:28:47.88	33.69	2.39	-56.8	-69.7	3.8	8.46e-01	0	20	104	0	78	17230
2026-01-13 04:28:48.89	33.66	2.45	-56.8	-69.7	3.8	8.46e-01	0	20	104	0	78	17270
2026-01-13 04:28:49.89	33.62	2.51	-56.8	-69.8	3.8	8.44e-01	0	20	104	0	78	17346
2026-01-13 04:28:50.89	33.58	2.58	-56.8	-69.8	3.8	8.46e-01	0	20	104	0	78	17289
2026-01-13 04:28:51.89	33.55	2.64	-56.8	-69.8	3.8	8.45e-01	0	20	104	0	78	17356
2026-01-13 04:28:52.90	33.51	2.70	-56.8	-69.8	3.8	8.46e-01	0	20	104	0	78	17362
2026-01-13 04:28:53.90	33.47	2.77	-56.8	-69.8	3.8	8.45e-01	0	20	104	0	78	17348
2026-01-13 04:28:54.90	33.43	2.83	-56.8	-69.8	3.8	8.46e-01	0	20	104	0	78	17354
2026-01-13 04:28:55.90	33.40	2.89	-56.8	-69.8	3.8	8.46e-01	0	20	104	0	78	17344
2026-01-13 04:28:56.91	33.36	2.96	-56.8	-69.7	3.8	8.46e-01	0	20	104	0	78	17150
2026-01-13 04:28:57.91	33.32	3.02	-56.8	-69.5	3.8	8.46e-01	0	20	104	0	78	16787
2026-01-13 04:28:58.91	33.28	3.09	-56.8	-69.5	3.8	8.45e-01	0	20	104	0	78	16784
2026-01-13 04:28:59.91	33.24	3.15	-56.8	-69.5	3.8	8.47e-01	0	20	104	0	78	16740
2026-01-13 04:29:00.92	33.20	3.21	-56.8	-69.5	3.8	8.46e-01	0	21	104	0	78	16786
2026-01-13 04:29:01.91	33.17	3.28	-56.8	-69.4	3.8	8.46e-01	0	20	104	0	78	16527
2026-01-13 04:29:02.91	33.13	3.34	-56.8	-69.0	3.8	8.45e-01	0	20	104	0	78	15926
2026-01-13 04:29:03.91	33.09	3.41	-56.7	-68.6	3.8	8.45e-01	0	20	104	0	78	15105
2026-01-13 04:29:04.91	33.05	3.47	-56.7	-68.4	3.8	8.46e-01	0	21	104	0	78	14730
2026-01-13 04:29:05.91	33.01	3.54	-56.7	-68.1	3.8	8.45e-01	0	21	104	0	78	14283
2026-01-13 04:29:06.92	32.97	3.60	-56.7	-67.7	3.8	8.45e-01	0	21	104	0	78	13643
2026-01-13 04:29:07.92	32.93	3.67	-56.7	-67.9	3.8	8.45e-01	0	21	104	0	78	13900
2026-01-13 04:29:08.92	32.89	3.73	-56.7	-68.1	3.8	8.45e-01	0	21	104	0	78	14224
2026-01-13 04:29:09.92	32.85	3.80	-56.7	-68.2	3.8	8.45e-01	0	21	104	0	78	14462
2026-01-13 04:29:10.92	32.81	3.86	-56.7	-68.5	3.8	8.46e-01	0	21	104	0	78	14910
2026-01-13 04:29:11.92	32.77	3.93	-56.7	-67.7	3.8	8.45e-01	0	21	104	0	78	13647
2026-01-13 04:29:12.93	32.72	3.99	-56.6	-66.6	4.1	8.44e-01	0	21	0	0	78	12055
2026-01-13 04:29:13.93	32.68	4.06	-56.5	-65.9	4.3	8.36e-01	0	21	0	0	78	11113
2026-01-13 04:29:14.93	32.64	4.13	-56.2	-63.9	5.1	7.95e-01	0	21	0	0	78	8808
2026-01-13 04:29:15.93	32.60	4.19	-55.9	-62.4	6.1	3.77e-01	0	21	0	2097152	78	7428
2026-01-13 04:29:16.93	32.56	4.26	-55.6	-61.4	6.9	2.08e-01	0	21	0	7340032	77	7006
2026-01-13 04:29:17.93	32.52	4.33	-55.0	-59.6	8.4	8.31e-02	0	21	0	12582912	76	6046
2026-01-13 04:29:18.93	32.47	4.39	-54.8	-59.2	8.9	2.02e-02	0	21	0	18874368	76	5767
2026-01-13 04:29:19.93	32.43	4.46	-54.0	-57.6	10.2	7.21e-03	0	21	0	24117248	74	5353
2026-01-13 04:29:20.93	32.39	4.53	-53.9	-57.3	10.5	3.52e-03	0	21	0	30408704	74	5212
2026-01-13 04:29:21.93	32.35	4.59	-53.8	-57.2	10.5	1.34e-03	0	21	0	35651584	73	5424
2026-01-13 04:29:22.93	32.30	4.66	-53.5	-56.7	10.9	8.42e-04	0	21	0	40894464	73	5159
2026-01-13 04:29:23.93	32.26	4.73	-53.6	-57.0	10.7	7.09e-04	0	21	0	47185920	73	5318
2026-01-13 04:29:24.93	32.22	4.80	-53.6	-57.0	10.7	1.09e-03	0	21	0	52428800	73	5298
2026-01-13 04:29:25.93	32.17	4.86	-53.8	-57.3	10.4	1.57e-03	0	21	0	57671680	73	5511
2026-01-13 04:29:26.93	32.13	4.93	-53.9	-57.4	10.3	2.21e-03	0	21	0	63963136	73	5586
2026-01-13 04:29:27.92	32.08	5.00	-54.1	-57.8	9.9	3.26e-03	0	21	0	69206016	73	5845
2026-01-13 04:29:28.92	32.04	5.07	-54.2	-58.0	9.9	2.14e-03	0	21	0	74448896	73	5951
2026-01-13 04:29:29.92	32.00	5.13	-53.8	-57.1	10.8	8.31e-04	0	21	0	80740352	73	5398
2026-01-13 04:29:30.92	31.95	5.20	-55.9	-63.0	5.6	6.31e-02	0	21	0	85983232	76	8906
2026-01-13 04:29:31.92	31.91	5.27	-49.8	-51.4	14.6	0.00e+00	0	21	0	91226112	66	4158
2026-01-13 04:29:32.92	31.86	5.34	-55.6	-61.5	6.9	1.92e-02	0	21	0	96468992	76	7477
2026-01-13 04:29:33.92	31.81	5.41	-50.0	-51.7	14.3	3.82e-03	0	21	0	102760448	66	4307
2026-01-13 04:29:34.91	31.77	5.48	-49.3	-50.9	14.8	0.00e+00	0	21	0	108003328	65	4156
2026-01-13 04:29:35.91	31.72	5.55	-49.2	-50.7	14.7	0.00e+00	0	21	0	113246208	64	4339
2026-01-13 04:29:36.91	31.68	5.62	-49.7	-51.4	14.3	0.00e+00	0	21	0	119537664	64	4654
2026-01-13 04:29:37.91	31.63	5.69	-49.3	-50.9	14.6	0.00e+00	0	21	0	124780544	64	4397
2026-01-13 04:29:38.90	31.58	5.76	-49.1	-50.6	14.8	0.00e+00	0	21	0	131072000	64	4286
2026-01-13 04:29:39.90	31.54	5.83	-49.4	-50.9	14.6	0.00e+00	0	21	0	136314880	64	4431
2026-01-13 04:29:40.90	31.49	5.90	-49.0	-50.5	14.9	0.00e+00	0	21	0	141557760	64	4227
2026-01-13 04:29:41.90	31.44	5.97	-49.0	-50.5	14.7	0.00e+00	0	21	0	147849216	63	4467
2026-01-13 04:29:42.90	31.39	6.04	-48.9	-50.4	14.8	0.00e+00	0	21	0	153092096	63	4423
2026-01-13 04:29:43.89	31.35	6.11	-49.3	-50.9	14.6	0.00e+00	0	21	0	158334976	64	4423
2026-01-13 04:29:44.90	31.30	6.18	-49.1	-50.7	14.8	0.00e+00	0	21	0	163577856	64	4296
2026-01-13 04:29:45.90	31.25	6.25	-49.1	-50.6	14.8	0.00e+00	0	21	0	169869312	64	4276
2026-01-13 04:29:46.90	31.20	6.32	-49.3	-50.9	14.7	0.00e+00	0	21	0	175112192	64	4394
2026-01-13 04:29:47.89	31.15	6.39	-48.8	-50.3	15.0	0.00e+00	0	21	0	181403648	64	4119
2026-01-13 04:29:48.89	31.10	6.46	-49.0	-50.5	14.9	0.00e+00	0	21	0	186646528	64	4221
2026-01-13 04:29:49.89	31.05	6.53	-49.0	-50.5	14.9	0.00e+00	0	21	0	191889408	64	4220
2026-01-13 04:29:50.89	31.00	6.60	-49.0	-50.4	14.9	0.00e+00	0	21	0	198180864	64	4187
2026-01-13 04:29:51.89	30.95	6.68	-48.8	-50.3	15.1	0.00e+00	0	21	0	203423744	64	4104
2026-01-13 04:29:52.89	30.90	6.75	-48.9	-50.4	14.8	0.00e+00	0	21	0	208666624	63	4417
2026-01-13 04:29:53.88	30.85	6.82	-49.0	-50.5	14.8	0.00e+00	0	21	0	214958080	63	4447
2026-01-13 04:29:54.88	30.80	6.89	-48.8	-50.3	14.9	0.00e+00	0	21	0	220200960	63	4342
2026-01-13 04:29:55.88	30.75	6.97	-48.8	-50.2	15.0	0.00e+00	0	21	0	225443840	63	4313
2026-01-13 04:29:56.88	30.70	7.04	-49.1	-50.6	14.7	0.00e+00	0	21	0	231735296	63	4495
2026-01-13 04:29:57.89	30.65	7.11	-48.8	-50.2	14.9	0.00e+00	0	21	0	236978176	63	4339
2026-01-13 04:29:58.89	30.59	7.19	-49.1	-50.6	14.7	0.00e+00	0	21	0	243269632	63	4517
2026-01-13 04:29:59.89	30.54	7.26	-49.0	-50.4	14.8	0.00e+00	0	21	0	248512512	63	4432
2026-01-13 04:30:00.89	30.49	7.33	-48.7	-50.1	15.0	0.00e+00	0	21	0	253755392	63	4262
2026-01-13 04:30:01.89	30.44	7.41	-48.7	-50.1	15.1	0.00e+00	0	21	0	260046848	63	4264
2026-01-13 04:30:02.88	30.38	7.48	-48.8	-50.2	15.0	0.00e+00	0	21	0	265289728	63	4309
2026-01-13 04:30:03.89	30.33	7.55	-48.6	-50.0	15.1	0.00e+00	0	21	0	270532608	63	4196
2026-01-13 04:30:04.89	30.28	7.63	-48.7	-50.1	15.1	0.00e+00	0	21	0	276824064	63	4246
2026-01-13 04:30:05.90	30.22	7.70	-48.8	-50.3	14.9	0.00e+00	0	21	0	282066944	63	4348
2026-01-13 04:30:06.90	30.17	7.78	-48.8	-50.3	15.0	0.00e+00	0	21	0	288358400	63	4343
2026-01-13 04:30:07.89	30.11	7.85	-48.9	-50.3	14.9	0.00e+00	0	21	0	293601280	63	4373
2026-01-13 04:30:08.88	30.06	7.93	-48.6	-50.0	15.1	0.00e+00	0	21	0	298844160	63	4201
2026-01-13 04:30:09.88	30.00	8.00	-48.5	-49.9	15.2	0.00e+00	0	21	0	305135616	63	4191
2026-01-13 04:30:10.88	29.95	8.08	-48.6	-50.0	15.1	0.00e+00	0	21	0	310378496	63	4211
2026-01-13 04:30:11.87	29.89	8.15	-48.6	-50.0	15.1	0.00e+00	0	21	0	315621376	63	4207
2026-01-13 04:30:12.87	29.84	8.23	-48.6	-50.1	15.1	0.00e+00	0	21	0	321912832	63	4246
2026-01-13 04:30:13.87	29.78	8.31	-48.6	-50.0	15.1	0.00e+00	0	22	0	327155712	63	4238
2026-01-13 04:30:14.87	29.72	8.38	-48.7	-50.1	15.1	0.00e+00	0	21	0	332398592	63	4261
2026-01-13 04:30:15.86	29.67	8.46	-48.4	-49.8	15.2	0.00e+00	0	21	0	338690048	63	4126
2026-01-13 04:30:16.86	29.61	8.54	-48.5	-49.9	15.2	0.00e+00	0	21	0	343932928	63	4155
2026-01-13 04:30:17.87	29.55	8.61	-48.5	-49.9	15.2	0.00e+00	0	22	0	350224384	63	4179
2026-01-13 04:30:18.86	29.49	8.69	-48.6	-49.9	15.2	0.00e+00	0	21	0	355467264	63	4193
2026-01-13 04:30:19.86	29.43	8.77	-48.5	-49.9	15.2	0.00e+00	0	22	0	360710144	63	4172
2026-01-13 04:30:20.86	29.38	8.84	-48.4	-49.8	15.3	0.00e+00	0	21	0	367001600	63	4121
2026-01-13 04:30:21.86	29.32	8.92	-48.4	-49.7	15.3	0.00e+00	0	21	0	372244480	63	4076
2026-01-13 04:30:22.86	29.26	9.00	-48.4	-49.8	15.3	0.00e+00	0	21	0	377487360	63	4115
2026-01-13 04:30:23.86	29.20	9.08	-48.3	-49.6	15.4	0.00e+00	0	22	0	383778816	63	4039
2026-01-13 04:30:24.86	29.14	9.16	-48.2	-49.6	15.4	0.00e+00	0	22	0	389021696	63	4017
2026-01-13 04:30:25.86	29.08	9.24	-48.3	-49.6	15.4	0.00e+00	0	21	0	394264576	63	4038
2026-01-13 04:30:26.86	29.02	9.31	-48.3	-49.6	15.4	0.00e+00	0	21	0	400556032	63	4033
2026-01-13 04:30:27.85	28.95	9.39	-48.4	-49.7	15.3	0.00e+00	0	22	0	405798912	63	4081
2026-01-13 04:30:28.85	28.89	9.47	-48.3	-49.7	15.4	0.00e+00	0	22	0	412090368	63	4053
2026-01-13 04:30:29.86	28.83	9.55	-48.3	-49.7	15.3	0.00e+00	0	21	0	417333248	63	4062
2026-01-13 04:30:30.85	28.77	9.63	-48.3	-49.6	15.4	0.00e+00	0	22	0	422576128	63	4050
2026-01-13 04:30:31.86	28.71	9.71	-48.3	-49.7	15.4	0.00e+00	0	22	0	428867584	63	4072
2026-01-13 04:30:32.85	28.64	9.79	-48.4	-49.8	15.3	0.00e+00	0	22	0	434110464	63	4111
2026-01-13 04:30:33.85	28.58	9.87	-48.0	-49.3	15.4	0.00e+00	0	21	0	439353344	62	4130
2026-01-13 04:30:34.85	28.52	9.95	-48.1	-49.4	15.3	0.00e+00	0	22	0	444596224	62	4190
2026-01-13 04:30:35.85	28.45	10.03	-48.1	-49.4	15.3	0.00e+00	0	21	0	450887680	62	4193
2026-01-13 04:30:36.84	28.39	10.11	-48.1	-49.4	15.3	0.00e+00	0	21	0	456130560	62	4191
2026-01-13 04:30:37.84	28.32	10.19	-48.1	-49.5	15.3	0.00e+00	0	21	0	462422016	62	4199
2026-01-13 04:30:38.83	28.26	10.28	-48.1	-49.5	15.3	0.00e+00	0	22	0	467664896	62	4199
2026-01-13 04:30:39.83	28.19	10.36	-48.1	-49.4	15.3	0.00e+00	0	22	0	472907776	62	4184
2026-01-13 04:30:40.82	28.13	10.44	-48.1	-49.4	15.3	0.00e+00	0	22	0	479199232	62	4178
2026-01-13 04:30:41.82	28.06	10.52	-48.1	-49.4	15.3	0.00e+00	0	21	0	484442112	62	4176
2026-01-13 04:30:42.82	28.00	10.60	-48.1	-49.4	15.3	0.00e+00	0	22	0	489684992	62	4191
2026-01-13 04:30:43.82	27.93	10.69	-48.0	-49.4	15.3	0.00e+00	0	22	0	495976448	62	4148
2026-01-13 04:30:44.82	27.86	10.77	-48.1	-49.4	15.3	0.00e+00	0	22	0	501219328	62	4182
2026-01-13 04:30:45.81	27.79	10.85	-48.2	-49.5	15.2	0.00e+00	0	22	0	506462208	62	4236
2026-01-13 04:30:46.81	27.72	10.93	-48.0	-49.3	15.4	0.00e+00	0	22	0	512753664	62	4103
2026-01-13 04:30:47.81	27.66	11.02	-47.9	-49.2	15.5	0.00e+00	0	22	0	517996544	62	4064
2026-01-13 04:30:48.81	27.59	11.10	-47.9	-49.2	15.5	0.00e+00	0	22	0	524288000	62	4053
2026-01-13 04:30:49.82	27.52	11.19	-47.9	-49.2	15.5	0.00e+00	0	22	0	529530880	62	4061
2026-01-13 04:30:50.82	27.45	11.27	-47.8	-49.1	15.5	0.00e+00	0	22	0	534773760	62	4046
2026-01-13 04:30:51.82	27.38	11.36	-47.8	-49.1	15.5	0.00e+00	0	22	0	541065216	62	4039
2026-01-13 04:30:52.82	27.30	11.44	-47.8	-49.1	15.6	0.00e+00	0	22	0	546308096	62	4012
2026-01-13 04:30:53.82	27.23	11.53	-47.5	-48.8	15.5	0.00e+00	0	22	0	551550976	61	4110
2026-01-13 04:30:54.82	27.16	11.61	-47.6	-48.9	15.5	0.00e+00	0	22	0	557842432	61	4153
2026-01-13 04:30:55.82	27.09	11.70	-47.5	-48.8	15.5	0.00e+00	0	22	0	563085312	61	4129
2026-01-13 04:30:56.82	27.02	11.78	-47.5	-48.8	15.5	0.00e+00	0	22	0	568328192	61	4119
2026-01-13 04:30:57.82	26.94	11.87	-47.5	-48.8	15.5	0.00e+00	0	22	0	574619648	61	4121
2026-01-13 04:30:58.82	26.87	11.96	-47.4	-48.6	15.6	0.00e+00	0	22	0	579862528	61	4033
2026-01-13 04:30:59.82	26.80	12.04	-47.3	-48.5	15.7	0.00e+00	0	22	0	586153984	61	3998
2026-01-13 04:31:00.83	26.72	12.13	-47.3	-48.6	15.7	0.00e+00	0	22	0	591396864	61	4018
2026-01-13 04:31:01.81	26.65	12.22	-47.3	-48.5	15.7	0.00e+00	0	22	0	596639744	61	3995
2026-01-13 04:31:02.81	26.57	12.30	-47.3	-48.5	15.7	0.00e+00	0	22	0	602931200	61	4002
2026-01-13 04:31:03.81	26.50	12.39	-47.4	-48.6	15.6	0.00e+00	0	21	0	608174080	61	4040
2026-01-13 04:31:04.80	26.42	12.48	-47.4	-48.6	15.6	0.00e+00	0	22	0	613416960	61	4037
2026-01-13 04:31:05.81	26.34	12.57	-47.3	-48.5	15.7	0.00e+00	0	22	0	619708416	61	4001
2026-01-13 04:31:06.81	26.27	12.66	-47.3	-48.5	15.7	0.00e+00	0	22	0	624951296	61	3993
2026-01-13 04:31:07.81	26.19	12.74	-47.3	-48.5	15.7	0.00e+00	0	22	0	630194176	61	3972
2026-01-13 04:31:08.82	26.11	12.83	-47.3	-48.5	15.7	0.00e+00	0	22	0	636485632	61	3998
2026-01-13 04:31:09.81	26.03	12.92	-47.3	-48.5	15.7	0.00e+00	0	22	0	641728512	61	3978
2026-01-13 04:31:10.81	25.95	13.01	-47.2	-48.5	15.7	0.00e+00	0	22	0	648019968	61	3966
2026-01-13 04:31:11.81	25.87	13.10	-47.1	-48.3	15.6	0.00e+00	0	22	0	653262848	60	4136
2026-01-13 04:31:12.81	25.79	13.19	-47.1	-48.3	15.6	0.00e+00	0	22	0	658505728	60	4119
2026-01-13 04:31:13.81	25.71	13.28	-47.1	-48.3	15.6	0.00e+00	0	22	0	664797184	60	4139
2026-01-13 04:31:14.82	25.63	13.38	-47.1	-48.3	15.6	0.00e+00	0	22	0	670040064	60	4109
2026-01-13 04:31:15.81	25.55	13.47	-47.1	-48.3	15.7	0.00e+00	0	22	0	675282944	60	4105
2026-01-13 04:31:16.81	25.46	13.56	-47.1	-48.3	15.7	0.00e+00	0	22	0	681574400	60	4118
2026-01-13 04:31:17.81	25.38	13.65	-47.1	-48.3	15.6	0.00e+00	0	22	0	686817280	60	4142
2026-01-13 04:31:18.82	25.30	13.74	-47.1	-48.3	15.6	0.00e+00	0	22	0	692060160	60	4111
2026-01-13 04:31:19.81	25.21	13.83	-47.1	-48.4	15.6	0.00e+00	0	22	0	698351616	60	4155
2026-01-13 04:31:20.82	25.13	13.93	-47.1	-48.3	15.6	0.00e+00	0	22	0	703594496	60	4132
2026-01-13 04:31:21.82	25.04	14.02	-47.1	-48.4	15.6	0.00e+00	0	22	0	709885952	60	4149
2026-01-13 04:31:22.82	24.96	14.11	-47.1	-48.3	15.7	0.00e+00	0	22	0	715128832	60	4106
2026-01-13 04:31:23.82	24.87	14.20	-47.1	-48.3	15.7	0.00e+00	0	22	0	720371712	60	4105
2026-01-13 04:31:24.82	24.78	14.30	-47.1	-48.4	15.6	0.00e+00	0	22	0	726663168	60	4151
2026-01-13 04:31:25.82	24.70	14.39	-47.1	-48.3	15.7	0.00e+00	0	22	0	731906048	60	4111
2026-01-13 04:31:26.82	24.61	14.49	-47.0	-48.2	15.7	0.00e+00	0	22	0	737148928	60	4073
2026-01-13 04:31:27.82	24.52	14.58	-47.0	-48.2	15.7	0.00e+00	0	22	0	743440384	60	4079
2026-01-13 04:31:28.82	24.43	14.67	-46.9	-48.1	15.7	0.00e+00	0	22	0	748683264	60	4042
2026-01-13 04:31:29.82	24.34	14.77	-46.8	-48.0	15.8	0.00e+00	0	22	0	753926144	60	3982
2026-01-13 04:31:30.81	24.25	14.86	-46.8	-48.0	15.8	0.00e+00	0	22	0	760217600	60	3994
2026-01-13 04:31:31.81	24.16	14.96	-46.8	-47.9	15.9	0.00e+00	0	22	0	765460480	60	3948
2026-01-13 04:31:32.82	24.07	15.06	-46.7	-47.9	15.9	0.00e+00	0	22	0	771751936	60	3927
2026-01-13 04:31:33.82	23.98	15.15	-46.7	-47.9	15.9	0.00e+00	0	22	0	776994816	60	3934
2026-01-13 04:31:34.82	23.88	15.25	-47.0	-48.2	15.6	0.00e+00	0	22	0	782237696	59	4326
2026-01-13 04:31:35.82	23.79	15.35	-47.0	-48.2	15.6	0.00e+00	0	22	0	788529152	59	4307
2026-01-13 04:31:36.81	23.70	15.44	-46.8	-48.1	15.7	0.00e+00	0	22	0	793772032	59	4246
2026-01-13 04:31:37.80	23.60	15.54	-46.8	-48.0	15.7	0.00e+00	0	22	0	799014912	59	4229
2026-01-13 04:31:38.80	23.51	15.64	-46.8	-48.1	15.7	0.00e+00	0	22	0	805306368	59	4244
2026-01-13 04:31:39.80	23.41	15.73	-46.8	-48.0	15.7	0.00e+00	0	22	0	810549248	59	4236
2026-01-13 04:31:40.80	23.31	15.83	-46.8	-48.0	15.7	0.00e+00	0	22	0	815792128	59	4226
2026-01-13 04:31:41.80	23.22	15.93	-46.9	-48.1	15.6	0.00e+00	0	22	0	822083584	59	4268
2026-01-13 04:31:42.80	23.12	16.03	-46.9	-48.2	15.6	0.00e+00	0	22	0	827326464	59	4295
2026-01-13 04:31:43.80	23.02	16.13	-46.8	-48.0	15.7	0.00e+00	0	22	0	832569344	59	4208
2026-01-13 04:31:44.79	22.92	16.23	-46.8	-48.0	15.7	0.00e+00	0	22	0	838860800	59	4214
2026-01-13 04:31:45.79	22.82	16.33	-46.9	-48.1	15.7	0.00e+00	0	22	0	844103680	59	4280
2026-01-13 04:31:46.79	22.72	16.43	-46.9	-48.1	15.7	0.00e+00	0	22	0	849346560	59	4268
2026-01-13 04:31:47.79	22.62	16.53	-46.9	-48.1	15.6	0.00e+00	0	22	0	855638016	59	4284
2026-01-13 04:31:48.79	22.52	16.63	-46.9	-48.2	15.6	0.00e+00	0	22	0	860880896	59	4295
2026-01-13 04:31:49.79	22.41	16.73	-46.9	-48.1	15.7	0.00e+00	0	22	0	867172352	59	4268
2026-01-13 04:31:50.79	22.31	16.83	-47.0	-48.2	15.6	0.00e+00	0	22	0	872415232	59	4295
2026-01-13 04:31:51.80	22.21	16.94	-46.8	-48.0	15.7	0.00e+00	0	22	0	877658112	59	4228
2026-01-13 04:31:52.79	22.10	17.04	-46.7	-47.9	15.7	0.00e+00	0	22	0	883949568	59	4157
2026-01-13 04:31:53.78	22.00	17.14	-46.6	-47.8	15.7	0.00e+00	0	22	0	889192448	59	4142
2026-01-13 04:31:54.78	21.89	17.24	-46.7	-47.9	15.7	0.00e+00	0	22	0	894435328	59	4171
2026-01-13 04:31:55.78	21.78	17.34	-46.6	-47.8	15.8	0.00e+00	0	22	0	900726784	59	4115
2026-01-13 04:31:56.77	21.68	17.45	-46.6	-47.8	15.8	0.00e+00	0	22	0	905969664	59	4100
2026-01-13 04:31:57.77	21.57	17.55	-46.5	-47.7	15.9	0.00e+00	0	22	0	911212544	59	4054
2026-01-13 04:31:58.77	21.46	17.66	-46.4	-47.5	15.9	0.00e+00	0	22	0	917504000	59	3992
2026-01-13 04:31:59.78	21.35	17.76	-46.5	-47.6	15.9	0.00e+00	0	22	0	922746880	59	4041
2026-01-13 04:32:00.78	21.24	17.87	-46.3	-47.5	15.9	0.00e+00	0	22	0	929038336	59	3978
2026-01-13 04:32:01.78	21.12	17.97	-46.3	-47.5	16.0	0.00e+00	0	22	0	934281216	59	3986
2026-01-13 04:32:02.77	21.01	18.08	-46.2	-47.4	16.0	0.00e+00	0	22	0	939524096	59	3928
2026-01-13 04:32:03.77	20.90	18.18	-46.2	-47.3	15.9	0.00e+00	0	22	0	945815552	58	4133
2026-01-13 04:32:04.77	20.78	18.29	-46.3	-47.5	15.8	0.00e+00	0	22	0	951058432	58	4200
2026-01-13 04:32:05.77	20.67	18.39	-46.3	-47.4	15.8	0.00e+00	0	22	0	956301312	58	4172
2026-01-13 04:32:06.77	20.55	18.50	-46.3	-47.5	15.8	0.00e+00	0	22	0	962592768	58	4197
2026-01-13 04:32:07.77	20.44	18.61	-46.3	-47.5	15.8	0.00e+00	0	22	0	967835648	58	4221
2026-01-13 04:32:08.77	20.32	18.72	-46.3	-47.5	15.8	0.00e+00	0	22	0	973078528	58	4224
2026-01-13 04:32:09.77	20.20	18.82	-46.2	-47.4	15.8	0.00e+00	0	22	0	979369984	58	4163
2026-01-13 04:32:10.77	20.08	18.93	-46.2	-47.4	15.8	0.00e+00	0	22	0	984612864	58	4155
2026-01-13 04:32:11.77	19.96	19.04	-46.0	-47.1	15.9	0.00e+00	0	22	0	990904320	58	4038
2026-01-13 04:32:12.77	19.84	19.15	-46.1	-47.3	15.9	0.00e+00	0	22	0	996147200	58	4116
2026-01-13 04:32:13.78	19.72	19.26	-46.0	-47.2	15.9	0.00e+00	0	22	0	1001390080	58	4061
2026-01-13 04:32:14.77	19.59	19.37	-46.1	-47.2	15.9	0.00e+00	0	22	0	1007681536	58	4095
2026-01-13 04:32:15.77	19.47	19.48	-46.1	-47.3	15.9	0.00e+00	0	22	0	1012924416	58	4128
2026-01-13 04:32:16.77	19.34	19.59	-46.2	-47.4	15.9	0.00e+00	0	22	0	1018167296	58	4149
2026-01-13 04:32:17.77	19.22	19.70	-46.1	-47.2	15.9	0.00e+00	0	22	0	1024458752	58	4082
2026-01-13 04:32:18.77	19.09	19.81	-46.1	-47.2	15.9	0.00e+00	0	22	0	1029701632	58	4098
2026-01-13 04:32:19.77	18.96	19.92	-46.0	-47.1	15.9	0.00e+00	0	22	0	1034944512	58	4037
2026-01-13 04:32:20.78	18.83	20.03	-46.0	-47.1	15.9	0.00e+00	0	22	0	1041235968	58	4042
2026-01-13 04:32:21.78	18.70	20.15	-45.9	-47.1	16.0	0.00e+00	0	22	0	1046478848	58	4015
2026-01-13 04:32:22.78	18.57	20.26	-46.0	-47.2	15.9	0.00e+00	0	22	0	1052770304	58	4058
2026-01-13 04:32:23.78	18.44	20.37	-45.9	-47.0	16.0	0.00e+00	0	22	0	1058013184	58	3974
2026-01-13 04:32:24.78	18.31	20.48	-45.8	-47.0	16.0	0.00e+00	0	22	0	1063256064	58	3974
2026-01-13 04:32:25.78	18.18	20.60	-45.9	-47.0	16.0	0.00e+00	0	22	0	1069547520	58	3991
2026-01-13 04:32:26.77	18.04	20.71	-45.8	-46.9	16.1	0.00e+00	0	22	0	1074790400	58	3931
2026-01-13 04:32:27.77	17.91	20.82	-45.6	-46.7	16.0	0.00e+00	0	22	0	1080033280	57	4090
2026-01-13 04:32:28.77	17.77	20.94	-45.5	-46.6	16.0	0.00e+00	0	22	0	1086324736	57	4026
2026-01-13 04:32:29.76	17.63	21.05	-45.6	-46.7	16.0	0.00e+00	0	22	0	1091567616	57	4077
2026-01-13 04:32:30.76	17.50	21.17	-45.6	-46.8	16.0	0.00e+00	0	22	0	1096810496	57	4099
2026-01-13 04:32:31.76	17.36	21.28	-45.7	-46.8	15.9	0.00e+00	0	22	0	1103101952	57	4138
2026-01-13 04:32:32.76	17.22	21.40	-45.8	-47.0	15.9	0.00e+00	0	22	0	1108344832	57	4197
2026-01-13 04:32:33.76	17.07	21.51	-45.8	-47.0	15.9	0.00e+00	0	22	0	1114636288	57	4195
2026-01-13 04:32:34.76	16.93	21.63	-45.8	-46.9	15.9	0.00e+00	0	22	0	1119879168	57	4175
2026-01-13 04:32:35.75	16.79	21.75	-45.8	-46.9	15.9	0.00e+00	0	22	0	1125122048	57	4162
2026-01-13 04:32:36.75	16.64	21.86	-45.6	-46.7	16.0	0.00e+00	0	22	0	1130364928	57	4093
2026-01-13 04:32:37.74	16.50	21.98	-45.5	-46.6	16.0	0.00e+00	0	22	0	1136656384	57	4029
2026-01-13 04:32:38.75	16.35	22.10	-45.3	-46.4	16.1	0.00e+00	0	22	0	1141899264	57	3952
2026-01-13 04:32:39.75	16.20	22.22	-45.3	-46.4	16.1	0.00e+00	0	22	0	1147142144	57	3941
2026-01-13 04:32:40.73	16.05	22.33	-45.5	-46.6	16.0	0.00e+00	0	22	0	1153433600	57	4009
2026-01-13 04:32:41.72	15.90	22.45	-45.3	-46.4	16.1	0.00e+00	0	22	0	1158676480	57	3931
2026-01-13 04:32:42.71	15.75	22.57	-45.4	-46.5	16.1	0.00e+00	0	22	0	1164967936	57	3965
2026-01-13 04:32:43.71	15.60	22.69	-45.3	-46.5	16.1	0.00e+00	0	22	0	1170210816	57	3960
2026-01-13 04:32:44.71	15.44	22.81	-45.3	-46.4	16.1	0.00e+00	0	22	0	1175453696	57	3917
2026-01-13 04:32:45.72	15.29	22.93	-45.3	-46.4	16.1	0.00e+00	0	22	0	1181745152	57	3914
2026-01-13 04:32:46.72	15.13	23.05	-45.3	-46.4	16.1	0.00e+00	0	22	0	1186988032	57	3955
2026-01-13 04:32:47.72	14.97	23.17	-45.2	-46.3	16.2	0.00e+00	0	22	0	1192230912	57	3891
2026-01-13 04:32:48.72	14.81	23.29	-45.2	-46.3	16.1	0.00e+00	0	22	0	1198522368	57	3909
2026-01-13 04:32:49.72	14.65	23.41	-45.2	-46.3	16.2	0.00e+00	0	22	0	1203765248	57	3898
2026-01-13 04:32:50.72	14.49	23.53	-45.1	-46.2	16.0	0.00e+00	0	22	0	1209008128	56	4076
2026-01-13 04:32:51.71	14.33	23.65	-45.1	-46.2	16.0	0.00e+00	0	22	0	1215299584	56	4096
2026-01-13 04:32:52.71	14.16	23.78	-45.3	-46.4	16.0	0.00e+00	0	22	0	1220542464	56	4155
2026-01-13 04:32:53.71	14.00	23.90	-45.2	-46.3	16.0	0.00e+00	0	22	0	1226833920	56	4115
2026-01-13 04:32:54.70	13.83	24.02	-45.3	-46.4	16.0	0.00e+00	0	22	0	1232076800	56	4152
2026-01-13 04:32:55.70	13.66	24.14	-45.4	-46.5	15.9	0.00e+00	0	22	0	1237319680	56	4205
2026-01-13 04:32:56.70	13.49	24.27	-45.3	-46.5	15.9	0.00e+00	0	22	0	1242562560	56	4202
2026-01-13 04:32:57.69	13.32	24.39	-45.3	-46.4	16.0	0.00e+00	0	22	0	1248854016	56	4189
2026-01-13 04:32:58.70	13.15	24.52	-45.4	-46.5	15.9	0.00e+00	0	22	0	1254096896	56	4211
2026-01-13 04:32:59.69	12.98	24.64	-45.4	-46.5	15.9	0.00e+00	0	22	0	1259339776	56	4241
2026-01-13 04:33:00.65	12.81	24.76	-45.2	-46.3	16.0	0.00e+00	0	22	0	1265631232	56	4145
2026-01-13 04:33:01.65	12.63	24.88	-45.3	-46.4	16.0	0.00e+00	0	22	0	1270874112	56	4167
2026-01-13 04:33:02.65	12.45	25.01	-45.2	-46.3	16.0	0.00e+00	0	22	0	1276116992	56	4144
2026-01-13 04:33:03.66	12.27	25.14	-45.1	-46.2	16.0	0.00e+00	0	22	0	1282408448	56	4078
2026-01-13 04:33:04.66	12.09	25.26	-45.0	-46.1	16.1	0.00e+00	0	22	0	1287651328	56	4007
2026-01-13 04:33:05.66	11.91	25.39	-45.0	-46.1	16.1	0.00e+00	0	22	0	1293942784	56	4006
2026-01-13 04:33:06.66	11.72	25.52	-44.9	-45.9	16.1	0.00e+00	0	22	0	1299185664	56	3948
2026-01-13 04:33:07.66	11.54	25.64	-44.8	-45.9	16.2	0.00e+00	0	22	0	1304428544	56	3914
2026-01-13 04:33:08.65	11.35	25.77	-44.5	-45.6	16.1	0.00e+00	0	22	0	1309671424	55	4019
2026-01-13 04:33:09.64	11.16	25.89	-44.5	-45.6	16.1	0.00e+00	0	22	0	1315962880	55	4018
2026-01-13 04:33:10.63	10.98	26.02	-44.6	-45.6	16.1	0.00e+00	0	22	0	1321205760	55	4051
2026-01-13 04:33:11.63	10.78	26.15	-44.7	-45.8	16.0	0.00e+00	0	22	0	1327497216	55	4105
2026-01-13 04:33:12.62	10.59	26.28	-44.8	-45.9	16.0	0.00e+00	0	22	0	1332740096	55	4182
2026-01-13 04:33:13.62	10.40	26.40	-44.9	-46.0	16.0	0.00e+00	0	22	0	1337982976	55	4213
2026-01-13 04:33:14.63	10.20	26.53	-44.9	-46.0	16.0	0.00e+00	0	22	0	1344274432	55	4198
2026-01-13 04:33:15.63	10.00	26.66	-44.8	-45.9	16.0	0.00e+00	0	22	0	1349517312	55	4182
2026-01-13 04:33:16.63	9.80	26.79	-44.8	-45.9	16.0	0.00e+00	0	22	0	1354760192	55	4186
2026-01-13 04:33:17.63	9.60	26.92	-44.8	-45.8	16.0	0.00e+00	0	22	0	1361051648	55	4144
2026-01-13 04:33:18.62	9.40	27.05	-44.6	-45.6	16.1	0.00e+00	0	22	0	1366294528	55	4046
2026-01-13 04:33:19.63	9.19	27.18	-44.6	-45.6	16.1	0.00e+00	0	22	0	1372585984	55	4037
2026-01-13 04:33:20.63	8.98	27.31	-44.5	-45.6	16.1	0.00e+00	0	22	0	1377828864	55	4023
2026-01-13 04:33:21.63	8.78	27.44	-44.6	-45.6	16.1	0.00e+00	0	22	0	1383071744	55	4048
2026-01-13 04:33:22.63	8.57	27.57	-44.7	-45.7	16.0	0.00e+00	0	22	0	1389363200	55	4086
2026-01-13 04:33:23.63	8.35	27.70	-44.7	-45.8	16.0	0.00e+00	0	22	0	1394606080	55	4124
2026-01-13 04:33:24.63	8.14	27.83	-44.8	-45.9	16.0	0.00e+00	0	22	0	1399848960	55	4157
2026-01-13 04:33:25.64	7.92	27.96	-45.0	-46.1	16.0	0.00e+00	0	22	0	1406140416	55	4249
2026-01-13 04:33:26.63	7.71	28.09	-44.9	-45.9	16.0	0.00e+00	0	22	0	1411383296	55	4192
2026-01-13 04:33:27.63	7.49	28.22	-45.0	-46.1	15.9	0.00e+00	0	22	0	1416626176	55	4253
2026-01-13 04:33:28.63	7.27	28.36	-45.0	-46.0	15.9	0.00e+00	0	22	0	1422917632	55	4240
2026-01-13 04:33:29.63	7.05	28.49	-44.7	-45.8	16.0	0.00e+00	0	22	0	1428160512	55	4122
2026-01-13 04:33:30.62	6.82	28.62	-44.8	-45.9	16.0	0.00e+00	0	22	0	1434451968	55	4148
2026-01-13 04:33:31.62	6.60	28.75	-44.6	-45.7	16.1	0.00e+00	0	22	0	1439694848	55	4071
2026-01-13 04:33:32.62	6.37	28.88	-44.6	-45.7	16.1	0.00e+00	0	22	0	1444937728	55	4072
2026-01-13 04:33:33.61	6.14	29.01	-44.6	-45.7	16.1	0.00e+00	0	22	0	1451229184	55	4087
2026-01-13 04:33:34.61	5.91	29.14	-44.7	-45.7	16.1	0.00e+00	0	22	0	1456472064	55	4091
2026-01-13 04:33:35.61	5.67	29.28	-44.7	-45.8	16.1	0.00e+00	0	22	0	1461714944	55	4107
2026-01-13 04:33:36.61	5.44	29.41	-44.8	-45.8	16.0	0.00e+00	0	22	0	1468006400	55	4140
2026-01-13 04:33:37.61	5.20	29.54	-44.7	-45.8	16.1	0.00e+00	0	22	0	1473249280	55	4104
2026-01-13 04:33:38.61	4.96	29.67	-44.7	-45.8	16.1	0.00e+00	0	22	0	1478492160	55	4138
2026-01-13 04:33:39.60	4.72	29.80	-44.7	-45.8	16.0	0.00e+00	0	22	0	1484783616	55	4136
2026-01-13 04:33:40.60	4.48	29.94	-44.5	-45.6	16.1	0.00e+00	0	22	0	1490026496	55	4025
2026-01-13 04:33:41.59	4.23	30.07	-44.5	-45.5	16.1	0.00e+00	0	22	0	1495269376	55	3996
2026-01-13 04:33:42.59	3.98	30.20	-44.4	-45.5	16.1	0.00e+00	0	22	0	1501560832	55	3984
2026-01-13 04:33:43.59	3.73	30.33	-44.5	-45.5	16.1	0.00e+00	0	22	0	1506803712	55	3992
2026-01-13 04:33:44.58	3.49	30.46	-44.4	-45.5	16.1	0.00e+00	0	22	0	1512046592	55	3988
2026-01-13 04:33:45.58	3.23	30.59	-44.5	-45.5	16.1	0.00e+00	0	22	0	1518338048	55	3998
2026-01-13 04:33:46.57	2.98	30.73	-44.5	-45.5	16.1	0.00e+00	0	22	0	1523580928	55	3998
2026-01-13 04:33:47.58	2.72	30.86	-44.5	-45.5	16.1	0.00e+00	0	22	0	1528823808	55	3989
2026-01-13 04:33:48.57	2.46	30.99	-44.4	-45.5	16.1	0.00e+00	0	22	0	1535115264	55	3972
2026-01-13 04:33:49.58	2.19	31.12	-44.5	-45.6	16.1	0.00e+00	0	22	0	1540358144	55	4010
2026-01-13 04:33:50.58	1.93	31.26	-44.4	-45.5	16.1	0.00e+00	0	22	0	1546649600	55	3987
2026-01-13 04:33:51.59	1.66	31.39	-44.5	-45.5	16.1	0.00e+00	0	22	0	1551892480	55	4000
2026-01-13 04:33:52.59	1.39	31.52	-44.4	-45.4	16.2	0.00e+00	0	22	0	1557135360	55	3944
2026-01-13 04:33:53.59	1.12	31.65	-44.4	-45.5	16.2	0.00e+00	0	22	0	1563426816	55	3962
2026-01-13 04:33:54.59	0.84	31.78	-44.4	-45.5	16.1	0.00e+00	0	22	0	1568669696	55	3971
2026-01-13 04:33:55.58	0.57	31.91	-44.5	-45.6	16.1	0.00e+00	0	22	0	1573912576	55	4036
2026-01-13 04:33:56.58	0.29	32.05	-44.5	-45.6	16.1	0.00e+00	0	22	0	1580204032	55	4025
2026-01-13 04:33:57.58	0.01	32.18	-44.5	-45.6	16.1	0.00e+00	0	22	0	1585446912	55	4014
2026-01-13 04:33:58.57	359.73	32.31	-44.6	-45.7	16.1	0.00e+00	0	22	0	1590689792	55	4056
2026-01-13 04:33:59.57	359.44	32.44	-44.4	-45.5	16.1	0.00e+00	0	22	0	1596981248	55	3979
2026-01-13 04:34:00.57	359.16	32.57	-44.5	-45.5	16.1	0.00e+00	0	22	0	1602224128	55	4001
2026-01-13 04:34:01.57	358.87	32.70	-44.5	-45.6	16.1	0.00e+00	0	22	0	1608515584	55	4007
2026-01-13 04:34:02.57	358.57	32.83	-44.4	-45.5	16.1	0.00e+00	0	22	0	1613758464	55	3970
2026-01-13 04:34:03.57	358.28	32.96	-44.5	-45.5	16.1	0.00e+00	0	22	0	1619001344	55	3994
2026-01-13 04:34:04.57	357.98	33.08	-44.5	-45.5	16.1	0.00e+00	0	22	0	1625292800	55	4004
2026-01-13 04:34:05.57	357.68	33.21	-44.5	-45.5	16.1	0.00e+00	0	22	0	1630535680	55	4004
2026-01-13 04:34:06.57	357.38	33.34	-44.5	-45.6	16.1	0.00e+00	0	22	0	1635778560	55	4033
2026-01-13 04:34:07.57	357.08	33.47	-44.4	-45.5	16.1	0.00e+00	0	22	0	1642070016	55	3972
2026-01-13 04:34:08.57	356.77	33.60	-44.4	-45.5	16.1	0.00e+00	0	22	0	1647312896	55	3970
2026-01-13 04:34:09.57	356.46	33.72	-44.3	-45.4	16.2	0.00e+00	0	22	0	1652555776	55	3923
2026-01-13 04:34:10.58	356.15	33.85	-44.3	-45.3	16.2	0.00e+00	0	22	0	1658847232	55	3908
2026-01-13 04:34:11.58	355.83	33.98	-44.3	-45.4	16.2	0.00e+00	0	22	0	1664090112	55	3919
2026-01-13 04:34:12.58	355.52	34.10	-44.3	-45.3	16.2	0.00e+00	0	22	0	1670381568	55	3900
2026-01-13 04:34:13.57	355.20	34.23	-44.4	-45.4	16.2	0.00e+00	0	22	0	1675624448	55	3949
2026-01-13 04:34:14.57	354.88	34.35	-44.4	-45.4	16.2	0.00e+00	0	22	0	1680867328	55	3958
2026-01-13 04:34:15.58	354.55	34.48	-44.3	-45.3	16.2	0.00e+00	0	22	0	1687158784	55	3896
2026-01-13 04:34:16.57	354.23	34.60	-44.3	-45.3	16.2	0.00e+00	0	22	0	1692401664	55	3895
2026-01-13 04:34:17.57	353.90	34.72	-44.2	-45.3	16.2	0.00e+00	0	22	0	1697644544	55	3871
2026-01-13 04:34:18.58	353.57	34.85	-44.3	-45.3	16.2	0.00e+00	0	22	0	1703936000	55	3913
2026-01-13 04:34:19.58	353.23	34.97	-44.4	-45.4	16.2	0.00e+00	0	22	0	1709178880	55	3943
2026-01-13 04:34:20.58	352.89	35.09	-44.5	-45.6	16.1	0.00e+00	0	22	0	1714421760	55	4014
2026-01-13 04:34:21.58	352.56	35.21	-44.4	-45.5	16.1	0.00e+00	0	22	0	1720713216	55	3967
2026-01-13 04:34:22.59	352.21	35.33	-44.3	-45.4	16.2	0.00e+00	0	22	0	1725956096	55	3933
2026-01-13 04:34:23.58	351.87	35.45	-44.4	-45.4	16.2	0.00e+00	0	22	0	1732247552	55	3948
2026-01-13 04:34:24.59	351.52	35.57	-44.4	-45.4	16.2	0.00e+00	0	22	0	1737490432	55	3949
2026-01-13 04:34:25.58	351.17	35.69	-44.3	-45.3	16.2	0.00e+00	0	22	0	1742733312	55	3892
2026-01-13 04:34:26.58	350.82	35.80	-44.2	-45.2	16.2	0.00e+00	0	22	0	1749024768	55	3864
2026-01-13 04:34:27.59	350.46	35.92	-44.2	-45.2	16.1	0.00e+00	0	22	0	1754267648	54	4088
2026-01-13 04:34:28.59	350.11	36.04	-44.2	-45.2	16.1	0.00e+00	0	22	0	1759510528	54	4088
2026-01-13 04:34:29.59	349.75	36.15	-44.2	-45.2	16.1	0.00e+00	0	22	0	1765801984	54	4073
2026-01-13 04:34:30.59	349.39	36.26	-44.2	-45.3	16.1	0.00e+00	0	22	0	1771044864	54	4101
2026-01-13 04:34:31.59	349.02	36.38	-44.2	-45.3	16.1	0.00e+00	0	22	0	1776287744	54	4104
2026-01-13 04:34:32.59	348.65	36.49	-44.1	-45.2	16.1	0.00e+00	0	22	0	1782579200	54	4060
2026-01-13 04:34:33.58	348.29	36.60	-44.3	-45.4	16.1	0.00e+00	0	22	0	1787822080	54	4149
2026-01-13 04:34:34.58	347.92	36.71	-44.5	-45.5	16.0	0.00e+00	0	22	0	1794113536	54	4242
2026-01-13 04:34:35.58	347.54	36.82	-44.3	-45.4	16.1	0.00e+00	0	22	0	1799356416	54	4170
2026-01-13 04:34:36.57	347.17	36.92	-44.2	-45.3	16.1	0.00e+00	0	22	0	1804599296	54	4121
2026-01-13 04:34:37.57	346.79	37.03	-44.3	-45.4	16.1	0.00e+00	0	22	0	1810890752	54	4155
2026-01-13 04:34:38.58	346.40	37.14	-44.2	-45.3	16.1	0.00e+00	0	22	0	1816133632	54	4115
2026-01-13 04:34:39.58	346.02	37.24	-44.1	-45.2	16.1	0.00e+00	0	22	0	1821376512	54	4055
2026-01-13 04:34:40.58	345.63	37.34	-44.3	-45.3	16.1	0.00e+00	0	22	0	1827667968	54	4130
2026-01-13 04:34:41.57	345.25	37.44	-44.3	-45.4	16.1	0.00e+00	0	22	0	1832910848	54	4174
2026-01-13 04:34:42.57	344.85	37.54	-44.3	-45.3	16.1	0.00e+00	0	22	0	1838153728	54	4144
2026-01-13 04:34:43.57	344.46	37.64	-44.3	-45.3	16.1	0.00e+00	0	22	0	1844445184	54	4139
2026-01-13 04:34:44.56	344.07	37.74	-44.3	-45.4	16.1	0.00e+00	0	22	0	1849688064	54	4175
2026-01-13 04:34:45.56	343.67	37.84	-44.4	-45.4	16.1	0.00e+00	0	22	0	1855979520	54	4183
2026-01-13 04:34:46.55	343.27	37.93	-44.4	-45.5	16.0	0.00e+00	0	22	0	1861222400	54	4213
2026-01-13 04:34:47.55	342.87	38.03	-44.3	-45.4	16.1	0.00e+00	0	22	0	1866465280	54	4162
2026-01-13 04:34:48.55	342.46	38.12	-44.4	-45.4	16.0	0.00e+00	0	22	0	1871708160	54	4191
2026-01-13 04:34:49.55	342.05	38.21	-44.5	-45.6	16.0	0.00e+00	0	22	0	1877999616	54	4254
2026-01-13 04:34:50.55	341.64	38.30	-44.6	-45.7	16.0	0.00e+00	0	22	0	1883242496	54	4292
2026-01-13 04:34:51.55	341.23	38.39	-44.5	-45.6	16.0	0.00e+00	0	22	0	1888485376	54	4254
2026-01-13 04:34:52.56	340.81	38.48	-44.5	-45.6	16.0	0.00e+00	0	22	0	1894776832	54	4257
2026-01-13 04:34:53.56	340.39	38.56	-44.5	-45.5	16.0	0.00e+00	0	22	0	1900019712	54	4232
2026-01-13 04:34:54.56	339.97	38.65	-44.1	-45.2	16.1	0.00e+00	0	22	0	1906311168	54	4052
2026-01-13 04:34:55.57	339.54	38.73	-44.1	-45.1	16.1	0.00e+00	0	22	0	1911554048	54	4042
2026-01-13 04:34:56.57	339.12	38.81	-44.1	-45.1	16.1	0.00e+00	0	22	0	1917845504	54	4035
2026-01-13 04:34:57.57	338.69	38.89	-44.0	-45.1	16.1	0.00e+00	0	22	0	1923088384	54	4015
2026-01-13 04:34:58.57	338.27	38.97	-44.1	-45.1	16.2	0.00e+00	0	22	0	1928331264	54	4018
2026-01-13 04:34:59.57	337.84	39.04	-44.2	-45.2	16.1	0.00e+00	0	22	0	1934622720	54	4089
2026-01-13 04:35:00.57	337.40	39.12	-44.3	-45.4	16.1	0.00e+00	0	22	0	1939865600	54	4168
2026-01-13 04:35:01.55	336.98	39.19	-44.5	-45.6	16.0	0.00e+00	0	22	0	1945108480	54	4252
2026-01-13 04:35:02.55	336.54	39.26	-44.6	-45.6	16.0	0.00e+00	0	22	0	1951399936	54	4286
2026-01-13 04:35:03.56	336.10	39.33	-44.5	-45.5	16.0	0.00e+00	0	22	0	1956642816	54	4231
2026-01-13 04:35:04.55	335.66	39.40	-44.4	-45.5	16.1	0.00e+00	0	22	0	1962934272	54	4203
2026-01-13 04:35:05.55	335.22	39.46	-44.3	-45.4	16.1	0.00e+00	0	22	0	1968177152	54	4170
2026-01-13 04:35:06.56	334.77	39.53	-44.4	-45.4	16.1	0.00e+00	0	22	0	1973420032	54	4174
2026-01-13 04:35:07.56	334.33	39.59	-44.2	-45.3	16.1	0.00e+00	0	22	0	1979711488	54	4119
2026-01-13 04:35:08.56	333.88	39.65	-44.2	-45.3	16.1	0.00e+00	0	22	0	1984954368	54	4100
2026-01-13 04:35:09.55	333.44	39.70	-44.4	-45.5	16.1	0.00e+00	0	22	0	1990197248	54	4195
2026-01-13 04:35:10.54	332.99	39.76	-44.6	-45.7	16.0	0.00e+00	0	22	0	1995440128	54	4294
2026-01-13 04:35:11.54	332.54	39.81	-44.5	-45.6	16.0	0.00e+00	0	22	0	2001731584	54	4255
2026-01-13 04:35:12.54	332.08	39.87	-44.3	-45.4	16.1	0.00e+00	0	22	0	2006974464	54	4147
2026-01-13 04:35:13.53	331.63	39.92	-44.2	-45.2	16.1	0.00e+00	0	22	0	2013265920	54	4081
2026-01-13 04:35:14.53	331.18	39.96	-44.3	-45.3	16.1	0.00e+00	0	22	0	2018508800	54	4128
2026-01-13 04:35:15.53	330.72	40.01	-44.2	-45.3	16.1	0.00e+00	0	22	0	2023751680	54	4127
2026-01-13 04:35:16.53	330.26	40.05	-44.0	-45.1	16.1	0.00e+00	0	22	0	2030043136	54	4016
2026-01-13 04:35:17.53	329.80	40.10	-43.9	-44.9	16.2	0.00e+00	0	22	0	2035286016	54	3951
2026-01-13 04:35:18.53	329.34	40.14	-44.0	-45.0	16.2	0.00e+00	0	22	0	2040528896	54	3984
2026-01-13 04:35:19.53	328.88	40.18	-44.2	-45.2	16.1	0.00e+00	0	22	0	2046820352	54	4098
2026-01-13 04:35:20.53	328.42	40.21	-44.4	-45.5	16.1	0.00e+00	0	22	0	2052063232	54	4213
2026-01-13 04:35:21.53	327.95	40.24	-44.4	-45.5	16.1	0.00e+00	0	22	0	2057306112	54	4201
2026-01-13 04:35:22.53	327.49	40.28	-44.4	-45.4	16.1	0.00e+00	0	22	0	2063597568	54	4172
2026-01-13 04:35:23.53	327.02	40.31	-44.4	-45.4	16.1	0.00e+00	0	22	0	2068840448	54	4182
2026-01-13 04:35:24.54	326.55	40.33	-44.5	-45.5	16.0	0.00e+00	0	22	0	2075131904	54	4230
2026-01-13 04:35:25.54	326.08	40.36	-44.4	-45.4	16.1	0.00e+00	0	22	0	2080374784	54	4181
2026-01-13 04:35:26.54	325.61	40.38	-44.2	-45.3	16.1	0.00e+00	0	22	0	2085617664	54	4113
2026-01-13 04:35:27.53	325.15	40.40	-44.2	-45.2	16.1	0.00e+00	0	22	0	2091909120	54	4094
2026-01-13 04:35:28.53	324.68	40.42	-44.3	-45.3	16.1	0.00e+00	0	22	0	2097152000	54	4140
2026-01-13 04:35:29.53	324.21	40.44	-44.3	-45.4	16.1	0.00e+00	0	22	0	2102394880	54	4168
2026-01-13 04:35:30.53	323.74	40.45	-44.3	-45.3	16.1	0.00e+00	0	22	0	2108686336	54	4143
2026-01-13 04:35:31.53	323.26	40.47	-44.3	-45.3	16.1	0.00e+00	0	22	0	2113929216	54	4124
2026-01-13 04:35:32.53	322.79	40.48	-44.2	-45.3	16.1	0.00e+00	0	22	0	2119172096	54	4118
2026-01-13 04:35:33.53	322.32	40.48	-44.4	-45.4	16.1	0.00e+00	0	22	0	2125463552	54	4173
2026-01-13 04:35:34.53	321.85	40.49	-44.5	-45.5	16.1	0.00e+00	0	22	0	2130706432	54	4242
2026-01-13 04:35:35.53	321.38	40.49	-44.3	-45.4	16.1	0.00e+00	0	22	0	2136997888	54	4149
2026-01-13 04:35:36.52	320.91	40.49	-44.4	-45.4	16.1	0.00e+00	0	22	0	2142240768	54	4172
2026-01-13 04:35:37.51	320.44	40.49	-44.3	-45.4	16.1	0.00e+00	0	22	0	2147483648	54	4149
2026-01-13 04:35:38.51	319.97	40.49	-44.1	-45.2	16.1	0.00e+00	0	22	0	2153775104	54	4053
2026-01-13 04:35:39.50	319.50	40.48	-44.1	-45.1	16.2	0.00e+00	0	22	0	2159017984	54	4028
2026-01-13 04:35:40.50	319.03	40.48	-44.1	-45.1	16.1	0.00e+00	0	22	0	2164260864	54	4027
2026-01-13 04:35:41.50	318.56	40.47	-44.3	-45.3	16.1	0.00e+00	0	22	0	2169503744	54	4131
2026-01-13 04:35:42.50	318.09	40.46	-44.3	-45.4	16.1	0.00e+00	0	22	0	2175795200	54	4155
2026-01-13 04:35:43.50	317.62	40.44	-44.1	-45.2	16.1	0.00e+00	0	22	0	2181038080	54	4067
2026-01-13 04:35:44.49	317.15	40.43	-43.9	-44.9	16.2	0.00e+00	0	22	0	2187329536	54	3918
2026-01-13 04:35:45.49	316.68	40.41	-44.0	-45.0	16.2	0.00e+00	0	22	0	2192572416	54	3982
2026-01-13 04:35:46.49	316.21	40.39	-44.2	-45.3	16.1	0.00e+00	0	22	0	2197815296	54	4108
2026-01-13 04:35:47.49	315.74	40.36	-44.2	-45.3	16.1	0.00e+00	0	22	0	2204106752	54	4119
2026-01-13 04:35:48.48	315.28	40.34	-44.3	-45.3	16.1	0.00e+00	0	22	0	2209349632	54	4129
2026-01-13 04:35:49.47	314.82	40.31	-44.3	-45.3	16.1	0.00e+00	0	22	0	2214592512	54	4122
2026-01-13 04:35:50.47	314.35	40.28	-44.3	-45.3	16.1	0.00e+00	0	22	0	2220883968	54	4121
2026-01-13 04:35:51.47	313.88	40.25	-44.3	-45.4	16.1	0.00e+00	0	22	0	2226126848	54	4146
2026-01-13 04:35:52.47	313.42	40.22	-44.3	-45.3	16.1	0.00e+00	0	22	0	2231369728	54	4145
2026-01-13 04:35:53.47	312.95	40.18	-44.3	-45.4	16.1	0.00e+00	0	22	0	2237661184	54	4163
2026-01-13 04:35:54.46	312.50	40.15	-44.4	-45.4	16.1	0.00e+00	0	22	0	2242904064	54	4173
2026-01-13 04:35:55.47	312.03	40.11	-44.3	-45.3	16.1	0.00e+00	0	22	0	2249195520	54	4136
2026-01-13 04:35:56.46	311.57	40.06	-44.3	-45.3	16.1	0.00e+00	0	22	0	2254438400	54	4131
2026-01-13 04:35:57.46	311.12	40.02	-44.1	-45.2	16.1	0.00e+00	0	22	0	2259681280	54	4062
2026-01-13 04:35:58.46	310.66	39.97	-44.1	-45.1	16.1	0.00e+00	0	22	0	2265972736	54	4046
2026-01-13 04:35:59.46	310.20	39.93	-44.1	-45.1	16.1	0.00e+00	0	22	0	2271215616	54	4040
2026-01-13 04:36:00.46	309.75	39.88	-44.0	-45.1	16.2	0.00e+00	0	22	0	2276458496	54	4025
2026-01-13 04:36:01.46	309.29	39.82	-44.2	-45.3	16.1	0.00e+00	0	22	0	2282749952	54	4107
2026-01-13 04:36:02.46	308.84	39.77	-44.2	-45.3	16.1	0.00e+00	0	22	0	2287992832	54	4124
2026-01-13 04:36:03.47	308.38	39.71	-44.3	-45.3	16.1	0.00e+00	0	22	0	2293235712	54	4133
2026-01-13 04:36:04.46	307.94	39.66	-44.3	-45.3	16.1	0.00e+00	0	22	0	2299527168	54	4123
2026-01-13 04:36:05.46	307.49	39.60	-44.3	-45.3	16.1	0.00e+00	0	22	0	2304770048	54	4141
2026-01-13 04:36:06.45	307.05	39.54	-44.5	-45.5	16.0	0.00e+00	0	22	0	2310012928	54	4230
2026-01-13 04:36:07.46	306.60	39.47	-44.6	-45.7	16.0	0.00e+00	0	22	0	2316304384	54	4297
2026-01-13 04:36:08.46	306.16	39.41	-44.6	-45.7	16.0	0.00e+00	0	22	0	2321547264	54	4323
2026-01-13 04:36:09.46	305.72	39.34	-44.4	-45.5	16.0	0.00e+00	0	22	0	2327838720	54	4220
2026-01-13 04:36:10.45	305.28	39.27	-44.2	-45.2	16.1	0.00e+00	0	22	0	2333081600	54	4094
2026-01-13 04:36:11.46	304.84	39.20	-44.2	-45.3	16.1	0.00e+00	0	22	0	2338324480	54	4102
2026-01-13 04:36:12.46	304.41	39.13	-44.4	-45.4	16.1	0.00e+00	0	22	0	2344615936	54	4190
2026-01-13 04:36:13.45	303.98	39.06	-44.2	-45.2	16.1	0.00e+00	0	22	0	2349858816	54	4078
2026-01-13 04:36:14.46	303.54	38.98	-44.1	-45.2	16.1	0.00e+00	0	22	0	2355101696	54	4053
2026-01-13 04:36:15.45	303.12	38.90	-44.0	-45.0	16.1	0.00e+00	0	22	0	2361393152	54	4003
2026-01-13 04:36:16.46	302.68	38.82	-44.2	-45.3	16.1	0.00e+00	0	22	0	2366636032	54	4102
2026-01-13 04:36:17.46	302.26	38.74	-44.4	-45.4	16.0	0.00e+00	0	22	0	2372927488	54	4193
2026-01-13 04:36:18.45	301.84	38.66	-44.4	-45.4	16.1	0.00e+00	0	22	0	2378170368	54	4172
2026-01-13 04:36:19.45	301.42	38.58	-44.4	-45.5	16.0	0.00e+00	0	22	0	2383413248	54	4201
2026-01-13 04:36:20.45	301.00	38.49	-44.5	-45.6	16.0	0.00e+00	0	22	0	2388656128	54	4247
2026-01-13 04:36:21.45	300.59	38.40	-44.6	-45.7	16.0	0.00e+00	0	22	0	2394947584	54	4326
2026-01-13 04:36:22.46	300.17	38.32	-44.6	-45.6	16.0	0.00e+00	0	22	0	2400190464	54	4276
2026-01-13 04:36:23.46	299.76	38.23	-44.5	-45.5	16.0	0.00e+00	0	22	0	2406481920	54	4242
2026-01-13 04:36:24.46	299.35	38.13	-44.3	-45.3	16.1	0.00e+00	0	22	0	2411724800	54	4127
2026-01-13 04:36:25.46	298.94	38.04	-44.1	-45.1	16.1	0.00e+00	0	22	0	2416967680	54	4039
2026-01-13 04:36:26.46	298.53	37.95	-43.9	-44.9	16.2	0.00e+00	0	22	0	2423259136	54	3932
2026-01-13 04:36:27.45	298.14	37.85	-43.8	-44.8	16.2	0.00e+00	0	22	0	2428502016	54	3893
2026-01-13 04:36:28.45	297.73	37.76	-43.8	-44.9	16.2	0.00e+00	0	22	0	2433744896	54	3927
2026-01-13 04:36:29.45	297.34	37.66	-43.9	-45.0	16.2	0.00e+00	0	22	0	2440036352	54	3965
2026-01-13 04:36:30.45	296.94	37.56	-43.9	-45.0	16.2	0.00e+00	0	22	0	2445279232	54	3960
2026-01-13 04:36:31.44	296.55	37.46	-44.0	-45.1	16.1	0.00e+00	0	22	0	2450522112	54	4015
2026-01-13 04:36:32.45	296.16	37.36	-44.0	-45.1	16.1	0.00e+00	0	22	0	2456813568	54	4010
2026-01-13 04:36:33.45	295.77	37.25	-44.2	-45.3	16.1	0.00e+00	0	22	0	2462056448	54	4109
2026-01-13 04:36:34.45	295.38	37.15	-44.3	-45.4	16.1	0.00e+00	0	22	0	2468347904	54	4153
2026-01-13 04:36:35.45	295.00	37.04	-44.4	-45.5	16.0	0.00e+00	0	22	0	2473590784	54	4194
2026-01-13 04:36:36.44	294.62	36.94	-44.3	-45.3	16.1	0.00e+00	0	22	0	2478833664	54	4144
2026-01-13 04:36:37.45	294.24	36.83	-44.4	-45.4	16.1	0.00e+00	0	22	0	2485125120	54	4170
2026-01-13 04:36:38.45	293.87	36.72	-44.4	-45.4	16.0	0.00e+00	0	22	0	2490368000	54	4186
2026-01-13 04:36:39.45	293.49	36.61	-44.3	-45.3	16.1	0.00e+00	0	22	0	2495610880	54	4122
2026-01-13 04:36:40.45	293.12	36.50	-44.1	-45.2	16.1	0.00e+00	0	22	0	2501902336	54	4065
2026-01-13 04:36:41.45	292.76	36.39	-44.0	-45.0	16.2	0.00e+00	0	22	0	2507145216	54	3984
2026-01-13 04:36:42.45	292.39	36.28	-44.0	-45.0	16.2	0.00e+00	0	22	0	2512388096	54	3986
2026-01-13 04:36:43.45	292.03	36.16	-44.0	-45.0	16.1	0.00e+00	0	22	0	2518679552	54	3997
2026-01-13 04:36:44.44	291.67	36.05	-44.0	-45.0	16.1	0.00e+00	0	22	0	2523922432	54	4004
2026-01-13 04:36:45.44	291.31	35.93	-44.1	-45.1	16.1	0.00e+00	0	22	0	2530213888	54	4027
2026-01-13 04:36:46.43	290.96	35.82	-44.3	-45.3	16.1	0.00e+00	0	22	0	2535456768	54	4129
2026-01-13 04:36:47.42	290.61	35.70	-44.3	-45.3	16.1	0.00e+00	0	22	0	2540699648	54	4137
2026-01-13 04:36:48.42	290.26	35.59	-44.2	-45.3	16.1	0.00e+00	0	22	0	2546991104	54	4107
2026-01-13 04:36:49.42	289.91	35.47	-44.2	-45.2	16.1	0.00e+00	0	22	0	2552233984	54	4082
2026-01-13 04:36:50.42	289.57	35.35	-44.2	-45.2	16.1	0.00e+00	0	22	0	2557476864	54	4093
2026-01-13 04:36:51.42	289.23	35.23	-44.2	-45.2	16.1	0.00e+00	0	22	0	2563768320	54	4096
2026-01-13 04:36:52.42	288.88	35.11	-44.3	-45.3	16.1	0.00e+00	0	22	0	2569011200	54	4127
2026-01-13 04:36:53.42	288.55	34.99	-44.3	-45.3	16.1	0.00e+00	0	22	0	2574254080	54	4125
2026-01-13 04:36:54.42	288.21	34.86	-44.1	-45.1	16.1	0.00e+00	0	22	0	2580545536	54	4046
2026-01-13 04:36:55.42	287.88	34.74	-44.1	-45.1	16.1	0.00e+00	0	22	0	2585788416	54	4048
2026-01-13 04:36:56.42	287.55	34.62	-44.1	-45.2	16.1	0.00e+00	0	22	0	2592079872	54	4059
2026-01-13 04:36:57.42	287.22	34.49	-44.0	-45.0	16.1	0.00e+00	0	22	0	2597322752	54	3992
2026-01-13 04:36:58.42	286.90	34.37	-44.0	-45.1	16.1	0.00e+00	0	22	0	2602565632	54	4014
2026-01-13 04:36:59.41	286.58	34.25	-44.0	-45.0	16.1	0.00e+00	0	22	0	2608857088	54	3987
2026-01-13 04:37:00.41	286.26	34.12	-43.9	-44.9	16.2	0.00e+00	0	22	0	2614099968	54	3947
2026-01-13 04:37:01.41	285.94	33.99	-44.1	-45.1	16.1	0.00e+00	0	22	0	2619342848	54	4038
2026-01-13 04:37:02.41	285.62	33.87	-44.1	-45.1	16.1	0.00e+00	0	22	0	2625634304	54	4048
2026-01-13 04:37:03.40	285.31	33.74	-44.2	-45.2	16.1	0.00e+00	0	22	0	2630877184	54	4096
2026-01-13 04:37:04.40	285.00	33.61	-44.0	-45.1	16.1	0.00e+00	0	22	0	2636120064	54	4025
2026-01-13 04:37:05.40	284.70	33.49	-44.1	-45.2	16.1	0.00e+00	0	22	0	2642411520	54	4052
2026-01-13 04:37:06.40	284.39	33.36	-44.0	-45.1	16.1	0.00e+00	0	22	0	2647654400	54	4015
2026-01-13 04:37:07.39	284.09	33.23	-44.0	-45.1	16.1	0.00e+00	0	22	0	2652897280	54	4016
2026-01-13 04:37:08.38	283.79	33.10	-43.9	-44.9	16.2	0.00e+00	0	22	0	2659188736	54	3952
2026-01-13 04:37:09.38	283.50	32.97	-43.9	-44.9	16.2	0.00e+00	0	22	0	2664431616	54	3955
2026-01-13 04:37:10.38	283.20	32.84	-43.9	-44.9	16.2	0.00e+00	0	22	0	2669674496	54	3929
2026-01-13 04:37:11.38	282.91	32.71	-43.8	-44.9	16.2	0.00e+00	0	22	0	2675965952	54	3919
2026-01-13 04:37:12.38	282.61	32.58	-44.1	-45.1	16.2	0.00e+00	0	22	0	2681208832	54	4030
2026-01-13 04:37:13.39	282.32	32.45	-44.2	-45.3	16.1	0.00e+00	0	22	0	2686451712	54	4117
2026-01-13 04:37:14.39	282.04	32.32	-44.3	-45.4	16.1	0.00e+00	0	22	0	2692743168	54	4152
2026-01-13 04:37:15.39	281.75	32.19	-44.3	-45.3	16.1	0.00e+00	0	22	0	2697986048	54	4142
2026-01-13 04:37:16.39	281.47	32.06	-44.4	-45.5	16.0	0.00e+00	0	22	0	2704277504	54	4202
2026-01-13 04:37:17.39	281.19	31.93	-44.4	-45.5	16.0	0.00e+00	0	22	0	2709520384	54	4204
2026-01-13 04:37:18.39	280.91	31.80	-44.5	-45.5	16.0	0.00e+00	0	22	0	2714763264	54	4236
2026-01-13 04:37:19.39	280.64	31.66	-44.5	-45.6	16.0	0.00e+00	0	22	0	2721054720	54	4246
2026-01-13 04:37:20.38	280.37	31.53	-44.3	-45.4	16.1	0.00e+00	0	22	0	2726297600	54	4166
2026-01-13 04:37:21.37	280.10	31.40	-44.4	-45.4	16.0	0.00e+00	0	22	0	2731540480	54	4177
2026-01-13 04:37:22.38	279.83	31.27	-44.3	-45.4	16.0	0.00e+00	0	22	0	2737831936	54	4161
2026-01-13 04:37:23.37	279.57	31.14	-44.3	-45.4	16.0	0.00e+00	0	22	0	2743074816	54	4161
2026-01-13 04:37:24.37	279.30	31.01	-44.4	-45.5	16.0	0.00e+00	0	22	0	2748317696	54	4215
2026-01-13 04:37:25.36	279.04	30.88	-44.4	-45.5	16.0	0.00e+00	0	22	0	2754609152	54	4218
2026-01-13 04:37:26.36	278.78	30.74	-44.3	-45.4	16.0	0.00e+00	0	22	0	2759852032	54	4154
2026-01-13 04:37:27.37	278.52	30.61	-44.3	-45.3	16.1	0.00e+00	0	22	0	2766143488	54	4128
2026-01-13 04:37:28.37	278.27	30.48	-44.4	-45.4	16.0	0.00e+00	0	22	0	2771386368	54	4176
2026-01-13 04:37:29.36	278.02	30.34	-44.4	-45.4	16.0	0.00e+00	0	22	0	2776629248	54	4191
2026-01-13 04:37:30.36	277.77	30.21	-44.3	-45.4	16.0	0.00e+00	0	22	0	2782920704	54	4177
2026-01-13 04:37:31.36	277.52	30.08	-44.4	-45.5	16.0	0.00e+00	0	22	0	2788163584	54	4210
2026-01-13 04:37:32.36	277.27	29.95	-44.4	-45.5	16.0	0.00e+00	0	22	0	2793406464	54	4209
2026-01-13 04:37:33.36	277.02	29.81	-44.4	-45.4	16.0	0.00e+00	0	22	0	2799697920	54	4170
2026-01-13 04:37:34.36	276.78	29.68	-44.4	-45.5	16.0	0.00e+00	0	22	0	2804940800	54	4203
2026-01-13 04:37:35.36	276.54	29.55	-44.6	-45.6	16.0	0.00e+00	0	22	0	2810183680	54	4278
2026-01-13 04:37:36.36	276.30	29.42	-44.6	-45.7	16.0	0.00e+00	0	22	0	2816475136	54	4318
2026-01-13 04:37:37.36	276.06	29.28	-44.8	-45.8	15.9	0.00e+00	0	22	0	2821718016	54	4379
2026-01-13 04:37:38.35	275.83	29.15	-44.8	-45.9	15.9	0.00e+00	0	22	0	2828009472	54	4408
2026-01-13 04:37:39.35	275.60	29.02	-44.7	-45.8	15.9	0.00e+00	0	22	0	2833252352	54	4361
2026-01-13 04:37:40.34	275.37	28.89	-44.6	-45.7	16.0	0.00e+00	0	22	0	2838495232	54	4296
2026-01-13 04:37:41.34	275.14	28.76	-44.5	-45.6	16.0	0.00e+00	0	22	0	2843738112	54	4263
2026-01-13 04:37:42.34	274.91	28.62	-44.5	-45.6	16.0	0.00e+00	0	22	0	2850029568	54	4258
2026-01-13 04:37:43.33	274.69	28.49	-44.6	-45.7	16.0	0.00e+00	0	22	0	2855272448	54	4312
2026-01-13 04:37:44.32	274.47	28.36	-44.6	-45.7	16.0	0.00e+00	0	22	0	2860515328	54	4319
2026-01-13 04:37:45.31	274.25	28.23	-44.6	-45.6	16.0	0.00e+00	0	22	0	2866806784	54	4289
2026-01-13 04:37:46.31	274.03	28.10	-44.5	-45.6	16.0	0.00e+00	0	22	0	2872049664	54	4272
2026-01-13 04:37:47.31	273.81	27.97	-44.6	-45.7	16.0	0.00e+00	0	22	0	2878341120	54	4294
2026-01-13 04:37:48.31	273.59	27.84	-44.6	-45.6	16.0	0.00e+00	0	22	0	2883584000	54	4285
2026-01-13 04:37:49.31	273.38	27.71	-44.7	-45.8	15.9	0.00e+00	0	22	0	2888826880	54	4347
2026-01-13 04:37:50.30	273.17	27.58	-44.6	-45.7	16.0	0.00e+00	0	22	0	2895118336	54	4325
2026-01-13 04:37:51.30	272.96	27.45	-44.7	-45.8	15.9	0.00e+00	0	22	0	2900361216	54	4342
2026-01-13 04:37:52.30	272.75	27.32	-44.8	-45.8	15.9	0.00e+00	0	22	0	2905604096	54	4385
2026-01-13 04:37:53.30	272.54	27.19	-44.7	-45.8	15.9	0.00e+00	0	22	0	2911895552	54	4353
2026-01-13 04:37:54.30	272.33	27.06	-44.8	-45.9	15.9	0.00e+00	0	22	0	2917138432	54	4420
2026-01-13 04:37:55.31	272.13	26.93	-44.8	-45.9	15.9	0.00e+00	0	22	0	2922381312	54	4407
2026-01-13 04:37:56.30	271.93	26.80	-44.9	-46.0	15.9	0.00e+00	0	22	0	2928672768	54	4450
2026-01-13 04:37:57.30	271.73	26.67	-44.9	-46.0	15.9	0.00e+00	0	22	0	2933915648	54	4473
2026-01-13 04:37:58.30	271.53	26.54	-44.8	-45.9	16.0	0.00e+00	0	22	0	2940207104	55	4180
2026-01-13 04:37:59.31	271.33	26.41	-44.8	-45.9	16.0	0.00e+00	0	22	0	2945449984	55	4166
2026-01-13 04:38:00.31	271.13	26.28	-44.8	-45.9	16.0	0.00e+00	0	22	0	2950692864	55	4157
2026-01-13 04:38:01.31	270.94	26.15	-44.9	-45.9	16.0	0.00e+00	0	22	0	2956984320	55	4189
2026-01-13 04:38:02.31	270.74	26.02	-44.8	-45.8	16.0	0.00e+00	0	22	0	2962227200	55	4136
2026-01-13 04:38:03.32	270.55	25.89	-44.8	-45.8	16.0	0.00e+00	0	22	0	2967470080	55	4129
2026-01-13 04:38:04.32	270.36	25.77	-44.9	-46.0	16.0	0.00e+00	0	22	0	2973761536	55	4216
2026-01-13 04:38:05.31	270.18	25.64	-44.9	-46.0	16.0	0.00e+00	0	22	0	2979004416	55	4218
2026-01-13 04:38:06.31	269.99	25.51	-44.9	-46.0	15.9	0.00e+00	0	22	0	2984247296	55	4217
2026-01-13 04:38:07.31	269.80	25.39	-45.0	-46.0	15.9	0.00e+00	0	22	0	2990538752	55	4241
2026-01-13 04:38:08.30	269.62	25.26	-45.0	-46.1	15.9	0.00e+00	0	22	0	2995781632	55	4256
2026-01-13 04:38:09.30	269.44	25.13	-44.9	-46.0	16.0	0.00e+00	0	22	0	3002073088	55	4214
2026-01-13 04:38:10.31	269.26	25.01	-45.0	-46.0	15.9	0.00e+00	0	22	0	3007315968	55	4239
2026-01-13 04:38:11.30	269.08	24.88	-45.1	-46.2	15.9	0.00e+00	0	22	0	3012558848	55	4298
2026-01-13 04:38:12.30	268.90	24.76	-44.9	-46.0	16.0	0.00e+00	0	22	0	3018850304	55	4224
2026-01-13 04:38:13.31	268.72	24.63	-45.0	-46.1	15.9	0.00e+00	0	22	0	3024093184	55	4250
2026-01-13 04:38:14.31	268.55	24.50	-45.1	-46.1	15.9	0.00e+00	0	22	0	3029336064	55	4287
2026-01-13 04:38:15.31	268.38	24.38	-44.9	-46.0	16.0	0.00e+00	0	22	0	3035627520	55	4197
2026-01-13 04:38:16.31	268.20	24.26	-44.9	-45.9	16.0	0.00e+00	0	22	0	3040870400	55	4182
2026-01-13 04:38:17.30	268.03	24.13	-44.9	-46.0	16.0	0.00e+00	0	22	0	3046113280	55	4198
2026-01-13 04:38:18.29	267.87	24.01	-44.9	-46.0	16.0	0.00e+00	0	22	0	3052404736	55	4197
2026-01-13 04:38:19.29	267.70	23.89	-44.9	-46.0	16.0	0.00e+00	0	22	0	3057647616	55	4202
2026-01-13 04:38:20.29	267.53	23.76	-45.0	-46.0	15.9	0.00e+00	0	22	0	3062890496	55	4242
2026-01-13 04:38:21.29	267.37	23.64	-45.0	-46.1	15.9	0.00e+00	0	22	0	3069181952	55	4277
2026-01-13 04:38:22.29	267.20	23.52	-45.2	-46.3	15.9	0.00e+00	0	22	0	3074424832	55	4362
2026-01-13 04:38:23.29	267.04	23.40	-45.2	-46.3	15.9	0.00e+00	0	22	0	3079667712	55	4377
2026-01-13 04:38:24.29	266.88	23.27	-45.1	-46.2	15.9	0.00e+00	0	22	0	3085959168	55	4327
2026-01-13 04:38:25.29	266.72	23.15	-45.2	-46.3	15.9	0.00e+00	0	22	0	3091202048	55	4347
2026-01-13 04:38:26.30	266.56	23.03	-45.1	-46.2	15.9	0.00e+00	0	22	0	3096444928	55	4300
2026-01-13 04:38:27.29	266.40	22.91	-45.1	-46.2	15.9	0.00e+00	0	22	0	3102736384	55	4312
2026-01-13 04:38:28.29	266.24	22.79	-44.9	-46.0	15.9	0.00e+00	0	22	0	3107979264	55	4234
2026-01-13 04:38:29.29	266.09	22.67	-44.9	-45.9	16.0	0.00e+00	0	22	0	3114270720	55	4192
2026-01-13 04:38:30.29	265.94	22.55	-44.9	-45.9	16.0	0.00e+00	0	22	0	3119513600	55	4189
2026-01-13 04:38:31.29	265.78	22.43	-45.0	-46.1	15.9	0.00e+00	0	22	0	3124756480	55	4246
2026-01-13 04:38:32.29	265.63	22.31	-44.9	-46.0	16.0	0.00e+00	0	22	0	3131047936	55	4229
2026-01-13 04:38:33.29	265.48	22.19	-44.9	-46.0	15.9	0.00e+00	0	22	0	3136290816	55	4239
2026-01-13 04:38:34.28	265.33	22.08	-45.1	-46.2	15.9	0.00e+00	0	22	0	3141533696	55	4303
2026-01-13 04:38:35.28	265.18	21.96	-44.9	-46.0	15.9	0.00e+00	0	22	0	3147825152	55	4232
2026-01-13 04:38:36.28	265.04	21.84	-44.9	-46.0	15.9	0.00e+00	0	22	0	3153068032	55	4231
2026-01-13 04:38:37.27	264.89	21.72	-45.1	-46.2	15.9	0.00e+00	0	22	0	3158310912	55	4295
2026-01-13 04:38:38.27	264.75	21.61	-45.0	-46.1	15.9	0.00e+00	0	22	0	3164602368	55	4278
2026-01-13 04:38:39.27	264.60	21.49	-45.2	-46.3	15.9	0.00e+00	0	22	0	3169845248	55	4370
2026-01-13 04:38:40.27	264.46	21.37	-45.3	-46.4	15.8	0.00e+00	0	22	0	3176136704	55	4416
2026-01-13 04:38:41.27	264.32	21.26	-45.3	-46.4	15.8	0.00e+00	0	22	0	3181379584	55	4425
2026-01-13 04:38:42.27	264.18	21.14	-45.3	-46.4	15.8	0.00e+00	0	22	0	3186622464	55	4431
2026-01-13 04:38:43.27	264.04	21.03	-45.4	-46.5	15.8	0.00e+00	0	22	0	3192913920	55	4464
2026-01-13 04:38:44.26	263.90	20.91	-45.5	-46.6	15.9	0.00e+00	0	22	0	3198156800	56	4285
2026-01-13 04:38:45.26	263.77	20.80	-45.5	-46.7	15.9	0.00e+00	0	22	0	3203399680	56	4294
2026-01-13 04:38:46.26	263.63	20.68	-45.7	-46.8	15.8	0.00e+00	0	22	0	3209691136	56	4351
2026-01-13 04:38:47.26	263.49	20.57	-45.7	-46.8	15.8	0.00e+00	0	22	0	3214934016	56	4355
2026-01-13 04:38:48.26	263.36	20.46	-45.6	-46.7	15.8	0.00e+00	0	22	0	3221225472	56	4327
2026-01-13 04:38:49.26	263.23	20.34	-45.6	-46.7	15.8	0.00e+00	0	22	0	3226468352	56	4322
2026-01-13 04:38:50.26	263.10	20.23	-45.6	-46.7	15.8	0.00e+00	0	22	0	3231711232	56	4324
2026-01-13 04:38:51.26	262.96	20.12	-45.6	-46.7	15.8	0.00e+00	0	22	0	3238002688	56	4327
2026-01-13 04:38:52.26	262.83	20.00	-45.6	-46.7	15.8	0.00e+00	0	22	0	3243245568	56	4309
2026-01-13 04:38:53.26	262.70	19.89	-45.6	-46.8	15.8	0.00e+00	0	22	0	3248488448	56	4346
2026-01-13 04:38:54.25	262.58	19.78	-45.6	-46.7	15.8	0.00e+00	0	22	0	3254779904	56	4328
2026-01-13 04:38:55.25	262.45	19.67	-45.7	-46.8	15.8	0.00e+00	0	22	0	3260022784	56	4357
2026-01-13 04:38:56.25	262.32	19.56	-45.7	-46.8	15.8	0.00e+00	0	22	0	3265265664	56	4366
2026-01-13 04:38:57.25	262.20	19.45	-45.7	-46.8	15.8	0.00e+00	0	22	0	3271557120	56	4379
2026-01-13 04:38:58.24	262.07	19.34	-45.7	-46.9	15.8	0.00e+00	0	22	0	3276800000	56	4394
2026-01-13 04:38:59.24	261.95	19.23	-45.9	-47.0	15.7	0.00e+00	0	22	0	3282042880	56	4462
2026-01-13 04:39:00.24	261.83	19.12	-45.8	-47.0	15.8	0.00e+00	0	22	0	3288334336	57	4209
2026-01-13 04:39:01.24	261.71	19.01	-45.9	-47.1	15.8	0.00e+00	0	22	0	3293577216	57	4259
2026-01-13 04:39:02.24	261.59	18.90	-46.0	-47.1	15.8	0.00e+00	0	22	0	3298820096	57	4288
2026-01-13 04:39:03.24	261.47	18.79	-46.0	-47.1	15.8	0.00e+00	0	22	0	3305111552	57	4278
2026-01-13 04:39:04.25	261.34	18.68	-46.0	-47.2	15.8	0.00e+00	0	22	0	3310354432	57	4306
2026-01-13 04:39:05.25	261.23	18.58	-46.1	-47.2	15.8	0.00e+00	0	22	0	3316645888	57	4326
2026-01-13 04:39:06.26	261.11	18.47	-46.1	-47.3	15.8	0.00e+00	0	22	0	3321888768	57	4341
2026-01-13 04:39:07.26	260.99	18.36	-46.1	-47.2	15.8	0.00e+00	0	22	0	3327131648	57	4323
2026-01-13 04:39:08.27	260.87	18.25	-46.0	-47.1	15.8	0.00e+00	0	22	0	3333423104	57	4283
2026-01-13 04:39:09.27	260.76	18.15	-46.0	-47.1	15.8	0.00e+00	0	22	0	3338665984	57	4288
2026-01-13 04:39:10.27	260.65	18.04	-46.0	-47.1	15.8	0.00e+00	0	22	0	3344957440	57	4287
2026-01-13 04:39:11.27	260.53	17.93	-45.9	-47.0	15.8	0.00e+00	0	22	0	3350200320	57	4235
2026-01-13 04:39:12.27	260.42	17.83	-46.0	-47.1	15.8	0.00e+00	0	22	0	3355443200	57	4259
2026-01-13 04:39:13.26	260.31	17.72	-46.0	-47.2	15.8	0.00e+00	0	22	0	3361734656	57	4305
2026-01-13 04:39:14.27	260.20	17.62	-46.0	-47.1	15.8	0.00e+00	0	22	0	3366977536	57	4273
2026-01-13 04:39:15.27	260.09	17.51	-46.0	-47.2	15.8	0.00e+00	0	22	0	3372220416	57	4304
2026-01-13 04:39:16.27	259.98	17.41	-46.2	-47.3	15.7	0.00e+00	0	22	0	3378511872	57	4385
2026-01-13 04:39:17.27	259.87	17.31	-46.2	-47.4	15.7	0.00e+00	0	22	0	3383754752	57	4410
2026-01-13 04:39:18.27	259.76	17.20	-46.3	-47.4	15.7	0.00e+00	0	22	0	3388997632	57	4420
2026-01-13 04:39:19.28	259.65	17.10	-46.3	-47.4	15.7	0.00e+00	0	22	0	3395289088	57	4429
2026-01-13 04:39:20.28	259.55	17.00	-46.3	-47.5	15.7	0.00e+00	0	22	0	3400531968	57	4455
2026-01-13 04:39:21.27	259.44	16.89	-46.5	-47.7	15.7	0.00e+00	0	22	0	3406823424	58	4297
2026-01-13 04:39:22.27	259.34	16.79	-46.5	-47.7	15.7	0.00e+00	0	22	0	3412066304	58	4300
2026-01-13 04:39:23.27	259.23	16.69	-46.5	-47.7	15.7	0.00e+00	0	22	0	3417309184	58	4295
2026-01-13 04:39:24.26	259.13	16.59	-46.6	-47.8	15.7	0.00e+00	0	22	0	3423600640	58	4354
2026-01-13 04:39:25.26	259.03	16.49	-46.7	-47.8	15.6	0.00e+00	0	22	0	3428843520	58	4378
2026-01-13 04:39:26.26	258.93	16.39	-46.6	-47.8	15.7	0.00e+00	0	22	0	3434086400	58	4367
2026-01-13 04:39:27.26	258.82	16.29	-46.7	-47.9	15.6	0.00e+00	0	22	0	3440377856	58	4431
2026-01-13 04:39:28.25	258.73	16.19	-46.7	-47.9	15.6	0.00e+00	0	22	0	3445620736	58	4425
2026-01-13 04:39:29.26	258.62	16.09	-46.7	-47.9	15.6	0.00e+00	0	22	0	3450863616	58	4405
2026-01-13 04:39:30.26	258.52	15.99	-46.7	-47.8	15.6	0.00e+00	0	22	0	3457155072	58	4379
2026-01-13 04:39:31.26	258.43	15.89	-46.6	-47.8	15.6	0.00e+00	0	22	0	3462397952	58	4373
2026-01-13 04:39:32.26	258.33	15.79	-46.6	-47.8	15.6	0.00e+00	0	22	0	3468689408	58	4369
2026-01-13 04:39:33.26	258.23	15.69	-46.7	-47.8	15.6	0.00e+00	0	22	0	3473932288	58	4384
2026-01-13 04:39:34.26	258.13	15.59	-46.7	-47.9	15.6	0.00e+00	0	22	0	3479175168	58	4419
2026-01-13 04:39:35.26	258.04	15.49	-46.7	-47.9	15.6	0.00e+00	0	22	0	3485466624	58	4410
2026-01-13 04:39:36.27	257.94	15.40	-46.8	-48.0	15.6	0.00e+00	0	22	0	3490709504	58	4451
2026-01-13 04:39:37.26	257.85	15.30	-46.7	-47.9	15.6	0.00e+00	0	22	0	3495952384	58	4425
2026-01-13 04:39:38.26	257.76	15.20	-46.8	-48.0	15.6	0.00e+00	0	22	0	3502243840	58	4451
2026-01-13 04:39:39.25	257.66	15.11	-46.8	-48.0	15.6	0.00e+00	0	22	0	3507486720	58	4454
2026-01-13 04:39:40.26	257.57	15.01	-46.8	-48.0	15.6	0.00e+00	0	22	0	3512729600	58	4457
2026-01-13 04:39:41.25	257.48	14.91	-46.8	-48.0	15.6	0.00e+00	0	22	0	3519021056	58	4487
2026-01-13 04:39:42.25	257.39	14.82	-46.8	-48.0	15.6	0.00e+00	0	22	0	3524263936	58	4482
2026-01-13 04:39:43.25	257.30	14.72	-47.0	-48.2	15.6	0.00e+00	0	22	0	3529506816	59	4298
2026-01-13 04:39:44.25	257.20	14.63	-46.9	-48.2	15.6	0.00e+00	0	22	0	3535798272	59	4293
2026-01-13 04:39:45.25	257.12	14.53	-47.0	-48.3	15.6	0.00e+00	0	22	0	3541041152	59	4341
2026-01-13 04:39:46.25	257.03	14.44	-47.0	-48.2	15.6	0.00e+00	0	22	0	3546284032	59	4321
2026-01-13 04:39:47.24	256.94	14.34	-47.1	-48.4	15.5	0.00e+00	0	22	0	3552575488	59	4393
2026-01-13 04:39:48.23	256.85	14.25	-47.1	-48.4	15.5	0.00e+00	0	22	0	3557818368	59	4398
2026-01-13 04:39:49.23	256.76	14.16	-47.3	-48.6	15.4	0.00e+00	0	22	0	3563061248	59	4510
2026-01-13 04:39:50.24	256.68	14.06	-47.2	-48.4	15.5	0.00e+00	0	22	0	3569352704	59	4423
2026-01-13 04:39:51.23	256.59	13.97	-47.2	-48.5	15.5	0.00e+00	0	22	0	3574595584	59	4458
2026-01-13 04:39:52.23	256.51	13.88	-47.3	-48.6	15.4	0.00e+00	0	22	0	3580887040	59	4497
2026-01-13 04:39:53.23	256.42	13.78	-47.3	-48.5	15.5	0.00e+00	0	22	0	3586129920	59	4461
2026-01-13 04:39:54.23	256.34	13.69	-47.3	-48.5	15.5	0.00e+00	0	22	0	3591372800	59	4470
2026-01-13 04:39:55.24	256.25	13.60	-47.3	-48.5	15.5	0.00e+00	0	22	0	3597664256	59	4477
2026-01-13 04:39:56.23	256.17	13.51	-47.4	-48.6	15.4	0.00e+00	0	22	0	3602907136	59	4534
2026-01-13 04:39:57.23	256.08	13.42	-47.3	-48.5	15.4	0.00e+00	0	22	0	3608150016	59	4488
2026-01-13 04:39:58.23	256.00	13.33	-47.3	-48.5	15.5	0.00e+00	0	22	0	3614441472	59	4467
2026-01-13 04:39:59.23	255.92	13.23	-47.3	-48.5	15.4	0.00e+00	0	22	0	3619684352	59	4480
2026-01-13 04:40:00.23	255.84	13.14	-47.3	-48.5	15.4	0.00e+00	0	22	0	3624927232	59	4488
2026-01-13 04:40:01.22	255.76	13.05	-47.3	-48.5	15.4	0.00e+00	0	22	0	3631218688	59	4477
2026-01-13 04:40:02.22	255.68	12.96	-47.3	-48.5	15.4	0.00e+00	0	22	0	3636461568	59	4486
2026-01-13 04:40:03.22	255.60	12.87	-47.3	-48.5	15.4	0.00e+00	0	22	0	3642753024	59	4484
2026-01-13 04:40:04.22	255.52	12.79	-47.3	-48.5	15.4	0.00e+00	0	22	0	3647995904	59	4490
2026-01-13 04:40:05.22	255.44	12.70	-47.0	-48.2	15.7	0.00e+00	0	22	0	3653238784	60	4082
2026-01-13 04:40:06.22	255.36	12.61	-47.0	-48.2	15.7	0.00e+00	0	22	0	3659530240	60	4069
2026-01-13 04:40:07.22	255.28	12.52	-47.1	-48.2	15.6	0.00e+00	0	22	0	3664773120	60	4097
2026-01-13 04:40:08.23	255.21	12.43	-47.0	-48.2	15.7	0.00e+00	0	22	0	3670016000	60	4069
