passes_logs/2026/01/13/R3.2S_Murmansk/R3.2S_Murmansk__20260113_104426_AQUA_rec.log

#Pass ID: 20260113_104426_AQUA
#Satellite: AQUA
#Configuration: AQUA
#almurnet v.1.7.20251203
#Start time: 2026-01-13 10:44:28

#Version: 2.2.20231116
#Station: R3.2S_Murmansk
#Location: 33.079688 lon 68.888172 lat
#TLE: 1 27424U 02022A   26013.18153243  .00000837  00000+0  17739-3 0  9991
#TLE: 2 27424  98.4079 339.5784 0002044  80.4993   9.3142 14.61818197260621

#Time	Az	El	Level	Level2	SNR	BER	BlckErr	Temp	State	Recorded	gain1	gain2
2026-01-13 10:44:28.64	138.92	2.14	-57.6	-77.0	3.8	7.48e-01	0	24	0	0	84	32553
2026-01-13 10:44:29.63	138.90	2.21	-57.4	-76.7	3.8	7.44e-01	0	25	104	0	82	35502
2026-01-13 10:44:30.62	138.89	2.27	-57.4	-76.7	3.8	7.44e-01	0	25	104	0	82	35479
2026-01-13 10:44:31.61	138.87	2.34	-57.4	-76.7	3.8	7.48e-01	0	25	104	0	82	35601
2026-01-13 10:44:32.61	138.86	2.41	-57.4	-76.7	3.8	7.47e-01	0	25	104	0	82	35686
2026-01-13 10:44:33.59	138.84	2.47	-57.4	-76.7	3.8	7.51e-01	0	25	104	0	82	35571
2026-01-13 10:44:34.59	138.83	2.54	-57.4	-76.6	3.8	7.43e-01	0	25	104	0	82	35215
2026-01-13 10:44:35.59	138.81	2.61	-57.4	-76.5	3.8	7.42e-01	0	25	104	0	82	34866
2026-01-13 10:44:36.58	138.79	2.67	-57.4	-76.6	3.8	7.43e-01	0	25	104	0	82	34896
2026-01-13 10:44:37.58	138.78	2.74	-57.4	-76.7	3.8	7.43e-01	0	25	104	0	82	35320
2026-01-13 10:44:38.57	138.76	2.81	-57.4	-76.7	3.8	7.45e-01	0	25	104	0	82	35583
2026-01-13 10:44:39.57	138.75	2.88	-57.4	-76.7	3.8	7.42e-01	0	25	104	0	82	35511
2026-01-13 10:44:40.56	138.73	2.95	-57.4	-76.6	3.8	7.47e-01	0	25	104	0	82	35110
2026-01-13 10:44:41.55	138.71	3.01	-57.4	-76.5	3.8	7.45e-01	0	25	104	0	82	34858
2026-01-13 10:44:42.55	138.70	3.08	-57.4	-76.5	3.8	7.50e-01	0	25	104	0	82	34705
2026-01-13 10:44:43.53	138.68	3.15	-57.4	-76.4	3.8	7.44e-01	0	25	104	0	82	34196
2026-01-13 10:44:44.52	138.66	3.22	-57.4	-76.2	3.8	7.45e-01	0	25	104	0	82	33334
2026-01-13 10:44:45.52	138.65	3.29	-57.4	-75.9	3.9	7.44e-01	0	25	104	0	82	32448
2026-01-13 10:44:46.51	138.63	3.36	-57.4	-75.2	3.9	7.47e-01	0	25	104	0	82	29703
2026-01-13 10:44:47.51	138.61	3.43	-57.4	-74.2	3.9	7.41e-01	0	25	104	0	82	26762
2026-01-13 10:44:48.50	138.60	3.50	-57.3	-73.1	4.2	7.38e-01	0	25	104	0	82	23431
2026-01-13 10:44:49.50	138.58	3.57	-57.3	-71.0	5.0	7.10e-01	0	25	0	0	82	18414
2026-01-13 10:44:50.49	138.56	3.64	-57.1	-68.7	6.4	6.70e-01	92	25	0	1048576	82	14209
2026-01-13 10:44:51.48	138.54	3.71	-57.1	-68.1	6.9	6.59e-01	92	25	0	2621440	82	13144
2026-01-13 10:44:52.47	138.53	3.78	-56.9	-66.9	7.9	6.43e-01	10	25	0	4718592	82	11463
2026-01-13 10:44:53.45	138.51	3.85	-56.9	-66.8	8.0	6.43e-01	5	25	0	6291456	82	11378
2026-01-13 10:44:54.45	138.49	3.92	-56.7	-65.0	9.6	6.25e-01	0	25	0	8388608	82	9259
2026-01-13 10:44:55.45	138.47	3.99	-56.7	-64.9	9.7	6.22e-01	0	25	0	9961472	82	9171
2026-01-13 10:44:56.44	138.46	4.06	-56.4	-63.7	10.6	6.16e-01	0	25	0	12058624	82	7971
2026-01-13 10:44:57.44	138.44	4.13	-56.2	-63.0	11.1	6.13e-01	0	25	0	13631488	81	7795
2026-01-13 10:44:58.43	138.42	4.21	-56.0	-62.1	11.8	6.11e-01	0	25	0	15728640	81	6989
2026-01-13 10:44:59.42	138.40	4.28	-55.8	-61.6	12.2	6.10e-01	0	25	0	17301504	80	6966
2026-01-13 10:45:00.41	138.38	4.35	-54.9	-59.3	13.6	6.08e-01	0	25	0	19398656	79	5681
2026-01-13 10:45:01.40	138.36	4.42	-54.2	-58.0	14.0	6.07e-01	0	26	0	21495808	77	5479
2026-01-13 10:45:02.40	138.35	4.49	-53.6	-56.8	14.5	6.06e-01	0	25	0	23068672	76	5056
2026-01-13 10:45:03.39	138.33	4.57	-52.9	-55.8	14.8	6.06e-01	0	25	0	25165824	75	4790
2026-01-13 10:45:04.38	138.31	4.64	-52.5	-55.2	15.0	6.05e-01	0	25	0	26738688	74	4749
2026-01-13 10:45:05.38	138.29	4.71	-52.2	-54.8	15.0	6.07e-01	0	25	0	28835840	73	4768
2026-01-13 10:45:06.38	138.27	4.79	-51.8	-54.1	15.1	6.07e-01	0	25	0	30408704	72	4704
2026-01-13 10:45:07.38	138.25	4.86	-51.9	-54.4	15.0	6.06e-01	0	25	0	32505856	72	4829
2026-01-13 10:45:08.37	138.23	4.93	-52.2	-54.8	14.9	6.05e-01	0	25	0	34078720	72	5051
2026-01-13 10:45:09.37	138.21	5.01	-52.0	-54.4	15.0	6.06e-01	0	26	0	36175872	72	4863
2026-01-13 10:45:10.36	138.19	5.08	-51.7	-54.1	15.1	6.07e-01	0	26	0	38273024	72	4703
2026-01-13 10:45:11.36	138.17	5.16	-51.5	-53.8	15.2	6.06e-01	0	25	0	39845888	72	4527
2026-01-13 10:45:12.36	138.15	5.23	-52.0	-54.4	15.1	6.06e-01	0	25	0	41943040	73	4574
2026-01-13 10:45:13.36	138.13	5.31	-55.5	-60.8	12.2	6.09e-01	0	25	0	43515904	80	6379
2026-01-13 10:45:14.36	138.11	5.38	-53.3	-56.3	14.6	6.06e-01	0	25	0	45613056	76	4786
2026-01-13 10:45:15.35	138.09	5.46	-52.3	-54.9	14.8	6.06e-01	0	26	0	47185920	72	5118
2026-01-13 10:45:16.35	138.07	5.54	-51.9	-54.3	15.1	6.05e-01	0	25	0	49283072	72	4805
2026-01-13 10:45:17.35	138.05	5.61	-51.7	-54.0	15.2	6.06e-01	0	26	0	51380224	72	4649
2026-01-13 10:45:18.34	138.03	5.69	-51.5	-53.8	15.3	6.07e-01	0	25	0	52953088	72	4529
2026-01-13 10:45:19.34	138.01	5.77	-51.9	-54.3	15.1	6.03e-01	0	25	0	55050240	72	4801
2026-01-13 10:45:20.32	137.99	5.84	-51.8	-54.1	15.1	6.06e-01	0	26	0	56623104	72	4698
2026-01-13 10:45:21.31	137.97	5.92	-51.7	-54.1	15.2	6.06e-01	0	26	0	58720256	72	4672
2026-01-13 10:45:22.31	137.95	6.00	-51.4	-53.7	15.3	6.08e-01	0	26	0	60293120	72	4448
2026-01-13 10:45:23.30	137.92	6.07	-51.4	-53.6	15.2	6.08e-01	0	26	0	62390272	71	4676
2026-01-13 10:45:24.29	137.90	6.15	-51.3	-53.4	15.2	6.07e-01	0	26	0	63963136	71	4591
2026-01-13 10:45:25.29	137.88	6.23	-51.3	-53.5	15.2	6.07e-01	0	26	0	66060288	71	4640
2026-01-13 10:45:26.28	137.86	6.31	-51.2	-53.3	15.3	6.07e-01	0	26	0	68157440	71	4540
2026-01-13 10:45:27.28	137.84	6.39	-51.2	-53.4	15.3	6.07e-01	0	26	0	69730304	71	4560
2026-01-13 10:45:28.27	137.82	6.46	-51.2	-53.4	15.3	6.05e-01	0	26	0	71827456	71	4551
2026-01-13 10:45:29.27	137.79	6.54	-51.1	-53.2	15.4	6.06e-01	0	26	0	73400320	71	4454
2026-01-13 10:45:30.26	137.77	6.62	-51.1	-53.2	15.4	6.08e-01	0	25	0	75497472	71	4460
2026-01-13 10:45:31.24	137.75	6.70	-51.1	-53.2	15.4	6.06e-01	0	26	0	77070336	71	4466
2026-01-13 10:45:32.24	137.73	6.78	-51.2	-53.3	15.3	6.06e-01	0	26	0	79167488	71	4540
2026-01-13 10:45:33.23	137.70	6.86	-51.2	-53.4	15.3	6.05e-01	0	26	0	80740352	71	4552
2026-01-13 10:45:34.22	137.68	6.94	-51.1	-53.2	15.4	6.04e-01	0	26	0	82837504	71	4460
2026-01-13 10:45:35.22	137.66	7.02	-51.1	-53.2	15.4	6.05e-01	0	26	0	84410368	71	4445
2026-01-13 10:45:36.21	137.63	7.10	-51.0	-53.0	15.4	6.07e-01	0	26	0	86507520	71	4361
2026-01-13 10:45:37.21	137.61	7.18	-50.9	-52.9	15.5	6.07e-01	0	26	0	88604672	71	4324
2026-01-13 10:45:38.20	137.59	7.27	-51.0	-53.1	15.3	6.07e-01	0	26	0	90177536	70	4658
2026-01-13 10:45:39.20	137.56	7.35	-50.8	-52.9	15.3	6.07e-01	0	26	0	92274688	70	4553
2026-01-13 10:45:40.19	137.54	7.43	-50.9	-53.0	15.3	6.07e-01	0	26	0	93847552	70	4615
2026-01-13 10:45:41.18	137.51	7.51	-51.0	-53.0	15.3	6.06e-01	0	26	0	95944704	70	4622
2026-01-13 10:45:42.17	137.49	7.59	-51.0	-53.0	15.3	6.06e-01	0	26	0	97517568	70	4642
2026-01-13 10:45:43.17	137.47	7.68	-50.8	-52.8	15.4	6.06e-01	0	26	0	99614720	70	4494
2026-01-13 10:45:44.17	137.44	7.76	-50.8	-52.9	15.3	6.10e-01	0	26	0	101187584	70	4547
2026-01-13 10:45:45.16	137.42	7.84	-50.8	-52.7	15.4	6.08e-01	0	26	0	103284736	70	4475
2026-01-13 10:45:46.16	137.39	7.93	-50.8	-52.8	15.4	6.07e-01	0	26	0	105381888	70	4542
2026-01-13 10:45:47.15	137.37	8.01	-50.7	-52.7	15.4	6.06e-01	0	26	0	106954752	70	4468
2026-01-13 10:45:48.14	137.34	8.10	-50.8	-52.7	15.4	6.07e-01	0	26	0	109051904	70	4492
2026-01-13 10:45:49.14	137.31	8.18	-50.8	-52.8	15.4	6.07e-01	0	26	0	110624768	70	4510
2026-01-13 10:45:50.13	137.29	8.27	-50.7	-52.6	15.4	6.05e-01	0	26	0	112721920	70	4432
2026-01-13 10:45:51.13	137.26	8.35	-50.7	-52.6	15.4	6.09e-01	0	26	0	114294784	70	4427
2026-01-13 10:45:52.13	137.24	8.44	-50.6	-52.5	15.4	6.06e-01	0	26	0	116391936	70	4389
2026-01-13 10:45:53.13	137.21	8.53	-50.6	-52.5	15.4	6.07e-01	0	26	0	117964800	70	4380
2026-01-13 10:45:54.13	137.18	8.61	-50.7	-52.7	15.4	6.05e-01	0	26	0	120061952	70	4448
2026-01-13 10:45:55.12	137.16	8.70	-50.7	-52.7	15.4	6.05e-01	0	26	0	122159104	70	4458
2026-01-13 10:45:56.10	137.13	8.78	-50.5	-52.4	15.5	6.08e-01	0	26	0	123731968	70	4331
2026-01-13 10:45:57.10	137.10	8.87	-50.6	-52.5	15.5	6.06e-01	0	26	0	125829120	70	4381
2026-01-13 10:45:58.10	137.08	8.96	-50.7	-52.6	15.4	6.07e-01	0	26	0	127401984	70	4429
2026-01-13 10:45:59.09	137.05	9.05	-50.6	-52.5	15.5	6.07e-01	0	26	0	129499136	70	4359
2026-01-13 10:46:00.08	137.02	9.14	-50.5	-52.4	15.5	6.06e-01	0	26	0	131072000	70	4339
2026-01-13 10:46:01.07	136.99	9.22	-50.5	-52.4	15.5	6.05e-01	0	26	0	133169152	70	4330
2026-01-13 10:46:02.06	136.97	9.31	-50.5	-52.4	15.5	6.05e-01	0	26	0	134742016	70	4311
2026-01-13 10:46:03.05	136.94	9.40	-50.4	-52.3	15.5	6.04e-01	0	26	0	136839168	70	4265
2026-01-13 10:46:04.05	136.91	9.49	-50.4	-52.3	15.5	6.05e-01	0	26	0	138936320	70	4259
2026-01-13 10:46:05.05	136.88	9.58	-50.4	-52.3	15.6	6.06e-01	0	26	0	140509184	70	4248
2026-01-13 10:46:06.04	136.85	9.67	-50.5	-52.4	15.5	6.07e-01	0	26	0	142606336	70	4320
2026-01-13 10:46:07.03	136.82	9.76	-50.5	-52.4	15.5	6.08e-01	0	26	0	144179200	70	4323
2026-01-13 10:46:08.03	136.79	9.86	-50.4	-52.2	15.6	6.08e-01	0	26	0	146276352	70	4241
2026-01-13 10:46:09.01	136.76	9.95	-50.5	-52.3	15.5	6.07e-01	0	26	0	147849216	70	4276
2026-01-13 10:46:10.00	136.73	10.04	-50.4	-52.3	15.5	6.07e-01	0	26	0	149946368	70	4251
2026-01-13 10:46:11.00	136.70	10.13	-50.1	-51.9	15.5	6.07e-01	0	26	0	151519232	69	4338
2026-01-13 10:46:12.00	136.67	10.22	-50.1	-51.9	15.5	6.06e-01	0	26	0	153616384	69	4303
2026-01-13 10:46:13.00	136.64	10.32	-50.2	-52.0	15.5	6.06e-01	0	26	0	155713536	69	4343
2026-01-13 10:46:14.00	136.61	10.41	-50.1	-51.9	15.5	6.07e-01	0	26	0	157286400	69	4306
2026-01-13 10:46:14.99	136.58	10.50	-50.1	-51.9	15.5	6.06e-01	0	26	0	159383552	69	4303
2026-01-13 10:46:15.98	136.55	10.60	-50.0	-51.8	15.5	6.06e-01	0	26	0	160956416	69	4277
2026-01-13 10:46:16.98	136.52	10.69	-50.1	-51.8	15.5	6.07e-01	0	26	0	163053568	69	4289
2026-01-13 10:46:17.97	136.49	10.79	-50.1	-51.9	15.5	6.08e-01	0	26	0	164626432	69	4319
2026-01-13 10:46:18.97	136.45	10.88	-50.0	-51.8	15.5	6.09e-01	0	26	0	166723584	69	4264
2026-01-13 10:46:19.97	136.42	10.98	-50.0	-51.8	15.5	6.05e-01	0	26	0	168296448	69	4278
2026-01-13 10:46:20.97	136.39	11.08	-49.8	-51.6	15.5	6.07e-01	0	26	0	170393600	68	4394
2026-01-13 10:46:21.96	136.36	11.17	-49.8	-51.5	15.5	6.06e-01	0	26	0	172490752	68	4389
2026-01-13 10:46:22.95	136.32	11.27	-49.9	-51.7	15.4	6.07e-01	0	26	0	174063616	68	4449
2026-01-13 10:46:23.94	136.29	11.37	-49.9	-51.7	15.4	6.08e-01	0	26	0	176160768	68	4455
2026-01-13 10:46:24.93	136.26	11.46	-49.9	-51.6	15.4	6.07e-01	0	26	0	177733632	68	4436
2026-01-13 10:46:25.92	136.22	11.56	-49.8	-51.6	15.4	6.07e-01	0	26	0	179830784	68	4411
2026-01-13 10:46:26.91	136.19	11.66	-49.9	-51.6	15.4	6.08e-01	0	26	0	181403648	68	4436
2026-01-13 10:46:27.90	136.16	11.76	-49.9	-51.7	15.4	6.06e-01	0	26	0	183500800	68	4444
2026-01-13 10:46:28.90	136.12	11.86	-49.8	-51.6	15.4	6.05e-01	0	26	0	185597952	68	4416
2026-01-13 10:46:29.89	136.09	11.96	-49.9	-51.6	15.5	6.07e-01	0	26	0	187170816	68	4438
2026-01-13 10:46:30.88	136.05	12.06	-49.9	-51.6	15.5	6.07e-01	0	26	0	188743680	68	4429
2026-01-13 10:46:31.88	136.02	12.16	-49.9	-51.7	15.4	6.07e-01	0	26	0	190840832	68	4447
2026-01-13 10:46:32.87	135.98	12.26	-49.9	-51.6	15.4	6.05e-01	0	26	0	192937984	68	4430
2026-01-13 10:46:33.86	135.94	12.36	-49.9	-51.7	15.4	6.07e-01	0	26	0	194510848	68	4442
2026-01-13 10:46:34.86	135.91	12.47	-49.9	-51.6	15.5	6.08e-01	0	26	0	196608000	68	4424
2026-01-13 10:46:35.85	135.87	12.57	-49.8	-51.6	15.5	6.06e-01	0	26	0	198180864	68	4396
2026-01-13 10:46:36.84	135.83	12.67	-49.8	-51.5	15.5	6.06e-01	0	26	0	200278016	68	4379
2026-01-13 10:46:37.84	135.80	12.78	-49.8	-51.6	15.5	6.07e-01	0	26	0	202375168	68	4412
2026-01-13 10:46:38.83	135.76	12.88	-49.8	-51.5	15.5	6.06e-01	0	26	0	203948032	68	4366
2026-01-13 10:46:39.83	135.72	12.99	-49.8	-51.5	15.5	6.07e-01	0	26	0	205520896	68	4371
2026-01-13 10:46:40.82	135.68	13.09	-49.8	-51.6	15.5	6.06e-01	0	26	0	207618048	68	4401
2026-01-13 10:46:41.81	135.65	13.20	-49.9	-51.6	15.4	6.06e-01	0	26	0	209715200	68	4432
2026-01-13 10:46:42.81	135.61	13.30	-49.9	-51.6	15.4	6.06e-01	0	26	0	211288064	68	4424
2026-01-13 10:46:43.79	135.57	13.41	-49.8	-51.5	15.5	6.08e-01	0	26	0	213385216	68	4383
2026-01-13 10:46:44.78	135.53	13.51	-49.8	-51.5	15.5	6.07e-01	0	26	0	214958080	68	4373
2026-01-13 10:46:45.77	135.49	13.62	-49.8	-51.5	15.5	6.05e-01	0	26	0	217055232	68	4386
2026-01-13 10:46:46.70	135.45	13.72	-49.8	-51.6	15.4	6.06e-01	0	26	0	218628096	68	4393
2026-01-13 10:46:47.69	135.41	13.83	-49.8	-51.6	15.5	6.07e-01	0	26	0	220725248	68	4398
2026-01-13 10:46:48.68	135.37	13.94	-49.9	-51.6	15.4	6.07e-01	0	26	0	222298112	68	4426
2026-01-13 10:46:49.67	135.33	14.05	-49.9	-51.6	15.4	6.07e-01	0	26	0	224395264	68	4440
2026-01-13 10:46:50.66	135.29	14.16	-50.0	-51.8	15.4	6.06e-01	0	26	0	225968128	68	4506
2026-01-13 10:46:51.66	135.25	14.27	-49.9	-51.6	15.4	6.05e-01	0	26	0	228065280	68	4428
2026-01-13 10:46:52.66	135.20	14.38	-49.9	-51.6	15.4	6.07e-01	0	26	0	230162432	68	4435
2026-01-13 10:46:53.65	135.16	14.49	-49.8	-51.6	15.5	6.04e-01	0	26	0	231735296	68	4396
2026-01-13 10:46:54.65	135.12	14.61	-49.7	-51.5	15.5	6.05e-01	0	26	0	233832448	68	4348
2026-01-13 10:46:55.65	135.08	14.72	-49.8	-51.5	15.5	6.07e-01	0	26	0	235405312	68	4358
2026-01-13 10:46:56.65	135.03	14.84	-49.7	-51.4	15.5	6.06e-01	0	26	0	237502464	68	4310
2026-01-13 10:46:57.65	134.99	14.95	-49.6	-51.3	15.6	6.05e-01	0	26	0	239075328	68	4271
2026-01-13 10:46:58.64	134.94	15.07	-49.6	-51.3	15.5	6.07e-01	0	26	0	241172480	68	4279
2026-01-13 10:46:59.63	134.90	15.18	-49.5	-51.2	15.6	6.07e-01	0	26	0	243269632	68	4204
2026-01-13 10:47:00.63	134.85	15.30	-49.6	-51.2	15.6	6.10e-01	0	26	0	244842496	68	4239
2026-01-13 10:47:01.62	134.81	15.41	-49.5	-51.2	15.6	6.08e-01	0	26	0	246939648	68	4229
2026-01-13 10:47:02.61	134.76	15.53	-49.4	-51.1	15.6	6.06e-01	0	26	0	248512512	68	4176
2026-01-13 10:47:03.61	134.71	15.65	-49.4	-51.1	15.6	6.06e-01	0	26	0	250609664	68	4146
2026-01-13 10:47:04.61	134.67	15.77	-49.4	-51.1	15.6	6.07e-01	0	26	0	252182528	68	4159
2026-01-13 10:47:05.60	134.62	15.89	-49.3	-50.9	15.5	6.08e-01	0	26	0	254279680	67	4338
2026-01-13 10:47:06.60	134.57	16.01	-49.3	-50.9	15.5	6.07e-01	0	26	0	256376832	67	4323
2026-01-13 10:47:07.59	134.52	16.13	-49.3	-50.9	15.5	6.07e-01	0	26	0	257949696	67	4334
2026-01-13 10:47:08.59	134.48	16.25	-49.3	-50.9	15.5	6.05e-01	0	26	0	260046848	67	4338
2026-01-13 10:47:09.59	134.43	16.37	-49.3	-50.9	15.5	6.07e-01	0	26	0	261619712	67	4312
2026-01-13 10:47:10.58	134.38	16.49	-49.3	-51.0	15.5	6.05e-01	0	26	0	263716864	67	4359
2026-01-13 10:47:11.57	134.33	16.61	-49.3	-51.0	15.5	6.06e-01	0	26	0	265289728	67	4353
2026-01-13 10:47:12.57	134.28	16.74	-49.4	-51.1	15.5	6.08e-01	0	26	0	267386880	67	4402
2026-01-13 10:47:13.55	134.23	16.86	-49.5	-51.2	15.5	6.08e-01	0	26	0	268959744	67	4451
2026-01-13 10:47:14.54	134.18	16.99	-49.6	-51.3	15.4	6.07e-01	0	26	0	271056896	67	4534
2026-01-13 10:47:15.53	134.12	17.11	-49.7	-51.4	15.4	6.06e-01	0	26	0	273154048	67	4552
2026-01-13 10:47:16.52	134.07	17.24	-49.6	-51.2	15.4	6.08e-01	0	26	0	274726912	67	4492
2026-01-13 10:47:17.52	134.02	17.36	-49.5	-51.2	15.4	6.06e-01	0	26	0	276299776	67	4472
2026-01-13 10:47:18.51	133.97	17.49	-49.6	-51.3	15.4	6.05e-01	0	26	0	278396928	67	4523
2026-01-13 10:47:19.50	133.91	17.62	-49.7	-51.3	15.4	6.06e-01	0	26	0	280494080	67	4543
2026-01-13 10:47:20.49	133.86	17.75	-49.7	-51.4	15.4	6.07e-01	0	26	0	282066944	67	4564
2026-01-13 10:47:21.49	133.80	17.88	-49.7	-51.4	15.4	6.06e-01	0	26	0	284164096	67	4595
2026-01-13 10:47:22.48	133.75	18.01	-49.7	-51.3	15.4	6.06e-01	0	26	0	285736960	67	4545
2026-01-13 10:47:23.47	133.69	18.14	-49.5	-51.2	15.4	6.03e-01	0	26	0	287834112	67	4478
2026-01-13 10:47:24.47	133.64	18.27	-49.6	-51.3	15.4	6.07e-01	0	26	0	289406976	67	4502
2026-01-13 10:47:25.46	133.58	18.40	-49.5	-51.2	15.4	6.06e-01	0	26	0	291504128	67	4450
2026-01-13 10:47:26.46	133.52	18.54	-49.4	-51.1	15.5	6.08e-01	0	26	0	293076992	67	4416
2026-01-13 10:47:27.46	133.46	18.67	-49.5	-51.1	15.4	6.08e-01	0	26	0	295174144	67	4424
2026-01-13 10:47:28.45	133.40	18.81	-49.4	-51.1	15.5	6.07e-01	0	26	0	297271296	67	4392
2026-01-13 10:47:29.45	133.34	18.94	-49.2	-50.9	15.5	6.08e-01	0	26	0	298844160	67	4294
2026-01-13 10:47:30.44	133.28	19.08	-49.2	-50.8	15.5	6.05e-01	0	26	0	300941312	67	4272
2026-01-13 10:47:31.44	133.22	19.22	-49.2	-50.9	15.5	6.07e-01	0	26	0	302514176	67	4299
2026-01-13 10:47:32.43	133.16	19.36	-49.3	-50.9	15.5	6.05e-01	0	26	0	304611328	67	4321
2026-01-13 10:47:33.43	133.10	19.50	-49.3	-50.9	15.5	6.07e-01	0	26	0	306184192	67	4328
2026-01-13 10:47:34.42	133.04	19.63	-49.3	-50.9	15.5	6.07e-01	0	26	0	308281344	67	4335
2026-01-13 10:47:35.41	132.98	19.77	-49.4	-51.0	15.5	6.07e-01	0	26	0	310378496	67	4387
2026-01-13 10:47:36.41	132.91	19.92	-49.5	-51.1	15.5	6.07e-01	0	26	0	311951360	67	4430
2026-01-13 10:47:37.41	132.85	20.06	-49.6	-51.3	15.4	6.07e-01	0	26	0	314048512	67	4511
2026-01-13 10:47:38.39	132.78	20.20	-49.5	-51.2	15.4	6.06e-01	0	26	0	315621376	67	4471
2026-01-13 10:47:39.39	132.72	20.35	-49.6	-51.3	15.4	6.05e-01	0	26	0	317718528	67	4531
2026-01-13 10:47:40.38	132.65	20.49	-49.6	-51.3	15.4	6.05e-01	0	26	0	319291392	67	4534
2026-01-13 10:47:41.37	132.58	20.64	-49.7	-51.3	15.4	6.06e-01	0	26	0	321388544	67	4538
2026-01-13 10:47:42.37	132.52	20.78	-49.8	-51.4	15.4	6.06e-01	0	26	0	322961408	67	4597
2026-01-13 10:47:43.36	132.45	20.93	-49.7	-51.4	15.4	6.06e-01	0	26	0	325058560	67	4586
2026-01-13 10:47:44.35	132.38	21.08	-49.8	-51.5	15.3	6.07e-01	0	26	0	327155712	67	4645
2026-01-13 10:47:45.34	132.31	21.23	-49.8	-51.5	15.3	6.06e-01	0	26	0	328728576	67	4621
2026-01-13 10:47:46.33	132.24	21.38	-49.9	-51.6	15.3	6.08e-01	0	26	0	330825728	67	4691
2026-01-13 10:47:47.32	132.17	21.53	-49.9	-51.6	15.3	6.05e-01	0	26	0	332398592	67	4677
2026-01-13 10:47:48.31	132.10	21.68	-49.8	-51.5	15.3	6.06e-01	0	26	0	334495744	67	4639
2026-01-13 10:47:49.30	132.02	21.83	-49.8	-51.5	15.3	6.07e-01	0	26	0	336068608	67	4629
2026-01-13 10:47:50.29	131.95	21.98	-49.7	-51.4	15.4	6.08e-01	0	26	0	338165760	67	4572
2026-01-13 10:47:51.28	131.88	22.14	-49.7	-51.4	15.4	6.09e-01	0	26	0	339738624	67	4582
2026-01-13 10:47:52.27	131.80	22.29	-49.7	-51.4	15.4	6.08e-01	0	26	0	341835776	67	4551
2026-01-13 10:47:53.27	131.72	22.45	-49.8	-51.5	15.4	6.06e-01	0	26	0	343408640	67	4613
2026-01-13 10:47:54.27	131.65	22.61	-49.7	-51.4	15.4	6.07e-01	0	26	0	345505792	67	4562
2026-01-13 10:47:55.27	131.57	22.77	-49.7	-51.4	15.4	6.05e-01	0	26	0	347078656	67	4554
2026-01-13 10:47:56.27	131.49	22.93	-49.6	-51.3	15.4	6.08e-01	0	26	0	349175808	67	4527
2026-01-13 10:47:57.26	131.41	23.09	-49.7	-51.4	15.4	6.08e-01	0	26	0	351272960	67	4556
2026-01-13 10:47:58.26	131.33	23.26	-49.8	-51.5	15.4	6.06e-01	0	26	0	352845824	67	4609
2026-01-13 10:47:59.26	131.25	23.42	-49.8	-51.6	15.4	6.07e-01	0	26	0	354942976	67	4652
2026-01-13 10:48:00.26	131.16	23.59	-49.9	-51.6	15.3	6.06e-01	0	26	0	356515840	67	4685
2026-01-13 10:48:01.24	131.08	23.75	-49.8	-51.5	15.4	6.07e-01	0	26	0	358612992	67	4618
2026-01-13 10:48:02.24	131.00	23.92	-49.8	-51.5	15.3	6.07e-01	0	26	0	360710144	67	4623
2026-01-13 10:48:03.23	130.91	24.08	-49.8	-51.5	15.3	6.06e-01	0	26	0	362283008	67	4648
2026-01-13 10:48:04.22	130.83	24.25	-49.6	-51.3	15.4	6.06e-01	0	26	0	364380160	67	4503
2026-01-13 10:48:05.21	130.74	24.42	-49.7	-51.3	15.4	6.07e-01	0	26	0	365953024	67	4532
2026-01-13 10:48:06.21	130.65	24.59	-49.6	-51.3	15.4	6.06e-01	0	26	0	368050176	67	4516
2026-01-13 10:48:07.20	130.56	24.76	-49.7	-51.3	15.4	6.06e-01	0	26	0	369623040	67	4532
2026-01-13 10:48:08.19	130.47	24.94	-49.7	-51.3	15.4	6.09e-01	0	26	0	371720192	67	4539
2026-01-13 10:48:09.18	130.38	25.11	-50.0	-61.5	4.4	7.45e-01	0	26	104	373293056	67	14565
2026-01-13 10:48:10.17	130.29	25.28	-50.1	-61.6	3.9	7.50e-01	0	26	104	373293056	67	14768
2026-01-13 10:48:11.16	130.19	25.46	-50.1	-61.6	3.8	7.46e-01	0	26	104	373293056	68	13924
2026-01-13 10:48:12.17	130.10	25.64	-50.5	-62.0	3.9	7.46e-01	0	26	104	373293056	68	14675
2026-01-13 10:48:13.16	130.00	25.82	-50.7	-62.3	3.8	7.49e-01	0	26	104	373293056	70	13504
2026-01-13 10:48:14.16	129.90	26.00	-54.8	-67.4	3.9	7.46e-01	0	26	104	373293056	78	15361
2026-01-13 10:48:15.16	129.81	26.18	-52.6	-64.5	3.8	7.47e-01	0	26	104	373293056	74	13747
2026-01-13 10:48:16.16	129.70	26.37	-53.4	-65.5	3.9	7.47e-01	0	26	104	373293056	75	14636
2026-01-13 10:48:17.15	129.60	26.55	-49.9	-61.3	3.8	7.47e-01	0	26	104	373293056	69	12748
2026-01-13 10:48:18.15	129.50	26.74	-49.9	-61.3	3.9	7.48e-01	0	26	104	373293056	69	12747
2026-01-13 10:48:19.15	129.40	26.92	-49.8	-61.2	3.8	7.49e-01	0	26	104	373293056	68	13338
2026-01-13 10:48:20.15	129.29	27.11	-50.5	-62.0	3.9	7.46e-01	0	26	104	373293056	69	13794
2026-01-13 10:48:21.14	129.19	27.30	-50.3	-61.7	3.8	7.46e-01	0	26	104	373293056	69	13333
2026-01-13 10:48:22.15	129.08	27.49	-54.6	-67.1	3.7	7.53e-01	0	26	104	373293056	78	14838
2026-01-13 10:48:23.14	128.97	27.68	-52.2	-63.6	4.0	7.39e-01	0	26	104	373293056	73	13146
2026-01-13 10:48:24.14	128.86	27.88	-53.3	-65.3	4.0	7.54e-01	0	26	104	373293056	75	14291
2026-01-13 10:48:25.14	128.75	28.07	-49.7	-60.8	4.1	7.37e-01	0	26	104	373293056	68	12808
2026-01-13 10:48:26.13	128.63	28.27	-49.8	-61.0	3.7	7.58e-01	0	26	104	373293056	68	13016
2026-01-13 10:48:27.14	128.52	28.47	-49.8	-61.0	3.8	7.44e-01	0	26	104	373293056	68	13047
2026-01-13 10:48:28.12	128.40	28.67	-50.9	-62.3	3.9	7.45e-01	0	26	104	373293056	70	13428
2026-01-13 10:48:29.12	128.28	28.87	-50.4	-61.9	3.9	7.44e-01	0	26	104	373293056	69	13678
2026-01-13 10:48:30.12	128.16	29.07	-54.9	-67.5	3.8	7.46e-01	0	26	104	373293056	78	15522
2026-01-13 10:48:31.12	128.04	29.27	-52.4	-64.2	3.9	7.46e-01	0	26	104	373293056	74	13340
2026-01-13 10:48:32.12	127.92	29.48	-53.4	-65.5	3.9	7.47e-01	0	26	104	373293056	75	14653
2026-01-13 10:48:33.11	127.80	29.68	-49.3	-60.6	3.8	7.47e-01	0	26	104	373293056	67	13141
2026-01-13 10:48:34.10	127.67	29.89	-49.3	-60.6	3.8	7.44e-01	0	26	104	373293056	67	13221
2026-01-13 10:48:35.10	127.54	30.10	-49.4	-60.7	3.9	7.45e-01	0	26	104	373293056	67	13305
2026-01-13 10:48:36.09	127.41	30.31	-51.5	-63.1	3.9	7.43e-01	0	26	104	373293056	72	13179
2026-01-13 10:48:37.08	127.28	30.52	-50.1	-61.5	3.9	7.47e-01	0	26	104	373293056	68	13788
2026-01-13 10:48:38.09	127.15	30.74	-54.8	-67.3	3.9	7.43e-01	0	26	104	373293056	78	15146
2026-01-13 10:48:39.09	127.01	30.95	-52.2	-63.8	3.9	7.47e-01	0	26	104	373293056	73	13523
2026-01-13 10:48:40.09	126.87	31.17	-53.8	-65.9	3.9	7.52e-01	0	26	104	373293056	76	14457
2026-01-13 10:48:41.09	126.74	31.39	-49.3	-60.6	3.8	7.45e-01	0	26	104	373293056	67	13124
2026-01-13 10:48:42.08	126.59	31.61	-49.4	-60.8	3.8	7.47e-01	0	26	104	373293056	67	13449
2026-01-13 10:48:43.06	126.45	31.82	-49.4	-60.7	3.8	7.44e-01	0	26	104	373293056	67	13352
2026-01-13 10:48:44.06	126.31	32.05	-52.0	-63.6	3.8	7.42e-01	0	26	104	373293056	72	14011
2026-01-13 10:48:45.05	126.16	32.27	-50.6	-62.0	3.8	7.44e-01	0	26	104	373293056	69	13838
2026-01-13 10:48:46.06	126.01	32.50	-55.3	-68.1	3.8	7.45e-01	0	26	104	373293056	78	16587
2026-01-13 10:48:47.05	125.86	32.72	-52.8	-64.3	3.8	7.43e-01	0	26	104	373293056	74	13566
2026-01-13 10:48:48.05	125.71	32.95	-54.8	-67.4	3.9	7.44e-01	0	26	104	373293056	78	15354
2026-01-13 10:48:49.05	125.55	33.19	-49.6	-60.9	3.9	7.48e-01	0	26	104	373293056	68	12826
2026-01-13 10:48:50.05	125.39	33.42	-49.7	-61.0	3.8	7.47e-01	0	26	104	373293056	68	13061
2026-01-13 10:48:51.03	125.23	33.65	-50.0	-61.4	3.8	7.45e-01	0	26	104	373293056	68	13580
2026-01-13 10:48:52.02	125.07	33.88	-52.6	-64.5	3.8	7.43e-01	0	26	104	373293056	73	14626
2026-01-13 10:48:53.03	124.90	34.12	-51.5	-63.1	3.8	7.44e-01	0	26	104	373293056	70	14848
2026-01-13 10:48:54.03	124.73	34.36	-55.7	-68.7	3.8	7.46e-01	0	26	104	373293056	79	16877
2026-01-13 10:48:55.03	124.56	34.60	-54.6	-67.0	3.8	7.45e-01	0	26	104	373293056	78	14630
2026-01-13 10:48:56.03	124.39	34.85	-56.0	-69.3	3.8	7.44e-01	0	26	104	373293056	79	17907
2026-01-13 10:48:57.02	124.21	35.09	-51.2	-62.8	3.8	7.43e-01	0	26	104	373293056	71	13418
2026-01-13 10:48:58.03	124.03	35.34	-51.1	-62.7	3.8	7.44e-01	0	26	104	373293056	71	13261
2026-01-13 10:48:59.02	123.85	35.59	-51.2	-62.6	3.8	7.48e-01	0	26	104	373293056	71	13235
2026-01-13 10:49:00.02	123.66	35.84	-54.1	-66.3	3.8	7.45e-01	0	26	104	373293056	76	15124
2026-01-13 10:49:01.01	123.48	36.09	-51.8	-63.4	3.8	7.45e-01	0	26	104	373293056	71	14533
2026-01-13 10:49:02.01	123.29	36.34	-56.3	-69.8	3.9	7.42e-01	0	26	104	373293056	80	17908
2026-01-13 10:49:03.00	123.09	36.59	-54.5	-66.9	3.8	7.45e-01	0	26	104	373293056	78	14464
2026-01-13 10:49:04.00	122.90	36.85	-56.6	-70.5	3.8	7.44e-01	0	26	104	373293056	81	18350
2026-01-13 10:49:05.00	122.69	37.11	-51.4	-63.0	3.8	7.48e-01	0	26	104	373293056	72	13067
2026-01-13 10:49:05.99	122.49	37.37	-51.4	-62.9	3.8	7.50e-01	0	26	104	373293056	72	12899
2026-01-13 10:49:06.99	122.28	37.63	-51.5	-63.0	3.9	7.45e-01	0	26	104	373293056	72	13025
2026-01-13 10:49:07.98	122.07	37.89	-54.5	-66.9	3.8	7.44e-01	0	26	104	373293056	77	15401
2026-01-13 10:49:08.98	121.86	38.15	-52.7	-64.7	3.8	7.48e-01	0	26	104	373293056	73	14912
2026-01-13 10:49:09.97	121.64	38.42	-56.8	-70.8	3.8	7.44e-01	0	26	104	373293056	81	19060
2026-01-13 10:49:10.97	121.42	38.69	-55.0	-67.6	3.8	7.46e-01	0	26	104	373293056	78	15706
2026-01-13 10:49:11.97	121.19	38.96	-56.8	-70.8	3.8	7.44e-01	0	26	104	373293056	81	19153
2026-01-13 10:49:12.95	120.97	39.23	-51.7	-63.3	3.8	7.49e-01	0	26	104	373293056	72	13488
2026-01-13 10:49:13.95	120.74	39.50	-52.0	-63.7	3.8	7.49e-01	0	26	104	373293056	72	14075
2026-01-13 10:49:14.95	120.50	39.78	-51.9	-63.6	3.8	7.47e-01	0	26	104	373293056	72	13982
2026-01-13 10:49:15.94	120.26	40.05	-55.3	-68.1	3.8	7.46e-01	0	26	104	373293056	78	16527
2026-01-13 10:49:16.93	120.01	40.33	-52.3	-63.9	3.8	7.42e-01	0	26	104	373293056	72	14530
2026-01-13 10:49:17.94	119.76	40.61	-56.7	-70.5	3.8	7.43e-01	0	26	104	373293056	81	18501
2026-01-13 10:49:18.93	119.51	40.89	-54.7	-67.2	3.8	7.45e-01	0	26	104	373293056	78	14915
2026-01-13 10:49:19.93	119.25	41.18	-56.9	-71.1	3.8	7.45e-01	0	26	104	373293056	81	19778
2026-01-13 10:49:20.92	118.98	41.46	-51.5	-62.9	3.8	7.47e-01	0	26	104	373293056	72	12925
2026-01-13 10:49:21.92	118.71	41.75	-51.6	-63.2	3.8	7.46e-01	0	26	104	373293056	72	13392
2026-01-13 10:49:22.91	118.44	42.04	-51.4	-63.0	3.9	7.47e-01	0	26	104	373293056	72	13012
2026-01-13 10:49:23.91	118.16	42.33	-56.0	-69.1	3.8	7.46e-01	0	26	104	373293056	79	17596
2026-01-13 10:49:24.90	117.88	42.62	-51.8	-63.4	3.8	7.44e-01	0	26	104	373293056	71	14392
2026-01-13 10:49:25.90	117.59	42.91	-56.5	-70.1	3.8	7.49e-01	0	26	104	373293056	80	18599
2026-01-13 10:49:26.89	117.30	43.21	-54.3	-66.6	3.8	7.47e-01	0	26	104	373293056	77	14740
2026-01-13 10:49:27.88	117.00	43.50	-57.1	-71.4	3.8	7.45e-01	0	26	104	373293056	81	20470
2026-01-13 10:49:28.89	116.69	43.80	-51.6	-63.2	3.8	7.43e-01	0	26	104	373293056	72	13362
2026-01-13 10:49:29.88	116.38	44.10	-50.8	-62.2	3.8	7.45e-01	0	26	104	373293056	70	13392
2026-01-13 10:49:30.88	116.06	44.40	-50.7	-62.0	3.8	7.42e-01	0	26	104	373293056	70	13047
2026-01-13 10:49:31.88	115.73	44.71	-55.9	-69.0	3.8	7.45e-01	0	26	104	373293056	79	17321
2026-01-13 10:49:32.87	115.40	45.01	-51.2	-62.8	3.8	7.44e-01	0	26	104	373293056	70	14214
2026-01-13 10:49:33.87	115.06	45.32	-56.7	-70.5	3.8	7.45e-01	0	26	104	373293056	81	18467
2026-01-13 10:49:34.87	114.72	45.62	-54.5	-66.8	3.9	7.48e-01	0	26	104	373293056	78	14211
2026-01-13 10:49:35.86	114.37	45.93	-57.0	-71.0	3.8	7.48e-01	0	26	104	373293056	81	19567
2026-01-13 10:49:36.86	114.01	46.24	-51.1	-62.6	3.8	7.46e-01	0	26	104	373293056	71	13133
2026-01-13 10:49:37.85	113.64	46.55	-51.0	-62.6	3.9	7.46e-01	0	26	104	373293056	71	13134
2026-01-13 10:49:38.85	113.27	46.86	-51.1	-62.7	3.9	7.42e-01	0	26	104	373293056	71	13308
2026-01-13 10:49:39.84	112.89	47.17	-54.1	-66.3	3.9	7.45e-01	0	26	104	373293056	75	16003
2026-01-13 10:49:40.83	112.51	47.48	-51.1	-62.7	3.8	7.43e-01	0	26	104	373293056	70	14050
2026-01-13 10:49:41.83	112.11	47.80	-56.5	-70.2	3.8	7.48e-01	0	26	104	373293056	80	18737
2026-01-13 10:49:42.82	111.71	48.11	-54.5	-66.9	3.8	7.47e-01	0	26	104	373293056	78	14475
2026-01-13 10:49:43.81	111.29	48.43	-56.8	-70.7	3.8	7.46e-01	0	26	104	373293056	81	18844
2026-01-13 10:49:44.81	110.87	48.75	-51.6	-63.1	3.8	7.46e-01	0	26	104	373293056	72	13203
2026-01-13 10:49:45.80	110.44	49.06	-51.4	-62.9	3.8	7.48e-01	0	26	104	373293056	71	13680
2026-01-13 10:49:46.80	110.00	49.38	-50.9	-62.3	3.8	7.47e-01	0	26	104	373293056	71	12712
2026-01-13 10:49:47.79	109.55	49.70	-53.5	-65.6	3.8	7.45e-01	0	26	104	373293056	74	15603
2026-01-13 10:49:48.79	109.09	50.02	-50.8	-62.2	3.8	7.43e-01	0	26	104	373293056	70	13363
2026-01-13 10:49:49.79	108.62	50.34	-56.8	-70.7	3.8	7.48e-01	0	26	104	373293056	81	18815
2026-01-13 10:49:50.78	108.15	50.66	-54.2	-66.3	3.9	7.43e-01	0	26	104	373293056	77	14326
2026-01-13 10:49:51.78	107.65	50.98	-56.6	-70.1	3.8	7.47e-01	0	26	104	373293056	80	18576
2026-01-13 10:49:52.78	107.15	51.30	-51.2	-62.8	3.9	7.46e-01	0	26	104	373293056	71	13446
2026-01-13 10:49:53.77	106.64	51.62	-50.5	-61.9	3.8	7.49e-01	0	26	104	373293056	70	12915
2026-01-13 10:49:54.76	106.12	51.93	-50.0	-61.3	3.9	7.44e-01	0	26	104	373293056	69	12731
2026-01-13 10:49:55.75	105.59	52.25	-52.4	-64.2	3.9	7.49e-01	0	26	104	373293056	72	14894
2026-01-13 10:49:56.74	105.05	52.57	-50.0	-61.3	3.9	7.43e-01	0	26	104	373293056	68	13474
2026-01-13 10:49:57.74	104.49	52.89	-56.4	-69.8	3.8	7.45e-01	0	26	104	373293056	80	18016
2026-01-13 10:49:58.74	103.92	53.21	-52.8	-64.5	3.9	7.49e-01	0	26	104	373293056	74	13878
2026-01-13 10:49:59.73	103.34	53.52	-56.7	-69.8	3.8	7.48e-01	0	26	104	373293056	80	17894
2026-01-13 10:50:00.73	102.74	53.84	-50.4	-61.8	3.9	7.46e-01	0	26	104	373293056	70	12806
2026-01-13 10:50:01.73	102.13	54.15	-50.1	-61.4	3.8	7.44e-01	0	26	104	373293056	69	12942
2026-01-13 10:50:02.72	101.51	54.46	-49.7	-61.0	3.9	7.44e-01	0	26	104	373293056	68	12967
2026-01-13 10:50:03.72	100.87	54.78	-54.7	-67.4	3.8	7.49e-01	0	26	104	373293056	77	16284
2026-01-13 10:50:04.71	100.22	55.08	-50.0	-61.4	3.9	7.46e-01	0	26	104	373293056	69	12836
2026-01-13 10:50:05.71	99.56	55.39	-56.3	-69.6	3.8	7.43e-01	0	26	104	373293056	80	17594
2026-01-13 10:50:06.71	98.87	55.70	-54.8	-67.2	3.8	7.44e-01	0	26	104	373293056	78	14946
2026-01-13 10:50:07.72	98.17	56.01	-56.7	-69.7	3.8	7.45e-01	0	26	104	373293056	80	17794
2026-01-13 10:50:08.71	97.46	56.31	-51.3	-62.9	3.9	7.45e-01	0	26	104	373293056	72	12863
2026-01-13 10:50:09.72	96.72	56.61	-51.4	-62.8	3.9	7.47e-01	0	26	104	373293056	71	13528
2026-01-13 10:50:10.71	95.99	56.90	-51.4	-62.9	3.9	7.47e-01	0	26	104	373293056	71	13591
2026-01-13 10:50:11.71	95.22	57.20	-54.6	-67.0	3.9	7.43e-01	0	26	104	373293056	76	16491
2026-01-13 10:50:12.71	94.45	57.49	-50.7	-62.0	3.8	7.47e-01	0	26	104	373293056	70	12997
2026-01-13 10:50:13.71	93.65	57.77	-57.0	-71.1	3.8	7.47e-01	0	26	104	373293056	81	19785
2026-01-13 10:50:14.72	92.83	58.06	-53.2	-64.9	3.9	7.47e-01	0	26	104	373293056	75	13706
2026-01-13 10:50:15.71	92.01	58.34	-56.6	-70.0	3.8	7.45e-01	0	26	104	373293056	80	18511
2026-01-13 10:50:16.71	91.16	58.61	-52.0	-63.6	3.8	7.43e-01	0	26	104	373293056	73	13170
2026-01-13 10:50:17.71	90.30	58.88	-51.7	-63.4	3.9	7.42e-01	0	26	104	373293056	72	13615
2026-01-13 10:50:18.70	89.42	59.14	-51.4	-62.9	3.9	7.42e-01	0	26	104	373293056	72	12908
2026-01-13 10:50:19.69	88.53	59.40	-56.0	-69.1	3.8	7.47e-01	0	26	104	373293056	79	17492
2026-01-13 10:50:20.69	87.61	59.65	-51.6	-63.3	3.8	7.48e-01	0	26	104	373293056	72	13438
2026-01-13 10:50:21.68	86.68	59.90	-57.3	-71.6	3.8	7.43e-01	0	26	104	373293056	82	19634
2026-01-13 10:50:22.68	85.73	60.14	-54.4	-66.4	3.9	7.41e-01	0	26	104	373293056	78	13703
2026-01-13 10:50:23.68	84.76	60.38	-56.9	-70.8	3.8	7.46e-01	0	26	104	373293056	81	19059
2026-01-13 10:50:24.69	83.76	60.61	-52.6	-64.3	3.9	7.45e-01	0	26	104	373293056	74	13529
2026-01-13 10:50:25.68	82.76	60.83	-51.6	-63.0	3.9	7.46e-01	0	26	104	373293056	72	13067
2026-01-13 10:50:26.68	81.73	61.04	-51.9	-63.5	3.9	7.46e-01	0	26	104	373293056	72	13856
2026-01-13 10:50:27.67	80.70	61.25	-55.6	-68.4	3.9	7.44e-01	0	26	104	373293056	78	17187
2026-01-13 10:50:28.66	79.65	61.45	-52.1	-63.7	3.9	7.45e-01	0	26	104	373293056	73	13414
2026-01-13 10:50:29.66	78.57	61.64	-57.3	-71.4	3.8	7.47e-01	0	26	104	373293056	82	19279
2026-01-13 10:50:30.65	77.48	61.82	-55.4	-68.3	3.9	7.42e-01	0	26	104	373293056	80	15104
2026-01-13 10:50:31.64	76.39	61.99	-56.6	-69.9	3.8	7.44e-01	0	26	104	373293056	80	18243
2026-01-13 10:50:32.64	75.26	62.16	-53.5	-65.4	3.9	7.42e-01	0	26	104	373293056	76	13618
2026-01-13 10:50:33.63	74.13	62.31	-52.8	-64.8	3.8	7.45e-01	0	26	104	373293056	74	14266
2026-01-13 10:50:34.63	72.97	62.46	-52.8	-64.6	3.8	7.48e-01	0	26	104	373293056	74	13942
2026-01-13 10:50:35.63	71.81	62.60	-57.2	-70.6	3.8	7.47e-01	0	26	104	373293056	81	18556
2026-01-13 10:50:36.62	70.63	62.73	-52.8	-64.6	3.9	7.48e-01	0	26	104	373293056	74	13934
2026-01-13 10:50:37.62	69.44	62.85	-57.5	-71.7	3.8	7.45e-01	0	26	104	373293056	82	19892
2026-01-13 10:50:38.61	68.25	62.95	-55.8	-68.6	3.9	7.48e-01	0	26	104	373293056	80	15709
2026-01-13 10:50:39.61	67.03	63.05	-56.4	-69.5	3.8	7.47e-01	0	26	104	373293056	80	17416
2026-01-13 10:50:40.61	65.80	63.14	-54.6	-67.0	3.9	7.44e-01	0	26	104	373293056	78	14683
2026-01-13 10:50:41.60	64.58	63.21	-53.0	-64.6	3.8	7.44e-01	0	26	104	373293056	75	13153
2026-01-13 10:50:42.59	63.35	63.28	-53.2	-65.2	3.8	7.46e-01	0	26	104	373293056	75	14153
2026-01-13 10:50:43.58	62.12	63.33	-57.0	-70.8	3.8	7.45e-01	0	26	104	373293056	81	19085
2026-01-13 10:50:44.57	60.88	63.37	-53.8	-65.6	3.8	7.45e-01	0	26	104	373293056	76	13975
2026-01-13 10:50:45.56	59.63	63.40	-57.6	-71.9	3.8	7.49e-01	0	26	104	373293056	82	20535
2026-01-13 10:50:46.56	58.37	63.42	-56.0	-69.1	3.8	7.43e-01	0	26	104	373293056	81	15739
2026-01-13 10:50:47.55	57.13	63.43	-56.1	-69.0	3.8	7.50e-01	0	26	104	373293056	79	17387
2026-01-13 10:50:48.55	55.87	63.43	-54.6	-66.5	3.9	7.46e-01	0	26	104	373293056	78	13836
2026-01-13 10:50:49.55	54.60	63.42	-53.8	-66.2	3.8	7.43e-01	0	26	104	373293056	76	15005
2026-01-13 10:50:50.54	53.36	63.39	-53.0	-64.7	3.8	7.43e-01	0	26	104	373293056	75	13370
2026-01-13 10:50:51.53	52.12	63.36	-55.5	-68.1	3.8	7.48e-01	0	26	104	373293056	78	16599
2026-01-13 10:50:52.54	50.85	63.31	-53.7	-65.6	3.8	7.42e-01	0	26	104	373293056	76	13976
2026-01-13 10:50:53.54	49.61	63.25	-57.7	-72.4	3.8	7.48e-01	0	26	104	373293056	83	20319
2026-01-13 10:50:54.55	48.36	63.18	-55.9	-68.4	3.8	7.46e-01	0	26	104	373293056	81	14499
2026-01-13 10:50:55.54	47.14	63.10	-56.7	-69.8	3.8	7.44e-01	0	26	104	373293056	80	17960
2026-01-13 10:50:56.53	45.93	63.01	-54.8	-66.9	3.9	7.44e-01	0	26	104	373293056	78	14475
2026-01-13 10:50:57.53	44.72	62.91	-53.6	-65.4	3.9	7.46e-01	0	26	104	373293056	76	13709
2026-01-13 10:50:58.52	43.53	62.80	-53.5	-65.5	3.8	7.49e-01	0	26	104	373293056	76	13784
2026-01-13 10:50:59.51	42.36	62.67	-56.1	-69.1	3.8	7.50e-01	0	26	104	373293056	79	17647
2026-01-13 10:51:00.52	41.17	62.54	-53.9	-65.9	3.8	7.45e-01	0	26	104	373293056	77	13670
2026-01-13 10:51:01.52	40.00	62.40	-57.5	-71.6	3.8	7.47e-01	0	26	104	373293056	82	19616
2026-01-13 10:51:02.52	38.86	62.25	-56.5	-69.8	3.8	7.45e-01	0	26	104	373293056	82	16021
2026-01-13 10:51:03.51	37.73	62.09	-54.9	-67.3	3.8	7.45e-01	0	27	104	373293056	77	15962
2026-01-13 10:51:04.51	36.62	61.92	-53.9	-65.9	3.9	7.45e-01	0	26	104	373293056	77	13604
2026-01-13 10:51:05.50	35.52	61.74	-52.7	-64.5	3.9	7.44e-01	0	26	104	373293056	74	13750
2026-01-13 10:51:06.49	34.45	61.56	-52.3	-63.8	3.8	7.47e-01	0	26	104	373293056	73	13424
2026-01-13 10:51:07.48	33.39	61.36	-55.3	-67.9	3.8	7.46e-01	0	26	104	373293056	78	16226
2026-01-13 10:51:08.48	32.34	61.16	-53.8	-65.6	3.9	7.45e-01	0	26	104	373293056	76	14031
2026-01-13 10:51:09.48	31.30	60.95	-57.1	-70.7	3.8	7.48e-01	0	26	104	373293056	81	18925
2026-01-13 10:51:10.49	30.27	60.73	-55.3	-68.2	3.8	7.44e-01	0	26	104	373293056	80	15017
2026-01-13 10:51:11.48	29.28	60.50	-54.4	-66.6	3.8	7.48e-01	0	26	104	373293056	76	15651
2026-01-13 10:51:12.48	28.30	60.27	-54.4	-66.7	3.9	7.43e-01	0	26	104	373293056	78	14166
2026-01-13 10:51:13.47	27.35	60.04	-52.5	-64.3	3.9	7.44e-01	0	26	104	373293056	74	13481
2026-01-13 10:51:14.47	26.40	59.79	-52.3	-63.8	3.8	7.46e-01	0	26	104	373293056	73	13444
2026-01-13 10:51:15.46	25.48	59.54	-53.3	-65.3	3.8	7.46e-01	0	26	104	373293056	74	15077
2026-01-13 10:51:16.45	24.58	59.29	-52.9	-64.7	3.9	7.43e-01	0	26	104	373293056	75	13399
2026-01-13 10:51:17.45	23.69	59.03	-56.5	-69.4	3.8	7.47e-01	0	26	104	373293056	80	17162
2026-01-13 10:51:18.44	22.83	58.77	-56.4	-69.5	3.9	7.43e-01	0	26	104	373293056	82	15534
2026-01-13 10:51:19.43	21.98	58.50	-53.0	-65.0	3.9	7.46e-01	0	26	104	373293056	73	15468
2026-01-13 10:51:20.43	21.14	58.22	-54.7	-66.8	3.9	7.46e-01	0	26	104	373293056	78	14322
2026-01-13 10:51:21.42	20.33	57.95	-51.5	-62.8	3.9	7.49e-01	0	26	104	373293056	72	12792
2026-01-13 10:51:22.41	19.53	57.66	-51.6	-63.1	3.8	7.43e-01	0	26	104	373293056	72	13211
2026-01-13 10:51:23.41	18.74	57.38	-53.1	-64.8	3.8	7.46e-01	0	26	104	373293056	73	15141
2026-01-13 10:51:24.41	17.97	57.09	-52.4	-64.0	3.8	7.44e-01	0	26	104	373293056	74	13057
2026-01-13 10:51:25.40	17.22	56.79	-55.3	-68.0	3.8	7.44e-01	0	26	104	373293056	78	16325
2026-01-13 10:51:26.39	16.49	56.50	-55.7	-68.4	3.8	7.45e-01	0	26	104	373293056	80	15255
2026-01-13 10:51:27.40	15.76	56.20	-51.0	-62.5	3.8	7.46e-01	0	26	104	373293056	70	13815
2026-01-13 10:51:28.40	15.06	55.89	-52.4	-64.0	3.9	7.44e-01	0	26	104	373293056	74	13030
2026-01-13 10:51:29.40	14.37	55.59	-50.3	-61.5	3.8	7.48e-01	0	26	104	373293056	69	13103
2026-01-13 10:51:30.40	13.69	55.28	-50.2	-61.7	3.9	7.48e-01	0	26	104	373293056	69	13271
2026-01-13 10:51:31.40	13.03	54.97	-51.5	-63.0	3.8	7.46e-01	0	26	104	373293056	70	14563
2026-01-13 10:51:32.40	12.38	54.66	-51.5	-63.1	3.8	7.44e-01	0	26	104	373293056	72	13116
2026-01-13 10:51:33.39	11.76	54.35	-54.6	-66.6	3.8	7.48e-01	0	26	104	373293056	76	15602
2026-01-13 10:51:34.38	11.14	54.04	-55.4	-68.1	3.8	7.44e-01	0	26	104	373293056	80	14743
2026-01-13 10:51:35.39	10.53	53.72	-50.2	-61.6	3.9	7.43e-01	0	26	104	373293056	69	13199
2026-01-13 10:51:36.38	9.95	53.41	-52.6	-64.1	3.9	7.45e-01	0	26	104	373293056	74	13165
2026-01-13 10:51:37.38	9.37	53.09	-49.9	-61.2	3.9	7.42e-01	0	26	104	373293056	69	12600
2026-01-13 10:51:38.37	8.80	52.78	-49.7	-61.0	3.8	7.44e-01	0	26	104	373293056	68	13019
2026-01-13 10:51:39.36	8.26	52.46	-50.8	-62.2	3.8	7.44e-01	0	26	104	373293056	69	14185
2026-01-13 10:51:40.36	7.71	52.14	-51.3	-62.8	3.9	7.47e-01	0	26	104	373293056	71	13432
2026-01-13 10:51:41.36	7.18	51.82	-53.6	-65.6	3.8	7.46e-01	0	26	104	373293056	74	15750
2026-01-13 10:51:42.35	6.67	51.51	-55.7	-68.4	3.8	7.47e-01	0	26	104	373293056	80	15264
2026-01-13 10:51:43.34	6.17	51.19	-49.7	-60.8	3.9	7.44e-01	0	26	104	373293056	68	12797
2026-01-13 10:51:44.34	5.67	50.87	-53.1	-64.6	3.9	7.45e-01	0	26	104	373293056	75	13163
2026-01-13 10:51:45.33	5.19	50.55	-50.2	-61.8	3.8	7.46e-01	0	26	104	373293056	69	13560
2026-01-13 10:51:46.31	4.72	50.24	-50.5	-61.9	3.8	7.45e-01	0	26	104	373293056	69	13571
2026-01-13 10:51:47.30	4.26	49.92	-50.6	-61.8	3.8	7.44e-01	0	26	104	373293056	69	13566
2026-01-13 10:51:48.29	3.81	49.60	-51.4	-62.7	3.8	7.43e-01	0	26	104	373293056	72	12593
2026-01-13 10:51:49.28	3.36	49.29	-53.0	-65.0	3.8	7.46e-01	0	26	104	373293056	73	15574
2026-01-13 10:51:50.27	2.93	48.97	-56.7	-70.2	3.9	7.46e-01	0	26	104	373293056	82	16845
2026-01-13 10:51:51.27	2.50	48.66	-50.7	-62.0	3.8	7.45e-01	0	26	104	373293056	70	13066
2026-01-13 10:51:52.26	2.09	48.34	-54.4	-66.8	3.9	7.46e-01	0	26	104	373293056	78	14277
2026-01-13 10:51:53.25	1.68	48.03	-50.3	-61.3	3.9	7.48e-01	0	26	104	373293056	69	12791
2026-01-13 10:51:54.25	1.28	47.71	-50.1	-61.2	3.8	7.48e-01	0	26	104	373293056	69	12617
2026-01-13 10:51:55.24	0.89	47.40	-50.3	-61.5	3.9	7.45e-01	0	26	104	373293056	69	13068
2026-01-13 10:51:56.24	0.50	47.09	-51.6	-63.3	3.8	7.47e-01	0	26	104	373293056	72	13517
2026-01-13 10:51:57.23	0.12	46.78	-52.3	-64.2	3.8	7.45e-01	0	26	104	373293056	72	15004
2026-01-13 10:51:58.23	359.75	46.47	-57.0	-70.9	3.9	7.45e-01	0	26	104	373293056	83	17128
2026-01-13 10:51:59.22	359.39	46.16	-51.2	-62.6	3.8	7.46e-01	0	26	104	373293056	71	13171
2026-01-13 10:52:00.21	359.04	45.85	-54.6	-66.5	3.8	7.47e-01	0	26	104	373293056	78	13875
2026-01-13 10:52:01.21	358.69	45.55	-50.4	-61.6	3.8	7.42e-01	0	26	104	373293056	70	12410
2026-01-13 10:52:02.20	358.35	45.24	-50.4	-61.9	3.8	7.45e-01	0	26	104	373293056	69	13613
2026-01-13 10:52:03.19	358.02	44.94	-50.4	-61.8	3.8	7.47e-01	0	26	104	373293056	69	13454
2026-01-13 10:52:04.19	357.69	44.64	-51.7	-63.4	3.8	7.44e-01	0	26	104	373293056	72	13621
2026-01-13 10:52:05.18	357.37	44.34	-51.2	-62.5	3.8	7.44e-01	0	26	104	373293056	70	13801
2026-01-13 10:52:06.17	357.05	44.04	-57.5	-71.7	3.9	7.44e-01	0	26	104	373293056	84	17727
2026-01-13 10:52:07.17	356.74	43.74	-52.2	-63.7	3.9	7.47e-01	0	26	104	373293056	73	13340
2026-01-13 10:52:08.16	356.44	43.45	-55.1	-67.5	3.9	7.48e-01	0	26	104	373293056	79	14594
2026-01-13 10:52:09.15	356.14	43.15	-50.8	-62.3	3.8	7.48e-01	0	26	104	373293056	70	13429
2026-01-13 10:52:10.16	355.85	42.85	-50.9	-62.6	3.9	7.43e-01	0	26	104	373293056	70	13947
2026-01-13 10:52:11.15	355.56	42.56	-51.3	-62.8	3.8	7.47e-01	0	26	104	373293056	70	14355
2026-01-13 10:52:12.15	355.28	42.27	-54.4	-66.6	3.9	7.44e-01	0	26	104	373293056	78	14036
2026-01-13 10:52:13.14	355.00	41.99	-52.0	-63.6	3.8	7.46e-01	0	26	104	373293056	71	14765
2026-01-13 10:52:14.14	354.73	41.70	-57.9	-72.4	3.9	7.41e-01	0	26	104	373293056	85	18296
2026-01-13 10:52:15.13	354.47	41.41	-52.8	-64.5	3.9	7.43e-01	0	26	104	373293056	75	13095
2026-01-13 10:52:16.13	354.20	41.13	-55.7	-68.4	3.9	7.45e-01	0	26	104	373293056	80	15259
2026-01-13 10:52:17.12	353.95	40.85	-51.7	-63.1	3.8	7.42e-01	0	26	104	373293056	72	13150
2026-01-13 10:52:18.12	353.69	40.57	-51.8	-63.3	3.8	7.45e-01	0	26	104	373293056	72	13563
2026-01-13 10:52:19.11	353.45	40.29	-51.7	-63.3	3.8	7.47e-01	0	26	104	373293056	72	13505
2026-01-13 10:52:20.09	353.21	40.02	-53.4	-65.4	3.9	7.44e-01	0	26	104	373293056	75	14443
2026-01-13 10:52:21.09	352.97	39.74	-52.5	-64.2	3.8	7.47e-01	0	26	104	373293056	73	14055
2026-01-13 10:52:22.09	352.73	39.46	-58.3	-73.9	3.9	7.47e-01	0	26	104	373293056	85	21707
2026-01-13 10:52:23.08	352.50	39.19	-54.5	-66.7	3.8	7.46e-01	0	26	104	373293056	78	14142
2026-01-13 10:52:24.07	352.27	38.92	-56.0	-69.0	3.9	7.45e-01	0	26	104	373293056	80	16434
2026-01-13 10:52:25.07	352.05	38.66	-52.3	-64.0	3.8	7.43e-01	0	26	104	373293056	73	13811
2026-01-13 10:52:26.06	351.83	38.39	-52.0	-63.6	3.8	7.46e-01	0	26	104	373293056	73	13131
2026-01-13 10:52:27.06	351.61	38.12	-51.9	-63.7	3.8	7.47e-01	0	26	104	373293056	72	14147
2026-01-13 10:52:28.05	351.40	37.86	-54.9	-67.6	3.9	7.43e-01	0	26	104	373293056	78	15621
2026-01-13 10:52:29.04	351.20	37.60	-52.3	-64.1	3.8	7.46e-01	0	26	104	373293056	73	13960
2026-01-13 10:52:30.04	350.99	37.34	-58.5	-74.4	3.9	7.45e-01	0	26	104	373293056	85	22999
2026-01-13 10:52:31.04	350.79	37.08	-54.9	-67.5	3.9	7.42e-01	0	26	104	373293056	79	14552
2026-01-13 10:52:32.03	350.59	36.83	-55.7	-68.6	3.9	7.43e-01	0	27	104	373293056	80	15688
2026-01-13 10:52:33.02	350.39	36.57	-51.9	-63.5	3.8	7.45e-01	0	26	104	373293056	73	12978
2026-01-13 10:52:34.02	350.20	36.32	-51.8	-63.1	3.8	7.46e-01	0	26	104	373293056	72	13257
2026-01-13 10:52:35.02	350.01	36.07	-51.3	-62.5	3.9	7.46e-01	0	26	104	373293056	71	13039
2026-01-13 10:52:36.01	349.83	35.82	-53.0	-64.7	3.9	7.42e-01	0	26	104	373293056	74	14119
2026-01-13 10:52:37.01	349.64	35.57	-51.6	-63.1	3.9	7.43e-01	0	26	104	373293056	72	13170
2026-01-13 10:52:38.01	349.46	35.32	-58.5	-74.6	3.8	7.47e-01	0	26	104	373293056	85	23379
2026-01-13 10:52:39.01	349.28	35.08	-55.0	-67.7	3.9	7.44e-01	0	26	104	373293056	79	15019
2026-01-13 10:52:40.01	349.11	34.83	-55.3	-68.1	3.9	7.45e-01	0	26	104	373293056	79	15705
2026-01-13 10:52:41.00	348.93	34.59	-51.3	-62.8	3.8	7.46e-01	0	26	104	373293056	71	13499
2026-01-13 10:52:42.00	348.76	34.35	-51.3	-62.7	3.8	7.50e-01	0	26	104	373293056	71	13346
2026-01-13 10:52:42.99	348.60	34.12	-50.7	-61.9	3.8	7.51e-01	0	26	104	373293056	70	12867
2026-01-13 10:52:43.99	348.43	33.88	-52.9	-64.5	3.8	7.44e-01	0	26	104	373293056	74	13783
2026-01-13 10:52:44.98	348.27	33.65	-50.6	-61.8	3.8	7.46e-01	0	26	104	373293056	70	12666
2026-01-13 10:52:45.98	348.11	33.41	-58.5	-74.4	3.8	7.45e-01	0	26	104	373293056	84	24321
2026-01-13 10:52:46.97	347.95	33.18	-55.0	-67.4	3.8	7.46e-01	0	26	104	373293056	79	14425
2026-01-13 10:52:47.96	347.80	32.96	-54.8	-67.2	3.8	7.50e-01	0	26	104	373293056	77	15879
2026-01-13 10:52:48.95	347.65	32.73	-50.6	-62.1	3.8	7.44e-01	0	26	104	373293056	70	13172
2026-01-13 10:52:49.93	347.50	32.51	-50.7	-62.1	3.8	7.46e-01	0	26	104	373293056	70	13168
2026-01-13 10:52:50.93	347.35	32.28	-50.4	-61.8	3.8	7.45e-01	0	26	104	373293056	70	12724
2026-01-13 10:52:51.92	347.21	32.06	-52.3	-64.1	3.9	7.45e-01	0	26	104	373293056	72	14833
2026-01-13 10:52:52.92	347.06	31.84	-50.3	-61.7	3.9	7.45e-01	0	26	104	373293056	69	13263
2026-01-13 10:52:53.92	346.92	31.62	-58.5	-74.5	3.8	7.47e-01	0	26	104	373293056	84	24459
2026-01-13 10:52:54.91	346.78	31.40	-55.2	-67.8	3.8	7.45e-01	0	26	104	373293056	79	15190
2026-01-13 10:52:55.91	346.64	31.18	-54.4	-66.8	3.8	7.46e-01	0	26	104	373293056	76	16036
2026-01-13 10:52:56.90	346.51	30.97	-50.4	-61.8	3.8	7.44e-01	0	26	104	373293056	70	12770
2026-01-13 10:52:57.90	346.37	30.75	-50.4	-61.8	3.9	7.46e-01	0	26	104	373293056	70	12671
2026-01-13 10:52:58.89	346.24	30.54	-50.2	-61.5	3.8	7.45e-01	0	26	104	373293056	69	13004
2026-01-13 10:52:59.88	346.11	30.33	-53.6	-65.6	3.8	7.48e-01	0	26	104	373293056	74	15736
2026-01-13 10:53:00.87	345.98	30.12	-50.4	-61.9	3.8	7.43e-01	0	26	104	373293056	70	12882
2026-01-13 10:53:01.87	345.85	29.91	-58.4	-74.6	3.8	7.46e-01	0	26	104	373293056	84	24803
2026-01-13 10:53:02.87	345.73	29.71	-55.2	-67.8	3.8	7.48e-01	0	26	104	373293056	79	15186
2026-01-13 10:53:03.86	345.61	29.50	-54.0	-66.2	3.9	7.49e-01	0	26	104	373293056	75	15860
2026-01-13 10:53:04.85	345.48	29.30	-50.6	-62.0	3.9	7.46e-01	0	26	104	373293056	70	12971
2026-01-13 10:53:05.85	345.36	29.10	-50.3	-61.6	3.8	7.44e-01	0	26	104	373293056	69	13186
2026-01-13 10:53:06.84	345.25	28.90	-50.0	-61.4	3.8	7.42e-01	0	26	104	373293056	69	12836
2026-01-13 10:53:07.83	345.13	28.70	-51.8	-63.5	3.8	7.46e-01	0	26	104	373293056	71	14663
2026-01-13 10:53:08.84	345.01	28.50	-50.5	-62.0	3.9	7.45e-01	0	26	104	373293056	70	12999
2026-01-13 10:53:09.84	344.90	28.30	-58.1	-73.9	3.8	7.45e-01	0	26	104	373293056	83	24230
2026-01-13 10:53:10.82	344.79	28.11	-55.5	-68.2	3.8	7.46e-01	0	26	104	373293056	80	15009
2026-01-13 10:53:11.81	344.68	27.92	-54.2	-66.0	3.8	7.46e-01	0	26	104	373293056	75	15427
2026-01-13 10:53:12.81	344.57	27.72	-51.0	-62.3	3.8	7.47e-01	0	26	104	373293056	71	12680
2026-01-13 10:53:13.81	344.46	27.53	-50.6	-61.8	3.9	7.45e-01	0	26	104	373293056	70	12751
2026-01-13 10:53:14.80	344.35	27.34	-50.2	-61.6	3.8	7.47e-01	0	26	104	373293056	69	13168
2026-01-13 10:53:15.79	344.25	27.15	-50.9	-62.4	3.8	7.44e-01	0	26	104	373293056	69	14435
2026-01-13 10:53:16.78	344.14	26.97	-50.7	-62.3	3.8	7.48e-01	0	26	104	373293056	69	14293
2026-01-13 10:53:17.78	344.04	26.78	-58.4	-74.5	3.8	7.49e-01	0	26	104	373293056	84	24628
2026-01-13 10:53:18.78	343.94	26.60	-55.8	-68.7	3.8	7.49e-01	0	26	104	373293056	80	15893
2026-01-13 10:53:19.78	343.84	26.41	-53.4	-65.3	3.8	7.45e-01	0	26	104	373293056	74	15216
2026-01-13 10:53:20.77	343.74	26.23	-51.3	-62.7	3.8	7.45e-01	0	26	104	373293056	71	13296
2026-01-13 10:53:21.76	343.64	26.05	-50.9	-62.2	3.8	7.48e-01	0	26	104	373293056	70	13409
2026-01-13 10:53:22.76	343.54	25.87	-51.0	-62.5	3.8	7.43e-01	0	26	104	373293056	70	13733
2026-01-13 10:53:23.75	343.45	25.69	-52.0	-63.7	3.9	7.46e-01	0	26	104	373293056	71	15003
2026-01-13 10:53:24.75	343.35	25.51	-51.2	-62.8	3.9	7.43e-01	0	26	104	373293056	71	13461
2026-01-13 10:53:25.75	343.26	25.34	-58.1	-74.1	3.8	7.45e-01	0	26	104	373293056	83	24927
2026-01-13 10:53:26.76	343.17	25.16	-56.2	-69.5	3.8	7.43e-01	0	27	104	373293056	81	16494
2026-01-13 10:53:27.75	343.07	24.99	-53.5	-65.6	3.8	7.49e-01	0	26	104	373293056	74	15757
2026-01-13 10:53:28.75	342.98	24.81	-51.5	-63.1	3.8	7.50e-01	0	26	104	373293056	72	13206
2026-01-13 10:53:29.74	342.90	24.64	-51.2	-62.7	3.8	7.48e-01	0	26	104	373293056	71	13372
2026-01-13 10:53:30.74	342.81	24.47	-50.8	-62.3	3.9	7.48e-01	0	26	104	373293056	70	13478
2026-01-13 10:53:31.74	342.72	24.30	-51.8	-63.5	3.8	7.44e-01	0	26	104	373293056	71	14644
2026-01-13 10:53:32.74	342.63	24.13	-51.3	-62.9	3.8	7.45e-01	0	26	104	373293056	71	13610
2026-01-13 10:53:33.74	342.55	23.96	-58.1	-74.2	3.8	7.47e-01	0	26	104	373293056	83	25111
2026-01-13 10:53:34.73	342.47	23.80	-56.3	-69.7	3.8	7.45e-01	0	26	104	373293056	81	16699
2026-01-13 10:53:35.73	342.38	23.63	-53.2	-65.5	3.8	7.45e-01	0	26	104	373293056	74	15440
2026-01-13 10:53:36.72	342.30	23.47	-51.6	-63.3	3.9	7.45e-01	0	26	104	373293056	72	13426
2026-01-13 10:53:37.72	342.22	23.31	-51.3	-62.8	3.8	7.44e-01	0	26	104	373293056	71	13420
2026-01-13 10:53:38.71	342.14	23.15	-51.2	-62.6	3.8	7.45e-01	0	26	104	373293056	71	13173
2026-01-13 10:53:39.71	342.06	22.98	-53.3	-65.1	3.8	7.45e-01	0	26	104	373293056	74	14879
2026-01-13 10:53:40.70	341.98	22.83	-51.5	-63.0	3.8	7.45e-01	0	27	104	373293056	72	13009
2026-01-13 10:53:41.71	341.90	22.67	-57.9	-73.5	3.8	7.51e-01	0	26	104	373293056	83	23266
2026-01-13 10:53:42.71	341.83	22.51	-56.3	-69.7	3.8	7.48e-01	0	26	104	373293056	81	16842
2026-01-13 10:53:43.70	341.75	22.35	-53.0	-64.9	3.8	7.45e-01	0	26	104	373293056	73	15258
2026-01-13 10:53:44.70	341.68	22.19	-51.5	-63.1	3.9	7.45e-01	0	26	104	373293056	72	13209
2026-01-13 10:53:45.69	341.60	22.04	-51.0	-62.5	3.9	7.43e-01	0	26	104	373293056	71	13040
2026-01-13 10:53:46.69	341.53	21.89	-50.8	-62.4	3.8	7.45e-01	0	26	104	373293056	70	13604
2026-01-13 10:53:47.68	341.46	21.73	-52.5	-64.3	3.8	7.46e-01	0	26	104	373293056	72	15213
2026-01-13 10:53:48.67	341.39	21.58	-51.5	-63.1	3.9	7.48e-01	0	26	104	373293056	72	13219
2026-01-13 10:53:49.66	341.32	21.43	-57.7	-73.2	3.8	7.48e-01	0	26	104	373293056	83	22321
2026-01-13 10:53:50.65	341.25	21.28	-56.3	-69.7	3.8	7.43e-01	0	26	104	373293056	81	16697
2026-01-13 10:53:51.64	341.18	21.14	-52.5	-64.0	3.8	7.46e-01	0	26	104	373293056	72	14572
2026-01-13 10:53:52.63	341.11	20.99	-51.5	-62.9	3.8	7.44e-01	0	26	104	373293056	72	12842
2026-01-13 10:53:53.63	341.04	20.84	-51.1	-62.5	3.8	7.50e-01	0	26	104	373293056	71	13062
2026-01-13 10:53:54.62	340.97	20.70	-50.7	-62.0	3.8	7.46e-01	0	26	104	373293056	70	13078
2026-01-13 10:53:55.62	340.91	20.55	-51.3	-62.8	3.8	7.43e-01	0	26	104	373293056	70	14228
2026-01-13 10:53:56.62	340.84	20.40	-51.4	-63.0	3.8	7.43e-01	0	26	104	373293056	70	14548
2026-01-13 10:53:57.61	340.78	20.26	-57.4	-72.1	3.8	7.48e-01	0	26	104	373293056	82	20955
2026-01-13 10:53:58.60	340.71	20.12	-56.3	-69.9	3.8	7.47e-01	0	26	104	373293056	81	17207
2026-01-13 10:53:59.60	340.65	19.98	-52.0	-63.7	3.8	7.45e-01	0	27	104	373293056	72	14164
2026-01-13 10:54:00.59	340.58	19.84	-51.5	-63.3	3.8	7.44e-01	0	26	104	373293056	72	13451
2026-01-13 10:54:01.59	340.52	19.70	-51.2	-62.7	3.9	7.43e-01	0	26	104	373293056	71	13299
2026-01-13 10:54:02.58	340.46	19.56	-50.7	-62.2	3.8	7.48e-01	0	26	104	373293056	70	13372
2026-01-13 10:54:03.58	340.40	19.42	-51.8	-53.8	14.8	6.04e-01	0	26	104	373293056	71	4777
2026-01-13 10:54:04.57	340.34	19.28	-51.4	-53.3	15.4	6.03e-01	0	26	0	374865920	72	4286
2026-01-13 10:54:05.56	340.28	19.14	-56.8	-62.0	12.8	6.04e-01	0	26	0	376963072	81	6887
2026-01-13 10:54:06.56	340.22	19.01	-56.0	-60.1	13.8	6.02e-01	0	26	0	378535936	81	5545
2026-01-13 10:54:07.55	340.16	18.87	-51.2	-53.1	15.4	6.04e-01	0	26	0	380633088	71	4412
2026-01-13 10:54:08.54	340.10	18.74	-51.0	-52.9	15.4	6.02e-01	0	26	0	382205952	71	4314
2026-01-13 10:54:09.54	340.04	18.60	-50.5	-52.2	15.5	6.05e-01	0	26	0	384303104	70	4216
2026-01-13 10:54:10.53	339.99	18.47	-50.1	-51.8	15.5	6.03e-01	0	26	0	385875968	69	4268
2026-01-13 10:54:11.52	339.93	18.34	-50.0	-51.7	15.5	6.02e-01	0	26	0	387973120	69	4222
2026-01-13 10:54:12.51	339.88	18.21	-50.0	-51.7	15.6	6.02e-01	0	26	0	389545984	69	4210
2026-01-13 10:54:13.49	339.82	18.08	-50.0	-51.7	15.6	6.04e-01	0	26	0	391643136	69	4218
2026-01-13 10:54:14.49	339.77	17.95	-50.0	-51.7	15.5	6.02e-01	0	26	0	393740288	69	4240
2026-01-13 10:54:15.47	339.71	17.82	-50.0	-51.8	15.5	6.04e-01	0	26	0	395313152	69	4248
2026-01-13 10:54:16.47	339.66	17.69	-50.1	-51.8	15.5	6.01e-01	0	26	0	397410304	69	4252
2026-01-13 10:54:17.46	339.61	17.56	-50.0	-51.8	15.5	6.03e-01	0	26	0	398983168	69	4247
2026-01-13 10:54:18.45	339.55	17.44	-50.2	-51.9	15.5	6.03e-01	0	26	0	401080320	69	4328
2026-01-13 10:54:19.45	339.50	17.31	-50.2	-51.9	15.5	6.02e-01	0	26	0	402653184	69	4318
2026-01-13 10:54:20.43	339.45	17.19	-50.2	-52.0	15.5	6.03e-01	0	26	0	404750336	69	4348
2026-01-13 10:54:21.43	339.40	17.06	-50.2	-51.9	15.5	6.03e-01	0	26	0	406323200	69	4312
2026-01-13 10:54:22.43	339.35	16.94	-50.2	-51.9	15.5	6.02e-01	0	26	0	408420352	69	4339
2026-01-13 10:54:23.42	339.30	16.81	-50.3	-52.0	15.4	6.02e-01	0	26	0	409993216	69	4377
2026-01-13 10:54:24.42	339.25	16.69	-50.2	-52.0	15.5	6.03e-01	0	26	0	412090368	69	4348
2026-01-13 10:54:25.42	339.20	16.57	-50.1	-51.8	15.5	6.03e-01	0	26	0	414187520	69	4275
2026-01-13 10:54:26.42	339.15	16.44	-50.1	-51.8	15.5	6.02e-01	0	26	0	415760384	69	4283
2026-01-13 10:54:27.41	339.10	16.32	-50.1	-51.8	15.5	6.04e-01	0	26	0	417857536	69	4286
2026-01-13 10:54:28.41	339.05	16.20	-50.1	-51.9	15.5	6.03e-01	0	26	0	419430400	69	4296
2026-01-13 10:54:29.41	339.00	16.08	-50.2	-51.9	15.5	6.03e-01	0	26	0	421527552	69	4338
2026-01-13 10:54:30.41	338.96	15.96	-50.1	-51.8	15.5	6.03e-01	0	26	0	423100416	69	4290
2026-01-13 10:54:31.41	338.91	15.84	-50.1	-51.8	15.5	6.04e-01	0	26	0	425197568	69	4289
2026-01-13 10:54:32.40	338.86	15.72	-50.1	-51.8	15.5	6.02e-01	0	26	0	427294720	69	4283
2026-01-13 10:54:33.39	338.82	15.61	-50.1	-51.8	15.5	6.04e-01	0	26	0	428867584	69	4286
2026-01-13 10:54:34.39	338.77	15.49	-50.1	-51.8	15.5	6.04e-01	0	26	0	430964736	69	4284
2026-01-13 10:54:35.39	338.73	15.37	-50.1	-51.8	15.5	6.05e-01	0	26	0	432537600	69	4279
2026-01-13 10:54:36.38	338.68	15.26	-50.1	-51.9	15.5	6.04e-01	0	26	0	434634752	69	4292
2026-01-13 10:54:37.37	338.64	15.14	-50.0	-51.7	15.5	6.04e-01	0	26	0	436207616	69	4209
2026-01-13 10:54:38.37	338.59	15.03	-50.0	-51.7	15.5	6.01e-01	0	26	0	438304768	69	4242
2026-01-13 10:54:39.36	338.55	14.91	-50.0	-51.8	15.5	6.04e-01	0	26	0	439877632	69	4245
2026-01-13 10:54:40.36	338.51	14.80	-49.9	-51.6	15.6	6.04e-01	0	26	0	441974784	69	4150
2026-01-13 10:54:41.35	338.46	14.69	-49.9	-51.6	15.4	6.01e-01	0	26	0	444071936	68	4404
2026-01-13 10:54:42.34	338.42	14.58	-49.9	-51.6	15.4	6.04e-01	0	26	0	445644800	68	4423
2026-01-13 10:54:43.34	338.38	14.46	-49.9	-51.6	15.4	6.01e-01	0	26	0	447741952	68	4426
2026-01-13 10:54:44.33	338.34	14.35	-49.9	-51.6	15.4	6.04e-01	0	26	0	449314816	68	4407
2026-01-13 10:54:45.33	338.30	14.24	-49.9	-51.6	15.4	6.03e-01	0	26	0	451411968	68	4415
2026-01-13 10:54:46.31	338.26	14.13	-49.9	-51.6	15.4	6.03e-01	0	26	0	452984832	68	4397
2026-01-13 10:54:47.31	338.22	14.02	-49.9	-51.5	15.4	6.02e-01	0	26	0	455081984	68	4390
2026-01-13 10:54:48.30	338.18	13.92	-49.9	-51.6	15.4	6.01e-01	0	26	0	456654848	68	4417
2026-01-13 10:54:49.29	338.14	13.81	-49.9	-51.6	15.4	6.03e-01	0	26	0	458752000	68	4429
2026-01-13 10:54:50.29	338.10	13.70	-50.0	-51.8	15.4	6.04e-01	0	26	0	460849152	68	4512
2026-01-13 10:54:51.28	338.06	13.59	-50.1	-51.8	15.4	6.04e-01	0	26	0	462422016	68	4543
2026-01-13 10:54:52.27	338.02	13.49	-50.0	-51.7	15.4	6.03e-01	0	26	0	464519168	68	4489
2026-01-13 10:54:53.26	337.98	13.38	-50.0	-51.8	15.4	6.04e-01	0	26	0	466092032	68	4496
2026-01-13 10:54:54.26	337.94	13.27	-50.0	-51.8	15.4	6.04e-01	0	26	0	468189184	68	4494
2026-01-13 10:54:55.25	337.90	13.17	-50.1	-51.9	15.3	6.05e-01	0	26	0	469762048	68	4564
2026-01-13 10:54:56.25	337.87	13.06	-50.2	-51.9	15.3	6.04e-01	0	26	0	471859200	68	4596
2026-01-13 10:54:57.24	337.83	12.96	-50.1	-51.8	15.3	6.02e-01	0	26	0	473956352	68	4537
2026-01-13 10:54:58.24	337.79	12.85	-50.1	-51.9	15.3	6.02e-01	0	26	0	475529216	68	4556
2026-01-13 10:54:59.23	337.76	12.75	-50.1	-51.9	15.3	6.02e-01	0	26	0	477626368	68	4557
2026-01-13 10:55:00.23	337.72	12.65	-50.2	-51.9	15.3	6.04e-01	0	26	0	479199232	68	4588
2026-01-13 10:55:01.22	337.68	12.55	-50.1	-51.9	15.3	6.03e-01	0	26	0	481296384	68	4578
2026-01-13 10:55:02.22	337.65	12.44	-50.2	-52.0	15.3	6.03e-01	0	26	0	482869248	68	4612
2026-01-13 10:55:03.21	337.61	12.34	-50.1	-51.9	15.3	6.03e-01	0	26	0	484966400	68	4571
2026-01-13 10:55:04.21	337.58	12.24	-50.1	-51.9	15.3	6.02e-01	0	26	0	486539264	68	4556
2026-01-13 10:55:05.20	337.54	12.14	-50.1	-51.9	15.3	6.03e-01	0	26	0	488636416	68	4572
2026-01-13 10:55:06.20	337.51	12.04	-50.2	-51.9	15.3	6.03e-01	0	26	0	490733568	68	4590
2026-01-13 10:55:07.19	337.47	11.94	-50.1	-51.9	15.3	6.01e-01	0	26	0	492306432	68	4562
2026-01-13 10:55:08.19	337.44	11.84	-50.2	-51.9	15.3	6.03e-01	0	26	0	494403584	68	4591
2026-01-13 10:55:09.18	337.41	11.74	-50.3	-52.1	15.3	6.03e-01	0	26	0	495976448	68	4656
2026-01-13 10:55:10.17	337.37	11.64	-50.3	-52.1	15.3	6.05e-01	0	26	0	498073600	68	4667
2026-01-13 10:55:11.17	337.34	11.54	-50.2	-52.0	15.3	6.01e-01	0	26	0	499646464	68	4625
2026-01-13 10:55:12.17	337.31	11.45	-50.3	-52.1	15.3	6.04e-01	0	26	0	501743616	68	4670
2026-01-13 10:55:13.16	337.27	11.35	-50.3	-52.1	15.3	6.04e-01	0	26	0	503316480	68	4657
2026-01-13 10:55:14.16	337.24	11.25	-50.3	-52.1	15.3	6.05e-01	0	26	0	505413632	68	4686
2026-01-13 10:55:15.16	337.21	11.16	-50.3	-52.1	15.3	6.01e-01	0	26	0	507510784	68	4670
2026-01-13 10:55:16.15	337.18	11.06	-50.4	-52.2	15.2	6.02e-01	0	26	0	509083648	68	4728
2026-01-13 10:55:17.15	337.15	10.96	-50.4	-52.2	15.3	6.03e-01	0	26	0	511180800	68	4726
2026-01-13 10:55:18.14	337.11	10.87	-50.4	-52.2	15.2	6.02e-01	0	26	0	512753664	68	4740
2026-01-13 10:55:19.14	337.08	10.77	-50.4	-52.3	15.2	6.03e-01	0	26	0	514850816	68	4764
2026-01-13 10:55:20.13	337.05	10.68	-50.4	-52.2	15.2	6.01e-01	0	26	0	516423680	68	4742
2026-01-13 10:55:21.13	337.02	10.59	-50.4	-52.2	15.2	6.02e-01	0	26	0	518520832	68	4721
2026-01-13 10:55:22.12	336.99	10.49	-50.4	-52.2	15.2	6.03e-01	0	26	0	520093696	68	4724
2026-01-13 10:55:23.12	336.96	10.40	-50.5	-52.3	15.2	6.04e-01	0	26	0	522190848	68	4793
2026-01-13 10:55:24.11	336.93	10.31	-50.4	-52.3	15.2	6.04e-01	0	26	0	524288000	68	4771
2026-01-13 10:55:25.10	336.90	10.21	-50.4	-52.2	15.2	6.02e-01	0	26	0	525860864	68	4736
2026-01-13 10:55:26.09	336.87	10.12	-50.4	-52.2	15.2	6.03e-01	0	26	0	527958016	68	4735
2026-01-13 10:55:27.09	336.84	10.03	-50.5	-52.3	15.2	6.01e-01	0	26	0	529530880	68	4791
2026-01-13 10:55:28.08	336.81	9.94	-50.4	-52.3	15.2	6.01e-01	0	26	0	531628032	68	4779
2026-01-13 10:55:29.07	336.78	9.85	-50.4	-52.3	15.2	6.04e-01	0	26	0	533200896	68	4784
2026-01-13 10:55:30.06	336.76	9.76	-50.4	-52.2	15.2	6.02e-01	0	26	0	535298048	68	4758
2026-01-13 10:55:31.06	336.73	9.67	-50.4	-52.2	15.2	6.05e-01	0	26	0	536870912	68	4755
2026-01-13 10:55:32.06	336.70	9.58	-50.4	-52.3	15.2	6.02e-01	0	26	0	538968064	68	4781
2026-01-13 10:55:33.05	336.67	9.49	-50.5	-52.4	15.2	6.03e-01	0	26	0	541065216	68	4819
2026-01-13 10:55:34.04	336.64	9.40	-50.5	-52.4	15.2	6.04e-01	0	26	0	542638080	68	4831
2026-01-13 10:55:35.03	336.62	9.31	-50.5	-52.4	15.2	6.04e-01	0	26	0	544735232	68	4825
2026-01-13 10:55:36.02	336.59	9.22	-50.6	-52.4	15.2	6.03e-01	0	26	0	546308096	68	4863
2026-01-13 10:55:37.01	336.56	9.14	-50.5	-52.3	15.2	6.00e-01	0	26	0	548405248	68	4809
2026-01-13 10:55:38.00	336.54	9.05	-50.5	-52.3	15.2	6.04e-01	0	26	0	549978112	68	4808
2026-01-13 10:55:38.99	336.51	8.96	-50.6	-52.4	15.2	6.03e-01	0	26	0	552075264	68	4856
2026-01-13 10:55:39.98	336.48	8.87	-50.6	-52.4	15.2	6.01e-01	0	26	0	553648128	68	4863
2026-01-13 10:55:40.98	336.46	8.79	-50.4	-52.3	15.2	6.02e-01	0	26	0	555745280	68	4793
2026-01-13 10:55:41.97	336.43	8.70	-50.7	-52.6	15.3	6.03e-01	0	26	0	557318144	69	4659
2026-01-13 10:55:42.97	336.40	8.61	-50.6	-52.5	15.3	6.00e-01	0	26	0	559415296	69	4635
2026-01-13 10:55:43.97	336.38	8.53	-50.6	-52.6	15.3	6.03e-01	0	26	0	561512448	69	4654
2026-01-13 10:55:44.96	336.35	8.44	-50.8	-52.7	15.2	6.05e-01	0	26	0	563085312	69	4719
