passes_logs/2026/01/13/R3.2S_Murmansk/R3.2S_Murmansk__20260113_220917_SUOMI_NPP_rec.log

#Pass ID: 20260113_220917_SUOMI NPP
#Satellite: SUOMI NPP
#Configuration: NPP
#almurnet v.1.7.20251203
#Start time: 2026-01-13 22:09:18

#Version: 2.2.20231116
#Station: R3.2S_Murmansk
#Location: 33.079688 lon 68.888172 lat
#TLE: 1 37849U 11061A   26013.55331121  .00000059  00000+0  48721-4 0  9992
#TLE: 2 37849  98.7808 315.6144 0002478  66.1553 293.9883 14.19524925736509

#Time	Az	El	Level	Level2	SNR	BER	BlckErr	Temp	State	Recorded	gain1	gain2
2026-01-13 22:09:18.75	18.70	2.05	-58.0	-73.9	3.9	1.49e+00	0	25	0	0	82	22036
2026-01-13 22:09:19.75	18.78	2.11	-58.0	-73.9	3.8	1.49e+00	0	25	104	0	81	23408
2026-01-13 22:09:20.74	18.86	2.16	-58.0	-73.9	3.8	1.49e+00	0	25	104	0	81	23508
2026-01-13 22:09:21.74	18.93	2.21	-58.0	-73.9	3.8	1.49e+00	0	25	104	0	81	23546
2026-01-13 22:09:22.74	19.01	2.26	-58.0	-73.9	3.8	1.49e+00	0	25	104	0	81	23500
2026-01-13 22:09:23.74	19.09	2.32	-58.0	-73.9	3.8	1.49e+00	0	25	104	0	81	23580
2026-01-13 22:09:24.73	19.17	2.37	-58.0	-73.9	3.8	1.49e+00	0	25	104	0	81	23447
2026-01-13 22:09:25.73	19.25	2.42	-58.0	-73.9	3.8	1.49e+00	0	25	104	0	81	23413
2026-01-13 22:09:26.74	19.33	2.48	-58.0	-73.8	3.8	1.49e+00	0	25	104	0	81	23234
2026-01-13 22:09:27.74	19.41	2.53	-58.0	-73.8	3.8	1.49e+00	0	25	104	0	81	23096
2026-01-13 22:09:28.74	19.49	2.58	-58.0	-73.8	3.8	1.49e+00	0	25	104	0	81	23082
2026-01-13 22:09:29.75	19.57	2.64	-58.0	-73.8	3.8	1.49e+00	0	25	104	0	81	23082
2026-01-13 22:09:30.75	19.65	2.69	-58.0	-73.8	3.8	1.49e+00	0	25	104	0	81	23098
2026-01-13 22:09:31.75	19.73	2.74	-58.0	-73.9	3.8	1.49e+00	0	25	104	0	81	23376
2026-01-13 22:09:32.74	19.81	2.79	-58.0	-73.8	3.8	1.49e+00	0	25	104	0	81	23265
2026-01-13 22:09:33.75	19.89	2.85	-58.0	-73.9	3.8	1.49e+00	0	25	104	0	81	23550
2026-01-13 22:09:34.75	19.97	2.90	-58.0	-73.9	3.8	1.49e+00	0	25	104	0	81	23552
2026-01-13 22:09:35.75	20.05	2.96	-58.0	-73.9	3.8	1.49e+00	0	25	104	0	81	23549
2026-01-13 22:09:36.75	20.14	3.01	-58.0	-74.0	3.8	1.49e+00	0	25	104	0	81	23650
2026-01-13 22:09:37.75	20.22	3.06	-58.0	-74.0	3.8	1.49e+00	0	25	104	0	81	23710
2026-01-13 22:09:38.76	20.30	3.12	-58.0	-74.0	3.8	1.49e+00	0	25	104	0	81	23729
2026-01-13 22:09:39.77	20.39	3.17	-58.0	-74.0	3.8	1.49e+00	0	26	104	0	81	23726
2026-01-13 22:09:40.77	20.47	3.23	-58.0	-74.0	3.8	1.49e+00	0	26	104	0	81	23734
2026-01-13 22:09:41.78	20.55	3.28	-58.0	-74.0	3.8	1.49e+00	0	26	104	0	81	23747
2026-01-13 22:09:42.77	20.64	3.33	-58.0	-73.9	3.8	1.49e+00	0	25	104	0	81	23473
2026-01-13 22:09:43.77	20.72	3.39	-58.0	-73.8	3.8	1.49e+00	0	26	104	0	81	23095
2026-01-13 22:09:44.77	20.81	3.44	-58.0	-73.6	3.8	1.49e+00	0	26	104	0	81	22607
2026-01-13 22:09:45.76	20.89	3.50	-58.0	-73.3	3.8	1.49e+00	0	26	104	0	81	21898
2026-01-13 22:09:46.77	20.97	3.55	-58.0	-73.2	3.8	1.49e+00	0	26	104	0	81	21554
2026-01-13 22:09:47.77	21.06	3.61	-58.0	-73.2	3.8	1.49e+00	0	26	104	0	81	21635
2026-01-13 22:09:48.77	21.15	3.66	-58.0	-73.2	3.8	1.49e+00	0	25	104	0	81	21612
2026-01-13 22:09:49.77	21.23	3.71	-58.0	-73.3	3.8	1.49e+00	0	26	104	0	81	21983
2026-01-13 22:09:50.76	21.32	3.77	-58.0	-73.4	3.8	1.49e+00	0	26	104	0	81	22137
2026-01-13 22:09:51.76	21.40	3.82	-58.0	-73.3	3.8	1.49e+00	0	26	104	0	81	21890
2026-01-13 22:09:52.76	21.49	3.88	-58.0	-73.1	3.8	1.49e+00	0	26	104	0	81	21300
2026-01-13 22:09:53.76	21.58	3.93	-58.0	-72.5	3.8	1.49e+00	0	26	104	0	81	19952
2026-01-13 22:09:54.77	21.66	3.99	-57.9	-72.3	3.8	1.49e+00	0	26	104	0	81	19478
2026-01-13 22:09:55.78	21.75	4.04	-57.9	-71.7	3.8	1.49e+00	0	26	104	0	81	18278
2026-01-13 22:09:56.78	21.84	4.10	-57.9	-71.5	3.9	1.48e+00	0	26	104	0	81	17809
2026-01-13 22:09:57.79	21.93	4.15	-57.9	-71.9	3.8	1.48e+00	0	26	104	0	81	18631
2026-01-13 22:09:58.78	22.02	4.21	-57.9	-71.9	3.9	1.49e+00	0	26	104	0	81	18657
2026-01-13 22:09:59.78	22.11	4.26	-57.9	-71.9	3.8	1.49e+00	0	26	104	0	81	18613
2026-01-13 22:10:00.79	22.20	4.32	-57.9	-71.2	4.0	1.49e+00	0	26	104	0	81	17246
2026-01-13 22:10:01.79	22.29	4.37	-57.8	-69.6	4.4	1.33e+00	48	26	0	0	81	14353
2026-01-13 22:10:02.79	22.38	4.43	-57.6	-68.0	5.1	8.00e-01	0	26	0	2097152	81	11945
2026-01-13 22:10:03.79	22.47	4.48	-57.4	-66.3	6.2	3.96e-01	0	26	0	3145728	81	9785
2026-01-13 22:10:04.80	22.56	4.54	-57.2	-65.0	7.3	1.26e-01	0	26	0	5242880	81	8406
2026-01-13 22:10:05.80	22.65	4.59	-56.9	-63.9	8.1	4.23e-02	0	26	0	7340032	80	7888
2026-01-13 22:10:06.79	22.74	4.65	-56.7	-63.2	8.6	2.66e-02	0	26	0	9437184	80	7285
2026-01-13 22:10:07.80	22.83	4.71	-56.6	-62.7	9.2	1.27e-02	0	26	0	11534336	79	7211
2026-01-13 22:10:08.80	22.92	4.76	-56.6	-62.7	9.2	7.14e-03	0	26	0	12582912	79	7215
2026-01-13 22:10:09.79	23.01	4.82	-56.6	-62.7	9.1	7.95e-03	0	26	0	14680064	79	7264
2026-01-13 22:10:10.80	23.11	4.87	-56.7	-63.1	8.8	1.33e-02	0	26	0	16777216	79	7575
2026-01-13 22:10:11.80	23.20	4.93	-56.9	-64.0	8.1	3.13e-02	0	26	0	18874368	79	8419
2026-01-13 22:10:12.80	23.29	4.98	-57.1	-64.7	7.4	4.84e-02	0	26	0	20971520	79	9110
2026-01-13 22:10:13.80	23.39	5.04	-57.2	-65.1	7.1	7.81e-02	0	26	0	22020096	79	9565
2026-01-13 22:10:14.79	23.48	5.10	-57.3	-65.5	6.8	1.19e-01	0	26	0	24117248	79	9963
2026-01-13 22:10:15.79	23.57	5.15	-56.6	-62.6	9.3	3.36e-02	0	26	0	26214400	79	7127
2026-01-13 22:10:16.79	23.67	5.21	-57.6	-67.3	5.7	4.05e-02	0	26	0	28311552	80	11554
2026-01-13 22:10:17.79	23.76	5.26	-57.7	-69.0	4.7	5.21e-01	0	26	0	29360128	80	14165
2026-01-13 22:10:18.78	23.86	5.32	-54.5	-57.8	12.6	7.32e-02	0	26	0	31457280	75	5217
2026-01-13 22:10:19.78	23.95	5.38	-54.3	-57.5	12.9	7.00e-07	0	26	0	33554432	75	5022
2026-01-13 22:10:20.78	24.05	5.43	-54.3	-57.4	12.9	0.00e+00	0	26	0	35651584	75	4980
2026-01-13 22:10:21.78	24.14	5.49	-54.4	-57.7	12.7	0.00e+00	0	26	0	37748736	75	5138
2026-01-13 22:10:22.77	24.24	5.54	-54.2	-57.4	12.9	0.00e+00	0	26	0	38797312	75	4972
2026-01-13 22:10:23.77	24.34	5.60	-54.2	-57.4	12.9	0.00e+00	0	26	0	40894464	74	5240
2026-01-13 22:10:24.77	24.43	5.66	-54.2	-57.4	12.9	0.00e+00	0	26	0	42991616	74	5227
2026-01-13 22:10:25.76	24.53	5.71	-54.1	-57.3	13.0	0.00e+00	0	26	0	45088768	74	5167
2026-01-13 22:10:26.77	24.63	5.77	-54.1	-57.3	12.9	0.00e+00	0	26	0	46137344	74	5184
2026-01-13 22:10:27.77	24.73	5.83	-54.2	-57.3	12.9	0.00e+00	0	26	0	48234496	74	5214
2026-01-13 22:10:28.77	24.83	5.88	-54.1	-57.1	13.1	0.00e+00	0	26	0	50331648	74	5093
2026-01-13 22:10:29.78	24.93	5.94	-54.1	-57.3	13.0	0.00e+00	0	26	0	52428800	74	5182
2026-01-13 22:10:30.78	25.03	6.00	-54.0	-57.1	13.1	0.00e+00	0	26	0	54525952	74	5061
2026-01-13 22:10:31.78	25.13	6.05	-54.1	-57.3	13.0	0.00e+00	0	26	0	55574528	74	5160
2026-01-13 22:10:32.78	25.23	6.11	-54.1	-57.2	13.0	0.00e+00	0	26	0	57671680	74	5114
2026-01-13 22:10:33.78	25.33	6.17	-54.1	-57.2	13.0	0.00e+00	0	26	0	59768832	74	5113
2026-01-13 22:10:34.79	25.43	6.23	-54.1	-57.1	13.1	0.00e+00	0	26	0	61865984	74	5077
2026-01-13 22:10:35.78	25.53	6.28	-54.1	-57.1	13.1	0.00e+00	0	26	0	63963136	74	5084
2026-01-13 22:10:36.77	25.63	6.34	-54.0	-57.0	13.2	0.00e+00	0	26	0	65011712	74	5031
2026-01-13 22:10:37.78	25.73	6.40	-53.9	-56.9	13.3	0.00e+00	0	26	0	67108864	74	4937
2026-01-13 22:10:38.78	25.83	6.45	-53.9	-56.9	13.3	0.00e+00	0	26	0	69206016	74	4929
2026-01-13 22:10:39.78	25.94	6.51	-53.9	-56.8	13.3	0.00e+00	0	26	0	71303168	74	4923
2026-01-13 22:10:40.78	26.04	6.57	-54.0	-57.0	13.2	0.00e+00	0	26	0	73400320	74	5011
2026-01-13 22:10:41.78	26.14	6.63	-53.9	-56.8	13.3	0.00e+00	0	26	0	74448896	74	4906
2026-01-13 22:10:42.78	26.25	6.68	-54.0	-57.0	13.2	0.00e+00	0	26	0	76546048	74	5030
2026-01-13 22:10:43.78	26.35	6.74	-54.1	-57.1	13.1	0.00e+00	0	26	0	78643200	74	5071
2026-01-13 22:10:44.78	26.46	6.80	-54.1	-57.1	13.1	0.00e+00	0	26	0	80740352	74	5075
2026-01-13 22:10:45.77	26.56	6.86	-54.1	-57.1	13.1	0.00e+00	0	26	0	81788928	74	5087
2026-01-13 22:10:46.76	26.67	6.91	-54.0	-57.0	13.2	0.00e+00	0	26	0	83886080	74	5015
2026-01-13 22:10:47.76	26.77	6.97	-54.0	-57.0	13.2	0.00e+00	0	26	0	85983232	74	5006
2026-01-13 22:10:48.76	26.88	7.03	-54.0	-57.1	13.2	0.00e+00	0	26	0	88080384	74	5043
2026-01-13 22:10:49.77	26.99	7.09	-54.0	-57.0	13.2	0.00e+00	0	26	0	90177536	74	4995
2026-01-13 22:10:50.76	27.09	7.14	-54.0	-57.0	13.2	0.00e+00	0	26	0	91226112	74	4998
2026-01-13 22:10:51.76	27.20	7.20	-54.0	-57.0	13.2	0.00e+00	0	26	0	93323264	74	4984
2026-01-13 22:10:52.76	27.31	7.26	-54.0	-57.0	13.2	0.00e+00	0	26	0	95420416	74	5011
2026-01-13 22:10:53.76	27.42	7.32	-54.0	-57.0	13.2	0.00e+00	0	26	0	97517568	74	4999
2026-01-13 22:10:54.77	27.53	7.38	-54.0	-57.0	13.2	0.00e+00	0	26	0	99614720	74	5004
2026-01-13 22:10:55.76	27.63	7.43	-54.0	-56.9	13.2	0.00e+00	0	26	0	100663296	74	4978
2026-01-13 22:10:56.76	27.74	7.49	-53.9	-56.8	13.3	0.00e+00	0	26	0	102760448	74	4903
2026-01-13 22:10:57.77	27.85	7.55	-54.1	-57.1	13.2	0.00e+00	0	26	0	104857600	74	5059
2026-01-13 22:10:58.77	27.97	7.61	-53.9	-56.8	13.3	0.00e+00	0	26	0	106954752	74	4923
2026-01-13 22:10:59.77	28.08	7.67	-54.0	-56.9	13.3	0.00e+00	0	26	0	108003328	74	4955
2026-01-13 22:11:00.77	28.19	7.73	-53.8	-56.5	13.5	0.00e+00	0	27	0	110100480	74	4757
2026-01-13 22:11:01.77	28.30	7.78	-53.5	-56.2	13.6	0.00e+00	0	26	0	112197632	73	4828
2026-01-13 22:11:02.78	28.41	7.84	-53.5	-56.2	13.6	0.00e+00	0	26	0	114294784	73	4832
2026-01-13 22:11:03.77	28.52	7.90	-53.5	-56.1	13.7	0.00e+00	0	26	0	116391936	73	4773
2026-01-13 22:11:04.77	28.64	7.96	-53.2	-55.8	13.8	0.00e+00	0	26	0	117440512	73	4601
2026-01-13 22:11:05.75	28.75	8.02	-53.2	-55.7	13.7	0.00e+00	0	26	0	119537664	72	4852
2026-01-13 22:11:06.75	28.86	8.08	-53.1	-55.6	13.8	0.00e+00	0	26	0	121634816	72	4767
2026-01-13 22:11:07.75	28.98	8.13	-53.1	-55.5	13.8	0.00e+00	0	26	0	123731968	72	4736
2026-01-13 22:11:08.75	29.09	8.19	-53.1	-55.5	13.8	0.00e+00	0	27	0	125829120	72	4728
2026-01-13 22:11:09.75	29.21	8.25	-53.1	-55.5	13.8	0.00e+00	0	27	0	126877696	72	4759
2026-01-13 22:11:10.74	29.32	8.31	-53.1	-55.4	13.9	0.00e+00	0	26	0	128974848	72	4702
2026-01-13 22:11:11.74	29.44	8.37	-53.0	-55.4	13.9	0.00e+00	0	26	0	131072000	72	4698
2026-01-13 22:11:12.75	29.55	8.43	-53.1	-55.5	13.8	0.00e+00	0	26	0	133169152	72	4737
2026-01-13 22:11:13.74	29.67	8.49	-53.1	-55.5	13.9	0.00e+00	0	26	0	134217728	72	4752
2026-01-13 22:11:14.74	29.79	8.54	-53.0	-55.4	13.9	0.00e+00	0	26	0	136314880	72	4674
2026-01-13 22:11:15.74	29.91	8.60	-53.1	-55.5	13.8	0.00e+00	0	26	0	138412032	72	4742
2026-01-13 22:11:16.74	30.02	8.66	-53.1	-55.5	13.9	0.00e+00	0	26	0	140509184	72	4749
2026-01-13 22:11:17.75	30.14	8.72	-53.1	-55.5	13.9	0.00e+00	0	26	0	142606336	72	4710
2026-01-13 22:11:18.74	30.26	8.78	-53.2	-55.6	13.8	0.00e+00	0	26	0	143654912	72	4792
2026-01-13 22:11:19.75	30.38	8.84	-53.1	-55.5	13.9	0.00e+00	0	26	0	145752064	72	4754
2026-01-13 22:11:20.75	30.50	8.90	-53.1	-55.5	13.9	0.00e+00	0	26	0	147849216	72	4749
2026-01-13 22:11:21.75	30.62	8.96	-53.2	-55.7	13.8	0.00e+00	0	26	0	149946368	72	4862
2026-01-13 22:11:22.75	30.74	9.02	-53.2	-55.7	13.8	0.00e+00	0	26	0	152043520	72	4823
2026-01-13 22:11:23.75	30.87	9.08	-53.2	-55.6	13.8	0.00e+00	0	27	0	153092096	72	4793
2026-01-13 22:11:24.75	30.99	9.14	-53.3	-55.8	13.7	0.00e+00	0	26	0	155189248	72	4872
2026-01-13 22:11:25.75	31.11	9.20	-53.1	-55.6	13.8	0.00e+00	0	26	0	157286400	72	4775
2026-01-13 22:11:26.74	31.23	9.25	-53.2	-55.7	13.8	0.00e+00	0	27	0	159383552	72	4845
2026-01-13 22:11:27.74	31.36	9.31	-53.2	-55.7	13.8	0.00e+00	0	26	0	160432128	72	4827
2026-01-13 22:11:28.73	31.48	9.37	-53.2	-55.6	13.8	0.00e+00	0	26	0	162529280	72	4809
2026-01-13 22:11:29.74	31.60	9.43	-53.3	-55.8	13.7	0.00e+00	0	26	0	164626432	72	4874
2026-01-13 22:11:30.73	31.73	9.49	-53.2	-55.6	13.8	0.00e+00	0	26	0	166723584	72	4813
2026-01-13 22:11:31.74	31.86	9.55	-53.2	-55.7	13.8	0.00e+00	0	26	0	168820736	72	4834
2026-01-13 22:11:32.74	31.98	9.61	-53.2	-55.7	13.8	0.00e+00	0	27	0	169869312	72	4822
2026-01-13 22:11:33.74	32.11	9.67	-53.3	-55.7	13.8	0.00e+00	0	27	0	171966464	72	4866
2026-01-13 22:11:34.74	32.23	9.73	-53.3	-55.8	13.7	0.00e+00	0	26	0	174063616	72	4888
2026-01-13 22:11:35.74	32.36	9.79	-53.2	-55.7	13.8	0.00e+00	0	26	0	176160768	72	4829
2026-01-13 22:11:36.73	32.49	9.85	-53.5	-56.1	13.6	0.00e+00	0	26	0	178257920	72	5060
2026-01-13 22:11:37.73	32.62	9.91	-53.4	-55.9	13.7	0.00e+00	0	26	0	179306496	72	4960
2026-01-13 22:11:38.73	32.75	9.97	-53.3	-55.9	13.7	0.00e+00	0	26	0	181403648	72	4941
2026-01-13 22:11:39.73	32.88	10.03	-53.4	-55.9	13.7	0.00e+00	0	26	0	183500800	72	4975
2026-01-13 22:11:40.73	33.01	10.09	-53.4	-55.9	13.7	0.00e+00	0	26	0	185597952	72	4948
2026-01-13 22:11:41.73	33.14	10.15	-53.3	-55.7	13.8	0.00e+00	0	27	0	186646528	72	4870
2026-01-13 22:11:42.72	33.27	10.21	-53.3	-55.8	13.8	0.00e+00	0	26	0	188743680	72	4883
2026-01-13 22:11:43.72	33.40	10.27	-53.3	-55.8	13.8	0.00e+00	0	26	0	190840832	72	4885
2026-01-13 22:11:44.72	33.53	10.33	-53.2	-55.6	13.9	0.00e+00	0	26	0	192937984	72	4761
2026-01-13 22:11:45.73	33.66	10.39	-53.1	-55.6	13.9	0.00e+00	0	26	0	195035136	72	4762
2026-01-13 22:11:46.73	33.80	10.45	-53.1	-55.5	13.9	0.00e+00	0	26	0	196083712	72	4717
2026-01-13 22:11:47.73	33.93	10.51	-53.2	-55.6	13.9	0.00e+00	0	26	0	198180864	72	4767
2026-01-13 22:11:48.73	34.06	10.57	-53.0	-55.4	14.0	0.00e+00	0	26	0	200278016	72	4656
2026-01-13 22:11:49.74	34.20	10.63	-53.1	-55.4	14.0	0.00e+00	0	26	0	202375168	72	4681
2026-01-13 22:11:50.74	34.33	10.69	-53.0	-55.4	14.0	0.00e+00	0	26	0	204472320	72	4663
2026-01-13 22:11:51.73	34.47	10.74	-53.0	-55.4	14.0	0.00e+00	0	26	0	205520896	72	4652
2026-01-13 22:11:52.74	34.61	10.81	-53.1	-55.5	13.9	0.00e+00	0	26	0	207618048	72	4746
2026-01-13 22:11:53.74	34.74	10.87	-53.0	-55.3	14.0	0.00e+00	0	26	0	209715200	72	4644
2026-01-13 22:11:54.73	34.88	10.92	-53.0	-55.4	14.0	0.00e+00	0	26	0	211812352	72	4676
2026-01-13 22:11:55.73	35.02	10.98	-53.1	-55.4	13.9	0.00e+00	0	27	0	213909504	72	4683
2026-01-13 22:11:56.73	35.16	11.04	-53.0	-55.3	14.0	0.00e+00	0	26	0	214958080	72	4643
2026-01-13 22:11:57.73	35.29	11.10	-53.0	-55.3	14.0	0.00e+00	0	27	0	217055232	72	4636
2026-01-13 22:11:58.73	35.43	11.16	-53.0	-55.4	14.0	0.00e+00	0	26	0	219152384	72	4667
2026-01-13 22:11:59.74	35.58	11.22	-52.9	-55.3	14.0	0.00e+00	0	26	0	221249536	72	4605
2026-01-13 22:12:00.73	35.71	11.28	-53.0	-55.3	14.0	0.00e+00	0	27	0	222298112	72	4647
2026-01-13 22:12:01.73	35.86	11.34	-52.8	-55.1	14.1	0.00e+00	0	26	0	224395264	72	4499
2026-01-13 22:12:02.73	36.00	11.40	-52.8	-55.1	14.1	0.00e+00	0	27	0	226492416	72	4518
2026-01-13 22:12:03.73	36.14	11.46	-52.7	-55.0	14.2	0.00e+00	0	27	0	228589568	72	4455
2026-01-13 22:12:04.73	36.28	11.52	-52.7	-55.0	14.1	0.00e+00	0	27	0	230686720	71	4724
2026-01-13 22:12:05.73	36.43	11.58	-52.8	-55.1	14.0	0.00e+00	0	27	0	231735296	71	4785
2026-01-13 22:12:06.74	36.57	11.64	-52.7	-54.9	14.1	0.00e+00	0	26	0	233832448	71	4691
2026-01-13 22:12:07.74	36.72	11.70	-52.7	-55.0	14.1	0.00e+00	0	27	0	235929600	71	4726
2026-01-13 22:12:08.74	36.86	11.76	-52.7	-55.0	14.0	0.00e+00	0	26	0	238026752	71	4733
2026-01-13 22:12:09.74	37.01	11.82	-52.9	-55.2	14.0	0.00e+00	0	27	0	240123904	71	4857
2026-01-13 22:12:10.74	37.15	11.88	-52.8	-55.1	14.0	0.00e+00	0	26	0	241172480	71	4806
2026-01-13 22:12:11.74	37.30	11.94	-53.0	-55.4	13.9	0.00e+00	0	26	0	243269632	71	4930
2026-01-13 22:12:12.74	37.45	12.00	-53.1	-55.5	13.8	0.00e+00	0	27	0	245366784	71	5000
2026-01-13 22:12:13.74	37.59	12.06	-53.1	-55.6	13.8	0.00e+00	0	26	0	247463936	71	5063
2026-01-13 22:12:14.74	37.74	12.12	-53.1	-55.5	13.8	0.00e+00	0	27	0	249561088	71	5023
2026-01-13 22:12:15.74	37.89	12.18	-53.0	-55.4	13.9	0.00e+00	0	26	0	250609664	71	4932
2026-01-13 22:12:16.74	38.04	12.24	-53.1	-55.5	13.8	0.00e+00	0	26	0	252706816	71	5012
2026-01-13 22:12:17.73	38.19	12.30	-53.0	-55.4	13.9	0.00e+00	0	27	0	254803968	71	4965
2026-01-13 22:12:18.74	38.34	12.36	-53.1	-55.5	13.9	0.00e+00	0	26	0	256901120	71	5024
2026-01-13 22:12:19.73	38.49	12.42	-52.8	-55.1	14.0	0.00e+00	0	27	0	257949696	71	4791
2026-01-13 22:12:20.73	38.65	12.48	-52.8	-55.1	14.1	0.00e+00	0	27	0	260046848	71	4766
2026-01-13 22:12:21.73	38.80	12.54	-52.7	-55.0	14.1	0.00e+00	0	27	0	262144000	71	4722
2026-01-13 22:12:22.73	38.95	12.60	-52.6	-54.9	14.1	0.00e+00	0	26	0	264241152	71	4686
2026-01-13 22:12:23.73	39.10	12.66	-52.7	-55.0	14.1	0.00e+00	0	27	0	266338304	71	4719
2026-01-13 22:12:24.74	39.26	12.72	-52.8	-55.1	14.0	0.00e+00	0	26	0	267386880	71	4801
2026-01-13 22:12:25.74	39.42	12.77	-52.8	-55.2	14.0	0.00e+00	0	26	0	269484032	71	4852
2026-01-13 22:12:26.74	39.57	12.83	-52.9	-55.3	13.9	0.00e+00	0	27	0	271581184	71	4888
2026-01-13 22:12:27.73	39.73	12.89	-52.8	-55.2	14.0	0.00e+00	0	26	0	273678336	71	4865
2026-01-13 22:12:28.73	39.88	12.95	-52.8	-55.2	13.9	0.00e+00	0	27	0	275775488	71	4859
2026-01-13 22:12:29.73	40.04	13.01	-52.7	-55.0	14.1	0.00e+00	0	26	0	276824064	71	4746
2026-01-13 22:12:30.73	40.20	13.07	-52.6	-54.9	14.1	0.00e+00	0	26	0	278921216	71	4667
2026-01-13 22:12:31.73	40.36	13.13	-52.4	-54.7	14.2	0.00e+00	0	27	0	281018368	71	4556
2026-01-13 22:12:32.73	40.52	13.19	-52.3	-54.5	14.3	0.00e+00	0	27	0	283115520	71	4489
2026-01-13 22:12:33.73	40.68	13.25	-52.4	-54.6	14.3	0.00e+00	0	27	0	284164096	71	4503
2026-01-13 22:12:34.74	40.84	13.31	-52.3	-54.4	14.3	0.00e+00	0	27	0	286261248	71	4440
2026-01-13 22:12:35.73	41.00	13.36	-52.3	-54.5	14.3	0.00e+00	0	26	0	288358400	71	4476
2026-01-13 22:12:36.74	41.16	13.42	-52.5	-54.8	14.2	0.00e+00	0	26	0	290455552	71	4627
2026-01-13 22:12:37.74	41.32	13.48	-52.5	-54.8	14.2	0.00e+00	0	27	0	292552704	71	4622
2026-01-13 22:12:38.74	41.49	13.54	-52.7	-55.1	14.0	0.00e+00	0	27	0	293601280	71	4787
2026-01-13 22:12:39.74	41.65	13.60	-52.8	-55.3	14.0	0.00e+00	0	27	0	295698432	71	4877
2026-01-13 22:12:40.75	41.82	13.66	-52.9	-55.3	13.9	0.00e+00	0	27	0	297795584	71	4923
2026-01-13 22:12:41.75	41.98	13.72	-52.7	-55.1	14.0	0.00e+00	0	27	0	299892736	71	4782
2026-01-13 22:12:42.75	42.15	13.77	-52.7	-55.1	14.0	0.00e+00	0	27	0	301989888	71	4789
2026-01-13 22:12:43.75	42.31	13.83	-52.6	-54.9	14.1	0.00e+00	0	27	0	303038464	71	4664
2026-01-13 22:12:44.75	42.48	13.89	-52.5	-54.8	14.2	0.00e+00	0	26	0	305135616	71	4605
2026-01-13 22:12:45.76	42.65	13.95	-52.5	-54.8	14.2	0.00e+00	0	26	0	307232768	71	4621
2026-01-13 22:12:46.76	42.82	14.01	-52.3	-54.6	14.3	0.00e+00	0	26	0	309329920	71	4518
2026-01-13 22:12:47.76	42.99	14.07	-52.3	-54.5	14.3	0.00e+00	0	27	0	311427072	71	4490
2026-01-13 22:12:48.76	43.16	14.12	-52.3	-54.6	14.3	0.00e+00	0	27	0	312475648	71	4511
2026-01-13 22:12:49.77	43.33	14.18	-52.2	-54.5	14.3	0.00e+00	0	27	0	314572800	71	4465
2026-01-13 22:12:50.76	43.50	14.24	-52.2	-54.5	14.2	0.00e+00	0	27	0	316669952	70	4746
2026-01-13 22:12:51.77	43.67	14.30	-52.3	-54.6	14.2	0.00e+00	0	27	0	318767104	70	4777
2026-01-13 22:12:52.76	43.84	14.35	-52.2	-54.5	14.2	0.00e+00	0	27	0	320864256	70	4743
2026-01-13 22:12:53.76	44.01	14.41	-52.3	-54.5	14.2	0.00e+00	0	27	0	321912832	70	4740
2026-01-13 22:12:54.76	44.19	14.47	-52.4	-54.7	14.1	0.00e+00	0	27	0	324009984	70	4828
2026-01-13 22:12:55.76	44.36	14.53	-52.3	-54.6	14.2	0.00e+00	0	27	0	326107136	70	4769
2026-01-13 22:12:56.76	44.53	14.58	-52.3	-54.7	14.1	0.00e+00	0	27	0	328204288	70	4825
2026-01-13 22:12:57.76	44.71	14.64	-52.4	-54.8	14.1	0.00e+00	0	26	0	329252864	70	4891
2026-01-13 22:12:58.77	44.89	14.70	-52.3	-54.7	14.1	0.00e+00	0	27	0	331350016	70	4832
2026-01-13 22:12:59.76	45.06	14.75	-52.4	-54.8	14.1	0.00e+00	0	27	0	333447168	70	4908
2026-01-13 22:13:00.77	45.24	14.81	-52.5	-54.9	14.0	0.00e+00	0	27	0	335544320	70	4932
2026-01-13 22:13:01.78	45.42	14.87	-52.5	-54.9	14.0	0.00e+00	0	27	0	337641472	70	4952
2026-01-13 22:13:02.78	45.60	14.92	-52.4	-54.8	14.0	0.00e+00	0	27	0	338690048	70	4919
2026-01-13 22:13:03.78	45.78	14.98	-52.4	-54.8	14.1	0.00e+00	0	27	0	340787200	70	4879
2026-01-13 22:13:04.78	45.96	15.03	-52.4	-54.7	14.1	0.00e+00	0	27	0	342884352	70	4854
2026-01-13 22:13:05.78	46.14	15.09	-52.4	-54.7	14.1	0.00e+00	0	27	0	344981504	70	4840
2026-01-13 22:13:06.77	46.32	15.15	-52.4	-54.7	14.1	0.00e+00	0	27	0	347078656	70	4859
2026-01-13 22:13:07.78	46.50	15.20	-52.2	-54.5	14.2	0.00e+00	0	27	0	348127232	70	4739
2026-01-13 22:13:08.78	46.68	15.26	-52.3	-54.7	14.1	0.00e+00	0	27	0	350224384	70	4832
2026-01-13 22:13:09.79	46.87	15.31	-52.5	-54.9	14.0	0.00e+00	0	27	0	352321536	70	4976
2026-01-13 22:13:10.79	47.05	15.37	-52.6	-55.0	13.9	0.00e+00	0	27	0	354418688	70	5040
2026-01-13 22:13:11.79	47.24	15.42	-52.7	-55.3	13.8	0.00e+00	0	27	0	356515840	70	5163
2026-01-13 22:13:12.78	47.42	15.48	-52.7	-55.2	13.8	0.00e+00	0	27	0	357564416	70	5101
2026-01-13 22:13:13.77	47.60	15.53	-52.7	-55.1	13.8	0.00e+00	0	27	0	359661568	70	5098
2026-01-13 22:13:14.78	47.79	15.59	-52.7	-55.2	13.9	0.00e+00	0	27	0	361758720	70	5107
2026-01-13 22:13:15.78	47.98	15.64	-52.6	-55.0	13.9	0.00e+00	0	27	0	363855872	70	5005
2026-01-13 22:13:16.78	48.17	15.70	-52.6	-55.1	13.9	0.00e+00	0	27	0	364904448	70	5049
2026-01-13 22:13:17.78	48.35	15.75	-52.6	-55.1	13.9	0.00e+00	0	27	0	367001600	70	5044
2026-01-13 22:13:18.77	48.54	15.80	-52.6	-55.1	13.9	0.00e+00	0	27	0	369098752	70	5050
2026-01-13 22:13:19.77	48.73	15.86	-52.8	-55.4	13.7	0.00e+00	0	27	0	371195904	70	5243
2026-01-13 22:13:20.76	48.92	15.91	-53.0	-55.6	13.8	0.00e+00	0	27	0	373293056	71	5082
2026-01-13 22:13:21.77	49.11	15.96	-53.0	-55.6	13.8	0.00e+00	0	27	0	374341632	71	5069
2026-01-13 22:13:22.77	49.30	16.02	-53.0	-55.6	13.8	0.00e+00	0	27	0	376438784	71	5057
2026-01-13 22:13:23.75	49.49	16.07	-52.9	-55.5	13.8	0.00e+00	0	27	0	378535936	71	5007
2026-01-13 22:13:24.75	49.69	16.12	-52.9	-55.5	13.8	0.00e+00	0	27	0	380633088	71	4988
2026-01-13 22:13:25.75	49.88	16.18	-53.0	-55.5	13.8	0.00e+00	0	26	0	382730240	71	5041
2026-01-13 22:13:26.75	50.07	16.23	-53.0	-55.5	13.8	0.00e+00	0	27	0	383778816	71	5003
2026-01-13 22:13:27.75	50.27	16.28	-52.9	-55.4	13.9	0.00e+00	0	27	0	385875968	71	4954
2026-01-13 22:13:28.74	50.46	16.33	-53.0	-55.5	13.8	0.00e+00	0	26	0	387973120	71	5010
2026-01-13 22:13:29.74	50.66	16.38	-53.0	-55.6	13.8	0.00e+00	0	27	0	390070272	71	5057
2026-01-13 22:13:30.74	50.86	16.44	-53.1	-55.7	13.7	0.00e+00	0	27	0	391118848	71	5123
2026-01-13 22:13:31.75	51.06	16.49	-53.0	-55.5	13.8	0.00e+00	0	27	0	393216000	71	5024
2026-01-13 22:13:32.74	51.25	16.54	-53.0	-55.6	13.8	0.00e+00	0	27	0	395313152	71	5052
2026-01-13 22:13:33.74	51.45	16.59	-52.9	-55.4	13.9	0.00e+00	0	27	0	397410304	71	4966
2026-01-13 22:13:34.74	51.65	16.64	-53.0	-55.6	13.8	0.00e+00	0	27	0	399507456	71	5069
2026-01-13 22:13:35.75	51.85	16.69	-53.1	-55.7	13.7	0.00e+00	0	27	0	400556032	71	5151
2026-01-13 22:13:36.76	52.06	16.74	-53.1	-55.8	13.7	0.00e+00	0	27	0	402653184	71	5164
2026-01-13 22:13:37.76	52.26	16.79	-53.3	-55.9	13.6	0.00e+00	0	27	0	404750336	71	5271
2026-01-13 22:13:38.75	52.46	16.84	-53.2	-55.8	13.7	0.00e+00	0	27	0	406847488	71	5174
2026-01-13 22:13:39.75	52.66	16.89	-53.3	-55.9	13.6	0.00e+00	0	27	0	408944640	71	5262
2026-01-13 22:13:40.75	52.86	16.94	-53.1	-55.7	13.7	0.00e+00	0	27	0	409993216	71	5134
2026-01-13 22:13:41.74	53.07	16.99	-53.1	-55.6	13.8	0.00e+00	0	27	0	412090368	71	5072
2026-01-13 22:13:42.74	53.27	17.04	-53.2	-55.8	13.7	0.00e+00	0	27	0	414187520	71	5213
2026-01-13 22:13:43.74	53.48	17.09	-53.2	-55.9	13.6	0.00e+00	0	27	0	416284672	71	5223
2026-01-13 22:13:44.73	53.68	17.13	-53.4	-56.1	13.7	0.00e+00	0	27	0	417333248	72	5053
2026-01-13 22:13:45.74	53.89	17.18	-53.6	-56.5	13.4	0.00e+00	0	27	0	419430400	72	5306
2026-01-13 22:13:46.73	54.09	17.23	-53.7	-56.6	13.4	0.00e+00	0	27	0	421527552	72	5367
2026-01-13 22:13:47.73	54.30	17.28	-53.6	-56.5	13.4	0.00e+00	0	27	0	423624704	72	5308
2026-01-13 22:13:48.73	54.51	17.33	-53.5	-56.2	13.6	0.00e+00	0	27	0	425721856	72	5142
2026-01-13 22:13:49.72	54.72	17.37	-53.3	-55.9	13.7	0.00e+00	0	27	0	426770432	72	4983
2026-01-13 22:13:50.72	54.93	17.42	-53.3	-55.8	13.8	0.00e+00	0	27	0	428867584	72	4923
2026-01-13 22:13:51.72	55.14	17.47	-53.3	-55.9	13.8	0.00e+00	0	27	0	430964736	72	4932
2026-01-13 22:13:52.72	55.35	17.51	-53.1	-55.6	13.9	0.00e+00	0	27	0	433061888	72	4762
2026-01-13 22:13:53.72	55.56	17.56	-53.3	-55.9	13.8	0.00e+00	0	27	0	435159040	72	4940
2026-01-13 22:13:54.71	55.77	17.60	-53.4	-56.0	13.7	0.00e+00	0	27	0	436207616	72	5027
2026-01-13 22:13:55.71	55.99	17.65	-53.4	-56.0	13.7	0.00e+00	0	27	0	438304768	72	5026
2026-01-13 22:13:56.71	56.20	17.69	-53.2	-55.7	13.8	0.00e+00	0	27	0	440401920	72	4858
2026-01-13 22:13:57.70	56.41	17.74	-53.1	-55.5	13.9	0.00e+00	0	27	0	442499072	72	4737
2026-01-13 22:13:58.71	56.63	17.78	-53.3	-55.7	13.8	0.00e+00	0	27	0	443547648	72	4849
2026-01-13 22:13:59.70	56.84	17.83	-53.1	-55.5	14.0	0.00e+00	0	27	0	445644800	72	4709
2026-01-13 22:14:00.69	57.06	17.87	-53.0	-55.3	14.0	0.00e+00	0	27	0	447741952	72	4641
2026-01-13 22:14:01.70	57.28	17.91	-53.1	-55.6	13.9	0.00e+00	0	27	0	449839104	72	4766
2026-01-13 22:14:02.69	57.49	17.96	-53.1	-55.5	14.0	0.00e+00	0	27	0	451936256	72	4719
2026-01-13 22:14:03.69	57.71	18.00	-53.1	-55.6	13.9	0.00e+00	0	27	0	452984832	72	4761
2026-01-13 22:14:04.69	57.93	18.04	-53.2	-55.6	13.9	0.00e+00	0	27	0	455081984	72	4796
2026-01-13 22:14:05.69	58.15	18.09	-53.2	-55.6	13.9	0.00e+00	0	27	0	457179136	72	4774
2026-01-13 22:14:06.68	58.36	18.13	-52.9	-55.2	14.1	0.00e+00	0	26	0	459276288	72	4590
2026-01-13 22:14:07.68	58.59	18.17	-52.7	-54.9	14.3	0.00e+00	0	27	0	460324864	72	4419
2026-01-13 22:14:08.68	58.81	18.21	-52.5	-54.6	14.3	0.00e+00	0	27	0	462422016	71	4533
2026-01-13 22:14:09.68	59.03	18.25	-52.3	-54.3	14.4	0.00e+00	0	27	0	464519168	71	4385
2026-01-13 22:14:10.68	59.25	18.29	-52.4	-54.5	14.3	0.00e+00	0	27	0	466616320	71	4464
2026-01-13 22:14:11.68	59.47	18.33	-52.6	-54.7	14.2	0.00e+00	0	27	0	468713472	71	4594
2026-01-13 22:14:12.68	59.70	18.37	-52.8	-55.0	14.1	0.00e+00	0	27	0	469762048	71	4727
2026-01-13 22:14:13.68	59.92	18.41	-52.9	-55.1	14.1	0.00e+00	0	27	0	471859200	71	4809
2026-01-13 22:14:14.67	60.14	18.45	-52.8	-55.1	14.1	0.00e+00	0	27	0	473956352	71	4771
2026-01-13 22:14:15.67	60.37	18.49	-52.8	-55.0	14.1	0.00e+00	0	27	0	476053504	71	4759
2026-01-13 22:14:16.67	60.59	18.53	-52.5	-54.6	14.3	0.00e+00	0	27	0	478150656	71	4535
2026-01-13 22:14:17.66	60.82	18.56	-52.5	-54.5	14.3	0.00e+00	0	27	0	479199232	71	4492
2026-01-13 22:14:18.66	61.04	18.60	-52.3	-54.4	14.4	0.00e+00	0	27	0	481296384	71	4406
2026-01-13 22:14:19.65	61.27	18.64	-52.4	-54.5	14.4	0.00e+00	0	27	0	483393536	71	4451
2026-01-13 22:14:20.66	61.50	18.68	-52.3	-54.3	14.5	0.00e+00	0	27	0	485490688	71	4373
2026-01-13 22:14:21.66	61.73	18.71	-52.2	-54.2	14.5	0.00e+00	0	27	0	487587840	71	4337
2026-01-13 22:14:22.65	61.95	18.75	-52.2	-54.2	14.4	0.00e+00	0	27	0	488636416	70	4549
2026-01-13 22:14:23.64	62.18	18.78	-51.9	-53.8	14.5	0.00e+00	0	27	0	490733568	70	4378
2026-01-13 22:14:24.64	62.41	18.82	-51.8	-53.6	14.6	0.00e+00	0	27	0	492830720	70	4277
2026-01-13 22:14:25.64	62.64	18.86	-51.6	-53.4	14.6	0.00e+00	0	27	0	494927872	69	4437
2026-01-13 22:14:26.64	62.87	18.89	-51.9	-53.8	14.4	0.00e+00	0	27	0	495976448	69	4639
2026-01-13 22:14:27.64	63.10	18.92	-51.8	-53.7	14.4	0.00e+00	0	27	0	498073600	69	4591
2026-01-13 22:14:28.63	63.33	18.96	-52.0	-53.9	14.4	0.00e+00	0	27	0	500170752	69	4697
2026-01-13 22:14:29.63	63.57	18.99	-52.1	-54.1	14.3	0.00e+00	0	27	0	502267904	69	4771
2026-01-13 22:14:30.62	63.80	19.02	-52.2	-54.2	14.3	0.00e+00	0	27	0	504365056	69	4852
2026-01-13 22:14:31.62	64.03	19.06	-52.0	-54.0	14.3	0.00e+00	0	27	0	505413632	69	4744
2026-01-13 22:14:32.61	64.26	19.09	-52.1	-54.0	14.3	0.00e+00	0	27	0	507510784	69	4757
2026-01-13 22:14:33.62	64.50	19.12	-52.0	-53.9	14.4	0.00e+00	0	27	0	509607936	69	4700
2026-01-13 22:14:34.61	64.73	19.15	-52.1	-54.1	14.3	0.00e+00	0	27	0	511705088	69	4761
2026-01-13 22:14:35.61	64.97	19.18	-52.1	-54.1	14.3	0.00e+00	0	27	0	512753664	69	4773
2026-01-13 22:14:36.61	65.20	19.21	-52.3	-54.3	14.2	0.00e+00	0	27	0	514850816	69	4923
2026-01-13 22:14:37.61	65.44	19.24	-52.2	-54.2	14.2	0.00e+00	0	27	0	516947968	69	4870
2026-01-13 22:14:38.60	65.67	19.27	-52.1	-54.1	14.3	0.00e+00	0	27	0	519045120	69	4761
2026-01-13 22:14:39.59	65.91	19.30	-52.1	-54.1	14.3	0.00e+00	0	27	0	521142272	69	4761
2026-01-13 22:14:40.59	66.15	19.33	-52.0	-53.9	14.4	0.00e+00	0	27	0	522190848	69	4681
2026-01-13 22:14:41.58	66.38	19.36	-52.0	-53.9	14.4	0.00e+00	0	27	0	524288000	69	4689
2026-01-13 22:14:42.58	66.62	19.39	-52.1	-54.1	14.3	0.00e+00	0	27	0	526385152	69	4772
2026-01-13 22:14:43.58	66.86	19.41	-52.3	-54.3	14.2	0.00e+00	0	27	0	528482304	69	4905
2026-01-13 22:14:44.56	67.09	19.44	-52.1	-54.1	14.3	0.00e+00	0	27	0	529530880	69	4785
2026-01-13 22:14:45.56	67.33	19.47	-52.0	-53.9	14.4	0.00e+00	0	27	0	531628032	69	4705
2026-01-13 22:14:46.57	67.58	19.49	-51.9	-53.8	14.4	0.00e+00	0	27	0	533725184	69	4625
2026-01-13 22:14:47.57	67.82	19.52	-51.9	-53.8	14.4	0.00e+00	0	27	0	535822336	69	4623
2026-01-13 22:14:48.57	68.06	19.54	-52.0	-53.9	14.4	0.00e+00	0	27	0	537919488	69	4682
2026-01-13 22:14:49.56	68.30	19.57	-52.2	-54.2	14.1	0.00e+00	0	27	0	538968064	69	4851
2026-01-13 22:14:50.56	68.54	19.59	-52.5	-54.6	14.2	0.00e+00	0	27	0	541065216	70	4782
2026-01-13 22:14:51.55	68.78	19.61	-52.8	-55.0	14.0	0.00e+00	0	27	0	543162368	70	5016
2026-01-13 22:14:52.55	69.02	19.64	-52.8	-55.0	14.0	0.00e+00	0	27	0	545259520	70	4993
2026-01-13 22:14:53.55	69.26	19.66	-52.6	-54.7	14.1	0.00e+00	0	27	0	547356672	70	4865
2026-01-13 22:14:54.54	69.50	19.68	-52.7	-54.9	14.1	0.00e+00	0	27	0	548405248	70	4947
2026-01-13 22:14:55.54	69.75	19.70	-52.6	-54.8	14.1	0.00e+00	0	27	0	550502400	70	4890
2026-01-13 22:14:56.55	69.99	19.72	-52.7	-54.9	14.0	0.00e+00	0	27	0	552599552	70	4970
2026-01-13 22:14:57.54	70.24	19.75	-52.9	-55.1	13.9	0.00e+00	0	27	0	554696704	70	5089
2026-01-13 22:14:58.55	70.48	19.77	-53.1	-55.4	13.9	0.00e+00	0	27	0	555745280	71	4943
2026-01-13 22:14:59.54	70.73	19.79	-53.1	-55.4	13.9	0.00e+00	0	27	0	557842432	71	4972
2026-01-13 22:15:00.54	70.97	19.80	-53.1	-55.4	13.9	0.00e+00	0	27	0	559939584	71	4978
2026-01-13 22:15:01.53	71.21	19.82	-52.9	-55.1	14.1	0.00e+00	0	27	0	562036736	71	4779
2026-01-13 22:15:02.53	71.46	19.84	-52.6	-54.7	14.3	0.00e+00	0	27	0	564133888	71	4589
2026-01-13 22:15:03.52	71.70	19.86	-52.5	-54.6	14.3	0.00e+00	0	27	0	565182464	71	4505
2026-01-13 22:15:04.51	71.95	19.88	-52.4	-54.5	14.3	0.00e+00	0	27	0	567279616	71	4464
2026-01-13 22:15:05.51	72.19	19.89	-52.5	-54.6	14.3	0.00e+00	0	27	0	569376768	71	4503
2026-01-13 22:15:06.51	72.44	19.91	-52.4	-54.4	14.4	0.00e+00	0	27	0	571473920	71	4420
2026-01-13 22:15:07.51	72.69	19.92	-52.4	-54.4	14.4	0.00e+00	0	27	0	572522496	71	4432
2026-01-13 22:15:08.50	72.93	19.94	-52.4	-54.5	14.4	0.00e+00	0	27	0	574619648	71	4471
2026-01-13 22:15:09.50	73.18	19.95	-52.2	-54.1	14.5	0.00e+00	0	27	0	576716800	71	4288
2026-01-13 22:15:10.50	73.43	19.97	-52.2	-54.2	14.4	0.00e+00	0	27	0	578813952	70	4552
2026-01-13 22:15:11.49	73.67	19.98	-52.2	-54.2	14.4	0.00e+00	0	27	0	580911104	70	4558
2026-01-13 22:15:12.48	73.92	19.99	-52.3	-54.3	14.3	0.00e+00	0	27	0	581959680	70	4612
2026-01-13 22:15:13.47	74.17	20.01	-52.6	-54.7	14.2	0.00e+00	0	27	0	584056832	70	4834
2026-01-13 22:15:14.45	74.41	20.02	-52.8	-55.0	14.0	0.00e+00	0	27	0	586153984	70	4987
2026-01-13 22:15:15.44	74.66	20.03	-53.0	-55.3	14.0	0.00e+00	0	27	0	588251136	71	4903
2026-01-13 22:15:16.44	74.90	20.04	-53.1	-55.3	13.9	0.00e+00	0	27	0	589299712	71	4910
2026-01-13 22:15:17.44	75.15	20.05	-53.0	-55.3	14.0	0.00e+00	0	27	0	591396864	71	4894
2026-01-13 22:15:18.43	75.40	20.06	-53.1	-55.3	14.0	0.00e+00	0	27	0	593494016	71	4919
2026-01-13 22:15:19.43	75.65	20.07	-53.1	-55.3	14.0	0.00e+00	0	27	0	595591168	71	4901
2026-01-13 22:15:20.42	75.90	20.08	-53.2	-55.5	13.9	0.00e+00	0	27	0	597688320	71	5001
2026-01-13 22:15:21.42	76.15	20.09	-53.2	-55.5	13.8	0.00e+00	0	27	0	598736896	71	5028
2026-01-13 22:15:22.41	76.39	20.10	-53.3	-55.6	13.9	0.00e+00	0	27	0	600834048	71	5065
2026-01-13 22:15:23.41	76.64	20.10	-53.2	-55.5	13.9	0.00e+00	0	27	0	602931200	71	5017
2026-01-13 22:15:24.41	76.89	20.11	-53.0	-55.2	14.0	0.00e+00	0	27	0	605028352	71	4847
2026-01-13 22:15:25.41	77.15	20.12	-52.9	-55.0	14.1	0.00e+00	0	27	0	606076928	71	4750
2026-01-13 22:15:26.40	77.39	20.12	-52.9	-55.0	14.1	0.00e+00	0	27	0	608174080	71	4734
2026-01-13 22:15:27.39	77.64	20.13	-53.1	-55.3	14.0	0.00e+00	0	27	0	610271232	71	4907
2026-01-13 22:15:28.39	77.89	20.13	-53.2	-55.4	13.9	0.00e+00	0	27	0	612368384	71	4974
2026-01-13 22:15:29.38	78.14	20.14	-53.2	-55.5	13.9	0.00e+00	0	27	0	614465536	71	5029
2026-01-13 22:15:30.38	78.39	20.14	-53.3	-55.6	13.8	0.00e+00	0	27	0	615514112	71	5063
2026-01-13 22:15:31.38	78.64	20.14	-53.2	-55.5	13.9	0.00e+00	0	27	0	617611264	71	5019
2026-01-13 22:15:32.38	78.89	20.15	-53.0	-55.3	14.0	0.00e+00	0	27	0	619708416	71	4896
2026-01-13 22:15:33.38	79.14	20.15	-53.0	-55.3	14.0	0.00e+00	0	27	0	621805568	71	4895
2026-01-13 22:15:34.38	79.39	20.15	-53.1	-55.5	13.9	0.00e+00	0	27	0	622854144	71	4994
2026-01-13 22:15:35.38	79.64	20.15	-53.1	-55.5	13.9	0.00e+00	0	27	0	624951296	71	5015
2026-01-13 22:15:36.38	79.90	20.15	-53.3	-55.8	13.7	0.00e+00	0	27	0	627048448	71	5190
2026-01-13 22:15:37.38	80.15	20.15	-53.4	-55.9	13.7	0.00e+00	0	27	0	629145600	71	5239
2026-01-13 22:15:38.39	80.40	20.15	-53.2	-55.6	13.8	0.00e+00	0	27	0	631242752	71	5067
2026-01-13 22:15:39.38	80.65	20.15	-53.1	-55.5	13.9	0.00e+00	0	27	0	632291328	71	5013
2026-01-13 22:15:40.37	80.90	20.15	-53.1	-55.4	13.9	0.00e+00	0	27	0	634388480	71	4966
2026-01-13 22:15:41.38	81.15	20.14	-53.0	-55.3	14.0	0.00e+00	0	27	0	636485632	71	4923
2026-01-13 22:15:42.37	81.40	20.14	-53.2	-55.6	13.8	0.00e+00	0	27	0	638582784	71	5076
2026-01-13 22:15:43.37	81.65	20.14	-53.3	-55.7	13.8	0.00e+00	0	27	0	640679936	71	5145
2026-01-13 22:15:44.37	81.90	20.13	-53.3	-55.8	13.7	0.00e+00	0	27	0	641728512	71	5189
2026-01-13 22:15:45.37	82.15	20.13	-53.2	-55.6	13.8	0.00e+00	0	27	0	643825664	71	5084
2026-01-13 22:15:46.36	82.40	20.12	-53.2	-55.6	13.8	0.00e+00	0	27	0	645922816	71	5099
2026-01-13 22:15:47.36	82.65	20.12	-53.0	-55.3	13.9	0.00e+00	0	27	0	648019968	71	4926
2026-01-13 22:15:48.36	82.90	20.11	-52.8	-55.1	14.1	0.00e+00	0	27	0	650117120	71	4786
2026-01-13 22:15:49.36	83.15	20.10	-52.7	-54.9	14.2	0.00e+00	0	27	0	651165696	71	4682
2026-01-13 22:15:50.36	83.40	20.10	-52.7	-54.8	14.2	0.00e+00	0	27	0	653262848	71	4638
2026-01-13 22:15:51.36	83.65	20.09	-52.5	-54.7	14.2	0.00e+00	0	27	0	655360000	71	4550
2026-01-13 22:15:52.36	83.90	20.08	-52.5	-54.6	14.3	0.00e+00	0	27	0	657457152	71	4529
2026-01-13 22:15:53.36	84.15	20.07	-52.6	-54.7	14.2	0.00e+00	0	27	0	658505728	71	4581
2026-01-13 22:15:54.35	84.40	20.06	-52.7	-54.9	14.2	0.00e+00	0	27	0	660602880	71	4660
2026-01-13 22:15:55.35	84.65	20.05	-52.8	-55.0	14.1	0.00e+00	0	27	0	662700032	71	4736
2026-01-13 22:15:56.35	84.90	20.04	-52.9	-55.2	14.0	0.00e+00	0	27	0	664797184	71	4844
2026-01-13 22:15:57.35	85.15	20.03	-53.0	-55.3	14.0	0.00e+00	0	27	0	666894336	71	4912
2026-01-13 22:15:58.35	85.39	20.02	-53.1	-55.4	13.9	0.00e+00	0	27	0	667942912	71	4980
2026-01-13 22:15:59.34	85.64	20.01	-52.9	-55.2	14.0	0.00e+00	0	27	0	670040064	71	4853
2026-01-13 22:16:00.34	85.89	20.00	-52.8	-55.1	14.0	0.00e+00	0	27	0	672137216	71	4804
2026-01-13 22:16:01.33	86.14	19.98	-52.9	-55.2	14.0	0.00e+00	0	27	0	674234368	71	4831
2026-01-13 22:16:02.33	86.38	19.97	-52.7	-54.9	14.1	0.00e+00	0	27	0	675282944	71	4701
2026-01-13 22:16:03.33	86.63	19.96	-52.7	-54.9	14.1	0.00e+00	0	27	0	677380096	71	4701
2026-01-13 22:16:04.33	86.88	19.94	-52.7	-54.9	14.1	0.00e+00	0	27	0	679477248	71	4695
2026-01-13 22:16:05.32	87.12	19.93	-52.6	-54.9	14.2	0.00e+00	0	27	0	681574400	71	4659
2026-01-13 22:16:06.32	87.37	19.91	-52.8	-55.1	14.1	0.00e+00	0	27	0	683671552	71	4775
2026-01-13 22:16:07.31	87.62	19.89	-52.8	-55.1	14.1	0.00e+00	0	27	0	684720128	71	4791
2026-01-13 22:16:08.31	87.86	19.88	-52.8	-55.1	14.1	0.00e+00	0	27	0	686817280	71	4805
2026-01-13 22:16:09.31	88.11	19.86	-52.8	-55.1	14.1	0.00e+00	0	27	0	688914432	71	4776
2026-01-13 22:16:10.30	88.35	19.84	-52.7	-55.0	14.1	0.00e+00	0	27	0	691011584	71	4717
2026-01-13 22:16:11.30	88.60	19.82	-52.6	-54.8	14.2	0.00e+00	0	27	0	693108736	71	4611
2026-01-13 22:16:12.30	88.85	19.81	-52.5	-54.7	14.2	0.00e+00	0	27	0	694157312	71	4569
2026-01-13 22:16:13.30	89.09	19.79	-52.5	-54.7	14.2	0.00e+00	0	27	0	696254464	71	4556
2026-01-13 22:16:14.29	89.33	19.77	-52.6	-54.8	14.2	0.00e+00	0	27	0	698351616	71	4640
2026-01-13 22:16:15.29	89.58	19.75	-52.7	-55.0	14.1	0.00e+00	0	27	0	700448768	71	4743
2026-01-13 22:16:16.29	89.82	19.73	-52.8	-55.1	14.1	0.00e+00	0	27	0	701497344	71	4774
2026-01-13 22:16:17.29	90.07	19.71	-52.7	-55.0	14.1	0.00e+00	0	27	0	703594496	71	4725
2026-01-13 22:16:18.29	90.31	19.68	-52.5	-54.8	14.2	0.00e+00	0	27	0	705691648	71	4604
2026-01-13 22:16:19.30	90.56	19.66	-52.7	-54.9	14.1	0.00e+00	0	27	0	707788800	71	4703
2026-01-13 22:16:20.29	90.80	19.64	-52.7	-55.0	14.1	0.00e+00	0	27	0	709885952	71	4750
2026-01-13 22:16:21.30	91.04	19.62	-52.8	-55.2	14.0	0.00e+00	0	27	0	710934528	71	4835
2026-01-13 22:16:22.29	91.28	19.59	-53.1	-55.5	13.8	0.00e+00	0	27	0	713031680	71	5035
2026-01-13 22:16:23.29	91.53	19.57	-53.2	-55.7	13.8	0.00e+00	0	27	0	715128832	71	5121
2026-01-13 22:16:24.29	91.77	19.54	-53.2	-55.7	13.7	0.00e+00	0	27	0	717225984	71	5150
2026-01-13 22:16:25.29	92.01	19.52	-53.2	-55.7	13.7	0.00e+00	0	27	0	719323136	71	5138
2026-01-13 22:16:26.28	92.25	19.49	-53.0	-55.4	13.9	0.00e+00	0	27	0	720371712	71	4935
2026-01-13 22:16:27.28	92.49	19.47	-52.8	-55.1	14.1	0.00e+00	0	27	0	722468864	71	4786
2026-01-13 22:16:28.27	92.73	19.44	-52.5	-54.7	14.3	0.00e+00	0	27	0	724566016	71	4555
2026-01-13 22:16:29.26	92.96	19.41	-52.4	-54.5	14.3	0.00e+00	0	27	0	726663168	71	4458
2026-01-13 22:16:30.27	93.21	19.39	-52.2	-54.2	14.5	0.00e+00	0	27	0	727711744	71	4332
2026-01-13 22:16:31.27	93.45	19.36	-52.3	-54.4	14.4	0.00e+00	0	27	0	729808896	71	4408
2026-01-13 22:16:32.26	93.68	19.33	-52.5	-54.6	14.3	0.00e+00	0	27	0	731906048	71	4516
2026-01-13 22:16:33.26	93.92	19.30	-52.5	-54.6	14.3	0.00e+00	0	27	0	734003200	71	4532
2026-01-13 22:16:34.25	94.15	19.27	-52.5	-54.6	14.3	0.00e+00	0	27	0	736100352	71	4542
2026-01-13 22:16:35.25	94.39	19.24	-52.3	-54.3	14.4	0.00e+00	0	27	0	737148928	71	4358
2026-01-13 22:16:36.25	94.63	19.21	-52.1	-54.1	14.4	0.00e+00	0	27	0	739246080	70	4545
2026-01-13 22:16:37.26	94.87	19.18	-52.0	-54.0	14.4	0.00e+00	0	27	0	741343232	70	4460
2026-01-13 22:16:38.25	95.10	19.15	-52.1	-54.0	14.4	0.00e+00	0	27	0	743440384	70	4485
2026-01-13 22:16:39.24	95.33	19.12	-52.4	-54.4	14.3	0.00e+00	0	27	0	744488960	70	4692
2026-01-13 22:16:40.24	95.57	19.09	-52.3	-54.4	14.3	0.00e+00	0	27	0	746586112	70	4655
2026-01-13 22:16:41.23	95.80	19.06	-52.5	-54.7	14.2	0.00e+00	0	27	0	748683264	70	4824
2026-01-13 22:16:42.23	96.04	19.02	-52.5	-54.6	14.2	0.00e+00	0	27	0	750780416	70	4774
2026-01-13 22:16:43.22	96.27	18.99	-52.4	-54.5	14.2	0.00e+00	0	27	0	752877568	70	4721
2026-01-13 22:16:44.22	96.50	18.96	-52.2	-54.2	14.4	0.00e+00	0	27	0	753926144	70	4585
2026-01-13 22:16:45.22	96.73	18.92	-52.0	-54.0	14.5	0.00e+00	0	27	0	756023296	70	4460
2026-01-13 22:16:46.22	96.96	18.89	-52.0	-53.9	14.5	0.00e+00	0	27	0	758120448	70	4410
2026-01-13 22:16:47.22	97.20	18.86	-51.9	-53.8	14.5	0.00e+00	0	27	0	760217600	70	4371
2026-01-13 22:16:48.22	97.43	18.82	-51.8	-53.8	14.6	0.00e+00	0	27	0	762314752	70	4349
2026-01-13 22:16:49.22	97.66	18.78	-52.0	-54.0	14.4	0.00e+00	0	27	0	763363328	70	4451
2026-01-13 22:16:50.21	97.89	18.75	-52.0	-54.0	14.4	0.00e+00	0	27	0	765460480	70	4471
2026-01-13 22:16:51.20	98.11	18.71	-52.1	-54.1	14.4	0.00e+00	0	27	0	767557632	70	4503
2026-01-13 22:16:52.20	98.34	18.68	-52.2	-54.3	14.3	0.00e+00	0	27	0	769654784	70	4609
2026-01-13 22:16:53.20	98.57	18.64	-52.2	-54.2	14.3	0.00e+00	0	27	0	770703360	70	4585
2026-01-13 22:16:54.20	98.80	18.60	-52.0	-54.0	14.4	0.00e+00	0	27	0	772800512	70	4470
2026-01-13 22:16:55.19	99.02	18.56	-52.0	-54.0	14.5	0.00e+00	0	27	0	774897664	70	4447
2026-01-13 22:16:56.19	99.25	18.53	-51.9	-53.9	14.5	0.00e+00	0	27	0	776994816	70	4406
2026-01-13 22:16:57.18	99.47	18.49	-52.1	-54.2	14.4	0.00e+00	0	27	0	779091968	70	4564
2026-01-13 22:16:58.18	99.70	18.45	-52.3	-54.4	14.3	0.00e+00	0	27	0	780140544	70	4669
2026-01-13 22:16:59.18	99.92	18.41	-52.7	-54.9	14.0	0.00e+00	0	27	0	782237696	70	4964
2026-01-13 22:17:00.18	100.15	18.37	-52.6	-54.9	14.0	0.00e+00	0	27	0	784334848	70	4965
2026-01-13 22:17:01.17	100.37	18.33	-52.6	-54.8	14.0	0.00e+00	0	27	0	786432000	70	4921
2026-01-13 22:17:02.17	100.59	18.29	-52.5	-54.7	14.1	0.00e+00	0	27	0	787480576	70	4849
2026-01-13 22:17:03.17	100.82	18.25	-52.4	-54.6	14.2	0.00e+00	0	27	0	789577728	70	4781
2026-01-13 22:17:04.17	101.04	18.21	-52.4	-54.5	14.2	0.00e+00	0	27	0	791674880	70	4753
2026-01-13 22:17:05.17	101.26	18.17	-52.5	-54.7	14.1	0.00e+00	0	27	0	793772032	70	4823
2026-01-13 22:17:06.17	101.48	18.12	-52.5	-54.7	14.2	0.00e+00	0	27	0	795869184	70	4820
2026-01-13 22:17:07.17	101.70	18.08	-52.3	-54.5	14.2	0.00e+00	0	27	0	796917760	70	4712
2026-01-13 22:17:08.17	101.92	18.04	-52.4	-54.6	14.2	0.00e+00	0	27	0	799014912	70	4784
2026-01-13 22:17:09.17	102.14	18.00	-52.4	-54.6	14.2	0.00e+00	0	27	0	801112064	70	4761
2026-01-13 22:17:10.17	102.36	17.95	-52.7	-55.0	14.0	0.00e+00	0	27	0	803209216	70	4990
2026-01-13 22:17:11.17	102.58	17.91	-52.7	-55.1	14.0	0.00e+00	0	27	0	805306368	70	5049
2026-01-13 22:17:12.16	102.79	17.87	-53.0	-55.5	13.9	0.00e+00	0	27	0	806354944	71	4998
2026-01-13 22:17:13.17	103.01	17.82	-53.0	-55.4	13.9	0.00e+00	0	27	0	808452096	71	4961
2026-01-13 22:17:14.17	103.23	17.78	-52.9	-55.4	13.9	0.00e+00	0	27	0	810549248	71	4942
2026-01-13 22:17:15.17	103.44	17.73	-52.9	-55.3	14.0	0.00e+00	0	27	0	812646400	71	4884
2026-01-13 22:17:16.17	103.66	17.69	-52.8	-55.1	14.0	0.00e+00	0	27	0	814743552	71	4809
2026-01-13 22:17:17.16	103.87	17.64	-52.8	-55.2	14.0	0.00e+00	0	27	0	815792128	71	4848
2026-01-13 22:17:18.16	104.09	17.60	-52.7	-55.2	14.0	0.00e+00	0	27	0	817889280	71	4819
2026-01-13 22:17:19.17	104.30	17.55	-52.9	-55.4	13.8	0.00e+00	0	27	0	819986432	71	4973
2026-01-13 22:17:20.17	104.51	17.51	-53.0	-55.7	13.7	0.00e+00	0	27	0	822083584	71	5106
2026-01-13 22:17:21.17	104.72	17.46	-52.8	-55.4	13.9	0.00e+00	0	27	0	823132160	71	4958
2026-01-13 22:17:22.16	104.93	17.41	-52.7	-55.2	14.0	0.00e+00	0	27	0	825229312	71	4857
2026-01-13 22:17:23.15	105.14	17.37	-52.5	-54.9	14.1	0.00e+00	0	27	0	827326464	71	4660
2026-01-13 22:17:24.15	105.35	17.32	-52.5	-54.9	14.1	0.00e+00	0	27	0	829423616	71	4681
2026-01-13 22:17:25.15	105.56	17.27	-52.5	-54.9	14.2	0.00e+00	0	27	0	831520768	71	4652
2026-01-13 22:17:26.14	105.77	17.22	-52.6	-54.9	14.1	0.00e+00	0	27	0	832569344	71	4690
2026-01-13 22:17:27.14	105.98	17.18	-52.7	-55.2	14.0	0.00e+00	0	27	0	834666496	71	4819
2026-01-13 22:17:28.14	106.18	17.13	-53.0	-55.6	13.8	0.00e+00	0	27	0	836763648	71	5051
2026-01-13 22:17:29.14	106.39	17.08	-53.2	-55.9	13.7	0.00e+00	0	27	0	838860800	71	5245
2026-01-13 22:17:30.13	106.59	17.03	-53.2	-55.9	13.7	0.00e+00	0	27	0	839909376	71	5225
2026-01-13 22:17:31.14	106.80	16.98	-53.3	-55.9	13.6	0.00e+00	0	27	0	842006528	71	5272
2026-01-13 22:17:32.12	107.00	16.93	-53.4	-56.1	13.6	0.00e+00	0	27	0	844103680	72	5072
2026-01-13 22:17:33.12	107.21	16.88	-53.2	-55.9	13.7	0.00e+00	0	27	0	846200832	72	4932
2026-01-13 22:17:34.11	107.41	16.83	-53.2	-55.8	13.8	0.00e+00	0	27	0	848297984	72	4891
2026-01-13 22:17:35.12	107.61	16.78	-53.2	-55.8	13.8	0.00e+00	0	27	0	849346560	72	4883
2026-01-13 22:17:36.12	107.82	16.73	-53.1	-55.7	13.9	0.00e+00	0	27	0	851443712	72	4836
2026-01-13 22:17:37.12	108.02	16.68	-53.2	-55.9	13.8	0.00e+00	0	27	0	853540864	72	4937
2026-01-13 22:17:38.12	108.22	16.63	-53.2	-55.9	13.8	0.00e+00	0	27	0	855638016	72	4927
2026-01-13 22:17:39.12	108.42	16.58	-53.2	-55.8	13.7	0.00e+00	0	27	0	857735168	72	4922
2026-01-13 22:17:40.12	108.62	16.53	-53.3	-56.0	13.7	0.00e+00	0	27	0	858783744	72	4997
2026-01-13 22:17:41.12	108.82	16.48	-52.9	-55.4	14.0	0.00e+00	0	27	0	860880896	72	4696
2026-01-13 22:17:42.11	109.01	16.43	-53.1	-55.6	13.8	0.00e+00	0	27	0	862978048	72	4810
2026-01-13 22:17:43.11	109.21	16.37	-52.8	-55.3	14.0	0.00e+00	0	27	0	865075200	72	4645
2026-01-13 22:17:44.11	109.41	16.32	-53.0	-55.6	13.9	0.00e+00	0	27	0	867172352	72	4787
2026-01-13 22:17:45.11	109.60	16.27	-53.0	-55.6	13.9	0.00e+00	0	27	0	868220928	72	4793
2026-01-13 22:17:46.11	109.80	16.22	-53.2	-55.9	13.7	0.00e+00	0	27	0	870318080	72	4965
2026-01-13 22:17:47.10	109.99	16.16	-53.5	-56.4	13.5	0.00e+00	0	27	0	872415232	72	5242
2026-01-13 22:17:48.10	110.19	16.11	-53.7	-56.6	13.3	0.00e+00	0	27	0	874512384	72	5397
2026-01-13 22:17:49.10	110.38	16.06	-53.8	-56.9	13.2	0.00e+00	0	27	0	875560960	72	5530
2026-01-13 22:17:50.10	110.57	16.00	-53.9	-57.0	13.3	0.00e+00	0	27	0	877658112	73	5315
2026-01-13 22:17:51.10	110.77	15.95	-53.7	-56.5	13.5	0.00e+00	0	27	0	879755264	73	5039
2026-01-13 22:17:52.10	110.96	15.90	-53.6	-56.4	13.6	0.00e+00	0	27	0	881852416	73	4931
2026-01-13 22:17:53.11	111.15	15.84	-53.3	-55.9	13.8	0.00e+00	0	27	0	883949568	73	4691
2026-01-13 22:17:54.11	111.34	15.79	-53.3	-55.9	13.9	0.00e+00	0	27	0	884998144	73	4660
2026-01-13 22:17:55.11	111.53	15.73	-53.2	-55.8	13.9	0.00e+00	0	27	0	887095296	73	4624
2026-01-13 22:17:56.10	111.72	15.68	-53.3	-55.9	13.9	0.00e+00	0	27	0	889192448	73	4674
2026-01-13 22:17:57.10	111.91	15.63	-53.2	-55.7	13.8	0.00e+00	0	27	0	891289600	72	4859
2026-01-13 22:17:58.09	112.09	15.57	-53.3	-55.8	13.7	0.00e+00	0	27	0	892338176	72	4926
2026-01-13 22:17:59.09	112.28	15.52	-53.1	-55.6	13.9	0.00e+00	0	27	0	894435328	72	4770
2026-01-13 22:18:00.09	112.46	15.46	-53.1	-55.6	13.9	0.00e+00	0	27	0	896532480	72	4782
2026-01-13 22:18:01.09	112.65	15.41	-52.9	-55.3	14.1	0.00e+00	0	27	0	898629632	72	4606
2026-01-13 22:18:02.09	112.83	15.35	-52.9	-55.4	14.0	0.00e+00	0	27	0	900726784	72	4654
2026-01-13 22:18:03.09	113.02	15.30	-52.9	-55.3	14.1	0.00e+00	0	27	0	901775360	72	4618
2026-01-13 22:18:04.08	113.20	15.24	-52.9	-55.3	14.0	0.00e+00	0	27	0	903872512	72	4646
2026-01-13 22:18:05.08	113.38	15.19	-53.1	-55.6	13.9	0.00e+00	0	27	0	905969664	72	4801
2026-01-13 22:18:06.08	113.57	15.13	-53.1	-55.7	13.8	0.00e+00	0	27	0	908066816	72	4827
2026-01-13 22:18:07.09	113.75	15.07	-53.3	-56.0	13.7	0.00e+00	0	27	0	910163968	72	4997
2026-01-13 22:18:08.09	113.93	15.02	-53.3	-56.0	13.7	0.00e+00	0	27	0	911212544	72	5000
2026-01-13 22:18:09.09	114.11	14.96	-53.2	-55.8	13.8	0.00e+00	0	27	0	913309696	72	4912
2026-01-13 22:18:10.09	114.29	14.90	-53.2	-55.8	13.8	0.00e+00	0	27	0	915406848	72	4881
2026-01-13 22:18:11.09	114.47	14.85	-53.1	-55.6	13.9	0.00e+00	0	27	0	917504000	72	4808
2026-01-13 22:18:12.09	114.65	14.79	-53.1	-55.7	13.8	0.00e+00	0	27	0	918552576	72	4825
2026-01-13 22:18:13.09	114.83	14.73	-53.1	-55.6	13.9	0.00e+00	0	27	0	920649728	72	4791
2026-01-13 22:18:14.09	115.00	14.68	-53.0	-55.5	14.0	0.00e+00	0	27	0	922746880	72	4707
2026-01-13 22:18:15.09	115.18	14.62	-53.3	-55.9	13.7	0.00e+00	0	27	0	924844032	72	4962
2026-01-13 22:18:16.09	115.36	14.56	-53.2	-55.7	13.8	0.00e+00	0	27	0	926941184	72	4853
2026-01-13 22:18:17.09	115.53	14.50	-53.1	-55.6	13.9	0.00e+00	0	27	0	927989760	72	4801
2026-01-13 22:18:18.09	115.70	14.45	-53.2	-55.7	13.8	0.00e+00	0	27	0	930086912	72	4830
2026-01-13 22:18:19.09	115.88	14.39	-53.1	-55.5	13.9	0.00e+00	0	27	0	932184064	72	4734
2026-01-13 22:18:20.09	116.05	14.33	-53.0	-55.5	13.9	0.00e+00	0	27	0	934281216	72	4713
2026-01-13 22:18:21.09	116.22	14.27	-53.0	-55.4	14.0	0.00e+00	0	27	0	936378368	72	4665
2026-01-13 22:18:22.09	116.40	14.22	-52.9	-55.3	14.0	0.00e+00	0	27	0	937426944	72	4629
2026-01-13 22:18:23.09	116.57	14.16	-53.1	-55.5	13.9	0.00e+00	0	27	0	939524096	72	4736
2026-01-13 22:18:24.09	116.74	14.10	-53.1	-55.6	13.9	0.00e+00	0	27	0	941621248	72	4772
2026-01-13 22:18:25.09	116.91	14.04	-53.2	-55.7	13.8	0.00e+00	0	27	0	943718400	72	4836
2026-01-13 22:18:26.09	117.08	13.98	-53.2	-55.7	13.8	0.00e+00	0	27	0	945815552	72	4827
2026-01-13 22:18:27.09	117.25	13.93	-53.3	-55.7	13.8	0.00e+00	0	27	0	946864128	72	4863
2026-01-13 22:18:28.09	117.41	13.87	-53.0	-55.4	14.0	0.00e+00	0	27	0	948961280	72	4675
2026-01-13 22:18:29.09	117.58	13.81	-53.0	-55.4	14.0	0.00e+00	0	27	0	951058432	72	4667
2026-01-13 22:18:30.09	117.75	13.75	-52.9	-55.2	14.1	0.00e+00	0	27	0	953155584	72	4557
2026-01-13 22:18:31.09	117.91	13.69	-52.5	-54.7	14.2	0.00e+00	0	27	0	954204160	71	4546
2026-01-13 22:18:32.09	118.08	13.63	-52.5	-54.6	14.2	0.00e+00	0	27	0	956301312	71	4544
2026-01-13 22:18:33.09	118.24	13.57	-52.5	-54.6	14.2	0.00e+00	0	27	0	958398464	71	4545
2026-01-13 22:18:34.09	118.41	13.51	-52.5	-54.7	14.2	0.00e+00	0	27	0	960495616	71	4563
2026-01-13 22:18:35.09	118.57	13.46	-52.8	-55.2	14.0	0.00e+00	0	27	0	962592768	71	4847
2026-01-13 22:18:36.08	118.73	13.40	-53.1	-55.7	13.7	0.00e+00	0	27	0	963641344	71	5105
2026-01-13 22:18:37.08	118.89	13.34	-53.3	-56.0	13.6	0.00e+00	0	27	0	965738496	71	5305
2026-01-13 22:18:38.07	119.05	13.28	-53.5	-56.3	13.5	0.00e+00	0	27	0	967835648	72	5196
2026-01-13 22:18:39.07	119.22	13.22	-53.4	-56.0	13.6	0.00e+00	0	27	0	969932800	72	5035
2026-01-13 22:18:40.07	119.38	13.16	-53.4	-56.1	13.6	0.00e+00	0	27	0	972029952	72	5052
2026-01-13 22:18:41.07	119.54	13.10	-53.0	-55.5	13.9	0.00e+00	0	27	0	973078528	72	4753
2026-01-13 22:18:42.07	119.70	13.04	-52.8	-55.2	14.0	0.00e+00	0	27	0	975175680	72	4573
2026-01-13 22:18:43.07	119.85	12.98	-52.5	-54.8	14.2	0.00e+00	0	27	0	977272832	71	4620
2026-01-13 22:18:44.07	120.01	12.92	-52.3	-54.5	14.3	0.00e+00	0	27	0	979369984	71	4451
2026-01-13 22:18:45.07	120.17	12.86	-52.3	-54.4	14.3	0.00e+00	0	27	0	980418560	71	4440
2026-01-13 22:18:46.07	120.33	12.80	-52.0	-54.1	14.3	0.00e+00	0	27	0	982515712	70	4523
2026-01-13 22:18:47.07	120.48	12.74	-52.1	-54.2	14.3	0.00e+00	0	27	0	984612864	70	4565
2026-01-13 22:18:48.07	120.64	12.69	-52.2	-54.3	14.2	0.00e+00	0	27	0	986710016	70	4635
2026-01-13 22:18:49.06	120.79	12.63	-52.2	-54.3	14.2	0.00e+00	0	27	0	988807168	70	4645
2026-01-13 22:18:50.05	120.94	12.57	-52.2	-54.4	14.2	0.00e+00	0	27	0	989855744	70	4667
2026-01-13 22:18:51.06	121.10	12.51	-52.3	-54.4	14.2	0.00e+00	0	27	0	991952896	70	4698
2026-01-13 22:18:52.06	121.25	12.45	-52.3	-54.4	14.2	0.00e+00	0	27	0	994050048	70	4705
2026-01-13 22:18:53.07	121.41	12.39	-52.3	-54.4	14.2	0.00e+00	0	27	0	996147200	70	4699
2026-01-13 22:18:54.07	121.56	12.33	-52.3	-54.4	14.2	0.00e+00	0	27	0	998244352	70	4699
2026-01-13 22:18:55.06	121.71	12.27	-52.3	-54.5	14.1	0.00e+00	0	27	0	999292928	70	4733
2026-01-13 22:18:56.07	121.86	12.21	-52.4	-54.6	14.1	0.00e+00	0	27	0	1001390080	70	4780
2026-01-13 22:18:57.07	122.01	12.15	-52.5	-54.8	14.0	0.00e+00	0	27	0	1003487232	70	4878
2026-01-13 22:18:58.07	122.16	12.09	-52.7	-55.0	13.9	0.00e+00	0	27	0	1005584384	70	4985
2026-01-13 22:18:59.08	122.31	12.03	-52.9	-55.3	13.8	0.00e+00	0	27	0	1007681536	70	5172
2026-01-13 22:19:00.07	122.46	11.97	-53.1	-55.6	13.7	0.00e+00	0	27	0	1008730112	71	5078
2026-01-13 22:19:01.07	122.60	11.91	-53.2	-55.7	13.6	0.00e+00	0	27	0	1010827264	71	5142
2026-01-13 22:19:02.08	122.75	11.85	-53.6	-55.9	13.7	0.00e+00	0	27	0	1012924416	72	4959
2026-01-13 22:19:03.08	122.90	11.79	-53.5	-55.9	13.7	0.00e+00	0	27	0	1015021568	72	4939
2026-01-13 22:19:04.08	123.05	11.73	-53.3	-55.6	13.9	0.00e+00	0	27	0	1016070144	72	4774
2026-01-13 22:19:05.07	123.19	11.67	-53.2	-55.5	13.9	0.00e+00	0	27	0	1018167296	72	4706
2026-01-13 22:19:06.07	123.33	11.61	-53.3	-55.5	13.9	0.00e+00	0	27	0	1020264448	72	4740
2026-01-13 22:19:07.07	123.48	11.55	-53.3	-55.5	13.9	0.00e+00	0	27	0	1022361600	72	4720
2026-01-13 22:19:08.08	123.62	11.48	-53.3	-55.5	13.9	0.00e+00	0	27	0	1024458752	72	4718
2026-01-13 22:19:09.08	123.77	11.42	-53.3	-55.6	13.9	0.00e+00	0	27	0	1025507328	72	4760
2026-01-13 22:19:10.08	123.91	11.36	-53.3	-55.5	13.9	0.00e+00	0	27	0	1027604480	72	4731
2026-01-13 22:19:11.08	124.05	11.30	-53.4	-55.7	13.8	0.00e+00	0	27	0	1029701632	72	4865
2026-01-13 22:19:12.08	124.19	11.24	-53.6	-55.9	13.7	0.00e+00	0	27	0	1031798784	72	4950
2026-01-13 22:19:13.08	124.33	11.18	-53.4	-55.7	13.8	0.00e+00	0	27	0	1033895936	72	4862
2026-01-13 22:19:14.08	124.47	11.12	-53.4	-55.6	13.8	0.00e+00	0	27	0	1034944512	72	4814
2026-01-13 22:19:15.07	124.61	11.06	-53.2	-55.4	13.9	0.00e+00	0	27	0	1037041664	72	4696
2026-01-13 22:19:16.07	124.75	11.00	-53.0	-55.2	14.0	0.00e+00	0	27	0	1039138816	72	4559
2026-01-13 22:19:17.06	124.89	10.94	-52.9	-54.9	14.2	0.00e+00	0	27	0	1041235968	72	4427
2026-01-13 22:19:18.05	125.03	10.88	-52.7	-54.7	14.3	0.00e+00	0	27	0	1042284544	72	4316
2026-01-13 22:19:19.05	125.16	10.82	-52.6	-54.6	14.2	0.00e+00	0	27	0	1044381696	71	4499
2026-01-13 22:19:20.05	125.30	10.76	-52.5	-54.4	14.3	0.00e+00	0	27	0	1046478848	71	4439
2026-01-13 22:19:21.02	125.43	10.70	-52.6	-54.6	14.2	0.00e+00	0	27	0	1048576000	71	4504
2026-01-13 22:19:22.03	125.57	10.64	-52.6	-54.6	14.2	0.00e+00	0	27	0	1050673152	71	4540
2026-01-13 22:19:23.02	125.70	10.58	-52.7	-54.7	14.2	0.00e+00	0	27	0	1051721728	71	4569
2026-01-13 22:19:24.03	125.84	10.52	-52.8	-54.9	14.0	0.00e+00	0	27	0	1053818880	71	4691
2026-01-13 22:19:25.02	125.97	10.46	-53.0	-55.1	14.0	0.00e+00	0	27	0	1055916032	71	4794
2026-01-13 22:19:26.01	126.11	10.40	-53.0	-55.2	13.9	0.00e+00	0	27	0	1058013184	71	4847
2026-01-13 22:19:27.01	126.24	10.34	-53.1	-55.2	13.9	0.00e+00	0	27	0	1059061760	71	4869
2026-01-13 22:19:28.00	126.37	10.28	-53.1	-55.3	13.9	0.00e+00	0	27	0	1061158912	71	4891
2026-01-13 22:19:29.01	126.50	10.22	-53.1	-55.3	13.9	0.00e+00	0	27	0	1063256064	71	4898
2026-01-13 22:19:30.00	126.63	10.16	-53.1	-55.3	13.8	0.00e+00	0	27	0	1065353216	71	4920
2026-01-13 22:19:31.00	126.77	10.10	-53.1	-55.3	13.9	0.00e+00	0	27	0	1067450368	71	4887
2026-01-13 22:19:32.00	126.90	10.04	-53.1	-55.3	13.9	0.00e+00	0	27	0	1068498944	71	4876
2026-01-13 22:19:32.99	127.03	9.98	-53.2	-55.4	13.8	0.00e+00	0	27	0	1070596096	71	4962
2026-01-13 22:19:34.00	127.16	9.92	-53.2	-55.4	13.8	0.00e+00	0	27	0	1072693248	71	4949
2026-01-13 22:19:35.00	127.29	9.86	-53.4	-55.7	13.7	0.00e+00	0	27	0	1074790400	72	4864
2026-01-13 22:19:35.99	127.41	9.80	-53.5	-55.9	13.7	0.00e+00	0	27	0	1076887552	72	4936
2026-01-13 22:19:36.99	127.54	9.74	-53.6	-56.1	13.6	0.00e+00	0	27	0	1077936128	72	5051
2026-01-13 22:19:37.99	127.67	9.68	-53.7	-56.2	13.5	0.00e+00	0	27	0	1080033280	72	5111
2026-01-13 22:19:39.00	127.80	9.62	-53.7	-56.1	13.5	0.00e+00	0	27	0	1082130432	72	5084
2026-01-13 22:19:40.00	127.92	9.56	-53.5	-55.9	13.6	0.00e+00	0	27	0	1084227584	72	4949
2026-01-13 22:19:41.00	128.05	9.50	-53.6	-56.0	13.6	0.00e+00	0	27	0	1086324736	72	5011
2026-01-13 22:19:42.00	128.18	9.44	-53.3	-55.6	13.8	0.00e+00	0	27	0	1087373312	72	4795
2026-01-13 22:19:42.99	128.30	9.38	-53.1	-55.3	14.0	0.00e+00	0	27	0	1089470464	72	4619
2026-01-13 22:19:43.99	128.42	9.32	-53.0	-55.2	14.0	0.00e+00	0	27	0	1091567616	72	4559
2026-01-13 22:19:44.99	128.55	9.26	-52.8	-54.9	14.1	0.00e+00	0	27	0	1093664768	72	4413
2026-01-13 22:19:45.98	128.67	9.21	-52.6	-54.6	14.2	0.00e+00	0	27	0	1094713344	71	4528
2026-01-13 22:19:46.98	128.79	9.15	-52.5	-54.5	14.2	0.00e+00	0	27	0	1096810496	71	4473
2026-01-13 22:19:47.97	128.92	9.09	-52.5	-54.5	14.2	0.00e+00	0	27	0	1098907648	71	4455
2026-01-13 22:19:48.97	129.04	9.03	-52.6	-54.6	14.1	0.00e+00	0	27	0	1101004800	71	4533
2026-01-13 22:19:49.97	129.16	8.97	-52.7	-54.8	14.1	0.00e+00	0	27	0	1103101952	71	4641
2026-01-13 22:19:50.97	129.28	8.91	-52.8	-55.0	14.0	0.00e+00	0	27	0	1104150528	71	4707
2026-01-13 22:19:51.97	129.40	8.85	-53.0	-55.2	13.9	0.00e+00	0	27	0	1106247680	71	4852
2026-01-13 22:19:52.97	129.52	8.79	-53.3	-55.7	13.7	0.00e+00	0	27	0	1108344832	71	5108
2026-01-13 22:19:53.98	129.64	8.73	-53.6	-56.0	13.6	0.00e+00	0	27	0	1110441984	72	5028
2026-01-13 22:19:54.98	129.76	8.67	-53.7	-56.2	13.5	0.00e+00	0	27	0	1112539136	72	5125
2026-01-13 22:19:55.98	129.88	8.61	-53.7	-56.3	13.4	0.00e+00	0	27	0	1113587712	72	5169
2026-01-13 22:19:56.98	130.00	8.55	-53.8	-56.3	13.4	0.00e+00	0	27	0	1115684864	72	5208
2026-01-13 22:19:57.98	130.12	8.49	-53.9	-56.5	13.4	0.00e+00	0	27	0	1117782016	73	5036
2026-01-13 22:19:58.98	130.24	8.43	-53.9	-56.5	13.4	0.00e+00	0	27	0	1119879168	73	5038
2026-01-13 22:19:59.98	130.35	8.37	-54.0	-56.6	13.3	0.00e+00	0	27	0	1121976320	73	5075
2026-01-13 22:20:00.98	130.47	8.31	-54.1	-56.7	13.3	0.00e+00	0	27	0	1123024896	73	5147
2026-01-13 22:20:01.98	130.59	8.25	-54.1	-56.9	13.2	0.00e+00	0	27	0	1125122048	73	5245
2026-01-13 22:20:02.98	130.70	8.19	-54.5	-57.4	12.9	0.00e+00	0	27	0	1127219200	74	5257
2026-01-13 22:20:03.98	130.82	8.14	-54.5	-57.4	13.0	0.00e+00	0	27	0	1129316352	74	5243
2026-01-13 22:20:04.98	130.93	8.08	-54.6	-57.6	12.8	0.00e+00	0	27	0	1130364928	74	5363
2026-01-13 22:20:05.97	131.04	8.02	-54.8	-58.0	12.6	0.00e+00	0	27	0	1132462080	74	5626
2026-01-13 22:20:06.98	131.16	7.96	-54.8	-58.0	12.6	0.00e+00	0	27	0	1134559232	74	5631
2026-01-13 22:20:07.99	131.27	7.90	-54.8	-58.1	12.5	0.00e+00	0	27	0	1136656384	74	5673
2026-01-13 22:20:08.99	131.39	7.84	-54.9	-58.1	12.6	7.00e-07	0	27	0	1138753536	75	5378
2026-01-13 22:20:09.98	131.50	7.78	-54.8	-58.0	12.7	0.00e+00	0	27	0	1139802112	75	5298
2026-01-13 22:20:10.98	131.61	7.72	-54.8	-58.0	12.6	0.00e+00	0	27	0	1141899264	75	5339
2026-01-13 22:20:11.99	131.72	7.66	-54.8	-57.9	12.7	0.00e+00	0	27	0	1143996416	75	5272
2026-01-13 22:20:12.99	131.84	7.60	-54.5	-57.5	13.0	0.00e+00	0	27	0	1146093568	75	4996
2026-01-13 22:20:13.99	131.95	7.55	-54.4	-57.4	13.0	0.00e+00	0	27	0	1148190720	75	4949
2026-01-13 22:20:14.99	132.06	7.49	-54.2	-57.0	13.2	0.00e+00	0	27	0	1149239296	74	4995
2026-01-13 22:20:15.99	132.17	7.43	-54.2	-57.0	13.2	0.00e+00	0	27	0	1151336448	74	5000
2026-01-13 22:20:16.99	132.28	7.37	-54.1	-56.9	13.2	0.00e+00	0	27	0	1153433600	74	4933
2026-01-13 22:20:17.99	132.39	7.31	-54.1	-56.9	13.2	0.00e+00	0	27	0	1155530752	74	4942
2026-01-13 22:20:18.99	132.49	7.25	-54.3	-57.1	13.1	0.00e+00	0	27	0	1156579328	74	5097
2026-01-13 22:20:19.99	132.60	7.19	-54.1	-56.8	13.3	0.00e+00	0	27	0	1158676480	74	4902
2026-01-13 22:20:20.98	132.71	7.14	-54.1	-56.9	13.2	0.00e+00	0	27	0	1160773632	74	4973
2026-01-13 22:20:21.98	132.82	7.08	-54.3	-57.2	13.0	0.00e+00	0	27	0	1162870784	74	5102
2026-01-13 22:20:22.98	132.92	7.02	-54.1	-56.9	13.2	0.00e+00	0	27	0	1164967936	74	4967
2026-01-13 22:20:23.98	133.03	6.96	-54.2	-57.1	13.0	0.00e+00	0	27	0	1166016512	74	5091
2026-01-13 22:20:24.98	133.14	6.90	-54.3	-57.1	13.0	0.00e+00	0	27	0	1168113664	74	5088
2026-01-13 22:20:25.97	133.24	6.85	-54.0	-56.7	13.3	0.00e+00	0	27	0	1170210816	74	4835
2026-01-13 22:20:26.98	133.35	6.79	-54.0	-56.7	13.3	0.00e+00	0	27	0	1172307968	74	4850
2026-01-13 22:20:27.97	133.45	6.73	-54.0	-56.6	13.3	0.00e+00	0	27	0	1173356544	74	4812
2026-01-13 22:20:28.97	133.56	6.67	-53.8	-56.3	13.5	0.00e+00	0	27	0	1175453696	74	4651
2026-01-13 22:20:29.98	133.66	6.61	-54.1	-56.9	13.1	0.00e+00	0	27	0	1177550848	74	4961
2026-01-13 22:20:30.98	133.77	6.56	-54.0	-56.7	13.3	0.00e+00	0	27	0	1179648000	74	4851
2026-01-13 22:20:31.98	133.87	6.50	-53.8	-56.5	13.4	0.00e+00	0	27	0	1181745152	74	4724
2026-01-13 22:20:32.98	133.97	6.44	-53.9	-56.6	13.4	0.00e+00	0	27	0	1183842304	74	4764
2026-01-13 22:20:33.99	134.08	6.38	-53.7	-56.4	13.3	0.00e+00	0	27	0	1184890880	73	4949
2026-01-13 22:20:34.98	134.18	6.32	-53.7	-56.4	13.3	0.00e+00	0	27	0	1186988032	73	4936
2026-01-13 22:20:35.98	134.28	6.27	-53.6	-56.3	13.4	0.00e+00	0	27	0	1189085184	73	4887
2026-01-13 22:20:36.98	134.38	6.21	-53.6	-56.2	13.5	0.00e+00	0	27	0	1191182336	73	4854
2026-01-13 22:20:37.99	134.48	6.15	-53.9	-56.7	13.1	0.00e+00	0	27	0	1192230912	73	5144
2026-01-13 22:20:38.98	134.58	6.09	-53.8	-56.6	13.2	0.00e+00	0	27	0	1194328064	73	5089
2026-01-13 22:20:39.98	134.68	6.04	-54.1	-57.2	12.8	0.00e+00	0	27	0	1196425216	73	5425
2026-01-13 22:20:40.99	134.79	5.98	-54.0	-57.0	13.0	0.00e+00	0	27	0	1198522368	73	5302
2026-01-13 22:20:41.99	134.89	5.92	-54.1	-57.1	12.9	0.00e+00	0	27	0	1200619520	73	5370
2026-01-13 22:20:42.99	134.98	5.86	-54.2	-57.3	12.8	0.00e+00	0	27	0	1201668096	73	5482
2026-01-13 22:20:43.99	135.08	5.81	-54.1	-57.1	12.9	0.00e+00	0	27	0	1203765248	73	5365
2026-01-13 22:20:45.00	135.18	5.75	-54.2	-57.3	12.8	0.00e+00	0	27	0	1205862400	73	5473
2026-01-13 22:20:46.00	135.28	5.69	-54.5	-57.9	12.5	0.00e+00	0	27	0	1207959552	74	5535
2026-01-13 22:20:47.00	135.38	5.64	-54.5	-57.8	12.5	0.00e+00	0	27	0	1210056704	74	5490
2026-01-13 22:20:48.00	135.48	5.58	-54.5	-57.8	12.5	0.00e+00	0	27	0	1211105280	74	5512
2026-01-13 22:20:49.00	135.57	5.52	-54.5	-57.7	12.6	0.00e+00	0	27	0	1213202432	74	5443
2026-01-13 22:20:50.00	135.67	5.46	-54.4	-57.6	12.6	0.00e+00	0	27	0	1215299584	74	5391
2026-01-13 22:20:51.00	135.77	5.41	-54.4	-57.7	12.6	0.00e+00	0	27	0	1217396736	74	5404
