passes_logs/2026/01/13/R3.2S_Murmansk/R3.2S_Murmansk__20260113_232008_NOAA_21_JPSS-2_rec.log

#Pass ID: 20260113_232008_NOAA 21 (JPSS-2)
#Satellite: NOAA 21 (JPSS-2)
#Configuration: NOAA-21
#almurnet v.1.7.20251203
#Start time: 2026-01-13 23:20:09

#Version: 2.2.20231116
#Station: R3.2S_Murmansk
#Location: 33.079688 lon 68.888172 lat
#TLE: 1 54234U 22150A   26013.60300550  .00000047  00000+0  43143-4 0  9998
#TLE: 2 54234  98.7496 314.5197 0000681 301.0337  59.0772 14.19534502164617

#Time	Az	El	Level	Level2	SNR	BER	BlckErr	Temp	State	Recorded	gain1	gain2
2026-01-13 23:20:09.85	20.50	2.09	-58.3	-71.7	3.8	1.49e+00	0	27	0	0	83	16149
2026-01-13 23:20:10.84	20.54	2.15	-58.2	-71.2	3.8	1.49e+00	0	27	104	0	81	17135
2026-01-13 23:20:11.85	20.59	2.21	-58.2	-71.3	3.8	1.49e+00	0	27	104	0	81	17365
2026-01-13 23:20:12.84	20.63	2.27	-58.2	-71.1	3.8	1.49e+00	0	27	104	0	81	17062
2026-01-13 23:20:13.84	20.67	2.34	-58.2	-71.0	3.8	1.49e+00	0	27	104	0	81	16756
2026-01-13 23:20:14.85	20.71	2.40	-58.2	-70.9	3.8	1.49e+00	0	27	104	0	81	16527
2026-01-13 23:20:15.85	20.76	2.46	-58.2	-71.0	3.8	1.49e+00	0	27	104	0	81	16795
2026-01-13 23:20:16.86	20.80	2.52	-58.2	-70.8	3.8	1.49e+00	0	27	104	0	81	16457
2026-01-13 23:20:17.85	20.84	2.58	-58.2	-70.9	3.8	1.49e+00	0	27	104	0	81	16515
2026-01-13 23:20:18.86	20.88	2.65	-58.2	-70.8	3.8	1.49e+00	0	27	104	0	81	16319
2026-01-13 23:20:19.86	20.93	2.71	-58.2	-70.9	3.8	1.49e+00	0	27	104	0	81	16686
2026-01-13 23:20:20.86	20.97	2.77	-58.2	-71.0	3.8	1.49e+00	0	27	104	0	81	16720
2026-01-13 23:20:21.87	21.01	2.83	-58.2	-70.8	3.8	1.49e+00	0	27	104	0	81	16389
2026-01-13 23:20:22.86	21.06	2.89	-58.2	-70.6	3.8	1.49e+00	0	27	104	0	81	15959
2026-01-13 23:20:23.86	21.10	2.96	-58.1	-70.0	3.9	1.49e+00	0	27	104	0	81	14950
2026-01-13 23:20:24.86	21.14	3.02	-58.1	-69.3	4.0	1.48e+00	0	27	104	0	81	13832
2026-01-13 23:20:25.86	21.19	3.08	-58.0	-68.3	4.0	1.45e+00	0	27	104	0	81	12271
2026-01-13 23:20:26.87	21.23	3.15	-57.9	-67.7	4.4	1.38e+00	0	27	104	0	81	11514
2026-01-13 23:20:27.87	21.28	3.21	-57.8	-67.0	4.2	9.26e-01	0	27	104	0	81	10557
2026-01-13 23:20:28.87	21.32	3.27	-57.8	-66.2	5.0	7.11e-01	0	27	0	2097152	81	9712
2026-01-13 23:20:29.87	21.36	3.34	-57.7	-65.8	5.3	5.38e-01	0	27	0	5242880	81	9179
2026-01-13 23:20:30.87	21.41	3.40	-57.6	-65.3	5.6	4.36e-01	0	27	0	8388608	81	8695
2026-01-13 23:20:31.88	21.46	3.46	-57.6	-65.2	5.6	3.39e-01	0	27	0	11534336	81	8608
2026-01-13 23:20:32.87	21.50	3.53	-57.5	-64.6	6.1	3.07e-01	0	27	0	14680064	81	8050
2026-01-13 23:20:33.88	21.55	3.59	-57.3	-64.1	6.4	2.17e-01	0	27	0	17825792	81	7555
2026-01-13 23:20:34.87	21.59	3.66	-57.3	-63.9	6.5	1.80e-01	0	27	0	20971520	81	7448
2026-01-13 23:20:35.87	21.64	3.72	-57.0	-63.0	7.3	9.79e-02	0	27	0	24117248	80	7069
2026-01-13 23:20:36.87	21.68	3.78	-56.8	-62.1	8.0	4.63e-02	0	27	0	27262976	80	6399
2026-01-13 23:20:37.88	21.73	3.85	-56.3	-60.7	9.2	1.01e-02	0	27	0	30408704	79	5777
2026-01-13 23:20:38.88	21.77	3.91	-55.9	-59.8	9.9	3.96e-03	0	27	0	33554432	78	5525
2026-01-13 23:20:39.87	21.82	3.98	-55.2	-58.5	10.9	2.01e-04	0	27	0	35651584	77	5023
2026-01-13 23:20:40.87	21.87	4.04	-54.5	-57.4	11.6	2.13e-05	0	27	0	38797312	75	4952
2026-01-13 23:20:41.87	21.91	4.11	-54.0	-56.6	12.1	7.60e-06	0	27	0	41943040	74	4771
2026-01-13 23:20:42.88	21.96	4.17	-53.4	-55.7	12.6	0.00e+00	0	27	0	45088768	73	4596
2026-01-13 23:20:43.88	22.01	4.24	-53.1	-55.3	12.8	0.00e+00	0	27	0	48234496	72	4640
2026-01-13 23:20:44.88	22.06	4.30	-52.8	-55.0	13.0	0.00e+00	0	27	0	51380224	72	4450
2026-01-13 23:20:45.88	22.10	4.37	-52.5	-54.4	13.2	0.00e+00	0	27	0	54525952	71	4439
2026-01-13 23:20:46.88	22.15	4.44	-52.6	-54.7	13.1	0.00e+00	0	27	0	57671680	71	4565
2026-01-13 23:20:47.88	22.20	4.50	-52.5	-54.5	13.2	0.00e+00	0	27	0	60817408	71	4456
2026-01-13 23:20:48.88	22.25	4.57	-52.8	-54.9	12.9	0.00e+00	0	27	0	63963136	71	4699
2026-01-13 23:20:49.88	22.29	4.63	-53.1	-55.4	12.7	0.00e+00	0	27	0	67108864	71	4965
2026-01-13 23:20:50.89	22.34	4.70	-53.3	-55.7	12.5	0.00e+00	0	27	0	70254592	71	5106
2026-01-13 23:20:51.88	22.39	4.77	-54.0	-56.7	12.0	0.00e+00	0	27	0	73400320	73	5125
2026-01-13 23:20:52.88	22.44	4.83	-54.5	-57.5	11.5	7.00e-07	0	27	0	76546048	74	5285
2026-01-13 23:20:53.88	22.49	4.90	-55.0	-58.4	10.9	7.47e-05	0	27	0	79691776	75	5563
2026-01-13 23:20:54.88	22.54	4.97	-55.6	-59.4	10.1	6.26e-04	0	27	0	82837504	76	5912
2026-01-13 23:20:55.87	22.59	5.03	-56.1	-60.6	9.2	5.41e-03	0	27	0	85983232	77	6357
2026-01-13 23:20:56.87	22.64	5.10	-55.3	-58.8	10.7	3.16e-04	0	27	0	89128960	76	5479
2026-01-13 23:20:57.87	22.69	5.17	-53.1	-55.2	12.9	0.00e+00	0	27	0	92274688	72	4583
2026-01-13 23:20:58.87	22.74	5.24	-57.6	-65.5	5.5	1.68e-01	0	27	0	95420416	80	9421
2026-01-13 23:20:59.87	22.79	5.30	-56.8	-62.0	8.1	2.77e-02	0	27	0	98566144	79	6711
2026-01-13 23:21:00.86	22.84	5.37	-54.5	-57.3	11.7	1.50e-06	0	27	0	101711872	74	5202
2026-01-13 23:21:01.86	22.89	5.44	-53.0	-55.1	13.0	0.00e+00	0	27	0	104857600	72	4497
2026-01-13 23:21:02.87	22.94	5.51	-53.0	-55.2	13.0	0.00e+00	0	27	0	108003328	72	4549
2026-01-13 23:21:03.86	22.99	5.58	-52.6	-54.6	13.2	0.00e+00	0	27	0	111149056	71	4530
2026-01-13 23:21:04.86	23.04	5.64	-52.6	-54.6	13.2	0.00e+00	0	27	0	114294784	71	4536
2026-01-13 23:21:05.86	23.09	5.71	-52.4	-54.3	13.4	0.00e+00	0	27	0	117440512	71	4368
2026-01-13 23:21:06.86	23.15	5.78	-52.2	-54.0	13.6	0.00e+00	0	27	0	120586240	71	4217
2026-01-13 23:21:07.85	23.20	5.85	-52.2	-54.1	13.5	0.00e+00	0	27	0	123731968	70	4498
2026-01-13 23:21:08.85	23.25	5.92	-52.0	-53.8	13.6	0.00e+00	0	27	0	126877696	70	4380
2026-01-13 23:21:09.85	23.30	5.99	-52.0	-53.8	13.6	0.00e+00	0	27	0	130023424	70	4388
2026-01-13 23:21:10.84	23.35	6.06	-52.0	-53.8	13.6	0.00e+00	0	27	0	133169152	70	4376
2026-01-13 23:21:11.85	23.41	6.13	-51.9	-53.7	13.7	0.00e+00	0	27	0	136314880	70	4316
2026-01-13 23:21:12.84	23.46	6.20	-51.9	-53.7	13.7	0.00e+00	0	27	0	139460608	70	4301
2026-01-13 23:21:13.85	23.51	6.27	-52.0	-53.8	13.6	0.00e+00	0	27	0	142606336	70	4391
2026-01-13 23:21:14.84	23.57	6.34	-52.0	-53.7	13.7	0.00e+00	0	27	0	145752064	70	4336
2026-01-13 23:21:15.84	23.62	6.41	-51.7	-53.5	13.8	0.00e+00	0	27	0	148897792	70	4202
2026-01-13 23:21:16.84	23.67	6.48	-51.7	-53.4	13.8	0.00e+00	0	27	0	152043520	70	4192
2026-01-13 23:21:17.84	23.73	6.55	-51.8	-53.6	13.8	0.00e+00	0	27	0	155189248	70	4243
2026-01-13 23:21:18.84	23.78	6.62	-51.9	-53.6	13.7	0.00e+00	0	27	0	158334976	70	4279
2026-01-13 23:21:19.84	23.84	6.69	-51.9	-53.6	13.7	0.00e+00	0	27	0	161480704	70	4270
2026-01-13 23:21:20.83	23.89	6.76	-51.8	-53.5	13.8	0.00e+00	0	27	0	164626432	70	4225
2026-01-13 23:21:21.83	23.95	6.83	-51.9	-53.6	13.7	0.00e+00	0	27	0	167772160	70	4273
2026-01-13 23:21:22.83	24.00	6.91	-51.7	-53.4	13.9	0.00e+00	0	27	0	169869312	70	4164
2026-01-13 23:21:23.83	24.06	6.98	-51.7	-53.4	13.7	0.00e+00	0	27	0	173015040	69	4416
2026-01-13 23:21:24.83	24.12	7.05	-51.9	-53.7	13.6	0.00e+00	0	27	0	176160768	69	4553
2026-01-13 23:21:25.83	24.17	7.12	-51.7	-53.4	13.7	0.00e+00	0	27	0	179306496	69	4433
2026-01-13 23:21:26.83	24.23	7.19	-51.8	-53.5	13.7	0.00e+00	0	27	0	182452224	69	4451
2026-01-13 23:21:27.82	24.28	7.27	-51.8	-53.5	13.7	0.00e+00	0	27	0	185597952	69	4453
2026-01-13 23:21:28.82	24.34	7.34	-51.7	-53.4	13.8	0.00e+00	0	27	0	188743680	69	4398
2026-01-13 23:21:29.81	24.40	7.41	-51.6	-53.3	13.8	0.00e+00	0	27	0	191889408	69	4349
2026-01-13 23:21:30.81	24.46	7.48	-51.4	-53.0	13.9	0.00e+00	0	27	0	195035136	69	4232
2026-01-13 23:21:31.81	24.51	7.56	-51.4	-53.0	14.0	0.00e+00	0	27	0	198180864	69	4208
2026-01-13 23:21:32.81	24.57	7.63	-51.3	-52.9	14.0	0.00e+00	0	27	0	201326592	69	4187
2026-01-13 23:21:33.81	24.63	7.70	-51.4	-53.0	14.0	0.00e+00	0	27	0	204472320	69	4218
2026-01-13 23:21:34.80	24.69	7.78	-51.4	-53.0	14.0	0.00e+00	0	27	0	207618048	69	4219
2026-01-13 23:21:35.80	24.75	7.85	-51.4	-53.1	13.9	0.00e+00	0	27	0	210763776	69	4256
2026-01-13 23:21:36.80	24.81	7.93	-51.5	-53.2	13.9	0.00e+00	0	27	0	213909504	69	4300
2026-01-13 23:21:37.80	24.87	8.00	-51.3	-52.9	14.0	0.00e+00	0	27	0	217055232	69	4180
2026-01-13 23:21:38.80	24.93	8.07	-51.3	-52.9	14.0	0.00e+00	0	27	0	220200960	69	4185
2026-01-13 23:21:39.79	24.99	8.15	-51.3	-52.9	14.1	0.00e+00	0	27	0	223346688	69	4148
2026-01-13 23:21:40.79	25.05	8.22	-51.2	-52.8	14.1	0.00e+00	0	27	0	226492416	69	4119
2026-01-13 23:21:41.79	25.11	8.30	-51.3	-52.9	14.0	0.00e+00	0	27	0	229638144	69	4179
2026-01-13 23:21:42.79	25.17	8.37	-51.3	-52.9	14.1	0.00e+00	0	27	0	232783872	69	4159
2026-01-13 23:21:43.80	25.23	8.45	-51.3	-52.9	14.1	0.00e+00	0	27	0	235929600	69	4178
2026-01-13 23:21:44.80	25.29	8.53	-51.3	-52.9	14.1	0.00e+00	0	27	0	239075328	69	4171
2026-01-13 23:21:45.80	25.35	8.60	-51.3	-52.9	14.1	0.00e+00	0	27	0	242221056	69	4181
2026-01-13 23:21:46.80	25.41	8.68	-51.4	-53.0	14.0	0.00e+00	0	27	0	245366784	69	4202
2026-01-13 23:21:47.79	25.48	8.75	-51.3	-52.9	14.1	0.00e+00	0	27	0	248512512	69	4158
2026-01-13 23:21:48.79	25.54	8.83	-51.3	-52.8	14.1	0.00e+00	0	27	0	251658240	69	4134
2026-01-13 23:21:49.79	25.60	8.91	-51.2	-52.8	14.1	0.00e+00	0	27	0	254803968	69	4101
2026-01-13 23:21:50.78	25.66	8.98	-51.1	-52.7	14.0	0.00e+00	0	27	0	257949696	68	4315
2026-01-13 23:21:51.78	25.73	9.06	-51.1	-52.6	14.1	0.00e+00	0	27	0	261095424	68	4291
2026-01-13 23:21:52.77	25.79	9.14	-51.1	-52.6	14.1	0.00e+00	0	27	0	264241152	68	4265
2026-01-13 23:21:53.77	25.86	9.22	-51.1	-52.7	14.1	0.00e+00	0	27	0	267386880	68	4305
2026-01-13 23:21:54.77	25.92	9.29	-51.1	-52.6	14.1	0.00e+00	0	27	0	270532608	68	4262
2026-01-13 23:21:55.77	25.99	9.37	-50.9	-52.4	14.2	0.00e+00	0	27	0	273678336	68	4159
2026-01-13 23:21:56.76	26.05	9.45	-50.8	-52.3	14.2	0.00e+00	0	27	0	276824064	68	4129
2026-01-13 23:21:57.76	26.12	9.53	-50.9	-52.4	14.2	0.00e+00	0	27	0	279969792	68	4180
2026-01-13 23:21:58.76	26.18	9.61	-50.8	-52.3	14.3	0.00e+00	0	27	0	283115520	68	4102
2026-01-13 23:21:59.76	26.25	9.69	-50.7	-52.2	14.3	0.00e+00	0	27	0	286261248	68	4075
2026-01-13 23:22:00.75	26.31	9.76	-50.7	-52.2	14.3	0.00e+00	0	27	0	289406976	68	4064
2026-01-13 23:22:01.75	26.38	9.84	-50.5	-52.0	14.3	0.00e+00	0	27	0	292552704	67	4203
2026-01-13 23:22:02.74	26.45	9.92	-50.4	-51.9	14.3	0.00e+00	0	27	0	295698432	67	4149
2026-01-13 23:22:03.74	26.51	10.00	-50.5	-51.9	14.3	0.00e+00	0	27	0	297795584	67	4184
2026-01-13 23:22:04.74	26.58	10.08	-50.4	-51.9	14.3	0.00e+00	0	27	0	300941312	67	4161
2026-01-13 23:22:05.73	26.65	10.16	-50.4	-51.8	14.4	0.00e+00	0	27	0	304087040	67	4116
2026-01-13 23:22:06.73	26.72	10.24	-50.3	-51.7	14.4	0.00e+00	0	27	0	307232768	67	4078
2026-01-13 23:22:07.73	26.79	10.32	-50.3	-51.7	14.4	0.00e+00	0	27	0	310378496	67	4097
2026-01-13 23:22:08.72	26.86	10.40	-50.4	-51.8	14.4	0.00e+00	0	27	0	313524224	67	4112
2026-01-13 23:22:09.71	26.92	10.48	-50.3	-51.8	14.4	0.00e+00	0	27	0	316669952	67	4100
2026-01-13 23:22:10.71	26.99	10.57	-50.1	-51.5	14.4	0.00e+00	0	27	0	319815680	66	4197
2026-01-13 23:22:11.71	27.06	10.65	-50.1	-51.5	14.4	0.00e+00	0	27	0	322961408	66	4236
2026-01-13 23:22:12.71	27.14	10.73	-50.1	-51.5	14.3	0.00e+00	0	27	0	326107136	66	4238
2026-01-13 23:22:13.71	27.21	10.81	-50.0	-51.4	14.4	0.00e+00	0	27	0	329252864	66	4164
2026-01-13 23:22:14.71	27.28	10.89	-50.0	-51.3	14.4	0.00e+00	0	27	0	332398592	66	4129
2026-01-13 23:22:15.71	27.35	10.98	-50.0	-51.3	14.4	0.00e+00	0	27	0	335544320	66	4143
2026-01-13 23:22:16.71	27.42	11.06	-50.0	-51.3	14.4	0.00e+00	0	27	0	338690048	66	4144
2026-01-13 23:22:17.70	27.49	11.14	-50.0	-51.3	14.4	0.00e+00	0	27	0	341835776	66	4136
2026-01-13 23:22:18.69	27.57	11.22	-50.0	-51.3	14.4	0.00e+00	0	27	0	344981504	66	4140
2026-01-13 23:22:19.68	27.64	11.31	-50.0	-51.3	14.5	0.00e+00	0	27	0	348127232	66	4138
2026-01-13 23:22:20.68	27.71	11.39	-50.1	-51.5	14.4	0.00e+00	0	27	0	351272960	66	4208
2026-01-13 23:22:21.68	27.79	11.47	-50.2	-51.6	14.4	0.00e+00	0	27	0	354418688	66	4248
2026-01-13 23:22:22.68	27.86	11.56	-50.0	-51.3	14.4	0.00e+00	0	27	0	357564416	66	4145
2026-01-13 23:22:23.68	27.94	11.64	-50.1	-51.5	14.4	0.00e+00	0	27	0	360710144	66	4197
2026-01-13 23:22:24.68	28.01	11.73	-50.0	-51.3	14.5	0.00e+00	0	27	0	363855872	66	4129
2026-01-13 23:22:25.67	28.09	11.81	-49.9	-51.3	14.5	0.00e+00	0	27	0	367001600	66	4102
2026-01-13 23:22:26.67	28.16	11.90	-50.0	-51.3	14.4	0.00e+00	0	27	0	370147328	66	4139
2026-01-13 23:22:27.66	28.24	11.98	-49.9	-51.2	14.5	0.00e+00	0	27	0	373293056	66	4073
2026-01-13 23:22:28.66	28.32	12.07	-49.9	-51.2	14.5	0.00e+00	0	27	0	376438784	66	4078
2026-01-13 23:22:29.66	28.39	12.16	-49.9	-51.2	14.5	0.00e+00	0	27	0	379584512	66	4081
2026-01-13 23:22:30.66	28.47	12.24	-49.7	-51.0	14.6	0.00e+00	0	27	0	382730240	66	4003
2026-01-13 23:22:31.66	28.55	12.33	-49.6	-50.9	14.5	0.00e+00	0	27	0	385875968	65	4184
2026-01-13 23:22:32.66	28.63	12.42	-49.6	-50.9	14.5	0.00e+00	0	27	0	389021696	65	4170
2026-01-13 23:22:33.67	28.71	12.50	-49.6	-50.9	14.5	0.00e+00	0	27	0	392167424	65	4152
2026-01-13 23:22:34.66	28.79	12.59	-49.6	-50.9	14.5	0.00e+00	0	27	0	395313152	65	4191
2026-01-13 23:22:35.66	28.87	12.68	-49.5	-50.8	14.5	0.00e+00	0	27	0	398458880	65	4145
2026-01-13 23:22:36.66	28.95	12.77	-49.6	-50.9	14.5	0.00e+00	0	27	0	401604608	65	4186
2026-01-13 23:22:37.66	29.03	12.85	-49.5	-50.8	14.5	0.00e+00	0	27	0	404750336	65	4143
2026-01-13 23:22:38.65	29.11	12.94	-49.6	-50.9	14.5	0.00e+00	0	27	0	407896064	65	4156
2026-01-13 23:22:39.64	29.19	13.03	-49.6	-50.9	14.5	0.00e+00	0	27	0	411041792	65	4157
2026-01-13 23:22:40.63	29.27	13.12	-49.5	-50.8	14.6	0.00e+00	0	28	0	413138944	65	4108
2026-01-13 23:22:41.63	29.35	13.21	-49.5	-50.9	14.5	0.00e+00	0	27	0	416284672	65	4149
2026-01-13 23:22:42.63	29.44	13.30	-49.5	-50.8	14.6	0.00e+00	0	27	0	419430400	65	4125
2026-01-13 23:22:43.64	29.52	13.39	-49.6	-50.9	14.5	0.00e+00	0	27	0	422576128	65	4189
2026-01-13 23:22:44.64	29.61	13.48	-49.6	-50.9	14.5	0.00e+00	0	27	0	425721856	65	4152
2026-01-13 23:22:45.64	29.69	13.57	-49.6	-50.9	14.5	0.00e+00	0	27	0	428867584	65	4182
2026-01-13 23:22:46.64	29.78	13.66	-49.6	-50.9	14.5	0.00e+00	0	27	0	432013312	65	4153
2026-01-13 23:22:47.64	29.86	13.75	-49.6	-50.9	14.5	0.00e+00	0	27	0	435159040	65	4155
2026-01-13 23:22:48.63	29.95	13.84	-49.5	-50.8	14.6	0.00e+00	0	27	0	438304768	65	4110
2026-01-13 23:22:49.64	30.03	13.93	-49.5	-50.8	14.6	0.00e+00	0	27	0	441450496	65	4132
2026-01-13 23:22:50.63	30.12	14.03	-49.5	-50.8	14.6	0.00e+00	0	27	0	444596224	65	4142
2026-01-13 23:22:51.63	30.21	14.12	-49.6	-50.9	14.5	0.00e+00	0	27	0	447741952	65	4163
2026-01-13 23:22:52.63	30.30	14.21	-49.5	-50.8	14.6	0.00e+00	0	27	0	450887680	65	4129
2026-01-13 23:22:53.62	30.38	14.30	-49.6	-51.0	14.5	0.00e+00	0	27	0	454033408	65	4200
2026-01-13 23:22:54.62	30.47	14.40	-49.5	-50.9	14.6	0.00e+00	0	27	0	457179136	65	4146
2026-01-13 23:22:55.62	30.56	14.49	-49.5	-50.8	14.6	0.00e+00	0	27	0	460324864	65	4126
2026-01-13 23:22:56.62	30.65	14.58	-49.5	-50.8	14.6	0.00e+00	0	27	0	463470592	65	4135
2026-01-13 23:22:57.61	30.74	14.68	-49.4	-50.7	14.6	0.00e+00	0	27	0	466616320	65	4085
2026-01-13 23:22:58.61	30.84	14.77	-49.5	-50.8	14.6	0.00e+00	0	27	0	469762048	65	4119
2026-01-13 23:22:59.61	30.93	14.86	-49.5	-50.8	14.6	0.00e+00	0	27	0	472907776	65	4136
2026-01-13 23:23:00.60	31.02	14.96	-49.4	-50.7	14.6	0.00e+00	0	27	0	476053504	65	4065
2026-01-13 23:23:01.59	31.11	15.05	-49.5	-50.7	14.6	0.00e+00	0	27	0	479199232	65	4096
2026-01-13 23:23:02.59	31.20	15.15	-49.5	-50.8	14.6	0.00e+00	0	27	0	482344960	65	4121
2026-01-13 23:23:03.59	31.30	15.24	-49.6	-50.9	14.6	0.00e+00	0	27	0	485490688	65	4167
2026-01-13 23:23:04.59	31.39	15.34	-49.6	-50.9	14.5	0.00e+00	0	27	0	488636416	65	4172
2026-01-13 23:23:05.58	31.49	15.44	-49.6	-51.0	14.5	0.00e+00	0	27	0	491782144	65	4198
2026-01-13 23:23:06.58	31.58	15.53	-49.6	-50.9	14.5	0.00e+00	0	27	0	494927872	65	4172
2026-01-13 23:23:07.57	31.68	15.63	-49.7	-51.0	14.5	0.00e+00	0	27	0	498073600	65	4214
2026-01-13 23:23:08.57	31.78	15.73	-49.7	-51.1	14.5	0.00e+00	0	27	0	501219328	65	4244
2026-01-13 23:23:09.56	31.87	15.82	-49.8	-51.2	14.5	0.00e+00	0	27	0	504365056	65	4295
2026-01-13 23:23:10.56	31.97	15.92	-49.8	-51.2	14.5	0.00e+00	0	27	0	507510784	65	4294
2026-01-13 23:23:11.57	32.07	16.02	-49.8	-51.1	14.5	0.00e+00	0	27	0	510656512	65	4278
2026-01-13 23:23:12.56	32.17	16.12	-49.8	-51.1	14.5	0.00e+00	0	27	0	513802240	65	4272
2026-01-13 23:23:13.56	32.27	16.22	-49.8	-51.2	14.4	0.00e+00	0	27	0	516947968	65	4310
2026-01-13 23:23:14.56	32.37	16.32	-49.8	-51.1	14.5	0.00e+00	0	27	0	520093696	65	4283
2026-01-13 23:23:15.55	32.47	16.42	-49.8	-51.1	14.5	0.00e+00	0	27	0	523239424	65	4288
2026-01-13 23:23:16.56	32.58	16.52	-49.7	-51.0	14.5	0.00e+00	0	27	0	526385152	65	4220
2026-01-13 23:23:17.55	32.68	16.62	-49.7	-51.0	14.5	0.00e+00	0	27	0	528482304	65	4233
2026-01-13 23:23:18.56	32.78	16.72	-49.7	-51.0	14.5	0.00e+00	0	27	0	531628032	65	4214
2026-01-13 23:23:19.55	32.88	16.82	-49.7	-51.0	14.5	0.00e+00	0	27	0	534773760	65	4227
2026-01-13 23:23:20.56	32.99	16.92	-49.7	-51.1	14.5	0.00e+00	0	27	0	537919488	65	4246
2026-01-13 23:23:21.55	33.09	17.02	-49.8	-51.2	14.5	0.00e+00	0	27	0	541065216	65	4292
2026-01-13 23:23:22.55	33.20	17.12	-49.8	-51.2	14.4	0.00e+00	0	27	0	544210944	65	4308
2026-01-13 23:23:23.55	33.31	17.22	-50.0	-51.3	14.4	0.00e+00	0	27	0	547356672	65	4373
2026-01-13 23:23:24.55	33.42	17.33	-50.0	-51.3	14.4	0.00e+00	0	27	0	550502400	65	4380
2026-01-13 23:23:25.54	33.52	17.43	-50.0	-51.4	14.4	0.00e+00	0	27	0	553648128	65	4395
2026-01-13 23:23:26.54	33.63	17.53	-50.1	-51.4	14.4	0.00e+00	0	27	0	556793856	65	4429
2026-01-13 23:23:27.55	33.74	17.64	-50.2	-51.5	14.3	0.00e+00	0	27	0	559939584	65	4492
2026-01-13 23:23:28.55	33.85	17.74	-50.1	-51.5	14.3	0.00e+00	0	27	0	563085312	65	4486
2026-01-13 23:23:29.54	33.96	17.84	-50.1	-51.5	14.3	0.00e+00	0	27	0	566231040	65	4452
2026-01-13 23:23:30.54	34.07	17.95	-50.1	-51.5	14.3	0.00e+00	0	27	0	569376768	65	4482
2026-01-13 23:23:31.54	34.19	18.05	-50.1	-51.4	14.3	0.00e+00	0	27	0	572522496	65	4431
2026-01-13 23:23:32.53	34.30	18.16	-50.0	-51.4	14.4	0.00e+00	0	27	0	575668224	65	4418
2026-01-13 23:23:33.53	34.41	18.26	-50.0	-51.3	14.4	0.00e+00	0	27	0	578813952	65	4378
2026-01-13 23:23:34.53	34.53	18.37	-50.0	-51.4	14.4	0.00e+00	0	27	0	581959680	65	4392
2026-01-13 23:23:35.53	34.64	18.48	-49.9	-51.3	14.4	0.00e+00	0	27	0	585105408	65	4349
2026-01-13 23:23:36.53	34.76	18.58	-49.9	-51.2	14.5	0.00e+00	0	27	0	588251136	65	4311
2026-01-13 23:23:37.52	34.88	18.69	-49.9	-51.2	14.5	0.00e+00	0	27	0	591396864	65	4329
2026-01-13 23:23:38.53	34.99	18.80	-49.8	-51.2	14.5	0.00e+00	0	27	0	594542592	65	4299
2026-01-13 23:23:39.52	35.11	18.91	-49.9	-51.2	14.4	0.00e+00	0	27	0	597688320	65	4337
2026-01-13 23:23:40.52	35.23	19.01	-49.9	-51.3	14.4	0.00e+00	0	27	0	600834048	65	4342
2026-01-13 23:23:41.53	35.35	19.12	-49.9	-51.3	14.4	0.00e+00	0	27	0	603979776	65	4351
2026-01-13 23:23:42.52	35.47	19.23	-49.9	-51.2	14.4	0.00e+00	0	27	0	607125504	65	4332
2026-01-13 23:23:43.53	35.60	19.34	-49.9	-51.2	14.4	0.00e+00	0	27	0	610271232	65	4312
2026-01-13 23:23:44.53	35.72	19.45	-49.9	-51.2	14.4	0.00e+00	0	27	0	613416960	65	4315
2026-01-13 23:23:45.53	35.84	19.56	-49.9	-51.2	14.4	0.00e+00	0	27	0	616562688	65	4316
2026-01-13 23:23:46.52	35.97	19.67	-49.8	-51.1	14.5	0.00e+00	0	27	0	619708416	65	4262
2026-01-13 23:23:47.52	36.09	19.78	-49.7	-51.0	14.5	0.00e+00	0	27	0	622854144	65	4204
2026-01-13 23:23:48.52	36.22	19.89	-49.7	-51.0	14.5	0.00e+00	0	27	0	625999872	65	4235
2026-01-13 23:23:49.52	36.35	20.00	-49.6	-50.9	14.6	0.00e+00	0	27	0	629145600	65	4174
2026-01-13 23:23:50.52	36.47	20.12	-49.5	-50.8	14.6	0.00e+00	0	27	0	632291328	65	4107
2026-01-13 23:23:51.51	36.60	20.23	-49.4	-50.7	14.6	0.00e+00	0	27	0	635437056	65	4086
2026-01-13 23:23:52.50	36.73	20.34	-49.4	-50.7	14.6	0.00e+00	0	27	0	638582784	65	4083
2026-01-13 23:23:53.51	36.86	20.45	-49.4	-50.7	14.6	0.00e+00	0	27	0	641728512	65	4069
2026-01-13 23:23:54.50	36.99	20.56	-49.4	-50.6	14.7	0.00e+00	0	27	0	644874240	65	4031
2026-01-13 23:23:55.50	37.13	20.68	-49.3	-50.6	14.7	0.00e+00	0	27	0	648019968	65	4026
2026-01-13 23:23:56.50	37.26	20.79	-49.4	-50.7	14.6	0.00e+00	0	27	0	651165696	65	4072
2026-01-13 23:23:57.50	37.39	20.91	-49.4	-50.6	14.7	0.00e+00	0	27	0	654311424	65	4049
2026-01-13 23:23:58.50	37.53	21.02	-49.3	-50.6	14.7	0.00e+00	0	27	0	657457152	65	4005
2026-01-13 23:23:59.50	37.67	21.14	-49.3	-50.5	14.7	0.00e+00	0	27	0	660602880	65	3995
2026-01-13 23:24:00.49	37.80	21.25	-49.2	-50.5	14.7	0.00e+00	0	27	0	662700032	65	3980
2026-01-13 23:24:01.49	37.94	21.37	-49.3	-50.6	14.7	0.00e+00	0	27	0	665845760	65	4007
2026-01-13 23:24:02.49	38.08	21.48	-49.1	-50.4	14.6	0.00e+00	0	27	0	668991488	64	4154
2026-01-13 23:24:03.49	38.22	21.60	-49.2	-50.5	14.6	0.00e+00	0	27	0	672137216	64	4212
2026-01-13 23:24:04.48	38.36	21.72	-49.1	-50.3	14.7	0.00e+00	0	27	0	675282944	64	4130
2026-01-13 23:24:05.47	38.50	21.83	-49.0	-50.3	14.7	0.00e+00	0	27	0	678428672	64	4107
2026-01-13 23:24:06.47	38.65	21.95	-48.9	-50.1	14.8	0.00e+00	0	27	0	681574400	64	4032
2026-01-13 23:24:07.47	38.79	22.07	-48.9	-50.1	14.8	0.00e+00	0	27	0	684720128	64	4044
2026-01-13 23:24:08.47	38.94	22.19	-48.9	-50.2	14.7	0.00e+00	0	27	0	687865856	64	4065
2026-01-13 23:24:09.46	39.08	22.30	-49.0	-50.2	14.7	0.00e+00	0	27	0	691011584	64	4090
2026-01-13 23:24:10.45	39.23	22.42	-49.0	-50.3	14.7	0.00e+00	0	27	0	694157312	64	4103
2026-01-13 23:24:11.45	39.38	22.54	-48.9	-50.2	14.7	0.00e+00	0	27	0	697303040	64	4061
2026-01-13 23:24:12.45	39.53	22.66	-48.8	-50.0	14.8	0.00e+00	0	27	0	700448768	64	3995
2026-01-13 23:24:13.44	39.68	22.78	-48.8	-50.1	14.8	0.00e+00	0	27	0	703594496	64	4010
2026-01-13 23:24:14.44	39.83	22.90	-48.7	-49.9	14.8	0.00e+00	0	27	0	706740224	64	3949
2026-01-13 23:24:15.44	39.98	23.02	-48.7	-49.9	14.7	0.00e+00	0	27	0	709885952	63	4146
2026-01-13 23:24:16.44	40.14	23.14	-48.6	-49.8	14.8	0.00e+00	0	27	0	713031680	63	4129
2026-01-13 23:24:17.44	40.29	23.27	-48.6	-49.8	14.8	0.00e+00	0	27	0	716177408	63	4119
2026-01-13 23:24:18.44	40.45	23.39	-48.6	-49.7	14.8	0.00e+00	0	27	0	719323136	63	4097
2026-01-13 23:24:19.44	40.61	23.51	-48.6	-49.8	14.8	0.00e+00	0	27	0	722468864	63	4103
2026-01-13 23:24:20.43	40.77	23.63	-48.5	-49.7	14.8	0.00e+00	0	27	0	725614592	63	4093
2026-01-13 23:24:21.43	40.93	23.76	-48.7	-49.9	14.7	0.00e+00	0	27	0	728760320	63	4157
2026-01-13 23:24:22.44	41.09	23.88	-48.7	-50.0	14.7	0.00e+00	0	27	0	731906048	63	4200
2026-01-13 23:24:23.44	41.25	24.00	-48.7	-50.0	14.7	0.00e+00	0	27	0	735051776	63	4198
2026-01-13 23:24:24.44	41.42	24.13	-48.8	-50.0	14.7	0.00e+00	0	27	0	738197504	63	4231
2026-01-13 23:24:25.44	41.58	24.25	-48.8	-50.1	14.7	0.00e+00	0	27	0	741343232	63	4243
2026-01-13 23:24:26.44	41.75	24.38	-48.7	-49.9	14.7	0.00e+00	0	27	0	744488960	63	4187
2026-01-13 23:24:27.44	41.92	24.50	-48.7	-50.0	14.7	0.00e+00	0	27	0	747634688	63	4198
2026-01-13 23:24:28.43	42.09	24.63	-48.6	-49.7	14.8	0.00e+00	0	27	0	750780416	63	4092
2026-01-13 23:24:29.44	42.26	24.76	-48.5	-49.7	14.8	0.00e+00	0	27	0	753926144	63	4053
2026-01-13 23:24:30.43	42.43	24.88	-48.6	-49.8	14.8	0.00e+00	0	27	0	757071872	63	4112
2026-01-13 23:24:31.43	42.60	25.01	-48.5	-49.7	14.8	0.00e+00	0	27	0	760217600	63	4085
2026-01-13 23:24:32.43	42.78	25.14	-48.6	-49.8	14.8	0.00e+00	0	27	0	763363328	63	4143
2026-01-13 23:24:33.43	42.96	25.26	-48.8	-50.0	14.7	0.00e+00	0	27	0	766509056	63	4207
2026-01-13 23:24:34.43	43.13	25.39	-48.8	-50.0	14.7	0.00e+00	0	27	0	769654784	63	4213
2026-01-13 23:24:35.42	43.31	25.52	-48.9	-50.1	14.7	0.00e+00	0	27	0	771751936	63	4279
2026-01-13 23:24:36.42	43.49	25.65	-49.0	-50.2	14.6	0.00e+00	0	27	0	774897664	63	4338
2026-01-13 23:24:37.42	43.67	25.77	-48.9	-50.1	14.7	0.00e+00	0	27	0	778043392	63	4290
2026-01-13 23:24:38.41	43.85	25.90	-49.0	-50.2	14.6	0.00e+00	0	27	0	781189120	63	4322
2026-01-13 23:24:39.41	44.04	26.03	-49.1	-50.3	14.6	0.00e+00	0	27	0	784334848	63	4364
2026-01-13 23:24:40.41	44.23	26.16	-49.1	-50.4	14.6	0.00e+00	0	27	0	787480576	63	4400
2026-01-13 23:24:41.41	44.41	26.29	-49.2	-50.5	14.6	0.00e+00	0	27	0	790626304	63	4446
2026-01-13 23:24:42.41	44.60	26.42	-49.3	-50.6	14.5	0.00e+00	0	27	0	793772032	63	4507
2026-01-13 23:24:43.40	44.79	26.55	-49.4	-50.7	14.5	0.00e+00	0	27	0	796917760	64	4326
2026-01-13 23:24:44.40	44.98	26.68	-49.7	-51.1	14.5	0.00e+00	0	27	0	800063488	64	4501
2026-01-13 23:24:45.40	45.18	26.81	-49.9	-51.2	14.4	0.00e+00	0	27	0	803209216	64	4571
2026-01-13 23:24:46.40	45.37	26.95	-49.9	-51.2	14.5	0.00e+00	0	27	0	806354944	65	4325
2026-01-13 23:24:47.40	45.57	27.08	-50.0	-51.3	14.4	0.00e+00	0	27	0	809500672	65	4384
2026-01-13 23:24:48.39	45.77	27.21	-49.9	-51.2	14.5	0.00e+00	0	27	0	812646400	65	4316
2026-01-13 23:24:49.39	45.97	27.34	-49.8	-51.1	14.5	0.00e+00	0	27	0	815792128	65	4270
2026-01-13 23:24:50.39	46.17	27.47	-49.9	-51.2	14.5	0.00e+00	0	27	0	818937856	65	4317
2026-01-13 23:24:51.39	46.37	27.61	-49.7	-51.0	14.6	0.00e+00	0	27	0	822083584	65	4235
2026-01-13 23:24:52.40	46.58	27.74	-49.8	-51.1	14.5	0.00e+00	0	27	0	825229312	65	4283
2026-01-13 23:24:53.40	46.79	27.88	-49.9	-51.3	14.5	0.00e+00	0	27	0	828375040	65	4342
2026-01-13 23:24:54.39	46.99	28.01	-50.0	-51.4	14.4	0.00e+00	0	27	0	831520768	65	4403
2026-01-13 23:24:55.39	47.20	28.14	-50.2	-51.6	14.4	0.00e+00	0	27	0	834666496	65	4517
2026-01-13 23:24:56.37	47.41	28.27	-50.3	-51.7	14.3	0.00e+00	0	27	0	837812224	65	4555
2026-01-13 23:24:57.37	47.62	28.41	-50.2	-51.6	14.3	0.00e+00	0	27	0	840957952	65	4514
2026-01-13 23:24:58.37	47.84	28.54	-50.2	-51.6	14.4	0.00e+00	0	27	0	844103680	65	4494
2026-01-13 23:24:59.37	48.06	28.68	-50.0	-51.4	14.4	0.00e+00	0	27	0	847249408	65	4407
2026-01-13 23:25:00.37	48.28	28.81	-49.8	-51.1	14.5	0.00e+00	0	27	0	850395136	65	4269
2026-01-13 23:25:01.37	48.50	28.95	-49.7	-50.9	14.6	0.00e+00	0	27	0	853540864	65	4193
2026-01-13 23:25:02.37	48.72	29.08	-49.7	-50.9	14.6	0.00e+00	0	27	0	856686592	65	4190
2026-01-13 23:25:03.36	48.94	29.22	-49.6	-50.9	14.6	0.00e+00	0	27	0	859832320	65	4164
2026-01-13 23:25:04.36	49.17	29.36	-49.7	-50.9	14.6	0.00e+00	0	27	0	862978048	65	4181
2026-01-13 23:25:05.35	49.39	29.49	-49.7	-51.0	14.6	0.00e+00	0	27	0	866123776	65	4201
2026-01-13 23:25:06.34	49.62	29.63	-49.8	-51.1	14.5	0.00e+00	0	27	0	869269504	65	4273
2026-01-13 23:25:07.34	49.85	29.76	-49.8	-51.1	14.5	0.00e+00	0	27	0	872415232	65	4290
2026-01-13 23:25:08.34	50.09	29.90	-49.7	-50.9	14.6	0.00e+00	0	27	0	875560960	65	4177
2026-01-13 23:25:09.34	50.32	30.04	-49.5	-50.7	14.7	0.00e+00	0	27	0	878706688	65	4098
2026-01-13 23:25:10.34	50.56	30.17	-49.4	-50.7	14.7	0.00e+00	0	27	0	881852416	65	4067
2026-01-13 23:25:11.34	50.80	30.31	-49.5	-50.7	14.7	0.00e+00	0	27	0	883949568	65	4082
2026-01-13 23:25:12.34	51.04	30.45	-49.4	-50.7	14.7	0.00e+00	0	27	0	887095296	65	4070
2026-01-13 23:25:13.33	51.29	30.58	-49.4	-50.6	14.7	0.00e+00	0	27	0	890241024	65	4043
2026-01-13 23:25:14.34	51.53	30.72	-49.5	-50.7	14.7	0.00e+00	0	27	0	893386752	65	4095
2026-01-13 23:25:15.34	51.78	30.86	-49.7	-51.0	14.6	0.00e+00	0	27	0	896532480	65	4197
2026-01-13 23:25:16.33	52.03	31.00	-49.7	-50.9	14.6	0.00e+00	0	27	0	899678208	65	4188
2026-01-13 23:25:17.33	52.28	31.13	-49.5	-50.8	14.6	0.00e+00	0	27	0	902823936	65	4113
2026-01-13 23:25:18.32	52.53	31.27	-49.3	-50.6	14.7	0.00e+00	0	27	0	905969664	65	4020
2026-01-13 23:25:19.31	52.79	31.41	-49.3	-50.5	14.8	0.00e+00	0	27	0	909115392	65	3991
2026-01-13 23:25:20.31	53.05	31.54	-49.2	-50.5	14.8	0.00e+00	0	27	0	912261120	65	3960
2026-01-13 23:25:21.31	53.31	31.68	-49.4	-50.6	14.7	0.00e+00	0	27	0	915406848	65	4035
2026-01-13 23:25:22.31	53.57	31.82	-49.6	-50.9	14.6	0.00e+00	0	27	0	918552576	65	4170
2026-01-13 23:25:23.31	53.83	31.96	-49.8	-51.1	14.5	0.00e+00	0	27	0	921698304	65	4259
2026-01-13 23:25:24.30	54.10	32.09	-49.9	-51.3	14.5	0.00e+00	0	27	0	924844032	65	4348
2026-01-13 23:25:25.30	54.37	32.23	-50.2	-51.5	14.4	0.00e+00	0	27	0	927989760	65	4484
2026-01-13 23:25:26.30	54.64	32.37	-50.2	-51.5	14.4	0.00e+00	0	27	0	931135488	65	4491
2026-01-13 23:25:27.30	54.91	32.51	-50.0	-51.4	14.4	0.00e+00	0	27	0	934281216	65	4410
2026-01-13 23:25:28.30	55.19	32.65	-49.8	-51.1	14.5	0.00e+00	0	27	0	937426944	65	4285
2026-01-13 23:25:29.30	55.47	32.78	-49.8	-51.1	14.5	0.00e+00	0	27	0	940572672	65	4278
2026-01-13 23:25:30.30	55.75	32.92	-49.8	-51.1	14.5	0.00e+00	0	27	0	943718400	65	4286
2026-01-13 23:25:31.29	56.03	33.06	-49.8	-51.1	14.5	0.00e+00	0	27	0	946864128	65	4281
2026-01-13 23:25:32.30	56.32	33.19	-49.9	-51.2	14.5	0.00e+00	0	27	0	950009856	65	4316
2026-01-13 23:25:33.29	56.61	33.33	-50.0	-51.3	14.5	0.00e+00	0	27	0	953155584	65	4362
2026-01-13 23:25:34.28	56.89	33.47	-50.3	-51.7	14.3	0.00e+00	0	27	0	956301312	65	4582
2026-01-13 23:25:35.29	57.19	33.60	-50.4	-51.8	14.4	0.00e+00	0	27	0	959447040	66	4381
2026-01-13 23:25:36.28	57.48	33.74	-50.5	-51.9	14.4	0.00e+00	0	27	0	962592768	66	4420
2026-01-13 23:25:37.29	57.78	33.88	-50.5	-51.9	14.3	0.00e+00	0	27	0	965738496	66	4412
2026-01-13 23:25:38.29	58.08	34.01	-50.5	-51.9	14.4	0.00e+00	0	27	0	968884224	66	4393
2026-01-13 23:25:39.29	58.38	34.15	-50.5	-51.9	14.4	0.00e+00	0	27	0	972029952	66	4393
2026-01-13 23:25:40.28	58.69	34.28	-50.5	-51.8	14.3	0.00e+00	0	27	0	975175680	66	4390
2026-01-13 23:25:41.28	58.99	34.42	-50.7	-52.1	14.3	0.00e+00	0	27	0	978321408	66	4509
2026-01-13 23:25:42.28	59.30	34.55	-50.8	-52.3	14.2	0.00e+00	0	27	0	981467136	66	4603
2026-01-13 23:25:43.27	59.61	34.69	-51.0	-52.4	14.2	0.00e+00	0	27	0	984612864	67	4428
2026-01-13 23:25:44.27	59.93	34.82	-50.9	-52.4	14.2	0.00e+00	0	27	0	987758592	67	4423
2026-01-13 23:25:45.27	60.25	34.95	-50.8	-52.2	14.3	0.00e+00	0	27	0	990904320	67	4326
2026-01-13 23:25:46.27	60.57	35.09	-50.7	-52.1	14.4	0.00e+00	0	27	0	994050048	67	4267
2026-01-13 23:25:47.27	60.89	35.22	-50.6	-52.0	14.4	0.00e+00	0	27	0	997195776	67	4204
2026-01-13 23:25:48.26	61.21	35.35	-50.6	-52.0	14.4	0.00e+00	0	27	0	1000341504	67	4230
2026-01-13 23:25:49.26	61.54	35.48	-50.8	-52.3	14.3	0.00e+00	0	27	0	1003487232	67	4349
2026-01-13 23:25:50.27	61.87	35.62	-50.9	-52.4	14.3	0.00e+00	0	27	0	1006632960	67	4398
2026-01-13 23:25:51.26	62.20	35.75	-51.1	-52.6	14.1	0.00e+00	0	27	0	1009778688	67	4529
2026-01-13 23:25:52.26	62.54	35.88	-51.1	-52.6	14.1	0.00e+00	0	27	0	1012924416	67	4534
2026-01-13 23:25:53.26	62.88	36.01	-51.1	-52.6	14.1	0.00e+00	0	27	0	1016070144	67	4515
2026-01-13 23:25:54.26	63.22	36.14	-50.9	-52.4	14.3	0.00e+00	0	27	0	1018167296	67	4396
2026-01-13 23:25:55.26	63.56	36.26	-50.8	-52.2	14.3	0.00e+00	0	27	0	1021313024	67	4331
2026-01-13 23:25:56.26	63.91	36.39	-50.9	-52.3	14.3	0.00e+00	0	27	0	1024458752	67	4356
2026-01-13 23:25:57.26	64.26	36.52	-50.8	-52.2	14.3	0.00e+00	0	27	0	1027604480	67	4293
2026-01-13 23:25:58.26	64.61	36.65	-50.9	-52.3	14.3	0.00e+00	0	27	0	1030750208	67	4382
2026-01-13 23:25:59.25	64.96	36.77	-50.9	-52.3	14.3	0.00e+00	0	27	0	1033895936	67	4376
2026-01-13 23:26:00.25	65.32	36.90	-51.1	-52.5	14.2	0.00e+00	0	27	0	1037041664	67	4481
2026-01-13 23:26:01.25	65.68	37.02	-51.3	-52.8	14.1	0.00e+00	0	27	0	1040187392	67	4614
2026-01-13 23:26:02.24	66.04	37.14	-51.6	-53.2	14.1	0.00e+00	0	27	0	1043333120	68	4553
2026-01-13 23:26:03.24	66.41	37.27	-51.6	-53.1	14.1	0.00e+00	0	27	0	1046478848	68	4518
2026-01-13 23:26:04.24	66.78	37.39	-51.3	-52.8	14.2	0.00e+00	0	27	0	1049624576	68	4367
2026-01-13 23:26:05.24	67.15	37.51	-51.2	-52.6	14.3	0.00e+00	0	27	0	1052770304	68	4290
2026-01-13 23:26:06.23	67.52	37.63	-51.1	-52.5	14.3	0.00e+00	0	27	0	1055916032	68	4234
2026-01-13 23:26:07.23	67.89	37.75	-51.1	-52.5	14.3	0.00e+00	0	27	0	1059061760	68	4214
2026-01-13 23:26:08.23	68.27	37.87	-51.2	-52.6	14.3	0.00e+00	0	27	0	1062207488	68	4253
2026-01-13 23:26:09.22	68.65	37.98	-51.3	-52.8	14.2	0.00e+00	0	27	0	1065353216	68	4359
2026-01-13 23:26:10.22	69.03	38.10	-51.5	-53.0	14.1	0.00e+00	0	27	0	1068498944	68	4463
2026-01-13 23:26:11.22	69.42	38.22	-51.7	-53.3	14.0	0.00e+00	0	27	0	1071644672	68	4616
2026-01-13 23:26:12.21	69.81	38.33	-51.8	-53.4	14.0	0.00e+00	0	27	0	1074790400	68	4670
2026-01-13 23:26:13.21	70.20	38.44	-51.8	-53.4	13.9	0.00e+00	0	27	0	1077936128	68	4683
2026-01-13 23:26:14.21	70.60	38.56	-51.8	-53.4	14.1	0.00e+00	0	27	0	1081081856	69	4408
2026-01-13 23:26:15.20	70.99	38.67	-51.6	-53.0	14.2	0.00e+00	0	27	0	1084227584	69	4233
2026-01-13 23:26:16.20	71.39	38.78	-51.6	-53.0	14.2	0.00e+00	0	27	0	1087373312	69	4239
2026-01-13 23:26:17.20	71.80	38.89	-51.6	-53.1	14.2	0.00e+00	0	27	0	1090519040	69	4282
2026-01-13 23:26:18.20	72.20	38.99	-51.8	-53.3	14.1	0.00e+00	0	27	0	1093664768	69	4367
2026-01-13 23:26:19.19	72.61	39.10	-51.7	-53.2	14.1	0.00e+00	0	27	0	1096810496	69	4339
2026-01-13 23:26:20.18	73.01	39.20	-51.9	-53.5	14.0	0.00e+00	0	27	0	1099956224	69	4446
2026-01-13 23:26:21.18	73.43	39.31	-52.0	-53.5	14.0	0.00e+00	0	27	0	1103101952	69	4490
2026-01-13 23:26:22.18	73.84	39.41	-52.0	-53.5	14.0	0.00e+00	0	27	0	1106247680	69	4479
2026-01-13 23:26:23.17	74.26	39.51	-52.1	-53.7	13.9	0.00e+00	0	27	0	1109393408	69	4594
2026-01-13 23:26:24.17	74.68	39.61	-52.2	-53.9	13.8	0.00e+00	0	27	0	1112539136	69	4655
2026-01-13 23:26:25.17	75.11	39.71	-52.1	-53.8	13.9	0.00e+00	0	27	0	1115684864	69	4609
2026-01-13 23:26:26.16	75.53	39.80	-52.2	-53.8	13.9	0.00e+00	0	27	0	1118830592	69	4620
2026-01-13 23:26:27.16	75.96	39.90	-52.2	-53.8	13.9	0.00e+00	0	27	0	1121976320	69	4618
2026-01-13 23:26:28.15	76.39	39.99	-52.1	-53.6	14.0	0.00e+00	0	27	0	1125122048	69	4540
2026-01-13 23:26:29.16	76.82	40.09	-52.2	-53.8	13.9	0.00e+00	0	27	0	1127219200	69	4644
2026-01-13 23:26:30.16	77.26	40.18	-52.3	-53.9	13.8	0.00e+00	0	27	0	1130364928	69	4691
2026-01-13 23:26:31.16	77.70	40.27	-52.2	-53.8	13.9	0.00e+00	0	27	0	1133510656	69	4601
2026-01-13 23:26:32.15	78.14	40.35	-52.0	-53.5	14.0	0.00e+00	0	27	0	1136656384	69	4488
2026-01-13 23:26:33.15	78.58	40.44	-51.7	-53.2	14.1	0.00e+00	0	27	0	1139802112	69	4318
2026-01-13 23:26:34.15	79.03	40.52	-51.6	-53.1	14.2	0.00e+00	0	27	0	1142947840	69	4252
2026-01-13 23:26:35.15	79.48	40.60	-51.8	-53.4	14.1	0.00e+00	0	27	0	1146093568	69	4402
2026-01-13 23:26:36.14	79.92	40.68	-52.2	-53.8	13.9	0.00e+00	0	27	0	1149239296	69	4639
2026-01-13 23:26:37.14	80.38	40.76	-52.3	-54.0	13.8	0.00e+00	0	27	0	1152385024	69	4716
2026-01-13 23:26:38.14	80.83	40.84	-52.1	-53.8	13.9	0.00e+00	0	27	0	1155530752	69	4600
2026-01-13 23:26:39.13	81.28	40.92	-52.2	-53.9	13.8	0.00e+00	0	27	0	1158676480	69	4654
2026-01-13 23:26:40.13	81.74	40.99	-52.1	-53.7	13.8	0.00e+00	0	27	0	1161822208	69	4576
2026-01-13 23:26:41.13	82.20	41.06	-52.2	-53.8	13.8	0.00e+00	0	27	0	1164967936	69	4635
2026-01-13 23:26:42.13	82.67	41.13	-52.0	-53.6	13.9	0.00e+00	0	27	0	1168113664	69	4542
2026-01-13 23:26:43.12	83.13	41.20	-51.9	-53.5	14.0	0.00e+00	0	27	0	1171259392	69	4461
2026-01-13 23:26:44.12	83.60	41.26	-51.6	-53.1	14.2	0.00e+00	0	27	0	1174405120	69	4247
2026-01-13 23:26:45.12	84.06	41.33	-51.6	-53.1	14.2	0.00e+00	0	27	0	1177550848	69	4243
2026-01-13 23:26:46.11	84.53	41.39	-51.9	-53.4	14.0	0.00e+00	0	27	0	1180696576	69	4435
2026-01-13 23:26:47.11	85.00	41.45	-52.0	-53.6	14.0	0.00e+00	0	27	0	1183842304	69	4540
2026-01-13 23:26:48.11	85.48	41.51	-52.2	-53.8	13.8	0.00e+00	0	27	0	1186988032	69	4634
2026-01-13 23:26:49.12	85.96	41.56	-51.9	-53.5	14.0	0.00e+00	0	27	0	1190133760	69	4457
2026-01-13 23:26:50.11	86.43	41.61	-51.9	-53.5	14.0	0.00e+00	0	27	0	1193279488	69	4457
2026-01-13 23:26:51.11	86.91	41.67	-51.9	-53.5	14.0	0.00e+00	0	27	0	1196425216	69	4447
2026-01-13 23:26:52.11	87.39	41.72	-52.1	-53.7	13.9	0.00e+00	0	27	0	1199570944	69	4563
2026-01-13 23:26:53.11	87.87	41.76	-52.3	-53.9	13.8	0.00e+00	0	27	0	1202716672	69	4668
2026-01-13 23:26:54.11	88.36	41.81	-52.1	-53.7	13.9	0.00e+00	0	27	0	1205862400	69	4580
2026-01-13 23:26:55.10	88.84	41.85	-51.9	-53.5	14.0	0.00e+00	0	27	0	1209008128	69	4452
2026-01-13 23:26:56.11	89.33	41.89	-51.6	-53.1	14.2	0.00e+00	0	27	0	1212153856	69	4272
2026-01-13 23:26:57.11	89.82	41.93	-51.5	-52.9	14.3	0.00e+00	0	27	0	1215299584	69	4167
2026-01-13 23:26:58.10	90.30	41.97	-51.4	-52.8	14.3	0.00e+00	0	27	0	1218445312	69	4145
2026-01-13 23:26:59.10	90.79	42.00	-51.7	-53.2	14.2	0.00e+00	0	27	0	1221591040	69	4292
2026-01-13 23:27:00.09	91.27	42.03	-51.9	-53.5	14.0	0.00e+00	0	27	0	1224736768	69	4450
2026-01-13 23:27:01.09	91.77	42.06	-52.1	-53.7	13.9	0.00e+00	0	27	0	1227882496	69	4577
2026-01-13 23:27:02.09	92.26	42.09	-52.3	-53.9	13.9	0.00e+00	0	27	0	1231028224	69	4661
2026-01-13 23:27:03.09	92.75	42.11	-52.4	-54.0	13.8	0.00e+00	0	27	0	1234173952	69	4754
2026-01-13 23:27:04.08	93.24	42.14	-52.5	-54.2	13.8	0.00e+00	0	27	0	1237319680	70	4551
2026-01-13 23:27:05.08	93.73	42.16	-52.5	-54.2	13.8	0.00e+00	0	27	0	1239416832	70	4584
2026-01-13 23:27:06.07	94.22	42.17	-52.4	-54.0	13.9	0.00e+00	0	27	0	1242562560	70	4489
2026-01-13 23:27:07.07	94.72	42.19	-52.1	-53.7	14.0	0.00e+00	0	27	0	1245708288	70	4321
2026-01-13 23:27:08.06	95.21	42.20	-52.1	-53.7	14.0	0.00e+00	0	27	0	1248854016	70	4323
2026-01-13 23:27:09.06	95.71	42.21	-52.3	-53.8	14.0	0.00e+00	0	27	0	1251999744	70	4390
2026-01-13 23:27:10.06	96.20	42.22	-52.3	-53.9	13.9	0.00e+00	0	27	0	1255145472	70	4423
2026-01-13 23:27:11.06	96.70	42.23	-52.3	-53.9	13.9	0.00e+00	0	27	0	1258291200	70	4420
2026-01-13 23:27:12.06	97.20	42.23	-51.9	-53.4	14.2	0.00e+00	0	27	0	1261436928	70	4181
2026-01-13 23:27:13.05	97.69	42.23	-51.6	-53.0	14.2	0.00e+00	0	27	0	1264582656	69	4227
2026-01-13 23:27:14.05	98.19	42.23	-51.6	-53.1	14.2	0.00e+00	0	27	0	1267728384	69	4270
2026-01-13 23:27:15.05	98.68	42.23	-52.0	-53.6	14.0	0.00e+00	0	27	0	1270874112	69	4496
2026-01-13 23:27:16.04	99.18	42.22	-52.1	-53.7	13.9	0.00e+00	0	27	0	1274019840	69	4581
2026-01-13 23:27:17.03	99.67	42.22	-52.2	-53.8	13.9	0.00e+00	0	27	0	1277165568	69	4609
2026-01-13 23:27:18.04	100.17	42.21	-52.1	-53.7	13.9	0.00e+00	0	27	0	1280311296	69	4597
2026-01-13 23:27:19.04	100.67	42.19	-52.5	-54.2	13.8	0.00e+00	0	27	0	1283457024	70	4563
2026-01-13 23:27:20.03	101.16	42.18	-52.7	-54.5	13.6	0.00e+00	0	27	0	1286602752	70	4732
2026-01-13 23:27:21.03	101.65	42.16	-53.0	-54.8	13.6	0.00e+00	0	27	0	1289748480	71	4627
2026-01-13 23:27:22.03	102.15	42.14	-52.9	-54.7	13.6	0.00e+00	0	27	0	1292894208	71	4588
2026-01-13 23:27:23.03	102.64	42.12	-52.6	-54.2	13.9	0.00e+00	0	27	0	1296039936	71	4326
2026-01-13 23:27:24.03	103.13	42.10	-52.4	-54.0	14.0	0.00e+00	0	27	0	1299185664	71	4232
2026-01-13 23:27:25.03	103.63	42.07	-52.3	-53.9	14.0	0.00e+00	0	27	0	1302331392	71	4181
2026-01-13 23:27:26.03	104.12	42.04	-52.3	-53.9	14.1	0.00e+00	0	27	0	1305477120	71	4169
2026-01-13 23:27:27.03	104.61	42.01	-52.1	-53.6	14.1	0.00e+00	0	27	0	1308622848	70	4288
2026-01-13 23:27:28.04	105.11	41.98	-52.0	-53.5	14.1	0.00e+00	0	27	0	1311768576	70	4226
2026-01-13 23:27:29.03	105.59	41.94	-52.0	-53.5	14.1	0.00e+00	0	27	0	1314914304	70	4224
2026-01-13 23:27:30.03	106.08	41.90	-51.8	-53.3	14.2	0.00e+00	0	27	0	1318060032	70	4139
2026-01-13 23:27:31.03	106.56	41.86	-51.8	-53.3	14.2	0.00e+00	0	27	0	1321205760	70	4119
2026-01-13 23:27:32.04	107.05	41.82	-51.8	-53.3	14.2	0.00e+00	0	27	0	1324351488	70	4133
2026-01-13 23:27:33.04	107.54	41.77	-52.0	-53.5	14.2	0.00e+00	0	27	0	1327497216	70	4197
2026-01-13 23:27:34.04	108.02	41.73	-52.3	-53.9	13.9	0.00e+00	0	27	0	1330642944	70	4409
2026-01-13 23:27:35.04	108.50	41.68	-52.7	-54.5	13.7	0.00e+00	0	27	0	1333788672	70	4707
2026-01-13 23:27:36.04	108.98	41.63	-52.2	-53.8	14.0	0.00e+00	0	27	0	1336934400	70	4385
2026-01-13 23:27:37.04	109.46	41.57	-52.0	-53.5	14.1	0.00e+00	0	27	0	1340080128	70	4220
2026-01-13 23:27:38.05	109.94	41.52	-51.8	-53.3	14.2	0.00e+00	0	27	0	1343225856	70	4140
2026-01-13 23:27:39.05	110.42	41.46	-51.9	-53.4	14.2	0.00e+00	0	27	0	1346371584	70	4171
2026-01-13 23:27:40.04	110.89	41.40	-52.0	-53.6	14.1	0.00e+00	0	27	0	1349517312	70	4281
2026-01-13 23:27:41.04	111.36	41.34	-51.9	-53.5	14.1	0.00e+00	0	27	0	1352663040	70	4213
2026-01-13 23:27:42.05	111.84	41.28	-52.0	-53.6	14.1	0.00e+00	0	27	0	1355808768	70	4275
2026-01-13 23:27:43.04	112.30	41.21	-52.1	-53.7	14.0	0.00e+00	0	27	0	1358954496	70	4313
2026-01-13 23:27:44.03	112.76	41.15	-52.2	-53.9	14.0	0.00e+00	0	27	0	1362100224	70	4407
2026-01-13 23:27:45.03	113.23	41.08	-52.2	-53.8	14.0	0.00e+00	0	27	0	1365245952	70	4363
2026-01-13 23:27:46.03	113.69	41.01	-52.1	-53.8	14.0	0.00e+00	0	27	0	1368391680	70	4345
2026-01-13 23:27:47.03	114.15	40.93	-52.2	-53.8	14.0	0.00e+00	0	27	0	1371537408	70	4344
2026-01-13 23:27:48.04	114.61	40.86	-52.3	-54.0	13.9	0.00e+00	0	27	0	1373634560	70	4446
2026-01-13 23:27:49.04	115.07	40.78	-52.7	-54.5	13.7	0.00e+00	0	27	0	1376780288	70	4721
2026-01-13 23:27:50.04	115.52	40.70	-52.7	-54.4	13.7	0.00e+00	0	27	0	1379926016	70	4697
2026-01-13 23:27:51.04	115.97	40.62	-52.5	-54.2	13.8	0.00e+00	0	27	0	1384120320	70	4572
2026-01-13 23:27:52.04	116.42	40.54	-52.2	-53.9	14.0	0.00e+00	0	27	0	1386217472	70	4404
2026-01-13 23:27:53.04	116.87	40.45	-52.0	-53.5	14.1	0.00e+00	0	27	0	1389363200	70	4236
2026-01-13 23:27:54.04	117.32	40.37	-51.7	-53.2	14.3	0.00e+00	0	27	0	1393557504	70	4077
2026-01-13 23:27:55.04	117.76	40.28	-51.5	-53.0	14.2	0.00e+00	0	27	0	1395654656	69	4213
2026-01-13 23:27:56.05	118.20	40.19	-51.6	-53.1	14.2	0.00e+00	0	27	0	1398800384	69	4264
2026-01-13 23:27:57.05	118.64	40.10	-51.9	-53.5	14.0	0.00e+00	0	27	0	1401946112	69	4457
2026-01-13 23:27:58.04	119.07	40.01	-52.3	-54.0	13.8	0.00e+00	0	27	0	1405091840	69	4742
2026-01-13 23:27:59.05	119.51	39.91	-52.2	-53.8	14.0	0.00e+00	0	27	0	1408237568	70	4350
2026-01-13 23:28:00.05	119.94	39.82	-52.0	-53.5	14.1	0.00e+00	0	27	0	1411383296	70	4237
2026-01-13 23:28:01.04	120.37	39.72	-51.6	-53.1	14.1	0.00e+00	0	27	0	1414529024	69	4279
2026-01-13 23:28:02.04	120.79	39.62	-51.4	-52.9	14.3	0.00e+00	0	27	0	1417674752	69	4150
2026-01-13 23:28:03.04	121.21	39.52	-51.2	-52.7	14.4	0.00e+00	0	27	0	1420820480	69	4055
2026-01-13 23:28:04.04	121.63	39.42	-51.5	-53.0	14.2	0.00e+00	0	27	0	1423966208	69	4202
2026-01-13 23:28:05.04	122.05	39.32	-51.9	-53.4	14.1	0.00e+00	0	27	0	1427111936	69	4425
2026-01-13 23:28:06.04	122.47	39.22	-52.2	-53.8	13.9	0.00e+00	0	27	0	1430257664	69	4603
2026-01-13 23:28:07.04	122.88	39.11	-52.6	-54.4	13.7	0.00e+00	0	27	0	1433403392	70	4664
2026-01-13 23:28:08.04	123.29	39.00	-52.5	-54.3	13.7	0.00e+00	0	27	0	1436549120	70	4606
2026-01-13 23:28:09.04	123.70	38.90	-52.2	-53.9	13.9	0.00e+00	0	27	0	1439694848	70	4401
2026-01-13 23:28:10.04	124.10	38.79	-51.9	-53.5	14.1	0.00e+00	0	27	0	1442840576	70	4196
2026-01-13 23:28:11.04	124.51	38.68	-51.5	-53.0	14.2	0.00e+00	0	27	0	1445986304	69	4205
2026-01-13 23:28:12.04	124.90	38.57	-51.1	-52.5	14.3	0.00e+00	0	27	0	1449132032	68	4221
2026-01-13 23:28:13.03	125.30	38.45	-51.2	-52.6	14.3	0.00e+00	0	27	0	1452277760	68	4263
2026-01-13 23:28:14.03	125.69	38.34	-51.6	-53.1	14.1	0.00e+00	0	27	0	1455423488	68	4526
2026-01-13 23:28:15.03	126.08	38.23	-51.7	-53.2	14.0	0.00e+00	0	27	0	1458569216	68	4581
2026-01-13 23:28:16.03	126.47	38.11	-51.6	-53.1	14.1	0.00e+00	0	27	0	1461714944	68	4534
2026-01-13 23:28:17.03	126.86	37.99	-51.6	-53.1	14.1	0.00e+00	0	27	0	1464860672	68	4508
2026-01-13 23:28:18.04	127.24	37.87	-51.5	-53.0	14.1	0.00e+00	0	27	0	1468006400	68	4455
2026-01-13 23:28:19.03	127.62	37.76	-51.3	-52.8	14.2	0.00e+00	0	27	0	1471152128	68	4368
2026-01-13 23:28:20.03	128.00	37.64	-51.2	-52.6	14.3	0.00e+00	0	27	0	1474297856	68	4277
2026-01-13 23:28:21.03	128.37	37.51	-51.1	-52.5	14.4	0.00e+00	0	27	0	1477443584	68	4206
2026-01-13 23:28:22.03	128.75	37.39	-51.1	-52.5	14.3	0.00e+00	0	27	0	1480589312	68	4232
2026-01-13 23:28:23.03	129.12	37.27	-51.6	-53.1	14.1	0.00e+00	0	27	0	1483735040	68	4506
2026-01-13 23:28:24.04	129.49	37.15	-51.6	-53.2	14.0	0.00e+00	0	27	0	1486880768	68	4547
2026-01-13 23:28:25.03	129.85	37.02	-51.5	-53.0	14.1	0.00e+00	0	27	0	1490026496	68	4450
2026-01-13 23:28:26.02	130.20	36.90	-51.2	-52.6	14.3	0.00e+00	0	27	0	1493172224	68	4259
2026-01-13 23:28:27.02	130.56	36.77	-50.9	-52.3	14.4	0.00e+00	0	27	0	1496317952	68	4129
2026-01-13 23:28:28.02	130.92	36.65	-50.8	-52.2	14.4	0.00e+00	0	27	0	1499463680	68	4074
2026-01-13 23:28:29.02	131.27	36.52	-50.4	-51.8	14.5	0.00e+00	0	27	0	1502609408	67	4110
2026-01-13 23:28:30.01	131.62	36.39	-50.5	-51.8	14.5	0.00e+00	0	27	0	1505755136	67	4140
2026-01-13 23:28:31.01	131.97	36.26	-50.4	-51.7	14.5	0.00e+00	0	27	0	1508900864	67	4071
2026-01-13 23:28:32.01	132.31	36.13	-50.4	-51.7	14.5	0.00e+00	0	27	0	1512046592	67	4071
2026-01-13 23:28:33.01	132.66	36.00	-50.6	-51.9	14.4	0.00e+00	0	27	0	1515192320	67	4192
2026-01-13 23:28:34.02	133.00	35.87	-50.8	-52.2	14.3	0.00e+00	0	27	0	1518338048	67	4322
2026-01-13 23:28:35.02	133.34	35.74	-51.0	-52.5	14.2	0.00e+00	0	27	0	1521483776	67	4443
2026-01-13 23:28:36.02	133.67	35.61	-51.0	-52.4	14.2	0.00e+00	0	27	0	1524629504	67	4430
2026-01-13 23:28:37.02	134.00	35.48	-51.1	-52.6	14.2	0.00e+00	0	27	0	1527775232	67	4519
2026-01-13 23:28:38.02	134.33	35.35	-51.3	-52.8	14.1	0.00e+00	0	27	0	1529872384	67	4620
2026-01-13 23:28:39.02	134.66	35.21	-51.7	-53.3	14.0	0.00e+00	0	27	0	1533018112	68	4607
2026-01-13 23:28:40.02	134.98	35.08	-51.8	-53.4	13.9	0.00e+00	0	27	0	1536163840	68	4672
2026-01-13 23:28:41.02	135.30	34.95	-51.8	-53.4	14.0	0.00e+00	0	27	0	1539309568	68	4652
2026-01-13 23:28:42.02	135.62	34.81	-51.8	-53.3	14.0	0.00e+00	0	27	0	1542455296	68	4639
2026-01-13 23:28:43.02	135.94	34.68	-51.7	-53.3	14.0	0.00e+00	0	27	0	1545601024	68	4602
2026-01-13 23:28:44.02	136.25	34.54	-51.4	-53.0	14.1	0.00e+00	0	27	0	1548746752	68	4443
2026-01-13 23:28:45.01	136.56	34.41	-51.3	-52.8	14.2	0.00e+00	0	27	0	1551892480	68	4367
2026-01-13 23:28:46.02	136.87	34.27	-51.4	-52.8	14.2	0.00e+00	0	27	0	1555038208	68	4378
2026-01-13 23:28:47.02	137.18	34.13	-51.3	-52.7	14.2	0.00e+00	0	27	0	1558183936	68	4335
2026-01-13 23:28:48.02	137.48	34.00	-51.1	-52.6	14.3	0.00e+00	0	27	0	1561329664	68	4248
2026-01-13 23:28:49.02	137.78	33.86	-51.0	-52.4	14.4	0.00e+00	0	27	0	1564475392	68	4168
2026-01-13 23:28:50.03	138.08	33.72	-50.9	-52.2	14.5	0.00e+00	0	27	0	1567621120	68	4098
2026-01-13 23:28:51.03	138.38	33.59	-50.4	-51.8	14.5	0.00e+00	0	27	0	1570766848	67	4113
2026-01-13 23:28:52.03	138.67	33.45	-50.4	-51.8	14.5	0.00e+00	0	27	0	1573912576	67	4110
2026-01-13 23:28:53.03	138.96	33.31	-50.4	-51.8	14.5	0.00e+00	0	27	0	1577058304	67	4110
2026-01-13 23:28:54.03	139.25	33.17	-50.4	-51.7	14.5	0.00e+00	0	27	0	1580204032	67	4076
2026-01-13 23:28:55.03	139.54	33.04	-50.2	-51.6	14.6	0.00e+00	0	27	0	1583349760	67	4009
2026-01-13 23:28:56.04	139.83	32.90	-50.2	-51.6	14.5	0.00e+00	0	27	0	1586495488	66	4253
2026-01-13 23:28:57.03	140.11	32.76	-50.2	-51.5	14.5	0.00e+00	0	27	0	1589641216	66	4212
2026-01-13 23:28:58.03	140.39	32.62	-50.1	-51.5	14.5	0.00e+00	0	27	0	1592786944	66	4207
2026-01-13 23:28:59.04	140.67	32.48	-50.1	-51.4	14.5	0.00e+00	0	27	0	1595932672	66	4159
2026-01-13 23:29:00.04	140.94	32.34	-49.9	-51.2	14.6	0.00e+00	0	27	0	1599078400	66	4082
2026-01-13 23:29:01.04	141.21	32.21	-49.8	-51.0	14.7	0.00e+00	0	27	0	1602224128	66	3998
2026-01-13 23:29:02.03	141.48	32.07	-49.6	-50.8	14.7	0.00e+00	0	27	0	1605369856	65	4139
2026-01-13 23:29:03.04	141.75	31.93	-49.5	-50.7	14.7	0.00e+00	0	27	0	1608515584	65	4084
2026-01-13 23:29:04.04	142.02	31.79	-49.4	-50.7	14.7	0.00e+00	0	27	0	1611661312	65	4057
2026-01-13 23:29:05.04	142.28	31.65	-49.4	-50.7	14.7	0.00e+00	0	27	0	1614807040	65	4055
2026-01-13 23:29:06.03	142.54	31.51	-49.4	-50.6	14.7	0.00e+00	0	27	0	1617952768	65	4023
2026-01-13 23:29:07.04	142.80	31.37	-49.4	-50.6	14.7	0.00e+00	0	27	0	1621098496	65	4044
2026-01-13 23:29:08.03	143.06	31.24	-49.4	-50.6	14.7	0.00e+00	0	27	0	1624244224	65	4021
2026-01-13 23:29:09.03	143.31	31.10	-49.2	-50.4	14.8	0.00e+00	0	27	0	1627389952	65	3944
2026-01-13 23:29:10.03	143.56	30.96	-49.3	-50.5	14.8	0.00e+00	0	27	0	1630535680	65	3970
2026-01-13 23:29:11.03	143.81	30.82	-49.1	-50.3	14.7	0.00e+00	0	27	0	1633681408	64	4110
2026-01-13 23:29:12.03	144.06	30.68	-48.9	-50.1	14.8	0.00e+00	0	27	0	1636827136	64	4040
2026-01-13 23:29:13.03	144.31	30.54	-48.9	-50.1	14.8	0.00e+00	0	27	0	1639972864	64	4046
2026-01-13 23:29:14.02	144.55	30.41	-49.1	-50.3	14.7	0.00e+00	0	27	0	1643118592	64	4124
2026-01-13 23:29:15.03	144.80	30.27	-49.1	-50.3	14.7	0.00e+00	0	27	0	1646264320	64	4145
2026-01-13 23:29:16.03	145.04	30.13	-49.1	-50.4	14.7	0.00e+00	0	27	0	1649410048	64	4161
2026-01-13 23:29:17.02	145.27	29.99	-49.2	-50.4	14.7	0.00e+00	0	27	0	1652555776	64	4182
2026-01-13 23:29:18.03	145.51	29.86	-49.3	-50.6	14.6	0.00e+00	0	27	0	1655701504	64	4246
2026-01-13 23:29:19.03	145.75	29.72	-49.4	-50.7	14.6	0.00e+00	0	27	0	1658847232	64	4317
2026-01-13 23:29:20.03	145.98	29.58	-49.3	-50.6	14.6	0.00e+00	0	27	0	1661992960	64	4268
2026-01-13 23:29:21.04	146.21	29.44	-49.4	-50.6	14.6	0.00e+00	0	27	0	1665138688	64	4284
2026-01-13 23:29:22.04	146.44	29.31	-49.4	-50.7	14.6	0.00e+00	0	27	0	1668284416	64	4299
2026-01-13 23:29:23.04	146.67	29.17	-49.4	-50.6	14.6	0.00e+00	0	27	0	1671430144	64	4274
2026-01-13 23:29:24.03	146.89	29.03	-49.5	-50.7	14.5	0.00e+00	0	27	0	1674575872	64	4330
2026-01-13 23:29:25.03	147.11	28.90	-49.6	-50.9	14.5	0.00e+00	0	27	0	1677721600	64	4415
2026-01-13 23:29:26.03	147.33	28.76	-49.6	-50.9	14.5	0.00e+00	0	27	0	1680867328	64	4406
2026-01-13 23:29:27.03	147.55	28.62	-49.6	-50.9	14.5	0.00e+00	0	27	0	1684013056	64	4435
2026-01-13 23:29:28.03	147.77	28.49	-49.5	-50.7	14.5	0.00e+00	0	27	0	1687158784	64	4330
2026-01-13 23:29:29.03	147.99	28.35	-49.5	-50.7	14.6	0.00e+00	0	27	0	1689255936	64	4324
2026-01-13 23:29:30.03	148.20	28.22	-49.5	-50.8	14.5	0.00e+00	0	27	0	1692401664	64	4380
2026-01-13 23:29:31.03	148.41	28.08	-49.6	-50.9	14.5	0.00e+00	0	27	0	1695547392	64	4403
2026-01-13 23:29:32.02	148.62	27.95	-49.7	-51.0	14.5	0.00e+00	0	27	0	1698693120	64	4448
2026-01-13 23:29:33.02	148.83	27.82	-49.6	-50.9	14.5	0.00e+00	0	27	0	1701838848	64	4422
2026-01-13 23:29:34.02	149.04	27.68	-49.6	-50.9	14.5	0.00e+00	0	27	0	1704984576	64	4399
2026-01-13 23:29:35.03	149.24	27.55	-49.7	-51.0	14.5	0.00e+00	0	27	0	1708130304	64	4472
2026-01-13 23:29:36.03	149.45	27.41	-49.6	-50.9	14.5	0.00e+00	0	27	0	1711276032	64	4439
2026-01-13 23:29:37.03	149.65	27.28	-49.6	-50.9	14.5	0.00e+00	0	27	0	1714421760	64	4423
2026-01-13 23:29:38.03	149.85	27.15	-49.7	-51.0	14.5	0.00e+00	0	27	0	1717567488	64	4452
2026-01-13 23:29:39.04	150.05	27.01	-49.5	-50.8	14.5	0.00e+00	0	27	0	1720713216	64	4365
2026-01-13 23:29:40.04	150.25	26.88	-49.3	-50.6	14.6	0.00e+00	0	27	0	1723858944	64	4247
2026-01-13 23:29:41.04	150.44	26.75	-49.2	-50.5	14.7	0.00e+00	0	27	0	1727004672	64	4195
2026-01-13 23:29:42.04	150.64	26.61	-49.2	-50.4	14.7	0.00e+00	0	27	0	1730150400	64	4167
2026-01-13 23:29:43.04	150.83	26.48	-49.1	-50.3	14.7	0.00e+00	0	27	0	1733296128	64	4136
2026-01-13 23:29:44.04	151.02	26.35	-49.1	-50.3	14.7	0.00e+00	0	27	0	1736441856	64	4120
2026-01-13 23:29:45.04	151.21	26.22	-49.0	-50.3	14.7	0.00e+00	0	27	0	1739587584	64	4105
2026-01-13 23:29:46.05	151.40	26.09	-48.9	-50.1	14.8	0.00e+00	0	27	0	1742733312	64	4051
2026-01-13 23:29:47.04	151.59	25.96	-48.8	-50.0	14.8	0.00e+00	0	27	0	1745879040	64	4002
2026-01-13 23:29:48.04	151.77	25.83	-48.8	-50.0	14.8	0.00e+00	0	27	0	1749024768	64	3994
2026-01-13 23:29:49.04	151.95	25.70	-48.8	-50.0	14.8	0.00e+00	0	27	0	1752170496	64	3988
2026-01-13 23:29:50.05	152.14	25.57	-49.0	-50.2	14.8	0.00e+00	0	27	0	1755316224	64	4058
2026-01-13 23:29:51.05	152.32	25.44	-49.0	-50.3	14.7	0.00e+00	0	27	0	1758461952	64	4099
2026-01-13 23:29:52.05	152.50	25.31	-49.1	-50.4	14.7	0.00e+00	0	27	0	1761607680	64	4155
2026-01-13 23:29:53.05	152.68	25.18	-49.2	-50.5	14.6	0.00e+00	0	27	0	1764753408	64	4196
2026-01-13 23:29:54.05	152.85	25.05	-49.1	-50.3	14.7	0.00e+00	0	27	0	1767899136	64	4133
2026-01-13 23:29:55.06	153.03	24.92	-49.1	-50.3	14.7	0.00e+00	0	27	0	1771044864	64	4137
2026-01-13 23:29:56.07	153.20	24.80	-49.0	-50.3	14.7	0.00e+00	0	27	0	1774190592	64	4103
2026-01-13 23:29:57.06	153.37	24.67	-49.0	-50.3	14.7	0.00e+00	0	27	0	1777336320	64	4104
2026-01-13 23:29:58.06	153.55	24.54	-48.9	-50.1	14.8	0.00e+00	0	27	0	1780482048	64	4016
2026-01-13 23:29:59.06	153.71	24.42	-48.9	-50.2	14.7	0.00e+00	0	27	0	1783627776	64	4057
2026-01-13 23:30:00.06	153.88	24.29	-49.0	-50.3	14.7	0.00e+00	0	27	0	1786773504	64	4107
2026-01-13 23:30:01.06	154.05	24.16	-49.0	-50.3	14.7	0.00e+00	0	27	0	1789919232	64	4101
2026-01-13 23:30:02.05	154.21	24.04	-49.0	-50.2	14.7	0.00e+00	0	27	0	1793064960	64	4065
2026-01-13 23:30:03.05	154.38	23.92	-49.2	-50.4	14.6	0.00e+00	0	27	0	1796210688	64	4176
2026-01-13 23:30:04.06	154.54	23.79	-49.1	-50.4	14.7	0.00e+00	0	27	0	1799356416	64	4164
2026-01-13 23:30:05.06	154.71	23.67	-49.2	-50.5	14.6	0.00e+00	0	27	0	1802502144	64	4221
2026-01-13 23:30:06.05	154.86	23.54	-49.2	-50.5	14.6	0.00e+00	0	27	0	1805647872	64	4203
2026-01-13 23:30:07.06	155.03	23.42	-49.1	-50.4	14.7	0.00e+00	0	27	0	1808793600	64	4155
2026-01-13 23:30:08.06	155.18	23.30	-49.2	-50.4	14.7	0.00e+00	0	27	0	1811939328	64	4173
2026-01-13 23:30:09.06	155.34	23.17	-49.3	-50.5	14.6	0.00e+00	0	27	0	1815085056	64	4241
2026-01-13 23:30:10.06	155.50	23.05	-49.3	-50.6	14.6	0.00e+00	0	27	0	1818230784	64	4244
2026-01-13 23:30:11.06	155.65	22.93	-49.4	-50.6	14.6	0.00e+00	0	27	0	1821376512	64	4286
2026-01-13 23:30:12.06	155.80	22.81	-49.4	-50.7	14.5	0.00e+00	0	27	0	1824522240	64	4321
2026-01-13 23:30:13.07	155.96	22.68	-49.5	-50.7	14.5	0.00e+00	0	27	0	1827667968	64	4333
2026-01-13 23:30:14.07	156.11	22.56	-49.5	-50.8	14.5	0.00e+00	0	27	0	1830813696	64	4364
2026-01-13 23:30:15.07	156.26	22.44	-49.5	-50.8	14.5	0.00e+00	0	27	0	1833959424	64	4353
2026-01-13 23:30:16.07	156.41	22.32	-49.4	-50.7	14.5	0.00e+00	0	27	0	1837105152	64	4325
2026-01-13 23:30:17.07	156.56	22.20	-49.3	-50.6	14.6	0.00e+00	0	27	0	1840250880	64	4273
2026-01-13 23:30:18.07	156.70	22.08	-49.4	-50.7	14.6	0.00e+00	0	27	0	1843396608	64	4292
2026-01-13 23:30:19.06	156.85	21.97	-49.3	-50.6	14.6	0.00e+00	0	27	0	1846542336	64	4269
2026-01-13 23:30:20.06	156.99	21.85	-49.3	-50.6	14.6	0.00e+00	0	27	0	1849688064	64	4255
2026-01-13 23:30:21.06	157.14	21.73	-49.3	-50.5	14.6	0.00e+00	0	27	0	1852833792	64	4228
2026-01-13 23:30:22.06	157.28	21.61	-49.3	-50.6	14.6	0.00e+00	0	27	0	1855979520	64	4260
2026-01-13 23:30:23.06	157.42	21.49	-49.2	-50.4	14.7	0.00e+00	0	27	0	1859125248	64	4171
2026-01-13 23:30:24.06	157.56	21.38	-49.1	-50.3	14.7	0.00e+00	0	27	0	1862270976	64	4145
2026-01-13 23:30:25.06	157.70	21.26	-49.1	-50.3	14.7	0.00e+00	0	27	0	1865416704	64	4124
2026-01-13 23:30:26.06	157.84	21.14	-49.2	-50.4	14.6	0.00e+00	0	27	0	1868562432	64	4180
2026-01-13 23:30:27.07	157.98	21.03	-49.2	-50.4	14.6	0.00e+00	0	27	0	1870659584	64	4183
2026-01-13 23:30:28.07	158.11	20.91	-49.2	-50.5	14.6	0.00e+00	0	27	0	1873805312	64	4204
2026-01-13 23:30:29.07	158.25	20.79	-49.2	-50.4	14.7	0.00e+00	0	27	0	1876951040	64	4183
2026-01-13 23:30:30.07	158.38	20.68	-49.2	-50.4	14.6	0.00e+00	0	27	0	1880096768	64	4189
2026-01-13 23:30:31.08	158.52	20.56	-49.1	-50.4	14.7	0.00e+00	0	27	0	1883242496	64	4156
2026-01-13 23:30:32.07	158.65	20.45	-49.1	-50.3	14.7	0.00e+00	0	27	0	1886388224	64	4128
2026-01-13 23:30:33.07	158.78	20.34	-49.0	-50.3	14.7	0.00e+00	0	27	0	1889533952	64	4105
2026-01-13 23:30:34.07	158.91	20.22	-49.0	-50.2	14.7	0.00e+00	0	27	0	1892679680	64	4066
2026-01-13 23:30:35.07	159.04	20.11	-48.9	-50.2	14.7	0.00e+00	0	27	0	1895825408	64	4057
2026-01-13 23:30:36.07	159.17	20.00	-49.0	-50.2	14.7	0.00e+00	0	27	0	1898971136	64	4092
2026-01-13 23:30:37.06	159.29	19.89	-48.9	-50.1	14.8	0.00e+00	0	27	0	1902116864	64	4021
2026-01-13 23:30:38.05	159.42	19.78	-48.9	-50.1	14.7	0.00e+00	0	27	0	1905262592	64	4051
2026-01-13 23:30:39.05	159.55	19.66	-48.9	-50.1	14.8	0.00e+00	0	27	0	1908408320	64	4031
2026-01-13 23:30:40.05	159.67	19.55	-48.9	-50.1	14.8	0.00e+00	0	27	0	1911554048	64	4032
2026-01-13 23:30:41.05	159.80	19.44	-48.9	-50.1	14.7	0.00e+00	0	27	0	1914699776	64	4022
2026-01-13 23:30:42.06	159.92	19.33	-48.8	-50.0	14.8	0.00e+00	0	27	0	1917845504	64	3991
2026-01-13 23:30:43.06	160.04	19.22	-48.9	-50.2	14.7	0.00e+00	0	27	0	1920991232	64	4052
2026-01-13 23:30:44.06	160.17	19.11	-49.0	-50.3	14.7	0.00e+00	0	27	0	1924136960	64	4100
2026-01-13 23:30:45.05	160.28	19.00	-49.0	-50.3	14.7	0.00e+00	0	27	0	1927282688	64	4113
2026-01-13 23:30:46.05	160.40	18.89	-49.2	-50.5	14.6	0.00e+00	0	27	0	1930428416	64	4198
2026-01-13 23:30:47.05	160.52	18.78	-49.2	-50.5	14.6	0.00e+00	0	27	0	1933574144	64	4220
2026-01-13 23:30:48.05	160.64	18.68	-49.3	-50.6	14.6	0.00e+00	0	28	0	1936719872	64	4273
2026-01-13 23:30:49.05	160.76	18.57	-49.4	-50.7	14.5	0.00e+00	0	27	0	1939865600	64	4316
2026-01-13 23:30:50.05	160.88	18.46	-49.5	-50.8	14.5	0.00e+00	0	27	0	1943011328	64	4346
2026-01-13 23:30:51.04	160.99	18.35	-49.5	-50.8	14.5	0.00e+00	0	27	0	1946157056	64	4354
2026-01-13 23:30:52.04	161.11	18.25	-49.5	-50.8	14.5	0.00e+00	0	27	0	1949302784	64	4374
2026-01-13 23:30:53.03	161.22	18.14	-49.4	-50.7	14.5	0.00e+00	0	27	0	1952448512	64	4322
2026-01-13 23:30:54.03	161.33	18.04	-49.5	-50.7	14.5	0.00e+00	0	27	0	1955594240	64	4339
2026-01-13 23:30:55.02	161.45	17.93	-49.5	-50.8	14.5	0.00e+00	0	27	0	1958739968	64	4361
2026-01-13 23:30:56.02	161.56	17.82	-49.5	-50.9	14.5	0.00e+00	0	27	0	1961885696	64	4395
2026-01-13 23:30:57.02	161.67	17.72	-49.7	-51.0	14.4	0.00e+00	0	27	0	1965031424	64	4452
2026-01-13 23:30:58.02	161.78	17.61	-49.7	-51.0	14.4	0.00e+00	0	27	0	1968177152	64	4469
2026-01-13 23:30:59.02	161.89	17.51	-49.7	-51.0	14.4	0.00e+00	0	27	0	1971322880	64	4472
2026-01-13 23:31:00.02	162.00	17.41	-49.7	-51.0	14.4	0.00e+00	0	27	0	1974468608	64	4472
2026-01-13 23:31:01.02	162.11	17.30	-49.5	-50.8	14.4	0.00e+00	0	27	0	1977614336	64	4389
2026-01-13 23:31:02.03	162.22	17.20	-49.6	-50.9	14.4	0.00e+00	0	27	0	1980760064	64	4411
2026-01-13 23:31:03.02	162.32	17.10	-49.6	-50.9	14.4	0.00e+00	0	27	0	1983905792	64	4438
2026-01-13 23:31:04.03	162.43	16.99	-49.6	-50.9	14.4	0.00e+00	0	27	0	1987051520	64	4410
2026-01-13 23:31:05.02	162.54	16.89	-49.7	-51.0	14.4	0.00e+00	0	27	0	1990197248	64	4475
2026-01-13 23:31:06.02	162.64	16.79	-49.7	-51.0	14.4	0.00e+00	0	27	0	1993342976	64	4482
2026-01-13 23:31:07.02	162.75	16.69	-49.6	-51.0	14.4	0.00e+00	0	27	0	1996488704	64	4447
2026-01-13 23:31:08.02	162.85	16.59	-49.6	-50.9	14.4	0.00e+00	0	27	0	1999634432	64	4424
2026-01-13 23:31:09.01	162.95	16.49	-49.6	-50.9	14.4	0.00e+00	0	27	0	2002780160	64	4435
2026-01-13 23:31:10.00	163.05	16.39	-49.6	-50.9	14.4	0.00e+00	0	27	0	2004877312	64	4428
2026-01-13 23:31:11.00	163.15	16.29	-49.6	-50.9	14.4	0.00e+00	0	27	0	2008023040	64	4406
2026-01-13 23:31:11.99	163.25	16.19	-49.6	-51.0	14.4	0.00e+00	0	27	0	2011168768	64	4451
2026-01-13 23:31:12.99	163.35	16.09	-49.7	-51.0	14.4	0.00e+00	0	27	0	2014314496	64	4460
2026-01-13 23:31:13.99	163.45	15.99	-49.8	-51.1	14.4	0.00e+00	0	27	0	2017460224	64	4527
2026-01-13 23:31:14.99	163.55	15.89	-49.8	-51.1	14.4	0.00e+00	0	27	0	2020605952	64	4531
2026-01-13 23:31:15.98	163.65	15.79	-49.8	-51.1	14.4	0.00e+00	0	27	0	2023751680	64	4514
2026-01-13 23:31:16.97	163.75	15.69	-49.9	-51.2	14.3	0.00e+00	0	27	0	2026897408	64	4594
2026-01-13 23:31:17.96	163.85	15.60	-49.9	-51.2	14.4	0.00e+00	0	27	0	2030043136	65	4329
2026-01-13 23:31:18.96	163.94	15.50	-50.0	-51.4	14.4	0.00e+00	0	27	0	2033188864	65	4403
2026-01-13 23:31:19.96	164.04	15.40	-50.0	-51.3	14.4	0.00e+00	0	27	0	2036334592	65	4383
2026-01-13 23:31:20.96	164.13	15.30	-50.1	-51.4	14.3	0.00e+00	0	27	0	2039480320	65	4433
2026-01-13 23:31:21.97	164.23	15.21	-50.2	-51.6	14.3	0.00e+00	0	27	0	2042626048	65	4496
2026-01-13 23:31:22.96	164.32	15.11	-50.3	-51.7	14.2	0.00e+00	0	27	0	2045771776	65	4562
2026-01-13 23:31:23.96	164.42	15.01	-50.5	-51.9	14.3	0.00e+00	0	27	0	2048917504	66	4411
2026-01-13 23:31:24.96	164.51	14.92	-50.5	-51.9	14.2	0.00e+00	0	27	0	2052063232	66	4439
2026-01-13 23:31:25.96	164.60	14.82	-50.6	-52.0	14.2	0.00e+00	0	27	0	2055208960	66	4479
2026-01-13 23:31:26.96	164.69	14.73	-50.6	-52.1	14.2	0.00e+00	0	27	0	2058354688	66	4517
2026-01-13 23:31:27.96	164.79	14.63	-50.6	-52.0	14.2	0.00e+00	0	27	0	2061500416	66	4479
2026-01-13 23:31:28.97	164.88	14.54	-50.6	-52.1	14.1	0.00e+00	0	27	0	2064646144	66	4527
2026-01-13 23:31:29.96	164.97	14.44	-50.6	-52.1	14.1	0.00e+00	0	27	0	2067791872	66	4515
2026-01-13 23:31:30.96	165.06	14.35	-50.6	-52.0	14.2	0.00e+00	0	27	0	2070937600	66	4492
2026-01-13 23:31:31.96	165.15	14.25	-50.5	-52.0	14.2	0.00e+00	0	27	0	2074083328	66	4458
2026-01-13 23:31:32.96	165.24	14.16	-50.4	-51.9	14.2	0.00e+00	0	27	0	2077229056	66	4404
2026-01-13 23:31:33.96	165.32	14.07	-50.5	-52.0	14.2	0.00e+00	0	27	0	2080374784	66	4444
2026-01-13 23:31:34.96	165.41	13.97	-50.6	-52.1	14.1	0.00e+00	0	27	0	2083520512	66	4494
2026-01-13 23:31:35.96	165.50	13.88	-50.5	-52.0	14.2	0.00e+00	0	27	0	2086666240	66	4459
