passes_logs/2026/01/13/R3.2S_Murmansk/R3.2S_Murmansk__20260113_061755_NOAA_21_JPSS-2_rec.log

#Pass ID: 20260113_061755_NOAA 21 (JPSS-2)
#Satellite: NOAA 21 (JPSS-2)
#Configuration: NOAA-21
#almurnet v.1.7.20251203
#Start time: 2026-01-13 06:17:55

#Version: 2.2.20231116
#Station: R3.2S_Murmansk
#Location: 33.079688 lon 68.888172 lat
#TLE: 1 54234U 22150A   26012.26378519  .00000063  00000+0  50547-4 0  9993
#TLE: 2 54234  98.7495 313.1967 0000726 309.1075  51.0036 14.19534275164425

#Time	Az	El	Level	Level2	SNR	BER	BlckErr	Temp	State	Recorded	gain1	gain2
2026-01-13 06:17:55.76	81.25	2.04	-57.0	-70.7	3.8	1.49e+00	0	20	0	0	80	17097
2026-01-13 06:17:56.76	81.19	2.10	-56.9	-70.6	3.8	1.49e+00	0	20	104	0	78	19063
2026-01-13 06:17:57.77	81.13	2.16	-56.9	-70.6	3.8	1.49e+00	0	20	104	0	78	19036
2026-01-13 06:17:58.77	81.07	2.21	-56.9	-70.6	3.8	1.49e+00	0	20	104	0	78	19032
2026-01-13 06:17:59.78	81.01	2.27	-56.9	-70.6	3.8	1.49e+00	0	20	104	0	78	19037
2026-01-13 06:18:00.78	80.95	2.33	-56.9	-70.6	3.8	1.49e+00	0	20	104	0	78	19006
2026-01-13 06:18:01.79	80.89	2.39	-56.9	-70.6	3.8	1.49e+00	0	20	104	0	78	18972
2026-01-13 06:18:02.79	80.83	2.45	-56.9	-70.6	3.8	1.49e+00	0	20	104	0	78	19042
2026-01-13 06:18:03.78	80.77	2.51	-56.9	-70.5	3.8	1.49e+00	0	20	104	0	78	18923
2026-01-13 06:18:04.79	80.71	2.57	-56.9	-70.6	3.8	1.49e+00	0	20	104	0	78	18986
2026-01-13 06:18:05.79	80.65	2.63	-56.9	-70.6	3.8	1.49e+00	0	20	104	0	78	19029
2026-01-13 06:18:06.79	80.59	2.68	-56.9	-70.6	3.8	1.49e+00	0	20	104	0	78	19114
2026-01-13 06:18:07.78	80.53	2.74	-56.9	-70.6	3.8	1.49e+00	0	20	104	0	78	19083
2026-01-13 06:18:08.78	80.46	2.80	-56.9	-70.6	3.8	1.49e+00	0	20	104	0	78	19084
2026-01-13 06:18:09.78	80.40	2.86	-56.9	-70.6	3.8	1.49e+00	0	20	104	0	78	19083
2026-01-13 06:18:10.78	80.34	2.92	-56.9	-70.6	3.8	1.49e+00	0	20	104	0	78	19019
2026-01-13 06:18:11.78	80.28	2.98	-56.9	-70.6	3.8	1.49e+00	0	20	104	0	78	18973
2026-01-13 06:18:12.78	80.21	3.04	-56.9	-70.5	3.8	1.49e+00	0	20	104	0	78	18928
2026-01-13 06:18:13.78	80.15	3.10	-56.9	-70.5	3.8	1.49e+00	0	21	104	0	78	18889
2026-01-13 06:18:14.78	80.09	3.16	-56.9	-70.5	3.8	1.49e+00	0	21	104	0	78	18905
2026-01-13 06:18:15.78	80.02	3.22	-56.9	-70.6	3.8	1.49e+00	0	20	104	0	78	19029
2026-01-13 06:18:16.77	79.96	3.28	-56.9	-70.6	3.8	1.49e+00	0	21	104	0	78	19018
2026-01-13 06:18:17.77	79.89	3.34	-56.9	-70.6	3.8	1.49e+00	0	21	104	0	78	19065
2026-01-13 06:18:18.77	79.83	3.40	-56.9	-70.6	3.8	1.49e+00	0	20	104	0	78	18991
2026-01-13 06:18:19.77	79.77	3.46	-56.9	-70.6	3.8	1.49e+00	0	21	104	0	78	19000
2026-01-13 06:18:20.77	79.70	3.52	-56.9	-70.5	3.8	1.49e+00	0	21	104	0	78	18850
2026-01-13 06:18:21.77	79.63	3.58	-56.9	-70.4	3.8	1.49e+00	0	21	104	0	78	18723
2026-01-13 06:18:22.77	79.57	3.64	-56.9	-70.4	3.8	1.49e+00	0	21	104	0	78	18673
2026-01-13 06:18:23.77	79.50	3.70	-56.9	-70.5	3.8	1.49e+00	0	21	104	0	78	18853
2026-01-13 06:18:24.77	79.44	3.76	-56.9	-70.6	3.8	1.49e+00	0	21	104	0	78	18952
2026-01-13 06:18:25.76	79.37	3.82	-56.9	-70.6	3.8	1.49e+00	0	21	104	0	78	19116
2026-01-13 06:18:26.77	79.30	3.88	-56.9	-70.6	3.8	1.49e+00	0	21	104	0	78	19042
2026-01-13 06:18:27.76	79.24	3.94	-56.9	-70.4	3.8	1.49e+00	0	21	104	0	78	18574
2026-01-13 06:18:28.77	79.17	4.00	-56.8	-70.0	3.8	1.49e+00	0	21	104	0	78	17752
2026-01-13 06:18:29.76	79.10	4.06	-56.8	-69.3	3.8	1.49e+00	0	21	104	0	78	16465
2026-01-13 06:18:30.76	79.03	4.12	-56.7	-68.7	3.9	1.49e+00	0	21	104	0	78	15357
2026-01-13 06:18:31.75	78.97	4.18	-56.7	-68.2	3.9	1.48e+00	0	21	104	0	78	14523
2026-01-13 06:18:32.76	78.90	4.25	-56.6	-66.6	4.3	1.46e+00	0	21	104	0	78	12037
2026-01-13 06:18:33.77	78.83	4.31	-56.5	-65.8	4.1	1.09e+00	0	21	104	0	78	10976
2026-01-13 06:18:34.77	78.76	4.37	-56.4	-64.7	5.1	6.32e-01	0	21	0	0	78	9699
2026-01-13 06:18:35.77	78.69	4.43	-56.2	-63.7	5.8	4.20e-01	0	21	0	3145728	78	8611
2026-01-13 06:18:36.77	78.62	4.49	-56.1	-63.1	6.2	2.61e-01	0	21	0	6291456	78	8043
2026-01-13 06:18:37.77	78.55	4.55	-55.8	-61.9	7.2	1.56e-01	0	21	0	9437184	78	6994
2026-01-13 06:18:38.77	78.48	4.62	-55.5	-61.0	7.9	6.56e-02	0	21	0	12582912	77	6715
2026-01-13 06:18:39.77	78.41	4.68	-55.3	-60.4	8.5	4.13e-02	0	21	0	15728640	77	6247
2026-01-13 06:18:40.77	78.34	4.74	-55.1	-59.8	9.0	1.56e-02	0	21	0	18874368	76	6182
2026-01-13 06:18:41.78	78.26	4.80	-55.0	-59.6	9.2	1.30e-02	0	21	0	22020096	76	6056
2026-01-13 06:18:42.78	78.19	4.87	-55.0	-59.6	9.3	9.38e-03	0	21	0	25165824	76	6011
2026-01-13 06:18:43.78	78.12	4.93	-55.1	-59.8	9.1	9.81e-03	0	21	0	28311552	76	6147
2026-01-13 06:18:44.78	78.05	4.99	-55.3	-60.5	8.4	2.32e-02	0	21	0	31457280	76	6719
2026-01-13 06:18:45.77	77.98	5.05	-52.2	-54.5	13.3	4.76e-04	0	21	0	34603008	71	4489
2026-01-13 06:18:46.76	77.90	5.12	-54.9	-59.5	9.3	1.28e-03	0	21	0	37748736	74	6656
2026-01-13 06:18:47.75	77.83	5.18	-56.1	-63.5	6.0	1.19e-02	0	21	0	40894464	77	8906
2026-01-13 06:18:48.74	77.76	5.24	-52.5	-54.9	13.0	5.83e-01	0	21	0	40894464	71	4653
2026-01-13 06:18:49.74	77.68	5.30	-56.0	-62.8	6.5	6.69e-03	0	21	0	44040192	77	8229
2026-01-13 06:18:50.73	77.61	5.37	-53.4	-56.3	12.0	3.20e-02	0	21	0	47185920	73	4915
2026-01-13 06:18:51.73	77.54	5.43	-52.3	-54.6	13.3	0.00e+00	0	21	0	50331648	71	4539
2026-01-13 06:18:52.73	77.46	5.49	-52.3	-54.7	13.3	0.00e+00	0	21	0	53477376	71	4555
2026-01-13 06:18:53.73	77.39	5.56	-51.9	-54.1	13.6	0.00e+00	0	21	0	56623104	70	4506
2026-01-13 06:18:54.73	77.31	5.62	-51.4	-53.4	14.0	0.00e+00	0	21	0	59768832	69	4402
2026-01-13 06:18:55.73	77.23	5.68	-51.1	-53.0	14.1	0.00e+00	0	21	0	62914560	68	4462
2026-01-13 06:18:56.74	77.16	5.75	-51.0	-52.9	14.1	0.00e+00	0	21	0	66060288	68	4426
2026-01-13 06:18:57.75	77.08	5.81	-50.9	-52.7	14.3	0.00e+00	0	21	0	69206016	68	4334
2026-01-13 06:18:58.75	77.00	5.88	-50.9	-52.7	14.3	0.00e+00	0	21	0	72351744	68	4301
2026-01-13 06:18:59.75	76.92	5.94	-50.9	-52.7	14.4	0.00e+00	0	21	0	75497472	68	4297
2026-01-13 06:19:00.75	76.85	6.00	-50.8	-52.6	14.4	0.00e+00	0	21	0	78643200	68	4284
2026-01-13 06:19:01.76	76.77	6.07	-50.8	-52.6	14.4	0.00e+00	0	21	0	81788928	68	4244
2026-01-13 06:19:02.76	76.69	6.13	-50.8	-52.5	14.4	0.00e+00	0	21	0	84934656	68	4234
2026-01-13 06:19:03.76	76.61	6.20	-50.7	-52.5	14.5	0.00e+00	0	21	0	88080384	68	4194
2026-01-13 06:19:04.76	76.53	6.26	-50.7	-52.4	14.5	0.00e+00	0	21	0	91226112	68	4178
2026-01-13 06:19:05.77	76.45	6.33	-50.8	-52.5	14.4	0.00e+00	0	21	0	94371840	68	4239
2026-01-13 06:19:06.77	76.37	6.39	-50.4	-52.1	14.5	0.00e+00	0	21	0	97517568	67	4286
2026-01-13 06:19:07.78	76.29	6.46	-50.5	-52.2	14.4	0.00e+00	0	21	0	100663296	67	4327
2026-01-13 06:19:08.79	76.21	6.52	-50.4	-52.2	14.5	0.00e+00	0	21	0	103809024	67	4298
2026-01-13 06:19:09.79	76.13	6.59	-50.5	-52.2	14.4	0.00e+00	0	21	0	106954752	67	4322
2026-01-13 06:19:10.78	76.05	6.65	-50.5	-52.3	14.4	0.00e+00	0	21	0	109051904	67	4359
2026-01-13 06:19:11.79	75.96	6.72	-50.5	-52.2	14.5	0.00e+00	0	22	0	112197632	67	4320
2026-01-13 06:19:12.79	75.88	6.79	-50.5	-52.2	14.4	0.00e+00	0	21	0	115343360	67	4321
2026-01-13 06:19:13.79	75.80	6.85	-50.5	-52.3	14.4	0.00e+00	0	21	0	118489088	67	4351
2026-01-13 06:19:14.79	75.72	6.92	-50.5	-52.3	14.4	0.00e+00	0	21	0	121634816	67	4358
2026-01-13 06:19:15.80	75.63	6.98	-50.6	-52.3	14.4	0.00e+00	0	22	0	124780544	67	4387
2026-01-13 06:19:16.80	75.55	7.05	-50.4	-52.1	14.6	0.00e+00	0	21	0	127926272	67	4255
2026-01-13 06:19:17.81	75.46	7.12	-50.3	-52.0	14.6	0.00e+00	0	21	0	131072000	67	4228
2026-01-13 06:19:18.82	75.38	7.18	-50.3	-52.0	14.6	0.00e+00	0	21	0	134217728	67	4199
2026-01-13 06:19:19.82	75.29	7.25	-50.3	-52.0	14.7	0.00e+00	0	21	0	137363456	67	4196
2026-01-13 06:19:20.83	75.21	7.32	-50.2	-51.9	14.7	0.00e+00	0	21	0	140509184	67	4167
2026-01-13 06:19:21.83	75.12	7.38	-50.3	-52.0	14.6	0.00e+00	0	21	0	143654912	67	4230
2026-01-13 06:19:22.84	75.03	7.45	-50.2	-51.9	14.7	0.00e+00	0	21	0	146800640	67	4170
2026-01-13 06:19:23.84	74.95	7.52	-50.2	-51.8	14.7	0.00e+00	0	21	0	149946368	67	4141
2026-01-13 06:19:24.84	74.86	7.58	-50.1	-51.8	14.6	0.00e+00	0	21	0	153092096	66	4356
2026-01-13 06:19:25.85	74.77	7.65	-50.1	-51.8	14.6	0.00e+00	0	21	0	156237824	66	4346
2026-01-13 06:19:26.85	74.68	7.72	-50.1	-51.8	14.6	0.00e+00	0	21	0	159383552	66	4344
2026-01-13 06:19:27.85	74.60	7.79	-50.1	-51.7	14.7	0.00e+00	0	21	0	162529280	66	4303
2026-01-13 06:19:28.86	74.51	7.85	-50.1	-51.8	14.6	0.00e+00	0	21	0	165675008	66	4354
2026-01-13 06:19:29.86	74.42	7.92	-50.1	-51.7	14.6	0.00e+00	0	21	0	168820736	66	4319
2026-01-13 06:19:30.86	74.33	7.99	-50.1	-51.7	14.7	0.00e+00	0	21	0	171966464	66	4307
2026-01-13 06:19:31.87	74.24	8.06	-50.0	-51.6	14.7	0.00e+00	0	21	0	175112192	66	4273
2026-01-13 06:19:32.87	74.15	8.12	-50.0	-51.6	14.7	0.00e+00	0	21	0	178257920	66	4260
2026-01-13 06:19:33.88	74.05	8.19	-50.1	-51.8	14.6	0.00e+00	0	22	0	181403648	66	4345
2026-01-13 06:19:34.88	73.96	8.26	-49.9	-51.5	14.8	0.00e+00	0	21	0	184549376	66	4216
2026-01-13 06:19:35.89	73.87	8.33	-49.9	-51.5	14.8	0.00e+00	0	21	0	187695104	66	4219
2026-01-13 06:19:36.89	73.78	8.40	-49.9	-51.5	14.8	0.00e+00	0	21	0	190840832	66	4202
2026-01-13 06:19:37.89	73.68	8.47	-49.9	-51.5	14.8	0.00e+00	0	22	0	193986560	66	4200
2026-01-13 06:19:38.90	73.59	8.54	-49.9	-51.5	14.8	0.00e+00	0	21	0	197132288	66	4221
2026-01-13 06:19:39.91	73.50	8.60	-49.9	-51.5	14.8	0.00e+00	0	21	0	200278016	66	4223
2026-01-13 06:19:40.92	73.40	8.67	-49.9	-51.5	14.8	0.00e+00	0	22	0	203423744	66	4202
2026-01-13 06:19:41.92	73.31	8.74	-49.9	-51.5	14.8	0.00e+00	0	22	0	206569472	66	4233
2026-01-13 06:19:42.93	73.21	8.81	-49.9	-51.4	14.9	0.00e+00	0	22	0	209715200	66	4184
2026-01-13 06:19:43.94	73.11	8.88	-49.6	-51.1	14.9	0.00e+00	0	22	0	212860928	65	4250
2026-01-13 06:19:44.94	73.02	8.95	-49.5	-51.0	15.0	0.00e+00	0	22	0	216006656	65	4204
2026-01-13 06:19:45.95	72.92	9.02	-49.6	-51.1	14.9	0.00e+00	0	21	0	219152384	65	4259
2026-01-13 06:19:46.95	72.82	9.09	-49.6	-51.1	14.9	0.00e+00	0	22	0	222298112	65	4266
2026-01-13 06:19:47.95	72.73	9.16	-49.4	-50.8	15.1	0.00e+00	0	22	0	225443840	65	4138
2026-01-13 06:19:48.96	72.63	9.23	-49.3	-50.7	15.2	0.00e+00	0	22	0	228589568	65	4077
2026-01-13 06:19:49.97	72.53	9.30	-49.3	-50.8	15.1	0.00e+00	0	22	0	231735296	65	4111
2026-01-13 06:19:50.96	72.43	9.37	-49.4	-50.9	15.0	0.00e+00	0	21	0	234881024	65	4156
2026-01-13 06:19:51.96	72.33	9.44	-49.3	-50.7	15.2	0.00e+00	0	22	0	238026752	65	4088
2026-01-13 06:19:52.96	72.23	9.51	-49.1	-50.5	15.1	0.00e+00	0	22	0	241172480	64	4239
2026-01-13 06:19:53.97	72.13	9.58	-49.1	-50.5	15.1	0.00e+00	0	22	0	244318208	64	4240
2026-01-13 06:19:54.97	72.03	9.65	-49.2	-50.7	15.0	0.00e+00	0	22	0	247463936	64	4296
2026-01-13 06:19:55.97	71.93	9.72	-49.1	-50.5	15.1	0.00e+00	0	22	0	250609664	64	4224
2026-01-13 06:19:56.97	71.83	9.79	-49.1	-50.6	15.1	0.00e+00	0	21	0	253755392	64	4262
2026-01-13 06:19:57.97	71.73	9.86	-49.2	-50.6	15.0	0.00e+00	0	21	0	256901120	64	4287
2026-01-13 06:19:58.97	71.62	9.93	-49.2	-50.6	15.0	0.00e+00	0	22	0	260046848	64	4288
2026-01-13 06:19:59.97	71.52	10.00	-49.3	-50.8	15.0	0.00e+00	0	22	0	263192576	64	4347
2026-01-13 06:20:00.97	71.42	10.07	-49.2	-50.6	15.0	0.00e+00	0	22	0	266338304	64	4266
2026-01-13 06:20:01.97	71.31	10.14	-49.1	-50.6	15.1	0.00e+00	0	22	0	269484032	64	4246
2026-01-13 06:20:02.97	71.21	10.22	-49.2	-50.6	15.1	0.00e+00	0	22	0	272629760	64	4278
2026-01-13 06:20:03.98	71.10	10.29	-49.0	-50.4	15.2	0.00e+00	0	22	0	275775488	64	4183
2026-01-13 06:20:04.99	70.99	10.36	-48.9	-50.3	15.3	0.00e+00	0	22	0	278921216	64	4139
2026-01-13 06:20:06.00	70.89	10.43	-48.9	-50.3	15.3	0.00e+00	0	21	0	282066944	64	4131
2026-01-13 06:20:07.00	70.78	10.50	-48.7	-50.4	15.4	0.00e+00	0	22	0	285212672	64	4172
2026-01-13 06:20:08.00	70.67	10.58	-47.4	-50.4	15.5	0.00e+00	0	22	0	288358400	61	4980
2026-01-13 06:20:09.00	70.56	10.65	-46.7	-50.3	15.6	0.00e+00	0	22	0	291504128	60	5194
2026-01-13 06:20:10.00	70.45	10.72	-46.8	-50.2	15.5	0.00e+00	0	22	0	294649856	60	5150
2026-01-13 06:20:11.01	70.34	10.79	-47.9	-50.1	15.0	0.00e+00	0	22	0	297795584	60	5064
2026-01-13 06:20:12.00	70.24	10.86	-48.6	-50.1	15.1	0.00e+00	0	22	0	300941312	62	4524
2026-01-13 06:20:13.00	70.13	10.93	-48.5	-50.0	15.2	0.00e+00	0	22	0	304087040	62	4445
2026-01-13 06:20:14.00	70.01	11.01	-48.6	-50.0	15.1	0.00e+00	0	22	0	307232768	62	4473
2026-01-13 06:20:14.99	69.90	11.08	-48.6	-50.0	15.1	0.00e+00	0	22	0	310378496	62	4463
2026-01-13 06:20:15.99	69.79	11.15	-48.7	-50.1	15.1	0.00e+00	0	22	0	313524224	62	4506
2026-01-13 06:20:16.99	69.68	11.22	-48.8	-50.1	15.0	0.00e+00	0	22	0	316669952	62	4544
2026-01-13 06:20:17.99	69.57	11.30	-48.7	-50.0	15.1	0.00e+00	0	21	0	319815680	62	4488
2026-01-13 06:20:18.99	69.45	11.37	-48.6	-50.0	15.1	0.00e+00	0	22	0	322961408	62	4448
2026-01-13 06:20:20.00	69.34	11.44	-48.6	-49.9	15.1	0.00e+00	0	22	0	326107136	62	4441
2026-01-13 06:20:21.01	69.22	11.52	-48.6	-49.9	15.2	0.00e+00	0	22	0	329252864	62	4426
2026-01-13 06:20:22.01	69.11	11.59	-48.6	-50.0	15.1	0.00e+00	0	22	0	332398592	62	4454
2026-01-13 06:20:23.01	68.99	11.66	-48.5	-49.8	15.2	0.00e+00	0	22	0	335544320	62	4390
2026-01-13 06:20:24.01	68.87	11.74	-48.6	-49.9	15.2	0.00e+00	0	22	0	338690048	62	4416
2026-01-13 06:20:25.02	68.76	11.81	-48.7	-50.0	15.1	0.00e+00	0	22	0	341835776	62	4485
2026-01-13 06:20:26.02	68.64	11.88	-48.5	-49.9	15.2	0.00e+00	0	22	0	344981504	62	4395
2026-01-13 06:20:27.03	68.52	11.96	-48.5	-49.8	15.2	0.00e+00	0	22	0	348127232	62	4367
2026-01-13 06:20:28.04	68.40	12.03	-48.6	-49.9	15.2	0.00e+00	0	22	0	351272960	62	4426
2026-01-13 06:20:29.04	68.28	12.11	-48.5	-49.9	15.2	0.00e+00	0	22	0	354418688	62	4407
2026-01-13 06:20:30.04	68.16	12.18	-48.5	-49.9	15.2	0.00e+00	0	22	0	357564416	62	4399
2026-01-13 06:20:31.04	68.04	12.25	-48.5	-49.9	15.2	0.00e+00	0	22	0	360710144	62	4399
2026-01-13 06:20:32.05	67.91	12.33	-48.5	-49.8	15.2	0.00e+00	0	22	0	363855872	62	4390
2026-01-13 06:20:33.05	67.79	12.40	-48.7	-50.0	15.1	0.00e+00	0	22	0	367001600	62	4481
2026-01-13 06:20:34.05	67.67	12.48	-48.7	-50.1	15.1	0.00e+00	0	22	0	370147328	62	4508
2026-01-13 06:20:35.06	67.54	12.55	-48.8	-50.1	15.1	0.00e+00	0	22	0	373293056	62	4541
2026-01-13 06:20:36.06	67.42	12.63	-48.7	-50.1	15.1	0.00e+00	0	22	0	376438784	62	4512
2026-01-13 06:20:37.06	67.30	12.70	-48.6	-50.0	15.1	0.00e+00	0	22	0	379584512	62	4470
2026-01-13 06:20:38.06	67.17	12.78	-48.7	-50.1	15.1	0.00e+00	0	22	0	382730240	62	4529
2026-01-13 06:20:39.06	67.04	12.85	-48.6	-49.9	15.2	0.00e+00	0	22	0	385875968	62	4429
2026-01-13 06:20:40.06	66.92	12.93	-48.7	-50.1	15.1	0.00e+00	0	22	0	389021696	62	4498
2026-01-13 06:20:41.06	66.79	13.00	-48.7	-50.1	15.1	0.00e+00	0	22	0	392167424	62	4504
2026-01-13 06:20:42.06	66.66	13.08	-48.5	-49.9	15.2	0.00e+00	0	22	0	395313152	62	4396
2026-01-13 06:20:43.06	66.53	13.15	-48.4	-49.8	15.3	0.00e+00	0	22	0	398458880	62	4349
2026-01-13 06:20:44.07	66.40	13.23	-48.5	-49.9	15.2	0.00e+00	0	22	0	401604608	62	4393
2026-01-13 06:20:45.06	66.28	13.30	-48.5	-49.8	15.2	0.00e+00	0	22	0	404750336	62	4383
2026-01-13 06:20:46.04	66.15	13.38	-48.4	-49.8	15.2	0.00e+00	0	22	0	406847488	62	4343
2026-01-13 06:20:47.04	66.02	13.45	-48.5	-49.8	15.2	0.00e+00	0	22	0	409993216	62	4381
2026-01-13 06:20:48.03	65.89	13.53	-48.6	-49.9	15.1	0.00e+00	0	22	0	413138944	62	4436
2026-01-13 06:20:49.02	65.75	13.60	-48.5	-49.9	15.2	0.00e+00	0	22	0	416284672	62	4405
2026-01-13 06:20:50.02	65.62	13.68	-48.6	-50.0	15.1	0.00e+00	0	22	0	419430400	62	4462
2026-01-13 06:20:51.03	65.48	13.75	-48.6	-50.0	15.1	0.00e+00	0	22	0	422576128	62	4455
2026-01-13 06:20:52.04	65.35	13.83	-48.7	-50.1	15.1	0.00e+00	0	22	0	425721856	62	4494
2026-01-13 06:20:53.04	65.21	13.91	-48.6	-49.9	15.2	0.00e+00	0	22	0	428867584	62	4413
2026-01-13 06:20:54.05	65.08	13.98	-48.6	-49.9	15.2	0.00e+00	0	22	0	432013312	62	4417
2026-01-13 06:20:55.06	64.94	14.06	-48.7	-50.0	15.1	0.00e+00	0	22	0	435159040	62	4475
2026-01-13 06:20:56.06	64.80	14.14	-48.6	-49.9	15.2	0.00e+00	0	22	0	438304768	62	4415
2026-01-13 06:20:57.05	64.66	14.21	-48.5	-49.8	15.2	0.00e+00	0	22	0	441450496	62	4362
2026-01-13 06:20:58.05	64.52	14.29	-48.6	-49.9	15.2	0.00e+00	0	22	0	444596224	62	4407
2026-01-13 06:20:59.05	64.38	14.36	-48.4	-49.7	15.3	0.00e+00	0	22	0	447741952	62	4329
2026-01-13 06:21:00.05	64.24	14.44	-48.4	-49.8	15.2	0.00e+00	0	22	0	450887680	62	4341
2026-01-13 06:21:01.05	64.10	14.52	-48.5	-49.9	15.2	0.00e+00	0	22	0	454033408	62	4394
2026-01-13 06:21:02.04	63.96	14.59	-48.6	-49.9	15.1	0.00e+00	0	22	0	457179136	62	4441
2026-01-13 06:21:03.05	63.82	14.67	-48.6	-50.0	15.2	0.00e+00	0	22	0	460324864	62	4444
2026-01-13 06:21:04.05	63.67	14.75	-48.6	-49.9	15.2	0.00e+00	0	22	0	463470592	62	4418
2026-01-13 06:21:05.05	63.53	14.82	-48.7	-50.1	15.1	0.00e+00	0	22	0	466616320	62	4507
2026-01-13 06:21:06.06	63.38	14.90	-48.5	-49.9	15.2	0.00e+00	0	22	0	469762048	62	4395
2026-01-13 06:21:07.07	63.24	14.98	-48.6	-49.9	15.2	0.00e+00	0	22	0	472907776	62	4439
2026-01-13 06:21:08.07	63.09	15.05	-48.6	-49.9	15.2	0.00e+00	0	22	0	476053504	62	4435
2026-01-13 06:21:09.07	62.94	15.13	-48.6	-50.0	15.2	0.00e+00	0	22	0	479199232	62	4442
2026-01-13 06:21:10.07	62.79	15.21	-48.6	-50.0	15.2	0.00e+00	0	22	0	482344960	62	4455
2026-01-13 06:21:11.07	62.65	15.29	-48.8	-50.2	15.1	0.00e+00	0	22	0	485490688	62	4565
2026-01-13 06:21:12.07	62.50	15.36	-48.7	-50.0	15.1	0.00e+00	0	22	0	488636416	62	4465
2026-01-13 06:21:13.07	62.34	15.44	-48.8	-50.1	15.1	0.00e+00	0	22	0	491782144	62	4536
2026-01-13 06:21:14.07	62.19	15.52	-48.8	-50.1	15.1	0.00e+00	0	22	0	494927872	62	4534
2026-01-13 06:21:15.07	62.04	15.59	-48.8	-50.2	15.1	0.00e+00	0	22	0	498073600	62	4549
2026-01-13 06:21:16.07	61.89	15.67	-48.9	-50.3	15.1	0.00e+00	0	22	0	501219328	63	4374
2026-01-13 06:21:17.07	61.74	15.75	-49.0	-50.4	15.1	0.00e+00	0	22	0	504365056	63	4394
2026-01-13 06:21:18.08	61.58	15.83	-49.0	-50.4	15.1	0.00e+00	0	22	0	507510784	63	4393
2026-01-13 06:21:19.08	61.42	15.90	-48.9	-50.3	15.2	0.00e+00	0	22	0	510656512	63	4368
2026-01-13 06:21:20.07	61.27	15.98	-49.0	-50.3	15.1	0.00e+00	0	22	0	513802240	63	4389
2026-01-13 06:21:21.07	61.11	16.06	-48.9	-50.3	15.2	0.00e+00	0	22	0	516947968	63	4363
2026-01-13 06:21:22.07	60.95	16.14	-49.0	-50.4	15.1	0.00e+00	0	22	0	520093696	63	4401
2026-01-13 06:21:23.07	60.80	16.21	-49.0	-50.3	15.1	0.00e+00	0	22	0	523239424	63	4388
2026-01-13 06:21:24.07	60.64	16.29	-48.9	-50.3	15.2	0.00e+00	0	22	0	526385152	63	4347
2026-01-13 06:21:25.07	60.48	16.37	-48.9	-50.3	15.2	0.00e+00	0	22	0	529530880	63	4355
2026-01-13 06:21:26.07	60.32	16.45	-49.0	-50.4	15.1	0.00e+00	0	22	0	532676608	63	4419
2026-01-13 06:21:27.07	60.15	16.52	-49.0	-50.3	15.1	0.00e+00	0	22	0	535822336	63	4386
2026-01-13 06:21:28.06	59.99	16.60	-49.0	-50.4	15.1	0.00e+00	0	22	0	538968064	63	4399
2026-01-13 06:21:29.06	59.83	16.68	-49.0	-50.4	15.1	0.00e+00	0	22	0	542113792	63	4397
2026-01-13 06:21:30.05	59.67	16.75	-49.0	-50.3	15.1	0.00e+00	0	22	0	544210944	63	4385
2026-01-13 06:21:31.05	59.50	16.83	-49.0	-50.4	15.1	0.00e+00	0	22	0	547356672	63	4433
2026-01-13 06:21:32.06	59.33	16.91	-48.8	-50.2	15.2	0.00e+00	0	22	0	550502400	63	4321
2026-01-13 06:21:33.06	59.17	16.99	-48.8	-50.2	15.2	0.00e+00	0	22	0	554696704	63	4296
2026-01-13 06:21:34.07	59.00	17.06	-48.9	-50.2	15.2	0.00e+00	0	22	0	557842432	63	4336
2026-01-13 06:21:35.07	58.83	17.14	-48.8	-50.1	15.2	0.00e+00	0	22	0	560988160	63	4274
2026-01-13 06:21:36.07	58.66	17.22	-48.8	-50.1	15.2	0.00e+00	0	22	0	564133888	63	4279
2026-01-13 06:21:37.07	58.49	17.30	-48.7	-50.0	15.3	0.00e+00	0	22	0	566231040	63	4233
2026-01-13 06:21:38.07	58.32	17.37	-48.8	-50.1	15.2	0.00e+00	0	22	0	569376768	63	4276
2026-01-13 06:21:39.07	58.14	17.45	-48.8	-50.2	15.2	0.00e+00	0	22	0	572522496	63	4300
2026-01-13 06:21:40.06	57.97	17.53	-48.6	-49.9	15.3	0.00e+00	0	22	0	575668224	63	4187
2026-01-13 06:21:41.05	57.80	17.61	-48.6	-49.9	15.4	0.00e+00	0	22	0	578813952	63	4155
2026-01-13 06:21:42.05	57.62	17.68	-48.5	-49.8	15.4	0.00e+00	0	22	0	581959680	63	4138
2026-01-13 06:21:43.05	57.45	17.76	-48.5	-49.8	15.4	0.00e+00	0	22	0	585105408	63	4120
2026-01-13 06:21:44.04	57.27	17.84	-48.6	-49.9	15.4	0.00e+00	0	22	0	588251136	63	4159
2026-01-13 06:21:45.05	57.09	17.91	-48.6	-49.9	15.4	0.00e+00	0	22	0	591396864	63	4175
2026-01-13 06:21:46.04	56.92	17.99	-48.4	-49.7	15.5	0.00e+00	0	22	0	594542592	63	4082
2026-01-13 06:21:47.05	56.73	18.07	-48.4	-49.6	15.5	0.00e+00	0	22	0	597688320	63	4045
2026-01-13 06:21:48.05	56.55	18.15	-48.4	-49.6	15.5	0.00e+00	0	22	0	600834048	63	4040
2026-01-13 06:21:49.05	56.37	18.22	-48.2	-49.5	15.6	0.00e+00	0	22	0	603979776	63	3972
2026-01-13 06:21:50.06	56.19	18.30	-48.2	-49.4	15.4	0.00e+00	0	22	0	607125504	62	4177
2026-01-13 06:21:51.06	56.00	18.38	-48.1	-49.4	15.5	0.00e+00	0	22	0	610271232	62	4166
2026-01-13 06:21:52.06	55.82	18.45	-48.1	-49.3	15.5	0.00e+00	0	22	0	613416960	62	4134
2026-01-13 06:21:53.06	55.64	18.53	-48.1	-49.3	15.5	0.00e+00	0	22	0	616562688	62	4136
2026-01-13 06:21:54.05	55.45	18.61	-48.1	-49.3	15.5	0.00e+00	0	22	0	619708416	62	4129
2026-01-13 06:21:55.05	55.26	18.68	-48.1	-49.3	15.5	0.00e+00	0	22	0	622854144	62	4137
2026-01-13 06:21:56.05	55.08	18.76	-48.1	-49.4	15.5	0.00e+00	0	22	0	625999872	62	4177
2026-01-13 06:21:57.05	54.89	18.84	-48.3	-49.6	15.4	0.00e+00	0	22	0	629145600	62	4245
2026-01-13 06:21:58.06	54.69	18.91	-48.4	-49.7	15.3	0.00e+00	0	22	0	632291328	62	4307
2026-01-13 06:21:59.07	54.50	18.99	-48.5	-49.8	15.3	0.00e+00	0	22	0	635437056	62	4357
2026-01-13 06:22:00.07	54.31	19.07	-48.6	-49.9	15.2	0.00e+00	0	22	0	638582784	62	4405
2026-01-13 06:22:01.07	54.12	19.14	-48.4	-49.7	15.3	0.00e+00	0	22	0	641728512	62	4325
2026-01-13 06:22:02.07	53.92	19.22	-48.3	-49.6	15.4	0.00e+00	0	22	0	644874240	62	4248
2026-01-13 06:22:03.07	53.73	19.29	-48.3	-49.6	15.4	0.00e+00	0	22	0	648019968	62	4258
2026-01-13 06:22:04.06	53.53	19.37	-48.4	-49.7	15.3	0.00e+00	0	22	0	651165696	62	4306
2026-01-13 06:22:05.06	53.34	19.44	-48.3	-49.5	15.4	0.00e+00	0	22	0	654311424	62	4231
2026-01-13 06:22:06.06	53.14	19.52	-48.1	-49.4	15.5	0.00e+00	0	22	0	657457152	62	4161
2026-01-13 06:22:07.07	52.94	19.59	-48.2	-49.4	15.5	0.00e+00	0	22	0	660602880	62	4177
2026-01-13 06:22:08.07	52.74	19.67	-48.2	-49.4	15.5	0.00e+00	0	22	0	663748608	62	4191
2026-01-13 06:22:09.06	52.54	19.74	-48.1	-49.4	15.5	0.00e+00	0	22	0	666894336	62	4168
2026-01-13 06:22:10.06	52.34	19.82	-48.2	-49.5	15.4	0.00e+00	0	22	0	670040064	62	4233
2026-01-13 06:22:11.06	52.14	19.89	-48.2	-49.4	15.5	0.00e+00	0	22	0	673185792	62	4191
2026-01-13 06:22:12.06	51.93	19.97	-48.2	-49.4	15.5	0.00e+00	0	22	0	676331520	62	4192
2026-01-13 06:22:13.05	51.73	20.04	-48.0	-49.2	15.6	0.00e+00	0	22	0	679477248	62	4087
2026-01-13 06:22:14.05	51.52	20.12	-48.0	-49.2	15.6	0.00e+00	0	22	0	682622976	62	4078
2026-01-13 06:22:15.06	51.31	20.19	-47.7	-48.9	15.7	0.00e+00	0	22	0	685768704	62	3957
2026-01-13 06:22:16.06	51.11	20.26	-47.7	-48.9	15.7	0.00e+00	0	22	0	688914432	62	3955
2026-01-13 06:22:17.06	50.90	20.34	-47.8	-49.0	15.7	0.00e+00	0	22	0	692060160	62	3990
2026-01-13 06:22:18.06	50.69	20.41	-47.9	-49.1	15.6	0.00e+00	0	22	0	695205888	62	4039
2026-01-13 06:22:19.06	50.48	20.48	-47.9	-49.1	15.6	0.00e+00	0	22	0	698351616	62	4035
2026-01-13 06:22:20.05	50.27	20.56	-47.7	-48.9	15.7	0.00e+00	0	22	0	700448768	62	3951
2026-01-13 06:22:21.05	50.05	20.63	-47.8	-49.0	15.7	0.00e+00	0	22	0	703594496	62	3970
2026-01-13 06:22:22.04	49.84	20.70	-47.8	-49.0	15.7	0.00e+00	0	22	0	706740224	62	3992
2026-01-13 06:22:23.03	49.63	20.77	-47.7	-48.9	15.7	0.00e+00	0	22	0	709885952	62	3939
2026-01-13 06:22:24.03	49.41	20.84	-47.8	-49.0	15.7	0.00e+00	0	22	0	713031680	62	3990
2026-01-13 06:22:25.03	49.20	20.92	-47.8	-49.1	15.7	0.00e+00	0	22	0	716177408	62	4006
2026-01-13 06:22:26.02	48.98	20.99	-47.8	-49.0	15.7	0.00e+00	0	22	0	719323136	62	3977
2026-01-13 06:22:27.03	48.76	21.06	-47.9	-49.1	15.6	0.00e+00	0	22	0	722468864	62	4037
2026-01-13 06:22:28.03	48.54	21.13	-47.8	-49.0	15.7	0.00e+00	0	22	0	725614592	62	3997
2026-01-13 06:22:29.03	48.32	21.20	-47.8	-49.1	15.7	0.00e+00	0	22	0	728760320	62	4013
2026-01-13 06:22:30.02	48.10	21.27	-47.8	-49.1	15.7	0.00e+00	0	22	0	731906048	62	4013
2026-01-13 06:22:31.03	47.87	21.34	-47.9	-49.1	15.6	0.00e+00	0	22	0	735051776	62	4026
2026-01-13 06:22:32.02	47.65	21.41	-47.9	-49.1	15.6	0.00e+00	0	22	0	738197504	62	4035
2026-01-13 06:22:33.01	47.43	21.48	-47.9	-49.1	15.6	0.00e+00	0	22	0	741343232	62	4031
2026-01-13 06:22:34.01	47.20	21.55	-47.9	-49.2	15.6	0.00e+00	0	22	0	744488960	62	4061
2026-01-13 06:22:35.00	46.98	21.62	-48.0	-49.2	15.6	0.00e+00	0	22	0	747634688	62	4079
2026-01-13 06:22:36.00	46.75	21.69	-48.0	-49.2	15.6	0.00e+00	0	22	0	750780416	62	4082
2026-01-13 06:22:37.00	46.52	21.76	-48.0	-49.2	15.6	0.00e+00	0	22	0	753926144	62	4095
2026-01-13 06:22:38.00	46.29	21.83	-47.8	-49.1	15.6	0.00e+00	0	22	0	757071872	62	4012
2026-01-13 06:22:39.00	46.06	21.89	-47.9	-49.2	15.6	0.00e+00	0	22	0	760217600	62	4060
2026-01-13 06:22:40.01	45.82	21.96	-47.8	-49.0	15.7	0.00e+00	0	22	0	763363328	62	3990
2026-01-13 06:22:41.01	45.59	22.03	-47.8	-49.1	15.7	0.00e+00	0	22	0	766509056	62	4006
2026-01-13 06:22:42.01	45.36	22.10	-47.9	-49.1	15.6	0.00e+00	0	22	0	769654784	62	4028
2026-01-13 06:22:43.01	45.12	22.16	-47.9	-49.1	15.6	0.00e+00	0	22	0	772800512	62	4045
2026-01-13 06:22:44.01	44.89	22.23	-47.8	-49.1	15.7	0.00e+00	0	22	0	775946240	62	4006
2026-01-13 06:22:45.01	44.65	22.30	-47.9	-49.1	15.7	0.00e+00	0	22	0	779091968	62	4011
2026-01-13 06:22:46.02	44.41	22.36	-47.9	-49.1	15.6	0.00e+00	0	22	0	782237696	62	4040
2026-01-13 06:22:47.02	44.17	22.43	-47.9	-49.1	15.6	0.00e+00	0	22	0	785383424	62	4035
2026-01-13 06:22:48.01	43.93	22.49	-47.9	-49.1	15.6	0.00e+00	0	22	0	788529152	62	4050
2026-01-13 06:22:49.01	43.69	22.56	-48.0	-49.3	15.6	0.00e+00	0	22	0	791674880	62	4101
2026-01-13 06:22:50.02	43.44	22.62	-48.1	-49.3	15.6	0.00e+00	0	22	0	794820608	62	4122
2026-01-13 06:22:51.02	43.20	22.69	-48.1	-49.4	15.5	0.00e+00	0	22	0	797966336	62	4156
2026-01-13 06:22:52.01	42.96	22.75	-48.1	-49.3	15.5	0.00e+00	0	22	0	801112064	62	4132
2026-01-13 06:22:53.02	42.71	22.81	-47.9	-49.1	15.6	0.00e+00	0	22	0	804257792	62	4038
2026-01-13 06:22:54.02	42.46	22.87	-47.9	-49.2	15.6	0.00e+00	0	22	0	807403520	62	4061
2026-01-13 06:22:55.02	42.22	22.94	-47.9	-49.1	15.6	0.00e+00	0	22	0	810549248	62	4025
2026-01-13 06:22:56.02	41.97	23.00	-48.0	-49.2	15.6	0.00e+00	0	22	0	813694976	62	4074
2026-01-13 06:22:57.02	41.72	23.06	-47.9	-49.1	15.6	0.00e+00	0	22	0	816840704	62	4048
2026-01-13 06:22:58.02	41.47	23.12	-47.9	-49.1	15.7	0.00e+00	0	22	0	819986432	62	4014
2026-01-13 06:22:59.02	41.22	23.18	-47.8	-49.0	15.7	0.00e+00	0	22	0	823132160	62	3974
2026-01-13 06:23:00.02	40.96	23.24	-47.8	-49.1	15.7	0.00e+00	0	22	0	826277888	62	4011
2026-01-13 06:23:01.01	40.71	23.30	-47.8	-49.0	15.7	0.00e+00	0	22	0	829423616	62	3978
2026-01-13 06:23:02.01	40.46	23.36	-47.8	-48.9	15.7	0.00e+00	0	22	0	832569344	62	3954
2026-01-13 06:23:03.01	40.20	23.42	-47.7	-48.9	15.8	0.00e+00	0	22	0	835715072	62	3935
2026-01-13 06:23:04.01	39.95	23.47	-47.8	-49.0	15.7	0.00e+00	0	22	0	838860800	62	3967
2026-01-13 06:23:05.01	39.69	23.53	-47.8	-49.1	15.6	0.00e+00	0	22	0	842006528	62	4007
2026-01-13 06:23:06.01	39.43	23.59	-47.8	-49.0	15.7	0.00e+00	0	22	0	845152256	62	3992
2026-01-13 06:23:07.02	39.17	23.65	-47.9	-49.1	15.7	0.00e+00	0	22	0	848297984	62	4018
2026-01-13 06:23:08.02	38.91	23.70	-48.0	-49.2	15.6	0.00e+00	0	22	0	851443712	62	4085
2026-01-13 06:23:09.02	38.65	23.76	-48.1	-49.4	15.5	0.00e+00	0	22	0	854589440	62	4151
2026-01-13 06:23:10.02	38.39	23.81	-48.2	-49.5	15.5	0.00e+00	0	22	0	857735168	62	4203
2026-01-13 06:23:11.02	38.12	23.87	-48.1	-49.4	15.5	0.00e+00	0	22	0	859832320	62	4153
2026-01-13 06:23:12.02	37.86	23.92	-48.0	-49.3	15.6	0.00e+00	0	22	0	862978048	62	4105
2026-01-13 06:23:13.03	37.59	23.97	-48.0	-49.2	15.6	0.00e+00	0	22	0	866123776	62	4065
2026-01-13 06:23:14.03	37.33	24.03	-48.0	-49.2	15.6	0.00e+00	0	22	0	869269504	62	4094
2026-01-13 06:23:15.03	37.06	24.08	-48.0	-49.2	15.6	0.00e+00	0	22	0	872415232	62	4072
2026-01-13 06:23:16.03	36.79	24.13	-47.9	-49.2	15.6	0.00e+00	0	22	0	875560960	62	4058
2026-01-13 06:23:17.03	36.53	24.18	-47.9	-49.1	15.6	0.00e+00	0	22	0	878706688	62	4050
2026-01-13 06:23:18.04	36.25	24.23	-48.0	-49.2	15.6	0.00e+00	0	22	0	881852416	62	4064
2026-01-13 06:23:19.04	35.98	24.28	-47.9	-49.1	15.6	0.00e+00	0	22	0	884998144	62	4043
2026-01-13 06:23:20.04	35.71	24.33	-47.9	-49.1	15.6	0.00e+00	0	22	0	888143872	62	4049
2026-01-13 06:23:21.05	35.44	24.38	-48.0	-49.2	15.6	0.00e+00	0	22	0	891289600	62	4064
2026-01-13 06:23:22.05	35.17	24.43	-47.8	-49.0	15.7	0.00e+00	0	22	0	894435328	62	3993
2026-01-13 06:23:23.06	34.89	24.48	-47.8	-48.9	15.7	0.00e+00	0	22	0	897581056	62	3958
2026-01-13 06:23:24.06	34.62	24.52	-47.8	-49.0	15.7	0.00e+00	0	22	0	900726784	62	3997
2026-01-13 06:23:25.05	34.34	24.57	-47.8	-49.0	15.7	0.00e+00	0	22	0	903872512	62	3982
2026-01-13 06:23:26.06	34.07	24.61	-47.7	-49.0	15.7	0.00e+00	0	22	0	907018240	62	3959
2026-01-13 06:23:27.07	33.79	24.66	-47.9	-49.1	15.6	0.00e+00	0	22	0	910163968	62	4027
2026-01-13 06:23:28.07	33.51	24.70	-47.9	-49.1	15.7	0.00e+00	0	22	0	913309696	62	4025
2026-01-13 06:23:29.07	33.23	24.75	-47.9	-49.1	15.7	0.00e+00	0	22	0	916455424	62	4023
2026-01-13 06:23:30.07	32.95	24.79	-47.9	-49.1	15.6	0.00e+00	0	22	0	919601152	62	4042
2026-01-13 06:23:31.07	32.67	24.83	-47.9	-49.1	15.6	0.00e+00	0	22	0	922746880	62	4043
2026-01-13 06:23:32.08	32.39	24.87	-47.7	-48.9	15.7	0.00e+00	0	22	0	925892608	62	3947
2026-01-13 06:23:33.08	32.11	24.92	-47.6	-48.8	15.6	0.00e+00	0	22	0	929038336	61	4131
2026-01-13 06:23:34.08	31.83	24.96	-47.7	-48.9	15.6	0.00e+00	0	22	0	932184064	61	4148
2026-01-13 06:23:35.08	31.54	24.99	-47.5	-48.7	15.7	0.00e+00	0	22	0	935329792	61	4054
2026-01-13 06:23:36.09	31.26	25.03	-47.3	-48.5	15.8	0.00e+00	0	22	0	938475520	61	3981
2026-01-13 06:23:37.09	30.97	25.07	-47.4	-48.5	15.7	0.00e+00	0	22	0	941621248	61	4002
2026-01-13 06:23:38.09	30.69	25.11	-47.4	-48.5	15.7	0.00e+00	0	22	0	944766976	61	3994
2026-01-13 06:23:39.10	30.40	25.15	-47.4	-48.6	15.7	0.00e+00	0	22	0	947912704	61	4008
2026-01-13 06:23:40.10	30.11	25.18	-47.3	-48.5	15.8	0.00e+00	0	22	0	951058432	61	3969
2026-01-13 06:23:41.11	29.82	25.22	-47.4	-48.5	15.7	0.00e+00	0	22	0	954204160	61	3996
2026-01-13 06:23:42.11	29.54	25.25	-47.4	-48.6	15.7	0.00e+00	0	22	0	957349888	61	4016
2026-01-13 06:23:43.12	29.25	25.28	-47.6	-48.7	15.6	0.00e+00	0	22	0	960495616	61	4092
2026-01-13 06:23:44.12	28.96	25.32	-47.7	-48.9	15.6	0.00e+00	0	22	0	963641344	61	4160
2026-01-13 06:23:45.12	28.67	25.35	-47.8	-49.0	15.5	0.00e+00	0	22	0	966787072	61	4220
2026-01-13 06:23:46.13	28.38	25.38	-47.9	-49.1	15.5	0.00e+00	0	22	0	969932800	61	4282
2026-01-13 06:23:47.13	28.09	25.41	-47.9	-49.1	15.5	0.00e+00	0	22	0	973078528	61	4277
2026-01-13 06:23:48.14	27.79	25.44	-47.8	-49.1	15.5	0.00e+00	0	22	0	976224256	61	4246
2026-01-13 06:23:49.14	27.50	25.47	-47.8	-49.0	15.5	0.00e+00	0	22	0	979369984	61	4210
2026-01-13 06:23:50.14	27.21	25.50	-47.8	-49.0	15.5	0.00e+00	0	22	0	982515712	61	4231
2026-01-13 06:23:51.14	26.92	25.53	-47.8	-49.0	15.6	0.00e+00	0	22	0	985661440	61	4200
2026-01-13 06:23:52.15	26.62	25.55	-47.9	-49.1	15.5	0.00e+00	0	22	0	988807168	61	4266
2026-01-13 06:23:53.15	26.33	25.58	-47.8	-49.0	15.5	0.00e+00	0	22	0	991952896	61	4242
2026-01-13 06:23:54.16	26.03	25.60	-47.7	-48.9	15.6	0.00e+00	0	22	0	995098624	61	4157
2026-01-13 06:23:55.16	25.74	25.63	-47.6	-48.8	15.6	0.00e+00	0	22	0	998244352	61	4130
2026-01-13 06:23:56.17	25.44	25.65	-47.6	-48.8	15.6	0.00e+00	0	22	0	1001390080	61	4126
2026-01-13 06:23:57.17	25.14	25.67	-47.7	-48.9	15.6	0.00e+00	0	22	0	1004535808	61	4170
2026-01-13 06:23:58.18	24.85	25.70	-47.7	-48.9	15.6	0.00e+00	0	22	0	1007681536	61	4158
2026-01-13 06:23:59.18	24.55	25.72	-47.7	-48.9	15.6	0.00e+00	0	22	0	1010827264	61	4182
2026-01-13 06:24:00.19	24.25	25.74	-47.7	-48.9	15.6	0.00e+00	0	22	0	1013972992	61	4168
2026-01-13 06:24:01.19	23.95	25.76	-47.7	-48.9	15.6	0.00e+00	0	22	0	1017118720	61	4169
2026-01-13 06:24:02.19	23.66	25.77	-47.8	-49.0	15.6	0.00e+00	0	22	0	1020264448	61	4202
2026-01-13 06:24:03.19	23.36	25.79	-47.9	-49.1	15.5	0.00e+00	0	22	0	1023410176	61	4265
2026-01-13 06:24:04.18	23.06	25.81	-48.0	-49.2	15.5	0.00e+00	0	22	0	1026555904	61	4317
2026-01-13 06:24:05.18	22.77	25.82	-47.9	-49.1	15.5	0.00e+00	0	22	0	1029701632	61	4291
2026-01-13 06:24:06.18	22.47	25.84	-47.9	-49.1	15.5	0.00e+00	0	22	0	1032847360	61	4270
2026-01-13 06:24:07.17	22.17	25.85	-47.9	-49.1	15.5	0.00e+00	0	22	0	1035993088	61	4290
2026-01-13 06:24:08.15	21.88	25.87	-47.9	-49.1	15.5	0.00e+00	0	22	0	1039138816	61	4278
2026-01-13 06:24:09.15	21.58	25.88	-47.7	-48.9	15.6	0.00e+00	0	22	0	1042284544	61	4150
2026-01-13 06:24:10.14	21.28	25.89	-47.6	-48.7	15.7	0.00e+00	0	22	0	1045430272	61	4092
2026-01-13 06:24:11.14	20.98	25.90	-47.4	-48.6	15.7	0.00e+00	0	22	0	1048576000	61	4027
2026-01-13 06:24:12.14	20.68	25.91	-47.4	-48.6	15.7	0.00e+00	0	22	0	1051721728	61	4034
2026-01-13 06:24:13.14	20.38	25.92	-47.6	-48.8	15.6	0.00e+00	0	22	0	1054867456	61	4136
2026-01-13 06:24:14.13	20.09	25.93	-47.6	-48.8	15.6	0.00e+00	0	22	0	1058013184	61	4139
2026-01-13 06:24:15.13	19.79	25.93	-47.7	-48.9	15.6	0.00e+00	0	22	0	1061158912	61	4153
2026-01-13 06:24:16.12	19.49	25.94	-47.7	-48.9	15.6	0.00e+00	0	22	0	1064304640	61	4186
2026-01-13 06:24:17.12	19.19	25.95	-47.7	-49.0	15.6	0.00e+00	0	22	0	1066401792	61	4194
2026-01-13 06:24:18.12	18.89	25.95	-47.7	-48.9	15.6	0.00e+00	0	22	0	1069547520	61	4153
2026-01-13 06:24:19.12	18.59	25.95	-47.7	-48.9	15.6	0.00e+00	0	22	0	1072693248	61	4152
2026-01-13 06:24:20.11	18.29	25.96	-47.8	-49.0	15.6	0.00e+00	0	22	0	1075838976	61	4210
2026-01-13 06:24:21.10	17.99	25.96	-47.8	-49.0	15.6	0.00e+00	0	22	0	1078984704	61	4209
2026-01-13 06:24:22.09	17.69	25.96	-47.7	-48.9	15.6	0.00e+00	0	22	0	1082130432	61	4154
2026-01-13 06:24:23.08	17.40	25.96	-47.7	-49.0	15.6	0.00e+00	0	22	0	1085276160	61	4194
2026-01-13 06:24:24.08	17.10	25.96	-47.8	-49.0	15.5	0.00e+00	0	22	0	1088421888	61	4241
2026-01-13 06:24:25.07	16.80	25.96	-47.7	-49.0	15.6	0.00e+00	0	22	0	1091567616	61	4196
2026-01-13 06:24:26.06	16.50	25.96	-47.8	-49.0	15.6	0.00e+00	0	22	0	1094713344	61	4203
2026-01-13 06:24:27.05	16.20	25.95	-47.7	-48.9	15.6	0.00e+00	0	22	0	1097859072	61	4189
2026-01-13 06:24:28.05	15.90	25.95	-47.8	-49.0	15.5	0.00e+00	0	22	0	1101004800	61	4232
2026-01-13 06:24:29.04	15.60	25.95	-47.9	-49.1	15.5	0.00e+00	0	22	0	1104150528	61	4286
2026-01-13 06:24:30.03	15.31	25.94	-47.8	-49.0	15.5	0.00e+00	0	22	0	1107296256	61	4239
2026-01-13 06:24:31.04	15.00	25.93	-47.8	-49.1	15.5	0.00e+00	0	22	0	1110441984	61	4245
2026-01-13 06:24:32.04	14.70	25.93	-47.7	-48.9	15.6	0.00e+00	0	22	0	1113587712	61	4172
2026-01-13 06:24:33.04	14.40	25.92	-47.7	-48.9	15.6	0.00e+00	0	22	0	1116733440	61	4188
2026-01-13 06:24:34.04	14.10	25.91	-47.6	-48.7	15.7	0.00e+00	0	22	0	1119879168	61	4098
2026-01-13 06:24:35.04	13.80	25.90	-47.7	-48.9	15.6	0.00e+00	0	22	0	1123024896	61	4160
2026-01-13 06:24:36.04	13.50	25.89	-47.7	-48.9	15.6	0.00e+00	0	22	0	1126170624	61	4158
2026-01-13 06:24:37.03	13.21	25.88	-47.6	-48.7	15.6	0.00e+00	0	22	0	1129316352	61	4095
2026-01-13 06:24:38.03	12.91	25.86	-47.7	-48.9	15.6	0.00e+00	0	22	0	1132462080	61	4152
2026-01-13 06:24:39.03	12.61	25.85	-47.7	-48.9	15.6	0.00e+00	0	22	0	1135607808	61	4170
2026-01-13 06:24:40.03	12.31	25.84	-47.7	-49.0	15.6	0.00e+00	0	22	0	1138753536	61	4194
2026-01-13 06:24:41.04	12.01	25.82	-47.8	-49.1	15.5	0.00e+00	0	22	0	1141899264	61	4248
2026-01-13 06:24:42.04	11.71	25.81	-47.9	-49.1	15.5	0.00e+00	0	22	0	1145044992	61	4287
2026-01-13 06:24:43.05	11.41	25.79	-47.9	-49.2	15.5	0.00e+00	0	22	0	1148190720	61	4295
2026-01-13 06:24:44.06	11.11	25.77	-48.0	-49.2	15.5	0.00e+00	0	22	0	1151336448	61	4311
2026-01-13 06:24:45.06	10.82	25.75	-47.8	-49.0	15.5	0.00e+00	0	22	0	1154482176	61	4230
2026-01-13 06:24:46.06	10.52	25.73	-47.9	-49.1	15.5	0.00e+00	0	22	0	1157627904	61	4265
2026-01-13 06:24:47.06	10.22	25.71	-47.9	-49.1	15.5	0.00e+00	0	22	0	1160773632	61	4272
2026-01-13 06:24:48.07	9.92	25.69	-48.0	-49.2	15.5	0.00e+00	0	22	0	1163919360	61	4320
2026-01-13 06:24:49.05	9.63	25.67	-48.1	-49.3	15.4	0.00e+00	0	22	0	1167065088	61	4366
2026-01-13 06:24:50.06	9.34	25.65	-48.0	-49.2	15.5	0.00e+00	0	22	0	1170210816	61	4333
2026-01-13 06:24:51.06	9.04	25.62	-48.1	-49.3	15.4	0.00e+00	0	22	0	1173356544	61	4384
2026-01-13 06:24:52.06	8.75	25.60	-48.1	-49.3	15.4	0.00e+00	0	22	0	1176502272	61	4365
2026-01-13 06:24:53.06	8.45	25.58	-48.0	-49.2	15.4	0.00e+00	0	22	0	1179648000	61	4339
2026-01-13 06:24:54.06	8.16	25.55	-47.9	-49.2	15.5	0.00e+00	0	22	0	1182793728	61	4302
2026-01-13 06:24:55.05	7.87	25.52	-47.9	-49.1	15.5	0.00e+00	0	22	0	1184890880	61	4280
2026-01-13 06:24:56.05	7.58	25.50	-47.8	-49.0	15.5	0.00e+00	0	22	0	1188036608	61	4223
2026-01-13 06:24:57.07	7.28	25.47	-47.8	-49.0	15.5	0.00e+00	0	22	0	1192230912	61	4227
2026-01-13 06:24:58.07	6.99	25.44	-48.0	-49.2	15.5	0.00e+00	0	22	0	1195376640	61	4319
2026-01-13 06:24:59.07	6.70	25.41	-48.0	-49.2	15.4	0.00e+00	0	22	0	1198522368	61	4334
2026-01-13 06:25:00.06	6.41	25.38	-48.1	-49.3	15.4	0.00e+00	0	22	0	1200619520	61	4366
2026-01-13 06:25:01.06	6.12	25.35	-48.1	-49.4	15.4	0.00e+00	0	22	0	1203765248	61	4402
2026-01-13 06:25:02.06	5.83	25.31	-48.2	-49.4	15.4	0.00e+00	0	22	0	1206910976	61	4425
2026-01-13 06:25:03.05	5.55	25.28	-48.2	-49.4	15.4	0.00e+00	0	22	0	1210056704	61	4429
2026-01-13 06:25:04.05	5.26	25.25	-48.1	-49.4	15.4	0.00e+00	0	22	0	1213202432	61	4420
2026-01-13 06:25:05.04	4.98	25.21	-48.1	-49.4	15.4	0.00e+00	0	22	0	1216348160	61	4415
2026-01-13 06:25:06.05	4.69	25.18	-48.1	-49.4	15.3	0.00e+00	0	22	0	1219493888	61	4419
2026-01-13 06:25:07.05	4.40	25.14	-48.1	-49.3	15.4	0.00e+00	0	22	0	1222639616	61	4387
2026-01-13 06:25:08.05	4.12	25.11	-48.0	-49.2	15.4	0.00e+00	0	22	0	1225785344	61	4318
2026-01-13 06:25:09.05	3.83	25.07	-48.0	-49.2	15.4	0.00e+00	0	22	0	1228931072	61	4316
2026-01-13 06:25:10.05	3.55	25.03	-48.0	-49.2	15.4	0.00e+00	0	22	0	1232076800	61	4339
2026-01-13 06:25:11.05	3.27	24.99	-48.0	-49.2	15.4	0.00e+00	0	22	0	1235222528	61	4325
2026-01-13 06:25:12.05	2.98	24.95	-48.0	-49.2	15.4	0.00e+00	0	22	0	1238368256	61	4306
2026-01-13 06:25:13.04	2.70	24.91	-48.0	-49.2	15.4	0.00e+00	0	22	0	1241513984	61	4319
2026-01-13 06:25:14.04	2.42	24.87	-47.8	-49.0	15.5	0.00e+00	0	22	0	1244659712	61	4236
2026-01-13 06:25:15.05	2.14	24.83	-47.8	-49.0	15.5	0.00e+00	0	22	0	1247805440	61	4232
2026-01-13 06:25:16.04	1.86	24.79	-47.8	-49.0	15.5	0.00e+00	0	22	0	1250951168	61	4241
2026-01-13 06:25:17.04	1.58	24.75	-47.9	-49.1	15.5	0.00e+00	0	22	0	1254096896	61	4276
2026-01-13 06:25:18.05	1.30	24.70	-47.8	-49.1	15.5	0.00e+00	0	22	0	1257242624	61	4245
2026-01-13 06:25:19.05	1.03	24.66	-47.8	-49.0	15.5	0.00e+00	0	22	0	1260388352	61	4232
2026-01-13 06:25:20.06	0.75	24.61	-47.8	-49.0	15.5	0.00e+00	0	22	0	1263534080	61	4228
2026-01-13 06:25:21.06	0.47	24.57	-47.8	-48.9	15.5	0.00e+00	0	22	0	1266679808	61	4188
2026-01-13 06:25:22.07	0.19	24.52	-47.7	-48.9	15.6	0.00e+00	0	22	0	1269825536	61	4151
2026-01-13 06:25:23.08	359.92	24.47	-47.6	-48.8	15.6	0.00e+00	0	22	0	1272971264	61	4124
2026-01-13 06:25:24.08	359.65	24.43	-47.7	-48.9	15.6	0.00e+00	0	22	0	1276116992	61	4146
2026-01-13 06:25:25.09	359.37	24.38	-47.5	-48.7	15.7	0.00e+00	0	22	0	1279262720	61	4057
2026-01-13 06:25:26.09	359.10	24.33	-47.6	-48.7	15.6	0.00e+00	0	22	0	1282408448	61	4090
2026-01-13 06:25:27.10	358.83	24.28	-47.5	-48.7	15.7	0.00e+00	0	22	0	1285554176	61	4064
2026-01-13 06:25:28.10	358.56	24.23	-47.6	-48.8	15.6	0.00e+00	0	22	0	1288699904	61	4136
2026-01-13 06:25:29.11	358.28	24.18	-47.7	-48.9	15.6	0.00e+00	0	22	0	1291845632	61	4156
2026-01-13 06:25:30.12	358.01	24.13	-47.7	-48.9	15.6	0.00e+00	0	22	0	1294991360	61	4181
2026-01-13 06:25:31.12	357.75	24.08	-47.9	-49.1	15.5	0.00e+00	0	22	0	1298137088	61	4263
2026-01-13 06:25:32.13	357.48	24.02	-48.0	-49.2	15.5	0.00e+00	0	22	0	1301282816	61	4293
2026-01-13 06:25:33.14	357.21	23.97	-48.0	-49.2	15.4	0.00e+00	0	22	0	1304428544	61	4334
2026-01-13 06:25:34.14	356.95	23.92	-48.1	-49.3	15.4	0.00e+00	0	22	0	1307574272	61	4366
2026-01-13 06:25:35.15	356.68	23.86	-48.0	-49.2	15.5	0.00e+00	0	22	0	1310720000	61	4313
2026-01-13 06:25:36.16	356.41	23.81	-48.0	-49.2	15.5	0.00e+00	0	22	0	1313865728	61	4324
2026-01-13 06:25:37.16	356.15	23.75	-48.0	-49.3	15.4	0.00e+00	0	22	0	1317011456	61	4358
2026-01-13 06:25:38.17	355.89	23.70	-48.2	-49.4	15.4	0.00e+00	0	22	0	1320157184	61	4421
2026-01-13 06:25:39.18	355.63	23.64	-48.1	-49.3	15.4	0.00e+00	0	22	0	1323302912	61	4363
2026-01-13 06:25:40.19	355.37	23.58	-48.0	-49.2	15.4	0.00e+00	0	22	0	1326448640	61	4322
2026-01-13 06:25:41.20	355.11	23.53	-48.0	-49.2	15.4	0.00e+00	0	22	0	1329594368	61	4309
2026-01-13 06:25:42.21	354.85	23.47	-48.0	-49.2	15.4	0.00e+00	0	22	0	1332740096	61	4319
2026-01-13 06:25:43.22	354.59	23.41	-48.0	-49.2	15.4	0.00e+00	0	22	0	1335885824	61	4336
2026-01-13 06:25:44.23	354.33	23.35	-47.9	-49.1	15.5	0.00e+00	0	22	0	1339031552	61	4283
2026-01-13 06:25:45.24	354.07	23.29	-47.9	-49.1	15.5	0.00e+00	0	22	0	1342177280	61	4254
2026-01-13 06:25:46.25	353.82	23.23	-48.0	-49.2	15.5	0.00e+00	0	22	0	1345323008	61	4326
2026-01-13 06:25:47.26	353.56	23.17	-48.0	-49.3	15.5	0.00e+00	0	22	0	1348468736	61	4348
2026-01-13 06:25:48.26	353.31	23.11	-48.1	-49.4	15.4	0.00e+00	0	22	0	1351614464	61	4406
2026-01-13 06:25:49.27	353.06	23.05	-48.0	-49.2	15.4	0.00e+00	0	22	0	1354760192	61	4315
2026-01-13 06:25:50.28	352.81	22.99	-47.8	-49.1	15.5	0.00e+00	0	22	0	1357905920	61	4249
2026-01-13 06:25:51.28	352.56	22.93	-47.9	-49.2	15.4	0.00e+00	0	22	0	1361051648	61	4307
2026-01-13 06:25:52.29	352.31	22.86	-48.0	-49.2	15.4	0.00e+00	0	22	0	1364197376	61	4325
2026-01-13 06:25:53.30	352.06	22.80	-47.9	-49.1	15.5	0.00e+00	0	22	0	1367343104	61	4263
2026-01-13 06:25:54.30	351.82	22.74	-47.8	-49.0	15.5	0.00e+00	0	22	0	1370488832	61	4218
2026-01-13 06:25:55.31	351.57	22.67	-47.9	-49.1	15.5	0.00e+00	0	22	0	1373634560	61	4255
2026-01-13 06:25:56.32	351.33	22.61	-48.0	-49.2	15.4	0.00e+00	0	22	0	1376780288	61	4340
2026-01-13 06:25:57.33	351.08	22.54	-48.1	-49.3	15.4	0.00e+00	0	22	0	1379926016	61	4369
2026-01-13 06:25:58.33	350.84	22.48	-48.2	-49.4	15.3	0.00e+00	0	22	0	1383071744	61	4441
2026-01-13 06:25:59.34	350.60	22.41	-48.2	-49.5	15.3	0.00e+00	0	22	0	1386217472	61	4476
2026-01-13 06:26:00.35	350.36	22.35	-48.4	-49.6	15.3	0.00e+00	0	22	0	1389363200	61	4540
2026-01-13 06:26:01.35	350.12	22.28	-48.4	-49.6	15.3	0.00e+00	0	22	0	1392508928	61	4533
2026-01-13 06:26:02.36	349.88	22.21	-48.2	-49.4	15.4	0.00e+00	0	22	0	1395654656	61	4435
2026-01-13 06:26:03.37	349.64	22.15	-48.1	-49.4	15.4	0.00e+00	0	22	0	1398800384	61	4412
2026-01-13 06:26:04.38	349.41	22.08	-47.9	-49.2	15.4	0.00e+00	0	22	0	1401946112	61	4304
2026-01-13 06:26:05.38	349.17	22.01	-47.6	-48.8	15.6	0.00e+00	0	22	0	1405091840	61	4120
2026-01-13 06:26:06.39	348.94	21.94	-47.5	-48.7	15.7	0.00e+00	0	22	0	1408237568	61	4062
2026-01-13 06:26:07.40	348.70	21.88	-47.5	-48.7	15.7	0.00e+00	0	22	0	1411383296	61	4078
2026-01-13 06:26:08.41	348.47	21.81	-47.5	-48.6	15.7	0.00e+00	0	22	0	1414529024	61	4048
2026-01-13 06:26:09.42	348.24	21.74	-47.6	-48.8	15.6	0.00e+00	0	22	0	1417674752	61	4111
2026-01-13 06:26:10.43	348.01	21.67	-47.7	-48.9	15.6	0.00e+00	0	22	0	1420820480	61	4175
2026-01-13 06:26:11.44	347.78	21.60	-47.8	-49.0	15.5	0.00e+00	0	22	0	1423966208	61	4226
2026-01-13 06:26:12.44	347.55	21.53	-47.8	-49.0	15.5	0.00e+00	0	22	0	1427111936	61	4205
2026-01-13 06:26:13.45	347.32	21.46	-47.7	-48.9	15.6	0.00e+00	0	22	0	1430257664	61	4150
2026-01-13 06:26:14.45	347.10	21.39	-47.6	-48.8	15.6	0.00e+00	0	22	0	1433403392	61	4115
2026-01-13 06:26:15.47	346.87	21.32	-47.6	-48.8	15.6	0.00e+00	0	22	0	1436549120	61	4127
2026-01-13 06:26:16.48	346.65	21.25	-47.6	-48.8	15.6	0.00e+00	0	22	0	1439694848	61	4123
2026-01-13 06:26:17.48	346.43	21.18	-47.6	-48.8	15.6	0.00e+00	0	22	0	1442840576	61	4117
2026-01-13 06:26:18.49	346.20	21.10	-47.6	-48.8	15.6	0.00e+00	0	22	0	1445986304	61	4132
2026-01-13 06:26:19.50	345.98	21.03	-47.7	-48.8	15.6	0.00e+00	0	22	0	1449132032	61	4143
2026-01-13 06:26:20.50	345.76	20.96	-47.6	-48.8	15.6	0.00e+00	0	22	0	1452277760	61	4139
2026-01-13 06:26:21.51	345.54	20.89	-47.6	-48.8	15.6	0.00e+00	0	22	0	1455423488	61	4142
2026-01-13 06:26:22.52	345.33	20.82	-47.6	-48.8	15.6	0.00e+00	0	22	0	1458569216	61	4119
2026-01-13 06:26:23.53	345.11	20.74	-47.6	-48.8	15.6	0.00e+00	0	22	0	1461714944	61	4118
2026-01-13 06:26:24.54	344.89	20.67	-47.5	-48.7	15.7	0.00e+00	0	22	0	1464860672	61	4083
2026-01-13 06:26:25.54	344.68	20.60	-47.4	-48.6	15.7	0.00e+00	0	22	0	1468006400	61	4013
2026-01-13 06:26:26.55	344.47	20.52	-47.4	-48.6	15.7	0.00e+00	0	22	0	1471152128	61	4005
2026-01-13 06:26:27.56	344.25	20.45	-47.5	-48.7	15.7	0.00e+00	0	22	0	1474297856	61	4060
2026-01-13 06:26:28.56	344.04	20.38	-47.7	-48.9	15.6	0.00e+00	0	22	0	1477443584	61	4159
2026-01-13 06:26:29.56	343.83	20.30	-47.9	-49.1	15.5	0.00e+00	0	22	0	1480589312	61	4254
2026-01-13 06:26:30.57	343.62	20.23	-48.0	-49.2	15.4	0.00e+00	0	22	0	1483735040	61	4339
2026-01-13 06:26:31.58	343.41	20.15	-48.1	-49.4	15.4	0.00e+00	0	22	0	1486880768	61	4396
2026-01-13 06:26:32.59	343.21	20.08	-48.1	-49.4	15.3	0.00e+00	0	22	0	1490026496	61	4411
2026-01-13 06:26:33.59	343.00	20.01	-48.2	-49.5	15.3	0.00e+00	0	22	0	1493172224	61	4450
2026-01-13 06:26:34.60	342.80	19.93	-48.2	-49.5	15.3	0.00e+00	0	22	0	1496317952	61	4445
2026-01-13 06:26:35.61	342.59	19.86	-48.1	-49.3	15.4	0.00e+00	0	22	0	1499463680	61	4371
2026-01-13 06:26:36.61	342.39	19.78	-48.0	-49.3	15.4	0.00e+00	0	22	0	1502609408	61	4342
2026-01-13 06:26:37.61	342.19	19.71	-48.0	-49.2	15.4	0.00e+00	0	22	0	1505755136	61	4316
2026-01-13 06:26:38.61	341.99	19.63	-48.0	-49.2	15.5	0.00e+00	0	22	0	1508900864	61	4314
2026-01-13 06:26:39.62	341.79	19.56	-48.0	-49.2	15.4	0.00e+00	0	22	0	1512046592	61	4339
2026-01-13 06:26:40.62	341.59	19.48	-48.0	-49.2	15.4	0.00e+00	0	22	0	1515192320	61	4311
2026-01-13 06:26:41.63	341.39	19.40	-48.0	-49.2	15.4	0.00e+00	0	22	0	1518338048	61	4328
2026-01-13 06:26:42.63	341.19	19.33	-48.0	-49.2	15.4	0.00e+00	0	22	0	1521483776	61	4324
2026-01-13 06:26:43.64	341.00	19.25	-48.0	-49.3	15.4	0.00e+00	0	22	0	1524629504	61	4343
2026-01-13 06:26:44.65	340.80	19.18	-48.0	-49.3	15.4	0.00e+00	0	22	0	1527775232	61	4365
2026-01-13 06:26:45.66	340.61	19.10	-48.0	-49.3	15.4	0.00e+00	0	22	0	1530920960	61	4347
2026-01-13 06:26:46.66	340.41	19.02	-47.9	-49.1	15.5	0.00e+00	0	22	0	1534066688	61	4268
2026-01-13 06:26:47.67	340.22	18.95	-47.9	-49.1	15.4	0.00e+00	0	22	0	1537212416	61	4288
2026-01-13 06:26:48.67	340.03	18.87	-48.1	-49.3	15.4	0.00e+00	0	22	0	1540358144	61	4365
2026-01-13 06:26:49.68	339.84	18.79	-48.1	-49.4	15.4	0.00e+00	0	22	0	1543503872	61	4403
2026-01-13 06:26:50.69	339.65	18.72	-48.1	-49.4	15.4	0.00e+00	0	22	0	1546649600	61	4403
2026-01-13 06:26:51.70	339.46	18.64	-48.2	-49.5	15.3	0.00e+00	0	22	0	1549795328	61	4478
2026-01-13 06:26:52.71	339.27	18.56	-48.4	-49.7	15.2	0.00e+00	0	22	0	1552941056	61	4571
2026-01-13 06:26:53.71	339.09	18.49	-48.5	-49.8	15.3	0.00e+00	0	22	0	1556086784	62	4346
2026-01-13 06:26:54.72	338.90	18.41	-48.6	-49.9	15.2	0.00e+00	0	22	0	1559232512	62	4414
2026-01-13 06:26:55.73	338.72	18.33	-48.6	-49.9	15.2	0.00e+00	0	22	0	1562378240	62	4439
2026-01-13 06:26:56.73	338.53	18.25	-48.7	-50.0	15.2	0.00e+00	0	22	0	1565523968	62	4475
2026-01-13 06:26:57.73	338.35	18.18	-48.7	-50.0	15.2	0.00e+00	0	22	0	1568669696	62	4478
2026-01-13 06:26:58.74	338.17	18.10	-48.6	-49.9	15.2	0.00e+00	0	22	0	1571815424	62	4424
2026-01-13 06:26:59.75	337.99	18.02	-48.6	-49.9	15.2	0.00e+00	0	22	0	1574961152	62	4436
2026-01-13 06:27:00.76	337.81	17.94	-48.6	-49.9	15.3	0.00e+00	0	22	0	1578106880	62	4404
2026-01-13 06:27:01.76	337.63	17.87	-48.6	-49.9	15.2	0.00e+00	0	22	0	1581252608	62	4437
2026-01-13 06:27:02.77	337.45	17.79	-48.7	-50.0	15.2	0.00e+00	0	22	0	1584398336	62	4475
2026-01-13 06:27:03.78	337.27	17.71	-48.7	-50.0	15.2	0.00e+00	0	22	0	1587544064	62	4470
2026-01-13 06:27:04.78	337.10	17.63	-48.7	-50.1	15.2	0.00e+00	0	22	0	1590689792	62	4499
2026-01-13 06:27:05.78	336.92	17.56	-48.7	-50.0	15.2	0.00e+00	0	22	0	1593835520	62	4483
2026-01-13 06:27:06.78	336.75	17.48	-48.6	-49.9	15.2	0.00e+00	0	22	0	1596981248	62	4430
2026-01-13 06:27:07.78	336.58	17.40	-48.6	-49.9	15.2	0.00e+00	0	22	0	1600126976	62	4412
2026-01-13 06:27:08.78	336.41	17.33	-48.7	-50.0	15.2	0.00e+00	0	22	0	1603272704	62	4460
2026-01-13 06:27:09.78	336.24	17.25	-48.7	-50.1	15.2	0.00e+00	0	22	0	1606418432	62	4494
2026-01-13 06:27:10.79	336.07	17.17	-48.5	-49.8	15.3	0.00e+00	0	22	0	1609564160	62	4364
2026-01-13 06:27:11.80	335.90	17.09	-48.5	-49.9	15.2	0.00e+00	0	22	0	1612709888	62	4396
2026-01-13 06:27:12.80	335.73	17.01	-48.4	-49.7	15.3	0.00e+00	0	22	0	1615855616	62	4310
2026-01-13 06:27:13.80	335.56	16.94	-48.5	-49.8	15.3	0.00e+00	0	22	0	1619001344	62	4350
2026-01-13 06:27:14.81	335.39	16.86	-48.4	-49.7	15.3	0.00e+00	0	22	0	1622147072	62	4301
2026-01-13 06:27:15.82	335.23	16.78	-48.4	-49.6	15.4	0.00e+00	0	22	0	1625292800	62	4287
2026-01-13 06:27:16.83	335.06	16.70	-48.3	-49.6	15.4	0.00e+00	0	22	0	1628438528	62	4257
2026-01-13 06:27:17.83	334.90	16.63	-48.2	-49.5	15.4	0.00e+00	0	22	0	1631584256	62	4214
2026-01-13 06:27:18.84	334.73	16.55	-48.2	-49.5	15.4	0.00e+00	0	22	0	1634729984	62	4220
2026-01-13 06:27:19.85	334.57	16.47	-48.3	-49.5	15.4	0.00e+00	0	22	0	1637875712	62	4226
2026-01-13 06:27:20.86	334.41	16.39	-48.3	-49.5	15.4	0.00e+00	0	22	0	1641021440	62	4235
2026-01-13 06:27:21.87	334.25	16.31	-48.2	-49.5	15.4	0.00e+00	0	22	0	1644167168	62	4221
2026-01-13 06:27:22.88	334.08	16.23	-48.3	-49.6	15.4	0.00e+00	0	22	0	1647312896	62	4245
2026-01-13 06:27:23.89	333.92	16.16	-48.3	-49.6	15.4	0.00e+00	0	22	0	1650458624	62	4273
2026-01-13 06:27:24.90	333.77	16.08	-48.5	-49.8	15.3	0.00e+00	0	22	0	1653604352	62	4363
2026-01-13 06:27:25.90	333.61	16.00	-48.5	-49.8	15.2	0.00e+00	0	22	0	1656750080	62	4385
2026-01-13 06:27:26.91	333.45	15.92	-48.6	-49.9	15.2	0.00e+00	0	22	0	1659895808	62	4419
2026-01-13 06:27:27.92	333.29	15.85	-48.7	-50.0	15.2	0.00e+00	0	22	0	1663041536	62	4477
2026-01-13 06:27:28.93	333.14	15.77	-48.7	-50.0	15.2	0.00e+00	0	22	0	1666187264	62	4470
2026-01-13 06:27:29.94	332.98	15.69	-48.7	-50.1	15.1	0.00e+00	0	22	0	1669332992	62	4495
2026-01-13 06:27:30.94	332.83	15.61	-48.7	-50.0	15.2	0.00e+00	0	22	0	1672478720	62	4485
2026-01-13 06:27:31.95	332.68	15.53	-48.6	-49.9	15.2	0.00e+00	0	22	0	1675624448	62	4412
2026-01-13 06:27:32.96	332.53	15.46	-48.4	-49.7	15.3	0.00e+00	0	22	0	1678770176	62	4310
2026-01-13 06:27:33.97	332.37	15.38	-48.4	-49.6	15.3	0.00e+00	0	22	0	1681915904	62	4282
2026-01-13 06:27:34.97	332.22	15.30	-48.4	-49.6	15.3	0.00e+00	0	22	0	1685061632	62	4290
2026-01-13 06:27:35.98	332.07	15.22	-48.4	-49.6	15.3	0.00e+00	0	22	0	1688207360	62	4280
2026-01-13 06:27:36.98	331.93	15.15	-48.5	-49.7	15.3	0.00e+00	0	22	0	1691353088	62	4330
2026-01-13 06:27:38.00	331.78	15.07	-48.5	-49.8	15.2	0.00e+00	0	22	0	1694498816	62	4383
2026-01-13 06:27:39.00	331.63	14.99	-48.7	-50.1	15.1	0.00e+00	0	22	0	1697644544	62	4510
2026-01-13 06:27:40.01	331.48	14.91	-48.8	-50.1	15.1	0.00e+00	0	22	0	1700790272	62	4540
2026-01-13 06:27:41.02	331.34	14.84	-49.0	-50.3	15.1	0.00e+00	0	22	0	1703936000	63	4369
2026-01-13 06:27:42.03	331.19	14.76	-49.0	-50.4	15.1	0.00e+00	0	22	0	1707081728	63	4401
2026-01-13 06:27:43.04	331.05	14.68	-49.1	-50.4	15.0	0.00e+00	0	22	0	1710227456	63	4440
2026-01-13 06:27:44.05	330.90	14.61	-49.0	-50.4	15.0	0.00e+00	0	22	0	1713373184	63	4415
2026-01-13 06:27:45.06	330.76	14.53	-49.0	-50.4	15.0	0.00e+00	0	22	0	1716518912	63	4435
2026-01-13 06:27:46.07	330.62	14.45	-49.0	-50.4	15.1	0.00e+00	0	22	0	1719664640	63	4396
2026-01-13 06:27:47.07	330.48	14.38	-49.1	-50.5	15.0	0.00e+00	0	22	0	1722810368	63	4449
2026-01-13 06:27:48.08	330.34	14.30	-48.9	-50.3	15.1	0.00e+00	0	22	0	1725956096	63	4361
2026-01-13 06:27:49.09	330.20	14.22	-48.9	-50.3	15.1	0.00e+00	0	22	0	1729101824	63	4363
2026-01-13 06:27:50.09	330.06	14.15	-48.8	-50.2	15.2	0.00e+00	0	22	0	1732247552	63	4314
2026-01-13 06:27:51.10	329.92	14.07	-48.8	-50.1	15.2	0.00e+00	0	22	0	1735393280	63	4290
2026-01-13 06:27:52.11	329.78	13.99	-48.7	-50.0	15.2	0.00e+00	0	22	0	1738539008	63	4236
2026-01-13 06:27:53.12	329.64	13.91	-48.9	-50.2	15.2	0.00e+00	0	22	0	1741684736	63	4311
2026-01-13 06:27:54.13	329.51	13.84	-48.9	-50.3	15.1	0.00e+00	0	22	0	1744830464	63	4365
2026-01-13 06:27:55.14	329.37	13.76	-49.1	-50.5	15.0	0.00e+00	0	22	0	1747976192	63	4465
2026-01-13 06:27:56.14	329.24	13.69	-49.3	-50.7	14.9	0.00e+00	0	22	0	1751121920	63	4557
2026-01-13 06:27:57.15	329.10	13.61	-49.4	-50.9	14.9	0.00e+00	0	22	0	1754267648	64	4397
2026-01-13 06:27:58.16	328.97	13.53	-49.5	-51.0	14.9	0.00e+00	0	22	0	1757413376	64	4469
2026-01-13 06:27:59.17	328.84	13.46	-49.6	-51.1	14.8	0.00e+00	0	22	0	1760559104	64	4523
2026-01-13 06:28:00.18	328.71	13.38	-49.6	-51.1	14.8	0.00e+00	0	22	0	1763704832	64	4533
2026-01-13 06:28:01.19	328.57	13.31	-49.6	-51.1	14.8	0.00e+00	0	22	0	1766850560	64	4520
2026-01-13 06:28:02.20	328.44	13.23	-49.5	-51.0	14.9	0.00e+00	0	22	0	1769996288	64	4456
2026-01-13 06:28:03.21	328.31	13.15	-49.5	-50.9	14.9	0.00e+00	0	22	0	1773142016	64	4432
2026-01-13 06:28:04.21	328.18	13.08	-49.4	-50.8	15.0	0.00e+00	0	22	0	1776287744	64	4374
2026-01-13 06:28:05.22	328.06	13.00	-49.4	-50.8	15.0	0.00e+00	0	22	0	1779433472	64	4371
2026-01-13 06:28:06.23	327.93	12.93	-49.1	-50.5	15.1	0.00e+00	0	22	0	1782579200	64	4233
2026-01-13 06:28:07.24	327.80	12.85	-49.1	-50.4	15.2	0.00e+00	0	22	0	1785724928	64	4183
2026-01-13 06:28:08.25	327.67	12.78	-49.0	-50.4	15.2	0.00e+00	0	22	0	1788870656	64	4172
2026-01-13 06:28:09.26	327.55	12.70	-49.0	-50.4	15.2	0.00e+00	0	22	0	1792016384	64	4152
2026-01-13 06:28:10.27	327.42	12.63	-49.0	-50.4	15.2	0.00e+00	0	22	0	1795162112	64	4160
2026-01-13 06:28:11.28	327.30	12.55	-49.1	-50.5	15.1	0.00e+00	0	22	0	1798307840	64	4231
2026-01-13 06:28:12.29	327.17	12.48	-49.1	-50.5	15.1	0.00e+00	0	22	0	1801453568	64	4237
2026-01-13 06:28:13.29	327.05	12.40	-49.2	-50.7	15.1	0.00e+00	0	22	0	1804599296	64	4298
2026-01-13 06:28:14.30	326.93	12.33	-49.3	-50.8	15.0	0.00e+00	0	22	0	1807745024	64	4357
2026-01-13 06:28:15.30	326.81	12.25	-49.4	-50.8	15.0	0.00e+00	0	22	0	1810890752	64	4366
2026-01-13 06:28:16.31	326.68	12.18	-49.4	-50.8	14.9	0.00e+00	0	22	0	1814036480	64	4381
2026-01-13 06:28:17.32	326.56	12.10	-49.3	-50.8	15.0	0.00e+00	0	22	0	1817182208	64	4361
2026-01-13 06:28:18.33	326.44	12.03	-49.3	-50.8	15.0	0.00e+00	0	22	0	1820327936	64	4354
2026-01-13 06:28:19.34	326.32	11.96	-49.4	-50.8	14.9	0.00e+00	0	22	0	1823473664	64	4387
2026-01-13 06:28:20.34	326.21	11.88	-49.2	-50.6	15.1	0.00e+00	0	22	0	1826619392	64	4258
2026-01-13 06:28:21.35	326.09	11.81	-49.0	-50.3	15.2	0.00e+00	0	22	0	1829765120	64	4137
2026-01-13 06:28:22.36	325.97	11.73	-49.0	-50.3	15.2	0.00e+00	0	22	0	1832910848	64	4138
2026-01-13 06:28:23.37	325.85	11.66	-48.9	-50.3	15.2	0.00e+00	0	22	0	1836056576	64	4109
2026-01-13 06:28:24.37	325.74	11.59	-48.7	-50.0	15.4	0.00e+00	0	22	0	1839202304	64	3989
2026-01-13 06:28:25.37	325.62	11.51	-48.6	-49.9	15.3	0.00e+00	0	22	0	1842348032	63	4167
2026-01-13 06:28:26.38	325.51	11.44	-48.5	-49.8	15.4	0.00e+00	0	22	0	1845493760	63	4111
2026-01-13 06:28:27.39	325.39	11.37	-48.5	-49.7	15.4	0.00e+00	0	22	0	1848639488	63	4098
2026-01-13 06:28:28.40	325.28	11.29	-48.6	-49.9	15.3	0.00e+00	0	22	0	1851785216	63	4150
2026-01-13 06:28:29.41	325.16	11.22	-48.6	-50.0	15.2	0.00e+00	0	22	0	1854930944	63	4202
2026-01-13 06:28:30.42	325.05	11.15	-48.8	-50.2	15.2	0.00e+00	0	22	0	1858076672	63	4308
2026-01-13 06:28:31.42	324.94	11.07	-49.0	-50.4	15.1	0.00e+00	0	22	0	1861222400	63	4396
2026-01-13 06:28:32.44	324.83	11.00	-49.2	-50.6	14.9	0.00e+00	0	22	0	1864368128	63	4522
2026-01-13 06:28:33.44	324.71	10.93	-49.3	-50.7	14.9	0.00e+00	0	22	0	1867513856	63	4596
2026-01-13 06:28:34.45	324.60	10.86	-49.4	-50.9	14.8	0.00e+00	0	22	0	1870659584	63	4679
2026-01-13 06:28:35.46	324.49	10.78	-49.6	-51.1	14.8	0.00e+00	0	22	0	1873805312	64	4507
2026-01-13 06:28:36.47	324.38	10.71	-49.7	-51.2	14.7	0.00e+00	0	22	0	1876951040	64	4558
2026-01-13 06:28:37.47	324.28	10.64	-49.7	-51.2	14.7	0.00e+00	0	22	0	1880096768	64	4590
2026-01-13 06:28:38.48	324.17	10.57	-49.7	-51.2	14.7	0.00e+00	0	22	0	1883242496	64	4591
2026-01-13 06:28:39.49	324.06	10.49	-49.6	-51.2	14.7	0.00e+00	0	22	0	1886388224	64	4550
2026-01-13 06:28:40.50	323.95	10.42	-49.7	-51.2	14.6	0.00e+00	0	22	0	1889533952	64	4590
2026-01-13 06:28:41.51	323.84	10.35	-49.5	-51.0	14.8	0.00e+00	0	22	0	1892679680	64	4444
2026-01-13 06:28:42.52	323.74	10.28	-49.5	-51.0	14.8	0.00e+00	0	22	0	1895825408	64	4448
2026-01-13 06:28:43.52	323.63	10.21	-49.3	-50.8	14.9	0.00e+00	0	22	0	1898971136	64	4367
2026-01-13 06:28:44.53	323.53	10.14	-49.2	-50.6	15.0	0.00e+00	0	22	0	1902116864	64	4271
2026-01-13 06:28:45.54	323.42	10.06	-49.2	-50.7	15.0	0.00e+00	0	22	0	1905262592	64	4300
2026-01-13 06:28:46.55	323.32	9.99	-49.2	-50.7	15.0	0.00e+00	0	22	0	1908408320	64	4292
2026-01-13 06:28:47.56	323.22	9.92	-49.1	-50.5	15.1	0.00e+00	0	22	0	1911554048	64	4204
2026-01-13 06:28:48.57	323.11	9.85	-49.1	-50.5	15.1	0.00e+00	0	22	0	1914699776	64	4216
2026-01-13 06:28:49.58	323.01	9.78	-49.1	-50.5	15.1	0.00e+00	0	22	0	1917845504	64	4198
2026-01-13 06:28:50.58	322.91	9.71	-49.1	-50.5	15.1	0.00e+00	0	22	0	1920991232	64	4227
2026-01-13 06:28:51.59	322.81	9.64	-49.2	-50.6	15.0	0.00e+00	0	22	0	1924136960	64	4251
2026-01-13 06:28:52.60	322.70	9.57	-49.3	-50.7	15.0	0.00e+00	0	22	0	1927282688	64	4306
2026-01-13 06:28:53.61	322.60	9.50	-49.3	-50.8	14.9	0.00e+00	0	22	0	1930428416	64	4359
2026-01-13 06:28:54.62	322.50	9.43	-49.4	-50.9	14.9	0.00e+00	0	22	0	1933574144	64	4407
2026-01-13 06:28:55.63	322.40	9.36	-49.5	-51.0	14.8	0.00e+00	0	22	0	1936719872	64	4488
2026-01-13 06:28:56.64	322.31	9.28	-49.6	-51.2	14.7	0.00e+00	0	22	0	1939865600	64	4550
2026-01-13 06:28:57.65	322.21	9.21	-49.7	-51.3	14.6	0.00e+00	0	22	0	1943011328	64	4616
2026-01-13 06:28:58.66	322.11	9.14	-49.9	-51.5	14.5	0.00e+00	0	22	0	1946157056	64	4709
2026-01-13 06:28:59.67	322.01	9.07	-50.0	-51.6	14.6	0.00e+00	0	22	0	1950351360	65	4494
2026-01-13 06:29:00.67	321.91	9.01	-50.1	-51.7	14.6	0.00e+00	0	22	0	1953497088	65	4566
2026-01-13 06:29:01.68	321.82	8.94	-50.0	-51.6	14.5	0.00e+00	0	22	0	1955594240	65	4542
2026-01-13 06:29:02.70	321.72	8.87	-50.0	-51.6	14.6	0.00e+00	0	22	0	1958739968	65	4529
2026-01-13 06:29:03.70	321.63	8.80	-50.0	-51.6	14.6	0.00e+00	0	22	0	1961885696	65	4531
2026-01-13 06:29:04.71	321.53	8.73	-50.0	-51.6	14.5	0.00e+00	0	22	0	1966080000	65	4535
2026-01-13 06:29:05.71	321.44	8.66	-49.9	-51.5	14.6	0.00e+00	0	22	0	1969225728	65	4474
2026-01-13 06:29:06.72	321.34	8.59	-50.0	-51.6	14.5	0.00e+00	0	22	0	1972371456	65	4530
2026-01-13 06:29:07.73	321.25	8.52	-49.8	-51.4	14.7	0.00e+00	0	22	0	1975517184	65	4419
2026-01-13 06:29:08.74	321.15	8.45	-49.7	-51.3	14.7	0.00e+00	0	22	0	1978662912	65	4359
2026-01-13 06:29:09.75	321.06	8.38	-49.8	-51.3	14.7	0.00e+00	0	22	0	1980760064	65	4364
2026-01-13 06:29:10.76	320.97	8.31	-49.8	-51.4	14.7	0.00e+00	0	22	0	1983905792	65	4409
2026-01-13 06:29:11.77	320.88	8.25	-49.8	-51.3	14.7	0.00e+00	0	22	0	1988100096	65	4365
2026-01-13 06:29:12.77	320.79	8.18	-49.7	-51.3	14.8	0.00e+00	0	22	0	1991245824	65	4352
2026-01-13 06:29:13.78	320.69	8.11	-49.8	-51.3	14.7	0.00e+00	0	22	0	1994391552	65	4364
2026-01-13 06:29:14.79	320.60	8.04	-49.8	-51.4	14.7	0.00e+00	0	22	0	1997537280	65	4416
2026-01-13 06:29:15.80	320.51	7.97	-49.8	-51.3	14.7	0.00e+00	0	22	0	2000683008	65	4373
2026-01-13 06:29:16.81	320.42	7.90	-49.9	-51.5	14.6	0.00e+00	0	22	0	2002780160	65	4446
2026-01-13 06:29:17.82	320.33	7.84	-50.0	-51.6	14.6	0.00e+00	0	22	0	2006974464	65	4509
2026-01-13 06:29:18.83	320.24	7.77	-50.1	-51.7	14.5	0.00e+00	0	22	0	2010120192	65	4560
2026-01-13 06:29:19.83	320.16	7.70	-50.1	-51.8	14.5	0.00e+00	0	22	0	2013265920	65	4600
2026-01-13 06:29:20.84	320.07	7.63	-50.3	-51.9	14.4	0.00e+00	0	22	0	2016411648	65	4697
2026-01-13 06:29:21.85	319.98	7.57	-50.3	-52.0	14.3	0.00e+00	0	22	0	2019557376	65	4712
2026-01-13 06:29:22.86	319.89	7.50	-50.4	-52.1	14.2	0.00e+00	0	22	0	2022703104	65	4801
2026-01-13 06:29:23.86	319.81	7.43	-50.5	-52.2	14.3	0.00e+00	0	22	0	2025848832	66	4580
2026-01-13 06:29:24.87	319.72	7.37	-50.5	-52.2	14.3	0.00e+00	0	22	0	2028994560	66	4561
2026-01-13 06:29:25.88	319.63	7.30	-50.6	-52.3	14.3	0.00e+00	0	22	0	2032140288	66	4616
2026-01-13 06:29:26.89	319.55	7.23	-50.7	-52.5	14.1	0.00e+00	0	22	0	2035286016	66	4730
2026-01-13 06:29:27.89	319.46	7.17	-50.7	-52.5	14.1	0.00e+00	0	22	0	2038431744	66	4726
