passes_logs/2026/01/13/R3.2S_Murmansk/R3.2S_Murmansk__20260113_213936_NOAA_21_JPSS-2_rec.log

#Pass ID: 20260113_213936_NOAA 21 (JPSS-2)
#Satellite: NOAA 21 (JPSS-2)
#Configuration: NOAA-21
#almurnet v.1.7.20251203
#Start time: 2026-01-13 21:39:35

#Version: 2.2.20231116
#Station: R3.2S_Murmansk
#Location: 33.079688 lon 68.888172 lat
#TLE: 1 54234U 22150A   26013.60300550  .00000047  00000+0  43143-4 0  9998
#TLE: 2 54234  98.7496 314.5197 0000681 301.0337  59.0772 14.19534502164617

#Time	Az	El	Level	Level2	SNR	BER	BlckErr	Temp	State	Recorded	gain1	gain2
2026-01-13 21:39:35.79	18.25	1.98	-58.0	-71.8	3.8	1.49e+00	0	25	0	0	82	17309
2026-01-13 21:39:36.79	18.34	2.03	-58.0	-71.7	3.8	1.49e+00	0	25	104	0	81	18221
2026-01-13 21:39:37.79	18.43	2.08	-58.0	-71.7	3.8	1.49e+00	0	25	104	0	81	18115
2026-01-13 21:39:38.79	18.52	2.13	-58.0	-71.7	3.8	1.49e+00	0	25	104	0	81	18103
2026-01-13 21:39:39.79	18.61	2.18	-58.0	-71.6	3.8	1.49e+00	0	25	104	0	81	18035
2026-01-13 21:39:40.78	18.70	2.23	-58.0	-71.6	3.8	1.49e+00	0	25	104	0	81	17976
2026-01-13 21:39:41.78	18.79	2.28	-58.0	-71.5	3.8	1.49e+00	0	25	104	0	81	17702
2026-01-13 21:39:42.78	18.88	2.32	-58.0	-71.5	3.8	1.49e+00	0	25	104	0	81	17848
2026-01-13 21:39:43.77	18.96	2.37	-58.0	-71.6	3.8	1.49e+00	0	25	104	0	81	17962
2026-01-13 21:39:44.77	19.05	2.42	-58.0	-71.6	3.8	1.49e+00	0	25	104	0	81	18018
2026-01-13 21:39:45.77	19.14	2.47	-58.0	-71.7	3.8	1.49e+00	0	25	104	0	81	18204
2026-01-13 21:39:46.78	19.24	2.52	-58.1	-71.7	3.8	1.49e+00	0	25	104	0	81	18300
2026-01-13 21:39:47.78	19.33	2.57	-58.1	-71.8	3.8	1.49e+00	0	25	104	0	81	18373
2026-01-13 21:39:48.78	19.42	2.62	-58.1	-71.8	3.8	1.49e+00	0	25	104	0	81	18397
2026-01-13 21:39:49.79	19.51	2.67	-58.1	-71.8	3.8	1.49e+00	0	25	104	0	81	18444
2026-01-13 21:39:50.79	19.60	2.72	-58.0	-71.8	3.8	1.49e+00	0	25	104	0	81	18421
2026-01-13 21:39:51.79	19.70	2.77	-58.1	-71.8	3.8	1.49e+00	0	25	104	0	81	18358
2026-01-13 21:39:52.79	19.79	2.81	-58.1	-71.8	3.8	1.49e+00	0	25	104	0	81	18328
2026-01-13 21:39:53.79	19.88	2.86	-58.0	-71.7	3.8	1.49e+00	0	25	104	0	81	18283
2026-01-13 21:39:54.78	19.97	2.91	-58.0	-71.7	3.8	1.49e+00	0	26	104	0	81	18172
2026-01-13 21:39:55.78	20.07	2.96	-58.0	-71.6	3.8	1.49e+00	0	25	104	0	81	18085
2026-01-13 21:39:56.78	20.16	3.01	-58.0	-71.6	3.8	1.49e+00	0	26	104	0	81	18085
2026-01-13 21:39:57.78	20.25	3.06	-58.0	-71.6	3.8	1.49e+00	0	26	104	0	81	17950
2026-01-13 21:39:58.79	20.35	3.11	-58.0	-71.6	3.8	1.49e+00	0	26	104	0	81	17995
2026-01-13 21:39:59.79	20.44	3.16	-58.1	-71.7	3.8	1.49e+00	0	26	104	0	81	18198
2026-01-13 21:40:00.79	20.54	3.21	-58.1	-71.8	3.8	1.49e+00	0	25	104	0	81	18410
2026-01-13 21:40:01.79	20.63	3.26	-58.0	-71.8	3.8	1.49e+00	0	26	104	0	81	18379
2026-01-13 21:40:02.79	20.73	3.31	-58.1	-71.8	3.8	1.49e+00	0	26	104	0	81	18403
2026-01-13 21:40:03.79	20.82	3.36	-58.1	-71.8	3.8	1.49e+00	0	26	104	0	81	18395
2026-01-13 21:40:04.79	20.92	3.41	-58.1	-71.7	3.8	1.49e+00	0	26	104	0	81	18286
2026-01-13 21:40:05.79	21.02	3.46	-58.0	-71.8	3.8	1.49e+00	0	26	104	0	81	18354
2026-01-13 21:40:06.78	21.11	3.50	-58.1	-71.8	3.8	1.49e+00	0	26	104	0	81	18420
2026-01-13 21:40:07.77	21.21	3.55	-58.1	-71.9	3.8	1.49e+00	0	26	104	0	81	18547
2026-01-13 21:40:08.77	21.31	3.60	-58.1	-71.9	3.8	1.49e+00	0	26	104	0	81	18530
2026-01-13 21:40:09.77	21.40	3.65	-58.1	-71.8	3.8	1.49e+00	0	26	104	0	81	18421
2026-01-13 21:40:10.76	21.50	3.70	-58.1	-71.7	3.8	1.49e+00	0	26	104	0	81	18206
2026-01-13 21:40:11.76	21.60	3.75	-58.0	-71.5	3.8	1.49e+00	0	26	104	0	81	17870
2026-01-13 21:40:12.76	21.70	3.80	-58.0	-71.5	3.8	1.49e+00	0	26	104	0	81	17703
2026-01-13 21:40:13.76	21.80	3.85	-58.0	-71.4	3.8	1.49e+00	0	26	104	0	81	17589
2026-01-13 21:40:14.76	21.90	3.90	-58.0	-71.5	3.8	1.49e+00	0	26	104	0	81	17739
2026-01-13 21:40:15.76	21.99	3.95	-58.0	-71.6	3.8	1.49e+00	0	26	104	0	81	17957
2026-01-13 21:40:16.77	22.10	4.00	-58.0	-71.6	3.8	1.49e+00	0	26	104	0	81	17898
2026-01-13 21:40:17.77	22.20	4.05	-58.0	-71.4	3.8	1.49e+00	0	26	104	0	81	17508
2026-01-13 21:40:18.77	22.30	4.10	-58.0	-71.0	3.8	1.49e+00	0	26	104	0	81	16857
2026-01-13 21:40:19.77	22.40	4.15	-58.0	-70.6	3.8	1.49e+00	0	26	104	0	81	16060
2026-01-13 21:40:20.78	22.50	4.20	-57.9	-70.2	3.9	1.49e+00	0	26	104	0	81	15345
2026-01-13 21:40:21.77	22.60	4.25	-57.9	-70.1	3.8	1.49e+00	0	26	104	0	81	15160
2026-01-13 21:40:22.77	22.70	4.30	-58.0	-70.3	3.8	1.49e+00	0	26	104	0	81	15420
2026-01-13 21:40:23.77	22.80	4.35	-58.0	-70.6	3.9	1.49e+00	0	26	104	0	81	15985
2026-01-13 21:40:24.76	22.90	4.40	-58.0	-70.5	3.8	1.49e+00	0	26	104	0	81	15915
2026-01-13 21:40:25.76	23.01	4.45	-57.9	-69.3	3.9	1.49e+00	0	26	104	0	81	13781
2026-01-13 21:40:26.76	23.11	4.50	-57.6	-66.7	4.7	1.06e+00	0	26	104	0	81	10248
2026-01-13 21:40:27.76	23.21	4.55	-57.2	-64.0	6.3	3.61e-01	0	26	0	2097152	81	7504
2026-01-13 21:40:28.76	23.32	4.60	-56.7	-62.3	7.7	8.30e-02	0	26	0	5242880	80	6505
2026-01-13 21:40:29.75	23.42	4.65	-56.3	-61.2	8.7	2.45e-02	0	26	0	8388608	79	6112
2026-01-13 21:40:30.74	23.52	4.70	-55.8	-60.0	9.7	3.77e-03	0	26	0	11534336	78	5594
2026-01-13 21:40:31.74	23.63	4.75	-55.5	-59.3	10.2	1.30e-03	0	26	0	14680064	77	5473
2026-01-13 21:40:32.73	23.73	4.80	-55.3	-58.9	10.5	5.01e-04	0	26	0	17825792	77	5269
2026-01-13 21:40:33.73	23.84	4.85	-55.4	-59.1	10.4	7.48e-04	0	26	0	20971520	77	5389
2026-01-13 21:40:34.72	23.94	4.90	-55.7	-59.7	9.9	1.62e-03	0	26	0	24117248	77	5730
2026-01-13 21:40:35.72	24.05	4.95	-55.8	-60.1	9.5	3.13e-03	0	26	0	27262976	77	6014
2026-01-13 21:40:36.71	24.15	5.00	-56.2	-61.0	8.8	1.10e-02	0	26	0	30408704	77	6687
2026-01-13 21:40:37.71	24.26	5.05	-54.2	-57.0	12.0	4.45e-03	0	26	0	33554432	75	4732
2026-01-13 21:40:38.69	24.37	5.09	-54.9	-58.2	10.9	1.29e-05	0	26	0	36700160	75	5459
2026-01-13 21:40:39.68	24.47	5.14	-56.8	-62.6	7.5	1.43e-02	0	26	0	39845888	78	7590
2026-01-13 21:40:40.68	24.58	5.19	-57.3	-65.6	5.2	3.01e-01	0	26	0	42991616	79	10148
2026-01-13 21:40:41.68	24.69	5.24	-53.2	-55.3	12.8	5.72e-01	0	26	0	42991616	73	4390
2026-01-13 21:40:42.69	24.80	5.30	-52.4	-54.4	13.3	0.00e+00	0	26	0	46137344	71	4421
2026-01-13 21:40:43.68	24.91	5.35	-52.5	-54.5	13.3	0.00e+00	0	26	0	49283072	71	4492
2026-01-13 21:40:44.68	25.02	5.40	-52.5	-54.5	13.3	0.00e+00	0	26	0	52428800	71	4442
2026-01-13 21:40:45.68	25.13	5.45	-52.3	-54.3	13.5	0.00e+00	0	26	0	55574528	71	4353
2026-01-13 21:40:46.68	25.24	5.50	-52.3	-54.2	13.4	0.00e+00	0	26	0	58720256	71	4328
2026-01-13 21:40:47.68	25.35	5.55	-52.2	-54.1	13.5	0.00e+00	0	26	0	61865984	71	4268
2026-01-13 21:40:48.68	25.46	5.60	-52.3	-54.2	13.5	0.00e+00	0	26	0	65011712	71	4307
2026-01-13 21:40:49.68	25.57	5.65	-52.2	-54.1	13.6	0.00e+00	0	26	0	68157440	71	4258
2026-01-13 21:40:50.68	25.68	5.70	-52.0	-53.9	13.6	0.00e+00	0	26	0	71303168	70	4400
2026-01-13 21:40:51.68	25.79	5.75	-52.1	-54.0	13.5	0.00e+00	0	26	0	74448896	70	4478
2026-01-13 21:40:52.68	25.90	5.80	-51.9	-53.8	13.6	0.00e+00	0	26	0	77594624	70	4355
2026-01-13 21:40:53.69	26.02	5.85	-52.0	-53.9	13.6	0.00e+00	0	26	0	80740352	70	4392
2026-01-13 21:40:54.69	26.13	5.90	-52.1	-53.9	13.6	0.00e+00	0	26	0	83886080	70	4421
2026-01-13 21:40:55.69	26.24	5.95	-52.1	-54.0	13.6	0.00e+00	0	26	0	87031808	70	4443
2026-01-13 21:40:56.69	26.36	6.00	-51.9	-53.8	13.7	0.00e+00	0	26	0	90177536	70	4344
2026-01-13 21:40:57.69	26.47	6.05	-52.0	-53.8	13.6	0.00e+00	0	26	0	93323264	70	4381
2026-01-13 21:40:58.70	26.59	6.10	-52.0	-53.8	13.6	0.00e+00	0	26	0	96468992	70	4389
2026-01-13 21:40:59.70	26.70	6.15	-52.1	-53.9	13.6	0.00e+00	0	26	0	99614720	70	4418
2026-01-13 21:41:00.70	26.82	6.20	-52.1	-53.9	13.6	0.00e+00	0	26	0	102760448	70	4419
2026-01-13 21:41:01.71	26.93	6.25	-52.0	-53.8	13.6	0.00e+00	0	26	0	105906176	70	4376
2026-01-13 21:41:02.71	27.05	6.30	-52.0	-53.8	13.7	0.00e+00	0	27	0	109051904	70	4352
2026-01-13 21:41:03.70	27.16	6.35	-51.9	-53.7	13.7	0.00e+00	0	26	0	112197632	70	4332
2026-01-13 21:41:04.70	27.28	6.40	-51.9	-53.7	13.7	0.00e+00	0	26	0	115343360	70	4301
2026-01-13 21:41:05.70	27.40	6.45	-51.8	-53.5	13.8	0.00e+00	0	26	0	118489088	70	4233
2026-01-13 21:41:06.70	27.52	6.50	-51.8	-53.6	13.8	0.00e+00	0	26	0	121634816	70	4272
2026-01-13 21:41:07.70	27.63	6.55	-51.8	-53.5	13.8	0.00e+00	0	27	0	124780544	70	4236
2026-01-13 21:41:08.71	27.75	6.60	-51.6	-53.3	13.9	0.00e+00	0	26	0	127926272	69	4374
2026-01-13 21:41:09.70	27.87	6.65	-51.6	-53.4	13.8	0.00e+00	0	26	0	131072000	69	4393
2026-01-13 21:41:10.70	27.99	6.70	-51.4	-53.1	13.9	0.00e+00	0	26	0	134217728	69	4270
2026-01-13 21:41:11.70	28.11	6.75	-51.5	-53.1	13.9	0.00e+00	0	26	0	137363456	69	4289
2026-01-13 21:41:12.70	28.23	6.81	-51.4	-53.1	13.9	0.00e+00	0	26	0	140509184	69	4270
2026-01-13 21:41:13.69	28.35	6.85	-51.5	-53.2	13.9	0.00e+00	0	26	0	143654912	69	4292
2026-01-13 21:41:14.68	28.47	6.90	-51.3	-52.9	14.0	0.00e+00	0	26	0	146800640	69	4190
2026-01-13 21:41:15.68	28.59	6.95	-51.4	-53.0	14.0	0.00e+00	0	26	0	149946368	69	4214
2026-01-13 21:41:16.68	28.71	7.01	-51.4	-53.0	14.0	0.00e+00	0	27	0	153092096	69	4219
2026-01-13 21:41:17.68	28.83	7.06	-51.4	-53.0	14.0	0.00e+00	0	26	0	156237824	69	4239
2026-01-13 21:41:18.68	28.95	7.11	-51.4	-53.0	14.0	0.00e+00	0	26	0	158334976	69	4210
2026-01-13 21:41:19.68	29.08	7.16	-51.4	-53.1	14.0	0.00e+00	0	26	0	161480704	69	4248
2026-01-13 21:41:20.68	29.20	7.21	-51.4	-53.1	14.0	0.00e+00	0	27	0	164626432	69	4257
2026-01-13 21:41:21.68	29.32	7.26	-51.3	-53.0	14.0	0.00e+00	0	27	0	167772160	69	4212
2026-01-13 21:41:22.68	29.45	7.31	-51.5	-53.1	13.9	0.00e+00	0	26	0	170917888	69	4267
2026-01-13 21:41:23.68	29.57	7.36	-51.5	-53.1	13.9	0.00e+00	0	26	0	174063616	69	4288
2026-01-13 21:41:24.67	29.69	7.41	-51.5	-53.2	13.9	0.00e+00	0	26	0	177209344	69	4298
2026-01-13 21:41:25.67	29.82	7.46	-51.5	-53.1	13.9	0.00e+00	0	26	0	180355072	69	4286
2026-01-13 21:41:26.67	29.94	7.51	-51.5	-53.1	13.9	0.00e+00	0	26	0	183500800	69	4270
2026-01-13 21:41:27.67	30.07	7.56	-51.5	-53.2	13.9	0.00e+00	0	27	0	186646528	69	4303
2026-01-13 21:41:28.67	30.20	7.61	-51.4	-53.0	14.0	0.00e+00	0	26	0	189792256	69	4224
2026-01-13 21:41:29.66	30.32	7.66	-51.4	-53.1	14.0	0.00e+00	0	27	0	192937984	69	4244
2026-01-13 21:41:30.67	30.45	7.71	-51.3	-52.9	14.1	0.00e+00	0	26	0	196083712	69	4152
2026-01-13 21:41:31.65	30.58	7.76	-51.2	-52.8	14.1	0.00e+00	0	26	0	199229440	69	4141
2026-01-13 21:41:32.65	30.70	7.81	-51.2	-52.8	14.1	0.00e+00	0	26	0	202375168	69	4129
2026-01-13 21:41:33.64	30.83	7.86	-51.3	-52.9	14.1	0.00e+00	0	26	0	205520896	69	4176
2026-01-13 21:41:34.63	30.96	7.91	-51.3	-52.9	14.1	0.00e+00	0	27	0	208666624	69	4146
2026-01-13 21:41:35.62	31.09	7.96	-51.4	-53.0	14.0	0.00e+00	0	26	0	211812352	69	4214
2026-01-13 21:41:36.63	31.22	8.01	-51.4	-53.0	14.0	0.00e+00	0	26	0	214958080	69	4220
2026-01-13 21:41:37.63	31.35	8.06	-51.3	-52.9	14.1	0.00e+00	0	27	0	218103808	69	4190
2026-01-13 21:41:38.63	31.48	8.11	-51.4	-53.1	14.0	0.00e+00	0	27	0	221249536	69	4259
2026-01-13 21:41:39.63	31.61	8.16	-51.4	-53.1	14.0	0.00e+00	0	26	0	224395264	69	4263
2026-01-13 21:41:40.62	31.74	8.21	-51.4	-53.0	14.0	0.00e+00	0	27	0	227540992	69	4227
2026-01-13 21:41:41.62	31.87	8.26	-51.4	-53.0	14.0	0.00e+00	0	26	0	230686720	69	4228
2026-01-13 21:41:42.62	32.00	8.31	-51.4	-53.0	14.0	0.00e+00	0	27	0	233832448	69	4224
2026-01-13 21:41:43.61	32.13	8.35	-51.3	-52.9	14.1	0.00e+00	0	27	0	236978176	69	4159
2026-01-13 21:41:44.60	32.27	8.40	-51.1	-52.7	14.1	0.00e+00	0	27	0	240123904	68	4302
2026-01-13 21:41:45.60	32.40	8.45	-51.1	-52.7	14.1	0.00e+00	0	27	0	243269632	68	4298
2026-01-13 21:41:46.58	32.53	8.50	-51.1	-52.6	14.1	0.00e+00	0	26	0	246415360	68	4286
2026-01-13 21:41:47.59	32.67	8.55	-50.9	-52.5	14.2	0.00e+00	0	27	0	249561088	68	4205
2026-01-13 21:41:48.60	32.80	8.60	-50.8	-52.3	14.3	0.00e+00	0	27	0	252706816	68	4135
2026-01-13 21:41:49.60	32.94	8.65	-50.9	-52.4	14.2	0.00e+00	0	27	0	255852544	68	4178
2026-01-13 21:41:50.59	33.07	8.70	-50.8	-52.4	14.3	0.00e+00	0	27	0	258998272	68	4148
2026-01-13 21:41:51.59	33.21	8.75	-50.9	-52.5	14.2	0.00e+00	0	27	0	262144000	68	4201
2026-01-13 21:41:52.58	33.34	8.80	-50.8	-52.3	14.3	0.00e+00	0	27	0	265289728	68	4132
2026-01-13 21:41:53.59	33.48	8.85	-50.8	-52.3	14.2	0.00e+00	0	27	0	268435456	68	4141
2026-01-13 21:41:54.59	33.62	8.90	-50.8	-52.3	14.3	0.00e+00	0	27	0	271581184	68	4142
2026-01-13 21:41:55.59	33.76	8.95	-50.9	-52.4	14.2	0.00e+00	0	27	0	274726912	68	4168
2026-01-13 21:41:56.59	33.90	9.00	-50.9	-52.4	14.2	0.00e+00	0	27	0	277872640	68	4179
2026-01-13 21:41:57.59	34.04	9.05	-50.9	-52.5	14.2	0.00e+00	0	27	0	281018368	68	4204
2026-01-13 21:41:58.60	34.18	9.10	-50.9	-52.5	14.2	0.00e+00	0	27	0	284164096	68	4199
2026-01-13 21:41:59.59	34.31	9.15	-50.9	-52.5	14.2	0.00e+00	0	27	0	287309824	68	4206
2026-01-13 21:42:00.59	34.45	9.19	-50.9	-52.5	14.2	0.00e+00	0	27	0	290455552	68	4199
2026-01-13 21:42:01.59	34.60	9.24	-50.9	-52.4	14.2	0.00e+00	0	27	0	292552704	68	4171
2026-01-13 21:42:02.58	34.74	9.29	-50.9	-52.4	14.2	0.00e+00	0	27	0	295698432	68	4186
2026-01-13 21:42:03.58	34.88	9.34	-50.8	-52.3	14.3	0.00e+00	0	27	0	298844160	68	4119
2026-01-13 21:42:04.58	35.02	9.39	-50.7	-52.2	14.3	0.00e+00	0	27	0	301989888	68	4075
2026-01-13 21:42:05.57	35.16	9.44	-50.8	-52.3	14.3	0.00e+00	0	26	0	305135616	68	4107
2026-01-13 21:42:06.57	35.30	9.49	-50.9	-52.4	14.2	0.00e+00	0	26	0	308281344	68	4154
2026-01-13 21:42:07.57	35.45	9.54	-50.8	-52.3	14.3	0.00e+00	0	27	0	311427072	68	4099
2026-01-13 21:42:08.57	35.59	9.59	-50.9	-52.4	14.3	0.00e+00	0	27	0	314572800	68	4159
2026-01-13 21:42:09.57	35.74	9.63	-50.8	-52.3	14.3	0.00e+00	0	27	0	317718528	68	4099
2026-01-13 21:42:10.56	35.88	9.68	-50.4	-51.9	14.3	0.00e+00	0	27	0	320864256	67	4159
2026-01-13 21:42:11.55	36.02	9.73	-50.5	-52.0	14.3	0.00e+00	0	27	0	324009984	67	4203
2026-01-13 21:42:12.55	36.17	9.78	-50.5	-51.9	14.3	0.00e+00	0	27	0	327155712	67	4186
2026-01-13 21:42:13.55	36.31	9.83	-50.5	-51.9	14.3	0.00e+00	0	27	0	330301440	67	4178
2026-01-13 21:42:14.55	36.46	9.88	-50.5	-51.9	14.3	0.00e+00	0	27	0	333447168	67	4182
2026-01-13 21:42:15.55	36.61	9.92	-50.5	-51.9	14.3	0.00e+00	0	27	0	336592896	67	4190
2026-01-13 21:42:16.55	36.76	9.97	-50.5	-52.0	14.3	0.00e+00	0	27	0	339738624	67	4223
2026-01-13 21:42:17.55	36.90	10.02	-50.5	-52.0	14.3	0.00e+00	0	27	0	342884352	67	4211
2026-01-13 21:42:18.54	37.05	10.07	-50.5	-51.9	14.3	0.00e+00	0	27	0	346030080	67	4182
2026-01-13 21:42:19.53	37.20	10.11	-50.4	-51.9	14.3	0.00e+00	0	27	0	349175808	67	4168
2026-01-13 21:42:20.53	37.35	10.16	-50.5	-51.9	14.3	0.00e+00	0	27	0	352321536	67	4176
2026-01-13 21:42:21.52	37.50	10.21	-50.5	-51.9	14.3	0.00e+00	0	27	0	355467264	67	4169
2026-01-13 21:42:22.52	37.65	10.26	-50.4	-51.9	14.3	0.00e+00	0	27	0	358612992	67	4160
2026-01-13 21:42:23.52	37.80	10.31	-50.5	-51.9	14.3	0.00e+00	0	27	0	361758720	67	4185
2026-01-13 21:42:24.51	37.95	10.35	-50.3	-51.7	14.4	0.00e+00	0	27	0	364904448	67	4089
2026-01-13 21:42:25.52	38.10	10.40	-50.2	-51.6	14.4	0.00e+00	0	27	0	368050176	67	4045
2026-01-13 21:42:26.52	38.25	10.45	-50.3	-51.7	14.4	0.00e+00	0	27	0	371195904	67	4093
2026-01-13 21:42:27.51	38.41	10.49	-50.3	-51.7	14.4	0.00e+00	0	27	0	374341632	67	4095
2026-01-13 21:42:28.51	38.56	10.54	-50.4	-51.8	14.3	0.00e+00	0	27	0	377487360	67	4144
2026-01-13 21:42:29.51	38.71	10.59	-50.4	-51.8	14.4	0.00e+00	0	27	0	380633088	67	4116
2026-01-13 21:42:30.50	38.86	10.64	-50.3	-51.7	14.4	0.00e+00	0	27	0	383778816	67	4065
2026-01-13 21:42:31.50	39.02	10.68	-50.3	-51.8	14.4	0.00e+00	0	27	0	386924544	67	4109
2026-01-13 21:42:32.48	39.17	10.73	-50.4	-51.9	14.3	0.00e+00	0	27	0	389021696	67	4153
2026-01-13 21:42:33.48	39.33	10.78	-50.4	-51.8	14.4	0.00e+00	0	27	0	392167424	67	4127
2026-01-13 21:42:34.47	39.48	10.82	-50.3	-51.8	14.4	0.00e+00	0	27	0	395313152	67	4099
2026-01-13 21:42:35.46	39.64	10.87	-50.3	-51.7	14.4	0.00e+00	0	27	0	398458880	67	4057
2026-01-13 21:42:36.46	39.79	10.91	-50.3	-51.7	14.4	0.00e+00	0	27	0	401604608	67	4083
2026-01-13 21:42:37.45	39.95	10.96	-50.3	-51.7	14.4	0.00e+00	0	27	0	404750336	67	4052
2026-01-13 21:42:38.45	40.11	11.01	-50.3	-51.7	14.4	0.00e+00	0	27	0	407896064	67	4082
2026-01-13 21:42:39.45	40.27	11.05	-50.3	-51.7	14.4	0.00e+00	0	27	0	411041792	67	4060
2026-01-13 21:42:40.44	40.42	11.10	-50.2	-51.6	14.5	0.00e+00	0	27	0	414187520	67	4033
2026-01-13 21:42:41.43	40.58	11.14	-50.3	-51.7	14.4	0.00e+00	0	27	0	417333248	67	4064
2026-01-13 21:42:42.43	40.74	11.19	-50.3	-51.7	14.4	0.00e+00	0	27	0	420478976	67	4090
2026-01-13 21:42:43.43	40.90	11.24	-50.4	-51.8	14.4	0.00e+00	0	27	0	423624704	67	4124
2026-01-13 21:42:44.42	41.06	11.28	-50.5	-51.9	14.3	0.00e+00	0	27	0	426770432	67	4192
2026-01-13 21:42:45.42	41.22	11.33	-50.5	-51.9	14.3	0.00e+00	0	27	0	429916160	67	4179
2026-01-13 21:42:46.41	41.38	11.37	-50.6	-52.1	14.2	0.00e+00	0	27	0	433061888	67	4259
2026-01-13 21:42:47.41	41.55	11.42	-50.6	-52.1	14.3	0.00e+00	0	27	0	436207616	67	4246
2026-01-13 21:42:48.41	41.71	11.46	-50.5	-51.9	14.3	0.00e+00	0	27	0	439353344	67	4189
2026-01-13 21:42:49.42	41.87	11.51	-50.5	-51.9	14.3	0.00e+00	0	27	0	442499072	67	4184
2026-01-13 21:42:50.41	42.04	11.55	-50.4	-51.9	14.3	0.00e+00	0	27	0	445644800	67	4162
2026-01-13 21:42:51.41	42.20	11.60	-50.4	-51.8	14.4	0.00e+00	0	27	0	448790528	67	4139
2026-01-13 21:42:52.41	42.37	11.64	-50.4	-51.8	14.4	0.00e+00	0	27	0	451936256	67	4132
2026-01-13 21:42:53.40	42.53	11.69	-50.5	-52.0	14.3	0.00e+00	0	27	0	455081984	67	4199
2026-01-13 21:42:54.40	42.70	11.73	-50.5	-51.9	14.3	0.00e+00	0	27	0	458227712	67	4168
2026-01-13 21:42:55.40	42.86	11.77	-50.4	-51.9	14.3	0.00e+00	0	27	0	461373440	67	4166
2026-01-13 21:42:56.40	43.03	11.82	-50.5	-52.0	14.3	0.00e+00	0	27	0	464519168	67	4204
2026-01-13 21:42:57.39	43.19	11.86	-50.4	-51.9	14.4	0.00e+00	0	27	0	467664896	67	4153
2026-01-13 21:42:58.40	43.36	11.91	-50.5	-52.0	14.3	0.00e+00	0	27	0	470810624	67	4195
2026-01-13 21:42:59.39	43.53	11.95	-50.4	-51.8	14.4	0.00e+00	0	27	0	473956352	67	4113
2026-01-13 21:43:00.39	43.70	11.99	-50.3	-51.7	14.4	0.00e+00	0	27	0	477102080	67	4056
2026-01-13 21:43:01.39	43.87	12.04	-50.3	-51.7	14.4	0.00e+00	0	27	0	480247808	67	4073
2026-01-13 21:43:02.38	44.04	12.08	-50.3	-51.7	14.4	0.00e+00	0	27	0	483393536	67	4059
2026-01-13 21:43:03.39	44.21	12.12	-50.3	-51.7	14.4	0.00e+00	0	27	0	486539264	67	4082
2026-01-13 21:43:04.38	44.38	12.17	-50.2	-51.5	14.5	0.00e+00	0	27	0	489684992	67	3999
2026-01-13 21:43:05.38	44.55	12.21	-50.2	-51.6	14.4	0.00e+00	0	27	0	491782144	66	4284
2026-01-13 21:43:06.37	44.72	12.25	-50.3	-51.7	14.3	0.00e+00	0	27	0	494927872	66	4296
2026-01-13 21:43:07.37	44.89	12.29	-50.3	-51.7	14.3	0.00e+00	0	27	0	498073600	66	4305
2026-01-13 21:43:08.37	45.06	12.34	-50.3	-51.8	14.3	0.00e+00	0	27	0	501219328	66	4342
2026-01-13 21:43:09.37	45.24	12.38	-50.4	-51.9	14.2	0.00e+00	0	27	0	504365056	66	4416
2026-01-13 21:43:10.38	45.41	12.42	-50.4	-51.9	14.2	0.00e+00	0	27	0	507510784	66	4405
2026-01-13 21:43:11.38	45.59	12.46	-50.5	-52.0	14.2	0.00e+00	0	27	0	510656512	66	4446
2026-01-13 21:43:12.38	45.76	12.50	-50.5	-51.9	14.2	0.00e+00	0	27	0	513802240	66	4430
2026-01-13 21:43:13.38	45.94	12.55	-50.5	-51.9	14.2	0.00e+00	0	27	0	516947968	66	4426
2026-01-13 21:43:14.37	46.11	12.59	-50.4	-51.8	14.3	0.00e+00	0	27	0	520093696	66	4364
2026-01-13 21:43:15.37	46.29	12.63	-50.4	-51.8	14.3	0.00e+00	0	27	0	523239424	66	4384
2026-01-13 21:43:16.36	46.46	12.67	-50.5	-51.9	14.2	0.00e+00	0	27	0	526385152	66	4415
2026-01-13 21:43:17.36	46.64	12.71	-50.3	-51.7	14.3	0.00e+00	0	27	0	529530880	66	4327
2026-01-13 21:43:18.36	46.81	12.75	-50.3	-51.7	14.3	0.00e+00	0	27	0	532676608	66	4336
2026-01-13 21:43:19.36	46.99	12.79	-50.4	-51.8	14.3	0.00e+00	0	27	0	535822336	66	4369
2026-01-13 21:43:20.36	47.17	12.83	-50.4	-51.8	14.3	0.00e+00	0	27	0	538968064	66	4360
2026-01-13 21:43:21.36	47.35	12.87	-50.4	-51.8	14.3	0.00e+00	0	27	0	542113792	66	4366
2026-01-13 21:43:22.36	47.53	12.91	-50.4	-51.8	14.3	0.00e+00	0	27	0	545259520	66	4351
2026-01-13 21:43:23.37	47.71	12.95	-50.4	-51.9	14.3	0.00e+00	0	27	0	548405248	66	4407
2026-01-13 21:43:24.37	47.89	12.99	-50.4	-51.9	14.2	0.00e+00	0	27	0	551550976	66	4405
2026-01-13 21:43:25.37	48.07	13.03	-50.4	-51.9	14.3	0.00e+00	0	27	0	554696704	66	4399
2026-01-13 21:43:26.36	48.25	13.07	-50.5	-51.9	14.2	0.00e+00	0	27	0	557842432	66	4432
2026-01-13 21:43:27.36	48.43	13.11	-50.4	-51.8	14.3	0.00e+00	0	27	0	560988160	66	4371
2026-01-13 21:43:28.36	48.61	13.15	-50.2	-51.6	14.4	0.00e+00	0	27	0	564133888	66	4277
2026-01-13 21:43:29.36	48.80	13.19	-50.2	-51.6	14.4	0.00e+00	0	27	0	567279616	66	4253
2026-01-13 21:43:30.36	48.98	13.23	-50.1	-51.4	14.4	0.00e+00	0	27	0	570425344	66	4185
2026-01-13 21:43:31.36	49.16	13.26	-50.1	-51.4	14.4	0.00e+00	0	27	0	573571072	66	4192
2026-01-13 21:43:32.36	49.35	13.30	-50.1	-51.5	14.4	0.00e+00	0	27	0	576716800	66	4200
2026-01-13 21:43:33.36	49.53	13.34	-49.9	-51.3	14.5	0.00e+00	0	27	0	579862528	66	4105
2026-01-13 21:43:34.36	49.72	13.38	-50.0	-51.4	14.5	0.00e+00	0	27	0	583008256	66	4162
2026-01-13 21:43:35.35	49.90	13.41	-50.1	-51.4	14.4	0.00e+00	0	27	0	586153984	66	4189
2026-01-13 21:43:36.34	50.09	13.45	-50.1	-51.5	14.4	0.00e+00	0	27	0	589299712	66	4203
2026-01-13 21:43:37.34	50.27	13.49	-50.2	-51.5	14.4	0.00e+00	0	27	0	592445440	66	4241
2026-01-13 21:43:38.34	50.46	13.52	-50.2	-51.6	14.3	0.00e+00	0	27	0	595591168	66	4285
2026-01-13 21:43:39.33	50.64	13.56	-50.3	-51.7	14.3	0.00e+00	0	27	0	598736896	66	4298
2026-01-13 21:43:40.34	50.83	13.60	-50.2	-51.6	14.4	0.00e+00	0	27	0	601882624	66	4268
2026-01-13 21:43:41.32	51.02	13.63	-50.1	-51.5	14.4	0.00e+00	0	27	0	605028352	66	4221
2026-01-13 21:43:42.32	51.21	13.67	-50.0	-51.4	14.4	0.00e+00	0	27	0	608174080	66	4167
2026-01-13 21:43:43.33	51.40	13.70	-50.0	-51.4	14.4	0.00e+00	0	27	0	611319808	66	4149
2026-01-13 21:43:44.31	51.58	13.74	-49.9	-51.3	14.5	0.00e+00	0	27	0	614465536	66	4103
2026-01-13 21:43:45.31	51.77	13.77	-49.8	-51.1	14.6	0.00e+00	0	27	0	617611264	66	4038
2026-01-13 21:43:46.30	51.96	13.81	-49.9	-51.2	14.5	0.00e+00	0	27	0	620756992	66	4074
2026-01-13 21:43:47.30	52.15	13.84	-49.9	-51.3	14.5	0.00e+00	0	27	0	623902720	66	4099
2026-01-13 21:43:48.29	52.34	13.88	-49.9	-51.2	14.5	0.00e+00	0	27	0	625999872	66	4090
2026-01-13 21:43:49.30	52.53	13.91	-50.0	-51.3	14.5	0.00e+00	0	27	0	629145600	66	4123
2026-01-13 21:43:50.30	52.73	13.95	-50.0	-51.3	14.5	0.00e+00	0	27	0	632291328	66	4141
2026-01-13 21:43:51.30	52.92	13.98	-50.1	-51.5	14.4	0.00e+00	0	27	0	635437056	66	4194
2026-01-13 21:43:52.30	53.11	14.01	-50.2	-51.6	14.4	0.00e+00	0	27	0	638582784	66	4267
2026-01-13 21:43:53.29	53.30	14.05	-50.2	-51.6	14.3	0.00e+00	0	27	0	641728512	66	4287
2026-01-13 21:43:54.29	53.50	14.08	-50.1	-51.5	14.4	0.00e+00	0	27	0	644874240	66	4231
2026-01-13 21:43:55.29	53.69	14.11	-50.1	-51.5	14.4	0.00e+00	0	27	0	648019968	66	4219
2026-01-13 21:43:56.29	53.88	14.14	-50.1	-51.5	14.4	0.00e+00	0	27	0	651165696	66	4238
2026-01-13 21:43:57.29	54.08	14.18	-50.0	-51.4	14.5	0.00e+00	0	27	0	654311424	66	4156
2026-01-13 21:43:58.29	54.28	14.21	-50.0	-51.4	14.5	0.00e+00	0	27	0	657457152	66	4168
2026-01-13 21:43:59.29	54.47	14.24	-50.0	-51.4	14.4	0.00e+00	0	27	0	660602880	66	4171
2026-01-13 21:44:00.29	54.67	14.27	-49.9	-51.2	14.5	0.00e+00	0	27	0	663748608	66	4087
2026-01-13 21:44:01.29	54.86	14.30	-49.8	-51.1	14.6	0.00e+00	0	27	0	666894336	66	4018
2026-01-13 21:44:02.29	55.06	14.33	-49.9	-51.2	14.6	0.00e+00	0	27	0	670040064	66	4067
2026-01-13 21:44:03.29	55.26	14.36	-49.8	-51.1	14.6	0.00e+00	0	27	0	673185792	66	4046
2026-01-13 21:44:04.29	55.46	14.39	-49.6	-50.9	14.5	0.00e+00	0	27	0	676331520	65	4186
2026-01-13 21:44:05.30	55.66	14.42	-49.6	-51.0	14.5	0.00e+00	0	27	0	679477248	65	4195
2026-01-13 21:44:06.29	55.85	14.45	-49.6	-50.9	14.5	0.00e+00	0	27	0	682622976	65	4175
2026-01-13 21:44:07.29	56.05	14.48	-49.7	-51.0	14.5	0.00e+00	0	27	0	685768704	65	4236
2026-01-13 21:44:08.29	56.25	14.51	-49.8	-51.1	14.5	0.00e+00	0	27	0	688914432	65	4280
2026-01-13 21:44:09.29	56.45	14.54	-49.8	-51.2	14.4	0.00e+00	0	27	0	692060160	65	4303
2026-01-13 21:44:10.30	56.65	14.57	-49.9	-51.3	14.4	0.00e+00	0	27	0	695205888	65	4360
2026-01-13 21:44:11.30	56.85	14.60	-50.1	-51.5	14.3	0.00e+00	0	27	0	698351616	65	4446
2026-01-13 21:44:12.29	57.05	14.63	-50.0	-51.4	14.4	0.00e+00	0	27	0	701497344	65	4395
2026-01-13 21:44:13.29	57.25	14.65	-50.0	-51.4	14.4	0.00e+00	0	27	0	704643072	65	4413
2026-01-13 21:44:14.28	57.45	14.68	-50.0	-51.4	14.4	0.00e+00	0	27	0	707788800	65	4415
2026-01-13 21:44:15.28	57.65	14.71	-49.9	-51.2	14.4	0.00e+00	0	27	0	710934528	65	4333
2026-01-13 21:44:16.29	57.86	14.74	-49.9	-51.2	14.4	0.00e+00	0	27	0	714080256	65	4321
2026-01-13 21:44:17.29	58.06	14.76	-49.8	-51.1	14.5	0.00e+00	0	27	0	717225984	65	4263
2026-01-13 21:44:18.29	58.26	14.79	-49.6	-51.0	14.5	0.00e+00	0	27	0	720371712	65	4194
2026-01-13 21:44:19.28	58.47	14.81	-49.5	-50.8	14.6	0.00e+00	0	27	0	723517440	65	4106
2026-01-13 21:44:20.29	58.67	14.84	-49.6	-50.9	14.5	0.00e+00	0	27	0	726663168	65	4193
2026-01-13 21:44:21.28	58.87	14.86	-49.6	-50.9	14.6	0.00e+00	0	27	0	729808896	65	4168
2026-01-13 21:44:22.28	59.08	14.89	-49.7	-51.0	14.5	0.00e+00	0	27	0	732954624	65	4216
2026-01-13 21:44:23.27	59.28	14.91	-49.7	-51.0	14.5	0.00e+00	0	27	0	736100352	65	4239
2026-01-13 21:44:24.26	59.48	14.94	-49.8	-51.1	14.5	0.00e+00	0	27	0	739246080	65	4272
2026-01-13 21:44:25.27	59.69	14.96	-49.8	-51.2	14.5	0.00e+00	0	27	0	742391808	65	4294
2026-01-13 21:44:26.27	59.90	14.99	-49.9	-51.3	14.4	0.00e+00	0	27	0	745537536	65	4361
2026-01-13 21:44:27.27	60.10	15.01	-49.8	-51.1	14.5	0.00e+00	0	27	0	748683264	65	4267
2026-01-13 21:44:28.26	60.31	15.03	-49.8	-51.1	14.4	0.00e+00	0	27	0	751828992	65	4286
2026-01-13 21:44:29.26	60.51	15.06	-49.7	-51.0	14.5	0.00e+00	0	27	0	754974720	65	4234
2026-01-13 21:44:30.26	60.72	15.08	-49.7	-51.0	14.5	0.00e+00	0	27	0	758120448	65	4237
2026-01-13 21:44:31.25	60.93	15.10	-49.8	-51.1	14.4	0.00e+00	0	27	0	760217600	65	4290
2026-01-13 21:44:32.25	61.13	15.12	-49.8	-51.2	14.4	0.00e+00	0	27	0	763363328	65	4299
2026-01-13 21:44:33.25	61.34	15.14	-49.8	-51.1	14.5	0.00e+00	0	27	0	766509056	65	4273
2026-01-13 21:44:34.25	61.55	15.16	-49.7	-51.1	14.5	0.00e+00	0	27	0	769654784	65	4249
2026-01-13 21:44:35.24	61.76	15.18	-49.8	-51.1	14.4	0.00e+00	0	27	0	772800512	65	4285
2026-01-13 21:44:36.24	61.96	15.21	-49.7	-51.1	14.5	0.00e+00	0	27	0	775946240	65	4249
2026-01-13 21:44:37.23	62.17	15.23	-49.6	-50.9	14.5	0.00e+00	0	27	0	779091968	65	4172
2026-01-13 21:44:38.22	62.38	15.25	-49.6	-50.9	14.6	0.00e+00	0	27	0	782237696	65	4166
2026-01-13 21:44:39.22	62.59	15.26	-49.7	-51.0	14.5	0.00e+00	0	27	0	785383424	65	4215
2026-01-13 21:44:40.20	62.79	15.28	-49.6	-51.0	14.5	0.00e+00	0	27	0	788529152	65	4194
2026-01-13 21:44:41.20	63.00	15.30	-49.7	-51.1	14.5	0.00e+00	0	27	0	791674880	65	4249
2026-01-13 21:44:42.21	63.22	15.32	-49.8	-51.1	14.5	0.00e+00	0	27	0	794820608	65	4258
2026-01-13 21:44:43.21	63.43	15.34	-49.8	-51.2	14.4	0.00e+00	0	27	0	797966336	65	4307
2026-01-13 21:44:44.20	63.64	15.36	-49.8	-51.2	14.4	0.00e+00	0	27	0	801112064	65	4305
2026-01-13 21:44:45.19	63.84	15.37	-49.8	-51.1	14.4	0.00e+00	0	27	0	804257792	65	4279
2026-01-13 21:44:46.18	64.05	15.39	-49.8	-51.1	14.5	0.00e+00	0	27	0	807403520	65	4275
2026-01-13 21:44:47.18	64.27	15.41	-49.6	-50.9	14.6	0.00e+00	0	27	0	810549248	65	4162
2026-01-13 21:44:48.17	64.48	15.42	-49.5	-50.8	14.6	0.00e+00	0	27	0	813694976	65	4119
2026-01-13 21:44:49.17	64.69	15.44	-49.6	-50.9	14.5	0.00e+00	0	27	0	816840704	65	4175
2026-01-13 21:44:50.18	64.90	15.46	-49.6	-50.9	14.5	0.00e+00	0	27	0	819986432	65	4182
2026-01-13 21:44:51.17	65.11	15.47	-49.6	-50.9	14.5	0.00e+00	0	27	0	823132160	65	4187
2026-01-13 21:44:52.17	65.32	15.49	-49.6	-51.0	14.5	0.00e+00	0	27	0	826277888	65	4196
2026-01-13 21:44:53.17	65.54	15.50	-49.6	-50.9	14.5	0.00e+00	0	27	0	829423616	65	4184
2026-01-13 21:44:54.16	65.75	15.51	-49.6	-50.8	14.6	0.00e+00	0	27	0	832569344	65	4142
2026-01-13 21:44:55.15	65.96	15.53	-49.5	-50.8	14.6	0.00e+00	0	27	0	835715072	65	4133
2026-01-13 21:44:56.14	66.17	15.54	-49.6	-50.9	14.5	0.00e+00	0	27	0	838860800	65	4186
2026-01-13 21:44:57.15	66.39	15.55	-49.6	-51.0	14.5	0.00e+00	0	27	0	842006528	65	4197
2026-01-13 21:44:58.15	66.60	15.57	-49.7	-51.1	14.5	0.00e+00	0	27	0	845152256	65	4247
2026-01-13 21:44:59.15	66.81	15.58	-49.8	-51.2	14.4	0.00e+00	0	27	0	848297984	65	4300
2026-01-13 21:45:00.14	67.03	15.59	-49.9	-51.3	14.4	0.00e+00	0	27	0	851443712	65	4352
2026-01-13 21:45:01.14	67.24	15.60	-50.0	-51.3	14.4	0.00e+00	0	27	0	854589440	65	4383
2026-01-13 21:45:02.13	67.45	15.61	-50.0	-51.3	14.4	0.00e+00	0	27	0	856686592	65	4390
2026-01-13 21:45:03.13	67.67	15.62	-50.0	-51.3	14.4	0.00e+00	0	27	0	859832320	65	4375
2026-01-13 21:45:04.13	67.88	15.64	-49.9	-51.2	14.4	0.00e+00	0	27	0	862978048	65	4325
2026-01-13 21:45:05.13	68.10	15.65	-49.8	-51.1	14.5	0.00e+00	0	27	0	866123776	65	4261
2026-01-13 21:45:06.12	68.31	15.66	-49.8	-51.1	14.5	0.00e+00	0	27	0	869269504	65	4268
2026-01-13 21:45:07.12	68.53	15.66	-49.8	-51.1	14.4	0.00e+00	0	27	0	872415232	65	4279
2026-01-13 21:45:08.12	68.74	15.67	-49.8	-51.1	14.5	0.00e+00	0	27	0	875560960	65	4276
2026-01-13 21:45:09.12	68.96	15.68	-49.8	-51.2	14.4	0.00e+00	0	27	0	878706688	65	4294
2026-01-13 21:45:10.12	69.17	15.69	-49.8	-51.1	14.4	0.00e+00	0	27	0	881852416	65	4291
2026-01-13 21:45:11.12	69.39	15.70	-49.9	-51.2	14.4	0.00e+00	0	27	0	884998144	65	4338
2026-01-13 21:45:12.11	69.60	15.71	-49.9	-51.2	14.4	0.00e+00	0	27	0	888143872	65	4325
2026-01-13 21:45:13.11	69.82	15.71	-49.9	-51.2	14.4	0.00e+00	0	27	0	891289600	65	4325
2026-01-13 21:45:14.10	70.03	15.72	-49.9	-51.2	14.4	0.00e+00	0	27	0	894435328	65	4319
2026-01-13 21:45:15.09	70.25	15.73	-49.9	-51.2	14.4	0.00e+00	0	27	0	897581056	65	4336
2026-01-13 21:45:16.09	70.46	15.73	-49.9	-51.2	14.4	0.00e+00	0	27	0	900726784	65	4332
2026-01-13 21:45:17.09	70.68	15.74	-49.8	-51.2	14.4	0.00e+00	0	27	0	903872512	65	4307
2026-01-13 21:45:18.09	70.89	15.74	-49.8	-51.1	14.5	0.00e+00	0	27	0	907018240	65	4273
2026-01-13 21:45:19.09	71.11	15.75	-49.8	-51.2	14.4	0.00e+00	0	27	0	910163968	65	4293
2026-01-13 21:45:20.08	71.33	15.75	-49.8	-51.1	14.5	0.00e+00	0	27	0	913309696	65	4280
2026-01-13 21:45:21.08	71.54	15.76	-49.7	-51.1	14.5	0.00e+00	0	27	0	916455424	65	4249
2026-01-13 21:45:22.08	71.76	15.76	-49.8	-51.1	14.5	0.00e+00	0	27	0	919601152	65	4279
2026-01-13 21:45:23.08	71.98	15.76	-49.8	-51.1	14.5	0.00e+00	0	27	0	922746880	65	4283
2026-01-13 21:45:24.08	72.19	15.77	-49.8	-51.2	14.4	0.00e+00	0	27	0	925892608	65	4325
2026-01-13 21:45:25.08	72.41	15.77	-50.0	-51.3	14.4	0.00e+00	0	27	0	929038336	65	4380
2026-01-13 21:45:26.08	72.63	15.77	-49.9	-51.2	14.4	0.00e+00	0	27	0	932184064	65	4333
2026-01-13 21:45:27.07	72.84	15.77	-50.0	-51.3	14.4	0.00e+00	0	27	0	935329792	65	4385
2026-01-13 21:45:28.07	73.06	15.78	-49.9	-51.3	14.4	0.00e+00	0	27	0	938475520	65	4351
2026-01-13 21:45:29.07	73.27	15.78	-49.9	-51.3	14.4	0.00e+00	0	27	0	941621248	65	4367
2026-01-13 21:45:30.07	73.49	15.78	-50.0	-51.3	14.4	0.00e+00	0	27	0	944766976	65	4386
2026-01-13 21:45:31.06	73.71	15.78	-49.8	-51.2	14.4	0.00e+00	0	27	0	947912704	65	4309
2026-01-13 21:45:32.06	73.92	15.78	-49.9	-51.3	14.4	0.00e+00	0	27	0	951058432	65	4351
2026-01-13 21:45:33.06	74.14	15.78	-49.8	-51.1	14.4	0.00e+00	0	27	0	954204160	65	4288
2026-01-13 21:45:34.06	74.36	15.78	-49.8	-51.1	14.5	0.00e+00	0	27	0	957349888	65	4263
2026-01-13 21:45:35.06	74.57	15.77	-49.8	-51.1	14.5	0.00e+00	0	27	0	960495616	65	4262
2026-01-13 21:45:36.05	74.79	15.77	-49.8	-51.1	14.4	0.00e+00	0	27	0	963641344	65	4288
2026-01-13 21:45:37.05	75.01	15.77	-49.7	-51.0	14.5	0.00e+00	0	27	0	966787072	65	4228
2026-01-13 21:45:38.04	75.22	15.77	-49.7	-51.0	14.5	0.00e+00	0	27	0	969932800	65	4234
2026-01-13 21:45:39.03	75.44	15.77	-49.7	-51.0	14.5	0.00e+00	0	27	0	973078528	65	4209
2026-01-13 21:45:40.04	75.65	15.76	-49.7	-51.0	14.5	0.00e+00	0	27	0	976224256	65	4228
2026-01-13 21:45:41.04	75.87	15.76	-49.7	-51.0	14.5	0.00e+00	0	27	0	979369984	65	4221
2026-01-13 21:45:42.04	76.09	15.76	-49.7	-51.1	14.5	0.00e+00	0	27	0	981467136	65	4244
2026-01-13 21:45:43.04	76.30	15.75	-49.7	-51.1	14.5	0.00e+00	0	27	0	984612864	65	4255
2026-01-13 21:45:44.04	76.52	15.75	-49.7	-51.1	14.5	0.00e+00	0	27	0	987758592	65	4248
2026-01-13 21:45:45.03	76.74	15.74	-49.8	-51.1	14.5	0.00e+00	0	27	0	990904320	65	4284
2026-01-13 21:45:46.02	76.95	15.74	-49.7	-51.0	14.5	0.00e+00	0	27	0	994050048	65	4239
2026-01-13 21:45:47.01	77.16	15.73	-49.6	-50.9	14.5	0.00e+00	0	27	0	997195776	65	4182
2026-01-13 21:45:48.01	77.38	15.72	-49.7	-51.0	14.5	0.00e+00	0	27	0	1000341504	65	4235
2026-01-13 21:45:49.01	77.60	15.72	-49.8	-51.1	14.5	0.00e+00	0	27	0	1003487232	65	4265
2026-01-13 21:45:50.02	77.81	15.71	-49.8	-51.2	14.4	0.00e+00	0	27	0	1006632960	65	4297
2026-01-13 21:45:51.01	78.03	15.70	-49.9	-51.2	14.4	0.00e+00	0	27	0	1009778688	65	4313
2026-01-13 21:45:52.02	78.25	15.69	-49.8	-51.2	14.4	0.00e+00	0	27	0	1012924416	65	4315
2026-01-13 21:45:53.01	78.46	15.69	-49.7	-51.0	14.5	0.00e+00	0	27	0	1016070144	65	4235
2026-01-13 21:45:54.00	78.67	15.68	-49.8	-51.1	14.5	0.00e+00	0	27	0	1019215872	65	4262
2026-01-13 21:45:55.00	78.89	15.67	-49.7	-51.0	14.5	0.00e+00	0	27	0	1022361600	65	4226
2026-01-13 21:45:56.00	79.11	15.66	-49.7	-51.1	14.5	0.00e+00	0	27	0	1025507328	65	4250
2026-01-13 21:45:56.99	79.32	15.65	-49.9	-51.2	14.4	0.00e+00	0	27	0	1028653056	65	4324
2026-01-13 21:45:57.99	79.53	15.64	-49.9	-51.3	14.4	0.00e+00	0	27	0	1031798784	65	4368
2026-01-13 21:45:58.99	79.75	15.63	-50.0	-51.4	14.4	0.00e+00	0	27	0	1034944512	65	4409
2026-01-13 21:45:59.99	79.96	15.62	-50.1	-51.4	14.3	0.00e+00	0	27	0	1038090240	65	4441
2026-01-13 21:46:01.00	80.18	15.61	-50.0	-51.4	14.3	0.00e+00	0	27	0	1041235968	65	4433
2026-01-13 21:46:02.00	80.40	15.60	-50.0	-51.4	14.3	0.00e+00	0	27	0	1044381696	65	4419
2026-01-13 21:46:02.99	80.61	15.59	-50.0	-51.4	14.4	0.00e+00	0	27	0	1047527424	65	4408
2026-01-13 21:46:03.99	80.82	15.57	-50.0	-51.4	14.4	0.00e+00	0	27	0	1050673152	65	4397
2026-01-13 21:46:04.99	81.04	15.56	-49.8	-51.1	14.4	0.00e+00	0	27	0	1053818880	65	4277
2026-01-13 21:46:05.98	81.25	15.55	-49.7	-51.0	14.5	0.00e+00	0	27	0	1056964608	65	4234
2026-01-13 21:46:06.97	81.46	15.53	-49.6	-51.0	14.5	0.00e+00	0	27	0	1060110336	65	4198
2026-01-13 21:46:07.98	81.68	15.52	-49.7	-51.0	14.5	0.00e+00	0	27	0	1063256064	65	4221
2026-01-13 21:46:08.97	81.89	15.51	-49.8	-51.2	14.4	0.00e+00	0	27	0	1066401792	65	4303
2026-01-13 21:46:09.97	82.10	15.49	-49.9	-51.2	14.4	0.00e+00	0	27	0	1069547520	65	4324
2026-01-13 21:46:10.97	82.31	15.48	-49.8	-51.2	14.4	0.00e+00	0	27	0	1072693248	65	4310
2026-01-13 21:46:11.97	82.53	15.46	-49.9	-51.2	14.4	0.00e+00	0	27	0	1075838976	65	4324
2026-01-13 21:46:12.97	82.74	15.45	-49.8	-51.1	14.4	0.00e+00	0	27	0	1078984704	65	4279
2026-01-13 21:46:13.97	82.95	15.43	-49.7	-51.1	14.5	0.00e+00	0	27	0	1082130432	65	4253
2026-01-13 21:46:14.96	83.16	15.41	-49.8	-51.2	14.4	0.00e+00	0	27	0	1085276160	65	4317
2026-01-13 21:46:15.96	83.37	15.40	-50.1	-51.5	14.3	0.00e+00	0	27	0	1088421888	65	4448
2026-01-13 21:46:16.97	83.59	15.38	-50.1	-51.5	14.3	0.00e+00	0	27	0	1090519040	65	4452
2026-01-13 21:46:17.96	83.80	15.36	-50.0	-51.4	14.4	0.00e+00	0	27	0	1093664768	65	4414
2026-01-13 21:46:18.95	84.01	15.35	-50.0	-51.4	14.4	0.00e+00	0	27	0	1096810496	65	4400
2026-01-13 21:46:19.95	84.22	15.33	-49.9	-51.2	14.4	0.00e+00	0	27	0	1099956224	65	4333
2026-01-13 21:46:20.94	84.43	15.31	-49.8	-51.2	14.4	0.00e+00	0	27	0	1103101952	65	4293
2026-01-13 21:46:21.94	84.64	15.29	-49.8	-51.1	14.4	0.00e+00	0	27	0	1106247680	65	4283
2026-01-13 21:46:22.94	84.85	15.27	-49.8	-51.1	14.4	0.00e+00	0	27	0	1109393408	65	4267
2026-01-13 21:46:23.94	85.06	15.25	-49.8	-51.2	14.4	0.00e+00	0	27	0	1112539136	65	4296
2026-01-13 21:46:24.94	85.27	15.23	-49.7	-51.1	14.5	0.00e+00	0	27	0	1115684864	65	4250
2026-01-13 21:46:25.94	85.48	15.21	-49.8	-51.2	14.4	0.00e+00	0	27	0	1118830592	65	4296
2026-01-13 21:46:26.94	85.68	15.19	-49.9	-51.3	14.4	0.00e+00	0	27	0	1121976320	65	4343
2026-01-13 21:46:27.94	85.89	15.17	-50.0	-51.3	14.4	0.00e+00	0	27	0	1125122048	65	4383
2026-01-13 21:46:28.94	86.10	15.15	-49.8	-51.2	14.4	0.00e+00	0	27	0	1128267776	65	4300
2026-01-13 21:46:29.94	86.31	15.13	-49.8	-51.1	14.5	0.00e+00	0	27	0	1131413504	65	4285
2026-01-13 21:46:30.94	86.52	15.11	-49.8	-51.1	14.4	0.00e+00	0	27	0	1134559232	65	4270
2026-01-13 21:46:31.93	86.72	15.09	-49.8	-51.2	14.4	0.00e+00	0	27	0	1137704960	65	4317
2026-01-13 21:46:32.93	86.93	15.06	-49.8	-51.2	14.4	0.00e+00	0	27	0	1140850688	65	4300
2026-01-13 21:46:33.93	87.14	15.04	-49.7	-51.1	14.5	0.00e+00	0	27	0	1143996416	65	4248
2026-01-13 21:46:34.93	87.35	15.02	-49.7	-51.0	14.5	0.00e+00	0	27	0	1147142144	65	4241
2026-01-13 21:46:35.93	87.55	15.00	-49.7	-51.0	14.5	0.00e+00	0	27	0	1150287872	65	4234
2026-01-13 21:46:36.93	87.76	14.97	-49.7	-51.1	14.5	0.00e+00	0	27	0	1153433600	65	4251
2026-01-13 21:46:37.93	87.96	14.95	-49.8	-51.1	14.4	0.00e+00	0	27	0	1156579328	65	4283
2026-01-13 21:46:38.93	88.17	14.92	-49.7	-51.0	14.5	0.00e+00	0	27	0	1159725056	65	4237
2026-01-13 21:46:39.92	88.37	14.90	-49.6	-51.0	14.5	0.00e+00	0	27	0	1162870784	65	4204
2026-01-13 21:46:40.92	88.58	14.87	-49.7	-51.0	14.5	0.00e+00	0	27	0	1166016512	65	4226
2026-01-13 21:46:41.92	88.78	14.85	-49.6	-50.9	14.5	0.00e+00	0	27	0	1169162240	65	4184
2026-01-13 21:46:42.91	88.99	14.82	-49.7	-51.1	14.5	0.00e+00	0	27	0	1172307968	65	4243
2026-01-13 21:46:43.90	89.19	14.80	-49.7	-51.0	14.5	0.00e+00	0	27	0	1175453696	65	4237
2026-01-13 21:46:44.90	89.39	14.77	-49.8	-51.1	14.5	0.00e+00	0	27	0	1178599424	65	4264
2026-01-13 21:46:45.90	89.59	14.74	-49.8	-51.1	14.4	0.00e+00	0	27	0	1181745152	65	4288
2026-01-13 21:46:46.90	89.80	14.72	-49.8	-51.1	14.5	0.00e+00	0	27	0	1184890880	65	4273
2026-01-13 21:46:47.89	90.00	14.69	-49.9	-51.2	14.4	0.00e+00	0	27	0	1188036608	65	4329
2026-01-13 21:46:48.88	90.20	14.66	-49.9	-51.3	14.4	0.00e+00	0	27	0	1191182336	65	4343
2026-01-13 21:46:49.88	90.40	14.64	-49.9	-51.3	14.4	0.00e+00	0	27	0	1194328064	65	4351
2026-01-13 21:46:50.88	90.60	14.61	-49.7	-51.0	14.5	0.00e+00	0	27	0	1197473792	65	4229
2026-01-13 21:46:51.88	90.80	14.58	-49.7	-51.0	14.5	0.00e+00	0	27	0	1200619520	65	4238
2026-01-13 21:46:52.88	91.00	14.55	-49.8	-51.2	14.4	0.00e+00	0	27	0	1202716672	65	4315
2026-01-13 21:46:53.88	91.20	14.52	-49.8	-51.2	14.4	0.00e+00	0	27	0	1205862400	65	4304
2026-01-13 21:46:54.87	91.40	14.49	-49.9	-51.2	14.4	0.00e+00	0	27	0	1209008128	65	4337
2026-01-13 21:46:55.87	91.60	14.46	-49.8	-51.1	14.4	0.00e+00	0	27	0	1212153856	65	4272
2026-01-13 21:46:56.87	91.80	14.43	-49.7	-51.1	14.5	0.00e+00	0	27	0	1215299584	65	4249
2026-01-13 21:46:57.86	92.00	14.40	-49.8	-51.2	14.4	0.00e+00	0	27	0	1218445312	65	4305
2026-01-13 21:46:58.85	92.19	14.37	-49.7	-51.1	14.5	0.00e+00	0	27	0	1221591040	65	4243
2026-01-13 21:46:59.86	92.39	14.34	-49.6	-50.9	14.5	0.00e+00	0	27	0	1224736768	65	4188
2026-01-13 21:47:00.86	92.59	14.31	-49.6	-51.0	14.5	0.00e+00	0	27	0	1227882496	65	4210
2026-01-13 21:47:01.85	92.79	14.28	-49.6	-51.0	14.5	0.00e+00	0	27	0	1231028224	65	4196
2026-01-13 21:47:02.85	92.98	14.25	-49.6	-50.9	14.5	0.00e+00	0	27	0	1234173952	65	4170
2026-01-13 21:47:03.85	93.18	14.22	-49.7	-51.0	14.5	0.00e+00	0	27	0	1237319680	65	4211
2026-01-13 21:47:04.85	93.38	14.19	-49.6	-50.9	14.5	0.00e+00	0	27	0	1240465408	65	4170
2026-01-13 21:47:05.85	93.57	14.15	-49.6	-51.0	14.5	0.00e+00	0	27	0	1243611136	65	4206
2026-01-13 21:47:06.85	93.77	14.12	-49.7	-51.1	14.5	0.00e+00	0	27	0	1246756864	65	4249
2026-01-13 21:47:07.85	93.96	14.09	-49.8	-51.1	14.4	0.00e+00	0	27	0	1249902592	65	4265
2026-01-13 21:47:08.84	94.16	14.06	-49.8	-51.1	14.4	0.00e+00	0	27	0	1253048320	65	4267
2026-01-13 21:47:09.83	94.35	14.02	-49.7	-51.0	14.5	0.00e+00	0	27	0	1256194048	65	4224
2026-01-13 21:47:10.83	94.54	13.99	-49.7	-51.0	14.5	0.00e+00	0	27	0	1259339776	65	4211
2026-01-13 21:47:11.83	94.73	13.96	-49.7	-51.1	14.5	0.00e+00	0	27	0	1262485504	65	4244
2026-01-13 21:47:12.83	94.93	13.92	-49.7	-51.0	14.5	0.00e+00	0	27	0	1265631232	65	4214
2026-01-13 21:47:13.83	95.12	13.89	-49.7	-51.0	14.5	0.00e+00	0	27	0	1268776960	65	4233
2026-01-13 21:47:14.82	95.31	13.85	-49.6	-51.0	14.5	0.00e+00	0	27	0	1271922688	65	4206
2026-01-13 21:47:15.82	95.50	13.82	-49.6	-50.9	14.5	0.00e+00	0	27	0	1275068416	65	4181
2026-01-13 21:47:16.81	95.69	13.78	-49.5	-50.9	14.5	0.00e+00	0	27	0	1278214144	65	4147
2026-01-13 21:47:17.80	95.88	13.75	-49.6	-51.0	14.5	0.00e+00	0	27	0	1281359872	65	4208
2026-01-13 21:47:18.80	96.07	13.71	-49.7	-51.0	14.5	0.00e+00	0	27	0	1284505600	65	4211
2026-01-13 21:47:19.80	96.26	13.68	-49.6	-51.0	14.5	0.00e+00	0	27	0	1287651328	65	4204
2026-01-13 21:47:20.79	96.45	13.64	-49.7	-51.0	14.5	0.00e+00	0	27	0	1290797056	65	4218
2026-01-13 21:47:21.79	96.64	13.61	-49.7	-51.1	14.5	0.00e+00	0	27	0	1293942784	65	4250
2026-01-13 21:47:22.79	96.82	13.57	-49.7	-51.1	14.4	0.00e+00	0	27	0	1297088512	65	4251
2026-01-13 21:47:23.78	97.01	13.53	-49.8	-51.2	14.4	0.00e+00	0	27	0	1300234240	65	4303
2026-01-13 21:47:24.78	97.20	13.50	-49.9	-51.3	14.4	0.00e+00	0	27	0	1303379968	65	4351
2026-01-13 21:47:25.78	97.38	13.46	-49.9	-51.3	14.4	0.00e+00	0	27	0	1306525696	65	4359
2026-01-13 21:47:26.77	97.57	13.42	-49.9	-51.2	14.4	0.00e+00	0	27	0	1309671424	65	4337
2026-01-13 21:47:27.77	97.76	13.39	-49.7	-51.1	14.4	0.00e+00	0	27	0	1311768576	65	4265
2026-01-13 21:47:28.77	97.94	13.35	-49.8	-51.1	14.4	0.00e+00	0	27	0	1314914304	65	4277
2026-01-13 21:47:29.76	98.12	13.31	-49.7	-51.1	14.5	0.00e+00	0	27	0	1318060032	65	4244
2026-01-13 21:47:30.76	98.31	13.27	-49.7	-51.0	14.5	0.00e+00	0	27	0	1321205760	65	4232
2026-01-13 21:47:31.76	98.49	13.23	-49.7	-51.1	14.4	0.00e+00	0	27	0	1324351488	65	4255
2026-01-13 21:47:32.76	98.68	13.20	-49.9	-51.2	14.4	0.00e+00	0	27	0	1327497216	65	4337
2026-01-13 21:47:33.75	98.86	13.16	-49.9	-51.2	14.4	0.00e+00	0	27	0	1330642944	65	4332
2026-01-13 21:47:34.74	99.04	13.12	-49.9	-51.3	14.3	0.00e+00	0	27	0	1333788672	65	4380
2026-01-13 21:47:35.74	99.22	13.08	-50.0	-51.3	14.3	0.00e+00	0	27	0	1336934400	65	4383
2026-01-13 21:47:36.74	99.41	13.04	-50.0	-51.4	14.3	0.00e+00	0	27	0	1340080128	65	4428
2026-01-13 21:47:37.74	99.59	13.00	-50.1	-51.5	14.3	0.00e+00	0	27	0	1343225856	65	4448
2026-01-13 21:47:38.73	99.77	12.96	-50.1	-51.5	14.3	0.00e+00	0	27	0	1346371584	65	4444
2026-01-13 21:47:39.73	99.95	12.92	-50.2	-51.6	14.2	0.00e+00	0	27	0	1349517312	65	4524
2026-01-13 21:47:40.73	100.13	12.88	-50.2	-51.7	14.2	0.00e+00	0	27	0	1352663040	65	4548
2026-01-13 21:47:41.72	100.30	12.84	-50.3	-51.7	14.2	0.00e+00	0	27	0	1355808768	65	4563
2026-01-13 21:47:42.71	100.48	12.80	-50.3	-51.7	14.2	0.00e+00	0	27	0	1358954496	65	4581
2026-01-13 21:47:43.70	100.66	12.76	-50.2	-51.6	14.2	0.00e+00	0	27	0	1362100224	65	4544
2026-01-13 21:47:44.70	100.84	12.72	-50.3	-51.7	14.2	0.00e+00	0	27	0	1365245952	65	4594
2026-01-13 21:47:45.69	101.01	12.68	-50.2	-51.6	14.2	0.00e+00	0	27	0	1368391680	65	4533
2026-01-13 21:47:46.68	101.19	12.64	-50.1	-51.5	14.3	0.00e+00	0	27	0	1371537408	65	4467
2026-01-13 21:47:47.68	101.37	12.60	-50.2	-51.6	14.2	0.00e+00	0	27	0	1374683136	65	4540
2026-01-13 21:47:48.68	101.54	12.56	-50.2	-51.6	14.2	0.00e+00	0	27	0	1377828864	65	4506
2026-01-13 21:47:49.68	101.72	12.51	-50.2	-51.6	14.2	0.00e+00	0	27	0	1380974592	65	4527
2026-01-13 21:47:50.67	101.89	12.47	-50.3	-51.8	14.1	0.00e+00	0	27	0	1384120320	65	4603
2026-01-13 21:47:51.68	102.07	12.43	-50.4	-51.9	14.2	0.00e+00	0	27	0	1387266048	66	4401
2026-01-13 21:47:52.68	102.24	12.39	-50.5	-52.0	14.2	0.00e+00	0	27	0	1390411776	66	4458
2026-01-13 21:47:53.68	102.42	12.34	-50.5	-51.9	14.2	0.00e+00	0	27	0	1393557504	66	4428
2026-01-13 21:47:54.68	102.59	12.30	-50.4	-51.8	14.2	0.00e+00	0	27	0	1396703232	66	4388
2026-01-13 21:47:55.66	102.76	12.26	-50.3	-51.8	14.3	0.00e+00	0	27	0	1399848960	66	4357
2026-01-13 21:47:56.66	102.93	12.22	-50.4	-51.8	14.2	0.00e+00	0	27	0	1402994688	66	4381
2026-01-13 21:47:57.66	103.10	12.17	-50.4	-51.8	14.2	0.00e+00	0	27	0	1406140416	66	4384
2026-01-13 21:47:58.67	103.28	12.13	-50.4	-51.8	14.2	0.00e+00	0	27	0	1409286144	66	4378
2026-01-13 21:47:59.67	103.45	12.09	-50.4	-51.9	14.2	0.00e+00	0	27	0	1412431872	66	4404
2026-01-13 21:48:00.67	103.62	12.04	-50.5	-51.9	14.2	0.00e+00	0	27	0	1415577600	66	4436
2026-01-13 21:48:01.67	103.79	12.00	-50.4	-51.9	14.2	0.00e+00	0	27	0	1418723328	66	4403
2026-01-13 21:48:02.67	103.96	11.96	-50.5	-51.9	14.2	0.00e+00	0	27	0	1421869056	66	4432
2026-01-13 21:48:03.66	104.13	11.91	-50.5	-52.0	14.2	0.00e+00	0	27	0	1423966208	66	4453
2026-01-13 21:48:04.66	104.30	11.87	-50.5	-51.9	14.2	0.00e+00	0	27	0	1427111936	66	4427
2026-01-13 21:48:05.65	104.46	11.82	-50.5	-51.9	14.2	0.00e+00	0	27	0	1430257664	66	4421
2026-01-13 21:48:06.65	104.63	11.78	-50.5	-51.9	14.2	0.00e+00	0	27	0	1433403392	66	4430
2026-01-13 21:48:07.65	104.80	11.74	-50.5	-51.9	14.2	0.00e+00	0	27	0	1436549120	66	4431
2026-01-13 21:48:08.65	104.96	11.69	-50.6	-52.1	14.1	0.00e+00	0	27	0	1439694848	66	4531
2026-01-13 21:48:09.66	105.13	11.65	-50.6	-52.0	14.1	0.00e+00	0	27	0	1442840576	66	4488
2026-01-13 21:48:10.66	105.30	11.60	-50.7	-52.2	14.1	0.00e+00	0	27	0	1445986304	66	4564
2026-01-13 21:48:11.66	105.46	11.56	-50.6	-52.1	14.1	0.00e+00	0	27	0	1449132032	66	4532
2026-01-13 21:48:12.66	105.63	11.51	-50.6	-52.1	14.1	0.00e+00	0	27	0	1452277760	66	4530
2026-01-13 21:48:13.66	105.79	11.47	-50.7	-52.1	14.1	0.00e+00	0	27	0	1455423488	66	4542
2026-01-13 21:48:14.67	105.96	11.42	-50.7	-52.2	14.1	0.00e+00	0	27	0	1458569216	66	4552
2026-01-13 21:48:15.66	106.12	11.37	-50.7	-52.2	14.1	0.00e+00	0	27	0	1461714944	66	4569
2026-01-13 21:48:16.67	106.28	11.33	-50.8	-52.3	14.0	0.00e+00	0	27	0	1464860672	66	4625
2026-01-13 21:48:17.66	106.44	11.28	-50.7	-52.2	14.1	0.00e+00	0	27	0	1468006400	66	4569
2026-01-13 21:48:18.66	106.61	11.24	-50.7	-52.2	14.0	0.00e+00	0	27	0	1471152128	66	4582
2026-01-13 21:48:19.66	106.77	11.19	-50.6	-52.1	14.1	0.00e+00	0	27	0	1474297856	66	4541
2026-01-13 21:48:20.66	106.93	11.14	-50.7	-52.2	14.1	0.00e+00	0	27	0	1477443584	66	4590
2026-01-13 21:48:21.66	107.09	11.10	-50.7	-52.2	14.1	0.00e+00	0	27	0	1480589312	66	4572
2026-01-13 21:48:22.66	107.25	11.05	-50.7	-52.2	14.1	0.00e+00	0	27	0	1483735040	66	4548
2026-01-13 21:48:23.66	107.41	11.01	-50.8	-52.3	14.0	0.00e+00	0	27	0	1486880768	66	4635
2026-01-13 21:48:24.66	107.57	10.96	-50.7	-52.2	14.1	0.00e+00	0	27	0	1490026496	66	4593
2026-01-13 21:48:25.65	107.72	10.91	-50.7	-52.2	14.1	0.00e+00	0	27	0	1493172224	66	4592
2026-01-13 21:48:26.64	107.88	10.87	-50.7	-52.2	14.1	0.00e+00	0	27	0	1496317952	66	4585
2026-01-13 21:48:27.64	108.04	10.82	-50.7	-52.2	14.1	0.00e+00	0	27	0	1499463680	66	4586
2026-01-13 21:48:28.64	108.19	10.77	-50.7	-52.2	14.1	0.00e+00	0	27	0	1502609408	66	4570
2026-01-13 21:48:29.64	108.35	10.73	-50.8	-52.3	14.0	0.00e+00	0	27	0	1505755136	66	4633
2026-01-13 21:48:30.64	108.51	10.68	-50.8	-52.3	14.0	0.00e+00	0	27	0	1508900864	66	4606
2026-01-13 21:48:31.64	108.66	10.63	-50.8	-52.4	14.0	0.00e+00	0	27	0	1512046592	66	4661
2026-01-13 21:48:32.64	108.82	10.58	-50.8	-52.3	14.0	0.00e+00	0	27	0	1515192320	66	4645
2026-01-13 21:48:33.64	108.97	10.54	-50.8	-52.4	14.0	0.00e+00	0	27	0	1518338048	66	4673
2026-01-13 21:48:34.63	109.12	10.49	-50.9	-52.5	14.1	0.00e+00	0	27	0	1521483776	67	4444
2026-01-13 21:48:35.63	109.28	10.44	-50.9	-52.4	14.1	0.00e+00	0	27	0	1524629504	67	4423
2026-01-13 21:48:36.62	109.43	10.39	-50.8	-52.4	14.1	0.00e+00	0	27	0	1527775232	67	4402
2026-01-13 21:48:37.62	109.58	10.35	-50.9	-52.5	14.0	0.00e+00	0	27	0	1530920960	67	4448
2026-01-13 21:48:38.61	109.73	10.30	-50.9	-52.4	14.1	0.00e+00	0	27	0	1534066688	67	4429
2026-01-13 21:48:39.61	109.88	10.25	-50.9	-52.5	14.0	0.00e+00	0	27	0	1537212416	67	4462
2026-01-13 21:48:40.60	110.03	10.20	-50.9	-52.5	14.0	0.00e+00	0	27	0	1540358144	67	4464
2026-01-13 21:48:41.60	110.18	10.16	-51.0	-52.6	14.0	0.00e+00	0	27	0	1543503872	67	4519
2026-01-13 21:48:42.59	110.33	10.11	-50.9	-52.4	14.1	0.00e+00	0	27	0	1546649600	67	4422
2026-01-13 21:48:43.59	110.48	10.06	-50.9	-52.4	14.1	0.00e+00	0	27	0	1549795328	67	4428
2026-01-13 21:48:44.58	110.63	10.01	-50.9	-52.4	14.1	0.00e+00	0	27	0	1552941056	67	4436
2026-01-13 21:48:45.58	110.78	9.96	-50.9	-52.4	14.1	0.00e+00	0	27	0	1555038208	67	4439
2026-01-13 21:48:46.58	110.93	9.91	-50.9	-52.4	14.1	0.00e+00	0	27	0	1558183936	67	4418
2026-01-13 21:48:47.58	111.08	9.87	-50.9	-52.4	14.1	0.00e+00	0	27	0	1561329664	67	4438
2026-01-13 21:48:48.57	111.22	9.82	-50.9	-52.4	14.0	0.00e+00	0	27	0	1564475392	67	4435
2026-01-13 21:48:49.57	111.37	9.77	-50.9	-52.4	14.1	0.00e+00	0	27	0	1567621120	67	4438
2026-01-13 21:48:50.56	111.51	9.72	-51.0	-52.6	14.0	0.00e+00	0	27	0	1570766848	67	4527
2026-01-13 21:48:51.55	111.66	9.67	-51.0	-52.6	14.0	0.00e+00	0	27	0	1573912576	67	4517
2026-01-13 21:48:52.55	111.80	9.62	-51.0	-52.5	14.0	0.00e+00	0	27	0	1577058304	67	4484
2026-01-13 21:48:53.55	111.95	9.57	-51.1	-52.6	14.0	0.00e+00	0	27	0	1580204032	67	4534
2026-01-13 21:48:54.55	112.09	9.52	-51.1	-52.6	13.9	0.00e+00	0	27	0	1583349760	67	4538
2026-01-13 21:48:55.55	112.24	9.48	-51.0	-52.6	14.0	0.00e+00	0	27	0	1586495488	67	4522
2026-01-13 21:48:56.54	112.38	9.43	-50.9	-52.5	14.0	0.00e+00	0	27	0	1589641216	67	4464
2026-01-13 21:48:57.54	112.52	9.38	-51.0	-52.5	14.0	0.00e+00	0	27	0	1592786944	67	4486
2026-01-13 21:48:58.53	112.66	9.33	-51.0	-52.6	14.0	0.00e+00	0	27	0	1595932672	67	4535
2026-01-13 21:48:59.53	112.81	9.28	-51.1	-52.7	13.9	0.00e+00	0	27	0	1599078400	67	4559
2026-01-13 21:49:00.53	112.95	9.23	-50.9	-52.5	14.0	0.00e+00	0	27	0	1602224128	67	4483
2026-01-13 21:49:01.53	113.09	9.18	-51.0	-52.5	14.0	0.00e+00	0	27	0	1605369856	67	4476
2026-01-13 21:49:02.52	113.23	9.13	-51.0	-52.6	14.0	0.00e+00	0	27	0	1608515584	67	4496
2026-01-13 21:49:03.53	113.37	9.08	-51.0	-52.6	14.0	0.00e+00	0	27	0	1611661312	67	4531
2026-01-13 21:49:04.53	113.51	9.03	-51.1	-52.7	13.9	0.00e+00	0	27	0	1614807040	67	4576
2026-01-13 21:49:05.53	113.65	8.98	-51.1	-52.7	13.9	0.00e+00	0	27	0	1617952768	67	4591
2026-01-13 21:49:06.52	113.79	8.93	-51.1	-52.7	13.9	0.00e+00	0	27	0	1621098496	67	4586
2026-01-13 21:49:07.52	113.93	8.88	-51.0	-52.6	13.9	0.00e+00	0	27	0	1624244224	67	4517
2026-01-13 21:49:08.53	114.07	8.83	-51.0	-52.5	14.0	0.00e+00	0	27	0	1627389952	67	4489
2026-01-13 21:49:09.53	114.20	8.78	-51.0	-52.5	14.0	0.00e+00	0	27	0	1630535680	67	4488
2026-01-13 21:49:10.46	114.33	8.74	-51.0	-52.6	14.0	0.00e+00	0	27	0	1633681408	67	4505
2026-01-13 21:49:11.47	114.47	8.69	-51.1	-52.7	13.9	0.00e+00	0	27	0	1636827136	67	4559
2026-01-13 21:49:12.47	114.61	8.64	-51.1	-52.8	13.9	0.00e+00	0	27	0	1639972864	67	4599
2026-01-13 21:49:13.47	114.74	8.59	-51.3	-52.9	13.8	0.00e+00	0	27	0	1643118592	67	4672
2026-01-13 21:49:14.47	114.88	8.54	-51.3	-52.9	13.8	0.00e+00	0	27	0	1646264320	67	4658
2026-01-13 21:49:15.46	115.01	8.49	-51.2	-52.8	13.8	0.00e+00	0	27	0	1649410048	67	4642
2026-01-13 21:49:16.46	115.15	8.44	-51.1	-52.7	13.9	0.00e+00	0	27	0	1652555776	67	4598
2026-01-13 21:49:17.46	115.28	8.39	-51.1	-52.7	13.9	0.00e+00	0	27	0	1655701504	67	4578
2026-01-13 21:49:18.46	115.41	8.34	-51.1	-52.7	13.9	0.00e+00	0	27	0	1658847232	67	4570
2026-01-13 21:49:19.46	115.55	8.29	-51.2	-52.8	13.8	0.00e+00	0	27	0	1661992960	67	4622
2026-01-13 21:49:20.45	115.68	8.24	-51.3	-53.0	13.8	0.00e+00	0	27	0	1665138688	67	4706
2026-01-13 21:49:21.46	115.81	8.19	-51.3	-53.0	13.7	0.00e+00	0	27	0	1667235840	67	4735
2026-01-13 21:49:22.45	115.94	8.14	-51.6	-53.3	13.7	0.00e+00	0	27	0	1670381568	68	4614
2026-01-13 21:49:23.45	116.07	8.09	-51.5	-53.2	13.8	0.00e+00	0	27	0	1673527296	68	4555
2026-01-13 21:49:24.45	116.21	8.04	-51.5	-53.2	13.8	0.00e+00	0	27	0	1676673024	68	4558
2026-01-13 21:49:25.45	116.34	7.98	-51.5	-53.2	13.7	0.00e+00	0	27	0	1679818752	68	4590
2026-01-13 21:49:26.45	116.47	7.93	-51.5	-53.2	13.7	0.00e+00	0	27	0	1682964480	68	4571
2026-01-13 21:49:27.45	116.60	7.88	-51.6	-53.3	13.7	0.00e+00	0	27	0	1686110208	68	4605
2026-01-13 21:49:28.44	116.72	7.83	-51.6	-53.3	13.7	0.00e+00	0	27	0	1689255936	68	4631
2026-01-13 21:49:29.44	116.85	7.78	-51.8	-53.5	13.6	0.00e+00	0	27	0	1692401664	68	4750
2026-01-13 21:49:30.44	116.98	7.73	-51.8	-53.6	13.6	0.00e+00	0	27	0	1695547392	68	4760
2026-01-13 21:49:31.44	117.11	7.68	-51.8	-53.6	13.5	0.00e+00	0	27	0	1698693120	68	4764
2026-01-13 21:49:32.44	117.24	7.63	-51.8	-53.6	13.5	0.00e+00	0	27	0	1701838848	68	4798
2026-01-13 21:49:33.44	117.36	7.58	-51.8	-53.6	13.5	0.00e+00	0	27	0	1704984576	68	4790
2026-01-13 21:49:34.43	117.49	7.53	-51.8	-53.6	13.5	0.00e+00	0	27	0	1708130304	68	4793
2026-01-13 21:49:35.43	117.62	7.48	-51.8	-53.6	13.5	0.00e+00	0	27	0	1711276032	68	4808
2026-01-13 21:49:36.42	117.74	7.43	-51.8	-53.6	13.5	0.00e+00	0	27	0	1714421760	68	4809
2026-01-13 21:49:37.42	117.87	7.38	-52.0	-53.8	13.5	0.00e+00	0	27	0	1717567488	69	4626
2026-01-13 21:49:38.42	117.99	7.33	-51.7	-53.4	13.7	0.00e+00	0	27	0	1720713216	69	4420
2026-01-13 21:49:39.42	118.12	7.28	-51.7	-53.4	13.7	0.00e+00	0	27	0	1723858944	69	4439
2026-01-13 21:49:40.42	118.24	7.23	-51.8	-53.6	13.6	0.00e+00	0	27	0	1727004672	69	4507
2026-01-13 21:49:41.41	118.36	7.18	-51.8	-53.5	13.6	0.00e+00	0	27	0	1730150400	69	4490
2026-01-13 21:49:42.41	118.49	7.13	-51.8	-53.6	13.6	0.00e+00	0	27	0	1733296128	69	4507
2026-01-13 21:49:43.41	118.61	7.08	-51.8	-53.6	13.6	0.00e+00	0	27	0	1736441856	69	4521
2026-01-13 21:49:44.40	118.73	7.03	-51.8	-53.5	13.6	0.00e+00	0	27	0	1739587584	69	4478
2026-01-13 21:49:45.39	118.85	6.98	-51.8	-53.6	13.6	0.00e+00	0	27	0	1742733312	69	4529
2026-01-13 21:49:46.38	118.97	6.93	-51.7	-53.5	13.6	0.00e+00	0	27	0	1745879040	69	4465
2026-01-13 21:49:47.38	119.09	6.88	-51.8	-53.6	13.6	0.00e+00	0	27	0	1749024768	69	4502
2026-01-13 21:49:48.37	119.21	6.83	-51.8	-53.6	13.5	0.00e+00	0	27	0	1752170496	69	4543
2026-01-13 21:49:49.37	119.33	6.77	-51.8	-53.7	13.5	0.00e+00	0	27	0	1755316224	69	4546
2026-01-13 21:49:50.37	119.46	6.72	-51.7	-53.4	13.6	0.00e+00	0	27	0	1758461952	69	4439
2026-01-13 21:49:51.35	119.57	6.67	-51.7	-53.5	13.6	0.00e+00	0	27	0	1761607680	69	4461
2026-01-13 21:49:52.34	119.69	6.62	-51.7	-53.5	13.6	0.00e+00	0	27	0	1764753408	69	4485
2026-01-13 21:49:53.34	119.81	6.57	-51.8	-53.6	13.5	0.00e+00	0	27	0	1767899136	69	4542
2026-01-13 21:49:54.34	119.93	6.52	-51.7	-53.5	13.6	0.00e+00	0	27	0	1771044864	69	4493
2026-01-13 21:49:55.33	120.05	6.47	-51.8	-53.6	13.5	0.00e+00	0	27	0	1774190592	69	4532
2026-01-13 21:49:56.32	120.16	6.42	-51.8	-53.6	13.5	0.00e+00	0	27	0	1776287744	69	4535
2026-01-13 21:49:57.31	120.28	6.37	-51.8	-53.7	13.5	0.00e+00	0	27	0	1779433472	69	4571
2026-01-13 21:49:58.32	120.40	6.32	-51.9	-53.8	13.4	0.00e+00	0	27	0	1782579200	69	4641
2026-01-13 21:49:59.32	120.51	6.27	-51.9	-53.8	13.4	0.00e+00	0	27	0	1785724928	69	4603
2026-01-13 21:50:00.30	120.63	6.22	-52.1	-54.0	13.3	0.00e+00	0	27	0	1788870656	69	4750
2026-01-13 21:50:01.30	120.74	6.17	-52.1	-54.1	13.3	0.00e+00	0	27	0	1792016384	69	4771
2026-01-13 21:50:02.30	120.86	6.12	-52.1	-54.1	13.3	0.00e+00	0	27	0	1795162112	69	4760
2026-01-13 21:50:03.31	120.98	6.07	-52.1	-54.0	13.3	0.00e+00	0	27	0	1798307840	69	4739
2026-01-13 21:50:04.31	121.09	6.02	-52.0	-53.9	13.4	0.00e+00	0	27	0	1801453568	69	4661
2026-01-13 21:50:05.31	121.20	5.97	-52.0	-53.9	13.3	0.00e+00	0	27	0	1804599296	69	4705
2026-01-13 21:50:06.30	121.32	5.91	-52.0	-53.9	13.3	0.00e+00	0	27	0	1807745024	69	4686
2026-01-13 21:50:07.30	121.43	5.86	-51.9	-53.7	13.4	0.00e+00	0	27	0	1810890752	69	4594
2026-01-13 21:50:08.31	121.55	5.81	-51.8	-53.7	13.4	0.00e+00	0	27	0	1814036480	69	4580
2026-01-13 21:50:09.31	121.66	5.76	-51.9	-53.9	13.3	0.00e+00	0	27	0	1817182208	69	4652
2026-01-13 21:50:10.30	121.77	5.71	-52.0	-53.9	13.3	0.00e+00	0	27	0	1820327936	69	4657
2026-01-13 21:50:11.30	121.88	5.66	-52.0	-54.0	13.3	0.00e+00	0	27	0	1823473664	69	4719
2026-01-13 21:50:12.31	122.00	5.61	-51.9	-53.8	13.4	0.00e+00	0	27	0	1826619392	69	4605
2026-01-13 21:50:13.31	122.11	5.56	-51.9	-53.8	13.3	0.00e+00	0	27	0	1829765120	69	4630
2026-01-13 21:50:14.31	122.22	5.51	-52.0	-53.9	13.3	0.00e+00	0	27	0	1832910848	69	4696
2026-01-13 21:50:15.30	122.33	5.46	-52.1	-54.0	13.2	0.00e+00	0	27	0	1836056576	69	4746
2026-01-13 21:50:16.30	122.44	5.41	-52.1	-54.1	13.2	0.00e+00	0	27	0	1839202304	69	4779
2026-01-13 21:50:17.30	122.55	5.36	-52.0	-54.0	13.2	0.00e+00	0	27	0	1842348032	69	4715
2026-01-13 21:50:18.29	122.66	5.31	-51.9	-53.8	13.3	0.00e+00	0	27	0	1845493760	69	4611
2026-01-13 21:50:19.29	122.77	5.26	-51.9	-53.9	13.3	0.00e+00	0	27	0	1848639488	69	4658
2026-01-13 21:50:20.28	122.87	5.21	-52.0	-54.0	13.2	0.00e+00	0	27	0	1851785216	69	4725
2026-01-13 21:50:21.28	122.98	5.16	-52.0	-54.0	13.2	0.00e+00	0	27	0	1854930944	69	4748
2026-01-13 21:50:22.27	123.09	5.11	-52.0	-54.0	13.1	0.00e+00	0	27	0	1858076672	69	4756
2026-01-13 21:50:23.26	123.20	5.06	-52.0	-54.0	13.1	0.00e+00	0	27	0	1861222400	69	4750
2026-01-13 21:50:24.26	123.30	5.00	-52.1	-54.1	13.1	0.00e+00	0	27	0	1864368128	69	4778
2026-01-13 21:50:25.27	123.41	4.95	-58.3	-71.3	3.8	1.25e+00	0	27	104	1866465280	81	17435
2026-01-13 21:50:26.27	123.52	4.90	-58.7	-72.3	3.8	1.49e+00	0	27	104	1866465280	82	18396
2026-01-13 21:50:27.27	123.62	4.85	-59.0	-72.8	3.8	1.49e+00	0	27	104	1866465280	83	18315
2026-01-13 21:50:28.28	123.73	4.80	-59.2	-73.0	3.8	1.49e+00	0	27	104	1866465280	83	18849
2026-01-13 21:50:29.28	123.84	4.75	-59.3	-73.2	3.8	1.49e+00	0	27	104	1866465280	83	19213
2026-01-13 21:50:30.27	123.94	4.70	-59.7	-73.5	3.8	1.49e+00	0	27	104	1866465280	84	18824
2026-01-13 21:50:31.27	124.05	4.65	-59.8	-73.6	3.8	1.49e+00	0	27	104	1866465280	84	19034
2026-01-13 21:50:32.27	124.15	4.60	-59.8	-73.7	3.8	1.49e+00	0	28	104	1866465280	84	19207
2026-01-13 21:50:33.26	124.25	4.55	-59.9	-73.8	3.8	1.49e+00	0	27	104	1866465280	85	18371
2026-01-13 21:50:34.26	124.36	4.50	-60.0	-73.9	3.8	1.49e+00	0	27	104	1866465280	85	18534
2026-01-13 21:50:35.25	124.46	4.45	-60.1	-73.9	3.8	1.49e+00	0	27	104	1866465280	85	18652
2026-01-13 21:50:36.24	124.56	4.40	-60.1	-74.0	3.8	1.49e+00	0	27	104	1866465280	85	18849
2026-01-13 21:50:37.24	124.67	4.35	-60.1	-74.0	3.8	1.49e+00	0	27	104	1866465280	85	18808
2026-01-13 21:50:38.25	124.77	4.30	-60.2	-74.0	3.8	1.49e+00	0	27	104	1866465280	85	18905
2026-01-13 21:50:39.25	124.87	4.25	-60.2	-74.1	3.8	1.49e+00	0	27	104	1866465280	85	18955
2026-01-13 21:50:40.25	124.97	4.20	-60.2	-74.1	3.8	1.49e+00	0	27	104	1866465280	85	19010
2026-01-13 21:50:41.25	125.07	4.15	-60.3	-74.1	3.8	1.49e+00	0	27	104	1866465280	85	19092
2026-01-13 21:50:42.24	125.17	4.10	-60.3	-74.1	3.8	1.49e+00	0	27	104	1866465280	85	19161
2026-01-13 21:50:43.23	125.27	4.05	-60.3	-74.2	3.8	1.49e+00	0	27	104	1866465280	85	19232
2026-01-13 21:50:44.23	125.38	4.00	-60.3	-74.2	3.8	1.49e+00	0	27	104	1866465280	85	19279
2026-01-13 21:50:45.23	125.48	3.95	-60.4	-74.2	3.8	1.49e+00	0	27	104	1866465280	85	19304
2026-01-13 21:50:46.22	125.57	3.90	-60.4	-74.2	3.8	1.49e+00	0	27	104	1866465280	85	19344
2026-01-13 21:50:47.21	125.67	3.85	-60.4	-74.3	3.8	1.49e+00	0	28	104	1866465280	85	19407
2026-01-13 21:50:48.20	125.77	3.80	-60.4	-74.3	3.8	1.49e+00	0	27	104	1866465280	85	19391
2026-01-13 21:50:49.20	125.87	3.75	-60.5	-74.3	3.8	1.49e+00	0	27	104	1866465280	86	18502
2026-01-13 21:50:50.20	125.97	3.70	-60.5	-74.3	3.8	1.49e+00	0	27	104	1866465280	86	18509
2026-01-13 21:50:51.20	126.07	3.65	-60.5	-74.3	3.8	1.49e+00	0	27	104	1866465280	86	18470
2026-01-13 21:50:52.18	126.16	3.60	-60.4	-74.3	3.8	1.49e+00	0	27	104	1866465280	86	18409
2026-01-13 21:50:53.19	126.26	3.55	-60.4	-74.3	3.8	1.49e+00	0	27	104	1866465280	86	18327
2026-01-13 21:50:54.19	126.36	3.50	-60.4	-74.2	3.8	1.49e+00	0	27	104	1866465280	86	18302
2026-01-13 21:50:55.18	126.46	3.45	-60.4	-74.3	3.8	1.49e+00	0	27	104	1866465280	86	18334
2026-01-13 21:50:56.19	126.55	3.40	-60.4	-74.3	3.8	1.49e+00	0	27	104	1866465280	86	18375
2026-01-13 21:50:57.18	126.65	3.35	-60.4	-74.3	3.8	1.49e+00	0	27	104	1866465280	86	18313
2026-01-13 21:50:58.18	126.75	3.30	-60.4	-74.2	3.8	1.49e+00	0	27	104	1866465280	86	18240
2026-01-13 21:50:59.18	126.84	3.25	-60.4	-74.2	3.8	1.49e+00	0	27	104	1866465280	86	18280
2026-01-13 21:51:00.18	126.94	3.20	-60.4	-74.3	3.8	1.49e+00	0	27	104	1866465280	86	18314
2026-01-13 21:51:01.18	127.03	3.15	-60.4	-74.2	3.8	1.49e+00	0	28	104	1866465280	86	18235
2026-01-13 21:51:02.17	127.13	3.10	-60.4	-74.3	3.8	1.49e+00	0	27	104	1866465280	86	18306
2026-01-13 21:51:03.18	127.22	3.05	-60.4	-74.2	3.8	1.49e+00	0	27	104	1866465280	86	18238
2026-01-13 21:51:04.18	127.32	3.00	-60.3	-74.2	3.8	1.49e+00	0	28	104	1866465280	86	18183
2026-01-13 21:51:05.19	127.41	2.95	-60.3	-74.2	3.8	1.49e+00	0	28	104	1866465280	86	18196
