passes_logs/2026/01/13/R3.2S_Murmansk/R3.2S_Murmansk__20260113_052842_NOAA_20_JPSS-1_rec.log

#Pass ID: 20260113_052842_NOAA 20 (JPSS-1)
#Satellite: NOAA 20 (JPSS-1)
#Configuration: NOAA 20
#almurnet v.1.7.20251203
#Start time: 2026-01-13 05:28:41

#Version: 2.2.20231116
#Station: R3.2S_Murmansk
#Location: 33.079688 lon 68.888172 lat
#TLE: 1 43013U 17073A   26012.29914746  .00000087  00000+0  62270-4 0  9997
#TLE: 2 43013  98.7632 313.2670 0001616  43.2193 316.9110 14.19535514422351

#Time	Az	El	Level	Level2	SNR	BER	BlckErr	Temp	State	Recorded	gain1	gain2
2026-01-13 05:28:41.88	67.05	1.98	-57.0	-73.0	3.8	1.49e+00	0	20	0	0	80	22380
2026-01-13 05:28:42.88	66.99	2.03	-57.0	-73.0	3.8	1.49e+00	0	20	104	0	79	23629
2026-01-13 05:28:43.87	66.92	2.09	-57.0	-73.0	3.8	1.49e+00	0	20	104	0	79	23659
2026-01-13 05:28:44.88	66.86	2.15	-57.0	-72.9	3.8	1.49e+00	0	20	104	0	79	23568
2026-01-13 05:28:45.88	66.79	2.20	-57.0	-72.9	3.8	1.49e+00	0	20	104	0	79	23529
2026-01-13 05:28:46.89	66.73	2.26	-57.0	-72.9	3.8	1.49e+00	0	20	104	0	79	23547
2026-01-13 05:28:47.89	66.66	2.32	-57.0	-72.9	3.8	1.49e+00	0	20	104	0	79	23535
2026-01-13 05:28:48.89	66.60	2.38	-57.0	-72.9	3.8	1.49e+00	0	20	104	0	79	23553
2026-01-13 05:28:49.90	66.53	2.43	-57.0	-72.9	3.8	1.49e+00	0	20	104	0	79	23524
2026-01-13 05:28:50.90	66.47	2.49	-57.0	-72.9	3.8	1.49e+00	0	20	104	0	79	23473
2026-01-13 05:28:51.90	66.40	2.55	-57.0	-72.9	3.8	1.49e+00	0	20	104	0	79	23540
2026-01-13 05:28:52.90	66.34	2.61	-57.0	-72.9	3.8	1.49e+00	0	20	104	0	79	23509
2026-01-13 05:28:53.90	66.27	2.66	-57.0	-73.0	3.8	1.49e+00	0	20	104	0	79	23585
2026-01-13 05:28:54.90	66.20	2.72	-57.0	-72.9	3.8	1.49e+00	0	20	104	0	79	23500
2026-01-13 05:28:55.90	66.14	2.78	-57.0	-72.9	3.8	1.49e+00	0	20	104	0	79	23560
2026-01-13 05:28:56.89	66.07	2.84	-57.0	-72.9	3.8	1.49e+00	0	20	104	0	79	23556
2026-01-13 05:28:57.89	66.00	2.89	-57.0	-72.9	3.8	1.49e+00	0	21	104	0	79	23469
2026-01-13 05:28:58.89	65.94	2.95	-57.0	-73.0	3.8	1.49e+00	0	21	104	0	79	23618
2026-01-13 05:28:59.90	65.87	3.01	-57.0	-72.9	3.8	1.49e+00	0	21	104	0	79	23579
2026-01-13 05:29:00.89	65.80	3.07	-57.0	-73.0	3.8	1.49e+00	0	20	104	0	79	23649
2026-01-13 05:29:01.89	65.73	3.13	-57.0	-73.0	3.8	1.49e+00	0	20	104	0	79	23669
2026-01-13 05:29:02.89	65.66	3.19	-57.0	-72.9	3.8	1.49e+00	0	20	104	0	79	23579
2026-01-13 05:29:03.88	65.59	3.24	-57.0	-72.9	3.8	1.49e+00	0	20	104	0	79	23541
2026-01-13 05:29:04.87	65.52	3.30	-57.0	-72.9	3.8	1.49e+00	0	21	104	0	79	23560
2026-01-13 05:29:05.86	65.46	3.36	-57.0	-72.9	3.8	1.49e+00	0	21	104	0	79	23449
2026-01-13 05:29:06.87	65.39	3.42	-57.0	-72.9	3.8	1.49e+00	0	20	104	0	79	23544
2026-01-13 05:29:07.87	65.32	3.48	-57.0	-72.9	3.8	1.49e+00	0	21	104	0	79	23518
2026-01-13 05:29:08.86	65.25	3.54	-57.0	-73.0	3.8	1.49e+00	0	21	104	0	79	23599
2026-01-13 05:29:09.86	65.17	3.59	-57.0	-73.0	3.8	1.49e+00	0	21	104	0	79	23649
2026-01-13 05:29:10.86	65.10	3.65	-57.0	-73.0	3.8	1.49e+00	0	21	104	0	79	23664
2026-01-13 05:29:11.85	65.03	3.71	-57.0	-73.0	3.8	1.49e+00	0	21	104	0	79	23609
2026-01-13 05:29:12.86	64.96	3.77	-57.0	-73.0	3.8	1.49e+00	0	21	104	0	79	23583
2026-01-13 05:29:13.85	64.89	3.83	-57.0	-72.9	3.8	1.49e+00	0	21	104	0	79	23521
2026-01-13 05:29:14.85	64.82	3.89	-57.0	-72.9	3.8	1.49e+00	0	21	104	0	79	23385
2026-01-13 05:29:15.85	64.74	3.95	-57.0	-72.9	3.8	1.49e+00	0	21	104	0	79	23386
2026-01-13 05:29:16.84	64.67	4.01	-57.0	-72.9	3.8	1.49e+00	0	21	104	0	79	23468
2026-01-13 05:29:17.85	64.60	4.07	-57.0	-73.0	3.8	1.49e+00	0	21	104	0	79	23616
2026-01-13 05:29:18.86	64.52	4.13	-57.0	-73.0	3.8	1.49e+00	0	21	104	0	79	23638
2026-01-13 05:29:19.86	64.45	4.19	-57.0	-72.9	3.8	1.49e+00	0	21	104	0	79	23515
2026-01-13 05:29:20.85	64.38	4.25	-57.0	-72.8	3.8	1.49e+00	0	21	104	0	79	23111
2026-01-13 05:29:21.86	64.30	4.31	-57.0	-72.4	3.8	1.49e+00	0	21	104	0	79	22077
2026-01-13 05:29:22.86	64.23	4.37	-57.0	-71.8	3.8	1.49e+00	0	21	104	0	79	20685
2026-01-13 05:29:23.86	64.15	4.43	-56.9	-71.2	3.8	1.49e+00	0	21	104	0	79	19312
2026-01-13 05:29:24.87	64.07	4.49	-56.9	-70.3	4.0	1.48e+00	0	21	104	0	79	17398
2026-01-13 05:29:25.87	64.00	4.55	-56.9	-69.5	4.2	1.42e+00	0	21	0	0	79	15842
2026-01-13 05:29:26.88	63.92	4.61	-56.8	-68.8	4.4	1.33e+00	57	21	0	0	79	14551
2026-01-13 05:29:27.89	63.84	4.67	-56.7	-67.5	4.9	9.44e-01	0	21	0	2097152	79	12605
2026-01-13 05:29:28.90	63.77	4.73	-56.7	-67.3	5.0	6.35e-01	0	21	0	4194304	79	12261
2026-01-13 05:29:29.90	63.69	4.79	-56.6	-66.3	5.6	5.22e-01	0	21	0	6291456	79	10925
2026-01-13 05:29:30.90	63.61	4.85	-56.6	-66.0	5.8	3.99e-01	0	21	0	7340032	79	10534
2026-01-13 05:29:31.90	63.53	4.91	-56.5	-65.4	6.2	2.73e-01	0	21	0	9437184	79	9884
2026-01-13 05:29:32.91	63.46	4.98	-56.5	-65.2	6.3	2.18e-01	0	21	0	11534336	79	9717
2026-01-13 05:29:33.90	63.38	5.04	-56.5	-65.2	6.4	2.08e-01	0	21	0	13631488	79	9612
2026-01-13 05:29:34.90	63.30	5.10	-55.8	-61.7	9.6	1.04e-02	0	21	0	15728640	78	6876
2026-01-13 05:29:35.90	63.22	5.16	-55.2	-59.9	11.2	1.20e-03	0	21	0	16777216	77	5887
2026-01-13 05:29:36.89	63.14	5.22	-56.8	-70.6	3.9	1.43e-01	0	21	0	18874368	78	19111
2026-01-13 05:29:37.89	63.06	5.28	-56.6	-65.3	6.4	9.97e-01	0	21	0	18874368	78	10408
2026-01-13 05:29:38.89	62.98	5.34	-55.4	-60.5	10.6	3.15e-04	0	21	0	20971520	76	6717
2026-01-13 05:29:39.89	62.90	5.40	-55.0	-59.6	11.3	1.29e-03	0	21	0	23068672	76	6035
2026-01-13 05:29:40.89	62.82	5.47	-55.0	-59.4	11.5	1.24e-04	0	21	0	25165824	76	5895
2026-01-13 05:29:41.89	62.74	5.53	-54.7	-58.7	12.2	3.58e-05	0	21	0	26214400	76	5416
2026-01-13 05:29:42.88	62.66	5.59	-54.1	-57.6	12.9	3.80e-06	0	21	0	28311552	74	5396
2026-01-13 05:29:43.88	62.57	5.65	-53.9	-57.3	13.1	0.00e+00	0	21	0	30408704	74	5172
2026-01-13 05:29:44.89	62.49	5.71	-53.9	-57.2	13.2	0.00e+00	0	21	0	32505856	74	5121
2026-01-13 05:29:45.89	62.41	5.77	-53.9	-57.3	13.1	0.00e+00	0	21	0	34603008	74	5181
2026-01-13 05:29:46.89	62.33	5.84	-53.9	-57.3	13.1	0.00e+00	0	21	0	35651584	74	5170
2026-01-13 05:29:47.89	62.24	5.90	-53.9	-57.2	13.2	0.00e+00	0	21	0	37748736	74	5137
2026-01-13 05:29:48.90	62.16	5.96	-53.8	-57.1	13.3	7.00e-07	0	21	0	39845888	74	5074
2026-01-13 05:29:49.89	62.07	6.02	-53.8	-57.1	13.3	0.00e+00	0	21	0	41943040	74	5061
2026-01-13 05:29:50.89	61.99	6.09	-53.8	-57.1	13.3	0.00e+00	0	21	0	42991616	74	5053
2026-01-13 05:29:51.89	61.90	6.15	-53.7	-56.9	13.5	0.00e+00	0	21	0	45088768	74	4936
2026-01-13 05:29:52.89	61.82	6.21	-53.8	-57.0	13.4	0.00e+00	0	21	0	47185920	74	5001
2026-01-13 05:29:53.89	61.73	6.27	-53.8	-56.9	13.4	0.00e+00	0	21	0	49283072	74	4977
2026-01-13 05:29:54.90	61.65	6.34	-53.8	-56.9	13.5	0.00e+00	0	21	0	51380224	74	4944
2026-01-13 05:29:55.89	61.56	6.40	-53.9	-57.1	13.3	0.00e+00	0	21	0	52428800	74	5051
2026-01-13 05:29:56.89	61.47	6.46	-53.7	-56.8	13.5	0.00e+00	0	21	0	54525952	74	4926
2026-01-13 05:29:57.89	61.39	6.53	-53.9	-57.0	13.4	0.00e+00	0	21	0	56623104	74	5038
2026-01-13 05:29:58.88	61.30	6.59	-53.8	-57.0	13.4	0.00e+00	0	21	0	58720256	74	5005
2026-01-13 05:29:59.88	61.21	6.65	-53.8	-57.0	13.4	0.00e+00	0	21	0	60817408	74	4986
2026-01-13 05:30:00.87	61.12	6.72	-53.9	-57.1	13.3	0.00e+00	0	21	0	61865984	74	5095
2026-01-13 05:30:01.87	61.04	6.78	-53.9	-57.1	13.3	0.00e+00	0	21	0	63963136	74	5049
2026-01-13 05:30:02.87	60.95	6.84	-53.9	-57.0	13.4	0.00e+00	0	21	0	66060288	74	5020
2026-01-13 05:30:03.87	60.86	6.91	-53.9	-57.1	13.3	0.00e+00	0	21	0	68157440	74	5067
2026-01-13 05:30:04.87	60.77	6.97	-53.9	-57.1	13.4	0.00e+00	0	21	0	69206016	74	5047
2026-01-13 05:30:05.87	60.68	7.03	-53.9	-57.0	13.4	0.00e+00	0	22	0	71303168	74	5032
2026-01-13 05:30:06.87	60.58	7.10	-54.0	-57.3	13.2	0.00e+00	0	21	0	73400320	74	5170
2026-01-13 05:30:07.87	60.49	7.16	-53.9	-57.1	13.3	0.00e+00	0	21	0	75497472	74	5098
2026-01-13 05:30:08.86	60.40	7.22	-53.8	-56.9	13.5	0.00e+00	0	21	0	77594624	74	4971
2026-01-13 05:30:09.85	60.31	7.29	-53.9	-57.0	13.4	0.00e+00	0	22	0	78643200	74	5036
2026-01-13 05:30:10.84	60.22	7.35	-53.9	-57.0	13.4	0.00e+00	0	21	0	80740352	74	5031
2026-01-13 05:30:11.84	60.13	7.42	-53.8	-57.0	13.5	0.00e+00	0	21	0	82837504	74	4993
2026-01-13 05:30:12.84	60.03	7.48	-53.8	-56.9	13.5	0.00e+00	0	21	0	84934656	74	4972
2026-01-13 05:30:13.84	59.94	7.55	-53.9	-57.0	13.4	0.00e+00	0	21	0	85983232	74	5016
2026-01-13 05:30:14.84	59.85	7.61	-53.9	-57.0	13.4	0.00e+00	0	21	0	88080384	74	5029
2026-01-13 05:30:15.84	59.75	7.67	-53.8	-56.9	13.5	0.00e+00	0	21	0	90177536	74	4983
2026-01-13 05:30:16.84	59.66	7.74	-53.8	-56.8	13.6	0.00e+00	0	21	0	92274688	74	4892
2026-01-13 05:30:17.83	59.56	7.80	-53.8	-56.8	13.6	0.00e+00	0	21	0	94371840	74	4906
2026-01-13 05:30:18.83	59.46	7.87	-53.8	-56.8	13.6	0.00e+00	0	21	0	95420416	74	4902
2026-01-13 05:30:19.83	59.37	7.93	-53.7	-56.7	13.7	0.00e+00	0	21	0	97517568	74	4850
2026-01-13 05:30:20.84	59.27	8.00	-53.8	-56.8	13.6	0.00e+00	0	21	0	99614720	74	4921
2026-01-13 05:30:21.84	59.17	8.07	-53.7	-56.8	13.7	0.00e+00	0	21	0	101711872	74	4871
2026-01-13 05:30:22.84	59.08	8.13	-53.6	-56.5	13.7	0.00e+00	0	21	0	103809024	73	5032
2026-01-13 05:30:23.85	58.98	8.20	-53.7	-56.6	13.6	0.00e+00	0	21	0	104857600	73	5085
2026-01-13 05:30:24.84	58.88	8.26	-53.6	-56.5	13.7	0.00e+00	0	22	0	106954752	73	5011
2026-01-13 05:30:25.84	58.78	8.33	-53.5	-56.4	13.8	0.00e+00	0	21	0	109051904	73	4948
2026-01-13 05:30:26.84	58.68	8.39	-53.5	-56.4	13.8	0.00e+00	0	21	0	111149056	73	4962
2026-01-13 05:30:27.84	58.58	8.46	-53.4	-56.2	13.9	0.00e+00	0	21	0	113246208	73	4855
2026-01-13 05:30:28.85	58.48	8.53	-53.4	-56.2	13.9	0.00e+00	0	22	0	114294784	73	4860
2026-01-13 05:30:29.84	58.38	8.59	-53.5	-56.3	13.9	0.00e+00	0	22	0	116391936	73	4907
2026-01-13 05:30:30.84	58.28	8.66	-53.4	-56.1	14.0	0.00e+00	0	21	0	118489088	73	4799
2026-01-13 05:30:31.84	58.17	8.72	-53.4	-56.1	14.0	0.00e+00	0	21	0	120586240	73	4806
2026-01-13 05:30:32.84	58.07	8.79	-53.5	-56.3	13.9	0.00e+00	0	21	0	121634816	73	4899
2026-01-13 05:30:33.84	57.97	8.85	-53.4	-56.1	14.0	0.00e+00	0	22	0	123731968	73	4790
2026-01-13 05:30:34.83	57.87	8.92	-53.4	-56.1	14.0	0.00e+00	0	21	0	125829120	73	4797
2026-01-13 05:30:35.83	57.76	8.99	-53.3	-56.0	14.1	0.00e+00	0	22	0	127926272	73	4732
2026-01-13 05:30:36.83	57.66	9.05	-53.3	-56.0	14.1	0.00e+00	0	22	0	130023424	73	4723
2026-01-13 05:30:37.83	57.55	9.12	-53.4	-56.2	14.0	0.00e+00	0	22	0	131072000	73	4819
2026-01-13 05:30:38.84	57.45	9.19	-53.5	-56.2	13.9	0.00e+00	0	22	0	133169152	73	4851
2026-01-13 05:30:39.84	57.34	9.25	-53.5	-56.2	13.9	0.00e+00	0	22	0	135266304	73	4866
2026-01-13 05:30:40.84	57.23	9.32	-53.5	-56.2	14.0	0.00e+00	0	22	0	137363456	73	4854
2026-01-13 05:30:41.83	57.13	9.39	-53.4	-56.2	14.0	0.00e+00	0	21	0	139460608	73	4844
2026-01-13 05:30:42.83	57.02	9.45	-53.4	-56.1	14.0	0.00e+00	0	22	0	140509184	73	4800
2026-01-13 05:30:43.83	56.91	9.52	-53.5	-56.2	13.9	0.00e+00	0	21	0	142606336	73	4865
2026-01-13 05:30:44.83	56.80	9.59	-53.5	-56.3	13.9	0.00e+00	0	22	0	144703488	73	4875
2026-01-13 05:30:45.83	56.70	9.66	-53.5	-56.3	13.9	0.00e+00	0	22	0	146800640	73	4905
2026-01-13 05:30:46.82	56.59	9.72	-53.5	-56.4	13.9	0.00e+00	0	22	0	147849216	73	4930
2026-01-13 05:30:47.82	56.48	9.79	-53.5	-56.3	13.9	0.00e+00	0	21	0	149946368	73	4895
2026-01-13 05:30:48.83	56.37	9.86	-53.5	-56.3	13.9	0.00e+00	0	22	0	152043520	73	4893
2026-01-13 05:30:49.83	56.25	9.93	-53.6	-56.4	13.9	0.00e+00	0	22	0	154140672	73	4936
2026-01-13 05:30:50.83	56.14	9.99	-53.6	-56.4	13.8	0.00e+00	0	22	0	156237824	73	4965
2026-01-13 05:30:51.84	56.03	10.06	-53.5	-56.3	13.9	0.00e+00	0	22	0	157286400	73	4904
2026-01-13 05:30:52.83	55.92	10.13	-53.6	-56.3	13.9	0.00e+00	0	22	0	159383552	73	4916
2026-01-13 05:30:53.83	55.80	10.20	-53.5	-56.3	13.9	0.00e+00	0	22	0	161480704	73	4911
2026-01-13 05:30:54.82	55.69	10.26	-53.6	-56.3	13.9	0.00e+00	0	22	0	163577856	73	4925
2026-01-13 05:30:55.82	55.58	10.33	-53.6	-56.3	13.9	0.00e+00	0	22	0	164626432	73	4922
2026-01-13 05:30:56.82	55.46	10.40	-53.5	-56.2	14.0	0.00e+00	0	22	0	166723584	73	4839
2026-01-13 05:30:57.82	55.35	10.47	-53.6	-56.3	13.9	0.00e+00	0	22	0	168820736	73	4921
2026-01-13 05:30:58.82	55.23	10.54	-53.4	-56.1	14.1	0.00e+00	0	22	0	170917888	73	4797
2026-01-13 05:30:59.81	55.12	10.61	-53.4	-56.0	14.1	0.00e+00	0	22	0	173015040	73	4748
2026-01-13 05:31:00.82	55.00	10.67	-53.4	-56.1	14.1	0.00e+00	0	21	0	174063616	73	4779
2026-01-13 05:31:01.82	54.88	10.74	-53.4	-56.1	14.1	0.00e+00	0	22	0	176160768	73	4762
2026-01-13 05:31:02.80	54.77	10.81	-53.3	-56.0	14.2	0.00e+00	0	22	0	178257920	73	4712
2026-01-13 05:31:03.79	54.65	10.88	-53.2	-55.8	14.3	0.00e+00	0	22	0	180355072	73	4638
2026-01-13 05:31:04.79	54.53	10.95	-53.2	-55.8	14.3	0.00e+00	0	22	0	182452224	73	4618
2026-01-13 05:31:05.78	54.41	11.02	-53.3	-55.8	14.3	0.00e+00	0	22	0	183500800	73	4649
2026-01-13 05:31:06.78	54.29	11.08	-53.3	-55.9	14.3	0.00e+00	0	22	0	185597952	73	4668
2026-01-13 05:31:07.78	54.17	11.15	-53.3	-55.8	14.3	0.00e+00	0	22	0	187695104	73	4637
2026-01-13 05:31:08.78	54.05	11.22	-53.2	-55.8	14.3	0.00e+00	0	22	0	189792256	73	4635
2026-01-13 05:31:09.78	53.92	11.29	-53.2	-55.8	14.3	0.00e+00	0	22	0	191889408	73	4613
2026-01-13 05:31:10.78	53.80	11.36	-53.0	-55.5	14.3	0.00e+00	0	22	0	192937984	72	4753
2026-01-13 05:31:11.78	53.68	11.43	-53.1	-55.5	14.3	0.00e+00	0	22	0	195035136	72	4749
2026-01-13 05:31:12.78	53.55	11.50	-53.0	-55.4	14.4	0.00e+00	0	22	0	197132288	72	4702
2026-01-13 05:31:13.77	53.43	11.57	-53.0	-55.4	14.4	0.00e+00	0	22	0	199229440	72	4676
2026-01-13 05:31:14.76	53.31	11.64	-53.0	-55.5	14.4	0.00e+00	0	22	0	200278016	72	4718
2026-01-13 05:31:15.76	53.18	11.71	-52.9	-55.3	14.5	0.00e+00	0	22	0	202375168	72	4637
2026-01-13 05:31:16.77	53.05	11.78	-52.9	-55.3	14.5	0.00e+00	0	22	0	204472320	72	4645
2026-01-13 05:31:17.76	52.93	11.84	-53.0	-55.4	14.5	0.00e+00	0	22	0	206569472	72	4672
2026-01-13 05:31:18.76	52.80	11.91	-53.0	-55.5	14.4	0.00e+00	0	22	0	208666624	72	4737
2026-01-13 05:31:19.77	52.67	11.98	-53.0	-55.4	14.4	0.00e+00	0	22	0	209715200	72	4673
2026-01-13 05:31:20.78	52.54	12.05	-52.9	-55.3	14.5	0.00e+00	0	22	0	211812352	72	4619
2026-01-13 05:31:21.78	52.41	12.12	-53.0	-55.4	14.4	0.00e+00	0	22	0	213909504	72	4675
2026-01-13 05:31:22.78	52.28	12.19	-53.0	-55.4	14.4	0.00e+00	0	22	0	216006656	72	4687
2026-01-13 05:31:23.78	52.15	12.26	-52.9	-55.2	14.6	0.00e+00	0	22	0	218103808	72	4594
2026-01-13 05:31:24.78	52.02	12.33	-52.9	-55.3	14.5	0.00e+00	0	22	0	219152384	72	4648
2026-01-13 05:31:25.77	51.89	12.40	-53.0	-55.4	14.5	0.00e+00	0	22	0	221249536	72	4674
2026-01-13 05:31:26.77	51.76	12.47	-53.0	-55.4	14.5	0.00e+00	0	22	0	223346688	72	4676
2026-01-13 05:31:27.77	51.62	12.54	-52.9	-55.3	14.5	0.00e+00	0	22	0	225443840	72	4645
2026-01-13 05:31:28.77	51.49	12.61	-52.9	-55.3	14.5	0.00e+00	0	22	0	226492416	72	4616
2026-01-13 05:31:29.77	51.35	12.68	-52.8	-55.1	14.7	0.00e+00	0	22	0	228589568	72	4511
2026-01-13 05:31:30.77	51.22	12.75	-52.8	-55.1	14.6	0.00e+00	0	22	0	230686720	72	4544
2026-01-13 05:31:31.77	51.08	12.82	-52.7	-55.0	14.7	0.00e+00	0	22	0	232783872	72	4467
2026-01-13 05:31:32.77	50.95	12.89	-52.6	-54.9	14.6	0.00e+00	0	22	0	234881024	71	4665
2026-01-13 05:31:33.78	50.81	12.97	-52.6	-54.9	14.6	0.00e+00	0	22	0	235929600	71	4688
2026-01-13 05:31:34.77	50.67	13.04	-52.6	-54.8	14.7	0.00e+00	0	22	0	238026752	71	4630
2026-01-13 05:31:35.77	50.53	13.11	-52.5	-54.6	14.8	0.00e+00	0	22	0	240123904	71	4542
2026-01-13 05:31:36.77	50.39	13.18	-52.4	-54.6	14.8	0.00e+00	0	22	0	242221056	71	4531
2026-01-13 05:31:37.76	50.25	13.25	-52.5	-54.7	14.8	0.00e+00	0	22	0	244318208	71	4565
2026-01-13 05:31:38.77	50.11	13.32	-52.4	-54.6	14.8	0.00e+00	0	22	0	245366784	71	4524
2026-01-13 05:31:39.76	49.97	13.39	-52.4	-54.6	14.9	0.00e+00	0	22	0	247463936	71	4501
2026-01-13 05:31:40.76	49.83	13.46	-52.4	-54.6	14.8	0.00e+00	0	22	0	249561088	71	4537
2026-01-13 05:31:41.76	49.69	13.53	-52.4	-54.6	14.9	0.00e+00	0	22	0	251658240	71	4521
2026-01-13 05:31:42.76	49.54	13.60	-52.4	-54.6	14.8	0.00e+00	0	22	0	252706816	71	4515
2026-01-13 05:31:43.75	49.40	13.67	-52.4	-54.6	14.8	0.00e+00	0	22	0	254803968	71	4526
2026-01-13 05:31:44.75	49.26	13.74	-52.4	-54.6	14.8	0.00e+00	0	22	0	256901120	71	4528
2026-01-13 05:31:45.76	49.11	13.81	-52.4	-54.5	14.9	0.00e+00	0	22	0	258998272	71	4488
2026-01-13 05:31:46.76	48.96	13.88	-52.4	-54.6	14.8	0.00e+00	0	22	0	261095424	71	4524
2026-01-13 05:31:47.76	48.82	13.95	-52.5	-54.7	14.8	0.00e+00	0	22	0	262144000	71	4551
2026-01-13 05:31:48.76	48.67	14.02	-52.5	-54.8	14.7	0.00e+00	0	22	0	264241152	71	4604
2026-01-13 05:31:49.76	48.52	14.09	-52.6	-54.8	14.7	0.00e+00	0	22	0	266338304	71	4632
2026-01-13 05:31:50.76	48.37	14.16	-52.6	-54.8	14.7	0.00e+00	0	22	0	268435456	71	4632
2026-01-13 05:31:51.76	48.22	14.23	-52.6	-54.8	14.7	0.00e+00	0	22	0	270532608	71	4647
2026-01-13 05:31:52.76	48.07	14.31	-52.6	-54.8	14.7	0.00e+00	0	22	0	271581184	71	4639
2026-01-13 05:31:53.76	47.92	14.38	-52.6	-54.9	14.6	0.00e+00	0	22	0	273678336	71	4669
2026-01-13 05:31:54.76	47.77	14.45	-52.7	-54.9	14.6	0.00e+00	0	22	0	275775488	71	4698
2026-01-13 05:31:55.75	47.62	14.52	-52.6	-54.9	14.6	0.00e+00	0	22	0	277872640	71	4678
2026-01-13 05:31:56.75	47.46	14.59	-52.7	-54.9	14.6	0.00e+00	0	22	0	278921216	71	4701
2026-01-13 05:31:57.74	47.31	14.66	-52.7	-54.9	14.6	0.00e+00	0	22	0	281018368	71	4690
2026-01-13 05:31:58.74	47.16	14.73	-52.7	-55.0	14.6	0.00e+00	0	22	0	283115520	71	4736
2026-01-13 05:31:59.75	47.00	14.80	-52.7	-55.0	14.6	0.00e+00	0	22	0	285212672	71	4736
2026-01-13 05:32:00.74	46.84	14.87	-52.7	-55.0	14.6	0.00e+00	0	22	0	287309824	71	4755
2026-01-13 05:32:01.73	46.69	14.94	-52.8	-55.1	14.5	0.00e+00	0	22	0	288358400	71	4787
2026-01-13 05:32:02.73	46.53	15.01	-52.9	-55.2	14.4	0.00e+00	0	22	0	290455552	71	4859
2026-01-13 05:32:03.73	46.37	15.08	-52.9	-55.3	14.4	0.00e+00	0	22	0	292552704	71	4885
2026-01-13 05:32:04.72	46.21	15.15	-53.0	-55.4	14.4	0.00e+00	0	22	0	294649856	71	4934
2026-01-13 05:32:05.72	46.05	15.22	-53.0	-55.5	14.3	0.00e+00	0	22	0	295698432	71	5000
2026-01-13 05:32:06.71	45.89	15.29	-53.1	-55.6	14.2	0.00e+00	0	22	0	297795584	71	5043
2026-01-13 05:32:07.70	45.73	15.36	-53.0	-55.4	14.3	0.00e+00	0	22	0	299892736	71	4950
2026-01-13 05:32:08.69	45.57	15.43	-53.0	-55.4	14.3	0.00e+00	0	22	0	301989888	71	4939
2026-01-13 05:32:09.69	45.41	15.50	-53.0	-55.4	14.3	0.00e+00	0	22	0	304087040	71	4980
2026-01-13 05:32:10.69	45.25	15.57	-52.9	-55.3	14.4	0.00e+00	0	22	0	305135616	71	4883
2026-01-13 05:32:11.69	45.08	15.64	-52.9	-55.2	14.5	0.00e+00	0	22	0	307232768	71	4837
2026-01-13 05:32:12.69	44.92	15.71	-52.9	-55.2	14.4	0.00e+00	0	22	0	309329920	71	4859
2026-01-13 05:32:13.70	44.75	15.79	-52.9	-55.3	14.4	0.00e+00	0	22	0	311427072	71	4902
2026-01-13 05:32:14.70	44.58	15.86	-53.0	-55.3	14.4	0.00e+00	0	22	0	313524224	71	4926
2026-01-13 05:32:15.70	44.41	15.93	-52.9	-55.3	14.4	0.00e+00	0	22	0	314572800	71	4874
2026-01-13 05:32:16.69	44.24	16.00	-52.9	-55.2	14.5	0.00e+00	0	22	0	316669952	71	4859
2026-01-13 05:32:17.69	44.08	16.07	-52.9	-55.3	14.4	0.00e+00	0	22	0	318767104	71	4885
2026-01-13 05:32:18.68	43.91	16.13	-53.0	-55.4	14.4	0.00e+00	0	22	0	320864256	71	4927
2026-01-13 05:32:19.68	43.74	16.20	-53.0	-55.4	14.4	0.00e+00	0	22	0	322961408	71	4932
2026-01-13 05:32:20.68	43.56	16.27	-53.0	-55.5	14.3	0.00e+00	0	22	0	324009984	71	4990
2026-01-13 05:32:21.68	43.39	16.34	-53.1	-55.5	14.3	0.00e+00	0	22	0	326107136	71	4997
2026-01-13 05:32:22.67	43.22	16.41	-53.2	-55.7	14.2	0.00e+00	0	22	0	328204288	71	5107
2026-01-13 05:32:23.68	43.04	16.48	-53.1	-55.6	14.2	0.00e+00	0	22	0	330301440	71	5044
2026-01-13 05:32:24.67	42.87	16.55	-53.0	-55.4	14.3	0.00e+00	0	22	0	331350016	71	4971
2026-01-13 05:32:25.67	42.69	16.62	-53.0	-55.4	14.3	0.00e+00	0	22	0	333447168	71	4965
2026-01-13 05:32:26.67	42.51	16.69	-53.0	-55.4	14.4	0.00e+00	0	22	0	335544320	71	4955
2026-01-13 05:32:27.68	42.34	16.76	-53.0	-55.3	14.4	0.00e+00	0	22	0	337641472	71	4923
2026-01-13 05:32:28.68	42.16	16.83	-53.0	-55.4	14.3	0.00e+00	0	22	0	339738624	71	4962
2026-01-13 05:32:29.68	41.98	16.90	-53.0	-55.4	14.3	0.00e+00	0	22	0	340787200	71	4971
2026-01-13 05:32:30.68	41.80	16.97	-53.0	-55.4	14.4	0.00e+00	0	22	0	342884352	71	4941
2026-01-13 05:32:31.68	41.62	17.04	-53.0	-55.3	14.4	0.00e+00	0	22	0	344981504	71	4926
2026-01-13 05:32:32.68	41.43	17.11	-53.0	-55.5	14.3	0.00e+00	0	22	0	347078656	71	4987
2026-01-13 05:32:33.67	41.25	17.18	-52.9	-55.3	14.4	0.00e+00	0	22	0	348127232	71	4895
2026-01-13 05:32:34.67	41.07	17.25	-53.1	-55.5	14.3	0.00e+00	0	22	0	350224384	71	5004
2026-01-13 05:32:35.67	40.88	17.31	-53.0	-55.5	14.3	0.00e+00	0	22	0	352321536	71	4986
2026-01-13 05:32:36.68	40.70	17.38	-52.9	-55.2	14.5	0.00e+00	0	22	0	354418688	71	4844
2026-01-13 05:32:37.68	40.51	17.45	-52.9	-55.2	14.5	0.00e+00	0	22	0	356515840	71	4848
2026-01-13 05:32:38.67	40.32	17.52	-52.8	-55.1	14.6	0.00e+00	0	22	0	357564416	71	4768
2026-01-13 05:32:39.67	40.14	17.59	-52.8	-55.0	14.6	0.00e+00	0	22	0	359661568	71	4751
2026-01-13 05:32:40.67	39.95	17.66	-52.7	-55.0	14.6	0.00e+00	0	22	0	361758720	71	4733
2026-01-13 05:32:41.66	39.76	17.72	-52.6	-54.9	14.7	0.00e+00	0	22	0	363855872	71	4659
2026-01-13 05:32:42.66	39.57	17.79	-52.5	-54.6	14.9	0.00e+00	0	22	0	365953024	71	4530
2026-01-13 05:32:43.66	39.38	17.86	-52.4	-54.5	15.0	0.00e+00	0	22	0	367001600	71	4470
2026-01-13 05:32:44.67	39.18	17.93	-52.4	-54.5	15.0	0.00e+00	0	22	0	369098752	71	4455
2026-01-13 05:32:45.66	38.99	17.99	-52.3	-54.3	15.1	0.00e+00	0	22	0	371195904	71	4385
2026-01-13 05:32:46.65	38.80	18.06	-52.1	-54.1	14.9	0.00e+00	0	22	0	373293056	70	4518
2026-01-13 05:32:47.65	38.60	18.13	-52.0	-54.0	15.1	0.00e+00	0	22	0	374341632	70	4453
2026-01-13 05:32:48.66	38.41	18.19	-51.9	-53.9	15.2	0.00e+00	0	22	0	376438784	70	4394
2026-01-13 05:32:49.65	38.21	18.26	-51.8	-53.7	15.2	0.00e+00	0	22	0	378535936	70	4325
2026-01-13 05:32:50.66	38.01	18.33	-51.7	-53.6	15.3	0.00e+00	0	22	0	380633088	70	4250
2026-01-13 05:32:51.65	37.82	18.39	-51.6	-53.4	15.2	0.00e+00	0	22	0	382730240	69	4434
2026-01-13 05:32:52.66	37.62	18.46	-51.4	-53.3	15.4	0.00e+00	0	22	0	383778816	69	4346
2026-01-13 05:32:53.66	37.41	18.53	-51.4	-53.2	15.4	0.00e+00	0	22	0	385875968	69	4326
2026-01-13 05:32:54.66	37.21	18.59	-51.4	-53.2	15.4	0.00e+00	0	22	0	387973120	69	4322
2026-01-13 05:32:55.66	37.01	18.66	-51.3	-53.1	15.4	0.00e+00	0	22	0	390070272	69	4289
2026-01-13 05:32:56.65	36.81	18.72	-51.3	-53.1	15.5	0.00e+00	0	22	0	392167424	69	4281
2026-01-13 05:32:57.65	36.61	18.79	-51.3	-53.1	15.4	0.00e+00	0	22	0	393216000	69	4274
2026-01-13 05:32:58.65	36.40	18.85	-51.3	-53.0	15.5	0.00e+00	0	22	0	395313152	69	4238
2026-01-13 05:32:59.65	36.20	18.92	-51.2	-53.0	15.5	0.00e+00	0	22	0	397410304	69	4219
2026-01-13 05:33:00.62	36.00	18.98	-51.2	-53.0	15.5	0.00e+00	0	22	0	399507456	69	4209
2026-01-13 05:33:01.61	35.79	19.04	-51.2	-52.9	15.3	0.00e+00	0	22	0	400556032	68	4440
2026-01-13 05:33:02.61	35.58	19.11	-51.1	-52.8	15.4	0.00e+00	0	22	0	402653184	68	4376
2026-01-13 05:33:03.61	35.37	19.17	-51.1	-52.8	15.4	0.00e+00	0	22	0	404750336	68	4387
2026-01-13 05:33:04.60	35.17	19.23	-50.9	-52.7	15.5	0.00e+00	0	22	0	406847488	68	4294
2026-01-13 05:33:05.60	34.96	19.30	-50.9	-52.6	15.6	0.00e+00	0	22	0	408944640	68	4271
2026-01-13 05:33:06.60	34.74	19.36	-50.9	-52.6	15.5	0.00e+00	0	22	0	409993216	68	4269
2026-01-13 05:33:07.59	34.53	19.42	-50.9	-52.6	15.5	0.00e+00	0	22	0	412090368	68	4280
2026-01-13 05:33:08.59	34.32	19.49	-50.9	-52.6	15.6	0.00e+00	0	22	0	414187520	68	4282
2026-01-13 05:33:09.58	34.11	19.55	-51.0	-52.7	15.5	0.00e+00	0	22	0	416284672	68	4339
2026-01-13 05:33:10.57	33.90	19.61	-50.8	-52.5	15.6	0.00e+00	0	22	0	417333248	68	4230
2026-01-13 05:33:11.57	33.68	19.67	-50.8	-52.5	15.6	0.00e+00	0	22	0	419430400	68	4232
2026-01-13 05:33:12.57	33.46	19.73	-50.8	-52.5	15.6	0.00e+00	0	22	0	421527552	68	4194
2026-01-13 05:33:13.58	33.24	19.79	-50.8	-52.4	15.6	0.00e+00	0	22	0	423624704	68	4181
2026-01-13 05:33:14.58	33.02	19.85	-50.8	-52.5	15.6	0.00e+00	0	22	0	425721856	68	4228
2026-01-13 05:33:15.58	32.80	19.92	-50.8	-52.4	15.7	0.00e+00	0	22	0	426770432	68	4182
2026-01-13 05:33:16.58	32.58	19.98	-50.7	-52.3	15.7	0.00e+00	0	22	0	428867584	68	4136
2026-01-13 05:33:17.57	32.36	20.04	-50.5	-52.1	15.6	0.00e+00	0	22	0	430964736	67	4274
2026-01-13 05:33:18.57	32.14	20.10	-50.5	-52.1	15.6	0.00e+00	0	22	0	433061888	67	4291
2026-01-13 05:33:19.57	31.92	20.15	-50.6	-52.2	15.5	0.00e+00	0	22	0	435159040	67	4329
2026-01-13 05:33:20.58	31.69	20.21	-50.6	-52.3	15.5	0.00e+00	0	22	0	436207616	67	4364
2026-01-13 05:33:21.57	31.47	20.27	-50.7	-52.3	15.5	0.00e+00	0	22	0	438304768	67	4378
2026-01-13 05:33:22.58	31.24	20.33	-50.6	-52.2	15.5	0.00e+00	0	22	0	440401920	67	4340
2026-01-13 05:33:23.57	31.02	20.39	-50.6	-52.2	15.5	0.00e+00	0	22	0	442499072	67	4327
2026-01-13 05:33:24.57	30.79	20.45	-50.7	-52.3	15.5	0.00e+00	0	22	0	443547648	67	4387
2026-01-13 05:33:25.57	30.56	20.50	-50.6	-52.3	15.5	0.00e+00	0	22	0	445644800	67	4378
2026-01-13 05:33:26.57	30.33	20.56	-50.7	-52.4	15.4	0.00e+00	0	22	0	447741952	67	4432
2026-01-13 05:33:27.58	30.10	20.62	-50.8	-52.5	15.4	0.00e+00	0	22	0	449839104	67	4447
2026-01-13 05:33:28.58	29.87	20.67	-50.7	-52.4	15.5	0.00e+00	0	22	0	451936256	67	4405
2026-01-13 05:33:29.57	29.64	20.73	-50.7	-52.4	15.5	0.00e+00	0	22	0	452984832	67	4398
2026-01-13 05:33:30.57	29.41	20.79	-50.6	-52.3	15.5	0.00e+00	0	22	0	455081984	67	4371
2026-01-13 05:33:31.57	29.18	20.84	-50.7	-52.3	15.5	0.00e+00	0	22	0	457179136	67	4383
2026-01-13 05:33:32.57	28.94	20.90	-50.7	-52.4	15.4	0.00e+00	0	22	0	459276288	67	4429
2026-01-13 05:33:33.57	28.71	20.95	-50.7	-52.4	15.4	0.00e+00	0	22	0	461373440	67	4433
2026-01-13 05:33:34.56	28.47	21.00	-50.7	-52.4	15.4	0.00e+00	0	22	0	462422016	67	4409
2026-01-13 05:33:35.56	28.24	21.06	-50.7	-52.4	15.5	0.00e+00	0	22	0	464519168	67	4395
2026-01-13 05:33:36.56	28.00	21.11	-50.7	-52.4	15.5	0.00e+00	0	22	0	466616320	67	4394
2026-01-13 05:33:37.56	27.76	21.16	-50.5	-52.2	15.6	0.00e+00	0	22	0	468713472	67	4308
2026-01-13 05:33:38.55	27.52	21.22	-50.5	-52.1	15.6	0.00e+00	0	22	0	470810624	67	4274
2026-01-13 05:33:39.54	27.29	21.27	-50.5	-52.1	15.6	0.00e+00	0	22	0	471859200	67	4274
2026-01-13 05:33:40.55	27.04	21.32	-50.3	-51.9	15.7	0.00e+00	0	22	0	473956352	67	4165
2026-01-13 05:33:41.54	26.80	21.37	-50.3	-51.9	15.7	0.00e+00	0	22	0	476053504	67	4169
2026-01-13 05:33:42.54	26.56	21.42	-50.3	-51.9	15.8	0.00e+00	0	22	0	478150656	67	4147
2026-01-13 05:33:43.54	26.32	21.47	-50.1	-51.7	15.7	0.00e+00	0	22	0	479199232	66	4307
2026-01-13 05:33:44.54	26.07	21.52	-50.1	-51.7	15.6	0.00e+00	0	22	0	481296384	66	4314
2026-01-13 05:33:45.54	25.83	21.57	-50.2	-51.8	15.6	0.00e+00	0	22	0	483393536	66	4367
2026-01-13 05:33:46.54	25.58	21.62	-50.2	-51.8	15.6	0.00e+00	0	22	0	485490688	66	4384
2026-01-13 05:33:47.55	25.33	21.67	-50.2	-51.8	15.6	0.00e+00	0	22	0	487587840	66	4364
2026-01-13 05:33:48.55	25.09	21.72	-50.3	-51.9	15.5	0.00e+00	0	22	0	488636416	66	4407
2026-01-13 05:33:49.55	24.84	21.76	-50.3	-51.9	15.6	0.00e+00	0	22	0	490733568	66	4402
2026-01-13 05:33:50.54	24.59	21.81	-50.2	-51.8	15.6	0.00e+00	0	22	0	492830720	66	4357
2026-01-13 05:33:51.54	24.34	21.86	-50.1	-51.7	15.6	0.00e+00	0	22	0	494927872	66	4319
2026-01-13 05:33:52.53	24.10	21.90	-50.1	-51.6	15.7	0.00e+00	0	22	0	497025024	66	4283
2026-01-13 05:33:53.53	23.85	21.95	-50.0	-51.6	15.7	0.00e+00	0	22	0	498073600	66	4252
2026-01-13 05:33:54.53	23.59	21.99	-50.0	-51.6	15.7	0.00e+00	0	22	0	500170752	66	4259
2026-01-13 05:33:55.53	23.34	22.04	-50.1	-51.7	15.6	0.00e+00	0	22	0	502267904	66	4311
2026-01-13 05:33:56.53	23.09	22.08	-50.2	-51.7	15.6	0.00e+00	0	22	0	504365056	66	4330
2026-01-13 05:33:57.52	22.84	22.12	-50.1	-51.7	15.6	0.00e+00	0	22	0	505413632	66	4325
2026-01-13 05:33:58.52	22.58	22.17	-50.2	-51.8	15.6	0.00e+00	0	22	0	507510784	66	4351
2026-01-13 05:33:59.51	22.33	22.21	-50.1	-51.6	15.7	0.00e+00	0	22	0	509607936	66	4281
2026-01-13 05:34:00.50	22.08	22.25	-50.1	-51.7	15.7	0.00e+00	0	22	0	511705088	66	4299
2026-01-13 05:34:01.50	21.82	22.29	-50.2	-51.8	15.6	0.00e+00	0	22	0	513802240	66	4365
2026-01-13 05:34:02.49	21.56	22.33	-50.3	-51.9	15.5	0.00e+00	0	22	0	514850816	66	4427
2026-01-13 05:34:03.49	21.31	22.37	-50.5	-52.2	15.4	0.00e+00	0	22	0	516947968	66	4557
2026-01-13 05:34:04.49	21.05	22.41	-50.4	-52.1	15.5	0.00e+00	0	22	0	519045120	66	4499
2026-01-13 05:34:05.49	20.79	22.45	-50.3	-52.0	15.5	0.00e+00	0	22	0	521142272	66	4449
2026-01-13 05:34:06.49	20.53	22.49	-50.2	-51.8	15.6	0.00e+00	0	22	0	522190848	66	4378
2026-01-13 05:34:07.48	20.27	22.53	-50.3	-51.9	15.6	0.00e+00	0	22	0	524288000	66	4394
2026-01-13 05:34:08.47	20.01	22.56	-50.3	-51.9	15.6	0.00e+00	0	22	0	526385152	66	4397
2026-01-13 05:34:09.46	19.75	22.60	-50.3	-51.9	15.5	0.00e+00	0	22	0	528482304	66	4415
2026-01-13 05:34:10.46	19.49	22.63	-50.4	-52.0	15.5	0.00e+00	0	22	0	530579456	66	4445
2026-01-13 05:34:11.46	19.23	22.67	-50.5	-52.1	15.4	0.00e+00	0	22	0	531628032	66	4515
2026-01-13 05:34:12.46	18.96	22.71	-50.5	-52.1	15.4	0.00e+00	0	22	0	533725184	66	4534
2026-01-13 05:34:13.46	18.70	22.74	-50.7	-52.3	15.3	0.00e+00	0	22	0	535822336	66	4648
2026-01-13 05:34:14.45	18.44	22.77	-50.8	-52.5	15.2	0.00e+00	0	22	0	537919488	66	4748
2026-01-13 05:34:15.45	18.17	22.81	-51.1	-52.8	15.2	0.00e+00	0	22	0	540016640	67	4643
2026-01-13 05:34:16.44	17.91	22.84	-51.3	-53.1	15.1	0.00e+00	0	22	0	541065216	67	4779
2026-01-13 05:34:17.44	17.64	22.87	-51.3	-53.1	15.1	0.00e+00	0	22	0	543162368	67	4791
2026-01-13 05:34:18.44	17.38	22.90	-51.3	-53.1	15.0	0.00e+00	0	22	0	545259520	67	4809
2026-01-13 05:34:19.44	17.11	22.93	-51.2	-53.0	15.1	0.00e+00	0	22	0	547356672	67	4726
2026-01-13 05:34:20.44	16.84	22.96	-51.3	-53.1	15.1	0.00e+00	0	22	0	548405248	67	4793
2026-01-13 05:34:21.44	16.57	22.99	-51.4	-53.3	15.0	0.00e+00	0	22	0	550502400	67	4876
2026-01-13 05:34:22.44	16.30	23.02	-51.7	-53.6	15.0	0.00e+00	0	22	0	552599552	68	4790
2026-01-13 05:34:23.44	16.03	23.05	-51.9	-53.8	14.9	0.00e+00	0	22	0	554696704	68	4920
2026-01-13 05:34:24.44	15.76	23.07	-51.8	-53.8	14.9	0.00e+00	0	22	0	556793856	68	4882
2026-01-13 05:34:25.44	15.49	23.10	-51.7	-53.6	15.0	0.00e+00	0	22	0	557842432	68	4808
2026-01-13 05:34:26.45	15.22	23.13	-51.7	-53.6	15.0	0.00e+00	0	22	0	559939584	68	4804
2026-01-13 05:34:27.45	14.95	23.15	-51.7	-53.6	15.0	0.00e+00	0	22	0	562036736	68	4781
2026-01-13 05:34:28.45	14.68	23.18	-51.9	-53.9	14.9	0.00e+00	0	22	0	564133888	68	4936
2026-01-13 05:34:29.46	14.40	23.20	-52.1	-54.0	14.9	0.00e+00	0	22	0	566231040	69	4755
2026-01-13 05:34:30.46	14.13	23.23	-52.1	-54.1	14.9	0.00e+00	0	22	0	567279616	69	4806
2026-01-13 05:34:31.46	13.85	23.25	-52.1	-54.1	14.9	0.00e+00	0	22	0	569376768	69	4811
2026-01-13 05:34:32.46	13.58	23.27	-52.2	-54.2	14.8	0.00e+00	0	22	0	571473920	69	4839
2026-01-13 05:34:33.46	13.31	23.29	-52.2	-54.3	14.8	0.00e+00	0	22	0	573571072	69	4873
2026-01-13 05:34:34.46	13.03	23.31	-52.3	-54.4	14.7	0.00e+00	0	22	0	574619648	69	4944
2026-01-13 05:34:35.47	12.76	23.33	-52.4	-54.5	14.6	0.00e+00	0	22	0	576716800	69	4999
2026-01-13 05:34:36.46	12.48	23.35	-52.4	-54.4	14.8	0.00e+00	0	22	0	578813952	70	4704
2026-01-13 05:34:37.46	12.21	23.37	-52.4	-54.5	14.8	0.00e+00	0	22	0	580911104	70	4736
2026-01-13 05:34:38.47	11.93	23.39	-52.4	-54.4	14.9	0.00e+00	0	22	0	583008256	70	4703
2026-01-13 05:34:39.47	11.65	23.40	-52.3	-54.3	14.9	0.00e+00	0	22	0	584056832	70	4637
2026-01-13 05:34:40.48	11.37	23.42	-52.4	-54.4	14.9	0.00e+00	0	22	0	586153984	70	4690
2026-01-13 05:34:41.48	11.10	23.44	-52.3	-54.4	14.9	0.00e+00	0	22	0	588251136	70	4672
2026-01-13 05:34:42.48	10.82	23.45	-52.3	-54.4	14.9	0.00e+00	0	22	0	590348288	70	4668
2026-01-13 05:34:43.48	10.54	23.47	-52.2	-54.2	15.0	0.00e+00	0	22	0	592445440	70	4587
2026-01-13 05:34:44.48	10.27	23.48	-52.1	-54.1	15.1	0.00e+00	0	22	0	593494016	70	4510
2026-01-13 05:34:45.48	9.99	23.49	-52.1	-54.0	15.1	0.00e+00	0	22	0	595591168	70	4491
2026-01-13 05:34:46.48	9.71	23.50	-52.1	-54.1	15.1	0.00e+00	0	22	0	597688320	70	4507
2026-01-13 05:34:47.49	9.43	23.52	-52.3	-54.3	15.0	0.00e+00	0	22	0	599785472	70	4619
2026-01-13 05:34:48.49	9.15	23.53	-52.3	-54.4	14.9	0.00e+00	0	22	0	601882624	70	4673
2026-01-13 05:34:49.49	8.87	23.54	-52.4	-54.4	14.9	0.00e+00	0	22	0	602931200	70	4681
2026-01-13 05:34:50.49	8.60	23.54	-52.3	-54.4	14.9	0.00e+00	0	22	0	605028352	70	4655
2026-01-13 05:34:51.49	8.32	23.55	-52.1	-54.1	15.0	0.00e+00	0	22	0	607125504	70	4523
2026-01-13 05:34:52.48	8.04	23.56	-52.1	-54.0	15.1	0.00e+00	0	22	0	609222656	70	4490
2026-01-13 05:34:53.48	7.76	23.57	-52.1	-54.0	15.1	0.00e+00	0	22	0	611319808	70	4493
2026-01-13 05:34:54.48	7.48	23.57	-52.1	-54.1	15.1	0.00e+00	0	22	0	612368384	70	4532
2026-01-13 05:34:55.48	7.20	23.58	-52.2	-54.1	15.0	0.00e+00	0	22	0	614465536	70	4540
2026-01-13 05:34:56.49	6.92	23.58	-52.1	-54.0	15.1	0.00e+00	0	22	0	616562688	70	4465
2026-01-13 05:34:57.49	6.64	23.59	-52.0	-53.9	15.2	0.00e+00	0	22	0	618659840	70	4429
2026-01-13 05:34:58.49	6.36	23.59	-52.1	-54.0	15.1	0.00e+00	0	22	0	619708416	70	4483
2026-01-13 05:34:59.49	6.08	23.59	-52.0	-53.9	15.2	0.00e+00	0	22	0	621805568	70	4440
2026-01-13 05:35:00.49	5.80	23.60	-52.0	-53.9	15.2	0.00e+00	0	22	0	623902720	70	4421
2026-01-13 05:35:01.49	5.52	23.60	-52.0	-53.9	15.2	0.00e+00	0	22	0	625999872	70	4435
2026-01-13 05:35:02.48	5.25	23.60	-52.0	-54.0	15.1	0.00e+00	0	22	0	628097024	70	4463
2026-01-13 05:35:03.47	4.97	23.60	-52.0	-53.9	15.2	0.00e+00	0	22	0	629145600	70	4432
2026-01-13 05:35:04.47	4.69	23.60	-51.8	-53.7	15.3	0.00e+00	0	22	0	631242752	70	4311
2026-01-13 05:35:05.45	4.42	23.59	-51.6	-53.5	15.3	0.00e+00	0	22	0	633339904	69	4453
2026-01-13 05:35:06.46	4.14	23.59	-51.5	-53.3	15.4	0.00e+00	0	22	0	635437056	69	4342
2026-01-13 05:35:07.45	3.86	23.59	-51.4	-53.2	15.4	0.00e+00	0	22	0	636485632	69	4333
2026-01-13 05:35:08.46	3.58	23.58	-51.4	-53.2	15.4	0.00e+00	0	22	0	638582784	69	4309
2026-01-13 05:35:09.45	3.30	23.58	-51.5	-53.2	15.3	0.00e+00	0	22	0	640679936	69	4335
2026-01-13 05:35:10.45	3.02	23.57	-51.5	-53.3	15.4	0.00e+00	0	22	0	642777088	69	4354
2026-01-13 05:35:11.44	2.74	23.57	-51.5	-53.3	15.4	0.00e+00	0	22	0	644874240	69	4341
2026-01-13 05:35:12.43	2.47	23.56	-51.3	-53.1	15.5	0.00e+00	0	22	0	645922816	69	4257
2026-01-13 05:35:13.42	2.19	23.55	-51.3	-53.0	15.5	0.00e+00	0	22	0	648019968	69	4223
2026-01-13 05:35:14.42	1.91	23.54	-51.2	-52.9	15.6	0.00e+00	0	22	0	650117120	69	4185
2026-01-13 05:35:15.42	1.64	23.53	-51.0	-52.7	15.5	0.00e+00	0	22	0	652214272	68	4328
2026-01-13 05:35:16.42	1.36	23.52	-50.9	-52.5	15.6	0.00e+00	0	22	0	653262848	68	4222
2026-01-13 05:35:17.42	1.08	23.51	-50.9	-52.6	15.6	0.00e+00	0	22	0	655360000	68	4245
2026-01-13 05:35:18.42	0.80	23.50	-50.7	-52.4	15.7	0.00e+00	0	22	0	657457152	68	4156
2026-01-13 05:35:19.43	0.52	23.49	-50.7	-52.3	15.7	0.00e+00	0	22	0	659554304	68	4136
2026-01-13 05:35:20.42	0.25	23.48	-50.5	-52.1	15.6	0.00e+00	0	22	0	661651456	67	4260
2026-01-13 05:35:21.42	359.97	23.46	-50.3	-51.9	15.7	0.00e+00	0	22	0	662700032	67	4175
2026-01-13 05:35:22.43	359.69	23.45	-50.2	-51.8	15.8	0.00e+00	0	22	0	664797184	67	4106
2026-01-13 05:35:23.42	359.42	23.43	-50.1	-51.6	15.7	0.00e+00	0	22	0	666894336	66	4263
2026-01-13 05:35:24.41	359.14	23.42	-50.1	-51.6	15.7	0.00e+00	0	22	0	668991488	66	4279
2026-01-13 05:35:25.41	358.87	23.40	-50.1	-51.6	15.7	0.00e+00	0	22	0	671088640	66	4269
2026-01-13 05:35:26.41	358.59	23.39	-49.9	-51.4	15.8	0.00e+00	0	22	0	672137216	66	4190
2026-01-13 05:35:27.42	358.31	23.37	-49.9	-51.4	15.8	0.00e+00	0	22	0	674234368	66	4153
2026-01-13 05:35:28.42	358.04	23.35	-49.9	-51.3	15.8	0.00e+00	0	22	0	676331520	66	4144
2026-01-13 05:35:29.42	357.76	23.33	-49.9	-51.4	15.8	0.00e+00	0	22	0	678428672	66	4155
2026-01-13 05:35:30.42	357.49	23.31	-49.9	-51.4	15.8	0.00e+00	0	22	0	680525824	66	4192
2026-01-13 05:35:31.43	357.21	23.29	-49.9	-51.4	15.8	0.00e+00	0	22	0	681574400	66	4176
2026-01-13 05:35:32.43	356.94	23.27	-49.8	-51.3	15.9	0.00e+00	0	22	0	683671552	66	4102
2026-01-13 05:35:33.43	356.66	23.25	-49.6	-51.1	15.8	0.00e+00	0	22	0	685768704	65	4258
2026-01-13 05:35:34.42	356.39	23.22	-49.5	-50.9	15.9	0.00e+00	0	22	0	687865856	65	4169
2026-01-13 05:35:35.42	356.12	23.20	-49.4	-50.8	15.9	0.00e+00	0	22	0	688914432	65	4143
2026-01-13 05:35:36.42	355.85	23.18	-49.5	-51.0	15.8	0.00e+00	0	22	0	691011584	65	4224
2026-01-13 05:35:37.42	355.58	23.15	-49.5	-51.0	15.8	0.00e+00	0	22	0	693108736	65	4222
2026-01-13 05:35:38.41	355.31	23.13	-49.7	-51.2	15.7	0.00e+00	0	22	0	695205888	65	4302
2026-01-13 05:35:39.41	355.04	23.10	-49.8	-51.3	15.7	0.00e+00	0	22	0	697303040	65	4369
2026-01-13 05:35:40.41	354.77	23.07	-49.9	-51.4	15.6	0.00e+00	0	22	0	698351616	65	4421
2026-01-13 05:35:41.41	354.50	23.05	-50.0	-51.5	15.6	0.00e+00	0	22	0	700448768	65	4477
2026-01-13 05:35:42.41	354.23	23.02	-50.0	-51.5	15.5	0.00e+00	0	22	0	702545920	65	4484
2026-01-13 05:35:43.41	353.96	22.99	-49.9	-51.4	15.6	0.00e+00	0	22	0	704643072	65	4440
2026-01-13 05:35:44.40	353.69	22.96	-49.9	-51.5	15.6	0.00e+00	0	22	0	706740224	65	4449
2026-01-13 05:35:45.40	353.42	22.93	-49.9	-51.5	15.6	0.00e+00	0	22	0	707788800	65	4448
2026-01-13 05:35:46.40	353.16	22.90	-49.9	-51.4	15.6	0.00e+00	0	22	0	709885952	65	4441
2026-01-13 05:35:47.39	352.89	22.87	-50.0	-51.6	15.5	0.00e+00	0	22	0	711983104	65	4505
2026-01-13 05:35:48.39	352.63	22.84	-50.1	-51.7	15.5	0.00e+00	0	22	0	714080256	65	4580
2026-01-13 05:35:49.39	352.36	22.80	-50.2	-51.8	15.4	0.00e+00	0	22	0	715128832	65	4639
2026-01-13 05:35:50.39	352.09	22.77	-50.3	-51.9	15.4	0.00e+00	0	22	0	717225984	65	4684
2026-01-13 05:35:51.39	351.83	22.74	-50.3	-51.9	15.4	0.00e+00	0	22	0	719323136	65	4686
2026-01-13 05:35:52.39	351.57	22.70	-50.4	-52.0	15.3	0.00e+00	0	22	0	721420288	65	4732
2026-01-13 05:35:53.39	351.30	22.67	-50.5	-52.2	15.4	0.00e+00	0	22	0	723517440	66	4556
2026-01-13 05:35:54.39	351.04	22.63	-50.5	-52.2	15.4	0.00e+00	0	22	0	724566016	66	4569
2026-01-13 05:35:55.38	350.78	22.60	-50.6	-52.3	15.3	0.00e+00	0	22	0	726663168	66	4612
2026-01-13 05:35:56.39	350.51	22.56	-50.7	-52.4	15.3	0.00e+00	0	22	0	728760320	66	4668
2026-01-13 05:35:57.39	350.25	22.52	-50.8	-52.5	15.2	0.00e+00	0	22	0	730857472	66	4718
2026-01-13 05:35:58.39	349.99	22.48	-50.8	-52.6	15.2	0.00e+00	0	22	0	732954624	66	4769
2026-01-13 05:35:59.39	349.73	22.45	-50.8	-52.6	15.2	0.00e+00	0	22	0	734003200	66	4766
2026-01-13 05:36:00.38	349.48	22.41	-50.9	-52.6	15.2	0.00e+00	0	22	0	736100352	66	4776
2026-01-13 05:36:01.37	349.22	22.37	-51.0	-52.7	15.3	0.00e+00	0	22	0	738197504	67	4580
2026-01-13 05:36:02.37	348.96	22.33	-51.0	-52.8	15.2	0.00e+00	0	22	0	740294656	67	4612
2026-01-13 05:36:03.38	348.70	22.29	-51.2	-52.9	15.2	0.00e+00	0	22	0	742391808	67	4700
2026-01-13 05:36:04.38	348.45	22.25	-51.2	-53.0	15.1	0.00e+00	0	22	0	743440384	67	4746
2026-01-13 05:36:05.38	348.19	22.20	-51.3	-53.1	15.0	0.00e+00	0	22	0	745537536	67	4810
2026-01-13 05:36:06.38	347.94	22.16	-51.4	-53.2	15.0	0.00e+00	0	22	0	747634688	67	4850
2026-01-13 05:36:07.37	347.68	22.12	-51.6	-53.5	15.1	0.00e+00	0	22	0	749731840	68	4718
2026-01-13 05:36:08.37	347.43	22.08	-51.5	-53.4	15.1	0.00e+00	0	22	0	750780416	68	4657
2026-01-13 05:36:09.37	347.18	22.03	-51.4	-53.2	15.2	0.00e+00	0	22	0	752877568	68	4588
2026-01-13 05:36:10.36	346.93	21.99	-51.5	-53.3	15.2	0.00e+00	0	22	0	754974720	68	4602
2026-01-13 05:36:11.37	346.67	21.94	-51.5	-53.4	15.1	0.00e+00	0	22	0	757071872	68	4657
2026-01-13 05:36:12.37	346.42	21.90	-51.6	-53.4	15.1	0.00e+00	0	22	0	759169024	68	4703
2026-01-13 05:36:13.36	346.18	21.85	-51.6	-53.4	15.1	0.00e+00	0	22	0	760217600	68	4692
2026-01-13 05:36:14.36	345.93	21.81	-51.7	-53.6	15.0	0.00e+00	0	22	0	762314752	68	4766
2026-01-13 05:36:15.35	345.68	21.76	-51.8	-53.7	14.9	0.00e+00	0	22	0	764411904	68	4867
2026-01-13 05:36:16.35	345.43	21.71	-51.9	-53.8	14.9	0.00e+00	0	22	0	766509056	68	4898
2026-01-13 05:36:17.35	345.19	21.66	-51.9	-53.8	14.9	0.00e+00	0	22	0	767557632	68	4912
2026-01-13 05:36:18.35	344.94	21.61	-52.0	-53.9	15.0	0.00e+00	0	22	0	769654784	69	4692
2026-01-13 05:36:19.34	344.70	21.57	-51.9	-53.9	15.0	0.00e+00	0	22	0	771751936	69	4674
2026-01-13 05:36:20.33	344.46	21.52	-52.0	-54.0	14.9	0.00e+00	0	22	0	773849088	69	4734
2026-01-13 05:36:21.33	344.21	21.47	-52.1	-54.1	14.9	0.00e+00	0	22	0	775946240	69	4763
2026-01-13 05:36:22.32	343.97	21.42	-52.2	-54.2	14.8	0.00e+00	0	22	0	776994816	69	4839
2026-01-13 05:36:23.32	343.73	21.37	-52.0	-54.0	14.9	0.00e+00	0	22	0	779091968	69	4729
2026-01-13 05:36:24.31	343.49	21.32	-52.0	-54.0	15.0	0.00e+00	0	22	0	781189120	69	4708
2026-01-13 05:36:25.31	343.25	21.27	-51.8	-53.7	15.1	0.00e+00	0	22	0	783286272	69	4598
2026-01-13 05:36:26.31	343.01	21.21	-51.7	-53.5	15.2	0.00e+00	0	22	0	784334848	69	4487
2026-01-13 05:36:27.31	342.77	21.16	-51.7	-53.6	15.1	0.00e+00	0	22	0	786432000	69	4530
2026-01-13 05:36:28.32	342.53	21.11	-51.9	-53.8	15.1	0.00e+00	0	22	0	788529152	69	4602
2026-01-13 05:36:29.31	342.29	21.05	-52.0	-54.0	14.9	0.00e+00	0	22	0	790626304	69	4726
2026-01-13 05:36:30.31	342.06	21.00	-52.1	-54.1	14.8	0.00e+00	0	22	0	792723456	69	4810
2026-01-13 05:36:31.31	341.82	20.95	-52.1	-54.1	14.8	0.00e+00	0	22	0	793772032	69	4813
2026-01-13 05:36:32.31	341.59	20.89	-52.0	-53.9	14.9	0.00e+00	0	22	0	795869184	69	4705
2026-01-13 05:36:33.31	341.35	20.84	-51.9	-53.8	15.0	0.00e+00	0	22	0	797966336	69	4639
2026-01-13 05:36:34.31	341.12	20.78	-51.8	-53.7	15.1	0.00e+00	0	22	0	800063488	69	4550
2026-01-13 05:36:35.31	340.89	20.73	-51.9	-53.8	15.0	0.00e+00	0	22	0	802160640	69	4641
2026-01-13 05:36:36.31	340.66	20.67	-51.8	-53.7	15.1	0.00e+00	0	22	0	803209216	69	4553
2026-01-13 05:36:37.31	340.43	20.61	-51.9	-53.8	15.1	0.00e+00	0	22	0	805306368	69	4603
2026-01-13 05:36:38.32	340.19	20.56	-51.9	-53.8	15.1	0.00e+00	0	22	0	807403520	69	4609
2026-01-13 05:36:39.32	339.97	20.50	-51.9	-53.9	15.0	0.00e+00	0	22	0	809500672	69	4667
2026-01-13 05:36:40.32	339.74	20.44	-51.9	-53.8	15.1	0.00e+00	0	22	0	811597824	69	4633
2026-01-13 05:36:41.32	339.51	20.38	-51.9	-53.9	15.0	0.00e+00	0	22	0	812646400	69	4654
2026-01-13 05:36:42.31	339.29	20.33	-52.0	-53.9	15.0	0.00e+00	0	22	0	814743552	69	4685
2026-01-13 05:36:43.30	339.06	20.27	-51.8	-53.7	15.1	0.00e+00	0	22	0	816840704	69	4574
2026-01-13 05:36:44.31	338.84	20.21	-51.7	-53.6	15.2	0.00e+00	0	22	0	818937856	69	4495
2026-01-13 05:36:45.30	338.61	20.15	-51.7	-53.5	15.2	0.00e+00	0	22	0	819986432	69	4490
2026-01-13 05:36:46.30	338.39	20.09	-51.8	-53.7	15.1	0.00e+00	0	22	0	822083584	69	4549
2026-01-13 05:36:47.30	338.17	20.03	-51.6	-53.4	15.3	0.00e+00	0	22	0	824180736	69	4434
2026-01-13 05:36:48.30	337.95	19.97	-51.6	-53.4	15.3	0.00e+00	0	22	0	826277888	69	4427
2026-01-13 05:36:49.30	337.73	19.91	-51.6	-53.4	15.3	0.00e+00	0	22	0	828375040	69	4412
2026-01-13 05:36:50.30	337.51	19.85	-51.6	-53.5	15.2	0.00e+00	0	22	0	829423616	69	4443
2026-01-13 05:36:51.30	337.29	19.79	-51.6	-53.4	15.2	0.00e+00	0	22	0	831520768	69	4415
2026-01-13 05:36:52.30	337.07	19.73	-51.6	-53.4	15.3	0.00e+00	0	22	0	833617920	69	4418
2026-01-13 05:36:53.30	336.86	19.67	-51.6	-53.4	15.2	0.00e+00	0	22	0	835715072	69	4441
2026-01-13 05:36:54.30	336.64	19.61	-51.7	-53.5	15.1	0.00e+00	0	22	0	837812224	69	4471
2026-01-13 05:36:55.30	336.43	19.54	-51.6	-53.5	15.2	0.00e+00	0	22	0	838860800	69	4443
2026-01-13 05:36:56.30	336.21	19.48	-51.6	-53.5	15.2	0.00e+00	0	22	0	840957952	69	4470
2026-01-13 05:36:57.30	336.00	19.42	-51.7	-53.5	15.2	0.00e+00	0	22	0	843055104	69	4493
2026-01-13 05:36:58.29	335.79	19.36	-51.6	-53.5	15.2	0.00e+00	0	22	0	845152256	69	4471
2026-01-13 05:36:59.29	335.58	19.29	-51.7	-53.6	15.2	0.00e+00	0	22	0	846200832	69	4512
2026-01-13 05:37:00.29	335.37	19.23	-51.6	-53.5	15.3	0.00e+00	0	22	0	848297984	69	4447
2026-01-13 05:37:01.29	335.16	19.17	-51.6	-53.4	15.3	0.00e+00	0	22	0	850395136	69	4421
2026-01-13 05:37:02.28	334.95	19.10	-51.6	-53.5	15.2	0.00e+00	0	22	0	852492288	69	4464
2026-01-13 05:37:03.29	334.74	19.04	-51.7	-53.6	15.2	0.00e+00	0	22	0	854589440	69	4509
2026-01-13 05:37:04.29	334.53	18.97	-51.5	-53.4	15.3	0.00e+00	0	22	0	855638016	69	4402
2026-01-13 05:37:05.28	334.33	18.91	-51.6	-53.5	15.2	0.00e+00	0	22	0	857735168	69	4460
2026-01-13 05:37:06.27	334.13	18.85	-51.6	-53.4	15.3	0.00e+00	0	22	0	859832320	69	4421
2026-01-13 05:37:07.27	333.92	18.78	-51.6	-53.4	15.2	0.00e+00	0	22	0	861929472	69	4437
2026-01-13 05:37:08.27	333.72	18.72	-51.7	-53.6	15.2	0.00e+00	0	22	0	862978048	69	4504
2026-01-13 05:37:09.27	333.52	18.65	-51.7	-53.6	15.2	0.00e+00	0	22	0	865075200	69	4494
2026-01-13 05:37:10.27	333.31	18.59	-51.7	-53.6	15.2	0.00e+00	0	22	0	867172352	69	4509
2026-01-13 05:37:11.27	333.11	18.52	-51.8	-53.7	15.1	0.00e+00	0	22	0	869269504	69	4558
2026-01-13 05:37:12.28	332.91	18.45	-51.7	-53.6	15.1	0.00e+00	0	22	0	871366656	69	4534
2026-01-13 05:37:13.28	332.71	18.39	-51.8	-53.7	15.1	0.00e+00	0	22	0	872415232	69	4573
2026-01-13 05:37:14.28	332.51	18.32	-51.8	-53.7	15.1	0.00e+00	0	22	0	874512384	69	4567
2026-01-13 05:37:15.27	332.32	18.26	-51.8	-53.8	15.1	0.00e+00	0	22	0	876609536	69	4605
2026-01-13 05:37:16.25	332.13	18.19	-51.9	-53.8	15.0	0.00e+00	0	22	0	878706688	69	4622
2026-01-13 05:37:17.25	331.93	18.12	-51.8	-53.7	15.1	0.00e+00	0	22	0	880803840	69	4555
2026-01-13 05:37:18.25	331.74	18.06	-51.8	-53.7	15.1	0.00e+00	0	22	0	881852416	69	4554
2026-01-13 05:37:19.26	331.54	17.99	-51.8	-53.7	15.1	0.00e+00	0	22	0	883949568	69	4572
2026-01-13 05:37:20.26	331.35	17.92	-51.7	-53.6	15.1	0.00e+00	0	22	0	886046720	69	4528
2026-01-13 05:37:21.25	331.16	17.85	-51.7	-53.7	15.1	0.00e+00	0	22	0	888143872	69	4554
2026-01-13 05:37:22.25	330.97	17.79	-51.6	-53.5	15.2	0.00e+00	0	22	0	890241024	69	4472
2026-01-13 05:37:23.25	330.78	17.72	-51.7	-53.5	15.2	0.00e+00	0	22	0	891289600	69	4486
2026-01-13 05:37:24.25	330.59	17.65	-51.6	-53.5	15.2	0.00e+00	0	22	0	893386752	69	4462
2026-01-13 05:37:25.25	330.40	17.58	-51.7	-53.6	15.2	0.00e+00	0	22	0	895483904	69	4495
2026-01-13 05:37:26.25	330.21	17.51	-51.7	-53.6	15.1	0.00e+00	0	22	0	897581056	69	4539
2026-01-13 05:37:27.25	330.02	17.45	-51.8	-53.7	15.1	0.00e+00	0	22	0	898629632	69	4556
2026-01-13 05:37:28.26	329.83	17.38	-51.7	-53.6	15.1	0.00e+00	0	22	0	900726784	69	4540
2026-01-13 05:37:29.26	329.65	17.31	-51.8	-53.7	15.1	0.00e+00	0	22	0	902823936	69	4561
2026-01-13 05:37:30.26	329.46	17.24	-51.6	-53.5	15.2	0.00e+00	0	22	0	904921088	69	4476
2026-01-13 05:37:31.25	329.28	17.17	-51.6	-53.4	15.2	0.00e+00	0	22	0	907018240	69	4435
2026-01-13 05:37:32.25	329.10	17.10	-51.6	-53.4	15.3	0.00e+00	0	22	0	908066816	69	4430
2026-01-13 05:37:33.26	328.92	17.03	-51.5	-53.4	15.3	0.00e+00	0	22	0	910163968	69	4415
2026-01-13 05:37:34.26	328.74	16.96	-51.5	-53.3	15.3	0.00e+00	0	22	0	912261120	69	4354
2026-01-13 05:37:35.26	328.56	16.90	-51.5	-53.3	15.3	0.00e+00	0	22	0	914358272	69	4373
2026-01-13 05:37:36.25	328.38	16.83	-51.5	-53.3	15.3	0.00e+00	0	22	0	916455424	69	4375
2026-01-13 05:37:37.25	328.20	16.76	-51.3	-53.1	15.4	0.00e+00	0	22	0	917504000	69	4252
2026-01-13 05:37:38.25	328.02	16.69	-51.2	-52.9	15.6	0.00e+00	0	22	0	919601152	69	4188
2026-01-13 05:37:39.25	327.85	16.62	-51.1	-52.9	15.4	0.00e+00	0	22	0	921698304	68	4398
2026-01-13 05:37:40.24	327.67	16.55	-51.1	-52.8	15.4	0.00e+00	0	22	0	923795456	68	4384
2026-01-13 05:37:41.25	327.49	16.48	-51.1	-52.8	15.4	0.00e+00	0	22	0	925892608	68	4388
2026-01-13 05:37:42.25	327.32	16.41	-51.1	-52.9	15.4	0.00e+00	0	22	0	926941184	68	4396
2026-01-13 05:37:43.25	327.15	16.34	-51.2	-53.0	15.3	0.00e+00	0	22	0	929038336	68	4484
2026-01-13 05:37:44.25	326.97	16.27	-51.2	-53.0	15.3	0.00e+00	0	22	0	931135488	68	4490
2026-01-13 05:37:45.25	326.80	16.20	-51.2	-53.0	15.3	0.00e+00	0	22	0	933232640	68	4479
2026-01-13 05:37:46.24	326.63	16.13	-51.2	-53.0	15.3	0.00e+00	0	22	0	934281216	68	4485
2026-01-13 05:37:47.24	326.46	16.06	-51.2	-53.0	15.3	0.00e+00	0	22	0	936378368	68	4470
2026-01-13 05:37:48.24	326.29	15.99	-51.3	-53.1	15.2	0.00e+00	0	22	0	938475520	68	4530
2026-01-13 05:37:49.24	326.12	15.92	-51.3	-53.1	15.2	0.00e+00	0	22	0	940572672	68	4537
2026-01-13 05:37:50.24	325.96	15.85	-51.1	-52.9	15.4	0.00e+00	0	22	0	942669824	68	4401
2026-01-13 05:37:51.25	325.79	15.78	-51.1	-52.8	15.4	0.00e+00	0	22	0	943718400	68	4369
2026-01-13 05:37:52.25	325.62	15.71	-51.0	-52.8	15.4	0.00e+00	0	22	0	945815552	68	4358
2026-01-13 05:37:53.25	325.46	15.64	-50.9	-52.6	15.6	0.00e+00	0	22	0	947912704	68	4248
2026-01-13 05:37:54.26	325.29	15.57	-50.9	-52.6	15.5	0.00e+00	0	22	0	950009856	68	4279
2026-01-13 05:37:55.26	325.13	15.50	-50.9	-52.6	15.5	0.00e+00	0	22	0	952107008	68	4269
2026-01-13 05:37:56.26	324.96	15.43	-50.8	-52.5	15.6	0.00e+00	0	22	0	953155584	68	4230
2026-01-13 05:37:57.26	324.80	15.36	-50.8	-52.5	15.6	0.00e+00	0	22	0	955252736	68	4241
2026-01-13 05:37:58.26	324.64	15.29	-50.9	-52.7	15.5	0.00e+00	0	22	0	957349888	68	4292
2026-01-13 05:37:59.26	324.48	15.21	-51.0	-52.8	15.4	0.00e+00	0	22	0	959447040	68	4367
2026-01-13 05:38:00.26	324.32	15.14	-50.9	-52.6	15.5	0.00e+00	0	22	0	960495616	68	4288
2026-01-13 05:38:01.26	324.16	15.07	-50.9	-52.7	15.5	0.00e+00	0	22	0	962592768	68	4292
2026-01-13 05:38:02.26	324.00	15.00	-50.9	-52.6	15.5	0.00e+00	0	22	0	964689920	68	4278
2026-01-13 05:38:03.26	323.84	14.93	-50.9	-52.6	15.5	0.00e+00	0	22	0	966787072	68	4281
2026-01-13 05:38:04.27	323.68	14.86	-51.0	-52.8	15.4	0.00e+00	0	22	0	968884224	68	4355
2026-01-13 05:38:05.27	323.53	14.79	-50.9	-52.6	15.5	0.00e+00	0	22	0	969932800	68	4244
2026-01-13 05:38:06.27	323.37	14.72	-50.8	-52.5	15.6	0.00e+00	0	22	0	972029952	68	4205
2026-01-13 05:38:07.27	323.22	14.65	-50.8	-52.6	15.6	0.00e+00	0	22	0	974127104	68	4243
2026-01-13 05:38:08.26	323.07	14.58	-50.9	-52.7	15.5	0.00e+00	0	22	0	976224256	68	4310
2026-01-13 05:38:09.25	322.91	14.51	-50.9	-52.6	15.5	0.00e+00	0	22	0	978321408	68	4278
2026-01-13 05:38:10.26	322.76	14.44	-51.0	-52.7	15.5	0.00e+00	0	22	0	979369984	68	4324
2026-01-13 05:38:11.26	322.61	14.37	-51.0	-52.7	15.5	0.00e+00	0	22	0	981467136	68	4333
2026-01-13 05:38:12.26	322.46	14.30	-51.0	-52.7	15.4	0.00e+00	0	22	0	983564288	68	4333
2026-01-13 05:38:13.25	322.31	14.23	-51.0	-52.8	15.4	0.00e+00	0	22	0	985661440	68	4347
2026-01-13 05:38:14.26	322.16	14.15	-51.0	-52.8	15.4	0.00e+00	0	22	0	987758592	68	4363
2026-01-13 05:38:15.26	322.01	14.08	-51.1	-52.9	15.4	0.00e+00	0	22	0	988807168	68	4415
2026-01-13 05:38:16.26	321.86	14.01	-51.1	-52.9	15.3	0.00e+00	0	22	0	990904320	68	4420
2026-01-13 05:38:17.27	321.71	13.94	-51.2	-53.0	15.3	0.00e+00	0	22	0	993001472	68	4445
2026-01-13 05:38:18.26	321.57	13.87	-51.1	-52.9	15.3	0.00e+00	0	22	0	995098624	68	4421
2026-01-13 05:38:19.27	321.42	13.80	-51.1	-52.9	15.3	0.00e+00	0	22	0	996147200	68	4434
2026-01-13 05:38:20.27	321.28	13.73	-51.2	-53.0	15.3	0.00e+00	0	22	0	998244352	68	4466
2026-01-13 05:38:21.27	321.13	13.66	-51.3	-53.1	15.2	0.00e+00	0	22	0	1000341504	68	4513
2026-01-13 05:38:22.26	320.99	13.59	-51.4	-53.2	15.1	0.00e+00	0	22	0	1002438656	68	4578
2026-01-13 05:38:23.26	320.85	13.52	-51.5	-53.4	15.1	0.00e+00	0	22	0	1004535808	68	4652
2026-01-13 05:38:24.26	320.70	13.45	-51.6	-53.5	15.0	0.00e+00	0	22	0	1005584384	68	4732
2026-01-13 05:38:25.25	320.56	13.38	-51.6	-53.5	15.0	0.00e+00	0	22	0	1007681536	68	4727
2026-01-13 05:38:26.26	320.42	13.31	-51.7	-53.6	14.9	0.00e+00	0	22	0	1009778688	68	4793
2026-01-13 05:38:27.25	320.28	13.24	-51.6	-53.5	15.0	0.00e+00	0	22	0	1011875840	68	4754
2026-01-13 05:38:28.25	320.14	13.17	-51.5	-53.4	15.0	0.00e+00	0	22	0	1013972992	68	4687
2026-01-13 05:38:29.25	320.00	13.10	-51.5	-53.4	15.0	0.00e+00	0	22	0	1015021568	68	4702
2026-01-13 05:38:30.25	319.86	13.03	-51.5	-53.4	15.0	0.00e+00	0	22	0	1017118720	68	4655
2026-01-13 05:38:31.26	319.73	12.96	-51.4	-53.3	15.1	0.00e+00	0	22	0	1019215872	68	4640
2026-01-13 05:38:32.25	319.59	12.89	-51.4	-53.2	15.1	0.00e+00	0	22	0	1021313024	68	4572
2026-01-13 05:38:33.26	319.45	12.82	-51.4	-53.3	15.1	0.00e+00	0	22	0	1022361600	68	4612
2026-01-13 05:38:34.26	319.32	12.74	-51.4	-53.3	15.1	0.00e+00	0	22	0	1024458752	68	4631
2026-01-13 05:38:35.26	319.18	12.67	-51.4	-53.3	15.1	0.00e+00	0	22	0	1026555904	68	4629
2026-01-13 05:38:36.27	319.05	12.60	-51.5	-53.4	15.0	0.00e+00	0	22	0	1028653056	68	4673
2026-01-13 05:38:37.26	318.91	12.53	-51.5	-53.4	15.0	0.00e+00	0	22	0	1030750208	68	4695
2026-01-13 05:38:38.26	318.78	12.46	-51.6	-53.6	14.9	0.00e+00	0	22	0	1031798784	68	4762
2026-01-13 05:38:39.26	318.65	12.39	-51.7	-53.7	14.8	0.00e+00	0	22	0	1033895936	68	4852
2026-01-13 05:38:40.26	318.52	12.32	-51.8	-53.8	14.8	0.00e+00	0	22	0	1035993088	68	4884
2026-01-13 05:38:41.27	318.38	12.25	-51.8	-53.8	14.8	0.00e+00	0	22	0	1038090240	68	4891
2026-01-13 05:38:42.27	318.25	12.18	-51.8	-53.9	14.7	0.00e+00	0	22	0	1040187392	68	4936
2026-01-13 05:38:43.27	318.12	12.11	-51.9	-53.9	14.7	0.00e+00	0	22	0	1041235968	68	4974
2026-01-13 05:38:44.26	318.00	12.05	-51.8	-53.9	14.8	0.00e+00	0	22	0	1043333120	68	4931
2026-01-13 05:38:45.26	317.87	11.98	-51.9	-53.9	14.7	0.00e+00	0	22	0	1045430272	68	4947
2026-01-13 05:38:46.25	317.74	11.91	-51.9	-53.9	14.7	0.00e+00	0	22	0	1047527424	68	4957
2026-01-13 05:38:47.26	317.61	11.84	-52.0	-54.0	14.7	0.00e+00	0	22	0	1049624576	69	4756
2026-01-13 05:38:48.25	317.49	11.77	-51.9	-54.0	14.9	0.00e+00	0	22	0	1050673152	69	4726
2026-01-13 05:38:49.25	317.36	11.70	-52.0	-54.0	14.8	0.00e+00	0	22	0	1052770304	69	4758
2026-01-13 05:38:50.25	317.24	11.63	-51.9	-54.0	14.8	0.00e+00	0	22	0	1054867456	69	4719
2026-01-13 05:38:51.25	317.11	11.56	-52.0	-54.0	14.8	0.00e+00	0	22	0	1056964608	69	4755
2026-01-13 05:38:52.26	316.98	11.49	-52.0	-54.0	14.8	0.00e+00	0	22	0	1058013184	69	4758
2026-01-13 05:38:53.26	316.86	11.42	-52.0	-54.0	14.8	0.00e+00	0	22	0	1060110336	69	4737
2026-01-13 05:38:54.25	316.74	11.35	-52.0	-54.0	14.8	0.00e+00	0	22	0	1062207488	69	4753
2026-01-13 05:38:55.24	316.62	11.28	-51.9	-54.0	14.8	0.00e+00	0	22	0	1064304640	69	4717
2026-01-13 05:38:56.24	316.50	11.22	-52.0	-54.1	14.8	0.00e+00	0	22	0	1066401792	69	4768
2026-01-13 05:38:57.23	316.38	11.15	-52.0	-54.1	14.8	0.00e+00	0	22	0	1067450368	69	4764
2026-01-13 05:38:58.24	316.25	11.08	-52.0	-54.1	14.7	0.00e+00	0	22	0	1069547520	69	4798
2026-01-13 05:38:59.24	316.13	11.01	-52.2	-54.3	14.6	0.00e+00	0	22	0	1071644672	69	4896
2026-01-13 05:39:00.24	316.01	10.94	-52.2	-54.3	14.6	0.00e+00	0	22	0	1073741824	69	4903
2026-01-13 05:39:01.23	315.90	10.87	-52.2	-54.3	14.6	0.00e+00	0	22	0	1075838976	69	4913
2026-01-13 05:39:02.23	315.78	10.80	-52.2	-54.4	14.5	0.00e+00	0	22	0	1076887552	69	4970
2026-01-13 05:39:03.22	315.66	10.74	-52.4	-54.6	14.4	0.00e+00	0	22	0	1078984704	69	5089
2026-01-13 05:39:04.23	315.54	10.67	-52.4	-54.7	14.6	0.00e+00	0	22	0	1081081856	70	4828
2026-01-13 05:39:05.23	315.43	10.60	-52.4	-54.6	14.6	0.00e+00	0	22	0	1083179008	70	4768
2026-01-13 05:39:06.23	315.31	10.53	-52.4	-54.6	14.6	0.00e+00	0	22	0	1084227584	70	4784
2026-01-13 05:39:07.22	315.20	10.46	-52.3	-54.5	14.7	0.00e+00	0	22	0	1086324736	70	4744
2026-01-13 05:39:08.22	315.08	10.39	-52.4	-54.7	14.6	0.00e+00	0	22	0	1088421888	70	4818
2026-01-13 05:39:09.23	314.96	10.33	-52.5	-54.7	14.5	0.00e+00	0	22	0	1090519040	70	4850
2026-01-13 05:39:10.23	314.85	10.26	-52.4	-54.7	14.6	0.00e+00	0	22	0	1092616192	70	4817
2026-01-13 05:39:11.23	314.74	10.19	-52.4	-54.7	14.5	0.00e+00	0	22	0	1093664768	70	4835
2026-01-13 05:39:12.23	314.62	10.12	-52.4	-54.7	14.5	0.00e+00	0	22	0	1095761920	70	4830
2026-01-13 05:39:13.23	314.51	10.05	-52.4	-54.6	14.6	0.00e+00	0	22	0	1097859072	70	4785
2026-01-13 05:39:14.22	314.40	9.99	-52.4	-54.6	14.6	0.00e+00	0	22	0	1099956224	70	4806
2026-01-13 05:39:15.22	314.29	9.92	-52.4	-54.6	14.6	0.00e+00	0	22	0	1101004800	70	4805
2026-01-13 05:39:16.22	314.18	9.85	-52.4	-54.6	14.6	0.00e+00	0	22	0	1103101952	70	4804
2026-01-13 05:39:17.21	314.07	9.78	-52.5	-54.7	14.5	0.00e+00	0	22	0	1105199104	70	4858
2026-01-13 05:39:18.20	313.96	9.72	-52.5	-54.8	14.5	0.00e+00	0	22	0	1107296256	70	4884
2026-01-13 05:39:19.21	313.85	9.65	-52.6	-55.0	14.3	0.00e+00	0	22	0	1109393408	70	5001
2026-01-13 05:39:20.20	313.74	9.58	-52.6	-54.9	14.4	0.00e+00	0	22	0	1110441984	70	4963
2026-01-13 05:39:21.19	313.64	9.52	-52.6	-54.9	14.4	0.00e+00	0	22	0	1112539136	70	4951
2026-01-13 05:39:22.19	313.53	9.45	-52.6	-55.0	14.3	0.00e+00	0	22	0	1114636288	70	5004
2026-01-13 05:39:23.19	313.42	9.38	-52.7	-55.1	14.3	0.00e+00	0	22	0	1116733440	70	5054
2026-01-13 05:39:24.19	313.31	9.32	-52.8	-55.2	14.2	0.00e+00	0	22	0	1118830592	70	5112
2026-01-13 05:39:25.19	313.21	9.25	-52.8	-55.3	14.1	0.00e+00	0	22	0	1119879168	70	5185
2026-01-13 05:39:26.19	313.10	9.18	-52.8	-55.3	14.1	0.00e+00	0	22	0	1121976320	70	5170
2026-01-13 05:39:27.18	313.00	9.12	-52.8	-55.3	14.1	0.00e+00	0	22	0	1124073472	70	5166
2026-01-13 05:39:28.18	312.89	9.05	-53.1	-55.6	14.1	0.00e+00	0	22	0	1126170624	71	5074
2026-01-13 05:39:29.17	312.79	8.98	-53.1	-55.7	14.0	0.00e+00	0	22	0	1127219200	71	5121
2026-01-13 05:39:30.17	312.69	8.92	-53.0	-55.4	14.2	0.00e+00	0	22	0	1129316352	71	4979
2026-01-13 05:39:31.16	312.58	8.85	-53.0	-55.5	14.2	0.00e+00	0	22	0	1131413504	71	4998
2026-01-13 05:39:32.16	312.48	8.79	-53.0	-55.6	14.1	0.00e+00	0	22	0	1133510656	71	5065
2026-01-13 05:39:33.16	312.38	8.72	-53.1	-55.6	14.0	0.00e+00	0	22	0	1135607808	71	5077
2026-01-13 05:39:34.16	312.28	8.65	-53.1	-55.7	14.0	0.00e+00	0	22	0	1136656384	71	5107
2026-01-13 05:39:35.17	312.18	8.59	-53.1	-55.7	14.0	0.00e+00	0	22	0	1138753536	71	5107
2026-01-13 05:39:36.17	312.07	8.52	-53.1	-55.7	14.0	0.00e+00	0	22	0	1140850688	71	5114
2026-01-13 05:39:37.17	311.97	8.46	-53.1	-55.7	14.0	0.00e+00	0	22	0	1142947840	71	5144
2026-01-13 05:39:38.17	311.87	8.39	-53.2	-55.8	13.9	0.00e+00	0	22	0	1145044992	71	5208
2026-01-13 05:39:39.16	311.78	8.32	-53.2	-55.9	13.9	0.00e+00	0	22	0	1146093568	71	5252
2026-01-13 05:39:40.16	311.68	8.26	-53.3	-56.0	13.7	0.00e+00	0	22	0	1148190720	71	5316
2026-01-13 05:39:41.16	311.58	8.19	-53.3	-56.0	13.7	0.00e+00	0	22	0	1150287872	71	5337
2026-01-13 05:39:42.16	311.48	8.13	-53.3	-56.1	13.7	0.00e+00	0	22	0	1152385024	71	5351
2026-01-13 05:39:43.16	311.38	8.06	-53.3	-56.0	13.8	0.00e+00	0	22	0	1153433600	71	5283
2026-01-13 05:39:44.16	311.29	8.00	-53.3	-56.1	13.7	0.00e+00	0	22	0	1155530752	71	5361
2026-01-13 05:39:45.16	311.19	7.93	-53.4	-56.2	13.6	0.00e+00	0	22	0	1157627904	71	5438
2026-01-13 05:39:46.16	311.09	7.87	-53.5	-56.3	13.7	0.00e+00	0	22	0	1159725056	72	5177
2026-01-13 05:39:47.15	311.00	7.80	-53.3	-56.0	13.9	0.00e+00	0	22	0	1161822208	72	5040
2026-01-13 05:39:48.16	310.90	7.74	-53.2	-55.9	14.0	0.00e+00	0	22	0	1162870784	72	4958
2026-01-13 05:39:49.16	310.81	7.67	-53.3	-55.9	14.0	0.00e+00	0	22	0	1164967936	72	4972
2026-01-13 05:39:50.15	310.71	7.61	-53.2	-55.9	14.0	0.00e+00	0	22	0	1167065088	72	4942
2026-01-13 05:39:51.15	310.62	7.54	-53.3	-56.0	13.9	0.00e+00	0	22	0	1169162240	72	5040
2026-01-13 05:39:52.15	310.53	7.48	-53.3	-56.0	13.9	0.00e+00	0	22	0	1171259392	72	5029
2026-01-13 05:39:53.14	310.43	7.42	-53.2	-55.9	13.9	0.00e+00	0	22	0	1172307968	72	4974
2026-01-13 05:39:54.14	310.34	7.35	-53.4	-56.2	13.8	0.00e+00	0	22	0	1174405120	72	5119
2026-01-13 05:39:55.14	310.25	7.29	-53.4	-56.2	13.8	0.00e+00	0	22	0	1176502272	72	5139
2026-01-13 05:39:56.14	310.16	7.22	-53.5	-56.3	13.7	0.00e+00	0	22	0	1178599424	72	5182
2026-01-13 05:39:57.14	310.06	7.16	-53.4	-56.1	13.8	0.00e+00	0	22	0	1179648000	72	5084
2026-01-13 05:39:58.14	309.97	7.10	-53.5	-56.4	13.6	0.00e+00	0	22	0	1181745152	72	5228
2026-01-13 05:39:59.14	309.88	7.03	-53.4	-56.2	13.7	0.00e+00	0	22	0	1183842304	72	5139
2026-01-13 05:40:00.15	309.79	6.97	-53.5	-56.4	13.6	0.00e+00	0	22	0	1185939456	72	5220
2026-01-13 05:40:01.14	309.70	6.90	-53.5	-56.4	13.6	0.00e+00	0	22	0	1188036608	72	5247
2026-01-13 05:40:02.13	309.61	6.84	-53.6	-56.6	13.4	0.00e+00	0	22	0	1189085184	72	5373
2026-01-13 05:40:03.13	309.52	6.78	-53.5	-56.3	13.6	0.00e+00	0	22	0	1191182336	72	5211
2026-01-13 05:40:04.13	309.44	6.71	-53.5	-56.4	13.6	0.00e+00	0	22	0	1193279488	72	5273
2026-01-13 05:40:05.13	309.35	6.65	-53.6	-56.5	13.5	0.00e+00	0	22	0	1195376640	72	5315
2026-01-13 05:40:06.13	309.26	6.59	-53.6	-56.5	13.5	0.00e+00	0	22	0	1197473792	72	5328
2026-01-13 05:40:07.13	309.17	6.52	-53.7	-56.8	13.3	0.00e+00	0	22	0	1198522368	72	5472
2026-01-13 05:40:08.12	309.09	6.46	-53.8	-57.0	13.1	0.00e+00	0	22	0	1200619520	72	5599
2026-01-13 05:40:09.12	309.00	6.40	-53.7	-56.7	13.3	0.00e+00	0	22	0	1202716672	72	5436
2026-01-13 05:40:10.11	308.91	6.34	-53.7	-56.7	13.3	0.00e+00	0	22	0	1204813824	72	5456
2026-01-13 05:40:11.11	308.83	6.27	-53.8	-56.9	13.2	0.00e+00	0	22	0	1205862400	72	5542
2026-01-13 05:40:12.11	308.74	6.21	-53.7	-56.8	13.3	0.00e+00	0	22	0	1207959552	72	5477
2026-01-13 05:40:13.10	308.66	6.15	-53.7	-56.8	13.1	0.00e+00	0	22	0	1210056704	72	5508
2026-01-13 05:40:14.11	308.57	6.09	-53.8	-56.9	13.1	0.00e+00	0	22	0	1212153856	72	5576
