passes_logs/2026/01/13/R3.2S_Murmansk/R3.2S_Murmansk__20260113_142847_FENGYUN_3D_rec.log

#Pass ID: 20260113_142847_FENGYUN 3D
#Satellite: FENGYUN 3D
#Configuration: FENGYUN 3D
#almurnet v.1.7.20251203
#Start time: 2026-01-13 14:28:50

#Version: 2.2.20231116
#Station: R3.2S_Murmansk
#Location: 33.079688 lon 68.888172 lat
#TLE: 1 43010U 17072A   26013.17115950  .00000473  00000+0  24523-3 0  9998
#TLE: 2 43010  98.9934 344.9592 0002262 111.3119 248.8298 14.19696744422995

#Time	Az	El	Level	Level2	SNR	BER	BlckErr	Temp	State	Recorded	gain1	gain2
2026-01-13 14:28:50.12	226.81	2.12	-58.5	-71.5	3.8	8.45e-01	0	25	0	0	83	15806
2026-01-13 14:28:51.11	226.90	2.17	-58.5	-71.4	3.8	8.46e-01	0	25	104	0	82	16650
2026-01-13 14:28:52.11	226.98	2.22	-58.5	-71.5	3.8	8.46e-01	0	25	104	0	82	16735
2026-01-13 14:28:53.12	227.07	2.27	-58.5	-71.5	3.8	8.47e-01	0	25	104	0	82	16782
2026-01-13 14:28:54.12	227.16	2.32	-58.5	-71.5	3.8	8.45e-01	0	25	104	0	82	16762
2026-01-13 14:28:55.11	227.25	2.37	-58.4	-71.4	3.8	8.45e-01	0	25	104	0	82	16692
2026-01-13 14:28:56.11	227.33	2.42	-58.4	-71.4	3.8	8.45e-01	0	25	104	0	82	16615
2026-01-13 14:28:57.11	227.42	2.47	-58.4	-71.4	3.8	8.45e-01	0	25	104	0	82	16549
2026-01-13 14:28:58.11	227.51	2.52	-58.5	-71.3	3.8	8.45e-01	0	25	104	0	82	16435
2026-01-13 14:28:59.10	227.60	2.58	-58.5	-71.4	3.8	8.45e-01	0	25	104	0	82	16521
2026-01-13 14:29:00.10	227.68	2.63	-58.5	-71.4	3.8	8.45e-01	0	25	104	0	82	16613
2026-01-13 14:29:01.11	227.77	2.68	-58.5	-71.4	3.8	8.46e-01	0	25	104	0	82	16669
2026-01-13 14:29:02.10	227.86	2.73	-58.5	-71.4	3.8	8.45e-01	0	25	104	0	82	16682
2026-01-13 14:29:03.10	227.95	2.78	-58.5	-71.4	3.8	8.46e-01	0	25	104	0	82	16675
2026-01-13 14:29:04.09	228.04	2.83	-58.5	-71.4	3.8	8.45e-01	0	25	104	0	82	16564
2026-01-13 14:29:05.09	228.13	2.88	-58.5	-71.3	3.8	8.45e-01	0	25	104	0	82	16496
2026-01-13 14:29:06.09	228.22	2.93	-58.5	-71.4	3.8	8.45e-01	0	25	104	0	82	16510
2026-01-13 14:29:07.09	228.31	2.98	-58.5	-71.4	3.8	8.46e-01	0	25	104	0	82	16564
2026-01-13 14:29:08.09	228.40	3.03	-58.5	-71.4	3.8	8.47e-01	0	25	104	0	82	16655
2026-01-13 14:29:09.09	228.49	3.08	-58.5	-71.4	3.8	8.45e-01	0	25	104	0	82	16687
2026-01-13 14:29:10.09	228.59	3.14	-58.5	-71.4	3.8	8.46e-01	0	25	104	0	82	16660
2026-01-13 14:29:11.08	228.68	3.19	-58.5	-71.4	3.8	8.46e-01	0	25	104	0	82	16630
2026-01-13 14:29:12.08	228.77	3.24	-58.5	-71.4	3.8	8.45e-01	0	26	104	0	82	16646
2026-01-13 14:29:13.08	228.86	3.29	-58.5	-71.4	3.8	8.45e-01	0	26	104	0	82	16565
2026-01-13 14:29:14.07	228.95	3.34	-58.5	-71.4	3.8	8.45e-01	0	26	104	0	82	16657
2026-01-13 14:29:15.07	229.05	3.39	-58.5	-71.5	3.8	8.46e-01	0	25	104	0	82	16714
2026-01-13 14:29:16.07	229.14	3.44	-58.5	-71.5	3.8	8.45e-01	0	25	104	0	82	16714
2026-01-13 14:29:17.07	229.23	3.49	-58.5	-71.5	3.8	8.46e-01	0	26	104	0	82	16783
2026-01-13 14:29:18.06	229.33	3.54	-58.5	-71.5	3.8	8.46e-01	0	26	104	0	82	16741
2026-01-13 14:29:19.06	229.42	3.60	-58.5	-71.5	3.8	8.46e-01	0	26	104	0	82	16700
2026-01-13 14:29:20.06	229.52	3.65	-58.5	-71.4	3.8	8.47e-01	0	26	104	0	82	16530
2026-01-13 14:29:21.06	229.61	3.70	-58.5	-71.3	3.8	8.44e-01	0	26	104	0	82	16459
2026-01-13 14:29:22.06	229.71	3.75	-58.5	-71.4	3.8	8.46e-01	0	26	104	0	82	16507
2026-01-13 14:29:23.06	229.80	3.80	-58.5	-71.4	3.8	8.46e-01	0	26	104	0	82	16543
2026-01-13 14:29:24.06	229.90	3.85	-58.5	-71.4	3.8	8.46e-01	0	26	104	0	82	16524
2026-01-13 14:29:25.07	229.99	3.91	-58.5	-71.4	3.8	8.45e-01	0	26	104	0	82	16563
2026-01-13 14:29:26.07	230.09	3.96	-58.5	-71.3	3.8	8.44e-01	0	26	104	0	82	16430
2026-01-13 14:29:27.07	230.19	4.01	-58.5	-71.3	3.8	8.45e-01	0	26	104	0	82	16328
2026-01-13 14:29:28.08	230.29	4.06	-58.4	-71.1	3.8	8.45e-01	0	26	104	0	82	16112
2026-01-13 14:29:29.09	230.38	4.11	-58.4	-70.9	3.8	8.45e-01	0	26	104	0	82	15633
2026-01-13 14:29:30.09	230.48	4.17	-58.4	-70.7	3.8	8.46e-01	0	26	104	0	82	15389
2026-01-13 14:29:31.09	230.58	4.22	-58.4	-70.7	3.8	8.45e-01	0	26	104	0	82	15339
2026-01-13 14:29:32.09	230.68	4.27	-58.4	-70.9	3.8	8.45e-01	0	26	104	0	82	15751
2026-01-13 14:29:33.09	230.78	4.32	-58.5	-71.3	3.8	8.46e-01	0	26	104	0	82	16475
2026-01-13 14:29:34.09	230.88	4.37	-58.5	-71.5	3.8	8.45e-01	0	26	104	0	82	16789
2026-01-13 14:29:35.10	230.98	4.43	-58.4	-70.7	3.8	8.46e-01	0	26	104	0	82	15383
2026-01-13 14:29:36.09	231.08	4.48	-58.3	-68.9	3.9	8.45e-01	0	26	104	0	82	12379
2026-01-13 14:29:37.10	231.18	4.53	-58.0	-66.8	4.6	8.22e-01	0	26	0	0	82	9729
2026-01-13 14:29:38.11	231.28	4.58	-57.7	-65.1	5.4	7.26e-01	0	26	0	0	82	7996
2026-01-13 14:29:39.10	231.38	4.64	-57.4	-63.6	6.3	3.48e-01	0	26	0	5242880	81	7169
2026-01-13 14:29:40.10	231.48	4.69	-57.0	-62.5	7.2	1.33e-01	0	26	0	10485760	80	6696
2026-01-13 14:29:41.09	231.58	4.74	-56.7	-61.4	8.2	5.99e-02	0	26	0	15728640	80	5921
2026-01-13 14:29:42.09	231.68	4.79	-56.1	-60.1	9.2	1.31e-02	0	26	0	22020096	78	5717
2026-01-13 14:29:43.08	231.78	4.84	-55.3	-58.5	10.6	1.77e-03	0	26	0	27262976	77	5031
2026-01-13 14:29:44.08	231.89	4.90	-54.1	-56.7	11.8	2.28e-05	0	26	0	32505856	74	4857
2026-01-13 14:29:45.08	231.99	4.95	-52.9	-55.0	12.8	1.10e-06	0	26	0	38797312	72	4465
2026-01-13 14:29:46.09	232.09	5.00	-51.9	-53.7	13.5	0.00e+00	0	26	0	44040192	70	4336
2026-01-13 14:29:47.09	232.20	5.05	-51.3	-53.0	13.8	0.00e+00	0	26	0	50331648	69	4223
2026-01-13 14:29:48.08	232.30	5.11	-52.0	-53.9	13.2	0.00e+00	0	26	0	55574528	69	4704
2026-01-13 14:29:49.08	232.41	5.16	-54.9	-57.9	10.9	1.62e-04	0	26	0	60817408	75	5258
2026-01-13 14:29:50.08	232.51	5.21	-50.7	-52.4	13.9	0.00e+00	0	26	0	67108864	67	4392
2026-01-13 14:29:51.08	232.62	5.26	-53.7	-56.2	11.9	1.10e-06	0	26	0	72351744	72	5115
2026-01-13 14:29:52.08	232.72	5.32	-55.0	-58.1	10.8	3.40e-06	0	26	0	77594624	75	5376
2026-01-13 14:29:53.07	232.83	5.37	-50.3	-51.8	14.2	0.00e+00	0	26	0	83886080	67	4116
2026-01-13 14:29:54.07	232.93	5.42	-50.4	-51.9	14.1	0.00e+00	0	26	0	89128960	67	4185
2026-01-13 14:29:55.08	233.04	5.47	-50.2	-51.7	14.2	0.00e+00	0	26	0	94371840	67	4097
2026-01-13 14:29:56.07	233.15	5.53	-49.8	-51.3	14.3	0.00e+00	0	26	0	100663296	66	4115
2026-01-13 14:29:57.08	233.25	5.58	-50.0	-51.5	14.2	0.00e+00	0	26	0	105906176	66	4202
2026-01-13 14:29:58.08	233.36	5.63	-50.1	-51.5	14.2	0.00e+00	0	26	0	112197632	66	4238
2026-01-13 14:29:59.08	233.47	5.68	-49.8	-51.2	14.4	0.00e+00	0	26	0	117440512	66	4083
2026-01-13 14:30:00.09	233.58	5.74	-50.0	-51.4	14.3	0.00e+00	0	26	0	122683392	66	4193
2026-01-13 14:30:01.08	233.69	5.79	-49.9	-51.4	14.3	0.00e+00	0	26	0	128974848	66	4172
2026-01-13 14:30:02.09	233.80	5.84	-49.7	-51.1	14.4	0.00e+00	0	26	0	134217728	66	4045
2026-01-13 14:30:03.08	233.91	5.89	-49.6	-51.0	14.3	0.00e+00	0	26	0	139460608	65	4239
2026-01-13 14:30:04.08	234.02	5.95	-49.7	-51.1	14.3	0.00e+00	0	26	0	145752064	65	4282
2026-01-13 14:30:05.08	234.13	6.00	-49.7	-51.1	14.3	0.00e+00	0	26	0	150994944	65	4259
2026-01-13 14:30:06.08	234.24	6.05	-49.7	-51.2	14.3	0.00e+00	0	26	0	156237824	65	4294
2026-01-13 14:30:07.08	234.35	6.11	-49.8	-51.3	14.3	0.00e+00	0	26	0	162529280	65	4350
2026-01-13 14:30:08.07	234.46	6.16	-49.8	-51.3	14.2	0.00e+00	0	26	0	167772160	65	4355
2026-01-13 14:30:09.07	234.57	6.21	-49.8	-51.3	14.2	0.00e+00	0	26	0	174063616	65	4348
2026-01-13 14:30:10.06	234.68	6.26	-49.9	-51.3	14.2	0.00e+00	0	26	0	179306496	65	4382
2026-01-13 14:30:11.06	234.79	6.32	-49.8	-51.3	14.2	0.00e+00	0	26	0	184549376	65	4365
2026-01-13 14:30:12.06	234.91	6.37	-49.8	-51.3	14.2	0.00e+00	0	26	0	190840832	65	4364
2026-01-13 14:30:13.06	235.02	6.42	-49.8	-51.2	14.3	0.00e+00	0	26	0	196083712	65	4332
2026-01-13 14:30:14.05	235.13	6.47	-49.7	-51.2	14.3	0.00e+00	0	26	0	201326592	65	4308
2026-01-13 14:30:15.05	235.25	6.53	-49.6	-51.0	14.4	0.00e+00	0	26	0	206569472	65	4218
2026-01-13 14:30:16.05	235.36	6.58	-49.6	-51.0	14.4	0.00e+00	0	26	0	212860928	65	4221
2026-01-13 14:30:17.05	235.48	6.63	-49.8	-51.2	14.3	0.00e+00	0	26	0	218103808	65	4313
2026-01-13 14:30:18.04	235.59	6.69	-49.7	-51.1	14.3	0.00e+00	0	26	0	224395264	65	4265
2026-01-13 14:30:19.03	235.71	6.74	-49.5	-50.9	14.4	0.00e+00	0	26	0	229638144	65	4189
2026-01-13 14:30:20.03	235.82	6.79	-49.6	-51.0	14.4	0.00e+00	0	26	0	234881024	65	4198
2026-01-13 14:30:21.04	235.94	6.85	-49.3	-50.7	14.6	0.00e+00	0	26	0	241172480	65	4061
2026-01-13 14:30:22.04	236.06	6.90	-49.3	-50.7	14.6	0.00e+00	0	26	0	246415360	65	4066
2026-01-13 14:30:23.04	236.18	6.95	-49.2	-50.6	14.6	0.00e+00	0	26	0	251658240	65	4013
2026-01-13 14:30:24.03	236.29	7.00	-49.3	-50.7	14.5	0.00e+00	0	26	0	257949696	65	4076
2026-01-13 14:30:25.04	236.41	7.06	-49.3	-50.7	14.6	0.00e+00	0	26	0	263192576	65	4060
2026-01-13 14:30:26.04	236.53	7.11	-49.2	-50.5	14.5	0.00e+00	0	26	0	268435456	64	4214
2026-01-13 14:30:27.05	236.65	7.16	-49.4	-50.8	14.4	0.00e+00	0	27	0	274726912	64	4341
2026-01-13 14:30:28.04	236.77	7.22	-49.3	-50.7	14.4	0.00e+00	0	26	0	279969792	64	4326
2026-01-13 14:30:29.04	236.89	7.27	-49.4	-50.7	14.4	0.00e+00	0	26	0	286261248	64	4339
2026-01-13 14:30:30.04	237.01	7.32	-49.3	-50.7	14.5	0.00e+00	0	26	0	291504128	64	4301
2026-01-13 14:30:31.04	237.13	7.38	-49.3	-50.7	14.5	0.00e+00	0	26	0	296747008	64	4296
2026-01-13 14:30:32.04	237.25	7.43	-49.4	-50.8	14.4	0.00e+00	0	26	0	303038464	64	4358
2026-01-13 14:30:33.03	237.37	7.48	-49.5	-50.9	14.3	0.00e+00	0	26	0	308281344	64	4427
2026-01-13 14:30:34.03	237.49	7.54	-49.5	-50.9	14.3	0.00e+00	0	26	0	313524224	64	4429
2026-01-13 14:30:35.03	237.62	7.59	-49.5	-51.0	14.3	0.00e+00	0	26	0	319815680	64	4442
2026-01-13 14:30:36.03	237.74	7.64	-49.3	-50.7	14.4	0.00e+00	0	26	0	325058560	64	4330
2026-01-13 14:30:37.02	237.86	7.69	-49.3	-50.7	14.4	0.00e+00	0	26	0	330301440	64	4308
2026-01-13 14:30:38.02	237.99	7.75	-49.2	-50.6	14.5	0.00e+00	0	26	0	336592896	64	4259
2026-01-13 14:30:39.02	238.11	7.80	-49.3	-50.7	14.5	0.00e+00	0	26	0	341835776	64	4298
2026-01-13 14:30:40.02	238.23	7.85	-49.4	-50.7	14.4	0.00e+00	0	26	0	348127232	64	4332
2026-01-13 14:30:41.02	238.36	7.91	-49.3	-50.7	14.5	0.00e+00	0	26	0	353370112	64	4293
2026-01-13 14:30:42.01	238.48	7.96	-49.3	-50.6	14.5	0.00e+00	0	26	0	358612992	64	4281
2026-01-13 14:30:43.01	238.61	8.01	-49.2	-50.5	14.5	0.00e+00	0	26	0	363855872	64	4240
2026-01-13 14:30:44.01	238.74	8.07	-49.2	-50.5	14.5	0.00e+00	0	26	0	370147328	64	4225
2026-01-13 14:30:45.00	238.86	8.12	-49.1	-50.5	14.5	0.00e+00	0	26	0	375390208	64	4202
2026-01-13 14:30:46.01	238.99	8.17	-49.0	-50.3	14.6	0.00e+00	0	26	0	381681664	64	4131
2026-01-13 14:30:47.01	239.12	8.23	-49.1	-50.4	14.6	0.00e+00	0	26	0	386924544	64	4190
2026-01-13 14:30:48.01	239.25	8.28	-49.1	-50.4	14.6	0.00e+00	0	27	0	392167424	64	4168
2026-01-13 14:30:49.02	239.38	8.33	-49.2	-50.5	14.6	0.00e+00	0	26	0	398458880	64	4211
2026-01-13 14:30:50.01	239.50	8.38	-49.1	-50.4	14.6	0.00e+00	0	26	0	403701760	64	4180
2026-01-13 14:30:51.01	239.63	8.44	-49.1	-50.4	14.6	0.00e+00	0	26	0	409993216	64	4177
2026-01-13 14:30:52.02	239.77	8.49	-49.1	-50.4	14.6	0.00e+00	0	26	0	415236096	64	4178
2026-01-13 14:30:53.02	239.90	8.54	-49.0	-50.3	14.6	0.00e+00	0	26	0	420478976	64	4130
2026-01-13 14:30:54.02	240.03	8.60	-49.1	-50.4	14.6	0.00e+00	0	26	0	426770432	64	4168
2026-01-13 14:30:55.02	240.16	8.65	-49.1	-50.4	14.6	0.00e+00	0	26	0	432013312	64	4166
2026-01-13 14:30:56.02	240.29	8.70	-49.0	-50.3	14.7	0.00e+00	0	26	0	437256192	64	4109
2026-01-13 14:30:57.02	240.42	8.76	-49.0	-50.3	14.6	0.00e+00	0	26	0	443547648	64	4114
2026-01-13 14:30:58.03	240.56	8.81	-48.9	-50.2	14.7	0.00e+00	0	26	0	448790528	64	4096
2026-01-13 14:30:59.03	240.69	8.86	-48.8	-50.1	14.7	0.00e+00	0	26	0	455081984	64	4050
2026-01-13 14:31:00.03	240.82	8.92	-48.8	-50.1	14.8	0.00e+00	0	26	0	460324864	64	4013
2026-01-13 14:31:01.03	240.96	8.97	-48.7	-50.0	14.8	0.00e+00	0	26	0	465567744	64	3985
2026-01-13 14:31:02.03	241.09	9.02	-48.8	-50.0	14.8	0.00e+00	0	26	0	471859200	64	4004
2026-01-13 14:31:03.04	241.23	9.07	-48.6	-49.9	14.7	0.00e+00	0	26	0	477102080	63	4167
2026-01-13 14:31:04.04	241.36	9.13	-48.5	-49.8	14.8	0.00e+00	0	26	0	482344960	63	4113
2026-01-13 14:31:05.03	241.50	9.18	-48.5	-49.7	14.8	0.00e+00	0	26	0	488636416	63	4089
2026-01-13 14:31:06.03	241.64	9.23	-48.5	-49.8	14.7	0.00e+00	0	26	0	493879296	63	4120
2026-01-13 14:31:07.03	241.77	9.29	-48.5	-49.8	14.8	0.00e+00	0	26	0	499122176	63	4101
2026-01-13 14:31:08.02	241.91	9.34	-48.6	-49.8	14.7	0.00e+00	0	26	0	505413632	63	4128
2026-01-13 14:31:09.02	242.05	9.39	-48.7	-50.0	14.7	0.00e+00	0	26	0	510656512	63	4201
2026-01-13 14:31:10.02	242.19	9.44	-48.6	-49.9	14.7	0.00e+00	0	27	0	516947968	63	4191
2026-01-13 14:31:11.02	242.32	9.50	-48.7	-50.0	14.6	0.00e+00	0	26	0	522190848	63	4235
2026-01-13 14:31:12.01	242.46	9.55	-48.7	-50.0	14.7	0.00e+00	0	27	0	527433728	63	4215
2026-01-13 14:31:13.00	242.60	9.60	-48.7	-50.0	14.7	0.00e+00	0	26	0	532676608	63	4214
2026-01-13 14:31:13.99	242.74	9.65	-48.7	-50.0	14.7	0.00e+00	0	27	0	538968064	63	4214
2026-01-13 14:31:14.98	242.88	9.70	-48.7	-50.0	14.6	0.00e+00	0	27	0	544210944	63	4225
2026-01-13 14:31:15.98	243.02	9.76	-48.7	-50.0	14.7	0.00e+00	0	26	0	549453824	63	4234
2026-01-13 14:31:16.98	243.16	9.81	-48.8	-50.0	14.6	0.00e+00	0	26	0	555745280	63	4241
2026-01-13 14:31:17.98	243.31	9.86	-48.8	-50.1	14.6	0.00e+00	0	26	0	560988160	63	4276
2026-01-13 14:31:18.97	243.45	9.91	-48.8	-50.1	14.6	0.00e+00	0	26	0	567279616	63	4283
2026-01-13 14:31:19.97	243.59	9.96	-48.8	-50.0	14.7	0.00e+00	0	26	0	572522496	63	4235
2026-01-13 14:31:20.97	243.73	10.02	-48.7	-50.0	14.7	0.00e+00	0	27	0	577765376	63	4232
2026-01-13 14:31:21.97	243.88	10.07	-48.6	-49.9	14.7	0.00e+00	0	27	0	584056832	63	4178
2026-01-13 14:31:22.97	244.02	10.12	-48.6	-49.9	14.7	0.00e+00	0	27	0	589299712	63	4168
2026-01-13 14:31:23.97	244.17	10.17	-48.7	-50.0	14.7	0.00e+00	0	26	0	594542592	63	4214
2026-01-13 14:31:24.97	244.31	10.23	-48.7	-49.9	14.7	0.00e+00	0	26	0	600834048	63	4190
2026-01-13 14:31:25.97	244.46	10.28	-48.7	-50.0	14.7	0.00e+00	0	26	0	606076928	63	4197
2026-01-13 14:31:26.97	244.61	10.33	-48.7	-49.9	14.7	0.00e+00	0	27	0	611319808	63	4182
2026-01-13 14:31:27.98	244.76	10.38	-48.6	-49.8	14.8	0.00e+00	0	27	0	617611264	63	4129
2026-01-13 14:31:28.99	244.91	10.43	-48.6	-49.8	14.7	0.00e+00	0	26	0	622854144	63	4131
2026-01-13 14:31:29.99	245.05	10.49	-48.6	-49.8	14.7	0.00e+00	0	26	0	629145600	63	4140
2026-01-13 14:31:30.99	245.20	10.54	-48.6	-49.9	14.7	0.00e+00	0	27	0	634388480	63	4166
2026-01-13 14:31:31.99	245.35	10.59	-48.6	-49.9	14.7	0.00e+00	0	26	0	639631360	63	4164
2026-01-13 14:31:32.97	245.50	10.64	-48.7	-50.0	14.7	0.00e+00	0	27	0	645922816	63	4199
2026-01-13 14:31:33.97	245.65	10.69	-48.7	-49.9	14.7	0.00e+00	0	26	0	651165696	63	4185
2026-01-13 14:31:34.98	245.80	10.74	-48.6	-49.9	14.7	0.00e+00	0	26	0	656408576	63	4177
2026-01-13 14:31:35.98	245.95	10.79	-48.6	-49.9	14.7	0.00e+00	0	27	0	662700032	63	4154
2026-01-13 14:31:36.98	246.10	10.85	-48.6	-49.9	14.7	0.00e+00	0	27	0	667942912	63	4179
2026-01-13 14:31:37.98	246.26	10.90	-48.5	-49.7	14.8	0.00e+00	0	26	0	673185792	63	4073
2026-01-13 14:31:38.97	246.41	10.95	-48.4	-49.6	14.8	0.00e+00	0	26	0	679477248	63	4047
2026-01-13 14:31:39.97	246.56	11.00	-48.2	-49.4	14.9	0.00e+00	0	27	0	684720128	63	3953
2026-01-13 14:31:40.97	246.72	11.05	-48.3	-49.5	14.9	0.00e+00	0	26	0	691011584	63	3990
2026-01-13 14:31:41.96	246.87	11.10	-48.3	-49.5	14.9	0.00e+00	0	27	0	696254464	63	3983
2026-01-13 14:31:42.96	247.02	11.15	-48.3	-49.6	14.9	0.00e+00	0	27	0	701497344	63	4018
2026-01-13 14:31:43.96	247.18	11.20	-48.3	-49.5	14.9	0.00e+00	0	26	0	707788800	63	3998
2026-01-13 14:31:44.97	247.34	11.25	-48.3	-49.5	14.9	0.00e+00	0	26	0	713031680	63	3991
2026-01-13 14:31:45.97	247.49	11.30	-48.3	-49.5	14.9	0.00e+00	0	27	0	718274560	63	3996
2026-01-13 14:31:46.97	247.65	11.35	-48.3	-49.5	14.9	0.00e+00	0	26	0	724566016	63	3993
2026-01-13 14:31:47.98	247.81	11.40	-48.3	-49.5	14.9	0.00e+00	0	27	0	729808896	63	3969
2026-01-13 14:31:48.97	247.97	11.45	-48.3	-49.5	14.9	0.00e+00	0	27	0	735051776	63	3965
2026-01-13 14:31:49.97	248.12	11.50	-48.3	-49.5	14.9	0.00e+00	0	27	0	741343232	63	3985
2026-01-13 14:31:50.97	248.28	11.56	-48.3	-49.5	14.9	0.00e+00	0	26	0	746586112	63	3996
2026-01-13 14:31:51.96	248.44	11.60	-48.3	-49.5	14.9	0.00e+00	0	27	0	752877568	63	3985
2026-01-13 14:31:52.96	248.60	11.65	-48.3	-49.6	14.9	0.00e+00	0	27	0	758120448	63	4015
2026-01-13 14:31:53.96	248.76	11.70	-48.3	-49.6	14.9	0.00e+00	0	27	0	763363328	63	4008
2026-01-13 14:31:54.96	248.92	11.75	-48.3	-49.5	14.9	0.00e+00	0	27	0	769654784	63	3981
2026-01-13 14:31:55.96	249.09	11.80	-48.3	-49.5	14.9	0.00e+00	0	26	0	774897664	63	3974
2026-01-13 14:31:56.96	249.25	11.85	-48.3	-49.5	14.9	0.00e+00	0	27	0	780140544	63	3992
2026-01-13 14:31:57.96	249.41	11.90	-48.2	-49.4	15.0	0.00e+00	0	27	0	786432000	63	3934
2026-01-13 14:31:58.97	249.58	11.95	-48.2	-49.4	14.8	0.00e+00	0	26	0	791674880	62	4163
2026-01-13 14:31:59.97	249.74	12.00	-48.2	-49.4	14.8	0.00e+00	0	26	0	796917760	62	4157
2026-01-13 14:32:00.97	249.90	12.05	-48.1	-49.3	14.9	0.00e+00	0	26	0	803209216	62	4120
2026-01-13 14:32:01.96	250.07	12.10	-48.1	-49.3	14.9	0.00e+00	0	26	0	808452096	62	4110
2026-01-13 14:32:02.96	250.23	12.15	-48.0	-49.2	14.9	0.00e+00	0	27	0	814743552	62	4079
2026-01-13 14:32:03.96	250.40	12.20	-48.0	-49.2	14.9	0.00e+00	0	27	0	819986432	62	4083
2026-01-13 14:32:04.96	250.57	12.25	-48.0	-49.2	14.9	0.00e+00	0	26	0	825229312	62	4083
2026-01-13 14:32:05.95	250.73	12.29	-48.0	-49.2	14.9	0.00e+00	0	27	0	830472192	62	4084
2026-01-13 14:32:06.95	250.90	12.34	-48.0	-49.2	14.9	0.00e+00	0	27	0	836763648	62	4095
2026-01-13 14:32:07.94	251.07	12.39	-48.0	-49.2	14.9	0.00e+00	0	26	0	842006528	62	4067
2026-01-13 14:32:08.93	251.23	12.44	-48.0	-49.2	14.9	0.00e+00	0	27	0	847249408	62	4080
2026-01-13 14:32:09.93	251.40	12.49	-48.0	-49.2	14.9	0.00e+00	0	26	0	853540864	62	4075
2026-01-13 14:32:10.93	251.57	12.53	-47.9	-49.1	14.9	0.00e+00	0	27	0	858783744	62	4033
2026-01-13 14:32:11.92	251.74	12.58	-48.0	-49.2	14.9	0.00e+00	0	26	0	865075200	62	4054
2026-01-13 14:32:12.92	251.91	12.63	-48.0	-49.2	14.9	0.00e+00	0	27	0	870318080	62	4077
2026-01-13 14:32:13.92	252.08	12.68	-48.0	-49.2	14.9	0.00e+00	0	27	0	875560960	62	4053
2026-01-13 14:32:14.92	252.25	12.72	-48.0	-49.2	14.9	0.00e+00	0	27	0	881852416	62	4087
2026-01-13 14:32:15.91	252.42	12.77	-48.1	-49.3	14.9	0.00e+00	0	27	0	887095296	62	4107
2026-01-13 14:32:16.91	252.60	12.82	-48.1	-49.3	14.9	0.00e+00	0	27	0	892338176	62	4131
2026-01-13 14:32:17.91	252.77	12.86	-48.0	-49.2	14.9	0.00e+00	0	27	0	897581056	62	4072
2026-01-13 14:32:18.90	252.94	12.91	-47.9	-49.0	15.0	0.00e+00	0	27	0	903872512	62	4001
2026-01-13 14:32:19.91	253.12	12.96	-47.8	-49.0	15.0	0.00e+00	0	27	0	909115392	62	3993
2026-01-13 14:32:20.91	253.29	13.00	-47.8	-49.0	15.0	0.00e+00	0	27	0	915406848	62	3992
2026-01-13 14:32:21.91	253.47	13.05	-47.8	-49.0	15.0	0.00e+00	0	27	0	920649728	62	3995
2026-01-13 14:32:22.92	253.65	13.10	-47.9	-49.1	15.0	0.00e+00	0	26	0	926941184	62	4007
2026-01-13 14:32:23.92	253.82	13.14	-47.9	-49.1	15.0	0.00e+00	0	27	0	932184064	62	4016
2026-01-13 14:32:24.92	254.00	13.19	-47.9	-49.1	14.9	0.00e+00	0	27	0	937426944	62	4032
2026-01-13 14:32:25.92	254.18	13.24	-47.8	-49.0	15.0	0.00e+00	0	27	0	943718400	62	3999
2026-01-13 14:32:26.92	254.36	13.28	-47.8	-49.0	15.0	0.00e+00	0	27	0	948961280	62	3998
2026-01-13 14:32:27.91	254.53	13.33	-47.8	-49.0	15.0	0.00e+00	0	26	0	954204160	62	3977
2026-01-13 14:32:28.91	254.71	13.37	-47.9	-49.1	15.0	0.00e+00	0	27	0	960495616	62	4020
2026-01-13 14:32:29.91	254.89	13.42	-47.9	-49.0	15.0	0.00e+00	0	27	0	965738496	62	4002
2026-01-13 14:32:30.90	255.07	13.46	-47.8	-49.0	15.0	0.00e+00	0	27	0	970981376	62	3962
2026-01-13 14:32:31.90	255.25	13.50	-47.8	-49.0	15.0	0.00e+00	0	27	0	977272832	62	3975
2026-01-13 14:32:32.90	255.43	13.55	-47.8	-49.0	15.0	0.00e+00	0	26	0	982515712	62	3984
2026-01-13 14:32:33.91	255.62	13.59	-47.8	-48.9	15.0	0.00e+00	0	27	0	987758592	62	3950
2026-01-13 14:32:34.91	255.80	13.64	-47.8	-49.0	15.0	0.00e+00	0	27	0	994050048	62	3964
2026-01-13 14:32:35.91	255.98	13.68	-47.6	-48.7	14.9	0.00e+00	0	27	0	999292928	61	4090
2026-01-13 14:32:36.91	256.17	13.73	-47.6	-48.7	14.9	0.00e+00	0	26	0	1005584384	61	4093
2026-01-13 14:32:37.91	256.35	13.77	-47.5	-48.7	15.0	0.00e+00	0	26	0	1010827264	61	4057
2026-01-13 14:32:38.91	256.54	13.81	-47.5	-48.6	15.0	0.00e+00	0	27	0	1016070144	61	4034
2026-01-13 14:32:39.91	256.72	13.86	-47.4	-48.6	15.0	0.00e+00	0	27	0	1022361600	61	4015
2026-01-13 14:32:40.92	256.91	13.90	-47.4	-48.5	15.1	0.00e+00	0	27	0	1027604480	61	3982
2026-01-13 14:32:41.93	257.10	13.94	-47.4	-48.6	15.0	0.00e+00	0	26	0	1033895936	61	4018
2026-01-13 14:32:42.92	257.28	13.98	-47.5	-48.7	15.0	0.00e+00	0	26	0	1039138816	61	4053
2026-01-13 14:32:43.92	257.47	14.03	-47.5	-48.7	15.0	0.00e+00	0	27	0	1044381696	61	4057
2026-01-13 14:32:44.91	257.65	14.07	-47.7	-48.8	14.9	0.00e+00	0	26	0	1050673152	61	4136
2026-01-13 14:32:45.90	257.84	14.11	-47.6	-48.8	14.9	0.00e+00	0	27	0	1055916032	61	4132
2026-01-13 14:32:46.90	258.03	14.15	-47.5	-48.7	15.0	0.00e+00	0	27	0	1061158912	61	4078
2026-01-13 14:32:47.91	258.22	14.19	-47.6	-48.7	14.9	0.00e+00	0	27	0	1067450368	61	4098
2026-01-13 14:32:48.90	258.41	14.23	-47.5	-48.7	15.0	0.00e+00	0	27	0	1072693248	61	4064
2026-01-13 14:32:49.90	258.60	14.28	-47.5	-48.7	15.0	0.00e+00	0	27	0	1077936128	61	4061
2026-01-13 14:32:50.90	258.79	14.32	-47.5	-48.7	15.0	0.00e+00	0	27	0	1084227584	61	4071
2026-01-13 14:32:51.90	258.98	14.36	-47.5	-48.7	15.0	0.00e+00	0	27	0	1089470464	61	4069
2026-01-13 14:32:52.90	259.17	14.40	-47.5	-48.7	14.9	0.00e+00	0	27	0	1094713344	61	4077
2026-01-13 14:32:53.90	259.36	14.44	-47.5	-48.7	15.0	0.00e+00	0	27	0	1101004800	61	4059
2026-01-13 14:32:54.90	259.56	14.48	-47.6	-48.7	14.9	0.00e+00	0	26	0	1106247680	61	4088
2026-01-13 14:32:55.90	259.75	14.52	-47.6	-48.7	14.9	0.00e+00	0	27	0	1111490560	61	4093
2026-01-13 14:32:56.90	259.94	14.56	-47.5	-48.7	15.0	0.00e+00	0	26	0	1117782016	61	4078
2026-01-13 14:32:57.90	260.14	14.60	-47.6	-48.8	14.9	0.00e+00	0	27	0	1123024896	61	4108
2026-01-13 14:32:58.90	260.33	14.64	-47.7	-48.8	14.9	0.00e+00	0	27	0	1128267776	61	4145
2026-01-13 14:32:59.91	260.53	14.67	-47.7	-48.9	14.9	0.00e+00	0	26	0	1134559232	61	4161
2026-01-13 14:33:00.90	260.72	14.71	-47.7	-48.9	14.9	0.00e+00	0	26	0	1139802112	61	4167
2026-01-13 14:33:01.90	260.92	14.75	-47.7	-49.0	14.9	0.00e+00	0	27	0	1146093568	61	4194
2026-01-13 14:33:02.89	261.12	14.79	-47.6	-48.8	14.9	0.00e+00	0	27	0	1151336448	61	4125
2026-01-13 14:33:03.89	261.31	14.83	-47.5	-48.7	15.0	0.00e+00	0	27	0	1156579328	61	4084
2026-01-13 14:33:04.89	261.51	14.86	-47.3	-48.5	15.0	0.00e+00	0	27	0	1162870784	61	3981
2026-01-13 14:33:05.88	261.71	14.90	-47.3	-48.5	15.1	0.00e+00	0	27	0	1168113664	61	3968
2026-01-13 14:33:06.87	261.90	14.94	-47.3	-48.5	15.1	0.00e+00	0	27	0	1173356544	61	3977
2026-01-13 14:33:07.86	262.10	14.97	-47.4	-48.5	15.0	0.00e+00	0	26	0	1179648000	61	3997
2026-01-13 14:33:08.87	262.30	15.01	-47.3	-48.5	15.1	0.00e+00	0	27	0	1184890880	61	3974
2026-01-13 14:33:09.86	262.50	15.05	-47.4	-48.5	15.0	0.00e+00	0	26	0	1190133760	61	3999
2026-01-13 14:33:10.86	262.70	15.08	-47.4	-48.6	15.0	0.00e+00	0	27	0	1196425216	61	4011
2026-01-13 14:33:11.86	262.90	15.12	-47.4	-48.6	15.0	0.00e+00	0	27	0	1201668096	61	4005
2026-01-13 14:33:12.86	263.10	15.15	-47.4	-48.6	15.0	0.00e+00	0	27	0	1206910976	61	4028
2026-01-13 14:33:13.86	263.30	15.19	-47.5	-48.7	15.0	0.00e+00	0	27	0	1213202432	61	4053
2026-01-13 14:33:14.85	263.50	15.22	-47.3	-48.4	15.1	0.00e+00	0	27	0	1218445312	61	3946
2026-01-13 14:33:15.85	263.71	15.26	-47.3	-48.5	15.1	0.00e+00	0	27	0	1223688192	61	3963
2026-01-13 14:33:16.85	263.91	15.29	-47.2	-48.4	15.1	0.00e+00	0	27	0	1229979648	61	3915
2026-01-13 14:33:17.85	264.11	15.33	-47.1	-48.3	15.0	0.00e+00	0	26	0	1235222528	60	4116
2026-01-13 14:33:18.85	264.32	15.36	-47.2	-48.3	15.0	0.00e+00	0	27	0	1240465408	60	4134
2026-01-13 14:33:19.84	264.52	15.39	-47.2	-48.3	15.0	0.00e+00	0	26	0	1246756864	60	4121
2026-01-13 14:33:20.83	264.72	15.42	-47.1	-48.2	15.0	0.00e+00	0	26	0	1251999744	60	4072
2026-01-13 14:33:21.83	264.93	15.46	-47.1	-48.3	15.0	0.00e+00	0	27	0	1258291200	60	4113
2026-01-13 14:33:22.82	265.13	15.49	-47.0	-48.2	15.0	0.00e+00	0	27	0	1263534080	60	4053
2026-01-13 14:33:23.82	265.34	15.52	-47.1	-48.2	15.0	0.00e+00	0	27	0	1268776960	60	4091
2026-01-13 14:33:24.81	265.54	15.55	-47.0	-48.2	15.0	0.00e+00	0	27	0	1275068416	60	4058
2026-01-13 14:33:25.81	265.75	15.58	-47.2	-48.3	15.0	0.00e+00	0	27	0	1280311296	60	4116
2026-01-13 14:33:26.81	265.96	15.62	-47.1	-48.2	15.0	0.00e+00	0	27	0	1285554176	60	4072
2026-01-13 14:33:27.81	266.17	15.65	-47.2	-48.3	15.0	0.00e+00	0	27	0	1291845632	60	4120
2026-01-13 14:33:28.81	266.38	15.68	-47.2	-48.4	15.0	0.00e+00	0	27	0	1297088512	60	4151
2026-01-13 14:33:29.81	266.58	15.71	-47.1	-48.2	15.0	0.00e+00	0	27	0	1302331392	60	4097
2026-01-13 14:33:30.80	266.79	15.74	-47.2	-48.3	15.0	0.00e+00	0	27	0	1308622848	60	4135
2026-01-13 14:33:31.80	267.00	15.77	-47.1	-48.2	15.0	0.00e+00	0	26	0	1313865728	60	4087
2026-01-13 14:33:32.80	267.21	15.80	-47.0	-48.1	15.0	0.00e+00	0	27	0	1319108608	60	4028
2026-01-13 14:33:33.80	267.42	15.83	-47.1	-48.2	15.0	0.00e+00	0	27	0	1325400064	60	4076
2026-01-13 14:33:34.81	267.63	15.85	-47.1	-48.3	15.0	0.00e+00	0	27	0	1330642944	60	4117
2026-01-13 14:33:35.80	267.84	15.88	-47.2	-48.3	15.0	0.00e+00	0	27	0	1335885824	60	4126
2026-01-13 14:33:36.80	268.06	15.91	-47.2	-48.3	15.0	0.00e+00	0	27	0	1342177280	60	4142
2026-01-13 14:33:37.80	268.27	15.94	-47.2	-48.4	15.0	0.00e+00	0	27	0	1347420160	60	4158
2026-01-13 14:33:38.80	268.48	15.97	-47.3	-48.4	14.9	0.00e+00	0	27	0	1352663040	60	4193
2026-01-13 14:33:39.79	268.69	15.99	-47.3	-48.4	14.9	0.00e+00	0	27	0	1358954496	60	4190
2026-01-13 14:33:40.79	268.90	16.02	-47.3	-48.5	14.9	0.00e+00	0	27	0	1364197376	60	4202
2026-01-13 14:33:41.79	269.12	16.05	-47.4	-48.5	14.9	0.00e+00	0	27	0	1370488832	60	4242
2026-01-13 14:33:42.79	269.33	16.07	-47.3	-48.4	14.9	0.00e+00	0	27	0	1375731712	60	4178
2026-01-13 14:33:43.78	269.54	16.10	-47.3	-48.4	14.9	0.00e+00	0	26	0	1380974592	60	4170
2026-01-13 14:33:44.78	269.76	16.12	-47.3	-48.4	14.9	0.00e+00	0	27	0	1387266048	60	4190
2026-01-13 14:33:45.79	269.97	16.15	-47.1	-48.3	15.0	0.00e+00	0	27	0	1392508928	60	4119
2026-01-13 14:33:46.77	270.19	16.17	-47.2	-48.3	15.0	0.00e+00	0	27	0	1397751808	60	4115
2026-01-13 14:33:47.78	270.40	16.20	-47.2	-48.3	15.0	0.00e+00	0	27	0	1404043264	60	4141
2026-01-13 14:33:48.78	270.62	16.22	-47.3	-48.4	14.9	0.00e+00	0	26	0	1409286144	60	4177
2026-01-13 14:33:49.77	270.83	16.24	-47.4	-48.6	14.9	0.00e+00	0	27	0	1414529024	60	4262
2026-01-13 14:33:50.77	271.05	16.27	-47.4	-48.5	14.9	0.00e+00	0	27	0	1420820480	60	4234
2026-01-13 14:33:51.77	271.27	16.29	-47.3	-48.5	14.9	0.00e+00	0	27	0	1426063360	60	4196
2026-01-13 14:33:52.76	271.48	16.31	-47.3	-48.5	14.9	0.00e+00	0	27	0	1432354816	60	4226
2026-01-13 14:33:53.76	271.70	16.33	-47.3	-48.5	14.9	0.00e+00	0	27	0	1437597696	60	4226
2026-01-13 14:33:54.76	271.92	16.35	-47.3	-48.5	14.9	0.00e+00	0	27	0	1442840576	60	4200
2026-01-13 14:33:55.77	272.14	16.38	-47.1	-48.3	15.0	0.00e+00	0	27	0	1449132032	60	4109
2026-01-13 14:33:56.77	272.36	16.40	-47.1	-48.3	15.0	0.00e+00	0	27	0	1454374912	60	4112
2026-01-13 14:33:57.77	272.57	16.42	-47.1	-48.3	15.0	0.00e+00	0	27	0	1459617792	60	4110
2026-01-13 14:33:58.77	272.79	16.44	-47.2	-48.4	15.0	0.00e+00	0	26	0	1465909248	60	4147
2026-01-13 14:33:59.77	273.01	16.46	-47.1	-48.2	15.0	0.00e+00	0	27	0	1471152128	60	4064
2026-01-13 14:34:00.76	273.23	16.48	-47.1	-48.3	15.0	0.00e+00	0	27	0	1476395008	60	4118
2026-01-13 14:34:01.76	273.45	16.50	-47.1	-48.3	15.0	0.00e+00	0	27	0	1482686464	60	4100
2026-01-13 14:34:02.75	273.67	16.51	-47.3	-48.5	14.9	0.00e+00	0	27	0	1487929344	60	4203
2026-01-13 14:34:03.75	273.89	16.53	-47.4	-48.6	14.9	0.00e+00	0	27	0	1493172224	60	4246
2026-01-13 14:34:04.74	274.11	16.55	-47.5	-48.6	14.9	0.00e+00	0	27	0	1499463680	60	4283
2026-01-13 14:34:05.74	274.33	16.57	-47.4	-48.6	14.9	0.00e+00	0	27	0	1504706560	60	4270
2026-01-13 14:34:06.74	274.55	16.58	-47.5	-48.6	14.9	0.00e+00	0	27	0	1509949440	60	4279
2026-01-13 14:34:07.74	274.77	16.60	-47.3	-48.5	14.9	0.00e+00	0	27	0	1516240896	60	4208
2026-01-13 14:34:08.74	274.99	16.62	-47.1	-48.2	15.0	0.00e+00	0	27	0	1521483776	60	4090
2026-01-13 14:34:09.74	275.21	16.63	-47.1	-48.2	15.0	0.00e+00	0	27	0	1527775232	60	4092
2026-01-13 14:34:10.74	275.43	16.65	-47.1	-48.2	15.0	0.00e+00	0	27	0	1533018112	60	4088
2026-01-13 14:34:11.74	275.66	16.66	-47.1	-48.2	15.0	0.00e+00	0	26	0	1538260992	60	4083
2026-01-13 14:34:12.74	275.88	16.68	-47.1	-48.2	15.0	0.00e+00	0	27	0	1544552448	60	4087
2026-01-13 14:34:13.74	276.10	16.69	-47.1	-48.2	15.0	0.00e+00	0	27	0	1549795328	60	4091
2026-01-13 14:34:14.74	276.32	16.71	-47.1	-48.2	15.0	0.00e+00	0	26	0	1555038208	60	4080
2026-01-13 14:34:15.74	276.55	16.72	-47.1	-48.2	15.0	0.00e+00	0	27	0	1561329664	60	4071
2026-01-13 14:34:16.74	276.77	16.73	-47.1	-48.2	15.0	0.00e+00	0	26	0	1566572544	60	4073
2026-01-13 14:34:17.73	276.99	16.75	-47.0	-48.1	15.0	0.00e+00	0	26	0	1571815424	60	4045
2026-01-13 14:34:18.73	277.21	16.76	-47.1	-48.2	15.0	0.00e+00	0	27	0	1578106880	60	4063
2026-01-13 14:34:19.73	277.44	16.77	-47.1	-48.2	15.0	0.00e+00	0	27	0	1583349760	60	4082
2026-01-13 14:34:20.72	277.66	16.78	-47.1	-48.2	15.0	0.00e+00	0	27	0	1589641216	60	4067
2026-01-13 14:34:21.72	277.88	16.79	-47.1	-48.2	15.0	0.00e+00	0	27	0	1594884096	60	4066
2026-01-13 14:34:22.72	278.11	16.80	-47.1	-48.2	15.0	0.00e+00	0	27	0	1600126976	60	4093
2026-01-13 14:34:23.72	278.33	16.81	-47.1	-48.3	15.0	0.00e+00	0	27	0	1606418432	60	4111
2026-01-13 14:34:24.71	278.55	16.82	-47.2	-48.4	15.0	0.00e+00	0	27	0	1611661312	60	4157
2026-01-13 14:34:25.70	278.78	16.83	-47.3	-48.4	14.9	0.00e+00	0	27	0	1616904192	60	4193
2026-01-13 14:34:26.71	279.00	16.84	-47.2	-48.3	15.0	0.00e+00	0	27	0	1622147072	60	4116
2026-01-13 14:34:27.70	279.23	16.85	-47.1	-48.2	15.0	0.00e+00	0	27	0	1628438528	60	4098
2026-01-13 14:34:28.70	279.45	16.86	-47.0	-48.1	15.0	0.00e+00	0	27	0	1633681408	60	4040
2026-01-13 14:34:29.69	279.67	16.87	-47.0	-48.1	15.0	0.00e+00	0	27	0	1639972864	60	4048
2026-01-13 14:34:30.69	279.90	16.87	-47.0	-48.1	15.1	0.00e+00	0	27	0	1645215744	60	4045
2026-01-13 14:34:31.69	280.13	16.88	-47.0	-48.2	15.0	0.00e+00	0	27	0	1650458624	60	4061
2026-01-13 14:34:32.69	280.35	16.89	-47.1	-48.2	15.0	0.00e+00	0	27	0	1656750080	60	4076
2026-01-13 14:34:33.69	280.58	16.89	-47.1	-48.3	15.0	0.00e+00	0	27	0	1661992960	60	4101
2026-01-13 14:34:34.68	280.80	16.90	-47.1	-48.2	15.0	0.00e+00	0	26	0	1667235840	60	4082
2026-01-13 14:34:35.68	281.02	16.90	-47.1	-48.2	15.0	0.00e+00	0	27	0	1673527296	60	4089
2026-01-13 14:34:36.68	281.25	16.91	-47.1	-48.2	15.0	0.00e+00	0	27	0	1678770176	60	4082
2026-01-13 14:34:37.67	281.47	16.91	-47.2	-48.3	15.0	0.00e+00	0	27	0	1684013056	60	4120
2026-01-13 14:34:38.67	281.70	16.92	-47.2	-48.3	15.0	0.00e+00	0	27	0	1690304512	60	4138
2026-01-13 14:34:39.67	281.93	16.92	-47.3	-48.5	14.9	0.00e+00	0	27	0	1695547392	60	4203
2026-01-13 14:34:40.67	282.15	16.92	-47.2	-48.3	15.0	0.00e+00	0	27	0	1701838848	60	4136
2026-01-13 14:34:41.67	282.38	16.93	-47.2	-48.3	15.0	0.00e+00	0	27	0	1707081728	60	4131
2026-01-13 14:34:42.67	282.60	16.93	-47.2	-48.3	15.0	0.00e+00	0	27	0	1712324608	60	4142
2026-01-13 14:34:43.67	282.83	16.93	-47.2	-48.3	15.0	0.00e+00	0	27	0	1718616064	60	4131
2026-01-13 14:34:44.66	283.05	16.93	-47.3	-48.4	15.0	0.00e+00	0	27	0	1723858944	60	4168
2026-01-13 14:34:45.66	283.28	16.93	-47.3	-48.4	14.9	0.00e+00	0	27	0	1729101824	60	4190
2026-01-13 14:34:46.66	283.51	16.93	-47.3	-48.4	15.0	0.00e+00	0	27	0	1734344704	60	4171
2026-01-13 14:34:47.66	283.73	16.93	-47.3	-48.4	15.0	0.00e+00	0	27	0	1740636160	60	4173
2026-01-13 14:34:48.66	283.96	16.93	-47.3	-48.4	15.0	0.00e+00	0	27	0	1745879040	60	4181
2026-01-13 14:34:49.65	284.18	16.93	-47.3	-48.4	14.9	0.00e+00	0	27	0	1752170496	60	4192
2026-01-13 14:34:50.65	284.41	16.93	-47.2	-48.4	15.0	0.00e+00	0	27	0	1757413376	60	4152
2026-01-13 14:34:51.64	284.63	16.93	-47.3	-48.4	14.9	0.00e+00	0	27	0	1762656256	60	4182
2026-01-13 14:34:52.63	284.86	16.93	-47.3	-48.5	14.9	0.00e+00	0	27	0	1768947712	60	4198
2026-01-13 14:34:53.63	285.08	16.93	-47.2	-48.4	15.0	0.00e+00	0	27	0	1774190592	60	4156
2026-01-13 14:34:54.63	285.31	16.92	-47.3	-48.5	14.9	0.00e+00	0	27	0	1779433472	60	4216
2026-01-13 14:34:55.62	285.53	16.92	-47.3	-48.4	14.9	0.00e+00	0	27	0	1785724928	60	4193
2026-01-13 14:34:56.63	285.76	16.92	-47.3	-48.5	14.9	0.00e+00	0	27	0	1790967808	60	4198
2026-01-13 14:34:57.62	285.98	16.91	-47.4	-48.6	14.9	0.00e+00	0	26	0	1796210688	60	4256
2026-01-13 14:34:58.62	286.21	16.91	-47.5	-48.7	14.9	0.00e+00	0	27	0	1802502144	60	4296
2026-01-13 14:34:59.62	286.43	16.90	-47.5	-48.7	14.9	0.00e+00	0	27	0	1807745024	60	4319
2026-01-13 14:35:00.60	286.65	16.90	-47.5	-48.7	14.9	0.00e+00	0	27	0	1812987904	60	4329
2026-01-13 14:35:01.60	286.88	16.89	-47.5	-48.6	14.9	0.00e+00	0	27	0	1819279360	60	4275
2026-01-13 14:35:02.60	287.11	16.89	-47.5	-48.6	14.9	0.00e+00	0	27	0	1824522240	60	4290
2026-01-13 14:35:03.60	287.33	16.88	-47.5	-48.6	14.9	0.00e+00	0	27	0	1829765120	60	4285
2026-01-13 14:35:04.60	287.56	16.87	-47.5	-48.6	14.9	0.00e+00	0	27	0	1836056576	60	4273
2026-01-13 14:35:05.60	287.78	16.86	-47.5	-48.7	14.9	0.00e+00	0	27	0	1841299456	60	4309
2026-01-13 14:35:06.60	288.01	16.86	-47.5	-48.6	14.9	0.00e+00	0	27	0	1846542336	60	4283
2026-01-13 14:35:07.60	288.23	16.85	-47.6	-48.8	14.9	0.00e+00	0	27	0	1852833792	60	4349
2026-01-13 14:35:08.61	288.46	16.84	-47.5	-48.7	14.9	0.00e+00	0	27	0	1858076672	60	4312
2026-01-13 14:35:09.61	288.68	16.83	-47.6	-48.8	14.8	0.00e+00	0	27	0	1864368128	60	4346
2026-01-13 14:35:10.61	288.91	16.82	-47.4	-48.5	14.9	0.00e+00	0	27	0	1869611008	60	4230
2026-01-13 14:35:11.62	289.13	16.81	-47.3	-48.4	15.0	0.00e+00	0	27	0	1875902464	60	4170
2026-01-13 14:35:12.61	289.35	16.80	-47.2	-48.3	15.0	0.00e+00	0	27	0	1881145344	60	4134
2026-01-13 14:35:13.61	289.58	16.79	-47.2	-48.3	15.0	0.00e+00	0	27	0	1886388224	60	4132
2026-01-13 14:35:14.61	289.80	16.78	-47.3	-48.5	14.9	0.00e+00	0	27	0	1891631104	60	4200
2026-01-13 14:35:15.60	290.02	16.77	-47.3	-48.4	15.0	0.00e+00	0	27	0	1897922560	60	4177
2026-01-13 14:35:16.60	290.25	16.76	-47.3	-48.5	14.9	0.00e+00	0	27	0	1903165440	60	4209
2026-01-13 14:35:17.58	290.47	16.74	-47.4	-48.6	14.9	0.00e+00	0	27	0	1908408320	60	4244
2026-01-13 14:35:18.58	290.69	16.73	-47.4	-48.5	14.9	0.00e+00	0	27	0	1914699776	60	4234
2026-01-13 14:35:19.58	290.91	16.72	-47.4	-48.6	14.9	0.00e+00	0	27	0	1919942656	60	4269
2026-01-13 14:35:20.57	291.13	16.70	-47.5	-48.7	14.9	0.00e+00	0	27	0	1926234112	60	4328
2026-01-13 14:35:21.57	291.35	16.69	-47.5	-48.7	14.9	0.00e+00	0	27	0	1931476992	60	4303
2026-01-13 14:35:22.58	291.58	16.68	-47.6	-48.7	14.9	0.00e+00	0	27	0	1936719872	60	4337
2026-01-13 14:35:23.58	291.80	16.66	-47.6	-48.7	14.9	0.00e+00	0	27	0	1943011328	60	4338
2026-01-13 14:35:24.58	292.02	16.65	-47.5	-48.7	14.9	0.00e+00	0	27	0	1948254208	60	4296
2026-01-13 14:35:25.58	292.25	16.63	-47.6	-48.7	14.9	0.00e+00	0	27	0	1953497088	60	4335
2026-01-13 14:35:26.58	292.47	16.61	-47.6	-48.8	14.9	0.00e+00	0	27	0	1959788544	60	4346
2026-01-13 14:35:27.59	292.69	16.60	-47.7	-48.9	14.8	0.00e+00	0	27	0	1965031424	60	4415
2026-01-13 14:35:28.59	292.91	16.58	-47.6	-48.7	14.9	0.00e+00	0	27	0	1970274304	60	4338
2026-01-13 14:35:29.59	293.13	16.56	-47.5	-48.7	14.9	0.00e+00	0	27	0	1976565760	60	4323
2026-01-13 14:35:30.59	293.35	16.55	-47.6	-48.8	14.8	0.00e+00	0	27	0	1981808640	60	4347
2026-01-13 14:35:31.58	293.57	16.53	-47.6	-48.7	14.9	0.00e+00	0	27	0	1988100096	60	4327
2026-01-13 14:35:32.59	293.79	16.51	-47.6	-48.7	14.9	0.00e+00	0	27	0	1993342976	60	4337
2026-01-13 14:35:33.58	294.01	16.49	-47.8	-48.9	14.8	0.00e+00	0	27	0	1998585856	60	4436
2026-01-13 14:35:34.58	294.23	16.47	-47.7	-48.9	14.8	0.00e+00	0	27	0	2004877312	60	4392
2026-01-13 14:35:35.58	294.45	16.45	-47.8	-49.0	14.8	0.00e+00	0	27	0	2010120192	60	4483
2026-01-13 14:35:36.58	294.67	16.43	-47.9	-49.1	14.8	0.00e+00	0	27	0	2015363072	60	4497
2026-01-13 14:35:37.58	294.89	16.41	-48.0	-49.2	14.8	0.00e+00	0	27	0	2021654528	61	4297
2026-01-13 14:35:38.58	295.10	16.39	-48.0	-49.2	14.8	0.00e+00	0	27	0	2026897408	61	4325
2026-01-13 14:35:39.58	295.32	16.37	-48.0	-49.2	14.8	0.00e+00	0	27	0	2032140288	61	4328
2026-01-13 14:35:40.57	295.54	16.35	-48.0	-49.2	14.8	0.00e+00	0	27	0	2038431744	61	4296
2026-01-13 14:35:41.57	295.75	16.33	-47.8	-49.0	14.9	0.00e+00	0	27	0	2043674624	61	4222
2026-01-13 14:35:42.57	295.97	16.31	-48.0	-49.2	14.8	0.00e+00	0	27	0	2049966080	61	4299
2026-01-13 14:35:43.57	296.19	16.28	-47.8	-48.9	14.9	0.00e+00	0	27	0	2055208960	61	4180
2026-01-13 14:35:44.57	296.40	16.26	-47.7	-48.9	14.9	0.00e+00	0	27	0	2060451840	61	4156
2026-01-13 14:35:45.57	296.62	16.24	-47.8	-49.0	14.9	0.00e+00	0	27	0	2066743296	61	4208
2026-01-13 14:35:46.57	296.84	16.21	-47.8	-49.0	14.9	0.00e+00	0	27	0	2071986176	61	4224
2026-01-13 14:35:47.57	297.05	16.19	-47.7	-48.9	14.9	0.00e+00	0	27	0	2077229056	61	4165
2026-01-13 14:35:48.58	297.27	16.17	-47.7	-48.9	14.9	0.00e+00	0	27	0	2083520512	61	4170
2026-01-13 14:35:49.57	297.48	16.14	-47.6	-48.8	14.9	0.00e+00	0	27	0	2088763392	61	4123
2026-01-13 14:35:50.56	297.69	16.12	-47.8	-48.9	14.9	0.00e+00	0	27	0	2095054848	61	4181
2026-01-13 14:35:51.56	297.91	16.09	-47.8	-48.9	14.9	0.00e+00	0	27	0	2100297728	61	4190
2026-01-13 14:35:52.56	298.12	16.07	-47.8	-49.0	14.9	0.00e+00	0	27	0	2105540608	61	4196
2026-01-13 14:35:53.57	298.34	16.04	-47.9	-49.1	14.8	0.00e+00	0	27	0	2111832064	61	4271
2026-01-13 14:35:54.57	298.55	16.01	-47.9	-49.1	14.8	0.00e+00	0	27	0	2117074944	61	4270
2026-01-13 14:35:55.58	298.76	15.99	-48.0	-49.2	14.8	0.00e+00	0	27	0	2122317824	61	4302
2026-01-13 14:35:56.58	298.98	15.96	-48.0	-49.2	14.8	0.00e+00	0	27	0	2128609280	61	4319
2026-01-13 14:35:57.58	299.19	15.93	-48.1	-49.3	14.8	0.00e+00	0	27	0	2133852160	61	4349
2026-01-13 14:35:58.58	299.40	15.91	-48.1	-49.3	14.8	0.00e+00	0	27	0	2139095040	61	4354
2026-01-13 14:35:59.58	299.61	15.88	-48.0	-49.2	14.8	0.00e+00	0	27	0	2145386496	61	4336
2026-01-13 14:36:00.58	299.82	15.85	-48.0	-49.2	14.8	0.00e+00	0	27	0	2150629376	61	4328
2026-01-13 14:36:01.58	300.03	15.82	-48.1	-49.3	14.8	0.00e+00	0	27	0	2156920832	61	4383
2026-01-13 14:36:02.58	300.24	15.79	-48.1	-49.3	14.8	0.00e+00	0	27	0	2162163712	61	4355
2026-01-13 14:36:03.59	300.45	15.76	-48.0	-49.2	14.8	0.00e+00	0	27	0	2167406592	61	4313
2026-01-13 14:36:04.59	300.66	15.73	-48.0	-49.2	14.8	0.00e+00	0	27	0	2173698048	61	4298
2026-01-13 14:36:05.59	300.87	15.70	-48.0	-49.2	14.8	0.00e+00	0	27	0	2178940928	61	4303
2026-01-13 14:36:06.59	301.08	15.67	-47.9	-49.1	14.8	0.00e+00	0	27	0	2184183808	61	4270
2026-01-13 14:36:07.60	301.29	15.64	-47.9	-49.0	14.9	0.00e+00	0	27	0	2190475264	61	4234
2026-01-13 14:36:08.60	301.50	15.61	-47.9	-49.1	14.8	0.00e+00	0	27	0	2195718144	61	4251
2026-01-13 14:36:09.59	301.70	15.58	-47.8	-49.0	14.9	0.00e+00	0	27	0	2200961024	61	4210
2026-01-13 14:36:10.59	301.91	15.55	-47.9	-49.1	14.8	0.00e+00	0	27	0	2207252480	61	4247
2026-01-13 14:36:11.59	302.11	15.52	-47.8	-49.0	14.9	0.00e+00	0	27	0	2212495360	61	4230
2026-01-13 14:36:12.59	302.32	15.48	-47.8	-49.0	14.9	0.00e+00	0	27	0	2218786816	61	4237
2026-01-13 14:36:13.59	302.53	15.45	-47.8	-49.0	14.9	0.00e+00	0	27	0	2224029696	61	4227
2026-01-13 14:36:14.59	302.73	15.42	-47.8	-48.9	14.9	0.00e+00	0	27	0	2229272576	61	4192
2026-01-13 14:36:15.58	302.93	15.39	-47.8	-49.0	14.9	0.00e+00	0	27	0	2235564032	61	4201
2026-01-13 14:36:16.58	303.14	15.35	-47.8	-49.0	14.9	0.00e+00	0	27	0	2240806912	61	4202
2026-01-13 14:36:17.59	303.34	15.32	-47.9	-49.0	14.8	0.00e+00	0	27	0	2246049792	61	4238
2026-01-13 14:36:18.58	303.54	15.29	-47.9	-49.0	14.9	0.00e+00	0	27	0	2252341248	61	4236
2026-01-13 14:36:19.57	303.74	15.25	-47.8	-49.0	14.9	0.00e+00	0	27	0	2257584128	61	4235
2026-01-13 14:36:20.57	303.95	15.22	-47.8	-49.0	14.9	0.00e+00	0	27	0	2262827008	61	4222
2026-01-13 14:36:21.57	304.15	15.18	-47.8	-49.0	14.9	0.00e+00	0	27	0	2269118464	61	4211
2026-01-13 14:36:22.58	304.35	15.15	-47.9	-49.0	14.9	0.00e+00	0	27	0	2274361344	61	4241
2026-01-13 14:36:23.57	304.55	15.11	-47.8	-49.0	14.9	0.00e+00	0	27	0	2280652800	61	4228
2026-01-13 14:36:24.58	304.75	15.08	-47.9	-49.0	14.8	0.00e+00	0	27	0	2285895680	61	4234
2026-01-13 14:36:25.58	304.95	15.04	-47.9	-49.1	14.8	0.00e+00	0	27	0	2291138560	61	4248
2026-01-13 14:36:26.57	305.15	15.00	-48.0	-49.2	14.8	0.00e+00	0	27	0	2297430016	61	4313
2026-01-13 14:36:27.57	305.35	14.97	-48.0	-49.2	14.8	0.00e+00	0	27	0	2302672896	61	4337
2026-01-13 14:36:28.57	305.55	14.93	-48.0	-49.2	14.8	0.00e+00	0	27	0	2307915776	61	4336
2026-01-13 14:36:29.57	305.74	14.89	-48.1	-49.4	14.7	0.00e+00	0	27	0	2314207232	61	4393
2026-01-13 14:36:30.57	305.94	14.86	-48.0	-49.2	14.8	0.00e+00	0	27	0	2319450112	61	4295
2026-01-13 14:36:31.57	306.14	14.82	-48.1	-49.3	14.8	0.00e+00	0	27	0	2324692992	61	4346
2026-01-13 14:36:32.58	306.34	14.78	-48.2	-49.4	14.7	0.00e+00	0	27	0	2330984448	61	4419
2026-01-13 14:36:33.58	306.53	14.74	-48.2	-49.4	14.7	0.00e+00	0	27	0	2336227328	61	4433
2026-01-13 14:36:34.58	306.73	14.71	-48.1	-49.3	14.7	0.00e+00	0	27	0	2342518784	61	4391
2026-01-13 14:36:35.59	306.93	14.67	-48.1	-49.3	14.8	0.00e+00	0	27	0	2347761664	61	4350
2026-01-13 14:36:36.58	307.12	14.63	-48.1	-49.3	14.7	0.00e+00	0	27	0	2353004544	61	4389
2026-01-13 14:36:37.59	307.31	14.59	-48.1	-49.3	14.7	0.00e+00	0	27	0	2359296000	61	4380
2026-01-13 14:36:38.60	307.51	14.55	-48.0	-49.2	14.8	0.00e+00	0	27	0	2364538880	61	4316
2026-01-13 14:36:39.60	307.70	14.51	-48.0	-49.2	14.8	0.00e+00	0	27	0	2369781760	61	4315
2026-01-13 14:36:40.60	307.89	14.47	-48.1	-49.3	14.8	0.00e+00	0	27	0	2376073216	61	4346
2026-01-13 14:36:41.61	308.09	14.43	-48.1	-49.3	14.8	0.00e+00	0	27	0	2381316096	61	4347
2026-01-13 14:36:42.62	308.28	14.39	-48.1	-49.4	14.8	0.00e+00	0	27	0	2387607552	61	4400
2026-01-13 14:36:43.62	308.47	14.35	-48.1	-49.3	14.8	0.00e+00	0	27	0	2392850432	61	4391
2026-01-13 14:36:44.62	308.66	14.31	-48.3	-49.5	14.7	0.00e+00	0	27	0	2398093312	61	4465
2026-01-13 14:36:45.61	308.85	14.27	-48.3	-49.6	14.7	0.00e+00	0	27	0	2404384768	61	4498
2026-01-13 14:36:46.60	309.04	14.23	-48.2	-49.4	14.7	0.00e+00	0	27	0	2409627648	61	4439
2026-01-13 14:36:47.60	309.23	14.19	-48.2	-49.4	14.7	0.00e+00	0	27	0	2414870528	61	4417
2026-01-13 14:36:48.60	309.42	14.15	-48.1	-49.3	14.7	0.00e+00	0	27	0	2421161984	61	4356
2026-01-13 14:36:49.60	309.60	14.10	-48.1	-49.3	14.7	0.00e+00	0	27	0	2426404864	61	4379
2026-01-13 14:36:50.60	309.79	14.06	-48.3	-49.5	14.7	0.00e+00	0	27	0	2431647744	61	4459
2026-01-13 14:36:51.60	309.98	14.02	-48.2	-49.4	14.7	0.00e+00	0	27	0	2437939200	61	4427
2026-01-13 14:36:52.60	310.17	13.98	-48.2	-49.4	14.7	0.00e+00	0	27	0	2443182080	61	4437
2026-01-13 14:36:53.60	310.35	13.94	-48.2	-49.5	14.7	0.00e+00	0	27	0	2448424960	61	4449
2026-01-13 14:36:54.60	310.54	13.89	-48.3	-49.5	14.7	0.00e+00	0	27	0	2454716416	61	4489
2026-01-13 14:36:55.60	310.72	13.85	-48.3	-49.5	14.7	0.00e+00	0	27	0	2459959296	61	4462
2026-01-13 14:36:56.61	310.91	13.81	-48.2	-49.4	14.7	0.00e+00	0	27	0	2466250752	61	4407
2026-01-13 14:36:57.61	311.09	13.76	-48.1	-49.4	14.7	0.00e+00	0	27	0	2471493632	61	4397
2026-01-13 14:36:58.61	311.27	13.72	-48.1	-49.3	14.8	0.00e+00	0	27	0	2477785088	61	4346
2026-01-13 14:36:59.62	311.46	13.68	-48.1	-49.3	14.8	0.00e+00	0	27	0	2483027968	61	4342
2026-01-13 14:37:00.62	311.64	13.63	-48.1	-49.4	14.7	0.00e+00	0	27	0	2488270848	61	4399
2026-01-13 14:37:01.62	311.82	13.59	-48.2	-49.4	14.7	0.00e+00	0	27	0	2494562304	61	4414
2026-01-13 14:37:02.62	312.00	13.54	-48.3	-49.5	14.7	0.00e+00	0	27	0	2499805184	61	4475
2026-01-13 14:37:03.61	312.18	13.50	-48.3	-49.5	14.7	0.00e+00	0	27	0	2505048064	61	4466
2026-01-13 14:37:04.62	312.37	13.46	-48.3	-49.5	14.7	0.00e+00	0	27	0	2511339520	61	4452
2026-01-13 14:37:05.62	312.54	13.41	-48.2	-49.4	14.7	0.00e+00	0	27	0	2516582400	61	4425
2026-01-13 14:37:06.62	312.72	13.37	-48.2	-49.4	14.7	0.00e+00	0	27	0	2521825280	61	4432
2026-01-13 14:37:07.61	312.90	13.32	-48.2	-49.4	14.7	0.00e+00	0	27	0	2528116736	61	4419
2026-01-13 14:37:08.61	313.08	13.28	-48.1	-49.3	14.7	0.00e+00	0	27	0	2533359616	61	4370
2026-01-13 14:37:09.62	313.26	13.23	-48.1	-49.3	14.7	0.00e+00	0	27	0	2539651072	61	4388
2026-01-13 14:37:10.62	313.44	13.19	-48.1	-49.3	14.7	0.00e+00	0	27	0	2544893952	61	4371
2026-01-13 14:37:11.61	313.61	13.14	-48.2	-49.4	14.7	0.00e+00	0	27	0	2550136832	61	4434
2026-01-13 14:37:12.61	313.79	13.09	-48.3	-49.5	14.7	0.00e+00	0	27	0	2556428288	61	4481
2026-01-13 14:37:13.61	313.96	13.05	-48.3	-49.5	14.7	0.00e+00	0	27	0	2561671168	61	4472
2026-01-13 14:37:14.60	314.13	13.00	-48.3	-49.5	14.6	0.00e+00	0	27	0	2566914048	61	4481
2026-01-13 14:37:15.59	314.31	12.96	-48.4	-49.6	14.6	0.00e+00	0	27	0	2572156928	61	4516
2026-01-13 14:37:16.60	314.48	12.91	-48.5	-49.7	14.7	0.00e+00	0	27	0	2578448384	62	4316
2026-01-13 14:37:17.60	314.66	12.86	-48.5	-49.7	14.7	0.00e+00	0	27	0	2583691264	62	4321
2026-01-13 14:37:18.60	314.83	12.82	-48.5	-49.7	14.7	0.00e+00	0	27	0	2589982720	62	4335
2026-01-13 14:37:19.59	315.00	12.77	-48.5	-49.8	14.7	0.00e+00	0	27	0	2595225600	62	4345
2026-01-13 14:37:20.60	315.17	12.72	-48.5	-49.8	14.6	0.00e+00	0	27	0	2600468480	62	4365
2026-01-13 14:37:21.60	315.34	12.68	-48.5	-49.8	14.6	0.00e+00	0	27	0	2606759936	62	4358
2026-01-13 14:37:22.60	315.51	12.63	-48.6	-49.8	14.6	0.00e+00	0	27	0	2612002816	62	4373
2026-01-13 14:37:23.60	315.68	12.58	-48.5	-49.8	14.7	0.00e+00	0	27	0	2617245696	62	4357
2026-01-13 14:37:24.60	315.85	12.53	-48.5	-49.8	14.7	0.00e+00	0	27	0	2623537152	62	4372
2026-01-13 14:37:25.60	316.02	12.49	-48.6	-49.9	14.6	0.00e+00	0	27	0	2628780032	62	4396
2026-01-13 14:37:26.60	316.19	12.44	-48.6	-49.9	14.6	0.00e+00	0	27	0	2634022912	62	4425
2026-01-13 14:37:27.60	316.36	12.39	-48.7	-50.0	14.6	0.00e+00	0	27	0	2640314368	62	4451
2026-01-13 14:37:28.60	316.53	12.34	-48.6	-49.9	14.6	0.00e+00	0	27	0	2645557248	62	4413
2026-01-13 14:37:29.60	316.69	12.29	-48.7	-50.0	14.6	0.00e+00	0	27	0	2651848704	62	4461
2026-01-13 14:37:30.61	316.86	12.25	-48.7	-50.0	14.6	0.00e+00	0	27	0	2657091584	62	4456
2026-01-13 14:37:31.60	317.03	12.20	-48.7	-50.0	14.6	0.00e+00	0	27	0	2662334464	62	4469
2026-01-13 14:37:32.61	317.19	12.15	-48.6	-49.9	14.6	0.00e+00	0	27	0	2668625920	62	4402
2026-01-13 14:37:33.61	317.36	12.10	-48.5	-49.8	14.6	0.00e+00	0	27	0	2673868800	62	4371
2026-01-13 14:37:34.62	317.52	12.05	-48.7	-49.9	14.6	0.00e+00	0	27	0	2680160256	62	4441
2026-01-13 14:37:35.62	317.69	12.00	-48.7	-50.0	14.6	0.00e+00	0	27	0	2685403136	62	4445
2026-01-13 14:37:36.62	317.85	11.95	-48.6	-49.9	14.6	0.00e+00	0	27	0	2690646016	62	4420
2026-01-13 14:37:37.62	318.01	11.90	-48.7	-50.0	14.6	0.00e+00	0	27	0	2696937472	62	4472
2026-01-13 14:37:38.62	318.17	11.85	-48.7	-50.0	14.6	0.00e+00	0	27	0	2702180352	62	4448
2026-01-13 14:37:39.62	318.34	11.81	-48.7	-50.0	14.6	0.00e+00	0	27	0	2707423232	62	4471
2026-01-13 14:37:40.62	318.50	11.76	-48.8	-50.1	14.5	0.00e+00	0	27	0	2713714688	62	4513
2026-01-13 14:37:41.62	318.66	11.71	-48.8	-50.1	14.5	0.00e+00	0	27	0	2718957568	62	4497
2026-01-13 14:37:42.62	318.82	11.66	-48.6	-49.9	14.6	0.00e+00	0	27	0	2725249024	62	4420
2026-01-13 14:37:43.62	318.98	11.61	-48.7	-50.0	14.6	0.00e+00	0	27	0	2730491904	62	4471
2026-01-13 14:37:44.62	319.14	11.56	-48.7	-50.0	14.5	0.00e+00	0	27	0	2735734784	62	4481
2026-01-13 14:37:45.61	319.29	11.51	-48.7	-50.0	14.6	0.00e+00	0	27	0	2742026240	62	4444
2026-01-13 14:37:46.62	319.45	11.46	-48.6	-49.9	14.6	0.00e+00	0	27	0	2747269120	62	4426
2026-01-13 14:37:47.62	319.61	11.41	-48.7	-49.9	14.6	0.00e+00	0	27	0	2752512000	62	4440
2026-01-13 14:37:48.62	319.77	11.36	-48.7	-49.9	14.6	0.00e+00	0	27	0	2758803456	62	4427
2026-01-13 14:37:49.62	319.92	11.31	-48.6	-49.8	14.6	0.00e+00	0	27	0	2764046336	62	4374
2026-01-13 14:37:50.62	320.08	11.26	-48.6	-49.8	14.6	0.00e+00	0	27	0	2769289216	62	4385
2026-01-13 14:37:51.63	320.24	11.21	-48.5	-49.8	14.6	0.00e+00	0	27	0	2775580672	62	4344
2026-01-13 14:37:52.62	320.39	11.16	-48.5	-49.7	14.7	0.00e+00	0	27	0	2780823552	62	4335
2026-01-13 14:37:53.62	320.54	11.11	-48.5	-49.8	14.6	0.00e+00	0	27	0	2787115008	62	4359
2026-01-13 14:37:54.63	320.70	11.05	-48.6	-49.9	14.6	0.00e+00	0	27	0	2792357888	62	4421
2026-01-13 14:37:55.64	320.85	11.00	-48.7	-50.0	14.6	0.00e+00	0	27	0	2797600768	62	4464
2026-01-13 14:37:56.64	321.01	10.95	-48.8	-50.1	14.5	0.00e+00	0	27	0	2803892224	62	4520
2026-01-13 14:37:57.63	321.16	10.90	-48.8	-50.1	14.5	0.00e+00	0	27	0	2809135104	62	4530
2026-01-13 14:37:58.64	321.31	10.85	-48.9	-50.2	14.5	0.00e+00	0	27	0	2814377984	62	4576
2026-01-13 14:37:59.63	321.46	10.80	-48.9	-50.2	14.6	0.00e+00	0	27	0	2820669440	63	4334
2026-01-13 14:38:00.63	321.61	10.75	-48.9	-50.2	14.6	0.00e+00	0	27	0	2825912320	63	4313
2026-01-13 14:38:01.63	321.76	10.70	-48.9	-50.2	14.6	0.00e+00	0	27	0	2831155200	63	4333
2026-01-13 14:38:02.63	321.91	10.65	-48.9	-50.2	14.6	0.00e+00	0	27	0	2837446656	63	4324
2026-01-13 14:38:03.64	322.06	10.60	-48.9	-50.3	14.6	0.00e+00	0	27	0	2842689536	63	4348
2026-01-13 14:38:04.64	322.21	10.54	-48.9	-50.2	14.6	0.00e+00	0	27	0	2848980992	63	4303
2026-01-13 14:38:05.64	322.36	10.49	-49.0	-50.3	14.5	0.00e+00	0	27	0	2854223872	63	4352
2026-01-13 14:38:06.64	322.51	10.44	-48.9	-50.2	14.6	0.00e+00	0	27	0	2859466752	63	4315
2026-01-13 14:38:07.64	322.65	10.39	-48.9	-50.2	14.5	0.00e+00	0	27	0	2865758208	63	4332
2026-01-13 14:38:08.65	322.80	10.34	-49.0	-50.3	14.5	0.00e+00	0	27	0	2871001088	63	4375
2026-01-13 14:38:09.65	322.95	10.29	-48.9	-50.2	14.6	0.00e+00	0	27	0	2876243968	63	4324
2026-01-13 14:38:10.65	323.09	10.24	-48.9	-50.2	14.6	0.00e+00	0	27	0	2882535424	63	4316
2026-01-13 14:38:11.65	323.24	10.18	-48.9	-50.2	14.6	0.00e+00	0	27	0	2887778304	63	4326
2026-01-13 14:38:12.64	323.38	10.13	-48.9	-50.1	14.6	0.00e+00	0	27	0	2894069760	63	4291
2026-01-13 14:38:13.65	323.53	10.08	-49.0	-50.3	14.5	0.00e+00	0	27	0	2899312640	63	4343
2026-01-13 14:38:14.65	323.67	10.03	-49.1	-50.4	14.5	0.00e+00	0	27	0	2904555520	63	4405
2026-01-13 14:38:15.64	323.81	9.98	-49.1	-50.4	14.5	0.00e+00	0	27	0	2910846976	63	4431
2026-01-13 14:38:16.64	323.96	9.92	-49.1	-50.4	14.5	0.00e+00	0	27	0	2916089856	63	4422
2026-01-13 14:38:17.63	324.10	9.87	-49.2	-50.5	14.4	0.00e+00	0	27	0	2921332736	63	4474
2026-01-13 14:38:18.64	324.24	9.82	-49.2	-50.5	14.4	0.00e+00	0	27	0	2927624192	63	4476
2026-01-13 14:38:19.64	324.38	9.77	-49.2	-50.6	14.4	0.00e+00	0	27	0	2932867072	63	4514
2026-01-13 14:38:20.64	324.52	9.72	-49.3	-50.6	14.4	0.00e+00	0	27	0	2938109952	63	4532
2026-01-13 14:38:21.65	324.66	9.66	-49.3	-50.6	14.4	0.00e+00	0	27	0	2944401408	63	4536
2026-01-13 14:38:22.64	324.80	9.61	-49.2	-50.5	14.4	0.00e+00	0	27	0	2949644288	63	4469
2026-01-13 14:38:23.64	324.94	9.56	-49.2	-50.5	14.4	0.00e+00	0	27	0	2955935744	63	4478
2026-01-13 14:38:24.64	325.08	9.51	-49.2	-50.5	14.4	0.00e+00	0	27	0	2961178624	63	4474
2026-01-13 14:38:25.64	325.22	9.46	-49.2	-50.5	14.4	0.00e+00	0	27	0	2966421504	63	4477
2026-01-13 14:38:26.64	325.36	9.40	-49.3	-50.7	14.4	0.00e+00	0	27	0	2972712960	63	4546
2026-01-13 14:38:27.64	325.49	9.35	-49.3	-50.6	14.4	0.00e+00	0	27	0	2977955840	63	4530
2026-01-13 14:38:28.64	325.63	9.30	-49.2	-50.5	14.4	0.00e+00	0	27	0	2983198720	63	4472
2026-01-13 14:38:29.64	325.77	9.25	-49.3	-50.6	14.4	0.00e+00	0	27	0	2989490176	63	4536
2026-01-13 14:38:30.64	325.90	9.19	-49.2	-50.5	14.4	0.00e+00	0	27	0	2994733056	63	4493
2026-01-13 14:38:31.64	326.04	9.14	-49.3	-50.7	14.4	0.00e+00	0	27	0	2999975936	63	4551
2026-01-13 14:38:32.64	326.17	9.09	-49.4	-50.8	14.3	0.00e+00	0	27	0	3006267392	63	4623
2026-01-13 14:38:33.64	326.31	9.04	-49.4	-50.8	14.4	0.00e+00	0	27	0	3011510272	64	4352
2026-01-13 14:38:34.65	326.44	8.98	-49.4	-50.8	14.4	0.00e+00	0	27	0	3017801728	64	4376
2026-01-13 14:38:35.64	326.58	8.93	-49.4	-50.8	14.4	0.00e+00	0	27	0	3023044608	64	4343
2026-01-13 14:38:36.64	326.71	8.88	-49.2	-50.6	14.5	0.00e+00	0	27	0	3028287488	64	4262
2026-01-13 14:38:37.65	326.84	8.83	-49.3	-50.6	14.5	0.00e+00	0	27	0	3034578944	64	4272
2026-01-13 14:38:38.64	326.97	8.77	-49.4	-50.7	14.4	0.00e+00	0	27	0	3039821824	64	4333
2026-01-13 14:38:39.65	327.11	8.72	-49.3	-50.7	14.4	0.00e+00	0	27	0	3045064704	64	4313
2026-01-13 14:38:40.65	327.24	8.67	-49.3	-50.7	14.4	0.00e+00	0	27	0	3051356160	64	4303
2026-01-13 14:38:41.65	327.37	8.62	-49.4	-50.7	14.4	0.00e+00	0	27	0	3056599040	64	4323
2026-01-13 14:38:42.65	327.50	8.56	-49.3	-50.6	14.5	0.00e+00	0	27	0	3061841920	64	4281
2026-01-13 14:38:43.66	327.63	8.51	-49.2	-50.5	14.5	0.00e+00	0	27	0	3068133376	64	4238
2026-01-13 14:38:44.66	327.76	8.46	-49.3	-50.7	14.4	0.00e+00	0	27	0	3073376256	64	4296
2026-01-13 14:38:45.66	327.89	8.40	-49.2	-50.6	14.5	0.00e+00	0	27	0	3079667712	64	4245
2026-01-13 14:38:46.66	328.02	8.35	-49.2	-50.6	14.5	0.00e+00	0	27	0	3084910592	64	4255
2026-01-13 14:38:47.66	328.15	8.30	-49.2	-50.5	14.5	0.00e+00	0	27	0	3091202048	64	4240
2026-01-13 14:38:48.66	328.28	8.25	-49.3	-50.7	14.4	0.00e+00	0	27	0	3096444928	64	4292
2026-01-13 14:38:49.66	328.40	8.19	-49.2	-50.6	14.5	0.00e+00	0	27	0	3101687808	64	4248
2026-01-13 14:38:50.66	328.53	8.14	-49.3	-50.6	14.4	0.00e+00	0	27	0	3107979264	64	4291
2026-01-13 14:38:51.66	328.66	8.09	-49.4	-50.8	14.4	0.00e+00	0	27	0	3113222144	64	4362
2026-01-13 14:38:52.66	328.78	8.04	-49.3	-50.7	14.4	0.00e+00	0	27	0	3118465024	64	4328
2026-01-13 14:38:53.66	328.91	7.98	-49.4	-50.8	14.3	0.00e+00	0	27	0	3124756480	64	4370
2026-01-13 14:38:54.66	329.03	7.93	-49.5	-50.9	14.3	0.00e+00	0	27	0	3129999360	64	4409
2026-01-13 14:38:55.66	329.16	7.88	-49.6	-51.0	14.3	0.00e+00	0	27	0	3135242240	64	4465
2026-01-13 14:38:56.66	329.28	7.82	-49.7	-51.1	14.2	0.00e+00	0	27	0	3141533696	64	4539
2026-01-13 14:38:57.65	329.40	7.77	-49.8	-51.2	14.2	0.00e+00	0	27	0	3146776576	64	4574
2026-01-13 14:38:58.65	329.53	7.72	-49.8	-51.2	14.1	0.00e+00	0	27	0	3152019456	64	4587
2026-01-13 14:38:59.66	329.65	7.67	-49.7	-51.1	14.2	0.00e+00	0	27	0	3158310912	64	4543
2026-01-13 14:39:00.65	329.77	7.61	-49.9	-51.3	14.1	0.00e+00	0	27	0	3163553792	64	4634
2026-01-13 14:39:01.65	329.90	7.56	-50.0	-51.4	14.2	0.00e+00	0	27	0	3168796672	65	4433
2026-01-13 14:39:02.64	330.02	7.51	-50.0	-51.5	14.2	0.00e+00	0	27	0	3175088128	65	4447
2026-01-13 14:39:03.64	330.14	7.46	-50.0	-51.5	14.2	0.00e+00	0	27	0	3180331008	65	4447
2026-01-13 14:39:04.65	330.26	7.40	-50.0	-51.4	14.1	0.00e+00	0	27	0	3185573888	65	4440
2026-01-13 14:39:05.64	330.38	7.35	-50.1	-51.5	14.1	0.00e+00	0	27	0	3191865344	65	4483
2026-01-13 14:39:06.65	330.50	7.30	-50.0	-51.4	14.1	0.00e+00	0	27	0	3197108224	65	4428
2026-01-13 14:39:07.64	330.62	7.25	-50.1	-51.5	14.1	0.00e+00	0	27	0	3203399680	65	4487
2026-01-13 14:39:08.65	330.74	7.19	-50.2	-51.7	14.0	0.00e+00	0	27	0	3208642560	65	4569
2026-01-13 14:39:09.65	330.86	7.14	-50.1	-51.6	14.0	0.00e+00	0	27	0	3213885440	65	4534
2026-01-13 14:39:10.65	330.98	7.09	-50.0	-51.4	14.1	0.00e+00	0	27	0	3220176896	65	4438
2026-01-13 14:39:11.66	331.09	7.03	-50.0	-51.4	14.2	0.00e+00	0	27	0	3225419776	65	4431
2026-01-13 14:39:12.65	331.21	6.98	-50.1	-51.6	14.0	0.00e+00	0	27	0	3230662656	65	4528
2026-01-13 14:39:13.65	331.33	6.93	-50.1	-51.6	14.0	0.00e+00	0	27	0	3236954112	65	4526
2026-01-13 14:39:14.65	331.45	6.88	-50.1	-51.6	14.1	0.00e+00	0	27	0	3242196992	65	4512
2026-01-13 14:39:15.65	331.56	6.82	-50.1	-51.5	14.1	0.00e+00	0	27	0	3247439872	65	4485
2026-01-13 14:39:16.65	331.68	6.77	-50.1	-51.5	14.1	0.00e+00	0	27	0	3253731328	65	4491
2026-01-13 14:39:17.64	331.79	6.72	-50.1	-51.6	14.1	0.00e+00	0	27	0	3258974208	65	4531
2026-01-13 14:39:18.64	331.91	6.67	-50.2	-51.7	14.0	0.00e+00	0	27	0	3265265664	65	4574
2026-01-13 14:39:19.64	332.02	6.61	-50.1	-51.6	14.0	0.00e+00	0	27	0	3270508544	65	4510
2026-01-13 14:39:20.64	332.14	6.56	-50.2	-51.7	14.0	0.00e+00	0	27	0	3275751424	65	4586
2026-01-13 14:39:21.64	332.25	6.51	-50.2	-51.7	14.0	0.00e+00	0	27	0	3282042880	65	4575
2026-01-13 14:39:22.64	332.36	6.46	-50.1	-51.7	14.0	0.00e+00	0	27	0	3287285760	65	4551
2026-01-13 14:39:23.63	332.48	6.40	-50.1	-51.6	14.1	0.00e+00	0	27	0	3292528640	65	4503
2026-01-13 14:39:24.64	332.59	6.35	-50.1	-51.6	14.0	0.00e+00	0	27	0	3298820096	65	4534
2026-01-13 14:39:25.64	332.70	6.30	-50.4	-51.9	13.9	0.00e+00	0	27	0	3304062976	65	4700
2026-01-13 14:39:26.64	332.81	6.25	-50.2	-51.8	14.0	0.00e+00	0	27	0	3309305856	65	4602
2026-01-13 14:39:27.64	332.93	6.19	-50.1	-51.6	14.0	0.00e+00	0	27	0	3315597312	65	4521
2026-01-13 14:39:28.64	333.04	6.14	-50.1	-51.7	14.0	0.00e+00	0	27	0	3320840192	65	4550
2026-01-13 14:39:29.64	333.15	6.09	-50.2	-51.7	14.0	0.00e+00	0	27	0	3327131648	65	4571
2026-01-13 14:39:30.63	333.26	6.04	-50.4	-52.0	13.8	0.00e+00	0	27	0	3332374528	65	4715
2026-01-13 14:39:31.62	333.37	5.98	-50.3	-51.9	13.9	0.00e+00	0	27	0	3337617408	65	4673
2026-01-13 14:39:32.63	333.48	5.93	-50.6	-52.2	13.8	0.00e+00	0	27	0	3343908864	66	4556
2026-01-13 14:39:33.63	333.59	5.88	-50.6	-52.2	13.8	0.00e+00	0	27	0	3349151744	66	4580
2026-01-13 14:39:34.63	333.70	5.83	-50.5	-52.1	13.9	0.00e+00	0	27	0	3354394624	66	4517
2026-01-13 14:39:35.63	333.80	5.78	-50.4	-52.0	13.9	0.00e+00	0	27	0	3360686080	66	4445
2026-01-13 14:39:36.63	333.91	5.72	-50.4	-51.9	13.9	0.00e+00	0	27	0	3365928960	66	4437
2026-01-13 14:39:37.63	334.02	5.67	-50.5	-52.0	13.9	0.00e+00	0	27	0	3371171840	66	4492
2026-01-13 14:39:38.63	334.13	5.62	-50.4	-52.0	13.9	0.00e+00	0	27	0	3377463296	66	4475
2026-01-13 14:39:39.63	334.24	5.57	-50.6	-52.1	13.8	0.00e+00	0	27	0	3382706176	66	4543
2026-01-13 14:39:40.63	334.34	5.51	-50.4	-52.0	13.8	0.00e+00	0	27	0	3388997632	66	4486
2026-01-13 14:39:41.63	334.45	5.46	-49.9	-51.4	14.2	0.00e+00	0	27	0	3394240512	66	4154
2026-01-13 14:39:42.64	334.56	5.41	-49.9	-51.4	14.1	0.00e+00	0	27	0	3399483392	66	4186
2026-01-13 14:39:43.63	334.66	5.36	-50.4	-51.9	13.8	0.00e+00	0	27	0	3405774848	66	4435
2026-01-13 14:39:44.63	334.77	5.31	-50.4	-52.0	13.8	0.00e+00	0	27	0	3411017728	66	4458
2026-01-13 14:39:45.64	334.87	5.25	-50.4	-52.0	13.8	0.00e+00	0	27	0	3416260608	66	4482
2026-01-13 14:39:46.64	334.98	5.20	-50.1	-51.7	14.0	0.00e+00	0	27	0	3422552064	66	4306
2026-01-13 14:39:47.64	335.08	5.15	-50.1	-51.7	13.9	0.00e+00	0	27	0	3427794944	66	4314
2026-01-13 14:39:48.65	335.19	5.10	-50.2	-51.7	13.9	0.00e+00	0	27	0	3433037824	66	4329
2026-01-13 14:39:49.65	335.29	5.04	-50.3	-51.8	13.9	0.00e+00	0	27	0	3439329280	66	4390
2026-01-13 14:39:50.64	335.39	4.99	-53.5	-55.8	12.3	0.00e+00	0	27	0	3444572160	71	5215
2026-01-13 14:39:51.64	335.49	4.94	-59.4	-72.4	3.8	8.43e-01	0	27	104	3446669312	83	17510
2026-01-13 14:39:52.65	335.60	4.89	-59.2	-72.3	3.8	8.45e-01	0	27	104	3446669312	83	17414
2026-01-13 14:39:53.64	335.70	4.84	-59.6	-72.7	3.8	8.46e-01	0	27	104	3446669312	84	17183
2026-01-13 14:39:54.64	335.80	4.79	-59.8	-72.9	3.8	8.44e-01	0	27	104	3446669312	84	17486
2026-01-13 14:39:55.64	335.90	4.73	-59.9	-73.0	3.8	8.45e-01	0	27	104	3446669312	84	17697
2026-01-13 14:39:56.65	336.00	4.68	-60.0	-73.1	3.8	8.47e-01	0	27	104	3446669312	85	16973
2026-01-13 14:39:57.64	336.10	4.63	-60.1	-73.2	3.8	8.47e-01	0	27	104	3446669312	85	17121
2026-01-13 14:39:58.65	336.21	4.58	-60.2	-73.3	3.8	8.45e-01	0	27	104	3446669312	85	17335
2026-01-13 14:39:59.65	336.31	4.53	-60.3	-73.3	3.8	8.45e-01	0	27	104	3446669312	85	17445
2026-01-13 14:40:00.65	336.41	4.47	-60.3	-73.4	3.8	8.44e-01	0	27	104	3446669312	85	17518
2026-01-13 14:40:01.65	336.51	4.42	-60.3	-73.4	3.8	8.46e-01	0	27	104	3446669312	85	17668
2026-01-13 14:40:02.66	336.61	4.37	-60.4	-73.4	3.8	8.46e-01	0	27	104	3446669312	85	17650
2026-01-13 14:40:03.65	336.70	4.32	-60.4	-73.5	3.8	8.46e-01	0	27	104	3446669312	85	17752
2026-01-13 14:40:04.66	336.80	4.27	-60.4	-73.4	3.8	8.46e-01	0	27	104	3446669312	85	17650
2026-01-13 14:40:05.65	336.90	4.22	-60.4	-73.5	3.8	8.45e-01	0	27	104	3446669312	85	17731
2026-01-13 14:40:06.65	337.00	4.17	-60.4	-73.5	3.8	8.45e-01	0	27	104	3446669312	85	17789
2026-01-13 14:40:07.65	337.10	4.11	-60.4	-73.5	3.8	8.46e-01	0	27	104	3446669312	85	17732
2026-01-13 14:40:08.65	337.19	4.06	-60.4	-73.5	3.8	8.46e-01	0	27	104	3446669312	85	17720
2026-01-13 14:40:09.64	337.29	4.01	-60.4	-73.5	3.8	8.45e-01	0	27	104	3446669312	85	17705
2026-01-13 14:40:10.64	337.38	3.96	-60.3	-73.4	3.8	8.46e-01	0	27	104	3446669312	85	17670
2026-01-13 14:40:11.65	337.48	3.91	-60.3	-73.4	3.8	8.45e-01	0	27	104	3446669312	85	17605
2026-01-13 14:40:12.64	337.58	3.86	-60.3	-73.4	3.8	8.45e-01	0	27	104	3446669312	85	17559
2026-01-13 14:40:13.64	337.67	3.81	-60.3	-73.3	3.8	8.45e-01	0	27	104	3446669312	85	17445
