passes_logs/2026/01/13/R3.2S_Murmansk/R3.2S_Murmansk__20260113_230835_FENGYUN_3D_rec.log

#Pass ID: 20260113_230835_FENGYUN 3D
#Satellite: FENGYUN 3D
#Configuration: FENGYUN 3D
#almurnet v.1.7.20251203
#Start time: 2026-01-13 23:08:35

#Version: 2.2.20231116
#Station: R3.2S_Murmansk
#Location: 33.079688 lon 68.888172 lat
#TLE: 1 43010U 17072A   26013.59402220  .00000029  00000+0  35477-4 0  9991
#TLE: 2 43010  98.9934 345.3884 0002280 110.7757 249.3663 14.19695359423056

#Time	Az	El	Level	Level2	SNR	BER	BlckErr	Temp	State	Recorded	gain1	gain2
2026-01-13 23:08:35.91	19.55	2.04	-57.8	-70.8	3.8	8.44e-01	0	25	0	0	82	15498
2026-01-13 23:08:36.92	19.66	2.08	-57.8	-70.7	3.8	8.45e-01	0	25	104	0	80	17142
2026-01-13 23:08:37.92	19.76	2.12	-57.8	-70.7	3.8	8.46e-01	0	25	104	0	80	17112
2026-01-13 23:08:38.91	19.87	2.16	-57.8	-70.6	3.8	8.45e-01	0	25	104	0	80	17048
2026-01-13 23:08:39.90	19.97	2.20	-57.8	-70.5	3.8	8.45e-01	0	25	104	0	80	16833
2026-01-13 23:08:40.90	20.07	2.24	-57.8	-70.6	3.8	8.47e-01	0	25	104	0	80	17027
2026-01-13 23:08:41.90	20.18	2.28	-57.8	-70.5	3.8	8.46e-01	0	25	104	0	80	16875
2026-01-13 23:08:42.89	20.29	2.32	-57.8	-70.6	3.8	8.46e-01	0	25	104	0	80	16991
2026-01-13 23:08:43.89	20.39	2.36	-57.8	-70.5	3.8	8.45e-01	0	25	104	0	80	16849
2026-01-13 23:08:44.89	20.50	2.40	-57.8	-70.6	3.8	8.44e-01	0	25	104	0	80	17049
2026-01-13 23:08:45.89	20.61	2.45	-57.8	-70.5	3.8	8.45e-01	0	25	104	0	80	16793
2026-01-13 23:08:46.89	20.71	2.49	-57.8	-70.6	3.8	8.46e-01	0	26	104	0	80	16952
2026-01-13 23:08:47.89	20.82	2.53	-57.8	-70.5	3.8	8.46e-01	0	25	104	0	80	16822
2026-01-13 23:08:48.89	20.93	2.57	-57.8	-70.4	3.8	8.46e-01	0	26	104	0	80	16592
2026-01-13 23:08:49.88	21.04	2.61	-57.8	-70.4	3.8	8.46e-01	0	26	104	0	80	16647
2026-01-13 23:08:50.89	21.14	2.65	-57.8	-70.4	3.8	8.45e-01	0	26	104	0	80	16543
2026-01-13 23:08:51.89	21.25	2.69	-57.8	-70.3	3.8	8.45e-01	0	26	104	0	80	16463
2026-01-13 23:08:52.90	21.36	2.73	-57.8	-70.4	3.8	8.45e-01	0	26	104	0	80	16554
2026-01-13 23:08:53.89	21.47	2.77	-57.8	-70.4	3.8	8.45e-01	0	26	104	0	80	16515
2026-01-13 23:08:54.89	21.58	2.81	-57.8	-70.5	3.8	8.47e-01	0	26	104	0	80	16708
2026-01-13 23:08:55.89	21.69	2.85	-57.8	-70.6	3.8	8.46e-01	0	26	104	0	80	16896
2026-01-13 23:08:56.89	21.80	2.90	-57.8	-70.6	3.8	8.46e-01	0	26	104	0	80	16958
2026-01-13 23:08:57.89	21.91	2.94	-57.8	-70.6	3.8	8.45e-01	0	26	104	0	80	16956
2026-01-13 23:08:58.89	22.02	2.98	-57.8	-70.7	3.8	8.45e-01	0	26	104	0	80	17091
2026-01-13 23:08:59.90	22.13	3.02	-57.8	-70.5	3.8	8.47e-01	0	26	104	0	80	16881
2026-01-13 23:09:00.89	22.24	3.06	-57.8	-70.5	3.8	8.46e-01	0	26	104	0	80	16839
2026-01-13 23:09:01.89	22.36	3.10	-57.8	-70.5	3.8	8.46e-01	0	26	104	0	80	16704
2026-01-13 23:09:02.89	22.47	3.14	-57.8	-70.5	3.8	8.45e-01	0	26	104	0	80	16752
2026-01-13 23:09:03.88	22.58	3.18	-57.8	-70.5	3.8	8.46e-01	0	26	104	0	80	16753
2026-01-13 23:09:04.89	22.69	3.22	-57.8	-70.7	3.8	8.45e-01	0	26	104	0	80	17139
2026-01-13 23:09:05.89	22.81	3.26	-57.8	-70.7	3.8	8.45e-01	0	26	104	0	80	17225
2026-01-13 23:09:06.89	22.92	3.30	-57.8	-70.7	3.8	8.46e-01	0	26	104	0	80	17207
2026-01-13 23:09:07.89	23.03	3.34	-57.8	-70.7	3.8	8.46e-01	0	26	104	0	80	17126
2026-01-13 23:09:08.89	23.15	3.38	-57.8	-70.7	3.8	8.46e-01	0	26	104	0	80	17181
2026-01-13 23:09:09.89	23.26	3.42	-57.8	-70.8	3.8	8.46e-01	0	26	104	0	80	17460
2026-01-13 23:09:10.89	23.37	3.46	-57.8	-70.8	3.8	8.47e-01	0	26	104	0	80	17354
2026-01-13 23:09:11.89	23.49	3.50	-57.8	-70.8	3.8	8.44e-01	0	26	104	0	80	17332
2026-01-13 23:09:12.89	23.60	3.54	-57.8	-70.7	3.8	8.44e-01	0	26	104	0	80	17163
2026-01-13 23:09:13.89	23.72	3.59	-57.8	-70.7	3.8	8.47e-01	0	26	104	0	80	17106
2026-01-13 23:09:14.88	23.83	3.63	-57.8	-70.7	3.8	8.46e-01	0	26	104	0	80	17122
2026-01-13 23:09:15.88	23.95	3.67	-57.8	-70.6	3.8	8.45e-01	0	26	104	0	80	16911
2026-01-13 23:09:16.88	24.06	3.71	-57.8	-70.7	3.8	8.46e-01	0	26	104	0	80	17088
2026-01-13 23:09:17.87	24.18	3.75	-57.8	-70.7	3.8	8.46e-01	0	26	104	0	80	17115
2026-01-13 23:09:18.87	24.30	3.79	-57.8	-70.8	3.8	8.46e-01	0	26	104	0	80	17334
2026-01-13 23:09:19.87	24.41	3.83	-57.8	-70.8	3.8	8.45e-01	0	26	104	0	80	17469
2026-01-13 23:09:20.87	24.53	3.87	-57.8	-70.8	3.8	8.46e-01	0	26	104	0	80	17360
2026-01-13 23:09:21.87	24.65	3.91	-57.8	-70.8	3.8	8.46e-01	0	26	104	0	80	17301
2026-01-13 23:09:22.87	24.77	3.95	-57.8	-70.7	3.8	8.47e-01	0	26	104	0	80	17085
2026-01-13 23:09:23.87	24.88	3.99	-57.8	-70.7	3.8	8.45e-01	0	26	104	0	80	17241
2026-01-13 23:09:24.87	25.00	4.03	-57.8	-70.8	3.8	8.45e-01	0	26	104	0	80	17348
2026-01-13 23:09:25.87	25.12	4.07	-57.8	-70.8	3.8	8.45e-01	0	26	104	0	80	17417
2026-01-13 23:09:26.86	25.24	4.11	-57.8	-70.8	3.8	8.45e-01	0	26	104	0	80	17292
2026-01-13 23:09:27.85	25.36	4.14	-57.8	-70.8	3.8	8.46e-01	0	26	104	0	80	17282
2026-01-13 23:09:28.85	25.48	4.18	-57.8	-70.7	3.8	8.46e-01	0	26	104	0	80	17146
2026-01-13 23:09:29.86	25.60	4.22	-57.8	-70.7	3.8	8.45e-01	0	26	104	0	80	17193
2026-01-13 23:09:30.85	25.72	4.26	-57.8	-70.8	3.8	8.46e-01	0	26	104	0	80	17307
2026-01-13 23:09:31.86	25.84	4.30	-57.9	-70.8	3.8	8.45e-01	0	26	104	0	80	17397
2026-01-13 23:09:32.86	25.96	4.34	-57.9	-70.7	3.8	8.46e-01	0	26	104	0	80	17278
2026-01-13 23:09:33.86	26.08	4.38	-57.8	-70.5	3.8	8.45e-01	0	26	104	0	80	16723
2026-01-13 23:09:34.87	26.20	4.42	-57.8	-69.7	3.8	8.46e-01	0	27	104	0	80	15301
2026-01-13 23:09:35.87	26.33	4.46	-57.7	-68.8	3.8	8.45e-01	0	26	104	0	80	13792
2026-01-13 23:09:36.86	26.45	4.50	-57.6	-68.0	3.9	8.42e-01	0	27	104	0	80	12663
2026-01-13 23:09:37.86	26.57	4.54	-57.6	-68.1	4.0	8.42e-01	0	27	0	0	80	12752
2026-01-13 23:09:38.86	26.69	4.58	-57.7	-68.6	4.0	8.44e-01	0	27	104	0	80	13477
2026-01-13 23:09:39.86	26.82	4.62	-57.6	-68.3	3.8	8.44e-01	0	26	104	0	80	13050
2026-01-13 23:09:40.85	26.94	4.66	-57.3	-65.6	4.7	8.28e-01	0	27	0	0	80	9590
2026-01-13 23:09:41.85	27.06	4.70	-56.7	-62.8	6.4	2.80e-01	0	27	0	3145728	80	6950
2026-01-13 23:09:42.85	27.19	4.74	-55.9	-60.4	8.5	5.20e-02	0	26	0	8388608	78	5905
2026-01-13 23:09:43.84	27.31	4.78	-54.8	-58.2	10.3	2.32e-03	0	27	0	13631488	76	5109
2026-01-13 23:09:44.84	27.43	4.81	-53.7	-56.4	11.6	6.52e-05	0	27	0	19922944	74	4686
2026-01-13 23:09:45.83	27.56	4.85	-53.3	-55.7	12.0	9.10e-06	0	27	0	25165824	73	4587
2026-01-13 23:09:46.82	27.68	4.89	-53.1	-55.5	12.1	1.10e-06	0	27	0	31457280	72	4727
2026-01-13 23:09:47.82	27.81	4.93	-53.2	-55.6	12.0	4.50e-06	0	26	0	36700160	72	4807
2026-01-13 23:09:48.82	27.93	4.97	-53.5	-56.1	11.7	1.48e-05	0	27	0	41943040	72	5074
2026-01-13 23:09:49.83	28.06	5.01	-54.2	-57.3	10.8	1.27e-04	0	27	0	48234496	73	5484
2026-01-13 23:09:50.83	28.19	5.05	-54.4	-57.5	10.8	3.97e-04	0	27	0	53477376	74	5290
2026-01-13 23:09:51.83	28.32	5.09	-56.5	-62.8	6.4	5.58e-02	0	27	0	58720256	78	7725
2026-01-13 23:09:52.83	28.44	5.12	-52.4	-54.4	12.9	1.35e-02	0	27	0	65011712	71	4419
2026-01-13 23:09:53.83	28.57	5.16	-49.9	-51.4	14.1	0.00e+00	0	27	0	70254592	66	4175
2026-01-13 23:09:54.83	28.70	5.20	-56.0	-60.4	8.7	2.20e-06	0	27	0	75497472	77	6246
2026-01-13 23:09:55.82	28.83	5.24	-49.6	-51.5	14.1	0.00e+00	0	27	0	81788928	66	4228
2026-01-13 23:09:56.82	28.95	5.28	-49.7	-51.1	14.3	0.00e+00	0	27	0	87031808	66	4043
2026-01-13 23:09:57.82	29.08	5.32	-49.8	-51.3	14.1	0.00e+00	0	27	0	93323264	65	4368
2026-01-13 23:09:58.83	29.21	5.35	-49.8	-51.4	14.0	0.00e+00	0	27	0	98566144	65	4392
2026-01-13 23:09:59.84	29.34	5.39	-49.6	-51.1	14.2	0.00e+00	0	26	0	103809024	65	4243
2026-01-13 23:10:00.84	29.47	5.43	-49.6	-51.1	14.2	0.00e+00	0	27	0	110100480	65	4273
2026-01-13 23:10:01.84	29.60	5.47	-49.5	-51.0	14.3	0.00e+00	0	27	0	115343360	65	4212
2026-01-13 23:10:02.84	29.74	5.51	-49.6	-51.0	14.2	0.00e+00	0	27	0	120586240	65	4242
2026-01-13 23:10:03.84	29.87	5.55	-49.7	-51.2	14.2	0.00e+00	0	27	0	126877696	65	4298
2026-01-13 23:10:04.84	30.00	5.58	-49.8	-51.3	14.1	0.00e+00	0	27	0	132120576	65	4356
2026-01-13 23:10:05.84	30.13	5.62	-49.8	-51.3	14.1	0.00e+00	0	27	0	137363456	65	4350
2026-01-13 23:10:06.84	30.26	5.66	-49.8	-51.2	14.1	0.00e+00	0	27	0	143654912	65	4334
2026-01-13 23:10:07.84	30.39	5.70	-49.7	-51.1	14.2	0.00e+00	0	27	0	148897792	65	4291
2026-01-13 23:10:08.84	30.53	5.73	-49.7	-51.2	14.1	0.00e+00	0	27	0	155189248	65	4335
2026-01-13 23:10:09.84	30.66	5.77	-49.7	-51.1	14.2	0.00e+00	0	27	0	160432128	65	4283
2026-01-13 23:10:10.83	30.79	5.81	-49.6	-51.1	14.2	0.00e+00	0	27	0	165675008	65	4271
2026-01-13 23:10:11.83	30.92	5.85	-49.7	-51.2	14.1	0.00e+00	0	27	0	171966464	65	4324
2026-01-13 23:10:12.82	31.06	5.88	-49.4	-50.9	14.3	0.00e+00	0	27	0	177209344	65	4146
2026-01-13 23:10:13.83	31.19	5.92	-49.6	-51.0	14.3	0.00e+00	0	27	0	182452224	65	4217
2026-01-13 23:10:14.82	31.33	5.96	-49.4	-50.8	14.4	0.00e+00	0	27	0	188743680	65	4111
2026-01-13 23:10:15.81	31.46	5.99	-49.3	-50.7	14.4	0.00e+00	0	27	0	193986560	65	4082
2026-01-13 23:10:16.82	31.60	6.03	-49.4	-50.8	14.4	0.00e+00	0	27	0	199229440	65	4111
2026-01-13 23:10:17.82	31.73	6.07	-49.4	-50.8	14.3	0.00e+00	0	27	0	205520896	65	4127
2026-01-13 23:10:18.82	31.87	6.10	-49.4	-50.8	14.4	0.00e+00	0	27	0	210763776	65	4115
2026-01-13 23:10:19.82	32.00	6.14	-49.4	-50.8	14.4	0.00e+00	0	27	0	217055232	65	4104
2026-01-13 23:10:20.81	32.14	6.18	-49.5	-50.9	14.3	0.00e+00	0	27	0	222298112	65	4176
2026-01-13 23:10:21.81	32.27	6.21	-49.4	-50.8	14.4	0.00e+00	0	27	0	227540992	65	4122
2026-01-13 23:10:22.80	32.41	6.25	-49.4	-50.8	14.4	0.00e+00	0	27	0	232783872	65	4111
2026-01-13 23:10:23.81	32.55	6.29	-49.3	-50.7	14.4	0.00e+00	0	27	0	239075328	65	4095
2026-01-13 23:10:24.81	32.69	6.32	-49.4	-50.8	14.4	0.00e+00	0	27	0	244318208	65	4131
2026-01-13 23:10:25.81	32.83	6.36	-49.5	-50.9	14.3	0.00e+00	0	27	0	249561088	65	4163
2026-01-13 23:10:26.80	32.96	6.40	-49.6	-51.0	14.3	0.00e+00	0	27	0	255852544	65	4234
2026-01-13 23:10:27.80	33.10	6.43	-49.5	-50.9	14.3	0.00e+00	0	27	0	261095424	65	4187
2026-01-13 23:10:28.80	33.24	6.47	-49.5	-51.0	14.3	0.00e+00	0	27	0	267386880	65	4205
2026-01-13 23:10:29.81	33.38	6.50	-49.5	-51.0	14.3	0.00e+00	0	27	0	272629760	65	4216
2026-01-13 23:10:30.80	33.52	6.54	-49.6	-51.0	14.3	0.00e+00	0	27	0	277872640	65	4225
2026-01-13 23:10:31.80	33.66	6.57	-49.5	-50.9	14.3	0.00e+00	0	27	0	284164096	65	4191
2026-01-13 23:10:32.79	33.80	6.61	-49.4	-50.8	14.4	0.00e+00	0	27	0	289406976	65	4114
2026-01-13 23:10:33.79	33.94	6.65	-49.4	-50.8	14.4	0.00e+00	0	27	0	294649856	65	4137
2026-01-13 23:10:34.79	34.08	6.68	-49.3	-50.7	14.4	0.00e+00	0	27	0	300941312	65	4067
2026-01-13 23:10:35.79	34.22	6.72	-49.4	-50.8	14.4	0.00e+00	0	27	0	306184192	65	4109
2026-01-13 23:10:36.79	34.36	6.75	-49.4	-50.8	14.4	0.00e+00	0	27	0	311427072	65	4107
2026-01-13 23:10:37.79	34.51	6.79	-49.4	-50.8	14.4	0.00e+00	0	27	0	317718528	65	4122
2026-01-13 23:10:38.79	34.65	6.82	-49.5	-50.9	14.3	0.00e+00	0	27	0	322961408	65	4168
2026-01-13 23:10:39.78	34.79	6.86	-49.5	-50.9	14.3	0.00e+00	0	27	0	329252864	65	4179
2026-01-13 23:10:40.78	34.93	6.89	-49.5	-50.9	14.4	0.00e+00	0	27	0	334495744	65	4155
2026-01-13 23:10:41.78	35.08	6.93	-49.5	-50.9	14.3	0.00e+00	0	27	0	339738624	65	4190
2026-01-13 23:10:42.78	35.22	6.96	-49.5	-50.9	14.3	0.00e+00	0	27	0	346030080	65	4168
2026-01-13 23:10:43.79	35.37	7.00	-49.5	-50.9	14.3	0.00e+00	0	27	0	351272960	65	4176
2026-01-13 23:10:44.78	35.51	7.03	-49.5	-50.9	14.4	0.00e+00	0	27	0	356515840	65	4163
2026-01-13 23:10:45.78	35.65	7.06	-49.4	-50.8	14.4	0.00e+00	0	27	0	362807296	65	4128
2026-01-13 23:10:46.78	35.80	7.10	-49.5	-50.9	14.4	0.00e+00	0	27	0	368050176	65	4182
2026-01-13 23:10:47.78	35.94	7.13	-49.3	-50.7	14.4	0.00e+00	0	27	0	373293056	65	4098
2026-01-13 23:10:48.77	36.09	7.17	-49.3	-50.7	14.5	0.00e+00	0	27	0	379584512	65	4086
2026-01-13 23:10:49.78	36.24	7.20	-49.3	-50.7	14.4	0.00e+00	0	27	0	384827392	65	4091
2026-01-13 23:10:50.78	36.38	7.23	-49.3	-50.7	14.5	0.00e+00	0	27	0	391118848	65	4055
2026-01-13 23:10:51.77	36.53	7.27	-49.2	-50.6	14.5	0.00e+00	0	27	0	396361728	65	4013
2026-01-13 23:10:52.77	36.68	7.30	-49.1	-50.5	14.4	0.00e+00	0	27	0	401604608	64	4229
2026-01-13 23:10:53.77	36.82	7.33	-49.1	-50.5	14.4	0.00e+00	0	27	0	407896064	64	4198
2026-01-13 23:10:54.77	36.97	7.37	-49.1	-50.5	14.4	0.00e+00	0	27	0	413138944	64	4211
2026-01-13 23:10:55.77	37.12	7.40	-49.2	-50.6	14.4	0.00e+00	0	27	0	418381824	64	4271
2026-01-13 23:10:56.76	37.27	7.43	-49.2	-50.6	14.4	0.00e+00	0	27	0	424673280	64	4258
2026-01-13 23:10:57.76	37.41	7.47	-49.3	-50.6	14.4	0.00e+00	0	27	0	429916160	64	4291
2026-01-13 23:10:58.75	37.56	7.50	-49.2	-50.6	14.4	0.00e+00	0	27	0	435159040	64	4266
2026-01-13 23:10:59.75	37.71	7.53	-49.2	-50.6	14.4	0.00e+00	0	27	0	441450496	64	4277
2026-01-13 23:11:00.74	37.86	7.56	-49.1	-50.5	14.4	0.00e+00	0	27	0	446693376	64	4206
2026-01-13 23:11:01.75	38.01	7.60	-49.0	-50.4	14.5	0.00e+00	0	27	0	451936256	64	4161
2026-01-13 23:11:02.75	38.16	7.63	-49.1	-50.4	14.5	0.00e+00	0	27	0	458227712	64	4187
2026-01-13 23:11:03.75	38.31	7.66	-48.9	-50.2	14.6	0.00e+00	0	27	0	463470592	64	4097
2026-01-13 23:11:04.76	38.46	7.69	-49.0	-50.3	14.5	0.00e+00	0	27	0	468713472	64	4139
2026-01-13 23:11:05.76	38.62	7.73	-48.9	-50.2	14.6	0.00e+00	0	27	0	475004928	64	4084
2026-01-13 23:11:06.76	38.77	7.76	-48.8	-50.1	14.6	0.00e+00	0	27	0	480247808	64	4045
2026-01-13 23:11:07.76	38.92	7.79	-48.9	-50.2	14.6	0.00e+00	0	27	0	486539264	64	4070
2026-01-13 23:11:08.75	39.07	7.82	-48.7	-50.0	14.7	0.00e+00	0	27	0	491782144	64	3990
2026-01-13 23:11:09.76	39.22	7.85	-48.8	-50.1	14.7	0.00e+00	0	27	0	497025024	64	4018
2026-01-13 23:11:10.75	39.38	7.88	-48.8	-50.1	14.6	0.00e+00	0	27	0	503316480	64	4010
2026-01-13 23:11:11.75	39.53	7.91	-48.8	-50.1	14.6	0.00e+00	0	27	0	508559360	64	4036
2026-01-13 23:11:12.75	39.68	7.94	-48.8	-50.1	14.6	0.00e+00	0	27	0	513802240	64	4050
2026-01-13 23:11:13.75	39.84	7.98	-48.8	-50.1	14.6	0.00e+00	0	27	0	520093696	64	4049
2026-01-13 23:11:14.75	39.99	8.01	-48.9	-50.3	14.6	0.00e+00	0	27	0	525336576	64	4105
2026-01-13 23:11:15.74	40.14	8.04	-48.8	-50.1	14.6	0.00e+00	0	27	0	530579456	64	4034
2026-01-13 23:11:16.74	40.30	8.07	-48.9	-50.2	14.6	0.00e+00	0	27	0	536870912	64	4075
2026-01-13 23:11:17.73	40.45	8.10	-48.9	-50.3	14.6	0.00e+00	0	27	0	542113792	64	4102
2026-01-13 23:11:18.73	40.61	8.13	-48.9	-50.3	14.5	0.00e+00	0	27	0	548405248	64	4102
2026-01-13 23:11:19.73	40.76	8.16	-48.9	-50.2	14.6	0.00e+00	0	27	0	553648128	64	4089
2026-01-13 23:11:20.73	40.92	8.19	-48.8	-50.1	14.6	0.00e+00	0	27	0	558891008	64	4030
2026-01-13 23:11:21.73	41.07	8.22	-48.9	-50.2	14.6	0.00e+00	0	27	0	565182464	64	4064
2026-01-13 23:11:22.74	41.23	8.25	-48.8	-50.2	14.6	0.00e+00	0	27	0	570425344	64	4063
2026-01-13 23:11:23.74	41.39	8.28	-48.8	-50.1	14.7	0.00e+00	0	27	0	575668224	64	4013
2026-01-13 23:11:24.74	41.55	8.31	-48.8	-50.1	14.6	0.00e+00	0	27	0	581959680	64	4029
2026-01-13 23:11:25.74	41.70	8.34	-48.9	-50.2	14.6	0.00e+00	0	27	0	587202560	64	4089
2026-01-13 23:11:26.74	41.86	8.36	-48.8	-50.1	14.6	0.00e+00	0	27	0	592445440	64	4022
2026-01-13 23:11:27.74	42.02	8.39	-48.9	-50.3	14.6	0.00e+00	0	27	0	598736896	64	4101
2026-01-13 23:11:28.74	42.18	8.42	-48.9	-50.3	14.5	0.00e+00	0	27	0	603979776	64	4109
2026-01-13 23:11:29.74	42.34	8.45	-49.0	-50.4	14.5	0.00e+00	0	27	0	610271232	64	4151
2026-01-13 23:11:30.74	42.50	8.48	-48.9	-50.3	14.6	0.00e+00	0	27	0	615514112	64	4116
2026-01-13 23:11:31.74	42.66	8.51	-48.9	-50.2	14.6	0.00e+00	0	27	0	620756992	64	4083
2026-01-13 23:11:32.74	42.82	8.54	-48.9	-50.2	14.6	0.00e+00	0	27	0	627048448	64	4074
2026-01-13 23:11:33.73	42.97	8.56	-48.8	-50.1	14.6	0.00e+00	0	27	0	632291328	64	4011
2026-01-13 23:11:34.74	43.14	8.59	-48.8	-50.1	14.6	0.00e+00	0	27	0	637534208	64	4038
2026-01-13 23:11:35.73	43.30	8.62	-48.7	-50.0	14.6	0.00e+00	0	27	0	643825664	63	4220
2026-01-13 23:11:36.72	43.45	8.65	-48.7	-50.0	14.6	0.00e+00	0	27	0	649068544	63	4228
2026-01-13 23:11:37.72	43.62	8.67	-48.8	-50.1	14.5	0.00e+00	0	27	0	654311424	63	4287
2026-01-13 23:11:38.72	43.78	8.70	-48.8	-50.2	14.5	0.00e+00	0	27	0	660602880	63	4313
2026-01-13 23:11:39.73	43.94	8.73	-48.9	-50.2	14.5	0.00e+00	0	27	0	665845760	63	4319
2026-01-13 23:11:40.72	44.10	8.75	-48.9	-50.2	14.5	0.00e+00	0	27	0	672137216	63	4326
2026-01-13 23:11:41.72	44.26	8.78	-48.9	-50.3	14.5	0.00e+00	0	27	0	677380096	63	4363
2026-01-13 23:11:42.72	44.43	8.81	-49.1	-50.4	14.4	0.00e+00	0	27	0	682622976	63	4434
2026-01-13 23:11:43.72	44.59	8.83	-49.0	-50.4	14.4	0.00e+00	0	27	0	688914432	63	4428
2026-01-13 23:11:44.72	44.75	8.86	-49.1	-50.4	14.4	0.00e+00	0	27	0	694157312	63	4429
2026-01-13 23:11:45.72	44.92	8.89	-49.0	-50.4	14.4	0.00e+00	0	27	0	699400192	63	4393
2026-01-13 23:11:46.71	45.08	8.91	-48.8	-50.2	14.5	0.00e+00	0	27	0	704643072	63	4296
2026-01-13 23:11:47.71	45.24	8.94	-48.8	-50.1	14.5	0.00e+00	0	27	0	710934528	63	4283
2026-01-13 23:11:48.71	45.41	8.96	-48.8	-50.1	14.5	0.00e+00	0	27	0	716177408	63	4255
2026-01-13 23:11:49.71	45.57	8.99	-48.7	-50.0	14.5	0.00e+00	0	27	0	722468864	63	4241
2026-01-13 23:11:50.71	45.74	9.01	-48.8	-50.1	14.5	0.00e+00	0	27	0	727711744	63	4273
2026-01-13 23:11:51.70	45.90	9.04	-48.9	-50.2	14.5	0.00e+00	0	27	0	732954624	63	4327
2026-01-13 23:11:52.70	46.06	9.06	-49.0	-50.3	14.4	0.00e+00	0	27	0	739246080	63	4378
2026-01-13 23:11:53.69	46.23	9.09	-48.8	-50.2	14.5	0.00e+00	0	27	0	744488960	63	4300
2026-01-13 23:11:54.68	46.39	9.11	-48.9	-50.3	14.5	0.00e+00	0	27	0	749731840	63	4359
2026-01-13 23:11:55.67	46.56	9.13	-48.9	-50.3	14.5	0.00e+00	0	27	0	756023296	63	4351
2026-01-13 23:11:56.67	46.72	9.16	-48.9	-50.2	14.5	0.00e+00	0	27	0	761266176	63	4340
2026-01-13 23:11:57.68	46.89	9.18	-48.8	-50.1	14.5	0.00e+00	0	27	0	766509056	63	4286
2026-01-13 23:11:58.67	47.06	9.21	-48.7	-50.1	14.5	0.00e+00	0	27	0	772800512	63	4254
2026-01-13 23:11:59.68	47.23	9.23	-48.7	-50.0	14.6	0.00e+00	0	27	0	778043392	63	4216
2026-01-13 23:12:00.67	47.39	9.25	-48.7	-50.1	14.6	0.00e+00	0	27	0	784334848	63	4251
2026-01-13 23:12:01.66	47.56	9.28	-48.7	-50.0	14.6	0.00e+00	0	27	0	789577728	63	4238
2026-01-13 23:12:02.66	47.73	9.30	-48.7	-50.1	14.5	0.00e+00	0	27	0	794820608	63	4256
2026-01-13 23:12:03.66	47.90	9.32	-48.8	-50.1	14.5	0.00e+00	0	27	0	800063488	63	4286
2026-01-13 23:12:04.65	48.06	9.34	-48.6	-49.9	14.6	0.00e+00	0	27	0	806354944	63	4180
2026-01-13 23:12:05.64	48.23	9.37	-48.6	-49.9	14.6	0.00e+00	0	27	0	811597824	63	4159
2026-01-13 23:12:06.64	48.40	9.39	-48.4	-49.7	14.7	0.00e+00	0	27	0	816840704	63	4078
2026-01-13 23:12:07.65	48.57	9.41	-48.4	-49.7	14.7	0.00e+00	0	27	0	823132160	63	4071
2026-01-13 23:12:08.65	48.74	9.43	-48.4	-49.7	14.7	0.00e+00	0	27	0	828375040	63	4069
2026-01-13 23:12:09.65	48.91	9.45	-48.4	-49.7	14.7	0.00e+00	0	27	0	834666496	63	4054
2026-01-13 23:12:10.65	49.08	9.47	-48.4	-49.7	14.7	0.00e+00	0	27	0	839909376	63	4081
2026-01-13 23:12:11.65	49.25	9.50	-48.5	-49.7	14.7	0.00e+00	0	27	0	845152256	63	4092
2026-01-13 23:12:12.65	49.42	9.52	-48.5	-49.8	14.7	0.00e+00	0	27	0	851443712	63	4127
2026-01-13 23:12:13.64	49.59	9.54	-48.5	-49.8	14.7	0.00e+00	0	27	0	856686592	63	4109
2026-01-13 23:12:14.64	49.76	9.56	-48.5	-49.8	14.7	0.00e+00	0	27	0	861929472	63	4107
2026-01-13 23:12:15.64	49.93	9.58	-48.4	-49.7	14.7	0.00e+00	0	27	0	868220928	63	4076
2026-01-13 23:12:16.63	50.10	9.60	-48.4	-49.6	14.8	0.00e+00	0	27	0	873463808	63	4049
2026-01-13 23:12:17.64	50.27	9.62	-48.3	-49.6	14.8	0.00e+00	0	27	0	878706688	63	4014
2026-01-13 23:12:18.64	50.45	9.64	-48.3	-49.6	14.8	0.00e+00	0	27	0	884998144	63	4011
2026-01-13 23:12:19.64	50.62	9.66	-48.2	-49.4	14.7	0.00e+00	0	27	0	890241024	62	4170
2026-01-13 23:12:20.64	50.79	9.68	-48.2	-49.4	14.7	0.00e+00	0	27	0	896532480	62	4181
2026-01-13 23:12:21.63	50.96	9.69	-48.2	-49.5	14.7	0.00e+00	0	27	0	901775360	62	4206
2026-01-13 23:12:22.63	51.13	9.71	-48.2	-49.5	14.7	0.00e+00	0	27	0	907018240	62	4208
2026-01-13 23:12:23.63	51.31	9.73	-48.2	-49.5	14.7	0.00e+00	0	27	0	913309696	62	4220
2026-01-13 23:12:24.64	51.48	9.75	-48.3	-49.5	14.7	0.00e+00	0	27	0	918552576	62	4221
2026-01-13 23:12:25.64	51.66	9.77	-48.4	-49.6	14.6	0.00e+00	0	27	0	923795456	62	4276
2026-01-13 23:12:26.64	51.83	9.79	-48.5	-49.8	14.6	0.00e+00	0	27	0	930086912	62	4344
2026-01-13 23:12:27.64	52.00	9.80	-48.6	-49.9	14.5	0.00e+00	0	27	0	935329792	62	4394
2026-01-13 23:12:28.63	52.18	9.82	-48.6	-49.9	14.5	0.00e+00	0	27	0	940572672	62	4426
2026-01-13 23:12:29.63	52.35	9.84	-48.6	-49.9	14.5	0.00e+00	0	27	0	946864128	62	4404
2026-01-13 23:12:30.62	52.52	9.86	-48.5	-49.8	14.5	0.00e+00	0	27	0	952107008	62	4382
2026-01-13 23:12:31.61	52.70	9.87	-48.5	-49.7	14.6	0.00e+00	0	27	0	957349888	62	4333
2026-01-13 23:12:32.61	52.87	9.89	-48.3	-49.6	14.6	0.00e+00	0	27	0	963641344	62	4265
2026-01-13 23:12:33.60	53.04	9.91	-48.3	-49.6	14.6	0.00e+00	0	27	0	968884224	62	4248
2026-01-13 23:12:34.60	53.22	9.92	-48.4	-49.7	14.6	0.00e+00	0	27	0	974127104	62	4296
2026-01-13 23:12:35.61	53.40	9.94	-48.3	-49.6	14.7	0.00e+00	0	27	0	980418560	62	4246
2026-01-13 23:12:36.60	53.57	9.95	-48.3	-49.5	14.6	0.00e+00	0	27	0	985661440	62	4238
2026-01-13 23:12:37.60	53.75	9.97	-48.4	-49.6	14.6	0.00e+00	0	27	0	991952896	62	4279
2026-01-13 23:12:38.59	53.92	9.99	-48.4	-49.6	14.6	0.00e+00	0	27	0	997195776	62	4272
2026-01-13 23:12:39.59	54.10	10.00	-48.3	-49.6	14.6	0.00e+00	0	27	0	1002438656	62	4270
2026-01-13 23:12:40.59	54.27	10.02	-48.4	-49.7	14.6	0.00e+00	0	27	0	1008730112	62	4292
2026-01-13 23:12:41.59	54.45	10.03	-48.5	-49.7	14.6	0.00e+00	0	27	0	1013972992	62	4336
2026-01-13 23:12:42.59	54.63	10.04	-48.6	-49.9	14.5	0.00e+00	0	27	0	1019215872	62	4396
2026-01-13 23:12:43.59	54.80	10.06	-48.5	-49.8	14.6	0.00e+00	0	27	0	1025507328	62	4347
2026-01-13 23:12:44.59	54.98	10.07	-48.5	-49.8	14.5	0.00e+00	0	27	0	1030750208	62	4376
2026-01-13 23:12:45.58	55.16	10.09	-48.7	-50.0	14.5	0.00e+00	0	27	0	1035993088	62	4459
2026-01-13 23:12:46.58	55.33	10.10	-48.5	-49.8	14.5	0.00e+00	0	27	0	1042284544	62	4379
2026-01-13 23:12:47.58	55.51	10.11	-48.7	-50.1	14.5	0.00e+00	0	27	0	1047527424	62	4503
2026-01-13 23:12:48.58	55.69	10.13	-48.5	-49.8	14.5	0.00e+00	0	27	0	1053818880	62	4376
2026-01-13 23:12:49.58	55.87	10.14	-48.4	-49.6	14.6	0.00e+00	0	27	0	1059061760	62	4277
2026-01-13 23:12:50.57	56.04	10.15	-48.4	-49.7	14.6	0.00e+00	0	27	0	1064304640	62	4292
2026-01-13 23:12:51.57	56.22	10.16	-48.4	-49.7	14.6	0.00e+00	0	27	0	1070596096	62	4294
2026-01-13 23:12:52.57	56.40	10.18	-48.4	-49.7	14.6	0.00e+00	0	27	0	1075838976	62	4309
2026-01-13 23:12:53.56	56.58	10.19	-48.4	-49.7	14.6	0.00e+00	0	27	0	1081081856	62	4331
2026-01-13 23:12:54.56	56.75	10.20	-48.4	-49.7	14.6	0.00e+00	0	27	0	1086324736	62	4295
2026-01-13 23:12:55.56	56.93	10.21	-48.4	-49.7	14.6	0.00e+00	0	27	0	1092616192	62	4311
2026-01-13 23:12:56.55	57.11	10.22	-48.4	-49.7	14.6	0.00e+00	0	27	0	1097859072	62	4324
2026-01-13 23:12:57.54	57.29	10.23	-48.4	-49.7	14.6	0.00e+00	0	27	0	1104150528	62	4318
2026-01-13 23:12:58.55	57.47	10.24	-48.4	-49.7	14.6	0.00e+00	0	27	0	1109393408	62	4297
2026-01-13 23:12:59.54	57.65	10.25	-48.3	-49.6	14.6	0.00e+00	0	27	0	1114636288	62	4252
2026-01-13 23:13:00.53	57.82	10.26	-48.3	-49.6	14.6	0.00e+00	0	27	0	1120927744	62	4248
2026-01-13 23:13:01.52	58.00	10.27	-48.4	-49.6	14.6	0.00e+00	0	27	0	1126170624	62	4291
2026-01-13 23:13:02.52	58.18	10.28	-48.4	-49.6	14.6	0.00e+00	0	27	0	1131413504	62	4291
2026-01-13 23:13:03.51	58.36	10.29	-48.3	-49.6	14.7	0.00e+00	0	27	0	1136656384	62	4252
2026-01-13 23:13:04.51	58.54	10.30	-48.2	-49.4	14.7	0.00e+00	0	27	0	1142947840	62	4181
2026-01-13 23:13:05.51	58.72	10.31	-48.2	-49.5	14.7	0.00e+00	0	27	0	1148190720	62	4201
2026-01-13 23:13:06.52	58.90	10.32	-48.2	-49.5	14.7	0.00e+00	0	27	0	1154482176	62	4203
2026-01-13 23:13:07.52	59.08	10.33	-48.3	-49.6	14.6	0.00e+00	0	27	0	1159725056	62	4244
2026-01-13 23:13:08.51	59.26	10.34	-48.4	-49.7	14.6	0.00e+00	0	27	0	1164967936	62	4310
2026-01-13 23:13:09.51	59.44	10.34	-48.4	-49.6	14.6	0.00e+00	0	27	0	1171259392	62	4285
2026-01-13 23:13:10.50	59.62	10.35	-48.5	-49.7	14.6	0.00e+00	0	27	0	1176502272	62	4336
2026-01-13 23:13:11.50	59.80	10.36	-48.5	-49.7	14.6	0.00e+00	0	27	0	1181745152	62	4340
2026-01-13 23:13:12.50	59.98	10.37	-48.5	-49.8	14.5	0.00e+00	0	27	0	1188036608	62	4388
2026-01-13 23:13:13.50	60.16	10.37	-48.5	-49.8	14.6	0.00e+00	0	27	0	1193279488	62	4344
2026-01-13 23:13:14.50	60.34	10.38	-48.4	-49.7	14.6	0.00e+00	0	27	0	1198522368	62	4321
2026-01-13 23:13:15.50	60.52	10.39	-48.4	-49.7	14.6	0.00e+00	0	27	0	1204813824	62	4306
2026-01-13 23:13:16.50	60.70	10.39	-48.2	-49.5	14.7	0.00e+00	0	27	0	1210056704	62	4221
2026-01-13 23:13:17.50	60.88	10.40	-48.3	-49.5	14.7	0.00e+00	0	27	0	1216348160	62	4229
2026-01-13 23:13:18.49	61.06	10.41	-48.2	-49.4	14.7	0.00e+00	0	27	0	1221591040	62	4180
2026-01-13 23:13:19.49	61.25	10.41	-48.1	-49.4	14.7	0.00e+00	0	27	0	1226833920	62	4160
2026-01-13 23:13:20.49	61.43	10.42	-48.2	-49.4	14.7	0.00e+00	0	27	0	1233125376	62	4172
2026-01-13 23:13:21.49	61.61	10.42	-48.1	-49.3	14.7	0.00e+00	0	27	0	1238368256	62	4137
2026-01-13 23:13:22.49	61.79	10.43	-48.2	-49.5	14.7	0.00e+00	0	27	0	1243611136	62	4205
2026-01-13 23:13:23.48	61.97	10.43	-48.2	-49.4	14.7	0.00e+00	0	27	0	1249902592	62	4192
2026-01-13 23:13:24.48	62.15	10.44	-48.2	-49.5	14.7	0.00e+00	0	27	0	1255145472	62	4222
2026-01-13 23:13:25.48	62.33	10.44	-48.3	-49.6	14.6	0.00e+00	0	27	0	1260388352	62	4253
2026-01-13 23:13:26.48	62.51	10.44	-48.3	-49.6	14.7	0.00e+00	0	27	0	1266679808	62	4254
2026-01-13 23:13:27.47	62.69	10.45	-48.3	-49.5	14.7	0.00e+00	0	27	0	1271922688	62	4240
2026-01-13 23:13:28.47	62.88	10.45	-48.4	-49.7	14.6	0.00e+00	0	27	0	1278214144	62	4303
2026-01-13 23:13:29.47	63.06	10.45	-48.3	-49.6	14.7	0.00e+00	0	27	0	1283457024	62	4259
2026-01-13 23:13:30.47	63.24	10.46	-48.2	-49.5	14.7	0.00e+00	0	27	0	1288699904	62	4224
2026-01-13 23:13:31.46	63.42	10.46	-48.3	-49.5	14.7	0.00e+00	0	27	0	1293942784	62	4234
2026-01-13 23:13:32.46	63.60	10.46	-48.2	-49.5	14.7	0.00e+00	0	27	0	1300234240	62	4206
2026-01-13 23:13:33.46	63.78	10.46	-48.2	-49.5	14.7	0.00e+00	0	27	0	1305477120	62	4210
2026-01-13 23:13:34.46	63.96	10.46	-48.2	-49.5	14.7	0.00e+00	0	27	0	1310720000	62	4222
2026-01-13 23:13:35.46	64.15	10.47	-48.3	-49.5	14.7	0.00e+00	0	27	0	1317011456	62	4242
2026-01-13 23:13:36.46	64.33	10.47	-48.3	-49.6	14.6	0.00e+00	0	27	0	1322254336	62	4270
2026-01-13 23:13:37.45	64.51	10.47	-48.4	-49.7	14.6	0.00e+00	0	27	0	1328545792	62	4306
2026-01-13 23:13:38.46	64.69	10.47	-48.5	-49.8	14.6	0.00e+00	0	27	0	1333788672	62	4353
2026-01-13 23:13:39.46	64.87	10.47	-48.5	-49.8	14.6	0.00e+00	0	27	0	1339031552	62	4367
2026-01-13 23:13:40.45	65.05	10.47	-48.5	-49.8	14.6	0.00e+00	0	27	0	1345323008	62	4348
2026-01-13 23:13:41.45	65.24	10.47	-48.4	-49.7	14.6	0.00e+00	0	27	0	1350565888	62	4336
2026-01-13 23:13:42.45	65.42	10.47	-48.4	-49.7	14.6	0.00e+00	0	27	0	1355808768	62	4307
2026-01-13 23:13:43.45	65.60	10.47	-48.3	-49.6	14.6	0.00e+00	0	27	0	1362100224	62	4265
2026-01-13 23:13:44.45	65.78	10.47	-48.4	-49.6	14.6	0.00e+00	0	27	0	1367343104	62	4284
2026-01-13 23:13:45.45	65.97	10.47	-48.4	-49.6	14.6	0.00e+00	0	27	0	1372585984	62	4283
2026-01-13 23:13:46.45	66.15	10.47	-48.3	-49.5	14.7	0.00e+00	0	27	0	1378877440	62	4234
2026-01-13 23:13:47.45	66.33	10.46	-48.3	-49.5	14.7	0.00e+00	0	27	0	1384120320	62	4219
2026-01-13 23:13:48.44	66.51	10.46	-48.2	-49.5	14.7	0.00e+00	0	27	0	1390411776	62	4213
2026-01-13 23:13:49.44	66.69	10.46	-48.3	-49.6	14.6	0.00e+00	0	27	0	1395654656	62	4272
2026-01-13 23:13:50.44	66.87	10.46	-48.3	-49.6	14.6	0.00e+00	0	27	0	1400897536	62	4253
2026-01-13 23:13:51.43	67.05	10.46	-48.4	-49.6	14.6	0.00e+00	0	27	0	1407188992	62	4289
2026-01-13 23:13:52.44	67.24	10.45	-48.3	-49.6	14.6	0.00e+00	0	27	0	1412431872	62	4264
2026-01-13 23:13:53.43	67.42	10.45	-48.4	-49.7	14.6	0.00e+00	0	27	0	1417674752	62	4293
2026-01-13 23:13:54.43	67.60	10.45	-48.4	-49.7	14.6	0.00e+00	0	27	0	1423966208	62	4302
2026-01-13 23:13:55.43	67.78	10.44	-48.4	-49.6	14.6	0.00e+00	0	27	0	1429209088	62	4279
2026-01-13 23:13:56.43	67.96	10.44	-48.3	-49.5	14.6	0.00e+00	0	27	0	1434451968	62	4235
2026-01-13 23:13:57.42	68.14	10.44	-48.3	-49.6	14.6	0.00e+00	0	27	0	1440743424	62	4262
2026-01-13 23:13:58.42	68.32	10.43	-48.4	-49.7	14.6	0.00e+00	0	27	0	1445986304	62	4303
2026-01-13 23:13:59.42	68.51	10.43	-48.4	-49.7	14.6	0.00e+00	0	27	0	1452277760	62	4325
2026-01-13 23:14:00.42	68.69	10.42	-48.5	-49.8	14.6	0.00e+00	0	27	0	1457520640	62	4370
2026-01-13 23:14:01.41	68.87	10.42	-48.5	-49.8	14.6	0.00e+00	0	27	0	1462763520	62	4373
2026-01-13 23:14:02.41	69.05	10.41	-48.6	-49.9	14.5	0.00e+00	0	27	0	1468006400	62	4435
2026-01-13 23:14:03.41	69.23	10.41	-48.6	-49.9	14.5	0.00e+00	0	27	0	1474297856	62	4439
2026-01-13 23:14:04.41	69.41	10.40	-48.6	-49.9	14.5	0.00e+00	0	27	0	1479540736	62	4432
2026-01-13 23:14:05.41	69.59	10.39	-48.7	-50.0	14.5	0.00e+00	0	27	0	1484783616	62	4470
2026-01-13 23:14:06.41	69.77	10.39	-48.6	-50.0	14.5	0.00e+00	0	27	0	1491075072	62	4443
2026-01-13 23:14:07.41	69.95	10.38	-48.6	-49.9	14.5	0.00e+00	0	27	0	1496317952	62	4437
2026-01-13 23:14:08.42	70.14	10.37	-48.5	-49.8	14.5	0.00e+00	0	27	0	1502609408	62	4379
2026-01-13 23:14:09.42	70.32	10.37	-48.4	-49.7	14.6	0.00e+00	0	27	0	1507852288	62	4308
2026-01-13 23:14:10.41	70.50	10.36	-48.5	-49.8	14.6	0.00e+00	0	27	0	1513095168	62	4342
2026-01-13 23:14:11.41	70.68	10.35	-48.4	-49.7	14.6	0.00e+00	0	27	0	1519386624	62	4307
2026-01-13 23:14:12.41	70.86	10.35	-48.5	-49.7	14.6	0.00e+00	0	27	0	1524629504	62	4333
2026-01-13 23:14:13.41	71.04	10.34	-48.4	-49.7	14.6	0.00e+00	0	27	0	1529872384	62	4310
2026-01-13 23:14:14.41	71.22	10.33	-48.4	-49.7	14.6	0.00e+00	0	27	0	1536163840	62	4322
2026-01-13 23:14:15.41	71.40	10.32	-48.5	-49.8	14.6	0.00e+00	0	27	0	1541406720	62	4363
2026-01-13 23:14:16.41	71.58	10.31	-48.3	-49.6	14.6	0.00e+00	0	27	0	1547698176	62	4265
2026-01-13 23:14:17.41	71.76	10.30	-48.3	-49.6	14.6	0.00e+00	0	27	0	1552941056	62	4271
2026-01-13 23:14:18.40	71.94	10.29	-48.3	-49.6	14.6	0.00e+00	0	27	0	1558183936	62	4269
2026-01-13 23:14:19.40	72.12	10.28	-48.3	-49.6	14.6	0.00e+00	0	27	0	1564475392	62	4262
2026-01-13 23:14:20.39	72.30	10.27	-48.3	-49.6	14.6	0.00e+00	0	27	0	1569718272	62	4251
2026-01-13 23:14:21.39	72.48	10.26	-48.2	-49.4	14.7	0.00e+00	0	27	0	1574961152	62	4191
2026-01-13 23:14:22.39	72.66	10.25	-48.3	-49.6	14.6	0.00e+00	0	27	0	1581252608	62	4247
2026-01-13 23:14:23.39	72.84	10.24	-48.4	-49.7	14.6	0.00e+00	0	27	0	1586495488	62	4295
2026-01-13 23:14:24.40	73.02	10.23	-48.4	-49.7	14.6	0.00e+00	0	27	0	1591738368	62	4332
2026-01-13 23:14:25.39	73.19	10.22	-48.5	-49.8	14.6	0.00e+00	0	27	0	1598029824	62	4364
2026-01-13 23:14:26.39	73.37	10.21	-48.5	-49.8	14.5	0.00e+00	0	27	0	1603272704	62	4389
2026-01-13 23:14:27.40	73.55	10.20	-48.5	-49.9	14.5	0.00e+00	0	27	0	1609564160	62	4399
2026-01-13 23:14:28.40	73.73	10.19	-48.5	-49.9	14.5	0.00e+00	0	27	0	1614807040	62	4404
2026-01-13 23:14:29.40	73.91	10.18	-48.5	-49.8	14.6	0.00e+00	0	27	0	1620049920	62	4355
2026-01-13 23:14:30.40	74.09	10.16	-48.5	-49.8	14.6	0.00e+00	0	27	0	1626341376	62	4362
2026-01-13 23:14:31.40	74.27	10.15	-48.3	-49.6	14.6	0.00e+00	0	27	0	1631584256	62	4246
2026-01-13 23:14:32.40	74.45	10.14	-48.2	-49.5	14.7	0.00e+00	0	27	0	1636827136	62	4213
2026-01-13 23:14:33.39	74.62	10.13	-48.3	-49.5	14.6	0.00e+00	0	27	0	1643118592	62	4233
2026-01-13 23:14:34.39	74.80	10.11	-48.4	-49.7	14.6	0.00e+00	0	27	0	1648361472	62	4300
2026-01-13 23:14:35.38	74.98	10.10	-48.4	-49.6	14.6	0.00e+00	0	27	0	1653604352	62	4288
2026-01-13 23:14:36.38	75.16	10.09	-48.5	-49.8	14.6	0.00e+00	0	27	0	1659895808	62	4343
2026-01-13 23:14:37.38	75.33	10.07	-48.5	-49.8	14.5	0.00e+00	0	27	0	1665138688	62	4358
2026-01-13 23:14:38.38	75.51	10.06	-48.4	-49.7	14.6	0.00e+00	0	27	0	1671430144	62	4313
2026-01-13 23:14:39.38	75.69	10.04	-48.5	-49.8	14.6	0.00e+00	0	27	0	1676673024	62	4359
2026-01-13 23:14:40.37	75.86	10.03	-48.5	-49.8	14.5	0.00e+00	0	27	0	1681915904	62	4360
2026-01-13 23:14:41.36	76.04	10.01	-48.5	-49.8	14.5	0.00e+00	0	27	0	1687158784	62	4387
2026-01-13 23:14:42.36	76.21	10.00	-48.5	-49.8	14.6	0.00e+00	0	27	0	1693450240	62	4343
2026-01-13 23:14:43.36	76.39	9.98	-48.6	-49.9	14.5	0.00e+00	0	27	0	1698693120	62	4392
2026-01-13 23:14:44.37	76.57	9.97	-48.5	-49.9	14.4	0.00e+00	0	27	0	1704984576	62	4419
2026-01-13 23:14:45.36	76.74	9.95	-48.5	-49.9	14.5	0.00e+00	0	27	0	1710227456	62	4429
2026-01-13 23:14:46.36	76.92	9.94	-48.4	-49.9	14.5	0.00e+00	0	27	0	1715470336	62	4402
2026-01-13 23:14:47.35	77.09	9.92	-48.4	-49.9	14.5	0.00e+00	0	27	0	1721761792	62	4403
2026-01-13 23:14:48.35	77.27	9.91	-48.4	-49.9	14.5	0.00e+00	0	27	0	1727004672	62	4396
2026-01-13 23:14:49.35	77.44	9.89	-48.6	-50.0	14.4	0.00e+00	0	27	0	1732247552	62	4477
2026-01-13 23:14:50.35	77.62	9.87	-48.6	-50.0	14.4	0.00e+00	0	27	0	1738539008	62	4490
2026-01-13 23:14:51.35	77.80	9.86	-48.6	-50.0	14.4	0.00e+00	0	27	0	1743781888	62	4491
2026-01-13 23:14:52.36	77.97	9.84	-48.6	-50.0	14.4	0.00e+00	0	27	0	1749024768	62	4472
2026-01-13 23:14:53.36	78.15	9.82	-48.7	-50.1	14.4	0.00e+00	0	27	0	1755316224	62	4539
2026-01-13 23:14:54.36	78.32	9.80	-48.5	-50.0	14.4	0.00e+00	0	27	0	1760559104	62	4448
2026-01-13 23:14:55.35	78.49	9.79	-48.4	-49.8	14.5	0.00e+00	0	27	0	1765801984	62	4365
2026-01-13 23:14:56.35	78.67	9.77	-48.4	-49.8	14.5	0.00e+00	0	27	0	1772093440	62	4379
2026-01-13 23:14:57.35	78.84	9.75	-48.4	-49.9	14.5	0.00e+00	0	27	0	1777336320	62	4396
2026-01-13 23:14:58.35	79.01	9.73	-48.4	-49.9	14.5	0.00e+00	0	27	0	1783627776	62	4394
2026-01-13 23:14:59.36	79.19	9.71	-48.4	-49.9	14.5	0.00e+00	0	27	0	1788870656	62	4404
2026-01-13 23:15:00.35	79.36	9.69	-48.5	-50.0	14.4	0.00e+00	0	27	0	1794113536	62	4447
2026-01-13 23:15:01.36	79.54	9.67	-48.5	-50.0	14.4	0.00e+00	0	27	0	1800404992	62	4450
2026-01-13 23:15:02.37	79.71	9.65	-48.5	-49.9	14.5	0.00e+00	0	27	0	1805647872	62	4418
2026-01-13 23:15:03.36	79.88	9.63	-48.5	-50.0	14.4	0.00e+00	0	27	0	1810890752	62	4451
2026-01-13 23:15:04.37	80.06	9.61	-48.5	-49.9	14.4	0.00e+00	0	27	0	1817182208	62	4429
2026-01-13 23:15:05.36	80.23	9.59	-48.5	-50.0	14.4	0.00e+00	0	27	0	1822425088	62	4457
2026-01-13 23:15:06.37	80.40	9.57	-48.5	-50.0	14.4	0.00e+00	0	27	0	1828716544	62	4443
2026-01-13 23:15:07.37	80.57	9.55	-48.6	-50.0	14.4	0.00e+00	0	27	0	1833959424	62	4469
2026-01-13 23:15:08.37	80.74	9.53	-48.5	-50.0	14.4	0.00e+00	0	27	0	1839202304	62	4455
2026-01-13 23:15:09.37	80.91	9.51	-48.7	-50.2	14.4	0.00e+00	0	27	0	1845493760	62	4551
2026-01-13 23:15:10.38	81.09	9.49	-48.7	-50.1	14.3	0.00e+00	0	27	0	1850736640	62	4544
2026-01-13 23:15:11.38	81.26	9.47	-48.6	-50.1	14.4	0.00e+00	0	27	0	1857028096	62	4516
2026-01-13 23:15:12.38	81.43	9.45	-48.7	-50.2	14.3	0.00e+00	0	27	0	1862270976	62	4558
2026-01-13 23:15:13.38	81.60	9.43	-48.7	-50.1	14.4	0.00e+00	0	27	0	1867513856	62	4542
2026-01-13 23:15:14.39	81.77	9.41	-48.6	-50.1	14.4	0.00e+00	0	27	0	1873805312	62	4531
2026-01-13 23:15:15.38	81.94	9.38	-48.7	-50.2	14.3	0.00e+00	0	27	0	1879048192	62	4548
2026-01-13 23:15:16.38	82.11	9.36	-48.8	-50.3	14.3	0.00e+00	0	27	0	1884291072	62	4615
2026-01-13 23:15:17.38	82.28	9.34	-48.7	-50.2	14.3	0.00e+00	0	27	0	1890582528	62	4587
2026-01-13 23:15:18.37	82.44	9.32	-48.8	-50.3	14.3	0.00e+00	0	27	0	1895825408	62	4631
2026-01-13 23:15:19.38	82.61	9.29	-48.8	-50.3	14.3	0.00e+00	0	27	0	1901068288	62	4620
2026-01-13 23:15:20.38	82.78	9.27	-48.8	-50.3	14.3	0.00e+00	0	27	0	1907359744	62	4635
2026-01-13 23:15:21.38	82.95	9.25	-48.9	-50.4	14.2	0.00e+00	0	27	0	1912602624	62	4672
2026-01-13 23:15:22.39	83.12	9.22	-48.8	-50.3	14.4	0.00e+00	0	27	0	1918894080	63	4385
2026-01-13 23:15:23.40	83.29	9.20	-48.8	-50.3	14.4	0.00e+00	0	27	0	1924136960	63	4386
2026-01-13 23:15:24.40	83.46	9.18	-48.9	-50.4	14.3	0.00e+00	0	27	0	1929379840	63	4418
2026-01-13 23:15:25.39	83.62	9.15	-49.0	-50.5	14.3	0.00e+00	0	27	0	1935671296	63	4455
2026-01-13 23:15:26.39	83.79	9.13	-48.9	-50.4	14.3	0.00e+00	0	27	0	1940914176	63	4430
2026-01-13 23:15:27.40	83.96	9.10	-48.9	-50.4	14.4	0.00e+00	0	27	0	1946157056	63	4403
2026-01-13 23:15:28.40	84.12	9.08	-48.8	-50.3	14.4	0.00e+00	0	27	0	1952448512	63	4367
2026-01-13 23:15:29.41	84.29	9.05	-48.9	-50.3	14.4	0.00e+00	0	27	0	1957691392	63	4391
2026-01-13 23:15:30.41	84.46	9.03	-48.8	-50.3	14.4	0.00e+00	0	27	0	1962934272	63	4347
2026-01-13 23:15:31.41	84.62	9.00	-48.9	-50.4	14.4	0.00e+00	0	27	0	1969225728	63	4409
2026-01-13 23:15:32.41	84.79	8.98	-48.7	-50.2	14.5	0.00e+00	0	27	0	1974468608	63	4292
2026-01-13 23:15:33.41	84.95	8.95	-48.7	-50.1	14.4	0.00e+00	0	27	0	1980760064	63	4277
2026-01-13 23:15:34.41	85.12	8.93	-48.7	-50.2	14.4	0.00e+00	0	27	0	1986002944	63	4297
2026-01-13 23:15:35.41	85.28	8.90	-48.7	-50.2	14.4	0.00e+00	0	27	0	1991245824	63	4293
2026-01-13 23:15:36.41	85.45	8.88	-48.7	-50.1	14.4	0.00e+00	0	27	0	1997537280	63	4288
2026-01-13 23:15:37.41	85.61	8.85	-48.7	-50.1	14.5	0.00e+00	0	27	0	2002780160	63	4291
2026-01-13 23:15:38.41	85.78	8.82	-48.7	-50.2	14.4	0.00e+00	0	27	0	2008023040	63	4308
2026-01-13 23:15:39.41	85.94	8.80	-48.8	-50.2	14.4	0.00e+00	0	27	0	2014314496	63	4336
2026-01-13 23:15:40.41	86.10	8.77	-48.8	-50.3	14.4	0.00e+00	0	27	0	2019557376	63	4376
2026-01-13 23:15:41.41	86.26	8.74	-48.8	-50.3	14.4	0.00e+00	0	27	0	2024800256	63	4369
2026-01-13 23:15:42.41	86.43	8.72	-48.9	-50.4	14.3	0.00e+00	0	27	0	2031091712	63	4401
2026-01-13 23:15:43.40	86.59	8.69	-48.8	-50.2	14.4	0.00e+00	0	27	0	2036334592	63	4337
2026-01-13 23:15:44.40	86.75	8.66	-48.8	-50.3	14.4	0.00e+00	0	27	0	2042626048	63	4356
2026-01-13 23:15:45.40	86.91	8.63	-48.8	-50.3	14.4	0.00e+00	0	27	0	2047868928	63	4366
2026-01-13 23:15:46.40	87.07	8.61	-48.9	-50.4	14.4	0.00e+00	0	27	0	2053111808	63	4401
2026-01-13 23:15:47.40	87.23	8.58	-49.0	-50.5	14.3	0.00e+00	0	27	0	2059403264	63	4474
2026-01-13 23:15:48.39	87.39	8.55	-49.0	-50.5	14.3	0.00e+00	0	27	0	2064646144	63	4484
2026-01-13 23:15:49.38	87.55	8.52	-49.1	-50.6	14.2	0.00e+00	0	27	0	2069889024	63	4535
2026-01-13 23:15:50.39	87.71	8.50	-49.1	-50.7	14.2	0.00e+00	0	27	0	2076180480	63	4563
2026-01-13 23:15:51.38	87.87	8.47	-49.2	-50.8	14.2	0.00e+00	0	27	0	2081423360	63	4608
2026-01-13 23:15:52.38	88.03	8.44	-49.1	-50.6	14.2	0.00e+00	0	27	0	2086666240	63	4545
2026-01-13 23:15:53.38	88.19	8.41	-49.1	-50.7	14.2	0.00e+00	0	27	0	2092957696	63	4567
2026-01-13 23:15:54.38	88.35	8.38	-49.1	-50.6	14.2	0.00e+00	0	27	0	2098200576	63	4531
2026-01-13 23:15:55.38	88.51	8.35	-48.9	-50.4	14.3	0.00e+00	0	27	0	2104492032	63	4435
2026-01-13 23:15:56.38	88.67	8.32	-48.9	-50.4	14.3	0.00e+00	0	27	0	2109734912	63	4434
2026-01-13 23:15:57.39	88.83	8.29	-48.9	-50.4	14.3	0.00e+00	0	27	0	2114977792	63	4402
2026-01-13 23:15:58.38	88.98	8.26	-49.1	-50.6	14.2	0.00e+00	0	27	0	2121269248	63	4513
2026-01-13 23:15:59.39	89.14	8.23	-48.8	-50.3	14.4	0.00e+00	0	27	0	2126512128	63	4373
2026-01-13 23:16:00.37	89.30	8.20	-48.9	-50.3	14.3	0.00e+00	0	27	0	2131755008	63	4382
2026-01-13 23:16:01.37	89.45	8.17	-48.9	-50.3	14.3	0.00e+00	0	27	0	2138046464	63	4388
2026-01-13 23:16:02.37	89.61	8.14	-48.9	-50.4	14.3	0.00e+00	0	27	0	2143289344	63	4409
2026-01-13 23:16:03.37	89.76	8.11	-49.0	-50.5	14.3	0.00e+00	0	27	0	2148532224	63	4492
2026-01-13 23:16:04.37	89.92	8.08	-49.1	-50.7	14.2	0.00e+00	0	27	0	2154823680	63	4558
2026-01-13 23:16:05.37	90.08	8.05	-49.1	-50.7	14.2	0.00e+00	0	27	0	2160066560	63	4552
2026-01-13 23:16:06.36	90.23	8.02	-49.2	-50.8	14.1	0.00e+00	0	27	0	2165309440	63	4626
2026-01-13 23:16:07.36	90.38	7.99	-49.2	-50.8	14.2	0.00e+00	0	27	0	2171600896	63	4624
2026-01-13 23:16:08.36	90.54	7.96	-49.2	-50.7	14.2	0.00e+00	0	27	0	2176843776	63	4586
2026-01-13 23:16:09.36	90.69	7.93	-49.2	-50.7	14.2	0.00e+00	0	27	0	2182086656	63	4585
2026-01-13 23:16:10.36	90.85	7.90	-49.1	-50.7	14.2	0.00e+00	0	27	0	2188378112	63	4566
2026-01-13 23:16:11.36	91.00	7.87	-49.3	-50.8	14.1	0.00e+00	0	27	0	2193620992	63	4636
2026-01-13 23:16:12.37	91.16	7.83	-49.3	-50.8	14.1	0.00e+00	0	27	0	2199912448	63	4636
2026-01-13 23:16:13.36	91.31	7.80	-49.3	-50.9	14.1	0.00e+00	0	27	0	2205155328	63	4661
2026-01-13 23:16:14.37	91.46	7.77	-49.4	-50.9	14.1	0.00e+00	0	27	0	2211446784	63	4696
2026-01-13 23:16:15.38	91.62	7.74	-49.4	-51.0	14.1	0.00e+00	0	27	0	2216689664	63	4706
2026-01-13 23:16:16.37	91.77	7.71	-49.4	-50.9	14.1	0.00e+00	0	27	0	2221932544	63	4692
2026-01-13 23:16:17.37	91.92	7.68	-49.3	-50.9	14.1	0.00e+00	0	27	0	2228224000	63	4656
2026-01-13 23:16:18.37	92.07	7.64	-49.1	-50.7	14.2	0.00e+00	0	27	0	2233466880	63	4559
2026-01-13 23:16:19.38	92.22	7.61	-49.2	-50.8	14.2	0.00e+00	0	27	0	2238709760	63	4610
2026-01-13 23:16:20.39	92.37	7.58	-49.2	-50.8	14.1	0.00e+00	0	27	0	2245001216	63	4607
2026-01-13 23:16:21.39	92.52	7.54	-49.2	-50.7	14.2	0.00e+00	0	27	0	2250244096	63	4582
2026-01-13 23:16:22.39	92.67	7.51	-49.1	-50.7	14.2	0.00e+00	0	27	0	2255486976	63	4550
2026-01-13 23:16:23.39	92.82	7.48	-49.2	-50.7	14.2	0.00e+00	0	27	0	2261778432	63	4584
2026-01-13 23:16:24.39	92.97	7.45	-49.1	-50.7	14.2	0.00e+00	0	27	0	2267021312	63	4559
2026-01-13 23:16:25.38	93.12	7.41	-49.1	-50.7	14.2	0.00e+00	0	27	0	2273312768	63	4554
2026-01-13 23:16:26.38	93.27	7.38	-49.2	-50.7	14.2	0.00e+00	0	27	0	2278555648	63	4586
2026-01-13 23:16:27.38	93.42	7.35	-49.2	-50.8	14.2	0.00e+00	0	27	0	2283798528	63	4606
2026-01-13 23:16:28.38	93.57	7.31	-49.0	-50.5	14.2	0.00e+00	0	27	0	2290089984	63	4469
2026-01-13 23:16:29.39	93.72	7.28	-49.1	-50.6	14.2	0.00e+00	0	27	0	2295332864	63	4496
2026-01-13 23:16:30.39	93.86	7.24	-49.1	-50.6	14.2	0.00e+00	0	27	0	2300575744	63	4505
2026-01-13 23:16:31.39	94.01	7.21	-49.1	-50.7	14.2	0.00e+00	0	27	0	2306867200	63	4548
2026-01-13 23:16:32.39	94.16	7.18	-49.2	-50.7	14.2	0.00e+00	0	27	0	2312110080	63	4561
2026-01-13 23:16:33.39	94.30	7.14	-49.3	-50.9	14.1	0.00e+00	0	27	0	2317352960	63	4671
2026-01-13 23:16:34.40	94.45	7.11	-49.4	-50.9	14.0	0.00e+00	0	27	0	2323644416	63	4698
2026-01-13 23:16:35.40	94.60	7.07	-49.3	-50.9	14.1	0.00e+00	0	27	0	2328887296	63	4668
2026-01-13 23:16:36.40	94.74	7.04	-49.5	-51.1	14.1	0.00e+00	0	27	0	2335178752	64	4496
2026-01-13 23:16:37.40	94.89	7.00	-49.4	-51.0	14.1	0.00e+00	0	27	0	2340421632	64	4475
2026-01-13 23:16:38.39	95.03	6.97	-49.5	-51.2	14.0	0.00e+00	0	27	0	2345664512	64	4551
2026-01-13 23:16:39.39	95.18	6.94	-49.6	-51.2	14.0	0.00e+00	0	27	0	2351955968	64	4597
2026-01-13 23:16:40.39	95.32	6.90	-49.4	-51.0	14.1	0.00e+00	0	27	0	2357198848	64	4492
2026-01-13 23:16:41.39	95.47	6.87	-49.5	-51.1	14.0	0.00e+00	0	27	0	2362441728	64	4532
2026-01-13 23:16:42.39	95.61	6.83	-49.5	-51.2	14.0	0.00e+00	0	27	0	2368733184	64	4547
2026-01-13 23:16:43.39	95.75	6.80	-49.4	-51.0	14.1	0.00e+00	0	27	0	2373976064	64	4455
2026-01-13 23:16:44.39	95.89	6.76	-49.5	-51.1	14.1	0.00e+00	0	27	0	2379218944	64	4522
2026-01-13 23:16:45.40	96.04	6.72	-49.5	-51.1	14.0	0.00e+00	0	27	0	2385510400	64	4525
2026-01-13 23:16:46.40	96.18	6.69	-49.5	-51.0	14.1	0.00e+00	0	27	0	2390753280	64	4488
2026-01-13 23:16:47.40	96.32	6.65	-49.5	-51.1	14.0	0.00e+00	0	27	0	2397044736	64	4516
2026-01-13 23:16:48.40	96.46	6.62	-49.5	-51.0	14.1	0.00e+00	0	27	0	2402287616	64	4492
2026-01-13 23:16:49.41	96.61	6.58	-49.5	-51.0	14.1	0.00e+00	0	27	0	2407530496	64	4493
2026-01-13 23:16:50.41	96.75	6.55	-49.6	-51.2	14.0	0.00e+00	0	27	0	2413821952	64	4555
2026-01-13 23:16:51.41	96.89	6.51	-49.6	-51.2	14.0	0.00e+00	0	27	0	2419064832	64	4590
2026-01-13 23:16:52.42	97.03	6.47	-49.7	-51.3	13.9	0.00e+00	0	27	0	2425356288	64	4629
2026-01-13 23:16:53.41	97.17	6.44	-49.7	-51.3	13.9	0.00e+00	0	27	0	2430599168	64	4650
2026-01-13 23:16:54.41	97.31	6.40	-49.6	-51.3	14.0	0.00e+00	0	27	0	2435842048	64	4614
2026-01-13 23:16:55.41	97.45	6.36	-49.8	-51.4	13.9	0.00e+00	0	27	0	2441084928	64	4696
2026-01-13 23:16:56.41	97.59	6.33	-49.8	-51.5	13.9	0.00e+00	0	27	0	2447376384	64	4719
2026-01-13 23:16:57.41	97.72	6.29	-49.8	-51.5	13.8	0.00e+00	0	27	0	2452619264	64	4738
2026-01-13 23:16:58.42	97.86	6.25	-49.8	-51.5	13.9	0.00e+00	0	27	0	2458910720	64	4719
2026-01-13 23:16:59.42	98.00	6.22	-49.7	-51.4	13.9	0.00e+00	0	27	0	2464153600	64	4667
2026-01-13 23:17:00.42	98.14	6.18	-49.6	-51.2	14.0	0.00e+00	0	27	0	2470445056	64	4588
2026-01-13 23:17:01.42	98.28	6.14	-49.6	-51.2	14.0	0.00e+00	0	27	0	2475687936	64	4588
2026-01-13 23:17:02.42	98.41	6.11	-49.6	-51.2	14.0	0.00e+00	0	27	0	2480930816	64	4573
2026-01-13 23:17:03.42	98.55	6.07	-49.6	-51.2	14.0	0.00e+00	0	27	0	2487222272	64	4553
2026-01-13 23:17:04.42	98.69	6.03	-49.6	-51.2	14.0	0.00e+00	0	27	0	2492465152	64	4553
2026-01-13 23:17:05.42	98.82	6.00	-49.4	-50.9	14.1	0.00e+00	0	27	0	2497708032	64	4427
2026-01-13 23:17:06.43	98.96	5.96	-49.3	-50.9	14.1	0.00e+00	0	27	0	2503999488	64	4403
2026-01-13 23:17:07.43	99.09	5.92	-49.3	-50.9	14.1	0.00e+00	0	27	0	2509242368	64	4418
2026-01-13 23:17:08.43	99.23	5.88	-49.5	-51.1	14.1	0.00e+00	0	27	0	2514485248	64	4501
2026-01-13 23:17:09.44	99.37	5.85	-49.4	-51.0	14.1	0.00e+00	0	27	0	2520776704	64	4478
2026-01-13 23:17:10.44	99.50	5.81	-49.5	-51.0	14.0	0.00e+00	0	27	0	2526019584	64	4493
2026-01-13 23:17:11.44	99.63	5.77	-49.5	-51.1	14.0	0.00e+00	0	27	0	2532311040	64	4519
2026-01-13 23:17:12.44	99.77	5.73	-49.5	-51.0	14.0	0.00e+00	0	27	0	2537553920	64	4488
2026-01-13 23:17:13.43	99.90	5.69	-49.5	-51.1	14.0	0.00e+00	0	27	0	2542796800	64	4519
2026-01-13 23:17:14.43	100.03	5.66	-49.9	-51.6	13.8	0.00e+00	0	27	0	2549088256	64	4760
2026-01-13 23:17:15.43	100.16	5.62	-49.8	-51.5	13.9	0.00e+00	0	27	0	2554331136	65	4472
2026-01-13 23:17:16.43	100.30	5.58	-49.9	-51.5	13.9	0.00e+00	0	27	0	2559574016	65	4493
2026-01-13 23:17:17.44	100.43	5.54	-49.9	-51.5	13.9	0.00e+00	0	27	0	2565865472	65	4490
2026-01-13 23:17:18.44	100.56	5.50	-49.8	-51.5	13.9	0.00e+00	0	27	0	2571108352	65	4455
2026-01-13 23:17:19.44	100.69	5.47	-50.1	-51.9	13.7	0.00e+00	0	27	0	2576351232	65	4666
2026-01-13 23:17:20.44	100.82	5.43	-50.1	-51.9	13.7	0.00e+00	0	27	0	2582642688	65	4672
2026-01-13 23:17:21.43	100.95	5.39	-50.1	-51.9	13.7	0.00e+00	0	27	0	2587885568	65	4661
2026-01-13 23:17:22.44	101.08	5.35	-50.1	-51.8	13.8	0.00e+00	0	27	0	2594177024	65	4599
2026-01-13 23:17:23.44	101.21	5.31	-50.0	-51.7	13.8	0.00e+00	0	27	0	2599419904	65	4596
2026-01-13 23:17:24.43	101.34	5.27	-50.0	-51.7	13.8	0.00e+00	0	27	0	2604662784	65	4564
2026-01-13 23:17:25.44	101.47	5.24	-49.9	-51.6	13.9	0.00e+00	0	27	0	2610954240	65	4500
2026-01-13 23:17:26.44	101.60	5.20	-49.7	-51.4	14.0	0.00e+00	0	27	0	2616197120	65	4402
2026-01-13 23:17:27.44	101.73	5.16	-49.7	-51.3	14.0	0.00e+00	0	27	0	2621440000	65	4378
2026-01-13 23:17:28.44	101.86	5.12	-49.8	-51.5	13.9	0.00e+00	0	27	0	2627731456	65	4444
2026-01-13 23:17:29.45	101.99	5.08	-49.9	-51.6	13.9	0.00e+00	0	27	0	2632974336	65	4497
2026-01-13 23:17:30.45	102.12	5.04	-50.0	-51.7	13.7	0.00e+00	0	27	0	2638217216	65	4593
2026-01-13 23:17:31.45	102.24	5.00	-50.7	-52.5	13.5	0.00e+00	0	27	0	2644508672	66	4712
2026-01-13 23:17:32.45	102.37	4.96	-58.6	-71.5	3.8	8.43e-01	0	27	104	2646605824	82	16795
2026-01-13 23:17:33.44	102.49	4.92	-58.8	-71.9	3.8	8.46e-01	0	27	104	2646605824	82	17509
2026-01-13 23:17:34.44	102.62	4.88	-59.0	-72.1	3.8	8.47e-01	0	27	104	2646605824	83	16958
2026-01-13 23:17:35.44	102.75	4.85	-59.2	-72.3	3.8	8.45e-01	0	27	104	2646605824	83	17369
2026-01-13 23:17:36.44	102.87	4.81	-59.4	-72.4	3.8	8.45e-01	0	27	104	2646605824	83	17628
2026-01-13 23:17:37.45	103.00	4.77	-59.7	-72.8	3.8	8.46e-01	0	27	104	2646605824	84	17304
2026-01-13 23:17:38.45	103.12	4.73	-59.8	-72.8	3.8	8.46e-01	0	27	104	2646605824	84	17468
2026-01-13 23:17:39.45	103.25	4.69	-59.9	-72.9	3.8	8.45e-01	0	27	104	2646605824	84	17584
2026-01-13 23:17:40.45	103.37	4.65	-59.9	-73.0	3.8	8.45e-01	0	27	104	2646605824	85	16850
2026-01-13 23:17:41.45	103.50	4.61	-60.0	-73.1	3.8	8.45e-01	0	27	104	2646605824	85	16960
2026-01-13 23:17:42.45	103.62	4.57	-60.0	-73.1	3.8	8.46e-01	0	27	104	2646605824	85	17025
2026-01-13 23:17:43.46	103.75	4.53	-60.1	-73.2	3.8	8.46e-01	0	27	104	2646605824	85	17106
2026-01-13 23:17:44.46	103.87	4.49	-60.1	-73.2	3.8	8.46e-01	0	27	104	2646605824	85	17230
2026-01-13 23:17:45.46	103.99	4.45	-60.1	-73.2	3.8	8.45e-01	0	27	104	2646605824	85	17254
2026-01-13 23:17:46.46	104.11	4.41	-60.2	-73.3	3.8	8.45e-01	0	27	104	2646605824	85	17311
2026-01-13 23:17:47.45	104.24	4.37	-60.2	-73.3	3.8	8.45e-01	0	27	104	2646605824	85	17344
2026-01-13 23:17:48.45	104.36	4.33	-60.2	-73.3	3.8	8.46e-01	0	27	104	2646605824	85	17361
2026-01-13 23:17:49.45	104.48	4.29	-60.2	-73.3	3.8	8.45e-01	0	27	104	2646605824	85	17475
2026-01-13 23:17:50.44	104.60	4.25	-60.3	-73.3	3.8	8.46e-01	0	27	104	2646605824	85	17481
2026-01-13 23:17:51.44	104.72	4.21	-60.3	-73.4	3.8	8.45e-01	0	27	104	2646605824	85	17550
2026-01-13 23:17:52.44	104.84	4.17	-60.3	-73.4	3.8	8.47e-01	0	27	104	2646605824	85	17556
2026-01-13 23:17:53.44	104.96	4.13	-60.3	-73.4	3.8	8.46e-01	0	27	104	2646605824	85	17599
2026-01-13 23:17:54.44	105.08	4.09	-60.3	-73.4	3.8	8.45e-01	0	27	104	2646605824	85	17587
2026-01-13 23:17:55.44	105.20	4.05	-60.3	-73.4	3.8	8.45e-01	0	27	104	2646605824	85	17683
2026-01-13 23:17:56.44	105.32	4.01	-60.3	-73.5	3.8	8.46e-01	0	27	104	2646605824	85	17721
2026-01-13 23:17:57.44	105.44	3.97	-60.4	-73.5	3.8	8.45e-01	0	27	104	2646605824	85	17705
2026-01-13 23:17:58.45	105.56	3.93	-60.4	-73.5	3.8	8.44e-01	0	28	104	2646605824	85	17735
2026-01-13 23:17:59.45	105.68	3.89	-60.4	-73.5	3.8	8.44e-01	0	27	104	2646605824	85	17770
2026-01-13 23:18:00.45	105.79	3.85	-60.4	-73.5	3.8	8.45e-01	0	27	104	2646605824	85	17770
2026-01-13 23:18:01.44	105.91	3.81	-60.4	-73.5	3.8	8.46e-01	0	28	104	2646605824	85	17728
2026-01-13 23:18:02.44	106.03	3.77	-60.3	-73.4	3.8	8.45e-01	0	27	104	2646605824	85	17668
2026-01-13 23:18:03.43	106.14	3.73	-60.3	-73.5	3.8	8.45e-01	0	27	104	2646605824	85	17708
2026-01-13 23:18:04.43	106.26	3.69	-60.3	-73.4	3.8	8.45e-01	0	27	104	2646605824	85	17681
2026-01-13 23:18:05.44	106.38	3.65	-60.3	-73.4	3.8	8.45e-01	0	28	104	2646605824	85	17653
2026-01-13 23:18:06.45	106.50	3.61	-60.3	-73.4	3.8	8.46e-01	0	27	104	2646605824	85	17625
2026-01-13 23:18:07.44	106.61	3.57	-60.3	-73.5	3.8	8.45e-01	0	27	104	2646605824	85	17688
2026-01-13 23:18:08.44	106.73	3.52	-60.3	-73.4	3.8	8.44e-01	0	27	104	2646605824	85	17622
2026-01-13 23:18:09.44	106.84	3.48	-60.3	-73.4	3.8	8.46e-01	0	27	104	2646605824	85	17623
2026-01-13 23:18:10.43	106.96	3.44	-60.3	-73.4	3.8	8.45e-01	0	27	104	2646605824	85	17590
2026-01-13 23:18:11.43	107.07	3.40	-60.3	-73.4	3.8	8.46e-01	0	28	104	2646605824	85	17513
2026-01-13 23:18:12.43	107.18	3.36	-60.3	-73.4	3.8	8.46e-01	0	27	104	2646605824	85	17518
2026-01-13 23:18:13.42	107.30	3.32	-60.3	-73.4	3.8	8.46e-01	0	27	104	2646605824	85	17566
2026-01-13 23:18:14.42	107.41	3.28	-60.3	-73.4	3.8	8.47e-01	0	27	104	2646605824	85	17486
2026-01-13 23:18:15.41	107.52	3.24	-60.3	-73.4	3.8	8.45e-01	0	28	104	2646605824	85	17558
2026-01-13 23:18:16.41	107.64	3.20	-60.3	-73.4	3.8	8.46e-01	0	27	104	2646605824	85	17521
2026-01-13 23:18:17.41	107.75	3.16	-60.3	-73.4	3.8	8.44e-01	0	27	104	2646605824	85	17562
2026-01-13 23:18:18.41	107.86	3.12	-60.3	-73.4	3.8	8.46e-01	0	27	104	2646605824	85	17569
2026-01-13 23:18:19.41	107.97	3.08	-60.3	-73.4	3.8	8.45e-01	0	27	104	2646605824	85	17499
2026-01-13 23:18:20.41	108.09	3.04	-60.3	-73.4	3.8	8.45e-01	0	27	104	2646605824	85	17526
2026-01-13 23:18:21.41	108.20	2.99	-60.3	-73.4	3.8	8.46e-01	0	27	104	2646605824	85	17553
2026-01-13 23:18:22.40	108.31	2.95	-60.3	-73.4	3.8	8.46e-01	0	28	104	2646605824	85	17540
2026-01-13 23:18:23.39	108.42	2.91	-60.3	-73.3	3.8	8.47e-01	0	27	104	2646605824	85	17467
2026-01-13 23:18:24.39	108.53	2.87	-60.2	-73.3	3.8	8.46e-01	0	27	104	2646605824	85	17480
2026-01-13 23:18:25.39	108.64	2.83	-60.3	-73.4	3.8	8.47e-01	0	28	104	2646605824	85	17527
2026-01-13 23:18:26.39	108.75	2.79	-60.3	-73.4	3.8	8.46e-01	0	28	104	2646605824	85	17498
2026-01-13 23:18:27.39	108.86	2.75	-60.3	-73.3	3.8	8.45e-01	0	27	104	2646605824	85	17435
2026-01-13 23:18:28.39	108.97	2.71	-60.2	-73.4	3.8	8.46e-01	0	27	104	2646605824	85	17593
2026-01-13 23:18:29.38	109.08	2.67	-60.3	-73.3	3.8	8.45e-01	0	27	104	2646605824	85	17478
2026-01-13 23:18:30.39	109.19	2.62	-60.3	-73.3	3.8	8.46e-01	0	27	104	2646605824	85	17439
2026-01-13 23:18:31.39	109.30	2.58	-60.2	-73.3	3.8	8.44e-01	0	27	104	2646605824	85	17432
2026-01-13 23:18:32.38	109.40	2.54	-60.2	-73.3	3.8	8.46e-01	0	28	104	2646605824	85	17400
2026-01-13 23:18:33.39	109.51	2.50	-60.2	-73.3	3.8	8.46e-01	0	27	104	2646605824	85	17421
2026-01-13 23:18:34.39	109.62	2.46	-60.2	-73.3	3.8	8.46e-01	0	28	104	2646605824	85	17463
2026-01-13 23:18:35.39	109.73	2.42	-60.2	-73.4	3.8	8.45e-01	0	27	104	2646605824	85	17482
2026-01-13 23:18:36.39	109.84	2.38	-60.2	-73.3	3.8	8.45e-01	0	27	104	2646605824	85	17476
2026-01-13 23:18:37.39	109.94	2.34	-60.2	-73.3	3.8	8.45e-01	0	27	104	2646605824	85	17406
2026-01-13 23:18:38.39	110.05	2.29	-60.2	-73.3	3.8	8.45e-01	0	27	104	2646605824	85	17458
2026-01-13 23:18:39.39	110.16	2.25	-60.2	-73.4	3.8	8.45e-01	0	28	104	2646605824	85	17492
2026-01-13 23:18:40.39	110.26	2.21	-60.2	-73.3	3.8	8.46e-01	0	27	104	2646605824	85	17471
2026-01-13 23:18:41.40	110.37	2.17	-60.2	-73.3	3.8	8.45e-01	0	28	104	2646605824	85	17411
2026-01-13 23:18:42.39	110.47	2.13	-60.2	-73.3	3.8	8.45e-01	0	27	104	2646605824	85	17395
2026-01-13 23:18:43.40	110.58	2.09	-60.2	-73.3	3.8	8.46e-01	0	27	104	2646605824	85	17347
2026-01-13 23:18:44.41	110.69	2.04	-60.2	-73.3	3.8	8.45e-01	0	27	104	2646605824	85	17422
2026-01-13 23:18:45.40	110.79	2.00	-60.2	-73.3	3.8	8.45e-01	0	28	104	2646605824	85	17447
2026-01-13 23:18:46.40	110.89	1.96	-60.2	-73.3	3.8	8.45e-01	0	28	104	2646605824	85	17407

#Closed at: 2026-01-13 23:18:46
#Recorded file [2646 MB]: D:/lorett/data/31004_260114_020835.dat