passes_logs/2026/01/13/R3.2S_Murmansk/R3.2S_Murmansk__20260113_114754_SUOMI_NPP_rec.log

#Pass ID: 20260113_114754_SUOMI NPP
#Satellite: SUOMI NPP
#Configuration: NPP
#almurnet v.1.7.20251203
#Start time: 2026-01-13 11:47:54

#Version: 2.2.20231116
#Station: R3.2S_Murmansk
#Location: 33.079688 lon 68.888172 lat
#TLE: 1 37849U 11061A   26013.13039704  .00000061  00000+0  49955-4 0  9991
#TLE: 2 37849  98.7808 315.1951 0002492  66.9161 293.2277 14.19524814736449

#Time	Az	El	Level	Level2	SNR	BER	BlckErr	Temp	State	Recorded	gain1	gain2
2026-01-13 11:47:54.99	207.13	2.03	-58.3	-74.3	3.8	1.49e+00	0	24	0	0	83	21989
2026-01-13 11:47:55.98	207.20	2.08	-58.3	-74.3	3.8	1.49e+00	0	24	104	0	81	24462
2026-01-13 11:47:56.97	207.26	2.14	-58.3	-74.3	3.8	1.49e+00	0	24	104	0	81	24449
2026-01-13 11:47:57.96	207.33	2.20	-58.3	-74.3	3.8	1.49e+00	0	24	104	0	81	24492
2026-01-13 11:47:58.96	207.39	2.25	-58.3	-74.3	3.8	1.49e+00	0	24	104	0	81	24536
2026-01-13 11:47:59.95	207.46	2.31	-58.3	-74.3	3.8	1.49e+00	0	24	104	0	81	24562
2026-01-13 11:48:00.94	207.52	2.37	-58.3	-74.3	3.8	1.49e+00	0	24	104	0	81	24474
2026-01-13 11:48:01.94	207.59	2.42	-58.3	-74.3	3.8	1.49e+00	0	24	104	0	81	24494
2026-01-13 11:48:02.94	207.66	2.48	-58.3	-74.3	3.8	1.49e+00	0	24	104	0	81	24447
2026-01-13 11:48:03.94	207.72	2.54	-58.3	-74.3	3.8	1.49e+00	0	24	104	0	81	24467
2026-01-13 11:48:04.93	207.79	2.60	-58.3	-74.3	3.8	1.49e+00	0	24	104	0	81	24519
2026-01-13 11:48:05.93	207.86	2.65	-58.3	-74.3	3.8	1.49e+00	0	24	104	0	81	24486
2026-01-13 11:48:06.92	207.93	2.71	-58.3	-74.3	3.8	1.49e+00	0	25	104	0	81	24634
2026-01-13 11:48:07.92	207.99	2.77	-58.3	-74.3	3.8	1.49e+00	0	25	104	0	81	24548
2026-01-13 11:48:08.91	208.06	2.82	-58.3	-74.3	3.8	1.49e+00	0	25	104	0	81	24556
2026-01-13 11:48:09.90	208.13	2.88	-58.3	-74.3	3.8	1.49e+00	0	25	104	0	81	24514
2026-01-13 11:48:10.89	208.20	2.94	-58.3	-74.3	3.8	1.49e+00	0	25	104	0	81	24479
2026-01-13 11:48:11.89	208.27	3.00	-58.3	-74.2	3.8	1.49e+00	0	25	104	0	81	24385
2026-01-13 11:48:12.89	208.34	3.06	-58.3	-74.2	3.8	1.49e+00	0	25	104	0	81	24320
2026-01-13 11:48:13.88	208.41	3.11	-58.3	-74.2	3.8	1.49e+00	0	25	104	0	81	24308
2026-01-13 11:48:14.88	208.48	3.17	-58.3	-74.2	3.8	1.49e+00	0	25	104	0	81	24360
2026-01-13 11:48:15.87	208.55	3.23	-58.3	-74.2	3.8	1.49e+00	0	25	104	0	81	24305
2026-01-13 11:48:16.86	208.62	3.29	-58.3	-74.2	3.8	1.49e+00	0	25	104	0	81	24333
2026-01-13 11:48:17.84	208.69	3.34	-58.3	-74.2	3.8	1.49e+00	0	25	104	0	81	24252
2026-01-13 11:48:18.84	208.76	3.40	-58.3	-74.2	3.8	1.49e+00	0	25	104	0	81	24297
2026-01-13 11:48:19.84	208.83	3.46	-58.3	-74.2	3.8	1.49e+00	0	25	104	0	81	24300
2026-01-13 11:48:20.83	208.90	3.52	-58.3	-74.2	3.8	1.49e+00	0	25	104	0	81	24348
2026-01-13 11:48:21.83	208.97	3.58	-58.3	-74.2	3.8	1.49e+00	0	25	104	0	81	24410
2026-01-13 11:48:22.83	209.04	3.64	-58.3	-74.2	3.8	1.49e+00	0	25	104	0	81	24243
2026-01-13 11:48:23.82	209.12	3.70	-58.3	-74.2	3.8	1.49e+00	0	25	104	0	81	24155
2026-01-13 11:48:24.82	209.19	3.76	-58.3	-74.1	3.8	1.49e+00	0	25	104	0	81	23871
2026-01-13 11:48:25.81	209.26	3.81	-58.3	-74.0	3.8	1.49e+00	0	25	104	0	81	23630
2026-01-13 11:48:26.81	209.33	3.87	-58.3	-74.0	3.8	1.49e+00	0	25	104	0	81	23829
2026-01-13 11:48:27.80	209.41	3.93	-58.3	-74.1	3.8	1.49e+00	0	25	104	0	81	23925
2026-01-13 11:48:28.80	209.48	3.99	-58.3	-74.3	3.8	1.49e+00	0	25	104	0	81	24567
2026-01-13 11:48:29.80	209.56	4.05	-58.3	-74.3	3.8	1.49e+00	0	25	104	0	81	24489
2026-01-13 11:48:30.79	209.63	4.11	-58.3	-74.0	3.8	1.49e+00	0	25	104	0	81	23598
2026-01-13 11:48:31.79	209.70	4.17	-58.2	-73.1	3.8	1.49e+00	0	25	104	0	81	21370
2026-01-13 11:48:32.78	209.78	4.23	-58.2	-72.1	3.8	1.49e+00	0	25	104	0	81	18996
2026-01-13 11:48:33.78	209.85	4.29	-58.1	-70.6	4.2	1.43e+00	0	25	0	0	81	16052
2026-01-13 11:48:34.78	209.93	4.35	-58.0	-69.4	4.7	1.05e+00	0	25	0	1048576	81	13940
2026-01-13 11:48:35.77	210.01	4.41	-57.9	-67.9	5.4	7.31e-01	0	25	0	3145728	81	11746
2026-01-13 11:48:36.77	210.08	4.47	-57.8	-67.2	5.8	3.70e-01	0	25	0	5242880	81	10858
2026-01-13 11:48:37.76	210.16	4.53	-57.7	-66.3	6.4	2.49e-01	0	25	0	6291456	81	9799
2026-01-13 11:48:38.76	210.23	4.59	-57.6	-65.5	7.0	1.51e-01	0	25	0	8388608	81	8962
2026-01-13 11:48:39.75	210.31	4.65	-57.2	-63.9	8.4	3.41e-02	0	25	0	10485760	81	7435
2026-01-13 11:48:40.74	210.39	4.71	-56.8	-62.5	9.6	9.39e-03	0	25	0	12582912	80	6650
2026-01-13 11:48:41.74	210.46	4.77	-56.5	-61.5	10.4	1.64e-03	0	25	0	13631488	79	6320
2026-01-13 11:48:42.74	210.54	4.83	-55.8	-59.9	11.6	2.33e-04	0	26	0	15728640	78	5538
2026-01-13 11:48:43.73	210.62	4.89	-55.3	-58.8	12.4	4.50e-06	0	25	0	17825792	77	5182
2026-01-13 11:48:44.72	210.70	4.95	-55.0	-58.4	12.6	0.00e+00	0	25	0	19922944	76	5236
2026-01-13 11:48:45.71	210.78	5.01	-54.2	-57.1	13.3	0.00e+00	0	25	0	22020096	75	4797
2026-01-13 11:48:46.70	210.85	5.07	-54.7	-57.8	12.8	0.00e+00	0	25	0	23068672	75	5188
2026-01-13 11:48:47.69	210.93	5.14	-56.3	-61.2	10.6	2.20e-06	0	25	0	25165824	77	6839
2026-01-13 11:48:48.69	211.01	5.20	-56.1	-60.4	11.4	5.72e-05	0	26	0	27262976	77	6226
2026-01-13 11:48:49.68	211.09	5.26	-56.3	-60.9	11.0	7.52e-04	0	25	0	29360128	78	6233
2026-01-13 11:48:50.68	211.17	5.32	-54.2	-57.1	13.2	0.00e+00	0	25	0	30408704	74	5051
2026-01-13 11:48:51.68	211.25	5.38	-54.3	-57.2	13.0	0.00e+00	0	25	0	32505856	74	5150
2026-01-13 11:48:52.68	211.34	5.44	-53.8	-56.4	13.6	0.00e+00	0	26	0	34603008	74	4672
2026-01-13 11:48:53.68	211.42	5.51	-53.5	-56.0	13.7	0.00e+00	0	25	0	36700160	73	4737
2026-01-13 11:48:54.67	211.50	5.57	-53.8	-56.4	13.5	0.00e+00	0	26	0	38797312	73	4972
2026-01-13 11:48:55.66	211.58	5.63	-53.9	-56.6	13.4	0.00e+00	0	25	0	39845888	73	5065
2026-01-13 11:48:56.66	211.66	5.69	-53.7	-56.3	13.5	0.00e+00	0	26	0	41943040	73	4912
2026-01-13 11:48:57.66	211.75	5.75	-53.8	-56.4	13.5	0.00e+00	0	26	0	44040192	73	4982
2026-01-13 11:48:58.66	211.83	5.82	-53.5	-55.9	13.8	0.00e+00	0	26	0	46137344	73	4705
2026-01-13 11:48:59.66	211.91	5.88	-53.6	-56.1	13.7	0.00e+00	0	25	0	47185920	73	4804
2026-01-13 11:49:00.66	212.00	5.94	-53.6	-56.1	13.7	0.00e+00	0	26	0	49283072	73	4772
2026-01-13 11:49:01.66	212.08	6.00	-53.5	-55.9	13.8	0.00e+00	0	25	0	51380224	73	4667
2026-01-13 11:49:02.66	212.16	6.07	-53.5	-56.0	13.7	0.00e+00	0	26	0	53477376	73	4728
2026-01-13 11:49:03.65	212.25	6.13	-53.7	-56.2	13.6	0.00e+00	0	26	0	55574528	73	4825
2026-01-13 11:49:04.64	212.33	6.19	-53.7	-56.2	13.6	0.00e+00	0	25	0	56623104	73	4858
2026-01-13 11:49:05.64	212.42	6.25	-53.7	-56.1	13.7	0.00e+00	0	26	0	58720256	73	4808
2026-01-13 11:49:06.65	212.51	6.32	-53.8	-56.4	13.6	0.00e+00	0	26	0	60817408	73	4942
2026-01-13 11:49:07.64	212.59	6.38	-53.8	-56.3	13.6	0.00e+00	0	26	0	62914560	73	4923
2026-01-13 11:49:08.62	212.68	6.44	-53.8	-56.4	13.6	0.00e+00	0	26	0	63963136	73	4934
2026-01-13 11:49:09.62	212.76	6.51	-53.9	-56.6	13.4	0.00e+00	0	26	0	66060288	73	5043
2026-01-13 11:49:10.61	212.85	6.57	-53.8	-56.4	13.6	0.00e+00	0	25	0	68157440	73	4940
2026-01-13 11:49:11.61	212.94	6.63	-54.0	-56.7	13.4	0.00e+00	0	26	0	70254592	73	5143
2026-01-13 11:49:12.60	213.02	6.70	-53.9	-56.6	13.5	0.00e+00	0	26	0	72351744	73	5046
2026-01-13 11:49:13.60	213.11	6.76	-53.9	-56.5	13.5	0.00e+00	0	26	0	73400320	73	4991
2026-01-13 11:49:14.59	213.20	6.82	-54.0	-56.6	13.4	0.00e+00	0	26	0	75497472	73	5054
2026-01-13 11:49:15.59	213.29	6.89	-53.9	-56.5	13.5	0.00e+00	0	26	0	77594624	73	5040
2026-01-13 11:49:16.59	213.38	6.95	-54.1	-56.7	13.3	0.00e+00	0	26	0	79691776	73	5153
2026-01-13 11:49:17.58	213.47	7.02	-53.8	-56.3	13.6	0.00e+00	0	26	0	81788928	73	4921
2026-01-13 11:49:18.57	213.56	7.08	-53.7	-56.2	13.6	0.00e+00	0	26	0	82837504	73	4862
2026-01-13 11:49:19.57	213.65	7.15	-53.7	-56.2	13.7	0.00e+00	0	26	0	84934656	73	4819
2026-01-13 11:49:20.57	213.74	7.21	-53.8	-56.4	13.6	0.00e+00	0	26	0	87031808	73	4932
2026-01-13 11:49:21.57	213.83	7.28	-53.7	-56.1	13.7	0.00e+00	0	26	0	89128960	73	4813
2026-01-13 11:49:22.56	213.92	7.34	-53.7	-56.1	13.7	0.00e+00	0	26	0	90177536	73	4791
2026-01-13 11:49:23.55	214.01	7.40	-53.6	-56.0	13.8	0.00e+00	0	26	0	92274688	73	4758
2026-01-13 11:49:24.55	214.11	7.47	-53.7	-56.1	13.7	0.00e+00	0	26	0	94371840	73	4775
2026-01-13 11:49:25.55	214.20	7.53	-53.6	-56.0	13.8	0.00e+00	0	26	0	96468992	73	4725
2026-01-13 11:49:26.55	214.29	7.60	-53.6	-56.0	13.8	0.00e+00	0	26	0	98566144	73	4759
2026-01-13 11:49:27.54	214.39	7.66	-53.6	-56.0	13.8	0.00e+00	0	26	0	99614720	73	4740
2026-01-13 11:49:28.54	214.48	7.73	-53.5	-55.8	13.9	0.00e+00	0	26	0	101711872	73	4647
2026-01-13 11:49:29.54	214.58	7.80	-53.7	-56.1	13.7	0.00e+00	0	26	0	103809024	73	4772
2026-01-13 11:49:30.54	214.67	7.86	-53.5	-55.7	14.0	0.00e+00	0	26	0	105906176	73	4593
2026-01-13 11:49:31.53	214.76	7.93	-53.4	-55.7	14.0	0.00e+00	0	26	0	106954752	73	4577
2026-01-13 11:49:32.53	214.86	7.99	-53.5	-55.8	13.9	0.00e+00	0	26	0	109051904	73	4610
2026-01-13 11:49:33.53	214.96	8.06	-53.5	-55.9	13.9	0.00e+00	0	26	0	111149056	73	4656
2026-01-13 11:49:34.53	215.05	8.12	-53.4	-55.7	14.0	0.00e+00	0	26	0	113246208	73	4565
2026-01-13 11:49:35.53	215.15	8.19	-53.3	-55.5	14.1	0.00e+00	0	26	0	115343360	73	4467
2026-01-13 11:49:36.52	215.25	8.26	-53.3	-55.6	14.0	0.00e+00	0	26	0	116391936	73	4517
2026-01-13 11:49:37.51	215.34	8.32	-53.5	-55.8	13.9	0.00e+00	0	26	0	118489088	73	4629
2026-01-13 11:49:38.50	215.44	8.39	-53.5	-55.8	14.0	0.00e+00	0	26	0	120586240	73	4624
2026-01-13 11:49:39.49	215.54	8.45	-53.4	-55.6	14.0	0.00e+00	0	26	0	122683392	73	4536
2026-01-13 11:49:40.49	215.64	8.52	-53.3	-55.6	14.0	0.00e+00	0	26	0	124780544	73	4516
2026-01-13 11:49:41.49	215.74	8.59	-53.4	-55.7	14.0	0.00e+00	0	26	0	125829120	73	4590
2026-01-13 11:49:42.48	215.84	8.65	-53.4	-55.7	14.0	0.00e+00	0	26	0	127926272	73	4547
2026-01-13 11:49:43.48	215.94	8.72	-53.3	-55.5	14.1	0.00e+00	0	26	0	130023424	73	4478
2026-01-13 11:49:44.48	216.04	8.79	-53.5	-55.8	13.9	0.00e+00	0	26	0	132120576	73	4614
2026-01-13 11:49:45.49	216.14	8.86	-53.3	-55.5	14.1	0.00e+00	0	26	0	133169152	73	4446
2026-01-13 11:49:46.48	216.24	8.92	-53.3	-55.5	14.1	0.00e+00	0	26	0	135266304	73	4461
2026-01-13 11:49:47.49	216.35	8.99	-53.3	-55.5	14.1	0.00e+00	0	26	0	137363456	73	4471
2026-01-13 11:49:48.49	216.45	9.06	-53.3	-55.6	14.1	0.00e+00	0	26	0	139460608	73	4504
2026-01-13 11:49:49.50	216.55	9.13	-53.1	-55.2	14.1	0.00e+00	0	26	0	141557760	72	4557
2026-01-13 11:49:50.50	216.66	9.20	-53.0	-55.1	14.2	0.00e+00	0	26	0	142606336	72	4526
2026-01-13 11:49:51.50	216.76	9.26	-53.0	-55.1	14.2	0.00e+00	0	26	0	144703488	72	4543
2026-01-13 11:49:52.49	216.87	9.33	-52.8	-54.9	14.3	0.00e+00	0	26	0	146800640	72	4405
2026-01-13 11:49:53.49	216.97	9.40	-52.9	-55.0	14.3	0.00e+00	0	26	0	148897792	72	4446
2026-01-13 11:49:54.49	217.08	9.47	-52.9	-55.0	14.3	0.00e+00	0	26	0	150994944	72	4469
2026-01-13 11:49:55.49	217.18	9.54	-53.0	-55.1	14.2	0.00e+00	0	26	0	152043520	72	4545
2026-01-13 11:49:56.49	217.29	9.61	-53.1	-55.2	14.1	0.00e+00	0	26	0	154140672	72	4579
2026-01-13 11:49:57.50	217.40	9.67	-53.1	-55.2	14.2	0.00e+00	0	26	0	156237824	72	4559
2026-01-13 11:49:58.50	217.51	9.74	-53.3	-55.5	14.0	0.00e+00	0	26	0	158334976	72	4723
2026-01-13 11:49:59.51	217.61	9.81	-53.4	-55.6	13.9	0.00e+00	0	26	0	160432128	72	4783
2026-01-13 11:50:00.50	217.72	9.88	-53.4	-55.7	13.9	0.00e+00	0	26	0	161480704	72	4841
2026-01-13 11:50:01.50	217.83	9.95	-53.5	-55.8	13.8	0.00e+00	0	26	0	163577856	72	4904
2026-01-13 11:50:02.50	217.94	10.02	-53.6	-55.9	13.8	0.00e+00	0	26	0	165675008	72	4971
2026-01-13 11:50:03.50	218.05	10.09	-53.6	-55.9	13.8	0.00e+00	0	26	0	167772160	72	4930
2026-01-13 11:50:04.49	218.16	10.16	-53.6	-55.9	13.8	0.00e+00	0	26	0	168820736	72	4963
2026-01-13 11:50:05.48	218.27	10.23	-53.7	-56.1	13.7	0.00e+00	0	26	0	170917888	72	5055
2026-01-13 11:50:06.47	218.38	10.29	-53.7	-56.1	13.7	0.00e+00	0	26	0	173015040	72	5071
2026-01-13 11:50:07.48	218.49	10.37	-53.5	-55.8	13.9	0.00e+00	0	26	0	175112192	72	4892
2026-01-13 11:50:08.49	218.61	10.44	-53.6	-55.9	13.8	0.00e+00	0	26	0	177209344	72	4949
2026-01-13 11:50:09.48	218.72	10.50	-53.4	-55.7	13.9	0.00e+00	0	26	0	178257920	72	4844
2026-01-13 11:50:10.47	218.83	10.57	-53.4	-55.6	13.9	0.00e+00	0	26	0	180355072	72	4805
2026-01-13 11:50:11.47	218.95	10.64	-53.4	-55.6	14.0	0.00e+00	0	26	0	182452224	72	4792
2026-01-13 11:50:12.47	219.06	10.71	-53.4	-55.6	14.0	0.00e+00	0	26	0	184549376	72	4788
2026-01-13 11:50:13.46	219.17	10.78	-53.2	-55.4	14.1	0.00e+00	0	26	0	185597952	72	4680
2026-01-13 11:50:14.46	219.29	10.85	-53.2	-55.4	14.1	0.00e+00	0	26	0	187695104	72	4656
2026-01-13 11:50:15.45	219.41	10.92	-53.2	-55.3	14.1	0.00e+00	0	26	0	189792256	72	4618
2026-01-13 11:50:16.45	219.52	10.99	-53.1	-55.1	14.2	0.00e+00	0	26	0	191889408	72	4539
2026-01-13 11:50:17.45	219.64	11.07	-53.2	-55.3	14.1	0.00e+00	0	26	0	193986560	72	4639
2026-01-13 11:50:18.44	219.76	11.14	-53.2	-55.3	14.1	0.00e+00	0	26	0	195035136	72	4633
2026-01-13 11:50:19.43	219.87	11.21	-53.1	-55.2	14.2	0.00e+00	0	26	0	197132288	72	4561
2026-01-13 11:50:20.42	219.99	11.28	-53.1	-55.2	14.2	0.00e+00	0	26	0	199229440	72	4582
2026-01-13 11:50:21.41	220.11	11.35	-53.2	-55.3	14.1	0.00e+00	0	26	0	201326592	72	4607
2026-01-13 11:50:22.41	220.23	11.42	-53.0	-55.0	14.2	0.00e+00	0	26	0	202375168	72	4493
2026-01-13 11:50:23.41	220.35	11.49	-53.1	-55.2	14.2	0.00e+00	0	26	0	204472320	72	4556
2026-01-13 11:50:24.40	220.47	11.56	-53.2	-55.3	14.2	0.00e+00	0	26	0	206569472	72	4613
2026-01-13 11:50:25.39	220.59	11.63	-53.0	-55.1	14.2	0.00e+00	0	26	0	208666624	72	4495
2026-01-13 11:50:26.38	220.71	11.70	-52.8	-54.8	14.4	0.00e+00	0	26	0	210763776	72	4376
2026-01-13 11:50:27.38	220.83	11.77	-53.1	-55.2	14.2	0.00e+00	0	26	0	211812352	72	4559
2026-01-13 11:50:28.38	220.96	11.84	-53.0	-55.0	14.3	0.00e+00	0	26	0	213909504	72	4456
2026-01-13 11:50:29.37	221.08	11.91	-53.1	-55.1	14.2	0.00e+00	0	26	0	216006656	72	4521
2026-01-13 11:50:30.37	221.20	11.99	-53.0	-55.0	14.3	0.00e+00	0	26	0	218103808	72	4478
2026-01-13 11:50:31.37	221.33	12.06	-52.9	-54.9	14.3	0.00e+00	0	26	0	219152384	72	4396
2026-01-13 11:50:32.36	221.45	12.13	-52.8	-54.8	14.4	0.00e+00	0	26	0	221249536	72	4376
2026-01-13 11:50:33.35	221.58	12.20	-53.0	-55.0	14.3	0.00e+00	0	26	0	223346688	72	4487
2026-01-13 11:50:34.35	221.71	12.27	-52.9	-54.9	14.3	0.00e+00	0	26	0	225443840	72	4433
2026-01-13 11:50:35.34	221.83	12.35	-52.9	-54.9	14.3	0.00e+00	0	26	0	227540992	72	4423
2026-01-13 11:50:36.34	221.96	12.42	-52.9	-55.0	14.3	0.00e+00	0	26	0	228589568	72	4445
2026-01-13 11:50:37.33	222.09	12.49	-52.9	-54.9	14.3	0.00e+00	0	26	0	230686720	72	4427
2026-01-13 11:50:38.34	222.22	12.56	-52.9	-54.9	14.3	0.00e+00	0	26	0	232783872	72	4438
2026-01-13 11:50:39.33	222.35	12.64	-53.0	-55.0	14.3	0.00e+00	0	26	0	234881024	72	4468
2026-01-13 11:50:40.32	222.48	12.71	-53.2	-55.3	14.2	0.00e+00	0	26	0	235929600	72	4610
2026-01-13 11:50:41.32	222.61	12.78	-53.0	-55.0	14.3	0.00e+00	0	26	0	238026752	72	4490
2026-01-13 11:50:42.32	222.74	12.85	-53.2	-55.3	14.1	0.00e+00	0	26	0	240123904	72	4631
2026-01-13 11:50:43.33	222.87	12.93	-53.2	-55.3	14.1	0.00e+00	0	26	0	242221056	72	4640
2026-01-13 11:50:44.33	223.01	13.00	-53.2	-55.3	14.1	0.00e+00	0	26	0	244318208	72	4600
2026-01-13 11:50:45.34	223.14	13.07	-53.4	-55.6	14.0	0.00e+00	0	26	0	246415360	72	4790
2026-01-13 11:50:46.34	223.28	13.15	-53.5	-55.7	13.9	0.00e+00	0	26	0	247463936	72	4870
2026-01-13 11:50:47.35	223.41	13.22	-53.5	-55.7	14.0	0.00e+00	0	26	0	249561088	72	4826
2026-01-13 11:50:48.34	223.55	13.29	-53.4	-55.6	14.0	0.00e+00	0	26	0	251658240	72	4802
2026-01-13 11:50:49.34	223.68	13.37	-53.5	-55.7	14.0	0.00e+00	0	26	0	253755392	72	4832
2026-01-13 11:50:50.35	223.82	13.44	-53.4	-55.5	14.0	0.00e+00	0	26	0	254803968	72	4748
2026-01-13 11:50:51.35	223.96	13.52	-53.5	-55.7	13.9	0.00e+00	0	26	0	256901120	72	4851
2026-01-13 11:50:52.34	224.10	13.59	-53.3	-55.5	14.1	0.00e+00	0	26	0	258998272	72	4733
2026-01-13 11:50:53.35	224.24	13.66	-53.3	-55.4	14.1	0.00e+00	0	26	0	261095424	72	4674
2026-01-13 11:50:54.34	224.38	13.74	-53.3	-55.4	14.1	0.00e+00	0	26	0	263192576	72	4671
2026-01-13 11:50:55.34	224.52	13.81	-53.1	-55.2	14.3	0.00e+00	0	26	0	264241152	72	4559
2026-01-13 11:50:56.34	224.66	13.88	-53.1	-55.1	14.3	0.00e+00	0	26	0	266338304	72	4526
2026-01-13 11:50:57.35	224.80	13.96	-53.1	-55.1	14.3	0.00e+00	0	26	0	268435456	72	4527
2026-01-13 11:50:58.35	224.94	14.03	-52.8	-54.8	14.4	0.00e+00	0	26	0	270532608	72	4374
2026-01-13 11:50:59.35	225.09	14.11	-52.6	-54.5	14.4	0.00e+00	0	26	0	272629760	71	4475
2026-01-13 11:51:00.35	225.23	14.18	-52.7	-54.6	14.4	0.00e+00	0	26	0	273678336	71	4525
2026-01-13 11:51:01.36	225.38	14.26	-52.6	-54.5	14.4	0.00e+00	0	26	0	275775488	71	4454
2026-01-13 11:51:02.36	225.52	14.33	-52.6	-54.5	14.4	0.00e+00	0	26	0	277872640	71	4476
2026-01-13 11:51:03.37	225.67	14.41	-52.5	-54.4	14.4	0.00e+00	0	26	0	279969792	71	4413
2026-01-13 11:51:04.36	225.81	14.48	-52.4	-54.2	14.6	0.00e+00	0	26	0	281018368	71	4323
2026-01-13 11:51:05.36	225.96	14.55	-52.4	-54.2	14.5	0.00e+00	0	26	0	283115520	71	4338
2026-01-13 11:51:06.37	226.11	14.63	-52.4	-54.3	14.5	0.00e+00	0	26	0	285212672	71	4356
2026-01-13 11:51:07.37	226.26	14.70	-52.4	-54.2	14.5	0.00e+00	0	26	0	287309824	71	4321
2026-01-13 11:51:08.37	226.41	14.78	-52.4	-54.2	14.6	0.00e+00	0	26	0	289406976	71	4307
2026-01-13 11:51:09.37	226.56	14.85	-52.3	-54.1	14.6	0.00e+00	0	26	0	290455552	71	4259
2026-01-13 11:51:10.38	226.71	14.93	-52.3	-54.1	14.5	0.00e+00	0	26	0	292552704	70	4544
2026-01-13 11:51:11.38	226.86	15.00	-52.3	-54.1	14.5	0.00e+00	0	26	0	294649856	70	4541
2026-01-13 11:51:12.38	227.01	15.08	-52.3	-54.1	14.5	0.00e+00	0	26	0	296747008	70	4522
2026-01-13 11:51:13.38	227.17	15.15	-52.4	-54.3	14.4	0.00e+00	0	26	0	298844160	70	4604
2026-01-13 11:51:14.39	227.32	15.23	-52.4	-54.3	14.4	0.00e+00	0	26	0	299892736	70	4601
2026-01-13 11:51:15.38	227.48	15.30	-52.4	-54.3	14.4	0.00e+00	0	26	0	301989888	70	4615
2026-01-13 11:51:16.39	227.63	15.38	-52.6	-54.4	14.3	0.00e+00	0	26	0	304087040	70	4705
2026-01-13 11:51:17.39	227.79	15.46	-52.5	-54.3	14.4	0.00e+00	0	26	0	306184192	70	4647
2026-01-13 11:51:18.40	227.95	15.53	-52.7	-54.7	14.2	0.00e+00	0	26	0	308281344	70	4823
2026-01-13 11:51:19.39	228.10	15.61	-52.8	-54.7	14.2	0.00e+00	0	26	0	309329920	70	4858
2026-01-13 11:51:20.39	228.26	15.68	-52.9	-54.9	14.1	0.00e+00	0	26	0	311427072	70	4936
2026-01-13 11:51:21.40	228.42	15.76	-52.9	-54.9	14.2	0.00e+00	0	26	0	313524224	71	4693
2026-01-13 11:51:22.41	228.58	15.83	-53.0	-55.0	14.2	0.00e+00	0	26	0	315621376	71	4727
2026-01-13 11:51:23.42	228.75	15.91	-53.0	-55.1	14.2	0.00e+00	0	26	0	317718528	71	4769
2026-01-13 11:51:24.42	228.91	15.99	-53.0	-55.0	14.2	0.00e+00	0	26	0	318767104	71	4753
2026-01-13 11:51:25.42	229.07	16.06	-52.8	-54.8	14.3	0.00e+00	0	26	0	320864256	71	4618
2026-01-13 11:51:26.43	229.24	16.14	-52.8	-54.8	14.3	0.00e+00	0	26	0	322961408	71	4603
2026-01-13 11:51:27.43	229.40	16.21	-52.8	-54.7	14.3	0.00e+00	0	26	0	325058560	71	4589
2026-01-13 11:51:28.44	229.57	16.29	-52.3	-54.1	14.6	0.00e+00	0	26	0	327155712	71	4267
2026-01-13 11:51:29.45	229.73	16.36	-52.4	-54.2	14.6	0.00e+00	0	26	0	328204288	71	4330
2026-01-13 11:51:30.45	229.90	16.44	-52.3	-54.2	14.6	0.00e+00	0	26	0	330301440	71	4300
2026-01-13 11:51:31.45	230.07	16.52	-52.2	-54.0	14.7	0.00e+00	0	26	0	332398592	71	4223
2026-01-13 11:51:32.46	230.24	16.59	-52.3	-54.2	14.5	0.00e+00	0	26	0	334495744	70	4549
2026-01-13 11:51:33.47	230.41	16.67	-52.4	-54.3	14.4	0.00e+00	0	26	0	336592896	70	4605
2026-01-13 11:51:34.48	230.58	16.74	-52.1	-53.9	14.6	0.00e+00	0	26	0	337641472	70	4424
2026-01-13 11:51:35.48	230.75	16.82	-51.8	-53.6	14.7	0.00e+00	0	26	0	339738624	70	4252
2026-01-13 11:51:36.49	230.92	16.90	-51.9	-53.6	14.7	0.00e+00	0	26	0	341835776	70	4265
2026-01-13 11:51:37.49	231.09	16.97	-51.7	-53.3	14.7	0.00e+00	0	26	0	343932928	69	4391
2026-01-13 11:51:38.49	231.27	17.05	-51.6	-53.3	14.7	0.00e+00	0	26	0	346030080	69	4351
2026-01-13 11:51:39.49	231.44	17.12	-51.4	-53.0	14.8	0.00e+00	0	26	0	347078656	69	4229
2026-01-13 11:51:40.50	231.62	17.20	-51.4	-53.0	14.8	0.00e+00	0	26	0	349175808	69	4242
2026-01-13 11:51:41.50	231.79	17.27	-51.5	-53.1	14.8	0.00e+00	0	26	0	351272960	69	4262
2026-01-13 11:51:42.51	231.97	17.35	-51.6	-53.3	14.7	0.00e+00	0	26	0	353370112	69	4343
2026-01-13 11:51:43.51	232.15	17.42	-51.7	-53.4	14.7	0.00e+00	0	26	0	354418688	69	4416
2026-01-13 11:51:44.52	232.33	17.50	-52.0	-53.7	14.5	0.00e+00	0	26	0	356515840	69	4596
2026-01-13 11:51:45.52	232.51	17.58	-52.2	-54.0	14.4	0.00e+00	0	26	0	358612992	69	4723
2026-01-13 11:51:46.53	232.69	17.65	-52.2	-54.0	14.4	0.00e+00	0	26	0	360710144	69	4718
2026-01-13 11:51:47.53	232.87	17.73	-52.4	-54.2	14.5	0.00e+00	0	26	0	362807296	70	4566
2026-01-13 11:51:48.53	233.05	17.80	-52.4	-54.2	14.5	0.00e+00	0	26	0	363855872	70	4561
2026-01-13 11:51:49.54	233.24	17.88	-52.3	-54.0	14.5	0.00e+00	0	26	0	365953024	70	4493
2026-01-13 11:51:50.53	233.42	17.95	-52.3	-54.1	14.5	0.00e+00	0	26	0	368050176	70	4512
2026-01-13 11:51:51.54	233.60	18.03	-52.3	-54.1	14.5	0.00e+00	0	26	0	370147328	70	4519
2026-01-13 11:51:52.53	233.79	18.10	-52.4	-54.3	14.4	0.00e+00	0	26	0	372244480	70	4604
2026-01-13 11:51:53.53	233.97	18.18	-52.5	-54.3	14.4	0.00e+00	0	26	0	373293056	70	4642
2026-01-13 11:51:54.53	234.16	18.25	-52.6	-54.4	14.3	0.00e+00	0	26	0	375390208	70	4700
2026-01-13 11:51:55.53	234.35	18.33	-52.5	-54.4	14.4	0.00e+00	0	26	0	377487360	70	4681
2026-01-13 11:51:56.54	234.54	18.40	-52.6	-54.5	14.3	0.00e+00	0	26	0	379584512	70	4730
2026-01-13 11:51:57.54	234.73	18.48	-52.3	-54.1	14.5	0.00e+00	0	26	0	381681664	70	4540
2026-01-13 11:51:58.54	234.92	18.55	-52.2	-54.0	14.5	0.00e+00	0	26	0	382730240	70	4475
2026-01-13 11:51:59.55	235.11	18.63	-52.1	-53.8	14.6	0.00e+00	0	26	0	384827392	70	4368
2026-01-13 11:52:00.55	235.30	18.70	-52.1	-53.8	14.6	0.00e+00	0	26	0	386924544	70	4371
2026-01-13 11:52:01.55	235.50	18.77	-51.9	-53.6	14.7	0.00e+00	0	26	0	389021696	70	4260
2026-01-13 11:52:02.56	235.69	18.85	-51.9	-53.5	14.7	0.00e+00	0	26	0	391118848	70	4238
2026-01-13 11:52:03.57	235.89	18.92	-51.8	-53.4	14.8	0.00e+00	0	26	0	392167424	70	4180
2026-01-13 11:52:04.58	236.09	19.00	-51.7	-53.4	14.8	0.00e+00	0	26	0	394264576	70	4167
2026-01-13 11:52:05.58	236.29	19.07	-51.5	-53.2	14.7	0.00e+00	0	26	0	396361728	69	4305
2026-01-13 11:52:06.58	236.48	19.15	-51.4	-53.0	14.8	0.00e+00	0	26	0	398458880	69	4194
2026-01-13 11:52:07.58	236.68	19.22	-51.3	-52.9	14.9	0.00e+00	0	26	0	399507456	69	4162
2026-01-13 11:52:08.59	236.89	19.29	-51.3	-52.8	14.9	0.00e+00	0	26	0	401604608	69	4134
2026-01-13 11:52:09.59	237.09	19.37	-51.2	-52.7	14.8	0.00e+00	0	26	0	403701760	68	4340
2026-01-13 11:52:10.59	237.29	19.44	-51.1	-52.6	14.8	0.00e+00	0	26	0	405798912	68	4277
2026-01-13 11:52:11.60	237.49	19.51	-51.0	-52.5	14.9	0.00e+00	0	26	0	407896064	68	4240
2026-01-13 11:52:12.60	237.70	19.59	-51.0	-52.5	14.9	0.00e+00	0	26	0	409993216	68	4227
2026-01-13 11:52:13.60	237.90	19.66	-51.0	-52.5	14.9	0.00e+00	0	26	0	411041792	68	4209
2026-01-13 11:52:14.60	238.11	19.73	-50.7	-52.2	15.0	0.00e+00	0	26	0	413138944	68	4076
2026-01-13 11:52:15.61	238.31	19.81	-50.8	-52.3	15.0	0.00e+00	0	26	0	415236096	68	4123
2026-01-13 11:52:16.61	238.52	19.88	-50.9	-52.4	14.9	0.00e+00	0	26	0	417333248	68	4154
2026-01-13 11:52:17.61	238.73	19.95	-50.4	-51.9	15.0	0.00e+00	0	26	0	418381824	67	4155
2026-01-13 11:52:18.62	238.94	20.02	-50.4	-51.9	15.0	0.00e+00	0	26	0	420478976	67	4179
2026-01-13 11:52:19.62	239.15	20.09	-50.4	-51.9	15.0	0.00e+00	0	26	0	422576128	67	4159
2026-01-13 11:52:20.63	239.36	20.17	-50.4	-51.9	15.0	0.00e+00	0	26	0	424673280	67	4167
2026-01-13 11:52:21.63	239.58	20.24	-50.4	-51.9	15.0	0.00e+00	0	26	0	426770432	67	4157
2026-01-13 11:52:22.63	239.79	20.31	-50.6	-52.1	14.9	0.00e+00	0	26	0	427819008	67	4264
2026-01-13 11:52:23.63	240.00	20.38	-50.6	-52.1	14.9	0.00e+00	0	26	0	429916160	67	4291
2026-01-13 11:52:24.64	240.22	20.45	-50.6	-52.1	14.9	0.00e+00	0	26	0	432013312	67	4286
2026-01-13 11:52:25.64	240.44	20.52	-50.7	-52.2	14.9	0.00e+00	0	26	0	434110464	67	4305
2026-01-13 11:52:26.64	240.65	20.59	-50.7	-52.2	14.8	0.00e+00	0	26	0	436207616	67	4340
2026-01-13 11:52:27.65	240.87	20.66	-50.8	-52.4	14.8	0.00e+00	0	26	0	437256192	67	4407
2026-01-13 11:52:28.66	241.10	20.74	-50.8	-52.3	14.8	0.00e+00	0	26	0	439353344	67	4384
2026-01-13 11:52:29.66	241.32	20.81	-50.9	-52.4	14.8	0.00e+00	0	26	0	441450496	67	4411
2026-01-13 11:52:30.67	241.54	20.88	-50.9	-52.4	14.7	0.00e+00	0	26	0	443547648	67	4418
2026-01-13 11:52:31.67	241.76	20.94	-50.8	-52.3	14.8	0.00e+00	0	26	0	445644800	67	4375
2026-01-13 11:52:32.68	241.99	21.01	-50.7	-52.2	14.8	0.00e+00	0	26	0	446693376	67	4335
2026-01-13 11:52:33.69	242.21	21.08	-50.6	-52.0	14.9	0.00e+00	0	26	0	448790528	67	4240
2026-01-13 11:52:34.69	242.44	21.15	-50.6	-52.1	14.9	0.00e+00	0	26	0	450887680	67	4262
2026-01-13 11:52:35.69	242.66	21.22	-50.6	-52.1	14.9	0.00e+00	0	26	0	452984832	67	4255
2026-01-13 11:52:36.70	242.89	21.29	-50.6	-52.2	14.9	0.00e+00	0	26	0	455081984	67	4294
2026-01-13 11:52:37.71	243.12	21.36	-50.9	-52.4	14.8	0.00e+00	0	26	0	456130560	67	4431
2026-01-13 11:52:38.71	243.35	21.43	-51.1	-52.7	14.7	0.00e+00	0	26	0	458227712	67	4565
2026-01-13 11:52:39.71	243.58	21.49	-51.3	-52.9	14.6	0.00e+00	0	26	0	460324864	67	4697
2026-01-13 11:52:40.71	243.81	21.56	-51.2	-52.8	14.6	0.00e+00	0	26	0	462422016	67	4635
2026-01-13 11:52:41.72	244.04	21.63	-51.3	-52.9	14.6	0.00e+00	0	26	0	464519168	67	4658
2026-01-13 11:52:42.72	244.28	21.69	-51.0	-52.6	14.7	0.00e+00	0	26	0	465567744	67	4508
2026-01-13 11:52:43.73	244.51	21.76	-51.0	-52.6	14.7	0.00e+00	0	26	0	467664896	67	4506
2026-01-13 11:52:44.74	244.75	21.83	-51.0	-52.6	14.7	0.00e+00	0	26	0	469762048	67	4517
2026-01-13 11:52:45.75	244.99	21.89	-51.2	-52.8	14.6	0.00e+00	0	26	0	471859200	67	4613
2026-01-13 11:52:46.75	245.22	21.96	-51.4	-53.0	14.6	0.00e+00	0	26	0	473956352	67	4748
2026-01-13 11:52:47.76	245.46	22.03	-51.6	-53.3	14.6	0.00e+00	0	26	0	475004928	68	4600
2026-01-13 11:52:48.76	245.70	22.09	-51.6	-53.2	14.6	0.00e+00	0	26	0	477102080	68	4592
2026-01-13 11:52:49.77	245.94	22.15	-51.4	-53.0	14.7	0.00e+00	0	26	0	479199232	68	4471
2026-01-13 11:52:50.78	246.19	22.22	-51.1	-52.7	14.8	0.00e+00	0	26	0	481296384	68	4308
2026-01-13 11:52:51.77	246.43	22.28	-51.3	-52.8	14.8	0.00e+00	0	26	0	483393536	68	4387
2026-01-13 11:52:52.78	246.67	22.35	-51.5	-53.2	14.6	0.00e+00	0	26	0	484442112	68	4549
2026-01-13 11:52:53.78	246.91	22.41	-51.8	-53.6	14.5	0.00e+00	0	26	0	486539264	68	4760
2026-01-13 11:52:54.78	247.16	22.47	-52.1	-53.8	14.5	0.00e+00	0	26	0	488636416	69	4650
2026-01-13 11:52:55.79	247.41	22.53	-52.3	-54.1	14.4	0.00e+00	0	26	0	490733568	69	4814
2026-01-13 11:52:56.79	247.65	22.60	-52.1	-53.9	14.5	0.00e+00	0	26	0	492830720	69	4652
2026-01-13 11:52:57.80	247.90	22.66	-51.7	-53.4	14.7	0.00e+00	0	26	0	493879296	69	4396
2026-01-13 11:52:58.80	248.15	22.72	-51.3	-52.9	14.9	0.00e+00	0	26	0	495976448	69	4158
2026-01-13 11:52:59.81	248.40	22.78	-51.4	-53.0	14.8	0.00e+00	0	26	0	498073600	69	4200
2026-01-13 11:53:00.81	248.65	22.84	-51.5	-53.1	14.8	0.00e+00	0	26	0	500170752	69	4289
2026-01-13 11:53:01.82	248.90	22.90	-51.7	-53.3	14.7	0.00e+00	0	26	0	501219328	69	4382
2026-01-13 11:53:02.83	249.16	22.96	-51.8	-53.5	14.6	0.00e+00	0	26	0	503316480	69	4476
2026-01-13 11:53:03.83	249.41	23.02	-51.9	-53.6	14.6	0.00e+00	0	26	0	505413632	69	4537
2026-01-13 11:53:04.84	249.67	23.08	-51.8	-53.4	14.6	0.00e+00	0	26	0	507510784	69	4430
2026-01-13 11:53:05.85	249.92	23.14	-51.8	-53.5	14.7	0.00e+00	0	26	0	509607936	69	4448
2026-01-13 11:53:06.85	250.18	23.19	-51.8	-53.4	14.7	0.00e+00	0	26	0	511705088	69	4428
2026-01-13 11:53:07.85	250.44	23.25	-52.0	-53.8	14.5	0.00e+00	0	26	0	512753664	69	4602
2026-01-13 11:53:08.86	250.70	23.31	-52.5	-54.3	14.4	0.00e+00	0	26	0	514850816	70	4611
2026-01-13 11:53:09.87	250.96	23.36	-52.9	-54.8	14.2	0.00e+00	0	26	0	516947968	70	4897
2026-01-13 11:53:10.87	251.22	23.42	-52.7	-54.6	14.3	0.00e+00	0	26	0	519045120	70	4793
2026-01-13 11:53:11.88	251.48	23.48	-52.7	-54.6	14.4	0.00e+00	0	26	0	520093696	71	4501
2026-01-13 11:53:12.89	251.74	23.53	-52.6	-54.4	14.5	0.00e+00	0	26	0	522190848	71	4415
2026-01-13 11:53:13.89	252.00	23.58	-52.5	-54.3	14.5	0.00e+00	0	26	0	524288000	71	4372
2026-01-13 11:53:14.89	252.27	23.64	-52.5	-54.4	14.5	0.00e+00	0	26	0	526385152	71	4402
2026-01-13 11:53:15.90	252.53	23.69	-52.7	-54.6	14.4	0.00e+00	0	26	0	528482304	71	4507
2026-01-13 11:53:16.91	252.80	23.74	-53.0	-55.0	14.3	0.00e+00	0	26	0	529530880	71	4709
2026-01-13 11:53:17.91	253.07	23.80	-53.2	-55.3	14.1	0.00e+00	0	26	0	531628032	71	4871
2026-01-13 11:53:18.92	253.33	23.85	-53.4	-55.6	14.0	0.00e+00	0	26	0	533725184	71	5053
2026-01-13 11:53:19.92	253.60	23.90	-53.6	-55.8	14.0	0.00e+00	0	26	0	535822336	72	4912
2026-01-13 11:53:20.93	253.87	23.95	-53.7	-56.0	13.9	0.00e+00	0	26	0	537919488	72	4992
2026-01-13 11:53:21.93	254.14	24.00	-53.9	-56.1	13.8	0.00e+00	0	26	0	538968064	72	5080
2026-01-13 11:53:22.94	254.41	24.05	-54.1	-56.4	13.8	0.00e+00	0	26	0	541065216	73	4959
2026-01-13 11:53:23.94	254.68	24.10	-53.5	-55.6	14.2	0.00e+00	0	26	0	543162368	73	4538
2026-01-13 11:53:24.95	254.96	24.15	-53.4	-55.5	14.3	0.00e+00	0	26	0	545259520	73	4452
2026-01-13 11:53:25.95	255.23	24.20	-52.9	-54.8	14.5	0.00e+00	0	26	0	547356672	72	4350
2026-01-13 11:53:26.96	255.51	24.24	-52.7	-54.5	14.5	0.00e+00	0	26	0	548405248	72	4226
2026-01-13 11:53:27.96	255.78	24.29	-53.0	-54.9	14.3	0.00e+00	0	26	0	550502400	71	4684
2026-01-13 11:53:28.95	256.05	24.34	-53.3	-55.4	14.1	0.00e+00	0	26	0	552599552	71	4947
2026-01-13 11:53:29.96	256.33	24.38	-54.0	-56.4	13.8	0.00e+00	0	26	0	554696704	73	4929
2026-01-13 11:53:30.97	256.61	24.43	-54.5	-57.1	13.6	0.00e+00	0	26	0	556793856	74	5052
2026-01-13 11:53:31.97	256.88	24.47	-54.6	-57.1	13.5	0.00e+00	0	26	0	557842432	74	5098
2026-01-13 11:53:32.98	257.16	24.51	-54.6	-57.0	13.5	0.00e+00	0	26	0	559939584	74	5039
2026-01-13 11:53:33.98	257.44	24.56	-54.6	-57.1	13.5	0.00e+00	0	26	0	562036736	74	5069
2026-01-13 11:53:34.99	257.72	24.60	-54.5	-57.0	13.6	0.00e+00	0	26	0	564133888	74	5010
2026-01-13 11:53:35.98	258.00	24.64	-54.8	-57.5	13.4	0.00e+00	0	26	0	566231040	74	5281
2026-01-13 11:53:36.99	258.28	24.68	-54.8	-57.4	13.4	0.00e+00	0	26	0	567279616	74	5249
2026-01-13 11:53:38.00	258.57	24.72	-54.8	-57.4	13.3	0.00e+00	0	26	0	569376768	74	5262
2026-01-13 11:53:39.00	258.85	24.76	-54.3	-56.7	13.7	0.00e+00	0	26	0	571473920	74	4869
2026-01-13 11:53:40.00	259.13	24.80	-54.2	-56.5	13.8	0.00e+00	0	26	0	573571072	74	4749
2026-01-13 11:53:40.99	259.41	24.84	-54.0	-56.3	13.9	0.00e+00	0	26	0	575668224	74	4628
2026-01-13 11:53:41.99	259.70	24.88	-54.3	-56.7	13.7	0.00e+00	0	26	0	576716800	74	4867
2026-01-13 11:53:42.99	259.98	24.91	-55.0	-57.7	13.2	0.00e+00	0	26	0	578813952	75	5130
2026-01-13 11:53:43.99	260.27	24.95	-55.2	-58.2	13.0	0.00e+00	0	26	0	580911104	75	5417
2026-01-13 11:53:45.00	260.56	24.99	-55.6	-58.6	12.9	0.00e+00	0	26	0	583008256	76	5386
2026-01-13 11:53:46.01	260.84	25.02	-55.5	-58.5	12.9	0.00e+00	0	26	0	585105408	76	5299
2026-01-13 11:53:47.01	261.13	25.06	-55.1	-57.8	13.3	0.00e+00	0	26	0	586153984	76	4908
2026-01-13 11:53:48.01	261.42	25.09	-54.8	-57.3	13.6	0.00e+00	0	26	0	588251136	76	4636
2026-01-13 11:53:49.02	261.71	25.12	-55.1	-57.9	13.3	0.00e+00	0	27	0	590348288	76	4930
2026-01-13 11:53:50.03	262.00	25.15	-55.1	-57.8	13.4	0.00e+00	0	26	0	592445440	76	4880
2026-01-13 11:53:51.03	262.29	25.19	-55.3	-58.2	13.1	0.00e+00	0	26	0	593494016	76	5132
2026-01-13 11:53:52.03	262.58	25.22	-55.1	-57.8	13.4	0.00e+00	0	26	0	595591168	76	4890
2026-01-13 11:53:53.03	262.87	25.25	-54.9	-57.6	13.5	0.00e+00	0	26	0	597688320	76	4784
2026-01-13 11:53:54.03	263.16	25.27	-54.6	-57.1	13.6	0.00e+00	0	26	0	599785472	75	4810
2026-01-13 11:53:55.03	263.45	25.30	-54.3	-56.7	13.9	0.00e+00	0	26	0	601882624	75	4556
2026-01-13 11:53:56.04	263.75	25.33	-54.3	-56.6	13.8	0.00e+00	0	26	0	602931200	74	4807
2026-01-13 11:53:57.04	264.04	25.36	-54.3	-56.6	13.8	0.00e+00	0	27	0	605028352	74	4796
2026-01-13 11:53:58.04	264.33	25.38	-53.8	-56.0	14.1	0.00e+00	0	26	0	607125504	74	4470
2026-01-13 11:53:59.04	264.63	25.41	-54.1	-56.4	13.9	0.00e+00	0	26	0	609222656	74	4658
2026-01-13 11:54:00.04	264.92	25.43	-54.4	-56.8	13.7	0.00e+00	0	26	0	611319808	74	4873
2026-01-13 11:54:01.05	265.22	25.46	-54.6	-57.1	13.6	0.00e+00	0	26	0	612368384	74	5043
2026-01-13 11:54:02.04	265.51	25.48	-54.4	-56.9	13.6	0.00e+00	0	26	0	614465536	74	4949
2026-01-13 11:54:03.04	265.81	25.50	-54.5	-56.9	13.6	0.00e+00	0	27	0	616562688	74	4975
2026-01-13 11:54:04.04	266.10	25.53	-54.3	-56.7	13.8	0.00e+00	0	26	0	618659840	74	4843
2026-01-13 11:54:05.04	266.40	25.55	-54.3	-56.6	13.8	0.00e+00	0	26	0	620756992	74	4795
2026-01-13 11:54:06.04	266.69	25.57	-54.1	-56.3	13.9	0.00e+00	0	26	0	621805568	74	4650
2026-01-13 11:54:07.05	266.99	25.59	-53.9	-56.0	14.1	0.00e+00	0	26	0	623902720	74	4487
2026-01-13 11:54:08.05	267.29	25.60	-53.6	-55.7	14.2	0.00e+00	0	26	0	625999872	73	4552
2026-01-13 11:54:09.05	267.59	25.62	-53.3	-55.2	14.2	0.00e+00	0	27	0	628097024	72	4598
2026-01-13 11:54:10.05	267.88	25.64	-52.8	-54.6	14.5	0.00e+00	0	26	0	630194176	72	4291
2026-01-13 11:54:11.05	268.18	25.65	-52.7	-54.5	14.6	0.00e+00	0	26	0	631242752	72	4215
2026-01-13 11:54:12.04	268.48	25.67	-52.9	-54.8	14.3	0.00e+00	0	26	0	633339904	71	4644
2026-01-13 11:54:13.03	268.77	25.68	-53.3	-55.3	14.1	0.00e+00	0	26	0	635437056	71	4909
2026-01-13 11:54:14.04	269.07	25.70	-53.8	-56.0	13.9	0.00e+00	0	26	0	637534208	72	4990
2026-01-13 11:54:15.04	269.37	25.71	-53.6	-55.8	14.0	0.00e+00	0	26	0	638582784	72	4891
2026-01-13 11:54:16.04	269.67	25.72	-53.3	-55.3	14.2	0.00e+00	0	26	0	640679936	72	4599
2026-01-13 11:54:17.05	269.98	25.73	-53.0	-54.9	14.4	0.00e+00	0	26	0	642777088	72	4420
2026-01-13 11:54:18.04	270.27	25.74	-52.8	-54.6	14.5	0.00e+00	0	26	0	644874240	72	4283
2026-01-13 11:54:19.04	270.57	25.75	-53.0	-54.9	14.4	0.00e+00	0	26	0	646971392	72	4435
2026-01-13 11:54:20.04	270.87	25.76	-53.3	-55.3	14.2	0.00e+00	0	27	0	648019968	72	4646
2026-01-13 11:54:21.05	271.17	25.77	-53.6	-55.7	14.0	0.00e+00	0	26	0	650117120	72	4856
2026-01-13 11:54:22.05	271.47	25.78	-53.5	-55.6	14.1	0.00e+00	0	26	0	652214272	72	4793
2026-01-13 11:54:23.05	271.77	25.78	-53.5	-55.5	14.1	0.00e+00	0	26	0	654311424	72	4754
2026-01-13 11:54:24.05	272.08	25.79	-53.4	-55.4	14.2	0.00e+00	0	26	0	656408576	72	4697
2026-01-13 11:54:25.06	272.38	25.79	-53.3	-55.4	14.2	0.00e+00	0	27	0	657457152	72	4671
2026-01-13 11:54:26.06	272.68	25.80	-53.4	-55.5	14.1	0.00e+00	0	26	0	659554304	72	4709
2026-01-13 11:54:27.05	272.98	25.80	-53.5	-55.6	14.1	0.00e+00	0	26	0	661651456	72	4770
2026-01-13 11:54:28.05	273.28	25.80	-53.2	-55.2	14.3	0.00e+00	0	26	0	663748608	72	4584
2026-01-13 11:54:29.05	273.58	25.81	-52.7	-54.5	14.6	0.00e+00	0	26	0	665845760	72	4241
2026-01-13 11:54:30.04	273.88	25.81	-52.4	-54.1	14.6	0.00e+00	0	27	0	666894336	71	4285
2026-01-13 11:54:31.04	274.18	25.81	-52.3	-54.1	14.7	0.00e+00	0	26	0	668991488	71	4248
2026-01-13 11:54:32.05	274.48	25.81	-52.4	-54.1	14.5	0.00e+00	0	27	0	671088640	70	4536
2026-01-13 11:54:33.04	274.78	25.80	-52.6	-54.4	14.4	0.00e+00	0	26	0	673185792	70	4695
2026-01-13 11:54:34.04	275.08	25.80	-52.9	-54.8	14.4	0.00e+00	0	26	0	674234368	71	4618
2026-01-13 11:54:35.05	275.38	25.80	-53.1	-55.1	14.2	0.00e+00	0	26	0	676331520	71	4778
2026-01-13 11:54:36.05	275.68	25.79	-52.9	-54.8	14.3	0.00e+00	0	26	0	678428672	71	4618
2026-01-13 11:54:37.06	275.99	25.79	-52.7	-54.5	14.5	0.00e+00	0	26	0	680525824	71	4465
2026-01-13 11:54:38.05	276.28	25.78	-52.4	-54.1	14.7	0.00e+00	0	26	0	682622976	71	4276
2026-01-13 11:54:39.05	276.58	25.78	-52.3	-54.1	14.6	0.00e+00	0	26	0	683671552	71	4253
2026-01-13 11:54:40.04	276.88	25.77	-52.6	-54.5	14.5	0.00e+00	0	26	0	685768704	71	4447
2026-01-13 11:54:41.04	277.18	25.76	-52.9	-54.8	14.4	0.00e+00	0	26	0	687865856	71	4616
2026-01-13 11:54:42.03	277.48	25.75	-53.1	-55.1	14.2	0.00e+00	0	26	0	689963008	71	4784
2026-01-13 11:54:43.03	277.78	25.74	-53.3	-55.3	14.1	0.00e+00	0	26	0	691011584	71	4893
2026-01-13 11:54:44.02	278.07	25.73	-53.4	-55.4	14.2	0.00e+00	0	26	0	693108736	72	4673
2026-01-13 11:54:45.02	278.37	25.72	-53.6	-55.7	14.0	0.00e+00	0	26	0	695205888	72	4830
2026-01-13 11:54:46.02	278.67	25.71	-53.8	-56.0	13.9	0.00e+00	0	26	0	697303040	72	5027
2026-01-13 11:54:47.02	278.97	25.69	-54.0	-56.2	13.9	0.00e+00	0	26	0	699400192	73	4859
2026-01-13 11:54:48.02	279.27	25.68	-54.1	-56.4	13.8	0.00e+00	0	26	0	700448768	73	4974
2026-01-13 11:54:49.02	279.57	25.66	-53.9	-56.1	14.0	0.00e+00	0	26	0	702545920	73	4779
2026-01-13 11:54:50.02	279.86	25.65	-53.7	-55.8	14.1	0.00e+00	0	26	0	704643072	73	4619
2026-01-13 11:54:51.02	280.16	25.63	-53.6	-55.7	14.2	0.00e+00	0	26	0	706740224	73	4563
2026-01-13 11:54:52.02	280.46	25.61	-53.5	-55.6	14.2	0.00e+00	0	26	0	708837376	73	4507
2026-01-13 11:54:53.02	280.76	25.60	-53.0	-55.0	14.4	0.00e+00	0	26	0	709885952	72	4443
2026-01-13 11:54:54.02	281.05	25.58	-52.6	-54.4	14.5	0.00e+00	0	26	0	711983104	71	4440
2026-01-13 11:54:55.03	281.35	25.56	-52.3	-54.0	14.7	0.00e+00	0	26	0	714080256	71	4223
2026-01-13 11:54:56.04	281.65	25.54	-52.2	-54.0	14.6	0.00e+00	0	27	0	716177408	70	4453
2026-01-13 11:54:57.03	281.94	25.52	-52.3	-54.1	14.5	0.00e+00	0	26	0	717225984	70	4500
2026-01-13 11:54:58.02	282.23	25.49	-52.5	-54.3	14.5	0.00e+00	0	26	0	719323136	70	4634
2026-01-13 11:54:59.01	282.53	25.47	-52.4	-54.2	14.5	0.00e+00	0	26	0	721420288	70	4563
2026-01-13 11:55:00.02	282.82	25.45	-52.4	-54.1	14.5	0.00e+00	0	26	0	723517440	70	4511
2026-01-13 11:55:01.03	283.12	25.42	-52.3	-54.0	14.6	0.00e+00	0	26	0	725614592	70	4464
2026-01-13 11:55:02.02	283.41	25.40	-52.2	-53.9	14.6	0.00e+00	0	26	0	726663168	70	4411
2026-01-13 11:55:03.02	283.70	25.37	-52.3	-54.0	14.6	0.00e+00	0	26	0	728760320	70	4464
2026-01-13 11:55:04.02	284.00	25.35	-52.3	-54.1	14.5	0.00e+00	0	26	0	730857472	70	4503
2026-01-13 11:55:05.02	284.29	25.32	-52.3	-54.0	14.5	0.00e+00	0	26	0	732954624	70	4469
2026-01-13 11:55:06.02	284.58	25.29	-52.1	-53.8	14.7	0.00e+00	0	26	0	735051776	70	4349
2026-01-13 11:55:07.01	284.87	25.26	-51.9	-53.5	14.8	0.00e+00	0	26	0	736100352	70	4240
2026-01-13 11:55:08.00	285.15	25.23	-51.7	-53.3	14.8	0.00e+00	0	26	0	738197504	70	4141
2026-01-13 11:55:09.00	285.44	25.20	-51.7	-53.3	14.7	0.00e+00	0	26	0	740294656	69	4370
2026-01-13 11:55:09.98	285.73	25.17	-51.7	-53.3	14.7	0.00e+00	0	26	0	742391808	69	4361
2026-01-13 11:55:10.99	286.02	25.14	-51.7	-53.3	14.7	0.00e+00	0	26	0	744488960	69	4391
2026-01-13 11:55:11.99	286.31	25.11	-51.9	-53.6	14.6	0.00e+00	0	26	0	745537536	69	4508
2026-01-13 11:55:12.99	286.59	25.08	-52.0	-53.7	14.5	0.00e+00	0	26	0	747634688	69	4578
2026-01-13 11:55:13.99	286.88	25.04	-52.1	-53.8	14.5	0.00e+00	0	26	0	749731840	69	4642
2026-01-13 11:55:15.00	287.17	25.01	-52.4	-54.2	14.4	0.00e+00	0	26	0	751828992	69	4830
2026-01-13 11:55:16.00	287.46	24.97	-52.2	-53.9	14.5	0.00e+00	0	27	0	752877568	69	4693
2026-01-13 11:55:17.00	287.74	24.94	-52.2	-53.9	14.5	0.00e+00	0	26	0	754974720	69	4700
2026-01-13 11:55:17.99	288.02	24.90	-51.9	-53.6	14.6	0.00e+00	0	26	0	757071872	69	4509
2026-01-13 11:55:18.99	288.31	24.87	-51.9	-53.5	14.6	0.00e+00	0	26	0	759169024	69	4488
2026-01-13 11:55:19.98	288.59	24.83	-52.0	-53.6	14.6	0.00e+00	0	26	0	761266176	69	4528
2026-01-13 11:55:20.98	288.87	24.79	-52.0	-53.7	14.6	0.00e+00	0	26	0	762314752	69	4560
2026-01-13 11:55:21.98	289.15	24.75	-51.8	-53.4	14.7	0.00e+00	0	26	0	764411904	69	4403
2026-01-13 11:55:22.98	289.43	24.71	-51.5	-53.0	14.8	0.00e+00	0	26	0	766509056	69	4239
2026-01-13 11:55:23.98	289.71	24.67	-51.3	-52.8	15.0	0.00e+00	0	26	0	768606208	69	4114
2026-01-13 11:55:24.96	289.99	24.63	-51.2	-52.8	15.0	0.00e+00	0	26	0	769654784	69	4115
2026-01-13 11:55:25.96	290.26	24.59	-51.5	-53.0	14.9	0.00e+00	0	26	0	771751936	69	4228
2026-01-13 11:55:26.95	290.54	24.55	-51.3	-52.9	14.9	0.00e+00	0	26	0	773849088	69	4154
2026-01-13 11:55:27.95	290.82	24.50	-51.5	-53.1	14.9	0.00e+00	0	26	0	775946240	69	4247
2026-01-13 11:55:28.96	291.10	24.46	-51.3	-52.9	14.9	0.00e+00	0	26	0	778043392	69	4166
2026-01-13 11:55:29.96	291.37	24.42	-51.0	-52.6	14.9	0.00e+00	0	26	0	779091968	68	4245
2026-01-13 11:55:30.96	291.65	24.37	-51.0	-52.5	14.9	0.00e+00	0	26	0	781189120	68	4197
2026-01-13 11:55:31.97	291.92	24.33	-50.8	-52.3	15.0	0.00e+00	0	26	0	783286272	68	4135
2026-01-13 11:55:32.97	292.20	24.28	-50.8	-52.3	15.0	0.00e+00	0	26	0	785383424	68	4128
2026-01-13 11:55:33.97	292.47	24.23	-50.5	-52.0	15.0	0.00e+00	0	26	0	787480576	67	4206
2026-01-13 11:55:34.96	292.74	24.19	-50.7	-52.1	14.9	0.00e+00	0	26	0	788529152	67	4288
2026-01-13 11:55:35.95	293.01	24.14	-50.8	-52.4	14.8	0.00e+00	0	26	0	790626304	67	4403
2026-01-13 11:55:36.95	293.28	24.09	-50.7	-52.2	14.9	0.00e+00	0	26	0	792723456	67	4336
2026-01-13 11:55:37.95	293.55	24.04	-50.6	-52.1	14.9	0.00e+00	0	26	0	794820608	67	4277
2026-01-13 11:55:38.94	293.81	23.99	-50.3	-51.7	15.1	0.00e+00	0	26	0	795869184	67	4078
2026-01-13 11:55:39.95	294.09	23.94	-50.3	-51.7	15.1	0.00e+00	0	26	0	797966336	67	4068
2026-01-13 11:55:40.94	294.35	23.89	-50.0	-51.4	15.0	0.00e+00	0	26	0	800063488	66	4183
2026-01-13 11:55:41.93	294.61	23.84	-50.3	-51.8	14.9	0.00e+00	0	26	0	802160640	66	4341
2026-01-13 11:55:42.92	294.88	23.79	-50.6	-52.1	14.8	0.00e+00	0	26	0	804257792	66	4517
2026-01-13 11:55:43.93	295.14	23.74	-50.9	-52.4	14.8	0.00e+00	0	26	0	805306368	67	4423
2026-01-13 11:55:44.92	295.40	23.69	-50.8	-52.3	14.8	0.00e+00	0	26	0	807403520	67	4371
2026-01-13 11:55:45.92	295.67	23.64	-50.7	-52.2	14.9	0.00e+00	0	26	0	809500672	67	4311
2026-01-13 11:55:46.93	295.93	23.58	-50.4	-51.9	15.0	0.00e+00	0	26	0	811597824	67	4157
2026-01-13 11:55:47.93	296.19	23.53	-50.3	-51.7	15.1	0.00e+00	0	26	0	812646400	67	4075
2026-01-13 11:55:48.94	296.46	23.47	-50.0	-51.4	15.1	0.00e+00	0	26	0	814743552	66	4155
2026-01-13 11:55:49.95	296.72	23.42	-50.1	-51.4	15.0	0.00e+00	0	26	0	816840704	66	4183
2026-01-13 11:55:50.95	296.98	23.36	-50.1	-51.5	15.0	0.00e+00	0	26	0	818937856	66	4213
2026-01-13 11:55:51.95	297.23	23.31	-50.4	-51.9	14.9	0.00e+00	0	26	0	821035008	66	4403
2026-01-13 11:55:52.95	297.49	23.25	-50.7	-52.2	14.8	0.00e+00	0	26	0	823132160	66	4592
2026-01-13 11:55:53.95	297.74	23.19	-51.0	-52.5	14.8	0.00e+00	0	27	0	824180736	67	4478
2026-01-13 11:55:54.94	298.00	23.14	-50.9	-52.4	14.8	0.00e+00	0	26	0	826277888	67	4425
2026-01-13 11:55:55.95	298.25	23.08	-50.8	-52.3	14.9	0.00e+00	0	26	0	828375040	67	4341
2026-01-13 11:55:56.94	298.50	23.02	-50.5	-52.0	15.0	0.00e+00	0	26	0	830472192	67	4197
2026-01-13 11:55:57.93	298.75	22.96	-50.4	-51.8	15.0	0.00e+00	0	26	0	831520768	67	4129
2026-01-13 11:55:58.93	299.00	22.90	-50.5	-51.9	15.0	0.00e+00	0	26	0	833617920	67	4178
2026-01-13 11:55:59.93	299.25	22.84	-50.6	-52.0	15.0	0.00e+00	0	26	0	835715072	67	4227
2026-01-13 11:56:00.92	299.50	22.78	-50.7	-52.2	14.9	0.00e+00	0	26	0	837812224	67	4301
2026-01-13 11:56:01.92	299.75	22.72	-50.8	-52.3	14.8	0.00e+00	0	26	0	839909376	67	4379
2026-01-13 11:56:02.92	300.00	22.66	-50.8	-52.3	14.9	0.00e+00	0	26	0	840957952	67	4346
2026-01-13 11:56:03.92	300.24	22.60	-50.6	-52.1	14.9	0.00e+00	0	26	0	843055104	67	4268
2026-01-13 11:56:04.92	300.49	22.54	-50.7	-52.2	14.9	0.00e+00	0	26	0	845152256	67	4301
2026-01-13 11:56:05.92	300.73	22.48	-50.8	-52.3	14.8	0.00e+00	0	26	0	847249408	67	4365
2026-01-13 11:56:06.92	300.98	22.42	-51.0	-52.5	14.8	0.00e+00	0	26	0	848297984	67	4463
2026-01-13 11:56:07.92	301.22	22.36	-51.1	-52.6	14.7	0.00e+00	0	26	0	850395136	67	4536
2026-01-13 11:56:08.91	301.46	22.29	-51.3	-52.8	14.6	0.00e+00	0	26	0	852492288	67	4640
2026-01-13 11:56:09.91	301.70	22.23	-51.0	-52.6	14.7	0.00e+00	0	26	0	854589440	67	4497
2026-01-13 11:56:10.91	301.94	22.17	-51.2	-52.8	14.7	0.00e+00	0	26	0	856686592	67	4631
2026-01-13 11:56:11.92	302.18	22.10	-51.3	-52.8	14.7	0.00e+00	0	26	0	857735168	67	4646
2026-01-13 11:56:12.91	302.41	22.04	-51.7	-53.3	14.6	0.00e+00	0	26	0	859832320	68	4637
2026-01-13 11:56:13.92	302.65	21.97	-51.8	-53.5	14.5	0.00e+00	0	26	0	861929472	68	4732
2026-01-13 11:56:14.91	302.89	21.91	-52.0	-53.7	14.6	0.00e+00	0	26	0	864026624	69	4561
2026-01-13 11:56:15.92	303.12	21.84	-52.1	-53.8	14.5	0.00e+00	0	26	0	866123776	69	4615
2026-01-13 11:56:16.91	303.35	21.78	-52.0	-53.8	14.5	0.00e+00	0	26	0	867172352	69	4601
2026-01-13 11:56:17.92	303.59	21.71	-51.8	-53.5	14.7	0.00e+00	0	26	0	869269504	69	4450
2026-01-13 11:56:18.92	303.82	21.65	-51.7	-53.4	14.7	0.00e+00	0	26	0	871366656	69	4408
2026-01-13 11:56:19.93	304.06	21.58	-51.5	-53.1	14.8	0.00e+00	0	26	0	873463808	69	4266
2026-01-13 11:56:20.93	304.29	21.51	-51.4	-53.0	14.9	0.00e+00	0	26	0	875560960	69	4205
2026-01-13 11:56:21.93	304.51	21.44	-51.2	-52.8	14.9	0.00e+00	0	26	0	876609536	69	4111
2026-01-13 11:56:22.92	304.74	21.38	-51.4	-52.9	14.9	0.00e+00	0	26	0	878706688	69	4186
2026-01-13 11:56:23.93	304.97	21.31	-51.5	-53.1	14.8	0.00e+00	0	26	0	880803840	69	4274
2026-01-13 11:56:24.92	305.19	21.24	-51.9	-53.5	14.6	0.00e+00	0	26	0	882900992	69	4493
2026-01-13 11:56:25.92	305.42	21.17	-52.3	-54.1	14.4	0.00e+00	0	26	0	883949568	69	4767
2026-01-13 11:56:26.92	305.64	21.11	-52.7	-54.6	14.3	0.00e+00	0	26	0	886046720	70	4780
2026-01-13 11:56:27.92	305.87	21.04	-52.7	-54.6	14.3	0.00e+00	0	26	0	888143872	70	4791
2026-01-13 11:56:28.91	306.09	20.97	-52.8	-54.6	14.3	0.00e+00	0	26	0	890241024	70	4800
2026-01-13 11:56:29.90	306.30	20.90	-52.5	-54.3	14.5	0.00e+00	0	26	0	892338176	70	4627
2026-01-13 11:56:30.90	306.52	20.83	-52.2	-53.9	14.6	0.00e+00	0	26	0	893386752	70	4424
2026-01-13 11:56:31.90	306.74	20.76	-51.6	-53.1	14.8	0.00e+00	0	26	0	895483904	69	4290
2026-01-13 11:56:32.90	306.96	20.69	-51.3	-52.9	14.9	0.00e+00	0	26	0	897581056	69	4157
2026-01-13 11:56:33.90	307.18	20.62	-51.2	-52.8	14.9	0.00e+00	0	26	0	899678208	69	4103
2026-01-13 11:56:34.89	307.39	20.55	-51.4	-53.0	14.8	0.00e+00	0	26	0	901775360	69	4215
2026-01-13 11:56:35.89	307.61	20.48	-51.3	-52.9	14.9	0.00e+00	0	26	0	902823936	69	4161
2026-01-13 11:56:36.89	307.82	20.41	-51.6	-53.2	14.8	0.00e+00	0	26	0	904921088	69	4336
2026-01-13 11:56:37.90	308.04	20.34	-52.0	-53.7	14.6	0.00e+00	0	26	0	907018240	69	4556
2026-01-13 11:56:38.90	308.25	20.27	-52.3	-54.1	14.4	0.00e+00	0	26	0	909115392	69	4771
2026-01-13 11:56:39.90	308.46	20.20	-52.5	-54.3	14.4	0.00e+00	0	26	0	910163968	70	4609
2026-01-13 11:56:40.89	308.67	20.13	-52.6	-54.4	14.4	0.00e+00	0	26	0	912261120	70	4705
2026-01-13 11:56:41.88	308.88	20.06	-52.8	-54.7	14.3	0.00e+00	0	26	0	914358272	70	4824
2026-01-13 11:56:42.88	309.09	19.99	-52.6	-54.4	14.4	0.00e+00	0	27	0	916455424	70	4672
2026-01-13 11:56:43.88	309.30	19.92	-52.5	-54.3	14.5	0.00e+00	0	26	0	918552576	70	4604
2026-01-13 11:56:44.89	309.50	19.84	-52.6	-54.4	14.4	0.00e+00	0	26	0	919601152	70	4670
2026-01-13 11:56:45.89	309.71	19.77	-52.6	-54.4	14.4	0.00e+00	0	26	0	921698304	70	4679
2026-01-13 11:56:46.89	309.92	19.70	-52.9	-54.8	14.3	0.00e+00	0	26	0	923795456	70	4878
2026-01-13 11:56:47.89	310.12	19.63	-52.7	-54.6	14.3	0.00e+00	0	27	0	925892608	70	4776
2026-01-13 11:56:48.89	310.32	19.55	-52.7	-54.5	14.3	0.00e+00	0	27	0	927989760	70	4751
2026-01-13 11:56:49.90	310.53	19.48	-52.7	-54.5	14.3	0.00e+00	0	27	0	929038336	70	4750
2026-01-13 11:56:50.89	310.73	19.41	-52.5	-54.4	14.4	0.00e+00	0	27	0	931135488	70	4657
2026-01-13 11:56:51.90	310.93	19.34	-52.6	-54.4	14.4	0.00e+00	0	26	0	933232640	70	4673
2026-01-13 11:56:52.90	311.13	19.26	-52.8	-54.7	14.3	0.00e+00	0	26	0	935329792	70	4837
2026-01-13 11:56:53.91	311.33	19.19	-53.0	-54.9	14.3	0.00e+00	0	26	0	937426944	71	4702
2026-01-13 11:56:54.90	311.52	19.12	-53.1	-55.1	14.2	0.00e+00	0	27	0	938475520	71	4804
2026-01-13 11:56:55.90	311.72	19.04	-53.3	-55.3	14.1	0.00e+00	0	26	0	940572672	71	4895
2026-01-13 11:56:56.91	311.92	18.97	-53.0	-55.0	14.2	0.00e+00	0	26	0	942669824	71	4715
2026-01-13 11:56:57.91	312.11	18.90	-52.6	-54.5	14.5	0.00e+00	0	26	0	944766976	71	4450
2026-01-13 11:56:58.91	312.31	18.82	-52.3	-54.0	14.7	0.00e+00	0	26	0	945815552	71	4227
2026-01-13 11:56:59.91	312.50	18.75	-51.8	-53.4	14.8	0.00e+00	0	26	0	947912704	70	4180
2026-01-13 11:57:00.91	312.69	18.67	-51.5	-53.1	14.8	0.00e+00	0	27	0	950009856	69	4271
2026-01-13 11:57:01.90	312.88	18.60	-51.8	-53.5	14.7	0.00e+00	0	27	0	952107008	69	4454
2026-01-13 11:57:02.89	313.07	18.53	-51.8	-53.5	14.6	0.00e+00	0	26	0	954204160	69	4474
2026-01-13 11:57:03.88	313.26	18.45	-52.4	-54.2	14.4	0.00e+00	0	26	0	955252736	69	4820
2026-01-13 11:57:04.87	313.44	18.38	-52.7	-54.6	14.3	0.00e+00	0	26	0	957349888	70	4793
2026-01-13 11:57:05.87	313.63	18.31	-52.8	-54.7	14.3	0.00e+00	0	26	0	959447040	70	4831
2026-01-13 11:57:06.85	313.81	18.23	-53.0	-54.9	14.3	0.00e+00	0	26	0	961544192	71	4677
2026-01-13 11:57:07.85	314.00	18.16	-52.7	-54.6	14.4	0.00e+00	0	26	0	962592768	71	4525
2026-01-13 11:57:08.84	314.18	18.09	-52.5	-54.3	14.6	0.00e+00	0	27	0	964689920	71	4379
2026-01-13 11:57:09.84	314.37	18.01	-52.4	-54.1	14.6	0.00e+00	0	26	0	966787072	71	4287
2026-01-13 11:57:10.84	314.55	17.94	-52.3	-54.0	14.7	0.00e+00	0	26	0	968884224	71	4232
2026-01-13 11:57:11.85	314.73	17.86	-52.6	-54.4	14.6	0.00e+00	0	27	0	970981376	71	4393
2026-01-13 11:57:12.84	314.91	17.79	-52.8	-54.7	14.4	0.00e+00	0	27	0	972029952	71	4568
2026-01-13 11:57:13.83	315.09	17.71	-53.2	-55.3	14.1	0.00e+00	0	27	0	974127104	71	4883
2026-01-13 11:57:14.82	315.27	17.64	-53.6	-55.7	14.0	0.00e+00	0	26	0	976224256	72	4850
2026-01-13 11:57:15.83	315.45	17.57	-53.7	-55.9	13.9	0.00e+00	0	26	0	978321408	72	4982
2026-01-13 11:57:16.83	315.63	17.49	-53.6	-55.7	14.0	0.00e+00	0	26	0	979369984	72	4868
2026-01-13 11:57:17.83	315.80	17.42	-53.4	-55.4	14.1	0.00e+00	0	27	0	981467136	72	4695
2026-01-13 11:57:18.83	315.98	17.34	-53.0	-54.9	14.4	0.00e+00	0	26	0	983564288	72	4425
2026-01-13 11:57:19.83	316.16	17.27	-52.6	-54.5	14.5	0.00e+00	0	27	0	985661440	71	4444
2026-01-13 11:57:20.83	316.33	17.19	-52.3	-54.1	14.6	0.00e+00	0	26	0	987758592	71	4250
2026-01-13 11:57:21.83	316.50	17.12	-52.3	-54.1	14.6	0.00e+00	0	26	0	988807168	71	4270
2026-01-13 11:57:22.83	316.68	17.04	-52.3	-54.1	14.6	0.00e+00	0	26	0	990904320	71	4247
2026-01-13 11:57:23.83	316.85	16.97	-52.4	-54.2	14.6	0.00e+00	0	27	0	993001472	71	4295
2026-01-13 11:57:24.81	317.02	16.89	-52.6	-54.4	14.5	0.00e+00	0	27	0	995098624	71	4436
2026-01-13 11:57:25.81	317.19	16.82	-52.7	-54.5	14.4	0.00e+00	0	26	0	997195776	71	4490
2026-01-13 11:57:26.81	317.36	16.74	-52.7	-54.6	14.4	0.00e+00	0	26	0	998244352	71	4530
2026-01-13 11:57:27.81	317.52	16.67	-52.4	-54.2	14.6	0.00e+00	0	26	0	1000341504	71	4338
2026-01-13 11:57:28.81	317.69	16.59	-52.1	-53.9	14.6	0.00e+00	0	26	0	1002438656	70	4403
2026-01-13 11:57:29.80	317.86	16.52	-52.2	-54.0	14.6	0.00e+00	0	26	0	1004535808	70	4453
2026-01-13 11:57:30.80	318.02	16.44	-52.0	-53.7	14.7	0.00e+00	0	27	0	1005584384	70	4298
2026-01-13 11:57:31.80	318.19	16.37	-52.2	-53.9	14.6	0.00e+00	0	26	0	1007681536	70	4422
2026-01-13 11:57:32.80	318.35	16.30	-52.4	-54.2	14.4	0.00e+00	0	26	0	1009778688	70	4588
2026-01-13 11:57:33.80	318.52	16.22	-52.7	-54.6	14.3	0.00e+00	0	26	0	1011875840	70	4785
2026-01-13 11:57:34.80	318.68	16.15	-52.9	-54.8	14.2	0.00e+00	0	27	0	1013972992	70	4926
2026-01-13 11:57:35.80	318.84	16.07	-53.1	-55.2	14.1	0.00e+00	0	26	0	1015021568	71	4824
2026-01-13 11:57:36.80	319.01	16.00	-53.1	-55.1	14.1	0.00e+00	0	26	0	1017118720	71	4782
2026-01-13 11:57:37.79	319.16	15.92	-53.2	-55.2	14.1	0.00e+00	0	27	0	1019215872	71	4866
2026-01-13 11:57:38.78	319.32	15.85	-53.0	-55.0	14.2	0.00e+00	0	26	0	1021313024	71	4741
2026-01-13 11:57:39.78	319.48	15.77	-52.7	-54.5	14.4	0.00e+00	0	27	0	1022361600	71	4491
2026-01-13 11:57:40.78	319.64	15.70	-52.5	-54.3	14.5	0.00e+00	0	26	0	1024458752	71	4385
2026-01-13 11:57:41.77	319.80	15.62	-52.5	-54.3	14.5	0.00e+00	0	26	0	1026555904	71	4378
2026-01-13 11:57:42.76	319.95	15.55	-52.4	-54.3	14.5	0.00e+00	0	26	0	1028653056	71	4349
2026-01-13 11:57:43.76	320.11	15.48	-52.5	-54.3	14.5	0.00e+00	0	26	0	1030750208	71	4370
2026-01-13 11:57:44.75	320.26	15.40	-52.6	-54.4	14.5	0.00e+00	0	26	0	1031798784	71	4426
2026-01-13 11:57:45.75	320.42	15.33	-52.8	-54.7	14.3	0.00e+00	0	26	0	1033895936	71	4567
2026-01-13 11:57:46.76	320.57	15.25	-52.8	-54.8	14.3	0.00e+00	0	26	0	1035993088	71	4614
2026-01-13 11:57:47.76	320.73	15.18	-52.9	-54.9	14.2	0.00e+00	0	26	0	1038090240	71	4695
2026-01-13 11:57:48.76	320.88	15.10	-52.7	-54.6	14.4	0.00e+00	0	26	0	1040187392	71	4528
2026-01-13 11:57:49.75	321.03	15.03	-52.6	-54.4	14.4	0.00e+00	0	26	0	1041235968	71	4434
2026-01-13 11:57:50.75	321.18	14.96	-52.5	-54.3	14.5	0.00e+00	0	26	0	1043333120	71	4370
2026-01-13 11:57:51.76	321.33	14.88	-52.4	-54.2	14.6	0.00e+00	0	26	0	1045430272	71	4301
2026-01-13 11:57:52.75	321.48	14.81	-52.3	-54.1	14.6	0.00e+00	0	26	0	1047527424	71	4274
2026-01-13 11:57:53.75	321.63	14.73	-52.4	-54.2	14.6	0.00e+00	0	26	0	1049624576	71	4305
2026-01-13 11:57:54.75	321.78	14.66	-52.6	-54.4	14.4	0.00e+00	0	26	0	1050673152	71	4431
2026-01-13 11:57:55.75	321.92	14.58	-52.9	-54.8	14.3	0.00e+00	0	26	0	1052770304	71	4651
2026-01-13 11:57:56.74	322.07	14.51	-53.2	-55.3	14.0	0.00e+00	0	26	0	1054867456	71	4901
2026-01-13 11:57:57.73	322.21	14.44	-53.5	-55.6	14.0	0.00e+00	0	26	0	1056964608	72	4798
2026-01-13 11:57:58.73	322.36	14.36	-53.7	-56.0	13.8	0.00e+00	0	26	0	1058013184	72	5001
2026-01-13 11:57:59.73	322.50	14.29	-54.0	-56.3	13.7	0.00e+00	0	26	0	1060110336	73	4920
2026-01-13 11:58:00.73	322.65	14.22	-54.1	-56.5	13.7	0.00e+00	0	26	0	1062207488	73	5036
2026-01-13 11:58:01.74	322.79	14.14	-53.6	-55.9	14.0	0.00e+00	0	26	0	1064304640	73	4664
2026-01-13 11:58:02.74	322.93	14.07	-53.6	-55.8	14.1	0.00e+00	0	27	0	1066401792	73	4621
2026-01-13 11:58:03.74	323.08	13.99	-53.3	-55.4	14.2	0.00e+00	0	26	0	1067450368	73	4418
2026-01-13 11:58:04.74	323.22	13.92	-53.1	-55.1	14.2	0.00e+00	0	26	0	1069547520	72	4525
2026-01-13 11:58:05.74	323.36	13.85	-53.0	-55.0	14.3	0.00e+00	0	26	0	1071644672	72	4449
2026-01-13 11:58:06.74	323.50	13.77	-53.0	-55.1	14.3	0.00e+00	0	26	0	1073741824	72	4498
2026-01-13 11:58:07.73	323.64	13.70	-52.9	-54.9	14.3	0.00e+00	0	26	0	1074790400	72	4415
2026-01-13 11:58:08.73	323.77	13.63	-53.0	-55.0	14.3	0.00e+00	0	26	0	1076887552	72	4456
2026-01-13 11:58:09.72	323.91	13.56	-52.9	-54.8	14.3	0.00e+00	0	26	0	1078984704	72	4382
2026-01-13 11:58:10.71	324.05	13.48	-52.8	-54.7	14.4	0.00e+00	0	26	0	1081081856	72	4339
2026-01-13 11:58:11.71	324.18	13.41	-52.8	-54.8	14.4	0.00e+00	0	26	0	1083179008	72	4352
2026-01-13 11:58:12.70	324.32	13.34	-52.7	-54.6	14.5	0.00e+00	0	26	0	1084227584	72	4264
2026-01-13 11:58:13.69	324.45	13.27	-52.5	-54.3	14.5	0.00e+00	0	26	0	1086324736	71	4382
2026-01-13 11:58:14.68	324.59	13.19	-52.4	-54.2	14.5	0.00e+00	0	26	0	1088421888	71	4305
2026-01-13 11:58:15.68	324.72	13.12	-52.2	-54.0	14.6	0.00e+00	0	27	0	1090519040	71	4225
2026-01-13 11:58:16.67	324.85	13.05	-52.2	-54.0	14.5	0.00e+00	0	27	0	1091567616	70	4490
2026-01-13 11:58:17.67	324.98	12.98	-52.0	-53.8	14.6	0.00e+00	0	27	0	1093664768	70	4363
2026-01-13 11:58:18.67	325.12	12.90	-52.1	-53.8	14.6	0.00e+00	0	27	0	1095761920	70	4380
2026-01-13 11:58:19.67	325.25	12.83	-52.1	-53.9	14.5	0.00e+00	0	26	0	1097859072	70	4420
2026-01-13 11:58:20.65	325.38	12.76	-52.3	-54.1	14.4	0.00e+00	0	27	0	1099956224	70	4527
2026-01-13 11:58:21.64	325.50	12.69	-52.4	-54.3	14.4	0.00e+00	0	26	0	1101004800	70	4613
2026-01-13 11:58:22.63	325.63	12.62	-52.5	-54.5	14.3	0.00e+00	0	26	0	1103101952	70	4710
2026-01-13 11:58:23.64	325.76	12.54	-52.8	-54.8	14.1	0.00e+00	0	27	0	1105199104	70	4923
2026-01-13 11:58:24.64	325.89	12.47	-52.9	-54.9	14.1	0.00e+00	0	26	0	1107296256	70	4938
2026-01-13 11:58:25.64	326.02	12.40	-52.9	-55.0	14.2	0.00e+00	0	26	0	1109393408	71	4722
2026-01-13 11:58:26.64	326.15	12.33	-53.0	-55.0	14.2	0.00e+00	0	26	0	1110441984	71	4754
2026-01-13 11:58:27.63	326.27	12.26	-53.0	-55.1	14.1	0.00e+00	0	26	0	1112539136	71	4803
2026-01-13 11:58:28.63	326.40	12.19	-53.0	-55.1	14.1	0.00e+00	0	27	0	1114636288	71	4784
2026-01-13 11:58:29.62	326.52	12.12	-53.0	-55.1	14.1	0.00e+00	0	26	0	1116733440	71	4769
2026-01-13 11:58:30.62	326.65	12.04	-53.0	-55.0	14.2	0.00e+00	0	26	0	1117782016	71	4731
2026-01-13 11:58:31.62	326.77	11.97	-52.8	-54.8	14.2	0.00e+00	0	27	0	1119879168	71	4639
2026-01-13 11:58:32.62	326.90	11.90	-52.7	-54.7	14.3	0.00e+00	0	26	0	1121976320	71	4579
2026-01-13 11:58:33.63	327.02	11.83	-52.8	-54.7	14.3	0.00e+00	0	26	0	1124073472	71	4588
2026-01-13 11:58:34.62	327.14	11.76	-52.8	-54.8	14.2	0.00e+00	0	27	0	1126170624	71	4610
2026-01-13 11:58:35.62	327.26	11.69	-52.6	-54.6	14.3	0.00e+00	0	26	0	1127219200	71	4494
2026-01-13 11:58:36.62	327.39	11.62	-52.7	-54.7	14.3	0.00e+00	0	26	0	1129316352	71	4574
2026-01-13 11:58:37.62	327.51	11.55	-52.7	-54.7	14.3	0.00e+00	0	26	0	1131413504	71	4582
2026-01-13 11:58:38.62	327.63	11.48	-52.8	-54.8	14.2	0.00e+00	0	26	0	1133510656	71	4628
2026-01-13 11:58:39.62	327.75	11.41	-52.9	-54.9	14.2	0.00e+00	0	26	0	1135607808	71	4692
2026-01-13 11:58:40.62	327.87	11.33	-52.9	-54.9	14.2	0.00e+00	0	26	0	1136656384	71	4683
2026-01-13 11:58:41.63	327.99	11.26	-53.0	-55.0	14.1	0.00e+00	0	26	0	1138753536	71	4751
2026-01-13 11:58:42.64	328.10	11.19	-53.0	-55.1	14.1	0.00e+00	0	26	0	1140850688	71	4765
2026-01-13 11:58:43.63	328.22	11.12	-53.0	-55.0	14.1	0.00e+00	0	26	0	1142947840	71	4753
2026-01-13 11:58:44.63	328.34	11.05	-53.0	-55.0	14.1	0.00e+00	0	27	0	1143996416	71	4740
2026-01-13 11:58:45.63	328.45	10.98	-52.9	-55.0	14.2	0.00e+00	0	26	0	1146093568	71	4718
2026-01-13 11:58:46.64	328.57	10.91	-52.9	-54.9	14.2	0.00e+00	0	26	0	1148190720	71	4670
2026-01-13 11:58:47.64	328.69	10.84	-53.1	-55.2	14.1	0.00e+00	0	26	0	1150287872	71	4835
2026-01-13 11:58:48.64	328.80	10.77	-52.9	-55.0	14.1	0.00e+00	0	26	0	1152385024	71	4714
2026-01-13 11:58:49.64	328.92	10.70	-53.1	-55.2	14.0	0.00e+00	0	26	0	1153433600	71	4847
2026-01-13 11:58:50.65	329.03	10.63	-53.1	-55.2	14.0	0.00e+00	0	26	0	1155530752	71	4861
2026-01-13 11:58:51.65	329.15	10.56	-53.2	-55.4	13.9	0.00e+00	0	26	0	1157627904	71	4942
2026-01-13 11:58:52.64	329.26	10.49	-53.3	-55.5	13.9	0.00e+00	0	26	0	1159725056	71	5041
2026-01-13 11:58:53.64	329.37	10.43	-53.4	-55.6	13.9	0.00e+00	0	26	0	1161822208	72	4781
2026-01-13 11:58:54.64	329.48	10.36	-53.6	-55.9	13.8	0.00e+00	0	26	0	1162870784	72	4980
2026-01-13 11:58:55.64	329.59	10.29	-53.7	-56.1	13.7	0.00e+00	0	26	0	1164967936	72	5068
2026-01-13 11:58:56.63	329.70	10.22	-53.7	-56.1	13.7	0.00e+00	0	26	0	1167065088	72	5045
2026-01-13 11:58:57.63	329.81	10.15	-53.8	-56.2	13.6	0.00e+00	0	26	0	1169162240	72	5143
2026-01-13 11:58:58.61	329.92	10.08	-54.0	-56.5	13.6	0.00e+00	0	26	0	1170210816	73	5004
2026-01-13 11:58:59.60	330.03	10.01	-54.0	-56.4	13.6	0.00e+00	0	26	0	1172307968	73	4977
2026-01-13 11:59:00.60	330.14	9.95	-53.9	-56.3	13.7	0.00e+00	0	26	0	1174405120	73	4906
2026-01-13 11:59:01.60	330.25	9.88	-53.9	-56.3	13.7	0.00e+00	0	26	0	1176502272	73	4894
2026-01-13 11:59:02.60	330.35	9.81	-53.9	-56.3	13.7	0.00e+00	0	26	0	1178599424	73	4888
2026-01-13 11:59:03.60	330.46	9.74	-53.9	-56.4	13.6	0.00e+00	0	26	0	1179648000	73	4958
2026-01-13 11:59:04.60	330.57	9.67	-54.0	-56.4	13.6	0.00e+00	0	26	0	1181745152	73	4969
2026-01-13 11:59:05.60	330.68	9.61	-53.9	-56.4	13.6	0.00e+00	0	26	0	1183842304	73	4947
2026-01-13 11:59:06.60	330.78	9.54	-53.8	-56.2	13.7	0.00e+00	0	26	0	1185939456	73	4855
2026-01-13 11:59:07.59	330.89	9.47	-53.7	-56.1	13.8	0.00e+00	0	27	0	1188036608	73	4773
2026-01-13 11:59:08.60	330.99	9.40	-53.7	-56.1	13.7	0.00e+00	0	26	0	1189085184	73	4792
2026-01-13 11:59:09.60	331.10	9.33	-53.6	-55.9	13.9	0.00e+00	0	26	0	1191182336	73	4661
2026-01-13 11:59:10.60	331.20	9.27	-53.6	-55.9	13.9	0.00e+00	0	26	0	1193279488	73	4686
2026-01-13 11:59:11.60	331.30	9.20	-53.6	-55.9	13.9	0.00e+00	0	26	0	1195376640	73	4674
2026-01-13 11:59:12.59	331.41	9.13	-53.6	-55.9	13.9	0.00e+00	0	26	0	1197473792	73	4676
2026-01-13 11:59:13.60	331.51	9.07	-53.5	-55.8	13.9	0.00e+00	0	26	0	1198522368	73	4644
2026-01-13 11:59:14.60	331.61	9.00	-53.6	-55.9	13.9	0.00e+00	0	26	0	1200619520	73	4667
2026-01-13 11:59:15.60	331.71	8.93	-53.7	-56.0	13.8	0.00e+00	0	26	0	1202716672	73	4749
2026-01-13 11:59:16.61	331.82	8.86	-53.8	-56.2	13.7	0.00e+00	0	26	0	1204813824	73	4864
2026-01-13 11:59:17.61	331.92	8.80	-53.7	-56.0	13.8	0.00e+00	0	26	0	1205862400	73	4758
2026-01-13 11:59:18.61	332.02	8.73	-53.6	-56.0	13.8	0.00e+00	0	26	0	1207959552	73	4721
2026-01-13 11:59:19.62	332.12	8.66	-53.6	-55.9	13.8	0.00e+00	0	26	0	1210056704	73	4676
2026-01-13 11:59:20.61	332.22	8.60	-53.5	-55.9	13.8	0.00e+00	0	26	0	1212153856	73	4666
2026-01-13 11:59:21.61	332.32	8.53	-53.5	-55.8	13.9	0.00e+00	0	26	0	1214251008	73	4651
