passes_logs/2026/01/13/R3.2S_Murmansk/R3.2S_Murmansk__20260113_090759_AQUA_rec.log

#Pass ID: 20260113_090759_AQUA
#Satellite: AQUA
#Configuration: AQUA
#almurnet v.1.7.20251203
#Start time: 2026-01-13 09:08:02

#Version: 2.2.20231116
#Station: R3.2S_Murmansk
#Location: 33.079688 lon 68.888172 lat
#TLE: 1 27424U 02022A   26012.97247290  .00000860  00000+0  18212-3 0  9996
#TLE: 2 27424  98.4079 339.3658 0002038  80.7891 349.4888 14.61817856260594

#Time	Az	El	Level	Level2	SNR	BER	BlckErr	Temp	State	Recorded	gain1	gain2
2026-01-13 09:08:02.05	101.02	2.13	-57.6	-76.9	3.8	7.49e-01	0	24	0	0	84	32268
2026-01-13 09:08:03.06	100.96	2.19	-57.4	-76.3	3.8	7.48e-01	0	24	104	0	82	33801
2026-01-13 09:08:04.07	100.90	2.26	-57.4	-76.3	3.8	7.48e-01	0	24	104	0	82	33963
2026-01-13 09:08:05.08	100.85	2.32	-57.4	-76.1	3.8	7.46e-01	0	24	104	0	82	33262
2026-01-13 09:08:06.09	100.79	2.38	-57.4	-76.5	3.8	7.47e-01	0	24	104	0	82	34652
2026-01-13 09:08:07.10	100.73	2.45	-57.4	-76.4	3.8	7.44e-01	0	24	104	0	82	34262
2026-01-13 09:08:08.11	100.67	2.51	-57.4	-76.5	3.8	7.46e-01	0	24	104	0	82	34579
2026-01-13 09:08:09.12	100.61	2.57	-57.4	-76.6	3.8	7.43e-01	0	24	104	0	82	34884
2026-01-13 09:08:10.13	100.55	2.64	-57.4	-76.6	3.8	7.48e-01	0	24	104	0	82	35074
2026-01-13 09:08:11.13	100.49	2.70	-57.4	-76.6	3.8	7.44e-01	0	24	104	0	82	35160
2026-01-13 09:08:12.15	100.43	2.76	-57.4	-76.7	3.8	7.49e-01	0	24	104	0	82	35295
2026-01-13 09:08:13.15	100.37	2.83	-57.4	-76.7	3.8	7.47e-01	0	24	104	0	82	35312
2026-01-13 09:08:14.16	100.30	2.89	-57.4	-76.6	3.8	7.47e-01	0	24	104	0	82	35104
2026-01-13 09:08:15.17	100.24	2.95	-57.4	-76.6	3.8	7.46e-01	0	24	104	0	82	35064
2026-01-13 09:08:16.18	100.18	3.02	-57.4	-76.6	3.8	7.47e-01	0	24	104	0	82	34958
2026-01-13 09:08:17.18	100.12	3.08	-57.4	-76.5	3.8	7.48e-01	0	24	104	0	82	34626
2026-01-13 09:08:18.20	100.06	3.15	-57.4	-76.4	3.8	7.44e-01	0	24	104	0	82	34158
2026-01-13 09:08:19.20	99.99	3.21	-57.4	-76.5	3.8	7.45e-01	0	24	104	0	82	34519
2026-01-13 09:08:20.21	99.93	3.28	-57.4	-76.5	3.8	7.48e-01	0	24	104	0	82	34551
2026-01-13 09:08:21.21	99.87	3.34	-57.4	-76.6	3.8	7.45e-01	0	24	104	0	82	35051
2026-01-13 09:08:22.22	99.80	3.41	-57.4	-76.5	3.8	7.48e-01	0	24	104	0	82	34819
2026-01-13 09:08:23.23	99.74	3.47	-57.4	-76.4	3.8	7.47e-01	0	24	104	0	82	34260
2026-01-13 09:08:24.24	99.68	3.54	-57.4	-76.1	3.8	7.50e-01	0	25	104	0	82	33028
2026-01-13 09:08:25.25	99.61	3.60	-57.4	-75.7	3.8	7.46e-01	0	25	104	0	82	31594
2026-01-13 09:08:26.26	99.55	3.67	-57.4	-75.7	3.8	7.43e-01	0	24	104	0	82	31484
2026-01-13 09:08:27.27	99.48	3.74	-57.4	-75.8	3.8	7.48e-01	0	25	104	0	82	31903
2026-01-13 09:08:28.28	99.41	3.80	-57.4	-76.1	3.8	7.45e-01	0	25	104	0	82	33079
2026-01-13 09:08:29.29	99.35	3.87	-57.4	-76.6	3.8	7.45e-01	0	25	104	0	82	35085
2026-01-13 09:08:30.30	99.28	3.93	-57.4	-76.6	3.8	7.44e-01	0	25	104	0	82	35143
2026-01-13 09:08:31.31	99.21	4.00	-57.4	-75.8	3.8	7.45e-01	0	25	104	0	82	32083
2026-01-13 09:08:32.32	99.15	4.07	-57.4	-74.4	3.9	7.43e-01	0	25	104	0	82	27108
2026-01-13 09:08:33.32	99.08	4.13	-57.3	-71.4	4.7	7.12e-01	0	25	104	0	82	19233
2026-01-13 09:08:34.33	99.01	4.20	-57.1	-69.1	6.2	6.77e-01	92	25	0	524288	82	14717
2026-01-13 09:08:35.34	98.94	4.27	-57.0	-67.3	7.6	6.48e-01	63	25	0	2621440	82	11977
2026-01-13 09:08:36.35	98.88	4.33	-56.9	-66.3	8.5	6.34e-01	0	25	0	4718592	82	10661
2026-01-13 09:08:37.36	98.81	4.40	-56.6	-64.5	10.0	6.17e-01	0	25	0	6291456	82	8758
2026-01-13 09:08:38.37	98.74	4.47	-56.3	-63.2	11.1	6.11e-01	0	25	0	8388608	81	7923
2026-01-13 09:08:39.38	98.67	4.54	-56.1	-62.6	11.5	6.09e-01	0	25	0	9961472	81	7436
2026-01-13 09:08:40.39	98.60	4.60	-55.8	-61.5	12.3	6.08e-01	0	25	0	12058624	80	6887
2026-01-13 09:08:41.39	98.53	4.67	-55.5	-60.7	12.9	6.10e-01	0	25	0	14155776	80	6280
2026-01-13 09:08:42.40	98.46	4.74	-55.2	-59.9	13.3	6.08e-01	0	25	0	15728640	79	6073
2026-01-13 09:08:43.41	98.39	4.81	-55.1	-59.6	13.4	6.07e-01	0	25	0	17825792	79	5921
2026-01-13 09:08:44.42	98.31	4.88	-55.4	-60.3	13.0	6.09e-01	0	25	0	19398656	79	6417
2026-01-13 09:08:45.43	98.24	4.94	-55.3	-60.1	13.1	6.06e-01	0	25	0	21495808	79	6236
2026-01-13 09:08:46.43	98.17	5.01	-55.5	-60.7	12.8	6.09e-01	0	25	0	23592960	79	6667
2026-01-13 09:08:47.44	98.10	5.08	-55.5	-60.5	12.8	6.08e-01	0	25	0	25165824	79	6566
2026-01-13 09:08:48.45	98.02	5.15	-54.0	-57.5	14.3	6.08e-01	0	25	0	27262976	77	5160
2026-01-13 09:08:49.46	97.95	5.22	-55.1	-59.5	13.7	6.08e-01	0	25	0	29360128	77	6552
2026-01-13 09:08:50.47	97.88	5.29	-55.8	-60.9	12.0	6.09e-01	0	25	0	30932992	80	6488
2026-01-13 09:08:51.48	97.80	5.36	-52.1	-54.5	15.2	6.05e-01	0	25	0	33030144	73	4608
2026-01-13 09:08:52.49	97.73	5.43	-53.0	-55.9	14.8	6.07e-01	0	25	0	34603008	75	4832
2026-01-13 09:08:53.49	97.65	5.50	-51.8	-54.2	15.2	6.07e-01	0	25	0	36700160	72	4706
2026-01-13 09:08:54.50	97.58	5.57	-51.8	-54.1	15.2	6.06e-01	0	25	0	38797312	72	4682
2026-01-13 09:08:55.51	97.50	5.64	-51.4	-53.6	15.4	6.07e-01	0	25	0	40370176	72	4428
2026-01-13 09:08:56.51	97.43	5.71	-51.3	-53.4	15.3	6.05e-01	0	25	0	42467328	71	4583
2026-01-13 09:08:57.52	97.35	5.78	-51.3	-53.4	15.3	6.06e-01	0	25	0	44040192	71	4597
2026-01-13 09:08:58.52	97.27	5.85	-51.1	-53.2	15.4	6.08e-01	0	25	0	46137344	71	4479
2026-01-13 09:08:59.53	97.19	5.92	-51.0	-53.0	15.5	6.06e-01	0	25	0	47710208	71	4378
2026-01-13 09:09:00.53	97.12	5.99	-51.1	-53.2	15.4	6.05e-01	0	25	0	49807360	71	4464
2026-01-13 09:09:01.54	97.04	6.06	-51.2	-53.3	15.4	6.05e-01	0	25	0	51904512	71	4511
2026-01-13 09:09:02.55	96.96	6.13	-51.2	-53.3	15.4	6.05e-01	0	25	0	53477376	71	4507
2026-01-13 09:09:03.56	96.88	6.20	-51.0	-53.0	15.5	6.07e-01	0	25	0	55574528	71	4369
2026-01-13 09:09:04.56	96.80	6.27	-50.9	-52.9	15.4	6.07e-01	0	25	0	57671680	70	4585
2026-01-13 09:09:05.57	96.72	6.35	-51.0	-53.1	15.3	6.07e-01	0	25	0	59244544	70	4695
2026-01-13 09:09:06.58	96.64	6.42	-51.0	-53.1	15.3	6.07e-01	0	25	0	61341696	70	4660
2026-01-13 09:09:07.59	96.56	6.49	-50.9	-53.0	15.3	6.03e-01	0	25	0	62914560	70	4620
2026-01-13 09:09:08.60	96.48	6.56	-50.9	-53.0	15.3	6.04e-01	0	25	0	65011712	70	4615
2026-01-13 09:09:09.60	96.40	6.63	-51.0	-53.0	15.3	6.07e-01	0	25	0	67108864	70	4648
2026-01-13 09:09:10.62	96.31	6.71	-50.8	-52.8	15.4	6.07e-01	0	25	0	68681728	70	4528
2026-01-13 09:09:11.62	96.23	6.78	-50.8	-52.8	15.4	6.05e-01	0	25	0	70778880	70	4527
2026-01-13 09:09:12.63	96.15	6.85	-50.8	-52.9	15.4	6.07e-01	0	25	0	72351744	70	4548
2026-01-13 09:09:13.64	96.06	6.93	-50.8	-52.8	15.4	6.07e-01	0	25	0	74448896	70	4523
2026-01-13 09:09:14.65	95.98	7.00	-50.8	-52.8	15.4	6.05e-01	0	25	0	76546048	70	4532
2026-01-13 09:09:15.66	95.89	7.07	-50.8	-52.9	15.4	6.07e-01	0	25	0	78118912	70	4552
2026-01-13 09:09:16.67	95.81	7.15	-50.7	-52.7	15.4	6.07e-01	0	25	0	80216064	70	4466
2026-01-13 09:09:17.68	95.72	7.22	-50.7	-52.7	15.4	6.05e-01	0	25	0	81788928	70	4486
2026-01-13 09:09:18.69	95.64	7.29	-50.7	-52.7	15.4	6.05e-01	0	25	0	83886080	70	4452
2026-01-13 09:09:19.69	95.55	7.37	-50.7	-52.7	15.4	6.06e-01	0	25	0	85983232	70	4475
2026-01-13 09:09:20.70	95.46	7.44	-50.7	-52.7	15.4	6.05e-01	0	25	0	87556096	70	4464
2026-01-13 09:09:21.71	95.37	7.52	-50.6	-52.5	15.5	6.07e-01	0	25	0	89653248	70	4385
2026-01-13 09:09:22.72	95.29	7.59	-50.7	-52.7	15.4	6.05e-01	0	25	0	91226112	70	4464
2026-01-13 09:09:23.73	95.20	7.67	-50.6	-52.6	15.5	6.04e-01	0	25	0	93323264	70	4395
2026-01-13 09:09:24.74	95.11	7.74	-50.7	-52.6	15.5	6.09e-01	0	25	0	95420416	70	4429
2026-01-13 09:09:25.75	95.02	7.82	-50.6	-52.5	15.5	6.05e-01	0	25	0	96993280	70	4391
2026-01-13 09:09:26.76	94.93	7.89	-50.6	-52.5	15.5	6.04e-01	0	25	0	99090432	70	4384
2026-01-13 09:09:27.76	94.84	7.97	-50.6	-52.5	15.5	6.08e-01	0	25	0	100663296	70	4360
2026-01-13 09:09:28.77	94.74	8.04	-50.5	-52.5	15.5	6.07e-01	0	25	0	102760448	70	4344
2026-01-13 09:09:29.78	94.65	8.12	-50.4	-52.3	15.6	6.06e-01	0	25	0	104857600	70	4288
2026-01-13 09:09:30.79	94.56	8.20	-50.5	-52.4	15.6	6.06e-01	0	25	0	106430464	70	4303
2026-01-13 09:09:31.80	94.47	8.27	-50.3	-52.3	15.4	6.06e-01	0	25	0	108527616	69	4494
2026-01-13 09:09:32.81	94.37	8.35	-50.3	-52.2	15.4	6.06e-01	0	25	0	110624768	69	4479
2026-01-13 09:09:33.82	94.28	8.43	-50.3	-52.2	15.5	6.07e-01	0	25	0	112197632	69	4472
2026-01-13 09:09:34.83	94.18	8.50	-50.4	-52.3	15.4	6.06e-01	0	25	0	114294784	69	4503
2026-01-13 09:09:35.83	94.09	8.58	-50.4	-52.3	15.4	6.08e-01	0	25	0	115867648	69	4522
2026-01-13 09:09:36.84	93.99	8.66	-50.4	-52.3	15.4	6.03e-01	0	25	0	117964800	69	4529
2026-01-13 09:09:37.85	93.90	8.74	-50.3	-52.2	15.4	6.05e-01	0	25	0	120061952	69	4492
2026-01-13 09:09:38.86	93.80	8.81	-50.3	-52.1	15.5	6.07e-01	0	25	0	121634816	69	4440
2026-01-13 09:09:39.87	93.70	8.89	-50.3	-52.2	15.5	6.03e-01	0	25	0	123731968	69	4465
2026-01-13 09:09:40.87	93.60	8.97	-50.2	-52.1	15.5	6.06e-01	0	25	0	125304832	69	4429
2026-01-13 09:09:41.89	93.51	9.05	-50.2	-52.1	15.5	6.06e-01	0	25	0	127401984	69	4414
2026-01-13 09:09:42.89	93.41	9.13	-50.2	-52.0	15.5	6.06e-01	0	25	0	128974848	69	4387
2026-01-13 09:09:43.90	93.31	9.20	-50.1	-52.0	15.5	6.06e-01	0	25	0	131072000	69	4360
2026-01-13 09:09:44.91	93.21	9.28	-50.1	-51.9	15.6	6.07e-01	0	25	0	133169152	69	4314
2026-01-13 09:09:45.92	93.10	9.36	-50.0	-51.9	15.6	6.09e-01	0	25	0	134742016	69	4300
2026-01-13 09:09:46.92	93.00	9.44	-50.1	-51.9	15.6	6.07e-01	0	25	0	136839168	69	4324
2026-01-13 09:09:47.93	92.90	9.52	-50.1	-51.9	15.5	6.04e-01	0	25	0	138936320	69	4331
2026-01-13 09:09:48.94	92.80	9.60	-50.0	-51.8	15.6	6.05e-01	0	25	0	140509184	69	4285
2026-01-13 09:09:49.95	92.69	9.68	-50.1	-51.9	15.6	6.07e-01	0	25	0	142606336	69	4310
2026-01-13 09:09:50.95	92.59	9.76	-50.1	-52.0	15.5	6.06e-01	0	25	0	144179200	69	4343
2026-01-13 09:09:51.95	92.49	9.84	-50.0	-51.9	15.6	6.06e-01	0	25	0	146276352	69	4299
2026-01-13 09:09:52.97	92.38	9.92	-50.0	-51.8	15.6	6.07e-01	0	25	0	148373504	69	4276
2026-01-13 09:09:53.98	92.27	10.00	-50.0	-51.9	15.6	6.06e-01	0	25	0	149946368	69	4296
2026-01-13 09:09:54.99	92.17	10.08	-50.0	-51.8	15.6	6.10e-01	0	25	0	152043520	69	4265
2026-01-13 09:09:56.00	92.06	10.16	-50.0	-51.8	15.6	6.06e-01	0	25	0	154140672	69	4272
2026-01-13 09:09:57.00	91.95	10.24	-50.0	-51.8	15.6	6.05e-01	0	25	0	155713536	69	4270
2026-01-13 09:09:58.02	91.84	10.33	-50.0	-51.8	15.6	6.08e-01	0	25	0	157810688	69	4274
2026-01-13 09:09:59.02	91.73	10.41	-49.9	-51.7	15.6	6.06e-01	0	25	0	159383552	69	4219
2026-01-13 09:10:00.03	91.62	10.49	-50.0	-51.8	15.6	6.06e-01	0	25	0	161480704	69	4271
2026-01-13 09:10:01.04	91.51	10.57	-49.9	-51.7	15.6	6.03e-01	0	25	0	163053568	69	4234
2026-01-13 09:10:02.05	91.40	10.65	-49.9	-51.7	15.6	6.07e-01	0	25	0	165150720	69	4197
2026-01-13 09:10:03.06	91.29	10.74	-49.9	-51.7	15.5	6.06e-01	0	25	0	167247872	68	4460
2026-01-13 09:10:04.07	91.17	10.82	-49.9	-51.7	15.5	6.05e-01	0	25	0	168820736	68	4450
2026-01-13 09:10:05.07	91.06	10.90	-49.8	-51.6	15.5	6.05e-01	0	25	0	170917888	68	4421
2026-01-13 09:10:06.08	90.95	10.99	-49.8	-51.6	15.5	6.07e-01	0	25	0	172490752	68	4424
2026-01-13 09:10:07.09	90.83	11.07	-49.8	-51.6	15.5	6.07e-01	0	25	0	174587904	68	4421
2026-01-13 09:10:08.09	90.72	11.15	-49.9	-51.7	15.5	6.06e-01	0	25	0	176685056	68	4476
2026-01-13 09:10:09.10	90.60	11.24	-49.8	-51.6	15.5	6.07e-01	0	26	0	178257920	68	4403
2026-01-13 09:10:10.11	90.48	11.32	-49.8	-51.5	15.5	6.05e-01	0	25	0	180355072	68	4387
2026-01-13 09:10:11.11	90.37	11.40	-49.8	-51.5	15.5	6.07e-01	0	25	0	182452224	68	4384
2026-01-13 09:10:12.12	90.25	11.49	-49.8	-51.5	15.5	6.08e-01	0	25	0	184025088	68	4376
2026-01-13 09:10:13.13	90.13	11.57	-49.9	-51.6	15.5	6.08e-01	0	25	0	186122240	68	4438
2026-01-13 09:10:14.14	90.01	11.66	-49.7	-51.5	15.5	6.07e-01	0	25	0	187695104	68	4366
2026-01-13 09:10:15.14	89.89	11.74	-49.8	-51.5	15.5	6.05e-01	0	26	0	189792256	68	4373
2026-01-13 09:10:16.15	89.76	11.83	-49.8	-51.5	15.5	6.05e-01	0	25	0	191889408	68	4372
2026-01-13 09:10:17.16	89.64	11.91	-49.6	-51.3	15.6	6.03e-01	0	25	0	193462272	68	4276
2026-01-13 09:10:18.16	89.52	12.00	-49.6	-51.4	15.6	6.07e-01	0	26	0	195559424	68	4294
2026-01-13 09:10:19.17	89.39	12.08	-49.6	-51.3	15.6	6.06e-01	0	25	0	197132288	68	4267
2026-01-13 09:10:20.17	89.27	12.17	-49.7	-51.5	15.5	6.07e-01	0	25	0	199229440	68	4342
2026-01-13 09:10:21.18	89.14	12.25	-49.5	-51.3	15.6	6.04e-01	0	25	0	200802304	68	4246
2026-01-13 09:10:22.19	89.02	12.34	-49.5	-51.3	15.6	6.02e-01	0	25	0	202899456	68	4247
2026-01-13 09:10:23.20	88.89	12.43	-49.6	-51.3	15.6	6.06e-01	0	25	0	204996608	68	4269
2026-01-13 09:10:24.21	88.76	12.52	-49.4	-51.1	15.7	6.06e-01	0	26	0	206569472	68	4182
2026-01-13 09:10:25.22	88.63	12.60	-49.4	-51.1	15.7	6.05e-01	0	25	0	208666624	68	4176
2026-01-13 09:10:26.23	88.50	12.69	-49.5	-51.2	15.6	6.06e-01	0	25	0	210763776	68	4214
2026-01-13 09:10:27.24	88.37	12.78	-49.5	-51.2	15.6	6.06e-01	0	26	0	212336640	68	4216
2026-01-13 09:10:28.25	88.24	12.87	-49.4	-51.1	15.7	6.05e-01	0	25	0	214433792	68	4175
2026-01-13 09:10:29.25	88.11	12.95	-49.4	-51.1	15.7	6.05e-01	0	26	0	216006656	68	4162
2026-01-13 09:10:30.26	87.97	13.04	-49.4	-51.1	15.7	6.05e-01	0	25	0	218103808	68	4158
2026-01-13 09:10:31.27	87.84	13.13	-49.5	-51.2	15.6	6.06e-01	0	25	0	220200960	68	4213
2026-01-13 09:10:32.28	87.71	13.22	-49.5	-51.2	15.6	6.06e-01	0	26	0	221773824	68	4230
2026-01-13 09:10:33.28	87.57	13.31	-49.4	-51.1	15.7	6.06e-01	0	25	0	223870976	68	4151
2026-01-13 09:10:34.29	87.43	13.39	-49.5	-51.1	15.7	6.08e-01	0	26	0	225443840	68	4191
2026-01-13 09:10:35.29	87.30	13.48	-49.4	-51.1	15.7	6.07e-01	0	25	0	227540992	68	4180
2026-01-13 09:10:36.30	87.16	13.57	-49.5	-51.1	15.6	6.05e-01	0	25	0	229638144	68	4188
2026-01-13 09:10:37.31	87.02	13.66	-49.4	-51.1	15.7	6.06e-01	0	26	0	231211008	68	4146
2026-01-13 09:10:38.32	86.88	13.75	-49.5	-51.2	15.6	6.06e-01	0	25	0	233308160	68	4201
2026-01-13 09:10:39.33	86.74	13.84	-49.5	-51.2	15.6	6.04e-01	0	25	0	234881024	68	4206
2026-01-13 09:10:40.34	86.59	13.93	-49.4	-51.1	15.7	6.05e-01	0	25	0	236978176	68	4166
2026-01-13 09:10:41.35	86.45	14.02	-49.4	-51.1	15.7	6.03e-01	0	25	0	239075328	68	4177
2026-01-13 09:10:42.35	86.31	14.11	-49.4	-51.0	15.7	6.06e-01	0	25	0	240648192	68	4141
2026-01-13 09:10:43.36	86.16	14.20	-49.3	-50.9	15.6	6.05e-01	0	25	0	242745344	67	4324
2026-01-13 09:10:44.37	86.01	14.29	-49.3	-50.9	15.6	6.06e-01	0	25	0	244318208	67	4328
2026-01-13 09:10:45.38	85.87	14.39	-49.2	-50.8	15.6	6.02e-01	0	25	0	246415360	67	4286
2026-01-13 09:10:46.39	85.72	14.48	-49.3	-51.0	15.6	6.06e-01	0	26	0	248512512	67	4363
2026-01-13 09:10:47.39	85.57	14.57	-49.2	-50.8	15.6	6.05e-01	0	25	0	250085376	67	4286
2026-01-13 09:10:48.40	85.42	14.66	-49.2	-50.8	15.6	6.06e-01	0	25	0	252182528	67	4290
2026-01-13 09:10:49.41	85.27	14.75	-49.1	-50.8	15.6	6.05e-01	0	25	0	253755392	67	4261
2026-01-13 09:10:50.42	85.12	14.84	-49.2	-50.9	15.6	6.05e-01	0	25	0	255852544	67	4303
2026-01-13 09:10:51.43	84.96	14.94	-49.2	-50.8	15.6	6.06e-01	0	26	0	257949696	67	4274
2026-01-13 09:10:52.44	84.81	15.03	-49.2	-50.9	15.6	6.07e-01	0	26	0	259522560	67	4297
2026-01-13 09:10:53.45	84.65	15.12	-49.1	-50.8	15.6	6.07e-01	0	25	0	261619712	67	4256
2026-01-13 09:10:54.46	84.50	15.21	-49.2	-50.8	15.6	6.03e-01	0	25	0	263716864	67	4273
2026-01-13 09:10:55.46	84.34	15.31	-49.3	-50.9	15.6	6.06e-01	0	25	0	265289728	67	4323
2026-01-13 09:10:56.47	84.18	15.40	-49.2	-50.9	15.6	6.08e-01	0	26	0	267386880	67	4295
2026-01-13 09:10:57.48	84.02	15.49	-49.1	-50.7	15.6	6.07e-01	0	26	0	268959744	67	4240
2026-01-13 09:10:58.48	83.86	15.59	-49.1	-50.8	15.6	6.06e-01	0	26	0	271056896	67	4253
2026-01-13 09:10:59.49	83.70	15.68	-49.1	-50.8	15.6	6.05e-01	0	25	0	272629760	67	4262
2026-01-13 09:11:00.50	83.54	15.77	-49.2	-50.8	15.6	6.05e-01	0	25	0	274726912	67	4269
2026-01-13 09:11:01.51	83.37	15.87	-49.2	-50.9	15.6	6.06e-01	0	26	0	276824064	67	4296
2026-01-13 09:11:02.52	83.21	15.96	-49.3	-51.0	15.3	6.05e-01	0	25	0	278396928	67	4354
2026-01-13 09:11:03.53	83.04	16.06	-49.3	-51.0	15.5	6.06e-01	0	26	0	280494080	67	4364
2026-01-13 09:11:04.54	82.87	16.15	-49.4	-51.1	15.5	6.05e-01	0	26	0	282066944	67	4394
2026-01-13 09:11:05.54	82.71	16.25	-49.2	-50.9	15.6	6.05e-01	0	25	0	284164096	67	4309
2026-01-13 09:11:06.55	82.54	16.34	-49.3	-50.9	15.6	6.06e-01	0	26	0	286261248	67	4330
2026-01-13 09:11:07.56	82.36	16.44	-49.2	-50.8	15.6	6.06e-01	0	25	0	287834112	67	4261
2026-01-13 09:11:08.57	82.19	16.53	-49.1	-50.7	15.6	6.06e-01	0	25	0	289931264	67	4237
2026-01-13 09:11:09.58	82.02	16.63	-49.2	-50.8	15.6	6.05e-01	0	26	0	292028416	67	4278
2026-01-13 09:11:10.59	81.84	16.72	-49.1	-50.8	15.6	6.03e-01	0	25	0	293601280	67	4251
2026-01-13 09:11:11.59	81.67	16.82	-49.2	-50.8	15.6	6.07e-01	0	25	0	295698432	67	4289
2026-01-13 09:11:12.60	81.49	16.91	-49.2	-50.9	15.6	6.06e-01	0	25	0	297271296	67	4299
2026-01-13 09:11:13.61	81.31	17.01	-49.2	-50.9	15.6	6.05e-01	0	26	0	299368448	67	4307
2026-01-13 09:11:14.62	81.13	17.11	-49.2	-50.8	15.6	6.03e-01	0	25	0	301465600	67	4263
2026-01-13 09:11:15.62	80.96	17.20	-49.3	-50.9	15.6	6.00e-01	0	25	0	303038464	67	4319
2026-01-13 09:11:16.63	80.77	17.30	-49.2	-50.8	15.6	6.00e-01	0	25	0	305135616	67	4288
2026-01-13 09:11:17.63	80.59	17.39	-49.2	-50.8	15.6	6.00e-01	0	25	0	306708480	67	4278
2026-01-13 09:11:18.64	80.41	17.49	-49.2	-50.8	15.6	6.01e-01	0	25	0	308805632	67	4281
2026-01-13 09:11:19.65	80.22	17.59	-49.2	-50.9	15.6	6.00e-01	0	25	0	310902784	67	4299
2026-01-13 09:11:20.66	80.04	17.68	-49.2	-50.8	15.6	6.00e-01	0	25	0	312475648	67	4290
2026-01-13 09:11:21.67	79.85	17.78	-49.3	-50.9	15.6	6.01e-01	0	26	0	314572800	67	4319
2026-01-13 09:11:22.68	79.66	17.88	-49.3	-51.0	15.5	6.00e-01	0	25	0	316145664	67	4364
2026-01-13 09:11:23.69	79.47	17.98	-49.4	-51.1	15.5	5.99e-01	0	26	0	318242816	67	4398
2026-01-13 09:11:24.70	79.27	18.07	-49.2	-50.8	15.6	6.00e-01	0	25	0	320339968	67	4269
2026-01-13 09:11:25.71	79.08	18.17	-49.3	-50.9	15.6	6.00e-01	0	25	0	321912832	67	4311
2026-01-13 09:11:26.72	78.89	18.27	-49.2	-50.9	15.6	5.99e-01	0	25	0	324009984	67	4296
2026-01-13 09:11:27.73	78.69	18.37	-49.1	-50.8	15.6	6.01e-01	0	26	0	325582848	67	4246
2026-01-13 09:11:28.74	78.49	18.46	-49.3	-50.9	15.6	6.01e-01	0	26	0	327680000	67	4331
2026-01-13 09:11:29.75	78.29	18.56	-49.3	-50.9	15.6	6.03e-01	0	25	0	329777152	67	4320
2026-01-13 09:11:30.75	78.09	18.66	-49.3	-51.0	15.6	5.98e-01	0	25	0	331350016	67	4348
2026-01-13 09:11:31.76	77.89	18.76	-49.2	-50.9	15.6	6.00e-01	0	25	0	333447168	67	4294
2026-01-13 09:11:32.77	77.69	18.86	-49.2	-50.8	15.6	6.01e-01	0	26	0	335544320	67	4276
2026-01-13 09:11:33.78	77.48	18.95	-49.3	-50.9	15.6	6.01e-01	0	25	0	337117184	67	4315
2026-01-13 09:11:34.79	77.28	19.05	-49.3	-50.9	15.5	6.01e-01	0	25	0	339214336	67	4338
2026-01-13 09:11:35.79	77.07	19.15	-49.1	-50.8	15.6	6.00e-01	0	26	0	340787200	67	4244
2026-01-13 09:11:36.80	76.86	19.25	-49.2	-50.8	15.6	6.00e-01	0	25	0	342884352	67	4257
2026-01-13 09:11:37.81	76.65	19.35	-49.3	-51.0	15.5	6.00e-01	0	25	0	344981504	67	4341
2026-01-13 09:11:38.82	76.44	19.44	-49.3	-50.9	15.5	6.00e-01	0	26	0	346554368	67	4339
2026-01-13 09:11:39.82	76.23	19.54	-49.4	-51.1	15.5	6.00e-01	0	26	0	348651520	67	4413
2026-01-13 09:11:40.83	76.02	19.64	-49.5	-51.1	15.5	6.01e-01	0	25	0	350224384	67	4440
2026-01-13 09:11:41.84	75.80	19.74	-49.5	-51.1	15.5	6.01e-01	0	25	0	352321536	67	4439
2026-01-13 09:11:42.84	75.59	19.84	-49.5	-51.1	15.5	6.01e-01	0	25	0	353894400	67	4433
2026-01-13 09:11:43.85	75.37	19.94	-49.4	-51.1	15.5	6.00e-01	0	25	0	355991552	67	4404
2026-01-13 09:11:44.86	75.15	20.03	-49.5	-51.1	15.5	5.99e-01	0	25	0	358088704	67	4423
2026-01-13 09:11:45.86	74.93	20.13	-49.4	-51.0	15.5	6.00e-01	0	25	0	359661568	67	4380
2026-01-13 09:11:46.87	74.70	20.23	-49.3	-51.0	15.5	6.03e-01	0	26	0	361758720	67	4355
2026-01-13 09:11:47.87	74.48	20.33	-49.4	-51.1	15.5	6.01e-01	0	25	0	363855872	67	4400
2026-01-13 09:11:48.88	74.25	20.43	-49.4	-51.1	15.5	6.01e-01	0	25	0	365428736	67	4398
2026-01-13 09:11:49.89	74.03	20.52	-49.3	-50.9	15.6	6.01e-01	0	25	0	367525888	67	4308
2026-01-13 09:11:50.89	73.80	20.62	-49.3	-51.0	15.5	6.04e-01	0	26	0	369098752	67	4350
2026-01-13 09:11:51.89	73.57	20.72	-49.3	-51.0	15.5	6.02e-01	0	26	0	371195904	67	4358
2026-01-13 09:11:52.90	73.34	20.82	-49.4	-51.0	15.5	6.00e-01	0	26	0	373293056	67	4370
2026-01-13 09:11:53.91	73.10	20.92	-49.5	-51.1	15.5	6.03e-01	0	26	0	374865920	67	4427
2026-01-13 09:11:54.92	72.87	21.01	-49.4	-51.1	15.5	6.01e-01	0	25	0	376963072	67	4416
2026-01-13 09:11:55.92	72.63	21.11	-49.5	-51.1	15.5	6.00e-01	0	25	0	378535936	67	4433
2026-01-13 09:11:56.93	72.39	21.21	-49.6	-51.2	15.5	6.01e-01	0	26	0	380633088	67	4482
2026-01-13 09:11:57.94	72.15	21.31	-49.5	-51.1	15.5	6.03e-01	0	25	0	382205952	67	4422
2026-01-13 09:11:58.95	71.91	21.40	-49.5	-51.2	15.5	6.01e-01	0	26	0	384303104	67	4460
2026-01-13 09:11:59.96	71.66	21.50	-49.6	-51.3	15.5	6.00e-01	0	25	0	386400256	67	4504
2026-01-13 09:12:00.97	71.42	21.60	-49.7	-51.4	15.4	6.00e-01	0	25	0	387973120	67	4546
2026-01-13 09:12:01.98	71.17	21.70	-49.5	-51.2	15.5	6.01e-01	0	26	0	390070272	67	4453
2026-01-13 09:12:02.99	70.92	21.79	-49.6	-51.3	15.5	6.00e-01	0	25	0	392167424	67	4501
2026-01-13 09:12:03.99	70.67	21.89	-49.7	-51.3	15.4	5.98e-01	0	26	0	393740288	67	4545
2026-01-13 09:12:05.00	70.42	21.99	-49.5	-51.1	15.5	6.06e-01	0	26	0	395837440	67	4439
2026-01-13 09:12:06.01	70.17	22.08	-49.5	-51.2	15.5	6.01e-01	0	25	0	397410304	67	4442
2026-01-13 09:12:07.02	69.91	22.18	-49.6	-51.3	15.5	6.00e-01	0	25	0	399507456	67	4510
2026-01-13 09:12:08.02	69.66	22.28	-49.6	-51.3	15.5	6.02e-01	0	25	0	401604608	67	4504
2026-01-13 09:12:09.03	69.40	22.37	-49.5	-51.2	15.5	6.00e-01	0	26	0	403177472	67	4446
2026-01-13 09:12:10.04	69.14	22.47	-49.6	-51.3	15.4	6.01e-01	0	26	0	405274624	67	4498
2026-01-13 09:12:11.05	68.87	22.56	-49.5	-51.2	15.5	6.01e-01	0	25	0	406847488	67	4470
2026-01-13 09:12:12.05	68.61	22.66	-49.7	-51.4	15.4	6.01e-01	0	26	0	408944640	67	4550
2026-01-13 09:12:13.06	68.35	22.75	-49.6	-51.3	15.5	6.01e-01	0	25	0	411041792	67	4494
2026-01-13 09:12:14.07	68.08	22.85	-49.6	-51.3	15.4	6.01e-01	0	26	0	412614656	67	4506
2026-01-13 09:12:15.08	67.81	22.94	-49.6	-51.3	15.4	6.01e-01	0	26	0	414711808	67	4525
2026-01-13 09:12:16.09	67.54	23.04	-49.6	-51.2	15.4	5.99e-01	0	25	0	416284672	67	4490
2026-01-13 09:12:17.10	67.27	23.13	-49.5	-51.2	15.5	6.00e-01	0	26	0	418381824	67	4447
2026-01-13 09:12:18.11	66.99	23.23	-49.6	-51.2	15.5	6.00e-01	0	26	0	420478976	67	4484
2026-01-13 09:12:19.12	66.72	23.32	-49.6	-51.2	15.5	6.01e-01	0	25	0	422051840	67	4486
2026-01-13 09:12:20.13	66.44	23.41	-49.5	-51.2	15.5	6.01e-01	0	26	0	424148992	67	4453
2026-01-13 09:12:21.13	66.16	23.50	-49.5	-51.2	15.5	6.00e-01	0	26	0	425721856	67	4464
2026-01-13 09:12:22.14	65.88	23.60	-49.5	-51.2	15.5	5.99e-01	0	25	0	427819008	67	4470
2026-01-13 09:12:23.15	65.60	23.69	-49.5	-51.2	15.5	6.01e-01	0	26	0	429916160	67	4468
2026-01-13 09:12:24.16	65.31	23.78	-49.6	-51.2	15.5	6.01e-01	0	25	0	431489024	67	4475
2026-01-13 09:12:25.17	65.03	23.87	-49.7	-51.3	15.4	6.00e-01	0	25	0	433586176	67	4545
2026-01-13 09:12:26.17	64.74	23.96	-49.7	-51.4	15.4	6.02e-01	0	26	0	435159040	67	4561
2026-01-13 09:12:27.18	64.45	24.05	-49.7	-51.3	15.4	6.02e-01	0	26	0	437256192	67	4541
2026-01-13 09:12:28.19	64.16	24.14	-49.7	-51.4	15.4	6.01e-01	0	25	0	439353344	67	4549
2026-01-13 09:12:29.20	63.87	24.23	-49.6	-51.2	15.4	6.02e-01	0	26	0	440926208	67	4480
2026-01-13 09:12:30.21	63.57	24.32	-49.5	-51.2	15.5	5.98e-01	0	25	0	443023360	67	4467
2026-01-13 09:12:31.22	63.27	24.41	-49.5	-51.2	15.5	6.03e-01	0	26	0	445120512	67	4466
2026-01-13 09:12:32.23	62.97	24.50	-49.5	-51.2	15.5	6.01e-01	0	26	0	446693376	67	4461
2026-01-13 09:12:33.24	62.67	24.58	-49.7	-51.3	15.4	6.00e-01	0	25	0	448790528	67	4533
2026-01-13 09:12:34.24	62.37	24.67	-49.6	-51.3	15.4	6.00e-01	0	25	0	450363392	67	4498
2026-01-13 09:12:35.25	62.07	24.76	-49.7	-51.4	15.4	6.02e-01	0	25	0	452460544	67	4591
2026-01-13 09:12:36.26	61.76	24.84	-49.6	-51.3	15.5	6.00e-01	0	26	0	454557696	67	4517
2026-01-13 09:12:37.27	61.46	24.93	-49.6	-51.3	15.4	6.01e-01	0	25	0	456130560	67	4525
2026-01-13 09:12:38.28	61.15	25.01	-49.7	-51.3	15.4	6.00e-01	0	26	0	458227712	67	4533
2026-01-13 09:12:39.29	60.84	25.10	-49.6	-51.2	15.4	5.99e-01	0	26	0	459800576	67	4477
2026-01-13 09:12:40.30	60.52	25.18	-49.5	-51.2	15.5	5.99e-01	0	26	0	461897728	67	4442
2026-01-13 09:12:41.31	60.21	25.27	-49.5	-51.1	15.5	6.00e-01	0	25	0	463994880	67	4410
2026-01-13 09:12:42.32	59.89	25.35	-49.6	-51.3	15.4	6.03e-01	0	26	0	465567744	67	4507
2026-01-13 09:12:43.33	59.57	25.43	-49.6	-51.3	15.4	6.02e-01	0	26	0	467664896	67	4520
2026-01-13 09:12:44.34	59.25	25.51	-49.7	-51.3	15.4	6.01e-01	0	26	0	469237760	67	4531
2026-01-13 09:12:45.35	58.93	25.59	-49.7	-51.3	15.4	6.03e-01	0	26	0	471334912	67	4527
2026-01-13 09:12:46.36	58.61	25.67	-49.5	-51.2	15.5	5.99e-01	0	25	0	473432064	67	4454
2026-01-13 09:12:47.37	58.28	25.75	-49.5	-51.2	15.5	6.00e-01	0	26	0	475004928	67	4447
2026-01-13 09:12:48.38	57.96	25.83	-49.4	-51.0	15.5	6.01e-01	0	26	0	477102080	67	4383
2026-01-13 09:12:49.39	57.63	25.91	-49.4	-51.1	15.5	6.01e-01	0	26	0	478674944	67	4395
2026-01-13 09:12:50.40	57.30	25.98	-49.4	-51.0	15.5	6.01e-01	0	26	0	480772096	67	4380
2026-01-13 09:12:51.40	56.97	26.06	-49.4	-51.1	15.5	6.01e-01	0	26	0	482869248	67	4402
2026-01-13 09:12:52.41	56.64	26.13	-49.3	-50.9	15.5	6.00e-01	0	25	0	484442112	67	4320
2026-01-13 09:12:53.42	56.30	26.21	-49.4	-51.0	15.5	6.00e-01	0	26	0	486539264	67	4361
2026-01-13 09:12:54.43	55.97	26.28	-49.4	-51.1	15.5	6.01e-01	0	26	0	488636416	67	4400
2026-01-13 09:12:55.44	55.63	26.35	-49.5	-51.1	15.5	6.01e-01	0	26	0	490209280	67	4429
2026-01-13 09:12:56.45	55.29	26.42	-49.5	-51.2	15.5	6.00e-01	0	26	0	492306432	67	4456
2026-01-13 09:12:57.46	54.95	26.50	-49.4	-51.1	15.5	6.01e-01	0	26	0	493879296	67	4395
2026-01-13 09:12:58.47	54.61	26.57	-49.4	-51.1	15.5	6.01e-01	0	26	0	495976448	67	4393
2026-01-13 09:12:59.48	54.26	26.63	-49.4	-51.1	15.5	6.01e-01	0	25	0	498073600	67	4392
2026-01-13 09:13:00.49	53.91	26.70	-49.4	-51.0	15.5	6.00e-01	0	26	0	499646464	67	4366
2026-01-13 09:13:01.49	53.57	26.77	-49.4	-51.1	15.5	6.01e-01	0	26	0	501743616	67	4396
2026-01-13 09:13:02.50	53.22	26.84	-49.4	-51.0	15.5	6.01e-01	0	26	0	503316480	67	4371
2026-01-13 09:13:03.51	52.87	26.90	-49.4	-51.0	15.5	6.03e-01	0	26	0	505413632	67	4375
2026-01-13 09:13:04.52	52.52	26.97	-49.5	-51.1	15.5	6.00e-01	0	26	0	507510784	67	4407
2026-01-13 09:13:05.53	52.17	27.03	-49.3	-50.9	15.6	6.00e-01	0	26	0	509083648	67	4294
2026-01-13 09:13:06.53	51.81	27.09	-49.2	-50.9	15.6	6.03e-01	0	26	0	511180800	67	4294
2026-01-13 09:13:07.54	51.46	27.15	-49.4	-51.0	15.5	6.01e-01	0	25	0	512753664	67	4375
2026-01-13 09:13:08.54	51.10	27.21	-49.3	-50.9	15.6	6.00e-01	0	26	0	514850816	67	4320
2026-01-13 09:13:09.55	50.74	27.27	-49.3	-50.9	15.6	6.03e-01	0	26	0	516947968	67	4328
2026-01-13 09:13:10.56	50.38	27.33	-49.4	-51.0	15.5	5.99e-01	0	26	0	518520832	67	4367
2026-01-13 09:13:11.57	50.02	27.39	-49.3	-50.9	15.5	6.00e-01	0	26	0	520617984	67	4333
2026-01-13 09:13:12.57	49.66	27.44	-49.3	-50.9	15.6	6.01e-01	0	26	0	522190848	67	4311
2026-01-13 09:13:13.58	49.30	27.50	-49.3	-50.9	15.6	6.01e-01	0	26	0	524288000	67	4317
2026-01-13 09:13:14.59	48.93	27.55	-49.2	-50.8	15.6	5.99e-01	0	26	0	526385152	67	4288
2026-01-13 09:13:15.60	48.56	27.60	-49.3	-50.9	15.6	6.02e-01	0	25	0	527958016	67	4329
2026-01-13 09:13:16.61	48.20	27.65	-49.1	-50.7	15.6	6.01e-01	0	26	0	530055168	67	4229
2026-01-13 09:13:17.62	47.83	27.70	-49.2	-50.8	15.6	6.00e-01	0	26	0	531628032	67	4263
2026-01-13 09:13:18.63	47.46	27.75	-49.3	-50.9	15.6	5.99e-01	0	26	0	533725184	67	4304
2026-01-13 09:13:19.64	47.08	27.80	-49.3	-50.9	15.6	6.00e-01	0	26	0	535822336	67	4306
2026-01-13 09:13:20.65	46.71	27.85	-49.3	-50.8	15.6	6.01e-01	0	26	0	537395200	67	4288
2026-01-13 09:13:21.66	46.34	27.89	-49.1	-50.7	15.6	6.02e-01	0	26	0	539492352	67	4206
2026-01-13 09:13:22.67	45.96	27.94	-49.3	-50.9	15.6	6.00e-01	0	26	0	541589504	67	4301
2026-01-13 09:13:23.68	45.59	27.98	-49.3	-50.9	15.5	6.01e-01	0	26	0	543162368	67	4337
2026-01-13 09:13:24.68	45.21	28.02	-49.3	-50.9	15.5	6.01e-01	0	26	0	545259520	67	4330
2026-01-13 09:13:25.69	44.83	28.06	-49.3	-50.9	15.6	6.03e-01	0	26	0	546832384	67	4307
2026-01-13 09:13:26.71	44.45	28.10	-49.4	-51.0	15.5	5.99e-01	0	25	0	548929536	67	4367
2026-01-13 09:13:27.71	44.07	28.14	-49.3	-50.9	15.5	6.03e-01	0	26	0	551026688	67	4324
2026-01-13 09:13:28.72	43.69	28.17	-49.2	-50.7	15.6	6.03e-01	0	26	0	552599552	67	4241
2026-01-13 09:13:29.73	43.31	28.21	-49.2	-50.8	15.6	6.01e-01	0	26	0	554696704	67	4289
2026-01-13 09:13:30.74	42.93	28.24	-49.4	-51.0	15.5	6.01e-01	0	26	0	556269568	67	4384
2026-01-13 09:13:31.75	42.54	28.28	-49.3	-50.9	15.6	6.00e-01	0	26	0	558366720	67	4300
2026-01-13 09:13:32.75	42.16	28.31	-49.3	-50.8	15.6	6.02e-01	0	26	0	560463872	67	4284
2026-01-13 09:13:33.76	41.78	28.34	-49.3	-50.9	15.6	6.02e-01	0	26	0	562036736	67	4319
2026-01-13 09:13:34.77	41.39	28.36	-49.3	-50.9	15.6	6.00e-01	0	26	0	564133888	67	4308
2026-01-13 09:13:35.78	41.00	28.39	-49.3	-51.0	15.5	6.01e-01	0	26	0	565706752	67	4345
2026-01-13 09:13:36.78	40.62	28.42	-49.2	-50.8	15.5	6.02e-01	0	26	0	567803904	67	4275
2026-01-13 09:13:37.79	40.23	28.44	-49.3	-50.9	15.5	6.01e-01	0	26	0	569901056	67	4305
2026-01-13 09:13:38.80	39.84	28.46	-49.3	-51.0	15.5	6.01e-01	0	26	0	571473920	67	4342
2026-01-13 09:13:39.81	39.46	28.49	-49.3	-50.9	15.6	6.02e-01	0	26	0	573571072	67	4315
2026-01-13 09:13:40.82	39.07	28.51	-49.4	-51.0	15.5	6.01e-01	0	26	0	575143936	67	4354
2026-01-13 09:13:41.82	38.68	28.52	-49.5	-51.1	15.5	6.04e-01	0	26	0	577241088	67	4416
2026-01-13 09:13:42.83	38.29	28.54	-49.5	-51.2	15.5	6.02e-01	0	26	0	579338240	67	4449
2026-01-13 09:13:43.84	37.90	28.56	-49.3	-50.9	15.5	6.01e-01	0	26	0	580911104	67	4331
2026-01-13 09:13:44.85	37.51	28.57	-49.4	-51.0	15.5	5.99e-01	0	26	0	583008256	67	4363
2026-01-13 09:13:45.86	37.12	28.58	-49.4	-51.0	15.5	6.01e-01	0	26	0	585105408	67	4368
2026-01-13 09:13:46.87	36.72	28.60	-49.4	-51.1	15.5	6.01e-01	0	26	0	586678272	67	4401
2026-01-13 09:13:47.88	36.33	28.61	-49.5	-51.1	15.5	5.99e-01	0	26	0	588775424	67	4411
2026-01-13 09:13:48.89	35.94	28.61	-49.5	-51.1	15.5	6.02e-01	0	26	0	590348288	67	4440
2026-01-13 09:13:49.90	35.55	28.62	-49.4	-51.0	15.5	6.01e-01	0	26	0	592445440	67	4381
2026-01-13 09:13:50.91	35.15	28.63	-49.4	-51.0	15.5	6.01e-01	0	26	0	594542592	67	4347
2026-01-13 09:13:51.92	34.76	28.63	-49.4	-51.1	15.5	5.99e-01	0	26	0	596115456	67	4402
2026-01-13 09:13:52.92	34.37	28.63	-49.5	-51.1	15.5	6.02e-01	0	26	0	598212608	67	4413
2026-01-13 09:13:53.93	33.98	28.63	-49.5	-51.1	15.5	6.01e-01	0	26	0	599785472	67	4433
2026-01-13 09:13:54.95	33.58	28.63	-49.4	-51.0	15.5	6.02e-01	0	26	0	601882624	67	4389
2026-01-13 09:13:55.95	33.19	28.63	-49.4	-51.0	15.5	5.99e-01	0	26	0	603979776	67	4365
2026-01-13 09:13:56.96	32.80	28.63	-49.4	-51.0	15.5	6.00e-01	0	26	0	605552640	67	4363
2026-01-13 09:13:57.97	32.41	28.62	-49.4	-51.0	15.5	6.03e-01	0	26	0	607649792	67	4376
2026-01-13 09:13:58.97	32.02	28.62	-49.5	-51.1	15.5	6.00e-01	0	26	0	609222656	67	4408
2026-01-13 09:13:59.98	31.63	28.61	-49.5	-51.1	15.5	6.02e-01	0	26	0	611319808	67	4441
2026-01-13 09:14:00.99	31.23	28.60	-49.5	-51.1	15.5	6.01e-01	0	26	0	613416960	67	4410
2026-01-13 09:14:01.99	30.84	28.59	-49.4	-51.0	15.5	6.01e-01	0	26	0	614989824	67	4383
2026-01-13 09:14:03.00	30.45	28.58	-49.4	-51.0	15.5	6.02e-01	0	26	0	617086976	67	4360
2026-01-13 09:14:04.01	30.06	28.57	-49.6	-51.2	15.4	5.99e-01	0	26	0	618659840	67	4462
2026-01-13 09:14:05.02	29.67	28.55	-49.5	-51.2	15.5	6.03e-01	0	26	0	620756992	67	4449
2026-01-13 09:14:06.03	29.28	28.54	-49.5	-51.2	15.5	6.01e-01	0	26	0	622854144	67	4448
2026-01-13 09:14:07.04	28.89	28.52	-49.4	-51.1	15.5	6.02e-01	0	26	0	624427008	67	4397
2026-01-13 09:14:08.05	28.50	28.50	-49.5	-51.1	15.5	6.00e-01	0	26	0	626524160	67	4439
2026-01-13 09:14:09.06	28.11	28.48	-49.7	-51.4	15.4	5.99e-01	0	26	0	628097024	67	4547
2026-01-13 09:14:10.07	27.72	28.46	-49.7	-51.3	15.4	6.00e-01	0	26	0	630194176	67	4543
2026-01-13 09:14:11.08	27.33	28.43	-49.7	-51.3	15.4	6.01e-01	0	26	0	632291328	67	4528
2026-01-13 09:14:12.09	26.95	28.41	-49.6	-51.3	15.4	6.00e-01	0	26	0	633864192	67	4501
2026-01-13 09:14:13.10	26.56	28.38	-49.7	-51.4	15.4	6.01e-01	0	26	0	635961344	67	4560
2026-01-13 09:14:14.10	26.18	28.36	-49.8	-51.5	15.4	6.00e-01	0	26	0	638058496	67	4633
2026-01-13 09:14:15.11	25.79	28.33	-49.8	-51.4	15.4	6.01e-01	0	26	0	639631360	67	4596
2026-01-13 09:14:16.12	25.41	28.30	-49.5	-51.2	15.5	6.02e-01	0	26	0	641728512	67	4459
2026-01-13 09:14:17.12	25.03	28.27	-49.7	-51.3	15.4	5.99e-01	0	26	0	643301376	67	4520
2026-01-13 09:14:18.13	24.64	28.23	-49.7	-51.3	15.4	6.01e-01	0	26	0	645398528	67	4526
2026-01-13 09:14:19.14	24.26	28.20	-50.0	-51.7	15.3	6.01e-01	0	26	0	646971392	67	4710
2026-01-13 09:14:20.15	23.88	28.16	-49.9	-51.5	15.4	6.01e-01	0	25	0	649068544	67	4640
2026-01-13 09:14:21.16	23.50	28.13	-49.7	-51.3	15.4	6.02e-01	0	26	0	651165696	67	4530
2026-01-13 09:14:22.16	23.12	28.09	-49.6	-51.3	15.4	6.02e-01	0	25	0	652738560	67	4508
2026-01-13 09:14:23.17	22.74	28.05	-49.8	-51.4	15.4	6.00e-01	0	26	0	654835712	67	4583
2026-01-13 09:14:24.18	22.37	28.01	-49.8	-51.5	15.4	6.02e-01	0	26	0	656408576	67	4615
2026-01-13 09:14:25.19	21.99	27.97	-49.7	-51.4	15.4	6.00e-01	0	26	0	658505728	67	4571
2026-01-13 09:14:26.20	21.61	27.92	-49.8	-51.5	15.4	6.01e-01	0	26	0	660602880	67	4641
2026-01-13 09:14:27.20	21.24	27.88	-49.9	-51.6	15.4	6.00e-01	0	26	0	662175744	67	4659
2026-01-13 09:14:28.21	20.87	27.83	-50.0	-51.7	15.3	5.99e-01	0	26	0	664272896	67	4709
2026-01-13 09:14:29.21	20.50	27.79	-49.8	-51.4	15.4	6.00e-01	0	26	0	666370048	67	4585
2026-01-13 09:14:30.22	20.13	27.74	-49.9	-51.5	15.4	6.02e-01	0	26	0	667942912	67	4650
2026-01-13 09:14:31.23	19.76	27.69	-49.9	-51.6	15.3	6.02e-01	0	26	0	670040064	67	4682
2026-01-13 09:14:32.24	19.39	27.64	-49.8	-51.4	15.4	6.00e-01	0	26	0	671612928	67	4591
2026-01-13 09:14:33.25	19.02	27.59	-50.0	-51.7	15.3	5.99e-01	0	26	0	673710080	67	4732
2026-01-13 09:14:34.26	18.66	27.53	-49.9	-51.6	15.3	6.01e-01	0	26	0	675807232	67	4701
2026-01-13 09:14:35.26	18.30	27.48	-49.8	-51.5	15.4	6.02e-01	0	26	0	677380096	67	4627
2026-01-13 09:14:36.27	17.93	27.43	-49.8	-51.5	15.4	6.02e-01	0	26	0	679477248	67	4611
2026-01-13 09:14:37.28	17.57	27.37	-50.0	-51.7	15.3	6.01e-01	0	26	0	681050112	67	4721
2026-01-13 09:14:38.28	17.21	27.31	-50.0	-51.7	15.3	6.01e-01	0	26	0	683147264	67	4755
2026-01-13 09:14:39.29	16.85	27.25	-50.1	-51.8	15.3	6.01e-01	0	26	0	684720128	67	4763
2026-01-13 09:14:40.30	16.49	27.20	-49.9	-51.6	15.3	6.02e-01	0	26	0	686817280	67	4695
2026-01-13 09:14:41.31	16.14	27.13	-49.9	-51.6	15.3	6.01e-01	0	26	0	688914432	67	4689
2026-01-13 09:14:42.32	15.78	27.07	-50.0	-51.8	15.3	6.03e-01	0	26	0	690487296	67	4764
2026-01-13 09:14:43.33	15.43	27.01	-50.1	-51.8	15.4	6.00e-01	0	26	0	692584448	68	4517
2026-01-13 09:14:44.34	15.07	26.95	-50.1	-51.7	15.4	6.00e-01	0	26	0	694681600	68	4493
2026-01-13 09:14:45.35	14.72	26.88	-50.0	-51.7	15.4	6.02e-01	0	26	0	696254464	68	4479
2026-01-13 09:14:46.36	14.37	26.82	-50.1	-51.7	15.4	6.00e-01	0	26	0	698351616	68	4490
2026-01-13 09:14:47.36	14.03	26.75	-50.1	-51.8	15.4	6.01e-01	0	25	0	699924480	68	4514
2026-01-13 09:14:48.37	13.68	26.68	-50.2	-51.9	15.4	6.00e-01	0	26	0	702021632	68	4595
2026-01-13 09:14:49.38	13.34	26.62	-50.3	-52.0	15.3	6.00e-01	0	26	0	704118784	68	4625
2026-01-13 09:14:50.39	12.99	26.55	-50.0	-51.7	15.4	6.02e-01	0	26	0	705691648	68	4475
2026-01-13 09:14:51.40	12.65	26.48	-50.0	-51.6	15.4	6.00e-01	0	26	0	707788800	68	4441
2026-01-13 09:14:52.40	12.32	26.41	-50.1	-51.8	15.4	6.00e-01	0	26	0	709885952	68	4507
2026-01-13 09:14:53.41	11.98	26.33	-50.2	-51.9	15.4	6.01e-01	0	26	0	711458816	68	4591
2026-01-13 09:14:54.41	11.64	26.26	-50.2	-51.9	15.4	6.00e-01	0	26	0	713555968	68	4553
2026-01-13 09:14:55.43	11.30	26.19	-50.2	-51.9	15.4	6.02e-01	0	25	0	715128832	68	4591
2026-01-13 09:14:56.44	10.97	26.11	-50.2	-52.0	15.4	6.01e-01	0	26	0	717225984	68	4600
2026-01-13 09:14:57.44	10.64	26.04	-50.2	-52.0	15.4	6.01e-01	0	26	0	718798848	68	4605
2026-01-13 09:14:58.45	10.31	25.96	-50.1	-51.8	15.4	6.00e-01	0	26	0	720896000	68	4494
2026-01-13 09:14:59.46	9.98	25.89	-50.2	-51.9	15.4	5.98e-01	0	26	0	722993152	68	4555
2026-01-13 09:15:00.47	9.66	25.81	-50.3	-52.0	15.3	6.01e-01	0	26	0	724566016	68	4625
2026-01-13 09:15:01.48	9.33	25.73	-50.3	-52.1	15.3	5.99e-01	0	26	0	726663168	68	4654
2026-01-13 09:15:02.49	9.01	25.65	-50.3	-52.0	15.4	6.01e-01	0	26	0	728236032	68	4633
2026-01-13 09:15:03.50	8.68	25.57	-50.2	-51.9	15.4	6.00e-01	0	26	0	730333184	68	4563
2026-01-13 09:15:04.51	8.36	25.49	-50.2	-51.9	15.4	6.01e-01	0	26	0	732430336	68	4576
2026-01-13 09:15:05.52	8.04	25.41	-50.2	-51.9	15.4	6.00e-01	0	26	0	734003200	68	4578
2026-01-13 09:15:06.52	7.73	25.33	-50.4	-52.2	15.3	6.01e-01	0	26	0	736100352	68	4711
2026-01-13 09:15:07.53	7.42	25.25	-50.4	-52.1	15.3	6.01e-01	0	26	0	738197504	68	4689
2026-01-13 09:15:08.54	7.10	25.16	-50.1	-51.8	15.4	6.02e-01	0	26	0	739770368	68	4496
2026-01-13 09:15:09.55	6.79	25.08	-50.3	-52.0	15.4	6.02e-01	0	26	0	741867520	68	4618
2026-01-13 09:15:10.56	6.48	24.99	-50.1	-51.8	15.4	6.00e-01	0	26	0	743440384	68	4520
2026-01-13 09:15:11.57	6.17	24.91	-50.2	-51.9	15.4	6.00e-01	0	26	0	745537536	68	4583
2026-01-13 09:15:12.58	5.87	24.82	-50.3	-52.1	15.3	5.98e-01	0	26	0	747634688	68	4677
2026-01-13 09:15:13.58	5.56	24.74	-50.1	-51.8	15.4	5.99e-01	0	26	0	749207552	68	4536
2026-01-13 09:15:14.59	5.26	24.65	-50.2	-51.9	15.4	6.01e-01	0	26	0	751304704	68	4572
2026-01-13 09:15:15.60	4.96	24.57	-50.2	-51.9	15.4	6.02e-01	0	25	0	752877568	68	4555
2026-01-13 09:15:16.61	4.66	24.48	-50.2	-51.9	15.4	5.99e-01	0	26	0	754974720	68	4568
2026-01-13 09:15:17.62	4.36	24.39	-50.2	-51.9	15.4	6.04e-01	0	26	0	757071872	68	4597
2026-01-13 09:15:18.63	4.07	24.30	-50.0	-51.7	15.4	6.00e-01	0	26	0	758644736	68	4474
2026-01-13 09:15:19.64	3.77	24.21	-50.2	-51.9	15.4	6.01e-01	0	26	0	760741888	68	4598
2026-01-13 09:15:20.65	3.48	24.12	-50.2	-51.9	15.4	6.04e-01	0	26	0	762839040	68	4584
2026-01-13 09:15:21.66	3.19	24.03	-50.2	-52.0	15.4	6.02e-01	0	26	0	764411904	68	4617
2026-01-13 09:15:22.67	2.90	23.94	-50.1	-51.8	15.4	6.01e-01	0	26	0	766509056	68	4538
2026-01-13 09:15:23.67	2.62	23.85	-50.2	-52.0	15.4	6.00e-01	0	26	0	768081920	68	4611
2026-01-13 09:15:24.68	2.33	23.76	-50.4	-52.1	15.3	6.01e-01	0	26	0	770179072	68	4694
2026-01-13 09:15:25.69	2.05	23.67	-50.3	-52.0	15.3	5.99e-01	0	26	0	771751936	68	4630
2026-01-13 09:15:26.70	1.76	23.58	-50.3	-52.0	15.3	6.00e-01	0	26	0	773849088	68	4614
2026-01-13 09:15:27.71	1.48	23.49	-50.3	-52.0	15.3	6.03e-01	0	26	0	775946240	68	4644
2026-01-13 09:15:28.72	1.21	23.39	-50.3	-52.1	15.3	6.02e-01	0	26	0	777519104	68	4680
2026-01-13 09:15:29.73	0.93	23.30	-50.1	-51.8	15.4	6.04e-01	0	26	0	779616256	68	4530
2026-01-13 09:15:30.74	0.65	23.21	-50.2	-51.9	15.4	6.01e-01	0	26	0	781189120	68	4591
2026-01-13 09:15:31.75	0.38	23.11	-50.4	-52.2	15.3	6.02e-01	0	26	0	783286272	68	4733
2026-01-13 09:15:32.75	0.11	23.02	-50.3	-52.1	15.3	6.01e-01	0	26	0	785383424	68	4674
2026-01-13 09:15:33.76	359.84	22.93	-50.3	-52.0	15.4	6.02e-01	0	26	0	786956288	68	4610
2026-01-13 09:15:34.77	359.57	22.83	-50.2	-51.9	15.4	6.01e-01	0	26	0	789053440	68	4596
2026-01-13 09:15:35.78	359.31	22.74	-50.2	-51.9	15.4	6.01e-01	0	26	0	791150592	68	4570
2026-01-13 09:15:36.79	359.04	22.64	-50.2	-52.0	15.3	6.02e-01	0	26	0	792723456	68	4613
2026-01-13 09:15:37.79	358.78	22.55	-50.6	-52.4	15.2	5.99e-01	0	26	0	794820608	68	4820
2026-01-13 09:15:38.80	358.52	22.45	-50.6	-52.4	15.2	6.00e-01	0	26	0	796393472	68	4820
2026-01-13 09:15:39.80	358.26	22.36	-50.2	-51.9	15.5	6.02e-01	0	26	0	798490624	69	4302
2026-01-13 09:15:40.81	358.01	22.26	-50.1	-51.8	15.5	6.00e-01	0	26	0	800587776	69	4265
2026-01-13 09:15:41.82	357.75	22.16	-50.1	-51.8	15.6	6.02e-01	0	26	0	802160640	69	4281
2026-01-13 09:15:42.83	357.50	22.07	-50.0	-51.6	15.6	6.01e-01	0	26	0	804257792	69	4190
2026-01-13 09:15:43.83	357.25	21.97	-50.2	-52.0	15.5	6.01e-01	0	26	0	805830656	69	4352
2026-01-13 09:15:44.84	356.99	21.88	-50.2	-52.0	15.5	6.00e-01	0	26	0	807927808	69	4351
2026-01-13 09:15:45.85	356.75	21.78	-50.3	-52.1	15.4	6.02e-01	0	26	0	810024960	69	4418
2026-01-13 09:15:46.86	356.50	21.68	-50.2	-51.9	15.5	6.03e-01	0	26	0	811597824	69	4334
2026-01-13 09:15:47.86	356.25	21.59	-49.9	-51.6	15.5	5.99e-01	0	26	0	813694976	68	4405
2026-01-13 09:15:48.87	356.01	21.49	-49.9	-51.6	15.4	6.02e-01	0	26	0	815267840	68	4409
2026-01-13 09:15:49.88	355.77	21.39	-50.2	-52.0	15.3	6.02e-01	0	26	0	817364992	68	4605
2026-01-13 09:15:50.89	355.52	21.29	-50.2	-52.0	15.4	6.01e-01	0	26	0	819462144	68	4603
2026-01-13 09:15:51.89	355.29	21.20	-50.2	-51.9	15.4	6.01e-01	0	26	0	821035008	68	4575
2026-01-13 09:15:52.90	355.05	21.10	-50.1	-51.9	15.4	6.01e-01	0	26	0	823132160	68	4546
2026-01-13 09:15:53.90	354.82	21.00	-50.1	-51.8	15.4	6.02e-01	0	26	0	824705024	68	4511
2026-01-13 09:15:54.91	354.58	20.90	-50.0	-51.7	15.4	6.00e-01	0	26	0	826802176	68	4467
2026-01-13 09:15:55.92	354.35	20.81	-50.1	-51.8	15.4	5.99e-01	0	26	0	828899328	68	4504
2026-01-13 09:15:56.93	354.11	20.71	-50.2	-51.9	15.4	5.99e-01	0	26	0	830472192	68	4588
2026-01-13 09:15:57.94	353.88	20.61	-50.0	-51.6	15.4	6.01e-01	0	26	0	832569344	68	4425
2026-01-13 09:15:58.94	353.66	20.51	-50.2	-51.9	15.3	6.02e-01	0	26	0	834142208	68	4591
2026-01-13 09:15:59.95	353.43	20.41	-50.3	-52.1	15.3	6.02e-01	0	26	0	836239360	68	4668
2026-01-13 09:16:00.96	353.21	20.32	-50.1	-51.8	15.4	6.02e-01	0	26	0	838336512	68	4514
2026-01-13 09:16:01.96	352.98	20.22	-50.3	-52.1	15.3	6.02e-01	0	26	0	839909376	68	4694
2026-01-13 09:16:02.97	352.76	20.12	-49.8	-51.5	15.5	6.03e-01	0	26	0	842006528	68	4361
2026-01-13 09:16:03.98	352.54	20.02	-50.1	-51.9	15.4	6.01e-01	0	26	0	843579392	68	4550
2026-01-13 09:16:04.99	352.32	19.92	-50.3	-52.0	15.3	6.02e-01	0	26	0	845676544	68	4643
2026-01-13 09:16:05.99	352.10	19.83	-49.8	-51.5	15.5	6.01e-01	0	26	0	847773696	68	4354
2026-01-13 09:16:07.00	351.89	19.73	-50.1	-51.9	15.4	6.02e-01	0	26	0	849346560	68	4561
2026-01-13 09:16:08.01	351.67	19.63	-49.9	-51.6	15.5	5.99e-01	0	26	0	851443712	68	4397
2026-01-13 09:16:09.02	351.46	19.53	-50.0	-51.7	15.4	5.99e-01	0	26	0	853016576	68	4446
2026-01-13 09:16:10.03	351.25	19.43	-50.4	-52.2	15.3	6.01e-01	0	26	0	855113728	68	4744
2026-01-13 09:16:11.04	351.04	19.34	-49.9	-51.6	15.5	6.00e-01	0	26	0	857210880	68	4419
2026-01-13 09:16:12.04	350.83	19.24	-50.6	-52.5	15.3	5.99e-01	0	26	0	858783744	69	4601
2026-01-13 09:16:13.05	350.62	19.14	-50.0	-51.7	15.4	6.01e-01	0	26	0	860880896	68	4481
2026-01-13 09:16:14.30	350.37	19.02	-50.2	-51.9	15.4	6.00e-01	0	26	0	862978048	69	4293
2026-01-13 09:16:15.05	350.21	18.95	-50.3	-52.0	15.3	6.00e-01	0	26	0	864026624	68	4626
2026-01-13 09:16:16.35	349.95	18.82	-49.7	-51.3	15.5	6.01e-01	0	26	0	866648064	68	4251
2026-01-13 09:16:17.07	349.81	18.75	-50.7	-52.6	15.2	5.99e-01	0	26	0	867696640	69	4656
2026-01-13 09:16:18.36	349.55	18.63	-49.9	-51.5	15.5	6.03e-01	0	26	0	870318080	68	4357
2026-01-13 09:16:19.08	349.41	18.56	-51.3	-53.4	15.2	6.00e-01	0	26	0	871890944	70	4830
2026-01-13 09:16:20.37	349.16	18.43	-50.4	-52.1	15.4	5.99e-01	0	26	0	873988096	69	4418
2026-01-13 09:16:21.10	349.02	18.36	-51.6	-53.7	15.2	6.02e-01	0	26	0	875560960	71	4731
2026-01-13 09:16:22.40	348.76	18.24	-50.9	-52.8	15.2	6.01e-01	0	26	0	877658112	69	4767
2026-01-13 09:16:23.12	348.63	18.17	-51.1	-53.1	15.3	6.02e-01	0	26	0	879230976	71	4425
2026-01-13 09:16:24.41	348.38	18.04	-51.3	-53.3	15.2	6.02e-01	0	26	0	881852416	70	4773
2026-01-13 09:16:25.14	348.24	17.97	-50.9	-52.8	15.4	6.01e-01	0	26	0	882900992	71	4269
2026-01-13 09:16:26.44	348.00	17.85	-51.8	-53.9	15.1	6.00e-01	0	26	0	885522432	71	4862
2026-01-13 09:16:27.16	347.86	17.78	-50.8	-52.4	15.5	6.03e-01	0	26	0	886571008	70	4330
2026-01-13 09:16:28.45	347.62	17.65	-51.5	-53.6	15.1	6.02e-01	0	26	0	889192448	70	4937
2026-01-13 09:16:29.17	347.49	17.58	-50.3	-52.0	15.5	6.01e-01	0	26	0	890765312	69	4369
2026-01-13 09:16:30.47	347.25	17.46	-50.9	-52.8	15.2	5.99e-01	0	26	0	892862464	69	4800
2026-01-13 09:16:31.19	347.12	17.39	-49.9	-51.5	15.6	6.01e-01	0	26	0	894435328	69	4134
2026-01-13 09:16:32.49	346.89	17.27	-50.7	-52.6	15.2	6.02e-01	0	26	0	896532480	69	4668
2026-01-13 09:16:33.21	346.76	17.20	-50.1	-51.8	15.5	6.03e-01	0	26	0	898105344	69	4291
2026-01-13 09:16:34.50	346.53	17.08	-50.9	-52.8	15.2	6.01e-01	0	26	0	900726784	69	4786
2026-01-13 09:16:35.22	346.40	17.01	-50.3	-52.1	15.4	6.01e-01	0	26	0	901775360	69	4426
2026-01-13 09:16:36.52	346.18	16.88	-50.5	-52.4	15.4	6.02e-01	0	26	0	904396800	69	4564
2026-01-13 09:16:37.24	346.05	16.82	-50.3	-52.0	15.4	6.03e-01	0	26	0	905969664	69	4384
2026-01-13 09:16:38.53	345.83	16.69	-50.1	-51.9	15.1	6.02e-01	0	26	0	908066816	68	4554
2026-01-13 09:16:39.25	345.70	16.63	-50.4	-52.2	15.3	6.02e-01	0	26	0	909639680	68	4730
2026-01-13 09:16:40.55	345.48	16.50	-50.2	-51.9	15.3	6.02e-01	0	26	0	911736832	68	4586
2026-01-13 09:16:41.27	345.36	16.44	-50.4	-52.3	15.2	5.99e-01	0	26	0	913309696	68	4760
2026-01-13 09:16:42.56	345.14	16.32	-49.9	-51.6	15.4	6.04e-01	0	26	0	915931136	68	4434
2026-01-13 09:16:43.28	345.02	16.25	-50.3	-52.1	15.3	5.99e-01	0	26	0	916979712	68	4671
2026-01-13 09:16:44.58	344.81	16.13	-49.6	-51.2	15.6	6.01e-01	0	26	0	919601152	68	4225
2026-01-13 09:16:45.30	344.69	16.06	-50.2	-52.0	15.3	6.01e-01	0	26	0	920649728	68	4638
2026-01-13 09:16:46.60	344.47	15.94	-49.7	-51.4	15.5	6.01e-01	0	26	0	923271168	68	4307
2026-01-13 09:16:47.31	344.36	15.87	-50.2	-52.0	15.4	6.01e-01	0	26	0	924844032	68	4600
2026-01-13 09:16:48.61	344.15	15.75	-50.2	-52.0	15.3	6.01e-01	0	26	0	926941184	68	4628
2026-01-13 09:16:49.32	344.03	15.68	-50.2	-51.9	15.4	6.00e-01	0	26	0	928514048	68	4572
2026-01-13 09:16:50.62	343.83	15.56	-50.2	-52.0	15.3	6.01e-01	0	26	0	930611200	68	4603
2026-01-13 09:16:51.34	343.71	15.50	-49.8	-51.5	15.5	6.00e-01	0	26	0	932184064	68	4349
2026-01-13 09:16:52.63	343.51	15.38	-50.2	-52.0	15.3	6.01e-01	0	26	0	934281216	68	4611
2026-01-13 09:16:53.35	343.40	15.31	-49.9	-51.6	15.4	6.00e-01	0	26	0	935854080	68	4431
2026-01-13 09:16:54.64	343.20	15.19	-50.0	-51.7	15.4	6.02e-01	0	26	0	938475520	68	4463
2026-01-13 09:16:55.36	343.09	15.13	-50.0	-51.8	15.4	6.01e-01	0	26	0	939524096	68	4508
2026-01-13 09:16:56.65	342.89	15.01	-50.0	-51.7	15.4	6.01e-01	0	26	0	942145536	68	4464
2026-01-13 09:16:57.37	342.78	14.94	-50.3	-52.1	15.3	5.99e-01	0	26	0	943194112	68	4687
2026-01-13 09:16:58.67	342.58	14.83	-50.4	-52.1	15.3	6.00e-01	0	26	0	945815552	68	4692
2026-01-13 09:16:59.39	342.48	14.76	-50.5	-52.4	15.2	6.00e-01	0	26	0	947388416	68	4835
2026-01-13 09:17:00.68	342.28	14.64	-50.2	-52.0	15.4	6.01e-01	0	26	0	949485568	69	4369
2026-01-13 09:17:01.41	342.17	14.58	-50.0	-51.7	15.6	6.00e-01	0	26	0	951058432	69	4217
2026-01-13 09:17:02.70	341.99	14.46	-50.2	-52.0	15.5	6.01e-01	0	26	0	953679872	69	4341
2026-01-13 09:17:03.42	341.88	14.39	-50.1	-51.8	15.5	6.02e-01	0	26	0	954728448	69	4276
2026-01-13 09:17:04.71	341.69	14.28	-50.0	-51.8	15.5	6.01e-01	0	26	0	957349888	69	4251
2026-01-13 09:17:05.43	341.59	14.21	-50.1	-51.8	15.5	6.01e-01	0	26	0	958398464	69	4269
2026-01-13 09:17:06.72	341.40	14.10	-49.9	-51.6	15.6	6.02e-01	0	26	0	961019904	69	4185
2026-01-13 09:17:07.44	341.30	14.03	-50.0	-51.8	15.6	6.00e-01	0	26	0	962592768	69	4249
2026-01-13 09:17:08.74	341.12	13.92	-50.2	-52.0	15.5	6.00e-01	0	26	0	964689920	69	4344
2026-01-13 09:17:09.45	341.02	13.85	-50.1	-51.8	15.5	6.02e-01	0	26	0	966262784	69	4274
2026-01-13 09:17:10.75	340.84	13.74	-50.3	-52.1	15.4	6.00e-01	0	26	0	968359936	69	4431
2026-01-13 09:17:11.47	340.74	13.68	-50.3	-52.1	15.4	6.02e-01	0	26	0	969932800	69	4410
2026-01-13 09:17:12.77	340.56	13.56	-50.4	-52.2	15.4	6.02e-01	0	25	0	972554240	69	4463
2026-01-13 09:17:13.49	340.46	13.50	-50.5	-52.4	15.3	5.99e-01	0	26	0	973602816	69	4556
2026-01-13 09:17:14.79	340.28	13.38	-50.1	-51.8	15.5	6.01e-01	0	26	0	976224256	69	4286
2026-01-13 09:17:15.51	340.19	13.32	-50.1	-51.8	15.5	6.00e-01	0	26	0	977272832	69	4269
2026-01-13 09:17:16.80	340.01	13.21	-50.3	-52.0	15.5	5.99e-01	0	26	0	979894272	69	4379
2026-01-13 09:17:17.53	339.92	13.14	-50.3	-52.0	15.4	6.01e-01	0	26	0	981467136	69	4385
2026-01-13 09:17:18.82	339.75	13.03	-50.1	-51.9	15.5	6.00e-01	0	26	0	983564288	69	4298
2026-01-13 09:17:19.54	339.65	12.97	-50.3	-52.0	15.4	6.02e-01	0	26	0	985137152	69	4388
2026-01-13 09:17:20.84	339.48	12.85	-50.2	-52.0	15.5	6.01e-01	0	26	0	987234304	69	4359
2026-01-13 09:17:21.56	339.39	12.79	-50.2	-52.0	15.4	6.01e-01	0	26	0	988807168	69	4382
2026-01-13 09:17:22.85	339.22	12.68	-50.4	-52.2	15.4	6.03e-01	0	26	0	991428608	69	4490
2026-01-13 09:17:23.57	339.13	12.62	-50.4	-52.2	15.4	5.99e-01	0	26	0	992477184	69	4463
2026-01-13 09:17:24.87	338.96	12.51	-50.3	-52.1	15.4	5.99e-01	0	26	0	995098624	69	4432
2026-01-13 09:17:25.59	338.87	12.44	-50.4	-52.2	15.4	6.01e-01	0	26	0	996147200	69	4467
2026-01-13 09:17:26.88	338.71	12.33	-50.4	-52.2	15.4	6.01e-01	0	26	0	998768640	69	4484
2026-01-13 09:17:27.60	338.62	12.27	-50.4	-52.2	15.4	6.03e-01	0	26	0	1000341504	69	4468
2026-01-13 09:17:28.90	338.46	12.16	-50.2	-52.0	15.5	6.00e-01	0	26	0	1002438656	69	4378
2026-01-13 09:17:29.63	338.37	12.10	-50.4	-52.2	15.4	6.00e-01	0	26	0	1004011520	69	4468
2026-01-13 09:17:30.92	338.21	11.99	-50.4	-52.2	15.4	6.02e-01	0	26	0	1006108672	69	4484
2026-01-13 09:17:31.64	338.13	11.93	-50.5	-52.3	15.4	6.01e-01	0	26	0	1007681536	69	4510
2026-01-13 09:17:32.94	337.97	11.82	-50.5	-52.3	15.4	6.00e-01	0	26	0	1010302976	69	4519
2026-01-13 09:17:33.66	337.88	11.76	-50.6	-52.5	15.3	6.02e-01	0	26	0	1011351552	69	4599
2026-01-13 09:17:34.96	337.73	11.65	-50.3	-52.0	15.5	6.00e-01	0	26	0	1013972992	69	4380
2026-01-13 09:17:35.68	337.64	11.59	-50.2	-52.0	15.5	6.01e-01	0	26	0	1015021568	69	4373
2026-01-13 09:17:36.98	337.49	11.48	-50.4	-52.3	15.4	6.02e-01	0	26	0	1017643008	69	4499
2026-01-13 09:17:37.70	337.40	11.42	-50.4	-52.3	15.4	6.01e-01	0	26	0	1019215872	69	4507
2026-01-13 09:17:38.99	337.25	11.31	-50.5	-52.3	15.4	6.01e-01	0	26	0	1021313024	69	4521
2026-01-13 09:17:39.71	337.17	11.25	-50.5	-52.3	15.4	6.02e-01	0	26	0	1022885888	69	4542
2026-01-13 09:17:41.01	337.02	11.15	-50.7	-52.7	15.3	6.01e-01	0	26	0	1025507328	69	4715
2026-01-13 09:17:41.73	336.94	11.09	-50.6	-52.5	15.3	6.00e-01	0	26	0	1026555904	69	4633
2026-01-13 09:17:43.03	336.79	10.98	-50.8	-52.7	15.3	6.00e-01	0	26	0	1029177344	69	4712
2026-01-13 09:17:43.75	336.71	10.92	-50.7	-52.6	15.3	6.01e-01	0	26	0	1030225920	69	4670
2026-01-13 09:17:45.05	336.57	10.81	-50.7	-52.6	15.2	6.00e-01	0	26	0	1032847360	69	4703
2026-01-13 09:17:45.77	336.49	10.75	-50.6	-52.5	15.3	5.99e-01	0	26	0	1034420224	69	4601
2026-01-13 09:17:47.07	336.34	10.65	-50.6	-52.4	15.3	6.00e-01	0	26	0	1036517376	69	4598
2026-01-13 09:17:47.78	336.26	10.59	-50.6	-52.4	15.3	6.01e-01	0	26	0	1038090240	69	4592
2026-01-13 09:17:49.08	336.12	10.49	-50.4	-52.3	15.4	6.00e-01	0	26	0	1040187392	69	4498
2026-01-13 09:17:49.80	336.04	10.43	-50.4	-52.2	15.4	6.03e-01	0	26	0	1041760256	69	4470
2026-01-13 09:17:51.10	335.90	10.32	-50.6	-52.5	15.3	5.99e-01	0	26	0	1044381696	69	4604
2026-01-13 09:17:51.82	335.83	10.26	-50.7	-52.6	15.3	6.03e-01	0	26	0	1045430272	69	4674
2026-01-13 09:17:53.11	335.69	10.16	-50.6	-52.5	15.3	6.01e-01	0	26	0	1048051712	69	4611
2026-01-13 09:17:53.84	335.61	10.10	-50.6	-52.5	15.3	5.99e-01	0	26	0	1049624576	69	4600
2026-01-13 09:17:55.13	335.48	10.00	-50.7	-52.6	15.3	6.01e-01	0	26	0	1051721728	69	4654
2026-01-13 09:17:55.85	335.40	9.94	-50.8	-52.8	15.2	6.02e-01	0	26	0	1053294592	69	4773
2026-01-13 09:17:57.15	335.27	9.84	-50.8	-52.7	15.2	6.03e-01	0	26	0	1055391744	69	4741
2026-01-13 09:17:57.86	335.19	9.78	-50.9	-52.8	15.2	5.98e-01	0	26	0	1056964608	69	4803
2026-01-13 09:17:59.16	335.06	9.68	-50.7	-52.6	15.2	5.99e-01	0	26	0	1059061760	69	4691
2026-01-13 09:17:59.88	334.99	9.62	-50.7	-52.6	15.3	6.01e-01	0	26	0	1060634624	69	4686
2026-01-13 09:18:01.17	334.85	9.52	-50.8	-52.7	15.2	6.01e-01	0	26	0	1063256064	69	4717
2026-01-13 09:18:01.89	334.78	9.46	-50.8	-52.7	15.2	6.01e-01	0	26	0	1064304640	69	4720
2026-01-13 09:18:03.18	334.65	9.36	-50.8	-52.7	15.2	6.00e-01	0	26	0	1066926080	69	4731
2026-01-13 09:18:03.90	334.58	9.31	-50.9	-52.8	15.2	6.01e-01	0	26	0	1067974656	69	4793
2026-01-13 09:18:05.20	334.45	9.21	-50.9	-52.9	15.2	6.01e-01	0	26	0	1070596096	69	4835
2026-01-13 09:18:05.92	334.38	9.15	-50.9	-52.8	15.2	6.00e-01	0	26	0	1072168960	69	4800
2026-01-13 09:18:07.22	334.25	9.05	-51.0	-53.0	15.2	6.01e-01	0	26	0	1074266112	69	4873
2026-01-13 09:18:07.94	334.18	8.99	-51.0	-53.0	15.1	6.04e-01	0	26	0	1075838976	69	4888
2026-01-13 09:18:09.24	334.06	8.89	-51.0	-53.0	15.1	6.00e-01	0	26	0	1078460416	69	4897
2026-01-13 09:18:09.96	333.99	8.84	-51.0	-53.0	15.1	6.02e-01	0	26	0	1079508992	69	4917
2026-01-13 09:18:11.25	333.87	8.74	-51.0	-53.0	15.1	6.01e-01	0	26	0	1082130432	69	4911
2026-01-13 09:18:11.98	333.80	8.68	-51.0	-52.9	15.2	6.03e-01	0	26	0	1083179008	69	4858
2026-01-13 09:18:13.27	333.68	8.58	-51.0	-53.0	15.1	6.02e-01	0	26	0	1085800448	69	4893
2026-01-13 09:18:13.99	333.61	8.53	-51.0	-53.0	15.1	6.02e-01	0	26	0	1087373312	69	4881
2026-01-13 09:18:15.29	333.49	8.43	-51.0	-53.0	15.1	5.98e-01	0	26	0	1089470464	69	4900
2026-01-13 09:18:16.01	333.42	8.37	-51.0	-53.1	15.1	6.01e-01	0	26	0	1091043328	69	4930
2026-01-13 09:18:17.30	333.30	8.28	-50.9	-52.9	15.2	5.98e-01	0	26	0	1093140480	69	4846
2026-01-13 09:18:18.02	333.24	8.22	-51.1	-53.1	15.1	6.00e-01	0	26	0	1094713344	69	4945
2026-01-13 09:18:19.31	333.12	8.13	-51.2	-53.3	15.2	6.00e-01	0	26	0	1097334784	70	4762
2026-01-13 09:18:20.03	333.05	8.07	-51.2	-53.3	15.2	6.01e-01	0	26	0	1098383360	70	4793
2026-01-13 09:18:21.33	332.94	7.97	-51.1	-53.2	15.2	6.01e-01	0	26	0	1101004800	70	4725
2026-01-13 09:18:22.05	332.87	7.92	-51.2	-53.2	15.2	6.00e-01	0	26	0	1102053376	70	4723
2026-01-13 09:18:23.34	332.76	7.82	-51.2	-53.3	15.1	6.01e-01	0	26	0	1104674816	70	4781
2026-01-13 09:18:24.06	332.69	7.77	-51.1	-53.1	15.2	6.02e-01	0	26	0	1106247680	70	4697
2026-01-13 09:18:25.35	332.58	7.67	-51.2	-53.3	15.2	6.01e-01	0	26	0	1108344832	70	4806
2026-01-13 09:18:26.07	332.52	7.62	-51.2	-53.2	15.2	5.99e-01	0	26	0	1109917696	70	4748
2026-01-13 09:18:27.36	332.41	7.53	-51.1	-53.2	15.2	6.01e-01	0	26	0	1112014848	70	4719
2026-01-13 09:18:28.09	332.34	7.47	-51.2	-53.3	15.2	6.01e-01	0	26	0	1113587712	70	4762
2026-01-13 09:18:29.38	332.23	7.38	-51.3	-53.4	15.1	6.00e-01	0	26	0	1115684864	70	4867
2026-01-13 09:18:30.10	332.17	7.32	-51.4	-53.5	15.1	6.01e-01	0	26	0	1117257728	70	4925
2026-01-13 09:18:31.39	332.06	7.23	-51.3	-53.5	15.1	6.00e-01	0	26	0	1119879168	70	4884
2026-01-13 09:18:32.12	332.00	7.18	-51.4	-53.6	15.1	6.02e-01	0	26	0	1120927744	70	4951
2026-01-13 09:18:33.41	331.89	7.08	-51.3	-53.4	15.1	6.00e-01	0	26	0	1123549184	70	4848
2026-01-13 09:18:34.13	331.83	7.03	-51.3	-53.4	15.1	6.02e-01	0	26	0	1124597760	70	4843
2026-01-13 09:18:35.43	331.72	6.94	-51.3	-53.5	15.1	6.01e-01	0	26	0	1127219200	70	4887
2026-01-13 09:18:36.14	331.66	6.89	-51.4	-53.5	15.1	6.02e-01	0	26	0	1128792064	70	4903
2026-01-13 09:18:37.44	331.56	6.79	-51.4	-53.5	15.1	6.01e-01	0	26	0	1130889216	70	4887
2026-01-13 09:18:38.16	331.50	6.74	-51.2	-53.3	15.1	6.00e-01	0	26	0	1132462080	70	4775
2026-01-13 09:18:39.45	331.39	6.65	-51.2	-53.3	15.2	6.02e-01	0	26	0	1135083520	70	4781
2026-01-13 09:18:40.17	331.34	6.60	-51.4	-53.5	15.1	6.02e-01	0	26	0	1136132096	70	4924
2026-01-13 09:18:41.46	331.23	6.50	-51.3	-53.5	15.1	6.02e-01	0	26	0	1138753536	70	4884
2026-01-13 09:18:42.18	331.17	6.45	-51.4	-53.6	15.0	6.02e-01	0	26	0	1139802112	70	4958
2026-01-13 09:18:43.48	331.07	6.36	-51.4	-53.5	15.1	6.01e-01	0	26	0	1142423552	70	4909
2026-01-13 09:18:44.20	331.01	6.31	-51.5	-53.7	15.0	6.00e-01	0	26	0	1143996416	70	4999
2026-01-13 09:18:45.49	330.91	6.22	-51.4	-53.6	15.1	6.00e-01	0	26	0	1146093568	70	4929
2026-01-13 09:18:46.21	330.86	6.17	-51.4	-53.6	15.0	6.00e-01	0	26	0	1147666432	70	4959
2026-01-13 09:18:47.51	330.76	6.08	-51.5	-53.7	15.0	5.99e-01	0	26	0	1149763584	70	5011
2026-01-13 09:18:48.23	330.70	6.02	-51.6	-53.8	15.0	6.03e-01	0	26	0	1151336448	70	5089
2026-01-13 09:18:49.53	330.60	5.93	-51.6	-53.8	15.0	6.02e-01	0	26	0	1153957888	70	5060
2026-01-13 09:18:50.25	330.55	5.88	-51.6	-53.8	15.1	5.99e-01	0	26	0	1155006464	71	4814
2026-01-13 09:18:51.54	330.45	5.79	-51.6	-53.9	15.1	6.00e-01	0	26	0	1157627904	71	4822
2026-01-13 09:18:52.26	330.39	5.74	-51.6	-53.8	15.1	5.99e-01	0	26	0	1158676480	71	4785
2026-01-13 09:18:53.56	330.30	5.65	-51.7	-53.9	15.1	6.03e-01	0	26	0	1161297920	71	4853
2026-01-13 09:18:54.28	330.24	5.60	-51.7	-53.9	15.1	6.01e-01	0	26	0	1162870784	71	4861
2026-01-13 09:18:55.58	330.15	5.51	-51.6	-53.8	15.1	5.99e-01	0	26	0	1164967936	71	4787
2026-01-13 09:18:56.30	330.09	5.46	-51.7	-54.0	15.0	6.01e-01	0	26	0	1166540800	71	4926
2026-01-13 09:18:57.59	330.00	5.37	-51.7	-54.0	15.1	5.99e-01	0	26	0	1169162240	71	4876
2026-01-13 09:18:58.31	329.95	5.32	-51.7	-53.9	15.0	6.01e-01	0	26	0	1170210816	71	4861
2026-01-13 09:18:59.60	329.85	5.24	-51.7	-54.0	15.0	6.02e-01	0	26	0	1172832256	71	4884
2026-01-13 09:19:00.32	329.80	5.19	-51.7	-54.0	15.0	6.00e-01	0	26	0	1173880832	71	4922
2026-01-13 09:19:01.62	329.71	5.10	-51.7	-54.0	15.0	6.00e-01	0	26	0	1176502272	71	4894
2026-01-13 09:19:02.34	329.66	5.05	-51.9	-54.2	15.0	6.01e-01	0	26	0	1177550848	71	5011
2026-01-13 09:19:03.64	329.56	4.96	-52.2	-54.6	14.9	6.00e-01	0	26	0	1180172288	71	5270
2026-01-13 09:19:04.36	329.51	4.91	-57.8	-71.2	4.9	7.02e-01	0	26	0	1181220864	83	17781
2026-01-13 09:19:05.65	329.42	4.83	-58.6	-77.8	3.8	7.47e-01	0	26	104	1181220864	84	35874
2026-01-13 09:19:06.37	329.37	4.78	-58.8	-78.1	3.8	7.48e-01	0	26	104	1181220864	85	35247
2026-01-13 09:19:07.66	329.28	4.69	-59.0	-78.4	3.8	7.46e-01	0	26	104	1181220864	85	36243
2026-01-13 09:19:08.39	329.23	4.64	-59.1	-78.5	3.8	7.48e-01	0	26	104	1181220864	85	36625
2026-01-13 09:19:09.68	329.14	4.55	-59.3	-78.7	3.8	7.44e-01	0	26	104	1181220864	86	35475
2026-01-13 09:19:10.40	329.09	4.51	-59.4	-78.8	3.8	7.46e-01	0	26	104	1181220864	86	35894
2026-01-13 09:19:11.69	329.01	4.42	-59.5	-78.9	3.8	7.43e-01	0	26	104	1181220864	86	36396
2026-01-13 09:19:12.41	328.96	4.37	-59.6	-78.9	3.9	7.47e-01	0	26	104	1181220864	86	36437
2026-01-13 09:19:13.71	328.87	4.29	-59.6	-79.0	3.9	7.46e-01	0	26	104	1181220864	87	34833
2026-01-13 09:19:14.43	328.82	4.24	-59.7	-79.0	3.8	7.50e-01	0	26	104	1181220864	87	34817
2026-01-13 09:19:15.73	328.73	4.15	-59.7	-79.1	3.8	7.46e-01	0	26	104	1181220864	87	35031
2026-01-13 09:19:16.45	328.69	4.11	-59.7	-79.1	3.8	7.49e-01	0	26	104	1181220864	87	35163
2026-01-13 09:19:17.74	328.60	4.02	-59.8	-79.2	3.8	7.46e-01	0	26	104	1181220864	87	35362
2026-01-13 09:19:18.46	328.55	3.97	-59.8	-79.2	3.8	7.47e-01	0	26	104	1181220864	87	35340
2026-01-13 09:19:19.76	328.47	3.89	-59.8	-79.2	3.8	7.50e-01	0	26	104	1181220864	87	35523
2026-01-13 09:19:20.47	328.42	3.84	-59.8	-79.2	3.8	7.47e-01	0	26	104	1181220864	87	35639
2026-01-13 09:19:21.77	328.34	3.76	-59.8	-79.2	3.8	7.46e-01	0	26	104	1181220864	87	35627
2026-01-13 09:19:22.49	328.29	3.71	-59.9	-79.2	3.8	7.46e-01	0	26	104	1181220864	87	35673
2026-01-13 09:19:23.79	328.21	3.63	-59.9	-79.3	3.8	7.46e-01	0	26	104	1181220864	87	35812
2026-01-13 09:19:24.51	328.16	3.58	-59.9	-79.3	3.8	7.48e-01	0	26	104	1181220864	87	35743
2026-01-13 09:19:25.81	328.08	3.50	-59.9	-79.3	3.8	7.44e-01	0	26	104	1181220864	87	35737
2026-01-13 09:19:26.53	328.04	3.45	-59.8	-79.2	3.8	7.46e-01	0	26	104	1181220864	87	35535
2026-01-13 09:19:27.83	327.95	3.36	-59.8	-79.2	3.8	7.47e-01	0	26	104	1181220864	87	35501
2026-01-13 09:19:28.55	327.91	3.32	-59.8	-79.2	3.8	7.47e-01	0	26	104	1181220864	87	35483
2026-01-13 09:19:29.84	327.83	3.24	-59.8	-79.2	3.8	7.43e-01	0	26	104	1181220864	87	35453
2026-01-13 09:19:30.57	327.79	3.19	-59.8	-79.2	3.8	7.47e-01	0	26	104	1181220864	87	35397
2026-01-13 09:19:31.86	327.71	3.11	-59.8	-79.2	3.8	7.49e-01	0	26	104	1181220864	87	35410
2026-01-13 09:19:32.58	327.66	3.06	-59.8	-79.2	3.9	7.44e-01	0	26	104	1181220864	87	35392
2026-01-13 09:19:33.88	327.58	2.98	-59.8	-79.2	3.8	7.46e-01	0	26	104	1181220864	87	35352
2026-01-13 09:19:34.60	327.54	2.93	-59.8	-79.2	3.8	7.46e-01	0	26	104	1181220864	87	35311
2026-01-13 09:19:35.90	327.46	2.85	-59.8	-79.2	3.8	7.47e-01	0	26	104	1181220864	87	35298
2026-01-13 09:19:36.61	327.42	2.81	-59.8	-79.2	3.8	7.47e-01	0	26	104	1181220864	87	35309
2026-01-13 09:19:37.91	327.34	2.72	-59.8	-79.1	3.8	7.46e-01	0	26	104	1181220864	87	35222
2026-01-13 09:19:38.63	327.30	2.68	-59.7	-79.1	3.8	7.46e-01	0	26	104	1181220864	87	35193
