passes_logs/2026/01/13/R3.2S_Murmansk/R3.2S_Murmansk__20260113_223203_KANOPUS-V_5_rec.log

#Pass ID: 20260113_223203_KANOPUS-V 5
#Satellite: KANOPUS-V 5
#Configuration: KANOPUS-V_8320
#almurnet v.1.7.20251203
#Start time: 2026-01-13 22:32:03

#Version: 2.2.20231116
#Station: R3.2S_Murmansk
#Location: 33.079688 lon 68.888172 lat
#TLE: 1 43876U 18111A   26013.65992293  .00002361  00000+0  10210-3 0  9995
#TLE: 2 43876  97.3684 282.1984 0001772  87.0401 273.1039 15.23431305391261

#Time	Az	El	Level	Level2	SNR	BER	BlckErr	Temp	State	Recorded	gain1	gain2
2026-01-13 22:32:03.90	20.81	2.04	-60.8	-70.6	3.8	7.45e-01	0	25	0	0	84	11967
2026-01-13 22:32:04.89	20.80	2.11	-60.9	-70.6	3.8	7.46e-01	0	25	104	0	86	10769
2026-01-13 22:32:05.89	20.79	2.18	-60.9	-70.7	3.8	7.46e-01	0	25	104	0	86	10794
2026-01-13 22:32:06.90	20.79	2.25	-60.9	-70.6	3.8	7.45e-01	0	25	104	0	86	10759
2026-01-13 22:32:07.90	20.78	2.32	-60.9	-70.6	3.8	7.46e-01	0	25	104	0	86	10730
2026-01-13 22:32:08.89	20.77	2.39	-60.9	-70.6	3.8	7.45e-01	0	25	104	0	86	10765
2026-01-13 22:32:09.89	20.76	2.46	-60.9	-70.6	3.8	7.45e-01	0	25	104	0	86	10758
2026-01-13 22:32:10.89	20.75	2.53	-60.9	-70.7	3.8	7.47e-01	0	26	104	0	86	10799
2026-01-13 22:32:11.89	20.74	2.60	-60.9	-70.7	3.8	7.45e-01	0	26	104	0	86	10808
2026-01-13 22:32:12.90	20.73	2.68	-60.9	-70.6	3.8	7.46e-01	0	26	104	0	86	10769
2026-01-13 22:32:13.91	20.73	2.75	-60.9	-70.7	3.8	7.45e-01	0	26	104	0	86	10783
2026-01-13 22:32:14.90	20.72	2.82	-60.9	-70.6	3.8	7.47e-01	0	26	104	0	86	10772
2026-01-13 22:32:15.90	20.71	2.89	-60.9	-70.6	3.8	7.47e-01	0	25	104	0	86	10764
2026-01-13 22:32:16.90	20.70	2.96	-60.9	-70.6	3.8	7.45e-01	0	26	104	0	86	10761
2026-01-13 22:32:17.90	20.69	3.04	-60.9	-70.7	3.8	7.45e-01	0	26	104	0	86	10796
2026-01-13 22:32:18.89	20.68	3.11	-60.9	-70.7	3.8	7.46e-01	0	26	104	0	86	10805
2026-01-13 22:32:19.90	20.67	3.18	-60.9	-70.7	3.8	7.46e-01	0	26	104	0	86	10831
2026-01-13 22:32:20.90	20.66	3.26	-60.9	-70.6	3.8	7.46e-01	0	26	104	0	86	10770
2026-01-13 22:32:21.90	20.65	3.33	-60.9	-70.7	3.8	7.46e-01	0	26	104	0	86	10790
2026-01-13 22:32:22.89	20.64	3.41	-60.9	-70.7	3.8	7.45e-01	0	26	104	0	86	10779
2026-01-13 22:32:23.90	20.63	3.48	-60.9	-70.7	3.8	7.46e-01	0	26	104	0	86	10795
2026-01-13 22:32:24.89	20.63	3.56	-60.9	-70.7	3.8	7.45e-01	0	26	104	0	86	10803
2026-01-13 22:32:25.89	20.62	3.63	-60.9	-70.6	3.8	7.47e-01	0	26	104	0	86	10774
2026-01-13 22:32:26.89	20.61	3.71	-60.9	-70.7	3.8	7.45e-01	0	26	104	0	86	10801
2026-01-13 22:32:27.89	20.60	3.78	-60.9	-70.6	3.8	7.45e-01	0	26	104	0	86	10769
2026-01-13 22:32:28.90	20.59	3.86	-60.9	-70.7	3.8	7.46e-01	0	26	104	0	86	10802
2026-01-13 22:32:29.91	20.58	3.94	-60.9	-70.6	3.8	7.46e-01	0	26	104	0	86	10772
2026-01-13 22:32:30.91	20.57	4.01	-60.9	-70.7	3.8	7.47e-01	0	26	104	0	86	10783
2026-01-13 22:32:31.91	20.56	4.09	-60.9	-70.7	3.8	7.46e-01	0	26	104	0	86	10786
2026-01-13 22:32:32.90	20.55	4.16	-60.9	-70.7	3.8	7.47e-01	0	26	104	0	86	10812
2026-01-13 22:32:33.91	20.53	4.24	-60.9	-70.6	3.8	7.44e-01	0	26	104	0	86	10766
2026-01-13 22:32:34.91	20.52	4.32	-60.9	-70.7	3.8	7.43e-01	0	26	104	0	86	10808
2026-01-13 22:32:35.90	20.51	4.40	-60.9	-70.7	3.8	7.48e-01	0	26	104	0	86	10795
2026-01-13 22:32:36.90	20.50	4.48	-60.9	-70.7	3.8	7.45e-01	0	26	104	0	86	10812
2026-01-13 22:32:37.90	20.49	4.55	-60.9	-70.6	3.8	7.47e-01	0	26	104	0	86	10770
2026-01-13 22:32:38.91	20.48	4.63	-60.9	-70.6	3.8	7.45e-01	0	26	104	0	86	10771
2026-01-13 22:32:39.90	20.47	4.71	-60.9	-70.7	3.8	7.45e-01	0	26	104	0	86	10800
2026-01-13 22:32:40.91	20.46	4.79	-60.9	-70.7	3.8	7.45e-01	0	26	104	0	86	10837
2026-01-13 22:32:41.91	20.45	4.87	-60.9	-70.7	3.8	7.45e-01	0	26	104	0	86	10815
2026-01-13 22:32:42.91	20.44	4.95	-60.9	-70.7	3.8	7.46e-01	0	26	104	0	86	10819
2026-01-13 22:32:43.91	20.42	5.03	-60.9	-70.6	3.8	7.46e-01	0	26	104	0	86	10763
2026-01-13 22:32:44.91	20.41	5.11	-60.9	-70.7	3.8	7.45e-01	0	26	104	0	86	10807
2026-01-13 22:32:45.91	20.40	5.20	-60.9	-70.7	3.8	7.45e-01	0	26	104	0	86	10786
2026-01-13 22:32:46.91	20.39	5.28	-60.9	-70.7	3.8	7.45e-01	0	26	104	0	86	10797
2026-01-13 22:32:47.90	20.38	5.36	-60.9	-70.7	3.8	7.44e-01	0	26	104	0	86	10822
2026-01-13 22:32:48.90	20.37	5.44	-60.9	-70.7	3.8	7.46e-01	0	26	104	0	86	10810
2026-01-13 22:32:49.90	20.35	5.52	-60.9	-70.7	3.8	7.45e-01	0	26	104	0	86	10823
2026-01-13 22:32:50.90	20.34	5.61	-60.9	-70.7	3.8	7.45e-01	0	26	104	0	86	10796
2026-01-13 22:32:51.90	20.33	5.69	-60.9	-70.7	3.8	7.46e-01	0	26	104	0	86	10827
2026-01-13 22:32:52.89	20.32	5.77	-60.9	-70.7	3.8	7.43e-01	0	26	104	0	86	10810
2026-01-13 22:32:53.89	20.30	5.86	-60.9	-70.7	3.8	7.45e-01	0	26	104	0	86	10787
2026-01-13 22:32:54.89	20.29	5.94	-60.9	-70.7	3.8	7.46e-01	0	26	104	0	86	10793
2026-01-13 22:32:55.88	20.28	6.02	-60.9	-70.7	3.8	7.46e-01	0	26	104	0	86	10796
2026-01-13 22:32:56.88	20.26	6.11	-60.9	-70.7	3.8	7.47e-01	0	26	104	0	86	10825
2026-01-13 22:32:57.88	20.25	6.19	-60.9	-70.7	3.8	7.45e-01	0	26	104	0	86	10830
2026-01-13 22:32:58.88	20.24	6.28	-60.9	-70.7	3.8	7.44e-01	0	26	104	0	86	10830
2026-01-13 22:32:59.89	20.22	6.37	-60.9	-70.7	3.8	7.45e-01	0	26	104	0	86	10875
2026-01-13 22:33:00.89	20.21	6.45	-60.9	-70.7	3.8	7.47e-01	0	27	104	0	86	10799
2026-01-13 22:33:01.89	20.20	6.54	-60.9	-70.7	3.8	7.44e-01	0	27	104	0	86	10819
2026-01-13 22:33:02.90	20.18	6.63	-61.0	-70.7	3.8	7.45e-01	0	26	104	0	86	10843
2026-01-13 22:33:03.90	20.17	6.72	-61.0	-70.7	3.8	7.45e-01	0	26	104	0	86	10844
2026-01-13 22:33:04.90	20.15	6.80	-60.9	-70.7	3.8	7.45e-01	0	27	104	0	86	10823
2026-01-13 22:33:05.90	20.14	6.89	-60.9	-70.7	3.8	7.45e-01	0	27	104	0	86	10814
2026-01-13 22:33:06.89	20.13	6.98	-61.0	-70.7	3.8	7.45e-01	0	26	104	0	86	10816
2026-01-13 22:33:07.89	20.11	7.07	-61.0	-70.7	3.8	7.44e-01	0	26	104	0	86	10818
2026-01-13 22:33:08.89	20.10	7.16	-61.0	-70.7	3.8	7.46e-01	0	27	104	0	86	10804
2026-01-13 22:33:09.89	20.08	7.25	-61.0	-70.7	3.8	7.46e-01	0	27	104	0	86	10807
2026-01-13 22:33:10.90	20.07	7.34	-61.0	-70.7	3.8	7.45e-01	0	27	104	0	86	10861
2026-01-13 22:33:11.90	20.05	7.43	-61.0	-70.7	3.8	7.45e-01	0	27	104	0	86	10863
2026-01-13 22:33:12.90	20.04	7.52	-61.0	-70.7	3.8	7.45e-01	0	27	104	0	86	10820
2026-01-13 22:33:13.91	20.02	7.62	-61.0	-70.7	3.8	7.46e-01	0	26	104	0	86	10826
2026-01-13 22:33:14.91	20.01	7.71	-61.0	-70.7	3.8	7.47e-01	0	27	104	0	86	10829
2026-01-13 22:33:15.90	19.99	7.80	-60.9	-70.7	3.8	7.45e-01	0	27	104	0	86	10802
2026-01-13 22:33:16.90	19.97	7.89	-61.0	-70.7	3.8	7.46e-01	0	27	104	0	86	10812
2026-01-13 22:33:17.90	19.96	7.99	-61.0	-70.7	3.8	7.46e-01	0	27	104	0	86	10824
2026-01-13 22:33:18.90	19.94	8.08	-61.0	-70.7	3.8	7.45e-01	0	27	104	0	86	10800
2026-01-13 22:33:19.91	19.92	8.18	-61.0	-70.7	3.8	7.44e-01	0	27	104	0	86	10806
2026-01-13 22:33:20.90	19.91	8.27	-60.9	-70.7	3.8	7.45e-01	0	27	104	0	86	10849
2026-01-13 22:33:21.90	19.89	8.37	-61.0	-70.7	3.8	7.44e-01	0	27	104	0	86	10793
2026-01-13 22:33:22.89	19.87	8.46	-61.0	-70.7	3.8	7.47e-01	0	27	104	0	86	10796
2026-01-13 22:33:23.89	19.86	8.56	-61.0	-70.7	3.8	7.47e-01	0	27	104	0	86	10851
2026-01-13 22:33:24.89	19.84	8.66	-60.9	-70.7	3.8	7.47e-01	0	27	104	0	86	10806
2026-01-13 22:33:25.89	19.82	8.76	-61.0	-70.7	3.8	7.44e-01	0	27	104	0	86	10800
2026-01-13 22:33:26.89	19.81	8.85	-61.0	-70.7	3.8	7.46e-01	0	27	104	0	86	10823
2026-01-13 22:33:27.88	19.79	8.95	-61.0	-70.7	3.8	7.44e-01	0	27	104	0	86	10863
2026-01-13 22:33:28.89	19.77	9.05	-61.0	-70.7	3.8	7.45e-01	0	27	104	0	86	10800
2026-01-13 22:33:29.89	19.75	9.15	-61.0	-70.7	3.8	7.46e-01	0	27	104	0	86	10803
2026-01-13 22:33:30.88	19.73	9.25	-61.0	-70.7	3.8	7.46e-01	0	27	104	0	86	10844
2026-01-13 22:33:31.89	19.71	9.35	-61.0	-70.7	3.8	7.44e-01	0	27	104	0	86	10822
2026-01-13 22:33:32.89	19.70	9.45	-61.0	-70.7	3.8	7.45e-01	0	27	104	0	86	10830
2026-01-13 22:33:33.90	19.68	9.56	-61.0	-70.7	3.8	7.45e-01	0	27	104	0	86	10833
2026-01-13 22:33:34.89	19.66	9.66	-60.9	-70.7	3.8	7.46e-01	0	27	104	0	86	10809
2026-01-13 22:33:35.88	19.64	9.76	-60.9	-70.7	3.8	7.46e-01	0	27	104	0	86	10813
2026-01-13 22:33:36.87	19.62	9.86	-60.9	-70.7	3.8	7.44e-01	0	27	104	0	86	10830
2026-01-13 22:33:37.87	19.60	9.97	-60.9	-70.6	3.8	7.46e-01	0	27	104	0	86	10748
2026-01-13 22:33:38.88	19.58	10.07	-61.0	-70.7	3.8	7.45e-01	0	27	104	0	86	10849
2026-01-13 22:33:39.87	19.56	10.18	-60.9	-70.7	3.8	7.45e-01	0	27	104	0	86	10811
2026-01-13 22:33:40.88	19.54	10.28	-61.0	-70.7	3.8	7.46e-01	0	27	104	0	86	10854
2026-01-13 22:33:41.88	19.52	10.39	-61.0	-70.7	3.8	7.45e-01	0	27	104	0	86	10872
2026-01-13 22:33:42.88	19.50	10.50	-61.0	-70.7	3.8	7.46e-01	0	27	104	0	86	10843
2026-01-13 22:33:43.89	19.47	10.61	-60.9	-70.7	3.8	7.48e-01	0	27	104	0	86	10801
2026-01-13 22:33:44.88	19.45	10.71	-61.0	-70.7	3.8	7.46e-01	0	27	104	0	86	10816
2026-01-13 22:33:45.87	19.43	10.82	-60.9	-70.7	3.8	7.44e-01	0	27	104	0	86	10822
2026-01-13 22:33:46.87	19.41	10.93	-61.0	-70.7	3.8	7.45e-01	0	27	104	0	86	10857
2026-01-13 22:33:47.87	19.39	11.04	-60.9	-70.7	3.8	7.47e-01	0	27	104	0	86	10870
2026-01-13 22:33:48.87	19.37	11.15	-61.0	-70.7	3.8	7.44e-01	0	27	104	0	86	10807
2026-01-13 22:33:49.87	19.34	11.26	-61.0	-70.7	3.8	7.45e-01	0	27	104	0	86	10817
2026-01-13 22:33:50.87	19.32	11.38	-60.9	-70.7	3.8	7.45e-01	0	27	104	0	86	10799
2026-01-13 22:33:51.87	19.30	11.49	-61.0	-70.7	3.8	7.48e-01	0	27	104	0	86	10793
2026-01-13 22:33:52.87	19.27	11.60	-61.0	-70.7	3.8	7.46e-01	0	27	104	0	86	10851
2026-01-13 22:33:53.87	19.25	11.72	-61.0	-70.7	3.8	7.45e-01	0	27	104	0	86	10802
2026-01-13 22:33:54.87	19.23	11.83	-61.0	-70.7	3.8	7.45e-01	0	27	104	0	86	10846
2026-01-13 22:33:55.88	19.20	11.95	-61.0	-70.7	3.8	7.44e-01	0	27	104	0	86	10827
2026-01-13 22:33:56.87	19.18	12.07	-61.0	-70.7	3.8	7.45e-01	0	27	104	0	86	10800
2026-01-13 22:33:57.88	19.15	12.18	-61.0	-70.7	3.8	7.45e-01	0	27	104	0	86	10852
2026-01-13 22:33:58.88	19.13	12.30	-61.0	-70.7	3.8	7.45e-01	0	27	104	0	86	10828
2026-01-13 22:33:59.88	19.10	12.42	-60.9	-70.7	3.8	7.46e-01	0	27	104	0	86	10804
2026-01-13 22:34:00.89	19.08	12.54	-61.0	-70.7	3.8	7.46e-01	0	27	104	0	86	10850
2026-01-13 22:34:01.89	19.05	12.66	-60.9	-70.7	3.8	7.45e-01	0	27	104	0	86	10860
2026-01-13 22:34:02.89	19.03	12.78	-61.0	-70.7	3.8	7.46e-01	0	27	104	0	86	10826
2026-01-13 22:34:03.88	19.00	12.90	-60.9	-70.7	3.8	7.44e-01	0	27	104	0	86	10794
2026-01-13 22:34:04.89	18.97	13.03	-61.0	-70.7	3.8	7.45e-01	0	27	104	0	86	10835
2026-01-13 22:34:05.88	18.95	13.15	-61.0	-70.7	3.8	7.46e-01	0	27	104	0	86	10811
2026-01-13 22:34:06.88	18.92	13.28	-61.0	-70.7	3.8	7.45e-01	0	27	104	0	86	10838
2026-01-13 22:34:07.88	18.89	13.40	-61.0	-70.7	3.8	7.46e-01	0	27	104	0	86	10788
2026-01-13 22:34:08.88	18.86	13.53	-60.9	-70.7	3.8	7.45e-01	0	27	104	0	86	10795
2026-01-13 22:34:09.88	18.83	13.65	-61.0	-70.7	3.8	7.45e-01	0	27	104	0	86	10833
2026-01-13 22:34:10.88	18.81	13.78	-60.9	-70.7	3.8	7.45e-01	0	27	104	0	86	10852
2026-01-13 22:34:11.88	18.78	13.91	-61.0	-70.7	3.8	7.46e-01	0	27	104	0	86	10818
2026-01-13 22:34:12.87	18.75	14.04	-61.0	-70.7	3.8	7.45e-01	0	27	104	0	86	10831
2026-01-13 22:34:13.87	18.72	14.17	-61.0	-70.7	3.8	7.45e-01	0	27	104	0	86	10802
2026-01-13 22:34:14.87	18.69	14.30	-61.0	-70.8	3.8	7.44e-01	0	27	104	0	86	10918
2026-01-13 22:34:15.87	18.66	14.43	-61.0	-70.7	3.8	7.46e-01	0	27	104	0	86	10820
2026-01-13 22:34:16.87	18.63	14.57	-61.0	-70.7	3.8	7.45e-01	0	27	104	0	86	10800
2026-01-13 22:34:17.86	18.60	14.70	-61.0	-70.7	3.8	7.46e-01	0	27	104	0	86	10822
2026-01-13 22:34:18.87	18.56	14.84	-61.0	-70.7	3.8	7.47e-01	0	27	104	0	86	10817
2026-01-13 22:34:19.86	18.53	14.97	-60.9	-70.7	3.8	7.46e-01	0	27	104	0	86	10801
2026-01-13 22:34:20.87	18.50	15.11	-61.0	-70.7	3.8	7.45e-01	0	27	104	0	86	10824
2026-01-13 22:34:21.87	18.47	15.25	-61.0	-70.7	3.8	7.46e-01	0	27	104	0	86	10820
2026-01-13 22:34:22.87	18.43	15.39	-60.9	-70.6	3.9	7.45e-01	0	27	104	0	86	10776
2026-01-13 22:34:23.87	18.40	15.53	-61.0	-70.7	3.8	7.45e-01	0	27	104	0	86	10853
2026-01-13 22:34:24.86	18.37	15.67	-61.0	-70.7	3.8	7.46e-01	0	27	104	0	86	10882
2026-01-13 22:34:25.85	18.33	15.81	-61.0	-70.7	3.8	7.46e-01	0	27	104	0	86	10828
2026-01-13 22:34:26.85	18.30	15.95	-61.0	-70.7	3.8	7.46e-01	0	27	104	0	86	10799
2026-01-13 22:34:27.85	18.26	16.10	-60.9	-70.7	3.8	7.45e-01	0	27	104	0	86	10781
2026-01-13 22:34:28.85	18.23	16.24	-61.0	-70.7	3.8	7.46e-01	0	27	104	0	86	10811
2026-01-13 22:34:29.84	18.19	16.39	-60.9	-70.6	3.8	7.46e-01	0	27	104	0	86	10773
2026-01-13 22:34:30.85	18.15	16.54	-61.0	-70.7	3.8	7.44e-01	0	27	104	0	86	10831
2026-01-13 22:34:31.85	18.12	16.69	-61.0	-70.7	3.8	7.46e-01	0	27	104	0	86	10852
2026-01-13 22:34:32.85	18.08	16.84	-60.9	-70.7	3.8	7.46e-01	0	27	104	0	86	10827
2026-01-13 22:34:33.84	18.04	16.99	-60.9	-70.7	3.8	7.44e-01	0	27	104	0	86	10814
2026-01-13 22:34:34.84	18.00	17.14	-60.9	-70.7	3.8	7.46e-01	0	27	104	0	86	10799
2026-01-13 22:34:35.84	17.96	17.29	-60.9	-70.7	3.8	7.46e-01	0	27	104	0	86	10819
2026-01-13 22:34:36.84	17.92	17.45	-60.9	-70.7	3.8	7.45e-01	0	27	104	0	86	10822
2026-01-13 22:34:37.84	17.88	17.61	-61.0	-70.7	3.8	7.46e-01	0	27	104	0	86	10787
2026-01-13 22:34:38.84	17.84	17.76	-60.9	-70.7	3.8	7.45e-01	0	27	104	0	86	10799
2026-01-13 22:34:39.84	17.80	17.92	-60.9	-70.7	3.8	7.45e-01	0	27	104	0	86	10829
2026-01-13 22:34:40.85	17.76	18.08	-61.0	-70.6	3.8	7.46e-01	0	27	104	0	86	10766
2026-01-13 22:34:41.84	17.72	18.24	-60.9	-70.7	3.8	7.45e-01	0	27	104	0	86	10836
2026-01-13 22:34:42.83	17.68	18.41	-61.0	-70.7	3.8	7.45e-01	0	27	104	0	86	10810
2026-01-13 22:34:43.82	17.63	18.57	-61.0	-70.7	3.8	7.45e-01	0	27	104	0	86	10809
2026-01-13 22:34:44.82	17.59	18.73	-60.9	-70.7	3.8	7.45e-01	0	27	104	0	86	10798
2026-01-13 22:34:45.82	17.54	18.90	-61.0	-70.7	3.8	7.46e-01	0	27	104	0	86	10836
2026-01-13 22:34:46.82	17.50	19.07	-60.9	-70.7	3.8	7.46e-01	0	27	104	0	86	10810
2026-01-13 22:34:47.82	17.45	19.24	-60.9	-70.7	3.8	7.46e-01	0	27	104	0	86	10806
2026-01-13 22:34:48.82	17.41	19.41	-60.9	-70.7	3.8	7.46e-01	0	27	104	0	86	10814
2026-01-13 22:34:49.82	17.36	19.58	-60.9	-70.7	3.8	7.44e-01	0	27	104	0	86	10832
2026-01-13 22:34:50.81	17.31	19.76	-61.0	-70.7	3.8	7.44e-01	0	27	104	0	86	10820
2026-01-13 22:34:51.81	17.26	19.93	-60.9	-70.7	3.8	7.46e-01	0	27	104	0	86	10807
2026-01-13 22:34:52.81	17.21	20.11	-60.9	-70.7	3.8	7.45e-01	0	27	104	0	86	10828
2026-01-13 22:34:53.81	17.16	20.29	-60.9	-70.7	3.8	7.46e-01	0	27	104	0	86	10843
2026-01-13 22:34:54.80	17.11	20.47	-60.9	-70.7	3.8	7.46e-01	0	27	104	0	86	10793
2026-01-13 22:34:55.80	17.06	20.65	-61.0	-70.7	3.8	7.46e-01	0	27	104	0	86	10813
2026-01-13 22:34:56.80	17.01	20.84	-61.0	-70.7	3.8	7.47e-01	0	27	104	0	86	10798
2026-01-13 22:34:57.80	16.95	21.02	-61.0	-70.7	3.8	7.46e-01	0	27	104	0	86	10824
2026-01-13 22:34:58.79	16.90	21.21	-61.0	-70.7	3.8	7.46e-01	0	27	104	0	86	10818
2026-01-13 22:34:59.79	16.85	21.40	-61.0	-70.7	3.8	7.48e-01	0	27	104	0	86	10820
2026-01-13 22:35:00.78	16.79	21.59	-60.9	-70.7	3.9	7.47e-01	0	27	104	0	86	10810
2026-01-13 22:35:01.78	16.74	21.78	-61.0	-70.7	3.8	7.44e-01	0	27	104	0	86	10842
2026-01-13 22:35:02.78	16.68	21.97	-61.0	-70.7	3.8	7.47e-01	0	27	104	0	86	10846
2026-01-13 22:35:03.78	16.62	22.17	-61.0	-70.7	3.8	7.46e-01	0	27	104	0	86	10845
2026-01-13 22:35:04.78	16.56	22.37	-61.0	-70.7	3.8	7.45e-01	0	27	104	0	86	10854
2026-01-13 22:35:05.77	16.50	22.57	-61.0	-70.7	3.8	7.45e-01	0	27	104	0	86	10857
2026-01-13 22:35:06.76	16.44	22.77	-61.0	-70.7	3.8	7.45e-01	0	27	104	0	86	10866
2026-01-13 22:35:07.76	16.38	22.97	-61.0	-70.7	3.8	7.45e-01	0	27	104	0	86	10822
2026-01-13 22:35:08.76	16.32	23.18	-61.0	-70.7	3.8	7.46e-01	0	27	104	0	86	10841
2026-01-13 22:35:09.75	16.25	23.38	-61.0	-70.7	3.8	7.46e-01	0	27	104	0	86	10860
2026-01-13 22:35:10.75	16.19	23.60	-61.0	-70.7	3.8	7.46e-01	0	27	104	0	86	10803
2026-01-13 22:35:11.75	16.12	23.81	-61.0	-70.7	3.8	7.45e-01	0	27	104	0	86	10852
2026-01-13 22:35:12.75	16.06	24.02	-60.9	-70.7	3.8	7.45e-01	0	27	104	0	86	10793
2026-01-13 22:35:13.74	15.99	24.24	-61.0	-70.7	3.8	7.47e-01	0	27	104	0	86	10823
2026-01-13 22:35:14.74	15.92	24.46	-61.0	-70.7	3.8	7.46e-01	0	27	104	0	86	10832
2026-01-13 22:35:15.74	15.85	24.68	-61.0	-70.7	3.8	7.46e-01	0	27	104	0	86	10826
2026-01-13 22:35:16.74	15.78	24.90	-61.0	-70.7	3.8	7.49e-01	0	27	104	0	86	10841
2026-01-13 22:35:17.73	15.71	25.12	-60.9	-70.6	3.8	7.46e-01	0	27	104	0	86	10770
2026-01-13 22:35:18.74	15.63	25.35	-60.9	-70.7	3.8	7.45e-01	0	27	104	0	86	10788
2026-01-13 22:35:19.73	15.56	25.58	-60.9	-70.7	3.8	7.43e-01	0	27	104	0	86	10813
2026-01-13 22:35:20.73	15.48	25.81	-61.0	-70.7	3.8	7.45e-01	0	27	104	0	86	10811
2026-01-13 22:35:21.73	15.40	26.05	-61.0	-70.7	3.8	7.47e-01	0	27	104	0	86	10826
2026-01-13 22:35:22.73	15.32	26.29	-61.0	-70.7	3.8	7.46e-01	0	27	104	0	86	10852
2026-01-13 22:35:23.73	15.24	26.53	-61.0	-70.7	3.8	7.47e-01	0	27	104	0	86	10793
2026-01-13 22:35:24.73	15.16	26.77	-60.9	-70.7	3.8	7.44e-01	0	27	104	0	86	10817
2026-01-13 22:35:25.73	15.08	27.02	-61.0	-70.7	3.8	7.45e-01	0	27	104	0	86	10810
2026-01-13 22:35:26.73	14.99	27.26	-61.0	-70.7	3.8	7.45e-01	0	27	104	0	86	10835
2026-01-13 22:35:27.72	14.91	27.51	-60.9	-70.7	3.8	7.44e-01	0	27	104	0	86	10849
2026-01-13 22:35:28.72	14.82	27.77	-61.0	-70.7	3.8	7.46e-01	0	27	104	0	86	10796
2026-01-13 22:35:29.72	14.73	28.02	-60.9	-70.7	3.8	7.47e-01	0	28	104	0	86	10855
2026-01-13 22:35:30.73	14.64	28.28	-61.0	-70.7	3.8	7.46e-01	0	27	104	0	86	10821
2026-01-13 22:35:31.73	14.54	28.55	-61.0	-70.7	3.8	7.46e-01	0	27	104	0	86	10795
2026-01-13 22:35:32.73	14.45	28.81	-61.0	-70.7	3.8	7.45e-01	0	27	104	0	86	10790
2026-01-13 22:35:33.73	14.35	29.08	-61.0	-70.7	3.8	7.45e-01	0	27	104	0	86	10812
2026-01-13 22:35:34.72	14.26	29.35	-60.9	-70.7	3.8	7.45e-01	0	27	104	0	86	10848
2026-01-13 22:35:35.73	14.15	29.62	-61.0	-70.7	3.8	7.46e-01	0	27	104	0	86	10833
2026-01-13 22:35:36.73	14.05	29.90	-60.9	-70.6	3.8	7.46e-01	0	27	104	0	86	10766
2026-01-13 22:35:37.72	13.95	30.18	-61.0	-70.7	3.8	7.46e-01	0	27	104	0	86	10812
2026-01-13 22:35:38.72	13.84	30.46	-60.9	-70.7	3.8	7.45e-01	0	27	104	0	86	10841
2026-01-13 22:35:39.72	13.73	30.75	-60.9	-70.7	3.8	7.45e-01	0	27	104	0	86	10799
2026-01-13 22:35:40.72	13.62	31.04	-60.9	-70.7	3.8	7.44e-01	0	27	104	0	86	10816
2026-01-13 22:35:41.72	13.51	31.33	-61.0	-70.7	3.8	7.44e-01	0	27	104	0	86	10853
2026-01-13 22:35:42.72	13.40	31.63	-60.9	-70.7	3.8	7.48e-01	0	27	104	0	86	10826
2026-01-13 22:35:43.72	13.28	31.93	-61.0	-70.7	3.8	7.44e-01	0	27	104	0	86	10858
2026-01-13 22:35:44.72	13.16	32.23	-61.0	-70.7	3.8	7.46e-01	0	27	104	0	86	10824
2026-01-13 22:35:45.72	13.04	32.54	-60.9	-70.7	3.8	7.47e-01	0	27	104	0	86	10824
2026-01-13 22:35:46.72	12.91	32.85	-60.9	-70.7	3.8	7.47e-01	0	27	104	0	86	10825
2026-01-13 22:35:47.71	12.78	33.16	-60.9	-70.7	3.8	7.46e-01	0	27	104	0	86	10781
2026-01-13 22:35:48.71	12.65	33.47	-61.0	-70.7	3.8	7.45e-01	0	27	104	0	86	10812
2026-01-13 22:35:49.71	12.52	33.80	-61.0	-70.7	3.8	7.47e-01	0	27	104	0	86	10838
2026-01-13 22:35:50.71	12.38	34.12	-61.0	-70.7	3.8	7.46e-01	0	27	104	0	86	10866
2026-01-13 22:35:51.71	12.24	34.45	-61.0	-70.7	3.8	7.46e-01	0	27	104	0	86	10844
2026-01-13 22:35:52.70	12.10	34.78	-60.9	-70.7	3.8	7.46e-01	0	27	104	0	86	10792
2026-01-13 22:35:53.70	11.96	35.12	-61.0	-70.7	3.8	7.45e-01	0	27	104	0	86	10808
2026-01-13 22:35:54.69	11.81	35.46	-60.9	-70.7	3.8	7.46e-01	0	27	104	0	86	10800
2026-01-13 22:35:55.68	11.66	35.80	-61.0	-70.7	3.8	7.47e-01	0	27	104	0	86	10804
2026-01-13 22:35:56.69	11.50	36.15	-61.0	-70.7	3.8	7.44e-01	0	27	104	0	86	10811
2026-01-13 22:35:57.68	11.34	36.50	-61.0	-70.7	3.8	7.45e-01	0	27	104	0	86	10832
2026-01-13 22:35:58.69	11.18	36.86	-60.9	-70.7	3.8	7.45e-01	0	27	104	0	86	10826
2026-01-13 22:35:59.68	11.01	37.22	-60.9	-70.7	3.8	7.45e-01	0	27	104	0	86	10818
2026-01-13 22:36:00.65	10.85	37.58	-61.0	-70.7	3.8	7.46e-01	0	27	104	0	86	10827
2026-01-13 22:36:01.65	10.67	37.95	-61.0	-70.7	3.8	7.46e-01	0	27	104	0	86	10853
2026-01-13 22:36:02.65	10.49	38.32	-61.0	-70.7	3.8	7.47e-01	0	27	104	0	86	10812
2026-01-13 22:36:03.64	10.31	38.70	-61.0	-70.7	3.8	7.46e-01	0	27	104	0	86	10831
2026-01-13 22:36:04.64	10.12	39.08	-61.0	-70.7	3.8	7.45e-01	0	27	104	0	86	10852
2026-01-13 22:36:05.64	9.92	39.47	-61.0	-70.7	3.8	7.46e-01	0	27	104	0	86	10835
2026-01-13 22:36:06.65	9.72	39.87	-61.0	-70.7	3.8	7.46e-01	0	27	104	0	86	10826
2026-01-13 22:36:07.65	9.52	40.27	-61.0	-70.7	3.8	7.45e-01	0	28	104	0	86	10838
2026-01-13 22:36:08.65	9.31	40.67	-61.0	-70.7	3.8	7.44e-01	0	27	104	0	86	10826
2026-01-13 22:36:09.65	9.09	41.08	-60.9	-70.7	3.8	7.45e-01	0	27	104	0	86	10821
2026-01-13 22:36:10.64	8.87	41.48	-60.9	-70.7	3.8	7.46e-01	0	27	104	0	86	10845
2026-01-13 22:36:11.65	8.64	41.91	-60.9	-70.7	3.8	7.44e-01	0	27	104	0	86	10826
2026-01-13 22:36:12.64	8.41	42.32	-60.9	-70.7	3.8	7.46e-01	0	27	104	0	86	10800
2026-01-13 22:36:13.65	8.17	42.76	-60.9	-70.7	3.8	7.46e-01	0	27	104	0	86	10781
2026-01-13 22:36:14.65	7.92	43.19	-60.9	-70.7	3.8	7.46e-01	0	27	104	0	86	10803
2026-01-13 22:36:15.65	7.66	43.63	-61.0	-70.7	3.8	7.46e-01	0	28	104	0	86	10813
2026-01-13 22:36:16.65	7.40	44.07	-60.9	-70.7	3.8	7.46e-01	0	27	104	0	86	10786
2026-01-13 22:36:17.65	7.13	44.52	-60.9	-70.7	3.8	7.44e-01	0	27	104	0	86	10795
2026-01-13 22:36:18.65	6.85	44.97	-61.0	-70.7	3.8	7.47e-01	0	27	104	0	86	10800
2026-01-13 22:36:19.65	6.57	45.43	-60.9	-70.7	3.8	7.45e-01	0	27	104	0	86	10867
2026-01-13 22:36:20.65	6.27	45.89	-60.9	-70.7	3.8	7.46e-01	0	27	104	0	86	10811
2026-01-13 22:36:21.66	5.96	46.36	-60.9	-70.7	3.8	7.45e-01	0	27	104	0	86	10815
2026-01-13 22:36:22.66	5.65	46.84	-60.9	-70.6	3.8	7.46e-01	0	27	104	0	86	10771
2026-01-13 22:36:23.67	5.32	47.32	-60.9	-70.7	3.8	7.46e-01	0	27	104	0	86	10820
2026-01-13 22:36:24.67	4.98	47.80	-60.9	-70.7	3.8	7.45e-01	0	27	104	0	86	10796
2026-01-13 22:36:25.67	4.64	48.29	-60.9	-70.6	3.8	7.46e-01	0	27	104	0	86	10772
2026-01-13 22:36:26.68	4.27	48.79	-61.0	-70.7	3.8	7.45e-01	0	27	104	0	86	10809
2026-01-13 22:36:27.67	3.91	49.28	-61.0	-70.7	3.8	7.47e-01	0	27	104	0	86	10797
2026-01-13 22:36:28.68	3.52	49.79	-60.9	-70.7	3.8	7.44e-01	0	27	104	0	86	10846
2026-01-13 22:36:29.68	3.12	50.30	-60.9	-70.7	3.8	7.44e-01	0	27	104	0	86	10823
2026-01-13 22:36:30.68	2.71	50.81	-61.0	-70.7	3.8	7.45e-01	0	27	104	0	86	10824
2026-01-13 22:36:31.68	2.28	51.33	-60.9	-70.6	3.8	7.47e-01	0	27	104	0	86	10773
2026-01-13 22:36:32.67	1.85	51.85	-61.0	-70.7	3.8	7.46e-01	0	27	104	0	86	10810
2026-01-13 22:36:33.67	1.39	52.38	-61.0	-70.7	3.8	7.45e-01	0	27	104	0	86	10825
2026-01-13 22:36:34.67	0.91	52.91	-61.0	-70.7	3.8	7.47e-01	0	27	104	0	86	10841
2026-01-13 22:36:35.67	0.42	53.44	-61.0	-70.7	3.8	7.46e-01	0	27	104	0	86	10829
2026-01-13 22:36:36.68	359.90	53.99	-61.0	-70.7	3.8	7.46e-01	0	27	104	0	86	10847
2026-01-13 22:36:37.67	359.37	54.53	-61.0	-70.7	3.8	7.45e-01	0	27	104	0	86	10791
2026-01-13 22:36:38.67	358.82	55.07	-60.9	-70.7	3.8	7.47e-01	0	27	104	0	86	10809
2026-01-13 22:36:39.67	358.24	55.63	-60.9	-70.7	3.8	7.46e-01	0	27	104	0	86	10849
2026-01-13 22:36:40.68	357.64	56.19	-60.9	-70.7	3.8	7.45e-01	0	28	104	0	86	10781
2026-01-13 22:36:41.68	357.01	56.74	-60.9	-70.7	3.8	7.46e-01	0	27	104	0	86	10783
2026-01-13 22:36:42.67	356.37	57.30	-60.9	-70.6	3.8	7.45e-01	0	27	104	0	86	10760
2026-01-13 22:36:43.68	355.68	57.87	-61.0	-70.6	3.8	7.44e-01	0	27	104	0	86	10777
2026-01-13 22:36:44.67	354.98	58.43	-60.9	-70.7	3.8	7.46e-01	0	27	104	0	86	10785
2026-01-13 22:36:45.67	354.23	58.99	-61.0	-70.7	3.8	7.46e-01	0	27	104	0	86	10824
2026-01-13 22:36:46.68	353.45	59.56	-60.9	-70.7	3.8	7.45e-01	0	27	104	0	86	10797
2026-01-13 22:36:47.68	352.64	60.13	-61.0	-70.7	3.8	7.45e-01	0	27	104	0	86	10800
2026-01-13 22:36:48.68	351.80	60.70	-61.0	-70.7	3.8	7.46e-01	0	27	104	0	86	10868
2026-01-13 22:36:49.67	350.92	61.26	-61.0	-70.6	3.8	7.46e-01	0	27	104	0	86	10775
2026-01-13 22:36:50.67	349.99	61.83	-60.9	-70.7	3.8	7.47e-01	0	27	104	0	86	10833
2026-01-13 22:36:51.67	349.02	62.40	-61.0	-70.7	3.8	7.45e-01	0	27	104	0	86	10837
2026-01-13 22:36:52.67	347.99	62.96	-61.0	-70.7	3.8	7.47e-01	0	27	104	0	86	10810
2026-01-13 22:36:53.66	346.94	63.52	-61.0	-70.7	3.8	7.45e-01	0	27	104	0	86	10816
2026-01-13 22:36:54.66	345.81	64.07	-60.9	-70.7	3.8	7.45e-01	0	28	104	0	86	10806
2026-01-13 22:36:55.66	344.63	64.63	-61.0	-70.7	3.8	7.46e-01	0	27	104	0	86	10851
2026-01-13 22:36:56.66	343.40	65.17	-61.0	-70.7	3.8	7.46e-01	0	27	104	0	86	10832
2026-01-13 22:36:57.66	342.10	65.71	-60.9	-70.7	3.8	7.46e-01	0	27	104	0	86	10798
2026-01-13 22:36:58.66	340.73	66.24	-60.9	-70.7	3.8	7.46e-01	0	27	104	0	86	10794
2026-01-13 22:36:59.65	339.31	66.76	-60.9	-70.7	3.8	7.46e-01	0	28	104	0	86	10801
2026-01-13 22:37:00.65	337.80	67.27	-61.0	-70.7	3.8	7.46e-01	0	27	104	0	86	10822
2026-01-13 22:37:01.65	336.22	67.77	-60.9	-70.7	3.8	7.46e-01	0	27	104	0	86	10818
2026-01-13 22:37:02.65	334.56	68.26	-60.9	-70.7	3.8	7.48e-01	0	27	104	0	86	10822
2026-01-13 22:37:03.66	332.80	68.74	-61.0	-70.7	3.8	7.45e-01	0	27	104	0	86	10810
2026-01-13 22:37:04.66	330.97	69.19	-61.0	-70.7	3.8	7.45e-01	0	27	104	0	86	10850
2026-01-13 22:37:05.66	329.05	69.63	-61.0	-70.7	3.8	7.47e-01	0	27	104	0	86	10804
2026-01-13 22:37:06.66	327.04	70.05	-60.9	-70.7	3.8	7.46e-01	0	27	104	0	86	10823
2026-01-13 22:37:07.66	324.95	70.44	-60.9	-70.7	3.8	7.46e-01	0	27	104	0	86	10801
2026-01-13 22:37:08.66	322.76	70.82	-60.9	-70.7	3.8	7.44e-01	0	27	104	0	86	10801
2026-01-13 22:37:09.66	320.49	71.16	-60.9	-70.7	3.8	7.44e-01	0	27	104	0	86	10793
2026-01-13 22:37:10.66	318.12	71.48	-60.9	-70.7	3.8	7.45e-01	0	27	104	0	86	10788
2026-01-13 22:37:11.66	315.67	71.77	-60.9	-70.7	3.8	7.45e-01	0	27	104	0	86	10809
2026-01-13 22:37:12.66	313.15	72.02	-60.9	-70.7	3.8	7.45e-01	0	27	104	0	86	10854
2026-01-13 22:37:13.66	310.55	72.25	-60.9	-70.6	3.8	7.45e-01	0	27	104	0	86	10746
2026-01-13 22:37:14.67	307.86	72.44	-61.0	-70.7	3.8	7.45e-01	0	27	104	0	86	10814
2026-01-13 22:37:15.67	305.14	72.59	-61.0	-70.7	3.8	7.45e-01	0	27	104	0	86	10794
2026-01-13 22:37:16.68	302.35	72.70	-61.0	-70.6	3.8	7.46e-01	0	27	104	0	86	10748
2026-01-13 22:37:17.68	299.55	72.78	-60.9	-70.7	3.8	7.47e-01	0	27	104	0	86	10843
2026-01-13 22:37:18.69	296.71	72.81	-61.0	-70.7	3.8	7.45e-01	0	27	104	0	86	10842
2026-01-13 22:37:19.68	293.92	72.81	-61.0	-70.7	3.8	7.46e-01	0	27	104	0	86	10805
2026-01-13 22:37:20.69	291.08	72.76	-61.0	-70.7	3.8	7.46e-01	0	27	104	0	86	10808
2026-01-13 22:37:21.69	288.29	72.68	-60.9	-70.6	3.8	7.43e-01	0	27	104	0	86	10776
2026-01-13 22:37:22.68	285.56	72.56	-60.9	-70.6	3.8	7.45e-01	0	27	104	0	86	10769
2026-01-13 22:37:23.68	282.85	72.40	-60.9	-70.7	3.8	7.46e-01	0	27	104	0	86	10801
2026-01-13 22:37:24.68	280.20	72.20	-60.9	-70.6	3.8	7.43e-01	0	27	104	0	86	10775
2026-01-13 22:37:25.69	277.59	71.97	-60.9	-70.6	3.8	7.44e-01	0	27	104	0	86	10770
2026-01-13 22:37:26.69	275.07	71.71	-60.9	-70.7	3.8	7.46e-01	0	27	104	0	86	10791
2026-01-13 22:37:27.69	272.64	71.41	-60.9	-70.6	3.8	7.45e-01	0	27	104	0	86	10777
2026-01-13 22:37:28.69	270.30	71.09	-60.9	-70.7	3.8	7.45e-01	0	27	104	0	86	10834
2026-01-13 22:37:29.68	268.06	70.74	-60.9	-70.7	3.8	7.46e-01	0	27	104	0	86	10820
2026-01-13 22:37:30.68	265.89	70.36	-60.9	-70.6	3.8	7.45e-01	0	27	104	0	86	10767
2026-01-13 22:37:31.68	263.81	69.96	-60.9	-70.7	3.8	7.45e-01	0	27	104	0	86	10795
2026-01-13 22:37:32.68	261.82	69.54	-60.9	-70.7	3.8	7.44e-01	0	27	104	0	86	10826
2026-01-13 22:37:33.68	259.92	69.10	-60.9	-70.7	3.8	7.46e-01	0	27	104	0	86	10809
2026-01-13 22:37:34.67	258.13	68.64	-60.9	-70.7	3.8	7.46e-01	0	27	104	0	86	10794
2026-01-13 22:37:35.67	256.40	68.17	-60.9	-70.6	3.8	7.43e-01	0	28	104	0	86	10768
2026-01-13 22:37:36.67	254.75	67.68	-60.9	-70.7	3.8	7.45e-01	0	27	104	0	86	10788
2026-01-13 22:37:37.67	253.18	67.17	-60.9	-70.7	3.8	7.48e-01	0	27	104	0	86	10837
2026-01-13 22:37:38.68	251.67	66.65	-60.9	-70.7	3.8	7.46e-01	0	27	104	0	86	10787
2026-01-13 22:37:39.68	250.25	66.13	-60.9	-70.6	3.8	7.46e-01	0	27	104	0	86	10757
2026-01-13 22:37:40.68	248.89	65.59	-60.9	-70.7	3.8	7.47e-01	0	28	104	0	86	10806
2026-01-13 22:37:41.68	247.61	65.05	-60.9	-70.7	3.8	7.48e-01	0	28	104	0	86	10797
2026-01-13 22:37:42.69	246.37	64.50	-60.9	-70.7	3.8	7.45e-01	0	27	104	0	86	10807
2026-01-13 22:37:43.69	245.20	63.94	-61.0	-70.6	3.8	7.45e-01	0	27	104	0	86	10764
2026-01-13 22:37:44.70	244.08	63.38	-60.9	-70.7	3.8	7.45e-01	0	27	104	0	86	10802
2026-01-13 22:37:45.70	243.02	62.82	-60.9	-70.7	3.8	7.47e-01	0	28	104	0	86	10793
2026-01-13 22:37:46.70	242.01	62.25	-60.9	-70.7	3.8	7.45e-01	0	27	104	0	86	10815
2026-01-13 22:37:47.69	241.05	61.69	-60.9	-70.6	3.8	7.44e-01	0	27	104	0	86	10773
2026-01-13 22:37:48.70	240.13	61.11	-60.9	-70.7	3.8	7.44e-01	0	28	104	0	86	10783
2026-01-13 22:37:49.70	239.25	60.54	-60.9	-70.7	3.8	7.45e-01	0	27	104	0	86	10783
2026-01-13 22:37:50.70	238.41	59.97	-60.9	-70.7	3.8	7.45e-01	0	27	104	0	86	10787
2026-01-13 22:37:51.70	237.61	59.41	-60.9	-70.7	3.8	7.47e-01	0	27	104	0	86	10799
2026-01-13 22:37:52.70	236.84	58.84	-60.9	-70.6	3.8	7.45e-01	0	27	104	0	86	10757
2026-01-13 22:37:53.70	236.11	58.27	-60.9	-70.6	3.8	7.46e-01	0	27	104	0	86	10769
2026-01-13 22:37:54.70	235.40	57.70	-60.9	-70.7	3.8	7.45e-01	0	27	104	0	86	10811
2026-01-13 22:37:55.70	234.73	57.14	-60.9	-70.6	3.8	7.46e-01	0	27	104	0	86	10776
2026-01-13 22:37:56.70	234.08	56.58	-60.9	-70.7	3.8	7.44e-01	0	27	104	0	86	10818
2026-01-13 22:37:57.69	233.47	56.03	-60.9	-70.6	3.8	7.46e-01	0	27	104	0	86	10774
2026-01-13 22:37:58.69	232.87	55.47	-60.9	-70.6	3.8	7.45e-01	0	27	104	0	86	10764
2026-01-13 22:37:59.69	232.30	54.92	-60.9	-70.7	3.8	7.45e-01	0	27	104	0	86	10785
2026-01-13 22:38:00.67	231.76	54.38	-60.9	-70.7	3.8	7.45e-01	0	28	104	0	86	10805
2026-01-13 22:38:01.67	231.23	53.84	-60.9	-70.6	3.8	7.45e-01	0	27	104	0	86	10757
2026-01-13 22:38:02.66	230.73	53.30	-60.9	-70.6	3.8	7.45e-01	0	28	104	0	86	10778
2026-01-13 22:38:03.66	230.24	52.77	-60.9	-70.6	3.8	7.46e-01	0	27	104	0	86	10777
2026-01-13 22:38:04.66	229.77	52.24	-60.9	-70.6	3.8	7.46e-01	0	27	104	0	86	10746
2026-01-13 22:38:05.66	229.31	51.71	-60.9	-70.7	3.8	7.45e-01	0	27	104	0	86	10831
2026-01-13 22:38:06.66	228.87	51.18	-60.9	-70.7	3.8	7.46e-01	0	27	104	0	86	10805
2026-01-13 22:38:07.66	228.45	50.67	-60.9	-70.7	3.8	7.43e-01	0	27	104	0	86	10833
2026-01-13 22:38:08.67	228.04	50.15	-60.9	-70.7	3.8	7.47e-01	0	27	104	0	86	10787
2026-01-13 22:38:09.67	227.64	49.64	-60.9	-70.7	3.8	7.46e-01	0	27	104	0	86	10814
2026-01-13 22:38:10.67	227.26	49.14	-60.9	-70.6	3.8	7.46e-01	0	27	104	0	86	10771
2026-01-13 22:38:11.68	226.89	48.63	-60.9	-70.6	3.8	7.45e-01	0	27	104	0	86	10778
2026-01-13 22:38:12.68	226.53	48.14	-60.9	-70.7	3.8	7.47e-01	0	27	104	0	86	10803
2026-01-13 22:38:13.68	226.19	47.65	-60.9	-70.7	3.8	7.45e-01	0	27	104	0	86	10812
2026-01-13 22:38:14.68	225.85	47.17	-60.9	-70.7	3.8	7.47e-01	0	27	104	0	86	10784
2026-01-13 22:38:15.67	225.53	46.69	-60.9	-70.7	3.8	7.46e-01	0	27	104	0	86	10845
2026-01-13 22:38:16.68	225.22	46.21	-60.9	-70.7	3.8	7.45e-01	0	28	104	0	86	10831
2026-01-13 22:38:17.67	224.92	45.75	-60.9	-70.7	3.8	7.43e-01	0	27	104	0	86	10829
2026-01-13 22:38:18.68	224.62	45.28	-60.9	-70.7	3.8	7.45e-01	0	27	104	0	86	10809
2026-01-13 22:38:19.68	224.33	44.82	-60.9	-70.7	3.8	7.47e-01	0	27	104	0	86	10812
2026-01-13 22:38:20.68	224.06	44.37	-60.9	-70.6	3.8	7.46e-01	0	27	104	0	86	10777
2026-01-13 22:38:21.67	223.79	43.93	-60.9	-70.6	3.8	7.44e-01	0	27	104	0	86	10777
2026-01-13 22:38:22.67	223.53	43.48	-60.9	-70.7	3.8	7.45e-01	0	27	104	0	86	10791
2026-01-13 22:38:23.68	223.27	43.04	-60.9	-70.7	3.8	7.44e-01	0	27	104	0	86	10830
2026-01-13 22:38:24.68	223.03	42.61	-60.9	-70.6	3.8	7.44e-01	0	27	104	0	86	10773
2026-01-13 22:38:25.69	222.78	42.18	-60.9	-70.6	3.8	7.45e-01	0	27	104	0	86	10765
2026-01-13 22:38:26.69	222.55	41.76	-60.9	-70.6	3.8	7.45e-01	0	27	104	0	86	10772
2026-01-13 22:38:27.70	222.32	41.33	-60.9	-70.6	3.8	7.46e-01	0	27	104	0	86	10751
2026-01-13 22:38:28.70	222.10	40.92	-60.9	-70.6	3.8	7.46e-01	0	27	104	0	86	10771
2026-01-13 22:38:29.70	221.89	40.51	-60.9	-70.6	3.8	7.44e-01	0	27	104	0	86	10723
2026-01-13 22:38:30.70	221.68	40.11	-60.9	-70.6	3.8	7.44e-01	0	27	104	0	86	10745
2026-01-13 22:38:31.71	221.47	39.71	-60.9	-70.6	3.8	7.46e-01	0	28	104	0	86	10766
2026-01-13 22:38:32.70	221.28	39.32	-60.9	-70.7	3.8	7.44e-01	0	27	104	0	86	10788
2026-01-13 22:38:33.71	221.08	38.93	-60.9	-70.7	3.8	7.46e-01	0	27	104	0	86	10785
2026-01-13 22:38:34.70	220.89	38.55	-60.9	-70.6	3.8	7.47e-01	0	27	104	0	86	10752
2026-01-13 22:38:35.71	220.71	38.16	-60.9	-70.7	3.8	7.46e-01	0	27	104	0	86	10808
2026-01-13 22:38:36.71	220.53	37.79	-60.9	-70.6	3.8	7.47e-01	0	28	104	0	86	10767
2026-01-13 22:38:37.71	220.35	37.42	-60.9	-70.7	3.8	7.46e-01	0	28	104	0	86	10797
2026-01-13 22:38:38.72	220.18	37.05	-60.9	-70.7	3.8	7.47e-01	0	28	104	0	86	10783
2026-01-13 22:38:39.71	220.02	36.69	-60.9	-70.7	3.8	7.44e-01	0	28	104	0	86	10827
2026-01-13 22:38:40.72	219.85	36.33	-60.9	-70.7	3.8	7.46e-01	0	27	104	0	86	10797
2026-01-13 22:38:41.72	219.69	35.97	-60.9	-70.6	3.8	7.45e-01	0	27	104	0	86	10767
2026-01-13 22:38:42.72	219.54	35.62	-60.9	-70.7	3.8	7.45e-01	0	28	104	0	86	10787
2026-01-13 22:38:43.72	219.38	35.28	-60.9	-70.7	3.8	7.44e-01	0	28	104	0	86	10797
2026-01-13 22:38:44.72	219.24	34.94	-60.9	-70.7	3.8	7.47e-01	0	27	104	0	86	10790
2026-01-13 22:38:45.72	219.09	34.60	-60.9	-70.7	3.8	7.44e-01	0	27	104	0	86	10794
2026-01-13 22:38:46.71	218.95	34.27	-60.9	-70.6	3.8	7.47e-01	0	28	104	0	86	10753
2026-01-13 22:38:47.71	218.81	33.94	-60.9	-70.7	3.8	7.46e-01	0	27	104	0	86	10784
2026-01-13 22:38:48.72	218.67	33.61	-60.9	-70.7	3.8	7.46e-01	0	27	104	0	86	10780
2026-01-13 22:38:49.71	218.54	33.30	-60.9	-70.7	3.8	7.45e-01	0	27	104	0	86	10785
2026-01-13 22:38:50.71	218.41	32.98	-60.9	-70.6	3.8	7.45e-01	0	27	104	0	86	10773
2026-01-13 22:38:51.71	218.29	32.67	-60.9	-70.6	3.8	7.45e-01	0	28	104	0	86	10773
2026-01-13 22:38:52.70	218.16	32.36	-60.9	-70.7	3.8	7.45e-01	0	27	104	0	86	10809
2026-01-13 22:38:53.70	218.04	32.05	-60.9	-70.7	3.8	7.46e-01	0	27	104	0	86	10821
2026-01-13 22:38:54.70	217.92	31.75	-60.9	-70.7	3.8	7.47e-01	0	27	104	0	86	10821
2026-01-13 22:38:55.69	217.81	31.45	-60.9	-70.7	3.8	7.46e-01	0	27	104	0	86	10781
2026-01-13 22:38:56.69	217.69	31.16	-60.9	-70.6	3.8	7.45e-01	0	27	104	0	86	10773
2026-01-13 22:38:57.69	217.58	30.86	-60.9	-70.7	3.8	7.46e-01	0	27	104	0	86	10794
2026-01-13 22:38:58.68	217.47	30.58	-60.9	-70.7	3.8	7.46e-01	0	28	104	0	86	10831
2026-01-13 22:38:59.68	217.36	30.29	-60.9	-70.7	3.8	7.46e-01	0	28	104	0	86	10782
2026-01-13 22:39:00.68	217.25	30.01	-60.9	-70.7	3.8	7.45e-01	0	27	104	0	86	10795
2026-01-13 22:39:01.68	217.15	29.73	-60.9	-70.7	3.8	7.45e-01	0	27	104	0	86	10799
2026-01-13 22:39:02.67	217.05	29.45	-60.9	-70.7	3.8	7.45e-01	0	28	104	0	86	10812
2026-01-13 22:39:03.67	216.95	29.18	-60.9	-70.7	3.8	7.45e-01	0	27	104	0	86	10782
2026-01-13 22:39:04.68	216.85	28.91	-60.9	-70.6	3.8	7.45e-01	0	27	104	0	86	10713
2026-01-13 22:39:05.67	216.76	28.64	-60.9	-70.7	3.8	7.46e-01	0	28	104	0	86	10800
2026-01-13 22:39:06.67	216.66	28.38	-60.9	-70.7	3.8	7.46e-01	0	27	104	0	86	10781
2026-01-13 22:39:07.66	216.57	28.12	-60.9	-70.6	3.8	7.45e-01	0	27	104	0	86	10756
2026-01-13 22:39:08.66	216.48	27.86	-60.9	-70.7	3.8	7.46e-01	0	27	104	0	86	10793
2026-01-13 22:39:09.66	216.39	27.60	-60.9	-70.7	3.8	7.47e-01	0	28	104	0	86	10787
2026-01-13 22:39:10.66	216.30	27.35	-60.9	-70.6	3.8	7.45e-01	0	28	104	0	86	10756
2026-01-13 22:39:11.65	216.21	27.10	-60.9	-70.6	3.8	7.45e-01	0	28	104	0	86	10744
2026-01-13 22:39:12.65	216.13	26.85	-60.9	-70.7	3.8	7.46e-01	0	28	104	0	86	10787
2026-01-13 22:39:13.65	216.05	26.61	-60.9	-70.6	3.8	7.46e-01	0	27	104	0	86	10757
2026-01-13 22:39:14.66	215.96	26.36	-60.9	-70.7	3.8	7.44e-01	0	28	104	0	86	10799
2026-01-13 22:39:15.66	215.88	26.12	-60.9	-70.7	3.8	7.46e-01	0	27	104	0	86	10788
2026-01-13 22:39:16.66	215.80	25.88	-60.9	-70.7	3.8	7.45e-01	0	28	104	0	86	10813
2026-01-13 22:39:17.66	215.73	25.65	-60.9	-70.7	3.8	7.45e-01	0	27	104	0	86	10828
2026-01-13 22:39:18.66	215.65	25.42	-60.9	-70.7	3.8	7.42e-01	0	28	104	0	86	10791
2026-01-13 22:39:19.66	215.58	25.19	-60.9	-70.7	3.8	7.46e-01	0	28	104	0	86	10821
2026-01-13 22:39:20.66	215.50	24.96	-60.9	-70.6	3.8	7.46e-01	0	28	104	0	86	10768
2026-01-13 22:39:21.66	215.43	24.73	-60.9	-70.7	3.8	7.45e-01	0	27	104	0	86	10803
2026-01-13 22:39:22.65	215.36	24.51	-60.9	-70.7	3.8	7.47e-01	0	27	104	0	86	10782
2026-01-13 22:39:23.66	215.29	24.29	-60.9	-70.7	3.8	7.46e-01	0	28	104	0	86	10797
2026-01-13 22:39:24.66	215.22	24.07	-60.9	-70.6	3.8	7.45e-01	0	27	104	0	86	10755
2026-01-13 22:39:25.66	215.15	23.85	-60.9	-70.6	3.8	7.46e-01	0	27	104	0	86	10776
2026-01-13 22:39:26.66	215.08	23.64	-60.9	-70.7	3.8	7.47e-01	0	28	104	0	86	10810
2026-01-13 22:39:27.66	215.02	23.43	-60.9	-70.7	3.8	7.45e-01	0	27	104	0	86	10795
2026-01-13 22:39:28.66	214.95	23.22	-60.9	-70.6	3.8	7.46e-01	0	27	104	0	86	10751
2026-01-13 22:39:29.66	214.89	23.01	-60.9	-70.6	3.8	7.45e-01	0	27	104	0	86	10758
2026-01-13 22:39:30.67	214.83	22.80	-61.0	-70.7	3.8	7.45e-01	0	27	104	0	86	10806
2026-01-13 22:39:31.67	214.76	22.60	-60.9	-70.7	3.8	7.45e-01	0	28	104	0	86	10850
2026-01-13 22:39:32.67	214.70	22.39	-60.9	-70.6	3.8	7.46e-01	0	27	104	0	86	10761
2026-01-13 22:39:33.68	214.64	22.19	-61.0	-70.7	3.8	7.46e-01	0	27	104	0	86	10836
2026-01-13 22:39:34.67	214.58	22.00	-60.9	-70.7	3.8	7.45e-01	0	28	104	0	86	10784
2026-01-13 22:39:35.67	214.53	21.80	-60.9	-70.7	3.8	7.45e-01	0	28	104	0	86	10828
2026-01-13 22:39:36.68	214.47	21.60	-60.9	-70.7	3.8	7.47e-01	0	27	104	0	86	10854
2026-01-13 22:39:37.68	214.41	21.41	-60.9	-70.7	3.8	7.45e-01	0	28	104	0	86	10797
2026-01-13 22:39:38.68	214.36	21.22	-60.9	-70.6	3.8	7.47e-01	0	28	104	0	86	10770
2026-01-13 22:39:39.67	214.30	21.03	-60.9	-70.7	3.8	7.46e-01	0	28	104	0	86	10834
2026-01-13 22:39:40.68	214.25	20.84	-60.9	-70.7	3.8	7.45e-01	0	27	104	0	86	10822
2026-01-13 22:39:41.68	214.19	20.66	-60.9	-70.7	3.8	7.45e-01	0	27	104	0	86	10821
2026-01-13 22:39:42.67	214.14	20.48	-60.9	-70.7	3.8	7.43e-01	0	28	104	0	86	10827
2026-01-13 22:39:43.68	214.09	20.29	-60.9	-70.7	3.8	7.45e-01	0	28	104	0	86	10780
2026-01-13 22:39:44.67	214.04	20.11	-60.9	-70.6	3.8	7.45e-01	0	27	104	0	86	10760
2026-01-13 22:39:45.67	213.99	19.93	-60.9	-70.7	3.8	7.46e-01	0	27	104	0	86	10799
2026-01-13 22:39:46.68	213.94	19.75	-60.9	-70.6	3.8	7.46e-01	0	27	104	0	86	10778
2026-01-13 22:39:47.68	213.89	19.58	-60.9	-70.7	3.8	7.44e-01	0	27	104	0	86	10811
2026-01-13 22:39:48.68	213.84	19.40	-60.9	-70.7	3.8	7.46e-01	0	27	104	0	86	10813
2026-01-13 22:39:49.68	213.80	19.23	-61.0	-70.7	3.8	7.45e-01	0	28	104	0	86	10807
2026-01-13 22:39:50.68	213.75	19.06	-60.9	-70.6	3.8	7.47e-01	0	28	104	0	86	10747
2026-01-13 22:39:51.67	213.70	18.89	-60.9	-70.6	3.8	7.45e-01	0	27	104	0	86	10778
2026-01-13 22:39:52.68	213.66	18.72	-60.9	-70.7	3.8	7.46e-01	0	28	104	0	86	10786
2026-01-13 22:39:53.68	213.61	18.55	-60.9	-70.7	3.8	7.45e-01	0	27	104	0	86	10801
2026-01-13 22:39:54.68	213.57	18.39	-60.8	-70.7	3.8	7.46e-01	0	28	104	0	86	10803
2026-01-13 22:39:55.67	213.53	18.23	-60.9	-70.6	3.8	7.47e-01	0	28	104	0	86	10754
2026-01-13 22:39:56.68	213.48	18.06	-60.9	-70.7	3.8	7.45e-01	0	28	104	0	86	10811
2026-01-13 22:39:57.67	213.44	17.90	-60.8	-70.7	3.8	7.45e-01	0	27	104	0	86	10794
2026-01-13 22:39:58.67	213.40	17.74	-60.9	-70.7	3.8	7.45e-01	0	27	104	0	86	10799
2026-01-13 22:39:59.67	213.36	17.58	-60.9	-70.7	3.8	7.46e-01	0	28	104	0	86	10788
2026-01-13 22:40:00.67	213.32	17.42	-60.9	-70.6	3.8	7.45e-01	0	28	104	0	86	10769
2026-01-13 22:40:01.68	213.28	17.27	-60.9	-70.7	3.8	7.46e-01	0	27	104	0	86	10792
2026-01-13 22:40:02.67	213.24	17.11	-60.9	-70.6	3.8	7.46e-01	0	27	104	0	86	10772
2026-01-13 22:40:03.67	213.20	16.96	-60.9	-70.7	3.8	7.45e-01	0	28	104	0	86	10790
2026-01-13 22:40:04.67	213.16	16.81	-60.9	-70.7	3.8	7.45e-01	0	27	104	0	86	10787
2026-01-13 22:40:05.68	213.12	16.65	-60.9	-70.7	3.8	7.44e-01	0	27	104	0	86	10811
2026-01-13 22:40:06.67	213.08	16.51	-60.9	-70.7	3.8	7.46e-01	0	28	104	0	86	10796
2026-01-13 22:40:07.67	213.04	16.36	-60.9	-70.7	3.8	7.45e-01	0	28	104	0	86	10818
2026-01-13 22:40:08.67	213.01	16.21	-60.9	-70.7	3.8	7.47e-01	0	28	104	0	86	10788
2026-01-13 22:40:09.66	212.97	16.06	-60.9	-70.7	3.8	7.46e-01	0	27	104	0	86	10818
2026-01-13 22:40:10.66	212.94	15.92	-60.9	-70.7	3.8	7.45e-01	0	27	104	0	86	10829
2026-01-13 22:40:11.67	212.90	15.77	-60.9	-70.7	3.8	7.46e-01	0	27	104	0	86	10795
2026-01-13 22:40:12.67	212.86	15.63	-60.9	-70.7	3.8	7.46e-01	0	28	104	0	86	10801
2026-01-13 22:40:13.67	212.83	15.49	-60.8	-70.7	3.8	7.45e-01	0	27	104	0	86	10809
2026-01-13 22:40:14.67	212.80	15.35	-60.8	-70.7	3.8	7.46e-01	0	27	104	0	86	10800
2026-01-13 22:40:15.67	212.76	15.21	-60.9	-70.6	3.8	7.45e-01	0	28	104	0	86	10767
2026-01-13 22:40:16.67	212.73	15.07	-60.8	-70.7	3.8	7.47e-01	0	28	104	0	86	10784
2026-01-13 22:40:17.66	212.70	14.93	-60.8	-70.7	3.8	7.45e-01	0	28	104	0	86	10790
2026-01-13 22:40:18.67	212.66	14.79	-60.9	-70.7	3.8	7.45e-01	0	28	104	0	86	10796
2026-01-13 22:40:19.68	212.63	14.65	-60.9	-70.7	3.8	7.46e-01	0	28	104	0	86	10815
2026-01-13 22:40:20.68	212.60	14.52	-60.9	-70.7	3.8	7.46e-01	0	28	104	0	86	10790
2026-01-13 22:40:21.67	212.57	14.39	-60.9	-70.7	3.8	7.45e-01	0	28	104	0	86	10790
2026-01-13 22:40:22.67	212.54	14.25	-60.9	-70.7	3.8	7.45e-01	0	28	104	0	86	10804
2026-01-13 22:40:23.68	212.51	14.12	-60.9	-70.6	3.8	7.44e-01	0	28	104	0	86	10774
2026-01-13 22:40:24.68	212.48	13.99	-60.9	-70.7	3.8	7.45e-01	0	27	104	0	86	10818
2026-01-13 22:40:25.69	212.45	13.86	-60.9	-70.7	3.8	7.46e-01	0	28	104	0	86	10830
2026-01-13 22:40:26.69	212.42	13.73	-60.9	-70.7	3.8	7.45e-01	0	28	104	0	86	10802
2026-01-13 22:40:27.69	212.39	13.60	-60.9	-70.6	3.8	7.45e-01	0	28	104	0	86	10777
2026-01-13 22:40:28.68	212.36	13.47	-60.9	-70.6	3.8	7.45e-01	0	28	104	0	86	10767
2026-01-13 22:40:29.67	212.33	13.35	-60.9	-70.7	3.8	7.46e-01	0	28	104	0	86	10790
2026-01-13 22:40:30.68	212.30	13.22	-60.9	-70.7	3.8	7.45e-01	0	28	104	0	86	10805
2026-01-13 22:40:31.68	212.27	13.09	-60.9	-70.7	3.8	7.47e-01	0	28	104	0	86	10792
2026-01-13 22:40:32.69	212.25	12.97	-60.9	-70.6	3.8	7.45e-01	0	28	104	0	86	10777
2026-01-13 22:40:33.69	212.22	12.84	-60.9	-70.6	3.8	7.45e-01	0	28	104	0	86	10770
2026-01-13 22:40:34.69	212.19	12.72	-60.9	-70.7	3.8	7.45e-01	0	28	104	0	86	10800
2026-01-13 22:40:35.69	212.16	12.60	-60.9	-70.7	3.8	7.46e-01	0	28	104	0	86	10795
2026-01-13 22:40:36.69	212.14	12.48	-60.9	-70.7	3.8	7.44e-01	0	27	104	0	86	10805
2026-01-13 22:40:37.69	212.11	12.36	-60.9	-70.6	3.8	7.45e-01	0	28	104	0	86	10775
2026-01-13 22:40:38.70	212.09	12.24	-60.9	-70.6	3.8	7.45e-01	0	28	104	0	86	10763
2026-01-13 22:40:39.69	212.06	12.12	-60.9	-70.7	3.8	7.45e-01	0	28	104	0	86	10784
2026-01-13 22:40:40.69	212.04	12.00	-60.9	-70.7	3.8	7.46e-01	0	28	104	0	86	10779
2026-01-13 22:40:41.69	212.01	11.89	-60.9	-70.6	3.8	7.44e-01	0	28	104	0	86	10773
2026-01-13 22:40:42.70	211.99	11.77	-60.9	-70.6	3.8	7.45e-01	0	28	104	0	86	10776
2026-01-13 22:40:43.70	211.96	11.65	-60.9	-70.6	3.8	7.46e-01	0	27	104	0	86	10777
2026-01-13 22:40:44.69	211.94	11.54	-60.9	-70.7	3.8	7.47e-01	0	28	104	0	86	10811
2026-01-13 22:40:45.69	211.91	11.42	-60.9	-70.7	3.8	7.45e-01	0	27	104	0	86	10831
2026-01-13 22:40:46.69	211.89	11.31	-60.9	-70.6	3.8	7.46e-01	0	28	104	0	86	10765
2026-01-13 22:40:47.69	211.87	11.20	-60.9	-70.6	3.8	7.46e-01	0	28	104	0	86	10751
2026-01-13 22:40:48.69	211.84	11.09	-60.9	-70.7	3.8	7.45e-01	0	28	104	0	86	10782
2026-01-13 22:40:49.69	211.82	10.97	-60.9	-70.7	3.8	7.44e-01	0	28	104	0	86	10807
2026-01-13 22:40:50.69	211.80	10.86	-60.9	-70.6	3.8	7.45e-01	0	27	104	0	86	10768
2026-01-13 22:40:51.69	211.78	10.75	-60.9	-70.7	3.8	7.45e-01	0	27	104	0	86	10809
2026-01-13 22:40:52.68	211.75	10.64	-60.9	-70.7	3.8	7.47e-01	0	28	104	0	86	10789
2026-01-13 22:40:53.69	211.73	10.53	-60.9	-70.7	3.8	7.48e-01	0	28	104	0	86	10781
2026-01-13 22:40:54.69	211.71	10.43	-60.9	-70.6	3.8	7.48e-01	0	28	104	0	86	10745
2026-01-13 22:40:55.69	211.69	10.32	-60.9	-70.6	3.8	7.45e-01	0	27	104	0	86	10766
2026-01-13 22:40:56.68	211.67	10.21	-60.9	-70.6	3.8	7.45e-01	0	27	104	0	86	10760
2026-01-13 22:40:57.67	211.65	10.11	-60.9	-70.7	3.8	7.47e-01	0	28	104	0	86	10780
2026-01-13 22:40:58.67	211.63	10.00	-60.9	-70.6	3.8	7.49e-01	0	28	104	0	86	10765
2026-01-13 22:40:59.67	211.60	9.90	-60.9	-70.6	3.8	7.45e-01	0	28	104	0	86	10772
2026-01-13 22:41:00.66	211.58	9.79	-60.9	-70.6	3.8	7.46e-01	0	28	104	0	86	10773
2026-01-13 22:41:01.66	211.56	9.69	-60.9	-70.7	3.8	7.46e-01	0	27	104	0	86	10801
2026-01-13 22:41:02.66	211.54	9.58	-60.9	-70.6	3.8	7.45e-01	0	28	104	0	86	10766
2026-01-13 22:41:03.67	211.52	9.48	-60.9	-70.6	3.8	7.44e-01	0	28	104	0	86	10766
2026-01-13 22:41:04.66	211.51	9.38	-60.9	-70.7	3.8	7.46e-01	0	28	104	0	86	10791
2026-01-13 22:41:05.67	211.49	9.28	-60.9	-70.6	3.8	7.45e-01	0	28	104	0	86	10756
2026-01-13 22:41:06.66	211.47	9.18	-60.9	-70.6	3.8	7.46e-01	0	28	104	0	86	10770
2026-01-13 22:41:07.66	211.45	9.08	-60.9	-70.6	3.8	7.46e-01	0	28	104	0	86	10746
2026-01-13 22:41:08.66	211.43	8.97	-60.9	-70.6	3.8	7.47e-01	0	28	104	0	86	10733
2026-01-13 22:41:09.66	211.41	8.88	-60.9	-70.7	3.8	7.45e-01	0	28	104	0	86	10798
2026-01-13 22:41:10.66	211.39	8.78	-60.9	-70.6	3.8	7.45e-01	0	28	104	0	86	10733
2026-01-13 22:41:11.66	211.37	8.68	-60.9	-70.6	3.8	7.45e-01	0	28	104	0	86	10758
2026-01-13 22:41:12.65	211.36	8.58	-60.9	-70.7	3.8	7.46e-01	0	28	104	0	86	10788
2026-01-13 22:41:13.65	211.34	8.48	-60.9	-70.6	3.8	7.47e-01	0	27	104	0	86	10753
2026-01-13 22:41:14.65	211.32	8.39	-60.9	-70.7	3.8	7.45e-01	0	28	104	0	86	10788
2026-01-13 22:41:15.66	211.30	8.29	-60.9	-70.6	3.8	7.47e-01	0	28	104	0	86	10767
2026-01-13 22:41:16.66	211.29	8.19	-60.9	-70.7	3.8	7.45e-01	0	27	104	0	86	10783
2026-01-13 22:41:17.66	211.27	8.10	-60.9	-70.6	3.8	7.45e-01	0	28	104	0	86	10743
2026-01-13 22:41:18.66	211.25	8.00	-60.9	-70.6	3.8	7.46e-01	0	27	104	0	86	10739
2026-01-13 22:41:19.66	211.23	7.91	-60.9	-70.7	3.8	7.44e-01	0	28	104	0	86	10786
2026-01-13 22:41:20.66	211.22	7.81	-60.9	-70.6	3.8	7.44e-01	0	28	104	0	86	10751
2026-01-13 22:41:21.66	211.20	7.72	-60.9	-70.6	3.8	7.44e-01	0	28	104	0	86	10754
2026-01-13 22:41:22.66	211.18	7.63	-60.9	-70.6	3.8	7.45e-01	0	28	104	0	86	10744
2026-01-13 22:41:23.66	211.17	7.53	-60.9	-70.6	3.9	7.46e-01	0	28	104	0	86	10756
2026-01-13 22:41:24.66	211.15	7.44	-60.9	-70.6	3.8	7.46e-01	0	28	104	0	86	10760
2026-01-13 22:41:25.67	211.14	7.35	-60.9	-70.7	3.8	7.46e-01	0	27	104	0	86	10781
2026-01-13 22:41:26.67	211.12	7.26	-60.9	-70.6	3.8	7.45e-01	0	27	104	0	86	10749
2026-01-13 22:41:27.67	211.10	7.17	-60.9	-70.6	3.8	7.46e-01	0	27	104	0	86	10761
2026-01-13 22:41:28.67	211.09	7.08	-60.9	-70.6	3.8	7.46e-01	0	27	104	0	86	10743
2026-01-13 22:41:29.67	211.07	6.99	-60.9	-70.7	3.8	7.45e-01	0	27	104	0	86	10789
2026-01-13 22:41:30.67	211.06	6.90	-60.9	-70.6	3.8	7.44e-01	0	28	104	0	86	10758
2026-01-13 22:41:31.67	211.04	6.81	-60.9	-70.6	3.8	7.44e-01	0	28	104	0	86	10744
2026-01-13 22:41:32.67	211.03	6.72	-60.9	-70.6	3.8	7.46e-01	0	28	104	0	86	10752
2026-01-13 22:41:33.67	211.01	6.63	-60.9	-70.7	3.8	7.46e-01	0	27	104	0	86	10783
2026-01-13 22:41:34.67	211.00	6.54	-60.9	-70.6	3.8	7.46e-01	0	27	104	0	86	10743
2026-01-13 22:41:35.67	210.99	6.45	-60.9	-70.6	3.8	7.46e-01	0	28	104	0	86	10752
2026-01-13 22:41:36.66	210.97	6.37	-60.9	-70.6	3.8	7.46e-01	0	28	104	0	86	10767
2026-01-13 22:41:37.67	210.96	6.28	-60.9	-70.6	3.8	7.46e-01	0	28	104	0	86	10749
2026-01-13 22:41:38.66	210.94	6.19	-60.9	-70.6	3.8	7.46e-01	0	27	104	0	86	10772
2026-01-13 22:41:39.66	210.93	6.11	-60.9	-70.6	3.8	7.46e-01	0	27	104	0	86	10775
2026-01-13 22:41:40.66	210.92	6.02	-60.9	-70.6	3.8	7.47e-01	0	28	104	0	86	10771
2026-01-13 22:41:41.65	210.90	5.94	-60.9	-70.6	3.8	7.44e-01	0	28	104	0	86	10734
2026-01-13 22:41:42.65	210.89	5.85	-60.9	-70.7	3.8	7.46e-01	0	28	104	0	86	10786
2026-01-13 22:41:43.65	210.87	5.77	-60.9	-70.7	3.8	7.46e-01	0	28	104	0	86	10811
2026-01-13 22:41:44.65	210.86	5.68	-60.9	-70.7	3.8	7.47e-01	0	28	104	0	86	10806
2026-01-13 22:41:45.65	210.85	5.60	-60.9	-70.6	3.8	7.46e-01	0	27	104	0	86	10744
2026-01-13 22:41:46.65	210.83	5.52	-60.9	-70.6	3.8	7.44e-01	0	27	104	0	86	10740
2026-01-13 22:41:47.66	210.82	5.43	-60.9	-70.6	3.8	7.45e-01	0	27	104	0	86	10737
2026-01-13 22:41:48.65	210.81	5.35	-60.9	-70.7	3.8	7.46e-01	0	27	104	0	86	10786
2026-01-13 22:41:49.65	210.80	5.27	-60.9	-70.6	3.8	7.46e-01	0	27	104	0	86	10747
2026-01-13 22:41:50.65	210.78	5.19	-60.9	-70.6	3.8	7.45e-01	0	28	104	0	86	10739
2026-01-13 22:41:51.65	210.77	5.10	-60.9	-70.6	3.8	7.46e-01	0	28	104	0	86	10752
2026-01-13 22:41:52.64	210.76	5.02	-60.9	-70.6	3.8	7.45e-01	0	27	104	0	86	10757
2026-01-13 22:41:53.65	210.75	4.94	-60.9	-70.6	3.8	7.45e-01	0	27	104	0	86	10712
2026-01-13 22:41:54.64	210.73	4.86	-60.9	-70.6	3.8	7.46e-01	0	27	104	0	86	10720
2026-01-13 22:41:55.65	210.72	4.78	-60.9	-70.6	3.8	7.46e-01	0	28	104	0	86	10710
2026-01-13 22:41:56.65	210.71	4.70	-60.9	-70.6	3.8	7.46e-01	0	28	104	0	86	10731
2026-01-13 22:41:57.64	210.70	4.62	-60.9	-70.7	3.8	7.46e-01	0	28	104	0	86	10782
2026-01-13 22:41:58.64	210.69	4.54	-60.9	-70.6	3.8	7.45e-01	0	27	104	0	86	10768
2026-01-13 22:41:59.63	210.68	4.46	-60.9	-70.6	3.8	7.45e-01	0	28	104	0	86	10763
2026-01-13 22:42:00.63	210.66	4.38	-60.9	-70.7	3.8	7.45e-01	0	27	104	0	86	10784
2026-01-13 22:42:01.63	210.65	4.31	-60.9	-70.6	3.8	7.45e-01	0	27	104	0	86	10759
2026-01-13 22:42:02.63	210.64	4.23	-60.9	-70.6	3.8	7.46e-01	0	28	104	0	86	10767
2026-01-13 22:42:03.63	210.63	4.15	-60.9	-70.7	3.8	7.46e-01	0	28	104	0	86	10779
2026-01-13 22:42:04.62	210.62	4.07	-60.9	-70.6	3.8	7.47e-01	0	28	104	0	86	10777
2026-01-13 22:42:05.62	210.61	3.99	-60.9	-70.6	3.8	7.45e-01	0	28	104	0	86	10760
2026-01-13 22:42:06.62	210.60	3.92	-60.9	-70.6	3.8	7.46e-01	0	28	104	0	86	10773
2026-01-13 22:42:07.61	210.59	3.84	-60.9	-70.6	3.8	7.46e-01	0	28	104	0	86	10733
2026-01-13 22:42:08.61	210.58	3.76	-60.9	-70.6	3.8	7.44e-01	0	27	104	0	86	10763
2026-01-13 22:42:09.61	210.57	3.69	-60.9	-70.7	3.8	7.44e-01	0	28	104	0	86	10788
2026-01-13 22:42:10.62	210.55	3.61	-60.9	-70.6	3.8	7.46e-01	0	28	104	0	86	10756
2026-01-13 22:42:11.62	210.54	3.54	-60.9	-70.6	3.8	7.46e-01	0	28	104	0	86	10762
2026-01-13 22:42:12.62	210.53	3.46	-60.9	-70.6	3.8	7.46e-01	0	27	104	0	86	10731
2026-01-13 22:42:13.62	210.52	3.39	-60.9	-70.6	3.8	7.45e-01	0	28	104	0	86	10750
2026-01-13 22:42:14.61	210.51	3.31	-60.9	-70.6	3.8	7.46e-01	0	27	104	0	86	10761
2026-01-13 22:42:15.61	210.50	3.24	-60.9	-70.6	3.8	7.44e-01	0	28	104	0	86	10769
2026-01-13 22:42:16.61	210.49	3.16	-60.9	-70.7	3.8	7.47e-01	0	27	104	0	86	10787
2026-01-13 22:42:17.61	210.48	3.09	-60.9	-70.6	3.8	7.44e-01	0	28	104	0	86	10730
2026-01-13 22:42:18.61	210.47	3.02	-60.9	-70.6	3.8	7.46e-01	0	28	104	0	86	10773
2026-01-13 22:42:19.61	210.46	2.94	-60.9	-70.6	3.8	7.45e-01	0	27	104	0	86	10765
2026-01-13 22:42:20.61	210.45	2.87	-60.9	-70.6	3.8	7.45e-01	0	28	104	0	86	10732
2026-01-13 22:42:21.62	210.44	2.79	-60.9	-70.7	3.8	7.46e-01	0	28	104	0	86	10780
2026-01-13 22:42:22.62	210.44	2.72	-60.9	-70.6	3.8	7.45e-01	0	27	104	0	86	10758
2026-01-13 22:42:23.63	210.43	2.65	-60.9	-70.6	3.8	7.46e-01	0	28	104	0	86	10747
2026-01-13 22:42:24.62	210.42	2.58	-60.9	-70.6	3.8	7.46e-01	0	28	104	0	86	10761
2026-01-13 22:42:25.62	210.41	2.51	-60.9	-70.7	3.8	7.47e-01	0	27	104	0	86	10781
2026-01-13 22:42:26.61	210.40	2.43	-60.9	-70.7	3.8	7.45e-01	0	27	104	0	86	10791
2026-01-13 22:42:27.60	210.39	2.36	-60.9	-70.6	3.8	7.44e-01	0	28	104	0	86	10742
2026-01-13 22:42:28.59	210.38	2.29	-60.9	-70.6	3.8	7.45e-01	0	27	104	0	86	10762
2026-01-13 22:42:29.59	210.37	2.22	-60.9	-70.7	3.8	7.47e-01	0	28	104	0	86	10811
2026-01-13 22:42:30.59	210.36	2.15	-60.9	-70.6	3.8	7.46e-01	0	28	104	0	86	10774
2026-01-13 22:42:31.58	210.35	2.08	-60.9	-70.7	3.8	7.46e-01	0	28	104	0	86	10800
2026-01-13 22:42:32.58	210.34	2.01	-60.9	-70.7	3.8	7.45e-01	0	28	104	0	86	10786
2026-01-13 22:42:33.58	210.34	1.94	-60.9	-70.6	3.8	7.46e-01	0	27	104	0	86	10747
2026-01-13 22:42:34.58	210.33	1.87	-60.9	-70.6	3.8	7.45e-01	0	28	104	0	86	10743

#Closed at: 2026-01-13 22:42:35
#Recorded file [0 MB]: D:/lorett/data/31004_260114_013203.dat