passes_logs/2026/01/13/R3.2S_Murmansk/R3.2S_Murmansk__20260113_034932_NOAA_20_JPSS-1_rec.log

#Pass ID: 20260113_034932_NOAA 20 (JPSS-1)
#Satellite: NOAA 20 (JPSS-1)
#Configuration: NOAA 20
#almurnet v.1.7.20251203
#Start time: 2026-01-13 03:49:33

#Version: 2.2.20231116
#Station: R3.2S_Murmansk
#Location: 33.079688 lon 68.888172 lat
#TLE: 1 43013U 17073A   26012.29914746  .00000087  00000+0  62270-4 0  9997
#TLE: 2 43013  98.7632 313.2670 0001616  43.2193 316.9110 14.19535514422351

#Time	Az	El	Level	Level2	SNR	BER	BlckErr	Temp	State	Recorded	gain1	gain2
2026-01-13 03:49:33.86	45.19	2.05	-57.1	-73.0	3.8	1.49e+00	0	20	0	0	80	22440
2026-01-13 03:49:34.86	45.13	2.11	-57.0	-73.0	3.8	1.49e+00	0	20	104	0	79	23675
2026-01-13 03:49:35.86	45.08	2.17	-57.0	-73.0	3.8	1.49e+00	0	20	104	0	79	23711
2026-01-13 03:49:36.86	45.02	2.23	-57.0	-73.0	3.8	1.49e+00	0	20	104	0	79	23694
2026-01-13 03:49:37.85	44.96	2.29	-57.0	-73.0	3.8	1.49e+00	0	20	104	0	79	23723
2026-01-13 03:49:38.85	44.90	2.35	-57.0	-73.0	3.8	1.49e+00	0	21	104	0	79	23701
2026-01-13 03:49:39.85	44.84	2.40	-57.0	-73.0	3.8	1.49e+00	0	20	104	0	79	23608
2026-01-13 03:49:40.85	44.78	2.46	-57.0	-73.0	3.8	1.49e+00	0	20	104	0	79	23668
2026-01-13 03:49:41.85	44.73	2.52	-57.0	-73.0	3.8	1.49e+00	0	20	104	0	79	23658
2026-01-13 03:49:42.84	44.67	2.58	-57.0	-73.0	3.8	1.49e+00	0	20	104	0	79	23680
2026-01-13 03:49:43.84	44.61	2.64	-57.0	-73.0	3.8	1.49e+00	0	20	104	0	79	23636
2026-01-13 03:49:44.84	44.55	2.70	-57.0	-73.0	3.8	1.49e+00	0	21	104	0	79	23707
2026-01-13 03:49:45.84	44.49	2.76	-57.0	-73.0	3.8	1.49e+00	0	21	104	0	79	23733
2026-01-13 03:49:46.85	44.43	2.82	-57.0	-73.0	3.8	1.49e+00	0	20	104	0	79	23651
2026-01-13 03:49:47.85	44.37	2.88	-57.0	-73.0	3.8	1.49e+00	0	21	104	0	79	23603
2026-01-13 03:49:48.85	44.30	2.94	-57.0	-73.0	3.8	1.49e+00	0	21	104	0	79	23689
2026-01-13 03:49:49.85	44.24	3.00	-57.0	-73.0	3.8	1.49e+00	0	21	104	0	79	23585
2026-01-13 03:49:50.85	44.18	3.05	-57.0	-73.0	3.8	1.49e+00	0	21	104	0	79	23657
2026-01-13 03:49:51.86	44.12	3.12	-57.0	-73.0	3.8	1.49e+00	0	21	104	0	79	23606
2026-01-13 03:49:52.86	44.06	3.17	-57.0	-72.9	3.8	1.49e+00	0	21	104	0	79	23556
2026-01-13 03:49:53.85	44.00	3.23	-57.0	-73.0	3.8	1.49e+00	0	21	104	0	79	23685
2026-01-13 03:49:54.85	43.93	3.29	-57.0	-73.0	3.8	1.49e+00	0	21	104	0	79	23719
2026-01-13 03:49:55.85	43.87	3.35	-57.0	-73.0	3.8	1.49e+00	0	21	104	0	79	23736
2026-01-13 03:49:56.85	43.81	3.41	-57.0	-73.0	3.8	1.49e+00	0	21	104	0	79	23670
2026-01-13 03:49:57.84	43.74	3.47	-57.0	-73.0	3.8	1.49e+00	0	21	104	0	79	23658
2026-01-13 03:49:58.85	43.68	3.54	-57.0	-73.0	3.8	1.49e+00	0	21	104	0	79	23663
2026-01-13 03:49:59.84	43.62	3.60	-57.0	-73.0	3.8	1.49e+00	0	21	104	0	79	23678
2026-01-13 03:50:00.84	43.55	3.66	-57.0	-73.0	3.8	1.49e+00	0	21	104	0	79	23651
2026-01-13 03:50:01.85	43.49	3.72	-57.0	-73.0	3.8	1.49e+00	0	21	104	0	79	23738
2026-01-13 03:50:02.85	43.42	3.78	-57.0	-73.0	3.8	1.49e+00	0	21	104	0	79	23712
2026-01-13 03:50:03.86	43.36	3.84	-57.0	-73.0	3.8	1.49e+00	0	21	104	0	79	23605
2026-01-13 03:50:04.86	43.29	3.90	-57.0	-72.8	3.8	1.49e+00	0	21	104	0	79	23291
2026-01-13 03:50:05.86	43.23	3.96	-57.0	-72.6	3.8	1.49e+00	0	21	104	0	79	22651
2026-01-13 03:50:06.86	43.16	4.02	-57.0	-72.3	3.8	1.49e+00	0	21	104	0	79	21847
2026-01-13 03:50:07.86	43.09	4.08	-57.0	-72.0	3.8	1.49e+00	0	21	104	0	79	21245
2026-01-13 03:50:08.87	43.03	4.15	-57.0	-71.5	3.8	1.49e+00	0	21	104	0	79	19866
2026-01-13 03:50:09.86	42.96	4.21	-57.0	-71.0	3.8	1.49e+00	0	21	104	0	79	18857
2026-01-13 03:50:10.86	42.89	4.27	-56.9	-70.5	4.0	1.49e+00	0	21	104	0	79	17788
2026-01-13 03:50:11.86	42.82	4.33	-56.9	-69.9	4.1	1.47e+00	0	21	0	0	79	16619
2026-01-13 03:50:12.86	42.76	4.39	-56.9	-69.0	4.3	1.39e+00	0	21	0	0	79	14991
2026-01-13 03:50:13.86	42.69	4.45	-56.8	-68.1	4.7	9.44e-01	0	21	0	1048576	79	13500
2026-01-13 03:50:14.86	42.62	4.52	-56.7	-67.4	5.0	7.27e-01	0	21	0	3145728	79	12397
2026-01-13 03:50:15.86	42.55	4.58	-56.6	-66.2	5.7	5.21e-01	0	21	0	5242880	79	10898
2026-01-13 03:50:16.86	42.48	4.64	-56.5	-65.4	6.2	3.33e-01	0	21	0	7340032	79	9917
2026-01-13 03:50:17.86	42.41	4.70	-56.4	-64.8	6.7	2.23e-01	0	21	0	8388608	79	9181
2026-01-13 03:50:18.85	42.34	4.76	-56.5	-65.2	6.4	1.35e-01	0	21	0	10485760	79	9690
2026-01-13 03:50:19.86	42.27	4.83	-56.3	-64.0	7.4	1.60e-01	0	21	0	12582912	79	8446
2026-01-13 03:50:20.86	42.20	4.89	-56.4	-64.4	7.0	1.40e-01	0	21	0	14680064	79	8829
2026-01-13 03:50:21.85	42.13	4.95	-56.4	-64.3	7.1	1.27e-01	0	21	0	15728640	79	8719
2026-01-13 03:50:22.86	42.06	5.02	-56.6	-65.6	6.1	1.68e-01	0	21	0	17825792	79	10139
2026-01-13 03:50:23.86	41.99	5.08	-55.6	-61.0	10.3	7.50e-03	0	21	0	19922944	77	6652
2026-01-13 03:50:24.85	41.92	5.14	-54.4	-58.2	12.5	1.59e-04	0	21	0	22020096	75	5403
2026-01-13 03:50:25.85	41.85	5.20	-56.8	-69.9	4.1	7.92e-02	0	21	0	24117248	78	17664
2026-01-13 03:50:26.85	41.78	5.27	-55.8	-61.4	10.0	1.11e+00	0	21	0	24117248	78	6578
2026-01-13 03:50:27.84	41.70	5.33	-56.2	-63.1	8.4	1.21e-03	0	21	0	26214400	77	8554
2026-01-13 03:50:28.84	41.63	5.39	-55.0	-59.3	11.7	2.00e-02	0	21	0	28311552	76	5839
2026-01-13 03:50:29.84	41.56	5.46	-54.7	-58.6	12.3	4.27e-05	0	21	0	29360128	76	5384
2026-01-13 03:50:30.83	41.49	5.52	-54.5	-58.3	12.4	7.60e-06	0	21	0	31457280	75	5500
2026-01-13 03:50:31.83	41.41	5.58	-54.5	-58.3	12.4	6.80e-06	0	21	0	33554432	75	5479
2026-01-13 03:50:32.82	41.34	5.65	-54.5	-58.3	12.4	2.20e-06	0	21	0	35651584	75	5500
2026-01-13 03:50:33.82	41.26	5.71	-54.3	-58.0	12.8	5.30e-06	0	21	0	37748736	75	5287
2026-01-13 03:50:34.82	41.19	5.78	-54.5	-58.3	12.5	5.30e-06	0	21	0	38797312	75	5477
2026-01-13 03:50:35.82	41.11	5.84	-54.5	-58.2	12.5	2.20e-06	0	21	0	40894464	75	5419
2026-01-13 03:50:36.81	41.04	5.90	-54.2	-57.6	13.0	0.00e+00	0	21	0	42991616	75	5065
2026-01-13 03:50:37.80	40.96	5.97	-54.1	-57.4	13.1	0.00e+00	0	22	0	45088768	74	5245
2026-01-13 03:50:38.80	40.89	6.03	-54.0	-57.3	13.2	7.00e-07	0	21	0	46137344	74	5172
2026-01-13 03:50:39.80	40.81	6.10	-54.0	-57.2	13.2	0.00e+00	0	21	0	48234496	74	5103
2026-01-13 03:50:40.80	40.73	6.16	-53.9	-57.0	13.4	0.00e+00	0	21	0	50331648	74	5016
2026-01-13 03:50:41.79	40.66	6.23	-53.8	-57.0	13.5	0.00e+00	0	22	0	52428800	74	4989
2026-01-13 03:50:42.79	40.58	6.29	-53.9	-57.0	13.4	0.00e+00	0	21	0	54525952	74	5032
2026-01-13 03:50:43.79	40.50	6.36	-53.7	-56.8	13.5	0.00e+00	0	21	0	55574528	73	5160
2026-01-13 03:50:44.79	40.42	6.42	-53.9	-57.1	13.2	0.00e+00	0	21	0	57671680	73	5362
2026-01-13 03:50:45.78	40.35	6.49	-53.7	-56.8	13.5	0.00e+00	0	22	0	59768832	73	5170
2026-01-13 03:50:46.78	40.27	6.55	-53.7	-56.7	13.5	0.00e+00	0	22	0	61865984	73	5102
2026-01-13 03:50:47.78	40.19	6.62	-53.7	-56.7	13.5	0.00e+00	0	22	0	63963136	73	5146
2026-01-13 03:50:48.78	40.11	6.68	-53.8	-56.9	13.4	0.00e+00	0	21	0	65011712	73	5238
2026-01-13 03:50:49.79	40.03	6.75	-53.6	-56.5	13.7	0.00e+00	0	21	0	67108864	73	5040
2026-01-13 03:50:50.79	39.95	6.82	-53.7	-56.7	13.6	0.00e+00	0	21	0	69206016	73	5124
2026-01-13 03:50:51.79	39.86	6.88	-53.6	-56.5	13.7	0.00e+00	0	21	0	71303168	73	5040
2026-01-13 03:50:52.79	39.78	6.95	-53.6	-56.5	13.7	0.00e+00	0	21	0	73400320	73	5023
2026-01-13 03:50:53.79	39.70	7.01	-53.6	-56.5	13.7	0.00e+00	0	22	0	74448896	73	5005
2026-01-13 03:50:54.79	39.62	7.08	-53.5	-56.3	13.8	0.00e+00	0	21	0	76546048	73	4920
2026-01-13 03:50:55.79	39.54	7.15	-53.6	-56.5	13.7	0.00e+00	0	21	0	78643200	73	4988
2026-01-13 03:50:56.78	39.45	7.21	-53.6	-56.4	13.8	0.00e+00	0	21	0	80740352	73	4978
2026-01-13 03:50:57.78	39.37	7.28	-53.5	-56.4	13.8	0.00e+00	0	21	0	81788928	73	4944
2026-01-13 03:50:58.78	39.29	7.35	-53.6	-56.5	13.8	0.00e+00	0	22	0	83886080	73	4992
2026-01-13 03:50:59.78	39.20	7.41	-53.5	-56.3	13.9	0.00e+00	0	22	0	85983232	73	4885
2026-01-13 03:51:00.78	39.12	7.48	-53.7	-56.6	13.6	0.00e+00	0	21	0	88080384	73	5045
2026-01-13 03:51:01.78	39.03	7.55	-53.6	-56.4	13.8	0.00e+00	0	22	0	90177536	73	4953
2026-01-13 03:51:02.77	38.95	7.61	-53.4	-56.1	14.0	0.00e+00	0	22	0	91226112	73	4769
2026-01-13 03:51:03.78	38.86	7.68	-53.5	-56.3	13.9	0.00e+00	0	22	0	93323264	73	4873
2026-01-13 03:51:04.78	38.78	7.75	-53.6	-56.5	13.7	0.00e+00	0	22	0	95420416	73	5017
2026-01-13 03:51:05.78	38.69	7.82	-53.6	-56.4	13.8	0.00e+00	0	22	0	97517568	73	4940
2026-01-13 03:51:06.78	38.60	7.89	-53.6	-56.5	13.7	0.00e+00	0	21	0	99614720	73	4990
2026-01-13 03:51:07.79	38.51	7.95	-53.3	-56.0	14.1	0.00e+00	0	22	0	100663296	73	4726
2026-01-13 03:51:08.78	38.43	8.02	-53.5	-56.3	13.9	0.00e+00	0	22	0	102760448	73	4905
2026-01-13 03:51:09.77	38.34	8.09	-53.5	-56.3	13.9	0.00e+00	0	22	0	104857600	73	4875
2026-01-13 03:51:10.78	38.25	8.16	-53.7	-56.5	13.7	0.00e+00	0	22	0	106954752	73	5021
2026-01-13 03:51:11.77	38.16	8.23	-53.5	-56.3	13.9	0.00e+00	0	22	0	108003328	73	4912
2026-01-13 03:51:12.77	38.07	8.29	-53.6	-56.5	13.8	0.00e+00	0	22	0	110100480	73	5009
2026-01-13 03:51:13.77	37.98	8.36	-53.6	-56.4	13.8	0.00e+00	0	22	0	112197632	73	4972
2026-01-13 03:51:14.76	37.89	8.43	-53.6	-56.5	13.8	0.00e+00	0	22	0	114294784	73	5016
2026-01-13 03:51:15.75	37.80	8.50	-53.7	-56.7	13.7	0.00e+00	0	22	0	116391936	73	5101
2026-01-13 03:51:16.75	37.71	8.57	-53.8	-56.8	13.6	0.00e+00	0	22	0	117440512	73	5161
2026-01-13 03:51:17.75	37.62	8.64	-53.7	-56.6	13.7	0.00e+00	0	22	0	119537664	73	5073
2026-01-13 03:51:18.76	37.53	8.71	-53.5	-56.2	14.0	0.00e+00	0	22	0	121634816	73	4869
2026-01-13 03:51:19.76	37.43	8.78	-53.7	-56.5	13.7	0.00e+00	0	22	0	123731968	73	5034
2026-01-13 03:51:20.76	37.34	8.84	-53.7	-56.5	13.8	0.00e+00	0	22	0	124780544	73	5002
2026-01-13 03:51:21.76	37.25	8.91	-53.7	-56.5	13.8	0.00e+00	0	22	0	126877696	73	5030
2026-01-13 03:51:22.77	37.15	8.98	-53.6	-56.4	13.9	0.00e+00	0	22	0	128974848	73	4951
2026-01-13 03:51:23.77	37.06	9.05	-53.7	-56.5	13.8	0.00e+00	0	22	0	131072000	73	4994
2026-01-13 03:51:24.77	36.96	9.12	-53.6	-56.4	13.9	0.00e+00	0	22	0	133169152	73	4958
2026-01-13 03:51:25.77	36.87	9.19	-53.5	-56.3	14.0	0.00e+00	0	22	0	135266304	73	4874
2026-01-13 03:51:26.77	36.77	9.26	-53.6	-56.4	13.9	0.00e+00	0	22	0	136314880	73	4944
2026-01-13 03:51:27.76	36.68	9.33	-53.7	-56.6	13.7	0.00e+00	0	22	0	138412032	73	5059
2026-01-13 03:51:28.76	36.58	9.40	-53.7	-56.6	13.7	0.00e+00	0	22	0	140509184	73	5080
2026-01-13 03:51:29.75	36.48	9.47	-53.7	-56.5	13.8	0.00e+00	0	22	0	142606336	73	5001
2026-01-13 03:51:30.75	36.38	9.54	-53.7	-56.5	13.8	0.00e+00	0	22	0	143654912	73	5015
2026-01-13 03:51:31.74	36.29	9.61	-53.7	-56.5	13.8	0.00e+00	0	22	0	145752064	73	5041
2026-01-13 03:51:32.74	36.19	9.69	-53.5	-56.1	14.1	0.00e+00	0	22	0	147849216	73	4806
2026-01-13 03:51:33.74	36.09	9.76	-53.5	-56.2	14.0	0.00e+00	0	22	0	149946368	73	4824
2026-01-13 03:51:34.73	35.99	9.83	-53.5	-56.2	14.0	0.00e+00	0	22	0	152043520	73	4856
2026-01-13 03:51:35.73	35.89	9.90	-53.5	-56.2	14.0	0.00e+00	0	22	0	153092096	73	4862
2026-01-13 03:51:36.73	35.79	9.97	-53.6	-56.3	13.9	0.00e+00	0	22	0	155189248	73	4914
2026-01-13 03:51:37.72	35.69	10.04	-53.5	-56.2	14.0	0.00e+00	0	22	0	157286400	73	4845
2026-01-13 03:51:38.72	35.59	10.11	-53.5	-56.1	14.1	0.00e+00	0	22	0	159383552	73	4797
2026-01-13 03:51:39.72	35.48	10.18	-53.4	-56.0	14.2	0.00e+00	0	22	0	160432128	73	4752
2026-01-13 03:51:40.71	35.38	10.25	-53.5	-56.1	14.1	0.00e+00	0	22	0	162529280	73	4810
2026-01-13 03:51:41.71	35.28	10.33	-53.4	-56.1	14.2	0.00e+00	0	22	0	164626432	73	4763
2026-01-13 03:51:42.70	35.17	10.40	-53.4	-56.1	14.2	0.00e+00	0	22	0	166723584	73	4762
2026-01-13 03:51:43.70	35.07	10.47	-53.5	-56.1	14.1	0.00e+00	0	22	0	168820736	73	4790
2026-01-13 03:51:44.70	34.97	10.54	-53.5	-56.2	14.1	0.00e+00	0	22	0	169869312	73	4844
2026-01-13 03:51:45.69	34.86	10.61	-53.6	-56.3	14.0	0.00e+00	0	22	0	171966464	73	4895
2026-01-13 03:51:46.69	34.75	10.68	-53.6	-56.3	14.0	0.00e+00	0	22	0	174063616	73	4897
2026-01-13 03:51:47.69	34.65	10.76	-53.4	-56.0	14.2	0.00e+00	0	22	0	176160768	73	4740
2026-01-13 03:51:48.69	34.54	10.83	-53.4	-56.0	14.2	0.00e+00	0	22	0	177209344	73	4706
2026-01-13 03:51:49.69	34.43	10.90	-53.4	-56.1	14.2	0.00e+00	0	22	0	179306496	73	4763
2026-01-13 03:51:50.69	34.32	10.98	-53.4	-56.0	14.2	0.00e+00	0	22	0	181403648	73	4717
2026-01-13 03:51:51.69	34.22	11.05	-53.4	-55.9	14.3	0.00e+00	0	22	0	183500800	73	4673
2026-01-13 03:51:52.69	34.11	11.12	-53.3	-55.8	14.4	0.00e+00	0	22	0	185597952	73	4607
2026-01-13 03:51:53.69	34.00	11.20	-53.3	-55.8	14.4	0.00e+00	0	22	0	186646528	73	4608
2026-01-13 03:51:54.69	33.89	11.27	-53.2	-55.7	14.4	0.00e+00	0	22	0	188743680	73	4574
2026-01-13 03:51:55.68	33.78	11.34	-53.3	-55.7	14.4	0.00e+00	0	22	0	190840832	73	4588
2026-01-13 03:51:56.67	33.66	11.41	-53.1	-55.5	14.4	0.00e+00	0	22	0	192937984	72	4758
2026-01-13 03:51:57.68	33.55	11.49	-53.0	-55.4	14.5	0.00e+00	0	22	0	195035136	72	4665
2026-01-13 03:51:58.68	33.44	11.56	-53.0	-55.4	14.4	0.00e+00	0	22	0	196083712	72	4700
2026-01-13 03:51:59.69	33.32	11.64	-53.1	-55.5	14.4	0.00e+00	0	22	0	198180864	72	4722
2026-01-13 03:52:00.69	33.21	11.71	-53.1	-55.5	14.4	0.00e+00	0	22	0	200278016	72	4732
2026-01-13 03:52:01.69	33.10	11.78	-53.1	-55.5	14.4	0.00e+00	0	22	0	202375168	72	4719
2026-01-13 03:52:02.69	32.98	11.86	-53.0	-55.4	14.5	0.00e+00	0	22	0	204472320	72	4682
2026-01-13 03:52:03.69	32.86	11.93	-53.1	-55.4	14.5	0.00e+00	0	22	0	205520896	72	4704
2026-01-13 03:52:04.68	32.75	12.01	-53.1	-55.5	14.4	0.00e+00	0	22	0	207618048	72	4759
2026-01-13 03:52:05.69	32.63	12.08	-53.1	-55.5	14.4	0.00e+00	0	22	0	209715200	72	4712
2026-01-13 03:52:06.68	32.51	12.16	-53.0	-55.4	14.5	0.00e+00	0	22	0	211812352	72	4679
2026-01-13 03:52:07.69	32.39	12.23	-53.1	-55.5	14.4	0.00e+00	0	22	0	212860928	72	4733
2026-01-13 03:52:08.69	32.28	12.31	-53.1	-55.6	14.3	0.00e+00	0	22	0	214958080	72	4788
2026-01-13 03:52:09.69	32.16	12.38	-53.1	-55.6	14.4	0.00e+00	0	22	0	217055232	72	4783
2026-01-13 03:52:10.68	32.04	12.46	-53.2	-55.7	14.3	0.00e+00	0	22	0	219152384	72	4839
2026-01-13 03:52:11.69	31.92	12.53	-53.2	-55.6	14.3	0.00e+00	0	22	0	221249536	72	4800
2026-01-13 03:52:12.69	31.79	12.61	-53.1	-55.5	14.5	0.00e+00	0	22	0	222298112	72	4712
2026-01-13 03:52:13.69	31.67	12.68	-53.1	-55.5	14.4	0.00e+00	0	22	0	224395264	72	4724
2026-01-13 03:52:14.69	31.55	12.76	-53.1	-55.5	14.4	0.00e+00	0	22	0	226492416	72	4758
2026-01-13 03:52:15.69	31.43	12.83	-53.1	-55.5	14.5	0.00e+00	0	22	0	228589568	72	4706
2026-01-13 03:52:16.70	31.30	12.91	-53.2	-55.6	14.4	0.00e+00	0	22	0	230686720	72	4771
2026-01-13 03:52:17.69	31.18	12.98	-53.1	-55.5	14.4	0.00e+00	0	22	0	231735296	72	4716
2026-01-13 03:52:18.69	31.05	13.06	-53.1	-55.6	14.4	0.00e+00	0	22	0	233832448	72	4762
2026-01-13 03:52:19.69	30.93	13.14	-53.2	-55.6	14.4	0.00e+00	0	22	0	235929600	72	4770
2026-01-13 03:52:20.69	30.80	13.21	-53.0	-55.3	14.6	0.00e+00	0	22	0	238026752	72	4633
2026-01-13 03:52:21.69	30.67	13.29	-53.0	-55.3	14.6	0.00e+00	0	22	0	239075328	72	4640
2026-01-13 03:52:22.68	30.54	13.36	-53.1	-55.4	14.5	0.00e+00	0	22	0	241172480	72	4684
2026-01-13 03:52:23.69	30.41	13.44	-53.0	-55.3	14.6	0.00e+00	0	22	0	243269632	72	4618
2026-01-13 03:52:24.69	30.29	13.52	-52.9	-55.2	14.7	0.00e+00	0	22	0	245366784	72	4567
2026-01-13 03:52:25.68	30.16	13.59	-53.0	-55.3	14.6	0.00e+00	0	22	0	247463936	72	4635
2026-01-13 03:52:26.68	30.03	13.67	-53.0	-55.3	14.6	0.00e+00	0	22	0	248512512	72	4604
2026-01-13 03:52:27.68	29.89	13.75	-53.0	-55.3	14.6	0.00e+00	0	22	0	250609664	72	4601
2026-01-13 03:52:28.69	29.76	13.82	-53.1	-55.4	14.5	0.00e+00	0	22	0	252706816	72	4691
2026-01-13 03:52:29.68	29.63	13.90	-52.9	-55.2	14.6	0.00e+00	0	22	0	254803968	72	4598
2026-01-13 03:52:30.68	29.50	13.98	-52.9	-55.1	14.7	0.00e+00	0	22	0	256901120	72	4526
2026-01-13 03:52:31.68	29.36	14.05	-52.9	-55.2	14.7	0.00e+00	0	22	0	257949696	72	4553
2026-01-13 03:52:32.68	29.23	14.13	-52.8	-55.0	14.8	0.00e+00	0	22	0	260046848	72	4483
2026-01-13 03:52:33.68	29.09	14.21	-52.8	-55.1	14.7	0.00e+00	0	22	0	262144000	72	4501
2026-01-13 03:52:34.67	28.96	14.29	-52.8	-55.1	14.8	0.00e+00	0	22	0	264241152	72	4508
2026-01-13 03:52:35.67	28.82	14.36	-52.8	-55.0	14.8	0.00e+00	0	22	0	266338304	72	4479
2026-01-13 03:52:36.66	28.68	14.44	-52.8	-55.0	14.8	0.00e+00	0	22	0	267386880	72	4474
2026-01-13 03:52:37.65	28.55	14.52	-52.7	-54.9	14.9	0.00e+00	0	22	0	269484032	72	4429
2026-01-13 03:52:38.65	28.41	14.59	-52.7	-54.9	14.9	0.00e+00	0	22	0	271581184	72	4402
2026-01-13 03:52:39.65	28.27	14.67	-52.5	-54.7	14.9	0.00e+00	0	22	0	273678336	71	4551
2026-01-13 03:52:40.63	28.13	14.75	-52.6	-54.7	14.8	0.00e+00	0	22	0	274726912	71	4591
2026-01-13 03:52:41.62	27.99	14.83	-52.5	-54.7	14.9	0.00e+00	0	22	0	276824064	71	4552
2026-01-13 03:52:42.61	27.85	14.90	-52.6	-54.8	14.7	0.00e+00	0	22	0	278921216	71	4641
2026-01-13 03:52:43.61	27.70	14.98	-52.5	-54.6	14.9	0.00e+00	0	22	0	281018368	71	4540
2026-01-13 03:52:44.61	27.56	15.06	-52.5	-54.6	14.9	0.00e+00	0	22	0	282066944	71	4536
2026-01-13 03:52:45.61	27.42	15.14	-52.5	-54.6	14.9	0.00e+00	0	22	0	284164096	71	4544
2026-01-13 03:52:46.61	27.27	15.21	-52.6	-54.8	14.8	0.00e+00	0	22	0	286261248	71	4603
2026-01-13 03:52:47.61	27.12	15.29	-52.6	-54.7	14.8	0.00e+00	0	22	0	288358400	71	4588
2026-01-13 03:52:48.61	26.98	15.37	-52.6	-54.8	14.8	0.00e+00	0	22	0	290455552	71	4610
2026-01-13 03:52:49.60	26.83	15.45	-52.6	-54.7	14.8	0.00e+00	0	22	0	291504128	71	4564
2026-01-13 03:52:50.60	26.68	15.53	-52.6	-54.7	14.8	0.00e+00	0	22	0	293601280	71	4585
2026-01-13 03:52:51.59	26.53	15.60	-52.5	-54.6	14.9	0.00e+00	0	22	0	295698432	71	4495
2026-01-13 03:52:52.59	26.38	15.68	-52.5	-54.6	14.9	0.00e+00	0	22	0	297795584	71	4511
2026-01-13 03:52:53.59	26.23	15.76	-52.5	-54.7	14.9	0.00e+00	0	22	0	299892736	71	4546
2026-01-13 03:52:54.60	26.08	15.84	-52.5	-54.6	14.9	0.00e+00	0	22	0	300941312	71	4526
2026-01-13 03:52:55.59	25.93	15.92	-52.5	-54.6	14.9	0.00e+00	0	22	0	303038464	71	4522
2026-01-13 03:52:56.59	25.78	16.00	-52.6	-54.7	14.8	0.00e+00	0	22	0	305135616	71	4569
2026-01-13 03:52:57.59	25.62	16.08	-52.5	-54.5	14.9	0.00e+00	0	22	0	307232768	71	4489
2026-01-13 03:52:58.59	25.47	16.16	-52.4	-54.5	15.0	0.00e+00	0	22	0	308281344	71	4451
2026-01-13 03:52:59.59	25.31	16.23	-52.4	-54.4	15.0	0.00e+00	0	22	0	310378496	71	4417
2026-01-13 03:53:00.59	25.15	16.31	-52.4	-54.5	15.0	0.00e+00	0	22	0	312475648	71	4470
2026-01-13 03:53:01.58	25.00	16.39	-52.3	-54.4	15.1	0.00e+00	0	22	0	314572800	71	4400
2026-01-13 03:53:02.58	24.84	16.47	-52.4	-54.5	15.0	0.00e+00	0	22	0	316669952	71	4474
2026-01-13 03:53:03.58	24.68	16.55	-52.4	-54.5	15.0	0.00e+00	0	22	0	317718528	71	4464
2026-01-13 03:53:04.58	24.52	16.63	-52.4	-54.5	15.0	0.00e+00	0	22	0	319815680	71	4475
2026-01-13 03:53:05.58	24.36	16.71	-52.6	-54.7	14.9	0.00e+00	0	22	0	321912832	71	4554
2026-01-13 03:53:06.58	24.20	16.79	-52.6	-54.7	14.9	0.00e+00	0	22	0	324009984	71	4547
2026-01-13 03:53:07.59	24.03	16.87	-52.7	-54.9	14.7	0.00e+00	0	22	0	326107136	71	4665
2026-01-13 03:53:08.59	23.87	16.94	-52.8	-55.0	14.6	0.00e+00	0	22	0	327155712	71	4749
2026-01-13 03:53:09.58	23.71	17.02	-52.6	-54.7	14.8	0.00e+00	0	22	0	329252864	71	4595
2026-01-13 03:53:10.58	23.54	17.10	-52.7	-54.9	14.7	0.00e+00	0	22	0	331350016	71	4677
2026-01-13 03:53:11.58	23.38	17.18	-52.8	-55.0	14.7	0.00e+00	0	22	0	333447168	71	4708
2026-01-13 03:53:12.57	23.21	17.26	-52.8	-55.0	14.6	0.00e+00	0	22	0	335544320	71	4745
2026-01-13 03:53:13.56	23.04	17.34	-52.8	-55.0	14.6	0.00e+00	0	22	0	336592896	71	4758
2026-01-13 03:53:14.57	22.87	17.42	-52.7	-54.9	14.7	0.00e+00	0	22	0	338690048	71	4685
2026-01-13 03:53:15.57	22.70	17.50	-52.7	-54.9	14.7	0.00e+00	0	22	0	340787200	71	4688
2026-01-13 03:53:16.57	22.53	17.58	-52.7	-54.9	14.7	0.00e+00	0	22	0	342884352	71	4698
2026-01-13 03:53:17.57	22.36	17.65	-52.7	-54.8	14.8	0.00e+00	0	22	0	343932928	71	4634
2026-01-13 03:53:18.56	22.19	17.73	-52.7	-54.9	14.8	0.00e+00	0	22	0	346030080	71	4662
2026-01-13 03:53:19.56	22.02	17.81	-52.8	-55.0	14.7	0.00e+00	0	22	0	348127232	71	4724
2026-01-13 03:53:20.56	21.84	17.89	-52.8	-55.0	14.7	0.00e+00	0	22	0	350224384	71	4713
2026-01-13 03:53:21.57	21.67	17.97	-52.8	-55.0	14.7	0.00e+00	0	22	0	352321536	71	4714
2026-01-13 03:53:22.57	21.49	18.05	-52.7	-54.9	14.7	0.00e+00	0	22	0	353370112	71	4669
2026-01-13 03:53:23.57	21.31	18.13	-52.6	-54.8	14.8	0.00e+00	0	22	0	355467264	71	4603
2026-01-13 03:53:24.57	21.14	18.21	-52.5	-54.6	14.9	0.00e+00	0	22	0	357564416	71	4525
2026-01-13 03:53:25.58	20.95	18.29	-52.6	-54.7	14.9	0.00e+00	0	22	0	359661568	71	4561
2026-01-13 03:53:26.58	20.77	18.37	-52.6	-54.7	14.8	0.00e+00	0	22	0	361758720	71	4571
2026-01-13 03:53:27.58	20.59	18.44	-52.6	-54.7	14.8	0.00e+00	0	22	0	362807296	71	4589
2026-01-13 03:53:28.58	20.41	18.52	-52.7	-54.8	14.8	0.00e+00	0	22	0	364904448	71	4628
2026-01-13 03:53:29.58	20.23	18.60	-52.6	-54.8	14.8	0.00e+00	0	22	0	367001600	71	4606
2026-01-13 03:53:30.57	20.05	18.68	-52.7	-54.9	14.8	0.00e+00	0	22	0	369098752	71	4667
2026-01-13 03:53:31.57	19.86	18.76	-52.8	-55.0	14.7	0.00e+00	0	22	0	370147328	71	4732
2026-01-13 03:53:32.57	19.68	18.84	-52.9	-55.1	14.6	0.00e+00	0	22	0	372244480	71	4767
2026-01-13 03:53:33.57	19.49	18.91	-52.8	-55.0	14.7	0.00e+00	0	22	0	374341632	71	4732
2026-01-13 03:53:34.57	19.30	18.99	-52.8	-55.0	14.7	0.00e+00	0	22	0	376438784	71	4750
2026-01-13 03:53:35.56	19.12	19.07	-52.9	-55.1	14.6	0.00e+00	0	22	0	378535936	71	4793
2026-01-13 03:53:36.56	18.93	19.15	-52.9	-55.1	14.6	0.00e+00	0	22	0	379584512	71	4777
2026-01-13 03:53:37.56	18.74	19.23	-52.7	-54.9	14.8	0.00e+00	0	22	0	381681664	71	4669
2026-01-13 03:53:38.55	18.55	19.30	-52.8	-54.9	14.7	0.00e+00	0	22	0	383778816	71	4695
2026-01-13 03:53:39.55	18.35	19.38	-52.8	-55.0	14.7	0.00e+00	0	22	0	385875968	71	4723
2026-01-13 03:53:40.55	18.16	19.46	-52.6	-54.7	14.9	0.00e+00	0	22	0	386924544	71	4569
2026-01-13 03:53:41.54	17.97	19.54	-52.6	-54.7	14.9	0.00e+00	0	22	0	389021696	71	4559
2026-01-13 03:53:42.54	17.77	19.61	-52.7	-54.8	14.8	0.00e+00	0	22	0	391118848	71	4646
2026-01-13 03:53:43.54	17.57	19.69	-52.6	-54.7	14.9	0.00e+00	0	22	0	393216000	71	4567
2026-01-13 03:53:44.54	17.38	19.77	-52.5	-54.6	15.0	0.00e+00	0	22	0	395313152	71	4515
2026-01-13 03:53:45.54	17.18	19.85	-52.5	-54.6	14.9	0.00e+00	0	22	0	396361728	71	4533
2026-01-13 03:53:46.53	16.98	19.92	-52.6	-54.6	14.9	0.00e+00	0	22	0	398458880	71	4543
2026-01-13 03:53:47.54	16.78	20.00	-52.3	-54.4	15.1	0.00e+00	0	22	0	400556032	71	4395
2026-01-13 03:53:48.53	16.58	20.08	-52.4	-54.4	15.1	0.00e+00	0	22	0	402653184	71	4439
2026-01-13 03:53:49.53	16.38	20.15	-52.4	-54.4	15.1	0.00e+00	0	22	0	404750336	71	4425
2026-01-13 03:53:50.53	16.17	20.23	-52.5	-54.5	15.0	0.00e+00	0	22	0	405798912	71	4463
2026-01-13 03:53:51.53	15.97	20.31	-52.4	-54.4	15.1	0.00e+00	0	22	0	407896064	71	4421
2026-01-13 03:53:52.53	15.76	20.38	-52.4	-54.4	15.1	0.00e+00	0	22	0	409993216	71	4405
2026-01-13 03:53:53.53	15.56	20.46	-52.3	-54.4	15.1	0.00e+00	0	22	0	412090368	71	4392
2026-01-13 03:53:54.52	15.35	20.53	-52.2	-54.2	15.2	0.00e+00	0	22	0	414187520	71	4304
2026-01-13 03:53:55.53	15.14	20.61	-52.0	-54.0	15.1	0.00e+00	0	22	0	415236096	70	4447
2026-01-13 03:53:56.53	14.93	20.69	-52.1	-54.0	15.1	0.00e+00	0	22	0	417333248	70	4463
2026-01-13 03:53:57.53	14.72	20.76	-52.0	-53.9	15.2	0.00e+00	0	22	0	419430400	70	4417
2026-01-13 03:53:58.52	14.51	20.84	-51.9	-53.8	15.3	0.00e+00	0	22	0	421527552	70	4366
2026-01-13 03:53:59.53	14.29	20.91	-51.9	-53.8	15.3	0.00e+00	0	22	0	422576128	70	4341
2026-01-13 03:54:00.52	14.08	20.99	-51.8	-53.7	15.3	0.00e+00	0	22	0	424673280	70	4311
2026-01-13 03:54:01.53	13.86	21.06	-51.7	-53.5	15.4	0.00e+00	0	22	0	426770432	70	4242
2026-01-13 03:54:02.51	13.65	21.13	-51.5	-53.3	15.4	0.00e+00	0	22	0	428867584	69	4366
2026-01-13 03:54:03.50	13.44	21.21	-51.5	-53.3	15.3	0.00e+00	0	22	0	430964736	69	4378
2026-01-13 03:54:04.50	13.22	21.28	-51.5	-53.3	15.4	0.00e+00	0	22	0	432013312	69	4368
2026-01-13 03:54:05.50	13.00	21.35	-51.4	-53.2	15.4	0.00e+00	0	22	0	434110464	69	4311
2026-01-13 03:54:06.51	12.78	21.43	-51.3	-53.1	15.5	0.00e+00	0	22	0	436207616	69	4251
2026-01-13 03:54:07.51	12.55	21.50	-51.4	-53.1	15.5	0.00e+00	0	22	0	438304768	69	4267
2026-01-13 03:54:08.51	12.33	21.57	-51.3	-53.0	15.6	0.00e+00	0	22	0	439353344	69	4222
2026-01-13 03:54:09.51	12.11	21.65	-51.1	-52.8	15.5	0.00e+00	0	22	0	441450496	68	4365
2026-01-13 03:54:10.51	11.88	21.72	-51.0	-52.7	15.5	0.00e+00	0	22	0	443547648	68	4310
2026-01-13 03:54:11.52	11.66	21.79	-51.0	-52.7	15.5	0.00e+00	0	22	0	445644800	68	4307
2026-01-13 03:54:12.51	11.43	21.86	-51.1	-52.8	15.5	0.00e+00	0	22	0	447741952	68	4366
2026-01-13 03:54:13.51	11.20	21.94	-51.2	-52.9	15.4	0.00e+00	0	22	0	448790528	68	4421
2026-01-13 03:54:14.52	10.97	22.01	-51.1	-52.8	15.5	0.00e+00	0	22	0	450887680	68	4381
2026-01-13 03:54:15.51	10.74	22.08	-51.1	-52.8	15.5	0.00e+00	0	22	0	452984832	68	4351
2026-01-13 03:54:16.51	10.51	22.15	-51.0	-52.7	15.5	0.00e+00	0	22	0	455081984	68	4305
2026-01-13 03:54:17.51	10.28	22.22	-51.0	-52.6	15.6	0.00e+00	0	22	0	457179136	68	4285
2026-01-13 03:54:18.51	10.05	22.29	-51.0	-52.6	15.6	0.00e+00	0	22	0	458227712	68	4282
2026-01-13 03:54:19.51	9.81	22.36	-51.0	-52.7	15.5	0.00e+00	0	22	0	460324864	68	4310
2026-01-13 03:54:20.51	9.58	22.43	-51.1	-52.8	15.5	0.00e+00	0	22	0	462422016	68	4357
2026-01-13 03:54:21.51	9.34	22.50	-51.1	-52.8	15.5	0.00e+00	0	22	0	464519168	68	4348
2026-01-13 03:54:22.51	9.11	22.57	-51.0	-52.7	15.6	0.00e+00	0	22	0	465567744	68	4293
2026-01-13 03:54:23.50	8.87	22.63	-51.0	-52.6	15.6	0.00e+00	0	22	0	467664896	68	4274
2026-01-13 03:54:24.50	8.63	22.70	-51.0	-52.7	15.6	0.00e+00	0	22	0	469762048	68	4319
2026-01-13 03:54:25.50	8.39	22.77	-51.0	-52.7	15.6	0.00e+00	0	22	0	471859200	68	4295
2026-01-13 03:54:26.50	8.15	22.84	-50.9	-52.6	15.6	0.00e+00	0	22	0	473956352	68	4264
2026-01-13 03:54:27.50	7.90	22.90	-51.0	-52.7	15.5	0.00e+00	0	22	0	475004928	68	4294
2026-01-13 03:54:28.50	7.66	22.97	-50.8	-52.4	15.7	0.00e+00	0	22	0	477102080	68	4178
2026-01-13 03:54:29.49	7.42	23.04	-50.8	-52.5	15.7	0.00e+00	0	22	0	479199232	68	4200
2026-01-13 03:54:30.49	7.17	23.10	-50.9	-52.5	15.6	0.00e+00	0	22	0	481296384	68	4214
2026-01-13 03:54:31.49	6.93	23.17	-51.0	-52.6	15.6	0.00e+00	0	22	0	483393536	68	4283
2026-01-13 03:54:32.49	6.68	23.23	-51.1	-52.8	15.5	0.00e+00	0	22	0	484442112	68	4341
2026-01-13 03:54:33.48	6.43	23.30	-51.2	-52.9	15.4	0.00e+00	0	22	0	486539264	68	4416
2026-01-13 03:54:34.48	6.18	23.36	-51.2	-52.9	15.4	0.00e+00	0	22	0	488636416	68	4433
2026-01-13 03:54:35.48	5.93	23.42	-51.1	-52.8	15.5	0.00e+00	0	22	0	490733568	68	4349
2026-01-13 03:54:36.47	5.68	23.49	-51.1	-52.8	15.5	0.00e+00	0	22	0	492830720	68	4372
2026-01-13 03:54:37.47	5.43	23.55	-51.1	-52.8	15.5	0.00e+00	0	22	0	493879296	68	4347
2026-01-13 03:54:38.48	5.17	23.61	-51.2	-52.8	15.5	0.00e+00	0	22	0	495976448	68	4385
2026-01-13 03:54:39.47	4.92	23.67	-51.2	-52.9	15.4	0.00e+00	0	22	0	498073600	68	4401
2026-01-13 03:54:40.46	4.66	23.73	-51.3	-53.0	15.3	0.00e+00	0	22	0	500170752	68	4473
2026-01-13 03:54:41.46	4.41	23.80	-51.1	-52.8	15.5	0.00e+00	0	22	0	501219328	68	4382
2026-01-13 03:54:42.46	4.15	23.86	-51.0	-52.7	15.5	0.00e+00	0	22	0	503316480	68	4306
2026-01-13 03:54:43.46	3.89	23.92	-51.0	-52.6	15.5	0.00e+00	0	22	0	505413632	68	4278
2026-01-13 03:54:44.46	3.63	23.98	-51.0	-52.6	15.6	0.00e+00	0	22	0	507510784	68	4276
2026-01-13 03:54:45.47	3.37	24.03	-51.0	-52.6	15.6	0.00e+00	0	22	0	509607936	68	4265
2026-01-13 03:54:46.46	3.11	24.09	-51.0	-52.6	15.6	0.00e+00	0	22	0	510656512	68	4272
2026-01-13 03:54:47.46	2.84	24.15	-50.9	-52.5	15.6	0.00e+00	0	22	0	512753664	68	4233
2026-01-13 03:54:48.46	2.58	24.21	-50.7	-52.3	15.8	0.00e+00	0	22	0	514850816	68	4123
2026-01-13 03:54:49.45	2.32	24.26	-50.7	-52.3	15.8	0.00e+00	0	22	0	516947968	68	4135
2026-01-13 03:54:50.45	2.05	24.32	-50.8	-52.4	15.7	0.00e+00	0	22	0	517996544	68	4178
2026-01-13 03:54:51.46	1.78	24.38	-50.9	-52.5	15.6	0.00e+00	0	22	0	520093696	68	4225
2026-01-13 03:54:52.46	1.51	24.43	-50.9	-52.5	15.6	0.00e+00	0	22	0	522190848	68	4232
2026-01-13 03:54:53.46	1.24	24.49	-50.9	-52.6	15.6	0.00e+00	0	22	0	524288000	68	4261
2026-01-13 03:54:54.46	0.98	24.54	-50.9	-52.6	15.6	0.00e+00	0	22	0	526385152	68	4244
2026-01-13 03:54:55.45	0.71	24.59	-50.7	-52.3	15.8	0.00e+00	0	22	0	527433728	68	4111
2026-01-13 03:54:56.45	0.44	24.65	-50.6	-52.2	15.6	0.00e+00	0	22	0	529530880	67	4292
2026-01-13 03:54:57.46	0.16	24.70	-50.6	-52.2	15.6	0.00e+00	0	22	0	531628032	67	4336
2026-01-13 03:54:58.46	359.89	24.75	-50.5	-52.1	15.6	0.00e+00	0	22	0	533725184	67	4280
2026-01-13 03:54:59.46	359.61	24.80	-50.6	-52.2	15.6	0.00e+00	0	22	0	535822336	67	4309
2026-01-13 03:55:00.45	359.34	24.85	-50.6	-52.2	15.6	0.00e+00	0	22	0	536870912	67	4309
2026-01-13 03:55:01.46	359.06	24.90	-50.4	-51.9	15.7	0.00e+00	0	22	0	538968064	67	4170
2026-01-13 03:55:02.45	358.79	24.95	-50.3	-51.9	15.8	0.00e+00	0	22	0	541065216	67	4163
2026-01-13 03:55:03.45	358.51	25.00	-50.5	-52.1	15.7	0.00e+00	0	22	0	543162368	67	4246
2026-01-13 03:55:04.45	358.23	25.05	-50.6	-52.2	15.6	0.00e+00	0	22	0	545259520	67	4328
2026-01-13 03:55:05.46	357.95	25.09	-50.7	-52.4	15.5	0.00e+00	0	22	0	546308096	67	4406
2026-01-13 03:55:06.45	357.67	25.14	-50.8	-52.5	15.4	0.00e+00	0	22	0	548405248	67	4477
2026-01-13 03:55:07.46	357.39	25.19	-50.9	-52.6	15.4	0.00e+00	0	22	0	550502400	67	4502
2026-01-13 03:55:08.46	357.10	25.23	-51.0	-52.7	15.3	0.00e+00	0	22	0	552599552	67	4548
2026-01-13 03:55:09.46	356.82	25.28	-51.0	-52.7	15.3	0.00e+00	0	22	0	553648128	67	4571
2026-01-13 03:55:10.46	356.54	25.32	-51.1	-52.9	15.2	0.00e+00	0	22	0	555745280	67	4654
2026-01-13 03:55:11.45	356.25	25.36	-51.3	-53.0	15.2	0.00e+00	0	22	0	557842432	67	4745
2026-01-13 03:55:12.44	355.97	25.40	-51.3	-53.0	15.1	0.00e+00	0	22	0	559939584	67	4756
2026-01-13 03:55:13.44	355.69	25.45	-51.3	-53.1	15.1	0.00e+00	0	22	0	562036736	67	4763
2026-01-13 03:55:14.43	355.40	25.49	-51.3	-53.0	15.1	0.00e+00	0	22	0	563085312	67	4757
2026-01-13 03:55:15.43	355.12	25.53	-51.3	-53.1	15.1	0.00e+00	0	22	0	565182464	67	4777
2026-01-13 03:55:16.43	354.83	25.57	-51.4	-53.2	15.1	0.00e+00	0	22	0	567279616	67	4820
2026-01-13 03:55:17.43	354.54	25.60	-51.7	-53.5	15.1	0.00e+00	0	22	0	569376768	68	4749
2026-01-13 03:55:18.42	354.25	25.64	-51.9	-53.8	14.9	0.00e+00	0	22	0	571473920	68	4875
2026-01-13 03:55:19.42	353.96	25.68	-51.8	-53.6	15.0	0.00e+00	0	22	0	572522496	68	4803
2026-01-13 03:55:20.42	353.67	25.72	-51.8	-53.7	15.0	0.00e+00	0	22	0	574619648	68	4817
2026-01-13 03:55:21.43	353.37	25.75	-51.7	-53.6	15.1	0.00e+00	0	22	0	576716800	68	4760
2026-01-13 03:55:22.42	353.09	25.79	-51.8	-53.6	15.0	0.00e+00	0	22	0	578813952	68	4780
2026-01-13 03:55:23.42	352.79	25.82	-51.9	-53.8	15.1	0.00e+00	0	22	0	579862528	69	4641
2026-01-13 03:55:24.42	352.50	25.85	-52.0	-53.9	15.0	0.00e+00	0	22	0	581959680	69	4691
2026-01-13 03:55:25.41	352.21	25.89	-52.2	-54.1	14.9	0.00e+00	0	22	0	584056832	69	4789
2026-01-13 03:55:26.41	351.91	25.92	-52.2	-54.2	14.9	0.00e+00	0	22	0	586153984	69	4819
2026-01-13 03:55:27.41	351.62	25.95	-52.2	-54.2	14.9	0.00e+00	0	22	0	588251136	69	4853
2026-01-13 03:55:28.41	351.32	25.98	-52.3	-54.3	14.8	0.00e+00	0	22	0	589299712	69	4894
2026-01-13 03:55:29.42	351.02	26.01	-52.3	-54.3	14.8	0.00e+00	0	22	0	591396864	69	4911
2026-01-13 03:55:30.42	350.72	26.04	-52.4	-54.4	14.7	0.00e+00	0	22	0	593494016	69	4981
2026-01-13 03:55:31.42	350.43	26.07	-52.4	-54.3	15.0	0.00e+00	0	22	0	595591168	70	4639
2026-01-13 03:55:32.42	350.13	26.09	-52.5	-54.5	14.8	0.00e+00	0	22	0	597688320	70	4753
2026-01-13 03:55:33.42	349.83	26.12	-52.5	-54.6	14.9	0.00e+00	0	22	0	598736896	70	4765
2026-01-13 03:55:34.41	349.53	26.14	-52.5	-54.5	14.9	0.00e+00	0	22	0	600834048	70	4741
2026-01-13 03:55:35.41	349.23	26.17	-52.5	-54.5	14.8	0.00e+00	0	22	0	602931200	70	4759
2026-01-13 03:55:36.41	348.93	26.19	-52.4	-54.4	14.9	0.00e+00	0	22	0	605028352	70	4687
2026-01-13 03:55:37.41	348.63	26.21	-52.4	-54.4	15.0	0.00e+00	0	22	0	606076928	70	4672
2026-01-13 03:55:38.41	348.33	26.24	-52.4	-54.3	15.0	0.00e+00	0	22	0	608174080	70	4633
2026-01-13 03:55:39.40	348.03	26.26	-52.4	-54.3	15.0	0.00e+00	0	22	0	610271232	70	4640
2026-01-13 03:55:40.40	347.73	26.28	-52.5	-54.6	14.8	0.00e+00	0	22	0	612368384	70	4762
2026-01-13 03:55:41.40	347.43	26.30	-52.6	-54.6	14.8	0.00e+00	0	22	0	614465536	70	4806
2026-01-13 03:55:42.40	347.13	26.31	-52.6	-54.7	14.8	0.00e+00	0	22	0	615514112	70	4840
2026-01-13 03:55:43.40	346.82	26.33	-52.7	-54.7	14.7	0.00e+00	0	22	0	617611264	70	4865
2026-01-13 03:55:44.40	346.52	26.35	-52.7	-54.8	14.7	0.00e+00	0	22	0	619708416	70	4885
2026-01-13 03:55:45.40	346.22	26.36	-52.6	-54.7	14.7	0.00e+00	0	22	0	621805568	70	4850
2026-01-13 03:55:46.39	345.92	26.38	-52.6	-54.6	14.8	0.00e+00	0	22	0	623902720	70	4791
2026-01-13 03:55:47.38	345.62	26.39	-52.6	-54.6	14.8	0.00e+00	0	22	0	624951296	70	4807
2026-01-13 03:55:48.37	345.31	26.41	-52.6	-54.6	14.8	0.00e+00	0	22	0	627048448	70	4789
2026-01-13 03:55:49.36	345.01	26.42	-52.6	-54.7	14.7	0.00e+00	0	22	0	629145600	70	4830
2026-01-13 03:55:50.36	344.71	26.43	-52.7	-54.8	14.7	0.00e+00	0	22	0	631242752	70	4904
2026-01-13 03:55:51.36	344.40	26.44	-52.7	-54.9	14.7	0.00e+00	0	22	0	632291328	70	4929
2026-01-13 03:55:52.36	344.10	26.45	-52.8	-54.9	14.6	0.00e+00	0	22	0	634388480	70	4963
2026-01-13 03:55:53.36	343.79	26.46	-52.9	-55.1	14.6	0.00e+00	0	22	0	636485632	70	5047
2026-01-13 03:55:54.36	343.49	26.47	-52.9	-55.0	14.6	0.00e+00	0	22	0	638582784	70	5037
2026-01-13 03:55:55.35	343.18	26.47	-52.9	-55.1	14.7	0.00e+00	0	22	0	640679936	71	4775
2026-01-13 03:55:56.35	342.88	26.48	-52.8	-54.9	14.8	0.00e+00	0	22	0	641728512	71	4674
2026-01-13 03:55:57.35	342.57	26.48	-52.8	-54.9	14.8	0.00e+00	0	22	0	643825664	71	4689
2026-01-13 03:55:58.35	342.27	26.49	-52.8	-54.9	14.8	0.00e+00	0	22	0	645922816	71	4662
2026-01-13 03:55:59.35	341.96	26.49	-52.4	-54.3	15.2	0.00e+00	0	22	0	648019968	71	4367
2026-01-13 03:56:00.35	341.65	26.49	-52.2	-54.1	15.3	0.00e+00	0	22	0	649068544	71	4263
2026-01-13 03:56:01.36	341.34	26.50	-52.2	-54.1	15.3	0.00e+00	0	22	0	651165696	71	4263
2026-01-13 03:56:02.36	341.04	26.50	-52.2	-54.2	15.1	0.00e+00	0	22	0	653262848	70	4547
2026-01-13 03:56:03.36	340.73	26.50	-52.4	-54.4	15.0	0.00e+00	0	22	0	655360000	70	4655
2026-01-13 03:56:04.36	340.43	26.50	-52.5	-54.5	14.9	0.00e+00	0	22	0	657457152	70	4727
2026-01-13 03:56:05.35	340.12	26.49	-52.4	-54.4	14.9	0.00e+00	0	22	0	658505728	70	4701
2026-01-13 03:56:06.35	339.82	26.49	-52.2	-54.2	15.1	0.00e+00	0	22	0	660602880	70	4555
2026-01-13 03:56:07.36	339.51	26.49	-52.1	-54.0	15.1	0.00e+00	0	22	0	662700032	70	4482
2026-01-13 03:56:08.36	339.20	26.48	-52.2	-54.1	15.1	0.00e+00	0	22	0	664797184	70	4498
2026-01-13 03:56:09.37	338.89	26.48	-51.9	-53.7	15.4	0.00e+00	0	22	0	666894336	70	4294
2026-01-13 03:56:10.37	338.59	26.47	-51.8	-53.5	15.5	0.00e+00	0	22	0	667942912	70	4236
2026-01-13 03:56:11.37	338.28	26.46	-51.8	-53.6	15.4	0.00e+00	0	22	0	670040064	70	4265
2026-01-13 03:56:12.38	337.97	26.45	-51.8	-53.5	15.5	0.00e+00	0	22	0	672137216	70	4229
2026-01-13 03:56:13.38	337.67	26.44	-51.6	-53.3	15.4	0.00e+00	0	22	0	674234368	69	4368
2026-01-13 03:56:14.38	337.36	26.43	-51.6	-53.3	15.4	0.00e+00	0	22	0	676331520	69	4376
2026-01-13 03:56:15.37	337.06	26.42	-51.5	-53.2	15.5	0.00e+00	0	22	0	677380096	69	4313
2026-01-13 03:56:16.37	336.75	26.41	-51.5	-53.2	15.5	0.00e+00	0	22	0	679477248	69	4318
2026-01-13 03:56:17.36	336.45	26.40	-51.3	-53.0	15.6	0.00e+00	0	22	0	681574400	69	4225
2026-01-13 03:56:18.36	336.15	26.38	-51.3	-53.0	15.6	0.00e+00	0	22	0	683671552	69	4219
2026-01-13 03:56:19.37	335.84	26.37	-51.4	-53.2	15.5	0.00e+00	0	22	0	685768704	69	4298
2026-01-13 03:56:20.37	335.54	26.35	-51.3	-53.0	15.6	0.00e+00	0	22	0	686817280	69	4229
2026-01-13 03:56:21.37	335.24	26.34	-51.3	-52.9	15.6	0.00e+00	0	22	0	688914432	69	4188
2026-01-13 03:56:22.38	334.93	26.32	-51.0	-52.7	15.6	0.00e+00	0	22	0	691011584	68	4303
2026-01-13 03:56:23.38	334.63	26.30	-50.9	-52.6	15.6	0.00e+00	0	22	0	693108736	68	4250
2026-01-13 03:56:24.38	334.32	26.28	-51.0	-52.6	15.6	0.00e+00	0	22	0	694157312	68	4265
2026-01-13 03:56:25.38	334.02	26.26	-50.8	-52.4	15.7	0.00e+00	0	22	0	696254464	68	4155
2026-01-13 03:56:26.39	333.72	26.24	-50.8	-52.3	15.7	0.00e+00	0	22	0	698351616	68	4145
2026-01-13 03:56:27.39	333.42	26.22	-50.8	-52.4	15.7	0.00e+00	0	22	0	700448768	68	4153
2026-01-13 03:56:28.39	333.12	26.20	-50.7	-52.3	15.8	0.00e+00	0	22	0	702545920	68	4128
2026-01-13 03:56:29.39	332.81	26.18	-50.8	-52.4	15.7	0.00e+00	0	22	0	703594496	68	4149
2026-01-13 03:56:30.39	332.51	26.15	-50.5	-52.0	15.7	0.00e+00	0	22	0	705691648	67	4223
2026-01-13 03:56:31.38	332.22	26.13	-50.6	-52.2	15.6	0.00e+00	0	22	0	707788800	67	4303
2026-01-13 03:56:32.38	331.92	26.10	-50.7	-52.3	15.6	0.00e+00	0	22	0	709885952	67	4367
2026-01-13 03:56:33.39	331.62	26.07	-50.6	-52.2	15.6	0.00e+00	0	22	0	711983104	67	4332
2026-01-13 03:56:34.39	331.32	26.05	-50.6	-52.2	15.6	0.00e+00	0	22	0	713031680	67	4314
2026-01-13 03:56:35.39	331.02	26.02	-50.6	-52.2	15.6	0.00e+00	0	22	0	715128832	67	4329
2026-01-13 03:56:36.38	330.73	25.99	-50.6	-52.2	15.6	0.00e+00	0	22	0	717225984	67	4328
2026-01-13 03:56:37.38	330.43	25.96	-50.6	-52.2	15.6	0.00e+00	0	22	0	719323136	67	4301
2026-01-13 03:56:38.37	330.14	25.93	-50.6	-52.2	15.6	0.00e+00	0	22	0	721420288	67	4316
2026-01-13 03:56:39.37	329.84	25.90	-50.7	-52.4	15.5	0.00e+00	0	22	0	722468864	67	4398
2026-01-13 03:56:40.37	329.55	25.86	-50.9	-52.5	15.4	0.00e+00	0	22	0	724566016	67	4473
2026-01-13 03:56:41.37	329.26	25.83	-50.9	-52.6	15.4	0.00e+00	0	22	0	726663168	67	4514
2026-01-13 03:56:42.37	328.96	25.80	-51.0	-52.6	15.4	0.00e+00	0	22	0	728760320	67	4526
2026-01-13 03:56:43.36	328.67	25.76	-50.9	-52.6	15.4	0.00e+00	0	22	0	729808896	67	4520
2026-01-13 03:56:44.36	328.38	25.73	-50.9	-52.6	15.4	0.00e+00	0	22	0	731906048	67	4515
2026-01-13 03:56:45.35	328.09	25.69	-51.0	-52.6	15.3	0.00e+00	0	22	0	734003200	67	4540
2026-01-13 03:56:46.35	327.80	25.66	-51.1	-52.8	15.3	0.00e+00	0	22	0	736100352	67	4612
2026-01-13 03:56:47.35	327.51	25.62	-51.1	-52.8	15.3	0.00e+00	0	22	0	738197504	67	4626
2026-01-13 03:56:48.35	327.22	25.58	-51.1	-52.9	15.3	0.00e+00	0	22	0	739246080	67	4652
2026-01-13 03:56:49.35	326.93	25.54	-51.2	-52.9	15.2	0.00e+00	0	22	0	741343232	67	4672
2026-01-13 03:56:50.34	326.65	25.50	-51.1	-52.8	15.3	0.00e+00	0	22	0	743440384	67	4648
2026-01-13 03:56:51.35	326.36	25.46	-51.1	-52.8	15.3	0.00e+00	0	22	0	745537536	67	4599
2026-01-13 03:56:52.35	326.07	25.42	-51.2	-52.9	15.2	0.00e+00	0	22	0	746586112	67	4697
2026-01-13 03:56:53.35	325.79	25.38	-51.3	-53.0	15.2	0.00e+00	0	22	0	748683264	67	4755
2026-01-13 03:56:54.34	325.50	25.33	-51.6	-53.3	15.2	0.00e+00	0	22	0	750780416	68	4626
2026-01-13 03:56:55.34	325.22	25.29	-51.7	-53.4	15.1	0.00e+00	0	22	0	752877568	68	4704
2026-01-13 03:56:56.34	324.94	25.25	-51.8	-53.6	15.1	0.00e+00	0	22	0	754974720	68	4770
2026-01-13 03:56:57.33	324.66	25.20	-51.9	-53.7	15.0	0.00e+00	0	22	0	756023296	68	4837
2026-01-13 03:56:58.33	324.38	25.16	-52.0	-53.8	15.1	0.00e+00	0	22	0	758120448	69	4629
2026-01-13 03:56:59.33	324.09	25.11	-52.0	-53.9	15.1	0.00e+00	0	22	0	760217600	69	4664
2026-01-13 03:57:00.33	323.81	25.06	-52.0	-53.9	15.1	0.00e+00	0	22	0	762314752	69	4679
2026-01-13 03:57:01.33	323.54	25.01	-52.2	-54.1	15.0	0.00e+00	0	22	0	764411904	69	4771
2026-01-13 03:57:02.33	323.26	24.97	-52.2	-54.1	14.9	0.00e+00	0	22	0	765460480	69	4790
2026-01-13 03:57:03.33	322.98	24.92	-52.2	-54.1	15.0	0.00e+00	0	22	0	767557632	69	4784
2026-01-13 03:57:04.33	322.70	24.87	-52.2	-54.1	14.9	0.00e+00	0	22	0	769654784	69	4788
2026-01-13 03:57:05.33	322.43	24.82	-52.1	-54.0	15.0	0.00e+00	0	22	0	771751936	69	4757
2026-01-13 03:57:06.33	322.15	24.77	-52.2	-54.1	15.0	0.00e+00	0	22	0	772800512	69	4771
2026-01-13 03:57:07.33	321.88	24.72	-52.1	-54.1	15.0	0.00e+00	0	22	0	774897664	69	4768
2026-01-13 03:57:08.32	321.61	24.66	-52.2	-54.2	14.9	0.00e+00	0	22	0	776994816	69	4839
2026-01-13 03:57:09.32	321.34	24.61	-52.3	-54.3	14.8	0.00e+00	0	22	0	779091968	69	4883
2026-01-13 03:57:10.31	321.07	24.56	-52.4	-54.3	14.8	0.00e+00	0	22	0	781189120	69	4921
2026-01-13 03:57:11.31	320.80	24.50	-52.4	-54.3	14.8	0.00e+00	0	22	0	782237696	69	4916
2026-01-13 03:57:12.31	320.53	24.45	-52.5	-54.5	14.9	0.00e+00	0	22	0	784334848	70	4725
2026-01-13 03:57:13.32	320.26	24.39	-52.6	-54.7	14.8	0.00e+00	0	22	0	786432000	70	4823
2026-01-13 03:57:14.33	319.99	24.34	-52.7	-54.8	14.7	0.00e+00	0	22	0	788529152	70	4894
2026-01-13 03:57:15.32	319.72	24.28	-52.7	-54.8	14.7	0.00e+00	0	22	0	790626304	70	4903
2026-01-13 03:57:16.32	319.46	24.23	-52.6	-54.7	14.8	0.00e+00	0	22	0	791674880	70	4827
2026-01-13 03:57:17.32	319.19	24.17	-52.6	-54.6	14.8	0.00e+00	0	22	0	793772032	70	4809
2026-01-13 03:57:18.31	318.93	24.11	-52.4	-54.4	14.9	0.00e+00	0	22	0	795869184	70	4677
2026-01-13 03:57:19.31	318.67	24.05	-52.3	-54.3	15.0	0.00e+00	0	22	0	797966336	70	4611
2026-01-13 03:57:20.30	318.41	24.00	-52.4	-54.4	14.9	0.00e+00	0	22	0	799014912	70	4672
2026-01-13 03:57:21.30	318.15	23.94	-52.4	-54.4	14.9	0.00e+00	0	22	0	801112064	70	4687
2026-01-13 03:57:22.31	317.89	23.88	-52.4	-54.4	14.9	0.00e+00	0	22	0	803209216	70	4660
2026-01-13 03:57:23.31	317.63	23.82	-52.4	-54.4	14.9	0.00e+00	0	22	0	805306368	70	4685
2026-01-13 03:57:24.31	317.37	23.75	-52.5	-54.6	14.8	0.00e+00	0	22	0	807403520	70	4764
2026-01-13 03:57:25.31	317.11	23.69	-52.6	-54.7	14.7	0.00e+00	0	22	0	808452096	70	4839
2026-01-13 03:57:26.31	316.86	23.63	-52.7	-54.8	14.7	0.00e+00	0	22	0	810549248	70	4885
2026-01-13 03:57:27.32	316.60	23.57	-52.8	-54.9	14.6	0.00e+00	0	22	0	812646400	70	4942
2026-01-13 03:57:28.32	316.35	23.51	-52.8	-54.9	14.6	0.00e+00	0	22	0	814743552	70	4949
2026-01-13 03:57:29.32	316.09	23.44	-52.6	-54.6	14.8	0.00e+00	0	22	0	816840704	70	4804
2026-01-13 03:57:30.32	315.84	23.38	-52.5	-54.5	14.9	0.00e+00	0	22	0	817889280	70	4723
2026-01-13 03:57:31.31	315.59	23.32	-52.5	-54.5	14.9	0.00e+00	0	22	0	819986432	70	4706
2026-01-13 03:57:32.31	315.35	23.25	-52.3	-54.3	15.0	0.00e+00	0	22	0	822083584	70	4610
2026-01-13 03:57:33.31	315.10	23.19	-52.4	-54.4	14.9	0.00e+00	0	22	0	824180736	70	4676
2026-01-13 03:57:34.31	314.85	23.12	-52.3	-54.3	15.0	0.00e+00	0	22	0	825229312	70	4628
2026-01-13 03:57:35.31	314.60	23.06	-52.5	-54.5	14.9	0.00e+00	0	22	0	827326464	70	4717
2026-01-13 03:57:36.31	314.36	22.99	-52.4	-54.4	14.9	0.00e+00	0	22	0	829423616	70	4687
2026-01-13 03:57:37.31	314.11	22.92	-52.5	-54.5	14.9	0.00e+00	0	22	0	831520768	70	4732
2026-01-13 03:57:38.31	313.87	22.86	-52.5	-54.5	14.9	0.00e+00	0	22	0	833617920	70	4724
2026-01-13 03:57:39.31	313.63	22.79	-52.4	-54.4	14.9	0.00e+00	0	22	0	834666496	70	4691
2026-01-13 03:57:40.31	313.39	22.72	-52.3	-54.3	15.0	0.00e+00	0	22	0	836763648	70	4599
2026-01-13 03:57:41.31	313.15	22.65	-52.1	-54.0	15.2	0.00e+00	0	22	0	838860800	70	4458
2026-01-13 03:57:42.30	312.91	22.59	-51.9	-53.8	15.3	0.00e+00	0	22	0	840957952	70	4353
2026-01-13 03:57:43.30	312.67	22.52	-51.8	-53.6	15.4	0.00e+00	0	22	0	843055104	70	4290
2026-01-13 03:57:44.30	312.44	22.45	-51.7	-53.5	15.5	0.00e+00	0	22	0	844103680	70	4214
2026-01-13 03:57:45.30	312.20	22.38	-51.8	-53.6	15.4	0.00e+00	0	22	0	846200832	70	4244
2026-01-13 03:57:46.29	311.97	22.31	-51.8	-53.6	15.4	0.00e+00	0	22	0	848297984	70	4278
2026-01-13 03:57:47.29	311.73	22.24	-51.8	-53.6	15.3	0.00e+00	0	22	0	850395136	70	4277
2026-01-13 03:57:48.28	311.50	22.17	-51.7	-53.5	15.5	0.00e+00	0	22	0	851443712	70	4219
2026-01-13 03:57:49.28	311.27	22.10	-51.6	-53.4	15.3	0.00e+00	0	22	0	853540864	69	4393
2026-01-13 03:57:50.28	311.04	22.03	-51.5	-53.3	15.4	0.00e+00	0	22	0	855638016	69	4348
2026-01-13 03:57:51.28	310.81	21.96	-51.5	-53.2	15.4	0.00e+00	0	22	0	857735168	69	4324
2026-01-13 03:57:52.28	310.58	21.88	-51.5	-53.2	15.4	0.00e+00	0	22	0	859832320	69	4334
2026-01-13 03:57:53.27	310.36	21.81	-51.4	-53.2	15.5	0.00e+00	0	22	0	860880896	69	4292
2026-01-13 03:57:54.26	310.13	21.74	-51.4	-53.1	15.5	0.00e+00	0	22	0	862978048	69	4254
2026-01-13 03:57:55.25	309.91	21.67	-51.5	-53.2	15.4	0.00e+00	0	22	0	865075200	69	4325
2026-01-13 03:57:56.25	309.69	21.60	-51.4	-53.2	15.5	0.00e+00	0	22	0	867172352	69	4295
2026-01-13 03:57:57.25	309.46	21.52	-51.4	-53.2	15.5	0.00e+00	0	22	0	868220928	69	4298
2026-01-13 03:57:58.24	309.24	21.45	-51.4	-53.2	15.5	0.00e+00	0	22	0	870318080	69	4301
2026-01-13 03:57:59.25	309.02	21.38	-51.5	-53.2	15.4	0.00e+00	0	22	0	872415232	69	4321
2026-01-13 03:58:00.24	308.80	21.31	-51.5	-53.2	15.4	0.00e+00	0	22	0	874512384	69	4325
2026-01-13 03:58:01.24	308.58	21.23	-51.4	-53.2	15.5	0.00e+00	0	22	0	876609536	69	4292
2026-01-13 03:58:02.24	308.37	21.16	-51.4	-53.1	15.5	0.00e+00	0	22	0	877658112	69	4266
2026-01-13 03:58:03.24	308.15	21.08	-51.4	-53.1	15.5	0.00e+00	0	22	0	879755264	69	4291
2026-01-13 03:58:04.24	307.93	21.01	-51.4	-53.2	15.5	0.00e+00	0	22	0	881852416	69	4294
2026-01-13 03:58:05.24	307.72	20.93	-51.6	-53.3	15.4	0.00e+00	0	22	0	883949568	69	4370
2026-01-13 03:58:06.24	307.50	20.86	-51.6	-53.4	15.3	0.00e+00	0	22	0	886046720	69	4407
2026-01-13 03:58:07.24	307.29	20.78	-51.6	-53.3	15.3	0.00e+00	0	22	0	887095296	69	4388
2026-01-13 03:58:08.23	307.08	20.71	-51.5	-53.3	15.4	0.00e+00	0	22	0	889192448	69	4356
2026-01-13 03:58:09.23	306.87	20.63	-51.5	-53.3	15.4	0.00e+00	0	22	0	891289600	69	4342
2026-01-13 03:58:10.23	306.66	20.56	-51.4	-53.1	15.5	0.00e+00	0	22	0	893386752	69	4275
2026-01-13 03:58:11.23	306.45	20.48	-51.4	-53.1	15.5	0.00e+00	0	22	0	895483904	69	4273
2026-01-13 03:58:12.23	306.25	20.41	-51.4	-53.1	15.5	0.00e+00	0	22	0	896532480	69	4267
2026-01-13 03:58:13.24	306.04	20.33	-51.4	-53.1	15.5	0.00e+00	0	22	0	898629632	69	4249
2026-01-13 03:58:14.24	305.83	20.25	-51.2	-52.9	15.6	0.00e+00	0	22	0	900726784	69	4164
2026-01-13 03:58:15.24	305.63	20.18	-51.2	-52.9	15.6	0.00e+00	0	22	0	902823936	69	4180
2026-01-13 03:58:16.23	305.43	20.10	-51.2	-52.9	15.6	0.00e+00	0	22	0	903872512	69	4167
2026-01-13 03:58:17.23	305.23	20.02	-51.1	-52.7	15.5	0.00e+00	0	22	0	905969664	68	4320
2026-01-13 03:58:18.23	305.02	19.95	-51.1	-52.8	15.5	0.00e+00	0	22	0	908066816	68	4359
2026-01-13 03:58:19.23	304.82	19.87	-51.0	-52.7	15.5	0.00e+00	0	22	0	910163968	68	4315
2026-01-13 03:58:20.23	304.63	19.79	-51.1	-52.8	15.5	0.00e+00	0	22	0	912261120	68	4352
2026-01-13 03:58:21.23	304.43	19.71	-51.1	-52.8	15.5	0.00e+00	0	22	0	913309696	68	4353
2026-01-13 03:58:22.24	304.23	19.64	-51.0	-52.6	15.6	0.00e+00	0	22	0	915406848	68	4265
2026-01-13 03:58:23.24	304.03	19.56	-51.0	-52.7	15.6	0.00e+00	0	22	0	917504000	68	4294
2026-01-13 03:58:24.24	303.84	19.48	-51.0	-52.7	15.6	0.00e+00	0	22	0	919601152	68	4294
2026-01-13 03:58:25.24	303.64	19.40	-50.9	-52.5	15.7	0.00e+00	0	22	0	921698304	68	4206
2026-01-13 03:58:26.23	303.45	19.33	-50.9	-52.5	15.6	0.00e+00	0	22	0	922746880	68	4202
2026-01-13 03:58:27.22	303.26	19.25	-50.8	-52.4	15.7	0.00e+00	0	22	0	924844032	68	4193
2026-01-13 03:58:28.22	303.07	19.17	-50.8	-52.3	15.7	0.00e+00	0	22	0	926941184	68	4145
2026-01-13 03:58:29.22	302.88	19.09	-50.7	-52.3	15.8	0.00e+00	0	22	0	929038336	68	4132
2026-01-13 03:58:30.22	302.69	19.01	-50.8	-52.4	15.7	0.00e+00	0	22	0	931135488	68	4171
2026-01-13 03:58:31.23	302.50	18.93	-50.7	-52.3	15.8	0.00e+00	0	22	0	932184064	68	4112
2026-01-13 03:58:32.23	302.31	18.86	-50.4	-52.0	15.7	0.00e+00	0	22	0	934281216	67	4222
2026-01-13 03:58:33.22	302.13	18.78	-50.4	-52.0	15.7	0.00e+00	0	22	0	936378368	67	4197
2026-01-13 03:58:34.23	301.94	18.70	-50.5	-52.1	15.6	0.00e+00	0	22	0	938475520	67	4262
2026-01-13 03:58:35.23	301.76	18.62	-50.6	-52.2	15.6	0.00e+00	0	22	0	939524096	67	4317
2026-01-13 03:58:36.23	301.57	18.54	-50.5	-52.1	15.6	0.00e+00	0	22	0	941621248	67	4263
2026-01-13 03:58:37.22	301.39	18.46	-50.4	-52.0	15.7	0.00e+00	0	22	0	943718400	67	4210
2026-01-13 03:58:38.23	301.21	18.38	-50.5	-52.1	15.6	0.00e+00	0	22	0	945815552	67	4267
2026-01-13 03:58:39.23	301.03	18.31	-50.4	-52.0	15.7	0.00e+00	0	22	0	947912704	67	4202
2026-01-13 03:58:40.22	300.85	18.23	-50.4	-51.9	15.7	0.00e+00	0	22	0	948961280	67	4189
2026-01-13 03:58:41.22	300.67	18.15	-50.4	-51.9	15.7	0.00e+00	0	22	0	951058432	67	4186
2026-01-13 03:58:42.21	300.50	18.07	-50.3	-51.9	15.7	0.00e+00	0	22	0	953155584	67	4163
2026-01-13 03:58:43.20	300.32	17.99	-50.4	-51.9	15.7	0.00e+00	0	22	0	955252736	67	4178
2026-01-13 03:58:44.20	300.15	17.91	-50.3	-51.9	15.8	0.00e+00	0	22	0	956301312	67	4154
2026-01-13 03:58:45.20	299.97	17.83	-50.4	-51.9	15.7	0.00e+00	0	22	0	958398464	67	4186
2026-01-13 03:58:46.20	299.80	17.75	-50.4	-51.9	15.7	0.00e+00	0	22	0	960495616	67	4193
2026-01-13 03:58:47.20	299.63	17.68	-50.5	-52.0	15.7	0.00e+00	0	22	0	962592768	67	4231
2026-01-13 03:58:48.20	299.45	17.60	-50.5	-52.1	15.6	0.00e+00	0	22	0	964689920	67	4246
2026-01-13 03:58:49.19	299.28	17.52	-50.5	-52.1	15.6	0.00e+00	0	22	0	965738496	67	4253
2026-01-13 03:58:50.17	299.12	17.44	-50.6	-52.2	15.6	0.00e+00	0	22	0	967835648	67	4311
2026-01-13 03:58:51.17	298.95	17.36	-50.5	-52.1	15.6	0.00e+00	0	22	0	969932800	67	4279
2026-01-13 03:58:52.16	298.78	17.28	-50.6	-52.2	15.6	0.00e+00	0	22	0	972029952	67	4294
2026-01-13 03:58:53.15	298.61	17.20	-50.5	-52.0	15.7	0.00e+00	0	22	0	973078528	67	4241
2026-01-13 03:58:54.15	298.45	17.13	-50.5	-52.1	15.6	0.00e+00	0	22	0	975175680	67	4281
2026-01-13 03:58:55.15	298.28	17.05	-50.6	-52.2	15.6	0.00e+00	0	22	0	977272832	67	4297
2026-01-13 03:58:56.14	298.12	16.97	-50.6	-52.2	15.6	0.00e+00	0	22	0	979369984	67	4334
2026-01-13 03:58:57.14	297.95	16.89	-50.6	-52.2	15.6	0.00e+00	0	22	0	981467136	67	4321
2026-01-13 03:58:58.14	297.79	16.81	-50.7	-52.3	15.5	0.00e+00	0	22	0	982515712	67	4381
2026-01-13 03:58:59.13	297.63	16.73	-50.8	-52.4	15.5	0.00e+00	0	22	0	984612864	67	4412
2026-01-13 03:59:00.14	297.47	16.65	-50.6	-52.3	15.6	0.00e+00	0	22	0	986710016	67	4342
2026-01-13 03:59:01.13	297.31	16.57	-50.7	-52.3	15.5	0.00e+00	0	22	0	988807168	67	4374
2026-01-13 03:59:02.14	297.15	16.49	-50.6	-52.2	15.6	0.00e+00	0	22	0	990904320	67	4304
2026-01-13 03:59:03.14	296.99	16.41	-50.7	-52.3	15.5	0.00e+00	0	22	0	991952896	67	4358
2026-01-13 03:59:04.15	296.83	16.34	-50.7	-52.3	15.5	0.00e+00	0	22	0	994050048	67	4373
2026-01-13 03:59:05.15	296.67	16.26	-50.8	-52.4	15.5	0.00e+00	0	22	0	996147200	67	4419
2026-01-13 03:59:06.15	296.51	16.18	-50.9	-52.6	15.3	0.00e+00	0	22	0	998244352	67	4525
2026-01-13 03:59:07.15	296.36	16.10	-51.0	-52.7	15.3	0.00e+00	0	22	0	999292928	67	4590
2026-01-13 03:59:08.15	296.20	16.02	-51.1	-52.8	15.2	0.00e+00	0	22	0	1001390080	67	4637
2026-01-13 03:59:09.15	296.05	15.94	-51.2	-53.0	15.1	0.00e+00	0	22	0	1003487232	67	4718
2026-01-13 03:59:10.16	295.90	15.86	-51.3	-53.1	15.1	0.00e+00	0	22	0	1005584384	67	4804
2026-01-13 03:59:11.16	295.74	15.78	-51.4	-53.2	15.0	0.00e+00	0	22	0	1007681536	67	4827
2026-01-13 03:59:12.17	295.59	15.70	-51.4	-53.2	15.0	0.00e+00	0	22	0	1009778688	67	4825
2026-01-13 03:59:13.17	295.44	15.62	-51.4	-53.2	15.1	0.00e+00	0	22	0	1010827264	67	4820
2026-01-13 03:59:14.17	295.29	15.55	-51.7	-53.5	15.1	0.00e+00	0	22	0	1012924416	68	4722
2026-01-13 03:59:15.18	295.14	15.47	-51.6	-53.5	15.1	0.00e+00	0	22	0	1015021568	68	4725
2026-01-13 03:59:16.17	294.99	15.39	-51.7	-53.6	15.0	0.00e+00	0	22	0	1017118720	68	4772
2026-01-13 03:59:17.17	294.85	15.31	-51.7	-53.5	15.0	0.00e+00	0	22	0	1018167296	68	4753
2026-01-13 03:59:18.17	294.70	15.23	-51.7	-53.5	15.1	0.00e+00	0	22	0	1020264448	68	4756
2026-01-13 03:59:19.17	294.55	15.15	-51.7	-53.5	15.0	0.00e+00	0	22	0	1022361600	68	4736
2026-01-13 03:59:20.17	294.41	15.08	-51.6	-53.4	15.1	0.00e+00	0	22	0	1024458752	68	4705
2026-01-13 03:59:21.16	294.27	15.00	-51.7	-53.6	15.0	0.00e+00	0	22	0	1026555904	68	4777
2026-01-13 03:59:22.16	294.12	14.92	-51.6	-53.4	15.1	0.00e+00	0	22	0	1027604480	68	4692
2026-01-13 03:59:23.16	293.98	14.84	-51.6	-53.5	15.1	0.00e+00	0	22	0	1029701632	68	4706
2026-01-13 03:59:24.16	293.84	14.76	-51.7	-53.5	15.0	0.00e+00	0	22	0	1031798784	68	4742
2026-01-13 03:59:25.15	293.70	14.69	-51.8	-53.7	14.9	0.00e+00	0	22	0	1033895936	68	4839
2026-01-13 03:59:26.16	293.55	14.61	-51.8	-53.7	14.9	0.00e+00	0	22	0	1034944512	68	4851
2026-01-13 03:59:27.16	293.42	14.53	-51.9	-53.8	14.9	0.00e+00	0	22	0	1037041664	68	4886
2026-01-13 03:59:28.16	293.28	14.45	-51.9	-53.8	15.1	0.00e+00	0	22	0	1039138816	69	4637
2026-01-13 03:59:29.15	293.14	14.38	-51.9	-53.8	15.1	0.00e+00	0	22	0	1041235968	69	4622
2026-01-13 03:59:30.15	293.00	14.30	-51.9	-53.8	15.1	0.00e+00	0	22	0	1043333120	69	4607
2026-01-13 03:59:31.14	292.87	14.22	-52.0	-53.9	15.0	0.00e+00	0	22	0	1044381696	69	4679
2026-01-13 03:59:32.15	292.73	14.14	-52.0	-54.0	14.9	0.00e+00	0	22	0	1046478848	69	4722
2026-01-13 03:59:33.15	292.59	14.07	-52.2	-54.1	14.9	0.00e+00	0	22	0	1048576000	69	4797
2026-01-13 03:59:34.16	292.46	13.99	-52.0	-53.9	15.0	0.00e+00	0	22	0	1050673152	69	4678
2026-01-13 03:59:35.15	292.32	13.91	-52.0	-54.0	15.0	0.00e+00	0	22	0	1052770304	69	4712
2026-01-13 03:59:36.14	292.19	13.84	-52.1	-54.0	14.9	0.00e+00	0	22	0	1053818880	69	4751
2026-01-13 03:59:37.14	292.06	13.76	-52.1	-54.1	14.9	0.00e+00	0	22	0	1055916032	69	4765
2026-01-13 03:59:38.14	291.93	13.68	-52.2	-54.1	14.9	0.00e+00	0	22	0	1058013184	69	4804
2026-01-13 03:59:39.13	291.80	13.61	-52.2	-54.2	14.8	0.00e+00	0	22	0	1060110336	69	4821
2026-01-13 03:59:40.13	291.67	13.53	-52.2	-54.1	14.9	0.00e+00	0	22	0	1061158912	69	4808
2026-01-13 03:59:41.14	291.54	13.45	-52.2	-54.3	14.8	0.00e+00	0	22	0	1063256064	69	4874
2026-01-13 03:59:42.12	291.41	13.38	-52.2	-54.2	14.8	0.00e+00	0	22	0	1065353216	69	4861
2026-01-13 03:59:43.13	291.28	13.30	-52.3	-54.4	14.7	0.00e+00	0	22	0	1067450368	69	4931
2026-01-13 03:59:44.13	291.15	13.23	-52.3	-54.4	14.7	0.00e+00	0	22	0	1069547520	69	4943
2026-01-13 03:59:45.12	291.03	13.15	-52.4	-54.5	14.6	0.00e+00	0	22	0	1070596096	69	5006
2026-01-13 03:59:46.11	290.90	13.07	-52.5	-54.6	14.7	0.00e+00	0	22	0	1072693248	70	4792
2026-01-13 03:59:47.11	290.78	13.00	-52.5	-54.6	14.7	0.00e+00	0	22	0	1074790400	70	4802
2026-01-13 03:59:48.11	290.65	12.92	-52.5	-54.6	14.7	0.00e+00	0	22	0	1076887552	70	4801
2026-01-13 03:59:49.10	290.53	12.85	-52.5	-54.6	14.7	0.00e+00	0	22	0	1077936128	70	4800
2026-01-13 03:59:50.10	290.40	12.77	-52.4	-54.5	14.8	0.00e+00	0	22	0	1080033280	70	4718
2026-01-13 03:59:51.09	290.28	12.70	-52.5	-54.5	14.8	0.00e+00	0	22	0	1082130432	70	4743
2026-01-13 03:59:52.09	290.16	12.62	-52.5	-54.6	14.7	0.00e+00	0	22	0	1084227584	70	4776
2026-01-13 03:59:53.09	290.04	12.55	-52.4	-54.4	14.8	0.00e+00	0	22	0	1086324736	70	4697
2026-01-13 03:59:54.08	289.92	12.47	-52.4	-54.5	14.8	0.00e+00	0	22	0	1087373312	70	4722
2026-01-13 03:59:55.08	289.80	12.40	-52.4	-54.4	14.8	0.00e+00	0	22	0	1089470464	70	4701
2026-01-13 03:59:56.08	289.68	12.32	-52.4	-54.5	14.8	0.00e+00	0	22	0	1091567616	70	4735
2026-01-13 03:59:57.08	289.56	12.25	-52.5	-54.6	14.7	0.00e+00	0	22	0	1093664768	70	4813
2026-01-13 03:59:58.07	289.44	12.17	-52.6	-54.7	14.7	0.00e+00	0	22	0	1095761920	70	4826
2026-01-13 03:59:59.07	289.32	12.10	-52.6	-54.8	14.6	0.00e+00	0	22	0	1096810496	70	4880
2026-01-13 04:00:00.07	289.20	12.02	-52.6	-54.8	14.6	0.00e+00	0	22	0	1098907648	70	4871
2026-01-13 04:00:01.07	289.09	11.95	-52.7	-54.8	14.6	0.00e+00	0	22	0	1101004800	70	4904
2026-01-13 04:00:02.07	288.97	11.87	-52.7	-54.9	14.5	0.00e+00	0	22	0	1103101952	70	4946
2026-01-13 04:00:03.06	288.86	11.80	-52.8	-55.0	14.5	0.00e+00	0	22	0	1104150528	70	5022
2026-01-13 04:00:04.06	288.74	11.73	-52.7	-54.9	14.5	0.00e+00	0	22	0	1106247680	70	4957
2026-01-13 04:00:05.06	288.63	11.65	-52.7	-54.9	14.5	0.00e+00	0	22	0	1108344832	70	4982
2026-01-13 04:00:06.07	288.51	11.58	-52.8	-55.0	14.5	0.00e+00	0	22	0	1110441984	70	5015
2026-01-13 04:00:07.06	288.40	11.50	-52.8	-55.0	14.5	0.00e+00	0	22	0	1112539136	70	4990
2026-01-13 04:00:08.06	288.29	11.43	-52.8	-55.1	14.4	0.00e+00	0	22	0	1113587712	70	5050
2026-01-13 04:00:09.05	288.18	11.36	-53.0	-55.3	14.4	0.00e+00	0	22	0	1115684864	71	4882
2026-01-13 04:00:10.06	288.06	11.28	-53.1	-55.4	14.4	0.00e+00	0	22	0	1117782016	71	4942
2026-01-13 04:00:11.07	287.95	11.21	-53.0	-55.4	14.4	0.00e+00	0	22	0	1119879168	71	4938
2026-01-13 04:00:12.06	287.84	11.14	-53.1	-55.5	14.3	0.00e+00	0	22	0	1121976320	71	5026
2026-01-13 04:00:13.06	287.73	11.06	-53.2	-55.6	14.2	0.00e+00	0	22	0	1123024896	71	5069
2026-01-13 04:00:14.05	287.62	10.99	-53.3	-55.8	14.1	0.00e+00	0	22	0	1125122048	71	5185
2026-01-13 04:00:15.05	287.51	10.92	-53.3	-55.8	14.1	0.00e+00	0	22	0	1127219200	71	5160
2026-01-13 04:00:16.04	287.41	10.85	-53.3	-55.8	14.1	0.00e+00	0	22	0	1129316352	71	5171
2026-01-13 04:00:17.03	287.30	10.77	-53.3	-55.8	14.1	0.00e+00	0	22	0	1130364928	71	5183
2026-01-13 04:00:18.03	287.19	10.70	-53.4	-55.9	14.1	0.00e+00	0	22	0	1132462080	71	5242
2026-01-13 04:00:19.02	287.09	10.63	-53.4	-55.9	14.0	0.00e+00	0	22	0	1134559232	71	5248
2026-01-13 04:00:20.02	286.98	10.56	-53.4	-55.9	14.0	0.00e+00	0	22	0	1136656384	71	5254
2026-01-13 04:00:21.01	286.88	10.49	-53.4	-56.0	14.0	0.00e+00	0	22	0	1138753536	71	5294
2026-01-13 04:00:22.01	286.77	10.41	-53.4	-55.9	14.2	0.00e+00	0	22	0	1139802112	72	4947
2026-01-13 04:00:23.01	286.67	10.34	-53.4	-55.9	14.2	0.00e+00	0	22	0	1141899264	72	4969
2026-01-13 04:00:24.01	286.56	10.27	-53.4	-55.9	14.2	0.00e+00	0	22	0	1143996416	72	4963
2026-01-13 04:00:25.00	286.46	10.20	-53.5	-56.1	14.0	0.00e+00	0	22	0	1146093568	72	5074
2026-01-13 04:00:25.99	286.36	10.13	-53.5	-56.0	14.1	0.00e+00	0	22	0	1147142144	72	5033
2026-01-13 04:00:26.99	286.26	10.06	-53.5	-56.0	14.1	0.00e+00	0	22	0	1149239296	72	5030
2026-01-13 04:00:27.99	286.16	9.98	-53.5	-56.1	14.0	0.00e+00	0	22	0	1151336448	72	5090
2026-01-13 04:00:28.99	286.05	9.91	-53.6	-56.2	14.0	0.00e+00	0	22	0	1153433600	72	5105
2026-01-13 04:00:29.99	285.95	9.84	-53.5	-56.1	14.0	0.00e+00	0	22	0	1155530752	72	5073
2026-01-13 04:00:31.00	285.85	9.77	-53.4	-56.0	14.1	0.00e+00	0	22	0	1156579328	72	5002
2026-01-13 04:00:31.99	285.75	9.70	-53.5	-56.0	14.0	0.00e+00	0	22	0	1158676480	72	5035
2026-01-13 04:00:32.99	285.65	9.63	-53.5	-56.1	14.0	0.00e+00	0	22	0	1160773632	72	5074
2026-01-13 04:00:34.00	285.55	9.56	-53.5	-56.1	14.0	0.00e+00	0	22	0	1162870784	72	5069
2026-01-13 04:00:35.00	285.46	9.49	-53.4	-56.0	14.1	0.00e+00	0	22	0	1164967936	72	4995
2026-01-13 04:00:36.00	285.36	9.42	-53.4	-56.0	14.1	0.00e+00	0	22	0	1166016512	72	5002
2026-01-13 04:00:37.00	285.26	9.35	-53.3	-55.8	14.2	0.00e+00	0	22	0	1168113664	72	4890
2026-01-13 04:00:37.99	285.16	9.28	-53.4	-55.9	14.1	0.00e+00	0	22	0	1170210816	72	4971
2026-01-13 04:00:38.99	285.07	9.21	-53.4	-55.9	14.2	0.00e+00	0	22	0	1172307968	72	4936
2026-01-13 04:00:39.99	284.97	9.14	-53.4	-55.9	14.1	0.00e+00	0	22	0	1174405120	72	4955
2026-01-13 04:00:40.98	284.88	9.07	-53.4	-56.0	14.0	0.00e+00	0	22	0	1175453696	72	5014
2026-01-13 04:00:41.98	284.78	9.00	-53.5	-56.1	14.0	0.00e+00	0	22	0	1177550848	72	5064
2026-01-13 04:00:42.98	284.69	8.93	-53.5	-56.2	13.9	0.00e+00	0	22	0	1179648000	72	5106
2026-01-13 04:00:43.98	284.59	8.86	-53.6	-56.2	13.9	0.00e+00	0	22	0	1181745152	72	5126
2026-01-13 04:00:44.99	284.50	8.79	-53.6	-56.3	13.8	0.00e+00	0	22	0	1182793728	72	5211
2026-01-13 04:00:45.98	284.41	8.72	-53.6	-56.2	13.9	0.00e+00	0	22	0	1184890880	72	5137
2026-01-13 04:00:46.98	284.31	8.65	-53.7	-56.4	13.8	0.00e+00	0	22	0	1186988032	72	5224
2026-01-13 04:00:47.98	284.22	8.58	-53.8	-56.5	13.7	0.00e+00	0	22	0	1189085184	72	5340
2026-01-13 04:00:48.98	284.13	8.51	-53.8	-56.6	13.6	0.00e+00	0	22	0	1191182336	72	5390
2026-01-13 04:00:49.98	284.04	8.44	-54.0	-56.9	13.6	0.00e+00	0	22	0	1192230912	73	5231
2026-01-13 04:00:50.96	283.95	8.38	-53.9	-56.8	13.5	0.00e+00	0	22	0	1194328064	73	5183
2026-01-13 04:00:51.96	283.86	8.31	-53.9	-56.8	13.6	0.00e+00	0	22	0	1196425216	73	5185
2026-01-13 04:00:52.96	283.77	8.24	-54.0	-56.9	13.5	0.00e+00	0	22	0	1198522368	73	5276
2026-01-13 04:00:53.95	283.68	8.17	-53.9	-56.7	13.7	0.00e+00	0	22	0	1199570944	73	5126
2026-01-13 04:00:54.95	283.59	8.10	-53.9	-56.7	13.7	0.00e+00	0	22	0	1201668096	73	5131
2026-01-13 04:00:55.95	283.50	8.03	-53.9	-56.7	13.7	0.00e+00	0	22	0	1203765248	73	5126
2026-01-13 04:00:56.95	283.41	7.97	-54.0	-56.9	13.6	0.00e+00	0	22	0	1205862400	73	5226
2026-01-13 04:00:57.95	283.33	7.90	-54.0	-57.0	13.5	0.00e+00	0	22	0	1207959552	73	5293
2026-01-13 04:00:58.94	283.24	7.83	-54.0	-56.9	13.5	0.00e+00	0	22	0	1209008128	73	5255
2026-01-13 04:00:59.93	283.15	7.76	-54.1	-57.0	13.4	0.00e+00	0	22	0	1211105280	73	5337
2026-01-13 04:01:00.93	283.07	7.70	-54.1	-57.1	13.4	0.00e+00	0	22	0	1213202432	73	5356
2026-01-13 04:01:01.93	282.98	7.63	-54.1	-57.1	13.4	0.00e+00	0	22	0	1215299584	73	5351
2026-01-13 04:01:02.92	282.90	7.56	-54.1	-57.2	13.3	0.00e+00	0	22	0	1217396736	73	5418
2026-01-13 04:01:03.91	282.81	7.49	-54.2	-57.3	13.2	0.00e+00	0	22	0	1218445312	73	5480
