passes_logs/2026/01/13/R3.2S_Murmansk/R3.2S_Murmansk__20260113_002647_KANOPUS-V_5_rec.log

#Pass ID: 20260113_002647_KANOPUS-V 5
#Satellite: KANOPUS-V 5
#Configuration: KANOPUS-V_8320
#almurnet v.1.7.20251203
#Start time: 2026-01-13 00:26:49

#Version: 2.2.20231116
#Station: R3.2S_Murmansk
#Location: 33.079688 lon 68.888172 lat
#TLE: 1 43876U 18111A   26012.28056898  .00003514  00000+0  15053-3 0  9996
#TLE: 2 43876  97.3682 280.8443 0001794  87.9048 272.2394 15.23425790391056

#Time	Az	El	Level	Level2	SNR	BER	BlckErr	Temp	State	Recorded	gain1	gain2
2026-01-13 00:26:49.53	24.67	2.11	-58.3	-68.0	3.8	7.45e-01	0	21	0	0	81	10614
2026-01-13 00:26:50.52	24.59	2.17	-58.3	-68.0	3.8	7.47e-01	0	21	104	0	81	10627
2026-01-13 00:26:51.50	24.50	2.23	-58.3	-68.0	3.8	7.46e-01	0	21	104	0	81	10598
2026-01-13 00:26:52.50	24.42	2.29	-58.3	-68.0	3.8	7.47e-01	0	21	104	0	81	10591
2026-01-13 00:26:53.49	24.33	2.36	-58.3	-68.0	3.8	7.46e-01	0	21	104	0	81	10632
2026-01-13 00:26:54.48	24.25	2.42	-58.3	-68.0	3.8	7.46e-01	0	21	104	0	81	10596
2026-01-13 00:26:55.48	24.16	2.48	-58.3	-68.0	3.8	7.46e-01	0	21	104	0	81	10620
2026-01-13 00:26:56.47	24.08	2.55	-58.3	-68.0	3.8	7.46e-01	0	21	104	0	81	10631
2026-01-13 00:26:57.46	23.99	2.61	-58.3	-68.1	3.8	7.45e-01	0	21	104	0	81	10658
2026-01-13 00:26:58.44	23.90	2.67	-58.3	-68.0	3.8	7.45e-01	0	21	104	0	81	10579
2026-01-13 00:26:59.42	23.81	2.73	-58.3	-68.0	3.8	7.47e-01	0	21	104	0	81	10609
2026-01-13 00:27:00.41	23.73	2.80	-58.3	-68.0	3.8	7.46e-01	0	21	104	0	81	10598
2026-01-13 00:27:01.40	23.64	2.86	-58.3	-68.0	3.8	7.45e-01	0	21	104	0	81	10601
2026-01-13 00:27:02.38	23.55	2.92	-58.3	-68.0	3.8	7.46e-01	0	21	104	0	81	10612
2026-01-13 00:27:03.37	23.46	2.99	-58.3	-68.0	3.8	7.46e-01	0	21	104	0	81	10600
2026-01-13 00:27:04.36	23.37	3.05	-58.3	-68.0	3.8	7.46e-01	0	21	104	0	81	10601
2026-01-13 00:27:05.35	23.28	3.11	-58.3	-68.0	3.8	7.45e-01	0	21	104	0	81	10573
2026-01-13 00:27:06.34	23.19	3.18	-58.3	-68.0	3.8	7.46e-01	0	21	104	0	81	10587
2026-01-13 00:27:07.33	23.09	3.24	-58.3	-68.0	3.8	7.45e-01	0	21	104	0	81	10606
2026-01-13 00:27:08.33	23.00	3.31	-58.3	-68.0	3.8	7.47e-01	0	21	104	0	81	10623
2026-01-13 00:27:09.33	22.91	3.37	-58.3	-68.1	3.8	7.46e-01	0	21	104	0	81	10657
2026-01-13 00:27:10.34	22.81	3.44	-58.3	-68.0	3.8	7.45e-01	0	21	104	0	81	10637
2026-01-13 00:27:11.34	22.71	3.50	-58.3	-68.0	3.8	7.43e-01	0	21	104	0	81	10617
2026-01-13 00:27:12.35	22.62	3.57	-58.3	-68.0	3.8	7.46e-01	0	21	104	0	81	10599
2026-01-13 00:27:13.35	22.52	3.64	-58.3	-68.0	3.8	7.45e-01	0	21	104	0	81	10630
2026-01-13 00:27:14.35	22.42	3.70	-58.3	-68.0	3.8	7.45e-01	0	22	104	0	81	10630
2026-01-13 00:27:15.36	22.33	3.77	-58.4	-68.0	3.8	7.46e-01	0	22	104	0	81	10624
2026-01-13 00:27:16.36	22.23	3.84	-58.4	-68.0	3.8	7.45e-01	0	21	104	0	81	10650
2026-01-13 00:27:17.36	22.13	3.90	-58.3	-68.0	3.8	7.47e-01	0	21	104	0	81	10633
2026-01-13 00:27:18.36	22.03	3.97	-58.4	-68.1	3.8	7.45e-01	0	22	104	0	81	10669
2026-01-13 00:27:19.36	21.93	4.03	-58.4	-68.0	3.8	7.46e-01	0	22	104	0	81	10608
2026-01-13 00:27:20.36	21.83	4.10	-58.3	-68.0	3.8	7.45e-01	0	21	104	0	81	10648
2026-01-13 00:27:21.37	21.73	4.17	-58.3	-68.0	3.8	7.46e-01	0	22	104	0	81	10607
2026-01-13 00:27:22.37	21.62	4.24	-58.4	-68.0	3.8	7.45e-01	0	22	104	0	81	10601
2026-01-13 00:27:23.38	21.52	4.30	-58.4	-68.0	3.8	7.46e-01	0	21	104	0	81	10651
2026-01-13 00:27:24.39	21.42	4.37	-58.3	-68.0	3.8	7.46e-01	0	22	104	0	81	10601
2026-01-13 00:27:25.39	21.31	4.44	-58.4	-68.0	3.8	7.46e-01	0	22	104	0	81	10640
2026-01-13 00:27:26.39	21.21	4.51	-58.4	-68.0	3.8	7.46e-01	0	22	104	0	81	10617
2026-01-13 00:27:27.39	21.10	4.58	-58.4	-68.1	3.8	7.44e-01	0	21	104	0	81	10671
2026-01-13 00:27:28.39	21.00	4.64	-58.4	-68.0	3.8	7.45e-01	0	22	104	0	81	10635
2026-01-13 00:27:29.40	20.89	4.71	-58.4	-68.1	3.8	7.47e-01	0	22	104	0	81	10657
2026-01-13 00:27:30.40	20.78	4.78	-58.4	-68.0	3.8	7.47e-01	0	21	104	0	81	10614
2026-01-13 00:27:31.40	20.68	4.85	-58.4	-68.0	3.8	7.45e-01	0	22	104	0	81	10630
2026-01-13 00:27:32.40	20.57	4.92	-58.3	-68.0	3.8	7.44e-01	0	22	104	0	81	10654
2026-01-13 00:27:33.40	20.46	4.99	-58.4	-68.0	3.8	7.46e-01	0	22	104	0	81	10634
2026-01-13 00:27:34.40	20.35	5.06	-58.4	-68.1	3.8	7.46e-01	0	22	104	0	81	10710
2026-01-13 00:27:35.39	20.24	5.12	-58.5	-68.1	3.8	7.44e-01	0	22	104	0	81	10745
2026-01-13 00:27:36.39	20.13	5.19	-58.4	-68.1	3.8	7.46e-01	0	22	104	0	81	10673
2026-01-13 00:27:37.39	20.02	5.26	-58.4	-68.1	3.8	7.48e-01	0	22	104	0	81	10723
2026-01-13 00:27:38.39	19.90	5.33	-58.4	-68.1	3.8	7.46e-01	0	22	104	0	81	10729
2026-01-13 00:27:39.40	19.79	5.40	-58.3	-68.0	3.8	7.45e-01	0	22	104	0	81	10647
2026-01-13 00:27:40.39	19.68	5.47	-58.4	-68.1	3.8	7.47e-01	0	22	104	0	81	10708
2026-01-13 00:27:41.40	19.56	5.54	-58.4	-68.1	3.8	7.46e-01	0	22	104	0	81	10683
2026-01-13 00:27:42.40	19.45	5.61	-58.5	-68.2	3.8	7.46e-01	0	22	104	0	81	10790
2026-01-13 00:27:43.40	19.33	5.68	-58.4	-68.1	3.8	7.46e-01	0	22	104	0	81	10666
2026-01-13 00:27:44.41	19.21	5.75	-58.5	-68.1	3.8	7.44e-01	0	22	104	0	81	10766
2026-01-13 00:27:45.41	19.10	5.83	-58.5	-68.1	3.8	7.45e-01	0	22	104	0	81	10731
2026-01-13 00:27:46.41	18.98	5.90	-58.5	-68.2	3.8	7.45e-01	0	22	104	0	81	10837
2026-01-13 00:27:47.40	18.86	5.97	-58.4	-68.1	3.8	7.47e-01	0	22	104	0	81	10750
2026-01-13 00:27:48.40	18.74	6.04	-58.5	-68.2	3.8	7.45e-01	0	22	104	0	81	10830
2026-01-13 00:27:49.40	18.62	6.11	-58.5	-68.2	3.8	7.45e-01	0	22	104	0	81	10801
2026-01-13 00:27:50.40	18.50	6.18	-58.5	-68.2	3.8	7.44e-01	0	22	104	0	81	10836
2026-01-13 00:27:51.40	18.38	6.25	-58.5	-68.1	3.8	7.44e-01	0	22	104	0	81	10756
2026-01-13 00:27:52.40	18.25	6.32	-58.5	-68.2	3.8	7.47e-01	0	22	104	0	81	10860
2026-01-13 00:27:53.40	18.13	6.40	-58.5	-68.2	3.8	7.44e-01	0	22	104	0	81	10860
2026-01-13 00:27:54.41	18.00	6.47	-58.6	-68.3	3.8	7.46e-01	0	22	104	0	81	10942
2026-01-13 00:27:55.41	17.88	6.54	-58.5	-68.2	3.8	7.45e-01	0	22	104	0	81	10845
2026-01-13 00:27:56.41	17.75	6.61	-58.6	-68.2	3.8	7.46e-01	0	22	104	0	81	10899
2026-01-13 00:27:57.41	17.63	6.69	-58.6	-68.2	3.8	7.45e-01	0	22	104	0	81	10894
2026-01-13 00:27:58.40	17.50	6.76	-58.6	-68.3	3.8	7.44e-01	0	22	104	0	81	10919
2026-01-13 00:27:59.41	17.37	6.83	-58.5	-68.2	3.8	7.45e-01	0	22	104	0	81	10882
2026-01-13 00:28:00.41	17.24	6.91	-58.6	-68.3	3.8	7.47e-01	0	22	104	0	81	10935
2026-01-13 00:28:01.41	17.11	6.98	-58.6	-68.3	3.8	7.44e-01	0	22	104	0	81	10918
2026-01-13 00:28:02.41	16.98	7.05	-58.6	-68.3	3.8	7.45e-01	0	22	104	0	81	10987
2026-01-13 00:28:03.40	16.85	7.13	-58.6	-68.2	3.8	7.47e-01	0	22	104	0	81	10886
2026-01-13 00:28:04.40	16.71	7.20	-58.6	-68.3	3.8	7.47e-01	0	22	104	0	81	10976
2026-01-13 00:28:05.40	16.58	7.27	-58.6	-68.3	3.8	7.45e-01	0	22	104	0	81	10964
2026-01-13 00:28:06.40	16.45	7.35	-58.7	-68.3	3.8	7.45e-01	0	22	104	0	81	10984
2026-01-13 00:28:07.41	16.31	7.42	-58.6	-68.3	3.8	7.47e-01	0	22	104	0	81	10915
2026-01-13 00:28:08.41	16.17	7.50	-58.6	-68.3	3.8	7.44e-01	0	22	104	0	81	11011
2026-01-13 00:28:09.42	16.03	7.57	-58.7	-68.3	3.8	7.46e-01	0	22	104	0	81	10993
2026-01-13 00:28:10.42	15.90	7.65	-58.7	-68.4	3.8	7.46e-01	0	22	104	0	81	11050
2026-01-13 00:28:11.42	15.76	7.72	-58.6	-68.3	3.8	7.45e-01	0	22	104	0	81	11016
2026-01-13 00:28:12.43	15.62	7.80	-58.7	-68.4	3.8	7.45e-01	0	22	104	0	81	11035
2026-01-13 00:28:13.42	15.48	7.87	-58.7	-68.4	3.8	7.45e-01	0	22	104	0	81	11034
2026-01-13 00:28:14.42	15.33	7.95	-58.7	-68.4	3.8	7.44e-01	0	22	104	0	81	11074
2026-01-13 00:28:15.42	15.19	8.02	-58.7	-68.3	3.8	7.44e-01	0	22	104	0	81	10971
2026-01-13 00:28:16.42	15.05	8.10	-58.7	-68.4	3.8	7.47e-01	0	22	104	0	81	11056
2026-01-13 00:28:17.43	14.90	8.18	-58.7	-68.4	3.8	7.45e-01	0	22	104	0	81	11101
2026-01-13 00:28:18.43	14.76	8.25	-58.7	-68.5	3.8	7.46e-01	0	22	104	0	81	11171
2026-01-13 00:28:19.43	14.61	8.33	-58.7	-68.4	3.8	7.46e-01	0	22	104	0	81	11051
2026-01-13 00:28:20.43	14.46	8.40	-58.7	-68.4	3.8	7.45e-01	0	22	104	0	81	11091
2026-01-13 00:28:21.44	14.31	8.48	-58.7	-68.4	3.8	7.45e-01	0	22	104	0	81	11096
2026-01-13 00:28:22.44	14.16	8.56	-58.7	-68.5	3.8	7.44e-01	0	22	104	0	81	11167
2026-01-13 00:28:23.44	14.01	8.63	-58.7	-68.4	3.8	7.47e-01	0	22	104	0	81	11075
2026-01-13 00:28:24.44	13.86	8.71	-58.8	-68.4	3.8	7.44e-01	0	23	104	0	81	11140
2026-01-13 00:28:25.45	13.71	8.79	-58.7	-68.4	3.8	7.46e-01	0	22	104	0	81	11139
2026-01-13 00:28:26.45	13.55	8.87	-58.8	-68.4	3.8	7.45e-01	0	22	104	0	81	11152
2026-01-13 00:28:27.46	13.40	8.95	-58.7	-68.4	3.8	7.46e-01	0	22	104	0	81	11151
2026-01-13 00:28:28.45	13.24	9.02	-58.8	-68.4	3.8	7.44e-01	0	22	104	0	81	11147
2026-01-13 00:28:29.46	13.08	9.10	-58.8	-68.5	3.8	7.46e-01	0	22	104	0	81	11184
2026-01-13 00:28:30.47	12.92	9.18	-58.8	-68.5	3.8	7.45e-01	0	22	104	0	81	11168
2026-01-13 00:28:31.47	12.76	9.26	-58.8	-68.5	3.8	7.45e-01	0	22	104	0	81	11222
2026-01-13 00:28:32.47	12.60	9.34	-58.8	-68.5	3.8	7.44e-01	0	22	104	0	81	11220
2026-01-13 00:28:33.47	12.44	9.41	-58.8	-68.4	3.8	7.46e-01	0	23	104	0	81	11137
2026-01-13 00:28:34.47	12.28	9.49	-58.8	-68.5	3.8	7.46e-01	0	22	104	0	81	11185
2026-01-13 00:28:35.46	12.12	9.57	-58.8	-68.5	3.8	7.45e-01	0	22	104	0	81	11180
2026-01-13 00:28:36.46	11.95	9.65	-58.8	-68.5	3.8	7.45e-01	0	22	104	0	81	11218
2026-01-13 00:28:37.45	11.79	9.73	-58.8	-68.5	3.8	7.45e-01	0	22	104	0	81	11162
2026-01-13 00:28:38.46	11.62	9.81	-58.8	-68.5	3.8	7.45e-01	0	22	104	0	81	11243
2026-01-13 00:28:39.46	11.45	9.89	-58.8	-68.5	3.8	7.47e-01	0	22	104	0	81	11210
2026-01-13 00:28:40.45	11.29	9.97	-58.8	-68.5	3.8	7.44e-01	0	22	104	0	81	11266
2026-01-13 00:28:41.46	11.11	10.05	-58.8	-68.6	3.8	7.46e-01	0	22	104	0	81	11292
2026-01-13 00:28:42.47	10.94	10.13	-58.9	-68.5	3.8	7.44e-01	0	22	104	0	81	11272
2026-01-13 00:28:43.47	10.77	10.21	-58.8	-68.6	3.8	7.44e-01	0	23	104	0	81	11292
2026-01-13 00:28:44.47	10.59	10.29	-58.9	-68.5	3.8	7.45e-01	0	22	104	0	81	11275
2026-01-13 00:28:45.47	10.42	10.37	-58.9	-68.5	3.8	7.46e-01	0	22	104	0	81	11283
2026-01-13 00:28:46.46	10.24	10.45	-58.9	-68.6	3.8	7.44e-01	0	22	104	0	81	11317
2026-01-13 00:28:47.46	10.07	10.53	-58.9	-68.6	3.8	7.47e-01	0	22	104	0	81	11312
2026-01-13 00:28:48.46	9.89	10.61	-58.9	-68.6	3.8	7.45e-01	0	22	104	0	81	11307
2026-01-13 00:28:49.47	9.71	10.69	-58.9	-68.6	3.8	7.46e-01	0	22	104	0	81	11305
2026-01-13 00:28:50.47	9.53	10.77	-58.9	-68.6	3.8	7.46e-01	0	22	104	0	81	11342
2026-01-13 00:28:51.47	9.34	10.85	-58.9	-68.6	3.8	7.45e-01	0	22	104	0	81	11308
2026-01-13 00:28:52.47	9.16	10.93	-58.9	-68.6	3.8	7.44e-01	0	22	104	0	81	11345
2026-01-13 00:28:53.46	8.98	11.01	-58.9	-68.6	3.8	7.46e-01	0	22	104	0	81	11340
2026-01-13 00:28:54.47	8.79	11.09	-58.9	-68.6	3.8	7.45e-01	0	23	104	0	81	11323
2026-01-13 00:28:55.47	8.60	11.17	-58.9	-68.6	3.8	7.45e-01	0	22	104	0	81	11374
2026-01-13 00:28:56.48	8.41	11.25	-58.9	-68.6	3.8	7.47e-01	0	22	104	0	81	11353
2026-01-13 00:28:57.48	8.22	11.34	-58.9	-68.6	3.8	7.46e-01	0	23	104	0	81	11343
2026-01-13 00:28:58.48	8.03	11.42	-59.0	-68.7	3.8	7.45e-01	0	22	104	0	81	11434
2026-01-13 00:28:59.48	7.84	11.50	-58.9	-68.6	3.8	7.47e-01	0	23	104	0	81	11392
2026-01-13 00:29:00.48	7.64	11.58	-58.9	-68.6	3.8	7.46e-01	0	22	104	0	81	11378
2026-01-13 00:29:01.48	7.45	11.66	-59.0	-68.6	3.8	7.46e-01	0	23	104	0	81	11411
2026-01-13 00:29:02.48	7.25	11.74	-59.0	-68.7	3.8	7.47e-01	0	23	104	0	81	11438
2026-01-13 00:29:03.49	7.05	11.83	-59.0	-68.7	3.8	7.46e-01	0	22	104	0	81	11419
2026-01-13 00:29:04.49	6.85	11.91	-59.0	-68.7	3.8	7.44e-01	0	23	104	0	81	11431
2026-01-13 00:29:05.49	6.65	11.99	-59.0	-68.7	3.8	7.46e-01	0	22	104	0	81	11451
2026-01-13 00:29:06.48	6.45	12.07	-59.0	-68.7	3.8	7.46e-01	0	22	104	0	81	11468
2026-01-13 00:29:07.49	6.24	12.16	-59.0	-68.7	3.8	7.45e-01	0	23	104	0	81	11453
2026-01-13 00:29:08.50	6.04	12.24	-59.0	-68.7	3.8	7.44e-01	0	23	104	0	81	11483
2026-01-13 00:29:09.50	5.83	12.32	-59.0	-68.7	3.8	7.45e-01	0	23	104	0	81	11509
2026-01-13 00:29:10.50	5.62	12.40	-59.0	-68.7	3.8	7.45e-01	0	22	104	0	81	11507
2026-01-13 00:29:11.50	5.41	12.49	-59.0	-68.7	3.8	7.46e-01	0	22	104	0	81	11497
2026-01-13 00:29:12.50	5.20	12.57	-59.0	-68.7	3.8	7.45e-01	0	23	104	0	81	11452
2026-01-13 00:29:13.50	4.99	12.65	-59.0	-68.7	3.8	7.46e-01	0	22	104	0	81	11492
2026-01-13 00:29:14.51	4.77	12.73	-59.0	-68.7	3.8	7.46e-01	0	23	104	0	81	11503
2026-01-13 00:29:15.51	4.56	12.82	-59.0	-68.7	3.8	7.46e-01	0	23	104	0	81	11494
2026-01-13 00:29:16.51	4.34	12.90	-59.0	-68.7	3.8	7.45e-01	0	23	104	0	81	11488
2026-01-13 00:29:17.51	4.12	12.98	-59.0	-68.7	3.8	7.46e-01	0	23	104	0	81	11503
2026-01-13 00:29:18.51	3.90	13.06	-59.0	-68.8	3.8	7.46e-01	0	23	104	0	81	11553
2026-01-13 00:29:19.51	3.68	13.15	-59.0	-68.7	3.8	7.45e-01	0	22	104	0	81	11520
2026-01-13 00:29:20.52	3.46	13.23	-59.0	-68.7	3.8	7.45e-01	0	23	104	0	81	11496
2026-01-13 00:29:21.52	3.23	13.31	-59.0	-68.7	3.8	7.45e-01	0	23	104	0	81	11542
2026-01-13 00:29:22.52	3.01	13.40	-59.1	-68.7	3.8	7.45e-01	0	23	104	0	81	11549
2026-01-13 00:29:23.52	2.78	13.48	-59.0	-68.8	3.8	7.46e-01	0	23	104	0	81	11566
2026-01-13 00:29:24.52	2.55	13.56	-59.1	-68.8	3.8	7.45e-01	0	22	104	0	81	11585
2026-01-13 00:29:25.53	2.32	13.64	-59.1	-68.7	3.8	7.44e-01	0	23	104	0	81	11535
2026-01-13 00:29:26.54	2.08	13.73	-59.1	-68.7	3.8	7.45e-01	0	23	104	0	81	11544
2026-01-13 00:29:27.54	1.85	13.81	-59.1	-68.8	3.8	7.46e-01	0	22	104	0	81	11589
2026-01-13 00:29:28.54	1.61	13.89	-59.1	-68.8	3.8	7.45e-01	0	23	104	0	81	11583
2026-01-13 00:29:29.54	1.38	13.97	-59.1	-68.8	3.8	7.45e-01	0	22	104	0	81	11621
2026-01-13 00:29:30.55	1.14	14.06	-59.1	-68.8	3.8	7.45e-01	0	23	104	0	81	11621
2026-01-13 00:29:31.55	0.89	14.14	-59.1	-68.8	3.8	7.45e-01	0	23	104	0	81	11587
2026-01-13 00:29:32.56	0.65	14.22	-59.1	-68.8	3.8	7.45e-01	0	22	104	0	81	11587
2026-01-13 00:29:33.56	0.41	14.30	-59.1	-68.8	3.8	7.45e-01	0	23	104	0	81	11612
2026-01-13 00:29:34.56	0.16	14.39	-59.1	-68.8	3.8	7.46e-01	0	23	104	0	81	11652
2026-01-13 00:29:35.56	359.92	14.47	-59.1	-68.8	3.8	7.46e-01	0	23	104	0	81	11624
2026-01-13 00:29:36.55	359.67	14.55	-59.1	-68.8	3.8	7.45e-01	0	22	104	0	81	11603
2026-01-13 00:29:37.55	359.42	14.63	-59.1	-68.8	3.8	7.46e-01	0	23	104	0	81	11651
2026-01-13 00:29:38.54	359.17	14.71	-59.1	-68.8	3.8	7.44e-01	0	23	104	0	81	11674
2026-01-13 00:29:39.54	358.92	14.79	-59.1	-68.8	3.8	7.46e-01	0	23	104	0	81	11608
2026-01-13 00:29:40.54	358.66	14.88	-59.1	-68.8	3.8	7.46e-01	0	23	104	0	81	11622
2026-01-13 00:29:41.54	358.41	14.96	-59.1	-68.8	3.8	7.46e-01	0	23	104	0	81	11678
2026-01-13 00:29:42.54	358.15	15.04	-59.2	-68.9	3.8	7.47e-01	0	22	104	0	81	11687
2026-01-13 00:29:43.53	357.89	15.12	-59.1	-68.8	3.8	7.44e-01	0	23	104	0	81	11652
2026-01-13 00:29:44.53	357.63	15.20	-59.1	-68.9	3.8	7.45e-01	0	22	104	0	81	11695
2026-01-13 00:29:45.53	357.37	15.28	-59.2	-68.9	3.8	7.45e-01	0	23	104	0	81	11710
2026-01-13 00:29:46.53	357.10	15.36	-59.2	-68.9	3.8	7.47e-01	0	23	104	0	81	11709
2026-01-13 00:29:47.53	356.83	15.44	-59.2	-68.9	3.8	7.45e-01	0	22	104	0	81	11728
2026-01-13 00:29:48.53	356.56	15.52	-59.2	-68.9	3.8	7.45e-01	0	23	104	0	81	11688
2026-01-13 00:29:49.53	356.29	15.60	-59.2	-68.9	3.8	7.47e-01	0	23	104	0	81	11789
2026-01-13 00:29:50.52	356.03	15.68	-59.2	-68.9	3.8	7.47e-01	0	23	104	0	81	11769
2026-01-13 00:29:51.52	355.75	15.76	-59.2	-68.9	3.8	7.46e-01	0	23	104	0	81	11701
2026-01-13 00:29:52.52	355.48	15.84	-59.2	-68.9	3.8	7.47e-01	0	23	104	0	81	11744
2026-01-13 00:29:53.52	355.20	15.91	-59.2	-68.9	3.8	7.44e-01	0	23	104	0	81	11739
2026-01-13 00:29:54.52	354.92	15.99	-59.2	-68.9	3.8	7.45e-01	0	23	104	0	81	11799
2026-01-13 00:29:55.52	354.64	16.07	-59.2	-68.9	3.8	7.46e-01	0	23	104	0	81	11696
2026-01-13 00:29:56.52	354.36	16.15	-59.2	-68.9	3.8	7.45e-01	0	23	104	0	81	11757
2026-01-13 00:29:57.52	354.07	16.23	-59.2	-68.9	3.8	7.47e-01	0	23	104	0	81	11739
2026-01-13 00:29:58.52	353.79	16.30	-59.2	-68.9	3.8	7.45e-01	0	22	104	0	81	11741
2026-01-13 00:29:59.53	353.50	16.38	-59.2	-68.9	3.8	7.44e-01	0	23	104	0	81	11735
2026-01-13 00:30:00.53	353.21	16.46	-59.2	-68.9	3.8	7.43e-01	0	23	104	0	81	11753
2026-01-13 00:30:01.53	352.92	16.54	-59.2	-68.9	3.8	7.46e-01	0	22	104	0	81	11770
2026-01-13 00:30:02.53	352.62	16.61	-59.2	-69.0	3.8	7.44e-01	0	23	104	0	81	11820
2026-01-13 00:30:03.53	352.33	16.69	-59.2	-68.9	3.8	7.46e-01	0	23	104	0	81	11791
2026-01-13 00:30:04.52	352.03	16.76	-59.2	-68.9	3.8	7.46e-01	0	22	104	0	81	11793
2026-01-13 00:30:05.52	351.74	16.84	-59.2	-68.9	3.8	7.45e-01	0	23	104	0	81	11788
2026-01-13 00:30:06.52	351.44	16.91	-59.2	-68.9	3.8	7.43e-01	0	23	104	0	81	11786
2026-01-13 00:30:07.51	351.14	16.98	-59.2	-68.9	3.8	7.46e-01	0	23	104	0	81	11778
2026-01-13 00:30:08.51	350.83	17.06	-59.2	-68.9	3.8	7.46e-01	0	23	104	0	81	11767
2026-01-13 00:30:09.51	350.53	17.13	-59.2	-69.0	3.8	7.45e-01	0	23	104	0	81	11834
2026-01-13 00:30:10.52	350.22	17.20	-59.2	-68.9	3.8	7.46e-01	0	23	104	0	81	11818
2026-01-13 00:30:11.53	349.91	17.28	-59.2	-68.9	3.8	7.45e-01	0	22	104	0	81	11816
2026-01-13 00:30:12.54	349.59	17.35	-59.2	-68.9	3.8	7.46e-01	0	23	104	0	81	11807
2026-01-13 00:30:13.54	349.28	17.42	-59.3	-68.9	3.8	7.45e-01	0	23	104	0	81	11803
2026-01-13 00:30:14.54	348.97	17.49	-59.2	-69.0	3.8	7.46e-01	0	23	104	0	81	11842
2026-01-13 00:30:15.54	348.65	17.56	-59.3	-68.9	3.8	7.47e-01	0	23	104	0	81	11779
2026-01-13 00:30:16.54	348.33	17.63	-59.3	-68.9	3.8	7.46e-01	0	23	104	0	81	11795
2026-01-13 00:30:17.54	348.01	17.70	-59.3	-69.0	3.8	7.47e-01	0	23	104	0	81	11846
2026-01-13 00:30:18.55	347.69	17.77	-59.3	-68.9	3.8	7.46e-01	0	23	104	0	81	11817
2026-01-13 00:30:19.55	347.37	17.84	-59.3	-69.0	3.8	7.45e-01	0	23	104	0	81	11853
2026-01-13 00:30:20.55	347.04	17.91	-59.3	-68.9	3.8	7.44e-01	0	23	104	0	81	11811
2026-01-13 00:30:21.56	346.71	17.97	-59.3	-69.0	3.8	7.46e-01	0	22	104	0	81	11874
2026-01-13 00:30:22.57	346.38	18.04	-59.3	-69.0	3.8	7.45e-01	0	22	104	0	81	11856
2026-01-13 00:30:23.57	346.05	18.11	-59.3	-69.0	3.8	7.45e-01	0	23	104	0	81	11849
2026-01-13 00:30:24.57	345.72	18.17	-59.3	-69.0	3.8	7.45e-01	0	22	104	0	81	11847
2026-01-13 00:30:25.57	345.39	18.23	-59.3	-69.0	3.8	7.45e-01	0	22	104	0	81	11909
2026-01-13 00:30:26.57	345.06	18.30	-59.3	-69.0	3.8	7.45e-01	0	22	104	0	81	11871
2026-01-13 00:30:27.58	344.72	18.36	-59.3	-69.0	3.8	7.46e-01	0	22	104	0	81	11881
2026-01-13 00:30:28.58	344.38	18.42	-59.3	-69.0	3.8	7.44e-01	0	23	104	0	81	11891
2026-01-13 00:30:29.57	344.04	18.49	-59.3	-69.0	3.8	7.45e-01	0	23	104	0	81	11917
2026-01-13 00:30:30.57	343.70	18.55	-59.3	-69.0	3.8	7.45e-01	0	23	104	0	81	11890
2026-01-13 00:30:31.57	343.36	18.61	-59.3	-69.0	3.8	7.43e-01	0	23	104	0	81	11915
2026-01-13 00:30:32.57	343.01	18.67	-59.3	-69.0	3.8	7.45e-01	0	23	104	0	81	11895
2026-01-13 00:30:33.57	342.67	18.72	-59.3	-69.0	3.8	7.45e-01	0	23	104	0	81	11947
2026-01-13 00:30:34.57	342.32	18.78	-59.3	-69.0	3.8	7.45e-01	0	23	104	0	81	11892
2026-01-13 00:30:35.57	341.97	18.84	-59.3	-69.0	3.8	7.45e-01	0	23	104	0	81	11915
2026-01-13 00:30:36.56	341.63	18.89	-59.3	-69.0	3.8	7.45e-01	0	23	104	0	81	11888
2026-01-13 00:30:37.57	341.27	18.95	-59.4	-69.0	3.8	7.45e-01	0	23	104	0	81	11946
2026-01-13 00:30:38.57	340.92	19.00	-59.3	-69.1	3.8	7.44e-01	0	23	104	0	81	11958
2026-01-13 00:30:39.56	340.57	19.06	-59.3	-69.1	3.8	7.46e-01	0	23	104	0	81	11963
2026-01-13 00:30:40.56	340.21	19.11	-59.3	-69.0	3.8	7.45e-01	0	23	104	0	81	11939
2026-01-13 00:30:41.56	339.85	19.16	-59.4	-69.1	3.8	7.47e-01	0	23	104	0	81	12032
2026-01-13 00:30:42.56	339.49	19.21	-59.4	-69.1	3.8	7.47e-01	0	23	104	0	81	11974
2026-01-13 00:30:43.57	339.13	19.26	-59.4	-69.1	3.8	7.45e-01	0	23	104	0	81	11979
2026-01-13 00:30:44.57	338.77	19.31	-59.4	-69.0	3.8	7.45e-01	0	22	104	0	81	11922
2026-01-13 00:30:45.57	338.41	19.36	-59.4	-69.1	3.8	7.45e-01	0	23	104	0	81	12004
2026-01-13 00:30:46.57	338.04	19.41	-59.4	-69.1	3.8	7.46e-01	0	23	104	0	81	11983
2026-01-13 00:30:47.58	337.67	19.45	-59.4	-69.1	3.8	7.45e-01	0	23	104	0	81	12008
2026-01-13 00:30:48.59	337.30	19.50	-59.4	-69.1	3.8	7.44e-01	0	23	104	0	81	11965
2026-01-13 00:30:49.59	336.93	19.54	-59.4	-69.1	3.8	7.44e-01	0	23	104	0	81	12033
2026-01-13 00:30:50.59	336.56	19.59	-59.5	-69.2	3.8	7.47e-01	0	22	104	0	82	11443
2026-01-13 00:30:51.59	336.19	19.63	-59.5	-69.2	3.8	7.44e-01	0	23	104	0	82	11418
2026-01-13 00:30:52.59	335.82	19.67	-59.5	-69.2	3.8	7.46e-01	0	23	104	0	82	11473
2026-01-13 00:30:53.60	335.44	19.71	-59.5	-69.2	3.8	7.45e-01	0	23	104	0	82	11453
2026-01-13 00:30:54.60	335.07	19.75	-59.5	-69.1	3.8	7.46e-01	0	23	104	0	82	11400
2026-01-13 00:30:55.60	334.69	19.79	-59.5	-69.2	3.8	7.43e-01	0	23	104	0	82	11442
2026-01-13 00:30:56.60	334.32	19.83	-59.5	-69.2	3.8	7.47e-01	0	23	104	0	82	11430
2026-01-13 00:30:57.60	333.94	19.86	-59.5	-69.2	3.8	7.45e-01	0	23	104	0	82	11502
2026-01-13 00:30:58.60	333.56	19.90	-59.5	-69.2	3.8	7.46e-01	0	23	104	0	82	11437
2026-01-13 00:30:59.60	333.18	19.93	-59.5	-69.2	3.8	7.45e-01	0	23	104	0	82	11465
2026-01-13 00:31:00.59	332.81	19.96	-59.5	-69.2	3.8	7.45e-01	0	23	104	0	82	11466
2026-01-13 00:31:01.59	332.43	19.99	-59.5	-69.2	3.8	7.44e-01	0	23	104	0	82	11488
2026-01-13 00:31:02.59	332.04	20.02	-59.5	-69.2	3.8	7.46e-01	0	23	104	0	82	11482
2026-01-13 00:31:03.60	331.66	20.05	-59.5	-69.2	3.8	7.47e-01	0	23	104	0	82	11445
2026-01-13 00:31:04.60	331.27	20.08	-59.5	-69.2	3.8	7.45e-01	0	23	104	0	82	11454
2026-01-13 00:31:05.60	330.89	20.11	-59.5	-69.2	3.8	7.46e-01	0	23	104	0	82	11529
2026-01-13 00:31:06.61	330.50	20.13	-59.5	-69.2	3.8	7.47e-01	0	23	104	0	82	11484
2026-01-13 00:31:07.60	330.12	20.16	-59.5	-69.2	3.8	7.44e-01	0	23	104	0	82	11470
2026-01-13 00:31:08.59	329.73	20.18	-59.5	-69.2	3.8	7.47e-01	0	23	104	0	82	11485
2026-01-13 00:31:09.59	329.35	20.20	-59.5	-69.2	3.8	7.45e-01	0	23	104	0	82	11530
2026-01-13 00:31:10.60	328.95	20.22	-59.5	-69.2	3.8	7.46e-01	0	23	104	0	82	11509
2026-01-13 00:31:11.61	328.56	20.24	-59.5	-69.2	3.8	7.46e-01	0	22	104	0	82	11492
2026-01-13 00:31:12.61	328.17	20.26	-59.5	-69.2	3.8	7.44e-01	0	23	104	0	82	11509
2026-01-13 00:31:13.61	327.78	20.28	-59.5	-69.3	3.8	7.44e-01	0	23	104	0	82	11563
2026-01-13 00:31:14.62	327.39	20.30	-59.5	-69.2	3.8	7.46e-01	0	23	104	0	82	11521
2026-01-13 00:31:15.62	327.00	20.31	-59.5	-69.2	3.8	7.46e-01	0	23	104	0	82	11469
2026-01-13 00:31:16.61	326.61	20.32	-59.5	-69.2	3.8	7.44e-01	0	23	104	0	82	11515
2026-01-13 00:31:17.61	326.22	20.34	-59.5	-69.2	3.8	7.46e-01	0	23	104	0	82	11518
2026-01-13 00:31:18.60	325.83	20.35	-59.5	-69.3	3.8	7.46e-01	0	23	104	0	82	11550
2026-01-13 00:31:19.60	325.44	20.36	-59.5	-69.2	3.8	7.45e-01	0	23	104	0	82	11479
2026-01-13 00:31:20.60	325.05	20.37	-59.5	-69.2	3.8	7.46e-01	0	23	104	0	82	11478
2026-01-13 00:31:21.60	324.65	20.37	-59.6	-69.3	3.8	7.45e-01	0	23	104	0	82	11551
2026-01-13 00:31:22.61	324.26	20.38	-59.5	-69.2	3.8	7.45e-01	0	23	104	0	82	11516
2026-01-13 00:31:23.60	323.87	20.38	-59.5	-69.2	3.8	7.45e-01	0	23	104	0	82	11534
2026-01-13 00:31:24.61	323.47	20.39	-59.5	-69.2	3.8	7.46e-01	0	23	104	0	82	11465
2026-01-13 00:31:25.61	323.08	20.39	-59.6	-69.3	3.8	7.45e-01	0	23	104	0	82	11561
2026-01-13 00:31:26.60	322.69	20.39	-59.6	-69.3	3.8	7.44e-01	0	23	104	0	82	11550
2026-01-13 00:31:27.61	322.29	20.39	-59.6	-69.2	3.8	7.46e-01	0	23	104	0	82	11531
2026-01-13 00:31:28.61	321.90	20.39	-59.5	-69.3	3.8	7.45e-01	0	23	104	0	82	11587
2026-01-13 00:31:29.61	321.50	20.39	-59.6	-69.3	3.8	7.45e-01	0	23	104	0	82	11578
2026-01-13 00:31:30.61	321.11	20.38	-59.6	-69.3	3.8	7.46e-01	0	23	104	0	82	11564
2026-01-13 00:31:31.60	320.72	20.38	-59.6	-69.3	3.8	7.44e-01	0	23	104	0	82	11561
2026-01-13 00:31:32.60	320.33	20.37	-59.6	-69.2	3.8	7.45e-01	0	23	104	0	82	11526
2026-01-13 00:31:33.61	319.93	20.36	-59.6	-69.3	3.8	7.45e-01	0	23	104	0	82	11587
2026-01-13 00:31:34.61	319.54	20.35	-59.6	-69.3	3.8	7.47e-01	0	23	104	0	82	11578
2026-01-13 00:31:35.61	319.15	20.34	-59.6	-69.3	3.8	7.45e-01	0	23	104	0	82	11563
2026-01-13 00:31:36.60	318.76	20.33	-59.5	-69.2	3.8	7.46e-01	0	23	104	0	82	11500
2026-01-13 00:31:37.60	318.37	20.32	-59.6	-69.3	3.8	7.45e-01	0	23	104	0	82	11579
2026-01-13 00:31:38.61	317.97	20.30	-59.6	-69.2	3.8	7.45e-01	0	23	104	0	82	11543
2026-01-13 00:31:39.61	317.58	20.29	-59.6	-69.3	3.8	7.46e-01	0	23	104	0	82	11574
2026-01-13 00:31:40.61	317.19	20.27	-59.6	-69.2	3.8	7.47e-01	0	23	104	0	82	11549
2026-01-13 00:31:41.61	316.80	20.25	-59.6	-69.3	3.8	7.46e-01	0	23	104	0	82	11582
2026-01-13 00:31:42.62	316.41	20.24	-59.6	-69.3	3.8	7.45e-01	0	23	104	0	82	11576
2026-01-13 00:31:43.61	316.02	20.22	-59.6	-69.3	3.8	7.45e-01	0	23	104	0	82	11612
2026-01-13 00:31:44.61	315.63	20.19	-59.6	-69.3	3.8	7.46e-01	0	23	104	0	82	11569
2026-01-13 00:31:45.61	315.25	20.17	-59.6	-69.3	3.8	7.45e-01	0	23	104	0	82	11583
2026-01-13 00:31:46.60	314.86	20.15	-59.6	-69.3	3.8	7.46e-01	0	23	104	0	82	11592
2026-01-13 00:31:47.61	314.47	20.12	-59.6	-69.3	3.8	7.46e-01	0	23	104	0	82	11611
2026-01-13 00:31:48.61	314.09	20.10	-59.6	-69.3	3.8	7.44e-01	0	23	104	0	82	11569
2026-01-13 00:31:49.61	313.70	20.07	-59.6	-69.3	3.8	7.44e-01	0	23	104	0	82	11579
2026-01-13 00:31:50.62	313.32	20.04	-59.6	-69.3	3.8	7.45e-01	0	23	104	0	82	11578
2026-01-13 00:31:51.62	312.93	20.01	-59.6	-69.2	3.8	7.45e-01	0	23	104	0	82	11531
2026-01-13 00:31:52.63	312.55	19.98	-59.6	-69.3	3.8	7.44e-01	0	23	104	0	82	11559
2026-01-13 00:31:53.63	312.17	19.95	-59.6	-69.3	3.8	7.46e-01	0	23	104	0	82	11615
2026-01-13 00:31:54.64	311.78	19.91	-59.6	-69.3	3.8	7.46e-01	0	23	104	0	82	11561
2026-01-13 00:31:55.63	311.41	19.88	-59.6	-69.3	3.8	7.45e-01	0	23	104	0	82	11630
2026-01-13 00:31:56.64	311.02	19.84	-59.6	-69.3	3.8	7.46e-01	0	23	104	0	82	11569
2026-01-13 00:31:57.63	310.65	19.81	-59.6	-69.3	3.8	7.43e-01	0	23	104	0	82	11585
2026-01-13 00:31:58.64	310.27	19.77	-59.6	-69.3	3.8	7.47e-01	0	23	104	0	82	11593
2026-01-13 00:31:59.64	309.89	19.73	-59.6	-69.3	3.8	7.46e-01	0	23	104	0	82	11627
2026-01-13 00:32:00.64	309.52	19.69	-59.6	-69.3	3.8	7.45e-01	0	23	104	0	82	11587
2026-01-13 00:32:01.65	309.14	19.65	-59.6	-69.3	3.8	7.45e-01	0	23	104	0	82	11651
2026-01-13 00:32:02.66	308.77	19.61	-59.6	-69.3	3.8	7.46e-01	0	23	104	0	82	11571
2026-01-13 00:32:03.66	308.40	19.57	-59.6	-69.2	3.8	7.44e-01	0	23	104	0	82	11537
2026-01-13 00:32:04.65	308.03	19.52	-59.6	-69.3	3.8	7.44e-01	0	23	104	0	82	11569
2026-01-13 00:32:05.66	307.66	19.48	-59.6	-69.3	3.8	7.45e-01	0	23	104	0	82	11576
2026-01-13 00:32:06.66	307.29	19.43	-59.6	-69.3	3.8	7.45e-01	0	23	104	0	82	11572
2026-01-13 00:32:07.67	306.92	19.38	-59.6	-69.3	3.8	7.45e-01	0	23	104	0	82	11622
2026-01-13 00:32:08.67	306.56	19.34	-59.6	-69.3	3.8	7.45e-01	0	23	104	0	82	11622
2026-01-13 00:32:09.68	306.19	19.29	-59.6	-69.3	3.8	7.45e-01	0	23	104	0	82	11638
2026-01-13 00:32:10.68	305.83	19.24	-59.6	-69.3	3.8	7.45e-01	0	23	104	0	82	11619
2026-01-13 00:32:11.68	305.47	19.19	-59.6	-69.3	3.8	7.46e-01	0	23	104	0	82	11608
2026-01-13 00:32:12.69	305.11	19.13	-59.6	-69.3	3.8	7.46e-01	0	23	104	0	82	11602
2026-01-13 00:32:13.69	304.75	19.08	-59.6	-69.3	3.8	7.46e-01	0	23	104	0	82	11642
2026-01-13 00:32:14.69	304.39	19.03	-59.6	-69.3	3.8	7.45e-01	0	23	104	0	82	11629
2026-01-13 00:32:15.69	304.04	18.97	-59.6	-69.3	3.8	7.45e-01	0	23	104	0	82	11658
2026-01-13 00:32:16.70	303.68	18.92	-59.6	-69.3	3.8	7.45e-01	0	23	104	0	82	11630
2026-01-13 00:32:17.70	303.33	18.86	-59.6	-69.3	3.8	7.44e-01	0	23	104	0	82	11677
2026-01-13 00:32:18.70	302.98	18.81	-59.6	-69.3	3.8	7.45e-01	0	23	104	0	82	11623
2026-01-13 00:32:19.69	302.64	18.75	-59.6	-69.3	3.8	7.45e-01	0	23	104	0	82	11644
2026-01-13 00:32:20.69	302.29	18.69	-59.6	-69.3	3.8	7.45e-01	0	23	104	0	82	11627
2026-01-13 00:32:21.69	301.94	18.63	-59.6	-69.3	3.8	7.45e-01	0	23	104	0	82	11659
2026-01-13 00:32:22.68	301.60	18.57	-59.6	-69.3	3.8	7.47e-01	0	23	104	0	82	11642
2026-01-13 00:32:23.68	301.26	18.51	-59.6	-69.3	3.8	7.45e-01	0	23	104	0	82	11652
2026-01-13 00:32:24.68	300.92	18.45	-59.6	-69.3	3.8	7.46e-01	0	23	104	0	82	11662
2026-01-13 00:32:25.68	300.58	18.39	-59.6	-69.4	3.8	7.46e-01	0	23	104	0	82	11697
2026-01-13 00:32:26.69	300.24	18.33	-59.6	-69.3	3.8	7.46e-01	0	23	104	0	82	11628
2026-01-13 00:32:27.70	299.90	18.26	-59.6	-69.4	3.8	7.45e-01	0	23	104	0	82	11686
2026-01-13 00:32:28.70	299.57	18.20	-59.6	-69.3	3.8	7.45e-01	0	23	104	0	82	11646
2026-01-13 00:32:29.69	299.24	18.13	-59.6	-69.4	3.8	7.44e-01	0	23	104	0	82	11693
2026-01-13 00:32:30.70	298.90	18.07	-59.6	-69.3	3.8	7.45e-01	0	23	104	0	82	11617
2026-01-13 00:32:31.70	298.57	18.00	-59.6	-69.3	3.8	7.44e-01	0	23	104	0	82	11668
2026-01-13 00:32:32.71	298.24	17.93	-59.7	-69.4	3.8	7.46e-01	0	23	104	0	82	11699
2026-01-13 00:32:33.71	297.92	17.87	-59.7	-69.4	3.8	7.45e-01	0	23	104	0	82	11704
2026-01-13 00:32:34.71	297.59	17.80	-59.6	-69.4	3.8	7.46e-01	0	23	104	0	82	11698
2026-01-13 00:32:35.72	297.27	17.73	-59.7	-69.4	3.8	7.45e-01	0	23	104	0	82	11701
2026-01-13 00:32:36.72	296.95	17.66	-59.7	-69.4	3.8	7.45e-01	0	23	104	0	82	11703
2026-01-13 00:32:37.72	296.63	17.59	-59.7	-69.4	3.8	7.45e-01	0	23	104	0	82	11727
2026-01-13 00:32:38.72	296.31	17.52	-59.6	-69.3	3.8	7.46e-01	0	23	104	0	82	11655
2026-01-13 00:32:39.72	295.99	17.45	-59.7	-69.4	3.8	7.44e-01	0	23	104	0	82	11713
2026-01-13 00:32:40.72	295.68	17.38	-59.7	-69.4	3.8	7.46e-01	0	23	104	0	82	11758
2026-01-13 00:32:41.72	295.37	17.31	-59.7	-69.3	3.8	7.45e-01	0	23	104	0	82	11677
2026-01-13 00:32:42.72	295.06	17.23	-59.6	-69.3	3.8	7.46e-01	0	23	104	0	82	11639
2026-01-13 00:32:43.72	294.75	17.16	-59.6	-69.3	3.8	7.47e-01	0	23	104	0	82	11682
2026-01-13 00:32:44.72	294.44	17.09	-59.7	-69.4	3.8	7.47e-01	0	23	104	0	82	11733
2026-01-13 00:32:45.72	294.14	17.02	-59.7	-69.4	3.8	7.44e-01	0	23	104	0	82	11684
2026-01-13 00:32:46.72	293.83	16.94	-59.6	-69.3	3.8	7.46e-01	0	23	104	0	82	11637
2026-01-13 00:32:47.73	293.53	16.87	-59.6	-69.3	3.8	7.45e-01	0	23	104	0	82	11635
2026-01-13 00:32:48.73	293.23	16.79	-59.7	-69.4	3.8	7.45e-01	0	23	104	0	82	11716
2026-01-13 00:32:49.73	292.93	16.72	-59.7	-69.4	3.8	7.44e-01	0	23	104	0	82	11691
2026-01-13 00:32:50.74	292.63	16.64	-59.6	-69.3	3.8	7.44e-01	0	23	104	0	82	11590
2026-01-13 00:32:51.74	292.34	16.56	-59.6	-69.3	3.8	7.46e-01	0	23	104	0	82	11673
2026-01-13 00:32:52.73	292.05	16.49	-59.7	-69.3	3.8	7.45e-01	0	23	104	0	82	11668
2026-01-13 00:32:53.73	291.75	16.41	-59.7	-69.3	3.8	7.46e-01	0	23	104	0	82	11674
2026-01-13 00:32:54.74	291.46	16.33	-59.6	-69.3	3.8	7.45e-01	0	23	104	0	82	11624
2026-01-13 00:32:55.74	291.17	16.26	-59.6	-69.3	3.8	7.45e-01	0	23	104	0	82	11619
2026-01-13 00:32:56.73	290.89	16.18	-59.6	-69.3	3.8	7.46e-01	0	23	104	0	82	11657
2026-01-13 00:32:57.73	290.61	16.10	-59.6	-69.3	3.8	7.48e-01	0	23	104	0	82	11664
2026-01-13 00:32:58.73	290.32	16.02	-59.6	-69.3	3.8	7.45e-01	0	23	104	0	82	11614
2026-01-13 00:32:59.74	290.04	15.94	-59.6	-69.3	3.8	7.45e-01	0	23	104	0	82	11636
2026-01-13 00:33:00.74	289.76	15.86	-59.6	-69.3	3.8	7.45e-01	0	23	104	0	82	11678
2026-01-13 00:33:01.73	289.49	15.79	-59.6	-69.3	3.8	7.43e-01	0	23	104	0	82	11643
2026-01-13 00:33:02.74	289.21	15.71	-59.6	-69.3	3.8	7.47e-01	0	23	104	0	82	11554
2026-01-13 00:33:03.74	288.94	15.63	-59.5	-69.2	3.8	7.46e-01	0	23	104	0	82	11525
2026-01-13 00:33:04.74	288.66	15.55	-59.6	-69.3	3.8	7.45e-01	0	23	104	0	82	11596
2026-01-13 00:33:05.74	288.39	15.47	-59.6	-69.3	3.8	7.44e-01	0	23	104	0	82	11614
2026-01-13 00:33:06.74	288.13	15.39	-59.5	-69.2	3.8	7.44e-01	0	23	104	0	82	11516
2026-01-13 00:33:07.74	287.86	15.31	-59.5	-69.3	3.8	7.46e-01	0	23	104	0	82	11556
2026-01-13 00:33:08.74	287.59	15.22	-59.6	-69.3	3.8	7.46e-01	0	23	104	0	82	11610
2026-01-13 00:33:09.75	287.33	15.14	-59.6	-69.3	3.8	7.45e-01	0	23	104	0	82	11559
2026-01-13 00:33:10.75	287.07	15.06	-59.5	-69.2	3.8	7.47e-01	0	23	104	0	82	11502
2026-01-13 00:33:11.75	286.81	14.98	-59.5	-69.2	3.8	7.46e-01	0	23	104	0	82	11478
2026-01-13 00:33:12.75	286.55	14.90	-59.6	-69.3	3.8	7.46e-01	0	23	104	0	82	11559
2026-01-13 00:33:13.75	286.29	14.82	-59.5	-69.2	3.8	7.46e-01	0	23	104	0	82	11511
2026-01-13 00:33:14.75	286.04	14.74	-59.5	-69.2	3.8	7.45e-01	0	23	104	0	82	11434
2026-01-13 00:33:15.76	285.78	14.65	-59.5	-69.2	3.8	7.45e-01	0	23	104	0	82	11461
2026-01-13 00:33:16.76	285.53	14.57	-59.5	-69.2	3.8	7.47e-01	0	23	104	0	82	11494
2026-01-13 00:33:17.75	285.28	14.49	-59.5	-69.2	3.8	7.45e-01	0	23	104	0	82	11468
2026-01-13 00:33:18.76	285.03	14.41	-59.5	-69.2	3.8	7.45e-01	0	23	104	0	82	11433
2026-01-13 00:33:19.76	284.79	14.32	-59.5	-69.1	3.8	7.46e-01	0	23	104	0	82	11396
2026-01-13 00:33:20.76	284.54	14.24	-59.5	-69.2	3.8	7.45e-01	0	23	104	0	82	11476
2026-01-13 00:33:21.76	284.30	14.16	-59.5	-69.1	3.8	7.46e-01	0	23	104	0	82	11401
2026-01-13 00:33:22.76	284.06	14.08	-59.4	-69.1	3.8	7.45e-01	0	23	104	0	82	11354
2026-01-13 00:33:23.77	283.81	13.99	-59.4	-69.1	3.8	7.46e-01	0	23	104	0	82	11415
2026-01-13 00:33:24.77	283.57	13.91	-59.5	-69.1	3.8	7.47e-01	0	23	104	0	82	11408
2026-01-13 00:33:25.77	283.34	13.83	-59.4	-69.1	3.8	7.45e-01	0	23	104	0	82	11407
2026-01-13 00:33:26.77	283.10	13.75	-59.4	-69.1	3.8	7.45e-01	0	23	104	0	82	11364
2026-01-13 00:33:27.77	282.87	13.66	-59.4	-69.1	3.8	7.46e-01	0	23	104	0	82	11372
2026-01-13 00:33:28.77	282.64	13.58	-59.4	-69.1	3.8	7.46e-01	0	23	104	0	82	11385
2026-01-13 00:33:29.77	282.41	13.50	-59.4	-69.1	3.8	7.46e-01	0	23	104	0	82	11353
2026-01-13 00:33:30.77	282.18	13.41	-59.4	-69.1	3.8	7.45e-01	0	23	104	0	82	11367
2026-01-13 00:33:31.77	281.95	13.33	-59.4	-69.1	3.8	7.44e-01	0	23	104	0	82	11379
2026-01-13 00:33:32.77	281.72	13.25	-59.4	-69.1	3.8	7.46e-01	0	23	104	0	82	11361
2026-01-13 00:33:33.77	281.50	13.17	-59.4	-69.1	3.8	7.44e-01	0	23	104	0	82	11369
2026-01-13 00:33:34.77	281.28	13.08	-59.4	-69.1	3.8	7.46e-01	0	23	104	0	82	11319
2026-01-13 00:33:35.77	281.06	13.00	-59.4	-69.1	3.8	7.46e-01	0	23	104	0	82	11340
2026-01-13 00:33:36.76	280.84	12.92	-59.4	-69.1	3.8	7.46e-01	0	23	104	0	82	11318
2026-01-13 00:33:37.76	280.62	12.84	-59.4	-69.1	3.8	7.45e-01	0	23	104	0	82	11319
2026-01-13 00:33:38.76	280.40	12.75	-59.4	-69.0	3.8	7.45e-01	0	23	104	0	82	11266
2026-01-13 00:33:39.76	280.19	12.67	-59.4	-69.0	3.8	7.46e-01	0	23	104	0	82	11280
2026-01-13 00:33:40.77	279.97	12.59	-59.4	-69.1	3.8	7.46e-01	0	23	104	0	82	11317
2026-01-13 00:33:41.78	279.76	12.50	-59.3	-69.0	3.8	7.46e-01	0	23	104	0	82	11271
2026-01-13 00:33:42.77	279.55	12.42	-59.3	-69.0	3.8	7.45e-01	0	23	104	0	82	11242
2026-01-13 00:33:43.77	279.34	12.34	-59.3	-69.0	3.8	7.45e-01	0	23	104	0	82	11227
2026-01-13 00:33:44.76	279.13	12.26	-59.3	-69.0	3.8	7.47e-01	0	23	104	0	82	11253
2026-01-13 00:33:45.76	278.93	12.17	-59.3	-69.0	3.8	7.44e-01	0	23	104	0	82	11256
2026-01-13 00:33:46.76	278.72	12.09	-59.3	-69.0	3.8	7.45e-01	0	23	104	0	82	11222
2026-01-13 00:33:47.76	278.52	12.01	-59.3	-69.0	3.8	7.46e-01	0	23	104	0	82	11237
2026-01-13 00:33:48.76	278.32	11.93	-59.3	-69.0	3.8	7.45e-01	0	23	104	0	82	11223
2026-01-13 00:33:49.76	278.11	11.84	-59.3	-69.0	3.8	7.46e-01	0	23	104	0	82	11201
2026-01-13 00:33:50.76	277.91	11.76	-59.3	-69.0	3.8	7.45e-01	0	23	104	0	82	11173
2026-01-13 00:33:51.75	277.72	11.68	-59.3	-69.0	3.8	7.44e-01	0	23	104	0	82	11189
2026-01-13 00:33:52.75	277.52	11.60	-59.3	-69.0	3.8	7.46e-01	0	23	104	0	82	11186
2026-01-13 00:33:53.74	277.33	11.52	-59.3	-69.0	3.8	7.46e-01	0	23	104	0	82	11170
2026-01-13 00:33:54.74	277.13	11.44	-59.2	-68.9	3.8	7.46e-01	0	23	104	0	82	11123
2026-01-13 00:33:55.73	276.94	11.35	-59.2	-68.9	3.8	7.46e-01	0	23	104	0	82	11126
2026-01-13 00:33:56.72	276.75	11.27	-59.3	-68.9	3.8	7.45e-01	0	23	104	0	82	11147
2026-01-13 00:33:57.72	276.56	11.19	-59.2	-68.9	3.8	7.46e-01	0	23	104	0	82	11130
2026-01-13 00:33:58.72	276.37	11.11	-59.2	-68.9	3.8	7.45e-01	0	23	104	0	82	11107
2026-01-13 00:33:59.72	276.19	11.03	-59.2	-68.9	3.8	7.47e-01	0	23	104	0	82	11110
2026-01-13 00:34:00.72	276.00	10.95	-59.2	-68.9	3.8	7.46e-01	0	23	104	0	82	11077
2026-01-13 00:34:01.72	275.81	10.87	-59.2	-68.9	3.8	7.44e-01	0	23	104	0	82	11111
2026-01-13 00:34:02.72	275.63	10.79	-59.2	-68.9	3.8	7.45e-01	0	23	104	0	82	11078
2026-01-13 00:34:03.72	275.45	10.70	-59.2	-68.8	3.8	7.45e-01	0	23	104	0	82	11023
2026-01-13 00:34:04.72	275.27	10.62	-59.2	-68.8	3.8	7.44e-01	0	23	104	0	82	11028
2026-01-13 00:34:05.73	275.09	10.54	-59.2	-68.9	3.8	7.46e-01	0	23	104	0	82	11065
2026-01-13 00:34:06.72	274.91	10.46	-59.2	-68.8	3.8	7.45e-01	0	23	104	0	82	11008
2026-01-13 00:34:07.72	274.73	10.38	-59.1	-68.9	3.8	7.44e-01	0	23	104	0	82	11031
2026-01-13 00:34:08.72	274.55	10.30	-59.2	-68.9	3.8	7.45e-01	0	23	104	0	82	11042
2026-01-13 00:34:09.73	274.38	10.22	-59.2	-68.8	3.8	7.44e-01	0	23	104	0	82	11029
2026-01-13 00:34:10.73	274.20	10.14	-59.1	-68.8	3.8	7.45e-01	0	23	104	0	82	10964
2026-01-13 00:34:11.74	274.03	10.06	-59.1	-68.8	3.8	7.45e-01	0	23	104	0	82	10968
2026-01-13 00:34:12.74	273.86	9.98	-59.1	-68.8	3.8	7.45e-01	0	23	104	0	82	10999
2026-01-13 00:34:13.73	273.69	9.90	-59.1	-68.9	3.8	7.45e-01	0	23	104	0	82	11038
2026-01-13 00:34:14.73	273.52	9.82	-59.1	-68.8	3.8	7.45e-01	0	23	104	0	82	10945
2026-01-13 00:34:15.72	273.35	9.74	-59.1	-68.8	3.8	7.45e-01	0	23	104	0	82	10924
2026-01-13 00:34:16.72	273.19	9.66	-59.1	-68.8	3.8	7.46e-01	0	23	104	0	82	10991
2026-01-13 00:34:17.71	273.02	9.59	-59.1	-68.8	3.8	7.44e-01	0	23	104	0	82	10952
2026-01-13 00:34:18.71	272.86	9.51	-59.1	-68.8	3.8	7.45e-01	0	23	104	0	82	10924
2026-01-13 00:34:19.70	272.69	9.43	-59.1	-68.7	3.8	7.45e-01	0	23	104	0	82	10860
2026-01-13 00:34:20.71	272.53	9.35	-59.1	-68.7	3.8	7.45e-01	0	23	104	0	82	10890
2026-01-13 00:34:21.71	272.37	9.27	-59.1	-68.8	3.8	7.45e-01	0	23	104	0	82	10930
2026-01-13 00:34:22.71	272.21	9.19	-59.0	-68.7	3.8	7.44e-01	0	23	104	0	82	10868
2026-01-13 00:34:23.71	272.05	9.11	-59.0	-68.7	3.8	7.46e-01	0	23	104	0	82	10864
2026-01-13 00:34:24.71	271.89	9.04	-59.0	-68.7	3.8	7.46e-01	0	23	104	0	82	10872
2026-01-13 00:34:25.71	271.73	8.96	-59.0	-68.7	3.8	7.43e-01	0	23	104	0	82	10866
2026-01-13 00:34:26.71	271.58	8.88	-59.0	-68.7	3.8	7.46e-01	0	23	104	0	82	10823
2026-01-13 00:34:27.72	271.42	8.80	-59.0	-68.7	3.8	7.45e-01	0	23	104	0	82	10797
2026-01-13 00:34:28.72	271.27	8.72	-59.0	-68.7	3.8	7.47e-01	0	23	104	0	82	10837
2026-01-13 00:34:29.73	271.11	8.65	-59.0	-68.7	3.8	7.47e-01	0	23	104	0	82	10844
2026-01-13 00:34:30.73	270.96	8.57	-58.9	-68.6	3.8	7.47e-01	0	23	104	0	82	10760
2026-01-13 00:34:31.73	270.81	8.49	-58.8	-68.5	3.8	7.45e-01	0	23	104	0	82	10584
2026-01-13 00:34:32.74	270.66	8.41	-59.0	-68.6	3.8	7.45e-01	0	23	104	0	82	10770
2026-01-13 00:34:33.73	270.51	8.34	-58.8	-68.5	3.8	7.45e-01	0	23	104	0	82	10612
2026-01-13 00:34:34.73	270.36	8.26	-58.8	-68.5	3.8	7.46e-01	0	23	104	0	82	10553
2026-01-13 00:34:35.73	270.22	8.19	-58.4	-68.1	3.8	7.47e-01	0	23	104	0	81	10733
2026-01-13 00:34:36.73	270.07	8.11	-58.6	-68.3	3.8	7.45e-01	0	23	104	0	81	11017
2026-01-13 00:34:37.72	269.93	8.03	-58.3	-68.0	3.8	7.45e-01	0	23	104	0	81	10577
2026-01-13 00:34:38.72	269.78	7.96	-58.5	-68.2	3.8	7.45e-01	0	23	104	0	81	10822
2026-01-13 00:34:39.72	269.64	7.88	-58.2	-67.9	3.8	7.45e-01	0	23	104	0	81	10477
2026-01-13 00:34:40.72	269.50	7.81	-58.3	-68.0	3.8	7.46e-01	0	23	104	0	80	11186
2026-01-13 00:34:41.72	269.36	7.73	-57.9	-67.6	3.8	7.46e-01	0	23	104	0	80	10728
2026-01-13 00:34:42.72	269.22	7.66	-58.3	-68.0	3.8	7.45e-01	0	23	104	0	80	11195
2026-01-13 00:34:43.72	269.08	7.58	-58.1	-67.7	3.8	7.46e-01	0	23	104	0	80	10899
2026-01-13 00:34:44.72	268.94	7.51	-58.1	-67.8	3.8	7.45e-01	0	23	104	0	80	10943
2026-01-13 00:34:45.73	268.80	7.43	-57.8	-67.5	3.8	7.47e-01	0	23	104	0	80	10599
2026-01-13 00:34:46.73	268.66	7.36	-58.2	-67.9	3.8	7.45e-01	0	23	104	0	80	11114
2026-01-13 00:34:47.72	268.53	7.28	-58.2	-67.9	3.8	7.46e-01	0	23	104	0	80	11062
2026-01-13 00:34:48.72	268.39	7.21	-58.0	-67.7	3.8	7.45e-01	0	23	104	0	80	10869
2026-01-13 00:34:49.72	268.26	7.13	-57.9	-67.6	3.8	7.46e-01	0	23	104	0	80	10704
2026-01-13 00:34:50.72	268.13	7.06	-58.3	-68.0	3.8	7.46e-01	0	23	104	0	80	11192
2026-01-13 00:34:51.72	267.99	6.99	-58.3	-68.0	3.8	7.44e-01	0	23	104	0	80	11247
2026-01-13 00:34:52.72	267.86	6.91	-58.1	-67.8	3.8	7.47e-01	0	23	104	0	80	11024
2026-01-13 00:34:53.73	267.73	6.84	-58.1	-67.8	3.8	7.46e-01	0	23	104	0	80	11025
2026-01-13 00:34:54.74	267.60	6.76	-58.4	-68.0	3.8	7.43e-01	0	23	104	0	80	11246
2026-01-13 00:34:55.74	267.47	6.69	-58.4	-68.2	3.8	7.45e-01	0	23	104	0	80	11421
2026-01-13 00:34:56.74	267.34	6.62	-58.3	-68.0	3.8	7.46e-01	0	23	104	0	80	11214
2026-01-13 00:34:57.74	267.22	6.54	-58.4	-68.1	3.8	7.46e-01	0	23	104	0	80	11322
2026-01-13 00:34:58.74	267.09	6.47	-58.5	-68.2	3.8	7.47e-01	0	23	104	0	80	11438
2026-01-13 00:34:59.74	266.96	6.40	-58.5	-68.2	3.8	7.46e-01	0	23	104	0	80	11503
2026-01-13 00:35:00.75	266.84	6.33	-58.4	-68.1	3.8	7.47e-01	0	23	104	0	80	11375
2026-01-13 00:35:01.75	266.71	6.25	-58.5	-68.2	3.8	7.45e-01	0	23	104	0	80	11541
2026-01-13 00:35:02.75	266.59	6.18	-58.5	-68.2	3.8	7.47e-01	0	23	104	0	80	11475
2026-01-13 00:35:03.75	266.47	6.11	-58.6	-68.2	3.8	7.44e-01	0	23	104	0	80	11530
2026-01-13 00:35:04.75	266.35	6.04	-58.5	-68.2	3.8	7.46e-01	0	23	104	0	80	11513
2026-01-13 00:35:05.75	266.23	5.97	-58.6	-68.3	3.8	7.45e-01	0	23	104	0	80	11608
2026-01-13 00:35:06.75	266.11	5.90	-58.5	-68.3	3.8	7.44e-01	0	23	104	0	80	11554
2026-01-13 00:35:07.75	265.99	5.83	-58.6	-68.3	3.8	7.45e-01	0	23	104	0	80	11553
2026-01-13 00:35:08.76	265.87	5.75	-58.6	-68.3	3.8	7.46e-01	0	23	104	0	80	11569
2026-01-13 00:35:09.76	265.75	5.68	-58.6	-68.3	3.8	7.45e-01	0	23	104	0	80	11629
2026-01-13 00:35:10.76	265.63	5.61	-58.5	-68.2	3.8	7.45e-01	0	23	104	0	80	11502
2026-01-13 00:35:11.77	265.51	5.54	-58.5	-68.2	3.8	7.47e-01	0	23	104	0	80	11540
2026-01-13 00:35:12.77	265.40	5.47	-58.6	-68.2	3.8	7.46e-01	0	23	104	0	80	11530
2026-01-13 00:35:13.77	265.28	5.40	-58.6	-68.3	3.8	7.47e-01	0	23	104	0	80	11617
2026-01-13 00:35:14.77	265.17	5.33	-58.5	-68.2	3.8	7.45e-01	0	23	104	0	80	11439
2026-01-13 00:35:15.77	265.06	5.26	-58.5	-68.2	3.8	7.46e-01	0	23	104	0	80	11462
2026-01-13 00:35:16.77	264.94	5.19	-58.5	-68.2	3.8	7.46e-01	0	23	104	0	80	11522
2026-01-13 00:35:17.76	264.83	5.12	-58.6	-68.3	3.8	7.45e-01	0	23	104	0	80	11566
2026-01-13 00:35:18.76	264.72	5.05	-58.4	-68.1	3.8	7.46e-01	0	23	104	0	80	11359
2026-01-13 00:35:19.76	264.61	4.98	-58.5	-68.2	3.8	7.46e-01	0	23	104	0	80	11471
2026-01-13 00:35:20.75	264.50	4.91	-58.8	-68.5	3.8	7.43e-01	0	23	104	0	80	11941
2026-01-13 00:35:21.75	264.39	4.85	-59.1	-68.8	3.8	7.46e-01	0	23	104	0	81	11673
2026-01-13 00:35:22.74	264.28	4.78	-59.3	-69.0	3.8	7.45e-01	0	23	104	0	81	11912
2026-01-13 00:35:23.75	264.18	4.71	-59.5	-69.2	3.8	7.44e-01	0	23	104	0	82	11463
2026-01-13 00:35:24.74	264.07	4.64	-59.6	-69.3	3.8	7.46e-01	0	23	104	0	82	11654
2026-01-13 00:35:25.75	263.96	4.57	-59.7	-69.4	3.8	7.45e-01	0	23	104	0	82	11717
2026-01-13 00:35:26.76	263.85	4.50	-59.8	-69.5	3.8	7.43e-01	0	23	104	0	82	11864
2026-01-13 00:35:27.76	263.75	4.44	-59.8	-69.5	3.8	7.45e-01	0	23	104	0	82	11940
2026-01-13 00:35:28.77	263.64	4.37	-59.9	-69.6	3.8	7.45e-01	0	23	104	0	82	12061
2026-01-13 00:35:29.77	263.54	4.30	-60.0	-69.7	3.8	7.46e-01	0	23	104	0	83	11462
2026-01-13 00:35:30.77	263.44	4.23	-60.0	-69.7	3.8	7.45e-01	0	23	104	0	83	11528
2026-01-13 00:35:31.77	263.33	4.16	-60.1	-69.8	3.8	7.44e-01	0	23	104	0	83	11590
2026-01-13 00:35:32.77	263.23	4.10	-60.1	-69.8	3.8	7.45e-01	0	23	104	0	83	11629
2026-01-13 00:35:33.77	263.13	4.03	-60.2	-69.9	3.8	7.45e-01	0	23	104	0	83	11728
2026-01-13 00:35:34.78	263.03	3.96	-60.2	-69.9	3.8	7.45e-01	0	23	104	0	83	11751
2026-01-13 00:35:35.79	262.93	3.89	-60.2	-69.9	3.8	7.47e-01	0	23	104	0	83	11737
2026-01-13 00:35:36.79	262.83	3.83	-60.2	-70.0	3.8	7.45e-01	0	23	104	0	83	11820
2026-01-13 00:35:37.79	262.73	3.76	-60.3	-70.0	3.8	7.45e-01	0	23	104	0	83	11861
2026-01-13 00:35:38.79	262.63	3.70	-60.3	-70.0	3.8	7.45e-01	0	23	104	0	83	11831
2026-01-13 00:35:39.78	262.53	3.63	-60.3	-70.0	3.8	7.46e-01	0	23	104	0	83	11892
2026-01-13 00:35:40.78	262.43	3.56	-60.3	-70.0	3.8	7.46e-01	0	23	104	0	83	11879
2026-01-13 00:35:41.79	262.34	3.50	-60.3	-70.0	3.8	7.47e-01	0	23	104	0	83	11859
2026-01-13 00:35:42.78	262.24	3.43	-60.2	-69.9	3.8	7.48e-01	0	23	104	0	83	11806
2026-01-13 00:35:43.79	262.14	3.37	-60.2	-69.9	3.8	7.46e-01	0	23	104	0	83	11738
2026-01-13 00:35:44.79	262.05	3.30	-60.2	-69.9	3.8	7.45e-01	0	23	104	0	83	11748
2026-01-13 00:35:45.78	261.96	3.24	-60.2	-69.9	3.8	7.45e-01	0	23	104	0	83	11743
2026-01-13 00:35:46.79	261.86	3.17	-60.2	-69.9	3.8	7.43e-01	0	23	104	0	83	11719
2026-01-13 00:35:47.78	261.77	3.11	-60.2	-69.9	3.8	7.47e-01	0	23	104	0	83	11691
2026-01-13 00:35:48.78	261.68	3.04	-60.1	-69.9	3.8	7.46e-01	0	23	104	0	83	11729
2026-01-13 00:35:49.79	261.58	2.98	-60.2	-69.9	3.8	7.44e-01	0	23	104	0	83	11702
2026-01-13 00:35:50.78	261.49	2.91	-60.2	-69.9	3.8	7.46e-01	0	23	104	0	83	11710
2026-01-13 00:35:51.79	261.40	2.85	-60.1	-69.8	3.8	7.44e-01	0	23	104	0	83	11680
2026-01-13 00:35:52.79	261.31	2.78	-60.1	-69.8	3.8	7.47e-01	0	23	104	0	83	11671
2026-01-13 00:35:53.80	261.22	2.72	-60.1	-69.8	3.8	7.46e-01	0	23	104	0	83	11656
2026-01-13 00:35:54.80	261.13	2.65	-60.1	-69.8	3.8	7.44e-01	0	23	104	0	83	11665
2026-01-13 00:35:55.80	261.04	2.59	-60.1	-69.8	3.8	7.46e-01	0	23	104	0	83	11656
2026-01-13 00:35:56.80	260.95	2.53	-60.1	-69.8	3.8	7.45e-01	0	23	104	0	83	11665
2026-01-13 00:35:57.80	260.86	2.46	-60.1	-69.8	3.8	7.45e-01	0	23	104	0	83	11644
2026-01-13 00:35:58.80	260.77	2.40	-60.1	-69.8	3.8	7.45e-01	0	23	104	0	83	11638
2026-01-13 00:35:59.80	260.69	2.34	-60.1	-69.9	3.8	7.44e-01	0	23	104	0	83	11704
2026-01-13 00:36:00.81	260.60	2.27	-60.1	-69.8	3.8	7.43e-01	0	23	104	0	83	11662
2026-01-13 00:36:01.81	260.51	2.21	-60.1	-69.8	3.8	7.45e-01	0	23	104	0	83	11637
2026-01-13 00:36:02.82	260.43	2.15	-60.1	-69.8	3.8	7.46e-01	0	23	104	0	83	11644
2026-01-13 00:36:03.82	260.34	2.08	-60.1	-69.8	3.8	7.47e-01	0	23	104	0	83	11617
2026-01-13 00:36:04.83	260.26	2.02	-60.1	-69.8	3.8	7.46e-01	0	23	104	0	83	11608
2026-01-13 00:36:05.83	260.17	1.96	-60.1	-69.8	3.8	7.47e-01	0	23	104	0	83	11640

#Closed at: 2026-01-13 00:36:06
#Recorded file [0 MB]: D:/lorett/data/31004_260113_032649.dat