passes_logs/2026/01/13/R3.2S_Murmansk/R3.2S_Murmansk__20260113_102700_NOAA_20_JPSS-1_rec.log

#Pass ID: 20260113_102700_NOAA 20 (JPSS-1)
#Satellite: NOAA 20 (JPSS-1)
#Configuration: NOAA 20
#almurnet v.1.7.20251203
#Start time: 2026-01-13 10:27:02

#Version: 2.2.20231116
#Station: R3.2S_Murmansk
#Location: 33.079688 lon 68.888172 lat
#TLE: 1 43013U 17073A   26013.14496985  .00000068  00000+0  53315-4 0  9991
#TLE: 2 43013  98.7633 314.1039 0001584  42.1170 318.0128 14.19535620422471

#Time	Az	El	Level	Level2	SNR	BER	BlckErr	Temp	State	Recorded	gain1	gain2
2026-01-13 10:27:02.45	174.35	2.10	-58.2	-74.1	3.8	1.49e+00	0	24	0	0	82	22771
2026-01-13 10:27:03.45	174.38	2.17	-58.1	-74.1	3.8	1.49e+00	0	24	104	0	81	23931
2026-01-13 10:27:04.45	174.41	2.23	-58.1	-74.0	3.8	1.49e+00	0	24	104	0	81	23746
2026-01-13 10:27:05.43	174.43	2.29	-58.1	-73.9	3.8	1.49e+00	0	24	104	0	81	23480
2026-01-13 10:27:06.43	174.46	2.36	-58.1	-73.8	3.8	1.49e+00	0	24	104	0	81	23244
2026-01-13 10:27:07.43	174.49	2.42	-58.1	-73.7	3.8	1.49e+00	0	24	104	0	81	23008
2026-01-13 10:27:08.42	174.52	2.48	-58.1	-73.6	3.8	1.49e+00	0	24	104	0	81	22777
2026-01-13 10:27:09.42	174.55	2.55	-58.1	-73.6	3.8	1.49e+00	0	24	104	0	81	22697
2026-01-13 10:27:10.43	174.58	2.61	-58.1	-73.7	3.8	1.49e+00	0	24	104	0	81	23038
2026-01-13 10:27:11.41	174.61	2.68	-58.1	-73.8	3.8	1.49e+00	0	24	104	0	81	23177
2026-01-13 10:27:12.41	174.64	2.74	-58.1	-73.9	3.8	1.49e+00	0	24	104	0	81	23487
2026-01-13 10:27:13.40	174.67	2.80	-58.1	-74.0	3.8	1.49e+00	0	25	104	0	81	23637
2026-01-13 10:27:14.39	174.70	2.87	-58.1	-74.0	3.8	1.49e+00	0	25	104	0	81	23714
2026-01-13 10:27:15.38	174.73	2.93	-58.2	-74.0	3.8	1.49e+00	0	25	104	0	81	23769
2026-01-13 10:27:16.38	174.76	3.00	-58.1	-74.0	3.8	1.49e+00	0	25	104	0	81	23636
2026-01-13 10:27:17.36	174.79	3.06	-58.1	-73.9	3.8	1.49e+00	0	25	104	0	81	23517
2026-01-13 10:27:18.35	174.82	3.13	-58.1	-73.9	3.8	1.49e+00	0	25	104	0	81	23530
2026-01-13 10:27:19.35	174.85	3.19	-58.1	-73.8	3.8	1.49e+00	0	25	104	0	81	23251
2026-01-13 10:27:20.34	174.88	3.26	-58.1	-73.9	3.8	1.49e+00	0	25	104	0	81	23497
2026-01-13 10:27:21.34	174.91	3.32	-58.1	-74.1	3.8	1.49e+00	0	25	104	0	81	23912
2026-01-13 10:27:22.33	174.94	3.39	-58.2	-74.1	3.8	1.49e+00	0	25	104	0	81	24090
2026-01-13 10:27:23.32	174.97	3.45	-58.2	-74.1	3.8	1.49e+00	0	25	104	0	81	24043
2026-01-13 10:27:24.33	175.01	3.52	-58.1	-73.9	3.8	1.49e+00	0	25	104	0	81	23499
2026-01-13 10:27:25.32	175.04	3.58	-58.1	-73.4	3.8	1.49e+00	0	25	104	0	81	22231
2026-01-13 10:27:26.32	175.07	3.65	-58.1	-72.7	3.8	1.49e+00	0	25	104	0	81	20426
2026-01-13 10:27:27.32	175.10	3.72	-58.1	-71.7	3.9	1.49e+00	0	25	104	0	81	18136
2026-01-13 10:27:28.31	175.13	3.78	-58.0	-70.4	4.3	1.45e+00	0	25	0	0	81	15686
2026-01-13 10:27:29.30	175.16	3.85	-57.9	-69.4	4.5	9.99e-01	0	25	0	1048576	81	14008
2026-01-13 10:27:30.30	175.20	3.92	-57.9	-68.9	4.8	6.66e-01	0	25	0	3145728	81	13204
2026-01-13 10:27:31.30	175.23	3.98	-57.7	-67.3	5.7	5.87e-01	0	25	0	5242880	81	11003
2026-01-13 10:27:32.29	175.26	4.05	-57.7	-67.1	5.8	4.15e-01	0	25	0	6291456	81	10663
2026-01-13 10:27:33.29	175.29	4.12	-57.7	-66.6	6.1	3.15e-01	0	25	0	8388608	81	10123
2026-01-13 10:27:34.28	175.33	4.19	-57.5	-65.9	6.6	1.99e-01	0	25	0	10485760	81	9298
2026-01-13 10:27:35.27	175.36	4.25	-57.5	-65.4	7.1	1.21e-01	0	25	0	12582912	81	8828
2026-01-13 10:27:36.28	175.39	4.32	-57.3	-64.4	7.9	5.18e-02	0	25	0	13631488	81	7881
2026-01-13 10:27:37.27	175.42	4.39	-57.1	-63.9	8.3	3.60e-02	0	25	0	15728640	80	7833
2026-01-13 10:27:38.26	175.46	4.46	-56.9	-62.9	9.2	1.93e-02	0	25	0	17825792	80	7022
2026-01-13 10:27:39.25	175.49	4.52	-56.7	-62.4	9.7	9.80e-03	0	25	0	19922944	80	6579
2026-01-13 10:27:40.26	175.52	4.59	-56.6	-61.9	10.0	2.28e-03	0	25	0	22020096	79	6608
2026-01-13 10:27:41.26	175.56	4.66	-56.3	-61.2	10.6	4.67e-04	0	25	0	23068672	79	6097
2026-01-13 10:27:42.26	175.59	4.73	-55.9	-60.3	11.3	2.46e-04	0	25	0	25165824	78	5817
2026-01-13 10:27:43.25	175.62	4.80	-55.8	-59.9	11.6	3.58e-05	0	25	0	27262976	78	5588
2026-01-13 10:27:44.25	175.66	4.87	-55.6	-59.6	11.8	1.67e-05	0	25	0	29360128	77	5665
2026-01-13 10:27:45.23	175.69	4.94	-55.5	-59.3	12.0	6.10e-06	0	25	0	30408704	77	5504
2026-01-13 10:27:46.23	175.73	5.01	-55.5	-59.3	12.0	6.80e-06	0	25	0	32505856	77	5526
2026-01-13 10:27:47.22	175.76	5.08	-55.6	-59.5	11.8	3.80e-06	0	25	0	34603008	77	5621
2026-01-13 10:27:48.22	175.79	5.15	-56.2	-60.9	10.7	3.03e-04	0	25	0	36700160	77	6603
2026-01-13 10:27:49.21	175.83	5.22	-56.0	-60.3	11.2	3.10e-04	0	25	0	38797312	77	6190
2026-01-13 10:27:50.20	175.86	5.29	-57.2	-64.6	7.7	3.25e-02	0	25	0	39845888	79	9038
2026-01-13 10:27:51.20	175.90	5.36	-57.7	-66.7	5.9	9.40e-01	0	25	0	41943040	81	10210
2026-01-13 10:27:52.19	175.93	5.43	-54.1	-56.8	13.4	0.00e+00	0	25	0	44040192	74	4903
2026-01-13 10:27:53.19	175.97	5.50	-54.2	-57.0	13.3	0.00e+00	0	25	0	46137344	74	5035
2026-01-13 10:27:54.18	176.00	5.57	-54.1	-57.0	13.3	0.00e+00	0	25	0	47185920	74	4986
2026-01-13 10:27:55.18	176.04	5.64	-54.0	-56.6	13.5	0.00e+00	0	25	0	49283072	74	4800
2026-01-13 10:27:56.16	176.07	5.71	-54.0	-56.8	13.5	0.00e+00	0	25	0	51380224	74	4874
2026-01-13 10:27:57.15	176.11	5.78	-53.8	-56.4	13.6	0.00e+00	0	25	0	53477376	74	4703
2026-01-13 10:27:58.15	176.15	5.85	-54.0	-56.6	13.6	0.00e+00	0	25	0	54525952	74	4800
2026-01-13 10:27:59.14	176.18	5.92	-54.0	-56.7	13.5	0.00e+00	0	25	0	56623104	74	4834
2026-01-13 10:28:00.13	176.22	6.00	-54.0	-56.7	13.5	0.00e+00	0	25	0	58720256	74	4835
2026-01-13 10:28:01.13	176.25	6.07	-54.1	-56.8	13.5	0.00e+00	0	25	0	60817408	74	4891
2026-01-13 10:28:02.12	176.29	6.14	-54.1	-56.8	13.5	0.00e+00	0	25	0	62914560	74	4873
2026-01-13 10:28:03.11	176.33	6.21	-53.8	-56.4	13.7	0.00e+00	0	25	0	63963136	74	4695
2026-01-13 10:28:04.10	176.36	6.29	-53.8	-56.3	13.7	0.00e+00	0	25	0	66060288	74	4647
2026-01-13 10:28:05.10	176.40	6.36	-53.9	-56.4	13.7	0.00e+00	0	25	0	68157440	74	4697
2026-01-13 10:28:06.10	176.44	6.43	-53.8	-56.4	13.7	0.00e+00	0	25	0	70254592	74	4663
2026-01-13 10:28:07.08	176.48	6.50	-53.7	-56.2	13.8	0.00e+00	0	25	0	71303168	74	4559
2026-01-13 10:28:08.08	176.51	6.58	-53.8	-56.3	13.8	0.00e+00	0	26	0	73400320	74	4634
2026-01-13 10:28:09.08	176.55	6.65	-53.8	-56.3	13.8	0.00e+00	0	25	0	75497472	74	4625
2026-01-13 10:28:10.07	176.59	6.73	-53.7	-56.2	13.9	0.00e+00	0	26	0	77594624	74	4549
2026-01-13 10:28:11.06	176.63	6.80	-53.8	-56.4	13.7	0.00e+00	0	25	0	79691776	74	4677
2026-01-13 10:28:12.06	176.67	6.87	-53.8	-56.3	13.8	0.00e+00	0	26	0	80740352	74	4628
2026-01-13 10:28:13.04	176.70	6.95	-53.6	-56.1	13.8	0.00e+00	0	26	0	82837504	73	4793
2026-01-13 10:28:14.03	176.74	7.02	-53.7	-56.1	13.8	0.00e+00	0	25	0	84934656	73	4797
2026-01-13 10:28:15.02	176.78	7.10	-53.5	-55.9	13.9	0.00e+00	0	25	0	87031808	73	4685
2026-01-13 10:28:16.01	176.82	7.17	-53.5	-55.9	13.9	0.00e+00	0	26	0	88080384	73	4703
2026-01-13 10:28:17.00	176.86	7.25	-53.7	-56.2	13.7	0.00e+00	0	26	0	90177536	73	4816
2026-01-13 10:28:18.00	176.90	7.32	-53.6	-56.0	13.9	0.00e+00	0	26	0	92274688	73	4713
2026-01-13 10:28:18.98	176.94	7.40	-53.6	-56.0	13.8	0.00e+00	0	26	0	94371840	73	4754
2026-01-13 10:28:19.97	176.98	7.47	-53.5	-55.9	13.9	0.00e+00	0	25	0	95420416	73	4690
2026-01-13 10:28:20.97	177.02	7.55	-53.6	-56.0	13.8	0.00e+00	0	25	0	97517568	73	4736
2026-01-13 10:28:21.97	177.06	7.63	-53.6	-56.1	13.8	0.00e+00	0	26	0	99614720	73	4779
2026-01-13 10:28:22.97	177.10	7.70	-53.5	-55.9	13.9	0.00e+00	0	26	0	101711872	73	4682
2026-01-13 10:28:23.96	177.14	7.78	-53.5	-55.9	13.9	0.00e+00	0	26	0	103809024	73	4689
2026-01-13 10:28:24.95	177.18	7.86	-53.5	-55.9	13.9	0.00e+00	0	25	0	104857600	73	4653
2026-01-13 10:28:25.95	177.22	7.93	-53.6	-56.0	13.9	0.00e+00	0	26	0	106954752	73	4727
2026-01-13 10:28:26.94	177.26	8.01	-53.7	-56.1	13.8	0.00e+00	0	26	0	109051904	73	4813
2026-01-13 10:28:27.94	177.30	8.09	-53.5	-55.9	13.9	0.00e+00	0	26	0	111149056	73	4668
2026-01-13 10:28:28.93	177.34	8.17	-53.5	-55.8	14.0	0.00e+00	0	26	0	112197632	73	4639
2026-01-13 10:28:29.92	177.38	8.25	-53.5	-55.8	14.0	0.00e+00	0	26	0	114294784	73	4605
2026-01-13 10:28:30.91	177.43	8.32	-53.5	-55.9	13.9	0.00e+00	0	25	0	116391936	73	4666
2026-01-13 10:28:31.90	177.47	8.40	-53.5	-55.9	14.0	0.00e+00	0	26	0	118489088	73	4653
2026-01-13 10:28:32.90	177.51	8.48	-53.5	-55.8	14.0	0.00e+00	0	25	0	120586240	73	4616
2026-01-13 10:28:33.89	177.55	8.56	-53.6	-55.9	13.9	0.00e+00	0	26	0	121634816	73	4683
2026-01-13 10:28:34.89	177.60	8.64	-53.7	-56.2	13.8	0.00e+00	0	26	0	123731968	73	4818
2026-01-13 10:28:35.88	177.64	8.72	-53.6	-56.0	13.9	0.00e+00	0	26	0	125829120	73	4736
2026-01-13 10:28:36.89	177.68	8.80	-53.4	-55.7	14.1	0.00e+00	0	26	0	127926272	73	4554
2026-01-13 10:28:37.88	177.73	8.88	-53.3	-55.5	14.2	0.00e+00	0	26	0	128974848	73	4452
2026-01-13 10:28:38.88	177.77	8.96	-53.4	-55.6	14.1	0.00e+00	0	26	0	131072000	73	4537
2026-01-13 10:28:39.86	177.81	9.04	-53.3	-55.6	14.1	0.00e+00	0	26	0	133169152	73	4514
2026-01-13 10:28:40.85	177.86	9.12	-53.3	-55.6	14.2	0.00e+00	0	26	0	135266304	73	4508
2026-01-13 10:28:41.85	177.90	9.20	-53.3	-55.5	14.2	0.00e+00	0	26	0	137363456	73	4467
2026-01-13 10:28:42.84	177.95	9.28	-53.3	-55.5	14.2	0.00e+00	0	26	0	138412032	73	4443
2026-01-13 10:28:43.83	177.99	9.37	-53.3	-55.5	14.2	0.00e+00	0	26	0	140509184	73	4479
2026-01-13 10:28:44.82	178.03	9.45	-53.3	-55.6	14.1	0.00e+00	0	26	0	142606336	73	4497
2026-01-13 10:28:45.83	178.08	9.53	-53.3	-55.4	14.2	0.00e+00	0	26	0	144703488	73	4441
2026-01-13 10:28:46.82	178.13	9.61	-53.2	-55.4	14.2	0.00e+00	0	26	0	145752064	73	4412
2026-01-13 10:28:47.80	178.17	9.69	-53.2	-55.4	14.3	0.00e+00	0	26	0	147849216	73	4404
2026-01-13 10:28:48.79	178.22	9.78	-53.3	-55.4	14.2	0.00e+00	0	26	0	149946368	73	4431
2026-01-13 10:28:49.78	178.26	9.86	-53.2	-55.4	14.3	0.00e+00	0	26	0	152043520	73	4401
2026-01-13 10:28:50.76	178.31	9.94	-53.3	-55.4	14.3	0.00e+00	0	26	0	154140672	73	4423
2026-01-13 10:28:51.76	178.36	10.03	-53.1	-55.3	14.2	0.00e+00	0	26	0	155189248	72	4612
2026-01-13 10:28:52.76	178.40	10.11	-53.2	-55.3	14.1	0.00e+00	0	26	0	157286400	72	4637
2026-01-13 10:28:53.75	178.45	10.19	-53.2	-55.3	14.2	0.00e+00	0	26	0	159383552	72	4627
2026-01-13 10:28:54.74	178.50	10.28	-53.2	-55.4	14.1	0.00e+00	0	26	0	161480704	72	4680
2026-01-13 10:28:55.74	178.54	10.36	-53.3	-55.5	14.1	0.00e+00	0	26	0	162529280	72	4736
2026-01-13 10:28:56.73	178.59	10.45	-53.2	-55.4	14.1	0.00e+00	0	26	0	164626432	72	4667
2026-01-13 10:28:57.72	178.64	10.53	-53.2	-55.4	14.1	0.00e+00	0	26	0	166723584	72	4665
2026-01-13 10:28:58.71	178.69	10.62	-53.2	-55.4	14.2	0.00e+00	0	26	0	168820736	72	4670
2026-01-13 10:28:59.72	178.74	10.71	-53.2	-55.3	14.2	0.00e+00	0	26	0	170917888	72	4649
2026-01-13 10:29:00.70	178.79	10.79	-53.3	-55.4	14.1	0.00e+00	0	26	0	171966464	72	4704
2026-01-13 10:29:01.69	178.83	10.88	-53.2	-55.4	14.1	0.00e+00	0	26	0	174063616	72	4689
2026-01-13 10:29:02.68	178.88	10.96	-53.3	-55.5	14.1	0.00e+00	0	26	0	176160768	72	4735
2026-01-13 10:29:03.68	178.93	11.05	-53.2	-55.3	14.2	0.00e+00	0	26	0	178257920	72	4647
2026-01-13 10:29:04.67	178.98	11.14	-53.4	-55.6	14.0	0.00e+00	0	26	0	179306496	72	4781
2026-01-13 10:29:05.66	179.03	11.22	-53.3	-55.4	14.1	0.00e+00	0	26	0	181403648	72	4705
2026-01-13 10:29:06.65	179.08	11.31	-53.2	-55.3	14.2	0.00e+00	0	26	0	183500800	72	4646
2026-01-13 10:29:07.64	179.13	11.40	-53.2	-55.3	14.2	0.00e+00	0	26	0	185597952	72	4618
2026-01-13 10:29:08.63	179.19	11.49	-53.1	-55.3	14.2	0.00e+00	0	26	0	186646528	72	4608
2026-01-13 10:29:09.62	179.24	11.58	-53.2	-55.4	14.2	0.00e+00	0	26	0	188743680	72	4665
2026-01-13 10:29:10.61	179.29	11.67	-53.1	-55.3	14.2	0.00e+00	0	26	0	190840832	72	4601
2026-01-13 10:29:11.61	179.34	11.76	-53.1	-55.2	14.2	0.00e+00	0	26	0	192937984	72	4590
2026-01-13 10:29:12.61	179.39	11.85	-53.1	-55.2	14.3	0.00e+00	0	26	0	195035136	72	4547
2026-01-13 10:29:13.60	179.44	11.94	-53.0	-55.1	14.3	0.00e+00	0	26	0	196083712	72	4529
2026-01-13 10:29:14.59	179.50	12.03	-53.0	-55.1	14.3	0.00e+00	0	26	0	198180864	72	4494
2026-01-13 10:29:15.57	179.55	12.11	-53.0	-55.1	14.3	0.00e+00	0	26	0	200278016	72	4516
2026-01-13 10:29:16.56	179.60	12.21	-53.1	-55.2	14.2	0.00e+00	0	26	0	202375168	72	4589
2026-01-13 10:29:17.55	179.66	12.30	-53.0	-55.1	14.3	0.00e+00	0	26	0	203423744	72	4518
2026-01-13 10:29:18.54	179.71	12.39	-53.0	-55.1	14.3	0.00e+00	0	26	0	205520896	72	4498
2026-01-13 10:29:19.53	179.76	12.48	-53.1	-55.2	14.3	0.00e+00	0	26	0	207618048	72	4548
2026-01-13 10:29:20.53	179.82	12.57	-53.1	-55.2	14.3	0.00e+00	0	26	0	209715200	72	4552
2026-01-13 10:29:21.52	179.87	12.66	-52.9	-55.0	14.4	0.00e+00	0	26	0	211812352	72	4442
2026-01-13 10:29:22.51	179.93	12.76	-52.9	-55.0	14.4	0.00e+00	0	26	0	212860928	72	4443
2026-01-13 10:29:23.50	179.98	12.85	-53.0	-55.1	14.3	0.00e+00	0	26	0	214958080	72	4508
2026-01-13 10:29:24.49	180.04	12.94	-52.9	-54.9	14.4	0.00e+00	0	26	0	217055232	72	4431
2026-01-13 10:29:25.48	180.10	13.04	-53.0	-55.0	14.4	0.00e+00	0	26	0	219152384	72	4467
2026-01-13 10:29:26.47	180.15	13.13	-53.0	-55.0	14.4	0.00e+00	0	26	0	220200960	72	4469
2026-01-13 10:29:27.46	180.21	13.22	-53.0	-55.0	14.4	0.00e+00	0	26	0	222298112	72	4465
2026-01-13 10:29:28.45	180.27	13.32	-52.8	-54.9	14.4	0.00e+00	0	26	0	224395264	72	4392
2026-01-13 10:29:29.44	180.32	13.41	-52.9	-54.9	14.4	0.00e+00	0	26	0	226492416	72	4402
2026-01-13 10:29:30.43	180.38	13.51	-52.9	-55.0	14.4	0.00e+00	0	26	0	227540992	72	4451
2026-01-13 10:29:31.42	180.44	13.60	-53.0	-55.0	14.4	0.00e+00	0	26	0	229638144	72	4472
2026-01-13 10:29:32.42	180.50	13.70	-52.8	-54.8	14.5	0.00e+00	0	26	0	231735296	72	4378
2026-01-13 10:29:33.41	180.56	13.80	-52.9	-54.9	14.4	0.00e+00	0	26	0	233832448	72	4402
2026-01-13 10:29:34.41	180.62	13.90	-52.8	-54.8	14.5	0.00e+00	0	26	0	235929600	72	4383
2026-01-13 10:29:35.40	180.68	13.99	-52.9	-54.9	14.5	0.00e+00	0	26	0	236978176	72	4398
2026-01-13 10:29:36.39	180.74	14.09	-52.9	-54.9	14.4	0.00e+00	0	26	0	239075328	72	4431
2026-01-13 10:29:37.38	180.80	14.19	-52.9	-54.9	14.4	0.00e+00	0	26	0	241172480	72	4414
2026-01-13 10:29:38.37	180.86	14.29	-52.9	-55.0	14.4	0.00e+00	0	26	0	243269632	72	4444
2026-01-13 10:29:39.36	180.92	14.38	-52.9	-54.8	14.5	0.00e+00	0	26	0	244318208	72	4390
2026-01-13 10:29:40.35	180.98	14.48	-52.8	-54.7	14.5	0.00e+00	0	26	0	246415360	72	4337
2026-01-13 10:29:41.35	181.04	14.58	-52.8	-54.7	14.5	0.00e+00	0	26	0	248512512	72	4338
2026-01-13 10:29:42.34	181.11	14.68	-52.8	-54.8	14.5	0.00e+00	0	26	0	250609664	72	4354
2026-01-13 10:29:43.34	181.17	14.78	-52.8	-54.8	14.5	0.00e+00	0	26	0	252706816	72	4367
2026-01-13 10:29:44.34	181.23	14.89	-52.8	-54.8	14.5	0.00e+00	0	26	0	253755392	72	4370
2026-01-13 10:29:45.33	181.30	14.99	-52.8	-54.8	14.5	0.00e+00	0	26	0	255852544	72	4366
2026-01-13 10:29:46.33	181.36	15.09	-52.7	-54.6	14.6	0.00e+00	0	26	0	257949696	72	4282
2026-01-13 10:29:47.31	181.42	15.19	-52.6	-54.5	14.5	0.00e+00	0	26	0	260046848	71	4481
2026-01-13 10:29:48.31	181.49	15.29	-52.6	-54.5	14.5	0.00e+00	0	26	0	261095424	71	4480
2026-01-13 10:29:49.29	181.55	15.39	-52.6	-54.5	14.5	0.00e+00	0	26	0	263192576	71	4473
2026-01-13 10:29:50.28	181.62	15.50	-52.6	-54.5	14.5	0.00e+00	0	26	0	265289728	71	4455
2026-01-13 10:29:51.28	181.69	15.60	-52.6	-54.5	14.5	0.00e+00	0	26	0	267386880	71	4466
2026-01-13 10:29:52.27	181.75	15.70	-52.6	-54.5	14.5	0.00e+00	0	26	0	269484032	71	4462
2026-01-13 10:29:53.27	181.82	15.81	-52.5	-54.4	14.5	0.00e+00	0	26	0	270532608	71	4425
2026-01-13 10:29:54.26	181.89	15.91	-52.5	-54.4	14.6	0.00e+00	0	26	0	272629760	71	4406
2026-01-13 10:29:55.25	181.95	16.02	-52.6	-54.4	14.5	0.00e+00	0	26	0	274726912	71	4439
2026-01-13 10:29:56.24	182.02	16.12	-52.7	-54.6	14.5	0.00e+00	0	26	0	276824064	71	4499
2026-01-13 10:29:57.25	182.09	16.23	-52.6	-54.4	14.5	0.00e+00	0	26	0	277872640	71	4435
2026-01-13 10:29:58.24	182.16	16.34	-52.5	-54.4	14.6	0.00e+00	0	26	0	279969792	71	4401
2026-01-13 10:29:59.23	182.23	16.44	-52.5	-54.3	14.6	0.00e+00	0	26	0	282066944	71	4364
2026-01-13 10:30:00.22	182.30	16.55	-52.4	-54.3	14.6	0.00e+00	0	26	0	284164096	71	4355
2026-01-13 10:30:01.22	182.37	16.66	-52.4	-54.2	14.6	0.00e+00	0	26	0	286261248	71	4312
2026-01-13 10:30:02.22	182.44	16.77	-52.4	-54.2	14.6	0.00e+00	0	26	0	287309824	71	4340
2026-01-13 10:30:03.22	182.51	16.88	-52.4	-54.2	14.7	0.00e+00	0	26	0	289406976	71	4309
2026-01-13 10:30:04.21	182.59	16.99	-52.4	-54.2	14.7	0.00e+00	0	26	0	291504128	71	4324
2026-01-13 10:30:05.20	182.66	17.10	-52.3	-54.1	14.7	0.00e+00	0	26	0	293601280	71	4283
2026-01-13 10:30:06.19	182.73	17.21	-52.3	-54.1	14.7	0.00e+00	0	26	0	294649856	71	4274
2026-01-13 10:30:07.18	182.81	17.32	-52.4	-54.2	14.7	0.00e+00	0	26	0	296747008	71	4300
2026-01-13 10:30:08.17	182.88	17.43	-52.3	-54.0	14.7	0.00e+00	0	26	0	298844160	71	4235
2026-01-13 10:30:09.16	182.95	17.54	-52.2	-54.0	14.7	0.00e+00	0	26	0	300941312	71	4233
2026-01-13 10:30:10.15	183.03	17.65	-52.2	-54.0	14.7	0.00e+00	0	26	0	303038464	71	4222
2026-01-13 10:30:11.15	183.10	17.76	-52.3	-54.1	14.7	0.00e+00	0	26	0	304087040	71	4254
2026-01-13 10:30:12.14	183.18	17.87	-52.4	-54.2	14.6	0.00e+00	0	26	0	306184192	71	4312
2026-01-13 10:30:13.13	183.26	17.99	-52.2	-53.9	14.8	0.00e+00	0	26	0	308281344	71	4188
2026-01-13 10:30:14.12	183.33	18.10	-52.1	-53.9	14.7	0.00e+00	0	26	0	310378496	70	4416
2026-01-13 10:30:15.11	183.41	18.21	-52.2	-54.0	14.6	0.00e+00	0	26	0	311427072	70	4449
2026-01-13 10:30:16.10	183.49	18.33	-52.1	-53.9	14.7	0.00e+00	0	26	0	313524224	70	4401
2026-01-13 10:30:17.09	183.57	18.44	-52.0	-53.8	14.7	0.00e+00	0	26	0	315621376	70	4352
2026-01-13 10:30:18.08	183.65	18.56	-52.1	-53.9	14.7	0.00e+00	0	26	0	317718528	70	4408
2026-01-13 10:30:19.07	183.73	18.67	-51.9	-53.6	14.8	0.00e+00	0	26	0	318767104	70	4282
2026-01-13 10:30:20.06	183.81	18.79	-52.0	-53.7	14.8	0.00e+00	0	26	0	320864256	70	4318
2026-01-13 10:30:21.05	183.89	18.91	-51.9	-53.7	14.8	0.00e+00	0	26	0	322961408	70	4296
2026-01-13 10:30:22.05	183.97	19.03	-51.9	-53.6	14.8	0.00e+00	0	26	0	325058560	70	4267
2026-01-13 10:30:23.04	184.05	19.14	-51.8	-53.5	14.8	0.00e+00	0	26	0	327155712	70	4234
2026-01-13 10:30:24.03	184.14	19.26	-51.9	-53.5	14.8	0.00e+00	0	26	0	328204288	70	4242
2026-01-13 10:30:25.02	184.22	19.38	-51.8	-53.4	14.9	0.00e+00	0	26	0	330301440	70	4182
2026-01-13 10:30:26.02	184.30	19.50	-51.8	-53.5	14.9	0.00e+00	0	26	0	332398592	70	4200
2026-01-13 10:30:27.02	184.39	19.62	-51.7	-53.3	14.9	0.00e+00	0	26	0	334495744	70	4138
2026-01-13 10:30:28.01	184.48	19.74	-51.6	-53.3	14.8	0.00e+00	0	26	0	335544320	69	4368
2026-01-13 10:30:29.00	184.56	19.86	-51.7	-53.3	14.8	0.00e+00	0	26	0	337641472	69	4379
2026-01-13 10:30:30.00	184.65	19.99	-51.6	-53.3	14.8	0.00e+00	0	26	0	339738624	69	4364
2026-01-13 10:30:30.99	184.74	20.11	-51.6	-53.2	14.8	0.00e+00	0	26	0	341835776	69	4327
2026-01-13 10:30:31.98	184.82	20.23	-51.6	-53.3	14.8	0.00e+00	0	26	0	343932928	69	4344
2026-01-13 10:30:32.98	184.91	20.35	-51.5	-53.2	14.9	0.00e+00	0	26	0	344981504	69	4306
2026-01-13 10:30:33.96	185.00	20.48	-51.5	-53.2	14.8	0.00e+00	0	26	0	347078656	69	4304
2026-01-13 10:30:34.97	185.09	20.60	-51.6	-53.2	14.8	0.00e+00	0	26	0	349175808	69	4340
2026-01-13 10:30:35.96	185.18	20.73	-51.5	-53.1	14.9	0.00e+00	0	26	0	351272960	69	4283
2026-01-13 10:30:36.95	185.28	20.85	-51.5	-53.1	14.9	0.00e+00	0	26	0	352321536	69	4251
2026-01-13 10:30:37.95	185.37	20.98	-51.5	-53.2	14.9	0.00e+00	0	26	0	354418688	69	4295
2026-01-13 10:30:38.94	185.46	21.11	-51.4	-53.0	14.9	0.00e+00	0	26	0	356515840	69	4234
2026-01-13 10:30:39.93	185.55	21.23	-51.5	-53.1	14.9	0.00e+00	0	26	0	358612992	69	4264
2026-01-13 10:30:40.93	185.65	21.36	-51.5	-53.1	14.9	0.00e+00	0	26	0	360710144	69	4248
2026-01-13 10:30:41.92	185.74	21.49	-51.4	-53.0	14.9	0.00e+00	0	26	0	361758720	69	4226
2026-01-13 10:30:42.91	185.84	21.62	-51.5	-53.1	14.9	0.00e+00	0	26	0	363855872	69	4258
2026-01-13 10:30:43.90	185.94	21.75	-51.4	-53.0	14.9	0.00e+00	0	26	0	365953024	69	4227
2026-01-13 10:30:44.90	186.04	21.88	-51.3	-52.9	15.0	0.00e+00	0	26	0	368050176	69	4167
2026-01-13 10:30:45.89	186.13	22.01	-51.4	-53.0	14.9	0.00e+00	0	26	0	369098752	69	4207
2026-01-13 10:30:46.88	186.23	22.14	-51.3	-52.9	15.0	0.00e+00	0	26	0	371195904	69	4146
2026-01-13 10:30:47.88	186.33	22.27	-51.2	-52.7	15.1	0.00e+00	0	26	0	373293056	69	4094
2026-01-13 10:30:48.86	186.43	22.40	-51.2	-52.8	15.0	0.00e+00	0	26	0	375390208	69	4100
2026-01-13 10:30:49.85	186.53	22.54	-51.0	-52.5	15.0	0.00e+00	0	26	0	377487360	68	4228
2026-01-13 10:30:50.84	186.64	22.67	-51.0	-52.5	15.0	0.00e+00	0	26	0	378535936	68	4240
2026-01-13 10:30:51.84	186.74	22.81	-50.9	-52.5	15.0	0.00e+00	0	26	0	380633088	68	4201
2026-01-13 10:30:52.83	186.84	22.94	-51.0	-52.5	15.0	0.00e+00	0	26	0	382730240	68	4222
2026-01-13 10:30:53.83	186.95	23.08	-51.0	-52.5	15.0	0.00e+00	0	26	0	384827392	68	4217
2026-01-13 10:30:54.84	187.06	23.21	-50.9	-52.4	15.0	0.00e+00	0	26	0	385875968	68	4165
2026-01-13 10:30:55.83	187.16	23.35	-50.9	-52.4	15.0	0.00e+00	0	26	0	387973120	68	4175
2026-01-13 10:30:56.83	187.27	23.49	-50.9	-52.4	15.0	0.00e+00	0	26	0	390070272	68	4163
2026-01-13 10:30:57.82	187.38	23.63	-50.7	-52.2	15.1	0.00e+00	0	26	0	392167424	68	4080
2026-01-13 10:30:58.81	187.49	23.77	-50.8	-52.3	15.1	0.00e+00	0	26	0	394264576	68	4123
2026-01-13 10:30:59.81	187.60	23.91	-50.8	-52.3	15.1	0.00e+00	0	26	0	395313152	68	4117
2026-01-13 10:31:00.81	187.71	24.05	-50.8	-52.3	15.1	0.00e+00	0	26	0	397410304	68	4124
2026-01-13 10:31:01.80	187.83	24.19	-50.9	-52.4	15.1	0.00e+00	0	26	0	399507456	68	4176
2026-01-13 10:31:02.80	187.94	24.33	-50.9	-52.4	15.1	0.00e+00	0	26	0	401604608	68	4180
2026-01-13 10:31:03.79	188.05	24.47	-51.0	-52.5	15.0	0.00e+00	0	26	0	402653184	68	4223
2026-01-13 10:31:04.79	188.17	24.61	-51.1	-52.7	14.9	0.00e+00	0	26	0	404750336	68	4297
2026-01-13 10:31:05.78	188.29	24.76	-51.1	-52.6	14.9	0.00e+00	0	26	0	406847488	68	4279
2026-01-13 10:31:06.77	188.40	24.90	-51.2	-52.7	14.9	0.00e+00	0	26	0	408944640	68	4328
2026-01-13 10:31:07.77	188.52	25.05	-51.3	-52.9	14.8	0.00e+00	0	26	0	411041792	68	4409
2026-01-13 10:31:08.76	188.64	25.19	-51.3	-52.9	14.9	0.00e+00	0	26	0	412090368	68	4421
2026-01-13 10:31:09.75	188.76	25.34	-51.3	-52.8	14.9	0.00e+00	0	26	0	414187520	68	4375
2026-01-13 10:31:10.73	188.88	25.48	-51.3	-52.9	14.8	0.00e+00	0	26	0	416284672	68	4415
2026-01-13 10:31:11.72	189.01	25.63	-51.4	-53.0	14.8	0.00e+00	0	26	0	418381824	68	4477
2026-01-13 10:31:12.71	189.13	25.78	-51.5	-53.1	14.8	0.00e+00	0	26	0	419430400	68	4511
2026-01-13 10:31:13.71	189.25	25.93	-51.5	-53.1	14.7	0.00e+00	0	26	0	421527552	68	4532
2026-01-13 10:31:14.70	189.38	26.08	-51.5	-53.1	14.8	0.00e+00	0	26	0	423624704	68	4510
2026-01-13 10:31:15.70	189.51	26.23	-51.6	-53.2	14.7	0.00e+00	0	26	0	425721856	68	4598
2026-01-13 10:31:16.69	189.64	26.38	-51.7	-53.3	14.7	0.00e+00	0	26	0	426770432	68	4636
2026-01-13 10:31:17.68	189.77	26.53	-51.8	-53.5	14.6	0.00e+00	0	26	0	428867584	68	4718
2026-01-13 10:31:18.67	189.90	26.68	-51.8	-53.5	14.6	0.00e+00	0	26	0	430964736	68	4709
2026-01-13 10:31:19.66	190.03	26.83	-52.0	-53.7	14.7	0.00e+00	0	26	0	433061888	69	4569
2026-01-13 10:31:20.66	190.16	26.99	-52.2	-53.9	14.6	0.00e+00	0	26	0	435159040	69	4686
2026-01-13 10:31:21.64	190.29	27.14	-52.3	-54.0	14.5	0.00e+00	0	26	0	436207616	69	4751
2026-01-13 10:31:22.64	190.43	27.30	-52.4	-54.2	14.5	0.00e+00	0	26	0	438304768	69	4831
2026-01-13 10:31:23.63	190.57	27.45	-52.6	-54.4	14.5	0.00e+00	0	26	0	440401920	70	4677
2026-01-13 10:31:24.62	190.71	27.61	-52.6	-54.5	14.4	0.00e+00	0	26	0	442499072	70	4736
2026-01-13 10:31:25.61	190.85	27.76	-52.7	-54.6	14.4	0.00e+00	0	26	0	443547648	70	4806
2026-01-13 10:31:26.61	190.99	27.92	-52.8	-54.7	14.3	0.00e+00	0	26	0	445644800	70	4856
2026-01-13 10:31:27.60	191.13	28.08	-53.0	-54.9	14.4	0.00e+00	0	26	0	447741952	71	4668
2026-01-13 10:31:28.59	191.27	28.24	-53.0	-54.9	14.4	0.00e+00	0	26	0	449839104	71	4675
2026-01-13 10:31:29.58	191.42	28.40	-53.1	-55.0	14.3	0.00e+00	0	26	0	451936256	71	4747
2026-01-13 10:31:30.58	191.57	28.56	-53.1	-55.1	14.3	0.00e+00	0	26	0	452984832	71	4771
2026-01-13 10:31:31.57	191.71	28.72	-53.2	-55.2	14.2	0.00e+00	0	26	0	455081984	71	4861
2026-01-13 10:31:32.57	191.86	28.89	-53.3	-55.4	14.1	0.00e+00	0	26	0	457179136	71	4934
2026-01-13 10:31:33.57	192.02	29.05	-53.5	-55.6	14.2	0.00e+00	0	26	0	459276288	72	4763
2026-01-13 10:31:34.56	192.17	29.21	-53.5	-55.6	14.2	0.00e+00	0	26	0	460324864	72	4791
2026-01-13 10:31:35.55	192.32	29.38	-53.5	-55.6	14.2	0.00e+00	0	26	0	462422016	72	4793
2026-01-13 10:31:36.55	192.48	29.54	-53.6	-55.7	14.1	0.00e+00	0	26	0	464519168	72	4861
2026-01-13 10:31:37.54	192.63	29.71	-53.8	-56.0	14.0	0.00e+00	0	26	0	466616320	72	4992
2026-01-13 10:31:38.53	192.79	29.87	-54.0	-56.2	13.9	0.00e+00	0	26	0	468713472	73	4841
2026-01-13 10:31:39.52	192.95	30.04	-54.1	-56.4	13.9	0.00e+00	0	26	0	469762048	73	4935
2026-01-13 10:31:40.51	193.11	30.21	-54.1	-56.4	13.9	0.00e+00	0	26	0	471859200	73	4983
2026-01-13 10:31:41.50	193.28	30.38	-54.4	-56.8	13.7	0.00e+00	0	26	0	473956352	73	5179
2026-01-13 10:31:42.49	193.44	30.55	-54.5	-57.0	13.7	0.00e+00	0	26	0	476053504	74	4987
2026-01-13 10:31:43.48	193.61	30.72	-54.6	-57.1	13.6	0.00e+00	0	26	0	477102080	74	5083
2026-01-13 10:31:44.48	193.78	30.89	-54.7	-57.2	13.5	0.00e+00	0	26	0	479199232	74	5154
2026-01-13 10:31:45.46	193.95	31.06	-54.7	-57.2	13.5	0.00e+00	0	26	0	481296384	74	5133
2026-01-13 10:31:46.46	194.12	31.23	-54.7	-57.2	13.5	0.00e+00	0	26	0	483393536	74	5136
2026-01-13 10:31:47.46	194.29	31.41	-54.6	-57.1	13.6	0.00e+00	0	26	0	485490688	74	5056
2026-01-13 10:31:48.46	194.47	31.58	-54.4	-56.7	13.8	0.00e+00	0	26	0	486539264	74	4851
2026-01-13 10:31:49.45	194.65	31.76	-54.2	-56.6	13.9	0.00e+00	0	26	0	488636416	74	4760
2026-01-13 10:31:50.45	194.83	31.93	-54.1	-56.4	14.0	0.00e+00	0	26	0	490733568	74	4689
2026-01-13 10:31:51.44	195.01	32.11	-54.1	-56.4	14.0	0.00e+00	0	26	0	492830720	74	4692
2026-01-13 10:31:52.43	195.19	32.29	-54.1	-56.4	14.0	0.00e+00	0	26	0	493879296	74	4685
2026-01-13 10:31:53.43	195.38	32.47	-54.1	-56.4	14.0	0.00e+00	0	26	0	495976448	74	4670
2026-01-13 10:31:54.42	195.57	32.64	-54.2	-56.6	13.9	0.00e+00	0	26	0	498073600	74	4771
2026-01-13 10:31:55.43	195.76	32.83	-54.2	-56.5	14.0	0.00e+00	0	26	0	500170752	74	4718
2026-01-13 10:31:56.43	195.95	33.01	-54.2	-56.5	13.9	0.00e+00	0	26	0	502267904	74	4752
2026-01-13 10:31:57.42	196.14	33.19	-54.3	-56.6	13.9	0.00e+00	0	26	0	503316480	74	4809
2026-01-13 10:31:58.41	196.34	33.37	-54.1	-56.3	14.0	0.00e+00	0	26	0	505413632	74	4630
2026-01-13 10:31:59.40	196.54	33.55	-53.9	-56.0	14.2	0.00e+00	0	26	0	507510784	74	4478
2026-01-13 10:32:00.40	196.74	33.74	-54.0	-56.2	14.2	0.00e+00	0	26	0	509607936	74	4551
2026-01-13 10:32:01.39	196.94	33.92	-53.8	-55.9	14.3	0.00e+00	0	26	0	510656512	74	4436
2026-01-13 10:32:02.39	197.14	34.11	-53.6	-55.7	14.4	0.00e+00	0	26	0	512753664	73	4575
2026-01-13 10:32:03.38	197.35	34.29	-53.6	-55.7	14.3	0.00e+00	0	26	0	514850816	73	4557
2026-01-13 10:32:04.37	197.56	34.48	-53.6	-55.7	14.3	0.00e+00	0	26	0	516947968	73	4549
2026-01-13 10:32:05.37	197.77	34.66	-53.7	-55.8	14.2	0.00e+00	0	26	0	519045120	73	4602
2026-01-13 10:32:06.36	197.98	34.85	-53.5	-55.5	14.3	0.00e+00	0	26	0	520093696	73	4493
2026-01-13 10:32:07.36	198.20	35.04	-53.5	-55.5	14.3	0.00e+00	0	26	0	522190848	73	4476
2026-01-13 10:32:08.35	198.42	35.23	-53.5	-55.6	14.3	0.00e+00	0	26	0	524288000	73	4508
2026-01-13 10:32:09.35	198.64	35.42	-53.4	-55.4	14.4	0.00e+00	0	26	0	526385152	73	4406
2026-01-13 10:32:10.34	198.87	35.61	-53.4	-55.3	14.4	0.00e+00	0	26	0	527433728	73	4387
2026-01-13 10:32:11.33	199.09	35.80	-53.4	-55.4	14.4	0.00e+00	0	26	0	529530880	73	4406
2026-01-13 10:32:12.33	199.32	35.99	-53.4	-55.3	14.5	0.00e+00	0	26	0	531628032	73	4388
2026-01-13 10:32:13.33	199.55	36.18	-53.2	-55.2	14.5	0.00e+00	0	26	0	533725184	73	4308
2026-01-13 10:32:14.32	199.79	36.38	-52.9	-54.7	14.6	0.00e+00	0	26	0	535822336	72	4316
2026-01-13 10:32:15.32	200.03	36.57	-52.8	-54.6	14.7	0.00e+00	0	26	0	536870912	72	4264
2026-01-13 10:32:16.31	200.27	36.76	-52.8	-54.6	14.7	0.00e+00	0	26	0	538968064	72	4259
2026-01-13 10:32:17.31	200.51	36.96	-52.6	-54.4	14.6	0.00e+00	0	26	0	541065216	71	4394
2026-01-13 10:32:18.30	200.75	37.15	-52.5	-54.3	14.7	0.00e+00	0	26	0	543162368	71	4355
2026-01-13 10:32:19.29	201.00	37.35	-52.5	-54.2	14.7	0.00e+00	0	26	0	544210944	71	4327
2026-01-13 10:32:20.28	201.25	37.54	-52.5	-54.3	14.7	0.00e+00	0	26	0	546308096	71	4348
2026-01-13 10:32:21.27	201.51	37.74	-52.5	-54.2	14.7	0.00e+00	0	26	0	548405248	71	4314
2026-01-13 10:32:22.26	201.76	37.94	-52.3	-54.0	14.8	0.00e+00	0	26	0	550502400	71	4205
2026-01-13 10:32:23.25	202.02	38.13	-52.3	-54.0	14.8	0.00e+00	0	26	0	552599552	71	4209
2026-01-13 10:32:24.24	202.28	38.33	-52.2	-53.9	14.7	0.00e+00	0	26	0	553648128	70	4399
2026-01-13 10:32:25.24	202.55	38.53	-52.1	-53.8	14.8	0.00e+00	0	26	0	555745280	70	4379
2026-01-13 10:32:26.24	202.82	38.73	-52.1	-53.8	14.8	0.00e+00	0	26	0	557842432	70	4342
2026-01-13 10:32:27.24	203.10	38.93	-52.1	-53.8	14.8	0.00e+00	0	26	0	559939584	70	4356
2026-01-13 10:32:28.23	203.37	39.13	-52.0	-53.6	14.8	0.00e+00	0	26	0	560988160	70	4286
2026-01-13 10:32:29.23	203.66	39.33	-52.0	-53.6	14.9	0.00e+00	0	26	0	563085312	70	4272
2026-01-13 10:32:30.23	203.94	39.54	-51.7	-53.3	15.0	0.00e+00	0	26	0	565182464	70	4128
2026-01-13 10:32:31.22	204.23	39.74	-51.7	-53.3	15.0	0.00e+00	0	26	0	567279616	70	4122
2026-01-13 10:32:32.21	204.52	39.94	-51.8	-53.4	14.9	0.00e+00	0	26	0	569376768	70	4170
2026-01-13 10:32:33.21	204.81	40.14	-51.9	-53.5	14.9	0.00e+00	0	26	0	570425344	70	4216
2026-01-13 10:32:34.20	205.11	40.34	-51.9	-53.5	14.9	0.00e+00	0	26	0	572522496	70	4225
2026-01-13 10:32:35.19	205.41	40.55	-51.9	-53.5	14.9	0.00e+00	0	26	0	574619648	70	4228
2026-01-13 10:32:36.18	205.71	40.75	-51.9	-53.5	14.9	0.00e+00	0	26	0	576716800	70	4237
2026-01-13 10:32:37.18	206.02	40.95	-51.9	-53.6	14.9	0.00e+00	0	26	0	577765376	70	4252
2026-01-13 10:32:38.18	206.34	41.16	-52.0	-53.7	14.8	0.00e+00	0	26	0	579862528	70	4305
2026-01-13 10:32:39.17	206.65	41.36	-52.2	-53.9	14.7	0.00e+00	0	26	0	581959680	70	4419
2026-01-13 10:32:40.17	206.97	41.57	-52.2	-53.9	14.7	0.00e+00	0	26	0	584056832	70	4429
2026-01-13 10:32:41.17	207.30	41.77	-52.4	-54.1	14.6	0.00e+00	0	26	0	586153984	70	4528
2026-01-13 10:32:42.16	207.63	41.97	-52.7	-54.4	14.5	0.00e+00	0	26	0	587202560	70	4704
2026-01-13 10:32:43.16	207.96	42.18	-52.7	-54.5	14.5	0.00e+00	0	26	0	589299712	70	4719
2026-01-13 10:32:44.15	208.30	42.38	-52.7	-54.6	14.4	0.00e+00	0	26	0	591396864	70	4762
2026-01-13 10:32:45.15	208.64	42.59	-52.7	-54.6	14.5	0.00e+00	0	26	0	593494016	70	4770
2026-01-13 10:32:46.14	208.99	42.79	-52.8	-54.7	14.4	0.00e+00	0	26	0	594542592	70	4834
2026-01-13 10:32:47.13	209.33	43.00	-52.8	-54.6	14.4	0.00e+00	0	26	0	596639744	70	4782
2026-01-13 10:32:48.13	209.69	43.20	-52.8	-54.7	14.4	0.00e+00	0	26	0	598736896	70	4828
2026-01-13 10:32:49.12	210.05	43.41	-52.9	-54.7	14.4	0.00e+00	0	26	0	600834048	70	4850
2026-01-13 10:32:50.12	210.41	43.61	-53.2	-55.2	14.3	0.00e+00	0	26	0	602931200	71	4843
2026-01-13 10:32:51.12	210.78	43.82	-53.5	-55.5	14.2	0.00e+00	0	26	0	603979776	72	4745
2026-01-13 10:32:52.11	211.15	44.02	-53.8	-56.0	14.0	0.00e+00	0	26	0	606076928	72	4985
2026-01-13 10:32:53.10	211.53	44.22	-53.7	-55.7	14.2	0.00e+00	0	26	0	608174080	72	4859
2026-01-13 10:32:54.10	211.91	44.43	-53.6	-55.6	14.2	0.00e+00	0	26	0	610271232	72	4804
2026-01-13 10:32:55.10	212.30	44.63	-53.5	-55.5	14.3	0.00e+00	0	26	0	611319808	72	4714
2026-01-13 10:32:56.09	212.69	44.83	-53.4	-55.4	14.3	0.00e+00	0	26	0	613416960	72	4684
2026-01-13 10:32:57.08	213.09	45.03	-53.1	-55.1	14.5	0.00e+00	0	26	0	615514112	72	4495
2026-01-13 10:32:58.08	213.49	45.24	-53.3	-55.2	14.4	0.00e+00	0	26	0	617611264	72	4596
2026-01-13 10:32:59.09	213.91	45.44	-53.8	-55.9	14.1	0.00e+00	0	26	0	619708416	72	4968
2026-01-13 10:33:00.09	214.32	45.64	-54.2	-56.5	13.8	0.00e+00	0	26	0	620756992	73	5031
2026-01-13 10:33:01.09	214.74	45.84	-54.7	-57.1	13.6	0.00e+00	0	26	0	622854144	74	5084
2026-01-13 10:33:02.09	215.17	46.04	-54.7	-57.2	13.6	0.00e+00	0	26	0	624951296	74	5141
2026-01-13 10:33:03.09	215.60	46.24	-54.7	-57.2	13.6	0.00e+00	0	26	0	627048448	74	5145
2026-01-13 10:33:04.08	216.03	46.44	-54.5	-56.9	13.8	0.00e+00	0	26	0	629145600	74	4930
2026-01-13 10:33:05.08	216.47	46.64	-54.4	-56.7	13.9	0.00e+00	0	26	0	630194176	74	4861
2026-01-13 10:33:06.08	216.91	46.84	-54.5	-56.9	13.8	0.00e+00	0	26	0	632291328	74	4931
2026-01-13 10:33:07.06	217.36	47.03	-54.7	-57.2	13.6	0.00e+00	0	26	0	634388480	74	5137
2026-01-13 10:33:08.05	217.81	47.22	-54.8	-57.3	13.6	0.00e+00	0	26	0	636485632	74	5165
2026-01-13 10:33:09.03	218.27	47.41	-54.7	-57.2	13.6	0.00e+00	0	26	0	637534208	74	5121
2026-01-13 10:33:10.02	218.73	47.60	-54.5	-56.9	13.8	0.00e+00	0	26	0	639631360	74	4957
2026-01-13 10:33:11.01	219.20	47.79	-54.4	-56.8	13.8	0.00e+00	0	26	0	641728512	74	4873
2026-01-13 10:33:12.01	219.68	47.98	-54.2	-56.4	14.0	0.00e+00	0	26	0	643825664	74	4697
2026-01-13 10:33:13.00	220.16	48.17	-54.4	-56.7	13.9	0.00e+00	0	26	0	645922816	74	4859
2026-01-13 10:33:13.99	220.65	48.36	-54.6	-57.0	13.8	0.00e+00	0	26	0	646971392	74	4997
2026-01-13 10:33:14.98	221.14	48.54	-54.7	-57.1	13.6	0.00e+00	0	26	0	649068544	74	5082
2026-01-13 10:33:15.99	221.65	48.73	-54.6	-57.0	13.8	0.00e+00	0	26	0	651165696	74	4996
2026-01-13 10:33:16.98	222.15	48.91	-54.5	-56.9	13.8	0.00e+00	0	26	0	653262848	74	4973
2026-01-13 10:33:17.97	222.67	49.09	-54.4	-56.7	13.9	0.00e+00	0	26	0	654311424	74	4826
2026-01-13 10:33:18.96	223.18	49.27	-53.9	-56.0	14.3	0.00e+00	0	26	0	656408576	74	4470
2026-01-13 10:33:19.97	223.72	49.45	-53.8	-55.9	14.4	0.00e+00	0	26	0	658505728	74	4400
2026-01-13 10:33:20.96	224.24	49.62	-53.6	-55.6	14.4	0.00e+00	0	26	0	660602880	73	4507
2026-01-13 10:33:21.95	224.78	49.79	-53.5	-55.4	14.4	0.00e+00	0	26	0	662700032	73	4429
2026-01-13 10:33:22.94	225.32	49.96	-53.8	-55.9	14.2	0.00e+00	0	26	0	663748608	73	4702
2026-01-13 10:33:23.93	225.87	50.13	-54.2	-56.4	14.0	0.00e+00	0	26	0	665845760	73	4947
2026-01-13 10:33:24.93	226.42	50.30	-54.0	-56.2	14.1	0.00e+00	0	26	0	667942912	73	4839
2026-01-13 10:33:25.93	226.99	50.47	-53.6	-55.6	14.3	0.00e+00	0	26	0	670040064	73	4526
2026-01-13 10:33:26.92	227.55	50.63	-53.2	-55.1	14.6	0.00e+00	0	26	0	671088640	73	4269
2026-01-13 10:33:27.92	228.13	50.79	-53.0	-54.8	14.6	0.00e+00	0	26	0	673185792	72	4376
2026-01-13 10:33:28.90	228.70	50.94	-52.6	-54.3	14.7	0.00e+00	0	26	0	675282944	71	4384
2026-01-13 10:33:29.90	229.29	51.10	-52.5	-54.2	14.7	0.00e+00	0	26	0	677380096	71	4318
2026-01-13 10:33:30.90	229.88	51.25	-52.6	-54.4	14.6	0.00e+00	0	26	0	679477248	71	4401
2026-01-13 10:33:31.90	230.48	51.40	-52.4	-54.1	14.8	0.00e+00	0	26	0	680525824	71	4253
2026-01-13 10:33:32.89	231.09	51.55	-51.8	-53.4	15.0	0.00e+00	0	26	0	682622976	70	4175
2026-01-13 10:33:33.89	231.70	51.70	-51.5	-53.1	15.0	0.00e+00	0	26	0	684720128	69	4246
2026-01-13 10:33:34.88	232.31	51.84	-51.7	-53.2	14.9	0.00e+00	0	26	0	686817280	69	4333
2026-01-13 10:33:35.87	232.93	51.98	-52.0	-53.7	14.7	0.00e+00	0	26	0	687865856	69	4563
2026-01-13 10:33:36.87	233.56	52.11	-52.7	-54.4	14.5	0.00e+00	0	26	0	689963008	70	4699
2026-01-13 10:33:37.87	234.19	52.24	-52.6	-54.4	14.5	0.00e+00	0	26	0	692060160	70	4670
2026-01-13 10:33:38.86	234.83	52.37	-52.1	-53.7	14.8	0.00e+00	0	26	0	694157312	70	4329
2026-01-13 10:33:39.86	235.47	52.50	-51.5	-53.0	15.0	0.00e+00	0	26	0	696254464	69	4240
2026-01-13 10:33:40.85	236.12	52.62	-51.3	-52.7	15.1	0.00e+00	0	26	0	697303040	69	4092
2026-01-13 10:33:41.84	236.77	52.74	-51.3	-52.8	15.1	0.00e+00	0	26	0	699400192	69	4134
2026-01-13 10:33:42.83	237.43	52.85	-51.7	-53.2	14.9	0.00e+00	0	26	0	701497344	69	4340
2026-01-13 10:33:43.82	238.09	52.97	-51.8	-53.4	14.8	0.00e+00	0	26	0	703594496	69	4430
2026-01-13 10:33:44.82	238.76	53.08	-51.8	-53.4	14.8	0.00e+00	0	26	0	704643072	69	4403
2026-01-13 10:33:45.81	239.43	53.18	-51.6	-53.1	15.0	0.00e+00	0	26	0	706740224	69	4270
2026-01-13 10:33:46.80	240.11	53.28	-51.6	-53.1	14.9	0.00e+00	0	26	0	708837376	69	4266
2026-01-13 10:33:47.79	240.79	53.38	-51.3	-52.8	15.1	0.00e+00	0	26	0	710934528	69	4141
2026-01-13 10:33:48.79	241.48	53.47	-51.6	-53.2	14.9	0.00e+00	0	26	0	711983104	69	4325
2026-01-13 10:33:49.78	242.17	53.56	-51.9	-53.6	14.8	0.00e+00	0	26	0	714080256	69	4497
2026-01-13 10:33:50.77	242.86	53.64	-52.3	-54.1	14.5	0.00e+00	0	26	0	716177408	69	4761
2026-01-13 10:33:51.77	243.56	53.72	-52.3	-53.9	14.6	0.00e+00	0	26	0	718274560	69	4705
2026-01-13 10:33:52.77	244.27	53.80	-52.2	-53.9	14.6	0.00e+00	0	26	0	720371712	69	4668
2026-01-13 10:33:53.76	244.97	53.87	-52.0	-53.6	14.7	0.00e+00	0	26	0	721420288	69	4516
2026-01-13 10:33:54.77	245.69	53.94	-52.0	-53.6	14.7	0.00e+00	0	26	0	723517440	69	4545
2026-01-13 10:33:55.77	246.41	54.01	-52.2	-53.9	14.6	0.00e+00	0	26	0	725614592	69	4687
2026-01-13 10:33:56.76	247.13	54.07	-52.7	-54.4	14.5	0.00e+00	0	26	0	727711744	70	4693
2026-01-13 10:33:57.75	247.84	54.12	-52.7	-54.5	14.5	0.00e+00	0	26	0	729808896	70	4749
2026-01-13 10:33:58.75	248.57	54.17	-52.5	-54.2	14.6	0.00e+00	0	26	0	730857472	70	4577
2026-01-13 10:33:59.76	249.30	54.22	-52.0	-53.7	14.8	0.00e+00	0	26	0	732954624	70	4292
2026-01-13 10:34:00.73	250.01	54.26	-51.9	-53.4	15.0	0.00e+00	0	26	0	735051776	70	4189
2026-01-13 10:34:01.72	250.74	54.30	-52.0	-53.6	14.9	0.00e+00	0	26	0	737148928	70	4247
2026-01-13 10:34:02.71	251.47	54.33	-52.1	-53.7	14.8	0.00e+00	0	26	0	738197504	70	4328
2026-01-13 10:34:03.71	252.20	54.36	-52.3	-54.0	14.7	0.00e+00	0	26	0	740294656	70	4455
2026-01-13 10:34:04.70	252.93	54.38	-52.3	-54.0	14.7	0.00e+00	0	26	0	742391808	70	4467
2026-01-13 10:34:05.70	253.67	54.40	-52.2	-53.9	14.7	0.00e+00	0	26	0	744488960	70	4428
2026-01-13 10:34:06.71	254.42	54.42	-52.2	-53.9	14.7	0.00e+00	0	26	0	746586112	70	4407
2026-01-13 10:34:07.70	255.15	54.43	-52.4	-54.1	14.7	0.00e+00	0	26	0	747634688	70	4498
2026-01-13 10:34:08.69	255.88	54.43	-52.5	-54.2	14.6	0.00e+00	0	26	0	749731840	70	4553
2026-01-13 10:34:09.69	256.62	54.43	-52.4	-54.1	14.6	0.00e+00	0	26	0	751828992	70	4519
2026-01-13 10:34:10.68	257.36	54.43	-51.8	-53.4	15.0	0.00e+00	0	26	0	753926144	70	4188
2026-01-13 10:34:11.67	258.09	54.42	-51.9	-53.5	14.9	0.00e+00	0	26	0	754974720	70	4225
2026-01-13 10:34:12.66	258.82	54.40	-52.2	-53.9	14.8	0.00e+00	0	26	0	757071872	70	4433
2026-01-13 10:34:13.66	259.56	54.39	-52.6	-54.3	14.6	0.00e+00	0	26	0	759169024	70	4642
2026-01-13 10:34:14.65	260.29	54.36	-52.6	-54.3	14.6	0.00e+00	0	26	0	761266176	70	4638
2026-01-13 10:34:15.65	261.03	54.34	-52.3	-54.0	14.7	0.00e+00	0	26	0	762314752	70	4462
2026-01-13 10:34:16.64	261.75	54.30	-51.8	-53.4	15.0	0.00e+00	0	26	0	764411904	70	4181
2026-01-13 10:34:17.64	262.49	54.27	-51.5	-53.0	15.0	0.00e+00	0	26	0	766509056	69	4215
2026-01-13 10:34:18.63	263.21	54.23	-51.1	-52.5	15.0	0.00e+00	0	26	0	768606208	68	4237
2026-01-13 10:34:19.63	263.94	54.18	-51.0	-52.4	15.1	0.00e+00	0	26	0	770703360	68	4181
2026-01-13 10:34:20.63	264.66	54.13	-51.0	-52.5	15.1	0.00e+00	0	26	0	771751936	68	4220
2026-01-13 10:34:21.63	265.39	54.07	-51.1	-52.5	15.0	0.00e+00	0	26	0	773849088	68	4224
2026-01-13 10:34:22.61	266.09	54.02	-51.3	-52.8	14.9	0.00e+00	0	26	0	775946240	68	4383
2026-01-13 10:34:23.60	266.80	53.95	-51.1	-52.6	15.0	0.00e+00	0	26	0	778043392	68	4279
2026-01-13 10:34:24.58	267.51	53.89	-50.8	-52.2	15.2	0.00e+00	0	26	0	779091968	68	4070
2026-01-13 10:34:25.58	268.22	53.81	-50.4	-51.8	15.2	0.00e+00	0	26	0	781189120	67	4134
2026-01-13 10:34:26.58	268.92	53.74	-50.5	-51.9	15.1	0.00e+00	0	26	0	783286272	67	4174
2026-01-13 10:34:27.57	269.62	53.66	-50.5	-51.9	15.1	0.00e+00	0	26	0	785383424	67	4158
2026-01-13 10:34:28.55	270.31	53.58	-50.6	-52.0	15.1	0.00e+00	0	26	0	787480576	67	4240
2026-01-13 10:34:29.54	270.99	53.49	-51.1	-52.6	14.9	0.00e+00	0	26	0	788529152	67	4539
2026-01-13 10:34:30.54	271.69	53.39	-51.7	-53.3	14.7	0.00e+00	0	26	0	790626304	68	4631
2026-01-13 10:34:31.53	272.37	53.30	-52.4	-53.8	14.6	0.00e+00	0	26	0	792723456	69	4608
2026-01-13 10:34:32.53	273.05	53.20	-52.0	-53.7	14.7	0.00e+00	0	26	0	794820608	69	4548
2026-01-13 10:34:33.53	273.73	53.09	-52.2	-53.9	14.6	0.00e+00	0	26	0	795869184	69	4686
2026-01-13 10:34:34.52	274.39	52.99	-52.2	-53.8	14.7	0.00e+00	0	26	0	797966336	69	4645
2026-01-13 10:34:35.52	275.06	52.88	-51.9	-53.5	14.8	0.00e+00	0	26	0	800063488	69	4450
2026-01-13 10:34:36.50	275.71	52.76	-51.7	-53.2	14.9	0.00e+00	0	26	0	802160640	69	4331
2026-01-13 10:34:37.50	276.37	52.64	-51.6	-53.1	15.0	0.00e+00	0	26	0	804257792	69	4268
2026-01-13 10:34:38.49	277.01	52.52	-51.9	-53.5	14.8	0.00e+00	0	26	0	805306368	69	4464
2026-01-13 10:34:39.49	277.66	52.40	-52.1	-53.7	14.7	0.00e+00	0	26	0	807403520	69	4596
2026-01-13 10:34:40.49	278.30	52.27	-52.1	-53.8	14.7	0.00e+00	0	26	0	809500672	69	4616
2026-01-13 10:34:41.48	278.93	52.14	-52.0	-53.6	14.7	0.00e+00	0	26	0	811597824	69	4524
2026-01-13 10:34:42.46	279.55	52.00	-52.0	-53.6	14.7	0.00e+00	0	26	0	812646400	69	4515
2026-01-13 10:34:43.46	280.17	51.87	-52.0	-53.7	14.7	0.00e+00	0	26	0	814743552	69	4558
2026-01-13 10:34:44.45	280.78	51.73	-52.1	-53.8	14.7	0.00e+00	0	26	0	816840704	69	4633
2026-01-13 10:34:45.46	281.40	51.58	-52.4	-54.1	14.5	0.00e+00	0	26	0	818937856	69	4813
2026-01-13 10:34:46.46	282.01	51.43	-52.6	-54.3	14.6	0.00e+00	0	26	0	821035008	70	4647
2026-01-13 10:34:47.45	282.60	51.28	-52.4	-54.1	14.7	0.00e+00	0	26	0	822083584	70	4530
2026-01-13 10:34:48.45	283.20	51.13	-52.4	-54.1	14.7	0.00e+00	0	26	0	824180736	70	4516
2026-01-13 10:34:49.45	283.79	50.98	-52.5	-54.2	14.6	0.00e+00	0	26	0	826277888	70	4590
2026-01-13 10:34:50.45	284.37	50.82	-52.9	-54.7	14.5	0.00e+00	0	26	0	828375040	71	4584
2026-01-13 10:34:51.44	284.94	50.66	-53.2	-55.1	14.4	0.00e+00	0	26	0	829423616	71	4779
2026-01-13 10:34:52.43	285.50	50.50	-53.5	-55.5	14.3	0.00e+00	0	26	0	831520768	72	4720
2026-01-13 10:34:53.42	286.06	50.34	-53.9	-56.0	14.1	0.00e+00	0	26	0	833617920	72	5017
2026-01-13 10:34:54.42	286.62	50.17	-54.6	-56.9	13.8	0.00e+00	0	26	0	835715072	74	4980
2026-01-13 10:34:55.40	287.16	50.00	-55.4	-58.1	13.3	0.00e+00	0	26	0	837812224	75	5350
2026-01-13 10:34:56.40	287.71	49.83	-55.6	-58.4	13.2	0.00e+00	0	26	0	838860800	76	5264
2026-01-13 10:34:57.39	288.24	49.66	-55.8	-58.7	13.1	0.00e+00	0	26	0	840957952	76	5418
2026-01-13 10:34:58.38	288.77	49.49	-55.6	-58.5	13.2	0.00e+00	0	26	0	843055104	76	5292
2026-01-13 10:34:59.36	289.29	49.31	-55.5	-58.2	13.4	0.00e+00	0	26	0	845152256	76	5144
2026-01-13 10:35:00.36	289.81	49.13	-55.6	-58.4	13.2	0.00e+00	0	26	0	846200832	76	5278
2026-01-13 10:35:01.35	290.32	48.95	-56.4	-59.8	12.5	0.00e+00	0	26	0	848297984	77	5824
2026-01-13 10:35:02.35	290.83	48.77	-56.9	-60.7	12.0	7.00e-07	0	26	0	850395136	78	6099
2026-01-13 10:35:03.34	291.33	48.59	-56.7	-60.2	12.4	1.50e-06	0	26	0	852492288	79	5419
2026-01-13 10:35:04.33	291.83	48.41	-56.3	-59.5	12.8	0.00e+00	0	26	0	854589440	79	5036
2026-01-13 10:35:05.34	292.32	48.22	-55.9	-58.8	13.2	0.00e+00	0	26	0	855638016	78	4901
2026-01-13 10:35:06.33	292.80	48.03	-56.1	-59.1	13.0	0.00e+00	0	26	0	857735168	78	5064
2026-01-13 10:35:07.33	293.29	47.84	-56.8	-60.4	12.2	0.00e+00	0	26	0	859832320	78	5899
2026-01-13 10:35:08.32	293.76	47.65	-57.6	-62.2	11.0	2.59e-05	0	26	0	861929472	80	6457
2026-01-13 10:35:09.32	294.22	47.46	-57.0	-60.8	12.0	2.21e-05	0	26	0	862978048	80	5498
2026-01-13 10:35:10.32	294.69	47.27	-55.6	-58.3	13.3	0.00e+00	0	26	0	865075200	77	4914
2026-01-13 10:35:11.30	295.14	47.08	-55.3	-57.9	13.6	0.00e+00	0	26	0	867172352	77	4673
2026-01-13 10:35:12.30	295.59	46.88	-55.5	-58.2	13.5	0.00e+00	0	26	0	869269504	77	4845
2026-01-13 10:35:13.30	296.04	46.68	-55.9	-58.8	13.1	0.00e+00	0	26	0	871366656	77	5190
2026-01-13 10:35:14.29	296.47	46.49	-55.6	-58.3	13.4	0.00e+00	0	26	0	872415232	77	4901
2026-01-13 10:35:15.28	296.90	46.29	-54.2	-56.4	14.2	0.00e+00	0	26	0	874512384	75	4410
2026-01-13 10:35:16.27	297.33	46.10	-53.3	-55.1	14.6	0.00e+00	0	26	0	876609536	73	4276
2026-01-13 10:35:17.27	297.76	45.90	-53.1	-54.9	14.6	0.00e+00	0	26	0	878706688	72	4427
2026-01-13 10:35:18.27	298.17	45.70	-53.3	-55.2	14.5	0.00e+00	0	26	0	879755264	72	4548
2026-01-13 10:35:19.26	298.59	45.50	-53.6	-55.6	14.2	0.00e+00	0	26	0	881852416	72	4792
2026-01-13 10:35:20.25	298.99	45.30	-54.2	-56.4	14.0	0.00e+00	0	26	0	883949568	73	4970
2026-01-13 10:35:21.25	299.39	45.10	-54.9	-57.4	13.6	0.00e+00	0	26	0	886046720	74	5225
2026-01-13 10:35:22.24	299.79	44.90	-54.6	-57.0	13.8	0.00e+00	0	26	0	888143872	74	4986
2026-01-13 10:35:23.24	300.18	44.69	-54.2	-56.4	14.1	0.00e+00	0	26	0	889192448	74	4673
2026-01-13 10:35:24.22	300.57	44.49	-53.9	-55.9	14.4	0.00e+00	0	26	0	891289600	74	4412
2026-01-13 10:35:25.22	300.95	44.29	-53.5	-55.5	14.4	0.00e+00	0	26	0	893386752	73	4446
2026-01-13 10:35:26.21	301.33	44.09	-53.9	-55.9	14.2	0.00e+00	0	26	0	895483904	73	4693
2026-01-13 10:35:27.21	301.70	43.89	-54.7	-57.1	13.8	0.00e+00	0	26	0	896532480	74	5048
2026-01-13 10:35:28.20	302.07	43.68	-55.3	-57.9	13.4	0.00e+00	0	26	0	898629632	75	5271
2026-01-13 10:35:29.19	302.43	43.48	-55.4	-58.0	13.5	0.00e+00	0	26	0	900726784	76	5036
2026-01-13 10:35:30.19	302.79	43.28	-54.5	-56.8	14.0	0.00e+00	0	26	0	902823936	75	4608
2026-01-13 10:35:31.18	303.14	43.07	-53.4	-55.3	14.6	0.00e+00	0	26	0	904921088	73	4344
2026-01-13 10:35:32.17	303.49	42.87	-52.9	-54.7	14.7	0.00e+00	0	26	0	905969664	72	4318
2026-01-13 10:35:33.16	303.84	42.67	-53.1	-54.9	14.6	0.00e+00	0	26	0	908066816	72	4419
2026-01-13 10:35:34.15	304.18	42.46	-54.3	-56.5	14.0	0.00e+00	0	26	0	910163968	73	4986
2026-01-13 10:35:35.14	304.51	42.26	-55.9	-58.9	13.0	0.00e+00	0	26	0	912261120	76	5568
2026-01-13 10:35:36.13	304.85	42.06	-56.9	-60.8	12.0	1.50e-06	0	26	0	913309696	78	6133
2026-01-13 10:35:37.13	305.18	41.85	-56.3	-59.5	12.8	7.00e-07	0	26	0	915406848	79	5018
2026-01-13 10:35:38.12	305.50	41.65	-55.6	-58.3	13.4	0.00e+00	0	26	0	917504000	77	4895
2026-01-13 10:35:39.12	305.82	41.45	-55.3	-57.8	13.7	0.00e+00	0	26	0	919601152	77	4642
2026-01-13 10:35:40.12	306.14	41.24	-55.3	-57.9	13.6	0.00e+00	0	26	0	921698304	77	4670
2026-01-13 10:35:41.13	306.46	41.04	-56.0	-59.0	13.0	0.00e+00	0	26	0	922746880	77	5318
2026-01-13 10:35:42.13	306.77	40.83	-56.9	-60.6	12.0	7.00e-07	0	26	0	924844032	78	6061
2026-01-13 10:35:43.12	307.08	40.63	-57.7	-62.4	10.8	9.53e-05	0	26	0	926941184	80	6619
2026-01-13 10:35:44.11	307.38	40.43	-57.1	-61.2	11.7	1.20e-04	0	26	0	929038336	80	5744
2026-01-13 10:35:45.12	307.68	40.23	-56.2	-59.3	13.0	0.00e+00	0	26	0	930086912	79	4878
2026-01-13 10:35:46.11	307.97	40.02	-55.8	-58.6	13.3	0.00e+00	0	26	0	932184064	78	4790
2026-01-13 10:35:47.10	308.26	39.82	-55.5	-58.2	13.5	0.00e+00	0	26	0	934281216	77	4849
2026-01-13 10:35:48.09	308.55	39.62	-55.6	-58.3	13.4	0.00e+00	0	26	0	936378368	77	4872
2026-01-13 10:35:49.08	308.83	39.42	-56.6	-60.0	12.4	0.00e+00	0	26	0	938475520	78	5630
2026-01-13 10:35:50.07	309.11	39.23	-58.2	-63.8	9.8	1.66e-04	0	26	0	939524096	81	7367
2026-01-13 10:35:51.05	309.38	39.03	-58.7	-65.6	8.2	2.48e-02	0	26	0	941621248	82	8485
2026-01-13 10:35:52.05	309.66	38.83	-57.5	-62.0	11.1	7.91e-03	0	26	0	943718400	81	5954
2026-01-13 10:35:53.04	309.93	38.63	-56.5	-59.8	12.6	7.00e-07	0	26	0	945815552	79	5197
2026-01-13 10:35:54.03	310.19	38.43	-56.1	-59.1	12.9	0.00e+00	0	26	0	946864128	78	5099
2026-01-13 10:35:55.03	310.46	38.23	-55.6	-58.3	13.4	0.00e+00	0	26	0	948961280	77	4906
2026-01-13 10:35:56.02	310.72	38.04	-55.8	-58.7	13.1	0.00e+00	0	26	0	951058432	77	5148
2026-01-13 10:35:57.02	310.98	37.84	-56.1	-59.2	12.8	0.00e+00	0	26	0	953155584	77	5440
2026-01-13 10:35:58.01	311.23	37.64	-57.0	-60.9	11.8	1.50e-06	0	26	0	955252736	79	5909
2026-01-13 10:35:58.99	311.48	37.45	-57.4	-61.8	11.3	2.21e-05	0	26	0	956301312	80	6136
2026-01-13 10:35:59.98	311.73	37.26	-57.0	-60.9	12.0	2.74e-05	0	26	0	958398464	80	5548
2026-01-13 10:36:00.97	311.97	37.06	-56.0	-58.9	13.1	0.00e+00	0	26	0	960495616	78	4974
2026-01-13 10:36:01.96	312.21	36.87	-54.7	-57.0	14.0	0.00e+00	0	26	0	962592768	76	4450
2026-01-13 10:36:02.95	312.45	36.68	-53.8	-55.8	14.4	0.00e+00	0	26	0	963641344	74	4379
2026-01-13 10:36:03.95	312.69	36.48	-53.5	-55.4	14.4	0.00e+00	0	26	0	965738496	73	4438
2026-01-13 10:36:04.94	312.93	36.29	-53.3	-55.2	14.6	0.00e+00	0	26	0	967835648	73	4309
2026-01-13 10:36:05.94	313.16	36.10	-53.8	-55.8	14.3	0.00e+00	0	26	0	969932800	73	4628
2026-01-13 10:36:06.93	313.39	35.91	-54.7	-57.0	13.8	0.00e+00	0	26	0	970981376	74	5031
2026-01-13 10:36:07.92	313.61	35.72	-55.5	-58.3	13.3	0.00e+00	0	26	0	973078528	76	5203
2026-01-13 10:36:08.92	313.84	35.53	-55.5	-58.3	13.2	0.00e+00	0	26	0	975175680	76	5213
2026-01-13 10:36:09.91	314.06	35.34	-55.2	-57.8	13.6	0.00e+00	0	26	0	977272832	76	4893
2026-01-13 10:36:10.90	314.28	35.15	-54.8	-57.2	13.9	0.00e+00	0	26	0	979369984	76	4548
2026-01-13 10:36:11.90	314.50	34.97	-54.5	-56.8	13.9	0.00e+00	0	26	0	980418560	75	4651
2026-01-13 10:36:12.89	314.71	34.78	-54.3	-56.4	14.2	0.00e+00	0	26	0	982515712	75	4436
2026-01-13 10:36:13.87	314.92	34.60	-54.2	-56.3	14.1	0.00e+00	0	26	0	984612864	74	4636
2026-01-13 10:36:14.87	315.13	34.41	-54.4	-56.6	14.0	0.00e+00	0	26	0	986710016	74	4787
2026-01-13 10:36:15.86	315.34	34.23	-54.5	-56.9	13.8	0.00e+00	0	26	0	987758592	74	4935
2026-01-13 10:36:16.86	315.54	34.04	-55.1	-57.7	13.5	0.00e+00	0	26	0	989855744	75	5130
2026-01-13 10:36:17.85	315.75	33.86	-55.5	-58.3	13.3	0.00e+00	0	26	0	991952896	76	5212
2026-01-13 10:36:18.84	315.95	33.68	-55.8	-58.8	12.9	0.00e+00	0	26	0	994050048	76	5473
2026-01-13 10:36:19.84	316.15	33.49	-55.9	-59.0	12.9	0.00e+00	0	26	0	996147200	77	5330
2026-01-13 10:36:20.83	316.34	33.31	-55.4	-58.2	13.4	0.00e+00	0	26	0	997195776	77	4838
2026-01-13 10:36:21.82	316.53	33.13	-54.8	-57.2	13.9	0.00e+00	0	26	0	999292928	76	4579
2026-01-13 10:36:22.81	316.73	32.95	-54.3	-56.6	14.1	0.00e+00	0	26	0	1001390080	75	4496
2026-01-13 10:36:23.80	316.92	32.78	-54.0	-56.2	14.2	0.00e+00	0	26	0	1003487232	74	4550
2026-01-13 10:36:24.80	317.10	32.60	-53.9	-56.0	14.3	0.00e+00	0	26	0	1004535808	74	4472
2026-01-13 10:36:25.79	317.29	32.42	-54.2	-56.3	14.1	0.00e+00	0	26	0	1006632960	74	4640
2026-01-13 10:36:26.78	317.47	32.24	-54.7	-57.0	13.7	0.00e+00	0	26	0	1008730112	74	5040
2026-01-13 10:36:27.79	317.66	32.06	-55.0	-57.5	13.6	0.00e+00	0	26	0	1010827264	75	5013
2026-01-13 10:36:28.78	317.84	31.89	-55.7	-58.6	13.1	0.00e+00	0	26	0	1012924416	76	5343
2026-01-13 10:36:29.77	318.02	31.72	-56.1	-59.3	12.7	0.00e+00	0	26	0	1013972992	77	5518
2026-01-13 10:36:30.76	318.19	31.54	-56.3	-59.7	12.4	0.00e+00	0	26	0	1016070144	77	5764
2026-01-13 10:36:31.75	318.36	31.37	-56.3	-59.8	12.4	0.00e+00	0	26	0	1018167296	77	5825
2026-01-13 10:36:32.74	318.54	31.20	-56.1	-59.3	12.7	0.00e+00	0	26	0	1020264448	77	5513
2026-01-13 10:36:33.73	318.71	31.03	-55.9	-58.9	12.9	0.00e+00	0	26	0	1021313024	77	5264
2026-01-13 10:36:34.73	318.88	30.86	-55.5	-58.3	13.3	0.00e+00	0	26	0	1023410176	77	4920
2026-01-13 10:36:35.72	319.04	30.69	-55.4	-58.2	13.4	0.00e+00	0	26	0	1025507328	77	4832
2026-01-13 10:36:36.71	319.21	30.52	-55.0	-57.5	13.7	0.00e+00	0	26	0	1027604480	76	4750
2026-01-13 10:36:37.71	319.37	30.35	-54.8	-57.1	13.9	0.00e+00	0	26	0	1029701632	76	4538
2026-01-13 10:36:38.70	319.54	30.18	-54.8	-57.1	13.9	0.00e+00	0	26	0	1030750208	76	4527
2026-01-13 10:36:39.70	319.70	30.01	-54.6	-57.0	13.9	0.00e+00	0	26	0	1032847360	75	4711
2026-01-13 10:36:40.70	319.86	29.85	-54.9	-57.4	13.6	0.00e+00	0	26	0	1034944512	75	4941
2026-01-13 10:36:41.69	320.02	29.68	-54.9	-57.5	13.6	0.00e+00	0	26	0	1037041664	75	5007
2026-01-13 10:36:42.68	320.17	29.52	-55.0	-57.5	13.6	0.00e+00	0	26	0	1038090240	75	5032
2026-01-13 10:36:43.67	320.33	29.35	-55.0	-57.7	13.4	0.00e+00	0	26	0	1040187392	75	5103
2026-01-13 10:36:44.66	320.48	29.19	-54.7	-57.2	13.8	0.00e+00	0	26	0	1042284544	75	4823
2026-01-13 10:36:45.66	320.63	29.03	-54.6	-57.0	13.9	0.00e+00	0	26	0	1044381696	75	4715
2026-01-13 10:36:46.65	320.78	28.86	-54.3	-56.5	14.1	0.00e+00	0	26	0	1046478848	75	4481
2026-01-13 10:36:47.65	320.93	28.70	-54.0	-56.1	14.2	0.00e+00	0	26	0	1047527424	74	4540
2026-01-13 10:36:48.64	321.08	28.54	-53.5	-55.5	14.4	0.00e+00	0	26	0	1049624576	73	4453
2026-01-13 10:36:49.63	321.22	28.38	-53.3	-55.2	14.5	0.00e+00	0	26	0	1051721728	73	4337
2026-01-13 10:36:50.62	321.37	28.22	-53.3	-55.2	14.5	0.00e+00	0	26	0	1053818880	73	4306
2026-01-13 10:36:51.62	321.51	28.07	-53.3	-55.2	14.5	0.00e+00	0	26	0	1054867456	73	4300
2026-01-13 10:36:52.61	321.65	27.91	-53.3	-55.2	14.6	0.00e+00	0	26	0	1056964608	73	4298
2026-01-13 10:36:53.61	321.79	27.75	-53.3	-55.2	14.5	0.00e+00	0	26	0	1059061760	73	4326
2026-01-13 10:36:54.60	321.93	27.59	-53.3	-55.2	14.5	0.00e+00	0	26	0	1061158912	73	4330
2026-01-13 10:36:55.59	322.07	27.44	-53.5	-55.5	14.4	0.00e+00	0	26	0	1062207488	73	4466
2026-01-13 10:36:56.59	322.20	27.28	-53.6	-55.6	14.4	0.00e+00	0	26	0	1064304640	73	4504
2026-01-13 10:36:57.59	322.34	27.13	-53.8	-55.8	14.2	0.00e+00	0	26	0	1066401792	73	4641
2026-01-13 10:36:58.58	322.47	26.98	-54.0	-56.1	14.0	0.00e+00	0	26	0	1068498944	73	4803
2026-01-13 10:36:59.57	322.61	26.82	-54.1	-56.3	13.9	0.00e+00	0	26	0	1070596096	73	4925
2026-01-13 10:37:00.57	322.74	26.67	-54.4	-56.8	13.7	0.00e+00	0	26	0	1071644672	73	5164
2026-01-13 10:37:01.56	322.87	26.52	-54.4	-56.8	13.7	0.00e+00	0	26	0	1073741824	73	5168
2026-01-13 10:37:02.56	323.00	26.37	-54.3	-56.7	13.8	0.00e+00	0	26	0	1075838976	73	5102
2026-01-13 10:37:03.55	323.13	26.22	-54.3	-56.6	13.8	0.00e+00	0	26	0	1077936128	73	5042
2026-01-13 10:37:04.55	323.25	26.07	-54.1	-56.4	13.9	0.00e+00	0	26	0	1078984704	73	4948
2026-01-13 10:37:05.54	323.38	25.92	-53.9	-56.1	14.1	0.00e+00	0	26	0	1081081856	73	4789
2026-01-13 10:37:06.53	323.50	25.78	-53.7	-55.8	14.2	0.00e+00	0	26	0	1083179008	73	4651
2026-01-13 10:37:07.53	323.63	25.63	-53.6	-55.7	14.3	0.00e+00	0	26	0	1085276160	73	4554
2026-01-13 10:37:08.52	323.75	25.48	-53.4	-55.4	14.4	0.00e+00	0	26	0	1087373312	73	4411
2026-01-13 10:37:09.51	323.87	25.34	-53.3	-55.3	14.5	0.00e+00	0	26	0	1088421888	73	4370
2026-01-13 10:37:10.51	323.99	25.19	-53.5	-55.5	14.3	0.00e+00	0	26	0	1090519040	73	4476
2026-01-13 10:37:11.50	324.11	25.05	-53.3	-55.3	14.5	0.00e+00	0	26	0	1092616192	73	4373
2026-01-13 10:37:12.50	324.23	24.90	-53.5	-55.5	14.4	0.00e+00	0	26	0	1094713344	73	4468
2026-01-13 10:37:13.49	324.34	24.76	-53.6	-55.6	14.3	0.00e+00	0	26	0	1095761920	73	4523
2026-01-13 10:37:14.49	324.46	24.62	-53.6	-55.6	14.3	0.00e+00	0	26	0	1097859072	73	4519
2026-01-13 10:37:15.49	324.58	24.47	-53.7	-55.8	14.2	0.00e+00	0	26	0	1099956224	73	4611
2026-01-13 10:37:16.48	324.69	24.33	-53.7	-55.8	14.1	0.00e+00	0	26	0	1102053376	73	4636
2026-01-13 10:37:17.48	324.80	24.19	-53.8	-55.9	14.1	0.00e+00	0	26	0	1104150528	73	4660
2026-01-13 10:37:18.47	324.91	24.05	-53.8	-55.9	14.2	0.00e+00	0	26	0	1105199104	73	4675
2026-01-13 10:37:19.47	325.03	23.91	-53.6	-55.7	14.3	0.00e+00	0	26	0	1107296256	73	4579
2026-01-13 10:37:20.47	325.14	23.77	-53.7	-55.8	14.2	0.00e+00	0	26	0	1109393408	73	4619
2026-01-13 10:37:21.46	325.25	23.64	-53.6	-55.6	14.3	0.00e+00	0	26	0	1111490560	73	4523
2026-01-13 10:37:22.45	325.35	23.50	-53.4	-55.4	14.4	0.00e+00	0	26	0	1113587712	73	4435
2026-01-13 10:37:23.45	325.46	23.36	-53.4	-55.3	14.4	0.00e+00	0	26	0	1114636288	73	4390
2026-01-13 10:37:24.44	325.57	23.23	-53.3	-55.2	14.5	0.00e+00	0	26	0	1116733440	73	4331
2026-01-13 10:37:25.44	325.67	23.09	-53.2	-55.1	14.5	0.00e+00	0	26	0	1118830592	73	4290
2026-01-13 10:37:26.42	325.78	22.96	-53.2	-55.2	14.4	0.00e+00	0	26	0	1120927744	72	4571
2026-01-13 10:37:27.41	325.88	22.82	-53.1	-55.1	14.4	0.00e+00	0	26	0	1121976320	72	4494
2026-01-13 10:37:28.40	325.98	22.69	-53.1	-55.0	14.5	0.00e+00	0	26	0	1124073472	72	4465
2026-01-13 10:37:29.39	326.09	22.56	-53.1	-55.0	14.4	0.00e+00	0	26	0	1126170624	72	4493
2026-01-13 10:37:30.38	326.19	22.43	-53.1	-55.1	14.4	0.00e+00	0	26	0	1128267776	72	4498
2026-01-13 10:37:31.38	326.29	22.29	-53.1	-55.0	14.5	0.00e+00	0	26	0	1129316352	72	4480
2026-01-13 10:37:32.37	326.39	22.16	-53.2	-55.2	14.4	0.00e+00	0	26	0	1131413504	72	4558
2026-01-13 10:37:33.36	326.49	22.03	-53.3	-55.3	14.3	0.00e+00	0	26	0	1133510656	72	4647
2026-01-13 10:37:34.36	326.58	21.90	-53.4	-55.5	14.2	0.00e+00	0	26	0	1135607808	72	4708
2026-01-13 10:37:35.35	326.68	21.77	-53.6	-55.7	14.1	0.00e+00	0	26	0	1137704960	72	4835
2026-01-13 10:37:36.33	326.78	21.65	-53.6	-55.7	14.1	0.00e+00	0	26	0	1138753536	72	4863
2026-01-13 10:37:37.33	326.87	21.52	-53.6	-55.8	14.1	0.00e+00	0	26	0	1140850688	72	4900
2026-01-13 10:37:38.32	326.97	21.39	-53.8	-56.0	13.9	0.00e+00	0	26	0	1142947840	72	5010
2026-01-13 10:37:39.31	327.06	21.26	-53.8	-56.1	13.9	0.00e+00	0	26	0	1145044992	72	5068
2026-01-13 10:37:40.31	327.16	21.14	-53.9	-56.2	14.0	0.00e+00	0	26	0	1146093568	73	4845
2026-01-13 10:37:41.31	327.25	21.01	-54.0	-56.2	13.9	0.00e+00	0	26	0	1148190720	73	4859
2026-01-13 10:37:42.30	327.34	20.89	-53.9	-56.1	14.0	0.00e+00	0	26	0	1150287872	73	4804
2026-01-13 10:37:43.29	327.43	20.76	-53.8	-56.1	14.0	0.00e+00	0	26	0	1152385024	73	4763
2026-01-13 10:37:44.27	327.52	20.64	-53.6	-55.8	14.2	0.00e+00	0	26	0	1154482176	73	4624
2026-01-13 10:37:45.28	327.61	20.51	-53.6	-55.7	14.2	0.00e+00	0	26	0	1155530752	73	4553
2026-01-13 10:37:46.27	327.70	20.39	-53.5	-55.5	14.3	0.00e+00	0	26	0	1157627904	73	4489
2026-01-13 10:37:47.27	327.79	20.27	-53.2	-55.2	14.5	0.00e+00	0	26	0	1159725056	73	4331
2026-01-13 10:37:48.27	327.88	20.14	-53.1	-55.0	14.4	0.00e+00	0	26	0	1161822208	72	4473
2026-01-13 10:37:49.26	327.97	20.02	-53.0	-54.9	14.5	0.00e+00	0	26	0	1162870784	72	4432
2026-01-13 10:37:50.26	328.06	19.90	-53.0	-54.9	14.5	0.00e+00	0	26	0	1164967936	72	4394
2026-01-13 10:37:51.25	328.14	19.78	-52.8	-54.6	14.6	0.00e+00	0	26	0	1167065088	72	4291
2026-01-13 10:37:52.25	328.23	19.66	-52.8	-54.6	14.6	0.00e+00	0	26	0	1169162240	72	4285
2026-01-13 10:37:53.25	328.31	19.54	-52.7	-54.5	14.7	0.00e+00	0	26	0	1171259392	72	4216
2026-01-13 10:37:54.25	328.40	19.42	-52.7	-54.5	14.7	0.00e+00	0	26	0	1172307968	72	4241
2026-01-13 10:37:55.25	328.48	19.30	-52.7	-54.5	14.7	0.00e+00	0	26	0	1174405120	72	4227
2026-01-13 10:37:56.24	328.56	19.18	-52.8	-54.6	14.6	0.00e+00	0	26	0	1176502272	72	4273
2026-01-13 10:37:57.24	328.65	19.07	-52.8	-54.7	14.6	0.00e+00	0	26	0	1178599424	72	4320
2026-01-13 10:37:58.23	328.73	18.95	-52.9	-54.8	14.5	0.00e+00	0	26	0	1179648000	72	4384
2026-01-13 10:37:59.23	328.81	18.83	-52.9	-54.9	14.5	0.00e+00	0	26	0	1181745152	72	4404
2026-01-13 10:38:00.22	328.89	18.72	-53.0	-54.9	14.5	0.00e+00	0	26	0	1183842304	72	4433
2026-01-13 10:38:01.22	328.97	18.60	-53.1	-55.1	14.4	0.00e+00	0	26	0	1185939456	72	4504
2026-01-13 10:38:02.22	329.05	18.49	-53.2	-55.2	14.3	0.00e+00	0	26	0	1188036608	72	4563
2026-01-13 10:38:03.22	329.13	18.37	-53.2	-55.2	14.3	0.00e+00	0	26	0	1189085184	72	4578
2026-01-13 10:38:04.21	329.21	18.26	-53.3	-55.4	14.2	0.00e+00	0	26	0	1191182336	72	4682
2026-01-13 10:38:05.21	329.29	18.14	-53.3	-55.3	14.2	0.00e+00	0	26	0	1193279488	72	4640
2026-01-13 10:38:06.20	329.36	18.03	-53.2	-55.3	14.3	0.00e+00	0	26	0	1195376640	72	4600
2026-01-13 10:38:07.19	329.44	17.92	-53.2	-55.2	14.3	0.00e+00	0	26	0	1196425216	72	4566
2026-01-13 10:38:08.19	329.52	17.81	-53.2	-55.2	14.3	0.00e+00	0	26	0	1198522368	72	4563
2026-01-13 10:38:09.18	329.59	17.69	-53.0	-55.0	14.4	0.00e+00	0	26	0	1200619520	72	4443
2026-01-13 10:38:10.17	329.67	17.58	-52.9	-54.9	14.5	0.00e+00	0	26	0	1202716672	72	4408
2026-01-13 10:38:11.17	329.74	17.47	-52.9	-54.8	14.5	0.00e+00	0	26	0	1204813824	72	4375
2026-01-13 10:38:12.17	329.82	17.36	-52.9	-54.8	14.5	0.00e+00	0	26	0	1205862400	72	4381
2026-01-13 10:38:13.17	329.89	17.25	-52.6	-54.5	14.5	0.00e+00	0	26	0	1207959552	71	4450
2026-01-13 10:38:14.17	329.96	17.14	-52.4	-54.3	14.6	0.00e+00	0	26	0	1210056704	71	4350
2026-01-13 10:38:15.15	330.04	17.03	-52.4	-54.2	14.7	0.00e+00	0	26	0	1212153856	71	4304
2026-01-13 10:38:16.15	330.11	16.93	-52.3	-54.1	14.7	0.00e+00	0	26	0	1214251008	71	4251
2026-01-13 10:38:17.14	330.18	16.82	-52.3	-54.0	14.7	0.00e+00	0	26	0	1215299584	71	4241
2026-01-13 10:38:18.13	330.25	16.71	-52.2	-53.9	14.8	0.00e+00	0	26	0	1217396736	71	4188
2026-01-13 10:38:19.13	330.32	16.60	-52.2	-53.9	14.7	0.00e+00	0	26	0	1219493888	70	4414
2026-01-13 10:38:20.12	330.39	16.50	-52.2	-54.0	14.6	0.00e+00	0	26	0	1221591040	70	4447
2026-01-13 10:38:21.12	330.46	16.39	-52.1	-53.9	14.7	0.00e+00	0	26	0	1222639616	70	4412
2026-01-13 10:38:22.11	330.53	16.28	-52.2	-53.9	14.6	0.00e+00	0	26	0	1224736768	70	4438
2026-01-13 10:38:23.10	330.60	16.18	-52.1	-53.9	14.7	0.00e+00	0	26	0	1226833920	70	4407
