passes_logs/2026/01/13/R3.2S_Murmansk/R3.2S_Murmansk__20260113_110530_FENGYUN_3D_rec.log

#Pass ID: 20260113_110530_FENGYUN 3D
#Satellite: FENGYUN 3D
#Configuration: FENGYUN 3D
#almurnet v.1.7.20251203
#Start time: 2026-01-13 11:05:30

#Version: 2.2.20231116
#Station: R3.2S_Murmansk
#Location: 33.079688 lon 68.888172 lat
#TLE: 1 43010U 17072A   26013.17115950  .00000473  00000+0  24523-3 0  9998
#TLE: 2 43010  98.9934 344.9592 0002262 111.3119 248.8298 14.19696744422995

#Time	Az	El	Level	Level2	SNR	BER	BlckErr	Temp	State	Recorded	gain1	gain2
2026-01-13 11:05:30.90	140.45	2.04	-58.0	-70.9	3.8	8.47e-01	0	24	0	0	82	15732
2026-01-13 11:05:31.90	140.44	2.11	-57.9	-70.9	3.8	8.45e-01	0	24	104	0	80	17605
2026-01-13 11:05:32.88	140.44	2.17	-57.9	-70.9	3.8	8.45e-01	0	24	104	0	80	17609
2026-01-13 11:05:33.88	140.43	2.23	-57.9	-70.9	3.8	8.45e-01	0	25	104	0	80	17596
2026-01-13 11:05:34.87	140.42	2.30	-57.9	-70.9	3.8	8.46e-01	0	24	104	0	80	17516
2026-01-13 11:05:35.86	140.41	2.36	-57.9	-70.9	3.8	8.45e-01	0	24	104	0	80	17533
2026-01-13 11:05:36.85	140.40	2.43	-57.9	-70.8	3.8	8.46e-01	0	25	104	0	80	17451
2026-01-13 11:05:37.84	140.39	2.49	-57.9	-70.8	3.8	8.46e-01	0	24	104	0	80	17434
2026-01-13 11:05:38.84	140.38	2.56	-57.9	-70.8	3.8	8.46e-01	0	24	104	0	80	17382
2026-01-13 11:05:39.83	140.37	2.62	-57.9	-70.8	3.8	8.44e-01	0	25	104	0	80	17330
2026-01-13 11:05:40.83	140.37	2.69	-57.9	-70.8	3.8	8.47e-01	0	25	104	0	80	17366
2026-01-13 11:05:41.82	140.36	2.75	-57.9	-70.8	3.8	8.45e-01	0	25	104	0	80	17372
2026-01-13 11:05:42.82	140.35	2.82	-57.9	-70.8	3.8	8.45e-01	0	25	104	0	80	17299
2026-01-13 11:05:43.83	140.34	2.88	-57.9	-70.7	3.8	8.46e-01	0	25	104	0	80	17269
2026-01-13 11:05:44.82	140.33	2.95	-57.9	-70.7	3.8	8.46e-01	0	25	104	0	80	17184
2026-01-13 11:05:45.81	140.32	3.01	-57.9	-70.7	3.8	8.45e-01	0	25	104	0	80	17107
2026-01-13 11:05:46.81	140.31	3.08	-57.9	-70.6	3.8	8.46e-01	0	25	104	0	80	17014
2026-01-13 11:05:47.80	140.30	3.15	-57.9	-70.6	3.8	8.46e-01	0	25	104	0	80	16960
2026-01-13 11:05:48.80	140.29	3.21	-57.9	-70.6	3.8	8.46e-01	0	25	104	0	80	17074
2026-01-13 11:05:49.79	140.28	3.28	-57.9	-70.5	3.8	8.44e-01	0	25	104	0	80	16802
2026-01-13 11:05:50.78	140.27	3.35	-57.9	-70.1	3.8	8.45e-01	0	25	104	0	80	16074
2026-01-13 11:05:51.78	140.26	3.41	-57.8	-69.4	3.8	8.47e-01	0	25	104	0	80	14805
2026-01-13 11:05:52.78	140.25	3.48	-57.6	-67.6	4.1	8.43e-01	0	25	104	0	80	11999
2026-01-13 11:05:53.77	140.24	3.55	-57.4	-66.1	4.6	8.22e-01	0	25	0	0	80	10134
2026-01-13 11:05:54.76	140.23	3.62	-57.2	-64.8	5.2	7.49e-01	0	25	0	0	80	8739
2026-01-13 11:05:55.75	140.22	3.68	-57.1	-64.4	5.5	6.06e-01	0	25	0	1048576	80	8289
2026-01-13 11:05:56.74	140.21	3.75	-56.9	-63.3	6.2	2.93e-01	0	25	0	6291456	80	7340
2026-01-13 11:05:57.73	140.20	3.82	-56.7	-62.7	6.7	2.37e-01	0	25	0	11534336	80	6815
2026-01-13 11:05:58.73	140.19	3.89	-56.6	-62.4	6.8	1.88e-01	0	25	0	17825792	79	7012
2026-01-13 11:05:59.71	140.18	3.95	-56.5	-62.1	7.1	1.31e-01	0	25	0	23068672	79	6770
2026-01-13 11:06:00.71	140.17	4.02	-56.5	-61.9	7.2	1.08e-01	0	25	0	28311552	79	6638
2026-01-13 11:06:01.69	140.16	4.09	-55.8	-60.4	8.6	3.83e-02	0	25	0	33554432	78	5885
2026-01-13 11:06:02.69	140.15	4.16	-55.4	-59.5	9.4	1.19e-02	0	25	0	39845888	77	5593
2026-01-13 11:06:03.68	140.14	4.23	-54.7	-58.1	10.5	1.87e-03	0	25	0	45088768	76	5075
2026-01-13 11:06:04.67	140.13	4.30	-54.0	-57.0	11.2	3.05e-04	0	25	0	50331648	74	5004
2026-01-13 11:06:05.67	140.12	4.37	-53.5	-56.3	11.7	2.51e-05	0	25	0	56623104	73	4887
2026-01-13 11:06:06.66	140.11	4.44	-52.8	-55.2	12.4	1.71e-05	0	25	0	61865984	72	4594
2026-01-13 11:06:07.65	140.10	4.51	-52.3	-54.5	12.8	1.10e-06	0	25	0	68157440	71	4486
2026-01-13 11:06:08.65	140.09	4.58	-51.4	-53.4	13.4	0.00e+00	0	25	0	73400320	69	4414
2026-01-13 11:06:09.64	140.08	4.65	-51.4	-53.4	13.4	0.00e+00	0	25	0	78643200	69	4397
2026-01-13 11:06:10.63	140.07	4.72	-51.2	-53.1	13.5	0.00e+00	0	25	0	83886080	69	4274
2026-01-13 11:06:11.63	140.05	4.79	-50.8	-52.6	13.8	0.00e+00	0	25	0	90177536	68	4271
2026-01-13 11:06:12.62	140.04	4.86	-50.6	-52.4	13.7	0.00e+00	0	25	0	95420416	67	4409
2026-01-13 11:06:13.62	140.03	4.93	-50.5	-52.4	13.7	0.00e+00	0	25	0	100663296	67	4393
2026-01-13 11:06:14.61	140.02	5.00	-50.8	-52.7	13.5	0.00e+00	0	25	0	106954752	67	4591
2026-01-13 11:06:15.60	140.01	5.07	-50.3	-52.1	13.9	0.00e+00	0	25	0	112197632	67	4260
2026-01-13 11:06:16.59	140.00	5.14	-50.8	-52.7	13.5	0.00e+00	0	25	0	117440512	66	4842
2026-01-13 11:06:17.58	139.99	5.21	-51.6	-53.7	13.2	0.00e+00	0	25	0	123731968	68	4833
2026-01-13 11:06:18.58	139.98	5.28	-53.9	-56.7	11.5	6.75e-03	0	26	0	128974848	74	4850
2026-01-13 11:06:19.58	139.96	5.36	-50.5	-52.2	13.8	7.09e-05	0	25	0	134217728	67	4337
2026-01-13 11:06:20.58	139.95	5.43	-50.6	-52.4	13.7	0.00e+00	0	26	0	140509184	67	4413
2026-01-13 11:06:21.57	139.94	5.50	-50.3	-52.0	13.9	0.00e+00	0	25	0	145752064	67	4242
2026-01-13 11:06:22.56	139.93	5.57	-50.5	-52.3	13.8	0.00e+00	0	25	0	150994944	67	4361
2026-01-13 11:06:23.56	139.92	5.65	-50.5	-52.2	13.8	0.00e+00	0	25	0	157286400	67	4330
2026-01-13 11:06:24.55	139.91	5.72	-50.2	-52.0	14.0	0.00e+00	0	25	0	162529280	67	4194
2026-01-13 11:06:25.55	139.89	5.79	-50.2	-51.9	14.0	0.00e+00	0	25	0	167772160	67	4164
2026-01-13 11:06:26.54	139.88	5.86	-50.0	-51.7	14.0	0.00e+00	0	26	0	174063616	66	4317
2026-01-13 11:06:27.53	139.87	5.94	-50.2	-51.9	13.9	0.00e+00	0	26	0	179306496	66	4420
2026-01-13 11:06:28.52	139.86	6.01	-50.2	-51.9	13.9	0.00e+00	0	26	0	184549376	66	4427
2026-01-13 11:06:29.52	139.84	6.08	-50.0	-51.7	14.1	0.00e+00	0	26	0	190840832	66	4309
2026-01-13 11:06:30.51	139.83	6.16	-50.0	-51.7	14.1	0.00e+00	0	26	0	196083712	66	4301
2026-01-13 11:06:31.49	139.82	6.23	-50.1	-51.7	14.0	0.00e+00	0	26	0	201326592	66	4336
2026-01-13 11:06:32.48	139.81	6.31	-49.9	-51.6	14.1	0.00e+00	0	26	0	207618048	66	4257
2026-01-13 11:06:33.48	139.79	6.38	-49.8	-51.5	14.2	0.00e+00	0	26	0	212860928	66	4200
2026-01-13 11:06:34.47	139.78	6.46	-50.0	-51.7	14.1	0.00e+00	0	26	0	218103808	66	4312
2026-01-13 11:06:35.46	139.77	6.53	-50.0	-51.6	14.1	0.00e+00	0	26	0	224395264	66	4272
2026-01-13 11:06:36.45	139.76	6.61	-50.0	-51.7	14.1	0.00e+00	0	26	0	229638144	66	4322
2026-01-13 11:06:37.45	139.74	6.68	-50.0	-51.6	14.1	0.00e+00	0	26	0	234881024	66	4266
2026-01-13 11:06:38.45	139.73	6.76	-49.8	-51.5	14.2	0.00e+00	0	26	0	241172480	66	4197
2026-01-13 11:06:39.44	139.72	6.83	-49.9	-51.6	14.2	0.00e+00	0	26	0	246415360	66	4245
2026-01-13 11:06:40.43	139.70	6.91	-49.9	-51.5	14.2	0.00e+00	0	26	0	251658240	66	4228
2026-01-13 11:06:41.42	139.69	6.99	-50.0	-51.7	14.1	0.00e+00	0	26	0	257949696	66	4306
2026-01-13 11:06:42.42	139.68	7.06	-49.9	-51.6	14.2	0.00e+00	0	26	0	263192576	66	4252
2026-01-13 11:06:43.41	139.66	7.14	-49.8	-51.4	14.2	0.00e+00	0	26	0	268435456	66	4188
2026-01-13 11:06:44.41	139.65	7.22	-49.5	-51.1	14.3	0.00e+00	0	26	0	274726912	65	4282
2026-01-13 11:06:45.40	139.64	7.29	-49.7	-51.3	14.2	0.00e+00	0	26	0	279969792	65	4369
2026-01-13 11:06:46.40	139.62	7.37	-49.6	-51.2	14.2	0.00e+00	0	26	0	285212672	65	4322
2026-01-13 11:06:47.39	139.61	7.45	-49.7	-51.3	14.2	0.00e+00	0	26	0	291504128	65	4384
2026-01-13 11:06:48.39	139.60	7.53	-49.6	-51.2	14.3	0.00e+00	0	26	0	296747008	65	4292
2026-01-13 11:06:49.38	139.58	7.61	-49.5	-51.1	14.3	0.00e+00	0	26	0	301989888	65	4270
2026-01-13 11:06:50.38	139.57	7.69	-49.7	-51.3	14.2	0.00e+00	0	26	0	308281344	65	4353
2026-01-13 11:06:51.37	139.55	7.76	-49.6	-51.2	14.2	0.00e+00	0	26	0	313524224	65	4337
2026-01-13 11:06:52.36	139.54	7.84	-49.4	-51.0	14.4	0.00e+00	0	26	0	318767104	65	4210
2026-01-13 11:06:53.36	139.52	7.92	-49.3	-50.8	14.5	0.00e+00	0	26	0	325058560	65	4127
2026-01-13 11:06:54.36	139.51	8.00	-49.4	-51.0	14.4	0.00e+00	0	26	0	330301440	65	4213
2026-01-13 11:06:55.36	139.50	8.08	-49.3	-50.9	14.5	0.00e+00	0	26	0	335544320	65	4150
2026-01-13 11:06:56.35	139.48	8.16	-49.2	-50.8	14.5	0.00e+00	0	26	0	341835776	65	4102
2026-01-13 11:06:57.34	139.47	8.24	-49.2	-50.7	14.5	0.00e+00	0	26	0	347078656	65	4084
2026-01-13 11:06:58.33	139.45	8.32	-49.3	-50.8	14.5	0.00e+00	0	26	0	352321536	65	4102
2026-01-13 11:06:59.33	139.44	8.40	-49.2	-50.7	14.6	0.00e+00	0	26	0	358612992	65	4056
2026-01-13 11:07:00.32	139.42	8.49	-49.1	-50.6	14.4	0.00e+00	0	26	0	363855872	64	4289
2026-01-13 11:07:01.31	139.41	8.57	-49.1	-50.6	14.4	0.00e+00	0	26	0	369098752	64	4269
2026-01-13 11:07:02.31	139.39	8.65	-49.0	-50.5	14.5	0.00e+00	0	26	0	375390208	64	4219
2026-01-13 11:07:03.31	139.37	8.73	-48.9	-50.4	14.6	0.00e+00	0	26	0	380633088	64	4157
2026-01-13 11:07:04.30	139.36	8.81	-48.8	-50.2	14.6	0.00e+00	0	26	0	385875968	64	4098
2026-01-13 11:07:05.29	139.34	8.89	-48.8	-50.3	14.6	0.00e+00	0	26	0	392167424	64	4101
2026-01-13 11:07:06.29	139.33	8.98	-48.9	-50.3	14.6	0.00e+00	0	26	0	397410304	64	4132
2026-01-13 11:07:07.28	139.31	9.06	-49.0	-50.4	14.6	0.00e+00	0	26	0	402653184	64	4176
2026-01-13 11:07:08.28	139.30	9.14	-49.0	-50.4	14.6	0.00e+00	0	26	0	408944640	64	4185
2026-01-13 11:07:09.27	139.28	9.23	-48.9	-50.4	14.6	0.00e+00	0	26	0	414187520	64	4156
2026-01-13 11:07:10.26	139.26	9.31	-48.8	-50.3	14.5	0.00e+00	0	26	0	419430400	63	4342
2026-01-13 11:07:11.26	139.25	9.40	-48.8	-50.3	14.5	0.00e+00	0	26	0	425721856	63	4362
2026-01-13 11:07:12.25	139.23	9.48	-48.8	-50.2	14.5	0.00e+00	0	26	0	430964736	63	4327
2026-01-13 11:07:13.25	139.22	9.56	-48.8	-50.2	14.5	0.00e+00	0	26	0	436207616	63	4335
2026-01-13 11:07:14.24	139.20	9.65	-48.8	-50.3	14.5	0.00e+00	0	26	0	442499072	63	4355
2026-01-13 11:07:15.23	139.18	9.73	-48.7	-50.2	14.5	0.00e+00	0	26	0	447741952	63	4304
2026-01-13 11:07:16.22	139.17	9.82	-48.6	-50.1	14.6	0.00e+00	0	26	0	452984832	63	4247
2026-01-13 11:07:17.21	139.15	9.90	-48.5	-49.9	14.7	0.00e+00	0	26	0	459276288	63	4180
2026-01-13 11:07:18.21	139.13	9.99	-48.5	-49.9	14.7	0.00e+00	0	26	0	464519168	63	4178
2026-01-13 11:07:19.20	139.11	10.08	-48.5	-49.9	14.7	0.00e+00	0	26	0	469762048	63	4154
2026-01-13 11:07:20.19	139.10	10.16	-48.5	-49.9	14.7	0.00e+00	0	26	0	475004928	63	4156
2026-01-13 11:07:21.18	139.08	10.25	-48.6	-50.0	14.7	0.00e+00	0	26	0	481296384	63	4204
2026-01-13 11:07:22.18	139.06	10.34	-48.4	-49.8	14.8	0.00e+00	0	26	0	486539264	63	4134
2026-01-13 11:07:23.18	139.04	10.43	-48.4	-49.8	14.7	0.00e+00	0	26	0	492830720	63	4139
2026-01-13 11:07:24.17	139.03	10.51	-48.4	-49.8	14.7	0.00e+00	0	26	0	498073600	63	4144
2026-01-13 11:07:25.16	139.01	10.60	-48.5	-49.9	14.7	0.00e+00	0	26	0	503316480	63	4158
2026-01-13 11:07:26.16	138.99	10.69	-48.4	-49.8	14.8	0.00e+00	0	26	0	509607936	63	4104
2026-01-13 11:07:27.16	138.97	10.78	-48.3	-49.7	14.8	0.00e+00	0	26	0	514850816	63	4063
2026-01-13 11:07:28.16	138.95	10.87	-48.3	-49.6	14.8	0.00e+00	0	26	0	520093696	63	4047
2026-01-13 11:07:29.15	138.93	10.96	-48.3	-49.7	14.8	0.00e+00	0	26	0	526385152	63	4084
2026-01-13 11:07:30.15	138.92	11.05	-48.3	-49.7	14.8	0.00e+00	0	26	0	531628032	63	4068
2026-01-13 11:07:31.15	138.90	11.14	-48.2	-49.6	14.9	0.00e+00	0	26	0	536870912	63	4018
2026-01-13 11:07:32.14	138.88	11.23	-48.2	-49.6	14.9	0.00e+00	0	26	0	543162368	63	4015
2026-01-13 11:07:33.14	138.86	11.32	-48.2	-49.6	14.9	0.00e+00	0	26	0	548405248	63	4030
2026-01-13 11:07:34.14	138.84	11.41	-48.2	-49.6	14.9	0.00e+00	0	26	0	553648128	63	4021
2026-01-13 11:07:35.14	138.82	11.50	-48.2	-49.6	14.9	0.00e+00	0	26	0	559939584	63	4030
2026-01-13 11:07:36.13	138.80	11.60	-48.2	-49.6	14.9	0.00e+00	0	26	0	565182464	63	4021
2026-01-13 11:07:37.13	138.78	11.69	-48.1	-49.5	14.8	0.00e+00	0	26	0	570425344	62	4203
2026-01-13 11:07:38.13	138.76	11.78	-48.2	-49.6	14.7	0.00e+00	0	26	0	576716800	62	4253
2026-01-13 11:07:39.13	138.74	11.88	-48.3	-49.6	14.7	0.00e+00	0	26	0	581959680	62	4284
2026-01-13 11:07:40.13	138.72	11.97	-48.1	-49.5	14.8	0.00e+00	0	26	0	587202560	62	4204
2026-01-13 11:07:41.14	138.70	12.06	-48.1	-49.4	14.8	0.00e+00	0	26	0	593494016	62	4183
2026-01-13 11:07:42.13	138.68	12.16	-48.0	-49.4	14.8	0.00e+00	0	26	0	598736896	62	4163
2026-01-13 11:07:43.12	138.66	12.25	-48.1	-49.4	14.8	0.00e+00	0	26	0	605028352	62	4184
2026-01-13 11:07:44.12	138.64	12.35	-47.9	-49.3	14.9	0.00e+00	0	26	0	610271232	62	4122
2026-01-13 11:07:45.12	138.62	12.44	-48.0	-49.3	14.8	0.00e+00	0	26	0	615514112	62	4127
2026-01-13 11:07:46.12	138.60	12.54	-48.1	-49.4	14.8	0.00e+00	0	26	0	621805568	62	4188
2026-01-13 11:07:47.12	138.58	12.63	-48.0	-49.3	14.8	0.00e+00	0	26	0	627048448	62	4130
2026-01-13 11:07:48.13	138.56	12.73	-48.0	-49.3	14.9	0.00e+00	0	26	0	632291328	62	4119
2026-01-13 11:07:49.12	138.53	12.83	-47.9	-49.3	14.9	0.00e+00	0	26	0	638582784	62	4116
2026-01-13 11:07:50.12	138.51	12.93	-48.0	-49.3	14.9	0.00e+00	0	26	0	643825664	62	4137
2026-01-13 11:07:51.11	138.49	13.02	-47.9	-49.2	14.9	0.00e+00	0	26	0	649068544	62	4094
2026-01-13 11:07:52.11	138.47	13.12	-48.0	-49.3	14.9	0.00e+00	0	26	0	655360000	62	4131
2026-01-13 11:07:53.11	138.45	13.22	-47.9	-49.3	14.9	0.00e+00	0	26	0	660602880	62	4103
2026-01-13 11:07:54.11	138.42	13.32	-47.8	-49.1	14.9	0.00e+00	0	26	0	666894336	62	4049
2026-01-13 11:07:55.11	138.40	13.42	-47.8	-49.1	14.9	0.00e+00	0	26	0	672137216	62	4032
2026-01-13 11:07:56.11	138.38	13.52	-47.7	-49.1	15.0	0.00e+00	0	26	0	677380096	62	4018
2026-01-13 11:07:57.11	138.36	13.62	-47.8	-49.2	14.9	0.00e+00	0	26	0	683671552	62	4052
2026-01-13 11:07:58.11	138.33	13.72	-47.7	-49.1	15.0	0.00e+00	0	26	0	688914432	62	4020
2026-01-13 11:07:59.11	138.31	13.82	-47.5	-48.9	14.9	0.00e+00	0	26	0	694157312	61	4151
2026-01-13 11:08:00.10	138.29	13.92	-47.6	-49.0	14.9	0.00e+00	0	26	0	700448768	61	4205
2026-01-13 11:08:01.10	138.26	14.02	-47.6	-49.0	14.9	0.00e+00	0	26	0	705691648	61	4201
2026-01-13 11:08:02.10	138.24	14.12	-47.5	-48.9	14.9	0.00e+00	0	26	0	710934528	61	4150
2026-01-13 11:08:03.10	138.21	14.23	-47.5	-48.8	14.9	0.00e+00	0	26	0	717225984	61	4134
2026-01-13 11:08:04.08	138.19	14.33	-47.4	-48.7	15.0	0.00e+00	0	26	0	722468864	61	4092
2026-01-13 11:08:05.08	138.17	14.43	-47.3	-48.6	15.0	0.00e+00	0	26	0	727711744	61	4043
2026-01-13 11:08:06.08	138.14	14.54	-47.3	-48.7	15.0	0.00e+00	0	26	0	734003200	61	4054
2026-01-13 11:08:07.08	138.12	14.64	-47.4	-48.7	15.0	0.00e+00	0	26	0	739246080	61	4083
2026-01-13 11:08:08.08	138.09	14.75	-47.3	-48.6	15.0	0.00e+00	0	26	0	744488960	61	4046
2026-01-13 11:08:09.08	138.07	14.85	-47.3	-48.6	15.1	0.00e+00	0	26	0	750780416	61	4009
2026-01-13 11:08:10.07	138.04	14.96	-47.3	-48.5	15.1	0.00e+00	0	26	0	756023296	61	4000
2026-01-13 11:08:11.06	138.02	15.06	-47.2	-48.5	15.1	0.00e+00	0	26	0	762314752	61	3991
2026-01-13 11:08:12.05	137.99	15.17	-47.2	-48.5	15.1	0.00e+00	0	26	0	767557632	61	3976
2026-01-13 11:08:13.05	137.97	15.27	-47.2	-48.5	15.1	0.00e+00	0	26	0	772800512	61	3988
2026-01-13 11:08:14.03	137.94	15.38	-47.2	-48.5	15.1	0.00e+00	0	26	0	778043392	61	3998
2026-01-13 11:08:15.02	137.91	15.49	-47.2	-48.5	15.1	0.00e+00	0	26	0	784334848	61	3988
2026-01-13 11:08:16.02	137.89	15.59	-47.0	-48.3	15.0	0.00e+00	0	26	0	789577728	60	4101
2026-01-13 11:08:17.02	137.86	15.70	-47.0	-48.3	15.0	0.00e+00	0	26	0	794820608	60	4101
2026-01-13 11:08:18.01	137.83	15.81	-46.9	-48.2	15.1	0.00e+00	0	26	0	801112064	60	4072
2026-01-13 11:08:19.01	137.81	15.92	-46.9	-48.2	15.1	0.00e+00	0	26	0	806354944	60	4064
2026-01-13 11:08:20.01	137.78	16.03	-46.9	-48.1	15.1	0.00e+00	0	26	0	812646400	60	4033
2026-01-13 11:08:21.02	137.75	16.15	-46.8	-48.1	15.1	0.00e+00	0	26	0	817889280	60	4021
2026-01-13 11:08:22.02	137.72	16.26	-46.9	-48.1	15.1	0.00e+00	0	26	0	823132160	60	4039
2026-01-13 11:08:23.02	137.69	16.37	-46.9	-48.1	15.1	0.00e+00	0	26	0	829423616	60	4037
2026-01-13 11:08:24.01	137.67	16.48	-46.7	-48.0	15.2	0.00e+00	0	26	0	834666496	60	3979
2026-01-13 11:08:25.00	137.64	16.59	-46.8	-48.1	15.1	0.00e+00	0	26	0	839909376	60	4012
2026-01-13 11:08:26.00	137.61	16.71	-46.9	-48.1	15.1	0.00e+00	0	26	0	846200832	60	4044
2026-01-13 11:08:27.00	137.58	16.82	-46.7	-47.9	15.2	0.00e+00	0	26	0	851443712	60	3954
2026-01-13 11:08:27.99	137.55	16.93	-46.8	-48.0	15.2	0.00e+00	0	26	0	856686592	60	3994
2026-01-13 11:08:28.99	137.52	17.05	-46.9	-48.1	15.1	0.00e+00	0	26	0	862978048	60	4046
2026-01-13 11:08:29.98	137.49	17.16	-46.8	-48.0	15.2	0.00e+00	0	26	0	868220928	60	3994
2026-01-13 11:08:30.98	137.46	17.28	-46.8	-48.0	15.1	0.00e+00	0	26	0	873463808	60	4002
2026-01-13 11:08:31.97	137.43	17.39	-47.0	-48.3	14.9	0.00e+00	0	26	0	879755264	59	4358
2026-01-13 11:08:32.97	137.40	17.51	-47.0	-48.3	14.9	0.00e+00	0	26	0	884998144	59	4375
2026-01-13 11:08:33.98	137.37	17.63	-47.0	-48.3	14.9	0.00e+00	0	26	0	890241024	59	4355
2026-01-13 11:08:34.99	137.34	17.75	-46.9	-48.2	15.0	0.00e+00	0	26	0	896532480	59	4337
2026-01-13 11:08:35.99	137.31	17.87	-46.9	-48.2	15.0	0.00e+00	0	26	0	901775360	59	4320
2026-01-13 11:08:36.99	137.27	17.99	-46.9	-48.2	15.0	0.00e+00	0	26	0	907018240	59	4313
2026-01-13 11:08:37.99	137.24	18.11	-46.9	-48.2	15.0	0.00e+00	0	26	0	913309696	59	4321
2026-01-13 11:08:38.99	137.21	18.23	-46.9	-48.2	15.0	0.00e+00	0	26	0	918552576	59	4332
2026-01-13 11:08:39.98	137.18	18.35	-46.9	-48.2	15.0	0.00e+00	0	26	0	924844032	59	4339
2026-01-13 11:08:40.98	137.14	18.47	-46.9	-48.2	15.0	0.00e+00	0	26	0	930086912	59	4315
2026-01-13 11:08:41.99	137.11	18.60	-46.9	-48.3	14.9	0.00e+00	0	26	0	935329792	59	4344
2026-01-13 11:08:42.99	137.08	18.72	-46.9	-48.2	15.0	0.00e+00	0	26	0	941621248	59	4301
2026-01-13 11:08:43.98	137.04	18.84	-46.9	-48.2	14.9	0.00e+00	0	26	0	946864128	59	4335
2026-01-13 11:08:44.98	137.01	18.97	-46.9	-48.2	15.0	0.00e+00	0	26	0	952107008	59	4292
2026-01-13 11:08:45.98	136.98	19.09	-47.0	-48.3	14.9	0.00e+00	0	26	0	958398464	59	4351
2026-01-13 11:08:46.98	136.94	19.22	-46.9	-48.2	15.0	0.00e+00	0	26	0	963641344	59	4317
2026-01-13 11:08:47.97	136.91	19.34	-46.9	-48.2	15.0	0.00e+00	0	26	0	968884224	59	4325
2026-01-13 11:08:48.96	136.87	19.47	-46.9	-48.2	14.9	0.00e+00	0	26	0	975175680	59	4328
2026-01-13 11:08:49.96	136.84	19.59	-46.9	-48.2	15.0	0.00e+00	0	26	0	980418560	59	4317
2026-01-13 11:08:50.96	136.80	19.72	-46.9	-48.2	15.0	0.00e+00	0	26	0	986710016	59	4319
2026-01-13 11:08:51.95	136.76	19.85	-46.8	-48.1	15.0	0.00e+00	0	26	0	991952896	59	4287
2026-01-13 11:08:52.95	136.73	19.98	-46.8	-48.1	15.0	0.00e+00	0	26	0	997195776	59	4289
2026-01-13 11:08:53.95	136.69	20.11	-46.9	-48.2	15.0	0.00e+00	0	26	0	1003487232	59	4313
2026-01-13 11:08:54.94	136.65	20.24	-46.9	-48.2	15.0	0.00e+00	0	26	0	1008730112	59	4309
2026-01-13 11:08:55.94	136.62	20.37	-46.9	-48.2	14.9	0.00e+00	0	26	0	1013972992	59	4325
2026-01-13 11:08:56.92	136.58	20.50	-46.8	-48.1	15.0	0.00e+00	0	26	0	1019215872	59	4290
2026-01-13 11:08:57.93	136.54	20.63	-46.8	-48.1	15.0	0.00e+00	0	26	0	1025507328	59	4272
2026-01-13 11:08:58.92	136.50	20.76	-46.8	-48.1	15.0	0.00e+00	0	26	0	1030750208	59	4285
2026-01-13 11:08:59.90	136.46	20.90	-46.8	-48.1	15.0	0.00e+00	0	26	0	1037041664	59	4266
2026-01-13 11:09:00.90	136.42	21.03	-46.8	-48.1	15.0	0.00e+00	0	26	0	1042284544	59	4282
2026-01-13 11:09:01.89	136.38	21.16	-46.7	-48.0	15.0	0.00e+00	0	26	0	1047527424	59	4235
2026-01-13 11:09:02.88	136.34	21.30	-46.7	-48.0	15.0	0.00e+00	0	26	0	1052770304	59	4208
2026-01-13 11:09:03.88	136.30	21.44	-46.7	-48.1	15.0	0.00e+00	0	26	0	1059061760	59	4245
2026-01-13 11:09:04.88	136.26	21.57	-46.6	-47.9	15.1	0.00e+00	0	26	0	1064304640	59	4161
2026-01-13 11:09:05.87	136.22	21.71	-46.5	-47.8	15.1	0.00e+00	0	26	0	1069547520	59	4138
2026-01-13 11:09:06.86	136.18	21.85	-46.5	-47.8	15.1	0.00e+00	0	26	0	1075838976	59	4131
2026-01-13 11:09:07.85	136.14	21.99	-46.4	-47.7	15.2	0.00e+00	0	26	0	1081081856	59	4082
2026-01-13 11:09:08.85	136.10	22.13	-46.3	-47.6	15.2	0.00e+00	0	26	0	1087373312	59	4009
2026-01-13 11:09:09.84	136.05	22.27	-46.4	-47.6	15.2	0.00e+00	0	26	0	1092616192	59	4027
2026-01-13 11:09:10.84	136.01	22.41	-46.3	-47.5	15.2	0.00e+00	0	26	0	1097859072	59	3997
2026-01-13 11:09:11.83	135.97	22.55	-46.3	-47.5	15.2	0.00e+00	0	26	0	1103101952	59	3985
2026-01-13 11:09:12.83	135.92	22.69	-46.0	-47.2	15.2	0.00e+00	0	26	0	1109393408	58	4089
2026-01-13 11:09:13.83	135.88	22.84	-45.9	-47.1	15.2	0.00e+00	0	26	0	1114636288	58	4024
2026-01-13 11:09:14.82	135.83	22.98	-45.9	-47.1	15.2	0.00e+00	0	26	0	1120927744	58	4042
2026-01-13 11:09:15.82	135.79	23.13	-45.8	-47.0	15.3	0.00e+00	0	26	0	1126170624	58	3973
2026-01-13 11:09:16.81	135.74	23.27	-45.8	-47.0	15.3	0.00e+00	0	26	0	1131413504	58	3996
2026-01-13 11:09:17.81	135.69	23.42	-45.6	-46.8	15.2	0.00e+00	0	26	0	1137704960	57	4133
2026-01-13 11:09:18.81	135.65	23.57	-45.6	-46.8	15.2	0.00e+00	0	26	0	1142947840	57	4131
2026-01-13 11:09:19.80	135.60	23.72	-45.6	-46.8	15.2	0.00e+00	0	26	0	1148190720	57	4130
2026-01-13 11:09:20.80	135.55	23.87	-45.7	-46.9	15.2	0.00e+00	0	26	0	1153433600	57	4158
2026-01-13 11:09:21.79	135.50	24.02	-45.7	-47.0	15.1	0.00e+00	0	26	0	1159725056	57	4196
2026-01-13 11:09:22.79	135.46	24.17	-45.8	-47.1	15.1	0.00e+00	0	26	0	1164967936	57	4243
2026-01-13 11:09:23.78	135.41	24.32	-45.8	-47.1	15.1	0.00e+00	0	26	0	1171259392	57	4246
2026-01-13 11:09:24.77	135.36	24.47	-45.9	-47.1	15.1	0.00e+00	0	26	0	1176502272	57	4289
2026-01-13 11:09:25.76	135.31	24.62	-45.9	-47.1	15.1	0.00e+00	0	26	0	1181745152	57	4275
2026-01-13 11:09:26.75	135.26	24.78	-45.9	-47.2	15.1	0.00e+00	0	26	0	1188036608	57	4293
2026-01-13 11:09:27.75	135.20	24.93	-45.9	-47.2	15.1	0.00e+00	0	26	0	1193279488	57	4295
2026-01-13 11:09:28.75	135.15	25.09	-46.0	-47.3	15.1	0.00e+00	0	26	0	1198522368	57	4343
2026-01-13 11:09:29.75	135.10	25.25	-45.9	-47.1	15.1	0.00e+00	0	26	0	1204813824	57	4290
2026-01-13 11:09:30.75	135.05	25.41	-45.9	-47.1	15.1	0.00e+00	0	26	0	1210056704	57	4288
2026-01-13 11:09:31.76	134.99	25.57	-45.9	-47.1	15.1	0.00e+00	0	26	0	1215299584	57	4272
2026-01-13 11:09:32.76	134.94	25.73	-45.8	-47.1	15.1	0.00e+00	0	26	0	1221591040	57	4244
2026-01-13 11:09:33.76	134.88	25.89	-45.7	-46.9	15.2	0.00e+00	0	26	0	1226833920	57	4181
2026-01-13 11:09:34.76	134.83	26.06	-45.7	-47.0	15.2	0.00e+00	0	26	0	1233125376	57	4202
2026-01-13 11:09:35.75	134.77	26.22	-45.6	-46.9	15.2	0.00e+00	0	26	0	1238368256	57	4147
2026-01-13 11:09:36.74	134.72	26.38	-45.8	-47.0	15.2	0.00e+00	0	26	0	1243611136	57	4206
2026-01-13 11:09:37.74	134.66	26.55	-45.7	-46.9	15.2	0.00e+00	0	26	0	1248854016	57	4179
2026-01-13 11:09:38.73	134.60	26.71	-45.8	-47.0	15.2	0.00e+00	0	26	0	1255145472	57	4213
2026-01-13 11:09:39.73	134.54	26.88	-45.8	-47.0	15.1	0.00e+00	0	26	0	1260388352	57	4230
2026-01-13 11:09:40.72	134.48	27.04	-45.8	-47.0	15.1	0.00e+00	0	26	0	1265631232	57	4227
2026-01-13 11:09:41.71	134.42	27.21	-45.8	-47.0	15.1	0.00e+00	0	26	0	1271922688	57	4214
2026-01-13 11:09:42.71	134.36	27.38	-45.7	-47.0	15.2	0.00e+00	0	26	0	1277165568	57	4202
2026-01-13 11:09:43.70	134.30	27.55	-45.6	-46.8	15.2	0.00e+00	0	26	0	1283457024	57	4120
2026-01-13 11:09:44.70	134.24	27.73	-45.5	-46.7	15.2	0.00e+00	0	26	0	1288699904	57	4084
2026-01-13 11:09:45.70	134.18	27.90	-45.5	-46.7	15.2	0.00e+00	0	26	0	1293942784	57	4089
2026-01-13 11:09:46.70	134.11	28.07	-45.5	-46.7	15.2	0.00e+00	0	26	0	1300234240	57	4078
2026-01-13 11:09:47.69	134.05	28.25	-45.5	-46.7	15.2	0.00e+00	0	26	0	1305477120	57	4089
2026-01-13 11:09:48.69	133.98	28.42	-45.5	-46.7	15.2	0.00e+00	0	26	0	1310720000	57	4082
2026-01-13 11:09:49.68	133.92	28.60	-45.5	-46.7	15.3	0.00e+00	0	26	0	1315962880	57	4074
2026-01-13 11:09:50.68	133.85	28.78	-45.5	-46.7	15.2	0.00e+00	0	26	0	1322254336	57	4093
2026-01-13 11:09:51.67	133.79	28.96	-45.5	-46.8	15.2	0.00e+00	0	26	0	1327497216	57	4111
2026-01-13 11:09:52.67	133.72	29.14	-45.6	-46.8	15.2	0.00e+00	0	26	0	1333788672	57	4140
2026-01-13 11:09:53.67	133.65	29.32	-45.7	-46.9	15.2	0.00e+00	0	26	0	1339031552	57	4183
2026-01-13 11:09:54.66	133.58	29.50	-45.8	-47.1	15.1	0.00e+00	0	26	0	1344274432	57	4269
2026-01-13 11:09:55.66	133.51	29.69	-45.7	-46.9	15.2	0.00e+00	0	26	0	1350565888	57	4185
2026-01-13 11:09:56.65	133.44	29.87	-45.6	-46.8	15.2	0.00e+00	0	26	0	1355808768	57	4131
2026-01-13 11:09:57.65	133.37	30.06	-45.6	-46.8	15.2	0.00e+00	0	26	0	1361051648	57	4119
2026-01-13 11:09:58.64	133.29	30.24	-45.6	-46.8	15.2	0.00e+00	0	26	0	1366294528	57	4137
2026-01-13 11:09:59.64	133.22	30.43	-45.6	-46.8	15.2	0.00e+00	0	26	0	1372585984	57	4123
2026-01-13 11:10:00.64	133.15	30.62	-45.4	-46.6	15.3	0.00e+00	0	26	0	1377828864	57	4049
2026-01-13 11:10:01.64	133.07	30.82	-45.4	-46.6	15.3	0.00e+00	0	26	0	1384120320	57	4019
2026-01-13 11:10:02.63	132.99	31.01	-45.4	-46.6	15.3	0.00e+00	0	26	0	1389363200	57	4042
2026-01-13 11:10:03.61	132.92	31.20	-45.5	-46.7	15.3	0.00e+00	0	26	0	1394606080	57	4071
2026-01-13 11:10:04.61	132.84	31.39	-45.3	-46.5	15.3	0.00e+00	0	26	0	1400897536	57	3987
2026-01-13 11:10:05.61	132.76	31.59	-45.3	-46.5	15.3	0.00e+00	0	26	0	1406140416	57	3995
2026-01-13 11:10:06.61	132.68	31.79	-45.2	-46.4	15.4	0.00e+00	0	26	0	1411383296	57	3919
2026-01-13 11:10:07.59	132.60	31.98	-45.1	-46.3	15.3	0.00e+00	0	26	0	1416626176	56	4131
2026-01-13 11:10:08.59	132.51	32.18	-45.1	-46.3	15.2	0.00e+00	0	26	0	1422917632	56	4136
2026-01-13 11:10:09.58	132.43	32.38	-45.1	-46.4	15.2	0.00e+00	0	26	0	1428160512	56	4152
2026-01-13 11:10:10.57	132.35	32.58	-45.2	-46.4	15.2	0.00e+00	0	26	0	1434451968	56	4176
2026-01-13 11:10:11.56	132.26	32.78	-45.2	-46.5	15.2	0.00e+00	0	26	0	1439694848	56	4197
2026-01-13 11:10:12.55	132.18	32.99	-45.2	-46.4	15.2	0.00e+00	0	27	0	1444937728	56	4191
2026-01-13 11:10:13.55	132.09	33.19	-45.2	-46.4	15.2	0.00e+00	0	26	0	1451229184	56	4191
2026-01-13 11:10:14.55	132.00	33.40	-45.2	-46.4	15.2	0.00e+00	0	26	0	1456472064	56	4162
2026-01-13 11:10:15.56	131.91	33.61	-45.2	-46.4	15.2	0.00e+00	0	26	0	1461714944	56	4175
2026-01-13 11:10:16.55	131.82	33.82	-45.2	-46.4	15.2	0.00e+00	0	26	0	1468006400	56	4187
2026-01-13 11:10:17.54	131.72	34.03	-45.2	-46.4	15.2	0.00e+00	0	27	0	1473249280	56	4164
2026-01-13 11:10:18.53	131.63	34.24	-45.4	-46.4	15.2	0.00e+00	0	26	0	1478492160	56	4193
2026-01-13 11:10:19.52	131.53	34.46	-45.4	-46.5	15.2	0.00e+00	0	26	0	1484783616	56	4194
2026-01-13 11:10:20.51	131.44	34.67	-45.4	-46.4	15.2	0.00e+00	0	26	0	1490026496	56	4184
2026-01-13 11:10:21.50	131.34	34.89	-45.4	-46.4	15.2	0.00e+00	0	26	0	1495269376	56	4189
2026-01-13 11:10:22.49	131.24	35.10	-45.2	-46.3	15.2	0.00e+00	0	26	0	1500512256	56	4118
2026-01-13 11:10:23.48	131.14	35.32	-45.3	-46.4	15.2	0.00e+00	0	26	0	1506803712	56	4146
2026-01-13 11:10:24.48	131.04	35.54	-45.1	-46.2	15.3	0.00e+00	0	26	0	1512046592	56	4059
2026-01-13 11:10:25.48	130.94	35.77	-45.0	-46.1	15.3	0.00e+00	0	26	0	1518338048	56	4016
2026-01-13 11:10:26.46	130.83	35.99	-45.2	-46.2	15.3	0.00e+00	0	26	0	1523580928	56	4091
2026-01-13 11:10:27.46	130.73	36.21	-45.1	-46.2	15.3	0.00e+00	0	26	0	1528823808	56	4062
2026-01-13 11:10:28.45	130.62	36.44	-45.2	-46.3	15.2	0.00e+00	0	26	0	1535115264	56	4099
2026-01-13 11:10:29.44	130.51	36.66	-45.2	-46.3	15.2	0.00e+00	0	26	0	1540358144	56	4108
2026-01-13 11:10:30.44	130.40	36.89	-45.3	-46.3	15.2	0.00e+00	0	26	0	1545601024	56	4145
2026-01-13 11:10:31.43	130.29	37.12	-45.4	-46.4	15.2	0.00e+00	0	26	0	1550843904	56	4193
2026-01-13 11:10:32.42	130.17	37.36	-45.4	-46.5	15.2	0.00e+00	0	26	0	1557135360	56	4228
2026-01-13 11:10:33.42	130.06	37.59	-45.4	-46.5	15.2	0.00e+00	0	26	0	1562378240	56	4218
2026-01-13 11:10:34.41	129.94	37.82	-45.5	-46.6	15.2	0.00e+00	0	26	0	1568669696	56	4266
2026-01-13 11:10:35.41	129.82	38.06	-45.3	-46.3	15.2	0.00e+00	0	26	0	1573912576	56	4138
2026-01-13 11:10:36.41	129.70	38.30	-45.3	-46.3	15.2	0.00e+00	0	26	0	1579155456	56	4129
2026-01-13 11:10:37.40	129.57	38.54	-45.2	-46.2	15.2	0.00e+00	0	26	0	1585446912	56	4090
2026-01-13 11:10:38.39	129.45	38.78	-45.2	-46.3	15.2	0.00e+00	0	26	0	1590689792	56	4099
2026-01-13 11:10:39.39	129.32	39.03	-45.4	-46.5	15.2	0.00e+00	0	26	0	1595932672	56	4206
2026-01-13 11:10:40.39	129.19	39.27	-45.6	-46.7	15.1	0.00e+00	0	26	0	1601175552	56	4318
2026-01-13 11:10:41.39	129.06	39.52	-45.9	-47.0	15.1	0.00e+00	0	26	0	1607467008	56	4461
2026-01-13 11:10:42.38	128.93	39.77	-45.9	-47.0	15.1	0.00e+00	0	26	0	1612709888	57	4237
2026-01-13 11:10:43.37	128.79	40.01	-45.9	-47.0	15.1	0.00e+00	0	26	0	1619001344	57	4215
2026-01-13 11:10:44.36	128.66	40.26	-45.8	-46.9	15.2	0.00e+00	0	26	0	1624244224	57	4165
2026-01-13 11:10:45.35	128.52	40.51	-45.8	-46.9	15.2	0.00e+00	0	26	0	1629487104	57	4164
2026-01-13 11:10:46.36	128.37	40.77	-45.8	-46.9	15.2	0.00e+00	0	26	0	1635778560	57	4146
2026-01-13 11:10:47.35	128.23	41.03	-45.8	-46.9	15.2	0.00e+00	0	26	0	1641021440	57	4175
2026-01-13 11:10:48.34	128.09	41.28	-45.8	-46.9	15.2	0.00e+00	0	27	0	1646264320	57	4158
2026-01-13 11:10:49.34	127.94	41.54	-45.6	-46.7	15.2	0.00e+00	0	26	0	1651507200	57	4053
2026-01-13 11:10:50.34	127.78	41.81	-45.6	-46.6	15.2	0.00e+00	0	26	0	1657798656	57	4040
2026-01-13 11:10:51.33	127.63	42.07	-45.6	-46.6	15.2	0.00e+00	0	26	0	1663041536	57	4040
2026-01-13 11:10:52.34	127.47	42.33	-45.5	-46.5	15.3	0.00e+00	0	26	0	1669332992	57	3998
2026-01-13 11:10:53.34	127.31	42.60	-45.5	-46.5	15.3	0.00e+00	0	26	0	1674575872	57	3991
2026-01-13 11:10:54.32	127.15	42.86	-45.5	-46.5	15.3	0.00e+00	0	26	0	1679818752	57	4003
2026-01-13 11:10:55.32	126.99	43.13	-45.4	-46.5	15.3	0.00e+00	0	26	0	1686110208	57	3978
2026-01-13 11:10:56.31	126.82	43.40	-45.4	-46.5	15.3	0.00e+00	0	26	0	1691353088	57	3972
2026-01-13 11:10:57.31	126.65	43.68	-45.3	-46.4	15.3	0.00e+00	0	26	0	1696595968	57	3918
2026-01-13 11:10:58.31	126.48	43.95	-45.5	-46.5	15.3	0.00e+00	0	27	0	1702887424	57	3996
2026-01-13 11:10:59.31	126.30	44.23	-45.5	-46.6	15.3	0.00e+00	0	27	0	1708130304	57	4020
2026-01-13 11:11:00.30	126.12	44.50	-45.7	-46.8	15.2	0.00e+00	0	26	0	1713373184	57	4127
2026-01-13 11:11:01.30	125.94	44.78	-45.7	-46.8	15.2	0.00e+00	0	26	0	1719664640	57	4115
2026-01-13 11:11:02.29	125.75	45.06	-45.8	-46.9	15.2	0.00e+00	0	26	0	1724907520	57	4184
2026-01-13 11:11:03.28	125.56	45.34	-45.7	-46.8	15.2	0.00e+00	0	26	0	1730150400	57	4123
2026-01-13 11:11:04.28	125.37	45.63	-45.7	-46.7	15.2	0.00e+00	0	26	0	1736441856	57	4097
2026-01-13 11:11:05.27	125.18	45.91	-45.6	-46.7	15.2	0.00e+00	0	26	0	1741684736	57	4073
2026-01-13 11:11:06.28	124.97	46.20	-45.6	-46.6	15.2	0.00e+00	0	26	0	1746927616	57	4048
2026-01-13 11:11:07.29	124.77	46.49	-45.6	-46.7	15.2	0.00e+00	0	26	0	1753219072	57	4073
2026-01-13 11:11:08.29	124.56	46.79	-45.7	-46.8	15.2	0.00e+00	0	26	0	1758461952	57	4126
2026-01-13 11:11:09.28	124.35	47.08	-45.8	-46.9	15.2	0.00e+00	0	27	0	1763704832	57	4146
2026-01-13 11:11:10.27	124.13	47.37	-45.9	-47.0	15.2	0.00e+00	0	26	0	1769996288	57	4234
2026-01-13 11:11:11.26	123.91	47.66	-46.0	-47.1	15.1	0.00e+00	0	26	0	1775239168	57	4269
2026-01-13 11:11:12.26	123.69	47.96	-46.0	-47.1	15.1	0.00e+00	0	26	0	1781530624	57	4271
2026-01-13 11:11:13.25	123.46	48.25	-46.0	-47.1	15.1	0.00e+00	0	27	0	1786773504	57	4254
2026-01-13 11:11:14.24	123.23	48.55	-46.0	-47.1	15.1	0.00e+00	0	27	0	1792016384	57	4262
2026-01-13 11:11:15.24	122.99	48.85	-46.2	-47.3	15.1	0.00e+00	0	26	0	1797259264	57	4348
2026-01-13 11:11:16.24	122.75	49.16	-46.3	-47.4	15.1	0.00e+00	0	26	0	1803550720	57	4441
2026-01-13 11:11:17.24	122.50	49.46	-46.5	-47.6	15.1	0.00e+00	0	26	0	1808793600	58	4249
2026-01-13 11:11:18.24	122.24	49.77	-46.5	-47.6	15.1	0.00e+00	0	26	0	1814036480	58	4279
2026-01-13 11:11:19.24	121.99	50.08	-46.5	-47.6	15.1	0.00e+00	0	26	0	1820327936	58	4250
2026-01-13 11:11:20.25	121.72	50.39	-46.4	-47.5	15.1	0.00e+00	0	26	0	1825570816	58	4216
2026-01-13 11:11:21.26	121.45	50.71	-46.5	-47.6	15.1	0.00e+00	0	27	0	1831862272	58	4285
2026-01-13 11:11:22.26	121.17	51.02	-46.9	-48.0	15.0	0.00e+00	0	26	0	1837105152	58	4480
2026-01-13 11:11:23.26	120.89	51.33	-47.1	-48.3	15.0	0.00e+00	0	26	0	1843396608	59	4357
2026-01-13 11:11:24.26	120.60	51.65	-47.0	-48.1	15.0	0.00e+00	0	26	0	1848639488	59	4264
2026-01-13 11:11:25.26	120.31	51.96	-46.8	-47.9	15.1	0.00e+00	0	26	0	1853882368	59	4171
2026-01-13 11:11:26.26	120.01	52.28	-46.6	-47.7	15.2	0.00e+00	0	26	0	1860173824	59	4053
2026-01-13 11:11:27.25	119.70	52.60	-46.6	-47.7	15.2	0.00e+00	0	26	0	1865416704	59	4065
2026-01-13 11:11:28.24	119.39	52.92	-46.7	-47.8	15.1	0.00e+00	0	26	0	1870659584	59	4120
2026-01-13 11:11:29.22	119.08	53.23	-46.8	-47.9	15.1	0.00e+00	0	26	0	1875902464	59	4160
2026-01-13 11:11:30.21	118.76	53.55	-46.9	-48.1	15.1	0.00e+00	0	26	0	1882193920	59	4243
2026-01-13 11:11:31.21	118.42	53.87	-46.4	-47.5	15.2	0.00e+00	0	26	0	1887436800	59	3963
2026-01-13 11:11:32.20	118.08	54.19	-46.2	-47.3	15.3	0.00e+00	0	26	0	1893728256	59	3881
2026-01-13 11:11:33.19	117.74	54.52	-46.5	-47.6	15.2	0.00e+00	0	26	0	1898971136	59	4033
2026-01-13 11:11:34.19	117.38	54.84	-46.6	-47.7	15.2	0.00e+00	0	26	0	1904214016	59	4073
2026-01-13 11:11:35.18	117.01	55.17	-46.4	-47.5	15.2	0.00e+00	0	26	0	1909456896	59	3981
2026-01-13 11:11:36.17	116.64	55.49	-46.4	-47.5	15.3	0.00e+00	0	27	0	1915748352	59	3972
2026-01-13 11:11:37.17	116.26	55.82	-46.4	-47.4	15.3	0.00e+00	0	26	0	1920991232	59	3954
2026-01-13 11:11:38.16	115.87	56.15	-46.2	-47.2	15.4	0.00e+00	0	26	0	1926234112	59	3859
2026-01-13 11:11:39.15	115.47	56.47	-46.4	-47.5	15.1	0.00e+00	0	26	0	1932525568	58	4232
2026-01-13 11:11:40.14	115.06	56.80	-46.5	-47.6	15.1	0.00e+00	0	26	0	1937768448	58	4253
2026-01-13 11:11:41.13	114.64	57.13	-46.2	-47.3	15.2	0.00e+00	0	26	0	1943011328	58	4139
2026-01-13 11:11:42.12	114.21	57.46	-46.4	-47.5	15.1	0.00e+00	0	26	0	1949302784	58	4221
2026-01-13 11:11:43.12	113.77	57.79	-46.5	-47.7	15.1	0.00e+00	0	27	0	1954545664	58	4301
2026-01-13 11:11:44.12	113.32	58.12	-46.5	-47.7	15.1	0.00e+00	0	26	0	1959788544	58	4303
2026-01-13 11:11:45.11	112.85	58.45	-46.7	-47.8	15.0	0.00e+00	0	26	0	1966080000	58	4383
2026-01-13 11:11:46.11	112.38	58.78	-46.3	-47.5	15.1	0.00e+00	0	26	0	1971322880	58	4201
2026-01-13 11:11:47.10	111.89	59.11	-46.1	-47.2	15.2	0.00e+00	0	26	0	1977614336	58	4074
2026-01-13 11:11:48.10	111.39	59.44	-46.1	-47.2	15.2	0.00e+00	0	26	0	1982857216	58	4069
2026-01-13 11:11:49.09	110.88	59.77	-46.3	-47.4	15.1	0.00e+00	0	26	0	1988100096	58	4164
2026-01-13 11:11:50.09	110.35	60.10	-46.1	-47.2	15.2	0.00e+00	0	26	0	1993342976	58	4060
2026-01-13 11:11:51.09	109.80	60.43	-46.2	-47.2	15.2	0.00e+00	0	26	0	1999634432	58	4084
2026-01-13 11:11:52.08	109.25	60.76	-46.2	-47.3	15.2	0.00e+00	0	26	0	2004877312	58	4099
2026-01-13 11:11:53.08	108.68	61.09	-45.9	-47.0	15.3	0.00e+00	0	26	0	2010120192	58	3961
2026-01-13 11:11:54.08	108.09	61.42	-46.0	-47.0	15.3	0.00e+00	0	26	0	2016411648	58	3993
2026-01-13 11:11:55.07	107.50	61.74	-45.7	-46.8	15.4	0.00e+00	0	26	0	2021654528	58	3886
2026-01-13 11:11:56.07	106.88	62.07	-45.7	-46.7	15.4	0.00e+00	0	26	0	2027945984	58	3845
2026-01-13 11:11:57.07	106.24	62.39	-45.4	-46.5	15.3	0.00e+00	0	26	0	2033188864	57	3968
2026-01-13 11:11:58.07	105.59	62.71	-45.5	-46.5	15.3	0.00e+00	0	26	0	2038431744	57	3986
2026-01-13 11:11:59.07	104.92	63.04	-45.5	-46.6	15.3	0.00e+00	0	26	0	2044723200	57	4020
2026-01-13 11:12:00.07	104.23	63.35	-45.1	-46.2	15.3	0.00e+00	0	26	0	2049966080	56	4070
2026-01-13 11:12:01.07	103.52	63.67	-45.3	-46.3	15.2	0.00e+00	0	26	0	2055208960	56	4118
2026-01-13 11:12:02.06	102.80	63.98	-45.2	-46.3	15.2	0.00e+00	0	26	0	2061500416	56	4112
2026-01-13 11:12:03.05	102.06	64.29	-44.9	-45.9	15.4	0.00e+00	0	26	0	2066743296	56	3938
2026-01-13 11:12:04.05	101.29	64.60	-44.9	-46.0	15.4	0.00e+00	0	26	0	2071986176	56	3963
2026-01-13 11:12:05.05	100.50	64.91	-44.9	-46.0	15.4	0.00e+00	0	26	0	2078277632	56	3974
2026-01-13 11:12:06.04	99.70	65.21	-44.5	-45.5	15.3	0.00e+00	0	26	0	2083520512	55	3984
2026-01-13 11:12:07.04	98.87	65.51	-44.4	-45.4	15.4	0.00e+00	0	26	0	2088763392	55	3943
2026-01-13 11:12:08.04	98.01	65.81	-44.6	-45.7	15.3	0.00e+00	0	26	0	2095054848	55	4056
2026-01-13 11:12:09.04	97.13	66.10	-44.7	-45.8	15.3	0.00e+00	0	26	0	2100297728	55	4109
2026-01-13 11:12:10.04	96.23	66.39	-44.6	-45.6	15.3	0.00e+00	0	26	0	2105540608	55	4036
2026-01-13 11:12:11.05	95.29	66.67	-44.0	-45.0	15.3	0.00e+00	0	26	0	2111832064	54	3997
2026-01-13 11:12:12.05	94.34	66.95	-44.3	-45.3	15.3	0.00e+00	0	26	0	2117074944	54	4131
2026-01-13 11:12:13.06	93.35	67.23	-44.7	-45.8	15.2	0.00e+00	0	26	0	2123366400	54	4349
2026-01-13 11:12:14.07	92.34	67.50	-44.5	-45.5	15.3	0.00e+00	0	26	0	2128609280	54	4217
2026-01-13 11:12:15.08	91.29	67.76	-44.1	-45.1	15.3	0.00e+00	0	26	0	2133852160	54	4024
2026-01-13 11:12:16.08	90.24	68.02	-44.2	-45.2	15.3	0.00e+00	0	27	0	2140143616	54	4084
2026-01-13 11:12:17.08	89.15	68.27	-44.2	-45.2	15.3	0.00e+00	0	26	0	2145386496	54	4085
2026-01-13 11:12:18.09	88.03	68.51	-44.3	-45.3	15.3	0.00e+00	0	26	0	2151677952	54	4110
2026-01-13 11:12:19.10	86.88	68.75	-44.7	-45.8	15.2	0.00e+00	0	26	0	2156920832	54	4345
2026-01-13 11:12:20.10	85.71	68.98	-44.6	-45.7	15.2	0.00e+00	0	26	0	2163212288	54	4306
2026-01-13 11:12:21.10	84.52	69.20	-44.5	-45.6	15.2	0.00e+00	0	26	0	2168455168	54	4246
2026-01-13 11:12:22.10	83.30	69.41	-44.5	-45.6	15.2	0.00e+00	0	27	0	2173698048	54	4251
2026-01-13 11:12:23.09	82.06	69.62	-44.6	-45.6	15.2	0.00e+00	0	26	0	2178940928	54	4275
2026-01-13 11:12:24.08	80.80	69.81	-44.6	-45.6	15.2	0.00e+00	0	26	0	2185232384	54	4288
2026-01-13 11:12:25.08	79.50	70.00	-44.5	-45.5	15.3	0.00e+00	0	26	0	2190475264	54	4237
2026-01-13 11:12:26.09	78.16	70.17	-44.1	-45.1	15.3	0.00e+00	0	26	0	2195718144	54	4021
2026-01-13 11:12:27.09	76.81	70.34	-44.2	-45.2	15.3	0.00e+00	0	26	0	2202009600	54	4089
2026-01-13 11:12:28.09	75.44	70.50	-44.5	-45.6	15.2	0.00e+00	0	26	0	2207252480	54	4260
2026-01-13 11:12:29.09	74.04	70.64	-44.6	-45.6	15.2	0.00e+00	0	26	0	2213543936	54	4288
2026-01-13 11:12:30.08	72.64	70.78	-44.5	-45.5	15.2	0.00e+00	0	26	0	2218786816	54	4217
2026-01-13 11:12:31.09	71.18	70.90	-44.4	-45.4	15.2	0.00e+00	0	26	0	2224029696	54	4189
2026-01-13 11:12:32.10	69.71	71.02	-44.4	-45.5	15.2	0.00e+00	0	26	0	2230321152	54	4199
2026-01-13 11:12:33.10	68.23	71.12	-44.4	-45.4	15.2	0.00e+00	0	26	0	2235564032	54	4185
2026-01-13 11:12:34.10	66.74	71.21	-44.3	-45.3	15.3	0.00e+00	0	26	0	2241855488	54	4117
2026-01-13 11:12:35.10	65.23	71.28	-44.7	-45.8	15.2	0.00e+00	0	26	0	2247098368	54	4359
2026-01-13 11:12:36.09	63.73	71.35	-44.6	-45.7	15.2	0.00e+00	0	26	0	2252341248	54	4305
2026-01-13 11:12:37.09	62.20	71.40	-44.3	-45.3	15.3	0.00e+00	0	26	0	2257584128	54	4117
2026-01-13 11:12:38.08	60.68	71.44	-44.4	-45.4	15.3	0.00e+00	0	26	0	2263875584	54	4162
2026-01-13 11:12:39.06	59.17	71.47	-44.7	-45.8	15.2	0.00e+00	0	26	0	2269118464	54	4362
2026-01-13 11:12:40.06	57.62	71.48	-44.7	-45.8	15.2	0.00e+00	0	26	0	2275409920	54	4350
2026-01-13 11:12:41.06	56.07	71.48	-44.8	-45.8	15.2	0.00e+00	0	26	0	2280652800	54	4387
2026-01-13 11:12:42.07	54.51	71.47	-45.0	-46.0	15.2	0.00e+00	0	26	0	2285895680	55	4235
2026-01-13 11:12:43.07	52.97	71.45	-44.7	-45.7	15.3	0.00e+00	0	26	0	2292187136	55	4068
2026-01-13 11:12:44.08	51.41	71.41	-44.5	-45.6	15.3	0.00e+00	0	26	0	2297430016	55	4011
2026-01-13 11:12:45.07	49.90	71.36	-44.4	-45.4	15.4	0.00e+00	0	26	0	2302672896	55	3931
2026-01-13 11:12:46.08	48.36	71.30	-44.4	-45.4	15.4	0.00e+00	0	26	0	2308964352	55	3952
2026-01-13 11:12:47.08	46.85	71.23	-44.5	-45.5	15.3	0.00e+00	0	26	0	2314207232	55	3997
2026-01-13 11:12:48.08	45.36	71.14	-44.3	-45.3	15.4	0.00e+00	0	26	0	2319450112	55	3898
2026-01-13 11:12:49.08	43.88	71.04	-44.1	-45.1	15.3	0.00e+00	0	26	0	2325741568	54	4018
2026-01-13 11:12:50.08	42.41	70.93	-44.3	-45.3	15.3	0.00e+00	0	26	0	2330984448	54	4116
2026-01-13 11:12:51.08	40.97	70.81	-44.7	-45.7	15.2	0.00e+00	0	26	0	2337275904	54	4322
2026-01-13 11:12:52.08	39.55	70.68	-44.6	-45.6	15.2	0.00e+00	0	26	0	2342518784	54	4291
2026-01-13 11:12:53.08	38.14	70.54	-44.6	-45.6	15.2	0.00e+00	0	26	0	2347761664	54	4275
2026-01-13 11:12:54.08	36.76	70.38	-44.7	-45.7	15.2	0.00e+00	0	26	0	2354053120	54	4330
2026-01-13 11:12:55.09	35.40	70.22	-44.6	-45.6	15.2	0.00e+00	0	26	0	2359296000	54	4283
2026-01-13 11:12:56.10	34.05	70.04	-44.5	-45.6	15.2	0.00e+00	0	26	0	2365587456	54	4248
2026-01-13 11:12:57.09	32.76	69.86	-44.4	-45.4	15.3	0.00e+00	0	26	0	2370830336	54	4188
2026-01-13 11:12:58.09	31.48	69.67	-44.2	-45.3	15.3	0.00e+00	0	26	0	2376073216	54	4099
2026-01-13 11:12:59.09	30.23	69.46	-44.2	-45.2	15.3	0.00e+00	0	26	0	2381316096	54	4092
2026-01-13 11:13:00.08	29.01	69.25	-44.2	-45.2	15.3	0.00e+00	0	27	0	2387607552	54	4085
2026-01-13 11:13:01.08	27.81	69.04	-44.2	-45.3	15.3	0.00e+00	0	26	0	2392850432	54	4104
2026-01-13 11:13:02.08	26.64	68.81	-44.2	-45.3	15.3	0.00e+00	0	26	0	2399141888	54	4100
2026-01-13 11:13:03.08	25.49	68.58	-44.3	-45.3	15.3	0.00e+00	0	26	0	2404384768	54	4111
2026-01-13 11:13:04.07	24.39	68.34	-44.6	-45.6	15.2	0.00e+00	0	26	0	2409627648	54	4275
2026-01-13 11:13:05.07	23.30	68.09	-44.5	-45.6	15.2	0.00e+00	0	26	0	2415919104	54	4246
2026-01-13 11:13:06.06	22.24	67.84	-44.6	-45.6	15.2	0.00e+00	0	26	0	2421161984	54	4272
2026-01-13 11:13:07.05	21.22	67.58	-44.6	-45.6	15.2	0.00e+00	0	26	0	2426404864	54	4273
2026-01-13 11:13:08.05	20.20	67.31	-44.7	-45.7	15.2	0.00e+00	0	26	0	2432696320	54	4318
2026-01-13 11:13:09.05	19.22	67.04	-44.9	-45.9	15.2	0.00e+00	0	26	0	2437939200	54	4430
2026-01-13 11:13:10.05	18.26	66.77	-44.5	-45.5	15.2	0.00e+00	0	26	0	2443182080	54	4211
2026-01-13 11:13:11.04	17.33	66.49	-44.4	-45.4	15.2	0.00e+00	0	26	0	2449473536	54	4171
2026-01-13 11:13:12.04	16.42	66.20	-44.4	-45.4	15.3	0.00e+00	0	26	0	2454716416	54	4163
2026-01-13 11:13:13.04	15.54	65.91	-44.5	-45.6	15.2	0.00e+00	0	26	0	2459959296	54	4252
2026-01-13 11:13:14.03	14.68	65.62	-44.4	-45.4	15.3	0.00e+00	0	26	0	2466250752	54	4190
2026-01-13 11:13:15.02	13.85	65.32	-44.3	-45.3	15.3	0.00e+00	0	26	0	2471493632	54	4124
2026-01-13 11:13:16.03	13.02	65.02	-44.6	-45.6	15.2	0.00e+00	0	26	0	2476736512	54	4266
2026-01-13 11:13:17.03	12.23	64.71	-44.9	-45.9	15.2	0.00e+00	0	26	0	2483027968	54	4429
2026-01-13 11:13:18.03	11.45	64.41	-45.0	-46.1	15.2	0.00e+00	0	26	0	2488270848	55	4249
2026-01-13 11:13:19.04	10.69	64.09	-45.0	-46.0	15.2	0.00e+00	0	26	0	2494562304	55	4209
2026-01-13 11:13:20.04	9.96	63.78	-45.0	-46.1	15.2	0.00e+00	0	26	0	2499805184	55	4259
2026-01-13 11:13:21.04	9.24	63.46	-45.2	-46.3	15.2	0.00e+00	0	26	0	2505048064	55	4366
2026-01-13 11:13:22.02	8.56	63.15	-45.0	-46.1	15.2	0.00e+00	0	26	0	2511339520	55	4250
2026-01-13 11:13:23.03	7.88	62.83	-44.8	-45.9	15.3	0.00e+00	0	26	0	2516582400	55	4155
2026-01-13 11:13:24.03	7.22	62.51	-44.9	-46.0	15.2	0.00e+00	0	26	0	2521825280	55	4197
2026-01-13 11:13:25.03	6.58	62.18	-45.0	-46.0	15.2	0.00e+00	0	26	0	2528116736	55	4240
2026-01-13 11:13:26.03	5.96	61.86	-45.0	-46.0	15.2	0.00e+00	0	26	0	2533359616	55	4219
2026-01-13 11:13:27.03	5.35	61.53	-45.0	-46.1	15.2	0.00e+00	0	26	0	2538602496	55	4258
2026-01-13 11:13:28.02	4.76	61.21	-45.2	-46.3	15.2	0.00e+00	0	26	0	2544893952	55	4351
2026-01-13 11:13:29.02	4.19	60.88	-45.3	-46.4	15.2	0.00e+00	0	26	0	2550136832	55	4404
2026-01-13 11:13:30.02	3.62	60.55	-45.7	-46.7	15.2	0.00e+00	0	26	0	2556428288	56	4333
2026-01-13 11:13:31.02	3.08	60.22	-45.8	-46.9	15.1	0.00e+00	0	26	0	2561671168	56	4433
2026-01-13 11:13:32.02	2.54	59.89	-46.0	-47.1	15.2	0.00e+00	0	26	0	2566914048	57	4276
2026-01-13 11:13:33.02	2.02	59.56	-46.1	-47.2	15.1	0.00e+00	0	26	0	2573205504	57	4305
2026-01-13 11:13:34.01	1.52	59.23	-45.8	-46.9	15.2	0.00e+00	0	26	0	2578448384	57	4173
2026-01-13 11:13:35.01	1.03	58.90	-45.8	-46.9	15.2	0.00e+00	0	26	0	2583691264	57	4171
2026-01-13 11:13:36.01	0.55	58.57	-45.8	-46.9	15.2	0.00e+00	0	26	0	2589982720	57	4175
2026-01-13 11:13:37.01	0.08	58.24	-45.7	-46.8	15.2	0.00e+00	0	26	0	2595225600	57	4114
2026-01-13 11:13:38.02	359.62	57.90	-45.4	-46.4	15.3	0.00e+00	0	26	0	2600468480	57	3942
2026-01-13 11:13:39.02	359.17	57.57	-45.5	-46.6	15.3	0.00e+00	0	26	0	2606759936	57	4012
2026-01-13 11:13:40.02	358.73	57.24	-45.6	-46.7	15.2	0.00e+00	0	27	0	2612002816	57	4070
2026-01-13 11:13:41.03	358.31	56.90	-45.8	-46.8	15.2	0.00e+00	0	26	0	2618294272	57	4135
2026-01-13 11:13:42.03	357.89	56.57	-45.9	-47.0	15.1	0.00e+00	0	26	0	2623537152	57	4205
2026-01-13 11:13:43.03	357.49	56.24	-46.1	-47.1	15.1	0.00e+00	0	26	0	2628780032	57	4279
2026-01-13 11:13:44.03	357.09	55.92	-46.2	-47.3	15.1	0.00e+00	0	26	0	2635071488	57	4370
2026-01-13 11:13:45.03	356.70	55.59	-46.3	-47.5	15.1	0.00e+00	0	26	0	2640314368	57	4443
2026-01-13 11:13:46.04	356.32	55.26	-46.3	-47.4	15.1	0.00e+00	0	26	0	2645557248	57	4440
2026-01-13 11:13:47.04	355.96	54.93	-46.5	-47.6	15.1	0.00e+00	0	26	0	2651848704	58	4252
2026-01-13 11:13:48.05	355.59	54.60	-46.5	-47.6	15.1	0.00e+00	0	26	0	2657091584	58	4279
2026-01-13 11:13:49.04	355.24	54.28	-46.4	-47.5	15.1	0.00e+00	0	26	0	2662334464	58	4225
2026-01-13 11:13:50.04	354.90	53.95	-46.4	-47.5	15.1	0.00e+00	0	26	0	2668625920	58	4232
2026-01-13 11:13:51.05	354.56	53.63	-46.3	-47.4	15.2	0.00e+00	0	26	0	2673868800	58	4161
2026-01-13 11:13:52.05	354.23	53.31	-46.2	-47.2	15.2	0.00e+00	0	26	0	2680160256	58	4098
2026-01-13 11:13:53.05	353.91	52.99	-46.2	-47.3	15.2	0.00e+00	0	26	0	2685403136	58	4131
2026-01-13 11:13:54.05	353.60	52.67	-46.2	-47.3	15.2	0.00e+00	0	26	0	2691694592	58	4105
2026-01-13 11:13:55.05	353.29	52.35	-46.0	-47.1	15.3	0.00e+00	0	26	0	2696937472	58	4005
2026-01-13 11:13:56.05	352.99	52.03	-45.9	-47.0	15.3	0.00e+00	0	26	0	2702180352	58	3977
2026-01-13 11:13:57.04	352.70	51.72	-46.0	-47.0	15.3	0.00e+00	0	26	0	2707423232	58	3997
2026-01-13 11:13:58.05	352.41	51.40	-45.9	-47.0	15.3	0.00e+00	0	26	0	2713714688	58	3981
2026-01-13 11:13:59.05	352.13	51.09	-45.8	-46.9	15.3	0.00e+00	0	26	0	2718957568	58	3924
2026-01-13 11:14:00.05	351.85	50.77	-45.7	-46.8	15.4	0.00e+00	0	26	0	2725249024	58	3884
2026-01-13 11:14:01.05	351.58	50.46	-45.8	-46.8	15.3	0.00e+00	0	26	0	2730491904	58	3895
2026-01-13 11:14:02.06	351.31	50.15	-45.8	-46.8	15.4	0.00e+00	0	26	0	2735734784	58	3904
2026-01-13 11:14:03.06	351.05	49.84	-45.8	-46.9	15.3	0.00e+00	0	26	0	2742026240	58	3949
2026-01-13 11:14:04.06	350.80	49.54	-45.8	-46.9	15.3	0.00e+00	0	26	0	2747269120	58	3917
2026-01-13 11:14:05.06	350.55	49.23	-45.5	-46.6	15.3	0.00e+00	0	26	0	2753560576	57	4014
2026-01-13 11:14:06.06	350.31	48.93	-45.5	-46.6	15.3	0.00e+00	0	26	0	2758803456	57	4024
2026-01-13 11:14:07.07	350.07	48.62	-45.5	-46.5	15.3	0.00e+00	0	26	0	2764046336	57	3999
2026-01-13 11:14:08.07	349.83	48.32	-45.5	-46.6	15.3	0.00e+00	0	26	0	2770337792	57	4008
2026-01-13 11:14:09.08	349.60	48.02	-45.6	-46.6	15.3	0.00e+00	0	26	0	2775580672	57	4040
2026-01-13 11:14:10.08	349.37	47.72	-45.5	-46.6	15.3	0.00e+00	0	26	0	2780823552	57	4013
2026-01-13 11:14:11.09	349.15	47.43	-45.4	-46.4	15.3	0.00e+00	0	26	0	2787115008	57	3955
2026-01-13 11:14:12.08	348.94	47.13	-45.4	-46.4	15.3	0.00e+00	0	26	0	2792357888	57	3946
2026-01-13 11:14:13.08	348.72	46.84	-45.4	-46.5	15.3	0.00e+00	0	26	0	2797600768	57	3961
2026-01-13 11:14:14.08	348.52	46.55	-45.4	-46.4	15.3	0.00e+00	0	27	0	2803892224	57	3950
2026-01-13 11:14:15.08	348.31	46.26	-45.4	-46.5	15.3	0.00e+00	0	26	0	2809135104	57	3974
2026-01-13 11:14:16.08	348.11	45.97	-45.5	-46.5	15.3	0.00e+00	0	26	0	2815426560	57	3999
2026-01-13 11:14:17.08	347.91	45.69	-45.4	-46.4	15.3	0.00e+00	0	26	0	2820669440	57	3943
2026-01-13 11:14:18.07	347.72	45.41	-45.4	-46.5	15.3	0.00e+00	0	26	0	2825912320	57	3962
2026-01-13 11:14:19.06	347.53	45.13	-45.4	-46.5	15.3	0.00e+00	0	26	0	2832203776	57	3978
2026-01-13 11:14:20.05	347.35	44.85	-45.4	-46.5	15.3	0.00e+00	0	27	0	2837446656	57	3986
2026-01-13 11:14:21.04	347.17	44.57	-45.5	-46.5	15.3	0.00e+00	0	26	0	2842689536	57	3987
2026-01-13 11:14:22.04	346.99	44.29	-45.2	-46.2	15.4	0.00e+00	0	26	0	2847932416	57	3867
2026-01-13 11:14:23.04	346.81	44.02	-45.2	-46.3	15.2	0.00e+00	0	26	0	2854223872	56	4100
2026-01-13 11:14:24.03	346.64	43.75	-45.2	-46.2	15.3	0.00e+00	0	26	0	2859466752	56	4091
2026-01-13 11:14:25.03	346.47	43.47	-45.3	-46.3	15.2	0.00e+00	0	26	0	2865758208	56	4133
2026-01-13 11:14:26.03	346.30	43.20	-45.4	-46.5	15.2	0.00e+00	0	26	0	2871001088	56	4215
2026-01-13 11:14:27.03	346.13	42.93	-45.4	-46.5	15.2	0.00e+00	0	26	0	2876243968	56	4218
2026-01-13 11:14:28.03	345.97	42.66	-45.4	-46.5	15.2	0.00e+00	0	26	0	2882535424	56	4210
2026-01-13 11:14:29.03	345.81	42.40	-45.4	-46.4	15.2	0.00e+00	0	26	0	2887778304	56	4178
2026-01-13 11:14:30.03	345.65	42.13	-45.4	-46.5	15.2	0.00e+00	0	26	0	2893021184	56	4197
2026-01-13 11:14:31.02	345.50	41.87	-45.2	-46.3	15.2	0.00e+00	0	26	0	2899312640	56	4099
2026-01-13 11:14:32.02	345.35	41.61	-45.2	-46.3	15.2	0.00e+00	0	26	0	2904555520	56	4118
2026-01-13 11:14:33.02	345.20	41.35	-45.1	-46.1	15.3	0.00e+00	0	27	0	2909798400	56	4026
2026-01-13 11:14:34.02	345.05	41.09	-45.1	-46.1	15.3	0.00e+00	0	26	0	2916089856	56	4042
2026-01-13 11:14:35.01	344.91	40.84	-45.0	-46.1	15.3	0.00e+00	0	26	0	2921332736	56	4010
2026-01-13 11:14:36.02	344.77	40.58	-45.1	-46.1	15.3	0.00e+00	0	26	0	2927624192	56	4032
2026-01-13 11:14:37.01	344.63	40.33	-45.1	-46.2	15.3	0.00e+00	0	26	0	2932867072	56	4055
2026-01-13 11:14:38.01	344.49	40.08	-45.1	-46.1	15.3	0.00e+00	0	26	0	2938109952	56	4040
2026-01-13 11:14:39.01	344.35	39.83	-45.1	-46.2	15.3	0.00e+00	0	26	0	2944401408	56	4068
2026-01-13 11:14:40.00	344.22	39.58	-45.1	-46.2	15.3	0.00e+00	0	26	0	2949644288	56	4070
2026-01-13 11:14:41.00	344.09	39.34	-45.1	-46.2	15.3	0.00e+00	0	26	0	2954887168	56	4070
2026-01-13 11:14:42.00	343.96	39.09	-45.1	-46.1	15.3	0.00e+00	0	26	0	2961178624	56	4041
2026-01-13 11:14:42.99	343.83	38.85	-45.0	-46.0	15.3	0.00e+00	0	26	0	2966421504	56	3994
2026-01-13 11:14:43.99	343.71	38.61	-45.0	-46.0	15.3	0.00e+00	0	26	0	2971664384	56	4001
2026-01-13 11:14:44.98	343.59	38.37	-44.9	-45.9	15.4	0.00e+00	0	26	0	2977955840	56	3952
2026-01-13 11:14:45.98	343.46	38.13	-44.8	-45.8	15.4	0.00e+00	0	26	0	2983198720	56	3913
2026-01-13 11:14:46.97	343.35	37.90	-44.7	-45.7	15.4	0.00e+00	0	26	0	2988441600	56	3859
2026-01-13 11:14:47.97	343.23	37.66	-44.5	-45.5	15.3	0.00e+00	0	26	0	2994733056	55	3964
2026-01-13 11:14:48.97	343.11	37.43	-44.4	-45.4	15.3	0.00e+00	0	26	0	2999975936	55	3949
2026-01-13 11:14:49.96	343.00	37.19	-44.4	-45.4	15.3	0.00e+00	0	26	0	3005218816	55	3952
2026-01-13 11:14:50.96	342.88	36.96	-44.4	-45.5	15.3	0.00e+00	0	26	0	3011510272	55	3966
2026-01-13 11:14:51.96	342.77	36.73	-44.5	-45.6	15.3	0.00e+00	0	26	0	3016753152	55	4017
2026-01-13 11:14:52.95	342.66	36.51	-44.6	-45.6	15.3	0.00e+00	0	26	0	3021996032	55	4049
2026-01-13 11:14:53.95	342.56	36.28	-44.6	-45.6	15.3	0.00e+00	0	26	0	3028287488	55	4027
2026-01-13 11:14:54.95	342.45	36.05	-44.7	-45.7	15.3	0.00e+00	0	26	0	3033530368	55	4072
2026-01-13 11:14:55.95	342.34	35.83	-44.7	-45.7	15.3	0.00e+00	0	26	0	3039821824	55	4075
2026-01-13 11:14:56.95	342.24	35.61	-44.7	-45.7	15.3	0.00e+00	0	26	0	3045064704	55	4087
2026-01-13 11:14:57.95	342.14	35.39	-44.7	-45.8	15.3	0.00e+00	0	26	0	3050307584	55	4101
2026-01-13 11:14:58.96	342.04	35.16	-44.8	-45.8	15.3	0.00e+00	0	26	0	3056599040	55	4145
2026-01-13 11:14:59.96	341.94	34.94	-44.9	-45.9	15.2	0.00e+00	0	26	0	3061841920	55	4190
2026-01-13 11:15:00.97	341.84	34.73	-44.9	-45.9	15.2	0.00e+00	0	26	0	3067084800	55	4184
2026-01-13 11:15:01.97	341.74	34.51	-44.8	-45.9	15.2	0.00e+00	0	26	0	3073376256	55	4171
2026-01-13 11:15:02.98	341.65	34.29	-44.9	-45.9	15.2	0.00e+00	0	27	0	3078619136	55	4185
2026-01-13 11:15:03.99	341.55	34.08	-44.8	-45.8	15.2	0.00e+00	0	26	0	3083862016	55	4126
2026-01-13 11:15:04.98	341.46	33.87	-44.9	-45.9	15.2	0.00e+00	0	26	0	3090153472	55	4164
2026-01-13 11:15:05.99	341.37	33.66	-44.7	-45.8	15.3	0.00e+00	0	27	0	3095396352	55	4109
2026-01-13 11:15:06.98	341.28	33.45	-44.8	-45.8	15.2	0.00e+00	0	26	0	3101687808	55	4141
2026-01-13 11:15:07.98	341.19	33.24	-44.8	-45.8	15.3	0.00e+00	0	26	0	3106930688	55	4114
2026-01-13 11:15:08.98	341.10	33.04	-44.8	-45.9	15.2	0.00e+00	0	26	0	3112173568	55	4150
2026-01-13 11:15:09.97	341.01	32.83	-44.9	-46.0	15.2	0.00e+00	0	26	0	3118465024	55	4207
2026-01-13 11:15:10.98	340.93	32.63	-45.0	-46.0	15.2	0.00e+00	0	26	0	3123707904	55	4242
2026-01-13 11:15:11.97	340.84	32.43	-45.1	-46.2	15.2	0.00e+00	0	26	0	3128950784	55	4293
2026-01-13 11:15:12.96	340.76	32.23	-45.2	-46.3	15.2	0.00e+00	0	26	0	3135242240	55	4351
2026-01-13 11:15:13.96	340.68	32.03	-45.3	-46.4	15.2	0.00e+00	0	26	0	3140485120	55	4401
2026-01-13 11:15:14.97	340.60	31.83	-45.4	-46.5	15.2	0.00e+00	0	26	0	3145728000	55	4442
2026-01-13 11:15:15.96	340.52	31.63	-45.4	-46.4	15.1	0.00e+00	0	26	0	3152019456	55	4437
2026-01-13 11:15:16.96	340.44	31.44	-45.4	-46.5	15.2	0.00e+00	0	26	0	3157262336	55	4453
2026-01-13 11:15:17.96	340.36	31.24	-45.6	-46.6	15.2	0.00e+00	0	26	0	3163553792	56	4290
2026-01-13 11:15:18.95	340.28	31.05	-45.6	-46.7	15.2	0.00e+00	0	26	0	3168796672	56	4294
2026-01-13 11:15:19.94	340.21	30.86	-45.5	-46.6	15.2	0.00e+00	0	26	0	3174039552	56	4273
2026-01-13 11:15:20.94	340.13	30.67	-45.6	-46.6	15.2	0.00e+00	0	26	0	3179282432	56	4284
2026-01-13 11:15:21.93	340.06	30.48	-45.6	-46.7	15.2	0.00e+00	0	26	0	3185573888	56	4293
2026-01-13 11:15:22.92	339.98	30.30	-45.6	-46.7	15.1	0.00e+00	0	26	0	3190816768	56	4337
2026-01-13 11:15:23.92	339.91	30.11	-45.6	-46.7	15.1	0.00e+00	0	26	0	3197108224	56	4332
2026-01-13 11:15:24.90	339.84	29.93	-45.5	-46.6	15.2	0.00e+00	0	26	0	3202351104	56	4280
2026-01-13 11:15:25.90	339.77	29.74	-45.6	-46.6	15.1	0.00e+00	0	26	0	3207593984	56	4291
2026-01-13 11:15:26.90	339.70	29.56	-45.5	-46.6	15.2	0.00e+00	0	26	0	3213885440	56	4253
2026-01-13 11:15:27.88	339.63	29.38	-45.5	-46.5	15.2	0.00e+00	0	26	0	3219128320	56	4224
2026-01-13 11:15:28.89	339.56	29.19	-45.4	-46.5	15.2	0.00e+00	0	27	0	3224371200	56	4215
2026-01-13 11:15:29.87	339.50	29.02	-45.4	-46.4	15.2	0.00e+00	0	26	0	3229614080	56	4183
2026-01-13 11:15:30.86	339.43	28.84	-45.4	-46.4	15.2	0.00e+00	0	26	0	3235905536	56	4183
2026-01-13 11:15:31.86	339.36	28.66	-45.4	-46.5	15.2	0.00e+00	0	26	0	3241148416	56	4199
2026-01-13 11:15:32.85	339.30	28.48	-45.4	-46.4	15.2	0.00e+00	0	26	0	3247439872	56	4186
2026-01-13 11:15:33.85	339.24	28.31	-45.4	-46.5	15.2	0.00e+00	0	26	0	3252682752	56	4211
2026-01-13 11:15:34.84	339.17	28.13	-45.3	-46.4	15.2	0.00e+00	0	26	0	3257925632	56	4156
2026-01-13 11:15:35.84	339.11	27.96	-45.4	-46.5	15.2	0.00e+00	0	26	0	3263168512	56	4215
2026-01-13 11:15:36.82	339.05	27.79	-45.4	-46.5	15.2	0.00e+00	0	26	0	3269459968	56	4216
2026-01-13 11:15:37.82	338.99	27.62	-45.4	-46.4	15.2	0.00e+00	0	26	0	3274702848	56	4191
2026-01-13 11:15:38.81	338.93	27.45	-45.4	-46.5	15.2	0.00e+00	0	27	0	3279945728	56	4221
2026-01-13 11:15:39.81	338.87	27.28	-45.5	-46.6	15.2	0.00e+00	0	27	0	3286237184	56	4264
2026-01-13 11:15:40.80	338.81	27.11	-45.5	-46.6	15.2	0.00e+00	0	27	0	3291480064	56	4271
2026-01-13 11:15:41.81	338.75	26.94	-45.5	-46.6	15.2	0.00e+00	0	26	0	3297771520	56	4268
2026-01-13 11:15:42.80	338.69	26.78	-45.4	-46.5	15.2	0.00e+00	0	26	0	3303014400	56	4223
2026-01-13 11:15:43.79	338.63	26.61	-45.5	-46.5	15.2	0.00e+00	0	26	0	3308257280	56	4237
2026-01-13 11:15:44.79	338.58	26.45	-45.4	-46.5	15.2	0.00e+00	0	26	0	3313500160	56	4227
2026-01-13 11:15:45.79	338.52	26.28	-45.4	-46.5	15.2	0.00e+00	0	26	0	3319791616	56	4213
2026-01-13 11:15:46.78	338.46	26.12	-45.5	-46.6	15.2	0.00e+00	0	26	0	3325034496	56	4251
2026-01-13 11:15:47.78	338.41	25.96	-45.4	-46.5	15.2	0.00e+00	0	26	0	3330277376	56	4200
2026-01-13 11:15:48.78	338.35	25.80	-45.5	-46.6	15.2	0.00e+00	0	26	0	3336568832	56	4246
2026-01-13 11:15:49.77	338.30	25.64	-45.4	-46.5	15.2	0.00e+00	0	26	0	3341811712	56	4202
2026-01-13 11:15:50.76	338.25	25.48	-45.4	-46.5	15.2	0.00e+00	0	26	0	3348103168	56	4230
2026-01-13 11:15:51.76	338.19	25.32	-45.4	-46.5	15.2	0.00e+00	0	26	0	3353346048	56	4210
2026-01-13 11:15:52.75	338.14	25.17	-45.5	-46.5	15.2	0.00e+00	0	27	0	3358588928	56	4239
2026-01-13 11:15:53.74	338.09	25.01	-45.5	-46.6	15.2	0.00e+00	0	26	0	3363831808	56	4266
2026-01-13 11:15:54.73	338.04	24.86	-45.5	-46.5	15.2	0.00e+00	0	26	0	3370123264	56	4241
2026-01-13 11:15:55.73	337.99	24.70	-45.4	-46.5	15.2	0.00e+00	0	26	0	3375366144	56	4220
2026-01-13 11:15:56.73	337.94	24.55	-45.5	-46.6	15.2	0.00e+00	0	26	0	3380609024	56	4249
2026-01-13 11:15:57.73	337.89	24.40	-45.5	-46.6	15.2	0.00e+00	0	26	0	3386900480	56	4243
2026-01-13 11:15:58.73	337.84	24.24	-45.5	-46.6	15.2	0.00e+00	0	26	0	3392143360	56	4247
2026-01-13 11:15:59.72	337.79	24.09	-45.6	-46.7	15.1	0.00e+00	0	27	0	3398434816	56	4295
2026-01-13 11:16:00.73	337.74	23.94	-45.6	-46.7	15.1	0.00e+00	0	26	0	3403677696	56	4303
2026-01-13 11:16:01.73	337.70	23.79	-45.7	-46.8	15.1	0.00e+00	0	26	0	3408920576	56	4359
2026-01-13 11:16:02.73	337.65	23.64	-45.8	-46.9	15.1	0.00e+00	0	26	0	3415212032	56	4399
2026-01-13 11:16:03.74	337.60	23.49	-45.9	-47.0	15.1	0.00e+00	0	26	0	3420454912	56	4455
2026-01-13 11:16:04.73	337.56	23.35	-45.9	-47.0	15.1	0.00e+00	0	26	0	3425697792	57	4227
2026-01-13 11:16:05.72	337.51	23.20	-46.1	-47.2	15.1	0.00e+00	0	26	0	3431989248	57	4300
2026-01-13 11:16:06.72	337.47	23.06	-46.1	-47.2	15.1	0.00e+00	0	26	0	3437232128	57	4326
2026-01-13 11:16:07.71	337.42	22.91	-46.2	-47.4	15.1	0.00e+00	0	26	0	3442475008	57	4396
2026-01-13 11:16:08.71	337.38	22.77	-46.3	-47.5	15.1	0.00e+00	0	26	0	3448766464	57	4452
2026-01-13 11:16:09.71	337.33	22.63	-46.4	-47.5	15.1	0.00e+00	0	27	0	3454009344	58	4228
2026-01-13 11:16:10.71	337.29	22.48	-46.4	-47.5	15.1	0.00e+00	0	27	0	3460300800	58	4219
2026-01-13 11:16:11.70	337.25	22.34	-46.3	-47.4	15.1	0.00e+00	0	26	0	3465543680	58	4193
2026-01-13 11:16:12.71	337.20	22.20	-46.4	-47.5	15.1	0.00e+00	0	26	0	3470786560	58	4228
2026-01-13 11:16:13.71	337.16	22.06	-46.4	-47.5	15.1	0.00e+00	0	26	0	3477078016	58	4217
2026-01-13 11:16:14.70	337.12	21.92	-46.4	-47.5	15.1	0.00e+00	0	26	0	3482320896	58	4238
2026-01-13 11:16:15.71	337.08	21.78	-46.4	-47.5	15.1	0.00e+00	0	26	0	3487563776	58	4213
2026-01-13 11:16:16.71	337.04	21.64	-46.4	-47.5	15.1	0.00e+00	0	26	0	3493855232	58	4236
2026-01-13 11:16:17.72	337.00	21.51	-46.4	-47.5	15.1	0.00e+00	0	26	0	3499098112	58	4229
2026-01-13 11:16:18.73	336.96	21.37	-46.4	-47.5	15.1	0.00e+00	0	26	0	3504340992	58	4242
2026-01-13 11:16:19.73	336.92	21.23	-46.4	-47.5	15.1	0.00e+00	0	27	0	3510632448	58	4219
2026-01-13 11:16:20.72	336.88	21.10	-46.4	-47.5	15.1	0.00e+00	0	26	0	3515875328	58	4208
2026-01-13 11:16:21.72	336.84	20.96	-46.3	-47.4	15.1	0.00e+00	0	26	0	3522166784	58	4168
2026-01-13 11:16:22.71	336.80	20.83	-46.4	-47.5	15.1	0.00e+00	0	26	0	3527409664	58	4230
2026-01-13 11:16:23.71	336.76	20.70	-46.4	-47.5	15.1	0.00e+00	0	26	0	3532652544	58	4232
2026-01-13 11:16:24.71	336.73	20.57	-46.3	-47.4	15.1	0.00e+00	0	26	0	3538944000	58	4168
2026-01-13 11:16:25.70	336.69	20.44	-46.3	-47.4	15.1	0.00e+00	0	26	0	3544186880	58	4186
2026-01-13 11:16:26.69	336.65	20.31	-46.3	-47.4	15.1	0.00e+00	0	26	0	3549429760	58	4180
2026-01-13 11:16:27.69	336.61	20.18	-46.3	-47.4	15.1	0.00e+00	0	26	0	3554672640	58	4151
2026-01-13 11:16:28.70	336.58	20.04	-46.4	-47.5	15.1	0.00e+00	0	26	0	3560964096	58	4202
2026-01-13 11:16:29.69	336.54	19.92	-46.3	-47.4	15.1	0.00e+00	0	26	0	3566206976	58	4165
2026-01-13 11:16:30.69	336.51	19.79	-46.5	-47.6	15.1	0.00e+00	0	26	0	3572498432	58	4243
2026-01-13 11:16:31.68	336.47	19.66	-46.5	-47.6	15.1	0.00e+00	0	26	0	3577741312	58	4245
2026-01-13 11:16:32.68	336.44	19.54	-46.5	-47.6	15.1	0.00e+00	0	26	0	3582984192	58	4248
2026-01-13 11:16:33.67	336.40	19.41	-46.6	-47.7	15.0	0.00e+00	0	26	0	3589275648	58	4303
2026-01-13 11:16:34.67	336.37	19.28	-46.6	-47.7	15.0	0.00e+00	0	26	0	3594518528	58	4310
2026-01-13 11:16:35.66	336.33	19.16	-46.6	-47.7	15.0	0.00e+00	0	26	0	3599761408	58	4323
2026-01-13 11:16:36.64	336.30	19.04	-46.7	-47.8	15.0	0.00e+00	0	26	0	3605004288	58	4383
2026-01-13 11:16:37.63	336.27	18.92	-46.6	-47.7	15.0	0.00e+00	0	26	0	3611295744	58	4335
2026-01-13 11:16:38.63	336.23	18.79	-46.6	-47.7	15.0	0.00e+00	0	26	0	3616538624	58	4320
2026-01-13 11:16:39.63	336.20	18.67	-46.7	-47.8	15.0	0.00e+00	0	26	0	3622830080	58	4353
2026-01-13 11:16:40.62	336.17	18.55	-46.6	-47.7	15.0	0.00e+00	0	26	0	3628072960	58	4326
2026-01-13 11:16:41.61	336.14	18.43	-46.6	-47.7	15.0	0.00e+00	0	26	0	3633315840	58	4329
2026-01-13 11:16:42.60	336.10	18.31	-46.8	-47.9	15.0	0.00e+00	0	26	0	3639607296	58	4411
2026-01-13 11:16:43.59	336.07	18.19	-46.7	-47.9	15.0	0.00e+00	0	26	0	3644850176	58	4405
2026-01-13 11:16:44.58	336.04	18.07	-46.7	-47.8	15.0	0.00e+00	0	26	0	3650093056	58	4391
2026-01-13 11:16:45.58	336.01	17.95	-46.8	-47.9	15.0	0.00e+00	0	26	0	3655335936	58	4432
2026-01-13 11:16:46.58	335.98	17.83	-46.9	-48.0	14.9	0.00e+00	0	26	0	3661627392	58	4474
2026-01-13 11:16:47.58	335.95	17.71	-46.8	-48.0	15.0	0.00e+00	0	26	0	3666870272	59	4198
2026-01-13 11:16:48.57	335.92	17.60	-46.9	-48.0	15.0	0.00e+00	0	26	0	3673161728	59	4224
2026-01-13 11:16:49.56	335.89	17.48	-46.8	-47.9	15.1	0.00e+00	0	26	0	3678404608	59	4172
2026-01-13 11:16:50.56	335.86	17.37	-46.8	-47.9	15.1	0.00e+00	0	26	0	3683647488	59	4184
