passes_logs/2026/01/13/R3.2S_Murmansk/R3.2S_Murmansk__20260113_130109_NOAA_21_JPSS-2_rec.log

#Pass ID: 20260113_130109_NOAA 21 (JPSS-2)
#Satellite: NOAA 21 (JPSS-2)
#Configuration: NOAA-21
#almurnet v.1.7.20251203
#Start time: 2026-01-13 13:01:11

#Version: 2.2.20231116
#Station: R3.2S_Murmansk
#Location: 33.079688 lon 68.888172 lat
#TLE: 1 54234U 22150A   26013.10960858  .00000050  00000+0  44556-4 0  9999
#TLE: 2 54234  98.7496 314.0323 0000695 304.2210  55.8900 14.19534407164546

#Time	Az	El	Level	Level2	SNR	BER	BlckErr	Temp	State	Recorded	gain1	gain2
2026-01-13 13:01:11.27	243.47	2.10	-58.8	-72.6	3.8	1.49e+00	0	27	0	0	84	17059
2026-01-13 13:01:12.27	243.57	2.14	-58.6	-72.4	3.8	1.49e+00	0	27	104	0	82	18653
2026-01-13 13:01:13.26	243.67	2.19	-58.6	-72.5	3.8	1.49e+00	0	27	104	0	82	18742
2026-01-13 13:01:14.26	243.77	2.23	-58.6	-72.4	3.8	1.49e+00	0	27	104	0	82	18670
2026-01-13 13:01:15.26	243.87	2.27	-58.6	-72.4	3.8	1.49e+00	0	27	104	0	82	18719
2026-01-13 13:01:16.26	243.97	2.32	-58.6	-72.4	3.8	1.49e+00	0	27	104	0	82	18673
2026-01-13 13:01:17.26	244.07	2.36	-58.6	-72.4	3.8	1.49e+00	0	27	104	0	82	18678
2026-01-13 13:01:18.26	244.17	2.41	-58.6	-72.4	3.8	1.49e+00	0	27	104	0	82	18680
2026-01-13 13:01:19.26	244.27	2.45	-58.6	-72.4	3.8	1.49e+00	0	27	104	0	82	18604
2026-01-13 13:01:20.26	244.37	2.50	-58.6	-72.4	3.8	1.49e+00	0	27	104	0	82	18634
2026-01-13 13:01:21.26	244.48	2.54	-58.6	-72.4	3.8	1.49e+00	0	27	104	0	82	18617
2026-01-13 13:01:22.26	244.58	2.58	-58.6	-72.4	3.8	1.49e+00	0	27	104	0	82	18616
2026-01-13 13:01:23.27	244.68	2.63	-58.6	-72.4	3.8	1.49e+00	0	27	104	0	82	18640
2026-01-13 13:01:24.27	244.79	2.67	-58.6	-72.4	3.8	1.49e+00	0	27	104	0	82	18634
2026-01-13 13:01:25.27	244.89	2.72	-58.6	-72.4	3.8	1.49e+00	0	27	104	0	82	18636
2026-01-13 13:01:26.27	244.99	2.76	-58.6	-72.4	3.8	1.49e+00	0	27	104	0	82	18552
2026-01-13 13:01:27.28	245.10	2.81	-58.6	-72.4	3.8	1.49e+00	0	27	104	0	82	18591
2026-01-13 13:01:28.28	245.20	2.85	-58.6	-72.4	3.8	1.49e+00	0	27	104	0	82	18602
2026-01-13 13:01:29.28	245.31	2.90	-58.6	-72.4	3.8	1.49e+00	0	27	104	0	82	18602
2026-01-13 13:01:30.28	245.41	2.94	-58.6	-72.4	3.8	1.49e+00	0	27	104	0	82	18611
2026-01-13 13:01:31.28	245.52	2.98	-58.6	-72.4	3.8	1.49e+00	0	27	104	0	82	18563
2026-01-13 13:01:32.27	245.62	3.03	-58.6	-72.4	3.8	1.49e+00	0	27	104	0	82	18555
2026-01-13 13:01:33.26	245.73	3.07	-58.6	-72.3	3.8	1.49e+00	0	27	104	0	82	18447
2026-01-13 13:01:34.26	245.83	3.12	-58.6	-72.3	3.8	1.49e+00	0	27	104	0	82	18445
2026-01-13 13:01:35.25	245.94	3.16	-58.6	-72.3	3.8	1.49e+00	0	27	104	0	82	18378
2026-01-13 13:01:36.25	246.05	3.20	-58.6	-72.3	3.8	1.49e+00	0	27	104	0	82	18361
2026-01-13 13:01:37.25	246.15	3.25	-58.6	-72.3	3.8	1.49e+00	0	27	104	0	82	18485
2026-01-13 13:01:38.26	246.26	3.29	-58.6	-72.3	3.8	1.49e+00	0	27	104	0	82	18441
2026-01-13 13:01:39.26	246.37	3.34	-58.6	-72.3	3.8	1.49e+00	0	27	104	0	82	18389
2026-01-13 13:01:40.26	246.48	3.38	-58.6	-72.3	3.8	1.49e+00	0	27	104	0	82	18440
2026-01-13 13:01:41.27	246.59	3.43	-58.6	-72.3	3.8	1.49e+00	0	27	104	0	82	18445
2026-01-13 13:01:42.27	246.70	3.47	-58.6	-72.3	3.8	1.49e+00	0	27	104	0	82	18512
2026-01-13 13:01:43.27	246.80	3.51	-58.6	-72.4	3.8	1.49e+00	0	27	104	0	82	18533
2026-01-13 13:01:44.28	246.92	3.56	-58.6	-72.4	3.8	1.49e+00	0	27	104	0	82	18609
2026-01-13 13:01:45.27	247.02	3.60	-58.6	-72.3	3.8	1.49e+00	0	27	104	0	82	18470
2026-01-13 13:01:46.28	247.13	3.65	-58.6	-72.3	3.8	1.49e+00	0	27	104	0	82	18421
2026-01-13 13:01:47.28	247.24	3.69	-58.6	-72.2	3.8	1.49e+00	0	27	104	0	82	18210
2026-01-13 13:01:48.28	247.36	3.74	-58.6	-72.2	3.8	1.49e+00	0	27	104	0	82	18302
2026-01-13 13:01:49.28	247.47	3.78	-58.6	-72.2	3.8	1.49e+00	0	27	104	0	82	18199
2026-01-13 13:01:50.27	247.58	3.82	-58.6	-72.3	3.8	1.49e+00	0	27	104	0	82	18434
2026-01-13 13:01:51.28	247.69	3.87	-58.6	-72.3	3.8	1.49e+00	0	27	104	0	82	18462
2026-01-13 13:01:52.28	247.80	3.91	-58.6	-72.4	3.8	1.49e+00	0	27	104	0	82	18557
2026-01-13 13:01:53.28	247.91	3.96	-58.6	-72.4	3.8	1.49e+00	0	27	104	0	82	18597
2026-01-13 13:01:54.28	248.03	4.00	-58.6	-72.4	3.8	1.49e+00	0	27	104	0	82	18561
2026-01-13 13:01:55.28	248.14	4.04	-58.6	-72.3	3.8	1.49e+00	0	27	104	0	82	18508
2026-01-13 13:01:56.27	248.25	4.09	-58.6	-72.3	3.8	1.49e+00	0	27	104	0	82	18350
2026-01-13 13:01:57.27	248.36	4.13	-58.6	-72.1	3.8	1.49e+00	0	27	104	0	82	18077
2026-01-13 13:01:58.27	248.48	4.18	-58.6	-72.2	3.8	1.49e+00	0	27	104	0	82	18170
2026-01-13 13:01:59.27	248.59	4.22	-58.6	-72.3	3.8	1.49e+00	0	27	104	0	82	18307
2026-01-13 13:02:00.26	248.71	4.26	-58.6	-72.2	3.8	1.49e+00	0	27	104	0	82	18228
2026-01-13 13:02:01.26	248.82	4.31	-58.6	-72.1	3.8	1.49e+00	0	27	104	0	82	17929
2026-01-13 13:02:02.25	248.93	4.35	-58.6	-72.0	3.8	1.49e+00	0	27	104	0	82	17734
2026-01-13 13:02:03.25	249.05	4.39	-58.5	-71.9	3.8	1.49e+00	0	27	104	0	82	17538
2026-01-13 13:02:04.25	249.17	4.44	-58.6	-72.0	3.8	1.49e+00	0	27	104	0	82	17768
2026-01-13 13:02:05.25	249.28	4.48	-58.6	-72.3	3.8	1.49e+00	0	27	104	0	82	18308
2026-01-13 13:02:06.24	249.40	4.53	-58.6	-72.3	3.8	1.49e+00	0	27	104	0	82	18387
2026-01-13 13:02:07.24	249.51	4.57	-58.5	-71.7	3.8	1.49e+00	0	27	104	0	82	17100
2026-01-13 13:02:08.23	249.63	4.61	-58.4	-70.3	3.9	1.49e+00	0	27	104	0	82	14563
2026-01-13 13:02:09.23	249.75	4.66	-58.3	-68.3	4.0	1.46e+00	0	27	104	0	82	11665
2026-01-13 13:02:10.22	249.86	4.70	-58.1	-66.8	5.0	1.15e+00	0	27	104	0	82	9732
2026-01-13 13:02:11.22	249.98	4.74	-57.9	-65.5	5.7	4.62e-01	0	27	0	2097152	82	8418
2026-01-13 13:02:12.22	250.10	4.79	-57.5	-64.0	6.7	1.79e-01	0	27	0	5242880	81	7505
2026-01-13 13:02:13.22	250.22	4.83	-57.2	-62.9	7.6	7.55e-02	0	27	0	8388608	81	6623
2026-01-13 13:02:14.22	250.34	4.87	-56.5	-61.0	9.2	1.61e-02	0	27	0	11534336	79	5944
2026-01-13 13:02:15.22	250.46	4.92	-55.7	-59.3	10.6	1.09e-03	0	27	0	14680064	78	5172
2026-01-13 13:02:16.21	250.58	4.96	-54.7	-57.5	11.8	2.59e-05	0	27	0	17825792	76	4753
2026-01-13 13:02:17.21	250.70	5.00	-53.8	-56.2	12.6	0.00e+00	0	27	0	20971520	74	4564
2026-01-13 13:02:18.21	250.82	5.05	-53.0	-55.0	13.1	0.00e+00	0	27	0	24117248	72	4489
2026-01-13 13:02:19.21	250.94	5.09	-53.6	-56.0	12.5	0.00e+00	0	27	0	27262976	72	5006
2026-01-13 13:02:20.21	251.06	5.13	-55.5	-58.8	10.9	1.28e-03	0	27	0	30408704	77	5184
2026-01-13 13:02:21.21	251.18	5.18	-53.1	-55.3	12.9	0.00e+00	0	27	0	33554432	71	4876
2026-01-13 13:02:22.21	251.30	5.22	-55.8	-59.5	10.3	8.64e-03	0	27	0	36700160	78	5280
2026-01-13 13:02:23.20	251.42	5.26	-55.2	-58.3	11.3	3.80e-06	0	27	0	39845888	76	5193
2026-01-13 13:02:24.19	251.54	5.31	-52.7	-54.7	13.4	0.00e+00	0	27	0	42991616	72	4312
2026-01-13 13:02:25.19	251.67	5.35	-52.5	-54.5	13.4	0.00e+00	0	27	0	46137344	71	4445
2026-01-13 13:02:26.19	251.79	5.39	-52.7	-54.7	13.3	0.00e+00	0	27	0	49283072	71	4586
2026-01-13 13:02:27.19	251.91	5.44	-52.8	-54.9	13.2	0.00e+00	0	27	0	52428800	71	4661
2026-01-13 13:02:28.19	252.04	5.48	-52.6	-54.6	13.4	0.00e+00	0	27	0	55574528	71	4505
2026-01-13 13:02:29.19	252.16	5.52	-52.5	-54.4	13.5	0.00e+00	0	27	0	58720256	71	4425
2026-01-13 13:02:30.19	252.29	5.56	-52.5	-54.4	13.5	0.00e+00	0	27	0	61865984	71	4429
2026-01-13 13:02:31.20	252.41	5.61	-52.4	-54.3	13.6	0.00e+00	0	27	0	65011712	71	4353
2026-01-13 13:02:32.20	252.54	5.65	-52.4	-54.3	13.5	0.00e+00	0	27	0	68157440	71	4384
2026-01-13 13:02:33.20	252.66	5.69	-52.4	-54.4	13.5	0.00e+00	0	27	0	71303168	71	4397
2026-01-13 13:02:34.20	252.79	5.74	-52.5	-54.4	13.5	0.00e+00	0	27	0	74448896	71	4412
2026-01-13 13:02:35.20	252.92	5.78	-52.5	-54.4	13.5	0.00e+00	0	27	0	77594624	71	4410
2026-01-13 13:02:36.20	253.04	5.82	-52.4	-54.3	13.5	0.00e+00	0	27	0	80740352	71	4353
2026-01-13 13:02:37.20	253.17	5.87	-52.4	-54.3	13.5	0.00e+00	0	27	0	83886080	71	4364
2026-01-13 13:02:38.21	253.30	5.91	-52.3	-54.1	13.6	0.00e+00	0	27	0	87031808	71	4272
2026-01-13 13:02:39.20	253.43	5.95	-52.3	-54.2	13.6	0.00e+00	0	27	0	90177536	71	4317
2026-01-13 13:02:40.20	253.55	5.99	-52.4	-54.3	13.6	0.00e+00	0	27	0	93323264	71	4346
2026-01-13 13:02:41.20	253.68	6.04	-52.3	-54.1	13.6	0.00e+00	0	27	0	96468992	71	4279
2026-01-13 13:02:42.19	253.81	6.08	-52.3	-54.1	13.6	0.00e+00	0	26	0	99614720	71	4290
2026-01-13 13:02:43.19	253.94	6.12	-52.3	-54.1	13.6	0.00e+00	0	27	0	102760448	71	4284
2026-01-13 13:02:44.19	254.07	6.16	-52.3	-54.2	13.6	0.00e+00	0	27	0	105906176	71	4296
2026-01-13 13:02:45.19	254.20	6.20	-52.4	-54.2	13.6	0.00e+00	0	27	0	108003328	71	4336
2026-01-13 13:02:46.19	254.33	6.25	-52.4	-54.3	13.5	0.00e+00	0	27	0	111149056	71	4366
2026-01-13 13:02:47.19	254.46	6.29	-52.4	-54.3	13.6	0.00e+00	0	27	0	114294784	71	4361
2026-01-13 13:02:48.19	254.59	6.33	-52.3	-54.1	13.6	0.00e+00	0	27	0	117440512	71	4286
2026-01-13 13:02:49.18	254.72	6.37	-52.0	-53.8	13.8	0.00e+00	0	26	0	120586240	70	4351
2026-01-13 13:02:50.18	254.85	6.41	-52.0	-53.7	13.8	0.00e+00	0	27	0	123731968	70	4340
2026-01-13 13:02:51.18	254.98	6.46	-52.0	-53.8	13.7	0.00e+00	0	27	0	126877696	70	4354
2026-01-13 13:02:52.18	255.12	6.50	-52.0	-53.8	13.8	0.00e+00	0	27	0	130023424	70	4344
2026-01-13 13:02:53.17	255.25	6.54	-52.0	-53.7	13.8	0.00e+00	0	27	0	133169152	70	4326
2026-01-13 13:02:54.17	255.38	6.58	-51.9	-53.6	13.8	0.00e+00	0	27	0	136314880	70	4283
2026-01-13 13:02:55.17	255.52	6.62	-51.9	-53.6	13.8	0.00e+00	0	27	0	139460608	70	4278
2026-01-13 13:02:56.17	255.65	6.66	-52.0	-53.8	13.7	0.00e+00	0	27	0	142606336	70	4363
2026-01-13 13:02:57.16	255.78	6.71	-52.0	-53.7	13.8	0.00e+00	0	27	0	145752064	70	4329
2026-01-13 13:02:58.16	255.92	6.75	-52.0	-53.8	13.8	0.00e+00	0	27	0	148897792	70	4351
2026-01-13 13:02:59.15	256.05	6.79	-51.9	-53.6	13.8	0.00e+00	0	27	0	152043520	70	4286
2026-01-13 13:03:00.15	256.19	6.83	-51.9	-53.7	13.8	0.00e+00	0	27	0	155189248	70	4303
2026-01-13 13:03:01.15	256.32	6.87	-51.9	-53.7	13.8	0.00e+00	0	27	0	158334976	70	4306
2026-01-13 13:03:02.14	256.46	6.91	-51.9	-53.7	13.8	0.00e+00	0	27	0	161480704	70	4300
2026-01-13 13:03:03.14	256.59	6.95	-51.8	-53.5	13.9	0.00e+00	0	27	0	164626432	70	4219
2026-01-13 13:03:04.13	256.73	6.99	-51.8	-53.5	13.9	0.00e+00	0	27	0	167772160	70	4201
2026-01-13 13:03:05.12	256.87	7.03	-51.8	-53.5	13.9	0.00e+00	0	27	0	170917888	70	4211
2026-01-13 13:03:06.11	257.00	7.07	-51.8	-53.5	13.9	0.00e+00	0	27	0	174063616	70	4230
2026-01-13 13:03:07.10	257.14	7.12	-51.8	-53.5	13.9	0.00e+00	0	27	0	177209344	70	4224
2026-01-13 13:03:08.11	257.28	7.16	-51.9	-53.6	13.9	0.00e+00	0	27	0	180355072	70	4281
2026-01-13 13:03:09.10	257.42	7.20	-51.7	-53.4	14.0	0.00e+00	0	26	0	183500800	70	4164
2026-01-13 13:03:10.10	257.55	7.24	-51.6	-53.3	13.9	0.00e+00	0	27	0	186646528	69	4349
2026-01-13 13:03:11.10	257.69	7.28	-51.7	-53.4	13.9	0.00e+00	0	27	0	189792256	69	4409
2026-01-13 13:03:12.10	257.83	7.32	-51.5	-53.2	14.0	0.00e+00	0	27	0	192937984	69	4303
2026-01-13 13:03:13.09	257.97	7.36	-51.5	-53.2	14.0	0.00e+00	0	27	0	196083712	69	4307
2026-01-13 13:03:14.10	258.11	7.40	-51.5	-53.2	14.0	0.00e+00	0	26	0	199229440	69	4297
2026-01-13 13:03:15.09	258.25	7.44	-51.6	-53.3	13.9	0.00e+00	0	27	0	202375168	69	4373
2026-01-13 13:03:16.09	258.40	7.48	-51.5	-53.2	14.0	0.00e+00	0	27	0	205520896	69	4302
2026-01-13 13:03:17.09	258.54	7.52	-51.6	-53.2	13.9	0.00e+00	0	26	0	208666624	69	4333
2026-01-13 13:03:18.08	258.68	7.56	-51.6	-53.3	13.9	0.00e+00	0	27	0	211812352	69	4342
2026-01-13 13:03:19.08	258.82	7.60	-51.5	-53.1	14.0	0.00e+00	0	27	0	214958080	69	4263
2026-01-13 13:03:20.07	258.96	7.64	-51.4	-53.0	14.0	0.00e+00	0	27	0	217055232	69	4231
2026-01-13 13:03:21.08	259.11	7.68	-51.5	-53.1	14.0	0.00e+00	0	27	0	220200960	69	4257
2026-01-13 13:03:22.08	259.25	7.72	-51.5	-53.1	14.0	0.00e+00	0	27	0	223346688	69	4272
2026-01-13 13:03:23.08	259.39	7.76	-51.4	-53.1	14.0	0.00e+00	0	27	0	226492416	69	4244
2026-01-13 13:03:24.08	259.54	7.80	-51.4	-53.0	14.1	0.00e+00	0	27	0	229638144	69	4229
2026-01-13 13:03:25.09	259.68	7.84	-51.4	-53.0	14.0	0.00e+00	0	27	0	232783872	69	4227
2026-01-13 13:03:26.09	259.83	7.88	-51.5	-53.1	14.0	0.00e+00	0	26	0	235929600	69	4250
2026-01-13 13:03:27.08	259.97	7.92	-51.5	-53.1	14.0	0.00e+00	0	27	0	239075328	69	4265
2026-01-13 13:03:28.09	260.12	7.95	-51.6	-53.2	13.9	0.00e+00	0	26	0	242221056	69	4340
2026-01-13 13:03:29.09	260.27	7.99	-51.6	-53.3	13.9	0.00e+00	0	27	0	245366784	69	4360
2026-01-13 13:03:30.09	260.41	8.03	-51.6	-53.2	14.0	0.00e+00	0	27	0	248512512	69	4336
2026-01-13 13:03:31.08	260.56	8.07	-51.6	-53.3	14.0	0.00e+00	0	27	0	251658240	69	4344
2026-01-13 13:03:32.08	260.71	8.11	-51.6	-53.2	14.0	0.00e+00	0	27	0	254803968	69	4319
2026-01-13 13:03:33.07	260.85	8.15	-51.4	-53.0	14.1	0.00e+00	0	27	0	257949696	69	4240
2026-01-13 13:03:34.07	261.00	8.19	-51.5	-53.2	14.0	0.00e+00	0	27	0	261095424	69	4308
2026-01-13 13:03:35.07	261.15	8.22	-51.7	-53.3	13.9	0.00e+00	0	27	0	264241152	69	4379
2026-01-13 13:03:36.07	261.30	8.26	-51.5	-53.2	14.0	0.00e+00	0	27	0	267386880	69	4304
2026-01-13 13:03:37.07	261.45	8.30	-51.5	-53.1	14.0	0.00e+00	0	27	0	270532608	69	4280
2026-01-13 13:03:38.08	261.60	8.34	-51.4	-53.0	14.1	0.00e+00	0	27	0	273678336	69	4211
2026-01-13 13:03:39.08	261.75	8.38	-51.4	-52.9	14.1	0.00e+00	0	27	0	276824064	69	4193
2026-01-13 13:03:40.08	261.90	8.42	-51.3	-52.9	14.1	0.00e+00	0	27	0	279969792	69	4181
2026-01-13 13:03:41.08	262.05	8.45	-51.4	-52.9	14.1	0.00e+00	0	26	0	283115520	69	4185
2026-01-13 13:03:42.07	262.20	8.49	-51.3	-52.9	14.1	0.00e+00	0	27	0	286261248	69	4172
2026-01-13 13:03:43.06	262.35	8.53	-51.3	-52.9	14.2	0.00e+00	0	26	0	289406976	69	4153
2026-01-13 13:03:44.06	262.50	8.56	-51.3	-52.9	14.1	0.00e+00	0	27	0	292552704	69	4178
2026-01-13 13:03:45.05	262.65	8.60	-51.3	-52.9	14.1	0.00e+00	0	27	0	295698432	69	4187
2026-01-13 13:03:46.05	262.80	8.64	-51.3	-52.8	14.2	0.00e+00	0	27	0	298844160	69	4143
2026-01-13 13:03:47.05	262.96	8.68	-51.3	-52.9	14.2	0.00e+00	0	27	0	301989888	69	4154
2026-01-13 13:03:48.05	263.11	8.71	-51.2	-52.8	14.2	0.00e+00	0	26	0	305135616	69	4108
2026-01-13 13:03:49.05	263.26	8.75	-51.3	-52.9	14.2	0.00e+00	0	27	0	308281344	69	4172
2026-01-13 13:03:50.05	263.42	8.79	-51.3	-52.9	14.2	0.00e+00	0	27	0	311427072	69	4167
2026-01-13 13:03:51.05	263.57	8.82	-51.2	-52.7	14.3	0.00e+00	0	27	0	314572800	69	4095
2026-01-13 13:03:52.05	263.73	8.86	-51.2	-52.8	14.1	0.00e+00	0	27	0	317718528	68	4367
2026-01-13 13:03:53.05	263.88	8.90	-51.3	-52.8	14.0	0.00e+00	0	26	0	320864256	68	4384
2026-01-13 13:03:54.05	264.04	8.93	-51.3	-52.8	14.1	0.00e+00	0	26	0	324009984	68	4387
2026-01-13 13:03:55.06	264.20	8.97	-51.2	-52.8	14.1	0.00e+00	0	27	0	327155712	68	4356
2026-01-13 13:03:56.06	264.35	9.00	-51.1	-52.7	14.1	0.00e+00	0	26	0	330301440	68	4298
2026-01-13 13:03:57.07	264.51	9.04	-51.1	-52.6	14.2	0.00e+00	0	27	0	333447168	68	4276
2026-01-13 13:03:58.06	264.67	9.08	-51.2	-52.8	14.1	0.00e+00	0	27	0	336592896	68	4350
2026-01-13 13:03:59.07	264.83	9.11	-51.1	-52.7	14.1	0.00e+00	0	27	0	339738624	68	4311
2026-01-13 13:04:00.06	264.98	9.15	-51.0	-52.5	14.2	0.00e+00	0	27	0	342884352	68	4232
2026-01-13 13:04:01.06	265.14	9.18	-50.9	-52.4	14.3	0.00e+00	0	26	0	346030080	68	4173
2026-01-13 13:04:02.05	265.30	9.22	-51.0	-52.5	14.2	0.00e+00	0	26	0	349175808	68	4239
2026-01-13 13:04:03.06	265.46	9.25	-51.1	-52.6	14.2	0.00e+00	0	26	0	352321536	68	4258
2026-01-13 13:04:04.05	265.61	9.29	-51.1	-52.6	14.2	0.00e+00	0	27	0	354418688	68	4257
2026-01-13 13:04:05.05	265.77	9.32	-51.0	-52.5	14.2	0.00e+00	0	27	0	357564416	68	4233
2026-01-13 13:04:06.05	265.93	9.35	-51.0	-52.5	14.2	0.00e+00	0	27	0	360710144	68	4215
2026-01-13 13:04:07.05	266.09	9.39	-50.9	-52.4	14.3	0.00e+00	0	27	0	363855872	68	4162
2026-01-13 13:04:08.05	266.25	9.42	-50.8	-52.3	14.3	0.00e+00	0	27	0	367001600	68	4118
2026-01-13 13:04:09.04	266.41	9.46	-51.0	-52.6	14.2	0.00e+00	0	26	0	370147328	68	4244
2026-01-13 13:04:10.04	266.58	9.49	-51.5	-53.2	13.9	0.00e+00	0	27	0	373293056	68	4559
2026-01-13 13:04:11.04	266.74	9.52	-51.9	-53.6	13.6	0.00e+00	0	27	0	376438784	68	4812
2026-01-13 13:04:12.03	266.90	9.56	-52.4	-54.3	13.3	0.00e+00	0	27	0	379584512	69	4914
2026-01-13 13:04:13.03	267.06	9.59	-52.9	-55.0	13.0	0.00e+00	0	26	0	382730240	70	5013
2026-01-13 13:04:14.02	267.22	9.62	-53.2	-55.5	12.8	0.00e+00	0	27	0	385875968	71	4985
2026-01-13 13:04:15.02	267.38	9.66	-53.0	-55.2	12.9	0.00e+00	0	27	0	389021696	71	4837
2026-01-13 13:04:16.02	267.55	9.69	-52.8	-54.9	13.1	0.00e+00	0	26	0	392167424	71	4685
2026-01-13 13:04:17.02	267.71	9.72	-53.0	-55.1	12.9	0.00e+00	0	27	0	395313152	71	4809
2026-01-13 13:04:18.02	267.88	9.76	-53.1	-55.4	12.8	0.00e+00	0	26	0	398458880	71	4934
2026-01-13 13:04:19.03	268.04	9.79	-53.4	-55.8	12.5	0.00e+00	0	27	0	401604608	71	5180
2026-01-13 13:04:20.02	268.21	9.82	-53.8	-56.3	12.2	0.00e+00	0	26	0	404750336	72	5186
2026-01-13 13:04:21.02	268.37	9.85	-54.2	-57.0	11.8	2.20e-06	0	27	0	407896064	73	5284
2026-01-13 13:04:22.02	268.54	9.88	-54.5	-57.4	11.5	1.37e-05	0	27	0	411041792	74	5272
2026-01-13 13:04:23.02	268.70	9.92	-54.3	-57.1	11.8	7.60e-06	0	26	0	414187520	74	5074
2026-01-13 13:04:24.01	268.87	9.95	-54.0	-56.6	12.2	7.00e-07	0	27	0	417333248	74	4809
2026-01-13 13:04:25.01	269.03	9.98	-54.0	-56.5	12.3	7.00e-07	0	27	0	420478976	74	4742
2026-01-13 13:04:26.01	269.20	10.01	-54.0	-56.5	12.3	7.00e-07	0	26	0	423624704	74	4747
2026-01-13 13:04:27.00	269.37	10.04	-53.9	-56.4	12.4	0.00e+00	0	27	0	426770432	74	4689
2026-01-13 13:04:28.01	269.54	10.07	-53.8	-56.3	12.6	0.00e+00	0	27	0	429916160	74	4601
2026-01-13 13:04:29.01	269.70	10.10	-53.0	-55.2	13.1	0.00e+00	0	27	0	433061888	72	4551
2026-01-13 13:04:30.01	269.87	10.13	-52.5	-54.5	13.4	0.00e+00	0	27	0	436207616	71	4468
2026-01-13 13:04:31.01	270.04	10.16	-52.3	-54.2	13.6	0.00e+00	0	27	0	439353344	71	4308
2026-01-13 13:04:32.01	270.21	10.19	-52.2	-54.1	13.7	0.00e+00	0	27	0	442499072	71	4248
2026-01-13 13:04:33.02	270.38	10.23	-52.1	-53.9	13.7	0.00e+00	0	26	0	445644800	70	4413
2026-01-13 13:04:34.01	270.55	10.25	-51.9	-53.7	13.8	0.00e+00	0	27	0	448790528	70	4311
2026-01-13 13:04:35.01	270.72	10.28	-51.6	-53.3	14.0	0.00e+00	0	26	0	451936256	69	4368
2026-01-13 13:04:36.01	270.89	10.31	-51.4	-53.0	14.1	0.00e+00	0	27	0	455081984	69	4228
2026-01-13 13:04:37.00	271.06	10.34	-51.3	-52.8	14.2	0.00e+00	0	27	0	458227712	69	4145
2026-01-13 13:04:37.99	271.23	10.37	-51.1	-52.7	14.1	0.00e+00	0	27	0	461373440	68	4303
2026-01-13 13:04:39.00	271.40	10.40	-51.2	-52.7	14.1	0.00e+00	0	27	0	464519168	68	4334
2026-01-13 13:04:40.00	271.57	10.43	-51.3	-52.9	14.0	0.00e+00	0	27	0	467664896	68	4408
2026-01-13 13:04:41.01	271.75	10.46	-51.3	-52.9	14.0	0.00e+00	0	27	0	470810624	68	4416
2026-01-13 13:04:42.01	271.92	10.49	-51.3	-52.9	14.0	0.00e+00	0	27	0	473956352	68	4403
2026-01-13 13:04:43.01	272.09	10.52	-51.2	-52.8	14.1	0.00e+00	0	27	0	477102080	68	4369
2026-01-13 13:04:44.01	272.27	10.54	-51.1	-52.7	14.2	0.00e+00	0	27	0	480247808	68	4302
2026-01-13 13:04:45.01	272.44	10.57	-51.2	-52.8	14.1	0.00e+00	0	27	0	483393536	68	4346
2026-01-13 13:04:46.00	272.61	10.60	-51.1	-52.6	14.2	0.00e+00	0	27	0	485490688	68	4290
2026-01-13 13:04:47.01	272.79	10.63	-51.1	-52.6	14.2	0.00e+00	0	27	0	488636416	68	4274
2026-01-13 13:04:48.01	272.96	10.65	-51.2	-52.7	14.1	0.00e+00	0	27	0	491782144	68	4317
2026-01-13 13:04:49.01	273.14	10.68	-51.2	-52.7	14.2	0.00e+00	0	27	0	494927872	68	4315
2026-01-13 13:04:50.02	273.31	10.71	-51.2	-52.8	14.1	0.00e+00	0	27	0	499122176	68	4342
2026-01-13 13:04:51.01	273.49	10.73	-51.3	-52.8	14.1	0.00e+00	0	27	0	501219328	68	4391
2026-01-13 13:04:52.01	273.66	10.76	-51.2	-52.8	14.1	0.00e+00	0	27	0	504365056	68	4341
2026-01-13 13:04:53.01	273.84	10.79	-51.2	-52.8	14.1	0.00e+00	0	27	0	507510784	68	4346
2026-01-13 13:04:54.01	274.01	10.81	-51.2	-52.7	14.1	0.00e+00	0	27	0	510656512	68	4316
2026-01-13 13:04:55.01	274.19	10.84	-51.1	-52.7	14.2	0.00e+00	0	27	0	513802240	68	4311
2026-01-13 13:04:56.01	274.37	10.86	-51.1	-52.6	14.2	0.00e+00	0	26	0	516947968	68	4287
2026-01-13 13:04:57.01	274.54	10.89	-51.1	-52.6	14.2	0.00e+00	0	27	0	520093696	68	4261
2026-01-13 13:04:58.01	274.72	10.91	-51.1	-52.7	14.2	0.00e+00	0	27	0	523239424	68	4299
2026-01-13 13:04:59.01	274.90	10.94	-51.0	-52.5	14.3	0.00e+00	0	27	0	526385152	68	4205
2026-01-13 13:05:00.01	275.08	10.96	-50.9	-52.4	14.3	0.00e+00	0	26	0	529530880	68	4183
2026-01-13 13:05:01.01	275.25	10.99	-51.0	-52.5	14.3	0.00e+00	0	26	0	532676608	68	4203
2026-01-13 13:05:02.01	275.43	11.01	-51.0	-52.5	14.2	0.00e+00	0	26	0	535822336	68	4224
2026-01-13 13:05:03.00	275.61	11.04	-51.0	-52.5	14.3	0.00e+00	0	27	0	538968064	68	4224
2026-01-13 13:05:04.00	275.79	11.06	-51.0	-52.6	14.2	0.00e+00	0	27	0	542113792	68	4245
2026-01-13 13:05:05.00	275.97	11.08	-51.0	-52.5	14.2	0.00e+00	0	27	0	545259520	68	4234
2026-01-13 13:05:06.00	276.15	11.11	-51.1	-52.6	14.2	0.00e+00	0	27	0	548405248	68	4273
2026-01-13 13:05:07.00	276.33	11.13	-51.1	-52.7	14.2	0.00e+00	0	27	0	551550976	68	4300
2026-01-13 13:05:08.00	276.51	11.15	-51.2	-52.7	14.2	0.00e+00	0	27	0	554696704	68	4321
2026-01-13 13:05:08.99	276.68	11.17	-51.2	-52.8	14.1	0.00e+00	0	27	0	557842432	68	4351
2026-01-13 13:05:09.99	276.87	11.20	-51.1	-52.6	14.2	0.00e+00	0	27	0	560988160	68	4252
2026-01-13 13:05:11.00	277.05	11.22	-51.1	-52.6	14.2	0.00e+00	0	27	0	564133888	68	4282
2026-01-13 13:05:12.00	277.23	11.24	-51.1	-52.6	14.2	0.00e+00	0	27	0	567279616	68	4285
2026-01-13 13:05:12.99	277.41	11.26	-50.9	-52.4	14.3	0.00e+00	0	27	0	570425344	68	4189
2026-01-13 13:05:13.97	277.59	11.28	-51.0	-52.5	14.3	0.00e+00	0	27	0	573571072	68	4198
2026-01-13 13:05:14.97	277.77	11.30	-51.0	-52.5	14.3	0.00e+00	0	27	0	576716800	68	4195
2026-01-13 13:05:15.96	277.95	11.33	-51.0	-52.5	14.3	0.00e+00	0	27	0	579862528	68	4221
2026-01-13 13:05:16.96	278.13	11.35	-51.1	-52.6	14.2	0.00e+00	0	27	0	583008256	68	4258
2026-01-13 13:05:17.96	278.31	11.37	-51.1	-52.6	14.2	0.00e+00	0	27	0	586153984	68	4258
2026-01-13 13:05:18.95	278.49	11.39	-51.1	-52.7	14.2	0.00e+00	0	27	0	589299712	68	4309
2026-01-13 13:05:19.95	278.68	11.41	-51.2	-52.7	14.2	0.00e+00	0	27	0	592445440	68	4314
2026-01-13 13:05:20.95	278.86	11.43	-51.1	-52.6	14.2	0.00e+00	0	27	0	595591168	68	4265
2026-01-13 13:05:21.95	279.04	11.45	-51.0	-52.4	14.3	0.00e+00	0	27	0	598736896	68	4185
2026-01-13 13:05:22.95	279.23	11.47	-50.9	-52.4	14.3	0.00e+00	0	27	0	601882624	68	4158
2026-01-13 13:05:23.95	279.41	11.48	-51.0	-52.5	14.3	0.00e+00	0	26	0	605028352	68	4208
2026-01-13 13:05:24.95	279.60	11.50	-51.0	-52.5	14.2	0.00e+00	0	27	0	608174080	68	4223
2026-01-13 13:05:25.95	279.78	11.52	-51.0	-52.5	14.3	0.00e+00	0	27	0	611319808	68	4218
2026-01-13 13:05:26.95	279.97	11.54	-51.0	-52.5	14.3	0.00e+00	0	27	0	614465536	68	4215
2026-01-13 13:05:27.95	280.15	11.56	-51.1	-52.6	14.2	0.00e+00	0	27	0	617611264	68	4289
2026-01-13 13:05:28.95	280.34	11.58	-51.1	-52.7	14.2	0.00e+00	0	27	0	619708416	68	4302
2026-01-13 13:05:29.95	280.52	11.59	-51.2	-52.7	14.2	0.00e+00	0	27	0	622854144	68	4320
2026-01-13 13:05:30.94	280.71	11.61	-51.1	-52.7	14.2	0.00e+00	0	27	0	625999872	68	4300
2026-01-13 13:05:31.93	280.89	11.63	-51.2	-52.7	14.2	0.00e+00	0	27	0	629145600	68	4310
2026-01-13 13:05:32.93	281.08	11.64	-51.1	-52.6	14.2	0.00e+00	0	27	0	632291328	68	4284
2026-01-13 13:05:33.93	281.26	11.66	-51.1	-52.6	14.2	0.00e+00	0	27	0	635437056	68	4259
2026-01-13 13:05:34.93	281.45	11.68	-51.1	-52.6	14.2	0.00e+00	0	26	0	638582784	68	4269
2026-01-13 13:05:35.93	281.63	11.69	-51.0	-52.5	14.3	0.00e+00	0	27	0	641728512	68	4225
2026-01-13 13:05:36.93	281.82	11.71	-51.0	-52.5	14.3	0.00e+00	0	27	0	644874240	68	4228
2026-01-13 13:05:37.92	282.01	11.72	-51.1	-52.6	14.2	0.00e+00	0	27	0	648019968	68	4256
2026-01-13 13:05:38.92	282.19	11.74	-51.0	-52.5	14.2	0.00e+00	0	27	0	651165696	68	4242
2026-01-13 13:05:39.91	282.38	11.75	-51.1	-52.6	14.2	0.00e+00	0	27	0	654311424	68	4276
2026-01-13 13:05:40.92	282.57	11.77	-51.2	-52.7	14.2	0.00e+00	0	27	0	657457152	68	4310
2026-01-13 13:05:41.91	282.75	11.78	-51.2	-52.8	14.2	0.00e+00	0	27	0	660602880	68	4356
2026-01-13 13:05:42.91	282.94	11.80	-51.3	-52.8	14.1	0.00e+00	0	27	0	663748608	68	4381
2026-01-13 13:05:43.91	283.13	11.81	-51.3	-52.8	14.1	0.00e+00	0	27	0	666894336	68	4387
2026-01-13 13:05:44.92	283.32	11.82	-51.1	-52.6	14.2	0.00e+00	0	27	0	670040064	68	4253
2026-01-13 13:05:45.92	283.51	11.84	-51.2	-52.7	14.2	0.00e+00	0	26	0	673185792	68	4314
2026-01-13 13:05:46.92	283.70	11.85	-51.0	-52.5	14.3	0.00e+00	0	27	0	676331520	68	4198
2026-01-13 13:05:47.91	283.88	11.86	-50.8	-52.3	14.4	0.00e+00	0	27	0	679477248	68	4109
2026-01-13 13:05:48.91	284.07	11.88	-50.8	-52.3	14.4	0.00e+00	0	27	0	682622976	68	4114
2026-01-13 13:05:49.90	284.26	11.89	-50.8	-52.3	14.4	0.00e+00	0	27	0	685768704	68	4104
2026-01-13 13:05:50.90	284.45	11.90	-50.9	-52.4	14.3	0.00e+00	0	27	0	688914432	68	4174
2026-01-13 13:05:51.91	284.64	11.91	-50.9	-52.3	14.3	0.00e+00	0	27	0	692060160	68	4143
2026-01-13 13:05:52.91	284.83	11.92	-51.0	-52.5	14.3	0.00e+00	0	27	0	695205888	68	4203
2026-01-13 13:05:53.91	285.02	11.93	-51.1	-52.6	14.2	0.00e+00	0	27	0	698351616	68	4255
2026-01-13 13:05:54.91	285.21	11.95	-51.0	-52.4	14.3	0.00e+00	0	27	0	701497344	68	4186
2026-01-13 13:05:55.91	285.40	11.96	-50.9	-52.4	14.3	0.00e+00	0	27	0	704643072	68	4175
2026-01-13 13:05:56.90	285.59	11.97	-51.0	-52.5	14.3	0.00e+00	0	27	0	707788800	68	4200
2026-01-13 13:05:57.89	285.77	11.98	-50.9	-52.4	14.3	0.00e+00	0	27	0	710934528	68	4178
2026-01-13 13:05:58.89	285.96	11.99	-50.9	-52.4	14.3	0.00e+00	0	27	0	714080256	68	4171
2026-01-13 13:05:59.88	286.15	11.99	-50.9	-52.4	14.4	0.00e+00	0	27	0	717225984	68	4157
2026-01-13 13:06:00.87	286.34	12.00	-51.1	-52.6	14.3	0.00e+00	0	27	0	720371712	68	4258
2026-01-13 13:06:01.87	286.53	12.01	-51.1	-52.6	14.3	0.00e+00	0	27	0	723517440	68	4257
2026-01-13 13:06:02.87	286.72	12.02	-51.1	-52.6	14.2	0.00e+00	0	27	0	726663168	68	4287
2026-01-13 13:06:03.86	286.91	12.03	-51.2	-52.7	14.2	0.00e+00	0	27	0	729808896	68	4307
2026-01-13 13:06:04.86	287.10	12.04	-51.2	-52.7	14.2	0.00e+00	0	27	0	731906048	68	4320
2026-01-13 13:06:05.86	287.29	12.05	-51.2	-52.7	14.2	0.00e+00	0	27	0	735051776	68	4339
2026-01-13 13:06:06.85	287.48	12.05	-51.2	-52.8	14.2	0.00e+00	0	27	0	738197504	68	4344
2026-01-13 13:06:07.84	287.67	12.06	-51.2	-52.7	14.2	0.00e+00	0	27	0	741343232	68	4328
2026-01-13 13:06:08.84	287.86	12.07	-51.2	-52.7	14.2	0.00e+00	0	27	0	744488960	68	4309
2026-01-13 13:06:09.83	288.05	12.07	-51.0	-52.5	14.3	0.00e+00	0	27	0	747634688	68	4228
2026-01-13 13:06:10.84	288.24	12.08	-51.1	-52.6	14.3	0.00e+00	0	26	0	750780416	68	4252
2026-01-13 13:06:11.83	288.43	12.09	-51.1	-52.5	14.3	0.00e+00	0	27	0	753926144	68	4235
2026-01-13 13:06:12.81	288.62	12.09	-51.0	-52.4	14.3	0.00e+00	0	27	0	757071872	68	4174
2026-01-13 13:06:13.80	288.81	12.10	-50.9	-52.4	14.4	0.00e+00	0	27	0	760217600	68	4153
2026-01-13 13:06:14.79	289.00	12.10	-50.8	-52.3	14.4	0.00e+00	0	27	0	763363328	68	4107
2026-01-13 13:06:15.79	289.19	12.11	-50.9	-52.3	14.4	0.00e+00	0	27	0	766509056	68	4137
2026-01-13 13:06:16.79	289.38	12.11	-50.8	-52.2	14.4	0.00e+00	0	27	0	769654784	68	4097
2026-01-13 13:06:17.79	289.58	12.12	-50.7	-52.1	14.5	0.00e+00	0	27	0	772800512	68	4034
2026-01-13 13:06:18.78	289.77	12.12	-50.7	-52.1	14.5	0.00e+00	0	27	0	775946240	68	4031
2026-01-13 13:06:19.78	289.96	12.12	-50.5	-51.9	14.4	0.00e+00	0	27	0	779091968	67	4173
2026-01-13 13:06:20.78	290.15	12.13	-50.5	-51.9	14.4	0.00e+00	0	27	0	782237696	67	4179
2026-01-13 13:06:21.77	290.34	12.13	-50.5	-51.9	14.4	0.00e+00	0	27	0	785383424	67	4192
2026-01-13 13:06:22.77	290.53	12.13	-50.6	-52.0	14.4	0.00e+00	0	26	0	788529152	67	4201
2026-01-13 13:06:23.78	290.73	12.14	-50.5	-52.0	14.4	0.00e+00	0	27	0	791674880	67	4196
2026-01-13 13:06:24.77	290.92	12.14	-50.7	-52.1	14.3	0.00e+00	0	27	0	794820608	67	4270
2026-01-13 13:06:25.77	291.11	12.14	-50.5	-52.0	14.4	0.00e+00	0	27	0	797966336	67	4198
2026-01-13 13:06:26.78	291.30	12.14	-50.6	-52.0	14.4	0.00e+00	0	27	0	801112064	67	4196
2026-01-13 13:06:27.77	291.49	12.15	-50.6	-52.0	14.4	0.00e+00	0	27	0	804257792	67	4213
2026-01-13 13:06:28.77	291.68	12.15	-50.6	-52.1	14.3	0.00e+00	0	27	0	807403520	67	4244
2026-01-13 13:06:29.77	291.88	12.15	-50.6	-52.0	14.4	0.00e+00	0	27	0	810549248	67	4223
2026-01-13 13:06:30.77	292.07	12.15	-50.6	-52.0	14.4	0.00e+00	0	27	0	813694976	67	4231
2026-01-13 13:06:31.77	292.26	12.15	-50.6	-52.0	14.4	0.00e+00	0	27	0	816840704	67	4238
2026-01-13 13:06:32.77	292.45	12.15	-50.7	-52.2	14.3	0.00e+00	0	27	0	819986432	67	4313
2026-01-13 13:06:33.78	292.65	12.15	-50.7	-52.2	14.3	0.00e+00	0	27	0	823132160	67	4298
2026-01-13 13:06:34.77	292.84	12.15	-50.7	-52.2	14.3	0.00e+00	0	27	0	826277888	67	4305
2026-01-13 13:06:35.76	293.03	12.15	-50.7	-52.1	14.3	0.00e+00	0	27	0	829423616	67	4274
2026-01-13 13:06:36.76	293.22	12.15	-50.6	-52.0	14.4	0.00e+00	0	27	0	832569344	67	4241
2026-01-13 13:06:37.75	293.41	12.14	-50.6	-52.0	14.4	0.00e+00	0	27	0	835715072	67	4235
2026-01-13 13:06:38.75	293.60	12.14	-50.6	-52.0	14.4	0.00e+00	0	27	0	838860800	67	4231
2026-01-13 13:06:39.76	293.80	12.14	-50.6	-52.0	14.4	0.00e+00	0	26	0	842006528	67	4224
2026-01-13 13:06:40.76	293.99	12.14	-50.6	-52.0	14.4	0.00e+00	0	27	0	844103680	67	4231
2026-01-13 13:06:41.75	294.18	12.14	-50.7	-52.1	14.3	0.00e+00	0	27	0	847249408	67	4280
2026-01-13 13:06:42.75	294.37	12.13	-50.7	-52.1	14.3	0.00e+00	0	27	0	850395136	67	4278
2026-01-13 13:06:43.74	294.56	12.13	-50.7	-52.1	14.3	0.00e+00	0	27	0	853540864	67	4288
2026-01-13 13:06:44.74	294.75	12.13	-50.7	-52.1	14.3	0.00e+00	0	27	0	856686592	67	4283
2026-01-13 13:06:45.74	294.94	12.12	-50.7	-52.1	14.3	0.00e+00	0	27	0	859832320	67	4264
2026-01-13 13:06:46.73	295.13	12.12	-50.7	-52.1	14.3	0.00e+00	0	27	0	862978048	67	4271
2026-01-13 13:06:47.73	295.33	12.12	-50.7	-52.1	14.3	0.00e+00	0	26	0	866123776	67	4281
2026-01-13 13:06:48.73	295.52	12.11	-50.6	-52.0	14.4	0.00e+00	0	27	0	869269504	67	4240
2026-01-13 13:06:49.73	295.71	12.11	-50.6	-52.0	14.4	0.00e+00	0	27	0	872415232	67	4237
2026-01-13 13:06:50.73	295.90	12.10	-50.6	-52.1	14.3	0.00e+00	0	27	0	875560960	67	4249
2026-01-13 13:06:51.73	296.09	12.10	-50.6	-52.0	14.4	0.00e+00	0	27	0	878706688	67	4225
2026-01-13 13:06:52.73	296.28	12.09	-50.6	-52.0	14.4	0.00e+00	0	27	0	881852416	67	4231
2026-01-13 13:06:53.74	296.48	12.08	-50.6	-52.0	14.4	0.00e+00	0	27	0	884998144	67	4227
2026-01-13 13:06:54.73	296.67	12.08	-50.6	-52.1	14.4	0.00e+00	0	27	0	888143872	67	4248
2026-01-13 13:06:55.73	296.86	12.07	-50.7	-52.1	14.3	0.00e+00	0	27	0	891289600	67	4291
2026-01-13 13:06:56.74	297.05	12.06	-50.8	-52.2	14.3	0.00e+00	0	26	0	894435328	67	4326
2026-01-13 13:06:57.74	297.24	12.06	-50.8	-52.3	14.3	0.00e+00	0	27	0	897581056	67	4361
2026-01-13 13:06:58.75	297.43	12.05	-50.8	-52.3	14.3	0.00e+00	0	27	0	900726784	67	4350
2026-01-13 13:06:59.76	297.63	12.04	-50.8	-52.3	14.3	0.00e+00	0	27	0	903872512	67	4351
2026-01-13 13:07:00.76	297.82	12.03	-51.0	-52.5	14.2	0.00e+00	0	27	0	907018240	67	4454
2026-01-13 13:07:01.76	298.01	12.03	-50.9	-52.4	14.2	0.00e+00	0	26	0	910163968	67	4424
2026-01-13 13:07:02.76	298.20	12.02	-50.9	-52.4	14.2	0.00e+00	0	27	0	913309696	67	4436
2026-01-13 13:07:03.75	298.39	12.01	-50.9	-52.4	14.2	0.00e+00	0	27	0	916455424	67	4436
2026-01-13 13:07:04.75	298.58	12.00	-51.0	-52.5	14.2	0.00e+00	0	27	0	919601152	67	4450
2026-01-13 13:07:05.75	298.77	11.99	-50.9	-52.4	14.2	0.00e+00	0	27	0	922746880	67	4428
2026-01-13 13:07:06.75	298.96	11.98	-50.9	-52.4	14.2	0.00e+00	0	27	0	925892608	67	4413
2026-01-13 13:07:07.74	299.15	11.97	-50.9	-52.3	14.2	0.00e+00	0	27	0	929038336	67	4388
2026-01-13 13:07:08.74	299.33	11.96	-50.8	-52.2	14.3	0.00e+00	0	27	0	932184064	67	4321
2026-01-13 13:07:09.74	299.52	11.95	-50.8	-52.3	14.3	0.00e+00	0	27	0	935329792	67	4341
2026-01-13 13:07:10.73	299.71	11.94	-50.7	-52.2	14.3	0.00e+00	0	27	0	938475520	67	4316
2026-01-13 13:07:11.73	299.90	11.93	-50.7	-52.1	14.3	0.00e+00	0	26	0	941621248	67	4288
2026-01-13 13:07:12.73	300.09	11.92	-50.7	-52.1	14.3	0.00e+00	0	27	0	944766976	67	4285
2026-01-13 13:07:13.73	300.28	11.91	-50.8	-52.2	14.3	0.00e+00	0	26	0	947912704	67	4319
2026-01-13 13:07:14.73	300.47	11.89	-50.7	-52.2	14.3	0.00e+00	0	26	0	951058432	67	4313
2026-01-13 13:07:15.72	300.66	11.88	-50.8	-52.2	14.3	0.00e+00	0	27	0	954204160	67	4322
2026-01-13 13:07:16.72	300.84	11.87	-50.8	-52.2	14.3	0.00e+00	0	27	0	957349888	67	4324
2026-01-13 13:07:17.72	301.03	11.86	-50.8	-52.3	14.2	0.00e+00	0	27	0	960495616	67	4341
2026-01-13 13:07:18.72	301.22	11.84	-50.8	-52.3	14.2	0.00e+00	0	27	0	963641344	67	4361
2026-01-13 13:07:19.72	301.41	11.83	-50.8	-52.3	14.3	0.00e+00	0	27	0	966787072	67	4344
2026-01-13 13:07:20.72	301.60	11.82	-50.9	-52.3	14.2	0.00e+00	0	27	0	969932800	67	4381
2026-01-13 13:07:21.71	301.78	11.80	-50.7	-52.2	14.3	0.00e+00	0	27	0	973078528	67	4300
2026-01-13 13:07:22.71	301.97	11.79	-50.7	-52.1	14.3	0.00e+00	0	27	0	976224256	67	4289
2026-01-13 13:07:23.72	302.16	11.78	-50.7	-52.1	14.3	0.00e+00	0	27	0	979369984	67	4289
2026-01-13 13:07:24.72	302.35	11.76	-50.7	-52.1	14.3	0.00e+00	0	27	0	982515712	67	4264
2026-01-13 13:07:25.73	302.54	11.75	-50.6	-52.1	14.3	0.00e+00	0	27	0	985661440	67	4247
2026-01-13 13:07:26.73	302.72	11.73	-50.7	-52.1	14.3	0.00e+00	0	27	0	988807168	67	4284
2026-01-13 13:07:27.73	302.91	11.72	-50.7	-52.2	14.3	0.00e+00	0	27	0	991952896	67	4317
2026-01-13 13:07:28.74	303.10	11.70	-50.8	-52.2	14.3	0.00e+00	0	27	0	995098624	67	4322
2026-01-13 13:07:29.73	303.28	11.68	-50.9	-52.4	14.2	0.00e+00	0	27	0	998244352	67	4395
2026-01-13 13:07:30.73	303.47	11.67	-50.8	-52.2	14.3	0.00e+00	0	27	0	1000341504	67	4335
2026-01-13 13:07:31.73	303.65	11.65	-50.8	-52.3	14.2	0.00e+00	0	27	0	1003487232	67	4365
2026-01-13 13:07:32.73	303.84	11.64	-50.8	-52.3	14.2	0.00e+00	0	27	0	1006632960	67	4355
2026-01-13 13:07:33.74	304.03	11.62	-50.9	-52.3	14.2	0.00e+00	0	27	0	1009778688	67	4387
2026-01-13 13:07:34.74	304.21	11.60	-50.7	-52.2	14.3	0.00e+00	0	27	0	1012924416	67	4323
2026-01-13 13:07:35.73	304.40	11.58	-50.8	-52.3	14.2	0.00e+00	0	27	0	1016070144	67	4369
2026-01-13 13:07:36.73	304.58	11.57	-50.7	-52.2	14.3	0.00e+00	0	26	0	1019215872	67	4306
2026-01-13 13:07:37.73	304.77	11.55	-50.7	-52.2	14.3	0.00e+00	0	27	0	1022361600	67	4300
2026-01-13 13:07:38.74	304.95	11.53	-50.8	-52.3	14.2	0.00e+00	0	27	0	1025507328	67	4366
2026-01-13 13:07:39.74	305.14	11.51	-50.9	-52.4	14.2	0.00e+00	0	27	0	1028653056	67	4394
2026-01-13 13:07:40.73	305.32	11.49	-50.9	-52.4	14.2	0.00e+00	0	26	0	1031798784	67	4394
2026-01-13 13:07:41.73	305.50	11.47	-50.9	-52.4	14.2	0.00e+00	0	27	0	1034944512	67	4398
2026-01-13 13:07:42.73	305.69	11.46	-50.7	-52.2	14.3	0.00e+00	0	27	0	1038090240	67	4314
2026-01-13 13:07:43.73	305.87	11.44	-50.7	-52.2	14.3	0.00e+00	0	27	0	1041235968	67	4314
2026-01-13 13:07:44.74	306.05	11.42	-50.8	-52.2	14.3	0.00e+00	0	27	0	1044381696	67	4336
2026-01-13 13:07:45.74	306.24	11.40	-50.8	-52.2	14.2	0.00e+00	0	27	0	1047527424	67	4332
2026-01-13 13:07:46.74	306.42	11.38	-50.7	-52.2	14.2	0.00e+00	0	27	0	1050673152	67	4314
2026-01-13 13:07:47.75	306.60	11.36	-50.7	-52.2	14.3	0.00e+00	0	27	0	1053818880	67	4322
2026-01-13 13:07:48.75	306.78	11.34	-50.7	-52.2	14.3	0.00e+00	0	27	0	1056964608	67	4322
2026-01-13 13:07:49.75	306.97	11.31	-50.6	-52.1	14.3	0.00e+00	0	27	0	1060110336	67	4259
2026-01-13 13:07:50.75	307.15	11.29	-50.6	-52.1	14.3	0.00e+00	0	27	0	1063256064	67	4269
2026-01-13 13:07:51.75	307.33	11.27	-50.7	-52.1	14.3	0.00e+00	0	27	0	1066401792	67	4267
2026-01-13 13:07:52.75	307.51	11.25	-50.6	-52.1	14.3	0.00e+00	0	27	0	1069547520	67	4263
2026-01-13 13:07:53.75	307.69	11.23	-50.7	-52.1	14.3	0.00e+00	0	27	0	1072693248	67	4269
2026-01-13 13:07:54.75	307.87	11.21	-50.7	-52.2	14.3	0.00e+00	0	27	0	1075838976	67	4316
2026-01-13 13:07:55.74	308.05	11.19	-50.7	-52.2	14.3	0.00e+00	0	27	0	1078984704	67	4312
2026-01-13 13:07:56.74	308.23	11.16	-50.8	-52.3	14.2	0.00e+00	0	27	0	1082130432	67	4356
2026-01-13 13:07:57.74	308.41	11.14	-50.7	-52.2	14.3	0.00e+00	0	27	0	1085276160	67	4299
2026-01-13 13:07:58.75	308.59	11.12	-50.8	-52.2	14.2	0.00e+00	0	27	0	1088421888	67	4334
2026-01-13 13:07:59.76	308.77	11.09	-50.7	-52.2	14.2	0.00e+00	0	27	0	1091567616	67	4307
2026-01-13 13:08:00.76	308.95	11.07	-50.7	-52.2	14.3	0.00e+00	0	26	0	1094713344	67	4314
2026-01-13 13:08:01.77	309.13	11.05	-50.7	-52.1	14.3	0.00e+00	0	27	0	1097859072	67	4281
2026-01-13 13:08:02.76	309.31	11.02	-50.6	-52.0	14.3	0.00e+00	0	27	0	1101004800	67	4231
2026-01-13 13:08:03.75	309.48	11.00	-50.6	-52.0	14.3	0.00e+00	0	27	0	1104150528	67	4234
2026-01-13 13:08:04.75	309.66	10.98	-50.6	-52.0	14.3	0.00e+00	0	27	0	1107296256	67	4223
2026-01-13 13:08:05.74	309.84	10.95	-50.5	-51.9	14.4	0.00e+00	0	27	0	1110441984	67	4190
2026-01-13 13:08:06.74	310.01	10.93	-50.5	-51.9	14.4	0.00e+00	0	27	0	1113587712	67	4170
2026-01-13 13:08:07.73	310.19	10.90	-50.6	-52.0	14.3	0.00e+00	0	27	0	1116733440	67	4212
2026-01-13 13:08:08.73	310.37	10.88	-50.5	-51.9	14.4	0.00e+00	0	27	0	1119879168	67	4184
2026-01-13 13:08:09.73	310.54	10.85	-50.5	-51.9	14.4	0.00e+00	0	27	0	1123024896	67	4174
2026-01-13 13:08:10.73	310.72	10.83	-50.6	-52.0	14.3	0.00e+00	0	27	0	1126170624	67	4223
2026-01-13 13:08:11.73	310.89	10.80	-50.6	-52.0	14.3	0.00e+00	0	27	0	1129316352	67	4236
2026-01-13 13:08:12.73	311.07	10.77	-50.5	-52.0	14.3	0.00e+00	0	27	0	1132462080	67	4207
2026-01-13 13:08:13.73	311.24	10.75	-50.6	-52.0	14.3	0.00e+00	0	27	0	1135607808	67	4232
2026-01-13 13:08:14.74	311.42	10.72	-50.6	-52.1	14.3	0.00e+00	0	27	0	1138753536	67	4247
2026-01-13 13:08:15.74	311.60	10.69	-50.7	-52.2	14.2	0.00e+00	0	27	0	1141899264	67	4315
2026-01-13 13:08:16.74	311.77	10.67	-50.6	-52.1	14.3	0.00e+00	0	27	0	1145044992	67	4260
2026-01-13 13:08:17.73	311.94	10.64	-50.7	-52.1	14.3	0.00e+00	0	26	0	1148190720	67	4273
2026-01-13 13:08:18.73	312.12	10.61	-50.6	-52.0	14.3	0.00e+00	0	27	0	1151336448	67	4224
2026-01-13 13:08:19.73	312.29	10.59	-50.5	-51.9	14.4	0.00e+00	0	27	0	1154482176	67	4182
2026-01-13 13:08:20.74	312.46	10.56	-50.5	-51.9	14.4	0.00e+00	0	27	0	1157627904	67	4178
2026-01-13 13:08:21.74	312.64	10.53	-50.5	-51.9	14.4	0.00e+00	0	27	0	1159725056	67	4171
2026-01-13 13:08:22.73	312.81	10.50	-50.5	-51.9	14.4	0.00e+00	0	27	0	1162870784	67	4178
2026-01-13 13:08:23.73	312.98	10.48	-50.5	-52.0	14.3	0.00e+00	0	27	0	1166016512	67	4197
2026-01-13 13:08:24.73	313.15	10.45	-50.6	-52.0	14.3	0.00e+00	0	27	0	1169162240	67	4217
2026-01-13 13:08:25.73	313.32	10.42	-50.6	-52.1	14.3	0.00e+00	0	27	0	1172307968	67	4258
2026-01-13 13:08:26.73	313.49	10.39	-50.7	-52.2	14.2	0.00e+00	0	27	0	1175453696	67	4307
2026-01-13 13:08:27.73	313.66	10.36	-50.8	-52.3	14.2	0.00e+00	0	27	0	1178599424	67	4367
2026-01-13 13:08:28.72	313.83	10.33	-50.9	-52.4	14.1	0.00e+00	0	27	0	1181745152	67	4435
2026-01-13 13:08:29.71	314.00	10.30	-50.9	-52.4	14.1	0.00e+00	0	27	0	1184890880	67	4407
2026-01-13 13:08:30.71	314.17	10.27	-50.9	-52.4	14.2	0.00e+00	0	26	0	1188036608	67	4399
2026-01-13 13:08:31.70	314.34	10.24	-50.8	-52.3	14.2	0.00e+00	0	27	0	1191182336	67	4386
2026-01-13 13:08:32.69	314.50	10.21	-50.9	-52.4	14.1	0.00e+00	0	27	0	1194328064	67	4395
2026-01-13 13:08:33.69	314.67	10.18	-50.8	-52.3	14.2	0.00e+00	0	26	0	1197473792	67	4379
2026-01-13 13:08:34.69	314.84	10.15	-50.8	-52.3	14.2	0.00e+00	0	27	0	1200619520	67	4391
2026-01-13 13:08:35.69	315.01	10.12	-50.8	-52.3	14.2	0.00e+00	0	27	0	1203765248	67	4355
2026-01-13 13:08:36.68	315.18	10.09	-50.9	-52.4	14.1	0.00e+00	0	27	0	1206910976	67	4413
2026-01-13 13:08:37.68	315.34	10.06	-50.9	-52.4	14.1	0.00e+00	0	27	0	1210056704	67	4424
2026-01-13 13:08:38.68	315.51	10.03	-51.0	-52.5	14.1	0.00e+00	0	27	0	1213202432	67	4459
2026-01-13 13:08:39.68	315.68	10.00	-50.9	-52.4	14.1	0.00e+00	0	27	0	1216348160	67	4418
2026-01-13 13:08:40.68	315.84	9.97	-51.0	-52.5	14.1	0.00e+00	0	27	0	1219493888	67	4474
2026-01-13 13:08:41.69	316.01	9.94	-50.9	-52.4	14.1	0.00e+00	0	27	0	1222639616	67	4399
2026-01-13 13:08:42.69	316.18	9.91	-50.8	-52.3	14.2	0.00e+00	0	27	0	1225785344	67	4371
2026-01-13 13:08:43.69	316.34	9.88	-50.9	-52.4	14.1	0.00e+00	0	27	0	1228931072	67	4440
2026-01-13 13:08:44.68	316.50	9.84	-50.9	-52.4	14.1	0.00e+00	0	26	0	1232076800	67	4429
2026-01-13 13:08:45.68	316.67	9.81	-50.9	-52.5	14.1	0.00e+00	0	26	0	1235222528	67	4454
2026-01-13 13:08:46.68	316.83	9.78	-51.0	-52.6	14.0	0.00e+00	0	27	0	1238368256	67	4498
2026-01-13 13:08:47.68	317.00	9.75	-51.0	-52.5	14.1	0.00e+00	0	26	0	1241513984	67	4470
2026-01-13 13:08:48.68	317.16	9.71	-50.9	-52.4	14.1	0.00e+00	0	27	0	1244659712	67	4406
2026-01-13 13:08:49.67	317.32	9.68	-50.9	-52.4	14.1	0.00e+00	0	27	0	1247805440	67	4405
2026-01-13 13:08:50.67	317.48	9.65	-50.7	-52.2	14.2	0.00e+00	0	27	0	1250951168	67	4311
2026-01-13 13:08:51.66	317.64	9.62	-50.7	-52.2	14.2	0.00e+00	0	27	0	1254096896	67	4311
2026-01-13 13:08:52.66	317.81	9.58	-50.7	-52.2	14.2	0.00e+00	0	27	0	1257242624	67	4329
2026-01-13 13:08:53.66	317.97	9.55	-50.6	-52.1	14.2	0.00e+00	0	27	0	1260388352	67	4275
2026-01-13 13:08:54.66	318.13	9.52	-50.6	-52.1	14.2	0.00e+00	0	27	0	1263534080	67	4255
2026-01-13 13:08:55.66	318.29	9.48	-50.6	-52.1	14.3	0.00e+00	0	27	0	1266679808	67	4248
2026-01-13 13:08:56.65	318.45	9.45	-50.6	-52.1	14.2	0.00e+00	0	27	0	1268776960	67	4264
2026-01-13 13:08:57.65	318.61	9.42	-50.7	-52.1	14.2	0.00e+00	0	27	0	1271922688	67	4281
2026-01-13 13:08:58.64	318.77	9.38	-50.7	-52.2	14.2	0.00e+00	0	26	0	1275068416	67	4292
2026-01-13 13:08:59.64	318.93	9.35	-50.7	-52.2	14.2	0.00e+00	0	26	0	1278214144	67	4311
2026-01-13 13:09:00.64	319.09	9.31	-50.9	-52.4	14.1	0.00e+00	0	27	0	1281359872	67	4408
2026-01-13 13:09:01.64	319.25	9.28	-50.9	-52.5	14.1	0.00e+00	0	27	0	1284505600	67	4454
2026-01-13 13:09:02.63	319.40	9.24	-51.0	-52.6	14.0	0.00e+00	0	27	0	1287651328	67	4496
2026-01-13 13:09:03.62	319.56	9.21	-51.1	-52.7	14.0	0.00e+00	0	27	0	1290797056	67	4575
2026-01-13 13:09:04.61	319.72	9.18	-51.2	-52.7	13.9	0.00e+00	0	27	0	1293942784	67	4593
2026-01-13 13:09:05.61	319.87	9.14	-51.1	-52.7	14.0	0.00e+00	0	27	0	1297088512	67	4563
2026-01-13 13:09:06.61	320.03	9.11	-51.2	-52.8	13.9	0.00e+00	0	27	0	1300234240	67	4600
2026-01-13 13:09:07.60	320.19	9.07	-51.1	-52.7	14.0	0.00e+00	0	27	0	1303379968	67	4568
2026-01-13 13:09:08.59	320.34	9.04	-51.0	-52.6	14.0	0.00e+00	0	27	0	1306525696	67	4509
2026-01-13 13:09:09.59	320.50	9.00	-51.2	-52.8	13.9	0.00e+00	0	27	0	1309671424	67	4605
2026-01-13 13:09:10.59	320.65	8.96	-51.1	-52.6	14.0	0.00e+00	0	27	0	1312817152	67	4540
2026-01-13 13:09:11.59	320.81	8.93	-51.1	-52.7	14.0	0.00e+00	0	27	0	1315962880	67	4553
2026-01-13 13:09:12.59	320.96	8.89	-51.1	-52.7	14.0	0.00e+00	0	27	0	1319108608	67	4575
2026-01-13 13:09:13.60	321.12	8.86	-51.1	-52.6	14.0	0.00e+00	0	27	0	1322254336	67	4539
2026-01-13 13:09:14.58	321.27	8.82	-51.0	-52.6	14.0	0.00e+00	0	27	0	1325400064	67	4513
2026-01-13 13:09:15.60	321.43	8.78	-51.0	-52.6	14.0	0.00e+00	0	27	0	1328545792	67	4538
2026-01-13 13:09:16.60	321.58	8.75	-51.0	-52.6	14.0	0.00e+00	0	27	0	1331691520	67	4499
2026-01-13 13:09:17.60	321.73	8.71	-51.0	-52.6	14.0	0.00e+00	0	27	0	1334837248	67	4498
2026-01-13 13:09:18.60	321.88	8.67	-51.1	-52.7	14.0	0.00e+00	0	27	0	1337982976	67	4550
2026-01-13 13:09:19.60	322.04	8.64	-51.1	-52.7	13.9	0.00e+00	0	27	0	1341128704	67	4568
2026-01-13 13:09:20.61	322.19	8.60	-51.2	-52.8	13.9	0.00e+00	0	27	0	1344274432	67	4618
2026-01-13 13:09:21.61	322.34	8.56	-51.3	-52.9	13.9	0.00e+00	0	27	0	1347420160	67	4664
2026-01-13 13:09:22.60	322.49	8.53	-51.3	-52.9	13.8	0.00e+00	0	27	0	1350565888	67	4695
2026-01-13 13:09:23.60	322.64	8.49	-51.6	-53.3	13.8	0.00e+00	0	27	0	1353711616	68	4609
2026-01-13 13:09:24.60	322.79	8.45	-51.5	-53.2	13.9	0.00e+00	0	26	0	1356857344	68	4568
2026-01-13 13:09:25.61	322.94	8.41	-51.5	-53.1	13.9	0.00e+00	0	27	0	1360003072	68	4531
2026-01-13 13:09:26.61	323.09	8.38	-51.4	-53.1	13.9	0.00e+00	0	27	0	1363148800	68	4497
2026-01-13 13:09:27.61	323.24	8.34	-51.4	-53.0	13.9	0.00e+00	0	27	0	1366294528	68	4486
2026-01-13 13:09:28.62	323.39	8.30	-51.4	-53.0	13.9	0.00e+00	0	27	0	1369440256	68	4467
2026-01-13 13:09:29.62	323.54	8.26	-51.5	-53.1	13.9	0.00e+00	0	27	0	1372585984	68	4509
2026-01-13 13:09:30.62	323.69	8.22	-51.4	-53.0	14.0	0.00e+00	0	27	0	1375731712	68	4457
2026-01-13 13:09:31.63	323.84	8.19	-51.4	-53.0	13.9	0.00e+00	0	26	0	1378877440	68	4458
2026-01-13 13:09:32.63	323.99	8.15	-51.4	-53.0	14.0	0.00e+00	0	27	0	1382023168	68	4462
2026-01-13 13:09:33.63	324.13	8.11	-51.4	-53.0	13.9	0.00e+00	0	26	0	1385168896	68	4483
2026-01-13 13:09:34.63	324.28	8.07	-51.3	-53.0	13.9	0.00e+00	0	26	0	1388314624	68	4445
2026-01-13 13:09:35.63	324.43	8.03	-51.3	-52.9	14.0	0.00e+00	0	26	0	1391460352	68	4421
2026-01-13 13:09:36.62	324.57	7.99	-51.4	-53.0	13.9	0.00e+00	0	27	0	1394606080	68	4480
2026-01-13 13:09:37.62	324.72	7.95	-51.5	-53.1	13.8	0.00e+00	0	27	0	1397751808	68	4545
2026-01-13 13:09:38.62	324.86	7.92	-51.5	-53.1	13.8	0.00e+00	0	27	0	1400897536	68	4544
2026-01-13 13:09:39.62	325.01	7.88	-51.5	-53.2	13.8	0.00e+00	0	27	0	1404043264	68	4566
2026-01-13 13:09:40.62	325.15	7.84	-51.5	-53.2	13.8	0.00e+00	0	27	0	1407188992	68	4571
2026-01-13 13:09:41.62	325.29	7.80	-51.6	-53.3	13.8	0.00e+00	0	26	0	1410334720	68	4631
2026-01-13 13:09:42.62	325.44	7.76	-51.7	-53.5	13.7	0.00e+00	0	27	0	1413480448	68	4717
2026-01-13 13:09:43.62	325.58	7.72	-51.8	-53.5	13.7	0.00e+00	0	27	0	1416626176	68	4738
2026-01-13 13:09:44.63	325.72	7.68	-51.7	-53.5	13.7	0.00e+00	0	27	0	1419771904	68	4710
2026-01-13 13:09:45.63	325.87	7.64	-51.8	-53.5	13.7	0.00e+00	0	27	0	1422917632	68	4733
2026-01-13 13:09:46.64	326.01	7.60	-51.7	-53.4	13.7	0.00e+00	0	27	0	1425014784	68	4698
2026-01-13 13:09:47.64	326.15	7.56	-51.7	-53.4	13.7	0.00e+00	0	27	0	1428160512	68	4675
2026-01-13 13:09:48.64	326.29	7.52	-51.7	-53.3	13.7	0.00e+00	0	26	0	1431306240	68	4649
2026-01-13 13:09:49.64	326.44	7.48	-51.7	-53.4	13.7	0.00e+00	0	26	0	1434451968	68	4703
2026-01-13 13:09:50.65	326.58	7.44	-51.7	-53.4	13.7	0.00e+00	0	27	0	1437597696	68	4694
2026-01-13 13:09:51.65	326.72	7.40	-51.7	-53.4	13.7	0.00e+00	0	27	0	1440743424	68	4697
2026-01-13 13:09:52.65	326.86	7.36	-51.6	-53.3	13.8	0.00e+00	0	27	0	1443889152	68	4609
2026-01-13 13:09:53.65	327.00	7.32	-51.6	-53.3	13.8	0.00e+00	0	26	0	1447034880	68	4613
2026-01-13 13:09:54.66	327.14	7.28	-51.5	-53.2	13.8	0.00e+00	0	27	0	1450180608	68	4577
2026-01-13 13:09:55.66	327.28	7.24	-51.5	-53.2	13.8	0.00e+00	0	26	0	1453326336	68	4565
2026-01-13 13:09:56.67	327.42	7.20	-51.6	-53.3	13.8	0.00e+00	0	26	0	1456472064	68	4603
2026-01-13 13:09:57.67	327.55	7.16	-51.6	-53.3	13.7	0.00e+00	0	27	0	1459617792	68	4641
2026-01-13 13:09:58.68	327.69	7.12	-51.7	-53.4	13.7	0.00e+00	0	27	0	1462763520	68	4702
2026-01-13 13:09:59.68	327.83	7.08	-51.7	-53.5	13.7	0.00e+00	0	27	0	1465909248	68	4726
2026-01-13 13:10:00.69	327.97	7.04	-51.8	-53.5	13.6	0.00e+00	0	27	0	1469054976	68	4745
2026-01-13 13:10:01.69	328.11	7.00	-51.8	-53.6	13.6	0.00e+00	0	27	0	1472200704	68	4799
2026-01-13 13:10:02.69	328.24	6.96	-51.8	-53.6	13.6	0.00e+00	0	27	0	1475346432	68	4774
2026-01-13 13:10:03.68	328.38	6.91	-51.8	-53.5	13.6	0.00e+00	0	27	0	1478492160	68	4747
2026-01-13 13:10:04.68	328.51	6.87	-51.9	-53.6	13.6	0.00e+00	0	27	0	1481637888	68	4796
2026-01-13 13:10:05.68	328.65	6.83	-51.9	-53.7	13.6	0.00e+00	0	26	0	1484783616	69	4576
2026-01-13 13:10:06.67	328.78	6.79	-51.9	-53.7	13.6	0.00e+00	0	27	0	1487929344	69	4556
2026-01-13 13:10:07.67	328.91	6.75	-51.8	-53.5	13.7	0.00e+00	0	27	0	1491075072	69	4493
2026-01-13 13:10:08.66	329.05	6.71	-51.8	-53.5	13.7	0.00e+00	0	27	0	1494220800	69	4490
2026-01-13 13:10:09.67	329.18	6.67	-51.8	-53.5	13.8	0.00e+00	0	27	0	1497366528	69	4467
2026-01-13 13:10:10.67	329.32	6.63	-51.8	-53.5	13.7	0.00e+00	0	27	0	1500512256	69	4493
2026-01-13 13:10:11.67	329.45	6.59	-51.7	-53.4	13.8	0.00e+00	0	27	0	1503657984	69	4399
2026-01-13 13:10:12.67	329.58	6.54	-51.7	-53.5	13.8	0.00e+00	0	27	0	1506803712	69	4452
2026-01-13 13:10:13.67	329.71	6.50	-51.9	-53.6	13.7	0.00e+00	0	27	0	1509949440	69	4539
2026-01-13 13:10:14.67	329.84	6.46	-51.8	-53.6	13.7	0.00e+00	0	27	0	1513095168	69	4514
2026-01-13 13:10:15.67	329.98	6.42	-51.8	-53.5	13.7	0.00e+00	0	27	0	1516240896	69	4473
2026-01-13 13:10:16.66	330.11	6.38	-51.8	-53.5	13.7	0.00e+00	0	27	0	1519386624	69	4463
2026-01-13 13:10:17.66	330.24	6.34	-51.7	-53.4	13.8	0.00e+00	0	27	0	1522532352	69	4420
2026-01-13 13:10:18.66	330.37	6.29	-51.7	-53.5	13.7	0.00e+00	0	27	0	1525678080	69	4449
2026-01-13 13:10:19.66	330.50	6.25	-51.7	-53.4	13.8	0.00e+00	0	27	0	1528823808	69	4423
2026-01-13 13:10:20.65	330.63	6.21	-51.7	-53.5	13.7	0.00e+00	0	27	0	1531969536	69	4458
2026-01-13 13:10:21.66	330.76	6.17	-51.8	-53.6	13.7	0.00e+00	0	27	0	1535115264	69	4503
2026-01-13 13:10:22.66	330.89	6.13	-51.7	-53.5	13.7	0.00e+00	0	27	0	1538260992	69	4444
2026-01-13 13:10:23.66	331.01	6.08	-51.9	-53.7	13.6	0.00e+00	0	27	0	1541406720	69	4548
2026-01-13 13:10:24.65	331.14	6.04	-51.9	-53.7	13.6	0.00e+00	0	26	0	1544552448	69	4570
2026-01-13 13:10:25.65	331.27	6.00	-51.9	-53.7	13.6	0.00e+00	0	27	0	1547698176	69	4567
2026-01-13 13:10:26.65	331.40	5.96	-51.9	-53.7	13.6	0.00e+00	0	27	0	1550843904	69	4594
2026-01-13 13:10:27.65	331.52	5.92	-52.2	-54.0	13.4	0.00e+00	0	27	0	1553989632	69	4748
2026-01-13 13:10:28.65	331.65	5.87	-52.1	-53.9	13.5	0.00e+00	0	27	0	1557135360	69	4687
2026-01-13 13:10:29.65	331.78	5.83	-52.0	-53.9	13.5	0.00e+00	0	27	0	1560281088	69	4658
2026-01-13 13:10:30.64	331.90	5.79	-52.2	-54.0	13.4	0.00e+00	0	27	0	1563426816	69	4752
2026-01-13 13:10:31.64	332.03	5.75	-52.1	-53.9	13.5	0.00e+00	0	27	0	1566572544	69	4691
2026-01-13 13:10:32.64	332.15	5.70	-52.2	-54.1	13.4	0.00e+00	0	27	0	1569718272	69	4764
2026-01-13 13:10:33.64	332.28	5.66	-52.1	-54.0	13.4	0.00e+00	0	26	0	1572864000	69	4717
2026-01-13 13:10:34.64	332.40	5.62	-52.2	-54.1	13.4	0.00e+00	0	27	0	1576009728	69	4768
2026-01-13 13:10:35.64	332.53	5.58	-52.0	-53.8	13.5	0.00e+00	0	27	0	1579155456	69	4643
2026-01-13 13:10:36.63	332.65	5.54	-51.9	-53.7	13.5	0.00e+00	0	27	0	1582301184	69	4590
2026-01-13 13:10:37.63	332.77	5.49	-52.0	-53.8	13.5	0.00e+00	0	27	0	1584398336	69	4617
2026-01-13 13:10:38.62	332.90	5.45	-52.1	-54.0	13.4	0.00e+00	0	26	0	1587544064	69	4741
2026-01-13 13:10:39.62	333.02	5.41	-52.5	-54.5	13.2	0.00e+00	0	27	0	1590689792	70	4735
2026-01-13 13:10:40.62	333.14	5.36	-52.6	-54.6	13.1	0.00e+00	0	27	0	1593835520	70	4805
2026-01-13 13:10:41.62	333.26	5.32	-52.3	-54.3	13.3	0.00e+00	0	27	0	1596981248	70	4616
2026-01-13 13:10:42.61	333.38	5.28	-52.3	-54.3	13.3	0.00e+00	0	27	0	1600126976	70	4624
2026-01-13 13:10:43.61	333.51	5.24	-52.5	-54.5	13.2	0.00e+00	0	27	0	1603272704	70	4713
2026-01-13 13:10:44.61	333.63	5.19	-52.3	-54.3	13.3	0.00e+00	0	27	0	1606418432	70	4609
2026-01-13 13:10:45.61	333.75	5.15	-52.4	-54.4	13.3	0.00e+00	0	27	0	1609564160	70	4663
2026-01-13 13:10:46.60	333.87	5.11	-52.2	-54.2	13.3	0.00e+00	0	27	0	1612709888	70	4550
2026-01-13 13:10:47.60	333.99	5.06	-52.0	-53.9	13.4	0.00e+00	0	27	0	1615855616	70	4435
2026-01-13 13:10:48.60	334.11	5.02	-52.3	-54.4	13.0	0.00e+00	0	27	0	1619001344	70	4667
2026-01-13 13:10:49.59	334.23	4.98	-55.3	-59.1	10.5	0.00e+00	0	27	0	1622147072	75	5998
2026-01-13 13:10:50.58	334.34	4.94	-58.9	-72.7	3.8	1.49e+00	0	27	104	1623195648	82	19239
2026-01-13 13:10:51.58	334.46	4.89	-59.2	-73.0	3.8	1.49e+00	0	27	104	1623195648	83	18905
2026-01-13 13:10:52.58	334.58	4.85	-59.4	-73.2	3.8	1.49e+00	0	27	104	1623195648	83	19279
2026-01-13 13:10:53.59	334.70	4.81	-59.7	-73.5	3.8	1.49e+00	0	27	104	1623195648	84	18914
2026-01-13 13:10:54.59	334.82	4.76	-59.8	-73.7	3.8	1.49e+00	0	27	104	1623195648	84	19255
2026-01-13 13:10:55.58	334.94	4.72	-60.0	-73.8	3.8	1.49e+00	0	27	104	1623195648	85	18356
2026-01-13 13:10:56.59	335.05	4.68	-60.1	-73.9	3.8	1.49e+00	0	27	104	1623195648	85	18584
2026-01-13 13:10:57.59	335.17	4.63	-60.1	-74.0	3.8	1.49e+00	0	27	104	1623195648	85	18792
2026-01-13 13:10:58.59	335.29	4.59	-60.2	-74.1	3.8	1.49e+00	0	27	104	1623195648	85	18953
2026-01-13 13:10:59.60	335.41	4.55	-60.3	-74.1	3.8	1.49e+00	0	27	104	1623195648	85	19089
2026-01-13 13:11:00.60	335.52	4.50	-60.3	-74.1	3.8	1.49e+00	0	27	104	1623195648	85	19128
2026-01-13 13:11:01.61	335.64	4.46	-60.3	-74.2	3.8	1.49e+00	0	27	104	1623195648	85	19176
2026-01-13 13:11:02.61	335.75	4.42	-60.3	-74.2	3.8	1.49e+00	0	27	104	1623195648	85	19274
2026-01-13 13:11:03.61	335.87	4.37	-60.4	-74.2	3.8	1.49e+00	0	27	104	1623195648	85	19314
2026-01-13 13:11:04.62	335.98	4.33	-60.3	-74.2	3.8	1.49e+00	0	27	104	1623195648	85	19253
2026-01-13 13:11:05.62	336.10	4.28	-60.4	-74.2	3.8	1.49e+00	0	27	104	1623195648	85	19268
2026-01-13 13:11:06.61	336.21	4.24	-60.4	-74.2	3.8	1.49e+00	0	27	104	1623195648	85	19281
2026-01-13 13:11:07.61	336.32	4.20	-60.4	-74.2	3.8	1.49e+00	0	27	104	1623195648	85	19261
2026-01-13 13:11:08.61	336.44	4.15	-60.4	-74.2	3.8	1.49e+00	0	27	104	1623195648	85	19296
2026-01-13 13:11:09.61	336.55	4.11	-60.4	-74.2	3.8	1.49e+00	0	27	104	1623195648	85	19294
2026-01-13 13:11:10.60	336.66	4.07	-60.3	-74.2	3.8	1.49e+00	0	27	104	1623195648	85	19322
2026-01-13 13:11:11.60	336.77	4.02	-60.3	-74.2	3.8	1.49e+00	0	27	104	1623195648	85	19235
2026-01-13 13:11:12.60	336.89	3.98	-60.3	-74.1	3.8	1.49e+00	0	27	104	1623195648	85	19128
2026-01-13 13:11:13.61	337.00	3.94	-60.3	-74.1	3.8	1.49e+00	0	27	104	1623195648	85	19145
2026-01-13 13:11:14.62	337.11	3.89	-60.3	-74.1	3.8	1.49e+00	0	27	104	1623195648	85	19091
2026-01-13 13:11:15.62	337.22	3.85	-60.3	-74.1	3.8	1.49e+00	0	27	104	1623195648	85	19081
2026-01-13 13:11:16.62	337.33	3.80	-60.2	-74.1	3.9	1.49e+00	0	27	104	1623195648	85	19027
2026-01-13 13:11:17.62	337.44	3.76	-60.2	-74.1	3.8	1.49e+00	0	27	104	1623195648	85	19010
2026-01-13 13:11:18.62	337.56	3.72	-60.2	-74.1	3.8	1.49e+00	0	27	104	1623195648	85	19061
2026-01-13 13:11:19.61	337.66	3.67	-60.2	-74.1	3.8	1.49e+00	0	27	104	1623195648	85	19033
2026-01-13 13:11:20.60	337.77	3.63	-60.2	-74.1	3.8	1.49e+00	0	27	104	1623195648	85	19053
2026-01-13 13:11:21.59	337.88	3.59	-60.2	-74.1	3.8	1.49e+00	0	27	104	1623195648	85	19005
2026-01-13 13:11:22.58	337.99	3.54	-60.2	-74.1	3.8	1.49e+00	0	27	104	1623195648	85	19069
2026-01-13 13:11:23.58	338.10	3.50	-60.2	-74.1	3.8	1.49e+00	0	27	104	1623195648	85	18983
2026-01-13 13:11:24.57	338.20	3.46	-60.2	-74.0	3.8	1.49e+00	0	27	104	1623195648	85	18943
2026-01-13 13:11:25.58	338.31	3.41	-60.2	-74.1	3.8	1.49e+00	0	27	104	1623195648	85	18960
2026-01-13 13:11:26.57	338.42	3.37	-60.2	-74.1	3.8	1.49e+00	0	27	104	1623195648	85	18961
2026-01-13 13:11:27.57	338.53	3.33	-60.2	-74.0	3.8	1.49e+00	0	27	104	1623195648	85	18908
2026-01-13 13:11:28.57	338.63	3.28	-60.2	-74.0	3.8	1.49e+00	0	27	104	1623195648	85	18894
2026-01-13 13:11:29.57	338.74	3.24	-60.2	-74.0	3.8	1.49e+00	0	27	104	1623195648	85	18842
2026-01-13 13:11:30.58	338.85	3.19	-60.2	-74.0	3.8	1.49e+00	0	27	104	1623195648	85	18864
2026-01-13 13:11:31.58	338.95	3.15	-60.2	-74.0	3.8	1.49e+00	0	27	104	1623195648	85	18859
2026-01-13 13:11:32.58	339.06	3.11	-60.2	-74.0	3.8	1.49e+00	0	27	104	1623195648	85	18881
2026-01-13 13:11:33.58	339.17	3.06	-60.2	-74.0	3.8	1.49e+00	0	27	104	1623195648	85	18892
2026-01-13 13:11:34.57	339.27	3.02	-60.2	-74.0	3.8	1.49e+00	0	27	104	1623195648	85	18844
2026-01-13 13:11:35.57	339.38	2.97	-60.2	-74.0	3.8	1.49e+00	0	27	104	1623195648	85	18839
2026-01-13 13:11:36.57	339.48	2.93	-60.1	-74.0	3.8	1.49e+00	0	27	104	1623195648	85	18829
2026-01-13 13:11:37.56	339.58	2.89	-60.1	-74.0	3.8	1.49e+00	0	27	104	1623195648	85	18850
2026-01-13 13:11:38.55	339.69	2.84	-60.1	-74.0	3.8	1.49e+00	0	27	104	1623195648	85	18806
2026-01-13 13:11:39.55	339.79	2.80	-60.1	-74.0	3.8	1.49e+00	0	27	104	1623195648	85	18796
2026-01-13 13:11:40.56	339.90	2.76	-60.1	-74.0	3.8	1.49e+00	0	27	104	1623195648	85	18780
2026-01-13 13:11:41.55	340.00	2.71	-60.1	-74.0	3.8	1.49e+00	0	27	104	1623195648	85	18752
2026-01-13 13:11:42.54	340.10	2.67	-60.1	-74.0	3.8	1.49e+00	0	27	104	1623195648	85	18824
2026-01-13 13:11:43.54	340.20	2.62	-60.1	-74.0	3.8	1.49e+00	0	27	104	1623195648	85	18807
2026-01-13 13:11:44.54	340.30	2.58	-60.1	-74.0	3.8	1.49e+00	0	27	104	1623195648	85	18783
2026-01-13 13:11:45.55	340.41	2.54	-60.1	-74.0	3.8	1.49e+00	0	27	104	1623195648	85	18750
2026-01-13 13:11:46.55	340.51	2.49	-60.1	-74.0	3.8	1.49e+00	0	27	104	1623195648	85	18762
2026-01-13 13:11:47.56	340.61	2.45	-60.1	-73.9	3.8	1.49e+00	0	27	104	1623195648	85	18726
2026-01-13 13:11:48.56	340.71	2.40	-60.1	-74.0	3.8	1.49e+00	0	27	104	1623195648	85	18760
2026-01-13 13:11:49.56	340.81	2.36	-60.1	-74.0	3.8	1.49e+00	0	27	104	1623195648	85	18735
2026-01-13 13:11:50.56	340.91	2.32	-60.1	-73.9	3.8	1.49e+00	0	27	104	1623195648	85	18720
2026-01-13 13:11:51.56	341.01	2.27	-60.1	-73.9	3.8	1.49e+00	0	27	104	1623195648	85	18719
2026-01-13 13:11:52.57	341.12	2.23	-60.1	-73.9	3.8	1.49e+00	0	27	104	1623195648	85	18711
2026-01-13 13:11:53.58	341.22	2.18	-60.1	-73.9	3.8	1.49e+00	0	27	104	1623195648	85	18678
2026-01-13 13:11:54.57	341.32	2.14	-60.1	-74.0	3.8	1.49e+00	0	27	104	1623195648	85	18769
2026-01-13 13:11:55.57	341.41	2.10	-60.1	-73.9	3.8	1.49e+00	0	27	104	1623195648	85	18726
2026-01-13 13:11:56.57	341.51	2.05	-60.1	-73.9	3.8	1.49e+00	0	27	104	1623195648	85	18691
2026-01-13 13:11:57.58	341.61	2.01	-60.1	-74.0	3.8	1.49e+00	0	27	104	1623195648	85	18739

#Closed at: 2026-01-13 13:11:58
#Recorded file [1623 MB]: D:/lorett/data/31004_260113_160111.dat