passes_logs/2026/01/13/R3.2S_Murmansk/R3.2S_Murmansk__20260113_100609_SUOMI_NPP_rec.log

#Pass ID: 20260113_100609_SUOMI NPP
#Satellite: SUOMI NPP
#Configuration: NPP
#almurnet v.1.7.20251203
#Start time: 2026-01-13 10:06:09

#Version: 2.2.20231116
#Station: R3.2S_Murmansk
#Location: 33.079688 lon 68.888172 lat
#TLE: 1 37849U 11061A   26013.13039704  .00000061  00000+0  49955-4 0  9991
#TLE: 2 37849  98.7808 315.1951 0002492  66.9161 293.2277 14.19524814736449

#Time	Az	El	Level	Level2	SNR	BER	BlckErr	Temp	State	Recorded	gain1	gain2
2026-01-13 10:06:09.30	163.93	2.00	-58.1	-74.1	3.8	1.49e+00	0	24	0	0	82	22560
2026-01-13 10:06:10.29	163.94	2.06	-58.1	-73.8	3.8	1.49e+00	0	24	104	0	81	23189
2026-01-13 10:06:11.29	163.96	2.13	-58.1	-73.8	3.8	1.49e+00	0	24	104	0	81	23217
2026-01-13 10:06:12.28	163.98	2.19	-58.1	-73.8	3.8	1.49e+00	0	24	104	0	81	23167
2026-01-13 10:06:13.28	163.99	2.26	-58.1	-73.8	3.8	1.49e+00	0	24	104	0	81	23196
2026-01-13 10:06:14.27	164.01	2.32	-58.1	-73.8	3.8	1.49e+00	0	24	104	0	81	23129
2026-01-13 10:06:15.26	164.03	2.38	-58.1	-73.7	3.8	1.49e+00	0	24	104	0	81	22892
2026-01-13 10:06:16.26	164.04	2.45	-58.1	-73.7	3.8	1.49e+00	0	24	104	0	81	22982
2026-01-13 10:06:17.25	164.06	2.51	-58.1	-73.7	3.8	1.49e+00	0	24	104	0	81	23009
2026-01-13 10:06:18.24	164.08	2.58	-58.1	-73.6	3.8	1.49e+00	0	24	104	0	81	22527
2026-01-13 10:06:19.23	164.10	2.64	-58.1	-73.7	3.8	1.49e+00	0	24	104	0	81	22812
2026-01-13 10:06:20.23	164.11	2.71	-58.1	-73.6	3.8	1.49e+00	0	24	104	0	81	22532
2026-01-13 10:06:21.22	164.13	2.77	-58.1	-73.5	3.8	1.49e+00	0	24	104	0	81	22287
2026-01-13 10:06:22.22	164.15	2.84	-58.1	-73.6	3.8	1.49e+00	0	24	104	0	81	22608
2026-01-13 10:06:23.22	164.17	2.90	-58.1	-73.7	3.8	1.49e+00	0	24	104	0	81	22787
2026-01-13 10:06:24.21	164.18	2.97	-58.1	-73.7	3.8	1.49e+00	0	24	104	0	81	22898
2026-01-13 10:06:25.21	164.20	3.03	-58.1	-73.9	3.8	1.49e+00	0	24	104	0	81	23440
2026-01-13 10:06:26.20	164.22	3.10	-58.1	-74.0	3.8	1.49e+00	0	24	104	0	81	23711
2026-01-13 10:06:27.18	164.24	3.16	-58.1	-74.1	3.8	1.49e+00	0	25	104	0	81	24116
2026-01-13 10:06:28.18	164.25	3.23	-58.1	-74.0	3.8	1.49e+00	0	25	104	0	81	23725
2026-01-13 10:06:29.17	164.27	3.30	-58.1	-73.6	3.8	1.49e+00	0	25	104	0	81	22765
2026-01-13 10:06:30.16	164.29	3.36	-58.1	-72.8	3.8	1.49e+00	0	25	104	0	81	20718
2026-01-13 10:06:31.16	164.31	3.43	-58.0	-71.7	3.9	1.49e+00	0	25	104	0	81	18188
2026-01-13 10:06:32.15	164.33	3.50	-58.0	-71.0	4.1	1.46e+00	0	25	104	0	81	16784
2026-01-13 10:06:33.15	164.34	3.56	-58.0	-70.5	4.2	1.40e+00	0	24	0	0	81	15785
2026-01-13 10:06:34.14	164.36	3.63	-57.9	-69.3	4.6	1.08e+00	0	25	0	1048576	81	13746
2026-01-13 10:06:35.13	164.38	3.70	-57.8	-68.5	4.9	7.72e-01	0	25	0	3145728	81	12565
2026-01-13 10:06:36.12	164.40	3.77	-57.7	-67.3	5.6	4.80e-01	0	25	0	4194304	81	11009
2026-01-13 10:06:37.11	164.42	3.83	-57.7	-67.1	5.7	3.59e-01	0	25	0	6291456	81	10767
2026-01-13 10:06:38.10	164.44	3.90	-57.6	-66.6	6.1	3.01e-01	0	25	0	8388608	81	10101
2026-01-13 10:06:39.09	164.45	3.97	-57.5	-65.9	6.6	2.24e-01	0	25	0	10485760	81	9324
2026-01-13 10:06:40.09	164.47	4.04	-57.3	-64.8	7.5	9.13e-02	0	25	0	11534336	81	8220
2026-01-13 10:06:41.08	164.49	4.10	-57.1	-64.1	8.1	6.64e-02	0	25	0	13631488	80	7998
2026-01-13 10:06:42.07	164.51	4.17	-56.9	-63.2	8.8	2.08e-02	0	25	0	15728640	80	7243
2026-01-13 10:06:43.07	164.53	4.24	-56.6	-62.3	9.6	5.76e-03	0	25	0	17825792	79	6923
2026-01-13 10:06:44.07	164.55	4.31	-56.5	-61.9	10.0	3.10e-03	0	25	0	19922944	79	6612
2026-01-13 10:06:45.06	164.57	4.38	-56.0	-60.6	10.9	5.01e-04	0	25	0	20971520	78	6041
2026-01-13 10:06:46.06	164.59	4.45	-56.0	-60.5	11.1	1.33e-04	0	25	0	23068672	78	5937
2026-01-13 10:06:47.05	164.61	4.52	-55.3	-59.0	12.1	3.80e-06	0	25	0	25165824	77	5318
2026-01-13 10:06:48.04	164.63	4.59	-55.0	-58.4	12.4	1.50e-06	0	25	0	27262976	76	5277
2026-01-13 10:06:49.03	164.64	4.66	-55.0	-58.4	12.5	7.00e-07	0	25	0	28311552	76	5248
2026-01-13 10:06:50.03	164.66	4.73	-54.8	-58.1	12.7	0.00e+00	0	25	0	30408704	76	5053
2026-01-13 10:06:51.02	164.68	4.80	-54.8	-58.0	12.8	0.00e+00	0	25	0	32505856	76	5037
2026-01-13 10:06:52.02	164.70	4.87	-54.6	-57.8	12.8	0.00e+00	0	25	0	34603008	75	5174
2026-01-13 10:06:53.02	164.72	4.94	-54.6	-57.9	12.7	0.00e+00	0	25	0	36700160	75	5236
2026-01-13 10:06:54.01	164.74	5.01	-54.8	-58.2	12.5	0.00e+00	0	25	0	37748736	75	5415
2026-01-13 10:06:55.01	164.76	5.08	-56.2	-61.0	10.7	4.57e-05	0	25	0	39845888	77	6648
2026-01-13 10:06:56.01	164.78	5.15	-55.6	-59.5	11.8	5.26e-05	0	25	0	41943040	77	5619
2026-01-13 10:06:57.01	164.80	5.22	-57.3	-65.0	7.4	1.50e-06	0	25	0	44040192	79	9435
2026-01-13 10:06:58.01	164.82	5.29	-56.8	-62.9	9.2	3.90e-03	0	25	0	46137344	79	7384
2026-01-13 10:06:59.01	164.84	5.37	-55.6	-59.5	11.7	0.00e+00	0	25	0	47185920	76	5984
2026-01-13 10:07:00.00	164.86	5.44	-54.4	-57.4	13.1	0.00e+00	0	25	0	49283072	75	4942
2026-01-13 10:07:00.98	164.88	5.51	-54.4	-57.4	13.1	0.00e+00	0	25	0	51380224	75	4934
2026-01-13 10:07:01.98	164.90	5.58	-54.4	-57.3	13.1	0.00e+00	0	25	0	53477376	75	4926
2026-01-13 10:07:02.96	164.92	5.65	-54.4	-57.3	13.1	0.00e+00	0	25	0	54525952	75	4918
2026-01-13 10:07:03.95	164.94	5.72	-54.4	-57.4	13.1	0.00e+00	0	25	0	56623104	75	4962
2026-01-13 10:07:04.94	164.97	5.80	-54.3	-57.3	13.2	0.00e+00	0	25	0	58720256	75	4889
2026-01-13 10:07:05.93	164.99	5.87	-54.4	-57.4	13.1	0.00e+00	0	25	0	60817408	75	4971
2026-01-13 10:07:06.91	165.01	5.94	-54.3	-57.3	13.2	0.00e+00	0	25	0	61865984	75	4872
2026-01-13 10:07:07.90	165.03	6.01	-54.5	-57.5	13.1	0.00e+00	0	25	0	63963136	75	5000
2026-01-13 10:07:08.89	165.05	6.09	-54.4	-57.4	13.1	0.00e+00	0	25	0	66060288	75	4939
2026-01-13 10:07:09.89	165.07	6.16	-54.3	-57.2	13.3	0.00e+00	0	25	0	68157440	75	4840
2026-01-13 10:07:10.88	165.09	6.24	-54.3	-57.3	13.2	0.00e+00	0	25	0	70254592	75	4873
2026-01-13 10:07:11.88	165.11	6.31	-54.5	-57.5	13.1	0.00e+00	0	25	0	71303168	75	5014
2026-01-13 10:07:12.87	165.13	6.38	-54.4	-57.3	13.1	0.00e+00	0	25	0	73400320	75	4924
2026-01-13 10:07:13.87	165.15	6.46	-54.4	-57.3	13.2	0.00e+00	0	25	0	75497472	75	4893
2026-01-13 10:07:14.86	165.18	6.53	-54.3	-57.2	13.3	0.00e+00	0	25	0	77594624	75	4826
2026-01-13 10:07:15.84	165.20	6.61	-54.3	-57.1	13.3	0.00e+00	0	26	0	78643200	75	4787
2026-01-13 10:07:16.83	165.22	6.68	-54.1	-56.9	13.4	0.00e+00	0	25	0	80740352	74	4929
2026-01-13 10:07:17.82	165.24	6.76	-53.9	-56.6	13.5	0.00e+00	0	25	0	82837504	74	4764
2026-01-13 10:07:18.82	165.26	6.83	-54.0	-56.6	13.5	0.00e+00	0	25	0	84934656	74	4791
2026-01-13 10:07:19.82	165.28	6.91	-54.0	-56.6	13.5	0.00e+00	0	25	0	87031808	74	4799
2026-01-13 10:07:20.82	165.31	6.99	-54.0	-56.6	13.5	0.00e+00	0	25	0	88080384	74	4808
2026-01-13 10:07:21.81	165.33	7.06	-54.0	-56.7	13.5	0.00e+00	0	25	0	90177536	74	4841
2026-01-13 10:07:22.81	165.35	7.14	-54.0	-56.7	13.5	0.00e+00	0	25	0	92274688	74	4829
2026-01-13 10:07:23.80	165.37	7.22	-54.0	-56.6	13.5	0.00e+00	0	25	0	94371840	74	4797
2026-01-13 10:07:24.80	165.40	7.29	-53.8	-56.4	13.7	0.00e+00	0	25	0	95420416	74	4660
2026-01-13 10:07:25.79	165.42	7.37	-53.8	-56.4	13.7	0.00e+00	0	25	0	97517568	74	4676
2026-01-13 10:07:26.79	165.44	7.45	-53.8	-56.3	13.7	0.00e+00	0	25	0	99614720	74	4639
2026-01-13 10:07:27.79	165.46	7.53	-54.0	-56.6	13.6	0.00e+00	0	25	0	101711872	74	4782
2026-01-13 10:07:28.78	165.49	7.60	-54.0	-56.6	13.6	0.00e+00	0	25	0	103809024	74	4789
2026-01-13 10:07:29.78	165.51	7.68	-54.0	-56.6	13.6	0.00e+00	0	25	0	104857600	74	4797
2026-01-13 10:07:30.78	165.53	7.76	-53.9	-56.4	13.7	0.00e+00	0	25	0	106954752	74	4682
2026-01-13 10:07:31.77	165.56	7.84	-53.6	-56.0	13.8	0.00e+00	0	25	0	109051904	73	4750
2026-01-13 10:07:32.76	165.58	7.92	-53.6	-56.1	13.7	0.00e+00	0	25	0	111149056	73	4787
2026-01-13 10:07:33.75	165.60	8.00	-53.9	-56.5	13.5	0.00e+00	0	25	0	112197632	73	4988
2026-01-13 10:07:34.74	165.63	8.08	-53.7	-56.2	13.7	0.00e+00	0	25	0	114294784	73	4861
2026-01-13 10:07:35.73	165.65	8.16	-53.8	-56.3	13.6	0.00e+00	0	25	0	116391936	73	4893
2026-01-13 10:07:36.72	165.67	8.23	-53.6	-56.0	13.8	0.00e+00	0	25	0	118489088	73	4712
2026-01-13 10:07:37.71	165.70	8.31	-53.5	-55.9	13.9	0.00e+00	0	25	0	120586240	73	4677
2026-01-13 10:07:38.70	165.72	8.39	-53.5	-55.9	13.9	0.00e+00	0	26	0	121634816	73	4652
2026-01-13 10:07:39.69	165.75	8.47	-53.6	-56.1	13.8	0.00e+00	0	26	0	123731968	73	4777
2026-01-13 10:07:40.68	165.77	8.56	-53.5	-55.9	13.9	0.00e+00	0	25	0	125829120	73	4685
2026-01-13 10:07:41.67	165.79	8.64	-53.6	-56.0	13.8	0.00e+00	0	25	0	127926272	73	4744
2026-01-13 10:07:42.66	165.82	8.72	-53.6	-56.0	13.9	0.00e+00	0	25	0	128974848	73	4722
2026-01-13 10:07:43.66	165.84	8.80	-53.4	-55.7	14.0	0.00e+00	0	25	0	131072000	73	4582
2026-01-13 10:07:44.64	165.87	8.88	-53.5	-55.9	13.9	0.00e+00	0	26	0	133169152	73	4654
2026-01-13 10:07:45.63	165.89	8.96	-53.4	-55.7	14.0	0.00e+00	0	25	0	135266304	73	4593
2026-01-13 10:07:46.63	165.92	9.05	-53.4	-55.7	14.0	0.00e+00	0	25	0	136314880	73	4558
2026-01-13 10:07:47.62	165.94	9.13	-53.4	-55.7	14.0	0.00e+00	0	26	0	138412032	73	4553
2026-01-13 10:07:48.62	165.97	9.21	-53.3	-55.6	14.1	0.00e+00	0	25	0	140509184	73	4535
2026-01-13 10:07:49.60	165.99	9.29	-53.4	-55.7	14.0	0.00e+00	0	26	0	142606336	73	4595
2026-01-13 10:07:50.60	166.02	9.38	-53.3	-55.6	14.1	0.00e+00	0	26	0	144703488	73	4505
2026-01-13 10:07:51.60	166.04	9.46	-53.4	-55.7	14.0	0.00e+00	0	25	0	145752064	73	4562
2026-01-13 10:07:52.59	166.07	9.55	-53.4	-55.7	14.0	0.00e+00	0	25	0	147849216	73	4565
2026-01-13 10:07:53.58	166.09	9.63	-53.3	-55.6	14.1	0.00e+00	0	25	0	149946368	73	4514
2026-01-13 10:07:54.57	166.12	9.71	-53.3	-55.5	14.2	0.00e+00	0	25	0	152043520	73	4459
2026-01-13 10:07:55.57	166.15	9.80	-53.4	-55.6	14.1	0.00e+00	0	26	0	153092096	73	4543
2026-01-13 10:07:56.57	166.17	9.88	-53.3	-55.5	14.2	0.00e+00	0	25	0	155189248	73	4448
2026-01-13 10:07:57.56	166.20	9.97	-53.2	-55.4	14.1	0.00e+00	0	25	0	157286400	72	4684
2026-01-13 10:07:58.56	166.23	10.06	-53.1	-55.2	14.2	0.00e+00	0	25	0	159383552	72	4592
2026-01-13 10:07:59.55	166.25	10.14	-53.2	-55.4	14.1	0.00e+00	0	25	0	161480704	72	4681
2026-01-13 10:08:00.54	166.28	10.23	-53.2	-55.4	14.1	0.00e+00	0	25	0	162529280	72	4653
2026-01-13 10:08:01.54	166.31	10.32	-53.1	-55.3	14.1	0.00e+00	0	26	0	164626432	72	4641
2026-01-13 10:08:02.53	166.33	10.40	-53.1	-55.3	14.1	0.00e+00	0	26	0	166723584	72	4625
2026-01-13 10:08:03.52	166.36	10.49	-53.0	-55.1	14.2	0.00e+00	0	25	0	168820736	72	4521
2026-01-13 10:08:04.52	166.39	10.58	-53.0	-55.2	14.2	0.00e+00	0	26	0	169869312	72	4546
2026-01-13 10:08:05.51	166.41	10.66	-53.1	-55.2	14.2	0.00e+00	0	25	0	171966464	72	4573
2026-01-13 10:08:06.50	166.44	10.75	-52.9	-54.9	14.3	0.00e+00	0	26	0	174063616	72	4438
2026-01-13 10:08:07.49	166.47	10.84	-52.8	-54.9	14.4	0.00e+00	0	26	0	176160768	72	4408
2026-01-13 10:08:08.48	166.50	10.93	-52.9	-54.9	14.3	0.00e+00	0	25	0	178257920	72	4420
2026-01-13 10:08:09.47	166.53	11.02	-52.8	-54.8	14.4	0.00e+00	0	25	0	179306496	72	4380
2026-01-13 10:08:10.47	166.55	11.11	-52.7	-54.7	14.3	0.00e+00	0	26	0	181403648	71	4585
2026-01-13 10:08:11.46	166.58	11.20	-52.6	-54.6	14.3	0.00e+00	0	25	0	183500800	71	4541
2026-01-13 10:08:12.45	166.61	11.29	-52.6	-54.6	14.4	0.00e+00	0	26	0	185597952	71	4500
2026-01-13 10:08:13.45	166.64	11.38	-52.7	-54.7	14.3	0.00e+00	0	26	0	186646528	71	4591
2026-01-13 10:08:14.44	166.67	11.47	-52.6	-54.5	14.4	0.00e+00	0	26	0	188743680	71	4488
2026-01-13 10:08:15.43	166.70	11.56	-52.5	-54.4	14.5	0.00e+00	0	25	0	190840832	71	4405
2026-01-13 10:08:16.42	166.72	11.65	-52.5	-54.5	14.4	0.00e+00	0	26	0	192937984	71	4465
2026-01-13 10:08:17.41	166.75	11.74	-52.3	-54.2	14.5	0.00e+00	0	26	0	195035136	71	4339
2026-01-13 10:08:18.41	166.78	11.83	-52.3	-54.2	14.6	0.00e+00	0	26	0	196083712	71	4332
2026-01-13 10:08:19.40	166.81	11.93	-52.3	-54.2	14.6	0.00e+00	0	26	0	198180864	71	4330
2026-01-13 10:08:20.39	166.84	12.02	-52.4	-54.3	14.5	0.00e+00	0	25	0	200278016	71	4341
2026-01-13 10:08:21.39	166.87	12.11	-52.3	-54.2	14.6	0.00e+00	0	25	0	202375168	71	4320
2026-01-13 10:08:22.38	166.90	12.21	-52.3	-54.2	14.6	0.00e+00	0	26	0	203423744	71	4320
2026-01-13 10:08:23.37	166.93	12.30	-52.1	-53.9	14.6	0.00e+00	0	26	0	205520896	70	4419
2026-01-13 10:08:24.37	166.96	12.39	-52.2	-54.1	14.5	0.00e+00	0	26	0	207618048	70	4516
2026-01-13 10:08:25.35	166.99	12.49	-52.2	-54.1	14.5	0.00e+00	0	26	0	209715200	70	4526
2026-01-13 10:08:26.35	167.02	12.58	-52.1	-54.0	14.5	0.00e+00	0	26	0	210763776	70	4459
2026-01-13 10:08:27.34	167.06	12.68	-52.1	-54.0	14.5	0.00e+00	0	26	0	212860928	70	4445
2026-01-13 10:08:28.33	167.09	12.77	-52.1	-54.0	14.6	0.00e+00	0	26	0	214958080	70	4442
2026-01-13 10:08:29.33	167.12	12.87	-52.0	-53.8	14.6	0.00e+00	0	26	0	217055232	70	4373
2026-01-13 10:08:30.33	167.15	12.97	-52.0	-53.8	14.6	0.00e+00	0	26	0	219152384	70	4385
2026-01-13 10:08:31.33	167.18	13.07	-52.1	-53.9	14.5	0.00e+00	0	26	0	220200960	70	4428
2026-01-13 10:08:32.33	167.21	13.16	-52.0	-53.7	14.7	0.00e+00	0	26	0	222298112	70	4334
2026-01-13 10:08:33.33	167.25	13.26	-52.1	-53.9	14.6	0.00e+00	0	26	0	224395264	70	4409
2026-01-13 10:08:34.32	167.28	13.36	-52.0	-53.8	14.6	0.00e+00	0	26	0	226492416	70	4366
2026-01-13 10:08:35.32	167.31	13.46	-52.2	-54.0	14.5	0.00e+00	0	25	0	228589568	70	4454
2026-01-13 10:08:36.31	167.34	13.56	-51.9	-53.7	14.7	0.00e+00	0	26	0	229638144	70	4299
2026-01-13 10:08:37.30	167.37	13.66	-52.1	-53.9	14.6	0.00e+00	0	25	0	231735296	70	4414
2026-01-13 10:08:38.29	167.41	13.75	-52.0	-53.8	14.6	0.00e+00	0	26	0	233832448	70	4390
2026-01-13 10:08:39.28	167.44	13.85	-51.9	-53.7	14.7	0.00e+00	0	26	0	235929600	70	4318
2026-01-13 10:08:40.27	167.47	13.95	-52.0	-53.7	14.7	0.00e+00	0	26	0	236978176	70	4324
2026-01-13 10:08:41.26	167.51	14.05	-52.0	-53.8	14.6	0.00e+00	0	26	0	239075328	70	4380
2026-01-13 10:08:42.26	167.54	14.16	-52.1	-53.9	14.6	0.00e+00	0	26	0	241172480	70	4396
2026-01-13 10:08:43.24	167.57	14.26	-52.1	-53.9	14.6	0.00e+00	0	26	0	243269632	70	4404
2026-01-13 10:08:44.24	167.61	14.36	-52.1	-53.9	14.5	0.00e+00	0	26	0	244318208	70	4438
2026-01-13 10:08:45.23	167.64	14.46	-52.1	-53.9	14.6	0.00e+00	0	26	0	246415360	70	4417
2026-01-13 10:08:46.23	167.68	14.56	-51.9	-53.7	14.7	0.00e+00	0	26	0	248512512	70	4320
2026-01-13 10:08:47.21	167.71	14.67	-52.0	-53.8	14.6	0.00e+00	0	26	0	250609664	70	4389
2026-01-13 10:08:48.21	167.75	14.77	-51.9	-53.7	14.7	0.00e+00	0	26	0	252706816	70	4321
2026-01-13 10:08:49.21	167.78	14.88	-52.0	-53.8	14.6	0.00e+00	0	25	0	253755392	70	4381
2026-01-13 10:08:50.19	167.82	14.98	-52.0	-53.8	14.7	0.00e+00	0	25	0	255852544	70	4362
2026-01-13 10:08:51.18	167.85	15.08	-52.0	-53.8	14.7	0.00e+00	0	26	0	257949696	70	4352
2026-01-13 10:08:52.17	167.89	15.19	-52.0	-53.8	14.6	0.00e+00	0	26	0	260046848	70	4384
2026-01-13 10:08:53.17	167.93	15.29	-52.1	-53.9	14.6	0.00e+00	0	26	0	261095424	70	4394
2026-01-13 10:08:54.15	167.96	15.40	-52.0	-53.8	14.6	0.00e+00	0	26	0	263192576	70	4374
2026-01-13 10:08:55.15	168.00	15.51	-52.1	-53.9	14.6	0.00e+00	0	26	0	265289728	70	4400
2026-01-13 10:08:56.15	168.04	15.62	-51.9	-53.7	14.7	0.00e+00	0	26	0	267386880	70	4313
2026-01-13 10:08:57.15	168.07	15.72	-52.1	-53.9	14.6	0.00e+00	0	26	0	269484032	70	4440
2026-01-13 10:08:58.14	168.11	15.83	-52.2	-54.0	14.6	0.00e+00	0	26	0	270532608	70	4456
2026-01-13 10:08:59.12	168.15	15.94	-52.1	-53.9	14.6	0.00e+00	0	26	0	272629760	70	4416
2026-01-13 10:09:00.12	168.18	16.05	-52.2	-54.0	14.5	0.00e+00	0	25	0	274726912	70	4474
2026-01-13 10:09:01.12	168.22	16.16	-52.3	-54.1	14.5	0.00e+00	0	26	0	276824064	70	4531
2026-01-13 10:09:02.11	168.26	16.27	-52.3	-54.2	14.5	0.00e+00	0	25	0	277872640	70	4555
2026-01-13 10:09:03.11	168.30	16.38	-52.4	-54.3	14.4	0.00e+00	0	26	0	279969792	70	4609
2026-01-13 10:09:04.10	168.34	16.49	-52.5	-54.5	14.3	0.00e+00	0	26	0	282066944	70	4709
2026-01-13 10:09:05.10	168.38	16.60	-52.4	-54.3	14.4	0.00e+00	0	26	0	284164096	70	4645
2026-01-13 10:09:06.10	168.42	16.72	-52.6	-54.5	14.3	0.00e+00	0	26	0	286261248	70	4722
2026-01-13 10:09:07.09	168.46	16.83	-52.7	-54.7	14.2	0.00e+00	0	26	0	287309824	70	4837
2026-01-13 10:09:08.08	168.50	16.94	-52.7	-54.7	14.2	0.00e+00	0	26	0	289406976	70	4831
2026-01-13 10:09:09.07	168.54	17.05	-52.8	-54.8	14.2	0.00e+00	0	26	0	291504128	70	4924
2026-01-13 10:09:10.06	168.58	17.17	-52.9	-54.9	14.3	0.00e+00	0	26	0	293601280	71	4687
2026-01-13 10:09:11.06	168.62	17.28	-52.9	-54.9	14.2	0.00e+00	0	26	0	294649856	71	4671
2026-01-13 10:09:12.05	168.66	17.40	-53.0	-55.0	14.2	0.00e+00	0	26	0	296747008	71	4724
2026-01-13 10:09:13.04	168.70	17.51	-52.9	-54.9	14.3	0.00e+00	0	26	0	298844160	71	4679
2026-01-13 10:09:14.04	168.74	17.63	-52.9	-54.9	14.2	0.00e+00	0	26	0	300941312	71	4693
2026-01-13 10:09:15.03	168.78	17.75	-53.0	-55.0	14.2	0.00e+00	0	26	0	303038464	71	4757
2026-01-13 10:09:16.03	168.83	17.87	-53.1	-55.1	14.1	0.00e+00	0	26	0	304087040	71	4798
2026-01-13 10:09:17.03	168.87	17.98	-52.9	-55.0	14.2	0.00e+00	0	26	0	306184192	71	4713
2026-01-13 10:09:18.02	168.91	18.10	-53.0	-55.1	14.2	0.00e+00	0	26	0	308281344	71	4783
2026-01-13 10:09:19.02	168.95	18.22	-53.1	-55.2	14.1	0.00e+00	0	26	0	310378496	71	4830
2026-01-13 10:09:20.02	169.00	18.34	-53.1	-55.2	14.2	0.00e+00	0	26	0	311427072	71	4815
2026-01-13 10:09:21.01	169.04	18.46	-53.2	-55.3	14.1	0.00e+00	0	26	0	313524224	71	4891
2026-01-13 10:09:22.01	169.09	18.58	-53.3	-55.4	14.0	0.00e+00	0	26	0	315621376	71	4950
2026-01-13 10:09:22.99	169.13	18.70	-53.3	-55.4	14.0	0.00e+00	0	26	0	317718528	71	4960
2026-01-13 10:09:23.99	169.17	18.83	-53.3	-55.5	14.0	0.00e+00	0	26	0	319815680	71	5016
2026-01-13 10:09:24.98	169.22	18.95	-53.4	-55.5	14.1	0.00e+00	0	26	0	320864256	72	4732
2026-01-13 10:09:25.97	169.26	19.07	-53.4	-55.6	14.0	0.00e+00	0	26	0	322961408	72	4790
2026-01-13 10:09:26.96	169.31	19.19	-53.5	-55.7	14.0	0.00e+00	0	26	0	325058560	72	4838
2026-01-13 10:09:27.95	169.36	19.32	-53.6	-55.9	13.9	0.00e+00	0	26	0	327155712	72	4947
2026-01-13 10:09:28.95	169.40	19.44	-53.5	-55.7	14.0	0.00e+00	0	26	0	328204288	72	4828
2026-01-13 10:09:29.95	169.45	19.57	-53.6	-55.8	14.0	0.00e+00	0	26	0	330301440	72	4885
2026-01-13 10:09:30.94	169.50	19.70	-53.6	-55.8	13.9	0.00e+00	0	26	0	332398592	72	4915
2026-01-13 10:09:31.93	169.54	19.82	-53.7	-56.0	13.9	0.00e+00	0	26	0	334495744	72	4999
2026-01-13 10:09:32.92	169.59	19.95	-53.5	-55.7	14.0	0.00e+00	0	26	0	336592896	72	4823
2026-01-13 10:09:33.92	169.64	20.08	-53.6	-55.8	13.9	0.00e+00	0	26	0	337641472	72	4909
2026-01-13 10:09:34.91	169.69	20.21	-53.4	-55.5	14.1	0.00e+00	0	26	0	339738624	72	4727
2026-01-13 10:09:35.90	169.74	20.34	-53.5	-55.7	14.0	0.00e+00	0	26	0	341835776	72	4823
2026-01-13 10:09:36.89	169.79	20.47	-53.2	-55.2	14.2	0.00e+00	0	26	0	343932928	72	4593
2026-01-13 10:09:37.87	169.83	20.59	-53.3	-55.4	14.2	0.00e+00	0	26	0	344981504	72	4657
2026-01-13 10:09:38.87	169.88	20.73	-53.2	-55.2	14.3	0.00e+00	0	26	0	347078656	72	4567
2026-01-13 10:09:39.86	169.94	20.86	-53.2	-55.3	14.2	0.00e+00	0	26	0	349175808	72	4628
2026-01-13 10:09:40.85	169.99	20.99	-53.2	-55.3	14.2	0.00e+00	0	26	0	351272960	72	4623
2026-01-13 10:09:41.84	170.04	21.12	-53.3	-55.4	14.2	0.00e+00	0	26	0	352321536	72	4685
2026-01-13 10:09:42.84	170.09	21.26	-53.4	-55.5	14.1	0.00e+00	0	26	0	354418688	72	4709
2026-01-13 10:09:43.83	170.14	21.39	-53.3	-55.3	14.2	0.00e+00	0	26	0	356515840	72	4649
2026-01-13 10:09:44.83	170.19	21.53	-53.4	-55.5	14.1	0.00e+00	0	26	0	358612992	72	4719
2026-01-13 10:09:45.82	170.25	21.66	-53.4	-55.5	14.1	0.00e+00	0	26	0	360710144	72	4708
2026-01-13 10:09:46.82	170.30	21.80	-53.3	-55.4	14.2	0.00e+00	0	26	0	361758720	72	4653
2026-01-13 10:09:47.81	170.35	21.94	-53.3	-55.4	14.1	0.00e+00	0	26	0	363855872	72	4680
2026-01-13 10:09:48.80	170.41	22.08	-53.4	-55.5	14.1	0.00e+00	0	26	0	365953024	72	4757
2026-01-13 10:09:49.80	170.46	22.22	-53.1	-55.2	14.3	0.00e+00	0	26	0	368050176	72	4555
2026-01-13 10:09:50.79	170.52	22.36	-53.2	-55.3	14.2	0.00e+00	0	26	0	369098752	72	4622
2026-01-13 10:09:51.78	170.57	22.50	-53.4	-55.5	14.1	0.00e+00	0	26	0	371195904	72	4732
2026-01-13 10:09:52.77	170.63	22.64	-53.3	-55.4	14.2	0.00e+00	0	26	0	373293056	72	4690
2026-01-13 10:09:53.77	170.69	22.78	-53.4	-55.5	14.1	0.00e+00	0	26	0	375390208	72	4727
2026-01-13 10:09:54.76	170.74	22.92	-53.4	-55.5	14.2	0.00e+00	0	26	0	377487360	72	4724
2026-01-13 10:09:55.76	170.80	23.07	-53.4	-55.5	14.1	0.00e+00	0	26	0	378535936	72	4742
2026-01-13 10:09:56.75	170.86	23.21	-53.7	-56.0	14.0	0.00e+00	0	26	0	380633088	72	4991
2026-01-13 10:09:57.73	170.92	23.35	-53.6	-55.9	13.9	0.00e+00	0	26	0	382730240	72	4961
2026-01-13 10:09:58.73	170.97	23.50	-53.4	-55.6	14.1	0.00e+00	0	26	0	384827392	72	4784
2026-01-13 10:09:59.73	171.03	23.65	-53.4	-55.6	14.1	0.00e+00	0	26	0	385875968	72	4761
2026-01-13 10:10:00.72	171.09	23.80	-53.4	-55.6	14.1	0.00e+00	0	26	0	387973120	72	4787
2026-01-13 10:10:01.72	171.16	23.95	-53.3	-55.4	14.2	0.00e+00	0	26	0	390070272	72	4668
2026-01-13 10:10:02.71	171.22	24.09	-53.3	-55.4	14.2	0.00e+00	0	26	0	392167424	72	4679
2026-01-13 10:10:03.71	171.28	24.24	-53.2	-55.3	14.2	0.00e+00	0	26	0	394264576	72	4601
2026-01-13 10:10:04.70	171.34	24.40	-53.1	-55.1	14.3	0.00e+00	0	26	0	395313152	72	4524
2026-01-13 10:10:05.69	171.40	24.55	-53.2	-55.2	14.3	0.00e+00	0	26	0	397410304	72	4573
2026-01-13 10:10:06.68	171.47	24.70	-53.0	-54.9	14.4	0.00e+00	0	26	0	399507456	72	4414
2026-01-13 10:10:07.67	171.53	24.85	-52.8	-54.8	14.5	0.00e+00	0	26	0	401604608	72	4343
2026-01-13 10:10:08.67	171.59	25.01	-52.8	-54.6	14.5	0.00e+00	0	26	0	402653184	72	4284
2026-01-13 10:10:09.66	171.66	25.16	-52.9	-54.9	14.5	0.00e+00	0	26	0	404750336	72	4398
2026-01-13 10:10:10.66	171.73	25.32	-53.1	-55.1	14.3	0.00e+00	0	26	0	406847488	72	4506
2026-01-13 10:10:11.65	171.79	25.47	-52.8	-54.6	14.5	0.00e+00	0	26	0	408944640	72	4289
2026-01-13 10:10:12.64	171.86	25.63	-52.9	-54.8	14.5	0.00e+00	0	26	0	411041792	72	4364
2026-01-13 10:10:13.63	171.93	25.79	-52.9	-54.9	14.5	0.00e+00	0	26	0	412090368	72	4397
2026-01-13 10:10:14.63	171.99	25.95	-52.8	-54.7	14.5	0.00e+00	0	26	0	414187520	72	4310
2026-01-13 10:10:15.62	172.06	26.11	-52.8	-54.7	14.5	0.00e+00	0	26	0	416284672	72	4292
2026-01-13 10:10:16.62	172.13	26.27	-52.7	-54.6	14.5	0.00e+00	0	26	0	418381824	71	4532
2026-01-13 10:10:17.61	172.20	26.43	-52.5	-54.3	14.6	0.00e+00	0	26	0	419430400	71	4385
2026-01-13 10:10:18.60	172.27	26.60	-52.9	-54.8	14.4	0.00e+00	0	26	0	421527552	71	4614
2026-01-13 10:10:19.60	172.35	26.76	-52.6	-54.5	14.4	0.00e+00	0	26	0	423624704	71	4462
2026-01-13 10:10:20.58	172.42	26.93	-52.6	-54.4	14.5	0.00e+00	0	26	0	425721856	71	4400
2026-01-13 10:10:21.57	172.49	27.09	-52.5	-54.4	14.5	0.00e+00	0	26	0	427819008	71	4393
2026-01-13 10:10:22.56	172.56	27.26	-52.5	-54.3	14.6	0.00e+00	0	26	0	428867584	71	4351
2026-01-13 10:10:23.55	172.64	27.43	-52.5	-54.3	14.6	0.00e+00	0	26	0	430964736	71	4363
2026-01-13 10:10:24.55	172.71	27.60	-52.5	-54.3	14.6	0.00e+00	0	26	0	433061888	71	4380
2026-01-13 10:10:25.54	172.79	27.77	-52.5	-54.3	14.6	0.00e+00	0	26	0	435159040	71	4376
2026-01-13 10:10:26.53	172.87	27.94	-52.6	-54.4	14.5	0.00e+00	0	26	0	436207616	71	4431
2026-01-13 10:10:27.53	172.94	28.11	-52.7	-54.6	14.4	0.00e+00	0	26	0	438304768	71	4514
2026-01-13 10:10:28.52	173.02	28.28	-52.7	-54.6	14.5	0.00e+00	0	26	0	440401920	71	4508
2026-01-13 10:10:29.51	173.10	28.46	-52.4	-54.2	14.6	0.00e+00	0	26	0	442499072	71	4324
2026-01-13 10:10:30.51	173.18	28.63	-52.6	-54.5	14.5	0.00e+00	0	26	0	444596224	71	4444
2026-01-13 10:10:31.51	173.26	28.81	-52.7	-54.5	14.5	0.00e+00	0	26	0	445644800	71	4476
2026-01-13 10:10:32.49	173.34	28.98	-52.8	-54.7	14.4	0.00e+00	0	26	0	447741952	71	4574
2026-01-13 10:10:33.49	173.43	29.16	-52.8	-54.7	14.4	0.00e+00	0	26	0	449839104	71	4563
2026-01-13 10:10:34.48	173.51	29.34	-52.8	-54.7	14.4	0.00e+00	0	26	0	451936256	71	4546
2026-01-13 10:10:35.47	173.59	29.52	-53.0	-55.0	14.3	0.00e+00	0	26	0	452984832	71	4749
2026-01-13 10:10:36.46	173.68	29.70	-53.0	-55.0	14.3	0.00e+00	0	26	0	455081984	71	4743
2026-01-13 10:10:37.46	173.76	29.89	-53.4	-55.5	14.1	0.00e+00	0	26	0	457179136	71	4995
2026-01-13 10:10:38.44	173.85	30.07	-53.0	-55.0	14.3	0.00e+00	0	26	0	459276288	71	4721
2026-01-13 10:10:39.44	173.94	30.25	-52.9	-54.9	14.4	0.00e+00	0	26	0	460324864	71	4659
2026-01-13 10:10:40.43	174.03	30.44	-53.1	-55.1	14.2	0.00e+00	0	26	0	462422016	71	4793
2026-01-13 10:10:41.43	174.12	30.63	-52.8	-54.7	14.4	0.00e+00	0	26	0	464519168	71	4597
2026-01-13 10:10:42.42	174.21	30.82	-53.2	-55.2	14.2	0.00e+00	0	26	0	466616320	71	4857
2026-01-13 10:10:43.41	174.30	31.01	-53.3	-55.2	14.2	0.00e+00	0	26	0	468713472	72	4598
2026-01-13 10:10:44.40	174.39	31.20	-53.4	-55.4	14.2	0.00e+00	0	26	0	469762048	72	4690
2026-01-13 10:10:45.39	174.49	31.39	-54.0	-56.3	13.9	0.00e+00	0	26	0	471859200	73	4881
2026-01-13 10:10:46.38	174.58	31.58	-53.9	-56.2	13.9	0.00e+00	0	26	0	473956352	73	4820
2026-01-13 10:10:47.38	174.68	31.77	-54.3	-56.7	13.7	0.00e+00	0	26	0	476053504	73	5115
2026-01-13 10:10:48.37	174.77	31.97	-54.1	-56.4	14.0	0.00e+00	0	26	0	477102080	74	4662
2026-01-13 10:10:49.37	174.87	32.17	-54.6	-57.2	13.5	0.00e+00	0	26	0	479199232	74	5128
2026-01-13 10:10:50.36	174.97	32.36	-54.6	-57.2	13.5	0.00e+00	0	26	0	481296384	74	5129
2026-01-13 10:10:51.35	175.07	32.56	-54.6	-57.2	13.6	0.00e+00	0	26	0	483393536	74	5110
2026-01-13 10:10:52.34	175.17	32.76	-54.7	-57.3	13.6	0.00e+00	0	26	0	485490688	75	4874
2026-01-13 10:10:53.34	175.28	32.97	-54.5	-56.9	13.8	0.00e+00	0	26	0	486539264	75	4700
2026-01-13 10:10:54.32	175.38	33.17	-54.6	-57.0	13.7	0.00e+00	0	26	0	488636416	75	4742
2026-01-13 10:10:55.32	175.49	33.37	-54.5	-56.9	13.8	0.00e+00	0	26	0	490733568	75	4670
2026-01-13 10:10:56.31	175.59	33.58	-54.1	-56.3	14.0	0.00e+00	0	26	0	492830720	74	4638
2026-01-13 10:10:57.30	175.70	33.78	-53.8	-56.0	14.2	0.00e+00	0	26	0	493879296	74	4452
2026-01-13 10:10:58.29	175.81	33.99	-53.6	-55.7	14.3	0.00e+00	0	26	0	495976448	73	4564
2026-01-13 10:10:59.28	175.92	34.20	-53.6	-55.6	14.2	0.00e+00	0	26	0	498073600	73	4529
2026-01-13 10:11:00.28	176.04	34.41	-53.4	-55.4	14.4	0.00e+00	0	26	0	500170752	73	4402
2026-01-13 10:11:01.27	176.15	34.62	-53.5	-55.5	14.3	0.00e+00	0	26	0	502267904	73	4474
2026-01-13 10:11:02.26	176.26	34.83	-53.5	-55.5	14.3	0.00e+00	0	26	0	503316480	73	4466
2026-01-13 10:11:03.25	176.38	35.05	-53.5	-55.6	14.3	0.00e+00	0	26	0	505413632	73	4514
2026-01-13 10:11:04.25	176.50	35.26	-54.0	-56.3	13.9	0.00e+00	0	26	0	507510784	73	4899
2026-01-13 10:11:05.24	176.62	35.48	-53.7	-55.8	14.1	0.00e+00	0	26	0	509607936	73	4642
2026-01-13 10:11:06.23	176.74	35.70	-53.9	-56.2	13.9	0.00e+00	0	26	0	510656512	73	4832
2026-01-13 10:11:07.23	176.86	35.92	-54.1	-56.5	13.8	0.00e+00	0	26	0	512753664	73	4993
2026-01-13 10:11:08.23	176.99	36.14	-54.2	-56.6	13.7	0.00e+00	0	26	0	514850816	73	5065
2026-01-13 10:11:09.22	177.11	36.36	-54.4	-56.8	13.6	0.00e+00	0	26	0	516947968	73	5191
2026-01-13 10:11:10.21	177.24	36.59	-54.4	-56.7	13.7	0.00e+00	0	26	0	519045120	74	4867
2026-01-13 10:11:11.20	177.37	36.81	-54.5	-56.9	13.6	0.00e+00	0	26	0	520093696	74	4975
2026-01-13 10:11:12.19	177.50	37.04	-54.5	-57.0	13.6	0.00e+00	0	26	0	522190848	74	5009
2026-01-13 10:11:13.18	177.63	37.27	-54.6	-57.0	13.6	0.00e+00	0	26	0	524288000	74	5037
2026-01-13 10:11:14.18	177.77	37.50	-54.5	-56.9	13.7	0.00e+00	0	26	0	526385152	74	4971
2026-01-13 10:11:15.17	177.90	37.73	-54.4	-56.8	13.8	0.00e+00	0	26	0	527433728	74	4911
2026-01-13 10:11:16.16	178.04	37.96	-54.6	-57.0	13.6	0.00e+00	0	26	0	529530880	74	5015
2026-01-13 10:11:17.16	178.18	38.20	-54.6	-57.0	13.6	0.00e+00	0	26	0	531628032	74	5027
2026-01-13 10:11:18.15	178.33	38.43	-54.5	-56.9	13.7	0.00e+00	0	26	0	533725184	74	4953
2026-01-13 10:11:19.15	178.47	38.67	-54.8	-57.4	13.6	0.00e+00	0	26	0	535822336	75	4940
2026-01-13 10:11:20.15	178.62	38.91	-55.3	-58.0	13.2	0.00e+00	0	26	0	536870912	75	5309
2026-01-13 10:11:21.14	178.77	39.15	-55.6	-58.5	13.0	0.00e+00	0	26	0	538968064	76	5308
2026-01-13 10:11:22.14	178.92	39.39	-55.5	-58.4	13.0	0.00e+00	0	26	0	541065216	76	5267
2026-01-13 10:11:23.13	179.07	39.63	-55.7	-58.7	13.0	0.00e+00	0	26	0	543162368	77	5155
2026-01-13 10:11:24.12	179.22	39.88	-55.7	-58.6	13.0	0.00e+00	0	26	0	544210944	77	5097
2026-01-13 10:11:25.11	179.38	40.12	-55.5	-58.4	13.2	0.00e+00	0	26	0	546308096	77	4943
2026-01-13 10:11:26.10	179.54	40.37	-55.5	-58.3	13.3	0.00e+00	0	26	0	548405248	77	4911
2026-01-13 10:11:27.09	179.70	40.61	-55.5	-58.3	13.2	0.00e+00	0	26	0	550502400	77	4912
2026-01-13 10:11:28.09	179.87	40.87	-55.4	-58.2	13.3	0.00e+00	0	26	0	551550976	77	4849
2026-01-13 10:11:29.09	180.04	41.12	-55.1	-57.6	13.5	0.00e+00	0	26	0	553648128	76	4810
2026-01-13 10:11:30.07	180.20	41.37	-55.0	-57.5	13.6	0.00e+00	0	26	0	555745280	76	4757
2026-01-13 10:11:31.07	180.38	41.63	-54.9	-57.4	13.7	0.00e+00	0	26	0	557842432	76	4684
2026-01-13 10:11:32.06	180.55	41.88	-55.1	-57.7	13.5	0.00e+00	0	26	0	559939584	76	4857
2026-01-13 10:11:33.06	180.73	42.14	-54.9	-57.4	13.6	0.00e+00	0	26	0	560988160	76	4673
2026-01-13 10:11:34.06	180.91	42.40	-54.5	-56.8	13.8	0.00e+00	0	26	0	563085312	75	4648
2026-01-13 10:11:35.06	181.10	42.66	-54.7	-57.2	13.7	0.00e+00	0	26	0	565182464	75	4839
2026-01-13 10:11:36.05	181.28	42.93	-54.6	-57.1	13.8	0.00e+00	0	26	0	567279616	75	4761
2026-01-13 10:11:37.05	181.47	43.19	-54.7	-57.2	13.6	0.00e+00	0	26	0	568328192	75	4823
2026-01-13 10:11:38.05	181.67	43.46	-55.1	-57.8	13.3	0.00e+00	0	26	0	570425344	75	5207
2026-01-13 10:11:39.04	181.86	43.72	-55.2	-58.0	13.2	0.00e+00	0	26	0	572522496	75	5326
2026-01-13 10:11:40.02	182.06	43.99	-55.2	-58.0	13.2	0.00e+00	0	26	0	574619648	75	5294
2026-01-13 10:11:41.02	182.26	44.26	-55.0	-57.7	13.3	0.00e+00	0	26	0	576716800	75	5140
2026-01-13 10:11:42.01	182.47	44.53	-54.4	-56.7	13.9	0.00e+00	0	26	0	577765376	75	4588
2026-01-13 10:11:43.00	182.68	44.80	-54.3	-56.6	14.0	0.00e+00	0	26	0	579862528	75	4508
2026-01-13 10:11:43.99	182.89	45.07	-54.6	-57.1	13.5	0.00e+00	0	26	0	581959680	74	5071
2026-01-13 10:11:44.98	183.10	45.35	-54.1	-56.3	14.0	0.00e+00	0	26	0	584056832	74	4644
2026-01-13 10:11:45.97	183.32	45.63	-54.1	-56.3	14.0	0.00e+00	0	26	0	585105408	74	4622
2026-01-13 10:11:46.96	183.54	45.90	-54.0	-56.2	14.1	0.00e+00	0	26	0	587202560	74	4563
2026-01-13 10:11:47.96	183.77	46.19	-53.9	-56.0	14.2	0.00e+00	0	26	0	589299712	74	4486
2026-01-13 10:11:48.95	184.00	46.47	-54.1	-56.3	14.2	0.00e+00	0	26	0	591396864	74	4630
2026-01-13 10:11:49.95	184.24	46.75	-53.9	-56.0	14.0	0.00e+00	0	26	0	593494016	73	4740
2026-01-13 10:11:50.94	184.48	47.03	-53.4	-55.3	14.4	0.00e+00	0	26	0	594542592	73	4389
2026-01-13 10:11:51.93	184.72	47.32	-53.8	-55.9	14.1	0.00e+00	0	26	0	596639744	73	4663
2026-01-13 10:11:52.92	184.97	47.60	-54.2	-56.4	13.8	0.00e+00	0	26	0	598736896	73	4982
2026-01-13 10:11:53.92	185.23	47.89	-54.0	-56.2	14.0	0.00e+00	0	26	0	600834048	73	4863
2026-01-13 10:11:54.92	185.49	48.19	-54.2	-56.5	13.8	0.00e+00	0	26	0	601882624	73	5032
2026-01-13 10:11:55.92	185.75	48.48	-54.6	-57.0	13.7	0.00e+00	0	26	0	603979776	74	5034
2026-01-13 10:11:56.92	186.02	48.77	-54.8	-57.3	13.5	0.00e+00	0	26	0	606076928	74	5192
2026-01-13 10:11:57.90	186.29	49.06	-54.9	-57.5	13.5	0.00e+00	0	26	0	608174080	75	4985
2026-01-13 10:11:58.90	186.57	49.36	-54.6	-57.0	13.8	0.00e+00	0	26	0	610271232	75	4734
2026-01-13 10:11:59.89	186.85	49.65	-53.8	-55.9	14.2	0.00e+00	0	26	0	611319808	74	4422
2026-01-13 10:12:00.89	187.14	49.95	-53.6	-55.7	14.3	0.00e+00	0	26	0	613416960	73	4557
2026-01-13 10:12:01.89	187.44	50.25	-53.3	-55.3	14.4	0.00e+00	0	26	0	615514112	73	4370
2026-01-13 10:12:02.88	187.74	50.55	-53.4	-55.4	14.2	0.00e+00	0	26	0	617611264	72	4700
2026-01-13 10:12:03.88	188.05	50.86	-52.9	-54.8	14.5	0.00e+00	0	26	0	618659840	72	4366
2026-01-13 10:12:04.87	188.36	51.16	-52.9	-54.8	14.5	0.00e+00	0	26	0	620756992	72	4355
2026-01-13 10:12:05.87	188.68	51.46	-52.5	-54.3	14.6	0.00e+00	0	26	0	622854144	71	4349
2026-01-13 10:12:06.86	189.00	51.76	-52.8	-54.7	14.4	0.00e+00	0	26	0	624951296	71	4547
2026-01-13 10:12:07.85	189.33	52.07	-52.7	-54.5	14.6	0.00e+00	0	26	0	627048448	71	4446
2026-01-13 10:12:08.84	189.67	52.37	-52.8	-54.7	14.4	0.00e+00	0	26	0	628097024	71	4565
2026-01-13 10:12:09.84	190.02	52.68	-52.7	-54.6	14.5	0.00e+00	0	26	0	630194176	71	4508
2026-01-13 10:12:10.83	190.37	52.99	-52.6	-54.4	14.6	0.00e+00	0	26	0	632291328	71	4441
2026-01-13 10:12:11.83	190.73	53.30	-52.4	-54.2	14.7	0.00e+00	0	26	0	634388480	71	4318
2026-01-13 10:12:12.82	191.10	53.61	-52.3	-54.1	14.7	0.00e+00	0	26	0	635437056	71	4255
2026-01-13 10:12:13.81	191.47	53.92	-51.7	-53.4	14.9	0.00e+00	0	26	0	637534208	70	4148
2026-01-13 10:12:14.81	191.86	54.23	-51.7	-53.4	14.8	0.00e+00	0	26	0	639631360	69	4405
2026-01-13 10:12:15.80	192.25	54.54	-51.5	-53.1	14.8	0.00e+00	0	26	0	641728512	69	4277
2026-01-13 10:12:16.80	192.65	54.85	-51.1	-52.7	15.0	0.00e+00	0	26	0	643825664	68	4296
2026-01-13 10:12:17.79	193.06	55.16	-51.2	-52.7	14.9	0.00e+00	0	26	0	644874240	68	4316
2026-01-13 10:12:18.78	193.48	55.47	-50.5	-52.0	15.0	0.00e+00	0	26	0	646971392	67	4212
2026-01-13 10:12:19.78	193.91	55.79	-50.2	-51.6	15.0	0.00e+00	0	26	0	649068544	66	4287
2026-01-13 10:12:20.77	194.34	56.10	-50.1	-51.5	15.1	0.00e+00	0	26	0	651165696	66	4196
2026-01-13 10:12:21.76	194.79	56.41	-50.0	-51.4	15.1	0.00e+00	0	26	0	652214272	66	4168
2026-01-13 10:12:22.76	195.25	56.73	-50.1	-51.6	15.0	0.00e+00	0	26	0	654311424	66	4244
2026-01-13 10:12:23.76	195.72	57.04	-50.2	-51.6	15.0	0.00e+00	0	26	0	656408576	66	4262
2026-01-13 10:12:24.75	196.20	57.36	-50.1	-51.4	15.1	0.00e+00	0	26	0	658505728	66	4183
2026-01-13 10:12:25.75	196.69	57.67	-50.1	-51.5	15.1	0.00e+00	0	26	0	660602880	66	4197
2026-01-13 10:12:26.74	197.19	57.98	-49.9	-51.3	15.1	0.00e+00	0	26	0	661651456	66	4109
2026-01-13 10:12:27.73	197.70	58.29	-50.4	-51.8	14.9	0.00e+00	0	26	0	663748608	66	4358
2026-01-13 10:12:28.73	198.23	58.61	-50.6	-52.0	14.9	0.00e+00	0	26	0	665845760	66	4467
2026-01-13 10:12:29.72	198.76	58.92	-50.3	-51.7	14.9	0.00e+00	0	26	0	667942912	66	4327
2026-01-13 10:12:30.72	199.32	59.23	-50.5	-51.9	14.9	0.00e+00	0	26	0	668991488	66	4421
2026-01-13 10:12:31.72	199.88	59.54	-50.8	-52.3	14.8	0.00e+00	0	26	0	671088640	66	4599
2026-01-13 10:12:32.71	200.46	59.85	-51.4	-53.0	14.6	0.00e+00	0	26	0	673185792	67	4726
2026-01-13 10:12:33.70	201.04	60.16	-52.2	-53.9	14.6	0.00e+00	0	26	0	675282944	70	4404
2026-01-13 10:12:34.70	201.65	60.46	-52.2	-53.9	14.6	0.00e+00	0	26	0	677380096	70	4437
2026-01-13 10:12:35.70	202.27	60.77	-52.5	-54.3	14.5	0.00e+00	0	26	0	678428672	70	4624
2026-01-13 10:12:36.69	202.91	61.07	-52.4	-54.2	14.5	0.00e+00	0	26	0	680525824	70	4580
2026-01-13 10:12:37.68	203.55	61.37	-52.7	-54.5	14.4	0.00e+00	0	26	0	682622976	70	4750
2026-01-13 10:12:38.68	204.22	61.68	-52.6	-54.3	14.5	0.00e+00	0	26	0	684720128	70	4637
2026-01-13 10:12:39.67	204.90	61.97	-52.4	-54.2	14.5	0.00e+00	0	26	0	685768704	70	4583
2026-01-13 10:12:40.66	205.59	62.27	-51.7	-53.4	14.9	0.00e+00	0	26	0	687865856	70	4146
2026-01-13 10:12:41.65	206.31	62.56	-50.7	-52.1	15.1	0.00e+00	0	26	0	689963008	68	4034
2026-01-13 10:12:42.64	207.04	62.85	-50.5	-51.9	15.0	0.00e+00	0	26	0	692060160	67	4159
2026-01-13 10:12:43.63	207.78	63.13	-50.9	-52.3	14.9	0.00e+00	0	26	0	694157312	67	4376
2026-01-13 10:12:44.62	208.55	63.42	-51.7	-53.3	14.7	0.00e+00	0	26	0	695205888	68	4601
2026-01-13 10:12:45.62	209.34	63.70	-51.7	-53.3	14.7	0.00e+00	0	26	0	697303040	68	4631
2026-01-13 10:12:46.61	210.14	63.98	-51.1	-52.6	14.9	0.00e+00	0	26	0	699400192	68	4264
2026-01-13 10:12:47.60	210.96	64.25	-50.8	-52.2	15.1	0.00e+00	0	26	0	701497344	68	4081
2026-01-13 10:12:48.60	211.81	64.53	-50.7	-52.2	14.9	0.00e+00	0	26	0	702545920	67	4317
2026-01-13 10:12:49.59	212.67	64.79	-51.1	-52.6	14.8	0.00e+00	0	26	0	704643072	67	4529
2026-01-13 10:12:50.58	213.55	65.05	-50.8	-52.3	14.9	0.00e+00	0	26	0	706740224	67	4358
2026-01-13 10:12:51.58	214.46	65.31	-50.6	-52.0	15.0	0.00e+00	0	26	0	708837376	67	4223
2026-01-13 10:12:52.56	215.37	65.56	-51.0	-52.5	14.7	0.00e+00	0	26	0	710934528	67	4459
2026-01-13 10:12:53.56	216.33	65.81	-51.1	-52.6	14.8	0.00e+00	0	26	0	711983104	67	4536
2026-01-13 10:12:54.56	217.30	66.06	-51.3	-52.9	14.7	0.00e+00	0	26	0	714080256	67	4669
2026-01-13 10:12:55.55	218.29	66.29	-51.8	-53.5	14.6	0.00e+00	0	26	0	716177408	68	4728
2026-01-13 10:12:56.54	219.30	66.52	-52.0	-53.7	14.6	0.00e+00	0	26	0	718274560	69	4546
2026-01-13 10:12:57.54	220.34	66.75	-52.4	-54.1	14.5	0.00e+00	0	26	0	719323136	69	4780
2026-01-13 10:12:58.53	221.39	66.97	-52.9	-54.7	14.3	0.00e+00	0	26	0	721420288	70	4865
2026-01-13 10:12:59.52	222.46	67.18	-53.5	-55.5	14.2	0.00e+00	0	26	0	723517440	72	4748
2026-01-13 10:13:00.52	223.56	67.39	-52.6	-54.3	14.7	0.00e+00	0	26	0	725614592	71	4386
2026-01-13 10:13:01.51	224.68	67.59	-52.4	-54.1	14.8	0.00e+00	0	26	0	727711744	71	4261
2026-01-13 10:13:02.50	225.82	67.78	-53.0	-54.9	14.4	0.00e+00	0	26	0	728760320	71	4657
2026-01-13 10:13:03.50	226.99	67.96	-54.2	-56.4	13.9	0.00e+00	0	26	0	730857472	73	4980
2026-01-13 10:13:04.50	228.18	68.14	-54.5	-56.8	13.8	0.00e+00	0	26	0	732954624	74	4906
2026-01-13 10:13:05.50	229.39	68.30	-54.5	-56.9	13.8	0.00e+00	0	26	0	735051776	74	4952
2026-01-13 10:13:06.51	230.63	68.46	-53.8	-55.8	14.3	0.00e+00	0	26	0	736100352	74	4388
2026-01-13 10:13:07.50	231.87	68.61	-53.6	-55.6	14.3	0.00e+00	0	26	0	738197504	73	4540
2026-01-13 10:13:08.49	233.12	68.75	-54.3	-56.6	13.8	0.00e+00	0	26	0	740294656	73	5060
2026-01-13 10:13:09.47	234.38	68.88	-54.6	-57.1	13.9	0.00e+00	0	26	0	742391808	75	4760
2026-01-13 10:13:10.46	235.67	69.00	-54.2	-56.4	14.2	0.00e+00	0	26	0	744488960	75	4403
2026-01-13 10:13:11.46	236.99	69.11	-54.6	-57.1	13.7	0.00e+00	0	26	0	745537536	74	5051
2026-01-13 10:13:12.45	238.30	69.21	-55.7	-58.5	13.1	0.00e+00	0	26	0	747634688	76	5336
2026-01-13 10:13:13.45	239.65	69.30	-55.9	-58.8	13.0	0.00e+00	0	26	0	749731840	77	5197
2026-01-13 10:13:14.45	241.01	69.38	-54.8	-57.2	13.7	0.00e+00	0	26	0	751828992	76	4595
2026-01-13 10:13:15.45	242.37	69.45	-54.0	-56.1	14.2	0.00e+00	0	26	0	752877568	74	4523
2026-01-13 10:13:16.44	243.74	69.51	-52.8	-54.6	14.6	0.00e+00	0	26	0	754974720	72	4260
2026-01-13 10:13:17.44	245.12	69.56	-52.4	-54.0	14.8	0.00e+00	0	26	0	757071872	71	4237
2026-01-13 10:13:18.44	246.51	69.60	-52.9	-54.7	14.5	0.00e+00	0	26	0	759169024	71	4586
2026-01-13 10:13:19.43	247.89	69.63	-53.0	-54.9	14.5	0.00e+00	0	26	0	761266176	72	4394
2026-01-13 10:13:20.42	249.27	69.64	-52.6	-54.4	14.6	0.00e+00	0	26	0	762314752	71	4395
2026-01-13 10:13:21.42	250.67	69.64	-52.3	-54.0	14.8	0.00e+00	0	26	0	764411904	71	4217
2026-01-13 10:13:22.41	252.06	69.64	-52.5	-54.3	14.5	0.00e+00	0	26	0	766509056	70	4607
2026-01-13 10:13:23.41	253.46	69.62	-53.8	-55.8	14.2	0.00e+00	0	26	0	768606208	73	4647
2026-01-13 10:13:24.41	254.85	69.59	-53.2	-55.1	14.5	0.00e+00	0	26	0	769654784	73	4259
2026-01-13 10:13:25.41	256.24	69.55	-52.3	-53.9	14.9	0.00e+00	0	26	0	771751936	71	4177
2026-01-13 10:13:26.41	257.62	69.50	-52.8	-54.6	14.5	0.00e+00	0	26	0	773849088	70	4787
2026-01-13 10:13:27.40	258.98	69.44	-54.3	-56.5	13.9	0.00e+00	0	26	0	775946240	73	5017
2026-01-13 10:13:28.40	260.34	69.36	-54.0	-56.1	14.1	0.00e+00	0	26	0	778043392	73	4812
2026-01-13 10:13:29.40	261.70	69.28	-53.2	-55.0	14.5	0.00e+00	0	26	0	779091968	72	4490
2026-01-13 10:13:30.39	263.02	69.18	-53.7	-55.7	14.1	0.00e+00	0	26	0	781189120	72	4835
2026-01-13 10:13:31.38	264.34	69.08	-54.1	-56.2	14.0	0.00e+00	0	26	0	783286272	73	4845
2026-01-13 10:13:32.38	265.65	68.97	-54.0	-56.0	14.1	0.00e+00	0	26	0	785383424	73	4734
2026-01-13 10:13:33.38	266.94	68.84	-54.2	-56.3	14.1	0.00e+00	0	26	0	786432000	74	4614
2026-01-13 10:13:34.38	268.22	68.71	-54.9	-57.4	13.6	0.00e+00	0	26	0	788529152	75	4974
2026-01-13 10:13:35.37	269.47	68.57	-55.3	-58.0	13.4	0.00e+00	0	26	0	790626304	76	5015
2026-01-13 10:13:36.37	270.71	68.41	-55.4	-58.1	13.4	0.00e+00	0	26	0	792723456	76	5077
2026-01-13 10:13:37.36	271.93	68.25	-55.0	-57.5	13.7	0.00e+00	0	26	0	794820608	76	4728
2026-01-13 10:13:38.36	273.13	68.08	-54.0	-56.1	14.2	0.00e+00	0	26	0	795869184	74	4520
2026-01-13 10:13:39.35	274.30	67.91	-52.7	-54.4	14.7	0.00e+00	0	26	0	797966336	72	4168
2026-01-13 10:13:40.34	275.45	67.72	-53.4	-55.3	14.3	0.00e+00	0	26	0	800063488	72	4647
2026-01-13 10:13:41.34	276.59	67.53	-54.1	-56.2	14.0	0.00e+00	0	26	0	802160640	73	4845
2026-01-13 10:13:42.35	277.72	67.33	-53.0	-54.8	14.5	0.00e+00	0	26	0	803209216	72	4381
2026-01-13 10:13:43.35	278.82	67.12	-51.9	-53.5	14.8	0.00e+00	0	26	0	805306368	70	4225
2026-01-13 10:13:44.35	279.90	66.90	-52.0	-53.7	14.7	0.00e+00	0	26	0	807403520	69	4552
2026-01-13 10:13:45.34	280.94	66.68	-52.7	-54.6	14.4	0.00e+00	0	26	0	809500672	70	4762
2026-01-13 10:13:46.33	281.96	66.45	-52.5	-54.3	14.5	0.00e+00	0	26	0	811597824	70	4599
2026-01-13 10:13:47.33	282.97	66.22	-51.5	-53.0	14.9	0.00e+00	0	26	0	812646400	69	4242
2026-01-13 10:13:48.33	283.96	65.98	-50.3	-51.7	15.1	0.00e+00	0	26	0	814743552	67	4065
2026-01-13 10:13:49.32	284.91	65.74	-49.7	-51.0	15.2	0.00e+00	0	26	0	816840704	66	3974
2026-01-13 10:13:50.31	285.85	65.49	-50.1	-51.4	15.1	0.00e+00	0	26	0	818937856	66	4190
2026-01-13 10:13:51.31	286.77	65.23	-50.2	-51.5	15.0	0.00e+00	0	26	0	821035008	66	4229
2026-01-13 10:13:52.29	287.66	64.98	-49.8	-51.1	15.2	0.00e+00	0	26	0	822083584	66	4013
2026-01-13 10:13:53.29	288.54	64.71	-49.9	-51.3	15.1	0.00e+00	0	26	0	824180736	66	4109
2026-01-13 10:13:54.28	289.39	64.44	-50.2	-51.5	15.0	0.00e+00	0	26	0	826277888	66	4236
2026-01-13 10:13:55.27	290.23	64.17	-50.0	-51.3	15.1	0.00e+00	0	26	0	828375040	66	4134
2026-01-13 10:13:56.25	291.03	63.90	-50.5	-51.9	14.9	0.00e+00	0	26	0	829423616	66	4417
2026-01-13 10:13:57.24	291.83	63.62	-50.4	-51.8	14.9	0.00e+00	0	26	0	831520768	66	4381
2026-01-13 10:13:58.24	292.61	63.34	-50.2	-51.6	15.0	0.00e+00	0	26	0	833617920	66	4243
2026-01-13 10:13:59.23	293.37	63.06	-50.7	-52.1	14.9	0.00e+00	0	26	0	835715072	66	4530
2026-01-13 10:14:00.23	294.12	62.77	-51.7	-53.3	14.7	0.00e+00	0	26	0	836763648	68	4603
2026-01-13 10:14:01.21	294.84	62.48	-51.5	-53.0	14.8	0.00e+00	0	26	0	838860800	68	4483
2026-01-13 10:14:02.21	295.55	62.18	-51.2	-52.7	14.9	0.00e+00	0	26	0	840957952	68	4310
2026-01-13 10:14:03.20	296.24	61.89	-51.3	-52.8	14.9	0.00e+00	0	26	0	843055104	68	4362
2026-01-13 10:14:04.20	296.92	61.59	-51.8	-53.4	14.7	0.00e+00	0	26	0	845152256	68	4661
2026-01-13 10:14:05.19	297.57	61.29	-52.1	-53.7	14.6	0.00e+00	0	26	0	846200832	69	4587
2026-01-13 10:14:06.19	298.22	60.99	-52.1	-53.8	14.6	0.00e+00	0	26	0	848297984	69	4622
2026-01-13 10:14:07.19	298.85	60.68	-51.8	-53.4	14.8	0.00e+00	0	26	0	850395136	69	4393
2026-01-13 10:14:08.17	299.46	60.38	-51.7	-53.3	14.8	0.00e+00	0	26	0	852492288	69	4371
2026-01-13 10:14:09.17	300.06	60.07	-52.1	-53.7	14.6	0.00e+00	0	26	0	853540864	69	4557
2026-01-13 10:14:10.16	300.64	59.77	-52.3	-54.0	14.6	0.00e+00	0	26	0	855638016	70	4455
2026-01-13 10:14:11.15	301.21	59.46	-51.6	-53.2	14.8	0.00e+00	0	26	0	857735168	69	4334
2026-01-13 10:14:12.14	301.77	59.15	-51.1	-52.6	15.1	0.00e+00	0	26	0	859832320	68	4274
2026-01-13 10:14:13.13	302.31	58.84	-51.1	-52.6	14.9	0.00e+00	0	26	0	861929472	68	4280
2026-01-13 10:14:14.12	302.84	58.54	-51.0	-52.5	15.0	0.00e+00	0	26	0	862978048	68	4198
2026-01-13 10:14:15.12	303.37	58.22	-50.2	-51.5	15.2	0.00e+00	0	26	0	865075200	67	3992
2026-01-13 10:14:16.11	303.87	57.91	-49.4	-50.6	15.2	0.00e+00	0	26	0	867172352	65	4034
2026-01-13 10:14:17.10	304.37	57.60	-49.6	-51.0	15.1	0.00e+00	0	26	0	869269504	65	4199
2026-01-13 10:14:18.09	304.85	57.29	-49.9	-51.3	15.0	0.00e+00	0	26	0	870318080	65	4358
2026-01-13 10:14:19.09	305.33	56.98	-50.1	-51.5	15.0	0.00e+00	0	26	0	872415232	65	4462
2026-01-13 10:14:20.08	305.79	56.66	-50.4	-51.9	14.9	0.00e+00	0	26	0	874512384	66	4393
2026-01-13 10:14:21.08	306.25	56.35	-50.6	-52.0	14.9	0.00e+00	0	26	0	876609536	66	4471
2026-01-13 10:14:22.07	306.69	56.04	-49.8	-51.1	15.2	0.00e+00	0	26	0	878706688	66	4030
2026-01-13 10:14:23.07	307.13	55.72	-48.8	-50.0	15.3	0.00e+00	0	26	0	879755264	64	3979
2026-01-13 10:14:24.06	307.55	55.41	-49.0	-50.3	15.1	0.00e+00	0	26	0	881852416	63	4353
2026-01-13 10:14:25.05	307.97	55.10	-50.2	-51.6	14.9	0.00e+00	0	26	0	883949568	65	4530
2026-01-13 10:14:26.04	308.37	54.79	-50.5	-51.9	14.9	0.00e+00	0	26	0	886046720	66	4429
2026-01-13 10:14:27.04	308.77	54.48	-49.7	-51.1	15.2	0.00e+00	0	26	0	887095296	66	4020
2026-01-13 10:14:28.03	309.16	54.17	-49.2	-50.5	15.3	0.00e+00	0	26	0	889192448	65	3978
2026-01-13 10:14:29.03	309.54	53.86	-49.6	-51.0	15.0	0.00e+00	0	26	0	891289600	64	4465
2026-01-13 10:14:30.02	309.92	53.55	-50.1	-51.5	14.9	0.00e+00	0	26	0	893386752	65	4482
2026-01-13 10:14:31.02	310.28	53.24	-50.0	-51.3	15.0	0.00e+00	0	26	0	895483904	65	4376
2026-01-13 10:14:32.02	310.64	52.93	-49.9	-51.3	15.0	0.00e+00	0	26	0	896532480	65	4344
2026-01-13 10:14:33.01	310.99	52.63	-50.4	-51.8	14.9	0.00e+00	0	26	0	898629632	65	4639
2026-01-13 10:14:34.01	311.34	52.32	-51.4	-52.9	14.7	0.00e+00	0	26	0	900726784	67	4683
2026-01-13 10:14:35.00	311.67	52.02	-51.5	-53.0	14.8	0.00e+00	0	26	0	902823936	68	4491
2026-01-13 10:14:35.99	312.00	51.71	-51.1	-52.5	15.0	0.00e+00	0	26	0	903872512	68	4216
2026-01-13 10:14:36.99	312.33	51.41	-51.3	-52.7	14.9	0.00e+00	0	26	0	905969664	68	4333
2026-01-13 10:14:37.99	312.64	51.10	-52.8	-54.6	14.5	0.00e+00	0	26	0	908066816	70	4800
2026-01-13 10:14:38.98	312.95	50.81	-54.6	-57.0	13.8	0.00e+00	0	26	0	910163968	74	5008
2026-01-13 10:14:39.97	313.26	50.51	-54.8	-57.4	13.6	0.00e+00	0	26	0	912261120	75	4974
2026-01-13 10:14:40.96	313.55	50.21	-53.9	-56.1	14.2	0.00e+00	0	26	0	913309696	74	4520
2026-01-13 10:14:41.96	313.85	49.91	-53.2	-55.0	14.6	0.00e+00	0	26	0	915406848	73	4235
2026-01-13 10:14:42.95	314.14	49.62	-53.2	-55.0	14.5	0.00e+00	0	26	0	917504000	72	4486
2026-01-13 10:14:43.95	314.42	49.32	-54.2	-56.5	13.9	0.00e+00	0	26	0	919601152	73	4999
2026-01-13 10:14:44.95	314.70	49.02	-55.1	-57.7	13.4	0.00e+00	0	26	0	920649728	75	5136
2026-01-13 10:14:45.95	314.97	48.73	-54.7	-57.2	13.8	0.00e+00	0	26	0	922746880	75	4832
2026-01-13 10:14:46.93	315.23	48.44	-53.7	-55.8	14.4	0.00e+00	0	26	0	924844032	74	4348
2026-01-13 10:14:47.93	315.50	48.15	-53.5	-55.5	14.4	0.00e+00	0	26	0	926941184	73	4451
2026-01-13 10:14:48.92	315.75	47.86	-54.1	-56.3	13.9	0.00e+00	0	26	0	929038336	73	4924
2026-01-13 10:14:49.91	316.00	47.58	-53.7	-55.7	14.2	0.00e+00	0	26	0	930086912	73	4596
2026-01-13 10:14:50.91	316.25	47.29	-52.5	-54.2	14.7	0.00e+00	0	26	0	932184064	71	4305
2026-01-13 10:14:51.90	316.49	47.01	-51.4	-52.8	15.0	0.00e+00	0	26	0	934281216	69	4145
2026-01-13 10:14:52.89	316.73	46.72	-51.1	-52.6	15.0	0.00e+00	0	26	0	936378368	68	4251
2026-01-13 10:14:53.87	316.96	46.45	-51.4	-52.9	14.8	0.00e+00	0	26	0	937426944	68	4417
2026-01-13 10:14:54.86	317.19	46.17	-52.8	-54.5	14.4	0.00e+00	0	26	0	939524096	70	4752
2026-01-13 10:14:55.86	317.42	45.89	-53.4	-55.3	14.3	0.00e+00	0	26	0	941621248	71	4901
2026-01-13 10:14:56.85	317.64	45.61	-53.4	-55.3	14.3	0.00e+00	0	26	0	943718400	72	4646
2026-01-13 10:14:57.84	317.86	45.33	-53.3	-55.1	14.4	0.00e+00	0	26	0	944766976	72	4538
2026-01-13 10:14:58.83	318.08	45.06	-52.6	-54.4	14.6	0.00e+00	0	26	0	946864128	71	4414
2026-01-13 10:14:59.83	318.29	44.79	-52.3	-53.9	14.7	0.00e+00	0	26	0	948961280	70	4422
2026-01-13 10:15:00.82	318.50	44.52	-52.1	-53.7	14.7	0.00e+00	0	26	0	951058432	70	4328
2026-01-13 10:15:01.81	318.70	44.25	-51.9	-53.5	14.9	0.00e+00	0	26	0	953155584	70	4195
2026-01-13 10:15:02.80	318.90	43.98	-51.9	-53.4	14.9	0.00e+00	0	26	0	954204160	70	4179
2026-01-13 10:15:03.79	319.10	43.71	-52.3	-54.0	14.7	0.00e+00	0	26	0	956301312	70	4453
2026-01-13 10:15:04.79	319.29	43.45	-53.7	-55.8	14.1	0.00e+00	0	26	0	958398464	72	4907
2026-01-13 10:15:05.79	319.49	43.18	-54.6	-57.0	13.7	0.00e+00	0	26	0	960495616	74	5037
2026-01-13 10:15:06.78	319.68	42.92	-54.6	-57.0	13.9	0.00e+00	0	26	0	961544192	75	4745
2026-01-13 10:15:07.77	319.86	42.66	-53.5	-55.4	14.4	0.00e+00	0	26	0	963641344	73	4434
2026-01-13 10:15:08.76	320.04	42.40	-52.4	-54.0	14.8	0.00e+00	0	26	0	965738496	71	4224
2026-01-13 10:15:09.76	320.22	42.14	-51.4	-52.8	15.0	0.00e+00	0	26	0	967835648	69	4133
2026-01-13 10:15:10.75	320.40	41.89	-51.1	-52.5	15.0	0.00e+00	0	26	0	969932800	68	4219
2026-01-13 10:15:11.73	320.57	41.63	-51.2	-52.6	14.9	0.00e+00	0	26	0	970981376	68	4284
2026-01-13 10:15:12.72	320.74	41.38	-51.7	-53.3	14.7	0.00e+00	0	26	0	973078528	68	4628
2026-01-13 10:15:13.72	320.91	41.13	-53.5	-55.6	14.2	0.00e+00	0	26	0	975175680	72	4781
2026-01-13 10:15:14.70	321.08	40.88	-54.0	-56.3	13.9	0.00e+00	0	26	0	977272832	73	4885
2026-01-13 10:15:15.69	321.24	40.63	-54.0	-56.3	13.9	0.00e+00	0	26	0	978321408	73	4895
2026-01-13 10:15:16.68	321.40	40.39	-54.2	-56.5	14.0	0.00e+00	0	26	0	980418560	74	4759
2026-01-13 10:15:17.67	321.56	40.14	-53.7	-55.8	14.4	0.00e+00	0	26	0	982515712	74	4365
2026-01-13 10:15:18.67	321.72	39.89	-52.8	-54.6	14.6	0.00e+00	0	26	0	984612864	72	4260
2026-01-13 10:15:19.66	321.87	39.65	-52.2	-53.8	14.8	0.00e+00	0	26	0	986710016	70	4389
2026-01-13 10:15:20.65	322.03	39.41	-51.8	-53.3	14.9	0.00e+00	0	26	0	987758592	70	4134
2026-01-13 10:15:21.64	322.18	39.17	-50.9	-52.4	15.0	0.00e+00	0	26	0	989855744	68	4148
2026-01-13 10:15:22.63	322.32	38.93	-51.1	-52.6	14.9	0.00e+00	0	26	0	991952896	68	4256
2026-01-13 10:15:23.63	322.47	38.69	-51.7	-53.3	14.7	0.00e+00	0	26	0	994050048	68	4637
2026-01-13 10:15:24.62	322.61	38.46	-52.6	-54.3	14.5	0.00e+00	0	26	0	995098624	70	4640
2026-01-13 10:15:25.62	322.76	38.22	-53.9	-56.0	14.0	0.00e+00	0	26	0	997195776	72	5022
2026-01-13 10:15:26.61	322.90	37.99	-54.5	-56.9	13.8	0.00e+00	0	26	0	999292928	74	4967
2026-01-13 10:15:27.61	323.04	37.76	-54.3	-56.6	13.9	0.00e+00	0	26	0	1001390080	74	4778
2026-01-13 10:15:28.60	323.17	37.53	-53.7	-55.8	14.2	0.00e+00	0	26	0	1002438656	73	4606
2026-01-13 10:15:29.59	323.31	37.30	-52.6	-54.3	14.6	0.00e+00	0	26	0	1004535808	71	4366
2026-01-13 10:15:30.58	323.44	37.07	-51.4	-52.9	14.9	0.00e+00	0	26	0	1006632960	69	4180
2026-01-13 10:15:31.57	323.57	36.85	-50.9	-52.4	15.0	0.00e+00	0	26	0	1008730112	68	4155
2026-01-13 10:15:32.57	323.70	36.62	-51.2	-52.6	14.9	0.00e+00	0	26	0	1010827264	68	4291
2026-01-13 10:15:33.55	323.83	36.40	-51.5	-53.0	14.8	0.00e+00	0	26	0	1011875840	68	4477
2026-01-13 10:15:34.55	323.95	36.18	-51.5	-53.0	14.8	0.00e+00	0	26	0	1013972992	68	4466
2026-01-13 10:15:35.54	324.08	35.96	-51.7	-53.2	14.7	0.00e+00	0	26	0	1016070144	68	4576
2026-01-13 10:15:36.54	324.20	35.74	-51.7	-53.3	14.7	0.00e+00	0	26	0	1018167296	68	4635
2026-01-13 10:15:37.53	324.32	35.52	-51.9	-53.5	14.7	0.00e+00	0	26	0	1019215872	69	4443
2026-01-13 10:15:38.53	324.44	35.31	-52.1	-53.8	14.6	0.00e+00	0	26	0	1021313024	69	4613
2026-01-13 10:15:39.53	324.56	35.09	-52.3	-54.0	14.5	0.00e+00	0	26	0	1023410176	69	4721
2026-01-13 10:15:40.52	324.67	34.88	-52.3	-54.0	14.5	0.00e+00	0	26	0	1025507328	69	4733
2026-01-13 10:15:41.52	324.79	34.66	-52.8	-54.7	14.3	0.00e+00	0	26	0	1027604480	70	4835
2026-01-13 10:15:42.50	324.90	34.46	-53.1	-55.1	14.3	0.00e+00	0	26	0	1028653056	71	4779
2026-01-13 10:15:43.51	325.02	34.24	-53.4	-55.4	14.2	0.00e+00	0	26	0	1030750208	71	4939
2026-01-13 10:15:44.50	325.13	34.03	-54.2	-56.5	13.8	0.00e+00	0	26	0	1032847360	73	5030
2026-01-13 10:15:45.49	325.24	33.83	-54.3	-56.7	13.7	0.00e+00	0	26	0	1034944512	73	5101
2026-01-13 10:15:46.49	325.35	33.62	-54.7	-57.2	13.6	0.00e+00	0	26	0	1035993088	74	5106
2026-01-13 10:15:47.49	325.45	33.42	-55.4	-58.3	13.1	0.00e+00	0	26	0	1038090240	75	5476
2026-01-13 10:15:48.48	325.56	33.21	-55.6	-58.6	13.0	0.00e+00	0	26	0	1040187392	76	5346
2026-01-13 10:15:49.47	325.66	33.01	-55.4	-58.2	13.2	0.00e+00	0	26	0	1042284544	76	5152
2026-01-13 10:15:50.45	325.76	32.81	-55.2	-57.8	13.5	0.00e+00	0	26	0	1044381696	76	4923
2026-01-13 10:15:51.46	325.87	32.61	-54.8	-57.2	13.8	0.00e+00	0	26	0	1045430272	76	4589
2026-01-13 10:15:52.44	325.97	32.42	-53.6	-55.6	14.4	0.00e+00	0	26	0	1047527424	73	4511
2026-01-13 10:15:53.44	326.07	32.22	-53.4	-55.4	14.4	0.00e+00	0	26	0	1049624576	73	4402
2026-01-13 10:15:54.43	326.16	32.02	-53.2	-55.1	14.4	0.00e+00	0	26	0	1051721728	72	4515
2026-01-13 10:15:55.43	326.26	31.83	-52.3	-54.0	14.7	0.00e+00	0	26	0	1052770304	71	4230
2026-01-13 10:15:56.43	326.36	31.63	-52.7	-54.5	14.6	0.00e+00	0	26	0	1054867456	71	4458
2026-01-13 10:15:57.42	326.45	31.44	-52.8	-54.6	14.5	0.00e+00	0	26	0	1056964608	71	4518
2026-01-13 10:15:58.42	326.55	31.25	-53.2	-55.1	14.3	0.00e+00	0	26	0	1059061760	71	4793
2026-01-13 10:15:59.42	326.64	31.06	-53.5	-55.5	14.2	0.00e+00	0	26	0	1061158912	72	4741
2026-01-13 10:16:00.41	326.73	30.87	-53.7	-55.8	14.1	0.00e+00	0	26	0	1062207488	72	4906
2026-01-13 10:16:01.40	326.82	30.68	-53.8	-56.0	14.1	0.00e+00	0	26	0	1064304640	73	4733
2026-01-13 10:16:02.39	326.91	30.50	-54.0	-56.2	14.0	0.00e+00	0	26	0	1066401792	73	4825
2026-01-13 10:16:03.38	327.00	30.31	-54.1	-56.3	13.9	0.00e+00	0	26	0	1068498944	73	4901
2026-01-13 10:16:04.38	327.09	30.13	-54.0	-56.2	14.0	0.00e+00	0	26	0	1069547520	73	4840
2026-01-13 10:16:05.37	327.18	29.94	-54.2	-56.4	13.9	0.00e+00	0	26	0	1071644672	73	4983
2026-01-13 10:16:06.37	327.26	29.76	-53.7	-55.7	14.2	0.00e+00	0	26	0	1073741824	73	4587
2026-01-13 10:16:07.36	327.35	29.58	-53.8	-55.8	14.2	0.00e+00	0	26	0	1075838976	73	4645
2026-01-13 10:16:08.35	327.43	29.40	-53.8	-55.9	14.1	0.00e+00	0	26	0	1077936128	73	4658
2026-01-13 10:16:09.35	327.52	29.22	-53.5	-55.5	14.3	0.00e+00	0	26	0	1078984704	73	4468
2026-01-13 10:16:10.34	327.60	29.04	-53.5	-55.4	14.3	0.00e+00	0	26	0	1081081856	73	4430
2026-01-13 10:16:11.34	327.68	28.87	-53.6	-55.6	14.2	0.00e+00	0	26	0	1083179008	73	4539
2026-01-13 10:16:12.32	327.76	28.69	-53.7	-55.7	14.2	0.00e+00	0	26	0	1085276160	73	4598
2026-01-13 10:16:13.33	327.84	28.52	-53.4	-55.3	14.4	0.00e+00	0	26	0	1086324736	73	4379
2026-01-13 10:16:14.32	327.92	28.34	-53.1	-55.0	14.4	0.00e+00	0	26	0	1088421888	72	4450
2026-01-13 10:16:15.32	328.00	28.17	-52.6	-54.4	14.6	0.00e+00	0	26	0	1090519040	71	4393
2026-01-13 10:16:16.32	328.08	28.00	-52.2	-53.8	14.7	0.00e+00	0	26	0	1092616192	70	4370
2026-01-13 10:16:17.31	328.16	27.83	-51.8	-53.4	14.9	0.00e+00	0	26	0	1094713344	70	4179
2026-01-13 10:16:18.31	328.23	27.66	-51.6	-53.2	14.8	0.00e+00	0	26	0	1095761920	69	4294
2026-01-13 10:16:19.31	328.31	27.49	-51.3	-52.9	14.8	0.00e+00	0	26	0	1097859072	68	4392
2026-01-13 10:16:20.30	328.38	27.32	-51.5	-53.0	14.7	0.00e+00	0	26	0	1099956224	68	4489
2026-01-13 10:16:21.29	328.46	27.16	-51.4	-52.9	14.8	0.00e+00	0	26	0	1102053376	68	4422
2026-01-13 10:16:22.29	328.53	26.99	-51.6	-53.2	14.7	0.00e+00	0	26	0	1103101952	68	4587
2026-01-13 10:16:23.29	328.60	26.82	-51.9	-53.5	14.5	0.00e+00	0	26	0	1105199104	68	4758
2026-01-13 10:16:24.28	328.67	26.66	-51.7	-53.3	14.8	0.00e+00	0	26	0	1107296256	69	4371
2026-01-13 10:16:25.28	328.74	26.50	-51.9	-53.6	14.6	0.00e+00	0	26	0	1109393408	69	4539
2026-01-13 10:16:26.27	328.81	26.34	-52.0	-53.7	14.6	0.00e+00	0	26	0	1111490560	69	4592
2026-01-13 10:16:27.25	328.88	26.18	-51.8	-53.4	14.7	0.00e+00	0	26	0	1112539136	69	4438
2026-01-13 10:16:28.24	328.95	26.02	-52.0	-53.6	14.5	0.00e+00	0	26	0	1114636288	69	4542
2026-01-13 10:16:29.23	329.02	25.86	-52.0	-53.7	14.5	0.00e+00	0	26	0	1116733440	69	4583
2026-01-13 10:16:30.23	329.09	25.70	-52.2	-53.9	14.5	0.00e+00	0	26	0	1118830592	69	4673
2026-01-13 10:16:31.22	329.16	25.54	-52.2	-53.9	14.5	0.00e+00	0	26	0	1119879168	69	4683
2026-01-13 10:16:32.22	329.22	25.39	-52.1	-53.9	14.5	0.00e+00	0	26	0	1121976320	69	4675
2026-01-13 10:16:33.21	329.29	25.23	-52.5	-54.3	14.5	0.00e+00	0	26	0	1124073472	70	4638
2026-01-13 10:16:34.21	329.35	25.08	-52.6	-54.5	14.4	0.00e+00	0	26	0	1126170624	70	4724
2026-01-13 10:16:35.21	329.42	24.92	-52.8	-54.7	14.3	0.00e+00	0	26	0	1128267776	70	4843
2026-01-13 10:16:36.21	329.48	24.77	-52.9	-54.8	14.4	0.00e+00	0	26	0	1129316352	71	4632
2026-01-13 10:16:37.20	329.55	24.62	-53.1	-55.1	14.2	0.00e+00	0	26	0	1131413504	71	4779
2026-01-13 10:16:38.19	329.61	24.47	-53.2	-55.2	14.2	0.00e+00	0	26	0	1133510656	71	4848
2026-01-13 10:16:39.19	329.67	24.32	-52.9	-54.9	14.3	0.00e+00	0	26	0	1135607808	71	4653
2026-01-13 10:16:40.18	329.73	24.17	-53.0	-54.9	14.3	0.00e+00	0	26	0	1136656384	71	4704
2026-01-13 10:16:41.17	329.79	24.02	-52.8	-54.7	14.4	0.00e+00	0	26	0	1138753536	71	4571
2026-01-13 10:16:42.16	329.86	23.87	-52.5	-54.4	14.6	0.00e+00	0	26	0	1140850688	71	4403
2026-01-13 10:16:43.15	329.92	23.73	-52.3	-54.1	14.7	0.00e+00	0	26	0	1142947840	71	4273
2026-01-13 10:16:44.14	329.97	23.58	-52.1	-53.9	14.6	0.00e+00	0	26	0	1145044992	70	4418
2026-01-13 10:16:45.14	330.03	23.43	-52.0	-53.7	14.7	0.00e+00	0	26	0	1146093568	70	4336
2026-01-13 10:16:46.13	330.09	23.29	-51.9	-53.6	14.8	0.00e+00	0	26	0	1148190720	70	4269
2026-01-13 10:16:46.89	330.14	23.18	-51.9	-53.6	14.8	0.00e+00	0	26	0	1150287872	70	4249
2026-01-13 10:16:48.16	330.21	23.00	-51.5	-53.1	14.8	0.00e+00	0	26	0	1152385024	69	4291
2026-01-13 10:16:48.93	330.26	22.89	-51.3	-52.9	14.9	0.00e+00	0	26	0	1154482176	69	4178
2026-01-13 10:16:50.21	330.33	22.70	-51.0	-52.6	15.0	0.00e+00	0	26	0	1156579328	68	4259
2026-01-13 10:16:50.97	330.37	22.60	-51.0	-52.5	14.9	0.00e+00	0	26	0	1157627904	68	4217
2026-01-13 10:16:52.24	330.44	22.42	-50.9	-52.4	15.0	0.00e+00	0	26	0	1159725056	68	4164
2026-01-13 10:16:52.97	330.48	22.32	-50.8	-52.3	15.0	0.00e+00	0	26	0	1161822208	68	4118
2026-01-13 10:16:54.25	330.55	22.14	-50.4	-51.8	15.1	0.00e+00	0	26	0	1163919360	67	4130
2026-01-13 10:16:54.96	330.59	22.04	-50.3	-51.7	15.1	0.00e+00	0	26	0	1164967936	67	4066
2026-01-13 10:16:56.29	330.67	21.86	-50.3	-51.7	15.1	0.00e+00	0	26	0	1168113664	67	4091
2026-01-13 10:16:57.00	330.70	21.76	-50.3	-51.7	15.1	0.00e+00	0	26	0	1169162240	67	4091
2026-01-13 10:16:58.29	330.77	21.58	-50.3	-51.7	15.1	0.00e+00	0	26	0	1171259392	67	4083
2026-01-13 10:16:58.99	330.81	21.49	-50.5	-52.0	15.0	0.00e+00	0	26	0	1173356544	67	4198
2026-01-13 10:17:00.29	330.88	21.31	-50.6	-52.0	14.9	0.00e+00	0	26	0	1175453696	67	4229
2026-01-13 10:17:01.00	330.92	21.22	-50.6	-52.1	14.9	0.00e+00	0	26	0	1176502272	67	4265
2026-01-13 10:17:02.28	330.98	21.05	-50.9	-52.5	14.8	0.00e+00	0	26	0	1178599424	67	4450
2026-01-13 10:17:03.02	331.02	20.95	-50.8	-52.4	14.8	0.00e+00	0	26	0	1180696576	67	4393
2026-01-13 10:17:04.30	331.09	20.78	-50.9	-52.5	14.8	0.00e+00	0	26	0	1182793728	67	4444
2026-01-13 10:17:05.05	331.12	20.68	-51.1	-52.6	14.7	0.00e+00	0	26	0	1183842304	67	4539
2026-01-13 10:17:06.33	331.19	20.51	-51.0	-52.5	14.7	0.00e+00	0	26	0	1186988032	67	4491
2026-01-13 10:17:07.11	331.23	20.41	-51.1	-52.7	14.7	0.00e+00	0	26	0	1188036608	67	4549
2026-01-13 10:17:08.33	331.29	20.25	-51.2	-52.8	14.6	0.00e+00	0	26	0	1190133760	67	4639
2026-01-13 10:17:09.19	331.33	20.14	-51.2	-52.8	14.7	0.00e+00	0	26	0	1192230912	67	4632
2026-01-13 10:17:10.31	331.38	20.00	-51.2	-52.8	14.7	0.00e+00	0	26	0	1194328064	67	4630
2026-01-13 10:17:11.17	331.42	19.89	-51.2	-52.8	14.7	0.00e+00	0	26	0	1195376640	67	4614
2026-01-13 10:17:12.30	331.48	19.74	-51.2	-52.9	14.6	0.00e+00	0	26	0	1197473792	67	4654
2026-01-13 10:17:13.16	331.52	19.64	-51.1	-52.8	14.7	0.00e+00	0	26	0	1199570944	67	4602
2026-01-13 10:17:14.30	331.57	19.49	-51.2	-52.8	14.6	0.00e+00	0	26	0	1201668096	67	4630
2026-01-13 10:17:15.15	331.61	19.39	-51.4	-53.0	14.6	0.00e+00	0	26	0	1202716672	67	4756
2026-01-13 10:17:16.29	331.67	19.24	-51.6	-53.3	14.6	0.00e+00	0	26	0	1204813824	68	4616
2026-01-13 10:17:17.14	331.71	19.14	-51.5	-53.2	14.7	0.00e+00	0	26	0	1206910976	68	4567
2026-01-13 10:17:18.29	331.76	19.00	-51.7	-53.5	14.6	0.00e+00	0	26	0	1209008128	68	4709
2026-01-13 10:17:19.13	331.80	18.89	-51.8	-53.6	14.5	0.00e+00	0	26	0	1211105280	68	4765
2026-01-13 10:17:20.27	331.85	18.76	-52.0	-53.7	14.5	0.00e+00	0	26	0	1213202432	69	4585
2026-01-13 10:17:21.13	331.89	18.65	-52.1	-53.9	14.5	0.00e+00	0	26	0	1214251008	69	4666
2026-01-13 10:17:22.26	331.94	18.51	-52.2	-54.1	14.4	0.00e+00	0	26	0	1216348160	69	4768
2026-01-13 10:17:23.12	331.97	18.41	-52.5	-54.5	14.3	0.00e+00	0	26	0	1218445312	70	4711
2026-01-13 10:17:24.26	332.02	18.27	-52.6	-54.5	14.4	0.00e+00	0	26	0	1220542464	70	4722
2026-01-13 10:17:25.10	332.06	18.17	-52.5	-54.3	14.4	0.00e+00	0	26	0	1221591040	70	4648
2026-01-13 10:17:26.24	332.11	18.04	-52.5	-54.4	14.4	0.00e+00	0	26	0	1223688192	70	4690
2026-01-13 10:17:27.09	332.15	17.94	-52.7	-54.6	14.3	0.00e+00	0	26	0	1225785344	70	4782
2026-01-13 10:17:28.23	332.20	17.80	-52.5	-54.4	14.4	0.00e+00	0	26	0	1227882496	70	4683
2026-01-13 10:17:29.08	332.23	17.71	-52.4	-54.3	14.4	0.00e+00	0	26	0	1228931072	70	4600
2026-01-13 10:17:30.22	332.28	17.57	-52.4	-54.3	14.5	0.00e+00	0	26	0	1231028224	70	4612
