passes_logs/2026/01/13/R3.2S_Murmansk/R3.2S_Murmansk__20260113_020943_NOAA_20_JPSS-1_rec.log

#Pass ID: 20260113_020943_NOAA 20 (JPSS-1)
#Satellite: NOAA 20 (JPSS-1)
#Configuration: NOAA 20
#almurnet v.1.7.20251203
#Start time: 2026-01-13 02:09:44

#Version: 2.2.20231116
#Station: R3.2S_Murmansk
#Location: 33.079688 lon 68.888172 lat
#TLE: 1 43013U 17073A   26012.29914746  .00000087  00000+0  62270-4 0  9997
#TLE: 2 43013  98.7632 313.2670 0001616  43.2193 316.9110 14.19535514422351

#Time	Az	El	Level	Level2	SNR	BER	BlckErr	Temp	State	Recorded	gain1	gain2
2026-01-13 02:09:44.52	31.67	2.09	-56.8	-72.8	3.8	1.49e+00	0	21	0	0	80	21756
2026-01-13 02:09:45.51	31.64	2.15	-56.7	-72.7	3.8	1.49e+00	0	20	104	0	78	24243
2026-01-13 02:09:46.51	31.61	2.21	-56.7	-72.7	3.8	1.49e+00	0	21	104	0	78	24266
2026-01-13 02:09:47.51	31.58	2.28	-56.7	-72.7	3.8	1.49e+00	0	21	104	0	78	24304
2026-01-13 02:09:48.52	31.54	2.34	-56.7	-72.7	3.8	1.49e+00	0	21	104	0	78	24258
2026-01-13 02:09:49.52	31.51	2.40	-56.7	-72.7	3.8	1.49e+00	0	21	104	0	78	24271
2026-01-13 02:09:50.52	31.48	2.47	-56.7	-72.7	3.8	1.49e+00	0	21	104	0	78	24336
2026-01-13 02:09:51.52	31.45	2.53	-56.7	-72.7	3.8	1.49e+00	0	21	104	0	78	24249
2026-01-13 02:09:52.53	31.41	2.59	-56.7	-72.7	3.8	1.49e+00	0	21	104	0	78	24235
2026-01-13 02:09:53.53	31.38	2.66	-56.7	-72.7	3.8	1.49e+00	0	21	104	0	78	24203
2026-01-13 02:09:54.53	31.35	2.72	-56.7	-72.7	3.8	1.49e+00	0	21	104	0	78	24239
2026-01-13 02:09:55.53	31.31	2.78	-56.7	-72.7	3.8	1.49e+00	0	21	104	0	78	24211
2026-01-13 02:09:56.54	31.28	2.85	-56.7	-72.6	3.8	1.49e+00	0	21	104	0	78	24126
2026-01-13 02:09:57.54	31.25	2.91	-56.7	-72.7	3.8	1.49e+00	0	21	104	0	78	24184
2026-01-13 02:09:58.54	31.21	2.98	-56.7	-72.7	3.8	1.49e+00	0	21	104	0	78	24192
2026-01-13 02:09:59.54	31.18	3.04	-56.7	-72.7	3.8	1.49e+00	0	21	104	0	78	24224
2026-01-13 02:10:00.54	31.15	3.11	-56.7	-72.7	3.8	1.49e+00	0	21	104	0	78	24298
2026-01-13 02:10:01.55	31.11	3.17	-56.7	-72.7	3.8	1.49e+00	0	21	104	0	78	24275
2026-01-13 02:10:02.54	31.08	3.23	-56.7	-72.6	3.8	1.49e+00	0	21	104	0	78	23958
2026-01-13 02:10:03.54	31.04	3.30	-56.7	-72.3	3.8	1.49e+00	0	21	104	0	78	23181
2026-01-13 02:10:04.53	31.01	3.36	-56.7	-71.8	3.8	1.49e+00	0	21	104	0	78	21777
2026-01-13 02:10:05.53	30.97	3.43	-56.7	-71.6	3.8	1.49e+00	0	21	104	0	78	21505
2026-01-13 02:10:06.52	30.94	3.49	-56.7	-71.3	3.8	1.49e+00	0	21	104	0	78	20581
2026-01-13 02:10:07.52	30.90	3.56	-56.7	-71.3	3.8	1.49e+00	0	21	104	0	78	20575
2026-01-13 02:10:08.52	30.87	3.62	-56.7	-71.1	3.8	1.49e+00	0	21	104	0	78	20286
2026-01-13 02:10:09.53	30.83	3.69	-56.7	-71.0	3.8	1.49e+00	0	21	104	0	78	20063
2026-01-13 02:10:10.52	30.80	3.76	-56.7	-70.9	3.8	1.49e+00	0	21	104	0	78	19784
2026-01-13 02:10:11.51	30.76	3.82	-56.7	-71.3	3.8	1.49e+00	0	21	104	0	78	20598
2026-01-13 02:10:12.51	30.72	3.89	-56.7	-70.7	3.8	1.49e+00	0	21	104	0	78	19203
2026-01-13 02:10:13.51	30.69	3.95	-56.7	-70.3	3.9	1.49e+00	0	21	104	0	78	18483
2026-01-13 02:10:14.51	30.65	4.02	-56.6	-68.9	4.2	1.40e+00	0	21	0	0	78	15756
2026-01-13 02:10:15.51	30.61	4.09	-56.5	-68.1	4.5	1.28e+00	0	21	0	0	78	14366
2026-01-13 02:10:16.52	30.58	4.15	-56.4	-66.8	5.1	8.67e-01	0	21	0	2097152	78	12323
2026-01-13 02:10:17.51	30.54	4.22	-56.4	-66.2	5.5	4.91e-01	0	21	0	4194304	78	11542
2026-01-13 02:10:18.51	30.50	4.29	-56.2	-65.3	6.1	3.12e-01	0	22	0	6291456	78	10348
2026-01-13 02:10:19.51	30.47	4.35	-56.1	-64.5	6.7	1.55e-01	0	22	0	8388608	78	9395
2026-01-13 02:10:20.51	30.43	4.42	-56.1	-64.2	6.9	1.69e-01	0	22	0	9437184	78	9143
2026-01-13 02:10:21.52	30.39	4.49	-56.0	-63.6	7.5	1.09e-01	0	22	0	11534336	78	8490
2026-01-13 02:10:22.52	30.35	4.56	-55.9	-63.4	7.7	5.79e-02	0	21	0	13631488	78	8316
2026-01-13 02:10:23.52	30.31	4.62	-55.9	-63.1	8.0	4.85e-02	0	21	0	15728640	78	8036
2026-01-13 02:10:24.52	30.28	4.69	-55.9	-63.0	8.0	4.92e-02	0	22	0	17825792	78	7987
2026-01-13 02:10:25.51	30.24	4.76	-56.0	-63.5	7.6	6.77e-02	0	22	0	18874368	78	8403
2026-01-13 02:10:26.52	30.20	4.83	-56.0	-63.8	7.4	6.37e-02	0	22	0	20971520	78	8678
2026-01-13 02:10:27.52	30.16	4.90	-56.1	-63.9	7.3	8.82e-02	0	22	0	23068672	78	8767
2026-01-13 02:10:28.52	30.12	4.97	-56.1	-64.3	6.9	1.15e-01	0	22	0	25165824	78	9188
2026-01-13 02:10:29.52	30.08	5.03	-56.2	-64.9	6.4	1.71e-01	0	22	0	27262976	78	9909
2026-01-13 02:10:30.52	30.04	5.10	-56.1	-62.9	8.3	2.77e-01	0	22	0	28311552	78	7858
2026-01-13 02:10:31.53	30.00	5.17	-56.1	-62.8	8.6	1.96e-02	0	22	0	30408704	78	7725
2026-01-13 02:10:32.53	29.96	5.24	-56.4	-65.2	6.5	2.98e-02	0	22	0	32505856	78	10240
2026-01-13 02:10:33.53	29.92	5.31	-56.0	-62.5	8.2	1.43e+00	0	22	0	32505856	78	7539
2026-01-13 02:10:34.53	29.88	5.38	-56.1	-62.9	8.8	5.87e-04	0	22	0	33554432	77	8348
2026-01-13 02:10:35.53	29.84	5.45	-56.1	-62.7	8.5	6.20e-01	0	22	0	35651584	78	7662
2026-01-13 02:10:36.53	29.80	5.52	-54.1	-57.4	13.0	6.80e-06	0	22	0	37748736	74	5268
2026-01-13 02:10:37.53	29.76	5.59	-53.4	-56.3	13.8	0.00e+00	0	22	0	39845888	73	4890
2026-01-13 02:10:38.53	29.72	5.66	-53.4	-56.2	13.8	0.00e+00	0	22	0	41943040	73	4850
2026-01-13 02:10:39.53	29.67	5.73	-53.1	-55.8	13.9	0.00e+00	0	22	0	42991616	72	4921
2026-01-13 02:10:40.52	29.63	5.80	-53.3	-56.1	13.7	0.00e+00	0	22	0	45088768	72	5083
2026-01-13 02:10:41.52	29.59	5.87	-53.1	-55.7	14.0	0.00e+00	0	22	0	47185920	72	4863
2026-01-13 02:10:42.52	29.55	5.94	-53.1	-55.8	14.0	0.00e+00	0	22	0	49283072	72	4886
2026-01-13 02:10:43.52	29.51	6.01	-53.0	-55.7	14.1	0.00e+00	0	22	0	50331648	72	4815
2026-01-13 02:10:44.51	29.46	6.08	-53.0	-55.6	14.1	0.00e+00	0	22	0	52428800	72	4808
2026-01-13 02:10:45.51	29.42	6.16	-53.0	-55.6	14.1	0.00e+00	0	22	0	54525952	72	4786
2026-01-13 02:10:46.51	29.38	6.23	-53.0	-55.5	14.2	0.00e+00	0	22	0	56623104	72	4749
2026-01-13 02:10:47.51	29.33	6.30	-52.9	-55.4	14.2	0.00e+00	0	22	0	58720256	72	4703
2026-01-13 02:10:48.50	29.29	6.37	-52.8	-55.3	14.3	0.00e+00	0	22	0	59768832	72	4625
2026-01-13 02:10:49.50	29.25	6.44	-53.2	-56.0	13.9	0.00e+00	0	22	0	61865984	72	4985
2026-01-13 02:10:50.50	29.20	6.51	-52.9	-55.4	14.3	0.00e+00	0	22	0	63963136	72	4688
2026-01-13 02:10:51.50	29.16	6.59	-53.1	-55.7	14.1	0.00e+00	0	22	0	66060288	72	4846
2026-01-13 02:10:52.50	29.11	6.66	-53.1	-55.7	14.1	0.00e+00	0	22	0	67108864	72	4855
2026-01-13 02:10:53.50	29.07	6.73	-53.1	-55.6	14.1	0.00e+00	0	22	0	69206016	72	4806
2026-01-13 02:10:54.49	29.02	6.81	-52.9	-55.4	14.3	0.00e+00	0	22	0	71303168	72	4689
2026-01-13 02:10:55.49	28.98	6.88	-52.9	-55.3	14.3	0.00e+00	0	22	0	73400320	72	4642
2026-01-13 02:10:56.50	28.93	6.95	-53.0	-55.5	14.2	0.00e+00	0	22	0	75497472	72	4742
2026-01-13 02:10:57.49	28.89	7.03	-53.0	-55.5	14.3	0.00e+00	0	22	0	76546048	72	4718
2026-01-13 02:10:58.49	28.84	7.10	-52.9	-55.3	14.4	0.00e+00	0	22	0	78643200	72	4644
2026-01-13 02:10:59.49	28.80	7.17	-52.9	-55.3	14.4	0.00e+00	0	22	0	80740352	72	4640
2026-01-13 02:11:00.49	28.75	7.25	-53.0	-55.5	14.2	0.00e+00	0	22	0	82837504	72	4731
2026-01-13 02:11:01.49	28.70	7.32	-52.9	-55.4	14.3	0.00e+00	0	22	0	84934656	72	4658
2026-01-13 02:11:02.49	28.65	7.40	-52.9	-55.4	14.3	0.00e+00	0	22	0	85983232	72	4658
2026-01-13 02:11:03.48	28.61	7.47	-52.9	-55.4	14.3	0.00e+00	0	22	0	88080384	72	4691
2026-01-13 02:11:04.47	28.56	7.55	-53.0	-55.4	14.3	0.00e+00	0	22	0	90177536	72	4701
2026-01-13 02:11:05.47	28.51	7.62	-52.9	-55.4	14.3	0.00e+00	0	22	0	92274688	72	4689
2026-01-13 02:11:06.46	28.47	7.69	-52.8	-55.2	14.5	0.00e+00	0	22	0	93323264	72	4552
2026-01-13 02:11:07.45	28.42	7.77	-52.8	-55.2	14.5	0.00e+00	0	22	0	95420416	72	4571
2026-01-13 02:11:08.45	28.37	7.85	-52.9	-55.4	14.3	0.00e+00	0	22	0	97517568	72	4669
2026-01-13 02:11:09.45	28.32	7.92	-52.9	-55.3	14.4	0.00e+00	0	22	0	99614720	72	4614
2026-01-13 02:11:10.45	28.27	8.00	-52.9	-55.4	14.4	0.00e+00	0	22	0	101711872	72	4674
2026-01-13 02:11:11.45	28.22	8.07	-52.9	-55.4	14.4	0.00e+00	0	22	0	102760448	72	4665
2026-01-13 02:11:12.45	28.17	8.15	-52.9	-55.4	14.4	0.00e+00	0	22	0	104857600	72	4678
2026-01-13 02:11:13.45	28.12	8.23	-52.9	-55.3	14.4	0.00e+00	0	22	0	106954752	72	4620
2026-01-13 02:11:14.45	28.07	8.31	-52.8	-55.2	14.5	0.00e+00	0	22	0	109051904	72	4550
2026-01-13 02:11:15.44	28.02	8.38	-52.9	-55.3	14.4	0.00e+00	0	22	0	111149056	72	4601
2026-01-13 02:11:16.44	27.97	8.46	-52.8	-55.1	14.5	0.00e+00	0	22	0	112197632	72	4542
2026-01-13 02:11:17.44	27.92	8.54	-52.7	-55.0	14.6	0.00e+00	0	22	0	114294784	72	4477
2026-01-13 02:11:18.44	27.87	8.61	-52.8	-55.2	14.5	0.00e+00	0	22	0	116391936	72	4577
2026-01-13 02:11:19.44	27.82	8.69	-52.8	-55.2	14.5	0.00e+00	0	22	0	118489088	72	4552
2026-01-13 02:11:20.44	27.76	8.77	-52.6	-54.9	14.5	0.00e+00	0	22	0	119537664	71	4672
2026-01-13 02:11:21.44	27.71	8.85	-52.6	-55.0	14.5	0.00e+00	0	22	0	121634816	71	4709
2026-01-13 02:11:22.44	27.66	8.93	-52.5	-54.7	14.6	0.00e+00	0	22	0	123731968	71	4587
2026-01-13 02:11:23.45	27.60	9.01	-52.6	-54.9	14.5	0.00e+00	0	22	0	125829120	71	4686
2026-01-13 02:11:24.43	27.55	9.09	-52.7	-55.0	14.5	0.00e+00	0	22	0	127926272	71	4734
2026-01-13 02:11:25.44	27.50	9.17	-52.6	-54.9	14.5	0.00e+00	0	22	0	128974848	71	4676
2026-01-13 02:11:26.44	27.44	9.25	-52.4	-54.6	14.7	0.00e+00	0	22	0	131072000	71	4540
2026-01-13 02:11:27.43	27.39	9.33	-52.5	-54.8	14.6	0.00e+00	0	22	0	133169152	71	4618
2026-01-13 02:11:28.43	27.34	9.41	-52.4	-54.6	14.7	0.00e+00	0	22	0	135266304	71	4513
2026-01-13 02:11:29.44	27.28	9.49	-52.6	-54.8	14.6	0.00e+00	0	22	0	137363456	71	4634
2026-01-13 02:11:30.44	27.22	9.57	-52.6	-54.9	14.6	0.00e+00	0	22	0	138412032	71	4657
2026-01-13 02:11:31.44	27.17	9.65	-52.4	-54.6	14.7	0.00e+00	0	22	0	140509184	71	4506
2026-01-13 02:11:32.44	27.11	9.73	-52.4	-54.6	14.8	0.00e+00	0	22	0	142606336	71	4511
2026-01-13 02:11:33.43	27.06	9.81	-52.4	-54.6	14.7	0.00e+00	0	22	0	144703488	71	4531
2026-01-13 02:11:34.43	27.00	9.89	-52.5	-54.7	14.7	0.00e+00	0	22	0	145752064	71	4552
2026-01-13 02:11:35.43	26.94	9.97	-52.5	-54.6	14.7	0.00e+00	0	22	0	147849216	71	4544
2026-01-13 02:11:36.43	26.89	10.06	-52.5	-54.7	14.7	0.00e+00	0	22	0	149946368	71	4563
2026-01-13 02:11:37.44	26.83	10.14	-52.5	-54.7	14.7	0.00e+00	0	22	0	152043520	71	4561
2026-01-13 02:11:38.44	26.77	10.22	-52.3	-54.5	14.8	0.00e+00	0	22	0	154140672	71	4469
2026-01-13 02:11:39.44	26.71	10.30	-52.3	-54.5	14.8	0.00e+00	0	22	0	155189248	71	4453
2026-01-13 02:11:40.43	26.65	10.39	-52.4	-54.6	14.7	0.00e+00	0	22	0	157286400	71	4530
2026-01-13 02:11:41.43	26.60	10.47	-52.3	-54.4	14.9	0.00e+00	0	22	0	159383552	71	4436
2026-01-13 02:11:42.43	26.54	10.55	-52.3	-54.5	14.9	0.00e+00	0	22	0	161480704	71	4446
2026-01-13 02:11:43.43	26.48	10.64	-52.3	-54.5	14.8	0.00e+00	0	22	0	163577856	71	4455
2026-01-13 02:11:44.43	26.42	10.72	-52.3	-54.5	14.8	0.00e+00	0	22	0	164626432	71	4450
2026-01-13 02:11:45.43	26.36	10.81	-52.4	-54.6	14.8	0.00e+00	0	22	0	166723584	71	4523
2026-01-13 02:11:46.43	26.29	10.89	-52.5	-54.7	14.7	0.00e+00	0	22	0	168820736	71	4549
2026-01-13 02:11:47.43	26.23	10.97	-52.3	-54.5	14.9	0.00e+00	0	22	0	170917888	71	4450
2026-01-13 02:11:48.43	26.17	11.06	-52.4	-54.6	14.8	0.00e+00	0	22	0	173015040	71	4496
2026-01-13 02:11:49.43	26.11	11.15	-52.3	-54.5	14.9	0.00e+00	0	22	0	174063616	71	4445
2026-01-13 02:11:50.43	26.05	11.23	-52.3	-54.3	14.9	0.00e+00	0	22	0	176160768	71	4390
2026-01-13 02:11:51.44	25.98	11.32	-52.3	-54.4	14.9	0.00e+00	0	22	0	178257920	71	4402
2026-01-13 02:11:52.43	25.92	11.40	-52.1	-54.1	15.0	0.00e+00	0	22	0	180355072	70	4539
2026-01-13 02:11:53.43	25.86	11.49	-52.2	-54.3	14.8	0.00e+00	0	22	0	181403648	70	4599
2026-01-13 02:11:54.43	25.79	11.58	-52.2	-54.2	14.8	0.00e+00	0	22	0	183500800	70	4586
2026-01-13 02:11:55.43	25.73	11.66	-52.1	-54.1	14.9	0.00e+00	0	22	0	185597952	70	4542
2026-01-13 02:11:56.43	25.67	11.75	-52.1	-54.1	14.9	0.00e+00	0	22	0	187695104	70	4534
2026-01-13 02:11:57.43	25.60	11.84	-52.2	-54.2	14.8	0.00e+00	0	22	0	189792256	70	4597
2026-01-13 02:11:58.42	25.54	11.92	-52.0	-54.1	14.9	0.00e+00	0	22	0	190840832	70	4502
2026-01-13 02:11:59.42	25.47	12.01	-52.1	-54.2	14.9	0.00e+00	0	23	0	192937984	70	4581
2026-01-13 02:12:00.41	25.40	12.10	-52.0	-54.0	15.0	0.00e+00	0	22	0	195035136	70	4457
2026-01-13 02:12:01.41	25.34	12.19	-52.0	-54.0	15.0	0.00e+00	0	23	0	197132288	70	4472
2026-01-13 02:12:02.41	25.27	12.28	-52.1	-54.2	14.9	0.00e+00	0	23	0	198180864	70	4565
2026-01-13 02:12:03.40	25.20	12.37	-51.9	-53.9	15.0	0.00e+00	0	22	0	200278016	70	4416
2026-01-13 02:12:04.40	25.13	12.46	-51.9	-53.9	15.1	0.00e+00	0	22	0	202375168	70	4406
2026-01-13 02:12:05.40	25.07	12.55	-51.9	-53.8	15.1	0.00e+00	0	22	0	204472320	70	4384
2026-01-13 02:12:06.39	25.00	12.63	-51.8	-53.8	15.1	0.00e+00	0	22	0	206569472	70	4359
2026-01-13 02:12:07.40	24.93	12.73	-51.9	-53.8	15.1	0.00e+00	0	23	0	207618048	70	4381
2026-01-13 02:12:08.40	24.86	12.82	-51.8	-53.7	15.2	0.00e+00	0	22	0	209715200	70	4311
2026-01-13 02:12:09.40	24.79	12.91	-51.9	-53.8	15.1	0.00e+00	0	23	0	211812352	70	4366
2026-01-13 02:12:10.40	24.72	13.00	-51.8	-53.8	15.1	0.00e+00	0	23	0	213909504	70	4343
2026-01-13 02:12:11.40	24.65	13.09	-51.8	-53.7	15.1	0.00e+00	0	23	0	216006656	70	4324
2026-01-13 02:12:12.40	24.57	13.18	-51.8	-53.7	15.1	0.00e+00	0	23	0	217055232	70	4338
2026-01-13 02:12:13.40	24.50	13.27	-51.8	-53.7	15.2	0.00e+00	0	22	0	219152384	70	4312
2026-01-13 02:12:14.39	24.43	13.36	-51.9	-53.8	15.1	0.00e+00	0	22	0	221249536	70	4377
2026-01-13 02:12:15.38	24.36	13.46	-51.8	-53.8	15.1	0.00e+00	0	23	0	223346688	70	4354
2026-01-13 02:12:16.38	24.28	13.55	-51.9	-53.8	15.1	0.00e+00	0	22	0	224395264	70	4378
2026-01-13 02:12:17.38	24.21	13.64	-51.9	-53.8	15.1	0.00e+00	0	22	0	226492416	70	4370
2026-01-13 02:12:18.37	24.14	13.74	-51.9	-53.8	15.1	0.00e+00	0	22	0	228589568	70	4365
2026-01-13 02:12:19.37	24.06	13.83	-51.9	-53.8	15.1	0.00e+00	0	22	0	230686720	70	4356
2026-01-13 02:12:20.36	23.99	13.92	-51.8	-53.7	15.2	0.00e+00	0	23	0	232783872	70	4332
2026-01-13 02:12:21.36	23.91	14.02	-51.8	-53.7	15.2	0.00e+00	0	22	0	233832448	70	4330
2026-01-13 02:12:22.36	23.83	14.11	-51.8	-53.7	15.2	0.00e+00	0	23	0	235929600	70	4334
2026-01-13 02:12:23.35	23.76	14.21	-51.8	-53.7	15.2	0.00e+00	0	23	0	238026752	70	4311
2026-01-13 02:12:24.35	23.68	14.30	-51.9	-53.8	15.1	0.00e+00	0	23	0	240123904	70	4382
2026-01-13 02:12:25.34	23.60	14.40	-51.8	-53.7	15.2	0.00e+00	0	23	0	241172480	70	4302
2026-01-13 02:12:26.34	23.52	14.49	-51.8	-53.8	15.1	0.00e+00	0	23	0	243269632	70	4342
2026-01-13 02:12:27.34	23.44	14.59	-51.9	-53.8	15.1	0.00e+00	0	22	0	245366784	70	4350
2026-01-13 02:12:28.34	23.36	14.69	-51.8	-53.7	15.2	0.00e+00	0	22	0	247463936	70	4318
2026-01-13 02:12:29.34	23.28	14.78	-51.8	-53.7	15.2	0.00e+00	0	23	0	249561088	70	4326
2026-01-13 02:12:30.35	23.20	14.88	-51.8	-53.7	15.2	0.00e+00	0	23	0	250609664	70	4309
2026-01-13 02:12:31.35	23.12	14.98	-51.8	-53.7	15.2	0.00e+00	0	23	0	252706816	70	4331
2026-01-13 02:12:32.35	23.04	15.08	-51.8	-53.7	15.2	0.00e+00	0	23	0	254803968	70	4330
2026-01-13 02:12:33.35	22.96	15.18	-51.8	-53.7	15.2	0.00e+00	0	22	0	256901120	70	4301
2026-01-13 02:12:34.35	22.87	15.27	-51.8	-53.7	15.2	0.00e+00	0	22	0	258998272	70	4296
2026-01-13 02:12:35.34	22.79	15.37	-51.8	-53.6	15.2	0.00e+00	0	23	0	260046848	70	4288
2026-01-13 02:12:36.34	22.71	15.47	-51.8	-53.7	15.2	0.00e+00	0	23	0	262144000	70	4332
2026-01-13 02:12:37.33	22.62	15.57	-51.8	-53.7	15.2	0.00e+00	0	22	0	264241152	70	4320
2026-01-13 02:12:38.34	22.54	15.67	-51.7	-53.6	15.3	0.00e+00	0	22	0	266338304	70	4259
2026-01-13 02:12:39.33	22.45	15.77	-51.8	-53.7	15.2	0.00e+00	0	23	0	268435456	70	4318
2026-01-13 02:12:40.33	22.36	15.87	-51.8	-53.6	15.2	0.00e+00	0	22	0	269484032	70	4284
2026-01-13 02:12:41.33	22.28	15.97	-51.8	-53.7	15.2	0.00e+00	0	23	0	271581184	70	4317
2026-01-13 02:12:42.32	22.19	16.07	-51.8	-53.7	15.2	0.00e+00	0	23	0	273678336	70	4334
2026-01-13 02:12:43.33	22.10	16.18	-51.8	-53.7	15.2	0.00e+00	0	23	0	275775488	70	4333
2026-01-13 02:12:44.32	22.01	16.28	-51.9	-53.8	15.1	0.00e+00	0	23	0	276824064	70	4361
2026-01-13 02:12:45.31	21.92	16.38	-52.0	-53.9	15.1	0.00e+00	0	23	0	278921216	70	4414
2026-01-13 02:12:46.31	21.83	16.48	-51.9	-53.8	15.1	0.00e+00	0	23	0	281018368	70	4349
2026-01-13 02:12:47.30	21.74	16.58	-51.8	-53.7	15.2	0.00e+00	0	23	0	283115520	70	4316
2026-01-13 02:12:48.30	21.65	16.69	-51.8	-53.7	15.2	0.00e+00	0	23	0	285212672	70	4330
2026-01-13 02:12:49.30	21.56	16.79	-51.9	-53.8	15.2	0.00e+00	0	23	0	286261248	70	4341
2026-01-13 02:12:50.30	21.47	16.90	-51.9	-53.8	15.1	0.00e+00	0	23	0	288358400	70	4378
2026-01-13 02:12:51.29	21.37	17.00	-51.9	-53.8	15.1	0.00e+00	0	23	0	290455552	70	4383
2026-01-13 02:12:52.29	21.28	17.11	-51.9	-53.8	15.1	0.00e+00	0	23	0	292552704	70	4387
2026-01-13 02:12:53.29	21.18	17.21	-52.0	-53.9	15.0	0.00e+00	0	22	0	293601280	70	4403
2026-01-13 02:12:54.29	21.09	17.32	-52.0	-53.9	15.0	0.00e+00	0	23	0	295698432	70	4411
2026-01-13 02:12:55.29	20.99	17.42	-52.0	-54.0	15.0	0.00e+00	0	22	0	297795584	70	4458
2026-01-13 02:12:56.29	20.89	17.53	-52.1	-54.0	15.0	0.00e+00	0	22	0	299892736	70	4467
2026-01-13 02:12:57.29	20.80	17.64	-52.1	-54.0	15.0	0.00e+00	0	22	0	301989888	70	4461
2026-01-13 02:12:58.29	20.70	17.74	-52.1	-54.1	15.0	0.00e+00	0	23	0	303038464	70	4513
2026-01-13 02:12:59.29	20.60	17.85	-52.2	-54.2	14.9	0.00e+00	0	23	0	305135616	70	4546
2026-01-13 02:13:00.29	20.50	17.96	-52.2	-54.2	14.9	0.00e+00	0	22	0	307232768	70	4547
2026-01-13 02:13:01.28	20.40	18.07	-52.1	-54.1	15.0	0.00e+00	0	22	0	309329920	70	4512
2026-01-13 02:13:02.28	20.30	18.18	-52.1	-54.0	15.0	0.00e+00	0	23	0	311427072	70	4458
2026-01-13 02:13:03.27	20.20	18.28	-52.2	-54.1	14.9	0.00e+00	0	23	0	312475648	70	4544
2026-01-13 02:13:04.27	20.09	18.39	-52.2	-54.2	14.9	0.00e+00	0	23	0	314572800	70	4572
2026-01-13 02:13:05.26	19.99	18.50	-52.2	-54.2	14.9	0.00e+00	0	23	0	316669952	70	4568
2026-01-13 02:13:06.26	19.88	18.61	-52.3	-54.2	14.9	0.00e+00	0	23	0	318767104	70	4598
2026-01-13 02:13:07.26	19.78	18.72	-52.3	-54.3	14.8	0.00e+00	0	23	0	319815680	70	4611
2026-01-13 02:13:08.26	19.67	18.83	-52.1	-54.1	14.9	0.00e+00	0	23	0	321912832	70	4514
2026-01-13 02:13:09.26	19.57	18.95	-52.2	-54.2	14.9	0.00e+00	0	23	0	324009984	70	4548
2026-01-13 02:13:10.26	19.46	19.06	-52.1	-54.1	15.0	0.00e+00	0	23	0	326107136	70	4511
2026-01-13 02:13:11.26	19.35	19.17	-52.2	-54.2	14.9	0.00e+00	0	23	0	328204288	70	4574
2026-01-13 02:13:12.25	19.24	19.28	-52.2	-54.2	14.9	0.00e+00	0	23	0	329252864	70	4574
2026-01-13 02:13:13.25	19.13	19.39	-52.2	-54.2	14.9	0.00e+00	0	23	0	331350016	70	4565
2026-01-13 02:13:14.24	19.02	19.51	-52.3	-54.3	14.9	0.00e+00	0	22	0	333447168	70	4611
2026-01-13 02:13:15.24	18.91	19.62	-52.3	-54.3	14.8	0.00e+00	0	23	0	335544320	70	4634
2026-01-13 02:13:16.23	18.80	19.73	-52.2	-54.2	14.9	0.00e+00	0	23	0	337641472	70	4585
2026-01-13 02:13:17.23	18.68	19.85	-52.3	-54.3	14.9	0.00e+00	0	23	0	338690048	70	4610
2026-01-13 02:13:18.23	18.57	19.96	-52.3	-54.3	14.8	0.00e+00	0	23	0	340787200	70	4633
2026-01-13 02:13:19.23	18.45	20.08	-52.3	-54.3	14.8	0.00e+00	0	23	0	342884352	70	4627
2026-01-13 02:13:20.22	18.34	20.19	-52.3	-54.4	14.8	0.00e+00	0	23	0	344981504	70	4660
2026-01-13 02:13:21.22	18.22	20.31	-52.5	-54.5	14.7	0.00e+00	0	23	0	346030080	70	4758
2026-01-13 02:13:22.21	18.10	20.43	-52.4	-54.4	14.8	0.00e+00	0	23	0	348127232	70	4692
2026-01-13 02:13:23.21	17.99	20.54	-52.4	-54.5	14.7	0.00e+00	0	23	0	350224384	70	4714
2026-01-13 02:13:24.21	17.87	20.66	-52.4	-54.4	14.7	0.00e+00	0	23	0	352321536	70	4697
2026-01-13 02:13:25.21	17.74	20.78	-52.4	-54.5	14.7	0.00e+00	0	23	0	354418688	70	4728
2026-01-13 02:13:26.20	17.62	20.90	-52.4	-54.4	14.8	0.00e+00	0	23	0	355467264	70	4682
2026-01-13 02:13:27.20	17.50	21.02	-52.3	-54.3	14.8	0.00e+00	0	23	0	357564416	70	4625
2026-01-13 02:13:28.20	17.38	21.13	-52.4	-54.4	14.8	0.00e+00	0	23	0	359661568	70	4658
2026-01-13 02:13:29.20	17.25	21.25	-52.3	-54.3	14.9	0.00e+00	0	23	0	361758720	70	4618
2026-01-13 02:13:30.20	17.13	21.37	-52.3	-54.3	14.9	0.00e+00	0	23	0	362807296	70	4613
2026-01-13 02:13:31.20	17.00	21.50	-52.4	-54.4	14.8	0.00e+00	0	23	0	364904448	70	4663
2026-01-13 02:13:32.20	16.87	21.62	-52.2	-54.2	14.9	0.00e+00	0	23	0	367001600	70	4585
2026-01-13 02:13:33.20	16.74	21.74	-52.2	-54.2	14.9	0.00e+00	0	23	0	369098752	70	4562
2026-01-13 02:13:34.19	16.61	21.86	-52.2	-54.1	14.9	0.00e+00	0	23	0	371195904	70	4543
2026-01-13 02:13:35.19	16.48	21.98	-52.3	-54.2	14.9	0.00e+00	0	23	0	372244480	70	4591
2026-01-13 02:13:36.19	16.35	22.10	-52.2	-54.1	15.0	0.00e+00	0	23	0	374341632	70	4516
2026-01-13 02:13:37.19	16.22	22.23	-52.2	-54.1	15.0	0.00e+00	0	23	0	376438784	70	4518
2026-01-13 02:13:38.19	16.08	22.35	-52.3	-54.3	14.9	0.00e+00	0	23	0	378535936	70	4603
2026-01-13 02:13:39.18	15.95	22.47	-52.3	-54.2	14.9	0.00e+00	0	23	0	380633088	70	4583
2026-01-13 02:13:40.17	15.81	22.60	-52.1	-54.1	15.0	0.00e+00	0	23	0	381681664	70	4503
2026-01-13 02:13:41.17	15.68	22.72	-52.2	-54.1	15.0	0.00e+00	0	23	0	383778816	70	4518
2026-01-13 02:13:42.16	15.54	22.84	-52.1	-54.1	15.0	0.00e+00	0	23	0	385875968	70	4495
2026-01-13 02:13:43.16	15.40	22.97	-52.2	-54.1	14.9	0.00e+00	0	23	0	387973120	70	4534
2026-01-13 02:13:44.16	15.26	23.10	-52.3	-54.2	14.9	0.00e+00	0	23	0	389021696	70	4587
2026-01-13 02:13:45.16	15.12	23.22	-52.4	-54.4	14.8	0.00e+00	0	23	0	391118848	70	4657
2026-01-13 02:13:46.15	14.97	23.35	-52.4	-54.4	14.8	0.00e+00	0	23	0	393216000	70	4689
2026-01-13 02:13:47.15	14.83	23.48	-52.4	-54.4	14.8	0.00e+00	0	23	0	395313152	70	4662
2026-01-13 02:13:48.15	14.68	23.60	-52.3	-54.2	14.9	0.00e+00	0	23	0	397410304	70	4571
2026-01-13 02:13:49.15	14.54	23.73	-52.3	-54.3	14.9	0.00e+00	0	23	0	398458880	70	4618
2026-01-13 02:13:50.15	14.39	23.86	-52.3	-54.2	14.9	0.00e+00	0	23	0	400556032	70	4594
2026-01-13 02:13:51.15	14.24	23.99	-52.3	-54.2	14.9	0.00e+00	0	23	0	402653184	70	4577
2026-01-13 02:13:52.15	14.09	24.12	-52.3	-54.3	14.8	0.00e+00	0	23	0	404750336	70	4637
2026-01-13 02:13:53.15	13.94	24.25	-52.3	-54.3	14.9	0.00e+00	0	23	0	405798912	70	4599
2026-01-13 02:13:54.16	13.78	24.38	-52.4	-54.4	14.8	0.00e+00	0	23	0	407896064	70	4655
2026-01-13 02:13:55.16	13.63	24.51	-52.5	-54.6	14.7	0.00e+00	0	23	0	409993216	70	4760
2026-01-13 02:13:56.16	13.47	24.64	-52.5	-54.5	14.8	0.00e+00	0	23	0	412090368	70	4717
2026-01-13 02:13:57.15	13.32	24.77	-52.5	-54.6	14.7	0.00e+00	0	23	0	414187520	70	4791
2026-01-13 02:13:58.15	13.16	24.90	-52.5	-54.6	14.7	0.00e+00	0	23	0	415236096	70	4764
2026-01-13 02:13:59.14	13.00	25.03	-52.5	-54.5	14.7	0.00e+00	0	23	0	417333248	70	4756
2026-01-13 02:14:00.14	12.84	25.17	-52.4	-54.4	14.8	0.00e+00	0	23	0	419430400	70	4666
2026-01-13 02:14:01.14	12.67	25.30	-52.4	-54.4	14.8	0.00e+00	0	23	0	421527552	70	4683
2026-01-13 02:14:02.14	12.51	25.43	-52.4	-54.4	14.8	0.00e+00	0	23	0	423624704	70	4691
2026-01-13 02:14:03.13	12.35	25.57	-52.5	-54.6	14.7	0.00e+00	0	23	0	424673280	70	4793
2026-01-13 02:14:04.13	12.18	25.70	-52.7	-54.7	14.6	0.00e+00	0	23	0	426770432	70	4864
2026-01-13 02:14:05.12	12.01	25.83	-52.5	-54.5	14.7	0.00e+00	0	23	0	428867584	70	4754
2026-01-13 02:14:06.11	11.84	25.97	-52.5	-54.5	14.8	0.00e+00	0	23	0	430964736	70	4712
2026-01-13 02:14:07.11	11.67	26.10	-52.5	-54.5	14.8	0.00e+00	0	23	0	432013312	70	4735
2026-01-13 02:14:08.11	11.50	26.24	-52.5	-54.6	14.7	0.00e+00	0	23	0	434110464	70	4770
2026-01-13 02:14:09.10	11.33	26.38	-52.4	-54.5	14.8	0.00e+00	0	23	0	436207616	70	4709
2026-01-13 02:14:10.10	11.15	26.51	-52.4	-54.5	14.8	0.00e+00	0	23	0	438304768	70	4710
2026-01-13 02:14:11.09	10.98	26.65	-52.5	-54.5	14.8	0.00e+00	0	23	0	440401920	70	4721
2026-01-13 02:14:12.09	10.80	26.79	-52.5	-54.5	14.8	0.00e+00	0	23	0	441450496	70	4712
2026-01-13 02:14:13.08	10.62	26.92	-52.5	-54.5	14.7	0.00e+00	0	23	0	443547648	70	4748
2026-01-13 02:14:14.07	10.44	27.06	-52.6	-54.7	14.7	0.00e+00	0	23	0	445644800	70	4816
2026-01-13 02:14:15.07	10.25	27.20	-52.6	-54.6	14.7	0.00e+00	0	23	0	447741952	70	4809
2026-01-13 02:14:16.06	10.07	27.34	-52.7	-54.7	14.6	0.00e+00	0	23	0	448790528	70	4865
2026-01-13 02:14:17.06	9.88	27.48	-52.6	-54.7	14.7	0.00e+00	0	23	0	450887680	70	4817
2026-01-13 02:14:18.06	9.69	27.61	-52.6	-54.7	14.6	0.00e+00	0	23	0	452984832	70	4838
2026-01-13 02:14:19.06	9.50	27.76	-52.7	-54.7	14.6	0.00e+00	0	23	0	455081984	70	4860
2026-01-13 02:14:20.06	9.31	27.90	-52.7	-54.7	14.6	0.00e+00	0	23	0	457179136	70	4844
2026-01-13 02:14:21.05	9.12	28.04	-52.7	-54.8	14.6	0.00e+00	0	23	0	458227712	70	4906
2026-01-13 02:14:22.05	8.92	28.18	-52.8	-54.9	14.5	0.00e+00	0	23	0	460324864	70	4958
2026-01-13 02:14:22.93	8.75	28.30	-52.8	-55.0	14.5	0.00e+00	0	23	0	462422016	70	4990
2026-01-13 02:14:24.07	8.52	28.46	-52.9	-55.1	14.4	0.00e+00	0	23	0	464519168	70	5063
2026-01-13 02:14:24.93	8.35	28.58	-53.0	-55.2	14.5	0.00e+00	0	23	0	466616320	71	4824
2026-01-13 02:14:26.07	8.12	28.75	-53.1	-55.3	14.5	0.00e+00	0	23	0	468713472	71	4882
2026-01-13 02:14:26.93	7.94	28.87	-53.3	-55.6	14.3	0.00e+00	0	23	0	469762048	71	5044
2026-01-13 02:14:28.07	7.71	29.03	-53.4	-55.7	14.2	0.00e+00	0	23	0	471859200	71	5157
2026-01-13 02:14:28.92	7.53	29.16	-53.5	-55.9	14.2	0.00e+00	0	23	0	473956352	72	4943
2026-01-13 02:14:30.06	7.29	29.32	-53.6	-56.1	14.2	0.00e+00	0	23	0	476053504	72	5044
2026-01-13 02:14:30.91	7.11	29.44	-53.7	-56.2	14.1	0.00e+00	0	23	0	477102080	72	5113
2026-01-13 02:14:32.05	6.87	29.61	-53.8	-56.3	14.0	0.00e+00	0	22	0	479199232	72	5194
2026-01-13 02:14:32.90	6.69	29.73	-54.0	-56.5	14.0	0.00e+00	0	23	0	481296384	73	5027
2026-01-13 02:14:34.03	6.44	29.89	-54.1	-56.7	13.9	0.00e+00	0	23	0	483393536	73	5117
2026-01-13 02:14:34.90	6.25	30.02	-54.2	-56.8	13.8	0.00e+00	0	23	0	484442112	73	5217
2026-01-13 02:14:36.04	6.00	30.19	-54.5	-57.3	13.5	0.00e+00	0	22	0	486539264	74	5173
2026-01-13 02:14:36.90	5.80	30.31	-54.5	-57.4	13.6	0.00e+00	0	23	0	488636416	74	5231
2026-01-13 02:14:38.04	5.55	30.48	-54.8	-57.8	13.3	0.00e+00	0	23	0	490733568	74	5492
2026-01-13 02:14:38.89	5.35	30.60	-54.8	-57.8	13.3	0.00e+00	0	23	0	491782144	74	5474
2026-01-13 02:14:40.04	5.09	30.77	-54.8	-57.9	13.2	0.00e+00	0	23	0	494927872	74	5542
2026-01-13 02:14:40.90	4.89	30.90	-54.9	-58.0	13.3	0.00e+00	0	23	0	495976448	75	5291
2026-01-13 02:14:42.04	4.62	31.06	-55.0	-58.2	13.2	0.00e+00	0	23	0	498073600	75	5421
2026-01-13 02:14:42.89	4.42	31.19	-55.1	-58.4	13.1	0.00e+00	0	23	0	500170752	75	5555
2026-01-13 02:14:44.04	4.14	31.36	-55.1	-58.4	13.0	0.00e+00	0	23	0	502267904	75	5564
2026-01-13 02:14:44.89	3.94	31.48	-55.1	-58.3	13.0	0.00e+00	0	23	0	503316480	75	5525
2026-01-13 02:14:46.03	3.66	31.65	-54.9	-57.9	13.4	0.00e+00	0	23	0	505413632	75	5224
2026-01-13 02:14:46.89	3.45	31.78	-54.9	-57.9	13.4	0.00e+00	0	23	0	507510784	75	5265
2026-01-13 02:14:48.02	3.17	31.94	-54.7	-57.6	13.5	0.00e+00	0	23	0	509607936	75	5084
2026-01-13 02:14:48.88	2.96	32.07	-54.6	-57.5	13.7	0.00e+00	0	23	0	510656512	75	4988
2026-01-13 02:14:50.02	2.67	32.24	-54.5	-57.3	13.8	0.00e+00	0	23	0	512753664	75	4911
2026-01-13 02:14:50.88	2.45	32.37	-54.6	-57.4	13.7	0.00e+00	0	23	0	514850816	75	4956
2026-01-13 02:14:52.03	2.15	32.54	-54.6	-57.4	13.7	0.00e+00	0	23	0	516947968	75	4956
2026-01-13 02:14:52.89	1.93	32.66	-54.7	-57.5	13.6	0.00e+00	0	23	0	519045120	75	5038
2026-01-13 02:14:54.03	1.63	32.83	-54.8	-57.7	13.5	0.00e+00	0	23	0	521142272	75	5137
2026-01-13 02:14:54.88	1.41	32.96	-54.6	-57.5	13.7	0.00e+00	0	23	0	522190848	75	5017
2026-01-13 02:14:56.02	1.10	33.13	-54.6	-57.4	13.8	0.00e+00	0	23	0	524288000	75	4954
2026-01-13 02:14:56.88	0.87	33.26	-54.6	-57.4	13.8	0.00e+00	0	23	0	526385152	75	4973
2026-01-13 02:14:58.02	0.56	33.43	-54.6	-57.4	13.8	0.00e+00	0	23	0	528482304	75	4944
2026-01-13 02:14:58.86	0.33	33.55	-54.6	-57.4	13.8	0.00e+00	0	23	0	529530880	75	4949
2026-01-13 02:15:00.00	0.02	33.72	-54.7	-57.6	13.6	0.00e+00	0	23	0	531628032	75	5084
2026-01-13 02:15:00.85	359.78	33.84	-54.6	-57.4	13.7	0.00e+00	0	23	0	533725184	75	4970
2026-01-13 02:15:02.00	359.46	34.02	-54.5	-57.3	13.9	0.00e+00	0	22	0	535822336	75	4879
2026-01-13 02:15:02.86	359.21	34.14	-54.3	-56.9	14.1	0.00e+00	0	23	0	536870912	75	4694
2026-01-13 02:15:04.00	358.88	34.31	-54.1	-56.6	14.2	0.00e+00	0	23	0	538968064	74	4772
2026-01-13 02:15:04.86	358.64	34.44	-53.9	-56.3	14.3	0.00e+00	0	23	0	541065216	74	4639
2026-01-13 02:15:06.00	358.30	34.61	-53.8	-56.1	14.5	0.00e+00	0	23	0	543162368	74	4523
2026-01-13 02:15:06.86	358.05	34.73	-53.7	-56.0	14.4	0.00e+00	0	23	0	545259520	73	4718
2026-01-13 02:15:08.00	357.71	34.90	-53.3	-55.4	14.7	0.00e+00	0	23	0	547356672	73	4440
2026-01-13 02:15:08.85	357.45	35.03	-53.3	-55.4	14.8	0.00e+00	0	23	0	548405248	73	4437
2026-01-13 02:15:09.99	357.11	35.19	-53.3	-55.5	14.7	0.00e+00	0	23	0	550502400	73	4460
2026-01-13 02:15:10.84	356.85	35.32	-53.3	-55.5	14.6	0.00e+00	0	23	0	552599552	73	4454
2026-01-13 02:15:11.98	356.50	35.49	-53.3	-55.5	14.7	0.00e+00	0	23	0	554696704	73	4470
2026-01-13 02:15:12.83	356.23	35.61	-53.4	-55.5	14.6	0.00e+00	0	23	0	555745280	73	4491
2026-01-13 02:15:13.98	355.87	35.78	-53.1	-55.2	14.7	0.00e+00	0	23	0	557842432	72	4564
2026-01-13 02:15:14.84	355.60	35.90	-52.9	-54.9	14.9	0.00e+00	0	23	0	559939584	72	4398
2026-01-13 02:15:15.97	355.24	36.07	-53.0	-55.0	14.8	0.00e+00	0	23	0	562036736	72	4493
2026-01-13 02:15:16.83	354.96	36.19	-53.0	-55.1	14.8	0.00e+00	0	23	0	563085312	72	4504
2026-01-13 02:15:17.97	354.59	36.35	-53.1	-55.2	14.7	0.00e+00	0	23	0	565182464	72	4572
2026-01-13 02:15:18.82	354.31	36.48	-53.2	-55.4	14.7	0.00e+00	0	23	0	567279616	72	4654
2026-01-13 02:15:19.96	353.93	36.64	-53.3	-55.6	14.5	0.00e+00	0	23	0	569376768	72	4765
2026-01-13 02:15:20.81	353.65	36.76	-53.4	-55.7	14.4	0.00e+00	0	23	0	570425344	72	4854
2026-01-13 02:15:21.95	353.26	36.92	-53.4	-55.6	14.5	0.00e+00	0	23	0	573571072	72	4779
2026-01-13 02:15:22.80	352.97	37.05	-53.4	-55.7	14.5	0.00e+00	0	23	0	574619648	72	4826
2026-01-13 02:15:23.95	352.58	37.21	-53.3	-55.4	14.6	0.00e+00	0	23	0	576716800	72	4681
2026-01-13 02:15:24.81	352.28	37.33	-53.3	-55.5	14.5	0.00e+00	0	23	0	578813952	72	4750
2026-01-13 02:15:25.94	351.88	37.49	-53.4	-55.6	14.5	0.00e+00	0	23	0	580911104	72	4785
2026-01-13 02:15:26.80	351.58	37.61	-53.5	-55.8	14.4	0.00e+00	0	23	0	581959680	72	4881
2026-01-13 02:15:27.94	351.18	37.77	-53.6	-55.9	14.3	0.00e+00	0	23	0	584056832	72	4952
2026-01-13 02:15:28.79	350.87	37.88	-53.6	-55.9	14.2	0.00e+00	0	23	0	586153984	72	4951
2026-01-13 02:15:29.94	350.45	38.04	-53.5	-55.8	14.4	0.00e+00	0	23	0	588251136	72	4898
2026-01-13 02:15:30.79	350.14	38.16	-53.4	-55.6	14.4	0.00e+00	0	23	0	589299712	72	4782
2026-01-13 02:15:31.93	349.73	38.31	-53.5	-55.8	14.4	0.00e+00	0	23	0	591396864	72	4899
2026-01-13 02:15:32.79	349.41	38.43	-53.5	-55.7	14.4	0.00e+00	0	23	0	593494016	72	4839
2026-01-13 02:15:33.94	348.98	38.58	-53.8	-56.2	14.2	0.00e+00	0	23	0	595591168	72	5126
2026-01-13 02:15:34.79	348.66	38.70	-53.9	-56.4	14.0	0.00e+00	0	23	0	596639744	72	5228
2026-01-13 02:15:35.93	348.22	38.85	-53.9	-56.3	14.2	0.00e+00	0	23	0	598736896	73	4926
2026-01-13 02:15:36.78	347.90	38.96	-53.9	-56.3	14.2	0.00e+00	0	23	0	600834048	73	4891
2026-01-13 02:15:37.93	347.45	39.11	-53.8	-56.1	14.4	0.00e+00	0	23	0	602931200	73	4784
2026-01-13 02:15:38.79	347.12	39.22	-54.0	-56.4	14.2	0.00e+00	0	23	0	605028352	73	4953
2026-01-13 02:15:39.93	346.67	39.37	-53.7	-56.0	14.4	0.00e+00	0	23	0	607125504	73	4753
2026-01-13 02:15:40.80	346.32	39.48	-53.8	-56.1	14.3	0.00e+00	0	23	0	608174080	73	4806
2026-01-13 02:15:41.94	345.87	39.62	-53.6	-55.9	14.5	0.00e+00	0	23	0	610271232	73	4654
2026-01-13 02:15:42.80	345.52	39.73	-53.4	-55.6	14.6	0.00e+00	0	23	0	612368384	73	4542
2026-01-13 02:15:43.95	345.06	39.87	-53.2	-55.3	14.9	0.00e+00	0	23	0	614465536	73	4356
2026-01-13 02:15:44.80	344.71	39.97	-53.0	-55.0	14.8	0.00e+00	0	23	0	615514112	72	4484
2026-01-13 02:15:45.93	344.25	40.11	-52.9	-54.9	14.9	0.00e+00	0	23	0	617611264	72	4423
2026-01-13 02:15:46.78	343.89	40.21	-52.9	-54.9	15.0	0.00e+00	0	23	0	619708416	72	4400
2026-01-13 02:15:47.92	343.42	40.35	-52.8	-54.8	15.0	0.00e+00	0	23	0	621805568	72	4353
2026-01-13 02:15:48.78	343.06	40.45	-52.5	-54.4	15.1	0.00e+00	0	23	0	622854144	71	4399
2026-01-13 02:15:49.92	342.57	40.58	-52.4	-54.2	15.2	0.00e+00	0	23	0	625999872	71	4323
2026-01-13 02:15:50.78	342.21	40.68	-52.2	-54.0	15.3	0.00e+00	0	23	0	627048448	71	4226
2026-01-13 02:15:51.93	341.71	40.81	-52.1	-53.9	15.2	0.00e+00	0	23	0	629145600	70	4436
2026-01-13 02:15:52.78	341.34	40.91	-52.1	-53.8	15.2	0.00e+00	0	23	0	631242752	70	4390
2026-01-13 02:15:53.92	340.85	41.03	-52.3	-54.1	15.0	0.00e+00	0	23	0	633339904	70	4533
2026-01-13 02:15:54.79	340.46	41.13	-52.4	-54.2	15.0	0.00e+00	0	23	0	634388480	70	4580
2026-01-13 02:15:55.93	339.96	41.25	-52.0	-53.8	15.2	0.00e+00	0	23	0	636485632	70	4345
2026-01-13 02:15:56.79	339.58	41.34	-52.0	-53.8	15.2	0.00e+00	0	23	0	638582784	70	4348
2026-01-13 02:15:57.93	339.07	41.46	-52.1	-53.9	15.2	0.00e+00	0	23	0	640679936	70	4414
2026-01-13 02:15:58.79	338.68	41.55	-52.4	-54.2	15.0	0.00e+00	0	23	0	641728512	70	4580
2026-01-13 02:15:59.93	338.16	41.66	-52.7	-54.7	14.7	0.00e+00	0	23	0	643825664	70	4848
2026-01-13 02:16:00.79	337.77	41.74	-52.8	-54.9	14.6	0.00e+00	0	23	0	645922816	70	4929
2026-01-13 02:16:01.92	337.25	41.85	-53.0	-55.1	14.7	0.00e+00	0	23	0	648019968	71	4764
2026-01-13 02:16:02.78	336.86	41.94	-53.0	-55.1	14.7	0.00e+00	0	23	0	650117120	71	4772
2026-01-13 02:16:03.92	336.33	42.04	-52.9	-55.0	14.7	0.00e+00	0	23	0	652214272	71	4717
2026-01-13 02:16:04.77	335.93	42.12	-52.7	-54.7	14.9	0.00e+00	0	23	0	653262848	71	4557
2026-01-13 02:16:05.91	335.39	42.22	-52.5	-54.4	15.0	0.00e+00	0	23	0	655360000	71	4436
2026-01-13 02:16:06.76	334.99	42.29	-52.4	-54.2	15.2	0.00e+00	0	23	0	657457152	71	4338
2026-01-13 02:16:07.90	334.45	42.39	-52.0	-53.8	15.2	0.00e+00	0	23	0	659554304	70	4364
2026-01-13 02:16:08.76	334.04	42.46	-52.1	-53.9	15.2	0.00e+00	0	23	0	660602880	70	4427
2026-01-13 02:16:09.90	333.49	42.56	-52.3	-54.1	15.0	0.00e+00	0	23	0	662700032	70	4537
2026-01-13 02:16:10.75	333.08	42.62	-52.5	-54.4	14.9	0.00e+00	0	23	0	664797184	70	4660
2026-01-13 02:16:11.89	332.53	42.71	-52.6	-54.6	14.8	0.00e+00	0	23	0	666894336	70	4777
2026-01-13 02:16:12.74	332.12	42.77	-52.6	-54.5	14.8	0.00e+00	0	23	0	667942912	70	4747
2026-01-13 02:16:13.88	331.56	42.86	-52.3	-54.2	15.0	0.00e+00	0	23	0	670040064	70	4558
2026-01-13 02:16:14.74	331.14	42.92	-52.3	-54.1	15.0	0.00e+00	0	23	0	672137216	70	4513
2026-01-13 02:16:15.88	330.57	42.99	-52.3	-54.1	15.0	0.00e+00	0	23	0	674234368	70	4535
2026-01-13 02:16:16.73	330.15	43.05	-52.3	-54.1	15.1	0.00e+00	0	23	0	675282944	70	4545
2026-01-13 02:16:17.88	329.58	43.12	-52.1	-53.9	15.2	0.00e+00	0	23	0	678428672	70	4429
2026-01-13 02:16:18.73	329.16	43.17	-52.0	-53.8	15.3	0.00e+00	0	23	0	679477248	70	4347
2026-01-13 02:16:19.87	328.58	43.24	-52.0	-53.8	15.3	0.00e+00	0	23	0	681574400	70	4344
2026-01-13 02:16:20.73	328.15	43.29	-52.0	-53.7	15.3	0.00e+00	0	23	0	683671552	70	4300
2026-01-13 02:16:21.87	327.58	43.35	-51.9	-53.6	15.4	0.00e+00	0	23	0	685768704	70	4256
2026-01-13 02:16:22.73	327.14	43.40	-52.1	-53.8	15.2	0.00e+00	0	23	0	686817280	70	4391
2026-01-13 02:16:23.87	326.56	43.45	-52.3	-54.1	15.1	0.00e+00	0	23	0	688914432	70	4528
2026-01-13 02:16:24.72	326.13	43.49	-52.3	-54.1	15.0	0.00e+00	0	23	0	691011584	70	4535
2026-01-13 02:16:25.86	325.54	43.54	-52.3	-54.1	15.0	0.00e+00	0	23	0	693108736	70	4543
2026-01-13 02:16:26.72	325.10	43.58	-52.3	-54.1	15.1	0.00e+00	0	23	0	694157312	70	4523
2026-01-13 02:16:27.86	324.52	43.62	-52.4	-54.3	14.9	0.00e+00	0	23	0	696254464	70	4624
2026-01-13 02:16:28.72	324.08	43.65	-52.5	-54.4	14.9	0.00e+00	0	23	0	698351616	70	4674
2026-01-13 02:16:29.87	323.48	43.69	-52.6	-54.5	14.8	0.00e+00	0	23	0	700448768	70	4743
2026-01-13 02:16:30.72	323.04	43.72	-52.8	-54.8	14.7	0.00e+00	0	23	0	701497344	70	4871
2026-01-13 02:16:31.87	322.45	43.75	-53.0	-55.0	14.7	0.00e+00	0	23	0	704643072	71	4736
2026-01-13 02:16:32.73	322.00	43.77	-53.1	-55.1	14.6	0.00e+00	0	23	0	705691648	71	4812
2026-01-13 02:16:33.87	321.41	43.80	-52.9	-54.9	14.8	0.00e+00	0	23	0	707788800	71	4672
2026-01-13 02:16:34.73	320.96	43.82	-52.9	-54.9	14.8	0.00e+00	0	23	0	709885952	71	4703
2026-01-13 02:16:35.87	320.36	43.84	-52.7	-54.6	14.9	0.00e+00	0	23	0	711983104	71	4513
2026-01-13 02:16:36.73	319.92	43.85	-52.6	-54.5	15.0	0.00e+00	0	23	0	713031680	71	4473
2026-01-13 02:16:37.86	319.32	43.87	-52.6	-54.6	15.0	0.00e+00	0	23	0	715128832	71	4495
2026-01-13 02:16:38.72	318.88	43.88	-52.7	-54.7	14.9	0.00e+00	0	23	0	717225984	71	4547
2026-01-13 02:16:39.86	318.28	43.88	-53.1	-55.2	14.6	0.00e+00	0	23	0	719323136	71	4835
2026-01-13 02:16:40.71	317.83	43.89	-53.4	-55.5	14.4	0.00e+00	0	23	0	720371712	71	5040
2026-01-13 02:16:41.85	317.24	43.89	-53.6	-55.9	14.4	0.00e+00	0	23	0	722468864	72	4951
2026-01-13 02:16:42.71	316.79	43.89	-53.6	-55.9	14.3	0.00e+00	0	23	0	724566016	72	4944
2026-01-13 02:16:43.85	316.19	43.89	-53.6	-55.9	14.3	0.00e+00	0	23	0	726663168	72	4948
2026-01-13 02:16:44.71	315.74	43.88	-53.8	-56.1	14.2	0.00e+00	0	23	0	728760320	72	5053
2026-01-13 02:16:45.85	315.14	43.87	-53.9	-56.2	14.3	0.00e+00	0	23	0	730857472	73	4858
2026-01-13 02:16:46.71	314.69	43.86	-53.9	-56.2	14.3	0.00e+00	0	23	0	731906048	73	4849
2026-01-13 02:16:47.86	314.09	43.85	-53.7	-56.0	14.4	0.00e+00	0	23	0	734003200	73	4716
2026-01-13 02:16:48.70	313.66	43.83	-53.6	-55.8	14.6	0.00e+00	0	23	0	736100352	73	4599
2026-01-13 02:16:49.85	313.06	43.81	-53.6	-55.9	14.6	0.00e+00	0	23	0	738197504	73	4657
2026-01-13 02:16:50.70	312.61	43.79	-53.9	-56.3	14.3	0.00e+00	0	23	0	739246080	73	4874
2026-01-13 02:16:51.84	312.02	43.76	-54.3	-56.8	13.9	0.00e+00	0	23	0	741343232	73	5216
2026-01-13 02:16:52.69	311.58	43.74	-54.7	-57.4	13.7	0.00e+00	0	23	0	743440384	74	5265
2026-01-13 02:16:53.83	310.99	43.71	-54.8	-57.6	13.6	0.00e+00	0	23	0	745537536	74	5376
2026-01-13 02:16:54.69	310.54	43.68	-55.0	-57.9	13.5	0.00e+00	0	23	0	746586112	75	5266
2026-01-13 02:16:55.83	309.96	43.64	-55.1	-58.1	13.4	0.00e+00	0	23	0	748683264	75	5348
2026-01-13 02:16:56.69	309.51	43.61	-55.0	-57.8	13.6	0.00e+00	0	23	0	750780416	75	5189
2026-01-13 02:16:57.83	308.93	43.56	-54.7	-57.5	13.8	0.00e+00	0	23	0	752877568	75	4987
2026-01-13 02:16:58.69	308.49	43.52	-54.6	-57.3	14.0	0.00e+00	0	23	0	753926144	75	4879
2026-01-13 02:16:59.83	307.91	43.47	-54.6	-57.3	13.8	0.00e+00	0	23	0	757071872	75	4892
2026-01-13 02:17:00.70	307.46	43.43	-54.6	-57.2	14.0	0.00e+00	0	23	0	758120448	75	4830
2026-01-13 02:17:01.85	306.88	43.37	-54.6	-57.2	14.0	0.00e+00	0	23	0	760217600	75	4845
2026-01-13 02:17:02.70	306.45	43.33	-54.8	-57.6	13.7	0.00e+00	0	23	0	762314752	75	5068
2026-01-13 02:17:03.84	305.87	43.27	-55.2	-58.2	13.3	0.00e+00	0	23	0	764411904	75	5462
2026-01-13 02:17:04.69	305.45	43.22	-55.3	-58.4	13.2	0.00e+00	0	23	0	765460480	75	5569
2026-01-13 02:17:05.83	304.87	43.15	-55.6	-58.9	13.0	0.00e+00	0	23	0	767557632	76	5532
2026-01-13 02:17:06.69	304.44	43.10	-55.7	-59.0	12.9	0.00e+00	0	23	0	769654784	76	5636
2026-01-13 02:17:07.83	303.88	43.02	-55.4	-58.5	13.3	7.00e-07	0	23	0	771751936	76	5301
2026-01-13 02:17:08.69	303.45	42.97	-55.1	-58.0	13.7	0.00e+00	0	23	0	772800512	76	5026
2026-01-13 02:17:09.82	302.90	42.89	-55.0	-57.7	13.9	0.00e+00	0	23	0	774897664	76	4849
2026-01-13 02:17:10.68	302.47	42.83	-54.8	-57.5	14.0	0.00e+00	0	23	0	776994816	76	4721
2026-01-13 02:17:11.82	301.92	42.74	-54.8	-57.4	14.1	0.00e+00	0	23	0	779091968	76	4663
2026-01-13 02:17:12.67	301.50	42.68	-54.5	-57.1	14.1	0.00e+00	0	23	0	781189120	75	4784
2026-01-13 02:17:13.81	300.95	42.59	-54.2	-56.6	14.5	0.00e+00	0	23	0	783286272	75	4509
2026-01-13 02:17:14.66	300.54	42.52	-54.2	-56.6	14.3	0.00e+00	0	23	0	784334848	75	4535
2026-01-13 02:17:15.81	299.99	42.43	-54.1	-56.6	14.2	0.00e+00	0	23	0	786432000	74	4762
2026-01-13 02:17:16.66	299.59	42.36	-53.9	-56.1	14.5	0.00e+00	0	23	0	788529152	74	4538
2026-01-13 02:17:17.79	299.05	42.26	-53.3	-55.4	14.9	0.00e+00	0	23	0	790626304	73	4412
2026-01-13 02:17:18.65	298.64	42.18	-53.0	-54.9	15.0	0.00e+00	0	23	0	791674880	72	4436
2026-01-13 02:17:19.78	298.11	42.08	-52.3	-54.1	15.2	0.00e+00	0	23	0	793772032	71	4248
2026-01-13 02:17:20.63	297.72	42.00	-52.0	-53.8	15.3	0.00e+00	0	23	0	795869184	70	4344
2026-01-13 02:17:21.77	297.19	41.90	-52.2	-54.0	15.1	0.00e+00	0	23	0	797966336	70	4478
2026-01-13 02:17:22.63	296.79	41.81	-52.6	-54.5	14.9	0.00e+00	0	23	0	799014912	70	4715
2026-01-13 02:17:23.77	296.27	41.70	-52.8	-54.8	14.7	0.00e+00	0	23	0	801112064	70	4883
2026-01-13 02:17:24.62	295.88	41.62	-52.6	-54.5	14.9	0.00e+00	0	23	0	803209216	70	4739
2026-01-13 02:17:25.76	295.37	41.50	-52.3	-54.2	15.0	0.00e+00	0	23	0	805306368	70	4559
2026-01-13 02:17:26.62	294.98	41.42	-52.0	-53.8	15.2	0.00e+00	0	23	0	806354944	70	4345
2026-01-13 02:17:27.76	294.47	41.30	-51.5	-53.1	15.4	0.00e+00	0	23	0	809500672	69	4275
2026-01-13 02:17:28.61	294.09	41.21	-51.4	-53.0	15.5	0.00e+00	0	23	0	810549248	69	4232
2026-01-13 02:17:29.75	293.59	41.08	-51.5	-53.1	15.4	0.00e+00	0	23	0	812646400	69	4287
2026-01-13 02:17:30.60	293.22	40.99	-51.5	-53.1	15.4	0.00e+00	0	23	0	814743552	69	4259
2026-01-13 02:17:31.74	292.72	40.86	-51.2	-52.8	15.6	0.00e+00	0	23	0	816840704	69	4101
2026-01-13 02:17:32.59	292.35	40.77	-51.1	-52.6	15.5	0.00e+00	0	23	0	817889280	68	4281
2026-01-13 02:17:33.73	291.86	40.64	-51.1	-52.6	15.5	0.00e+00	0	23	0	819986432	68	4283
2026-01-13 02:17:34.59	291.50	40.54	-50.7	-52.3	15.7	0.00e+00	0	23	0	822083584	68	4101
2026-01-13 02:17:35.73	291.01	40.41	-50.3	-51.8	15.7	0.00e+00	0	23	0	824180736	67	4125
2026-01-13 02:17:36.58	290.66	40.31	-50.4	-51.9	15.7	0.00e+00	0	23	0	825229312	67	4146
2026-01-13 02:17:37.73	290.18	40.17	-50.5	-52.0	15.6	0.00e+00	0	23	0	827326464	67	4221
2026-01-13 02:17:38.59	289.82	40.06	-50.6	-52.1	15.6	0.00e+00	0	23	0	829423616	67	4253
2026-01-13 02:17:39.73	289.35	39.93	-50.6	-52.1	15.6	0.00e+00	0	23	0	831520768	67	4264
2026-01-13 02:17:40.60	289.00	39.82	-50.6	-52.1	15.5	0.00e+00	0	23	0	832569344	67	4290
2026-01-13 02:17:41.74	288.54	39.68	-50.7	-52.3	15.5	0.00e+00	0	23	0	834666496	67	4346
2026-01-13 02:17:42.60	288.19	39.57	-50.5	-52.0	15.6	0.00e+00	0	23	0	836763648	67	4235
2026-01-13 02:17:43.75	287.73	39.42	-50.5	-51.9	15.6	0.00e+00	0	23	0	838860800	67	4190
2026-01-13 02:17:44.60	287.40	39.31	-50.4	-51.9	15.7	0.00e+00	0	23	0	840957952	67	4154
2026-01-13 02:17:45.74	286.95	39.17	-50.4	-51.9	15.7	0.00e+00	0	23	0	843055104	67	4166
2026-01-13 02:17:46.60	286.62	39.05	-50.5	-52.0	15.6	0.00e+00	0	23	0	844103680	67	4196
2026-01-13 02:17:47.74	286.18	38.90	-50.6	-52.1	15.6	0.00e+00	0	23	0	846200832	67	4268
2026-01-13 02:17:48.60	285.85	38.79	-50.7	-52.2	15.5	0.00e+00	0	23	0	848297984	67	4336
2026-01-13 02:17:49.75	285.41	38.64	-50.9	-52.5	15.3	0.00e+00	0	23	0	850395136	67	4455
2026-01-13 02:17:50.60	285.09	38.52	-51.0	-52.6	15.3	0.00e+00	0	23	0	851443712	67	4532
2026-01-13 02:17:51.74	284.66	38.37	-51.0	-52.6	15.3	0.00e+00	0	23	0	853540864	67	4515
2026-01-13 02:17:52.59	284.35	38.26	-51.1	-52.7	15.2	0.00e+00	0	23	0	855638016	67	4555
2026-01-13 02:17:53.72	283.93	38.10	-51.3	-53.0	15.1	0.00e+00	0	23	0	857735168	67	4738
2026-01-13 02:17:54.58	283.62	37.98	-51.3	-53.0	15.1	0.00e+00	0	23	0	858783744	67	4736
2026-01-13 02:17:55.72	283.21	37.83	-51.2	-52.9	15.1	0.00e+00	0	23	0	860880896	67	4671
2026-01-13 02:17:56.58	282.90	37.71	-51.3	-52.9	15.1	0.00e+00	0	23	0	862978048	67	4697
2026-01-13 02:17:57.72	282.50	37.55	-51.1	-52.7	15.2	0.00e+00	0	23	0	865075200	67	4592
2026-01-13 02:17:58.56	282.20	37.43	-51.2	-52.8	15.2	0.00e+00	0	23	0	867172352	67	4650
2026-01-13 02:17:59.70	281.80	37.27	-51.3	-53.0	15.1	0.00e+00	0	23	0	869269504	67	4746
2026-01-13 02:18:00.55	281.51	37.15	-51.6	-53.3	15.1	0.00e+00	0	23	0	870318080	68	4624
2026-01-13 02:18:01.70	281.11	36.99	-51.9	-53.6	14.9	0.00e+00	0	23	0	872415232	68	4800
2026-01-13 02:18:02.55	280.83	36.87	-51.9	-53.7	15.0	0.00e+00	0	23	0	874512384	68	4833
2026-01-13 02:18:03.70	280.44	36.70	-51.9	-53.7	15.1	0.00e+00	0	23	0	876609536	69	4552
2026-01-13 02:18:04.56	280.15	36.58	-52.0	-53.7	15.1	0.00e+00	0	23	0	877658112	69	4598
2026-01-13 02:18:05.70	279.77	36.41	-51.9	-53.7	15.1	0.00e+00	0	23	0	879755264	69	4555
2026-01-13 02:18:06.56	279.49	36.29	-52.2	-54.0	14.9	0.00e+00	0	23	0	881852416	69	4757
2026-01-13 02:18:07.70	279.12	36.13	-52.5	-54.4	14.8	0.00e+00	0	23	0	883949568	70	4704
2026-01-13 02:18:08.55	278.85	36.00	-52.5	-54.5	14.8	0.00e+00	0	23	0	884998144	70	4708
2026-01-13 02:18:09.69	278.48	35.84	-52.7	-54.7	14.7	0.00e+00	0	23	0	887095296	70	4835
2026-01-13 02:18:10.54	278.21	35.71	-52.6	-54.6	14.8	0.00e+00	0	23	0	889192448	70	4762
2026-01-13 02:18:11.68	277.86	35.55	-52.6	-54.5	14.8	0.00e+00	0	23	0	891289600	70	4726
2026-01-13 02:18:12.54	277.59	35.42	-52.6	-54.5	14.8	0.00e+00	0	23	0	893386752	70	4755
2026-01-13 02:18:13.68	277.24	35.25	-52.6	-54.6	14.7	0.00e+00	0	23	0	895483904	70	4799
2026-01-13 02:18:14.54	276.97	35.13	-52.7	-54.7	14.7	0.00e+00	0	23	0	896532480	70	4831
2026-01-13 02:18:15.67	276.63	34.96	-52.9	-55.0	14.5	0.00e+00	0	23	0	898629632	71	4730
2026-01-13 02:18:16.53	276.37	34.83	-53.1	-55.3	14.5	0.00e+00	0	23	0	900726784	71	4881
2026-01-13 02:18:17.67	276.04	34.66	-53.3	-55.4	14.4	0.00e+00	0	23	0	902823936	71	4975
2026-01-13 02:18:18.52	275.78	34.54	-53.4	-55.6	14.3	0.00e+00	0	23	0	903872512	71	5062
2026-01-13 02:18:19.66	275.45	34.37	-53.6	-55.9	14.3	0.00e+00	0	23	0	905969664	72	4972
2026-01-13 02:18:20.51	275.21	34.24	-53.7	-56.1	14.2	0.00e+00	0	23	0	908066816	72	5042
2026-01-13 02:18:21.65	274.88	34.08	-53.9	-56.3	14.1	0.00e+00	0	23	0	910163968	72	5183
2026-01-13 02:18:22.50	274.64	33.95	-53.9	-56.3	14.2	0.00e+00	0	23	0	911212544	73	4911
2026-01-13 02:18:23.64	274.32	33.78	-53.9	-56.4	14.2	0.00e+00	0	23	0	913309696	73	4927
2026-01-13 02:18:24.50	274.08	33.65	-54.0	-56.4	14.1	0.00e+00	0	23	0	915406848	73	4976
2026-01-13 02:18:25.63	273.77	33.48	-54.1	-56.6	14.0	0.00e+00	0	23	0	917504000	73	5080
2026-01-13 02:18:26.49	273.53	33.36	-54.3	-56.8	13.9	0.00e+00	0	23	0	918552576	73	5212
2026-01-13 02:18:27.63	273.22	33.19	-54.4	-57.1	13.9	0.00e+00	0	23	0	921698304	74	5061
2026-01-13 02:18:28.49	272.99	33.06	-54.5	-57.1	13.8	0.00e+00	0	23	0	922746880	74	5087
2026-01-13 02:18:29.63	272.69	32.89	-54.4	-57.1	13.8	0.00e+00	0	23	0	924844032	74	5069
2026-01-13 02:18:30.49	272.46	32.76	-54.5	-57.2	13.7	0.00e+00	0	23	0	926941184	74	5158
2026-01-13 02:18:31.63	272.16	32.59	-54.5	-57.2	13.8	0.00e+00	0	23	0	929038336	74	5110
2026-01-13 02:18:32.48	271.94	32.47	-54.5	-57.2	13.8	0.00e+00	0	23	0	930086912	74	5126
2026-01-13 02:18:33.62	271.65	32.30	-54.5	-57.1	13.8	0.00e+00	0	23	0	932184064	74	5076
2026-01-13 02:18:34.48	271.43	32.17	-54.4	-57.1	13.8	0.00e+00	0	23	0	934281216	74	5060
2026-01-13 02:18:35.62	271.14	32.00	-54.5	-57.2	13.7	0.00e+00	0	23	0	936378368	74	5156
2026-01-13 02:18:36.48	270.93	31.87	-54.5	-57.2	13.8	0.00e+00	0	23	0	937426944	74	5103
2026-01-13 02:18:37.62	270.65	31.70	-54.4	-57.1	13.8	0.00e+00	0	23	0	939524096	74	5070
2026-01-13 02:18:38.48	270.44	31.58	-54.4	-57.0	13.9	0.00e+00	0	23	0	941621248	74	5035
2026-01-13 02:18:39.62	270.16	31.41	-54.4	-57.0	13.9	0.00e+00	0	23	0	943718400	74	5025
2026-01-13 02:18:40.47	269.95	31.28	-54.4	-57.1	13.8	0.00e+00	0	23	0	944766976	74	5063
2026-01-13 02:18:41.62	269.68	31.11	-54.5	-57.3	13.7	0.00e+00	0	23	0	947912704	74	5175
2026-01-13 02:18:42.48	269.48	30.99	-54.4	-57.1	13.8	0.00e+00	0	23	0	948961280	74	5084
2026-01-13 02:18:43.62	269.21	30.82	-54.6	-57.3	13.7	0.00e+00	0	23	0	951058432	74	5194
2026-01-13 02:18:44.47	269.01	30.69	-54.5	-57.3	13.7	0.00e+00	0	23	0	953155584	74	5185
2026-01-13 02:18:45.61	268.75	30.53	-54.2	-56.8	14.0	0.00e+00	0	23	0	955252736	74	4909
2026-01-13 02:18:46.46	268.56	30.40	-54.1	-56.5	14.2	0.00e+00	0	23	0	956301312	74	4743
2026-01-13 02:18:47.60	268.30	30.24	-53.9	-56.3	14.4	0.00e+00	0	23	0	958398464	74	4602
2026-01-13 02:18:48.46	268.11	30.11	-53.8	-56.2	14.4	0.00e+00	0	23	0	960495616	74	4575
2026-01-13 02:18:49.60	267.85	29.95	-53.6	-55.9	14.6	0.00e+00	0	23	0	962592768	73	4675
2026-01-13 02:18:50.46	267.67	29.82	-53.5	-55.8	14.5	0.00e+00	0	23	0	963641344	73	4612
2026-01-13 02:18:51.60	267.42	29.65	-53.5	-55.7	14.6	0.00e+00	0	23	0	965738496	73	4598
2026-01-13 02:18:52.45	267.23	29.53	-53.6	-55.9	14.5	0.00e+00	0	23	0	967835648	73	4654
2026-01-13 02:18:53.60	266.99	29.37	-53.5	-55.8	14.5	0.00e+00	0	23	0	969932800	73	4619
2026-01-13 02:18:54.45	266.81	29.24	-53.5	-55.7	14.6	0.00e+00	0	23	0	972029952	73	4583
2026-01-13 02:18:55.59	266.57	29.08	-53.6	-55.9	14.5	0.00e+00	0	23	0	973078528	73	4660
2026-01-13 02:18:56.45	266.39	28.95	-53.5	-55.7	14.6	0.00e+00	0	23	0	975175680	73	4581
2026-01-13 02:18:57.59	266.15	28.79	-53.4	-55.6	14.6	0.00e+00	0	23	0	977272832	73	4504
2026-01-13 02:18:58.45	265.98	28.67	-53.3	-55.4	14.7	0.00e+00	0	23	0	979369984	73	4432
2026-01-13 02:18:59.59	265.75	28.51	-53.1	-55.2	14.7	0.00e+00	0	23	0	981467136	72	4578
2026-01-13 02:19:00.44	265.58	28.38	-53.1	-55.3	14.7	0.00e+00	0	23	0	982515712	72	4604
2026-01-13 02:19:01.59	265.35	28.22	-53.1	-55.2	14.7	0.00e+00	0	23	0	984612864	72	4566
2026-01-13 02:19:02.44	265.18	28.10	-53.1	-55.2	14.7	0.00e+00	0	23	0	986710016	72	4580
2026-01-13 02:19:03.58	264.96	27.94	-53.1	-55.2	14.7	0.00e+00	0	23	0	988807168	72	4559
2026-01-13 02:19:04.44	264.79	27.82	-53.0	-55.1	14.8	0.00e+00	0	23	0	989855744	72	4518
2026-01-13 02:19:05.58	264.57	27.66	-52.9	-55.0	14.8	0.00e+00	0	23	0	991952896	72	4459
2026-01-13 02:19:06.44	264.41	27.54	-53.0	-55.0	14.8	0.00e+00	0	23	0	994050048	72	4484
2026-01-13 02:19:07.59	264.19	27.38	-53.0	-55.1	14.7	0.00e+00	0	23	0	996147200	72	4528
2026-01-13 02:19:08.44	264.03	27.26	-53.0	-55.2	14.7	0.00e+00	0	23	0	997195776	72	4547
2026-01-13 02:19:09.57	263.83	27.10	-52.9	-55.0	14.8	0.00e+00	0	23	0	1000341504	72	4464
2026-01-13 02:19:10.43	263.67	26.98	-53.0	-55.0	14.8	0.00e+00	0	23	0	1001390080	72	4493
2026-01-13 02:19:11.57	263.46	26.82	-52.9	-54.9	14.9	0.00e+00	0	23	0	1003487232	72	4417
2026-01-13 02:19:12.42	263.31	26.71	-52.8	-54.9	14.9	0.00e+00	0	23	0	1005584384	72	4400
2026-01-13 02:19:13.55	263.10	26.55	-52.9	-54.9	14.9	0.00e+00	0	23	0	1007681536	72	4414
2026-01-13 02:19:14.40	262.95	26.43	-52.8	-54.8	14.9	0.00e+00	0	23	0	1008730112	72	4380
2026-01-13 02:19:15.55	262.75	26.28	-53.0	-55.0	14.8	0.00e+00	0	23	0	1010827264	72	4492
2026-01-13 02:19:16.41	262.60	26.16	-53.0	-55.1	14.8	0.00e+00	0	23	0	1012924416	72	4497
2026-01-13 02:19:17.54	262.41	26.00	-53.0	-55.1	14.8	0.00e+00	0	23	0	1015021568	72	4529
2026-01-13 02:19:18.40	262.26	25.89	-53.1	-55.2	14.7	0.00e+00	0	23	0	1016070144	72	4570
2026-01-13 02:19:19.53	262.07	25.73	-53.1	-55.3	14.6	0.00e+00	0	23	0	1018167296	72	4601
2026-01-13 02:19:20.39	261.92	25.62	-53.1	-55.3	14.6	0.00e+00	0	23	0	1020264448	72	4624
2026-01-13 02:19:21.53	261.73	25.46	-53.2	-55.3	14.6	0.00e+00	0	23	0	1022361600	72	4648
2026-01-13 02:19:22.39	261.59	25.35	-53.2	-55.4	14.5	0.00e+00	0	23	0	1023410176	72	4692
2026-01-13 02:19:23.53	261.40	25.20	-53.3	-55.6	14.5	0.00e+00	0	23	0	1025507328	72	4775
2026-01-13 02:19:24.38	261.27	25.08	-53.3	-55.6	14.4	0.00e+00	0	23	0	1027604480	72	4776
2026-01-13 02:19:25.52	261.08	24.93	-53.5	-55.8	14.3	0.00e+00	0	23	0	1029701632	72	4893
2026-01-13 02:19:26.37	260.95	24.82	-53.5	-55.8	14.3	0.00e+00	0	23	0	1031798784	72	4904
2026-01-13 02:19:27.51	260.77	24.67	-53.5	-55.8	14.3	0.00e+00	0	23	0	1033895936	72	4920
2026-01-13 02:19:28.36	260.63	24.56	-53.5	-55.8	14.3	0.00e+00	0	23	0	1034944512	72	4888
2026-01-13 02:19:29.50	260.45	24.41	-53.4	-55.8	14.3	0.00e+00	0	23	0	1037041664	72	4873
2026-01-13 02:19:30.36	260.32	24.30	-53.3	-55.6	14.5	0.00e+00	0	23	0	1039138816	72	4774
2026-01-13 02:19:31.50	260.15	24.15	-53.2	-55.4	14.5	0.00e+00	0	23	0	1041235968	72	4699
2026-01-13 02:19:32.36	260.02	24.03	-53.1	-55.3	14.6	0.00e+00	0	23	0	1042284544	72	4645
2026-01-13 02:19:33.51	259.84	23.89	-52.9	-55.0	14.8	0.00e+00	0	23	0	1044381696	72	4491
2026-01-13 02:19:34.36	259.72	23.78	-53.0	-55.1	14.7	0.00e+00	0	23	0	1046478848	72	4539
2026-01-13 02:19:35.50	259.55	23.63	-53.0	-55.2	14.7	0.00e+00	0	23	0	1048576000	72	4555
2026-01-13 02:19:36.36	259.42	23.52	-53.0	-55.1	14.7	0.00e+00	0	23	0	1049624576	72	4542
2026-01-13 02:19:37.50	259.26	23.37	-53.1	-55.3	14.6	0.00e+00	0	23	0	1051721728	72	4611
2026-01-13 02:19:38.36	259.13	23.26	-53.0	-55.2	14.7	0.00e+00	0	23	0	1053818880	72	4569
2026-01-13 02:19:39.50	258.97	23.12	-53.0	-55.1	14.7	0.00e+00	0	23	0	1055916032	72	4537
2026-01-13 02:19:40.36	258.85	23.01	-53.1	-55.2	14.7	0.00e+00	0	23	0	1058013184	72	4586
2026-01-13 02:19:41.51	258.68	22.86	-53.0	-55.2	14.7	0.00e+00	0	23	0	1060110336	72	4569
2026-01-13 02:19:42.36	258.56	22.76	-53.1	-55.2	14.6	0.00e+00	0	23	0	1061158912	72	4588
2026-01-13 02:19:43.51	258.41	22.61	-53.1	-55.2	14.7	0.00e+00	0	23	0	1063256064	72	4590
2026-01-13 02:19:44.36	258.29	22.51	-53.1	-55.3	14.6	0.00e+00	0	23	0	1065353216	72	4599
2026-01-13 02:19:45.51	258.13	22.36	-53.2	-55.4	14.5	0.00e+00	0	23	0	1067450368	72	4676
2026-01-13 02:19:46.36	258.02	22.26	-53.2	-55.5	14.5	0.00e+00	0	23	0	1068498944	72	4708
2026-01-13 02:19:47.50	257.86	22.12	-53.3	-55.5	14.5	0.00e+00	0	23	0	1070596096	72	4746
2026-01-13 02:19:48.35	257.75	22.01	-53.3	-55.6	14.4	0.00e+00	0	23	0	1072693248	72	4812
2026-01-13 02:19:49.49	257.60	21.87	-53.3	-55.6	14.4	0.00e+00	0	23	0	1074790400	72	4773
2026-01-13 02:19:50.35	257.49	21.77	-53.3	-55.7	14.4	0.00e+00	0	23	0	1075838976	72	4816
2026-01-13 02:19:51.49	257.34	21.63	-53.4	-55.7	14.3	0.00e+00	0	23	0	1077936128	72	4843
2026-01-13 02:19:52.35	257.23	21.53	-53.4	-55.7	14.4	0.00e+00	0	23	0	1080033280	72	4850
2026-01-13 02:19:53.50	257.08	21.39	-53.3	-55.7	14.4	0.00e+00	0	23	0	1082130432	72	4827
2026-01-13 02:19:54.35	256.97	21.28	-53.3	-55.6	14.4	0.00e+00	0	23	0	1084227584	72	4813
2026-01-13 02:19:55.50	256.83	21.15	-53.2	-55.4	14.5	0.00e+00	0	23	0	1086324736	72	4674
2026-01-13 02:19:56.36	256.72	21.04	-53.1	-55.3	14.6	0.00e+00	0	23	0	1087373312	72	4643
2026-01-13 02:19:57.51	256.58	20.91	-53.1	-55.3	14.6	0.00e+00	0	23	0	1089470464	72	4635
2026-01-13 02:19:58.36	256.47	20.80	-53.0	-55.1	14.7	0.00e+00	0	23	0	1091567616	72	4542
2026-01-13 02:19:59.51	256.33	20.67	-53.1	-55.2	14.6	0.00e+00	0	23	0	1093664768	72	4587
2026-01-13 02:20:00.37	256.23	20.57	-52.9	-55.1	14.7	0.00e+00	0	23	0	1094713344	72	4515
2026-01-13 02:20:01.52	256.09	20.43	-53.0	-55.1	14.7	0.00e+00	0	23	0	1096810496	72	4537
2026-01-13 02:20:02.38	255.99	20.33	-53.0	-55.2	14.6	0.00e+00	0	23	0	1098907648	72	4585
2026-01-13 02:20:03.51	255.86	20.20	-53.3	-55.5	14.4	0.00e+00	0	23	0	1101004800	72	4748
2026-01-13 02:20:04.37	255.76	20.10	-53.2	-55.5	14.5	0.00e+00	0	23	0	1103101952	72	4711
2026-01-13 02:20:05.51	255.62	19.97	-53.2	-55.5	14.4	0.00e+00	0	23	0	1105199104	72	4748
2026-01-13 02:20:06.37	255.52	19.87	-53.2	-55.5	14.4	0.00e+00	0	23	0	1106247680	72	4730
2026-01-13 02:20:07.51	255.39	19.74	-53.2	-55.5	14.4	0.00e+00	0	23	0	1108344832	72	4738
2026-01-13 02:20:08.36	255.30	19.64	-53.2	-55.5	14.4	0.00e+00	0	23	0	1110441984	72	4756
2026-01-13 02:20:09.50	255.17	19.51	-53.1	-55.3	14.5	0.00e+00	0	23	0	1112539136	72	4640
2026-01-13 02:20:10.36	255.07	19.41	-53.0	-55.2	14.7	0.00e+00	0	23	0	1113587712	72	4565
2026-01-13 02:20:11.51	254.94	19.28	-52.9	-55.1	14.7	0.00e+00	0	23	0	1115684864	72	4511
2026-01-13 02:20:12.37	254.85	19.18	-53.0	-55.1	14.7	0.00e+00	0	23	0	1117782016	72	4534
2026-01-13 02:20:13.52	254.72	19.05	-52.9	-55.0	14.8	0.00e+00	0	23	0	1119879168	72	4469
2026-01-13 02:20:14.37	254.63	18.96	-52.8	-54.9	14.8	0.00e+00	0	23	0	1120927744	72	4432
2026-01-13 02:20:15.51	254.51	18.83	-52.8	-54.9	14.8	0.00e+00	0	23	0	1123024896	72	4437
2026-01-13 02:20:16.36	254.42	18.73	-52.8	-54.9	14.8	0.00e+00	0	23	0	1125122048	72	4432
2026-01-13 02:20:17.49	254.30	18.61	-52.8	-54.9	14.8	0.00e+00	0	23	0	1127219200	72	4422
2026-01-13 02:20:18.35	254.21	18.51	-52.8	-55.0	14.8	0.00e+00	0	23	0	1128267776	72	4455
2026-01-13 02:20:19.49	254.09	18.39	-52.8	-55.0	14.8	0.00e+00	0	23	0	1131413504	72	4447
2026-01-13 02:20:20.34	254.00	18.29	-52.8	-54.9	14.8	0.00e+00	0	23	0	1132462080	72	4433
2026-01-13 02:20:21.48	253.88	18.17	-52.9	-55.0	14.8	0.00e+00	0	23	0	1134559232	72	4470
2026-01-13 02:20:22.34	253.79	18.07	-52.9	-55.0	14.7	0.00e+00	0	23	0	1136656384	72	4491
2026-01-13 02:20:23.48	253.68	17.95	-52.8	-54.9	14.8	0.00e+00	0	23	0	1138753536	72	4421
2026-01-13 02:20:24.33	253.59	17.86	-52.8	-55.0	14.8	0.00e+00	0	23	0	1139802112	72	4456
2026-01-13 02:20:25.47	253.48	17.74	-52.9	-55.0	14.7	0.00e+00	0	23	0	1141899264	72	4485
2026-01-13 02:20:26.32	253.39	17.64	-52.9	-55.1	14.7	0.00e+00	0	23	0	1143996416	72	4512
2026-01-13 02:20:27.46	253.28	17.52	-53.0	-55.3	14.6	0.00e+00	0	23	0	1146093568	72	4605
2026-01-13 02:20:28.31	253.20	17.43	-53.1	-55.3	14.6	0.00e+00	0	23	0	1147142144	72	4627
2026-01-13 02:20:29.45	253.09	17.31	-53.2	-55.4	14.5	0.00e+00	0	23	0	1149239296	72	4700
2026-01-13 02:20:30.30	253.00	17.22	-53.2	-55.5	14.5	0.00e+00	0	23	0	1151336448	72	4707
2026-01-13 02:20:31.44	252.90	17.10	-53.3	-55.6	14.4	0.00e+00	0	23	0	1153433600	72	4789
2026-01-13 02:20:32.30	252.81	17.01	-53.2	-55.5	14.4	0.00e+00	0	23	0	1154482176	72	4755
2026-01-13 02:20:33.44	252.71	16.89	-53.2	-55.6	14.4	0.00e+00	0	23	0	1156579328	72	4765
2026-01-13 02:20:34.30	252.63	16.80	-53.2	-55.5	14.4	0.00e+00	0	23	0	1158676480	72	4744
2026-01-13 02:20:35.45	252.52	16.68	-53.2	-55.5	14.4	0.00e+00	0	23	0	1160773632	72	4739
2026-01-13 02:20:36.31	252.44	16.59	-53.2	-55.5	14.5	0.00e+00	0	23	0	1162870784	72	4727
2026-01-13 02:20:37.45	252.33	16.47	-53.1	-55.3	14.5	0.00e+00	0	23	0	1164967936	72	4639
2026-01-13 02:20:38.30	252.26	16.38	-53.2	-55.5	14.4	0.00e+00	0	23	0	1166016512	72	4731
2026-01-13 02:20:39.44	252.15	16.26	-53.0	-55.2	14.6	0.00e+00	0	23	0	1168113664	72	4565
2026-01-13 02:20:40.29	252.08	16.18	-53.0	-55.3	14.6	0.00e+00	0	23	0	1170210816	72	4606
2026-01-13 02:20:41.43	251.98	16.06	-53.0	-55.3	14.6	0.00e+00	0	23	0	1172307968	72	4606
2026-01-13 02:20:42.28	251.90	15.97	-53.1	-55.3	14.5	0.00e+00	0	23	0	1173356544	72	4639
2026-01-13 02:20:43.43	251.80	15.86	-53.2	-55.5	14.4	0.00e+00	0	23	0	1175453696	72	4731
2026-01-13 02:20:44.29	251.72	15.77	-53.2	-55.5	14.4	0.00e+00	0	23	0	1177550848	72	4730
2026-01-13 02:20:45.44	251.62	15.65	-53.2	-55.5	14.4	0.00e+00	0	23	0	1179648000	72	4717
2026-01-13 02:20:46.29	251.55	15.57	-53.2	-55.5	14.4	0.00e+00	0	23	0	1180696576	72	4759
2026-01-13 02:20:47.43	251.45	15.46	-53.3	-55.6	14.3	0.00e+00	0	23	0	1182793728	72	4799
2026-01-13 02:20:48.29	251.38	15.37	-53.3	-55.6	14.3	0.00e+00	0	23	0	1184890880	72	4781
2026-01-13 02:20:49.44	251.28	15.26	-53.4	-55.8	14.2	0.00e+00	0	23	0	1186988032	72	4893
2026-01-13 02:20:50.30	251.21	15.17	-53.3	-55.7	14.2	0.00e+00	0	23	0	1189085184	72	4856
2026-01-13 02:20:51.43	251.12	15.06	-53.3	-55.7	14.3	0.00e+00	0	23	0	1191182336	72	4843
2026-01-13 02:20:52.29	251.05	14.97	-53.4	-55.8	14.2	0.00e+00	0	23	0	1192230912	72	4885
2026-01-13 02:20:53.43	250.95	14.86	-53.3	-55.6	14.3	0.00e+00	0	23	0	1194328064	72	4805
2026-01-13 02:20:54.28	250.88	14.78	-53.2	-55.6	14.4	0.00e+00	0	23	0	1196425216	72	4776
2026-01-13 02:20:55.43	250.79	14.67	-53.3	-55.7	14.3	0.00e+00	0	23	0	1198522368	72	4853
2026-01-13 02:20:56.28	250.72	14.58	-53.3	-55.6	14.3	0.00e+00	0	23	0	1199570944	72	4814
2026-01-13 02:20:57.42	250.63	14.47	-53.3	-55.7	14.3	0.00e+00	0	23	0	1201668096	72	4838
2026-01-13 02:20:58.29	250.56	14.39	-53.3	-55.7	14.2	0.00e+00	0	23	0	1203765248	72	4842
2026-01-13 02:20:59.43	250.47	14.28	-53.4	-55.8	14.2	0.00e+00	0	23	0	1205862400	72	4921
2026-01-13 02:21:00.29	250.40	14.20	-53.3	-55.6	14.3	0.00e+00	0	23	0	1206910976	72	4814
2026-01-13 02:21:01.44	250.31	14.09	-53.4	-55.8	14.2	0.00e+00	0	23	0	1210056704	72	4897
2026-01-13 02:21:02.30	250.25	14.01	-53.4	-55.9	14.1	0.00e+00	0	23	0	1211105280	72	4963
2026-01-13 02:21:03.44	250.16	13.90	-53.4	-55.9	14.2	0.00e+00	0	23	0	1213202432	72	4943
2026-01-13 02:21:04.29	250.10	13.82	-53.5	-56.0	14.0	0.00e+00	0	23	0	1215299584	72	5038
2026-01-13 02:21:05.44	250.01	13.71	-53.5	-56.0	14.1	0.00e+00	0	23	0	1217396736	72	5003
2026-01-13 02:21:06.29	249.94	13.63	-53.5	-56.0	14.1	0.00e+00	0	23	0	1218445312	72	5032
2026-01-13 02:21:07.43	249.86	13.52	-53.6	-56.2	14.0	0.00e+00	0	23	0	1220542464	72	5117
2026-01-13 02:21:08.29	249.80	13.44	-53.6	-56.1	14.0	0.00e+00	0	23	0	1222639616	72	5099
2026-01-13 02:21:09.43	249.71	13.34	-53.6	-56.1	14.0	0.00e+00	0	23	0	1224736768	72	5064
2026-01-13 02:21:10.29	249.65	13.26	-53.6	-56.2	13.9	0.00e+00	0	23	0	1225785344	72	5124
2026-01-13 02:21:11.43	249.57	13.15	-53.7	-56.3	13.9	0.00e+00	0	23	0	1227882496	72	5164
2026-01-13 02:21:12.28	249.50	13.07	-53.6	-56.2	13.9	0.00e+00	0	23	0	1229979648	72	5131
2026-01-13 02:21:13.43	249.42	12.97	-53.6	-56.2	13.9	0.00e+00	0	23	0	1232076800	72	5143
