passes_logs/2026/01/13/R3.2S_Murmansk/R3.2S_Murmansk__20260113_014903_SUOMI_NPP_rec.log

#Pass ID: 20260113_014903_SUOMI NPP
#Satellite: SUOMI NPP
#Configuration: NPP
#almurnet v.1.7.20251203
#Start time: 2026-01-13 01:49:04

#Version: 2.2.20231116
#Station: R3.2S_Murmansk
#Location: 33.079688 lon 68.888172 lat
#TLE: 1 37849U 11061A   26012.28456845  .00000093  00000+0  65163-4 0  9999
#TLE: 2 37849  98.7807 314.3566 0002508  68.3553 291.7890 14.19524725736322

#Time	Az	El	Level	Level2	SNR	BER	BlckErr	Temp	State	Recorded	gain1	gain2
2026-01-13 01:49:04.51	29.33	2.04	-56.9	-72.9	3.8	1.49e+00	0	20	0	0	80	22133
2026-01-13 01:49:05.52	29.31	2.11	-56.8	-72.8	3.8	1.49e+00	0	20	104	0	78	24645
2026-01-13 01:49:06.52	29.28	2.17	-56.9	-72.9	3.8	1.49e+00	0	20	104	0	78	24698
2026-01-13 01:49:07.51	29.26	2.23	-56.9	-72.8	3.8	1.49e+00	0	20	104	0	78	24686
2026-01-13 01:49:08.51	29.24	2.30	-56.9	-72.8	3.8	1.49e+00	0	20	104	0	78	24631
2026-01-13 01:49:09.51	29.22	2.36	-56.9	-72.8	3.8	1.49e+00	0	21	104	0	78	24644
2026-01-13 01:49:10.52	29.19	2.43	-56.9	-72.8	3.8	1.49e+00	0	21	104	0	78	24629
2026-01-13 01:49:11.51	29.17	2.49	-56.9	-72.8	3.8	1.49e+00	0	21	104	0	78	24666
2026-01-13 01:49:12.51	29.15	2.55	-56.9	-72.8	3.8	1.49e+00	0	20	104	0	78	24668
2026-01-13 01:49:13.51	29.12	2.62	-56.9	-72.8	3.8	1.49e+00	0	21	104	0	78	24561
2026-01-13 01:49:14.52	29.10	2.68	-56.9	-72.7	3.8	1.49e+00	0	21	104	0	78	24369
2026-01-13 01:49:15.51	29.07	2.75	-56.9	-72.7	3.8	1.49e+00	0	21	104	0	78	24281
2026-01-13 01:49:16.51	29.05	2.81	-56.8	-72.6	3.8	1.49e+00	0	21	104	0	78	23879
2026-01-13 01:49:17.52	29.03	2.88	-56.8	-72.4	3.8	1.49e+00	0	20	104	0	78	23384
2026-01-13 01:49:18.53	29.00	2.94	-56.8	-72.2	3.8	1.49e+00	0	21	104	0	78	23020
2026-01-13 01:49:19.53	28.98	3.01	-56.9	-72.1	3.8	1.49e+00	0	21	104	0	78	22605
2026-01-13 01:49:20.53	28.95	3.07	-56.8	-72.0	3.8	1.49e+00	0	21	104	0	78	22344
2026-01-13 01:49:21.53	28.93	3.14	-56.8	-72.0	3.8	1.49e+00	0	21	104	0	78	22264
2026-01-13 01:49:22.52	28.91	3.20	-56.8	-72.0	3.8	1.49e+00	0	21	104	0	78	22441
2026-01-13 01:49:23.53	28.88	3.27	-56.8	-72.1	3.8	1.49e+00	0	21	104	0	78	22586
2026-01-13 01:49:24.53	28.86	3.34	-56.8	-72.2	3.8	1.49e+00	0	21	104	0	78	22861
2026-01-13 01:49:25.52	28.83	3.40	-56.8	-72.2	3.8	1.49e+00	0	21	104	0	78	22813
2026-01-13 01:49:26.52	28.81	3.47	-56.8	-72.2	3.8	1.49e+00	0	21	104	0	78	22785
2026-01-13 01:49:27.52	28.78	3.53	-56.8	-72.1	3.8	1.49e+00	0	21	104	0	78	22597
2026-01-13 01:49:28.52	28.76	3.60	-56.8	-71.9	3.8	1.49e+00	0	21	104	0	78	22225
2026-01-13 01:49:29.51	28.73	3.67	-56.8	-71.8	3.8	1.49e+00	0	21	104	0	78	22003
2026-01-13 01:49:30.51	28.70	3.73	-56.8	-71.4	3.8	1.49e+00	0	21	104	0	78	20984
2026-01-13 01:49:31.51	28.68	3.80	-56.8	-70.5	3.8	1.49e+00	0	21	104	0	78	18816
2026-01-13 01:49:32.51	28.65	3.87	-56.7	-69.4	4.2	1.45e+00	0	21	0	0	78	16610
2026-01-13 01:49:33.50	28.63	3.93	-56.6	-67.9	4.7	1.34e+00	0	21	0	0	78	13976
2026-01-13 01:49:34.51	28.60	4.00	-56.5	-67.0	5.1	6.36e-01	0	21	0	2097152	78	12639
2026-01-13 01:49:35.50	28.58	4.07	-56.4	-66.0	5.7	4.54e-01	0	21	0	4194304	78	11226
2026-01-13 01:49:36.50	28.55	4.14	-56.3	-64.8	6.5	2.68e-01	0	21	0	6291456	78	9807
2026-01-13 01:49:37.50	28.52	4.20	-56.1	-64.0	7.2	1.11e-01	0	21	0	7340032	78	8922
2026-01-13 01:49:38.50	28.50	4.27	-55.9	-63.1	8.1	6.20e-02	0	21	0	9437184	78	8028
2026-01-13 01:49:39.50	28.47	4.34	-55.9	-62.9	8.3	3.70e-02	0	21	0	11534336	78	7829
2026-01-13 01:49:40.48	28.44	4.41	-55.8	-62.4	8.7	2.06e-02	0	21	0	13631488	78	7453
2026-01-13 01:49:41.48	28.42	4.48	-55.8	-62.3	8.8	2.26e-02	0	21	0	15728640	78	7360
2026-01-13 01:49:42.49	28.39	4.54	-55.6	-61.8	9.2	1.10e-02	0	21	0	16777216	77	7363
2026-01-13 01:49:43.49	28.36	4.61	-55.7	-62.2	8.8	1.71e-02	0	21	0	18874368	77	7640
2026-01-13 01:49:44.49	28.33	4.68	-55.7	-62.3	8.7	2.01e-02	0	21	0	20971520	77	7788
2026-01-13 01:49:45.49	28.30	4.75	-55.8	-62.7	8.3	1.84e-02	0	21	0	23068672	77	8166
2026-01-13 01:49:46.49	28.28	4.82	-55.8	-62.9	8.2	4.32e-02	0	21	0	25165824	77	8308
2026-01-13 01:49:47.50	28.25	4.89	-56.0	-63.5	7.6	6.26e-02	0	21	0	26214400	77	8904
2026-01-13 01:49:48.49	28.22	4.96	-56.1	-64.2	7.0	9.99e-02	0	21	0	28311552	77	9663
2026-01-13 01:49:49.49	28.19	5.03	-56.2	-64.8	6.5	1.64e-01	0	22	0	30408704	77	10378
2026-01-13 01:49:50.49	28.16	5.10	-55.7	-62.0	8.8	1.68e-01	0	21	0	32505856	77	7540
2026-01-13 01:49:51.50	28.14	5.17	-54.7	-59.0	11.8	3.69e-04	0	21	0	34603008	76	5643
2026-01-13 01:49:52.50	28.11	5.24	-56.2	-64.5	7.0	6.74e-03	0	22	0	35651584	77	9952
2026-01-13 01:49:53.49	28.08	5.31	-56.2	-63.5	7.5	1.28e+00	0	21	0	37748736	78	8412
2026-01-13 01:49:54.49	28.05	5.38	-55.1	-60.2	11.1	9.10e-06	0	21	0	38797312	75	6830
2026-01-13 01:49:55.49	28.02	5.45	-56.0	-62.4	8.4	8.19e-01	0	21	0	40894464	78	7457
2026-01-13 01:49:56.49	27.99	5.53	-53.3	-56.4	13.5	0.00e+00	0	21	0	42991616	72	5232
2026-01-13 01:49:57.49	27.96	5.60	-53.4	-56.5	13.4	0.00e+00	0	21	0	45088768	72	5329
2026-01-13 01:49:58.49	27.93	5.67	-53.1	-56.1	13.7	0.00e+00	0	22	0	46137344	72	5087
2026-01-13 01:49:59.50	27.90	5.74	-53.1	-56.1	13.7	0.00e+00	0	22	0	48234496	72	5073
2026-01-13 01:50:00.50	27.87	5.81	-52.9	-55.7	14.0	0.00e+00	0	22	0	50331648	72	4843
2026-01-13 01:50:01.49	27.84	5.88	-52.8	-55.6	14.1	0.00e+00	0	21	0	52428800	72	4783
2026-01-13 01:50:02.49	27.81	5.96	-52.5	-55.1	14.3	0.00e+00	0	22	0	54525952	71	4782
2026-01-13 01:50:03.50	27.78	6.03	-52.0	-54.4	14.6	0.00e+00	0	22	0	55574528	70	4676
2026-01-13 01:50:04.49	27.75	6.10	-52.3	-54.9	14.2	0.00e+00	0	22	0	57671680	70	4950
2026-01-13 01:50:05.49	27.72	6.17	-52.1	-54.6	14.4	0.00e+00	0	22	0	59768832	70	4795
2026-01-13 01:50:06.48	27.69	6.25	-52.2	-54.7	14.4	0.00e+00	0	22	0	61865984	70	4819
2026-01-13 01:50:07.48	27.65	6.32	-52.1	-54.5	14.5	0.00e+00	0	22	0	63963136	70	4739
2026-01-13 01:50:08.48	27.62	6.39	-52.1	-54.6	14.5	0.00e+00	0	22	0	65011712	70	4766
2026-01-13 01:50:09.49	27.59	6.47	-52.0	-54.4	14.6	0.00e+00	0	22	0	67108864	70	4676
2026-01-13 01:50:10.49	27.56	6.54	-52.0	-54.4	14.6	0.00e+00	0	22	0	69206016	70	4663
2026-01-13 01:50:11.48	27.53	6.61	-52.0	-54.4	14.6	0.00e+00	0	22	0	71303168	70	4696
2026-01-13 01:50:12.47	27.50	6.69	-52.0	-54.3	14.7	0.00e+00	0	22	0	72351744	70	4641
2026-01-13 01:50:13.47	27.46	6.76	-51.9	-54.3	14.7	0.00e+00	0	22	0	74448896	70	4628
2026-01-13 01:50:14.47	27.43	6.84	-52.0	-54.3	14.7	0.00e+00	0	22	0	76546048	70	4623
2026-01-13 01:50:15.47	27.40	6.91	-51.9	-54.2	14.7	0.00e+00	0	22	0	78643200	70	4593
2026-01-13 01:50:16.48	27.36	6.99	-52.0	-54.4	14.6	0.00e+00	0	22	0	80740352	70	4665
2026-01-13 01:50:17.48	27.33	7.06	-51.9	-54.2	14.7	0.00e+00	0	22	0	81788928	70	4574
2026-01-13 01:50:18.48	27.30	7.14	-51.9	-54.2	14.8	0.00e+00	0	21	0	83886080	70	4586
2026-01-13 01:50:19.48	27.26	7.21	-52.0	-54.4	14.6	0.00e+00	0	22	0	85983232	70	4670
2026-01-13 01:50:20.47	27.23	7.29	-51.9	-54.1	14.8	0.00e+00	0	22	0	88080384	70	4537
2026-01-13 01:50:21.47	27.20	7.37	-51.9	-54.1	14.8	0.00e+00	0	22	0	90177536	70	4543
2026-01-13 01:50:22.47	27.16	7.44	-52.0	-54.2	14.7	0.00e+00	0	22	0	91226112	70	4598
2026-01-13 01:50:23.47	27.13	7.52	-51.9	-54.2	14.8	0.00e+00	0	22	0	93323264	70	4589
2026-01-13 01:50:24.47	27.09	7.60	-51.9	-54.1	14.8	0.00e+00	0	22	0	95420416	70	4528
2026-01-13 01:50:25.47	27.06	7.67	-51.7	-54.0	14.9	0.00e+00	0	22	0	97517568	70	4447
2026-01-13 01:50:26.47	27.02	7.75	-51.6	-53.8	14.8	0.00e+00	0	22	0	99614720	69	4645
2026-01-13 01:50:27.47	26.99	7.83	-51.7	-53.9	14.8	0.00e+00	0	22	0	100663296	69	4679
2026-01-13 01:50:28.46	26.95	7.90	-51.6	-53.8	14.9	0.00e+00	0	22	0	102760448	69	4603
2026-01-13 01:50:29.46	26.92	7.98	-51.6	-53.9	14.8	0.00e+00	0	22	0	104857600	69	4653
2026-01-13 01:50:30.46	26.88	8.06	-51.6	-53.8	14.8	0.00e+00	0	22	0	106954752	69	4633
2026-01-13 01:50:31.45	26.85	8.14	-51.7	-53.8	14.8	0.00e+00	0	22	0	108003328	69	4644
2026-01-13 01:50:32.46	26.81	8.22	-51.7	-54.0	14.7	0.00e+00	0	22	0	110100480	69	4706
2026-01-13 01:50:33.45	26.77	8.30	-51.6	-53.8	14.9	0.00e+00	0	22	0	112197632	69	4602
2026-01-13 01:50:34.45	26.74	8.37	-51.5	-53.7	14.9	0.00e+00	0	22	0	114294784	69	4574
2026-01-13 01:50:35.45	26.70	8.45	-51.7	-53.9	14.8	0.00e+00	0	22	0	116391936	69	4698
2026-01-13 01:50:36.45	26.66	8.53	-51.7	-53.9	14.8	0.00e+00	0	22	0	117440512	69	4666
2026-01-13 01:50:37.45	26.63	8.61	-51.7	-53.9	14.8	0.00e+00	0	22	0	119537664	69	4671
2026-01-13 01:50:38.46	26.59	8.69	-51.7	-53.9	14.8	0.00e+00	0	22	0	121634816	69	4682
2026-01-13 01:50:39.45	26.55	8.77	-51.6	-53.8	14.8	0.00e+00	0	22	0	123731968	69	4643
2026-01-13 01:50:40.45	26.51	8.85	-51.7	-53.9	14.8	0.00e+00	0	22	0	124780544	69	4655
2026-01-13 01:50:41.45	26.47	8.94	-51.7	-53.9	14.8	0.00e+00	0	22	0	126877696	69	4658
2026-01-13 01:50:42.44	26.44	9.02	-51.7	-53.9	14.8	0.00e+00	0	22	0	128974848	69	4704
2026-01-13 01:50:43.43	26.40	9.10	-51.6	-53.7	14.9	0.00e+00	0	22	0	131072000	69	4566
2026-01-13 01:50:44.43	26.36	9.18	-51.6	-53.7	14.9	0.00e+00	0	22	0	133169152	69	4586
2026-01-13 01:50:45.43	26.32	9.26	-51.6	-53.7	14.9	0.00e+00	0	22	0	134217728	69	4574
2026-01-13 01:50:46.42	26.28	9.34	-51.6	-53.7	14.9	0.00e+00	0	22	0	136314880	69	4596
2026-01-13 01:50:47.42	26.24	9.42	-51.7	-53.9	14.8	0.00e+00	0	22	0	138412032	69	4680
2026-01-13 01:50:48.42	26.20	9.51	-51.6	-53.8	14.9	0.00e+00	0	22	0	140509184	69	4618
2026-01-13 01:50:49.41	26.16	9.59	-51.7	-53.9	14.8	0.00e+00	0	22	0	142606336	69	4705
2026-01-13 01:50:50.42	26.12	9.67	-51.8	-54.1	14.7	0.00e+00	0	22	0	143654912	69	4760
2026-01-13 01:50:51.42	26.08	9.75	-51.7	-53.9	14.8	0.00e+00	0	22	0	145752064	69	4683
2026-01-13 01:50:52.41	26.04	9.84	-51.7	-53.9	14.8	0.00e+00	0	22	0	147849216	69	4692
2026-01-13 01:50:53.42	26.00	9.92	-51.8	-54.0	14.7	0.00e+00	0	22	0	149946368	69	4752
2026-01-13 01:50:54.42	25.95	10.01	-51.8	-54.0	14.8	0.00e+00	0	22	0	150994944	69	4722
2026-01-13 01:50:55.42	25.91	10.09	-51.6	-53.8	14.9	0.00e+00	0	22	0	153092096	69	4642
2026-01-13 01:50:56.41	25.87	10.17	-51.6	-53.8	14.9	0.00e+00	0	22	0	155189248	69	4607
2026-01-13 01:50:57.41	25.83	10.26	-51.6	-53.7	14.9	0.00e+00	0	22	0	157286400	69	4560
2026-01-13 01:50:58.41	25.79	10.34	-51.5	-53.6	15.0	0.00e+00	0	22	0	159383552	69	4530
2026-01-13 01:50:59.40	25.74	10.43	-51.6	-53.7	14.9	0.00e+00	0	22	0	160432128	69	4560
2026-01-13 01:51:00.40	25.70	10.51	-51.5	-53.6	15.0	0.00e+00	0	22	0	162529280	69	4506
2026-01-13 01:51:01.40	25.66	10.60	-51.5	-53.6	15.0	0.00e+00	0	22	0	164626432	69	4526
2026-01-13 01:51:02.40	25.61	10.69	-51.5	-53.6	15.0	0.00e+00	0	22	0	166723584	69	4516
2026-01-13 01:51:03.39	25.57	10.77	-51.4	-53.5	15.0	0.00e+00	0	22	0	168820736	69	4463
2026-01-13 01:51:04.40	25.53	10.86	-51.4	-53.5	15.0	0.00e+00	0	22	0	169869312	69	4460
2026-01-13 01:51:05.39	25.48	10.95	-51.4	-53.5	15.0	0.00e+00	0	22	0	171966464	69	4455
2026-01-13 01:51:06.39	25.44	11.03	-51.4	-53.5	15.0	0.00e+00	0	22	0	174063616	69	4467
2026-01-13 01:51:07.38	25.39	11.12	-51.4	-53.4	15.1	0.00e+00	0	22	0	176160768	69	4420
2026-01-13 01:51:08.39	25.35	11.21	-51.1	-53.1	15.1	0.00e+00	0	22	0	177209344	68	4536
2026-01-13 01:51:09.38	25.30	11.30	-51.3	-53.3	15.0	0.00e+00	0	22	0	179306496	68	4632
2026-01-13 01:51:10.38	25.26	11.39	-51.3	-53.3	15.0	0.00e+00	0	22	0	181403648	68	4641
2026-01-13 01:51:11.38	25.21	11.48	-51.2	-53.2	15.0	0.00e+00	0	22	0	183500800	68	4571
2026-01-13 01:51:12.37	25.16	11.56	-51.2	-53.2	15.0	0.00e+00	0	22	0	185597952	68	4595
2026-01-13 01:51:13.37	25.12	11.65	-51.1	-53.2	15.1	0.00e+00	0	22	0	186646528	68	4551
2026-01-13 01:51:14.36	25.07	11.74	-51.1	-53.2	15.1	0.00e+00	0	22	0	188743680	68	4547
2026-01-13 01:51:15.36	25.02	11.83	-51.2	-53.3	15.0	0.00e+00	0	22	0	190840832	68	4605
2026-01-13 01:51:16.36	24.97	11.92	-51.3	-53.4	14.9	0.00e+00	0	22	0	192937984	68	4685
2026-01-13 01:51:17.36	24.93	12.01	-51.2	-53.2	15.0	0.00e+00	0	22	0	193986560	68	4588
2026-01-13 01:51:18.36	24.88	12.11	-51.1	-53.2	15.1	0.00e+00	0	22	0	196083712	68	4559
2026-01-13 01:51:19.36	24.83	12.20	-51.1	-53.2	15.0	0.00e+00	0	22	0	198180864	68	4553
2026-01-13 01:51:20.36	24.78	12.29	-51.2	-53.2	15.1	0.00e+00	0	22	0	200278016	68	4560
2026-01-13 01:51:21.36	24.73	12.38	-51.1	-53.1	15.1	0.00e+00	0	22	0	202375168	68	4532
2026-01-13 01:51:22.36	24.68	12.47	-51.1	-53.1	15.1	0.00e+00	0	22	0	203423744	68	4538
2026-01-13 01:51:23.36	24.63	12.57	-50.9	-52.9	15.2	0.00e+00	0	22	0	205520896	68	4422
2026-01-13 01:51:24.37	24.58	12.66	-51.0	-52.9	15.2	0.00e+00	0	22	0	207618048	68	4426
2026-01-13 01:51:25.37	24.53	12.75	-50.9	-52.9	15.2	0.00e+00	0	22	0	209715200	68	4399
2026-01-13 01:51:26.37	24.48	12.85	-50.9	-52.9	15.2	0.00e+00	0	22	0	211812352	68	4420
2026-01-13 01:51:27.37	24.42	12.94	-50.8	-52.8	15.3	0.00e+00	0	22	0	212860928	68	4353
2026-01-13 01:51:28.36	24.37	13.03	-50.9	-52.8	15.3	0.00e+00	0	22	0	214958080	68	4366
2026-01-13 01:51:29.36	24.32	13.13	-50.9	-52.9	15.3	0.00e+00	0	22	0	217055232	68	4401
2026-01-13 01:51:30.35	24.27	13.22	-50.8	-52.7	15.4	0.00e+00	0	22	0	219152384	68	4301
2026-01-13 01:51:31.35	24.22	13.32	-50.8	-52.7	15.4	0.00e+00	0	22	0	220200960	68	4322
2026-01-13 01:51:32.35	24.16	13.41	-51.0	-53.0	15.2	0.00e+00	0	22	0	222298112	68	4474
2026-01-13 01:51:33.34	24.11	13.51	-50.7	-52.6	15.5	0.00e+00	0	22	0	224395264	68	4249
2026-01-13 01:51:34.34	24.06	13.61	-50.8	-52.7	15.4	0.00e+00	0	22	0	226492416	68	4302
2026-01-13 01:51:35.34	24.00	13.70	-50.8	-52.8	15.3	0.00e+00	0	22	0	228589568	68	4353
2026-01-13 01:51:36.33	23.95	13.80	-50.8	-52.7	15.4	0.00e+00	0	22	0	229638144	68	4315
2026-01-13 01:51:37.33	23.89	13.90	-50.7	-52.6	15.4	0.00e+00	0	22	0	231735296	68	4270
2026-01-13 01:51:38.32	23.84	13.99	-50.5	-52.3	15.3	0.00e+00	0	22	0	233832448	67	4378
2026-01-13 01:51:39.32	23.78	14.09	-50.5	-52.4	15.3	0.00e+00	0	22	0	235929600	67	4408
2026-01-13 01:51:40.31	23.72	14.19	-50.6	-52.4	15.3	0.00e+00	0	22	0	238026752	67	4435
2026-01-13 01:51:41.31	23.67	14.29	-50.4	-52.2	15.4	0.00e+00	0	22	0	239075328	67	4309
2026-01-13 01:51:42.30	23.61	14.39	-50.5	-52.4	15.3	0.00e+00	0	22	0	241172480	67	4395
2026-01-13 01:51:43.29	23.55	14.49	-50.5	-52.4	15.3	0.00e+00	0	22	0	243269632	67	4416
2026-01-13 01:51:44.29	23.50	14.59	-50.6	-52.5	15.2	0.00e+00	0	22	0	245366784	67	4459
2026-01-13 01:51:45.29	23.44	14.69	-50.4	-52.2	15.4	0.00e+00	0	22	0	246415360	67	4335
2026-01-13 01:51:46.29	23.38	14.79	-50.4	-52.3	15.4	0.00e+00	0	22	0	248512512	67	4345
2026-01-13 01:51:47.28	23.32	14.89	-50.4	-52.2	15.4	0.00e+00	0	22	0	250609664	67	4335
2026-01-13 01:51:48.27	23.26	14.99	-50.4	-52.2	15.4	0.00e+00	0	22	0	252706816	67	4310
2026-01-13 01:51:49.27	23.20	15.09	-50.3	-52.1	15.5	0.00e+00	0	22	0	254803968	67	4246
2026-01-13 01:51:50.27	23.14	15.19	-50.4	-52.2	15.4	0.00e+00	0	22	0	255852544	67	4304
2026-01-13 01:51:51.26	23.08	15.30	-50.4	-52.3	15.4	0.00e+00	0	22	0	257949696	67	4354
2026-01-13 01:51:52.26	23.02	15.40	-50.5	-52.3	15.4	0.00e+00	0	22	0	260046848	67	4356
2026-01-13 01:51:53.26	22.96	15.50	-50.4	-52.2	15.4	0.00e+00	0	22	0	262144000	67	4299
2026-01-13 01:51:54.27	22.89	15.61	-50.4	-52.3	15.4	0.00e+00	0	22	0	264241152	67	4344
2026-01-13 01:51:55.27	22.83	15.71	-50.5	-52.3	15.4	0.00e+00	0	22	0	265289728	67	4365
2026-01-13 01:51:56.27	22.77	15.82	-50.5	-52.3	15.4	0.00e+00	0	22	0	267386880	67	4370
2026-01-13 01:51:57.28	22.70	15.92	-50.3	-52.1	15.5	0.00e+00	0	22	0	269484032	67	4258
2026-01-13 01:51:58.27	22.64	16.03	-50.5	-52.3	15.4	0.00e+00	0	22	0	271581184	67	4342
2026-01-13 01:51:59.27	22.57	16.13	-50.6	-52.4	15.3	0.00e+00	0	22	0	272629760	67	4414
2026-01-13 01:52:00.27	22.51	16.24	-50.5	-52.3	15.3	0.00e+00	0	22	0	274726912	67	4388
2026-01-13 01:52:01.27	22.44	16.35	-50.4	-52.2	15.4	0.00e+00	0	22	0	276824064	67	4339
2026-01-13 01:52:02.27	22.38	16.46	-50.3	-52.0	15.6	0.00e+00	0	22	0	278921216	67	4227
2026-01-13 01:52:03.26	22.31	16.56	-50.5	-52.3	15.4	0.00e+00	0	22	0	281018368	67	4356
2026-01-13 01:52:04.27	22.24	16.67	-50.5	-52.3	15.4	0.00e+00	0	22	0	282066944	67	4374
2026-01-13 01:52:05.27	22.17	16.78	-50.3	-52.0	15.5	0.00e+00	0	22	0	284164096	67	4227
2026-01-13 01:52:06.27	22.10	16.89	-50.6	-52.4	15.3	0.00e+00	0	22	0	286261248	67	4425
2026-01-13 01:52:07.27	22.04	17.00	-50.5	-52.3	15.3	0.00e+00	0	22	0	288358400	67	4390
2026-01-13 01:52:08.27	21.97	17.11	-50.5	-52.4	15.3	0.00e+00	0	22	0	290455552	67	4392
2026-01-13 01:52:09.27	21.90	17.22	-50.4	-52.2	15.4	0.00e+00	0	22	0	291504128	67	4300
2026-01-13 01:52:10.27	21.83	17.33	-50.5	-52.4	15.3	0.00e+00	0	22	0	293601280	67	4398
2026-01-13 01:52:11.26	21.76	17.44	-50.6	-52.4	15.3	0.00e+00	0	22	0	295698432	67	4413
2026-01-13 01:52:12.27	21.68	17.55	-50.6	-52.4	15.3	0.00e+00	0	22	0	297795584	67	4423
2026-01-13 01:52:13.26	21.61	17.67	-50.5	-52.3	15.4	0.00e+00	0	22	0	298844160	67	4378
2026-01-13 01:52:14.25	21.54	17.78	-50.6	-52.4	15.3	0.00e+00	0	22	0	300941312	67	4438
2026-01-13 01:52:15.25	21.47	17.89	-50.5	-52.3	15.4	0.00e+00	0	22	0	303038464	67	4368
2026-01-13 01:52:16.24	21.39	18.00	-50.7	-52.5	15.2	0.00e+00	0	22	0	305135616	67	4479
2026-01-13 01:52:17.25	21.32	18.12	-50.6	-52.5	15.3	0.00e+00	0	22	0	307232768	67	4459
2026-01-13 01:52:18.25	21.24	18.23	-50.6	-52.4	15.3	0.00e+00	0	22	0	308281344	67	4428
2026-01-13 01:52:19.25	21.17	18.35	-50.5	-52.4	15.3	0.00e+00	0	22	0	310378496	67	4413
2026-01-13 01:52:20.24	21.09	18.46	-50.6	-52.5	15.3	0.00e+00	0	22	0	312475648	67	4488
2026-01-13 01:52:21.25	21.01	18.58	-50.4	-52.2	15.4	0.00e+00	0	22	0	314572800	67	4338
2026-01-13 01:52:22.25	20.94	18.70	-50.4	-52.3	15.4	0.00e+00	0	22	0	315621376	67	4357
2026-01-13 01:52:23.25	20.86	18.81	-50.5	-52.3	15.4	0.00e+00	0	22	0	317718528	67	4375
2026-01-13 01:52:24.25	20.78	18.93	-50.5	-52.4	15.3	0.00e+00	0	22	0	319815680	67	4394
2026-01-13 01:52:25.25	20.70	19.05	-50.4	-52.2	15.4	0.00e+00	0	22	0	321912832	67	4337
2026-01-13 01:52:26.25	20.62	19.17	-50.5	-52.3	15.4	0.00e+00	0	22	0	324009984	67	4391
2026-01-13 01:52:27.25	20.54	19.29	-50.4	-52.2	15.4	0.00e+00	0	22	0	325058560	67	4337
2026-01-13 01:52:28.25	20.46	19.41	-50.3	-52.1	15.5	0.00e+00	0	22	0	327155712	67	4285
2026-01-13 01:52:29.25	20.38	19.53	-50.4	-52.2	15.4	0.00e+00	0	22	0	329252864	67	4335
2026-01-13 01:52:30.25	20.29	19.65	-50.5	-52.3	15.4	0.00e+00	0	22	0	331350016	67	4383
2026-01-13 01:52:31.25	20.21	19.77	-50.5	-52.3	15.4	0.00e+00	0	22	0	333447168	67	4358
2026-01-13 01:52:32.25	20.13	19.89	-50.5	-52.3	15.4	0.00e+00	0	22	0	334495744	67	4357
2026-01-13 01:52:33.25	20.04	20.01	-50.5	-52.3	15.4	0.00e+00	0	22	0	336592896	67	4352
2026-01-13 01:52:34.26	19.96	20.14	-50.7	-52.6	15.2	0.00e+00	0	22	0	338690048	67	4494
2026-01-13 01:52:35.25	19.87	20.26	-50.8	-52.7	15.2	0.00e+00	0	22	0	340787200	67	4576
2026-01-13 01:52:36.24	19.78	20.38	-50.8	-52.7	15.2	0.00e+00	0	22	0	342884352	67	4555
2026-01-13 01:52:37.24	19.70	20.51	-51.0	-53.0	15.0	0.00e+00	0	22	0	343932928	67	4719
2026-01-13 01:52:38.24	19.61	20.63	-51.1	-53.2	14.9	0.00e+00	0	22	0	346030080	67	4820
2026-01-13 01:52:39.23	19.52	20.76	-51.0	-53.0	15.0	0.00e+00	0	22	0	348127232	67	4713
2026-01-13 01:52:40.22	19.43	20.88	-50.9	-52.9	15.1	0.00e+00	0	22	0	350224384	67	4659
2026-01-13 01:52:41.22	19.34	21.01	-51.2	-53.2	14.9	0.00e+00	0	22	0	351272960	67	4836
2026-01-13 01:52:42.22	19.25	21.14	-51.2	-53.2	14.9	0.00e+00	0	22	0	353370112	67	4841
2026-01-13 01:52:43.21	19.16	21.26	-50.9	-52.9	15.0	0.00e+00	0	22	0	355467264	67	4677
2026-01-13 01:52:44.21	19.06	21.39	-51.0	-53.0	15.0	0.00e+00	0	22	0	357564416	67	4737
2026-01-13 01:52:45.20	18.97	21.52	-51.2	-53.2	14.9	0.00e+00	0	22	0	359661568	67	4866
2026-01-13 01:52:46.20	18.88	21.65	-51.1	-53.2	14.9	0.00e+00	0	22	0	360710144	67	4825
2026-01-13 01:52:47.19	18.78	21.78	-51.1	-53.1	14.9	0.00e+00	0	22	0	362807296	67	4771
2026-01-13 01:52:48.19	18.69	21.91	-51.3	-53.4	14.8	0.00e+00	0	22	0	364904448	67	4930
2026-01-13 01:52:49.18	18.59	22.04	-51.1	-53.1	15.0	0.00e+00	0	22	0	367001600	67	4772
2026-01-13 01:52:50.17	18.49	22.17	-51.3	-53.3	14.9	0.00e+00	0	22	0	368050176	67	4920
2026-01-13 01:52:51.17	18.39	22.30	-51.3	-53.4	14.8	0.00e+00	0	22	0	370147328	67	4952
2026-01-13 01:52:52.16	18.29	22.43	-51.3	-53.4	14.8	0.00e+00	0	22	0	372244480	67	4935
2026-01-13 01:52:53.16	18.19	22.57	-51.5	-53.6	14.9	0.00e+00	0	22	0	374341632	68	4811
2026-01-13 01:52:54.16	18.09	22.70	-51.5	-53.6	14.9	0.00e+00	0	22	0	376438784	68	4769
2026-01-13 01:52:55.16	17.99	22.84	-51.7	-53.8	14.8	0.00e+00	0	22	0	377487360	68	4903
2026-01-13 01:52:56.15	17.89	22.97	-51.6	-53.6	14.9	0.00e+00	0	22	0	379584512	68	4807
2026-01-13 01:52:57.15	17.78	23.11	-51.5	-53.5	14.9	0.00e+00	0	22	0	381681664	68	4747
2026-01-13 01:52:58.15	17.68	23.24	-51.5	-53.6	14.9	0.00e+00	0	22	0	383778816	68	4808
2026-01-13 01:52:59.15	17.57	23.38	-51.6	-53.7	14.8	0.00e+00	0	22	0	384827392	68	4850
2026-01-13 01:53:00.15	17.47	23.52	-51.6	-53.7	14.8	0.00e+00	0	22	0	386924544	68	4827
2026-01-13 01:53:01.14	17.36	23.65	-52.0	-54.2	14.7	0.00e+00	0	22	0	389021696	69	4857
2026-01-13 01:53:02.14	17.25	23.79	-51.8	-54.0	14.8	0.00e+00	0	22	0	391118848	69	4724
2026-01-13 01:53:03.14	17.14	23.93	-51.9	-54.2	14.7	0.00e+00	0	22	0	393216000	69	4826
2026-01-13 01:53:04.14	17.03	24.07	-52.0	-54.3	14.6	0.00e+00	0	22	0	394264576	69	4900
2026-01-13 01:53:05.13	16.92	24.21	-52.1	-54.3	14.6	0.00e+00	0	22	0	396361728	69	4916
2026-01-13 01:53:06.13	16.80	24.36	-52.3	-54.6	14.5	0.00e+00	0	22	0	398458880	69	5084
2026-01-13 01:53:07.13	16.69	24.50	-52.3	-54.6	14.7	0.00e+00	0	22	0	400556032	70	4781
2026-01-13 01:53:08.12	16.57	24.64	-52.2	-54.4	14.8	0.00e+00	0	22	0	402653184	70	4690
2026-01-13 01:53:09.12	16.46	24.78	-52.6	-55.1	14.4	0.00e+00	0	22	0	403701760	70	5049
2026-01-13 01:53:10.12	16.34	24.93	-52.1	-54.3	14.8	0.00e+00	0	22	0	405798912	70	4623
2026-01-13 01:53:11.12	16.22	25.07	-52.1	-54.2	14.9	0.00e+00	0	22	0	407896064	70	4553
2026-01-13 01:53:12.11	16.10	25.22	-51.8	-53.9	15.1	0.00e+00	0	22	0	409993216	70	4393
2026-01-13 01:53:13.11	15.98	25.36	-51.9	-53.9	15.1	0.00e+00	0	22	0	412090368	70	4398
2026-01-13 01:53:14.10	15.86	25.51	-51.8	-53.7	15.2	0.00e+00	0	22	0	413138944	70	4334
2026-01-13 01:53:15.11	15.74	25.66	-51.7	-53.7	15.0	0.00e+00	0	22	0	415236096	69	4596
2026-01-13 01:53:16.10	15.61	25.80	-51.9	-54.0	14.9	0.00e+00	0	22	0	417333248	69	4709
2026-01-13 01:53:17.11	15.49	25.95	-52.2	-54.4	14.6	0.00e+00	0	22	0	419430400	69	4932
2026-01-13 01:53:18.10	15.36	26.10	-51.9	-54.0	14.9	0.00e+00	0	22	0	420478976	69	4711
2026-01-13 01:53:19.10	15.23	26.25	-52.2	-54.5	14.6	0.00e+00	0	22	0	422576128	69	4992
2026-01-13 01:53:20.10	15.10	26.40	-52.5	-54.8	14.5	0.00e+00	0	22	0	424673280	70	4920
2026-01-13 01:53:21.11	14.97	26.56	-52.5	-54.8	14.6	0.00e+00	0	22	0	426770432	70	4905
2026-01-13 01:53:22.10	14.84	26.71	-52.4	-54.8	14.5	0.00e+00	0	22	0	428867584	70	4905
2026-01-13 01:53:23.10	14.71	26.86	-52.4	-54.8	14.5	0.00e+00	0	22	0	429916160	70	4907
2026-01-13 01:53:24.11	14.57	27.02	-52.4	-54.8	14.6	0.00e+00	0	22	0	432013312	70	4885
2026-01-13 01:53:25.11	14.44	27.17	-52.6	-55.1	14.3	0.00e+00	0	22	0	434110464	70	5090
2026-01-13 01:53:26.11	14.30	27.32	-52.1	-54.3	14.9	0.00e+00	0	22	0	436207616	70	4619
2026-01-13 01:53:27.11	14.16	27.48	-52.0	-54.2	14.9	0.00e+00	0	22	0	437256192	70	4576
2026-01-13 01:53:28.11	14.02	27.64	-51.9	-54.0	15.0	0.00e+00	0	22	0	439353344	70	4489
2026-01-13 01:53:29.11	13.88	27.79	-51.8	-53.9	15.1	0.00e+00	0	22	0	441450496	70	4429
2026-01-13 01:53:30.11	13.74	27.95	-51.6	-53.7	15.0	0.00e+00	0	22	0	443547648	69	4559
2026-01-13 01:53:31.11	13.59	28.11	-52.0	-54.2	14.8	0.00e+00	0	22	0	445644800	69	4817
2026-01-13 01:53:32.10	13.45	28.27	-51.8	-53.9	14.9	0.00e+00	0	22	0	446693376	69	4672
2026-01-13 01:53:33.09	13.30	28.43	-52.3	-54.6	14.5	0.00e+00	0	22	0	448790528	69	5085
2026-01-13 01:53:34.09	13.15	28.59	-52.3	-54.6	14.6	0.00e+00	0	22	0	450887680	69	5049
2026-01-13 01:53:35.09	13.00	28.75	-52.2	-54.5	14.6	0.00e+00	0	22	0	452984832	69	4991
2026-01-13 01:53:36.09	12.85	28.91	-52.2	-54.3	14.8	0.00e+00	0	22	0	455081984	70	4639
2026-01-13 01:53:37.09	12.70	29.07	-52.3	-54.4	14.8	0.00e+00	0	22	0	456130560	70	4690
2026-01-13 01:53:38.08	12.54	29.24	-52.1	-54.2	14.9	0.00e+00	0	22	0	458227712	70	4570
2026-01-13 01:53:39.09	12.39	29.40	-52.3	-54.5	14.8	0.00e+00	0	22	0	460324864	70	4730
2026-01-13 01:53:40.09	12.23	29.57	-52.4	-54.6	14.7	0.00e+00	0	22	0	462422016	70	4760
2026-01-13 01:53:41.09	12.07	29.73	-52.7	-55.1	14.4	0.00e+00	0	22	0	463470592	70	5095
2026-01-13 01:53:42.08	11.91	29.90	-52.3	-54.5	14.8	0.00e+00	0	22	0	465567744	70	4716
2026-01-13 01:53:43.08	11.74	30.06	-52.3	-54.6	14.7	0.00e+00	0	22	0	467664896	70	4768
2026-01-13 01:53:44.08	11.58	30.23	-52.5	-54.7	14.6	0.00e+00	0	22	0	469762048	70	4866
2026-01-13 01:53:45.06	11.42	30.40	-52.6	-55.0	14.5	0.00e+00	0	22	0	471859200	70	5010
2026-01-13 01:53:46.05	11.25	30.56	-52.9	-55.3	14.2	0.00e+00	0	22	0	472907776	70	5209
2026-01-13 01:53:47.05	11.08	30.73	-52.8	-55.2	14.5	0.00e+00	0	22	0	475004928	71	4870
2026-01-13 01:53:48.06	10.90	30.91	-52.9	-55.3	14.4	0.00e+00	0	22	0	477102080	71	4925
2026-01-13 01:53:49.05	10.73	31.08	-53.1	-55.7	14.2	0.00e+00	0	22	0	479199232	71	5143
2026-01-13 01:53:50.05	10.56	31.25	-52.9	-55.3	14.4	0.00e+00	0	22	0	480247808	71	4891
2026-01-13 01:53:51.05	10.38	31.42	-52.7	-55.0	14.6	0.00e+00	0	22	0	482344960	71	4721
2026-01-13 01:53:52.04	10.20	31.59	-53.0	-55.4	14.3	0.00e+00	0	22	0	484442112	71	4974
2026-01-13 01:53:53.03	10.02	31.76	-52.9	-55.4	14.4	0.00e+00	0	22	0	486539264	71	4947
2026-01-13 01:53:54.03	9.84	31.94	-53.1	-55.6	14.3	0.00e+00	0	22	0	488636416	71	5077
2026-01-13 01:53:55.02	9.65	32.11	-53.5	-56.1	14.1	0.00e+00	0	22	0	489684992	72	5069
2026-01-13 01:53:56.02	9.46	32.29	-53.8	-56.6	13.8	0.00e+00	0	22	0	491782144	72	5365
2026-01-13 01:53:57.01	9.28	32.46	-54.1	-57.2	13.6	0.00e+00	0	22	0	493879296	73	5432
2026-01-13 01:53:58.01	9.08	32.64	-53.8	-56.6	13.9	0.00e+00	0	22	0	495976448	73	5099
2026-01-13 01:53:59.02	8.89	32.82	-53.7	-56.5	14.0	0.00e+00	0	22	0	498073600	73	5003
2026-01-13 01:54:00.02	8.69	33.00	-53.9	-56.7	13.8	0.00e+00	0	22	0	499122176	73	5154
2026-01-13 01:54:01.02	8.49	33.18	-53.8	-56.7	13.9	0.00e+00	0	22	0	501219328	73	5111
2026-01-13 01:54:02.01	8.29	33.36	-54.0	-56.9	13.7	0.00e+00	0	22	0	503316480	73	5263
2026-01-13 01:54:03.00	8.09	33.54	-54.2	-57.4	13.4	0.00e+00	0	22	0	505413632	73	5575
2026-01-13 01:54:04.00	7.89	33.72	-54.6	-58.2	13.0	0.00e+00	0	22	0	506462208	74	5772
2026-01-13 01:54:05.00	7.68	33.90	-55.0	-59.2	12.3	0.00e+00	0	22	0	508559360	75	6066
2026-01-13 01:54:05.99	7.47	34.08	-54.6	-58.5	12.8	7.00e-07	0	22	0	510656512	75	5600
2026-01-13 01:54:06.99	7.26	34.26	-54.7	-58.7	12.6	2.20e-06	0	22	0	512753664	75	5784
2026-01-13 01:54:07.98	7.05	34.45	-54.6	-58.6	12.7	2.20e-06	0	22	0	514850816	75	5662
2026-01-13 01:54:08.97	6.83	34.63	-54.3	-57.8	13.3	0.00e+00	0	22	0	515899392	75	5201
2026-01-13 01:54:09.97	6.61	34.81	-53.9	-57.3	13.6	0.00e+00	0	22	0	517996544	74	5167
2026-01-13 01:54:10.97	6.39	35.00	-53.5	-56.4	14.1	0.00e+00	0	22	0	520093696	73	4983
2026-01-13 01:54:11.97	6.16	35.19	-53.2	-56.0	14.3	0.00e+00	0	22	0	522190848	73	4757
2026-01-13 01:54:12.97	5.93	35.37	-53.3	-56.2	14.1	0.00e+00	0	22	0	524288000	72	5109
2026-01-13 01:54:13.97	5.70	35.56	-52.9	-55.6	14.4	0.00e+00	0	22	0	525336576	72	4809
2026-01-13 01:54:14.97	5.47	35.75	-52.9	-55.6	14.4	0.00e+00	0	22	0	527433728	72	4792
2026-01-13 01:54:15.97	5.23	35.94	-53.0	-55.8	14.3	0.00e+00	0	22	0	529530880	72	4903
2026-01-13 01:54:16.98	4.99	36.13	-53.0	-55.7	14.4	0.00e+00	0	22	0	531628032	72	4824
2026-01-13 01:54:17.98	4.75	36.32	-52.8	-55.3	14.4	0.00e+00	0	22	0	532676608	71	4923
2026-01-13 01:54:18.97	4.51	36.51	-52.6	-55.1	14.6	0.00e+00	0	22	0	534773760	71	4772
2026-01-13 01:54:19.97	4.26	36.70	-52.7	-55.2	14.5	0.00e+00	0	22	0	536870912	71	4869
2026-01-13 01:54:20.97	4.01	36.89	-52.7	-55.3	14.5	0.00e+00	0	22	0	538968064	71	4911
2026-01-13 01:54:21.96	3.76	37.08	-52.7	-55.2	14.5	0.00e+00	0	22	0	541065216	71	4866
2026-01-13 01:54:22.96	3.51	37.27	-52.7	-55.2	14.5	0.00e+00	0	22	0	542113792	71	4850
2026-01-13 01:54:23.96	3.25	37.47	-52.9	-55.5	14.4	0.00e+00	0	22	0	544210944	71	5022
2026-01-13 01:54:24.97	2.98	37.66	-52.9	-55.6	14.3	0.00e+00	0	22	0	546308096	71	5073
2026-01-13 01:54:25.98	2.71	37.86	-52.9	-55.6	14.3	0.00e+00	0	22	0	548405248	71	5068
2026-01-13 01:54:26.98	2.44	38.05	-52.9	-55.7	14.2	0.00e+00	0	22	0	550502400	71	5149
2026-01-13 01:54:27.98	2.17	38.24	-53.1	-56.2	13.8	0.00e+00	0	22	0	551550976	71	5432
2026-01-13 01:54:28.97	1.90	38.44	-53.1	-56.2	13.8	0.00e+00	0	22	0	553648128	71	5420
2026-01-13 01:54:29.97	1.62	38.63	-53.5	-56.8	13.6	0.00e+00	0	22	0	555745280	72	5524
2026-01-13 01:54:30.97	1.34	38.83	-53.4	-56.6	13.7	0.00e+00	0	22	0	557842432	72	5394
2026-01-13 01:54:31.97	1.05	39.02	-53.3	-56.3	14.0	0.00e+00	0	22	0	559939584	72	5183
2026-01-13 01:54:32.96	0.77	39.22	-52.5	-55.0	14.6	0.00e+00	0	22	0	560988160	71	4732
2026-01-13 01:54:33.96	0.47	39.41	-52.6	-55.0	14.7	0.00e+00	0	22	0	563085312	71	4737
2026-01-13 01:54:34.97	0.17	39.61	-52.8	-55.4	14.4	0.00e+00	0	22	0	565182464	71	4943
2026-01-13 01:54:35.96	359.88	39.81	-53.0	-55.8	14.1	0.00e+00	0	22	0	567279616	71	5192
2026-01-13 01:54:36.96	359.57	40.00	-53.5	-56.7	13.7	0.00e+00	0	22	0	568328192	72	5442
2026-01-13 01:54:37.97	359.26	40.20	-53.8	-57.4	13.2	0.00e+00	0	22	0	570425344	72	5874
2026-01-13 01:54:38.97	358.95	40.40	-53.8	-57.5	13.2	0.00e+00	0	22	0	572522496	73	5631
2026-01-13 01:54:39.97	358.64	40.60	-53.5	-56.8	13.7	0.00e+00	0	22	0	574619648	73	5207
2026-01-13 01:54:40.97	358.32	40.80	-53.3	-56.4	14.0	0.00e+00	0	22	0	576716800	73	4982
2026-01-13 01:54:41.96	358.00	40.99	-52.5	-55.1	14.5	0.00e+00	0	22	0	577765376	71	4802
2026-01-13 01:54:42.96	357.67	41.19	-51.9	-54.2	15.0	0.00e+00	0	22	0	579862528	70	4555
2026-01-13 01:54:43.95	357.34	41.38	-51.9	-54.1	15.0	0.00e+00	0	22	0	581959680	70	4529
2026-01-13 01:54:44.95	357.01	41.58	-51.8	-54.1	14.9	0.00e+00	0	22	0	584056832	69	4776
2026-01-13 01:54:45.95	356.67	41.78	-51.9	-54.2	14.8	0.00e+00	0	22	0	585105408	69	4843
2026-01-13 01:54:46.95	356.33	41.98	-52.6	-55.3	14.3	0.00e+00	0	22	0	587202560	70	5202
2026-01-13 01:54:47.95	355.98	42.17	-53.1	-56.0	14.0	0.00e+00	0	22	0	589299712	71	5339
2026-01-13 01:54:48.94	355.63	42.37	-53.7	-57.1	13.5	0.00e+00	0	22	0	591396864	72	5697
2026-01-13 01:54:49.94	355.27	42.57	-53.8	-57.2	13.4	0.00e+00	0	22	0	593494016	72	5760
2026-01-13 01:54:50.93	354.92	42.76	-53.5	-56.7	13.7	0.00e+00	0	22	0	594542592	72	5464
2026-01-13 01:54:51.92	354.55	42.96	-53.3	-56.3	14.0	0.00e+00	0	22	0	596639744	72	5218
2026-01-13 01:54:52.91	354.19	43.15	-53.3	-56.4	14.0	0.00e+00	0	22	0	598736896	72	5252
2026-01-13 01:54:53.91	353.81	43.35	-53.7	-57.0	13.5	0.00e+00	0	22	0	600834048	72	5627
2026-01-13 01:54:54.91	353.43	43.54	-54.2	-58.3	12.7	0.00e+00	0	22	0	602931200	73	6158
2026-01-13 01:54:55.90	353.05	43.73	-54.1	-58.3	12.6	1.50e-06	0	22	0	603979776	73	6185
2026-01-13 01:54:56.90	352.67	43.93	-54.5	-59.4	12.1	2.20e-06	0	22	0	606076928	74	6575
2026-01-13 01:54:57.89	352.28	44.12	-54.3	-58.6	12.6	7.00e-07	0	22	0	608174080	74	6011
2026-01-13 01:54:58.88	351.88	44.31	-54.1	-58.0	13.1	0.00e+00	0	22	0	610271232	74	5631
2026-01-13 01:54:59.88	351.48	44.50	-53.9	-57.5	13.5	0.00e+00	0	22	0	611319808	74	5328
2026-01-13 01:55:00.87	351.08	44.69	-53.8	-57.3	13.6	0.00e+00	0	22	0	613416960	74	5169
2026-01-13 01:55:01.88	350.66	44.89	-53.7	-56.9	13.7	0.00e+00	0	23	0	615514112	73	5246
2026-01-13 01:55:02.88	350.24	45.08	-54.1	-57.5	13.4	0.00e+00	0	22	0	617611264	73	5622
2026-01-13 01:55:03.88	349.82	45.27	-54.9	-59.1	12.3	0.00e+00	0	22	0	619708416	74	6375
2026-01-13 01:55:04.88	349.39	45.46	-54.8	-58.7	12.7	7.00e-07	0	22	0	620756992	75	5783
2026-01-13 01:55:05.89	348.95	45.65	-54.6	-58.4	12.9	0.00e+00	0	22	0	622854144	75	5548
2026-01-13 01:55:06.89	348.52	45.83	-54.1	-57.5	13.5	0.00e+00	0	22	0	624951296	74	5286
2026-01-13 01:55:07.89	348.07	46.02	-54.0	-57.5	13.5	0.00e+00	0	22	0	627048448	74	5311
2026-01-13 01:55:08.89	347.62	46.21	-53.8	-57.0	13.8	0.00e+00	0	22	0	628097024	74	4987
2026-01-13 01:55:09.90	347.16	46.39	-53.7	-57.0	13.9	0.00e+00	0	22	0	630194176	74	5006
2026-01-13 01:55:10.90	346.71	46.57	-53.7	-56.9	13.9	0.00e+00	0	22	0	632291328	74	4940
2026-01-13 01:55:11.89	346.24	46.75	-52.7	-55.3	14.7	0.00e+00	0	22	0	634388480	72	4619
2026-01-13 01:55:12.90	345.77	46.93	-52.0	-54.3	14.9	0.00e+00	0	22	0	636485632	70	4631
2026-01-13 01:55:13.90	345.29	47.11	-51.4	-53.4	15.2	0.00e+00	0	22	0	637534208	69	4435
2026-01-13 01:55:14.90	344.81	47.29	-51.3	-53.4	15.1	0.00e+00	0	22	0	639631360	68	4656
2026-01-13 01:55:15.90	344.33	47.47	-51.6	-53.8	14.9	0.00e+00	0	22	0	641728512	68	4902
2026-01-13 01:55:16.89	343.84	47.64	-51.7	-53.9	14.8	0.00e+00	0	22	0	643825664	68	4945
2026-01-13 01:55:17.89	343.34	47.81	-52.2	-54.6	14.6	0.00e+00	0	22	0	645922816	69	5066
2026-01-13 01:55:18.89	342.84	47.98	-52.5	-55.1	14.5	0.00e+00	0	22	0	646971392	70	5049
2026-01-13 01:55:19.88	342.33	48.15	-52.7	-55.3	14.3	0.00e+00	0	22	0	649068544	70	5170
2026-01-13 01:55:20.88	341.82	48.32	-52.2	-54.6	14.7	0.00e+00	0	22	0	651165696	70	4769
2026-01-13 01:55:21.88	341.30	48.48	-52.3	-54.7	14.6	0.00e+00	0	22	0	653262848	70	4865
2026-01-13 01:55:22.87	340.78	48.64	-52.5	-55.0	14.5	0.00e+00	0	22	0	655360000	70	5028
2026-01-13 01:55:23.86	340.25	48.80	-52.6	-55.4	14.2	0.00e+00	0	22	0	656408576	70	5251
2026-01-13 01:55:24.84	339.72	48.96	-52.4	-55.0	14.6	0.00e+00	0	22	0	658505728	70	4999
2026-01-13 01:55:25.84	339.18	49.12	-51.9	-54.2	15.0	0.00e+00	0	22	0	660602880	70	4597
2026-01-13 01:55:26.83	338.64	49.27	-51.6	-53.8	15.1	0.00e+00	0	22	0	662700032	69	4635
2026-01-13 01:55:27.83	338.09	49.42	-51.6	-53.8	15.1	0.00e+00	0	22	0	663748608	69	4625
2026-01-13 01:55:28.83	337.53	49.57	-51.5	-53.5	15.2	0.00e+00	0	22	0	665845760	69	4482
2026-01-13 01:55:29.83	336.96	49.72	-51.3	-53.4	15.3	0.00e+00	0	22	0	667942912	69	4407
2026-01-13 01:55:30.83	336.39	49.86	-51.3	-53.4	15.3	0.00e+00	0	22	0	670040064	69	4403
2026-01-13 01:55:31.83	335.82	50.01	-51.0	-53.1	15.2	0.00e+00	0	22	0	672137216	68	4532
2026-01-13 01:55:32.83	335.24	50.15	-51.5	-53.7	14.9	0.00e+00	0	22	0	673185792	68	4827
2026-01-13 01:55:33.82	334.65	50.28	-51.8	-54.3	14.7	0.00e+00	0	22	0	675282944	68	5163
2026-01-13 01:55:34.82	334.06	50.42	-52.0	-54.4	14.6	0.00e+00	0	22	0	677380096	69	4980
2026-01-13 01:55:35.82	333.47	50.55	-52.0	-54.5	14.6	0.00e+00	0	22	0	679477248	69	4989
2026-01-13 01:55:36.82	332.86	50.68	-52.4	-55.1	14.3	0.00e+00	0	22	0	680525824	70	5089
2026-01-13 01:55:37.82	332.26	50.80	-52.2	-55.1	14.4	0.00e+00	0	22	0	682622976	70	5073
2026-01-13 01:55:38.82	331.64	50.93	-52.7	-56.1	13.8	0.00e+00	0	22	0	684720128	70	5679
2026-01-13 01:55:39.81	331.03	51.04	-53.6	-57.8	13.0	0.00e+00	0	22	0	686817280	72	6185
2026-01-13 01:55:40.82	330.41	51.16	-53.7	-57.9	12.8	0.00e+00	0	22	0	688914432	73	5868
2026-01-13 01:55:41.81	329.78	51.27	-53.3	-57.0	13.5	0.00e+00	0	22	0	689963008	73	5286
2026-01-13 01:55:42.81	329.15	51.38	-52.4	-55.4	14.3	0.00e+00	0	22	0	692060160	71	4971
2026-01-13 01:55:43.80	328.52	51.49	-52.2	-54.9	14.5	0.00e+00	0	22	0	694157312	70	4970
2026-01-13 01:55:44.79	327.89	51.59	-52.1	-54.8	14.6	0.00e+00	0	22	0	696254464	70	4906
2026-01-13 01:55:45.79	327.24	51.69	-52.2	-54.9	14.5	0.00e+00	0	22	0	697303040	70	4973
2026-01-13 01:55:46.78	326.60	51.78	-52.5	-55.5	14.2	0.00e+00	0	22	0	699400192	70	5304
2026-01-13 01:55:47.78	325.95	51.87	-52.8	-56.3	13.6	0.00e+00	0	22	0	701497344	70	5812
2026-01-13 01:55:48.78	325.29	51.96	-52.8	-56.4	13.5	0.00e+00	0	22	0	703594496	70	5907
2026-01-13 01:55:49.77	324.64	52.04	-52.5	-55.6	14.2	0.00e+00	0	22	0	705691648	71	5095
2026-01-13 01:55:50.76	323.98	52.12	-52.3	-55.2	14.5	0.00e+00	0	22	0	706740224	71	4849
2026-01-13 01:55:51.76	323.31	52.20	-51.4	-54.0	14.8	0.00e+00	0	22	0	708837376	69	4728
2026-01-13 01:55:52.75	322.65	52.27	-50.9	-53.2	15.1	0.00e+00	0	22	0	710934528	68	4566
2026-01-13 01:55:53.75	321.97	52.34	-50.4	-52.5	15.4	0.00e+00	0	22	0	713031680	67	4456
2026-01-13 01:55:54.75	321.29	52.40	-50.2	-52.3	15.3	0.00e+00	0	22	0	714080256	66	4640
2026-01-13 01:55:55.75	320.61	52.46	-49.5	-51.4	15.5	0.00e+00	0	22	0	716177408	65	4420
2026-01-13 01:55:56.75	319.93	52.52	-49.1	-50.9	15.6	0.00e+00	0	22	0	718274560	64	4406
2026-01-13 01:55:57.75	319.24	52.57	-49.2	-51.0	15.6	0.00e+00	0	22	0	720371712	64	4458
2026-01-13 01:55:58.75	318.55	52.62	-49.3	-51.2	15.5	0.00e+00	0	22	0	722468864	64	4568
2026-01-13 01:55:59.76	317.86	52.66	-50.0	-52.1	15.1	0.00e+00	0	22	0	724566016	65	4783
2026-01-13 01:56:00.76	317.16	52.70	-49.8	-51.8	15.4	0.00e+00	0	22	0	725614592	65	4610
2026-01-13 01:56:01.76	316.47	52.74	-49.7	-51.7	15.4	0.00e+00	0	22	0	727711744	65	4568
2026-01-13 01:56:02.76	315.77	52.77	-49.5	-51.5	15.5	0.00e+00	0	22	0	729808896	65	4462
2026-01-13 01:56:03.75	315.08	52.79	-49.4	-51.3	15.6	0.00e+00	0	22	0	731906048	65	4374
2026-01-13 01:56:04.75	314.39	52.82	-49.3	-51.3	15.6	0.00e+00	0	22	0	732954624	65	4343
2026-01-13 01:56:05.74	313.69	52.83	-49.1	-51.0	15.6	0.00e+00	0	22	0	735051776	64	4445
2026-01-13 01:56:06.75	312.99	52.85	-49.2	-51.0	15.5	0.00e+00	0	22	0	737148928	64	4488
2026-01-13 01:56:07.75	312.29	52.86	-49.4	-51.3	15.4	0.00e+00	0	22	0	739246080	64	4637
2026-01-13 01:56:08.75	311.58	52.86	-49.7	-51.9	15.1	0.00e+00	0	22	0	741343232	64	4946
2026-01-13 01:56:09.75	310.88	52.86	-50.3	-52.6	14.9	0.00e+00	0	22	0	742391808	65	5061
2026-01-13 01:56:10.75	310.18	52.86	-50.5	-52.8	15.0	0.00e+00	0	22	0	744488960	66	4910
2026-01-13 01:56:11.75	309.48	52.85	-50.5	-52.8	15.0	0.00e+00	0	22	0	746586112	66	4905
2026-01-13 01:56:12.74	308.79	52.83	-50.4	-52.6	15.1	0.00e+00	0	22	0	748683264	66	4808
2026-01-13 01:56:13.74	308.09	52.82	-50.6	-52.8	15.0	0.00e+00	0	22	0	749731840	66	4897
2026-01-13 01:56:14.72	307.40	52.79	-50.8	-53.0	14.9	0.00e+00	0	22	0	751828992	66	5029
2026-01-13 01:56:15.73	306.70	52.77	-51.0	-53.3	15.0	0.00e+00	0	22	0	753926144	67	4899
2026-01-13 01:56:16.73	306.00	52.74	-50.4	-52.5	15.4	0.00e+00	0	22	0	756023296	67	4454
2026-01-13 01:56:17.73	305.31	52.70	-50.3	-52.4	15.2	0.00e+00	0	22	0	758120448	66	4673
2026-01-13 01:56:18.73	304.62	52.66	-50.7	-53.0	14.9	0.00e+00	0	22	0	759169024	66	4998
2026-01-13 01:56:19.72	303.93	52.62	-50.8	-53.1	15.0	0.00e+00	0	22	0	761266176	67	4814
2026-01-13 01:56:20.72	303.24	52.57	-51.0	-53.4	14.9	0.00e+00	0	22	0	763363328	67	4970
2026-01-13 01:56:21.72	302.56	52.52	-51.2	-53.7	14.7	0.00e+00	0	22	0	765460480	67	5156
2026-01-13 01:56:22.72	301.87	52.46	-51.1	-53.6	14.8	0.00e+00	0	22	0	767557632	67	5058
2026-01-13 01:56:23.72	301.19	52.40	-50.7	-52.9	15.1	0.00e+00	0	22	0	768606208	67	4684
2026-01-13 01:56:24.71	300.52	52.34	-50.5	-52.6	15.3	0.00e+00	0	22	0	770703360	67	4524
2026-01-13 01:56:25.71	299.85	52.27	-50.7	-52.9	15.2	0.00e+00	0	22	0	772800512	67	4664
2026-01-13 01:56:26.72	299.17	52.20	-50.4	-52.4	15.4	0.00e+00	0	22	0	774897664	67	4418
2026-01-13 01:56:27.71	298.51	52.12	-49.6	-51.4	15.5	0.00e+00	0	22	0	775946240	65	4416
2026-01-13 01:56:28.71	297.84	52.04	-49.6	-51.5	15.5	0.00e+00	0	22	0	778043392	65	4464
2026-01-13 01:56:29.71	297.18	51.96	-50.1	-52.2	15.1	0.00e+00	0	22	0	780140544	65	4832
2026-01-13 01:56:30.71	296.52	51.87	-50.2	-52.2	15.1	0.00e+00	0	22	0	782237696	65	4870
2026-01-13 01:56:31.72	295.86	51.78	-49.7	-51.6	15.5	0.00e+00	0	22	0	784334848	65	4512
2026-01-13 01:56:32.72	295.21	51.68	-50.2	-52.4	15.1	0.00e+00	0	22	0	785383424	65	4937
2026-01-13 01:56:33.72	294.57	51.58	-50.6	-52.9	15.0	0.00e+00	0	22	0	787480576	66	4942
2026-01-13 01:56:34.73	293.92	51.48	-51.2	-53.6	14.8	0.00e+00	0	22	0	789577728	67	5067
2026-01-13 01:56:35.73	293.28	51.37	-50.8	-53.0	15.1	0.00e+00	0	22	0	791674880	67	4754
2026-01-13 01:56:36.73	292.65	51.26	-51.1	-53.3	15.0	0.00e+00	0	22	0	793772032	67	4898
2026-01-13 01:56:37.73	292.02	51.15	-50.6	-52.6	15.3	0.00e+00	0	22	0	794820608	67	4514
2026-01-13 01:56:38.72	291.41	51.04	-50.5	-52.4	15.4	0.00e+00	0	22	0	796917760	67	4423
2026-01-13 01:56:39.72	290.79	50.92	-50.4	-52.2	15.5	0.00e+00	0	22	0	799014912	67	4328
2026-01-13 01:56:40.72	290.18	50.79	-50.5	-52.3	15.5	0.00e+00	0	22	0	801112064	67	4368
2026-01-13 01:56:41.71	289.58	50.67	-50.8	-52.8	15.2	0.00e+00	0	22	0	803209216	67	4611
2026-01-13 01:56:42.70	288.98	50.54	-52.1	-54.6	14.6	0.00e+00	0	22	0	804257792	69	5061
2026-01-13 01:56:43.70	288.38	50.41	-52.8	-55.6	14.2	0.00e+00	0	22	0	806354944	70	5347
2026-01-13 01:56:44.71	287.79	50.27	-53.2	-56.3	14.0	0.00e+00	0	22	0	808452096	71	5527
2026-01-13 01:56:45.70	287.20	50.14	-53.0	-55.9	14.3	0.00e+00	0	22	0	810549248	71	5222
2026-01-13 01:56:46.70	286.62	50.00	-53.2	-56.2	14.1	0.00e+00	0	22	0	811597824	71	5413
2026-01-13 01:56:47.70	286.05	49.86	-52.9	-55.6	14.3	0.00e+00	0	22	0	813694976	71	5080
2026-01-13 01:56:48.70	285.48	49.71	-52.4	-54.8	14.8	0.00e+00	0	22	0	815792128	71	4624
2026-01-13 01:56:49.70	284.91	49.56	-52.6	-55.1	14.7	0.00e+00	0	22	0	817889280	71	4809
2026-01-13 01:56:50.69	284.36	49.41	-52.5	-54.9	14.8	0.00e+00	0	22	0	819986432	71	4698
2026-01-13 01:56:51.69	283.80	49.26	-52.5	-55.0	14.7	0.00e+00	0	22	0	821035008	71	4722
2026-01-13 01:56:52.69	283.26	49.10	-52.5	-55.1	14.6	0.00e+00	0	22	0	823132160	71	4798
2026-01-13 01:56:53.68	282.72	48.95	-52.7	-55.5	14.3	0.00e+00	0	22	0	825229312	71	5015
2026-01-13 01:56:54.68	282.18	48.79	-52.9	-55.8	14.2	0.00e+00	0	22	0	827326464	71	5164
2026-01-13 01:56:55.67	281.65	48.63	-52.7	-55.5	14.4	0.00e+00	0	22	0	828375040	71	4997
2026-01-13 01:56:56.67	281.13	48.47	-52.8	-55.7	14.2	0.00e+00	0	22	0	830472192	71	5146
2026-01-13 01:56:57.67	280.61	48.30	-52.4	-55.0	14.7	0.00e+00	0	22	0	832569344	71	4723
2026-01-13 01:56:58.66	280.10	48.13	-52.5	-55.1	14.5	0.00e+00	0	22	0	834666496	70	5071
2026-01-13 01:56:59.67	279.58	47.96	-52.7	-55.4	14.2	0.00e+00	0	22	0	836763648	70	5278
2026-01-13 01:57:00.66	279.09	47.79	-52.8	-55.5	14.4	0.00e+00	0	22	0	837812224	71	5036
2026-01-13 01:57:01.66	278.59	47.62	-52.4	-54.8	14.8	0.00e+00	0	22	0	839909376	71	4618
2026-01-13 01:57:02.67	278.09	47.44	-52.5	-54.9	14.7	0.00e+00	0	22	0	842006528	71	4699
2026-01-13 01:57:03.66	277.61	47.27	-52.5	-54.9	14.8	0.00e+00	0	22	0	844103680	71	4690
2026-01-13 01:57:04.66	277.13	47.09	-52.4	-54.8	14.9	0.00e+00	0	22	0	846200832	71	4607
2026-01-13 01:57:05.66	276.65	46.91	-52.4	-54.9	14.8	0.00e+00	0	22	0	847249408	71	4671
2026-01-13 01:57:06.66	276.18	46.73	-53.1	-56.0	14.1	0.00e+00	0	22	0	849346560	71	5298
2026-01-13 01:57:07.66	275.71	46.55	-53.8	-57.0	13.6	0.00e+00	0	22	0	851443712	72	5637
2026-01-13 01:57:08.65	275.26	46.37	-54.3	-58.0	13.1	0.00e+00	0	22	0	853540864	73	5935
2026-01-13 01:57:09.64	274.81	46.19	-53.2	-55.9	14.5	0.00e+00	0	22	0	854589440	73	4667
2026-01-13 01:57:10.63	274.36	46.00	-52.5	-54.8	14.8	0.00e+00	0	22	0	856686592	71	4643
2026-01-13 01:57:11.63	273.92	45.82	-52.4	-54.5	14.8	0.00e+00	0	22	0	858783744	70	4752
2026-01-13 01:57:12.63	273.48	45.63	-51.7	-53.7	15.3	0.00e+00	0	22	0	860880896	70	4302
2026-01-13 01:57:13.63	273.05	45.44	-51.8	-53.8	15.0	0.00e+00	0	22	0	862978048	69	4626
2026-01-13 01:57:14.63	272.62	45.25	-52.1	-54.2	14.8	0.00e+00	0	22	0	864026624	69	4833
2026-01-13 01:57:15.61	272.20	45.07	-52.7	-55.1	14.5	0.00e+00	0	22	0	866123776	70	5061
2026-01-13 01:57:16.61	271.79	44.87	-53.3	-56.0	14.0	0.00e+00	0	22	0	868220928	71	5299
2026-01-13 01:57:17.62	271.37	44.68	-53.6	-56.5	13.9	0.00e+00	0	22	0	870318080	72	5307
2026-01-13 01:57:18.62	270.96	44.49	-53.8	-56.8	13.7	0.00e+00	0	22	0	871366656	72	5507
2026-01-13 01:57:19.62	270.56	44.30	-53.5	-56.5	14.0	0.00e+00	0	22	0	873463808	73	4989
2026-01-13 01:57:20.61	270.16	44.10	-53.5	-56.3	14.2	0.00e+00	0	23	0	875560960	73	4881
2026-01-13 01:57:21.61	269.77	43.91	-53.1	-55.8	14.4	0.00e+00	0	22	0	877658112	72	4891
2026-01-13 01:57:22.61	269.38	43.71	-53.0	-55.6	14.4	0.00e+00	0	22	0	879755264	72	4800
2026-01-13 01:57:23.61	269.00	43.52	-53.3	-56.3	14.0	0.00e+00	0	22	0	880803840	72	5185
2026-01-13 01:57:24.61	268.62	43.32	-53.7	-57.0	13.6	0.00e+00	0	22	0	882900992	72	5600
2026-01-13 01:57:25.61	268.24	43.13	-54.5	-58.5	12.6	0.00e+00	0	22	0	884998144	74	5984
2026-01-13 01:57:26.61	267.87	42.93	-54.1	-57.9	13.2	0.00e+00	0	22	0	887095296	74	5542
2026-01-13 01:57:27.61	267.51	42.73	-54.0	-57.6	13.4	0.00e+00	0	22	0	889192448	74	5354
2026-01-13 01:57:28.62	267.14	42.53	-53.5	-56.7	13.9	0.00e+00	0	22	0	890241024	73	5124
2026-01-13 01:57:29.61	266.79	42.34	-52.9	-55.6	14.3	0.00e+00	0	22	0	892338176	72	4808
2026-01-13 01:57:30.61	266.44	42.14	-52.5	-54.9	14.7	0.00e+00	0	22	0	894435328	71	4686
2026-01-13 01:57:31.61	266.09	41.94	-52.4	-54.9	14.6	0.00e+00	0	22	0	896532480	70	4934
2026-01-13 01:57:32.61	265.75	41.75	-52.7	-55.2	14.3	0.00e+00	0	22	0	897581056	70	5145
2026-01-13 01:57:33.61	265.41	41.55	-53.2	-56.0	14.0	0.00e+00	0	22	0	899678208	71	5334
2026-01-13 01:57:34.60	265.07	41.35	-53.4	-56.4	13.8	0.00e+00	0	22	0	901775360	71	5542
2026-01-13 01:57:35.60	264.74	41.15	-53.9	-57.1	13.4	0.00e+00	0	22	0	903872512	73	5398
2026-01-13 01:57:36.60	264.42	40.96	-53.9	-57.3	13.5	0.00e+00	0	22	0	905969664	73	5520
2026-01-13 01:57:37.61	264.09	40.76	-54.2	-57.9	13.1	0.00e+00	0	22	0	907018240	73	5913
2026-01-13 01:57:38.60	263.77	40.56	-54.3	-57.9	13.0	0.00e+00	0	22	0	909115392	73	5902
2026-01-13 01:57:39.60	263.46	40.36	-53.7	-56.8	13.8	0.00e+00	0	22	0	911212544	73	5206
2026-01-13 01:57:40.61	263.14	40.16	-53.4	-56.3	14.2	0.00e+00	0	22	0	913309696	73	4894
2026-01-13 01:57:41.60	262.84	39.97	-53.5	-56.6	14.0	0.00e+00	0	22	0	915406848	73	5047
2026-01-13 01:57:42.60	262.54	39.77	-54.3	-57.9	13.0	0.00e+00	0	22	0	916455424	73	5911
2026-01-13 01:57:43.59	262.24	39.57	-55.1	-59.8	11.9	0.00e+00	0	22	0	918552576	75	6506
2026-01-13 01:57:44.59	261.94	39.38	-55.7	-61.1	11.0	1.77e-04	0	22	0	920649728	76	7123
2026-01-13 01:57:45.58	261.65	39.18	-55.5	-60.7	11.2	1.16e-04	0	23	0	922746880	76	6808
2026-01-13 01:57:46.58	261.36	38.99	-55.4	-60.3	11.6	2.44e-05	0	22	0	923795456	76	6517
2026-01-13 01:57:47.58	261.08	38.79	-55.1	-59.7	12.1	3.73e-05	0	22	0	925892608	76	6067
2026-01-13 01:57:48.58	260.79	38.59	-55.2	-59.9	11.9	2.13e-05	0	22	0	927989760	76	6234
2026-01-13 01:57:49.58	260.51	38.40	-55.2	-59.9	11.9	1.98e-05	0	22	0	930086912	76	6207
2026-01-13 01:57:50.58	260.24	38.20	-55.2	-59.7	12.1	1.37e-05	0	22	0	932184064	76	6119
2026-01-13 01:57:51.58	259.97	38.01	-54.9	-59.0	12.6	4.50e-06	0	22	0	933232640	76	5636
2026-01-13 01:57:52.56	259.70	37.82	-54.4	-58.2	13.1	0.00e+00	0	22	0	935329792	75	5431
2026-01-13 01:57:53.56	259.44	37.62	-54.0	-57.2	13.6	0.00e+00	0	22	0	937426944	74	5127
2026-01-13 01:57:54.56	259.17	37.43	-53.5	-56.4	14.0	0.00e+00	0	22	0	939524096	73	4967
2026-01-13 01:57:55.55	258.92	37.24	-53.0	-55.6	14.4	0.00e+00	0	22	0	940572672	72	4796
2026-01-13 01:57:56.55	258.66	37.05	-52.3	-54.6	14.9	0.00e+00	0	22	0	942669824	71	4528
2026-01-13 01:57:57.55	258.41	36.85	-52.1	-54.3	14.9	0.00e+00	0	22	0	944766976	70	4604
2026-01-13 01:57:58.55	258.16	36.66	-51.9	-54.0	15.0	0.00e+00	0	22	0	946864128	70	4475
2026-01-13 01:57:59.54	257.91	36.47	-51.8	-53.9	15.0	0.00e+00	0	22	0	948961280	70	4395
2026-01-13 01:58:00.54	257.67	36.28	-52.3	-54.6	14.7	0.00e+00	0	22	0	950009856	70	4802
2026-01-13 01:58:01.55	257.42	36.09	-52.8	-55.4	14.3	0.00e+00	0	22	0	952107008	70	5227
2026-01-13 01:58:02.55	257.18	35.90	-53.2	-56.0	14.1	0.00e+00	0	22	0	954204160	71	5299
2026-01-13 01:58:03.55	256.95	35.71	-53.6	-56.7	13.8	0.00e+00	0	22	0	956301312	72	5406
2026-01-13 01:58:04.54	256.72	35.52	-54.2	-57.7	13.3	0.00e+00	0	22	0	958398464	73	5736
2026-01-13 01:58:05.55	256.48	35.33	-54.7	-58.6	12.6	0.00e+00	0	22	0	959447040	74	6036
2026-01-13 01:58:06.55	256.25	35.15	-54.6	-58.4	12.8	7.00e-07	0	22	0	961544192	74	5894
2026-01-13 01:58:07.55	256.03	34.96	-54.7	-58.5	12.7	0.00e+00	0	22	0	963641344	74	5977
2026-01-13 01:58:08.55	255.81	34.77	-54.5	-58.0	13.2	0.00e+00	0	22	0	965738496	74	5620
2026-01-13 01:58:09.55	255.59	34.59	-54.5	-58.1	13.1	0.00e+00	0	22	0	967835648	74	5664
2026-01-13 01:58:10.56	255.37	34.40	-54.1	-57.2	13.6	0.00e+00	0	22	0	968884224	74	5136
2026-01-13 01:58:11.55	255.15	34.22	-54.0	-57.1	13.8	0.00e+00	0	22	0	970981376	74	5043
2026-01-13 01:58:12.55	254.94	34.03	-53.8	-56.7	14.0	0.00e+00	0	22	0	973078528	74	4858
2026-01-13 01:58:13.55	254.73	33.85	-53.8	-56.8	13.8	0.00e+00	0	22	0	975175680	73	5167
2026-01-13 01:58:14.55	254.52	33.67	-53.6	-56.3	14.1	0.00e+00	0	22	0	976224256	73	4903
2026-01-13 01:58:15.54	254.32	33.49	-53.5	-56.2	14.3	0.00e+00	0	22	0	978321408	73	4835
2026-01-13 01:58:16.55	254.11	33.31	-53.6	-56.4	14.1	0.00e+00	0	22	0	980418560	73	4951
2026-01-13 01:58:17.55	253.91	33.13	-54.1	-57.2	13.5	0.00e+00	0	22	0	982515712	73	5431
2026-01-13 01:58:18.54	253.71	32.95	-54.8	-58.4	12.8	0.00e+00	0	23	0	984612864	74	5859
2026-01-13 01:58:19.53	253.52	32.77	-55.0	-58.7	12.8	1.50e-06	0	22	0	985661440	75	5779
2026-01-13 01:58:20.54	253.32	32.59	-55.0	-58.6	12.8	0.00e+00	0	22	0	987758592	75	5711
2026-01-13 01:58:21.54	253.13	32.41	-54.3	-57.4	13.7	0.00e+00	0	22	0	989855744	75	4954
2026-01-13 01:58:22.53	252.94	32.24	-53.8	-56.5	14.2	0.00e+00	0	22	0	991952896	74	4717
2026-01-13 01:58:23.53	252.75	32.06	-53.1	-55.6	14.6	0.00e+00	0	23	0	994050048	72	4760
2026-01-13 01:58:24.53	252.57	31.88	-52.5	-54.6	14.9	0.00e+00	0	22	0	995098624	71	4520
2026-01-13 01:58:25.53	252.38	31.71	-52.5	-54.6	14.9	0.00e+00	0	23	0	997195776	71	4535
2026-01-13 01:58:26.52	252.20	31.54	-52.4	-54.5	14.9	0.00e+00	0	22	0	999292928	71	4492
2026-01-13 01:58:27.53	252.02	31.36	-52.8	-55.1	14.6	0.00e+00	0	23	0	1001390080	71	4792
2026-01-13 01:58:28.53	251.84	31.19	-53.2	-55.7	14.2	0.00e+00	0	22	0	1002438656	71	5102
2026-01-13 01:58:29.52	251.67	31.02	-53.5	-56.1	14.1	0.00e+00	0	22	0	1004535808	72	5071
2026-01-13 01:58:30.52	251.49	30.85	-54.2	-57.2	13.5	0.00e+00	0	22	0	1006632960	73	5432
2026-01-13 01:58:31.52	251.32	30.68	-54.3	-57.4	13.2	0.00e+00	0	22	0	1008730112	73	5554
2026-01-13 01:58:32.52	251.15	30.50	-53.9	-56.7	13.8	0.00e+00	0	22	0	1010827264	73	5148
2026-01-13 01:58:33.52	250.98	30.34	-53.5	-56.1	14.2	0.00e+00	0	22	0	1011875840	73	4804
2026-01-13 01:58:34.52	250.81	30.17	-53.3	-55.8	14.5	0.00e+00	0	22	0	1013972992	73	4638
2026-01-13 01:58:35.53	250.65	30.00	-53.1	-55.6	14.4	0.00e+00	0	22	0	1016070144	72	4781
2026-01-13 01:58:36.53	250.48	29.83	-53.3	-55.9	14.2	0.00e+00	0	22	0	1018167296	72	4941
2026-01-13 01:58:37.53	250.32	29.66	-53.5	-56.2	14.0	0.00e+00	0	22	0	1020264448	72	5114
2026-01-13 01:58:38.53	250.16	29.50	-53.4	-56.1	14.0	0.00e+00	0	22	0	1021313024	72	5096
2026-01-13 01:58:39.53	250.00	29.33	-53.0	-55.4	14.4	0.00e+00	0	22	0	1023410176	72	4692
2026-01-13 01:58:40.52	249.85	29.17	-52.8	-55.2	14.6	0.00e+00	0	22	0	1025507328	72	4596
2026-01-13 01:58:41.51	249.69	29.01	-52.5	-54.7	14.8	0.00e+00	0	22	0	1027604480	71	4588
2026-01-13 01:58:42.51	249.54	28.84	-52.0	-54.0	15.0	0.00e+00	0	23	0	1029701632	70	4468
2026-01-13 01:58:43.52	249.39	28.68	-51.8	-53.8	15.2	0.00e+00	0	23	0	1030750208	70	4344
2026-01-13 01:58:44.51	249.24	28.52	-51.6	-53.5	15.1	0.00e+00	0	22	0	1032847360	69	4477
2026-01-13 01:58:45.51	249.09	28.36	-51.9	-53.9	14.9	0.00e+00	0	22	0	1034944512	69	4701
2026-01-13 01:58:46.50	248.94	28.20	-52.1	-54.3	14.7	0.00e+00	0	22	0	1037041664	69	4874
2026-01-13 01:58:47.50	248.80	28.04	-52.2	-54.4	14.7	0.00e+00	0	22	0	1038090240	69	4942
2026-01-13 01:58:48.50	248.65	27.88	-52.4	-54.6	14.7	0.00e+00	0	22	0	1040187392	70	4779
2026-01-13 01:58:49.49	248.51	27.73	-52.5	-54.8	14.6	0.00e+00	0	23	0	1042284544	70	4885
2026-01-13 01:58:50.48	248.37	27.57	-52.8	-55.2	14.4	0.00e+00	0	23	0	1044381696	70	5103
2026-01-13 01:58:51.48	248.23	27.41	-53.1	-55.7	14.2	0.00e+00	0	22	0	1046478848	71	5107
2026-01-13 01:58:52.48	248.09	27.26	-53.6	-56.4	13.9	0.00e+00	0	22	0	1047527424	72	5253
2026-01-13 01:58:53.47	247.96	27.10	-53.8	-56.8	13.7	0.00e+00	0	22	0	1049624576	72	5484
2026-01-13 01:58:54.47	247.82	26.95	-54.5	-57.9	13.2	0.00e+00	0	22	0	1051721728	74	5582
2026-01-13 01:58:55.46	247.69	26.80	-54.4	-57.7	13.3	0.00e+00	0	22	0	1053818880	74	5407
2026-01-13 01:58:56.45	247.55	26.64	-54.4	-57.6	13.4	0.00e+00	0	22	0	1054867456	74	5370
2026-01-13 01:58:57.45	247.42	26.49	-54.1	-57.0	13.8	0.00e+00	0	22	0	1056964608	74	5030
2026-01-13 01:58:58.43	247.29	26.34	-53.9	-56.8	13.9	0.00e+00	0	22	0	1059061760	74	4885
2026-01-13 01:58:59.43	247.16	26.19	-53.6	-56.3	14.1	0.00e+00	0	22	0	1061158912	73	4900
2026-01-13 01:59:00.42	247.04	26.04	-53.3	-55.9	14.4	0.00e+00	0	22	0	1063256064	73	4702
2026-01-13 01:59:01.42	246.91	25.89	-53.3	-55.9	14.4	0.00e+00	0	22	0	1064304640	73	4679
2026-01-13 01:59:02.42	246.78	25.74	-53.0	-55.4	14.5	0.00e+00	0	22	0	1066401792	72	4696
2026-01-13 01:59:03.41	246.66	25.60	-53.0	-55.4	14.5	0.00e+00	0	22	0	1068498944	72	4682
2026-01-13 01:59:04.41	246.54	25.45	-52.6	-54.8	14.7	0.00e+00	0	22	0	1070596096	71	4642
2026-01-13 01:59:05.41	246.41	25.30	-52.4	-54.6	14.8	0.00e+00	0	22	0	1071644672	71	4534
2026-01-13 01:59:06.41	246.29	25.15	-52.2	-54.4	14.8	0.00e+00	0	22	0	1073741824	70	4664
2026-01-13 01:59:07.41	246.17	25.01	-52.3	-54.5	14.7	0.00e+00	0	22	0	1075838976	70	4707
2026-01-13 01:59:08.42	246.05	24.86	-52.3	-54.6	14.7	0.00e+00	0	23	0	1077936128	70	4762
2026-01-13 01:59:09.42	245.93	24.72	-52.3	-54.5	14.7	0.00e+00	0	23	0	1080033280	70	4749
2026-01-13 01:59:10.42	245.82	24.57	-52.7	-55.2	14.3	0.00e+00	0	22	0	1081081856	70	5122
2026-01-13 01:59:11.41	245.70	24.43	-53.0	-55.5	14.3	0.00e+00	0	22	0	1083179008	71	5024
2026-01-13 01:59:12.41	245.59	24.29	-53.3	-56.1	13.9	0.00e+00	0	22	0	1085276160	71	5369
2026-01-13 01:59:13.41	245.48	24.15	-53.3	-56.1	13.9	0.00e+00	0	22	0	1087373312	71	5343
2026-01-13 01:59:14.41	245.36	24.01	-53.1	-55.7	14.1	0.00e+00	0	22	0	1088421888	71	5111
2026-01-13 01:59:15.41	245.25	23.87	-53.0	-55.5	14.3	0.00e+00	0	22	0	1090519040	71	5032
2026-01-13 01:59:16.40	245.14	23.73	-52.7	-55.1	14.5	0.00e+00	0	22	0	1092616192	71	4794
2026-01-13 01:59:17.40	245.03	23.59	-52.6	-54.9	14.7	0.00e+00	0	22	0	1094713344	71	4660
2026-01-13 01:59:18.39	244.92	23.45	-52.5	-54.7	14.8	0.00e+00	0	22	0	1096810496	71	4563
2026-01-13 01:59:19.39	244.82	23.31	-52.5	-54.7	14.8	0.00e+00	0	22	0	1097859072	71	4587
2026-01-13 01:59:20.39	244.71	23.17	-52.2	-54.3	15.0	0.00e+00	0	22	0	1099956224	71	4385
2026-01-13 01:59:21.39	244.61	23.04	-52.2	-54.3	15.0	0.00e+00	0	22	0	1102053376	71	4391
2026-01-13 01:59:22.38	244.50	22.90	-52.2	-54.3	14.8	0.00e+00	0	22	0	1104150528	70	4611
2026-01-13 01:59:23.38	244.40	22.77	-52.1	-54.2	14.9	0.00e+00	0	22	0	1106247680	70	4548
2026-01-13 01:59:24.39	244.29	22.63	-51.9	-53.9	15.1	0.00e+00	0	22	0	1107296256	70	4435
2026-01-13 01:59:25.39	244.19	22.50	-51.9	-53.9	15.1	0.00e+00	0	22	0	1109393408	70	4422
2026-01-13 01:59:26.39	244.09	22.36	-52.0	-54.0	15.0	0.00e+00	0	22	0	1111490560	70	4456
2026-01-13 01:59:27.39	243.99	22.23	-52.0	-54.1	15.0	0.00e+00	0	22	0	1113587712	70	4498
2026-01-13 01:59:28.39	243.89	22.10	-52.2	-54.3	14.8	0.00e+00	0	22	0	1115684864	70	4604
2026-01-13 01:59:29.39	243.79	21.96	-52.3	-54.4	14.7	0.00e+00	0	22	0	1116733440	70	4694
2026-01-13 01:59:30.40	243.70	21.83	-52.6	-54.8	14.5	0.00e+00	0	22	0	1118830592	70	4910
2026-01-13 01:59:31.39	243.60	21.70	-52.8	-55.2	14.3	0.00e+00	0	22	0	1120927744	70	5137
2026-01-13 01:59:32.40	243.50	21.57	-52.9	-55.3	14.4	0.00e+00	0	22	0	1123024896	71	4915
2026-01-13 01:59:33.40	243.41	21.44	-53.0	-55.4	14.4	0.00e+00	0	22	0	1124073472	71	4933
2026-01-13 01:59:34.40	243.31	21.31	-53.1	-55.6	14.2	0.00e+00	0	23	0	1126170624	71	5049
2026-01-13 01:59:35.40	243.22	21.18	-53.1	-55.5	14.2	0.00e+00	0	23	0	1128267776	71	5016
2026-01-13 01:59:36.39	243.13	21.06	-52.8	-55.1	14.5	0.00e+00	0	22	0	1130364928	71	4797
2026-01-13 01:59:37.39	243.04	20.93	-52.7	-55.0	14.5	0.00e+00	0	22	0	1132462080	71	4715
2026-01-13 01:59:38.39	242.95	20.80	-52.5	-54.7	14.7	0.00e+00	0	22	0	1133510656	71	4587
2026-01-13 01:59:39.38	242.86	20.68	-52.3	-54.3	14.9	0.00e+00	0	23	0	1135607808	71	4384
2026-01-13 01:59:40.38	242.77	20.55	-52.3	-54.3	15.0	0.00e+00	0	22	0	1137704960	71	4384
2026-01-13 01:59:41.38	242.68	20.43	-52.2	-54.3	14.8	0.00e+00	0	22	0	1139802112	70	4650
2026-01-13 01:59:42.38	242.59	20.30	-52.1	-54.1	14.9	0.00e+00	0	22	0	1141899264	70	4524
2026-01-13 01:59:43.37	242.50	20.18	-52.2	-54.3	14.8	0.00e+00	0	22	0	1142947840	70	4633
2026-01-13 01:59:44.36	242.42	20.06	-52.4	-54.5	14.7	0.00e+00	0	22	0	1145044992	70	4750
2026-01-13 01:59:45.36	242.33	19.93	-52.3	-54.4	14.7	0.00e+00	0	22	0	1147142144	70	4698
2026-01-13 01:59:46.36	242.25	19.81	-52.5	-54.7	14.5	0.00e+00	0	22	0	1149239296	70	4863
2026-01-13 01:59:47.36	242.16	19.69	-52.4	-54.6	14.6	0.00e+00	0	23	0	1150287872	70	4797
2026-01-13 01:59:48.35	242.08	19.57	-52.6	-54.9	14.4	0.00e+00	0	22	0	1152385024	70	4963
2026-01-13 01:59:49.35	242.00	19.45	-52.4	-54.7	14.6	0.00e+00	0	22	0	1154482176	70	4820
2026-01-13 01:59:50.35	241.92	19.33	-52.6	-54.9	14.4	0.00e+00	0	22	0	1156579328	70	4954
2026-01-13 01:59:51.34	241.83	19.21	-52.6	-55.0	14.4	0.00e+00	0	22	0	1158676480	70	5017
2026-01-13 01:59:52.33	241.75	19.09	-52.6	-55.0	14.4	0.00e+00	0	22	0	1159725056	70	4997
2026-01-13 01:59:53.33	241.67	18.97	-52.6	-54.9	14.4	0.00e+00	0	22	0	1161822208	70	4974
2026-01-13 01:59:54.32	241.59	18.85	-52.4	-54.6	14.6	0.00e+00	0	23	0	1163919360	70	4792
2026-01-13 01:59:55.32	241.52	18.74	-52.4	-54.6	14.6	0.00e+00	0	22	0	1166016512	70	4809
2026-01-13 01:59:56.31	241.44	18.62	-52.3	-54.5	14.7	0.00e+00	0	22	0	1167065088	70	4726
2026-01-13 01:59:57.30	241.36	18.50	-52.0	-54.1	14.9	0.00e+00	0	22	0	1169162240	70	4540
2026-01-13 01:59:58.30	241.28	18.39	-52.0	-54.1	14.9	0.00e+00	0	22	0	1171259392	70	4512
2026-01-13 01:59:59.29	241.21	18.27	-51.8	-53.8	15.1	0.00e+00	0	22	0	1173356544	70	4373
2026-01-13 02:00:00.29	241.13	18.16	-51.7	-53.7	15.0	0.00e+00	0	22	0	1175453696	69	4559
2026-01-13 02:00:01.28	241.06	18.04	-51.5	-53.4	15.1	0.00e+00	0	22	0	1176502272	69	4409
2026-01-13 02:00:02.28	240.98	17.93	-51.6	-53.5	15.0	0.00e+00	0	22	0	1178599424	69	4490
2026-01-13 02:00:03.28	240.91	17.82	-51.5	-53.4	15.1	0.00e+00	0	22	0	1180696576	69	4415
2026-01-13 02:00:04.27	240.83	17.70	-51.4	-53.2	15.2	0.00e+00	0	22	0	1182793728	69	4328
2026-01-13 02:00:05.27	240.76	17.59	-51.6	-53.5	15.1	0.00e+00	0	22	0	1183842304	69	4469
2026-01-13 02:00:06.27	240.69	17.48	-51.2	-53.1	15.3	0.00e+00	0	22	0	1185939456	69	4266
2026-01-13 02:00:07.27	240.62	17.37	-51.3	-53.1	15.3	0.00e+00	0	22	0	1188036608	69	4279
2026-01-13 02:00:08.27	240.55	17.25	-51.5	-53.5	15.1	0.00e+00	0	22	0	1190133760	69	4457
2026-01-13 02:00:09.27	240.47	17.14	-51.5	-53.5	15.1	0.00e+00	0	22	0	1192230912	69	4453
2026-01-13 02:00:10.28	240.40	17.03	-51.7	-53.7	15.0	0.00e+00	0	22	0	1193279488	69	4553
2026-01-13 02:00:11.28	240.33	16.92	-51.9	-54.0	14.8	0.00e+00	0	22	0	1195376640	69	4749
2026-01-13 02:00:12.27	240.27	16.81	-52.2	-54.3	14.6	0.00e+00	0	22	0	1197473792	69	4921
2026-01-13 02:00:13.27	240.20	16.70	-52.3	-54.6	14.4	0.00e+00	0	23	0	1199570944	69	5044
2026-01-13 02:00:14.27	240.13	16.59	-52.6	-55.0	14.3	0.00e+00	0	22	0	1201668096	70	5022
2026-01-13 02:00:15.27	240.06	16.48	-53.0	-55.5	14.1	0.00e+00	0	22	0	1202716672	71	5041
2026-01-13 02:00:16.27	239.99	16.38	-53.1	-55.7	14.1	0.00e+00	0	22	0	1204813824	71	5120
2026-01-13 02:00:17.27	239.93	16.27	-53.4	-56.2	13.8	0.00e+00	0	22	0	1206910976	71	5416
2026-01-13 02:00:18.27	239.86	16.16	-53.4	-56.2	13.9	0.00e+00	0	22	0	1209008128	72	5108
2026-01-13 02:00:19.27	239.79	16.06	-53.7	-56.6	13.6	0.00e+00	0	22	0	1211105280	72	5382
2026-01-13 02:00:20.27	239.73	15.95	-53.9	-57.0	13.4	0.00e+00	0	22	0	1212153856	72	5599
2026-01-13 02:00:21.28	239.66	15.84	-53.8	-56.8	13.6	0.00e+00	0	22	0	1214251008	73	5188
2026-01-13 02:00:22.28	239.60	15.74	-53.9	-56.9	13.6	0.00e+00	0	22	0	1216348160	73	5257
2026-01-13 02:00:23.28	239.54	15.63	-53.9	-56.9	13.6	0.00e+00	0	22	0	1218445312	73	5260
2026-01-13 02:00:24.28	239.47	15.53	-53.8	-56.8	13.6	0.00e+00	0	22	0	1219493888	73	5213
2026-01-13 02:00:25.27	239.41	15.42	-53.7	-56.6	13.8	0.00e+00	0	22	0	1221591040	73	5062
2026-01-13 02:00:26.27	239.35	15.32	-53.8	-56.8	13.6	0.00e+00	0	22	0	1223688192	73	5189
2026-01-13 02:00:27.26	239.29	15.22	-53.5	-56.2	14.1	0.00e+00	0	22	0	1225785344	73	4857
2026-01-13 02:00:28.26	239.23	15.11	-53.4	-56.1	14.1	0.00e+00	0	22	0	1227882496	73	4810
2026-01-13 02:00:29.26	239.16	15.01	-53.3	-55.9	14.3	0.00e+00	0	22	0	1228931072	73	4665
2026-01-13 02:00:30.26	239.10	14.91	-53.2	-55.7	14.4	0.00e+00	0	22	0	1231028224	73	4585
2026-01-13 02:00:31.26	239.04	14.81	-53.0	-55.4	14.4	0.00e+00	0	22	0	1233125376	72	4699
2026-01-13 02:00:32.26	238.98	14.71	-53.1	-55.7	14.2	0.00e+00	0	22	0	1235222528	72	4829
2026-01-13 02:00:33.25	238.92	14.61	-53.1	-55.6	14.3	0.00e+00	0	22	0	1236271104	72	4792
