passes_logs/2026/01/13/R3.2S_Murmansk/R3.2S_Murmansk__20260113_203317_TY-42_rec.log

#Pass ID: 20260113_203317_TY-42
#Satellite: TY-42
#Configuration: TY-42_900M
#almurnet v.1.7.20251203
#Start time: 2026-01-13 20:33:17

#Version: 2.2.20231116
#Station: R3.2S_Murmansk
#Location: 33.079688 lon 68.888172 lat
#TLE: 1 64048U 25103A   26013.70377315  .00008011  00000-0  38191-3 0 09993
#TLE: 2 64048 097.4118 089.1457 0001799 091.6416 204.0819 15.19171765 36614

#Time	Az	El	Level	Level2	SNR	BER	BlckErr	Temp	State	Recorded	gain1	gain2
2026-01-13 20:33:17.81	207.19	2.01	-58.0	-61.2	6.2	0.00e+00	0	31	0	0	82	21280
2026-01-13 20:33:18.81	207.28	2.08	-58.1	-61.3	6.2	0.00e+00	0	31	104	0	83	20222
2026-01-13 20:33:19.80	207.37	2.14	-58.0	-61.3	6.2	0.00e+00	0	31	104	0	83	20175
2026-01-13 20:33:20.80	207.45	2.20	-58.1	-61.3	6.2	0.00e+00	0	32	104	0	83	20279
2026-01-13 20:33:21.80	207.54	2.26	-58.1	-61.3	6.2	0.00e+00	0	32	104	0	83	20288
2026-01-13 20:33:22.80	207.63	2.32	-58.1	-61.3	6.2	0.00e+00	0	32	104	0	83	20324
2026-01-13 20:33:23.80	207.72	2.39	-58.1	-61.3	6.2	0.00e+00	0	32	104	0	83	20337
2026-01-13 20:33:24.80	207.82	2.45	-58.1	-61.3	6.1	0.00e+00	0	32	104	0	83	20298
2026-01-13 20:33:25.80	207.91	2.51	-58.1	-61.3	6.1	0.00e+00	0	32	104	0	83	20336
2026-01-13 20:33:26.80	208.00	2.57	-58.1	-61.3	6.2	0.00e+00	0	32	104	0	83	20311
2026-01-13 20:33:27.80	208.09	2.64	-58.1	-61.3	6.1	0.00e+00	0	32	104	0	83	20336
2026-01-13 20:33:28.79	208.18	2.70	-58.1	-61.3	6.1	0.00e+00	0	32	104	0	83	20303
2026-01-13 20:33:29.79	208.28	2.76	-58.1	-61.3	6.1	0.00e+00	0	32	104	0	83	20351
2026-01-13 20:33:30.79	208.37	2.82	-58.1	-61.4	6.2	0.00e+00	0	32	104	0	83	20404
2026-01-13 20:33:31.80	208.46	2.89	-58.1	-61.4	6.2	0.00e+00	0	32	104	0	83	20442
2026-01-13 20:33:32.80	208.56	2.95	-58.1	-61.4	6.2	0.00e+00	0	32	104	0	83	20400
2026-01-13 20:33:33.79	208.65	3.01	-58.1	-61.3	6.2	0.00e+00	0	32	104	0	83	20381
2026-01-13 20:33:34.79	208.75	3.08	-58.1	-61.3	6.2	0.00e+00	0	32	104	0	83	20373
2026-01-13 20:33:35.78	208.84	3.14	-58.1	-61.4	6.2	0.00e+00	0	32	104	0	83	20417
2026-01-13 20:33:36.78	208.94	3.21	-58.1	-61.4	6.1	0.00e+00	0	33	104	0	83	20469
2026-01-13 20:33:37.79	209.04	3.27	-58.1	-61.3	6.2	0.00e+00	0	33	104	0	83	20391
2026-01-13 20:33:38.79	209.14	3.33	-58.1	-61.4	6.2	0.00e+00	0	32	104	0	83	20402
2026-01-13 20:33:39.79	209.23	3.40	-58.1	-61.3	6.2	0.00e+00	0	33	104	0	83	20374
2026-01-13 20:33:40.79	209.33	3.46	-58.1	-61.3	6.2	0.00e+00	0	32	104	0	83	20382
2026-01-13 20:33:41.80	209.43	3.53	-58.1	-61.3	6.2	0.00e+00	0	33	104	0	83	20387
2026-01-13 20:33:42.80	209.53	3.59	-58.1	-61.4	6.2	0.00e+00	0	33	104	0	83	20515
2026-01-13 20:33:43.80	209.63	3.66	-58.1	-61.4	6.2	0.00e+00	0	33	104	0	83	20503
2026-01-13 20:33:44.80	209.73	3.72	-58.1	-61.4	6.2	0.00e+00	0	33	104	0	83	20492
2026-01-13 20:33:45.79	209.83	3.79	-58.2	-61.4	6.2	0.00e+00	0	33	104	0	83	20475
2026-01-13 20:33:46.79	209.94	3.85	-58.2	-61.4	6.2	0.00e+00	0	33	104	0	83	20473
2026-01-13 20:33:47.79	210.04	3.92	-58.2	-61.4	6.2	0.00e+00	0	33	104	0	83	20547
2026-01-13 20:33:48.79	210.14	3.99	-58.2	-61.4	6.1	0.00e+00	0	33	104	0	83	20478
2026-01-13 20:33:49.79	210.25	4.05	-58.2	-61.4	6.2	0.00e+00	0	33	104	0	83	20484
2026-01-13 20:33:50.78	210.35	4.12	-58.2	-61.4	6.1	0.00e+00	0	33	104	0	83	20528
2026-01-13 20:33:51.78	210.45	4.18	-58.2	-61.4	6.2	0.00e+00	0	33	104	0	83	20496
2026-01-13 20:33:52.78	210.56	4.25	-58.2	-61.4	6.1	0.00e+00	0	33	104	0	83	20512
2026-01-13 20:33:53.78	210.66	4.32	-58.2	-61.4	6.2	0.00e+00	0	33	104	0	83	20556
2026-01-13 20:33:54.78	210.77	4.38	-58.2	-61.4	6.2	0.00e+00	0	33	104	0	83	20516
2026-01-13 20:33:55.78	210.88	4.45	-58.2	-61.4	6.2	0.00e+00	0	33	104	0	83	20465
2026-01-13 20:33:56.78	210.99	4.52	-58.2	-61.4	6.2	0.00e+00	0	33	104	0	83	20496
2026-01-13 20:33:57.77	211.09	4.58	-58.2	-61.4	6.2	0.00e+00	0	33	104	0	83	20501
2026-01-13 20:33:58.76	211.20	4.65	-58.2	-61.4	6.2	0.00e+00	0	33	104	0	83	20581
2026-01-13 20:33:59.76	211.31	4.72	-58.2	-61.4	6.1	0.00e+00	0	33	104	0	83	20522
2026-01-13 20:34:00.76	211.42	4.78	-58.2	-61.4	6.2	0.00e+00	0	33	104	0	83	20572
2026-01-13 20:34:01.75	211.53	4.85	-58.2	-61.4	6.2	0.00e+00	0	33	104	0	83	20552
2026-01-13 20:34:02.75	211.64	4.92	-58.2	-61.4	6.1	0.00e+00	0	33	104	0	83	20550
2026-01-13 20:34:03.74	211.75	4.99	-58.2	-61.4	6.2	0.00e+00	0	34	104	0	83	20551
2026-01-13 20:34:04.74	211.87	5.06	-58.2	-61.4	6.2	0.00e+00	0	33	104	0	83	20560
2026-01-13 20:34:05.74	211.98	5.12	-58.2	-61.4	6.2	0.00e+00	0	34	104	0	83	20529
2026-01-13 20:34:06.75	212.09	5.19	-58.3	-61.6	6.1	0.00e+00	0	33	104	0	83	20933
2026-01-13 20:34:07.74	212.21	5.26	-58.3	-61.6	6.2	0.00e+00	0	34	104	0	83	20960
2026-01-13 20:34:08.74	212.32	5.33	-58.2	-61.5	6.1	0.00e+00	0	33	104	0	83	20719
2026-01-13 20:34:09.73	212.44	5.40	-58.2	-61.4	6.2	0.00e+00	0	34	104	0	83	20584
2026-01-13 20:34:10.73	212.55	5.47	-43.7	-44.0	10.4	0.00e+00	0	34	104	0	60	10442
2026-01-13 20:34:11.73	212.67	5.54	-47.0	-47.5	10.7	4.45e-02	0	35	0	41943040	59	16476
2026-01-13 20:34:12.73	212.79	5.61	-43.9	-44.2	11.9	4.45e-02	0	35	0	159383552	54	15090
2026-01-13 20:34:13.73	212.91	5.68	-43.3	-43.6	12.0	4.45e-02	0	35	0	268435456	53	14843
2026-01-13 20:34:14.73	213.03	5.74	-43.5	-43.8	11.9	4.37e-02	0	35	0	385875968	53	15219
2026-01-13 20:34:15.72	213.14	5.81	-43.2	-43.5	12.1	4.37e-02	0	35	0	494927872	53	14721
2026-01-13 20:34:16.72	213.27	5.88	-43.4	-43.7	12.0	4.37e-02	0	35	0	603979776	53	15102
2026-01-13 20:34:17.71	213.39	5.95	-43.1	-43.4	12.1	1.47e-02	0	35	0	721420288	53	14589
2026-01-13 20:34:18.72	213.51	6.02	-43.0	-43.3	12.2	1.47e-02	0	35	0	830472192	53	14404
2026-01-13 20:34:19.72	213.63	6.10	-43.2	-43.5	12.1	1.47e-02	0	35	0	947912704	53	14685
2026-01-13 20:34:20.71	213.75	6.17	-43.0	-43.3	12.2	1.31e-02	0	35	0	1056964608	53	14372
2026-01-13 20:34:21.71	213.88	6.24	-43.2	-43.6	12.1	1.31e-02	0	35	0	1174405120	53	14784
2026-01-13 20:34:22.71	214.00	6.31	-43.1	-43.4	12.1	1.31e-02	0	35	0	1283457024	53	14584
2026-01-13 20:34:23.70	214.13	6.38	-42.9	-43.3	12.2	1.33e-02	0	35	0	1392508928	53	14276
2026-01-13 20:34:24.69	214.25	6.45	-43.0	-43.3	12.2	1.33e-02	0	35	0	1501560832	53	14356
2026-01-13 20:34:25.69	214.38	6.52	-42.8	-43.1	12.2	1.19e-02	0	36	0	1610612736	52	14928
2026-01-13 20:34:26.69	214.51	6.59	-43.0	-43.3	12.1	1.19e-02	0	36	0	1728053248	52	15243
2026-01-13 20:34:27.68	214.63	6.66	-43.0	-43.3	12.1	1.19e-02	0	36	0	1837105152	52	15246
2026-01-13 20:34:28.68	214.76	6.73	-42.8	-43.1	12.2	1.12e-02	0	36	0	1954545664	52	14915
2026-01-13 20:34:29.67	214.89	6.81	-42.9	-43.2	12.2	1.12e-02	0	36	0	2063597568	52	15023
2026-01-13 20:34:30.67	215.02	6.88	-42.8	-43.1	12.2	1.12e-02	0	36	0	2181038080	52	14918
2026-01-13 20:34:31.66	215.15	6.95	-42.7	-43.1	12.2	1.00e-02	0	36	0	2290089984	52	14792
2026-01-13 20:34:32.66	215.29	7.02	-42.9	-43.2	12.1	1.00e-02	0	36	0	2399141888	52	15062
2026-01-13 20:34:33.65	215.42	7.10	-42.8	-43.2	12.2	1.00e-02	0	36	0	2508193792	52	14977
2026-01-13 20:34:34.65	215.55	7.17	-42.8	-43.1	12.2	9.38e-03	0	36	0	2625634304	52	14851
2026-01-13 20:34:35.64	215.69	7.24	-42.7	-43.0	12.2	9.38e-03	0	36	0	2734686208	52	14672
2026-01-13 20:34:36.64	215.82	7.31	-42.8	-43.1	12.2	9.38e-03	0	36	0	2843738112	52	14880
2026-01-13 20:34:37.64	215.96	7.39	-42.8	-43.1	12.2	9.91e-03	0	36	0	2961178624	52	14926
2026-01-13 20:34:38.64	216.10	7.46	-42.8	-43.1	12.2	9.91e-03	0	36	0	3070230528	52	14897
2026-01-13 20:34:39.64	216.23	7.53	-42.7	-43.0	12.2	9.91e-03	0	36	0	3187671040	52	14710
2026-01-13 20:34:40.63	216.37	7.61	-42.8	-43.1	12.2	8.49e-03	0	36	0	3296722944	52	14908
2026-01-13 20:34:41.63	216.51	7.68	-42.7	-43.0	12.3	8.49e-03	0	36	0	3405774848	52	14655
2026-01-13 20:34:42.62	216.65	7.76	-42.7	-43.0	12.3	8.05e-03	0	36	0	3523215360	52	14756
2026-01-13 20:34:43.62	216.79	7.83	-42.6	-42.9	12.3	8.05e-03	0	36	0	3632267264	52	14544
2026-01-13 20:34:44.61	216.93	7.90	-42.6	-42.9	12.3	8.05e-03	0	36	0	3749707776	52	14586
2026-01-13 20:34:45.62	217.08	7.98	-42.8	-43.1	12.2	7.35e-03	0	36	0	3858759680	52	14864
2026-01-13 20:34:46.61	217.22	8.05	-42.6	-42.9	12.3	7.35e-03	0	37	0	3967811584	52	14465
2026-01-13 20:34:47.61	217.37	8.13	-42.7	-43.0	12.3	7.36e-03	0	37	0	4085252096	52	14655
2026-01-13 20:34:48.61	217.51	8.20	-42.7	-43.0	12.3	7.36e-03	0	37	0	4194304000	52	14638
2026-01-13 20:34:49.60	217.66	8.28	-42.8	-43.1	12.3	7.36e-03	0	36	0	4303355904	52	14912
2026-01-13 20:34:50.60	217.80	8.35	-42.6	-42.9	12.4	6.79e-03	0	37	0	4412407808	52	14524
2026-01-13 20:34:51.60	217.95	8.43	-42.5	-42.8	12.4	6.79e-03	0	37	0	4529848320	52	14409
2026-01-13 20:34:52.60	218.10	8.51	-42.4	-42.7	12.3	6.79e-03	0	37	0	4638900224	51	14994
2026-01-13 20:34:53.60	218.25	8.58	-42.4	-42.7	12.4	6.79e-03	0	37	0	4756340736	51	14970
2026-01-13 20:34:54.59	218.40	8.66	-42.4	-42.7	12.3	5.63e-03	0	37	0	4865392640	51	15034
2026-01-13 20:34:55.58	218.55	8.73	-42.3	-42.6	12.4	5.63e-03	0	37	0	4974444544	51	14937
2026-01-13 20:34:56.58	218.71	8.81	-42.3	-42.6	12.4	5.10e-03	0	37	0	5091885056	51	14810
2026-01-13 20:34:57.58	218.86	8.89	-42.3	-42.6	12.4	5.10e-03	0	37	0	5200936960	51	14800
2026-01-13 20:34:58.58	219.02	8.96	-42.2	-42.5	12.4	5.10e-03	0	37	0	5318377472	51	14770
2026-01-13 20:34:59.57	219.17	9.04	-42.2	-42.5	12.4	5.10e-03	0	37	0	5427429376	51	14725
2026-01-13 20:35:00.55	219.33	9.12	-42.2	-42.5	12.5	4.42e-03	0	37	0	5536481280	51	14647
2026-01-13 20:35:01.53	219.48	9.19	-42.2	-42.5	12.5	4.42e-03	0	37	0	5645533184	51	14615
2026-01-13 20:35:02.52	219.64	9.27	-41.9	-42.2	12.6	3.59e-03	0	37	0	5762973696	51	14243
2026-01-13 20:35:03.51	219.80	9.34	-42.0	-42.3	12.5	3.59e-03	0	37	0	5872025600	51	14409
2026-01-13 20:35:04.51	219.96	9.42	-42.0	-42.3	12.6	3.59e-03	0	37	0	5989466112	51	14311
2026-01-13 20:35:05.51	220.12	9.50	-41.9	-42.2	12.6	3.10e-03	0	37	0	6098518016	51	14238
2026-01-13 20:35:06.51	220.29	9.58	-41.9	-42.2	12.6	3.10e-03	0	37	0	6207569920	51	14138
2026-01-13 20:35:07.50	220.45	9.66	-41.9	-42.1	12.5	3.10e-03	0	37	0	6325010432	50	14932
2026-01-13 20:35:08.50	220.61	9.73	-41.9	-42.2	12.5	2.83e-03	0	37	0	6425673728	50	14978
2026-01-13 20:35:09.50	220.78	9.81	-41.8	-42.1	12.5	2.83e-03	0	37	0	6543114240	50	14882
2026-01-13 20:35:10.50	220.95	9.89	-41.7	-42.0	12.6	2.83e-03	0	37	0	6652166144	50	14698
2026-01-13 20:35:11.49	221.11	9.97	-41.6	-41.9	12.6	2.62e-03	0	37	0	6769606656	50	14534
2026-01-13 20:35:12.48	221.28	10.05	-41.5	-41.8	12.7	2.62e-03	0	37	0	6878658560	50	14401
2026-01-13 20:35:13.48	221.45	10.13	-41.5	-41.8	12.7	2.62e-03	0	37	0	6996099072	50	14322
2026-01-13 20:35:14.47	221.62	10.20	-41.6	-41.9	12.6	2.10e-03	0	37	0	7105150976	50	14470
2026-01-13 20:35:15.47	221.80	10.28	-41.5	-41.8	12.6	2.10e-03	0	37	0	7214202880	50	14398
2026-01-13 20:35:16.47	221.97	10.36	-41.4	-41.7	12.7	1.87e-03	0	37	0	7331643392	50	14257
2026-01-13 20:35:17.48	222.15	10.44	-41.4	-41.7	12.7	1.87e-03	0	37	0	7440695296	50	14236
2026-01-13 20:35:18.48	222.32	10.52	-41.3	-41.6	12.7	1.87e-03	0	38	0	7558135808	49	14840
2026-01-13 20:35:19.48	222.50	10.60	-41.3	-41.6	12.7	1.81e-03	0	37	0	7667187712	49	14938
2026-01-13 20:35:20.48	222.68	10.68	-41.2	-41.5	12.7	1.81e-03	0	38	0	7776239616	49	14717
2026-01-13 20:35:21.48	222.86	10.76	-41.2	-41.5	12.7	1.71e-03	0	38	0	7893680128	49	14678
2026-01-13 20:35:22.48	223.04	10.84	-41.2	-41.5	12.7	1.71e-03	0	38	0	8002732032	49	14693
2026-01-13 20:35:23.48	223.22	10.92	-41.2	-41.4	12.7	1.52e-03	0	37	0	8120172544	49	14595
2026-01-13 20:35:24.48	223.41	11.01	-41.1	-41.3	12.8	1.52e-03	0	37	0	8229224448	49	14417
2026-01-13 20:35:25.48	223.59	11.09	-41.0	-41.3	12.8	1.52e-03	0	38	0	8338276352	49	14410
2026-01-13 20:35:26.48	223.78	11.17	-41.2	-41.5	12.7	1.44e-03	0	38	0	8455716864	49	14611
2026-01-13 20:35:27.48	223.96	11.25	-41.0	-41.3	12.8	1.44e-03	0	37	0	8564768768	49	14357
2026-01-13 20:35:28.48	224.15	11.33	-41.0	-41.3	12.8	1.28e-03	0	38	0	8682209280	49	14341
2026-01-13 20:35:29.47	224.34	11.41	-40.9	-41.2	12.8	1.28e-03	0	38	0	8791261184	49	14241
2026-01-13 20:35:30.46	224.53	11.49	-40.8	-41.1	12.8	1.28e-03	0	38	0	8908701696	48	14848
2026-01-13 20:35:31.46	224.72	11.57	-40.8	-41.0	12.8	1.03e-03	0	38	0	9017753600	48	14735
2026-01-13 20:35:32.46	224.91	11.65	-40.7	-41.0	12.8	1.03e-03	0	38	0	9126805504	48	14728
2026-01-13 20:35:33.45	225.10	11.73	-40.6	-40.9	12.9	1.03e-03	0	38	0	9235857408	48	14476
2026-01-13 20:35:34.45	225.30	11.81	-40.6	-40.9	12.9	8.49e-04	0	38	0	9353297920	48	14513
2026-01-13 20:35:35.45	225.50	11.90	-40.7	-40.9	12.9	8.49e-04	0	38	0	9462349824	48	14584
2026-01-13 20:35:36.44	225.69	11.98	-40.6	-40.9	12.9	8.49e-04	0	38	0	9571401728	48	14453
2026-01-13 20:35:37.44	225.89	12.06	-40.6	-40.8	12.9	7.39e-04	0	38	0	9688842240	48	14435
2026-01-13 20:35:38.43	226.09	12.14	-40.5	-40.8	12.9	7.39e-04	0	38	0	9797894144	48	14389
2026-01-13 20:35:39.42	226.29	12.22	-40.6	-40.8	12.9	5.96e-04	0	38	0	9906946048	48	14419
2026-01-13 20:35:40.42	226.49	12.30	-40.5	-40.7	12.9	5.96e-04	0	38	0	10024386560	48	14230
2026-01-13 20:35:41.41	226.70	12.39	-39.6	-39.9	12.8	5.96e-04	0	38	0	10133438464	46	14540
2026-01-13 20:35:42.41	226.90	12.47	-39.6	-39.9	12.8	8.01e-04	0	38	0	10250878976	46	14563
2026-01-13 20:35:43.41	227.11	12.55	-39.6	-39.9	12.8	8.01e-04	0	38	0	10359930880	46	14576
2026-01-13 20:35:44.40	227.32	12.63	-39.6	-39.9	12.8	8.01e-04	0	38	0	10468982784	46	14512
2026-01-13 20:35:45.40	227.53	12.71	-39.6	-39.9	12.8	8.01e-04	0	38	0	10578034688	46	14486
2026-01-13 20:35:46.40	227.74	12.80	-39.6	-39.9	12.8	1.08e-03	0	38	0	10695475200	46	14462
2026-01-13 20:35:47.40	227.95	12.88	-39.5	-39.8	12.9	1.08e-03	0	38	0	10804527104	46	14276
2026-01-13 20:35:48.40	228.17	12.96	-39.4	-39.7	12.9	9.39e-04	0	38	0	10921967616	46	14256
2026-01-13 20:35:49.40	228.38	13.04	-39.4	-39.7	12.9	9.39e-04	0	38	0	11031019520	46	14236
2026-01-13 20:35:50.39	228.60	13.13	-39.4	-39.7	12.9	9.39e-04	0	38	0	11140071424	46	14217
2026-01-13 20:35:51.40	228.82	13.21	-39.3	-39.6	12.9	9.63e-04	0	38	0	11257511936	45	14839
2026-01-13 20:35:52.40	229.04	13.29	-39.4	-39.7	12.8	9.63e-04	0	38	0	11366563840	45	14987
2026-01-13 20:35:53.40	229.26	13.38	-39.3	-39.5	12.9	9.63e-04	0	38	0	11484004352	45	14767
2026-01-13 20:35:54.39	229.48	13.46	-39.2	-39.4	12.9	7.53e-04	0	38	0	11593056256	45	14606
2026-01-13 20:35:55.38	229.70	13.54	-39.2	-39.4	12.9	7.53e-04	0	38	0	11702108160	45	14597
2026-01-13 20:35:56.38	229.93	13.62	-39.1	-39.4	12.9	7.53e-04	0	38	0	11819548672	45	14558
2026-01-13 20:35:57.38	230.15	13.71	-39.1	-39.4	12.9	7.96e-04	0	38	0	11928600576	45	14547
2026-01-13 20:35:58.38	230.38	13.79	-39.1	-39.4	12.9	7.96e-04	0	38	0	12046041088	45	14549
2026-01-13 20:35:59.37	230.61	13.87	-39.1	-39.4	12.9	7.96e-04	0	38	0	12155092992	45	14570
2026-01-13 20:36:00.37	230.84	13.95	-39.1	-39.4	12.9	6.44e-04	0	38	0	12272533504	45	14504
2026-01-13 20:36:01.36	231.07	14.04	-39.1	-39.4	12.9	6.44e-04	0	38	0	12381585408	45	14499
2026-01-13 20:36:02.35	231.30	14.12	-39.1	-39.4	12.9	5.82e-04	0	38	0	12490637312	45	14511
2026-01-13 20:36:03.35	231.54	14.20	-39.1	-39.4	12.9	5.82e-04	0	38	0	12599689216	45	14538
2026-01-13 20:36:04.34	231.77	14.28	-38.9	-39.2	13.0	5.82e-04	0	38	0	12708741120	45	14210
2026-01-13 20:36:05.33	232.01	14.36	-38.9	-39.2	13.0	5.77e-04	0	38	0	12826181632	45	14117
2026-01-13 20:36:06.33	232.25	14.45	-38.9	-39.3	13.0	5.77e-04	0	38	0	12935233536	45	14277
2026-01-13 20:36:07.32	232.49	14.53	-38.9	-39.2	13.0	5.77e-04	0	38	0	13052674048	45	14265
2026-01-13 20:36:08.32	232.74	14.61	-38.8	-39.1	13.0	5.77e-04	0	38	0	13161725952	44	14889
2026-01-13 20:36:09.31	232.98	14.69	-38.8	-39.1	13.0	4.48e-04	0	38	0	13279166464	44	14821
2026-01-13 20:36:10.30	233.22	14.78	-38.8	-39.1	12.9	4.48e-04	0	38	0	13379829760	44	14872
2026-01-13 20:36:11.29	233.47	14.86	-38.8	-39.1	12.9	4.48e-04	0	38	0	13497270272	44	14910
2026-01-13 20:36:12.28	233.72	14.94	-38.7	-39.0	13.0	4.29e-04	0	38	0	13606322176	44	14678
2026-01-13 20:36:13.28	233.97	15.02	-38.7	-39.0	13.0	4.29e-04	0	38	0	13723762688	44	14660
2026-01-13 20:36:14.27	234.22	15.10	-38.8	-39.1	12.9	4.29e-04	0	38	0	13832814592	44	14785
2026-01-13 20:36:15.27	234.47	15.18	-38.6	-38.9	13.0	4.58e-04	0	38	0	13941866496	44	14526
2026-01-13 20:36:16.27	234.73	15.27	-38.7	-39.0	13.0	4.58e-04	0	38	0	14059307008	44	14645
2026-01-13 20:36:17.26	234.99	15.35	-38.7	-39.0	13.0	2.86e-04	0	38	0	14168358912	44	14716
2026-01-13 20:36:18.25	235.24	15.43	-38.7	-39.0	13.0	2.86e-04	0	38	0	14285799424	44	14682
2026-01-13 20:36:19.25	235.50	15.51	-38.7	-39.0	13.0	4.05e-04	0	38	0	14386462720	44	14638
2026-01-13 20:36:20.25	235.77	15.59	-38.6	-38.9	13.0	4.05e-04	0	38	0	14503903232	44	14544
2026-01-13 20:36:21.25	236.03	15.67	-38.6	-38.9	13.0	4.05e-04	0	38	0	14612955136	44	14500
2026-01-13 20:36:22.25	236.30	15.75	-38.7	-38.9	13.0	3.48e-04	0	38	0	14722007040	44	14605
2026-01-13 20:36:23.24	236.56	15.83	-38.6	-38.9	13.0	3.48e-04	0	38	0	14839447552	44	14505
2026-01-13 20:36:24.24	236.83	15.91	-38.5	-38.8	13.1	4.05e-04	0	38	0	14948499456	44	14327
2026-01-13 20:36:25.25	237.11	15.99	-38.5	-38.7	13.1	4.05e-04	0	38	0	15065939968	44	14251
2026-01-13 20:36:26.24	237.38	16.07	-38.5	-38.7	13.1	4.05e-04	0	38	0	15174991872	44	14255
2026-01-13 20:36:27.24	237.65	16.15	-38.4	-38.7	13.1	3.19e-04	0	38	0	15292432384	44	14215
2026-01-13 20:36:28.23	237.92	16.23	-38.4	-38.7	13.1	3.19e-04	0	38	0	15401484288	44	14226
2026-01-13 20:36:29.23	238.20	16.31	-38.4	-38.7	13.1	3.15e-04	0	38	0	15510536192	44	14236
2026-01-13 20:36:30.22	238.48	16.39	-38.4	-38.7	13.0	3.15e-04	0	39	0	15627976704	43	14973
2026-01-13 20:36:31.22	238.76	16.47	-38.4	-38.7	13.0	2.24e-04	0	38	0	15737028608	43	14950
2026-01-13 20:36:32.21	239.04	16.55	-38.3	-38.6	13.0	2.24e-04	0	38	0	15854469120	43	14818
2026-01-13 20:36:33.20	239.32	16.63	-38.3	-38.6	13.0	2.24e-04	0	39	0	15955132416	43	14779
2026-01-13 20:36:34.19	239.60	16.70	-38.3	-38.6	13.0	2.53e-04	0	38	0	16072572928	43	14828
2026-01-13 20:36:35.19	239.89	16.78	-38.3	-38.6	13.0	2.53e-04	0	38	0	16181624832	43	14914
2026-01-13 20:36:36.19	240.18	16.86	-38.3	-38.6	13.0	2.53e-04	0	39	0	16299065344	43	14786
2026-01-13 20:36:37.18	240.47	16.94	-38.2	-38.5	13.0	2.72e-04	0	38	0	16408117248	43	14701
2026-01-13 20:36:38.17	240.76	17.01	-38.2	-38.5	13.0	2.72e-04	0	39	0	16517169152	43	14736
2026-01-13 20:36:39.16	241.05	17.09	-38.3	-38.5	13.0	3.00e-04	0	38	0	16634609664	43	14746
2026-01-13 20:36:40.16	241.35	17.16	-38.2	-38.5	13.0	3.00e-04	0	38	0	16743661568	43	14675
2026-01-13 20:36:41.14	241.64	17.24	-38.2	-38.5	13.0	2.72e-04	0	39	0	16852713472	43	14676
2026-01-13 20:36:42.14	241.94	17.31	-38.0	-38.3	13.1	2.72e-04	0	39	0	16961765376	43	14360
2026-01-13 20:36:43.15	242.24	17.39	-38.0	-38.3	13.1	2.72e-04	0	39	0	17079205888	43	14329
2026-01-13 20:36:44.15	242.55	17.47	-38.0	-38.3	13.1	2.57e-04	0	39	0	17188257792	43	14386
2026-01-13 20:36:45.14	242.85	17.54	-38.0	-38.2	13.1	2.57e-04	0	38	0	17305698304	43	14249
2026-01-13 20:36:46.14	243.16	17.61	-37.9	-38.2	13.1	2.57e-04	0	38	0	17414750208	43	14227
2026-01-13 20:36:47.14	243.46	17.69	-37.9	-38.2	13.1	2.24e-04	0	39	0	17523802112	43	14189
2026-01-13 20:36:48.13	243.77	17.76	-37.9	-38.2	13.1	2.24e-04	0	38	0	17641242624	43	14195
2026-01-13 20:36:49.13	244.08	17.83	-37.9	-38.2	13.1	2.24e-04	0	39	0	17750294528	43	14166
2026-01-13 20:36:50.12	244.39	17.90	-37.8	-38.1	13.1	2.38e-04	0	39	0	17867735040	42	14942
2026-01-13 20:36:51.11	244.70	17.98	-37.8	-38.1	13.1	2.38e-04	0	39	0	17976786944	42	14854
2026-01-13 20:36:52.11	245.02	18.05	-37.7	-38.0	13.1	2.34e-04	0	38	0	18094227456	42	14657
2026-01-13 20:36:53.11	245.34	18.12	-37.7	-38.0	13.1	2.34e-04	0	39	0	18203279360	42	14713
2026-01-13 20:36:54.10	245.66	18.19	-37.8	-38.0	13.1	2.34e-04	0	38	0	18312331264	42	14775
2026-01-13 20:36:55.09	245.97	18.26	-37.8	-38.0	13.1	1.72e-04	0	39	0	18421383168	42	14740
2026-01-13 20:36:56.09	246.30	18.33	-37.8	-38.0	13.1	1.72e-04	0	39	0	18538823680	42	14716
2026-01-13 20:36:57.09	246.62	18.39	-37.7	-37.9	13.2	1.24e-04	0	39	0	18647875584	42	14602
2026-01-13 20:36:58.08	246.95	18.46	-37.6	-37.9	13.2	1.24e-04	0	39	0	18756927488	42	14468
2026-01-13 20:36:59.08	247.27	18.53	-37.4	-37.7	13.2	1.24e-04	0	39	0	18874368000	42	14190
2026-01-13 20:37:00.07	247.60	18.59	-37.5	-37.8	13.2	1.57e-04	0	39	0	18983419904	42	14286
2026-01-13 20:37:01.06	247.93	18.66	-37.3	-37.6	13.1	1.57e-04	0	39	0	19100860416	41	14861
2026-01-13 20:37:02.05	248.26	18.73	-37.3	-37.5	13.2	1.57e-04	0	38	0	19201523712	41	14759
2026-01-13 20:37:03.04	248.59	18.79	-37.2	-37.5	13.2	1.43e-04	0	38	0	19318964224	41	14658
2026-01-13 20:37:04.04	248.93	18.85	-37.3	-37.6	13.2	1.43e-04	0	39	0	19428016128	41	14861
2026-01-13 20:37:05.03	249.26	18.92	-37.2	-37.5	13.2	6.19e-05	0	39	0	19545456640	41	14717
2026-01-13 20:37:06.03	249.60	18.98	-37.2	-37.4	13.2	6.19e-05	0	39	0	19654508544	41	14596
2026-01-13 20:37:07.02	249.94	19.04	-37.2	-37.4	13.2	6.19e-05	0	39	0	19763560448	41	14598
2026-01-13 20:37:08.02	250.28	19.10	-37.2	-37.4	13.2	5.72e-05	0	39	0	19881000960	41	14595
2026-01-13 20:37:09.02	250.62	19.16	-37.3	-37.6	13.2	5.72e-05	0	38	0	19990052864	41	14857
2026-01-13 20:37:10.01	250.97	19.22	-37.2	-37.5	13.2	5.72e-05	0	39	0	20107493376	41	14629
2026-01-13 20:37:11.00	251.31	19.28	-37.1	-37.4	13.2	7.62e-05	0	39	0	20208156672	41	14540
2026-01-13 20:37:12.00	251.66	19.34	-37.2	-37.4	13.2	7.62e-05	0	39	0	20325597184	41	14585
2026-01-13 20:37:13.00	252.01	19.40	-37.1	-37.4	13.2	7.62e-05	0	38	0	20434649088	41	14574
2026-01-13 20:37:14.00	252.36	19.46	-37.1	-37.4	13.2	7.62e-05	0	39	0	20552089600	41	14563
2026-01-13 20:37:14.99	252.71	19.51	-37.1	-37.4	13.2	7.62e-05	0	39	0	20661141504	41	14539
2026-01-13 20:37:15.98	253.06	19.57	-37.1	-37.4	13.2	7.62e-05	0	39	0	20770193408	41	14467
2026-01-13 20:37:16.98	253.42	19.62	-37.1	-37.4	13.2	8.10e-05	0	39	0	20887633920	41	14484
2026-01-13 20:37:17.98	253.77	19.68	-37.0	-37.3	13.2	8.10e-05	0	39	0	20996685824	41	14340
2026-01-13 20:37:18.98	254.13	19.73	-37.1	-37.4	13.2	8.10e-05	0	39	0	21114126336	41	14489
2026-01-13 20:37:19.98	254.49	19.78	-37.2	-37.4	13.2	8.10e-05	0	39	0	21223178240	41	14585
2026-01-13 20:37:20.97	254.85	19.83	-37.1	-37.3	13.2	8.10e-05	0	39	0	21332230144	41	14420
2026-01-13 20:37:21.97	255.21	19.88	-37.2	-37.5	13.2	7.15e-05	0	39	0	21449670656	41	14612
2026-01-13 20:37:22.96	255.57	19.93	-37.1	-37.3	13.2	7.15e-05	0	39	0	21558722560	41	14401
2026-01-13 20:37:23.97	255.94	19.98	-37.0	-37.2	13.2	4.76e-05	0	39	0	21676163072	41	14268
2026-01-13 20:37:24.97	256.31	20.03	-37.0	-37.3	13.2	4.76e-05	0	39	0	21785214976	41	14284
2026-01-13 20:37:25.97	256.68	20.08	-37.1	-37.3	13.2	4.76e-05	0	39	0	21902655488	41	14427
2026-01-13 20:37:26.97	257.05	20.12	-37.2	-37.5	13.2	5.24e-05	0	39	0	22011707392	41	14640
2026-01-13 20:37:27.97	257.42	20.17	-37.1	-37.4	13.2	5.24e-05	0	39	0	22120759296	41	14547
2026-01-13 20:37:28.96	257.78	20.21	-37.0	-37.3	13.2	5.24e-05	0	39	0	22238199808	41	14339
2026-01-13 20:37:29.95	258.15	20.25	-37.1	-37.3	13.2	8.10e-05	0	39	0	22338863104	41	14403
2026-01-13 20:37:30.94	258.52	20.29	-37.1	-37.4	13.2	8.10e-05	0	39	0	22456303616	41	14514
2026-01-13 20:37:31.93	258.89	20.33	-37.1	-37.4	13.2	8.10e-05	0	39	0	22565355520	41	14441
2026-01-13 20:37:32.93	259.27	20.37	-37.0	-37.3	13.2	8.58e-05	0	39	0	22682796032	41	14356
2026-01-13 20:37:33.93	259.65	20.41	-37.1	-37.4	13.2	8.58e-05	0	39	0	22791847936	41	14479
2026-01-13 20:37:34.92	260.02	20.45	-37.0	-37.3	13.2	6.19e-05	0	39	0	22909288448	41	14342
2026-01-13 20:37:35.92	260.40	20.49	-37.2	-37.5	13.2	6.19e-05	0	39	0	23018340352	41	14644
2026-01-13 20:37:36.93	260.78	20.52	-37.2	-37.4	13.2	6.19e-05	0	39	0	23127392256	41	14601
2026-01-13 20:37:37.93	261.17	20.56	-37.0	-37.3	13.2	7.15e-05	0	39	0	23244832768	41	14356
2026-01-13 20:37:38.93	261.55	20.59	-37.1	-37.3	13.2	7.15e-05	0	39	0	23353884672	41	14409
2026-01-13 20:37:39.93	261.93	20.62	-37.0	-37.3	13.2	7.15e-05	0	39	0	23471325184	41	14345
2026-01-13 20:37:40.93	262.31	20.65	-37.1	-37.4	13.2	8.58e-05	0	39	0	23580377088	41	14464
2026-01-13 20:37:41.92	262.69	20.68	-37.0	-37.2	13.2	8.58e-05	0	39	0	23689428992	41	14262
2026-01-13 20:37:42.91	263.08	20.71	-37.0	-37.2	13.2	4.76e-05	0	39	0	23806869504	41	14272
2026-01-13 20:37:43.91	263.46	20.74	-37.1	-37.3	13.2	4.76e-05	0	39	0	23915921408	41	14427
2026-01-13 20:37:44.91	263.85	20.77	-37.1	-37.4	13.2	4.76e-05	0	39	0	24033361920	41	14459
2026-01-13 20:37:45.91	264.24	20.79	-37.0	-37.3	13.2	4.76e-05	0	39	0	24142413824	41	14341
2026-01-13 20:37:46.91	264.63	20.81	-37.1	-37.3	13.2	4.76e-05	0	39	0	24251465728	41	14398
2026-01-13 20:37:47.90	265.01	20.84	-37.0	-37.3	13.2	4.76e-05	0	39	0	24360517632	41	14328
2026-01-13 20:37:48.90	265.40	20.86	-37.0	-37.3	13.2	4.76e-05	0	39	0	24477958144	41	14321
2026-01-13 20:37:49.90	265.79	20.88	-37.1	-37.3	13.2	9.53e-05	0	39	0	24587010048	41	14392
2026-01-13 20:37:50.90	266.18	20.90	-37.0	-37.3	13.1	9.53e-05	0	39	0	24696061952	41	14330
2026-01-13 20:37:51.90	266.57	20.92	-37.1	-37.3	13.1	9.53e-05	0	39	0	24813502464	41	14413
2026-01-13 20:37:52.90	266.96	20.94	-37.1	-37.3	13.1	1.19e-04	0	39	0	24922554368	41	14396
2026-01-13 20:37:53.90	267.36	20.95	-37.1	-37.4	13.1	1.19e-04	0	39	0	25039994880	41	14465
2026-01-13 20:37:54.89	267.74	20.97	-37.1	-37.4	13.1	1.62e-04	0	39	0	25149046784	41	14499
2026-01-13 20:37:55.90	268.14	20.98	-36.9	-37.2	13.2	1.62e-04	0	39	0	25266487296	41	14207
2026-01-13 20:37:56.89	268.53	20.99	-37.0	-37.2	13.2	1.62e-04	0	39	0	25375539200	41	14270
2026-01-13 20:37:57.88	268.92	21.00	-37.0	-37.2	13.2	1.62e-04	0	39	0	25484591104	41	14266
2026-01-13 20:37:58.88	269.31	21.01	-37.1	-37.3	13.1	1.81e-04	0	39	0	25602031616	41	14427
2026-01-13 20:37:59.87	269.71	21.02	-37.2	-37.4	13.1	1.81e-04	0	39	0	25711083520	41	14567
2026-01-13 20:38:00.88	270.10	21.03	-37.1	-37.3	13.1	1.67e-04	0	39	0	25828524032	41	14439
2026-01-13 20:38:01.87	270.49	21.04	-37.2	-37.4	13.1	1.67e-04	0	39	0	25937575936	41	14556
2026-01-13 20:38:02.86	270.88	21.04	-37.1	-37.4	13.1	1.86e-04	0	38	0	26046627840	41	14521
2026-01-13 20:38:03.85	271.28	21.04	-37.1	-37.4	13.1	1.86e-04	0	39	0	26164068352	41	14538
2026-01-13 20:38:04.85	271.67	21.05	-37.1	-37.4	13.1	1.86e-04	0	39	0	26273120256	41	14492
2026-01-13 20:38:05.85	272.07	21.05	-37.2	-37.4	13.1	1.86e-04	0	39	0	26382172160	41	14586
2026-01-13 20:38:06.84	272.46	21.05	-37.0	-37.3	13.1	1.38e-04	0	39	0	26491224064	41	14304
2026-01-13 20:38:07.84	272.85	21.05	-37.1	-37.3	13.1	1.38e-04	0	39	0	26608664576	41	14429
2026-01-13 20:38:08.82	273.24	21.04	-37.1	-37.4	13.1	1.38e-04	0	39	0	26717716480	41	14459
2026-01-13 20:38:09.80	273.63	21.04	-37.2	-37.4	13.1	1.10e-04	0	39	0	26826768384	41	14603
2026-01-13 20:38:10.80	274.02	21.04	-37.1	-37.4	13.1	1.10e-04	0	39	0	26935820288	41	14483
2026-01-13 20:38:11.79	274.41	21.03	-37.2	-37.4	13.1	1.10e-04	0	39	0	27053260800	41	14600
2026-01-13 20:38:12.79	274.81	21.02	-37.2	-37.5	13.1	1.29e-04	0	39	0	27162312704	41	14688
2026-01-13 20:38:13.78	275.20	21.01	-37.2	-37.5	13.1	1.29e-04	0	39	0	27279753216	41	14673
2026-01-13 20:38:14.77	275.58	21.00	-37.2	-37.5	13.1	1.29e-04	0	39	0	27388805120	41	14625
2026-01-13 20:38:15.77	275.98	20.99	-37.2	-37.5	13.1	1.29e-04	0	39	0	27497857024	41	14642
2026-01-13 20:38:16.76	276.37	20.98	-37.2	-37.4	13.1	2.00e-04	0	39	0	27615297536	41	14598
2026-01-13 20:38:17.76	276.76	20.97	-37.2	-37.5	13.1	2.00e-04	0	39	0	27724349440	41	14674
2026-01-13 20:38:18.76	277.15	20.95	-37.3	-37.6	13.0	2.00e-04	0	39	0	27841789952	41	14897
2026-01-13 20:38:19.76	277.54	20.94	-37.3	-37.5	13.0	2.43e-04	0	39	0	27950841856	41	14731
2026-01-13 20:38:20.76	277.94	20.92	-37.3	-37.6	13.0	2.43e-04	0	39	0	28059893760	41	14842
2026-01-13 20:38:21.75	278.32	20.90	-37.4	-37.7	13.0	2.43e-04	0	39	0	28177334272	41	15049
2026-01-13 20:38:22.75	278.71	20.88	-37.4	-37.7	13.0	2.81e-04	0	39	0	28286386176	41	14970
2026-01-13 20:38:23.75	279.10	20.86	-37.5	-37.7	13.0	2.81e-04	0	39	0	28395438080	41	15060
2026-01-13 20:38:24.75	279.49	20.84	-37.4	-37.6	13.0	4.39e-04	0	39	0	28504489984	41	14891
2026-01-13 20:38:25.75	279.88	20.82	-37.4	-37.7	13.0	4.39e-04	0	39	0	28621930496	41	14948
2026-01-13 20:38:26.75	280.27	20.79	-37.4	-37.6	13.0	4.39e-04	0	39	0	28730982400	41	14930
2026-01-13 20:38:27.74	280.65	20.77	-37.3	-37.6	13.0	5.25e-04	0	39	0	28848422912	41	14875
2026-01-13 20:38:28.74	281.04	20.74	-37.3	-37.6	13.0	5.25e-04	0	39	0	28957474816	41	14895
2026-01-13 20:38:29.74	281.42	20.71	-37.4	-37.7	13.0	3.24e-04	0	39	0	29066526720	41	14957
2026-01-13 20:38:30.74	281.81	20.68	-37.4	-37.7	13.0	3.24e-04	0	39	0	29183967232	41	15056
2026-01-13 20:38:31.74	282.19	20.65	-37.4	-37.7	13.0	3.24e-04	0	39	0	29293019136	41	14969
2026-01-13 20:38:32.74	282.58	20.62	-37.3	-37.6	13.0	3.24e-04	0	39	0	29410459648	41	14910
2026-01-13 20:38:33.75	282.96	20.59	-37.4	-37.6	13.1	2.00e-04	0	39	0	29519511552	41	14918
2026-01-13 20:38:34.74	283.34	20.56	-37.4	-37.7	13.1	2.00e-04	0	39	0	29636952064	41	14980
2026-01-13 20:38:35.74	283.72	20.52	-37.4	-37.7	13.0	1.67e-04	0	39	0	29746003968	41	15025
2026-01-13 20:38:36.74	284.10	20.49	-37.5	-37.8	13.0	1.67e-04	0	39	0	29855055872	41	15207
2026-01-13 20:38:37.75	284.48	20.45	-37.5	-37.8	13.0	1.67e-04	0	39	0	29972496384	41	15240
2026-01-13 20:38:38.75	284.86	20.41	-37.4	-37.7	13.1	1.57e-04	0	39	0	30081548288	41	14975
2026-01-13 20:38:39.75	285.23	20.38	-37.5	-37.7	13.1	1.57e-04	0	39	0	30198988800	41	15115
2026-01-13 20:38:40.75	285.61	20.34	-37.5	-37.8	13.1	1.57e-04	0	39	0	30308040704	41	15129
2026-01-13 20:38:41.75	285.98	20.30	-37.5	-37.8	13.1	1.72e-04	0	39	0	30417092608	41	15211
2026-01-13 20:38:42.74	286.35	20.25	-37.5	-37.8	13.1	1.72e-04	0	39	0	30534533120	41	15255
2026-01-13 20:38:43.74	286.73	20.21	-37.5	-37.7	13.1	1.19e-04	0	39	0	30643585024	41	15116
2026-01-13 20:38:44.74	287.10	20.17	-37.6	-37.9	13.1	1.19e-04	0	39	0	30761025536	41	15304
2026-01-13 20:38:45.73	287.46	20.12	-37.6	-37.9	13.1	1.19e-04	0	39	0	30870077440	41	15360
2026-01-13 20:38:46.73	287.83	20.08	-37.6	-37.8	13.1	1.52e-04	0	39	0	30979129344	41	15290
2026-01-13 20:38:47.73	288.20	20.03	-37.6	-37.9	13.1	1.52e-04	0	39	0	31096569856	41	15299
2026-01-13 20:38:48.73	288.56	19.98	-37.7	-38.0	13.1	1.52e-04	0	39	0	31205621760	41	15488
2026-01-13 20:38:49.74	288.93	19.94	-37.6	-37.8	13.1	1.33e-04	0	39	0	31323062272	41	15271
2026-01-13 20:38:50.74	289.29	19.89	-37.6	-37.9	13.1	1.33e-04	0	39	0	31432114176	41	15322
2026-01-13 20:38:51.73	289.65	19.84	-37.7	-38.0	13.1	9.53e-05	0	39	0	31541166080	41	15491
2026-01-13 20:38:52.73	290.01	19.79	-37.6	-37.9	13.1	9.53e-05	0	39	0	31658606592	41	15297
2026-01-13 20:38:53.73	290.37	19.73	-37.7	-38.0	13.1	1.19e-04	0	39	0	31767658496	41	15556
2026-01-13 20:38:54.73	290.73	19.68	-37.6	-37.8	13.1	1.19e-04	0	39	0	31885099008	41	15290
2026-01-13 20:38:55.74	291.09	19.63	-37.6	-37.9	13.1	1.33e-04	0	39	0	31994150912	41	15345
2026-01-13 20:38:56.73	291.44	19.57	-37.8	-38.1	13.1	1.33e-04	0	39	0	32111591424	41	15679
2026-01-13 20:38:57.73	291.79	19.52	-37.7	-37.9	13.1	1.33e-04	0	39	0	32220643328	41	15409
2026-01-13 20:38:58.73	292.15	19.46	-37.8	-38.1	13.1	1.00e-04	0	39	0	32329695232	41	15748
2026-01-13 20:38:59.73	292.50	19.40	-37.8	-38.1	13.1	1.00e-04	0	39	0	32447135744	41	15751
2026-01-13 20:39:00.72	292.84	19.35	-37.7	-37.9	13.1	1.00e-04	0	39	0	32556187648	41	15463
2026-01-13 20:39:01.72	293.19	19.29	-37.7	-38.0	13.1	2.14e-04	0	39	0	32673628160	41	15541
2026-01-13 20:39:02.72	293.54	19.23	-37.6	-37.9	13.2	2.14e-04	0	39	0	32782680064	41	15430
2026-01-13 20:39:03.72	293.88	19.17	-37.7	-38.0	13.2	2.14e-04	0	39	0	32891731968	41	15476
2026-01-13 20:39:04.72	294.22	19.11	-37.8	-38.1	13.1	1.05e-04	0	39	0	33009172480	41	15708
2026-01-13 20:39:05.72	294.56	19.05	-37.9	-38.1	13.1	1.05e-04	0	39	0	33118224384	41	15780
2026-01-13 20:39:06.72	294.90	18.99	-37.8	-38.1	13.1	1.05e-04	0	39	0	33235664896	41	15744
2026-01-13 20:39:07.72	295.24	18.92	-37.9	-38.1	13.1	2.10e-04	0	39	0	33344716800	41	15793
2026-01-13 20:39:08.71	295.58	18.86	-37.9	-38.2	13.1	2.10e-04	0	39	0	33453768704	41	15950
2026-01-13 20:39:09.71	295.91	18.80	-38.0	-38.2	13.1	1.43e-04	0	39	0	33571209216	41	16010
2026-01-13 20:39:10.71	296.24	18.73	-38.1	-38.3	13.1	1.43e-04	0	39	0	33680261120	41	16191
2026-01-13 20:39:11.71	296.58	18.67	-38.0	-38.3	13.1	1.43e-04	0	39	0	33797701632	41	16173
2026-01-13 20:39:12.70	296.90	18.60	-37.9	-38.1	13.1	1.91e-04	0	39	0	33898364928	41	15821
2026-01-13 20:39:13.70	297.23	18.53	-37.9	-38.1	13.1	1.91e-04	0	39	0	34015805440	41	15799
2026-01-13 20:39:14.70	297.56	18.47	-37.9	-38.2	13.1	1.14e-04	0	39	0	34124857344	41	15956
2026-01-13 20:39:15.70	297.88	18.40	-37.9	-38.1	13.1	1.14e-04	0	39	0	34242297856	41	15820
2026-01-13 20:39:16.70	298.21	18.33	-37.9	-38.2	13.2	1.14e-04	0	39	0	34351349760	41	15879
2026-01-13 20:39:17.69	298.53	18.26	-38.0	-38.2	13.1	1.43e-04	0	39	0	34468790272	41	16011
2026-01-13 20:39:18.69	298.85	18.19	-38.0	-38.3	13.1	1.43e-04	0	39	0	34577842176	41	16035
2026-01-13 20:39:19.69	299.16	18.12	-38.0	-38.3	13.2	1.67e-04	0	39	0	34686894080	41	16081
2026-01-13 20:39:20.68	299.48	18.05	-38.0	-38.3	13.1	1.67e-04	0	39	0	34804334592	41	16042
2026-01-13 20:39:21.68	299.79	17.98	-38.0	-38.2	13.2	1.67e-04	0	39	0	34913386496	41	15958
2026-01-13 20:39:22.67	300.10	17.91	-38.0	-38.3	13.2	1.67e-04	0	39	0	35030827008	41	16036
2026-01-13 20:39:23.67	300.42	17.84	-38.1	-38.4	13.1	1.38e-04	0	39	0	35139878912	41	16280
2026-01-13 20:39:24.68	300.73	17.77	-38.1	-38.4	13.2	1.38e-04	0	39	0	35248930816	42	15407
2026-01-13 20:39:25.67	301.04	17.70	-38.1	-38.4	13.2	1.38e-04	0	39	0	35366371328	42	15354
2026-01-13 20:39:26.68	301.34	17.62	-38.2	-38.5	13.2	1.38e-04	0	39	0	35475423232	42	15499
2026-01-13 20:39:27.68	301.65	17.55	-38.2	-38.5	13.2	1.14e-04	0	39	0	35592863744	42	15554
2026-01-13 20:39:28.68	301.95	17.47	-38.2	-38.5	13.2	1.14e-04	0	39	0	35701915648	42	15603
2026-01-13 20:39:29.68	302.26	17.40	-38.2	-38.5	13.2	1.57e-04	0	39	0	35810967552	42	15587
2026-01-13 20:39:30.66	302.55	17.33	-38.3	-38.6	13.1	1.57e-04	0	39	0	35928408064	42	15669
2026-01-13 20:39:31.66	302.85	17.25	-38.4	-38.7	13.1	1.57e-04	0	39	0	36037459968	42	15939
2026-01-13 20:39:32.65	303.14	17.18	-38.4	-38.7	13.1	1.76e-04	0	39	0	36146511872	42	15907
2026-01-13 20:39:33.64	303.43	17.10	-38.4	-38.6	13.1	1.76e-04	0	39	0	36255563776	42	15808
2026-01-13 20:39:34.64	303.73	17.02	-38.4	-38.6	13.1	1.91e-04	0	39	0	36373004288	42	15789
2026-01-13 20:39:35.63	304.02	16.95	-38.4	-38.6	13.2	1.91e-04	0	39	0	36482056192	42	15816
2026-01-13 20:39:36.63	304.31	16.87	-38.4	-38.7	13.2	1.91e-04	0	39	0	36599496704	42	15905
2026-01-13 20:39:37.63	304.59	16.79	-38.4	-38.6	13.2	2.76e-04	0	39	0	36708548608	42	15801
2026-01-13 20:39:38.62	304.88	16.72	-38.4	-38.6	13.2	2.76e-04	0	39	0	36817600512	42	15810
2026-01-13 20:39:39.62	305.16	16.64	-38.5	-38.8	13.1	2.76e-04	0	39	0	36935041024	42	16028
2026-01-13 20:39:40.61	305.44	16.56	-38.4	-38.7	13.1	1.67e-04	0	39	0	37044092928	42	15932
2026-01-13 20:39:41.61	305.72	16.48	-38.5	-38.7	13.1	1.67e-04	0	39	0	37161533440	42	15998
2026-01-13 20:39:42.61	306.00	16.41	-38.5	-38.7	13.1	1.67e-04	0	39	0	37270585344	42	15968
2026-01-13 20:39:43.60	306.28	16.33	-38.5	-38.8	13.1	1.95e-04	0	39	0	37379637248	42	16059
2026-01-13 20:39:44.61	306.56	16.25	-38.5	-38.8	13.1	1.95e-04	0	39	0	37497077760	42	16044
2026-01-13 20:39:45.61	306.83	16.17	-38.6	-38.8	13.1	1.95e-04	0	39	0	37606129664	42	16192
2026-01-13 20:39:46.60	307.10	16.09	-38.6	-38.9	13.1	2.76e-04	0	39	0	37715181568	42	16227
2026-01-13 20:39:47.60	307.38	16.01	-38.7	-39.0	13.1	2.76e-04	0	39	0	37824233472	43	15497
2026-01-13 20:39:48.60	307.65	15.93	-38.7	-38.9	13.1	2.76e-04	0	39	0	37941673984	43	15456
2026-01-13 20:39:49.59	307.91	15.85	-38.7	-38.9	13.1	2.48e-04	0	39	0	38050725888	43	15442
2026-01-13 20:39:50.58	308.17	15.77	-38.7	-39.0	13.1	2.48e-04	0	39	0	38168166400	43	15559
2026-01-13 20:39:51.58	308.44	15.69	-38.9	-39.1	13.1	2.48e-04	0	39	0	38277218304	43	15812
2026-01-13 20:39:52.58	308.70	15.61	-38.8	-39.1	13.1	2.76e-04	0	39	0	38394658816	43	15802
2026-01-13 20:39:53.58	308.96	15.53	-38.9	-39.2	13.1	2.76e-04	0	39	0	38503710720	43	15844
2026-01-13 20:39:54.57	309.22	15.45	-38.8	-39.1	13.1	3.00e-04	0	39	0	38612762624	43	15744
2026-01-13 20:39:55.57	309.48	15.37	-38.9	-39.2	13.1	3.00e-04	0	39	0	38730203136	43	15944
2026-01-13 20:39:56.56	309.73	15.29	-39.0	-39.3	13.1	3.00e-04	0	39	0	38839255040	43	16047
2026-01-13 20:39:57.56	309.99	15.21	-39.0	-39.3	13.1	3.48e-04	0	39	0	38956695552	43	16134
2026-01-13 20:39:58.56	310.24	15.12	-39.0	-39.3	13.1	3.48e-04	0	39	0	39065747456	43	16034
2026-01-13 20:39:59.56	310.49	15.04	-38.9	-39.2	13.1	3.43e-04	0	39	0	39174799360	43	15992
2026-01-13 20:40:00.55	310.74	14.96	-39.0	-39.2	13.1	3.43e-04	0	39	0	39283851264	43	16013
2026-01-13 20:40:01.54	310.99	14.88	-39.0	-39.3	13.1	3.43e-04	0	39	0	39401291776	43	16017
2026-01-13 20:40:02.54	311.24	14.80	-39.0	-39.3	13.0	3.43e-04	0	39	0	39510343680	43	16155
2026-01-13 20:40:03.53	311.48	14.72	-39.0	-39.3	13.1	3.81e-04	0	39	0	39619395584	43	16163
2026-01-13 20:40:04.53	311.72	14.64	-39.0	-39.3	13.1	3.81e-04	0	39	0	39736836096	43	16108
2026-01-13 20:40:05.52	311.96	14.56	-39.1	-39.4	13.1	3.81e-04	0	39	0	39845888000	43	16211
2026-01-13 20:40:06.51	312.20	14.47	-39.0	-39.3	13.0	4.72e-04	0	39	0	39963328512	43	16186
2026-01-13 20:40:07.50	312.44	14.39	-39.0	-39.3	13.0	4.72e-04	0	39	0	40063991808	43	16181
2026-01-13 20:40:08.49	312.67	14.31	-39.0	-39.3	13.1	4.72e-04	0	39	0	40181432320	43	16122
2026-01-13 20:40:09.49	312.91	14.23	-39.1	-39.4	13.1	4.29e-04	0	39	0	40290484224	43	16221
2026-01-13 20:40:10.49	313.15	14.15	-39.0	-39.3	13.1	4.29e-04	0	39	0	40407924736	43	16125
2026-01-13 20:40:11.48	313.38	14.07	-39.1	-39.4	13.0	4.29e-04	0	39	0	40516976640	43	16241
2026-01-13 20:40:12.48	313.61	13.98	-39.2	-39.5	13.1	4.05e-04	0	39	0	40626028544	44	15491
2026-01-13 20:40:13.48	313.84	13.90	-39.3	-39.6	13.0	4.05e-04	0	39	0	40743469056	44	15689
2026-01-13 20:40:14.47	314.07	13.82	-39.3	-39.5	13.0	4.05e-04	0	39	0	40852520960	44	15613
2026-01-13 20:40:15.46	314.29	13.74	-39.2	-39.5	13.0	4.58e-04	0	39	0	40969961472	44	15533
2026-01-13 20:40:16.46	314.52	13.66	-39.3	-39.6	13.0	4.58e-04	0	39	0	41079013376	44	15704
2026-01-13 20:40:17.47	314.74	13.57	-39.3	-39.6	13.0	4.72e-04	0	39	0	41188065280	44	15811
2026-01-13 20:40:18.46	314.97	13.49	-39.3	-39.6	13.0	4.72e-04	0	39	0	41305505792	44	15741
2026-01-13 20:40:19.45	315.19	13.41	-39.3	-39.6	13.0	4.72e-04	0	39	0	41414557696	44	15815
2026-01-13 20:40:20.46	315.41	13.33	-39.5	-39.8	13.0	5.43e-04	0	39	0	41531998208	44	16053
2026-01-13 20:40:21.45	315.62	13.24	-39.4	-39.7	13.0	5.43e-04	0	39	0	41632661504	44	15962
2026-01-13 20:40:22.46	315.84	13.16	-39.4	-39.7	13.0	5.10e-04	0	39	0	41758490624	44	15984
2026-01-13 20:40:23.45	316.06	13.08	-39.4	-39.7	13.0	5.10e-04	0	39	0	41859153920	44	15960
2026-01-13 20:40:24.45	316.27	13.00	-39.5	-39.8	13.0	5.10e-04	0	39	0	41976594432	44	16047
2026-01-13 20:40:25.45	316.49	12.92	-39.6	-39.9	12.9	7.68e-04	0	39	0	42085646336	44	16274
2026-01-13 20:40:26.45	316.70	12.83	-39.6	-39.9	13.0	7.68e-04	0	39	0	42194698240	45	15351
2026-01-13 20:40:27.44	316.91	12.75	-39.7	-40.0	12.9	6.29e-04	0	39	0	42312138752	45	15561
2026-01-13 20:40:28.43	317.11	12.67	-39.7	-40.0	12.9	6.29e-04	0	39	0	42421190656	45	15581
2026-01-13 20:40:29.44	317.32	12.59	-39.8	-40.0	12.9	8.06e-04	0	39	0	42538631168	45	15631
2026-01-13 20:40:30.44	317.53	12.51	-39.7	-40.0	12.9	8.06e-04	0	39	0	42647683072	45	15634
2026-01-13 20:40:31.43	317.73	12.43	-39.8	-40.0	12.9	8.06e-04	0	39	0	42765123584	45	15623
2026-01-13 20:40:32.42	317.93	12.35	-39.7	-40.0	12.9	8.68e-04	0	39	0	42874175488	45	15514
2026-01-13 20:40:33.42	318.14	12.26	-39.8	-40.1	12.9	8.68e-04	0	39	0	42983227392	45	15711
2026-01-13 20:40:34.41	318.34	12.18	-39.7	-40.0	12.9	8.68e-04	0	39	0	43100667904	45	15581
2026-01-13 20:40:35.41	318.54	12.10	-39.8	-40.1	12.9	9.77e-04	0	39	0	43209719808	45	15734
2026-01-13 20:40:36.40	318.73	12.02	-39.8	-40.1	12.9	9.77e-04	0	39	0	43318771712	45	15800
2026-01-13 20:40:37.40	318.93	11.94	-39.9	-40.2	12.9	9.77e-04	0	39	0	43427823616	45	15848
2026-01-13 20:40:38.39	319.12	11.86	-39.9	-40.2	12.8	9.77e-04	0	39	0	43545264128	45	15894
2026-01-13 20:40:39.39	319.32	11.78	-39.8	-40.1	12.8	9.92e-04	0	39	0	43654316032	45	15782
2026-01-13 20:40:40.39	319.51	11.70	-39.9	-40.2	12.8	9.92e-04	0	39	0	43771756544	45	15880
2026-01-13 20:40:41.38	319.70	11.62	-40.0	-40.3	12.8	9.92e-04	0	39	0	43880808448	45	16046
2026-01-13 20:40:42.37	319.89	11.54	-40.0	-40.3	12.8	1.17e-03	0	39	0	43989860352	45	16140
2026-01-13 20:40:43.37	320.08	11.46	-40.0	-40.3	12.8	1.17e-03	0	39	0	44107300864	45	16163
2026-01-13 20:40:44.36	320.27	11.38	-40.0	-40.4	12.8	1.17e-03	0	39	0	44216352768	45	16207
2026-01-13 20:40:45.36	320.45	11.30	-40.1	-40.4	12.8	1.37e-03	0	39	0	44333793280	45	16234
2026-01-13 20:40:46.35	320.64	11.22	-40.2	-40.5	12.8	1.37e-03	0	39	0	44434456576	46	15525
2026-01-13 20:40:47.35	320.82	11.14	-40.2	-40.5	12.8	1.37e-03	0	39	0	44551897088	46	15574
2026-01-13 20:40:48.34	321.01	11.06	-40.2	-40.5	12.8	1.46e-03	0	39	0	44660948992	46	15560
2026-01-13 20:40:49.34	321.19	10.98	-40.2	-40.5	12.7	1.46e-03	0	39	0	44778389504	46	15574
2026-01-13 20:40:50.33	321.37	10.90	-40.3	-40.6	12.7	1.46e-03	0	39	0	44887441408	46	15700
2026-01-13 20:40:51.33	321.55	10.82	-40.2	-40.5	12.7	1.66e-03	0	39	0	44996493312	46	15621
2026-01-13 20:40:52.33	321.73	10.74	-40.2	-40.6	12.7	1.66e-03	0	39	0	45113933824	46	15661
2026-01-13 20:40:53.33	321.90	10.66	-40.4	-40.7	12.7	1.66e-03	0	39	0	45222985728	46	15952
2026-01-13 20:40:54.33	322.08	10.58	-40.4	-40.7	12.7	1.65e-03	0	39	0	45340426240	46	15985
2026-01-13 20:40:55.32	322.26	10.50	-40.4	-40.7	12.7	1.65e-03	0	39	0	45449478144	46	15906
2026-01-13 20:40:56.32	322.43	10.42	-40.4	-40.7	12.7	1.65e-03	0	39	0	45558530048	46	15906
2026-01-13 20:40:57.32	322.60	10.34	-40.4	-40.7	12.7	1.88e-03	0	39	0	45675970560	46	15976
2026-01-13 20:40:58.32	322.78	10.27	-40.5	-40.8	12.7	1.88e-03	0	39	0	45785022464	46	16176
2026-01-13 20:40:59.31	322.95	10.19	-40.5	-40.8	12.7	1.88e-03	0	39	0	45902462976	46	16168
2026-01-13 20:41:00.30	323.11	10.11	-40.4	-40.7	12.7	2.28e-03	0	39	0	46003126272	46	16012
2026-01-13 20:41:01.29	323.28	10.03	-40.6	-40.9	12.7	2.28e-03	0	39	0	46120566784	47	15359
2026-01-13 20:41:02.28	323.45	9.95	-40.6	-40.9	12.7	2.28e-03	0	39	0	46229618688	47	15298
2026-01-13 20:41:03.27	323.61	9.88	-40.7	-41.0	12.7	2.45e-03	0	39	0	46347059200	47	15527
2026-01-13 20:41:04.27	323.78	9.80	-40.6	-40.9	12.7	2.45e-03	0	39	0	46456111104	47	15449
2026-01-13 20:41:05.26	323.94	9.72	-40.6	-40.9	12.7	2.71e-03	0	39	0	46565163008	47	15450
2026-01-13 20:41:06.24	324.10	9.65	-40.6	-40.9	12.7	2.71e-03	0	39	0	46674214912	47	15418
2026-01-13 20:41:07.24	324.27	9.57	-40.7	-41.0	12.6	2.56e-03	0	39	0	46791655424	47	15557
2026-01-13 20:41:08.23	324.43	9.49	-40.7	-41.0	12.6	2.56e-03	0	39	0	46900707328	47	15491
2026-01-13 20:41:09.22	324.59	9.42	-40.8	-41.1	12.6	2.94e-03	0	39	0	47009759232	47	15705
2026-01-13 20:41:10.21	324.74	9.34	-40.8	-41.1	12.6	2.94e-03	0	39	0	47127199744	47	15763
2026-01-13 20:41:11.20	324.90	9.26	-40.7	-41.0	12.6	2.94e-03	0	39	0	47236251648	47	15592
2026-01-13 20:41:12.19	325.06	9.19	-40.6	-40.9	12.6	3.40e-03	0	39	0	47345303552	47	15410
2026-01-13 20:41:13.18	325.21	9.11	-40.6	-40.9	12.6	3.40e-03	0	39	0	47454355456	47	15447
2026-01-13 20:41:14.18	325.37	9.03	-40.6	-40.9	12.6	3.40e-03	0	39	0	47571795968	47	15423
2026-01-13 20:41:15.18	325.52	8.96	-40.7	-41.0	12.6	2.84e-03	0	39	0	47680847872	47	15647
2026-01-13 20:41:16.17	325.68	8.88	-40.8	-41.1	12.6	2.84e-03	0	39	0	47798288384	47	15821
2026-01-13 20:41:17.16	325.83	8.81	-40.7	-41.0	12.6	3.28e-03	0	39	0	47907340288	47	15499
2026-01-13 20:41:18.14	325.98	8.73	-40.7	-41.0	12.6	3.28e-03	0	39	0	48016392192	47	15493
2026-01-13 20:41:19.13	326.13	8.66	-40.7	-41.0	12.6	3.28e-03	0	39	0	48125444096	47	15622
2026-01-13 20:41:20.12	326.27	8.58	-40.6	-40.9	12.6	3.21e-03	0	39	0	48242884608	47	15382
2026-01-13 20:41:21.12	326.42	8.51	-40.7	-41.0	12.6	3.21e-03	0	39	0	48351936512	47	15483
2026-01-13 20:41:22.11	326.57	8.43	-40.6	-40.9	12.6	3.21e-03	0	39	0	48460988416	47	15442
2026-01-13 20:41:23.10	326.72	8.36	-40.7	-41.0	12.6	3.19e-03	0	39	0	48570040320	47	15643
2026-01-13 20:41:24.10	326.86	8.28	-40.8	-41.1	12.6	3.19e-03	0	39	0	48687480832	47	15731
2026-01-13 20:41:25.10	327.01	8.21	-40.7	-41.0	12.6	3.19e-03	0	39	0	48796532736	47	15623
2026-01-13 20:41:26.11	327.16	8.13	-40.7	-41.0	12.6	3.27e-03	0	39	0	48913973248	47	15488
2026-01-13 20:41:27.10	327.30	8.06	-40.6	-40.9	12.6	3.27e-03	0	39	0	49023025152	47	15376
2026-01-13 20:41:28.09	327.44	7.99	-40.6	-40.9	12.6	3.27e-03	0	39	0	49132077056	47	15410
2026-01-13 20:41:29.09	327.58	7.91	-40.5	-40.8	12.6	3.20e-03	0	39	0	49249517568	47	15194
2026-01-13 20:41:30.08	327.72	7.84	-40.6	-40.9	12.6	3.20e-03	0	39	0	49358569472	47	15332
2026-01-13 20:41:31.08	327.86	7.77	-40.6	-40.9	12.6	3.18e-03	0	39	0	49467621376	47	15448
2026-01-13 20:41:32.07	328.00	7.69	-40.7	-41.0	12.6	3.18e-03	0	39	0	49585061888	47	15523
2026-01-13 20:41:33.06	328.14	7.62	-40.6	-40.9	12.6	3.18e-03	0	39	0	49694113792	47	15459
2026-01-13 20:41:34.05	328.27	7.55	-40.6	-40.9	12.6	4.29e-03	0	39	0	49803165696	47	15393
2026-01-13 20:41:35.04	328.41	7.48	-40.8	-41.1	12.6	4.29e-03	0	40	0	49912217600	47	15682
2026-01-13 20:41:36.04	328.55	7.40	-40.7	-41.0	12.6	4.29e-03	0	39	0	50029658112	47	15586
2026-01-13 20:41:37.03	328.68	7.33	-40.7	-41.0	12.6	5.02e-03	0	40	0	50138710016	47	15585
2026-01-13 20:41:38.04	328.82	7.26	-40.7	-41.0	12.6	5.02e-03	0	39	0	50256150528	47	15588
2026-01-13 20:41:39.03	328.95	7.19	-40.8	-41.1	12.6	5.02e-03	0	40	0	50365202432	47	15671
2026-01-13 20:41:40.03	329.08	7.11	-40.8	-41.1	12.6	4.74e-03	0	40	0	50482642944	47	15711
2026-01-13 20:41:41.03	329.22	7.04	-58.8	-62.0	6.2	4.74e-03	0	39	104	50507808768	83	22080
2026-01-13 20:41:42.03	329.35	6.97	-58.8	-62.0	6.2	4.74e-03	0	39	104	50507808768	83	22088
2026-01-13 20:41:43.03	329.48	6.90	-58.8	-62.0	6.2	4.74e-03	0	39	104	50507808768	83	22098
2026-01-13 20:41:44.02	329.61	6.83	-58.8	-62.0	6.2	4.74e-03	0	38	104	50507808768	83	22010
2026-01-13 20:41:45.02	329.74	6.75	-58.6	-61.9	6.2	4.74e-03	0	38	104	50507808768	83	21645
2026-01-13 20:41:46.02	329.86	6.68	-58.7	-61.9	6.2	1.61e-03	0	38	104	50507808768	83	21759
2026-01-13 20:41:47.01	329.99	6.61	-58.7	-62.0	6.2	1.61e-03	0	38	104	50507808768	83	21932
2026-01-13 20:41:48.01	330.12	6.54	-58.6	-61.9	6.2	1.61e-03	0	38	104	50507808768	83	21652
2026-01-13 20:41:49.00	330.24	6.47	-58.8	-62.0	6.2	1.61e-03	0	38	104	50507808768	83	21991
2026-01-13 20:41:50.00	330.37	6.40	-58.6	-61.9	6.2	1.61e-03	0	38	104	50507808768	83	21629
2026-01-13 20:41:51.00	330.49	6.33	-58.7	-61.9	6.2	1.61e-03	0	38	104	50507808768	83	21766
2026-01-13 20:41:52.00	330.62	6.26	-58.6	-61.8	6.2	1.61e-03	0	38	104	50507808768	83	21428
2026-01-13 20:41:53.00	330.74	6.19	-58.7	-62.0	6.2	1.61e-03	0	38	104	50507808768	83	21861
2026-01-13 20:41:54.00	330.86	6.12	-58.6	-61.8	6.2	1.61e-03	0	38	104	50507808768	83	21451
2026-01-13 20:41:54.98	330.98	6.05	-58.6	-61.9	6.2	1.61e-03	0	38	104	50507808768	83	21619
2026-01-13 20:41:55.98	331.10	5.98	-58.5	-61.7	6.2	1.61e-03	0	38	104	50507808768	83	21238
2026-01-13 20:41:56.98	331.22	5.91	-58.7	-61.9	6.2	0.00e+00	0	38	104	50507808768	83	21749
2026-01-13 20:41:57.97	331.34	5.84	-58.5	-61.8	6.2	0.00e+00	0	38	104	50507808768	83	21375
2026-01-13 20:41:58.97	331.46	5.77	-58.6	-61.8	6.2	0.00e+00	0	38	104	50507808768	83	21476
2026-01-13 20:41:59.96	331.58	5.70	-58.4	-61.7	6.2	0.00e+00	0	38	104	50507808768	83	21134
2026-01-13 20:42:00.96	331.70	5.64	-58.6	-61.8	6.2	0.00e+00	0	38	104	50507808768	83	21556
2026-01-13 20:42:01.95	331.81	5.57	-58.5	-61.7	6.2	0.00e+00	0	38	104	50507808768	83	21219
2026-01-13 20:42:02.95	331.93	5.50	-58.5	-61.7	6.2	0.00e+00	0	38	104	50507808768	83	21334
2026-01-13 20:42:03.94	332.04	5.43	-58.4	-61.6	6.2	0.00e+00	0	38	104	50507808768	83	20972
2026-01-13 20:42:04.94	332.16	5.36	-58.6	-61.8	6.2	0.00e+00	0	38	104	50507808768	83	21458
2026-01-13 20:42:05.94	332.27	5.29	-58.4	-61.6	6.2	0.00e+00	0	38	104	50507808768	83	21100
2026-01-13 20:42:06.93	332.39	5.23	-58.5	-61.7	6.2	0.00e+00	0	38	104	50507808768	83	21130
2026-01-13 20:42:07.93	332.50	5.16	-58.3	-61.5	6.2	0.00e+00	0	38	104	50507808768	83	20763
2026-01-13 20:42:08.92	332.61	5.09	-58.5	-61.7	6.2	0.00e+00	0	38	104	50507808768	83	21350
2026-01-13 20:42:09.91	332.72	5.02	-58.3	-61.5	6.2	0.00e+00	0	38	104	50507808768	83	20867
2026-01-13 20:42:10.92	332.84	4.96	-58.5	-61.7	6.1	0.00e+00	0	37	104	50507808768	83	21287
2026-01-13 20:42:11.91	332.95	4.89	-59.0	-62.3	6.2	0.00e+00	0	38	104	50507808768	83	22636
2026-01-13 20:42:12.90	333.05	4.82	-59.5	-62.8	6.1	0.00e+00	0	37	104	50507808768	84	22653
2026-01-13 20:42:13.90	333.16	4.76	-59.7	-63.0	6.2	0.00e+00	0	38	104	50507808768	85	21968
2026-01-13 20:42:14.91	333.27	4.69	-59.9	-63.2	6.2	0.00e+00	0	37	104	50507808768	85	22366
2026-01-13 20:42:15.91	333.38	4.62	-60.0	-63.3	6.2	0.00e+00	0	38	104	50507808768	85	22741
2026-01-13 20:42:16.90	333.49	4.56	-60.2	-63.4	6.2	0.00e+00	0	37	104	50507808768	86	21816
2026-01-13 20:42:17.90	333.60	4.49	-60.3	-63.5	6.2	0.00e+00	0	37	104	50507808768	86	22009
2026-01-13 20:42:18.90	333.70	4.42	-60.4	-63.6	6.1	0.00e+00	0	37	104	50507808768	86	22252
2026-01-13 20:42:19.90	333.81	4.36	-60.4	-63.7	6.2	0.00e+00	0	37	104	50507808768	86	22453
2026-01-13 20:42:20.90	333.91	4.29	-60.5	-63.7	6.2	0.00e+00	0	37	104	50507808768	86	22479
2026-01-13 20:42:21.91	334.02	4.23	-60.5	-63.7	6.2	0.00e+00	0	37	104	50507808768	86	22595
2026-01-13 20:42:22.90	334.12	4.16	-60.5	-63.8	6.2	0.00e+00	0	37	104	50507808768	86	22632
2026-01-13 20:42:23.89	334.23	4.10	-60.5	-63.8	6.1	0.00e+00	0	37	104	50507808768	86	22641
2026-01-13 20:42:24.89	334.33	4.03	-60.6	-63.8	6.2	0.00e+00	0	37	104	50507808768	86	22777
2026-01-13 20:42:25.89	334.43	3.96	-60.6	-63.8	6.2	0.00e+00	0	37	104	50507808768	86	22742
2026-01-13 20:42:26.90	334.54	3.90	-60.6	-63.8	6.2	0.00e+00	0	37	104	50507808768	86	22756
2026-01-13 20:42:27.90	334.64	3.83	-60.6	-63.8	6.2	0.00e+00	0	37	104	50507808768	86	22777
2026-01-13 20:42:28.90	334.74	3.77	-60.6	-63.8	6.2	0.00e+00	0	37	104	50507808768	86	22673
2026-01-13 20:42:29.89	334.84	3.71	-60.5	-63.8	6.2	0.00e+00	0	37	104	50507808768	86	22648
2026-01-13 20:42:30.89	334.94	3.64	-60.5	-63.7	6.2	0.00e+00	0	37	104	50507808768	86	22539
2026-01-13 20:42:31.89	335.04	3.58	-60.5	-63.7	6.2	0.00e+00	0	37	104	50507808768	86	22601
2026-01-13 20:42:32.89	335.14	3.51	-60.5	-63.7	6.2	0.00e+00	0	37	104	50507808768	86	22506
2026-01-13 20:42:33.89	335.23	3.45	-60.4	-63.7	6.2	0.00e+00	0	37	104	50507808768	86	22380
2026-01-13 20:42:34.88	335.33	3.38	-60.4	-63.6	6.2	0.00e+00	0	37	104	50507808768	86	22320
2026-01-13 20:42:35.89	335.43	3.32	-60.4	-63.6	6.2	0.00e+00	0	37	104	50507808768	86	22340
2026-01-13 20:42:36.89	335.53	3.26	-60.4	-63.6	6.2	0.00e+00	0	37	104	50507808768	86	22231
2026-01-13 20:42:37.89	335.62	3.19	-60.3	-63.6	6.2	0.00e+00	0	37	104	50507808768	86	22165
2026-01-13 20:42:38.89	335.72	3.13	-60.3	-63.6	6.2	0.00e+00	0	37	104	50507808768	86	22145
2026-01-13 20:42:39.90	335.82	3.07	-60.3	-63.6	6.2	0.00e+00	0	37	104	50507808768	86	22148
2026-01-13 20:42:40.90	335.91	3.00	-60.3	-63.6	6.2	0.00e+00	0	37	104	50507808768	86	22132
2026-01-13 20:42:41.90	336.00	2.94	-60.3	-63.6	6.2	0.00e+00	0	37	104	50507808768	86	22170
2026-01-13 20:42:42.89	336.10	2.88	-60.3	-63.5	6.2	0.00e+00	0	37	104	50507808768	86	22036
2026-01-13 20:42:43.89	336.19	2.81	-60.3	-63.6	6.2	0.00e+00	0	37	104	50507808768	86	22129
2026-01-13 20:42:44.89	336.28	2.75	-60.3	-63.5	6.2	0.00e+00	0	37	104	50507808768	86	22035
2026-01-13 20:42:45.89	336.38	2.69	-60.3	-63.5	6.2	0.00e+00	0	37	104	50507808768	86	21984
2026-01-13 20:42:46.88	336.47	2.63	-60.3	-63.5	6.2	0.00e+00	0	37	104	50507808768	86	22015
2026-01-13 20:42:47.88	336.56	2.57	-60.3	-63.5	6.2	0.00e+00	0	37	104	50507808768	86	21990
2026-01-13 20:42:48.88	336.65	2.50	-60.3	-63.5	6.2	0.00e+00	0	37	104	50507808768	86	21964
2026-01-13 20:42:49.89	336.74	2.44	-60.2	-63.5	6.2	0.00e+00	0	37	104	50507808768	86	21863
2026-01-13 20:42:50.89	336.83	2.38	-60.2	-63.5	6.2	0.00e+00	0	37	104	50507808768	86	22034
2026-01-13 20:42:51.89	336.92	2.32	-60.2	-63.5	6.2	0.00e+00	0	37	104	50507808768	86	21905
2026-01-13 20:42:52.89	337.01	2.26	-60.2	-63.5	6.2	0.00e+00	0	37	104	50507808768	86	21857
2026-01-13 20:42:53.89	337.10	2.19	-60.2	-63.4	6.2	0.00e+00	0	37	104	50507808768	86	21843
2026-01-13 20:42:54.89	337.19	2.13	-60.2	-63.5	6.2	0.00e+00	0	37	104	50507808768	86	21904
2026-01-13 20:42:55.90	337.28	2.07	-60.2	-63.5	6.2	0.00e+00	0	37	104	50507808768	86	21898
2026-01-13 20:42:56.90	337.36	2.01	-60.2	-63.5	6.2	0.00e+00	0	37	104	50507808768	86	21872
2026-01-13 20:42:57.90	337.45	1.95	-60.2	-63.4	6.2	0.00e+00	0	37	104	50507808768	86	21825

#Closed at: 2026-01-13 20:42:58
#Recorded file [50507 MB]: D:/lorett/data/31004_260113_233317.dat