passes_logs/2026/01/13/R3.2S_Murmansk/R3.2S_Murmansk__20260113_084636_NOAA_20_JPSS-1_rec.log

#Pass ID: 20260113_084636_NOAA 20 (JPSS-1)
#Satellite: NOAA 20 (JPSS-1)
#Configuration: NOAA 20
#almurnet v.1.7.20251203
#Start time: 2026-01-13 08:46:38

#Version: 2.2.20231116
#Station: R3.2S_Murmansk
#Location: 33.079688 lon 68.888172 lat
#TLE: 1 43013U 17073A   26012.93351427  .00000071  00000+0  54715-4 0  9997
#TLE: 2 43013  98.7633 313.8947 0001589  42.3281 317.8017 14.19535582422443

#Time	Az	El	Level	Level2	SNR	BER	BlckErr	Temp	State	Recorded	gain1	gain2
2026-01-13 08:46:38.08	134.00	2.08	-58.0	-73.9	3.8	1.49e+00	0	24	0	0	82	22230
2026-01-13 08:46:39.08	133.99	2.14	-57.9	-73.9	3.8	1.49e+00	0	24	104	0	80	24774
2026-01-13 08:46:40.09	133.97	2.21	-57.9	-73.9	3.8	1.49e+00	0	24	104	0	80	24769
2026-01-13 08:46:41.11	133.95	2.28	-57.9	-73.9	3.8	1.49e+00	0	24	104	0	80	24785
2026-01-13 08:46:42.12	133.94	2.34	-57.9	-73.9	3.8	1.49e+00	0	24	104	0	80	24796
2026-01-13 08:46:43.12	133.92	2.40	-57.9	-73.9	3.8	1.49e+00	0	24	104	0	80	24828
2026-01-13 08:46:44.13	133.90	2.47	-57.9	-73.9	3.8	1.49e+00	0	24	104	0	80	24734
2026-01-13 08:46:45.14	133.89	2.54	-57.9	-73.9	3.8	1.49e+00	0	24	104	0	80	24748
2026-01-13 08:46:46.15	133.87	2.60	-57.9	-73.9	3.8	1.49e+00	0	24	104	0	80	24762
2026-01-13 08:46:47.16	133.85	2.67	-57.9	-73.9	3.8	1.49e+00	0	24	104	0	80	24819
2026-01-13 08:46:48.17	133.83	2.73	-57.9	-73.9	3.8	1.49e+00	0	25	104	0	80	24776
2026-01-13 08:46:49.18	133.82	2.80	-57.9	-73.9	3.8	1.49e+00	0	24	104	0	80	24783
2026-01-13 08:46:50.19	133.80	2.87	-57.9	-73.9	3.8	1.49e+00	0	24	104	0	80	24736
2026-01-13 08:46:51.20	133.78	2.93	-57.9	-73.9	3.8	1.49e+00	0	24	104	0	80	24789
2026-01-13 08:46:52.20	133.76	3.00	-57.9	-73.9	3.8	1.49e+00	0	25	104	0	80	24769
2026-01-13 08:46:53.21	133.75	3.06	-57.9	-73.9	3.8	1.49e+00	0	25	104	0	80	24726
2026-01-13 08:46:54.22	133.73	3.13	-57.9	-73.8	3.8	1.49e+00	0	25	104	0	80	24664
2026-01-13 08:46:55.23	133.71	3.20	-57.9	-73.8	3.8	1.49e+00	0	25	104	0	80	24639
2026-01-13 08:46:56.24	133.69	3.27	-57.9	-73.8	3.8	1.49e+00	0	25	104	0	80	24581
2026-01-13 08:46:57.25	133.67	3.33	-57.9	-73.8	3.8	1.49e+00	0	25	104	0	80	24562
2026-01-13 08:46:58.26	133.66	3.40	-57.9	-73.8	3.8	1.49e+00	0	25	104	0	80	24466
2026-01-13 08:46:59.27	133.64	3.47	-57.9	-73.7	3.8	1.49e+00	0	25	104	0	80	24132
2026-01-13 08:47:00.27	133.62	3.54	-57.9	-73.6	3.8	1.49e+00	0	25	104	0	80	23876
2026-01-13 08:47:01.29	133.60	3.60	-57.9	-73.3	3.8	1.49e+00	0	25	104	0	80	23170
2026-01-13 08:47:02.30	133.58	3.67	-57.9	-73.0	3.8	1.49e+00	0	25	104	0	80	22372
2026-01-13 08:47:03.30	133.56	3.74	-57.8	-72.5	3.8	1.49e+00	0	25	104	0	80	21044
2026-01-13 08:47:04.32	133.54	3.81	-57.8	-71.9	3.8	1.49e+00	0	25	104	0	80	19656
2026-01-13 08:47:05.32	133.53	3.88	-57.8	-71.3	4.0	1.48e+00	0	25	104	0	80	18472
2026-01-13 08:47:06.34	133.51	3.95	-57.8	-70.6	4.1	1.46e+00	0	25	0	0	80	17019
2026-01-13 08:47:07.34	133.49	4.02	-57.7	-70.0	4.3	1.39e+00	0	25	0	0	80	15912
2026-01-13 08:47:08.35	133.47	4.09	-57.7	-69.3	4.5	1.24e+00	0	25	0	1048576	80	14558
2026-01-13 08:47:09.36	133.45	4.15	-57.5	-67.9	5.2	7.22e-01	0	25	0	3145728	80	12378
2026-01-13 08:47:10.37	133.43	4.22	-57.4	-66.7	5.9	4.19e-01	0	25	0	5242880	80	10799
2026-01-13 08:47:11.38	133.41	4.29	-57.2	-65.0	7.2	1.87e-01	0	25	0	7340032	80	8866
2026-01-13 08:47:12.39	133.39	4.36	-56.9	-63.6	8.4	4.24e-02	0	25	0	8388608	80	7581
2026-01-13 08:47:13.40	133.37	4.43	-56.5	-62.2	9.6	9.24e-03	0	25	0	10485760	79	6855
2026-01-13 08:47:14.40	133.35	4.50	-56.0	-60.8	10.7	2.07e-03	0	25	0	12582912	78	6184
2026-01-13 08:47:15.41	133.33	4.57	-55.5	-59.7	11.6	5.72e-05	0	25	0	14680064	77	5728
2026-01-13 08:47:16.42	133.31	4.64	-55.1	-58.8	12.1	5.30e-06	0	25	0	15728640	76	5524
2026-01-13 08:47:17.43	133.29	4.72	-54.4	-57.6	12.9	0.00e+00	0	25	0	17825792	75	5046
2026-01-13 08:47:18.44	133.27	4.79	-53.9	-56.8	13.3	0.00e+00	0	25	0	19922944	74	4888
2026-01-13 08:47:19.45	133.25	4.86	-53.6	-56.3	13.4	0.00e+00	0	25	0	22020096	73	4923
2026-01-13 08:47:20.46	133.23	4.93	-53.5	-56.2	13.6	0.00e+00	0	25	0	24117248	73	4820
2026-01-13 08:47:21.47	133.21	5.00	-53.5	-56.1	13.6	0.00e+00	0	25	0	25165824	73	4788
2026-01-13 08:47:22.48	133.19	5.07	-53.8	-56.7	13.4	0.00e+00	0	25	0	27262976	73	5108
2026-01-13 08:47:23.48	133.17	5.14	-55.8	-60.1	11.3	1.44e-05	0	25	0	29360128	76	6374
2026-01-13 08:47:24.49	133.15	5.22	-53.6	-56.3	13.6	5.38e-04	0	25	0	31457280	73	4872
2026-01-13 08:47:25.50	133.12	5.29	-54.7	-58.1	12.6	1.74e-04	0	25	0	33554432	76	5093
2026-01-13 08:47:26.51	133.10	5.36	-53.6	-56.3	13.5	0.00e+00	0	25	0	35651584	73	4900
2026-01-13 08:47:27.51	133.08	5.43	-54.5	-57.7	12.7	6.33e-05	0	25	0	36700160	75	5145
2026-01-13 08:47:28.52	133.06	5.51	-53.6	-56.3	13.5	0.00e+00	0	25	0	38797312	73	4897
2026-01-13 08:47:29.53	133.04	5.58	-53.4	-56.0	13.7	0.00e+00	0	25	0	40894464	73	4708
2026-01-13 08:47:30.54	133.02	5.65	-53.1	-55.4	13.9	0.00e+00	0	25	0	42991616	72	4693
2026-01-13 08:47:31.54	133.00	5.73	-53.0	-55.4	13.9	0.00e+00	0	25	0	45088768	72	4686
2026-01-13 08:47:32.55	132.97	5.80	-53.2	-55.6	13.8	0.00e+00	0	25	0	46137344	72	4805
2026-01-13 08:47:33.56	132.95	5.87	-53.2	-55.6	13.8	0.00e+00	0	25	0	48234496	72	4792
2026-01-13 08:47:34.57	132.93	5.95	-53.1	-55.4	14.0	0.00e+00	0	25	0	50331648	72	4697
2026-01-13 08:47:35.58	132.91	6.02	-53.1	-55.5	13.9	0.00e+00	0	25	0	52428800	72	4744
2026-01-13 08:47:36.58	132.88	6.10	-53.1	-55.4	14.0	0.00e+00	0	25	0	54525952	72	4700
2026-01-13 08:47:37.58	132.86	6.17	-53.0	-55.4	14.0	0.00e+00	0	25	0	55574528	72	4653
2026-01-13 08:47:38.59	132.84	6.24	-53.1	-55.4	14.0	0.00e+00	0	25	0	57671680	72	4683
2026-01-13 08:47:39.60	132.82	6.32	-53.1	-55.5	14.0	0.00e+00	0	25	0	59768832	72	4712
2026-01-13 08:47:40.60	132.79	6.39	-53.2	-55.6	13.9	0.00e+00	0	25	0	61865984	72	4802
2026-01-13 08:47:41.61	132.77	6.47	-53.1	-55.4	14.0	0.00e+00	0	25	0	63963136	72	4667
2026-01-13 08:47:42.62	132.75	6.55	-53.2	-55.5	13.9	0.00e+00	0	25	0	65011712	72	4754
2026-01-13 08:47:43.63	132.72	6.62	-53.1	-55.5	14.0	0.00e+00	0	25	0	67108864	72	4707
2026-01-13 08:47:44.63	132.70	6.70	-53.0	-55.2	14.1	0.00e+00	0	25	0	69206016	72	4598
2026-01-13 08:47:45.64	132.68	6.77	-53.0	-55.3	14.0	0.00e+00	0	25	0	71303168	72	4635
2026-01-13 08:47:46.65	132.65	6.85	-53.1	-55.4	14.1	0.00e+00	0	25	0	73400320	72	4658
2026-01-13 08:47:47.66	132.63	6.93	-53.0	-55.3	14.0	0.00e+00	0	25	0	74448896	72	4642
2026-01-13 08:47:48.66	132.60	7.00	-52.9	-55.1	14.2	0.00e+00	0	25	0	76546048	72	4504
2026-01-13 08:47:49.67	132.58	7.08	-53.0	-55.3	14.1	0.00e+00	0	26	0	78643200	72	4605
2026-01-13 08:47:50.68	132.55	7.16	-53.0	-55.2	14.1	0.00e+00	0	25	0	80740352	72	4585
2026-01-13 08:47:51.69	132.53	7.24	-52.8	-55.0	14.3	0.00e+00	0	25	0	82837504	72	4486
2026-01-13 08:47:52.69	132.50	7.31	-52.8	-55.0	14.3	0.00e+00	0	25	0	83886080	72	4462
2026-01-13 08:47:53.70	132.48	7.39	-53.0	-55.2	14.1	0.00e+00	0	25	0	85983232	72	4573
2026-01-13 08:47:54.71	132.45	7.47	-52.9	-55.0	14.3	0.00e+00	0	25	0	88080384	72	4482
2026-01-13 08:47:55.72	132.43	7.55	-52.8	-54.9	14.3	0.00e+00	0	25	0	90177536	72	4431
2026-01-13 08:47:56.73	132.40	7.63	-52.7	-54.8	14.4	0.00e+00	0	25	0	92274688	72	4371
2026-01-13 08:47:57.73	132.38	7.71	-52.8	-55.0	14.3	0.00e+00	0	25	0	93323264	72	4468
2026-01-13 08:47:58.74	132.35	7.79	-52.9	-55.1	14.2	0.00e+00	0	26	0	95420416	72	4496
2026-01-13 08:47:59.76	132.33	7.87	-52.8	-55.0	14.3	0.00e+00	0	25	0	97517568	72	4457
2026-01-13 08:48:00.77	132.30	7.95	-52.7	-54.8	14.4	0.00e+00	0	26	0	99614720	72	4365
2026-01-13 08:48:01.77	132.27	8.03	-52.7	-54.8	14.4	0.00e+00	0	25	0	101711872	72	4347
2026-01-13 08:48:02.78	132.25	8.11	-52.8	-54.9	14.4	0.00e+00	0	25	0	102760448	72	4400
2026-01-13 08:48:03.78	132.22	8.19	-52.7	-54.8	14.4	0.00e+00	0	26	0	104857600	72	4348
2026-01-13 08:48:04.79	132.20	8.27	-52.6	-54.7	14.3	0.00e+00	0	26	0	106954752	71	4576
2026-01-13 08:48:05.80	132.17	8.35	-52.8	-54.9	14.2	0.00e+00	0	25	0	109051904	71	4675
2026-01-13 08:48:06.81	132.14	8.43	-52.8	-54.9	14.2	0.00e+00	0	25	0	111149056	71	4655
2026-01-13 08:48:07.82	132.11	8.51	-52.7	-54.8	14.3	0.00e+00	0	26	0	112197632	71	4620
2026-01-13 08:48:08.82	132.09	8.59	-52.6	-54.7	14.3	0.00e+00	0	26	0	114294784	71	4568
2026-01-13 08:48:09.83	132.06	8.68	-52.5	-54.6	14.4	0.00e+00	0	26	0	116391936	71	4503
2026-01-13 08:48:10.84	132.03	8.76	-52.6	-54.7	14.4	0.00e+00	0	26	0	118489088	71	4552
2026-01-13 08:48:11.85	132.00	8.84	-52.5	-54.6	14.4	0.00e+00	0	25	0	120586240	71	4503
2026-01-13 08:48:12.86	131.98	8.92	-52.5	-54.5	14.4	0.00e+00	0	25	0	121634816	71	4473
2026-01-13 08:48:13.87	131.95	9.01	-52.5	-54.5	14.5	0.00e+00	0	25	0	123731968	71	4450
2026-01-13 08:48:14.88	131.92	9.09	-52.6	-54.6	14.4	0.00e+00	0	26	0	125829120	71	4545
2026-01-13 08:48:15.89	131.89	9.17	-52.4	-54.3	14.6	0.00e+00	0	26	0	127926272	71	4382
2026-01-13 08:48:16.90	131.86	9.26	-52.4	-54.4	14.5	0.00e+00	0	25	0	130023424	71	4418
2026-01-13 08:48:17.91	131.83	9.34	-52.4	-54.4	14.5	0.00e+00	0	26	0	131072000	71	4425
2026-01-13 08:48:18.92	131.80	9.43	-52.5	-54.5	14.4	0.00e+00	0	25	0	133169152	71	4485
2026-01-13 08:48:19.93	131.77	9.51	-52.4	-54.4	14.6	0.00e+00	0	26	0	135266304	71	4398
2026-01-13 08:48:20.94	131.74	9.60	-52.4	-54.4	14.5	0.00e+00	0	26	0	137363456	71	4404
2026-01-13 08:48:21.95	131.71	9.68	-52.3	-54.2	14.6	0.00e+00	0	26	0	139460608	71	4340
2026-01-13 08:48:22.95	131.68	9.77	-52.4	-54.3	14.6	0.00e+00	0	26	0	140509184	71	4369
2026-01-13 08:48:23.96	131.65	9.86	-52.3	-54.2	14.6	0.00e+00	0	26	0	142606336	71	4323
2026-01-13 08:48:24.97	131.62	9.94	-52.3	-54.2	14.6	0.00e+00	0	26	0	144703488	71	4312
2026-01-13 08:48:25.98	131.59	10.03	-52.3	-54.2	14.7	0.00e+00	0	26	0	146800640	71	4300
2026-01-13 08:48:26.98	131.56	10.11	-52.3	-54.3	14.6	0.00e+00	0	25	0	148897792	71	4351
2026-01-13 08:48:27.99	131.53	10.20	-52.4	-54.3	14.5	0.00e+00	0	25	0	149946368	71	4382
2026-01-13 08:48:29.00	131.50	10.29	-52.3	-54.3	14.6	0.00e+00	0	26	0	152043520	71	4348
2026-01-13 08:48:30.01	131.47	10.38	-52.3	-54.3	14.6	0.00e+00	0	26	0	154140672	71	4355
2026-01-13 08:48:31.02	131.44	10.47	-52.2	-54.1	14.7	0.00e+00	0	26	0	156237824	71	4255
2026-01-13 08:48:32.02	131.41	10.55	-52.2	-54.0	14.7	0.00e+00	0	25	0	158334976	71	4236
2026-01-13 08:48:33.03	131.37	10.64	-52.1	-54.0	14.6	0.00e+00	0	26	0	160432128	70	4482
2026-01-13 08:48:34.04	131.34	10.73	-52.1	-54.0	14.6	0.00e+00	0	26	0	161480704	70	4470
2026-01-13 08:48:35.05	131.31	10.82	-52.1	-54.0	14.6	0.00e+00	0	26	0	163577856	70	4475
2026-01-13 08:48:36.06	131.28	10.91	-52.1	-54.0	14.6	0.00e+00	0	26	0	165675008	70	4448
2026-01-13 08:48:37.07	131.24	11.00	-52.1	-54.0	14.6	0.00e+00	0	25	0	167772160	70	4444
2026-01-13 08:48:38.07	131.21	11.09	-52.2	-54.1	14.5	0.00e+00	0	26	0	168820736	70	4518
2026-01-13 08:48:39.08	131.18	11.18	-52.2	-54.1	14.5	0.00e+00	0	26	0	170917888	70	4545
2026-01-13 08:48:40.08	131.15	11.27	-52.1	-53.9	14.6	0.00e+00	0	26	0	173015040	70	4429
2026-01-13 08:48:41.09	131.11	11.36	-52.1	-53.9	14.6	0.00e+00	0	26	0	175112192	70	4423
2026-01-13 08:48:42.10	131.08	11.45	-52.1	-54.0	14.6	0.00e+00	0	26	0	177209344	70	4449
2026-01-13 08:48:43.10	131.04	11.54	-52.1	-54.0	14.6	0.00e+00	0	26	0	178257920	70	4449
2026-01-13 08:48:44.11	131.01	11.64	-52.1	-53.9	14.6	0.00e+00	0	26	0	180355072	70	4430
2026-01-13 08:48:45.13	130.97	11.73	-52.1	-54.0	14.6	0.00e+00	0	26	0	182452224	70	4449
2026-01-13 08:48:46.13	130.94	11.82	-52.1	-54.0	14.6	0.00e+00	0	26	0	184549376	70	4464
2026-01-13 08:48:47.14	130.90	11.92	-52.2	-54.0	14.6	0.00e+00	0	26	0	186646528	70	4487
2026-01-13 08:48:48.15	130.87	12.01	-52.1	-53.9	14.6	0.00e+00	0	26	0	188743680	70	4419
2026-01-13 08:48:49.16	130.83	12.10	-52.1	-53.9	14.6	0.00e+00	0	26	0	189792256	70	4418
2026-01-13 08:48:50.17	130.80	12.20	-52.1	-53.9	14.6	0.00e+00	0	26	0	191889408	70	4436
2026-01-13 08:48:51.17	130.76	12.29	-52.2	-54.0	14.6	0.00e+00	0	26	0	193986560	70	4472
2026-01-13 08:48:52.18	130.72	12.39	-52.0	-53.8	14.7	0.00e+00	0	26	0	196083712	70	4377
2026-01-13 08:48:53.18	130.69	12.48	-52.0	-53.8	14.7	0.00e+00	0	26	0	198180864	70	4383
2026-01-13 08:48:54.19	130.65	12.58	-52.0	-53.8	14.7	0.00e+00	0	26	0	199229440	70	4359
2026-01-13 08:48:55.20	130.61	12.67	-51.9	-53.7	14.7	0.00e+00	0	26	0	201326592	70	4333
2026-01-13 08:48:56.21	130.58	12.77	-52.0	-53.9	14.7	0.00e+00	0	26	0	203423744	70	4395
2026-01-13 08:48:57.22	130.54	12.87	-52.0	-53.8	14.7	0.00e+00	0	26	0	205520896	70	4389
2026-01-13 08:48:58.23	130.50	12.97	-51.9	-53.7	14.8	0.00e+00	0	26	0	207618048	70	4306
2026-01-13 08:48:59.24	130.46	13.06	-52.0	-53.8	14.7	0.00e+00	0	26	0	208666624	70	4361
2026-01-13 08:49:00.24	130.42	13.16	-52.0	-53.8	14.7	0.00e+00	0	26	0	210763776	70	4387
2026-01-13 08:49:01.25	130.39	13.26	-52.0	-53.8	14.7	0.00e+00	0	26	0	212860928	70	4373
2026-01-13 08:49:02.26	130.35	13.36	-51.9	-53.7	14.8	0.00e+00	0	26	0	214958080	70	4325
2026-01-13 08:49:03.26	130.31	13.46	-52.0	-53.8	14.7	0.00e+00	0	26	0	217055232	70	4346
2026-01-13 08:49:04.27	130.27	13.56	-52.0	-53.8	14.7	0.00e+00	0	26	0	218103808	70	4375
2026-01-13 08:49:05.28	130.23	13.66	-52.0	-53.8	14.7	0.00e+00	0	26	0	220200960	70	4354
2026-01-13 08:49:06.28	130.19	13.76	-51.9	-53.7	14.8	0.00e+00	0	26	0	222298112	70	4320
2026-01-13 08:49:07.29	130.15	13.86	-52.0	-53.8	14.7	0.00e+00	0	26	0	224395264	70	4348
2026-01-13 08:49:08.29	130.11	13.96	-52.0	-53.7	14.7	0.00e+00	0	26	0	226492416	70	4335
2026-01-13 08:49:09.30	130.07	14.06	-51.9	-53.7	14.7	0.00e+00	0	26	0	227540992	70	4320
2026-01-13 08:49:10.31	130.02	14.16	-51.9	-53.7	14.8	0.00e+00	0	26	0	229638144	70	4324
2026-01-13 08:49:11.31	129.98	14.26	-52.0	-53.7	14.8	0.00e+00	0	26	0	231735296	70	4329
2026-01-13 08:49:12.32	129.94	14.36	-52.0	-53.7	14.7	0.00e+00	0	26	0	233832448	70	4340
2026-01-13 08:49:13.33	129.90	14.47	-52.1	-53.9	14.7	0.00e+00	0	26	0	234881024	70	4396
2026-01-13 08:49:14.33	129.86	14.57	-52.0	-53.7	14.7	0.00e+00	0	26	0	236978176	70	4340
2026-01-13 08:49:15.34	129.81	14.67	-52.0	-53.7	14.8	0.00e+00	0	26	0	239075328	70	4332
2026-01-13 08:49:16.34	129.77	14.78	-52.0	-53.8	14.7	0.00e+00	0	26	0	241172480	70	4364
2026-01-13 08:49:17.35	129.73	14.88	-52.0	-53.7	14.8	0.00e+00	0	26	0	243269632	70	4321
2026-01-13 08:49:18.36	129.68	14.99	-51.9	-53.6	14.8	0.00e+00	0	26	0	245366784	70	4282
2026-01-13 08:49:19.37	129.64	15.09	-51.9	-53.7	14.8	0.00e+00	0	26	0	246415360	70	4306
2026-01-13 08:49:20.38	129.59	15.20	-52.0	-53.8	14.7	0.00e+00	0	26	0	248512512	70	4355
2026-01-13 08:49:21.39	129.55	15.31	-51.9	-53.7	14.8	0.00e+00	0	26	0	250609664	70	4299
2026-01-13 08:49:22.40	129.50	15.41	-51.9	-53.6	14.8	0.00e+00	0	26	0	252706816	70	4259
2026-01-13 08:49:23.40	129.46	15.52	-51.9	-53.6	14.8	0.00e+00	0	26	0	254803968	70	4268
2026-01-13 08:49:24.41	129.41	15.63	-51.9	-53.6	14.8	0.00e+00	0	26	0	255852544	70	4269
2026-01-13 08:49:25.42	129.36	15.74	-51.9	-53.7	14.8	0.00e+00	0	26	0	257949696	70	4315
2026-01-13 08:49:26.42	129.32	15.85	-51.9	-53.6	14.8	0.00e+00	0	26	0	260046848	70	4282
2026-01-13 08:49:27.43	129.27	15.96	-51.8	-53.6	14.8	0.00e+00	0	26	0	262144000	70	4246
2026-01-13 08:49:28.44	129.22	16.07	-51.9	-53.7	14.8	0.00e+00	0	26	0	264241152	70	4298
2026-01-13 08:49:29.44	129.18	16.17	-51.8	-53.5	14.8	0.00e+00	0	26	0	265289728	70	4232
2026-01-13 08:49:30.45	129.13	16.29	-51.8	-53.5	14.9	0.00e+00	0	26	0	267386880	70	4239
2026-01-13 08:49:31.46	129.08	16.40	-51.9	-53.6	14.8	0.00e+00	0	26	0	269484032	70	4270
2026-01-13 08:49:32.47	129.03	16.51	-51.9	-53.6	14.8	0.00e+00	0	26	0	271581184	70	4259
2026-01-13 08:49:33.47	128.98	16.62	-51.9	-53.6	14.8	0.00e+00	0	26	0	273678336	70	4248
2026-01-13 08:49:34.48	128.93	16.73	-51.8	-53.6	14.8	0.00e+00	0	26	0	274726912	70	4249
2026-01-13 08:49:35.49	128.88	16.85	-51.9	-53.6	14.8	0.00e+00	0	26	0	276824064	70	4277
2026-01-13 08:49:36.49	128.83	16.96	-51.9	-53.7	14.8	0.00e+00	0	26	0	278921216	70	4298
2026-01-13 08:49:37.50	128.78	17.07	-51.8	-53.4	14.9	0.00e+00	0	26	0	281018368	70	4187
2026-01-13 08:49:38.51	128.73	17.19	-51.8	-53.5	14.9	0.00e+00	0	26	0	283115520	70	4212
2026-01-13 08:49:39.52	128.68	17.30	-51.9	-53.6	14.8	0.00e+00	0	26	0	284164096	70	4251
2026-01-13 08:49:40.53	128.62	17.42	-51.9	-53.6	14.8	0.00e+00	0	26	0	286261248	70	4269
2026-01-13 08:49:41.54	128.57	17.54	-51.9	-53.6	14.8	0.00e+00	0	26	0	288358400	70	4280
2026-01-13 08:49:42.54	128.52	17.65	-51.8	-53.5	14.9	0.00e+00	0	26	0	290455552	70	4238
2026-01-13 08:49:43.55	128.46	17.77	-51.8	-53.5	14.9	0.00e+00	0	26	0	292552704	70	4230
2026-01-13 08:49:44.56	128.41	17.89	-51.9	-53.6	14.8	0.00e+00	0	26	0	293601280	70	4273
2026-01-13 08:49:45.57	128.36	18.01	-51.8	-53.5	14.9	0.00e+00	0	26	0	295698432	70	4223
2026-01-13 08:49:46.58	128.30	18.13	-51.7	-53.4	14.9	0.00e+00	0	26	0	297795584	70	4176
2026-01-13 08:49:47.59	128.25	18.25	-51.7	-53.4	14.9	0.00e+00	0	26	0	299892736	70	4168
2026-01-13 08:49:48.60	128.19	18.37	-51.8	-53.5	14.9	0.00e+00	0	26	0	301989888	70	4196
2026-01-13 08:49:49.61	128.13	18.49	-51.7	-53.4	14.9	0.00e+00	0	26	0	303038464	70	4176
2026-01-13 08:49:50.62	128.08	18.61	-51.7	-53.4	14.9	0.00e+00	0	26	0	305135616	70	4177
2026-01-13 08:49:51.63	128.02	18.73	-51.8	-53.4	14.9	0.00e+00	0	26	0	307232768	70	4185
2026-01-13 08:49:52.63	127.96	18.85	-51.8	-53.5	14.9	0.00e+00	0	26	0	309329920	70	4204
2026-01-13 08:49:53.63	127.90	18.97	-51.8	-53.5	14.9	0.00e+00	0	26	0	311427072	70	4226
2026-01-13 08:49:54.64	127.84	19.10	-51.8	-53.4	14.9	0.00e+00	0	26	0	312475648	70	4178
2026-01-13 08:49:55.65	127.79	19.22	-51.7	-53.4	15.0	0.00e+00	0	26	0	314572800	70	4158
2026-01-13 08:49:56.66	127.73	19.35	-51.9	-53.6	14.9	0.00e+00	0	26	0	316669952	70	4248
2026-01-13 08:49:57.67	127.67	19.47	-51.8	-53.5	14.9	0.00e+00	0	26	0	318767104	70	4221
2026-01-13 08:49:58.68	127.60	19.60	-51.7	-53.4	14.9	0.00e+00	0	26	0	320864256	70	4154
2026-01-13 08:49:59.69	127.54	19.72	-51.8	-53.5	14.9	0.00e+00	0	26	0	321912832	70	4195
2026-01-13 08:50:00.69	127.48	19.85	-51.8	-53.4	14.9	0.00e+00	0	26	0	324009984	70	4181
2026-01-13 08:50:01.70	127.42	19.98	-51.8	-53.5	14.9	0.00e+00	0	26	0	326107136	70	4203
2026-01-13 08:50:02.71	127.36	20.11	-51.8	-53.5	14.9	0.00e+00	0	26	0	328204288	70	4204
2026-01-13 08:50:03.72	127.29	20.24	-51.7	-53.4	15.0	0.00e+00	0	26	0	330301440	70	4155
2026-01-13 08:50:04.73	127.23	20.37	-51.8	-53.5	14.9	0.00e+00	0	26	0	331350016	70	4220
2026-01-13 08:50:05.74	127.16	20.50	-51.8	-53.5	14.9	0.00e+00	0	26	0	333447168	70	4225
2026-01-13 08:50:06.74	127.10	20.63	-51.7	-53.4	14.9	0.00e+00	0	26	0	335544320	70	4179
2026-01-13 08:50:07.75	127.03	20.76	-51.7	-53.3	15.0	0.00e+00	0	26	0	337641472	70	4138
2026-01-13 08:50:08.75	126.97	20.89	-51.6	-53.2	14.9	0.00e+00	0	26	0	339738624	69	4316
2026-01-13 08:50:09.76	126.90	21.02	-51.6	-53.2	14.9	0.00e+00	0	26	0	340787200	69	4337
2026-01-13 08:50:10.77	126.83	21.15	-51.6	-53.3	14.9	0.00e+00	0	26	0	342884352	69	4355
2026-01-13 08:50:11.78	126.76	21.29	-51.5	-53.2	14.9	0.00e+00	0	26	0	344981504	69	4293
2026-01-13 08:50:12.79	126.70	21.42	-51.5	-53.1	14.9	0.00e+00	0	26	0	347078656	69	4280
2026-01-13 08:50:13.80	126.63	21.56	-51.5	-53.2	14.9	0.00e+00	0	26	0	349175808	69	4300
2026-01-13 08:50:14.81	126.56	21.70	-51.5	-53.1	14.9	0.00e+00	0	26	0	350224384	69	4284
2026-01-13 08:50:15.82	126.48	21.83	-51.5	-53.1	14.9	0.00e+00	0	26	0	352321536	69	4261
2026-01-13 08:50:16.82	126.41	21.97	-51.5	-53.1	14.9	0.00e+00	0	26	0	354418688	69	4256
2026-01-13 08:50:17.84	126.34	22.11	-51.6	-53.2	14.9	0.00e+00	0	26	0	356515840	69	4309
2026-01-13 08:50:18.84	126.27	22.25	-51.6	-53.2	14.9	0.00e+00	0	26	0	358612992	69	4330
2026-01-13 08:50:19.85	126.20	22.39	-51.7	-53.4	14.8	0.00e+00	0	26	0	360710144	69	4409
2026-01-13 08:50:20.86	126.12	22.53	-51.8	-53.4	14.8	0.00e+00	0	26	0	361758720	69	4435
2026-01-13 08:50:21.87	126.05	22.67	-51.8	-53.5	14.8	0.00e+00	0	26	0	363855872	69	4453
2026-01-13 08:50:22.88	125.97	22.81	-51.7	-53.4	14.8	0.00e+00	0	26	0	365953024	69	4401
2026-01-13 08:50:23.89	125.89	22.95	-51.8	-53.5	14.7	0.00e+00	0	26	0	368050176	69	4474
2026-01-13 08:50:24.89	125.82	23.09	-51.8	-53.5	14.7	0.00e+00	0	26	0	370147328	69	4471
2026-01-13 08:50:25.90	125.74	23.24	-51.9	-53.6	14.7	0.00e+00	0	26	0	371195904	69	4503
2026-01-13 08:50:26.91	125.66	23.38	-52.0	-53.7	14.7	0.00e+00	0	26	0	373293056	69	4584
2026-01-13 08:50:27.92	125.58	23.53	-52.0	-53.7	14.7	0.00e+00	0	26	0	375390208	69	4595
2026-01-13 08:50:28.93	125.50	23.68	-52.0	-53.7	14.7	0.00e+00	0	26	0	377487360	69	4575
2026-01-13 08:50:29.94	125.42	23.82	-52.0	-53.8	14.6	0.00e+00	0	26	0	379584512	69	4612
2026-01-13 08:50:30.95	125.34	23.97	-51.9	-53.6	14.7	0.00e+00	0	26	0	380633088	69	4532
2026-01-13 08:50:31.96	125.26	24.12	-52.0	-53.7	14.7	0.00e+00	0	26	0	382730240	69	4567
2026-01-13 08:50:32.97	125.17	24.27	-52.0	-53.8	14.6	0.00e+00	0	26	0	384827392	69	4609
2026-01-13 08:50:33.97	125.09	24.42	-52.0	-53.7	14.6	0.00e+00	0	26	0	386924544	69	4598
2026-01-13 08:50:34.98	125.00	24.57	-52.1	-53.9	14.6	0.00e+00	0	26	0	389021696	69	4660
2026-01-13 08:50:35.99	124.92	24.72	-52.1	-53.9	14.6	0.00e+00	0	26	0	390070272	69	4675
2026-01-13 08:50:36.99	124.83	24.87	-52.3	-54.1	14.4	0.00e+00	0	26	0	392167424	69	4788
2026-01-13 08:50:38.01	124.74	25.03	-52.3	-54.2	14.5	0.00e+00	0	26	0	394264576	69	4817
2026-01-13 08:50:39.01	124.66	25.18	-52.5	-54.3	14.5	0.00e+00	0	26	0	396361728	70	4631
2026-01-13 08:50:40.01	124.57	25.33	-52.5	-54.4	14.5	0.00e+00	0	26	0	398458880	70	4658
2026-01-13 08:50:41.02	124.48	25.49	-52.6	-54.5	14.4	0.00e+00	0	26	0	399507456	70	4741
2026-01-13 08:50:42.03	124.39	25.65	-52.7	-54.6	14.4	0.00e+00	0	26	0	401604608	70	4763
2026-01-13 08:50:43.04	124.30	25.80	-52.8	-54.7	14.4	0.00e+00	0	26	0	403701760	70	4817
2026-01-13 08:50:44.05	124.20	25.96	-52.8	-54.8	14.3	0.00e+00	0	26	0	405798912	70	4876
2026-01-13 08:50:45.05	124.11	26.12	-53.0	-55.0	14.3	0.00e+00	0	26	0	407896064	71	4745
2026-01-13 08:50:46.06	124.01	26.28	-53.1	-55.1	14.3	0.00e+00	0	26	0	408944640	71	4795
2026-01-13 08:50:47.07	123.92	26.44	-53.3	-55.4	14.2	0.00e+00	0	26	0	411041792	71	4932
2026-01-13 08:50:48.08	123.82	26.60	-53.4	-55.5	14.1	0.00e+00	0	26	0	413138944	71	5036
2026-01-13 08:50:49.08	123.72	26.76	-53.6	-55.8	14.1	0.00e+00	0	26	0	415236096	72	4872
2026-01-13 08:50:50.09	123.62	26.93	-53.7	-55.9	14.0	0.00e+00	0	26	0	417333248	72	4978
2026-01-13 08:50:51.09	123.53	27.09	-53.9	-56.1	13.9	0.00e+00	0	26	0	418381824	72	5082
2026-01-13 08:50:52.10	123.42	27.26	-53.9	-56.1	13.9	0.00e+00	0	26	0	420478976	72	5095
2026-01-13 08:50:53.12	123.32	27.42	-54.0	-56.3	13.9	0.00e+00	0	26	0	422576128	73	4910
2026-01-13 08:50:54.12	123.22	27.59	-54.1	-56.4	13.9	0.00e+00	0	26	0	424673280	73	4943
2026-01-13 08:50:55.12	123.12	27.76	-54.1	-56.3	13.9	0.00e+00	0	26	0	426770432	73	4926
2026-01-13 08:50:56.12	123.01	27.92	-54.1	-56.4	13.9	0.00e+00	0	26	0	427819008	73	4944
2026-01-13 08:50:57.14	122.90	28.10	-54.2	-56.5	13.8	0.00e+00	0	26	0	429916160	73	5032
2026-01-13 08:50:58.14	122.80	28.26	-54.2	-56.6	13.7	0.00e+00	0	26	0	432013312	73	5098
2026-01-13 08:50:59.15	122.69	28.44	-54.3	-56.7	13.7	0.00e+00	0	26	0	434110464	73	5145
2026-01-13 08:51:00.16	122.58	28.61	-54.5	-56.9	13.7	0.00e+00	0	26	0	436207616	74	4965
2026-01-13 08:51:01.17	122.47	28.78	-54.5	-57.0	13.7	0.00e+00	0	26	0	437256192	74	5009
2026-01-13 08:51:02.18	122.35	28.96	-54.6	-57.1	13.6	0.00e+00	0	26	0	439353344	74	5054
2026-01-13 08:51:03.19	122.24	29.13	-54.6	-57.2	13.6	0.00e+00	0	26	0	441450496	74	5102
2026-01-13 08:51:04.20	122.12	29.31	-54.5	-57.0	13.7	0.00e+00	0	26	0	443547648	74	5030
2026-01-13 08:51:05.20	122.01	29.49	-54.5	-57.0	13.6	0.00e+00	0	26	0	445644800	74	5034
2026-01-13 08:51:06.21	121.89	29.66	-54.6	-57.2	13.6	0.00e+00	0	26	0	446693376	74	5112
2026-01-13 08:51:07.22	121.77	29.84	-54.7	-57.2	13.5	0.00e+00	0	26	0	448790528	74	5157
2026-01-13 08:51:08.23	121.65	30.02	-54.7	-57.3	13.5	0.00e+00	0	26	0	450887680	74	5195
2026-01-13 08:51:09.23	121.53	30.20	-54.7	-57.2	13.5	0.00e+00	0	26	0	452984832	74	5145
2026-01-13 08:51:10.24	121.40	30.39	-54.7	-57.2	13.5	0.00e+00	0	26	0	455081984	74	5156
2026-01-13 08:51:11.25	121.28	30.57	-54.7	-57.2	13.6	0.00e+00	0	26	0	456130560	74	5144
2026-01-13 08:51:12.26	121.15	30.76	-54.7	-57.3	13.5	0.00e+00	0	26	0	458227712	74	5195
2026-01-13 08:51:13.27	121.02	30.94	-54.7	-57.3	13.5	0.00e+00	0	26	0	460324864	74	5169
2026-01-13 08:51:14.27	120.90	31.13	-54.8	-57.4	13.5	0.00e+00	0	26	0	462422016	74	5235
2026-01-13 08:51:15.28	120.77	31.31	-54.8	-57.4	13.4	0.00e+00	0	26	0	464519168	74	5275
2026-01-13 08:51:16.29	120.63	31.50	-54.7	-57.3	13.5	0.00e+00	0	26	0	465567744	74	5189
2026-01-13 08:51:17.30	120.50	31.69	-54.7	-57.3	13.5	0.00e+00	0	26	0	467664896	74	5186
2026-01-13 08:51:18.31	120.36	31.88	-54.7	-57.3	13.5	0.00e+00	0	26	0	469762048	74	5196
2026-01-13 08:51:19.32	120.23	32.07	-54.6	-57.1	13.6	0.00e+00	0	26	0	471859200	74	5070
2026-01-13 08:51:20.33	120.09	32.27	-54.6	-57.2	13.6	0.00e+00	0	26	0	473956352	74	5106
2026-01-13 08:51:21.34	119.95	32.46	-54.4	-56.8	13.8	0.00e+00	0	26	0	475004928	74	4895
2026-01-13 08:51:22.35	119.80	32.66	-54.5	-56.9	13.7	0.00e+00	0	26	0	477102080	74	4965
2026-01-13 08:51:23.35	119.66	32.85	-54.7	-57.2	13.5	0.00e+00	0	26	0	479199232	74	5155
2026-01-13 08:51:24.36	119.51	33.05	-54.6	-57.1	13.6	0.00e+00	0	26	0	481296384	74	5044
2026-01-13 08:51:25.36	119.37	33.24	-54.6	-57.1	13.6	0.00e+00	0	26	0	483393536	74	5091
2026-01-13 08:51:26.37	119.22	33.44	-54.6	-57.1	13.6	0.00e+00	0	26	0	484442112	74	5076
2026-01-13 08:51:27.38	119.07	33.64	-54.6	-57.1	13.6	0.00e+00	0	26	0	486539264	74	5051
2026-01-13 08:51:28.39	118.91	33.84	-54.5	-57.0	13.7	0.00e+00	0	26	0	488636416	74	5031
2026-01-13 08:51:29.40	118.76	34.05	-54.5	-56.9	13.8	0.00e+00	0	26	0	490733568	74	4968
2026-01-13 08:51:30.41	118.60	34.25	-54.5	-57.0	13.7	0.00e+00	0	26	0	492830720	74	4986
2026-01-13 08:51:31.42	118.44	34.45	-54.5	-57.0	13.7	0.00e+00	0	26	0	493879296	74	4991
2026-01-13 08:51:32.43	118.28	34.66	-54.6	-57.1	13.6	0.00e+00	0	26	0	495976448	74	5086
2026-01-13 08:51:33.44	118.12	34.87	-54.6	-57.2	13.6	0.00e+00	0	26	0	498073600	74	5104
2026-01-13 08:51:34.45	117.95	35.07	-54.7	-57.3	13.5	0.00e+00	0	26	0	500170752	74	5194
2026-01-13 08:51:35.46	117.78	35.28	-54.8	-57.4	13.4	0.00e+00	0	26	0	502267904	74	5279
2026-01-13 08:51:36.47	117.61	35.49	-54.8	-57.5	13.4	0.00e+00	0	26	0	503316480	74	5305
2026-01-13 08:51:37.47	117.44	35.70	-54.9	-57.5	13.5	0.00e+00	0	26	0	505413632	75	5006
2026-01-13 08:51:38.48	117.27	35.91	-54.8	-57.4	13.6	0.00e+00	0	26	0	507510784	75	4939
2026-01-13 08:51:39.49	117.09	36.13	-54.7	-57.3	13.6	0.00e+00	0	26	0	509607936	75	4886
2026-01-13 08:51:40.50	116.91	36.34	-54.6	-57.1	13.8	0.00e+00	0	26	0	511705088	75	4767
2026-01-13 08:51:41.50	116.73	36.56	-54.6	-57.1	13.8	0.00e+00	0	26	0	513802240	75	4788
2026-01-13 08:51:42.51	116.55	36.77	-54.6	-57.1	13.8	0.00e+00	0	26	0	514850816	75	4769
2026-01-13 08:51:43.52	116.36	36.99	-54.6	-57.0	13.8	0.00e+00	0	26	0	516947968	75	4756
2026-01-13 08:51:44.53	116.17	37.21	-54.7	-57.3	13.7	0.00e+00	0	26	0	519045120	75	4875
2026-01-13 08:51:45.54	115.98	37.43	-54.7	-57.2	13.7	0.00e+00	0	26	0	521142272	75	4837
2026-01-13 08:51:46.54	115.79	37.65	-54.7	-57.1	13.7	0.00e+00	0	26	0	523239424	75	4809
2026-01-13 08:51:47.55	115.59	37.87	-54.8	-57.4	13.6	0.00e+00	0	26	0	524288000	75	4965
2026-01-13 08:51:48.56	115.39	38.09	-54.8	-57.3	13.6	0.00e+00	0	26	0	526385152	75	4920
2026-01-13 08:51:49.57	115.19	38.32	-54.7	-57.2	13.7	0.00e+00	0	26	0	528482304	75	4853
2026-01-13 08:51:50.58	114.98	38.54	-54.7	-57.2	13.7	0.00e+00	0	26	0	530579456	75	4840
2026-01-13 08:51:51.58	114.77	38.76	-54.7	-57.2	13.7	0.00e+00	0	26	0	532676608	75	4867
2026-01-13 08:51:52.59	114.56	38.99	-54.7	-57.3	13.7	0.00e+00	0	26	0	533725184	75	4883
2026-01-13 08:51:53.60	114.35	39.22	-54.9	-57.5	13.6	0.00e+00	0	26	0	535822336	75	5010
2026-01-13 08:51:54.60	114.13	39.45	-54.9	-57.5	13.5	0.00e+00	0	26	0	537919488	75	5011
2026-01-13 08:51:55.61	113.91	39.68	-55.0	-57.7	13.4	0.00e+00	0	26	0	540016640	75	5112
2026-01-13 08:51:56.62	113.69	39.91	-55.1	-57.8	13.4	0.00e+00	0	26	0	542113792	75	5178
2026-01-13 08:51:57.63	113.46	40.14	-55.0	-57.6	13.4	0.00e+00	0	26	0	543162368	75	5085
2026-01-13 08:51:58.64	113.23	40.38	-55.1	-57.9	13.3	0.00e+00	0	26	0	545259520	75	5250
2026-01-13 08:51:59.65	113.00	40.61	-55.1	-57.9	13.3	0.00e+00	0	26	0	547356672	75	5229
2026-01-13 08:52:00.65	112.76	40.84	-54.9	-57.6	13.5	0.00e+00	0	26	0	549453824	75	5062
2026-01-13 08:52:01.66	112.52	41.08	-54.9	-57.6	13.5	0.00e+00	0	26	0	551550976	75	5059
2026-01-13 08:52:02.67	112.28	41.32	-54.9	-57.6	13.5	0.00e+00	0	26	0	552599552	75	5068
2026-01-13 08:52:03.68	112.03	41.55	-55.0	-57.7	13.4	0.00e+00	0	26	0	554696704	75	5138
2026-01-13 08:52:04.68	111.78	41.79	-55.0	-57.7	13.4	0.00e+00	0	26	0	556793856	75	5119
2026-01-13 08:52:05.69	111.52	42.03	-55.2	-58.0	13.3	0.00e+00	0	26	0	558891008	75	5313
2026-01-13 08:52:06.70	111.27	42.27	-55.2	-58.0	13.2	0.00e+00	0	26	0	560988160	75	5326
2026-01-13 08:52:07.71	111.00	42.51	-55.0	-57.7	13.4	0.00e+00	0	26	0	562036736	75	5145
2026-01-13 08:52:08.72	110.73	42.76	-55.1	-57.7	13.4	0.00e+00	0	26	0	564133888	75	5146
2026-01-13 08:52:09.72	110.47	43.00	-54.7	-57.2	13.7	0.00e+00	0	26	0	566231040	75	4839
2026-01-13 08:52:10.73	110.19	43.24	-54.5	-56.9	13.9	0.00e+00	0	26	0	568328192	75	4652
2026-01-13 08:52:11.74	109.91	43.49	-54.0	-56.2	14.1	0.00e+00	0	26	0	570425344	74	4563
2026-01-13 08:52:12.75	109.63	43.73	-53.7	-55.8	14.4	0.00e+00	0	26	0	571473920	74	4361
2026-01-13 08:52:13.75	109.34	43.98	-53.6	-55.6	14.3	0.00e+00	0	26	0	573571072	73	4526
2026-01-13 08:52:14.76	109.05	44.23	-53.6	-55.6	14.3	0.00e+00	0	26	0	575668224	73	4538
2026-01-13 08:52:15.77	108.75	44.47	-53.7	-55.8	14.2	0.00e+00	0	26	0	577765376	73	4638
2026-01-13 08:52:16.78	108.45	44.72	-53.8	-55.9	14.2	0.00e+00	0	26	0	579862528	73	4681
2026-01-13 08:52:17.79	108.14	44.97	-53.9	-56.1	14.1	0.00e+00	0	26	0	580911104	73	4787
2026-01-13 08:52:18.79	107.83	45.22	-53.8	-55.9	14.2	0.00e+00	0	26	0	583008256	73	4671
2026-01-13 08:52:19.80	107.51	45.47	-53.8	-56.0	14.1	0.00e+00	0	26	0	585105408	73	4738
2026-01-13 08:52:20.81	107.19	45.72	-54.2	-56.5	13.9	0.00e+00	0	26	0	587202560	73	4987
2026-01-13 08:52:21.82	106.86	45.97	-54.4	-56.8	13.7	0.00e+00	0	26	0	589299712	73	5203
2026-01-13 08:52:22.83	106.53	46.23	-54.5	-56.9	13.8	0.00e+00	0	26	0	590348288	74	4966
2026-01-13 08:52:23.84	106.19	46.48	-54.3	-56.7	13.9	0.00e+00	0	26	0	592445440	74	4839
2026-01-13 08:52:24.84	105.85	46.73	-54.4	-56.7	13.9	0.00e+00	0	26	0	594542592	74	4861
2026-01-13 08:52:25.85	105.50	46.98	-54.3	-56.6	14.0	0.00e+00	0	26	0	596639744	74	4800
2026-01-13 08:52:26.85	105.15	47.24	-54.4	-56.7	13.9	0.00e+00	0	26	0	598736896	74	4853
2026-01-13 08:52:27.86	104.79	47.49	-54.3	-56.6	13.9	0.00e+00	0	26	0	599785472	74	4776
2026-01-13 08:52:28.87	104.42	47.74	-54.2	-56.4	14.0	0.00e+00	0	26	0	601882624	74	4692
2026-01-13 08:52:29.88	104.05	48.00	-54.0	-56.2	14.1	0.00e+00	0	26	0	603979776	74	4595
2026-01-13 08:52:30.89	103.67	48.25	-53.8	-55.9	14.3	0.00e+00	0	26	0	606076928	74	4434
2026-01-13 08:52:31.90	103.28	48.51	-53.6	-55.6	14.3	0.00e+00	0	26	0	608174080	73	4535
2026-01-13 08:52:32.91	102.89	48.76	-53.4	-55.4	14.4	0.00e+00	0	26	0	609222656	73	4395
2026-01-13 08:52:33.92	102.49	49.02	-53.6	-55.7	14.3	0.00e+00	0	26	0	611319808	73	4573
2026-01-13 08:52:34.93	102.09	49.27	-53.9	-56.1	14.1	0.00e+00	0	26	0	613416960	73	4769
2026-01-13 08:52:35.94	101.67	49.53	-53.9	-56.0	14.1	0.00e+00	0	26	0	615514112	73	4758
2026-01-13 08:52:36.94	101.26	49.78	-54.0	-56.2	14.0	0.00e+00	0	26	0	617611264	73	4820
2026-01-13 08:52:37.96	100.83	50.04	-53.9	-56.1	14.1	0.00e+00	0	26	0	618659840	73	4798
2026-01-13 08:52:38.96	100.40	50.29	-53.9	-56.1	14.1	0.00e+00	0	26	0	620756992	73	4793
2026-01-13 08:52:39.97	99.96	50.54	-53.7	-55.8	14.2	0.00e+00	0	26	0	622854144	73	4648
2026-01-13 08:52:40.98	99.51	50.79	-53.5	-55.5	14.5	0.00e+00	0	26	0	624951296	73	4446
2026-01-13 08:52:41.99	99.05	51.05	-53.1	-54.9	14.5	0.00e+00	0	26	0	627048448	72	4428
2026-01-13 08:52:43.00	98.59	51.30	-52.8	-54.6	14.7	0.00e+00	0	26	0	628097024	72	4285
2026-01-13 08:52:44.01	98.12	51.55	-52.6	-54.3	14.7	0.00e+00	0	26	0	630194176	71	4373
2026-01-13 08:52:45.01	97.64	51.80	-52.2	-53.8	14.9	0.00e+00	0	26	0	632291328	71	4132
2026-01-13 08:52:46.02	97.15	52.05	-52.3	-54.0	14.7	0.00e+00	0	26	0	634388480	70	4446
2026-01-13 08:52:47.03	96.66	52.30	-52.2	-53.9	14.8	0.00e+00	0	26	0	636485632	70	4403
2026-01-13 08:52:48.03	96.16	52.54	-52.3	-54.0	14.7	0.00e+00	0	26	0	638582784	70	4457
2026-01-13 08:52:49.04	95.64	52.79	-52.1	-53.8	14.8	0.00e+00	0	26	0	639631360	70	4350
2026-01-13 08:52:50.05	95.12	53.03	-51.8	-53.4	15.0	0.00e+00	0	26	0	641728512	70	4166
2026-01-13 08:52:51.06	94.59	53.28	-51.7	-53.3	14.9	0.00e+00	0	26	0	643825664	69	4348
2026-01-13 08:52:52.07	94.05	53.52	-51.8	-53.4	14.8	0.00e+00	0	26	0	645922816	69	4401
2026-01-13 08:52:53.08	93.50	53.76	-51.8	-53.4	14.8	0.00e+00	0	26	0	648019968	69	4431
2026-01-13 08:52:54.09	92.94	54.00	-51.6	-53.2	14.9	0.00e+00	0	26	0	649068544	69	4295
2026-01-13 08:52:55.10	92.38	54.24	-51.4	-52.9	15.0	0.00e+00	0	26	0	651165696	69	4156
2026-01-13 08:52:56.11	91.80	54.48	-51.4	-53.0	15.0	0.00e+00	0	26	0	653262848	69	4204
2026-01-13 08:52:57.12	91.21	54.71	-51.8	-53.4	14.8	0.00e+00	0	26	0	655360000	69	4431
2026-01-13 08:52:58.12	90.62	54.94	-51.9	-53.5	14.8	0.00e+00	0	26	0	656408576	69	4473
2026-01-13 08:52:59.13	90.01	55.17	-52.2	-53.9	14.6	0.00e+00	0	26	0	658505728	69	4679
2026-01-13 08:53:00.13	89.40	55.40	-52.6	-54.4	14.5	0.00e+00	0	26	0	660602880	70	4678
2026-01-13 08:53:01.14	88.78	55.62	-53.1	-55.0	14.4	0.00e+00	0	26	0	662700032	71	4724
2026-01-13 08:53:02.15	88.14	55.85	-53.3	-55.3	14.2	0.00e+00	0	26	0	664797184	71	4906
2026-01-13 08:53:03.15	87.50	56.06	-53.2	-55.1	14.3	0.00e+00	0	26	0	666894336	71	4783
2026-01-13 08:53:04.16	86.85	56.28	-53.2	-55.1	14.4	0.00e+00	0	26	0	667942912	71	4779
2026-01-13 08:53:05.17	86.18	56.50	-53.4	-55.4	14.2	0.00e+00	0	26	0	670040064	71	4939
2026-01-13 08:53:06.17	85.51	56.71	-53.4	-55.4	14.3	0.00e+00	0	26	0	672137216	72	4672
2026-01-13 08:53:07.18	84.82	56.91	-53.5	-55.5	14.3	0.00e+00	0	26	0	674234368	72	4708
2026-01-13 08:53:08.19	84.12	57.12	-53.7	-55.8	14.1	0.00e+00	0	26	0	676331520	72	4896
2026-01-13 08:53:09.20	83.41	57.32	-54.3	-56.6	13.9	0.00e+00	0	26	0	677380096	73	5069
2026-01-13 08:53:10.20	82.70	57.52	-54.5	-56.9	13.8	0.00e+00	0	26	0	679477248	74	4938
2026-01-13 08:53:11.21	81.97	57.71	-54.4	-56.8	13.9	0.00e+00	0	26	0	681574400	74	4873
2026-01-13 08:53:12.22	81.23	57.90	-54.4	-56.7	13.9	0.00e+00	0	26	0	683671552	74	4856
2026-01-13 08:53:13.24	80.47	58.09	-54.2	-56.4	14.0	0.00e+00	0	26	0	685768704	74	4691
2026-01-13 08:53:14.24	79.72	58.27	-54.1	-56.3	14.1	0.00e+00	0	26	0	686817280	74	4629
2026-01-13 08:53:15.25	78.95	58.45	-53.8	-55.9	14.4	0.00e+00	0	26	0	688914432	74	4403
2026-01-13 08:53:16.26	78.17	58.63	-53.9	-56.0	14.3	0.00e+00	0	26	0	691011584	74	4472
2026-01-13 08:53:17.27	77.38	58.80	-54.1	-56.2	14.1	0.00e+00	0	26	0	693108736	74	4590
2026-01-13 08:53:18.27	76.58	58.96	-54.1	-56.2	14.2	0.00e+00	0	26	0	695205888	74	4593
2026-01-13 08:53:19.28	75.77	59.12	-53.8	-55.9	14.4	0.00e+00	0	26	0	696254464	74	4408
2026-01-13 08:53:20.29	74.95	59.27	-53.3	-55.2	14.5	0.00e+00	0	26	0	698351616	73	4337
2026-01-13 08:53:21.30	74.12	59.42	-53.0	-54.8	14.6	0.00e+00	0	26	0	700448768	72	4372
2026-01-13 08:53:22.32	73.27	59.57	-52.7	-54.5	14.8	0.00e+00	0	26	0	702545920	72	4233
2026-01-13 08:53:23.32	72.43	59.71	-53.0	-54.8	14.6	0.00e+00	0	26	0	704643072	72	4385
2026-01-13 08:53:24.33	71.57	59.84	-53.0	-54.9	14.6	0.00e+00	0	26	0	705691648	72	4400
2026-01-13 08:53:25.34	70.70	59.97	-52.6	-54.3	14.7	0.00e+00	0	26	0	707788800	71	4383
2026-01-13 08:53:26.34	69.83	60.09	-52.3	-54.0	14.9	0.00e+00	0	26	0	709885952	71	4202
2026-01-13 08:53:27.35	68.95	60.21	-52.3	-53.9	14.9	0.00e+00	0	26	0	711983104	71	4184
2026-01-13 08:53:28.36	68.05	60.32	-52.4	-54.2	14.8	0.00e+00	0	26	0	714080256	71	4298
2026-01-13 08:53:29.37	67.15	60.42	-52.4	-54.0	14.9	0.00e+00	0	26	0	715128832	71	4242
2026-01-13 08:53:30.38	66.25	60.52	-52.3	-53.9	14.9	0.00e+00	0	26	0	717225984	71	4182
2026-01-13 08:53:31.39	65.33	60.61	-51.8	-53.4	15.0	0.00e+00	0	26	0	719323136	70	4176
2026-01-13 08:53:32.40	64.41	60.70	-51.8	-53.4	14.9	0.00e+00	0	26	0	721420288	70	4186
2026-01-13 08:53:33.41	63.49	60.78	-51.5	-53.1	15.0	0.00e+00	0	26	0	723517440	69	4264
2026-01-13 08:53:34.42	62.55	60.85	-51.5	-53.0	15.0	0.00e+00	0	26	0	724566016	69	4241
2026-01-13 08:53:35.42	61.63	60.92	-51.5	-53.0	15.0	0.00e+00	0	26	0	726663168	69	4219
2026-01-13 08:53:36.43	60.68	60.98	-51.2	-52.7	15.0	0.00e+00	0	26	0	728760320	68	4297
2026-01-13 08:53:37.44	59.74	61.03	-50.8	-52.2	15.2	0.00e+00	0	26	0	730857472	68	4083
2026-01-13 08:53:38.45	58.79	61.07	-50.4	-51.8	15.1	0.00e+00	0	26	0	732954624	67	4145
2026-01-13 08:53:39.46	57.83	61.11	-50.5	-51.9	15.2	0.00e+00	0	26	0	734003200	67	4163
2026-01-13 08:53:40.46	56.89	61.14	-50.4	-51.8	15.2	0.00e+00	0	26	0	736100352	67	4104
2026-01-13 08:53:41.47	55.93	61.17	-50.3	-51.7	15.2	0.00e+00	0	26	0	738197504	67	4091
2026-01-13 08:53:42.48	54.97	61.19	-49.9	-51.2	15.3	0.00e+00	0	26	0	740294656	66	4086
2026-01-13 08:53:43.49	54.01	61.20	-49.6	-50.9	15.2	0.00e+00	0	26	0	742391808	65	4164
2026-01-13 08:53:44.50	53.05	61.20	-49.6	-50.9	15.2	0.00e+00	0	26	0	743440384	65	4181
2026-01-13 08:53:45.51	52.09	61.20	-49.6	-50.9	15.2	0.00e+00	0	26	0	745537536	65	4193
2026-01-13 08:53:46.52	51.13	61.19	-49.4	-50.7	15.3	0.00e+00	0	26	0	747634688	65	4052
2026-01-13 08:53:47.53	50.17	61.17	-49.5	-50.8	15.2	0.00e+00	0	26	0	749731840	65	4133
2026-01-13 08:53:48.54	49.21	61.14	-49.8	-51.2	15.1	0.00e+00	0	26	0	751828992	65	4297
2026-01-13 08:53:49.55	48.26	61.11	-49.9	-51.2	15.1	0.00e+00	0	26	0	752877568	65	4334
2026-01-13 08:53:50.55	47.31	61.07	-49.9	-51.2	15.1	0.00e+00	0	26	0	754974720	65	4311
2026-01-13 08:53:51.56	46.36	61.03	-49.8	-51.1	15.2	0.00e+00	0	26	0	757071872	65	4275
2026-01-13 08:53:52.57	45.42	60.98	-49.9	-51.2	15.1	0.00e+00	0	26	0	759169024	65	4314
2026-01-13 08:53:53.58	44.48	60.92	-50.0	-51.4	15.0	0.00e+00	0	26	0	761266176	65	4415
2026-01-13 08:53:54.59	43.54	60.85	-50.3	-51.8	14.9	0.00e+00	0	26	0	763363328	65	4606
2026-01-13 08:53:55.60	42.61	60.78	-50.6	-52.0	15.0	0.00e+00	0	26	0	764411904	66	4460
2026-01-13 08:53:56.61	41.68	60.70	-50.8	-52.3	14.9	0.00e+00	0	26	0	766509056	66	4611
2026-01-13 08:53:57.61	40.77	60.62	-50.8	-52.2	14.9	0.00e+00	0	26	0	768606208	66	4576
2026-01-13 08:53:58.62	39.86	60.52	-50.8	-52.3	14.9	0.00e+00	0	26	0	770703360	66	4630
2026-01-13 08:53:59.63	38.95	60.42	-50.9	-52.3	14.9	0.00e+00	0	26	0	772800512	66	4645
2026-01-13 08:54:00.64	38.05	60.32	-51.0	-52.5	14.9	0.00e+00	0	26	0	773849088	67	4484
2026-01-13 08:54:01.65	37.16	60.21	-51.1	-52.6	14.9	0.00e+00	0	26	0	775946240	67	4536
2026-01-13 08:54:02.66	36.27	60.09	-51.6	-53.2	14.8	0.00e+00	0	26	0	778043392	68	4585
2026-01-13 08:54:03.67	35.40	59.97	-51.7	-53.3	14.8	0.00e+00	0	26	0	780140544	68	4617
2026-01-13 08:54:04.68	34.53	59.84	-51.7	-53.3	14.8	0.00e+00	0	26	0	782237696	68	4613
2026-01-13 08:54:05.68	33.68	59.71	-51.6	-53.2	14.8	0.00e+00	0	26	0	783286272	68	4565
2026-01-13 08:54:06.69	32.83	59.57	-51.6	-53.2	14.8	0.00e+00	0	26	0	785383424	68	4547
2026-01-13 08:54:07.70	31.99	59.43	-51.9	-53.5	14.7	0.00e+00	0	26	0	787480576	68	4735
2026-01-13 08:54:08.71	31.16	59.28	-52.7	-54.5	14.5	0.00e+00	0	26	0	789577728	70	4726
2026-01-13 08:54:09.72	30.34	59.12	-53.4	-55.4	14.4	0.00e+00	0	26	0	791674880	72	4687
2026-01-13 08:54:10.73	29.53	58.96	-53.2	-55.2	14.5	0.00e+00	0	26	0	792723456	72	4555
2026-01-13 08:54:11.74	28.73	58.80	-53.0	-54.9	14.6	0.00e+00	0	26	0	794820608	72	4407
2026-01-13 08:54:12.74	27.94	58.63	-52.7	-54.5	14.8	0.00e+00	0	26	0	796917760	72	4207
2026-01-13 08:54:13.75	27.16	58.46	-52.9	-54.7	14.7	0.00e+00	0	26	0	799014912	72	4334
2026-01-13 08:54:14.76	26.39	58.28	-53.4	-55.3	14.4	0.00e+00	0	26	0	801112064	72	4612
2026-01-13 08:54:15.77	25.63	58.10	-53.6	-55.6	14.2	0.00e+00	0	26	0	802160640	72	4780
2026-01-13 08:54:16.78	24.88	57.91	-53.6	-55.6	14.2	0.00e+00	0	26	0	804257792	72	4808
2026-01-13 08:54:17.79	24.14	57.72	-53.8	-55.8	14.1	0.00e+00	0	26	0	806354944	72	4926
2026-01-13 08:54:18.80	23.41	57.52	-53.5	-55.5	14.4	0.00e+00	0	26	0	808452096	72	4725
2026-01-13 08:54:19.80	22.70	57.33	-53.2	-55.1	14.5	0.00e+00	0	26	0	810549248	72	4510
2026-01-13 08:54:20.81	21.99	57.13	-53.1	-55.0	14.5	0.00e+00	0	26	0	811597824	72	4466
2026-01-13 08:54:21.82	21.30	56.92	-53.2	-55.0	14.5	0.00e+00	0	26	0	813694976	72	4490
2026-01-13 08:54:22.83	20.61	56.71	-52.9	-54.7	14.7	0.00e+00	0	26	0	815792128	72	4307
2026-01-13 08:54:23.84	19.93	56.50	-52.6	-54.3	14.7	0.00e+00	0	26	0	817889280	71	4356
2026-01-13 08:54:24.85	19.27	56.29	-52.3	-54.0	14.9	0.00e+00	0	26	0	819986432	71	4196
2026-01-13 08:54:25.85	18.62	56.07	-52.3	-53.9	14.9	0.00e+00	0	26	0	821035008	71	4183
2026-01-13 08:54:26.86	17.97	55.85	-52.5	-54.2	14.8	0.00e+00	0	26	0	823132160	71	4308
2026-01-13 08:54:27.86	17.34	55.63	-52.6	-54.3	14.8	0.00e+00	0	26	0	825229312	71	4360
2026-01-13 08:54:28.87	16.72	55.41	-52.6	-54.3	14.7	0.00e+00	0	26	0	827326464	71	4369
2026-01-13 08:54:29.88	16.10	55.18	-52.8	-54.6	14.6	0.00e+00	0	26	0	829423616	71	4495
2026-01-13 08:54:30.89	15.50	54.95	-52.6	-54.3	14.7	0.00e+00	0	26	0	830472192	71	4390
2026-01-13 08:54:31.90	14.90	54.72	-52.3	-54.0	14.9	0.00e+00	0	26	0	832569344	71	4195
2026-01-13 08:54:32.91	14.32	54.48	-52.2	-53.9	14.8	0.00e+00	0	26	0	834666496	70	4425
2026-01-13 08:54:33.92	13.74	54.25	-52.4	-54.1	14.7	0.00e+00	0	26	0	836763648	70	4536
2026-01-13 08:54:34.93	13.17	54.01	-52.6	-54.4	14.6	0.00e+00	0	26	0	838860800	70	4676
2026-01-13 08:54:35.93	12.62	53.77	-52.5	-54.2	14.6	0.00e+00	0	26	0	839909376	70	4593
2026-01-13 08:54:36.94	12.07	53.53	-52.3	-54.0	14.8	0.00e+00	0	26	0	842006528	70	4449
2026-01-13 08:54:37.95	11.53	53.29	-51.9	-53.5	14.9	0.00e+00	0	26	0	844103680	70	4233
2026-01-13 08:54:38.96	11.00	53.05	-52.0	-53.6	14.9	0.00e+00	0	26	0	846200832	70	4290
2026-01-13 08:54:39.97	10.48	52.80	-52.5	-54.2	14.6	0.00e+00	0	26	0	848297984	70	4590
2026-01-13 08:54:40.98	9.97	52.56	-52.9	-54.7	14.4	0.00e+00	0	26	0	849346560	70	4864
2026-01-13 08:54:41.98	9.47	52.31	-53.1	-55.0	14.4	0.00e+00	0	26	0	851443712	71	4717
2026-01-13 08:54:42.99	8.98	52.06	-53.1	-55.0	14.4	0.00e+00	0	26	0	853540864	71	4747
2026-01-13 08:54:44.00	8.49	51.81	-53.3	-55.2	14.3	0.00e+00	0	26	0	855638016	71	4862
2026-01-13 08:54:45.00	8.01	51.57	-53.7	-55.8	14.2	0.00e+00	0	26	0	857735168	72	4889
2026-01-13 08:54:46.01	7.54	51.32	-54.0	-56.2	14.1	0.00e+00	0	26	0	858783744	73	4828
2026-01-13 08:54:47.02	7.08	51.07	-54.0	-56.1	14.0	0.00e+00	0	26	0	860880896	73	4812
2026-01-13 08:54:48.02	6.63	50.82	-54.1	-56.3	14.0	0.00e+00	0	26	0	862978048	73	4898
2026-01-13 08:54:49.03	6.18	50.56	-54.2	-56.3	14.0	0.00e+00	0	26	0	865075200	73	4912
2026-01-13 08:54:50.04	5.74	50.31	-54.3	-56.6	13.9	0.00e+00	0	26	0	867172352	73	5045
2026-01-13 08:54:51.04	5.31	50.06	-54.3	-56.6	13.9	0.00e+00	0	26	0	868220928	73	5045
2026-01-13 08:54:52.05	4.88	49.81	-54.6	-56.9	13.8	0.00e+00	0	26	0	870318080	74	4953
2026-01-13 08:54:53.06	4.47	49.55	-55.1	-57.6	13.5	0.00e+00	0	26	0	872415232	75	5090
2026-01-13 08:54:54.07	4.05	49.30	-55.4	-58.2	13.2	0.00e+00	0	26	0	874512384	75	5415
2026-01-13 08:54:55.08	3.65	49.04	-55.8	-58.7	13.1	0.00e+00	0	26	0	876609536	76	5426
2026-01-13 08:54:56.08	3.25	48.79	-55.7	-58.6	13.1	0.00e+00	0	26	0	877658112	76	5376
2026-01-13 08:54:57.09	2.86	48.54	-55.3	-58.0	13.5	0.00e+00	0	26	0	879755264	76	5018
2026-01-13 08:54:58.10	2.48	48.28	-54.9	-57.4	13.8	0.00e+00	0	26	0	881852416	76	4662
2026-01-13 08:54:59.11	2.10	48.03	-54.8	-57.2	14.0	0.00e+00	0	26	0	883949568	76	4559
2026-01-13 08:55:00.11	1.73	47.78	-55.0	-57.5	13.8	0.00e+00	0	26	0	886046720	76	4711
2026-01-13 08:55:01.12	1.36	47.52	-54.9	-57.3	13.9	0.00e+00	0	26	0	887095296	76	4627
2026-01-13 08:55:02.13	1.00	47.27	-54.3	-56.5	14.2	0.00e+00	0	26	0	889192448	75	4454
2026-01-13 08:55:03.14	0.65	47.02	-54.0	-56.1	14.2	0.00e+00	0	26	0	891289600	74	4532
2026-01-13 08:55:04.14	0.30	46.77	-54.0	-56.1	14.3	0.00e+00	0	26	0	893386752	74	4498
2026-01-13 08:55:05.16	359.95	46.51	-53.7	-55.7	14.5	0.00e+00	0	26	0	895483904	74	4297
2026-01-13 08:55:06.16	359.62	46.26	-53.4	-55.3	14.5	0.00e+00	0	26	0	896532480	73	4370
2026-01-13 08:55:07.17	359.29	46.01	-53.5	-55.5	14.5	0.00e+00	0	26	0	898629632	73	4462
2026-01-13 08:55:08.18	358.96	45.76	-53.8	-55.9	14.3	0.00e+00	0	26	0	900726784	73	4656
2026-01-13 08:55:09.19	358.64	45.51	-53.8	-55.9	14.3	0.00e+00	0	26	0	902823936	73	4659
2026-01-13 08:55:10.20	358.32	45.26	-53.7	-55.7	14.4	0.00e+00	0	26	0	904921088	73	4558
2026-01-13 08:55:11.20	358.01	45.01	-53.4	-55.3	14.5	0.00e+00	0	26	0	905969664	73	4379
2026-01-13 08:55:12.21	357.71	44.76	-53.5	-55.5	14.4	0.00e+00	0	26	0	908066816	73	4473
2026-01-13 08:55:13.22	357.40	44.52	-53.6	-55.6	14.4	0.00e+00	0	26	0	910163968	73	4539
2026-01-13 08:55:14.23	357.11	44.27	-53.6	-55.6	14.4	0.00e+00	0	26	0	912261120	73	4525
2026-01-13 08:55:15.23	356.82	44.02	-53.6	-55.7	14.4	0.00e+00	0	26	0	914358272	73	4551
2026-01-13 08:55:16.25	356.52	43.77	-54.0	-56.1	14.1	0.00e+00	0	26	0	916455424	73	4778
2026-01-13 08:55:17.25	356.24	43.53	-54.2	-56.4	14.0	0.00e+00	0	26	0	917504000	73	4931
2026-01-13 08:55:18.26	355.96	43.29	-54.1	-56.3	14.0	0.00e+00	0	26	0	919601152	73	4897
2026-01-13 08:55:19.27	355.69	43.04	-54.0	-56.2	14.1	0.00e+00	0	26	0	921698304	73	4833
2026-01-13 08:55:20.28	355.42	42.80	-54.3	-56.5	13.9	0.00e+00	0	26	0	923795456	73	5037
2026-01-13 08:55:21.28	355.15	42.56	-54.2	-56.5	13.9	0.00e+00	0	26	0	925892608	73	4993
2026-01-13 08:55:22.29	354.89	42.32	-54.5	-56.7	13.9	0.00e+00	0	26	0	926941184	74	4858
2026-01-13 08:55:23.30	354.63	42.08	-54.4	-56.7	13.9	0.00e+00	0	26	0	929038336	74	4831
2026-01-13 08:55:24.31	354.38	41.84	-54.7	-57.2	13.7	0.00e+00	0	26	0	931135488	74	5108
2026-01-13 08:55:25.31	354.13	41.60	-55.2	-57.8	13.4	0.00e+00	0	26	0	933232640	75	5215
2026-01-13 08:55:26.32	353.88	41.37	-55.8	-58.8	13.0	0.00e+00	0	26	0	934281216	76	5496
2026-01-13 08:55:27.32	353.64	41.13	-56.0	-59.2	12.9	0.00e+00	0	26	0	936378368	77	5407
2026-01-13 08:55:28.33	353.40	40.90	-56.1	-59.3	12.7	0.00e+00	0	26	0	938475520	77	5511
2026-01-13 08:55:29.34	353.16	40.66	-56.0	-59.0	13.0	0.00e+00	0	26	0	940572672	77	5309
2026-01-13 08:55:30.35	352.93	40.43	-55.9	-58.9	13.0	0.00e+00	0	26	0	942669824	77	5242
2026-01-13 08:55:31.36	352.70	40.19	-55.8	-58.7	13.1	0.00e+00	0	26	0	944766976	77	5118
2026-01-13 08:55:32.36	352.47	39.97	-56.0	-59.0	12.9	0.00e+00	0	26	0	945815552	77	5311
2026-01-13 08:55:33.37	352.25	39.73	-56.2	-59.4	12.7	0.00e+00	0	26	0	947912704	77	5591
2026-01-13 08:55:34.38	352.03	39.50	-56.3	-59.6	12.5	0.00e+00	0	26	0	950009856	77	5718
2026-01-13 08:55:35.39	351.81	39.28	-56.5	-59.9	12.5	0.00e+00	0	26	0	952107008	78	5547
2026-01-13 08:55:36.39	351.60	39.05	-56.5	-60.0	12.4	7.00e-07	0	26	0	954204160	78	5609
2026-01-13 08:55:37.40	351.39	38.82	-56.4	-59.8	12.5	1.50e-06	0	26	0	955252736	78	5507
2026-01-13 08:55:38.41	351.18	38.60	-56.4	-59.8	12.6	0.00e+00	0	26	0	957349888	78	5511
2026-01-13 08:55:39.42	350.98	38.37	-56.5	-60.0	12.3	7.00e-07	0	26	0	959447040	78	5629
2026-01-13 08:55:40.42	350.78	38.15	-56.4	-59.9	12.5	0.00e+00	0	26	0	961544192	78	5535
2026-01-13 08:55:41.42	350.58	37.93	-56.4	-59.7	12.5	0.00e+00	0	26	0	962592768	78	5446
2026-01-13 08:55:42.43	350.38	37.71	-56.2	-59.4	12.8	0.00e+00	0	26	0	964689920	78	5250
2026-01-13 08:55:43.44	350.19	37.49	-56.1	-59.2	13.0	0.00e+00	0	26	0	966787072	78	5130
2026-01-13 08:55:44.44	350.00	37.27	-55.9	-58.9	13.1	0.00e+00	0	26	0	968884224	78	4978
2026-01-13 08:55:45.45	349.81	37.06	-55.8	-58.6	13.3	0.00e+00	0	26	0	970981376	78	4801
2026-01-13 08:55:46.45	349.62	36.84	-55.4	-58.1	13.5	0.00e+00	0	26	0	973078528	77	4794
2026-01-13 08:55:47.46	349.44	36.62	-55.4	-58.0	13.6	0.00e+00	0	26	0	974127104	77	4747
2026-01-13 08:55:48.47	349.26	36.41	-55.0	-57.5	13.7	0.00e+00	0	26	0	976224256	76	4738
2026-01-13 08:55:49.47	349.08	36.20	-55.0	-57.5	13.8	0.00e+00	0	26	0	978321408	76	4720
2026-01-13 08:55:50.48	348.90	35.99	-55.1	-57.7	13.7	0.00e+00	0	26	0	980418560	76	4826
2026-01-13 08:55:51.49	348.73	35.77	-55.2	-57.7	13.6	0.00e+00	0	26	0	982515712	76	4867
2026-01-13 08:55:52.50	348.56	35.56	-55.1	-57.6	13.7	0.00e+00	0	26	0	983564288	76	4786
2026-01-13 08:55:53.51	348.39	35.35	-55.0	-57.5	13.7	0.00e+00	0	26	0	985661440	76	4731
2026-01-13 08:55:54.52	348.22	35.15	-55.0	-57.5	13.7	0.00e+00	0	26	0	987758592	76	4720
2026-01-13 08:55:55.53	348.05	34.94	-55.1	-57.6	13.7	0.00e+00	0	26	0	989855744	76	4799
2026-01-13 08:55:56.53	347.89	34.73	-55.0	-57.5	13.7	0.00e+00	0	26	0	991952896	76	4718
2026-01-13 08:55:57.54	347.73	34.53	-55.2	-57.8	13.6	0.00e+00	0	26	0	993001472	76	4874
2026-01-13 08:55:58.55	347.57	34.33	-55.0	-57.6	13.7	0.00e+00	0	26	0	995098624	76	4766
2026-01-13 08:55:59.56	347.42	34.12	-55.0	-57.5	13.7	0.00e+00	0	26	0	997195776	76	4746
2026-01-13 08:56:00.57	347.26	33.92	-55.0	-57.6	13.7	0.00e+00	0	26	0	999292928	76	4768
2026-01-13 08:56:01.58	347.11	33.72	-55.0	-57.6	13.7	0.00e+00	0	26	0	1001390080	76	4768
2026-01-13 08:56:02.59	346.96	33.52	-54.9	-57.4	13.8	0.00e+00	0	26	0	1002438656	76	4687
2026-01-13 08:56:03.59	346.81	33.32	-54.8	-57.2	13.9	0.00e+00	0	26	0	1004535808	76	4556
2026-01-13 08:56:04.60	346.66	33.13	-54.5	-56.9	13.9	0.00e+00	0	26	0	1006632960	75	4681
2026-01-13 08:56:05.61	346.51	32.93	-54.5	-56.8	14.0	0.00e+00	0	26	0	1008730112	75	4632
2026-01-13 08:56:06.62	346.37	32.73	-54.5	-56.9	13.9	0.00e+00	0	26	0	1010827264	75	4683
2026-01-13 08:56:07.62	346.23	32.54	-54.6	-57.0	13.9	0.00e+00	0	26	0	1011875840	75	4708
2026-01-13 08:56:08.63	346.09	32.35	-54.7	-57.2	13.8	0.00e+00	0	26	0	1013972992	75	4821
2026-01-13 08:56:09.63	345.95	32.16	-54.9	-57.5	13.6	0.00e+00	0	26	0	1016070144	75	5019
2026-01-13 08:56:10.65	345.81	31.96	-55.1	-57.8	13.4	0.00e+00	0	26	0	1018167296	75	5200
2026-01-13 08:56:11.65	345.68	31.78	-55.3	-58.1	13.2	0.00e+00	0	26	0	1020264448	75	5341
2026-01-13 08:56:12.66	345.55	31.59	-55.3	-58.1	13.3	0.00e+00	0	26	0	1021313024	75	5358
2026-01-13 08:56:13.67	345.41	31.40	-55.2	-57.8	13.4	0.00e+00	0	26	0	1023410176	75	5211
2026-01-13 08:56:14.68	345.28	31.21	-55.1	-57.8	13.4	0.00e+00	0	26	0	1025507328	75	5177
2026-01-13 08:56:15.69	345.15	31.03	-55.0	-57.7	13.5	0.00e+00	0	26	0	1027604480	75	5102
2026-01-13 08:56:16.70	345.03	30.84	-54.9	-57.4	13.6	0.00e+00	0	26	0	1029701632	75	4971
2026-01-13 08:56:17.71	344.90	30.66	-54.8	-57.3	13.7	0.00e+00	0	26	0	1030750208	75	4888
2026-01-13 08:56:18.72	344.77	30.47	-54.7	-57.2	13.8	0.00e+00	0	26	0	1032847360	75	4825
2026-01-13 08:56:19.74	344.65	30.29	-54.7	-57.1	13.8	0.00e+00	0	26	0	1034944512	75	4779
2026-01-13 08:56:20.74	344.53	30.11	-54.7	-57.2	13.8	0.00e+00	0	26	0	1037041664	75	4821
2026-01-13 08:56:21.73	344.41	29.93	-54.6	-57.1	13.8	0.00e+00	0	26	0	1039138816	75	4777
2026-01-13 08:56:22.74	344.29	29.75	-54.8	-57.3	13.7	0.00e+00	0	26	0	1040187392	75	4878
2026-01-13 08:56:23.75	344.17	29.58	-54.9	-57.4	13.6	0.00e+00	0	26	0	1042284544	75	4971
2026-01-13 08:56:24.76	344.06	29.40	-54.9	-57.5	13.5	0.00e+00	0	26	0	1044381696	75	5029
2026-01-13 08:56:25.77	343.94	29.22	-55.0	-57.6	13.5	0.00e+00	0	26	0	1046478848	75	5073
2026-01-13 08:56:26.78	343.83	29.05	-55.1	-57.8	13.4	0.00e+00	0	26	0	1048576000	75	5186
2026-01-13 08:56:27.78	343.72	28.87	-55.1	-57.8	13.3	0.00e+00	0	26	0	1049624576	75	5197
2026-01-13 08:56:28.79	343.61	28.70	-55.1	-57.8	13.3	0.00e+00	0	26	0	1051721728	75	5218
2026-01-13 08:56:29.79	343.50	28.53	-55.1	-57.8	13.3	0.00e+00	0	26	0	1053818880	75	5207
2026-01-13 08:56:30.80	343.39	28.36	-55.2	-58.0	13.3	0.00e+00	0	26	0	1055916032	75	5292
2026-01-13 08:56:31.81	343.28	28.19	-55.2	-58.0	13.3	0.00e+00	0	26	0	1058013184	75	5286
2026-01-13 08:56:32.82	343.17	28.02	-55.2	-58.0	13.2	0.00e+00	0	26	0	1059061760	75	5304
2026-01-13 08:56:33.83	343.07	27.85	-55.1	-57.8	13.3	0.00e+00	0	26	0	1061158912	75	5167
2026-01-13 08:56:34.84	342.96	27.68	-55.0	-57.6	13.5	0.00e+00	0	26	0	1063256064	75	5083
2026-01-13 08:56:35.85	342.86	27.52	-54.8	-57.4	13.6	0.00e+00	0	26	0	1065353216	75	4932
2026-01-13 08:56:36.85	342.76	27.35	-54.7	-57.2	13.7	0.00e+00	0	26	0	1067450368	75	4859
2026-01-13 08:56:37.86	342.66	27.19	-54.6	-57.0	13.8	0.00e+00	0	26	0	1068498944	75	4755
2026-01-13 08:56:38.87	342.56	27.02	-54.5	-56.9	13.9	0.00e+00	0	26	0	1070596096	75	4666
2026-01-13 08:56:39.88	342.46	26.86	-54.4	-56.8	14.0	0.00e+00	0	26	0	1072693248	75	4615
2026-01-13 08:56:40.89	342.36	26.70	-54.3	-56.7	14.0	0.00e+00	0	26	0	1074790400	75	4551
2026-01-13 08:56:41.90	342.27	26.53	-54.3	-56.7	14.0	0.00e+00	0	26	0	1076887552	75	4552
2026-01-13 08:56:42.91	342.17	26.37	-54.4	-56.8	13.9	0.00e+00	0	26	0	1077936128	75	4611
2026-01-13 08:56:43.92	342.08	26.21	-54.4	-56.8	13.9	0.00e+00	0	26	0	1080033280	75	4621
2026-01-13 08:56:44.93	341.98	26.06	-54.3	-56.6	14.0	0.00e+00	0	26	0	1082130432	75	4529
2026-01-13 08:56:45.93	341.89	25.90	-54.4	-56.7	14.0	0.00e+00	0	26	0	1084227584	75	4577
2026-01-13 08:56:46.94	341.80	25.74	-54.4	-56.8	14.0	0.00e+00	0	26	0	1086324736	75	4608
2026-01-13 08:56:47.94	341.71	25.59	-54.4	-56.8	13.9	0.00e+00	0	26	0	1087373312	75	4642
2026-01-13 08:56:48.95	341.62	25.43	-54.4	-56.8	13.9	0.00e+00	0	26	0	1089470464	75	4633
2026-01-13 08:56:49.96	341.53	25.28	-54.4	-56.8	13.9	0.00e+00	0	26	0	1091567616	75	4645
2026-01-13 08:56:50.97	341.44	25.12	-54.4	-56.8	14.0	0.00e+00	0	26	0	1093664768	75	4610
2026-01-13 08:56:51.98	341.35	24.97	-54.3	-56.7	14.0	0.00e+00	0	26	0	1095761920	75	4573
2026-01-13 08:56:52.99	341.27	24.82	-54.4	-56.8	13.9	0.00e+00	0	26	0	1097859072	75	4621
2026-01-13 08:56:53.99	341.18	24.67	-54.3	-56.7	14.0	0.00e+00	0	26	0	1098907648	75	4563
2026-01-13 08:56:55.00	341.10	24.52	-54.3	-56.7	14.0	0.00e+00	0	26	0	1101004800	75	4556
2026-01-13 08:56:56.01	341.02	24.37	-54.3	-56.7	14.0	0.00e+00	0	26	0	1103101952	75	4556
2026-01-13 08:56:57.01	340.93	24.22	-54.3	-56.6	14.1	0.00e+00	0	26	0	1105199104	75	4508
2026-01-13 08:56:58.02	340.85	24.07	-54.1	-56.4	14.0	0.00e+00	0	26	0	1106247680	74	4664
2026-01-13 08:56:59.03	340.77	23.92	-54.1	-56.4	14.0	0.00e+00	0	26	0	1108344832	74	4663
2026-01-13 08:57:00.04	340.69	23.78	-54.0	-56.2	14.1	0.00e+00	0	26	0	1110441984	74	4597
2026-01-13 08:57:01.05	340.61	23.63	-54.0	-56.2	14.1	0.00e+00	0	26	0	1112539136	74	4553
2026-01-13 08:57:02.06	340.53	23.48	-54.1	-56.3	14.0	0.00e+00	0	26	0	1114636288	74	4637
2026-01-13 08:57:03.07	340.45	23.34	-53.8	-55.9	14.3	0.00e+00	0	26	0	1115684864	74	4438
2026-01-13 08:57:04.07	340.38	23.20	-53.7	-55.8	14.3	0.00e+00	0	26	0	1117782016	74	4379
2026-01-13 08:57:05.08	340.30	23.05	-53.7	-55.8	14.3	0.00e+00	0	26	0	1119879168	74	4391
2026-01-13 08:57:06.09	340.22	22.91	-53.6	-55.7	14.2	0.00e+00	0	26	0	1121976320	73	4552
2026-01-13 08:57:07.09	340.15	22.77	-53.6	-55.7	14.2	0.00e+00	0	26	0	1124073472	73	4570
2026-01-13 08:57:08.10	340.07	22.63	-53.6	-55.7	14.2	0.00e+00	0	26	0	1126170624	73	4579
2026-01-13 08:57:09.11	340.00	22.49	-53.5	-55.6	14.3	0.00e+00	0	26	0	1127219200	73	4517
2026-01-13 08:57:10.11	339.93	22.35	-53.4	-55.5	14.3	0.00e+00	0	26	0	1129316352	73	4468
2026-01-13 08:57:11.12	339.86	22.21	-53.4	-55.5	14.4	0.00e+00	0	26	0	1131413504	73	4446
2026-01-13 08:57:12.13	339.78	22.08	-53.3	-55.3	14.4	0.00e+00	0	26	0	1133510656	73	4374
2026-01-13 08:57:13.14	339.71	21.94	-53.3	-55.4	14.4	0.00e+00	0	26	0	1135607808	73	4394
2026-01-13 08:57:14.15	339.64	21.80	-53.2	-55.2	14.5	0.00e+00	0	26	0	1136656384	73	4311
2026-01-13 08:57:15.16	339.57	21.67	-53.2	-55.1	14.4	0.00e+00	0	26	0	1138753536	72	4543
2026-01-13 08:57:16.16	339.50	21.53	-53.1	-55.0	14.4	0.00e+00	0	26	0	1140850688	72	4483
2026-01-13 08:57:17.17	339.43	21.40	-53.1	-55.1	14.4	0.00e+00	0	26	0	1142947840	72	4504
2026-01-13 08:57:18.18	339.37	21.26	-53.1	-55.0	14.4	0.00e+00	0	26	0	1145044992	72	4482
2026-01-13 08:57:19.19	339.30	21.13	-53.0	-54.9	14.5	0.00e+00	0	26	0	1146093568	72	4423
2026-01-13 08:57:20.20	339.23	21.00	-53.1	-55.1	14.4	0.00e+00	0	26	0	1148190720	72	4531
2026-01-13 08:57:21.21	339.17	20.86	-53.1	-55.1	14.4	0.00e+00	0	26	0	1150287872	72	4524
2026-01-13 08:57:22.21	339.10	20.73	-53.1	-55.1	14.4	0.00e+00	0	26	0	1152385024	72	4523
2026-01-13 08:57:23.22	339.04	20.60	-53.3	-55.3	14.3	0.00e+00	0	26	0	1154482176	72	4630
2026-01-13 08:57:24.23	338.97	20.47	-53.3	-55.3	14.3	0.00e+00	0	26	0	1155530752	72	4626
2026-01-13 08:57:25.24	338.91	20.34	-53.3	-55.3	14.3	0.00e+00	0	26	0	1157627904	72	4646
2026-01-13 08:57:26.25	338.85	20.22	-53.4	-55.4	14.3	0.00e+00	0	26	0	1159725056	72	4694
2026-01-13 08:57:27.26	338.78	20.09	-53.3	-55.4	14.2	0.00e+00	0	26	0	1161822208	72	4669
2026-01-13 08:57:28.27	338.72	19.96	-53.5	-55.6	14.1	0.00e+00	0	26	0	1163919360	72	4767
2026-01-13 08:57:29.28	338.66	19.83	-53.4	-55.5	14.2	0.00e+00	0	26	0	1164967936	72	4725
2026-01-13 08:57:30.29	338.60	19.71	-53.5	-55.6	14.2	0.00e+00	0	26	0	1167065088	72	4763
2026-01-13 08:57:31.30	338.54	19.58	-53.4	-55.5	14.2	0.00e+00	0	26	0	1169162240	72	4758
2026-01-13 08:57:32.31	338.48	19.46	-53.5	-55.7	14.1	0.00e+00	0	26	0	1171259392	72	4825
2026-01-13 08:57:33.31	338.42	19.33	-53.5	-55.6	14.1	0.00e+00	0	26	0	1173356544	72	4797
2026-01-13 08:57:34.32	338.36	19.21	-53.4	-55.6	14.1	0.00e+00	0	26	0	1174405120	72	4761
2026-01-13 08:57:35.33	338.30	19.08	-53.5	-55.6	14.1	0.00e+00	0	26	0	1176502272	72	4781
2026-01-13 08:57:36.34	338.24	18.96	-53.4	-55.5	14.2	0.00e+00	0	26	0	1178599424	72	4709
2026-01-13 08:57:37.34	338.19	18.84	-53.3	-55.4	14.2	0.00e+00	0	26	0	1180696576	72	4666
2026-01-13 08:57:38.35	338.13	18.72	-53.4	-55.4	14.1	0.00e+00	0	26	0	1182793728	72	4702
2026-01-13 08:57:39.36	338.07	18.60	-53.3	-55.4	14.2	0.00e+00	0	26	0	1183842304	72	4693
2026-01-13 08:57:40.37	338.02	18.48	-53.3	-55.4	14.2	0.00e+00	0	26	0	1185939456	72	4655
2026-01-13 08:57:41.38	337.96	18.36	-53.2	-55.3	14.3	0.00e+00	0	26	0	1188036608	72	4614
2026-01-13 08:57:42.38	337.91	18.24	-53.2	-55.2	14.3	0.00e+00	0	26	0	1190133760	72	4597
2026-01-13 08:57:43.39	337.85	18.12	-53.2	-55.2	14.3	0.00e+00	0	26	0	1192230912	72	4595
2026-01-13 08:57:44.40	337.80	18.00	-53.2	-55.3	14.3	0.00e+00	0	26	0	1193279488	72	4610
2026-01-13 08:57:45.41	337.74	17.88	-53.2	-55.2	14.3	0.00e+00	0	26	0	1195376640	72	4580
2026-01-13 08:57:46.41	337.69	17.77	-53.2	-55.2	14.3	0.00e+00	0	26	0	1197473792	72	4570
2026-01-13 08:57:47.42	337.64	17.65	-53.2	-55.3	14.3	0.00e+00	0	26	0	1199570944	72	4617
2026-01-13 08:57:48.42	337.59	17.54	-53.2	-55.3	14.3	0.00e+00	0	26	0	1201668096	72	4617
2026-01-13 08:57:49.43	337.54	17.42	-53.4	-55.5	14.2	0.00e+00	0	26	0	1202716672	72	4723
2026-01-13 08:57:50.44	337.48	17.30	-53.3	-55.4	14.2	0.00e+00	0	26	0	1204813824	72	4685
2026-01-13 08:57:51.45	337.43	17.19	-53.5	-55.6	14.1	0.00e+00	0	26	0	1206910976	72	4792
2026-01-13 08:57:52.46	337.38	17.08	-53.5	-55.6	14.1	0.00e+00	0	26	0	1209008128	72	4799
2026-01-13 08:57:53.47	337.33	16.96	-53.4	-55.5	14.1	0.00e+00	0	26	0	1211105280	72	4755
2026-01-13 08:57:54.48	337.28	16.85	-53.5	-55.7	14.1	0.00e+00	0	26	0	1212153856	72	4826
2026-01-13 08:57:55.49	337.23	16.74	-53.6	-55.8	14.0	0.00e+00	0	26	0	1214251008	72	4910
2026-01-13 08:57:56.50	337.18	16.62	-53.7	-55.9	14.0	0.00e+00	0	26	0	1216348160	72	4967
2026-01-13 08:57:57.50	337.14	16.51	-53.7	-56.0	13.9	0.00e+00	0	26	0	1218445312	72	4990
2026-01-13 08:57:58.51	337.09	16.40	-53.8	-56.0	13.9	0.00e+00	0	26	0	1220542464	72	5037
2026-01-13 08:57:59.52	337.04	16.29	-53.9	-56.2	13.8	0.00e+00	0	26	0	1221591040	72	5131
2026-01-13 08:58:00.52	336.99	16.18	-53.9	-56.2	13.8	0.00e+00	0	26	0	1223688192	72	5114
2026-01-13 08:58:01.53	336.95	16.07	-54.0	-56.3	13.8	0.00e+00	0	26	0	1225785344	73	4911
2026-01-13 08:58:02.54	336.90	15.96	-54.0	-56.3	13.8	0.00e+00	0	26	0	1227882496	73	4924
2026-01-13 08:58:03.55	336.85	15.85	-54.0	-56.4	13.8	0.00e+00	0	26	0	1229979648	73	4947
2026-01-13 08:58:04.56	336.81	15.75	-54.0	-56.4	13.8	0.00e+00	0	26	0	1231028224	73	4972
2026-01-13 08:58:05.57	336.76	15.64	-54.0	-56.4	13.7	0.00e+00	0	26	0	1233125376	73	4973
2026-01-13 08:58:06.58	336.72	15.53	-54.1	-56.5	13.8	0.00e+00	0	26	0	1235222528	73	4992
2026-01-13 08:58:07.58	336.67	15.42	-54.0	-56.4	13.8	0.00e+00	0	26	0	1237319680	73	4965
2026-01-13 08:58:08.59	336.63	15.32	-53.9	-56.2	13.9	0.00e+00	0	26	0	1239416832	73	4862
2026-01-13 08:58:09.60	336.58	15.21	-53.9	-56.3	13.9	0.00e+00	0	26	0	1240465408	73	4878
2026-01-13 08:58:10.60	336.54	15.11	-54.0	-56.4	13.8	0.00e+00	0	26	0	1242562560	73	4952
