passes_logs/2026/01/13/R3.2S_Murmansk/R3.2S_Murmansk__20260113_124609_FENGYUN_3D_rec.log

#Pass ID: 20260113_124609_FENGYUN 3D
#Satellite: FENGYUN 3D
#Configuration: FENGYUN 3D
#almurnet v.1.7.20251203
#Start time: 2026-01-13 12:46:10

#Version: 2.2.20231116
#Station: R3.2S_Murmansk
#Location: 33.079688 lon 68.888172 lat
#TLE: 1 43010U 17072A   26013.17115950  .00000473  00000+0  24523-3 0  9998
#TLE: 2 43010  98.9934 344.9592 0002262 111.3119 248.8298 14.19696744422995

#Time	Az	El	Level	Level2	SNR	BER	BlckErr	Temp	State	Recorded	gain1	gain2
2026-01-13 12:46:10.49	181.30	2.05	-58.3	-71.2	3.8	8.46e-01	0	25	0	0	83	15318
2026-01-13 12:46:11.48	181.34	2.11	-58.3	-71.3	3.8	8.45e-01	0	25	104	0	81	17385
2026-01-13 12:46:12.48	181.37	2.18	-58.3	-71.2	3.8	8.46e-01	0	25	104	0	81	17254
2026-01-13 12:46:13.48	181.41	2.24	-58.3	-71.3	3.8	8.46e-01	0	25	104	0	81	17329
2026-01-13 12:46:14.48	181.45	2.30	-58.3	-71.2	3.8	8.46e-01	0	25	104	0	81	17263
2026-01-13 12:46:15.48	181.49	2.36	-58.3	-71.0	3.8	8.45e-01	0	25	104	0	81	16814
2026-01-13 12:46:16.48	181.53	2.43	-58.2	-70.8	3.8	8.45e-01	0	25	104	0	81	16452
2026-01-13 12:46:17.47	181.56	2.49	-58.2	-70.7	3.8	8.45e-01	0	25	104	0	81	16160
2026-01-13 12:46:18.46	181.60	2.55	-58.2	-70.7	3.8	8.46e-01	0	25	104	0	81	16255
2026-01-13 12:46:19.46	181.64	2.61	-58.2	-70.5	3.8	8.45e-01	0	25	104	0	81	15903
2026-01-13 12:46:20.46	181.68	2.68	-58.2	-70.7	3.8	8.45e-01	0	25	104	0	81	16218
2026-01-13 12:46:21.46	181.72	2.74	-58.2	-70.7	3.8	8.44e-01	0	25	104	0	81	16305
2026-01-13 12:46:22.46	181.76	2.80	-58.2	-70.8	3.8	8.45e-01	0	25	104	0	81	16339
2026-01-13 12:46:23.45	181.80	2.87	-58.3	-71.0	3.8	8.47e-01	0	25	104	0	81	16859
2026-01-13 12:46:24.44	181.84	2.93	-58.3	-71.1	3.8	8.46e-01	0	25	104	0	81	16940
2026-01-13 12:46:25.43	181.88	2.99	-58.3	-71.0	3.8	8.45e-01	0	25	104	0	81	16837
2026-01-13 12:46:26.44	181.92	3.06	-58.3	-71.0	3.8	8.45e-01	0	25	104	0	81	16880
2026-01-13 12:46:27.43	181.96	3.12	-58.3	-71.0	3.8	8.45e-01	0	25	104	0	81	16707
2026-01-13 12:46:28.43	182.00	3.18	-58.3	-70.8	3.8	8.45e-01	0	25	104	0	81	16374
2026-01-13 12:46:29.44	182.04	3.25	-58.2	-70.9	3.8	8.45e-01	0	25	104	0	81	16638
2026-01-13 12:46:30.44	182.08	3.31	-58.3	-71.1	3.8	8.45e-01	0	25	104	0	81	16918
2026-01-13 12:46:31.44	182.12	3.38	-58.3	-71.2	3.8	8.47e-01	0	25	104	0	81	17229
2026-01-13 12:46:32.44	182.16	3.44	-58.3	-71.3	3.8	8.44e-01	0	25	104	0	81	17366
2026-01-13 12:46:33.44	182.20	3.51	-58.3	-71.0	3.8	8.46e-01	0	25	104	0	81	16699
2026-01-13 12:46:34.43	182.24	3.57	-58.2	-70.0	3.8	8.45e-01	0	25	104	0	81	15031
2026-01-13 12:46:35.43	182.28	3.64	-58.1	-69.2	3.8	8.43e-01	0	25	104	0	81	13586
2026-01-13 12:46:36.42	182.32	3.70	-58.0	-67.4	4.3	8.42e-01	0	25	104	0	81	11152
2026-01-13 12:46:37.42	182.36	3.77	-57.6	-65.6	5.0	7.80e-01	0	25	0	0	81	9012
2026-01-13 12:46:38.41	182.40	3.83	-57.4	-64.4	5.7	6.04e-01	0	25	0	1048576	81	7838
2026-01-13 12:46:39.41	182.45	3.90	-57.1	-63.3	6.4	2.29e-01	0	25	0	7340032	80	7360
2026-01-13 12:46:40.40	182.49	3.96	-56.9	-62.6	7.0	1.58e-01	0	26	0	12582912	80	6760
2026-01-13 12:46:41.40	182.53	4.03	-56.6	-61.6	7.8	6.36e-02	0	25	0	17825792	79	6412
2026-01-13 12:46:42.40	182.57	4.10	-56.4	-61.2	8.2	3.94e-02	0	26	0	24117248	79	6093
2026-01-13 12:46:43.40	182.62	4.16	-56.2	-60.6	8.8	2.83e-02	0	25	0	29360128	79	5680
2026-01-13 12:46:44.40	182.66	4.23	-55.5	-59.1	9.9	4.24e-03	0	26	0	34603008	77	5399
2026-01-13 12:46:45.39	182.70	4.30	-55.2	-58.7	10.3	2.14e-03	0	26	0	40894464	77	5113
2026-01-13 12:46:46.39	182.74	4.36	-54.5	-57.5	11.1	2.75e-04	0	26	0	46137344	75	5026
2026-01-13 12:46:47.40	182.79	4.43	-53.8	-56.5	11.8	2.63e-05	0	25	0	51380224	74	4745
2026-01-13 12:46:48.40	182.83	4.50	-53.4	-55.9	12.2	2.20e-06	0	26	0	57671680	73	4683
2026-01-13 12:46:49.40	182.87	4.57	-52.5	-54.6	12.9	1.10e-06	0	25	0	62914560	71	4530
2026-01-13 12:46:50.41	182.92	4.63	-51.8	-53.7	13.4	0.00e+00	0	26	0	69206016	70	4338
2026-01-13 12:46:51.41	182.96	4.70	-51.3	-53.2	13.6	0.00e+00	0	26	0	74448896	69	4299
2026-01-13 12:46:52.41	183.01	4.77	-51.1	-52.9	13.7	0.00e+00	0	26	0	79691776	68	4426
2026-01-13 12:46:53.41	183.05	4.84	-50.9	-52.7	13.8	0.00e+00	0	26	0	85983232	68	4322
2026-01-13 12:46:54.41	183.10	4.91	-50.9	-52.6	13.8	0.00e+00	0	25	0	91226112	68	4283
2026-01-13 12:46:55.41	183.14	4.97	-50.9	-52.7	13.8	0.00e+00	0	26	0	96468992	68	4300
2026-01-13 12:46:56.40	183.19	5.04	-50.6	-52.4	13.8	0.00e+00	0	26	0	102760448	67	4413
2026-01-13 12:46:57.40	183.23	5.11	-51.9	-54.0	13.1	0.00e+00	0	26	0	108003328	68	5004
2026-01-13 12:46:58.40	183.28	5.18	-52.3	-54.4	13.0	8.60e-03	0	26	0	113246208	71	4414
2026-01-13 12:46:59.40	183.32	5.25	-50.9	-52.7	13.6	0.00e+00	0	26	0	119537664	66	4829
2026-01-13 12:47:00.40	183.37	5.32	-50.8	-52.5	14.0	0.00e+00	0	26	0	124780544	68	4197
2026-01-13 12:47:01.40	183.41	5.39	-52.3	-54.4	13.1	0.00e+00	0	26	0	131072000	71	4409
2026-01-13 12:47:02.40	183.46	5.46	-50.6	-52.4	13.8	0.00e+00	0	26	0	136314880	67	4392
2026-01-13 12:47:03.39	183.51	5.53	-50.9	-52.6	13.7	0.00e+00	0	26	0	141557760	67	4541
2026-01-13 12:47:04.39	183.55	5.60	-50.6	-52.3	13.9	0.00e+00	0	26	0	147849216	67	4354
2026-01-13 12:47:05.40	183.60	5.67	-50.3	-51.9	14.0	0.00e+00	0	26	0	153092096	66	4439
2026-01-13 12:47:06.40	183.65	5.74	-50.2	-51.8	14.0	0.00e+00	0	26	0	158334976	66	4370
2026-01-13 12:47:07.40	183.69	5.81	-49.8	-51.4	14.3	0.00e+00	0	26	0	164626432	66	4159
2026-01-13 12:47:08.41	183.74	5.88	-49.8	-51.3	14.2	0.00e+00	0	26	0	169869312	65	4387
2026-01-13 12:47:09.40	183.79	5.95	-49.7	-51.3	14.2	0.00e+00	0	26	0	175112192	65	4369
2026-01-13 12:47:10.40	183.84	6.02	-49.8	-51.4	14.1	0.00e+00	0	26	0	181403648	65	4430
2026-01-13 12:47:11.42	183.89	6.09	-49.8	-51.4	14.1	0.00e+00	0	26	0	186646528	65	4440
2026-01-13 12:47:12.42	183.93	6.16	-49.7	-51.2	14.2	0.00e+00	0	26	0	192937984	65	4340
2026-01-13 12:47:13.41	183.98	6.23	-49.6	-51.2	14.3	0.00e+00	0	26	0	198180864	65	4302
2026-01-13 12:47:14.41	184.03	6.30	-49.7	-51.3	14.2	0.00e+00	0	26	0	203423744	65	4369
2026-01-13 12:47:15.41	184.08	6.38	-49.6	-51.2	14.2	0.00e+00	0	26	0	209715200	65	4319
2026-01-13 12:47:16.42	184.13	6.45	-49.5	-51.1	14.3	0.00e+00	0	26	0	214958080	65	4248
2026-01-13 12:47:17.43	184.18	6.52	-49.6	-51.2	14.3	0.00e+00	0	26	0	220200960	65	4329
2026-01-13 12:47:18.43	184.23	6.59	-49.8	-51.4	14.2	0.00e+00	0	26	0	226492416	65	4392
2026-01-13 12:47:19.42	184.28	6.67	-49.6	-51.1	14.3	0.00e+00	0	26	0	231735296	65	4269
2026-01-13 12:47:20.42	184.33	6.74	-49.4	-50.9	14.4	0.00e+00	0	26	0	236978176	65	4176
2026-01-13 12:47:21.41	184.38	6.81	-49.5	-51.1	14.3	0.00e+00	0	26	0	243269632	65	4248
2026-01-13 12:47:22.41	184.43	6.88	-49.3	-50.8	14.5	0.00e+00	0	26	0	248512512	65	4141
2026-01-13 12:47:23.41	184.48	6.96	-49.3	-50.8	14.5	0.00e+00	0	26	0	254803968	65	4130
2026-01-13 12:47:24.41	184.53	7.03	-49.4	-50.9	14.5	0.00e+00	0	26	0	260046848	65	4152
2026-01-13 12:47:25.40	184.58	7.10	-49.5	-51.0	14.4	0.00e+00	0	26	0	265289728	65	4197
2026-01-13 12:47:26.39	184.63	7.18	-49.3	-50.8	14.5	0.00e+00	0	26	0	270532608	65	4137
2026-01-13 12:47:27.39	184.69	7.25	-49.2	-50.7	14.4	0.00e+00	0	26	0	276824064	64	4296
2026-01-13 12:47:28.39	184.74	7.33	-49.3	-50.8	14.4	0.00e+00	0	26	0	282066944	64	4351
2026-01-13 12:47:29.38	184.79	7.40	-49.2	-50.7	14.4	0.00e+00	0	26	0	288358400	64	4314
2026-01-13 12:47:30.37	184.84	7.47	-49.1	-50.6	14.5	0.00e+00	0	26	0	293601280	64	4248
2026-01-13 12:47:31.37	184.89	7.55	-49.1	-50.6	14.5	0.00e+00	0	26	0	298844160	64	4254
2026-01-13 12:47:32.36	184.95	7.62	-49.1	-50.5	14.5	0.00e+00	0	26	0	305135616	64	4227
2026-01-13 12:47:33.36	185.00	7.70	-49.1	-50.5	14.5	0.00e+00	0	26	0	310378496	64	4234
2026-01-13 12:47:34.35	185.05	7.77	-49.1	-50.5	14.5	0.00e+00	0	26	0	315621376	64	4234
2026-01-13 12:47:35.35	185.11	7.85	-48.9	-50.3	14.6	0.00e+00	0	26	0	320864256	64	4131
2026-01-13 12:47:36.33	185.16	7.92	-48.9	-50.4	14.6	0.00e+00	0	26	0	327155712	64	4153
2026-01-13 12:47:37.32	185.21	8.00	-49.1	-50.6	14.5	0.00e+00	0	26	0	332398592	64	4260
2026-01-13 12:47:38.32	185.27	8.07	-49.0	-50.4	14.5	0.00e+00	0	26	0	338690048	64	4175
2026-01-13 12:47:39.31	185.32	8.15	-49.0	-50.4	14.6	0.00e+00	0	26	0	343932928	64	4187
2026-01-13 12:47:40.30	185.38	8.23	-49.0	-50.4	14.5	0.00e+00	0	26	0	349175808	64	4188
2026-01-13 12:47:41.29	185.43	8.30	-49.0	-50.4	14.6	0.00e+00	0	26	0	354418688	64	4185
2026-01-13 12:47:42.29	185.49	8.38	-48.9	-50.4	14.6	0.00e+00	0	26	0	360710144	64	4150
2026-01-13 12:47:43.28	185.54	8.46	-49.0	-50.4	14.6	0.00e+00	0	26	0	365953024	64	4184
2026-01-13 12:47:44.28	185.60	8.53	-49.0	-50.4	14.6	0.00e+00	0	26	0	371195904	64	4176
2026-01-13 12:47:45.28	185.65	8.61	-48.9	-50.3	14.6	0.00e+00	0	26	0	377487360	64	4138
2026-01-13 12:47:46.28	185.71	8.69	-48.8	-50.2	14.7	0.00e+00	0	26	0	382730240	64	4085
2026-01-13 12:47:47.27	185.77	8.77	-48.8	-50.2	14.7	0.00e+00	0	26	0	389021696	64	4093
2026-01-13 12:47:48.26	185.82	8.84	-48.8	-50.2	14.7	0.00e+00	0	26	0	394264576	64	4095
2026-01-13 12:47:49.26	185.88	8.92	-48.8	-50.2	14.7	0.00e+00	0	26	0	399507456	64	4077
2026-01-13 12:47:50.25	185.94	9.00	-48.8	-50.3	14.7	0.00e+00	0	26	0	404750336	64	4104
2026-01-13 12:47:51.25	186.00	9.08	-48.8	-50.2	14.7	0.00e+00	0	26	0	411041792	64	4064
2026-01-13 12:47:52.25	186.06	9.16	-48.8	-50.3	14.7	0.00e+00	0	26	0	416284672	64	4102
2026-01-13 12:47:53.25	186.12	9.24	-48.8	-50.2	14.7	0.00e+00	0	26	0	421527552	64	4083
2026-01-13 12:47:54.24	186.17	9.32	-48.7	-50.1	14.7	0.00e+00	0	26	0	427819008	64	4032
2026-01-13 12:47:55.24	186.23	9.40	-48.8	-50.3	14.7	0.00e+00	0	26	0	433061888	64	4103
2026-01-13 12:47:56.23	186.29	9.48	-48.8	-50.3	14.7	0.00e+00	0	26	0	439353344	64	4112
2026-01-13 12:47:57.23	186.35	9.56	-48.8	-50.3	14.6	0.00e+00	0	26	0	444596224	64	4101
2026-01-13 12:47:58.23	186.41	9.64	-48.8	-50.2	14.7	0.00e+00	0	26	0	449839104	64	4057
2026-01-13 12:47:59.23	186.47	9.72	-48.8	-50.2	14.7	0.00e+00	0	26	0	456130560	64	4072
2026-01-13 12:48:00.23	186.53	9.80	-48.6	-50.0	14.7	0.00e+00	0	26	0	461373440	63	4227
2026-01-13 12:48:01.22	186.59	9.88	-48.6	-50.0	14.6	0.00e+00	0	26	0	466616320	63	4224
2026-01-13 12:48:02.22	186.66	9.96	-48.6	-50.0	14.7	0.00e+00	0	26	0	472907776	63	4240
2026-01-13 12:48:03.21	186.72	10.04	-48.7	-50.1	14.6	0.00e+00	0	26	0	478150656	63	4251
2026-01-13 12:48:04.21	186.78	10.13	-48.6	-50.0	14.7	0.00e+00	0	26	0	483393536	63	4201
2026-01-13 12:48:05.21	186.84	10.21	-48.5	-49.9	14.7	0.00e+00	0	26	0	489684992	63	4155
2026-01-13 12:48:06.21	186.91	10.29	-48.5	-49.9	14.7	0.00e+00	0	26	0	494927872	63	4146
2026-01-13 12:48:07.21	186.97	10.37	-48.4	-49.8	14.8	0.00e+00	0	26	0	500170752	63	4106
2026-01-13 12:48:08.20	187.03	10.46	-48.4	-49.8	14.8	0.00e+00	0	26	0	506462208	63	4106
2026-01-13 12:48:09.20	187.10	10.54	-48.4	-49.8	14.8	0.00e+00	0	26	0	511705088	63	4110
2026-01-13 12:48:10.20	187.16	10.62	-48.4	-49.7	14.8	0.00e+00	0	26	0	516947968	63	4091
2026-01-13 12:48:11.20	187.22	10.71	-48.3	-49.6	14.8	0.00e+00	0	26	0	523239424	63	4043
2026-01-13 12:48:12.20	187.29	10.79	-48.3	-49.7	14.8	0.00e+00	0	26	0	528482304	63	4062
2026-01-13 12:48:13.19	187.35	10.88	-48.3	-49.6	14.8	0.00e+00	0	26	0	533725184	63	4047
2026-01-13 12:48:14.18	187.42	10.96	-48.4	-49.7	14.8	0.00e+00	0	26	0	540016640	63	4089
2026-01-13 12:48:15.16	187.48	11.04	-48.3	-49.7	14.8	0.00e+00	0	26	0	545259520	63	4063
2026-01-13 12:48:16.16	187.55	11.13	-48.2	-49.6	14.9	0.00e+00	0	26	0	551550976	63	4017
2026-01-13 12:48:17.15	187.62	11.21	-48.3	-49.6	14.8	0.00e+00	0	26	0	556793856	63	4051
2026-01-13 12:48:18.14	187.68	11.30	-48.3	-49.7	14.8	0.00e+00	0	26	0	562036736	63	4055
2026-01-13 12:48:19.14	187.75	11.38	-48.3	-49.6	14.9	0.00e+00	0	26	0	567279616	63	4024
2026-01-13 12:48:20.14	187.82	11.47	-48.1	-49.5	14.8	0.00e+00	0	26	0	573571072	62	4195
2026-01-13 12:48:21.14	187.89	11.56	-48.1	-49.4	14.8	0.00e+00	0	26	0	578813952	62	4187
2026-01-13 12:48:22.13	187.95	11.64	-48.1	-49.4	14.8	0.00e+00	0	26	0	584056832	62	4177
2026-01-13 12:48:23.13	188.02	11.73	-48.1	-49.4	14.8	0.00e+00	0	26	0	590348288	62	4189
2026-01-13 12:48:24.13	188.09	11.82	-48.2	-49.6	14.7	0.00e+00	0	26	0	595591168	62	4255
2026-01-13 12:48:25.13	188.16	11.90	-48.1	-49.4	14.8	0.00e+00	0	26	0	601882624	62	4180
2026-01-13 12:48:26.13	188.23	11.99	-48.0	-49.4	14.8	0.00e+00	0	26	0	607125504	62	4146
2026-01-13 12:48:27.13	188.30	12.08	-48.0	-49.4	14.8	0.00e+00	0	26	0	612368384	62	4149
2026-01-13 12:48:28.13	188.37	12.17	-48.1	-49.5	14.8	0.00e+00	0	26	0	618659840	62	4197
2026-01-13 12:48:29.13	188.44	12.26	-48.1	-49.4	14.8	0.00e+00	0	26	0	623902720	62	4159
2026-01-13 12:48:30.13	188.52	12.35	-48.1	-49.4	14.8	0.00e+00	0	26	0	629145600	62	4163
2026-01-13 12:48:31.12	188.59	12.44	-48.1	-49.4	14.8	0.00e+00	0	26	0	635437056	62	4174
2026-01-13 12:48:32.13	188.66	12.53	-48.0	-49.3	14.9	0.00e+00	0	26	0	640679936	62	4134
2026-01-13 12:48:33.13	188.73	12.62	-47.9	-49.2	14.9	0.00e+00	0	26	0	645922816	62	4088
2026-01-13 12:48:34.14	188.81	12.71	-47.9	-49.3	14.9	0.00e+00	0	26	0	652214272	62	4099
2026-01-13 12:48:35.14	188.88	12.80	-48.0	-49.3	14.9	0.00e+00	0	26	0	657457152	62	4118
2026-01-13 12:48:36.15	188.96	12.89	-48.0	-49.3	14.9	0.00e+00	0	26	0	663748608	62	4117
2026-01-13 12:48:37.15	189.03	12.98	-48.0	-49.3	14.9	0.00e+00	0	26	0	668991488	62	4109
2026-01-13 12:48:38.14	189.11	13.07	-48.0	-49.3	14.9	0.00e+00	0	26	0	674234368	62	4125
2026-01-13 12:48:39.14	189.18	13.16	-48.1	-49.4	14.8	0.00e+00	0	26	0	680525824	62	4182
2026-01-13 12:48:40.14	189.26	13.25	-48.0	-49.4	14.8	0.00e+00	0	26	0	685768704	62	4152
2026-01-13 12:48:41.14	189.33	13.35	-48.0	-49.3	14.8	0.00e+00	0	26	0	691011584	62	4131
2026-01-13 12:48:42.14	189.41	13.44	-48.0	-49.3	14.9	0.00e+00	0	26	0	697303040	62	4139
2026-01-13 12:48:43.14	189.49	13.53	-48.1	-49.4	14.8	0.00e+00	0	26	0	702545920	62	4167
2026-01-13 12:48:44.13	189.57	13.63	-48.1	-49.4	14.8	0.00e+00	0	26	0	708837376	62	4165
2026-01-13 12:48:45.14	189.64	13.72	-48.0	-49.3	14.9	0.00e+00	0	26	0	714080256	62	4114
2026-01-13 12:48:46.14	189.72	13.81	-47.8	-49.1	14.9	0.00e+00	0	26	0	719323136	62	4045
2026-01-13 12:48:47.15	189.80	13.91	-47.7	-49.0	15.0	0.00e+00	0	26	0	725614592	62	3997
2026-01-13 12:48:48.15	189.88	14.00	-47.8	-49.1	15.0	0.00e+00	0	26	0	730857472	62	4010
2026-01-13 12:48:49.15	189.96	14.10	-47.5	-48.8	14.9	0.00e+00	0	26	0	736100352	61	4138
2026-01-13 12:48:50.15	190.04	14.19	-47.6	-48.9	14.9	0.00e+00	0	26	0	742391808	61	4156
2026-01-13 12:48:51.15	190.12	14.29	-47.5	-48.8	14.9	0.00e+00	0	27	0	747634688	61	4101
2026-01-13 12:48:52.15	190.21	14.38	-47.5	-48.7	15.0	0.00e+00	0	26	0	752877568	61	4088
2026-01-13 12:48:53.15	190.29	14.48	-47.4	-48.6	15.0	0.00e+00	0	26	0	759169024	61	4041
2026-01-13 12:48:54.15	190.37	14.58	-47.3	-48.6	15.0	0.00e+00	0	26	0	764411904	61	4019
2026-01-13 12:48:55.15	190.45	14.67	-47.3	-48.6	15.0	0.00e+00	0	26	0	770703360	61	4028
2026-01-13 12:48:56.14	190.54	14.77	-47.3	-48.5	15.0	0.00e+00	0	26	0	775946240	61	4002
2026-01-13 12:48:57.14	190.62	14.87	-47.2	-48.4	14.9	0.00e+00	0	26	0	781189120	60	4180
2026-01-13 12:48:58.14	190.71	14.97	-47.2	-48.4	14.9	0.00e+00	0	26	0	787480576	60	4181
2026-01-13 12:48:59.15	190.79	15.07	-47.1	-48.4	14.9	0.00e+00	0	26	0	792723456	60	4173
2026-01-13 12:49:00.15	190.88	15.16	-47.3	-48.6	14.9	0.00e+00	0	26	0	797966336	60	4243
2026-01-13 12:49:01.15	190.97	15.26	-47.3	-48.5	14.9	0.00e+00	0	26	0	804257792	60	4241
2026-01-13 12:49:02.16	191.05	15.36	-47.2	-48.5	14.9	0.00e+00	0	26	0	809500672	60	4194
2026-01-13 12:49:03.16	191.14	15.46	-47.2	-48.4	14.9	0.00e+00	0	26	0	815792128	60	4179
2026-01-13 12:49:04.17	191.23	15.56	-47.1	-48.4	15.0	0.00e+00	0	26	0	821035008	60	4172
2026-01-13 12:49:05.16	191.32	15.66	-47.1	-48.3	15.0	0.00e+00	0	27	0	826277888	60	4133
2026-01-13 12:49:06.16	191.41	15.76	-47.1	-48.3	15.0	0.00e+00	0	26	0	832569344	60	4132
2026-01-13 12:49:07.16	191.50	15.86	-47.1	-48.4	15.0	0.00e+00	0	26	0	837812224	60	4156
2026-01-13 12:49:08.17	191.59	15.97	-46.9	-48.2	15.1	0.00e+00	0	26	0	844103680	60	4064
2026-01-13 12:49:09.17	191.68	16.07	-46.9	-48.1	15.1	0.00e+00	0	26	0	849346560	60	4025
2026-01-13 12:49:10.18	191.77	16.17	-46.9	-48.1	15.1	0.00e+00	0	26	0	854589440	60	4027
2026-01-13 12:49:11.18	191.86	16.27	-46.8	-48.1	15.1	0.00e+00	0	26	0	860880896	60	4008
2026-01-13 12:49:12.18	191.96	16.38	-46.8	-48.1	15.1	0.00e+00	0	26	0	866123776	60	4012
2026-01-13 12:49:13.18	192.05	16.48	-46.9	-48.1	15.1	0.00e+00	0	26	0	871366656	60	4050
2026-01-13 12:49:14.19	192.14	16.58	-46.9	-48.2	15.1	0.00e+00	0	26	0	877658112	60	4066
2026-01-13 12:49:15.19	192.24	16.69	-47.0	-48.2	15.0	0.00e+00	0	26	0	882900992	60	4079
2026-01-13 12:49:16.19	192.33	16.79	-47.0	-48.2	15.1	0.00e+00	0	26	0	888143872	60	4086
2026-01-13 12:49:17.19	192.43	16.90	-47.0	-48.2	15.0	0.00e+00	0	26	0	894435328	60	4095
2026-01-13 12:49:18.19	192.53	17.00	-46.9	-48.2	15.1	0.00e+00	0	26	0	899678208	60	4057
2026-01-13 12:49:19.19	192.62	17.11	-46.8	-48.0	15.1	0.00e+00	0	26	0	905969664	60	3986
2026-01-13 12:49:20.19	192.72	17.21	-46.8	-48.0	15.1	0.00e+00	0	26	0	911212544	60	3971
2026-01-13 12:49:21.20	192.82	17.32	-47.0	-48.3	14.9	0.00e+00	0	26	0	916455424	59	4352
2026-01-13 12:49:22.19	192.92	17.43	-46.9	-48.2	14.9	0.00e+00	0	26	0	922746880	59	4306
2026-01-13 12:49:23.20	193.02	17.53	-47.1	-48.3	14.9	0.00e+00	0	26	0	927989760	59	4383
2026-01-13 12:49:24.20	193.12	17.64	-47.1	-48.3	14.9	0.00e+00	0	26	0	933232640	59	4377
2026-01-13 12:49:25.21	193.22	17.75	-46.9	-48.2	14.9	0.00e+00	0	26	0	939524096	59	4321
2026-01-13 12:49:26.21	193.32	17.86	-47.0	-48.2	14.9	0.00e+00	0	26	0	944766976	59	4337
2026-01-13 12:49:27.21	193.43	17.97	-46.9	-48.2	15.0	0.00e+00	0	26	0	950009856	59	4292
2026-01-13 12:49:28.21	193.53	18.08	-47.0	-48.2	14.9	0.00e+00	0	27	0	956301312	59	4335
2026-01-13 12:49:29.22	193.63	18.19	-46.9	-48.2	15.0	0.00e+00	0	26	0	961544192	59	4327
2026-01-13 12:49:30.21	193.74	18.29	-47.0	-48.3	14.9	0.00e+00	0	26	0	967835648	59	4347
2026-01-13 12:49:31.21	193.84	18.40	-47.0	-48.3	14.9	0.00e+00	0	27	0	973078528	59	4346
2026-01-13 12:49:32.22	193.95	18.52	-46.9	-48.2	15.0	0.00e+00	0	27	0	979369984	59	4305
2026-01-13 12:49:33.22	194.06	18.63	-46.9	-48.2	15.0	0.00e+00	0	26	0	984612864	59	4297
2026-01-13 12:49:34.22	194.17	18.74	-46.9	-48.1	15.0	0.00e+00	0	27	0	989855744	59	4287
2026-01-13 12:49:35.22	194.27	18.85	-46.8	-48.0	15.0	0.00e+00	0	26	0	996147200	59	4235
2026-01-13 12:49:36.21	194.38	18.96	-46.6	-47.9	15.1	0.00e+00	0	26	0	1001390080	59	4166
2026-01-13 12:49:37.22	194.49	19.07	-46.7	-47.9	15.1	0.00e+00	0	26	0	1006632960	59	4188
2026-01-13 12:49:38.21	194.60	19.19	-46.6	-47.8	15.1	0.00e+00	0	26	0	1012924416	59	4140
2026-01-13 12:49:39.20	194.71	19.30	-46.7	-48.0	15.0	0.00e+00	0	26	0	1018167296	59	4203
2026-01-13 12:49:40.19	194.82	19.41	-46.8	-48.0	15.0	0.00e+00	0	26	0	1023410176	59	4227
2026-01-13 12:49:41.20	194.94	19.53	-46.8	-48.0	15.0	0.00e+00	0	26	0	1029701632	59	4226
2026-01-13 12:49:42.19	195.05	19.64	-46.7	-48.0	15.0	0.00e+00	0	27	0	1034944512	59	4211
2026-01-13 12:49:43.19	195.17	19.76	-46.8	-48.1	15.0	0.00e+00	0	27	0	1040187392	59	4245
2026-01-13 12:49:44.18	195.28	19.87	-46.8	-48.1	15.0	0.00e+00	0	26	0	1046478848	59	4243
2026-01-13 12:49:45.17	195.40	19.98	-46.8	-48.0	15.0	0.00e+00	0	26	0	1051721728	59	4232
2026-01-13 12:49:46.17	195.51	20.10	-46.8	-48.0	15.0	0.00e+00	0	26	0	1056964608	59	4238
2026-01-13 12:49:47.17	195.63	20.22	-46.7	-47.9	15.1	0.00e+00	0	27	0	1063256064	59	4178
2026-01-13 12:49:48.16	195.75	20.33	-46.7	-47.9	15.1	0.00e+00	0	26	0	1068498944	59	4183
2026-01-13 12:49:49.15	195.87	20.45	-46.6	-47.8	15.1	0.00e+00	0	26	0	1073741824	59	4124
2026-01-13 12:49:50.14	195.99	20.57	-46.6	-47.9	15.1	0.00e+00	0	26	0	1080033280	59	4152
2026-01-13 12:49:51.15	196.11	20.69	-46.5	-47.8	15.1	0.00e+00	0	26	0	1085276160	59	4110
2026-01-13 12:49:52.15	196.23	20.80	-46.5	-47.7	15.1	0.00e+00	0	26	0	1090519040	59	4095
2026-01-13 12:49:53.14	196.36	20.92	-46.6	-47.8	15.1	0.00e+00	0	26	0	1096810496	59	4129
2026-01-13 12:49:54.14	196.48	21.04	-46.5	-47.7	15.1	0.00e+00	0	26	0	1102053376	59	4079
2026-01-13 12:49:55.14	196.61	21.16	-46.5	-47.7	15.2	0.00e+00	0	27	0	1107296256	59	4077
2026-01-13 12:49:56.13	196.73	21.28	-46.6	-47.9	15.1	0.00e+00	0	26	0	1113587712	59	4150
2026-01-13 12:49:57.12	196.86	21.40	-46.6	-47.9	15.1	0.00e+00	0	26	0	1118830592	59	4151
2026-01-13 12:49:58.12	196.98	21.52	-46.8	-47.9	15.1	0.00e+00	0	26	0	1124073472	59	4182
2026-01-13 12:49:59.12	197.11	21.65	-46.7	-47.8	15.1	0.00e+00	0	26	0	1130364928	59	4145
2026-01-13 12:50:00.11	197.24	21.77	-46.6	-47.7	15.1	0.00e+00	0	26	0	1135607808	59	4086
2026-01-13 12:50:01.10	197.37	21.89	-46.6	-47.7	15.2	0.00e+00	0	27	0	1140850688	59	4063
2026-01-13 12:50:02.11	197.51	22.01	-46.6	-47.7	15.1	0.00e+00	0	26	0	1147142144	59	4094
2026-01-13 12:50:03.11	197.64	22.14	-46.5	-47.6	15.2	0.00e+00	0	27	0	1152385024	59	4032
2026-01-13 12:50:04.12	197.77	22.26	-46.4	-47.5	15.2	0.00e+00	0	26	0	1158676480	59	3976
2026-01-13 12:50:05.11	197.91	22.39	-46.3	-47.4	15.2	0.00e+00	0	26	0	1163919360	59	3941
2026-01-13 12:50:06.10	198.04	22.51	-46.3	-47.4	15.3	0.00e+00	0	27	0	1169162240	59	3917
2026-01-13 12:50:07.11	198.18	22.64	-46.2	-47.3	15.3	0.00e+00	0	26	0	1175453696	59	3910
2026-01-13 12:50:08.11	198.32	22.76	-46.2	-47.3	15.3	0.00e+00	0	27	0	1180696576	59	3892
2026-01-13 12:50:09.12	198.46	22.89	-46.2	-47.3	15.3	0.00e+00	0	26	0	1185939456	59	3905
2026-01-13 12:50:10.12	198.60	23.02	-46.1	-47.2	15.1	0.00e+00	0	26	0	1192230912	58	4091
2026-01-13 12:50:11.12	198.74	23.14	-46.0	-47.1	15.2	0.00e+00	0	26	0	1197473792	58	4018
2026-01-13 12:50:12.12	198.89	23.27	-46.1	-47.1	15.2	0.00e+00	0	26	0	1203765248	58	4041
2026-01-13 12:50:13.12	199.03	23.40	-46.0	-47.1	15.2	0.00e+00	0	26	0	1209008128	58	4031
2026-01-13 12:50:14.12	199.18	23.53	-46.0	-47.1	15.2	0.00e+00	0	26	0	1214251008	58	4035
2026-01-13 12:50:15.12	199.32	23.66	-46.1	-47.2	15.2	0.00e+00	0	26	0	1220542464	58	4057
2026-01-13 12:50:16.11	199.47	23.79	-46.0	-47.1	15.2	0.00e+00	0	26	0	1225785344	58	4041
2026-01-13 12:50:17.11	199.62	23.92	-46.0	-47.1	15.2	0.00e+00	0	26	0	1231028224	58	4017
2026-01-13 12:50:18.11	199.77	24.05	-46.0	-47.0	15.2	0.00e+00	0	26	0	1237319680	58	4004
2026-01-13 12:50:19.11	199.92	24.18	-46.0	-47.1	15.2	0.00e+00	0	26	0	1242562560	58	4039
2026-01-13 12:50:20.11	200.07	24.31	-45.9	-46.9	15.3	0.00e+00	0	26	0	1247805440	58	3957
2026-01-13 12:50:21.12	200.22	24.44	-46.1	-47.2	15.2	0.00e+00	0	27	0	1254096896	58	4065
2026-01-13 12:50:22.11	200.38	24.57	-45.8	-46.9	15.3	0.00e+00	0	26	0	1259339776	58	3929
2026-01-13 12:50:23.11	200.53	24.71	-45.8	-46.9	15.3	0.00e+00	0	27	0	1264582656	58	3944
2026-01-13 12:50:24.11	200.69	24.84	-45.6	-46.7	15.3	0.00e+00	0	26	0	1270874112	57	4075
2026-01-13 12:50:25.11	200.85	24.97	-45.6	-46.6	15.2	0.00e+00	0	26	0	1276116992	57	4045
2026-01-13 12:50:26.10	201.01	25.11	-45.5	-46.5	15.2	0.00e+00	0	27	0	1281359872	57	3991
2026-01-13 12:50:27.10	201.17	25.24	-45.5	-46.6	15.2	0.00e+00	0	26	0	1287651328	57	4005
2026-01-13 12:50:28.10	201.33	25.38	-45.5	-46.6	15.3	0.00e+00	0	26	0	1292894208	57	4013
2026-01-13 12:50:29.10	201.50	25.51	-45.7	-46.7	15.2	0.00e+00	0	26	0	1299185664	57	4089
2026-01-13 12:50:30.10	201.66	25.65	-45.7	-46.7	15.2	0.00e+00	0	26	0	1304428544	57	4092
2026-01-13 12:50:31.11	201.83	25.79	-45.7	-46.8	15.2	0.00e+00	0	26	0	1310720000	57	4120
2026-01-13 12:50:32.11	202.00	25.92	-45.7	-46.8	15.2	0.00e+00	0	26	0	1315962880	57	4110
2026-01-13 12:50:33.11	202.17	26.06	-45.8	-46.9	15.1	0.00e+00	0	26	0	1321205760	57	4156
2026-01-13 12:50:34.11	202.34	26.20	-45.9	-46.9	15.1	0.00e+00	0	26	0	1327497216	57	4193
2026-01-13 12:50:35.10	202.51	26.34	-45.8	-46.9	15.2	0.00e+00	0	26	0	1332740096	57	4179
2026-01-13 12:50:36.09	202.68	26.47	-45.9	-47.0	15.1	0.00e+00	0	26	0	1337982976	57	4201
2026-01-13 12:50:37.09	202.86	26.61	-46.0	-47.1	15.1	0.00e+00	0	26	0	1343225856	57	4249
2026-01-13 12:50:38.09	203.03	26.75	-46.0	-47.1	15.1	0.00e+00	0	26	0	1349517312	57	4265
2026-01-13 12:50:39.09	203.21	26.89	-45.8	-46.8	15.2	0.00e+00	0	26	0	1354760192	57	4143
2026-01-13 12:50:40.09	203.39	27.03	-45.7	-46.7	15.2	0.00e+00	0	27	0	1361051648	57	4094
2026-01-13 12:50:41.08	203.57	27.17	-45.6	-46.6	15.2	0.00e+00	0	27	0	1366294528	57	4035
2026-01-13 12:50:42.08	203.75	27.31	-45.5	-46.6	15.2	0.00e+00	0	26	0	1371537408	57	4026
2026-01-13 12:50:43.08	203.94	27.45	-45.5	-46.6	15.2	0.00e+00	0	26	0	1377828864	57	4015
2026-01-13 12:50:44.08	204.13	27.60	-45.5	-46.5	15.3	0.00e+00	0	27	0	1383071744	57	4002
2026-01-13 12:50:45.08	204.31	27.74	-45.4	-46.5	15.3	0.00e+00	0	27	0	1388314624	57	3981
2026-01-13 12:50:46.07	204.50	27.88	-45.5	-46.5	15.2	0.00e+00	0	26	0	1394606080	57	3998
2026-01-13 12:50:47.06	204.69	28.02	-45.4	-46.5	15.3	0.00e+00	0	27	0	1399848960	57	3986
2026-01-13 12:50:48.06	204.88	28.17	-45.5	-46.6	15.2	0.00e+00	0	27	0	1405091840	57	4026
2026-01-13 12:50:49.06	205.08	28.31	-45.6	-46.6	15.2	0.00e+00	0	26	0	1411383296	57	4049
2026-01-13 12:50:50.05	205.27	28.45	-45.6	-46.6	15.2	0.00e+00	0	26	0	1416626176	57	4036
2026-01-13 12:50:51.05	205.47	28.60	-45.6	-46.6	15.2	0.00e+00	0	27	0	1421869056	57	4046
2026-01-13 12:50:52.05	205.67	28.74	-45.5	-46.5	15.3	0.00e+00	0	26	0	1428160512	57	3992
2026-01-13 12:50:53.05	205.87	28.89	-45.6	-46.6	15.2	0.00e+00	0	26	0	1433403392	57	4039
2026-01-13 12:50:54.05	206.07	29.04	-45.6	-46.6	15.2	0.00e+00	0	27	0	1438646272	57	4037
2026-01-13 12:50:55.05	206.28	29.18	-45.5	-46.6	15.2	0.00e+00	0	27	0	1444937728	57	4006
2026-01-13 12:50:56.05	206.49	29.33	-45.6	-46.6	15.2	0.00e+00	0	26	0	1450180608	57	4041
2026-01-13 12:50:57.06	206.70	29.48	-45.7	-46.8	15.2	0.00e+00	0	26	0	1455423488	57	4104
2026-01-13 12:50:58.06	206.91	29.63	-45.5	-46.6	15.2	0.00e+00	0	26	0	1461714944	57	4018
2026-01-13 12:50:59.06	207.12	29.77	-45.6	-46.7	15.2	0.00e+00	0	26	0	1466957824	57	4061
2026-01-13 12:51:00.06	207.33	29.92	-45.5	-46.6	15.2	0.00e+00	0	26	0	1473249280	57	4026
2026-01-13 12:51:01.06	207.55	30.07	-45.6	-46.6	15.2	0.00e+00	0	26	0	1478492160	57	4048
2026-01-13 12:51:02.06	207.77	30.22	-45.7	-46.8	15.2	0.00e+00	0	27	0	1483735040	57	4101
2026-01-13 12:51:03.05	207.99	30.37	-45.5	-46.6	15.2	0.00e+00	0	26	0	1490026496	57	4024
2026-01-13 12:51:04.05	208.21	30.52	-45.5	-46.6	15.2	0.00e+00	0	27	0	1495269376	57	4026
2026-01-13 12:51:05.05	208.43	30.67	-45.6	-46.7	15.2	0.00e+00	0	27	0	1500512256	57	4059
2026-01-13 12:51:06.06	208.66	30.82	-45.5	-46.5	15.3	0.00e+00	0	26	0	1506803712	57	3996
2026-01-13 12:51:07.06	208.89	30.97	-45.4	-46.5	15.3	0.00e+00	0	27	0	1512046592	57	3973
2026-01-13 12:51:08.06	209.12	31.12	-45.5	-46.5	15.3	0.00e+00	0	26	0	1518338048	57	3978
2026-01-13 12:51:09.06	209.35	31.27	-45.3	-46.4	15.3	0.00e+00	0	26	0	1523580928	57	3921
2026-01-13 12:51:10.06	209.59	31.42	-45.4	-46.4	15.3	0.00e+00	0	27	0	1528823808	57	3946
2026-01-13 12:51:11.06	209.83	31.58	-45.3	-46.4	15.3	0.00e+00	0	26	0	1535115264	57	3929
2026-01-13 12:51:12.07	210.07	31.73	-45.4	-46.4	15.3	0.00e+00	0	26	0	1540358144	57	3951
2026-01-13 12:51:13.07	210.31	31.88	-45.4	-46.5	15.3	0.00e+00	0	27	0	1546649600	57	3965
2026-01-13 12:51:14.07	210.55	32.03	-45.5	-46.6	15.3	0.00e+00	0	26	0	1551892480	57	4024
2026-01-13 12:51:15.07	210.80	32.19	-45.5	-46.5	15.3	0.00e+00	0	27	0	1557135360	57	4000
2026-01-13 12:51:16.07	211.05	32.34	-45.5	-46.6	15.2	0.00e+00	0	27	0	1563426816	57	4024
2026-01-13 12:51:17.07	211.30	32.49	-45.6	-46.6	15.2	0.00e+00	0	26	0	1568669696	57	4050
2026-01-13 12:51:18.07	211.55	32.65	-45.6	-46.6	15.2	0.00e+00	0	27	0	1573912576	57	4046
2026-01-13 12:51:19.06	211.80	32.80	-45.5	-46.6	15.2	0.00e+00	0	26	0	1580204032	57	4010
2026-01-13 12:51:20.06	212.06	32.95	-45.6	-46.7	15.2	0.00e+00	0	27	0	1585446912	57	4056
2026-01-13 12:51:21.07	212.32	33.11	-45.4	-46.5	15.3	0.00e+00	0	26	0	1590689792	57	3979
2026-01-13 12:51:22.07	212.58	33.26	-45.5	-46.6	15.3	0.00e+00	0	26	0	1596981248	57	4015
2026-01-13 12:51:23.06	212.85	33.41	-45.3	-46.3	15.3	0.00e+00	0	26	0	1602224128	57	3894
2026-01-13 12:51:24.07	213.12	33.57	-45.3	-46.4	15.3	0.00e+00	0	27	0	1608515584	57	3919
2026-01-13 12:51:25.07	213.39	33.72	-45.5	-46.5	15.3	0.00e+00	0	26	0	1613758464	57	3994
2026-01-13 12:51:26.08	213.66	33.88	-45.6	-46.7	15.2	0.00e+00	0	27	0	1619001344	57	4067
2026-01-13 12:51:27.08	213.94	34.03	-45.7	-46.7	15.2	0.00e+00	0	26	0	1625292800	57	4096
2026-01-13 12:51:28.07	214.21	34.19	-45.7	-46.8	15.2	0.00e+00	0	27	0	1630535680	57	4100
2026-01-13 12:51:29.07	214.49	34.34	-45.6	-46.7	15.2	0.00e+00	0	26	0	1635778560	57	4068
2026-01-13 12:51:30.07	214.77	34.50	-45.6	-46.7	15.2	0.00e+00	0	27	0	1642070016	57	4081
2026-01-13 12:51:31.06	215.05	34.65	-45.5	-46.6	15.3	0.00e+00	0	27	0	1647312896	57	4005
2026-01-13 12:51:32.06	215.34	34.80	-45.3	-46.3	15.3	0.00e+00	0	26	0	1652555776	57	3901
2026-01-13 12:51:33.06	215.63	34.96	-45.3	-46.3	15.3	0.00e+00	0	27	0	1658847232	57	3913
2026-01-13 12:51:34.06	215.93	35.11	-45.4	-46.5	15.3	0.00e+00	0	26	0	1664090112	57	3966
2026-01-13 12:51:35.06	216.22	35.27	-45.3	-46.4	15.3	0.00e+00	0	27	0	1669332992	57	3935
2026-01-13 12:51:36.06	216.52	35.42	-45.3	-46.4	15.3	0.00e+00	0	26	0	1675624448	57	3924
2026-01-13 12:51:37.07	216.82	35.58	-45.4	-46.4	15.3	0.00e+00	0	27	0	1680867328	57	3958
2026-01-13 12:51:38.07	217.13	35.73	-45.3	-46.4	15.3	0.00e+00	0	26	0	1687158784	57	3940
2026-01-13 12:51:39.06	217.43	35.88	-45.3	-46.3	15.3	0.00e+00	0	26	0	1692401664	57	3892
2026-01-13 12:51:40.07	217.75	36.04	-45.2	-46.2	15.2	0.00e+00	0	26	0	1697644544	56	4077
2026-01-13 12:51:41.07	218.06	36.19	-45.1	-46.1	15.2	0.00e+00	0	26	0	1703936000	56	4047
2026-01-13 12:51:42.06	218.37	36.34	-45.1	-46.1	15.3	0.00e+00	0	26	0	1709178880	56	4031
2026-01-13 12:51:43.06	218.69	36.50	-45.1	-46.2	15.3	0.00e+00	0	26	0	1714421760	56	4077
2026-01-13 12:51:44.06	219.01	36.65	-45.3	-46.4	15.2	0.00e+00	0	26	0	1720713216	56	4178
2026-01-13 12:51:45.05	219.33	36.80	-45.4	-46.4	15.2	0.00e+00	0	26	0	1725956096	56	4185
2026-01-13 12:51:46.05	219.66	36.95	-45.3	-46.4	15.2	0.00e+00	0	27	0	1731198976	56	4152
2026-01-13 12:51:47.04	219.99	37.10	-45.3	-46.4	15.2	0.00e+00	0	26	0	1737490432	56	4171
2026-01-13 12:51:48.04	220.32	37.25	-45.3	-46.4	15.2	0.00e+00	0	26	0	1742733312	56	4157
2026-01-13 12:51:49.04	220.66	37.41	-45.1	-46.1	15.3	0.00e+00	0	27	0	1747976192	56	4025
2026-01-13 12:51:50.04	221.00	37.56	-45.0	-46.0	15.3	0.00e+00	0	26	0	1754267648	56	3976
2026-01-13 12:51:51.05	221.34	37.71	-44.9	-46.0	15.3	0.00e+00	0	26	0	1759510528	56	3963
2026-01-13 12:51:52.05	221.69	37.86	-45.0	-46.0	15.3	0.00e+00	0	26	0	1764753408	56	3998
2026-01-13 12:51:53.04	222.04	38.01	-45.1	-46.2	15.2	0.00e+00	0	26	0	1771044864	56	4059
2026-01-13 12:51:54.05	222.39	38.16	-45.2	-46.3	15.2	0.00e+00	0	27	0	1776287744	56	4119
2026-01-13 12:51:55.05	222.75	38.30	-45.3	-46.4	15.2	0.00e+00	0	27	0	1782579200	56	4161
2026-01-13 12:51:56.05	223.11	38.45	-45.3	-46.4	15.2	0.00e+00	0	26	0	1787822080	56	4159
2026-01-13 12:51:57.05	223.47	38.60	-45.1	-46.2	15.2	0.00e+00	0	27	0	1793064960	56	4078
2026-01-13 12:51:58.05	223.83	38.75	-45.2	-46.3	15.2	0.00e+00	0	27	0	1799356416	56	4112
2026-01-13 12:51:59.04	224.20	38.89	-45.3	-46.3	15.2	0.00e+00	0	26	0	1804599296	56	4139
2026-01-13 12:52:00.04	224.57	39.03	-45.2	-46.3	15.2	0.00e+00	0	27	0	1809842176	56	4108
2026-01-13 12:52:01.04	224.94	39.18	-45.2	-46.3	15.2	0.00e+00	0	27	0	1816133632	56	4128
2026-01-13 12:52:02.04	225.32	39.32	-45.3	-46.3	15.2	0.00e+00	0	27	0	1821376512	56	4142
2026-01-13 12:52:03.04	225.70	39.47	-45.4	-46.5	15.2	0.00e+00	0	27	0	1826619392	56	4203
2026-01-13 12:52:04.04	226.09	39.61	-45.3	-46.3	15.2	0.00e+00	0	26	0	1832910848	56	4138
2026-01-13 12:52:05.04	226.48	39.75	-45.3	-46.3	15.2	0.00e+00	0	27	0	1838153728	56	4142
2026-01-13 12:52:06.04	226.87	39.89	-45.3	-46.3	15.2	0.00e+00	0	27	0	1844445184	56	4145
2026-01-13 12:52:07.05	227.27	40.03	-45.2	-46.3	15.2	0.00e+00	0	27	0	1849688064	56	4116
2026-01-13 12:52:08.05	227.66	40.17	-45.3	-46.4	15.2	0.00e+00	0	27	0	1854930944	56	4148
2026-01-13 12:52:09.04	228.06	40.30	-45.2	-46.2	15.2	0.00e+00	0	27	0	1861222400	56	4089
2026-01-13 12:52:10.04	228.47	40.44	-45.1	-46.2	15.2	0.00e+00	0	27	0	1866465280	56	4060
2026-01-13 12:52:11.04	228.87	40.58	-45.1	-46.2	15.2	0.00e+00	0	26	0	1871708160	56	4054
2026-01-13 12:52:12.04	229.28	40.71	-45.2	-46.2	15.2	0.00e+00	0	27	0	1877999616	56	4073
2026-01-13 12:52:13.04	229.70	40.84	-45.2	-46.2	15.2	0.00e+00	0	27	0	1883242496	56	4086
2026-01-13 12:52:14.03	230.11	40.97	-45.3	-46.3	15.2	0.00e+00	0	27	0	1889533952	56	4123
2026-01-13 12:52:15.03	230.53	41.10	-45.3	-46.4	15.2	0.00e+00	0	27	0	1894776832	56	4167
2026-01-13 12:52:16.02	230.96	41.23	-45.3	-46.4	15.2	0.00e+00	0	27	0	1900019712	56	4156
2026-01-13 12:52:17.03	231.39	41.36	-45.3	-46.4	15.2	0.00e+00	0	26	0	1906311168	56	4163
2026-01-13 12:52:18.03	231.82	41.49	-45.2	-46.2	15.2	0.00e+00	0	26	0	1911554048	56	4095
2026-01-13 12:52:19.03	232.25	41.61	-45.1	-46.2	15.2	0.00e+00	0	27	0	1916796928	56	4063
2026-01-13 12:52:20.02	232.69	41.74	-45.3	-46.3	15.2	0.00e+00	0	26	0	1923088384	56	4143
2026-01-13 12:52:21.03	233.13	41.86	-45.4	-46.4	15.2	0.00e+00	0	27	0	1928331264	56	4177
2026-01-13 12:52:22.03	233.58	41.98	-45.2	-46.3	15.2	0.00e+00	0	26	0	1933574144	56	4117
2026-01-13 12:52:23.02	234.02	42.10	-45.2	-46.2	15.2	0.00e+00	0	27	0	1939865600	56	4094
2026-01-13 12:52:24.02	234.47	42.22	-45.3	-46.3	15.2	0.00e+00	0	27	0	1945108480	56	4126
2026-01-13 12:52:25.02	234.93	42.33	-45.4	-46.4	15.2	0.00e+00	0	27	0	1951399936	56	4170
2026-01-13 12:52:26.01	235.38	42.45	-45.3	-46.3	15.2	0.00e+00	0	26	0	1956642816	56	4140
2026-01-13 12:52:27.01	235.84	42.56	-45.3	-46.4	15.2	0.00e+00	0	26	0	1961885696	56	4158
2026-01-13 12:52:28.01	236.31	42.67	-45.5	-46.5	15.2	0.00e+00	0	26	0	1968177152	56	4236
2026-01-13 12:52:29.01	236.77	42.78	-45.6	-46.7	15.1	0.00e+00	0	26	0	1973420032	56	4312
2026-01-13 12:52:30.01	237.24	42.89	-45.6	-46.7	15.1	0.00e+00	0	27	0	1978662912	56	4327
2026-01-13 12:52:31.01	237.72	43.00	-45.6	-46.7	15.1	0.00e+00	0	27	0	1984954368	56	4304
2026-01-13 12:52:32.01	238.19	43.10	-45.6	-46.7	15.1	0.00e+00	0	27	0	1990197248	56	4299
2026-01-13 12:52:33.02	238.68	43.21	-45.5	-46.6	15.1	0.00e+00	0	26	0	1995440128	56	4244
2026-01-13 12:52:34.01	239.16	43.30	-45.2	-46.3	15.2	0.00e+00	0	26	0	2001731584	56	4121
2026-01-13 12:52:35.02	239.65	43.40	-45.3	-46.3	15.2	0.00e+00	0	26	0	2006974464	56	4143
2026-01-13 12:52:36.02	240.13	43.50	-45.3	-46.3	15.2	0.00e+00	0	27	0	2013265920	56	4123
2026-01-13 12:52:37.02	240.63	43.60	-45.5	-46.6	15.1	0.00e+00	0	27	0	2018508800	56	4276
2026-01-13 12:52:38.02	241.12	43.69	-45.8	-46.9	15.1	0.00e+00	0	26	0	2023751680	56	4402
2026-01-13 12:52:39.02	241.62	43.78	-45.9	-47.0	15.1	0.00e+00	0	26	0	2030043136	56	4467
2026-01-13 12:52:40.02	242.12	43.87	-45.8	-46.9	15.1	0.00e+00	0	27	0	2035286016	57	4175
2026-01-13 12:52:41.02	242.62	43.95	-45.8	-46.9	15.2	0.00e+00	0	26	0	2040528896	57	4166
2026-01-13 12:52:42.02	243.13	44.04	-45.8	-46.8	15.2	0.00e+00	0	27	0	2046820352	57	4133
2026-01-13 12:52:43.02	243.63	44.12	-45.6	-46.7	15.2	0.00e+00	0	27	0	2052063232	57	4065
2026-01-13 12:52:44.02	244.14	44.20	-45.5	-46.5	15.3	0.00e+00	0	27	0	2057306112	57	3977
2026-01-13 12:52:45.02	244.66	44.27	-45.5	-46.6	15.2	0.00e+00	0	27	0	2063597568	57	4011
2026-01-13 12:52:46.02	245.17	44.35	-45.6	-46.7	15.2	0.00e+00	0	27	0	2068840448	57	4059
2026-01-13 12:52:47.01	245.68	44.42	-45.7	-46.8	15.2	0.00e+00	0	27	0	2075131904	57	4106
2026-01-13 12:52:48.00	246.20	44.49	-45.5	-46.6	15.2	0.00e+00	0	27	0	2080374784	57	4018
2026-01-13 12:52:49.00	246.72	44.56	-45.5	-46.5	15.3	0.00e+00	0	26	0	2085617664	57	3985
2026-01-13 12:52:49.99	247.24	44.62	-45.5	-46.5	15.3	0.00e+00	0	26	0	2090860544	57	3989
2026-01-13 12:52:50.99	247.76	44.68	-45.4	-46.5	15.3	0.00e+00	0	26	0	2097152000	57	3974
2026-01-13 12:52:51.98	248.29	44.74	-45.5	-46.5	15.3	0.00e+00	0	27	0	2102394880	57	4002
2026-01-13 12:52:52.97	248.81	44.80	-45.5	-46.6	15.3	0.00e+00	0	27	0	2107637760	57	4017
2026-01-13 12:52:53.97	249.34	44.85	-45.6	-46.7	15.2	0.00e+00	0	26	0	2113929216	57	4057
2026-01-13 12:52:54.98	249.88	44.91	-45.8	-46.9	15.2	0.00e+00	0	26	0	2119172096	57	4192
2026-01-13 12:52:55.98	250.42	44.96	-46.1	-47.2	15.1	0.00e+00	0	27	0	2125463552	57	4307
2026-01-13 12:52:56.98	250.95	45.00	-46.0	-47.1	15.1	0.00e+00	0	27	0	2130706432	57	4276
2026-01-13 12:52:57.99	251.50	45.05	-46.0	-47.1	15.1	0.00e+00	0	26	0	2135949312	57	4243
2026-01-13 12:52:58.98	252.03	45.09	-46.0	-47.1	15.1	0.00e+00	0	26	0	2142240768	57	4246
2026-01-13 12:52:59.99	252.58	45.13	-46.0	-47.1	15.1	0.00e+00	0	27	0	2147483648	57	4276
2026-01-13 12:53:00.99	253.12	45.16	-45.9	-47.0	15.1	0.00e+00	0	27	0	2152726528	57	4221
2026-01-13 12:53:01.99	253.67	45.20	-45.8	-46.9	15.1	0.00e+00	0	26	0	2159017984	57	4175
2026-01-13 12:53:02.98	254.20	45.23	-45.8	-46.8	15.2	0.00e+00	0	27	0	2164260864	57	4137
2026-01-13 12:53:03.98	254.75	45.25	-45.8	-46.9	15.2	0.00e+00	0	27	0	2169503744	57	4174
2026-01-13 12:53:04.98	255.30	45.28	-45.7	-46.8	15.2	0.00e+00	0	26	0	2175795200	57	4132
2026-01-13 12:53:05.98	255.84	45.30	-45.9	-47.0	15.1	0.00e+00	0	27	0	2181038080	57	4195
2026-01-13 12:53:06.97	256.39	45.32	-45.9	-47.0	15.1	0.00e+00	0	27	0	2187329536	57	4200
2026-01-13 12:53:07.98	256.94	45.34	-45.9	-47.0	15.1	0.00e+00	0	26	0	2192572416	57	4231
2026-01-13 12:53:08.98	257.49	45.35	-45.9	-46.9	15.2	0.00e+00	0	26	0	2197815296	57	4191
2026-01-13 12:53:09.98	258.04	45.36	-45.8	-46.9	15.2	0.00e+00	0	27	0	2204106752	57	4158
2026-01-13 12:53:10.99	258.59	45.37	-45.9	-47.0	15.1	0.00e+00	0	27	0	2209349632	57	4199
2026-01-13 12:53:11.98	259.14	45.37	-45.9	-46.9	15.1	0.00e+00	0	27	0	2214592512	57	4179
2026-01-13 12:53:12.99	259.69	45.38	-45.8	-46.8	15.2	0.00e+00	0	26	0	2220883968	57	4142
2026-01-13 12:53:13.99	260.24	45.38	-46.0	-47.1	15.1	0.00e+00	0	27	0	2226126848	57	4252
2026-01-13 12:53:14.98	260.79	45.37	-45.8	-46.9	15.2	0.00e+00	0	26	0	2231369728	57	4152
2026-01-13 12:53:15.98	261.34	45.37	-45.7	-46.8	15.2	0.00e+00	0	27	0	2237661184	57	4117
2026-01-13 12:53:16.98	261.89	45.36	-45.9	-47.0	15.1	0.00e+00	0	26	0	2242904064	57	4196
2026-01-13 12:53:17.98	262.44	45.34	-46.3	-47.4	15.1	0.00e+00	0	26	0	2249195520	57	4421
2026-01-13 12:53:18.97	262.98	45.33	-46.3	-47.4	15.1	0.00e+00	0	27	0	2254438400	58	4182
2026-01-13 12:53:19.97	263.53	45.31	-46.2	-47.3	15.2	0.00e+00	0	26	0	2259681280	58	4099
2026-01-13 12:53:20.97	264.08	45.29	-46.0	-47.0	15.2	0.00e+00	0	27	0	2265972736	58	4004
2026-01-13 12:53:21.97	264.62	45.27	-45.9	-47.0	15.2	0.00e+00	0	27	0	2271215616	58	3991
2026-01-13 12:53:22.97	265.17	45.24	-45.9	-47.0	15.3	0.00e+00	0	27	0	2276458496	58	3996
2026-01-13 12:53:23.98	265.72	45.21	-46.0	-47.0	15.3	0.00e+00	0	26	0	2282749952	58	3998
2026-01-13 12:53:24.98	266.26	45.18	-45.9	-47.0	15.3	0.00e+00	0	27	0	2287992832	58	3978
2026-01-13 12:53:25.98	266.81	45.15	-45.9	-47.0	15.2	0.00e+00	0	27	0	2293235712	58	3977
2026-01-13 12:53:26.98	267.35	45.11	-46.1	-47.1	15.2	0.00e+00	0	27	0	2299527168	58	4050
2026-01-13 12:53:27.98	267.89	45.07	-46.2	-47.3	15.2	0.00e+00	0	27	0	2304770048	58	4145
2026-01-13 12:53:28.98	268.43	45.03	-46.1	-47.2	15.2	0.00e+00	0	26	0	2311061504	58	4097
2026-01-13 12:53:29.98	268.97	44.98	-46.1	-47.2	15.2	0.00e+00	0	27	0	2316304384	58	4065
2026-01-13 12:53:30.98	269.50	44.93	-45.9	-46.9	15.3	0.00e+00	0	27	0	2321547264	58	3948
2026-01-13 12:53:31.98	270.04	44.88	-45.9	-47.0	15.3	0.00e+00	0	27	0	2327838720	58	3959
2026-01-13 12:53:32.98	270.57	44.83	-46.0	-47.1	15.2	0.00e+00	0	26	0	2333081600	58	4038
2026-01-13 12:53:33.98	271.10	44.77	-46.1	-47.2	15.2	0.00e+00	0	27	0	2338324480	58	4092
2026-01-13 12:53:34.98	271.63	44.72	-46.0	-47.1	15.2	0.00e+00	0	27	0	2344615936	58	4011
2026-01-13 12:53:35.98	272.15	44.66	-46.0	-47.0	15.2	0.00e+00	0	27	0	2349858816	58	3992
2026-01-13 12:53:36.98	272.68	44.59	-46.0	-47.1	15.2	0.00e+00	0	27	0	2355101696	58	4027
2026-01-13 12:53:37.98	273.20	44.53	-46.0	-47.0	15.2	0.00e+00	0	27	0	2361393152	58	3998
2026-01-13 12:53:38.98	273.72	44.46	-46.0	-47.1	15.2	0.00e+00	0	27	0	2366636032	58	4046
2026-01-13 12:53:39.98	274.24	44.39	-46.0	-47.1	15.2	0.00e+00	0	27	0	2372927488	58	4009
2026-01-13 12:53:40.97	274.75	44.31	-46.1	-47.2	15.2	0.00e+00	0	26	0	2378170368	58	4079
2026-01-13 12:53:41.98	275.27	44.24	-46.1	-47.2	15.2	0.00e+00	0	26	0	2383413248	58	4077
2026-01-13 12:53:42.97	275.77	44.16	-46.0	-47.0	15.3	0.00e+00	0	27	0	2389704704	58	3995
2026-01-13 12:53:43.97	276.28	44.08	-45.8	-46.8	15.3	0.00e+00	0	27	0	2394947584	58	3911
2026-01-13 12:53:44.97	276.79	44.00	-45.8	-46.8	15.3	0.00e+00	0	26	0	2400190464	58	3889
2026-01-13 12:53:45.96	277.29	43.91	-45.8	-46.9	15.3	0.00e+00	0	26	0	2405433344	58	3937
2026-01-13 12:53:46.96	277.79	43.83	-45.9	-47.0	15.3	0.00e+00	0	27	0	2411724800	58	3972
2026-01-13 12:53:47.96	278.29	43.74	-45.9	-46.9	15.3	0.00e+00	0	27	0	2416967680	58	3954
2026-01-13 12:53:48.96	278.78	43.65	-45.9	-46.9	15.3	0.00e+00	0	27	0	2423259136	58	3954
2026-01-13 12:53:49.97	279.28	43.55	-45.7	-46.8	15.3	0.00e+00	0	26	0	2428502016	58	3882
2026-01-13 12:53:50.96	279.76	43.46	-45.8	-46.8	15.3	0.00e+00	0	26	0	2434793472	58	3913
2026-01-13 12:53:51.96	280.25	43.36	-45.7	-46.8	15.3	0.00e+00	0	27	0	2440036352	58	3898
2026-01-13 12:53:52.96	280.73	43.26	-45.8	-46.8	15.3	0.00e+00	0	27	0	2445279232	58	3904
2026-01-13 12:53:53.96	281.21	43.16	-45.8	-46.9	15.3	0.00e+00	0	27	0	2451570688	58	3935
2026-01-13 12:53:54.96	281.69	43.06	-45.9	-47.0	15.2	0.00e+00	0	27	0	2456813568	58	3988
2026-01-13 12:53:55.95	282.16	42.95	-46.1	-47.2	15.2	0.00e+00	0	27	0	2462056448	58	4087
2026-01-13 12:53:56.95	282.63	42.85	-46.1	-47.1	15.2	0.00e+00	0	27	0	2467299328	58	4048
2026-01-13 12:53:57.95	283.10	42.74	-46.0	-47.1	15.2	0.00e+00	0	26	0	2473590784	58	4024
2026-01-13 12:53:58.96	283.57	42.63	-46.0	-47.0	15.2	0.00e+00	0	27	0	2478833664	58	3996
2026-01-13 12:53:59.96	284.03	42.52	-46.1	-47.2	15.2	0.00e+00	0	27	0	2485125120	58	4076
2026-01-13 12:54:00.97	284.50	42.40	-46.1	-47.2	15.2	0.00e+00	0	27	0	2490368000	58	4084
2026-01-13 12:54:01.97	284.95	42.29	-46.0	-47.1	15.2	0.00e+00	0	27	0	2496659456	58	4012
2026-01-13 12:54:02.97	285.40	42.17	-45.9	-46.9	15.3	0.00e+00	0	27	0	2501902336	58	3953
2026-01-13 12:54:03.97	285.85	42.05	-45.9	-47.0	15.3	0.00e+00	0	27	0	2507145216	58	3961
2026-01-13 12:54:04.97	286.30	41.93	-46.0	-47.1	15.2	0.00e+00	0	26	0	2513436672	58	4029
2026-01-13 12:54:05.96	286.74	41.81	-46.0	-47.1	15.2	0.00e+00	0	27	0	2518679552	58	4042
2026-01-13 12:54:06.96	287.18	41.69	-46.0	-47.0	15.2	0.00e+00	0	27	0	2523922432	58	3984
2026-01-13 12:54:07.96	287.61	41.56	-45.7	-46.8	15.3	0.00e+00	0	26	0	2530213888	58	3880
2026-01-13 12:54:08.95	288.04	41.44	-45.7	-46.7	15.3	0.00e+00	0	27	0	2535456768	58	3862
2026-01-13 12:54:09.95	288.47	41.31	-45.7	-46.8	15.3	0.00e+00	0	27	0	2540699648	58	3898
2026-01-13 12:54:10.95	288.89	41.18	-45.7	-46.8	15.3	0.00e+00	0	26	0	2546991104	58	3883
2026-01-13 12:54:11.96	289.32	41.05	-45.7	-46.8	15.3	0.00e+00	0	26	0	2552233984	58	3872
2026-01-13 12:54:12.96	289.74	40.92	-45.7	-46.7	15.4	0.00e+00	0	26	0	2558525440	58	3863
2026-01-13 12:54:13.97	290.16	40.79	-45.8	-46.8	15.3	0.00e+00	0	27	0	2563768320	58	3913
2026-01-13 12:54:14.96	290.57	40.66	-45.6	-46.6	15.2	0.00e+00	0	27	0	2569011200	57	4042
2026-01-13 12:54:15.96	290.98	40.52	-45.5	-46.5	15.3	0.00e+00	0	27	0	2575302656	57	3987
2026-01-13 12:54:16.96	291.38	40.39	-45.5	-46.5	15.2	0.00e+00	0	27	0	2580545536	57	4004
2026-01-13 12:54:17.97	291.79	40.25	-45.5	-46.6	15.2	0.00e+00	0	26	0	2585788416	57	4024
2026-01-13 12:54:18.97	292.19	40.11	-45.8	-46.8	15.2	0.00e+00	0	26	0	2592079872	57	4134
2026-01-13 12:54:19.97	292.58	39.97	-46.0	-47.1	15.1	0.00e+00	0	27	0	2597322752	57	4266
2026-01-13 12:54:20.97	292.98	39.83	-45.8	-46.9	15.1	0.00e+00	0	27	0	2603614208	57	4174
2026-01-13 12:54:21.96	293.36	39.69	-45.7	-46.8	15.2	0.00e+00	0	27	0	2608857088	57	4105
2026-01-13 12:54:22.97	293.75	39.55	-45.6	-46.7	15.2	0.00e+00	0	27	0	2614099968	57	4068
2026-01-13 12:54:23.97	294.13	39.41	-45.6	-46.7	15.2	0.00e+00	0	27	0	2620391424	57	4055
2026-01-13 12:54:24.97	294.51	39.27	-45.4	-46.5	15.3	0.00e+00	0	27	0	2625634304	57	3962
2026-01-13 12:54:25.97	294.89	39.12	-45.3	-46.3	15.3	0.00e+00	0	27	0	2630877184	57	3887
2026-01-13 12:54:26.97	295.26	38.98	-45.4	-46.4	15.3	0.00e+00	0	26	0	2637168640	57	3937
2026-01-13 12:54:27.97	295.63	38.84	-45.4	-46.4	15.3	0.00e+00	0	27	0	2642411520	57	3944
2026-01-13 12:54:28.96	295.99	38.69	-45.4	-46.4	15.3	0.00e+00	0	27	0	2647654400	57	3942
2026-01-13 12:54:29.96	296.36	38.55	-45.4	-46.4	15.3	0.00e+00	0	27	0	2653945856	57	3950
2026-01-13 12:54:30.97	296.72	38.40	-45.4	-46.5	15.3	0.00e+00	0	26	0	2659188736	57	3963
2026-01-13 12:54:31.98	297.08	38.25	-45.4	-46.5	15.3	0.00e+00	0	27	0	2665480192	57	3975
2026-01-13 12:54:32.99	297.43	38.10	-45.5	-46.6	15.3	0.00e+00	0	27	0	2670723072	57	4005
2026-01-13 12:54:33.99	297.78	37.95	-45.5	-46.6	15.3	0.00e+00	0	27	0	2675965952	57	4017
2026-01-13 12:54:34.99	298.13	37.80	-45.5	-46.6	15.2	0.00e+00	0	27	0	2682257408	57	4025
2026-01-13 12:54:35.99	298.48	37.65	-45.5	-46.5	15.3	0.00e+00	0	27	0	2687500288	57	3991
2026-01-13 12:54:36.99	298.82	37.50	-45.5	-46.5	15.3	0.00e+00	0	27	0	2692743168	57	3985
2026-01-13 12:54:38.00	299.16	37.35	-45.4	-46.4	15.3	0.00e+00	0	26	0	2699034624	57	3944
2026-01-13 12:54:39.00	299.49	37.20	-45.4	-46.4	15.3	0.00e+00	0	26	0	2704277504	57	3945
2026-01-13 12:54:40.00	299.82	37.05	-45.3	-46.4	15.3	0.00e+00	0	26	0	2709520384	57	3923
2026-01-13 12:54:41.00	300.15	36.90	-45.2	-46.2	15.4	0.00e+00	0	27	0	2715811840	57	3859
2026-01-13 12:54:42.00	300.48	36.74	-45.3	-46.3	15.3	0.00e+00	0	27	0	2721054720	57	3900
2026-01-13 12:54:42.99	300.80	36.59	-45.4	-46.4	15.3	0.00e+00	0	27	0	2727346176	57	3940
2026-01-13 12:54:43.99	301.12	36.44	-45.5	-46.5	15.3	0.00e+00	0	26	0	2732589056	57	3990
2026-01-13 12:54:44.99	301.43	36.29	-45.5	-46.5	15.3	0.00e+00	0	27	0	2737831936	57	3994
2026-01-13 12:54:46.00	301.75	36.14	-45.5	-46.5	15.3	0.00e+00	0	26	0	2744123392	57	3988
2026-01-13 12:54:47.00	302.06	35.98	-45.5	-46.5	15.3	0.00e+00	0	27	0	2749366272	57	3998
2026-01-13 12:54:48.00	302.37	35.83	-45.5	-46.6	15.3	0.00e+00	0	27	0	2754609152	57	4017
2026-01-13 12:54:49.00	302.67	35.68	-45.7	-46.8	15.2	0.00e+00	0	26	0	2760900608	57	4124
2026-01-13 12:54:50.00	302.97	35.52	-45.8	-46.8	15.2	0.00e+00	0	27	0	2766143488	57	4145
2026-01-13 12:54:51.00	303.27	35.37	-45.9	-47.0	15.2	0.00e+00	0	27	0	2771386368	57	4198
2026-01-13 12:54:52.00	303.57	35.22	-45.7	-46.8	15.2	0.00e+00	0	27	0	2777677824	57	4106
2026-01-13 12:54:52.99	303.86	35.06	-45.6	-46.7	15.2	0.00e+00	0	26	0	2782920704	57	4074
2026-01-13 12:54:53.99	304.15	34.91	-45.6	-46.6	15.2	0.00e+00	0	27	0	2789212160	57	4049
2026-01-13 12:54:54.98	304.44	34.76	-45.5	-46.6	15.3	0.00e+00	0	27	0	2794455040	57	4011
2026-01-13 12:54:55.98	304.72	34.60	-45.5	-46.5	15.3	0.00e+00	0	27	0	2799697920	57	3998
2026-01-13 12:54:56.98	305.01	34.45	-45.5	-46.5	15.3	0.00e+00	0	26	0	2805989376	57	3997
2026-01-13 12:54:57.99	305.29	34.29	-45.6	-46.7	15.2	0.00e+00	0	27	0	2811232256	57	4063
2026-01-13 12:54:58.99	305.57	34.14	-45.6	-46.6	15.2	0.00e+00	0	27	0	2816475136	57	4044
2026-01-13 12:54:59.98	305.84	33.99	-45.4	-46.5	15.3	0.00e+00	0	27	0	2822766592	57	3978
2026-01-13 12:55:00.98	306.12	33.83	-45.5	-46.5	15.3	0.00e+00	0	27	0	2828009472	57	3990
2026-01-13 12:55:01.98	306.39	33.68	-45.5	-46.5	15.3	0.00e+00	0	27	0	2833252352	57	3987
2026-01-13 12:55:02.98	306.65	33.53	-45.4	-46.4	15.3	0.00e+00	0	27	0	2839543808	57	3957
2026-01-13 12:55:03.98	306.92	33.37	-45.5	-46.6	15.3	0.00e+00	0	27	0	2844786688	57	4016
2026-01-13 12:55:04.97	307.18	33.22	-45.6	-46.7	15.2	0.00e+00	0	26	0	2851078144	57	4075
2026-01-13 12:55:05.97	307.44	33.07	-45.7	-46.8	15.2	0.00e+00	0	27	0	2856321024	57	4103
2026-01-13 12:55:06.97	307.70	32.92	-45.8	-46.8	15.2	0.00e+00	0	27	0	2861563904	57	4143
2026-01-13 12:55:07.98	307.96	32.76	-45.7	-46.7	15.2	0.00e+00	0	27	0	2867855360	57	4090
2026-01-13 12:55:08.98	308.21	32.61	-45.6	-46.7	15.2	0.00e+00	0	27	0	2873098240	57	4064
2026-01-13 12:55:09.97	308.46	32.46	-45.6	-46.7	15.2	0.00e+00	0	27	0	2878341120	57	4078
2026-01-13 12:55:10.97	308.71	32.30	-45.7	-46.7	15.2	0.00e+00	0	27	0	2884632576	57	4078
2026-01-13 12:55:11.98	308.96	32.15	-45.5	-46.6	15.2	0.00e+00	0	27	0	2889875456	57	4010
2026-01-13 12:55:12.98	309.20	32.00	-45.6	-46.7	15.2	0.00e+00	0	27	0	2895118336	57	4062
2026-01-13 12:55:13.98	309.44	31.85	-45.7	-46.8	15.2	0.00e+00	0	27	0	2901409792	57	4112
2026-01-13 12:55:14.99	309.69	31.69	-45.8	-46.9	15.2	0.00e+00	0	27	0	2906652672	57	4167
2026-01-13 12:55:15.98	309.92	31.54	-46.0	-47.1	15.1	0.00e+00	0	26	0	2912944128	57	4254
2026-01-13 12:55:16.98	310.16	31.39	-45.9	-47.0	15.1	0.00e+00	0	27	0	2918187008	57	4242
2026-01-13 12:55:17.98	310.39	31.24	-45.9	-47.0	15.1	0.00e+00	0	27	0	2923429888	57	4239
2026-01-13 12:55:18.98	310.62	31.09	-45.8	-46.9	15.2	0.00e+00	0	27	0	2929721344	57	4181
2026-01-13 12:55:19.98	310.85	30.94	-45.9	-46.9	15.1	0.00e+00	0	27	0	2934964224	57	4185
2026-01-13 12:55:20.98	311.08	30.79	-45.9	-47.0	15.1	0.00e+00	0	27	0	2940207104	57	4201
2026-01-13 12:55:21.98	311.30	30.64	-45.8	-46.9	15.2	0.00e+00	0	27	0	2946498560	57	4170
2026-01-13 12:55:22.98	311.53	30.49	-45.8	-46.9	15.2	0.00e+00	0	27	0	2951741440	57	4159
2026-01-13 12:55:23.99	311.75	30.34	-45.9	-47.0	15.1	0.00e+00	0	26	0	2956984320	57	4206
2026-01-13 12:55:24.98	311.97	30.20	-46.0	-47.1	15.1	0.00e+00	0	27	0	2963275776	57	4248
2026-01-13 12:55:25.99	312.18	30.05	-46.1	-47.2	15.1	0.00e+00	0	26	0	2968518656	57	4307
2026-01-13 12:55:26.98	312.40	29.90	-46.1	-47.2	15.1	0.00e+00	0	27	0	2974810112	57	4308
2026-01-13 12:55:27.98	312.61	29.75	-46.1	-47.2	15.1	0.00e+00	0	27	0	2980052992	57	4332
2026-01-13 12:55:28.98	312.82	29.61	-46.0	-47.1	15.1	0.00e+00	0	26	0	2985295872	57	4270
2026-01-13 12:55:29.98	313.03	29.46	-46.0	-47.1	15.1	0.00e+00	0	27	0	2991587328	57	4271
2026-01-13 12:55:30.98	313.24	29.31	-45.9	-47.0	15.2	0.00e+00	0	26	0	2996830208	57	4219
2026-01-13 12:55:31.98	313.45	29.17	-45.6	-46.7	15.2	0.00e+00	0	27	0	3002073088	57	4064
2026-01-13 12:55:32.97	313.65	29.02	-45.5	-46.6	15.2	0.00e+00	0	27	0	3008364544	57	4014
2026-01-13 12:55:33.97	313.85	28.88	-45.6	-46.6	15.2	0.00e+00	0	27	0	3013607424	57	4039
2026-01-13 12:55:34.95	314.05	28.73	-45.5	-46.6	15.2	0.00e+00	0	26	0	3018850304	57	4011
2026-01-13 12:55:35.96	314.25	28.59	-45.6	-46.7	15.2	0.00e+00	0	27	0	3025141760	57	4055
2026-01-13 12:55:36.96	314.44	28.44	-45.6	-46.6	15.2	0.00e+00	0	27	0	3030384640	57	4046
2026-01-13 12:55:37.96	314.64	28.30	-45.7	-46.8	15.2	0.00e+00	0	26	0	3036676096	57	4114
2026-01-13 12:55:38.96	314.83	28.16	-45.8	-46.9	15.2	0.00e+00	0	27	0	3041918976	57	4183
2026-01-13 12:55:39.96	315.02	28.01	-45.8	-46.9	15.2	0.00e+00	0	27	0	3047161856	57	4177
2026-01-13 12:55:40.97	315.22	27.87	-45.9	-47.0	15.2	0.00e+00	0	26	0	3053453312	57	4203
2026-01-13 12:55:41.96	315.40	27.73	-45.9	-47.0	15.1	0.00e+00	0	27	0	3058696192	57	4231
2026-01-13 12:55:42.96	315.59	27.59	-45.9	-47.0	15.1	0.00e+00	0	26	0	3063939072	57	4220
2026-01-13 12:55:43.96	315.77	27.45	-45.9	-47.0	15.1	0.00e+00	0	27	0	3070230528	57	4230
2026-01-13 12:55:44.96	315.96	27.31	-45.9	-47.0	15.1	0.00e+00	0	27	0	3075473408	57	4212
2026-01-13 12:55:45.96	316.14	27.16	-46.0	-47.1	15.1	0.00e+00	0	27	0	3080716288	57	4245
2026-01-13 12:55:46.95	316.32	27.03	-45.9	-47.0	15.1	0.00e+00	0	26	0	3087007744	57	4198
2026-01-13 12:55:47.95	316.50	26.89	-46.0	-47.1	15.1	0.00e+00	0	26	0	3092250624	57	4245
2026-01-13 12:55:48.95	316.68	26.75	-46.0	-47.1	15.1	0.00e+00	0	26	0	3097493504	57	4253
2026-01-13 12:55:49.95	316.85	26.61	-46.0	-47.1	15.1	0.00e+00	0	27	0	3103784960	57	4286
2026-01-13 12:55:50.94	317.02	26.47	-46.0	-47.1	15.1	0.00e+00	0	26	0	3109027840	57	4279
2026-01-13 12:55:51.93	317.20	26.34	-46.1	-47.2	15.1	0.00e+00	0	26	0	3114270720	57	4300
2026-01-13 12:55:52.93	317.37	26.20	-46.2	-47.3	15.1	0.00e+00	0	27	0	3120562176	57	4349
2026-01-13 12:55:53.93	317.54	26.06	-46.1	-47.2	15.1	0.00e+00	0	26	0	3125805056	57	4297
2026-01-13 12:55:54.92	317.70	25.93	-46.1	-47.3	15.1	0.00e+00	0	27	0	3131047936	57	4344
2026-01-13 12:55:55.92	317.87	25.79	-46.1	-47.2	15.1	0.00e+00	0	26	0	3137339392	57	4298
2026-01-13 12:55:56.91	318.04	25.65	-46.0	-47.1	15.1	0.00e+00	0	27	0	3142582272	57	4286
2026-01-13 12:55:57.91	318.20	25.52	-46.0	-47.1	15.1	0.00e+00	0	27	0	3148873728	57	4272
2026-01-13 12:55:58.91	318.36	25.38	-46.0	-47.1	15.1	0.00e+00	0	27	0	3154116608	57	4270
2026-01-13 12:55:59.91	318.53	25.25	-46.0	-47.1	15.1	0.00e+00	0	27	0	3159359488	57	4275
2026-01-13 12:56:00.90	318.69	25.12	-46.0	-47.1	15.1	0.00e+00	0	27	0	3164602368	57	4252
2026-01-13 12:56:01.90	318.85	24.98	-46.1	-47.2	15.1	0.00e+00	0	27	0	3170893824	57	4292
2026-01-13 12:56:02.90	319.00	24.85	-46.1	-47.2	15.1	0.00e+00	0	27	0	3176136704	57	4303
2026-01-13 12:56:03.90	319.16	24.72	-46.3	-47.4	15.0	0.00e+00	0	27	0	3182428160	57	4413
2026-01-13 12:56:04.90	319.32	24.59	-46.3	-47.4	15.0	0.00e+00	0	27	0	3187671040	57	4427
2026-01-13 12:56:05.89	319.47	24.46	-46.4	-47.5	15.0	0.00e+00	0	27	0	3192913920	57	4489
2026-01-13 12:56:06.88	319.62	24.33	-46.5	-47.7	15.0	0.00e+00	0	27	0	3199205376	58	4297
2026-01-13 12:56:07.88	319.77	24.20	-46.6	-47.7	15.0	0.00e+00	0	27	0	3204448256	58	4337
2026-01-13 12:56:08.88	319.92	24.07	-46.7	-47.9	15.0	0.00e+00	0	27	0	3209691136	58	4409
2026-01-13 12:56:09.88	320.07	23.94	-46.6	-47.7	15.0	0.00e+00	0	27	0	3215982592	58	4329
2026-01-13 12:56:10.89	320.22	23.81	-46.6	-47.7	15.0	0.00e+00	0	27	0	3221225472	58	4332
2026-01-13 12:56:11.89	320.37	23.68	-46.6	-47.7	15.0	0.00e+00	0	26	0	3226468352	58	4308
2026-01-13 12:56:12.89	320.51	23.55	-46.6	-47.7	15.0	0.00e+00	0	27	0	3232759808	58	4320
2026-01-13 12:56:13.90	320.66	23.42	-46.5	-47.6	15.0	0.00e+00	0	27	0	3238002688	58	4255
2026-01-13 12:56:14.90	320.80	23.29	-46.5	-47.6	15.1	0.00e+00	0	27	0	3244294144	58	4247
2026-01-13 12:56:15.89	320.94	23.17	-46.3	-47.4	15.1	0.00e+00	0	26	0	3249537024	58	4161
2026-01-13 12:56:16.90	321.09	23.04	-46.2	-47.3	15.1	0.00e+00	0	27	0	3254779904	58	4117
2026-01-13 12:56:17.89	321.23	22.91	-46.3	-47.4	15.1	0.00e+00	0	27	0	3261071360	58	4150
2026-01-13 12:56:18.89	321.36	22.79	-46.4	-47.5	15.1	0.00e+00	0	27	0	3266314240	58	4199
2026-01-13 12:56:19.89	321.50	22.66	-46.4	-47.5	15.1	0.00e+00	0	26	0	3271557120	58	4198
2026-01-13 12:56:20.88	321.64	22.54	-46.6	-47.6	15.0	0.00e+00	0	27	0	3277848576	58	4291
2026-01-13 12:56:21.88	321.77	22.41	-46.6	-47.7	15.0	0.00e+00	0	27	0	3283091456	58	4338
2026-01-13 12:56:22.88	321.91	22.29	-46.8	-47.9	15.0	0.00e+00	0	27	0	3288334336	58	4409
2026-01-13 12:56:23.89	322.04	22.17	-46.8	-47.9	15.0	0.00e+00	0	27	0	3294625792	58	4436
2026-01-13 12:56:24.88	322.18	22.04	-46.9	-48.0	15.0	0.00e+00	0	27	0	3299868672	58	4485
2026-01-13 12:56:25.88	322.31	21.92	-46.9	-48.0	15.0	0.00e+00	0	26	0	3306160128	58	4471
2026-01-13 12:56:26.87	322.44	21.80	-46.9	-48.0	15.0	0.00e+00	0	26	0	3311403008	58	4471
2026-01-13 12:56:27.87	322.57	21.68	-46.8	-48.0	15.1	0.00e+00	0	26	0	3316645888	59	4196
2026-01-13 12:56:28.87	322.70	21.56	-46.8	-47.9	15.1	0.00e+00	0	26	0	3322937344	59	4159
2026-01-13 12:56:29.87	322.82	21.44	-46.8	-48.0	15.1	0.00e+00	0	27	0	3328180224	59	4198
2026-01-13 12:56:30.86	322.95	21.32	-46.7	-47.8	15.1	0.00e+00	0	26	0	3333423104	59	4144
2026-01-13 12:56:31.86	323.08	21.20	-46.7	-47.9	15.1	0.00e+00	0	27	0	3338665984	59	4155
2026-01-13 12:56:32.85	323.20	21.08	-46.8	-47.9	15.1	0.00e+00	0	26	0	3344957440	59	4189
2026-01-13 12:56:33.85	323.32	20.96	-46.8	-47.9	15.1	0.00e+00	0	27	0	3350200320	59	4190
2026-01-13 12:56:34.85	323.45	20.84	-46.9	-48.1	15.0	0.00e+00	0	27	0	3356491776	59	4258
2026-01-13 12:56:35.84	323.57	20.72	-47.0	-48.2	15.0	0.00e+00	0	27	0	3361734656	59	4302
2026-01-13 12:56:36.84	323.69	20.61	-47.1	-48.2	15.0	0.00e+00	0	27	0	3366977536	59	4336
2026-01-13 12:56:37.84	323.81	20.49	-47.1	-48.2	15.0	0.00e+00	0	26	0	3373268992	59	4332
2026-01-13 12:56:38.84	323.93	20.37	-47.2	-48.4	14.9	0.00e+00	0	26	0	3378511872	59	4403
2026-01-13 12:56:39.84	324.05	20.26	-47.3	-48.5	14.9	0.00e+00	0	27	0	3383754752	59	4443
2026-01-13 12:56:40.84	324.17	20.14	-47.2	-48.4	14.9	0.00e+00	0	27	0	3390046208	59	4406
2026-01-13 12:56:41.84	324.28	20.02	-47.2	-48.4	14.9	0.00e+00	0	26	0	3395289088	59	4417
2026-01-13 12:56:42.83	324.40	19.91	-47.2	-48.3	14.9	0.00e+00	0	27	0	3400531968	59	4384
2026-01-13 12:56:43.82	324.51	19.80	-47.1	-48.2	15.0	0.00e+00	0	26	0	3406823424	59	4330
2026-01-13 12:56:44.81	324.63	19.68	-47.0	-48.2	15.0	0.00e+00	0	27	0	3412066304	59	4303
2026-01-13 12:56:45.80	324.74	19.57	-47.1	-48.2	15.0	0.00e+00	0	26	0	3417309184	59	4304
2026-01-13 12:56:46.80	324.85	19.46	-47.1	-48.2	15.0	0.00e+00	0	27	0	3423600640	59	4313
2026-01-13 12:56:47.79	324.96	19.34	-46.9	-48.1	15.0	0.00e+00	0	27	0	3428843520	59	4243
2026-01-13 12:56:48.79	325.07	19.23	-47.0	-48.1	15.0	0.00e+00	0	27	0	3434086400	59	4258
2026-01-13 12:56:49.79	325.18	19.12	-47.1	-48.2	15.0	0.00e+00	0	27	0	3440377856	59	4310
2026-01-13 12:56:50.78	325.29	19.01	-47.1	-48.2	14.9	0.00e+00	0	26	0	3445620736	59	4330
2026-01-13 12:56:51.79	325.40	18.90	-47.2	-48.4	14.9	0.00e+00	0	27	0	3450863616	59	4394
2026-01-13 12:56:52.79	325.51	18.79	-47.3	-48.4	14.9	0.00e+00	0	26	0	3457155072	59	4428
2026-01-13 12:56:53.79	325.62	18.67	-47.3	-48.4	14.9	0.00e+00	0	27	0	3462397952	59	4436
2026-01-13 12:56:54.79	325.73	18.56	-47.4	-48.6	14.9	0.00e+00	0	26	0	3468689408	59	4509
2026-01-13 12:56:55.78	325.83	18.46	-47.1	-48.2	15.1	0.00e+00	0	27	0	3473932288	60	4080
2026-01-13 12:56:56.77	325.94	18.35	-47.1	-48.3	15.0	0.00e+00	0	26	0	3479175168	60	4116
2026-01-13 12:56:57.76	326.04	18.24	-47.2	-48.3	15.0	0.00e+00	0	27	0	3485466624	60	4145
2026-01-13 12:56:58.76	326.14	18.13	-47.2	-48.4	15.0	0.00e+00	0	27	0	3490709504	60	4175
2026-01-13 12:56:59.75	326.25	18.02	-47.2	-48.4	15.0	0.00e+00	0	27	0	3495952384	60	4171
2026-01-13 12:57:00.75	326.35	17.92	-47.3	-48.5	15.0	0.00e+00	0	27	0	3501195264	60	4196
2026-01-13 12:57:01.74	326.45	17.81	-47.3	-48.4	15.0	0.00e+00	0	26	0	3507486720	60	4174
2026-01-13 12:57:02.74	326.55	17.70	-47.3	-48.5	15.0	0.00e+00	0	27	0	3512729600	60	4201
2026-01-13 12:57:03.74	326.65	17.59	-47.3	-48.4	15.0	0.00e+00	0	27	0	3519021056	60	4164
2026-01-13 12:57:04.74	326.75	17.49	-47.3	-48.4	15.0	0.00e+00	0	27	0	3524263936	60	4180
2026-01-13 12:57:05.74	326.85	17.38	-47.2	-48.4	15.0	0.00e+00	0	27	0	3529506816	60	4170
2026-01-13 12:57:06.74	326.95	17.28	-47.2	-48.4	15.0	0.00e+00	0	27	0	3535798272	60	4167
2026-01-13 12:57:07.74	327.05	17.17	-47.3	-48.4	15.0	0.00e+00	0	27	0	3541041152	60	4185
2026-01-13 12:57:08.74	327.14	17.07	-47.3	-48.4	15.0	0.00e+00	0	27	0	3546284032	60	4181
2026-01-13 12:57:09.73	327.24	16.96	-47.3	-48.4	15.0	0.00e+00	0	27	0	3552575488	60	4182
2026-01-13 12:57:10.74	327.34	16.86	-47.3	-48.5	14.9	0.00e+00	0	27	0	3557818368	60	4207
2026-01-13 12:57:11.73	327.43	16.76	-47.4	-48.5	14.9	0.00e+00	0	27	0	3563061248	60	4232
2026-01-13 12:57:12.73	327.52	16.65	-47.4	-48.6	14.9	0.00e+00	0	27	0	3569352704	60	4243
2026-01-13 12:57:13.74	327.62	16.55	-47.5	-48.6	14.9	0.00e+00	0	27	0	3574595584	60	4278
2026-01-13 12:57:14.74	327.71	16.45	-47.6	-48.8	14.8	2.20e-06	0	27	0	3580887040	60	4350
2026-01-13 12:57:15.74	327.81	16.34	-47.6	-48.7	14.8	0.00e+00	0	27	0	3586129920	60	4332
2026-01-13 12:57:16.74	327.90	16.24	-47.6	-48.8	14.8	0.00e+00	0	26	0	3591372800	60	4343
2026-01-13 12:57:17.74	327.99	16.14	-47.6	-48.8	14.8	0.00e+00	0	27	0	3597664256	60	4352
2026-01-13 12:57:18.75	328.08	16.04	-47.7	-48.9	14.8	0.00e+00	0	27	0	3602907136	60	4401
2026-01-13 12:57:19.74	328.17	15.94	-47.6	-48.8	14.8	0.00e+00	0	26	0	3608150016	60	4365
2026-01-13 12:57:20.73	328.26	15.84	-47.7	-48.9	14.8	0.00e+00	0	27	0	3614441472	60	4392
2026-01-13 12:57:21.73	328.35	15.74	-47.7	-48.8	14.8	0.00e+00	0	27	0	3619684352	60	4391
2026-01-13 12:57:22.73	328.44	15.64	-47.7	-48.8	14.8	0.00e+00	0	27	0	3624927232	60	4385
2026-01-13 12:57:23.72	328.53	15.54	-47.6	-48.8	14.8	0.00e+00	0	27	0	3631218688	60	4358
2026-01-13 12:57:24.72	328.61	15.44	-47.7	-48.9	14.8	0.00e+00	0	27	0	3636461568	60	4393
2026-01-13 12:57:25.72	328.70	15.34	-47.7	-48.9	14.8	0.00e+00	0	27	0	3642753024	60	4423
2026-01-13 12:57:26.72	328.79	15.24	-47.6	-48.8	14.8	0.00e+00	0	27	0	3647995904	60	4357
2026-01-13 12:57:27.72	328.87	15.15	-47.6	-48.8	14.8	0.00e+00	0	27	0	3653238784	60	4360
2026-01-13 12:57:28.71	328.96	15.05	-47.7	-48.8	14.8	0.00e+00	0	26	0	3659530240	60	4380
2026-01-13 12:57:29.71	329.04	14.95	-47.6	-48.7	14.8	0.00e+00	0	27	0	3664773120	60	4335
2026-01-13 12:57:30.71	329.13	14.85	-47.6	-48.7	14.8	0.00e+00	0	27	0	3670016000	60	4337
