passes_logs/2026/01/15/T1/T1__20260115_092555_SUOMI_NPP_rec.log

#Pass ID: 20260115_092555_SUOMI NPP
#Satellite: SUOMI NPP
#Configuration: NPP
#almurnet v.1.7.20251203
#Start time: 2026-01-15 09:25:55

#Version: 2.0.20230620
#Station: T1
#Location: 37.570604 lon 55.790049 lat
#TLE: 1 37849U 11061A   26014.61059675  .00000037  00000+0  38639-4 0  9994
#TLE: 2 37849  98.7810 316.6625 0002460  64.3781 295.7649 14.19525105736658

#Time	Az	El	Level	Level2	SNR	BER	BlckErr	Temp	State	Recorded	gain1	gain2
2026-01-15 09:25:55.64	142.41	5.04	-51.7	-66.9	3.8	1.49e+00	0	35	0	0	75	20112
2026-01-15 09:25:56.63	142.38	5.11	-51.7	-66.8	3.8	1.49e+00	0	36	104	0	75	19906
2026-01-15 09:25:57.63	142.35	5.18	-51.7	-66.7	3.8	1.49e+00	0	36	104	0	75	19691
2026-01-15 09:25:58.62	142.32	5.25	-51.7	-66.6	3.8	1.49e+00	0	36	104	0	75	19505
2026-01-15 09:25:59.61	142.29	5.32	-51.7	-66.5	3.8	1.49e+00	0	36	104	0	75	19389
2026-01-15 09:26:00.61	142.26	5.40	-51.7	-66.5	3.8	1.49e+00	0	36	104	0	75	19172
2026-01-15 09:26:01.60	142.23	5.47	-51.6	-66.3	3.8	1.49e+00	0	36	104	0	75	18925
2026-01-15 09:26:02.60	142.20	5.54	-51.6	-66.1	3.8	1.49e+00	0	36	104	0	75	18471
2026-01-15 09:26:03.59	142.17	5.61	-51.6	-66.0	3.8	1.49e+00	0	36	104	0	75	18096
2026-01-15 09:26:04.59	142.14	5.68	-51.6	-65.6	3.8	1.49e+00	0	36	104	0	75	17458
2026-01-15 09:26:05.58	142.11	5.75	-51.6	-65.4	3.8	1.49e+00	0	36	104	0	75	16898
2026-01-15 09:26:06.57	142.08	5.82	-51.6	-65.1	3.8	1.49e+00	0	36	104	0	75	16467
2026-01-15 09:26:07.57	142.05	5.90	-51.6	-64.8	3.8	1.49e+00	0	36	104	0	75	15914
2026-01-15 09:26:08.56	142.02	5.97	-51.5	-64.7	3.8	1.48e+00	0	36	104	0	75	15695
2026-01-15 09:26:09.55	141.99	6.04	-51.5	-64.6	3.8	1.48e+00	0	36	104	0	75	15439
2026-01-15 09:26:10.55	141.96	6.12	-51.5	-64.4	4.0	1.47e+00	0	36	104	0	75	15105
2026-01-15 09:26:11.54	141.93	6.19	-51.5	-64.6	4.0	1.48e+00	0	36	104	0	75	15420
2026-01-15 09:26:12.54	141.90	6.26	-51.6	-64.8	3.8	1.48e+00	0	36	104	0	75	15915
2026-01-15 09:26:13.53	141.86	6.34	-51.6	-65.0	3.8	1.49e+00	0	36	104	0	75	16261
2026-01-15 09:26:14.52	141.83	6.41	-51.6	-65.2	3.8	1.49e+00	0	36	104	0	75	16620
2026-01-15 09:26:15.52	141.80	6.48	-51.6	-65.4	3.8	1.49e+00	0	36	104	0	75	16946
2026-01-15 09:26:16.51	141.77	6.56	-51.6	-65.5	3.8	1.49e+00	0	36	104	0	75	17216
2026-01-15 09:26:17.51	141.73	6.63	-51.6	-65.4	3.8	1.49e+00	0	36	104	0	75	16969
2026-01-15 09:26:18.50	141.70	6.71	-51.6	-65.0	3.9	1.49e+00	0	36	104	0	75	16287
2026-01-15 09:26:19.49	141.67	6.78	-51.5	-64.7	3.8	1.49e+00	0	37	104	0	75	15751
2026-01-15 09:26:20.49	141.64	6.86	-51.5	-64.2	3.9	1.48e+00	0	37	104	0	75	14803
2026-01-15 09:26:21.48	141.60	6.93	-51.4	-63.3	4.2	1.40e+00	0	37	0	0	74	14163
2026-01-15 09:26:22.48	141.57	7.01	-51.4	-62.6	4.4	1.29e+00	0	37	0	0	74	13029
2026-01-15 09:26:23.47	141.54	7.08	-51.3	-61.7	4.9	9.35e-01	0	37	0	2097152	74	11691
2026-01-15 09:26:24.46	141.50	7.16	-51.1	-60.4	5.6	6.02e-01	0	37	0	4194304	74	10138
2026-01-15 09:26:25.46	141.47	7.23	-50.9	-59.4	6.3	3.03e-01	0	37	0	6291456	73	9530
2026-01-15 09:26:26.45	141.43	7.31	-50.6	-58.2	7.4	1.73e-01	0	37	0	7340032	73	8313
2026-01-15 09:26:27.45	141.40	7.39	-50.3	-57.1	8.5	7.82e-02	0	37	0	9437184	72	7740
2026-01-15 09:26:28.44	141.37	7.46	-50.0	-56.0	9.6	2.83e-02	0	37	0	11534336	72	6855
2026-01-15 09:26:29.43	141.33	7.54	-49.6	-54.9	10.7	4.29e-03	0	37	0	13631488	71	6402
2026-01-15 09:26:30.43	141.30	7.62	-49.1	-53.8	11.9	1.92e-03	0	37	0	15728640	70	5989
2026-01-15 09:26:31.42	141.26	7.69	-48.7	-53.0	12.7	2.04e-04	0	37	0	16777216	69	5738
2026-01-15 09:26:32.42	141.23	7.77	-48.3	-52.3	13.4	1.75e-05	0	37	0	18874368	68	5645
2026-01-15 09:26:33.41	141.19	7.85	-48.0	-51.7	14.0	2.25e-04	0	37	0	20971520	68	5232
2026-01-15 09:26:34.40	141.15	7.93	-47.3	-50.7	14.8	0.00e+00	0	37	0	23068672	66	5274
2026-01-15 09:26:35.40	141.12	8.01	-47.3	-50.7	14.8	0.00e+00	0	37	0	24117248	66	5247
2026-01-15 09:26:36.39	141.08	8.08	-47.3	-50.7	14.8	0.00e+00	0	37	0	26214400	66	5239
2026-01-15 09:26:37.38	141.05	8.16	-47.3	-50.6	14.9	0.00e+00	0	37	0	28311552	66	5201
2026-01-15 09:26:38.38	141.01	8.24	-47.5	-51.0	14.5	0.00e+00	0	37	0	30408704	66	5438
2026-01-15 09:26:39.37	140.97	8.32	-47.9	-51.7	13.8	3.00e-06	0	37	0	32505856	66	5904
2026-01-15 09:26:40.37	140.94	8.40	-48.2	-52.2	13.3	9.90e-06	0	37	0	33554432	67	5911
2026-01-15 09:26:41.36	140.90	8.48	-48.9	-53.4	12.3	5.79e-05	0	37	0	35651584	68	6381
2026-01-15 09:26:42.35	140.86	8.56	-49.5	-54.7	11.0	9.25e-04	0	37	0	37748736	69	6969
2026-01-15 09:26:43.35	140.82	8.64	-50.1	-56.3	9.3	9.39e-03	0	37	0	39845888	70	7954
2026-01-15 09:26:44.34	140.79	8.72	-50.6	-57.9	7.8	4.61e-02	0	37	0	40894464	71	8991
2026-01-15 09:26:45.33	140.75	8.80	-51.0	-60.0	5.9	1.82e-01	0	37	0	42991616	72	10842
2026-01-15 09:26:46.33	140.71	8.88	-51.3	-62.5	4.5	5.84e-01	0	37	0	45088768	73	13629
2026-01-15 09:26:47.32	140.67	8.96	-51.6	-64.9	3.8	1.45e+00	0	37	104	45088768	73	17986
2026-01-15 09:26:48.32	140.63	9.04	-51.5	-65.1	3.8	1.49e+00	0	37	104	45088768	73	18371
2026-01-15 09:26:49.31	140.59	9.12	-50.4	-57.3	8.5	8.61e-02	0	37	0	46137344	71	8409
2026-01-15 09:26:50.30	140.55	9.21	-51.5	-64.7	3.8	1.47e+00	0	37	104	46137344	74	16669
2026-01-15 09:26:51.30	140.51	9.29	-51.6	-66.8	3.8	1.49e+00	0	37	104	46137344	74	21018
2026-01-15 09:26:52.29	140.47	9.37	-50.7	-58.1	7.8	6.90e-01	0	37	0	46137344	72	8671
2026-01-15 09:26:53.29	140.43	9.45	-51.7	-66.3	3.8	1.46e+00	0	37	104	46137344	74	19903
2026-01-15 09:26:54.28	140.39	9.54	-50.1	-56.3	9.4	3.94e-02	0	37	0	46137344	72	7041
2026-01-15 09:26:55.27	140.35	9.62	-50.2	-56.4	9.2	1.96e-02	0	37	0	48234496	72	7196
2026-01-15 09:26:56.27	140.31	9.70	-50.1	-56.0	9.6	1.61e-02	0	37	0	50331648	72	6872
2026-01-15 09:26:57.26	140.27	9.79	-49.6	-54.7	11.1	9.55e-03	0	37	0	51380224	71	6213
2026-01-15 09:26:58.25	140.23	9.87	-49.2	-53.9	11.8	1.39e-03	0	37	0	53477376	70	6008
2026-01-15 09:26:59.25	140.19	9.96	-48.5	-52.5	13.3	7.01e-05	0	37	0	55574528	69	5431
2026-01-15 09:27:00.24	140.15	10.04	-47.5	-50.8	14.9	3.80e-06	0	37	0	57671680	67	5007
2026-01-15 09:27:01.24	140.11	10.12	-47.0	-50.1	15.6	0.00e+00	0	37	0	59768832	66	4878
2026-01-15 09:27:02.23	140.06	10.21	-46.9	-49.9	15.8	0.00e+00	0	37	0	60817408	65	5045
2026-01-15 09:27:03.22	140.02	10.29	-46.8	-49.7	15.9	0.00e+00	0	38	0	62914560	65	4973
2026-01-15 09:27:04.22	139.98	10.38	-46.6	-49.4	16.2	0.00e+00	0	37	0	65011712	65	4814
2026-01-15 09:27:05.21	139.94	10.47	-46.8	-49.8	15.9	0.00e+00	0	37	0	67108864	65	4998
2026-01-15 09:27:06.21	139.89	10.55	-46.9	-50.0	15.6	0.00e+00	0	38	0	68157440	65	5159
2026-01-15 09:27:07.20	139.85	10.64	-47.2	-50.5	15.2	0.00e+00	0	38	0	70254592	65	5437
2026-01-15 09:27:08.19	139.81	10.73	-47.5	-50.9	14.8	2.36e-05	0	37	0	72351744	65	5700
2026-01-15 09:27:09.19	139.76	10.81	-47.9	-51.7	14.1	7.00e-07	0	38	0	74448896	66	5859
2026-01-15 09:27:10.18	139.72	10.90	-48.0	-51.8	13.9	1.50e-06	0	38	0	76546048	66	5990
2026-01-15 09:27:11.17	139.67	10.99	-48.1	-52.0	13.8	3.80e-06	0	38	0	77594624	66	6118
2026-01-15 09:27:12.17	139.63	11.08	-48.1	-51.9	13.9	3.00e-06	0	38	0	79691776	66	6039
2026-01-15 09:27:13.17	139.58	11.16	-47.8	-51.4	14.3	2.20e-06	0	38	0	81788928	66	5700
2026-01-15 09:27:14.16	139.54	11.25	-47.6	-51.0	14.7	7.00e-07	0	37	0	83886080	66	5424
2026-01-15 09:27:15.16	139.49	11.34	-47.1	-50.3	15.4	0.00e+00	0	38	0	84934656	66	5011
2026-01-15 09:27:16.15	139.45	11.43	-46.6	-49.5	16.2	0.00e+00	0	38	0	87031808	65	4838
2026-01-15 09:27:17.14	139.40	11.52	-46.3	-49.1	16.6	0.00e+00	0	37	0	89128960	64	4884
2026-01-15 09:27:18.14	139.35	11.61	-46.1	-48.8	16.9	0.00e+00	0	38	0	91226112	64	4709
2026-01-15 09:27:19.13	139.31	11.70	-46.0	-48.6	17.0	0.00e+00	0	38	0	93323264	64	4640
2026-01-15 09:27:20.12	139.26	11.79	-46.1	-48.7	17.0	0.00e+00	0	38	0	94371840	63	4972
2026-01-15 09:27:21.12	139.21	11.88	-46.1	-48.8	16.9	0.00e+00	0	38	0	96468992	63	4991
2026-01-15 09:27:22.11	139.16	11.97	-46.3	-49.1	16.6	0.00e+00	0	38	0	98566144	63	5178
2026-01-15 09:27:23.10	139.11	12.06	-46.7	-49.7	16.0	0.00e+00	0	38	0	100663296	64	5256
2026-01-15 09:27:24.10	139.07	12.16	-47.1	-50.3	15.4	0.00e+00	0	38	0	101711872	64	5652
2026-01-15 09:27:25.09	139.02	12.25	-47.5	-51.0	14.8	0.00e+00	0	38	0	103809024	65	5737
2026-01-15 09:27:26.08	138.97	12.34	-47.7	-51.2	14.6	7.00e-07	0	38	0	105906176	65	5913
2026-01-15 09:27:27.08	138.92	12.43	-47.7	-51.3	14.5	0.00e+00	0	38	0	108003328	66	5648
2026-01-15 09:27:28.07	138.87	12.52	-47.7	-51.2	14.6	0.00e+00	0	38	0	110100480	66	5573
2026-01-15 09:27:29.06	138.82	12.62	-47.3	-50.6	15.1	0.00e+00	0	38	0	111149056	66	5215
2026-01-15 09:27:30.05	138.77	12.71	-46.9	-49.9	15.8	0.00e+00	0	38	0	113246208	65	5068
2026-01-15 09:27:31.05	138.72	12.81	-46.4	-49.2	16.5	0.00e+00	0	38	0	115343360	64	4937
2026-01-15 09:27:32.04	138.67	12.90	-46.0	-48.6	17.1	0.00e+00	0	37	0	117440512	64	4613
2026-01-15 09:27:33.03	138.62	12.99	-46.0	-48.7	17.1	0.00e+00	0	38	0	118489088	63	4928
2026-01-15 09:27:34.03	138.56	13.09	-45.7	-48.2	17.5	0.00e+00	0	38	0	120586240	63	4655
2026-01-15 09:27:35.02	138.51	13.18	-45.7	-48.2	17.5	0.00e+00	0	38	0	122683392	63	4696
2026-01-15 09:27:36.01	138.46	13.28	-46.0	-48.6	17.1	0.00e+00	0	38	0	124780544	63	4887
2026-01-15 09:27:37.00	138.41	13.38	-46.2	-48.9	16.9	0.00e+00	0	38	0	126877696	63	5051
2026-01-15 09:27:38.00	138.35	13.47	-46.5	-49.4	16.4	0.00e+00	0	38	0	127926272	63	5343
2026-01-15 09:27:38.99	138.30	13.57	-46.8	-49.8	15.9	0.00e+00	0	38	0	130023424	64	5331
2026-01-15 09:27:39.98	138.25	13.67	-47.1	-50.4	15.4	0.00e+00	0	38	0	132120576	64	5667
2026-01-15 09:27:40.98	138.19	13.76	-47.2	-50.5	15.3	0.00e+00	0	38	0	134217728	65	5449
2026-01-15 09:27:41.97	138.14	13.86	-47.1	-50.3	15.5	7.00e-07	0	38	0	135266304	65	5326
2026-01-15 09:27:42.96	138.08	13.96	-47.0	-50.2	15.6	0.00e+00	0	38	0	137363456	65	5258
2026-01-15 09:27:43.96	138.03	14.06	-46.9	-49.9	15.8	0.00e+00	0	38	0	139460608	65	5096
2026-01-15 09:27:44.95	137.97	14.16	-46.4	-49.2	16.5	0.00e+00	0	38	0	141557760	64	4962
2026-01-15 09:27:45.94	137.91	14.26	-46.2	-48.9	16.8	0.00e+00	0	38	0	142606336	64	4779
2026-01-15 09:27:46.94	137.86	14.36	-46.0	-48.6	17.0	0.00e+00	0	38	0	144703488	64	4649
2026-01-15 09:27:47.93	137.80	14.46	-46.1	-48.7	17.1	0.00e+00	0	38	0	146800640	63	4968
2026-01-15 09:27:48.92	137.74	14.56	-46.0	-48.6	17.2	0.00e+00	0	38	0	148897792	63	4906
2026-01-15 09:27:49.92	137.69	14.66	-46.2	-48.9	16.8	0.00e+00	0	38	0	150994944	63	5098
2026-01-15 09:27:50.91	137.63	14.76	-46.6	-49.5	16.4	0.00e+00	0	38	0	152043520	63	5428
2026-01-15 09:27:51.90	137.57	14.86	-46.8	-49.9	15.9	0.00e+00	0	38	0	154140672	64	5347
2026-01-15 09:27:52.89	137.51	14.96	-47.0	-50.2	15.6	0.00e+00	0	38	0	156237824	64	5572
2026-01-15 09:27:53.89	137.45	15.06	-47.3	-50.5	15.4	0.00e+00	0	38	0	158334976	65	5438
2026-01-15 09:27:54.88	137.39	15.17	-47.1	-50.3	15.5	0.00e+00	0	38	0	159383552	65	5340
2026-01-15 09:27:55.88	137.33	15.27	-47.1	-50.3	15.6	0.00e+00	0	38	0	161480704	65	5280
2026-01-15 09:27:56.87	137.27	15.37	-46.9	-49.9	15.9	0.00e+00	0	38	0	163577856	65	5047
2026-01-15 09:27:57.86	137.21	15.48	-46.6	-49.5	16.2	0.00e+00	0	38	0	165675008	65	4864
2026-01-15 09:27:58.85	137.15	15.58	-46.3	-49.1	16.6	0.00e+00	0	38	0	167772160	64	4920
2026-01-15 09:27:59.85	137.08	15.69	-46.5	-49.3	16.5	0.00e+00	0	38	0	168820736	64	5024
2026-01-15 09:28:00.84	137.02	15.79	-46.4	-49.2	16.6	0.00e+00	0	38	0	170917888	64	4958
2026-01-15 09:28:01.83	136.96	15.90	-46.4	-49.2	16.5	0.00e+00	0	38	0	173015040	64	4968
2026-01-15 09:28:02.83	136.89	16.00	-46.5	-49.4	16.4	0.00e+00	0	38	0	175112192	64	5057
2026-01-15 09:28:03.82	136.83	16.11	-46.6	-49.5	16.3	0.00e+00	0	38	0	176160768	64	5111
2026-01-15 09:28:04.81	136.77	16.22	-46.6	-49.5	16.2	0.00e+00	0	38	0	178257920	64	5147
2026-01-15 09:28:05.81	136.70	16.33	-46.8	-49.8	16.0	0.00e+00	0	38	0	180355072	64	5287
2026-01-15 09:28:06.80	136.64	16.43	-46.9	-49.9	16.0	0.00e+00	0	38	0	182452224	64	5368
2026-01-15 09:28:07.80	136.57	16.54	-46.9	-49.8	16.0	7.00e-07	0	38	0	184549376	64	5335
2026-01-15 09:28:08.79	136.50	16.65	-46.6	-49.5	16.3	0.00e+00	0	38	0	185597952	64	5116
2026-01-15 09:28:09.78	136.44	16.76	-46.5	-49.3	16.5	0.00e+00	0	38	0	187695104	64	5031
2026-01-15 09:28:10.78	136.37	16.87	-46.4	-49.2	16.6	0.00e+00	0	38	0	189792256	64	4952
2026-01-15 09:28:11.77	136.30	16.98	-46.4	-49.2	16.6	0.00e+00	0	38	0	191889408	64	4929
2026-01-15 09:28:12.76	136.23	17.09	-46.6	-49.4	16.4	0.00e+00	0	38	0	192937984	64	5088
2026-01-15 09:28:13.76	136.16	17.20	-46.7	-49.7	16.2	0.00e+00	0	38	0	195035136	64	5219
2026-01-15 09:28:14.75	136.09	17.31	-46.9	-49.9	16.0	0.00e+00	0	38	0	197132288	64	5344
2026-01-15 09:28:15.74	136.03	17.42	-47.0	-50.1	15.7	0.00e+00	0	38	0	199229440	64	5509
2026-01-15 09:28:16.74	135.95	17.54	-47.2	-50.3	15.6	0.00e+00	0	38	0	201326592	65	5327
2026-01-15 09:28:17.73	135.88	17.65	-47.2	-50.4	15.5	0.00e+00	0	38	0	202375168	65	5391
2026-01-15 09:28:18.72	135.81	17.76	-47.0	-50.1	15.8	0.00e+00	0	38	0	204472320	65	5171
2026-01-15 09:28:19.72	135.74	17.88	-46.9	-49.9	15.9	0.00e+00	0	38	0	206569472	65	5090
2026-01-15 09:28:20.71	135.67	17.99	-46.5	-49.5	16.3	0.00e+00	0	38	0	208666624	65	4830
2026-01-15 09:28:21.70	135.59	18.10	-46.5	-49.3	16.5	0.00e+00	0	38	0	209715200	64	5004
2026-01-15 09:28:22.70	135.52	18.22	-46.2	-48.8	17.0	0.00e+00	0	38	0	211812352	64	4751
2026-01-15 09:28:23.69	135.44	18.34	-46.0	-48.8	17.0	0.00e+00	0	38	0	213909504	64	4726
2026-01-15 09:28:24.68	135.37	18.45	-46.2	-48.8	17.0	0.00e+00	0	38	0	216006656	64	4748
2026-01-15 09:28:25.68	135.29	18.57	-46.4	-49.1	16.7	0.00e+00	0	38	0	218103808	64	4917
2026-01-15 09:28:26.67	135.22	18.69	-46.5	-49.3	16.5	0.00e+00	0	38	0	219152384	64	5032
2026-01-15 09:28:27.66	135.14	18.80	-46.8	-49.7	16.2	0.00e+00	0	38	0	221249536	64	5269
2026-01-15 09:28:28.66	135.06	18.92	-46.9	-49.8	16.0	0.00e+00	0	38	0	223346688	64	5325
2026-01-15 09:28:29.65	134.99	19.04	-46.8	-49.8	16.1	0.00e+00	0	38	0	225443840	64	5285
2026-01-15 09:28:30.64	134.91	19.16	-46.6	-49.4	16.4	0.00e+00	0	38	0	226492416	64	5083
2026-01-15 09:28:31.64	134.83	19.28	-46.6	-49.4	16.4	0.00e+00	0	38	0	228589568	64	5083
2026-01-15 09:28:32.63	134.75	19.40	-46.3	-49.1	16.7	0.00e+00	0	38	0	230686720	64	4880
2026-01-15 09:28:33.63	134.67	19.52	-46.3	-49.0	16.8	0.00e+00	0	38	0	232783872	64	4848
2026-01-15 09:28:34.62	134.58	19.64	-46.5	-49.3	16.5	0.00e+00	0	38	0	234881024	64	5006
2026-01-15 09:28:35.61	134.50	19.76	-46.5	-49.4	16.5	0.00e+00	0	38	0	235929600	64	5069
2026-01-15 09:28:36.61	134.42	19.89	-46.6	-49.5	16.4	0.00e+00	0	38	0	238026752	64	5138
2026-01-15 09:28:37.60	134.34	20.01	-47.2	-50.4	15.5	0.00e+00	0	38	0	240123904	65	5366
2026-01-15 09:28:38.59	134.25	20.13	-47.3	-50.7	15.3	0.00e+00	0	38	0	242221056	65	5538
2026-01-15 09:28:39.59	134.17	20.26	-47.3	-50.6	15.4	0.00e+00	0	38	0	243269632	65	5502
2026-01-15 09:28:40.58	134.08	20.38	-47.2	-50.4	15.6	0.00e+00	0	38	0	245366784	65	5375
2026-01-15 09:28:41.57	134.00	20.51	-47.2	-50.4	15.5	0.00e+00	0	38	0	247463936	65	5388
2026-01-15 09:28:42.57	133.91	20.63	-46.8	-49.8	16.1	0.00e+00	0	38	0	249561088	65	4988
2026-01-15 09:28:43.56	133.82	20.76	-46.7	-49.6	16.3	0.00e+00	0	38	0	251658240	65	4904
2026-01-15 09:28:44.55	133.73	20.89	-46.6	-49.5	16.4	0.00e+00	0	38	0	252706816	65	4820
2026-01-15 09:28:45.55	133.64	21.01	-46.5	-49.4	16.5	0.00e+00	0	38	0	254803968	64	5054
2026-01-15 09:28:46.54	133.55	21.14	-46.5	-49.4	16.5	0.00e+00	0	38	0	256901120	64	5048
2026-01-15 09:28:47.53	133.46	21.27	-46.7	-49.6	16.2	0.00e+00	0	38	0	258998272	64	5196
2026-01-15 09:28:48.53	133.37	21.40	-47.1	-50.1	15.8	0.00e+00	0	38	0	260046848	65	5205
2026-01-15 09:28:49.52	133.28	21.53	-47.3	-50.5	15.4	0.00e+00	0	38	0	262144000	65	5453
2026-01-15 09:28:50.52	133.19	21.66	-47.3	-50.6	15.4	0.00e+00	0	38	0	264241152	65	5491
2026-01-15 09:28:51.51	133.09	21.79	-47.4	-50.7	15.2	1.49e-04	0	38	0	266338304	65	5565
2026-01-15 09:28:52.50	133.00	21.92	-47.2	-50.4	15.6	0.00e+00	0	38	0	268435456	65	5363
2026-01-15 09:28:53.50	132.90	22.06	-46.9	-49.9	16.0	0.00e+00	0	38	0	269484032	65	5098
2026-01-15 09:28:54.49	132.81	22.19	-46.7	-49.6	16.3	0.00e+00	0	38	0	271581184	65	4919
2026-01-15 09:28:55.48	132.71	22.32	-46.7	-49.6	16.4	0.00e+00	0	38	0	273678336	65	4873
2026-01-15 09:28:56.48	132.61	22.46	-46.8	-49.7	16.2	0.00e+00	0	38	0	275775488	65	4941
2026-01-15 09:28:57.47	132.51	22.59	-46.9	-49.8	16.1	1.44e-04	0	38	0	276824064	65	5017
2026-01-15 09:28:58.47	132.41	22.73	-46.8	-49.8	16.1	0.00e+00	0	38	0	278921216	65	5003
2026-01-15 09:28:59.46	132.31	22.86	-47.0	-50.1	15.9	0.00e+00	0	38	0	281018368	65	5163
2026-01-15 09:29:00.45	132.21	23.00	-47.1	-50.2	15.8	0.00e+00	0	38	0	283115520	65	5240
2026-01-15 09:29:01.45	132.11	23.13	-46.9	-49.8	16.1	0.00e+00	0	38	0	285212672	65	5032
2026-01-15 09:29:02.44	132.00	23.27	-47.1	-50.1	15.8	0.00e+00	0	38	0	286261248	65	5175
2026-01-15 09:29:03.43	131.90	23.41	-47.0	-50.0	15.9	0.00e+00	0	38	0	288358400	65	5152
2026-01-15 09:29:04.43	131.79	23.55	-47.0	-50.0	15.9	0.00e+00	0	38	0	290455552	65	5145
2026-01-15 09:29:05.42	131.69	23.69	-47.3	-50.5	15.6	0.00e+00	0	38	0	292552704	65	5426
2026-01-15 09:29:06.41	131.58	23.83	-47.6	-50.8	15.2	0.00e+00	0	38	0	293601280	65	5643
2026-01-15 09:29:07.41	131.47	23.97	-47.7	-51.0	15.0	7.00e-07	0	38	0	295698432	66	5432
2026-01-15 09:29:08.40	131.36	24.11	-47.7	-51.0	15.0	0.00e+00	0	38	0	297795584	66	5449
2026-01-15 09:29:09.39	131.25	24.25	-47.6	-50.9	15.1	0.00e+00	0	38	0	299892736	66	5355
2026-01-15 09:29:10.39	131.14	24.40	-47.5	-50.7	15.3	0.00e+00	0	38	0	300941312	66	5248
2026-01-15 09:29:11.38	131.03	24.54	-47.2	-50.2	15.8	0.00e+00	0	38	0	303038464	66	4948
2026-01-15 09:29:12.37	130.92	24.68	-47.2	-50.2	15.7	0.00e+00	0	38	0	305135616	66	4972
2026-01-15 09:29:13.37	130.80	24.83	-47.2	-50.4	15.6	0.00e+00	0	38	0	307232768	66	5059
2026-01-15 09:29:14.36	130.69	24.97	-47.4	-50.6	15.5	0.00e+00	0	38	0	309329920	66	5161
2026-01-15 09:29:15.35	130.57	25.12	-47.5	-50.8	15.2	0.00e+00	0	38	0	310378496	66	5297
2026-01-15 09:29:16.35	130.45	25.27	-47.8	-51.2	14.8	0.00e+00	0	38	0	312475648	66	5573
2026-01-15 09:29:17.34	130.33	25.42	-47.7	-51.1	15.0	0.00e+00	0	38	0	314572800	66	5487
2026-01-15 09:29:18.34	130.21	25.56	-47.7	-51.1	15.0	0.00e+00	0	38	0	316669952	66	5466
2026-01-15 09:29:19.33	130.09	25.71	-47.6	-50.9	15.1	0.00e+00	0	38	0	317718528	66	5362
2026-01-15 09:29:20.32	129.97	25.86	-47.6	-50.9	15.1	0.00e+00	0	38	0	319815680	66	5386
2026-01-15 09:29:21.32	129.84	26.01	-47.9	-51.4	14.6	0.00e+00	0	38	0	321912832	66	5717
2026-01-15 09:29:22.31	129.72	26.16	-47.9	-51.4	14.7	0.00e+00	0	38	0	324009984	66	5682
2026-01-15 09:29:23.30	129.59	26.31	-47.9	-51.5	14.5	0.00e+00	0	38	0	326107136	66	5747
2026-01-15 09:29:24.30	129.47	26.47	-48.1	-51.8	14.3	0.00e+00	0	38	0	327155712	67	5610
2026-01-15 09:29:25.29	129.34	26.62	-47.7	-51.2	14.8	0.00e+00	0	38	0	329252864	67	5270
2026-01-15 09:29:26.29	129.21	26.78	-47.5	-50.8	15.3	0.00e+00	0	38	0	331350016	67	4994
2026-01-15 09:29:27.28	129.08	26.93	-47.2	-50.4	15.7	0.00e+00	0	38	0	333447168	66	5045
2026-01-15 09:29:28.27	128.95	27.08	-47.0	-50.0	16.0	0.00e+00	0	38	0	334495744	65	5137
2026-01-15 09:29:29.27	128.81	27.24	-46.8	-49.7	16.3	0.00e+00	0	38	0	336592896	65	4969
2026-01-15 09:29:30.26	128.68	27.40	-46.9	-49.9	16.1	0.00e+00	0	38	0	338690048	65	5055
2026-01-15 09:29:31.26	128.54	27.56	-47.2	-50.4	15.6	0.00e+00	0	38	0	340787200	65	5367
2026-01-15 09:29:32.25	128.40	27.71	-47.3	-50.4	15.7	0.00e+00	0	38	0	342884352	65	5354
2026-01-15 09:29:33.24	128.26	27.87	-47.2	-50.2	15.8	0.00e+00	0	38	0	343932928	65	5230
2026-01-15 09:29:34.23	128.12	28.03	-47.2	-50.4	15.8	0.00e+00	0	38	0	346030080	65	5342
2026-01-15 09:29:35.23	127.98	28.19	-47.2	-50.3	15.8	0.00e+00	0	38	0	348127232	65	5281
2026-01-15 09:29:36.22	127.84	28.35	-47.1	-50.1	16.0	0.00e+00	0	39	0	350224384	65	5170
2026-01-15 09:29:37.21	127.69	28.51	-47.1	-50.0	16.0	0.00e+00	0	38	0	351272960	65	5127
2026-01-15 09:29:38.21	127.55	28.68	-47.3	-50.4	15.6	0.00e+00	0	38	0	353370112	65	5341
2026-01-15 09:29:39.20	127.40	28.84	-47.6	-50.8	15.3	0.00e+00	0	38	0	355467264	65	5602
2026-01-15 09:29:40.20	127.25	29.00	-47.6	-50.9	15.2	0.00e+00	0	38	0	357564416	66	5361
2026-01-15 09:29:41.19	127.10	29.17	-47.3	-50.5	15.6	7.00e-07	0	38	0	359661568	66	5115
2026-01-15 09:29:42.18	126.95	29.33	-47.2	-50.4	15.7	0.00e+00	0	38	0	360710144	66	5046
2026-01-15 09:29:43.18	126.79	29.50	-47.2	-50.3	15.8	0.00e+00	0	38	0	362807296	66	4990
2026-01-15 09:29:44.17	126.64	29.67	-47.2	-50.2	15.9	0.00e+00	0	38	0	364904448	65	5233
2026-01-15 09:29:45.17	126.48	29.84	-47.4	-50.5	15.5	0.00e+00	0	38	0	367001600	65	5435
2026-01-15 09:29:46.16	126.32	30.00	-47.8	-51.1	15.1	7.00e-07	0	38	0	368050176	66	5466
2026-01-15 09:29:47.15	126.16	30.17	-48.1	-51.5	14.6	0.00e+00	0	38	0	370147328	66	5766
2026-01-15 09:29:48.15	126.00	30.34	-48.1	-51.5	14.6	0.00e+00	0	38	0	372244480	66	5780
2026-01-15 09:29:49.14	125.83	30.51	-48.1	-51.7	14.4	0.00e+00	0	38	0	374341632	67	5570
2026-01-15 09:29:50.14	125.67	30.69	-48.0	-51.4	14.7	0.00e+00	0	38	0	376438784	67	5373
2026-01-15 09:29:51.13	125.50	30.86	-47.9	-51.2	14.9	0.00e+00	0	38	0	377487360	67	5264
2026-01-15 09:29:52.12	125.33	31.03	-48.1	-51.5	14.6	7.00e-07	0	38	0	379584512	67	5463
2026-01-15 09:29:53.12	125.16	31.20	-48.2	-51.7	14.3	7.00e-07	0	38	0	381681664	67	5573
2026-01-15 09:29:54.11	124.98	31.38	-48.4	-52.1	14.0	2.20e-06	0	38	0	383778816	67	5837
2026-01-15 09:29:55.11	124.81	31.55	-48.7	-52.4	13.9	7.60e-06	0	38	0	384827392	68	5720
2026-01-15 09:29:56.10	124.63	31.73	-48.9	-52.8	13.4	6.80e-06	0	38	0	386924544	68	5989
2026-01-15 09:29:57.10	124.45	31.91	-48.9	-52.9	13.5	1.06e-05	0	38	0	389021696	68	6009
2026-01-15 09:29:58.09	124.27	32.08	-49.0	-53.0	13.4	9.90e-06	0	38	0	391118848	68	6098
2026-01-15 09:29:59.08	124.09	32.26	-48.9	-52.7	13.5	1.60e-05	0	38	0	393216000	68	5887
2026-01-15 09:30:00.07	123.90	32.44	-49.0	-52.9	13.4	1.44e-05	0	38	0	394264576	68	6039
2026-01-15 09:30:01.07	123.72	32.62	-49.0	-53.0	13.4	1.83e-05	0	38	0	396361728	68	6067
2026-01-15 09:30:02.06	123.53	32.80	-48.8	-52.6	13.7	1.22e-05	0	38	0	398458880	68	5825
2026-01-15 09:30:03.06	123.33	32.98	-48.8	-52.6	13.6	6.80e-06	0	38	0	400556032	68	5837
2026-01-15 09:30:04.05	123.14	33.16	-49.1	-53.3	13.0	2.36e-05	0	38	0	401604608	69	5928
2026-01-15 09:30:05.04	122.95	33.34	-49.3	-53.5	12.8	4.65e-05	0	38	0	403701760	69	6118
2026-01-15 09:30:06.04	122.75	33.53	-49.3	-53.7	12.7	1.19e-04	0	38	0	405798912	69	6212
2026-01-15 09:30:07.03	122.55	33.71	-49.3	-53.6	12.7	1.09e-04	0	38	0	407896064	69	6180
2026-01-15 09:30:08.02	122.34	33.90	-49.0	-53.0	13.2	3.35e-05	0	38	0	409993216	69	5782
2026-01-15 09:30:09.02	122.14	34.08	-48.6	-52.3	14.0	8.30e-06	0	38	0	411041792	69	5330
2026-01-15 09:30:10.01	121.93	34.27	-48.3	-51.8	14.5	7.00e-07	0	38	0	413138944	68	5316
2026-01-15 09:30:11.00	121.72	34.45	-48.5	-52.2	14.1	1.50e-06	0	38	0	415236096	68	5537
2026-01-15 09:30:12.00	121.51	34.64	-48.7	-52.5	13.8	1.50e-06	0	38	0	417333248	68	5746
2026-01-15 09:30:12.99	121.30	34.83	-48.7	-52.6	13.7	8.30e-06	0	38	0	418381824	68	5851
2026-01-15 09:30:13.99	121.08	35.02	-48.3	-51.8	14.5	1.52e-05	0	38	0	420478976	68	5298
2026-01-15 09:30:14.98	120.86	35.21	-48.3	-51.8	14.5	7.00e-07	0	38	0	422576128	68	5300
2026-01-15 09:30:15.97	120.64	35.40	-48.5	-52.1	14.2	0.00e+00	0	38	0	424673280	68	5468
2026-01-15 09:30:16.96	120.41	35.59	-48.4	-51.9	14.4	1.50e-06	0	38	0	426770432	68	5357
2026-01-15 09:30:17.95	120.19	35.78	-48.7	-52.5	13.8	7.00e-07	0	38	0	427819008	68	5782
2026-01-15 09:30:18.95	119.95	35.97	-48.7	-52.5	13.8	1.90e-05	0	38	0	429916160	68	5778
2026-01-15 09:30:19.94	119.72	36.16	-48.4	-52.1	14.2	7.00e-07	0	38	0	432013312	68	5469
2026-01-15 09:30:20.94	119.48	36.35	-48.3	-51.7	14.7	0.00e+00	0	38	0	434110464	68	5230
2026-01-15 09:30:21.93	119.25	36.55	-48.0	-51.2	15.0	7.00e-07	0	38	0	435159040	68	4979
2026-01-15 09:30:22.93	119.00	36.74	-48.4	-51.9	14.4	7.00e-07	0	38	0	437256192	68	5345
2026-01-15 09:30:23.92	118.76	36.94	-48.5	-52.0	14.3	1.50e-06	0	38	0	439353344	68	5446
2026-01-15 09:30:24.91	118.51	37.13	-48.5	-52.2	14.2	1.50e-06	0	38	0	441450496	68	5533
2026-01-15 09:30:25.91	118.26	37.33	-48.5	-52.2	14.1	2.20e-06	0	38	0	443547648	68	5550
2026-01-15 09:30:26.90	118.01	37.52	-48.5	-52.2	14.2	3.80e-06	0	38	0	444596224	68	5552
2026-01-15 09:30:27.90	117.75	37.72	-48.9	-52.9	13.4	8.30e-06	0	38	0	446693376	68	6045
2026-01-15 09:30:28.89	117.49	37.92	-48.9	-52.9	13.4	1.37e-05	0	38	0	448790528	68	6050
2026-01-15 09:30:29.88	117.23	38.11	-49.0	-53.0	13.5	3.80e-06	0	38	0	450887680	68	6078
2026-01-15 09:30:30.87	116.96	38.31	-48.6	-52.4	13.9	6.10e-06	0	38	0	451936256	68	5668
2026-01-15 09:30:31.87	116.69	38.51	-48.2	-51.6	14.7	3.00e-06	0	38	0	454033408	68	5180
2026-01-15 09:30:32.86	116.42	38.71	-48.3	-51.9	14.4	7.00e-07	0	38	0	456130560	68	5358
2026-01-15 09:30:33.86	116.14	38.91	-48.4	-52.0	14.2	3.00e-06	0	38	0	458227712	68	5460
2026-01-15 09:30:34.85	115.86	39.11	-49.1	-53.3	13.0	1.22e-05	0	38	0	460324864	68	6307
2026-01-15 09:30:35.84	115.58	39.31	-49.0	-53.2	13.2	5.18e-05	0	38	0	461373440	69	5858
2026-01-15 09:30:36.84	115.29	39.51	-48.8	-52.8	13.4	1.37e-05	0	38	0	463470592	69	5600
2026-01-15 09:30:37.83	115.00	39.71	-48.5	-52.2	14.1	4.50e-06	0	38	0	465567744	69	5235
2026-01-15 09:30:38.82	114.71	39.91	-48.0	-51.2	15.1	0.00e+00	0	38	0	467664896	68	4981
2026-01-15 09:30:39.81	114.41	40.11	-47.7	-50.8	15.3	0.00e+00	0	38	0	468713472	67	5021
2026-01-15 09:30:40.81	114.11	40.32	-47.6	-50.8	15.3	0.00e+00	0	38	0	470810624	67	5006
2026-01-15 09:30:41.80	113.81	40.52	-47.5	-50.5	15.6	0.00e+00	0	38	0	472907776	67	4869
2026-01-15 09:30:42.80	113.50	40.72	-47.6	-50.8	15.3	0.00e+00	0	38	0	475004928	66	5314
2026-01-15 09:30:43.79	113.18	40.92	-48.0	-51.5	14.7	0.00e+00	0	38	0	476053504	66	5727
2026-01-15 09:30:44.78	112.87	41.12	-47.7	-50.9	15.2	0.00e+00	0	38	0	478150656	66	5356
2026-01-15 09:30:45.78	112.55	41.33	-48.0	-51.3	14.8	0.00e+00	0	38	0	480247808	66	5640
2026-01-15 09:30:46.77	112.22	41.53	-48.3	-51.8	14.3	0.00e+00	0	38	0	482344960	67	5653
2026-01-15 09:30:47.76	111.89	41.73	-49.1	-53.1	13.2	5.30e-06	0	38	0	484442112	68	6174
2026-01-15 09:30:48.76	111.56	41.94	-49.7	-54.2	12.1	7.47e-05	0	38	0	485490688	69	6591
2026-01-15 09:30:49.75	111.22	42.14	-49.6	-54.0	12.4	2.07e-04	0	38	0	487587840	70	6119
2026-01-15 09:30:50.75	110.88	42.34	-49.1	-53.1	13.3	7.17e-05	0	38	0	489684992	70	5483
2026-01-15 09:30:51.74	110.53	42.54	-49.0	-53.0	13.4	2.67e-05	0	38	0	491782144	70	5408
2026-01-15 09:30:52.73	110.19	42.75	-49.0	-52.7	13.5	1.14e-05	0	38	0	492830720	69	5592
2026-01-15 09:30:53.73	109.83	42.95	-49.0	-52.8	13.4	1.44e-05	0	38	0	494927872	69	5614
2026-01-15 09:30:54.72	109.47	43.15	-49.4	-53.6	12.7	3.28e-05	0	38	0	497025024	69	6196
2026-01-15 09:30:55.72	109.10	43.35	-49.3	-53.5	12.8	5.87e-05	0	38	0	499122176	69	6087
2026-01-15 09:30:56.71	108.74	43.55	-49.5	-54.0	12.3	9.07e-05	0	38	0	501219328	69	6456
2026-01-15 09:30:57.70	108.36	43.76	-50.0	-55.0	11.5	8.70e-04	0	38	0	502267904	70	6871
2026-01-15 09:30:58.69	107.99	43.96	-50.1	-55.2	11.2	1.03e-03	0	38	0	504365056	71	6620
2026-01-15 09:30:59.69	107.60	44.16	-49.8	-54.5	11.9	6.67e-04	0	38	0	506462208	71	6075
2026-01-15 09:31:00.68	107.22	44.36	-49.7	-54.4	12.0	2.53e-04	0	38	0	508559360	71	6014
2026-01-15 09:31:01.68	106.82	44.56	-49.9	-54.7	11.5	7.50e-04	0	38	0	509607936	71	6242
2026-01-15 09:31:02.67	106.42	44.76	-49.9	-54.6	11.7	6.23e-04	0	38	0	511705088	71	6200
2026-01-15 09:31:03.66	106.02	44.96	-49.8	-54.5	11.8	5.35e-04	0	38	0	513802240	71	6111
2026-01-15 09:31:04.66	105.61	45.15	-49.9	-54.9	11.4	8.28e-04	0	38	0	515899392	71	6394
2026-01-15 09:31:05.65	105.20	45.35	-49.9	-54.8	11.6	7.64e-04	0	38	0	517996544	71	6318
2026-01-15 09:31:06.64	104.78	45.55	-49.7	-54.4	11.9	3.46e-04	0	38	0	519045120	71	6034
2026-01-15 09:31:07.64	104.36	45.74	-49.5	-53.9	12.5	1.91e-04	0	38	0	521142272	70	6001
2026-01-15 09:31:08.63	103.93	45.94	-49.4	-53.8	12.6	8.69e-05	0	38	0	523239424	70	5933
2026-01-15 09:31:09.62	103.50	46.13	-49.6	-54.2	12.0	2.01e-04	0	38	0	525336576	70	6265
2026-01-15 09:31:10.62	103.06	46.33	-48.9	-52.9	13.3	1.07e-04	0	38	0	526385152	69	5685
2026-01-15 09:31:11.61	102.61	46.52	-47.4	-50.5	15.6	7.00e-07	0	38	0	528482304	66	5135
2026-01-15 09:31:12.60	102.16	46.71	-46.7	-49.4	16.6	0.00e+00	0	38	0	530579456	65	4798
2026-01-15 09:31:13.60	101.71	46.90	-46.5	-49.3	16.7	0.00e+00	0	38	0	532676608	64	5033
2026-01-15 09:31:14.59	101.25	47.09	-46.6	-49.5	16.4	0.00e+00	0	38	0	534773760	64	5155
2026-01-15 09:31:15.58	100.78	47.28	-47.1	-50.3	15.8	0.00e+00	0	38	0	535822336	64	5626
2026-01-15 09:31:16.57	100.31	47.46	-47.4	-50.7	15.3	0.00e+00	0	38	0	537919488	65	5584
2026-01-15 09:31:17.57	99.83	47.65	-48.0	-51.7	14.3	0.00e+00	0	38	0	540016640	66	5920
2026-01-15 09:31:18.56	99.35	47.83	-48.0	-51.6	14.4	0.00e+00	0	38	0	542113792	66	5841
2026-01-15 09:31:19.55	98.86	48.01	-47.2	-50.4	15.6	0.00e+00	0	38	0	543162368	66	5095
2026-01-15 09:31:20.55	98.36	48.20	-46.9	-49.9	16.0	0.00e+00	0	38	0	545259520	65	5070
2026-01-15 09:31:21.54	97.86	48.38	-47.0	-50.1	15.8	0.00e+00	0	38	0	547356672	65	5182
2026-01-15 09:31:22.54	97.35	48.55	-47.7	-51.3	14.8	0.00e+00	0	38	0	549453824	66	5619
2026-01-15 09:31:23.53	96.84	48.73	-48.1	-52.1	13.9	7.00e-07	0	38	0	551550976	67	5802
2026-01-15 09:31:24.52	96.32	48.90	-47.6	-51.1	14.9	0.00e+00	0	38	0	552599552	67	5203
2026-01-15 09:31:25.51	95.80	49.07	-46.7	-49.7	16.2	0.00e+00	0	38	0	554696704	65	4961
2026-01-15 09:31:26.51	95.26	49.25	-46.7	-49.7	16.3	0.00e+00	0	38	0	556793856	65	4932
2026-01-15 09:31:27.50	94.73	49.41	-46.4	-49.3	16.5	0.00e+00	0	38	0	558891008	64	4989
2026-01-15 09:31:28.50	94.18	49.58	-46.4	-49.3	16.6	0.00e+00	0	38	0	560988160	64	5022
2026-01-15 09:31:29.49	93.63	49.74	-46.6	-49.7	16.2	0.00e+00	0	38	0	562036736	64	5243
2026-01-15 09:31:30.48	93.08	49.90	-47.0	-50.3	15.7	0.00e+00	0	38	0	564133888	64	5619
2026-01-15 09:31:31.48	92.52	50.06	-46.4	-49.4	16.5	0.00e+00	0	38	0	566231040	64	5085
2026-01-15 09:31:32.47	91.95	50.22	-46.4	-49.4	16.5	0.00e+00	0	38	0	568328192	64	5074
2026-01-15 09:31:33.46	91.38	50.37	-46.6	-49.7	16.3	0.00e+00	0	38	0	569376768	64	5259
2026-01-15 09:31:34.46	90.80	50.53	-47.1	-50.4	15.5	0.00e+00	0	38	0	571473920	64	5688
2026-01-15 09:31:35.45	90.22	50.68	-47.1	-50.6	15.3	0.00e+00	0	38	0	573571072	65	5495
2026-01-15 09:31:36.44	89.63	50.82	-47.2	-50.7	15.2	0.00e+00	0	38	0	575668224	65	5576
2026-01-15 09:31:37.44	89.03	50.97	-47.6	-51.5	14.4	7.00e-07	0	38	0	576716800	65	6078
2026-01-15 09:31:38.43	88.43	51.11	-47.9	-52.2	13.9	6.80e-06	0	38	0	578813952	66	6217
2026-01-15 09:31:39.42	87.83	51.24	-48.2	-52.7	13.3	1.83e-05	0	38	0	580911104	67	6255
2026-01-15 09:31:40.42	87.21	51.38	-48.4	-53.1	12.9	4.88e-05	0	38	0	583008256	67	6553
2026-01-15 09:31:41.41	86.60	51.51	-48.0	-52.2	13.8	4.65e-05	0	38	0	585105408	67	5905
2026-01-15 09:31:42.40	85.98	51.64	-47.3	-51.0	14.9	0.00e+00	0	38	0	586153984	66	5451
2026-01-15 09:31:43.40	85.35	51.77	-47.1	-50.6	15.4	0.00e+00	0	38	0	588251136	66	5188
2026-01-15 09:31:44.39	84.72	51.89	-47.3	-51.1	15.0	0.00e+00	0	38	0	590348288	66	5511
2026-01-15 09:31:45.38	84.08	52.01	-47.6	-51.7	14.4	7.00e-07	0	38	0	592445440	66	5900
2026-01-15 09:31:46.38	83.43	52.12	-47.6	-51.8	14.2	0.00e+00	0	38	0	593494016	66	5924
2026-01-15 09:31:47.37	82.78	52.23	-47.9	-52.2	13.8	0.00e+00	0	38	0	595591168	66	6240
2026-01-15 09:31:48.36	82.13	52.34	-47.9	-52.2	13.8	3.00e-06	0	38	0	597688320	66	6241
2026-01-15 09:31:49.36	81.47	52.45	-47.3	-51.1	14.8	1.50e-06	0	38	0	599785472	66	5486
2026-01-15 09:31:50.35	80.81	52.55	-47.1	-50.7	15.2	0.00e+00	0	38	0	601882624	66	5236
2026-01-15 09:31:51.34	80.15	52.64	-46.6	-49.9	15.9	0.00e+00	0	38	0	602931200	65	5070
2026-01-15 09:31:52.33	79.48	52.74	-46.0	-48.9	16.9	0.00e+00	0	38	0	605028352	63	5060
2026-01-15 09:31:53.32	78.80	52.82	-45.3	-48.0	17.8	0.00e+00	0	38	0	607125504	62	4841
2026-01-15 09:31:54.32	78.12	52.91	-45.1	-47.7	18.1	0.00e+00	0	38	0	609222656	62	4666
2026-01-15 09:31:55.31	77.44	52.99	-44.9	-47.5	18.2	0.00e+00	0	38	0	610271232	61	4818
2026-01-15 09:31:56.30	76.75	53.07	-44.1	-46.5	19.0	0.00e+00	0	38	0	612368384	60	4573
2026-01-15 09:31:57.30	76.06	53.14	-44.2	-46.5	19.0	0.00e+00	0	38	0	614465536	59	4856
2026-01-15 09:31:58.29	75.37	53.21	-45.0	-47.6	18.1	0.00e+00	0	38	0	616562688	60	5198
2026-01-15 09:31:59.29	74.66	53.28	-45.2	-47.9	17.9	0.00e+00	0	38	0	617611264	61	5064
2026-01-15 09:32:00.28	73.97	53.34	-44.9	-47.5	18.2	0.00e+00	0	38	0	619708416	61	4860
2026-01-15 09:32:01.27	73.26	53.39	-45.0	-47.7	18.0	0.00e+00	0	38	0	621805568	61	4959
2026-01-15 09:32:02.27	72.55	53.44	-45.1	-47.9	17.8	0.00e+00	0	38	0	623902720	61	5065
2026-01-15 09:32:03.26	71.85	53.49	-45.1	-47.8	17.9	0.00e+00	0	38	0	625999872	61	5015
2026-01-15 09:32:04.26	71.13	53.53	-45.1	-47.7	18.0	0.00e+00	0	38	0	627048448	61	4978
2026-01-15 09:32:05.25	70.42	53.57	-44.5	-47.0	18.6	0.00e+00	0	38	0	629145600	61	4583
2026-01-15 09:32:06.24	69.71	53.61	-44.2	-46.6	19.0	0.00e+00	0	38	0	631242752	60	4631
2026-01-15 09:32:07.24	68.99	53.63	-44.6	-47.1	18.5	0.00e+00	0	38	0	633339904	60	4892
2026-01-15 09:32:08.23	68.28	53.66	-46.0	-49.0	16.9	0.00e+00	0	38	0	634388480	62	5443
2026-01-15 09:32:09.23	67.55	53.68	-46.5	-49.8	16.2	0.00e+00	0	38	0	636485632	63	5607
2026-01-15 09:32:10.22	66.84	53.70	-46.0	-49.0	16.9	0.00e+00	0	38	0	638582784	63	5131
2026-01-15 09:32:11.21	66.12	53.71	-45.7	-48.5	17.3	0.00e+00	0	38	0	640679936	63	4849
2026-01-15 09:32:12.21	65.40	53.71	-45.8	-48.6	17.4	0.00e+00	0	38	0	642777088	63	4886
2026-01-15 09:32:13.20	64.68	53.71	-45.6	-48.3	17.6	0.00e+00	0	38	0	643825664	63	4737
2026-01-15 09:32:14.19	63.96	53.71	-45.8	-48.7	17.2	0.00e+00	0	38	0	645922816	63	4969
2026-01-15 09:32:15.19	63.24	53.70	-45.9	-48.7	17.2	0.00e+00	0	38	0	648019968	63	4982
2026-01-15 09:32:16.18	62.52	53.69	-45.8	-48.6	17.2	0.00e+00	0	38	0	650117120	63	4903
2026-01-15 09:32:17.18	61.80	53.68	-45.9	-48.8	17.1	0.00e+00	0	38	0	651165696	63	5002
2026-01-15 09:32:18.17	61.08	53.66	-46.2	-49.3	16.7	0.00e+00	0	38	0	653262848	63	5292
2026-01-15 09:32:19.16	60.37	53.63	-45.8	-48.7	17.3	0.00e+00	0	39	0	655360000	63	4943
2026-01-15 09:32:20.16	59.65	53.60	-45.4	-48.2	17.6	0.00e+00	0	38	0	657457152	62	4933
2026-01-15 09:32:21.15	58.94	53.56	-45.7	-48.6	17.3	0.00e+00	0	38	0	659554304	62	5170
2026-01-15 09:32:22.14	58.23	53.53	-45.6	-48.3	17.5	0.00e+00	0	38	0	660602880	62	5039
2026-01-15 09:32:23.14	57.51	53.48	-45.1	-47.8	18.0	0.00e+00	0	38	0	662700032	62	4730
2026-01-15 09:32:24.13	56.81	53.43	-44.9	-47.5	18.3	0.00e+00	0	38	0	664797184	61	4848
2026-01-15 09:32:25.12	56.11	53.38	-44.5	-47.0	18.7	0.00e+00	0	38	0	666894336	61	4575
2026-01-15 09:32:26.12	55.40	53.33	-44.1	-46.4	19.4	0.00e+00	0	38	0	668991488	59	4765
2026-01-15 09:32:27.11	54.70	53.26	-43.8	-46.0	19.4	0.00e+00	0	38	0	670040064	59	4588
2026-01-15 09:32:28.11	54.00	53.20	-44.3	-46.7	18.9	0.00e+00	0	38	0	672137216	59	4963
2026-01-15 09:32:29.10	53.31	53.13	-43.8	-46.1	19.4	0.00e+00	0	38	0	674234368	59	4627
2026-01-15 09:32:30.09	52.62	53.06	-43.6	-45.8	19.6	0.00e+00	0	38	0	676331520	59	4479
2026-01-15 09:32:31.09	51.93	52.98	-43.6	-45.8	19.6	0.00e+00	0	38	0	677380096	59	4487
2026-01-15 09:32:32.08	51.25	52.90	-44.4	-46.7	18.9	0.00e+00	0	38	0	679477248	59	4964
2026-01-15 09:32:33.08	50.57	52.81	-44.0	-46.2	19.3	0.00e+00	0	38	0	681574400	59	4689
2026-01-15 09:32:34.07	49.90	52.72	-44.2	-46.5	19.2	0.00e+00	0	38	0	683671552	59	4857
2026-01-15 09:32:35.06	49.23	52.63	-45.1	-47.7	18.2	0.00e+00	0	38	0	685768704	60	5247
2026-01-15 09:32:36.06	48.56	52.53	-45.5	-48.1	17.8	0.00e+00	0	38	0	686817280	61	5210
2026-01-15 09:32:37.05	47.90	52.43	-44.9	-47.3	18.5	0.00e+00	0	38	0	688914432	61	4747
2026-01-15 09:32:38.05	47.24	52.32	-44.8	-47.3	18.5	0.00e+00	0	38	0	691011584	61	4708
2026-01-15 09:32:39.04	46.59	52.21	-45.2	-47.8	18.1	0.00e+00	0	38	0	693108736	61	5006
2026-01-15 09:32:40.03	45.95	52.10	-45.4	-48.0	17.9	0.00e+00	0	38	0	694157312	61	5148
2026-01-15 09:32:41.03	45.30	51.99	-45.9	-48.6	17.4	0.00e+00	0	38	0	696254464	62	5178
2026-01-15 09:32:42.02	44.67	51.87	-46.6	-49.7	16.3	0.00e+00	0	38	0	698351616	64	5241
2026-01-15 09:32:43.01	44.04	51.74	-46.9	-50.1	15.9	0.00e+00	0	38	0	700448768	64	5477
2026-01-15 09:32:44.01	43.41	51.62	-47.2	-50.4	15.7	0.00e+00	0	38	0	702545920	65	5394
2026-01-15 09:32:45.00	42.79	51.49	-47.1	-50.2	15.8	0.00e+00	0	38	0	703594496	65	5271
2026-01-15 09:32:46.00	42.17	51.36	-46.5	-49.4	16.6	0.00e+00	0	38	0	705691648	65	4784
2026-01-15 09:32:46.99	41.56	51.22	-47.0	-50.1	15.9	0.00e+00	0	38	0	707788800	65	5195
2026-01-15 09:32:47.98	40.96	51.08	-47.1	-50.2	15.8	0.00e+00	0	38	0	709885952	65	5279
2026-01-15 09:32:48.97	40.36	50.94	-47.7	-51.1	15.0	0.00e+00	0	38	0	710934528	66	5522
2026-01-15 09:32:49.97	39.77	50.80	-48.1	-51.8	14.3	0.00e+00	0	38	0	713031680	66	5977
2026-01-15 09:32:50.96	39.18	50.65	-48.2	-52.1	14.0	3.00e-06	0	38	0	715128832	67	5831
2026-01-15 09:32:51.95	38.60	50.50	-47.7	-51.2	14.9	0.00e+00	0	38	0	717225984	67	5267
2026-01-15 09:32:52.95	38.02	50.35	-46.9	-50.0	15.9	0.00e+00	0	38	0	719323136	65	5127
2026-01-15 09:32:53.94	37.45	50.20	-47.2	-50.4	15.6	0.00e+00	0	38	0	720371712	65	5381
2026-01-15 09:32:54.93	36.89	50.04	-47.1	-50.3	15.7	0.00e+00	0	38	0	722468864	65	5309
2026-01-15 09:32:55.93	36.33	49.88	-47.2	-50.5	15.6	0.00e+00	0	38	0	724566016	65	5414
2026-01-15 09:32:56.92	35.78	49.72	-47.5	-50.9	15.1	0.00e+00	0	38	0	726663168	65	5720
2026-01-15 09:32:57.92	35.23	49.56	-47.8	-51.4	14.7	0.00e+00	0	38	0	727711744	66	5686
2026-01-15 09:32:58.91	34.69	49.39	-47.2	-50.6	15.4	0.00e+00	0	38	0	729808896	66	5161
2026-01-15 09:32:59.90	34.16	49.22	-46.6	-49.5	16.5	0.00e+00	0	38	0	731906048	65	4852
2026-01-15 09:33:00.90	33.63	49.05	-46.3	-49.2	16.9	0.00e+00	0	38	0	734003200	64	4951
2026-01-15 09:33:01.89	33.11	48.88	-46.8	-49.9	16.0	0.00e+00	0	38	0	735051776	64	5398
2026-01-15 09:33:02.88	32.59	48.71	-46.9	-50.1	15.9	0.00e+00	0	38	0	737148928	64	5472
2026-01-15 09:33:03.88	32.08	48.53	-46.6	-49.7	16.3	0.00e+00	0	38	0	739246080	64	5237
2026-01-15 09:33:04.87	31.57	48.35	-47.1	-50.4	15.6	0.00e+00	0	38	0	741343232	64	5694
2026-01-15 09:33:05.86	31.08	48.18	-47.7	-51.3	14.9	0.00e+00	0	38	0	743440384	66	5631
2026-01-15 09:33:06.86	30.58	47.99	-48.1	-52.1	14.1	7.00e-07	0	38	0	744488960	67	5800
2026-01-15 09:33:07.85	30.09	47.81	-47.4	-50.9	15.2	7.00e-07	0	38	0	746586112	66	5346
2026-01-15 09:33:08.84	29.61	47.63	-47.0	-50.2	16.0	0.00e+00	0	38	0	748683264	66	4940
2026-01-15 09:33:09.84	29.13	47.44	-47.0	-50.2	15.9	0.00e+00	0	38	0	750780416	65	5228
2026-01-15 09:33:10.83	28.66	47.26	-47.6	-51.1	15.1	0.00e+00	0	38	0	751828992	65	5789
2026-01-15 09:33:11.83	28.20	47.07	-48.0	-51.6	14.6	0.00e+00	0	38	0	753926144	66	5821
2026-01-15 09:33:12.82	27.74	46.88	-49.5	-54.2	12.2	4.80e-05	0	38	0	756023296	69	6622
2026-01-15 09:33:13.81	27.29	46.69	-50.5	-56.8	9.6	3.54e-03	0	38	0	758120448	71	7926
2026-01-15 09:33:14.81	26.84	46.50	-50.5	-56.9	9.1	3.30e-02	0	38	0	760217600	72	7630
2026-01-15 09:33:15.80	26.39	46.31	-50.1	-55.7	10.6	3.86e-03	0	38	0	761266176	72	6629
2026-01-15 09:33:16.80	25.95	46.11	-50.4	-56.5	9.9	1.29e-02	0	38	0	763363328	72	7232
2026-01-15 09:33:17.79	25.52	45.92	-50.2	-55.9	10.3	7.86e-03	0	38	0	765460480	72	6765
2026-01-15 09:33:18.78	25.10	45.73	-50.1	-55.8	10.6	9.90e-03	0	38	0	767557632	71	7070
2026-01-15 09:33:19.78	24.68	45.53	-49.4	-54.3	12.0	3.97e-04	0	38	0	768606208	70	6292
2026-01-15 09:33:20.77	24.26	45.34	-49.1	-53.8	12.6	4.78e-04	0	38	0	770703360	70	5957
2026-01-15 09:33:21.76	23.85	45.14	-48.9	-53.2	13.1	4.27e-05	0	38	0	772800512	69	5923
2026-01-15 09:33:22.76	23.44	44.94	-48.3	-52.2	14.2	1.44e-05	0	38	0	774897664	68	5545
2026-01-15 09:33:23.75	23.04	44.74	-47.5	-50.9	15.2	0.00e+00	0	38	0	776994816	67	5055
2026-01-15 09:33:24.74	22.65	44.54	-47.1	-50.2	15.8	0.00e+00	0	38	0	778043392	66	4946
2026-01-15 09:33:25.74	22.26	44.34	-46.5	-49.3	16.6	0.00e+00	0	38	0	780140544	64	5037
2026-01-15 09:33:26.73	21.87	44.15	-46.7	-49.6	16.5	0.00e+00	0	38	0	782237696	64	5192
2026-01-15 09:33:27.72	21.49	43.95	-47.3	-50.5	15.7	0.00e+00	0	38	0	784334848	65	5441
2026-01-15 09:33:28.72	21.11	43.74	-48.0	-51.5	14.6	0.00e+00	0	38	0	785383424	66	5768
2026-01-15 09:33:29.71	20.74	43.54	-48.4	-52.3	13.8	3.80e-06	0	38	0	787480576	67	5985
2026-01-15 09:33:30.71	20.37	43.34	-48.8	-52.9	13.4	1.83e-05	0	38	0	789577728	68	6016
2026-01-15 09:33:31.70	20.01	43.14	-48.8	-52.9	13.5	3.00e-06	0	38	0	791674880	68	6013
2026-01-15 09:33:32.69	19.66	42.94	-48.7	-52.9	13.4	1.06e-05	0	38	0	792723456	68	6009
2026-01-15 09:33:33.68	19.31	42.74	-49.1	-53.6	12.7	3.66e-05	0	38	0	794820608	68	6499
2026-01-15 09:33:34.68	18.95	42.54	-49.4	-54.3	12.1	1.98e-04	0	38	0	796917760	69	6648
2026-01-15 09:33:35.67	18.61	42.34	-49.3	-54.0	12.2	2.33e-04	0	38	0	799014912	69	6474
2026-01-15 09:33:36.67	18.27	42.13	-48.9	-53.3	12.9	1.40e-04	0	38	0	801112064	69	5977
2026-01-15 09:33:37.66	17.94	41.93	-48.7	-52.8	13.4	1.29e-05	0	38	0	802160640	69	5643
2026-01-15 09:33:38.65	17.61	41.73	-48.6	-52.7	13.5	9.90e-06	0	38	0	804257792	68	5874
2026-01-15 09:33:39.65	17.28	41.53	-48.1	-51.8	14.4	3.00e-06	0	38	0	806354944	68	5331
2026-01-15 09:33:40.64	16.95	41.33	-47.6	-51.0	15.0	0.00e+00	0	38	0	808452096	67	5151
2026-01-15 09:33:41.64	16.63	41.12	-47.6	-51.2	14.8	0.00e+00	0	38	0	810549248	67	5263
2026-01-15 09:33:42.63	16.32	40.92	-48.1	-52.1	14.0	7.00e-07	0	38	0	811597824	67	5804
2026-01-15 09:33:43.62	16.01	40.72	-48.8	-53.2	12.9	1.06e-05	0	38	0	813694976	68	6220
2026-01-15 09:33:44.62	15.70	40.52	-48.9	-53.6	12.7	5.79e-05	0	38	0	815792128	68	6520
2026-01-15 09:33:45.61	15.40	40.32	-48.9	-53.6	12.6	1.33e-04	0	38	0	817889280	68	6564
2026-01-15 09:33:46.61	15.10	40.12	-49.1	-54.2	12.1	1.60e-04	0	38	0	818937856	68	7001
2026-01-15 09:33:47.60	14.80	39.92	-48.8	-53.7	12.5	2.55e-04	0	39	0	821035008	68	6634
2026-01-15 09:33:48.59	14.51	39.72	-48.8	-53.6	12.7	9.38e-05	0	38	0	823132160	68	6500
2026-01-15 09:33:49.59	14.22	39.52	-48.6	-53.2	13.0	1.07e-04	0	38	0	825229312	68	6223
2026-01-15 09:33:50.58	13.94	39.32	-48.7	-53.1	13.2	3.96e-05	0	38	0	827326464	68	6165
2026-01-15 09:33:51.58	13.65	39.12	-48.5	-52.7	13.6	2.74e-05	0	38	0	828375040	68	5880
2026-01-15 09:33:52.57	13.37	38.92	-48.7	-52.9	13.4	3.50e-05	0	38	0	830472192	68	6003
2026-01-15 09:33:53.56	13.10	38.72	-48.4	-52.4	13.9	9.90e-06	0	38	0	832569344	68	5667
2026-01-15 09:33:54.56	12.83	38.52	-48.2	-52.0	14.4	2.20e-06	0	38	0	834666496	68	5407
2026-01-15 09:33:55.55	12.56	38.32	-48.1	-51.7	14.6	7.00e-07	0	38	0	835715072	68	5261
2026-01-15 09:33:56.54	12.30	38.13	-48.4	-52.3	14.1	7.00e-07	0	38	0	837812224	68	5594
2026-01-15 09:33:57.54	12.03	37.93	-48.8	-52.9	13.3	2.21e-05	0	38	0	839909376	68	6031
2026-01-15 09:33:58.53	11.78	37.73	-48.9	-53.1	13.1	2.36e-05	0	38	0	842006528	68	6152
2026-01-15 09:33:59.52	11.52	37.54	-48.8	-52.9	13.2	1.52e-05	0	38	0	844103680	68	6049
2026-01-15 09:34:00.52	11.27	37.34	-48.7	-52.9	13.4	6.10e-06	0	38	0	845152256	68	6012
2026-01-15 09:34:01.51	11.02	37.15	-48.9	-53.1	13.1	2.28e-05	0	38	0	847249408	68	6199
2026-01-15 09:34:02.50	10.78	36.96	-48.7	-53.0	13.3	2.59e-05	0	38	0	849346560	68	6072
2026-01-15 09:34:03.50	10.53	36.76	-48.5	-52.5	13.7	1.44e-05	0	38	0	851443712	68	5746
2026-01-15 09:34:04.49	10.29	36.57	-48.6	-52.7	13.6	3.00e-06	0	38	0	852492288	68	5882
2026-01-15 09:34:05.49	10.05	36.37	-48.9	-53.1	13.2	8.30e-06	0	38	0	854589440	68	6181
2026-01-15 09:34:06.48	9.82	36.18	-48.7	-52.7	13.6	6.80e-06	0	38	0	856686592	68	5889
2026-01-15 09:34:07.48	9.59	35.99	-48.8	-52.9	13.5	9.90e-06	0	38	0	858783744	68	6048
2026-01-15 09:34:08.47	9.36	35.80	-48.6	-52.7	13.6	3.80e-06	0	38	0	860880896	68	5887
2026-01-15 09:34:09.46	9.13	35.61	-48.9	-53.2	13.0	2.59e-05	0	38	0	861929472	68	6268
2026-01-15 09:34:10.46	8.91	35.42	-49.0	-53.5	12.9	7.40e-05	0	38	0	864026624	69	6095
2026-01-15 09:34:11.45	8.69	35.23	-49.3	-54.1	12.2	1.81e-04	0	38	0	866123776	69	6513
2026-01-15 09:34:12.44	8.47	35.05	-49.3	-54.0	12.4	1.62e-04	0	38	0	868220928	69	6462
2026-01-15 09:34:13.44	8.25	34.86	-49.0	-53.4	12.9	1.14e-04	0	38	0	869269504	69	6006
2026-01-15 09:34:14.43	8.04	34.67	-48.2	-51.8	14.5	7.00e-07	0	38	0	871366656	68	5329
2026-01-15 09:34:15.43	7.83	34.48	-48.1	-51.6	14.7	0.00e+00	0	38	0	873463808	68	5186
2026-01-15 09:34:16.42	7.62	34.30	-47.5	-50.9	15.2	7.00e-07	0	38	0	875560960	67	5096
2026-01-15 09:34:17.41	7.41	34.11	-48.0	-51.7	14.5	0.00e+00	0	38	0	877658112	67	5556
2026-01-15 09:34:18.41	7.21	33.93	-48.4	-52.5	13.9	3.00e-06	0	38	0	878706688	67	6076
2026-01-15 09:34:19.40	7.01	33.75	-48.6	-52.8	13.3	1.22e-05	0	38	0	880803840	67	6342
2026-01-15 09:34:20.40	6.81	33.56	-48.4	-52.5	13.6	1.67e-05	0	38	0	882900992	67	6069
2026-01-15 09:34:21.39	6.61	33.38	-47.9	-51.6	14.5	1.50e-06	0	38	0	884998144	67	5485
2026-01-15 09:34:22.38	6.42	33.20	-47.7	-51.3	14.9	0.00e+00	0	38	0	886046720	67	5284
2026-01-15 09:34:23.37	6.23	33.02	-47.9	-51.5	14.6	0.00e+00	0	38	0	888143872	67	5448
2026-01-15 09:34:24.37	6.03	32.84	-48.1	-51.9	14.3	7.00e-07	0	38	0	890241024	67	5684
2026-01-15 09:34:25.36	5.85	32.66	-48.0	-51.7	14.4	0.00e+00	0	38	0	892338176	67	5558
2026-01-15 09:34:26.36	5.66	32.48	-48.1	-51.8	14.3	7.00e-07	0	39	0	894435328	67	5639
2026-01-15 09:34:27.35	5.48	32.30	-48.2	-51.9	14.2	0.00e+00	0	38	0	895483904	67	5671
2026-01-15 09:34:28.34	5.30	32.13	-48.5	-52.5	13.7	2.20e-06	0	38	0	897581056	67	6092
2026-01-15 09:34:29.34	5.11	31.95	-48.7	-52.7	13.6	8.30e-06	0	38	0	899678208	68	5918
2026-01-15 09:34:30.33	4.94	31.77	-49.2	-53.7	12.6	4.57e-05	0	38	0	901775360	69	6248
2026-01-15 09:34:31.32	4.76	31.60	-49.2	-53.5	12.8	5.18e-05	0	38	0	902823936	69	6110
2026-01-15 09:34:32.32	4.59	31.42	-48.7	-52.8	13.5	7.60e-06	0	38	0	904921088	69	5597
2026-01-15 09:34:33.31	4.41	31.25	-47.8	-51.3	14.9	0.00e+00	0	38	0	907018240	67	5294
2026-01-15 09:34:34.31	4.24	31.08	-47.7	-51.1	15.0	0.00e+00	0	38	0	909115392	66	5482
2026-01-15 09:34:35.30	4.08	30.91	-47.4	-50.7	15.4	0.00e+00	0	38	0	911212544	66	5241
2026-01-15 09:34:36.29	3.91	30.74	-47.5	-50.8	15.3	0.00e+00	0	38	0	912261120	66	5317
2026-01-15 09:34:37.28	3.74	30.57	-48.0	-51.7	14.4	0.00e+00	0	38	0	914358272	66	5894
2026-01-15 09:34:38.28	3.58	30.39	-48.2	-52.1	14.1	0.00e+00	0	38	0	916455424	67	5792
2026-01-15 09:34:39.27	3.42	30.23	-48.2	-52.0	14.1	2.20e-06	0	38	0	918552576	67	5739
2026-01-15 09:34:40.26	3.26	30.06	-47.7	-51.1	15.0	0.00e+00	0	38	0	919601152	67	5187
2026-01-15 09:34:41.26	3.10	29.89	-47.8	-51.2	14.9	0.00e+00	0	38	0	921698304	67	5279
2026-01-15 09:34:42.25	2.95	29.72	-47.6	-50.9	15.3	0.00e+00	0	38	0	923795456	67	5057
2026-01-15 09:34:43.24	2.79	29.56	-47.9	-51.3	14.8	0.00e+00	0	38	0	925892608	67	5308
2026-01-15 09:34:44.24	2.64	29.39	-47.8	-51.3	14.9	0.00e+00	0	38	0	926941184	67	5284
2026-01-15 09:34:45.23	2.49	29.23	-47.8	-51.3	14.8	0.00e+00	0	38	0	929038336	67	5303
2026-01-15 09:34:46.22	2.34	29.06	-47.7	-51.0	15.1	0.00e+00	0	38	0	931135488	67	5118
2026-01-15 09:34:47.22	2.19	28.90	-47.1	-50.1	16.0	0.00e+00	0	38	0	933232640	66	4910
2026-01-15 09:34:48.21	2.04	28.74	-46.8	-49.8	16.2	2.28e-05	0	38	0	935329792	65	4999
2026-01-15 09:34:49.21	1.90	28.58	-46.5	-49.3	16.7	0.00e+00	0	38	0	936378368	64	5009
2026-01-15 09:34:50.20	1.75	28.41	-46.3	-49.0	16.9	0.00e+00	0	38	0	938475520	64	4856
2026-01-15 09:34:51.19	1.61	28.26	-46.5	-49.4	16.6	0.00e+00	0	38	0	940572672	64	5063
2026-01-15 09:34:52.18	1.47	28.10	-46.8	-49.8	16.2	0.00e+00	0	38	0	942669824	64	5295
2026-01-15 09:34:53.18	1.33	27.94	-47.1	-50.2	15.8	0.00e+00	0	38	0	943718400	64	5570
2026-01-15 09:34:54.17	1.19	27.78	-47.6	-50.9	15.1	0.00e+00	0	38	0	945815552	65	5705
2026-01-15 09:34:55.17	1.05	27.62	-47.6	-51.0	15.0	0.00e+00	0	38	0	947912704	65	5772
2026-01-15 09:34:56.16	0.92	27.46	-47.5	-50.7	15.4	0.00e+00	0	38	0	950009856	65	5580
2026-01-15 09:34:57.15	0.79	27.31	-47.6	-50.9	15.1	0.00e+00	0	38	0	952107008	65	5696
2026-01-15 09:34:58.15	0.65	27.15	-47.9	-51.4	15.0	0.00e+00	0	38	0	953155584	66	5668
2026-01-15 09:34:59.14	0.52	27.00	-47.8	-51.2	14.9	0.00e+00	0	38	0	955252736	66	5549
2026-01-15 09:35:00.13	0.39	26.85	-48.0	-51.6	14.5	7.00e-07	0	38	0	957349888	66	5847
2026-01-15 09:35:01.13	0.26	26.69	-48.2	-52.0	14.2	7.00e-07	0	38	0	959447040	67	5725
2026-01-15 09:35:02.12	0.14	26.54	-48.2	-51.9	14.2	7.00e-07	0	38	0	960495616	67	5682
2026-01-15 09:35:03.12	0.01	26.39	-48.0	-51.6	14.4	7.00e-07	0	38	0	962592768	67	5518
2026-01-15 09:35:04.11	359.88	26.24	-47.6	-50.9	15.1	7.00e-07	0	38	0	964689920	67	5081
2026-01-15 09:35:05.10	359.76	26.09	-47.3	-50.5	15.5	0.00e+00	0	39	0	966787072	66	5154
2026-01-15 09:35:06.10	359.64	25.94	-47.0	-50.1	16.0	0.00e+00	0	38	0	968884224	66	4873
2026-01-15 09:35:07.09	359.52	25.79	-46.9	-50.0	16.1	0.00e+00	0	38	0	969932800	65	5133
2026-01-15 09:35:08.09	359.40	25.64	-46.9	-50.0	16.0	0.00e+00	0	38	0	972029952	65	5149
2026-01-15 09:35:09.08	359.28	25.49	-47.2	-50.5	15.6	0.00e+00	0	38	0	974127104	65	5428
2026-01-15 09:35:10.07	359.16	25.35	-47.4	-51.0	15.1	0.00e+00	0	38	0	976224256	65	5752
2026-01-15 09:35:11.06	359.04	25.20	-47.7	-51.5	14.6	7.00e-07	0	38	0	977272832	65	6105
2026-01-15 09:35:12.06	358.93	25.05	-47.8	-51.9	14.3	7.00e-07	0	38	0	979369984	66	6033
2026-01-15 09:35:13.05	358.81	24.91	-47.9	-52.1	14.0	2.20e-06	0	38	0	981467136	66	6165
2026-01-15 09:35:14.04	358.70	24.77	-47.9	-52.2	13.9	1.50e-06	0	38	0	983564288	66	6261
2026-01-15 09:35:15.04	358.59	24.62	-47.9	-52.2	14.0	5.30e-06	0	38	0	985661440	66	6216
2026-01-15 09:35:16.03	358.48	24.48	-48.0	-52.3	13.8	6.10e-06	0	38	0	986710016	66	6293
2026-01-15 09:35:17.02	358.37	24.34	-47.9	-52.0	14.1	7.00e-07	0	38	0	988807168	66	6124
2026-01-15 09:35:18.02	358.26	24.19	-47.9	-52.0	14.1	0.00e+00	0	38	0	990904320	66	6124
2026-01-15 09:35:19.01	358.15	24.05	-48.1	-52.3	13.8	3.80e-06	0	38	0	993001472	66	6315
2026-01-15 09:35:20.00	358.04	23.91	-48.5	-52.9	13.2	7.60e-06	0	38	0	994050048	67	6365
2026-01-15 09:35:21.00	357.93	23.77	-48.6	-53.0	13.1	2.67e-05	0	38	0	996147200	67	6468
2026-01-15 09:35:21.99	357.83	23.64	-48.5	-52.8	13.3	3.43e-05	0	38	0	998244352	67	6280
2026-01-15 09:35:22.98	357.72	23.50	-48.6	-52.9	13.2	1.75e-05	0	38	0	1000341504	67	6398
2026-01-15 09:35:23.98	357.62	23.36	-48.5	-52.6	13.6	8.30e-06	0	38	0	1002438656	67	6161
2026-01-15 09:35:24.97	357.52	23.22	-48.1	-52.0	14.0	3.00e-06	0	38	0	1003487232	67	5782
2026-01-15 09:35:25.97	357.42	23.09	-48.0	-51.7	14.4	7.00e-07	0	38	0	1005584384	67	5563
2026-01-15 09:35:26.96	357.32	22.95	-47.9	-51.6	14.5	0.00e+00	0	38	0	1007681536	67	5512
2026-01-15 09:35:27.95	357.22	22.82	-47.7	-51.3	14.8	7.00e-07	0	38	0	1009778688	67	5282
2026-01-15 09:35:28.95	357.12	22.68	-47.7	-51.2	14.9	7.00e-07	0	38	0	1010827264	67	5242
2026-01-15 09:35:29.94	357.02	22.55	-47.8	-51.4	14.6	0.00e+00	0	38	0	1012924416	67	5377
2026-01-15 09:35:30.93	356.92	22.41	-47.8	-51.3	14.7	0.00e+00	0	38	0	1015021568	67	5327
2026-01-15 09:35:31.93	356.82	22.28	-47.8	-51.3	14.7	0.00e+00	0	38	0	1017118720	67	5322
2026-01-15 09:35:32.92	356.73	22.15	-47.8	-51.3	14.8	0.00e+00	0	38	0	1019215872	67	5324
2026-01-15 09:35:33.91	356.64	22.02	-47.9	-51.4	14.6	7.00e-07	0	38	0	1020264448	67	5378
2026-01-15 09:35:34.91	356.54	21.89	-47.7	-51.2	14.9	0.00e+00	0	39	0	1022361600	67	5224
2026-01-15 09:35:35.90	356.45	21.76	-47.6	-51.0	15.1	0.00e+00	0	38	0	1024458752	67	5155
2026-01-15 09:35:36.89	356.36	21.63	-47.5	-50.8	15.2	7.00e-07	0	38	0	1026555904	66	5316
2026-01-15 09:35:37.88	356.27	21.50	-47.3	-50.5	15.5	0.00e+00	0	38	0	1027604480	66	5130
2026-01-15 09:35:38.88	356.17	21.37	-47.1	-50.2	15.8	0.00e+00	0	38	0	1029701632	66	4949
2026-01-15 09:35:39.87	356.08	21.24	-47.0	-50.1	15.8	0.00e+00	0	38	0	1031798784	66	4923
2026-01-15 09:35:40.86	356.00	21.11	-46.9	-50.1	15.9	0.00e+00	0	38	0	1033895936	65	5174
2026-01-15 09:35:41.86	355.91	20.99	-47.0	-50.2	15.8	0.00e+00	0	38	0	1035993088	65	5225
2026-01-15 09:35:42.85	355.82	20.86	-47.1	-50.3	15.7	0.00e+00	0	38	0	1037041664	65	5306
2026-01-15 09:35:43.84	355.73	20.73	-47.3	-50.6	15.4	0.00e+00	0	38	0	1039138816	65	5494
2026-01-15 09:35:44.84	355.65	20.61	-47.5	-51.1	15.0	0.00e+00	0	38	0	1041235968	65	5790
2026-01-15 09:35:45.83	355.56	20.48	-47.8	-51.6	14.5	0.00e+00	0	38	0	1043333120	66	5795
2026-01-15 09:35:46.82	355.48	20.36	-48.1	-52.0	14.1	7.00e-07	0	38	0	1044381696	66	6090
2026-01-15 09:35:47.81	355.39	20.24	-48.3	-52.5	13.6	3.00e-06	0	38	0	1046478848	67	6101
2026-01-15 09:35:48.81	355.31	20.11	-48.6	-53.2	12.9	2.97e-05	0	38	0	1048576000	67	6640
2026-01-15 09:35:49.80	355.23	19.99	-48.6	-53.3	12.9	3.28e-05	0	38	0	1050673152	67	6663
2026-01-15 09:35:50.80	355.14	19.87	-48.9	-53.9	12.3	1.32e-04	0	38	0	1052770304	68	6754
2026-01-15 09:35:51.79	355.06	19.75	-48.8	-53.9	12.3	1.81e-04	0	38	0	1053818880	68	6730
2026-01-15 09:35:52.78	354.98	19.63	-48.7	-53.9	12.4	1.80e-04	0	38	0	1055916032	68	6788
2026-01-15 09:35:53.78	354.90	19.51	-48.4	-53.4	12.8	7.78e-05	0	39	0	1058013184	68	6397
2026-01-15 09:35:54.77	354.82	19.39	-48.3	-53.3	12.9	4.11e-05	0	38	0	1060110336	68	6294
2026-01-15 09:35:55.76	354.75	19.27	-47.8	-52.4	13.6	3.12e-05	0	38	0	1061158912	67	6041
2026-01-15 09:35:56.76	354.67	19.15	-47.7	-52.2	13.9	3.00e-06	0	39	0	1063256064	67	5863
2026-01-15 09:35:57.75	354.59	19.03	-47.7	-52.0	14.1	9.90e-06	0	38	0	1065353216	67	5724
2026-01-15 09:35:58.75	354.51	18.91	-47.5	-51.5	14.5	0.00e+00	0	38	0	1067450368	66	5779
2026-01-15 09:35:59.74	354.44	18.79	-47.4	-51.2	14.8	0.00e+00	0	38	0	1068498944	66	5543
2026-01-15 09:36:00.74	354.36	18.68	-47.3	-51.0	15.0	0.00e+00	0	39	0	1070596096	66	5416
2026-01-15 09:36:01.73	354.29	18.56	-47.1	-50.8	15.2	0.00e+00	0	38	0	1072693248	66	5285
2026-01-15 09:36:02.72	354.21	18.45	-46.9	-50.4	15.6	0.00e+00	0	38	0	1074790400	65	5347
2026-01-15 09:36:03.72	354.14	18.33	-46.9	-50.4	15.6	0.00e+00	0	38	0	1076887552	65	5374
2026-01-15 09:36:04.71	354.07	18.22	-46.6	-49.9	16.0	0.00e+00	0	38	0	1077936128	65	5090
2026-01-15 09:36:05.71	353.99	18.10	-46.6	-49.9	16.0	0.00e+00	0	38	0	1080033280	64	5364
2026-01-15 09:36:06.70	353.92	17.99	-46.7	-49.9	16.0	0.00e+00	0	39	0	1082130432	64	5383
2026-01-15 09:36:07.69	353.85	17.87	-46.6	-49.8	16.1	0.00e+00	0	38	0	1084227584	64	5332
2026-01-15 09:36:08.69	353.78	17.76	-46.6	-49.7	16.2	0.00e+00	0	38	0	1085276160	64	5276
2026-01-15 09:36:09.68	353.71	17.65	-46.7	-49.8	16.1	0.00e+00	0	38	0	1087373312	64	5293
2026-01-15 09:36:10.67	353.64	17.54	-46.6	-49.6	16.3	0.00e+00	0	38	0	1089470464	64	5209
2026-01-15 09:36:11.67	353.57	17.42	-46.9	-50.1	15.9	0.00e+00	0	38	0	1091567616	64	5468
2026-01-15 09:36:12.66	353.50	17.31	-46.9	-50.1	15.8	0.00e+00	0	38	0	1093664768	64	5487
2026-01-15 09:36:13.65	353.43	17.20	-47.2	-50.5	15.4	0.00e+00	0	38	0	1094713344	65	5458
2026-01-15 09:36:14.65	353.37	17.09	-47.2	-50.7	15.3	0.00e+00	0	38	0	1096810496	65	5529
2026-01-15 09:36:15.64	353.30	16.98	-47.2	-50.7	15.3	0.00e+00	0	38	0	1098907648	65	5552
2026-01-15 09:36:16.63	353.23	16.88	-47.3	-51.0	15.0	0.00e+00	0	38	0	1101004800	65	5728
2026-01-15 09:36:17.63	353.17	16.77	-47.3	-51.1	14.9	0.00e+00	0	38	0	1102053376	65	5803
2026-01-15 09:36:18.62	353.10	16.66	-47.2	-51.0	15.0	0.00e+00	0	38	0	1104150528	65	5759
2026-01-15 09:36:19.61	353.04	16.55	-47.3	-51.3	14.7	0.00e+00	0	38	0	1106247680	65	5951
2026-01-15 09:36:20.61	352.97	16.44	-47.3	-51.3	14.6	0.00e+00	0	38	0	1108344832	65	5961
2026-01-15 09:36:21.60	352.91	16.34	-47.3	-51.3	14.7	0.00e+00	0	38	0	1110441984	65	5948
2026-01-15 09:36:22.59	352.85	16.23	-47.2	-51.1	14.8	0.00e+00	0	38	0	1111490560	65	5830
2026-01-15 09:36:23.59	352.78	16.12	-47.4	-51.5	14.4	7.00e-07	0	38	0	1113587712	65	6123
2026-01-15 09:36:24.58	352.72	16.02	-47.2	-51.2	14.8	0.00e+00	0	38	0	1115684864	65	5872
2026-01-15 09:36:25.57	352.66	15.91	-47.2	-51.1	14.8	0.00e+00	0	38	0	1117782016	65	5815
2026-01-15 09:36:26.57	352.60	15.81	-47.4	-51.3	14.6	0.00e+00	0	38	0	1118830592	65	5956
2026-01-15 09:36:27.56	352.53	15.70	-47.3	-51.2	14.8	7.00e-07	0	38	0	1120927744	65	5873
2026-01-15 09:36:28.56	352.47	15.60	-47.2	-51.0	15.0	0.00e+00	0	38	0	1123024896	65	5735
2026-01-15 09:36:29.55	352.41	15.49	-47.4	-51.3	14.6	0.00e+00	0	38	0	1125122048	65	5970
2026-01-15 09:36:30.54	352.35	15.39	-47.4	-51.2	14.7	7.00e-07	0	38	0	1127219200	65	5922
2026-01-15 09:36:31.54	352.29	15.29	-47.4	-51.3	14.5	0.00e+00	0	38	0	1128267776	65	5958
2026-01-15 09:36:32.53	352.23	15.19	-47.5	-51.5	14.5	0.00e+00	0	38	0	1130364928	65	6071
2026-01-15 09:36:33.52	352.18	15.08	-47.5	-51.6	14.3	1.50e-06	0	38	0	1132462080	65	6191
2026-01-15 09:36:34.52	352.12	14.98	-47.6	-51.8	14.1	1.50e-06	0	38	0	1134559232	65	6306
2026-01-15 09:36:35.51	352.06	14.88	-47.6	-51.8	14.1	1.50e-06	0	38	0	1135607808	66	5961
2026-01-15 09:36:36.50	352.00	14.78	-47.8	-52.2	13.7	4.50e-06	0	39	0	1137704960	66	6247
2026-01-15 09:36:37.50	351.95	14.68	-47.8	-51.9	14.0	7.00e-07	0	38	0	1139802112	66	6055
2026-01-15 09:36:38.49	351.89	14.58	-48.0	-52.2	13.7	1.50e-06	0	38	0	1141899264	66	6251
2026-01-15 09:36:39.48	351.83	14.48	-48.1	-52.1	13.8	3.00e-06	0	38	0	1143996416	67	5852
2026-01-15 09:36:40.48	351.78	14.38	-48.0	-52.1	13.9	1.50e-06	0	38	0	1145044992	67	5793
2026-01-15 09:36:41.47	351.72	14.28	-48.1	-52.4	13.5	6.10e-06	0	38	0	1147142144	67	6040
2026-01-15 09:36:42.47	351.67	14.18	-47.9	-52.1	13.8	7.60e-06	0	39	0	1149239296	67	5854
2026-01-15 09:36:43.46	351.61	14.08	-47.8	-52.0	13.9	3.00e-06	0	38	0	1151336448	67	5763
2026-01-15 09:36:44.45	351.56	13.99	-47.8	-52.0	14.0	7.00e-07	0	38	0	1152385024	67	5734
2026-01-15 09:36:45.44	351.51	13.89	-47.6	-51.6	14.3	1.50e-06	0	38	0	1154482176	67	5486
2026-01-15 09:36:46.44	351.45	13.79	-47.4	-51.3	14.7	2.20e-06	0	39	0	1156579328	66	5605
2026-01-15 09:36:47.43	351.40	13.70	-47.4	-51.3	14.7	7.00e-07	0	39	0	1158676480	66	5604
2026-01-15 09:36:48.42	351.35	13.60	-47.4	-51.3	14.6	1.50e-06	0	38	0	1160773632	66	5634
2026-01-15 09:36:49.42	351.29	13.50	-47.0	-50.9	15.0	0.00e+00	0	38	0	1161822208	66	5357
2026-01-15 09:36:50.41	351.24	13.41	-47.0	-50.9	15.0	0.00e+00	0	39	0	1163919360	65	5687
2026-01-15 09:36:51.40	351.19	13.31	-46.8	-50.8	15.1	0.00e+00	0	38	0	1166016512	65	5617
2026-01-15 09:36:52.40	351.14	13.22	-46.5	-50.6	15.3	0.00e+00	0	39	0	1168113664	65	5480
2026-01-15 09:36:53.39	351.09	13.12	-46.5	-50.6	15.2	0.00e+00	0	39	0	1169162240	64	5848
2026-01-15 09:36:54.38	351.04	13.03	-46.3	-50.4	15.5	0.00e+00	0	39	0	1171259392	64	5666
2026-01-15 09:36:55.38	350.99	12.93	-46.3	-50.5	15.4	0.00e+00	0	38	0	1173356544	64	5746
2026-01-15 09:36:56.37	350.94	12.84	-46.4	-50.6	15.2	0.00e+00	0	38	0	1175453696	64	5818
2026-01-15 09:36:57.37	350.89	12.75	-46.4	-50.5	15.4	0.00e+00	0	38	0	1177550848	64	5732
2026-01-15 09:36:58.36	350.84	12.65	-46.6	-50.7	15.1	0.00e+00	0	39	0	1178599424	64	5896
2026-01-15 09:36:59.35	350.79	12.56	-46.5	-50.6	15.3	0.00e+00	0	39	0	1180696576	64	5817
2026-01-15 09:37:00.35	350.74	12.47	-46.6	-50.6	15.2	0.00e+00	0	39	0	1182793728	64	5849
2026-01-15 09:37:01.34	350.69	12.38	-46.8	-51.0	14.9	0.00e+00	0	39	0	1184890880	64	6085
2026-01-15 09:37:02.34	350.65	12.29	-46.9	-51.1	14.7	0.00e+00	0	39	0	1185939456	64	6200
2026-01-15 09:37:03.33	350.60	12.19	-46.9	-51.2	14.7	0.00e+00	0	39	0	1188036608	64	6218
2026-01-15 09:37:04.32	350.55	12.10	-47.2	-51.6	14.3	0.00e+00	0	39	0	1190133760	65	6149
2026-01-15 09:37:05.32	350.50	12.01	-47.1	-51.5	14.4	7.00e-07	0	38	0	1192230912	65	6070
2026-01-15 09:37:06.31	350.46	11.92	-47.2	-51.6	14.3	1.50e-06	0	39	0	1194328064	65	6174
2026-01-15 09:37:07.31	350.41	11.83	-47.3	-51.8	14.0	2.20e-06	0	38	0	1195376640	65	6334
2026-01-15 09:37:08.30	350.37	11.74	-47.2	-51.8	14.0	3.00e-06	0	39	0	1197473792	65	6340
2026-01-15 09:37:09.29	350.32	11.65	-47.2	-51.9	14.0	1.50e-06	0	38	0	1199570944	65	6353
2026-01-15 09:37:10.29	350.27	11.56	-47.2	-52.1	13.8	5.30e-06	0	38	0	1201668096	65	6543
2026-01-15 09:37:11.28	350.23	11.48	-47.1	-52.2	13.7	4.50e-06	0	39	0	1202716672	65	6601
2026-01-15 09:37:12.27	350.19	11.39	-47.0	-52.2	13.7	6.80e-06	0	39	0	1204813824	65	6589
2026-01-15 09:37:13.27	350.14	11.30	-46.9	-52.4	13.4	6.10e-06	0	39	0	1206910976	65	6787
2026-01-15 09:37:14.26	350.10	11.21	-46.7	-52.1	13.7	1.37e-05	0	39	0	1209008128	65	6536
2026-01-15 09:37:15.25	350.05	11.12	-46.6	-52.3	13.6	1.50e-06	0	39	0	1211105280	65	6647
2026-01-15 09:37:16.25	350.01	11.04	-46.6	-52.4	13.4	9.10e-06	0	39	0	1212153856	65	6767
2026-01-15 09:37:17.24	349.97	10.95	-46.3	-52.2	13.7	6.80e-06	0	38	0	1214251008	64	6998
2026-01-15 09:37:18.24	349.92	10.86	-46.3	-52.2	13.6	6.10e-06	0	38	0	1216348160	64	6973
2026-01-15 09:37:19.23	349.88	10.78	-46.4	-52.3	13.5	3.00e-06	0	38	0	1218445312	64	7098
2026-01-15 09:37:20.22	349.84	10.69	-46.3	-52.1	13.8	8.30e-06	0	39	0	1219493888	64	6897
