passes_logs/2026/01/15/T1/T1__20260115_085640_NOAA_21_JPSS-2_rec.log

#Pass ID: 20260115_085640_NOAA 21 (JPSS-2)
#Satellite: NOAA 21 (JPSS-2)
#Configuration: NOAA 21
#almurnet v.1.7.20251203
#Start time: 2026-01-15 08:56:41

#Version: 2.0.20230620
#Station: T1
#Location: 37.570604 lon 55.790049 lat
#TLE: 1 54234U 22150A   26014.58979933  .00000039  00000+0  39403-4 0  9998
#TLE: 2 54234  98.7497 315.4945 0000653 294.6373  65.4735 14.19534652164756

#Time	Az	El	Level	Level2	SNR	BER	BlckErr	Temp	State	Recorded	gain1	gain2
2026-01-15 08:56:41.84	129.38	5.10	-50.2	-63.2	3.8	1.49e+00	0	36	0	0	71	16527
2026-01-15 08:56:42.83	129.33	5.17	-50.2	-63.2	3.8	1.49e+00	0	36	104	0	72	15643
2026-01-15 08:56:43.83	129.28	5.24	-50.2	-63.2	3.8	1.49e+00	0	36	104	0	72	15685
2026-01-15 08:56:44.83	129.23	5.30	-50.1	-63.2	3.8	1.49e+00	0	36	104	0	72	15739
2026-01-15 08:56:45.83	129.18	5.37	-50.2	-63.3	3.8	1.49e+00	0	36	104	0	72	15777
2026-01-15 08:56:46.83	129.13	5.44	-50.2	-63.2	3.8	1.49e+00	0	36	104	0	72	15708
2026-01-15 08:56:47.83	129.07	5.51	-50.1	-63.3	3.8	1.49e+00	0	36	104	0	72	15774
2026-01-15 08:56:48.83	129.02	5.58	-50.2	-63.3	3.8	1.49e+00	0	36	104	0	72	15806
2026-01-15 08:56:49.83	128.97	5.65	-50.0	-63.3	3.8	1.49e+00	0	36	104	0	72	15792
2026-01-15 08:56:50.83	128.92	5.72	-50.0	-63.2	3.8	1.49e+00	0	36	104	0	72	15667
2026-01-15 08:56:51.82	128.86	5.79	-50.2	-63.2	3.8	1.49e+00	0	36	104	0	72	15585
2026-01-15 08:56:52.82	128.81	5.86	-50.0	-63.0	3.8	1.49e+00	0	36	104	0	72	15363
2026-01-15 08:56:53.82	128.76	5.93	-50.0	-62.9	3.8	1.49e+00	0	37	104	0	72	15159
2026-01-15 08:56:54.82	128.70	6.00	-50.1	-62.8	3.8	1.49e+00	0	36	104	0	72	15022
2026-01-15 08:56:55.82	128.65	6.07	-50.0	-62.7	3.8	1.49e+00	0	36	104	0	72	14798
2026-01-15 08:56:56.82	128.60	6.14	-50.0	-62.6	3.8	1.49e+00	0	36	104	0	72	14587
2026-01-15 08:56:57.82	128.54	6.21	-50.1	-62.5	3.8	1.49e+00	0	37	104	0	72	14466
2026-01-15 08:56:58.81	128.49	6.28	-50.0	-62.4	3.8	1.49e+00	0	37	104	0	72	14269
2026-01-15 08:56:59.81	128.43	6.35	-50.0	-62.4	3.8	1.49e+00	0	37	104	0	71	15114
2026-01-15 08:57:00.81	128.38	6.42	-50.1	-62.4	3.8	1.49e+00	0	37	104	0	71	15119
2026-01-15 08:57:01.81	128.32	6.49	-50.0	-62.4	3.8	1.49e+00	0	36	104	0	71	15166
2026-01-15 08:57:02.81	128.26	6.56	-50.0	-62.5	3.8	1.49e+00	0	37	104	0	71	15284
2026-01-15 08:57:03.81	128.21	6.63	-50.1	-62.6	3.8	1.49e+00	0	37	104	0	71	15545
2026-01-15 08:57:04.81	128.15	6.70	-50.1	-62.8	3.8	1.49e+00	0	37	104	0	71	15766
2026-01-15 08:57:05.81	128.09	6.77	-50.2	-62.8	3.8	1.49e+00	0	37	104	0	71	15888
2026-01-15 08:57:06.80	128.04	6.85	-50.2	-62.8	3.8	1.49e+00	0	37	104	0	71	15935
2026-01-15 08:57:07.80	127.98	6.92	-50.1	-62.8	3.8	1.49e+00	0	37	104	0	71	15906
2026-01-15 08:57:08.80	127.92	6.99	-50.2	-62.8	3.8	1.49e+00	0	37	104	0	71	15943
2026-01-15 08:57:09.79	127.86	7.06	-50.2	-62.9	3.8	1.49e+00	0	37	104	0	71	15985
2026-01-15 08:57:10.79	127.81	7.13	-50.1	-63.0	3.8	1.49e+00	0	37	104	0	71	16161
2026-01-15 08:57:11.79	127.75	7.21	-50.2	-63.2	3.8	1.49e+00	0	37	104	0	71	16592
2026-01-15 08:57:12.79	127.69	7.28	-50.1	-63.3	3.8	1.49e+00	0	37	104	0	71	16820
2026-01-15 08:57:13.79	127.63	7.35	-50.2	-62.9	3.8	1.49e+00	0	37	104	0	71	16092
2026-01-15 08:57:14.79	127.57	7.43	-50.0	-61.6	3.8	1.49e+00	0	37	104	0	71	13804
2026-01-15 08:57:15.79	127.51	7.50	-49.7	-59.1	4.4	1.47e+00	0	37	104	0	71	10318
2026-01-15 08:57:16.78	127.45	7.57	-49.3	-56.7	5.6	5.84e-01	0	37	0	0	70	8319
2026-01-15 08:57:17.78	127.39	7.65	-48.6	-54.5	7.5	1.49e-01	0	37	0	0	69	6829
2026-01-15 08:57:18.78	127.33	7.72	-47.8	-52.4	9.3	2.41e-02	0	37	0	0	67	6059
2026-01-15 08:57:19.78	127.27	7.80	-46.9	-50.8	11.0	4.66e-03	0	37	0	0	65	5646
2026-01-15 08:57:20.78	127.20	7.87	-46.2	-49.5	12.3	3.87e-04	0	37	0	0	64	5139
2026-01-15 08:57:21.78	127.14	7.94	-45.6	-48.6	13.3	2.44e-05	0	37	0	0	63	4908
2026-01-15 08:57:22.78	127.08	8.02	-45.0	-47.8	14.2	3.80e-06	0	37	0	0	62	4710
2026-01-15 08:57:23.78	127.02	8.09	-44.7	-47.3	14.6	0.00e+00	0	37	0	0	61	4740
2026-01-15 08:57:24.78	126.95	8.17	-44.5	-47.1	14.9	7.00e-07	0	37	0	0	61	4600
2026-01-15 08:57:25.78	126.89	8.25	-44.5	-47.0	15.0	0.00e+00	0	37	0	0	60	4844
2026-01-15 08:57:26.78	126.83	8.32	-44.6	-47.3	14.7	7.00e-07	0	37	0	0	60	4997
2026-01-15 08:57:27.78	126.76	8.40	-45.0	-47.8	14.2	1.50e-06	0	37	0	0	60	5288
2026-01-15 08:57:28.77	126.70	8.47	-45.6	-48.6	13.4	9.90e-06	0	37	0	0	61	5485
2026-01-15 08:57:29.78	126.63	8.55	-46.3	-49.6	12.3	1.20e-04	0	37	0	0	63	5525
2026-01-15 08:57:30.78	126.57	8.62	-46.9	-50.9	11.0	8.54e-04	0	37	0	0	64	6040
2026-01-15 08:57:31.78	126.50	8.70	-47.8	-52.8	9.0	1.18e-02	0	37	0	0	66	6668
2026-01-15 08:57:32.78	126.44	8.78	-48.9	-55.1	6.9	1.04e-01	0	37	0	0	68	7787
2026-01-15 08:57:33.77	126.37	8.85	-49.5	-57.9	4.9	5.55e-01	0	37	0	0	69	10073
2026-01-15 08:57:34.77	126.31	8.93	-49.9	-60.6	4.0	1.47e+00	0	37	104	0	70	13011
2026-01-15 08:57:35.77	126.24	9.01	-50.1	-62.5	3.8	1.49e+00	0	37	104	0	70	16284
2026-01-15 08:57:36.77	126.17	9.09	-46.8	-50.4	11.5	1.42e+00	0	37	104	0	65	5389
2026-01-15 08:57:37.77	126.11	9.16	-49.3	-56.4	6.0	2.60e-02	0	37	0	0	69	8512
2026-01-15 08:57:38.76	126.04	9.24	-49.9	-62.8	3.8	1.49e+00	0	37	104	0	71	15896
2026-01-15 08:57:39.76	125.97	9.32	-47.3	-51.4	7.0	1.45e+00	0	38	104	0	66	5664
2026-01-15 08:57:40.76	125.90	9.40	-50.2	-62.5	3.8	1.29e+00	0	38	104	0	71	15312
2026-01-15 08:57:41.76	125.83	9.48	-47.6	-52.2	9.6	1.49e+00	0	38	104	0	67	5874
2026-01-15 08:57:42.75	125.76	9.55	-46.0	-49.2	13.0	1.62e-04	0	38	0	0	63	5223
2026-01-15 08:57:43.75	125.69	9.63	-44.9	-47.5	14.6	2.20e-06	0	38	0	0	61	4866
2026-01-15 08:57:44.75	125.62	9.71	-44.2	-46.6	15.5	0.00e+00	0	37	0	0	60	4609
2026-01-15 08:57:45.75	125.55	9.79	-44.0	-46.3	15.8	0.00e+00	0	38	0	0	59	4726
2026-01-15 08:57:46.74	125.48	9.87	-44.0	-46.4	15.7	0.00e+00	0	38	0	0	59	4774
2026-01-15 08:57:47.74	125.41	9.95	-44.0	-46.3	15.8	0.00e+00	0	38	0	0	59	4715
2026-01-15 08:57:48.74	125.34	10.03	-43.6	-45.9	16.1	0.00e+00	0	38	0	0	59	4544
2026-01-15 08:57:49.73	125.27	10.11	-43.7	-46.0	16.1	0.00e+00	0	38	0	0	59	4560
2026-01-15 08:57:50.73	125.20	10.19	-43.7	-46.0	16.1	0.00e+00	0	38	0	0	59	4554
2026-01-15 08:57:51.74	125.12	10.27	-43.5	-45.8	16.2	0.00e+00	0	38	0	0	58	4747
2026-01-15 08:57:52.73	125.05	10.35	-43.6	-45.9	16.2	0.00e+00	0	38	0	0	58	4773
2026-01-15 08:57:53.73	124.98	10.43	-43.6	-45.9	16.2	0.00e+00	0	38	0	0	58	4767
2026-01-15 08:57:54.73	124.90	10.51	-43.4	-45.7	16.4	0.00e+00	0	38	0	0	58	4685
2026-01-15 08:57:55.73	124.83	10.60	-43.5	-45.7	16.4	0.00e+00	0	38	0	0	58	4673
2026-01-15 08:57:56.72	124.75	10.68	-43.5	-45.7	16.4	0.00e+00	0	38	0	0	58	4688
2026-01-15 08:57:57.72	124.68	10.76	-43.5	-45.7	16.4	0.00e+00	0	38	0	0	58	4681
2026-01-15 08:57:58.71	124.60	10.84	-43.5	-45.7	16.4	0.00e+00	0	38	0	0	58	4664
2026-01-15 08:57:59.71	124.53	10.92	-43.5	-45.6	16.5	0.00e+00	0	38	0	0	58	4637
2026-01-15 08:58:00.70	124.45	11.00	-43.2	-45.4	16.7	0.00e+00	0	38	0	0	58	4534
2026-01-15 08:58:01.70	124.37	11.09	-43.3	-45.4	16.7	0.00e+00	0	38	0	0	58	4510
2026-01-15 08:58:02.69	124.30	11.17	-43.2	-45.5	16.6	0.00e+00	0	38	0	0	58	4560
2026-01-15 08:58:03.69	124.22	11.25	-43.2	-45.3	16.8	0.00e+00	0	38	0	0	58	4446
2026-01-15 08:58:04.69	124.14	11.34	-42.9	-45.1	16.9	0.00e+00	0	38	0	0	57	4651
2026-01-15 08:58:05.68	124.06	11.42	-42.9	-45.1	16.9	0.00e+00	0	38	0	0	57	4651
2026-01-15 08:58:06.68	123.98	11.50	-43.2	-45.2	16.8	0.00e+00	0	38	0	0	57	4701
2026-01-15 08:58:07.68	123.90	11.59	-42.9	-45.1	16.9	0.00e+00	0	38	0	0	57	4642
2026-01-15 08:58:08.67	123.82	11.67	-42.9	-45.1	17.0	0.00e+00	0	38	0	0	57	4618
2026-01-15 08:58:09.67	123.74	11.76	-43.0	-45.0	17.1	0.00e+00	0	38	0	0	57	4582
2026-01-15 08:58:10.67	123.66	11.84	-42.9	-45.0	17.0	0.00e+00	0	38	0	0	57	4598
2026-01-15 08:58:11.67	123.58	11.93	-42.9	-45.0	17.1	0.00e+00	0	38	0	0	57	4588
2026-01-15 08:58:12.67	123.49	12.01	-43.0	-45.0	17.0	0.00e+00	0	38	0	0	57	4595
2026-01-15 08:58:13.67	123.41	12.10	-42.9	-45.0	17.1	0.00e+00	0	38	0	0	57	4549
2026-01-15 08:58:14.67	123.33	12.18	-43.0	-45.1	17.0	0.00e+00	0	38	0	0	57	4602
2026-01-15 08:58:15.66	123.24	12.27	-43.1	-45.2	17.0	0.00e+00	0	38	0	0	57	4654
2026-01-15 08:58:16.66	123.16	12.36	-42.9	-45.0	17.2	0.00e+00	0	38	0	0	57	4558
2026-01-15 08:58:17.66	123.07	12.44	-42.9	-45.0	17.1	0.00e+00	0	38	0	0	57	4573
2026-01-15 08:58:18.66	122.99	12.53	-43.0	-45.0	17.1	0.00e+00	0	38	0	0	57	4581
2026-01-15 08:58:19.65	122.90	12.62	-42.9	-44.9	17.2	0.00e+00	0	38	0	0	57	4536
2026-01-15 08:58:20.65	122.82	12.70	-43.0	-45.0	17.1	0.00e+00	0	38	0	0	57	4570
2026-01-15 08:58:21.65	122.73	12.79	-42.9	-44.9	17.2	0.00e+00	0	38	0	0	57	4527
2026-01-15 08:58:22.65	122.64	12.88	-42.9	-44.9	17.2	0.00e+00	0	38	0	0	57	4544
2026-01-15 08:58:23.65	122.55	12.97	-42.9	-44.9	17.2	0.00e+00	0	38	0	0	57	4534
2026-01-15 08:58:24.65	122.47	13.06	-42.9	-44.9	17.2	0.00e+00	0	38	0	0	57	4526
2026-01-15 08:58:25.64	122.38	13.14	-42.8	-44.8	17.4	0.00e+00	0	38	0	0	57	4444
2026-01-15 08:58:26.64	122.29	13.23	-42.6	-44.7	17.4	0.00e+00	0	38	0	0	57	4396
2026-01-15 08:58:27.64	122.20	13.32	-42.7	-44.7	17.4	0.00e+00	0	38	0	0	57	4432
2026-01-15 08:58:28.64	122.11	13.41	-42.7	-44.8	17.3	0.00e+00	0	38	0	0	57	4458
2026-01-15 08:58:29.64	122.02	13.50	-42.8	-44.9	17.2	0.00e+00	0	38	0	0	57	4501
2026-01-15 08:58:30.63	121.92	13.59	-42.8	-44.8	17.3	0.00e+00	0	38	0	0	57	4473
2026-01-15 08:58:31.63	121.83	13.68	-42.5	-44.8	17.3	0.00e+00	0	38	0	0	57	4451
2026-01-15 08:58:32.63	121.74	13.77	-42.8	-44.8	17.3	0.00e+00	0	38	0	0	57	4489
2026-01-15 08:58:33.62	121.65	13.86	-42.9	-44.9	17.2	0.00e+00	0	38	0	0	57	4542
2026-01-15 08:58:34.62	121.55	13.95	-42.5	-44.8	17.3	0.00e+00	0	38	0	0	57	4492
2026-01-15 08:58:35.62	121.46	14.04	-42.7	-45.1	17.1	0.00e+00	0	38	0	0	57	4603
2026-01-15 08:58:36.62	121.36	14.13	-42.8	-45.0	17.1	0.00e+00	0	38	0	0	57	4580
2026-01-15 08:58:37.61	121.27	14.22	-42.9	-45.0	17.1	0.00e+00	0	38	0	0	57	4589
2026-01-15 08:58:38.61	121.17	14.32	-42.9	-45.0	17.2	0.00e+00	0	38	0	0	57	4557
2026-01-15 08:58:39.61	121.07	14.41	-42.8	-45.0	17.2	0.00e+00	0	38	0	0	57	4556
2026-01-15 08:58:40.60	120.98	14.50	-43.0	-45.1	17.0	0.00e+00	0	38	0	0	57	4621
2026-01-15 08:58:41.60	120.88	14.59	-42.9	-45.0	17.1	0.00e+00	0	38	0	0	57	4582
2026-01-15 08:58:42.60	120.78	14.69	-42.8	-44.9	17.2	0.00e+00	0	38	0	0	57	4544
2026-01-15 08:58:43.60	120.68	14.78	-42.9	-45.0	17.1	0.00e+00	0	38	0	0	57	4595
2026-01-15 08:58:44.60	120.58	14.87	-42.9	-45.0	17.2	0.00e+00	0	38	0	0	57	4585
2026-01-15 08:58:45.59	120.48	14.97	-42.9	-45.0	17.1	0.00e+00	0	38	0	0	57	4581
2026-01-15 08:58:46.59	120.38	15.06	-42.9	-45.0	17.2	0.00e+00	0	38	0	0	57	4560
2026-01-15 08:58:47.59	120.27	15.16	-43.0	-45.0	17.1	0.00e+00	0	38	0	0	57	4584
2026-01-15 08:58:48.59	120.17	15.25	-42.8	-45.0	17.2	0.00e+00	0	38	0	0	57	4567
2026-01-15 08:58:49.58	120.07	15.34	-42.8	-45.0	17.2	0.00e+00	0	38	0	0	57	4563
2026-01-15 08:58:50.58	119.96	15.44	-43.0	-45.0	17.1	0.00e+00	0	38	0	0	57	4585
2026-01-15 08:58:51.58	119.86	15.54	-42.9	-45.1	17.0	0.00e+00	0	38	0	0	57	4643
2026-01-15 08:58:52.58	119.75	15.63	-42.9	-45.2	17.0	0.00e+00	0	38	0	0	57	4670
2026-01-15 08:58:53.58	119.64	15.73	-43.1	-45.2	17.0	0.00e+00	0	38	0	0	57	4671
2026-01-15 08:58:54.58	119.54	15.82	-43.1	-45.3	16.9	0.00e+00	0	38	0	0	57	4731
2026-01-15 08:58:55.58	119.43	15.92	-43.1	-45.3	16.9	0.00e+00	0	38	0	0	57	4738
2026-01-15 08:58:56.57	119.32	16.02	-43.2	-45.3	17.0	0.00e+00	0	38	0	0	57	4716
2026-01-15 08:58:57.57	119.21	16.11	-43.1	-45.1	17.1	0.00e+00	0	38	0	0	57	4638
2026-01-15 08:58:58.57	119.10	16.21	-43.1	-45.2	17.0	0.00e+00	0	38	0	0	57	4664
2026-01-15 08:58:59.57	118.99	16.31	-43.1	-45.1	17.1	0.00e+00	0	38	0	0	57	4647
2026-01-15 08:59:00.57	118.88	16.41	-43.0	-45.1	17.1	0.00e+00	0	38	0	0	57	4605
2026-01-15 08:59:01.57	118.77	16.51	-43.0	-45.1	17.1	0.00e+00	0	38	0	0	57	4600
2026-01-15 08:59:02.57	118.66	16.60	-43.0	-45.0	17.2	0.00e+00	0	38	0	0	57	4595
2026-01-15 08:59:03.57	118.54	16.70	-42.9	-45.0	17.2	0.00e+00	0	38	0	0	57	4562
2026-01-15 08:59:04.57	118.43	16.80	-42.9	-44.9	17.3	0.00e+00	0	38	0	0	57	4537
2026-01-15 08:59:05.57	118.31	16.90	-43.0	-45.0	17.2	0.00e+00	0	38	0	0	57	4563
2026-01-15 08:59:06.56	118.20	17.00	-42.9	-45.0	17.2	0.00e+00	0	38	0	0	57	4552
2026-01-15 08:59:07.56	118.08	17.10	-42.8	-44.8	17.4	0.00e+00	0	38	0	0	57	4484
2026-01-15 08:59:08.56	117.96	17.20	-42.8	-44.8	17.4	0.00e+00	0	38	0	0	57	4464
2026-01-15 08:59:09.56	117.84	17.30	-42.9	-45.0	17.3	0.00e+00	0	38	0	0	57	4548
2026-01-15 08:59:10.56	117.72	17.40	-42.9	-44.9	17.3	0.00e+00	0	38	0	0	57	4513
2026-01-15 08:59:11.57	117.60	17.50	-42.8	-44.8	17.4	0.00e+00	0	38	0	0	57	4474
2026-01-15 08:59:12.56	117.48	17.60	-42.8	-44.8	17.4	0.00e+00	0	38	0	0	57	4477
2026-01-15 08:59:13.56	117.36	17.71	-42.8	-44.9	17.3	0.00e+00	0	38	0	0	57	4503
2026-01-15 08:59:14.56	117.24	17.81	-43.1	-45.1	17.1	0.00e+00	0	38	0	0	57	4630
2026-01-15 08:59:15.56	117.12	17.91	-43.1	-45.2	17.0	0.00e+00	0	38	0	0	57	4668
2026-01-15 08:59:16.56	116.99	18.01	-43.1	-45.1	17.1	0.00e+00	0	38	0	0	57	4646
2026-01-15 08:59:17.55	116.87	18.12	-43.2	-45.3	17.0	0.00e+00	0	38	0	0	57	4707
2026-01-15 08:59:18.55	116.74	18.22	-43.2	-45.3	17.0	0.00e+00	0	38	0	0	57	4734
2026-01-15 08:59:19.55	116.61	18.32	-43.2	-45.3	17.0	0.00e+00	0	38	0	0	57	4722
2026-01-15 08:59:20.55	116.49	18.43	-43.2	-45.3	17.0	0.00e+00	0	38	0	0	57	4721
2026-01-15 08:59:21.54	116.36	18.53	-43.2	-45.3	16.9	0.00e+00	0	38	0	0	57	4759
2026-01-15 08:59:22.54	116.23	18.63	-43.2	-45.3	17.0	0.00e+00	0	38	0	0	57	4735
2026-01-15 08:59:23.54	116.10	18.74	-43.1	-45.1	17.2	0.00e+00	0	38	0	0	57	4627
2026-01-15 08:59:24.53	115.97	18.84	-43.1	-45.2	17.1	0.00e+00	0	38	0	0	57	4685
2026-01-15 08:59:25.53	115.84	18.95	-43.1	-45.2	17.1	0.00e+00	0	38	0	0	57	4682
2026-01-15 08:59:26.52	115.71	19.05	-43.0	-45.1	17.2	0.00e+00	0	38	0	0	57	4608
2026-01-15 08:59:27.52	115.57	19.16	-42.9	-45.0	17.3	0.00e+00	0	38	0	0	57	4546
2026-01-15 08:59:28.52	115.44	19.26	-43.0	-45.0	17.3	0.00e+00	0	38	0	0	57	4577
2026-01-15 08:59:29.52	115.30	19.37	-43.0	-45.0	17.2	0.00e+00	0	38	0	0	57	4589
2026-01-15 08:59:30.52	115.16	19.48	-43.0	-45.0	17.2	0.00e+00	0	38	0	0	57	4593
2026-01-15 08:59:31.52	115.03	19.58	-42.9	-45.0	17.3	0.00e+00	0	38	0	0	57	4561
2026-01-15 08:59:32.51	114.89	19.69	-42.9	-45.0	17.3	0.00e+00	0	38	0	0	57	4548
2026-01-15 08:59:33.51	114.75	19.80	-42.9	-44.9	17.3	0.00e+00	0	38	0	0	57	4542
2026-01-15 08:59:34.51	114.61	19.90	-42.9	-44.9	17.3	0.00e+00	0	38	0	0	57	4540
2026-01-15 08:59:35.51	114.46	20.01	-42.9	-44.9	17.3	0.00e+00	0	38	0	0	57	4530
2026-01-15 08:59:36.51	114.32	20.12	-42.9	-44.9	17.3	0.00e+00	0	38	0	0	57	4525
2026-01-15 08:59:37.51	114.18	20.23	-42.8	-44.8	17.4	0.00e+00	0	38	0	0	57	4476
2026-01-15 08:59:38.51	114.03	20.34	-42.7	-44.7	17.5	0.00e+00	0	38	0	0	57	4437
2026-01-15 08:59:39.51	113.89	20.45	-42.7	-44.8	17.5	0.00e+00	0	38	0	0	57	4442
2026-01-15 08:59:40.51	113.74	20.56	-42.7	-44.7	17.5	0.00e+00	0	38	0	0	57	4415
2026-01-15 08:59:41.50	113.59	20.67	-42.7	-44.7	17.6	0.00e+00	0	38	0	0	57	4395
2026-01-15 08:59:42.51	113.44	20.78	-42.5	-44.5	17.7	0.00e+00	0	38	0	0	57	4307
2026-01-15 08:59:43.50	113.29	20.89	-42.3	-44.3	17.9	0.00e+00	0	38	0	0	56	4468
2026-01-15 08:59:44.50	113.14	21.00	-42.3	-44.2	17.9	0.00e+00	0	38	0	0	56	4435
2026-01-15 08:59:45.50	112.99	21.11	-42.3	-44.2	17.9	0.00e+00	0	38	0	0	56	4433
2026-01-15 08:59:46.50	112.84	21.22	-42.2	-44.1	18.1	0.00e+00	0	38	0	0	56	4354
2026-01-15 08:59:47.50	112.68	21.33	-42.2	-44.1	18.0	0.00e+00	0	38	0	0	56	4379
2026-01-15 08:59:48.50	112.53	21.44	-42.3	-44.2	18.0	0.00e+00	0	38	0	0	56	4411
2026-01-15 08:59:49.50	112.37	21.55	-42.3	-44.3	18.0	0.00e+00	0	38	0	0	56	4453
2026-01-15 08:59:50.50	112.21	21.67	-42.3	-44.2	18.0	0.00e+00	0	38	0	0	56	4413
2026-01-15 08:59:51.49	112.05	21.78	-42.2	-44.1	18.1	0.00e+00	0	38	0	0	56	4356
2026-01-15 08:59:52.49	111.89	21.89	-42.0	-43.9	18.3	0.00e+00	0	38	0	0	56	4261
2026-01-15 08:59:53.49	111.73	22.00	-41.8	-43.7	18.3	0.00e+00	0	38	0	0	55	4423
2026-01-15 08:59:54.49	111.57	22.12	-41.7	-43.6	18.4	0.00e+00	0	38	0	0	55	4374
2026-01-15 08:59:55.49	111.40	22.23	-41.7	-43.6	18.4	0.00e+00	0	38	0	0	55	4384
2026-01-15 08:59:56.49	111.24	22.34	-41.7	-43.5	18.5	0.00e+00	0	38	0	0	55	4338
2026-01-15 08:59:57.49	111.07	22.46	-41.7	-43.6	18.4	0.00e+00	0	38	0	0	55	4351
2026-01-15 08:59:58.49	110.90	22.57	-41.6	-43.4	18.6	0.00e+00	0	38	0	0	55	4266
2026-01-15 08:59:59.49	110.73	22.68	-41.6	-43.4	18.6	0.00e+00	0	38	0	0	55	4267
2026-01-15 09:00:00.48	110.57	22.80	-41.6	-43.4	18.6	0.00e+00	0	38	0	0	55	4265
2026-01-15 09:00:01.48	110.39	22.91	-41.6	-43.5	18.5	0.00e+00	0	38	0	0	55	4292
2026-01-15 09:00:02.48	110.22	23.03	-41.6	-43.4	18.6	0.00e+00	0	38	0	0	55	4257
2026-01-15 09:00:03.48	110.05	23.14	-41.6	-43.5	18.5	0.00e+00	0	38	0	0	55	4301
2026-01-15 09:00:04.48	109.87	23.26	-41.7	-43.5	18.5	0.00e+00	0	38	0	0	55	4339
2026-01-15 09:00:05.48	109.70	23.37	-41.7	-43.5	18.5	0.00e+00	0	38	0	0	55	4322
2026-01-15 09:00:06.47	109.52	23.49	-41.7	-43.6	18.4	0.00e+00	0	38	0	0	55	4347
2026-01-15 09:00:07.47	109.34	23.61	-41.8	-43.7	18.3	0.00e+00	0	38	0	0	55	4404
2026-01-15 09:00:08.47	109.16	23.72	-41.7	-43.6	18.4	0.00e+00	0	38	0	0	55	4369
2026-01-15 09:00:09.47	108.98	23.84	-41.7	-43.6	18.4	0.00e+00	0	38	0	0	55	4372
2026-01-15 09:00:10.46	108.80	23.95	-41.7	-43.6	18.5	0.00e+00	0	38	0	0	55	4364
2026-01-15 09:00:11.46	108.61	24.07	-41.8	-43.7	18.4	0.00e+00	0	38	0	0	55	4399
2026-01-15 09:00:12.45	108.43	24.19	-41.7	-43.5	18.5	0.00e+00	0	38	0	0	55	4322
2026-01-15 09:00:13.45	108.24	24.30	-41.7	-43.6	18.4	0.00e+00	0	38	0	0	55	4369
2026-01-15 09:00:14.45	108.05	24.42	-41.8	-43.7	18.3	0.00e+00	0	38	0	0	55	4424
2026-01-15 09:00:15.45	107.86	24.54	-41.9	-43.8	18.2	0.00e+00	0	38	0	0	55	4454
2026-01-15 09:00:16.45	107.67	24.66	-41.9	-43.9	18.1	0.00e+00	0	38	0	0	55	4498
2026-01-15 09:00:17.45	107.47	24.78	-42.0	-44.0	18.1	0.00e+00	0	38	0	0	55	4552
2026-01-15 09:00:18.45	107.28	24.89	-42.1	-44.1	18.0	0.00e+00	0	38	0	0	55	4605
2026-01-15 09:00:19.45	107.08	25.01	-42.0	-44.0	18.1	0.00e+00	0	38	0	0	55	4563
2026-01-15 09:00:20.45	106.88	25.13	-42.0	-43.9	18.2	0.00e+00	0	38	0	0	55	4515
2026-01-15 09:00:21.45	106.69	25.25	-41.9	-43.8	18.3	0.00e+00	0	38	0	0	55	4470
2026-01-15 09:00:22.44	106.49	25.37	-41.8	-43.7	18.3	0.00e+00	0	38	0	0	55	4426
2026-01-15 09:00:23.44	106.28	25.49	-41.9	-43.8	18.2	0.00e+00	0	39	0	0	55	4478
2026-01-15 09:00:24.44	106.08	25.61	-42.0	-43.9	18.1	0.00e+00	0	38	0	0	55	4518
2026-01-15 09:00:25.44	105.87	25.73	-42.1	-44.0	18.0	0.00e+00	0	38	0	0	55	4574
2026-01-15 09:00:26.44	105.67	25.85	-42.1	-44.0	18.0	0.00e+00	0	38	0	0	55	4593
2026-01-15 09:00:27.44	105.46	25.97	-42.0	-43.9	18.1	0.00e+00	0	38	0	0	55	4518
2026-01-15 09:00:28.44	105.25	26.08	-42.0	-43.9	18.1	0.00e+00	0	38	0	0	55	4532
2026-01-15 09:00:29.43	105.04	26.20	-42.0	-44.0	18.1	0.00e+00	0	38	0	0	55	4547
2026-01-15 09:00:30.43	104.83	26.32	-41.9	-43.8	18.2	0.00e+00	0	38	0	0	55	4478
2026-01-15 09:00:31.43	104.61	26.44	-41.9	-43.7	18.3	0.00e+00	0	38	0	0	55	4437
2026-01-15 09:00:32.44	104.39	26.56	-41.9	-43.8	18.3	0.00e+00	0	38	0	0	55	4442
2026-01-15 09:00:33.44	104.17	26.68	-42.0	-43.8	18.2	0.00e+00	0	39	0	0	55	4493
2026-01-15 09:00:34.43	103.96	26.80	-42.1	-44.0	18.1	0.00e+00	0	38	0	0	55	4587
2026-01-15 09:00:35.43	103.73	26.92	-42.2	-44.1	18.0	0.00e+00	0	38	0	0	55	4629
2026-01-15 09:00:36.43	103.51	27.04	-42.3	-44.2	17.9	0.00e+00	0	38	0	0	55	4694
2026-01-15 09:00:37.43	103.29	27.16	-42.4	-44.3	17.7	0.00e+00	0	38	0	0	55	4758
2026-01-15 09:00:38.42	103.06	27.28	-42.5	-44.5	17.6	0.00e+00	0	38	0	0	55	4824
2026-01-15 09:00:39.42	102.83	27.40	-42.6	-44.5	17.6	0.00e+00	0	38	0	0	55	4865
2026-01-15 09:00:40.42	102.60	27.53	-42.6	-44.6	17.5	0.00e+00	0	38	0	0	55	4916
2026-01-15 09:00:41.42	102.37	27.65	-42.5	-44.5	17.7	0.00e+00	0	38	0	0	55	4816
2026-01-15 09:00:42.41	102.14	27.76	-42.5	-44.5	17.7	0.00e+00	0	39	0	0	55	4818
2026-01-15 09:00:43.41	101.90	27.89	-42.6	-44.5	17.6	0.00e+00	0	38	0	0	55	4866
2026-01-15 09:00:44.41	101.67	28.01	-42.8	-44.8	17.6	0.00e+00	0	38	0	0	56	4733
2026-01-15 09:00:45.42	101.42	28.13	-42.9	-44.9	17.5	0.00e+00	0	38	0	0	56	4763
2026-01-15 09:00:46.41	101.19	28.25	-42.9	-44.9	17.4	0.00e+00	0	38	0	0	56	4810
2026-01-15 09:00:47.41	100.94	28.37	-43.0	-45.0	17.4	0.00e+00	0	38	0	0	56	4853
2026-01-15 09:00:48.41	100.70	28.49	-42.9	-44.9	17.5	0.00e+00	0	38	0	0	56	4769
2026-01-15 09:00:49.41	100.45	28.61	-42.6	-44.6	17.7	0.00e+00	0	39	0	0	56	4626
2026-01-15 09:00:50.41	100.20	28.73	-42.7	-44.6	17.7	0.00e+00	0	38	0	0	56	4646
2026-01-15 09:00:51.41	99.95	28.85	-42.6	-44.6	17.7	0.00e+00	0	38	0	0	56	4633
2026-01-15 09:00:52.41	99.70	28.97	-42.6	-44.5	17.9	0.00e+00	0	38	0	0	56	4572
2026-01-15 09:00:53.40	99.45	29.09	-42.6	-44.5	17.8	0.00e+00	0	39	0	0	56	4569
2026-01-15 09:00:54.40	99.20	29.21	-42.6	-44.5	17.8	0.00e+00	0	38	0	0	56	4573
2026-01-15 09:00:55.39	98.94	29.32	-42.6	-44.6	17.7	0.00e+00	0	38	0	0	56	4607
2026-01-15 09:00:56.37	98.69	29.44	-42.6	-44.5	17.8	0.00e+00	0	38	0	0	56	4575
2026-01-15 09:00:57.35	98.43	29.56	-42.7	-44.6	17.7	0.00e+00	0	38	0	0	56	4626
2026-01-15 09:00:58.34	98.17	29.68	-42.8	-44.7	17.6	0.00e+00	0	38	0	0	56	4701
2026-01-15 09:00:59.33	97.91	29.79	-42.7	-44.6	17.7	0.00e+00	0	38	0	0	56	4644
2026-01-15 09:01:00.32	97.64	29.91	-42.5	-44.5	17.8	0.00e+00	0	38	0	0	56	4561
2026-01-15 09:01:01.31	97.37	30.03	-42.4	-44.4	17.9	0.00e+00	0	38	0	0	56	4506
2026-01-15 09:01:02.30	97.11	30.15	-42.4	-44.4	18.0	0.00e+00	0	38	0	0	56	4500
2026-01-15 09:01:03.30	96.83	30.26	-42.4	-44.3	18.0	0.00e+00	0	38	0	0	56	4492
2026-01-15 09:01:04.29	96.56	30.38	-42.4	-44.3	18.0	0.00e+00	0	39	0	0	56	4480
2026-01-15 09:01:05.29	96.28	30.50	-42.4	-44.3	18.0	0.00e+00	0	38	0	0	56	4460
2026-01-15 09:01:06.28	96.01	30.61	-42.4	-44.3	18.0	0.00e+00	0	38	0	0	56	4464
2026-01-15 09:01:07.27	95.73	30.73	-42.3	-44.2	18.1	0.00e+00	0	39	0	0	56	4430
2026-01-15 09:01:08.27	95.44	30.85	-42.2	-44.1	18.2	0.00e+00	0	39	0	0	56	4355
2026-01-15 09:01:09.27	95.16	30.96	-42.3	-44.2	18.0	0.00e+00	0	39	0	0	56	4416
2026-01-15 09:01:10.27	94.87	31.08	-42.4	-44.3	17.9	0.00e+00	0	39	0	0	56	4474
2026-01-15 09:01:11.27	94.58	31.19	-42.5	-44.4	17.8	0.00e+00	0	38	0	0	56	4537
2026-01-15 09:01:12.27	94.29	31.31	-42.6	-44.6	17.7	0.00e+00	0	38	0	0	56	4607
2026-01-15 09:01:13.26	94.00	31.42	-42.5	-44.4	17.9	0.00e+00	0	38	0	0	56	4514
2026-01-15 09:01:14.26	93.70	31.54	-42.4	-44.4	17.9	0.00e+00	0	38	0	0	56	4515
2026-01-15 09:01:15.26	93.41	31.65	-42.5	-44.5	17.8	0.00e+00	0	38	0	0	56	4562
2026-01-15 09:01:16.25	93.11	31.76	-42.7	-44.7	17.5	0.00e+00	0	38	0	0	56	4693
2026-01-15 09:01:17.24	92.81	31.87	-42.9	-45.0	17.3	0.00e+00	0	38	0	0	56	4834
2026-01-15 09:01:18.24	92.51	31.99	-43.0	-45.0	17.3	0.00e+00	0	38	0	0	56	4870
2026-01-15 09:01:19.24	92.20	32.10	-43.1	-45.2	17.1	0.00e+00	0	38	0	0	56	4978
2026-01-15 09:01:20.24	91.89	32.21	-43.1	-45.2	17.2	0.00e+00	0	38	0	0	57	4685
2026-01-15 09:01:21.24	91.58	32.32	-43.0	-45.1	17.3	0.00e+00	0	38	0	0	57	4613
2026-01-15 09:01:22.24	91.27	32.43	-42.9	-45.0	17.4	0.00e+00	0	38	0	0	57	4556
2026-01-15 09:01:23.24	90.95	32.54	-43.1	-45.1	17.2	0.00e+00	0	39	0	0	57	4650
2026-01-15 09:01:24.24	90.64	32.65	-43.2	-45.2	17.1	0.00e+00	0	38	0	0	57	4705
2026-01-15 09:01:25.24	90.32	32.76	-43.2	-45.2	17.1	0.00e+00	0	39	0	0	57	4702
2026-01-15 09:01:26.23	90.00	32.87	-43.3	-45.3	17.1	0.00e+00	0	38	0	0	57	4753
2026-01-15 09:01:27.23	89.68	32.97	-43.2	-45.2	17.2	0.00e+00	0	38	0	0	57	4687
2026-01-15 09:01:28.22	89.35	33.08	-43.1	-45.2	17.2	0.00e+00	0	38	0	0	57	4700
2026-01-15 09:01:29.22	89.03	33.19	-43.1	-45.2	17.2	0.00e+00	0	38	0	0	57	4703
2026-01-15 09:01:30.22	88.70	33.29	-43.2	-45.4	17.0	0.00e+00	0	38	0	0	57	4763
2026-01-15 09:01:31.21	88.37	33.40	-43.1	-45.2	17.2	0.00e+00	0	38	0	0	57	4675
2026-01-15 09:01:32.21	88.03	33.50	-43.2	-45.3	17.1	0.00e+00	0	39	0	0	57	4733
2026-01-15 09:01:33.21	87.70	33.60	-43.2	-45.3	17.1	0.00e+00	0	38	0	0	57	4756
2026-01-15 09:01:34.21	87.36	33.70	-43.3	-45.5	16.9	0.00e+00	0	39	0	0	57	4847
2026-01-15 09:01:35.21	87.02	33.81	-43.4	-45.6	16.8	0.00e+00	0	38	0	0	57	4892
2026-01-15 09:01:36.21	86.68	33.91	-43.3	-45.6	16.8	0.00e+00	0	38	0	0	57	4880
2026-01-15 09:01:37.20	86.34	34.01	-43.4	-45.7	16.8	0.00e+00	0	38	0	0	57	4929
2026-01-15 09:01:38.20	85.99	34.10	-43.4	-45.6	16.8	0.00e+00	0	39	0	0	57	4926
2026-01-15 09:01:39.20	85.64	34.20	-43.5	-45.7	16.8	0.00e+00	0	38	0	0	57	4940
2026-01-15 09:01:40.19	85.29	34.30	-43.6	-45.8	16.6	0.00e+00	0	38	0	0	57	5041
2026-01-15 09:01:41.19	84.94	34.40	-43.6	-45.9	16.6	0.00e+00	0	38	0	0	57	5043
2026-01-15 09:01:42.19	84.59	34.49	-43.4	-45.6	16.9	0.00e+00	0	38	0	0	57	4883
2026-01-15 09:01:43.19	84.23	34.59	-43.4	-45.5	16.9	0.00e+00	0	38	0	0	57	4863
2026-01-15 09:01:44.19	83.87	34.68	-43.2	-45.4	17.1	0.00e+00	0	38	0	0	57	4762
2026-01-15 09:01:45.18	83.51	34.77	-43.1	-45.2	17.3	0.00e+00	0	38	0	0	57	4664
2026-01-15 09:01:46.18	83.15	34.86	-43.2	-45.4	17.0	0.00e+00	0	38	0	0	57	4783
2026-01-15 09:01:47.18	82.78	34.95	-43.5	-45.7	16.8	0.00e+00	0	39	0	0	57	4947
2026-01-15 09:01:48.17	82.42	35.04	-43.5	-45.7	16.8	0.00e+00	0	38	0	0	57	4963
2026-01-15 09:01:49.17	82.05	35.13	-43.5	-45.7	16.8	0.00e+00	0	38	0	0	57	4960
2026-01-15 09:01:50.17	81.68	35.22	-43.5	-45.7	16.8	0.00e+00	0	38	0	0	57	4927
2026-01-15 09:01:51.17	81.31	35.30	-43.4	-45.6	16.9	0.00e+00	0	38	0	0	57	4871
2026-01-15 09:01:52.17	80.93	35.39	-43.3	-45.4	17.0	0.00e+00	0	38	0	0	57	4783
2026-01-15 09:01:53.17	80.55	35.47	-43.2	-45.3	17.1	0.00e+00	0	38	0	0	57	4729
2026-01-15 09:01:54.17	80.17	35.55	-43.3	-45.5	16.9	0.00e+00	0	39	0	0	57	4832
2026-01-15 09:01:55.17	79.79	35.63	-43.4	-45.5	16.9	0.00e+00	0	38	0	0	57	4848
2026-01-15 09:01:56.17	79.41	35.71	-43.4	-45.5	16.9	0.00e+00	0	39	0	0	57	4841
2026-01-15 09:01:57.17	79.03	35.79	-43.4	-45.5	17.0	0.00e+00	0	38	0	0	57	4831
2026-01-15 09:01:58.17	78.64	35.87	-43.4	-45.5	16.9	0.00e+00	0	38	0	0	57	4863
2026-01-15 09:01:59.17	78.25	35.94	-43.7	-45.9	16.4	0.00e+00	0	38	0	0	58	4796
2026-01-15 09:02:00.17	77.86	36.02	-43.9	-46.2	16.3	0.00e+00	0	38	0	0	58	4930
2026-01-15 09:02:01.16	77.47	36.09	-44.0	-46.3	16.1	0.00e+00	0	38	0	0	58	5022
2026-01-15 09:02:02.16	77.08	36.16	-44.0	-46.3	16.1	0.00e+00	0	38	0	0	58	5000
2026-01-15 09:02:03.16	76.68	36.23	-44.2	-46.5	15.9	0.00e+00	0	38	0	0	59	4840
2026-01-15 09:02:04.16	76.29	36.30	-43.9	-46.1	16.2	0.00e+00	0	38	0	0	59	4633
2026-01-15 09:02:05.16	75.89	36.37	-43.8	-46.0	16.4	0.00e+00	0	38	0	0	59	4554
2026-01-15 09:02:06.16	75.49	36.44	-44.0	-46.2	16.3	0.00e+00	0	38	0	0	59	4664
2026-01-15 09:02:07.16	75.09	36.50	-43.9	-46.1	16.3	0.00e+00	0	38	0	0	59	4631
2026-01-15 09:02:08.16	74.68	36.57	-44.1	-46.3	16.2	0.00e+00	0	38	0	0	59	4739
2026-01-15 09:02:09.16	74.28	36.63	-43.9	-46.1	16.4	0.00e+00	0	38	0	0	59	4632
2026-01-15 09:02:10.16	73.87	36.69	-43.9	-46.2	16.3	0.00e+00	0	38	0	0	59	4656
2026-01-15 09:02:11.15	73.47	36.75	-44.0	-46.2	16.3	0.00e+00	0	38	0	0	59	4691
2026-01-15 09:02:12.15	73.06	36.80	-44.1	-46.4	16.1	0.00e+00	0	39	0	0	59	4780
2026-01-15 09:02:13.15	72.65	36.86	-44.1	-46.4	16.1	0.00e+00	0	38	0	0	59	4781
2026-01-15 09:02:14.15	72.23	36.91	-44.0	-46.2	16.3	0.00e+00	0	39	0	0	59	4688
2026-01-15 09:02:15.15	71.82	36.96	-43.9	-46.0	16.5	0.00e+00	0	38	0	0	59	4571
2026-01-15 09:02:16.15	71.40	37.02	-43.9	-46.0	16.5	0.00e+00	0	38	0	0	59	4585
2026-01-15 09:02:17.15	70.99	37.06	-44.0	-46.1	16.3	0.00e+00	0	38	0	0	59	4649
2026-01-15 09:02:18.15	70.57	37.11	-43.9	-46.1	16.4	0.00e+00	0	38	0	0	59	4600
2026-01-15 09:02:19.14	70.16	37.16	-43.9	-46.1	16.4	0.00e+00	0	39	0	0	59	4615
2026-01-15 09:02:20.14	69.74	37.20	-44.0	-46.2	16.3	0.00e+00	0	39	0	0	59	4686
2026-01-15 09:02:21.14	69.32	37.24	-44.0	-46.2	16.3	0.00e+00	0	38	0	0	59	4688
2026-01-15 09:02:22.13	68.90	37.28	-43.9	-46.1	16.4	0.00e+00	0	38	0	0	59	4619
2026-01-15 09:02:23.13	68.47	37.32	-43.8	-46.0	16.5	0.00e+00	0	39	0	0	59	4565
2026-01-15 09:02:24.13	68.05	37.36	-43.8	-46.0	16.6	0.00e+00	0	39	0	0	59	4552
2026-01-15 09:02:25.13	67.63	37.40	-43.7	-45.8	16.7	0.00e+00	0	38	0	0	59	4480
2026-01-15 09:02:26.13	67.20	37.43	-43.6	-45.7	16.8	0.00e+00	0	38	0	0	59	4421
2026-01-15 09:02:27.13	66.77	37.46	-43.7	-45.9	16.7	0.00e+00	0	39	0	0	59	4501
2026-01-15 09:02:28.12	66.35	37.49	-43.9	-46.1	16.4	0.00e+00	0	38	0	0	59	4623
2026-01-15 09:02:29.11	65.93	37.52	-44.0	-46.2	16.4	0.00e+00	0	38	0	0	59	4654
2026-01-15 09:02:30.11	65.50	37.55	-43.9	-46.1	16.4	0.00e+00	0	39	0	0	59	4615
2026-01-15 09:02:31.11	65.07	37.57	-43.9	-46.1	16.4	0.00e+00	0	38	0	0	59	4649
2026-01-15 09:02:32.10	64.64	37.59	-43.8	-46.0	16.5	0.00e+00	0	38	0	0	59	4582
2026-01-15 09:02:33.10	64.21	37.61	-43.9	-46.1	16.4	0.00e+00	0	38	0	0	59	4618
2026-01-15 09:02:34.10	63.78	37.63	-43.7	-45.9	16.5	0.00e+00	0	38	0	0	59	4521
2026-01-15 09:02:35.09	63.35	37.65	-43.9	-46.1	16.4	0.00e+00	0	39	0	0	59	4629
2026-01-15 09:02:36.08	62.92	37.67	-43.9	-46.1	16.4	0.00e+00	0	39	0	0	59	4606
2026-01-15 09:02:37.08	62.49	37.68	-44.1	-46.3	16.2	0.00e+00	0	38	0	0	59	4741
2026-01-15 09:02:38.07	62.06	37.69	-44.2	-46.5	16.1	0.00e+00	0	39	0	0	59	4847
2026-01-15 09:02:39.07	61.63	37.70	-44.0	-46.2	16.3	0.00e+00	0	38	0	0	59	4683
2026-01-15 09:02:40.07	61.20	37.71	-43.9	-46.1	16.4	0.00e+00	0	38	0	0	59	4609
2026-01-15 09:02:41.06	60.77	37.72	-44.0	-46.2	16.3	0.00e+00	0	39	0	0	59	4676
2026-01-15 09:02:42.06	60.33	37.72	-43.9	-46.1	16.4	0.00e+00	0	39	0	0	59	4608
2026-01-15 09:02:43.05	59.90	37.72	-44.0	-46.2	16.3	0.00e+00	0	38	0	0	59	4678
2026-01-15 09:02:44.05	59.47	37.72	-44.2	-46.6	15.9	0.00e+00	0	38	0	0	59	4874
2026-01-15 09:02:45.04	59.04	37.72	-44.3	-46.6	15.9	0.00e+00	0	38	0	0	59	4891
2026-01-15 09:02:46.04	58.61	37.72	-44.3	-46.6	15.9	0.00e+00	0	38	0	0	59	4914
2026-01-15 09:02:47.03	58.18	37.72	-44.3	-46.6	15.8	0.00e+00	0	38	0	0	59	4905
2026-01-15 09:02:48.03	57.74	37.71	-44.0	-46.3	16.2	0.00e+00	0	38	0	0	59	4713
2026-01-15 09:02:49.03	57.31	37.70	-43.8	-46.0	16.5	0.00e+00	0	38	0	0	59	4565
2026-01-15 09:02:50.02	56.88	37.69	-43.7	-45.9	16.6	0.00e+00	0	38	0	0	59	4519
2026-01-15 09:02:51.01	56.45	37.68	-43.7	-45.8	16.6	0.00e+00	0	39	0	0	59	4488
2026-01-15 09:02:52.01	56.02	37.66	-43.8	-46.0	16.5	0.00e+00	0	39	0	0	59	4578
2026-01-15 09:02:53.01	55.59	37.65	-44.1	-46.4	16.1	0.00e+00	0	39	0	0	59	4800
2026-01-15 09:02:54.01	55.16	37.63	-44.3	-46.6	16.0	0.00e+00	0	39	0	0	59	4885
2026-01-15 09:02:55.00	54.73	37.61	-44.3	-46.6	16.0	0.00e+00	0	38	0	0	59	4897
2026-01-15 09:02:55.99	54.30	37.59	-44.2	-46.5	16.0	0.00e+00	0	39	0	0	59	4867
2026-01-15 09:02:56.99	53.87	37.57	-44.3	-46.7	15.9	0.00e+00	0	39	0	0	59	4929
2026-01-15 09:02:57.99	53.44	37.54	-44.1	-46.4	16.1	0.00e+00	0	39	0	0	59	4786
2026-01-15 09:02:58.98	53.02	37.52	-44.1	-46.4	16.1	0.00e+00	0	38	0	0	59	4780
2026-01-15 09:02:59.98	52.59	37.49	-44.1	-46.4	16.2	0.00e+00	0	39	0	0	59	4760
2026-01-15 09:03:00.98	52.17	37.46	-43.6	-45.8	16.7	0.00e+00	0	38	0	0	59	4453
2026-01-15 09:03:01.97	51.74	37.43	-43.5	-45.6	16.9	0.00e+00	0	39	0	0	59	4355
2026-01-15 09:03:02.97	51.32	37.39	-43.7	-45.8	16.6	0.00e+00	0	39	0	0	59	4484
2026-01-15 09:03:03.96	50.90	37.36	-43.8	-45.9	16.5	0.00e+00	0	39	0	0	59	4539
2026-01-15 09:03:04.96	50.47	37.32	-43.9	-46.0	16.4	0.00e+00	0	38	0	0	59	4595
2026-01-15 09:03:05.95	50.06	37.28	-43.7	-45.9	16.6	0.00e+00	0	38	0	0	59	4522
2026-01-15 09:03:06.95	49.64	37.24	-43.7	-45.8	16.7	0.00e+00	0	38	0	0	59	4473
2026-01-15 09:03:07.94	49.22	37.20	-43.7	-45.9	16.6	0.00e+00	0	39	0	0	59	4506
2026-01-15 09:03:08.94	48.80	37.15	-43.8	-46.0	16.4	0.00e+00	0	39	0	0	59	4581
2026-01-15 09:03:09.94	48.38	37.11	-43.8	-46.0	16.5	0.00e+00	0	39	0	0	59	4552
2026-01-15 09:03:10.94	47.97	37.06	-43.7	-45.9	16.6	0.00e+00	0	39	0	0	59	4497
2026-01-15 09:03:11.93	47.55	37.01	-43.8	-45.9	16.5	0.00e+00	0	38	0	0	59	4526
2026-01-15 09:03:12.94	47.14	36.96	-43.8	-45.9	16.5	0.00e+00	0	39	0	0	59	4536
2026-01-15 09:03:13.93	46.73	36.91	-43.9	-46.1	16.4	0.00e+00	0	38	0	0	59	4634
2026-01-15 09:03:14.93	46.32	36.85	-43.9	-46.1	16.4	0.00e+00	0	39	0	0	59	4640
2026-01-15 09:03:15.92	45.91	36.80	-43.8	-46.0	16.5	0.00e+00	0	39	0	0	59	4557
2026-01-15 09:03:16.91	45.50	36.74	-43.6	-45.8	16.7	0.00e+00	0	38	0	0	59	4442
2026-01-15 09:03:17.90	45.10	36.68	-43.5	-45.6	16.8	0.00e+00	0	39	0	0	59	4363
2026-01-15 09:03:18.90	44.70	36.62	-43.5	-45.6	16.8	0.00e+00	0	39	0	0	59	4383
2026-01-15 09:03:19.89	44.30	36.56	-43.5	-45.6	16.8	0.00e+00	0	38	0	0	59	4382
2026-01-15 09:03:20.89	43.89	36.50	-43.7	-45.9	16.5	0.00e+00	0	39	0	0	59	4500
2026-01-15 09:03:21.89	43.49	36.43	-43.8	-45.9	16.5	0.00e+00	0	38	0	0	59	4538
2026-01-15 09:03:22.89	43.09	36.37	-43.9	-46.1	16.4	0.00e+00	0	39	0	0	59	4618
2026-01-15 09:03:23.88	42.70	36.30	-44.0	-46.2	16.3	0.00e+00	0	39	0	0	59	4667
2026-01-15 09:03:24.88	42.30	36.23	-44.1	-46.3	16.2	0.00e+00	0	38	0	0	59	4758
2026-01-15 09:03:25.88	41.91	36.16	-44.1	-46.3	16.2	0.00e+00	0	39	0	0	59	4745
2026-01-15 09:03:26.88	41.51	36.09	-44.1	-46.3	16.1	0.00e+00	0	38	0	0	59	4751
2026-01-15 09:03:27.87	41.13	36.02	-44.1	-46.3	16.1	0.00e+00	0	39	0	0	59	4740
2026-01-15 09:03:28.86	40.74	35.94	-43.5	-45.6	16.7	0.00e+00	0	39	0	0	59	4377
2026-01-15 09:03:29.86	40.36	35.87	-43.2	-45.3	17.0	0.00e+00	0	39	0	0	58	4459
2026-01-15 09:03:30.85	39.97	35.79	-43.4	-45.4	16.9	0.00e+00	0	39	0	0	58	4537
2026-01-15 09:03:31.85	39.59	35.71	-43.2	-45.3	17.1	0.00e+00	0	39	0	0	58	4444
2026-01-15 09:03:32.84	39.21	35.63	-43.1	-45.2	17.3	0.00e+00	0	39	0	0	58	4398
2026-01-15 09:03:33.84	38.83	35.55	-43.5	-45.6	16.9	0.00e+00	0	39	0	0	58	4607
2026-01-15 09:03:34.84	38.45	35.47	-43.8	-45.9	16.6	0.00e+00	0	39	0	0	58	4798
2026-01-15 09:03:35.83	38.08	35.39	-44.0	-46.2	16.3	0.00e+00	0	39	0	0	58	4976
2026-01-15 09:03:36.83	37.71	35.30	-43.8	-46.0	16.5	0.00e+00	0	39	0	0	58	4867
2026-01-15 09:03:37.83	37.33	35.22	-43.6	-45.7	16.7	0.00e+00	0	39	0	0	58	4692
2026-01-15 09:03:38.83	36.96	35.13	-43.4	-45.6	16.8	0.00e+00	0	39	0	0	58	4604
2026-01-15 09:03:39.82	36.60	35.04	-43.4	-45.5	16.9	0.00e+00	0	38	0	0	58	4568
2026-01-15 09:03:40.82	36.23	34.96	-43.2	-45.3	17.1	0.00e+00	0	38	0	0	58	4443
2026-01-15 09:03:41.82	35.87	34.87	-43.0	-45.0	17.4	0.00e+00	0	39	0	0	57	4568
2026-01-15 09:03:42.82	35.51	34.77	-42.9	-44.9	17.5	0.00e+00	0	38	0	0	57	4523
2026-01-15 09:03:43.81	35.15	34.68	-43.2	-45.3	17.1	0.00e+00	0	38	0	0	57	4741
2026-01-15 09:03:44.81	34.79	34.59	-43.5	-45.7	16.8	0.00e+00	0	38	0	0	57	4945
2026-01-15 09:03:45.80	34.44	34.50	-43.4	-45.6	16.9	0.00e+00	0	39	0	0	57	4879
2026-01-15 09:03:46.80	34.09	34.40	-43.3	-45.4	17.1	0.00e+00	0	38	0	0	57	4768
2026-01-15 09:03:47.80	33.73	34.31	-43.3	-45.4	17.1	0.00e+00	0	38	0	0	57	4765
2026-01-15 09:03:48.80	33.38	34.21	-43.2	-45.3	17.1	0.00e+00	0	38	0	0	57	4737
2026-01-15 09:03:49.80	33.04	34.11	-43.4	-45.5	16.9	0.00e+00	0	38	0	0	57	4840
2026-01-15 09:03:50.80	32.69	34.01	-43.7	-45.9	16.6	0.00e+00	0	39	0	0	58	4778
2026-01-15 09:03:51.79	32.35	33.91	-43.8	-46.0	16.5	0.00e+00	0	39	0	0	58	4852
2026-01-15 09:03:52.79	32.01	33.81	-43.6	-45.8	16.7	0.00e+00	0	39	0	0	58	4711
2026-01-15 09:03:53.78	31.67	33.71	-43.2	-45.3	17.2	0.00e+00	0	38	0	0	58	4468
2026-01-15 09:03:54.78	31.34	33.61	-43.0	-45.0	17.4	0.00e+00	0	39	0	0	58	4314
2026-01-15 09:03:55.78	31.00	33.51	-42.7	-44.7	17.8	0.00e+00	0	38	0	0	57	4394
2026-01-15 09:03:56.77	30.67	33.41	-42.5	-44.4	18.0	0.00e+00	0	39	0	0	56	4527
2026-01-15 09:03:57.77	30.34	33.30	-42.8	-44.7	17.7	0.00e+00	0	39	0	0	56	4695
2026-01-15 09:03:58.76	30.02	33.20	-43.2	-45.3	17.1	0.00e+00	0	39	0	0	57	4741
2026-01-15 09:03:59.76	29.69	33.09	-43.8	-46.0	16.5	0.00e+00	0	38	0	0	58	4843
2026-01-15 09:04:00.76	29.37	32.99	-44.1	-46.4	16.1	0.00e+00	0	39	0	0	58	5064
2026-01-15 09:04:01.75	29.05	32.88	-43.9	-46.1	16.3	0.00e+00	0	39	0	0	58	4911
2026-01-15 09:04:02.74	28.73	32.77	-43.4	-45.5	16.9	0.00e+00	0	38	0	0	58	4597
2026-01-15 09:04:03.74	28.41	32.67	-42.9	-44.9	17.5	0.00e+00	0	39	0	0	57	4519
2026-01-15 09:04:04.74	28.10	32.56	-42.8	-44.8	17.6	0.00e+00	0	39	0	0	57	4462
2026-01-15 09:04:05.73	27.79	32.45	-42.8	-44.8	17.6	0.00e+00	0	39	0	0	57	4448
2026-01-15 09:04:06.72	27.48	32.34	-42.5	-44.5	17.9	0.00e+00	0	39	0	0	57	4296
2026-01-15 09:04:07.72	27.17	32.23	-42.5	-44.5	17.9	0.00e+00	0	39	0	0	57	4296
2026-01-15 09:04:08.71	26.86	32.12	-42.5	-44.5	17.7	0.00e+00	0	39	0	0	57	4327
2026-01-15 09:04:09.71	26.56	32.01	-42.3	-44.3	18.0	0.00e+00	0	39	0	0	56	4456
2026-01-15 09:04:10.70	26.26	31.90	-42.2	-44.2	18.0	0.00e+00	0	39	0	0	56	4405
2026-01-15 09:04:11.70	25.96	31.78	-41.8	-43.7	18.4	0.00e+00	0	39	0	0	55	4410
2026-01-15 09:04:12.70	25.66	31.67	-41.5	-43.4	18.6	0.00e+00	0	39	0	0	55	4271
2026-01-15 09:04:13.69	25.37	31.56	-41.6	-43.5	18.5	0.00e+00	0	39	0	0	55	4307
2026-01-15 09:04:14.69	25.07	31.44	-41.7	-43.6	18.4	0.00e+00	0	39	0	0	55	4378
2026-01-15 09:04:15.68	24.78	31.33	-42.0	-43.9	18.2	0.00e+00	0	39	0	0	55	4539
2026-01-15 09:04:16.67	24.49	31.22	-42.3	-44.3	17.8	0.00e+00	0	39	0	0	55	4721
2026-01-15 09:04:17.67	24.21	31.10	-42.5	-44.5	17.6	0.00e+00	0	39	0	0	55	4848
2026-01-15 09:04:18.67	23.92	30.99	-42.9	-44.9	17.4	0.00e+00	0	39	0	0	56	4772
2026-01-15 09:04:19.67	23.63	30.87	-42.9	-44.9	17.3	0.00e+00	0	39	0	0	56	4808
2026-01-15 09:04:20.67	23.35	30.76	-42.9	-45.0	17.3	0.00e+00	0	39	0	0	56	4821
2026-01-15 09:04:21.66	23.07	30.64	-42.7	-44.7	17.6	0.00e+00	0	39	0	0	56	4666
2026-01-15 09:04:22.66	22.80	30.52	-42.8	-44.8	17.5	0.00e+00	0	39	0	0	56	4750
2026-01-15 09:04:23.65	22.52	30.41	-42.8	-44.8	17.5	0.00e+00	0	39	0	0	56	4758
2026-01-15 09:04:24.65	22.25	30.29	-42.8	-44.8	17.6	0.00e+00	0	39	0	0	56	4724
2026-01-15 09:04:25.64	21.98	30.17	-43.0	-45.0	17.4	0.00e+00	0	39	0	0	56	4866
2026-01-15 09:04:26.64	21.71	30.06	-43.0	-45.0	17.3	0.00e+00	0	39	0	0	56	4861
2026-01-15 09:04:27.64	21.44	29.94	-42.8	-44.8	17.6	0.00e+00	0	38	0	0	56	4742
2026-01-15 09:04:28.64	21.17	29.82	-42.6	-44.6	17.8	0.00e+00	0	39	0	0	56	4613
2026-01-15 09:04:29.64	20.91	29.70	-42.5	-44.5	17.9	0.00e+00	0	38	0	0	56	4549
2026-01-15 09:04:30.63	20.65	29.59	-42.4	-44.4	17.9	0.00e+00	0	39	0	0	56	4501
2026-01-15 09:04:31.62	20.39	29.47	-42.5	-44.5	17.9	0.00e+00	0	38	0	0	56	4566
2026-01-15 09:04:32.62	20.13	29.35	-42.7	-44.7	17.7	0.00e+00	0	39	0	0	56	4658
2026-01-15 09:04:33.62	19.88	29.23	-42.7	-44.6	17.7	0.00e+00	0	39	0	0	56	4650
2026-01-15 09:04:34.62	19.62	29.11	-42.7	-44.7	17.7	0.00e+00	0	39	0	0	56	4681
2026-01-15 09:04:35.61	19.37	28.99	-42.8	-44.8	17.6	0.00e+00	0	39	0	0	56	4740
2026-01-15 09:04:36.61	19.12	28.87	-42.7	-44.7	17.7	0.00e+00	0	39	0	0	56	4683
2026-01-15 09:04:37.60	18.88	28.76	-42.7	-44.7	17.6	0.00e+00	0	38	0	0	56	4691
2026-01-15 09:04:38.60	18.63	28.64	-42.6	-44.6	17.7	0.00e+00	0	39	0	0	56	4648
2026-01-15 09:04:39.60	18.38	28.52	-42.5	-44.5	17.9	0.00e+00	0	39	0	0	56	4557
2026-01-15 09:04:40.60	18.14	28.40	-42.4	-44.4	18.0	0.00e+00	0	39	0	0	56	4505
2026-01-15 09:04:41.60	17.90	28.28	-42.4	-44.4	17.9	0.00e+00	0	38	0	0	56	4513
2026-01-15 09:04:42.60	17.66	28.16	-42.4	-44.4	17.9	0.00e+00	0	39	0	0	56	4530
2026-01-15 09:04:43.59	17.42	28.04	-42.4	-44.4	17.9	0.00e+00	0	39	0	0	56	4496
2026-01-15 09:04:44.59	17.19	27.92	-42.2	-44.2	18.1	0.00e+00	0	38	0	0	56	4416
2026-01-15 09:04:45.59	16.95	27.80	-42.2	-44.2	18.1	0.00e+00	0	39	0	0	56	4421
2026-01-15 09:04:46.58	16.72	27.68	-42.3	-44.3	18.0	0.00e+00	0	39	0	0	56	4463
2026-01-15 09:04:47.58	16.49	27.56	-42.3	-44.3	17.9	0.00e+00	0	38	0	0	56	4468
2026-01-15 09:04:48.57	16.27	27.44	-42.2	-44.1	18.1	0.00e+00	0	39	0	0	56	4384
2026-01-15 09:04:49.57	16.04	27.32	-42.0	-43.9	18.3	0.00e+00	0	39	0	0	56	4272
2026-01-15 09:04:50.57	15.81	27.20	-41.7	-43.6	18.4	0.00e+00	0	39	0	0	55	4369
2026-01-15 09:04:51.56	15.59	27.08	-41.8	-43.6	18.4	0.00e+00	0	39	0	0	55	4383
2026-01-15 09:04:52.55	15.37	26.96	-41.9	-43.8	18.3	0.00e+00	0	39	0	0	55	4454
2026-01-15 09:04:53.55	15.15	26.84	-42.0	-43.9	18.2	0.00e+00	0	39	0	0	55	4516
2026-01-15 09:04:54.55	14.93	26.73	-42.3	-44.2	18.0	0.00e+00	0	39	0	0	55	4667
2026-01-15 09:04:55.54	14.72	26.61	-42.4	-44.3	17.8	0.00e+00	0	38	0	0	55	4749
2026-01-15 09:04:56.54	14.50	26.49	-42.5	-44.5	17.7	0.00e+00	0	39	0	0	55	4824
2026-01-15 09:04:57.54	14.29	26.37	-42.2	-44.2	18.0	0.00e+00	0	38	0	0	55	4666
2026-01-15 09:04:58.53	14.08	26.25	-42.2	-44.1	18.0	0.00e+00	0	38	0	0	55	4637
2026-01-15 09:04:59.53	13.87	26.13	-42.1	-44.1	18.1	0.00e+00	0	38	0	0	55	4609
2026-01-15 09:05:00.53	13.66	26.01	-42.1	-44.0	18.1	0.00e+00	0	39	0	0	55	4566
2026-01-15 09:05:01.52	13.45	25.89	-42.0	-43.9	18.2	0.00e+00	0	39	0	0	55	4523
2026-01-15 09:05:02.52	13.24	25.77	-42.0	-43.9	18.2	0.00e+00	0	38	0	0	55	4514
2026-01-15 09:05:03.52	13.04	25.66	-42.0	-43.9	18.2	0.00e+00	0	39	0	0	55	4532
2026-01-15 09:05:04.51	12.84	25.54	-42.2	-44.2	18.0	0.00e+00	0	38	0	0	55	4669
2026-01-15 09:05:05.51	12.64	25.42	-42.3	-44.3	17.8	0.00e+00	0	39	0	0	55	4748
2026-01-15 09:05:06.50	12.44	25.30	-42.4	-44.5	17.7	0.00e+00	0	39	0	0	55	4835
2026-01-15 09:05:07.50	12.24	25.18	-42.7	-44.7	17.5	0.00e+00	0	38	0	0	55	4979
2026-01-15 09:05:08.49	12.05	25.07	-43.0	-45.0	17.4	0.00e+00	0	38	0	0	56	4866
2026-01-15 09:05:09.49	11.85	24.95	-43.1	-45.2	17.2	0.00e+00	0	39	0	0	56	4959
2026-01-15 09:05:10.48	11.66	24.83	-43.1	-45.2	17.2	0.00e+00	0	38	0	0	56	4956
2026-01-15 09:05:11.47	11.47	24.72	-43.0	-45.1	17.4	0.00e+00	0	38	0	0	56	4872
2026-01-15 09:05:12.47	11.28	24.60	-43.0	-45.1	17.3	0.00e+00	0	38	0	0	56	4883
2026-01-15 09:05:13.46	11.09	24.48	-42.9	-44.9	17.5	0.00e+00	0	39	0	0	56	4793
2026-01-15 09:05:14.45	10.90	24.37	-42.8	-44.8	17.6	0.00e+00	0	39	0	0	56	4751
2026-01-15 09:05:15.45	10.72	24.25	-42.7	-44.7	17.7	0.00e+00	0	39	0	0	56	4673
2026-01-15 09:05:16.44	10.53	24.14	-42.6	-44.5	17.8	0.00e+00	0	38	0	0	56	4572
2026-01-15 09:05:17.43	10.35	24.02	-42.4	-44.3	18.1	0.00e+00	0	39	0	0	56	4452
2026-01-15 09:05:18.42	10.17	23.90	-42.4	-44.3	18.0	0.00e+00	0	39	0	0	56	4480
2026-01-15 09:05:19.43	9.99	23.79	-42.4	-44.3	18.0	0.00e+00	0	38	0	0	56	4473
2026-01-15 09:05:20.42	9.81	23.67	-42.4	-44.3	18.0	0.00e+00	0	39	0	0	56	4480
2026-01-15 09:05:21.42	9.63	23.56	-42.4	-44.3	18.0	0.00e+00	0	39	0	0	56	4462
2026-01-15 09:05:22.41	9.46	23.44	-42.4	-44.3	18.0	0.00e+00	0	39	0	0	56	4471
2026-01-15 09:05:23.41	9.28	23.33	-42.4	-44.3	18.0	0.00e+00	0	39	0	0	56	4474
2026-01-15 09:05:24.40	9.11	23.21	-42.4	-44.3	18.0	0.00e+00	0	38	0	0	56	4471
2026-01-15 09:05:25.39	8.94	23.10	-42.4	-44.3	17.9	0.00e+00	0	38	0	0	56	4486
2026-01-15 09:05:26.39	8.76	22.99	-42.3	-44.2	18.1	0.00e+00	0	39	0	0	56	4411
2026-01-15 09:05:27.38	8.60	22.87	-42.2	-44.1	18.2	0.00e+00	0	39	0	0	56	4361
2026-01-15 09:05:28.38	8.43	22.76	-42.2	-44.2	18.1	0.00e+00	0	39	0	0	56	4409
2026-01-15 09:05:29.38	8.26	22.64	-42.2	-44.1	18.1	0.00e+00	0	39	0	0	56	4383
2026-01-15 09:05:30.37	8.09	22.53	-42.4	-44.3	18.0	0.00e+00	0	38	0	0	56	4475
2026-01-15 09:05:31.36	7.93	22.42	-42.3	-44.3	18.0	0.00e+00	0	38	0	0	56	4467
2026-01-15 09:05:32.35	7.77	22.31	-42.4	-44.4	17.9	0.00e+00	0	39	0	0	56	4504
2026-01-15 09:05:33.35	7.60	22.19	-42.5	-44.4	17.9	0.00e+00	0	39	0	0	56	4538
2026-01-15 09:05:34.34	7.44	22.08	-42.5	-44.4	17.9	0.00e+00	0	39	0	0	56	4539
2026-01-15 09:05:35.34	7.28	21.97	-42.5	-44.4	17.8	0.00e+00	0	39	0	0	56	4543
2026-01-15 09:05:36.34	7.12	21.86	-42.4	-44.4	17.9	0.00e+00	0	39	0	0	56	4527
2026-01-15 09:05:37.34	6.96	21.75	-42.4	-44.4	17.9	0.00e+00	0	39	0	0	56	4501
2026-01-15 09:05:38.33	6.81	21.64	-42.2	-44.2	18.0	0.00e+00	0	39	0	0	56	4392
2026-01-15 09:05:39.33	6.65	21.52	-42.1	-44.1	18.1	0.00e+00	0	38	0	0	56	4371
2026-01-15 09:05:40.32	6.50	21.41	-42.2	-44.2	18.0	0.00e+00	0	39	0	0	56	4409
2026-01-15 09:05:41.32	6.34	21.30	-42.2	-44.2	18.0	0.00e+00	0	39	0	0	56	4418
2026-01-15 09:05:42.31	6.19	21.19	-42.1	-44.1	18.1	0.00e+00	0	39	0	0	56	4366
2026-01-15 09:05:43.30	6.04	21.09	-42.2	-44.3	17.9	0.00e+00	0	39	0	0	56	4448
2026-01-15 09:05:44.29	5.89	20.98	-42.1	-44.2	18.0	0.00e+00	0	39	0	0	56	4433
2026-01-15 09:05:45.29	5.74	20.87	-42.3	-44.4	17.8	0.00e+00	0	39	0	0	56	4521
2026-01-15 09:05:46.29	5.59	20.76	-42.4	-44.5	17.7	0.00e+00	0	39	0	0	56	4561
2026-01-15 09:05:47.29	5.45	20.65	-42.5	-44.6	17.7	0.00e+00	0	39	0	0	56	4609
2026-01-15 09:05:48.28	5.30	20.54	-42.5	-44.6	17.6	0.00e+00	0	39	0	0	56	4643
2026-01-15 09:05:49.28	5.16	20.43	-42.6	-44.7	17.5	0.00e+00	0	39	0	0	56	4699
2026-01-15 09:05:50.27	5.01	20.32	-42.6	-44.7	17.5	0.00e+00	0	38	0	0	56	4663
2026-01-15 09:05:51.26	4.87	20.22	-42.5	-44.6	17.6	0.00e+00	0	38	0	0	56	4625
2026-01-15 09:05:52.26	4.73	20.11	-42.6	-44.7	17.5	0.00e+00	0	39	0	0	56	4658
2026-01-15 09:05:53.25	4.59	20.00	-42.5	-44.6	17.5	0.00e+00	0	38	0	0	56	4641
2026-01-15 09:05:54.25	4.45	19.90	-42.6	-44.7	17.5	0.00e+00	0	39	0	0	56	4669
2026-01-15 09:05:55.25	4.31	19.79	-42.7	-44.7	17.4	0.00e+00	0	39	0	0	56	4700
2026-01-15 09:05:56.24	4.17	19.68	-42.7	-44.7	17.5	0.00e+00	0	38	0	0	56	4683
2026-01-15 09:05:57.24	4.04	19.58	-42.6	-44.6	17.6	0.00e+00	0	38	0	0	56	4619
2026-01-15 09:05:58.23	3.90	19.47	-42.6	-44.6	17.6	0.00e+00	0	38	0	0	56	4641
2026-01-15 09:05:59.23	3.77	19.36	-42.7	-44.8	17.5	0.00e+00	0	39	0	0	56	4710
2026-01-15 09:06:00.23	3.63	19.26	-42.7	-44.7	17.5	0.00e+00	0	39	0	0	56	4701
2026-01-15 09:06:01.23	3.50	19.15	-42.8	-44.9	17.4	0.00e+00	0	38	0	0	56	4767
2026-01-15 09:06:02.23	3.37	19.05	-42.9	-45.0	17.4	0.00e+00	0	38	0	0	56	4826
2026-01-15 09:06:03.22	3.24	18.95	-42.9	-45.0	17.4	0.00e+00	0	39	0	0	56	4820
2026-01-15 09:06:04.23	3.10	18.84	-42.8	-44.9	17.4	0.00e+00	0	38	0	0	56	4806
2026-01-15 09:06:05.22	2.98	18.74	-42.7	-44.8	17.5	0.00e+00	0	38	0	0	56	4728
2026-01-15 09:06:06.22	2.85	18.63	-42.8	-44.8	17.5	0.00e+00	0	39	0	0	56	4759
2026-01-15 09:06:07.22	2.72	18.53	-42.8	-44.9	17.4	0.00e+00	0	39	0	0	56	4772
2026-01-15 09:06:08.22	2.59	18.43	-42.7	-44.7	17.6	0.00e+00	0	39	0	0	56	4662
2026-01-15 09:06:09.21	2.47	18.32	-42.6	-44.6	17.7	0.00e+00	0	39	0	0	56	4617
2026-01-15 09:06:10.20	2.34	18.22	-42.6	-44.7	17.6	0.00e+00	0	39	0	0	56	4665
2026-01-15 09:06:11.20	2.22	18.12	-42.7	-44.7	17.6	0.00e+00	0	39	0	0	56	4696
2026-01-15 09:06:12.20	2.10	18.02	-42.6	-44.7	17.6	0.00e+00	0	39	0	0	56	4688
2026-01-15 09:06:13.19	1.97	17.92	-42.7	-44.9	17.5	0.00e+00	0	39	0	0	56	4760
2026-01-15 09:06:14.19	1.85	17.81	-42.7	-44.9	17.5	0.00e+00	0	38	0	0	56	4766
2026-01-15 09:06:15.19	1.73	17.71	-42.6	-44.7	17.6	0.00e+00	0	39	0	0	56	4697
2026-01-15 09:06:16.18	1.61	17.61	-42.6	-44.8	17.6	0.00e+00	0	38	0	0	56	4707
2026-01-15 09:06:17.18	1.49	17.51	-42.5	-44.7	17.6	0.00e+00	0	39	0	0	56	4697
2026-01-15 09:06:18.18	1.38	17.41	-42.6	-44.8	17.5	0.00e+00	0	39	0	0	56	4752
2026-01-15 09:06:19.17	1.26	17.31	-42.7	-44.9	17.4	0.00e+00	0	39	0	0	56	4806
2026-01-15 09:06:20.17	1.14	17.21	-42.8	-45.0	17.3	0.00e+00	0	39	0	0	56	4858
2026-01-15 09:06:21.17	1.03	17.11	-42.9	-45.0	17.3	0.00e+00	0	38	0	0	56	4862
2026-01-15 09:06:22.17	0.91	17.01	-42.8	-45.0	17.4	0.00e+00	0	39	0	0	56	4841
2026-01-15 09:06:23.16	0.80	16.91	-43.0	-45.2	17.2	0.00e+00	0	39	0	0	56	4944
2026-01-15 09:06:24.16	0.68	16.82	-43.0	-45.3	17.1	0.00e+00	0	39	0	0	56	4990
2026-01-15 09:06:25.15	0.57	16.72	-43.0	-45.3	17.1	0.00e+00	0	39	0	0	56	4992
2026-01-15 09:06:26.14	0.46	16.62	-43.0	-45.2	17.1	0.00e+00	0	39	0	0	56	4972
2026-01-15 09:06:27.14	0.35	16.52	-43.0	-45.2	17.1	0.00e+00	0	38	0	0	56	4970
2026-01-15 09:06:28.14	0.24	16.43	-43.1	-45.3	17.0	0.00e+00	0	39	0	0	56	5022
2026-01-15 09:06:29.13	0.13	16.33	-43.1	-45.3	17.0	0.00e+00	0	39	0	0	56	5033
2026-01-15 09:06:30.13	0.02	16.23	-43.1	-45.3	17.0	0.00e+00	0	39	0	0	56	5036
2026-01-15 09:06:31.12	359.91	16.14	-43.1	-45.3	17.0	0.00e+00	0	39	0	0	56	5003
2026-01-15 09:06:32.11	359.80	16.04	-42.9	-45.0	17.3	0.00e+00	0	39	0	0	56	4826
2026-01-15 09:06:33.11	359.70	15.94	-42.7	-44.7	17.5	0.00e+00	0	39	0	0	56	4698
2026-01-15 09:06:34.10	359.59	15.85	-42.6	-44.7	17.5	0.00e+00	0	39	0	0	56	4666
2026-01-15 09:06:35.10	359.49	15.75	-42.6	-44.7	17.5	0.00e+00	0	38	0	0	56	4687
2026-01-15 09:06:36.10	359.38	15.66	-42.4	-44.5	17.7	0.00e+00	0	39	0	0	56	4561
2026-01-15 09:06:37.10	359.28	15.56	-42.3	-44.4	17.8	0.00e+00	0	39	0	0	56	4516
2026-01-15 09:06:38.09	359.17	15.47	-42.4	-44.5	17.7	0.00e+00	0	39	0	0	56	4559
2026-01-15 09:06:39.09	359.07	15.37	-42.4	-44.6	17.7	0.00e+00	0	39	0	0	56	4600
2026-01-15 09:06:40.08	358.97	15.28	-42.4	-44.6	17.7	0.00e+00	0	39	0	0	56	4612
2026-01-15 09:06:41.08	358.87	15.19	-42.5	-44.7	17.6	0.00e+00	0	39	0	0	56	4666
2026-01-15 09:06:42.07	358.77	15.09	-42.6	-44.7	17.6	0.00e+00	0	39	0	0	56	4686
2026-01-15 09:06:43.07	358.67	15.00	-42.7	-44.8	17.5	0.00e+00	0	39	0	0	56	4740
2026-01-15 09:06:44.06	358.57	14.91	-42.7	-44.8	17.5	0.00e+00	0	39	0	0	56	4749
2026-01-15 09:06:45.06	358.47	14.81	-42.8	-45.0	17.4	0.00e+00	0	39	0	0	56	4821
2026-01-15 09:06:46.06	358.37	14.72	-42.9	-45.1	17.3	0.00e+00	0	38	0	0	56	4874
2026-01-15 09:06:47.05	358.27	14.63	-43.0	-45.2	17.2	0.00e+00	0	39	0	0	56	4945
2026-01-15 09:06:48.04	358.18	14.54	-43.0	-45.2	17.1	0.00e+00	0	39	0	0	56	4960
2026-01-15 09:06:49.04	358.08	14.45	-43.0	-45.2	17.1	0.00e+00	0	39	0	0	56	4982
2026-01-15 09:06:50.04	357.99	14.35	-43.1	-45.3	17.1	0.00e+00	0	39	0	0	56	4997
2026-01-15 09:06:51.03	357.89	14.26	-43.2	-45.5	16.8	0.00e+00	0	39	0	0	57	4822
2026-01-15 09:06:52.03	357.80	14.17	-43.1	-45.3	17.0	0.00e+00	0	39	0	0	57	4741
2026-01-15 09:06:53.03	357.70	14.08	-43.1	-45.3	16.9	0.00e+00	0	39	0	0	57	4756
2026-01-15 09:06:54.02	357.61	13.99	-43.1	-45.3	16.9	0.00e+00	0	39	0	0	57	4742
2026-01-15 09:06:55.02	357.52	13.90	-43.1	-45.3	17.0	0.00e+00	0	39	0	0	57	4715
2026-01-15 09:06:56.02	357.42	13.81	-43.0	-45.2	17.0	0.00e+00	0	39	0	0	57	4671
2026-01-15 09:06:57.01	357.33	13.72	-43.1	-45.3	16.9	0.00e+00	0	39	0	0	57	4737
2026-01-15 09:06:58.01	357.24	13.63	-43.1	-45.2	17.1	0.00e+00	0	39	0	0	57	4653
2026-01-15 09:06:59.01	357.15	13.54	-43.1	-45.2	17.0	0.00e+00	0	39	0	0	57	4671
2026-01-15 09:07:00.00	357.06	13.45	-43.1	-45.3	16.9	0.00e+00	0	39	0	0	57	4725
2026-01-15 09:07:01.00	356.97	13.37	-43.1	-45.3	17.0	0.00e+00	0	39	0	0	57	4716
2026-01-15 09:07:02.00	356.88	13.28	-43.0	-45.2	17.0	0.00e+00	0	39	0	0	57	4657
2026-01-15 09:07:03.00	356.80	13.19	-43.0	-45.1	17.1	0.00e+00	0	39	0	0	57	4648
2026-01-15 09:07:04.00	356.71	13.10	-43.0	-45.2	17.1	0.00e+00	0	39	0	0	57	4652
2026-01-15 09:07:04.99	356.62	13.01	-42.9	-45.1	17.1	0.00e+00	0	39	0	0	57	4647
2026-01-15 09:07:05.99	356.53	12.93	-43.0	-45.3	17.0	0.00e+00	0	39	0	0	57	4714
2026-01-15 09:07:06.98	356.45	12.84	-42.9	-45.2	17.1	0.00e+00	0	39	0	0	57	4672
2026-01-15 09:07:07.98	356.36	12.75	-42.8	-45.2	17.1	0.00e+00	0	39	0	0	57	4680
2026-01-15 09:07:08.97	356.28	12.67	-42.8	-45.3	17.0	0.00e+00	0	38	0	0	57	4739
2026-01-15 09:07:09.97	356.19	12.58	-42.8	-45.3	17.0	0.00e+00	0	38	0	0	57	4729
2026-01-15 09:07:10.97	356.11	12.49	-42.8	-45.3	17.0	0.00e+00	0	39	0	0	57	4752
2026-01-15 09:07:11.96	356.03	12.41	-42.8	-45.4	17.0	0.00e+00	0	39	0	0	57	4766
2026-01-15 09:07:12.96	355.94	12.32	-42.8	-45.5	16.8	0.00e+00	0	39	0	0	57	4845
2026-01-15 09:07:13.96	355.86	12.24	-42.8	-45.5	16.9	0.00e+00	0	39	0	0	57	4844
2026-01-15 09:07:14.95	355.78	12.15	-42.9	-45.6	16.7	0.00e+00	0	39	0	0	57	4913
2026-01-15 09:07:15.95	355.70	12.07	-42.9	-45.6	16.7	0.00e+00	0	38	0	0	57	4926
2026-01-15 09:07:16.95	355.62	11.98	-43.0	-45.8	16.6	0.00e+00	0	39	0	0	57	4993
2026-01-15 09:07:17.95	355.54	11.90	-43.1	-45.7	16.7	0.00e+00	0	38	0	0	57	4970
2026-01-15 09:07:18.94	355.46	11.81	-43.2	-45.9	16.5	0.00e+00	0	38	0	0	57	5056
2026-01-15 09:07:19.94	355.38	11.73	-43.4	-45.9	16.5	0.00e+00	0	39	0	0	57	5089
2026-01-15 09:07:20.94	355.30	11.64	-43.4	-46.0	16.5	0.00e+00	0	39	0	0	57	5101
2026-01-15 09:07:21.94	355.22	11.56	-43.6	-46.1	16.3	0.00e+00	0	38	0	0	57	5211
2026-01-15 09:07:22.94	355.14	11.48	-43.6	-46.2	16.3	0.00e+00	0	38	0	0	57	5240
2026-01-15 09:07:23.94	355.06	11.39	-43.6	-46.2	16.2	0.00e+00	0	39	0	0	58	4949
2026-01-15 09:07:24.93	354.99	11.31	-43.7	-46.3	16.2	0.00e+00	0	38	0	0	58	4992
2026-01-15 09:07:25.93	354.91	11.23	-43.6	-46.3	16.1	0.00e+00	0	38	0	0	58	5014
2026-01-15 09:07:26.93	354.83	11.15	-43.6	-46.4	16.1	0.00e+00	0	39	0	0	58	5042
2026-01-15 09:07:27.93	354.76	11.06	-43.7	-46.5	16.0	0.00e+00	0	39	0	0	58	5116
2026-01-15 09:07:28.92	354.68	10.98	-43.7	-46.6	15.9	0.00e+00	0	38	0	0	58	5192
2026-01-15 09:07:29.92	354.61	10.90	-43.7	-46.6	15.8	0.00e+00	0	39	0	0	58	5186
2026-01-15 09:07:30.92	354.53	10.82	-43.8	-46.8	15.7	0.00e+00	0	39	0	0	58	5282
2026-01-15 09:07:31.92	354.46	10.74	-43.7	-46.6	15.9	0.00e+00	0	39	0	0	58	5165
2026-01-15 09:07:32.91	354.39	10.66	-43.8	-46.6	15.8	0.00e+00	0	38	0	0	58	5218
2026-01-15 09:07:33.91	354.31	10.57	-43.9	-46.7	15.8	0.00e+00	0	39	0	0	58	5249
2026-01-15 09:07:34.90	354.24	10.49	-43.9	-46.7	15.7	0.00e+00	0	39	0	0	58	5267
2026-01-15 09:07:35.90	354.17	10.41	-43.9	-46.7	15.8	0.00e+00	0	38	0	0	58	5232
2026-01-15 09:07:36.90	354.10	10.33	-44.0	-46.9	15.6	0.00e+00	0	39	0	0	58	5366
2026-01-15 09:07:37.89	354.02	10.25	-43.9	-46.8	15.7	0.00e+00	0	39	0	0	58	5301
2026-01-15 09:07:38.88	353.95	10.17	-44.1	-47.0	15.5	0.00e+00	0	39	0	0	58	5408
2026-01-15 09:07:39.88	353.88	10.09	-43.8	-46.9	15.6	0.00e+00	0	39	0	0	58	5365
2026-01-15 09:07:40.88	353.81	10.01	-43.6	-46.9	15.6	0.00e+00	0	39	0	0	58	5393
2026-01-15 09:07:41.87	353.74	9.94	-43.6	-46.9	15.5	0.00e+00	0	38	0	0	58	5393
2026-01-15 09:07:42.87	353.67	9.86	-43.5	-47.0	15.5	0.00e+00	0	38	0	0	58	5429
2026-01-15 09:07:43.87	353.60	9.78	-43.4	-47.1	15.4	0.00e+00	0	38	0	0	58	5513
2026-01-15 09:07:44.87	353.54	9.70	-43.4	-47.1	15.4	0.00e+00	0	39	0	0	58	5498
2026-01-15 09:07:45.86	353.47	9.62	-43.4	-47.1	15.4	0.00e+00	0	38	0	0	58	5496
2026-01-15 09:07:46.86	353.40	9.54	-43.5	-47.2	15.3	0.00e+00	0	39	0	0	58	5576
2026-01-15 09:07:47.86	353.33	9.46	-43.7	-47.3	15.3	0.00e+00	0	38	0	0	58	5613
2026-01-15 09:07:48.86	353.26	9.39	-43.7	-47.3	15.2	0.00e+00	0	39	0	0	58	5621
2026-01-15 09:07:49.85	353.20	9.31	-43.8	-47.5	15.1	0.00e+00	0	38	0	0	58	5725
2026-01-15 09:07:50.85	353.13	9.23	-44.0	-47.3	15.2	0.00e+00	0	38	0	0	58	5656
2026-01-15 09:07:51.85	353.07	9.15	-44.2	-47.4	15.2	0.00e+00	0	39	0	0	59	5356
2026-01-15 09:07:52.84	353.00	9.08	-44.5	-47.5	15.0	0.00e+00	0	39	0	0	59	5456
2026-01-15 09:07:53.84	352.93	9.00	-45.6	-51.8	11.0	7.00e-07	0	38	0	0	61	7983
2026-01-15 09:07:54.83	352.87	8.93	-49.0	-63.8	3.8	1.49e+00	0	39	104	0	69	19939
2026-01-15 09:07:55.83	352.81	8.85	-50.0	-64.2	3.8	1.49e+00	0	39	104	0	71	18575
2026-01-15 09:07:56.83	352.74	8.77	-50.2	-64.2	3.8	1.49e+00	0	38	104	0	72	17639
2026-01-15 09:07:57.83	352.68	8.70	-51.0	-64.4	3.8	1.49e+00	0	39	104	0	72	17912
2026-01-15 09:07:58.83	352.61	8.62	-50.7	-64.4	3.8	1.49e+00	0	39	104	0	72	18035
2026-01-15 09:07:59.83	352.55	8.54	-51.2	-64.4	3.8	1.49e+00	0	39	104	0	72	18036
2026-01-15 09:08:00.82	352.49	8.47	-51.3	-64.5	3.8	1.49e+00	0	39	104	0	73	17183
2026-01-15 09:08:01.82	352.42	8.39	-51.3	-64.5	3.8	1.49e+00	0	39	104	0	73	17179
2026-01-15 09:08:02.82	352.36	8.32	-51.2	-64.5	3.8	1.49e+00	0	39	104	0	73	17192
2026-01-15 09:08:03.81	352.30	8.24	-51.0	-64.5	3.8	1.49e+00	0	39	104	0	73	17249
2026-01-15 09:08:04.81	352.24	8.17	-51.4	-64.6	3.8	1.49e+00	0	39	104	0	73	17307
2026-01-15 09:08:05.81	352.18	8.09	-51.2	-64.6	3.8	1.49e+00	0	38	104	0	73	17386
2026-01-15 09:08:06.81	352.12	8.02	-51.6	-64.6	3.8	1.49e+00	0	39	104	0	73	17338
2026-01-15 09:08:07.81	352.06	7.95	-51.6	-64.6	3.8	1.49e+00	0	39	104	0	73	17429
2026-01-15 09:08:08.80	352.00	7.87	-51.5	-64.6	3.8	1.49e+00	0	39	104	0	73	17359
2026-01-15 09:08:09.80	351.94	7.80	-51.6	-64.6	3.8	1.49e+00	0	38	104	0	73	17458
2026-01-15 09:08:10.79	351.88	7.73	-51.5	-64.6	3.8	1.49e+00	0	39	104	0	73	17451
2026-01-15 09:08:11.78	351.82	7.65	-51.5	-64.6	3.8	1.49e+00	0	39	104	0	73	17440
2026-01-15 09:08:12.78	351.76	7.58	-51.6	-64.7	3.8	1.49e+00	0	39	104	0	73	17525
2026-01-15 09:08:13.77	351.70	7.51	-51.5	-64.7	3.8	1.49e+00	0	39	104	0	73	17515
2026-01-15 09:08:14.77	351.64	7.43	-51.7	-64.7	3.8	1.49e+00	0	39	104	0	74	16569
2026-01-15 09:08:15.76	351.59	7.36	-51.7	-64.7	3.8	1.49e+00	0	39	104	0	74	16591
2026-01-15 09:08:16.76	351.53	7.29	-51.6	-64.7	3.8	1.49e+00	0	39	104	0	74	16580
2026-01-15 09:08:17.76	351.47	7.22	-51.6	-64.7	3.8	1.49e+00	0	39	104	0	74	16632
2026-01-15 09:08:18.75	351.41	7.15	-51.6	-64.7	3.8	1.49e+00	0	39	104	0	74	16562
2026-01-15 09:08:19.75	351.36	7.07	-51.6	-64.7	3.8	1.49e+00	0	39	104	0	74	16588
2026-01-15 09:08:20.75	351.30	7.00	-51.7	-64.7	3.8	1.49e+00	0	39	104	0	74	16615
2026-01-15 09:08:21.75	351.24	6.93	-51.5	-64.7	3.8	1.49e+00	0	39	104	0	74	16602
2026-01-15 09:08:22.75	351.19	6.86	-51.5	-64.7	3.8	1.49e+00	0	39	104	0	74	16569
2026-01-15 09:08:23.74	351.13	6.79	-51.5	-64.7	3.8	1.49e+00	0	39	104	0	74	16541
2026-01-15 09:08:24.74	351.08	6.72	-51.5	-64.7	3.8	1.49e+00	0	39	104	0	74	16547
2026-01-15 09:08:25.74	351.02	6.64	-51.5	-64.7	3.8	1.49e+00	0	39	104	0	74	16603
2026-01-15 09:08:26.74	350.97	6.57	-51.5	-64.7	3.8	1.49e+00	0	39	104	0	74	16575
2026-01-15 09:08:27.73	350.91	6.50	-51.5	-64.7	3.8	1.49e+00	0	39	104	0	74	16587
2026-01-15 09:08:28.73	350.86	6.43	-51.5	-64.7	3.8	1.49e+00	0	39	104	0	74	16529
2026-01-15 09:08:29.73	350.81	6.36	-51.5	-64.7	3.8	1.49e+00	0	39	104	0	74	16534
2026-01-15 09:08:30.72	350.75	6.29	-51.5	-64.7	3.8	1.49e+00	0	39	104	0	74	16572
2026-01-15 09:08:31.72	350.70	6.22	-51.5	-64.7	3.8	1.49e+00	0	39	104	0	74	16577
2026-01-15 09:08:32.72	350.65	6.15	-51.5	-64.7	3.8	1.49e+00	0	39	104	0	74	16597
2026-01-15 09:08:33.71	350.59	6.08	-51.5	-64.7	3.8	1.49e+00	0	39	104	0	74	16537
2026-01-15 09:08:34.71	350.54	6.01	-51.5	-64.7	3.8	1.49e+00	0	39	104	0	74	16621
2026-01-15 09:08:35.71	350.49	5.94	-51.5	-64.7	3.8	1.49e+00	0	39	104	0	74	16596
2026-01-15 09:08:36.71	350.44	5.88	-51.5	-64.7	3.8	1.49e+00	0	39	104	0	74	16620
2026-01-15 09:08:37.71	350.38	5.81	-51.5	-64.7	3.8	1.49e+00	0	38	104	0	74	16678
2026-01-15 09:08:38.71	350.33	5.74	-51.5	-64.7	3.8	1.49e+00	0	39	104	0	74	16593
2026-01-15 09:08:39.71	350.28	5.67	-51.5	-64.7	3.8	1.49e+00	0	39	104	0	74	16609
2026-01-15 09:08:40.70	350.23	5.60	-51.5	-64.7	3.8	1.49e+00	0	39	104	0	74	16656
2026-01-15 09:08:41.70	350.18	5.53	-51.6	-64.7	3.8	1.49e+00	0	39	104	0	74	16665
2026-01-15 09:08:42.70	350.13	5.46	-51.5	-64.7	3.8	1.49e+00	0	39	104	0	74	16629
2026-01-15 09:08:43.70	350.08	5.40	-51.6	-64.7	3.8	1.49e+00	0	38	104	0	74	16681
2026-01-15 09:08:44.69	350.03	5.33	-51.5	-64.7	3.8	1.49e+00	0	39	104	0	74	16687
2026-01-15 09:08:45.68	349.98	5.26	-51.5	-64.8	3.8	1.49e+00	0	39	104	0	74	16704
2026-01-15 09:08:46.68	349.93	5.19	-51.5	-64.7	3.8	1.49e+00	0	39	104	0	74	16661
2026-01-15 09:08:47.68	349.88	5.13	-51.6	-64.7	3.8	1.49e+00	0	39	104	0	74	16687
2026-01-15 09:08:48.67	349.83	5.06	-51.6	-64.8	3.8	1.49e+00	0	39	104	0	74	16742
2026-01-15 09:08:49.67	349.78	4.99	-51.6	-64.8	3.8	1.49e+00	0	39	104	0	74	16705

#Closed at: 2026-01-15 09:08:50
#Recorded file [0 MB]: D:/Data/31040_260115_115641.dat