passes_logs/2026/01/15/T1/T1__20260115_071956_NOAA_21_JPSS-2_rec.log

#Pass ID: 20260115_071956_NOAA 21 (JPSS-2)
#Satellite: NOAA 21 (JPSS-2)
#Configuration: NOAA 21
#almurnet v.1.7.20251203
#Start time: 2026-01-15 07:19:58

#Version: 2.0.20230620
#Station: T1
#Location: 37.570604 lon 55.790049 lat
#TLE: 1 54234U 22150A   26014.58979933  .00000039  00000+0  39403-4 0  9998
#TLE: 2 54234  98.7497 315.4945 0000653 294.6373  65.4735 14.19534652164756

#Time	Az	El	Level	Level2	SNR	BER	BlckErr	Temp	State	Recorded	gain1	gain2
2026-01-15 07:19:58.76	74.92	5.09	-50.1	-63.4	3.8	1.49e+00	0	36	0	0	72	15952
2026-01-15 07:19:59.75	74.80	5.13	-50.1	-63.4	3.8	1.49e+00	0	37	104	0	71	16987
2026-01-15 07:20:00.75	74.68	5.18	-50.1	-63.4	3.8	1.49e+00	0	36	104	0	71	16941
2026-01-15 07:20:01.74	74.56	5.22	-50.1	-63.4	3.8	1.49e+00	0	37	104	0	71	16970
2026-01-15 07:20:02.73	74.44	5.26	-50.1	-63.3	3.8	1.49e+00	0	37	104	0	71	16838
2026-01-15 07:20:03.72	74.32	5.30	-50.1	-63.3	3.8	1.49e+00	0	37	104	0	71	16849
2026-01-15 07:20:04.72	74.19	5.35	-50.1	-63.3	3.8	1.49e+00	0	37	104	0	71	16829
2026-01-15 07:20:05.71	74.07	5.39	-50.1	-63.3	3.8	1.49e+00	0	37	104	0	71	16839
2026-01-15 07:20:06.70	73.95	5.43	-50.1	-63.3	3.8	1.49e+00	0	37	104	0	71	16836
2026-01-15 07:20:07.70	73.82	5.47	-50.1	-63.3	3.8	1.49e+00	0	37	104	0	71	16804
2026-01-15 07:20:08.69	73.70	5.52	-50.1	-63.3	3.8	1.49e+00	0	37	104	0	71	16872
2026-01-15 07:20:09.68	73.58	5.56	-50.1	-63.3	3.8	1.49e+00	0	37	104	0	71	16789
2026-01-15 07:20:10.68	73.45	5.60	-50.1	-63.3	3.8	1.49e+00	0	37	104	0	71	16855
2026-01-15 07:20:11.67	73.33	5.64	-50.1	-63.4	3.8	1.49e+00	0	37	104	0	71	16903
2026-01-15 07:20:12.66	73.20	5.68	-50.1	-63.3	3.8	1.49e+00	0	37	104	0	71	16886
2026-01-15 07:20:13.66	73.07	5.73	-50.1	-63.4	3.8	1.49e+00	0	37	104	0	71	16957
2026-01-15 07:20:14.65	72.95	5.77	-50.1	-63.3	3.8	1.49e+00	0	37	104	0	71	16841
2026-01-15 07:20:15.64	72.82	5.81	-50.1	-63.4	3.8	1.49e+00	0	37	104	0	71	16921
2026-01-15 07:20:16.64	72.69	5.85	-50.1	-63.4	3.8	1.49e+00	0	37	104	0	71	16892
2026-01-15 07:20:17.63	72.57	5.89	-50.1	-63.4	3.8	1.49e+00	0	37	104	0	71	16933
2026-01-15 07:20:18.62	72.44	5.94	-50.1	-63.4	3.8	1.49e+00	0	37	104	0	71	16892
2026-01-15 07:20:19.62	72.31	5.98	-50.1	-63.4	3.8	1.49e+00	0	37	104	0	71	16915
2026-01-15 07:20:20.61	72.18	6.02	-50.1	-63.3	3.8	1.49e+00	0	37	104	0	71	16847
2026-01-15 07:20:21.60	72.06	6.06	-50.1	-63.3	3.8	1.49e+00	0	37	104	0	71	16883
2026-01-15 07:20:22.60	71.93	6.10	-50.1	-63.3	3.8	1.49e+00	0	37	104	0	71	16797
2026-01-15 07:20:23.59	71.80	6.14	-50.1	-63.3	3.8	1.49e+00	0	37	104	0	71	16872
2026-01-15 07:20:24.59	71.67	6.18	-50.1	-63.3	3.8	1.49e+00	0	37	104	0	71	16837
2026-01-15 07:20:25.58	71.54	6.23	-50.1	-63.3	3.8	1.49e+00	0	37	104	0	71	16824
2026-01-15 07:20:26.57	71.41	6.27	-50.1	-63.3	3.8	1.49e+00	0	37	104	0	71	16816
2026-01-15 07:20:27.57	71.27	6.31	-50.1	-63.3	3.8	1.49e+00	0	37	104	0	71	16844
2026-01-15 07:20:28.56	71.14	6.35	-50.1	-63.3	3.8	1.49e+00	0	37	104	0	71	16791
2026-01-15 07:20:29.55	71.01	6.39	-50.1	-63.3	3.8	1.49e+00	0	37	104	0	71	16773
2026-01-15 07:20:30.55	70.88	6.43	-50.1	-63.3	3.8	1.49e+00	0	37	104	0	71	16860
2026-01-15 07:20:31.54	70.75	6.47	-50.1	-63.3	3.8	1.49e+00	0	37	104	0	71	16791
2026-01-15 07:20:32.53	70.61	6.51	-50.1	-63.3	3.8	1.49e+00	0	37	104	0	71	16845
2026-01-15 07:20:33.53	70.48	6.55	-50.1	-63.4	3.8	1.49e+00	0	38	104	0	71	16917
2026-01-15 07:20:34.52	70.35	6.59	-50.1	-63.3	3.8	1.49e+00	0	38	104	0	71	16887
2026-01-15 07:20:35.51	70.21	6.63	-50.1	-63.4	3.8	1.49e+00	0	37	104	0	71	16901
2026-01-15 07:20:36.51	70.08	6.68	-50.1	-63.4	3.8	1.49e+00	0	38	104	0	71	16931
2026-01-15 07:20:37.50	69.94	6.72	-50.1	-63.4	3.8	1.49e+00	0	38	104	0	71	16896
2026-01-15 07:20:38.49	69.81	6.76	-50.1	-63.3	3.8	1.49e+00	0	38	104	0	71	16879
2026-01-15 07:20:39.49	69.67	6.80	-50.1	-63.3	3.8	1.49e+00	0	38	104	0	71	16801
2026-01-15 07:20:40.48	69.54	6.84	-50.1	-63.4	3.8	1.49e+00	0	38	104	0	71	16901
2026-01-15 07:20:41.47	69.40	6.88	-50.1	-63.4	3.8	1.49e+00	0	38	104	0	71	16902
2026-01-15 07:20:42.47	69.26	6.92	-50.1	-63.4	3.8	1.49e+00	0	38	104	0	71	16923
2026-01-15 07:20:43.46	69.13	6.96	-50.1	-63.3	3.8	1.49e+00	0	38	104	0	71	16879
2026-01-15 07:20:44.45	68.99	7.00	-50.1	-63.4	3.8	1.49e+00	0	38	104	0	71	16905
2026-01-15 07:20:45.45	68.85	7.03	-50.1	-63.4	3.8	1.49e+00	0	38	104	0	71	16926
2026-01-15 07:20:46.44	68.71	7.07	-50.1	-63.4	3.8	1.49e+00	0	38	104	0	71	16931
2026-01-15 07:20:47.44	68.58	7.11	-50.1	-63.3	3.8	1.49e+00	0	38	104	0	71	16829
2026-01-15 07:20:48.43	68.44	7.15	-50.1	-63.3	3.8	1.49e+00	0	38	104	0	71	16855
2026-01-15 07:20:49.42	68.30	7.19	-50.1	-63.3	3.8	1.49e+00	0	38	104	0	71	16745
2026-01-15 07:20:50.42	68.16	7.23	-50.1	-63.3	3.8	1.49e+00	0	38	104	0	71	16758
2026-01-15 07:20:51.41	68.02	7.27	-50.1	-63.3	3.8	1.49e+00	0	38	104	0	71	16756
2026-01-15 07:20:52.40	67.88	7.31	-50.1	-63.3	3.8	1.49e+00	0	38	104	0	71	16780
2026-01-15 07:20:53.40	67.74	7.35	-50.1	-63.3	3.8	1.49e+00	0	38	104	0	71	16776
2026-01-15 07:20:54.39	67.60	7.39	-50.1	-63.3	3.8	1.49e+00	0	38	104	0	71	16769
2026-01-15 07:20:55.38	67.45	7.43	-50.1	-63.3	3.8	1.49e+00	0	38	104	0	71	16786
2026-01-15 07:20:56.37	67.31	7.46	-50.1	-63.3	3.8	1.49e+00	0	38	104	0	71	16701
2026-01-15 07:20:57.37	67.17	7.50	-50.1	-63.3	3.8	1.49e+00	0	38	104	0	71	16704
2026-01-15 07:20:58.36	67.03	7.54	-50.1	-63.2	3.8	1.49e+00	0	38	104	0	71	16654
2026-01-15 07:20:59.35	66.89	7.58	-50.1	-63.2	3.8	1.49e+00	0	38	104	0	71	16640
2026-01-15 07:21:00.35	66.74	7.62	-50.1	-63.2	3.8	1.49e+00	0	38	104	0	71	16628
2026-01-15 07:21:01.34	66.60	7.66	-50.1	-63.2	3.8	1.49e+00	0	38	104	0	71	16628
2026-01-15 07:21:02.33	66.45	7.69	-50.1	-63.2	3.8	1.49e+00	0	38	104	0	71	16600
2026-01-15 07:21:03.32	66.31	7.73	-50.1	-63.3	3.8	1.49e+00	0	38	104	0	71	16718
2026-01-15 07:21:04.32	66.16	7.77	-50.1	-63.1	3.8	1.49e+00	0	38	104	0	71	16484
2026-01-15 07:21:05.31	66.02	7.81	-50.1	-63.2	3.8	1.49e+00	0	38	104	0	71	16520
2026-01-15 07:21:06.31	65.87	7.84	-50.1	-63.1	3.8	1.49e+00	0	38	104	0	71	16427
2026-01-15 07:21:07.30	65.73	7.88	-50.1	-63.2	3.8	1.49e+00	0	38	104	0	71	16606
2026-01-15 07:21:08.29	65.58	7.92	-50.1	-63.3	3.8	1.49e+00	0	38	104	0	71	16723
2026-01-15 07:21:09.29	65.43	7.95	-50.1	-63.2	3.8	1.49e+00	0	38	104	0	71	16668
2026-01-15 07:21:10.28	65.29	7.99	-50.1	-63.2	3.8	1.49e+00	0	38	104	0	71	16585
2026-01-15 07:21:11.27	65.14	8.03	-50.1	-63.1	3.8	1.49e+00	0	38	104	0	71	16413
2026-01-15 07:21:12.26	64.99	8.06	-50.0	-63.0	3.8	1.49e+00	0	38	104	0	71	16265
2026-01-15 07:21:13.26	64.84	8.10	-50.1	-63.0	3.8	1.49e+00	0	38	104	0	71	16204
2026-01-15 07:21:14.25	64.69	8.14	-50.0	-62.8	3.8	1.49e+00	0	38	104	0	71	15851
2026-01-15 07:21:15.24	64.54	8.17	-50.0	-62.7	3.8	1.49e+00	0	38	104	0	71	15591
2026-01-15 07:21:16.24	64.39	8.21	-50.0	-62.5	3.8	1.49e+00	0	38	104	0	71	15368
2026-01-15 07:21:17.23	64.24	8.25	-50.0	-62.5	3.8	1.49e+00	0	38	104	0	71	15399
2026-01-15 07:21:18.22	64.10	8.28	-50.0	-62.7	3.8	1.49e+00	0	38	104	0	71	15699
2026-01-15 07:21:19.21	63.95	8.32	-50.0	-62.9	3.8	1.49e+00	0	38	104	0	71	15949
2026-01-15 07:21:20.21	63.79	8.35	-50.0	-62.9	3.8	1.49e+00	0	38	104	0	71	16036
2026-01-15 07:21:21.20	63.64	8.39	-50.1	-62.9	3.8	1.49e+00	0	38	104	0	71	15988
2026-01-15 07:21:22.19	63.49	8.42	-50.0	-62.9	3.8	1.49e+00	0	38	104	0	71	16049
2026-01-15 07:21:23.19	63.34	8.46	-50.1	-62.9	3.8	1.49e+00	0	38	104	0	71	16041
2026-01-15 07:21:24.18	63.19	8.49	-50.0	-62.6	3.8	1.49e+00	0	38	104	0	71	15494
2026-01-15 07:21:25.17	63.03	8.53	-49.9	-61.9	3.9	1.49e+00	0	38	104	0	71	14212
2026-01-15 07:21:26.17	62.88	8.56	-49.9	-61.4	3.8	1.49e+00	0	38	104	0	71	13555
2026-01-15 07:21:27.16	62.73	8.60	-49.9	-61.4	3.9	1.48e+00	0	38	104	0	71	13503
2026-01-15 07:21:28.15	62.57	8.63	-50.0	-62.6	3.8	1.49e+00	0	38	104	0	71	15432
2026-01-15 07:21:29.15	62.42	8.67	-50.1	-63.2	3.8	1.49e+00	0	38	104	0	71	16527
2026-01-15 07:21:30.14	62.26	8.70	-49.8	-60.5	3.9	1.49e+00	0	38	104	0	71	12164
2026-01-15 07:21:31.13	62.11	8.73	-49.0	-55.8	6.3	4.48e-01	0	38	0	0	70	7493
2026-01-15 07:21:32.13	61.95	8.77	-47.4	-52.5	9.0	4.05e-02	0	39	0	0	67	6119
2026-01-15 07:21:33.12	61.80	8.80	-47.0	-51.0	10.8	3.37e-03	0	38	0	0	66	5461
2026-01-15 07:21:34.11	61.64	8.84	-46.5	-50.2	11.6	8.13e-04	0	38	0	0	65	5256
2026-01-15 07:21:35.10	61.49	8.87	-46.6	-50.3	11.6	5.40e-04	0	39	0	0	64	5643
2026-01-15 07:21:36.10	61.33	8.90	-47.2	-51.4	10.5	2.65e-03	0	38	0	0	64	6377
2026-01-15 07:21:37.09	61.17	8.94	-48.0	-53.3	8.6	2.67e-02	0	38	0	0	66	7050
2026-01-15 07:21:38.08	61.01	8.97	-49.1	-56.4	5.9	1.69e-01	0	38	0	0	68	9019
2026-01-15 07:21:39.07	60.86	9.00	-49.8	-60.1	4.1	1.47e+00	0	38	104	0	70	12300
2026-01-15 07:21:40.07	60.70	9.03	-50.0	-62.7	3.8	1.49e+00	0	39	104	0	70	16563
2026-01-15 07:21:41.06	60.54	9.07	-50.3	-62.1	3.8	1.17e+00	0	38	104	0	71	14619
2026-01-15 07:21:42.16	60.36	9.10	-49.3	-56.0	6.3	2.36e-01	0	38	0	0	70	7679
2026-01-15 07:21:43.02	60.22	9.13	-49.3	-56.3	6.1	2.76e-01	0	38	0	0	70	7919
2026-01-15 07:21:44.15	60.04	9.17	-49.5	-57.2	5.5	4.63e-01	0	38	0	0	70	8830
2026-01-15 07:21:45.00	59.91	9.19	-49.8	-58.2	4.8	6.96e-01	0	38	0	0	70	9927
2026-01-15 07:21:46.14	59.72	9.23	-50.0	-60.0	4.2	1.44e+00	0	39	104	0	70	12115
2026-01-15 07:21:46.99	59.58	9.26	-50.2	-61.0	4.0	1.48e+00	0	38	104	0	70	13715
2026-01-15 07:21:48.12	59.40	9.29	-50.2	-61.8	3.8	1.49e+00	0	39	104	0	71	14174
2026-01-15 07:21:48.97	59.26	9.32	-50.2	-61.4	3.9	1.49e+00	0	38	104	0	71	13458
2026-01-15 07:21:50.11	59.08	9.35	-50.1	-60.9	4.0	1.48e+00	0	39	104	0	71	12701
2026-01-15 07:21:50.96	58.94	9.38	-50.1	-61.3	3.9	1.48e+00	0	39	104	0	71	13331
2026-01-15 07:21:52.10	58.75	9.41	-50.2	-61.9	3.8	1.48e+00	0	38	104	0	71	14274
2026-01-15 07:21:52.95	58.61	9.44	-50.3	-62.4	3.8	1.49e+00	0	39	104	0	71	15114
2026-01-15 07:21:54.08	58.43	9.47	-50.3	-63.1	3.8	1.49e+00	0	38	104	0	71	16433
2026-01-15 07:21:54.93	58.29	9.50	-50.4	-63.4	3.8	1.49e+00	0	38	104	0	71	17021
2026-01-15 07:21:56.07	58.10	9.53	-50.4	-63.5	3.8	1.49e+00	0	39	104	0	71	17195
2026-01-15 07:21:56.92	57.96	9.56	-50.4	-63.5	3.8	1.49e+00	0	39	104	0	71	17102
2026-01-15 07:21:58.05	57.77	9.59	-50.4	-63.4	3.8	1.49e+00	0	38	104	0	71	16925
2026-01-15 07:21:58.91	57.63	9.62	-50.4	-63.3	3.8	1.49e+00	0	39	104	0	71	16881
2026-01-15 07:22:00.04	57.44	9.65	-50.3	-63.3	3.8	1.49e+00	0	39	104	0	71	16790
2026-01-15 07:22:00.89	57.30	9.68	-50.3	-63.3	3.8	1.49e+00	0	39	104	0	71	16817
2026-01-15 07:22:02.03	57.11	9.71	-50.3	-63.3	3.8	1.49e+00	0	39	104	0	71	16868
2026-01-15 07:22:02.88	56.97	9.73	-50.3	-63.4	3.8	1.49e+00	0	38	104	0	71	17037
2026-01-15 07:22:04.01	56.78	9.76	-50.4	-63.5	3.8	1.49e+00	0	38	104	0	71	17263
2026-01-15 07:22:04.87	56.63	9.79	-50.4	-63.5	3.8	1.49e+00	0	39	104	0	71	17250
2026-01-15 07:22:06.00	56.44	9.82	-50.4	-63.4	3.8	1.49e+00	0	38	104	0	71	17079
2026-01-15 07:22:06.85	56.30	9.84	-50.3	-63.4	3.8	1.49e+00	0	38	104	0	71	17067
2026-01-15 07:22:07.99	56.11	9.88	-50.3	-63.4	3.8	1.49e+00	0	38	104	0	71	16911
2026-01-15 07:22:08.84	55.96	9.90	-50.4	-63.4	3.8	1.49e+00	0	39	104	0	71	17013
2026-01-15 07:22:09.98	55.77	9.93	-50.3	-63.5	3.8	1.49e+00	0	38	104	0	71	17085
2026-01-15 07:22:10.83	55.63	9.95	-50.4	-63.5	3.8	1.49e+00	0	38	104	0	71	17124
2026-01-15 07:22:11.96	55.43	9.98	-50.3	-63.5	3.8	1.49e+00	0	39	104	0	71	17131
2026-01-15 07:22:12.81	55.29	10.01	-50.3	-63.5	3.8	1.49e+00	0	39	104	0	71	17195
2026-01-15 07:22:13.95	55.09	10.04	-50.4	-63.5	3.8	1.49e+00	0	39	104	0	71	17220
2026-01-15 07:22:14.80	54.95	10.06	-50.3	-63.5	3.8	1.49e+00	0	39	104	0	71	17263
2026-01-15 07:22:15.93	54.75	10.09	-50.4	-63.5	3.8	1.49e+00	0	38	104	0	71	17221
2026-01-15 07:22:16.78	54.61	10.11	-50.4	-63.5	3.8	1.49e+00	0	39	104	0	71	17238
2026-01-15 07:22:17.92	54.41	10.14	-50.3	-63.5	3.8	1.49e+00	0	39	104	0	71	17204
2026-01-15 07:22:18.77	54.27	10.16	-50.4	-63.5	3.8	1.49e+00	0	39	104	0	71	17114
2026-01-15 07:22:19.91	54.07	10.19	-50.3	-63.4	3.8	1.49e+00	0	39	104	0	71	16998
2026-01-15 07:22:20.76	53.92	10.21	-50.3	-63.4	3.8	1.49e+00	0	39	104	0	71	17075
2026-01-15 07:22:21.89	53.73	10.24	-50.4	-63.4	3.8	1.49e+00	0	39	104	0	71	16958
2026-01-15 07:22:22.74	53.58	10.26	-50.3	-63.4	3.8	1.49e+00	0	39	104	0	71	16894
2026-01-15 07:22:23.88	53.38	10.28	-50.3	-63.3	3.8	1.49e+00	0	39	104	0	71	16868
2026-01-15 07:22:24.73	53.23	10.30	-50.3	-63.3	3.8	1.49e+00	0	39	104	0	71	16823
2026-01-15 07:22:25.87	53.03	10.33	-50.3	-63.4	3.8	1.49e+00	0	39	104	0	71	16942
2026-01-15 07:22:26.72	52.89	10.35	-50.3	-63.4	3.8	1.49e+00	0	39	104	0	71	17014
2026-01-15 07:22:27.85	52.69	10.38	-50.3	-63.5	3.8	1.49e+00	0	39	104	0	71	17169
2026-01-15 07:22:28.70	52.54	10.40	-50.3	-63.5	3.8	1.49e+00	0	39	104	0	71	17168
2026-01-15 07:22:29.84	52.34	10.42	-50.4	-63.5	3.8	1.49e+00	0	39	104	0	71	17179
2026-01-15 07:22:30.69	52.19	10.44	-50.3	-63.5	3.8	1.49e+00	0	39	104	0	71	17163
2026-01-15 07:22:31.83	51.99	10.47	-50.4	-63.5	3.8	1.49e+00	0	39	104	0	71	17115
2026-01-15 07:22:32.68	51.84	10.49	-50.4	-63.5	3.8	1.49e+00	0	39	104	0	71	17163
2026-01-15 07:22:33.81	51.64	10.51	-50.3	-63.5	3.8	1.49e+00	0	39	104	0	71	17156
2026-01-15 07:22:34.67	51.49	10.53	-50.3	-63.5	3.8	1.49e+00	0	39	104	0	71	17190
2026-01-15 07:22:35.80	51.29	10.55	-50.3	-63.4	3.8	1.49e+00	0	39	104	0	71	17075
2026-01-15 07:22:36.65	51.14	10.57	-50.3	-63.5	3.8	1.49e+00	0	39	104	0	71	17121
2026-01-15 07:22:37.79	50.94	10.59	-50.4	-63.4	3.8	1.49e+00	0	39	104	0	71	17046
2026-01-15 07:22:38.64	50.78	10.61	-50.3	-63.4	3.8	1.49e+00	0	39	104	0	71	17024
2026-01-15 07:22:39.77	50.58	10.63	-50.4	-63.4	3.8	1.49e+00	0	39	104	0	71	17054
2026-01-15 07:22:40.63	50.43	10.65	-50.4	-63.4	3.8	1.49e+00	0	39	104	0	71	17073
2026-01-15 07:22:41.76	50.23	10.67	-50.4	-63.4	3.8	1.49e+00	0	39	104	0	71	17022
2026-01-15 07:22:42.61	50.08	10.69	-50.3	-63.4	3.8	1.49e+00	0	38	104	0	71	17023
2026-01-15 07:22:43.75	49.87	10.71	-50.4	-63.4	3.8	1.49e+00	0	39	104	0	71	17071
2026-01-15 07:22:44.60	49.72	10.73	-50.4	-63.5	3.8	1.49e+00	0	39	104	0	71	17140
2026-01-15 07:22:45.74	49.52	10.75	-50.3	-63.4	3.8	1.49e+00	0	39	104	0	71	17070
2026-01-15 07:22:46.59	49.36	10.77	-50.4	-63.5	3.8	1.49e+00	0	39	104	0	71	17198
2026-01-15 07:22:47.72	49.16	10.79	-50.3	-63.5	3.8	1.49e+00	0	39	104	0	71	17152
2026-01-15 07:22:48.58	49.00	10.80	-50.4	-63.5	3.8	1.49e+00	0	39	104	0	71	17177
2026-01-15 07:22:49.71	48.80	10.82	-50.4	-63.5	3.8	1.49e+00	0	39	104	0	71	17205
2026-01-15 07:22:50.56	48.65	10.84	-50.3	-63.5	3.8	1.49e+00	0	39	104	0	71	17237
2026-01-15 07:22:51.70	48.44	10.86	-50.4	-63.5	3.8	1.49e+00	0	39	104	0	71	17184
2026-01-15 07:22:52.55	48.29	10.87	-50.4	-63.5	3.8	1.49e+00	0	39	104	0	71	17276
2026-01-15 07:22:53.68	48.08	10.89	-50.3	-63.5	3.8	1.49e+00	0	39	104	0	71	17211
2026-01-15 07:22:54.54	47.93	10.90	-50.3	-63.5	3.8	1.49e+00	0	39	104	0	71	17216
2026-01-15 07:22:55.67	47.72	10.92	-50.4	-63.5	3.8	1.49e+00	0	39	104	0	71	17214
2026-01-15 07:22:56.52	47.57	10.94	-50.4	-63.5	3.8	1.49e+00	0	39	104	0	71	17177
2026-01-15 07:22:57.66	47.36	10.95	-50.4	-63.5	3.8	1.49e+00	0	39	104	0	71	17213
2026-01-15 07:22:58.51	47.21	10.97	-50.4	-63.5	3.8	1.49e+00	0	39	104	0	71	17230
2026-01-15 07:22:59.64	47.00	10.98	-50.4	-63.5	3.8	1.49e+00	0	39	104	0	71	17184
2026-01-15 07:23:00.50	46.84	11.00	-50.4	-63.5	3.8	1.49e+00	0	39	104	0	71	17138
2026-01-15 07:23:01.63	46.64	11.01	-50.4	-63.5	3.8	1.49e+00	0	39	104	0	71	17187
2026-01-15 07:23:02.49	46.48	11.03	-50.4	-63.5	3.8	1.49e+00	0	39	104	0	71	17181
2026-01-15 07:23:03.62	46.27	11.04	-50.4	-63.5	3.8	1.49e+00	0	39	104	0	71	17108
2026-01-15 07:23:04.47	46.12	11.05	-50.4	-63.5	3.8	1.49e+00	0	39	104	0	71	17212
2026-01-15 07:23:05.61	45.91	11.07	-50.4	-63.5	3.8	1.49e+00	0	39	104	0	71	17258
2026-01-15 07:23:06.46	45.75	11.08	-50.4	-63.5	3.8	1.49e+00	0	39	104	0	71	17273
2026-01-15 07:23:07.60	45.54	11.09	-50.4	-63.5	3.8	1.49e+00	0	39	104	0	71	17211
2026-01-15 07:23:08.45	45.39	11.11	-50.4	-63.5	3.8	1.49e+00	0	39	104	0	71	17277
2026-01-15 07:23:09.58	45.18	11.12	-50.4	-63.5	3.8	1.49e+00	0	39	104	0	71	17263
2026-01-15 07:23:10.44	45.02	11.13	-50.3	-63.5	3.8	1.49e+00	0	39	104	0	71	17215
2026-01-15 07:23:11.57	44.81	11.14	-50.4	-63.5	3.8	1.49e+00	0	39	104	0	71	17234
2026-01-15 07:23:12.42	44.65	11.15	-50.4	-63.5	3.8	1.49e+00	0	39	104	0	71	17208
2026-01-15 07:23:13.56	44.44	11.17	-50.4	-63.5	3.8	1.49e+00	0	39	104	0	71	17169
2026-01-15 07:23:14.41	44.29	11.17	-50.4	-63.5	3.8	1.49e+00	0	39	104	0	71	17187
2026-01-15 07:23:15.54	44.08	11.19	-50.4	-63.5	3.8	1.49e+00	0	39	104	0	71	17163
2026-01-15 07:23:16.40	43.92	11.20	-50.4	-63.5	3.8	1.49e+00	0	39	104	0	71	17175
2026-01-15 07:23:17.53	43.71	11.21	-50.4	-63.5	3.8	1.49e+00	0	39	104	0	71	17192
2026-01-15 07:23:18.38	43.55	11.22	-50.4	-63.5	3.8	1.49e+00	0	39	104	0	71	17151
2026-01-15 07:23:19.52	43.34	11.23	-50.4	-63.5	3.8	1.49e+00	0	39	104	0	71	17209
2026-01-15 07:23:20.37	43.18	11.23	-50.4	-63.5	3.8	1.49e+00	0	39	104	0	71	17165
2026-01-15 07:23:21.50	42.97	11.24	-50.4	-63.5	3.8	1.49e+00	0	39	104	0	71	17209
2026-01-15 07:23:22.35	42.82	11.25	-50.4	-63.5	3.8	1.49e+00	0	39	104	0	71	17245
2026-01-15 07:23:23.49	42.60	11.26	-50.4	-63.5	3.8	1.49e+00	0	39	104	0	71	17181
2026-01-15 07:23:24.34	42.45	11.27	-50.4	-63.5	3.8	1.49e+00	0	39	104	0	71	17182
2026-01-15 07:23:25.48	42.23	11.28	-50.4	-63.5	3.8	1.49e+00	0	39	104	0	71	17206
2026-01-15 07:23:26.33	42.07	11.28	-50.4	-63.5	3.8	1.49e+00	0	39	104	0	71	17266
2026-01-15 07:23:27.47	41.86	11.29	-50.4	-63.5	3.8	1.49e+00	0	39	104	0	71	17223
2026-01-15 07:23:28.32	41.70	11.30	-50.4	-63.5	3.8	1.49e+00	0	39	104	0	71	17258
2026-01-15 07:23:29.45	41.49	11.31	-50.4	-63.5	3.8	1.49e+00	0	39	104	0	71	17188
2026-01-15 07:23:30.30	41.34	11.31	-50.4	-63.5	3.8	1.49e+00	0	39	104	0	71	17261
2026-01-15 07:23:31.44	41.12	11.32	-50.4	-63.6	3.8	1.49e+00	0	39	104	0	71	17301
2026-01-15 07:23:32.29	40.96	11.32	-50.4	-63.5	3.8	1.49e+00	0	39	104	0	71	17193
2026-01-15 07:23:33.42	40.75	11.33	-50.4	-63.5	3.8	1.49e+00	0	39	104	0	71	17240
2026-01-15 07:23:34.28	40.59	11.33	-50.4	-63.6	3.8	1.49e+00	0	39	104	0	71	17293
2026-01-15 07:23:35.41	40.38	11.34	-50.4	-63.5	3.8	1.49e+00	0	39	104	0	71	17260
2026-01-15 07:23:36.26	40.22	11.34	-50.4	-63.6	3.8	1.49e+00	0	39	104	0	71	17314
2026-01-15 07:23:37.40	40.01	11.35	-50.4	-63.6	3.8	1.49e+00	0	39	104	0	71	17284
2026-01-15 07:23:38.25	39.85	11.35	-50.4	-63.5	3.8	1.49e+00	0	39	104	0	71	17272
2026-01-15 07:23:39.38	39.64	11.36	-50.4	-63.5	3.8	1.49e+00	0	39	104	0	71	17230
2026-01-15 07:23:40.23	39.48	11.36	-50.4	-63.5	3.8	1.49e+00	0	39	104	0	71	17227
2026-01-15 07:23:41.37	39.27	11.36	-50.4	-63.5	3.8	1.49e+00	0	39	104	0	71	17277
2026-01-15 07:23:42.22	39.11	11.36	-50.4	-63.6	3.8	1.49e+00	0	39	104	0	71	17306
2026-01-15 07:23:43.36	38.89	11.37	-50.4	-63.6	3.8	1.49e+00	0	39	104	0	71	17308
2026-01-15 07:23:44.21	38.73	11.37	-50.4	-63.6	3.8	1.49e+00	0	39	104	0	71	17292
2026-01-15 07:23:45.34	38.52	11.37	-50.4	-63.6	3.8	1.49e+00	0	39	104	0	71	17317
2026-01-15 07:23:46.19	38.36	11.37	-50.4	-63.6	3.8	1.49e+00	0	39	104	0	71	17347
2026-01-15 07:23:47.33	38.15	11.37	-50.4	-63.6	3.8	1.49e+00	0	39	104	0	71	17328
2026-01-15 07:23:48.18	37.99	11.38	-50.4	-63.5	3.8	1.49e+00	0	39	104	0	71	17266
2026-01-15 07:23:49.31	37.78	11.38	-50.4	-63.6	3.8	1.49e+00	0	39	104	0	71	17340
2026-01-15 07:23:50.17	37.62	11.38	-50.4	-63.6	3.8	1.49e+00	0	39	104	0	71	17287
2026-01-15 07:23:51.30	37.41	11.38	-50.4	-63.6	3.8	1.49e+00	0	39	104	0	71	17285
2026-01-15 07:23:52.15	37.25	11.38	-50.4	-63.6	3.8	1.49e+00	0	39	104	0	71	17313
2026-01-15 07:23:53.29	37.03	11.38	-50.4	-63.6	3.8	1.49e+00	0	39	104	0	71	17288
2026-01-15 07:23:54.14	36.88	11.38	-50.4	-63.5	3.8	1.49e+00	0	39	104	0	71	17280
2026-01-15 07:23:55.27	36.66	11.38	-50.4	-63.5	3.8	1.49e+00	0	39	104	0	71	17266
2026-01-15 07:23:56.13	36.50	11.37	-50.4	-63.6	3.8	1.49e+00	0	39	104	0	71	17308
2026-01-15 07:23:57.26	36.29	11.37	-50.4	-63.6	3.8	1.49e+00	0	39	104	0	71	17303
2026-01-15 07:23:58.11	36.13	11.37	-50.4	-63.5	3.8	1.49e+00	0	39	104	0	71	17231
2026-01-15 07:23:59.25	35.92	11.37	-50.4	-63.5	3.8	1.49e+00	0	39	104	0	71	17270
2026-01-15 07:24:00.10	35.76	11.37	-50.4	-63.5	3.8	1.49e+00	0	39	104	0	71	17260
2026-01-15 07:24:01.23	35.55	11.36	-50.4	-63.6	3.8	1.49e+00	0	39	104	0	71	17329
2026-01-15 07:24:02.09	35.39	11.36	-50.4	-63.6	3.8	1.49e+00	0	39	104	0	71	17289
2026-01-15 07:24:03.22	35.18	11.36	-50.4	-63.5	3.8	1.49e+00	0	39	104	0	71	17261
2026-01-15 07:24:04.07	35.02	11.35	-50.4	-63.6	3.8	1.49e+00	0	39	104	0	71	17313
2026-01-15 07:24:05.21	34.80	11.35	-50.4	-63.6	3.8	1.49e+00	0	39	104	0	71	17302
2026-01-15 07:24:06.06	34.64	11.35	-50.4	-63.6	3.8	1.49e+00	0	39	104	0	71	17370
2026-01-15 07:24:07.19	34.43	11.34	-50.4	-63.6	3.8	1.49e+00	0	39	104	0	71	17338
2026-01-15 07:24:08.04	34.27	11.34	-50.4	-63.6	3.8	1.49e+00	0	39	104	0	71	17291
2026-01-15 07:24:09.18	34.06	11.33	-50.4	-63.6	3.8	1.49e+00	0	39	104	0	71	17339
2026-01-15 07:24:10.03	33.90	11.33	-50.4	-63.6	3.8	1.49e+00	0	39	104	0	71	17317
2026-01-15 07:24:11.17	33.69	11.32	-50.4	-63.6	3.8	1.49e+00	0	39	104	0	71	17286
2026-01-15 07:24:12.02	33.53	11.31	-50.4	-63.5	3.8	1.49e+00	0	39	104	0	71	17245
2026-01-15 07:24:13.15	33.32	11.31	-50.4	-63.6	3.8	1.49e+00	0	39	104	0	71	17356
2026-01-15 07:24:14.00	33.16	11.30	-50.4	-63.6	3.8	1.49e+00	0	39	104	0	71	17371
2026-01-15 07:24:15.14	32.95	11.29	-50.4	-63.6	3.8	1.49e+00	0	39	104	0	71	17336
2026-01-15 07:24:15.99	32.79	11.29	-50.4	-63.6	3.8	1.49e+00	0	39	104	0	71	17333
2026-01-15 07:24:17.12	32.58	11.28	-50.4	-63.6	3.8	1.49e+00	0	39	104	0	71	17328
2026-01-15 07:24:17.98	32.42	11.27	-50.4	-63.6	3.8	1.49e+00	0	39	104	0	71	17320
2026-01-15 07:24:19.11	32.21	11.26	-50.4	-63.6	3.8	1.49e+00	0	39	104	0	71	17360
2026-01-15 07:24:19.96	32.05	11.26	-50.4	-63.6	3.8	1.49e+00	0	39	104	0	71	17323
2026-01-15 07:24:21.10	31.84	11.25	-50.4	-63.6	3.8	1.49e+00	0	39	104	0	71	17365
2026-01-15 07:24:21.95	31.69	11.24	-50.4	-63.6	3.8	1.49e+00	0	39	104	0	71	17381
2026-01-15 07:24:23.08	31.48	11.23	-50.4	-63.6	3.8	1.49e+00	0	39	104	0	71	17422
2026-01-15 07:24:23.94	31.32	11.22	-50.4	-63.6	3.8	1.49e+00	0	39	104	0	71	17311
2026-01-15 07:24:25.07	31.11	11.21	-50.4	-63.6	3.8	1.49e+00	0	39	104	0	71	17371
2026-01-15 07:24:25.92	30.95	11.20	-50.4	-63.6	3.8	1.49e+00	0	39	104	0	71	17312
2026-01-15 07:24:27.06	30.74	11.19	-50.5	-63.6	3.8	1.49e+00	0	39	104	0	71	17367
2026-01-15 07:24:27.91	30.58	11.18	-50.4	-63.6	3.8	1.49e+00	0	39	104	0	71	17292
2026-01-15 07:24:29.04	30.37	11.17	-50.4	-63.5	3.8	1.49e+00	0	39	104	0	71	17260
2026-01-15 07:24:29.89	30.22	11.16	-50.4	-63.6	3.8	1.49e+00	0	39	104	0	71	17353
2026-01-15 07:24:31.03	30.01	11.15	-50.4	-63.6	3.8	1.49e+00	0	39	104	0	71	17354
2026-01-15 07:24:31.88	29.85	11.14	-50.4	-63.6	3.8	1.49e+00	0	39	104	0	71	17398
2026-01-15 07:24:33.02	29.64	11.12	-50.4	-63.6	3.8	1.49e+00	0	39	104	0	71	17367
2026-01-15 07:24:33.87	29.48	11.11	-50.4	-63.6	3.8	1.49e+00	0	39	104	0	71	17336
2026-01-15 07:24:35.00	29.28	11.10	-50.4	-63.6	3.8	1.49e+00	0	39	104	0	71	17338
2026-01-15 07:24:35.85	29.12	11.09	-50.5	-63.6	3.8	1.49e+00	0	39	104	0	71	17352
2026-01-15 07:24:36.99	28.91	11.07	-50.4	-63.6	3.8	1.49e+00	0	39	104	0	71	17371
2026-01-15 07:24:37.84	28.76	11.06	-50.5	-63.6	3.8	1.49e+00	0	39	104	0	71	17342
2026-01-15 07:24:38.98	28.55	11.05	-50.4	-63.6	3.8	1.49e+00	0	39	104	0	71	17355
2026-01-15 07:24:39.83	28.39	11.03	-50.4	-63.6	3.8	1.49e+00	0	39	104	0	71	17341
2026-01-15 07:24:40.96	28.19	11.02	-50.4	-63.6	3.8	1.49e+00	0	39	104	0	71	17319
2026-01-15 07:24:41.81	28.03	11.01	-50.4	-63.6	3.8	1.49e+00	0	39	104	0	71	17411
2026-01-15 07:24:42.95	27.82	10.99	-50.4	-63.6	3.8	1.49e+00	0	39	104	0	71	17386
2026-01-15 07:24:43.80	27.67	10.98	-50.4	-63.6	3.8	1.49e+00	0	39	104	0	71	17413
2026-01-15 07:24:44.93	27.46	10.96	-50.4	-63.6	3.8	1.49e+00	0	39	104	0	71	17388
2026-01-15 07:24:45.79	27.31	10.95	-50.5	-63.6	3.8	1.49e+00	0	39	104	0	71	17369
2026-01-15 07:24:46.92	27.10	10.93	-50.4	-63.6	3.8	1.49e+00	0	39	104	0	71	17404
2026-01-15 07:24:47.77	26.95	10.92	-50.4	-63.6	3.8	1.49e+00	0	39	104	0	71	17371
2026-01-15 07:24:48.91	26.74	10.90	-50.4	-63.6	3.8	1.49e+00	0	39	104	0	71	17396
2026-01-15 07:24:49.76	26.59	10.88	-50.4	-63.6	3.8	1.49e+00	0	39	104	0	71	17442
2026-01-15 07:24:50.89	26.38	10.86	-50.5	-63.6	3.8	1.49e+00	0	39	104	0	71	17367
2026-01-15 07:24:51.74	26.23	10.85	-50.5	-63.6	3.8	1.49e+00	0	39	104	0	71	17430
2026-01-15 07:24:52.88	26.02	10.83	-50.4	-63.6	3.8	1.49e+00	0	39	104	0	71	17377
2026-01-15 07:24:53.73	25.87	10.81	-50.5	-63.6	3.8	1.49e+00	0	39	104	0	71	17440
2026-01-15 07:24:54.87	25.66	10.79	-50.4	-63.6	3.8	1.49e+00	0	39	104	0	71	17335
2026-01-15 07:24:55.72	25.51	10.78	-50.5	-63.6	3.8	1.49e+00	0	39	104	0	71	17383
2026-01-15 07:24:56.85	25.31	10.76	-50.4	-63.6	3.8	1.49e+00	0	39	104	0	71	17390
2026-01-15 07:24:57.71	25.16	10.74	-50.4	-63.6	3.8	1.49e+00	0	39	104	0	71	17376
2026-01-15 07:24:58.84	24.95	10.72	-50.5	-63.6	3.8	1.49e+00	0	39	104	0	71	17383
2026-01-15 07:24:59.69	24.80	10.70	-50.4	-63.6	3.8	1.49e+00	0	39	104	0	71	17429
2026-01-15 07:25:00.83	24.60	10.68	-50.5	-63.6	3.8	1.49e+00	0	39	104	0	71	17398
2026-01-15 07:25:01.68	24.45	10.67	-50.5	-63.6	3.8	1.49e+00	0	39	104	0	71	17467
2026-01-15 07:25:02.81	24.24	10.64	-50.5	-63.6	3.8	1.49e+00	0	39	104	0	71	17462
2026-01-15 07:25:03.67	24.09	10.63	-50.5	-63.7	3.8	1.49e+00	0	39	104	0	71	17490
2026-01-15 07:25:04.80	23.89	10.60	-50.5	-63.6	3.8	1.49e+00	0	39	104	0	71	17422
2026-01-15 07:25:05.65	23.74	10.59	-50.5	-63.6	3.8	1.49e+00	0	39	104	0	71	17433
2026-01-15 07:25:06.79	23.54	10.56	-50.5	-63.6	3.8	1.49e+00	0	39	104	0	71	17419
2026-01-15 07:25:07.64	23.39	10.54	-50.5	-63.6	3.8	1.49e+00	0	39	104	0	71	17392
2026-01-15 07:25:08.78	23.19	10.52	-50.5	-63.6	3.8	1.49e+00	0	39	104	0	71	17475
2026-01-15 07:25:09.63	23.04	10.50	-50.5	-63.6	3.8	1.49e+00	0	39	104	0	71	17437
2026-01-15 07:25:10.76	22.84	10.48	-50.5	-63.6	3.8	1.49e+00	0	39	104	0	71	17472
2026-01-15 07:25:11.61	22.69	10.46	-50.5	-63.6	3.8	1.49e+00	0	39	104	0	71	17439
2026-01-15 07:25:12.75	22.49	10.43	-50.5	-63.6	3.8	1.49e+00	0	39	104	0	71	17453
2026-01-15 07:25:13.60	22.34	10.41	-50.5	-63.6	3.8	1.49e+00	0	39	104	0	71	17385
2026-01-15 07:25:14.73	22.14	10.39	-50.5	-63.6	3.8	1.49e+00	0	39	104	0	71	17406
2026-01-15 07:25:15.59	21.99	10.37	-50.5	-63.6	3.8	1.49e+00	0	39	104	0	71	17373
2026-01-15 07:25:16.72	21.80	10.34	-50.5	-63.6	3.8	1.49e+00	0	39	104	0	71	17393
2026-01-15 07:25:17.57	21.65	10.32	-50.5	-63.6	3.8	1.49e+00	0	39	104	0	71	17420
2026-01-15 07:25:18.71	21.45	10.29	-50.4	-63.6	3.8	1.49e+00	0	39	104	0	71	17376
2026-01-15 07:25:19.56	21.30	10.27	-50.4	-63.6	3.8	1.49e+00	0	39	104	0	71	17416
2026-01-15 07:25:20.70	21.11	10.25	-50.5	-63.6	3.8	1.49e+00	0	39	104	0	71	17455
2026-01-15 07:25:21.55	20.96	10.23	-50.5	-63.6	3.8	1.49e+00	0	39	104	0	71	17435
2026-01-15 07:25:22.68	20.76	10.20	-50.5	-63.6	3.8	1.49e+00	0	39	104	0	71	17473
2026-01-15 07:25:23.53	20.62	10.18	-50.5	-63.6	3.8	1.49e+00	0	39	104	0	71	17467
2026-01-15 07:25:24.67	20.42	10.15	-50.5	-63.6	3.8	1.49e+00	0	39	104	0	71	17435
2026-01-15 07:25:25.52	20.28	10.13	-50.5	-63.6	3.8	1.49e+00	0	39	104	0	71	17449
2026-01-15 07:25:26.65	20.08	10.10	-50.5	-63.6	3.8	1.49e+00	0	39	104	0	71	17420
2026-01-15 07:25:27.51	19.93	10.08	-50.5	-63.6	3.8	1.49e+00	0	39	104	0	71	17432
2026-01-15 07:25:28.64	19.74	10.05	-50.4	-63.6	3.8	1.49e+00	0	39	104	0	71	17441
2026-01-15 07:25:29.49	19.60	10.02	-50.5	-63.6	3.8	1.49e+00	0	39	104	0	71	17415
2026-01-15 07:25:30.63	19.40	9.99	-50.4	-63.6	3.8	1.49e+00	0	39	104	0	71	17400
2026-01-15 07:25:31.48	19.26	9.97	-50.5	-63.6	3.8	1.49e+00	0	39	104	0	71	17381
2026-01-15 07:25:32.61	19.07	9.94	-50.5	-63.6	3.8	1.49e+00	0	39	104	0	71	17412
2026-01-15 07:25:33.46	18.92	9.92	-50.5	-63.6	3.8	1.49e+00	0	39	104	0	71	17439
2026-01-15 07:25:34.60	18.73	9.89	-50.5	-63.6	3.8	1.49e+00	0	39	104	0	71	17347
2026-01-15 07:25:35.45	18.59	9.86	-50.5	-63.6	3.8	1.49e+00	0	39	104	0	71	17392
2026-01-15 07:25:36.59	18.40	9.83	-50.5	-63.6	3.8	1.49e+00	0	39	104	0	71	17470
2026-01-15 07:25:37.44	18.25	9.81	-50.5	-63.6	3.8	1.49e+00	0	39	104	0	71	17395
2026-01-15 07:25:38.57	18.06	9.78	-50.5	-63.6	3.8	1.49e+00	0	39	104	0	71	17386
2026-01-15 07:25:39.42	17.92	9.75	-50.5	-63.6	3.8	1.49e+00	0	39	104	0	71	17467
2026-01-15 07:25:40.56	17.73	9.72	-50.4	-63.6	3.8	1.49e+00	0	39	104	0	71	17392
2026-01-15 07:25:41.41	17.59	9.70	-50.5	-63.6	3.8	1.49e+00	0	39	104	0	71	17481
2026-01-15 07:25:42.54	17.40	9.66	-50.5	-63.6	3.8	1.49e+00	0	39	104	0	71	17399
2026-01-15 07:25:43.40	17.26	9.64	-50.5	-63.6	3.8	1.49e+00	0	39	104	0	71	17424
2026-01-15 07:25:44.53	17.07	9.61	-50.4	-63.6	3.8	1.49e+00	0	39	104	0	71	17442
2026-01-15 07:25:45.39	16.93	9.58	-50.5	-63.6	3.8	1.49e+00	0	39	104	0	71	17380
2026-01-15 07:25:46.52	16.74	9.55	-50.5	-63.6	3.8	1.49e+00	0	39	104	0	71	17405
2026-01-15 07:25:47.37	16.60	9.52	-50.5	-63.7	3.8	1.49e+00	0	39	104	0	71	17483
2026-01-15 07:25:48.51	16.42	9.49	-50.5	-63.6	3.8	1.49e+00	0	39	104	0	71	17391
2026-01-15 07:25:49.36	16.28	9.46	-50.4	-63.6	3.8	1.49e+00	0	39	104	0	71	17456
2026-01-15 07:25:50.49	16.09	9.43	-50.5	-63.6	3.8	1.49e+00	0	39	104	0	71	17457
2026-01-15 07:25:51.35	15.95	9.40	-50.5	-63.6	3.8	1.49e+00	0	39	104	0	71	17372
2026-01-15 07:25:52.48	15.77	9.37	-50.5	-63.6	3.8	1.49e+00	0	39	104	0	71	17448
2026-01-15 07:25:53.33	15.63	9.34	-50.5	-63.6	3.8	1.49e+00	0	39	104	0	71	17363
2026-01-15 07:25:54.47	15.44	9.31	-50.5	-63.6	3.8	1.49e+00	0	39	104	0	71	17407
2026-01-15 07:25:55.32	15.31	9.28	-50.5	-63.6	3.8	1.49e+00	0	39	104	0	71	17403
2026-01-15 07:25:56.45	15.12	9.24	-50.5	-63.6	3.8	1.49e+00	0	39	104	0	71	17420
2026-01-15 07:25:57.30	14.99	9.22	-50.4	-63.6	3.8	1.49e+00	0	39	104	0	71	17421
2026-01-15 07:25:58.44	14.80	9.18	-50.5	-63.6	3.8	1.49e+00	0	39	104	0	71	17376
2026-01-15 07:25:59.29	14.67	9.15	-50.5	-63.6	3.8	1.49e+00	0	39	104	0	71	17369
2026-01-15 07:26:00.43	14.49	9.12	-50.4	-63.6	3.8	1.49e+00	0	39	104	0	71	17453
2026-01-15 07:26:01.28	14.35	9.09	-50.5	-63.6	3.8	1.49e+00	0	39	104	0	71	17400
2026-01-15 07:26:02.41	14.17	9.05	-50.4	-63.6	3.8	1.49e+00	0	39	104	0	71	17333
2026-01-15 07:26:03.26	14.03	9.03	-50.4	-63.6	3.8	1.49e+00	0	39	104	0	71	17386
2026-01-15 07:26:04.40	13.85	8.99	-50.4	-63.6	3.8	1.49e+00	0	39	104	0	71	17356
2026-01-15 07:26:05.25	13.72	8.96	-50.4	-63.6	3.8	1.49e+00	0	39	104	0	71	17400
2026-01-15 07:26:06.38	13.54	8.92	-50.5	-63.6	3.8	1.49e+00	0	39	104	0	71	17320
2026-01-15 07:26:07.24	13.41	8.89	-50.5	-63.6	3.8	1.49e+00	0	39	104	0	71	17410
2026-01-15 07:26:08.37	13.23	8.86	-50.5	-63.6	3.8	1.49e+00	0	39	104	0	71	17356
2026-01-15 07:26:09.22	13.09	8.83	-50.4	-63.6	3.8	1.49e+00	0	39	104	0	71	17392
2026-01-15 07:26:10.36	12.92	8.79	-50.4	-63.6	3.8	1.49e+00	0	39	104	0	71	17381
2026-01-15 07:26:11.21	12.78	8.76	-50.5	-63.6	3.8	1.49e+00	0	39	104	0	71	17391
2026-01-15 07:26:12.34	12.61	8.72	-50.5	-63.6	3.8	1.49e+00	0	39	104	0	71	17431
2026-01-15 07:26:13.19	12.48	8.69	-50.4	-63.6	3.8	1.49e+00	0	39	104	0	71	17395
2026-01-15 07:26:14.33	12.30	8.65	-50.4	-63.6	3.8	1.49e+00	0	39	104	0	71	17398
2026-01-15 07:26:15.18	12.17	8.62	-50.5	-63.6	3.8	1.49e+00	0	39	104	0	71	17366
2026-01-15 07:26:16.31	11.99	8.58	-50.5	-63.6	3.8	1.49e+00	0	39	104	0	71	17406
2026-01-15 07:26:17.16	11.86	8.56	-50.4	-63.6	3.8	1.49e+00	0	39	104	0	71	17352
2026-01-15 07:26:18.30	11.69	8.52	-50.5	-63.6	3.8	1.49e+00	0	39	104	0	71	17367
2026-01-15 07:26:19.15	11.56	8.49	-50.4	-63.6	3.8	1.49e+00	0	39	104	0	71	17355
2026-01-15 07:26:20.28	11.39	8.45	-50.4	-63.6	3.8	1.49e+00	0	39	104	0	71	17361
2026-01-15 07:26:21.13	11.26	8.42	-50.5	-63.6	3.8	1.49e+00	0	39	104	0	71	17410
2026-01-15 07:26:22.27	11.08	8.38	-50.4	-63.6	3.8	1.49e+00	0	39	104	0	71	17372
2026-01-15 07:26:23.12	10.95	8.34	-50.4	-63.6	3.8	1.49e+00	0	39	104	0	71	17295
2026-01-15 07:26:24.25	10.78	8.30	-50.4	-63.6	3.8	1.49e+00	0	39	104	0	71	17365
2026-01-15 07:26:25.11	10.65	8.27	-50.4	-63.6	3.8	1.49e+00	0	39	104	0	71	17318
2026-01-15 07:26:26.24	10.48	8.23	-50.4	-63.6	3.8	1.49e+00	0	39	104	0	71	17367
2026-01-15 07:26:27.09	10.36	8.20	-50.4	-63.6	3.8	1.49e+00	0	39	104	0	71	17350
2026-01-15 07:26:28.23	10.19	8.16	-50.5	-63.6	3.8	1.49e+00	0	39	104	0	71	17349
2026-01-15 07:26:29.08	10.06	8.13	-50.4	-63.6	3.8	1.49e+00	0	39	104	0	71	17373
2026-01-15 07:26:30.21	9.89	8.09	-50.5	-63.6	3.8	1.49e+00	0	39	104	0	71	17324
2026-01-15 07:26:31.07	9.76	8.06	-50.5	-63.6	3.8	1.49e+00	0	39	104	0	71	17344
2026-01-15 07:26:32.20	9.60	8.01	-50.5	-63.6	3.8	1.49e+00	0	39	104	0	71	17373
2026-01-15 07:26:33.05	9.47	7.98	-50.4	-63.6	3.8	1.49e+00	0	39	104	0	71	17369
2026-01-15 07:26:34.19	9.30	7.94	-50.4	-63.6	3.8	1.49e+00	0	39	104	0	71	17378
2026-01-15 07:26:35.04	9.18	7.91	-50.5	-63.6	3.8	1.49e+00	0	39	104	0	71	17380
2026-01-15 07:26:36.17	9.01	7.87	-50.4	-63.6	3.8	1.49e+00	0	39	104	0	71	17381
2026-01-15 07:26:37.02	8.89	7.84	-50.4	-63.6	3.8	1.49e+00	0	39	104	0	71	17372
2026-01-15 07:26:38.16	8.72	7.79	-50.4	-63.6	3.8	1.49e+00	0	39	104	0	71	17399
2026-01-15 07:26:39.01	8.60	7.76	-50.4	-63.6	3.8	1.49e+00	0	39	104	0	71	17393
2026-01-15 07:26:40.14	8.43	7.72	-50.5	-63.6	3.8	1.49e+00	0	39	104	0	71	17372
2026-01-15 07:26:41.00	8.31	7.68	-50.4	-63.6	3.8	1.49e+00	0	39	104	0	71	17381
2026-01-15 07:26:42.13	8.15	7.64	-50.5	-63.6	3.8	1.49e+00	0	39	104	0	71	17348
2026-01-15 07:26:42.98	8.02	7.61	-50.5	-63.6	3.8	1.49e+00	0	39	104	0	71	17335
2026-01-15 07:26:44.12	7.86	7.57	-50.4	-63.6	3.8	1.49e+00	0	39	104	0	71	17355
2026-01-15 07:26:44.97	7.74	7.53	-50.4	-63.6	3.8	1.49e+00	0	39	104	0	71	17390
2026-01-15 07:26:46.11	7.57	7.49	-50.4	-63.6	3.8	1.49e+00	0	39	104	0	71	17367
2026-01-15 07:26:46.96	7.45	7.46	-50.4	-63.6	3.8	1.49e+00	0	39	104	0	71	17387
2026-01-15 07:26:48.09	7.29	7.41	-50.5	-63.6	3.8	1.49e+00	0	39	104	0	71	17357
2026-01-15 07:26:48.94	7.17	7.38	-50.4	-63.6	3.8	1.49e+00	0	39	104	0	71	17402
2026-01-15 07:26:50.08	7.01	7.34	-50.5	-63.6	3.8	1.49e+00	0	39	104	0	71	17339
2026-01-15 07:26:50.93	6.89	7.30	-50.4	-63.6	3.8	1.49e+00	0	39	104	0	71	17350
2026-01-15 07:26:52.06	6.73	7.26	-50.4	-63.6	3.8	1.49e+00	0	39	104	0	71	17364
2026-01-15 07:26:52.91	6.61	7.22	-50.5	-63.6	3.8	1.49e+00	0	39	104	0	71	17391
2026-01-15 07:26:54.05	6.46	7.18	-50.4	-63.6	3.8	1.49e+00	0	39	104	0	71	17326
2026-01-15 07:26:54.90	6.34	7.15	-50.4	-63.6	3.8	1.49e+00	0	39	104	0	71	17387
2026-01-15 07:26:56.03	6.18	7.10	-50.5	-63.6	3.8	1.49e+00	0	39	104	0	71	17351
2026-01-15 07:26:56.88	6.06	7.07	-50.4	-63.6	3.8	1.49e+00	0	39	104	0	71	17383
2026-01-15 07:26:58.02	5.90	7.02	-50.4	-63.6	3.8	1.49e+00	0	39	104	0	71	17318
2026-01-15 07:26:58.87	5.79	6.99	-50.5	-63.6	3.8	1.49e+00	0	39	104	0	71	17374
2026-01-15 07:27:00.01	5.63	6.94	-50.5	-63.6	3.8	1.49e+00	0	39	104	0	71	17352
2026-01-15 07:27:00.86	5.51	6.91	-50.5	-63.6	3.8	1.49e+00	0	39	104	0	71	17346
2026-01-15 07:27:01.99	5.36	6.86	-50.4	-63.6	3.8	1.49e+00	0	39	104	0	71	17421
2026-01-15 07:27:02.84	5.24	6.83	-50.4	-63.6	3.8	1.49e+00	0	39	104	0	71	17380
2026-01-15 07:27:03.98	5.09	6.78	-50.4	-63.6	3.8	1.49e+00	0	39	104	0	71	17329
2026-01-15 07:27:04.83	4.97	6.75	-50.4	-63.6	3.8	1.49e+00	0	39	104	0	71	17349
2026-01-15 07:27:05.97	4.82	6.70	-50.4	-63.6	3.8	1.49e+00	0	39	104	0	71	17309
2026-01-15 07:27:06.82	4.71	6.67	-50.4	-63.6	3.8	1.49e+00	0	39	104	0	71	17313
2026-01-15 07:27:07.95	4.55	6.62	-50.5	-63.6	3.8	1.49e+00	0	39	104	0	71	17378
2026-01-15 07:27:08.80	4.44	6.59	-50.5	-63.6	3.8	1.49e+00	0	39	104	0	71	17406
2026-01-15 07:27:09.94	4.29	6.54	-50.4	-63.6	3.8	1.49e+00	0	39	104	0	71	17370
2026-01-15 07:27:10.79	4.17	6.51	-50.4	-63.6	3.8	1.49e+00	0	39	104	0	71	17375
2026-01-15 07:27:11.93	4.02	6.46	-50.5	-63.6	3.8	1.49e+00	0	39	104	0	71	17374
2026-01-15 07:27:12.78	3.91	6.43	-50.4	-63.6	3.8	1.49e+00	0	39	104	0	71	17311
2026-01-15 07:27:13.91	3.76	6.38	-50.5	-63.6	3.8	1.49e+00	0	39	104	0	71	17350
2026-01-15 07:27:14.76	3.65	6.34	-50.4	-63.6	3.8	1.49e+00	0	39	104	0	71	17367
2026-01-15 07:27:15.90	3.50	6.30	-50.5	-63.6	3.8	1.49e+00	0	39	104	0	71	17312
2026-01-15 07:27:16.75	3.39	6.26	-50.4	-63.6	3.8	1.49e+00	0	39	104	0	71	17358
2026-01-15 07:27:17.88	3.24	6.21	-50.4	-63.6	3.8	1.49e+00	0	39	104	0	71	17327
2026-01-15 07:27:18.74	3.13	6.18	-50.4	-63.6	3.8	1.49e+00	0	39	104	0	71	17400
2026-01-15 07:27:19.87	2.98	6.13	-50.5	-63.6	3.8	1.49e+00	0	39	104	0	71	17360
2026-01-15 07:27:20.72	2.87	6.10	-50.4	-63.6	3.8	1.49e+00	0	39	104	0	71	17382
2026-01-15 07:27:21.86	2.73	6.05	-50.4	-63.6	3.8	1.49e+00	0	39	104	0	71	17326
2026-01-15 07:27:22.71	2.62	6.01	-50.4	-63.6	3.8	1.49e+00	0	39	104	0	71	17312
2026-01-15 07:27:23.85	2.47	5.97	-50.4	-63.5	3.8	1.49e+00	0	39	104	0	71	17276
2026-01-15 07:27:24.70	2.36	5.93	-50.4	-63.6	3.8	1.49e+00	0	39	104	0	71	17323
2026-01-15 07:27:25.83	2.22	5.88	-50.5	-63.6	3.8	1.49e+00	0	39	104	0	71	17336
2026-01-15 07:27:26.68	2.11	5.85	-50.4	-63.6	3.8	1.49e+00	0	39	104	0	71	17321
2026-01-15 07:27:27.82	1.96	5.80	-50.5	-63.6	3.8	1.49e+00	0	39	104	0	71	17304
2026-01-15 07:27:28.67	1.86	5.76	-50.4	-63.6	3.8	1.49e+00	0	39	104	0	71	17373
2026-01-15 07:27:29.80	1.71	5.72	-50.4	-63.6	3.8	1.49e+00	0	39	104	0	71	17359
2026-01-15 07:27:30.66	1.61	5.68	-50.4	-63.6	3.8	1.49e+00	0	39	104	0	71	17313
2026-01-15 07:27:31.79	1.46	5.63	-50.4	-63.6	3.8	1.49e+00	0	39	104	0	71	17391
2026-01-15 07:27:32.64	1.36	5.60	-50.4	-63.6	3.8	1.49e+00	0	39	104	0	71	17430
2026-01-15 07:27:33.78	1.22	5.55	-50.4	-63.6	3.8	1.49e+00	0	39	104	0	71	17322
2026-01-15 07:27:34.63	1.11	5.51	-50.4	-63.6	3.8	1.49e+00	0	39	104	0	71	17315
2026-01-15 07:27:35.76	0.97	5.46	-50.4	-63.6	3.8	1.49e+00	0	39	104	0	71	17311
2026-01-15 07:27:36.61	0.87	5.43	-50.4	-63.6	3.8	1.49e+00	0	39	104	0	71	17397
2026-01-15 07:27:37.75	0.73	5.38	-50.4	-63.6	3.8	1.49e+00	0	39	104	0	71	17304
2026-01-15 07:27:38.60	0.62	5.34	-50.5	-63.6	3.8	1.49e+00	0	39	104	0	71	17389
2026-01-15 07:27:39.74	0.48	5.29	-50.4	-63.6	3.8	1.49e+00	0	39	104	0	71	17371
2026-01-15 07:27:40.59	0.38	5.26	-50.4	-63.6	3.8	1.49e+00	0	39	104	0	71	17318
2026-01-15 07:27:41.72	0.24	5.21	-50.4	-63.6	3.8	1.49e+00	0	39	104	0	71	17308
2026-01-15 07:27:42.57	0.14	5.17	-50.4	-63.6	3.8	1.49e+00	0	39	104	0	71	17341
2026-01-15 07:27:43.71	0.00	5.12	-50.4	-63.6	3.8	1.49e+00	0	39	104	0	71	17399
2026-01-15 07:27:44.56	359.90	5.09	-50.4	-63.6	3.8	1.49e+00	0	39	104	0	71	17392
2026-01-15 07:27:45.69	359.76	5.04	-50.4	-63.6	3.8	1.49e+00	0	39	104	0	71	17382
2026-01-15 07:27:46.55	359.66	5.00	-50.4	-63.6	3.8	1.49e+00	0	39	104	0	71	17348

#Closed at: 2026-01-15 07:27:47
#Recorded file [0 MB]: D:/Data/31040_260115_101958.dat