passes_logs/2026/01/15/T1/T1__20260115_011542_SUOMI_NPP_rec.log

#Pass ID: 20260115_011542_SUOMI NPP
#Satellite: SUOMI NPP
#Configuration: NPP
#almurnet v.1.7.20251203
#Start time: 2026-01-15 01:15:45

#Version: 2.0.20230620
#Station: T1
#Location: 37.570604 lon 55.790049 lat
#TLE: 1 37849U 11061A   26014.11719687  .00000048  00000+0  43625-4 0  9998
#TLE: 2 37849  98.7809 316.1734 0002474  65.2440 294.8994 14.19525043736585

#Time	Az	El	Level	Level2	SNR	BER	BlckErr	Temp	State	Recorded	gain1	gain2
2026-01-15 01:15:45.06	7.41	5.15	-50.7	-66.1	3.8	1.49e+00	0	41	0	0	72	21767
2026-01-15 01:15:46.04	7.33	5.21	-50.7	-66.0	3.8	1.49e+00	0	41	104	0	73	20514
2026-01-15 01:15:47.04	7.26	5.27	-50.7	-66.1	3.8	1.49e+00	0	41	104	0	73	20569
2026-01-15 01:15:48.03	7.19	5.34	-50.7	-66.1	3.8	1.49e+00	0	41	104	0	73	20587
2026-01-15 01:15:49.02	7.12	5.40	-50.7	-66.1	3.8	1.49e+00	0	41	104	0	73	20630
2026-01-15 01:15:50.02	7.04	5.46	-50.7	-66.0	3.8	1.49e+00	0	41	104	0	73	20457
2026-01-15 01:15:51.01	6.97	5.53	-50.7	-66.0	3.8	1.49e+00	0	41	104	0	73	20472
2026-01-15 01:15:52.01	6.89	5.59	-50.7	-66.0	3.8	1.49e+00	0	42	104	0	73	20511
2026-01-15 01:15:53.00	6.82	5.65	-50.7	-66.0	3.8	1.49e+00	0	42	104	0	73	20468
2026-01-15 01:15:53.99	6.75	5.72	-50.7	-66.0	3.8	1.49e+00	0	41	104	0	73	20481
2026-01-15 01:15:54.98	6.67	5.78	-50.7	-66.0	3.8	1.49e+00	0	42	104	0	73	20519
2026-01-15 01:15:55.98	6.60	5.84	-50.7	-66.0	3.8	1.49e+00	0	42	104	0	73	20441
2026-01-15 01:15:56.97	6.52	5.91	-50.7	-66.1	3.8	1.49e+00	0	42	104	0	73	20555
2026-01-15 01:15:57.96	6.44	5.97	-50.7	-66.1	3.8	1.49e+00	0	42	104	0	73	20547
2026-01-15 01:15:58.96	6.37	6.03	-50.7	-66.1	3.8	1.49e+00	0	42	104	0	73	20556
2026-01-15 01:15:59.95	6.29	6.10	-50.7	-66.0	3.8	1.49e+00	0	42	104	0	73	20537
2026-01-15 01:16:00.94	6.21	6.16	-50.7	-66.1	3.8	1.49e+00	0	42	104	0	73	20557
2026-01-15 01:16:01.94	6.14	6.23	-50.7	-66.1	3.8	1.49e+00	0	42	104	0	73	20558
2026-01-15 01:16:02.93	6.06	6.29	-50.7	-66.1	3.8	1.49e+00	0	42	104	0	73	20557
2026-01-15 01:16:03.93	5.98	6.36	-50.7	-66.1	3.8	1.49e+00	0	42	104	0	73	20606
2026-01-15 01:16:04.92	5.90	6.42	-50.7	-66.0	3.8	1.49e+00	0	42	104	0	73	20483
2026-01-15 01:16:05.91	5.82	6.48	-50.7	-66.1	3.8	1.49e+00	0	42	104	0	73	20578
2026-01-15 01:16:06.91	5.74	6.55	-50.7	-66.1	3.8	1.49e+00	0	42	104	0	73	20607
2026-01-15 01:16:07.90	5.66	6.61	-50.7	-66.0	3.8	1.49e+00	0	42	104	0	73	20483
2026-01-15 01:16:08.90	5.58	6.68	-50.7	-66.1	3.8	1.49e+00	0	42	104	0	73	20581
2026-01-15 01:16:09.89	5.50	6.74	-50.7	-66.0	3.8	1.49e+00	0	42	104	0	73	20479
2026-01-15 01:16:10.88	5.42	6.81	-50.7	-66.0	3.8	1.49e+00	0	42	104	0	73	20455
2026-01-15 01:16:11.88	5.34	6.87	-50.7	-66.1	3.8	1.49e+00	0	42	104	0	73	20632
2026-01-15 01:16:12.87	5.26	6.94	-50.7	-66.1	3.8	1.49e+00	0	42	104	0	73	20562
2026-01-15 01:16:13.86	5.18	7.01	-50.7	-66.0	3.8	1.49e+00	0	42	104	0	73	20489
2026-01-15 01:16:14.86	5.09	7.07	-50.7	-66.1	3.8	1.49e+00	0	42	104	0	73	20648
2026-01-15 01:16:15.85	5.01	7.14	-50.7	-66.1	3.8	1.49e+00	0	42	104	0	73	20558
2026-01-15 01:16:16.84	4.93	7.20	-50.7	-66.0	3.8	1.49e+00	0	42	104	0	73	20532
2026-01-15 01:16:17.84	4.84	7.27	-50.7	-66.0	3.8	1.49e+00	0	42	104	0	73	20529
2026-01-15 01:16:18.83	4.76	7.33	-50.7	-66.1	3.8	1.49e+00	0	42	104	0	73	20608
2026-01-15 01:16:19.82	4.68	7.40	-50.7	-66.1	3.8	1.49e+00	0	42	104	0	73	20634
2026-01-15 01:16:20.82	4.59	7.47	-50.7	-66.0	3.8	1.49e+00	0	42	104	0	73	20491
2026-01-15 01:16:21.81	4.51	7.53	-50.7	-66.1	3.8	1.49e+00	0	42	104	0	73	20574
2026-01-15 01:16:22.80	4.42	7.60	-50.7	-66.0	3.8	1.49e+00	0	42	104	0	73	20493
2026-01-15 01:16:23.80	4.33	7.67	-50.7	-66.0	3.8	1.49e+00	0	43	104	0	73	20465
2026-01-15 01:16:24.79	4.25	7.73	-50.7	-66.0	3.8	1.49e+00	0	43	104	0	73	20493
2026-01-15 01:16:25.79	4.16	7.80	-50.7	-66.0	3.8	1.49e+00	0	43	104	0	73	20510
2026-01-15 01:16:26.78	4.07	7.87	-50.7	-66.0	3.8	1.49e+00	0	43	104	0	73	20523
2026-01-15 01:16:27.77	3.99	7.93	-50.7	-66.1	3.8	1.49e+00	0	43	104	0	73	20589
2026-01-15 01:16:28.77	3.90	8.00	-50.7	-66.1	3.8	1.49e+00	0	43	104	0	73	20556
2026-01-15 01:16:29.76	3.81	8.07	-50.7	-66.0	3.8	1.49e+00	0	43	104	0	73	20526
2026-01-15 01:16:30.75	3.72	8.14	-50.7	-66.1	3.8	1.49e+00	0	43	104	0	73	20561
2026-01-15 01:16:31.75	3.63	8.20	-50.7	-66.0	3.8	1.49e+00	0	43	104	0	73	20470
2026-01-15 01:16:32.74	3.54	8.27	-50.7	-66.1	3.8	1.49e+00	0	43	104	0	73	20565
2026-01-15 01:16:33.74	3.45	8.34	-50.7	-66.1	3.8	1.49e+00	0	43	104	0	73	20594
2026-01-15 01:16:34.73	3.36	8.41	-50.7	-66.0	3.8	1.49e+00	0	43	104	0	73	20510
2026-01-15 01:16:35.72	3.27	8.47	-50.7	-66.1	3.8	1.49e+00	0	43	104	0	73	20545
2026-01-15 01:16:36.72	3.18	8.54	-50.7	-66.0	3.8	1.49e+00	0	43	104	0	73	20492
2026-01-15 01:16:37.71	3.09	8.61	-50.7	-66.1	3.8	1.49e+00	0	43	104	0	73	20586
2026-01-15 01:16:38.70	2.99	8.68	-50.7	-66.0	3.8	1.49e+00	0	43	104	0	73	20514
2026-01-15 01:16:39.70	2.90	8.75	-50.7	-66.0	3.8	1.49e+00	0	43	104	0	73	20497
2026-01-15 01:16:40.69	2.81	8.82	-50.7	-66.0	3.8	1.49e+00	0	43	104	0	73	20482
2026-01-15 01:16:41.69	2.71	8.89	-50.7	-66.0	3.8	1.49e+00	0	43	104	0	73	20535
2026-01-15 01:16:42.68	2.62	8.95	-50.7	-66.1	3.8	1.49e+00	0	43	104	0	73	20547
2026-01-15 01:16:43.67	2.53	9.02	-50.7	-66.1	3.8	1.49e+00	0	43	104	0	73	20565
2026-01-15 01:16:44.67	2.43	9.09	-50.7	-66.0	3.8	1.49e+00	0	43	104	0	73	20456
2026-01-15 01:16:45.66	2.33	9.16	-50.7	-66.0	3.8	1.49e+00	0	43	104	0	73	20447
2026-01-15 01:16:46.65	2.24	9.23	-50.7	-66.0	3.8	1.49e+00	0	43	104	0	73	20471
2026-01-15 01:16:47.65	2.14	9.30	-50.7	-66.0	3.8	1.49e+00	0	43	104	0	73	20527
2026-01-15 01:16:48.64	2.04	9.37	-50.7	-66.1	3.8	1.49e+00	0	43	104	0	73	20573
2026-01-15 01:16:49.64	1.95	9.44	-50.6	-66.0	3.8	1.49e+00	0	43	104	0	73	20509
2026-01-15 01:16:50.63	1.85	9.51	-50.7	-66.0	3.8	1.49e+00	0	43	104	0	73	20537
2026-01-15 01:16:51.62	1.75	9.58	-50.7	-66.1	3.8	1.49e+00	0	43	104	0	73	20571
2026-01-15 01:16:52.61	1.65	9.65	-50.6	-66.1	3.8	1.49e+00	0	43	104	0	73	20558
2026-01-15 01:16:53.61	1.55	9.72	-50.7	-66.1	3.8	1.49e+00	0	43	104	0	73	20591
2026-01-15 01:16:54.60	1.45	9.79	-50.7	-66.1	3.8	1.49e+00	0	43	104	0	73	20543
2026-01-15 01:16:55.60	1.35	9.86	-50.7	-66.1	3.8	1.49e+00	0	43	104	0	73	20556
2026-01-15 01:16:56.59	1.25	9.93	-50.6	-66.0	3.8	1.49e+00	0	43	104	0	73	20522
2026-01-15 01:16:57.58	1.15	10.00	-50.6	-66.0	3.8	1.49e+00	0	43	104	0	73	20494
2026-01-15 01:16:58.58	1.05	10.07	-50.7	-66.0	3.8	1.49e+00	0	43	104	0	73	20435
2026-01-15 01:16:59.57	0.94	10.14	-50.7	-66.0	3.8	1.49e+00	0	43	104	0	73	20525
2026-01-15 01:17:00.57	0.84	10.21	-50.7	-66.0	3.8	1.49e+00	0	43	104	0	73	20471
2026-01-15 01:17:01.56	0.74	10.28	-50.7	-66.0	3.8	1.49e+00	0	43	104	0	73	20504
2026-01-15 01:17:02.55	0.63	10.35	-50.7	-66.0	3.8	1.49e+00	0	43	104	0	73	20501
2026-01-15 01:17:03.55	0.53	10.42	-50.7	-66.0	3.8	1.49e+00	0	43	104	0	73	20453
2026-01-15 01:17:04.59	0.42	10.50	-50.7	-66.0	3.8	1.49e+00	0	43	104	0	73	20534
2026-01-15 01:17:05.61	0.31	10.57	-50.7	-66.0	3.8	1.49e+00	0	43	104	0	73	20530
2026-01-15 01:17:06.61	0.20	10.64	-50.7	-66.1	3.8	1.49e+00	0	43	104	0	73	20543
2026-01-15 01:17:07.60	0.10	10.72	-50.6	-66.0	3.8	1.49e+00	0	43	104	0	73	20517
2026-01-15 01:17:08.60	359.99	10.79	-50.6	-66.0	3.8	1.49e+00	0	43	104	0	73	20461
2026-01-15 01:17:09.59	359.88	10.86	-50.7	-66.1	3.8	1.49e+00	0	43	104	0	73	20558
2026-01-15 01:17:10.58	359.77	10.93	-50.6	-66.0	3.8	1.49e+00	0	43	104	0	73	20430
2026-01-15 01:17:11.58	359.66	11.00	-50.6	-66.0	3.8	1.49e+00	0	43	104	0	73	20486
2026-01-15 01:17:12.57	359.55	11.08	-50.7	-66.0	3.8	1.49e+00	0	43	104	0	73	20441
2026-01-15 01:17:13.56	359.44	11.15	-50.6	-66.0	3.8	1.49e+00	0	43	104	0	73	20467
2026-01-15 01:17:14.56	359.33	11.22	-50.7	-66.0	3.8	1.49e+00	0	43	104	0	73	20538
2026-01-15 01:17:15.55	359.22	11.29	-50.6	-66.1	3.8	1.49e+00	0	43	104	0	73	20542
2026-01-15 01:17:16.54	359.11	11.36	-50.7	-66.0	3.8	1.49e+00	0	43	104	0	73	20461
2026-01-15 01:17:17.54	359.00	11.44	-50.7	-66.0	3.8	1.49e+00	0	43	104	0	73	20456
2026-01-15 01:17:18.53	358.89	11.51	-50.6	-66.0	3.8	1.49e+00	0	43	104	0	73	20490
2026-01-15 01:17:19.52	358.77	11.58	-50.7	-66.0	3.8	1.49e+00	0	43	104	0	73	20493
2026-01-15 01:17:20.53	358.66	11.66	-50.7	-66.0	3.8	1.49e+00	0	43	104	0	73	20405
2026-01-15 01:17:21.58	358.54	11.73	-50.6	-66.0	3.8	1.49e+00	0	43	104	0	73	20467
2026-01-15 01:17:22.60	358.42	11.81	-50.6	-66.0	3.8	1.49e+00	0	43	104	0	73	20491
2026-01-15 01:17:23.60	358.30	11.88	-50.6	-66.0	3.8	1.49e+00	0	43	104	0	73	20422
2026-01-15 01:17:24.59	358.18	11.96	-50.6	-66.0	3.8	1.49e+00	0	43	104	0	73	20455
2026-01-15 01:17:25.58	358.07	12.03	-50.7	-66.0	3.8	1.49e+00	0	43	104	0	73	20494
2026-01-15 01:17:26.58	357.95	12.10	-50.6	-66.0	3.8	1.49e+00	0	43	104	0	73	20454
2026-01-15 01:17:27.57	357.83	12.18	-50.6	-66.0	3.8	1.49e+00	0	43	104	0	73	20419
2026-01-15 01:17:28.57	357.71	12.25	-50.6	-66.0	3.8	1.49e+00	0	43	104	0	73	20528
2026-01-15 01:17:29.56	357.59	12.32	-50.6	-66.0	3.8	1.49e+00	0	43	104	0	73	20392
2026-01-15 01:17:30.55	357.47	12.40	-50.6	-66.0	3.8	1.49e+00	0	43	104	0	73	20451
2026-01-15 01:17:31.55	357.35	12.47	-50.6	-66.0	3.8	1.49e+00	0	44	104	0	73	20421
2026-01-15 01:17:32.50	357.23	12.54	-50.7	-66.0	3.8	1.49e+00	0	43	104	0	73	20494
2026-01-15 01:17:33.49	357.11	12.62	-50.6	-66.0	3.8	1.49e+00	0	43	104	0	73	20517
2026-01-15 01:17:34.49	356.99	12.69	-50.6	-66.0	3.8	1.49e+00	0	43	104	0	73	20495
2026-01-15 01:17:35.48	356.87	12.77	-50.6	-66.1	3.8	1.49e+00	0	43	104	0	73	20629
2026-01-15 01:17:36.48	356.74	12.84	-50.6	-66.0	3.8	1.49e+00	0	43	104	0	73	20488
2026-01-15 01:17:37.47	356.62	12.92	-50.6	-66.1	3.8	1.49e+00	0	43	104	0	73	20572
2026-01-15 01:17:38.46	356.49	12.99	-50.6	-66.0	3.8	1.49e+00	0	44	104	0	73	20494
2026-01-15 01:17:39.46	356.37	13.07	-50.6	-66.0	3.8	1.49e+00	0	43	104	0	73	20458
2026-01-15 01:17:40.45	356.24	13.14	-50.6	-66.0	3.8	1.49e+00	0	43	104	0	73	20401
2026-01-15 01:17:41.44	356.11	13.22	-50.6	-66.0	3.8	1.49e+00	0	43	104	0	73	20534
2026-01-15 01:17:42.44	355.98	13.29	-50.7	-66.0	3.8	1.49e+00	0	43	104	0	73	20479
2026-01-15 01:17:43.43	355.86	13.37	-50.6	-66.0	3.8	1.49e+00	0	43	104	0	73	20529
2026-01-15 01:17:44.42	355.73	13.44	-50.6	-66.0	3.8	1.49e+00	0	43	104	0	73	20381
2026-01-15 01:17:45.42	355.60	13.52	-50.7	-66.0	3.8	1.49e+00	0	43	104	0	73	20536
2026-01-15 01:17:46.41	355.47	13.59	-50.7	-66.0	3.8	1.49e+00	0	43	104	0	73	20453
2026-01-15 01:17:47.40	355.34	13.67	-50.6	-66.0	3.8	1.49e+00	0	43	104	0	73	20474
2026-01-15 01:17:48.40	355.20	13.74	-50.7	-66.0	3.8	1.49e+00	0	44	104	0	73	20485
2026-01-15 01:17:49.39	355.07	13.82	-50.6	-66.0	3.8	1.49e+00	0	43	104	0	73	20495
2026-01-15 01:17:50.38	354.94	13.89	-50.6	-66.0	3.8	1.49e+00	0	43	104	0	73	20506
2026-01-15 01:17:51.43	354.80	13.97	-50.6	-66.0	3.8	1.49e+00	0	44	104	0	73	20538
2026-01-15 01:17:52.40	354.66	14.05	-50.7	-66.1	3.8	1.49e+00	0	44	104	0	73	20603
2026-01-15 01:17:53.48	354.52	14.13	-50.7	-66.1	3.8	1.49e+00	0	44	104	0	73	20559
2026-01-15 01:17:54.36	354.40	14.20	-50.7	-66.1	3.8	1.49e+00	0	44	104	0	73	20539
2026-01-15 01:17:55.67	354.22	14.30	-50.6	-66.0	3.8	1.49e+00	0	44	104	0	73	20457
2026-01-15 01:17:56.38	354.12	14.35	-50.6	-66.0	3.8	1.49e+00	0	43	104	0	73	20499
2026-01-15 01:17:57.88	353.91	14.47	-50.6	-66.0	3.8	1.49e+00	0	44	104	0	73	20488
2026-01-15 01:17:58.59	353.81	14.52	-50.7	-66.0	3.8	1.49e+00	0	44	104	0	73	20404
2026-01-15 01:17:59.86	353.63	14.62	-50.6	-66.0	3.8	1.49e+00	0	44	104	0	73	20503
2026-01-15 01:18:00.57	353.53	14.68	-50.6	-66.0	3.8	1.49e+00	0	44	104	0	73	20460
2026-01-15 01:18:01.85	353.35	14.78	-50.7	-66.1	3.8	1.49e+00	0	44	104	0	73	20554
2026-01-15 01:18:02.56	353.25	14.83	-50.6	-66.0	3.8	1.49e+00	0	44	104	0	73	20461
2026-01-15 01:18:03.84	353.06	14.93	-50.6	-66.0	3.8	1.49e+00	0	44	104	0	73	20409
2026-01-15 01:18:04.55	352.96	14.98	-50.7	-66.0	3.8	1.49e+00	0	44	104	0	73	20517
2026-01-15 01:18:05.83	352.77	15.08	-50.6	-66.0	3.8	1.49e+00	0	43	104	0	73	20429
2026-01-15 01:18:06.54	352.67	15.14	-50.7	-66.0	3.8	1.49e+00	0	44	104	0	73	20493
2026-01-15 01:18:07.81	352.48	15.24	-50.6	-66.0	3.8	1.49e+00	0	44	104	0	73	20493
2026-01-15 01:18:08.53	352.37	15.29	-50.6	-66.0	3.8	1.49e+00	0	43	104	0	73	20505
2026-01-15 01:18:09.80	352.19	15.39	-50.6	-66.0	3.8	1.49e+00	0	44	104	0	73	20508
2026-01-15 01:18:10.51	352.08	15.45	-50.6	-66.0	3.8	1.49e+00	0	44	104	0	73	20478
2026-01-15 01:18:11.79	351.89	15.55	-50.6	-66.1	3.8	1.49e+00	0	44	104	0	73	20556
2026-01-15 01:18:12.50	351.78	15.60	-50.6	-66.0	3.8	1.49e+00	0	44	104	0	73	20466
2026-01-15 01:18:13.78	351.59	15.70	-50.7	-66.0	3.8	1.49e+00	0	44	104	0	73	20463
2026-01-15 01:18:14.49	351.48	15.75	-50.7	-66.0	3.8	1.49e+00	0	44	104	0	73	20458
2026-01-15 01:18:15.80	351.28	15.86	-50.7	-66.0	3.8	1.49e+00	0	44	104	0	73	20461
2026-01-15 01:18:16.51	351.17	15.91	-50.7	-66.0	3.8	1.49e+00	0	44	104	0	73	20521
2026-01-15 01:18:17.82	350.96	16.01	-50.6	-66.0	3.8	1.49e+00	0	43	104	0	73	20481
2026-01-15 01:18:18.53	350.85	16.07	-50.6	-66.0	3.8	1.49e+00	0	44	104	0	73	20487
2026-01-15 01:18:19.84	350.65	16.17	-50.7	-66.1	3.8	1.49e+00	0	44	104	0	73	20553
2026-01-15 01:18:20.55	350.54	16.23	-50.7	-66.1	3.8	1.49e+00	0	44	104	0	73	20541
2026-01-15 01:18:21.86	350.33	16.33	-50.7	-66.0	3.8	1.49e+00	0	44	104	0	73	20534
2026-01-15 01:18:22.57	350.21	16.38	-50.6	-66.0	3.8	1.49e+00	0	44	104	0	73	20500
2026-01-15 01:18:23.88	350.00	16.49	-50.6	-66.0	3.8	1.49e+00	0	43	104	0	73	20471
2026-01-15 01:18:24.59	349.89	16.54	-50.6	-66.1	3.8	1.49e+00	0	44	104	0	73	20543
2026-01-15 01:18:25.92	349.68	16.65	-50.7	-66.0	3.8	1.49e+00	0	44	104	0	73	20522
2026-01-15 01:18:26.63	349.56	16.70	-50.7	-66.0	3.8	1.49e+00	0	44	104	0	73	20508
2026-01-15 01:18:27.91	349.35	16.80	-50.6	-66.1	3.8	1.49e+00	0	44	104	0	73	20632
2026-01-15 01:18:28.63	349.23	16.86	-50.6	-66.1	3.8	1.49e+00	0	44	104	0	73	20598
2026-01-15 01:18:29.91	349.02	16.96	-50.6	-66.1	3.8	1.49e+00	0	44	104	0	73	20546
2026-01-15 01:18:30.62	348.90	17.01	-50.7	-66.0	3.8	1.49e+00	0	44	104	0	73	20506
2026-01-15 01:18:31.90	348.69	17.11	-50.7	-66.1	3.8	1.49e+00	0	44	104	0	73	20549
2026-01-15 01:18:32.61	348.57	17.17	-50.7	-66.0	3.8	1.49e+00	0	44	104	0	73	20514
2026-01-15 01:18:33.88	348.35	17.27	-50.7	-66.0	3.8	1.49e+00	0	44	104	0	73	20486
2026-01-15 01:18:34.59	348.23	17.32	-50.7	-66.0	3.8	1.49e+00	0	44	104	0	73	20496
2026-01-15 01:18:35.87	348.01	17.42	-50.6	-66.1	3.8	1.49e+00	0	44	104	0	73	20550
2026-01-15 01:18:36.58	347.89	17.48	-50.7	-66.1	3.8	1.49e+00	0	43	104	0	73	20571
2026-01-15 01:18:37.86	347.67	17.58	-50.7	-66.0	3.8	1.49e+00	0	44	104	0	73	20528
2026-01-15 01:18:38.57	347.55	17.64	-50.7	-66.0	3.8	1.49e+00	0	44	104	0	73	20463
2026-01-15 01:18:39.85	347.33	17.74	-50.7	-66.0	3.8	1.49e+00	0	44	104	0	73	20532
2026-01-15 01:18:40.57	347.20	17.79	-50.7	-66.0	3.8	1.49e+00	0	44	104	0	73	20535
2026-01-15 01:18:41.85	346.97	17.89	-50.7	-66.0	3.8	1.49e+00	0	44	104	0	73	20499
2026-01-15 01:18:42.56	346.85	17.95	-50.7	-66.1	3.8	1.49e+00	0	44	104	0	73	20558
2026-01-15 01:18:43.83	346.62	18.05	-50.6	-66.0	3.8	1.49e+00	0	44	104	0	73	20511
2026-01-15 01:18:44.55	346.49	18.10	-50.7	-66.1	3.8	1.49e+00	0	44	104	0	73	20561
2026-01-15 01:18:45.82	346.27	18.20	-50.7	-66.0	3.8	1.49e+00	0	44	104	0	73	20521
2026-01-15 01:18:46.53	346.14	18.26	-50.7	-66.0	3.8	1.49e+00	0	44	104	0	73	20484
2026-01-15 01:18:47.81	345.90	18.36	-50.7	-66.0	3.8	1.49e+00	0	44	104	0	73	20493
2026-01-15 01:18:48.54	345.77	18.41	-50.7	-66.0	3.8	1.49e+00	0	44	104	0	73	20520
2026-01-15 01:18:49.89	345.52	18.52	-50.7	-66.0	3.8	1.49e+00	0	44	104	0	73	20516
2026-01-15 01:18:50.60	345.39	18.57	-50.7	-66.1	3.8	1.49e+00	0	44	104	0	73	20553
2026-01-15 01:18:51.88	345.15	18.67	-50.7	-66.1	3.8	1.49e+00	0	44	104	0	73	20545
2026-01-15 01:18:52.61	345.02	18.73	-50.7	-66.1	3.8	1.49e+00	0	44	104	0	73	20588
2026-01-15 01:18:53.88	344.78	18.83	-50.7	-66.0	3.8	1.49e+00	0	44	104	0	73	20509
2026-01-15 01:18:54.59	344.65	18.88	-50.7	-66.0	3.8	1.49e+00	0	44	104	0	73	20538
2026-01-15 01:18:55.87	344.40	18.98	-50.7	-66.0	3.8	1.49e+00	0	44	104	0	73	20521
2026-01-15 01:18:56.58	344.27	19.03	-50.7	-66.0	3.8	1.49e+00	0	44	104	0	73	20534
2026-01-15 01:18:57.86	344.02	19.13	-50.7	-66.0	3.8	1.49e+00	0	44	104	0	73	20518
2026-01-15 01:18:58.57	343.89	19.19	-50.7	-66.0	3.8	1.49e+00	0	44	104	0	73	20495
2026-01-15 01:18:59.85	343.64	19.29	-50.7	-66.0	3.8	1.49e+00	0	44	104	0	73	20491
2026-01-15 01:19:00.56	343.50	19.34	-50.7	-66.0	3.8	1.49e+00	0	44	104	0	73	20513
2026-01-15 01:19:01.83	343.25	19.44	-50.7	-66.1	3.8	1.49e+00	0	44	104	0	73	20545
2026-01-15 01:19:02.54	343.11	19.49	-50.7	-66.1	3.8	1.49e+00	0	44	104	0	73	20542
2026-01-15 01:19:03.82	342.86	19.59	-50.7	-66.0	3.8	1.49e+00	0	44	104	0	73	20455
2026-01-15 01:19:04.53	342.72	19.64	-50.7	-66.0	3.8	1.49e+00	0	44	104	0	73	20528
2026-01-15 01:19:05.81	342.46	19.74	-50.7	-66.0	3.8	1.49e+00	0	44	104	0	73	20481
2026-01-15 01:19:06.52	342.32	19.79	-50.7	-66.1	3.8	1.49e+00	0	44	104	0	73	20550
2026-01-15 01:19:07.89	342.05	19.90	-50.7	-66.0	3.8	1.49e+00	0	44	104	0	73	20538
2026-01-15 01:19:08.60	341.90	19.95	-50.7	-66.0	3.8	1.49e+00	0	44	104	0	73	20523
2026-01-15 01:19:09.88	341.64	20.05	-50.7	-66.0	3.8	1.49e+00	0	44	104	0	73	20508
2026-01-15 01:19:10.60	341.49	20.10	-50.7	-66.1	3.8	1.49e+00	0	44	104	0	73	20553
2026-01-15 01:19:11.88	341.23	20.20	-50.7	-66.1	3.8	1.49e+00	0	44	104	0	73	20615
2026-01-15 01:19:12.59	341.08	20.25	-50.7	-66.0	3.8	1.49e+00	0	44	104	0	73	20512
2026-01-15 01:19:13.86	340.82	20.35	-50.7	-66.0	3.8	1.49e+00	0	44	104	0	73	20532
2026-01-15 01:19:14.57	340.67	20.40	-50.7	-66.0	3.8	1.49e+00	0	44	104	0	73	20536
2026-01-15 01:19:15.85	340.40	20.50	-50.7	-66.0	3.8	1.49e+00	0	44	104	0	73	20487
2026-01-15 01:19:16.56	340.26	20.55	-50.7	-66.1	3.8	1.49e+00	0	44	104	0	73	20579
2026-01-15 01:19:17.84	339.98	20.64	-50.7	-66.1	3.8	1.49e+00	0	44	104	0	73	20570
2026-01-15 01:19:18.55	339.83	20.70	-50.7	-66.1	3.8	1.49e+00	0	44	104	0	73	20539
2026-01-15 01:19:19.83	339.56	20.79	-50.7	-66.0	3.8	1.49e+00	0	44	104	0	73	20515
2026-01-15 01:19:20.54	339.41	20.84	-50.7	-66.0	3.8	1.49e+00	0	44	104	0	73	20488
2026-01-15 01:19:21.82	339.13	20.94	-50.7	-66.1	3.8	1.49e+00	0	44	104	0	73	20542
2026-01-15 01:19:22.53	338.98	20.99	-50.7	-66.0	3.8	1.49e+00	0	44	104	0	73	20502
2026-01-15 01:19:23.80	338.70	21.08	-50.7	-66.1	3.8	1.49e+00	0	44	104	0	73	20562
2026-01-15 01:19:24.51	338.54	21.13	-50.7	-66.1	3.8	1.49e+00	0	44	104	0	73	20555
2026-01-15 01:19:25.79	338.26	21.23	-50.7	-66.0	3.8	1.49e+00	0	44	104	0	73	20536
2026-01-15 01:19:26.51	338.10	21.28	-50.7	-66.1	3.8	1.49e+00	0	44	104	0	73	20572
2026-01-15 01:19:27.79	337.82	21.37	-50.7	-66.1	3.8	1.49e+00	0	44	104	0	73	20648
2026-01-15 01:19:28.52	337.66	21.42	-50.7	-66.0	3.8	1.49e+00	0	44	104	0	73	20521
2026-01-15 01:19:29.79	337.37	21.51	-50.7	-66.1	3.8	1.49e+00	0	44	104	0	73	20649
2026-01-15 01:19:30.50	337.21	21.56	-50.7	-66.0	3.8	1.49e+00	0	44	104	0	73	20534
2026-01-15 01:19:31.78	336.92	21.65	-50.7	-66.1	3.8	1.49e+00	0	44	104	0	73	20547
2026-01-15 01:19:32.51	336.76	21.71	-50.7	-66.1	3.8	1.49e+00	0	44	104	0	73	20611
2026-01-15 01:19:33.78	336.47	21.80	-50.7	-66.0	3.8	1.49e+00	0	44	104	0	73	20509
2026-01-15 01:19:34.49	336.30	21.84	-50.7	-66.1	3.8	1.49e+00	0	44	104	0	73	20581
2026-01-15 01:19:35.77	336.01	21.93	-50.7	-66.1	3.8	1.49e+00	0	44	104	0	73	20592
2026-01-15 01:19:36.48	335.84	21.98	-50.7	-66.1	3.8	1.49e+00	0	44	104	0	73	20551
2026-01-15 01:19:37.76	335.55	22.07	-50.7	-66.1	3.8	1.49e+00	0	44	104	0	73	20584
2026-01-15 01:19:38.47	335.38	22.12	-50.7	-66.1	3.8	1.49e+00	0	44	104	0	73	20544
2026-01-15 01:19:39.81	335.07	22.21	-50.7	-66.0	3.8	1.49e+00	0	44	104	0	73	20531
2026-01-15 01:19:40.52	334.90	22.26	-50.7	-66.0	3.8	1.49e+00	0	44	104	0	73	20483
2026-01-15 01:19:41.86	334.58	22.35	-50.7	-66.1	3.8	1.49e+00	0	44	104	0	73	20627
2026-01-15 01:19:42.57	334.41	22.40	-50.7	-66.1	3.8	1.49e+00	0	44	104	0	73	20559
2026-01-15 01:19:43.85	334.11	22.49	-50.7	-66.1	3.8	1.49e+00	0	44	104	0	73	20557
2026-01-15 01:19:44.56	333.94	22.53	-50.7	-66.1	3.8	1.49e+00	0	44	104	0	73	20554
2026-01-15 01:19:45.84	333.63	22.62	-50.7	-66.0	3.8	1.49e+00	0	44	104	0	73	20508
2026-01-15 01:19:46.56	333.45	22.66	-50.7	-66.1	3.8	1.49e+00	0	44	104	0	73	20602
2026-01-15 01:19:47.84	333.14	22.75	-50.7	-66.1	3.8	1.49e+00	0	44	104	0	73	20541
2026-01-15 01:19:48.56	332.97	22.80	-50.7	-66.1	3.8	1.49e+00	0	44	104	0	73	20565
2026-01-15 01:19:49.84	332.65	22.88	-50.7	-66.1	3.8	1.49e+00	0	44	104	0	73	20559
2026-01-15 01:19:50.57	332.47	22.93	-50.7	-66.0	3.8	1.49e+00	0	44	104	0	73	20517
2026-01-15 01:19:51.84	332.16	23.01	-50.7	-66.1	3.8	1.49e+00	0	44	104	0	73	20568
2026-01-15 01:19:52.55	331.98	23.05	-50.7	-66.0	3.8	1.49e+00	0	44	104	0	73	20516
2026-01-15 01:19:53.83	331.66	23.13	-50.7	-66.1	3.8	1.49e+00	0	44	104	0	73	20567
2026-01-15 01:19:54.54	331.49	23.18	-50.7	-66.0	3.8	1.49e+00	0	44	104	0	73	20495
2026-01-15 01:19:55.82	331.17	23.26	-50.7	-66.1	3.8	1.49e+00	0	44	104	0	73	20578
2026-01-15 01:19:56.53	330.99	23.30	-50.7	-66.1	3.8	1.49e+00	0	44	104	0	73	20562
2026-01-15 01:19:57.81	330.66	23.38	-50.7	-66.1	3.8	1.49e+00	0	44	104	0	73	20577
2026-01-15 01:19:58.52	330.48	23.42	-50.7	-66.1	3.8	1.49e+00	0	44	104	0	73	20557
2026-01-15 01:19:59.80	330.15	23.50	-50.7	-66.0	3.8	1.49e+00	0	44	104	0	73	20535
2026-01-15 01:20:00.52	329.97	23.54	-50.7	-66.1	3.8	1.49e+00	0	44	104	0	73	20539
2026-01-15 01:20:01.89	329.62	23.62	-50.7	-66.1	3.8	1.49e+00	0	44	104	0	73	20540
2026-01-15 01:20:02.60	329.43	23.67	-50.6	-66.0	3.8	1.49e+00	0	44	104	0	73	20464
2026-01-15 01:20:03.99	329.07	23.75	-50.7	-66.0	3.8	1.49e+00	0	44	104	0	73	20456
2026-01-15 01:20:04.70	328.89	23.79	-50.7	-66.0	3.8	1.49e+00	0	44	104	0	73	20513
2026-01-15 01:20:05.98	328.55	23.86	-50.7	-66.0	3.8	1.49e+00	0	44	104	0	73	20475
2026-01-15 01:20:06.69	328.37	23.90	-50.6	-66.0	3.8	1.49e+00	0	44	104	0	73	20420
2026-01-15 01:20:07.97	328.03	23.97	-50.7	-66.0	3.8	1.49e+00	0	44	104	0	73	20474
2026-01-15 01:20:08.69	327.84	24.01	-50.7	-66.0	3.8	1.49e+00	0	44	104	0	73	20503
2026-01-15 01:20:09.97	327.50	24.09	-50.7	-66.0	3.8	1.49e+00	0	44	104	0	73	20526
2026-01-15 01:20:10.70	327.31	24.13	-50.7	-66.1	3.8	1.49e+00	0	44	104	0	73	20568
2026-01-15 01:20:11.97	326.97	24.19	-50.7	-66.1	3.8	1.49e+00	0	44	104	0	73	20662
2026-01-15 01:20:12.69	326.77	24.23	-50.7	-66.1	3.8	1.49e+00	0	44	104	0	73	20551
2026-01-15 01:20:13.96	326.43	24.30	-50.7	-66.1	3.8	1.49e+00	0	44	104	0	73	20605
2026-01-15 01:20:14.67	326.24	24.34	-50.7	-66.1	3.8	1.49e+00	0	44	104	0	73	20542
2026-01-15 01:20:15.95	325.90	24.40	-50.7	-66.1	3.8	1.49e+00	0	44	104	0	73	20552
2026-01-15 01:20:16.66	325.70	24.44	-50.7	-66.1	3.8	1.49e+00	0	44	104	0	73	20558
2026-01-15 01:20:17.94	325.35	24.50	-50.7	-66.1	3.8	1.49e+00	0	44	104	0	73	20577
2026-01-15 01:20:18.65	325.16	24.54	-50.7	-66.0	3.8	1.49e+00	0	44	104	0	73	20475
2026-01-15 01:20:19.93	324.81	24.60	-50.7	-66.1	3.8	1.49e+00	0	44	104	0	73	20577
2026-01-15 01:20:20.63	324.62	24.64	-50.7	-66.1	3.8	1.49e+00	0	44	104	0	73	20601
2026-01-15 01:20:21.91	324.26	24.70	-50.7	-66.1	3.8	1.49e+00	0	44	104	0	73	20564
2026-01-15 01:20:22.62	324.07	24.73	-50.7	-66.1	3.8	1.49e+00	0	44	104	0	73	20595
2026-01-15 01:20:23.90	323.71	24.79	-50.7	-66.1	3.8	1.49e+00	0	44	104	0	73	20567
2026-01-15 01:20:24.61	323.51	24.83	-50.7	-66.1	3.8	1.49e+00	0	44	104	0	73	20551
2026-01-15 01:20:25.89	323.16	24.88	-50.7	-66.1	3.8	1.49e+00	0	44	104	0	73	20557
2026-01-15 01:20:26.60	322.96	24.92	-50.7	-66.0	3.8	1.49e+00	0	44	104	0	73	20457
2026-01-15 01:20:27.88	322.60	24.97	-50.7	-66.0	3.8	1.49e+00	0	44	104	0	73	20529
2026-01-15 01:20:28.59	322.40	25.00	-50.7	-66.0	3.8	1.49e+00	0	44	104	0	73	20526
2026-01-15 01:20:29.86	322.04	25.06	-50.7	-66.0	3.8	1.49e+00	0	44	104	0	73	20535
2026-01-15 01:20:30.57	321.84	25.09	-50.7	-66.0	3.8	1.49e+00	0	44	104	0	73	20443
2026-01-15 01:20:31.85	321.47	25.14	-50.7	-66.0	3.8	1.49e+00	0	44	104	0	73	20530
2026-01-15 01:20:32.56	321.27	25.17	-50.7	-66.1	3.8	1.49e+00	0	44	104	0	73	20592
2026-01-15 01:20:33.85	320.90	25.22	-50.7	-66.1	3.8	1.49e+00	0	44	104	0	73	20621
2026-01-15 01:20:34.56	320.70	25.25	-50.7	-66.1	3.8	1.49e+00	0	44	104	0	73	20576
2026-01-15 01:20:35.91	320.31	25.30	-50.7	-66.0	3.8	1.49e+00	0	44	104	0	73	20489
2026-01-15 01:20:36.61	320.11	25.33	-50.7	-66.1	3.8	1.49e+00	0	44	104	0	73	20569
2026-01-15 01:20:37.89	319.74	25.38	-50.7	-66.1	3.8	1.49e+00	0	44	104	0	73	20555
2026-01-15 01:20:38.60	319.54	25.40	-50.7	-66.1	3.8	1.49e+00	0	44	104	0	73	20555
2026-01-15 01:20:39.88	319.17	25.45	-50.7	-66.1	3.8	1.49e+00	0	44	104	0	73	20680
2026-01-15 01:20:40.60	318.96	25.47	-50.7	-66.1	3.8	1.49e+00	0	44	104	0	73	20615
2026-01-15 01:20:41.88	318.58	25.52	-50.7	-66.1	3.8	1.49e+00	0	44	104	0	73	20587
2026-01-15 01:20:42.59	318.38	25.54	-50.7	-66.1	3.8	1.49e+00	0	44	104	0	73	20542
2026-01-15 01:20:43.87	318.00	25.58	-50.7	-66.1	3.8	1.49e+00	0	44	104	0	73	20581
2026-01-15 01:20:44.58	317.79	25.60	-50.7	-66.1	3.8	1.49e+00	0	44	104	0	73	20671
2026-01-15 01:20:45.86	317.42	25.64	-50.7	-66.0	3.8	1.49e+00	0	44	104	0	73	20534
2026-01-15 01:20:46.57	317.21	25.67	-50.7	-66.1	3.8	1.49e+00	0	44	104	0	73	20549
2026-01-15 01:20:47.85	316.83	25.70	-50.7	-66.0	3.8	1.49e+00	0	44	104	0	73	20509
2026-01-15 01:20:48.56	316.62	25.72	-50.7	-66.1	3.8	1.49e+00	0	44	104	0	73	20567
2026-01-15 01:20:49.83	316.25	25.76	-50.7	-66.0	3.8	1.49e+00	0	44	104	0	73	20530
2026-01-15 01:20:50.54	316.04	25.78	-50.7	-66.1	3.8	1.49e+00	0	44	104	0	73	20636
2026-01-15 01:20:51.82	315.66	25.81	-50.7	-66.1	3.8	1.49e+00	0	44	104	0	73	20569
2026-01-15 01:20:52.54	315.44	25.83	-50.7	-66.1	3.8	1.49e+00	0	44	104	0	73	20570
2026-01-15 01:20:53.82	315.06	25.86	-50.7	-66.1	3.8	1.49e+00	0	44	104	0	73	20575
2026-01-15 01:20:54.53	314.85	25.88	-50.7	-66.1	3.8	1.49e+00	0	43	104	0	73	20561
2026-01-15 01:20:55.81	314.47	25.91	-50.7	-66.1	3.8	1.49e+00	0	44	104	0	73	20553
2026-01-15 01:20:56.52	314.26	25.92	-50.7	-66.0	3.8	1.49e+00	0	44	104	0	73	20529
2026-01-15 01:20:57.80	313.87	25.95	-50.7	-66.1	3.8	1.49e+00	0	44	104	0	73	20610
2026-01-15 01:20:58.51	313.66	25.97	-50.7	-66.0	3.8	1.49e+00	0	44	104	0	73	20517
2026-01-15 01:20:59.78	313.28	25.99	-50.7	-66.0	3.8	1.49e+00	0	44	104	0	73	20514
2026-01-15 01:21:00.49	313.07	26.00	-50.7	-66.0	3.8	1.49e+00	0	44	104	0	73	20448
2026-01-15 01:21:01.77	312.68	26.03	-50.7	-66.1	3.8	1.49e+00	0	44	104	0	73	20546
2026-01-15 01:21:02.48	312.47	26.04	-50.7	-66.1	3.8	1.49e+00	0	44	104	0	73	20577
2026-01-15 01:21:03.76	312.08	26.06	-50.7	-66.1	3.8	1.49e+00	0	44	104	0	73	20578
2026-01-15 01:21:04.48	311.86	26.07	-50.7	-66.0	3.8	1.49e+00	0	44	104	0	73	20519
2026-01-15 01:21:05.76	311.48	26.09	-50.7	-66.1	3.8	1.49e+00	0	44	104	0	73	20603
2026-01-15 01:21:06.47	311.26	26.10	-50.7	-66.1	3.8	1.49e+00	0	44	104	0	73	20553
2026-01-15 01:21:07.75	310.87	26.12	-50.7	-66.0	3.8	1.49e+00	0	44	104	0	73	20529
2026-01-15 01:21:08.46	310.66	26.13	-50.7	-66.1	3.8	1.49e+00	0	44	104	0	73	20568
2026-01-15 01:21:09.74	310.27	26.14	-50.7	-66.0	3.8	1.49e+00	0	44	104	0	73	20527
2026-01-15 01:21:10.46	310.05	26.15	-50.7	-66.0	3.8	1.49e+00	0	44	104	0	73	20479
2026-01-15 01:21:11.74	309.66	26.16	-50.7	-66.0	3.8	1.49e+00	0	44	104	0	73	20522
2026-01-15 01:21:12.45	309.45	26.16	-50.7	-66.0	3.8	1.49e+00	0	44	104	0	73	20527
2026-01-15 01:21:13.73	309.06	26.17	-50.7	-66.1	3.8	1.49e+00	0	44	104	0	73	20644
2026-01-15 01:21:14.45	308.84	26.18	-50.7	-66.1	3.8	1.49e+00	0	44	104	0	73	20617
2026-01-15 01:21:15.73	308.45	26.19	-50.7	-66.1	3.8	1.49e+00	0	44	104	0	73	20540
2026-01-15 01:21:16.44	308.23	26.19	-50.6	-66.0	3.8	1.49e+00	0	44	104	0	73	20505
2026-01-15 01:21:17.72	307.84	26.20	-50.7	-66.0	3.8	1.49e+00	0	44	104	0	73	20460
2026-01-15 01:21:18.43	307.63	26.20	-50.6	-66.0	3.8	1.49e+00	0	44	104	0	73	20474
2026-01-15 01:21:19.70	307.24	26.20	-50.7	-66.1	3.8	1.49e+00	0	44	104	0	73	20555
2026-01-15 01:21:20.43	307.02	26.20	-50.7	-66.1	3.8	1.49e+00	0	44	104	0	73	20539
2026-01-15 01:21:21.70	306.63	26.20	-50.7	-66.0	3.8	1.49e+00	0	43	104	0	73	20489
2026-01-15 01:21:22.41	306.42	26.20	-50.7	-66.0	3.8	1.49e+00	0	44	104	0	73	20527
2026-01-15 01:21:23.69	306.03	26.20	-50.7	-66.0	3.8	1.49e+00	0	44	104	0	73	20535
2026-01-15 01:21:24.40	305.81	26.20	-50.7	-66.1	3.8	1.49e+00	0	44	104	0	73	20576
2026-01-15 01:21:25.68	305.42	26.19	-50.7	-66.0	3.8	1.49e+00	0	44	104	0	73	20429
2026-01-15 01:21:26.39	305.20	26.19	-50.7	-66.0	3.8	1.49e+00	0	44	104	0	73	20493
2026-01-15 01:21:27.67	304.81	26.19	-50.7	-66.1	3.8	1.49e+00	0	44	104	0	73	20547
2026-01-15 01:21:28.38	304.60	26.18	-50.7	-66.0	3.8	1.49e+00	0	44	104	0	73	20481
2026-01-15 01:21:29.65	304.21	26.17	-50.7	-66.0	3.8	1.49e+00	0	44	104	0	73	20503
2026-01-15 01:21:30.36	304.00	26.17	-50.7	-66.1	3.8	1.49e+00	0	44	104	0	73	20583
2026-01-15 01:21:31.64	303.61	26.16	-50.7	-66.0	3.8	1.49e+00	0	44	104	0	73	20516
2026-01-15 01:21:32.38	303.38	26.15	-50.7	-66.0	3.8	1.49e+00	0	44	104	0	73	20522
2026-01-15 01:21:33.66	302.99	26.14	-50.7	-66.1	3.8	1.49e+00	0	43	104	0	73	20611
2026-01-15 01:21:34.37	302.78	26.13	-50.7	-66.0	3.8	1.49e+00	0	43	104	0	73	20532
2026-01-15 01:21:35.64	302.39	26.11	-50.7	-66.0	3.8	1.49e+00	0	44	104	0	73	20437
2026-01-15 01:21:36.37	302.17	26.11	-50.7	-66.0	3.8	1.49e+00	0	44	104	0	73	20511
2026-01-15 01:21:37.69	301.77	26.09	-50.7	-66.0	3.8	1.49e+00	0	44	104	0	73	20517
2026-01-15 01:21:38.40	301.56	26.08	-50.7	-66.0	3.8	1.49e+00	0	44	104	0	73	20499
2026-01-15 01:21:39.74	301.15	26.06	-50.7	-66.0	3.8	1.49e+00	0	44	104	0	73	20499
2026-01-15 01:21:40.45	300.94	26.05	-50.7	-66.0	3.8	1.49e+00	0	44	104	0	73	20500
2026-01-15 01:21:41.81	300.53	26.02	-50.7	-66.0	3.8	1.49e+00	0	44	104	0	73	20496
2026-01-15 01:21:42.52	300.31	26.01	-50.7	-66.0	3.8	1.49e+00	0	44	104	0	73	20472
2026-01-15 01:21:43.89	299.90	25.98	-50.7	-66.1	3.8	1.49e+00	0	43	104	0	73	20573
2026-01-15 01:21:44.60	299.69	25.97	-50.7	-66.0	3.8	1.49e+00	0	44	104	0	73	20409
2026-01-15 01:21:45.91	299.30	25.94	-50.7	-66.0	3.8	1.49e+00	0	43	104	0	73	20526
2026-01-15 01:21:46.62	299.08	25.93	-50.7	-66.1	3.8	1.49e+00	0	44	104	0	73	20539
2026-01-15 01:21:47.90	298.70	25.90	-50.7	-66.0	3.8	1.49e+00	0	44	104	0	73	20463
2026-01-15 01:21:48.62	298.48	25.88	-50.7	-66.0	3.8	1.49e+00	0	43	104	0	73	20416
2026-01-15 01:21:49.90	298.10	25.85	-50.7	-66.0	3.8	1.49e+00	0	44	104	0	73	20462
2026-01-15 01:21:50.62	297.89	25.83	-50.7	-66.0	3.8	1.49e+00	0	43	104	0	73	20515
2026-01-15 01:21:51.90	297.51	25.80	-50.7	-66.0	3.8	1.49e+00	0	44	104	0	73	20420
2026-01-15 01:21:52.61	297.30	25.78	-50.7	-66.0	3.8	1.49e+00	0	44	104	0	73	20478
2026-01-15 01:21:53.89	296.92	25.75	-50.7	-66.1	3.8	1.49e+00	0	44	104	0	73	20553
2026-01-15 01:21:54.60	296.71	25.73	-50.7	-66.1	3.8	1.49e+00	0	44	104	0	73	20542
2026-01-15 01:21:55.88	296.33	25.69	-50.7	-66.0	3.8	1.49e+00	0	43	104	0	73	20515
2026-01-15 01:21:56.59	296.12	25.67	-50.7	-66.0	3.8	1.49e+00	0	43	104	0	73	20526
2026-01-15 01:21:57.86	295.75	25.63	-50.6	-66.0	3.8	1.49e+00	0	44	104	0	73	20499
2026-01-15 01:21:58.57	295.54	25.61	-50.7	-66.1	3.8	1.49e+00	0	44	104	0	73	20593
2026-01-15 01:21:59.85	295.16	25.57	-50.7	-66.0	3.8	1.49e+00	0	44	104	0	73	20499
2026-01-15 01:22:00.56	294.95	25.54	-50.7	-66.1	3.8	1.49e+00	0	44	104	0	73	20552
2026-01-15 01:22:01.87	294.57	25.50	-50.7	-66.0	3.8	1.49e+00	0	44	104	0	73	20486
2026-01-15 01:22:02.58	294.36	25.47	-50.6	-66.1	3.8	1.49e+00	0	43	104	0	73	20549
2026-01-15 01:22:03.86	293.99	25.43	-50.7	-66.0	3.8	1.49e+00	0	44	104	0	73	20459
2026-01-15 01:22:04.58	293.78	25.40	-50.7	-66.0	3.8	1.49e+00	0	43	104	0	73	20474
2026-01-15 01:22:05.86	293.41	25.36	-50.7	-66.0	3.8	1.49e+00	0	44	104	0	73	20431
2026-01-15 01:22:06.57	293.21	25.33	-50.7	-66.0	3.8	1.49e+00	0	43	104	0	73	20464
2026-01-15 01:22:07.86	292.84	25.28	-50.7	-66.1	3.8	1.49e+00	0	44	104	0	73	20556
2026-01-15 01:22:08.57	292.63	25.25	-50.7	-66.0	3.8	1.49e+00	0	44	104	0	73	20504
2026-01-15 01:22:09.85	292.27	25.20	-50.7	-66.0	3.8	1.49e+00	0	43	104	0	73	20514
2026-01-15 01:22:10.56	292.06	25.17	-50.7	-66.1	3.8	1.49e+00	0	43	104	0	73	20612
2026-01-15 01:22:11.84	291.70	25.12	-50.7	-66.0	3.8	1.49e+00	0	44	104	0	73	20484
2026-01-15 01:22:12.55	291.50	25.09	-50.7	-66.0	3.8	1.49e+00	0	44	104	0	73	20437
2026-01-15 01:22:13.82	291.14	25.04	-50.6	-66.0	3.8	1.49e+00	0	43	104	0	73	20459
2026-01-15 01:22:14.53	290.93	25.01	-50.7	-66.0	3.8	1.49e+00	0	43	104	0	73	20501
2026-01-15 01:22:15.81	290.57	24.95	-50.7	-66.0	3.8	1.49e+00	0	44	104	0	73	20480
2026-01-15 01:22:16.52	290.37	24.92	-50.6	-66.0	3.8	1.49e+00	0	43	104	0	73	20530
2026-01-15 01:22:17.80	290.01	24.86	-50.6	-66.1	3.8	1.49e+00	0	44	104	0	73	20552
2026-01-15 01:22:18.51	289.82	24.83	-50.7	-66.0	3.8	1.49e+00	0	43	104	0	73	20429
2026-01-15 01:22:19.94	289.42	24.76	-50.6	-66.1	3.8	1.49e+00	0	44	104	0	73	20541
2026-01-15 01:22:20.65	289.22	24.73	-50.7	-66.0	3.8	1.49e+00	0	43	104	0	73	20469
2026-01-15 01:22:21.93	288.86	24.67	-50.6	-66.0	3.8	1.49e+00	0	44	104	0	73	20472
2026-01-15 01:22:22.64	288.67	24.63	-50.7	-66.0	3.8	1.49e+00	0	43	104	0	73	20534
2026-01-15 01:22:23.92	288.32	24.57	-50.7	-66.0	3.8	1.49e+00	0	43	104	0	73	20500
2026-01-15 01:22:24.64	288.12	24.53	-50.7	-66.0	3.8	1.49e+00	0	43	104	0	73	20448
2026-01-15 01:22:25.92	287.77	24.47	-50.7	-66.1	3.8	1.49e+00	0	43	104	0	73	20593
2026-01-15 01:22:26.63	287.57	24.43	-50.7	-66.0	3.8	1.49e+00	0	43	104	0	73	20484
2026-01-15 01:22:27.91	287.23	24.37	-50.7	-66.0	3.8	1.49e+00	0	43	104	0	73	20466
2026-01-15 01:22:28.62	287.03	24.33	-50.6	-66.1	3.8	1.49e+00	0	43	104	0	73	20555
2026-01-15 01:22:29.89	286.69	24.26	-50.7	-66.0	3.8	1.49e+00	0	43	104	0	73	20469
2026-01-15 01:22:30.60	286.50	24.23	-50.7	-66.0	3.8	1.49e+00	0	44	104	0	73	20441
2026-01-15 01:22:31.88	286.16	24.16	-50.7	-66.0	3.8	1.49e+00	0	44	104	0	73	20502
2026-01-15 01:22:32.62	285.96	24.12	-50.7	-66.0	3.8	1.49e+00	0	43	104	0	73	20529
2026-01-15 01:22:33.90	285.62	24.05	-50.7	-66.0	3.8	1.49e+00	0	44	104	0	73	20494
2026-01-15 01:22:34.62	285.43	24.01	-50.7	-66.0	3.8	1.49e+00	0	43	104	0	73	20509
2026-01-15 01:22:35.90	285.09	23.93	-50.7	-66.0	3.8	1.49e+00	0	43	104	0	73	20475
2026-01-15 01:22:36.61	284.90	23.89	-50.7	-66.1	3.8	1.49e+00	0	44	104	0	73	20539
2026-01-15 01:22:37.89	284.56	23.82	-50.7	-66.0	3.8	1.49e+00	0	43	104	0	73	20476
2026-01-15 01:22:38.61	284.37	23.78	-50.7	-66.1	3.8	1.49e+00	0	44	104	0	73	20583
2026-01-15 01:22:39.89	284.04	23.70	-50.7	-66.0	3.8	1.49e+00	0	43	104	0	73	20493
2026-01-15 01:22:40.60	283.86	23.66	-50.7	-66.1	3.8	1.49e+00	0	43	104	0	73	20561
2026-01-15 01:22:41.88	283.53	23.59	-50.7	-66.1	3.8	1.49e+00	0	43	104	0	73	20576
2026-01-15 01:22:42.59	283.34	23.55	-50.6	-66.0	3.8	1.49e+00	0	43	104	0	73	20503
2026-01-15 01:22:43.87	283.01	23.47	-50.7	-66.1	3.8	1.49e+00	0	44	104	0	73	20570
2026-01-15 01:22:44.59	282.83	23.42	-50.7	-66.0	3.8	1.49e+00	0	43	104	0	73	20531
2026-01-15 01:22:45.87	282.50	23.35	-50.7	-66.1	3.8	1.49e+00	0	43	104	0	73	20545
2026-01-15 01:22:46.58	282.32	23.30	-50.7	-66.1	3.8	1.49e+00	0	43	104	0	73	20553
2026-01-15 01:22:47.86	282.00	23.22	-50.7	-66.0	3.8	1.49e+00	0	43	104	0	73	20479
2026-01-15 01:22:48.57	281.82	23.18	-50.6	-66.0	3.8	1.49e+00	0	43	104	0	73	20470
2026-01-15 01:22:49.84	281.50	23.10	-50.7	-66.0	3.8	1.49e+00	0	43	104	0	73	20457
2026-01-15 01:22:50.55	281.32	23.05	-50.7	-66.0	3.8	1.49e+00	0	43	104	0	73	20529
2026-01-15 01:22:51.83	281.01	22.97	-50.7	-66.0	3.8	1.49e+00	0	43	104	0	73	20431
2026-01-15 01:22:52.54	280.83	22.93	-50.7	-66.0	3.8	1.49e+00	0	43	104	0	73	20403
2026-01-15 01:22:53.83	280.51	22.84	-50.7	-66.0	3.8	1.49e+00	0	43	104	0	73	20480
2026-01-15 01:22:54.54	280.34	22.80	-50.7	-66.0	3.8	1.49e+00	0	43	104	0	73	20514
2026-01-15 01:22:55.91	280.00	22.71	-50.6	-66.0	3.8	1.49e+00	0	44	104	0	73	20504
2026-01-15 01:22:56.62	279.83	22.66	-50.6	-66.0	3.8	1.49e+00	0	43	104	0	73	20453
2026-01-15 01:22:57.90	279.52	22.58	-50.7	-66.0	3.8	1.49e+00	0	43	104	0	73	20447
2026-01-15 01:22:58.62	279.34	22.53	-50.7	-66.0	3.8	1.49e+00	0	43	104	0	73	20477
2026-01-15 01:22:59.90	279.04	22.44	-50.6	-66.0	3.8	1.49e+00	0	43	104	0	73	20526
2026-01-15 01:23:00.61	278.87	22.39	-50.7	-66.0	3.8	1.49e+00	0	43	104	0	73	20490
2026-01-15 01:23:01.89	278.56	22.31	-50.6	-66.0	3.8	1.49e+00	0	43	104	0	73	20449
2026-01-15 01:23:02.61	278.39	22.26	-50.6	-66.0	3.8	1.49e+00	0	43	104	0	73	20441
2026-01-15 01:23:03.89	278.09	22.17	-50.6	-66.0	3.8	1.49e+00	0	43	104	0	73	20459
2026-01-15 01:23:04.60	277.92	22.12	-50.6	-66.0	3.8	1.49e+00	0	43	104	0	73	20505
2026-01-15 01:23:05.88	277.62	22.03	-50.6	-66.0	3.8	1.49e+00	0	43	104	0	73	20395
2026-01-15 01:23:06.60	277.45	21.98	-50.6	-66.1	3.8	1.49e+00	0	43	104	0	73	20540
2026-01-15 01:23:07.88	277.16	21.89	-50.7	-66.0	3.8	1.49e+00	0	43	104	0	73	20518
2026-01-15 01:23:08.59	276.99	21.84	-50.6	-66.0	3.8	1.49e+00	0	43	104	0	73	20497
2026-01-15 01:23:09.87	276.70	21.76	-50.6	-66.0	3.8	1.49e+00	0	43	104	0	73	20532
2026-01-15 01:23:10.58	276.53	21.70	-50.6	-66.0	3.8	1.49e+00	0	43	104	0	73	20494
2026-01-15 01:23:11.86	276.24	21.61	-50.6	-66.0	3.8	1.49e+00	0	43	104	0	73	20475
2026-01-15 01:23:12.57	276.08	21.56	-50.6	-66.0	3.8	1.49e+00	0	43	104	0	73	20487
2026-01-15 01:23:13.84	275.79	21.47	-50.6	-66.0	3.8	1.49e+00	0	43	104	0	73	20491
2026-01-15 01:23:14.57	275.63	21.42	-50.6	-66.0	3.8	1.49e+00	0	43	104	0	73	20490
2026-01-15 01:23:15.84	275.35	21.33	-50.6	-66.0	3.8	1.49e+00	0	43	104	0	73	20499
2026-01-15 01:23:16.55	275.19	21.28	-50.6	-66.0	3.8	1.49e+00	0	43	104	0	73	20451
2026-01-15 01:23:17.83	274.90	21.19	-50.6	-66.0	3.8	1.49e+00	0	43	104	0	73	20538
2026-01-15 01:23:18.54	274.75	21.13	-50.6	-66.0	3.8	1.49e+00	0	43	104	0	73	20460
2026-01-15 01:23:19.83	274.46	21.04	-50.6	-66.0	3.8	1.49e+00	0	43	104	0	73	20421
2026-01-15 01:23:20.54	274.31	20.99	-50.6	-66.0	3.8	1.49e+00	0	43	104	0	73	20472
2026-01-15 01:23:21.82	274.03	20.89	-50.6	-66.0	3.8	1.49e+00	0	43	104	0	73	20482
2026-01-15 01:23:22.53	273.88	20.84	-50.6	-66.0	3.8	1.49e+00	0	43	104	0	73	20495
2026-01-15 01:23:23.81	273.60	20.75	-50.6	-66.0	3.8	1.49e+00	0	43	104	0	73	20388
2026-01-15 01:23:24.52	273.45	20.69	-50.6	-66.0	3.8	1.49e+00	0	43	104	0	73	20442
2026-01-15 01:23:25.80	273.17	20.60	-50.6	-66.1	3.8	1.49e+00	0	43	104	0	73	20581
2026-01-15 01:23:26.52	273.02	20.55	-50.6	-66.1	3.8	1.49e+00	0	43	104	0	73	20584
2026-01-15 01:23:27.80	272.75	20.45	-50.6	-66.0	3.8	1.49e+00	0	43	104	0	73	20485
2026-01-15 01:23:28.51	272.60	20.40	-50.6	-66.0	3.8	1.49e+00	0	43	104	0	73	20512
2026-01-15 01:23:29.88	272.31	20.29	-50.6	-66.0	3.8	1.49e+00	0	43	104	0	73	20425
2026-01-15 01:23:30.59	272.17	20.24	-50.6	-66.0	3.8	1.49e+00	0	43	104	0	73	20397
2026-01-15 01:23:31.87	271.90	20.14	-50.6	-66.0	3.8	1.49e+00	0	43	104	0	73	20466
2026-01-15 01:23:32.59	271.75	20.09	-50.6	-66.0	3.8	1.49e+00	0	43	104	0	73	20444
2026-01-15 01:23:33.87	271.49	19.99	-50.6	-66.0	3.8	1.49e+00	0	43	104	0	73	20537
2026-01-15 01:23:34.58	271.35	19.94	-50.6	-66.0	3.8	1.49e+00	0	43	104	0	73	20525
2026-01-15 01:23:36.10	271.04	19.82	-50.6	-66.0	3.8	1.49e+00	0	43	104	0	73	20496
2026-01-15 01:23:36.81	270.89	19.77	-50.6	-66.0	3.8	1.49e+00	0	43	104	0	73	20401
2026-01-15 01:23:38.10	270.63	19.67	-50.6	-66.0	3.8	1.49e+00	0	43	104	0	73	20446
2026-01-15 01:23:38.82	270.49	19.62	-50.6	-66.0	3.8	1.49e+00	0	43	104	0	73	20478
2026-01-15 01:23:40.10	270.24	19.52	-50.6	-66.0	3.8	1.49e+00	0	43	104	0	73	20462
2026-01-15 01:23:40.81	270.09	19.46	-50.6	-66.1	3.8	1.49e+00	0	43	104	0	73	20539
2026-01-15 01:23:42.09	269.84	19.37	-50.6	-66.0	3.8	1.49e+00	0	43	104	0	73	20414
2026-01-15 01:23:42.81	269.70	19.31	-50.6	-66.0	3.8	1.49e+00	0	43	104	0	73	20428
2026-01-15 01:23:44.09	269.45	19.21	-50.6	-66.0	3.8	1.49e+00	0	43	104	0	73	20449
2026-01-15 01:23:44.80	269.31	19.16	-50.6	-66.0	3.8	1.49e+00	0	43	104	0	73	20416
2026-01-15 01:23:46.08	269.07	19.06	-50.6	-66.0	3.8	1.49e+00	0	43	104	0	73	20429
2026-01-15 01:23:46.80	268.93	19.00	-50.6	-66.0	3.8	1.49e+00	0	43	104	0	73	20412
2026-01-15 01:23:48.08	268.69	18.90	-50.6	-66.0	3.8	1.49e+00	0	43	104	0	73	20490
2026-01-15 01:23:48.81	268.55	18.85	-50.6	-66.0	3.8	1.49e+00	0	43	104	0	73	20449
2026-01-15 01:23:50.09	268.30	18.75	-50.6	-66.1	3.8	1.49e+00	0	43	104	0	73	20543
2026-01-15 01:23:50.80	268.17	18.69	-50.6	-66.0	3.8	1.49e+00	0	43	104	0	73	20477
2026-01-15 01:23:52.07	267.93	18.59	-50.6	-66.0	3.8	1.49e+00	0	43	104	0	73	20516
2026-01-15 01:23:52.80	267.80	18.54	-50.6	-66.0	3.8	1.49e+00	0	43	104	0	73	20415
2026-01-15 01:23:54.07	267.56	18.44	-50.6	-66.0	3.8	1.49e+00	0	43	104	0	73	20379
2026-01-15 01:23:54.78	267.43	18.38	-50.6	-66.0	3.8	1.49e+00	0	43	104	0	73	20459
2026-01-15 01:23:56.06	267.20	18.28	-50.6	-66.0	3.8	1.49e+00	0	43	104	0	73	20448
2026-01-15 01:23:56.79	267.06	18.23	-50.6	-66.0	3.8	1.49e+00	0	43	104	0	73	20331
2026-01-15 01:23:58.06	266.83	18.13	-50.6	-66.0	3.8	1.49e+00	0	43	104	0	73	20353
2026-01-15 01:23:58.77	266.71	18.07	-50.6	-66.0	3.8	1.49e+00	0	43	104	0	73	20414
2026-01-15 01:24:00.05	266.48	17.97	-50.6	-66.0	3.8	1.49e+00	0	43	104	0	73	20404
2026-01-15 01:24:00.76	266.35	17.92	-50.6	-66.0	3.8	1.49e+00	0	43	104	0	73	20532
2026-01-15 01:24:02.04	266.12	17.82	-50.6	-66.0	3.8	1.49e+00	0	43	104	0	73	20401
2026-01-15 01:24:02.76	265.99	17.76	-50.6	-66.0	3.8	1.49e+00	0	43	104	0	73	20494
2026-01-15 01:24:04.04	265.77	17.66	-50.6	-66.0	3.8	1.49e+00	0	43	104	0	73	20452
2026-01-15 01:24:04.75	265.64	17.60	-50.6	-66.0	3.8	1.49e+00	0	43	104	0	73	20466
2026-01-15 01:24:06.39	265.36	17.47	-50.6	-66.0	3.8	1.49e+00	0	43	104	0	73	20424
2026-01-15 01:24:06.96	265.26	17.43	-50.6	-66.0	3.8	1.49e+00	0	43	104	0	73	20446
2026-01-15 01:24:08.66	264.97	17.30	-50.6	-66.0	3.8	1.49e+00	0	43	104	0	73	20494
2026-01-15 01:24:09.23	264.87	17.25	-50.6	-66.0	3.8	1.49e+00	0	43	104	0	73	20450
2026-01-15 01:24:10.93	264.58	17.12	-50.6	-66.0	3.8	1.49e+00	0	43	104	0	73	20424
2026-01-15 01:24:11.50	264.49	17.07	-50.6	-66.0	3.8	1.49e+00	0	43	104	0	73	20484
2026-01-15 01:24:13.20	264.20	16.94	-50.6	-66.0	3.8	1.49e+00	0	43	104	0	73	20411
2026-01-15 01:24:13.77	264.11	16.90	-50.6	-66.0	3.8	1.49e+00	0	43	104	0	73	20465
2026-01-15 01:24:15.47	263.82	16.76	-50.6	-66.0	3.8	1.49e+00	0	43	104	0	73	20396
2026-01-15 01:24:16.04	263.73	16.72	-50.6	-66.0	3.8	1.49e+00	0	43	104	0	73	20455
2026-01-15 01:24:17.74	263.45	16.58	-50.6	-66.0	3.8	1.49e+00	0	43	104	0	73	20466
2026-01-15 01:24:18.31	263.36	16.54	-50.6	-66.0	3.8	1.49e+00	0	43	104	0	73	20460
2026-01-15 01:24:20.22	263.05	16.39	-50.6	-66.0	3.8	1.49e+00	0	43	104	0	73	20464
2026-01-15 01:24:20.79	262.96	16.35	-50.6	-66.0	3.8	1.49e+00	0	43	104	0	73	20411
2026-01-15 01:24:22.49	262.69	16.21	-50.6	-66.0	3.8	1.49e+00	0	43	104	0	73	20454
2026-01-15 01:24:23.18	262.58	16.16	-50.6	-66.0	3.8	1.49e+00	0	43	104	0	73	20456
2026-01-15 01:24:24.60	262.35	16.05	-50.6	-66.0	3.8	1.49e+00	0	43	104	0	73	20418
2026-01-15 01:24:25.31	262.24	15.99	-50.6	-66.0	3.8	1.49e+00	0	43	104	0	73	20424
2026-01-15 01:24:26.59	262.04	15.89	-50.6	-66.0	3.8	1.49e+00	0	43	104	0	73	20491
2026-01-15 01:24:27.30	261.93	15.84	-50.6	-66.0	3.8	1.49e+00	0	43	104	0	73	20464
2026-01-15 01:24:28.58	261.73	15.74	-50.6	-66.0	3.8	1.49e+00	0	43	104	0	73	20519
2026-01-15 01:24:29.29	261.62	15.68	-50.6	-66.0	3.8	1.49e+00	0	43	104	0	73	20466
2026-01-15 01:24:30.57	261.43	15.58	-50.6	-66.0	3.8	1.49e+00	0	43	104	0	73	20433
2026-01-15 01:24:31.27	261.32	15.53	-50.6	-66.0	3.8	1.49e+00	0	43	104	0	73	20473
2026-01-15 01:24:32.55	261.13	15.43	-50.6	-66.1	3.8	1.49e+00	0	43	104	0	73	20546
2026-01-15 01:24:33.26	261.02	15.37	-50.6	-66.0	3.8	1.49e+00	0	43	104	0	73	20472
2026-01-15 01:24:34.54	260.83	15.27	-50.6	-66.0	3.8	1.49e+00	0	43	104	0	73	20453
2026-01-15 01:24:35.26	260.72	15.21	-50.6	-66.0	3.8	1.49e+00	0	43	104	0	73	20387
2026-01-15 01:24:36.54	260.53	15.12	-50.6	-66.0	3.8	1.49e+00	0	43	104	0	73	20473
2026-01-15 01:24:37.25	260.43	15.06	-50.6	-66.0	3.8	1.49e+00	0	43	104	0	73	20427
2026-01-15 01:24:38.53	260.24	14.96	-50.6	-66.0	3.8	1.49e+00	0	43	104	0	73	20478
2026-01-15 01:24:39.24	260.14	14.91	-50.6	-66.0	3.8	1.49e+00	0	43	104	0	73	20478
2026-01-15 01:24:40.52	259.95	14.81	-50.6	-66.0	3.8	1.49e+00	0	43	104	0	73	20471
2026-01-15 01:24:41.31	259.84	14.75	-50.6	-66.0	3.8	1.49e+00	0	43	104	0	73	20496
2026-01-15 01:24:42.52	259.66	14.65	-50.6	-66.0	3.8	1.49e+00	0	43	104	0	73	20407
2026-01-15 01:24:43.37	259.54	14.59	-50.6	-66.0	3.8	1.49e+00	0	43	104	0	73	20497
2026-01-15 01:24:44.51	259.38	14.50	-50.6	-66.0	3.8	1.49e+00	0	43	104	0	73	20482
2026-01-15 01:24:45.36	259.26	14.43	-50.6	-66.0	3.8	1.49e+00	0	43	104	0	73	20430
2026-01-15 01:24:46.49	259.10	14.35	-50.6	-66.0	3.8	1.49e+00	0	43	104	0	73	20485
2026-01-15 01:24:47.35	258.98	14.28	-50.6	-66.0	3.8	1.49e+00	0	43	104	0	73	20428
2026-01-15 01:24:48.48	258.82	14.19	-50.6	-66.0	3.8	1.49e+00	0	43	104	0	73	20441
2026-01-15 01:24:49.33	258.71	14.13	-50.6	-66.0	3.8	1.49e+00	0	43	104	0	73	20470
2026-01-15 01:24:50.47	258.55	14.04	-50.6	-66.0	3.8	1.49e+00	0	43	104	0	73	20425
2026-01-15 01:24:51.32	258.43	13.97	-50.6	-66.0	3.8	1.49e+00	0	43	104	0	73	20443
2026-01-15 01:24:52.46	258.28	13.89	-50.6	-66.1	3.8	1.49e+00	0	43	104	0	73	20540
2026-01-15 01:24:53.31	258.16	13.82	-50.6	-66.0	3.8	1.49e+00	0	43	104	0	73	20407
2026-01-15 01:24:54.44	258.01	13.73	-50.6	-66.0	3.8	1.49e+00	0	43	104	0	73	20496
2026-01-15 01:24:55.30	257.90	13.67	-50.6	-66.0	3.8	1.49e+00	0	43	104	0	73	20467
2026-01-15 01:24:56.43	257.75	13.58	-50.6	-66.0	3.8	1.49e+00	0	43	104	0	73	20537
2026-01-15 01:24:57.41	257.62	13.51	-50.6	-66.0	3.8	1.49e+00	0	43	104	0	73	20523
2026-01-15 01:24:58.57	257.46	13.42	-50.6	-66.0	3.8	1.49e+00	0	43	104	0	73	20497
2026-01-15 01:24:59.46	257.35	13.35	-50.6	-66.0	3.8	1.49e+00	0	43	104	0	73	20362
2026-01-15 01:25:00.77	257.17	13.25	-50.6	-66.0	3.8	1.49e+00	0	43	104	0	73	20524
2026-01-15 01:25:01.48	257.08	13.20	-50.6	-66.0	3.8	1.49e+00	0	43	104	0	73	20497
2026-01-15 01:25:02.75	256.92	13.10	-50.6	-66.0	3.8	1.49e+00	0	43	104	0	73	20495
2026-01-15 01:25:03.46	256.83	13.05	-50.6	-66.0	3.8	1.49e+00	0	43	104	0	73	20449
2026-01-15 01:25:04.74	256.66	12.95	-50.6	-66.0	3.8	1.49e+00	0	43	104	0	73	20498
2026-01-15 01:25:05.45	256.57	12.90	-50.6	-66.0	3.8	1.49e+00	0	43	104	0	73	20392
2026-01-15 01:25:06.73	256.41	12.80	-50.6	-66.0	3.8	1.49e+00	0	43	104	0	73	20409
2026-01-15 01:25:07.44	256.32	12.75	-50.6	-66.0	3.8	1.49e+00	0	43	104	0	73	20538
2026-01-15 01:25:08.72	256.16	12.65	-50.6	-66.0	3.8	1.49e+00	0	43	104	0	73	20434
2026-01-15 01:25:09.43	256.07	12.60	-50.6	-66.1	3.8	1.49e+00	0	43	104	0	73	20539
2026-01-15 01:25:10.70	255.92	12.50	-50.6	-66.0	3.8	1.49e+00	0	43	104	0	73	20474
2026-01-15 01:25:11.41	255.83	12.45	-50.6	-66.0	3.8	1.49e+00	0	43	104	0	73	20507
2026-01-15 01:25:12.72	255.67	12.35	-50.6	-66.0	3.8	1.49e+00	0	43	104	0	73	20423
2026-01-15 01:25:13.43	255.58	12.30	-50.6	-66.0	3.8	1.49e+00	0	43	104	0	73	20464
2026-01-15 01:25:14.76	255.42	12.20	-50.6	-66.1	3.8	1.49e+00	0	43	104	0	73	20577
2026-01-15 01:25:15.47	255.33	12.15	-50.6	-66.0	3.8	1.49e+00	0	43	104	0	73	20526
2026-01-15 01:25:16.81	255.17	12.05	-50.6	-66.0	3.8	1.49e+00	0	43	104	0	73	20503
2026-01-15 01:25:17.52	255.09	11.99	-50.7	-66.1	3.8	1.49e+00	0	43	104	0	73	20550
2026-01-15 01:25:18.86	254.93	11.89	-50.6	-66.0	3.8	1.49e+00	0	43	104	0	73	20535
2026-01-15 01:25:19.57	254.85	11.84	-50.6	-66.1	3.8	1.49e+00	0	43	104	0	73	20585
2026-01-15 01:25:20.92	254.69	11.74	-50.6	-66.1	3.8	1.49e+00	0	43	104	0	73	20562
2026-01-15 01:25:21.63	254.60	11.69	-50.6	-66.0	3.8	1.49e+00	0	43	104	0	73	20412
2026-01-15 01:25:22.91	254.45	11.60	-50.6	-66.0	3.8	1.49e+00	0	43	104	0	73	20468
2026-01-15 01:25:23.64	254.37	11.54	-50.6	-66.0	3.8	1.49e+00	0	43	104	0	73	20466
2026-01-15 01:25:24.91	254.22	11.45	-50.6	-66.0	3.8	1.49e+00	0	43	104	0	73	20461
2026-01-15 01:25:25.62	254.14	11.40	-50.6	-66.0	3.8	1.49e+00	0	43	104	0	73	20436
2026-01-15 01:25:26.90	254.00	11.30	-50.6	-66.1	3.8	1.49e+00	0	43	104	0	73	20577
2026-01-15 01:25:27.61	253.92	11.25	-50.6	-66.0	3.8	1.49e+00	0	43	104	0	73	20493
2026-01-15 01:25:28.89	253.77	11.16	-50.7	-66.0	3.8	1.49e+00	0	43	104	0	73	20486
2026-01-15 01:25:29.60	253.69	11.10	-50.6	-66.0	3.8	1.49e+00	0	43	104	0	73	20481
2026-01-15 01:25:30.87	253.55	11.01	-50.7	-66.0	3.8	1.49e+00	0	43	104	0	73	20515
2026-01-15 01:25:31.58	253.47	10.96	-50.7	-66.0	3.8	1.49e+00	0	43	104	0	73	20446
2026-01-15 01:25:32.86	253.33	10.87	-50.7	-66.0	3.8	1.49e+00	0	43	104	0	73	20525
2026-01-15 01:25:33.57	253.25	10.82	-50.6	-66.0	3.8	1.49e+00	0	43	104	0	73	20464
2026-01-15 01:25:34.85	253.11	10.72	-50.6	-66.0	3.8	1.49e+00	0	43	104	0	73	20534
2026-01-15 01:25:35.56	253.03	10.67	-50.6	-66.0	3.8	1.49e+00	0	43	104	0	73	20472
2026-01-15 01:25:36.83	252.90	10.58	-50.6	-66.0	3.8	1.49e+00	0	43	104	0	73	20477
2026-01-15 01:25:37.56	252.82	10.53	-50.6	-66.1	3.8	1.49e+00	0	43	104	0	73	20551
2026-01-15 01:25:38.90	252.67	10.43	-50.6	-66.1	3.8	1.49e+00	0	43	104	0	73	20539
2026-01-15 01:25:39.61	252.60	10.38	-50.6	-66.0	3.8	1.49e+00	0	43	104	0	73	20481
2026-01-15 01:25:40.89	252.46	10.29	-50.7	-66.0	3.8	1.49e+00	0	43	104	0	73	20409
2026-01-15 01:25:41.60	252.39	10.24	-50.7	-66.0	3.8	1.49e+00	0	43	104	0	73	20456
2026-01-15 01:25:42.88	252.25	10.15	-50.7	-66.0	3.8	1.49e+00	0	43	104	0	73	20511
2026-01-15 01:25:43.59	252.18	10.09	-50.7	-66.0	3.8	1.49e+00	0	43	104	0	73	20530
2026-01-15 01:25:44.86	252.05	10.00	-50.7	-66.0	3.8	1.49e+00	0	43	104	0	73	20533
2026-01-15 01:25:45.57	251.97	9.95	-50.6	-66.0	3.8	1.49e+00	0	43	104	0	73	20503
2026-01-15 01:25:46.85	251.84	9.86	-50.7	-66.1	3.8	1.49e+00	0	43	104	0	73	20592
2026-01-15 01:25:47.59	251.76	9.81	-50.7	-66.1	3.8	1.49e+00	0	43	104	0	73	20612
2026-01-15 01:25:48.87	251.63	9.72	-50.7	-66.0	3.8	1.49e+00	0	43	104	0	73	20443
2026-01-15 01:25:49.59	251.56	9.67	-50.7	-66.0	3.8	1.49e+00	0	43	104	0	73	20517
2026-01-15 01:25:50.87	251.43	9.58	-50.7	-66.1	3.8	1.49e+00	0	43	104	0	73	20549
2026-01-15 01:25:51.72	251.35	9.52	-50.7	-66.1	3.8	1.49e+00	0	43	104	0	73	20545
2026-01-15 01:25:52.86	251.23	9.44	-50.6	-66.0	3.8	1.49e+00	0	43	104	0	73	20394
2026-01-15 01:25:53.71	251.15	9.38	-50.7	-66.0	3.8	1.49e+00	0	43	104	0	73	20517
2026-01-15 01:25:54.84	251.03	9.30	-50.6	-66.0	3.8	1.49e+00	0	43	104	0	73	20508
2026-01-15 01:25:55.69	250.95	9.24	-50.6	-66.1	3.8	1.49e+00	0	43	104	0	73	20578
2026-01-15 01:25:56.83	250.84	9.16	-50.6	-66.0	3.8	1.49e+00	0	43	104	0	73	20430
2026-01-15 01:25:57.68	250.76	9.10	-50.6	-66.1	3.8	1.49e+00	0	43	104	0	73	20543
2026-01-15 01:25:58.82	250.65	9.02	-50.7	-66.0	3.8	1.49e+00	0	43	104	0	73	20498
2026-01-15 01:25:59.67	250.56	8.96	-50.6	-66.0	3.8	1.49e+00	0	43	104	0	73	20522
2026-01-15 01:26:00.81	250.45	8.88	-50.7	-66.1	3.8	1.49e+00	0	43	104	0	73	20539
2026-01-15 01:26:01.66	250.37	8.82	-50.7	-66.0	3.8	1.49e+00	0	43	104	0	73	20470
2026-01-15 01:26:02.79	250.26	8.74	-50.6	-66.1	3.8	1.49e+00	0	43	104	0	73	20567
2026-01-15 01:26:03.64	250.18	8.69	-50.6	-66.1	3.8	1.49e+00	0	43	104	0	73	20549
2026-01-15 01:26:04.78	250.08	8.61	-50.6	-66.0	3.8	1.49e+00	0	43	104	0	73	20522
2026-01-15 01:26:05.63	250.00	8.55	-50.7	-66.0	3.8	1.49e+00	0	43	104	0	73	20429
2026-01-15 01:26:06.77	249.89	8.47	-50.7	-66.0	3.8	1.49e+00	0	43	104	0	73	20534
2026-01-15 01:26:07.62	249.81	8.41	-50.7	-66.1	3.8	1.49e+00	0	43	104	0	73	20555
2026-01-15 01:26:08.76	249.71	8.33	-50.6	-66.0	3.8	1.49e+00	0	43	104	0	73	20524
2026-01-15 01:26:09.61	249.63	8.28	-50.6	-66.0	3.8	1.49e+00	0	43	104	0	73	20473
2026-01-15 01:26:10.74	249.52	8.20	-50.6	-66.0	3.8	1.49e+00	0	43	104	0	73	20470
2026-01-15 01:26:11.59	249.45	8.14	-50.7	-66.0	3.8	1.49e+00	0	43	104	0	73	20518
2026-01-15 01:26:12.73	249.34	8.06	-50.6	-66.0	3.8	1.49e+00	0	43	104	0	73	20518
2026-01-15 01:26:13.58	249.27	8.00	-50.7	-66.1	3.8	1.49e+00	0	43	104	0	73	20575
2026-01-15 01:26:14.72	249.16	7.93	-50.7	-66.0	3.8	1.49e+00	0	43	104	0	73	20462
2026-01-15 01:26:15.57	249.09	7.87	-50.6	-66.0	3.8	1.49e+00	0	43	104	0	73	20511
2026-01-15 01:26:16.71	248.98	7.79	-50.6	-66.0	3.8	1.49e+00	0	43	104	0	73	20500
2026-01-15 01:26:17.56	248.91	7.74	-50.6	-66.0	3.8	1.49e+00	0	43	104	0	73	20519
2026-01-15 01:26:18.69	248.81	7.66	-50.7	-66.0	3.8	1.49e+00	0	43	104	0	73	20451
2026-01-15 01:26:19.54	248.73	7.60	-50.7	-66.0	3.8	1.49e+00	0	43	104	0	73	20484
2026-01-15 01:26:20.68	248.64	7.53	-50.7	-66.0	3.8	1.49e+00	0	43	104	0	73	20486
2026-01-15 01:26:21.53	248.56	7.47	-50.7	-66.0	3.8	1.49e+00	0	43	104	0	73	20481
2026-01-15 01:26:22.67	248.46	7.39	-50.7	-66.0	3.8	1.49e+00	0	43	104	0	73	20530
2026-01-15 01:26:23.52	248.39	7.33	-50.7	-66.0	3.8	1.49e+00	0	43	104	0	73	20408
2026-01-15 01:26:24.65	248.29	7.26	-50.6	-66.0	3.8	1.49e+00	0	43	104	0	73	20501
2026-01-15 01:26:25.50	248.22	7.20	-50.7	-66.0	3.8	1.49e+00	0	43	104	0	73	20502
2026-01-15 01:26:26.64	248.12	7.13	-50.7	-66.1	3.8	1.49e+00	0	43	104	0	73	20552
2026-01-15 01:26:27.49	248.05	7.07	-50.7	-66.1	3.8	1.49e+00	0	43	104	0	73	20559
2026-01-15 01:26:28.68	247.95	6.99	-50.7	-66.0	3.8	1.49e+00	0	43	104	0	73	20526
2026-01-15 01:26:29.53	247.88	6.94	-50.7	-66.0	3.8	1.49e+00	0	43	104	0	73	20461
2026-01-15 01:26:30.74	247.78	6.86	-50.7	-66.1	3.8	1.49e+00	0	43	104	0	73	20550
2026-01-15 01:26:31.59	247.71	6.80	-50.7	-66.1	3.8	1.49e+00	0	43	104	0	73	20589
2026-01-15 01:26:32.73	247.61	6.72	-50.6	-66.0	3.8	1.49e+00	0	43	104	0	73	20470
2026-01-15 01:26:33.58	247.54	6.67	-50.7	-66.0	3.8	1.49e+00	0	43	104	0	73	20486
2026-01-15 01:26:34.72	247.45	6.59	-50.7	-66.1	3.8	1.49e+00	0	43	104	0	73	20558
2026-01-15 01:26:35.57	247.38	6.54	-50.7	-66.1	3.8	1.49e+00	0	43	104	0	73	20549
2026-01-15 01:26:36.70	247.29	6.46	-50.7	-66.0	3.8	1.49e+00	0	43	104	0	73	20522
2026-01-15 01:26:37.55	247.22	6.41	-50.6	-66.0	3.8	1.49e+00	0	43	104	0	73	20415
2026-01-15 01:26:38.69	247.13	6.33	-50.7	-66.0	3.8	1.49e+00	0	43	104	0	73	20471
2026-01-15 01:26:39.54	247.06	6.28	-50.7	-66.0	3.8	1.49e+00	0	43	104	0	73	20508
2026-01-15 01:26:40.68	246.97	6.20	-50.7	-66.0	3.8	1.49e+00	0	43	104	0	73	20475
2026-01-15 01:26:41.53	246.90	6.15	-50.7	-66.0	3.8	1.49e+00	0	43	104	0	73	20514
2026-01-15 01:26:42.66	246.81	6.08	-50.7	-66.0	3.8	1.49e+00	0	43	104	0	73	20490
2026-01-15 01:26:43.51	246.75	6.02	-50.7	-66.0	3.8	1.49e+00	0	43	104	0	73	20479
2026-01-15 01:26:44.65	246.66	5.95	-50.6	-66.0	3.8	1.49e+00	0	43	104	0	73	20489
2026-01-15 01:26:45.50	246.59	5.89	-50.7	-66.0	3.8	1.49e+00	0	43	104	0	73	20489
2026-01-15 01:26:46.64	246.50	5.82	-50.7	-66.0	3.8	1.49e+00	0	43	104	0	73	20513
2026-01-15 01:26:47.49	246.44	5.77	-50.6	-66.0	3.8	1.49e+00	0	43	104	0	73	20430
2026-01-15 01:26:48.62	246.35	5.69	-50.6	-66.0	3.8	1.49e+00	0	43	104	0	73	20485
2026-01-15 01:26:49.48	246.28	5.64	-50.6	-66.0	3.8	1.49e+00	0	43	104	0	73	20482
2026-01-15 01:26:50.61	246.20	5.57	-50.6	-66.1	3.8	1.49e+00	0	43	104	0	73	20550
2026-01-15 01:26:51.46	246.13	5.51	-50.7	-66.1	3.8	1.49e+00	0	43	104	0	73	20617
2026-01-15 01:26:52.60	246.05	5.44	-50.6	-66.1	3.8	1.49e+00	0	43	104	0	73	20541
2026-01-15 01:26:53.45	245.98	5.39	-50.7	-66.0	3.8	1.49e+00	0	43	104	0	73	20480
2026-01-15 01:26:54.59	245.90	5.31	-50.7	-66.1	3.8	1.49e+00	0	43	104	0	73	20572
2026-01-15 01:26:55.44	245.83	5.26	-50.6	-66.0	3.8	1.49e+00	0	43	104	0	73	20486
2026-01-15 01:26:56.57	245.75	5.19	-50.7	-66.0	3.8	1.49e+00	0	43	104	0	73	20477
2026-01-15 01:26:57.42	245.69	5.13	-50.6	-66.1	3.8	1.49e+00	0	43	104	0	73	20563
2026-01-15 01:26:58.56	245.60	5.06	-50.6	-66.0	3.8	1.49e+00	0	43	104	0	73	20408
2026-01-15 01:26:59.41	245.54	5.01	-50.6	-66.0	3.8	1.49e+00	0	43	104	0	73	20414
2026-01-15 01:27:00.55	245.46	4.94	-50.6	-66.0	3.8	1.49e+00	0	43	104	0	73	20525

#Closed at: 2026-01-15 01:27:01
#Recorded file [0 MB]: D:/Data/31040_260115_041545.dat