passes_logs/2026/01/15/T1/T1__20260115_230633_FENGYUN_3G_rec.log

#Pass ID: 20260115_230633_FENGYUN 3G
#Satellite: FENGYUN 3G
#Configuration: FENGYUN 3G
#almurnet v.1.7.20251203
#Start time: 2026-01-15 23:06:34

#Version: 2.0.20230620
#Station: T1
#Location: 37.570604 lon 55.790049 lat
#TLE: 1 56232U 23055A   26015.17772624  .00018907  00000+0  29824-3 0  9995
#TLE: 2 56232  49.9942  55.0157 0004230  27.8148 332.3045 15.53505157156222

#Time	Az	El	Level	Level2	SNR	BER	BlckErr	Temp	State	Recorded	gain1	gain2
2026-01-15 23:06:34.23	248.21	5.05	-48.2	-67.5	3.8	8.37e-01	0	38	0	0	68	32450
2026-01-15 23:06:35.22	248.13	5.12	-48.2	-67.5	3.8	8.37e-01	0	38	104	0	68	32508
2026-01-15 23:06:36.21	248.05	5.20	-48.2	-67.6	3.8	8.47e-01	0	39	104	0	68	32622
2026-01-15 23:06:37.21	247.96	5.27	-48.2	-67.6	3.8	8.47e-01	0	39	104	0	68	32666
2026-01-15 23:06:38.20	247.88	5.35	-48.2	-67.6	3.8	8.47e-01	0	38	104	0	68	32701
2026-01-15 23:06:39.19	247.80	5.43	-48.2	-67.6	3.8	8.47e-01	0	38	104	0	68	32768
2026-01-15 23:06:40.18	247.71	5.50	-48.2	-67.6	3.8	8.46e-01	0	39	104	0	68	32706
2026-01-15 23:06:41.18	247.63	5.58	-48.2	-67.5	3.8	8.46e-01	0	39	104	0	68	32534
2026-01-15 23:06:42.17	247.54	5.66	-48.2	-67.5	3.8	8.47e-01	0	39	104	0	68	32375
2026-01-15 23:06:43.16	247.45	5.74	-48.2	-67.4	3.8	8.48e-01	0	39	104	0	68	32176
2026-01-15 23:06:44.16	247.37	5.82	-48.2	-67.3	3.8	8.48e-01	0	39	104	0	68	31796
2026-01-15 23:06:45.15	247.28	5.89	-48.2	-67.2	3.8	8.47e-01	0	39	104	0	68	31341
2026-01-15 23:06:46.14	247.19	5.97	-48.2	-67.1	3.8	8.46e-01	0	39	104	0	68	30849
2026-01-15 23:06:47.14	247.10	6.05	-48.2	-67.0	3.8	8.46e-01	0	39	104	0	68	30406
2026-01-15 23:06:48.13	247.01	6.13	-48.2	-66.9	3.8	8.47e-01	0	39	104	0	68	30191
2026-01-15 23:06:49.12	246.92	6.21	-48.2	-66.9	3.8	8.48e-01	0	39	104	0	68	30323
2026-01-15 23:06:50.12	246.83	6.29	-48.2	-67.1	3.8	8.47e-01	0	39	104	0	68	30862
2026-01-15 23:06:51.11	246.73	6.37	-48.2	-67.3	3.8	8.47e-01	0	39	104	0	68	31461
2026-01-15 23:06:52.10	246.64	6.45	-48.2	-67.3	3.8	8.47e-01	0	39	104	0	68	31805
2026-01-15 23:06:53.09	246.55	6.53	-48.2	-67.4	3.8	8.46e-01	0	39	104	0	68	31917
2026-01-15 23:06:54.09	246.45	6.62	-48.2	-67.4	3.8	8.46e-01	0	39	104	0	68	32155
2026-01-15 23:06:55.08	246.36	6.70	-48.2	-67.5	3.8	8.46e-01	0	39	104	0	68	32390
2026-01-15 23:06:56.07	246.26	6.78	-48.2	-67.5	3.8	8.48e-01	0	39	104	0	68	32530
2026-01-15 23:06:57.07	246.16	6.86	-48.2	-67.6	3.8	8.48e-01	0	39	104	0	68	32607
2026-01-15 23:06:58.06	246.07	6.94	-48.1	-67.6	3.8	8.47e-01	0	39	104	0	68	32627
2026-01-15 23:06:59.05	245.97	7.03	-48.2	-67.5	3.8	8.48e-01	0	39	104	0	68	32324
2026-01-15 23:07:00.05	245.87	7.11	-48.2	-67.3	3.8	8.48e-01	0	39	104	0	68	31758
2026-01-15 23:07:01.04	245.77	7.19	-48.2	-67.3	3.8	8.46e-01	0	39	104	0	68	31476
2026-01-15 23:07:02.03	245.67	7.28	-48.1	-67.1	3.8	8.47e-01	0	40	104	0	68	31050
2026-01-15 23:07:03.03	245.57	7.36	-48.1	-67.1	3.8	8.47e-01	0	39	104	0	68	30778
2026-01-15 23:07:04.02	245.46	7.45	-48.1	-67.0	3.8	8.47e-01	0	39	104	0	68	30586
2026-01-15 23:07:05.01	245.36	7.53	-48.1	-67.0	3.8	8.47e-01	0	39	104	0	68	30398
2026-01-15 23:07:06.01	245.25	7.62	-48.2	-66.9	3.8	8.47e-01	0	40	104	0	68	30289
2026-01-15 23:07:07.00	245.15	7.71	-48.2	-67.0	3.8	8.46e-01	0	39	104	0	68	30553
2026-01-15 23:07:07.99	245.04	7.79	-48.2	-67.0	3.8	8.47e-01	0	39	104	0	68	30584
2026-01-15 23:07:08.99	244.94	7.88	-48.1	-66.7	3.8	8.47e-01	0	40	104	0	68	29664
2026-01-15 23:07:09.98	244.83	7.97	-48.1	-66.2	3.8	8.48e-01	0	39	104	0	68	27900
2026-01-15 23:07:10.97	244.72	8.05	-48.1	-65.4	4.0	8.46e-01	0	40	104	0	68	25282
2026-01-15 23:07:11.97	244.61	8.14	-48.1	-64.9	3.9	8.46e-01	0	40	104	0	68	23937
2026-01-15 23:07:12.96	244.50	8.23	-48.1	-64.8	4.0	8.46e-01	0	40	104	0	68	23820
2026-01-15 23:07:13.95	244.39	8.32	-48.1	-65.8	3.8	8.45e-01	0	40	104	0	68	26624
2026-01-15 23:07:14.95	244.28	8.41	-48.1	-67.3	3.8	8.47e-01	0	40	104	0	68	31698
2026-01-15 23:07:15.94	244.16	8.50	-48.1	-66.9	3.8	8.47e-01	0	40	104	0	68	30319
2026-01-15 23:07:16.93	244.05	8.59	-48.0	-62.8	4.6	8.48e-01	0	40	0	0	68	18808
2026-01-15 23:07:17.93	243.93	8.68	-47.5	-58.4	7.5	6.47e-01	0	40	0	0	67	12092
2026-01-15 23:07:18.92	243.82	8.77	-47.0	-55.4	10.7	6.47e-01	0	40	0	0	66	8986
2026-01-15 23:07:19.91	243.70	8.86	-46.3	-52.8	13.4	3.59e-02	0	40	0	0	64	7470
2026-01-15 23:07:20.91	243.58	8.95	-45.6	-50.8	15.5	1.07e-04	0	40	0	0	63	6343
2026-01-15 23:07:21.90	243.46	9.04	-45.0	-49.5	16.9	1.07e-04	0	40	0	0	62	5734
2026-01-15 23:07:22.89	243.34	9.14	-44.7	-48.9	17.5	0.00e+00	0	40	0	0	61	5702
2026-01-15 23:07:23.89	243.22	9.23	-43.9	-47.4	19.1	0.00e+00	0	40	0	0	59	5353
2026-01-15 23:07:24.88	243.10	9.32	-46.2	-51.6	15.1	0.00e+00	0	40	0	0	63	6952
2026-01-15 23:07:25.88	242.97	9.42	-46.1	-51.8	14.8	0.00e+00	0	40	0	0	63	7115
2026-01-15 23:07:26.88	242.84	9.51	-42.4	-45.3	21.1	1.10e-06	0	40	0	0	56	5029
2026-01-15 23:07:27.87	242.72	9.61	-42.2	-45.0	21.4	1.10e-06	0	40	0	0	56	4869
2026-01-15 23:07:28.87	242.59	9.70	-42.1	-44.9	21.5	0.00e+00	0	40	0	0	56	4772
2026-01-15 23:07:29.86	242.46	9.80	-41.9	-44.7	21.5	0.00e+00	0	40	0	0	55	4937
2026-01-15 23:07:30.86	242.33	9.89	-41.6	-44.4	21.9	0.00e+00	0	40	0	0	55	4797
2026-01-15 23:07:31.85	242.20	9.99	-41.3	-44.0	22.3	0.00e+00	0	40	0	0	54	4865
2026-01-15 23:07:32.85	242.07	10.09	-41.3	-43.9	22.3	0.00e+00	0	40	0	0	54	4811
2026-01-15 23:07:33.85	241.94	10.18	-41.0	-43.6	22.6	0.00e+00	0	40	0	0	54	4636
2026-01-15 23:07:34.84	241.80	10.28	-41.1	-43.7	22.6	0.00e+00	0	40	0	0	53	4946
2026-01-15 23:07:35.84	241.67	10.38	-41.0	-43.5	22.8	0.00e+00	0	40	0	0	53	4850
2026-01-15 23:07:36.83	241.53	10.48	-40.8	-43.3	23.0	0.00e+00	0	40	0	0	53	4737
2026-01-15 23:07:37.83	241.39	10.58	-40.6	-43.1	23.2	0.00e+00	0	40	0	0	53	4607
2026-01-15 23:07:38.82	241.25	10.68	-40.5	-42.9	23.3	0.00e+00	0	40	0	0	53	4536
2026-01-15 23:07:39.82	241.11	10.78	-40.6	-43.0	23.2	0.00e+00	0	40	0	0	53	4580
2026-01-15 23:07:40.81	240.97	10.88	-40.4	-42.8	23.5	0.00e+00	0	40	0	0	52	4722
2026-01-15 23:07:41.81	240.82	10.98	-40.3	-42.6	23.6	0.00e+00	0	40	0	0	52	4630
2026-01-15 23:07:42.80	240.68	11.08	-40.4	-42.7	23.6	0.00e+00	0	40	0	0	52	4700
2026-01-15 23:07:43.80	240.53	11.18	-40.5	-42.9	23.4	0.00e+00	0	40	0	0	52	4779
2026-01-15 23:07:44.79	240.39	11.29	-40.4	-42.7	23.5	0.00e+00	0	40	0	0	52	4690
2026-01-15 23:07:45.79	240.24	11.39	-40.4	-42.8	23.5	0.00e+00	0	40	0	0	52	4708
2026-01-15 23:07:46.78	240.09	11.49	-40.4	-42.8	23.5	0.00e+00	0	40	0	0	52	4723
2026-01-15 23:07:47.78	239.93	11.60	-40.4	-42.7	23.5	0.00e+00	0	40	0	0	52	4676
2026-01-15 23:07:48.77	239.78	11.70	-40.4	-42.8	23.5	0.00e+00	0	40	0	0	52	4719
2026-01-15 23:07:49.77	239.63	11.81	-40.4	-42.7	23.6	0.00e+00	0	40	0	0	52	4684
2026-01-15 23:07:50.76	239.47	11.91	-40.3	-42.7	23.6	0.00e+00	0	40	0	0	52	4654
2026-01-15 23:07:51.76	239.31	12.02	-40.2	-42.5	23.8	0.00e+00	0	40	0	0	52	4588
2026-01-15 23:07:52.75	239.15	12.13	-40.2	-42.5	23.8	0.00e+00	0	40	0	0	52	4588
2026-01-15 23:07:53.75	238.99	12.23	-40.2	-42.5	23.8	0.00e+00	0	40	0	0	52	4568
2026-01-15 23:07:54.74	238.83	12.34	-40.0	-42.3	24.0	0.00e+00	0	40	0	0	52	4486
2026-01-15 23:07:55.74	238.67	12.45	-40.0	-42.3	24.0	0.00e+00	0	40	0	0	52	4471
2026-01-15 23:07:56.73	238.50	12.56	-40.1	-42.4	23.9	0.00e+00	0	40	0	0	52	4507
2026-01-15 23:07:57.72	238.34	12.67	-40.0	-42.3	24.1	0.00e+00	0	40	0	0	51	4731
2026-01-15 23:07:58.72	238.17	12.78	-40.0	-42.2	24.1	0.00e+00	0	40	0	0	51	4697
2026-01-15 23:07:59.72	237.99	12.89	-39.8	-42.0	24.4	0.00e+00	0	40	0	0	51	4562
2026-01-15 23:08:00.71	237.82	13.00	-39.8	-42.1	24.3	0.00e+00	0	40	0	0	51	4604
2026-01-15 23:08:01.71	237.65	13.11	-40.0	-42.2	24.1	0.00e+00	0	40	0	0	51	4701
2026-01-15 23:08:02.70	237.47	13.22	-40.0	-42.3	24.1	0.00e+00	0	41	0	0	51	4710
2026-01-15 23:08:03.70	237.30	13.33	-40.0	-42.3	24.1	0.00e+00	0	40	0	0	51	4734
2026-01-15 23:08:04.69	237.12	13.45	-40.0	-42.3	24.1	0.00e+00	0	40	0	0	51	4747
2026-01-15 23:08:05.69	236.94	13.56	-40.0	-42.3	24.1	0.00e+00	0	40	0	0	51	4710
2026-01-15 23:08:06.68	236.75	13.68	-39.8	-42.1	24.2	0.00e+00	0	40	0	0	51	4616
2026-01-15 23:08:07.67	236.57	13.79	-39.8	-42.0	24.3	0.00e+00	0	40	0	0	51	4593
2026-01-15 23:08:08.67	236.38	13.91	-39.5	-41.7	24.6	0.00e+00	0	40	0	0	51	4413
2026-01-15 23:08:09.82	236.16	14.04	-39.5	-41.6	24.5	0.00e+00	0	40	0	0	50	4650
2026-01-15 23:08:10.71	235.99	14.14	-39.5	-41.7	24.6	0.00e+00	0	40	0	0	50	4680
2026-01-15 23:08:11.85	235.77	14.28	-39.5	-41.7	24.6	0.00e+00	0	40	0	0	50	4662
2026-01-15 23:08:12.70	235.61	14.38	-39.5	-41.8	24.6	0.00e+00	0	41	0	0	50	4706
2026-01-15 23:08:13.83	235.38	14.51	-39.6	-41.8	24.6	0.00e+00	0	41	0	0	50	4733
2026-01-15 23:08:14.69	235.21	14.62	-39.6	-41.8	24.5	0.00e+00	0	41	0	0	50	4751
2026-01-15 23:08:15.83	234.98	14.75	-39.6	-41.8	24.6	0.00e+00	0	40	0	0	50	4747
2026-01-15 23:08:16.68	234.81	14.85	-39.7	-42.0	24.5	0.00e+00	0	40	0	0	50	4818
2026-01-15 23:08:17.82	234.58	14.99	-39.5	-41.7	24.6	0.00e+00	0	41	0	0	50	4688
2026-01-15 23:08:18.67	234.40	15.10	-39.5	-41.7	24.7	0.00e+00	0	41	0	0	50	4662
2026-01-15 23:08:19.81	234.16	15.23	-39.6	-41.9	24.6	0.00e+00	0	40	0	0	50	4770
2026-01-15 23:08:20.66	233.98	15.34	-39.5	-41.7	24.7	0.00e+00	0	40	0	0	50	4679
2026-01-15 23:08:21.80	233.73	15.48	-39.2	-41.4	25.0	0.00e+00	0	40	0	0	50	4523
2026-01-15 23:08:22.65	233.55	15.58	-39.0	-41.1	25.2	0.00e+00	0	40	0	0	50	4375
2026-01-15 23:08:23.78	233.30	15.73	-38.9	-41.1	25.3	0.00e+00	0	40	0	0	49	4603
2026-01-15 23:08:24.64	233.11	15.83	-39.0	-41.2	25.2	0.00e+00	0	41	0	0	49	4671
2026-01-15 23:08:25.99	232.81	16.00	-39.0	-41.2	25.2	0.00e+00	0	41	0	0	49	4656
2026-01-15 23:08:26.71	232.65	16.09	-39.0	-41.1	25.3	0.00e+00	0	40	0	0	49	4615
2026-01-15 23:08:28.22	232.30	16.28	-38.8	-40.9	25.5	0.00e+00	0	40	0	0	49	4510
2026-01-15 23:08:28.93	232.13	16.38	-38.7	-40.8	25.5	0.00e+00	0	41	0	0	49	4453
2026-01-15 23:08:30.27	231.82	16.55	-38.8	-40.9	25.5	0.00e+00	0	41	0	0	49	4507
2026-01-15 23:08:31.25	231.59	16.67	-38.8	-40.9	25.4	0.00e+00	0	41	0	0	49	4521
2026-01-15 23:08:32.25	231.35	16.80	-38.6	-40.7	25.6	0.00e+00	0	40	0	0	49	4415
2026-01-15 23:08:33.24	231.11	16.93	-38.4	-40.5	25.8	0.00e+00	0	41	0	0	48	4550
2026-01-15 23:08:34.24	230.86	17.06	-38.3	-40.4	25.9	0.00e+00	0	40	0	0	48	4515
2026-01-15 23:08:35.24	230.61	17.19	-38.6	-40.7	25.6	0.00e+00	0	41	0	0	48	4676
2026-01-15 23:08:36.23	230.37	17.32	-38.6	-40.7	25.6	0.00e+00	0	41	0	0	48	4665
2026-01-15 23:08:37.23	230.11	17.45	-38.6	-40.7	25.6	0.00e+00	0	40	0	0	48	4696
2026-01-15 23:08:38.22	229.86	17.58	-38.5	-40.5	25.8	0.00e+00	0	41	0	0	48	4598
2026-01-15 23:08:39.22	229.60	17.72	-38.4	-40.4	25.9	0.00e+00	0	40	0	0	48	4534
2026-01-15 23:08:40.22	229.34	17.85	-38.5	-40.6	25.8	0.00e+00	0	41	0	0	48	4616
2026-01-15 23:08:41.21	229.08	17.98	-38.5	-40.6	25.7	0.00e+00	0	41	0	0	48	4636
2026-01-15 23:08:42.21	228.81	18.12	-38.6	-40.7	25.7	0.00e+00	0	41	0	0	48	4673
2026-01-15 23:08:43.20	228.54	18.25	-38.5	-40.6	25.7	0.00e+00	0	41	0	0	48	4618
2026-01-15 23:08:44.19	228.27	18.38	-38.7	-40.8	25.5	0.00e+00	0	41	0	0	48	4734
2026-01-15 23:08:45.50	227.91	18.56	-38.5	-40.6	25.6	0.00e+00	0	41	0	0	48	4629
2026-01-15 23:08:46.22	227.71	18.66	-38.5	-40.5	25.8	0.00e+00	0	41	0	0	48	4583
2026-01-15 23:08:47.50	227.34	18.84	-38.4	-40.5	25.9	0.00e+00	0	41	0	0	48	4569
2026-01-15 23:08:48.21	227.14	18.93	-38.1	-40.2	26.1	0.00e+00	0	41	0	0	48	4400
2026-01-15 23:08:49.49	226.77	19.11	-38.0	-40.0	26.2	0.00e+00	0	41	0	0	48	4313
2026-01-15 23:08:50.23	226.55	19.21	-37.8	-39.8	26.4	0.00e+00	0	41	0	0	47	4491
2026-01-15 23:08:51.50	226.18	19.39	-38.1	-40.2	26.1	0.00e+00	0	41	0	0	47	4652
2026-01-15 23:08:52.21	225.97	19.49	-38.2	-40.2	26.0	0.00e+00	0	41	0	0	47	4692
2026-01-15 23:08:53.54	225.56	19.67	-38.2	-40.3	26.0	0.00e+00	0	41	0	0	47	4712
2026-01-15 23:08:54.25	225.35	19.77	-38.2	-40.2	26.0	0.00e+00	0	41	0	0	47	4702
2026-01-15 23:08:55.61	224.92	19.96	-38.2	-40.3	26.0	0.00e+00	0	41	0	0	47	4739
2026-01-15 23:08:56.32	224.70	20.06	-38.3	-40.4	25.9	0.00e+00	0	41	0	0	47	4798
2026-01-15 23:08:57.65	224.28	20.25	-38.2	-40.3	26.0	0.00e+00	0	41	0	0	47	4722
2026-01-15 23:08:58.36	224.05	20.35	-38.0	-40.0	26.2	0.00e+00	0	41	0	0	47	4585
2026-01-15 23:08:59.64	223.64	20.53	-37.5	-39.5	26.7	0.00e+00	0	41	0	0	47	4310
2026-01-15 23:09:00.71	223.29	20.68	-37.4	-39.4	26.9	0.00e+00	0	41	0	0	46	4494
2026-01-15 23:09:01.85	222.91	20.84	-37.4	-39.4	26.8	0.00e+00	0	41	0	0	46	4524
2026-01-15 23:09:02.70	222.62	20.96	-37.5	-39.4	26.8	0.00e+00	0	41	0	0	46	4543
2026-01-15 23:09:03.84	222.24	21.12	-37.5	-39.5	26.7	0.00e+00	0	41	0	0	46	4556
2026-01-15 23:09:04.69	221.95	21.25	-37.6	-39.6	26.7	0.00e+00	0	41	0	0	46	4604
2026-01-15 23:09:05.82	221.55	21.41	-37.8	-39.8	26.4	0.00e+00	0	41	0	0	46	4740
2026-01-15 23:09:06.68	221.25	21.53	-37.9	-39.9	26.3	0.00e+00	0	41	0	0	46	4779
2026-01-15 23:09:07.81	220.85	21.69	-37.6	-39.6	26.5	0.00e+00	0	41	0	0	46	4636
2026-01-15 23:09:08.67	220.54	21.81	-37.5	-39.5	26.7	0.00e+00	0	41	0	0	46	4571
2026-01-15 23:09:09.81	220.13	21.98	-37.4	-39.4	26.8	0.00e+00	0	41	0	0	46	4501
2026-01-15 23:09:10.66	219.82	22.10	-37.3	-39.3	26.9	0.00e+00	0	41	0	0	46	4459
2026-01-15 23:09:11.90	219.36	22.27	-37.0	-39.0	27.1	0.00e+00	0	41	0	0	46	4315
2026-01-15 23:09:12.75	219.04	22.40	-37.1	-39.1	27.0	0.00e+00	0	41	0	0	46	4382
2026-01-15 23:09:13.97	218.58	22.57	-37.3	-39.3	26.9	0.00e+00	0	41	0	0	46	4466
2026-01-15 23:09:14.82	218.25	22.69	-37.3	-39.3	26.9	0.00e+00	0	41	0	0	46	4443
2026-01-15 23:09:15.96	217.81	22.85	-37.5	-39.5	26.7	0.00e+00	0	41	0	0	46	4593
2026-01-15 23:09:16.81	217.47	22.97	-37.6	-39.6	26.7	0.00e+00	0	41	0	0	46	4604
2026-01-15 23:09:17.95	217.02	23.14	-37.5	-39.5	26.8	0.00e+00	0	41	0	0	46	4551
2026-01-15 23:09:18.80	216.68	23.26	-37.5	-39.5	26.8	0.00e+00	0	41	0	0	46	4574
2026-01-15 23:09:19.94	216.22	23.42	-37.4	-39.4	26.8	0.00e+00	0	41	0	0	46	4515
2026-01-15 23:09:20.79	215.87	23.54	-37.3	-39.3	26.9	0.00e+00	0	41	0	0	46	4445
2026-01-15 23:09:21.92	215.41	23.70	-37.2	-39.2	27.0	0.00e+00	0	41	0	0	46	4397
2026-01-15 23:09:22.78	215.05	23.82	-37.0	-39.0	27.1	0.00e+00	0	41	0	0	46	4323
2026-01-15 23:09:23.91	214.57	23.98	-37.1	-39.1	27.1	0.00e+00	0	41	0	0	46	4360
2026-01-15 23:09:24.77	214.20	24.10	-36.5	-38.5	27.1	0.00e+00	0	41	0	0	45	4322
2026-01-15 23:09:25.90	213.72	24.25	-36.9	-38.8	27.2	0.00e+00	0	41	0	0	45	4475
2026-01-15 23:09:26.75	213.35	24.37	-36.9	-38.8	27.3	0.00e+00	0	41	0	0	45	4478
2026-01-15 23:09:27.89	212.85	24.53	-37.0	-39.0	27.2	0.00e+00	0	41	0	0	45	4558
2026-01-15 23:09:28.75	212.47	24.65	-37.1	-39.1	27.1	0.00e+00	0	41	0	0	45	4638
2026-01-15 23:09:29.88	211.96	24.80	-37.1	-39.1	27.0	0.00e+00	0	41	0	0	45	4638
2026-01-15 23:09:30.74	211.57	24.92	-37.3	-39.2	27.0	0.00e+00	0	41	0	0	45	4693
2026-01-15 23:09:31.87	211.05	25.07	-37.2	-39.2	27.0	0.00e+00	0	41	0	0	45	4657
2026-01-15 23:09:32.72	210.66	25.18	-37.1	-39.1	27.0	0.00e+00	0	41	0	0	45	4599
2026-01-15 23:09:34.07	210.03	25.36	-36.9	-38.9	27.3	0.00e+00	0	41	0	0	45	4502
2026-01-15 23:09:34.78	209.69	25.46	-36.8	-38.8	27.3	0.00e+00	0	41	0	0	45	4465
2026-01-15 23:09:36.26	208.99	25.65	-36.8	-38.8	27.3	0.00e+00	0	41	0	0	45	4458
2026-01-15 23:09:37.27	208.50	25.78	-37.0	-39.0	27.2	0.00e+00	0	41	0	0	45	4552
2026-01-15 23:09:38.27	208.01	25.91	-36.9	-38.9	27.3	0.00e+00	0	41	0	0	45	4497
2026-01-15 23:09:39.26	207.53	26.03	-37.0	-38.9	27.2	0.00e+00	0	41	0	0	45	4527
2026-01-15 23:09:40.26	207.03	26.16	-37.0	-39.0	27.2	0.00e+00	0	41	0	0	45	4581
2026-01-15 23:09:41.25	206.54	26.28	-37.0	-39.0	27.2	0.00e+00	0	41	0	0	45	4550
2026-01-15 23:09:42.25	206.03	26.41	-36.8	-38.7	27.4	0.00e+00	0	41	0	0	45	4437
2026-01-15 23:09:43.24	205.53	26.53	-36.5	-38.4	27.6	0.00e+00	0	41	0	0	44	4511
2026-01-15 23:09:44.24	205.01	26.65	-36.7	-38.6	27.4	0.00e+00	0	41	0	0	44	4634
2026-01-15 23:09:45.24	204.50	26.77	-36.8	-38.8	27.4	0.00e+00	0	41	0	0	44	4708
2026-01-15 23:09:46.32	203.93	26.89	-36.7	-38.6	27.5	0.00e+00	0	41	0	0	44	4632
2026-01-15 23:09:47.19	203.47	26.99	-36.8	-38.7	27.4	0.00e+00	0	41	0	0	44	4690
2026-01-15 23:09:48.33	202.87	27.12	-36.8	-38.7	27.4	0.00e+00	0	41	0	0	44	4674
2026-01-15 23:09:49.19	202.41	27.22	-36.5	-38.5	27.6	0.00e+00	0	41	0	0	44	4560
2026-01-15 23:09:50.33	201.79	27.34	-36.3	-38.2	27.9	0.00e+00	0	41	0	0	44	4402
2026-01-15 23:09:51.18	201.33	27.43	-36.5	-38.4	27.7	0.00e+00	0	41	0	0	44	4537
2026-01-15 23:09:52.32	200.70	27.55	-36.6	-38.6	27.5	0.00e+00	0	41	0	0	44	4600
2026-01-15 23:09:53.17	200.23	27.64	-36.7	-38.6	27.6	0.00e+00	0	41	0	0	44	4631
2026-01-15 23:09:54.31	199.60	27.76	-36.6	-38.5	27.6	0.00e+00	0	41	0	0	44	4554
2026-01-15 23:09:55.16	199.12	27.84	-36.4	-38.4	27.7	0.00e+00	0	41	0	0	44	4500
2026-01-15 23:09:56.30	198.48	27.95	-36.6	-38.5	27.6	0.00e+00	0	41	0	0	44	4575
2026-01-15 23:09:57.15	198.00	28.03	-36.6	-38.6	27.6	0.00e+00	0	41	0	0	44	4615
2026-01-15 23:09:58.29	197.35	28.14	-37.0	-38.9	27.3	0.00e+00	0	41	0	0	44	4804
2026-01-15 23:09:59.14	196.86	28.21	-36.8	-38.7	27.4	0.00e+00	0	41	0	0	44	4678
2026-01-15 23:10:00.28	196.20	28.31	-36.8	-38.7	27.4	0.00e+00	0	41	0	0	44	4681
2026-01-15 23:10:01.13	195.70	28.38	-36.7	-38.6	27.5	0.00e+00	0	41	0	0	44	4616
2026-01-15 23:10:02.47	194.92	28.49	-36.5	-38.4	27.7	0.00e+00	0	41	0	0	44	4527
2026-01-15 23:10:03.18	194.50	28.55	-36.8	-38.7	27.2	0.00e+00	0	41	0	0	44	4676
2026-01-15 23:10:04.67	193.62	28.66	-36.7	-38.6	27.5	0.00e+00	0	41	0	0	44	4644
2026-01-15 23:10:05.38	193.19	28.71	-36.8	-38.7	27.4	0.00e+00	0	41	0	0	44	4676
2026-01-15 23:10:06.72	192.39	28.81	-36.6	-38.5	27.6	0.00e+00	0	41	0	0	44	4592
2026-01-15 23:10:07.43	191.96	28.86	-36.6	-38.6	27.6	0.00e+00	0	41	0	0	44	4599
2026-01-15 23:10:08.71	191.19	28.94	-36.8	-38.7	27.5	0.00e+00	0	41	0	0	44	4668
2026-01-15 23:10:09.42	190.76	28.98	-36.9	-38.8	27.3	0.00e+00	0	41	0	0	44	4748
2026-01-15 23:10:10.70	189.98	29.05	-37.1	-39.0	27.2	0.00e+00	0	41	0	0	44	4854
2026-01-15 23:10:11.41	189.54	29.09	-37.2	-39.2	27.0	0.00e+00	0	41	0	0	45	4670
2026-01-15 23:10:12.69	188.75	29.16	-37.4	-39.3	26.9	0.00e+00	0	41	0	0	45	4753
2026-01-15 23:10:13.40	188.32	29.19	-37.1	-39.1	27.1	0.00e+00	0	41	0	0	45	4611
2026-01-15 23:10:14.69	187.52	29.25	-37.1	-39.1	27.1	0.00e+00	0	41	0	0	45	4610
2026-01-15 23:10:15.41	187.07	29.28	-37.1	-39.0	27.2	0.00e+00	0	41	0	0	45	4580
2026-01-15 23:10:16.69	186.27	29.33	-36.8	-38.7	27.3	0.00e+00	0	41	0	0	45	4440
2026-01-15 23:10:17.51	185.76	29.36	-36.8	-38.8	27.4	0.00e+00	0	41	0	0	45	4442
2026-01-15 23:10:18.65	185.05	29.39	-36.6	-38.6	27.6	0.00e+00	0	41	0	0	45	4342
2026-01-15 23:10:19.66	184.41	29.42	-36.6	-38.6	27.6	0.00e+00	0	41	0	0	45	4343
2026-01-15 23:10:20.82	183.69	29.45	-36.7	-38.6	27.5	0.00e+00	0	41	0	0	45	4369
2026-01-15 23:10:21.71	183.13	29.47	-36.8	-38.7	27.4	0.00e+00	0	41	0	0	45	4439
2026-01-15 23:10:22.85	182.41	29.49	-36.8	-38.8	27.4	0.00e+00	0	41	0	0	45	4453
2026-01-15 23:10:23.70	181.87	29.50	-36.9	-38.8	27.3	0.00e+00	0	41	0	0	45	4492
2026-01-15 23:10:24.84	181.15	29.51	-36.8	-38.8	27.3	0.00e+00	0	41	0	0	45	4455
2026-01-15 23:10:25.69	180.62	29.52	-36.8	-38.8	27.4	0.00e+00	0	41	0	0	45	4442
2026-01-15 23:10:26.83	179.89	29.52	-36.6	-38.5	27.6	0.00e+00	0	41	0	0	45	4316
2026-01-15 23:10:27.68	179.36	29.52	-36.7	-38.7	27.5	0.00e+00	0	41	0	0	45	4401
2026-01-15 23:10:28.82	178.64	29.52	-36.9	-38.9	27.3	0.00e+00	0	41	0	0	45	4522
2026-01-15 23:10:29.67	178.10	29.51	-37.1	-39.0	27.1	0.00e+00	0	41	0	0	45	4582
2026-01-15 23:10:30.81	177.38	29.50	-37.0	-39.0	27.2	0.00e+00	0	41	0	0	45	4568
2026-01-15 23:10:31.66	176.85	29.49	-36.8	-38.7	27.4	0.00e+00	0	41	0	0	45	4420
2026-01-15 23:10:32.80	176.13	29.47	-36.8	-38.7	27.4	0.00e+00	0	41	0	0	45	4420
2026-01-15 23:10:33.65	175.59	29.45	-36.9	-38.8	27.4	0.00e+00	0	41	0	0	45	4460
2026-01-15 23:10:34.79	174.88	29.42	-37.1	-39.0	27.1	0.00e+00	0	41	0	0	45	4594
2026-01-15 23:10:35.64	174.34	29.40	-37.1	-39.1	27.1	0.00e+00	0	41	0	0	45	4613
2026-01-15 23:10:36.98	173.51	29.35	-37.0	-39.0	27.2	0.00e+00	0	41	0	0	45	4572
2026-01-15 23:10:37.70	173.06	29.33	-37.0	-39.0	27.2	0.00e+00	0	41	0	0	45	4548
2026-01-15 23:10:38.98	172.26	29.28	-36.8	-38.8	27.4	0.00e+00	0	41	0	0	45	4459
2026-01-15 23:10:39.68	171.83	29.25	-36.8	-38.8	26.0	0.00e+00	0	41	0	0	45	4446
2026-01-15 23:10:40.97	171.03	29.19	-36.5	-38.4	27.6	0.00e+00	0	41	0	0	45	4275
2026-01-15 23:10:41.69	170.58	29.16	-36.6	-38.6	27.5	0.00e+00	0	41	0	0	45	4344
2026-01-15 23:10:42.97	169.80	29.09	-36.8	-38.8	27.3	0.00e+00	0	41	0	0	44	4725
2026-01-15 23:10:43.68	169.36	29.05	-36.9	-38.9	27.3	0.00e+00	0	41	0	0	44	4760
2026-01-15 23:10:44.96	168.58	28.98	-37.3	-39.3	26.9	0.00e+00	0	41	0	0	45	4708
2026-01-15 23:10:45.67	168.15	28.93	-37.3	-39.3	26.9	0.00e+00	0	41	0	0	45	4722
2026-01-15 23:10:47.03	167.33	28.85	-37.4	-39.4	26.9	0.00e+00	0	41	0	0	45	4768
2026-01-15 23:10:47.74	166.90	28.80	-37.1	-39.1	27.1	0.00e+00	0	41	0	0	45	4611
2026-01-15 23:10:49.02	166.13	28.71	-36.6	-38.5	27.6	0.00e+00	0	41	0	0	45	4311
2026-01-15 23:10:49.74	165.71	28.66	-36.5	-38.4	27.7	0.00e+00	0	41	0	0	44	4509
2026-01-15 23:10:51.13	164.88	28.55	-36.6	-38.5	27.5	0.00e+00	0	41	0	0	44	4573
2026-01-15 23:10:51.84	164.46	28.50	-36.7	-38.7	27.5	0.00e+00	0	41	0	0	44	4664
2026-01-15 23:10:53.17	163.69	28.39	-36.9	-38.8	27.3	0.00e+00	0	41	0	0	44	4747
2026-01-15 23:10:53.88	163.27	28.33	-36.8	-38.7	27.4	0.00e+00	0	41	0	0	44	4698
2026-01-15 23:10:55.24	162.49	28.21	-36.6	-38.5	27.6	0.00e+00	0	41	0	0	44	4598
2026-01-15 23:10:55.95	162.08	28.15	-36.4	-38.4	27.6	0.00e+00	0	41	0	0	44	4512
2026-01-15 23:10:57.23	161.35	28.03	-36.4	-38.3	27.7	0.00e+00	0	41	0	0	44	4480
2026-01-15 23:10:57.96	160.93	27.96	-36.4	-38.3	27.7	0.00e+00	0	41	0	0	44	4489
2026-01-15 23:10:59.24	160.21	27.83	-36.1	-38.0	28.0	0.00e+00	0	41	0	0	44	4331
2026-01-15 23:10:59.95	159.81	27.76	-36.1	-38.0	28.0	0.00e+00	0	41	0	0	44	4332
2026-01-15 23:11:01.23	159.10	27.63	-36.5	-38.5	27.6	0.00e+00	0	41	0	0	44	4565
2026-01-15 23:11:01.94	158.71	27.56	-36.7	-38.6	27.5	0.00e+00	0	41	0	0	44	4639
2026-01-15 23:11:03.22	158.01	27.43	-37.0	-39.0	27.3	0.00e+00	0	41	0	0	44	4817
2026-01-15 23:11:03.93	157.62	27.35	-37.1	-39.0	27.1	0.00e+00	0	41	0	0	44	4870
2026-01-15 23:11:05.21	156.93	27.21	-36.6	-38.5	27.6	0.00e+00	0	41	0	0	44	4588
2026-01-15 23:11:05.95	156.54	27.13	-36.3	-38.3	27.8	0.00e+00	0	41	0	0	44	4446
2026-01-15 23:11:07.23	155.86	26.98	-36.1	-38.0	27.9	0.00e+00	0	41	0	0	44	4336
2026-01-15 23:11:07.94	155.48	26.90	-36.1	-38.1	27.9	0.00e+00	0	41	0	0	44	4346
2026-01-15 23:11:09.22	154.82	26.75	-36.2	-38.2	27.9	0.00e+00	0	41	0	0	44	4403
2026-01-15 23:11:09.94	154.44	26.67	-36.4	-38.4	27.7	0.00e+00	0	41	0	0	44	4508
2026-01-15 23:11:11.22	153.79	26.51	-36.6	-38.6	27.5	0.00e+00	0	41	0	0	44	4631
2026-01-15 23:11:12.27	153.25	26.39	-37.1	-39.1	27.1	0.00e+00	0	41	0	0	44	4899
2026-01-15 23:11:13.20	152.78	26.27	-37.2	-39.2	26.8	0.00e+00	0	41	0	0	45	4671
2026-01-15 23:11:14.19	152.29	26.15	-37.1	-39.2	27.0	0.00e+00	0	41	0	0	45	4656
2026-01-15 23:11:15.19	151.80	26.02	-36.9	-38.9	27.2	0.00e+00	0	41	0	0	45	4521
2026-01-15 23:11:16.18	151.31	25.90	-37.0	-39.0	27.2	0.00e+00	0	41	0	0	45	4549
2026-01-15 23:11:17.18	150.82	25.77	-36.6	-38.6	27.5	0.00e+00	0	41	0	0	45	4369
2026-01-15 23:11:18.18	150.34	25.64	-36.6	-38.6	27.5	0.00e+00	0	41	0	0	45	4355
2026-01-15 23:11:19.25	149.83	25.50	-36.7	-38.7	27.4	0.00e+00	0	41	0	0	45	4401
2026-01-15 23:11:20.10	149.43	25.39	-36.9	-38.9	27.2	0.00e+00	0	41	0	0	45	4525
2026-01-15 23:11:21.24	148.90	25.24	-36.9	-38.9	27.2	0.00e+00	0	41	0	0	45	4542
2026-01-15 23:11:22.20	148.45	25.11	-37.0	-39.0	27.1	0.00e+00	0	41	0	0	45	4548
2026-01-15 23:11:23.37	147.92	24.95	-36.8	-38.8	27.3	0.00e+00	0	41	0	0	45	4467
2026-01-15 23:11:24.22	147.53	24.84	-36.7	-38.7	27.4	0.00e+00	0	41	0	0	45	4412
2026-01-15 23:11:25.36	147.02	24.68	-36.7	-38.7	27.4	0.00e+00	0	41	0	0	45	4402
2026-01-15 23:11:26.21	146.64	24.56	-36.8	-38.8	27.4	0.00e+00	0	41	0	0	45	4447
2026-01-15 23:11:27.35	146.14	24.41	-36.9	-38.8	27.3	0.00e+00	0	41	0	0	45	4492
2026-01-15 23:11:28.21	145.77	24.29	-37.2	-39.2	27.0	0.00e+00	0	41	0	0	45	4680
2026-01-15 23:11:29.34	145.28	24.13	-37.4	-39.4	26.8	0.00e+00	0	41	0	0	45	4771
2026-01-15 23:11:30.20	144.91	24.01	-37.5	-39.5	26.8	0.00e+00	0	41	0	0	45	4826
2026-01-15 23:11:31.34	144.43	23.85	-37.2	-39.2	27.0	0.00e+00	0	41	0	0	45	4679
2026-01-15 23:11:32.19	144.08	23.73	-37.2	-39.2	27.0	0.00e+00	0	41	0	0	45	4686
2026-01-15 23:11:33.33	143.60	23.57	-37.2	-39.2	27.0	0.00e+00	0	41	0	0	45	4667
2026-01-15 23:11:34.18	143.26	23.45	-37.3	-39.3	26.9	0.00e+00	0	41	0	0	45	4711
2026-01-15 23:11:35.32	142.79	23.29	-37.5	-39.5	26.7	0.00e+00	0	41	0	0	45	4870
2026-01-15 23:11:36.17	142.45	23.17	-37.4	-39.4	26.7	0.00e+00	0	41	0	0	45	4812
2026-01-15 23:11:37.40	141.97	23.00	-37.4	-39.4	26.7	0.00e+00	0	41	0	0	45	4779
2026-01-15 23:11:38.25	141.63	22.88	-37.2	-39.2	26.9	0.00e+00	0	41	0	0	45	4702
2026-01-15 23:11:39.47	141.16	22.70	-37.3	-39.4	26.8	0.00e+00	0	41	0	0	45	4773
2026-01-15 23:11:40.32	140.83	22.58	-37.3	-39.3	26.9	0.00e+00	0	41	0	0	45	4727
2026-01-15 23:11:41.52	140.38	22.41	-37.3	-39.3	26.8	0.00e+00	0	41	0	0	45	4753
2026-01-15 23:11:42.38	140.06	22.29	-37.5	-39.5	26.7	0.00e+00	0	41	0	0	45	4870
2026-01-15 23:11:43.58	139.61	22.12	-37.4	-39.4	26.7	0.00e+00	0	41	0	0	45	4810
2026-01-15 23:11:44.43	139.30	22.00	-37.4	-39.5	26.7	0.00e+00	0	41	0	0	45	4820
2026-01-15 23:11:45.57	138.89	21.83	-37.7	-39.7	26.5	0.00e+00	0	41	0	0	46	4699
2026-01-15 23:11:46.42	138.58	21.71	-37.8	-39.8	26.4	0.00e+00	0	41	0	0	46	4759
2026-01-15 23:11:47.56	138.18	21.55	-37.8	-39.9	26.4	0.00e+00	0	41	0	0	46	4781
2026-01-15 23:11:48.41	137.88	21.43	-37.9	-39.9	26.3	0.00e+00	0	41	0	0	46	4809
2026-01-15 23:11:49.55	137.49	21.27	-37.8	-39.8	26.4	0.00e+00	0	41	0	0	46	4745
2026-01-15 23:11:50.40	137.19	21.15	-37.7	-39.7	26.5	0.00e+00	0	41	0	0	46	4663
2026-01-15 23:11:51.54	136.81	20.98	-37.8	-39.8	26.4	0.00e+00	0	41	0	0	46	4739
2026-01-15 23:11:52.39	136.52	20.86	-37.8	-39.8	26.4	0.00e+00	0	41	0	0	46	4757
2026-01-15 23:11:53.53	136.14	20.70	-38.0	-40.0	26.3	0.00e+00	0	41	0	0	46	4849
2026-01-15 23:11:54.38	135.86	20.58	-38.0	-40.1	26.1	0.00e+00	0	41	0	0	46	4888
2026-01-15 23:11:55.51	135.50	20.42	-37.7	-39.8	26.4	0.00e+00	0	41	0	0	46	4725
2026-01-15 23:11:56.37	135.22	20.30	-37.8	-39.9	26.3	0.00e+00	0	41	0	0	46	4775
2026-01-15 23:11:57.50	134.86	20.14	-37.9	-40.0	26.2	0.00e+00	0	41	0	0	46	4829
2026-01-15 23:11:58.36	134.59	20.02	-38.1	-40.2	26.1	0.00e+00	0	41	0	0	46	4952
2026-01-15 23:11:59.50	134.24	19.86	-38.1	-40.2	26.1	0.00e+00	0	41	0	0	46	4931
2026-01-15 23:12:00.35	133.98	19.74	-38.2	-40.3	26.0	0.00e+00	0	41	0	0	46	4991
2026-01-15 23:12:01.61	133.59	19.57	-38.2	-40.3	25.9	0.00e+00	0	41	0	0	47	4735
2026-01-15 23:12:02.40	133.36	19.46	-38.2	-40.2	26.0	0.00e+00	0	41	0	0	47	4699
2026-01-15 23:12:03.66	132.98	19.29	-38.1	-40.2	26.0	0.00e+00	0	41	0	0	47	4670
2026-01-15 23:12:04.45	132.75	19.18	-38.1	-40.1	26.1	0.00e+00	0	41	0	0	47	4645
2026-01-15 23:12:05.63	132.41	19.01	-38.3	-40.4	25.9	0.00e+00	0	41	0	0	47	4781
2026-01-15 23:12:06.48	132.16	18.90	-38.4	-40.5	25.8	0.00e+00	0	41	0	0	47	4834
2026-01-15 23:12:07.62	131.84	18.74	-38.5	-40.6	25.7	0.00e+00	0	41	0	0	47	4882
2026-01-15 23:12:08.58	131.57	18.61	-38.6	-40.7	25.6	0.00e+00	0	41	0	0	47	4957
2026-01-15 23:12:09.75	131.24	18.45	-38.2	-40.3	25.9	0.00e+00	0	41	0	0	47	4707
2026-01-15 23:12:10.63	131.00	18.33	-38.3	-40.4	25.8	0.00e+00	0	41	0	0	47	4811
2026-01-15 23:12:11.77	130.69	18.18	-38.4	-40.5	25.2	0.00e+00	0	41	0	0	47	4861
2026-01-15 23:12:12.69	130.45	18.06	-38.5	-40.6	25.7	0.00e+00	0	41	0	0	47	4899
2026-01-15 23:12:13.87	130.13	17.90	-38.5	-40.7	25.6	0.00e+00	0	41	0	0	47	4929
2026-01-15 23:12:14.74	129.91	17.78	-38.5	-40.6	25.6	0.00e+00	0	41	0	0	47	4920
2026-01-15 23:12:15.88	129.61	17.63	-38.5	-40.6	25.6	0.00e+00	0	41	0	0	47	4925
2026-01-15 23:12:16.79	129.38	17.51	-38.6	-40.7	25.6	0.00e+00	0	41	0	0	47	4950
2026-01-15 23:12:17.96	129.08	17.36	-38.7	-40.8	25.5	0.00e+00	0	41	0	0	47	5009
2026-01-15 23:12:18.82	128.86	17.24	-38.8	-40.9	25.5	0.00e+00	0	41	0	0	48	4794
2026-01-15 23:12:19.95	128.58	17.10	-38.8	-40.9	25.4	0.00e+00	0	41	0	0	48	4811
2026-01-15 23:12:20.81	128.37	16.98	-38.8	-41.0	25.4	0.00e+00	0	41	0	0	48	4820
2026-01-15 23:12:21.94	128.10	16.84	-38.8	-40.9	25.4	0.00e+00	0	41	0	0	48	4789
2026-01-15 23:12:22.80	127.89	16.73	-38.8	-40.9	25.4	0.00e+00	0	41	0	0	48	4784
2026-01-15 23:12:23.93	127.62	16.58	-39.0	-41.1	25.2	0.00e+00	0	41	0	0	48	4889
2026-01-15 23:12:24.78	127.42	16.47	-38.8	-40.9	25.4	0.00e+00	0	41	0	0	48	4796
2026-01-15 23:12:25.92	127.16	16.33	-38.9	-41.0	25.3	0.00e+00	0	41	0	0	48	4844
2026-01-15 23:12:26.77	126.96	16.22	-39.0	-41.1	25.2	0.00e+00	0	41	0	0	48	4905
2026-01-15 23:12:27.90	126.70	16.08	-39.0	-41.2	25.1	0.00e+00	0	41	0	0	48	4931
2026-01-15 23:12:28.76	126.51	15.97	-39.1	-41.2	25.1	0.00e+00	0	41	0	0	48	4968
2026-01-15 23:12:29.89	126.26	15.83	-39.2	-41.4	25.0	0.00e+00	0	41	0	0	49	4785
2026-01-15 23:12:30.75	126.07	15.72	-39.4	-41.6	24.8	0.00e+00	0	41	0	0	49	4881
2026-01-15 23:12:32.09	125.78	15.55	-39.7	-42.0	24.4	0.00e+00	0	41	0	0	50	4828
2026-01-15 23:12:32.80	125.62	15.47	-39.7	-42.0	24.4	0.00e+00	0	41	0	0	50	4823
2026-01-15 23:12:34.08	125.35	15.31	-39.9	-42.1	24.3	0.00e+00	0	41	0	0	50	4901
2026-01-15 23:12:34.81	125.20	15.22	-39.8	-42.0	24.3	0.00e+00	0	41	0	0	50	4862
2026-01-15 23:12:36.09	124.93	15.06	-39.6	-41.9	24.5	0.00e+00	0	41	0	0	50	4765
2026-01-15 23:12:36.80	124.78	14.98	-39.6	-41.8	24.6	0.00e+00	0	41	0	0	50	4719
2026-01-15 23:12:38.08	124.52	14.82	-39.6	-41.8	24.6	0.00e+00	0	41	0	0	50	4724
2026-01-15 23:12:38.79	124.37	14.74	-39.6	-41.8	24.6	0.00e+00	0	41	0	0	50	4717
2026-01-15 23:12:40.07	124.12	14.58	-39.9	-42.1	24.3	0.00e+00	0	41	0	0	50	4914
2026-01-15 23:12:40.78	123.98	14.50	-40.0	-42.3	24.1	0.00e+00	0	41	0	0	50	4996
2026-01-15 23:12:42.09	123.72	14.35	-40.1	-42.4	24.0	0.00e+00	0	41	0	0	50	5054
2026-01-15 23:12:42.80	123.58	14.26	-40.1	-42.4	24.0	0.00e+00	0	41	0	0	50	5042
2026-01-15 23:12:44.15	123.32	14.10	-40.2	-42.5	23.9	0.00e+00	0	41	0	0	50	5113
2026-01-15 23:12:45.14	123.13	13.99	-40.2	-42.4	24.0	0.00e+00	0	41	0	0	51	4811
2026-01-15 23:12:46.45	122.89	13.84	-40.0	-42.2	24.1	0.00e+00	0	41	0	0	51	4704
2026-01-15 23:12:47.19	122.75	13.75	-39.9	-42.1	24.2	0.00e+00	0	41	0	0	51	4651
2026-01-15 23:12:48.47	122.51	13.60	-40.1	-42.3	24.0	0.00e+00	0	41	0	0	51	4759
2026-01-15 23:12:49.18	122.38	13.52	-40.1	-42.4	24.0	0.00e+00	0	41	0	0	51	4787
2026-01-15 23:12:50.46	122.15	13.38	-40.2	-42.5	23.9	0.00e+00	0	41	0	0	51	4852
2026-01-15 23:12:51.20	122.02	13.29	-40.3	-42.6	23.8	0.00e+00	0	41	0	0	51	4907
2026-01-15 23:12:52.48	121.80	13.15	-40.4	-42.7	23.7	0.00e+00	0	41	0	0	51	4963
2026-01-15 23:12:53.21	121.67	13.07	-40.4	-42.7	23.6	0.00e+00	0	41	0	0	51	4981
2026-01-15 23:12:54.48	121.45	12.93	-40.4	-42.8	23.6	0.00e+00	0	41	0	0	51	4998
2026-01-15 23:12:55.19	121.33	12.85	-40.4	-42.7	23.7	0.00e+00	0	41	0	0	51	4966
2026-01-15 23:12:56.47	121.11	12.71	-40.4	-42.7	23.7	0.00e+00	0	41	0	0	51	4979
2026-01-15 23:12:57.20	120.99	12.63	-40.4	-42.8	23.6	0.00e+00	0	41	0	0	51	4993
2026-01-15 23:12:58.52	120.77	12.48	-40.6	-43.0	23.4	0.00e+00	0	41	0	0	51	5109
2026-01-15 23:12:59.24	120.65	12.40	-40.7	-43.1	23.3	0.00e+00	0	41	0	0	51	5176
2026-01-15 23:13:00.58	120.43	12.26	-40.6	-43.0	23.3	0.00e+00	0	41	0	0	52	4861
2026-01-15 23:13:01.29	120.31	12.18	-40.7	-43.1	23.2	0.00e+00	0	41	0	0	52	4888
2026-01-15 23:13:02.63	120.10	12.04	-40.8	-43.2	23.1	0.00e+00	0	41	0	0	52	4940
2026-01-15 23:13:03.34	119.99	11.96	-40.7	-43.1	23.2	0.00e+00	0	41	0	0	52	4898
2026-01-15 23:13:04.68	119.78	11.82	-40.7	-43.1	23.1	0.00e+00	0	41	0	0	52	4918
2026-01-15 23:13:05.64	119.63	11.72	-40.8	-43.3	23.0	0.00e+00	0	41	0	0	52	4990
2026-01-15 23:13:06.96	119.42	11.58	-40.9	-43.4	22.9	0.00e+00	0	41	0	0	52	5077
2026-01-15 23:13:07.67	119.32	11.51	-41.0	-43.5	22.8	0.00e+00	0	41	0	0	52	5119
2026-01-15 23:13:08.94	119.13	11.37	-41.2	-43.7	22.5	0.00e+00	0	41	0	0	53	4961
2026-01-15 23:13:09.65	119.02	11.30	-41.2	-43.7	22.6	0.00e+00	0	41	0	0	53	4973
2026-01-15 23:13:10.94	118.83	11.17	-41.4	-44.0	22.3	0.00e+00	0	41	0	0	53	5120
2026-01-15 23:13:11.65	118.73	11.10	-41.3	-43.8	22.4	0.00e+00	0	41	0	0	53	5023
2026-01-15 23:13:12.93	118.54	10.96	-41.0	-43.5	22.7	0.00e+00	0	41	0	0	53	4846
2026-01-15 23:13:13.64	118.44	10.89	-41.0	-43.4	22.8	0.00e+00	0	41	0	0	53	4797
2026-01-15 23:13:14.92	118.26	10.76	-41.0	-43.5	22.8	0.00e+00	0	41	0	0	53	4822
2026-01-15 23:13:15.63	118.16	10.69	-41.0	-43.6	22.7	0.00e+00	0	41	0	0	53	4873
2026-01-15 23:13:16.91	117.98	10.56	-41.0	-43.5	22.7	0.00e+00	0	41	0	0	53	4827
2026-01-15 23:13:17.65	117.87	10.49	-41.0	-43.5	22.7	0.00e+00	0	41	0	0	53	4851
2026-01-15 23:13:18.93	117.70	10.36	-41.2	-43.7	22.5	0.00e+00	0	41	0	0	53	4969
2026-01-15 23:13:19.65	117.60	10.29	-41.3	-43.9	22.3	0.00e+00	0	41	0	0	53	5068
2026-01-15 23:13:20.93	117.43	10.17	-41.5	-44.1	22.1	0.00e+00	0	41	0	0	53	5186
2026-01-15 23:13:21.64	117.33	10.10	-41.6	-44.3	22.0	0.00e+00	0	41	0	0	53	5294
2026-01-15 23:13:23.26	117.12	9.94	-41.8	-44.5	21.7	0.00e+00	0	41	0	0	54	5146
2026-01-15 23:13:23.83	117.05	9.89	-41.9	-44.6	21.7	0.00e+00	0	42	0	0	54	5175
2026-01-15 23:13:25.54	116.82	9.72	-41.9	-44.6	21.6	0.00e+00	0	41	0	0	54	5210
2026-01-15 23:13:26.10	116.75	9.67	-41.9	-44.6	21.6	0.00e+00	0	41	0	0	54	5194
2026-01-15 23:13:27.81	116.54	9.51	-41.9	-44.6	21.6	0.00e+00	0	41	0	0	54	5167
2026-01-15 23:13:28.38	116.46	9.45	-41.9	-44.7	21.6	0.00e+00	0	41	0	0	54	5232
2026-01-15 23:13:30.08	116.25	9.29	-41.9	-44.6	21.6	0.00e+00	0	41	0	0	54	5173
2026-01-15 23:13:30.84	116.16	9.22	-41.9	-44.6	21.6	0.00e+00	0	41	0	0	54	5192
2026-01-15 23:13:32.12	116.00	9.10	-41.9	-44.7	21.5	0.00e+00	0	41	0	0	54	5243
2026-01-15 23:13:32.85	115.92	9.03	-41.9	-44.6	21.6	0.00e+00	0	41	0	0	54	5187
2026-01-15 23:13:34.12	115.76	8.92	-48.4	-60.8	4.6	0.00e+00	0	41	0	0	67	15849
2026-01-15 23:13:34.83	115.68	8.85	-48.8	-67.5	3.8	0.00e+00	0	41	104	0	68	32429
2026-01-15 23:13:36.11	115.53	8.73	-49.2	-67.8	3.8	6.82e-01	0	41	104	0	68	33598
2026-01-15 23:13:36.82	115.45	8.67	-49.2	-68.0	3.8	8.46e-01	0	41	104	0	69	32244
2026-01-15 23:13:38.10	115.30	8.55	-49.2	-68.1	3.8	8.46e-01	0	41	104	0	69	32584
2026-01-15 23:13:38.81	115.22	8.49	-49.3	-68.1	3.8	8.46e-01	0	41	104	0	69	32792
2026-01-15 23:13:40.08	115.07	8.38	-49.4	-68.2	3.8	8.47e-01	0	41	104	0	69	32967
2026-01-15 23:13:40.79	114.99	8.31	-49.3	-68.2	3.8	8.47e-01	0	41	104	0	69	33017
2026-01-15 23:13:42.07	114.85	8.20	-49.3	-68.2	3.8	8.45e-01	0	41	104	0	69	33204
2026-01-15 23:13:42.78	114.77	8.13	-49.3	-68.2	3.8	8.47e-01	0	41	104	0	69	33192
2026-01-15 23:13:44.06	114.63	8.02	-49.0	-68.2	3.8	8.48e-01	0	41	104	0	69	33237
2026-01-15 23:13:44.77	114.55	7.96	-49.1	-68.3	3.8	8.48e-01	0	41	104	0	69	33358
2026-01-15 23:13:46.04	114.42	7.85	-49.2	-68.3	3.8	8.46e-01	0	41	104	0	69	33508
2026-01-15 23:13:46.75	114.34	7.79	-49.2	-68.3	3.8	8.46e-01	0	41	104	0	69	33581
2026-01-15 23:13:48.03	114.20	7.68	-49.2	-68.3	3.8	8.47e-01	0	41	104	0	69	33579
2026-01-15 23:13:48.74	114.13	7.61	-49.2	-68.3	3.8	8.47e-01	0	41	104	0	69	33653
2026-01-15 23:13:50.02	114.00	7.50	-49.2	-68.4	3.8	8.47e-01	0	41	104	0	69	33712
2026-01-15 23:13:50.74	113.92	7.44	-49.1	-68.3	3.8	8.47e-01	0	41	104	0	69	33685
2026-01-15 23:13:52.02	113.79	7.33	-49.1	-68.4	3.8	8.47e-01	0	41	104	0	69	33738
2026-01-15 23:13:52.73	113.72	7.27	-49.1	-68.4	3.8	8.47e-01	0	41	104	0	69	33748
2026-01-15 23:13:54.01	113.59	7.17	-49.3	-68.4	3.8	8.47e-01	0	41	104	0	69	33720
2026-01-15 23:13:54.73	113.52	7.10	-49.2	-68.3	3.8	8.47e-01	0	41	104	0	69	33670
2026-01-15 23:13:56.01	113.39	7.00	-49.2	-68.3	3.8	8.46e-01	0	42	104	0	69	33497
2026-01-15 23:13:56.72	113.32	6.94	-49.2	-68.3	3.8	8.46e-01	0	41	104	0	69	33402
2026-01-15 23:13:57.99	113.19	6.83	-49.2	-68.3	3.8	8.46e-01	0	41	104	0	69	33399
2026-01-15 23:13:58.70	113.13	6.77	-49.2	-68.3	3.8	8.46e-01	0	41	104	0	69	33441
2026-01-15 23:13:59.98	113.00	6.67	-49.2	-68.3	3.8	8.47e-01	0	41	104	0	69	33502
2026-01-15 23:14:00.69	112.93	6.61	-49.2	-68.3	3.8	8.47e-01	0	42	104	0	69	33425
2026-01-15 23:14:01.97	112.81	6.51	-49.2	-68.3	3.8	8.47e-01	0	41	104	0	69	33350
2026-01-15 23:14:02.68	112.75	6.45	-49.2	-68.3	3.8	8.47e-01	0	41	104	0	69	33336
2026-01-15 23:14:03.97	112.63	6.34	-49.2	-68.3	3.8	8.46e-01	0	41	104	0	69	33339
2026-01-15 23:14:04.68	112.56	6.29	-49.2	-68.3	3.8	8.46e-01	0	41	104	0	69	33396
2026-01-15 23:14:05.96	112.44	6.18	-49.2	-68.3	3.8	8.46e-01	0	41	104	0	69	33343
2026-01-15 23:14:06.68	112.38	6.13	-49.2	-68.3	3.8	8.46e-01	0	41	104	0	69	33439
2026-01-15 23:14:07.96	112.26	6.02	-49.2	-68.3	3.8	8.46e-01	0	41	104	0	69	33347
2026-01-15 23:14:08.67	112.20	5.97	-49.2	-68.3	3.8	8.46e-01	0	41	104	0	69	33368
2026-01-15 23:14:09.94	112.08	5.87	-49.2	-68.3	3.8	8.48e-01	0	41	104	0	69	33359
2026-01-15 23:14:10.65	112.02	5.81	-49.2	-68.3	3.8	8.47e-01	0	41	104	0	69	33312
2026-01-15 23:14:11.93	111.91	5.71	-49.2	-68.3	3.8	8.46e-01	0	41	104	0	69	33330
2026-01-15 23:14:12.64	111.85	5.65	-49.2	-68.3	3.8	8.46e-01	0	41	104	0	69	33370
2026-01-15 23:14:13.92	111.74	5.55	-49.2	-68.2	3.8	8.46e-01	0	41	104	0	69	33277
2026-01-15 23:14:14.63	111.68	5.50	-49.2	-68.3	3.8	8.47e-01	0	42	104	0	69	33357
2026-01-15 23:14:15.90	111.57	5.40	-49.2	-68.3	3.8	8.47e-01	0	41	104	0	69	33396
2026-01-15 23:14:16.61	111.51	5.35	-49.2	-68.2	3.8	8.47e-01	0	41	104	0	69	33269
2026-01-15 23:14:17.89	111.40	5.25	-49.2	-68.2	3.8	8.47e-01	0	41	104	0	69	33234
2026-01-15 23:14:18.60	111.34	5.19	-49.2	-68.2	3.8	8.47e-01	0	41	104	0	69	33170
2026-01-15 23:14:19.88	111.24	5.10	-49.2	-68.2	3.8	8.46e-01	0	42	104	0	69	33248
2026-01-15 23:14:20.62	111.18	5.04	-49.2	-68.2	3.8	8.46e-01	0	41	104	0	69	33258
2026-01-15 23:14:21.89	111.07	4.94	-49.2	-68.2	3.8	8.48e-01	0	41	104	0	69	33232

#Closed at: 2026-01-15 23:14:22
#Recorded file [0 MB]: D:/Data/31040_260116_020634.dat