passes_logs/2026/01/15/T1/T1__20260115_080805_NOAA_20_JPSS-1_rec.log

#Pass ID: 20260115_080805_NOAA 20 (JPSS-1)
#Satellite: NOAA 20 (JPSS-1)
#Configuration: NOAA 20
#almurnet v.1.7.20251203
#Start time: 2026-01-15 08:08:06

#Version: 2.0.20230620
#Station: T1
#Location: 37.570604 lon 55.790049 lat
#TLE: 1 43013U 17073A   26014.55467351  .00000038  00000+0  38801-4 0  9992
#TLE: 2 43013  98.7635 315.4987 0001517  39.9279 320.2008 14.19535859422677

#Time	Az	El	Level	Level2	SNR	BER	BlckErr	Temp	State	Recorded	gain1	gain2
2026-01-15 08:08:06.01	103.04	5.03	-50.2	-65.5	3.8	1.49e+00	0	36	0	0	72	20424
2026-01-15 08:08:07.00	102.95	5.09	-50.2	-65.5	3.8	1.49e+00	0	36	104	0	72	20327
2026-01-15 08:08:08.00	102.86	5.14	-50.3	-65.5	3.8	1.49e+00	0	36	104	0	72	20372
2026-01-15 08:08:09.00	102.77	5.20	-50.3	-65.5	3.8	1.49e+00	0	36	104	0	72	20308
2026-01-15 08:08:09.99	102.68	5.26	-50.2	-65.5	3.8	1.49e+00	0	36	104	0	72	20383
2026-01-15 08:08:10.99	102.59	5.32	-50.3	-65.5	3.8	1.49e+00	0	36	104	0	72	20350
2026-01-15 08:08:11.99	102.50	5.38	-50.3	-65.5	3.8	1.49e+00	0	36	104	0	72	20317
2026-01-15 08:08:12.99	102.41	5.44	-50.2	-65.5	3.8	1.49e+00	0	36	104	0	72	20385
2026-01-15 08:08:13.98	102.32	5.49	-50.3	-65.5	3.8	1.49e+00	0	36	104	0	72	20390
2026-01-15 08:08:14.98	102.23	5.55	-50.2	-65.5	3.8	1.49e+00	0	36	104	0	72	20358
2026-01-15 08:08:15.98	102.13	5.61	-50.2	-65.5	3.8	1.49e+00	0	36	104	0	72	20376
2026-01-15 08:08:16.98	102.04	5.67	-50.3	-65.5	3.8	1.49e+00	0	36	104	0	72	20350
2026-01-15 08:08:17.97	101.95	5.73	-50.2	-65.5	3.8	1.49e+00	0	36	104	0	72	20414
2026-01-15 08:08:18.96	101.86	5.79	-50.2	-65.5	3.8	1.49e+00	0	37	104	0	72	20464
2026-01-15 08:08:19.96	101.76	5.85	-50.3	-65.5	3.8	1.49e+00	0	37	104	0	72	20373
2026-01-15 08:08:20.96	101.67	5.90	-50.2	-65.4	3.8	1.49e+00	0	36	104	0	72	20285
2026-01-15 08:08:21.96	101.57	5.96	-50.2	-65.5	3.8	1.49e+00	0	37	104	0	72	20330
2026-01-15 08:08:22.96	101.48	6.02	-50.2	-65.4	3.8	1.49e+00	0	37	104	0	72	20271
2026-01-15 08:08:23.95	101.38	6.08	-50.2	-65.4	3.8	1.49e+00	0	37	104	0	72	20259
2026-01-15 08:08:24.95	101.29	6.14	-50.3	-65.4	3.8	1.49e+00	0	37	104	0	72	20244
2026-01-15 08:08:25.95	101.19	6.20	-50.2	-65.4	3.8	1.49e+00	0	37	104	0	72	20076
2026-01-15 08:08:26.94	101.09	6.26	-50.2	-65.3	3.8	1.49e+00	0	37	104	0	72	20049
2026-01-15 08:08:27.94	101.00	6.32	-50.2	-65.3	3.8	1.49e+00	0	37	104	0	72	19966
2026-01-15 08:08:28.94	100.90	6.38	-50.2	-65.3	3.8	1.49e+00	0	37	104	0	72	19936
2026-01-15 08:08:29.93	100.80	6.44	-50.2	-65.3	3.8	1.49e+00	0	37	104	0	72	19948
2026-01-15 08:08:30.93	100.70	6.50	-50.2	-65.2	3.8	1.49e+00	0	37	104	0	72	19829
2026-01-15 08:08:31.93	100.60	6.56	-50.2	-65.2	3.8	1.49e+00	0	37	104	0	72	19829
2026-01-15 08:08:32.93	100.51	6.62	-50.2	-65.3	3.8	1.49e+00	0	37	104	0	72	19871
2026-01-15 08:08:33.92	100.41	6.68	-50.2	-65.2	3.8	1.49e+00	0	37	104	0	72	19837
2026-01-15 08:08:34.93	100.31	6.74	-50.2	-65.2	3.8	1.49e+00	0	37	104	0	72	19803
2026-01-15 08:08:35.93	100.20	6.80	-50.2	-65.1	3.8	1.49e+00	0	37	104	0	72	19568
2026-01-15 08:08:36.92	100.11	6.86	-50.2	-65.1	3.8	1.49e+00	0	37	104	0	72	19469
2026-01-15 08:08:37.92	100.00	6.92	-50.2	-65.0	3.8	1.49e+00	0	37	104	0	72	19333
2026-01-15 08:08:38.91	99.90	6.98	-50.2	-65.0	3.8	1.49e+00	0	37	104	0	72	19265
2026-01-15 08:08:39.91	99.80	7.04	-50.2	-64.9	3.8	1.49e+00	0	37	104	0	72	19118
2026-01-15 08:08:40.91	99.70	7.10	-50.2	-65.0	3.8	1.49e+00	0	37	104	0	72	19240
2026-01-15 08:08:41.90	99.60	7.16	-50.2	-65.0	3.8	1.49e+00	0	37	104	0	72	19317
2026-01-15 08:08:42.90	99.49	7.22	-50.2	-65.2	3.8	1.49e+00	0	37	104	0	72	19651
2026-01-15 08:08:43.90	99.39	7.28	-50.2	-65.2	3.8	1.49e+00	0	37	104	0	72	19802
2026-01-15 08:08:44.90	99.28	7.34	-50.2	-65.3	3.8	1.49e+00	0	37	104	0	72	20071
2026-01-15 08:08:45.89	99.18	7.40	-50.2	-65.5	3.8	1.49e+00	0	37	104	0	72	20327
2026-01-15 08:08:46.89	99.07	7.46	-50.2	-65.5	3.8	1.49e+00	0	37	104	0	72	20424
2026-01-15 08:08:47.89	98.97	7.52	-50.2	-65.5	3.8	1.49e+00	0	37	104	0	72	20305
2026-01-15 08:08:48.89	98.86	7.58	-50.2	-65.5	3.8	1.49e+00	0	37	104	0	72	20428
2026-01-15 08:08:49.88	98.76	7.64	-50.2	-65.5	3.8	1.49e+00	0	37	104	0	72	20387
2026-01-15 08:08:50.88	98.65	7.70	-50.2	-65.4	3.8	1.49e+00	0	37	104	0	72	20191
2026-01-15 08:08:51.88	98.54	7.76	-50.2	-65.2	3.8	1.49e+00	0	37	104	0	72	19831
2026-01-15 08:08:52.88	98.43	7.82	-50.2	-64.9	3.8	1.49e+00	0	37	104	0	72	19018
2026-01-15 08:08:53.88	98.33	7.88	-50.1	-64.5	3.8	1.49e+00	0	37	104	0	72	18222
2026-01-15 08:08:54.88	98.22	7.94	-50.2	-64.3	3.8	1.49e+00	0	37	104	0	72	17805
2026-01-15 08:08:55.88	98.11	8.00	-50.1	-64.5	3.8	1.49e+00	0	37	104	0	72	18175
2026-01-15 08:08:56.88	98.00	8.06	-50.2	-65.1	3.8	1.49e+00	0	37	104	0	72	19498
2026-01-15 08:08:57.87	97.89	8.13	-50.2	-65.5	3.8	1.49e+00	0	38	104	0	72	20384
2026-01-15 08:08:58.87	97.78	8.19	-50.2	-64.8	3.8	1.49e+00	0	37	104	0	72	18908
2026-01-15 08:08:59.87	97.67	8.25	-50.0	-62.3	3.9	1.48e+00	0	37	104	0	72	14205
2026-01-15 08:09:00.87	97.55	8.31	-49.7	-59.5	5.2	9.66e-01	0	38	0	1048576	71	10829
2026-01-15 08:09:01.86	97.44	8.37	-49.3	-57.3	6.9	3.41e-01	0	37	0	2097152	70	8869
2026-01-15 08:09:02.86	97.33	8.43	-48.9	-55.6	8.5	5.80e-02	0	38	0	4194304	69	7739
2026-01-15 08:09:03.86	97.22	8.49	-48.7	-54.8	9.3	2.32e-02	0	38	0	6291456	69	7106
2026-01-15 08:09:04.86	97.10	8.55	-48.5	-54.5	9.6	1.54e-02	0	38	0	8388608	69	6862
2026-01-15 08:09:05.86	96.99	8.62	-48.5	-54.5	9.7	1.15e-02	0	38	0	9437184	69	6848
2026-01-15 08:09:06.85	96.88	8.68	-48.6	-54.7	9.5	1.31e-02	0	38	0	11534336	69	6975
2026-01-15 08:09:07.85	96.76	8.74	-48.9	-55.6	8.5	2.70e-02	0	38	0	13631488	69	7785
2026-01-15 08:09:08.84	96.65	8.80	-49.3	-57.3	7.0	7.71e-02	0	38	0	15728640	69	9403
2026-01-15 08:09:09.84	96.53	8.86	-49.8	-59.7	5.2	4.80e-01	0	38	0	17825792	70	11748
2026-01-15 08:09:10.84	96.41	8.92	-50.1	-62.4	4.1	1.22e+00	0	38	0	18874368	70	16045
2026-01-15 08:09:11.84	96.30	8.98	-50.2	-64.8	3.8	1.49e+00	0	38	104	18874368	71	19851
2026-01-15 08:09:12.84	96.18	9.05	-50.3	-65.5	3.8	1.49e+00	0	38	104	18874368	71	21516
2026-01-15 08:09:13.84	96.06	9.11	-49.7	-59.3	4.4	1.49e+00	0	38	104	18874368	71	10590
2026-01-15 08:09:14.83	95.94	9.17	-49.9	-60.0	5.0	5.73e-01	0	38	0	19922944	71	11471
2026-01-15 08:09:15.83	95.82	9.23	-50.2	-64.5	3.8	1.27e+00	0	38	104	19922944	71	19345
2026-01-15 08:09:16.83	95.70	9.29	-49.1	-56.2	5.0	1.45e+00	0	38	104	19922944	70	7883
2026-01-15 08:09:17.82	95.58	9.35	-50.3	-64.7	3.8	6.83e-01	0	38	104	19922944	71	19797
2026-01-15 08:09:18.82	95.46	9.42	-48.9	-55.6	8.5	1.49e+00	0	38	104	19922944	69	7772
2026-01-15 08:09:19.82	95.34	9.48	-48.9	-55.6	8.7	2.33e-02	0	38	0	20971520	69	7772
2026-01-15 08:09:20.82	95.22	9.54	-48.9	-55.4	9.0	1.94e-02	0	38	0	23068672	69	7551
2026-01-15 08:09:21.81	95.10	9.60	-48.6	-54.7	9.6	1.61e-02	0	38	0	24117248	69	6993
2026-01-15 08:09:22.81	94.98	9.66	-48.5	-54.2	10.2	8.24e-03	0	38	0	26214400	68	6970
2026-01-15 08:09:23.81	94.85	9.73	-48.4	-53.8	10.5	4.90e-03	0	38	0	28311552	68	6722
2026-01-15 08:09:24.81	94.73	9.79	-48.0	-53.1	11.3	1.82e-03	0	38	0	30408704	68	6191
2026-01-15 08:09:25.81	94.61	9.85	-47.6	-52.4	11.9	7.39e-04	0	38	0	32505856	67	6013
2026-01-15 08:09:26.81	94.48	9.91	-47.3	-51.7	12.6	2.49e-04	0	38	0	33554432	66	5864
2026-01-15 08:09:27.80	94.36	9.97	-47.0	-51.1	13.2	3.43e-05	0	38	0	35651584	66	5503
2026-01-15 08:09:28.80	94.23	10.04	-46.9	-50.8	13.5	1.22e-05	0	38	0	37748736	65	5645
2026-01-15 08:09:29.79	94.10	10.10	-47.0	-51.0	13.3	9.90e-06	0	38	0	39845888	65	5750
2026-01-15 08:09:30.79	93.98	10.16	-47.0	-51.0	13.3	1.37e-05	0	38	0	40894464	65	5768
2026-01-15 08:09:31.79	93.85	10.22	-46.9	-50.8	13.5	1.29e-05	0	38	0	42991616	65	5648
2026-01-15 08:09:32.78	93.72	10.28	-46.8	-50.7	13.7	6.80e-06	0	38	0	45088768	65	5529
2026-01-15 08:09:33.77	93.60	10.34	-46.8	-50.7	13.6	5.30e-06	0	38	0	47185920	65	5588
2026-01-15 08:09:34.77	93.47	10.41	-46.8	-50.7	13.7	4.50e-06	0	38	0	49283072	65	5549
2026-01-15 08:09:35.77	93.34	10.47	-46.8	-50.7	13.6	7.60e-06	0	38	0	50331648	65	5571
2026-01-15 08:09:36.77	93.21	10.53	-46.9	-50.8	13.5	1.22e-05	0	38	0	52428800	65	5648
2026-01-15 08:09:37.76	93.08	10.59	-47.0	-51.0	13.3	9.10e-06	0	38	0	54525952	65	5764
2026-01-15 08:09:38.75	92.95	10.66	-47.0	-51.0	13.3	1.90e-05	0	38	0	56623104	65	5780
2026-01-15 08:09:39.75	92.81	10.72	-47.0	-50.9	13.4	1.44e-05	0	38	0	57671680	65	5696
2026-01-15 08:09:40.75	92.68	10.78	-46.8	-50.8	13.6	1.29e-05	0	38	0	59768832	65	5619
2026-01-15 08:09:41.74	92.55	10.84	-46.9	-50.9	13.4	1.52e-05	0	38	0	61865984	65	5705
2026-01-15 08:09:42.74	92.41	10.90	-46.9	-50.9	13.5	4.50e-06	0	38	0	63963136	65	5659
2026-01-15 08:09:43.74	92.28	10.97	-46.9	-51.0	13.3	1.52e-05	0	38	0	66060288	65	5752
2026-01-15 08:09:44.73	92.15	11.03	-46.9	-51.1	13.3	1.75e-05	0	38	0	67108864	65	5790
2026-01-15 08:09:45.73	92.01	11.09	-46.9	-50.9	13.4	1.67e-05	0	38	0	69206016	65	5712
2026-01-15 08:09:46.73	91.87	11.15	-46.9	-50.9	13.4	1.67e-05	0	38	0	71303168	65	5698
2026-01-15 08:09:47.72	91.74	11.22	-46.9	-50.9	13.5	9.10e-06	0	38	0	73400320	65	5681
2026-01-15 08:09:48.72	91.60	11.28	-46.7	-50.6	13.8	5.30e-06	0	38	0	75497472	65	5494
2026-01-15 08:09:49.72	91.46	11.34	-46.8	-50.7	13.6	5.30e-06	0	38	0	76546048	65	5584
2026-01-15 08:09:50.72	91.32	11.40	-46.9	-50.8	13.6	7.60e-06	0	38	0	78643200	65	5647
2026-01-15 08:09:51.72	91.19	11.47	-46.9	-50.9	13.5	1.22e-05	0	38	0	80740352	65	5669
2026-01-15 08:09:52.72	91.05	11.53	-46.8	-50.7	13.6	1.37e-05	0	38	0	82837504	65	5590
2026-01-15 08:09:53.72	90.91	11.59	-46.7	-50.5	13.9	4.50e-06	0	38	0	84934656	65	5425
2026-01-15 08:09:54.72	90.76	11.65	-46.8	-50.6	13.8	7.00e-07	0	38	0	85983232	65	5469
2026-01-15 08:09:55.71	90.62	11.71	-46.7	-50.5	13.9	4.50e-06	0	38	0	88080384	65	5441
2026-01-15 08:09:56.71	90.48	11.78	-46.8	-50.6	13.8	7.60e-06	0	38	0	90177536	65	5496
2026-01-15 08:09:57.71	90.34	11.84	-46.7	-50.6	13.8	6.80e-06	0	38	0	92274688	65	5516
2026-01-15 08:09:58.71	90.20	11.90	-46.7	-50.6	13.8	3.80e-06	0	38	0	93323264	65	5486
2026-01-15 08:09:59.71	90.05	11.96	-46.6	-50.5	13.9	4.50e-06	0	38	0	95420416	65	5429
2026-01-15 08:10:00.71	89.91	12.03	-46.6	-50.5	13.9	3.00e-06	0	38	0	97517568	65	5408
2026-01-15 08:10:01.71	89.76	12.09	-46.6	-50.5	13.9	0.00e+00	0	38	0	99614720	65	5439
2026-01-15 08:10:02.70	89.62	12.15	-46.6	-50.5	13.9	2.20e-06	0	38	0	101711872	65	5449
2026-01-15 08:10:03.70	89.47	12.21	-46.8	-50.7	13.7	3.80e-06	0	38	0	102760448	65	5579
2026-01-15 08:10:04.70	89.32	12.27	-46.7	-50.7	13.7	5.30e-06	0	38	0	104857600	65	5549
2026-01-15 08:10:05.70	89.18	12.34	-46.8	-50.8	13.6	4.50e-06	0	38	0	106954752	65	5656
2026-01-15 08:10:06.69	89.03	12.40	-46.7	-50.8	13.6	8.30e-06	0	38	0	109051904	65	5613
2026-01-15 08:10:07.69	88.88	12.46	-46.8	-50.8	13.6	2.20e-06	0	38	0	110100480	65	5638
2026-01-15 08:10:08.69	88.73	12.52	-46.7	-50.7	13.7	6.80e-06	0	38	0	112197632	65	5579
2026-01-15 08:10:09.69	88.58	12.59	-46.8	-50.8	13.6	5.30e-06	0	38	0	114294784	65	5613
2026-01-15 08:10:10.69	88.43	12.65	-46.9	-51.0	13.4	1.44e-05	0	38	0	116391936	65	5739
2026-01-15 08:10:11.68	88.28	12.71	-47.0	-51.1	13.4	1.22e-05	0	38	0	118489088	65	5791
2026-01-15 08:10:12.69	88.12	12.77	-47.0	-51.1	13.3	1.60e-05	0	38	0	119537664	65	5823
2026-01-15 08:10:13.68	87.97	12.83	-46.9	-51.1	13.4	1.14e-05	0	38	0	121634816	65	5796
2026-01-15 08:10:14.68	87.82	12.89	-46.8	-50.9	13.5	4.50e-06	0	38	0	123731968	65	5698
2026-01-15 08:10:15.67	87.67	12.96	-46.8	-50.9	13.5	1.29e-05	0	38	0	125829120	65	5674
2026-01-15 08:10:16.67	87.51	13.02	-46.8	-50.9	13.5	9.90e-06	0	38	0	127926272	65	5704
2026-01-15 08:10:17.67	87.36	13.08	-46.7	-50.7	13.7	4.50e-06	0	38	0	128974848	65	5586
2026-01-15 08:10:18.66	87.20	13.14	-46.7	-50.7	13.8	5.30e-06	0	38	0	131072000	65	5531
2026-01-15 08:10:19.66	87.04	13.20	-46.6	-50.5	13.9	3.00e-06	0	39	0	133169152	65	5459
2026-01-15 08:10:20.66	86.89	13.26	-46.6	-50.6	13.8	2.20e-06	0	38	0	135266304	65	5512
2026-01-15 08:10:21.66	86.73	13.32	-46.6	-50.6	13.8	8.30e-06	0	38	0	136314880	65	5518
2026-01-15 08:10:22.65	86.57	13.39	-46.7	-50.7	13.7	1.50e-06	0	38	0	138412032	65	5564
2026-01-15 08:10:23.66	86.41	13.45	-46.7	-50.8	13.7	6.10e-06	0	38	0	140509184	65	5605
2026-01-15 08:10:24.66	86.25	13.51	-46.6	-50.7	13.8	4.50e-06	0	38	0	142606336	65	5548
2026-01-15 08:10:25.66	86.09	13.57	-46.7	-50.7	13.7	4.50e-06	0	38	0	144703488	65	5588
2026-01-15 08:10:26.66	85.93	13.63	-46.6	-50.7	13.7	5.30e-06	0	38	0	145752064	65	5564
2026-01-15 08:10:27.66	85.77	13.69	-46.5	-50.6	13.8	6.80e-06	0	39	0	147849216	65	5501
2026-01-15 08:10:28.66	85.60	13.75	-46.5	-50.5	14.0	4.50e-06	0	38	0	149946368	64	5741
2026-01-15 08:10:29.66	85.44	13.81	-46.4	-50.3	14.1	3.00e-06	0	38	0	152043520	64	5641
2026-01-15 08:10:30.66	85.28	13.88	-46.4	-50.2	14.3	3.00e-06	0	38	0	154140672	64	5538
2026-01-15 08:10:31.65	85.11	13.94	-46.4	-50.2	14.2	7.00e-07	0	38	0	155189248	64	5583
2026-01-15 08:10:32.65	84.95	14.00	-46.4	-50.3	14.1	7.00e-07	0	38	0	157286400	64	5621
2026-01-15 08:10:33.65	84.78	14.06	-46.2	-49.9	14.5	0.00e+00	0	38	0	159383552	64	5397
2026-01-15 08:10:34.64	84.61	14.12	-46.1	-49.7	14.7	0.00e+00	0	38	0	161480704	64	5272
2026-01-15 08:10:35.64	84.45	14.18	-46.1	-49.8	14.7	0.00e+00	0	38	0	162529280	64	5308
2026-01-15 08:10:36.64	84.28	14.24	-46.0	-49.7	14.8	0.00e+00	0	38	0	164626432	64	5232
2026-01-15 08:10:37.64	84.11	14.30	-46.0	-49.6	14.8	7.00e-07	0	38	0	166723584	64	5185
2026-01-15 08:10:38.64	83.94	14.36	-46.0	-49.6	14.9	0.00e+00	0	38	0	168820736	64	5161
2026-01-15 08:10:39.64	83.77	14.42	-46.0	-49.6	14.9	0.00e+00	0	38	0	170917888	64	5170
2026-01-15 08:10:40.63	83.60	14.48	-46.1	-49.7	14.8	0.00e+00	0	38	0	171966464	64	5244
2026-01-15 08:10:41.64	83.43	14.54	-46.0	-49.4	15.0	0.00e+00	0	38	0	174063616	64	5084
2026-01-15 08:10:42.64	83.25	14.60	-46.0	-49.5	15.1	0.00e+00	0	38	0	176160768	63	5405
2026-01-15 08:10:43.64	83.08	14.66	-46.0	-49.4	15.1	0.00e+00	0	38	0	178257920	63	5373
2026-01-15 08:10:44.63	82.91	14.72	-46.0	-49.4	15.2	0.00e+00	0	38	0	180355072	63	5369
2026-01-15 08:10:45.63	82.73	14.78	-46.0	-49.4	15.1	0.00e+00	0	38	0	181403648	63	5395
2026-01-15 08:10:46.63	82.56	14.83	-46.0	-49.4	15.2	0.00e+00	0	39	0	183500800	63	5349
2026-01-15 08:10:47.63	82.38	14.89	-45.8	-49.2	15.4	7.00e-07	0	38	0	185597952	63	5219
2026-01-15 08:10:48.62	82.21	14.95	-45.8	-49.1	15.4	0.00e+00	0	38	0	187695104	63	5210
2026-01-15 08:10:49.62	82.03	15.01	-45.8	-49.1	15.5	0.00e+00	0	38	0	188743680	63	5175
2026-01-15 08:10:50.62	81.85	15.07	-45.6	-48.9	15.6	0.00e+00	0	38	0	190840832	63	5074
2026-01-15 08:10:51.61	81.68	15.13	-45.6	-48.8	15.7	0.00e+00	0	38	0	192937984	63	5031
2026-01-15 08:10:52.61	81.50	15.19	-45.5	-48.7	15.8	7.00e-07	0	38	0	195035136	63	4975
2026-01-15 08:10:53.61	81.32	15.24	-45.6	-48.8	15.8	0.00e+00	0	38	0	197132288	63	5004
2026-01-15 08:10:54.61	81.13	15.30	-45.5	-48.7	15.9	0.00e+00	0	38	0	198180864	63	4933
2026-01-15 08:10:55.61	80.95	15.36	-45.6	-48.7	15.8	0.00e+00	0	38	0	200278016	63	4973
2026-01-15 08:10:56.60	80.77	15.42	-45.5	-48.6	15.9	0.00e+00	0	39	0	202375168	63	4914
2026-01-15 08:10:57.60	80.59	15.48	-45.6	-48.6	15.9	0.00e+00	0	39	0	204472320	63	4914
2026-01-15 08:10:58.60	80.41	15.53	-45.6	-48.6	15.9	0.00e+00	0	39	0	205520896	63	4921
2026-01-15 08:10:59.60	80.22	15.59	-45.6	-48.6	15.9	0.00e+00	0	38	0	207618048	63	4900
2026-01-15 08:11:00.59	80.04	15.65	-45.5	-48.5	16.0	0.00e+00	0	39	0	209715200	63	4834
2026-01-15 08:11:01.59	79.85	15.70	-45.4	-48.4	16.2	0.00e+00	0	39	0	211812352	62	5056
2026-01-15 08:11:02.59	79.66	15.76	-45.3	-48.2	16.3	0.00e+00	0	39	0	213909504	62	4954
2026-01-15 08:11:03.59	79.48	15.82	-45.2	-48.1	16.4	0.00e+00	0	38	0	214958080	62	4917
2026-01-15 08:11:04.58	79.29	15.87	-45.2	-48.1	16.4	0.00e+00	0	38	0	217055232	62	4922
2026-01-15 08:11:05.59	79.10	15.93	-45.2	-48.1	16.5	0.00e+00	0	39	0	219152384	62	4886
2026-01-15 08:11:06.58	78.91	15.99	-45.2	-48.2	16.4	0.00e+00	0	39	0	221249536	62	4932
2026-01-15 08:11:07.58	78.72	16.04	-45.2	-48.1	16.4	0.00e+00	0	38	0	223346688	62	4888
2026-01-15 08:11:08.58	78.53	16.10	-45.2	-48.1	16.5	0.00e+00	0	38	0	224395264	62	4890
2026-01-15 08:11:09.57	78.34	16.15	-45.3	-48.2	16.4	0.00e+00	0	38	0	226492416	62	4937
2026-01-15 08:11:10.58	78.15	16.21	-45.3	-48.2	16.4	0.00e+00	0	39	0	228589568	62	4938
2026-01-15 08:11:11.57	77.96	16.26	-45.2	-48.1	16.5	0.00e+00	0	38	0	230686720	62	4884
2026-01-15 08:11:12.57	77.76	16.32	-45.1	-48.0	16.5	0.00e+00	0	38	0	232783872	62	4850
2026-01-15 08:11:13.56	77.57	16.37	-45.1	-48.0	16.5	0.00e+00	0	39	0	233832448	62	4845
2026-01-15 08:11:14.56	77.38	16.43	-45.1	-48.0	16.5	0.00e+00	0	39	0	235929600	62	4850
2026-01-15 08:11:15.56	77.18	16.48	-45.1	-48.0	16.6	0.00e+00	0	39	0	238026752	62	4824
2026-01-15 08:11:16.56	76.98	16.54	-45.2	-48.2	16.4	0.00e+00	0	39	0	240123904	62	4934
2026-01-15 08:11:17.56	76.79	16.59	-45.2	-48.2	16.3	0.00e+00	0	38	0	241172480	62	4947
2026-01-15 08:11:18.56	76.59	16.64	-45.2	-48.1	16.5	0.00e+00	0	39	0	243269632	62	4884
2026-01-15 08:11:19.56	76.39	16.70	-45.2	-48.1	16.4	0.00e+00	0	39	0	245366784	62	4911
2026-01-15 08:11:20.56	76.19	16.75	-45.3	-48.2	16.3	0.00e+00	0	39	0	247463936	62	4980
2026-01-15 08:11:21.56	75.99	16.80	-45.3	-48.2	16.4	0.00e+00	0	38	0	249561088	62	4949
2026-01-15 08:11:22.56	75.79	16.85	-45.3	-48.3	16.3	0.00e+00	0	38	0	250609664	62	5001
2026-01-15 08:11:23.56	75.59	16.91	-45.4	-48.4	16.2	0.00e+00	0	39	0	252706816	62	5084
2026-01-15 08:11:24.56	75.38	16.96	-45.4	-48.4	16.2	0.00e+00	0	38	0	254803968	62	5070
2026-01-15 08:11:25.55	75.18	17.01	-45.4	-48.4	16.2	0.00e+00	0	39	0	256901120	62	5068
2026-01-15 08:11:26.54	74.98	17.06	-45.4	-48.4	16.2	0.00e+00	0	39	0	257949696	62	5065
2026-01-15 08:11:27.54	74.78	17.11	-45.4	-48.4	16.2	0.00e+00	0	38	0	260046848	62	5057
2026-01-15 08:11:28.54	74.57	17.16	-45.4	-48.4	16.2	0.00e+00	0	38	0	262144000	62	5046
2026-01-15 08:11:29.54	74.37	17.22	-45.5	-48.5	16.1	0.00e+00	0	39	0	264241152	62	5120
2026-01-15 08:11:30.54	74.16	17.27	-45.4	-48.4	16.2	0.00e+00	0	39	0	266338304	62	5067
2026-01-15 08:11:31.54	73.95	17.32	-45.4	-48.3	16.2	4.27e-05	0	39	0	267386880	62	5041
2026-01-15 08:11:32.53	73.75	17.37	-45.3	-48.2	16.4	0.00e+00	0	39	0	269484032	62	4961
2026-01-15 08:11:33.53	73.54	17.42	-45.4	-48.3	16.3	0.00e+00	0	38	0	271581184	62	5001
2026-01-15 08:11:34.53	73.33	17.47	-45.3	-48.2	16.4	0.00e+00	0	39	0	273678336	62	4961
2026-01-15 08:11:35.52	73.12	17.51	-45.3	-48.2	16.4	0.00e+00	0	38	0	275775488	62	4933
2026-01-15 08:11:36.52	72.91	17.56	-45.3	-48.2	16.4	0.00e+00	0	39	0	276824064	62	4930
2026-01-15 08:11:37.53	72.70	17.61	-45.1	-47.9	16.7	0.00e+00	0	38	0	278921216	62	4780
2026-01-15 08:11:38.52	72.49	17.66	-45.0	-47.8	16.7	0.00e+00	0	38	0	281018368	62	4751
2026-01-15 08:11:39.52	72.28	17.71	-45.0	-47.9	16.7	0.00e+00	0	38	0	283115520	62	4763
2026-01-15 08:11:40.52	72.06	17.76	-45.1	-47.9	16.7	0.00e+00	0	38	0	285212672	62	4776
2026-01-15 08:11:41.52	71.85	17.80	-44.8	-47.5	17.0	0.00e+00	0	38	0	286261248	61	4847
2026-01-15 08:11:42.52	71.63	17.85	-44.7	-47.5	17.1	0.00e+00	0	38	0	288358400	61	4820
2026-01-15 08:11:43.51	71.42	17.90	-44.9	-47.6	16.9	0.00e+00	0	38	0	290455552	61	4902
2026-01-15 08:11:44.51	71.20	17.94	-44.8	-47.5	17.0	0.00e+00	0	38	0	292552704	61	4861
2026-01-15 08:11:45.51	70.99	17.99	-44.8	-47.5	17.0	0.00e+00	0	38	0	293601280	61	4862
2026-01-15 08:11:46.50	70.77	18.03	-44.8	-47.6	17.0	0.00e+00	0	38	0	295698432	61	4877
2026-01-15 08:11:47.50	70.55	18.08	-44.8	-47.5	17.0	0.00e+00	0	38	0	297795584	61	4859
2026-01-15 08:11:48.50	70.34	18.12	-44.9	-47.6	17.0	0.00e+00	0	39	0	299892736	61	4906
2026-01-15 08:11:49.49	70.12	18.17	-44.8	-47.5	17.0	0.00e+00	0	39	0	301989888	61	4867
2026-01-15 08:11:50.49	69.90	18.21	-44.8	-47.5	17.0	0.00e+00	0	38	0	303038464	61	4864
2026-01-15 08:11:51.50	69.68	18.26	-44.8	-47.5	17.1	0.00e+00	0	39	0	305135616	61	4851
2026-01-15 08:11:52.49	69.46	18.30	-44.9	-47.7	16.9	0.00e+00	0	39	0	307232768	61	4933
2026-01-15 08:11:53.49	69.24	18.34	-45.0	-47.8	16.8	0.00e+00	0	39	0	309329920	61	5012
2026-01-15 08:11:54.49	69.01	18.39	-45.0	-47.8	16.8	0.00e+00	0	39	0	310378496	61	5000
2026-01-15 08:11:55.49	68.79	18.43	-44.9	-47.6	17.0	0.00e+00	0	38	0	312475648	61	4891
2026-01-15 08:11:56.49	68.57	18.47	-44.7	-47.4	17.1	0.00e+00	0	39	0	314572800	61	4784
2026-01-15 08:11:57.48	68.34	18.51	-44.6	-47.3	17.3	0.00e+00	0	39	0	316669952	61	4721
2026-01-15 08:11:58.48	68.12	18.55	-44.7	-47.4	17.1	0.00e+00	0	38	0	318767104	61	4812
2026-01-15 08:11:59.47	67.90	18.59	-44.7	-47.4	17.2	0.00e+00	0	38	0	319815680	61	4768
2026-01-15 08:12:00.47	67.67	18.63	-44.6	-47.3	17.3	0.00e+00	0	38	0	321912832	61	4726
2026-01-15 08:12:01.47	67.44	18.67	-44.6	-47.3	17.2	0.00e+00	0	39	0	324009984	61	4743
2026-01-15 08:12:02.47	67.22	18.71	-44.7	-47.4	17.2	0.00e+00	0	38	0	326107136	61	4771
2026-01-15 08:12:03.46	66.99	18.75	-44.8	-47.6	17.0	0.00e+00	0	39	0	328204288	61	4898
2026-01-15 08:12:04.46	66.76	18.79	-44.7	-47.4	17.1	0.00e+00	0	39	0	329252864	61	4810
2026-01-15 08:12:05.46	66.53	18.83	-44.7	-47.5	17.1	0.00e+00	0	39	0	331350016	61	4823
2026-01-15 08:12:06.46	66.30	18.87	-44.8	-47.5	17.1	0.00e+00	0	39	0	333447168	61	4818
2026-01-15 08:12:07.46	66.07	18.91	-44.8	-47.5	17.0	0.00e+00	0	38	0	335544320	61	4864
2026-01-15 08:12:08.46	65.84	18.94	-44.9	-47.7	16.9	0.00e+00	0	39	0	336592896	61	4951
2026-01-15 08:12:09.45	65.61	18.98	-45.0	-47.8	16.8	0.00e+00	0	38	0	338690048	61	5005
2026-01-15 08:12:10.45	65.38	19.02	-44.9	-47.7	16.9	0.00e+00	0	38	0	340787200	61	4967
2026-01-15 08:12:11.45	65.15	19.05	-44.9	-47.7	16.9	0.00e+00	0	38	0	342884352	61	4963
2026-01-15 08:12:12.45	64.92	19.09	-44.9	-47.7	16.9	0.00e+00	0	39	0	344981504	61	4967
2026-01-15 08:12:13.45	64.68	19.12	-45.0	-47.8	16.7	0.00e+00	0	39	0	346030080	61	5034
2026-01-15 08:12:14.45	64.45	19.16	-45.0	-47.8	16.8	0.00e+00	0	39	0	348127232	61	5002
2026-01-15 08:12:15.44	64.22	19.19	-45.0	-47.8	16.8	0.00e+00	0	39	0	350224384	61	5002
2026-01-15 08:12:16.44	63.98	19.23	-45.0	-47.9	16.8	0.00e+00	0	39	0	352321536	61	5043
2026-01-15 08:12:17.43	63.75	19.26	-44.9	-47.7	16.9	0.00e+00	0	39	0	353370112	61	4954
2026-01-15 08:12:18.43	63.51	19.29	-45.0	-47.8	16.9	0.00e+00	0	39	0	355467264	61	4989
2026-01-15 08:12:19.43	63.27	19.32	-45.0	-47.8	16.8	0.00e+00	0	38	0	357564416	61	4989
2026-01-15 08:12:20.43	63.04	19.36	-45.1	-47.9	16.7	0.00e+00	0	39	0	359661568	61	5068
2026-01-15 08:12:21.42	62.80	19.39	-45.1	-47.9	16.6	0.00e+00	0	38	0	361758720	61	5095
2026-01-15 08:12:22.42	62.56	19.42	-45.2	-48.0	16.6	0.00e+00	0	39	0	362807296	61	5124
2026-01-15 08:12:23.42	62.33	19.45	-45.3	-48.2	16.4	0.00e+00	0	38	0	364904448	61	5234
2026-01-15 08:12:24.42	62.09	19.48	-45.5	-48.4	16.3	0.00e+00	0	39	0	367001600	61	5364
2026-01-15 08:12:25.41	61.85	19.51	-45.5	-48.4	16.2	0.00e+00	0	39	0	369098752	61	5373
2026-01-15 08:12:26.41	61.61	19.54	-45.6	-48.5	16.1	0.00e+00	0	39	0	370147328	61	5455
2026-01-15 08:12:27.41	61.37	19.56	-45.5	-48.5	16.1	0.00e+00	0	39	0	372244480	61	5440
2026-01-15 08:12:28.40	61.13	19.59	-45.6	-48.7	16.0	0.00e+00	0	39	0	374341632	61	5532
2026-01-15 08:12:29.41	60.89	19.62	-45.7	-48.7	15.9	0.00e+00	0	38	0	376438784	62	5272
2026-01-15 08:12:30.40	60.65	19.65	-45.6	-48.7	16.0	0.00e+00	0	39	0	378535936	62	5244
2026-01-15 08:12:31.40	60.41	19.67	-45.7	-48.8	15.9	0.00e+00	0	38	0	379584512	62	5302
2026-01-15 08:12:32.40	60.16	19.70	-45.6	-48.6	16.0	0.00e+00	0	38	0	381681664	62	5203
2026-01-15 08:12:33.40	59.92	19.72	-45.7	-48.7	15.9	0.00e+00	0	39	0	383778816	62	5259
2026-01-15 08:12:34.39	59.68	19.75	-45.8	-48.8	15.8	0.00e+00	0	39	0	385875968	62	5340
2026-01-15 08:12:35.39	59.44	19.77	-45.8	-48.8	15.8	0.00e+00	0	38	0	387973120	62	5328
2026-01-15 08:12:36.39	59.19	19.80	-45.8	-48.8	15.8	0.00e+00	0	38	0	389021696	62	5321
2026-01-15 08:12:37.39	58.95	19.82	-45.8	-48.8	15.9	0.00e+00	0	38	0	391118848	62	5310
2026-01-15 08:12:38.39	58.70	19.84	-45.8	-48.9	15.7	0.00e+00	0	38	0	393216000	62	5374
2026-01-15 08:12:39.39	58.46	19.87	-45.9	-49.0	15.6	0.00e+00	0	38	0	395313152	62	5459
2026-01-15 08:12:40.39	58.21	19.89	-45.9	-49.1	15.6	0.00e+00	0	39	0	397410304	62	5498
2026-01-15 08:12:41.39	57.96	19.91	-46.0	-49.2	15.5	0.00e+00	0	38	0	398458880	62	5543
2026-01-15 08:12:42.39	57.72	19.93	-46.1	-49.3	15.4	0.00e+00	0	39	0	400556032	62	5641
2026-01-15 08:12:43.39	57.47	19.95	-46.1	-49.4	15.3	0.00e+00	0	38	0	402653184	62	5679
2026-01-15 08:12:44.38	57.23	19.97	-46.2	-49.5	15.2	0.00e+00	0	38	0	404750336	63	5439
2026-01-15 08:12:45.38	56.98	19.99	-46.3	-49.6	15.1	0.00e+00	0	38	0	405798912	63	5477
2026-01-15 08:12:46.38	56.73	20.01	-46.2	-49.5	15.2	0.00e+00	0	38	0	407896064	63	5437
2026-01-15 08:12:47.38	56.48	20.03	-46.1	-49.3	15.4	0.00e+00	0	39	0	409993216	63	5312
2026-01-15 08:12:48.38	56.24	20.04	-46.1	-49.2	15.5	0.00e+00	0	38	0	412090368	63	5272
2026-01-15 08:12:49.38	55.99	20.06	-45.9	-49.1	15.6	0.00e+00	0	39	0	414187520	63	5164
2026-01-15 08:12:50.38	55.74	20.08	-46.0	-49.1	15.6	0.00e+00	0	39	0	415236096	63	5179
2026-01-15 08:12:51.38	55.49	20.09	-45.9	-49.0	15.7	0.00e+00	0	39	0	417333248	63	5130
2026-01-15 08:12:52.38	55.24	20.11	-45.8	-48.9	15.7	0.00e+00	0	39	0	419430400	63	5097
2026-01-15 08:12:53.37	54.99	20.12	-45.9	-49.0	15.7	0.00e+00	0	38	0	421527552	63	5108
2026-01-15 08:12:54.37	54.74	20.14	-45.9	-49.1	15.6	0.00e+00	0	39	0	423624704	63	5182
2026-01-15 08:12:55.37	54.50	20.15	-46.1	-49.3	15.4	0.00e+00	0	39	0	424673280	63	5319
2026-01-15 08:12:56.37	54.24	20.16	-46.1	-49.4	15.3	0.00e+00	0	39	0	426770432	63	5363
2026-01-15 08:12:57.37	53.99	20.18	-46.1	-49.4	15.4	0.00e+00	0	38	0	428867584	63	5350
2026-01-15 08:12:58.36	53.75	20.19	-46.2	-49.4	15.2	0.00e+00	0	39	0	430964736	63	5391
2026-01-15 08:12:59.36	53.50	20.20	-46.0	-49.2	15.5	0.00e+00	0	39	0	432013312	63	5255
2026-01-15 08:13:00.36	53.25	20.21	-46.0	-49.2	15.5	0.00e+00	0	39	0	434110464	63	5258
2026-01-15 08:13:01.36	52.99	20.22	-46.0	-49.2	15.5	0.00e+00	0	39	0	436207616	63	5232
2026-01-15 08:13:02.35	52.75	20.23	-46.0	-49.2	15.5	0.00e+00	0	39	0	438304768	63	5264
2026-01-15 08:13:03.35	52.49	20.24	-46.1	-49.2	15.5	0.00e+00	0	38	0	440401920	63	5258
2026-01-15 08:13:04.35	52.24	20.25	-46.0	-49.2	15.5	0.00e+00	0	38	0	441450496	63	5264
2026-01-15 08:13:05.34	51.99	20.26	-46.1	-49.3	15.5	0.00e+00	0	38	0	443547648	63	5281
2026-01-15 08:13:06.35	51.74	20.26	-46.0	-49.2	15.4	0.00e+00	0	38	0	445644800	63	5275
2026-01-15 08:13:07.34	51.49	20.27	-46.0	-49.2	15.5	0.00e+00	0	39	0	447741952	63	5255
2026-01-15 08:13:08.34	51.24	20.28	-45.9	-49.1	15.6	0.00e+00	0	38	0	449839104	63	5202
2026-01-15 08:13:09.33	50.99	20.28	-45.9	-49.0	15.7	0.00e+00	0	39	0	450887680	63	5125
2026-01-15 08:13:10.33	50.74	20.29	-45.9	-49.1	15.6	0.00e+00	0	38	0	452984832	63	5183
2026-01-15 08:13:11.32	50.49	20.29	-46.0	-49.2	15.5	0.00e+00	0	38	0	455081984	63	5227
2026-01-15 08:13:12.32	50.23	20.29	-45.9	-49.1	15.6	0.00e+00	0	39	0	457179136	63	5187
2026-01-15 08:13:13.32	49.98	20.30	-46.0	-49.1	15.5	0.00e+00	0	39	0	458227712	63	5216
2026-01-15 08:13:14.32	49.73	20.30	-45.8	-48.9	15.8	0.00e+00	0	38	0	460324864	63	5052
2026-01-15 08:13:15.32	49.48	20.30	-45.8	-48.9	15.8	0.00e+00	0	39	0	462422016	63	5042
2026-01-15 08:13:16.32	49.23	20.30	-45.6	-48.6	16.0	0.00e+00	0	39	0	464519168	63	4926
2026-01-15 08:13:17.32	48.97	20.31	-45.4	-48.4	16.3	0.00e+00	0	38	0	466616320	62	5072
2026-01-15 08:13:18.32	48.72	20.31	-45.4	-48.3	16.3	0.00e+00	0	38	0	467664896	62	5037
2026-01-15 08:13:19.32	48.47	20.31	-45.4	-48.4	16.3	0.00e+00	0	38	0	469762048	62	5057
2026-01-15 08:13:20.32	48.22	20.31	-45.5	-48.5	16.2	0.00e+00	0	38	0	471859200	62	5134
2026-01-15 08:13:21.31	47.97	20.30	-45.4	-48.3	16.4	0.00e+00	0	39	0	473956352	62	5006
2026-01-15 08:13:22.31	47.71	20.30	-45.4	-48.3	16.3	0.00e+00	0	39	0	475004928	62	5021
2026-01-15 08:13:23.31	47.46	20.30	-45.4	-48.3	16.4	0.00e+00	0	38	0	477102080	62	4993
2026-01-15 08:13:24.31	47.21	20.30	-45.3	-48.2	16.5	0.00e+00	0	38	0	479199232	62	4933
2026-01-15 08:13:25.30	46.96	20.29	-45.2	-48.1	16.5	0.00e+00	0	39	0	481296384	62	4906
2026-01-15 08:13:26.30	46.71	20.29	-45.3	-48.1	16.5	0.00e+00	0	38	0	483393536	62	4919
2026-01-15 08:13:27.30	46.46	20.28	-45.2	-48.1	16.5	0.00e+00	0	38	0	484442112	62	4911
2026-01-15 08:13:28.29	46.21	20.28	-45.3	-48.2	16.5	0.00e+00	0	39	0	486539264	62	4945
2026-01-15 08:13:29.29	45.95	20.27	-45.0	-47.9	16.8	0.00e+00	0	38	0	488636416	62	4760
2026-01-15 08:13:30.29	45.70	20.27	-44.9	-47.7	16.9	0.00e+00	0	38	0	490733568	61	4974
2026-01-15 08:13:31.29	45.45	20.26	-44.9	-47.7	16.9	0.00e+00	0	38	0	492830720	61	4940
2026-01-15 08:13:32.29	45.20	20.25	-44.9	-47.6	17.0	0.00e+00	0	39	0	493879296	61	4923
2026-01-15 08:13:33.28	44.95	20.24	-45.0	-47.8	16.8	0.00e+00	0	39	0	495976448	61	5010
2026-01-15 08:13:34.28	44.70	20.23	-44.9	-47.7	16.9	0.00e+00	0	39	0	498073600	61	4949
2026-01-15 08:13:35.28	44.45	20.22	-44.8	-47.6	17.1	0.00e+00	0	39	0	500170752	61	4878
2026-01-15 08:13:36.28	44.20	20.21	-44.8	-47.5	17.1	0.00e+00	0	39	0	501219328	61	4829
2026-01-15 08:13:37.27	43.95	20.20	-44.8	-47.5	17.1	0.00e+00	0	39	0	503316480	61	4864
2026-01-15 08:13:38.27	43.70	20.19	-44.7	-47.3	17.3	0.00e+00	0	39	0	505413632	61	4749
2026-01-15 08:13:39.27	43.45	20.18	-44.5	-47.1	17.4	0.00e+00	0	39	0	507510784	61	4628
2026-01-15 08:13:40.27	43.20	20.17	-44.6	-47.2	17.4	0.00e+00	0	39	0	509607936	61	4667
2026-01-15 08:13:41.26	42.95	20.16	-44.6	-47.2	17.4	0.00e+00	0	39	0	510656512	61	4696
2026-01-15 08:13:42.26	42.70	20.14	-44.5	-47.2	17.4	0.00e+00	0	39	0	512753664	61	4672
2026-01-15 08:13:43.26	42.45	20.13	-44.5	-47.2	17.4	0.00e+00	0	39	0	514850816	61	4662
2026-01-15 08:13:44.26	42.20	20.11	-44.5	-47.1	17.4	0.00e+00	0	38	0	516947968	61	4646
2026-01-15 08:13:45.26	41.95	20.10	-44.4	-47.0	17.6	0.00e+00	0	38	0	517996544	60	4851
2026-01-15 08:13:46.25	41.71	20.08	-44.5	-47.1	17.5	0.00e+00	0	39	0	520093696	60	4878
2026-01-15 08:13:47.25	41.46	20.07	-44.4	-47.0	17.6	0.00e+00	0	39	0	522190848	60	4830
2026-01-15 08:13:48.24	41.21	20.05	-44.5	-47.1	17.5	0.00e+00	0	39	0	524288000	60	4894
2026-01-15 08:13:49.24	40.96	20.03	-44.5	-47.1	17.4	0.00e+00	0	39	0	526385152	60	4924
2026-01-15 08:13:50.24	40.72	20.01	-44.4	-47.0	17.6	0.00e+00	0	38	0	527433728	60	4822
2026-01-15 08:13:51.24	40.47	20.00	-44.2	-46.7	17.8	0.00e+00	0	39	0	529530880	60	4691
2026-01-15 08:13:52.24	40.22	19.98	-44.3	-46.9	17.7	0.00e+00	0	39	0	531628032	60	4787
2026-01-15 08:13:53.24	39.98	19.96	-44.3	-46.9	17.6	0.00e+00	0	39	0	533725184	60	4803
2026-01-15 08:13:54.24	39.73	19.94	-44.5	-47.1	17.5	0.00e+00	0	39	0	535822336	60	4882
2026-01-15 08:13:55.24	39.48	19.92	-44.5	-47.2	17.5	0.00e+00	0	39	0	536870912	60	4928
2026-01-15 08:13:56.23	39.24	19.90	-44.6	-47.2	17.4	0.00e+00	0	39	0	538968064	60	4969
2026-01-15 08:13:57.23	39.00	19.87	-44.5	-47.1	17.5	0.00e+00	0	39	0	541065216	60	4911
2026-01-15 08:13:58.23	38.75	19.85	-44.4	-47.0	17.5	0.00e+00	0	39	0	543162368	60	4854
2026-01-15 08:13:59.22	38.51	19.83	-44.4	-47.0	17.5	0.00e+00	0	39	0	545259520	60	4862
2026-01-15 08:14:00.22	38.26	19.81	-44.4	-47.0	17.6	0.00e+00	0	39	0	546308096	60	4849
2026-01-15 08:14:01.22	38.02	19.78	-44.4	-47.0	17.6	0.00e+00	0	38	0	548405248	60	4826
2026-01-15 08:14:02.22	37.78	19.76	-44.4	-47.1	17.5	0.00e+00	0	39	0	550502400	60	4910
2026-01-15 08:14:03.22	37.53	19.73	-44.6	-47.3	17.3	0.00e+00	0	39	0	552599552	60	5034
2026-01-15 08:14:04.22	37.29	19.71	-44.7	-47.4	17.2	0.00e+00	0	39	0	553648128	60	5096
2026-01-15 08:14:05.21	37.05	19.68	-44.8	-47.6	17.0	0.00e+00	0	39	0	555745280	60	5206
2026-01-15 08:14:06.21	36.81	19.66	-44.9	-47.8	16.9	0.00e+00	0	39	0	557842432	60	5293
2026-01-15 08:14:07.21	36.57	19.63	-45.0	-47.9	16.8	0.00e+00	0	39	0	559939584	60	5357
2026-01-15 08:14:08.21	36.33	19.60	-45.0	-48.0	16.7	0.00e+00	0	39	0	562036736	60	5407
2026-01-15 08:14:09.20	36.09	19.58	-44.9	-47.8	16.8	0.00e+00	0	39	0	563085312	60	5322
2026-01-15 08:14:10.20	35.85	19.55	-45.0	-47.9	16.8	0.00e+00	0	39	0	565182464	60	5350
2026-01-15 08:14:11.20	35.61	19.52	-45.0	-48.0	16.7	0.00e+00	0	39	0	567279616	60	5414
2026-01-15 08:14:12.20	35.37	19.49	-45.1	-48.1	16.6	0.00e+00	0	39	0	569376768	60	5467
2026-01-15 08:14:13.19	35.13	19.46	-45.2	-48.2	16.5	0.00e+00	0	39	0	570425344	60	5543
2026-01-15 08:14:14.19	34.90	19.43	-45.3	-48.3	16.3	0.00e+00	0	39	0	572522496	61	5313
2026-01-15 08:14:15.19	34.66	19.40	-45.3	-48.3	16.4	0.00e+00	0	39	0	574619648	61	5286
2026-01-15 08:14:16.19	34.42	19.37	-45.4	-48.4	16.3	0.00e+00	0	39	0	576716800	61	5348
2026-01-15 08:14:17.18	34.19	19.34	-45.3	-48.3	16.4	0.00e+00	0	39	0	578813952	61	5328
2026-01-15 08:14:18.18	33.95	19.30	-45.4	-48.4	16.3	0.00e+00	0	39	0	579862528	61	5386
2026-01-15 08:14:19.18	33.71	19.27	-45.4	-48.6	16.1	0.00e+00	0	39	0	581959680	61	5478
2026-01-15 08:14:20.18	33.48	19.24	-45.5	-48.6	16.0	0.00e+00	0	39	0	584056832	61	5502
2026-01-15 08:14:21.17	33.25	19.21	-45.5	-48.7	16.0	0.00e+00	0	39	0	586153984	61	5540
2026-01-15 08:14:22.17	33.01	19.17	-45.4	-48.5	16.1	0.00e+00	0	39	0	588251136	61	5457
2026-01-15 08:14:23.17	32.78	19.14	-45.4	-48.5	16.2	0.00e+00	0	39	0	589299712	61	5428
2026-01-15 08:14:24.17	32.55	19.10	-45.5	-48.6	16.1	0.00e+00	0	39	0	591396864	61	5486
2026-01-15 08:14:25.17	32.31	19.07	-45.5	-48.6	16.1	0.00e+00	0	39	0	593494016	61	5469
2026-01-15 08:14:26.16	32.08	19.03	-45.6	-48.6	16.0	0.00e+00	0	39	0	595591168	61	5521
2026-01-15 08:14:27.16	31.85	19.00	-45.6	-48.7	15.9	0.00e+00	0	39	0	596639744	61	5573
2026-01-15 08:14:28.16	31.62	18.96	-45.7	-48.8	15.9	0.00e+00	0	39	0	598736896	62	5290
2026-01-15 08:14:29.15	31.39	18.92	-45.7	-48.8	15.8	0.00e+00	0	39	0	600834048	62	5333
2026-01-15 08:14:30.15	31.16	18.88	-45.7	-48.8	15.9	0.00e+00	0	39	0	602931200	62	5290
2026-01-15 08:14:31.15	30.93	18.85	-45.7	-48.8	15.9	0.00e+00	0	39	0	605028352	62	5313
2026-01-15 08:14:32.15	30.71	18.81	-45.6	-48.7	16.0	0.00e+00	0	39	0	606076928	62	5248
2026-01-15 08:14:33.15	30.48	18.77	-45.6	-48.7	16.0	0.00e+00	0	39	0	608174080	62	5260
2026-01-15 08:14:34.15	30.25	18.73	-45.7	-48.8	15.9	0.00e+00	0	39	0	610271232	62	5296
2026-01-15 08:14:35.14	30.03	18.69	-45.8	-48.9	15.8	0.00e+00	0	39	0	612368384	62	5377
2026-01-15 08:14:36.14	29.80	18.65	-45.8	-49.0	15.7	0.00e+00	0	39	0	614465536	62	5410
2026-01-15 08:14:37.14	29.57	18.61	-45.9	-49.2	15.6	0.00e+00	0	39	0	615514112	62	5531
2026-01-15 08:14:38.14	29.35	18.57	-46.0	-49.1	15.5	0.00e+00	0	39	0	617611264	62	5528
2026-01-15 08:14:39.13	29.13	18.53	-46.0	-49.2	15.6	0.00e+00	0	39	0	619708416	62	5533
2026-01-15 08:14:40.13	28.90	18.49	-45.8	-49.0	15.7	0.00e+00	0	39	0	621805568	62	5425
2026-01-15 08:14:41.13	28.68	18.45	-45.8	-48.9	15.7	0.00e+00	0	39	0	622854144	62	5371
2026-01-15 08:14:42.13	28.46	18.40	-45.7	-48.9	15.8	0.00e+00	0	39	0	624951296	62	5347
2026-01-15 08:14:43.13	28.24	18.36	-45.6	-48.8	15.8	0.00e+00	0	39	0	627048448	62	5331
2026-01-15 08:14:44.13	28.01	18.32	-45.4	-48.7	16.0	0.00e+00	0	39	0	629145600	62	5221
2026-01-15 08:14:45.13	27.79	18.28	-45.4	-48.8	15.9	0.00e+00	0	39	0	631242752	62	5287
2026-01-15 08:14:46.12	27.58	18.23	-45.5	-49.0	15.7	0.00e+00	0	39	0	632291328	62	5405
2026-01-15 08:14:47.12	27.36	18.19	-45.5	-49.0	15.7	0.00e+00	0	39	0	634388480	62	5439
2026-01-15 08:14:48.12	27.14	18.14	-45.5	-49.0	15.7	0.00e+00	0	39	0	636485632	62	5456
2026-01-15 08:14:49.11	26.92	18.10	-45.7	-49.2	15.5	0.00e+00	0	38	0	638582784	62	5529
2026-01-15 08:14:50.11	26.70	18.05	-45.6	-49.1	15.6	0.00e+00	0	38	0	639631360	62	5492
2026-01-15 08:14:51.10	26.49	18.01	-45.7	-49.1	15.6	0.00e+00	0	39	0	641728512	62	5502
2026-01-15 08:14:52.10	26.27	17.96	-45.7	-49.1	15.6	0.00e+00	0	39	0	643825664	62	5499
2026-01-15 08:14:53.09	26.06	17.92	-45.7	-49.1	15.6	0.00e+00	0	39	0	645922816	62	5499
2026-01-15 08:14:54.09	25.85	17.87	-45.7	-49.0	15.6	0.00e+00	0	39	0	648019968	62	5447
2026-01-15 08:14:55.09	25.63	17.83	-45.6	-49.0	15.7	0.00e+00	0	39	0	649068544	62	5419
2026-01-15 08:14:56.09	25.42	17.78	-45.7	-49.1	15.6	0.00e+00	0	39	0	651165696	62	5495
2026-01-15 08:14:57.09	25.21	17.73	-45.8	-49.3	15.4	0.00e+00	0	39	0	653262848	62	5624
2026-01-15 08:14:58.09	24.99	17.68	-45.8	-49.3	15.4	0.00e+00	0	38	0	655360000	62	5640
2026-01-15 08:14:59.09	24.78	17.64	-45.9	-49.3	15.4	0.00e+00	0	39	0	657457152	62	5650
2026-01-15 08:15:00.09	24.57	17.59	-45.9	-49.4	15.3	0.00e+00	0	39	0	658505728	62	5692
2026-01-15 08:15:01.08	24.36	17.54	-45.9	-49.4	15.3	0.00e+00	0	39	0	660602880	62	5658
2026-01-15 08:15:02.08	24.15	17.49	-45.8	-49.2	15.5	7.00e-07	0	39	0	662700032	62	5542
2026-01-15 08:15:03.08	23.95	17.44	-45.7	-49.0	15.7	0.00e+00	0	39	0	664797184	62	5454
2026-01-15 08:15:04.08	23.74	17.39	-45.7	-48.9	15.7	0.00e+00	0	39	0	665845760	62	5399
2026-01-15 08:15:05.07	23.53	17.34	-45.8	-49.0	15.7	0.00e+00	0	39	0	667942912	62	5430
2026-01-15 08:15:06.07	23.33	17.29	-45.9	-49.2	15.5	0.00e+00	0	39	0	670040064	62	5567
2026-01-15 08:15:07.07	23.12	17.24	-45.9	-49.2	15.5	0.00e+00	0	39	0	672137216	62	5555
2026-01-15 08:15:08.07	22.91	17.19	-45.9	-49.2	15.5	0.00e+00	0	39	0	674234368	62	5534
2026-01-15 08:15:09.07	22.71	17.14	-45.9	-49.2	15.4	0.00e+00	0	39	0	675282944	62	5589
2026-01-15 08:15:10.07	22.51	17.09	-45.8	-49.1	15.6	0.00e+00	0	39	0	677380096	62	5498
2026-01-15 08:15:11.07	22.30	17.04	-45.8	-49.2	15.6	0.00e+00	0	39	0	679477248	62	5531
2026-01-15 08:15:12.07	22.10	16.99	-45.8	-49.2	15.5	0.00e+00	0	39	0	681574400	62	5533
2026-01-15 08:15:13.06	21.90	16.93	-45.8	-49.2	15.5	0.00e+00	0	39	0	683671552	62	5537
2026-01-15 08:15:14.06	21.70	16.88	-45.9	-49.3	15.4	0.00e+00	0	39	0	684720128	62	5601
2026-01-15 08:15:15.06	21.50	16.83	-45.8	-49.1	15.5	0.00e+00	0	39	0	686817280	62	5519
2026-01-15 08:15:16.05	21.30	16.78	-45.8	-49.1	15.6	1.20e-04	0	39	0	688914432	62	5503
2026-01-15 08:15:17.05	21.10	16.72	-45.8	-49.1	15.5	0.00e+00	0	39	0	691011584	62	5521
2026-01-15 08:15:18.05	20.91	16.67	-45.9	-49.1	15.6	0.00e+00	0	39	0	692060160	62	5513
2026-01-15 08:15:19.05	20.71	16.62	-45.9	-49.1	15.6	1.02e-04	0	39	0	694157312	62	5515
2026-01-15 08:15:20.05	20.51	16.56	-45.8	-49.2	15.5	0.00e+00	0	39	0	696254464	62	5532
2026-01-15 08:15:21.04	20.32	16.51	-45.6	-48.9	15.8	0.00e+00	0	39	0	698351616	62	5341
2026-01-15 08:15:22.04	20.12	16.46	-45.5	-48.8	15.8	0.00e+00	0	39	0	700448768	62	5319
2026-01-15 08:15:23.04	19.93	16.40	-45.5	-48.9	15.8	0.00e+00	0	39	0	701497344	62	5353
2026-01-15 08:15:24.04	19.73	16.35	-45.5	-48.9	15.8	0.00e+00	0	39	0	703594496	62	5379
2026-01-15 08:15:25.04	19.54	16.29	-45.6	-49.0	15.7	0.00e+00	0	39	0	705691648	62	5462
2026-01-15 08:15:26.04	19.35	16.24	-45.6	-49.0	15.7	0.00e+00	0	39	0	707788800	62	5457
2026-01-15 08:15:27.03	19.16	16.18	-45.8	-49.2	15.5	0.00e+00	0	39	0	709885952	62	5565
2026-01-15 08:15:28.03	18.97	16.13	-45.9	-49.4	15.3	0.00e+00	0	39	0	710934528	62	5667
2026-01-15 08:15:29.03	18.78	16.07	-46.0	-49.4	15.2	0.00e+00	0	39	0	713031680	62	5705
2026-01-15 08:15:30.03	18.59	16.02	-46.1	-49.5	15.2	0.00e+00	0	39	0	715128832	62	5730
2026-01-15 08:15:31.03	18.40	15.96	-46.1	-49.4	15.3	0.00e+00	0	39	0	717225984	62	5701
2026-01-15 08:15:32.03	18.21	15.91	-46.1	-49.5	15.2	0.00e+00	0	39	0	718274560	62	5730
2026-01-15 08:15:33.02	18.03	15.85	-46.2	-49.6	15.1	0.00e+00	0	38	0	720371712	63	5478
2026-01-15 08:15:34.02	17.84	15.79	-46.3	-49.6	15.0	0.00e+00	0	39	0	722468864	63	5518
2026-01-15 08:15:35.02	17.65	15.74	-46.3	-49.8	14.9	0.00e+00	0	39	0	724566016	63	5595
2026-01-15 08:15:36.01	17.47	15.68	-46.4	-49.9	14.8	0.00e+00	0	39	0	726663168	63	5692
2026-01-15 08:15:37.01	17.29	15.62	-46.4	-49.9	14.7	0.00e+00	0	39	0	727711744	63	5710
2026-01-15 08:15:38.01	17.10	15.57	-46.3	-49.9	14.8	0.00e+00	0	39	0	729808896	63	5663
2026-01-15 08:15:39.01	16.92	15.51	-46.2	-49.7	15.0	0.00e+00	0	39	0	731906048	63	5556
2026-01-15 08:15:40.01	16.74	15.45	-46.1	-49.6	15.0	0.00e+00	0	39	0	734003200	63	5507
2026-01-15 08:15:41.01	16.55	15.40	-46.0	-49.6	15.0	0.00e+00	0	39	0	735051776	63	5528
2026-01-15 08:15:42.01	16.37	15.34	-46.0	-49.7	15.0	0.00e+00	0	38	0	737148928	63	5548
2026-01-15 08:15:43.00	16.20	15.28	-46.0	-49.7	15.0	0.00e+00	0	39	0	739246080	63	5547
2026-01-15 08:15:44.00	16.02	15.22	-46.0	-49.7	15.0	0.00e+00	0	38	0	741343232	63	5557
2026-01-15 08:15:45.00	15.84	15.16	-46.1	-49.8	14.8	0.00e+00	0	38	0	743440384	63	5647
2026-01-15 08:15:46.00	15.66	15.11	-46.1	-49.9	14.8	0.00e+00	0	39	0	744488960	63	5697
2026-01-15 08:15:47.00	15.48	15.05	-46.0	-49.9	14.7	0.00e+00	0	39	0	746586112	63	5715
2026-01-15 08:15:48.00	15.30	14.99	-45.9	-50.0	14.7	0.00e+00	0	38	0	748683264	63	5755
2026-01-15 08:15:48.99	15.13	14.93	-45.8	-50.0	14.6	0.00e+00	0	39	0	750780416	63	5773
2026-01-15 08:15:49.99	14.96	14.87	-45.8	-50.0	14.7	0.00e+00	0	39	0	752877568	63	5738
2026-01-15 08:15:50.99	14.78	14.81	-45.8	-50.0	14.7	0.00e+00	0	39	0	753926144	63	5729
2026-01-15 08:15:51.99	14.61	14.75	-45.8	-49.8	14.9	0.00e+00	0	39	0	756023296	63	5648
2026-01-15 08:15:52.98	14.44	14.70	-45.7	-49.7	14.9	0.00e+00	0	39	0	758120448	63	5591
2026-01-15 08:15:53.98	14.26	14.64	-45.8	-49.6	15.1	0.00e+00	0	39	0	760217600	63	5496
2026-01-15 08:15:54.97	14.09	14.58	-45.8	-49.5	15.1	7.00e-07	0	39	0	761266176	63	5452
2026-01-15 08:15:55.97	13.92	14.52	-45.8	-49.4	15.3	0.00e+00	0	39	0	763363328	63	5385
2026-01-15 08:15:56.97	13.75	14.46	-45.9	-49.4	15.2	0.00e+00	0	39	0	765460480	63	5372
2026-01-15 08:15:57.97	13.58	14.40	-45.9	-49.4	15.2	0.00e+00	0	39	0	767557632	63	5381
2026-01-15 08:15:58.96	13.41	14.34	-45.9	-49.4	15.2	0.00e+00	0	39	0	769654784	63	5374
2026-01-15 08:15:59.96	13.25	14.28	-45.7	-49.3	15.4	0.00e+00	0	39	0	770703360	63	5280
2026-01-15 08:16:00.96	13.08	14.22	-45.6	-49.1	15.5	0.00e+00	0	39	0	772800512	63	5197
2026-01-15 08:16:01.95	12.91	14.16	-45.6	-49.2	15.4	0.00e+00	0	39	0	774897664	63	5248
2026-01-15 08:16:02.95	12.75	14.10	-45.6	-49.3	15.4	0.00e+00	0	39	0	776994816	63	5290
2026-01-15 08:16:03.95	12.58	14.04	-45.5	-49.2	15.5	0.00e+00	0	39	0	778043392	63	5237
2026-01-15 08:16:04.95	12.42	13.98	-45.4	-49.1	15.5	0.00e+00	0	39	0	780140544	62	5483
2026-01-15 08:16:05.95	12.25	13.92	-45.5	-49.1	15.5	0.00e+00	0	39	0	782237696	62	5510
2026-01-15 08:16:06.95	12.09	13.86	-45.5	-49.1	15.5	0.00e+00	0	39	0	784334848	62	5521
2026-01-15 08:16:07.95	11.93	13.80	-45.4	-49.0	15.7	0.00e+00	0	39	0	786432000	62	5421
2026-01-15 08:16:08.95	11.76	13.74	-45.3	-48.9	15.7	0.00e+00	0	38	0	787480576	62	5381
2026-01-15 08:16:09.95	11.60	13.67	-45.2	-48.9	15.7	0.00e+00	0	39	0	789577728	62	5379
2026-01-15 08:16:10.95	11.44	13.61	-45.1	-48.9	15.8	0.00e+00	0	39	0	791674880	62	5378
2026-01-15 08:16:11.95	11.28	13.55	-45.0	-48.9	15.8	0.00e+00	0	39	0	793772032	62	5362
2026-01-15 08:16:12.95	11.12	13.49	-44.9	-48.8	15.8	0.00e+00	0	39	0	795869184	61	5633
2026-01-15 08:16:13.95	10.96	13.43	-45.0	-48.9	15.8	0.00e+00	0	39	0	796917760	61	5669
2026-01-15 08:16:14.95	10.81	13.37	-44.9	-48.6	16.0	0.00e+00	0	39	0	799014912	61	5516
2026-01-15 08:16:15.95	10.65	13.31	-44.8	-48.4	16.2	0.00e+00	0	39	0	801112064	61	5370
2026-01-15 08:16:16.95	10.49	13.25	-44.8	-48.3	16.3	0.00e+00	0	39	0	803209216	61	5298
2026-01-15 08:16:17.95	10.34	13.19	-44.9	-48.3	16.3	0.00e+00	0	39	0	805306368	61	5335
2026-01-15 08:16:18.95	10.18	13.12	-45.1	-48.3	16.3	0.00e+00	0	39	0	806354944	61	5339
2026-01-15 08:16:19.94	10.03	13.06	-45.1	-48.4	16.2	0.00e+00	0	39	0	808452096	61	5376
2026-01-15 08:16:20.94	9.87	13.00	-45.2	-48.5	16.1	0.00e+00	0	39	0	810549248	61	5439
2026-01-15 08:16:21.95	9.72	12.94	-45.2	-48.5	16.1	0.00e+00	0	39	0	812646400	61	5433
2026-01-15 08:16:22.94	9.57	12.88	-45.1	-48.4	16.2	0.00e+00	0	39	0	813694976	61	5375
2026-01-15 08:16:23.94	9.41	12.82	-45.1	-48.4	16.2	0.00e+00	0	39	0	815792128	61	5395
2026-01-15 08:16:24.94	9.26	12.76	-45.0	-48.2	16.3	0.00e+00	0	39	0	817889280	61	5278
2026-01-15 08:16:25.94	9.11	12.69	-45.0	-48.1	16.5	0.00e+00	0	38	0	819986432	61	5210
2026-01-15 08:16:26.94	8.96	12.63	-44.9	-48.0	16.5	0.00e+00	0	39	0	822083584	61	5159
2026-01-15 08:16:27.94	8.81	12.57	-45.0	-48.1	16.5	0.00e+00	0	39	0	823132160	61	5192
2026-01-15 08:16:28.93	8.66	12.51	-44.9	-48.0	16.6	0.00e+00	0	39	0	825229312	61	5148
2026-01-15 08:16:29.92	8.52	12.45	-44.9	-48.0	16.6	0.00e+00	0	39	0	827326464	61	5135
2026-01-15 08:16:30.92	8.37	12.39	-44.9	-48.1	16.5	0.00e+00	0	39	0	829423616	61	5168
2026-01-15 08:16:31.91	8.22	12.32	-44.8	-48.1	16.5	0.00e+00	0	39	0	831520768	61	5206
2026-01-15 08:16:32.91	8.08	12.26	-44.8	-48.2	16.4	0.00e+00	0	39	0	832569344	61	5223
2026-01-15 08:16:33.90	7.93	12.20	-44.7	-48.1	16.5	0.00e+00	0	39	0	834666496	61	5192
2026-01-15 08:16:34.90	7.79	12.14	-44.7	-48.2	16.4	0.00e+00	0	39	0	836763648	61	5254
2026-01-15 08:16:35.91	7.64	12.08	-44.7	-48.2	16.4	0.00e+00	0	39	0	838860800	61	5263
2026-01-15 08:16:36.90	7.50	12.01	-44.7	-48.2	16.4	0.00e+00	0	39	0	839909376	61	5263
2026-01-15 08:16:37.90	7.36	11.95	-44.8	-48.2	16.3	0.00e+00	0	38	0	842006528	61	5277
2026-01-15 08:16:38.90	7.21	11.89	-45.1	-48.4	16.1	0.00e+00	0	39	0	844103680	61	5393
2026-01-15 08:16:39.90	7.07	11.83	-45.1	-48.4	16.2	0.00e+00	0	39	0	846200832	61	5385
2026-01-15 08:16:40.90	6.93	11.77	-45.1	-48.4	16.2	0.00e+00	0	39	0	848297984	61	5383
2026-01-15 08:16:41.89	6.79	11.70	-45.3	-48.6	16.1	0.00e+00	0	39	0	849346560	61	5475
2026-01-15 08:16:42.90	6.65	11.64	-45.2	-48.6	16.0	0.00e+00	0	39	0	851443712	61	5475
2026-01-15 08:16:43.89	6.51	11.58	-45.3	-48.7	15.9	0.00e+00	0	39	0	853540864	61	5565
2026-01-15 08:16:44.89	6.37	11.52	-45.2	-48.7	15.9	0.00e+00	0	39	0	855638016	61	5564
2026-01-15 08:16:45.89	6.23	11.46	-45.1	-48.8	15.8	0.00e+00	0	39	0	857735168	61	5623
2026-01-15 08:16:46.89	6.10	11.39	-45.2	-48.9	15.7	0.00e+00	0	39	0	858783744	61	5671
2026-01-15 08:16:47.88	5.96	11.33	-45.2	-48.9	15.7	0.00e+00	0	38	0	860880896	61	5716
2026-01-15 08:16:48.88	5.82	11.27	-45.3	-49.1	15.6	0.00e+00	0	39	0	862978048	61	5805
2026-01-15 08:16:49.88	5.69	11.21	-45.3	-49.0	15.6	0.00e+00	0	39	0	865075200	61	5745
2026-01-15 08:16:50.88	5.55	11.15	-45.5	-49.0	15.6	0.00e+00	0	39	0	866123776	61	5783
2026-01-15 08:16:51.88	5.42	11.08	-45.6	-49.0	15.6	0.00e+00	0	39	0	868220928	61	5782
2026-01-15 08:16:52.88	5.28	11.02	-45.5	-48.9	15.7	0.00e+00	0	38	0	870318080	61	5717
2026-01-15 08:16:53.88	5.15	10.96	-45.6	-49.0	15.6	0.00e+00	0	39	0	872415232	61	5761
2026-01-15 08:16:54.88	5.02	10.90	-45.5	-48.8	15.8	0.00e+00	0	38	0	874512384	61	5599
2026-01-15 08:16:55.87	4.89	10.84	-45.5	-48.8	15.8	0.00e+00	0	39	0	875560960	61	5606
2026-01-15 08:16:56.87	4.75	10.77	-45.5	-48.7	15.9	0.00e+00	0	39	0	877658112	61	5570
2026-01-15 08:16:57.87	4.62	10.71	-45.6	-48.8	15.8	0.00e+00	0	39	0	879755264	61	5631
2026-01-15 08:16:58.87	4.49	10.65	-45.6	-48.8	15.7	0.00e+00	0	39	0	881852416	61	5652
2026-01-15 08:16:59.87	4.36	10.59	-45.6	-48.9	15.7	0.00e+00	0	39	0	883949568	61	5680
2026-01-15 08:17:00.87	4.23	10.52	-45.6	-48.9	15.7	0.00e+00	0	39	0	884998144	61	5661
2026-01-15 08:17:01.87	4.10	10.46	-45.6	-49.0	15.6	0.00e+00	0	39	0	887095296	61	5755
2026-01-15 08:17:02.87	3.97	10.40	-45.5	-49.0	15.6	0.00e+00	0	39	0	889192448	61	5748
2026-01-15 08:17:03.87	3.85	10.34	-45.6	-49.1	15.5	0.00e+00	0	38	0	891289600	61	5837
2026-01-15 08:17:04.87	3.72	10.28	-45.6	-49.2	15.4	0.00e+00	0	39	0	892338176	61	5872
2026-01-15 08:17:05.87	3.59	10.21	-45.5	-49.2	15.3	0.00e+00	0	39	0	894435328	61	5908
2026-01-15 08:17:06.87	3.47	10.15	-45.4	-49.3	15.3	0.00e+00	0	39	0	896532480	61	5955
2026-01-15 08:17:07.86	3.34	10.09	-45.3	-49.4	15.2	0.00e+00	0	39	0	898629632	61	6008
2026-01-15 08:17:08.87	3.21	10.03	-45.1	-49.5	15.1	0.00e+00	0	39	0	900726784	61	6065
2026-01-15 08:17:09.86	3.09	9.97	-45.1	-49.6	15.0	0.00e+00	0	39	0	901775360	61	6149
2026-01-15 08:17:10.85	2.97	9.91	-45.1	-49.5	15.0	0.00e+00	0	38	0	903872512	61	6108
2026-01-15 08:17:11.85	2.84	9.84	-45.2	-49.6	14.9	0.00e+00	0	39	0	905969664	61	6194
2026-01-15 08:17:12.85	2.72	9.78	-45.3	-49.6	15.0	0.00e+00	0	39	0	908066816	61	6153
2026-01-15 08:17:13.85	2.60	9.72	-45.7	-49.8	14.8	0.00e+00	0	39	0	909115392	61	6286
2026-01-15 08:17:14.85	2.48	9.66	-45.7	-49.8	14.7	0.00e+00	0	39	0	911212544	62	5943
2026-01-15 08:17:15.85	2.36	9.60	-45.8	-49.8	14.8	7.00e-07	0	39	0	913309696	62	5931
2026-01-15 08:17:16.84	2.24	9.53	-45.9	-49.8	14.7	0.00e+00	0	39	0	915406848	62	5983
2026-01-15 08:17:17.85	2.11	9.47	-45.8	-49.8	14.8	0.00e+00	0	39	0	917504000	62	5957
2026-01-15 08:17:18.84	2.00	9.41	-45.7	-49.9	14.7	0.00e+00	0	39	0	918552576	62	6008
2026-01-15 08:17:19.84	1.88	9.35	-45.6	-49.8	14.8	0.00e+00	0	39	0	920649728	62	5937
2026-01-15 08:17:20.84	1.76	9.29	-45.6	-50.0	14.6	0.00e+00	0	38	0	922746880	62	6090
2026-01-15 08:17:21.84	1.64	9.23	-45.3	-50.0	14.5	0.00e+00	0	38	0	924844032	62	6104
2026-01-15 08:17:22.84	1.52	9.16	-45.1	-50.0	14.5	1.50e-06	0	38	0	926941184	62	6118
2026-01-15 08:17:23.83	1.41	9.10	-45.2	-50.1	14.5	7.00e-07	0	39	0	927989760	62	6145
2026-01-15 08:17:24.83	1.29	9.04	-45.4	-50.2	14.4	7.00e-07	0	39	0	930086912	62	6214
2026-01-15 08:17:25.83	1.17	8.98	-47.1	-53.6	11.2	0.00e+00	0	39	0	932184064	64	8258
2026-01-15 08:17:26.83	1.06	8.92	-49.7	-66.0	3.8	1.49e+00	0	39	104	933232640	69	25614
2026-01-15 08:17:27.83	0.94	8.86	-49.8	-66.1	3.8	1.49e+00	0	38	104	933232640	71	23223
2026-01-15 08:17:28.82	0.83	8.80	-50.6	-66.2	3.8	1.49e+00	0	39	104	933232640	71	23454
2026-01-15 08:17:29.82	0.71	8.74	-50.6	-66.3	3.8	1.49e+00	0	38	104	933232640	72	22302
2026-01-15 08:17:30.82	0.60	8.67	-50.0	-66.3	3.8	1.49e+00	0	39	104	933232640	72	22376
2026-01-15 08:17:31.82	0.49	8.61	-51.0	-66.3	3.8	1.49e+00	0	39	104	933232640	72	22363
2026-01-15 08:17:32.80	0.38	8.55	-50.9	-66.4	3.8	1.49e+00	0	39	104	933232640	72	22547
2026-01-15 08:17:33.80	0.26	8.49	-51.1	-66.4	3.8	1.49e+00	0	39	104	933232640	72	22541
2026-01-15 08:17:34.79	0.15	8.43	-50.6	-66.4	3.8	1.49e+00	0	39	104	933232640	72	22634
2026-01-15 08:17:35.79	0.04	8.37	-51.1	-66.4	3.8	1.49e+00	0	39	104	933232640	72	22637
2026-01-15 08:17:36.79	359.93	8.31	-51.1	-66.4	3.8	1.49e+00	0	39	104	933232640	73	21319
2026-01-15 08:17:37.79	359.82	8.25	-50.7	-66.5	3.8	1.49e+00	0	39	104	933232640	73	21542
2026-01-15 08:17:38.79	359.71	8.19	-51.1	-66.4	3.8	1.49e+00	0	39	104	933232640	73	21336
2026-01-15 08:17:39.79	359.60	8.13	-51.2	-66.4	3.8	1.49e+00	0	39	104	933232640	73	21302
2026-01-15 08:17:40.78	359.49	8.07	-50.8	-66.4	3.8	1.49e+00	0	39	104	933232640	73	21390
2026-01-15 08:17:41.78	359.38	8.01	-51.2	-66.4	3.8	1.49e+00	0	39	104	933232640	73	21427
2026-01-15 08:17:42.78	359.28	7.94	-51.1	-66.4	3.8	1.49e+00	0	39	104	933232640	73	21405
2026-01-15 08:17:43.78	359.17	7.88	-51.2	-66.4	3.8	1.49e+00	0	39	104	933232640	73	21368
2026-01-15 08:17:44.78	359.06	7.82	-51.2	-66.4	3.8	1.49e+00	0	39	104	933232640	73	21482
2026-01-15 08:17:45.78	358.95	7.76	-51.1	-66.4	3.8	1.49e+00	0	39	104	933232640	73	21339
2026-01-15 08:17:46.78	358.85	7.70	-51.1	-66.4	3.8	1.49e+00	0	39	104	933232640	73	21422
2026-01-15 08:17:47.78	358.74	7.64	-51.2	-66.4	3.8	1.49e+00	0	39	104	933232640	73	21408
2026-01-15 08:17:48.78	358.64	7.58	-51.3	-66.4	3.8	1.49e+00	0	39	104	933232640	73	21375
2026-01-15 08:17:49.78	358.53	7.52	-51.1	-66.4	3.8	1.49e+00	0	39	104	933232640	73	21365
2026-01-15 08:17:50.77	358.43	7.46	-51.1	-66.4	3.8	1.49e+00	0	39	104	933232640	73	21397
2026-01-15 08:17:51.77	358.33	7.40	-51.1	-66.4	3.8	1.49e+00	0	39	104	933232640	73	21431
2026-01-15 08:17:52.77	358.22	7.34	-51.2	-66.4	3.8	1.49e+00	0	39	104	933232640	73	21340
2026-01-15 08:17:53.76	358.12	7.28	-51.0	-66.4	3.8	1.49e+00	0	39	104	933232640	73	21472
2026-01-15 08:17:54.77	358.02	7.22	-51.0	-66.4	3.8	1.49e+00	0	39	104	933232640	73	21381
2026-01-15 08:17:55.76	357.92	7.16	-51.0	-66.4	3.8	1.49e+00	0	39	104	933232640	73	21288
2026-01-15 08:17:56.76	357.81	7.10	-51.0	-66.4	3.8	1.49e+00	0	39	104	933232640	73	21313
2026-01-15 08:17:57.76	357.71	7.04	-51.0	-66.3	3.8	1.49e+00	0	39	104	933232640	73	21255
2026-01-15 08:17:58.76	357.61	6.98	-51.0	-66.4	3.8	1.49e+00	0	39	104	933232640	73	21335
2026-01-15 08:17:59.75	357.51	6.92	-51.0	-66.4	3.8	1.49e+00	0	39	104	933232640	73	21355
2026-01-15 08:18:00.75	357.41	6.86	-51.0	-66.4	3.8	1.49e+00	0	39	104	933232640	73	21320
2026-01-15 08:18:01.75	357.31	6.80	-51.0	-66.3	3.8	1.49e+00	0	39	104	933232640	73	21216
2026-01-15 08:18:02.74	357.21	6.74	-51.0	-66.3	3.8	1.49e+00	0	39	104	933232640	73	21215
2026-01-15 08:18:03.74	357.12	6.68	-51.0	-66.3	3.8	1.49e+00	0	39	104	933232640	73	21164
2026-01-15 08:18:04.74	357.02	6.62	-51.0	-66.4	3.8	1.49e+00	0	39	104	933232640	73	21280
2026-01-15 08:18:05.74	356.92	6.56	-51.0	-66.3	3.8	1.49e+00	0	39	104	933232640	73	21191
2026-01-15 08:18:06.74	356.82	6.50	-51.0	-66.4	3.8	1.49e+00	0	39	104	933232640	73	21264
2026-01-15 08:18:07.75	356.72	6.44	-51.0	-66.4	3.8	1.49e+00	0	38	104	933232640	73	21414
2026-01-15 08:18:08.74	356.63	6.39	-51.0	-66.3	3.8	1.49e+00	0	39	104	933232640	73	21229
2026-01-15 08:18:09.74	356.53	6.33	-51.0	-66.4	3.8	1.49e+00	0	39	104	933232640	73	21352
2026-01-15 08:18:10.74	356.44	6.27	-51.0	-66.3	3.8	1.49e+00	0	39	104	933232640	73	21206
2026-01-15 08:18:11.73	356.34	6.21	-51.0	-66.3	3.8	1.49e+00	0	39	104	933232640	73	21246
2026-01-15 08:18:12.73	356.25	6.15	-51.0	-66.3	3.8	1.49e+00	0	39	104	933232640	73	21253
2026-01-15 08:18:13.73	356.15	6.09	-51.0	-66.3	3.8	1.49e+00	0	39	104	933232640	73	21225
2026-01-15 08:18:14.73	356.06	6.03	-51.0	-66.3	3.8	1.49e+00	0	39	104	933232640	73	21160
2026-01-15 08:18:15.73	355.96	5.97	-51.0	-66.3	3.8	1.49e+00	0	39	104	933232640	73	21217
2026-01-15 08:18:16.73	355.87	5.91	-51.0	-66.4	3.8	1.49e+00	0	39	104	933232640	73	21301
2026-01-15 08:18:17.72	355.78	5.85	-50.9	-66.3	3.8	1.49e+00	0	39	104	933232640	73	21158
2026-01-15 08:18:18.72	355.68	5.80	-51.0	-66.3	3.8	1.49e+00	0	39	104	933232640	73	21142
2026-01-15 08:18:19.73	355.59	5.74	-51.0	-66.4	3.8	1.49e+00	0	39	104	933232640	73	21266
2026-01-15 08:18:20.72	355.50	5.68	-50.9	-66.3	3.8	1.49e+00	0	39	104	933232640	73	21206
2026-01-15 08:18:21.72	355.41	5.62	-51.0	-66.4	3.8	1.49e+00	0	39	104	933232640	73	21306
2026-01-15 08:18:22.72	355.32	5.56	-51.0	-66.3	3.8	1.49e+00	0	39	104	933232640	73	21157
2026-01-15 08:18:23.71	355.23	5.50	-51.0	-66.3	3.8	1.49e+00	0	39	104	933232640	73	21226
2026-01-15 08:18:24.71	355.14	5.44	-51.0	-66.3	3.8	1.49e+00	0	39	104	933232640	73	21247
2026-01-15 08:18:25.71	355.05	5.39	-50.9	-66.3	3.8	1.49e+00	0	39	104	933232640	73	21197
2026-01-15 08:18:26.71	354.96	5.33	-51.0	-66.3	3.8	1.49e+00	0	39	104	933232640	73	21198
2026-01-15 08:18:27.70	354.87	5.27	-50.9	-66.3	3.8	1.49e+00	0	39	104	933232640	73	21115
2026-01-15 08:18:28.70	354.78	5.21	-51.0	-66.3	3.8	1.49e+00	0	39	104	933232640	73	21175
2026-01-15 08:18:29.70	354.69	5.15	-51.0	-66.3	3.8	1.49e+00	0	39	104	933232640	73	21115
2026-01-15 08:18:30.70	354.60	5.10	-50.9	-66.3	3.8	1.49e+00	0	39	104	933232640	73	21200
2026-01-15 08:18:31.70	354.52	5.04	-51.0	-66.3	3.8	1.49e+00	0	39	104	933232640	73	21170
2026-01-15 08:18:32.70	354.43	4.98	-50.9	-66.3	3.8	1.49e+00	0	39	104	933232640	73	21226

#Closed at: 2026-01-15 08:18:33
#Recorded file [933 MB]: D:/Data/31040_260115_110805.dat