passes_logs/2026/01/15/T1/T1__20260115_231619_SUOMI_NPP_rec.log

#Pass ID: 20260115_231619_SUOMI NPP
#Satellite: SUOMI NPP
#Configuration: NPP
#almurnet v.1.7.20251203
#Start time: 2026-01-15 23:16:19

#Version: 2.0.20230620
#Station: T1
#Location: 37.570604 lon 55.790049 lat
#TLE: 1 37849U 11061A   26015.52691075  .00000052  00000+0  45753-4 0  9993
#TLE: 2 37849  98.7811 317.5709 0002448  62.7632 297.3794 14.19525354736784

#Time	Az	El	Level	Level2	SNR	BER	BlckErr	Temp	State	Recorded	gain1	gain2
2026-01-15 23:16:19.40	19.89	4.98	-46.5	-63.7	3.8	1.49e+00	0	39	0	0	65	24843
2026-01-15 23:16:20.39	19.92	5.05	-46.6	-63.8	3.8	1.49e+00	0	40	104	0	63	28039
2026-01-15 23:16:21.38	19.95	5.12	-46.6	-63.7	3.8	1.49e+00	0	40	104	0	63	28002
2026-01-15 23:16:22.38	19.99	5.19	-46.6	-63.7	3.8	1.49e+00	0	39	104	0	63	27945
2026-01-15 23:16:23.37	20.02	5.26	-46.6	-63.7	3.8	1.49e+00	0	39	104	0	63	27851
2026-01-15 23:16:24.36	20.05	5.33	-46.6	-63.7	3.8	1.49e+00	0	40	104	0	63	27873
2026-01-15 23:16:25.36	20.08	5.40	-46.6	-63.7	3.8	1.49e+00	0	40	104	0	63	27865
2026-01-15 23:16:26.35	20.11	5.47	-46.6	-63.7	3.8	1.49e+00	0	40	104	0	63	27918
2026-01-15 23:16:27.34	20.14	5.54	-46.6	-63.7	3.8	1.49e+00	0	40	104	0	63	27804
2026-01-15 23:16:28.34	20.17	5.61	-46.6	-63.6	3.8	1.49e+00	0	40	104	0	63	27677
2026-01-15 23:16:29.33	20.21	5.68	-46.6	-63.6	3.8	1.49e+00	0	40	104	0	63	27566
2026-01-15 23:16:30.32	20.24	5.75	-46.6	-63.6	3.8	1.49e+00	0	40	104	0	63	27508
2026-01-15 23:16:31.31	20.27	5.82	-46.6	-63.6	3.8	1.49e+00	0	40	104	0	63	27496
2026-01-15 23:16:32.31	20.30	5.89	-46.6	-63.5	3.8	1.49e+00	0	40	104	0	63	27322
2026-01-15 23:16:33.30	20.34	5.97	-46.5	-63.5	3.8	1.49e+00	0	40	104	0	63	27304
2026-01-15 23:16:34.29	20.37	6.04	-46.6	-63.5	3.8	1.49e+00	0	40	104	0	63	27326
2026-01-15 23:16:35.29	20.40	6.11	-46.5	-63.6	3.8	1.49e+00	0	40	104	0	63	27537
2026-01-15 23:16:36.28	20.43	6.18	-46.6	-63.6	3.8	1.49e+00	0	40	104	0	63	27703
2026-01-15 23:16:37.27	20.47	6.25	-46.6	-63.7	3.8	1.49e+00	0	40	104	0	63	27844
2026-01-15 23:16:38.27	20.50	6.33	-46.5	-63.7	3.8	1.49e+00	0	40	104	0	63	27923
2026-01-15 23:16:39.26	20.53	6.40	-46.6	-63.8	3.8	1.49e+00	0	40	104	0	63	28065
2026-01-15 23:16:40.25	20.57	6.47	-46.6	-63.7	3.8	1.49e+00	0	40	104	0	63	27923
2026-01-15 23:16:41.25	20.60	6.55	-46.5	-63.6	3.8	1.49e+00	0	40	104	0	63	27687
2026-01-15 23:16:42.24	20.63	6.62	-46.5	-63.4	3.8	1.49e+00	0	40	104	0	63	26977
2026-01-15 23:16:43.23	20.67	6.69	-46.5	-63.1	3.8	1.49e+00	0	40	104	0	63	26126
2026-01-15 23:16:44.23	20.70	6.77	-46.5	-62.8	3.8	1.49e+00	0	40	104	0	63	25266
2026-01-15 23:16:45.22	20.74	6.84	-46.5	-62.5	3.8	1.49e+00	0	40	104	0	63	24176
2026-01-15 23:16:46.21	20.77	6.91	-46.5	-62.3	3.8	1.49e+00	0	40	104	0	63	23634
2026-01-15 23:16:47.20	20.80	6.99	-46.5	-62.1	3.8	1.49e+00	0	40	104	0	63	23116
2026-01-15 23:16:48.20	20.84	7.06	-46.4	-61.9	3.8	1.49e+00	0	40	104	0	63	22606
2026-01-15 23:16:49.19	20.87	7.14	-46.4	-61.9	3.8	1.49e+00	0	40	104	0	63	22579
2026-01-15 23:16:50.18	20.91	7.21	-46.4	-61.9	3.8	1.49e+00	0	41	104	0	63	22591
2026-01-15 23:16:51.18	20.94	7.29	-46.5	-61.9	3.8	1.49e+00	0	40	104	0	63	22762
2026-01-15 23:16:52.17	20.98	7.36	-46.5	-62.0	3.8	1.49e+00	0	40	104	0	63	22910
2026-01-15 23:16:53.16	21.01	7.44	-46.5	-62.0	3.8	1.49e+00	0	40	104	0	63	22825
2026-01-15 23:16:54.16	21.05	7.51	-46.5	-61.9	3.8	1.49e+00	0	41	104	0	63	22780
2026-01-15 23:16:55.15	21.09	7.59	-46.5	-61.8	3.8	1.49e+00	0	41	104	0	63	22421
2026-01-15 23:16:56.14	21.12	7.67	-46.5	-61.6	3.8	1.49e+00	0	41	104	0	63	21769
2026-01-15 23:16:57.13	21.16	7.74	-46.4	-61.2	3.8	1.49e+00	0	40	104	0	63	20986
2026-01-15 23:16:58.13	21.19	7.82	-46.4	-60.8	4.0	1.47e+00	0	41	104	0	63	20055
2026-01-15 23:16:59.12	21.23	7.90	-46.4	-60.5	4.1	1.47e+00	0	41	0	0	63	19369
2026-01-15 23:17:00.11	21.27	7.97	-46.4	-60.4	4.2	1.41e+00	0	41	0	0	63	18975
2026-01-15 23:17:01.11	21.30	8.05	-46.4	-60.4	4.1	1.41e+00	0	41	0	0	63	19056
2026-01-15 23:17:02.10	21.34	8.13	-46.4	-60.3	4.2	1.39e+00	0	41	0	0	63	18830
2026-01-15 23:17:03.09	21.38	8.21	-46.4	-60.2	4.2	1.39e+00	0	41	0	0	63	18612
2026-01-15 23:17:04.09	21.42	8.29	-46.4	-60.1	4.2	1.38e+00	0	41	0	0	63	18461
2026-01-15 23:17:05.08	21.45	8.36	-46.4	-59.8	4.3	1.36e+00	0	41	0	0	63	17835
2026-01-15 23:17:06.07	21.49	8.44	-46.4	-59.6	4.4	1.31e+00	0	41	0	1048576	63	17297
2026-01-15 23:17:07.07	21.53	8.52	-46.4	-59.3	4.5	1.14e+00	0	41	0	3145728	63	16880
2026-01-15 23:17:08.06	21.57	8.60	-46.3	-58.9	4.7	9.78e-01	0	41	0	5242880	63	16047
2026-01-15 23:17:09.05	21.60	8.68	-46.3	-58.7	4.8	8.86e-01	0	41	0	6291456	63	15635
2026-01-15 23:17:10.05	21.64	8.76	-46.3	-58.5	4.9	8.43e-01	0	41	0	8388608	63	15255
2026-01-15 23:17:11.04	21.68	8.84	-46.3	-58.5	4.8	7.95e-01	0	41	0	10485760	63	15379
2026-01-15 23:17:12.03	21.72	8.92	-46.3	-58.7	4.8	8.01e-01	0	41	0	12582912	63	15647
2026-01-15 23:17:13.02	21.76	9.00	-46.3	-59.0	4.6	8.74e-01	0	41	0	13631488	63	16129
2026-01-15 23:17:14.02	21.80	9.08	-46.4	-59.5	4.4	1.01e+00	0	41	0	15728640	63	17216
2026-01-15 23:17:15.01	21.84	9.16	-46.5	-60.6	4.1	1.39e+00	0	41	0	16777216	63	19460
2026-01-15 23:17:16.01	21.88	9.24	-46.7	-58.6	4.8	9.72e-01	0	41	0	17825792	64	14676
2026-01-15 23:17:17.00	21.92	9.32	-46.4	-62.2	3.8	1.00e+00	0	41	104	18874368	64	22240
2026-01-15 23:17:18.00	21.96	9.40	-47.1	-62.5	3.8	1.49e+00	0	41	104	18874368	64	22956
2026-01-15 23:17:18.99	22.00	9.49	-45.1	-50.9	11.5	5.48e-01	0	41	0	18874368	62	6798
2026-01-15 23:17:19.98	22.04	9.57	-45.1	-51.0	11.6	5.14e-04	0	41	0	20971520	62	6821
2026-01-15 23:17:20.98	22.08	9.65	-45.1	-51.0	11.5	6.64e-04	0	41	0	22020096	61	7249
2026-01-15 23:17:21.97	22.12	9.73	-44.8	-50.2	12.5	2.05e-04	0	41	0	24117248	61	6574
2026-01-15 23:17:22.97	22.16	9.82	-44.7	-49.7	12.9	7.70e-05	0	41	0	26214400	61	6206
2026-01-15 23:17:23.96	22.20	9.90	-44.5	-49.2	13.5	2.13e-05	0	41	0	28311552	60	6222
2026-01-15 23:17:24.96	22.24	9.98	-44.5	-49.1	13.5	9.10e-06	0	41	0	30408704	60	6153
2026-01-15 23:17:25.95	22.28	10.07	-44.4	-48.8	13.9	5.30e-06	0	41	0	31457280	60	5926
2026-01-15 23:17:26.95	22.33	10.15	-44.5	-48.9	13.7	6.80e-06	0	41	0	33554432	60	6059
2026-01-15 23:17:27.94	22.37	10.24	-44.2	-48.4	14.3	2.20e-06	0	41	0	35651584	60	5689
2026-01-15 23:17:28.94	22.41	10.32	-44.4	-48.5	14.1	7.00e-07	0	41	0	37748736	60	5761
2026-01-15 23:17:29.93	22.45	10.40	-44.1	-48.0	14.6	1.50e-06	0	41	0	38797312	60	5463
2026-01-15 23:17:30.99	22.50	10.50	-44.1	-47.9	14.7	0.00e+00	0	41	0	40894464	60	5391
2026-01-15 23:17:31.88	22.54	10.57	-44.0	-47.5	15.1	0.00e+00	0	41	0	42991616	59	5452
2026-01-15 23:17:33.02	22.59	10.67	-44.1	-47.6	15.0	0.00e+00	0	41	0	45088768	59	5527
2026-01-15 23:17:33.86	22.62	10.74	-44.0	-47.6	15.1	0.00e+00	0	41	0	46137344	59	5466
2026-01-15 23:17:34.99	22.67	10.84	-44.1	-47.6	15.1	0.00e+00	0	41	0	49283072	59	5474
2026-01-15 23:17:35.85	22.71	10.92	-43.9	-47.3	15.4	0.00e+00	0	41	0	50331648	59	5290
2026-01-15 23:17:36.99	22.76	11.02	-43.7	-47.0	15.6	7.00e-07	0	41	0	52428800	59	5118
2026-01-15 23:17:37.84	22.80	11.09	-43.7	-47.1	15.6	0.00e+00	0	41	0	54525952	59	5162
2026-01-15 23:17:38.98	22.85	11.19	-43.6	-46.8	15.8	0.00e+00	0	41	0	56623104	59	5021
2026-01-15 23:17:39.83	22.89	11.27	-43.7	-46.9	15.8	0.00e+00	0	41	0	57671680	59	5052
2026-01-15 23:17:40.96	22.94	11.37	-43.5	-46.6	16.0	0.00e+00	0	41	0	59768832	59	4906
2026-01-15 23:17:41.82	22.98	11.44	-43.5	-46.7	16.0	0.00e+00	0	41	0	61865984	58	5220
2026-01-15 23:17:42.96	23.03	11.54	-43.6	-46.7	16.0	0.00e+00	0	41	0	63963136	58	5246
2026-01-15 23:17:43.81	23.07	11.62	-43.6	-46.8	15.9	0.00e+00	0	41	0	65011712	58	5300
2026-01-15 23:17:44.94	23.12	11.72	-43.6	-46.6	16.1	0.00e+00	0	41	0	67108864	58	5199
2026-01-15 23:17:45.79	23.16	11.80	-43.6	-46.7	16.1	0.00e+00	0	41	0	69206016	58	5221
2026-01-15 23:17:46.93	23.21	11.90	-43.4	-46.4	16.2	0.00e+00	0	41	0	71303168	58	5091
2026-01-15 23:17:47.79	23.25	11.98	-43.5	-46.4	16.2	0.00e+00	0	41	0	72351744	58	5091
2026-01-15 23:17:48.92	23.31	12.08	-43.3	-46.2	16.4	0.00e+00	0	41	0	74448896	58	4980
2026-01-15 23:17:49.78	23.35	12.16	-43.2	-46.2	16.5	0.00e+00	0	41	0	76546048	58	4928
2026-01-15 23:17:50.91	23.40	12.27	-43.3	-46.2	16.5	0.00e+00	0	41	0	78643200	58	4962
2026-01-15 23:17:51.77	23.44	12.34	-43.3	-46.2	16.5	0.00e+00	0	41	0	79691776	58	4968
2026-01-15 23:17:52.90	23.50	12.45	-43.3	-46.2	16.5	0.00e+00	0	41	0	82837504	58	4961
2026-01-15 23:17:53.76	23.54	12.53	-43.2	-46.1	16.6	0.00e+00	0	41	0	83886080	58	4884
2026-01-15 23:17:54.89	23.60	12.63	-43.0	-45.8	16.8	0.00e+00	0	41	0	85983232	58	4739
2026-01-15 23:17:55.75	23.64	12.71	-43.1	-46.0	16.7	0.00e+00	0	41	0	88080384	58	4815
2026-01-15 23:17:56.90	23.70	12.82	-43.1	-46.0	16.7	0.00e+00	0	41	0	90177536	58	4818
2026-01-15 23:17:57.75	23.74	12.90	-43.1	-46.0	16.7	0.00e+00	0	41	0	91226112	57	5111
2026-01-15 23:17:58.92	23.80	13.01	-43.0	-45.9	16.7	0.00e+00	0	41	0	93323264	57	5081
2026-01-15 23:17:59.77	23.84	13.09	-42.9	-45.8	16.9	0.00e+00	0	41	0	95420416	57	5003
2026-01-15 23:18:00.97	23.90	13.21	-43.0	-45.8	16.9	0.00e+00	0	41	0	97517568	57	5036
2026-01-15 23:18:01.83	23.94	13.29	-42.9	-45.7	16.9	0.00e+00	0	41	0	98566144	57	4969
2026-01-15 23:18:02.96	24.00	13.40	-43.0	-45.8	16.9	0.00e+00	0	41	0	101711872	57	5026
2026-01-15 23:18:03.82	24.05	13.48	-42.9	-45.7	17.0	0.00e+00	0	41	0	102760448	57	4940
2026-01-15 23:18:04.95	24.10	13.59	-43.0	-45.9	16.8	0.00e+00	0	41	0	104857600	57	5045
2026-01-15 23:18:05.81	24.15	13.67	-43.0	-45.8	16.9	0.00e+00	0	41	0	106954752	57	5034
2026-01-15 23:18:06.94	24.21	13.78	-42.9	-45.7	17.0	0.00e+00	0	41	0	109051904	57	4956
2026-01-15 23:18:07.79	24.25	13.87	-43.0	-45.8	16.9	0.00e+00	0	41	0	110100480	57	5018
2026-01-15 23:18:08.93	24.31	13.98	-42.9	-45.8	16.9	0.00e+00	0	41	0	112197632	57	4992
2026-01-15 23:18:09.78	24.36	14.06	-42.9	-45.6	17.0	0.00e+00	0	41	0	114294784	57	4923
2026-01-15 23:18:10.92	24.42	14.18	-43.1	-45.9	16.8	0.00e+00	0	41	0	116391936	57	5077
2026-01-15 23:18:11.78	24.47	14.26	-42.9	-45.7	17.0	0.00e+00	0	41	0	117440512	57	4947
2026-01-15 23:18:12.91	24.53	14.37	-42.9	-45.8	16.9	0.00e+00	0	41	0	119537664	57	4998
2026-01-15 23:18:13.77	24.58	14.46	-42.8	-45.6	17.1	0.00e+00	0	41	0	121634816	57	4895
2026-01-15 23:18:14.98	24.64	14.58	-42.8	-45.6	17.1	0.00e+00	0	41	0	123731968	57	4880
2026-01-15 23:18:15.84	24.69	14.67	-42.9	-45.7	17.0	0.00e+00	0	41	0	124780544	57	4982
2026-01-15 23:18:16.97	24.75	14.78	-42.7	-45.5	17.2	0.00e+00	0	41	0	127926272	57	4851
2026-01-15 23:18:17.83	24.80	14.87	-42.9	-45.7	17.0	0.00e+00	0	41	0	128974848	57	4961
2026-01-15 23:18:18.96	24.87	14.99	-42.9	-45.7	17.0	0.00e+00	0	41	0	131072000	57	4980
2026-01-15 23:18:19.81	24.92	15.07	-42.6	-45.4	17.3	0.00e+00	0	41	0	133169152	57	4769
2026-01-15 23:18:20.95	24.98	15.19	-42.7	-45.5	17.2	0.00e+00	0	41	0	135266304	57	4853
2026-01-15 23:18:21.80	25.03	15.28	-42.8	-45.5	17.2	0.00e+00	0	41	0	136314880	57	4866
2026-01-15 23:18:22.94	25.10	15.40	-42.7	-45.5	17.2	0.00e+00	0	41	0	138412032	57	4820
2026-01-15 23:18:23.79	25.15	15.48	-42.9	-45.7	17.0	0.00e+00	0	41	0	140509184	57	4959
2026-01-15 23:18:24.93	25.21	15.60	-42.9	-45.8	17.0	0.00e+00	0	41	0	142606336	57	5001
2026-01-15 23:18:25.78	25.26	15.69	-42.9	-45.7	17.0	0.00e+00	0	41	0	143654912	57	4935
2026-01-15 23:18:26.91	25.33	15.81	-42.9	-45.7	17.0	0.00e+00	0	41	0	145752064	57	4967
2026-01-15 23:18:27.76	25.38	15.90	-43.0	-45.8	17.0	0.00e+00	0	41	0	147849216	57	5006
2026-01-15 23:18:29.00	25.46	16.03	-43.0	-45.9	16.9	0.00e+00	0	41	0	149946368	57	5066
2026-01-15 23:18:29.85	25.51	16.12	-43.0	-45.8	16.9	0.00e+00	0	41	0	152043520	57	5031
2026-01-15 23:18:31.02	25.58	16.25	-43.0	-45.9	16.9	0.00e+00	0	41	0	154140672	57	5082
2026-01-15 23:18:31.87	25.63	16.34	-43.0	-45.9	16.9	0.00e+00	0	41	0	155189248	57	5061
2026-01-15 23:18:33.07	25.71	16.47	-42.9	-45.8	16.9	0.00e+00	0	41	0	157286400	57	5020
2026-01-15 23:18:33.93	25.76	16.57	-42.9	-45.9	16.8	0.00e+00	0	41	0	159383552	57	5062
2026-01-15 23:18:35.13	25.84	16.70	-42.9	-45.9	16.9	0.00e+00	0	41	0	161480704	57	5054
2026-01-15 23:18:36.39	25.92	16.83	-42.8	-45.8	16.9	0.00e+00	0	41	0	163577856	57	5019
2026-01-15 23:18:37.18	25.97	16.92	-42.7	-45.7	17.0	0.00e+00	0	41	0	165675008	57	4964
2026-01-15 23:18:38.38	26.04	17.05	-42.7	-45.7	17.1	0.00e+00	0	41	0	167772160	57	4940
2026-01-15 23:18:39.23	26.10	17.15	-42.6	-45.5	17.3	0.00e+00	0	41	0	168820736	57	4837
2026-01-15 23:18:40.37	26.17	17.28	-42.5	-45.3	17.5	0.00e+00	0	41	0	170917888	56	5014
2026-01-15 23:18:41.22	26.23	17.37	-42.5	-45.3	17.4	0.00e+00	0	41	0	173015040	56	5028
2026-01-15 23:18:42.36	26.30	17.50	-42.4	-45.2	17.5	0.00e+00	0	41	0	175112192	56	4946
2026-01-15 23:18:43.22	26.36	17.60	-42.2	-45.0	17.8	0.00e+00	0	41	0	176160768	56	4840
2026-01-15 23:18:44.35	26.44	17.72	-42.3	-45.0	17.8	0.00e+00	0	41	0	179306496	56	4834
2026-01-15 23:18:45.21	26.49	17.82	-42.1	-44.8	17.9	0.00e+00	0	42	0	180355072	56	4743
2026-01-15 23:18:46.50	26.58	17.97	-42.1	-44.8	17.9	0.00e+00	0	41	0	182452224	56	4737
2026-01-15 23:18:47.21	26.63	18.05	-42.1	-44.7	18.0	0.00e+00	0	41	0	184549376	56	4702
2026-01-15 23:18:48.49	26.72	18.20	-42.1	-44.8	18.0	0.00e+00	0	41	0	186646528	56	4709
2026-01-15 23:18:49.20	26.77	18.28	-42.1	-44.8	18.0	0.00e+00	0	41	0	187695104	56	4731
2026-01-15 23:18:50.48	26.86	18.43	-42.1	-44.9	17.9	0.00e+00	0	41	0	189792256	56	4779
2026-01-15 23:18:51.19	26.91	18.51	-42.1	-44.9	17.9	0.00e+00	0	41	0	191889408	56	4766
2026-01-15 23:18:52.47	27.00	18.67	-42.2	-44.9	17.9	0.00e+00	0	41	0	193986560	56	4776
2026-01-15 23:18:53.20	27.05	18.75	-42.3	-45.0	17.7	0.00e+00	0	42	0	195035136	56	4869
2026-01-15 23:18:54.48	27.14	18.90	-42.2	-45.0	17.8	0.00e+00	0	41	0	198180864	56	4839
2026-01-15 23:18:55.19	27.19	18.99	-42.3	-45.0	17.7	0.00e+00	0	41	0	199229440	56	4870
2026-01-15 23:18:56.47	27.29	19.14	-42.3	-45.1	17.6	0.00e+00	0	41	0	201326592	56	4924
2026-01-15 23:18:57.18	27.34	19.23	-42.2	-45.0	17.8	0.00e+00	0	42	0	202375168	56	4827
2026-01-15 23:18:58.54	27.44	19.39	-42.3	-45.0	17.7	0.00e+00	0	42	0	205520896	56	4869
2026-01-15 23:18:59.25	27.49	19.48	-42.4	-45.1	17.7	0.00e+00	0	41	0	206569472	56	4892
2026-01-15 23:19:00.60	27.60	19.64	-42.5	-45.2	17.6	0.00e+00	0	42	0	209715200	56	4951
2026-01-15 23:19:01.31	27.65	19.73	-42.6	-45.3	17.5	0.00e+00	0	41	0	210763776	56	5024
2026-01-15 23:19:02.64	27.75	19.89	-42.6	-45.4	17.4	0.00e+00	0	41	0	212860928	56	5075
2026-01-15 23:19:03.35	27.81	19.98	-42.6	-45.4	17.4	0.00e+00	0	42	0	214958080	56	5077
2026-01-15 23:19:04.63	27.91	20.14	-42.7	-45.4	17.4	0.00e+00	0	41	0	217055232	56	5059
2026-01-15 23:19:05.70	27.99	20.27	-42.7	-45.5	17.4	0.00e+00	0	42	0	219152384	56	5108
2026-01-15 23:19:06.55	28.06	20.38	-42.8	-45.5	17.4	0.00e+00	0	42	0	220200960	56	5134
2026-01-15 23:19:07.69	28.15	20.52	-42.8	-45.5	17.3	0.00e+00	0	41	0	222298112	56	5134
2026-01-15 23:19:08.54	28.22	20.63	-42.7	-45.4	17.4	0.00e+00	0	42	0	224395264	56	5064
2026-01-15 23:19:09.68	28.31	20.78	-42.6	-45.2	17.6	0.00e+00	0	42	0	226492416	56	4957
2026-01-15 23:19:10.54	28.38	20.89	-42.6	-45.2	17.6	0.00e+00	0	42	0	227540992	56	4963
2026-01-15 23:19:11.67	28.47	21.03	-42.5	-45.0	17.8	0.00e+00	0	41	0	229638144	56	4869
2026-01-15 23:19:12.53	28.54	21.14	-42.4	-44.9	17.9	0.00e+00	0	42	0	231735296	56	4789
2026-01-15 23:19:13.66	28.64	21.29	-42.5	-45.1	17.7	0.00e+00	0	41	0	233832448	56	4891
2026-01-15 23:19:14.63	28.72	21.41	-42.5	-45.1	17.7	0.00e+00	0	42	0	235929600	56	4882
2026-01-15 23:19:15.62	28.80	21.54	-42.6	-45.2	17.6	0.00e+00	0	42	0	236978176	56	4978
2026-01-15 23:19:16.62	28.89	21.68	-42.6	-45.2	17.6	0.00e+00	0	42	0	239075328	56	4970
2026-01-15 23:19:17.61	28.97	21.81	-42.5	-45.1	17.7	0.00e+00	0	41	0	241172480	56	4888
2026-01-15 23:19:18.89	29.09	21.98	-42.6	-45.2	17.6	0.00e+00	0	42	0	243269632	56	4976
2026-01-15 23:19:19.64	29.15	22.08	-42.6	-45.2	17.6	0.00e+00	0	42	0	245366784	56	4957
2026-01-15 23:19:21.25	29.29	22.29	-42.5	-45.0	17.7	0.00e+00	0	42	0	248512512	56	4865
2026-01-15 23:19:21.82	29.34	22.37	-42.6	-45.3	17.5	0.00e+00	0	41	0	249561088	56	5000
2026-01-15 23:19:23.71	29.52	22.63	-42.3	-44.9	17.9	0.00e+00	0	42	0	252706816	56	4784
2026-01-15 23:19:24.28	29.57	22.70	-42.2	-44.7	18.1	0.00e+00	0	42	0	253755392	56	4687
2026-01-15 23:19:25.98	29.72	22.94	-41.7	-44.2	18.5	0.00e+00	0	41	0	256901120	55	4666
2026-01-15 23:19:26.55	29.78	23.02	-41.8	-44.2	18.4	0.00e+00	0	41	0	257949696	55	4690
2026-01-15 23:19:28.26	29.94	23.25	-41.7	-44.1	18.5	0.00e+00	0	41	0	261095424	55	4616
2026-01-15 23:19:28.83	29.99	23.33	-41.5	-43.9	18.7	0.00e+00	0	42	0	262144000	55	4511
2026-01-15 23:19:30.53	30.15	23.57	-41.6	-44.0	18.7	0.00e+00	0	41	0	265289728	54	4820
2026-01-15 23:19:31.10	30.21	23.65	-41.6	-44.0	18.6	0.00e+00	0	42	0	266338304	54	4834
2026-01-15 23:19:32.96	30.39	23.92	-41.4	-43.8	18.8	0.00e+00	0	42	0	269484032	54	4756
2026-01-15 23:19:33.53	30.45	24.00	-41.5	-43.9	18.7	0.00e+00	0	42	0	270532608	54	4768
2026-01-15 23:19:35.23	30.62	24.24	-41.4	-43.8	18.8	0.00e+00	0	42	0	273678336	54	4753
2026-01-15 23:19:35.93	30.69	24.34	-41.4	-43.8	18.8	0.00e+00	0	41	0	275775488	54	4718
2026-01-15 23:19:37.35	30.83	24.55	-41.5	-44.0	18.7	0.00e+00	0	42	0	277872640	54	4819
2026-01-15 23:19:38.06	30.91	24.65	-41.3	-43.7	18.9	0.00e+00	0	42	0	279969792	54	4658
2026-01-15 23:19:39.34	31.04	24.84	-41.4	-43.8	18.9	0.00e+00	0	42	0	282066944	54	4721
2026-01-15 23:19:40.05	31.11	24.95	-41.4	-43.8	18.9	0.00e+00	0	42	0	283115520	54	4712
2026-01-15 23:19:41.33	31.25	25.14	-41.4	-43.8	18.8	0.00e+00	0	41	0	285212672	54	4735
2026-01-15 23:19:42.05	31.32	25.24	-41.6	-44.1	18.6	0.00e+00	0	42	0	287309824	54	4878
2026-01-15 23:19:43.36	31.46	25.44	-41.5	-43.9	18.7	0.00e+00	0	42	0	289406976	54	4802
2026-01-15 23:19:44.07	31.54	25.55	-41.3	-43.7	18.9	0.00e+00	0	41	0	290455552	54	4664
2026-01-15 23:19:45.35	31.68	25.74	-41.4	-43.8	18.8	0.00e+00	0	42	0	293601280	54	4732
2026-01-15 23:19:46.08	31.76	25.85	-41.4	-43.8	18.7	0.00e+00	0	42	0	294649856	54	4752
2026-01-15 23:19:47.43	31.91	26.06	-41.6	-44.0	18.6	0.00e+00	0	42	0	296747008	54	4839
2026-01-15 23:19:48.15	31.99	26.17	-41.5	-43.9	18.7	0.00e+00	0	42	0	298844160	54	4784
2026-01-15 23:19:49.43	32.14	26.37	-41.7	-44.3	18.3	0.00e+00	0	42	0	300941312	54	4993
2026-01-15 23:19:50.14	32.22	26.48	-41.8	-44.3	18.3	0.00e+00	0	42	0	301989888	54	5038
2026-01-15 23:19:51.42	32.37	26.68	-42.0	-44.6	18.0	0.00e+00	0	41	0	304087040	54	5206
2026-01-15 23:19:52.13	32.45	26.79	-42.2	-44.8	17.8	0.00e+00	0	42	0	306184192	55	5022
2026-01-15 23:19:53.63	32.63	27.02	-42.3	-44.9	17.8	0.00e+00	0	42	0	308281344	55	5068
2026-01-15 23:19:54.34	32.71	27.14	-42.4	-45.0	17.7	0.00e+00	0	42	0	310378496	55	5141
2026-01-15 23:19:55.62	32.87	27.34	-42.4	-45.0	17.7	0.00e+00	0	42	0	312475648	55	5147
2026-01-15 23:19:56.68	33.00	27.51	-42.6	-45.3	17.5	0.00e+00	0	42	0	314572800	55	5283
2026-01-15 23:19:57.53	33.10	27.65	-42.4	-45.0	17.7	0.00e+00	0	42	0	315621376	55	5150
2026-01-15 23:19:58.67	33.24	27.83	-42.3	-44.8	17.8	0.00e+00	0	42	0	317718528	55	5040
2026-01-15 23:19:59.52	33.35	27.97	-42.6	-45.3	17.5	0.00e+00	0	42	0	319815680	55	5317
2026-01-15 23:20:00.66	33.49	28.16	-42.5	-45.1	17.7	0.00e+00	0	42	0	321912832	55	5160
2026-01-15 23:20:01.51	33.60	28.30	-42.5	-45.1	17.6	0.00e+00	0	42	0	322961408	55	5200
2026-01-15 23:20:02.65	33.75	28.49	-42.7	-45.2	17.7	0.00e+00	0	42	0	326107136	56	4972
2026-01-15 23:20:03.50	33.86	28.63	-43.0	-45.7	17.2	0.00e+00	0	42	0	327155712	56	5274
2026-01-15 23:20:04.63	34.01	28.82	-43.1	-45.8	17.1	0.00e+00	0	42	0	329252864	57	5004
2026-01-15 23:20:05.58	34.14	28.97	-43.1	-45.8	17.1	0.00e+00	0	42	0	331350016	57	5021
2026-01-15 23:20:06.75	34.29	29.17	-43.5	-46.4	16.6	0.00e+00	0	41	0	333447168	57	5361
2026-01-15 23:20:07.63	34.41	29.32	-43.7	-46.5	16.5	0.00e+00	0	42	0	334495744	58	5136
2026-01-15 23:20:08.77	34.57	29.52	-43.8	-46.7	16.3	0.00e+00	0	42	0	336592896	58	5244
2026-01-15 23:20:09.69	34.70	29.67	-43.8	-46.8	16.2	0.00e+00	0	42	0	338690048	58	5288
2026-01-15 23:20:10.87	34.86	29.88	-44.0	-47.1	15.9	0.00e+00	0	42	0	340787200	58	5469
2026-01-15 23:20:11.73	34.99	30.03	-44.2	-47.3	15.7	0.00e+00	0	41	0	342884352	59	5324
2026-01-15 23:20:12.86	35.15	30.22	-44.3	-47.5	15.5	0.00e+00	0	41	0	344981504	59	5438
2026-01-15 23:20:13.71	35.27	30.37	-44.6	-47.9	15.1	0.00e+00	0	42	0	346030080	59	5684
2026-01-15 23:20:14.85	35.44	30.57	-44.8	-48.2	14.8	0.00e+00	0	42	0	348127232	60	5556
2026-01-15 23:20:15.70	35.56	30.72	-45.2	-49.0	14.2	1.50e-06	0	41	0	350224384	61	5729
2026-01-15 23:20:16.84	35.74	30.92	-45.0	-48.5	14.5	2.20e-06	0	41	0	352321536	61	5458
2026-01-15 23:20:17.69	35.86	31.07	-45.0	-48.6	14.5	1.50e-06	0	42	0	353370112	61	5482
2026-01-15 23:20:18.83	36.04	31.28	-45.1	-48.8	14.2	3.80e-06	0	42	0	355467264	61	5639
2026-01-15 23:20:19.68	36.17	31.43	-45.1	-48.7	14.4	7.00e-07	0	42	0	357564416	61	5557
2026-01-15 23:20:20.82	36.35	31.64	-45.1	-48.8	14.2	7.00e-07	0	42	0	359661568	61	5615
2026-01-15 23:20:21.67	36.48	31.79	-45.3	-49.1	14.0	7.00e-07	0	42	0	361758720	61	5805
2026-01-15 23:20:22.81	36.66	32.00	-44.9	-48.5	14.6	7.00e-07	0	41	0	363855872	61	5410
2026-01-15 23:20:23.66	36.80	32.16	-44.6	-48.0	15.0	0.00e+00	0	42	0	364904448	61	5157
2026-01-15 23:20:24.80	36.99	32.37	-44.7	-48.2	14.8	0.00e+00	0	41	0	367001600	60	5549
2026-01-15 23:20:25.65	37.13	32.53	-44.4	-47.7	15.4	0.00e+00	0	42	0	369098752	60	5231
2026-01-15 23:20:27.00	37.35	32.78	-44.3	-47.6	15.5	0.00e+00	0	42	0	371195904	60	5160
2026-01-15 23:20:27.71	37.47	32.91	-44.4	-47.6	15.4	0.00e+00	0	42	0	372244480	60	5190
2026-01-15 23:20:29.21	37.73	33.19	-44.5	-47.8	15.3	0.00e+00	0	42	0	375390208	60	5333
2026-01-15 23:20:29.92	37.85	33.33	-44.6	-48.0	15.0	0.00e+00	0	42	0	376438784	60	5453
2026-01-15 23:20:31.20	38.08	33.57	-44.3	-47.5	15.5	0.00e+00	0	42	0	379584512	60	5109
2026-01-15 23:20:31.92	38.20	33.71	-44.0	-47.1	15.8	0.00e+00	0	42	0	380633088	60	4912
2026-01-15 23:20:33.20	38.43	33.95	-44.0	-47.0	16.0	0.00e+00	0	41	0	382730240	59	5148
2026-01-15 23:20:33.91	38.56	34.09	-43.9	-46.9	16.1	0.00e+00	0	41	0	383778816	59	5056
2026-01-15 23:20:35.19	38.80	34.34	-43.9	-46.8	16.2	0.00e+00	0	42	0	386924544	59	5041
2026-01-15 23:20:35.91	38.93	34.48	-43.7	-46.5	16.5	0.00e+00	0	42	0	387973120	59	4869
2026-01-15 23:20:37.20	39.17	34.73	-44.0	-47.1	15.9	0.00e+00	0	41	0	390070272	59	5167
2026-01-15 23:20:37.92	39.31	34.87	-44.1	-47.2	15.8	0.00e+00	0	42	0	392167424	59	5222
2026-01-15 23:20:39.20	39.55	35.13	-44.4	-47.6	15.5	0.00e+00	0	42	0	394264576	59	5520
2026-01-15 23:20:39.99	39.71	35.28	-44.3	-47.5	15.5	0.00e+00	0	42	0	395313152	59	5416
2026-01-15 23:20:41.17	39.94	35.52	-44.4	-47.6	15.3	0.00e+00	0	42	0	397410304	59	5512
2026-01-15 23:20:42.18	40.14	35.72	-44.4	-47.6	15.4	0.00e+00	0	42	0	399507456	60	5212
2026-01-15 23:20:43.35	40.38	35.96	-44.3	-47.5	15.6	0.00e+00	0	42	0	401604608	60	5102
2026-01-15 23:20:44.23	40.56	36.14	-44.2	-47.3	15.8	0.00e+00	0	41	0	403701760	60	5028
2026-01-15 23:20:45.37	40.80	36.37	-44.2	-47.3	15.8	0.00e+00	0	42	0	405798912	60	5001
2026-01-15 23:20:46.29	40.99	36.55	-44.1	-47.2	15.9	0.00e+00	0	42	0	407896064	60	4953
2026-01-15 23:20:47.45	41.24	36.79	-44.1	-47.2	15.9	0.00e+00	0	42	0	409993216	60	4937
2026-01-15 23:20:48.34	41.43	36.98	-44.1	-47.2	15.9	0.00e+00	0	42	0	411041792	59	5248
2026-01-15 23:20:49.48	41.68	37.21	-44.2	-47.2	15.8	0.00e+00	0	42	0	413138944	59	5256
2026-01-15 23:20:50.33	41.86	37.39	-43.8	-46.7	16.4	0.00e+00	0	42	0	415236096	59	4964
2026-01-15 23:20:51.69	42.17	37.67	-44.0	-47.0	16.0	0.00e+00	0	42	0	417333248	59	5145
2026-01-15 23:20:52.40	42.33	37.82	-44.5	-47.8	15.3	0.00e+00	0	41	0	419430400	59	5609
2026-01-15 23:20:53.68	42.62	38.09	-44.1	-47.2	15.8	0.00e+00	0	42	0	421527552	59	5226
2026-01-15 23:20:54.40	42.79	38.24	-44.7	-48.1	15.0	0.00e+00	0	42	0	422576128	60	5516
2026-01-15 23:20:55.69	43.09	38.51	-44.3	-47.5	15.6	0.00e+00	0	42	0	424673280	60	5104
2026-01-15 23:20:56.40	43.26	38.66	-44.4	-47.6	15.5	0.00e+00	0	42	0	426770432	60	5164
2026-01-15 23:20:57.67	43.57	38.94	-44.4	-47.6	15.5	0.00e+00	0	42	0	428867584	60	5172
2026-01-15 23:20:58.48	43.77	39.11	-44.3	-47.5	15.5	0.00e+00	0	42	0	429916160	60	5138
2026-01-15 23:20:59.62	44.05	39.35	-44.1	-47.3	15.8	0.00e+00	0	42	0	432013312	60	4985
2026-01-15 23:21:00.68	44.32	39.58	-44.3	-47.4	15.6	0.00e+00	0	41	0	434110464	60	5091
2026-01-15 23:21:01.72	44.58	39.81	-44.4	-47.7	15.4	0.00e+00	0	42	0	436207616	60	5224
2026-01-15 23:21:02.65	44.82	40.01	-44.5	-47.8	15.4	0.00e+00	0	42	0	438304768	60	5335
2026-01-15 23:21:03.92	45.16	40.29	-44.2	-47.3	15.8	0.00e+00	0	42	0	440401920	60	5001
2026-01-15 23:21:04.75	45.38	40.47	-43.5	-46.3	16.7	0.00e+00	0	42	0	442499072	59	4727
2026-01-15 23:21:06.11	45.74	40.77	-43.1	-45.7	17.3	0.00e+00	0	41	0	444596224	58	4692
2026-01-15 23:21:06.82	45.94	40.92	-42.8	-45.3	17.6	0.00e+00	0	41	0	445644800	57	4756
2026-01-15 23:21:08.10	46.29	41.21	-42.8	-45.3	17.7	0.00e+00	0	42	0	448790528	57	4753
2026-01-15 23:21:08.84	46.50	41.37	-42.9	-45.5	17.4	0.00e+00	0	42	0	449839104	57	4823
2026-01-15 23:21:10.12	46.87	41.65	-43.2	-45.8	17.2	0.00e+00	0	42	0	451936256	57	5038
2026-01-15 23:21:10.85	47.08	41.82	-43.4	-46.2	16.8	0.00e+00	0	42	0	454033408	57	5240
2026-01-15 23:21:12.12	47.45	42.10	-43.5	-46.3	16.7	0.00e+00	0	41	0	456130560	57	5337
2026-01-15 23:21:12.88	47.67	42.27	-43.5	-46.3	16.7	0.00e+00	0	42	0	457179136	58	5016
2026-01-15 23:21:14.17	48.06	42.56	-43.5	-46.3	16.8	0.00e+00	0	42	0	459276288	58	4999
2026-01-15 23:21:14.88	48.28	42.72	-43.7	-46.5	16.6	0.00e+00	0	42	0	461373440	58	5108
2026-01-15 23:21:16.15	48.67	43.00	-43.5	-46.3	16.8	0.00e+00	0	42	0	463470592	58	4996
2026-01-15 23:21:16.97	48.93	43.19	-43.4	-46.1	16.9	0.00e+00	0	42	0	464519168	58	4915
2026-01-15 23:21:18.11	49.29	43.45	-43.6	-46.3	16.8	0.00e+00	0	42	0	466616320	58	5038
2026-01-15 23:21:18.96	49.57	43.64	-43.7	-46.6	16.4	0.00e+00	0	42	0	468713472	58	5195
2026-01-15 23:21:20.10	49.94	43.90	-44.0	-47.1	15.9	0.00e+00	0	42	0	470810624	58	5505
2026-01-15 23:21:20.95	50.22	44.09	-44.2	-47.3	15.7	0.00e+00	0	42	0	472907776	59	5330
2026-01-15 23:21:22.09	50.61	44.35	-44.0	-47.0	16.0	0.00e+00	0	42	0	475004928	59	5114
2026-01-15 23:21:22.94	50.90	44.54	-44.2	-47.3	15.8	0.00e+00	0	42	0	476053504	59	5301
2026-01-15 23:21:24.08	51.29	44.80	-43.9	-46.8	16.2	0.00e+00	0	42	0	478150656	59	5024
2026-01-15 23:21:24.93	51.59	45.00	-43.8	-46.6	16.3	0.00e+00	0	42	0	480247808	59	4912
2026-01-15 23:21:26.11	52.01	45.27	-43.8	-46.7	16.3	0.00e+00	0	42	0	482344960	59	4970
2026-01-15 23:21:26.97	52.32	45.46	-44.3	-47.4	15.7	0.00e+00	0	42	0	483393536	59	5342
2026-01-15 23:21:28.11	52.74	45.72	-44.6	-47.9	15.2	0.00e+00	0	42	0	485490688	60	5391
2026-01-15 23:21:28.96	53.05	45.92	-44.9	-48.4	14.7	0.00e+00	0	42	0	487587840	60	5703
2026-01-15 23:21:30.10	53.48	46.18	-45.1	-48.6	14.5	7.00e-07	0	42	0	489684992	61	5528
2026-01-15 23:21:30.95	53.81	46.37	-45.2	-48.8	14.2	0.00e+00	0	42	0	490733568	61	5656
2026-01-15 23:21:32.09	54.25	46.63	-45.4	-49.1	14.0	3.00e-06	0	42	0	493879296	61	5830
2026-01-15 23:21:32.95	54.59	46.83	-45.9	-50.0	13.2	1.67e-05	0	42	0	494927872	62	6088
2026-01-15 23:21:34.08	55.04	47.08	-46.2	-50.7	12.4	6.17e-05	0	42	0	497025024	63	6250
2026-01-15 23:21:35.04	55.43	47.30	-46.1	-50.7	12.4	1.17e-04	0	42	0	499122176	63	6220
2026-01-15 23:21:36.04	55.84	47.53	-46.4	-51.2	12.0	9.15e-05	0	42	0	500170752	63	6634
2026-01-15 23:21:37.03	56.25	47.75	-46.1	-50.5	12.6	1.50e-04	0	42	0	502267904	63	6110
2026-01-15 23:21:38.03	56.68	47.98	-46.5	-51.4	11.6	3.24e-04	0	42	0	504365056	63	6774
2026-01-15 23:21:39.02	57.10	48.20	-46.2	-50.7	12.3	2.82e-04	0	42	0	506462208	63	6239
2026-01-15 23:21:40.02	57.54	48.43	-45.9	-50.0	13.1	4.42e-05	0	42	0	508559360	63	5765
2026-01-15 23:21:41.01	57.98	48.65	-45.7	-49.6	13.5	1.90e-05	0	42	0	509607936	63	5488
2026-01-15 23:21:42.01	58.42	48.88	-45.2	-48.7	14.5	3.00e-06	0	42	0	511705088	62	5266
2026-01-15 23:21:43.00	58.87	49.10	-45.1	-48.6	14.6	2.20e-06	0	42	0	513802240	62	5194
2026-01-15 23:21:44.00	59.34	49.32	-45.2	-48.8	14.4	0.00e+00	0	42	0	515899392	61	5616
2026-01-15 23:21:45.00	59.80	49.54	-44.7	-48.0	15.1	0.00e+00	0	42	0	517996544	61	5146
2026-01-15 23:21:45.99	60.27	49.76	-44.8	-48.2	15.0	0.00e+00	0	42	0	519045120	61	5235
2026-01-15 23:21:46.98	60.75	49.98	-44.6	-47.9	15.3	0.00e+00	0	42	0	521142272	61	5046
2026-01-15 23:21:47.98	61.24	50.20	-44.6	-47.8	15.3	0.00e+00	0	42	0	523239424	60	5334
2026-01-15 23:21:48.97	61.73	50.41	-44.3	-47.5	15.6	0.00e+00	0	42	0	525336576	60	5126
2026-01-15 23:21:49.97	62.23	50.63	-44.1	-47.2	15.9	0.00e+00	0	42	0	526385152	60	4941
2026-01-15 23:21:50.96	62.74	50.84	-43.6	-46.4	16.7	0.00e+00	0	42	0	528482304	59	4801
2026-01-15 23:21:51.96	63.25	51.06	-43.4	-46.1	17.0	0.00e+00	0	42	0	530579456	58	4920
2026-01-15 23:21:52.95	63.77	51.27	-43.7	-46.5	16.6	0.00e+00	0	42	0	532676608	58	5126
2026-01-15 23:21:53.95	64.31	51.48	-43.9	-46.8	16.3	0.00e+00	0	42	0	534773760	58	5290
2026-01-15 23:21:54.94	64.84	51.68	-43.6	-46.5	16.6	0.00e+00	0	42	0	535822336	58	5116
2026-01-15 23:21:55.93	65.38	51.89	-43.5	-46.3	16.7	7.00e-07	0	42	0	537919488	58	5032
2026-01-15 23:21:56.96	65.95	52.10	-43.4	-46.1	17.0	0.00e+00	0	42	0	540016640	58	4899
2026-01-15 23:21:57.96	66.51	52.30	-42.9	-45.5	17.6	0.00e+00	0	42	0	542113792	57	4822
2026-01-15 23:21:58.95	67.08	52.50	-42.4	-44.8	18.2	0.00e+00	0	42	0	544210944	56	4730
2026-01-15 23:21:59.94	67.65	52.70	-42.1	-44.5	18.4	0.00e+00	0	42	0	545259520	56	4598
2026-01-15 23:22:00.94	68.23	52.90	-42.3	-44.8	18.0	0.00e+00	0	42	0	547356672	55	4994
2026-01-15 23:22:01.94	68.83	53.09	-42.9	-45.5	17.6	0.00e+00	0	42	0	549453824	56	5123
2026-01-15 23:22:02.93	69.42	53.29	-42.7	-45.2	17.8	0.00e+00	0	42	0	551550976	56	4977
2026-01-15 23:22:03.93	70.03	53.48	-42.2	-44.5	18.4	0.00e+00	0	42	0	552599552	56	4569
2026-01-15 23:22:04.92	70.64	53.66	-42.0	-44.3	18.6	0.00e+00	0	42	0	554696704	55	4724
2026-01-15 23:22:05.92	71.27	53.85	-42.4	-44.9	17.9	0.00e+00	0	42	0	556793856	55	5076
2026-01-15 23:22:06.91	71.89	54.03	-43.1	-45.8	17.3	0.00e+00	0	42	0	558891008	56	5305
2026-01-15 23:22:07.91	72.53	54.21	-42.5	-45.0	18.0	0.00e+00	0	42	0	560988160	56	4863
2026-01-15 23:22:08.90	73.18	54.38	-42.2	-44.6	18.4	0.00e+00	0	42	0	562036736	56	4601
2026-01-15 23:22:09.90	73.83	54.56	-42.3	-44.7	18.3	0.00e+00	0	42	0	564133888	56	4693
2026-01-15 23:22:10.89	74.49	54.73	-42.8	-45.4	17.7	0.00e+00	0	42	0	566231040	56	5061
2026-01-15 23:22:11.89	75.16	54.89	-42.4	-44.9	18.1	0.00e+00	0	42	0	568328192	56	4799
2026-01-15 23:22:12.88	75.83	55.06	-42.0	-44.4	18.6	0.00e+00	0	42	0	569376768	56	4523
2026-01-15 23:22:13.92	76.55	55.22	-41.4	-43.7	19.0	0.00e+00	0	42	0	571473920	54	4672
2026-01-15 23:22:14.93	77.25	55.38	-42.0	-44.4	18.4	0.00e+00	0	42	0	573571072	54	5085
2026-01-15 23:22:15.93	77.96	55.53	-42.2	-44.6	18.2	0.00e+00	0	42	0	575668224	55	4925
2026-01-15 23:22:16.92	78.66	55.68	-42.3	-44.7	18.1	0.00e+00	0	42	0	577765376	55	4972
2026-01-15 23:22:17.91	79.37	55.83	-42.2	-44.7	18.2	0.00e+00	0	42	0	578813952	55	4944
2026-01-15 23:22:18.91	80.10	55.97	-41.7	-44.0	18.8	0.00e+00	0	42	0	580911104	55	4594
2026-01-15 23:22:19.90	80.82	56.10	-41.5	-43.8	19.0	0.00e+00	0	42	0	583008256	54	4715
2026-01-15 23:22:20.90	81.56	56.24	-42.4	-45.0	17.9	0.00e+00	0	42	0	585105408	55	5103
2026-01-15 23:22:21.89	82.30	56.36	-43.1	-45.9	17.2	0.00e+00	0	42	0	587202560	57	5068
2026-01-15 23:22:22.89	83.06	56.49	-43.0	-45.7	17.4	0.00e+00	0	42	0	588251136	57	4954
2026-01-15 23:22:23.88	83.81	56.61	-42.9	-45.7	17.3	0.00e+00	0	42	0	590348288	57	4939
2026-01-15 23:22:24.87	84.57	56.72	-43.1	-46.0	17.2	0.00e+00	0	42	0	592445440	57	5111
2026-01-15 23:22:25.87	85.34	56.83	-43.7	-46.7	16.3	0.00e+00	0	42	0	594542592	58	5260
2026-01-15 23:22:26.86	86.11	56.94	-43.6	-46.6	16.5	0.00e+00	0	42	0	595591168	58	5184
2026-01-15 23:22:27.85	86.89	57.04	-43.2	-45.9	17.2	0.00e+00	0	42	0	597688320	58	4774
2026-01-15 23:22:28.88	87.70	57.14	-43.5	-46.4	16.7	0.00e+00	0	42	0	599785472	58	5046
2026-01-15 23:22:29.92	88.53	57.23	-44.3	-47.5	15.6	0.00e+00	0	42	0	601882624	59	5437
2026-01-15 23:22:30.89	89.31	57.32	-44.3	-47.6	15.5	0.00e+00	0	42	0	603979776	59	5477
2026-01-15 23:22:31.94	90.16	57.40	-44.5	-47.9	15.3	0.00e+00	0	42	0	606076928	60	5348
2026-01-15 23:22:32.86	90.90	57.47	-44.8	-48.5	14.7	0.00e+00	0	42	0	607125504	60	5766
2026-01-15 23:22:33.87	91.73	57.54	-45.8	-50.2	13.1	3.00e-06	0	42	0	609222656	62	6241
2026-01-15 23:22:34.86	92.54	57.61	-45.4	-49.3	13.8	1.67e-05	0	42	0	611319808	62	5619
2026-01-15 23:22:35.86	93.36	57.67	-44.8	-48.2	14.9	0.00e+00	0	42	0	612368384	61	5254
2026-01-15 23:22:36.86	94.19	57.72	-45.0	-48.5	14.5	0.00e+00	0	42	0	614465536	61	5443
2026-01-15 23:22:37.85	95.01	57.77	-45.6	-49.7	13.6	2.20e-06	0	42	0	616562688	61	6248
2026-01-15 23:22:38.85	95.84	57.81	-45.2	-49.0	14.0	1.29e-05	0	42	0	618659840	62	5441
2026-01-15 23:22:39.84	96.67	57.85	-44.8	-48.3	14.8	7.00e-07	0	42	0	620756992	61	5338
2026-01-15 23:22:40.84	97.51	57.88	-44.2	-47.3	15.8	0.00e+00	0	42	0	621805568	60	5031
2026-01-15 23:22:41.83	98.34	57.91	-44.7	-47.9	15.2	0.00e+00	0	42	0	623902720	60	5393
2026-01-15 23:22:42.83	99.18	57.93	-44.8	-48.1	15.1	0.00e+00	0	42	0	625999872	60	5494
2026-01-15 23:22:43.82	100.01	57.94	-44.8	-48.2	15.0	7.00e-07	0	42	0	628097024	60	5548
2026-01-15 23:22:44.82	100.86	57.95	-44.3	-47.4	15.9	0.00e+00	0	42	0	630194176	60	5065
2026-01-15 23:22:45.82	101.70	57.96	-43.9	-46.7	16.4	0.00e+00	0	42	0	631242752	59	4971
2026-01-15 23:22:46.81	102.53	57.95	-43.9	-46.7	16.4	0.00e+00	0	42	0	633339904	59	4974
2026-01-15 23:22:47.81	103.38	57.95	-43.5	-46.2	16.9	0.00e+00	0	42	0	635437056	58	4956
2026-01-15 23:22:48.80	104.21	57.93	-42.3	-44.7	18.2	0.00e+00	0	42	0	637534208	56	4679
2026-01-15 23:22:50.00	105.22	57.91	-41.5	-43.7	19.1	0.00e+00	0	42	0	639631360	54	4663
2026-01-15 23:22:50.86	105.94	57.89	-42.4	-44.8	18.1	0.00e+00	0	42	0	640679936	55	5033
2026-01-15 23:22:51.99	106.89	57.85	-43.5	-46.1	17.0	0.00e+00	0	42	0	642777088	57	5209
2026-01-15 23:22:52.85	107.61	57.82	-43.2	-45.8	17.2	0.00e+00	0	42	0	644874240	57	5002
2026-01-15 23:22:53.98	108.55	57.77	-43.1	-45.8	17.2	0.00e+00	0	42	0	646971392	57	4998
2026-01-15 23:22:54.83	109.26	57.73	-43.8	-46.8	16.3	0.00e+00	0	42	0	648019968	58	5311
2026-01-15 23:22:55.97	110.20	57.67	-44.1	-47.2	15.9	0.00e+00	0	42	0	650117120	59	5278
2026-01-15 23:22:56.82	110.90	57.62	-44.5	-47.7	15.5	0.00e+00	0	42	0	652214272	59	5568
2026-01-15 23:22:57.96	111.84	57.55	-44.2	-47.2	16.0	0.00e+00	0	42	0	654311424	60	4976
2026-01-15 23:22:58.81	112.53	57.49	-44.2	-47.3	15.9	0.00e+00	0	42	0	656408576	60	5005
2026-01-15 23:22:59.95	113.46	57.40	-43.8	-46.7	16.4	0.00e+00	0	42	0	658505728	59	4965
2026-01-15 23:23:00.80	114.14	57.33	-43.6	-46.3	16.9	0.00e+00	0	42	0	659554304	59	4740
2026-01-15 23:23:02.00	115.11	57.23	-42.5	-44.9	18.1	0.00e+00	0	42	0	661651456	57	4505
2026-01-15 23:23:02.86	115.79	57.15	-42.3	-44.7	18.3	0.00e+00	0	42	0	663748608	56	4670
2026-01-15 23:23:03.99	116.69	57.04	-43.3	-46.0	17.2	0.00e+00	0	42	0	665845760	57	5124
2026-01-15 23:23:04.84	117.35	56.96	-43.9	-46.8	16.3	0.00e+00	0	42	0	666894336	58	5335
2026-01-15 23:23:05.98	118.24	56.84	-43.8	-46.6	16.5	0.00e+00	0	42	0	668991488	58	5195
2026-01-15 23:23:06.84	118.91	56.74	-43.4	-46.1	16.9	0.00e+00	0	42	0	671088640	58	4925
2026-01-15 23:23:07.97	119.78	56.61	-42.7	-45.2	17.8	0.00e+00	0	42	0	673185792	57	4672
2026-01-15 23:23:08.83	120.43	56.51	-42.8	-45.3	17.8	0.00e+00	0	42	0	674234368	56	5015
2026-01-15 23:23:09.96	121.29	56.37	-43.3	-46.0	17.1	0.00e+00	0	42	0	676331520	57	5147
2026-01-15 23:23:10.82	121.93	56.26	-43.1	-45.8	17.3	0.00e+00	0	42	0	678428672	57	4986
2026-01-15 23:23:11.95	122.77	56.10	-42.4	-44.9	18.2	0.00e+00	0	42	0	680525824	56	4772
2026-01-15 23:23:12.80	123.39	55.99	-41.8	-44.1	18.7	0.00e+00	0	42	0	682622976	55	4627
2026-01-15 23:23:13.94	124.22	55.83	-42.0	-44.3	18.5	0.00e+00	0	42	0	684720128	55	4744
2026-01-15 23:23:14.80	124.84	55.70	-41.6	-43.8	19.0	0.00e+00	0	42	0	685768704	54	4731
2026-01-15 23:23:15.93	125.65	55.53	-41.2	-43.3	19.3	0.00e+00	0	42	0	687865856	54	4476
2026-01-15 23:23:16.78	126.25	55.40	-41.2	-43.3	19.4	0.00e+00	0	42	0	689963008	54	4489
2026-01-15 23:23:17.97	127.08	55.22	-40.6	-42.8	20.0	0.00e+00	0	42	0	692060160	53	4450
2026-01-15 23:23:18.82	127.66	55.08	-40.3	-42.4	20.3	0.00e+00	0	42	0	693108736	52	4528
2026-01-15 23:23:19.96	128.44	54.89	-40.9	-43.1	19.6	0.00e+00	0	42	0	695205888	52	4899
2026-01-15 23:23:20.81	129.01	54.75	-41.1	-43.4	19.3	0.00e+00	0	42	0	697303040	53	4761
2026-01-15 23:23:21.95	129.77	54.56	-41.3	-43.7	19.1	0.00e+00	0	42	0	699400192	53	4940
2026-01-15 23:23:22.80	130.33	54.41	-41.2	-43.6	19.2	0.00e+00	0	42	0	700448768	53	4883
2026-01-15 23:23:23.94	131.07	54.21	-41.8	-44.2	18.6	0.00e+00	0	42	0	702545920	54	4968
2026-01-15 23:23:24.79	131.62	54.05	-41.5	-43.7	19.0	0.00e+00	0	42	0	704643072	54	4694
2026-01-15 23:23:25.92	132.34	53.85	-41.5	-43.7	19.0	0.00e+00	0	42	0	706740224	54	4699
2026-01-15 23:23:26.78	132.87	53.69	-42.1	-44.6	18.3	0.00e+00	0	42	0	708837376	54	5160
2026-01-15 23:23:27.92	133.58	53.47	-42.8	-45.4	17.6	0.00e+00	0	42	0	710934528	56	5061
2026-01-15 23:23:28.77	134.10	53.31	-42.6	-45.1	17.8	0.00e+00	0	42	0	711983104	56	4880
2026-01-15 23:23:29.90	134.78	53.09	-43.1	-45.7	17.4	0.00e+00	0	42	0	714080256	56	5256
2026-01-15 23:23:30.75	135.29	52.93	-44.0	-46.9	16.2	0.00e+00	0	42	0	716177408	58	5399
2026-01-15 23:23:31.89	135.96	52.70	-45.0	-48.5	14.7	0.00e+00	0	42	0	718274560	60	5783
2026-01-15 23:23:32.74	136.45	52.53	-45.1	-48.8	14.4	3.00e-06	0	42	0	719323136	61	5645
2026-01-15 23:23:33.97	137.15	52.28	-43.9	-46.8	16.3	0.00e+00	0	42	0	721420288	59	5041
2026-01-15 23:23:34.83	137.63	52.11	-42.5	-45.0	18.0	0.00e+00	0	42	0	723517440	57	4580
2026-01-15 23:23:36.03	138.30	51.86	-42.8	-45.4	17.6	0.00e+00	0	42	0	725614592	56	5048
2026-01-15 23:23:36.88	138.77	51.68	-43.9	-46.7	16.5	0.00e+00	0	42	0	727711744	58	5247
2026-01-15 23:23:38.08	139.41	51.43	-44.4	-47.6	15.6	0.00e+00	0	42	0	729808896	59	5481
2026-01-15 23:23:38.93	139.87	51.25	-44.5	-47.6	15.4	0.00e+00	0	42	0	730857472	59	5525
2026-01-15 23:23:40.13	140.50	50.99	-46.2	-50.5	12.7	3.80e-06	0	42	0	732954624	62	6456
2026-01-15 23:23:40.98	140.94	50.81	-46.4	-50.9	12.2	5.16e-04	0	42	0	735051776	64	6033
2026-01-15 23:23:42.12	141.52	50.56	-45.8	-49.6	13.4	2.46e-04	0	42	0	737148928	63	5519
2026-01-15 23:23:42.97	141.94	50.38	-44.8	-48.1	15.0	3.00e-06	0	42	0	738197504	61	5210
2026-01-15 23:23:44.11	142.51	50.13	-44.5	-47.8	15.4	0.00e+00	0	42	0	741343232	60	5287
2026-01-15 23:23:44.96	142.92	49.94	-44.5	-47.7	15.5	0.00e+00	0	42	0	742391808	60	5250
2026-01-15 23:23:46.10	143.47	49.69	-44.1	-47.1	16.1	0.00e+00	0	42	0	744488960	60	4875
2026-01-15 23:23:46.95	143.88	49.50	-43.7	-46.5	16.6	0.00e+00	0	42	0	746586112	59	4818
2026-01-15 23:23:48.09	144.41	49.25	-44.0	-46.9	16.2	0.00e+00	0	42	0	748683264	58	5393
2026-01-15 23:23:48.94	144.80	49.06	-44.8	-48.2	15.1	0.00e+00	0	42	0	749731840	60	5536
2026-01-15 23:23:50.08	145.32	48.80	-46.1	-50.2	13.1	1.75e-05	0	42	0	751828992	62	6208
2026-01-15 23:23:51.18	145.81	48.56	-46.1	-50.2	12.9	5.34e-05	0	42	0	753926144	63	5918
2026-01-15 23:23:52.21	146.27	48.32	-45.8	-49.9	13.4	1.44e-05	0	42	0	756023296	63	5687
2026-01-15 23:23:53.21	146.70	48.10	-45.1	-48.7	14.5	2.20e-06	0	42	0	758120448	62	5227
2026-01-15 23:23:54.20	147.12	47.87	-44.6	-47.9	15.4	0.00e+00	0	42	0	760217600	60	5374
2026-01-15 23:23:55.20	147.54	47.64	-43.4	-46.1	17.0	0.00e+00	0	42	0	761266176	58	4897
2026-01-15 23:23:56.19	147.96	47.42	-43.7	-46.5	16.7	0.00e+00	0	42	0	763363328	58	5141
2026-01-15 23:23:57.50	148.49	47.12	-44.8	-48.3	14.9	0.00e+00	0	42	0	765460480	60	5608
2026-01-15 23:23:58.22	148.78	46.95	-45.4	-49.1	14.1	0.00e+00	0	42	0	767557632	61	5848
2026-01-15 23:23:59.50	149.29	46.66	-44.4	-47.7	15.6	1.50e-06	0	42	0	769654784	60	5223
2026-01-15 23:24:00.22	149.57	46.50	-43.7	-46.5	16.6	0.00e+00	0	42	0	770703360	59	4845
2026-01-15 23:24:01.50	150.07	46.20	-43.4	-46.1	17.0	0.00e+00	0	42	0	773849088	58	4915
2026-01-15 23:24:02.21	150.34	46.04	-44.2	-47.1	16.0	0.00e+00	0	42	0	774897664	58	5525
2026-01-15 23:24:03.49	150.82	45.75	-44.5	-47.7	15.5	0.00e+00	0	42	0	776994816	60	5225
2026-01-15 23:24:04.20	151.08	45.58	-43.7	-46.5	16.6	0.00e+00	0	42	0	778043392	59	4823
2026-01-15 23:24:05.48	151.55	45.29	-43.0	-45.5	17.5	0.00e+00	0	42	0	781189120	57	4839
2026-01-15 23:24:06.20	151.80	45.13	-42.6	-45.1	17.9	0.00e+00	0	42	0	782237696	57	4612
2026-01-15 23:24:07.51	152.27	44.83	-42.6	-45.1	17.8	0.00e+00	0	42	0	784334848	57	4610
2026-01-15 23:24:08.23	152.52	44.66	-43.3	-46.0	17.1	0.00e+00	0	42	0	786432000	57	5128
2026-01-15 23:24:09.51	152.96	44.37	-44.9	-48.2	14.9	0.00e+00	0	42	0	788529152	60	5577
2026-01-15 23:24:10.22	153.20	44.21	-45.5	-49.3	13.9	4.50e-06	0	42	0	789577728	61	5945
2026-01-15 23:24:11.62	153.67	43.89	-46.1	-50.4	12.8	8.08e-05	0	42	0	792723456	63	6054
2026-01-15 23:24:12.33	153.90	43.73	-45.5	-49.3	13.8	6.02e-05	0	42	0	793772032	63	5309
2026-01-15 23:24:13.61	154.32	43.43	-43.5	-46.2	16.8	0.00e+00	0	42	0	795869184	59	4685
2026-01-15 23:24:14.67	154.66	43.19	-42.7	-45.3	17.7	0.00e+00	0	42	0	797966336	57	4718
2026-01-15 23:24:15.85	155.03	42.93	-44.0	-46.9	16.2	0.00e+00	0	42	0	800063488	58	5398
2026-01-15 23:24:16.85	155.34	42.70	-44.8	-48.1	15.0	0.00e+00	0	42	0	802160640	60	5513
2026-01-15 23:24:17.84	155.64	42.48	-44.6	-47.8	15.3	0.00e+00	0	42	0	804257792	60	5339
2026-01-15 23:24:18.84	155.94	42.25	-44.0	-46.9	16.1	0.00e+00	0	42	0	806354944	60	4800
2026-01-15 23:24:19.83	156.24	42.03	-43.4	-46.0	17.0	0.00e+00	0	42	0	807403520	58	4861
2026-01-15 23:24:20.83	156.53	41.80	-43.2	-45.8	17.1	0.00e+00	0	42	0	809500672	58	4724
2026-01-15 23:24:21.83	156.82	41.58	-43.7	-46.5	16.6	0.00e+00	0	42	0	811597824	58	5119
2026-01-15 23:24:22.82	157.10	41.36	-44.0	-47.0	15.9	0.00e+00	0	42	0	813694976	58	5455
2026-01-15 23:24:23.82	157.38	41.14	-44.7	-48.1	15.1	0.00e+00	0	42	0	815792128	60	5468
2026-01-15 23:24:24.81	157.66	40.92	-45.4	-49.0	14.1	7.00e-07	0	42	0	816840704	61	5781
2026-01-15 23:24:25.81	157.93	40.70	-45.7	-49.5	13.6	4.50e-06	0	42	0	818937856	62	5786
2026-01-15 23:24:26.80	158.20	40.48	-45.5	-49.3	13.8	9.10e-06	0	42	0	821035008	62	5632
2026-01-15 23:24:27.83	158.47	40.25	-44.1	-47.1	16.0	0.00e+00	0	42	0	823132160	60	4877
2026-01-15 23:24:28.86	158.75	40.03	-43.4	-46.1	16.8	0.00e+00	0	42	0	825229312	58	4894
2026-01-15 23:24:29.85	159.00	39.81	-43.0	-45.6	17.4	0.00e+00	0	42	0	826277888	58	4619
2026-01-15 23:24:30.94	159.28	39.57	-43.3	-46.0	17.0	0.00e+00	0	42	0	828375040	57	5115
2026-01-15 23:24:31.83	159.51	39.38	-44.1	-47.0	16.1	0.00e+00	0	42	0	830472192	58	5457
2026-01-15 23:24:32.97	159.79	39.13	-45.0	-48.6	14.6	7.00e-07	0	42	0	832569344	61	5475
2026-01-15 23:24:33.82	160.00	38.95	-45.2	-48.9	14.2	2.20e-06	0	42	0	833617920	61	5692
2026-01-15 23:24:34.95	160.28	38.71	-44.6	-47.9	15.2	7.00e-07	0	42	0	835715072	61	5043
2026-01-15 23:24:35.81	160.48	38.52	-44.0	-46.9	16.1	0.00e+00	0	42	0	837812224	59	5090
2026-01-15 23:24:36.94	160.75	38.28	-43.1	-45.7	17.3	0.00e+00	0	42	0	839909376	58	4681
2026-01-15 23:24:37.79	160.95	38.10	-42.7	-45.2	17.8	0.00e+00	0	42	0	842006528	57	4655
2026-01-15 23:24:38.93	161.21	37.86	-43.0	-45.6	17.4	0.00e+00	0	42	0	844103680	57	4875
2026-01-15 23:24:39.78	161.41	37.68	-43.5	-46.2	16.8	0.00e+00	0	42	0	845152256	57	5251
2026-01-15 23:24:40.92	161.66	37.44	-44.4	-47.5	15.7	0.00e+00	0	42	0	847249408	59	5421
2026-01-15 23:24:41.77	161.85	37.26	-45.0	-48.5	14.6	0.00e+00	0	42	0	849346560	60	5756
2026-01-15 23:24:43.00	162.12	37.01	-45.8	-49.9	13.3	1.98e-05	0	42	0	851443712	62	6011
2026-01-15 23:24:43.86	162.31	36.83	-45.7	-49.8	13.3	2.36e-05	0	42	0	852492288	62	5988
2026-01-15 23:24:44.99	162.55	36.60	-45.1	-48.7	14.3	6.80e-06	0	42	0	854589440	62	5270
2026-01-15 23:24:45.85	162.73	36.42	-44.6	-48.0	15.1	7.00e-07	0	42	0	856686592	61	5115
2026-01-15 23:24:46.99	162.97	36.19	-43.9	-46.9	16.2	0.00e+00	0	42	0	858783744	59	5057
2026-01-15 23:24:47.84	163.15	36.01	-43.1	-45.8	17.2	0.00e+00	0	42	0	859832320	58	4713
2026-01-15 23:24:48.98	163.38	35.78	-43.2	-45.9	17.1	0.00e+00	0	42	0	861929472	58	4772
2026-01-15 23:24:49.83	163.55	35.61	-43.7	-46.5	16.5	0.00e+00	0	42	0	864026624	58	5136
2026-01-15 23:24:50.97	163.78	35.38	-44.8	-48.1	15.1	0.00e+00	0	42	0	866123776	60	5492
2026-01-15 23:24:51.82	163.94	35.21	-45.2	-48.7	14.4	0.00e+00	0	42	0	868220928	60	5920
2026-01-15 23:24:52.95	164.16	34.99	-46.0	-50.1	13.0	3.80e-06	0	42	0	870318080	62	6183
2026-01-15 23:24:53.81	164.33	34.82	-46.4	-50.9	12.1	7.17e-05	0	42	0	871366656	63	6381
2026-01-15 23:24:54.94	164.54	34.59	-45.5	-49.4	13.6	3.89e-05	0	42	0	873463808	63	5372
2026-01-15 23:24:55.80	164.70	34.42	-45.2	-48.9	14.2	2.20e-06	0	42	0	875560960	62	5359
2026-01-15 23:24:56.94	164.92	34.20	-44.1	-47.2	15.9	0.00e+00	0	42	0	877658112	60	4954
2026-01-15 23:24:57.79	165.07	34.03	-43.7	-46.6	16.3	0.00e+00	0	42	0	878706688	59	4918
2026-01-15 23:24:58.96	165.28	33.81	-43.6	-46.5	16.6	0.00e+00	0	42	0	880803840	58	5112
2026-01-15 23:24:59.81	165.44	33.64	-43.7	-46.6	16.5	0.00e+00	0	42	0	882900992	58	5168
2026-01-15 23:25:00.98	165.64	33.42	-43.3	-46.1	16.8	0.00e+00	0	42	0	884998144	58	4908
2026-01-15 23:25:01.83	165.79	33.26	-43.6	-46.5	16.6	0.00e+00	0	42	0	886046720	58	5102
2026-01-15 23:25:02.97	165.99	33.04	-44.3	-47.5	15.6	0.00e+00	0	42	0	889192448	59	5403
2026-01-15 23:25:03.82	166.13	32.88	-44.2	-47.3	15.7	0.00e+00	0	42	0	890241024	59	5338
2026-01-15 23:25:04.96	166.33	32.66	-44.6	-47.9	15.2	0.00e+00	0	42	0	892338176	59	5671
2026-01-15 23:25:05.81	166.47	32.50	-44.9	-48.3	14.7	0.00e+00	0	42	0	894435328	60	5650
2026-01-15 23:25:06.95	166.66	32.29	-44.4	-47.8	15.3	0.00e+00	0	42	0	896532480	60	5282
2026-01-15 23:25:07.80	166.80	32.13	-44.5	-47.8	15.2	0.00e+00	0	42	0	897581056	60	5326
2026-01-15 23:25:08.94	166.98	31.92	-44.2	-47.3	15.8	0.00e+00	0	42	0	899678208	60	5009
2026-01-15 23:25:09.79	167.12	31.77	-44.0	-47.1	16.0	0.00e+00	0	42	0	901775360	60	4876
2026-01-15 23:25:10.93	167.30	31.56	-44.0	-47.1	16.0	0.00e+00	0	42	0	903872512	59	5170
2026-01-15 23:25:11.78	167.43	31.40	-44.2	-47.4	15.7	0.00e+00	0	42	0	904921088	59	5351
2026-01-15 23:25:12.92	167.61	31.20	-44.3	-47.5	15.6	0.00e+00	0	42	0	907018240	59	5405
2026-01-15 23:25:13.77	167.74	31.04	-44.3	-47.5	15.5	0.00e+00	0	42	0	909115392	59	5457
2026-01-15 23:25:14.92	167.91	30.84	-44.4	-47.6	15.4	0.00e+00	0	42	0	911212544	59	5497
2026-01-15 23:25:15.78	168.04	30.68	-44.2	-47.4	15.5	0.00e+00	0	42	0	912261120	59	5380
2026-01-15 23:25:16.98	168.22	30.47	-44.2	-47.3	15.7	0.00e+00	0	42	0	915406848	59	5339
2026-01-15 23:25:17.83	168.34	30.32	-44.2	-47.5	15.5	0.00e+00	0	42	0	916455424	59	5405
2026-01-15 23:25:18.97	168.51	30.12	-43.6	-46.5	16.4	0.00e+00	0	42	0	918552576	59	4870
2026-01-15 23:25:19.82	168.63	29.97	-43.7	-46.6	16.3	0.00e+00	0	42	0	920649728	59	4923
2026-01-15 23:25:21.08	168.81	29.75	-43.4	-46.2	16.8	0.00e+00	0	42	0	922746880	58	4935
2026-01-15 23:25:21.89	168.92	29.61	-43.4	-46.2	16.8	0.00e+00	0	42	0	923795456	58	4949
2026-01-15 23:25:23.10	169.09	29.40	-43.7	-46.5	16.5	0.00e+00	0	42	0	926941184	58	5145
2026-01-15 23:25:23.95	169.20	29.26	-43.5	-46.3	16.6	0.00e+00	0	42	0	927989760	58	5030
2026-01-15 23:25:25.13	169.37	29.06	-43.5	-46.3	16.7	0.00e+00	0	42	0	930086912	58	4996
2026-01-15 23:25:25.98	169.48	28.91	-43.6	-46.4	16.5	0.00e+00	0	42	0	932184064	58	5094
2026-01-15 23:25:27.12	169.63	28.72	-43.5	-46.3	16.6	0.00e+00	0	42	0	934281216	58	5039
2026-01-15 23:25:28.41	169.80	28.50	-43.6	-46.5	16.5	0.00e+00	0	42	0	936378368	58	5124
2026-01-15 23:25:29.12	169.89	28.39	-43.8	-46.7	16.3	0.00e+00	0	42	0	937426944	58	5229
2026-01-15 23:25:30.40	170.06	28.17	-43.7	-46.6	16.4	0.00e+00	0	42	0	940572672	58	5161
2026-01-15 23:25:31.13	170.15	28.05	-43.8	-46.7	16.3	0.00e+00	0	42	0	941621248	58	5239
2026-01-15 23:25:32.44	170.32	27.84	-44.1	-47.0	15.9	0.00e+00	0	42	0	943718400	58	5456
2026-01-15 23:25:33.15	170.41	27.72	-43.8	-46.7	16.3	0.00e+00	0	42	0	945815552	58	5222
2026-01-15 23:25:34.44	170.57	27.51	-44.0	-46.9	16.1	0.00e+00	0	42	0	947912704	58	5360
2026-01-15 23:25:35.15	170.65	27.40	-43.9	-46.8	16.1	0.00e+00	0	42	0	948961280	58	5290
2026-01-15 23:25:36.44	170.81	27.19	-43.2	-45.9	17.0	0.00e+00	0	42	0	951058432	58	4786
2026-01-15 23:25:37.17	170.90	27.07	-43.6	-46.5	16.5	0.00e+00	0	42	0	953155584	58	5107
2026-01-15 23:25:38.46	171.05	26.87	-43.5	-46.4	16.5	0.00e+00	0	42	0	955252736	58	5048
2026-01-15 23:25:39.17	171.13	26.75	-43.5	-46.4	16.6	0.00e+00	0	42	0	956301312	58	5043
2026-01-15 23:25:40.71	171.31	26.51	-43.9	-47.0	15.9	0.00e+00	0	42	0	959447040	58	5419
2026-01-15 23:25:41.42	171.40	26.40	-43.7	-46.6	16.3	0.00e+00	0	42	0	960495616	58	5202
2026-01-15 23:25:42.70	171.54	26.20	-44.0	-47.0	15.9	0.00e+00	0	42	0	963641344	58	5464
2026-01-15 23:25:43.41	171.62	26.09	-43.9	-47.0	15.9	0.00e+00	0	42	0	964689920	58	5437
2026-01-15 23:25:44.69	171.77	25.89	-43.8	-46.7	16.3	0.00e+00	0	42	0	966787072	58	5247
2026-01-15 23:25:45.42	171.85	25.78	-43.5	-46.4	16.5	0.00e+00	0	42	0	967835648	58	5067
2026-01-15 23:25:46.70	171.99	25.59	-43.2	-45.9	17.0	0.00e+00	0	42	0	970981376	58	4766
2026-01-15 23:25:47.42	172.07	25.48	-43.1	-45.8	17.1	0.00e+00	0	42	0	972029952	58	4752
2026-01-15 23:25:48.70	172.21	25.28	-42.9	-45.5	17.4	0.00e+00	0	42	0	974127104	57	4860
2026-01-15 23:25:49.42	172.28	25.17	-42.6	-45.1	17.7	0.00e+00	0	42	0	976224256	57	4644
2026-01-15 23:25:50.70	172.42	24.98	-42.4	-44.9	17.9	0.00e+00	0	42	0	978321408	56	4798
2026-01-15 23:25:51.48	172.50	24.87	-42.3	-44.7	18.1	0.00e+00	0	42	0	979369984	56	4697
2026-01-15 23:25:52.76	172.63	24.68	-42.3	-44.8	18.0	0.00e+00	0	42	0	982515712	56	4722
2026-01-15 23:25:53.47	172.71	24.57	-42.2	-44.6	18.2	0.00e+00	0	42	0	983564288	56	4607
2026-01-15 23:25:54.75	172.84	24.38	-42.5	-45.1	17.8	0.00e+00	0	42	0	985661440	56	4872
2026-01-15 23:25:55.45	172.91	24.28	-42.7	-45.2	17.6	0.00e+00	0	42	0	986710016	56	4961
2026-01-15 23:25:56.74	173.04	24.09	-42.8	-45.5	17.4	0.00e+00	0	42	0	989855744	56	5113
2026-01-15 23:25:57.45	173.11	23.99	-42.9	-45.6	17.2	0.00e+00	0	42	0	990904320	56	5218
2026-01-15 23:25:58.72	173.24	23.81	-43.1	-45.9	16.9	0.00e+00	0	42	0	993001472	56	5385
2026-01-15 23:25:59.44	173.31	23.70	-43.4	-46.3	16.6	0.00e+00	0	42	0	994050048	57	5282
2026-01-15 23:26:00.78	173.44	23.51	-43.4	-46.3	16.6	0.00e+00	0	42	0	997195776	57	5305
2026-01-15 23:26:01.49	173.50	23.41	-43.4	-46.3	16.6	0.00e+00	0	42	0	998244352	57	5314
2026-01-15 23:26:02.84	173.63	23.22	-43.5	-46.5	16.4	0.00e+00	0	42	0	1001390080	57	5415
2026-01-15 23:26:03.55	173.70	23.12	-43.4	-46.3	16.6	0.00e+00	0	42	0	1002438656	57	5319
2026-01-15 23:26:04.83	173.82	22.94	-43.2	-46.0	16.9	0.00e+00	0	42	0	1004535808	57	5111
2026-01-15 23:26:05.54	173.89	22.85	-42.8	-45.5	17.3	0.00e+00	0	42	0	1005584384	57	4870
2026-01-15 23:26:06.82	174.00	22.67	-42.2	-44.7	18.0	0.00e+00	0	42	0	1008730112	56	4686
2026-01-15 23:26:07.53	174.07	22.57	-42.2	-44.7	18.1	0.00e+00	0	42	0	1009778688	56	4669
2026-01-15 23:26:08.81	174.18	22.40	-41.5	-43.9	18.7	0.00e+00	0	42	0	1011875840	55	4496
2026-01-15 23:26:09.52	174.25	22.30	-41.4	-43.7	18.9	0.00e+00	0	42	0	1013972992	54	4666
2026-01-15 23:26:10.80	174.36	22.13	-41.3	-43.6	18.9	0.00e+00	0	42	0	1016070144	54	4629
2026-01-15 23:26:11.51	174.42	22.03	-41.3	-43.6	19.0	0.00e+00	0	42	0	1017118720	54	4608
2026-01-15 23:26:12.79	174.54	21.86	-41.3	-43.6	18.9	0.00e+00	0	42	0	1019215872	54	4633
2026-01-15 23:26:13.58	174.60	21.75	-41.3	-43.6	19.0	0.00e+00	0	42	0	1021313024	54	4637
2026-01-15 23:26:14.77	174.71	21.59	-41.4	-43.8	18.7	0.00e+00	0	42	0	1023410176	54	4754
2026-01-15 23:26:15.62	174.78	21.48	-41.5	-44.0	18.6	0.00e+00	0	42	0	1024458752	54	4838
2026-01-15 23:26:16.75	174.88	21.33	-41.7	-44.2	18.4	0.00e+00	0	42	0	1026555904	54	4953
2026-01-15 23:26:17.60	174.95	21.22	-41.8	-44.3	18.3	0.00e+00	0	42	0	1028653056	54	5024
2026-01-15 23:26:18.74	175.04	21.07	-41.9	-44.4	18.2	0.00e+00	0	42	0	1030750208	54	5069
2026-01-15 23:26:19.59	175.11	20.96	-41.9	-44.5	18.2	0.00e+00	0	42	0	1032847360	54	5102
2026-01-15 23:26:20.73	175.21	20.81	-41.9	-44.4	18.2	0.00e+00	0	42	0	1034944512	54	5075
2026-01-15 23:26:21.59	175.28	20.70	-41.7	-44.2	18.4	0.00e+00	0	42	0	1035993088	54	4947
2026-01-15 23:26:22.72	175.37	20.56	-41.8	-44.3	18.3	0.00e+00	0	42	0	1038090240	54	4999
2026-01-15 23:26:23.58	175.44	20.45	-41.8	-44.2	18.5	0.00e+00	0	42	0	1040187392	54	4950
2026-01-15 23:26:24.71	175.52	20.31	-41.7	-44.1	18.5	0.00e+00	0	42	0	1042284544	54	4898
2026-01-15 23:26:25.57	175.59	20.20	-41.7	-44.2	18.4	0.00e+00	0	42	0	1043333120	54	4939
2026-01-15 23:26:26.71	175.68	20.05	-41.7	-44.1	18.5	0.00e+00	0	42	0	1045430272	54	4912
2026-01-15 23:26:27.56	175.75	19.95	-41.6	-44.0	18.6	0.00e+00	0	42	0	1047527424	54	4824
2026-01-15 23:26:28.69	175.83	19.81	-41.6	-44.1	18.5	0.00e+00	0	42	0	1049624576	54	4887
2026-01-15 23:26:29.72	175.91	19.68	-41.8	-44.2	18.3	0.00e+00	0	42	0	1051721728	54	4980
2026-01-15 23:26:30.89	176.00	19.53	-41.8	-44.3	18.3	0.00e+00	0	42	0	1053818880	54	5009
2026-01-15 23:26:31.79	176.07	19.42	-41.9	-44.4	18.2	0.00e+00	0	42	0	1054867456	54	5084
2026-01-15 23:26:32.99	176.16	19.28	-42.0	-44.6	18.0	0.00e+00	0	42	0	1056964608	54	5165
2026-01-15 23:26:33.84	176.22	19.17	-42.2	-44.8	17.9	0.00e+00	0	42	0	1059061760	55	4991
2026-01-15 23:26:35.12	176.32	19.02	-42.1	-44.6	18.0	0.00e+00	0	42	0	1061158912	55	4882
2026-01-15 23:26:35.84	176.37	18.93	-42.3	-44.9	17.8	0.00e+00	0	42	0	1063256064	55	5046
2026-01-15 23:26:37.11	176.46	18.78	-42.3	-44.9	17.7	0.00e+00	0	42	0	1065353216	55	5057
2026-01-15 23:26:37.82	176.51	18.69	-42.3	-44.9	17.7	0.00e+00	0	42	0	1066401792	55	5059
2026-01-15 23:26:39.10	176.60	18.54	-42.4	-45.0	17.6	0.00e+00	0	42	0	1068498944	55	5132
2026-01-15 23:26:39.82	176.65	18.46	-42.4	-45.0	17.7	0.00e+00	0	42	0	1070596096	55	5132
2026-01-15 23:26:41.10	176.74	18.31	-42.6	-45.3	17.4	6.40e-05	0	42	0	1072693248	55	5283
2026-01-15 23:26:41.89	176.80	18.21	-42.8	-45.5	17.3	0.00e+00	0	42	0	1073741824	56	5138
2026-01-15 23:26:43.07	176.88	18.08	-42.9	-45.6	17.2	0.00e+00	0	42	0	1076887552	56	5188
2026-01-15 23:26:43.92	176.94	17.98	-43.0	-45.7	17.1	0.00e+00	0	42	0	1077936128	56	5249
2026-01-15 23:26:45.06	177.01	17.85	-43.0	-45.7	17.0	0.00e+00	0	42	0	1080033280	56	5273
2026-01-15 23:26:45.91	177.07	17.75	-43.0	-45.8	17.0	0.00e+00	0	42	0	1082130432	56	5292
2026-01-15 23:26:47.05	177.15	17.62	-43.2	-46.0	16.8	0.00e+00	0	42	0	1084227584	56	5428
2026-01-15 23:26:47.90	177.21	17.52	-43.1	-45.9	16.9	0.00e+00	0	42	0	1085276160	57	5090
2026-01-15 23:26:49.04	177.28	17.39	-43.3	-46.1	16.7	0.00e+00	0	42	0	1087373312	57	5197
2026-01-15 23:26:49.89	177.34	17.29	-43.1	-45.9	16.9	0.00e+00	0	42	0	1089470464	57	5086
2026-01-15 23:26:51.03	177.41	17.16	-43.1	-45.9	16.8	0.00e+00	0	42	0	1091567616	57	5092
2026-01-15 23:26:51.88	177.47	17.07	-43.0	-45.8	16.9	0.00e+00	0	42	0	1092616192	57	5040
2026-01-15 23:26:53.06	177.54	16.94	-42.8	-45.6	17.2	0.00e+00	0	42	0	1094713344	57	4889
2026-01-15 23:26:53.91	177.60	16.84	-43.0	-45.8	16.9	0.00e+00	0	42	0	1096810496	57	5022
2026-01-15 23:26:55.05	177.67	16.72	-42.8	-45.6	17.2	0.00e+00	0	42	0	1098907648	57	4901
2026-01-15 23:26:55.90	177.72	16.62	-42.6	-45.3	17.4	0.00e+00	0	42	0	1099956224	57	4749
2026-01-15 23:26:57.04	177.79	16.50	-42.5	-45.2	17.5	0.00e+00	0	42	0	1102053376	57	4656
2026-01-15 23:26:57.89	177.85	16.40	-42.4	-45.1	17.6	0.00e+00	0	42	0	1104150528	56	4899
2026-01-15 23:26:59.03	177.92	16.28	-42.3	-44.9	17.8	0.00e+00	0	42	0	1106247680	56	4775
2026-01-15 23:26:59.88	177.97	16.19	-42.2	-44.8	17.9	0.00e+00	0	42	0	1108344832	56	4711
2026-01-15 23:27:01.01	178.04	16.07	-42.1	-44.7	18.0	0.00e+00	0	42	0	1110441984	56	4678
2026-01-15 23:27:01.87	178.09	15.97	-41.9	-44.5	18.1	0.00e+00	0	42	0	1111490560	55	4815
2026-01-15 23:27:03.00	178.16	15.85	-41.8	-44.3	18.2	0.00e+00	0	42	0	1113587712	55	4731
2026-01-15 23:27:03.86	178.21	15.76	-41.8	-44.3	18.2	0.00e+00	0	42	0	1115684864	55	4741
2026-01-15 23:27:05.00	178.28	15.64	-41.8	-44.3	18.2	0.00e+00	0	42	0	1117782016	55	4726
2026-01-15 23:27:05.85	178.33	15.55	-41.6	-44.1	18.4	0.00e+00	0	42	0	1118830592	55	4627
2026-01-15 23:27:06.99	178.39	15.43	-41.6	-44.1	18.4	0.00e+00	0	42	0	1120927744	55	4651
2026-01-15 23:27:07.84	178.44	15.34	-41.6	-44.1	18.3	0.00e+00	0	42	0	1123024896	55	4636
2026-01-15 23:27:08.98	178.51	15.22	-41.7	-44.2	18.2	0.00e+00	0	42	0	1125122048	55	4699
2026-01-15 23:27:09.83	178.56	15.13	-41.7	-44.2	18.2	0.00e+00	0	42	0	1126170624	55	4705
2026-01-15 23:27:11.02	178.62	15.01	-41.8	-44.3	18.2	0.00e+00	0	42	0	1128267776	55	4751
2026-01-15 23:27:11.87	178.67	14.92	-41.8	-44.3	18.1	0.00e+00	0	42	0	1130364928	55	4739
2026-01-15 23:27:13.01	178.74	14.80	-41.9	-44.5	18.0	0.00e+00	0	42	0	1132462080	55	4833
2026-01-15 23:27:13.86	178.78	14.72	-41.9	-44.5	18.0	0.00e+00	0	42	0	1134559232	55	4842
2026-01-15 23:27:15.00	178.85	14.60	-42.0	-44.7	17.8	0.00e+00	0	42	0	1136656384	55	4938
2026-01-15 23:27:15.85	178.89	14.51	-42.1	-44.7	17.8	0.00e+00	0	42	0	1137704960	55	4963
2026-01-15 23:27:16.98	178.96	14.40	-42.2	-44.9	17.6	0.00e+00	0	42	0	1139802112	55	5060
2026-01-15 23:27:17.84	179.00	14.31	-42.2	-44.9	17.6	0.00e+00	0	42	0	1141899264	55	5079
2026-01-15 23:27:18.97	179.06	14.20	-42.3	-45.0	17.4	0.00e+00	0	42	0	1143996416	55	5150
2026-01-15 23:27:19.83	179.11	14.11	-42.4	-45.1	17.4	0.00e+00	0	42	0	1145044992	55	5212
2026-01-15 23:27:20.97	179.17	14.00	-42.5	-45.3	17.2	0.00e+00	0	42	0	1147142144	55	5302
2026-01-15 23:27:21.82	179.22	13.91	-42.5	-45.4	17.1	0.00e+00	0	42	0	1149239296	55	5347
2026-01-15 23:27:22.97	179.28	13.80	-42.5	-45.4	17.2	0.00e+00	0	42	0	1151336448	55	5364
2026-01-15 23:27:23.82	179.32	13.72	-42.5	-45.4	17.1	0.00e+00	0	42	0	1152385024	55	5359
2026-01-15 23:27:24.96	179.38	13.60	-42.5	-45.4	17.1	0.00e+00	0	42	0	1154482176	55	5370
2026-01-15 23:27:25.82	179.42	13.52	-42.6	-45.5	17.0	0.00e+00	0	42	0	1156579328	55	5464
2026-01-15 23:27:26.95	179.48	13.41	-42.6	-45.5	15.2	0.00e+00	0	42	0	1158676480	55	5425
2026-01-15 23:27:27.81	179.53	13.33	-42.9	-45.8	16.9	0.00e+00	0	42	0	1160773632	56	5313
2026-01-15 23:27:28.94	179.58	13.22	-43.0	-46.0	16.7	0.00e+00	0	42	0	1162870784	56	5411
2026-01-15 23:27:29.79	179.63	13.14	-43.1	-46.1	16.4	0.00e+00	0	42	0	1163919360	56	5502
2026-01-15 23:27:30.93	179.68	13.03	-43.1	-46.1	16.6	0.00e+00	0	42	0	1166016512	56	5480
2026-01-15 23:27:31.78	179.73	12.94	-43.0	-46.0	16.7	0.00e+00	0	42	0	1168113664	56	5454
2026-01-15 23:27:32.92	179.78	12.84	-43.2	-46.2	16.4	0.00e+00	0	42	0	1170210816	57	5279
2026-01-15 23:27:33.77	179.82	12.76	-43.1	-46.2	16.5	0.00e+00	0	42	0	1171259392	57	5251
2026-01-15 23:27:34.91	179.88	12.65	-43.1	-46.2	16.5	0.00e+00	0	42	0	1173356544	57	5229
2026-01-15 23:27:35.76	179.92	12.57	-43.3	-46.4	16.3	0.00e+00	0	42	0	1175453696	57	5377
2026-01-15 23:27:36.90	179.98	12.46	-43.2	-46.3	16.4	0.00e+00	0	42	0	1177550848	57	5296
2026-01-15 23:27:37.75	180.02	12.38	-43.3	-46.5	16.2	0.00e+00	0	42	0	1178599424	57	5408
2026-01-15 23:27:38.89	180.07	12.28	-43.4	-46.7	15.9	0.00e+00	0	42	0	1180696576	57	5578
2026-01-15 23:27:39.74	180.11	12.20	-43.4	-46.8	15.9	0.00e+00	0	42	0	1182793728	57	5602
2026-01-15 23:27:40.99	180.17	12.08	-43.5	-46.8	15.9	0.00e+00	0	42	0	1184890880	57	5614
2026-01-15 23:27:41.84	180.21	12.00	-43.4	-46.6	16.1	0.00e+00	0	42	0	1186988032	57	5495
2026-01-15 23:27:42.98	180.27	11.90	-43.5	-46.8	15.9	0.00e+00	0	42	0	1189085184	57	5620
2026-01-15 23:27:43.83	180.30	11.82	-43.4	-46.7	16.0	0.00e+00	0	42	0	1190133760	57	5537
2026-01-15 23:27:44.97	180.36	11.72	-43.4	-46.7	16.0	0.00e+00	0	42	0	1192230912	57	5530
2026-01-15 23:27:45.82	180.40	11.64	-43.5	-46.7	16.0	0.00e+00	0	42	0	1194328064	57	5583
2026-01-15 23:27:46.96	180.45	11.54	-43.5	-46.8	15.9	0.00e+00	0	42	0	1196425216	57	5613
2026-01-15 23:27:47.81	180.49	11.46	-43.5	-46.8	15.9	0.00e+00	0	42	0	1197473792	57	5622
2026-01-15 23:27:48.95	180.54	11.36	-43.7	-47.0	15.7	0.00e+00	0	42	0	1199570944	58	5422
2026-01-15 23:27:49.80	180.58	11.28	-43.7	-47.0	15.7	0.00e+00	0	42	0	1201668096	58	5419
2026-01-15 23:27:50.94	180.63	11.18	-43.7	-46.9	15.8	0.00e+00	0	42	0	1203765248	58	5377
2026-01-15 23:27:51.79	180.66	11.10	-43.5	-46.8	15.9	7.00e-07	0	42	0	1204813824	58	5302
2026-01-15 23:27:52.93	180.72	11.00	-43.6	-46.8	15.8	0.00e+00	0	42	0	1206910976	58	5329
2026-01-15 23:27:53.78	180.75	10.93	-43.4	-46.6	16.0	0.00e+00	0	42	0	1209008128	58	5178
2026-01-15 23:27:54.92	180.80	10.83	-43.4	-46.6	16.1	0.00e+00	0	42	0	1211105280	58	5166
2026-01-15 23:27:55.77	180.84	10.75	-43.5	-46.6	15.8	0.00e+00	0	42	0	1213202432	58	5183
2026-01-15 23:27:56.91	180.89	10.65	-43.5	-46.6	16.0	0.00e+00	0	42	0	1215299584	58	5208
