passes_logs/2026/01/15/T1/T1__20260115_224645_NOAA_21_JPSS-2_rec.log

#Pass ID: 20260115_224645_NOAA 21 (JPSS-2)
#Satellite: NOAA 21 (JPSS-2)
#Configuration: NOAA 21
#almurnet v.1.7.20251203
#Start time: 2026-01-15 22:46:46

#Version: 2.0.20230620
#Station: T1
#Location: 37.570604 lon 55.790049 lat
#TLE: 1 54234U 22150A   26015.43562254  .00000028  00000+0  34201-4 0  9996
#TLE: 2 54234  98.7498 316.3301 0000635 288.4972  71.6135 14.19534768164873

#Time	Az	El	Level	Level2	SNR	BER	BlckErr	Temp	State	Recorded	gain1	gain2
2026-01-15 22:46:46.18	23.29	5.06	-47.7	-61.4	3.8	1.49e+00	0	37	0	0	67	16922
2026-01-15 22:46:47.16	23.34	5.13	-47.7	-61.3	3.8	1.49e+00	0	37	104	0	65	18928
2026-01-15 22:46:48.16	23.40	5.20	-47.7	-61.3	3.8	1.49e+00	0	37	104	0	65	18814
2026-01-15 22:46:49.15	23.45	5.26	-47.6	-61.3	3.8	1.49e+00	0	37	104	0	65	18845
2026-01-15 22:46:50.14	23.51	5.33	-47.7	-61.3	3.8	1.49e+00	0	37	104	0	65	18752
2026-01-15 22:46:51.14	23.56	5.40	-47.6	-61.3	3.8	1.49e+00	0	37	104	0	65	18766
2026-01-15 22:46:52.13	23.62	5.46	-47.6	-61.2	3.8	1.49e+00	0	37	104	0	65	18635
2026-01-15 22:46:53.12	23.67	5.53	-47.6	-61.2	3.8	1.49e+00	0	37	104	0	65	18634
2026-01-15 22:46:54.12	23.73	5.60	-47.6	-61.2	3.8	1.49e+00	0	37	104	0	65	18601
2026-01-15 22:46:55.11	23.78	5.66	-47.6	-61.1	3.8	1.49e+00	0	37	104	0	65	18505
2026-01-15 22:46:56.10	23.84	5.73	-47.6	-61.1	3.8	1.49e+00	0	37	104	0	65	18516
2026-01-15 22:46:57.10	23.89	5.80	-47.6	-61.2	3.8	1.49e+00	0	38	104	0	65	18529
2026-01-15 22:46:58.09	23.95	5.87	-47.6	-61.1	3.8	1.49e+00	0	37	104	0	65	18509
2026-01-15 22:46:59.08	24.01	5.94	-47.6	-61.2	3.8	1.49e+00	0	38	104	0	65	18547
2026-01-15 22:47:00.08	24.06	6.00	-47.6	-61.2	3.8	1.49e+00	0	37	104	0	65	18574
2026-01-15 22:47:01.07	24.12	6.07	-47.6	-61.2	3.8	1.49e+00	0	38	104	0	65	18678
2026-01-15 22:47:02.06	24.18	6.14	-47.7	-61.2	3.8	1.49e+00	0	38	104	0	65	18650
2026-01-15 22:47:03.05	24.23	6.21	-47.7	-61.2	3.8	1.49e+00	0	38	104	0	65	18711
2026-01-15 22:47:04.05	24.29	6.28	-47.7	-61.3	3.8	1.49e+00	0	38	104	0	65	18784
2026-01-15 22:47:05.04	24.35	6.35	-47.7	-61.3	3.8	1.49e+00	0	38	104	0	65	18760
2026-01-15 22:47:06.03	24.41	6.42	-47.7	-61.2	3.8	1.49e+00	0	38	104	0	65	18722
2026-01-15 22:47:07.03	24.47	6.49	-47.7	-61.2	3.8	1.49e+00	0	38	104	0	65	18715
2026-01-15 22:47:08.02	24.52	6.55	-47.7	-61.2	3.8	1.49e+00	0	38	104	0	65	18679
2026-01-15 22:47:09.01	24.58	6.62	-47.6	-61.2	3.8	1.49e+00	0	38	104	0	65	18648
2026-01-15 22:47:10.00	24.64	6.69	-47.6	-61.2	3.8	1.49e+00	0	38	104	0	65	18687
2026-01-15 22:47:11.00	24.70	6.76	-47.6	-61.2	3.8	1.49e+00	0	38	104	0	65	18660
2026-01-15 22:47:11.99	24.76	6.83	-47.7	-61.3	3.8	1.49e+00	0	38	104	0	65	18769
2026-01-15 22:47:12.98	24.82	6.90	-47.6	-61.2	3.8	1.49e+00	0	38	104	0	65	18719
2026-01-15 22:47:13.98	24.88	6.97	-47.6	-61.3	3.8	1.49e+00	0	38	104	0	65	18746
2026-01-15 22:47:14.97	24.94	7.05	-47.7	-61.2	3.8	1.49e+00	0	38	104	0	65	18576
2026-01-15 22:47:15.96	25.00	7.12	-47.6	-61.1	3.8	1.49e+00	0	38	104	0	65	18398
2026-01-15 22:47:16.96	25.06	7.19	-47.6	-60.9	3.8	1.49e+00	0	38	104	0	65	17948
2026-01-15 22:47:17.95	25.12	7.26	-47.6	-60.7	3.8	1.49e+00	0	38	104	0	65	17498
2026-01-15 22:47:18.94	25.19	7.33	-47.6	-60.5	3.8	1.49e+00	0	38	104	0	65	17142
2026-01-15 22:47:19.94	25.25	7.40	-47.6	-60.4	3.8	1.49e+00	0	38	104	0	65	16921
2026-01-15 22:47:20.93	25.31	7.47	-47.6	-60.3	3.8	1.49e+00	0	38	104	0	65	16773
2026-01-15 22:47:21.92	25.37	7.54	-47.6	-60.3	3.8	1.49e+00	0	38	104	0	65	16777
2026-01-15 22:47:22.91	25.43	7.62	-47.6	-60.4	3.8	1.49e+00	0	38	104	0	65	16926
2026-01-15 22:47:23.91	25.50	7.69	-47.6	-60.5	3.8	1.49e+00	0	38	104	0	65	17263
2026-01-15 22:47:24.90	25.56	7.76	-47.6	-60.7	3.8	1.49e+00	0	38	104	0	65	17498
2026-01-15 22:47:25.89	25.62	7.83	-47.6	-60.7	3.8	1.49e+00	0	38	104	0	65	17571
2026-01-15 22:47:26.89	25.69	7.91	-47.6	-60.8	3.8	1.49e+00	0	38	104	0	65	17706
2026-01-15 22:47:27.88	25.75	7.98	-47.6	-60.7	3.8	1.49e+00	0	38	104	0	65	17534
2026-01-15 22:47:28.87	25.82	8.05	-47.6	-60.6	3.8	1.49e+00	0	38	104	0	65	17348
2026-01-15 22:47:29.87	25.88	8.13	-47.6	-60.5	3.8	1.49e+00	0	39	104	0	65	17236
2026-01-15 22:47:30.86	25.95	8.20	-47.6	-60.6	3.8	1.49e+00	0	38	104	0	65	17293
2026-01-15 22:47:31.86	26.01	8.27	-47.6	-60.6	3.8	1.49e+00	0	39	104	0	65	17437
2026-01-15 22:47:32.85	26.08	8.35	-47.6	-60.6	3.8	1.49e+00	0	38	104	0	65	17426
2026-01-15 22:47:33.82	26.14	8.42	-47.6	-60.5	3.8	1.49e+00	0	39	104	0	65	17240
2026-01-15 22:47:34.81	26.21	8.49	-47.6	-60.2	3.8	1.49e+00	0	38	104	0	65	16547
2026-01-15 22:47:35.80	26.27	8.57	-47.5	-59.5	3.9	1.49e+00	0	39	104	0	65	15304
2026-01-15 22:47:36.80	26.34	8.64	-47.4	-58.8	3.9	1.48e+00	0	39	104	0	65	14090
2026-01-15 22:47:37.79	26.41	8.72	-47.3	-58.3	3.9	1.47e+00	0	39	104	0	65	13311
2026-01-15 22:47:38.78	26.48	8.79	-47.3	-57.8	3.9	1.46e+00	0	39	104	0	65	12604
2026-01-15 22:47:39.78	26.54	8.87	-47.2	-56.9	4.5	1.41e+00	0	39	104	0	65	11368
2026-01-15 22:47:40.77	26.61	8.94	-47.2	-56.8	4.5	1.26e+00	0	39	104	0	65	11184
2026-01-15 22:47:41.77	26.68	9.02	-47.2	-56.8	4.5	1.29e+00	0	39	104	0	65	11280
2026-01-15 22:47:42.76	26.75	9.09	-47.4	-58.0	4.1	1.46e+00	0	39	104	0	65	12867
2026-01-15 22:47:43.82	26.82	9.17	-47.7	-59.7	3.8	1.49e+00	0	39	104	0	66	14742
2026-01-15 22:47:44.70	26.88	9.24	-45.7	-51.3	4.7	1.48e+00	0	39	104	0	63	6718
2026-01-15 22:47:45.84	26.97	9.33	-45.8	-50.9	9.3	1.61e-03	0	39	0	0	62	6797
2026-01-15 22:47:46.69	27.03	9.39	-43.9	-47.1	13.2	1.46e-04	0	39	0	0	59	5173
2026-01-15 22:47:48.05	27.12	9.50	-43.9	-47.1	13.2	1.98e-05	0	39	0	0	59	5180
2026-01-15 22:47:48.76	27.17	9.55	-43.6	-46.7	13.5	1.52e-05	0	39	0	0	59	4947
2026-01-15 22:47:50.04	27.26	9.65	-43.3	-46.3	13.9	1.22e-05	0	39	0	0	58	5035
2026-01-15 22:47:50.77	27.32	9.71	-42.8	-45.6	14.6	7.00e-07	0	39	0	0	57	4907
2026-01-15 22:47:52.04	27.41	9.81	-42.1	-44.6	15.6	0.00e+00	0	39	0	0	56	4651
2026-01-15 22:47:52.78	27.46	9.87	-41.7	-44.1	16.0	0.00e+00	0	39	0	0	55	4623
2026-01-15 22:47:54.07	27.56	9.97	-41.3	-43.6	16.5	0.00e+00	0	39	0	0	54	4649
2026-01-15 22:47:54.82	27.61	10.03	-41.3	-43.6	16.5	0.00e+00	0	39	0	0	54	4634
2026-01-15 22:47:56.10	27.71	10.13	-41.3	-43.7	16.5	0.00e+00	0	39	0	0	54	4657
2026-01-15 22:47:56.83	27.76	10.19	-41.3	-43.6	16.6	0.00e+00	0	39	0	0	54	4616
2026-01-15 22:47:58.11	27.86	10.29	-41.3	-43.6	16.5	0.00e+00	0	39	0	0	54	4651
2026-01-15 22:47:58.82	27.91	10.35	-41.3	-43.7	16.5	0.00e+00	0	39	0	0	54	4657
2026-01-15 22:48:00.10	28.01	10.45	-41.4	-43.8	16.4	0.00e+00	0	39	0	0	54	4739
2026-01-15 22:48:00.82	28.06	10.51	-41.4	-43.8	16.4	0.00e+00	0	39	0	0	54	4714
2026-01-15 22:48:02.10	28.16	10.61	-41.3	-43.7	16.5	0.00e+00	0	39	0	0	54	4661
2026-01-15 22:48:02.84	28.22	10.67	-41.2	-43.5	16.6	0.00e+00	0	39	0	0	54	4590
2026-01-15 22:48:04.12	28.32	10.77	-41.2	-43.6	16.6	0.00e+00	0	39	0	0	54	4612
2026-01-15 22:48:05.10	28.39	10.85	-41.2	-43.6	16.6	0.00e+00	0	39	0	0	54	4620
2026-01-15 22:48:06.09	28.47	10.93	-41.3	-43.7	16.5	0.00e+00	0	39	0	0	54	4654
2026-01-15 22:48:07.09	28.55	11.01	-41.2	-43.5	16.6	0.00e+00	0	39	0	0	54	4578
2026-01-15 22:48:08.08	28.63	11.09	-41.1	-43.3	16.8	0.00e+00	0	39	0	0	54	4492
2026-01-15 22:48:09.47	28.74	11.21	-41.0	-43.3	16.9	0.00e+00	0	39	0	0	54	4455
2026-01-15 22:48:10.18	28.79	11.27	-41.1	-43.3	16.8	0.00e+00	0	39	0	0	54	4483
2026-01-15 22:48:11.46	28.89	11.37	-41.0	-43.3	16.9	0.00e+00	0	39	0	0	54	4449
2026-01-15 22:48:12.19	28.95	11.43	-40.8	-43.1	17.1	0.00e+00	0	39	0	0	53	4609
2026-01-15 22:48:13.46	29.06	11.54	-40.9	-43.1	17.0	0.00e+00	0	39	0	0	53	4644
2026-01-15 22:48:14.18	29.11	11.60	-40.9	-43.2	17.0	0.00e+00	0	39	0	0	53	4656
2026-01-15 22:48:15.46	29.22	11.70	-40.9	-43.1	17.1	0.00e+00	0	39	0	0	53	4624
2026-01-15 22:48:16.17	29.28	11.76	-40.9	-43.2	17.0	0.00e+00	0	39	0	0	53	4653
2026-01-15 22:48:17.53	29.39	11.88	-40.8	-43.0	17.2	0.00e+00	0	39	0	0	53	4592
2026-01-15 22:48:18.24	29.45	11.94	-40.9	-43.1	17.1	0.00e+00	0	39	0	0	53	4628
2026-01-15 22:48:19.51	29.56	12.04	-41.0	-43.2	17.0	0.00e+00	0	39	0	0	53	4666
2026-01-15 22:48:20.24	29.62	12.10	-40.9	-43.1	17.1	0.00e+00	0	39	0	0	53	4629
2026-01-15 22:48:21.61	29.73	12.22	-40.9	-43.1	17.1	0.00e+00	0	39	0	0	53	4615
2026-01-15 22:48:22.32	29.79	12.28	-40.9	-43.0	17.1	0.00e+00	0	39	0	0	53	4597
2026-01-15 22:48:23.60	29.90	12.39	-40.9	-43.1	17.1	0.00e+00	0	39	0	0	53	4604
2026-01-15 22:48:24.32	29.97	12.45	-40.9	-43.1	17.1	0.00e+00	0	39	0	0	53	4641
2026-01-15 22:48:25.71	30.09	12.57	-40.8	-43.0	17.2	0.00e+00	0	39	0	0	53	4557
2026-01-15 22:48:26.43	30.15	12.63	-40.9	-43.0	17.2	0.00e+00	0	39	0	0	53	4567
2026-01-15 22:48:27.71	30.26	12.74	-40.9	-43.0	17.2	0.00e+00	0	39	0	0	53	4551
2026-01-15 22:48:28.43	30.32	12.81	-40.8	-42.8	17.3	0.00e+00	0	39	0	0	53	4493
2026-01-15 22:48:29.71	30.44	12.92	-40.8	-42.8	17.4	0.00e+00	0	39	0	0	53	4485
2026-01-15 22:48:30.44	30.50	12.98	-40.8	-42.8	17.4	0.00e+00	0	39	0	0	53	4477
2026-01-15 22:48:31.72	30.62	13.09	-40.8	-42.9	17.4	0.00e+00	0	39	0	0	53	4495
2026-01-15 22:48:32.44	30.68	13.15	-40.8	-42.8	17.4	0.00e+00	0	39	0	0	53	4459
2026-01-15 22:48:33.72	30.80	13.27	-40.8	-42.9	17.4	0.00e+00	0	39	0	0	53	4494
2026-01-15 22:48:34.46	30.86	13.33	-40.8	-42.8	17.4	0.00e+00	0	39	0	0	53	4456
2026-01-15 22:48:35.74	30.98	13.45	-40.7	-42.8	17.5	0.00e+00	0	39	0	0	53	4449
2026-01-15 22:48:36.45	31.05	13.51	-40.7	-42.8	17.4	0.00e+00	0	39	0	0	53	4444
2026-01-15 22:48:37.73	31.17	13.62	-40.7	-42.7	17.5	0.00e+00	0	39	0	0	53	4424
2026-01-15 22:48:38.50	31.24	13.69	-40.7	-42.7	17.5	0.00e+00	0	39	0	0	53	4417
2026-01-15 22:48:39.78	31.36	13.81	-40.7	-42.7	17.5	0.00e+00	0	39	0	0	53	4441
2026-01-15 22:48:40.52	31.43	13.87	-40.7	-42.7	17.5	0.00e+00	0	39	0	0	53	4414
2026-01-15 22:48:41.80	31.55	13.99	-40.6	-42.6	17.6	0.00e+00	0	39	0	0	53	4385
2026-01-15 22:48:42.57	31.62	14.06	-40.6	-42.6	17.6	0.00e+00	0	39	0	0	53	4376
2026-01-15 22:48:44.18	31.78	14.20	-40.5	-42.6	17.6	0.00e+00	0	39	0	0	53	4348
2026-01-15 22:48:44.75	31.83	14.25	-40.6	-42.6	17.6	0.00e+00	0	40	0	0	53	4383
2026-01-15 22:48:46.46	32.00	14.41	-40.6	-42.7	17.5	0.00e+00	0	39	0	0	53	4401
2026-01-15 22:48:47.03	32.05	14.46	-40.5	-42.5	17.6	0.00e+00	0	39	0	0	53	4337
2026-01-15 22:48:48.73	32.22	14.62	-40.6	-42.7	17.6	0.00e+00	0	39	0	0	53	4395
2026-01-15 22:48:49.30	32.28	14.67	-40.6	-42.7	17.5	0.00e+00	0	39	0	0	53	4407
2026-01-15 22:48:51.01	32.45	14.83	-40.7	-42.8	17.4	0.00e+00	0	39	0	0	53	4461
2026-01-15 22:48:51.57	32.51	14.88	-40.7	-42.8	17.4	0.00e+00	0	39	0	0	53	4459
2026-01-15 22:48:53.28	32.68	15.04	-40.6	-42.7	17.6	0.00e+00	0	39	0	0	53	4403
2026-01-15 22:48:53.85	32.74	15.09	-40.6	-42.6	17.6	0.00e+00	0	40	0	0	53	4384
2026-01-15 22:48:55.55	32.91	15.25	-40.6	-42.6	17.6	0.00e+00	0	39	0	0	53	4363
2026-01-15 22:48:56.12	32.97	15.30	-40.6	-42.6	17.6	0.00e+00	0	39	0	0	53	4365
2026-01-15 22:48:57.82	33.15	15.46	-40.6	-42.6	17.6	0.00e+00	0	40	0	0	53	4366
2026-01-15 22:48:58.41	33.21	15.52	-40.6	-42.6	17.6	0.00e+00	0	40	0	0	53	4390
2026-01-15 22:48:59.97	33.37	15.67	-40.7	-42.8	17.4	0.00e+00	0	40	0	0	53	4458
2026-01-15 22:49:00.68	33.45	15.74	-40.7	-42.8	17.4	0.00e+00	0	39	0	0	53	4464
2026-01-15 22:49:01.96	33.59	15.86	-40.7	-42.7	17.5	0.00e+00	0	39	0	0	53	4440
2026-01-15 22:49:02.67	33.66	15.93	-40.7	-42.7	17.5	0.00e+00	0	39	0	0	53	4436
2026-01-15 22:49:03.95	33.80	16.05	-40.7	-42.8	17.5	0.00e+00	0	39	0	0	53	4469
2026-01-15 22:49:04.66	33.88	16.12	-40.7	-42.7	17.5	0.00e+00	0	40	0	0	53	4436
2026-01-15 22:49:05.94	34.02	16.24	-40.8	-42.9	17.4	0.00e+00	0	39	0	0	53	4502
2026-01-15 22:49:06.68	34.10	16.31	-40.7	-42.8	17.5	0.00e+00	0	40	0	0	53	4466
2026-01-15 22:49:07.96	34.24	16.44	-40.8	-43.0	17.3	0.00e+00	0	39	0	0	53	4549
2026-01-15 22:49:08.67	34.32	16.51	-40.8	-42.9	17.3	0.00e+00	0	40	0	0	53	4536
2026-01-15 22:49:09.95	34.46	16.63	-40.7	-42.9	17.3	0.00e+00	0	39	0	0	53	4527
2026-01-15 22:49:10.66	34.54	16.70	-40.8	-43.0	17.3	0.00e+00	0	39	0	0	53	4569
2026-01-15 22:49:11.94	34.69	16.83	-40.8	-43.0	17.3	0.00e+00	0	40	0	0	53	4566
2026-01-15 22:49:12.65	34.77	16.90	-40.9	-43.0	17.2	0.00e+00	0	40	0	0	53	4577
2026-01-15 22:49:14.01	34.93	17.03	-40.8	-43.0	17.3	0.00e+00	0	39	0	0	53	4564
2026-01-15 22:49:14.72	35.01	17.10	-40.9	-43.0	17.3	0.00e+00	0	39	0	0	53	4584
2026-01-15 22:49:16.00	35.16	17.23	-40.9	-43.0	17.2	0.00e+00	0	40	0	0	53	4593
2026-01-15 22:49:16.71	35.24	17.30	-40.9	-43.0	17.3	0.00e+00	0	40	0	0	53	4559
2026-01-15 22:49:17.99	35.39	17.43	-40.9	-43.0	17.3	0.00e+00	0	40	0	0	53	4568
2026-01-15 22:49:18.70	35.48	17.50	-40.9	-43.0	17.4	0.00e+00	0	40	0	0	53	4554
2026-01-15 22:49:19.97	35.63	17.63	-41.0	-43.2	17.2	0.00e+00	0	40	0	0	53	4664
2026-01-15 22:49:20.70	35.72	17.70	-41.0	-43.1	17.2	0.00e+00	0	40	0	0	53	4639
2026-01-15 22:49:21.98	35.87	17.83	-40.9	-43.1	17.3	0.00e+00	0	40	0	0	53	4610
2026-01-15 22:49:22.71	35.96	17.91	-41.0	-43.1	17.2	0.00e+00	0	39	0	0	53	4642
2026-01-15 22:49:23.99	36.12	18.04	-41.0	-43.2	17.2	0.00e+00	0	40	0	0	53	4654
2026-01-15 22:49:24.71	36.21	18.11	-40.9	-43.0	17.3	0.00e+00	0	40	0	0	53	4583
2026-01-15 22:49:25.99	36.37	18.24	-40.9	-43.0	17.3	0.00e+00	0	39	0	0	53	4588
2026-01-15 22:49:26.71	36.46	18.32	-40.9	-43.0	17.4	0.00e+00	0	40	0	0	53	4558
2026-01-15 22:49:28.01	36.62	18.45	-40.8	-42.8	17.5	0.00e+00	0	40	0	0	53	4476
2026-01-15 22:49:28.72	36.71	18.52	-40.7	-42.8	17.6	0.00e+00	0	40	0	0	53	4455
2026-01-15 22:49:30.00	36.88	18.66	-40.8	-42.8	17.5	0.00e+00	0	40	0	0	53	4492
2026-01-15 22:49:30.72	36.97	18.73	-40.7	-42.7	17.6	0.00e+00	0	40	0	0	53	4436
2026-01-15 22:49:32.11	37.15	18.88	-40.6	-42.6	17.7	0.00e+00	0	40	0	0	53	4363
2026-01-15 22:49:32.82	37.24	18.95	-40.6	-42.6	17.8	0.00e+00	0	40	0	0	53	4347
2026-01-15 22:49:34.15	37.42	19.09	-40.6	-42.6	17.8	0.00e+00	0	40	0	0	53	4349
2026-01-15 22:49:35.11	37.54	19.19	-40.5	-42.5	17.8	0.00e+00	0	40	0	0	53	4327
2026-01-15 22:49:36.42	37.72	19.33	-40.6	-42.6	17.8	0.00e+00	0	40	0	0	53	4344
2026-01-15 22:49:37.16	37.82	19.41	-40.6	-42.6	17.8	0.00e+00	0	39	0	0	53	4357
2026-01-15 22:49:38.44	37.99	19.54	-40.6	-42.5	17.7	0.00e+00	0	40	0	0	53	4338
2026-01-15 22:49:39.23	38.10	19.63	-40.6	-42.6	17.8	0.00e+00	0	40	0	0	53	4347
2026-01-15 22:49:40.73	38.30	19.79	-40.6	-42.6	17.7	0.00e+00	0	40	0	0	53	4358
2026-01-15 22:49:41.44	38.40	19.87	-40.6	-42.6	17.7	0.00e+00	0	40	0	0	53	4354
2026-01-15 22:49:42.83	38.59	20.02	-40.6	-42.6	17.8	0.00e+00	0	40	0	0	53	4343
2026-01-15 22:49:43.54	38.69	20.09	-40.4	-42.4	18.0	0.00e+00	0	40	0	0	52	4499
2026-01-15 22:49:44.82	38.87	20.23	-40.4	-42.3	18.0	0.00e+00	0	40	0	0	52	4479
2026-01-15 22:49:45.55	38.98	20.31	-40.4	-42.3	18.0	0.00e+00	0	40	0	0	52	4478
2026-01-15 22:49:46.82	39.16	20.45	-40.2	-42.2	18.2	0.00e+00	0	40	0	0	52	4396
2026-01-15 22:49:47.55	39.26	20.53	-40.2	-42.1	18.2	0.00e+00	0	40	0	0	52	4378
2026-01-15 22:49:48.83	39.45	20.67	-40.2	-42.1	18.2	0.00e+00	0	40	0	0	52	4358
2026-01-15 22:49:49.54	39.55	20.75	-40.2	-42.1	18.2	0.00e+00	0	40	0	0	52	4379
2026-01-15 22:49:50.82	39.74	20.89	-40.2	-42.1	18.3	0.00e+00	0	40	0	0	52	4351
2026-01-15 22:49:51.56	39.85	20.97	-40.1	-42.0	18.3	0.00e+00	0	40	0	0	52	4320
2026-01-15 22:49:52.84	40.04	21.11	-40.1	-42.1	18.3	0.00e+00	0	40	0	0	52	4341
2026-01-15 22:49:53.57	40.15	21.19	-40.1	-42.0	18.3	0.00e+00	0	40	0	0	52	4305
2026-01-15 22:49:55.19	40.40	21.37	-40.1	-41.9	18.4	0.00e+00	0	40	0	0	52	4281
2026-01-15 22:49:55.76	40.48	21.44	-40.0	-41.9	18.4	0.00e+00	0	40	0	0	52	4271
2026-01-15 22:49:57.47	40.75	21.63	-40.0	-41.9	18.5	0.00e+00	0	39	0	0	51	4501
2026-01-15 22:49:58.04	40.84	21.69	-40.0	-41.8	18.5	0.00e+00	0	40	0	0	51	4476
2026-01-15 22:49:59.74	41.10	21.88	-40.1	-42.0	18.4	0.00e+00	0	40	0	0	51	4572
2026-01-15 22:50:00.31	41.19	21.95	-40.0	-41.9	18.5	0.00e+00	0	40	0	0	51	4494
2026-01-15 22:50:02.01	41.46	22.14	-39.9	-41.8	18.6	0.00e+00	0	40	0	0	51	4458
2026-01-15 22:50:02.58	41.55	22.21	-40.0	-41.9	18.4	0.00e+00	0	40	0	0	51	4526
2026-01-15 22:50:04.28	41.83	22.40	-39.9	-41.7	18.7	0.00e+00	0	40	0	0	51	4427
2026-01-15 22:50:04.85	41.92	22.46	-39.9	-41.7	18.7	0.00e+00	0	40	0	0	51	4422
2026-01-15 22:50:06.55	42.20	22.66	-39.7	-41.5	18.9	0.00e+00	0	40	0	0	51	4298
2026-01-15 22:50:07.12	42.29	22.72	-39.6	-41.4	19.0	0.00e+00	0	40	0	0	51	4279
2026-01-15 22:50:08.83	42.58	22.92	-39.7	-41.5	18.9	0.00e+00	0	40	0	0	51	4319
2026-01-15 22:50:09.41	42.67	22.99	-39.7	-41.6	18.8	0.00e+00	0	40	0	0	51	4345
2026-01-15 22:50:10.97	42.94	23.17	-39.7	-41.5	18.9	0.00e+00	0	40	0	0	51	4311
2026-01-15 22:50:11.68	43.06	23.25	-39.8	-41.6	18.8	0.00e+00	0	40	0	0	51	4378
2026-01-15 22:50:13.20	43.32	23.43	-39.7	-41.5	18.9	0.00e+00	0	40	0	0	51	4311
2026-01-15 22:50:13.91	43.45	23.51	-39.7	-41.5	18.9	0.00e+00	0	40	0	0	51	4311
2026-01-15 22:50:15.23	43.68	23.67	-39.7	-41.5	18.9	0.00e+00	0	40	0	0	51	4305
2026-01-15 22:50:15.94	43.80	23.75	-39.6	-41.4	19.0	0.00e+00	0	40	0	0	51	4250
2026-01-15 22:50:17.22	44.03	23.90	-39.5	-41.3	19.1	0.00e+00	0	40	0	0	51	4213
2026-01-15 22:50:17.93	44.16	23.99	-39.6	-41.3	19.1	0.00e+00	0	40	0	0	51	4242
2026-01-15 22:50:19.21	44.39	24.14	-39.7	-41.5	18.9	0.00e+00	0	40	0	0	51	4295
2026-01-15 22:50:19.92	44.51	24.22	-39.7	-41.5	18.9	0.00e+00	0	40	0	0	51	4328
2026-01-15 22:50:21.20	44.75	24.37	-39.8	-41.6	18.8	0.00e+00	0	40	0	0	51	4382
2026-01-15 22:50:21.92	44.88	24.46	-39.8	-41.7	18.7	0.00e+00	0	40	0	0	51	4416
2026-01-15 22:50:23.19	45.12	24.61	-39.9	-41.7	18.7	0.00e+00	0	40	0	0	51	4437
2026-01-15 22:50:23.92	45.25	24.70	-39.8	-41.7	18.7	0.00e+00	0	40	0	0	51	4395
2026-01-15 22:50:25.20	45.49	24.85	-39.8	-41.6	18.8	0.00e+00	0	40	0	0	51	4367
2026-01-15 22:50:25.91	45.63	24.93	-39.8	-41.7	18.8	0.00e+00	0	40	0	0	51	4395
2026-01-15 22:50:27.20	45.88	25.09	-39.7	-41.5	18.9	0.00e+00	0	40	0	0	51	4333
2026-01-15 22:50:27.91	46.01	25.17	-39.6	-41.4	19.0	0.00e+00	0	40	0	0	51	4264
2026-01-15 22:50:29.19	46.26	25.33	-39.7	-41.6	18.9	0.00e+00	0	40	0	0	51	4348
2026-01-15 22:50:29.92	46.40	25.42	-39.7	-41.6	18.9	0.00e+00	0	40	0	0	51	4350
2026-01-15 22:50:31.20	46.65	25.57	-39.8	-41.6	18.8	0.00e+00	0	40	0	0	51	4390
2026-01-15 22:50:31.93	46.80	25.66	-39.7	-41.5	18.9	0.00e+00	0	40	0	0	51	4334
2026-01-15 22:50:33.21	47.06	25.82	-39.7	-41.6	18.9	0.00e+00	0	40	0	0	51	4346
2026-01-15 22:50:33.93	47.20	25.90	-39.8	-41.7	18.8	0.00e+00	0	40	0	0	51	4397
2026-01-15 22:50:35.21	47.46	26.06	-39.9	-41.7	18.7	0.00e+00	0	40	0	0	51	4439
2026-01-15 22:50:35.95	47.61	26.15	-39.9	-41.8	18.6	0.00e+00	0	40	0	0	51	4467
2026-01-15 22:50:37.23	47.87	26.31	-39.9	-41.8	18.7	0.00e+00	0	40	0	0	51	4455
2026-01-15 22:50:37.94	48.02	26.39	-39.9	-41.8	18.7	0.00e+00	0	40	0	0	51	4452
2026-01-15 22:50:39.22	48.29	26.55	-40.0	-41.9	18.6	0.00e+00	0	40	0	0	51	4495
2026-01-15 22:50:39.94	48.44	26.64	-40.1	-41.9	18.5	0.00e+00	0	40	0	0	51	4541
2026-01-15 22:50:41.22	48.71	26.79	-40.2	-42.1	18.4	0.00e+00	0	40	0	0	51	4611
2026-01-15 22:50:41.96	48.87	26.89	-40.3	-42.1	18.4	0.00e+00	0	40	0	0	51	4649
2026-01-15 22:50:43.24	49.15	27.04	-40.3	-42.2	18.3	0.00e+00	0	40	0	0	51	4687
2026-01-15 22:50:43.95	49.30	27.13	-40.4	-42.3	18.2	0.00e+00	0	40	0	0	51	4747
2026-01-15 22:50:45.23	49.58	27.29	-40.5	-42.4	18.1	0.00e+00	0	40	0	0	51	4776
2026-01-15 22:50:45.96	49.74	27.38	-40.5	-42.4	18.1	0.00e+00	0	40	0	0	51	4774
2026-01-15 22:50:47.24	50.03	27.54	-40.6	-42.5	17.9	0.00e+00	0	40	0	0	51	4836
2026-01-15 22:50:47.96	50.19	27.63	-40.5	-42.5	18.0	0.00e+00	0	40	0	0	51	4818
2026-01-15 22:50:49.24	50.48	27.78	-40.5	-42.4	18.0	0.00e+00	0	40	0	0	51	4808
2026-01-15 22:50:50.05	50.66	27.88	-40.5	-42.4	18.0	0.00e+00	0	40	0	0	51	4789
2026-01-15 22:50:51.48	50.99	28.06	-40.5	-42.4	18.0	0.00e+00	0	40	0	0	51	4792
2026-01-15 22:50:52.19	51.15	28.15	-40.4	-42.3	18.1	0.00e+00	0	40	0	0	51	4755
2026-01-15 22:50:53.47	51.45	28.31	-40.3	-42.2	18.3	0.00e+00	0	40	0	0	51	4674
2026-01-15 22:50:54.18	51.62	28.40	-40.4	-42.3	18.2	0.00e+00	0	40	0	0	51	4717
2026-01-15 22:50:55.73	51.98	28.59	-40.3	-42.2	18.3	0.00e+00	0	40	0	0	51	4668
2026-01-15 22:50:56.69	52.21	28.71	-40.2	-42.1	18.4	0.00e+00	0	40	0	0	51	4623
2026-01-15 22:50:57.68	52.45	28.83	-40.1	-42.0	18.5	0.00e+00	0	40	0	0	51	4546
2026-01-15 22:50:58.67	52.69	28.95	-40.1	-42.0	18.5	0.00e+00	0	40	0	0	51	4569
2026-01-15 22:50:59.67	52.94	29.08	-40.1	-42.0	18.5	0.00e+00	0	40	0	0	51	4575
2026-01-15 22:51:00.67	53.18	29.20	-39.9	-41.8	18.6	0.00e+00	0	40	0	0	51	4454
2026-01-15 22:51:01.66	53.43	29.33	-39.9	-41.7	18.7	0.00e+00	0	40	0	0	51	4430
2026-01-15 22:51:02.66	53.68	29.45	-40.0	-41.8	18.6	0.00e+00	0	40	0	0	51	4485
2026-01-15 22:51:03.65	53.93	29.57	-40.1	-41.9	18.6	0.00e+00	0	40	0	0	51	4526
2026-01-15 22:51:04.71	54.20	29.70	-40.1	-41.9	18.5	0.00e+00	0	40	0	0	51	4539
2026-01-15 22:51:05.62	54.43	29.82	-40.2	-42.0	18.4	0.00e+00	0	40	0	0	51	4589
2026-01-15 22:51:06.62	54.69	29.94	-40.1	-41.9	18.6	0.00e+00	0	40	0	0	51	4534
2026-01-15 22:51:07.79	54.99	30.09	-39.9	-41.8	18.7	0.00e+00	0	40	0	0	51	4450
2026-01-15 22:51:08.70	55.23	30.20	-39.9	-41.8	18.7	0.00e+00	0	40	0	0	51	4448
2026-01-15 22:51:09.70	55.49	30.32	-39.9	-41.8	18.7	0.00e+00	0	40	0	0	51	4455
2026-01-15 22:51:10.69	55.76	30.45	-40.0	-41.8	18.7	0.00e+00	0	40	0	0	51	4472
2026-01-15 22:51:11.69	56.03	30.57	-40.0	-41.8	18.7	0.00e+00	0	40	0	0	51	4488
2026-01-15 22:51:12.68	56.29	30.69	-40.0	-41.9	18.6	0.00e+00	0	40	0	0	51	4522
2026-01-15 22:51:13.68	56.56	30.81	-40.1	-41.9	18.5	0.00e+00	0	40	0	0	51	4544
2026-01-15 22:51:14.67	56.84	30.94	-40.1	-41.9	18.5	0.00e+00	0	40	0	0	51	4535
2026-01-15 22:51:15.66	57.11	31.06	-40.0	-41.9	18.6	0.00e+00	0	40	0	0	51	4500
2026-01-15 22:51:16.66	57.39	31.18	-40.1	-42.0	18.5	0.00e+00	0	40	0	0	51	4548
2026-01-15 22:51:17.65	57.66	31.30	-40.1	-41.9	18.5	0.00e+00	0	40	0	0	51	4545
2026-01-15 22:51:18.65	57.95	31.42	-40.2	-42.1	18.3	0.00e+00	0	40	0	0	51	4649
2026-01-15 22:51:19.64	58.23	31.54	-40.3	-42.3	18.2	0.00e+00	0	40	0	0	51	4709
2026-01-15 22:51:20.64	58.51	31.67	-40.5	-42.4	18.1	0.00e+00	0	40	0	0	51	4787
2026-01-15 22:51:21.66	58.81	31.79	-40.4	-42.4	18.1	0.00e+00	0	40	0	0	51	4765
2026-01-15 22:51:22.66	59.10	31.91	-40.4	-42.4	18.1	0.00e+00	0	40	0	0	51	4760
2026-01-15 22:51:23.72	59.41	32.04	-40.4	-42.4	18.1	0.00e+00	0	40	0	0	51	4767
2026-01-15 22:51:24.65	59.68	32.15	-40.5	-42.4	18.0	0.00e+00	0	40	0	0	51	4811
2026-01-15 22:51:25.76	60.01	32.28	-40.6	-42.6	17.9	0.00e+00	0	40	0	0	51	4886
2026-01-15 22:51:26.61	60.27	32.39	-40.6	-42.6	17.9	0.00e+00	0	40	0	0	52	4608
2026-01-15 22:51:27.95	60.67	32.55	-40.7	-42.7	17.8	0.00e+00	0	40	0	0	52	4664
2026-01-15 22:51:28.66	60.89	32.63	-40.7	-42.7	17.8	0.00e+00	0	40	0	0	52	4680
2026-01-15 22:51:30.14	61.34	32.81	-41.0	-43.0	17.5	0.00e+00	0	40	0	0	52	4852
2026-01-15 22:51:30.85	61.56	32.89	-41.1	-43.1	17.4	0.00e+00	0	40	0	0	52	4913
2026-01-15 22:51:32.21	61.98	33.05	-41.2	-43.3	17.3	0.00e+00	0	40	0	0	53	4721
2026-01-15 22:51:32.92	62.20	33.13	-41.2	-43.3	17.2	0.00e+00	0	40	0	0	53	4748
2026-01-15 22:51:34.20	62.61	33.28	-41.2	-43.2	17.3	0.00e+00	0	40	0	0	53	4697
2026-01-15 22:51:34.93	62.84	33.37	-41.2	-43.2	17.3	0.00e+00	0	40	0	0	53	4704
2026-01-15 22:51:36.21	63.25	33.52	-41.2	-43.2	17.2	0.00e+00	0	40	0	0	53	4703
2026-01-15 22:51:36.94	63.49	33.60	-41.2	-43.3	17.2	0.00e+00	0	40	0	0	53	4721
2026-01-15 22:51:38.22	63.90	33.75	-41.3	-43.3	17.2	0.00e+00	0	40	0	0	53	4752
2026-01-15 22:51:38.93	64.13	33.83	-41.5	-43.6	16.9	0.00e+00	0	40	0	0	53	4887
2026-01-15 22:51:40.21	64.55	33.97	-41.5	-43.6	16.9	0.00e+00	0	40	0	0	53	4887
2026-01-15 22:51:40.93	64.79	34.05	-41.5	-43.6	16.9	0.00e+00	0	40	0	0	53	4914
2026-01-15 22:51:42.21	65.22	34.20	-41.4	-43.5	17.0	0.00e+00	0	40	0	0	53	4848
2026-01-15 22:51:42.94	65.46	34.28	-41.5	-43.6	16.9	0.00e+00	0	40	0	0	53	4888
2026-01-15 22:51:44.21	65.89	34.42	-41.3	-43.3	17.2	0.00e+00	0	40	0	0	53	4759
2026-01-15 22:51:45.05	66.18	34.51	-41.3	-43.3	17.2	0.00e+00	0	40	0	0	53	4753
2026-01-15 22:51:46.47	66.67	34.67	-41.4	-43.5	17.0	0.00e+00	0	40	0	0	53	4835
2026-01-15 22:51:47.18	66.91	34.74	-41.3	-43.4	17.1	0.00e+00	0	40	0	0	53	4778
2026-01-15 22:51:48.47	67.36	34.88	-41.5	-43.6	17.0	0.00e+00	0	40	0	0	53	4877
2026-01-15 22:51:49.18	67.61	34.96	-41.4	-43.5	17.0	0.00e+00	0	40	0	0	53	4858
2026-01-15 22:51:50.46	68.06	35.09	-41.4	-43.4	17.0	0.00e+00	0	40	0	0	53	4814
2026-01-15 22:51:51.20	68.32	35.17	-41.3	-43.3	17.2	0.00e+00	0	40	0	0	53	4723
2026-01-15 22:51:52.48	68.78	35.31	-41.2	-43.2	17.2	0.00e+00	0	40	0	0	53	4676
2026-01-15 22:51:53.21	69.04	35.38	-41.1	-43.1	17.3	0.00e+00	0	40	0	0	53	4635
2026-01-15 22:51:54.80	69.62	35.54	-41.1	-43.1	17.3	0.00e+00	0	40	0	0	53	4631
2026-01-15 22:51:55.39	69.83	35.60	-41.2	-43.3	17.2	0.00e+00	0	40	0	0	53	4708
2026-01-15 22:51:56.95	70.41	35.76	-41.1	-43.2	17.3	0.00e+00	0	40	0	0	53	4675
2026-01-15 22:51:57.58	70.64	35.82	-41.2	-43.2	17.3	0.00e+00	0	40	0	0	53	4683
2026-01-15 22:51:59.10	71.20	35.97	-41.1	-43.1	17.4	0.00e+00	0	40	0	0	53	4629
2026-01-15 22:51:59.90	71.50	36.05	-41.2	-43.2	17.2	0.00e+00	0	40	0	0	53	4678
2026-01-15 22:52:01.03	71.93	36.16	-41.4	-43.4	16.9	0.00e+00	0	40	0	0	53	4798
2026-01-15 22:52:02.12	72.34	36.26	-41.5	-43.6	16.8	0.00e+00	0	40	0	0	53	4909
2026-01-15 22:52:02.97	72.66	36.34	-41.6	-43.7	16.7	0.00e+00	0	40	0	0	53	4940
2026-01-15 22:52:04.11	73.10	36.45	-41.3	-43.4	17.2	0.00e+00	0	40	0	0	53	4772
2026-01-15 22:52:05.19	73.52	36.54	-41.2	-43.2	17.3	0.00e+00	0	40	0	0	53	4705
2026-01-15 22:52:06.21	73.91	36.64	-41.1	-43.2	17.3	0.00e+00	0	40	0	0	53	4676
2026-01-15 22:52:07.21	74.30	36.73	-41.2	-43.2	17.3	0.00e+00	0	40	0	0	53	4695
2026-01-15 22:52:08.20	74.69	36.81	-41.3	-43.4	17.1	0.00e+00	0	40	0	0	53	4798
2026-01-15 22:52:09.19	75.08	36.90	-41.5	-43.7	16.8	0.00e+00	0	40	0	0	53	4930
2026-01-15 22:52:10.19	75.47	36.98	-41.5	-43.7	16.9	0.00e+00	0	40	0	0	53	4927
2026-01-15 22:52:11.18	75.87	37.07	-41.3	-43.4	17.1	0.00e+00	0	40	0	0	53	4807
2026-01-15 22:52:12.18	76.27	37.15	-41.3	-43.3	17.2	0.00e+00	0	40	0	0	53	4743
2026-01-15 22:52:13.17	76.67	37.23	-41.2	-43.3	17.2	0.00e+00	0	40	0	0	53	4729
2026-01-15 22:52:14.16	77.07	37.31	-41.5	-43.6	16.9	0.00e+00	0	40	0	0	53	4885
2026-01-15 22:52:15.16	77.47	37.39	-41.9	-44.1	16.5	0.00e+00	0	40	0	0	54	4898
2026-01-15 22:52:16.15	77.88	37.46	-42.1	-44.3	16.3	0.00e+00	0	40	0	0	54	5039
2026-01-15 22:52:17.15	78.29	37.54	-42.1	-44.3	16.3	0.00e+00	0	40	0	0	54	5035
2026-01-15 22:52:18.14	78.69	37.61	-42.1	-44.4	16.2	0.00e+00	0	40	0	0	54	5061
2026-01-15 22:52:19.14	79.11	37.68	-42.2	-44.4	16.1	0.00e+00	0	40	0	0	54	5084
2026-01-15 22:52:20.21	79.55	37.76	-42.3	-44.6	15.9	0.00e+00	0	40	0	0	55	4915
2026-01-15 22:52:21.09	79.92	37.82	-42.3	-44.7	15.9	0.00e+00	0	40	0	0	55	4945
2026-01-15 22:52:22.23	80.39	37.90	-42.3	-44.6	16.0	0.00e+00	0	40	0	0	55	4896
2026-01-15 22:52:23.08	80.75	37.96	-42.3	-44.6	15.9	0.00e+00	0	40	0	0	55	4916
2026-01-15 22:52:24.22	81.23	38.03	-42.2	-44.5	16.0	0.00e+00	0	40	0	0	55	4866
2026-01-15 22:52:25.07	81.59	38.08	-42.1	-44.4	16.1	0.00e+00	0	40	0	0	55	4793
2026-01-15 22:52:26.21	82.08	38.15	-42.3	-44.7	15.9	0.00e+00	0	40	0	0	55	4927
2026-01-15 22:52:27.06	82.44	38.21	-42.0	-44.3	16.2	0.00e+00	0	40	0	0	55	4749
2026-01-15 22:52:28.20	82.93	38.27	-41.9	-44.3	16.3	0.00e+00	0	40	0	0	55	4735
2026-01-15 22:52:29.05	83.30	38.32	-41.7	-44.0	16.5	0.00e+00	0	40	0	0	55	4562
2026-01-15 22:52:30.19	83.79	38.38	-41.7	-44.0	16.5	0.00e+00	0	40	0	0	55	4566
2026-01-15 22:52:31.04	84.16	38.43	-41.7	-44.0	16.5	0.00e+00	0	40	0	0	55	4577
2026-01-15 22:52:32.18	84.65	38.49	-41.9	-44.1	16.4	0.00e+00	0	40	0	0	55	4637
2026-01-15 22:52:33.40	85.18	38.55	-41.8	-44.0	16.6	0.00e+00	0	40	0	0	55	4567
2026-01-15 22:52:34.25	85.55	38.59	-41.7	-43.9	16.6	0.00e+00	0	40	0	0	55	4545
2026-01-15 22:52:35.39	86.05	38.64	-41.8	-44.1	16.4	0.00e+00	0	40	0	0	55	4635
2026-01-15 22:52:36.24	86.43	38.68	-41.9	-44.2	16.4	0.00e+00	0	40	0	0	55	4665
2026-01-15 22:52:37.38	86.93	38.73	-41.8	-44.1	16.4	0.00e+00	0	40	0	0	55	4634
2026-01-15 22:52:38.23	87.31	38.76	-41.8	-44.0	16.5	0.00e+00	0	40	0	0	55	4588
2026-01-15 22:52:39.37	87.81	38.81	-41.8	-44.0	16.6	0.00e+00	0	40	0	0	55	4587
2026-01-15 22:52:40.22	88.19	38.84	-41.9	-44.1	16.5	0.00e+00	0	40	0	0	55	4624
2026-01-15 22:52:41.36	88.70	38.88	-41.8	-44.1	16.5	0.00e+00	0	40	0	0	55	4610
2026-01-15 22:52:42.21	89.08	38.91	-41.7	-43.9	16.6	0.00e+00	0	40	0	0	55	4524
2026-01-15 22:52:43.35	89.59	38.94	-41.7	-44.0	16.6	0.00e+00	0	40	0	0	55	4553
2026-01-15 22:52:44.20	89.97	38.97	-41.6	-43.8	16.8	0.00e+00	0	40	0	0	55	4448
2026-01-15 22:52:45.34	90.48	39.00	-41.6	-43.7	16.9	0.00e+00	0	40	0	0	55	4400
2026-01-15 22:52:46.19	90.86	39.02	-41.7	-43.9	16.7	0.00e+00	0	40	0	0	55	4502
2026-01-15 22:52:47.55	91.47	39.05	-41.9	-44.1	16.5	0.00e+00	0	40	0	0	55	4622
2026-01-15 22:52:48.26	91.79	39.07	-41.7	-43.9	16.7	0.00e+00	0	40	0	0	55	4532
2026-01-15 22:52:49.54	92.37	39.10	-41.7	-43.8	16.7	0.00e+00	0	40	0	0	55	4484
2026-01-15 22:52:50.28	92.70	39.11	-41.7	-43.9	16.6	0.00e+00	0	40	0	0	55	4529
2026-01-15 22:52:51.56	93.28	39.13	-42.0	-44.2	16.3	0.00e+00	0	40	0	0	55	4699
2026-01-15 22:52:52.29	93.61	39.14	-42.2	-44.5	16.1	0.00e+00	0	40	0	0	55	4840
2026-01-15 22:52:53.56	94.19	39.15	-42.3	-44.6	16.0	0.00e+00	0	40	0	0	55	4895
2026-01-15 22:52:54.34	94.54	39.16	-42.2	-44.4	16.1	0.00e+00	0	40	0	0	55	4804
2026-01-15 22:52:55.62	95.12	39.17	-42.1	-44.4	16.3	0.00e+00	0	40	0	0	55	4762
2026-01-15 22:52:56.34	95.45	39.18	-42.2	-44.4	16.2	0.00e+00	0	40	0	0	55	4814
2026-01-15 22:52:57.62	96.03	39.18	-42.4	-44.7	15.9	0.00e+00	0	40	0	0	55	4960
2026-01-15 22:52:58.46	96.41	39.18	-42.4	-44.8	15.8	0.00e+00	0	40	0	0	55	4992
2026-01-15 22:52:59.59	96.93	39.18	-42.2	-44.5	16.0	0.00e+00	0	40	0	0	55	4847
2026-01-15 22:53:00.62	97.39	39.18	-41.8	-44.0	16.5	0.00e+00	0	40	0	0	55	4585
2026-01-15 22:53:01.61	97.84	39.18	-41.9	-44.0	16.6	0.00e+00	0	40	0	0	55	4587
2026-01-15 22:53:02.61	98.30	39.17	-42.0	-44.2	16.4	0.00e+00	0	40	0	0	55	4652
2026-01-15 22:53:03.60	98.75	39.16	-42.1	-44.3	16.2	0.00e+00	0	40	0	0	55	4726
2026-01-15 22:53:04.60	99.20	39.15	-42.2	-44.5	16.0	0.00e+00	0	40	0	0	55	4845
2026-01-15 22:53:05.91	99.79	39.13	-41.9	-44.2	16.4	0.00e+00	0	40	0	0	55	4670
2026-01-15 22:53:06.63	100.12	39.12	-41.9	-44.2	16.4	0.00e+00	0	40	0	0	55	4673
2026-01-15 22:53:08.21	100.84	39.10	-42.1	-44.3	16.3	0.00e+00	0	40	0	0	55	4747
2026-01-15 22:53:08.86	101.13	39.08	-42.1	-44.4	16.2	0.00e+00	0	40	0	0	55	4760
2026-01-15 22:53:10.39	101.82	39.05	-41.9	-44.1	16.4	0.00e+00	0	40	0	0	55	4622
2026-01-15 22:53:11.10	102.14	39.04	-42.1	-44.3	16.3	0.00e+00	0	40	0	0	55	4730
2026-01-15 22:53:12.38	102.72	39.00	-41.9	-44.2	16.5	0.00e+00	0	40	0	0	55	4653
2026-01-15 22:53:13.26	103.11	38.98	-41.8	-44.0	16.6	0.00e+00	0	40	0	0	55	4565
2026-01-15 22:53:14.40	103.62	38.95	-42.0	-44.3	16.2	0.00e+00	0	40	0	0	55	4730
2026-01-15 22:53:15.26	104.01	38.92	-42.1	-44.4	16.1	0.00e+00	0	40	0	0	55	4798
2026-01-15 22:53:16.39	104.51	38.88	-42.0	-44.2	16.3	0.00e+00	0	40	0	0	55	4686
2026-01-15 22:53:17.25	104.90	38.85	-42.1	-44.4	16.2	0.00e+00	0	40	0	0	55	4768
2026-01-15 22:53:18.38	105.40	38.81	-41.8	-44.0	16.6	0.00e+00	0	40	0	0	55	4555
2026-01-15 22:53:19.24	105.78	38.78	-41.5	-43.6	16.9	0.00e+00	0	40	0	0	55	4355
2026-01-15 22:53:20.37	106.28	38.73	-41.7	-43.8	16.8	0.00e+00	0	40	0	0	54	4739
2026-01-15 22:53:21.23	106.66	38.69	-41.9	-44.1	16.5	0.00e+00	0	40	0	0	54	4888
2026-01-15 22:53:22.37	107.16	38.64	-41.8	-44.0	16.6	0.00e+00	0	40	0	0	54	4856
2026-01-15 22:53:23.22	107.54	38.61	-41.8	-44.0	16.6	0.00e+00	0	40	0	0	54	4823
2026-01-15 22:53:24.35	108.03	38.55	-41.9	-44.0	16.5	0.00e+00	0	40	0	0	54	4867
2026-01-15 22:53:25.21	108.41	38.51	-42.1	-44.3	16.2	0.00e+00	0	40	0	0	54	5021
2026-01-15 22:53:26.55	108.99	38.44	-41.9	-44.1	16.6	0.00e+00	0	40	0	0	54	4875
2026-01-15 22:53:27.26	109.30	38.40	-41.8	-43.9	16.6	0.00e+00	0	40	0	0	54	4810
2026-01-15 22:53:28.76	109.95	38.32	-41.7	-43.8	16.7	0.00e+00	0	40	0	0	54	4726
2026-01-15 22:53:29.46	110.25	38.28	-41.7	-43.9	16.7	0.00e+00	0	40	0	0	54	4781
2026-01-15 22:53:30.74	110.80	38.20	-41.6	-43.7	16.9	0.00e+00	0	40	0	0	54	4683
2026-01-15 22:53:31.47	111.11	38.16	-41.6	-43.8	16.8	0.00e+00	0	40	0	0	54	4730
2026-01-15 22:53:32.75	111.66	38.08	-41.5	-43.7	16.9	0.00e+00	0	40	0	0	54	4664
2026-01-15 22:53:33.47	111.96	38.04	-41.4	-43.4	17.0	0.00e+00	0	40	0	0	54	4536
2026-01-15 22:53:34.75	112.50	37.95	-41.5	-43.6	16.9	0.00e+00	0	40	0	0	54	4625
2026-01-15 22:53:35.47	112.81	37.90	-41.4	-43.5	17.1	0.00e+00	0	40	0	0	54	4564
2026-01-15 22:53:36.75	113.35	37.82	-41.3	-43.4	17.2	0.00e+00	0	40	0	0	54	4504
2026-01-15 22:53:37.46	113.64	37.77	-41.4	-43.4	17.1	0.00e+00	0	40	0	0	54	4545
2026-01-15 22:53:38.75	114.18	37.68	-41.8	-44.0	16.6	0.00e+00	0	40	0	0	54	4826
2026-01-15 22:53:39.45	114.47	37.62	-42.1	-44.4	16.2	0.00e+00	0	40	0	0	54	5060
2026-01-15 22:53:40.73	115.00	37.53	-42.4	-44.8	15.8	0.00e+00	0	40	0	0	55	5036
2026-01-15 22:53:41.44	115.29	37.48	-42.5	-45.0	15.7	0.00e+00	0	40	0	0	55	5101
2026-01-15 22:53:42.72	115.81	37.38	-42.1	-44.3	16.3	0.00e+00	0	40	0	0	55	4737
2026-01-15 22:53:43.43	116.10	37.32	-41.8	-44.0	16.6	0.00e+00	0	40	0	0	55	4556
2026-01-15 22:53:44.71	116.62	37.22	-41.8	-44.0	16.5	0.00e+00	0	40	0	0	55	4549
2026-01-15 22:53:45.44	116.91	37.16	-41.8	-43.9	16.5	0.00e+00	0	40	0	0	55	4535
2026-01-15 22:53:46.71	117.42	37.05	-41.6	-43.7	16.8	0.00e+00	0	40	0	0	55	4438
2026-01-15 22:53:47.44	117.71	36.99	-41.4	-43.6	17.0	0.00e+00	0	40	0	0	54	4599
2026-01-15 22:53:48.72	118.22	36.88	-41.4	-43.4	17.1	0.00e+00	0	40	0	0	54	4544
2026-01-15 22:53:49.65	118.59	36.80	-41.3	-43.4	17.1	0.00e+00	0	40	0	0	54	4520
2026-01-15 22:53:50.64	118.98	36.71	-41.4	-43.5	17.0	0.00e+00	0	40	0	0	54	4577
2026-01-15 22:53:51.64	119.37	36.63	-41.2	-43.3	17.2	0.00e+00	0	40	0	0	54	4450
2026-01-15 22:53:52.63	119.75	36.54	-40.9	-42.9	17.6	0.00e+00	0	40	0	0	53	4496
2026-01-15 22:53:53.63	120.14	36.44	-40.8	-42.8	17.6	0.00e+00	0	40	0	0	53	4452
2026-01-15 22:53:54.62	120.52	36.35	-41.2	-43.2	17.2	0.00e+00	0	40	0	0	53	4700
2026-01-15 22:53:55.62	120.90	36.26	-41.5	-43.6	16.9	0.00e+00	0	40	0	0	53	4918
2026-01-15 22:53:56.61	121.28	36.16	-41.6	-43.8	16.8	0.00e+00	0	40	0	0	53	4995
2026-01-15 22:53:57.61	121.66	36.07	-41.4	-43.5	17.0	0.00e+00	0	40	0	0	53	4867
2026-01-15 22:53:58.60	122.03	35.97	-41.2	-43.3	17.2	0.00e+00	0	40	0	0	53	4718
2026-01-15 22:53:59.60	122.40	35.87	-41.3	-43.4	17.1	0.00e+00	0	40	0	0	53	4779
2026-01-15 22:54:00.59	122.77	35.78	-41.2	-43.2	17.2	0.00e+00	0	40	0	0	53	4690
2026-01-15 22:54:01.81	123.22	35.65	-40.9	-43.0	17.5	0.00e+00	0	40	0	0	53	4549
2026-01-15 22:54:02.68	123.54	35.56	-41.0	-43.0	17.4	0.00e+00	0	40	0	0	53	4590
2026-01-15 22:54:04.00	124.02	35.43	-41.3	-43.4	17.1	0.00e+00	0	40	0	0	53	4777
2026-01-15 22:54:04.71	124.28	35.36	-41.3	-43.4	17.1	0.00e+00	0	40	0	0	53	4784
2026-01-15 22:54:06.20	124.81	35.20	-41.2	-43.2	17.3	0.00e+00	0	40	0	0	53	4687
2026-01-15 22:54:06.91	125.06	35.13	-41.2	-43.2	17.3	0.00e+00	0	40	0	0	53	4676
2026-01-15 22:54:08.25	125.54	34.98	-41.1	-43.1	17.3	0.00e+00	0	40	0	0	53	4644
2026-01-15 22:54:08.96	125.79	34.91	-41.2	-43.3	17.2	0.00e+00	0	40	0	0	53	4735
2026-01-15 22:54:10.24	126.24	34.77	-41.1	-43.1	17.4	0.00e+00	0	40	0	0	53	4615
2026-01-15 22:54:10.97	126.49	34.69	-41.0	-43.0	17.5	0.00e+00	0	40	0	0	53	4576
2026-01-15 22:54:12.25	126.93	34.55	-41.1	-43.1	17.4	0.00e+00	0	40	0	0	53	4611
2026-01-15 22:54:12.97	127.18	34.47	-41.0	-43.0	17.6	0.00e+00	0	40	0	0	53	4552
2026-01-15 22:54:14.25	127.61	34.33	-41.0	-43.0	17.6	0.00e+00	0	40	0	0	53	4574
2026-01-15 22:54:14.96	127.86	34.25	-41.2	-43.2	17.3	0.00e+00	0	40	0	0	53	4693
2026-01-15 22:54:16.24	128.29	34.10	-41.5	-43.6	17.0	0.00e+00	0	40	0	0	53	4898
2026-01-15 22:54:16.95	128.52	34.02	-41.4	-43.5	17.1	0.00e+00	0	40	0	0	53	4821
2026-01-15 22:54:18.23	128.95	33.88	-40.9	-42.9	17.6	0.00e+00	0	40	0	0	53	4519
2026-01-15 22:54:18.96	129.19	33.80	-40.7	-42.6	17.9	0.00e+00	0	40	0	0	53	4367
2026-01-15 22:54:20.23	129.60	33.65	-40.7	-42.7	17.8	0.00e+00	0	40	0	0	53	4395
2026-01-15 22:54:20.96	129.84	33.57	-40.8	-42.7	17.7	0.00e+00	0	40	0	0	53	4440
2026-01-15 22:54:22.24	130.25	33.42	-40.7	-42.7	17.8	0.00e+00	0	40	0	0	53	4413
2026-01-15 22:54:22.95	130.48	33.33	-40.8	-42.8	17.8	0.00e+00	0	40	0	0	53	4442
2026-01-15 22:54:24.23	130.89	33.18	-40.7	-42.6	17.9	0.00e+00	0	40	0	0	53	4374
2026-01-15 22:54:24.94	131.11	33.10	-40.6	-42.5	18.0	0.00e+00	0	40	0	0	53	4337
2026-01-15 22:54:26.22	131.51	32.95	-40.7	-42.6	17.8	0.00e+00	0	41	0	0	53	4385
2026-01-15 22:54:26.95	131.74	32.86	-40.8	-42.7	17.7	0.00e+00	0	40	0	0	53	4441
2026-01-15 22:54:28.22	132.13	32.71	-40.9	-42.9	17.6	0.00e+00	0	41	0	0	53	4500
2026-01-15 22:54:28.95	132.36	32.62	-40.7	-42.7	17.8	0.00e+00	0	40	0	0	53	4417
2026-01-15 22:54:30.23	132.75	32.47	-40.3	-42.2	18.2	0.00e+00	0	40	0	0	52	4416
2026-01-15 22:54:30.95	132.96	32.38	-40.2	-42.1	18.3	0.00e+00	0	41	0	0	52	4389
2026-01-15 22:54:32.23	133.35	32.23	-40.4	-42.4	18.1	0.00e+00	0	40	0	0	52	4504
2026-01-15 22:54:32.96	133.57	32.14	-40.6	-42.6	17.9	0.00e+00	0	40	0	0	52	4609
2026-01-15 22:54:34.24	133.95	31.99	-40.7	-42.7	17.8	0.00e+00	0	40	0	0	52	4682
2026-01-15 22:54:34.96	134.16	31.90	-40.8	-42.8	17.7	0.00e+00	0	40	0	0	52	4731
2026-01-15 22:54:36.24	134.53	31.74	-40.6	-42.6	17.8	0.00e+00	0	40	0	0	52	4626
2026-01-15 22:54:36.95	134.74	31.66	-40.6	-42.5	17.9	0.00e+00	0	40	0	0	52	4577
2026-01-15 22:54:38.23	135.10	31.50	-40.8	-42.8	17.6	0.00e+00	0	40	0	0	52	4722
2026-01-15 22:54:38.95	135.31	31.41	-40.8	-42.8	17.6	0.00e+00	0	40	0	0	52	4710
2026-01-15 22:54:40.23	135.67	31.25	-40.8	-42.7	17.6	0.00e+00	0	40	0	0	52	4703
2026-01-15 22:54:40.96	135.88	31.16	-40.8	-42.8	17.6	0.00e+00	0	40	0	0	52	4728
2026-01-15 22:54:42.24	136.23	31.01	-40.8	-42.8	17.6	0.00e+00	0	40	0	0	52	4738
2026-01-15 22:54:42.96	136.43	30.92	-40.8	-42.8	17.7	0.00e+00	0	40	0	0	52	4721
2026-01-15 22:54:44.24	136.78	30.76	-40.9	-42.9	17.5	0.00e+00	0	40	0	0	52	4788
2026-01-15 22:54:44.96	136.98	30.67	-40.9	-42.9	17.5	0.00e+00	0	40	0	0	52	4809
2026-01-15 22:54:46.25	137.33	30.51	-40.9	-42.9	17.6	0.00e+00	0	40	0	0	52	4782
2026-01-15 22:54:46.97	137.52	30.42	-40.8	-42.8	17.6	0.00e+00	0	40	0	0	52	4757
2026-01-15 22:54:48.25	137.86	30.26	-41.0	-43.0	17.4	0.00e+00	0	40	0	0	52	4857
2026-01-15 22:54:48.96	138.05	30.17	-41.0	-43.0	17.5	0.00e+00	0	40	0	0	52	4852
2026-01-15 22:54:50.24	138.39	30.01	-40.9	-43.0	17.5	0.00e+00	0	40	0	0	52	4816
2026-01-15 22:54:50.95	138.57	29.92	-41.1	-43.1	17.4	0.00e+00	0	40	0	0	52	4896
2026-01-15 22:54:52.23	138.90	29.76	-40.8	-42.8	17.7	0.00e+00	0	41	0	0	52	4753
2026-01-15 22:54:52.94	139.09	29.67	-40.7	-42.6	17.8	0.00e+00	0	40	0	0	52	4642
2026-01-15 22:54:54.22	139.41	29.51	-40.4	-42.4	18.1	0.00e+00	0	40	0	0	52	4514
2026-01-15 22:54:54.93	139.59	29.43	-40.4	-42.3	18.1	0.00e+00	0	40	0	0	52	4478
2026-01-15 22:54:56.21	139.91	29.27	-40.4	-42.3	18.1	0.00e+00	0	40	0	0	52	4465
2026-01-15 22:54:56.94	140.09	29.17	-40.3	-42.2	18.2	0.00e+00	0	40	0	0	52	4440
2026-01-15 22:54:58.21	140.41	29.01	-40.4	-42.3	18.2	0.00e+00	0	40	0	0	52	4459
2026-01-15 22:54:58.93	140.59	28.92	-40.3	-42.2	18.2	0.00e+00	0	40	0	0	52	4440
2026-01-15 22:55:00.21	140.90	28.76	-40.0	-41.9	18.6	0.00e+00	0	40	0	0	51	4516
2026-01-15 22:55:00.93	141.07	28.67	-39.9	-41.8	18.7	0.00e+00	0	40	0	0	51	4452
2026-01-15 22:55:02.21	141.38	28.51	-39.9	-41.7	18.8	0.00e+00	0	40	0	0	51	4439
2026-01-15 22:55:03.17	141.61	28.39	-39.8	-41.6	18.8	0.00e+00	0	40	0	0	51	4389
2026-01-15 22:55:04.17	141.84	28.27	-39.8	-41.6	18.8	0.00e+00	0	40	0	0	51	4377
2026-01-15 22:55:05.16	142.07	28.15	-39.9	-41.7	18.7	0.00e+00	0	40	0	0	51	4422
2026-01-15 22:55:06.15	142.30	28.02	-39.9	-41.8	18.7	0.00e+00	0	41	0	0	51	4462
2026-01-15 22:55:07.15	142.53	27.90	-39.9	-41.7	18.7	0.00e+00	0	40	0	0	51	4435
2026-01-15 22:55:08.14	142.76	27.77	-39.8	-41.6	18.8	0.00e+00	0	40	0	0	51	4370
2026-01-15 22:55:09.15	142.99	27.65	-39.8	-41.6	18.8	0.00e+00	0	40	0	0	51	4368
2026-01-15 22:55:10.15	143.22	27.52	-39.7	-41.6	18.9	0.00e+00	0	40	0	0	51	4349
2026-01-15 22:55:11.14	143.44	27.40	-39.6	-41.4	19.0	0.00e+00	0	40	0	0	51	4249
2026-01-15 22:55:12.23	143.68	27.26	-39.6	-41.4	19.0	0.00e+00	0	40	0	0	51	4246
2026-01-15 22:55:13.12	143.87	27.15	-39.7	-41.5	18.9	0.00e+00	0	40	0	0	51	4303
2026-01-15 22:55:14.25	144.12	27.01	-39.7	-41.5	18.9	0.00e+00	0	40	0	0	51	4327
2026-01-15 22:55:15.10	144.31	26.91	-39.7	-41.5	18.9	0.00e+00	0	40	0	0	51	4305
2026-01-15 22:55:16.46	144.60	26.74	-39.7	-41.5	18.9	0.00e+00	0	40	0	0	51	4332
2026-01-15 22:55:17.17	144.75	26.65	-39.7	-41.5	18.9	0.00e+00	0	40	0	0	51	4337
2026-01-15 22:55:18.45	145.02	26.49	-39.8	-41.6	18.8	0.00e+00	0	40	0	0	51	4391
2026-01-15 22:55:19.17	145.17	26.40	-39.8	-41.6	18.8	0.00e+00	0	40	0	0	51	4379
2026-01-15 22:55:20.45	145.44	26.25	-39.8	-41.6	18.8	0.00e+00	0	40	0	0	51	4363
2026-01-15 22:55:21.17	145.59	26.16	-39.8	-41.6	18.8	0.00e+00	0	40	0	0	51	4387
2026-01-15 22:55:22.44	145.85	26.00	-39.6	-41.5	18.9	0.00e+00	0	40	0	0	51	4294
2026-01-15 22:55:23.15	145.99	25.91	-39.6	-41.4	18.9	0.00e+00	0	40	0	0	51	4291
2026-01-15 22:55:24.43	146.25	25.76	-39.7	-41.5	18.9	0.00e+00	0	40	0	0	51	4320
2026-01-15 22:55:25.16	146.40	25.67	-39.7	-41.5	18.9	0.00e+00	0	40	0	0	51	4308
2026-01-15 22:55:26.44	146.66	25.51	-39.8	-41.6	18.8	0.00e+00	0	40	0	0	51	4369
2026-01-15 22:55:27.15	146.80	25.43	-39.7	-41.6	18.8	0.00e+00	0	40	0	0	51	4341
2026-01-15 22:55:28.44	147.05	25.27	-39.7	-41.5	18.9	0.00e+00	0	40	0	0	51	4310
2026-01-15 22:55:29.15	147.19	25.18	-39.6	-41.4	19.0	0.00e+00	0	40	0	0	51	4275
2026-01-15 22:55:30.44	147.44	25.03	-39.4	-41.2	19.2	0.00e+00	0	40	0	0	50	4425
2026-01-15 22:55:31.17	147.58	24.94	-39.4	-41.2	19.2	0.00e+00	0	40	0	0	50	4432
2026-01-15 22:55:32.45	147.82	24.78	-39.4	-41.2	19.2	0.00e+00	0	41	0	0	50	4406
2026-01-15 22:55:33.20	147.96	24.69	-39.5	-41.3	19.1	0.00e+00	0	40	0	0	50	4474
2026-01-15 22:55:34.48	148.20	24.54	-39.6	-41.4	19.0	0.00e+00	0	40	0	0	50	4528
2026-01-15 22:55:35.19	148.34	24.45	-39.5	-41.4	19.0	0.00e+00	0	40	0	0	50	4527
2026-01-15 22:55:36.47	148.57	24.30	-39.7	-41.6	18.8	0.00e+00	0	40	0	0	50	4614
2026-01-15 22:55:37.21	148.71	24.21	-39.7	-41.6	18.8	0.00e+00	0	40	0	0	50	4615
2026-01-15 22:55:38.49	148.94	24.06	-39.8	-41.7	18.7	0.00e+00	0	40	0	0	50	4654
2026-01-15 22:55:39.21	149.07	23.97	-39.8	-41.7	18.7	0.00e+00	0	41	0	0	50	4677
2026-01-15 22:55:40.49	149.30	23.82	-39.9	-41.8	18.6	0.00e+00	0	40	0	0	50	4752
2026-01-15 22:55:41.22	149.43	23.73	-40.1	-42.0	18.4	0.00e+00	0	41	0	0	50	4841
2026-01-15 22:55:42.50	149.66	23.58	-40.2	-42.2	18.2	0.00e+00	0	40	0	0	51	4654
2026-01-15 22:55:43.22	149.78	23.50	-40.3	-42.2	18.2	0.00e+00	0	40	0	0	51	4700
2026-01-15 22:55:44.50	150.01	23.35	-40.3	-42.3	18.2	0.00e+00	0	40	0	0	51	4722
2026-01-15 22:55:45.22	150.13	23.26	-40.3	-42.3	18.2	0.00e+00	0	41	0	0	51	4726
2026-01-15 22:55:46.50	150.35	23.11	-40.3	-42.2	18.3	0.00e+00	0	40	0	0	51	4676
2026-01-15 22:55:47.23	150.48	23.03	-40.3	-42.2	18.2	0.00e+00	0	41	0	0	51	4688
2026-01-15 22:55:48.50	150.69	22.88	-40.2	-42.1	18.3	0.00e+00	0	40	0	0	51	4639
2026-01-15 22:55:49.24	150.82	22.79	-40.2	-42.1	18.3	0.00e+00	0	40	0	0	51	4648
2026-01-15 22:55:50.52	151.03	22.64	-40.3	-42.3	18.1	0.00e+00	0	40	0	0	51	4710
2026-01-15 22:55:51.25	151.15	22.56	-40.3	-42.2	18.2	0.00e+00	0	40	0	0	51	4700
2026-01-15 22:55:52.52	151.36	22.41	-40.2	-42.2	18.2	0.00e+00	0	40	0	0	51	4662
2026-01-15 22:55:53.23	151.48	22.33	-40.2	-42.1	18.3	0.00e+00	0	41	0	0	51	4628
2026-01-15 22:55:54.51	151.68	22.18	-40.2	-42.1	18.3	0.00e+00	0	40	0	0	51	4620
2026-01-15 22:55:55.25	151.80	22.10	-40.1	-42.1	18.4	0.00e+00	0	41	0	0	51	4602
2026-01-15 22:55:56.53	152.01	21.95	-40.2	-42.1	18.3	0.00e+00	0	40	0	0	51	4611
2026-01-15 22:55:57.26	152.12	21.87	-40.2	-42.1	18.3	0.00e+00	0	40	0	0	51	4637
2026-01-15 22:55:58.69	152.35	21.70	-40.1	-42.0	18.4	0.00e+00	0	40	0	0	51	4583
2026-01-15 22:55:59.40	152.46	21.62	-40.1	-41.9	18.4	0.00e+00	0	40	0	0	51	4544
2026-01-15 22:56:00.75	152.67	21.47	-40.0	-41.9	18.5	0.00e+00	0	41	0	0	51	4527
2026-01-15 22:56:01.74	152.82	21.36	-40.1	-42.0	18.4	0.00e+00	0	40	0	0	51	4581
2026-01-15 22:56:02.74	152.97	21.25	-40.1	-42.0	18.4	0.00e+00	0	40	0	0	51	4550
2026-01-15 22:56:03.73	153.12	21.13	-40.1	-42.0	18.5	0.00e+00	0	40	0	0	51	4548
2026-01-15 22:56:04.73	153.27	21.02	-40.2	-42.1	18.3	0.00e+00	0	40	0	0	51	4610
2026-01-15 22:56:05.72	153.42	20.91	-40.1	-42.0	18.4	0.00e+00	0	40	0	0	51	4586
2026-01-15 22:56:06.72	153.57	20.80	-40.2	-42.1	18.3	0.00e+00	0	40	0	0	51	4618
2026-01-15 22:56:07.71	153.72	20.69	-40.2	-42.1	18.3	0.00e+00	0	40	0	0	51	4627
2026-01-15 22:56:08.71	153.86	20.58	-40.1	-42.1	18.3	0.00e+00	0	40	0	0	51	4602
2026-01-15 22:56:09.70	154.01	20.47	-40.1	-42.0	18.3	0.00e+00	0	40	0	0	51	4585
2026-01-15 22:56:10.70	154.15	20.36	-40.1	-42.0	18.4	0.00e+00	0	40	0	0	51	4581
2026-01-15 22:56:11.70	154.29	20.25	-40.2	-42.1	18.3	0.00e+00	0	40	0	0	51	4627
2026-01-15 22:56:12.69	154.43	20.14	-40.1	-42.0	18.3	0.00e+00	0	40	0	0	51	4581
2026-01-15 22:56:13.69	154.58	20.03	-40.1	-42.0	18.3	0.00e+00	0	41	0	0	51	4593
2026-01-15 22:56:14.68	154.71	19.93	-40.0	-41.9	18.4	0.00e+00	0	40	0	0	51	4534
2026-01-15 22:56:15.67	154.85	19.82	-40.0	-41.9	18.4	0.00e+00	0	40	0	0	51	4541
2026-01-15 22:56:16.67	154.99	19.71	-40.0	-41.8	18.5	0.00e+00	0	41	0	0	51	4492
2026-01-15 22:56:17.66	155.13	19.60	-39.9	-41.9	18.5	0.00e+00	0	41	0	0	51	4500
2026-01-15 22:56:18.66	155.26	19.49	-40.0	-41.9	18.4	0.00e+00	0	40	0	0	51	4513
2026-01-15 22:56:19.65	155.40	19.39	-40.0	-41.9	18.4	0.00e+00	0	41	0	0	51	4537
2026-01-15 22:56:20.65	155.53	19.28	-40.1	-42.0	18.3	0.00e+00	0	40	0	0	51	4583
2026-01-15 22:56:21.64	155.67	19.18	-40.1	-42.1	18.3	0.00e+00	0	41	0	0	51	4608
2026-01-15 22:56:22.72	155.81	19.06	-40.3	-42.2	18.2	0.00e+00	0	41	0	0	51	4699
2026-01-15 22:56:23.60	155.93	18.97	-40.2	-42.2	18.2	0.00e+00	0	41	0	0	51	4654
2026-01-15 22:56:24.91	156.10	18.83	-40.2	-42.1	18.2	0.00e+00	0	40	0	0	51	4630
2026-01-15 22:56:25.62	156.19	18.75	-40.2	-42.1	18.3	0.00e+00	0	41	0	0	51	4627
2026-01-15 22:56:27.10	156.38	18.60	-40.2	-42.1	18.3	0.00e+00	0	41	0	0	51	4618
2026-01-15 22:56:27.81	156.47	18.52	-40.2	-42.1	18.2	0.00e+00	0	41	0	0	51	4639
2026-01-15 22:56:29.14	156.64	18.38	-40.0	-41.9	18.4	0.00e+00	0	40	0	0	51	4535
2026-01-15 22:56:29.85	156.73	18.31	-39.9	-41.8	18.5	0.00e+00	0	41	0	0	51	4474
2026-01-15 22:56:31.13	156.89	18.18	-39.9	-41.8	18.5	0.00e+00	0	40	0	0	51	4451
2026-01-15 22:56:32.14	157.02	18.07	-39.9	-41.8	18.4	0.00e+00	0	40	0	0	51	4487
2026-01-15 22:56:33.45	157.18	17.94	-40.0	-41.9	18.4	0.00e+00	0	41	0	0	51	4520
2026-01-15 22:56:34.16	157.27	17.86	-40.0	-41.9	18.3	0.00e+00	0	41	0	0	51	4541
2026-01-15 22:56:35.44	157.43	17.73	-40.2	-42.2	18.1	0.00e+00	0	41	0	0	51	4658
2026-01-15 22:56:36.15	157.51	17.66	-40.1	-42.1	18.2	0.00e+00	0	41	0	0	51	4612
2026-01-15 22:56:37.43	157.67	17.53	-40.2	-42.1	18.1	0.00e+00	0	40	0	0	51	4643
2026-01-15 22:56:38.16	157.75	17.46	-40.3	-42.2	18.0	0.00e+00	0	41	0	0	51	4699
2026-01-15 22:56:39.44	157.91	17.33	-40.3	-42.3	18.0	0.00e+00	0	41	0	0	51	4738
2026-01-15 22:56:40.15	157.99	17.25	-40.4	-42.4	17.9	0.00e+00	0	41	0	0	51	4785
2026-01-15 22:56:41.44	158.14	17.12	-40.5	-42.5	17.8	0.00e+00	0	41	0	0	51	4860
2026-01-15 22:56:42.16	158.23	17.05	-40.4	-42.5	17.8	0.00e+00	0	40	0	0	51	4837
2026-01-15 22:56:43.43	158.37	16.93	-40.6	-42.7	17.7	0.00e+00	0	41	0	0	51	4938
2026-01-15 22:56:44.15	158.46	16.85	-40.6	-42.7	17.7	0.00e+00	0	40	0	0	51	4930
2026-01-15 22:56:45.43	158.60	16.73	-40.6	-42.7	17.7	0.00e+00	0	41	0	0	51	4950
2026-01-15 22:56:46.16	158.69	16.65	-40.6	-42.7	17.6	0.00e+00	0	41	0	0	52	4656
2026-01-15 22:56:47.45	158.83	16.53	-40.6	-42.7	17.6	0.00e+00	0	41	0	0	52	4660
2026-01-15 22:56:48.17	158.91	16.45	-40.6	-42.7	17.5	0.00e+00	0	41	0	0	52	4691
2026-01-15 22:56:49.45	159.06	16.33	-40.7	-42.8	17.5	0.00e+00	0	41	0	0	52	4731
2026-01-15 22:56:50.16	159.14	16.26	-40.8	-42.9	17.4	0.00e+00	0	41	0	0	52	4772
2026-01-15 22:56:51.44	159.28	16.13	-40.8	-43.0	17.3	0.00e+00	0	40	0	0	52	4815
2026-01-15 22:56:52.17	159.36	16.06	-40.8	-42.9	17.3	0.00e+00	0	40	0	0	52	4802
2026-01-15 22:56:53.45	159.50	15.94	-40.9	-43.0	17.3	0.00e+00	0	41	0	0	52	4832
2026-01-15 22:56:54.17	159.57	15.87	-40.9	-43.0	17.3	0.00e+00	0	40	0	0	52	4845
2026-01-15 22:56:55.45	159.71	15.74	-41.0	-43.0	17.2	0.00e+00	0	41	0	0	52	4861
2026-01-15 22:56:56.16	159.79	15.68	-40.8	-42.8	17.4	0.00e+00	0	41	0	0	52	4750
2026-01-15 22:56:57.44	159.92	15.55	-40.8	-42.9	17.4	0.00e+00	0	41	0	0	52	4761
2026-01-15 22:56:58.15	160.00	15.49	-40.8	-42.8	17.4	0.00e+00	0	41	0	0	52	4740
2026-01-15 22:56:59.45	160.14	15.36	-40.8	-42.8	17.4	0.00e+00	0	41	0	0	52	4737
2026-01-15 22:57:00.16	160.21	15.29	-40.8	-42.8	17.3	0.00e+00	0	41	0	0	52	4757
2026-01-15 22:57:01.43	160.34	15.17	-40.7	-42.7	17.4	0.00e+00	0	41	0	0	52	4705
2026-01-15 22:57:02.17	160.42	15.10	-40.7	-42.8	17.4	0.00e+00	0	41	0	0	52	4710
2026-01-15 22:57:03.45	160.55	14.98	-40.7	-42.8	17.4	0.00e+00	0	41	0	0	52	4707
2026-01-15 22:57:04.18	160.62	14.91	-40.8	-42.9	17.3	0.00e+00	0	41	0	0	52	4760
2026-01-15 22:57:05.46	160.75	14.79	-40.7	-42.7	17.4	0.00e+00	0	41	0	0	52	4704
2026-01-15 22:57:06.17	160.82	14.73	-40.8	-42.9	17.4	0.00e+00	0	41	0	0	52	4763
2026-01-15 22:57:07.65	160.97	14.59	-40.7	-42.8	17.4	0.00e+00	0	41	0	0	52	4735
2026-01-15 22:57:08.36	161.04	14.52	-40.7	-42.8	17.4	0.00e+00	0	41	0	0	52	4746
2026-01-15 22:57:09.64	161.17	14.41	-40.7	-42.8	17.4	0.00e+00	0	41	0	0	52	4745
2026-01-15 22:57:10.36	161.24	14.34	-40.7	-42.8	17.4	0.00e+00	0	41	0	0	52	4744
2026-01-15 22:57:11.74	161.37	14.21	-40.7	-42.8	17.5	0.00e+00	0	41	0	0	52	4731
2026-01-15 22:57:12.45	161.44	14.15	-40.8	-42.9	17.3	0.00e+00	0	40	0	0	52	4803
2026-01-15 22:57:13.73	161.57	14.03	-40.8	-42.9	17.3	0.00e+00	0	41	0	0	52	4807
2026-01-15 22:57:14.45	161.63	13.96	-40.8	-42.9	17.3	0.00e+00	0	41	0	0	52	4800
2026-01-15 22:57:15.74	161.76	13.85	-41.0	-43.1	17.2	0.00e+00	0	41	0	0	52	4889
2026-01-15 22:57:16.46	161.83	13.78	-41.0	-43.1	17.1	0.00e+00	0	41	0	0	52	4903
2026-01-15 22:57:17.74	161.95	13.67	-41.1	-43.2	17.0	0.00e+00	0	41	0	0	52	4974
2026-01-15 22:57:18.47	162.01	13.60	-41.1	-43.3	17.0	0.00e+00	0	41	0	0	52	4990
2026-01-15 22:57:19.75	162.13	13.48	-41.2	-43.4	16.9	0.00e+00	0	41	0	0	53	4777
2026-01-15 22:57:20.47	162.20	13.42	-41.2	-43.4	16.8	0.00e+00	0	41	0	0	53	4789
2026-01-15 22:57:21.75	162.32	13.31	-41.3	-43.4	16.8	0.00e+00	0	41	0	0	53	4809
2026-01-15 22:57:22.48	162.38	13.24	-41.2	-43.4	16.8	0.00e+00	0	41	0	0	53	4800
2026-01-15 22:57:23.76	162.50	13.13	-41.3	-43.5	16.7	0.00e+00	0	41	0	0	53	4850
2026-01-15 22:57:24.48	162.56	13.06	-41.3	-43.5	16.6	0.00e+00	0	41	0	0	53	4860
2026-01-15 22:57:25.76	162.68	12.95	-41.3	-43.6	16.6	0.00e+00	0	41	0	0	53	4873
2026-01-15 22:57:26.63	162.76	12.87	-41.4	-43.6	16.6	0.00e+00	0	41	0	0	53	4879
2026-01-15 22:57:28.08	162.89	12.75	-41.3	-43.5	16.6	0.00e+00	0	41	0	0	53	4856
2026-01-15 22:57:28.79	162.95	12.68	-41.3	-43.5	16.6	0.00e+00	0	41	0	0	53	4868
2026-01-15 22:57:30.07	163.06	12.57	-41.4	-43.6	16.5	0.00e+00	0	41	0	0	53	4911
2026-01-15 22:57:30.80	163.12	12.51	-41.4	-43.6	16.5	0.00e+00	0	41	0	0	53	4926
2026-01-15 22:57:32.08	163.23	12.40	-41.4	-43.6	16.5	0.00e+00	0	41	0	0	53	4909
2026-01-15 22:57:32.86	163.30	12.33	-41.4	-43.7	16.4	0.00e+00	0	41	0	0	53	4944
2026-01-15 22:57:34.06	163.40	12.23	-41.4	-43.6	16.5	6.39e-03	0	41	0	0	53	4923
2026-01-15 22:57:34.91	163.48	12.15	-41.4	-43.7	16.4	0.00e+00	0	41	0	0	53	4953
2026-01-15 22:57:36.05	163.57	12.06	-41.3	-43.5	16.5	0.00e+00	0	41	0	0	53	4864
2026-01-15 22:57:36.90	163.65	11.98	-41.4	-43.6	16.5	4.78e-04	0	41	0	0	53	4891
2026-01-15 22:57:38.04	163.74	11.89	-41.4	-43.6	16.5	0.00e+00	0	41	0	0	53	4895
2026-01-15 22:57:38.89	163.81	11.81	-41.5	-43.7	16.4	0.00e+00	0	41	0	0	53	4962
2026-01-15 22:57:40.03	163.91	11.72	-41.4	-43.6	16.5	0.00e+00	0	40	0	0	53	4920
2026-01-15 22:57:40.88	163.98	11.65	-41.4	-43.7	16.4	0.00e+00	0	41	0	0	53	4932
2026-01-15 22:57:42.02	164.07	11.55	-41.4	-43.6	16.5	0.00e+00	0	41	0	0	53	4890
2026-01-15 22:57:42.88	164.14	11.48	-41.4	-43.6	16.5	0.00e+00	0	41	0	0	53	4921
2026-01-15 22:57:44.08	164.24	11.38	-41.4	-43.6	16.5	0.00e+00	0	40	0	0	53	4918
2026-01-15 22:57:45.33	164.34	11.27	-41.4	-43.6	16.5	0.00e+00	0	41	0	0	53	4885
2026-01-15 22:57:46.18	164.40	11.20	-41.4	-43.6	16.5	0.00e+00	0	41	0	0	53	4878
2026-01-15 22:57:47.31	164.49	11.11	-41.4	-43.6	16.5	0.00e+00	0	41	0	0	53	4884
2026-01-15 22:57:48.17	164.56	11.04	-41.5	-43.7	16.4	0.00e+00	0	41	0	0	53	4962
2026-01-15 22:57:49.68	164.68	10.91	-41.3	-43.5	16.6	0.00e+00	0	41	0	0	53	4859
2026-01-15 22:57:50.39	164.74	10.86	-41.3	-43.5	16.6	0.00e+00	0	41	0	0	53	4869
2026-01-15 22:57:51.67	164.84	10.75	-41.3	-43.6	16.5	0.00e+00	0	41	0	0	53	4880
2026-01-15 22:57:52.40	164.89	10.69	-41.4	-43.6	16.5	0.00e+00	0	41	0	0	53	4903
2026-01-15 22:57:53.68	164.99	10.59	-41.4	-43.6	16.5	0.00e+00	0	41	0	0	53	4921
2026-01-15 22:57:54.40	165.05	10.53	-41.3	-43.6	16.5	0.00e+00	0	41	0	0	53	4894
2026-01-15 22:57:55.68	165.14	10.42	-41.4	-43.6	16.5	0.00e+00	0	41	0	0	53	4915
2026-01-15 22:57:56.49	165.21	10.36	-41.3	-43.6	16.5	0.00e+00	0	41	0	0	53	4917
2026-01-15 22:57:57.63	165.29	10.27	-41.4	-43.7	16.4	0.00e+00	0	41	0	0	53	4982
2026-01-15 22:57:58.48	165.35	10.20	-41.4	-43.8	16.3	0.00e+00	0	41	0	0	53	5000
2026-01-15 22:57:59.61	165.44	10.11	-41.3	-43.9	16.2	0.00e+00	0	41	0	0	53	5058
2026-01-15 22:58:00.47	165.50	10.04	-41.3	-43.9	16.2	0.00e+00	0	41	0	0	53	5091
2026-01-15 22:58:01.60	165.59	9.95	-41.2	-43.9	16.2	0.00e+00	0	41	0	0	53	5072
2026-01-15 22:58:02.45	165.65	9.88	-41.2	-43.9	16.2	0.00e+00	0	41	0	0	53	5082
2026-01-15 22:58:03.59	165.73	9.79	-41.2	-44.0	16.1	0.00e+00	0	41	0	0	53	5123
2026-01-15 22:58:04.44	165.79	9.72	-41.4	-44.2	15.9	0.00e+00	0	41	0	0	53	5256
2026-01-15 22:58:05.61	165.88	9.63	-41.3	-44.2	15.7	5.99e-02	0	41	0	0	53	5227
2026-01-15 22:58:06.46	165.94	9.56	-41.3	-44.1	16.0	0.00e+00	0	41	0	0	53	5186
2026-01-15 22:58:07.60	166.02	9.47	-41.3	-44.1	16.0	0.00e+00	0	41	0	0	53	5168
2026-01-15 22:58:08.45	166.08	9.41	-41.7	-45.0	6.4	0.00e+00	0	41	0	0	54	5463
2026-01-15 22:58:09.59	166.16	9.32	-41.4	-44.2	15.9	0.00e+00	0	41	0	0	54	4927
2026-01-15 22:58:10.47	166.22	9.25	-41.4	-44.0	16.0	0.00e+00	0	41	0	0	54	4866
2026-01-15 22:58:11.60	166.30	9.16	-41.4	-44.1	15.9	6.78e-02	0	41	0	0	54	4887
2026-01-15 22:58:12.51	166.37	9.09	-41.5	-44.2	15.8	0.00e+00	0	41	0	0	54	4964
2026-01-15 22:58:13.54	166.44	9.01	-41.7	-44.4	15.7	0.00e+00	0	41	0	0	54	5058
2026-01-15 22:58:14.54	166.51	8.94	-48.2	-61.2	3.8	1.49e+00	0	41	104	0	67	16562
2026-01-15 22:58:15.53	166.57	8.86	-48.5	-61.4	3.8	1.49e+00	0	41	104	0	67	17007
2026-01-15 22:58:16.53	166.64	8.78	-48.6	-61.7	3.8	1.49e+00	0	41	104	0	67	17569
2026-01-15 22:58:17.52	166.71	8.71	-48.8	-61.9	3.8	1.49e+00	0	41	104	0	68	17083
2026-01-15 22:58:18.51	166.78	8.63	-48.9	-62.1	3.8	1.49e+00	0	41	104	0	68	17362
2026-01-15 22:58:19.51	166.84	8.56	-49.0	-62.1	3.8	1.49e+00	0	41	104	0	68	17439
2026-01-15 22:58:20.50	166.91	8.48	-49.0	-62.2	3.8	1.49e+00	0	41	104	0	69	16547
2026-01-15 22:58:21.50	166.98	8.41	-49.1	-62.2	3.8	1.49e+00	0	41	104	0	69	16603
2026-01-15 22:58:22.49	167.04	8.33	-49.1	-62.2	3.8	1.49e+00	0	41	104	0	69	16604
2026-01-15 22:58:23.48	167.11	8.26	-49.2	-62.2	3.8	1.49e+00	0	41	104	0	69	16665
2026-01-15 22:58:24.48	167.17	8.18	-49.3	-62.2	3.8	1.49e+00	0	41	104	0	69	16657
2026-01-15 22:58:25.47	167.24	8.11	-49.2	-62.2	3.8	1.49e+00	0	41	104	0	69	16669
2026-01-15 22:58:26.48	167.30	8.03	-49.2	-62.3	3.8	1.49e+00	0	40	104	0	69	16756
2026-01-15 22:58:27.51	167.37	7.95	-49.3	-62.3	3.8	1.49e+00	0	41	104	0	69	16785
2026-01-15 22:58:28.53	167.44	7.88	-49.1	-62.3	3.8	1.49e+00	0	41	104	0	69	16771
2026-01-15 22:58:29.55	167.50	7.80	-49.4	-62.3	3.8	1.49e+00	0	41	104	0	69	16747
2026-01-15 22:58:30.55	167.57	7.73	-49.2	-62.3	3.8	1.49e+00	0	41	104	0	69	16754
2026-01-15 22:58:31.54	167.63	7.66	-49.3	-62.3	3.8	1.49e+00	0	41	104	0	69	16743
2026-01-15 22:58:32.54	167.69	7.58	-49.4	-62.3	3.8	1.49e+00	0	41	104	0	69	16785
2026-01-15 22:58:33.53	167.75	7.51	-49.3	-62.3	3.8	1.49e+00	0	41	104	0	69	16729
2026-01-15 22:58:34.52	167.82	7.44	-49.4	-62.3	3.8	1.49e+00	0	41	104	0	69	16755
2026-01-15 22:58:35.52	167.88	7.37	-49.4	-62.3	3.8	1.49e+00	0	41	104	0	69	16712
2026-01-15 22:58:36.51	167.94	7.29	-49.3	-62.3	3.8	1.49e+00	0	41	104	0	69	16757
2026-01-15 22:58:37.50	168.00	7.22	-49.4	-62.3	3.8	1.49e+00	0	41	104	0	69	16791
2026-01-15 22:58:38.50	168.06	7.15	-49.2	-62.3	3.8	1.49e+00	0	41	104	0	69	16742
2026-01-15 22:58:39.49	168.12	7.08	-49.1	-62.3	3.8	1.49e+00	0	41	104	0	69	16713
2026-01-15 22:58:40.48	168.18	7.01	-48.9	-62.3	3.8	1.49e+00	0	41	104	0	69	16703
2026-01-15 22:58:41.48	168.24	6.93	-49.0	-62.2	3.8	1.49e+00	0	41	104	0	69	16640
2026-01-15 22:58:42.47	168.30	6.86	-49.0	-62.2	3.8	1.49e+00	0	41	104	0	69	16582
2026-01-15 22:58:43.46	168.36	6.79	-49.0	-62.2	3.8	1.49e+00	0	41	104	0	69	16632
2026-01-15 22:58:44.46	168.42	6.72	-49.0	-62.2	3.8	1.49e+00	0	41	104	0	69	16655
2026-01-15 22:58:45.45	168.48	6.65	-49.0	-62.2	3.8	1.49e+00	0	41	104	0	69	16626
2026-01-15 22:58:46.44	168.54	6.58	-49.0	-62.2	3.8	1.49e+00	0	41	104	0	69	16579
2026-01-15 22:58:47.44	168.60	6.51	-49.0	-62.2	3.8	1.49e+00	0	41	104	0	69	16653
2026-01-15 22:58:48.43	168.66	6.44	-48.9	-62.2	3.8	1.49e+00	0	41	104	0	69	16622
2026-01-15 22:58:49.42	168.71	6.37	-49.0	-62.2	3.8	1.49e+00	0	41	104	0	69	16646
2026-01-15 22:58:50.42	168.77	6.30	-49.0	-62.2	3.8	1.49e+00	0	41	104	0	69	16593
2026-01-15 22:58:51.41	168.83	6.23	-49.0	-62.2	3.8	1.49e+00	0	41	104	0	69	16616
2026-01-15 22:58:52.40	168.89	6.16	-49.0	-62.2	3.8	1.49e+00	0	41	104	0	69	16591
2026-01-15 22:58:53.40	168.94	6.09	-49.0	-62.2	3.8	1.49e+00	0	41	104	0	69	16559
2026-01-15 22:58:54.39	169.00	6.02	-49.0	-62.2	3.8	1.49e+00	0	41	104	0	69	16563
2026-01-15 22:58:55.38	169.06	5.95	-49.0	-62.2	3.8	1.49e+00	0	41	104	0	69	16628
2026-01-15 22:58:56.38	169.11	5.88	-48.9	-62.2	3.8	1.49e+00	0	41	104	0	69	16627
2026-01-15 22:58:57.37	169.17	5.81	-48.9	-62.2	3.8	1.49e+00	0	41	104	0	69	16576
2026-01-15 22:58:58.36	169.22	5.75	-49.0	-62.2	3.8	1.49e+00	0	41	104	0	69	16619
2026-01-15 22:58:59.36	169.28	5.68	-49.0	-62.2	3.8	1.49e+00	0	41	104	0	69	16582
2026-01-15 22:59:00.35	169.33	5.61	-49.0	-62.2	3.8	1.49e+00	0	41	104	0	69	16599
2026-01-15 22:59:01.34	169.39	5.54	-49.0	-62.2	3.8	1.49e+00	0	41	104	0	69	16583
2026-01-15 22:59:02.34	169.44	5.47	-49.0	-62.2	3.8	1.49e+00	0	41	104	0	69	16604
2026-01-15 22:59:03.33	169.50	5.40	-48.9	-62.2	3.8	1.49e+00	0	41	104	0	69	16555
2026-01-15 22:59:04.32	169.55	5.34	-48.9	-62.2	3.8	1.49e+00	0	41	104	0	69	16591
2026-01-15 22:59:05.32	169.61	5.27	-48.9	-62.2	3.8	1.49e+00	0	41	104	0	69	16618
2026-01-15 22:59:06.31	169.66	5.20	-48.9	-62.2	3.8	1.49e+00	0	41	104	0	69	16550
2026-01-15 22:59:07.30	169.71	5.14	-49.0	-62.2	3.8	1.49e+00	0	41	104	0	69	16557
2026-01-15 22:59:08.30	169.77	5.07	-48.9	-62.2	3.8	1.49e+00	0	41	104	0	69	16621
2026-01-15 22:59:09.29	169.82	5.00	-48.9	-62.2	3.8	1.49e+00	0	41	104	0	69	16620

#Closed at: 2026-01-15 22:59:10
#Recorded file [0 MB]: D:/Data/31040_260116_014646.dat