passes_logs/2026/01/15/T1/T1__20260115_054001_FENGYUN_3E_rec.log

#Pass ID: 20260115_054001_FENGYUN 3E
#Satellite: FENGYUN 3E
#Configuration: FENGYUN 3E
#almurnet v.1.7.20251203
#Start time: 2026-01-15 05:40:03

#Version: 2.0.20230620
#Station: T1
#Location: 37.570604 lon 55.790049 lat
#TLE: 1 49008U 21062A   26014.30102361 -.00000015  00000+0  13743-4 0  9999
#TLE: 2 49008  98.7489  19.4380 0001989 137.7844 222.3486 14.19884630234745

#Time	Az	El	Level	Level2	SNR	BER	BlckErr	Temp	State	Recorded	gain1	gain2
2026-01-15 05:40:03.25	6.26	5.07	-49.3	-61.6	3.8	8.47e-01	0	40	0	0	69	14529
2026-01-15 05:40:04.24	6.18	5.13	-49.1	-61.3	3.8	8.47e-01	0	41	104	0	68	14788
2026-01-15 05:40:05.23	6.10	5.19	-49.1	-61.3	3.8	8.47e-01	0	41	104	0	68	14716
2026-01-15 05:40:06.22	6.02	5.25	-49.1	-61.2	3.8	8.47e-01	0	40	104	0	68	14664
2026-01-15 05:40:07.21	5.94	5.31	-49.1	-61.3	3.8	8.48e-01	0	41	104	0	68	14737
2026-01-15 05:40:08.21	5.85	5.37	-49.1	-61.2	3.8	8.47e-01	0	41	104	0	68	14663
2026-01-15 05:40:09.20	5.77	5.43	-49.1	-61.3	3.8	8.48e-01	0	41	104	0	68	14729
2026-01-15 05:40:10.19	5.69	5.49	-49.1	-61.2	3.8	8.47e-01	0	41	104	0	68	14639
2026-01-15 05:40:11.19	5.60	5.55	-49.1	-61.3	3.8	8.47e-01	0	41	104	0	68	14737
2026-01-15 05:40:12.18	5.52	5.61	-49.1	-61.2	3.8	8.46e-01	0	41	104	0	68	14693
2026-01-15 05:40:13.17	5.44	5.67	-49.1	-61.3	3.8	8.48e-01	0	41	104	0	68	14735
2026-01-15 05:40:14.16	5.35	5.73	-49.1	-61.2	3.8	8.47e-01	0	41	104	0	68	14707
2026-01-15 05:40:15.16	5.27	5.79	-49.2	-61.3	3.8	8.47e-01	0	41	104	0	68	14813
2026-01-15 05:40:16.15	5.18	5.85	-49.1	-61.4	3.8	8.47e-01	0	41	104	0	68	14899
2026-01-15 05:40:17.15	5.10	5.91	-49.1	-61.4	3.8	8.48e-01	0	41	104	0	68	14889
2026-01-15 05:40:18.14	5.01	5.97	-49.1	-61.4	3.8	8.47e-01	0	41	104	0	68	14907
2026-01-15 05:40:19.13	4.92	6.03	-49.1	-61.3	3.8	8.47e-01	0	41	104	0	68	14875
2026-01-15 05:40:20.13	4.84	6.09	-49.1	-61.4	3.8	8.47e-01	0	41	104	0	68	14925
2026-01-15 05:40:21.12	4.75	6.15	-49.1	-61.3	3.8	8.48e-01	0	41	104	0	68	14816
2026-01-15 05:40:22.11	4.66	6.22	-49.1	-61.3	3.8	8.46e-01	0	41	104	0	68	14805
2026-01-15 05:40:23.11	4.57	6.28	-49.1	-61.3	3.8	8.48e-01	0	41	104	0	68	14784
2026-01-15 05:40:24.10	4.49	6.34	-49.1	-61.2	3.8	8.48e-01	0	41	104	0	68	14609
2026-01-15 05:40:25.09	4.40	6.40	-49.1	-61.2	3.8	8.46e-01	0	42	104	0	68	14696
2026-01-15 05:40:26.09	4.31	6.46	-49.1	-61.2	3.8	8.47e-01	0	41	104	0	68	14692
2026-01-15 05:40:27.08	4.22	6.52	-48.9	-61.2	3.8	8.47e-01	0	41	104	0	68	14616
2026-01-15 05:40:28.07	4.13	6.58	-49.1	-61.2	3.8	8.46e-01	0	42	104	0	68	14684
2026-01-15 05:40:29.06	4.04	6.65	-49.1	-61.3	3.8	8.47e-01	0	42	104	0	68	14734
2026-01-15 05:40:30.06	3.95	6.71	-49.1	-61.4	3.8	8.48e-01	0	41	104	0	68	14919
2026-01-15 05:40:31.05	3.86	6.77	-49.2	-61.4	3.8	8.47e-01	0	42	104	0	68	15047
2026-01-15 05:40:32.04	3.77	6.83	-49.2	-61.5	3.8	8.45e-01	0	42	104	0	68	15119
2026-01-15 05:40:33.04	3.68	6.89	-49.2	-61.5	3.8	8.46e-01	0	41	104	0	68	15162
2026-01-15 05:40:34.03	3.58	6.96	-49.1	-61.5	3.8	8.46e-01	0	42	104	0	68	15073
2026-01-15 05:40:35.02	3.49	7.02	-49.1	-61.3	3.8	8.46e-01	0	42	104	0	68	14787
2026-01-15 05:40:36.02	3.40	7.08	-49.1	-61.2	3.8	8.47e-01	0	42	104	0	68	14572
2026-01-15 05:40:37.01	3.30	7.14	-49.1	-61.0	3.8	8.47e-01	0	42	104	0	68	14228
2026-01-15 05:40:38.00	3.21	7.21	-49.1	-60.8	3.8	8.47e-01	0	42	104	0	68	13970
2026-01-15 05:40:39.00	3.12	7.27	-49.1	-60.6	3.8	8.46e-01	0	42	104	0	68	13721
2026-01-15 05:40:39.99	3.02	7.33	-49.1	-60.4	3.8	8.46e-01	0	42	104	0	68	13404
2026-01-15 05:40:40.98	2.93	7.39	-49.1	-60.2	3.8	8.47e-01	0	42	104	0	68	13052
2026-01-15 05:40:41.98	2.83	7.46	-49.0	-59.8	3.8	8.46e-01	0	42	104	0	68	12398
2026-01-15 05:40:42.97	2.74	7.52	-49.0	-59.4	3.9	8.46e-01	0	42	104	0	68	11845
2026-01-15 05:40:43.96	2.64	7.58	-48.9	-59.2	3.9	8.46e-01	0	42	104	0	68	11585
2026-01-15 05:40:44.96	2.54	7.65	-48.9	-59.1	4.0	8.45e-01	0	42	104	0	68	11451
2026-01-15 05:40:45.95	2.44	7.71	-49.0	-59.4	3.8	8.46e-01	0	42	104	0	68	11942
2026-01-15 05:40:46.94	2.35	7.77	-49.0	-60.0	3.8	8.47e-01	0	42	104	0	68	12803
2026-01-15 05:40:47.93	2.25	7.83	-49.1	-60.8	3.8	8.47e-01	0	42	104	0	68	13999
2026-01-15 05:40:48.93	2.15	7.90	-49.1	-61.4	3.8	8.47e-01	0	42	104	0	68	15049
2026-01-15 05:40:49.92	2.05	7.96	-49.1	-61.2	3.8	8.46e-01	0	42	104	0	68	14634
2026-01-15 05:40:50.92	1.95	8.03	-49.0	-59.8	3.8	8.45e-01	0	42	104	0	68	12477
2026-01-15 05:40:51.91	1.85	8.09	-48.7	-57.7	4.3	8.38e-01	0	42	0	0	68	9799
2026-01-15 05:40:52.90	1.75	8.15	-48.2	-55.5	5.2	7.73e-01	0	42	0	0	67	8034
2026-01-15 05:40:53.89	1.65	8.22	-47.9	-54.0	6.3	3.34e-01	0	42	0	3145728	66	7130
2026-01-15 05:40:54.89	1.55	8.28	-47.4	-52.7	7.5	1.18e-01	0	42	0	10485760	65	6514
2026-01-15 05:40:55.88	1.45	8.34	-47.0	-51.4	8.8	4.02e-02	0	42	0	17825792	64	5935
2026-01-15 05:40:56.87	1.35	8.41	-46.6	-50.4	9.9	1.40e-02	0	42	0	25165824	63	5609
2026-01-15 05:40:57.87	1.24	8.47	-46.0	-49.4	10.9	2.81e-03	0	42	0	32505856	62	5298
2026-01-15 05:40:58.86	1.14	8.54	-45.5	-48.4	11.9	7.24e-04	0	42	0	39845888	61	5011
2026-01-15 05:40:59.85	1.04	8.60	-45.0	-47.6	12.8	8.01e-05	0	42	0	47185920	60	4832
2026-01-15 05:41:00.85	0.93	8.66	-44.6	-46.9	13.3	2.28e-05	0	42	0	53477376	59	4743
2026-01-15 05:41:01.84	0.83	8.73	-44.3	-46.5	13.8	5.70e-06	0	42	0	60817408	59	4508
2026-01-15 05:41:02.83	0.72	8.79	-43.9	-46.0	14.3	1.10e-06	0	42	0	68157440	58	4524
2026-01-15 05:41:03.82	0.62	8.86	-44.0	-46.1	14.2	0.00e+00	0	42	0	75497472	58	4565
2026-01-15 05:41:04.82	0.51	8.92	-44.1	-46.3	14.0	3.40e-06	0	42	0	82837504	58	4658
2026-01-15 05:41:05.81	0.40	8.99	-44.6	-47.0	13.3	1.25e-05	0	42	0	90177536	58	5053
2026-01-15 05:41:06.80	0.30	9.05	-45.3	-48.0	12.3	1.05e-04	0	42	0	97517568	59	5341
2026-01-15 05:41:07.80	0.19	9.12	-46.4	-49.8	10.6	9.85e-04	0	42	0	103809024	62	5534
2026-01-15 05:41:08.79	0.08	9.18	-44.2	-46.2	14.1	4.34e-05	0	42	0	111149056	59	4357
2026-01-15 05:41:09.79	359.97	9.25	-47.4	-52.2	8.1	3.88e-04	0	42	0	118489088	64	6496
2026-01-15 05:41:10.78	359.86	9.31	-48.2	-53.5	6.8	1.79e-01	0	42	0	124780544	66	6783
2026-01-15 05:41:11.77	359.75	9.38	-43.2	-44.9	15.3	1.48e-04	0	42	0	131072000	57	4219
2026-01-15 05:41:12.77	359.64	9.44	-43.0	-44.7	15.6	0.00e+00	0	42	0	138412032	56	4342
2026-01-15 05:41:13.77	359.53	9.51	-42.8	-44.4	15.9	0.00e+00	0	42	0	145752064	56	4217
2026-01-15 05:41:14.76	359.42	9.57	-42.2	-43.7	16.3	0.00e+00	0	42	0	153092096	55	4136
2026-01-15 05:41:15.75	359.31	9.64	-41.8	-43.2	16.8	0.00e+00	0	42	0	160432128	54	4145
2026-01-15 05:41:16.75	359.20	9.70	-41.9	-43.4	16.7	0.00e+00	0	42	0	167772160	54	4211
2026-01-15 05:41:17.74	359.09	9.77	-41.7	-43.1	17.0	0.00e+00	0	42	0	174063616	54	4098
2026-01-15 05:41:18.74	358.97	9.83	-41.7	-43.2	17.0	0.00e+00	0	42	0	181403648	54	4104
2026-01-15 05:41:19.73	358.86	9.90	-41.7	-43.2	16.9	0.00e+00	0	42	0	188743680	54	4105
2026-01-15 05:41:20.73	358.74	9.97	-41.8	-43.2	16.9	0.00e+00	0	42	0	196083712	54	4144
2026-01-15 05:41:21.72	358.63	10.03	-41.6	-43.1	17.0	0.00e+00	0	43	0	203423744	53	4306
2026-01-15 05:41:22.72	358.51	10.10	-41.7	-43.2	16.9	0.00e+00	0	42	0	210763776	53	4352
2026-01-15 05:41:23.71	358.40	10.16	-41.6	-43.2	16.9	0.00e+00	0	42	0	218103808	53	4342
2026-01-15 05:41:24.70	358.28	10.23	-41.6	-43.1	16.9	0.00e+00	0	42	0	225443840	53	4337
2026-01-15 05:41:25.70	358.16	10.29	-41.6	-43.2	17.0	0.00e+00	0	42	0	231735296	53	4342
2026-01-15 05:41:26.69	358.05	10.36	-41.6	-43.2	17.0	0.00e+00	0	42	0	239075328	53	4349
2026-01-15 05:41:27.69	357.93	10.43	-41.6	-43.1	17.0	0.00e+00	0	42	0	246415360	53	4335
2026-01-15 05:41:28.69	357.81	10.49	-41.6	-43.2	16.9	0.00e+00	0	43	0	253755392	53	4353
2026-01-15 05:41:29.68	357.69	10.56	-41.7	-43.2	16.9	0.00e+00	0	43	0	261095424	53	4373
2026-01-15 05:41:30.68	357.57	10.63	-41.6	-43.2	17.0	0.00e+00	0	42	0	268435456	53	4362
2026-01-15 05:41:31.67	357.45	10.69	-41.6	-43.2	17.0	0.00e+00	0	43	0	274726912	53	4341
2026-01-15 05:41:32.67	357.33	10.76	-41.7	-43.2	17.0	0.00e+00	0	42	0	282066944	53	4358
2026-01-15 05:41:33.66	357.21	10.83	-41.7	-43.2	16.9	0.00e+00	0	42	0	289406976	53	4378
2026-01-15 05:41:34.66	357.08	10.89	-41.6	-43.2	17.0	0.00e+00	0	42	0	296747008	53	4364
2026-01-15 05:41:35.65	356.96	10.96	-41.6	-43.1	17.1	0.00e+00	0	43	0	304087040	53	4334
2026-01-15 05:41:36.65	356.84	11.03	-41.6	-43.2	17.0	0.00e+00	0	42	0	311427072	53	4367
2026-01-15 05:41:37.64	356.72	11.09	-41.5	-43.0	17.2	0.00e+00	0	42	0	317718528	53	4271
2026-01-15 05:41:38.63	356.59	11.16	-41.5	-43.1	17.1	0.00e+00	0	42	0	325058560	53	4303
2026-01-15 05:41:39.63	356.47	11.23	-41.4	-42.9	17.3	0.00e+00	0	42	0	332398592	53	4223
2026-01-15 05:41:40.63	356.34	11.29	-41.4	-42.9	17.3	0.00e+00	0	43	0	339738624	53	4223
2026-01-15 05:41:41.62	356.21	11.36	-41.4	-42.9	17.2	0.00e+00	0	43	0	347078656	53	4231
2026-01-15 05:41:42.62	356.09	11.43	-41.4	-42.9	17.3	0.00e+00	0	42	0	354418688	53	4221
2026-01-15 05:41:43.61	355.96	11.49	-41.3	-42.8	17.4	0.00e+00	0	43	0	361758720	53	4192
2026-01-15 05:41:44.61	355.83	11.56	-41.3	-42.8	17.4	0.00e+00	0	42	0	369098752	53	4190
2026-01-15 05:41:45.60	355.70	11.63	-41.4	-42.9	17.3	0.00e+00	0	43	0	376438784	53	4204
2026-01-15 05:41:46.60	355.57	11.69	-41.4	-42.9	17.3	0.00e+00	0	42	0	382730240	53	4237
2026-01-15 05:41:47.59	355.45	11.76	-41.4	-43.0	17.2	0.00e+00	0	42	0	390070272	53	4270
2026-01-15 05:41:48.59	355.31	11.83	-41.2	-42.8	17.4	0.00e+00	0	42	0	397410304	53	4177
2026-01-15 05:41:49.58	355.18	11.90	-41.3	-42.9	17.3	0.00e+00	0	42	0	404750336	53	4222
2026-01-15 05:41:50.58	355.05	11.96	-41.2	-42.9	17.4	0.00e+00	0	42	0	412090368	53	4197
2026-01-15 05:41:51.57	354.92	12.03	-41.2	-42.8	17.4	0.00e+00	0	42	0	418381824	53	4167
2026-01-15 05:41:52.57	354.79	12.10	-41.2	-42.8	17.5	0.00e+00	0	42	0	425721856	53	4150
2026-01-15 05:41:53.56	354.65	12.16	-41.1	-42.7	17.6	0.00e+00	0	42	0	433061888	52	4363
2026-01-15 05:41:54.56	354.52	12.23	-41.0	-42.6	17.6	0.00e+00	0	42	0	440401920	52	4318
2026-01-15 05:41:55.55	354.38	12.30	-41.0	-42.5	17.8	0.00e+00	0	43	0	447741952	52	4259
2026-01-15 05:41:56.55	354.25	12.37	-40.9	-42.4	17.8	0.00e+00	0	43	0	455081984	52	4231
2026-01-15 05:41:57.54	354.11	12.43	-41.0	-42.5	17.7	0.00e+00	0	42	0	461373440	52	4290
2026-01-15 05:41:58.54	353.98	12.50	-41.1	-42.5	17.7	0.00e+00	0	43	0	468713472	52	4283
2026-01-15 05:41:59.53	353.84	12.57	-41.0	-42.4	17.8	0.00e+00	0	43	0	476053504	52	4228
2026-01-15 05:42:00.50	353.71	12.64	-41.1	-42.5	17.7	0.00e+00	0	43	0	483393536	52	4286
2026-01-15 05:42:01.49	353.57	12.70	-41.2	-42.6	17.6	0.00e+00	0	42	0	490733568	52	4324
2026-01-15 05:42:02.49	353.43	12.77	-41.1	-42.5	17.7	0.00e+00	0	43	0	498073600	52	4289
2026-01-15 05:42:03.48	353.29	12.84	-41.2	-42.7	17.6	0.00e+00	0	42	0	504365056	52	4355
2026-01-15 05:42:04.48	353.15	12.91	-41.3	-42.8	17.5	0.00e+00	0	43	0	511705088	52	4408
2026-01-15 05:42:05.47	353.01	12.97	-41.3	-42.8	17.5	0.00e+00	0	42	0	519045120	52	4427
2026-01-15 05:42:06.47	352.86	13.04	-41.3	-42.8	17.5	0.00e+00	0	42	0	526385152	52	4419
2026-01-15 05:42:07.46	352.72	13.11	-41.3	-42.8	17.5	0.00e+00	0	43	0	533725184	52	4439
2026-01-15 05:42:08.46	352.58	13.18	-41.3	-42.8	17.6	0.00e+00	0	42	0	541065216	52	4392
2026-01-15 05:42:09.45	352.43	13.24	-41.3	-42.9	17.5	0.00e+00	0	43	0	548405248	52	4447
2026-01-15 05:42:10.44	352.29	13.31	-41.4	-42.9	17.4	0.00e+00	0	43	0	554696704	52	4450
2026-01-15 05:42:11.44	352.14	13.38	-41.4	-42.9	17.4	0.00e+00	0	42	0	562036736	52	4460
2026-01-15 05:42:12.43	352.00	13.45	-41.4	-42.8	17.5	0.00e+00	0	42	0	569376768	52	4411
2026-01-15 05:42:13.43	351.85	13.51	-41.3	-42.7	17.6	0.00e+00	0	43	0	576716800	52	4350
2026-01-15 05:42:14.42	351.71	13.58	-41.3	-42.7	17.6	0.00e+00	0	43	0	584056832	52	4359
2026-01-15 05:42:15.42	351.56	13.65	-41.3	-42.6	17.7	0.00e+00	0	43	0	591396864	52	4301
2026-01-15 05:42:16.41	351.41	13.72	-41.2	-42.5	17.8	0.00e+00	0	43	0	598736896	52	4267
2026-01-15 05:42:17.41	351.26	13.79	-41.0	-42.3	18.0	0.00e+00	0	43	0	605028352	52	4146
2026-01-15 05:42:18.40	351.11	13.85	-41.1	-42.3	18.0	0.00e+00	0	43	0	612368384	52	4176
2026-01-15 05:42:19.40	350.96	13.92	-41.0	-42.2	18.1	0.00e+00	0	43	0	619708416	52	4128
2026-01-15 05:42:20.39	350.81	13.99	-40.9	-42.1	18.2	0.00e+00	0	43	0	627048448	52	4063
2026-01-15 05:42:21.39	350.65	14.06	-40.9	-42.1	18.2	0.00e+00	0	42	0	634388480	52	4091
2026-01-15 05:42:22.38	350.50	14.12	-40.9	-42.1	18.2	0.00e+00	0	43	0	641728512	52	4068
2026-01-15 05:42:23.37	350.35	14.19	-40.8	-42.0	18.3	0.00e+00	0	42	0	648019968	52	4025
2026-01-15 05:42:24.37	350.19	14.26	-40.8	-42.0	18.3	0.00e+00	0	43	0	655360000	52	4033
2026-01-15 05:42:25.36	350.04	14.33	-40.8	-42.0	18.3	0.00e+00	0	42	0	662700032	52	4017
2026-01-15 05:42:26.36	349.88	14.39	-40.9	-42.1	18.2	0.00e+00	0	43	0	670040064	52	4065
2026-01-15 05:42:27.35	349.73	14.46	-40.8	-42.1	18.2	0.00e+00	0	43	0	677380096	52	4064
2026-01-15 05:42:28.35	349.57	14.53	-40.8	-42.0	18.3	0.00e+00	0	43	0	683671552	52	4037
2026-01-15 05:42:29.34	349.41	14.60	-40.7	-41.9	18.4	0.00e+00	0	43	0	691011584	52	3986
2026-01-15 05:42:30.34	349.25	14.66	-40.7	-42.0	18.3	0.00e+00	0	42	0	698351616	52	4018
2026-01-15 05:42:31.33	349.09	14.73	-40.8	-42.0	18.3	0.00e+00	0	43	0	705691648	52	4043
2026-01-15 05:42:32.33	348.93	14.80	-40.8	-42.0	18.3	0.00e+00	0	43	0	713031680	52	4030
2026-01-15 05:42:33.32	348.77	14.87	-40.8	-42.0	18.3	0.00e+00	0	43	0	720371712	52	4016
2026-01-15 05:42:34.32	348.61	14.93	-40.7	-41.9	18.4	0.00e+00	0	43	0	727711744	52	3976
2026-01-15 05:42:35.31	348.45	15.00	-40.8	-42.0	18.3	0.00e+00	0	43	0	735051776	52	4051
2026-01-15 05:42:36.31	348.29	15.07	-40.8	-42.0	18.3	0.00e+00	0	43	0	742391808	52	4039
2026-01-15 05:42:37.30	348.12	15.13	-40.8	-42.0	18.3	0.00e+00	0	43	0	748683264	52	4032
2026-01-15 05:42:38.30	347.96	15.20	-40.8	-42.1	18.3	0.00e+00	0	43	0	756023296	52	4064
2026-01-15 05:42:39.29	347.79	15.27	-40.8	-42.0	18.3	0.00e+00	0	43	0	763363328	52	4020
2026-01-15 05:42:40.29	347.62	15.34	-40.7	-42.0	18.4	0.00e+00	0	43	0	770703360	52	4009
2026-01-15 05:42:41.28	347.46	15.40	-40.8	-42.0	18.3	0.00e+00	0	43	0	778043392	52	4040
2026-01-15 05:42:42.28	347.29	15.47	-40.8	-42.0	18.3	0.00e+00	0	43	0	785383424	52	4024
2026-01-15 05:42:43.27	347.12	15.54	-40.9	-42.1	18.2	0.00e+00	0	43	0	791674880	52	4092
2026-01-15 05:42:44.27	346.95	15.60	-40.8	-42.0	18.3	0.00e+00	0	43	0	799014912	52	4040
2026-01-15 05:42:45.26	346.78	15.67	-40.7	-41.9	18.4	0.00e+00	0	43	0	806354944	52	3987
2026-01-15 05:42:46.26	346.61	15.74	-40.7	-41.9	18.4	0.00e+00	0	43	0	813694976	52	4000
2026-01-15 05:42:47.25	346.44	15.80	-40.6	-41.8	18.5	0.00e+00	0	43	0	821035008	51	4192
2026-01-15 05:42:48.25	346.27	15.87	-40.6	-41.8	18.6	0.00e+00	0	43	0	827326464	51	4154
2026-01-15 05:42:49.24	346.10	15.94	-40.4	-41.7	18.8	0.00e+00	0	43	0	834666496	51	4101
2026-01-15 05:42:50.24	345.92	16.00	-40.4	-41.6	18.7	0.00e+00	0	43	0	842006528	51	4089
2026-01-15 05:42:51.23	345.75	16.07	-40.5	-41.7	18.7	0.00e+00	0	43	0	849346560	51	4110
2026-01-15 05:42:52.22	345.57	16.13	-40.5	-41.7	18.7	0.00e+00	0	43	0	856686592	51	4101
2026-01-15 05:42:53.22	345.39	16.20	-40.4	-41.6	18.8	0.00e+00	0	43	0	864026624	51	4059
2026-01-15 05:42:54.22	345.22	16.27	-40.4	-41.5	18.9	0.00e+00	0	43	0	871366656	51	4045
2026-01-15 05:42:55.21	345.04	16.33	-40.2	-41.4	19.0	0.00e+00	0	43	0	878706688	51	3983
2026-01-15 05:42:56.21	344.86	16.40	-40.2	-41.4	19.0	0.00e+00	0	43	0	886046720	51	3989
2026-01-15 05:42:57.20	344.68	16.46	-40.1	-41.3	19.0	0.00e+00	0	42	0	892338176	51	3954
2026-01-15 05:42:58.20	344.50	16.53	-40.2	-41.4	19.0	0.00e+00	0	42	0	899678208	51	3978
2026-01-15 05:42:59.19	344.32	16.59	-40.1	-41.3	19.1	0.00e+00	0	43	0	907018240	50	4167
2026-01-15 05:43:00.19	344.14	16.66	-40.2	-41.4	19.0	0.00e+00	0	43	0	914358272	50	4203
2026-01-15 05:43:01.18	343.96	16.72	-40.1	-41.3	19.0	0.00e+00	0	43	0	921698304	50	4189
2026-01-15 05:43:02.18	343.77	16.79	-40.2	-41.4	19.0	0.00e+00	0	43	0	929038336	50	4220
2026-01-15 05:43:03.17	343.59	16.85	-40.2	-41.4	19.0	0.00e+00	0	43	0	935329792	50	4239
2026-01-15 05:43:04.17	343.40	16.92	-40.4	-41.6	18.8	0.00e+00	0	43	0	942669824	50	4314
2026-01-15 05:43:05.16	343.22	16.98	-40.4	-41.5	18.9	0.00e+00	0	43	0	950009856	50	4284
2026-01-15 05:43:06.16	343.03	17.05	-40.4	-41.5	18.9	0.00e+00	0	43	0	957349888	50	4279
2026-01-15 05:43:07.15	342.84	17.11	-40.4	-41.5	18.9	0.00e+00	0	43	0	964689920	50	4287
2026-01-15 05:43:08.14	342.65	17.18	-40.4	-41.5	18.9	0.00e+00	0	43	0	970981376	50	4287
2026-01-15 05:43:09.14	342.46	17.24	-40.4	-41.5	19.0	0.00e+00	0	43	0	978321408	50	4249
2026-01-15 05:43:10.13	342.28	17.30	-40.4	-41.4	19.0	0.00e+00	0	43	0	985661440	50	4241
2026-01-15 05:43:11.13	342.08	17.37	-40.3	-41.3	19.1	0.00e+00	0	43	0	993001472	50	4174
2026-01-15 05:43:12.12	341.89	17.43	-40.2	-41.3	19.1	0.00e+00	0	43	0	1000341504	50	4151
2026-01-15 05:43:13.12	341.70	17.49	-40.0	-41.1	19.3	0.00e+00	0	43	0	1007681536	50	4069
2026-01-15 05:43:14.11	341.51	17.56	-39.9	-41.0	19.4	0.00e+00	0	43	0	1015021568	50	4016
2026-01-15 05:43:15.11	341.31	17.62	-39.8	-40.9	19.5	0.00e+00	0	43	0	1022361600	50	3976
2026-01-15 05:43:16.10	341.12	17.68	-39.8	-40.8	19.6	0.00e+00	0	43	0	1029701632	50	3931
2026-01-15 05:43:17.10	340.92	17.75	-39.8	-40.8	19.6	0.00e+00	0	43	0	1035993088	50	3929
2026-01-15 05:43:18.09	340.73	17.81	-39.8	-40.8	19.6	0.00e+00	0	43	0	1043333120	50	3936
2026-01-15 05:43:19.09	340.53	17.87	-39.7	-40.7	19.7	0.00e+00	0	43	0	1050673152	50	3882
2026-01-15 05:43:20.08	340.33	17.93	-39.6	-40.7	19.7	0.00e+00	0	43	0	1058013184	50	3869
2026-01-15 05:43:21.08	340.13	17.99	-39.7	-40.7	19.6	0.00e+00	0	43	0	1065353216	50	3913
2026-01-15 05:43:22.07	339.93	18.06	-39.7	-40.7	19.6	0.00e+00	0	43	0	1072693248	50	3913
2026-01-15 05:43:23.07	339.73	18.12	-39.8	-40.9	19.5	0.00e+00	0	43	0	1078984704	50	3968
2026-01-15 05:43:24.06	339.53	18.18	-39.9	-41.0	19.4	0.00e+00	0	43	0	1086324736	50	4015
2026-01-15 05:43:25.06	339.33	18.24	-39.9	-40.9	19.4	0.00e+00	0	43	0	1093664768	50	4001
2026-01-15 05:43:26.05	339.12	18.30	-40.0	-41.1	19.3	0.00e+00	0	43	0	1101004800	50	4066
2026-01-15 05:43:27.05	338.92	18.36	-40.0	-41.1	19.3	0.00e+00	0	42	0	1108344832	50	4056
2026-01-15 05:43:28.04	338.71	18.42	-40.0	-41.0	19.3	0.00e+00	0	42	0	1114636288	50	4047
2026-01-15 05:43:29.04	338.51	18.48	-39.9	-41.0	19.4	0.00e+00	0	43	0	1121976320	50	4023
2026-01-15 05:43:30.03	338.30	18.54	-40.0	-41.0	19.4	0.00e+00	0	43	0	1129316352	50	4049
2026-01-15 05:43:31.03	338.09	18.60	-39.9	-41.0	19.4	0.00e+00	0	43	0	1136656384	50	4037
2026-01-15 05:43:32.02	337.89	18.66	-39.9	-41.0	19.4	0.00e+00	0	42	0	1143996416	50	4042
2026-01-15 05:43:33.02	337.68	18.72	-39.8	-41.0	19.4	0.00e+00	0	43	0	1151336448	50	4011
2026-01-15 05:43:34.01	337.47	18.78	-39.7	-40.9	19.5	0.00e+00	0	43	0	1158676480	50	3982
2026-01-15 05:43:35.00	337.26	18.84	-39.6	-40.8	19.6	0.00e+00	0	43	0	1166016512	50	3914
2026-01-15 05:43:36.00	337.05	18.90	-39.6	-40.7	19.6	0.00e+00	0	43	0	1173356544	49	4130
2026-01-15 05:43:36.99	336.83	18.95	-39.5	-40.6	19.7	0.00e+00	0	42	0	1179648000	49	4068
2026-01-15 05:43:37.99	336.62	19.01	-39.6	-40.6	19.7	0.00e+00	0	43	0	1186988032	49	4095
2026-01-15 05:43:38.98	336.41	19.07	-39.6	-40.6	19.8	0.00e+00	0	43	0	1194328064	49	4057
2026-01-15 05:43:39.98	336.19	19.13	-39.6	-40.6	19.7	0.00e+00	0	43	0	1201668096	49	4076
2026-01-15 05:43:40.97	335.98	19.18	-39.7	-40.7	19.7	0.00e+00	0	43	0	1209008128	49	4104
2026-01-15 05:43:41.97	335.76	19.24	-39.8	-40.8	19.6	0.00e+00	0	43	0	1216348160	49	4173
2026-01-15 05:43:42.97	335.54	19.30	-39.8	-40.8	19.5	0.00e+00	0	43	0	1222639616	49	4192
2026-01-15 05:43:43.96	335.32	19.35	-39.8	-40.9	19.4	0.00e+00	0	43	0	1229979648	49	4235
2026-01-15 05:43:44.95	335.11	19.41	-39.8	-40.9	19.4	0.00e+00	0	43	0	1237319680	49	4235
2026-01-15 05:43:45.95	334.89	19.46	-39.8	-40.9	19.4	0.00e+00	0	43	0	1244659712	49	4234
2026-01-15 05:43:46.94	334.67	19.52	-39.9	-41.0	19.4	0.00e+00	0	43	0	1251999744	49	4282
2026-01-15 05:43:47.94	334.44	19.57	-39.9	-41.0	19.4	0.00e+00	0	43	0	1258291200	49	4263
2026-01-15 05:43:48.93	334.22	19.63	-40.0	-41.1	19.3	0.00e+00	0	43	0	1265631232	49	4295
2026-01-15 05:43:49.92	334.00	19.68	-40.0	-41.1	19.4	0.00e+00	0	43	0	1272971264	49	4292
2026-01-15 05:43:50.92	333.78	19.73	-40.0	-41.0	19.3	0.00e+00	0	43	0	1280311296	49	4287
2026-01-15 05:43:51.91	333.55	19.79	-39.9	-40.9	19.5	0.00e+00	0	43	0	1287651328	49	4227
2026-01-15 05:43:52.91	333.33	19.84	-39.6	-40.7	19.7	0.00e+00	0	43	0	1294991360	49	4126
2026-01-15 05:43:53.91	333.10	19.89	-39.5	-40.6	19.8	0.00e+00	0	43	0	1302331392	49	4074
2026-01-15 05:43:54.90	332.87	19.95	-39.5	-40.6	19.8	0.00e+00	0	43	0	1309671424	49	4055
2026-01-15 05:43:55.90	332.64	20.00	-39.5	-40.5	19.8	0.00e+00	0	42	0	1315962880	49	4029
2026-01-15 05:43:56.89	332.42	20.05	-39.4	-40.4	19.9	0.00e+00	0	43	0	1323302912	49	3989
2026-01-15 05:43:57.88	332.19	20.10	-39.4	-40.4	19.9	0.00e+00	0	43	0	1330642944	49	3975
2026-01-15 05:43:58.88	331.96	20.15	-39.2	-40.2	20.1	0.00e+00	0	43	0	1337982976	49	3898
2026-01-15 05:43:59.88	331.73	20.20	-39.1	-40.1	20.2	0.00e+00	0	42	0	1345323008	49	3847
2026-01-15 05:44:00.87	331.50	20.25	-39.2	-40.2	20.2	0.00e+00	0	42	0	1352663040	49	3870
2026-01-15 05:44:01.86	331.26	20.30	-39.3	-40.3	20.1	0.00e+00	0	43	0	1360003072	49	3914
2026-01-15 05:44:02.85	331.03	20.35	-39.3	-40.4	20.0	0.00e+00	0	43	0	1366294528	49	3960
2026-01-15 05:44:03.85	330.80	20.40	-39.3	-40.3	20.0	0.00e+00	0	43	0	1373634560	49	3958
2026-01-15 05:44:04.84	330.56	20.45	-39.3	-40.4	20.0	0.00e+00	0	43	0	1380974592	49	3965
2026-01-15 05:44:05.84	330.33	20.50	-39.3	-40.4	20.0	0.00e+00	0	42	0	1388314624	49	3960
2026-01-15 05:44:06.83	330.09	20.54	-39.3	-40.4	20.0	0.00e+00	0	43	0	1395654656	49	3966
2026-01-15 05:44:07.83	329.86	20.59	-39.4	-40.5	19.9	0.00e+00	0	43	0	1401946112	49	4013
2026-01-15 05:44:08.82	329.62	20.64	-39.5	-40.5	19.9	0.00e+00	0	43	0	1409286144	49	4014
2026-01-15 05:44:09.82	329.38	20.69	-39.4	-40.4	19.9	0.00e+00	0	43	0	1416626176	49	3982
2026-01-15 05:44:10.81	329.14	20.73	-39.4	-40.4	19.9	0.00e+00	0	42	0	1423966208	49	4001
2026-01-15 05:44:11.81	328.90	20.78	-39.4	-40.4	19.9	0.00e+00	0	42	0	1431306240	49	3983
2026-01-15 05:44:12.80	328.66	20.82	-39.4	-40.4	19.9	0.00e+00	0	42	0	1438646272	49	3994
2026-01-15 05:44:13.80	328.42	20.87	-39.4	-40.4	20.0	0.00e+00	0	42	0	1444937728	49	3973
2026-01-15 05:44:14.79	328.18	20.91	-39.3	-40.3	20.0	0.00e+00	0	43	0	1452277760	49	3925
2026-01-15 05:44:15.79	327.93	20.95	-39.2	-40.2	20.1	0.00e+00	0	42	0	1459617792	49	3899
2026-01-15 05:44:16.78	327.69	21.00	-39.2	-40.2	20.1	0.00e+00	0	43	0	1466957824	49	3893
2026-01-15 05:44:17.78	327.45	21.04	-39.2	-40.1	20.2	0.00e+00	0	42	0	1474297856	49	3863
2026-01-15 05:44:18.77	327.20	21.08	-39.1	-40.1	20.2	0.00e+00	0	43	0	1481637888	49	3856
2026-01-15 05:44:19.77	326.96	21.12	-39.1	-40.0	20.2	0.00e+00	0	43	0	1488977920	48	4051
2026-01-15 05:44:20.76	326.71	21.17	-39.1	-40.0	20.3	0.00e+00	0	43	0	1496317952	48	4044
2026-01-15 05:44:21.76	326.46	21.21	-39.1	-40.0	20.3	0.00e+00	0	43	0	1503657984	48	4047
2026-01-15 05:44:22.75	326.22	21.25	-39.1	-40.0	20.3	0.00e+00	0	42	0	1509949440	48	4038
2026-01-15 05:44:23.75	325.97	21.29	-39.1	-40.0	20.3	0.00e+00	0	43	0	1517289472	48	4036
2026-01-15 05:44:24.74	325.72	21.33	-39.1	-40.1	20.3	0.00e+00	0	42	0	1524629504	48	4053
2026-01-15 05:44:25.74	325.47	21.36	-39.1	-40.0	20.3	0.00e+00	0	43	0	1531969536	48	4048
2026-01-15 05:44:26.73	325.22	21.40	-39.1	-40.1	20.2	0.00e+00	0	43	0	1539309568	48	4060
2026-01-15 05:44:27.72	324.97	21.44	-39.1	-40.1	20.2	0.00e+00	0	43	0	1545601024	48	4085
2026-01-15 05:44:28.72	324.72	21.48	-39.2	-40.2	20.1	0.00e+00	0	42	0	1552941056	48	4130
2026-01-15 05:44:29.72	324.47	21.51	-39.1	-40.1	20.2	0.00e+00	0	42	0	1560281088	48	4064
2026-01-15 05:44:30.71	324.22	21.55	-39.1	-40.1	20.2	0.00e+00	0	42	0	1567621120	48	4076
2026-01-15 05:44:31.71	323.96	21.59	-39.2	-40.1	20.2	0.00e+00	0	42	0	1574961152	48	4094
2026-01-15 05:44:32.70	323.71	21.62	-39.1	-40.1	20.2	0.00e+00	0	42	0	1582301184	48	4078
2026-01-15 05:44:33.70	323.45	21.66	-39.1	-40.1	20.2	0.00e+00	0	42	0	1588592640	48	4079
2026-01-15 05:44:34.69	323.20	21.69	-39.1	-40.0	20.3	0.00e+00	0	42	0	1595932672	48	4048
2026-01-15 05:44:35.69	322.95	21.72	-38.9	-39.9	20.4	0.00e+00	0	42	0	1603272704	48	3996
2026-01-15 05:44:36.68	322.69	21.76	-38.9	-39.9	20.4	0.00e+00	0	43	0	1610612736	48	3985
2026-01-15 05:44:37.68	322.43	21.79	-38.8	-39.8	20.5	0.00e+00	0	42	0	1617952768	48	3926
2026-01-15 05:44:38.67	322.18	21.82	-38.8	-39.8	20.5	0.00e+00	0	43	0	1625292800	48	3914
2026-01-15 05:44:39.67	321.92	21.85	-38.8	-39.8	20.5	0.00e+00	0	42	0	1632632832	48	3944
2026-01-15 05:44:40.66	321.66	21.88	-38.8	-39.8	20.5	0.00e+00	0	43	0	1639972864	48	3915
2026-01-15 05:44:41.66	321.40	21.91	-38.8	-39.7	20.6	0.00e+00	0	43	0	1647312896	48	3894
2026-01-15 05:44:42.65	321.14	21.94	-38.7	-39.7	20.6	0.00e+00	0	42	0	1653604352	48	3892
2026-01-15 05:44:43.65	320.88	21.97	-38.7	-39.7	20.6	0.00e+00	0	42	0	1660944384	48	3897
2026-01-15 05:44:44.64	320.62	22.00	-38.8	-39.8	20.5	0.00e+00	0	43	0	1668284416	48	3946
2026-01-15 05:44:45.64	320.36	22.03	-38.8	-39.8	20.5	0.00e+00	0	43	0	1675624448	48	3922
2026-01-15 05:44:46.63	320.10	22.05	-38.8	-39.8	20.5	0.00e+00	0	42	0	1682964480	48	3922
2026-01-15 05:44:47.63	319.84	22.08	-38.8	-39.8	20.5	0.00e+00	0	43	0	1689255936	48	3942
2026-01-15 05:44:48.62	319.58	22.10	-38.9	-39.9	20.4	0.00e+00	0	42	0	1696595968	48	3978
2026-01-15 05:44:49.62	319.32	22.13	-38.9	-39.9	20.4	0.00e+00	0	43	0	1703936000	48	3987
2026-01-15 05:44:50.61	319.06	22.15	-39.0	-40.0	20.3	0.00e+00	0	43	0	1711276032	48	4027
2026-01-15 05:44:51.61	318.79	22.18	-38.9	-39.9	20.4	0.00e+00	0	43	0	1718616064	48	3970
2026-01-15 05:44:52.60	318.53	22.20	-39.0	-40.0	20.4	0.00e+00	0	42	0	1725956096	48	4006
2026-01-15 05:44:53.59	318.27	22.22	-39.1	-40.0	20.3	0.00e+00	0	42	0	1732247552	48	4045
2026-01-15 05:44:54.59	318.00	22.25	-39.1	-40.1	20.3	0.00e+00	0	42	0	1739587584	48	4065
2026-01-15 05:44:55.58	317.74	22.27	-39.1	-40.1	20.2	0.00e+00	0	42	0	1746927616	48	4066
2026-01-15 05:44:56.58	317.47	22.29	-39.0	-40.0	20.4	0.00e+00	0	42	0	1754267648	48	4006
2026-01-15 05:44:57.57	317.21	22.31	-39.0	-39.9	20.4	0.00e+00	0	42	0	1761607680	48	3993
2026-01-15 05:44:58.57	316.94	22.33	-39.0	-39.9	20.4	0.00e+00	0	42	0	1768947712	48	3996
2026-01-15 05:44:59.56	316.67	22.35	-39.0	-40.0	20.4	0.00e+00	0	43	0	1776287744	48	4005
2026-01-15 05:45:00.56	316.41	22.37	-39.0	-40.0	20.4	0.00e+00	0	43	0	1783627776	48	4007
2026-01-15 05:45:01.55	316.14	22.38	-38.9	-39.8	20.4	0.00e+00	0	42	0	1790967808	48	3956
2026-01-15 05:45:02.55	315.87	22.40	-38.9	-39.8	20.5	0.00e+00	0	43	0	1797259264	48	3940
2026-01-15 05:45:03.55	315.60	22.42	-38.9	-39.9	20.4	0.00e+00	0	42	0	1804599296	48	3962
2026-01-15 05:45:04.54	315.34	22.43	-39.0	-39.9	20.4	0.00e+00	0	42	0	1811939328	48	3991
2026-01-15 05:45:05.53	315.07	22.45	-38.9	-39.8	20.5	0.00e+00	0	42	0	1819279360	48	3954
2026-01-15 05:45:06.53	314.80	22.46	-38.8	-39.7	20.5	0.00e+00	0	42	0	1826619392	48	3911
2026-01-15 05:45:07.52	314.54	22.47	-38.9	-39.8	20.5	0.00e+00	0	43	0	1832910848	48	3935
2026-01-15 05:45:08.52	314.27	22.49	-38.9	-39.8	20.4	0.00e+00	0	43	0	1840250880	48	3958
2026-01-15 05:45:09.51	314.00	22.50	-38.9	-39.8	20.5	0.00e+00	0	42	0	1847590912	48	3940
2026-01-15 05:45:10.51	313.73	22.51	-38.8	-39.8	20.5	0.00e+00	0	42	0	1854930944	48	3921
2026-01-15 05:45:11.50	313.46	22.52	-38.9	-39.8	20.4	0.00e+00	0	42	0	1862270976	48	3949
2026-01-15 05:45:12.50	313.19	22.53	-38.9	-39.9	20.4	0.00e+00	0	43	0	1869611008	48	3986
2026-01-15 05:45:13.49	312.92	22.54	-38.8	-39.8	20.5	0.00e+00	0	42	0	1875902464	48	3941
2026-01-15 05:45:14.48	312.65	22.55	-38.8	-39.8	20.5	0.00e+00	0	42	0	1883242496	48	3930
2026-01-15 05:45:15.48	312.38	22.56	-38.8	-39.8	20.5	0.00e+00	0	42	0	1890582528	48	3932
2026-01-15 05:45:16.47	312.11	22.57	-38.9	-39.9	20.4	0.00e+00	0	42	0	1897922560	48	3969
2026-01-15 05:45:17.46	311.84	22.57	-38.8	-39.8	20.5	0.00e+00	0	43	0	1905262592	48	3921
2026-01-15 05:45:18.46	311.57	22.58	-38.9	-39.9	20.4	0.00e+00	0	43	0	1912602624	48	3975
2026-01-15 05:45:19.45	311.30	22.58	-38.9	-39.9	20.4	0.00e+00	0	42	0	1919942656	48	3964
2026-01-15 05:45:20.45	311.03	22.59	-38.9	-39.8	20.4	0.00e+00	0	43	0	1926234112	48	3953
2026-01-15 05:45:21.44	310.76	22.59	-38.9	-39.8	20.5	0.00e+00	0	43	0	1933574144	48	3937
2026-01-15 05:45:22.44	310.49	22.60	-39.0	-39.9	20.3	0.00e+00	0	42	0	1940914176	48	4001
2026-01-15 05:45:23.43	310.22	22.60	-39.0	-40.0	20.4	0.00e+00	0	42	0	1948254208	48	4005
2026-01-15 05:45:24.43	309.95	22.60	-38.9	-39.9	20.4	0.00e+00	0	42	0	1955594240	48	3960
2026-01-15 05:45:25.42	309.68	22.60	-38.9	-39.9	20.4	0.00e+00	0	43	0	1962934272	48	3965
2026-01-15 05:45:26.41	309.41	22.60	-38.8	-39.8	20.5	0.00e+00	0	42	0	1970274304	48	3930
2026-01-15 05:45:27.41	309.14	22.60	-38.9	-39.8	20.5	0.00e+00	0	42	0	1976565760	48	3937
2026-01-15 05:45:28.40	308.87	22.60	-38.7	-39.7	20.6	0.00e+00	0	42	0	1983905792	48	3876
2026-01-15 05:45:29.40	308.59	22.60	-38.8	-39.7	20.5	0.00e+00	0	43	0	1991245824	48	3902
2026-01-15 05:45:30.40	308.32	22.60	-38.8	-39.7	20.6	0.00e+00	0	42	0	1998585856	48	3894
2026-01-15 05:45:31.39	308.05	22.60	-38.7	-39.6	20.6	0.00e+00	0	42	0	2005925888	48	3865
2026-01-15 05:45:32.39	307.78	22.59	-38.8	-39.7	20.5	0.00e+00	0	42	0	2013265920	48	3904
2026-01-15 05:45:33.38	307.51	22.59	-38.8	-39.7	20.6	0.00e+00	0	43	0	2019557376	48	3890
2026-01-15 05:45:34.37	307.24	22.59	-38.6	-39.6	20.7	0.00e+00	0	43	0	2026897408	48	3836
2026-01-15 05:45:35.37	306.97	22.58	-38.6	-39.6	20.7	0.00e+00	0	42	0	2034237440	48	3828
2026-01-15 05:45:36.37	306.70	22.57	-38.8	-39.7	20.6	0.00e+00	0	42	0	2041577472	48	3890
2026-01-15 05:45:37.36	306.43	22.57	-38.8	-39.8	20.5	0.00e+00	0	42	0	2048917504	48	3915
2026-01-15 05:45:38.36	306.16	22.56	-38.9	-39.8	20.5	0.00e+00	0	42	0	2056257536	48	3955
2026-01-15 05:45:39.35	305.89	22.55	-38.9	-39.9	20.4	0.00e+00	0	42	0	2063597568	48	3973
2026-01-15 05:45:40.35	305.62	22.54	-39.0	-39.9	20.4	0.00e+00	0	42	0	2069889024	48	3991
2026-01-15 05:45:41.34	305.35	22.53	-38.9	-39.8	20.4	0.00e+00	0	42	0	2077229056	48	3952
2026-01-15 05:45:42.34	305.08	22.52	-39.0	-39.9	20.4	0.00e+00	0	43	0	2084569088	48	3993
2026-01-15 05:45:43.34	304.81	22.51	-38.8	-39.7	20.6	0.00e+00	0	42	0	2091909120	48	3894
2026-01-15 05:45:44.33	304.54	22.50	-38.8	-39.8	20.5	0.00e+00	0	42	0	2099249152	48	3922
2026-01-15 05:45:45.32	304.27	22.49	-38.9	-39.8	20.4	0.00e+00	0	42	0	2106589184	48	3958
2026-01-15 05:45:46.32	304.00	22.48	-38.9	-39.8	20.5	0.00e+00	0	42	0	2113929216	48	3932
2026-01-15 05:45:47.31	303.73	22.46	-38.9	-39.9	20.4	0.00e+00	0	43	0	2120220672	48	3972
2026-01-15 05:45:48.31	303.46	22.45	-39.0	-40.0	20.3	0.00e+00	0	42	0	2127560704	48	4023
2026-01-15 05:45:49.30	303.20	22.43	-39.1	-40.0	20.3	0.00e+00	0	42	0	2134900736	48	4037
2026-01-15 05:45:50.30	302.93	22.42	-39.2	-40.1	20.2	0.00e+00	0	42	0	2142240768	48	4088
2026-01-15 05:45:51.29	302.66	22.40	-39.1	-40.0	20.3	0.00e+00	0	42	0	2149580800	48	4042
2026-01-15 05:45:52.29	302.39	22.38	-38.9	-39.9	20.4	0.00e+00	0	42	0	2156920832	48	3968
2026-01-15 05:45:53.28	302.13	22.37	-38.8	-39.7	20.5	0.00e+00	0	42	0	2163212288	48	3907
2026-01-15 05:45:54.28	301.86	22.35	-38.8	-39.7	20.5	0.00e+00	0	42	0	2170552320	48	3902
2026-01-15 05:45:55.27	301.59	22.33	-38.9	-39.8	20.5	0.00e+00	0	42	0	2177892352	48	3942
2026-01-15 05:45:56.27	301.33	22.31	-39.0	-39.9	20.4	0.00e+00	0	42	0	2185232384	48	3981
2026-01-15 05:45:57.26	301.06	22.29	-38.9	-39.9	20.4	0.00e+00	0	42	0	2192572416	48	3959
2026-01-15 05:45:58.26	300.79	22.27	-39.0	-39.9	20.4	0.00e+00	0	42	0	2199912448	48	4004
2026-01-15 05:45:59.25	300.53	22.25	-39.0	-39.9	20.4	0.00e+00	0	42	0	2207252480	48	3991
2026-01-15 05:46:00.24	300.27	22.23	-39.0	-40.0	20.3	0.00e+00	0	42	0	2213543936	48	4013
2026-01-15 05:46:01.24	300.00	22.20	-39.1	-40.0	20.3	0.00e+00	0	42	0	2220883968	48	4036
2026-01-15 05:46:02.24	299.74	22.18	-39.1	-40.1	20.2	0.00e+00	0	42	0	2228224000	48	4078
2026-01-15 05:46:03.23	299.47	22.16	-39.2	-40.1	20.1	0.00e+00	0	42	0	2235564032	48	4092
2026-01-15 05:46:04.23	299.21	22.13	-39.1	-40.1	20.3	0.00e+00	0	42	0	2242904064	48	4053
2026-01-15 05:46:05.22	298.95	22.11	-39.1	-40.1	20.2	0.00e+00	0	42	0	2250244096	48	4060
2026-01-15 05:46:06.22	298.68	22.08	-38.9	-39.9	20.4	0.00e+00	0	42	0	2257584128	48	3978
2026-01-15 05:46:07.21	298.42	22.06	-38.9	-39.9	20.4	0.00e+00	0	42	0	2263875584	48	3963
2026-01-15 05:46:08.21	298.16	22.03	-39.0	-39.9	20.4	0.00e+00	0	42	0	2271215616	48	3999
2026-01-15 05:46:09.21	297.90	22.00	-39.0	-39.9	20.4	0.00e+00	0	42	0	2278555648	48	3997
2026-01-15 05:46:10.20	297.64	21.97	-38.9	-39.9	20.4	0.00e+00	0	43	0	2285895680	48	3975
2026-01-15 05:46:11.20	297.38	21.94	-38.8	-39.8	20.5	0.00e+00	0	42	0	2293235712	48	3930
2026-01-15 05:46:12.19	297.12	21.91	-38.8	-39.8	20.5	0.00e+00	0	42	0	2300575744	48	3936
2026-01-15 05:46:13.19	296.86	21.88	-38.9	-39.9	20.4	0.00e+00	0	42	0	2306867200	48	3963
2026-01-15 05:46:14.18	296.60	21.85	-39.0	-39.9	20.3	0.00e+00	0	42	0	2314207232	48	3994
2026-01-15 05:46:15.18	296.34	21.82	-39.0	-39.9	20.4	0.00e+00	0	42	0	2321547264	48	3994
2026-01-15 05:46:16.17	296.09	21.79	-38.9	-39.9	20.4	0.00e+00	0	42	0	2328887296	48	3966
2026-01-15 05:46:17.17	295.83	21.76	-39.0	-39.9	20.4	0.00e+00	0	42	0	2336227328	48	3990
2026-01-15 05:46:18.16	295.57	21.73	-39.0	-39.9	20.4	0.00e+00	0	42	0	2343567360	48	3996
2026-01-15 05:46:19.16	295.32	21.69	-39.0	-39.9	20.4	0.00e+00	0	42	0	2350907392	48	3984
2026-01-15 05:46:20.15	295.06	21.66	-39.0	-39.9	20.4	0.00e+00	0	43	0	2358247424	48	3990
2026-01-15 05:46:21.14	294.81	21.62	-39.0	-39.9	20.4	0.00e+00	0	43	0	2364538880	48	3990
2026-01-15 05:46:22.14	294.55	21.59	-39.0	-40.0	20.3	0.00e+00	0	42	0	2371878912	48	4021
2026-01-15 05:46:23.13	294.30	21.55	-38.9	-39.9	20.4	0.00e+00	0	42	0	2379218944	48	3966
2026-01-15 05:46:24.13	294.05	21.52	-38.8	-39.8	20.5	0.00e+00	0	42	0	2386558976	48	3922
2026-01-15 05:46:25.12	293.79	21.48	-38.8	-39.8	20.5	0.00e+00	0	42	0	2393899008	48	3931
2026-01-15 05:46:26.11	293.54	21.44	-38.9	-39.9	20.4	0.00e+00	0	42	0	2401239040	48	3960
2026-01-15 05:46:27.11	293.29	21.41	-38.9	-39.8	20.4	0.00e+00	0	42	0	2407530496	48	3949
2026-01-15 05:46:28.11	293.04	21.37	-38.8	-39.8	20.5	0.00e+00	0	42	0	2414870528	48	3930
2026-01-15 05:46:29.10	292.79	21.33	-38.9	-39.8	20.4	0.00e+00	0	42	0	2422210560	48	3952
2026-01-15 05:46:30.10	292.54	21.29	-38.9	-39.8	20.4	0.00e+00	0	42	0	2429550592	48	3932
2026-01-15 05:46:31.09	292.29	21.25	-38.9	-39.8	20.4	0.00e+00	0	42	0	2436890624	48	3954
2026-01-15 05:46:32.09	292.04	21.21	-38.9	-39.8	20.4	0.00e+00	0	42	0	2444230656	48	3948
2026-01-15 05:46:33.08	291.80	21.17	-38.8	-39.7	20.5	0.00e+00	0	42	0	2450522112	48	3913
2026-01-15 05:46:34.08	291.55	21.13	-38.8	-39.7	20.5	0.00e+00	0	42	0	2457862144	48	3907
2026-01-15 05:46:35.07	291.30	21.09	-38.9	-39.8	20.4	0.00e+00	0	42	0	2465202176	48	3947
2026-01-15 05:46:36.06	291.06	21.04	-38.8	-39.7	20.5	0.00e+00	0	42	0	2472542208	48	3906
2026-01-15 05:46:37.06	290.81	21.00	-38.8	-39.8	20.5	0.00e+00	0	42	0	2479882240	48	3923
2026-01-15 05:46:38.06	290.57	20.96	-38.9	-39.8	20.4	0.00e+00	0	43	0	2487222272	48	3958
2026-01-15 05:46:39.05	290.33	20.91	-38.9	-39.8	20.4	0.00e+00	0	42	0	2494562304	48	3950
2026-01-15 05:46:40.05	290.08	20.87	-38.9	-39.9	20.4	0.00e+00	0	42	0	2500853760	48	3968
2026-01-15 05:46:41.04	289.84	20.82	-38.9	-39.9	20.4	0.00e+00	0	42	0	2508193792	48	3970
2026-01-15 05:46:42.04	289.60	20.78	-38.8	-39.7	20.5	0.00e+00	0	42	0	2515533824	48	3902
2026-01-15 05:46:43.03	289.36	20.73	-38.7	-39.6	20.6	0.00e+00	0	42	0	2522873856	48	3863
2026-01-15 05:46:44.03	289.12	20.69	-38.7	-39.6	20.6	0.00e+00	0	42	0	2530213888	48	3853
2026-01-15 05:46:45.03	288.88	20.64	-38.6	-39.6	20.7	0.00e+00	0	42	0	2537553920	48	3826
2026-01-15 05:46:46.02	288.64	20.59	-38.6	-39.6	20.4	0.00e+00	0	42	0	2544893952	47	4054
2026-01-15 05:46:47.02	288.40	20.55	-38.6	-39.5	20.4	0.00e+00	0	42	0	2551185408	47	4051
2026-01-15 05:46:48.01	288.17	20.50	-38.7	-39.7	20.3	0.00e+00	0	42	0	2558525440	47	4114
2026-01-15 05:46:49.01	287.93	20.45	-38.7	-39.7	20.3	0.00e+00	0	42	0	2565865472	47	4119
2026-01-15 05:46:50.00	287.70	20.40	-38.8	-39.7	20.2	0.00e+00	0	42	0	2573205504	47	4145
2026-01-15 05:46:51.00	287.46	20.35	-38.8	-39.7	20.3	0.00e+00	0	43	0	2580545536	47	4121
2026-01-15 05:46:51.99	287.23	20.30	-38.8	-39.7	20.2	0.00e+00	0	42	0	2587885568	47	4140
2026-01-15 05:46:52.98	286.99	20.25	-38.9	-39.9	20.1	0.00e+00	0	43	0	2594177024	47	4211
2026-01-15 05:46:53.98	286.76	20.20	-39.0	-39.9	20.0	0.00e+00	0	42	0	2601517056	47	4233
2026-01-15 05:46:54.97	286.53	20.15	-39.0	-39.9	20.0	0.00e+00	0	42	0	2608857088	47	4238
2026-01-15 05:46:55.97	286.30	20.10	-39.2	-40.2	19.7	0.00e+00	0	42	0	2616197120	47	4355
2026-01-15 05:46:56.96	286.07	20.05	-39.1	-40.1	19.9	0.00e+00	0	43	0	2623537152	47	4297
2026-01-15 05:46:57.96	285.84	20.00	-39.1	-40.1	19.9	0.00e+00	0	42	0	2630877184	47	4295
2026-01-15 05:46:58.95	285.61	19.95	-39.0	-40.0	20.0	0.00e+00	0	42	0	2638217216	47	4265
2026-01-15 05:46:59.95	285.38	19.89	-39.0	-39.9	20.0	0.00e+00	0	42	0	2644508672	47	4239
2026-01-15 05:47:00.94	285.16	19.84	-38.9	-39.9	20.1	0.00e+00	0	42	0	2651848704	47	4207
2026-01-15 05:47:01.94	284.93	19.79	-39.0	-39.9	20.0	0.00e+00	0	42	0	2659188736	47	4240
2026-01-15 05:47:02.93	284.70	19.73	-38.9	-39.9	20.1	0.00e+00	0	42	0	2666528768	47	4200
2026-01-15 05:47:03.93	284.48	19.68	-38.9	-39.9	20.1	0.00e+00	0	42	0	2673868800	47	4194
2026-01-15 05:47:04.92	284.26	19.63	-38.9	-39.9	20.1	0.00e+00	0	42	0	2681208832	47	4217
2026-01-15 05:47:05.92	284.03	19.57	-39.0	-40.0	19.9	0.00e+00	0	42	0	2688548864	47	4278
2026-01-15 05:47:06.91	283.81	19.52	-39.1	-40.1	19.9	0.00e+00	0	43	0	2694840320	47	4292
2026-01-15 05:47:07.91	283.59	19.46	-39.1	-40.1	19.9	0.00e+00	0	42	0	2702180352	47	4321
2026-01-15 05:47:08.90	283.37	19.41	-39.2	-40.2	19.8	0.00e+00	0	42	0	2709520384	47	4380
2026-01-15 05:47:09.90	283.15	19.35	-39.2	-40.2	19.8	0.00e+00	0	42	0	2716860416	47	4346
2026-01-15 05:47:10.89	282.93	19.29	-39.3	-40.3	19.7	0.00e+00	0	42	0	2724200448	47	4407
2026-01-15 05:47:11.89	282.71	19.24	-39.1	-40.1	19.9	0.00e+00	0	42	0	2731540480	47	4337
2026-01-15 05:47:12.88	282.49	19.18	-39.1	-40.1	19.9	0.00e+00	0	42	0	2737831936	47	4316
2026-01-15 05:47:13.87	282.28	19.12	-39.1	-40.1	19.9	0.00e+00	0	42	0	2745171968	47	4331
2026-01-15 05:47:14.87	282.06	19.07	-39.1	-40.1	19.9	0.00e+00	0	42	0	2752512000	47	4307
2026-01-15 05:47:15.86	281.85	19.01	-39.1	-40.1	19.9	0.00e+00	0	42	0	2759852032	47	4305
2026-01-15 05:47:16.86	281.63	18.95	-39.3	-40.3	19.7	0.00e+00	0	43	0	2767192064	47	4403
2026-01-15 05:47:17.85	281.42	18.89	-39.2	-40.2	19.8	0.00e+00	0	42	0	2774532096	47	4369
2026-01-15 05:47:18.85	281.21	18.83	-39.4	-40.4	19.9	0.00e+00	0	42	0	2780823552	48	4195
2026-01-15 05:47:19.84	281.00	18.77	-39.4	-40.4	19.9	0.00e+00	0	42	0	2788163584	48	4226
2026-01-15 05:47:20.84	280.78	18.72	-39.5	-40.5	19.8	0.00e+00	0	42	0	2795503616	48	4269
2026-01-15 05:47:21.83	280.57	18.66	-39.6	-40.6	19.7	0.00e+00	0	42	0	2802843648	48	4311
2026-01-15 05:47:22.83	280.36	18.60	-39.6	-40.6	19.7	0.00e+00	0	42	0	2810183680	48	4330
2026-01-15 05:47:23.82	280.16	18.54	-39.6	-40.6	19.7	0.00e+00	0	42	0	2817523712	48	4306
2026-01-15 05:47:24.82	279.95	18.48	-39.6	-40.5	19.7	0.00e+00	0	42	0	2824863744	48	4291
2026-01-15 05:47:25.81	279.74	18.42	-39.6	-40.6	19.7	0.00e+00	0	42	0	2832203776	48	4320
2026-01-15 05:47:26.81	279.54	18.36	-39.6	-40.5	19.7	0.00e+00	0	42	0	2838495232	48	4290
2026-01-15 05:47:27.81	279.33	18.29	-39.6	-40.6	19.7	0.00e+00	0	42	0	2845835264	48	4319
2026-01-15 05:47:28.80	279.13	18.23	-39.8	-40.8	19.5	0.00e+00	0	42	0	2853175296	49	4157
2026-01-15 05:47:29.80	278.92	18.17	-39.7	-40.7	19.6	0.00e+00	0	42	0	2860515328	49	4118
2026-01-15 05:47:30.79	278.72	18.11	-39.7	-40.7	19.6	0.00e+00	0	42	0	2867855360	49	4133
2026-01-15 05:47:31.77	278.52	18.05	-39.6	-40.6	19.7	0.00e+00	0	42	0	2875195392	49	4086
2026-01-15 05:47:32.77	278.32	17.99	-39.6	-40.6	19.7	0.00e+00	0	42	0	2881486848	49	4084
2026-01-15 05:47:33.76	278.12	17.93	-39.7	-40.7	19.6	0.00e+00	0	42	0	2888826880	49	4099
2026-01-15 05:47:34.76	277.92	17.86	-39.6	-40.6	19.7	0.00e+00	0	42	0	2896166912	49	4072
2026-01-15 05:47:35.75	277.72	17.80	-39.5	-40.5	19.7	0.00e+00	0	43	0	2903506944	49	4046
2026-01-15 05:47:36.75	277.52	17.74	-39.5	-40.5	19.8	0.00e+00	0	42	0	2910846976	49	4026
2026-01-15 05:47:37.74	277.33	17.68	-39.5	-40.4	19.8	0.00e+00	0	42	0	2918187008	49	3994
2026-01-15 05:47:38.74	277.13	17.61	-39.5	-40.5	19.8	0.00e+00	0	43	0	2925527040	49	4027
2026-01-15 05:47:39.73	276.94	17.55	-39.6	-40.6	19.7	0.00e+00	0	42	0	2931818496	49	4054
2026-01-15 05:47:40.73	276.74	17.49	-39.6	-40.6	19.6	0.00e+00	0	42	0	2939158528	49	4098
2026-01-15 05:47:41.72	276.55	17.42	-39.8	-40.8	19.5	0.00e+00	0	42	0	2946498560	49	4147
2026-01-15 05:47:42.71	276.36	17.36	-39.8	-40.8	19.4	0.00e+00	0	42	0	2953838592	49	4190
2026-01-15 05:47:43.71	276.16	17.30	-39.8	-40.8	19.5	0.00e+00	0	42	0	2961178624	49	4187
2026-01-15 05:47:44.70	275.97	17.23	-39.8	-40.8	19.5	0.00e+00	0	42	0	2968518656	49	4168
2026-01-15 05:47:45.70	275.78	17.17	-39.8	-40.8	19.5	0.00e+00	0	42	0	2975858688	49	4170
2026-01-15 05:47:46.69	275.59	17.10	-39.8	-40.8	19.5	0.00e+00	0	42	0	2982150144	49	4174
2026-01-15 05:47:47.69	275.40	17.04	-39.8	-40.8	19.5	0.00e+00	0	42	0	2989490176	49	4192
2026-01-15 05:47:48.68	275.22	16.97	-39.9	-41.0	19.3	0.00e+00	0	42	0	2996830208	49	4253
2026-01-15 05:47:49.68	275.03	16.91	-39.9	-40.9	19.4	0.00e+00	0	42	0	3004170240	49	4236
2026-01-15 05:47:50.67	274.84	16.84	-40.0	-41.0	19.3	0.00e+00	0	42	0	3011510272	49	4268
2026-01-15 05:47:51.67	274.66	16.78	-40.0	-41.1	19.2	0.00e+00	0	42	0	3018850304	49	4301
2026-01-15 05:47:52.66	274.47	16.71	-40.0	-41.0	19.3	0.00e+00	0	42	0	3025141760	49	4287
2026-01-15 05:47:53.66	274.29	16.65	-40.1	-41.1	19.2	0.00e+00	0	42	0	3032481792	49	4320
2026-01-15 05:47:54.66	274.11	16.58	-40.1	-41.1	19.2	0.00e+00	0	42	0	3039821824	49	4331
2026-01-15 05:47:55.65	273.92	16.52	-40.1	-41.1	19.2	0.00e+00	0	42	0	3047161856	49	4338
2026-01-15 05:47:56.65	273.74	16.45	-40.1	-41.1	19.1	0.00e+00	0	42	0	3054501888	49	4337
2026-01-15 05:47:57.64	273.56	16.39	-40.0	-41.1	19.2	0.00e+00	0	42	0	3061841920	49	4310
2026-01-15 05:47:58.63	273.38	16.32	-40.1	-41.1	19.2	0.00e+00	0	42	0	3068133376	49	4322
2026-01-15 05:47:59.63	273.20	16.25	-40.0	-41.1	19.2	0.00e+00	0	42	0	3075473408	49	4306
2026-01-15 05:48:00.63	273.02	16.19	-40.0	-41.0	19.2	0.00e+00	0	42	0	3082813440	49	4285
2026-01-15 05:48:01.62	272.85	16.12	-40.0	-41.0	19.2	0.00e+00	0	42	0	3090153472	49	4285
2026-01-15 05:48:02.62	272.67	16.05	-40.0	-41.0	19.3	0.00e+00	0	42	0	3097493504	49	4267
2026-01-15 05:48:03.61	272.50	15.99	-40.1	-41.1	19.1	0.00e+00	0	42	0	3104833536	49	4331
2026-01-15 05:48:04.61	272.32	15.92	-40.2	-41.2	19.1	0.00e+00	0	42	0	3112173568	49	4368
2026-01-15 05:48:05.60	272.15	15.86	-40.1	-41.2	19.1	0.00e+00	0	42	0	3119513600	49	4341
2026-01-15 05:48:06.59	271.97	15.79	-40.1	-41.2	19.1	0.00e+00	0	42	0	3125805056	49	4358
2026-01-15 05:48:07.59	271.80	15.72	-40.2	-41.3	19.0	0.00e+00	0	42	0	3133145088	49	4394
2026-01-15 05:48:08.59	271.63	15.65	-40.2	-41.3	19.0	0.00e+00	0	42	0	3140485120	49	4415
2026-01-15 05:48:09.58	271.46	15.59	-40.2	-41.2	19.1	0.00e+00	0	42	0	3147825152	50	4135
2026-01-15 05:48:10.57	271.29	15.52	-40.3	-41.4	18.9	0.00e+00	0	42	0	3155165184	50	4206
2026-01-15 05:48:11.57	271.12	15.45	-40.3	-41.4	18.9	0.00e+00	0	42	0	3161456640	50	4207
2026-01-15 05:48:12.56	270.95	15.39	-40.2	-41.2	19.1	0.00e+00	0	42	0	3168796672	50	4134
2026-01-15 05:48:13.56	270.78	15.32	-40.2	-41.3	19.0	0.00e+00	0	42	0	3176136704	50	4154
2026-01-15 05:48:14.55	270.61	15.25	-40.2	-41.2	19.0	0.00e+00	0	42	0	3183476736	50	4137
2026-01-15 05:48:15.55	270.45	15.18	-40.3	-41.3	19.0	0.00e+00	0	42	0	3190816768	50	4192
2026-01-15 05:48:16.54	270.28	15.12	-40.4	-41.5	18.8	0.00e+00	0	42	0	3198156800	50	4264
2026-01-15 05:48:17.54	270.11	15.05	-40.5	-41.6	18.7	0.00e+00	0	42	0	3205496832	50	4299
2026-01-15 05:48:18.53	269.95	14.98	-40.5	-41.6	18.6	0.00e+00	0	42	0	3211788288	50	4319
2026-01-15 05:48:19.53	269.79	14.91	-40.6	-41.7	18.6	0.00e+00	0	42	0	3219128320	50	4358
2026-01-15 05:48:20.52	269.62	14.85	-40.6	-41.7	18.6	0.00e+00	0	42	0	3226468352	50	4363
2026-01-15 05:48:21.52	269.46	14.78	-40.6	-41.7	18.6	0.00e+00	0	42	0	3233808384	50	4376
2026-01-15 05:48:22.51	269.30	14.71	-40.7	-41.8	18.5	0.00e+00	0	42	0	3241148416	50	4402
2026-01-15 05:48:23.51	269.14	14.64	-40.7	-41.8	18.5	0.00e+00	0	42	0	3248488448	51	4168
2026-01-15 05:48:24.51	268.98	14.58	-40.6	-41.7	18.6	0.00e+00	0	42	0	3255828480	51	4130
2026-01-15 05:48:25.50	268.82	14.51	-40.6	-41.7	18.6	0.00e+00	0	42	0	3263168512	51	4115
2026-01-15 05:48:26.50	268.66	14.44	-40.7	-41.8	18.5	0.00e+00	0	42	0	3269459968	51	4158
2026-01-15 05:48:27.49	268.51	14.37	-40.8	-41.9	18.4	0.00e+00	0	42	0	3276800000	51	4206
2026-01-15 05:48:28.49	268.35	14.30	-40.8	-41.9	18.4	0.00e+00	0	42	0	3284140032	51	4222
2026-01-15 05:48:29.48	268.19	14.24	-40.8	-42.0	18.3	0.00e+00	0	42	0	3291480064	51	4247
2026-01-15 05:48:30.47	268.04	14.17	-40.8	-41.9	18.3	0.00e+00	0	42	0	3298820096	51	4238
2026-01-15 05:48:31.47	267.88	14.10	-40.9	-42.0	18.3	0.00e+00	0	42	0	3305111552	51	4258
2026-01-15 05:48:32.46	267.73	14.03	-40.9	-42.0	18.3	0.00e+00	0	42	0	3312451584	51	4275
2026-01-15 05:48:33.46	267.57	13.97	-40.8	-41.9	18.4	0.00e+00	0	42	0	3319791616	51	4229
2026-01-15 05:48:34.45	267.42	13.90	-40.8	-41.9	18.4	0.00e+00	0	42	0	3327131648	51	4212
2026-01-15 05:48:35.45	267.27	13.83	-40.7	-41.8	18.5	0.00e+00	0	42	0	3334471680	51	4161
2026-01-15 05:48:36.44	267.12	13.76	-40.7	-41.8	18.5	0.00e+00	0	42	0	3341811712	51	4159
2026-01-15 05:48:37.44	266.97	13.69	-40.7	-41.8	18.4	0.00e+00	0	42	0	3349151744	51	4189
2026-01-15 05:48:38.43	266.82	13.63	-40.6	-41.7	18.5	0.00e+00	0	42	0	3355443200	51	4136
2026-01-15 05:48:39.42	266.67	13.56	-40.6	-41.7	18.5	0.00e+00	0	42	0	3362783232	51	4138
2026-01-15 05:48:40.42	266.52	13.49	-40.6	-41.6	18.6	0.00e+00	0	42	0	3370123264	51	4090
2026-01-15 05:48:41.41	266.37	13.42	-40.6	-41.7	18.6	0.00e+00	0	42	0	3377463296	51	4117
2026-01-15 05:48:42.41	266.23	13.35	-40.7	-41.8	18.5	0.00e+00	0	42	0	3384803328	51	4148
2026-01-15 05:48:43.40	266.08	13.29	-40.7	-41.8	18.4	0.00e+00	0	42	0	3392143360	51	4192
2026-01-15 05:48:44.40	265.93	13.22	-40.8	-41.9	18.4	0.00e+00	0	42	0	3399483392	51	4211
2026-01-15 05:48:45.39	265.79	13.15	-40.7	-41.8	18.4	0.00e+00	0	42	0	3406823424	51	4177
2026-01-15 05:48:46.38	265.65	13.08	-40.7	-41.8	18.5	0.00e+00	0	42	0	3413114880	51	4166
2026-01-15 05:48:47.38	265.50	13.01	-40.7	-41.8	18.5	0.00e+00	0	42	0	3420454912	51	4169
2026-01-15 05:48:48.38	265.36	12.95	-40.7	-41.8	18.4	0.00e+00	0	42	0	3427794944	51	4177
2026-01-15 05:48:49.37	265.22	12.88	-40.9	-42.0	18.3	0.00e+00	0	42	0	3435134976	51	4284
2026-01-15 05:48:50.37	265.07	12.81	-40.7	-41.8	18.4	0.00e+00	0	42	0	3442475008	51	4189
2026-01-15 05:48:51.36	264.93	12.74	-40.7	-41.8	18.5	0.00e+00	0	42	0	3448766464	51	4152
2026-01-15 05:48:52.36	264.79	12.67	-40.8	-41.9	18.3	0.00e+00	0	42	0	3456106496	51	4196
2026-01-15 05:48:53.35	264.65	12.61	-40.9	-42.0	18.3	0.00e+00	0	42	0	3463446528	51	4245
2026-01-15 05:48:54.35	264.51	12.54	-40.9	-42.0	18.2	0.00e+00	0	42	0	3470786560	51	4264
2026-01-15 05:48:55.34	264.38	12.47	-41.0	-42.1	18.1	0.00e+00	0	42	0	3478126592	51	4338
2026-01-15 05:48:56.34	264.24	12.40	-41.1	-42.2	18.0	0.00e+00	0	42	0	3485466624	51	4364
2026-01-15 05:48:57.33	264.10	12.34	-41.1	-42.3	17.9	0.00e+00	0	42	0	3491758080	51	4417
2026-01-15 05:48:58.33	263.96	12.27	-41.2	-42.3	17.9	0.00e+00	0	42	0	3499098112	51	4439
2026-01-15 05:48:59.32	263.83	12.20	-41.2	-42.4	17.9	0.00e+00	0	42	0	3506438144	51	4470
2026-01-15 05:49:00.32	263.69	12.13	-41.3	-42.5	17.7	0.00e+00	0	42	0	3513778176	52	4258
2026-01-15 05:49:01.31	263.56	12.06	-41.2	-42.4	17.8	0.00e+00	0	42	0	3521118208	52	4211
2026-01-15 05:49:02.31	263.43	12.00	-41.3	-42.5	17.7	0.00e+00	0	42	0	3528458240	52	4260
2026-01-15 05:49:03.31	263.29	11.93	-41.1	-42.3	17.8	0.00e+00	0	42	0	3535798272	52	4177
2026-01-15 05:49:04.30	263.16	11.86	-41.2	-42.4	17.8	0.00e+00	0	42	0	3543138304	52	4199
2026-01-15 05:49:05.29	263.03	11.79	-41.1	-42.3	17.9	0.00e+00	0	42	0	3550478336	52	4166
2026-01-15 05:49:06.29	262.90	11.73	-41.1	-42.3	17.8	0.00e+00	0	42	0	3556769792	52	4163
2026-01-15 05:49:07.28	262.77	11.66	-41.1	-42.3	17.8	0.00e+00	0	42	0	3564109824	52	4167
2026-01-15 05:49:08.28	262.63	11.59	-41.1	-42.3	17.8	0.00e+00	0	42	0	3571449856	52	4184
2026-01-15 05:49:09.27	262.51	11.53	-41.1	-42.3	17.8	0.00e+00	0	42	0	3578789888	52	4184
2026-01-15 05:49:10.27	262.38	11.46	-41.1	-42.3	17.9	0.00e+00	0	42	0	3586129920	52	4157
2026-01-15 05:49:11.27	262.25	11.39	-41.2	-42.4	17.8	0.00e+00	0	42	0	3592421376	52	4214
2026-01-15 05:49:12.26	262.12	11.32	-41.3	-42.5	17.7	0.00e+00	0	42	0	3599761408	52	4251
2026-01-15 05:49:13.26	261.99	11.26	-41.3	-42.5	17.7	0.00e+00	0	42	0	3607101440	52	4246
2026-01-15 05:49:14.25	261.87	11.19	-41.4	-42.6	17.6	0.00e+00	0	42	0	3614441472	52	4317
2026-01-15 05:49:15.24	261.74	11.12	-41.4	-42.6	17.6	0.00e+00	0	42	0	3621781504	52	4295
2026-01-15 05:49:16.24	261.61	11.05	-41.3	-42.5	17.7	0.00e+00	0	42	0	3629121536	52	4256
2026-01-15 05:49:17.23	261.49	10.99	-41.3	-42.4	17.7	0.00e+00	0	42	0	3635412992	52	4231
2026-01-15 05:49:18.23	261.36	10.92	-41.2	-42.4	17.7	0.00e+00	0	42	0	3642753024	52	4231
2026-01-15 05:49:19.22	261.24	10.85	-41.2	-42.4	17.7	0.00e+00	0	42	0	3650093056	52	4228
2026-01-15 05:49:20.21	261.12	10.79	-41.2	-42.4	17.7	0.00e+00	0	42	0	3657433088	52	4211
2026-01-15 05:49:21.21	261.00	10.72	-41.1	-42.3	17.7	0.00e+00	0	42	0	3664773120	52	4184
2026-01-15 05:49:22.20	260.87	10.65	-41.2	-42.4	17.7	0.00e+00	0	42	0	3672113152	52	4237
2026-01-15 05:49:23.20	260.75	10.59	-41.2	-42.4	17.7	0.00e+00	0	42	0	3679453184	52	4238
2026-01-15 05:49:24.19	260.63	10.52	-41.3	-42.5	17.6	0.00e+00	0	42	0	3686793216	52	4281
2026-01-15 05:49:25.19	260.51	10.45	-41.3	-42.6	17.5	0.00e+00	0	42	0	3694133248	52	4322
2026-01-15 05:49:26.19	260.39	10.39	-41.6	-42.9	17.2	0.00e+00	0	42	0	3700424704	52	4462
2026-01-15 05:49:27.18	260.27	10.32	-41.6	-42.9	17.2	0.00e+00	0	42	0	3707764736	52	4460
2026-01-15 05:49:28.18	260.15	10.25	-41.7	-43.0	17.1	0.00e+00	0	42	0	3715104768	52	4528
2026-01-15 05:49:29.17	260.03	10.19	-41.7	-43.0	17.1	0.00e+00	0	42	0	3722444800	52	4536
2026-01-15 05:49:30.17	259.92	10.12	-41.7	-43.0	17.1	0.00e+00	0	42	0	3729784832	52	4522
2026-01-15 05:49:31.16	259.80	10.06	-41.7	-43.0	17.1	0.00e+00	0	42	0	3736076288	52	4500
2026-01-15 05:49:32.15	259.68	9.99	-41.6	-42.9	17.2	0.00e+00	0	42	0	3743416320	52	4445
2026-01-15 05:49:33.15	259.57	9.92	-41.6	-42.9	17.2	0.00e+00	0	42	0	3750756352	52	4453
2026-01-15 05:49:34.14	259.45	9.86	-41.6	-42.9	17.2	0.00e+00	0	42	0	3758096384	52	4471
2026-01-15 05:49:35.14	259.34	9.79	-41.7	-43.0	17.1	0.00e+00	0	42	0	3765436416	52	4498
2026-01-15 05:49:36.14	259.22	9.73	-41.5	-42.8	17.3	0.00e+00	0	42	0	3772776448	52	4422
2026-01-15 05:49:37.13	259.11	9.66	-41.6	-42.8	17.3	0.00e+00	0	42	0	3779067904	52	4416
2026-01-15 05:49:38.13	258.99	9.59	-41.6	-42.8	17.3	0.00e+00	0	42	0	3786407936	52	4416
2026-01-15 05:49:39.12	258.88	9.53	-41.5	-42.8	17.3	0.00e+00	0	42	0	3793747968	52	4402
2026-01-15 05:49:40.12	258.77	9.46	-41.6	-42.8	17.3	0.00e+00	0	42	0	3801088000	52	4423
2026-01-15 05:49:41.11	258.66	9.40	-41.7	-42.9	17.2	0.00e+00	0	42	0	3808428032	52	4484
2026-01-15 05:49:42.11	258.55	9.33	-41.9	-43.1	16.9	0.00e+00	0	42	0	3815768064	53	4331
2026-01-15 05:49:43.10	258.44	9.27	-42.0	-43.3	16.8	0.00e+00	0	42	0	3823108096	53	4404
2026-01-15 05:49:44.09	258.33	9.20	-42.1	-43.4	16.7	0.00e+00	0	42	0	3830448128	53	4470
2026-01-15 05:49:45.09	258.22	9.14	-42.2	-43.6	16.5	0.00e+00	0	42	0	3837788160	53	4557
2026-01-15 05:49:46.08	258.11	9.07	-42.3	-43.6	16.4	0.00e+00	0	42	0	3844079616	54	4339
2026-01-15 05:49:47.07	258.00	9.01	-42.3	-43.6	16.5	0.00e+00	0	42	0	3851419648	54	4334
2026-01-15 05:49:48.07	257.89	8.94	-49.9	-57.9	4.0	8.08e-01	0	42	104	3856662528	69	9435
2026-01-15 05:49:49.06	257.78	8.88	-51.0	-61.8	3.8	8.47e-01	0	42	104	3856662528	71	13114
2026-01-15 05:49:50.05	257.68	8.81	-51.1	-61.9	3.8	8.47e-01	0	42	104	3856662528	71	13352
2026-01-15 05:49:51.05	257.57	8.75	-51.1	-62.0	3.8	8.47e-01	0	42	104	3856662528	71	13429
2026-01-15 05:49:52.04	257.46	8.68	-51.2	-62.1	3.8	8.47e-01	0	42	104	3856662528	71	13586
2026-01-15 05:49:53.04	257.36	8.62	-51.2	-62.2	3.8	8.47e-01	0	42	104	3856662528	71	13727
2026-01-15 05:49:54.03	257.25	8.55	-51.3	-62.1	3.8	8.47e-01	0	42	104	3856662528	72	12957
2026-01-15 05:49:55.02	257.15	8.49	-51.3	-62.1	3.8	8.46e-01	0	42	104	3856662528	72	12946
2026-01-15 05:49:56.01	257.04	8.42	-51.4	-62.2	3.8	8.47e-01	0	42	104	3856662528	72	12984
2026-01-15 05:49:57.01	256.94	8.36	-51.4	-62.2	3.8	8.47e-01	0	42	104	3856662528	72	12995
2026-01-15 05:49:58.00	256.84	8.30	-51.4	-62.2	3.8	8.49e-01	0	42	104	3856662528	72	13088
2026-01-15 05:49:58.99	256.73	8.23	-51.4	-62.2	3.8	8.47e-01	0	42	104	3856662528	72	13088
2026-01-15 05:49:59.99	256.63	8.17	-51.3	-62.3	3.8	8.47e-01	0	42	104	3856662528	72	13122
2026-01-15 05:50:00.98	256.53	8.10	-51.4	-62.3	3.8	8.47e-01	0	42	104	3856662528	72	13131
2026-01-15 05:50:01.97	256.43	8.04	-51.3	-62.3	3.8	8.47e-01	0	42	104	3856662528	72	13174
2026-01-15 05:50:02.97	256.33	7.98	-51.3	-62.2	3.8	8.47e-01	0	42	104	3856662528	72	13042
2026-01-15 05:50:03.96	256.23	7.91	-51.3	-62.3	3.8	8.47e-01	0	42	104	3856662528	72	13125
2026-01-15 05:50:04.95	256.13	7.85	-51.3	-62.3	3.8	8.47e-01	0	42	104	3856662528	72	13113
2026-01-15 05:50:05.95	256.03	7.78	-51.4	-62.3	3.8	8.46e-01	0	42	104	3856662528	72	13125
2026-01-15 05:50:06.94	255.93	7.72	-51.3	-62.3	3.8	8.47e-01	0	42	104	3856662528	72	13166
2026-01-15 05:50:07.93	255.83	7.66	-51.3	-62.2	3.8	8.47e-01	0	42	104	3856662528	72	13027
2026-01-15 05:50:08.93	255.73	7.59	-51.2	-62.2	3.8	8.48e-01	0	42	104	3856662528	72	13001
2026-01-15 05:50:09.92	255.63	7.53	-51.1	-62.2	3.8	8.46e-01	0	42	104	3856662528	72	12970
2026-01-15 05:50:10.91	255.53	7.47	-51.1	-62.2	3.8	8.47e-01	0	42	104	3856662528	72	12994
2026-01-15 05:50:11.91	255.44	7.41	-51.2	-62.2	3.8	8.47e-01	0	42	104	3856662528	72	13009
2026-01-15 05:50:12.90	255.34	7.34	-51.1	-62.1	3.8	8.47e-01	0	42	104	3856662528	72	12941
2026-01-15 05:50:13.89	255.24	7.28	-51.1	-62.1	3.8	8.47e-01	0	42	104	3856662528	72	12921
2026-01-15 05:50:14.88	255.15	7.22	-51.1	-62.1	3.8	8.47e-01	0	42	104	3856662528	72	12955
2026-01-15 05:50:15.88	255.05	7.15	-51.1	-62.1	3.8	8.46e-01	0	42	104	3856662528	72	12911
2026-01-15 05:50:16.87	254.96	7.09	-51.1	-62.1	3.8	8.48e-01	0	42	104	3856662528	72	12915
2026-01-15 05:50:17.86	254.86	7.03	-51.1	-62.1	3.8	8.47e-01	0	42	104	3856662528	72	12903
2026-01-15 05:50:18.86	254.77	6.97	-51.1	-62.1	3.8	8.46e-01	0	42	104	3856662528	72	12951
2026-01-15 05:50:19.85	254.68	6.90	-51.1	-62.1	3.8	8.46e-01	0	42	104	3856662528	72	12846
2026-01-15 05:50:20.84	254.58	6.84	-51.1	-62.1	3.8	8.46e-01	0	42	104	3856662528	72	12875
2026-01-15 05:50:21.83	254.49	6.78	-51.1	-62.2	3.8	8.46e-01	0	42	104	3856662528	72	12968
2026-01-15 05:50:22.83	254.40	6.72	-51.1	-62.2	3.8	8.46e-01	0	42	104	3856662528	72	12992
2026-01-15 05:50:23.82	254.31	6.65	-51.1	-62.1	3.8	8.48e-01	0	42	104	3856662528	72	12876
2026-01-15 05:50:24.81	254.21	6.59	-51.1	-62.1	3.8	8.47e-01	0	42	104	3856662528	72	12923
2026-01-15 05:50:25.80	254.12	6.53	-51.1	-62.1	3.8	8.47e-01	0	42	104	3856662528	72	12868
2026-01-15 05:50:26.80	254.03	6.47	-51.1	-62.1	3.8	8.47e-01	0	42	104	3856662528	72	12841
2026-01-15 05:50:27.79	253.94	6.41	-51.1	-62.1	3.8	8.46e-01	0	42	104	3856662528	72	12898
2026-01-15 05:50:28.78	253.85	6.35	-51.1	-62.1	3.8	8.47e-01	0	42	104	3856662528	72	12923
2026-01-15 05:50:29.78	253.76	6.28	-51.1	-62.1	3.8	8.46e-01	0	42	104	3856662528	72	12885
2026-01-15 05:50:30.77	253.67	6.22	-51.1	-62.1	3.8	8.46e-01	0	42	104	3856662528	72	12897
2026-01-15 05:50:31.76	253.58	6.16	-51.1	-62.1	3.8	8.47e-01	0	42	104	3856662528	72	12891
2026-01-15 05:50:32.75	253.49	6.10	-51.1	-62.1	3.8	8.46e-01	0	42	104	3856662528	72	12817
2026-01-15 05:50:33.75	253.41	6.04	-51.1	-62.1	3.8	8.47e-01	0	42	104	3856662528	72	12905
2026-01-15 05:50:34.74	253.32	5.98	-51.1	-62.1	3.8	8.47e-01	0	42	104	3856662528	72	12902
2026-01-15 05:50:35.73	253.23	5.92	-51.1	-62.1	3.8	8.46e-01	0	42	104	3856662528	72	12947
2026-01-15 05:50:36.73	253.14	5.85	-51.1	-62.1	3.8	8.46e-01	0	42	104	3856662528	72	12946
2026-01-15 05:50:37.72	253.06	5.79	-51.1	-62.1	3.8	8.47e-01	0	42	104	3856662528	72	12862
2026-01-15 05:50:38.71	252.97	5.73	-51.1	-62.1	3.8	8.47e-01	0	42	104	3856662528	72	12847
2026-01-15 05:50:39.71	252.89	5.67	-51.1	-62.1	3.8	8.47e-01	0	42	104	3856662528	72	12906
2026-01-15 05:50:40.70	252.80	5.61	-51.1	-62.1	3.8	8.47e-01	0	42	104	3856662528	72	12869
2026-01-15 05:50:41.69	252.71	5.55	-51.1	-62.1	3.8	8.48e-01	0	42	104	3856662528	72	12859
2026-01-15 05:50:42.69	252.63	5.49	-51.1	-62.1	3.8	8.47e-01	0	42	104	3856662528	72	12927
2026-01-15 05:50:43.68	252.55	5.43	-51.1	-62.2	3.8	8.47e-01	0	42	104	3856662528	72	12975
2026-01-15 05:50:44.67	252.46	5.37	-51.1	-62.1	3.8	8.47e-01	0	42	104	3856662528	72	12882
2026-01-15 05:50:45.66	252.38	5.31	-51.1	-62.1	3.8	8.48e-01	0	42	104	3856662528	72	12925
2026-01-15 05:50:46.66	252.29	5.25	-51.1	-62.2	3.8	8.48e-01	0	42	104	3856662528	72	13011
2026-01-15 05:50:47.65	252.21	5.19	-51.1	-62.1	3.8	8.48e-01	0	42	104	3856662528	72	12845
2026-01-15 05:50:48.64	252.13	5.13	-51.1	-62.1	3.8	8.48e-01	0	42	104	3856662528	72	12852
2026-01-15 05:50:49.63	252.05	5.07	-51.1	-62.1	3.8	8.46e-01	0	42	104	3856662528	72	12903
2026-01-15 05:50:50.63	251.96	5.01	-51.1	-62.1	3.8	8.46e-01	0	42	104	3856662528	72	12863

#Closed at: 2026-01-15 05:50:51
#Recorded file [3856 MB]: D:/Data/31040_260115_084003.dat