passes_logs/2026/01/15/T1/T1__20260115_094621_NOAA_20_JPSS-1_rec.log

#Pass ID: 20260115_094621_NOAA 20 (JPSS-1)
#Satellite: NOAA 20 (JPSS-1)
#Configuration: NOAA 20
#almurnet v.1.7.20251203
#Start time: 2026-01-15 09:46:23

#Version: 2.0.20230620
#Station: T1
#Location: 37.570604 lon 55.790049 lat
#TLE: 1 43013U 17073A   26014.55467351  .00000038  00000+0  38801-4 0  9992
#TLE: 2 43013  98.7635 315.4987 0001517  39.9279 320.2008 14.19535859422677

#Time	Az	El	Level	Level2	SNR	BER	BlckErr	Temp	State	Recorded	gain1	gain2
2026-01-15 09:46:23.54	155.36	5.13	-51.6	-66.9	3.8	1.49e+00	0	37	0	0	74	21324
2026-01-15 09:46:24.53	155.36	5.20	-51.6	-66.9	3.8	1.49e+00	0	37	104	0	75	20149
2026-01-15 09:46:25.52	155.35	5.27	-51.6	-67.0	3.8	1.49e+00	0	37	104	0	75	20346
2026-01-15 09:46:26.51	155.34	5.34	-51.6	-67.0	3.8	1.49e+00	0	37	104	0	75	20424
2026-01-15 09:46:27.50	155.34	5.42	-51.6	-67.1	3.8	1.49e+00	0	37	104	0	75	20639
2026-01-15 09:46:28.50	155.33	5.49	-51.6	-67.0	3.8	1.49e+00	0	37	104	0	75	20460
2026-01-15 09:46:29.49	155.32	5.56	-51.6	-67.0	3.8	1.49e+00	0	37	104	0	75	20461
2026-01-15 09:46:30.48	155.31	5.63	-51.6	-67.0	3.8	1.49e+00	0	37	104	0	75	20328
2026-01-15 09:46:31.48	155.31	5.71	-51.6	-66.8	3.8	1.49e+00	0	37	104	0	75	20065
2026-01-15 09:46:32.47	155.30	5.78	-51.6	-66.7	3.8	1.49e+00	0	37	104	0	75	19777
2026-01-15 09:46:33.46	155.29	5.85	-51.6	-66.6	3.8	1.49e+00	0	37	104	0	75	19599
2026-01-15 09:46:34.46	155.29	5.93	-51.6	-66.4	3.8	1.49e+00	0	37	104	0	75	19108
2026-01-15 09:46:35.45	155.28	6.00	-51.6	-66.2	3.8	1.49e+00	0	37	104	0	75	18724
2026-01-15 09:46:36.44	155.27	6.08	-51.6	-66.1	3.8	1.49e+00	0	37	104	0	75	18312
2026-01-15 09:46:37.43	155.26	6.15	-51.6	-65.8	3.8	1.49e+00	0	37	104	0	75	17845
2026-01-15 09:46:38.43	155.25	6.22	-51.6	-65.6	3.8	1.49e+00	0	38	104	0	75	17393
2026-01-15 09:46:39.42	155.25	6.30	-51.5	-65.3	3.8	1.49e+00	0	38	104	0	75	16873
2026-01-15 09:46:40.41	155.24	6.37	-51.5	-65.0	3.9	1.49e+00	0	37	104	0	75	16147
2026-01-15 09:46:41.41	155.23	6.45	-51.5	-64.6	3.8	1.48e+00	0	38	104	0	75	15462
2026-01-15 09:46:42.40	155.22	6.52	-51.5	-63.9	4.1	1.46e+00	0	38	0	0	74	15174
2026-01-15 09:46:43.39	155.22	6.60	-51.4	-63.4	4.2	1.41e+00	0	38	0	0	74	14268
2026-01-15 09:46:44.38	155.21	6.68	-51.4	-62.8	4.4	1.34e+00	0	38	0	0	74	13374
2026-01-15 09:46:45.38	155.20	6.75	-51.3	-62.2	4.6	1.10e+00	0	38	0	2097152	74	12488
2026-01-15 09:46:46.37	155.19	6.83	-51.2	-61.5	5.0	7.87e-01	0	38	0	4194304	74	11474
2026-01-15 09:46:47.36	155.18	6.90	-51.1	-60.8	5.4	6.02e-01	0	38	0	6291456	74	10629
2026-01-15 09:46:48.36	155.18	6.98	-51.0	-60.2	5.8	4.61e-01	0	38	0	7340032	74	9851
2026-01-15 09:46:49.35	155.17	7.06	-50.8	-59.4	6.4	2.76e-01	0	38	0	9437184	73	9536
2026-01-15 09:46:50.34	155.16	7.14	-50.7	-58.7	7.0	1.87e-01	0	38	0	11534336	73	8785
2026-01-15 09:46:51.33	155.15	7.21	-50.6	-58.1	7.6	1.16e-01	0	38	0	13631488	73	8199
2026-01-15 09:46:52.33	155.14	7.29	-50.4	-57.3	8.3	7.21e-02	0	38	0	14680064	72	7984
2026-01-15 09:46:53.32	155.13	7.37	-50.2	-56.7	8.9	3.20e-02	0	38	0	16777216	72	7428
2026-01-15 09:46:54.31	155.13	7.45	-50.0	-56.1	9.6	1.73e-02	0	38	0	18874368	72	6887
2026-01-15 09:46:55.31	155.12	7.53	-49.8	-55.5	10.2	8.21e-03	0	38	0	20971520	71	6810
2026-01-15 09:46:56.30	155.11	7.60	-49.6	-55.0	10.8	4.13e-03	0	38	0	23068672	71	6433
2026-01-15 09:46:57.29	155.10	7.68	-49.4	-54.5	11.3	1.37e-03	0	38	0	24117248	70	6431
2026-01-15 09:46:58.29	155.09	7.76	-49.2	-54.1	11.7	7.10e-04	0	38	0	26214400	70	6161
2026-01-15 09:46:59.28	155.08	7.84	-49.1	-53.8	12.0	4.41e-04	0	38	0	28311552	70	5986
2026-01-15 09:47:00.27	155.07	7.92	-49.0	-53.7	12.1	2.17e-04	0	38	0	30408704	70	5885
2026-01-15 09:47:01.26	155.06	8.00	-49.0	-53.7	12.1	2.46e-04	0	38	0	31457280	70	5863
2026-01-15 09:47:02.26	155.06	8.08	-49.1	-53.7	12.1	2.66e-04	0	38	0	33554432	70	5922
2026-01-15 09:47:03.25	155.05	8.16	-49.1	-53.8	12.0	2.91e-04	0	38	0	35651584	70	5966
2026-01-15 09:47:04.24	155.04	8.24	-49.2	-54.1	11.6	5.45e-04	0	38	0	37748736	70	6198
2026-01-15 09:47:05.24	155.03	8.32	-49.5	-54.7	11.1	1.13e-03	0	38	0	39845888	70	6583
2026-01-15 09:47:06.23	155.02	8.40	-49.7	-55.2	10.6	2.28e-03	0	38	0	40894464	70	7030
2026-01-15 09:47:07.22	155.01	8.49	-50.1	-56.3	9.5	5.72e-03	0	38	0	42991616	70	7908
2026-01-15 09:47:08.22	155.00	8.57	-50.4	-57.1	8.6	2.81e-02	0	39	0	45088768	71	8269
2026-01-15 09:47:09.21	154.99	8.65	-50.7	-58.3	7.4	7.44e-02	0	38	0	47185920	71	9482
2026-01-15 09:47:10.20	154.98	8.73	-50.9	-59.8	6.1	1.89e-01	0	38	0	48234496	72	10565
2026-01-15 09:47:11.19	154.97	8.81	-51.2	-61.4	5.1	5.62e-01	0	38	0	50331648	72	12741
2026-01-15 09:47:12.19	154.96	8.90	-51.4	-63.1	4.3	1.07e+00	0	38	0	52428800	73	14619
2026-01-15 09:47:13.18	154.95	8.98	-51.5	-64.8	3.8	1.45e+00	0	39	104	52428800	73	17783
2026-01-15 09:47:14.17	154.94	9.06	-51.6	-66.0	3.8	1.49e+00	0	39	104	52428800	73	20390
2026-01-15 09:47:15.17	154.93	9.15	-50.2	-56.6	9.2	3.02e-02	0	39	0	52428800	72	7330
2026-01-15 09:47:16.16	154.92	9.23	-50.5	-57.3	8.6	1.82e-02	0	39	0	54525952	72	7925
2026-01-15 09:47:17.15	154.91	9.32	-51.7	-65.9	3.8	1.47e+00	0	39	104	54525952	74	19096
2026-01-15 09:47:18.15	154.90	9.40	-51.0	-59.0	6.8	1.49e+00	0	39	104	54525952	74	8619
2026-01-15 09:47:19.14	154.89	9.48	-50.1	-56.2	9.7	1.04e-02	0	39	0	55574528	71	7374
2026-01-15 09:47:20.13	154.88	9.57	-50.1	-56.0	9.7	8.90e-03	0	39	0	57671680	71	7265
2026-01-15 09:47:21.12	154.87	9.65	-49.7	-55.0	10.8	8.33e-03	0	39	0	59768832	71	6478
2026-01-15 09:47:22.12	154.86	9.74	-49.2	-53.7	12.1	4.00e-04	0	39	0	61865984	70	5912
2026-01-15 09:47:23.11	154.85	9.83	-48.7	-52.9	13.1	5.11e-05	0	39	0	62914560	69	5676
2026-01-15 09:47:24.10	154.84	9.91	-48.3	-52.1	13.8	1.75e-05	0	39	0	65011712	68	5514
2026-01-15 09:47:25.10	154.83	10.00	-48.1	-51.8	14.1	5.30e-06	0	39	0	67108864	68	5317
2026-01-15 09:47:26.09	154.82	10.09	-48.1	-51.7	14.3	7.00e-07	0	39	0	69206016	68	5263
2026-01-15 09:47:27.08	154.81	10.17	-48.0	-51.6	14.4	2.20e-06	0	39	0	70254592	68	5209
2026-01-15 09:47:28.08	154.80	10.26	-48.0	-51.6	14.3	0.00e+00	0	39	0	72351744	68	5218
2026-01-15 09:47:29.07	154.79	10.35	-48.0	-51.5	14.4	0.00e+00	0	38	0	74448896	68	5152
2026-01-15 09:47:30.06	154.78	10.44	-48.0	-51.6	14.4	7.00e-07	0	39	0	76546048	68	5178
2026-01-15 09:47:31.05	154.76	10.52	-47.8	-51.3	14.5	1.30e-04	0	39	0	78643200	67	5331
2026-01-15 09:47:32.05	154.75	10.61	-47.8	-51.3	14.6	7.00e-07	0	39	0	79691776	67	5292
2026-01-15 09:47:33.02	154.74	10.70	-47.8	-51.3	14.5	7.00e-07	0	39	0	81788928	67	5285
2026-01-15 09:47:34.01	154.73	10.79	-47.7	-51.2	14.6	7.00e-07	0	39	0	83886080	67	5269
2026-01-15 09:47:35.01	154.72	10.88	-47.7	-51.2	14.7	0.00e+00	0	39	0	85983232	67	5220
2026-01-15 09:47:36.00	154.71	10.97	-47.7	-51.1	14.7	0.00e+00	0	39	0	87031808	67	5211
2026-01-15 09:47:36.99	154.70	11.06	-47.6	-51.1	14.7	1.50e-06	0	39	0	89128960	67	5204
2026-01-15 09:47:37.99	154.68	11.15	-47.6	-51.2	14.7	7.00e-07	0	39	0	91226112	67	5231
2026-01-15 09:47:38.98	154.67	11.24	-47.7	-51.3	14.6	0.00e+00	0	39	0	93323264	67	5282
2026-01-15 09:47:39.97	154.66	11.33	-47.6	-51.1	14.7	7.00e-07	0	39	0	95420416	67	5214
2026-01-15 09:47:40.97	154.65	11.43	-47.5	-51.0	14.8	0.00e+00	0	39	0	96468992	67	5150
2026-01-15 09:47:41.96	154.64	11.52	-47.6	-51.1	14.8	0.00e+00	0	39	0	98566144	67	5177
2026-01-15 09:47:42.95	154.62	11.61	-47.5	-51.1	14.8	7.00e-07	0	39	0	100663296	67	5163
2026-01-15 09:47:43.94	154.61	11.70	-47.5	-51.0	14.8	7.00e-07	0	39	0	102760448	66	5457
2026-01-15 09:47:44.94	154.60	11.80	-47.5	-51.1	14.8	7.00e-07	0	39	0	103809024	66	5496
2026-01-15 09:47:45.93	154.59	11.89	-47.5	-51.1	14.7	0.00e+00	0	39	0	105906176	66	5520
2026-01-15 09:47:46.92	154.57	11.98	-47.4	-50.9	15.0	0.00e+00	0	39	0	108003328	66	5395
2026-01-15 09:47:47.92	154.56	12.08	-47.4	-50.9	15.0	0.00e+00	0	39	0	110100480	66	5381
2026-01-15 09:47:48.91	154.55	12.17	-47.3	-50.8	15.1	0.00e+00	0	39	0	111149056	66	5324
2026-01-15 09:47:49.90	154.54	12.27	-47.3	-50.9	15.0	0.00e+00	0	39	0	113246208	66	5342
2026-01-15 09:47:50.90	154.52	12.36	-47.3	-50.8	15.1	0.00e+00	0	39	0	115343360	66	5302
2026-01-15 09:47:51.89	154.51	12.46	-47.4	-50.8	15.0	0.00e+00	0	39	0	117440512	66	5332
2026-01-15 09:47:52.88	154.50	12.55	-47.3	-50.8	15.1	0.00e+00	0	39	0	119537664	66	5305
2026-01-15 09:47:53.87	154.48	12.65	-47.4	-50.8	15.1	0.00e+00	0	39	0	120586240	66	5324
2026-01-15 09:47:54.87	154.47	12.75	-47.4	-50.8	15.1	0.00e+00	0	39	0	122683392	66	5312
2026-01-15 09:47:55.86	154.46	12.84	-47.3	-50.7	15.2	0.00e+00	0	39	0	124780544	66	5227
2026-01-15 09:47:56.85	154.44	12.94	-47.3	-50.7	15.2	0.00e+00	0	39	0	126877696	66	5256
2026-01-15 09:47:57.85	154.43	13.04	-47.3	-50.7	15.2	7.00e-07	0	39	0	127926272	66	5246
2026-01-15 09:47:58.84	154.42	13.14	-47.4	-50.8	15.2	0.00e+00	0	39	0	130023424	66	5285
2026-01-15 09:47:59.83	154.40	13.23	-47.3	-50.6	15.3	0.00e+00	0	39	0	132120576	66	5196
2026-01-15 09:48:00.83	154.39	13.33	-47.2	-50.5	15.4	0.00e+00	0	39	0	134217728	66	5156
2026-01-15 09:48:01.82	154.37	13.43	-47.2	-50.4	15.5	0.00e+00	0	39	0	136314880	66	5095
2026-01-15 09:48:02.81	154.36	13.53	-47.1	-50.4	15.5	0.00e+00	0	39	0	137363456	66	5064
2026-01-15 09:48:03.80	154.35	13.63	-47.1	-50.3	15.6	0.00e+00	0	39	0	139460608	66	5035
2026-01-15 09:48:04.80	154.33	13.74	-47.1	-50.2	15.7	0.00e+00	0	39	0	141557760	66	4981
2026-01-15 09:48:05.79	154.32	13.84	-47.1	-50.3	15.6	0.00e+00	0	39	0	143654912	66	5006
2026-01-15 09:48:06.78	154.30	13.94	-47.1	-50.3	15.6	0.00e+00	0	39	0	144703488	66	5016
2026-01-15 09:48:07.78	154.29	14.04	-47.1	-50.2	15.7	0.00e+00	0	39	0	146800640	66	4981
2026-01-15 09:48:08.77	154.27	14.14	-47.1	-50.3	15.6	0.00e+00	0	39	0	148897792	66	5041
2026-01-15 09:48:09.76	154.26	14.24	-47.1	-50.3	15.7	0.00e+00	0	39	0	150994944	66	4993
2026-01-15 09:48:10.75	154.24	14.35	-47.1	-50.3	15.7	0.00e+00	0	39	0	153092096	66	4995
2026-01-15 09:48:11.75	154.23	14.45	-47.0	-50.3	15.7	0.00e+00	0	39	0	154140672	66	4991
2026-01-15 09:48:12.74	154.21	14.56	-47.1	-50.3	15.6	0.00e+00	0	39	0	156237824	66	5024
2026-01-15 09:48:13.73	154.20	14.66	-47.0	-50.2	15.7	0.00e+00	0	39	0	158334976	66	4956
2026-01-15 09:48:14.72	154.18	14.76	-47.0	-50.2	15.8	0.00e+00	0	39	0	160432128	66	4934
2026-01-15 09:48:15.72	154.16	14.87	-47.1	-50.3	15.7	0.00e+00	0	39	0	161480704	66	5000
2026-01-15 09:48:16.71	154.15	14.98	-47.1	-50.3	15.7	0.00e+00	0	39	0	163577856	66	5017
2026-01-15 09:48:17.70	154.13	15.08	-46.9	-50.1	15.9	0.00e+00	0	39	0	165675008	65	5187
2026-01-15 09:48:18.70	154.12	15.19	-46.9	-50.0	15.9	0.00e+00	0	39	0	167772160	65	5147
2026-01-15 09:48:19.69	154.10	15.30	-46.8	-49.9	16.0	0.00e+00	0	39	0	169869312	65	5070
2026-01-15 09:48:20.68	154.08	15.41	-46.8	-49.8	16.1	0.00e+00	0	39	0	170917888	65	5005
2026-01-15 09:48:21.67	154.07	15.51	-46.8	-49.7	16.2	0.00e+00	0	39	0	173015040	65	4971
2026-01-15 09:48:22.67	154.05	15.62	-46.7	-49.7	16.2	0.00e+00	0	39	0	175112192	65	4938
2026-01-15 09:48:23.66	154.03	15.73	-46.8	-49.7	16.2	0.00e+00	0	39	0	177209344	65	4964
2026-01-15 09:48:24.65	154.02	15.84	-46.7	-49.7	16.3	0.00e+00	0	39	0	178257920	65	4944
2026-01-15 09:48:25.65	154.00	15.95	-46.8	-49.8	16.1	0.00e+00	0	39	0	180355072	65	5012
2026-01-15 09:48:26.64	153.98	16.06	-46.8	-49.7	16.2	0.00e+00	0	39	0	182452224	65	4983
2026-01-15 09:48:27.63	153.96	16.17	-46.7	-49.6	16.3	0.00e+00	0	39	0	184549376	65	4926
2026-01-15 09:48:28.62	153.95	16.29	-46.8	-49.8	16.2	3.42e-04	0	39	0	186646528	65	4990
2026-01-15 09:48:29.62	153.93	16.40	-46.7	-49.6	16.3	0.00e+00	0	39	0	187695104	65	4915
2026-01-15 09:48:30.61	153.91	16.51	-46.7	-49.7	16.3	0.00e+00	0	39	0	189792256	65	4933
2026-01-15 09:48:31.60	153.89	16.62	-46.6	-49.6	16.4	1.73e-03	0	39	0	191889408	65	4888
2026-01-15 09:48:32.60	153.87	16.74	-46.6	-49.6	16.4	0.00e+00	0	39	0	193986560	65	4900
2026-01-15 09:48:33.59	153.86	16.85	-46.6	-49.6	16.4	0.00e+00	0	39	0	195035136	65	4885
2026-01-15 09:48:34.58	153.84	16.97	-46.5	-49.5	16.5	1.50e-03	0	39	0	197132288	65	4830
2026-01-15 09:48:35.57	153.82	17.08	-46.5	-49.5	16.5	0.00e+00	0	39	0	199229440	65	4828
2026-01-15 09:48:36.56	153.80	17.20	-46.4	-49.4	16.6	0.00e+00	0	39	0	201326592	64	5043
2026-01-15 09:48:37.56	153.78	17.32	-46.4	-49.3	16.7	6.12e-04	0	39	0	202375168	64	4990
2026-01-15 09:48:38.55	153.76	17.43	-46.3	-49.2	16.7	0.00e+00	0	39	0	204472320	64	4961
2026-01-15 09:48:39.54	153.74	17.55	-46.3	-49.2	16.8	0.00e+00	0	39	0	206569472	64	4932
2026-01-15 09:48:40.54	153.72	17.67	-46.3	-49.1	16.9	0.00e+00	0	39	0	208666624	64	4899
2026-01-15 09:48:41.53	153.70	17.79	-46.3	-49.1	16.8	0.00e+00	0	39	0	210763776	64	4915
2026-01-15 09:48:42.52	153.68	17.91	-46.2	-49.1	16.9	0.00e+00	0	39	0	211812352	64	4878
2026-01-15 09:48:43.52	153.66	18.03	-46.3	-49.1	16.9	0.00e+00	0	39	0	213909504	64	4892
2026-01-15 09:48:44.51	153.64	18.15	-46.4	-49.2	16.7	0.00e+00	0	39	0	216006656	64	4963
2026-01-15 09:48:45.50	153.62	18.27	-46.4	-49.2	16.8	0.00e+00	0	40	0	218103808	64	4976
2026-01-15 09:48:46.49	153.60	18.39	-46.3	-49.0	16.9	0.00e+00	0	39	0	219152384	64	4869
2026-01-15 09:48:47.49	153.58	18.51	-46.2	-48.9	17.0	0.00e+00	0	39	0	221249536	64	4787
2026-01-15 09:48:48.48	153.56	18.63	-46.3	-49.1	16.6	0.00e+00	0	40	0	223346688	64	4875
2026-01-15 09:48:49.47	153.54	18.76	-46.2	-49.0	17.0	0.00e+00	0	39	0	225443840	64	4823
2026-01-15 09:48:50.47	153.52	18.88	-46.2	-48.9	17.0	0.00e+00	0	39	0	227540992	64	4798
2026-01-15 09:48:51.46	153.50	19.01	-46.1	-48.8	17.1	0.00e+00	0	39	0	228589568	64	4758
2026-01-15 09:48:52.45	153.47	19.13	-46.0	-48.7	17.3	0.00e+00	0	39	0	230686720	64	4672
2026-01-15 09:48:53.45	153.45	19.26	-46.1	-48.8	17.2	0.00e+00	0	39	0	232783872	64	4716
2026-01-15 09:48:54.44	153.43	19.39	-46.0	-48.7	17.3	2.36e-05	0	39	0	234881024	64	4674
2026-01-15 09:48:55.43	153.41	19.51	-46.0	-48.7	17.3	0.00e+00	0	39	0	235929600	63	4965
2026-01-15 09:48:56.42	153.38	19.64	-46.0	-48.7	17.4	0.00e+00	0	39	0	238026752	63	4945
2026-01-15 09:48:57.42	153.36	19.77	-46.0	-48.6	17.4	0.00e+00	0	40	0	240123904	63	4912
2026-01-15 09:48:58.41	153.34	19.90	-46.0	-48.6	17.4	0.00e+00	0	40	0	242221056	63	4911
2026-01-15 09:48:59.40	153.32	20.03	-46.0	-48.7	17.4	0.00e+00	0	39	0	244318208	63	4953
2026-01-15 09:49:00.40	153.29	20.16	-45.9	-48.5	17.5	0.00e+00	0	39	0	245366784	63	4868
2026-01-15 09:49:01.39	153.27	20.29	-46.0	-48.7	17.4	0.00e+00	0	39	0	247463936	63	4937
2026-01-15 09:49:02.38	153.24	20.42	-45.8	-48.5	17.6	0.00e+00	0	39	0	249561088	63	4822
2026-01-15 09:49:03.37	153.22	20.55	-45.9	-48.5	17.5	0.00e+00	0	40	0	251658240	63	4869
2026-01-15 09:49:04.37	153.20	20.69	-45.9	-48.5	17.5	0.00e+00	0	40	0	252706816	63	4853
2026-01-15 09:49:05.36	153.17	20.82	-45.8	-48.4	17.6	0.00e+00	0	40	0	254803968	63	4779
2026-01-15 09:49:06.35	153.15	20.96	-45.7	-48.3	17.8	0.00e+00	0	40	0	256901120	63	4726
2026-01-15 09:49:07.34	153.12	21.09	-45.8	-48.4	17.6	0.00e+00	0	40	0	258998272	63	4797
2026-01-15 09:49:08.34	153.10	21.23	-45.9	-48.5	17.6	0.00e+00	0	40	0	261095424	63	4818
2026-01-15 09:49:09.33	153.07	21.37	-45.7	-48.2	17.8	0.00e+00	0	40	0	262144000	63	4698
2026-01-15 09:49:10.32	153.04	21.50	-45.8	-48.3	17.8	0.00e+00	0	39	0	264241152	63	4729
2026-01-15 09:49:11.32	153.02	21.64	-45.8	-48.4	17.7	0.00e+00	0	39	0	266338304	63	4766
2026-01-15 09:49:12.31	152.99	21.78	-45.8	-48.4	17.7	0.00e+00	0	40	0	268435456	63	4761
2026-01-15 09:49:13.30	152.96	21.92	-45.9	-48.5	17.6	0.00e+00	0	39	0	269484032	63	4826
2026-01-15 09:49:14.29	152.94	22.06	-46.0	-48.6	17.5	0.00e+00	0	40	0	271581184	63	4898
2026-01-15 09:49:15.29	152.91	22.20	-46.0	-48.6	17.5	0.00e+00	0	39	0	273678336	63	4911
2026-01-15 09:49:16.28	152.88	22.35	-45.9	-48.5	17.5	0.00e+00	0	40	0	275775488	63	4860
2026-01-15 09:49:17.27	152.86	22.49	-45.9	-48.5	17.6	0.00e+00	0	39	0	277872640	63	4858
2026-01-15 09:49:18.27	152.83	22.63	-45.9	-48.5	17.6	0.00e+00	0	40	0	278921216	63	4860
2026-01-15 09:49:19.26	152.80	22.78	-46.0	-48.6	17.5	0.00e+00	0	40	0	281018368	63	4881
2026-01-15 09:49:20.25	152.77	22.92	-46.0	-48.6	17.5	0.00e+00	0	40	0	283115520	63	4909
2026-01-15 09:49:21.25	152.74	23.07	-46.0	-48.6	17.5	0.00e+00	0	40	0	285212672	63	4905
2026-01-15 09:49:22.24	152.71	23.22	-46.0	-48.7	17.4	0.00e+00	0	40	0	286261248	63	4935
2026-01-15 09:49:23.23	152.68	23.37	-46.1	-48.7	17.4	0.00e+00	0	39	0	288358400	63	4965
2026-01-15 09:49:24.23	152.65	23.52	-46.0	-48.7	17.4	0.00e+00	0	40	0	290455552	63	4940
2026-01-15 09:49:25.22	152.62	23.66	-46.1	-48.7	17.4	0.00e+00	0	39	0	292552704	63	4972
2026-01-15 09:49:26.21	152.59	23.81	-46.2	-48.9	17.2	0.00e+00	0	39	0	293601280	63	5059
2026-01-15 09:49:27.20	152.56	23.97	-46.2	-48.9	17.2	0.00e+00	0	39	0	295698432	63	5081
2026-01-15 09:49:28.20	152.53	24.12	-46.2	-48.9	17.2	0.00e+00	0	39	0	297795584	63	5081
2026-01-15 09:49:29.19	152.50	24.27	-46.3	-49.1	17.1	0.00e+00	0	40	0	299892736	63	5166
2026-01-15 09:49:30.18	152.47	24.43	-46.4	-49.1	17.0	0.00e+00	0	39	0	301989888	63	5215
2026-01-15 09:49:31.18	152.43	24.58	-46.3	-49.1	17.1	0.00e+00	0	39	0	303038464	63	5169
2026-01-15 09:49:32.17	152.40	24.74	-46.3	-49.1	17.1	0.00e+00	0	40	0	305135616	63	5162
2026-01-15 09:49:33.16	152.37	24.89	-46.3	-49.0	17.1	0.00e+00	0	40	0	307232768	63	5127
2026-01-15 09:49:34.15	152.34	25.05	-46.3	-49.1	17.1	0.00e+00	0	40	0	309329920	63	5179
2026-01-15 09:49:35.15	152.30	25.21	-46.3	-49.0	17.1	0.00e+00	0	40	0	310378496	63	5150
2026-01-15 09:49:36.14	152.27	25.37	-46.3	-49.1	17.0	0.00e+00	0	40	0	312475648	63	5188
2026-01-15 09:49:37.13	152.23	25.53	-46.4	-49.2	17.0	0.00e+00	0	39	0	314572800	63	5231
2026-01-15 09:49:38.13	152.20	25.69	-46.5	-49.3	16.9	0.00e+00	0	40	0	316669952	63	5302
2026-01-15 09:49:39.12	152.16	25.85	-46.5	-49.3	16.8	0.00e+00	0	40	0	318767104	63	5330
2026-01-15 09:49:40.11	152.13	26.02	-46.6	-49.5	16.7	0.00e+00	0	40	0	319815680	63	5444
2026-01-15 09:49:41.11	152.09	26.18	-46.7	-49.5	16.6	0.00e+00	0	40	0	321912832	63	5455
2026-01-15 09:49:42.10	152.06	26.35	-46.7	-49.7	16.4	0.00e+00	0	40	0	324009984	64	5229
2026-01-15 09:49:43.09	152.02	26.51	-46.8	-49.7	16.4	0.00e+00	0	40	0	326107136	64	5268
2026-01-15 09:49:44.08	151.98	26.68	-46.7	-49.7	16.5	0.00e+00	0	40	0	327155712	64	5228
2026-01-15 09:49:45.08	151.95	26.85	-46.7	-49.6	16.5	0.00e+00	0	39	0	329252864	64	5183
2026-01-15 09:49:46.07	151.91	27.02	-46.7	-49.7	16.4	0.00e+00	0	40	0	331350016	64	5238
2026-01-15 09:49:47.06	151.87	27.19	-46.7	-49.7	16.4	0.00e+00	0	40	0	333447168	64	5269
2026-01-15 09:49:48.06	151.83	27.36	-46.7	-49.7	16.4	0.00e+00	0	40	0	335544320	64	5269
2026-01-15 09:49:49.05	151.79	27.54	-46.8	-49.8	16.3	0.00e+00	0	40	0	336592896	64	5328
2026-01-15 09:49:50.04	151.75	27.71	-46.8	-49.9	16.2	0.00e+00	0	40	0	338690048	64	5398
2026-01-15 09:49:51.03	151.71	27.88	-46.8	-50.0	16.2	0.00e+00	0	39	0	340787200	64	5414
2026-01-15 09:49:52.03	151.67	28.06	-46.9	-50.1	16.1	0.00e+00	0	40	0	342884352	64	5493
2026-01-15 09:49:53.02	151.63	28.24	-47.0	-50.2	15.9	0.00e+00	0	40	0	343932928	64	5548
2026-01-15 09:49:54.01	151.59	28.42	-47.2	-50.4	15.7	0.00e+00	0	40	0	346030080	65	5392
2026-01-15 09:49:55.00	151.55	28.59	-47.5	-50.8	15.3	0.00e+00	0	40	0	348127232	65	5654
2026-01-15 09:49:56.00	151.50	28.78	-47.5	-50.9	15.3	0.00e+00	0	40	0	350224384	65	5689
2026-01-15 09:49:56.99	151.46	28.96	-47.7	-51.1	15.1	0.00e+00	0	40	0	352321536	66	5502
2026-01-15 09:49:57.98	151.42	29.14	-47.8	-51.2	15.0	7.00e-07	0	40	0	353370112	66	5561
2026-01-15 09:49:58.98	151.37	29.33	-47.9	-51.3	14.9	0.00e+00	0	40	0	355467264	66	5630
2026-01-15 09:49:59.97	151.33	29.51	-48.0	-51.5	14.7	7.00e-07	0	40	0	357564416	66	5742
2026-01-15 09:50:00.96	151.28	29.70	-48.0	-51.4	14.7	0.00e+00	0	40	0	359661568	66	5718
2026-01-15 09:50:01.96	151.24	29.88	-48.2	-51.7	14.5	2.20e-06	0	40	0	360710144	67	5555
2026-01-15 09:50:02.95	151.19	30.07	-48.2	-51.8	14.4	0.00e+00	0	40	0	362807296	67	5643
2026-01-15 09:50:03.94	151.14	30.26	-48.3	-51.8	14.4	7.00e-07	0	40	0	364904448	67	5650
2026-01-15 09:50:04.93	151.10	30.45	-48.4	-52.0	14.2	1.50e-06	0	40	0	367001600	67	5779
2026-01-15 09:50:05.93	151.05	30.65	-48.4	-52.1	14.1	2.20e-06	0	40	0	369098752	67	5839
2026-01-15 09:50:06.92	151.00	30.84	-48.5	-52.3	13.9	7.00e-07	0	40	0	370147328	67	5979
2026-01-15 09:50:07.91	150.95	31.04	-48.9	-52.8	13.7	5.30e-06	0	40	0	372244480	68	5925
2026-01-15 09:50:08.90	150.90	31.23	-49.0	-53.0	13.4	5.30e-06	0	40	0	374341632	68	6069
2026-01-15 09:50:09.90	150.85	31.43	-49.0	-53.0	13.4	1.75e-05	0	40	0	376438784	68	6078
2026-01-15 09:50:10.89	150.80	31.63	-49.1	-53.1	13.3	1.44e-05	0	40	0	377487360	68	6181
2026-01-15 09:50:11.88	150.75	31.83	-49.1	-53.2	13.2	2.67e-05	0	40	0	379584512	68	6220
2026-01-15 09:50:12.88	150.69	32.03	-49.2	-53.4	13.0	2.28e-05	0	40	0	381681664	69	6005
2026-01-15 09:50:13.87	150.64	32.23	-49.2	-53.4	13.0	2.59e-05	0	40	0	383778816	69	6052
2026-01-15 09:50:14.86	150.59	32.44	-49.2	-53.3	13.1	4.88e-05	0	40	0	384827392	69	5951
2026-01-15 09:50:15.85	150.53	32.64	-49.3	-53.5	12.9	3.20e-05	0	40	0	386924544	69	6089
2026-01-15 09:50:16.85	150.48	32.85	-49.4	-53.7	12.7	4.04e-05	0	40	0	389021696	69	6212
2026-01-15 09:50:17.84	150.42	33.06	-49.3	-53.5	12.9	4.73e-05	0	40	0	391118848	69	6078
2026-01-15 09:50:18.83	150.36	33.27	-49.2	-53.3	13.1	2.89e-05	0	40	0	393216000	69	5989
2026-01-15 09:50:19.83	150.30	33.48	-49.2	-53.3	13.1	3.43e-05	0	40	0	394264576	69	5946
2026-01-15 09:50:20.82	150.25	33.69	-49.1	-53.2	13.2	2.82e-05	0	40	0	396361728	69	5866
2026-01-15 09:50:21.81	150.19	33.91	-49.0	-53.1	13.3	1.22e-05	0	40	0	398458880	69	5808
2026-01-15 09:50:22.81	150.13	34.12	-48.9	-52.9	13.5	1.37e-05	0	40	0	400556032	69	5694
2026-01-15 09:50:23.80	150.06	34.34	-48.9	-52.8	13.6	1.14e-05	0	40	0	401604608	69	5613
2026-01-15 09:50:24.79	150.00	34.56	-48.8	-52.7	13.7	7.60e-06	0	39	0	403701760	69	5558
2026-01-15 09:50:25.78	149.94	34.78	-48.8	-52.6	13.8	6.80e-06	0	40	0	405798912	69	5509
2026-01-15 09:50:26.78	149.88	35.00	-48.7	-52.4	14.0	3.80e-06	0	40	0	407896064	69	5384
2026-01-15 09:50:27.77	149.81	35.22	-48.5	-52.2	14.2	2.20e-06	0	40	0	409993216	69	5247
2026-01-15 09:50:28.76	149.75	35.45	-48.3	-51.8	14.6	7.00e-07	0	40	0	411041792	68	5331
2026-01-15 09:50:29.76	149.68	35.68	-48.2	-51.6	14.8	7.00e-07	0	40	0	413138944	68	5193
2026-01-15 09:50:30.75	149.61	35.90	-48.0	-51.3	15.1	0.00e+00	0	40	0	415236096	68	5017
2026-01-15 09:50:31.74	149.54	36.13	-47.6	-50.8	15.4	0.00e+00	0	40	0	417333248	67	5012
2026-01-15 09:50:32.74	149.47	36.37	-47.5	-50.5	15.7	0.00e+00	0	40	0	418381824	66	5146
2026-01-15 09:50:33.73	149.40	36.60	-47.5	-50.6	15.7	0.00e+00	0	40	0	420478976	66	5169
2026-01-15 09:50:34.72	149.33	36.83	-47.5	-50.5	15.7	0.00e+00	0	40	0	422576128	66	5156
2026-01-15 09:50:35.71	149.26	37.07	-47.5	-50.5	15.7	0.00e+00	0	40	0	424673280	66	5147
2026-01-15 09:50:36.71	149.18	37.31	-47.4	-50.4	15.8	0.00e+00	0	40	0	426770432	66	5096
2026-01-15 09:50:37.70	149.11	37.54	-47.4	-50.5	15.8	0.00e+00	0	40	0	427819008	66	5105
2026-01-15 09:50:38.69	149.03	37.78	-47.3	-50.3	15.9	0.00e+00	0	40	0	429916160	66	5024
2026-01-15 09:50:39.69	148.96	38.03	-47.3	-50.3	15.9	0.00e+00	0	40	0	432013312	66	5020
2026-01-15 09:50:40.68	148.88	38.27	-47.3	-50.3	15.9	0.00e+00	0	40	0	434110464	66	5014
2026-01-15 09:50:41.67	148.80	38.52	-47.5	-50.6	15.7	0.00e+00	0	40	0	435159040	66	5166
2026-01-15 09:50:42.66	148.72	38.76	-47.7	-50.8	15.4	0.00e+00	0	40	0	437256192	66	5336
2026-01-15 09:50:43.66	148.63	39.01	-47.9	-51.1	15.2	0.00e+00	0	40	0	439353344	66	5495
2026-01-15 09:50:44.65	148.55	39.27	-48.1	-51.5	14.8	0.00e+00	0	40	0	441450496	66	5729
2026-01-15 09:50:45.64	148.47	39.52	-48.1	-51.4	14.8	0.00e+00	0	40	0	443547648	67	5385
2026-01-15 09:50:46.63	148.38	39.77	-48.3	-51.8	14.5	0.00e+00	0	40	0	444596224	67	5596
2026-01-15 09:50:47.63	148.29	40.03	-48.2	-51.7	14.6	0.00e+00	0	40	0	446693376	67	5571
2026-01-15 09:50:48.62	148.20	40.29	-48.3	-51.9	14.4	0.00e+00	0	40	0	448790528	67	5664
2026-01-15 09:50:49.61	148.11	40.55	-48.4	-52.0	14.3	1.50e-06	0	40	0	450887680	67	5724
2026-01-15 09:50:50.60	148.02	40.81	-48.3	-51.8	14.5	1.50e-06	0	40	0	451936256	67	5646
2026-01-15 09:50:51.60	147.93	41.07	-48.3	-51.8	14.5	0.00e+00	0	40	0	454033408	67	5648
2026-01-15 09:50:52.59	147.83	41.34	-48.4	-52.0	14.3	7.00e-07	0	40	0	456130560	67	5774
2026-01-15 09:50:53.58	147.74	41.60	-48.3	-51.9	14.4	3.80e-06	0	40	0	458227712	67	5695
2026-01-15 09:50:54.57	147.64	41.87	-48.4	-52.1	14.2	2.20e-06	0	40	0	460324864	67	5813
2026-01-15 09:50:55.57	147.54	42.15	-48.4	-52.1	14.2	2.20e-06	0	40	0	461373440	67	5807
2026-01-15 09:50:56.56	147.43	42.42	-48.4	-52.1	14.2	1.50e-06	0	40	0	463470592	67	5792
2026-01-15 09:50:57.55	147.33	42.69	-48.4	-52.1	14.2	0.00e+00	0	40	0	465567744	67	5800
2026-01-15 09:50:58.55	147.22	42.97	-48.4	-52.0	14.3	0.00e+00	0	40	0	467664896	67	5752
2026-01-15 09:50:59.54	147.12	43.25	-48.3	-51.8	14.4	1.50e-06	0	40	0	468713472	67	5656
2026-01-15 09:51:00.53	147.01	43.53	-48.4	-51.9	14.3	7.00e-07	0	40	0	470810624	67	5703
2026-01-15 09:51:01.53	146.90	43.81	-48.6	-52.3	14.0	2.20e-06	0	40	0	472907776	67	5970
2026-01-15 09:51:02.52	146.78	44.10	-48.9	-52.6	13.9	3.00e-06	0	40	0	475004928	68	5834
2026-01-15 09:51:03.51	146.67	44.38	-48.9	-52.6	13.9	1.50e-06	0	40	0	476053504	68	5815
2026-01-15 09:51:04.50	146.55	44.67	-48.8	-52.5	14.0	7.60e-06	0	40	0	478150656	68	5754
2026-01-15 09:51:05.50	146.43	44.96	-48.7	-52.4	14.1	3.80e-06	0	40	0	480247808	68	5665
2026-01-15 09:51:06.49	146.31	45.26	-48.7	-52.4	14.1	7.00e-07	0	40	0	482344960	68	5718
2026-01-15 09:51:07.48	146.18	45.55	-48.6	-52.2	14.2	3.00e-06	0	40	0	484442112	68	5590
2026-01-15 09:51:08.48	146.05	45.85	-48.4	-52.0	14.5	1.50e-06	0	40	0	485490688	68	5442
2026-01-15 09:51:09.47	145.93	46.15	-48.3	-51.7	14.7	1.50e-06	0	40	0	487587840	68	5254
2026-01-15 09:51:10.46	145.79	46.45	-48.2	-51.6	14.8	7.00e-07	0	40	0	489684992	68	5182
2026-01-15 09:51:11.45	145.66	46.75	-48.4	-51.9	14.5	0.00e+00	0	40	0	491782144	68	5387
2026-01-15 09:51:12.45	145.52	47.05	-48.8	-52.6	13.9	2.20e-06	0	40	0	492830720	68	5801
2026-01-15 09:51:13.44	145.38	47.36	-49.2	-53.1	13.3	8.30e-06	0	40	0	494927872	68	6184
2026-01-15 09:51:14.43	145.24	47.67	-49.3	-53.4	13.0	2.74e-05	0	40	0	497025024	69	6037
2026-01-15 09:51:15.43	145.09	47.98	-49.4	-53.6	12.8	4.73e-05	0	40	0	499122176	69	6173
2026-01-15 09:51:16.42	144.94	48.29	-49.4	-53.6	12.8	5.03e-05	0	40	0	501219328	69	6202
2026-01-15 09:51:17.41	144.79	48.61	-49.4	-53.6	12.9	7.70e-05	0	40	0	502267904	69	6139
2026-01-15 09:51:18.41	144.63	48.93	-49.1	-53.1	13.4	3.50e-05	0	40	0	504365056	69	5815
2026-01-15 09:51:19.40	144.48	49.24	-48.9	-52.6	13.8	6.80e-06	0	40	0	506462208	69	5493
2026-01-15 09:51:20.39	144.32	49.56	-48.7	-52.4	14.1	2.20e-06	0	40	0	508559360	69	5352
2026-01-15 09:51:21.39	144.15	49.89	-48.5	-52.1	14.4	7.00e-07	0	40	0	509607936	69	5167
2026-01-15 09:51:22.38	143.98	50.21	-48.1	-51.4	15.1	0.00e+00	0	40	0	511705088	68	5067
2026-01-15 09:51:23.37	143.81	50.54	-47.4	-50.5	15.7	0.00e+00	0	40	0	513802240	66	5145
2026-01-15 09:51:24.36	143.63	50.87	-47.2	-50.1	16.1	0.00e+00	0	40	0	515899392	66	4909
2026-01-15 09:51:25.36	143.45	51.20	-46.9	-49.7	16.6	0.00e+00	0	40	0	517996544	65	4949
2026-01-15 09:51:26.35	143.27	51.53	-46.3	-49.0	17.2	0.00e+00	0	40	0	519045120	64	4836
2026-01-15 09:51:27.34	143.08	51.87	-46.2	-48.8	17.4	0.00e+00	0	40	0	521142272	64	4738
2026-01-15 09:51:28.34	142.88	52.21	-46.2	-48.9	17.3	0.00e+00	0	40	0	523239424	64	4768
2026-01-15 09:51:29.33	142.68	52.54	-46.0	-48.5	17.8	0.00e+00	0	40	0	525336576	63	4828
2026-01-15 09:51:30.32	142.48	52.88	-46.0	-48.5	17.7	0.00e+00	0	40	0	526385152	63	4859
2026-01-15 09:51:31.31	142.28	53.23	-46.1	-48.6	17.6	0.00e+00	0	40	0	528482304	63	4919
2026-01-15 09:51:32.31	142.06	53.57	-46.3	-48.9	17.3	0.00e+00	0	40	0	530579456	63	5082
2026-01-15 09:51:33.30	141.84	53.92	-46.3	-48.9	17.4	0.00e+00	0	40	0	532676608	63	5089
2026-01-15 09:51:34.29	141.62	54.27	-46.1	-48.8	17.5	0.00e+00	0	40	0	534773760	63	4987
2026-01-15 09:51:35.29	141.39	54.62	-46.1	-48.7	17.5	0.00e+00	0	40	0	535822336	63	4980
2026-01-15 09:51:36.28	141.16	54.97	-46.5	-49.2	17.0	0.00e+00	0	40	0	537919488	63	5268
2026-01-15 09:51:37.27	140.92	55.33	-46.8	-49.6	16.6	0.00e+00	0	40	0	540016640	64	5189
2026-01-15 09:51:38.27	140.67	55.68	-46.9	-49.7	16.5	0.00e+00	0	40	0	542113792	64	5249
2026-01-15 09:51:39.26	140.42	56.04	-46.9	-49.7	16.5	0.00e+00	0	40	0	543162368	64	5274
2026-01-15 09:51:40.25	140.16	56.40	-47.1	-50.1	16.1	0.00e+00	0	40	0	545259520	64	5490
2026-01-15 09:51:41.24	139.89	56.76	-47.4	-50.4	15.8	0.00e+00	0	40	0	547356672	65	5393
2026-01-15 09:51:42.24	139.62	57.13	-47.5	-50.6	15.7	0.00e+00	0	40	0	549453824	65	5528
2026-01-15 09:51:43.23	139.34	57.49	-47.7	-50.9	15.4	0.00e+00	0	40	0	551550976	66	5369
2026-01-15 09:51:44.22	139.05	57.86	-48.1	-51.4	14.8	0.00e+00	0	40	0	552599552	66	5716
2026-01-15 09:51:45.22	138.75	58.23	-48.2	-51.8	14.5	7.00e-07	0	40	0	554696704	67	5606
2026-01-15 09:51:46.21	138.44	58.60	-47.9	-51.4	14.9	0.00e+00	0	40	0	556793856	67	5342
2026-01-15 09:51:47.20	138.13	58.97	-47.7	-51.1	15.3	0.00e+00	0	40	0	558891008	67	5172
2026-01-15 09:51:48.19	137.81	59.34	-47.6	-50.8	15.5	0.00e+00	0	40	0	559939584	66	5337
2026-01-15 09:51:49.19	137.47	59.72	-47.4	-50.6	15.7	0.00e+00	0	40	0	562036736	66	5181
2026-01-15 09:51:50.18	137.13	60.09	-47.4	-50.4	15.9	0.00e+00	0	40	0	564133888	66	5089
2026-01-15 09:51:51.17	136.78	60.47	-47.3	-50.2	16.0	0.00e+00	0	40	0	566231040	66	4979
2026-01-15 09:51:52.16	136.42	60.84	-47.0	-49.9	16.4	0.00e+00	0	40	0	567279616	66	4803
2026-01-15 09:51:53.16	136.04	61.22	-46.5	-49.2	17.1	0.00e+00	0	40	0	569376768	65	4672
2026-01-15 09:51:54.15	135.65	61.60	-46.2	-48.8	17.4	0.00e+00	0	40	0	571473920	64	4718
2026-01-15 09:51:55.14	135.26	61.98	-46.2	-48.8	17.5	0.00e+00	0	40	0	573571072	64	4706
2026-01-15 09:51:56.13	134.85	62.36	-46.0	-48.5	17.7	0.00e+00	0	40	0	575668224	63	4863
2026-01-15 09:51:57.13	134.42	62.75	-45.7	-48.1	18.1	0.00e+00	0	40	0	576716800	63	4648
2026-01-15 09:51:58.12	133.98	63.13	-45.5	-47.9	18.3	0.00e+00	0	40	0	578813952	63	4509
2026-01-15 09:51:59.11	133.53	63.52	-45.6	-48.0	18.2	0.00e+00	0	40	0	580911104	63	4596
2026-01-15 09:52:00.11	133.06	63.90	-45.9	-48.3	17.9	0.00e+00	0	40	0	583008256	63	4749
2026-01-15 09:52:01.10	132.58	64.29	-46.1	-48.6	17.7	0.00e+00	0	40	0	584056832	63	4915
2026-01-15 09:52:02.09	132.08	64.67	-46.3	-48.9	17.4	0.00e+00	0	40	0	586153984	63	5056
2026-01-15 09:52:03.08	131.56	65.06	-46.6	-49.3	17.1	0.00e+00	0	40	0	588251136	63	5288
2026-01-15 09:52:04.08	131.02	65.44	-46.9	-49.7	16.6	0.00e+00	0	40	0	590348288	64	5219
2026-01-15 09:52:05.07	130.47	65.83	-47.5	-50.6	15.8	0.00e+00	0	40	0	592445440	65	5476
2026-01-15 09:52:06.06	129.90	66.21	-48.4	-51.9	14.4	0.00e+00	0	40	0	593494016	67	5720
2026-01-15 09:52:07.06	129.30	66.60	-49.0	-52.8	13.7	7.00e-07	0	40	0	595591168	68	5937
2026-01-15 09:52:08.05	128.68	66.98	-49.2	-53.2	13.3	1.83e-05	0	40	0	597688320	69	5866
2026-01-15 09:52:09.04	128.04	67.37	-49.1	-52.9	13.5	1.83e-05	0	40	0	599785472	69	5722
2026-01-15 09:52:10.03	127.38	67.75	-48.6	-52.2	14.4	3.80e-06	0	40	0	600834048	69	5230
2026-01-15 09:52:11.03	126.68	68.13	-47.8	-50.9	15.3	0.00e+00	0	40	0	602931200	67	5088
2026-01-15 09:52:12.02	125.97	68.51	-47.7	-50.9	15.4	0.00e+00	0	40	0	605028352	67	5080
2026-01-15 09:52:13.01	125.22	68.89	-47.6	-50.7	15.5	0.00e+00	0	40	0	607125504	67	4972
2026-01-15 09:52:14.01	124.44	69.26	-47.2	-50.2	16.1	0.00e+00	0	40	0	609222656	66	4941
2026-01-15 09:52:15.00	123.64	69.64	-47.0	-49.8	16.5	0.00e+00	0	40	0	610271232	65	5026
2026-01-15 09:52:15.99	122.80	70.01	-47.1	-50.0	16.3	0.00e+00	0	40	0	612368384	65	5120
2026-01-15 09:52:16.99	121.93	70.38	-46.7	-49.5	16.8	0.00e+00	0	40	0	614465536	65	4818
2026-01-15 09:52:17.98	121.02	70.74	-46.2	-48.8	17.4	0.00e+00	0	40	0	616562688	64	4715
2026-01-15 09:52:18.97	120.08	71.10	-46.3	-49.0	17.3	0.00e+00	0	40	0	617611264	64	4830
2026-01-15 09:52:19.96	119.10	71.46	-46.4	-49.0	17.2	0.00e+00	0	40	0	619708416	64	4862
2026-01-15 09:52:20.96	118.07	71.82	-46.3	-48.9	17.3	0.00e+00	0	40	0	621805568	64	4774
2026-01-15 09:52:21.95	117.00	72.17	-46.5	-49.2	17.0	0.00e+00	0	40	0	623902720	64	4963
2026-01-15 09:52:22.94	115.89	72.51	-47.1	-50.0	16.4	0.00e+00	0	40	0	625999872	64	5419
2026-01-15 09:52:23.94	114.72	72.85	-47.1	-50.0	16.3	0.00e+00	0	40	0	627048448	65	5118
2026-01-15 09:52:24.93	113.52	73.18	-46.9	-49.7	16.6	0.00e+00	0	40	0	629145600	65	4955
2026-01-15 09:52:25.92	112.26	73.51	-46.9	-49.6	16.7	0.00e+00	0	40	0	631242752	65	4915
2026-01-15 09:52:26.91	110.96	73.83	-47.1	-50.0	16.3	0.00e+00	0	40	0	633339904	65	5105
2026-01-15 09:52:27.91	109.58	74.14	-47.4	-50.4	15.9	0.00e+00	0	40	0	634388480	65	5391
2026-01-15 09:52:28.90	108.16	74.44	-48.3	-51.8	14.5	0.00e+00	0	40	0	636485632	67	5647
2026-01-15 09:52:29.89	106.68	74.74	-48.9	-52.7	13.8	6.80e-06	0	40	0	638582784	68	5869
2026-01-15 09:52:30.89	105.13	75.02	-48.8	-52.5	14.0	1.50e-06	0	40	0	640679936	68	5778
2026-01-15 09:52:31.88	103.53	75.30	-48.8	-52.5	14.0	0.00e+00	0	40	0	642777088	68	5742
2026-01-15 09:52:32.87	101.87	75.56	-48.7	-52.3	14.2	3.80e-06	0	40	0	643825664	68	5656
2026-01-15 09:52:33.86	100.15	75.81	-48.5	-52.2	14.4	7.00e-07	0	40	0	645922816	68	5544
2026-01-15 09:52:34.86	98.35	76.05	-48.6	-52.2	14.3	7.00e-07	0	40	0	648019968	68	5566
2026-01-15 09:52:35.85	96.50	76.28	-49.0	-53.0	13.5	3.00e-06	0	40	0	650117120	68	6091
2026-01-15 09:52:36.84	94.59	76.49	-49.2	-53.3	13.1	1.14e-05	0	40	0	651165696	69	5987
2026-01-15 09:52:37.84	92.60	76.69	-49.3	-53.4	13.0	3.12e-05	0	40	0	653262848	69	6054
2026-01-15 09:52:38.83	90.58	76.87	-48.9	-52.9	13.6	3.66e-05	0	40	0	655360000	69	5714
2026-01-15 09:52:39.82	88.49	77.03	-48.5	-52.3	14.3	3.00e-06	0	40	0	657457152	68	5613
2026-01-15 09:52:40.81	86.35	77.18	-49.1	-53.3	13.3	6.10e-06	0	40	0	658505728	68	6282
2026-01-15 09:52:41.81	84.15	77.31	-49.8	-54.6	12.0	1.81e-04	0	40	0	660602880	70	6523
2026-01-15 09:52:42.80	81.92	77.42	-49.7	-54.3	12.1	4.63e-04	0	40	0	662700032	70	6309
2026-01-15 09:52:43.79	79.65	77.51	-49.3	-53.4	13.1	1.79e-04	0	40	0	664797184	70	5665
2026-01-15 09:52:44.79	77.33	77.59	-49.2	-53.1	13.3	1.60e-05	0	40	0	666894336	70	5516
2026-01-15 09:52:45.78	75.01	77.64	-48.9	-52.7	13.8	1.14e-05	0	40	0	667942912	69	5568
2026-01-15 09:52:46.77	72.68	77.68	-48.8	-52.6	13.8	6.10e-06	0	40	0	670040064	69	5487
2026-01-15 09:52:47.77	70.31	77.69	-48.7	-52.3	14.2	7.00e-07	0	40	0	672137216	69	5322
2026-01-15 09:52:48.76	67.96	77.68	-48.4	-51.9	14.5	1.50e-06	0	40	0	674234368	68	5390
2026-01-15 09:52:49.75	65.62	77.65	-48.7	-52.3	14.2	0.00e+00	0	40	0	675282944	68	5643
2026-01-15 09:52:50.74	63.29	77.61	-48.9	-52.7	13.9	2.20e-06	0	40	0	677380096	68	5871
2026-01-15 09:52:51.74	60.96	77.54	-48.9	-52.6	13.9	2.20e-06	0	40	0	679477248	68	5837
2026-01-15 09:52:52.73	58.69	77.45	-48.8	-52.4	14.0	1.50e-06	0	40	0	681574400	68	5712
2026-01-15 09:52:53.72	56.45	77.35	-48.8	-52.6	14.0	3.00e-06	0	40	0	683671552	68	5801
2026-01-15 09:52:54.72	54.23	77.22	-49.2	-53.2	13.3	8.30e-06	0	40	0	684720128	69	5868
2026-01-15 09:52:55.71	52.08	77.08	-49.2	-53.3	13.1	3.81e-05	0	40	0	686817280	69	5985
2026-01-15 09:52:56.70	49.98	76.92	-49.4	-53.5	13.0	2.67e-05	0	40	0	688914432	69	6093
2026-01-15 09:52:57.70	47.91	76.74	-49.6	-53.7	12.8	4.50e-05	0	40	0	691011584	69	6261
2026-01-15 09:52:58.69	45.93	76.55	-49.4	-53.5	13.0	4.65e-05	0	40	0	692060160	69	6116
2026-01-15 09:52:59.68	44.00	76.35	-49.3	-53.4	13.0	3.58e-05	0	40	0	694157312	69	6057
2026-01-15 09:53:00.68	42.12	76.12	-49.3	-53.5	13.0	2.67e-05	0	40	0	696254464	69	6077
2026-01-15 09:53:01.67	40.31	75.89	-49.8	-54.2	12.4	4.57e-05	0	40	0	698351616	70	6250
2026-01-15 09:53:02.66	38.57	75.64	-50.2	-55.1	11.4	5.55e-04	0	40	0	700448768	71	6495
2026-01-15 09:53:03.65	36.90	75.38	-50.6	-56.1	10.5	3.48e-03	0	40	0	701497344	71	7295
2026-01-15 09:53:04.65	35.27	75.11	-49.8	-54.5	12.0	1.59e-03	0	40	0	703594496	71	6074
2026-01-15 09:53:05.64	33.71	74.83	-49.1	-53.1	13.4	1.05e-04	0	40	0	705691648	70	5506
2026-01-15 09:53:06.63	32.22	74.54	-49.2	-53.2	13.5	1.75e-05	0	40	0	707788800	70	5564
2026-01-15 09:53:07.62	30.78	74.24	-49.5	-53.7	12.9	4.42e-05	0	40	0	708837376	70	5865
2026-01-15 09:53:08.62	29.39	73.93	-49.6	-53.7	12.8	6.48e-05	0	40	0	710934528	70	5914
2026-01-15 09:53:09.61	28.07	73.61	-49.2	-53.2	13.4	1.98e-05	0	40	0	713031680	70	5556
2026-01-15 09:53:10.60	26.80	73.29	-48.6	-52.2	14.4	3.80e-06	0	40	0	715128832	69	5219
2026-01-15 09:53:11.60	25.56	72.96	-48.2	-51.6	14.9	0.00e+00	0	40	0	717225984	68	5166
2026-01-15 09:53:12.59	24.39	72.62	-47.8	-50.9	15.4	0.00e+00	0	40	0	718274560	67	5092
2026-01-15 09:53:13.58	23.27	72.28	-47.7	-50.8	15.5	0.00e+00	0	40	0	720371712	67	4996
2026-01-15 09:53:14.57	22.19	71.93	-47.2	-50.1	16.1	0.00e+00	0	40	0	722468864	66	4926
2026-01-15 09:53:15.57	21.15	71.58	-47.0	-49.9	16.4	0.00e+00	0	40	0	724566016	65	5080
2026-01-15 09:53:16.56	20.16	71.22	-47.0	-49.8	16.4	0.00e+00	0	40	0	725614592	65	5035
2026-01-15 09:53:17.55	19.20	70.86	-47.5	-50.6	15.8	0.00e+00	0	40	0	727711744	65	5481
2026-01-15 09:53:18.55	18.28	70.50	-47.5	-50.6	15.7	0.00e+00	0	40	0	729808896	65	5496
2026-01-15 09:53:19.54	17.40	70.13	-47.8	-51.0	15.4	0.00e+00	0	40	0	731906048	66	5414
2026-01-15 09:53:20.53	16.56	69.76	-48.1	-51.5	14.9	0.00e+00	0	40	0	734003200	66	5729
2026-01-15 09:53:21.53	15.74	69.39	-48.5	-52.1	14.3	0.00e+00	0	40	0	735051776	67	5804
2026-01-15 09:53:22.52	14.96	69.02	-49.0	-52.8	13.8	2.20e-06	0	40	0	737148928	68	5960
2026-01-15 09:53:23.51	14.20	68.64	-48.7	-52.4	14.1	3.00e-06	0	40	0	739246080	68	5694
2026-01-15 09:53:24.50	13.48	68.26	-48.7	-52.3	14.2	2.20e-06	0	40	0	741343232	68	5635
2026-01-15 09:53:25.50	12.78	67.88	-48.8	-52.4	14.1	1.50e-06	0	40	0	742391808	68	5719
2026-01-15 09:53:26.49	12.11	67.50	-49.3	-53.3	13.3	6.80e-06	0	40	0	744488960	69	5924
2026-01-15 09:53:27.48	11.46	67.12	-49.4	-53.4	13.1	1.44e-05	0	40	0	746586112	69	6039
2026-01-15 09:53:28.47	10.84	66.74	-49.3	-53.3	13.3	2.28e-05	0	40	0	748683264	69	5967
2026-01-15 09:53:29.47	10.23	66.35	-49.2	-53.3	13.2	1.52e-05	0	40	0	749731840	69	5956
2026-01-15 09:53:30.46	9.65	65.97	-48.8	-52.7	13.9	1.37e-05	0	40	0	751828992	69	5547
2026-01-15 09:53:31.46	9.09	65.58	-48.0	-51.4	15.2	1.50e-06	0	40	0	753926144	68	5054
2026-01-15 09:53:32.45	8.55	65.20	-46.8	-49.7	16.7	0.00e+00	0	40	0	756023296	65	4942
2026-01-15 09:53:33.44	8.03	64.81	-46.3	-49.0	17.3	0.00e+00	0	40	0	758120448	64	4821
2026-01-15 09:53:34.43	7.52	64.43	-46.2	-48.8	17.4	0.00e+00	0	40	0	759169024	64	4746
2026-01-15 09:53:35.43	7.03	64.04	-46.2	-48.8	17.4	0.00e+00	0	40	0	761266176	64	4716
2026-01-15 09:53:36.42	6.56	63.66	-45.8	-48.3	18.0	0.00e+00	0	40	0	763363328	63	4724
2026-01-15 09:53:37.41	6.11	63.28	-45.6	-48.1	18.1	0.00e+00	0	40	0	765460480	63	4617
2026-01-15 09:53:38.40	5.67	62.90	-45.6	-48.1	18.2	0.00e+00	0	40	0	766509056	63	4621
2026-01-15 09:53:39.40	5.23	62.51	-45.6	-48.1	18.2	0.00e+00	0	40	0	768606208	63	4605
2026-01-15 09:53:40.39	4.82	62.13	-45.9	-48.4	17.9	0.00e+00	0	40	0	770703360	63	4805
2026-01-15 09:53:41.38	4.42	61.75	-46.5	-49.2	17.1	0.00e+00	0	40	0	772800512	63	5221
2026-01-15 09:53:42.37	4.03	61.38	-47.0	-49.9	16.4	0.00e+00	0	40	0	774897664	64	5368
2026-01-15 09:53:43.37	3.65	60.99	-47.3	-50.3	16.0	0.00e+00	0	40	0	775946240	65	5307
2026-01-15 09:53:44.36	3.28	60.62	-47.7	-50.8	15.5	0.00e+00	0	40	0	778043392	65	5627
2026-01-15 09:53:45.35	2.93	60.24	-48.2	-51.6	14.8	0.00e+00	0	40	0	780140544	66	5826
2026-01-15 09:53:46.35	2.58	59.87	-48.7	-52.5	13.9	1.50e-06	0	40	0	782237696	67	6066
2026-01-15 09:53:47.34	2.25	59.49	-48.9	-52.7	13.9	8.30e-06	0	40	0	783286272	68	5875
2026-01-15 09:53:48.33	1.92	59.12	-49.0	-52.9	13.6	8.30e-06	0	40	0	785383424	68	6023
2026-01-15 09:53:49.33	1.60	58.75	-49.2	-53.2	13.4	9.90e-06	0	40	0	787480576	68	6221
2026-01-15 09:53:50.32	1.30	58.38	-49.6	-54.0	12.5	7.40e-05	0	40	0	789577728	69	6485
2026-01-15 09:53:51.31	1.00	58.01	-49.9	-54.6	11.9	2.79e-04	0	40	0	790626304	70	6508
2026-01-15 09:53:52.30	0.71	57.65	-50.0	-54.7	11.8	5.13e-04	0	40	0	792723456	70	6586
2026-01-15 09:53:53.30	0.42	57.28	-49.8	-54.4	12.1	5.20e-04	0	40	0	794820608	70	6419
2026-01-15 09:53:54.29	0.15	56.92	-49.5	-53.8	12.7	1.27e-04	0	40	0	796917760	70	5984
2026-01-15 09:53:55.28	359.88	56.56	-48.9	-52.9	13.7	2.44e-05	0	40	0	799014912	69	5658
2026-01-15 09:53:56.27	359.62	56.20	-48.7	-52.4	14.2	4.50e-06	0	40	0	800063488	69	5341
2026-01-15 09:53:57.27	359.36	55.84	-48.3	-51.7	14.8	0.00e+00	0	40	0	802160640	68	5220
2026-01-15 09:53:58.26	359.12	55.49	-48.2	-51.6	15.0	0.00e+00	0	40	0	804257792	68	5177
2026-01-15 09:53:59.25	358.87	55.14	-48.4	-51.9	14.6	7.00e-07	0	40	0	806354944	68	5357
2026-01-15 09:54:00.25	358.64	54.78	-47.3	-50.3	16.0	0.00e+00	0	40	0	808452096	66	4997
2026-01-15 09:54:01.24	358.41	54.43	-46.5	-49.2	17.0	0.00e+00	0	40	0	809500672	65	4695
2026-01-15 09:54:02.23	358.18	54.09	-46.2	-48.8	17.5	0.00e+00	0	40	0	811597824	64	4708
2026-01-15 09:54:03.23	357.96	53.74	-46.0	-48.6	17.6	0.00e+00	0	40	0	813694976	64	4610
2026-01-15 09:54:04.22	357.75	53.39	-46.1	-48.7	17.6	0.00e+00	0	40	0	815792128	63	4941
2026-01-15 09:54:05.21	357.54	53.05	-46.2	-48.8	17.5	0.00e+00	0	40	0	816840704	63	5016
2026-01-15 09:54:06.21	357.34	52.71	-46.4	-49.2	17.2	0.00e+00	0	40	0	818937856	63	5246
2026-01-15 09:54:07.20	357.14	52.37	-46.6	-49.4	16.9	0.00e+00	0	40	0	821035008	64	5056
2026-01-15 09:54:08.19	356.94	52.04	-46.8	-49.6	16.7	0.00e+00	0	40	0	823132160	64	5185
2026-01-15 09:54:09.19	356.75	51.70	-46.9	-49.7	16.6	0.00e+00	0	40	0	825229312	64	5239
2026-01-15 09:54:10.18	356.57	51.37	-47.0	-49.8	16.5	0.00e+00	0	40	0	826277888	64	5336
2026-01-15 09:54:11.17	356.39	51.04	-47.2	-50.1	16.1	0.00e+00	0	40	0	828375040	65	5210
2026-01-15 09:54:12.16	356.21	50.71	-47.6	-50.6	15.7	0.00e+00	0	40	0	830472192	65	5518
2026-01-15 09:54:13.16	356.03	50.38	-48.1	-51.4	15.0	0.00e+00	0	40	0	832569344	66	5676
2026-01-15 09:54:14.15	355.87	50.06	-48.9	-52.6	13.9	7.00e-07	0	40	0	833617920	68	5818
2026-01-15 09:54:15.14	355.70	49.74	-49.3	-53.4	13.2	1.14e-05	0	40	0	835715072	69	6002
2026-01-15 09:54:16.13	355.54	49.42	-49.3	-53.4	13.1	3.89e-05	0	40	0	837812224	69	6014
2026-01-15 09:54:17.13	355.38	49.10	-49.3	-53.3	13.2	4.95e-05	0	40	0	839909376	69	5986
2026-01-15 09:54:18.12	355.22	48.78	-49.3	-53.3	13.2	2.44e-05	0	40	0	842006528	69	5963
2026-01-15 09:54:19.11	355.07	48.47	-49.4	-53.5	13.0	3.89e-05	0	40	0	843055104	69	6103
2026-01-15 09:54:20.11	354.92	48.15	-49.4	-53.6	12.9	5.56e-05	0	40	0	845152256	69	6198
2026-01-15 09:54:21.10	354.77	47.84	-49.5	-53.8	12.7	5.11e-05	0	40	0	847249408	69	6288
2026-01-15 09:54:22.09	354.63	47.54	-49.7	-54.1	12.4	1.20e-04	0	40	0	849346560	69	6525
2026-01-15 09:54:23.08	354.49	47.23	-50.1	-54.8	11.7	5.58e-04	0	40	0	850395136	70	6722
2026-01-15 09:54:24.08	354.35	46.93	-50.0	-54.8	11.7	8.08e-04	0	40	0	852492288	70	6674
2026-01-15 09:54:25.07	354.22	46.62	-49.8	-54.3	12.2	3.92e-04	0	40	0	854589440	70	6275
2026-01-15 09:54:26.06	354.08	46.32	-49.1	-53.1	13.3	5.95e-05	0	40	0	856686592	70	5489
2026-01-15 09:54:27.06	353.95	46.02	-49.1	-53.0	13.5	6.10e-06	0	40	0	857735168	69	5753
2026-01-15 09:54:28.05	353.83	45.73	-48.6	-52.2	14.2	4.50e-06	0	40	0	859832320	69	5263
2026-01-15 09:54:29.04	353.70	45.44	-48.4	-51.9	14.6	1.50e-06	0	40	0	861929472	68	5345
2026-01-15 09:54:30.03	353.58	45.15	-48.2	-51.5	14.9	0.00e+00	0	40	0	864026624	68	5156
2026-01-15 09:54:31.03	353.46	44.85	-48.2	-51.8	14.7	0.00e+00	0	40	0	866123776	68	5281
2026-01-15 09:54:32.02	353.34	44.57	-48.5	-52.3	14.2	0.00e+00	0	40	0	867172352	68	5619
2026-01-15 09:54:33.01	353.22	44.28	-48.9	-52.9	13.6	2.20e-06	0	40	0	869269504	68	6000
2026-01-15 09:54:34.01	353.11	43.99	-49.0	-53.0	13.5	1.06e-05	0	40	0	871366656	68	6103
2026-01-15 09:54:35.00	353.00	43.71	-49.4	-53.8	12.7	2.36e-05	0	40	0	873463808	69	6317
2026-01-15 09:54:35.99	352.89	43.43	-49.6	-54.0	12.4	1.18e-04	0	40	0	874512384	69	6476
2026-01-15 09:54:36.99	352.78	43.15	-49.6	-54.0	12.4	1.65e-04	0	40	0	876609536	69	6447
2026-01-15 09:54:37.98	352.67	42.88	-49.5	-53.7	12.8	7.78e-05	0	40	0	878706688	69	6271
2026-01-15 09:54:38.97	352.57	42.60	-49.4	-53.5	13.0	2.74e-05	0	40	0	880803840	69	6105
2026-01-15 09:54:39.97	352.47	42.33	-49.3	-53.3	13.2	2.74e-05	0	40	0	881852416	69	5960
2026-01-15 09:54:40.96	352.37	42.06	-49.1	-53.1	13.4	2.36e-05	0	40	0	883949568	69	5828
2026-01-15 09:54:41.95	352.27	41.79	-49.2	-53.2	13.3	1.60e-05	0	40	0	886046720	69	5856
2026-01-15 09:54:42.94	352.17	41.52	-49.3	-53.4	13.1	1.75e-05	0	40	0	888143872	69	6032
2026-01-15 09:54:43.94	352.08	41.26	-49.3	-53.3	13.2	2.36e-05	0	40	0	890241024	69	5979
2026-01-15 09:54:44.93	351.98	41.00	-49.3	-53.5	13.0	3.12e-05	0	40	0	891289600	69	6076
2026-01-15 09:54:45.92	351.89	40.73	-49.5	-53.9	12.6	5.49e-05	0	40	0	893386752	69	6360
2026-01-15 09:54:46.92	351.80	40.47	-49.6	-54.1	12.4	1.01e-04	0	40	0	895483904	69	6559
2026-01-15 09:54:47.91	351.71	40.22	-49.8	-54.4	12.1	1.88e-04	0	40	0	897581056	70	6371
2026-01-15 09:54:48.90	351.62	39.96	-49.7	-54.2	12.3	2.16e-04	0	40	0	898629632	70	6227
2026-01-15 09:54:49.89	351.54	39.71	-49.7	-54.1	12.3	1.58e-04	0	40	0	900726784	70	6197
2026-01-15 09:54:50.89	351.45	39.45	-49.4	-53.6	12.9	1.14e-04	0	40	0	902823936	70	5802
2026-01-15 09:54:51.88	351.37	39.20	-49.2	-53.2	13.3	1.83e-05	0	40	0	904921088	70	5581
2026-01-15 09:54:52.87	351.29	38.95	-48.8	-52.7	13.7	6.10e-06	0	40	0	907018240	69	5582
2026-01-15 09:54:53.86	351.20	38.71	-48.6	-52.3	14.1	3.00e-06	0	40	0	908066816	69	5334
2026-01-15 09:54:54.86	351.12	38.46	-48.4	-52.2	14.3	7.00e-07	0	40	0	910163968	68	5533
2026-01-15 09:54:55.85	351.05	38.22	-48.5	-52.2	14.3	7.00e-07	0	40	0	912261120	68	5535
2026-01-15 09:54:56.84	350.97	37.98	-48.6	-52.3	14.2	1.50e-06	0	40	0	914358272	68	5637
2026-01-15 09:54:57.84	350.89	37.73	-48.8	-52.6	13.9	1.50e-06	0	40	0	915406848	68	5795
2026-01-15 09:54:58.83	350.82	37.50	-48.9	-52.8	13.7	3.00e-06	0	40	0	917504000	68	5934
2026-01-15 09:54:59.82	350.74	37.26	-48.9	-52.9	13.6	1.22e-05	0	40	0	919601152	68	6026
2026-01-15 09:55:00.81	350.67	37.02	-49.0	-53.1	13.4	2.21e-05	0	40	0	921698304	68	6151
2026-01-15 09:55:01.81	350.60	36.79	-48.8	-53.0	13.5	1.06e-05	0	40	0	923795456	68	6088
2026-01-15 09:55:02.80	350.53	36.56	-48.6	-52.7	13.8	9.10e-06	0	40	0	924844032	68	5901
2026-01-15 09:55:03.79	350.46	36.33	-48.5	-52.5	14.0	3.00e-06	0	40	0	926941184	68	5757
2026-01-15 09:55:04.79	350.39	36.10	-48.4	-52.5	14.0	3.80e-06	0	40	0	929038336	68	5756
2026-01-15 09:55:05.78	350.32	35.87	-48.5	-52.5	14.0	2.20e-06	0	40	0	931135488	68	5779
2026-01-15 09:55:06.77	350.26	35.64	-48.5	-52.4	14.1	0.00e+00	0	40	0	933232640	68	5677
2026-01-15 09:55:07.77	350.19	35.42	-48.6	-52.4	14.1	2.20e-06	0	40	0	934281216	68	5669
2026-01-15 09:55:08.76	350.13	35.20	-48.5	-52.2	14.3	7.00e-07	0	40	0	936378368	68	5563
2026-01-15 09:55:09.75	350.06	34.98	-48.6	-52.3	14.2	2.20e-06	0	40	0	938475520	68	5617
2026-01-15 09:55:10.74	350.00	34.76	-48.4	-52.0	14.5	7.00e-07	0	40	0	940572672	68	5416
2026-01-15 09:55:11.74	349.94	34.54	-48.5	-52.1	14.4	0.00e+00	0	40	0	941621248	68	5473
2026-01-15 09:55:12.73	349.88	34.32	-48.3	-51.8	14.6	7.00e-07	0	40	0	943718400	68	5316
2026-01-15 09:55:13.72	349.82	34.11	-48.3	-51.8	14.7	0.00e+00	0	40	0	945815552	68	5281
2026-01-15 09:55:14.71	349.76	33.89	-48.3	-51.7	14.7	1.50e-06	0	40	0	947912704	68	5277
2026-01-15 09:55:15.71	349.70	33.68	-48.2	-51.6	14.8	7.00e-07	0	40	0	948961280	68	5213
2026-01-15 09:55:16.70	349.64	33.47	-48.3	-51.8	14.6	0.00e+00	0	40	0	951058432	68	5311
2026-01-15 09:55:17.69	349.59	33.26	-48.5	-52.2	14.3	0.00e+00	0	40	0	953155584	68	5545
2026-01-15 09:55:18.69	349.53	33.05	-48.7	-52.5	14.0	7.00e-07	0	40	0	955252736	68	5738
2026-01-15 09:55:19.68	349.48	32.84	-48.8	-52.8	13.6	2.20e-06	0	40	0	957349888	68	5951
2026-01-15 09:55:20.67	349.42	32.64	-49.0	-53.2	13.2	1.06e-05	0	40	0	958398464	68	6251
2026-01-15 09:55:21.66	349.37	32.43	-49.2	-53.6	12.9	4.95e-05	0	40	0	960495616	69	6161
2026-01-15 09:55:22.66	349.31	32.23	-49.2	-53.7	12.7	7.62e-05	0	40	0	962592768	69	6212
2026-01-15 09:55:23.65	349.26	32.03	-49.2	-53.6	12.9	4.95e-05	0	40	0	964689920	69	6150
2026-01-15 09:55:24.64	349.21	31.83	-49.3	-53.7	12.7	5.03e-05	0	41	0	965738496	69	6237
2026-01-15 09:55:25.64	349.16	31.63	-49.3	-53.5	12.9	5.26e-05	0	40	0	967835648	69	6127
2026-01-15 09:55:26.63	349.11	31.43	-49.1	-53.1	13.3	3.89e-05	0	40	0	969932800	69	5852
2026-01-15 09:55:27.62	349.06	31.24	-49.0	-52.9	13.6	1.22e-05	0	40	0	972029952	69	5680
2026-01-15 09:55:28.62	349.01	31.04	-48.8	-52.6	13.8	6.80e-06	0	40	0	973078528	69	5499
2026-01-15 09:55:29.61	348.96	30.85	-48.8	-52.7	13.8	4.50e-06	0	40	0	975175680	69	5529
2026-01-15 09:55:30.60	348.91	30.66	-48.8	-52.6	13.8	4.50e-06	0	40	0	977272832	69	5507
2026-01-15 09:55:31.59	348.87	30.47	-48.8	-52.6	13.8	4.50e-06	0	40	0	979369984	69	5518
2026-01-15 09:55:32.59	348.82	30.27	-48.6	-52.3	14.2	1.50e-06	0	40	0	981467136	69	5284
2026-01-15 09:55:33.58	348.77	30.09	-48.7	-52.4	14.0	2.20e-06	0	40	0	982515712	69	5375
2026-01-15 09:55:34.57	348.73	29.90	-48.6	-52.2	14.2	2.20e-06	0	41	0	984612864	69	5265
2026-01-15 09:55:35.57	348.68	29.71	-48.5	-52.1	14.3	2.20e-06	0	40	0	986710016	68	5495
2026-01-15 09:55:36.56	348.64	29.53	-48.6	-52.3	14.2	7.00e-07	0	41	0	988807168	68	5604
2026-01-15 09:55:37.55	348.59	29.34	-48.5	-52.2	14.2	7.00e-07	0	41	0	989855744	68	5546
2026-01-15 09:55:38.54	348.55	29.16	-48.6	-52.2	14.2	2.20e-06	0	40	0	991952896	68	5579
2026-01-15 09:55:39.54	348.51	28.98	-48.6	-52.3	14.2	0.00e+00	0	40	0	994050048	68	5597
2026-01-15 09:55:40.53	348.47	28.80	-48.8	-52.5	14.0	1.50e-06	0	40	0	996147200	68	5735
2026-01-15 09:55:41.52	348.43	28.62	-48.7	-52.4	14.0	0.00e+00	0	40	0	998244352	68	5693
2026-01-15 09:55:42.52	348.38	28.44	-48.6	-52.2	14.2	1.50e-06	0	40	0	999292928	68	5592
2026-01-15 09:55:43.51	348.34	28.27	-48.7	-52.4	14.1	0.00e+00	0	40	0	1001390080	68	5657
2026-01-15 09:55:44.50	348.30	28.09	-48.7	-52.4	14.1	3.80e-06	0	41	0	1003487232	68	5662
2026-01-15 09:55:45.49	348.26	27.92	-48.6	-52.2	14.2	3.80e-06	0	40	0	1005584384	68	5545
2026-01-15 09:55:46.49	348.22	27.74	-48.4	-52.0	14.5	1.50e-06	0	41	0	1006632960	68	5408
2026-01-15 09:55:47.48	348.18	27.57	-48.3	-51.9	14.6	7.00e-07	0	40	0	1008730112	68	5360
2026-01-15 09:55:48.47	348.15	27.40	-48.2	-51.8	14.6	0.00e+00	0	41	0	1010827264	68	5334
2026-01-15 09:55:49.46	348.11	27.23	-48.2	-51.8	14.6	0.00e+00	0	41	0	1012924416	68	5315
2026-01-15 09:55:50.46	348.07	27.06	-48.1	-51.9	14.5	7.00e-07	0	40	0	1015021568	68	5370
2026-01-15 09:55:51.45	348.03	26.89	-48.0	-51.7	14.7	1.50e-06	0	40	0	1016070144	68	5262
2026-01-15 09:55:52.44	348.00	26.72	-48.1	-51.8	14.6	0.00e+00	0	40	0	1018167296	68	5307
2026-01-15 09:55:53.44	347.96	26.56	-48.0	-51.6	14.8	0.00e+00	0	41	0	1020264448	68	5178
2026-01-15 09:55:54.43	347.93	26.39	-47.8	-51.3	15.0	0.00e+00	0	40	0	1022361600	67	5282
2026-01-15 09:55:55.42	347.89	26.23	-47.8	-51.3	14.9	0.00e+00	0	41	0	1023410176	67	5324
2026-01-15 09:55:56.41	347.86	26.06	-47.8	-51.2	15.0	7.00e-07	0	40	0	1025507328	67	5261
2026-01-15 09:55:57.41	347.82	25.90	-47.7	-51.0	15.2	0.00e+00	0	40	0	1027604480	67	5125
2026-01-15 09:55:58.40	347.79	25.74	-47.6	-50.9	15.3	0.00e+00	0	40	0	1029701632	67	5095
2026-01-15 09:55:59.39	347.75	25.58	-47.5	-50.8	15.4	0.00e+00	0	40	0	1031798784	67	5038
2026-01-15 09:56:00.39	347.72	25.42	-47.4	-50.8	15.5	0.00e+00	0	41	0	1032847360	66	5305
2026-01-15 09:56:01.38	347.69	25.26	-47.4	-50.9	15.4	0.00e+00	0	40	0	1034944512	66	5350
2026-01-15 09:56:02.37	347.65	25.10	-47.3	-50.9	15.4	0.00e+00	0	40	0	1037041664	66	5341
2026-01-15 09:56:03.37	347.62	24.95	-47.1	-50.8	15.4	0.00e+00	0	40	0	1039138816	66	5330
2026-01-15 09:56:04.36	347.59	24.79	-47.2	-50.9	15.3	0.00e+00	0	40	0	1040187392	66	5388
2026-01-15 09:56:05.35	347.56	24.64	-47.1	-50.9	15.3	0.00e+00	0	40	0	1042284544	66	5384
2026-01-15 09:56:06.34	347.53	24.48	-47.0	-50.9	15.4	0.00e+00	0	40	0	1044381696	66	5351
2026-01-15 09:56:07.34	347.50	24.33	-47.0	-50.9	15.3	0.00e+00	0	40	0	1046478848	66	5384
2026-01-15 09:56:08.33	347.46	24.18	-47.1	-50.9	15.3	0.00e+00	0	40	0	1048576000	66	5371
2026-01-15 09:56:09.32	347.43	24.03	-47.1	-51.0	15.3	0.00e+00	0	40	0	1049624576	66	5408
2026-01-15 09:56:10.32	347.40	23.88	-47.1	-50.7	15.4	0.00e+00	0	40	0	1051721728	66	5279
2026-01-15 09:56:11.31	347.37	23.73	-47.4	-50.9	15.3	0.00e+00	0	40	0	1053818880	66	5358
2026-01-15 09:56:12.30	347.35	23.58	-47.3	-50.8	15.4	0.00e+00	0	40	0	1055916032	66	5308
2026-01-15 09:56:13.29	347.32	23.43	-47.3	-50.7	15.5	0.00e+00	0	40	0	1056964608	66	5254
2026-01-15 09:56:14.29	347.29	23.28	-47.4	-50.7	15.4	0.00e+00	0	40	0	1059061760	66	5270
2026-01-15 09:56:15.28	347.26	23.14	-47.4	-50.7	15.4	0.00e+00	0	40	0	1061158912	66	5272
2026-01-15 09:56:16.27	347.23	22.99	-47.5	-50.8	15.4	0.00e+00	0	40	0	1063256064	66	5326
2026-01-15 09:56:17.27	347.20	22.85	-47.5	-50.8	15.4	0.00e+00	0	40	0	1064304640	66	5293
2026-01-15 09:56:18.26	347.18	22.70	-47.4	-50.7	15.5	0.00e+00	0	41	0	1066401792	66	5262
2026-01-15 09:56:19.25	347.15	22.56	-47.5	-50.8	15.4	0.00e+00	0	41	0	1068498944	66	5326
2026-01-15 09:56:20.24	347.12	22.42	-47.5	-50.9	15.3	0.00e+00	0	40	0	1070596096	66	5363
2026-01-15 09:56:21.24	347.10	22.28	-47.5	-50.9	15.3	0.00e+00	0	40	0	1072693248	66	5378
2026-01-15 09:56:22.23	347.07	22.14	-47.5	-50.9	15.3	0.00e+00	0	40	0	1073741824	66	5368
2026-01-15 09:56:23.22	347.04	22.00	-47.4	-50.7	15.4	0.00e+00	0	40	0	1075838976	66	5279
2026-01-15 09:56:24.22	347.02	21.86	-47.4	-50.8	15.4	0.00e+00	0	40	0	1077936128	66	5317
2026-01-15 09:56:25.21	346.99	21.72	-47.5	-50.8	15.4	0.00e+00	0	40	0	1080033280	66	5309
2026-01-15 09:56:26.20	346.97	21.58	-47.6	-50.9	15.3	0.00e+00	0	41	0	1081081856	66	5385
2026-01-15 09:56:27.20	346.94	21.44	-47.5	-50.8	15.4	0.00e+00	0	41	0	1083179008	66	5300
2026-01-15 09:56:28.19	346.92	21.31	-47.5	-50.8	15.4	0.00e+00	0	40	0	1085276160	66	5311
2026-01-15 09:56:29.18	346.89	21.17	-47.6	-50.8	15.4	0.00e+00	0	40	0	1087373312	66	5318
2026-01-15 09:56:30.17	346.87	21.04	-47.5	-50.8	15.4	0.00e+00	0	40	0	1089470464	66	5293
2026-01-15 09:56:31.17	346.84	20.90	-47.6	-50.8	15.4	0.00e+00	0	40	0	1090519040	66	5340
2026-01-15 09:56:32.16	346.82	20.77	-47.6	-50.9	15.2	0.00e+00	0	40	0	1092616192	66	5392
2026-01-15 09:56:33.15	346.80	20.64	-47.6	-51.0	15.2	0.00e+00	0	40	0	1094713344	66	5404
2026-01-15 09:56:34.15	346.77	20.51	-47.6	-51.0	15.2	0.00e+00	0	41	0	1096810496	66	5449
2026-01-15 09:56:35.14	346.75	20.37	-47.6	-51.0	15.2	0.00e+00	0	41	0	1097859072	66	5447
2026-01-15 09:56:36.13	346.73	20.24	-47.7	-51.1	15.0	0.00e+00	0	40	0	1099956224	66	5517
2026-01-15 09:56:37.12	346.70	20.12	-47.8	-51.3	14.9	0.00e+00	0	40	0	1102053376	66	5595
2026-01-15 09:56:38.12	346.68	19.99	-47.9	-51.4	14.8	0.00e+00	0	40	0	1104150528	66	5682
2026-01-15 09:56:39.11	346.66	19.86	-47.8	-51.3	14.9	0.00e+00	0	40	0	1106247680	66	5631
2026-01-15 09:56:40.10	346.64	19.73	-47.9	-51.4	14.8	0.00e+00	0	40	0	1107296256	66	5679
2026-01-15 09:56:41.10	346.62	19.60	-47.9	-51.5	14.7	0.00e+00	0	41	0	1109393408	66	5744
2026-01-15 09:56:42.09	346.59	19.48	-47.9	-51.5	14.7	0.00e+00	0	40	0	1111490560	66	5745
2026-01-15 09:56:43.08	346.57	19.35	-47.8	-51.5	14.7	7.00e-07	0	40	0	1113587712	66	5756
2026-01-15 09:56:44.08	346.55	19.22	-47.8	-51.6	14.6	0.00e+00	0	40	0	1114636288	66	5800
2026-01-15 09:56:45.07	346.53	19.10	-47.7	-51.5	14.7	0.00e+00	0	40	0	1116733440	66	5748
2026-01-15 09:56:46.06	346.51	18.98	-47.6	-51.5	14.6	0.00e+00	0	40	0	1118830592	66	5775
2026-01-15 09:56:47.06	346.49	18.85	-47.3	-51.4	14.8	0.00e+00	0	40	0	1120927744	66	5694
2026-01-15 09:56:48.05	346.47	18.73	-47.3	-51.5	14.7	0.00e+00	0	40	0	1123024896	66	5747
2026-01-15 09:56:49.04	346.45	18.61	-47.3	-51.5	14.6	0.00e+00	0	40	0	1124073472	66	5777
2026-01-15 09:56:50.03	346.43	18.49	-47.3	-51.6	14.6	1.50e-06	0	40	0	1126170624	66	5812
2026-01-15 09:56:51.03	346.41	18.36	-47.4	-51.6	14.5	0.00e+00	0	40	0	1128267776	66	5829
2026-01-15 09:56:52.02	346.39	18.24	-47.3	-51.4	14.7	7.00e-07	0	41	0	1130364928	66	5711
2026-01-15 09:56:53.01	346.37	18.12	-47.4	-51.6	14.6	0.00e+00	0	40	0	1131413504	66	5789
2026-01-15 09:56:54.01	346.35	18.00	-47.5	-51.6	14.6	7.00e-07	0	40	0	1133510656	66	5816
2026-01-15 09:56:55.00	346.33	17.89	-47.4	-51.5	14.6	0.00e+00	0	40	0	1135607808	66	5746
2026-01-15 09:56:55.99	346.31	17.77	-47.5	-51.5	14.6	7.00e-07	0	40	0	1137704960	66	5776
2026-01-15 09:56:56.99	346.29	17.65	-47.6	-51.7	14.5	0.00e+00	0	40	0	1139802112	66	5856
2026-01-15 09:56:57.98	346.28	17.53	-47.5	-51.6	14.5	0.00e+00	0	41	0	1140850688	66	5852
2026-01-15 09:56:58.97	346.26	17.42	-47.6	-51.7	14.4	0.00e+00	0	40	0	1142947840	66	5886
2026-01-15 09:56:59.96	346.24	17.30	-47.5	-51.7	14.4	7.00e-07	0	41	0	1145044992	66	5889
2026-01-15 09:57:00.96	346.22	17.19	-47.6	-51.8	14.4	7.00e-07	0	40	0	1147142144	66	5932
2026-01-15 09:57:01.95	346.20	17.07	-47.6	-51.8	14.3	7.00e-07	0	40	0	1148190720	66	5963
2026-01-15 09:57:02.94	346.19	16.96	-47.7	-51.9	14.3	1.50e-06	0	40	0	1150287872	66	6004
2026-01-15 09:57:03.93	346.17	16.84	-47.8	-51.9	14.3	2.20e-06	0	41	0	1152385024	66	6002
2026-01-15 09:57:04.93	346.15	16.73	-47.8	-51.9	14.2	7.00e-07	0	41	0	1154482176	66	6015
2026-01-15 09:57:05.92	346.13	16.62	-47.9	-52.0	14.1	7.00e-07	0	41	0	1155530752	66	6096
2026-01-15 09:57:06.91	346.12	16.51	-47.9	-51.9	14.2	3.80e-06	0	40	0	1157627904	66	6047
2026-01-15 09:57:07.90	346.10	16.39	-47.8	-51.9	14.2	7.00e-07	0	41	0	1159725056	66	6039
2026-01-15 09:57:08.90	346.08	16.28	-47.9	-52.0	14.1	1.50e-06	0	40	0	1161822208	66	6102
2026-01-15 09:57:09.89	346.07	16.17	-47.8	-51.9	14.2	0.00e+00	0	41	0	1163919360	66	6057
2026-01-15 09:57:10.88	346.05	16.06	-47.9	-52.1	14.0	0.00e+00	0	40	0	1164967936	66	6139
2026-01-15 09:57:11.88	346.03	15.95	-47.9	-52.1	14.0	3.00e-06	0	41	0	1167065088	66	6167
2026-01-15 09:57:12.87	346.02	15.84	-47.8	-52.1	14.0	2.20e-06	0	41	0	1169162240	66	6152
2026-01-15 09:57:13.86	346.00	15.74	-47.8	-52.1	14.0	0.00e+00	0	41	0	1171259392	66	6170
2026-01-15 09:57:14.85	345.99	15.63	-47.8	-52.1	14.0	3.80e-06	0	41	0	1172307968	66	6202
2026-01-15 09:57:15.85	345.97	15.52	-47.7	-52.0	14.1	2.20e-06	0	41	0	1174405120	66	6102
2026-01-15 09:57:16.84	345.95	15.41	-47.8	-52.1	14.0	3.00e-06	0	40	0	1176502272	66	6134
2026-01-15 09:57:17.83	345.94	15.31	-47.8	-52.0	14.1	1.50e-06	0	40	0	1178599424	66	6119
2026-01-15 09:57:18.82	345.92	15.20	-47.8	-52.1	14.0	3.80e-06	0	41	0	1180696576	66	6154
2026-01-15 09:57:19.81	345.91	15.09	-47.9	-52.1	13.9	2.20e-06	0	41	0	1181745152	66	6201
2026-01-15 09:57:20.81	345.89	14.99	-47.9	-52.1	14.0	3.80e-06	0	40	0	1183842304	66	6135
2026-01-15 09:57:21.80	345.88	14.88	-48.0	-52.2	13.9	0.00e+00	0	41	0	1185939456	66	6225
2026-01-15 09:57:22.79	345.86	14.78	-48.0	-52.1	13.9	7.00e-07	0	41	0	1188036608	66	6196
2026-01-15 09:57:23.79	345.85	14.67	-47.9	-51.9	14.2	1.50e-06	0	41	0	1189085184	66	6055
2026-01-15 09:57:24.78	345.84	14.57	-47.9	-52.0	14.1	3.80e-06	0	41	0	1191182336	66	6064
2026-01-15 09:57:25.77	345.82	14.47	-48.0	-52.0	14.0	1.50e-06	0	40	0	1193279488	66	6129
2026-01-15 09:57:26.77	345.81	14.36	-48.0	-52.0	14.1	3.00e-06	0	41	0	1195376640	66	6081
2026-01-15 09:57:27.76	345.79	14.26	-48.0	-52.0	14.0	0.00e+00	0	40	0	1197473792	66	6130
2026-01-15 09:57:28.75	345.78	14.16	-48.0	-52.0	14.1	4.50e-06	0	41	0	1198522368	66	6066
2026-01-15 09:57:29.74	345.76	14.06	-48.0	-52.0	14.1	2.20e-06	0	40	0	1200619520	66	6073
2026-01-15 09:57:30.74	345.75	13.96	-48.0	-52.0	14.1	5.30e-06	0	40	0	1202716672	66	6064
2026-01-15 09:57:31.73	345.74	13.86	-48.0	-52.0	14.1	2.20e-06	0	40	0	1204813824	66	6069
2026-01-15 09:57:32.72	345.72	13.76	-48.0	-51.9	14.1	3.00e-06	0	40	0	1205862400	66	6034
2026-01-15 09:57:33.71	345.71	13.66	-48.0	-52.0	14.1	1.50e-06	0	41	0	1207959552	66	6092
2026-01-15 09:57:34.71	345.70	13.56	-48.0	-51.9	14.1	7.00e-07	0	41	0	1210056704	66	6044
2026-01-15 09:57:35.70	345.68	13.46	-48.1	-52.0	14.1	1.50e-06	0	41	0	1212153856	66	6096
2026-01-15 09:57:36.69	345.67	13.36	-48.1	-52.0	14.0	2.20e-06	0	41	0	1214251008	66	6080
2026-01-15 09:57:37.69	345.66	13.26	-48.1	-52.0	14.1	3.00e-06	0	40	0	1215299584	66	6076
2026-01-15 09:57:38.68	345.65	13.17	-48.2	-52.1	13.9	2.20e-06	0	41	0	1217396736	67	5820
2026-01-15 09:57:39.67	345.63	13.07	-48.2	-52.0	14.0	1.50e-06	0	41	0	1219493888	67	5742
2026-01-15 09:57:40.66	345.62	12.97	-48.2	-52.0	14.0	3.00e-06	0	40	0	1221591040	67	5743
2026-01-15 09:57:41.66	345.61	12.87	-48.2	-52.1	13.9	3.80e-06	0	41	0	1222639616	67	5845
2026-01-15 09:57:42.65	345.60	12.78	-48.2	-52.1	13.9	2.20e-06	0	41	0	1224736768	67	5805
2026-01-15 09:57:43.64	345.58	12.68	-48.2	-52.0	14.0	1.50e-06	0	40	0	1226833920	67	5787
2026-01-15 09:57:44.64	345.57	12.59	-48.3	-52.2	13.9	4.50e-06	0	40	0	1228931072	67	5867
