passes_logs/2026/01/15/T1/T1__20260115_153104_FENGYUN_3E_rec.log

#Pass ID: 20260115_153104_FENGYUN 3E
#Satellite: FENGYUN 3E
#Configuration: FENGYUN 3E
#almurnet v.1.7.20251203
#Start time: 2026-01-15 15:31:03

#Version: 2.0.20230620
#Station: T1
#Location: 37.570604 lon 55.790049 lat
#TLE: 1 49008U 21062A   26014.58289545 -.00000120  00000+0 -35876-4 0  9998
#TLE: 2 49008  98.7488  19.7165 0002000 137.1107 223.0226 14.19884293234788

#Time	Az	El	Level	Level2	SNR	BER	BlckErr	Temp	State	Recorded	gain1	gain2
2026-01-15 15:31:03.86	202.73	4.98	-49.8	-60.7	3.8	8.44e-01	0	36	0	0	70	12351
2026-01-15 15:31:04.85	202.80	5.04	-49.9	-61.0	3.8	8.45e-01	0	36	104	0	70	12782
2026-01-15 15:31:05.84	202.88	5.10	-49.9	-61.0	3.8	8.44e-01	0	36	104	0	70	12706
2026-01-15 15:31:06.84	202.95	5.17	-49.9	-60.9	3.8	8.45e-01	0	36	104	0	70	12615
2026-01-15 15:31:07.83	203.02	5.23	-49.9	-60.9	3.8	8.45e-01	0	36	104	0	70	12607
2026-01-15 15:31:08.82	203.10	5.29	-49.9	-60.8	3.8	8.46e-01	0	36	104	0	70	12486
2026-01-15 15:31:09.82	203.17	5.36	-49.9	-60.7	3.8	8.46e-01	0	36	104	0	70	12303
2026-01-15 15:31:10.81	203.25	5.42	-49.9	-60.8	3.8	8.46e-01	0	36	104	0	70	12396
2026-01-15 15:31:11.80	203.32	5.48	-50.0	-60.9	3.8	8.46e-01	0	37	104	0	70	12570
2026-01-15 15:31:12.80	203.40	5.55	-49.9	-61.0	3.8	8.47e-01	0	37	104	0	70	12777
2026-01-15 15:31:13.79	203.48	5.61	-50.0	-61.1	3.8	8.47e-01	0	36	104	0	70	12937
2026-01-15 15:31:14.78	203.55	5.67	-49.9	-61.2	3.8	8.47e-01	0	37	104	0	70	13032
2026-01-15 15:31:15.77	203.63	5.74	-50.0	-61.2	3.8	8.47e-01	0	37	104	0	70	13065
2026-01-15 15:31:16.77	203.71	5.80	-50.0	-61.2	3.8	8.46e-01	0	37	104	0	70	13045
2026-01-15 15:31:17.76	203.78	5.86	-50.0	-61.2	3.8	8.46e-01	0	37	104	0	70	13080
2026-01-15 15:31:18.75	203.86	5.93	-50.0	-61.3	3.8	8.47e-01	0	37	104	0	70	13227
2026-01-15 15:31:19.75	203.94	5.99	-50.1	-61.3	3.8	8.48e-01	0	37	104	0	70	13112
2026-01-15 15:31:20.74	204.02	6.06	-50.1	-61.2	3.8	8.47e-01	0	37	104	0	70	13046
2026-01-15 15:31:21.73	204.10	6.12	-50.0	-61.1	3.8	8.46e-01	0	37	104	0	70	12902
2026-01-15 15:31:22.72	204.17	6.18	-50.0	-61.0	3.8	8.45e-01	0	37	104	0	70	12709
2026-01-15 15:31:23.72	204.25	6.25	-50.0	-60.7	3.8	8.47e-01	0	37	104	0	70	12342
2026-01-15 15:31:24.71	204.33	6.31	-50.0	-60.5	3.8	8.47e-01	0	37	104	0	70	12045
2026-01-15 15:31:25.70	204.41	6.38	-49.9	-60.4	3.8	8.46e-01	0	37	104	0	70	11858
2026-01-15 15:31:26.70	204.49	6.44	-49.9	-60.4	3.8	8.48e-01	0	37	104	0	70	11899
2026-01-15 15:31:27.69	204.57	6.51	-49.9	-60.5	3.8	8.47e-01	0	37	104	0	70	11972
2026-01-15 15:31:28.68	204.65	6.57	-50.0	-60.6	3.8	8.47e-01	0	37	104	0	70	12145
2026-01-15 15:31:29.68	204.74	6.64	-50.0	-60.6	3.8	8.46e-01	0	37	104	0	70	12193
2026-01-15 15:31:30.67	204.82	6.71	-50.0	-60.7	3.8	8.47e-01	0	37	104	0	70	12266
2026-01-15 15:31:31.66	204.90	6.77	-49.9	-60.4	3.8	8.46e-01	0	37	104	0	70	11914
2026-01-15 15:31:32.66	204.98	6.84	-49.9	-60.1	3.8	8.46e-01	0	38	104	0	70	11466
2026-01-15 15:31:33.65	205.07	6.90	-49.8	-59.7	3.8	8.47e-01	0	37	104	0	70	10944
2026-01-15 15:31:34.64	205.15	6.97	-49.8	-59.2	3.9	8.45e-01	0	37	104	0	70	10341
2026-01-15 15:31:35.63	205.23	7.03	-49.7	-58.9	3.8	8.46e-01	0	37	104	0	70	9971
2026-01-15 15:31:36.63	205.32	7.10	-49.7	-58.6	4.0	8.44e-01	0	37	104	0	70	9638
2026-01-15 15:31:37.62	205.40	7.17	-49.7	-58.5	3.9	8.44e-01	0	38	104	0	70	9567
2026-01-15 15:31:38.61	205.48	7.23	-49.7	-58.4	4.1	8.43e-01	0	37	104	0	70	9397
2026-01-15 15:31:39.61	205.57	7.30	-49.6	-58.5	3.9	8.46e-01	0	37	104	0	70	9525
2026-01-15 15:31:40.60	205.65	7.37	-49.7	-58.6	4.0	8.46e-01	0	37	104	0	70	9613
2026-01-15 15:31:41.59	205.74	7.43	-49.7	-58.6	4.0	8.44e-01	0	38	104	0	70	9710
2026-01-15 15:31:42.58	205.83	7.50	-49.7	-58.8	3.9	8.45e-01	0	38	104	0	70	9921
2026-01-15 15:31:43.58	205.91	7.57	-49.8	-59.4	3.8	8.48e-01	0	38	104	0	70	10555
2026-01-15 15:31:44.57	206.00	7.63	-49.9	-60.0	3.8	8.47e-01	0	38	104	0	70	11412
2026-01-15 15:31:45.56	206.09	7.70	-50.0	-60.8	3.8	8.47e-01	0	38	104	0	70	12502
2026-01-15 15:31:46.56	206.17	7.77	-50.0	-61.3	3.8	8.46e-01	0	38	104	0	70	13183
2026-01-15 15:31:47.55	206.26	7.84	-49.9	-60.1	3.8	8.47e-01	0	38	104	0	70	11423
2026-01-15 15:31:48.54	206.35	7.90	-49.4	-57.1	4.4	8.38e-01	0	38	0	0	69	8629
2026-01-15 15:31:49.54	206.44	7.97	-48.4	-53.8	6.2	6.57e-01	0	38	0	1048576	67	6587
2026-01-15 15:31:50.53	206.53	8.04	-47.3	-51.2	8.6	5.12e-02	0	38	0	8388608	65	5495
2026-01-15 15:31:51.52	206.62	8.11	-46.0	-49.0	10.9	4.11e-03	0	38	0	15728640	62	5064
2026-01-15 15:31:52.52	206.71	8.17	-44.7	-47.2	12.8	6.52e-05	0	38	0	23068672	60	4604
2026-01-15 15:31:53.51	206.80	8.24	-43.6	-45.6	14.3	3.40e-06	0	38	0	29360128	58	4314
2026-01-15 15:31:54.50	206.89	8.31	-42.6	-44.4	15.4	0.00e+00	0	38	0	36700160	56	4235
2026-01-15 15:31:55.49	206.98	8.38	-41.8	-43.5	16.2	0.00e+00	0	38	0	44040192	54	4254
2026-01-15 15:31:56.49	207.07	8.45	-41.2	-42.8	16.8	0.00e+00	0	38	0	51380224	53	4175
2026-01-15 15:31:57.48	207.16	8.52	-41.1	-42.7	16.9	0.00e+00	0	38	0	58720256	53	4140
2026-01-15 15:31:58.47	207.26	8.59	-41.2	-42.8	16.9	0.00e+00	0	38	0	66060288	52	4411
2026-01-15 15:31:59.46	207.35	8.65	-41.5	-43.2	16.5	0.00e+00	0	38	0	72351744	52	4603
2026-01-15 15:32:00.46	207.44	8.72	-41.9	-43.6	16.1	0.00e+00	0	38	0	79691776	53	4582
2026-01-15 15:32:01.45	207.54	8.79	-42.7	-44.6	15.2	0.00e+00	0	38	0	87031808	54	4821
2026-01-15 15:32:02.44	207.63	8.86	-43.7	-45.8	14.1	0.00e+00	0	38	0	94371840	56	4945
2026-01-15 15:32:03.44	207.73	8.93	-44.5	-46.9	13.1	1.83e-05	0	38	0	101711872	58	4984
2026-01-15 15:32:04.43	207.82	9.00	-45.4	-48.2	11.8	1.97e-04	0	38	0	108003328	60	5162
2026-01-15 15:32:05.42	207.92	9.07	-45.7	-48.5	11.5	9.90e-04	0	38	0	115343360	61	5082
2026-01-15 15:32:06.42	208.01	9.14	-44.8	-47.2	12.9	2.47e-04	0	38	0	122683392	60	4613
2026-01-15 15:32:07.41	208.11	9.21	-44.7	-47.1	12.9	4.50e-06	0	38	0	130023424	58	5120
2026-01-15 15:32:08.40	208.20	9.28	-46.8	-50.4	9.4	8.05e-02	0	38	0	137363456	64	5314
2026-01-15 15:32:09.40	208.30	9.35	-44.0	-46.2	13.7	6.29e-05	0	38	0	144703488	58	4621
2026-01-15 15:32:10.39	208.40	9.42	-44.0	-46.1	13.9	3.66e-05	0	38	0	150994944	58	4588
2026-01-15 15:32:11.38	208.50	9.49	-43.1	-45.1	14.9	0.00e+00	0	38	0	158334976	56	4554
2026-01-15 15:32:12.37	208.60	9.56	-43.1	-45.0	15.0	0.00e+00	0	38	0	165675008	56	4511
2026-01-15 15:32:13.36	208.69	9.63	-42.6	-44.5	15.5	0.00e+00	0	38	0	173015040	56	4266
2026-01-15 15:32:14.36	208.80	9.70	-42.0	-43.8	16.0	0.00e+00	0	38	0	180355072	54	4425
2026-01-15 15:32:15.35	208.89	9.78	-41.6	-43.4	16.4	0.00e+00	0	38	0	187695104	54	4208
2026-01-15 15:32:16.34	209.00	9.85	-41.4	-43.1	16.6	0.00e+00	0	38	0	193986560	53	4330
2026-01-15 15:32:17.34	209.10	9.92	-41.3	-43.0	16.7	0.00e+00	0	38	0	201326592	53	4287
2026-01-15 15:32:18.33	209.20	9.99	-41.2	-42.9	16.9	0.00e+00	0	38	0	208666624	53	4225
2026-01-15 15:32:19.32	209.30	10.06	-41.2	-42.9	16.8	0.00e+00	0	38	0	216006656	53	4218
2026-01-15 15:32:20.32	209.40	10.13	-41.2	-42.9	16.8	0.00e+00	0	38	0	223346688	53	4219
2026-01-15 15:32:21.31	209.51	10.20	-41.1	-42.8	17.0	0.00e+00	0	38	0	229638144	53	4147
2026-01-15 15:32:22.30	209.61	10.28	-40.9	-42.6	17.1	0.00e+00	0	38	0	236978176	52	4308
2026-01-15 15:32:23.29	209.71	10.35	-40.7	-42.4	17.3	0.00e+00	0	38	0	244318208	52	4197
2026-01-15 15:32:24.29	209.82	10.42	-40.9	-42.6	17.1	0.00e+00	0	38	0	251658240	52	4312
2026-01-15 15:32:25.28	209.92	10.49	-41.1	-42.7	17.0	0.00e+00	0	38	0	258998272	52	4382
2026-01-15 15:32:26.27	210.03	10.56	-40.9	-42.6	17.1	0.00e+00	0	38	0	266338304	52	4304
2026-01-15 15:32:27.27	210.13	10.64	-40.9	-42.6	17.1	0.00e+00	0	38	0	273678336	52	4307
2026-01-15 15:32:28.26	210.24	10.71	-41.0	-42.7	17.0	0.00e+00	0	38	0	279969792	52	4356
2026-01-15 15:32:29.25	210.35	10.78	-40.9	-42.6	17.1	0.00e+00	0	38	0	287309824	52	4319
2026-01-15 15:32:30.24	210.45	10.86	-40.9	-42.6	17.1	0.00e+00	0	38	0	294649856	52	4307
2026-01-15 15:32:31.24	210.56	10.93	-41.0	-42.7	17.0	0.00e+00	0	38	0	301989888	52	4345
2026-01-15 15:32:32.23	210.67	11.00	-40.9	-42.6	17.1	0.00e+00	0	38	0	309329920	52	4303
2026-01-15 15:32:33.22	210.78	11.07	-41.0	-42.6	17.0	0.00e+00	0	38	0	316669952	52	4329
2026-01-15 15:32:34.21	210.89	11.15	-41.0	-42.7	17.0	0.00e+00	0	38	0	324009984	52	4343
2026-01-15 15:32:35.21	211.00	11.22	-40.8	-42.5	17.2	0.00e+00	0	38	0	330301440	52	4259
2026-01-15 15:32:36.20	211.11	11.30	-40.7	-42.3	17.4	0.00e+00	0	38	0	337641472	52	4173
2026-01-15 15:32:37.19	211.22	11.37	-40.7	-42.3	17.3	0.00e+00	0	38	0	344981504	52	4179
2026-01-15 15:32:38.19	211.33	11.44	-40.5	-42.1	17.6	0.00e+00	0	38	0	352321536	51	4327
2026-01-15 15:32:39.18	211.44	11.52	-40.6	-42.2	17.5	0.00e+00	0	38	0	359661568	51	4357
2026-01-15 15:32:40.17	211.56	11.59	-40.6	-42.2	17.5	0.00e+00	0	39	0	367001600	51	4387
2026-01-15 15:32:41.17	211.67	11.67	-40.7	-42.3	17.4	0.00e+00	0	38	0	373293056	51	4404
2026-01-15 15:32:42.16	211.78	11.74	-40.7	-42.4	17.4	0.00e+00	0	38	0	380633088	51	4444
2026-01-15 15:32:43.15	211.90	11.82	-40.7	-42.4	17.4	0.00e+00	0	38	0	387973120	51	4454
2026-01-15 15:32:44.15	212.01	11.89	-40.8	-42.4	17.3	0.00e+00	0	38	0	395313152	51	4479
2026-01-15 15:32:45.14	212.13	11.97	-40.8	-42.5	17.3	0.00e+00	0	38	0	402653184	51	4505
2026-01-15 15:32:46.13	212.24	12.04	-40.8	-42.5	17.2	0.00e+00	0	38	0	409993216	51	4505
2026-01-15 15:32:47.12	212.36	12.11	-40.8	-42.5	17.2	0.00e+00	0	38	0	416284672	51	4526
2026-01-15 15:32:48.12	212.48	12.19	-40.7	-42.4	17.4	0.00e+00	0	38	0	423624704	51	4454
2026-01-15 15:32:49.11	212.60	12.27	-40.7	-42.3	17.4	0.00e+00	0	38	0	430964736	51	4441
2026-01-15 15:32:50.10	212.71	12.34	-40.7	-42.3	17.4	0.00e+00	0	38	0	438304768	51	4429
2026-01-15 15:32:51.10	212.83	12.42	-40.6	-42.2	17.5	0.00e+00	0	39	0	445644800	51	4386
2026-01-15 15:32:52.09	212.95	12.49	-40.5	-42.1	17.6	0.00e+00	0	39	0	452984832	51	4306
2026-01-15 15:32:53.08	213.07	12.57	-40.5	-42.0	17.7	0.00e+00	0	39	0	459276288	51	4275
2026-01-15 15:32:54.07	213.19	12.64	-40.5	-42.1	17.7	0.00e+00	0	39	0	466616320	51	4310
2026-01-15 15:32:55.07	213.32	12.72	-40.5	-42.0	17.7	0.00e+00	0	38	0	473956352	51	4285
2026-01-15 15:32:56.06	213.44	12.80	-40.5	-42.1	17.7	0.00e+00	0	39	0	481296384	51	4292
2026-01-15 15:32:57.06	213.56	12.87	-40.5	-42.0	17.7	0.00e+00	0	38	0	488636416	51	4284
2026-01-15 15:32:58.05	213.68	12.95	-40.6	-42.1	17.7	0.00e+00	0	39	0	494927872	51	4308
2026-01-15 15:32:59.04	213.81	13.03	-40.6	-42.2	17.6	0.00e+00	0	38	0	502267904	51	4344
2026-01-15 15:33:00.03	213.93	13.10	-40.6	-42.2	17.6	0.00e+00	0	39	0	509607936	51	4349
2026-01-15 15:33:01.03	214.06	13.18	-40.6	-42.1	17.7	0.00e+00	0	39	0	516947968	51	4310
2026-01-15 15:33:02.02	214.18	13.26	-40.5	-42.0	17.9	0.00e+00	0	39	0	524288000	51	4251
2026-01-15 15:33:03.01	214.31	13.33	-40.4	-41.9	17.9	0.00e+00	0	38	0	531628032	51	4212
2026-01-15 15:33:04.01	214.44	13.41	-40.5	-42.0	17.9	0.00e+00	0	39	0	537919488	51	4246
2026-01-15 15:33:05.00	214.56	13.49	-40.4	-41.9	17.9	0.00e+00	0	39	0	545259520	51	4213
2026-01-15 15:33:05.99	214.69	13.57	-40.3	-41.7	18.1	0.00e+00	0	39	0	552599552	51	4139
2026-01-15 15:33:06.98	214.82	13.64	-40.4	-41.9	18.0	0.00e+00	0	38	0	559939584	51	4205
2026-01-15 15:33:07.97	214.95	13.72	-40.4	-41.9	17.9	0.00e+00	0	39	0	567279616	51	4227
2026-01-15 15:33:08.97	215.08	13.80	-40.2	-41.7	18.2	0.00e+00	0	39	0	574619648	51	4105
2026-01-15 15:33:09.96	215.21	13.88	-40.3	-41.7	18.2	0.00e+00	0	39	0	580911104	51	4132
2026-01-15 15:33:10.95	215.34	13.95	-40.2	-41.6	18.2	0.00e+00	0	39	0	588251136	51	4092
2026-01-15 15:33:11.95	215.47	14.03	-40.2	-41.7	18.1	0.00e+00	0	39	0	595591168	51	4143
2026-01-15 15:33:12.94	215.61	14.11	-40.1	-41.6	18.2	0.00e+00	0	39	0	602931200	51	4091
2026-01-15 15:33:13.93	215.74	14.19	-40.2	-41.7	18.1	0.00e+00	0	39	0	610271232	51	4118
2026-01-15 15:33:14.93	215.88	14.27	-40.2	-41.8	18.1	0.00e+00	0	38	0	617611264	51	4147
2026-01-15 15:33:15.92	216.01	14.35	-40.2	-41.7	18.2	0.00e+00	0	39	0	624951296	51	4106
2026-01-15 15:33:16.91	216.15	14.42	-40.1	-41.7	18.2	0.00e+00	0	39	0	631242752	51	4103
2026-01-15 15:33:17.90	216.28	14.50	-40.1	-41.6	18.3	0.00e+00	0	39	0	638582784	50	4301
2026-01-15 15:33:18.90	216.42	14.58	-40.0	-41.5	18.4	0.00e+00	0	39	0	645922816	50	4273
2026-01-15 15:33:19.89	216.56	14.66	-40.0	-41.4	18.4	0.00e+00	0	39	0	653262848	50	4240
2026-01-15 15:33:20.88	216.70	14.74	-40.0	-41.5	18.3	0.00e+00	0	39	0	660602880	50	4264
2026-01-15 15:33:21.88	216.84	14.82	-40.0	-41.5	18.3	0.00e+00	0	39	0	667942912	50	4280
2026-01-15 15:33:22.87	216.98	14.90	-40.0	-41.5	18.3	0.00e+00	0	39	0	675282944	50	4278
2026-01-15 15:33:23.86	217.12	14.98	-40.0	-41.5	18.3	0.00e+00	0	39	0	681574400	50	4256
2026-01-15 15:33:24.85	217.26	15.06	-40.0	-41.5	18.4	0.00e+00	0	39	0	688914432	50	4254
2026-01-15 15:33:25.85	217.40	15.14	-39.9	-41.4	18.4	0.00e+00	0	39	0	696254464	50	4228
2026-01-15 15:33:26.84	217.54	15.22	-39.9	-41.5	18.3	0.00e+00	0	39	0	703594496	50	4265
2026-01-15 15:33:27.83	217.69	15.30	-39.9	-41.4	18.4	0.00e+00	0	39	0	710934528	50	4218
2026-01-15 15:33:28.83	217.83	15.38	-39.9	-41.4	18.4	0.00e+00	0	39	0	718274560	50	4218
2026-01-15 15:33:29.82	217.98	15.46	-39.8	-41.3	18.5	0.00e+00	0	39	0	724566016	50	4186
2026-01-15 15:33:30.81	218.12	15.54	-39.7	-41.2	18.5	0.00e+00	0	39	0	731906048	50	4141
2026-01-15 15:33:31.80	218.27	15.62	-39.5	-41.0	18.8	0.00e+00	0	39	0	739246080	49	4243
2026-01-15 15:33:32.80	218.42	15.70	-39.5	-41.0	18.7	0.00e+00	0	39	0	746586112	49	4282
2026-01-15 15:33:33.79	218.56	15.78	-39.5	-41.0	18.7	0.00e+00	0	39	0	753926144	49	4275
2026-01-15 15:33:34.78	218.71	15.86	-39.4	-40.9	18.9	0.00e+00	0	39	0	760217600	49	4204
2026-01-15 15:33:35.78	218.86	15.94	-39.3	-40.7	18.9	0.00e+00	0	39	0	767557632	49	4144
2026-01-15 15:33:36.77	219.01	16.02	-39.4	-40.9	18.8	0.00e+00	0	39	0	774897664	49	4200
2026-01-15 15:33:37.76	219.16	16.10	-39.4	-40.9	18.8	0.00e+00	0	39	0	782237696	49	4221
2026-01-15 15:33:38.76	219.32	16.18	-39.5	-41.0	18.7	0.00e+00	0	39	0	789577728	49	4277
2026-01-15 15:33:39.75	219.47	16.26	-39.5	-41.1	18.6	0.00e+00	0	39	0	796917760	49	4298
2026-01-15 15:33:40.74	219.62	16.34	-39.5	-41.0	18.6	0.00e+00	0	39	0	803209216	49	4287
2026-01-15 15:33:41.73	219.78	16.42	-39.5	-41.0	18.6	0.00e+00	0	39	0	810549248	49	4280
2026-01-15 15:33:42.73	219.93	16.50	-39.5	-41.0	18.7	0.00e+00	0	39	0	817889280	49	4274
2026-01-15 15:33:43.72	220.09	16.58	-39.5	-41.0	18.7	0.00e+00	0	39	0	825229312	49	4255
2026-01-15 15:33:44.71	220.24	16.67	-39.5	-41.0	18.7	0.00e+00	0	39	0	832569344	49	4248
2026-01-15 15:33:45.71	220.40	16.75	-39.4	-40.9	18.8	0.00e+00	0	39	0	839909376	49	4233
2026-01-15 15:33:46.70	220.56	16.83	-39.5	-41.0	18.7	0.00e+00	0	39	0	846200832	49	4255
2026-01-15 15:33:47.69	220.72	16.91	-39.3	-40.7	19.0	0.00e+00	0	39	0	853540864	49	4142
2026-01-15 15:33:48.69	220.88	16.99	-39.3	-40.8	18.9	0.00e+00	0	39	0	860880896	49	4153
2026-01-15 15:33:49.68	221.04	17.07	-39.3	-40.7	19.0	0.00e+00	0	39	0	868220928	49	4118
2026-01-15 15:33:50.67	221.20	17.15	-39.2	-40.7	19.0	0.00e+00	0	39	0	875560960	49	4100
2026-01-15 15:33:51.66	221.37	17.24	-39.2	-40.6	19.1	0.00e+00	0	39	0	882900992	49	4068
2026-01-15 15:33:52.66	221.53	17.32	-39.2	-40.5	19.2	0.00e+00	0	39	0	889192448	49	4048
2026-01-15 15:33:53.65	221.70	17.40	-39.0	-40.3	19.4	0.00e+00	0	39	0	896532480	48	4190
2026-01-15 15:33:54.64	221.86	17.48	-39.1	-40.4	19.3	0.00e+00	0	39	0	903872512	48	4227
2026-01-15 15:33:55.63	222.03	17.56	-38.9	-40.3	19.4	0.00e+00	0	39	0	911212544	48	4160
2026-01-15 15:33:56.63	222.19	17.64	-39.0	-40.3	19.4	0.00e+00	0	39	0	918552576	48	4191
2026-01-15 15:33:57.62	222.36	17.73	-39.0	-40.4	19.4	0.00e+00	0	39	0	925892608	48	4195
2026-01-15 15:33:58.61	222.53	17.81	-39.0	-40.4	19.4	0.00e+00	0	39	0	933232640	48	4195
2026-01-15 15:33:59.61	222.70	17.89	-39.0	-40.4	19.4	0.00e+00	0	39	0	939524096	48	4200
2026-01-15 15:34:00.60	222.87	17.97	-39.1	-40.4	19.3	0.00e+00	0	39	0	946864128	48	4239
2026-01-15 15:34:01.59	223.04	18.05	-39.1	-40.4	19.4	0.00e+00	0	39	0	954204160	48	4234
2026-01-15 15:34:02.59	223.22	18.14	-39.1	-40.4	19.4	0.00e+00	0	39	0	961544192	48	4219
2026-01-15 15:34:03.58	223.39	18.22	-39.0	-40.4	19.4	0.00e+00	0	39	0	968884224	48	4204
2026-01-15 15:34:04.57	223.56	18.30	-39.1	-40.5	19.3	0.00e+00	0	39	0	976224256	48	4255
2026-01-15 15:34:05.57	223.74	18.38	-39.0	-40.3	19.4	0.00e+00	0	39	0	983564288	48	4191
2026-01-15 15:34:06.56	223.92	18.46	-39.1	-40.4	19.4	0.00e+00	0	39	0	989855744	48	4240
2026-01-15 15:34:07.55	224.09	18.55	-39.0	-40.3	19.4	0.00e+00	0	39	0	997195776	48	4184
2026-01-15 15:34:08.55	224.27	18.63	-38.9	-40.3	19.5	0.00e+00	0	39	0	1004535808	48	4151
2026-01-15 15:34:09.54	224.45	18.71	-39.0	-40.4	19.4	0.00e+00	0	38	0	1011875840	48	4207
2026-01-15 15:34:10.53	224.63	18.79	-38.8	-40.1	19.6	0.00e+00	0	39	0	1019215872	48	4093
2026-01-15 15:34:11.52	224.81	18.87	-38.7	-40.1	19.6	0.00e+00	0	39	0	1025507328	48	4055
2026-01-15 15:34:12.52	224.99	18.96	-38.7	-40.0	19.7	0.00e+00	0	39	0	1032847360	48	4039
2026-01-15 15:34:13.51	225.18	19.04	-38.7	-40.1	19.6	0.00e+00	0	39	0	1040187392	48	4077
2026-01-15 15:34:14.50	225.36	19.12	-38.6	-40.0	19.7	0.00e+00	0	39	0	1047527424	48	4008
2026-01-15 15:34:15.50	225.54	19.20	-38.7	-40.0	19.7	0.00e+00	0	39	0	1054867456	48	4045
2026-01-15 15:34:16.49	225.73	19.28	-38.7	-40.1	19.6	0.00e+00	0	39	0	1062207488	48	4055
2026-01-15 15:34:17.48	225.92	19.37	-38.6	-40.0	19.7	0.00e+00	0	39	0	1068498944	48	4009
2026-01-15 15:34:18.48	226.11	19.45	-38.6	-40.0	19.7	0.00e+00	0	39	0	1075838976	48	4050
2026-01-15 15:34:19.47	226.29	19.53	-38.4	-39.8	19.6	0.00e+00	0	39	0	1083179008	47	4169
2026-01-15 15:34:20.46	226.48	19.61	-38.5	-39.9	19.5	0.00e+00	0	39	0	1090519040	47	4214
2026-01-15 15:34:21.45	226.67	19.69	-38.5	-39.9	19.5	0.00e+00	0	39	0	1097859072	47	4218
2026-01-15 15:34:22.45	226.87	19.78	-38.5	-40.0	19.4	0.00e+00	0	39	0	1105199104	47	4250
2026-01-15 15:34:23.44	227.06	19.86	-38.6	-40.0	19.4	0.00e+00	0	39	0	1111490560	47	4264
2026-01-15 15:34:24.43	227.25	19.94	-38.6	-40.0	19.4	0.00e+00	0	39	0	1118830592	47	4272
2026-01-15 15:34:25.42	227.44	20.02	-38.5	-39.9	19.4	0.00e+00	0	39	0	1126170624	47	4235
2026-01-15 15:34:26.42	227.64	20.10	-38.5	-39.9	19.5	0.00e+00	0	39	0	1133510656	47	4210
2026-01-15 15:34:27.41	227.84	20.18	-38.3	-39.8	19.6	0.00e+00	0	39	0	1140850688	47	4151
2026-01-15 15:34:28.40	228.03	20.27	-38.3	-39.7	19.7	0.00e+00	0	39	0	1147142144	47	4116
2026-01-15 15:34:29.39	228.23	20.35	-38.3	-39.7	19.7	0.00e+00	0	39	0	1154482176	47	4114
2026-01-15 15:34:30.39	228.43	20.43	-38.4	-39.8	19.6	0.00e+00	0	39	0	1161822208	47	4148
2026-01-15 15:34:31.38	228.63	20.51	-38.3	-39.6	19.7	0.00e+00	0	39	0	1169162240	47	4097
2026-01-15 15:34:32.37	228.84	20.59	-38.4	-39.7	19.6	0.00e+00	0	39	0	1176502272	47	4145
2026-01-15 15:34:33.37	229.04	20.67	-38.3	-39.7	19.7	0.00e+00	0	39	0	1183842304	47	4115
2026-01-15 15:34:34.36	229.24	20.75	-38.3	-39.7	19.7	0.00e+00	0	39	0	1190133760	47	4109
2026-01-15 15:34:35.35	229.45	20.83	-38.2	-39.5	19.8	0.00e+00	0	39	0	1197473792	47	4050
2026-01-15 15:34:36.35	229.65	20.92	-38.1	-39.5	19.9	0.00e+00	0	39	0	1204813824	47	4013
2026-01-15 15:34:37.34	229.86	21.00	-38.2	-39.5	19.9	0.00e+00	0	39	0	1212153856	47	4019
2026-01-15 15:34:38.33	230.07	21.08	-38.1	-39.4	20.0	0.00e+00	0	39	0	1219493888	46	4212
2026-01-15 15:34:39.33	230.28	21.16	-38.2	-39.5	19.9	0.00e+00	0	39	0	1226833920	46	4285
2026-01-15 15:34:40.32	230.49	21.24	-38.2	-39.6	19.8	0.00e+00	0	39	0	1234173952	46	4315
2026-01-15 15:34:41.31	230.70	21.32	-38.2	-39.6	19.9	0.00e+00	0	39	0	1240465408	46	4309
2026-01-15 15:34:42.30	230.91	21.40	-38.1	-39.5	19.9	0.00e+00	0	39	0	1247805440	46	4259
2026-01-15 15:34:43.30	231.13	21.48	-38.1	-39.5	19.9	0.00e+00	0	39	0	1255145472	46	4271
2026-01-15 15:34:44.29	231.34	21.56	-38.1	-39.5	19.9	0.00e+00	0	39	0	1262485504	46	4244
2026-01-15 15:34:45.28	231.55	21.64	-38.0	-39.3	20.1	0.00e+00	0	39	0	1269825536	46	4166
2026-01-15 15:34:46.28	231.77	21.72	-38.1	-39.4	20.0	0.00e+00	0	39	0	1277165568	46	4228
2026-01-15 15:34:47.27	231.99	21.79	-38.0	-39.4	19.9	0.00e+00	0	39	0	1284505600	46	4223
2026-01-15 15:34:48.26	232.21	21.87	-38.1	-39.5	19.9	0.00e+00	0	39	0	1290797056	46	4253
2026-01-15 15:34:49.26	232.43	21.95	-38.0	-39.4	19.9	0.00e+00	0	39	0	1298137088	46	4230
2026-01-15 15:34:50.25	232.65	22.03	-38.0	-39.4	19.9	0.00e+00	0	39	0	1305477120	46	4217
2026-01-15 15:34:51.24	232.87	22.11	-38.0	-39.4	20.0	0.00e+00	0	39	0	1312817152	46	4215
2026-01-15 15:34:52.24	233.10	22.19	-38.1	-39.5	19.9	0.00e+00	0	39	0	1320157184	46	4254
2026-01-15 15:34:53.23	233.32	22.27	-38.0	-39.4	20.0	0.00e+00	0	39	0	1327497216	46	4216
2026-01-15 15:34:54.22	233.55	22.34	-38.0	-39.4	20.0	0.00e+00	0	39	0	1333788672	46	4196
2026-01-15 15:34:55.21	233.77	22.42	-37.9	-39.3	20.1	0.00e+00	0	39	0	1341128704	46	4175
2026-01-15 15:34:56.21	234.00	22.50	-38.0	-39.4	20.0	0.00e+00	0	39	0	1348468736	46	4194
2026-01-15 15:34:57.20	234.23	22.58	-37.9	-39.2	20.2	0.00e+00	0	39	0	1355808768	46	4122
2026-01-15 15:34:58.19	234.46	22.65	-38.0	-39.3	20.0	0.00e+00	0	39	0	1363148800	46	4182
2026-01-15 15:34:59.18	234.69	22.73	-37.9	-39.2	20.2	0.00e+00	0	39	0	1370488832	46	4126
2026-01-15 15:35:00.18	234.92	22.81	-37.9	-39.2	20.1	0.00e+00	0	39	0	1376780288	46	4123
2026-01-15 15:35:01.17	235.15	22.88	-37.9	-39.2	20.1	0.00e+00	0	39	0	1384120320	46	4116
2026-01-15 15:35:02.16	235.39	22.96	-37.8	-39.2	20.1	0.00e+00	0	39	0	1391460352	46	4111
2026-01-15 15:35:03.15	235.62	23.03	-37.9	-39.2	20.1	0.00e+00	0	39	0	1398800384	46	4121
2026-01-15 15:35:04.15	235.86	23.11	-37.8	-39.1	20.2	0.00e+00	0	39	0	1406140416	46	4084
2026-01-15 15:35:05.14	236.10	23.19	-37.8	-39.2	20.2	0.00e+00	0	39	0	1412431872	46	4112
2026-01-15 15:35:06.13	236.34	23.26	-37.8	-39.2	20.2	0.00e+00	0	39	0	1419771904	46	4107
2026-01-15 15:35:07.13	236.58	23.34	-37.9	-39.2	20.2	0.00e+00	0	39	0	1427111936	46	4132
2026-01-15 15:35:08.12	236.82	23.41	-37.9	-39.3	20.1	0.00e+00	0	39	0	1434451968	46	4179
2026-01-15 15:35:09.11	237.06	23.48	-38.0	-39.4	20.0	0.00e+00	0	39	0	1441792000	46	4200
2026-01-15 15:35:10.11	237.30	23.56	-37.9	-39.3	20.0	0.00e+00	0	39	0	1449132032	46	4186
2026-01-15 15:35:11.10	237.55	23.63	-38.1	-39.5	19.9	0.00e+00	0	39	0	1455423488	46	4261
2026-01-15 15:35:12.09	237.79	23.70	-37.9	-39.3	20.0	0.00e+00	0	39	0	1462763520	46	4176
2026-01-15 15:35:13.09	238.04	23.78	-37.9	-39.3	20.0	0.00e+00	0	39	0	1470103552	46	4167
2026-01-15 15:35:14.08	238.29	23.85	-37.9	-39.3	20.1	0.00e+00	0	39	0	1477443584	46	4160
2026-01-15 15:35:15.07	238.54	23.92	-37.9	-39.3	20.1	0.00e+00	0	39	0	1484783616	46	4170
2026-01-15 15:35:16.06	238.78	23.99	-37.8	-39.2	20.1	0.00e+00	0	39	0	1492123648	46	4124
2026-01-15 15:35:17.06	239.04	24.06	-37.9	-39.2	20.1	0.00e+00	0	39	0	1498415104	46	4137
2026-01-15 15:35:18.05	239.29	24.14	-37.8	-39.2	20.1	0.00e+00	0	39	0	1505755136	46	4118
2026-01-15 15:35:19.04	239.54	24.21	-37.9	-39.3	20.1	0.00e+00	0	39	0	1513095168	46	4162
2026-01-15 15:35:20.03	239.80	24.28	-37.8	-39.1	20.2	0.00e+00	0	39	0	1520435200	46	4087
2026-01-15 15:35:21.03	240.05	24.35	-37.7	-39.0	20.3	0.00e+00	0	39	0	1527775232	46	4049
2026-01-15 15:35:22.02	240.31	24.42	-37.6	-39.0	20.3	0.00e+00	0	39	0	1535115264	46	4013
2026-01-15 15:35:23.01	240.57	24.48	-37.6	-38.9	20.4	0.00e+00	0	39	0	1541406720	46	4004
2026-01-15 15:35:24.01	240.83	24.55	-37.6	-38.9	20.3	0.00e+00	0	39	0	1548746752	46	4001
2026-01-15 15:35:25.00	241.09	24.62	-37.6	-38.9	20.4	0.00e+00	0	39	0	1556086784	46	3973
2026-01-15 15:35:25.99	241.35	24.69	-37.5	-38.9	20.4	0.00e+00	0	39	0	1563426816	45	4199
2026-01-15 15:35:26.98	241.61	24.76	-37.6	-38.9	20.3	0.00e+00	0	39	0	1570766848	45	4242
2026-01-15 15:35:27.98	241.87	24.82	-37.6	-39.0	20.3	0.00e+00	0	39	0	1578106880	45	4251
2026-01-15 15:35:28.97	242.14	24.89	-37.6	-38.9	20.4	0.00e+00	0	39	0	1585446912	45	4240
2026-01-15 15:35:29.96	242.40	24.95	-37.6	-38.9	20.4	0.00e+00	0	39	0	1592786944	45	4220
2026-01-15 15:35:30.96	242.67	25.02	-37.6	-38.9	20.4	0.00e+00	0	39	0	1599078400	45	4236
2026-01-15 15:35:31.95	242.94	25.08	-37.5	-38.9	20.5	0.00e+00	0	39	0	1606418432	45	4205
2026-01-15 15:35:32.94	243.20	25.15	-37.6	-38.9	20.4	0.00e+00	0	39	0	1613758464	45	4231
2026-01-15 15:35:33.93	243.47	25.21	-37.6	-39.0	20.4	0.00e+00	0	39	0	1621098496	45	4252
2026-01-15 15:35:34.93	243.74	25.28	-37.6	-39.0	20.4	0.00e+00	0	39	0	1628438528	45	4263
2026-01-15 15:35:35.92	244.02	25.34	-38.0	-39.0	20.8	0.00e+00	0	39	0	1634729984	45	4253
2026-01-15 15:35:36.91	244.29	25.40	-38.1	-39.1	20.7	0.00e+00	0	39	0	1642070016	45	4300
2026-01-15 15:35:37.91	244.56	25.46	-38.2	-39.1	20.7	0.00e+00	0	39	0	1649410048	45	4339
2026-01-15 15:35:38.90	244.84	25.52	-38.2	-39.1	20.7	0.00e+00	0	39	0	1656750080	46	4095
2026-01-15 15:35:39.89	245.11	25.59	-38.3	-39.3	20.6	0.00e+00	0	39	0	1664090112	46	4149
2026-01-15 15:35:40.88	245.39	25.65	-38.3	-39.2	20.6	0.00e+00	0	39	0	1671430144	46	4128
2026-01-15 15:35:41.88	245.67	25.71	-38.2	-39.2	20.7	0.00e+00	0	39	0	1677721600	46	4107
2026-01-15 15:35:42.87	245.95	25.76	-38.1	-39.0	20.8	0.00e+00	0	39	0	1685061632	46	4040
2026-01-15 15:35:43.86	246.23	25.82	-38.0	-39.0	20.9	0.00e+00	0	39	0	1692401664	46	4013
2026-01-15 15:35:44.86	246.51	25.88	-38.0	-39.0	20.8	0.00e+00	0	39	0	1699741696	46	4013
2026-01-15 15:35:45.85	246.79	25.94	-38.1	-39.0	20.8	0.00e+00	0	39	0	1707081728	46	4035
2026-01-15 15:35:46.84	247.07	25.99	-38.0	-39.0	20.8	0.00e+00	0	39	0	1714421760	46	4010
2026-01-15 15:35:47.84	247.36	26.05	-37.9	-38.8	21.0	0.00e+00	0	39	0	1720713216	46	3938
2026-01-15 15:35:48.83	247.64	26.11	-37.7	-38.6	21.1	0.00e+00	0	39	0	1728053248	46	3863
2026-01-15 15:35:49.82	247.93	26.16	-37.8	-38.7	21.1	0.00e+00	0	39	0	1735393280	46	3885
2026-01-15 15:35:50.81	248.21	26.21	-37.8	-38.7	21.0	0.00e+00	0	39	0	1742733312	46	3908
2026-01-15 15:35:51.81	248.50	26.27	-37.7	-38.6	21.1	0.00e+00	0	39	0	1750073344	46	3851
2026-01-15 15:35:52.80	248.79	26.32	-37.7	-38.6	21.1	0.00e+00	0	39	0	1756364800	46	3848
2026-01-15 15:35:53.79	249.08	26.37	-37.7	-38.6	21.1	0.00e+00	0	39	0	1763704832	46	3861
2026-01-15 15:35:54.79	249.37	26.42	-37.6	-38.5	21.3	0.00e+00	0	39	0	1771044864	46	3793
2026-01-15 15:35:55.78	249.66	26.48	-37.6	-38.5	21.3	0.00e+00	0	39	0	1778384896	45	4014
2026-01-15 15:35:56.77	249.96	26.53	-37.6	-38.5	21.2	0.00e+00	0	39	0	1785724928	45	4045
2026-01-15 15:35:57.77	250.25	26.57	-37.6	-38.5	21.2	0.00e+00	0	39	0	1793064960	45	4050
2026-01-15 15:35:58.76	250.55	26.62	-37.7	-38.7	21.1	0.00e+00	0	39	0	1799356416	45	4102
2026-01-15 15:35:59.75	250.84	26.67	-37.7	-38.6	21.1	0.00e+00	0	39	0	1806696448	45	4092
2026-01-15 15:36:00.74	251.13	26.72	-37.8	-38.7	21.0	0.00e+00	0	39	0	1814036480	45	4124
2026-01-15 15:36:01.74	251.43	26.77	-37.9	-38.8	21.0	0.00e+00	0	39	0	1821376512	45	4178
2026-01-15 15:36:02.73	251.73	26.81	-37.7	-38.6	21.2	0.00e+00	0	39	0	1828716544	45	4055
2026-01-15 15:36:03.72	252.03	26.86	-37.7	-38.6	21.2	0.00e+00	0	39	0	1836056576	45	4069
2026-01-15 15:36:04.72	252.33	26.90	-37.7	-38.6	21.1	0.00e+00	0	39	0	1843396608	45	4089
2026-01-15 15:36:05.71	252.63	26.94	-37.8	-38.7	21.1	0.00e+00	0	39	0	1849688064	45	4131
2026-01-15 15:36:06.70	252.93	26.99	-37.9	-38.8	21.0	0.00e+00	0	39	0	1857028096	45	4178
2026-01-15 15:36:07.69	253.23	27.03	-37.9	-38.9	20.9	0.00e+00	0	39	0	1864368128	45	4210
2026-01-15 15:36:08.69	253.53	27.07	-38.0	-38.9	20.9	0.00e+00	0	39	0	1871708160	45	4236
2026-01-15 15:36:09.68	253.84	27.11	-37.9	-38.9	20.9	0.00e+00	0	39	0	1879048192	45	4213
2026-01-15 15:36:10.67	254.14	27.15	-37.9	-38.8	20.9	0.00e+00	0	39	0	1886388224	45	4192
2026-01-15 15:36:11.66	254.44	27.19	-37.9	-38.8	20.9	0.00e+00	0	39	0	1893728256	45	4187
2026-01-15 15:36:12.66	254.75	27.23	-37.9	-38.9	20.9	0.00e+00	0	39	0	1900019712	45	4206
2026-01-15 15:36:13.65	255.06	27.26	-37.9	-38.9	20.9	0.00e+00	0	39	0	1907359744	45	4207
2026-01-15 15:36:14.64	255.36	27.30	-37.9	-38.8	21.0	0.00e+00	0	39	0	1914699776	45	4161
2026-01-15 15:36:15.64	255.67	27.34	-37.9	-38.8	21.0	0.00e+00	0	39	0	1922039808	45	4187
2026-01-15 15:36:16.63	255.98	27.37	-37.9	-38.8	20.9	0.00e+00	0	39	0	1929379840	45	4189
2026-01-15 15:36:17.62	256.29	27.41	-37.9	-38.8	21.0	0.00e+00	0	39	0	1936719872	45	4174
2026-01-15 15:36:18.62	256.60	27.44	-37.8	-38.7	21.0	0.00e+00	0	39	0	1943011328	45	4141
2026-01-15 15:36:19.61	256.91	27.47	-37.7	-38.7	21.1	0.00e+00	0	39	0	1950351360	45	4110
2026-01-15 15:36:20.60	257.22	27.50	-37.8	-38.8	21.0	0.00e+00	0	39	0	1957691392	45	4156
2026-01-15 15:36:21.59	257.53	27.53	-38.0	-38.9	20.9	0.00e+00	0	39	0	1965031424	45	4213
2026-01-15 15:36:22.59	257.84	27.56	-38.0	-39.0	20.8	0.00e+00	0	39	0	1972371456	45	4256
2026-01-15 15:36:23.58	258.15	27.59	-38.0	-39.0	20.8	0.00e+00	0	39	0	1979711488	45	4259
2026-01-15 15:36:24.57	258.47	27.62	-38.2	-39.2	20.7	0.00e+00	0	39	0	1986002944	46	4113
2026-01-15 15:36:25.57	258.78	27.65	-38.1	-39.0	20.8	0.00e+00	0	39	0	1993342976	46	4038
2026-01-15 15:36:26.56	259.10	27.67	-38.1	-39.0	20.8	0.00e+00	0	39	0	2000683008	46	4051
2026-01-15 15:36:27.55	259.41	27.70	-38.1	-39.0	20.8	0.00e+00	0	39	0	2008023040	46	4026
2026-01-15 15:36:28.54	259.72	27.72	-38.0	-38.9	20.9	0.00e+00	0	39	0	2015363072	46	3993
2026-01-15 15:36:29.54	260.04	27.75	-38.0	-39.0	20.9	0.00e+00	0	39	0	2022703104	46	4005
2026-01-15 15:36:30.53	260.36	27.77	-38.0	-38.9	20.9	0.00e+00	0	39	0	2028994560	46	3990
2026-01-15 15:36:31.52	260.67	27.79	-38.1	-39.0	20.8	0.00e+00	0	39	0	2036334592	46	4027
2026-01-15 15:36:32.51	260.99	27.81	-37.9	-38.8	21.0	0.00e+00	0	39	0	2043674624	46	3951
2026-01-15 15:36:33.51	261.31	27.83	-37.9	-38.9	20.9	0.00e+00	0	39	0	2051014656	46	3967
2026-01-15 15:36:34.50	261.62	27.85	-38.0	-38.9	20.9	0.00e+00	0	39	0	2058354688	46	3994
2026-01-15 15:36:35.49	261.94	27.87	-38.0	-38.9	20.9	0.00e+00	0	39	0	2064646144	46	3988
2026-01-15 15:36:36.48	262.26	27.89	-38.0	-38.9	20.9	0.00e+00	0	39	0	2071986176	46	3989
2026-01-15 15:36:37.48	262.58	27.90	-37.9	-38.9	21.0	0.00e+00	0	39	0	2079326208	46	3963
2026-01-15 15:36:38.47	262.89	27.92	-37.9	-38.8	21.0	0.00e+00	0	39	0	2086666240	46	3949
2026-01-15 15:36:39.46	263.21	27.93	-37.6	-38.5	21.2	0.00e+00	0	39	0	2094006272	46	3820
2026-01-15 15:36:40.46	263.53	27.94	-37.7	-38.7	21.1	0.00e+00	0	39	0	2101346304	46	3879
2026-01-15 15:36:41.45	263.85	27.96	-37.9	-38.8	21.0	0.00e+00	0	39	0	2107637760	46	3924
2026-01-15 15:36:42.44	264.17	27.97	-38.0	-38.9	20.9	0.00e+00	0	39	0	2114977792	46	3989
2026-01-15 15:36:43.44	264.49	27.98	-38.1	-39.0	20.9	0.00e+00	0	39	0	2122317824	46	4026
2026-01-15 15:36:44.43	264.81	27.99	-38.1	-39.0	20.8	0.00e+00	0	39	0	2129657856	46	4039
2026-01-15 15:36:45.42	265.13	28.00	-37.9	-38.8	21.0	0.00e+00	0	39	0	2136997888	46	3956
2026-01-15 15:36:46.41	265.45	28.01	-37.9	-38.8	21.0	0.00e+00	0	39	0	2143289344	46	3943
2026-01-15 15:36:47.40	265.77	28.01	-37.8	-38.7	21.0	0.00e+00	0	39	0	2150629376	46	3891
2026-01-15 15:36:48.40	266.10	28.02	-37.7	-38.6	21.1	0.00e+00	0	39	0	2157969408	46	3854
2026-01-15 15:36:49.39	266.41	28.02	-37.8	-38.7	21.1	0.00e+00	0	39	0	2165309440	46	3904
2026-01-15 15:36:50.38	266.73	28.03	-37.8	-38.7	21.1	0.00e+00	0	39	0	2172649472	46	3885
2026-01-15 15:36:51.38	267.06	28.03	-37.8	-38.7	21.1	0.00e+00	0	39	0	2179989504	46	3892
2026-01-15 15:36:52.37	267.38	28.03	-37.8	-38.7	21.1	0.00e+00	0	39	0	2187329536	46	3893
2026-01-15 15:36:53.36	267.70	28.03	-37.9	-38.8	21.0	0.00e+00	0	39	0	2194669568	46	3924
2026-01-15 15:36:54.35	268.02	28.03	-37.9	-38.8	21.0	0.00e+00	0	39	0	2200961024	46	3958
2026-01-15 15:36:55.35	268.34	28.03	-38.0	-38.9	20.9	0.00e+00	0	39	0	2208301056	46	3996
2026-01-15 15:36:56.34	268.66	28.03	-38.1	-39.0	20.8	0.00e+00	0	39	0	2215641088	46	4032
2026-01-15 15:36:57.33	268.98	28.03	-38.1	-39.0	20.8	0.00e+00	0	39	0	2222981120	46	4047
2026-01-15 15:36:58.33	269.30	28.02	-38.0	-38.9	20.9	0.00e+00	0	39	0	2230321152	46	3980
2026-01-15 15:36:59.32	269.62	28.02	-37.8	-38.8	21.0	0.00e+00	0	39	0	2237661184	46	3917
2026-01-15 15:37:00.31	269.94	28.01	-37.7	-38.6	21.1	0.00e+00	0	39	0	2243952640	46	3866
2026-01-15 15:37:01.31	270.27	28.01	-37.7	-38.6	21.2	0.00e+00	0	39	0	2251292672	46	3850
2026-01-15 15:37:02.30	270.59	28.00	-37.8	-38.7	21.1	0.00e+00	0	39	0	2258632704	46	3875
2026-01-15 15:37:03.29	270.91	27.99	-37.8	-38.7	21.2	0.00e+00	0	39	0	2265972736	46	3874
2026-01-15 15:37:04.28	271.23	27.98	-37.9	-38.9	20.9	0.00e+00	0	39	0	2273312768	46	3973
2026-01-15 15:37:05.28	271.55	27.97	-37.8	-38.8	21.0	0.00e+00	0	39	0	2280652800	46	3914
2026-01-15 15:37:06.27	271.87	27.96	-37.8	-38.7	21.1	0.00e+00	0	39	0	2286944256	46	3885
2026-01-15 15:37:07.26	272.18	27.95	-37.7	-38.6	21.2	0.00e+00	0	39	0	2294284288	46	3865
2026-01-15 15:37:08.25	272.50	27.93	-37.6	-38.5	21.3	0.00e+00	0	39	0	2301624320	46	3811
2026-01-15 15:37:09.25	272.82	27.92	-37.6	-38.6	21.2	0.00e+00	0	39	0	2308964352	45	4059
2026-01-15 15:37:10.24	273.14	27.91	-37.7	-38.6	21.2	0.00e+00	0	39	0	2316304384	45	4067
2026-01-15 15:37:11.23	273.46	27.89	-37.8	-38.7	21.1	0.00e+00	0	39	0	2323644416	45	4115
2026-01-15 15:37:12.23	273.78	27.87	-37.8	-38.7	21.0	0.00e+00	0	39	0	2329935872	45	4140
2026-01-15 15:37:13.22	274.10	27.85	-37.8	-38.8	21.0	0.00e+00	0	39	0	2337275904	45	4151
2026-01-15 15:37:14.21	274.41	27.84	-37.9	-38.8	21.0	0.00e+00	0	39	0	2344615936	45	4163
2026-01-15 15:37:15.20	274.73	27.82	-37.9	-38.9	20.9	0.00e+00	0	39	0	2351955968	45	4201
2026-01-15 15:37:16.20	275.05	27.80	-38.0	-39.0	20.8	0.00e+00	0	39	0	2359296000	45	4262
2026-01-15 15:37:17.19	275.36	27.77	-38.0	-38.9	20.9	0.00e+00	0	39	0	2366636032	45	4224
2026-01-15 15:37:18.18	275.68	27.75	-37.9	-38.8	21.0	0.00e+00	0	39	0	2372927488	45	4176
2026-01-15 15:37:19.18	275.99	27.73	-37.9	-38.8	20.9	0.00e+00	0	39	0	2380267520	45	4186
2026-01-15 15:37:20.17	276.31	27.70	-37.8	-38.8	21.0	0.00e+00	0	39	0	2387607552	45	4154
2026-01-15 15:37:21.16	276.62	27.68	-37.9	-38.9	20.9	0.00e+00	0	39	0	2394947584	45	4202
2026-01-15 15:37:22.15	276.93	27.65	-37.9	-38.8	20.9	0.00e+00	0	39	0	2402287616	45	4191
2026-01-15 15:37:23.15	277.25	27.63	-37.9	-38.9	20.9	0.00e+00	0	39	0	2408579072	45	4211
2026-01-15 15:37:24.14	277.56	27.60	-38.0	-38.9	20.9	0.00e+00	0	39	0	2415919104	45	4224
2026-01-15 15:37:25.13	277.87	27.57	-38.0	-38.9	20.9	0.00e+00	0	39	0	2423259136	45	4233
2026-01-15 15:37:26.13	278.19	27.54	-38.0	-38.9	20.9	0.00e+00	0	39	0	2430599168	45	4212
2026-01-15 15:37:27.12	278.50	27.51	-38.0	-39.0	20.8	0.00e+00	0	39	0	2437939200	45	4255
2026-01-15 15:37:28.11	278.80	27.48	-38.0	-38.9	20.9	0.00e+00	0	39	0	2445279232	45	4219
2026-01-15 15:37:29.10	279.11	27.45	-38.0	-38.9	20.9	0.00e+00	0	39	0	2451570688	45	4233
2026-01-15 15:37:30.10	279.42	27.41	-37.9	-38.8	21.0	0.00e+00	0	39	0	2458910720	45	4159
2026-01-15 15:37:31.09	279.73	27.38	-37.9	-38.8	21.0	0.00e+00	0	39	0	2466250752	45	4165
2026-01-15 15:37:32.08	280.04	27.35	-37.9	-38.8	21.0	0.00e+00	0	39	0	2473590784	45	4173
2026-01-15 15:37:33.07	280.35	27.31	-37.8	-38.7	21.1	0.00e+00	0	39	0	2480930816	45	4132
2026-01-15 15:37:34.07	280.65	27.28	-37.8	-38.7	21.1	0.00e+00	0	39	0	2488270848	45	4136
2026-01-15 15:37:35.06	280.96	27.24	-37.8	-38.7	21.1	0.00e+00	0	39	0	2494562304	45	4123
2026-01-15 15:37:36.05	281.26	27.20	-37.9	-38.8	21.0	0.00e+00	0	39	0	2501902336	45	4163
2026-01-15 15:37:37.05	281.57	27.16	-37.9	-38.9	20.9	0.00e+00	0	39	0	2509242368	45	4204
2026-01-15 15:37:38.04	281.87	27.12	-37.9	-38.9	20.9	0.00e+00	0	39	0	2516582400	45	4197
2026-01-15 15:37:39.03	282.17	27.08	-37.9	-38.8	20.9	0.00e+00	0	39	0	2523922432	45	4184
2026-01-15 15:37:40.02	282.48	27.04	-37.9	-38.8	21.0	0.00e+00	0	39	0	2531262464	45	4170
2026-01-15 15:37:41.02	282.78	27.00	-37.9	-38.9	20.9	0.00e+00	0	39	0	2538602496	45	4203
2026-01-15 15:37:42.01	283.08	26.96	-38.0	-38.9	20.9	0.00e+00	0	39	0	2544893952	45	4221
2026-01-15 15:37:43.00	283.38	26.91	-38.0	-38.9	20.9	0.00e+00	0	39	0	2552233984	45	4239
2026-01-15 15:37:44.00	283.68	26.87	-38.0	-39.0	20.8	0.00e+00	0	39	0	2559574016	45	4248
2026-01-15 15:37:44.99	283.98	26.83	-38.0	-39.0	20.9	0.00e+00	0	39	0	2566914048	45	4247
2026-01-15 15:37:45.98	284.27	26.78	-38.1	-39.0	20.8	0.00e+00	0	39	0	2574254080	45	4271
2026-01-15 15:37:46.98	284.57	26.73	-38.2	-39.1	20.7	0.00e+00	0	39	0	2581594112	45	4338
2026-01-15 15:37:47.97	284.86	26.69	-38.1	-39.1	20.7	0.00e+00	0	39	0	2588934144	45	4298
2026-01-15 15:37:48.96	285.16	26.64	-38.1	-39.0	20.7	0.00e+00	0	39	0	2595225600	45	4284
2026-01-15 15:37:49.95	285.45	26.59	-38.1	-39.0	20.8	0.00e+00	0	39	0	2602565632	45	4275
2026-01-15 15:37:50.95	285.75	26.54	-38.1	-39.0	20.8	0.00e+00	0	39	0	2609905664	45	4269
2026-01-15 15:37:51.94	286.04	26.49	-38.0	-38.9	20.9	0.00e+00	0	39	0	2617245696	45	4219
2026-01-15 15:37:52.93	286.33	26.44	-38.0	-38.9	20.8	0.00e+00	0	39	0	2624585728	45	4226
2026-01-15 15:37:53.93	286.62	26.39	-38.0	-38.9	20.9	0.00e+00	0	39	0	2631925760	45	4210
2026-01-15 15:37:54.92	286.91	26.34	-37.8	-38.7	21.1	0.00e+00	0	39	0	2638217216	45	4108
2026-01-15 15:37:55.91	287.20	26.29	-37.8	-38.7	21.1	0.00e+00	0	39	0	2645557248	45	4111
2026-01-15 15:37:56.91	287.49	26.23	-37.9	-38.8	21.0	0.00e+00	0	39	0	2652897280	45	4180
2026-01-15 15:37:57.90	287.77	26.18	-37.9	-38.8	21.0	0.00e+00	0	39	0	2660237312	45	4173
2026-01-15 15:37:58.89	288.06	26.13	-38.0	-39.0	20.8	0.00e+00	0	39	0	2667577344	45	4245
2026-01-15 15:37:59.89	288.34	26.07	-38.1	-39.0	20.8	0.00e+00	0	39	0	2673868800	45	4273
2026-01-15 15:38:00.88	288.62	26.01	-38.2	-39.1	20.7	0.00e+00	0	39	0	2681208832	45	4327
2026-01-15 15:38:01.87	288.91	25.96	-38.1	-39.0	20.8	0.00e+00	0	39	0	2688548864	45	4272
2026-01-15 15:38:02.86	289.19	25.90	-38.1	-39.1	20.8	0.00e+00	0	39	0	2695888896	45	4294
2026-01-15 15:38:03.86	289.47	25.84	-38.0	-39.1	20.7	0.00e+00	0	39	0	2703228928	45	4302
2026-01-15 15:38:04.85	289.75	25.79	-38.1	-39.2	20.6	0.00e+00	0	39	0	2710568960	45	4380
2026-01-15 15:38:05.84	290.03	25.73	-38.0	-39.3	20.6	0.00e+00	0	39	0	2716860416	45	4393
2026-01-15 15:38:06.83	290.30	25.67	-37.9	-39.3	20.5	0.00e+00	0	39	0	2724200448	45	4398
2026-01-15 15:38:07.83	290.58	25.61	-37.9	-39.4	20.3	0.00e+00	0	39	0	2731540480	45	4470
2026-01-15 15:38:08.82	290.85	25.55	-37.6	-39.3	20.4	0.00e+00	0	39	0	2738880512	45	4395
2026-01-15 15:38:09.81	291.13	25.49	-37.5	-39.1	20.6	0.00e+00	0	39	0	2746220544	45	4318
2026-01-15 15:38:10.81	291.40	25.43	-37.4	-38.9	20.7	0.00e+00	0	39	0	2753560576	45	4225
2026-01-15 15:38:11.80	291.68	25.37	-37.5	-38.8	20.9	0.00e+00	0	39	0	2759852032	45	4175
2026-01-15 15:38:12.79	291.95	25.30	-37.6	-38.9	20.8	0.00e+00	0	39	0	2767192064	45	4203
2026-01-15 15:38:13.79	292.22	25.24	-37.7	-38.9	20.8	0.00e+00	0	39	0	2774532096	45	4229
2026-01-15 15:38:14.78	292.49	25.18	-37.9	-39.1	20.7	0.00e+00	0	39	0	2781872128	45	4295
2026-01-15 15:38:15.77	292.75	25.11	-38.0	-39.1	20.6	0.00e+00	0	39	0	2789212160	45	4336
2026-01-15 15:38:16.77	293.02	25.05	-38.1	-39.2	20.5	0.00e+00	0	39	0	2796552192	45	4385
2026-01-15 15:38:17.76	293.29	24.98	-38.2	-39.2	20.6	0.00e+00	0	39	0	2802843648	45	4378
2026-01-15 15:38:18.75	293.55	24.92	-38.3	-39.3	20.5	0.00e+00	0	39	0	2810183680	46	4165
2026-01-15 15:38:19.74	293.81	24.85	-38.4	-39.4	20.5	0.00e+00	0	39	0	2817523712	46	4194
2026-01-15 15:38:20.73	294.08	24.79	-38.4	-39.4	20.4	0.00e+00	0	39	0	2824863744	46	4220
2026-01-15 15:38:21.73	294.34	24.72	-38.4	-39.4	20.4	0.00e+00	0	39	0	2832203776	46	4231
2026-01-15 15:38:22.72	294.60	24.65	-38.4	-39.4	20.5	0.00e+00	0	39	0	2839543808	46	4209
2026-01-15 15:38:23.71	294.86	24.58	-38.4	-39.4	20.4	0.00e+00	0	39	0	2846883840	46	4222
2026-01-15 15:38:24.71	295.12	24.52	-38.3	-39.3	20.5	0.00e+00	0	39	0	2853175296	46	4157
2026-01-15 15:38:25.70	295.37	24.45	-38.4	-39.4	20.5	0.00e+00	0	39	0	2860515328	46	4203
2026-01-15 15:38:26.69	295.63	24.38	-38.5	-39.5	20.3	0.00e+00	0	39	0	2867855360	46	4271
2026-01-15 15:38:27.69	295.89	24.31	-38.4	-39.4	20.5	0.00e+00	0	39	0	2875195392	46	4220
2026-01-15 15:38:28.68	296.14	24.24	-38.4	-39.3	20.5	0.00e+00	0	39	0	2882535424	46	4180
2026-01-15 15:38:29.67	296.39	24.17	-38.4	-39.4	20.5	0.00e+00	0	39	0	2889875456	46	4214
2026-01-15 15:38:30.66	296.64	24.10	-38.4	-39.3	20.5	0.00e+00	0	39	0	2896166912	46	4192
2026-01-15 15:38:31.66	296.89	24.03	-38.3	-39.3	20.6	0.00e+00	0	39	0	2903506944	46	4155
2026-01-15 15:38:32.65	297.14	23.96	-38.3	-39.2	20.6	0.00e+00	0	39	0	2910846976	46	4143
2026-01-15 15:38:33.64	297.39	23.89	-38.4	-39.4	20.4	0.00e+00	0	39	0	2918187008	46	4207
2026-01-15 15:38:34.63	297.64	23.82	-38.4	-39.3	20.5	0.00e+00	0	39	0	2925527040	46	4173
2026-01-15 15:38:35.63	297.88	23.74	-38.4	-39.4	20.4	0.00e+00	0	39	0	2932867072	46	4214
2026-01-15 15:38:36.62	298.13	23.67	-38.6	-39.6	20.3	0.00e+00	0	39	0	2939158528	46	4302
2026-01-15 15:38:37.61	298.37	23.60	-38.6	-39.6	20.3	0.00e+00	0	39	0	2946498560	46	4315
2026-01-15 15:38:38.61	298.62	23.52	-38.7	-39.6	20.2	0.00e+00	0	39	0	2953838592	46	4335
2026-01-15 15:38:39.60	298.86	23.45	-38.5	-39.5	20.3	0.00e+00	0	39	0	2961178624	46	4266
2026-01-15 15:38:40.59	299.10	23.38	-38.5	-39.5	20.4	0.00e+00	0	39	0	2968518656	46	4254
2026-01-15 15:38:41.59	299.34	23.30	-38.5	-39.5	20.4	0.00e+00	0	39	0	2975858688	46	4249
2026-01-15 15:38:42.58	299.58	23.23	-38.6	-39.6	20.3	0.00e+00	0	39	0	2982150144	46	4310
2026-01-15 15:38:43.57	299.81	23.15	-38.6	-39.5	20.3	0.00e+00	0	39	0	2989490176	46	4280
2026-01-15 15:38:44.56	300.05	23.08	-38.6	-39.6	20.3	0.00e+00	0	39	0	2996830208	46	4302
2026-01-15 15:38:45.56	300.28	23.00	-38.7	-39.6	20.2	0.00e+00	0	39	0	3004170240	46	4339
2026-01-15 15:38:46.55	300.52	22.93	-38.6	-39.6	20.2	0.00e+00	0	39	0	3011510272	46	4319
2026-01-15 15:38:47.54	300.75	22.85	-38.7	-39.7	20.1	0.00e+00	0	39	0	3018850304	46	4377
2026-01-15 15:38:48.54	300.98	22.78	-38.7	-39.7	20.2	0.00e+00	0	39	0	3025141760	47	4106
2026-01-15 15:38:49.53	301.21	22.70	-38.8	-39.8	20.1	0.00e+00	0	39	0	3032481792	47	4161
2026-01-15 15:38:50.52	301.44	22.62	-38.8	-39.7	20.1	0.00e+00	0	39	0	3039821824	47	4138
2026-01-15 15:38:51.51	301.67	22.55	-38.7	-39.7	20.0	0.00e+00	0	39	0	3047161856	47	4099
2026-01-15 15:38:52.51	301.90	22.47	-38.7	-39.7	20.1	0.00e+00	0	39	0	3054501888	47	4133
2026-01-15 15:38:53.50	302.12	22.39	-38.8	-39.7	20.1	0.00e+00	0	39	0	3060793344	47	4141
2026-01-15 15:38:54.49	302.35	22.32	-38.7	-39.6	20.2	0.00e+00	0	39	0	3068133376	47	4090
2026-01-15 15:38:55.49	302.57	22.24	-38.6	-39.6	20.2	0.00e+00	0	39	0	3075473408	47	4071
2026-01-15 15:38:56.48	302.79	22.16	-38.6	-39.6	20.2	0.00e+00	0	39	0	3082813440	47	4075
2026-01-15 15:38:57.47	303.01	22.08	-38.6	-39.6	20.2	0.00e+00	0	39	0	3090153472	47	4071
2026-01-15 15:38:58.46	303.23	22.01	-38.6	-39.5	20.3	0.00e+00	0	39	0	3097493504	47	4044
2026-01-15 15:38:59.46	303.46	21.93	-38.7	-39.6	20.2	0.00e+00	0	39	0	3103784960	47	4087
2026-01-15 15:39:00.45	303.67	21.85	-38.8	-39.7	20.1	0.00e+00	0	39	0	3111124992	47	4145
2026-01-15 15:39:01.44	303.89	21.77	-38.8	-39.8	20.0	0.00e+00	0	39	0	3118465024	47	4166
2026-01-15 15:39:02.43	304.11	21.69	-38.9	-39.9	20.0	0.00e+00	0	39	0	3125805056	47	4218
2026-01-15 15:39:03.43	304.32	21.61	-38.9	-39.9	19.9	0.00e+00	0	39	0	3133145088	47	4231
2026-01-15 15:39:04.42	304.54	21.53	-39.0	-40.0	19.9	0.00e+00	0	39	0	3140485120	47	4243
2026-01-15 15:39:05.41	304.75	21.46	-39.0	-40.0	19.9	0.00e+00	0	39	0	3146776576	47	4273
2026-01-15 15:39:06.41	304.96	21.38	-39.0	-40.0	19.9	0.00e+00	0	39	0	3154116608	47	4257
2026-01-15 15:39:07.40	305.17	21.30	-39.0	-40.0	19.8	0.00e+00	0	39	0	3161456640	47	4291
2026-01-15 15:39:08.39	305.38	21.22	-39.1	-40.1	19.7	0.00e+00	0	39	0	3168796672	47	4339
2026-01-15 15:39:09.39	305.59	21.14	-39.1	-40.2	19.7	0.00e+00	0	39	0	3176136704	47	4346
2026-01-15 15:39:10.38	305.80	21.06	-39.1	-40.1	19.7	0.00e+00	0	39	0	3183476736	47	4315
2026-01-15 15:39:11.37	306.00	20.98	-39.0	-40.1	19.8	0.00e+00	0	39	0	3190816768	47	4293
2026-01-15 15:39:12.36	306.21	20.90	-39.0	-40.0	19.9	0.00e+00	0	39	0	3198156800	47	4254
2026-01-15 15:39:13.36	306.42	20.82	-39.0	-40.0	19.8	0.00e+00	0	39	0	3204448256	47	4285
2026-01-15 15:39:14.35	306.62	20.74	-39.0	-40.1	19.8	0.00e+00	0	39	0	3211788288	47	4292
2026-01-15 15:39:15.34	306.82	20.66	-39.1	-40.2	19.7	0.00e+00	0	39	0	3219128320	47	4342
2026-01-15 15:39:16.34	307.02	20.57	-39.1	-40.1	19.7	0.00e+00	0	39	0	3226468352	47	4317
2026-01-15 15:39:17.33	307.22	20.49	-39.0	-40.0	19.8	0.00e+00	0	39	0	3233808384	47	4279
2026-01-15 15:39:18.32	307.42	20.41	-39.0	-40.0	19.8	0.00e+00	0	39	0	3241148416	47	4286
2026-01-15 15:39:19.31	307.62	20.33	-39.1	-40.1	19.8	0.00e+00	0	39	0	3247439872	47	4303
2026-01-15 15:39:20.31	307.82	20.25	-39.1	-40.1	19.8	0.00e+00	0	39	0	3254779904	47	4311
2026-01-15 15:39:21.30	308.01	20.17	-39.1	-40.1	19.7	0.00e+00	0	39	0	3262119936	47	4311
2026-01-15 15:39:22.29	308.21	20.09	-39.2	-40.2	19.6	0.00e+00	0	39	0	3269459968	47	4366
2026-01-15 15:39:23.29	308.40	20.01	-39.2	-40.2	19.6	0.00e+00	0	39	0	3276800000	47	4370
2026-01-15 15:39:24.28	308.60	19.93	-39.5	-40.5	19.6	0.00e+00	0	39	0	3284140032	48	4288
2026-01-15 15:39:25.27	308.79	19.85	-39.6	-40.6	19.6	0.00e+00	0	39	0	3290431488	48	4317
2026-01-15 15:39:26.26	308.98	19.77	-39.6	-40.7	19.5	0.00e+00	0	39	0	3297771520	48	4357
2026-01-15 15:39:27.26	309.17	19.69	-39.7	-40.8	19.4	0.00e+00	0	39	0	3305111552	48	4402
2026-01-15 15:39:28.25	309.36	19.60	-39.7	-40.8	19.4	0.00e+00	0	39	0	3312451584	48	4401
2026-01-15 15:39:29.24	309.55	19.52	-39.7	-40.8	19.4	0.00e+00	0	39	0	3319791616	48	4409
2026-01-15 15:39:30.23	309.73	19.44	-39.6	-40.7	19.5	0.00e+00	0	39	0	3326083072	48	4351
2026-01-15 15:39:31.23	309.92	19.36	-39.5	-40.6	19.6	0.00e+00	0	39	0	3333423104	48	4295
2026-01-15 15:39:32.22	310.11	19.28	-39.6	-40.6	19.5	0.00e+00	0	39	0	3340763136	48	4323
2026-01-15 15:39:33.21	310.29	19.20	-39.5	-40.6	19.6	0.00e+00	0	39	0	3348103168	48	4301
2026-01-15 15:39:34.21	310.48	19.12	-39.3	-40.3	19.8	0.00e+00	0	39	0	3355443200	48	4177
2026-01-15 15:39:35.20	310.66	19.03	-39.2	-40.3	19.9	0.00e+00	0	39	0	3362783232	48	4150
2026-01-15 15:39:36.19	310.84	18.95	-39.3	-40.3	19.8	0.00e+00	0	39	0	3369074688	48	4181
2026-01-15 15:39:37.19	311.02	18.87	-39.2	-40.2	19.9	0.00e+00	0	39	0	3376414720	48	4136
2026-01-15 15:39:38.18	311.20	18.79	-39.3	-40.3	19.8	0.00e+00	0	39	0	3383754752	48	4151
2026-01-15 15:39:39.17	311.38	18.71	-39.3	-40.3	19.8	0.00e+00	0	39	0	3391094784	48	4158
2026-01-15 15:39:40.16	311.56	18.63	-39.4	-40.4	19.7	0.00e+00	0	39	0	3398434816	48	4207
2026-01-15 15:39:41.16	311.73	18.55	-39.5	-40.5	19.6	0.00e+00	0	39	0	3405774848	48	4269
2026-01-15 15:39:42.15	311.91	18.46	-39.6	-40.7	19.5	0.00e+00	0	39	0	3412066304	48	4350
2026-01-15 15:39:43.14	312.08	18.38	-39.9	-40.9	19.3	0.00e+00	0	39	0	3419406336	49	4216
2026-01-15 15:39:44.14	312.26	18.30	-40.0	-41.0	19.1	0.00e+00	0	39	0	3426746368	49	4269
2026-01-15 15:39:45.13	312.43	18.22	-40.1	-41.1	19.0	0.00e+00	0	39	0	3434086400	49	4340
2026-01-15 15:39:46.12	312.60	18.14	-40.1	-41.2	19.0	0.00e+00	0	39	0	3441426432	49	4359
2026-01-15 15:39:47.11	312.78	18.06	-40.1	-41.2	19.0	0.00e+00	0	39	0	3448766464	49	4364
2026-01-15 15:39:48.11	312.95	17.98	-40.1	-41.2	19.0	0.00e+00	0	39	0	3455057920	49	4353
2026-01-15 15:39:49.10	313.12	17.90	-40.0	-41.0	19.1	0.00e+00	0	39	0	3462397952	49	4291
2026-01-15 15:39:50.09	313.28	17.81	-39.9	-40.9	19.2	0.00e+00	0	39	0	3469737984	49	4225
2026-01-15 15:39:51.09	313.45	17.73	-39.7	-40.8	19.4	0.00e+00	0	39	0	3477078016	49	4154
2026-01-15 15:39:52.08	313.62	17.65	-39.7	-40.7	19.4	0.00e+00	0	39	0	3484418048	49	4140
2026-01-15 15:39:53.07	313.79	17.57	-39.6	-40.6	19.5	0.00e+00	0	39	0	3491758080	49	4094
2026-01-15 15:39:54.07	313.95	17.49	-39.6	-40.6	19.4	0.00e+00	0	39	0	3499098112	49	4097
2026-01-15 15:39:55.06	314.12	17.41	-39.7	-40.7	19.4	0.00e+00	0	39	0	3505389568	49	4115
2026-01-15 15:39:56.05	314.28	17.33	-39.5	-40.5	19.6	0.00e+00	0	39	0	3512729600	49	4034
2026-01-15 15:39:57.04	314.44	17.25	-39.5	-40.6	19.6	0.00e+00	0	39	0	3520069632	49	4055
2026-01-15 15:39:58.04	314.60	17.17	-39.6	-40.6	19.5	0.00e+00	0	39	0	3527409664	49	4096
2026-01-15 15:39:59.03	314.77	17.09	-39.5	-40.5	19.6	0.00e+00	0	39	0	3534749696	49	4012
2026-01-15 15:40:00.02	314.92	17.01	-39.5	-40.5	19.6	0.00e+00	0	39	0	3542089728	49	4043
2026-01-15 15:40:01.02	315.09	16.92	-39.6	-40.7	19.4	0.00e+00	0	39	0	3548381184	49	4100
2026-01-15 15:40:02.01	315.24	16.84	-39.7	-40.7	19.4	0.00e+00	0	39	0	3555721216	49	4121
2026-01-15 15:40:03.00	315.40	16.76	-39.8	-40.9	19.2	0.00e+00	0	39	0	3563061248	49	4211
2026-01-15 15:40:04.00	315.56	16.68	-40.0	-41.0	19.1	0.00e+00	0	39	0	3570401280	49	4285
2026-01-15 15:40:04.99	315.71	16.60	-40.1	-41.2	18.9	0.00e+00	0	39	0	3577741312	49	4382
2026-01-15 15:40:05.98	315.87	16.52	-40.3	-41.4	18.8	0.00e+00	0	39	0	3585081344	49	4454
2026-01-15 15:40:06.97	316.02	16.44	-40.4	-41.5	18.6	0.00e+00	0	39	0	3591372800	50	4287
2026-01-15 15:40:07.97	316.18	16.36	-40.5	-41.6	18.6	0.00e+00	0	39	0	3598712832	50	4313
2026-01-15 15:40:08.96	316.33	16.28	-40.5	-41.7	18.5	0.00e+00	0	39	0	3606052864	50	4360
2026-01-15 15:40:09.95	316.48	16.20	-40.7	-41.8	18.3	0.00e+00	0	39	0	3613392896	50	4438
2026-01-15 15:40:10.95	316.63	16.12	-40.6	-41.8	18.4	0.00e+00	0	39	0	3620732928	50	4419
2026-01-15 15:40:11.94	316.78	16.04	-40.6	-41.8	18.3	0.00e+00	0	39	0	3628072960	50	4425
2026-01-15 15:40:12.93	316.93	15.96	-40.5	-41.7	18.5	0.00e+00	0	39	0	3634364416	50	4355
2026-01-15 15:40:13.92	317.08	15.88	-40.5	-41.6	18.5	0.00e+00	0	39	0	3641704448	50	4332
2026-01-15 15:40:14.92	317.23	15.80	-40.4	-41.5	18.6	0.00e+00	0	39	0	3649044480	50	4276
2026-01-15 15:40:15.91	317.38	15.72	-40.4	-41.6	18.5	0.00e+00	0	39	0	3656384512	50	4316
2026-01-15 15:40:16.90	317.53	15.64	-40.1	-41.3	18.9	0.00e+00	0	39	0	3663724544	50	4150
2026-01-15 15:40:17.90	317.67	15.56	-40.0	-41.2	18.9	0.00e+00	0	39	0	3670016000	50	4110
2026-01-15 15:40:18.89	317.82	15.48	-40.0	-41.1	19.0	0.00e+00	0	39	0	3677356032	50	4097
2026-01-15 15:40:19.88	317.96	15.40	-39.9	-41.0	19.1	0.00e+00	0	39	0	3684696064	50	4029
2026-01-15 15:40:20.88	318.11	15.33	-39.9	-41.1	19.0	0.00e+00	0	39	0	3692036096	50	4053
2026-01-15 15:40:21.87	318.25	15.25	-40.0	-41.1	19.0	0.00e+00	0	39	0	3699376128	50	4058
2026-01-15 15:40:22.86	318.39	15.17	-40.0	-41.1	19.0	0.00e+00	0	39	0	3706716160	50	4077
2026-01-15 15:40:23.86	318.53	15.09	-40.1	-41.2	18.9	0.00e+00	0	39	0	3713007616	50	4130
2026-01-15 15:40:24.85	318.67	15.01	-40.2	-41.3	18.8	0.00e+00	0	39	0	3720347648	50	4160
2026-01-15 15:40:25.84	318.81	14.93	-40.3	-41.4	18.7	0.00e+00	0	39	0	3727687680	50	4204
2026-01-15 15:40:26.83	318.95	14.85	-40.3	-41.5	18.7	0.00e+00	0	39	0	3735027712	50	4247
2026-01-15 15:40:27.83	319.09	14.77	-40.5	-41.6	18.5	0.00e+00	0	39	0	3742367744	50	4304
2026-01-15 15:40:28.82	319.23	14.70	-40.5	-41.7	18.5	0.00e+00	0	39	0	3749707776	50	4341
2026-01-15 15:40:29.81	319.37	14.62	-40.6	-41.7	18.4	0.00e+00	0	39	0	3755999232	50	4366
2026-01-15 15:40:30.81	319.50	14.54	-40.6	-41.7	18.4	0.00e+00	0	39	0	3763339264	50	4383
2026-01-15 15:40:31.80	319.64	14.46	-40.7	-41.9	18.3	0.00e+00	0	39	0	3770679296	50	4453
2026-01-15 15:40:32.79	319.77	14.38	-40.7	-41.8	18.3	0.00e+00	0	39	0	3778019328	50	4413
2026-01-15 15:40:33.79	319.91	14.31	-40.7	-41.8	18.3	0.00e+00	0	39	0	3785359360	51	4191
2026-01-15 15:40:34.78	320.04	14.23	-40.7	-41.9	18.2	0.00e+00	0	39	0	3792699392	51	4209
2026-01-15 15:40:35.77	320.17	14.15	-40.8	-41.9	18.2	0.00e+00	0	39	0	3800039424	51	4227
2026-01-15 15:40:36.77	320.31	14.07	-40.7	-41.8	18.3	0.00e+00	0	39	0	3807379456	51	4176
2026-01-15 15:40:37.76	320.44	14.00	-40.7	-41.8	18.2	0.00e+00	0	39	0	3813670912	51	4192
2026-01-15 15:40:38.75	320.57	13.92	-40.7	-41.8	18.3	0.00e+00	0	39	0	3821010944	51	4183
2026-01-15 15:40:39.74	320.70	13.84	-40.6	-41.8	18.3	0.00e+00	0	39	0	3828350976	51	4155
2026-01-15 15:40:40.73	320.83	13.76	-40.6	-41.7	18.3	0.00e+00	0	39	0	3835691008	51	4137
2026-01-15 15:40:41.73	320.96	13.69	-40.6	-41.7	18.3	0.00e+00	0	39	0	3843031040	51	4137
2026-01-15 15:40:42.72	321.09	13.61	-40.6	-41.8	18.3	0.00e+00	0	39	0	3850371072	51	4149
2026-01-15 15:40:43.71	321.22	13.53	-40.6	-41.7	18.3	0.00e+00	0	39	0	3856662528	51	4141
2026-01-15 15:40:44.71	321.34	13.46	-40.6	-41.7	18.4	0.00e+00	0	39	0	3864002560	51	4124
2026-01-15 15:40:45.70	321.47	13.38	-40.5	-41.6	18.4	0.00e+00	0	39	0	3871342592	51	4098
2026-01-15 15:40:46.69	321.60	13.30	-40.6	-41.7	18.3	0.00e+00	0	39	0	3878682624	51	4140
2026-01-15 15:40:47.69	321.72	13.23	-40.6	-41.7	18.3	0.00e+00	0	39	0	3886022656	51	4142
2026-01-15 15:40:48.68	321.85	13.15	-40.7	-41.8	18.2	0.00e+00	0	39	0	3893362688	51	4178
2026-01-15 15:40:49.67	321.97	13.08	-40.7	-41.9	18.2	0.00e+00	0	39	0	3899654144	51	4201
2026-01-15 15:40:50.67	322.09	13.00	-40.7	-41.9	18.2	0.00e+00	0	39	0	3906994176	51	4201
2026-01-15 15:40:51.66	322.22	12.92	-40.8	-41.9	18.1	0.00e+00	0	39	0	3914334208	51	4235
2026-01-15 15:40:52.65	322.34	12.85	-40.7	-41.9	18.2	0.00e+00	0	39	0	3921674240	51	4196
2026-01-15 15:40:53.64	322.46	12.77	-40.9	-42.0	18.0	0.00e+00	0	39	0	3929014272	51	4282
2026-01-15 15:40:54.64	322.58	12.70	-40.7	-41.9	18.2	0.00e+00	0	39	0	3935305728	51	4194
2026-01-15 15:40:55.63	322.70	12.62	-40.8	-41.9	18.2	0.00e+00	0	39	0	3942645760	51	4218
2026-01-15 15:40:56.62	322.82	12.55	-40.7	-41.9	18.2	0.00e+00	0	39	0	3949985792	51	4199
2026-01-15 15:40:57.61	322.94	12.47	-40.8	-42.0	18.1	0.00e+00	0	39	0	3957325824	51	4279
2026-01-15 15:40:58.61	323.06	12.40	-40.8	-42.0	18.1	0.00e+00	0	39	0	3964665856	51	4274
2026-01-15 15:40:59.60	323.18	12.32	-40.8	-42.0	18.0	0.00e+00	0	39	0	3972005888	51	4291
2026-01-15 15:41:00.59	323.30	12.25	-40.7	-42.0	18.0	0.00e+00	0	39	0	3978297344	51	4276
2026-01-15 15:41:01.58	323.41	12.17	-40.7	-42.0	18.0	0.00e+00	0	39	0	3985637376	51	4289
2026-01-15 15:41:02.58	323.53	12.10	-40.7	-42.1	18.0	0.00e+00	0	39	0	3992977408	51	4318
2026-01-15 15:41:03.57	323.64	12.03	-40.8	-42.2	17.9	0.00e+00	0	39	0	4000317440	51	4372
2026-01-15 15:41:04.56	323.76	11.95	-40.8	-42.2	17.9	0.00e+00	0	39	0	4007657472	51	4342
2026-01-15 15:41:05.56	323.88	11.88	-40.8	-42.1	17.9	0.00e+00	0	39	0	4014997504	51	4336
2026-01-15 15:41:06.55	323.99	11.80	-40.8	-42.1	17.9	0.00e+00	0	39	0	4021288960	51	4323
2026-01-15 15:41:07.54	324.10	11.73	-40.9	-42.2	17.8	0.00e+00	0	39	0	4028628992	51	4370
2026-01-15 15:41:08.54	324.22	11.66	-40.9	-42.2	17.8	0.00e+00	0	39	0	4035969024	51	4376
2026-01-15 15:41:09.53	324.33	11.58	-41.0	-42.3	17.7	0.00e+00	0	39	0	4043309056	51	4415
2026-01-15 15:41:10.52	324.44	11.51	-41.1	-42.5	17.6	0.00e+00	0	39	0	4050649088	51	4497
2026-01-15 15:41:11.51	324.55	11.44	-41.0	-42.3	17.7	0.00e+00	0	39	0	4057989120	51	4439
2026-01-15 15:41:12.51	324.66	11.36	-41.2	-42.5	17.5	0.00e+00	0	39	0	4064280576	51	4535
2026-01-15 15:41:13.50	324.77	11.29	-41.2	-42.6	17.5	0.00e+00	0	39	0	4071620608	51	4554
2026-01-15 15:41:14.49	324.88	11.22	-41.2	-42.6	17.4	0.00e+00	0	39	0	4078960640	51	4564
2026-01-15 15:41:15.49	324.99	11.14	-41.2	-42.6	17.4	0.00e+00	0	39	0	4086300672	52	4320
2026-01-15 15:41:16.48	325.10	11.07	-41.3	-42.7	17.3	0.00e+00	0	39	0	4093640704	52	4386
2026-01-15 15:41:17.47	325.21	11.00	-41.4	-42.9	17.1	0.00e+00	0	39	0	4100980736	52	4442
2026-01-15 15:41:18.47	325.32	10.93	-41.3	-42.7	17.3	0.00e+00	0	39	0	4108320768	52	4342
2026-01-15 15:41:19.46	325.42	10.85	-41.3	-42.7	17.3	0.00e+00	0	39	0	4114612224	52	4371
2026-01-15 15:41:20.45	325.53	10.78	-41.4	-42.8	17.1	0.00e+00	0	39	0	4121952256	52	4425
2026-01-15 15:41:21.44	325.64	10.71	-41.4	-42.8	17.2	0.00e+00	0	39	0	4129292288	52	4401
2026-01-15 15:41:22.44	325.74	10.64	-41.4	-42.7	17.2	0.00e+00	0	39	0	4136632320	52	4377
2026-01-15 15:41:23.43	325.85	10.57	-41.4	-42.8	17.2	0.00e+00	0	39	0	4143972352	52	4404
2026-01-15 15:41:24.42	325.95	10.50	-41.4	-42.8	17.1	0.00e+00	0	39	0	4151312384	52	4405
2026-01-15 15:41:25.41	326.06	10.42	-41.5	-42.9	17.1	0.00e+00	0	39	0	4158652416	52	4448
2026-01-15 15:41:26.41	326.16	10.35	-41.5	-42.9	17.1	0.00e+00	0	39	0	4164943872	52	4443
2026-01-15 15:41:27.40	326.27	10.28	-41.5	-42.9	17.0	0.00e+00	0	39	0	4172283904	52	4485
2026-01-15 15:41:28.39	326.37	10.21	-41.5	-42.9	17.0	0.00e+00	0	39	0	4179623936	52	4490
2026-01-15 15:41:29.39	326.47	10.14	-41.6	-43.0	17.0	0.00e+00	0	39	0	4186963968	52	4494
2026-01-15 15:41:30.38	326.57	10.07	-41.6	-43.0	16.9	0.00e+00	0	39	0	4194304000	52	4524
2026-01-15 15:41:31.37	326.67	10.00	-41.6	-42.9	17.0	0.00e+00	0	39	0	4200595456	52	4466
2026-01-15 15:41:32.36	326.77	9.93	-41.6	-43.0	16.9	0.00e+00	0	39	0	4207935488	52	4497
2026-01-15 15:41:33.36	326.88	9.86	-41.6	-42.9	17.0	0.00e+00	0	39	0	4215275520	52	4460
2026-01-15 15:41:34.35	326.98	9.79	-41.5	-42.8	17.1	0.00e+00	0	39	0	4222615552	52	4433
2026-01-15 15:41:35.34	327.07	9.72	-41.5	-42.9	17.0	0.00e+00	0	39	0	4229955584	52	4448
2026-01-15 15:41:36.33	327.17	9.65	-41.5	-42.8	17.1	0.00e+00	0	39	0	4237295616	52	4411
2026-01-15 15:41:37.33	327.27	9.58	-41.6	-42.9	17.0	0.00e+00	0	39	0	4243587072	52	4471
2026-01-15 15:41:38.32	327.37	9.51	-41.6	-42.9	17.0	0.00e+00	0	39	0	4250927104	52	4475
2026-01-15 15:41:39.31	327.47	9.44	-41.6	-42.9	16.9	0.00e+00	0	39	0	4258267136	52	4481
2026-01-15 15:41:40.31	327.57	9.37	-41.5	-42.8	17.0	0.00e+00	0	39	0	4265607168	52	4433
2026-01-15 15:41:41.30	327.66	9.30	-41.5	-42.9	17.0	0.00e+00	0	39	0	4272947200	52	4449
2026-01-15 15:41:42.29	327.76	9.23	-41.6	-43.0	16.8	0.00e+00	0	39	0	4280287232	52	4538
2026-01-15 15:41:43.29	327.86	9.16	-41.6	-43.0	16.8	0.00e+00	0	39	0	4286578688	52	4545
2026-01-15 15:41:44.28	327.95	9.09	-41.7	-43.0	16.8	0.00e+00	0	39	0	4293918720	52	4528
2026-01-15 15:41:45.27	328.05	9.02	-41.7	-43.1	16.7	0.00e+00	0	39	0	4301258752	52	4598
2026-01-15 15:41:46.26	328.14	8.95	-50.1	-61.1	3.8	8.40e-01	0	39	104	4305453056	69	13637
2026-01-15 15:41:47.26	328.24	8.88	-49.5	-61.5	3.8	8.46e-01	0	39	104	4305453056	69	14243
2026-01-15 15:41:48.25	328.33	8.82	-50.6	-61.6	3.8	8.47e-01	0	39	104	4305453056	70	13716
2026-01-15 15:41:49.24	328.42	8.75	-50.5	-61.7	3.8	8.47e-01	0	39	104	4305453056	71	13074
2026-01-15 15:41:50.24	328.52	8.68	-50.7	-61.8	3.8	8.47e-01	0	39	104	4305453056	71	13181
2026-01-15 15:41:51.23	328.61	8.61	-50.8	-61.9	3.8	8.46e-01	0	39	104	4305453056	71	13265
2026-01-15 15:41:52.22	328.70	8.54	-50.4	-61.9	3.8	8.46e-01	0	39	104	4305453056	71	13309
2026-01-15 15:41:53.22	328.79	8.47	-51.1	-61.9	3.8	8.47e-01	0	39	104	4305453056	71	13385
2026-01-15 15:41:54.21	328.88	8.41	-50.7	-62.0	3.8	8.46e-01	0	39	104	4305453056	71	13455
2026-01-15 15:41:55.20	328.98	8.34	-51.1	-62.0	3.8	8.48e-01	0	39	104	4305453056	71	13448
2026-01-15 15:41:56.20	329.07	8.27	-50.8	-62.0	3.8	8.47e-01	0	39	104	4305453056	71	13481
2026-01-15 15:41:57.19	329.16	8.20	-51.1	-62.1	3.8	8.46e-01	0	39	104	4305453056	71	13622
2026-01-15 15:41:58.18	329.25	8.14	-51.1	-62.0	3.8	8.47e-01	0	39	104	4305453056	71	13549
2026-01-15 15:41:59.17	329.34	8.07	-51.2	-62.1	3.8	8.47e-01	0	39	104	4305453056	71	13571
2026-01-15 15:42:00.16	329.42	8.00	-51.2	-62.0	3.8	8.46e-01	0	39	104	4305453056	72	12727
2026-01-15 15:42:01.14	329.51	7.94	-51.2	-62.0	3.8	8.48e-01	0	39	104	4305453056	72	12759
2026-01-15 15:42:02.13	329.60	7.87	-51.3	-62.1	3.8	8.46e-01	0	39	104	4305453056	72	12817
2026-01-15 15:42:03.13	329.69	7.80	-51.3	-62.0	3.8	8.46e-01	0	39	104	4305453056	72	12783
2026-01-15 15:42:04.12	329.78	7.74	-51.1	-62.0	3.8	8.47e-01	0	39	104	4305453056	72	12781
2026-01-15 15:42:05.11	329.86	7.67	-51.0	-62.0	3.8	8.46e-01	0	39	104	4305453056	72	12744
2026-01-15 15:42:06.11	329.95	7.60	-51.1	-61.9	3.8	8.47e-01	0	39	104	4305453056	72	12661
2026-01-15 15:42:07.10	330.04	7.54	-51.0	-61.9	3.8	8.48e-01	0	39	104	4305453056	72	12646
2026-01-15 15:42:08.09	330.12	7.47	-50.9	-61.9	3.8	8.47e-01	0	39	104	4305453056	72	12580
2026-01-15 15:42:09.08	330.21	7.41	-50.9	-61.9	3.8	8.46e-01	0	39	104	4305453056	72	12627
2026-01-15 15:42:10.08	330.29	7.34	-50.8	-61.9	3.8	8.46e-01	0	39	104	4305453056	72	12617
2026-01-15 15:42:11.07	330.38	7.27	-50.8	-61.9	3.8	8.46e-01	0	39	104	4305453056	72	12645
2026-01-15 15:42:12.06	330.46	7.21	-50.8	-61.9	3.8	8.47e-01	0	39	104	4305453056	72	12574
2026-01-15 15:42:13.06	330.55	7.14	-50.8	-62.0	3.8	8.46e-01	0	39	104	4305453056	72	12685
2026-01-15 15:42:14.05	330.63	7.08	-50.8	-62.0	3.8	8.46e-01	0	39	104	4305453056	72	12704
2026-01-15 15:42:15.04	330.71	7.01	-50.8	-61.9	3.8	8.47e-01	0	39	104	4305453056	72	12653
2026-01-15 15:42:16.04	330.80	6.95	-50.8	-61.9	3.8	8.47e-01	0	39	104	4305453056	72	12621
2026-01-15 15:42:17.03	330.88	6.88	-50.8	-61.9	3.8	8.47e-01	0	39	104	4305453056	72	12636
2026-01-15 15:42:18.02	330.96	6.82	-50.8	-61.9	3.8	8.48e-01	0	39	104	4305453056	72	12626
2026-01-15 15:42:19.01	331.04	6.75	-50.8	-61.9	3.8	8.46e-01	0	39	104	4305453056	72	12625
2026-01-15 15:42:20.01	331.13	6.69	-50.8	-61.9	3.8	8.47e-01	0	39	104	4305453056	72	12659
