passes_logs/2026/01/15/T1/T1__20260115_074825_SUOMI_NPP_rec.log

#Pass ID: 20260115_074825_SUOMI NPP
#Satellite: SUOMI NPP
#Configuration: NPP
#almurnet v.1.7.20251203
#Start time: 2026-01-15 07:48:24

#Version: 2.0.20230620
#Station: T1
#Location: 37.570604 lon 55.790049 lat
#TLE: 1 37849U 11061A   26014.61059675  .00000037  00000+0  38639-4 0  9994
#TLE: 2 37849  98.7810 316.6625 0002460  64.3781 295.7649 14.19525105736658

#Time	Az	El	Level	Level2	SNR	BER	BlckErr	Temp	State	Recorded	gain1	gain2
2026-01-15 07:48:24.85	89.42	4.99	-50.3	-65.6	3.8	1.49e+00	0	36	0	0	71	22004
2026-01-15 07:48:25.84	89.32	5.04	-50.2	-65.6	3.8	1.49e+00	0	36	104	0	72	20730
2026-01-15 07:48:26.84	89.21	5.10	-50.2	-65.6	3.8	1.49e+00	0	36	104	0	72	20608
2026-01-15 07:48:27.84	89.10	5.15	-50.2	-65.6	3.8	1.49e+00	0	36	104	0	72	20693
2026-01-15 07:48:28.83	89.00	5.20	-50.2	-65.6	3.8	1.49e+00	0	36	104	0	72	20676
2026-01-15 07:48:29.84	88.89	5.25	-50.2	-65.6	3.8	1.49e+00	0	36	104	0	72	20627
2026-01-15 07:48:30.83	88.78	5.30	-50.2	-65.6	3.8	1.49e+00	0	36	104	0	72	20655
2026-01-15 07:48:31.83	88.67	5.35	-50.2	-65.6	3.8	1.49e+00	0	36	104	0	72	20653
2026-01-15 07:48:32.83	88.56	5.40	-50.2	-65.6	3.8	1.49e+00	0	36	104	0	72	20610
2026-01-15 07:48:33.83	88.46	5.46	-50.2	-65.6	3.8	1.49e+00	0	36	104	0	72	20668
2026-01-15 07:48:34.83	88.35	5.51	-50.2	-65.6	3.8	1.49e+00	0	36	104	0	72	20569
2026-01-15 07:48:35.83	88.24	5.56	-50.2	-65.6	3.8	1.49e+00	0	36	104	0	72	20695
2026-01-15 07:48:36.82	88.13	5.61	-50.2	-65.5	3.8	1.49e+00	0	36	104	0	72	20483
2026-01-15 07:48:37.82	88.02	5.66	-50.2	-65.6	3.8	1.49e+00	0	36	104	0	72	20580
2026-01-15 07:48:38.82	87.91	5.71	-50.2	-65.6	3.8	1.49e+00	0	36	104	0	72	20597
2026-01-15 07:48:39.82	87.79	5.76	-50.2	-65.6	3.8	1.49e+00	0	36	104	0	72	20548
2026-01-15 07:48:40.82	87.68	5.82	-50.2	-65.6	3.8	1.49e+00	0	37	104	0	72	20719
2026-01-15 07:48:41.81	87.57	5.87	-50.2	-65.6	3.8	1.49e+00	0	36	104	0	72	20546
2026-01-15 07:48:42.81	87.46	5.92	-50.2	-65.5	3.8	1.49e+00	0	37	104	0	72	20508
2026-01-15 07:48:43.81	87.35	5.97	-50.2	-65.5	3.8	1.49e+00	0	37	104	0	72	20463
2026-01-15 07:48:44.81	87.23	6.02	-50.2	-65.5	3.8	1.49e+00	0	36	104	0	72	20339
2026-01-15 07:48:45.81	87.12	6.07	-50.2	-65.5	3.8	1.49e+00	0	37	104	0	72	20383
2026-01-15 07:48:46.80	87.01	6.12	-50.2	-65.5	3.8	1.49e+00	0	37	104	0	72	20393
2026-01-15 07:48:47.80	86.89	6.18	-50.2	-65.4	3.8	1.49e+00	0	37	104	0	72	20265
2026-01-15 07:48:48.80	86.78	6.23	-50.2	-65.4	3.8	1.49e+00	0	36	104	0	72	20255
2026-01-15 07:48:49.80	86.66	6.28	-50.2	-65.5	3.8	1.49e+00	0	37	104	0	72	20346
2026-01-15 07:48:50.80	86.55	6.33	-50.2	-65.4	3.8	1.49e+00	0	37	104	0	72	20297
2026-01-15 07:48:51.80	86.43	6.38	-50.2	-65.5	3.8	1.49e+00	0	37	104	0	72	20378
2026-01-15 07:48:52.79	86.31	6.43	-50.2	-65.5	3.8	1.49e+00	0	37	104	0	72	20409
2026-01-15 07:48:53.79	86.20	6.48	-50.2	-65.5	3.8	1.49e+00	0	37	104	0	72	20339
2026-01-15 07:48:54.79	86.08	6.53	-50.2	-65.4	3.8	1.49e+00	0	37	104	0	72	20263
2026-01-15 07:48:55.78	85.96	6.59	-50.2	-65.5	3.8	1.49e+00	0	37	104	0	72	20328
2026-01-15 07:48:56.78	85.84	6.64	-50.2	-65.5	3.8	1.49e+00	0	37	104	0	72	20447
2026-01-15 07:48:57.78	85.73	6.69	-50.2	-65.5	3.8	1.49e+00	0	37	104	0	72	20430
2026-01-15 07:48:58.77	85.61	6.74	-50.2	-65.5	3.8	1.49e+00	0	37	104	0	72	20419
2026-01-15 07:48:59.77	85.49	6.79	-50.2	-65.5	3.8	1.49e+00	0	37	104	0	72	20377
2026-01-15 07:49:00.77	85.37	6.84	-50.2	-65.5	3.8	1.49e+00	0	37	104	0	72	20387
2026-01-15 07:49:01.77	85.25	6.89	-50.2	-65.4	3.8	1.49e+00	0	37	104	0	72	20249
2026-01-15 07:49:02.77	85.13	6.94	-50.2	-65.4	3.8	1.49e+00	0	37	104	0	72	20163
2026-01-15 07:49:03.77	85.01	7.00	-50.2	-65.3	3.8	1.49e+00	0	37	104	0	72	20028
2026-01-15 07:49:04.77	84.88	7.05	-50.2	-65.4	3.8	1.49e+00	0	37	104	0	72	20075
2026-01-15 07:49:05.77	84.76	7.10	-50.2	-65.4	3.8	1.49e+00	0	37	104	0	72	20165
2026-01-15 07:49:06.77	84.64	7.15	-50.2	-65.3	3.8	1.49e+00	0	37	104	0	72	20037
2026-01-15 07:49:07.77	84.52	7.20	-50.2	-65.3	3.8	1.49e+00	0	37	104	0	72	20023
2026-01-15 07:49:08.77	84.39	7.25	-50.2	-65.4	3.8	1.49e+00	0	37	104	0	72	20074
2026-01-15 07:49:09.76	84.27	7.30	-50.2	-65.3	3.8	1.49e+00	0	37	104	0	72	19990
2026-01-15 07:49:10.75	84.15	7.35	-50.2	-65.3	3.8	1.49e+00	0	37	104	0	72	19896
2026-01-15 07:49:11.75	84.02	7.40	-50.2	-65.2	3.8	1.49e+00	0	37	104	0	72	19727
2026-01-15 07:49:12.75	83.90	7.46	-50.2	-65.2	3.8	1.49e+00	0	37	104	0	72	19631
2026-01-15 07:49:13.75	83.77	7.51	-50.2	-65.1	3.8	1.49e+00	0	37	104	0	72	19497
2026-01-15 07:49:14.75	83.65	7.56	-50.1	-65.0	3.8	1.49e+00	0	37	104	0	72	19235
2026-01-15 07:49:15.74	83.52	7.61	-50.2	-64.9	3.8	1.49e+00	0	37	104	0	72	19087
2026-01-15 07:49:16.74	83.39	7.66	-50.2	-64.9	3.8	1.49e+00	0	37	104	0	72	19006
2026-01-15 07:49:17.74	83.27	7.71	-50.2	-64.9	3.8	1.49e+00	0	37	104	0	72	18999
2026-01-15 07:49:18.74	83.14	7.76	-50.2	-65.1	3.8	1.49e+00	0	37	104	0	72	19444
2026-01-15 07:49:19.74	83.01	7.81	-50.2	-65.3	3.8	1.49e+00	0	37	104	0	72	19905
2026-01-15 07:49:20.74	82.88	7.86	-50.2	-65.4	3.8	1.49e+00	0	37	104	0	72	20150
2026-01-15 07:49:21.74	82.75	7.91	-50.2	-65.4	3.8	1.49e+00	0	37	104	0	72	20197
2026-01-15 07:49:22.73	82.62	7.96	-50.2	-65.4	3.8	1.49e+00	0	37	104	0	72	20275
2026-01-15 07:49:23.73	82.49	8.01	-50.2	-65.5	3.8	1.49e+00	0	38	104	0	72	20312
2026-01-15 07:49:24.73	82.36	8.07	-50.2	-65.5	3.8	1.49e+00	0	37	104	0	72	20456
2026-01-15 07:49:25.73	82.23	8.12	-50.2	-65.4	3.8	1.49e+00	0	37	104	0	72	20221
2026-01-15 07:49:26.72	82.10	8.17	-50.2	-65.1	3.8	1.49e+00	0	38	104	0	72	19501
2026-01-15 07:49:27.72	81.97	8.22	-50.1	-64.6	3.8	1.49e+00	0	38	104	0	72	18494
2026-01-15 07:49:28.72	81.83	8.27	-50.1	-64.3	3.8	1.49e+00	0	38	104	0	72	17865
2026-01-15 07:49:29.72	81.70	8.32	-50.1	-64.6	3.8	1.49e+00	0	38	104	0	72	18335
2026-01-15 07:49:30.72	81.57	8.37	-50.2	-65.3	3.8	1.49e+00	0	37	104	0	72	19853
2026-01-15 07:49:31.72	81.43	8.42	-50.2	-65.4	3.8	1.49e+00	0	37	104	0	72	20252
2026-01-15 07:49:32.72	81.30	8.47	-50.1	-63.7	3.8	1.49e+00	0	37	104	0	72	16585
2026-01-15 07:49:33.71	81.17	8.52	-49.9	-61.0	4.5	1.41e+00	0	38	0	0	71	12865
2026-01-15 07:49:34.71	81.03	8.57	-49.5	-58.4	6.0	6.64e-01	0	38	0	2097152	71	9586
2026-01-15 07:49:35.71	80.90	8.62	-49.2	-56.7	7.5	1.41e-01	0	38	0	4194304	70	8308
2026-01-15 07:49:36.70	80.76	8.67	-48.8	-55.4	8.8	5.45e-02	0	38	0	5242880	69	7571
2026-01-15 07:49:37.70	80.62	8.72	-48.7	-55.0	9.2	2.32e-02	0	38	0	7340032	69	7277
2026-01-15 07:49:38.70	80.49	8.77	-48.8	-55.5	8.7	2.94e-02	0	38	0	9437184	69	7680
2026-01-15 07:49:39.70	80.35	8.82	-49.2	-56.8	7.4	6.51e-02	0	38	0	11534336	69	8903
2026-01-15 07:49:40.70	80.21	8.87	-49.6	-58.6	6.0	2.15e-01	0	38	0	12582912	69	10998
2026-01-15 07:49:41.70	80.07	8.92	-49.9	-61.3	4.4	5.87e-01	0	38	0	14680064	70	14091
2026-01-15 07:49:42.70	79.93	8.97	-50.2	-63.9	3.8	1.48e+00	0	38	104	15728640	70	19065
2026-01-15 07:49:43.69	79.79	9.02	-50.2	-65.4	3.8	1.49e+00	0	38	104	15728640	71	21430
2026-01-15 07:49:44.70	79.65	9.07	-49.1	-55.7	5.4	1.49e+00	0	38	104	15728640	70	7444
2026-01-15 07:49:45.70	79.51	9.12	-49.6	-57.7	6.9	6.18e-02	0	38	0	16777216	70	9298
2026-01-15 07:49:46.70	79.37	9.17	-50.2	-64.9	3.8	1.41e+00	0	38	104	17825792	71	20300
2026-01-15 07:49:47.70	79.23	9.22	-49.7	-58.7	4.4	1.49e+00	0	38	104	17825792	71	9882
2026-01-15 07:49:48.70	79.09	9.27	-50.2	-63.6	3.8	1.70e-02	0	38	104	18874368	71	17461
2026-01-15 07:49:49.70	78.94	9.32	-49.2	-56.7	4.9	1.48e+00	0	38	104	18874368	70	8282
2026-01-15 07:49:50.70	78.80	9.36	-48.2	-53.5	10.8	7.40e-03	0	38	0	19922944	68	6492
2026-01-15 07:49:51.69	78.66	9.41	-47.2	-51.6	12.6	4.59e-04	0	38	0	20971520	66	5851
2026-01-15 07:49:52.69	78.51	9.46	-47.2	-51.5	12.8	6.17e-05	0	38	0	23068672	66	5732
2026-01-15 07:49:53.69	78.37	9.51	-47.0	-51.1	13.2	2.97e-05	0	38	0	25165824	66	5499
2026-01-15 07:49:54.69	78.23	9.56	-46.9	-51.0	13.3	2.51e-05	0	38	0	27262976	65	5743
2026-01-15 07:49:55.69	78.08	9.61	-46.8	-50.8	13.5	9.90e-06	0	38	0	28311552	65	5620
2026-01-15 07:49:56.69	77.93	9.66	-46.4	-50.1	14.1	4.50e-06	0	38	0	30408704	64	5526
2026-01-15 07:49:57.69	77.79	9.71	-46.3	-49.9	14.3	1.50e-06	0	38	0	32505856	64	5396
2026-01-15 07:49:58.68	77.64	9.76	-46.3	-50.0	14.3	1.50e-06	0	38	0	34603008	64	5431
2026-01-15 07:49:59.68	77.49	9.80	-46.2	-49.7	14.5	7.00e-07	0	38	0	36700160	64	5276
2026-01-15 07:50:00.68	77.35	9.85	-46.2	-49.8	14.5	0.00e+00	0	38	0	37748736	64	5283
2026-01-15 07:50:01.68	77.20	9.90	-46.0	-49.5	14.8	0.00e+00	0	38	0	39845888	64	5130
2026-01-15 07:50:02.68	77.05	9.95	-46.1	-49.5	14.8	0.00e+00	0	38	0	41943040	63	5450
2026-01-15 07:50:03.68	76.90	10.00	-46.0	-49.4	14.9	0.00e+00	0	38	0	44040192	63	5379
2026-01-15 07:50:04.68	76.75	10.05	-46.1	-49.5	14.9	0.00e+00	0	38	0	46137344	63	5415
2026-01-15 07:50:05.68	76.60	10.09	-46.1	-49.6	14.8	7.00e-07	0	38	0	47185920	63	5480
2026-01-15 07:50:06.68	76.45	10.14	-46.4	-49.9	14.4	7.00e-07	0	38	0	49283072	63	5715
2026-01-15 07:50:07.68	76.30	10.19	-46.6	-50.2	14.1	3.00e-06	0	38	0	51380224	63	5913
2026-01-15 07:50:08.68	76.14	10.24	-46.7	-50.5	13.8	6.10e-06	0	38	0	53477376	64	5787
2026-01-15 07:50:09.68	75.99	10.28	-46.5	-50.1	14.2	2.20e-06	0	38	0	55574528	64	5495
2026-01-15 07:50:10.68	75.84	10.33	-46.4	-49.9	14.4	0.00e+00	0	38	0	56623104	64	5385
2026-01-15 07:50:11.68	75.68	10.38	-46.3	-49.7	14.5	0.00e+00	0	38	0	58720256	64	5275
2026-01-15 07:50:12.68	75.53	10.43	-46.2	-49.7	14.6	7.00e-07	0	38	0	60817408	64	5252
2026-01-15 07:50:13.68	75.38	10.47	-46.3	-49.9	14.4	7.00e-07	0	38	0	62914560	64	5353
2026-01-15 07:50:14.69	75.22	10.52	-46.3	-49.9	14.4	1.50e-06	0	38	0	63963136	64	5346
2026-01-15 07:50:15.69	75.06	10.57	-46.2	-49.6	14.7	0.00e+00	0	38	0	66060288	64	5187
2026-01-15 07:50:16.69	74.91	10.61	-46.0	-49.3	15.0	0.00e+00	0	38	0	68157440	64	5034
2026-01-15 07:50:17.68	74.75	10.66	-46.0	-49.3	15.1	0.00e+00	0	38	0	70254592	63	5288
2026-01-15 07:50:18.67	74.60	10.71	-45.9	-49.1	15.3	0.00e+00	0	38	0	72351744	63	5193
2026-01-15 07:50:19.67	74.44	10.75	-45.7	-48.8	15.6	0.00e+00	0	38	0	73400320	63	5014
2026-01-15 07:50:20.67	74.28	10.80	-45.8	-48.9	15.5	0.00e+00	0	38	0	75497472	63	5074
2026-01-15 07:50:21.67	74.12	10.85	-45.7	-48.8	15.6	0.00e+00	0	38	0	77594624	63	5010
2026-01-15 07:50:22.67	73.96	10.89	-45.6	-48.6	15.7	0.00e+00	0	38	0	79691776	63	4917
2026-01-15 07:50:23.67	73.80	10.94	-45.6	-48.6	15.8	0.00e+00	0	38	0	81788928	62	5176
2026-01-15 07:50:24.67	73.64	10.98	-45.5	-48.4	15.9	0.00e+00	0	38	0	82837504	62	5091
2026-01-15 07:50:25.66	73.49	11.03	-45.6	-48.6	15.8	0.00e+00	0	38	0	84934656	62	5182
2026-01-15 07:50:26.66	73.32	11.08	-45.7	-48.9	15.5	0.00e+00	0	38	0	87031808	62	5364
2026-01-15 07:50:27.66	73.16	11.12	-45.8	-49.0	15.4	0.00e+00	0	38	0	89128960	62	5406
2026-01-15 07:50:28.66	73.00	11.17	-45.9	-49.1	15.3	0.00e+00	0	38	0	91226112	62	5500
2026-01-15 07:50:29.66	72.84	11.21	-45.8	-49.0	15.4	0.00e+00	0	38	0	92274688	62	5443
2026-01-15 07:50:30.66	72.67	11.26	-45.8	-49.0	15.4	0.00e+00	0	38	0	94371840	62	5421
2026-01-15 07:50:31.65	72.51	11.30	-45.8	-49.0	15.4	0.00e+00	0	38	0	96468992	62	5446
2026-01-15 07:50:32.65	72.35	11.35	-45.7	-48.8	15.6	0.00e+00	0	38	0	98566144	62	5321
2026-01-15 07:50:33.65	72.18	11.39	-45.7	-48.8	15.6	0.00e+00	0	38	0	99614720	62	5327
2026-01-15 07:50:34.65	72.02	11.43	-45.5	-48.6	15.7	0.00e+00	0	38	0	101711872	62	5209
2026-01-15 07:50:35.65	71.85	11.48	-45.4	-48.4	15.9	0.00e+00	0	38	0	103809024	62	5094
2026-01-15 07:50:36.65	71.69	11.52	-45.4	-48.4	16.0	0.00e+00	0	38	0	105906176	62	5050
2026-01-15 07:50:37.65	71.52	11.57	-45.4	-48.4	16.0	0.00e+00	0	38	0	108003328	62	5064
2026-01-15 07:50:38.65	71.35	11.61	-45.4	-48.5	15.9	0.00e+00	0	38	0	109051904	62	5124
2026-01-15 07:50:39.65	71.19	11.65	-45.6	-48.7	15.7	0.00e+00	0	38	0	111149056	62	5271
2026-01-15 07:50:40.64	71.02	11.70	-45.7	-48.8	15.6	0.00e+00	0	38	0	113246208	62	5333
2026-01-15 07:50:41.64	70.85	11.74	-45.7	-48.8	15.6	0.00e+00	0	38	0	115343360	62	5324
2026-01-15 07:50:42.64	70.68	11.78	-45.6	-48.7	15.7	0.00e+00	0	38	0	116391936	62	5279
2026-01-15 07:50:43.64	70.51	11.83	-45.8	-49.0	15.4	0.00e+00	0	38	0	118489088	62	5438
2026-01-15 07:50:44.64	70.34	11.87	-45.9	-49.1	15.3	0.00e+00	0	38	0	120586240	62	5511
2026-01-15 07:50:45.65	70.17	11.91	-46.0	-49.3	15.2	0.00e+00	0	38	0	122683392	62	5612
2026-01-15 07:50:46.65	70.00	11.96	-46.1	-49.5	14.9	0.00e+00	0	38	0	124780544	62	5771
2026-01-15 07:50:47.64	69.83	12.00	-46.0	-49.3	15.1	0.00e+00	0	38	0	125829120	62	5635
2026-01-15 07:50:48.65	69.65	12.04	-45.9	-49.4	15.1	0.00e+00	0	38	0	127926272	62	5665
2026-01-15 07:50:49.64	69.48	12.08	-45.9	-49.2	15.1	0.00e+00	0	38	0	130023424	62	5586
2026-01-15 07:50:50.64	69.31	12.12	-45.8	-49.1	15.3	0.00e+00	0	38	0	132120576	62	5497
2026-01-15 07:50:51.64	69.14	12.17	-45.8	-49.2	15.2	0.00e+00	0	38	0	134217728	62	5531
2026-01-15 07:50:52.64	68.96	12.21	-45.8	-49.1	15.3	0.00e+00	0	38	0	135266304	62	5508
2026-01-15 07:50:53.65	68.79	12.25	-45.8	-49.1	15.2	0.00e+00	0	38	0	137363456	62	5499
2026-01-15 07:50:54.64	68.61	12.29	-45.8	-49.1	15.3	0.00e+00	0	38	0	139460608	62	5481
2026-01-15 07:50:55.64	68.44	12.33	-45.8	-49.1	15.3	0.00e+00	0	38	0	141557760	62	5497
2026-01-15 07:50:56.65	68.26	12.37	-45.8	-49.2	15.1	0.00e+00	0	38	0	142606336	62	5576
2026-01-15 07:50:57.65	68.08	12.41	-46.0	-49.5	14.9	0.00e+00	0	38	0	144703488	62	5767
2026-01-15 07:50:58.65	67.91	12.45	-46.1	-49.8	14.6	0.00e+00	0	38	0	146800640	62	5962
2026-01-15 07:50:59.65	67.73	12.49	-46.1	-49.7	14.7	0.00e+00	0	38	0	148897792	63	5584
2026-01-15 07:51:00.65	67.55	12.53	-46.1	-49.8	14.6	0.00e+00	0	38	0	150994944	63	5618
2026-01-15 07:51:01.65	67.37	12.57	-46.0	-49.6	14.8	0.00e+00	0	38	0	153092096	63	5492
2026-01-15 07:51:02.65	67.19	12.61	-45.9	-49.4	15.0	0.00e+00	0	38	0	154140672	63	5368
2026-01-15 07:51:03.65	67.01	12.65	-45.8	-49.3	15.1	0.00e+00	0	38	0	156237824	63	5292
2026-01-15 07:51:04.64	66.83	12.69	-45.7	-49.0	15.4	0.00e+00	0	38	0	158334976	63	5120
2026-01-15 07:51:05.64	66.65	12.73	-45.7	-49.0	15.4	0.00e+00	0	38	0	160432128	63	5107
2026-01-15 07:51:06.64	66.47	12.77	-45.6	-48.8	15.6	0.00e+00	0	38	0	161480704	63	5004
2026-01-15 07:51:07.64	66.29	12.80	-45.7	-49.0	15.4	0.00e+00	0	38	0	163577856	63	5115
2026-01-15 07:51:08.64	66.11	12.84	-45.7	-49.0	15.4	0.00e+00	0	38	0	165675008	63	5129
2026-01-15 07:51:09.63	65.93	12.88	-45.8	-49.1	15.3	0.00e+00	0	38	0	167772160	63	5210
2026-01-15 07:51:10.63	65.75	12.92	-45.8	-49.1	15.3	0.00e+00	0	38	0	169869312	63	5195
2026-01-15 07:51:11.63	65.56	12.96	-45.9	-49.3	15.1	0.00e+00	0	38	0	170917888	63	5301
2026-01-15 07:51:12.63	65.38	12.99	-45.9	-49.3	15.1	0.00e+00	0	38	0	173015040	63	5294
2026-01-15 07:51:13.63	65.19	13.03	-45.8	-49.2	15.2	0.00e+00	0	38	0	175112192	63	5242
2026-01-15 07:51:14.63	65.01	13.07	-45.9	-49.4	15.0	0.00e+00	0	38	0	177209344	63	5372
2026-01-15 07:51:15.63	64.83	13.10	-45.6	-49.0	15.4	0.00e+00	0	38	0	178257920	63	5118
2026-01-15 07:51:16.63	64.64	13.14	-45.6	-48.8	15.6	0.00e+00	0	38	0	180355072	62	5323
2026-01-15 07:51:17.63	64.45	13.17	-45.5	-48.7	15.6	0.00e+00	0	38	0	182452224	62	5266
2026-01-15 07:51:18.63	64.27	13.21	-45.5	-48.6	15.7	0.00e+00	0	38	0	184549376	62	5212
2026-01-15 07:51:19.62	64.08	13.25	-45.5	-48.6	15.8	0.00e+00	0	38	0	186646528	62	5196
2026-01-15 07:51:20.62	63.89	13.28	-45.7	-49.0	15.4	0.00e+00	0	38	0	187695104	62	5407
2026-01-15 07:51:21.61	63.71	13.32	-45.9	-49.3	15.1	0.00e+00	0	38	0	189792256	62	5632
2026-01-15 07:51:22.61	63.52	13.35	-46.1	-49.6	14.8	0.00e+00	0	38	0	191889408	62	5843
2026-01-15 07:51:23.61	63.33	13.39	-46.3	-50.0	14.4	0.00e+00	0	38	0	193986560	63	5768
2026-01-15 07:51:24.61	63.14	13.42	-46.3	-49.9	14.5	7.00e-07	0	38	0	196083712	63	5695
2026-01-15 07:51:25.61	62.95	13.45	-46.1	-49.7	14.7	7.00e-07	0	38	0	197132288	63	5555
2026-01-15 07:51:26.61	62.76	13.49	-46.1	-49.7	14.8	0.00e+00	0	38	0	199229440	63	5532
2026-01-15 07:51:27.61	62.57	13.52	-45.9	-49.4	15.0	0.00e+00	0	38	0	201326592	63	5351
2026-01-15 07:51:28.60	62.38	13.55	-45.8	-49.1	15.3	0.00e+00	0	38	0	203423744	63	5192
2026-01-15 07:51:29.60	62.19	13.59	-45.6	-48.8	15.5	0.00e+00	0	38	0	204472320	63	5039
2026-01-15 07:51:30.60	62.00	13.62	-45.6	-48.8	15.6	0.00e+00	0	38	0	206569472	63	5004
2026-01-15 07:51:31.59	61.81	13.65	-45.4	-48.6	15.8	0.00e+00	0	38	0	208666624	62	5168
2026-01-15 07:51:32.59	61.62	13.68	-45.2	-48.2	16.1	0.00e+00	0	38	0	210763776	62	4972
2026-01-15 07:51:33.59	61.42	13.72	-45.1	-48.1	16.3	0.00e+00	0	38	0	212860928	62	4873
2026-01-15 07:51:34.59	61.23	13.75	-45.0	-47.9	16.5	0.00e+00	0	38	0	213909504	62	4793
2026-01-15 07:51:35.59	61.04	13.78	-45.3	-48.3	16.1	0.00e+00	0	38	0	216006656	61	5324
2026-01-15 07:51:36.58	60.84	13.81	-45.2	-48.2	16.1	0.00e+00	0	38	0	218103808	61	5272
2026-01-15 07:51:37.58	60.65	13.84	-45.4	-48.5	15.9	0.00e+00	0	38	0	220200960	61	5442
2026-01-15 07:51:38.58	60.45	13.87	-45.4	-48.5	15.9	0.00e+00	0	38	0	221249536	61	5461
2026-01-15 07:51:39.58	60.26	13.90	-45.3	-48.4	16.0	0.00e+00	0	38	0	223346688	61	5348
2026-01-15 07:51:40.58	60.06	13.93	-45.3	-48.3	16.1	0.00e+00	0	38	0	225443840	61	5299
2026-01-15 07:51:41.58	59.87	13.96	-45.1	-48.0	16.4	0.00e+00	0	38	0	227540992	61	5121
2026-01-15 07:51:42.57	59.67	13.99	-45.1	-48.0	16.4	0.00e+00	0	38	0	229638144	61	5123
2026-01-15 07:51:43.57	59.47	14.02	-45.0	-47.9	16.4	0.00e+00	0	38	0	230686720	61	5060
2026-01-15 07:51:44.57	59.28	14.05	-45.1	-48.1	16.2	0.00e+00	0	38	0	232783872	61	5201
2026-01-15 07:51:45.57	59.08	14.07	-45.2	-48.2	16.2	0.00e+00	0	38	0	234881024	61	5240
2026-01-15 07:51:46.57	58.88	14.10	-45.4	-48.4	15.9	0.00e+00	0	38	0	236978176	61	5388
2026-01-15 07:51:47.57	58.68	14.13	-45.4	-48.5	15.9	0.00e+00	0	38	0	239075328	61	5447
2026-01-15 07:51:48.57	58.48	14.16	-45.5	-48.6	15.8	0.00e+00	0	38	0	240123904	61	5477
2026-01-15 07:51:49.57	58.28	14.18	-45.7	-49.0	15.5	0.00e+00	0	38	0	242221056	62	5403
2026-01-15 07:51:50.56	58.09	14.21	-45.8	-49.1	15.4	0.00e+00	0	38	0	244318208	62	5492
2026-01-15 07:51:51.56	57.89	14.24	-45.9	-49.3	15.3	0.00e+00	0	38	0	246415360	62	5605
2026-01-15 07:51:52.56	57.69	14.26	-45.9	-49.3	15.2	0.00e+00	0	38	0	248512512	62	5600
2026-01-15 07:51:53.56	57.48	14.29	-45.8	-49.1	15.3	0.00e+00	0	38	0	249561088	62	5522
2026-01-15 07:51:54.56	57.28	14.31	-45.8	-49.2	15.3	0.00e+00	0	38	0	251658240	62	5537
2026-01-15 07:51:55.56	57.08	14.34	-45.8	-49.1	15.3	0.00e+00	0	38	0	253755392	62	5497
2026-01-15 07:51:56.56	56.88	14.36	-45.8	-49.1	15.4	0.00e+00	0	38	0	255852544	62	5469
2026-01-15 07:51:57.56	56.68	14.39	-45.8	-49.1	15.3	0.00e+00	0	38	0	256901120	62	5521
2026-01-15 07:51:58.56	56.48	14.41	-45.9	-49.3	15.2	0.00e+00	0	38	0	258998272	62	5620
2026-01-15 07:51:59.56	56.27	14.44	-45.9	-49.3	15.1	0.00e+00	0	38	0	261095424	62	5596
2026-01-15 07:52:00.56	56.07	14.46	-45.8	-49.2	15.2	0.00e+00	0	38	0	263192576	62	5554
2026-01-15 07:52:01.56	55.87	14.48	-45.8	-49.1	15.3	0.00e+00	0	38	0	265289728	62	5526
2026-01-15 07:52:02.56	55.66	14.51	-45.9	-49.2	15.3	0.00e+00	0	38	0	266338304	62	5558
2026-01-15 07:52:03.55	55.46	14.53	-45.9	-49.2	15.3	0.00e+00	0	38	0	268435456	62	5588
2026-01-15 07:52:04.56	55.25	14.55	-45.8	-49.1	15.4	0.00e+00	0	38	0	270532608	62	5496
2026-01-15 07:52:05.55	55.05	14.57	-45.9	-49.2	15.2	0.00e+00	0	38	0	272629760	62	5564
2026-01-15 07:52:06.55	54.85	14.59	-45.7	-49.0	15.5	0.00e+00	0	38	0	274726912	62	5412
2026-01-15 07:52:07.55	54.64	14.62	-45.4	-48.5	15.9	0.00e+00	0	38	0	275775488	62	5157
2026-01-15 07:52:08.55	54.44	14.64	-45.4	-48.5	15.9	0.00e+00	0	38	0	277872640	62	5114
2026-01-15 07:52:09.55	54.23	14.66	-45.3	-48.3	16.1	0.00e+00	0	38	0	279969792	62	5019
2026-01-15 07:52:10.55	54.02	14.68	-45.2	-48.2	16.1	0.00e+00	0	38	0	282066944	62	4983
2026-01-15 07:52:11.55	53.82	14.70	-45.2	-48.3	16.1	0.00e+00	0	38	0	283115520	62	4998
2026-01-15 07:52:12.55	53.61	14.72	-45.2	-48.3	16.2	0.00e+00	0	38	0	285212672	62	4994
2026-01-15 07:52:13.54	53.41	14.73	-45.2	-48.2	16.2	0.00e+00	0	38	0	287309824	62	4950
2026-01-15 07:52:14.54	53.20	14.75	-45.2	-48.3	16.1	0.00e+00	0	38	0	289406976	62	5015
2026-01-15 07:52:15.54	52.99	14.77	-45.4	-48.5	15.8	0.00e+00	0	38	0	291504128	62	5150
2026-01-15 07:52:16.54	52.78	14.79	-45.6	-48.8	15.6	0.00e+00	0	38	0	292552704	62	5331
2026-01-15 07:52:17.54	52.58	14.81	-45.6	-48.9	15.5	0.00e+00	0	38	0	294649856	62	5377
2026-01-15 07:52:18.54	52.37	14.82	-45.6	-48.9	15.5	0.00e+00	0	38	0	296747008	62	5384
2026-01-15 07:52:19.54	52.16	14.84	-45.6	-48.9	15.5	0.00e+00	0	38	0	298844160	62	5343
2026-01-15 07:52:20.54	51.95	14.86	-45.5	-48.7	15.7	0.00e+00	0	38	0	300941312	62	5257
2026-01-15 07:52:21.53	51.74	14.87	-45.3	-48.5	15.9	0.00e+00	0	38	0	301989888	62	5123
2026-01-15 07:52:22.53	51.53	14.89	-45.3	-48.5	15.9	0.00e+00	0	38	0	304087040	62	5103
2026-01-15 07:52:23.53	51.33	14.90	-45.4	-48.6	15.9	0.00e+00	0	38	0	306184192	62	5182
2026-01-15 07:52:24.53	51.12	14.92	-45.5	-48.7	15.8	0.00e+00	0	38	0	308281344	62	5228
2026-01-15 07:52:25.53	50.91	14.93	-45.5	-48.7	15.7	0.00e+00	0	38	0	309329920	62	5254
2026-01-15 07:52:26.53	50.70	14.95	-45.6	-48.8	15.6	0.00e+00	0	38	0	311427072	62	5326
2026-01-15 07:52:27.53	50.49	14.96	-45.6	-49.0	15.5	0.00e+00	0	38	0	313524224	62	5404
2026-01-15 07:52:28.53	50.28	14.98	-45.7	-49.0	15.5	0.00e+00	0	38	0	315621376	62	5411
2026-01-15 07:52:29.53	50.07	14.99	-45.8	-49.2	15.3	0.00e+00	0	38	0	317718528	62	5554
2026-01-15 07:52:30.53	49.85	15.00	-45.9	-49.3	15.2	0.00e+00	0	38	0	318767104	62	5618
2026-01-15 07:52:31.53	49.64	15.01	-45.9	-49.3	15.1	0.00e+00	0	38	0	320864256	62	5642
2026-01-15 07:52:32.53	49.43	15.03	-45.9	-49.3	15.1	0.00e+00	0	38	0	322961408	62	5645
2026-01-15 07:52:33.53	49.22	15.04	-45.8	-49.2	15.3	0.00e+00	0	38	0	325058560	62	5553
2026-01-15 07:52:34.53	49.01	15.05	-45.7	-49.1	15.3	0.00e+00	0	38	0	327155712	62	5506
2026-01-15 07:52:35.53	48.80	15.06	-45.8	-49.3	15.2	0.00e+00	0	38	0	328204288	62	5611
2026-01-15 07:52:36.53	48.59	15.07	-45.7	-49.0	15.4	0.00e+00	0	38	0	330301440	62	5438
2026-01-15 07:52:37.53	48.38	15.08	-45.7	-49.0	15.4	0.00e+00	0	38	0	332398592	62	5458
2026-01-15 07:52:38.53	48.16	15.09	-45.6	-48.9	15.6	0.00e+00	0	38	0	334495744	62	5373
2026-01-15 07:52:39.53	47.95	15.10	-45.6	-48.9	15.5	0.00e+00	0	38	0	335544320	62	5379
2026-01-15 07:52:40.53	47.74	15.11	-45.5	-48.8	15.6	0.00e+00	0	38	0	337641472	62	5321
2026-01-15 07:52:41.54	47.52	15.12	-45.4	-48.7	15.7	0.00e+00	0	38	0	339738624	62	5270
2026-01-15 07:52:42.54	47.31	15.12	-45.4	-48.7	15.7	0.00e+00	0	39	0	341835776	62	5272
2026-01-15 07:52:43.53	47.10	15.13	-45.3	-48.5	15.9	0.00e+00	0	38	0	343932928	62	5153
2026-01-15 07:52:44.53	46.89	15.14	-45.3	-48.5	16.0	0.00e+00	0	38	0	344981504	62	5109
2026-01-15 07:52:45.53	46.68	15.15	-45.3	-48.5	16.0	0.00e+00	0	38	0	347078656	62	5110
2026-01-15 07:52:46.53	46.46	15.15	-45.3	-48.5	16.0	0.00e+00	0	38	0	349175808	62	5102
2026-01-15 07:52:47.54	46.25	15.16	-45.3	-48.5	16.0	0.00e+00	0	38	0	351272960	62	5112
2026-01-15 07:52:48.54	46.04	15.16	-45.4	-48.7	15.7	0.00e+00	0	38	0	353370112	62	5227
2026-01-15 07:52:49.53	45.82	15.17	-45.6	-48.8	15.6	0.00e+00	0	38	0	354418688	62	5326
2026-01-15 07:52:50.53	45.61	15.17	-45.6	-48.8	15.6	0.00e+00	0	38	0	356515840	62	5339
2026-01-15 07:52:51.53	45.40	15.18	-45.5	-48.7	15.7	0.00e+00	0	38	0	358612992	62	5274
2026-01-15 07:52:52.53	45.19	15.18	-45.5	-48.7	15.7	0.00e+00	0	38	0	360710144	62	5269
2026-01-15 07:52:53.53	44.97	15.19	-45.4	-48.6	15.8	0.00e+00	0	38	0	362807296	62	5181
2026-01-15 07:52:54.53	44.76	15.19	-45.3	-48.5	15.9	0.00e+00	0	39	0	363855872	62	5108
2026-01-15 07:52:55.53	44.55	15.19	-45.2	-48.4	16.0	0.00e+00	0	38	0	365953024	62	5071
2026-01-15 07:52:56.54	44.33	15.20	-45.2	-48.3	16.0	0.00e+00	0	38	0	368050176	62	5032
2026-01-15 07:52:57.54	44.12	15.20	-45.2	-48.3	16.1	0.00e+00	0	38	0	370147328	62	5017
2026-01-15 07:52:58.54	43.90	15.20	-45.2	-48.2	16.2	0.00e+00	0	38	0	371195904	62	4970
2026-01-15 07:52:59.54	43.69	15.20	-45.2	-48.3	16.1	0.00e+00	0	39	0	373293056	62	4984
2026-01-15 07:53:00.54	43.48	15.20	-45.2	-48.3	16.1	0.00e+00	0	39	0	375390208	62	5009
2026-01-15 07:53:01.54	43.26	15.20	-45.4	-48.5	15.9	0.00e+00	0	39	0	377487360	62	5140
2026-01-15 07:53:02.54	43.05	15.20	-45.4	-48.5	15.9	0.00e+00	0	38	0	379584512	62	5154
2026-01-15 07:53:03.53	42.84	15.20	-45.5	-48.8	15.7	0.00e+00	0	39	0	380633088	62	5287
2026-01-15 07:53:04.54	42.62	15.20	-45.6	-48.9	15.5	0.00e+00	0	38	0	382730240	62	5382
2026-01-15 07:53:05.54	42.41	15.20	-45.8	-49.2	15.3	0.00e+00	0	38	0	384827392	62	5533
2026-01-15 07:53:06.54	42.19	15.20	-45.8	-49.1	15.3	7.00e-07	0	38	0	386924544	62	5498
2026-01-15 07:53:07.54	41.98	15.20	-45.8	-49.2	15.2	0.00e+00	0	38	0	389021696	62	5577
2026-01-15 07:53:08.55	41.77	15.20	-45.9	-49.3	15.1	0.00e+00	0	38	0	390070272	62	5632
2026-01-15 07:53:09.55	41.55	15.19	-46.0	-49.4	15.0	0.00e+00	0	38	0	392167424	62	5701
2026-01-15 07:53:10.55	41.34	15.19	-46.2	-49.7	14.7	0.00e+00	0	39	0	394264576	63	5591
2026-01-15 07:53:11.55	41.13	15.19	-46.2	-49.9	14.5	0.00e+00	0	38	0	396361728	63	5684
2026-01-15 07:53:12.55	40.91	15.18	-46.4	-50.2	14.3	7.00e-07	0	38	0	398458880	63	5887
2026-01-15 07:53:13.55	40.70	15.18	-46.4	-50.1	14.3	7.00e-07	0	38	0	399507456	63	5850
2026-01-15 07:53:14.55	40.49	15.17	-46.4	-50.2	14.2	7.00e-07	0	38	0	401604608	63	5921
2026-01-15 07:53:15.55	40.27	15.17	-46.2	-49.9	14.6	0.00e+00	0	38	0	403701760	63	5659
2026-01-15 07:53:16.56	40.06	15.16	-46.2	-49.7	14.7	0.00e+00	0	39	0	405798912	63	5584
2026-01-15 07:53:17.56	39.84	15.16	-46.2	-49.7	14.7	7.00e-07	0	39	0	407896064	63	5588
2026-01-15 07:53:18.55	39.63	15.15	-46.0	-49.4	15.0	0.00e+00	0	38	0	408944640	63	5395
2026-01-15 07:53:19.55	39.42	15.14	-46.2	-49.7	14.8	0.00e+00	0	38	0	411041792	63	5571
2026-01-15 07:53:20.55	39.21	15.14	-46.1	-49.6	14.9	0.00e+00	0	38	0	413138944	63	5528
2026-01-15 07:53:21.55	39.00	15.13	-46.0	-49.6	14.9	0.00e+00	0	38	0	415236096	63	5477
2026-01-15 07:53:22.55	38.78	15.12	-45.8	-49.3	15.2	0.00e+00	0	38	0	416284672	63	5299
2026-01-15 07:53:23.55	38.57	15.11	-45.8	-49.3	15.1	0.00e+00	0	38	0	418381824	63	5332
2026-01-15 07:53:24.56	38.36	15.10	-45.8	-49.3	15.1	0.00e+00	0	38	0	420478976	63	5312
2026-01-15 07:53:25.56	38.15	15.10	-45.8	-49.1	15.3	0.00e+00	0	38	0	422576128	63	5218
2026-01-15 07:53:26.56	37.93	15.09	-45.9	-49.4	15.1	0.00e+00	0	38	0	424673280	63	5349
2026-01-15 07:53:27.56	37.72	15.08	-45.7	-49.1	15.2	0.00e+00	0	38	0	425721856	63	5205
2026-01-15 07:53:28.56	37.51	15.07	-45.7	-49.1	15.4	0.00e+00	0	38	0	427819008	63	5192
2026-01-15 07:53:29.56	37.30	15.06	-45.6	-49.0	15.5	0.00e+00	0	38	0	429916160	63	5102
2026-01-15 07:53:30.56	37.09	15.05	-45.4	-48.6	15.8	0.00e+00	0	38	0	432013312	62	5180
2026-01-15 07:53:31.56	36.88	15.03	-45.2	-48.3	16.1	0.00e+00	0	38	0	434110464	62	5025
2026-01-15 07:53:32.56	36.67	15.02	-45.1	-48.2	16.2	0.00e+00	0	38	0	435159040	62	4947
2026-01-15 07:53:33.56	36.46	15.01	-45.1	-48.2	16.2	0.00e+00	0	38	0	437256192	62	4963
2026-01-15 07:53:34.56	36.24	15.00	-45.0	-48.0	16.3	0.00e+00	0	39	0	439353344	62	4870
2026-01-15 07:53:35.56	36.03	14.98	-45.0	-48.1	16.3	0.00e+00	0	38	0	441450496	62	4915
2026-01-15 07:53:36.55	35.83	14.97	-45.1	-48.3	16.1	0.00e+00	0	38	0	442499072	62	5003
2026-01-15 07:53:37.55	35.62	14.96	-45.2	-48.4	16.0	0.00e+00	0	39	0	444596224	62	5076
2026-01-15 07:53:38.55	35.41	14.94	-45.3	-48.5	15.9	0.00e+00	0	38	0	446693376	62	5154
2026-01-15 07:53:39.56	35.19	14.93	-45.3	-48.5	15.9	0.00e+00	0	38	0	448790528	62	5140
2026-01-15 07:53:40.56	34.99	14.92	-45.3	-48.6	15.9	0.00e+00	0	38	0	450887680	62	5160
2026-01-15 07:53:41.56	34.78	14.90	-45.3	-48.5	15.9	0.00e+00	0	38	0	451936256	62	5145
2026-01-15 07:53:42.56	34.57	14.88	-45.5	-48.8	15.7	0.00e+00	0	38	0	454033408	62	5298
2026-01-15 07:53:43.56	34.36	14.87	-45.6	-48.9	15.6	0.00e+00	0	38	0	456130560	62	5369
2026-01-15 07:53:44.56	34.15	14.85	-45.5	-48.8	15.7	0.00e+00	0	38	0	458227712	62	5316
2026-01-15 07:53:45.56	33.94	14.84	-45.5	-48.8	15.6	0.00e+00	0	38	0	460324864	62	5323
2026-01-15 07:53:46.57	33.73	14.82	-45.6	-48.8	15.6	0.00e+00	0	38	0	461373440	62	5338
2026-01-15 07:53:47.57	33.52	14.80	-45.6	-48.9	15.5	0.00e+00	0	39	0	463470592	62	5398
2026-01-15 07:53:48.57	33.32	14.78	-45.7	-49.0	15.4	0.00e+00	0	39	0	465567744	62	5463
2026-01-15 07:53:49.57	33.11	14.77	-45.7	-49.1	15.4	0.00e+00	0	38	0	467664896	62	5469
2026-01-15 07:53:50.57	32.90	14.75	-45.7	-49.1	15.4	0.00e+00	0	38	0	469762048	62	5517
2026-01-15 07:53:51.57	32.70	14.73	-45.6	-48.9	15.6	0.00e+00	0	38	0	470810624	62	5389
2026-01-15 07:53:52.58	32.49	14.71	-45.6	-48.9	15.6	0.00e+00	0	38	0	472907776	62	5402
2026-01-15 07:53:53.58	32.28	14.69	-45.5	-48.7	15.7	0.00e+00	0	38	0	475004928	62	5272
2026-01-15 07:53:54.58	32.07	14.67	-45.3	-48.5	16.0	0.00e+00	0	38	0	477102080	62	5108
2026-01-15 07:53:55.58	31.87	14.65	-45.1	-48.2	16.2	0.00e+00	0	38	0	478150656	62	4947
2026-01-15 07:53:56.58	31.66	14.63	-45.0	-48.0	16.4	0.00e+00	0	38	0	480247808	62	4856
2026-01-15 07:53:57.58	31.46	14.61	-45.0	-47.9	16.5	0.00e+00	0	38	0	482344960	61	5072
2026-01-15 07:53:58.58	31.25	14.59	-45.0	-48.0	16.4	0.00e+00	0	38	0	484442112	61	5140
2026-01-15 07:53:59.58	31.05	14.57	-45.2	-48.2	16.2	0.00e+00	0	38	0	486539264	61	5261
2026-01-15 07:54:00.58	30.85	14.54	-44.9	-47.8	16.6	0.00e+00	0	38	0	487587840	61	5000
2026-01-15 07:54:01.58	30.64	14.52	-45.0	-47.9	16.5	0.00e+00	0	38	0	489684992	61	5056
2026-01-15 07:54:02.58	30.44	14.50	-45.0	-47.9	16.5	0.00e+00	0	39	0	491782144	61	5047
2026-01-15 07:54:03.58	30.23	14.48	-44.7	-47.6	16.8	0.00e+00	0	38	0	493879296	61	4871
2026-01-15 07:54:04.58	30.03	14.45	-44.8	-47.7	16.7	0.00e+00	0	38	0	495976448	61	4933
2026-01-15 07:54:05.58	29.83	14.43	-44.9	-47.9	16.5	0.00e+00	0	38	0	497025024	61	5057
2026-01-15 07:54:06.58	29.63	14.41	-45.1	-48.1	16.2	0.00e+00	0	38	0	499122176	61	5202
2026-01-15 07:54:07.58	29.43	14.38	-45.1	-48.3	16.1	0.00e+00	0	38	0	501219328	61	5301
2026-01-15 07:54:08.58	29.22	14.36	-45.3	-48.7	15.7	0.00e+00	0	38	0	503316480	61	5565
2026-01-15 07:54:09.57	29.02	14.33	-45.4	-48.8	15.6	0.00e+00	0	38	0	504365056	61	5655
2026-01-15 07:54:10.57	28.82	14.31	-45.3	-48.9	15.6	0.00e+00	0	38	0	506462208	61	5674
2026-01-15 07:54:11.57	28.62	14.28	-45.3	-48.8	15.6	0.00e+00	0	39	0	508559360	61	5654
2026-01-15 07:54:12.58	28.42	14.25	-45.3	-48.9	15.6	0.00e+00	0	38	0	510656512	61	5674
2026-01-15 07:54:13.58	28.22	14.23	-45.4	-48.9	15.5	0.00e+00	0	39	0	512753664	61	5685
2026-01-15 07:54:14.58	28.02	14.20	-45.5	-49.0	15.4	0.00e+00	0	39	0	513802240	61	5763
2026-01-15 07:54:15.58	27.82	14.17	-45.8	-49.5	15.1	0.00e+00	0	39	0	515899392	62	5727
2026-01-15 07:54:16.59	27.62	14.15	-45.8	-49.4	15.1	7.00e-07	0	39	0	517996544	62	5710
2026-01-15 07:54:17.59	27.42	14.12	-45.9	-49.6	14.9	0.00e+00	0	38	0	520093696	62	5818
2026-01-15 07:54:18.59	27.23	14.09	-45.9	-49.6	15.0	0.00e+00	0	39	0	522190848	62	5792
2026-01-15 07:54:19.59	27.03	14.06	-45.8	-49.4	15.1	0.00e+00	0	39	0	523239424	62	5699
2026-01-15 07:54:20.59	26.83	14.04	-45.8	-49.4	15.1	0.00e+00	0	39	0	525336576	62	5695
2026-01-15 07:54:21.60	26.63	14.01	-45.7	-49.3	15.2	7.00e-07	0	39	0	527433728	62	5645
2026-01-15 07:54:22.60	26.44	13.98	-45.5	-49.0	15.4	0.00e+00	0	39	0	529530880	62	5456
2026-01-15 07:54:23.60	26.24	13.95	-45.3	-48.8	15.7	0.00e+00	0	39	0	531628032	62	5282
2026-01-15 07:54:24.60	26.04	13.92	-45.2	-48.7	15.8	0.00e+00	0	38	0	532676608	62	5222
2026-01-15 07:54:25.61	25.85	13.89	-45.2	-48.6	15.9	0.00e+00	0	38	0	534773760	62	5185
2026-01-15 07:54:26.60	25.65	13.86	-45.1	-48.4	16.0	0.00e+00	0	39	0	536870912	62	5089
2026-01-15 07:54:27.61	25.46	13.83	-45.3	-48.5	15.9	0.00e+00	0	38	0	538968064	62	5148
2026-01-15 07:54:28.61	25.26	13.80	-45.2	-48.4	16.0	0.00e+00	0	39	0	541065216	62	5068
2026-01-15 07:54:29.60	25.07	13.77	-45.3	-48.5	16.0	0.00e+00	0	38	0	542113792	62	5127
2026-01-15 07:54:30.60	24.88	13.74	-45.2	-48.4	16.0	0.00e+00	0	38	0	544210944	62	5071
2026-01-15 07:54:31.61	24.68	13.70	-45.3	-48.5	15.9	0.00e+00	0	39	0	546308096	62	5157
2026-01-15 07:54:32.60	24.49	13.67	-45.2	-48.5	16.0	0.00e+00	0	38	0	548405248	62	5106
2026-01-15 07:54:33.60	24.30	13.64	-45.1	-48.2	16.2	0.00e+00	0	38	0	549453824	62	4978
2026-01-15 07:54:34.60	24.11	13.61	-45.0	-48.0	16.4	0.00e+00	0	38	0	551550976	61	5131
2026-01-15 07:54:35.60	23.92	13.57	-44.9	-47.9	16.5	0.00e+00	0	38	0	553648128	61	5049
2026-01-15 07:54:36.60	23.73	13.54	-44.9	-47.9	16.5	0.00e+00	0	39	0	555745280	61	5086
2026-01-15 07:54:37.61	23.54	13.51	-45.0	-48.1	16.4	0.00e+00	0	38	0	557842432	61	5171
2026-01-15 07:54:38.61	23.35	13.47	-45.1	-48.3	16.2	0.00e+00	0	38	0	558891008	61	5281
2026-01-15 07:54:39.61	23.16	13.44	-45.2	-48.3	16.1	0.00e+00	0	39	0	560988160	61	5316
2026-01-15 07:54:40.61	22.97	13.41	-45.3	-48.5	15.9	0.00e+00	0	38	0	563085312	61	5464
2026-01-15 07:54:41.61	22.78	13.37	-45.5	-48.8	15.6	0.00e+00	0	38	0	565182464	61	5618
2026-01-15 07:54:42.61	22.59	13.34	-45.5	-48.9	15.5	0.00e+00	0	39	0	567279616	61	5698
2026-01-15 07:54:43.61	22.41	13.30	-45.3	-48.6	15.8	0.00e+00	0	38	0	568328192	61	5486
2026-01-15 07:54:44.61	22.22	13.27	-45.3	-48.6	15.8	0.00e+00	0	38	0	570425344	61	5506
2026-01-15 07:54:45.61	22.03	13.23	-45.4	-49.0	15.5	0.00e+00	0	38	0	572522496	61	5750
2026-01-15 07:54:46.61	21.85	13.20	-45.6	-49.2	15.2	0.00e+00	0	38	0	574619648	61	5920
2026-01-15 07:54:47.61	21.66	13.16	-45.8	-49.7	14.8	0.00e+00	0	38	0	576716800	62	5888
2026-01-15 07:54:48.61	21.48	13.12	-45.8	-49.8	14.7	0.00e+00	0	39	0	577765376	62	5965
2026-01-15 07:54:49.62	21.29	13.09	-45.9	-50.0	14.5	0.00e+00	0	38	0	579862528	62	6100
2026-01-15 07:54:50.62	21.10	13.05	-45.7	-49.8	14.6	0.00e+00	0	39	0	581959680	62	5971
2026-01-15 07:54:51.62	20.92	13.01	-45.7	-49.9	14.6	0.00e+00	0	38	0	584056832	62	6018
2026-01-15 07:54:52.62	20.74	12.98	-45.8	-49.9	14.6	7.00e-07	0	38	0	585105408	62	6049
2026-01-15 07:54:53.62	20.55	12.94	-45.7	-49.7	14.8	0.00e+00	0	38	0	587202560	62	5868
2026-01-15 07:54:54.62	20.37	12.90	-45.7	-49.6	14.9	0.00e+00	0	38	0	589299712	62	5810
2026-01-15 07:54:55.62	20.19	12.87	-45.8	-49.5	14.9	0.00e+00	0	39	0	591396864	62	5783
2026-01-15 07:54:56.62	20.01	12.83	-45.9	-49.6	14.9	0.00e+00	0	38	0	593494016	62	5831
2026-01-15 07:54:57.62	19.83	12.79	-45.9	-49.6	14.9	1.50e-06	0	38	0	594542592	62	5811
2026-01-15 07:54:58.63	19.65	12.75	-46.1	-49.9	14.6	0.00e+00	0	38	0	596639744	62	6033
2026-01-15 07:54:59.63	19.47	12.71	-46.0	-49.7	14.8	0.00e+00	0	39	0	598736896	62	5892
2026-01-15 07:55:00.63	19.29	12.67	-46.0	-49.7	14.8	0.00e+00	0	39	0	600834048	62	5864
2026-01-15 07:55:01.63	19.11	12.63	-46.2	-49.9	14.6	7.00e-07	0	38	0	602931200	63	5697
2026-01-15 07:55:02.63	18.93	12.59	-46.2	-49.8	14.6	0.00e+00	0	38	0	603979776	63	5622
2026-01-15 07:55:03.64	18.75	12.56	-46.1	-49.6	14.8	1.50e-06	0	38	0	606076928	63	5510
2026-01-15 07:55:04.64	18.57	12.52	-46.1	-49.6	14.8	0.00e+00	0	39	0	608174080	63	5523
2026-01-15 07:55:05.64	18.39	12.48	-46.1	-49.7	14.7	0.00e+00	0	38	0	610271232	63	5590
2026-01-15 07:55:06.64	18.22	12.44	-45.9	-49.6	14.9	0.00e+00	0	38	0	612368384	63	5465
2026-01-15 07:55:07.64	18.04	12.40	-46.2	-50.0	14.5	0.00e+00	0	39	0	613416960	63	5730
2026-01-15 07:55:08.64	17.87	12.35	-46.2	-50.0	14.4	1.50e-06	0	38	0	615514112	63	5760
2026-01-15 07:55:09.64	17.69	12.31	-46.1	-50.0	14.5	7.00e-07	0	39	0	617611264	63	5729
2026-01-15 07:55:10.63	17.52	12.27	-45.9	-49.7	14.8	0.00e+00	0	39	0	619708416	63	5562
2026-01-15 07:55:11.63	17.34	12.23	-45.9	-49.7	14.7	7.00e-07	0	38	0	620756992	63	5567
2026-01-15 07:55:12.63	17.17	12.19	-45.5	-49.2	15.2	0.00e+00	0	39	0	622854144	63	5258
2026-01-15 07:55:13.63	17.00	12.15	-45.3	-49.0	15.4	0.00e+00	0	38	0	624951296	62	5444
2026-01-15 07:55:14.63	16.82	12.11	-45.1	-48.8	15.6	0.00e+00	0	38	0	627048448	62	5314
2026-01-15 07:55:15.63	16.65	12.07	-44.8	-48.5	15.8	0.00e+00	0	38	0	629145600	61	5447
2026-01-15 07:55:16.63	16.48	12.02	-44.9	-48.7	15.7	0.00e+00	0	38	0	630194176	61	5553
2026-01-15 07:55:17.63	16.31	11.98	-44.9	-48.8	15.6	0.00e+00	0	38	0	632291328	61	5623
2026-01-15 07:55:18.63	16.14	11.94	-45.0	-49.1	15.3	0.00e+00	0	39	0	634388480	61	5800
2026-01-15 07:55:19.63	15.97	11.90	-45.2	-49.4	15.0	0.00e+00	0	38	0	636485632	61	6017
2026-01-15 07:55:20.63	15.80	11.86	-45.5	-49.8	14.6	7.00e-07	0	38	0	638582784	61	6342
2026-01-15 07:55:21.64	15.63	11.81	-45.7	-50.2	14.3	7.00e-07	0	38	0	639631360	62	6234
2026-01-15 07:55:22.64	15.46	11.77	-45.8	-50.1	14.4	1.50e-06	0	38	0	641728512	62	6156
2026-01-15 07:55:23.64	15.29	11.73	-46.0	-50.4	14.0	1.50e-06	0	38	0	643825664	62	6407
2026-01-15 07:55:24.64	15.12	11.68	-46.2	-50.5	13.9	1.50e-06	0	39	0	645922816	62	6472
2026-01-15 07:55:25.65	14.95	11.64	-46.1	-50.2	14.2	1.50e-06	0	38	0	646971392	62	6235
2026-01-15 07:55:26.65	14.79	11.59	-46.1	-50.1	14.4	7.00e-07	0	39	0	649068544	62	6137
2026-01-15 07:55:27.64	14.62	11.55	-46.2	-50.2	14.2	7.00e-07	0	38	0	651165696	63	5858
2026-01-15 07:55:28.64	14.46	11.51	-46.1	-50.0	14.4	2.20e-06	0	38	0	653262848	63	5759
2026-01-15 07:55:29.64	14.29	11.46	-46.0	-49.9	14.5	0.00e+00	0	38	0	655360000	63	5704
2026-01-15 07:55:30.65	14.13	11.42	-46.0	-50.1	14.3	7.00e-07	0	38	0	656408576	63	5806
2026-01-15 07:55:31.64	13.96	11.37	-46.0	-50.1	14.4	0.00e+00	0	38	0	658505728	63	5794
2026-01-15 07:55:32.64	13.80	11.33	-46.3	-50.7	13.7	3.80e-06	0	38	0	660602880	63	6274
2026-01-15 07:55:33.64	13.64	11.29	-46.7	-51.5	13.0	2.05e-05	0	38	0	662700032	63	6833
2026-01-15 07:55:34.64	13.47	11.24	-46.8	-52.0	12.3	1.17e-04	0	38	0	664797184	64	6877
2026-01-15 07:55:35.64	13.31	11.20	-47.0	-52.5	11.9	4.24e-04	0	38	0	665845760	64	7227
2026-01-15 07:55:36.64	13.15	11.15	-47.2	-53.3	11.1	9.91e-04	0	38	0	667942912	65	7510
2026-01-15 07:55:37.64	12.99	11.10	-47.2	-53.7	10.6	3.10e-03	0	38	0	670040064	65	7889
2026-01-15 07:55:38.63	12.83	11.06	-46.9	-53.5	10.8	2.26e-03	0	39	0	672137216	65	7636
2026-01-15 07:55:39.63	12.67	11.01	-46.7	-53.4	10.9	2.50e-03	0	39	0	674234368	65	7570
2026-01-15 07:55:40.63	12.51	10.97	-46.5	-52.9	11.4	1.69e-03	0	38	0	675282944	64	7597
2026-01-15 07:55:41.63	12.35	10.92	-46.3	-52.6	11.7	8.63e-04	0	39	0	677380096	64	7336
2026-01-15 07:55:42.63	12.19	10.88	-46.2	-52.6	11.8	4.63e-04	0	39	0	679477248	64	7316
2026-01-15 07:55:43.63	12.04	10.83	-46.3	-53.0	11.4	3.94e-04	0	39	0	681574400	64	7631
2026-01-15 07:55:44.62	11.88	10.79	-46.2	-52.3	12.0	2.81e-04	0	39	0	682622976	64	7057
2026-01-15 07:55:45.63	11.72	10.74	-46.4	-52.3	12.0	2.02e-04	0	39	0	684720128	64	7076
2026-01-15 07:55:46.63	11.57	10.69	-46.3	-52.0	12.3	2.16e-04	0	38	0	686817280	64	6846
2026-01-15 07:55:47.62	11.41	10.65	-46.4	-51.8	12.5	1.36e-04	0	38	0	688914432	64	6704
2026-01-15 07:55:48.62	11.26	10.60	-46.4	-51.7	12.6	8.01e-05	0	38	0	691011584	64	6600
2026-01-15 07:55:49.61	11.10	10.55	-46.2	-51.2	13.1	2.59e-05	0	38	0	692060160	64	6258
2026-01-15 07:55:50.61	10.95	10.51	-46.0	-50.7	13.5	1.29e-05	0	38	0	694157312	64	5921
2026-01-15 07:55:51.60	10.80	10.46	-45.9	-50.5	13.8	5.30e-06	0	38	0	696254464	63	6112
2026-01-15 07:55:52.60	10.64	10.41	-45.8	-50.5	13.9	2.20e-06	0	38	0	698351616	63	6099
2026-01-15 07:55:53.60	10.49	10.37	-45.8	-50.7	13.7	3.80e-06	0	39	0	699400192	63	6243
2026-01-15 07:55:54.59	10.34	10.32	-45.8	-50.8	13.5	9.10e-06	0	38	0	701497344	63	6335
2026-01-15 07:55:55.60	10.18	10.27	-45.7	-50.6	13.7	9.90e-06	0	38	0	703594496	63	6180
2026-01-15 07:55:56.60	10.03	10.22	-45.9	-50.8	13.6	9.90e-06	0	39	0	705691648	63	6307
2026-01-15 07:55:57.60	9.88	10.18	-45.9	-50.6	13.7	9.90e-06	0	39	0	707788800	63	6199
2026-01-15 07:55:58.60	9.73	10.13	-46.1	-50.8	13.6	4.50e-06	0	38	0	708837376	63	6289
2026-01-15 07:55:59.60	9.58	10.08	-46.0	-50.6	13.7	4.50e-06	0	39	0	710934528	63	6174
2026-01-15 07:56:00.60	9.43	10.03	-46.0	-50.4	13.9	6.10e-06	0	38	0	713031680	63	6056
2026-01-15 07:56:01.60	9.28	9.98	-45.9	-50.4	14.0	2.20e-06	0	38	0	715128832	63	6021
2026-01-15 07:56:02.60	9.14	9.94	-45.9	-50.4	14.0	7.00e-07	0	39	0	717225984	63	6036
2026-01-15 07:56:03.61	8.99	9.89	-45.9	-50.3	14.0	4.50e-06	0	39	0	718274560	63	5969
2026-01-15 07:56:04.61	8.84	9.84	-45.7	-50.1	14.2	1.50e-06	0	39	0	720371712	63	5836
2026-01-15 07:56:05.61	8.69	9.79	-45.8	-50.2	14.1	0.00e+00	0	39	0	722468864	63	5905
2026-01-15 07:56:06.62	8.54	9.74	-45.8	-50.2	14.2	2.20e-06	0	38	0	724566016	63	5869
2026-01-15 07:56:07.62	8.40	9.69	-45.8	-50.1	14.3	0.00e+00	0	39	0	726663168	63	5798
2026-01-15 07:56:08.62	8.25	9.64	-45.9	-50.0	14.3	2.20e-06	0	39	0	727711744	63	5778
2026-01-15 07:56:09.62	8.11	9.60	-46.0	-50.3	14.0	1.50e-06	0	38	0	729808896	63	5983
2026-01-15 07:56:10.62	7.96	9.55	-45.9	-50.2	14.1	1.50e-06	0	38	0	731906048	63	5905
2026-01-15 07:56:11.61	7.82	9.50	-45.9	-50.4	14.0	2.20e-06	0	38	0	734003200	63	6000
2026-01-15 07:56:12.61	7.68	9.45	-45.9	-50.4	13.9	1.50e-06	0	38	0	736100352	63	6032
2026-01-15 07:56:13.61	7.53	9.40	-45.9	-50.5	13.8	3.80e-06	0	38	0	737148928	63	6115
2026-01-15 07:56:14.61	7.39	9.35	-45.9	-50.7	13.6	4.50e-06	0	38	0	739246080	63	6244
2026-01-15 07:56:15.61	7.25	9.30	-45.9	-50.7	13.7	5.30e-06	0	38	0	741343232	63	6211
2026-01-15 07:56:16.61	7.11	9.25	-45.8	-50.7	13.7	8.30e-06	0	38	0	743440384	63	6219
2026-01-15 07:56:17.61	6.97	9.20	-45.7	-50.7	13.7	3.00e-06	0	38	0	744488960	63	6216
2026-01-15 07:56:18.61	6.83	9.15	-45.7	-50.6	13.8	4.50e-06	0	38	0	746586112	63	6143
2026-01-15 07:56:19.61	6.69	9.10	-45.6	-50.5	13.8	1.50e-06	0	38	0	748683264	63	6088
2026-01-15 07:56:20.61	6.55	9.06	-45.6	-50.5	13.9	3.00e-06	0	39	0	750780416	63	6064
2026-01-15 07:56:21.61	6.41	9.01	-46.4	-51.9	12.6	3.00e-06	0	39	0	752877568	63	7173
2026-01-15 07:56:22.61	6.27	8.96	-49.0	-65.8	3.8	1.49e+00	0	39	104	753926144	69	25084
2026-01-15 07:56:23.60	6.13	8.91	-50.2	-65.9	3.8	1.49e+00	0	38	104	753926144	71	22767
2026-01-15 07:56:24.60	6.00	8.86	-49.4	-66.1	3.8	1.49e+00	0	39	104	753926144	70	24514
2026-01-15 07:56:25.60	5.86	8.81	-50.3	-66.1	3.8	1.49e+00	0	38	104	753926144	72	21961
2026-01-15 07:56:26.59	5.72	8.76	-50.9	-66.2	3.8	1.49e+00	0	38	104	753926144	72	22229
2026-01-15 07:56:27.59	5.59	8.71	-50.6	-66.3	3.8	1.49e+00	0	39	104	753926144	72	22276
2026-01-15 07:56:28.58	5.45	8.66	-51.0	-66.3	3.8	1.49e+00	0	38	104	753926144	72	22323
2026-01-15 07:56:29.58	5.32	8.61	-50.9	-66.3	3.8	1.49e+00	0	38	104	753926144	72	22432
2026-01-15 07:56:30.58	5.18	8.56	-51.1	-66.3	3.8	1.49e+00	0	38	104	753926144	72	22465
2026-01-15 07:56:31.57	5.05	8.51	-51.1	-66.3	3.8	1.49e+00	0	39	104	753926144	72	22501
2026-01-15 07:56:32.57	4.92	8.46	-50.7	-66.4	3.8	1.49e+00	0	39	104	753926144	72	22561
2026-01-15 07:56:33.57	4.78	8.41	-51.1	-66.4	3.8	1.49e+00	0	39	104	753926144	72	22604
2026-01-15 07:56:34.56	4.65	8.36	-51.2	-66.4	3.8	1.49e+00	0	39	104	753926144	73	21283
2026-01-15 07:56:35.56	4.52	8.31	-50.8	-66.4	3.8	1.49e+00	0	39	104	753926144	73	21287
2026-01-15 07:56:36.56	4.39	8.26	-51.2	-66.4	3.8	1.49e+00	0	39	104	753926144	73	21297
2026-01-15 07:56:37.55	4.26	8.21	-51.1	-66.4	3.8	1.49e+00	0	39	104	753926144	73	21377
2026-01-15 07:56:38.55	4.13	8.16	-51.1	-66.4	3.8	1.49e+00	0	38	104	753926144	73	21378
2026-01-15 07:56:39.54	4.00	8.11	-51.1	-66.4	3.8	1.49e+00	0	38	104	753926144	73	21411
2026-01-15 07:56:40.54	3.87	8.06	-51.0	-66.4	3.8	1.49e+00	0	38	104	753926144	73	21323
2026-01-15 07:56:41.54	3.74	8.01	-51.1	-66.4	3.8	1.49e+00	0	38	104	753926144	73	21330
2026-01-15 07:56:42.53	3.61	7.96	-51.2	-66.4	3.8	1.49e+00	0	39	104	753926144	73	21335
2026-01-15 07:56:43.53	3.48	7.91	-51.2	-66.4	3.8	1.49e+00	0	39	104	753926144	73	21312
2026-01-15 07:56:44.52	3.35	7.86	-51.0	-66.4	3.8	1.49e+00	0	39	104	753926144	73	21348
2026-01-15 07:56:45.52	3.23	7.80	-51.1	-66.4	3.8	1.49e+00	0	38	104	753926144	73	21371
2026-01-15 07:56:46.52	3.10	7.75	-51.0	-66.4	3.8	1.49e+00	0	38	104	753926144	73	21277
2026-01-15 07:56:47.52	2.97	7.70	-51.1	-66.4	3.8	1.49e+00	0	38	104	753926144	73	21342
2026-01-15 07:56:48.51	2.85	7.65	-50.9	-66.3	3.8	1.49e+00	0	39	104	753926144	73	21247
2026-01-15 07:56:49.51	2.72	7.60	-51.0	-66.3	3.8	1.49e+00	0	38	104	753926144	73	21213
2026-01-15 07:56:50.51	2.60	7.55	-50.9	-66.4	3.8	1.49e+00	0	39	104	753926144	73	21280
2026-01-15 07:56:51.50	2.47	7.50	-50.9	-66.3	3.8	1.49e+00	0	39	104	753926144	73	21187
2026-01-15 07:56:52.50	2.35	7.45	-50.9	-66.3	3.8	1.49e+00	0	39	104	753926144	73	21237
2026-01-15 07:56:53.50	2.22	7.40	-50.9	-66.3	3.8	1.49e+00	0	39	104	753926144	73	21191
2026-01-15 07:56:54.49	2.10	7.35	-50.9	-66.3	3.8	1.49e+00	0	39	104	753926144	73	21248
2026-01-15 07:56:55.49	1.98	7.30	-50.9	-66.3	3.8	1.49e+00	0	38	104	753926144	73	21188
2026-01-15 07:56:56.48	1.86	7.25	-50.9	-66.3	3.8	1.49e+00	0	39	104	753926144	73	21218
2026-01-15 07:56:57.48	1.73	7.20	-50.9	-66.3	3.8	1.49e+00	0	39	104	753926144	73	21183
2026-01-15 07:56:58.48	1.61	7.14	-50.9	-66.3	3.8	1.49e+00	0	38	104	753926144	73	21229
2026-01-15 07:56:59.47	1.49	7.09	-50.9	-66.3	3.8	1.49e+00	0	38	104	753926144	73	21216
2026-01-15 07:57:00.46	1.37	7.04	-50.9	-66.3	3.8	1.49e+00	0	38	104	753926144	73	21169
2026-01-15 07:57:01.46	1.25	6.99	-50.9	-66.3	3.8	1.49e+00	0	38	104	753926144	73	21119
2026-01-15 07:57:02.46	1.13	6.94	-50.9	-66.3	3.8	1.49e+00	0	39	104	753926144	73	21114
2026-01-15 07:57:03.45	1.01	6.89	-50.9	-66.3	3.8	1.49e+00	0	38	104	753926144	73	21078
2026-01-15 07:57:04.45	0.89	6.84	-50.9	-66.3	3.8	1.49e+00	0	39	104	753926144	73	21188
2026-01-15 07:57:05.44	0.78	6.79	-50.9	-66.3	3.8	1.49e+00	0	38	104	753926144	73	21191
2026-01-15 07:57:06.44	0.66	6.74	-50.9	-66.3	3.8	1.49e+00	0	39	104	753926144	73	21111
2026-01-15 07:57:07.43	0.54	6.69	-50.9	-66.3	3.8	1.49e+00	0	39	104	753926144	73	21198
2026-01-15 07:57:08.43	0.42	6.64	-50.9	-66.3	3.8	1.49e+00	0	38	104	753926144	73	21130
2026-01-15 07:57:09.43	0.31	6.58	-50.9	-66.3	3.8	1.49e+00	0	38	104	753926144	73	21237
2026-01-15 07:57:10.42	0.19	6.53	-50.9	-66.3	3.8	1.49e+00	0	39	104	753926144	73	21114
2026-01-15 07:57:11.42	0.07	6.48	-50.9	-66.3	3.8	1.49e+00	0	38	104	753926144	73	21154
2026-01-15 07:57:12.42	359.96	6.43	-50.9	-66.3	3.8	1.49e+00	0	39	104	753926144	73	21210
2026-01-15 07:57:13.41	359.84	6.38	-50.9	-66.3	3.8	1.49e+00	0	38	104	753926144	73	21048
2026-01-15 07:57:14.41	359.73	6.33	-50.9	-66.3	3.8	1.49e+00	0	39	104	753926144	73	21175
2026-01-15 07:57:15.40	359.62	6.28	-50.9	-66.3	3.8	1.49e+00	0	39	104	753926144	73	21143
2026-01-15 07:57:16.40	359.50	6.23	-50.9	-66.3	3.8	1.49e+00	0	39	104	753926144	73	21123
2026-01-15 07:57:17.40	359.39	6.18	-50.9	-66.3	3.8	1.49e+00	0	39	104	753926144	73	21175
2026-01-15 07:57:18.39	359.28	6.12	-50.9	-66.3	3.8	1.49e+00	0	39	104	753926144	73	21167
2026-01-15 07:57:19.39	359.16	6.07	-50.9	-66.3	3.8	1.49e+00	0	39	104	753926144	73	21131
2026-01-15 07:57:20.39	359.05	6.02	-50.9	-66.3	3.8	1.49e+00	0	38	104	753926144	73	21120
2026-01-15 07:57:21.38	358.94	5.97	-50.9	-66.3	3.8	1.49e+00	0	39	104	753926144	73	21180
2026-01-15 07:57:22.38	358.83	5.92	-50.9	-66.3	3.8	1.49e+00	0	38	104	753926144	73	21133
2026-01-15 07:57:23.38	358.72	5.87	-50.9	-66.3	3.8	1.49e+00	0	39	104	753926144	73	21139
2026-01-15 07:57:24.37	358.61	5.82	-50.9	-66.3	3.8	1.49e+00	0	38	104	753926144	73	21147
2026-01-15 07:57:25.37	358.49	5.77	-50.9	-66.3	3.8	1.49e+00	0	39	104	753926144	73	21226
2026-01-15 07:57:26.37	358.38	5.71	-50.9	-66.3	3.8	1.49e+00	0	39	104	753926144	73	21176
2026-01-15 07:57:27.36	358.28	5.66	-50.9	-66.3	3.8	1.49e+00	0	38	104	753926144	73	21121
2026-01-15 07:57:28.35	358.17	5.61	-50.9	-66.3	3.8	1.49e+00	0	39	104	753926144	73	21202
2026-01-15 07:57:29.35	358.06	5.56	-50.9	-66.3	3.8	1.49e+00	0	39	104	753926144	73	21125
2026-01-15 07:57:30.35	357.95	5.51	-50.9	-66.3	3.8	1.49e+00	0	39	104	753926144	73	21152
2026-01-15 07:57:31.34	357.84	5.46	-50.9	-66.3	3.8	1.49e+00	0	39	104	753926144	73	21124
2026-01-15 07:57:32.34	357.74	5.41	-50.9	-66.3	3.8	1.49e+00	0	39	104	753926144	73	21136
2026-01-15 07:57:33.34	357.63	5.36	-50.9	-66.3	3.8	1.49e+00	0	39	104	753926144	73	21132
2026-01-15 07:57:34.34	357.52	5.31	-50.9	-66.3	3.8	1.49e+00	0	39	104	753926144	73	21116
2026-01-15 07:57:35.33	357.42	5.25	-50.9	-66.3	3.8	1.49e+00	0	39	104	753926144	73	21197
2026-01-15 07:57:36.33	357.31	5.20	-50.9	-66.3	3.8	1.49e+00	0	39	104	753926144	73	21176
2026-01-15 07:57:37.32	357.20	5.15	-50.9	-66.3	3.8	1.49e+00	0	39	104	753926144	73	21137
2026-01-15 07:57:38.32	357.10	5.10	-50.9	-66.3	3.8	1.49e+00	0	39	104	753926144	73	21102
2026-01-15 07:57:39.32	356.99	5.05	-50.9	-66.3	3.8	1.49e+00	0	39	104	753926144	73	21215
2026-01-15 07:57:40.32	356.89	5.00	-50.9	-66.3	3.8	1.49e+00	0	38	104	753926144	73	21094

#Closed at: 2026-01-15 07:57:41
#Recorded file [753 MB]: D:/Data/31040_260115_104824.dat