passes_logs/2026/01/15/T1/T1__20260115_133752_AQUA_rec.log

#Pass ID: 20260115_133752_AQUA
#Satellite: AQUA
#Configuration: AQUA
#almurnet v.1.7.20251203
#Start time: 2026-01-15 13:37:52

#Version: 2.0.20230620
#Station: T1
#Location: 37.570604 lon 55.790049 lat
#TLE: 1 27424U 02022A   26014.61231444  .00000653  00000+0  14070-3 0  9991
#TLE: 2 27424  98.4080 341.0332 0002042  78.9336 335.9961 14.61820174260839

#Time	Az	El	Level	Level2	SNR	BER	BlckErr	Temp	State	Recorded	gain1	gain2
2026-01-15 13:37:52.65	233.51	5.01	-51.6	-71.7	3.8	7.45e-01	0	39	0	0	74	37276
2026-01-15 13:37:53.64	233.65	5.06	-51.6	-71.7	3.8	7.46e-01	0	39	104	0	73	39301
2026-01-15 13:37:54.63	233.78	5.10	-51.6	-71.7	3.8	7.44e-01	0	39	104	0	73	39269
2026-01-15 13:37:55.62	233.91	5.15	-51.6	-71.7	3.8	7.44e-01	0	39	104	0	73	39311
2026-01-15 13:37:56.62	234.05	5.20	-51.6	-71.7	3.8	7.50e-01	0	39	104	0	73	39290
2026-01-15 13:37:57.61	234.18	5.25	-51.6	-71.7	3.8	7.45e-01	0	39	104	0	73	39331
2026-01-15 13:37:58.60	234.31	5.29	-51.6	-71.7	3.8	7.41e-01	0	39	104	0	73	39378
2026-01-15 13:37:59.60	234.45	5.34	-51.6	-71.7	3.8	7.48e-01	0	40	104	0	73	39277
2026-01-15 13:38:00.59	234.58	5.39	-51.6	-71.7	3.8	7.43e-01	0	39	104	0	73	39243
2026-01-15 13:38:01.58	234.72	5.43	-51.6	-71.7	3.8	7.48e-01	0	40	104	0	73	39194
2026-01-15 13:38:02.57	234.85	5.48	-51.6	-71.7	3.8	7.50e-01	0	40	104	0	73	39302
2026-01-15 13:38:03.57	234.99	5.53	-51.6	-71.7	3.8	7.46e-01	0	40	104	0	73	39265
2026-01-15 13:38:04.56	235.13	5.58	-51.6	-71.7	3.8	7.50e-01	0	40	104	0	73	39332
2026-01-15 13:38:05.55	235.27	5.62	-51.6	-71.7	3.8	7.48e-01	0	40	104	0	73	39247
2026-01-15 13:38:06.55	235.40	5.67	-51.6	-71.7	3.8	7.44e-01	0	40	104	0	73	39147
2026-01-15 13:38:07.54	235.54	5.72	-51.6	-71.7	3.8	7.45e-01	0	40	104	0	73	39276
2026-01-15 13:38:08.53	235.68	5.77	-51.6	-71.7	3.8	7.46e-01	0	40	104	0	73	39187
2026-01-15 13:38:09.53	235.82	5.81	-51.6	-71.6	3.8	7.47e-01	0	40	104	0	73	39100
2026-01-15 13:38:10.52	235.96	5.86	-51.6	-71.6	3.8	7.45e-01	0	40	104	0	73	39121
2026-01-15 13:38:11.51	236.10	5.91	-51.6	-71.7	3.8	7.42e-01	0	40	104	0	73	39229
2026-01-15 13:38:12.51	236.24	5.95	-51.6	-71.7	3.8	7.46e-01	0	40	104	0	73	39301
2026-01-15 13:38:13.50	236.38	6.00	-51.6	-71.7	3.8	7.45e-01	0	40	104	0	73	39218
2026-01-15 13:38:14.49	236.53	6.05	-51.6	-71.7	3.8	7.49e-01	0	40	104	0	73	39170
2026-01-15 13:38:15.49	236.67	6.09	-51.6	-71.6	3.8	7.50e-01	0	40	104	0	73	39031
2026-01-15 13:38:16.48	236.81	6.14	-51.6	-71.6	3.8	7.44e-01	0	40	104	0	73	38882
2026-01-15 13:38:17.47	236.95	6.19	-51.6	-71.5	3.8	7.47e-01	0	40	104	0	73	38684
2026-01-15 13:38:18.46	237.10	6.23	-51.6	-71.5	3.8	7.45e-01	0	40	104	0	73	38615
2026-01-15 13:38:19.46	237.24	6.28	-51.6	-71.6	3.8	7.47e-01	0	40	104	0	73	38762
2026-01-15 13:38:20.45	237.39	6.33	-51.6	-71.6	3.8	7.45e-01	0	40	104	0	73	38732
2026-01-15 13:38:21.44	237.53	6.37	-51.6	-71.6	3.8	7.43e-01	0	40	104	0	73	38716
2026-01-15 13:38:22.44	237.68	6.42	-51.6	-71.5	3.8	7.43e-01	0	40	104	0	73	38643
2026-01-15 13:38:23.43	237.83	6.47	-51.6	-71.5	3.8	7.46e-01	0	40	104	0	73	38606
2026-01-15 13:38:24.42	237.97	6.51	-51.6	-71.5	3.8	7.45e-01	0	40	104	0	73	38546
2026-01-15 13:38:25.42	238.12	6.56	-51.6	-71.5	3.8	7.46e-01	0	40	104	0	73	38682
2026-01-15 13:38:26.41	238.27	6.61	-51.6	-71.6	3.8	7.47e-01	0	41	104	0	73	38782
2026-01-15 13:38:27.40	238.41	6.65	-51.6	-71.6	3.8	7.47e-01	0	40	104	0	73	38959
2026-01-15 13:38:28.40	238.56	6.70	-51.6	-71.7	3.8	7.48e-01	0	40	104	0	73	39245
2026-01-15 13:38:29.39	238.71	6.74	-51.6	-71.7	3.8	7.47e-01	0	40	104	0	73	39264
2026-01-15 13:38:30.38	238.86	6.79	-51.6	-71.6	3.8	7.43e-01	0	41	104	0	73	39027
2026-01-15 13:38:31.38	239.01	6.84	-51.6	-71.5	3.8	7.44e-01	0	40	104	0	73	38536
2026-01-15 13:38:32.37	239.16	6.88	-51.6	-71.4	3.8	7.46e-01	0	40	104	0	73	38020
2026-01-15 13:38:33.36	239.32	6.93	-51.6	-71.4	3.8	7.43e-01	0	41	104	0	73	37970
2026-01-15 13:38:34.35	239.47	6.97	-51.6	-71.4	3.8	7.45e-01	0	41	104	0	73	38124
2026-01-15 13:38:35.35	239.62	7.02	-51.6	-71.5	3.8	7.48e-01	0	41	104	0	73	38513
2026-01-15 13:38:36.34	239.77	7.06	-51.6	-71.6	3.8	7.45e-01	0	41	104	0	73	38853
2026-01-15 13:38:37.33	239.92	7.11	-51.6	-71.6	3.8	7.45e-01	0	41	104	0	73	39052
2026-01-15 13:38:38.33	240.08	7.16	-51.6	-71.7	3.8	7.43e-01	0	41	104	0	73	39235
2026-01-15 13:38:39.32	240.23	7.20	-51.6	-71.7	3.8	7.46e-01	0	41	104	0	73	39219
2026-01-15 13:38:40.31	240.39	7.25	-51.6	-71.6	3.8	7.45e-01	0	41	104	0	73	39016
2026-01-15 13:38:41.30	240.54	7.29	-51.6	-71.5	3.8	7.49e-01	0	41	104	0	73	38470
2026-01-15 13:38:42.30	240.70	7.34	-51.6	-71.3	3.8	7.42e-01	0	41	104	0	73	37649
2026-01-15 13:38:43.29	240.86	7.38	-51.6	-71.2	3.8	7.41e-01	0	41	104	0	73	37152
2026-01-15 13:38:44.28	241.01	7.43	-51.6	-71.1	3.8	7.45e-01	0	41	104	0	73	36868
2026-01-15 13:38:45.28	241.17	7.47	-51.6	-71.0	3.8	7.45e-01	0	41	104	0	73	36381
2026-01-15 13:38:46.27	241.33	7.52	-51.6	-70.9	3.8	7.48e-01	0	41	104	0	73	35855
2026-01-15 13:38:47.26	241.49	7.56	-51.6	-70.7	3.8	7.45e-01	0	41	104	0	73	35282
2026-01-15 13:38:48.26	241.64	7.61	-51.6	-70.8	3.8	7.45e-01	0	41	104	0	73	35668
2026-01-15 13:38:49.25	241.80	7.65	-51.6	-71.1	3.8	7.45e-01	0	41	104	0	73	36709
2026-01-15 13:38:50.24	241.96	7.69	-51.6	-71.2	3.8	7.47e-01	0	41	104	0	73	37232
2026-01-15 13:38:51.23	242.12	7.74	-51.6	-71.1	3.8	7.47e-01	0	41	104	0	73	36785
2026-01-15 13:38:52.23	242.29	7.78	-51.6	-71.0	3.8	7.47e-01	0	41	104	0	73	36318
2026-01-15 13:38:53.22	242.45	7.83	-51.6	-71.2	3.8	7.50e-01	0	41	104	0	73	37051
2026-01-15 13:38:54.21	242.61	7.87	-51.6	-71.4	3.8	7.46e-01	0	41	104	0	73	38013
2026-01-15 13:38:55.20	242.77	7.91	-51.6	-71.3	3.8	7.42e-01	0	41	104	0	73	37446
2026-01-15 13:38:56.20	242.93	7.96	-51.6	-70.7	3.8	7.45e-01	0	41	104	0	73	34910
2026-01-15 13:38:57.19	243.10	8.00	-51.6	-70.0	3.8	7.47e-01	0	41	104	0	73	32528
2026-01-15 13:38:58.18	243.26	8.05	-51.6	-70.0	3.8	7.45e-01	0	41	104	0	73	32312
2026-01-15 13:38:59.18	243.43	8.09	-51.6	-70.4	3.8	7.44e-01	0	41	104	0	73	33762
2026-01-15 13:39:00.17	243.59	8.13	-51.6	-70.8	3.8	7.47e-01	0	41	104	0	73	35517
2026-01-15 13:39:01.16	243.76	8.18	-51.6	-70.9	3.8	7.46e-01	0	41	104	0	73	35973
2026-01-15 13:39:02.15	243.92	8.22	-51.6	-70.7	3.8	7.44e-01	0	41	104	0	73	35046
2026-01-15 13:39:03.15	244.09	8.26	-51.6	-70.1	3.8	7.47e-01	0	41	104	0	73	32909
2026-01-15 13:39:04.14	244.26	8.31	-51.6	-69.8	3.8	7.44e-01	0	41	104	0	73	31477
2026-01-15 13:39:05.13	244.42	8.35	-51.6	-70.0	3.8	7.46e-01	0	41	104	0	73	32423
2026-01-15 13:39:06.13	244.59	8.39	-51.6	-70.7	3.8	7.46e-01	0	41	104	0	73	35201
2026-01-15 13:39:07.12	244.76	8.43	-51.6	-70.7	3.8	7.48e-01	0	41	104	0	73	34928
2026-01-15 13:39:08.11	244.93	8.48	-51.5	-68.8	3.8	7.40e-01	0	41	104	0	73	28285
2026-01-15 13:39:09.11	245.10	8.52	-51.5	-67.0	4.6	7.21e-01	0	41	104	0	73	22858
2026-01-15 13:39:10.10	245.27	8.56	-51.5	-67.9	3.9	7.37e-01	0	41	104	0	73	25473
2026-01-15 13:39:11.09	245.44	8.60	-51.6	-71.2	3.8	7.47e-01	0	41	104	0	73	37209
2026-01-15 13:39:12.09	245.61	8.64	-51.5	-67.0	4.5	7.23e-01	0	41	104	0	73	23008
2026-01-15 13:39:13.08	245.78	8.69	-50.8	-60.0	10.2	6.22e-01	0	41	0	1048576	73	10252
2026-01-15 13:39:14.07	245.95	8.73	-49.7	-55.8	14.6	6.08e-01	0	41	0	3145728	71	7103
2026-01-15 13:39:15.06	246.13	8.77	-48.6	-53.1	17.3	6.05e-01	0	41	0	4718592	69	5849
2026-01-15 13:39:16.06	246.30	8.81	-47.6	-51.6	18.8	6.08e-01	0	41	0	6815744	67	5466
2026-01-15 13:39:17.05	246.47	8.85	-47.3	-51.0	19.4	6.08e-01	0	41	0	8388608	66	5436
2026-01-15 13:39:18.04	246.65	8.89	-47.4	-51.3	19.1	6.08e-01	0	41	0	10485760	66	5621
2026-01-15 13:39:19.04	246.82	8.93	-48.1	-52.3	18.1	6.07e-01	0	41	0	12058624	66	6324
2026-01-15 13:39:20.03	247.00	8.98	-48.9	-53.8	16.8	6.07e-01	0	41	0	14155776	68	6700
2026-01-15 13:39:21.02	247.17	9.02	-49.6	-55.5	15.1	6.06e-01	0	41	0	15728640	69	7710
2026-01-15 13:39:22.01	247.35	9.06	-50.1	-56.8	13.9	6.10e-01	0	41	0	17825792	70	8394
2026-01-15 13:39:23.01	247.53	9.10	-47.6	-52.3	18.1	6.06e-01	0	41	0	19922944	67	5933
2026-01-15 13:39:24.00	247.71	9.14	-50.4	-58.3	12.4	6.11e-01	0	41	0	21495808	71	9428
2026-01-15 13:39:24.99	247.88	9.18	-48.7	-55.6	14.9	6.09e-01	0	41	0	23592960	69	7785
2026-01-15 13:39:25.99	248.06	9.22	-47.8	-52.2	18.3	6.07e-01	0	41	0	25165824	66	6238
2026-01-15 13:39:26.98	248.24	9.26	-47.7	-51.9	18.6	6.07e-01	0	41	0	27262976	66	6030
2026-01-15 13:39:27.97	248.42	9.30	-47.5	-51.6	18.8	6.07e-01	0	41	0	28835840	66	5804
2026-01-15 13:39:28.97	248.60	9.34	-47.2	-50.9	19.4	6.07e-01	0	41	0	30932992	66	5382
2026-01-15 13:39:29.96	248.78	9.37	-46.8	-50.3	20.0	6.05e-01	0	41	0	32505856	65	5330
2026-01-15 13:39:30.95	248.96	9.41	-46.7	-50.1	20.3	6.07e-01	0	41	0	34603008	65	5173
2026-01-15 13:39:31.94	249.14	9.45	-46.6	-50.1	20.3	6.05e-01	0	41	0	36175872	65	5160
2026-01-15 13:39:32.94	249.33	9.49	-46.5	-49.9	20.4	6.06e-01	0	41	0	38273024	64	5365
2026-01-15 13:39:33.93	249.51	9.53	-46.4	-50.0	20.4	6.09e-01	0	41	0	40370176	64	5415
2026-01-15 13:39:34.92	249.69	9.57	-46.4	-49.9	20.4	6.07e-01	0	41	0	41943040	64	5373
2026-01-15 13:39:35.92	249.88	9.61	-46.4	-50.0	20.4	6.05e-01	0	41	0	44040192	64	5427
2026-01-15 13:39:36.91	250.06	9.64	-46.5	-50.1	20.3	6.08e-01	0	41	0	45613056	64	5481
2026-01-15 13:39:37.90	250.24	9.68	-46.4	-49.9	20.4	6.10e-01	0	41	0	47710208	64	5366
2026-01-15 13:39:38.89	250.43	9.72	-46.4	-49.9	20.5	6.08e-01	0	41	0	49283072	64	5360
2026-01-15 13:39:39.89	250.61	9.76	-46.4	-49.9	20.5	6.05e-01	0	41	0	51380224	64	5369
2026-01-15 13:39:40.88	250.80	9.80	-46.5	-50.0	20.4	6.07e-01	0	41	0	52953088	64	5408
2026-01-15 13:39:41.87	250.99	9.83	-46.5	-49.9	20.5	6.09e-01	0	41	0	55050240	64	5362
2026-01-15 13:39:42.87	251.17	9.87	-46.6	-50.0	20.3	6.08e-01	0	41	0	57147392	64	5422
2026-01-15 13:39:43.86	251.36	9.91	-46.5	-49.8	20.5	6.05e-01	0	41	0	58720256	64	5326
2026-01-15 13:39:44.85	251.55	9.94	-46.5	-49.8	20.6	6.06e-01	0	41	0	60817408	64	5299
2026-01-15 13:39:45.84	251.74	9.98	-46.6	-50.0	20.4	6.05e-01	0	41	0	62390272	64	5425
2026-01-15 13:39:46.84	251.93	10.02	-46.6	-50.0	20.4	6.05e-01	0	41	0	64487424	64	5428
2026-01-15 13:39:47.83	252.12	10.05	-46.5	-50.0	20.4	6.05e-01	0	42	0	66060288	64	5452
2026-01-15 13:39:48.82	252.30	10.09	-46.4	-50.0	20.4	6.05e-01	0	41	0	68157440	64	5410
2026-01-15 13:39:49.82	252.50	10.12	-46.3	-49.9	20.5	6.07e-01	0	41	0	69730304	64	5362
2026-01-15 13:39:50.81	252.69	10.16	-46.5	-50.0	20.4	6.07e-01	0	41	0	71827456	64	5419
2026-01-15 13:39:51.80	252.88	10.19	-46.6	-50.2	20.2	6.06e-01	0	41	0	73924608	64	5560
2026-01-15 13:39:52.79	253.07	10.23	-46.6	-50.2	20.3	6.07e-01	0	41	0	75497472	64	5537
2026-01-15 13:39:53.79	253.26	10.26	-46.5	-49.9	20.5	6.07e-01	0	41	0	77594624	64	5352
2026-01-15 13:39:54.78	253.45	10.30	-46.2	-49.5	20.8	6.07e-01	0	41	0	79167488	64	5153
2026-01-15 13:39:55.77	253.65	10.33	-46.2	-49.5	20.8	6.09e-01	0	41	0	81264640	64	5141
2026-01-15 13:39:56.77	253.84	10.36	-46.2	-49.6	20.8	6.05e-01	0	41	0	82837504	64	5167
2026-01-15 13:39:57.76	254.04	10.40	-46.3	-49.8	20.6	6.07e-01	0	41	0	84934656	64	5284
2026-01-15 13:39:58.75	254.23	10.43	-46.2	-49.7	20.6	6.06e-01	0	41	0	86507520	64	5269
2026-01-15 13:39:59.75	254.43	10.47	-46.1	-49.6	20.8	6.08e-01	0	41	0	88604672	64	5171
2026-01-15 13:40:00.74	254.62	10.50	-46.0	-49.6	20.8	6.07e-01	0	41	0	90177536	64	5178
2026-01-15 13:40:01.73	254.82	10.53	-46.1	-49.7	20.7	6.07e-01	0	41	0	92274688	64	5248
2026-01-15 13:40:02.72	255.01	10.56	-46.2	-49.7	20.7	6.07e-01	0	41	0	94371840	64	5223
2026-01-15 13:40:03.72	255.21	10.60	-46.2	-49.6	20.7	6.05e-01	0	41	0	95944704	64	5195
2026-01-15 13:40:04.71	255.41	10.63	-46.2	-49.5	20.8	6.09e-01	0	41	0	98041856	64	5158
2026-01-15 13:40:05.70	255.61	10.66	-46.2	-49.4	21.0	6.06e-01	0	41	0	99614720	64	5085
2026-01-15 13:40:06.69	255.80	10.69	-46.2	-49.5	20.8	6.08e-01	0	41	0	101711872	64	5143
2026-01-15 13:40:07.69	256.00	10.72	-46.2	-49.6	20.8	6.09e-01	0	41	0	103284736	64	5162
2026-01-15 13:40:08.68	256.20	10.75	-46.3	-49.6	20.8	6.06e-01	0	41	0	105381888	64	5172
2026-01-15 13:40:09.67	256.40	10.79	-46.2	-49.5	20.9	6.08e-01	0	41	0	106954752	64	5134
2026-01-15 13:40:10.67	256.60	10.82	-46.2	-49.5	20.8	6.08e-01	0	41	0	109051904	64	5156
2026-01-15 13:40:11.66	256.80	10.85	-46.2	-49.5	20.9	6.08e-01	0	41	0	111149056	64	5139
2026-01-15 13:40:12.65	257.00	10.88	-46.2	-49.5	20.9	6.06e-01	0	41	0	112721920	64	5101
2026-01-15 13:40:13.64	257.21	10.91	-46.2	-49.6	20.8	6.07e-01	0	42	0	114819072	64	5170
2026-01-15 13:40:14.64	257.41	10.94	-46.2	-49.5	20.9	6.07e-01	0	41	0	116391936	64	5125
2026-01-15 13:40:15.63	257.61	10.97	-46.2	-49.6	20.8	6.07e-01	0	41	0	118489088	64	5178
2026-01-15 13:40:16.62	257.81	10.99	-46.2	-49.5	20.9	6.09e-01	0	41	0	120061952	64	5101
2026-01-15 13:40:17.61	258.01	11.02	-46.2	-49.4	21.0	6.07e-01	0	41	0	122159104	64	5082
2026-01-15 13:40:18.61	258.22	11.05	-46.2	-49.5	20.9	6.07e-01	0	41	0	123731968	64	5113
2026-01-15 13:40:19.60	258.42	11.08	-46.2	-49.5	20.9	6.06e-01	0	41	0	125829120	64	5136
2026-01-15 13:40:20.59	258.63	11.11	-46.1	-49.4	20.9	6.07e-01	0	41	0	127401984	64	5093
2026-01-15 13:40:21.58	258.83	11.14	-46.0	-49.4	20.9	6.07e-01	0	41	0	129499136	64	5079
2026-01-15 13:40:22.58	259.04	11.16	-46.0	-49.5	21.0	6.06e-01	0	41	0	131596288	63	5418
2026-01-15 13:40:23.57	259.24	11.19	-45.9	-49.4	21.0	6.10e-01	0	41	0	133169152	63	5393
2026-01-15 13:40:24.56	259.45	11.22	-45.9	-49.4	21.0	6.08e-01	0	41	0	135266304	63	5390
2026-01-15 13:40:25.56	259.66	11.24	-46.0	-49.6	20.8	6.05e-01	0	41	0	136839168	63	5479
2026-01-15 13:40:26.55	259.86	11.27	-46.1	-49.5	20.9	6.07e-01	0	41	0	138936320	63	5454
2026-01-15 13:40:27.54	260.07	11.30	-46.1	-49.5	20.9	6.06e-01	0	41	0	140509184	63	5444
2026-01-15 13:40:28.53	260.28	11.32	-46.0	-49.4	21.1	6.06e-01	0	41	0	142606336	63	5343
2026-01-15 13:40:29.53	260.48	11.35	-46.0	-49.3	21.1	6.08e-01	0	41	0	144179200	63	5339
2026-01-15 13:40:30.52	260.69	11.37	-46.1	-49.5	21.0	6.06e-01	0	41	0	146276352	63	5404
2026-01-15 13:40:31.51	260.90	11.40	-46.2	-49.5	21.0	6.07e-01	0	41	0	148373504	63	5414
2026-01-15 13:40:32.50	261.11	11.42	-46.1	-49.4	21.1	6.06e-01	0	41	0	149946368	63	5345
2026-01-15 13:40:33.50	261.32	11.45	-46.3	-49.5	20.9	6.05e-01	0	41	0	152043520	63	5437
2026-01-15 13:40:34.49	261.53	11.47	-46.2	-49.3	21.1	6.07e-01	0	41	0	153616384	63	5331
2026-01-15 13:40:35.48	261.74	11.50	-46.2	-49.4	21.1	6.07e-01	0	41	0	155713536	63	5351
2026-01-15 13:40:36.48	261.95	11.52	-46.3	-49.4	21.0	6.07e-01	0	41	0	157286400	63	5392
2026-01-15 13:40:37.47	262.16	11.54	-46.3	-49.5	21.0	6.08e-01	0	41	0	159383552	63	5409
2026-01-15 13:40:38.46	262.37	11.56	-46.2	-49.4	21.1	6.07e-01	0	41	0	160956416	63	5376
2026-01-15 13:40:39.45	262.58	11.59	-46.2	-49.4	21.0	6.07e-01	0	41	0	163053568	63	5386
2026-01-15 13:40:40.45	262.80	11.61	-46.1	-49.4	21.1	6.08e-01	0	41	0	164626432	63	5367
2026-01-15 13:40:41.44	263.01	11.63	-46.1	-49.4	21.1	6.06e-01	0	41	0	166723584	63	5376
2026-01-15 13:40:42.43	263.22	11.65	-46.2	-49.5	20.9	6.06e-01	0	41	0	168820736	63	5454
2026-01-15 13:40:43.43	263.43	11.67	-46.2	-49.5	21.0	6.07e-01	0	41	0	170393600	63	5443
2026-01-15 13:40:44.42	263.65	11.69	-46.1	-49.4	21.1	6.06e-01	0	41	0	172490752	63	5365
2026-01-15 13:40:45.41	263.86	11.72	-46.2	-49.4	21.0	6.08e-01	0	41	0	174063616	63	5401
2026-01-15 13:40:46.40	264.07	11.74	-46.2	-49.4	21.1	6.08e-01	0	41	0	176160768	63	5358
2026-01-15 13:40:47.40	264.29	11.76	-46.3	-49.4	21.1	6.05e-01	0	41	0	177733632	63	5377
2026-01-15 13:40:48.39	264.50	11.78	-46.3	-49.4	21.1	6.09e-01	0	41	0	179830784	63	5371
2026-01-15 13:40:49.38	264.71	11.79	-46.3	-49.4	21.1	6.07e-01	0	41	0	181403648	63	5349
2026-01-15 13:40:50.38	264.93	11.81	-46.3	-49.3	21.1	6.06e-01	0	41	0	183500800	63	5340
2026-01-15 13:40:51.37	265.15	11.83	-46.3	-49.4	21.1	6.06e-01	0	42	0	185597952	63	5390
2026-01-15 13:40:52.36	265.36	11.85	-48.9	-54.0	15.2	6.11e-01	0	41	0	187170816	70	6101
2026-01-15 13:40:53.35	265.58	11.87	-49.5	-55.6	15.4	6.08e-01	0	41	0	189267968	69	7792
2026-01-15 13:40:54.35	265.79	11.89	-49.0	-54.5	16.0	6.09e-01	0	41	0	190840832	69	6832
2026-01-15 13:40:55.34	266.01	11.90	-49.1	-54.7	15.8	6.07e-01	0	41	0	192937984	69	6990
2026-01-15 13:40:56.33	266.22	11.92	-49.2	-54.7	16.0	6.09e-01	0	41	0	194510848	69	7015
2026-01-15 13:40:57.33	266.44	11.94	-49.0	-54.2	16.5	6.08e-01	0	41	0	196608000	69	6580
2026-01-15 13:40:58.32	266.66	11.95	-48.9	-53.9	16.7	6.07e-01	0	41	0	198180864	69	6397
2026-01-15 13:40:59.31	266.88	11.97	-48.6	-53.4	17.2	6.06e-01	0	41	0	200278016	69	6022
2026-01-15 13:41:00.30	267.09	11.98	-48.7	-53.5	17.1	6.06e-01	0	41	0	202375168	69	6118
2026-01-15 13:41:01.30	267.31	12.00	-48.5	-53.2	17.4	6.05e-01	0	41	0	203948032	69	5890
2026-01-15 13:41:02.29	267.53	12.02	-48.4	-53.1	17.5	6.07e-01	0	41	0	206045184	68	6170
2026-01-15 13:41:03.28	267.75	12.03	-48.3	-52.8	17.8	6.08e-01	0	42	0	207618048	68	5977
2026-01-15 13:41:04.28	267.97	12.04	-47.6	-51.7	18.7	6.08e-01	0	41	0	209715200	67	5589
2026-01-15 13:41:05.27	268.18	12.06	-47.7	-51.9	18.6	6.07e-01	0	42	0	211288064	67	5690
2026-01-15 13:41:06.26	268.40	12.07	-47.3	-51.2	19.3	6.08e-01	0	41	0	213385216	66	5546
2026-01-15 13:41:07.25	268.62	12.08	-46.8	-50.5	19.9	6.08e-01	0	41	0	214958080	65	5413
2026-01-15 13:41:08.25	268.84	12.10	-46.5	-49.9	20.5	6.06e-01	0	41	0	217055232	65	5067
2026-01-15 13:41:09.24	269.06	12.11	-46.2	-49.4	21.0	6.08e-01	0	41	0	218628096	64	5069
2026-01-15 13:41:10.23	269.28	12.12	-46.1	-49.3	21.1	6.05e-01	0	41	0	220725248	64	5002
2026-01-15 13:41:11.23	269.50	12.13	-46.2	-49.3	21.0	6.06e-01	0	41	0	222822400	64	5039
2026-01-15 13:41:12.22	269.72	12.15	-46.2	-49.3	21.1	6.07e-01	0	42	0	224395264	64	5033
2026-01-15 13:41:13.21	269.94	12.16	-46.2	-49.3	21.1	6.08e-01	0	42	0	226492416	64	5008
2026-01-15 13:41:14.20	270.16	12.17	-46.1	-49.2	21.1	6.07e-01	0	41	0	228065280	64	4979
2026-01-15 13:41:15.20	270.38	12.18	-46.1	-49.2	21.2	6.07e-01	0	41	0	230162432	64	4944
2026-01-15 13:41:16.19	270.60	12.19	-46.1	-49.3	21.1	6.09e-01	0	42	0	231735296	64	4998
2026-01-15 13:41:17.18	270.82	12.20	-46.0	-49.1	21.3	6.06e-01	0	41	0	233832448	64	4901
2026-01-15 13:41:18.17	271.04	12.21	-46.1	-49.2	21.3	6.06e-01	0	41	0	235405312	63	5248
2026-01-15 13:41:19.17	271.26	12.21	-46.1	-49.2	21.2	6.08e-01	0	41	0	237502464	63	5270
2026-01-15 13:41:20.16	271.49	12.22	-46.1	-49.2	21.3	6.07e-01	0	42	0	239599616	63	5259
2026-01-15 13:41:21.15	271.71	12.23	-46.0	-49.1	21.4	6.07e-01	0	41	0	241172480	63	5175
2026-01-15 13:41:22.15	271.93	12.24	-46.1	-49.2	21.2	6.08e-01	0	42	0	243269632	63	5258
2026-01-15 13:41:23.14	272.15	12.25	-46.2	-49.3	21.2	6.05e-01	0	41	0	244842496	63	5314
2026-01-15 13:41:24.13	272.37	12.25	-46.2	-49.3	21.2	6.06e-01	0	41	0	246939648	63	5290
2026-01-15 13:41:25.13	272.59	12.26	-46.1	-49.2	21.2	6.07e-01	0	41	0	248512512	63	5267
2026-01-15 13:41:26.12	272.82	12.27	-46.2	-49.3	21.1	6.06e-01	0	41	0	250609664	63	5327
2026-01-15 13:41:27.11	273.04	12.27	-46.2	-49.4	21.1	6.08e-01	0	41	0	252182528	63	5364
2026-01-15 13:41:28.11	273.26	12.28	-46.0	-49.1	21.4	6.06e-01	0	41	0	254279680	63	5169
2026-01-15 13:41:29.10	273.48	12.28	-46.0	-49.1	21.4	6.07e-01	0	41	0	255852544	63	5197
2026-01-15 13:41:30.09	273.70	12.29	-46.0	-49.1	21.3	6.06e-01	0	41	0	257949696	63	5202
2026-01-15 13:41:31.08	273.92	12.29	-46.0	-49.1	21.3	6.07e-01	0	41	0	260046848	63	5201
2026-01-15 13:41:32.08	274.15	12.30	-46.0	-49.1	21.4	6.07e-01	0	41	0	261619712	63	5169
2026-01-15 13:41:33.07	274.37	12.30	-46.0	-49.1	21.3	6.05e-01	0	41	0	263716864	63	5208
2026-01-15 13:41:34.06	274.59	12.30	-46.1	-49.3	21.2	6.07e-01	0	41	0	265289728	63	5283
2026-01-15 13:41:35.06	274.82	12.31	-46.2	-49.3	21.1	6.07e-01	0	41	0	267386880	63	5329
2026-01-15 13:41:36.05	275.04	12.31	-46.1	-49.2	21.2	6.07e-01	0	41	0	268959744	63	5273
2026-01-15 13:41:37.04	275.26	12.31	-46.0	-49.2	21.3	6.08e-01	0	41	0	271056896	63	5227
2026-01-15 13:41:38.03	275.48	12.31	-45.9	-49.1	21.4	6.07e-01	0	41	0	272629760	63	5168
2026-01-15 13:41:39.03	275.71	12.32	-46.1	-49.2	21.3	6.06e-01	0	41	0	274726912	63	5263
2026-01-15 13:41:40.02	275.93	12.32	-46.1	-49.2	21.3	6.08e-01	0	41	0	276824064	63	5223
2026-01-15 13:41:41.01	276.15	12.32	-46.1	-49.1	21.4	6.06e-01	0	41	0	278396928	63	5186
2026-01-15 13:41:42.01	276.37	12.32	-46.1	-49.1	21.4	6.08e-01	0	41	0	280494080	63	5185
2026-01-15 13:41:43.00	276.60	12.32	-46.1	-49.2	21.3	6.06e-01	0	41	0	282066944	63	5241
2026-01-15 13:41:43.99	276.82	12.32	-46.2	-49.3	21.2	6.07e-01	0	41	0	284164096	63	5296
2026-01-15 13:41:44.99	277.04	12.32	-46.1	-49.3	21.2	6.05e-01	0	41	0	285736960	63	5291
2026-01-15 13:41:45.98	277.26	12.32	-46.1	-49.4	21.1	6.07e-01	0	41	0	287834112	63	5341
2026-01-15 13:41:46.97	277.49	12.31	-45.9	-49.1	21.3	6.08e-01	0	41	0	289406976	63	5192
2026-01-15 13:41:47.97	277.71	12.31	-46.0	-49.1	21.4	6.06e-01	0	41	0	291504128	63	5194
2026-01-15 13:41:48.96	277.93	12.31	-45.9	-49.1	21.4	6.07e-01	0	41	0	293601280	63	5175
2026-01-15 13:41:49.95	278.15	12.31	-46.0	-49.1	21.4	6.08e-01	0	41	0	295174144	63	5166
2026-01-15 13:41:50.94	278.37	12.30	-46.1	-49.2	21.3	6.05e-01	0	42	0	297271296	63	5237
2026-01-15 13:41:51.94	278.60	12.30	-46.1	-49.2	21.3	6.08e-01	0	41	0	298844160	63	5250
2026-01-15 13:41:52.93	278.82	12.30	-46.1	-49.2	21.3	6.07e-01	0	41	0	300941312	63	5273
2026-01-15 13:41:53.92	279.04	12.29	-46.1	-49.3	21.2	6.08e-01	0	41	0	302514176	63	5286
2026-01-15 13:41:54.92	279.27	12.29	-46.0	-49.2	21.3	6.08e-01	0	41	0	304611328	63	5243
2026-01-15 13:41:55.91	279.49	12.28	-45.9	-49.1	21.4	6.07e-01	0	41	0	306184192	63	5170
2026-01-15 13:41:56.90	279.71	12.28	-46.0	-49.1	21.4	6.09e-01	0	42	0	308281344	63	5203
2026-01-15 13:41:57.89	279.93	12.27	-46.0	-49.1	21.3	6.09e-01	0	41	0	309854208	63	5200
2026-01-15 13:41:58.89	280.15	12.27	-46.0	-49.2	21.3	6.08e-01	0	41	0	311951360	63	5246
2026-01-15 13:41:59.88	280.37	12.26	-46.1	-49.2	21.3	6.10e-01	0	41	0	314048512	63	5232
2026-01-15 13:42:00.86	280.59	12.25	-46.1	-49.2	21.3	6.05e-01	0	41	0	315621376	63	5233
2026-01-15 13:42:01.85	280.81	12.25	-46.1	-49.3	21.2	6.06e-01	0	41	0	317718528	63	5283
2026-01-15 13:42:02.84	281.03	12.24	-46.1	-49.3	21.2	6.06e-01	0	41	0	319291392	63	5291
2026-01-15 13:42:03.84	281.26	12.23	-46.1	-49.2	21.2	6.09e-01	0	41	0	321388544	63	5270
2026-01-15 13:42:04.83	281.48	12.22	-46.1	-49.2	21.3	6.06e-01	0	41	0	322961408	63	5253
2026-01-15 13:42:05.82	281.70	12.22	-46.0	-49.1	21.4	6.07e-01	0	41	0	325058560	63	5175
2026-01-15 13:42:06.81	281.92	12.21	-46.1	-49.1	21.3	6.06e-01	0	41	0	326631424	63	5207
2026-01-15 13:42:07.81	282.14	12.20	-46.1	-49.2	21.2	6.08e-01	0	41	0	328728576	63	5235
2026-01-15 13:42:08.80	282.36	12.19	-46.2	-49.2	21.3	6.08e-01	0	41	0	330301440	63	5256
2026-01-15 13:42:09.79	282.58	12.18	-46.2	-49.3	21.2	6.06e-01	0	41	0	332398592	63	5286
2026-01-15 13:42:10.78	282.80	12.17	-46.3	-49.4	21.1	6.06e-01	0	41	0	334495744	63	5356
2026-01-15 13:42:11.78	283.02	12.16	-46.3	-49.3	21.1	6.07e-01	0	41	0	336068608	63	5333
2026-01-15 13:42:12.77	283.24	12.15	-46.2	-49.3	21.2	6.06e-01	0	41	0	338165760	63	5304
2026-01-15 13:42:13.76	283.46	12.13	-46.1	-49.2	21.2	6.08e-01	0	41	0	339738624	63	5259
2026-01-15 13:42:14.76	283.68	12.12	-46.1	-49.3	21.2	6.06e-01	0	41	0	341835776	63	5301
2026-01-15 13:42:15.75	283.90	12.11	-46.1	-49.3	21.1	6.07e-01	0	41	0	343408640	63	5321
2026-01-15 13:42:16.74	284.12	12.10	-46.1	-49.3	21.2	6.08e-01	0	41	0	345505792	63	5315
2026-01-15 13:42:17.73	284.33	12.09	-46.1	-49.3	21.1	6.06e-01	0	41	0	347078656	63	5331
2026-01-15 13:42:18.73	284.55	12.07	-46.3	-49.5	21.0	6.07e-01	0	41	0	349175808	63	5421
2026-01-15 13:42:19.72	284.77	12.06	-46.2	-49.4	21.1	6.06e-01	0	41	0	351272960	63	5367
2026-01-15 13:42:20.71	284.99	12.05	-46.1	-49.3	21.2	6.07e-01	0	41	0	352845824	63	5287
2026-01-15 13:42:21.71	285.21	12.03	-46.1	-49.3	21.1	6.07e-01	0	41	0	354942976	63	5330
2026-01-15 13:42:22.70	285.43	12.02	-46.1	-49.3	21.2	6.07e-01	0	41	0	356515840	63	5288
2026-01-15 13:42:23.69	285.64	12.00	-46.3	-49.4	21.1	6.06e-01	0	41	0	358612992	63	5382
2026-01-15 13:42:24.68	285.86	11.99	-46.3	-49.4	21.1	6.06e-01	0	41	0	360185856	63	5347
2026-01-15 13:42:25.68	286.08	11.97	-46.4	-49.5	21.0	6.08e-01	0	41	0	362283008	63	5452
2026-01-15 13:42:26.67	286.29	11.96	-46.3	-49.4	21.0	6.08e-01	0	41	0	363855872	63	5397
2026-01-15 13:42:27.66	286.51	11.94	-46.3	-49.5	20.9	6.05e-01	0	41	0	365953024	63	5455
2026-01-15 13:42:28.65	286.73	11.92	-46.3	-49.5	21.0	6.07e-01	0	41	0	368050176	63	5427
2026-01-15 13:42:29.65	286.94	11.91	-46.3	-49.5	20.9	6.07e-01	0	41	0	369623040	63	5460
2026-01-15 13:42:30.64	287.16	11.89	-46.3	-49.5	20.7	6.05e-01	0	41	0	371720192	63	5427
2026-01-15 13:42:31.63	287.37	11.87	-46.3	-49.4	21.1	6.08e-01	0	41	0	373293056	63	5378
2026-01-15 13:42:32.63	287.59	11.85	-46.3	-49.4	21.1	6.09e-01	0	41	0	375390208	63	5386
2026-01-15 13:42:33.62	287.80	11.83	-46.3	-49.5	21.0	6.07e-01	0	41	0	376963072	63	5438
2026-01-15 13:42:34.61	288.02	11.82	-46.3	-49.5	20.9	6.07e-01	0	41	0	379060224	63	5440
2026-01-15 13:42:35.60	288.23	11.80	-46.4	-49.5	20.9	6.08e-01	0	41	0	380633088	63	5459
2026-01-15 13:42:36.60	288.45	11.78	-46.3	-49.6	20.9	6.08e-01	0	41	0	382730240	63	5466
2026-01-15 13:42:37.59	288.66	11.76	-46.3	-49.6	20.8	6.07e-01	0	41	0	384303104	63	5523
2026-01-15 13:42:38.58	288.87	11.74	-46.2	-49.6	20.9	6.07e-01	0	41	0	386400256	63	5492
2026-01-15 13:42:39.58	289.09	11.72	-46.1	-49.6	20.9	6.07e-01	0	41	0	388497408	63	5486
2026-01-15 13:42:40.57	289.30	11.70	-46.0	-49.5	21.0	6.05e-01	0	41	0	390070272	63	5438
2026-01-15 13:42:41.56	289.51	11.68	-46.0	-49.6	20.9	6.05e-01	0	41	0	392167424	63	5486
2026-01-15 13:42:42.55	289.72	11.66	-46.1	-49.6	20.9	6.07e-01	0	41	0	393740288	63	5496
2026-01-15 13:42:43.55	289.94	11.63	-46.4	-49.8	20.7	6.08e-01	0	41	0	395837440	63	5605
2026-01-15 13:42:44.54	290.15	11.61	-46.4	-49.7	20.8	6.06e-01	0	41	0	397410304	63	5586
2026-01-15 13:42:45.53	290.36	11.59	-46.5	-49.7	20.7	6.07e-01	0	41	0	399507456	63	5591
2026-01-15 13:42:46.53	290.57	11.57	-46.4	-49.6	20.8	6.05e-01	0	41	0	401080320	63	5523
2026-01-15 13:42:47.52	290.78	11.55	-46.4	-49.7	20.8	6.06e-01	0	41	0	403177472	63	5549
2026-01-15 13:42:48.51	290.99	11.52	-46.5	-49.8	20.7	6.08e-01	0	41	0	405274624	63	5635
2026-01-15 13:42:49.51	291.20	11.50	-46.5	-49.8	20.6	6.08e-01	0	41	0	406847488	63	5646
2026-01-15 13:42:50.50	291.41	11.48	-46.4	-49.7	20.7	6.07e-01	0	41	0	408944640	63	5567
2026-01-15 13:42:51.49	291.62	11.45	-46.4	-49.8	20.7	6.06e-01	0	41	0	410517504	63	5633
2026-01-15 13:42:52.49	291.83	11.43	-46.5	-49.9	20.6	6.09e-01	0	41	0	412614656	63	5693
2026-01-15 13:42:53.48	292.04	11.40	-46.6	-50.0	20.5	6.09e-01	0	41	0	414187520	63	5738
2026-01-15 13:42:54.47	292.24	11.38	-46.6	-50.0	20.4	6.05e-01	0	41	0	416284672	64	5420
2026-01-15 13:42:55.46	292.45	11.35	-46.7	-50.0	20.4	6.07e-01	0	41	0	417857536	64	5433
2026-01-15 13:42:56.46	292.66	11.33	-46.7	-50.0	20.4	6.07e-01	0	41	0	419954688	64	5452
2026-01-15 13:42:57.45	292.86	11.30	-46.6	-49.9	20.5	6.07e-01	0	41	0	422051840	64	5381
2026-01-15 13:42:58.44	293.07	11.28	-46.5	-49.7	20.6	6.08e-01	0	41	0	423624704	64	5269
2026-01-15 13:42:59.44	293.28	11.25	-46.6	-49.9	20.5	6.07e-01	0	41	0	425721856	64	5362
2026-01-15 13:43:00.43	293.48	11.22	-46.6	-49.9	20.5	6.04e-01	0	41	0	427294720	64	5346
2026-01-15 13:43:01.42	293.69	11.20	-46.6	-49.9	20.4	6.06e-01	0	41	0	429391872	64	5397
2026-01-15 13:43:02.42	293.89	11.17	-46.6	-50.0	20.4	6.07e-01	0	41	0	430964736	64	5407
2026-01-15 13:43:03.41	294.10	11.14	-46.6	-49.8	20.5	6.06e-01	0	41	0	433061888	64	5330
2026-01-15 13:43:04.40	294.30	11.12	-46.6	-49.9	20.5	6.08e-01	0	41	0	434634752	64	5377
2026-01-15 13:43:05.39	294.50	11.09	-46.7	-50.0	20.4	6.07e-01	0	41	0	436731904	64	5437
2026-01-15 13:43:06.39	294.71	11.06	-46.7	-50.0	20.4	6.08e-01	0	41	0	438304768	64	5430
2026-01-15 13:43:07.38	294.91	11.03	-46.8	-50.1	20.3	6.09e-01	0	41	0	440401920	64	5496
2026-01-15 13:43:08.37	295.11	11.00	-46.7	-50.0	20.3	6.07e-01	0	41	0	442499072	64	5463
2026-01-15 13:43:09.36	295.31	10.97	-46.7	-50.1	20.2	6.08e-01	0	41	0	444071936	64	5513
2026-01-15 13:43:10.36	295.52	10.94	-46.5	-50.0	20.3	6.07e-01	0	42	0	446169088	64	5445
2026-01-15 13:43:11.35	295.72	10.92	-46.5	-50.0	20.4	6.10e-01	0	41	0	447741952	64	5422
2026-01-15 13:43:12.34	295.92	10.89	-46.5	-50.2	20.3	6.08e-01	0	41	0	449839104	64	5533
2026-01-15 13:43:13.33	296.12	10.86	-46.6	-50.2	20.2	6.06e-01	0	41	0	451411968	64	5539
2026-01-15 13:43:14.33	296.32	10.83	-46.7	-50.3	20.1	6.06e-01	0	41	0	453509120	64	5612
2026-01-15 13:43:15.32	296.52	10.79	-46.9	-50.4	20.0	6.06e-01	0	41	0	455081984	64	5688
2026-01-15 13:43:16.31	296.72	10.76	-47.0	-50.5	19.9	6.08e-01	0	41	0	457179136	64	5744
2026-01-15 13:43:17.31	296.91	10.73	-46.8	-50.3	20.1	6.06e-01	0	41	0	459276288	64	5609
2026-01-15 13:43:18.30	297.11	10.70	-46.8	-50.3	20.1	6.07e-01	0	41	0	460849152	64	5593
2026-01-15 13:43:19.29	297.31	10.67	-46.8	-50.2	20.1	6.09e-01	0	41	0	462946304	64	5589
2026-01-15 13:43:20.28	297.51	10.64	-46.8	-50.3	20.1	6.06e-01	0	41	0	464519168	64	5610
2026-01-15 13:43:21.28	297.70	10.61	-46.8	-50.4	20.0	6.05e-01	0	41	0	466616320	64	5676
2026-01-15 13:43:22.27	297.90	10.58	-46.8	-50.4	20.0	6.07e-01	0	41	0	468189184	64	5692
2026-01-15 13:43:23.26	298.09	10.54	-46.7	-50.4	20.0	6.07e-01	0	41	0	470286336	64	5665
2026-01-15 13:43:24.26	298.29	10.51	-46.7	-50.3	20.0	6.06e-01	0	41	0	471859200	64	5651
2026-01-15 13:43:25.25	298.49	10.48	-46.7	-50.3	20.1	6.08e-01	0	41	0	473956352	64	5615
2026-01-15 13:43:26.24	298.68	10.44	-46.7	-50.4	20.0	6.07e-01	0	41	0	475529216	64	5662
2026-01-15 13:43:27.23	298.87	10.41	-46.8	-50.5	19.9	6.07e-01	0	41	0	477626368	64	5736
2026-01-15 13:43:28.23	299.07	10.38	-46.7	-50.4	20.0	6.08e-01	0	41	0	479723520	64	5674
2026-01-15 13:43:29.22	299.26	10.34	-46.8	-50.5	19.9	6.06e-01	0	41	0	481296384	64	5762
2026-01-15 13:43:30.21	299.45	10.31	-46.8	-50.5	19.9	6.08e-01	0	41	0	483393536	64	5775
2026-01-15 13:43:31.21	299.64	10.28	-46.8	-50.3	20.0	6.05e-01	0	41	0	484966400	64	5642
2026-01-15 13:43:32.20	299.84	10.24	-46.8	-50.4	20.0	6.09e-01	0	41	0	487063552	64	5659
2026-01-15 13:43:33.19	300.03	10.21	-46.8	-50.3	20.0	6.09e-01	0	41	0	488636416	64	5631
2026-01-15 13:43:34.18	300.22	10.17	-46.8	-50.4	20.0	6.08e-01	0	41	0	490733568	64	5663
2026-01-15 13:43:35.18	300.41	10.14	-46.9	-50.5	19.9	6.07e-01	0	41	0	492306432	64	5732
2026-01-15 13:43:36.17	300.60	10.10	-47.0	-50.6	19.8	6.07e-01	0	41	0	494403584	64	5820
2026-01-15 13:43:37.16	300.78	10.07	-46.9	-50.5	19.9	6.06e-01	0	41	0	496500736	64	5744
2026-01-15 13:43:38.16	300.97	10.03	-46.9	-50.6	19.8	6.05e-01	0	41	0	498073600	64	5797
2026-01-15 13:43:39.15	301.16	9.99	-46.8	-50.6	19.8	6.07e-01	0	41	0	499646464	64	5792
2026-01-15 13:43:40.14	301.35	9.96	-46.9	-50.6	19.7	6.07e-01	0	41	0	501743616	64	5810
2026-01-15 13:43:41.14	301.54	9.92	-46.9	-50.5	19.8	6.08e-01	0	41	0	503840768	64	5761
2026-01-15 13:43:42.13	301.72	9.89	-46.9	-50.6	19.8	6.06e-01	0	41	0	505413632	64	5805
2026-01-15 13:43:43.12	301.91	9.85	-46.9	-50.6	19.8	6.06e-01	0	41	0	507510784	64	5790
2026-01-15 13:43:44.11	302.09	9.81	-46.8	-50.4	19.9	6.08e-01	0	41	0	509083648	64	5706
2026-01-15 13:43:45.11	302.28	9.78	-46.8	-50.5	19.8	6.06e-01	0	41	0	511180800	64	5773
2026-01-15 13:43:46.10	302.46	9.74	-46.7	-50.5	19.9	6.05e-01	0	41	0	512753664	64	5737
2026-01-15 13:43:47.09	302.65	9.70	-46.7	-50.5	19.9	6.10e-01	0	41	0	514850816	64	5735
2026-01-15 13:43:48.08	302.83	9.66	-46.7	-50.6	19.8	6.06e-01	0	41	0	516947968	64	5793
2026-01-15 13:43:49.08	303.02	9.63	-46.8	-50.6	19.7	6.06e-01	0	41	0	518520832	64	5796
2026-01-15 13:43:50.07	303.20	9.59	-47.0	-50.7	19.7	6.06e-01	0	41	0	520617984	64	5868
2026-01-15 13:43:51.06	303.38	9.55	-47.0	-50.7	19.6	6.06e-01	0	41	0	522190848	64	5903
2026-01-15 13:43:52.06	303.56	9.51	-47.1	-50.8	19.5	6.05e-01	0	41	0	524288000	64	5971
2026-01-15 13:43:53.05	303.74	9.47	-46.8	-50.6	19.8	6.08e-01	0	41	0	525860864	64	5804
2026-01-15 13:43:54.04	303.92	9.44	-46.7	-50.5	19.8	6.05e-01	0	41	0	527958016	64	5745
2026-01-15 13:43:55.03	304.10	9.40	-46.9	-50.7	19.6	6.07e-01	0	41	0	529530880	64	5860
2026-01-15 13:43:56.03	304.28	9.36	-47.0	-50.8	19.5	6.08e-01	0	41	0	531628032	64	5948
2026-01-15 13:43:57.02	304.46	9.32	-46.9	-50.7	19.6	6.05e-01	0	41	0	533725184	64	5908
2026-01-15 13:43:58.01	304.64	9.28	-46.9	-50.7	19.6	6.09e-01	0	41	0	535298048	64	5899
2026-01-15 13:43:59.01	304.82	9.24	-46.8	-50.6	19.7	6.07e-01	0	41	0	537395200	64	5794
2026-01-15 13:44:00.00	305.00	9.20	-46.6	-50.7	19.7	6.07e-01	0	41	0	538968064	64	5857
2026-01-15 13:44:00.99	305.17	9.16	-46.7	-50.8	19.5	6.06e-01	0	41	0	541065216	64	5935
2026-01-15 13:44:01.98	305.35	9.12	-46.7	-50.7	19.6	6.08e-01	0	41	0	542638080	64	5885
2026-01-15 13:44:02.98	305.53	9.08	-46.7	-50.7	19.6	6.08e-01	0	41	0	544735232	64	5878
2026-01-15 13:44:03.97	305.70	9.04	-46.5	-50.7	19.7	6.07e-01	0	41	0	546308096	64	5861
2026-01-15 13:44:04.96	305.88	9.00	-51.1	-66.5	5.3	7.08e-01	0	41	0	548405248	72	22873
2026-01-15 13:44:05.96	306.05	8.96	-51.8	-72.1	3.8	7.48e-01	0	41	104	548405248	74	39092
2026-01-15 13:44:06.95	306.23	8.92	-51.7	-72.0	3.8	7.45e-01	0	41	104	548405248	74	38409
2026-01-15 13:44:07.94	306.40	8.88	-51.9	-72.2	3.8	7.47e-01	0	41	104	548405248	74	39203
2026-01-15 13:44:08.94	306.57	8.84	-52.0	-72.3	3.8	7.46e-01	0	41	104	548405248	74	39634
2026-01-15 13:44:09.93	306.74	8.80	-52.3	-72.3	3.8	7.48e-01	0	41	104	548405248	75	37677
2026-01-15 13:44:10.92	306.92	8.76	-52.3	-72.4	3.8	7.46e-01	0	41	104	548405248	75	37839
2026-01-15 13:44:11.91	307.09	8.72	-52.5	-72.4	3.8	7.47e-01	0	41	104	548405248	75	37986
2026-01-15 13:44:12.91	307.26	8.67	-52.4	-72.4	3.8	7.46e-01	0	41	104	548405248	75	37974
2026-01-15 13:44:13.90	307.43	8.63	-52.1	-72.4	3.8	7.46e-01	0	41	104	548405248	75	38062
2026-01-15 13:44:14.89	307.60	8.59	-52.6	-72.4	3.8	7.49e-01	0	41	104	548405248	75	38162
2026-01-15 13:44:15.89	307.77	8.55	-52.3	-72.5	3.8	7.44e-01	0	41	104	548405248	75	38282
2026-01-15 13:44:16.88	307.94	8.51	-52.5	-72.4	3.8	7.47e-01	0	41	104	548405248	75	38148
2026-01-15 13:44:17.87	308.10	8.46	-52.5	-72.4	3.8	7.48e-01	0	41	104	548405248	75	38217
2026-01-15 13:44:18.86	308.27	8.42	-52.2	-72.5	3.8	7.47e-01	0	41	104	548405248	75	38374
2026-01-15 13:44:19.86	308.44	8.38	-52.3	-72.5	3.8	7.50e-01	0	41	104	548405248	75	38410
2026-01-15 13:44:20.85	308.61	8.34	-52.4	-72.5	3.8	7.49e-01	0	41	104	548405248	75	38363
2026-01-15 13:44:21.84	308.77	8.30	-52.3	-72.5	3.8	7.47e-01	0	41	104	548405248	75	38275
2026-01-15 13:44:22.84	308.94	8.25	-52.2	-72.5	3.8	7.46e-01	0	41	104	548405248	75	38321
2026-01-15 13:44:23.83	309.10	8.21	-52.2	-72.5	3.8	7.46e-01	0	41	104	548405248	75	38358
2026-01-15 13:44:24.82	309.27	8.17	-52.1	-72.4	3.8	7.46e-01	0	41	104	548405248	75	38244
2026-01-15 13:44:25.82	309.43	8.12	-51.9	-72.4	3.8	7.47e-01	0	41	104	548405248	75	38122
2026-01-15 13:44:26.81	309.60	8.08	-51.9	-72.4	3.8	7.47e-01	0	41	104	548405248	75	38058
2026-01-15 13:44:27.80	309.76	8.04	-51.9	-72.4	3.8	7.48e-01	0	42	104	548405248	75	38034
2026-01-15 13:44:28.80	309.92	7.99	-51.9	-72.4	3.8	7.46e-01	0	41	104	548405248	75	37880
2026-01-15 13:44:29.79	310.08	7.95	-51.9	-72.4	3.8	7.44e-01	0	41	104	548405248	75	38005
2026-01-15 13:44:30.78	310.25	7.91	-51.8	-72.4	3.8	7.44e-01	0	41	104	548405248	75	38038
2026-01-15 13:44:31.77	310.41	7.86	-51.7	-72.4	3.8	7.45e-01	0	41	104	548405248	75	37987
2026-01-15 13:44:32.77	310.57	7.82	-51.6	-72.4	3.8	7.47e-01	0	41	104	548405248	75	37964
2026-01-15 13:44:33.76	310.73	7.78	-51.6	-72.4	3.8	7.44e-01	0	41	104	548405248	75	38008
2026-01-15 13:44:34.75	310.89	7.73	-51.6	-72.4	3.8	7.45e-01	0	41	104	548405248	75	37962
2026-01-15 13:44:35.75	311.05	7.69	-51.6	-72.4	3.8	7.47e-01	0	41	104	548405248	75	37946
2026-01-15 13:44:36.74	311.21	7.65	-51.6	-72.4	3.8	7.46e-01	0	41	104	548405248	75	37979
2026-01-15 13:44:37.73	311.36	7.60	-51.6	-72.4	3.8	7.47e-01	0	41	104	548405248	75	38005
2026-01-15 13:44:38.73	311.52	7.56	-51.6	-72.4	3.8	7.46e-01	0	41	104	548405248	75	38026
2026-01-15 13:44:39.72	311.68	7.51	-51.6	-72.4	3.8	7.48e-01	0	41	104	548405248	75	37989
2026-01-15 13:44:40.71	311.83	7.47	-51.6	-72.4	3.8	7.50e-01	0	41	104	548405248	75	37847
2026-01-15 13:44:41.71	311.99	7.42	-51.6	-72.4	3.8	7.39e-01	0	41	104	548405248	75	37906
2026-01-15 13:44:42.70	312.15	7.38	-51.6	-72.4	3.8	7.45e-01	0	41	104	548405248	75	38005
2026-01-15 13:44:43.69	312.30	7.34	-51.6	-72.4	3.8	7.45e-01	0	41	104	548405248	75	37921
2026-01-15 13:44:44.69	312.46	7.29	-51.6	-72.4	3.8	7.44e-01	0	41	104	548405248	75	38005
2026-01-15 13:44:45.68	312.61	7.25	-51.6	-72.4	3.8	7.45e-01	0	41	104	548405248	75	38009
2026-01-15 13:44:46.67	312.76	7.20	-51.6	-72.4	3.8	7.46e-01	0	41	104	548405248	75	37891
2026-01-15 13:44:47.67	312.92	7.16	-51.6	-72.4	3.8	7.49e-01	0	41	104	548405248	75	37858
2026-01-15 13:44:48.66	313.07	7.11	-51.6	-72.4	3.8	7.47e-01	0	41	104	548405248	75	37978
2026-01-15 13:44:49.65	313.22	7.07	-51.6	-72.4	3.8	7.48e-01	0	41	104	548405248	75	37931
2026-01-15 13:44:50.65	313.37	7.02	-51.6	-72.4	3.8	7.48e-01	0	41	104	548405248	75	37946
2026-01-15 13:44:51.64	313.52	6.98	-51.6	-72.4	3.8	7.43e-01	0	41	104	548405248	75	37924
2026-01-15 13:44:52.63	313.67	6.93	-51.6	-72.4	3.8	7.48e-01	0	41	104	548405248	75	37937
2026-01-15 13:44:53.62	313.82	6.88	-51.6	-72.4	3.8	7.46e-01	0	42	104	548405248	75	37953
2026-01-15 13:44:54.62	313.98	6.84	-51.6	-72.4	3.8	7.45e-01	0	42	104	548405248	74	40136
2026-01-15 13:44:55.61	314.12	6.79	-51.6	-72.3	3.8	7.45e-01	0	41	104	548405248	74	39996
2026-01-15 13:44:56.60	314.27	6.75	-51.6	-72.4	3.8	7.46e-01	0	41	104	548405248	74	40155
2026-01-15 13:44:57.59	314.42	6.70	-51.6	-72.4	3.8	7.47e-01	0	41	104	548405248	74	40111
2026-01-15 13:44:58.59	314.57	6.66	-51.6	-72.4	3.8	7.47e-01	0	41	104	548405248	74	40143
2026-01-15 13:44:59.58	314.71	6.61	-51.6	-72.3	3.8	7.45e-01	0	41	104	548405248	74	40044
2026-01-15 13:45:00.57	314.86	6.57	-51.6	-72.4	3.8	7.45e-01	0	41	104	548405248	74	40086
2026-01-15 13:45:01.57	315.01	6.52	-51.6	-72.4	3.8	7.44e-01	0	41	104	548405248	74	40120
2026-01-15 13:45:02.56	315.15	6.47	-51.6	-72.4	3.8	7.48e-01	0	41	104	548405248	74	40125
2026-01-15 13:45:03.55	315.30	6.43	-51.6	-72.4	3.8	7.44e-01	0	41	104	548405248	74	40087
2026-01-15 13:45:04.55	315.44	6.38	-51.6	-72.4	3.8	7.45e-01	0	41	104	548405248	74	40071
2026-01-15 13:45:05.54	315.59	6.34	-51.6	-72.4	3.8	7.47e-01	0	41	104	548405248	74	40121
2026-01-15 13:45:06.53	315.73	6.29	-51.6	-72.4	3.8	7.44e-01	0	41	104	548405248	74	40080
2026-01-15 13:45:07.52	315.87	6.24	-51.6	-72.4	3.8	7.46e-01	0	41	104	548405248	74	40128
2026-01-15 13:45:08.52	316.02	6.20	-51.6	-72.4	3.8	7.45e-01	0	41	104	548405248	74	40145
2026-01-15 13:45:09.51	316.16	6.15	-51.6	-72.3	3.8	7.44e-01	0	41	104	548405248	74	39959
2026-01-15 13:45:10.50	316.30	6.11	-51.6	-72.4	3.8	7.43e-01	0	41	104	548405248	74	40085
2026-01-15 13:45:11.50	316.44	6.06	-51.6	-72.4	3.8	7.45e-01	0	41	104	548405248	74	40073
2026-01-15 13:45:12.49	316.58	6.01	-51.6	-72.4	3.8	7.44e-01	0	41	104	548405248	74	40065
2026-01-15 13:45:13.48	316.72	5.97	-51.6	-72.4	3.8	7.49e-01	0	41	104	548405248	74	40154
2026-01-15 13:45:14.48	316.86	5.92	-51.6	-72.4	3.8	7.45e-01	0	41	104	548405248	74	40144
2026-01-15 13:45:15.47	317.00	5.87	-51.6	-72.3	3.8	7.44e-01	0	41	104	548405248	74	40007
2026-01-15 13:45:16.46	317.14	5.83	-51.6	-72.3	3.8	7.48e-01	0	41	104	548405248	74	40037
2026-01-15 13:45:17.45	317.28	5.78	-51.6	-72.4	3.8	7.45e-01	0	41	104	548405248	74	40048
2026-01-15 13:45:18.45	317.42	5.73	-51.6	-72.3	3.8	7.47e-01	0	41	104	548405248	74	39988
2026-01-15 13:45:19.44	317.56	5.69	-51.6	-72.4	3.8	7.51e-01	0	41	104	548405248	74	40072
2026-01-15 13:45:20.43	317.69	5.64	-51.6	-72.3	3.8	7.44e-01	0	42	104	548405248	74	39986
2026-01-15 13:45:21.43	317.83	5.59	-51.6	-72.3	3.8	7.45e-01	0	41	104	548405248	74	39989
2026-01-15 13:45:22.42	317.97	5.55	-51.6	-72.3	3.8	7.47e-01	0	41	104	548405248	74	39986
2026-01-15 13:45:23.41	318.10	5.50	-51.6	-72.4	3.8	7.48e-01	0	41	104	548405248	74	40063
2026-01-15 13:45:24.41	318.24	5.45	-51.6	-72.3	3.8	7.47e-01	0	41	104	548405248	74	39963
2026-01-15 13:45:25.40	318.37	5.41	-51.6	-72.3	3.8	7.46e-01	0	41	104	548405248	74	39969
2026-01-15 13:45:26.39	318.51	5.36	-51.6	-72.4	3.8	7.45e-01	0	41	104	548405248	74	40050
2026-01-15 13:45:27.38	318.64	5.31	-51.6	-72.3	3.8	7.46e-01	0	41	104	548405248	74	40013
2026-01-15 13:45:28.38	318.77	5.27	-51.6	-72.3	3.8	7.46e-01	0	41	104	548405248	74	39937
2026-01-15 13:45:29.37	318.91	5.22	-51.6	-72.3	3.8	7.46e-01	0	41	104	548405248	74	39957
2026-01-15 13:45:30.36	319.04	5.17	-51.6	-72.4	3.8	7.43e-01	0	41	104	548405248	74	40110
2026-01-15 13:45:31.36	319.17	5.12	-51.6	-72.3	3.8	7.47e-01	0	41	104	548405248	74	40028
2026-01-15 13:45:32.35	319.30	5.08	-51.6	-72.3	3.8	7.41e-01	0	42	104	548405248	74	40041
2026-01-15 13:45:33.34	319.43	5.03	-51.5	-72.3	3.8	7.47e-01	0	41	104	548405248	74	40025
2026-01-15 13:45:34.33	319.56	4.98	-51.6	-72.3	3.8	7.48e-01	0	41	104	548405248	74	39957

#Closed at: 2026-01-15 13:45:35
#Recorded file [548 MB]: D:/Data/31040_260115_163752.dat